passes_logs/2026/01/07/R3.2S_Murmansk/R3.2S_Murmansk__20260107_030155_FENGYUN_3D_rec.log

#Pass ID: 20260107_030155_FENGYUN 3D
#Satellite: FENGYUN 3D
#Configuration: FENGYUN 3D
#almurnet v.1.7.20251203
#Start time: 2026-01-07 03:01:56

#Version: 2.2.20231116
#Station: R3.2S_Murmansk
#Location: 33.079688 lon 68.888172 lat
#TLE: 1 43010U 17072A   26006.26440730  .00000376  00000+0  19957-3 0  9994
#TLE: 2 43010  98.9925 337.9455 0002045 123.9195 236.2175 14.19693586422016

#Time	Az	El	Level	Level2	SNR	BER	BlckErr	Temp	State	Recorded	gain1	gain2
2026-01-07 03:01:56.94	26.22	2.11	-57.5	-70.5	3.8	8.43e-01	0	23	0	0	81	15847
2026-01-07 03:01:57.93	26.22	2.17	-57.5	-70.5	3.8	8.46e-01	0	23	104	0	80	16707
2026-01-07 03:01:58.94	26.22	2.24	-57.5	-70.5	3.8	8.46e-01	0	23	104	0	80	16767
2026-01-07 03:01:59.94	26.21	2.30	-57.5	-70.5	3.8	8.46e-01	0	23	104	0	80	16772
2026-01-07 03:02:00.94	26.21	2.37	-57.5	-70.5	3.8	8.45e-01	0	24	104	0	80	16778
2026-01-07 03:02:01.94	26.21	2.43	-57.5	-70.5	3.8	8.45e-01	0	24	104	0	80	16745
2026-01-07 03:02:02.95	26.20	2.50	-57.5	-70.5	3.8	8.46e-01	0	23	104	0	80	16770
2026-01-07 03:02:03.94	26.20	2.56	-57.5	-70.5	3.8	8.45e-01	0	23	104	0	80	16730
2026-01-07 03:02:04.94	26.20	2.63	-57.5	-70.5	3.8	8.46e-01	0	24	104	0	80	16760
2026-01-07 03:02:05.94	26.19	2.69	-57.5	-70.5	3.8	8.47e-01	0	24	104	0	80	16704
2026-01-07 03:02:06.94	26.19	2.76	-57.5	-70.4	3.8	8.44e-01	0	24	104	0	80	16581
2026-01-07 03:02:07.95	26.19	2.82	-57.5	-70.3	3.8	8.46e-01	0	24	104	0	80	16474
2026-01-07 03:02:08.95	26.18	2.89	-57.5	-70.2	3.8	8.47e-01	0	24	104	0	80	16277
2026-01-07 03:02:09.95	26.18	2.96	-57.5	-70.1	3.8	8.46e-01	0	24	104	0	80	16083
2026-01-07 03:02:10.96	26.18	3.02	-57.5	-70.1	3.8	8.45e-01	0	24	104	0	80	16012
2026-01-07 03:02:11.95	26.17	3.09	-57.5	-69.9	3.8	8.46e-01	0	24	104	0	80	15635
2026-01-07 03:02:12.95	26.17	3.15	-57.5	-70.0	3.8	8.45e-01	0	24	104	0	80	15763
2026-01-07 03:02:13.96	26.17	3.22	-57.5	-70.0	3.8	8.45e-01	0	24	104	0	80	15920
2026-01-07 03:02:14.96	26.16	3.29	-57.5	-70.1	3.8	8.45e-01	0	24	104	0	80	16065
2026-01-07 03:02:15.96	26.16	3.35	-57.5	-70.3	3.8	8.46e-01	0	24	104	0	80	16361
2026-01-07 03:02:16.96	26.16	3.42	-57.5	-70.3	3.8	8.46e-01	0	24	104	0	80	16362
2026-01-07 03:02:17.97	26.15	3.49	-57.5	-70.1	3.8	8.45e-01	0	24	104	0	80	15982
2026-01-07 03:02:18.97	26.15	3.56	-57.4	-69.6	3.8	8.45e-01	0	24	104	0	80	15179
2026-01-07 03:02:19.97	26.14	3.62	-57.4	-69.0	3.8	8.45e-01	0	24	104	0	80	14205
2026-01-07 03:02:20.96	26.14	3.69	-57.3	-67.7	4.0	8.42e-01	0	24	0	0	80	12142
2026-01-07 03:02:21.97	26.14	3.76	-57.1	-66.1	4.4	8.33e-01	0	24	0	0	80	10167
2026-01-07 03:02:22.97	26.13	3.83	-56.8	-64.2	5.3	7.33e-01	0	24	0	0	80	8110
2026-01-07 03:02:23.97	26.13	3.90	-56.5	-62.9	6.2	2.97e-01	0	24	0	4194304	79	7431
2026-01-07 03:02:24.97	26.12	3.96	-55.8	-60.8	7.9	6.77e-02	0	24	0	10485760	78	6152
2026-01-07 03:02:25.98	26.12	4.03	-55.3	-59.5	9.0	2.38e-02	0	24	0	15728640	77	5648
2026-01-07 03:02:26.98	26.12	4.10	-54.7	-58.3	10.0	4.46e-03	0	24	0	20971520	76	5204
2026-01-07 03:02:27.98	26.11	4.17	-54.2	-57.5	10.6	1.18e-03	0	24	0	27262976	75	5002
2026-01-07 03:02:28.98	26.11	4.24	-53.8	-56.8	11.2	3.11e-04	0	24	0	32505856	74	4872
2026-01-07 03:02:29.98	26.10	4.31	-53.3	-56.1	11.7	4.23e-05	0	24	0	37748736	73	4769
2026-01-07 03:02:30.98	26.10	4.38	-53.3	-56.1	11.6	3.77e-05	0	24	0	44040192	73	4774
2026-01-07 03:02:31.98	26.10	4.45	-53.3	-56.0	11.6	3.08e-05	0	24	0	49283072	72	4985
2026-01-07 03:02:32.98	26.09	4.52	-53.1	-55.7	11.8	1.60e-05	0	24	0	54525952	72	4839
2026-01-07 03:02:33.98	26.09	4.59	-52.9	-55.5	12.1	6.80e-06	0	24	0	60817408	72	4706
2026-01-07 03:02:34.98	26.08	4.66	-52.9	-55.3	12.1	0.00e+00	0	24	0	66060288	72	4645
2026-01-07 03:02:35.98	26.08	4.73	-53.3	-56.0	11.6	6.80e-06	0	24	0	72351744	72	5041
2026-01-07 03:02:36.99	26.07	4.80	-53.5	-56.4	11.3	8.01e-05	0	24	0	77594624	72	5223
2026-01-07 03:02:37.99	26.07	4.87	-53.7	-56.7	11.1	1.75e-04	0	24	0	83886080	72	5433
2026-01-07 03:02:38.99	26.06	4.94	-53.9	-57.1	10.8	2.48e-04	0	24	0	89128960	72	5685
2026-01-07 03:02:39.99	26.06	5.01	-54.4	-57.9	10.2	9.15e-04	0	24	0	94371840	73	5864
2026-01-07 03:02:40.99	26.05	5.08	-54.4	-57.8	10.4	1.18e-03	0	24	0	100663296	74	5507
2026-01-07 03:02:41.99	26.05	5.16	-53.3	-55.9	11.7	1.02e-05	0	24	0	105906176	72	4969
2026-01-07 03:02:42.99	26.05	5.23	-56.2	-61.9	7.0	7.96e-03	0	24	0	111149056	77	7420
2026-01-07 03:02:43.98	26.04	5.30	-50.3	-51.9	14.0	0.00e+00	0	24	0	117440512	67	4182
2026-01-07 03:02:44.98	26.04	5.37	-56.5	-63.7	5.6	2.74e-02	0	24	0	122683392	78	8659
2026-01-07 03:02:45.97	26.03	5.44	-50.3	-52.0	14.0	0.00e+00	0	24	0	127926272	67	4196
2026-01-07 03:02:46.98	26.03	5.52	-50.2	-51.8	14.1	0.00e+00	0	24	0	133169152	67	4131
2026-01-07 03:02:47.98	26.02	5.59	-50.1	-51.6	14.1	0.00e+00	0	24	0	139460608	66	4286
2026-01-07 03:02:48.98	26.02	5.66	-50.1	-51.7	14.1	0.00e+00	0	24	0	144703488	66	4305
2026-01-07 03:02:49.97	26.01	5.73	-50.0	-51.6	14.1	0.00e+00	0	25	0	149946368	66	4281
2026-01-07 03:02:50.97	26.01	5.81	-50.1	-51.7	14.1	0.00e+00	0	24	0	156237824	66	4296
2026-01-07 03:02:51.97	26.00	5.88	-49.7	-51.3	14.3	0.00e+00	0	24	0	161480704	66	4104
2026-01-07 03:02:52.96	26.00	5.95	-49.9	-51.5	14.2	0.00e+00	0	25	0	166723584	66	4196
2026-01-07 03:02:53.96	25.99	6.03	-49.9	-51.4	14.2	0.00e+00	0	25	0	173015040	66	4169
2026-01-07 03:02:54.96	25.98	6.10	-49.8	-51.3	14.3	0.00e+00	0	25	0	178257920	66	4138
2026-01-07 03:02:55.96	25.98	6.17	-49.8	-51.3	14.3	0.00e+00	0	25	0	184549376	66	4120
2026-01-07 03:02:56.97	25.97	6.25	-49.8	-51.3	14.3	0.00e+00	0	25	0	189792256	66	4139
2026-01-07 03:02:57.96	25.97	6.32	-49.9	-51.4	14.3	0.00e+00	0	25	0	195035136	66	4161
2026-01-07 03:02:58.97	25.96	6.40	-49.7	-51.2	14.4	0.00e+00	0	25	0	201326592	66	4086
2026-01-07 03:02:59.97	25.96	6.47	-49.5	-51.0	14.3	0.00e+00	0	24	0	206569472	65	4222
2026-01-07 03:03:00.97	25.95	6.55	-49.5	-50.9	14.4	0.00e+00	0	25	0	211812352	65	4175
2026-01-07 03:03:01.97	25.95	6.63	-49.5	-51.0	14.4	0.00e+00	0	25	0	218103808	65	4199
2026-01-07 03:03:02.97	25.94	6.70	-49.6	-51.0	14.3	0.00e+00	0	25	0	223346688	65	4228
2026-01-07 03:03:03.96	25.93	6.78	-49.3	-50.8	14.5	0.00e+00	0	25	0	228589568	65	4125
2026-01-07 03:03:04.96	25.93	6.85	-49.4	-50.9	14.4	0.00e+00	0	25	0	234881024	65	4170
2026-01-07 03:03:05.96	25.92	6.93	-49.4	-50.8	14.5	0.00e+00	0	25	0	240123904	65	4137
2026-01-07 03:03:06.96	25.92	7.01	-49.4	-50.8	14.5	0.00e+00	0	25	0	246415360	65	4125
2026-01-07 03:03:07.96	25.91	7.08	-49.2	-50.7	14.6	0.00e+00	0	25	0	251658240	65	4055
2026-01-07 03:03:08.96	25.90	7.16	-49.4	-50.9	14.4	0.00e+00	0	25	0	256901120	65	4169
2026-01-07 03:03:09.97	25.90	7.24	-49.3	-50.7	14.5	0.00e+00	0	25	0	263192576	65	4067
2026-01-07 03:03:10.97	25.89	7.32	-49.3	-50.7	14.6	0.00e+00	0	25	0	268435456	65	4060
2026-01-07 03:03:11.97	25.89	7.39	-49.5	-50.9	14.4	0.00e+00	0	25	0	273678336	65	4179
2026-01-07 03:03:12.97	25.88	7.47	-49.0	-50.4	14.5	0.00e+00	0	25	0	279969792	64	4188
2026-01-07 03:03:13.97	25.87	7.55	-49.1	-50.5	14.5	0.00e+00	0	25	0	285212672	64	4206
2026-01-07 03:03:14.97	25.87	7.63	-49.1	-50.5	14.5	0.00e+00	0	25	0	290455552	64	4222
2026-01-07 03:03:15.97	25.86	7.71	-49.1	-50.5	14.5	0.00e+00	0	25	0	296747008	64	4209
2026-01-07 03:03:16.97	25.85	7.79	-48.9	-50.2	14.7	0.00e+00	0	25	0	301989888	64	4089
2026-01-07 03:03:17.97	25.85	7.87	-49.0	-50.4	14.6	0.00e+00	0	25	0	308281344	64	4180
2026-01-07 03:03:18.97	25.84	7.95	-49.0	-50.4	14.6	0.00e+00	0	25	0	313524224	64	4147
2026-01-07 03:03:19.97	25.83	8.03	-49.1	-50.5	14.5	0.00e+00	0	25	0	318767104	64	4219
2026-01-07 03:03:20.98	25.83	8.11	-48.8	-50.2	14.7	0.00e+00	0	25	0	325058560	64	4067
2026-01-07 03:03:21.98	25.82	8.19	-49.0	-50.4	14.6	0.00e+00	0	25	0	330301440	64	4150
2026-01-07 03:03:22.98	25.81	8.27	-48.8	-50.1	14.8	0.00e+00	0	25	0	335544320	64	4026
2026-01-07 03:03:23.98	25.81	8.35	-48.7	-50.1	14.6	0.00e+00	0	25	0	341835776	63	4244
2026-01-07 03:03:24.99	25.80	8.43	-48.9	-50.2	14.5	0.00e+00	0	25	0	347078656	63	4317
2026-01-07 03:03:25.99	25.79	8.51	-48.7	-50.0	14.6	0.00e+00	0	25	0	353370112	63	4237
2026-01-07 03:03:26.99	25.79	8.59	-48.6	-49.9	14.7	0.00e+00	0	25	0	358612992	63	4191
2026-01-07 03:03:27.99	25.78	8.67	-48.6	-49.9	14.7	0.00e+00	0	25	0	363855872	63	4164
2026-01-07 03:03:28.99	25.77	8.76	-48.7	-50.0	14.6	0.00e+00	0	25	0	370147328	63	4239
2026-01-07 03:03:29.98	25.76	8.84	-48.7	-50.1	14.6	0.00e+00	0	25	0	375390208	63	4251
2026-01-07 03:03:30.99	25.76	8.92	-48.6	-49.9	14.7	0.00e+00	0	25	0	380633088	63	4186
2026-01-07 03:03:31.97	25.75	9.00	-48.4	-49.7	14.8	0.00e+00	0	25	0	386924544	63	4082
2026-01-07 03:03:32.97	25.74	9.09	-48.5	-49.8	14.8	0.00e+00	0	25	0	392167424	63	4124
2026-01-07 03:03:33.97	25.73	9.17	-48.5	-49.8	14.8	0.00e+00	0	25	0	397410304	63	4102
2026-01-07 03:03:34.96	25.73	9.25	-48.5	-49.8	14.8	0.00e+00	0	25	0	403701760	63	4142
2026-01-07 03:03:35.95	25.72	9.34	-48.5	-49.8	14.8	0.00e+00	0	25	0	408944640	63	4107
2026-01-07 03:03:36.95	25.71	9.42	-48.4	-49.7	14.9	0.00e+00	0	25	0	414187520	63	4052
2026-01-07 03:03:37.95	25.70	9.51	-48.2	-49.5	14.9	0.00e+00	0	25	0	420478976	63	3981
2026-01-07 03:03:38.94	25.69	9.59	-48.2	-49.5	14.9	0.00e+00	0	25	0	425721856	63	3959
2026-01-07 03:03:39.94	25.69	9.67	-48.1	-49.4	14.8	0.00e+00	0	25	0	432013312	62	4159
2026-01-07 03:03:40.93	25.68	9.76	-48.2	-49.5	14.8	0.00e+00	0	25	0	437256192	62	4196
2026-01-07 03:03:41.92	25.67	9.84	-48.2	-49.5	14.8	0.00e+00	0	25	0	442499072	62	4213
2026-01-07 03:03:42.92	25.66	9.93	-48.3	-49.6	14.7	0.00e+00	0	25	0	447741952	62	4255
2026-01-07 03:03:43.92	25.65	10.02	-48.1	-49.4	14.8	0.00e+00	0	25	0	454033408	62	4177
2026-01-07 03:03:44.92	25.65	10.10	-48.1	-49.3	14.8	0.00e+00	0	25	0	459276288	62	4136
2026-01-07 03:03:45.92	25.64	10.19	-48.0	-49.2	14.9	0.00e+00	0	25	0	465567744	62	4085
2026-01-07 03:03:46.92	25.63	10.28	-48.1	-49.3	14.9	0.00e+00	0	25	0	470810624	62	4141
2026-01-07 03:03:47.92	25.62	10.37	-48.0	-49.3	14.9	0.00e+00	0	25	0	476053504	62	4124
2026-01-07 03:03:48.92	25.61	10.45	-48.1	-49.3	14.9	0.00e+00	0	25	0	482344960	62	4137
2026-01-07 03:03:49.92	25.60	10.54	-48.1	-49.4	14.9	0.00e+00	0	25	0	487587840	62	4148
2026-01-07 03:03:50.92	25.59	10.63	-48.0	-49.2	14.9	0.00e+00	0	25	0	492830720	62	4093
2026-01-07 03:03:51.92	25.58	10.72	-48.1	-49.4	14.8	0.00e+00	0	25	0	499122176	62	4168
2026-01-07 03:03:52.92	25.58	10.81	-48.1	-49.4	14.8	0.00e+00	0	25	0	504365056	62	4155
2026-01-07 03:03:53.92	25.57	10.90	-48.0	-49.2	14.9	0.00e+00	0	25	0	509607936	62	4098
2026-01-07 03:03:54.93	25.56	10.99	-48.0	-49.2	14.9	0.00e+00	0	25	0	515899392	62	4088
2026-01-07 03:03:55.93	25.55	11.08	-48.1	-49.3	14.9	0.00e+00	0	25	0	521142272	62	4131
2026-01-07 03:03:56.92	25.54	11.17	-48.0	-49.3	14.9	0.00e+00	0	25	0	527433728	62	4117
2026-01-07 03:03:57.92	25.53	11.26	-48.0	-49.2	14.9	0.00e+00	0	25	0	532676608	62	4083
2026-01-07 03:03:58.93	25.52	11.35	-47.9	-49.1	15.0	0.00e+00	0	25	0	537919488	62	4015
2026-01-07 03:03:59.93	25.51	11.44	-47.9	-49.1	15.0	0.00e+00	0	25	0	544210944	62	4047
2026-01-07 03:04:00.93	25.50	11.54	-47.9	-49.1	15.0	0.00e+00	0	25	0	549453824	62	4040
2026-01-07 03:04:01.94	25.49	11.63	-47.8	-49.0	15.0	0.00e+00	0	25	0	555745280	62	3986
2026-01-07 03:04:02.94	25.48	11.72	-47.8	-49.0	15.0	0.00e+00	0	25	0	560988160	62	3998
2026-01-07 03:04:03.94	25.47	11.81	-47.8	-49.0	15.0	0.00e+00	0	25	0	566231040	62	3980
2026-01-07 03:04:04.94	25.46	11.91	-47.8	-49.1	15.0	0.00e+00	0	25	0	572522496	62	4018
2026-01-07 03:04:05.94	25.45	12.00	-47.9	-49.1	15.0	0.00e+00	0	25	0	577765376	62	4043
2026-01-07 03:04:06.94	25.44	12.09	-47.9	-49.1	15.0	0.00e+00	0	25	0	583008256	62	4051
2026-01-07 03:04:07.93	25.43	12.19	-47.8	-49.0	15.0	0.00e+00	0	25	0	589299712	62	3974
2026-01-07 03:04:08.93	25.42	12.28	-47.9	-49.1	15.0	0.00e+00	0	25	0	594542592	62	4027
2026-01-07 03:04:09.94	25.41	12.38	-48.0	-49.2	14.9	0.00e+00	0	25	0	599785472	62	4080
2026-01-07 03:04:10.93	25.40	12.47	-47.9	-49.2	15.0	0.00e+00	0	25	0	606076928	62	4067
2026-01-07 03:04:11.94	25.39	12.57	-47.8	-49.0	15.0	0.00e+00	0	25	0	611319808	62	3987
2026-01-07 03:04:12.94	25.38	12.67	-47.7	-49.0	15.1	0.00e+00	0	25	0	617611264	62	3964
2026-01-07 03:04:13.95	25.37	12.76	-47.8	-49.0	15.1	0.00e+00	0	25	0	622854144	62	3979
2026-01-07 03:04:14.95	25.36	12.86	-47.8	-49.0	15.0	0.00e+00	0	25	0	628097024	62	4002
2026-01-07 03:04:15.96	25.34	12.96	-47.8	-49.0	15.1	0.00e+00	0	25	0	634388480	62	3962
2026-01-07 03:04:16.96	25.33	13.06	-47.8	-49.1	15.0	0.00e+00	0	25	0	639631360	62	4005
2026-01-07 03:04:17.96	25.32	13.16	-47.8	-49.0	15.0	0.00e+00	0	25	0	644874240	62	3986
2026-01-07 03:04:18.96	25.31	13.25	-47.7	-48.9	15.1	0.00e+00	0	25	0	651165696	62	3941
2026-01-07 03:04:19.96	25.30	13.35	-47.7	-48.9	15.1	0.00e+00	0	25	0	656408576	62	3949
2026-01-07 03:04:20.95	25.29	13.45	-47.6	-48.8	15.0	0.00e+00	0	25	0	662700032	61	4119
2026-01-07 03:04:21.96	25.28	13.55	-47.5	-48.7	15.0	0.00e+00	0	25	0	667942912	61	4088
2026-01-07 03:04:22.96	25.26	13.65	-47.4	-48.6	15.1	0.00e+00	0	25	0	673185792	61	4039
2026-01-07 03:04:23.96	25.25	13.75	-47.4	-48.6	15.1	0.00e+00	0	25	0	679477248	61	4017
2026-01-07 03:04:24.96	25.24	13.85	-47.3	-48.5	15.1	0.00e+00	0	25	0	684720128	61	3990
2026-01-07 03:04:25.96	25.23	13.96	-47.4	-48.6	15.1	0.00e+00	0	25	0	689963008	61	4011
2026-01-07 03:04:26.96	25.21	14.06	-47.4	-48.6	15.1	0.00e+00	0	25	0	696254464	61	4033
2026-01-07 03:04:27.96	25.20	14.16	-47.4	-48.7	15.0	0.00e+00	0	25	0	701497344	61	4052
2026-01-07 03:04:28.96	25.19	14.26	-47.4	-48.5	15.1	0.00e+00	0	25	0	706740224	61	4002
2026-01-07 03:04:29.96	25.18	14.37	-47.1	-48.3	15.1	0.00e+00	0	25	0	713031680	60	4114
2026-01-07 03:04:30.95	25.16	14.47	-47.2	-48.3	15.0	0.00e+00	0	25	0	718274560	60	4137
2026-01-07 03:04:31.95	25.15	14.57	-47.1	-48.2	15.1	0.00e+00	0	25	0	724566016	60	4083
2026-01-07 03:04:32.94	25.14	14.68	-47.1	-48.3	15.1	0.00e+00	0	25	0	729808896	60	4117
2026-01-07 03:04:33.94	25.13	14.78	-47.0	-48.1	15.1	0.00e+00	0	25	0	735051776	60	4028
2026-01-07 03:04:34.94	25.11	14.89	-47.0	-48.1	15.1	0.00e+00	0	25	0	741343232	60	4038
2026-01-07 03:04:35.94	25.10	14.99	-46.9	-48.0	15.2	0.00e+00	0	25	0	746586112	60	4000
2026-01-07 03:04:36.95	25.09	15.10	-46.9	-48.0	15.1	0.00e+00	0	25	0	751828992	60	4001
2026-01-07 03:04:37.95	25.07	15.21	-46.9	-48.0	15.2	0.00e+00	0	25	0	758120448	60	4000
2026-01-07 03:04:38.94	25.06	15.31	-46.7	-47.9	15.3	0.00e+00	0	25	0	763363328	60	3915
2026-01-07 03:04:39.94	25.04	15.42	-46.8	-48.0	15.2	0.00e+00	0	25	0	768606208	60	3974
2026-01-07 03:04:40.94	25.03	15.53	-46.8	-48.0	15.2	0.00e+00	0	25	0	774897664	60	3972
2026-01-07 03:04:41.94	25.02	15.64	-46.8	-47.9	15.2	0.00e+00	0	25	0	780140544	60	3951
2026-01-07 03:04:42.95	25.00	15.75	-46.7	-47.8	15.2	0.00e+00	0	25	0	786432000	60	3913
2026-01-07 03:04:43.95	24.99	15.86	-46.9	-48.1	15.0	0.00e+00	0	25	0	791674880	59	4260
2026-01-07 03:04:44.95	24.97	15.97	-47.1	-48.3	15.0	0.00e+00	0	25	0	796917760	59	4352
2026-01-07 03:04:45.95	24.96	16.08	-46.9	-48.1	15.0	0.00e+00	0	25	0	803209216	59	4254
2026-01-07 03:04:46.95	24.94	16.19	-46.9	-48.0	15.1	0.00e+00	0	25	0	808452096	59	4236
2026-01-07 03:04:47.95	24.93	16.30	-46.9	-48.0	15.1	0.00e+00	0	25	0	813694976	59	4228
2026-01-07 03:04:48.95	24.91	16.41	-46.9	-48.1	15.1	0.00e+00	0	25	0	819986432	59	4247
2026-01-07 03:04:49.95	24.90	16.52	-46.8	-48.0	15.1	0.00e+00	0	25	0	825229312	59	4197
2026-01-07 03:04:50.95	24.88	16.64	-46.9	-48.0	15.1	0.00e+00	0	25	0	830472192	59	4227
2026-01-07 03:04:51.96	24.87	16.75	-46.9	-48.1	15.0	0.00e+00	0	25	0	836763648	59	4257
2026-01-07 03:04:52.96	24.85	16.87	-46.8	-47.9	15.1	0.00e+00	0	25	0	842006528	59	4171
2026-01-07 03:04:53.96	24.84	16.98	-46.7	-47.9	15.1	0.00e+00	0	25	0	848297984	59	4152
2026-01-07 03:04:54.96	24.82	17.10	-46.7	-47.8	15.1	0.00e+00	0	25	0	853540864	59	4141
2026-01-07 03:04:55.96	24.80	17.21	-46.7	-47.8	15.1	0.00e+00	0	25	0	858783744	59	4140
2026-01-07 03:04:56.97	24.79	17.33	-46.6	-47.7	15.2	0.00e+00	0	25	0	865075200	59	4097
2026-01-07 03:04:57.96	24.77	17.45	-46.5	-47.7	15.2	0.00e+00	0	25	0	870318080	59	4059
2026-01-07 03:04:58.97	24.75	17.56	-46.6	-47.8	15.2	0.00e+00	0	25	0	875560960	59	4103
2026-01-07 03:04:59.98	24.74	17.68	-46.7	-47.8	15.1	0.00e+00	0	25	0	881852416	59	4125
2026-01-07 03:05:00.98	24.72	17.80	-46.5	-47.6	15.2	0.00e+00	0	25	0	887095296	59	4051
2026-01-07 03:05:01.98	24.70	17.92	-46.4	-47.5	15.3	0.00e+00	0	25	0	892338176	59	3977
2026-01-07 03:05:02.98	24.69	18.04	-46.4	-47.5	15.3	0.00e+00	0	25	0	898629632	59	3997
2026-01-07 03:05:03.98	24.67	18.16	-46.4	-47.5	15.3	0.00e+00	0	25	0	903872512	59	3972
2026-01-07 03:05:04.97	24.65	18.28	-46.5	-47.6	15.2	0.00e+00	0	25	0	910163968	59	4034
2026-01-07 03:05:05.97	24.63	18.40	-46.3	-47.4	15.3	0.00e+00	0	25	0	915406848	59	3948
2026-01-07 03:05:06.97	24.62	18.53	-46.3	-47.4	15.3	0.00e+00	0	25	0	920649728	59	3921
2026-01-07 03:05:07.97	24.60	18.65	-46.1	-47.2	15.2	0.00e+00	0	25	0	926941184	58	4058
2026-01-07 03:05:08.97	24.58	18.77	-46.0	-47.1	15.3	0.00e+00	0	25	0	932184064	58	4014
2026-01-07 03:05:09.97	24.56	18.90	-46.0	-47.1	15.3	0.00e+00	0	25	0	937426944	58	4007
2026-01-07 03:05:10.97	24.54	19.02	-46.0	-47.1	15.3	0.00e+00	0	25	0	943718400	58	4024
2026-01-07 03:05:11.96	24.52	19.14	-46.0	-47.1	15.3	0.00e+00	0	25	0	948961280	58	4025
2026-01-07 03:05:12.95	24.50	19.27	-46.0	-47.1	15.3	0.00e+00	0	25	0	954204160	58	4022
2026-01-07 03:05:13.95	24.49	19.40	-45.9	-47.0	15.3	0.00e+00	0	25	0	960495616	58	3967
2026-01-07 03:05:14.94	24.47	19.52	-45.9	-47.0	15.3	0.00e+00	0	25	0	965738496	58	3963
2026-01-07 03:05:15.94	24.45	19.65	-45.9	-47.0	15.3	0.00e+00	0	25	0	972029952	58	3965
2026-01-07 03:05:16.94	24.43	19.78	-46.0	-47.1	15.3	0.00e+00	0	25	0	977272832	58	4009
2026-01-07 03:05:17.95	24.41	19.91	-46.1	-47.2	15.2	0.00e+00	0	25	0	982515712	58	4054
2026-01-07 03:05:18.94	24.39	20.04	-46.1	-47.1	15.2	0.00e+00	0	25	0	988807168	58	4043
2026-01-07 03:05:19.94	24.37	20.17	-46.0	-47.1	15.3	0.00e+00	0	25	0	994050048	58	4011
2026-01-07 03:05:20.94	24.35	20.30	-46.1	-47.2	15.2	0.00e+00	0	25	0	999292928	58	4066
2026-01-07 03:05:21.94	24.32	20.43	-46.1	-47.2	15.2	0.00e+00	0	25	0	1005584384	58	4087
2026-01-07 03:05:22.94	24.30	20.56	-46.1	-47.2	15.2	0.00e+00	0	25	0	1010827264	58	4074
2026-01-07 03:05:23.94	24.28	20.70	-46.3	-47.4	15.2	0.00e+00	0	25	0	1017118720	58	4149
2026-01-07 03:05:24.94	24.26	20.83	-46.2	-47.3	15.2	0.00e+00	0	25	0	1022361600	58	4135
2026-01-07 03:05:25.93	24.24	20.96	-46.1	-47.2	15.2	0.00e+00	0	26	0	1027604480	58	4069
2026-01-07 03:05:26.93	24.22	21.10	-46.1	-47.2	15.2	0.00e+00	0	25	0	1032847360	58	4096
2026-01-07 03:05:27.93	24.19	21.24	-46.2	-47.3	15.2	0.00e+00	0	26	0	1039138816	58	4116
2026-01-07 03:05:28.93	24.17	21.37	-46.1	-47.2	15.2	0.00e+00	0	25	0	1044381696	58	4068
2026-01-07 03:05:29.93	24.15	21.51	-46.2	-47.3	15.2	0.00e+00	0	25	0	1049624576	58	4108
2026-01-07 03:05:30.93	24.13	21.65	-46.1	-47.2	15.2	0.00e+00	0	25	0	1055916032	58	4079
2026-01-07 03:05:31.93	24.10	21.79	-46.1	-47.2	15.2	0.00e+00	0	25	0	1061158912	58	4080
2026-01-07 03:05:32.94	24.08	21.93	-46.1	-47.2	15.2	0.00e+00	0	25	0	1067450368	58	4071
2026-01-07 03:05:33.93	24.06	22.07	-46.0	-47.1	15.3	0.00e+00	0	25	0	1072693248	58	4041
2026-01-07 03:05:34.93	24.03	22.21	-46.0	-47.1	15.3	0.00e+00	0	25	0	1077936128	58	4035
2026-01-07 03:05:35.93	24.01	22.35	-46.0	-47.1	15.3	0.00e+00	0	25	0	1084227584	58	4019
2026-01-07 03:05:36.92	23.98	22.49	-46.1	-47.2	15.3	0.00e+00	0	25	0	1089470464	58	4061
2026-01-07 03:05:37.93	23.96	22.64	-46.0	-47.1	15.3	0.00e+00	0	25	0	1094713344	58	4017
2026-01-07 03:05:38.92	23.93	22.78	-46.0	-47.2	15.2	0.00e+00	0	25	0	1101004800	58	4057
2026-01-07 03:05:39.92	23.91	22.93	-46.0	-47.1	15.3	0.00e+00	0	25	0	1106247680	58	4030
2026-01-07 03:05:40.91	23.88	23.07	-45.9	-47.0	15.3	0.00e+00	0	25	0	1111490560	58	3997
2026-01-07 03:05:41.92	23.86	23.22	-45.9	-47.0	15.3	0.00e+00	0	25	0	1117782016	58	3984
2026-01-07 03:05:42.92	23.83	23.37	-46.0	-47.1	15.3	0.00e+00	0	25	0	1123024896	58	4040
2026-01-07 03:05:43.91	23.81	23.51	-45.9	-47.0	15.3	0.00e+00	0	25	0	1129316352	58	4002
2026-01-07 03:05:44.90	23.78	23.66	-45.8	-46.9	15.4	0.00e+00	0	25	0	1134559232	58	3914
2026-01-07 03:05:45.90	23.75	23.81	-45.6	-46.6	15.3	0.00e+00	0	25	0	1139802112	57	4051
2026-01-07 03:05:46.91	23.72	23.97	-45.6	-46.7	15.3	0.00e+00	0	25	0	1146093568	57	4078
2026-01-07 03:05:47.91	23.70	24.12	-45.7	-46.8	15.2	0.00e+00	0	25	0	1151336448	57	4101
2026-01-07 03:05:48.91	23.67	24.27	-45.5	-46.6	15.3	0.00e+00	0	25	0	1156579328	57	4005
2026-01-07 03:05:49.91	23.64	24.43	-45.5	-46.5	15.3	0.00e+00	0	25	0	1162870784	57	3998
2026-01-07 03:05:50.91	23.61	24.58	-45.4	-46.5	15.3	0.00e+00	0	25	0	1168113664	57	3983
2026-01-07 03:05:51.90	23.58	24.73	-45.4	-46.5	15.3	0.00e+00	0	25	0	1173356544	57	3967
2026-01-07 03:05:52.90	23.56	24.89	-45.4	-46.4	15.4	0.00e+00	0	25	0	1179648000	57	3947
2026-01-07 03:05:53.90	23.53	25.05	-45.4	-46.5	15.3	0.00e+00	0	25	0	1184890880	57	3967
2026-01-07 03:05:54.90	23.50	25.21	-45.5	-46.5	15.3	0.00e+00	0	25	0	1191182336	57	3994
2026-01-07 03:05:55.90	23.47	25.37	-45.5	-46.5	15.3	0.00e+00	0	25	0	1196425216	57	3989
2026-01-07 03:05:56.90	23.44	25.53	-45.4	-46.5	15.4	0.00e+00	0	25	0	1201668096	57	3964
2026-01-07 03:05:57.89	23.40	25.69	-45.4	-46.5	15.3	0.00e+00	0	25	0	1207959552	57	3987
2026-01-07 03:05:58.89	23.37	25.85	-45.4	-46.5	15.3	0.00e+00	0	25	0	1213202432	57	3976
2026-01-07 03:05:59.90	23.34	26.01	-45.3	-46.3	15.4	0.00e+00	0	25	0	1218445312	57	3910
2026-01-07 03:06:00.90	23.31	26.18	-45.2	-46.3	15.4	0.00e+00	0	25	0	1224736768	57	3885
2026-01-07 03:06:01.89	23.28	26.34	-45.1	-46.2	15.3	0.00e+00	0	25	0	1229979648	56	4053
2026-01-07 03:06:02.90	23.24	26.51	-45.0	-46.0	15.4	0.00e+00	0	25	0	1235222528	56	4000
2026-01-07 03:06:03.90	23.21	26.68	-44.9	-45.9	15.4	0.00e+00	0	25	0	1241513984	56	3930
2026-01-07 03:06:04.90	23.18	26.85	-44.9	-46.0	15.4	0.00e+00	0	25	0	1246756864	56	3968
2026-01-07 03:06:05.90	23.14	27.02	-44.8	-45.8	15.4	0.00e+00	0	25	0	1253048320	56	3904
2026-01-07 03:06:06.90	23.11	27.19	-44.7	-45.7	15.5	0.00e+00	0	25	0	1258291200	56	3861
2026-01-07 03:06:07.89	23.08	27.36	-44.8	-45.8	15.4	0.00e+00	0	25	0	1263534080	56	3884
2026-01-07 03:06:08.89	23.04	27.53	-44.9	-45.9	15.4	0.00e+00	0	25	0	1269825536	56	3932
2026-01-07 03:06:09.89	23.01	27.70	-44.9	-45.9	15.4	0.00e+00	0	25	0	1275068416	56	3952
2026-01-07 03:06:10.90	22.97	27.88	-44.9	-46.0	15.4	0.00e+00	0	25	0	1280311296	56	3966
2026-01-07 03:06:11.89	22.93	28.05	-45.0	-46.0	15.3	0.00e+00	0	25	0	1286602752	56	4004
2026-01-07 03:06:12.89	22.90	28.23	-45.1	-46.1	15.3	0.00e+00	0	25	0	1291845632	56	4038
2026-01-07 03:06:13.89	22.86	28.41	-45.1	-46.2	15.3	0.00e+00	0	25	0	1297088512	56	4078
2026-01-07 03:06:14.89	22.82	28.59	-45.1	-46.1	15.3	0.00e+00	0	25	0	1303379968	56	4047
2026-01-07 03:06:15.89	22.78	28.77	-45.0	-46.1	15.3	0.00e+00	0	25	0	1308622848	56	4029
2026-01-07 03:06:16.89	22.74	28.95	-45.2	-46.2	15.3	0.00e+00	0	25	0	1314914304	56	4095
2026-01-07 03:06:17.90	22.70	29.13	-45.1	-46.2	15.3	0.00e+00	0	25	0	1320157184	56	4061
2026-01-07 03:06:18.89	22.67	29.32	-45.1	-46.1	15.3	0.00e+00	0	25	0	1325400064	56	4045
2026-01-07 03:06:19.89	22.63	29.50	-45.1	-46.2	15.3	0.00e+00	0	25	0	1331691520	56	4056
2026-01-07 03:06:20.89	22.58	29.69	-45.1	-46.2	15.3	0.00e+00	0	25	0	1336934400	56	4080
2026-01-07 03:06:21.90	22.54	29.88	-45.3	-46.3	15.3	0.00e+00	0	25	0	1342177280	56	4143
2026-01-07 03:06:22.90	22.50	30.07	-45.2	-46.3	15.3	0.00e+00	0	25	0	1348468736	56	4119
2026-01-07 03:06:23.90	22.46	30.26	-45.2	-46.3	15.3	0.00e+00	0	26	0	1353711616	56	4127
2026-01-07 03:06:24.89	22.42	30.45	-45.2	-46.3	15.3	0.00e+00	0	25	0	1358954496	56	4128
2026-01-07 03:06:25.89	22.37	30.64	-45.3	-46.4	15.3	0.00e+00	0	25	0	1365245952	56	4158
2026-01-07 03:06:26.89	22.33	30.83	-45.0	-46.1	15.3	0.00e+00	0	25	0	1370488832	56	4026
2026-01-07 03:06:27.89	22.28	31.03	-44.9	-46.0	15.4	0.00e+00	0	25	0	1376780288	56	3966
2026-01-07 03:06:28.89	22.24	31.22	-44.9	-46.0	15.4	0.00e+00	0	25	0	1382023168	56	3962
2026-01-07 03:06:29.89	22.19	31.42	-44.9	-45.9	15.4	0.00e+00	0	25	0	1387266048	56	3941
2026-01-07 03:06:30.89	22.15	31.62	-44.8	-45.8	15.4	0.00e+00	0	25	0	1393557504	56	3896
2026-01-07 03:06:31.89	22.10	31.82	-44.5	-45.5	15.4	0.00e+00	0	25	0	1398800384	55	3980
2026-01-07 03:06:32.89	22.05	32.02	-44.6	-45.6	15.3	0.00e+00	0	25	0	1404043264	55	4035
2026-01-07 03:06:33.89	22.00	32.23	-44.5	-45.5	15.4	0.00e+00	0	25	0	1410334720	55	3992
2026-01-07 03:06:34.89	21.96	32.43	-44.4	-45.4	15.4	0.00e+00	0	25	0	1415577600	55	3952
2026-01-07 03:06:35.89	21.91	32.64	-44.4	-45.5	15.4	0.00e+00	0	25	0	1420820480	55	3970
2026-01-07 03:06:36.89	21.86	32.84	-44.6	-45.6	15.3	0.00e+00	0	25	0	1427111936	55	4036
2026-01-07 03:06:37.88	21.80	33.05	-44.6	-45.7	15.3	0.00e+00	0	25	0	1432354816	55	4062
2026-01-07 03:06:38.88	21.75	33.26	-44.7	-45.7	15.3	0.00e+00	0	25	0	1437597696	55	4092
2026-01-07 03:06:39.88	21.70	33.47	-44.8	-45.9	15.3	0.00e+00	0	25	0	1443889152	55	4158
2026-01-07 03:06:40.87	21.65	33.68	-44.7	-45.8	15.3	0.00e+00	0	25	0	1449132032	55	4119
2026-01-07 03:06:41.88	21.59	33.90	-44.7	-45.8	15.3	0.00e+00	0	25	0	1454374912	55	4100
2026-01-07 03:06:42.87	21.54	34.11	-44.7	-45.7	15.3	0.00e+00	0	25	0	1460666368	55	4080
2026-01-07 03:06:43.86	21.48	34.33	-44.6	-45.6	15.3	0.00e+00	0	25	0	1465909248	55	4042
2026-01-07 03:06:44.85	21.43	34.54	-44.6	-45.6	15.3	0.00e+00	0	25	0	1471152128	55	4041
2026-01-07 03:06:45.85	21.37	34.76	-44.5	-45.6	15.4	0.00e+00	0	25	0	1477443584	55	4005
2026-01-07 03:06:46.85	21.31	34.99	-44.5	-45.5	15.4	0.00e+00	0	25	0	1482686464	55	3993
2026-01-07 03:06:47.84	21.26	35.21	-44.3	-45.3	15.4	0.00e+00	0	25	0	1488977920	55	3900
2026-01-07 03:06:48.85	21.20	35.43	-44.2	-45.3	15.5	0.00e+00	0	25	0	1494220800	55	3872
2026-01-07 03:06:49.85	21.14	35.66	-44.4	-45.4	15.4	0.00e+00	0	25	0	1499463680	55	3934
2026-01-07 03:06:50.85	21.07	35.89	-44.5	-45.5	15.4	0.00e+00	0	25	0	1505755136	55	3981
2026-01-07 03:06:51.85	21.01	36.12	-44.5	-45.5	15.4	0.00e+00	0	25	0	1510998016	55	3987
2026-01-07 03:06:52.85	20.95	36.35	-44.6	-45.6	15.3	0.00e+00	0	25	0	1516240896	55	4040
2026-01-07 03:06:53.86	20.88	36.58	-44.6	-45.6	15.3	0.00e+00	0	25	0	1522532352	55	4042
2026-01-07 03:06:54.86	20.82	36.82	-44.6	-45.6	15.4	0.00e+00	0	25	0	1527775232	55	4050
2026-01-07 03:06:55.86	20.75	37.06	-44.5	-45.6	15.4	0.00e+00	0	25	0	1533018112	55	4019
2026-01-07 03:06:56.86	20.68	37.29	-44.6	-45.7	15.3	0.00e+00	0	25	0	1539309568	55	4063
2026-01-07 03:06:57.86	20.62	37.53	-44.6	-45.6	15.4	0.00e+00	0	25	0	1544552448	55	4031
2026-01-07 03:06:58.86	20.55	37.77	-44.6	-45.7	15.3	0.00e+00	0	25	0	1550843904	55	4063
2026-01-07 03:06:59.86	20.48	38.02	-44.7	-45.7	15.3	0.00e+00	0	25	0	1556086784	55	4093
2026-01-07 03:07:00.86	20.41	38.26	-44.7	-45.8	15.3	0.00e+00	0	25	0	1561329664	55	4100
2026-01-07 03:07:01.85	20.33	38.51	-44.6	-45.6	15.4	0.00e+00	0	25	0	1567621120	55	4039
2026-01-07 03:07:02.85	20.26	38.75	-44.5	-45.5	15.4	0.00e+00	0	25	0	1572864000	55	3968
2026-01-07 03:07:03.85	20.18	39.00	-44.3	-45.4	15.4	0.00e+00	0	26	0	1578106880	55	3923
2026-01-07 03:07:04.85	20.11	39.26	-44.5	-45.5	15.4	0.00e+00	0	25	0	1584398336	55	4003
2026-01-07 03:07:05.85	20.03	39.51	-44.4	-45.4	15.4	0.00e+00	0	25	0	1589641216	55	3952
2026-01-07 03:07:06.85	19.95	39.76	-44.5	-45.6	15.4	0.00e+00	0	25	0	1595932672	55	4011
2026-01-07 03:07:07.85	19.87	40.02	-44.7	-45.8	15.3	0.00e+00	0	25	0	1601175552	55	4115
2026-01-07 03:07:08.85	19.79	40.28	-44.8	-45.8	15.3	0.00e+00	0	26	0	1606418432	55	4131
2026-01-07 03:07:09.85	19.71	40.54	-44.9	-46.0	15.3	0.00e+00	0	25	0	1612709888	55	4205
2026-01-07 03:07:10.85	19.62	40.80	-44.9	-46.0	15.3	0.00e+00	0	25	0	1617952768	55	4226
2026-01-07 03:07:11.85	19.54	41.07	-45.0	-46.0	15.3	0.00e+00	0	25	0	1623195648	55	4234
2026-01-07 03:07:12.85	19.45	41.33	-44.9	-46.0	15.3	0.00e+00	0	25	0	1629487104	55	4228
2026-01-07 03:07:13.85	19.36	41.60	-45.0	-46.1	15.3	0.00e+00	0	25	0	1634729984	55	4251
2026-01-07 03:07:14.85	19.27	41.87	-45.1	-46.1	15.3	0.00e+00	0	25	0	1639972864	55	4284
2026-01-07 03:07:15.85	19.18	42.14	-45.0	-46.1	15.3	0.00e+00	0	25	0	1646264320	55	4273
2026-01-07 03:07:16.86	19.08	42.42	-45.1	-46.2	15.2	0.00e+00	0	25	0	1651507200	55	4304
2026-01-07 03:07:17.86	18.99	42.70	-45.0	-46.1	15.3	0.00e+00	0	25	0	1657798656	55	4264
2026-01-07 03:07:18.86	18.89	42.97	-45.1	-46.1	15.2	0.00e+00	0	25	0	1663041536	55	4280
2026-01-07 03:07:19.86	18.79	43.25	-44.9	-46.0	15.3	0.00e+00	0	25	0	1668284416	55	4219
2026-01-07 03:07:20.86	18.69	43.54	-44.9	-46.0	15.3	0.00e+00	0	25	0	1674575872	55	4216
2026-01-07 03:07:21.86	18.59	43.82	-45.1	-46.2	15.2	0.00e+00	0	25	0	1679818752	55	4313
2026-01-07 03:07:22.87	18.48	44.11	-45.2	-46.2	15.2	0.00e+00	0	25	0	1685061632	55	4326
2026-01-07 03:07:23.87	18.38	44.40	-45.3	-46.4	15.2	0.00e+00	0	25	0	1691353088	55	4425
2026-01-07 03:07:24.87	18.27	44.69	-45.3	-46.4	15.2	0.00e+00	0	25	0	1696595968	55	4397
2026-01-07 03:07:25.87	18.16	44.98	-45.4	-46.5	15.2	0.00e+00	0	25	0	1701838848	55	4457
2026-01-07 03:07:26.88	18.05	45.28	-45.7	-46.8	15.2	0.00e+00	0	25	0	1708130304	56	4341
2026-01-07 03:07:27.88	17.93	45.57	-45.8	-46.9	15.2	0.00e+00	0	25	0	1713373184	56	4440
2026-01-07 03:07:28.89	17.81	45.87	-45.8	-46.9	15.2	0.00e+00	0	25	0	1719664640	56	4403
2026-01-07 03:07:29.89	17.69	46.17	-45.6	-46.7	15.2	0.00e+00	0	26	0	1724907520	56	4294
2026-01-07 03:07:30.89	17.57	46.47	-45.4	-46.4	15.3	0.00e+00	0	25	0	1730150400	56	4188
2026-01-07 03:07:31.88	17.45	46.78	-45.2	-46.3	15.3	0.00e+00	0	25	0	1736441856	56	4111
2026-01-07 03:07:32.87	17.32	47.08	-45.3	-46.3	15.3	0.00e+00	0	25	0	1741684736	56	4137
2026-01-07 03:07:33.88	17.19	47.39	-45.1	-46.2	15.3	0.00e+00	0	25	0	1746927616	56	4054
2026-01-07 03:07:34.87	17.06	47.70	-45.1	-46.1	15.4	0.00e+00	0	26	0	1753219072	56	4047
2026-01-07 03:07:35.87	16.93	48.01	-45.2	-46.3	15.3	0.00e+00	0	25	0	1758461952	56	4116
2026-01-07 03:07:36.88	16.79	48.33	-45.2	-46.2	15.3	0.00e+00	0	25	0	1763704832	56	4098
2026-01-07 03:07:37.88	16.65	48.64	-45.1	-46.2	15.3	0.00e+00	0	25	0	1769996288	56	4055
2026-01-07 03:07:38.87	16.51	48.96	-45.0	-46.0	15.4	0.00e+00	0	26	0	1775239168	56	3986
2026-01-07 03:07:39.87	16.36	49.28	-45.2	-46.2	15.3	0.00e+00	0	26	0	1781530624	56	4091
2026-01-07 03:07:40.87	16.21	49.60	-45.4	-46.5	15.3	0.00e+00	0	25	0	1786773504	56	4209
2026-01-07 03:07:41.87	16.06	49.93	-45.7	-46.8	15.2	0.00e+00	0	25	0	1792016384	56	4359
2026-01-07 03:07:42.87	15.90	50.26	-45.9	-47.0	15.2	0.00e+00	0	25	0	1798307840	57	4233
2026-01-07 03:07:43.87	15.74	50.59	-46.1	-47.2	15.2	0.00e+00	0	26	0	1803550720	57	4301
2026-01-07 03:07:44.87	15.58	50.92	-46.0	-47.1	15.2	0.00e+00	0	26	0	1808793600	57	4272
2026-01-07 03:07:45.87	15.41	51.25	-46.1	-47.2	15.1	0.00e+00	0	26	0	1815085056	57	4338
2026-01-07 03:07:46.87	15.24	51.59	-46.4	-47.5	15.1	0.00e+00	0	25	0	1820327936	57	4471
2026-01-07 03:07:47.86	15.07	51.92	-46.6	-47.8	15.1	0.00e+00	0	26	0	1825570816	58	4347
2026-01-07 03:07:48.86	14.89	52.26	-46.7	-47.9	15.1	0.00e+00	0	26	0	1831862272	58	4397
2026-01-07 03:07:49.86	14.70	52.60	-46.8	-47.9	15.1	0.00e+00	0	26	0	1837105152	58	4435
2026-01-07 03:07:50.86	14.52	52.95	-46.8	-47.9	15.1	0.00e+00	0	25	0	1843396608	58	4433
2026-01-07 03:07:51.86	14.32	53.30	-46.4	-47.5	15.2	0.00e+00	0	25	0	1848639488	58	4219
2026-01-07 03:07:52.86	14.13	53.64	-46.3	-47.4	15.2	0.00e+00	0	26	0	1853882368	58	4159
2026-01-07 03:07:53.86	13.92	53.99	-46.4	-47.5	15.2	0.00e+00	0	25	0	1860173824	58	4209
2026-01-07 03:07:54.86	13.72	54.35	-46.3	-47.4	15.2	0.00e+00	0	26	0	1865416704	58	4192
2026-01-07 03:07:55.86	13.50	54.70	-46.4	-47.5	15.2	0.00e+00	0	26	0	1870659584	58	4221
2026-01-07 03:07:56.86	13.29	55.06	-46.5	-47.6	15.2	0.00e+00	0	25	0	1876951040	58	4289
2026-01-07 03:07:57.86	13.06	55.42	-46.7	-47.8	15.1	0.00e+00	0	25	0	1882193920	58	4360
2026-01-07 03:07:58.87	12.83	55.78	-46.4	-47.5	15.2	0.00e+00	0	25	0	1887436800	58	4242
2026-01-07 03:07:59.87	12.60	56.14	-46.5	-47.6	15.2	0.00e+00	0	25	0	1893728256	58	4250
2026-01-07 03:08:00.87	12.35	56.51	-46.0	-47.1	15.3	0.00e+00	0	26	0	1898971136	58	4036
2026-01-07 03:08:01.86	12.11	56.87	-45.9	-46.9	15.4	0.00e+00	0	26	0	1905262592	58	3957
2026-01-07 03:08:02.87	11.85	57.24	-45.7	-46.8	15.4	0.00e+00	0	25	0	1910505472	58	3889
2026-01-07 03:08:03.86	11.59	57.61	-45.7	-46.8	15.4	0.00e+00	0	25	0	1915748352	58	3885
2026-01-07 03:08:04.87	11.32	57.98	-45.7	-46.8	15.4	0.00e+00	0	26	0	1922039808	58	3889
2026-01-07 03:08:05.87	11.04	58.36	-45.9	-47.0	15.4	0.00e+00	0	25	0	1927282688	58	3963
2026-01-07 03:08:06.87	10.75	58.73	-45.9	-47.0	15.3	0.00e+00	0	26	0	1932525568	58	3988
2026-01-07 03:08:07.87	10.46	59.11	-45.4	-46.5	15.4	0.00e+00	0	25	0	1938817024	57	3977
2026-01-07 03:08:08.87	10.16	59.49	-45.3	-46.4	15.4	0.00e+00	0	25	0	1944059904	57	3916
2026-01-07 03:08:09.87	9.85	59.87	-45.6	-46.6	15.3	0.00e+00	0	25	0	1949302784	57	4049
2026-01-07 03:08:10.87	9.52	60.25	-46.0	-47.0	15.2	0.00e+00	0	25	0	1955594240	57	4240
2026-01-07 03:08:11.88	9.19	60.63	-45.6	-46.7	15.3	0.00e+00	0	25	0	1960837120	57	4057
2026-01-07 03:08:12.88	8.85	61.02	-45.2	-46.2	15.5	0.00e+00	0	25	0	1967128576	57	3848
2026-01-07 03:08:13.89	8.49	61.41	-45.3	-46.4	15.3	0.00e+00	0	25	0	1972371456	56	4153
2026-01-07 03:08:14.89	8.13	61.79	-45.3	-46.4	15.3	0.00e+00	0	26	0	1977614336	56	4147
2026-01-07 03:08:15.89	7.75	62.18	-45.0	-46.0	15.4	0.00e+00	0	25	0	1983905792	56	3974
2026-01-07 03:08:16.89	7.37	62.57	-45.0	-46.0	15.4	0.00e+00	0	25	0	1989148672	56	3975
2026-01-07 03:08:17.88	6.97	62.96	-44.8	-45.8	15.5	0.00e+00	0	25	0	1994391552	56	3899
2026-01-07 03:08:18.88	6.56	63.35	-45.1	-46.2	15.3	0.00e+00	0	26	0	2000683008	56	4071
2026-01-07 03:08:19.89	6.12	63.75	-45.4	-46.5	15.3	0.00e+00	0	26	0	2005925888	56	4211
2026-01-07 03:08:20.89	5.68	64.14	-45.2	-46.3	15.3	0.00e+00	0	25	0	2012217344	56	4104
2026-01-07 03:08:21.90	5.22	64.54	-45.2	-46.3	15.3	0.00e+00	0	25	0	2017460224	56	4101
2026-01-07 03:08:22.89	4.75	64.93	-45.6	-46.7	15.2	0.00e+00	0	25	0	2022703104	56	4312
2026-01-07 03:08:23.90	4.25	65.32	-45.8	-47.0	15.2	0.00e+00	0	26	0	2028994560	56	4445
2026-01-07 03:08:24.90	3.74	65.72	-45.4	-46.5	15.3	0.00e+00	0	26	0	2034237440	56	4205
2026-01-07 03:08:25.90	3.21	66.11	-45.0	-46.1	15.4	0.00e+00	0	25	0	2040528896	56	4015
2026-01-07 03:08:26.91	2.66	66.51	-45.0	-46.0	15.4	0.00e+00	0	25	0	2045771776	56	3993
2026-01-07 03:08:27.91	2.09	66.91	-45.3	-46.4	15.3	0.00e+00	0	26	0	2051014656	56	4154
2026-01-07 03:08:28.91	1.50	67.30	-44.4	-45.5	15.4	0.00e+00	0	25	0	2057306112	55	3976
2026-01-07 03:08:29.91	0.89	67.70	-44.1	-45.1	15.4	0.00e+00	0	25	0	2062548992	54	4036
2026-01-07 03:08:30.91	0.25	68.09	-44.3	-45.3	15.3	0.00e+00	0	25	0	2067791872	54	4126
2026-01-07 03:08:31.90	359.59	68.48	-44.4	-45.5	15.3	0.00e+00	0	26	0	2074083328	54	4200
2026-01-07 03:08:32.91	358.89	68.88	-44.4	-45.4	15.3	0.00e+00	0	25	0	2079326208	54	4186
2026-01-07 03:08:33.91	358.17	69.27	-44.1	-45.1	15.4	0.00e+00	0	25	0	2084569088	54	4025
2026-01-07 03:08:34.91	357.43	69.65	-43.9	-44.9	15.4	0.00e+00	0	25	0	2090860544	54	3941
2026-01-07 03:08:35.92	356.64	70.04	-43.9	-44.9	15.4	0.00e+00	0	25	0	2096103424	54	3954
2026-01-07 03:08:36.92	355.82	70.43	-43.8	-44.8	15.5	0.00e+00	0	25	0	2102394880	54	3895
2026-01-07 03:08:37.92	354.98	70.81	-43.7	-44.7	15.5	0.00e+00	0	25	0	2107637760	54	3838
2026-01-07 03:08:38.92	354.09	71.19	-43.6	-44.6	15.4	0.00e+00	0	25	0	2112880640	53	4022
2026-01-07 03:08:39.93	353.16	71.57	-43.7	-44.8	15.4	0.00e+00	0	25	0	2119172096	53	4101
2026-01-07 03:08:40.92	352.20	71.94	-44.0	-45.1	15.3	0.00e+00	0	25	0	2124414976	53	4249
2026-01-07 03:08:41.92	351.19	72.31	-44.0	-45.0	15.3	0.00e+00	0	26	0	2129657856	53	4222
2026-01-07 03:08:42.93	350.13	72.68	-44.0	-45.0	15.3	0.00e+00	0	25	0	2135949312	53	4216
2026-01-07 03:08:43.92	349.04	73.04	-44.1	-45.1	15.3	0.00e+00	0	25	0	2141192192	53	4257
2026-01-07 03:08:44.92	347.89	73.39	-44.1	-45.1	15.3	0.00e+00	0	25	0	2146435072	53	4265
2026-01-07 03:08:45.93	346.67	73.74	-44.0	-45.0	15.3	0.00e+00	0	25	0	2152726528	53	4228
2026-01-07 03:08:46.93	345.41	74.09	-44.0	-45.0	15.3	0.00e+00	0	25	0	2157969408	53	4217
2026-01-07 03:08:47.93	344.09	74.42	-43.9	-45.0	15.3	0.00e+00	0	25	0	2164260864	53	4200
2026-01-07 03:08:48.93	342.72	74.75	-43.7	-44.7	15.4	0.00e+00	0	25	0	2169503744	53	4074
2026-01-07 03:08:49.93	341.28	75.08	-43.7	-44.7	15.4	0.00e+00	0	25	0	2174746624	53	4094
2026-01-07 03:08:50.93	339.77	75.39	-43.7	-44.8	15.4	0.00e+00	0	26	0	2181038080	53	4110
2026-01-07 03:08:51.93	338.20	75.69	-43.5	-44.5	15.4	0.00e+00	0	25	0	2186280960	53	3983
2026-01-07 03:08:52.93	336.56	75.98	-43.2	-44.1	15.4	0.00e+00	0	25	0	2191523840	52	4048
2026-01-07 03:08:53.93	334.85	76.26	-43.2	-44.2	15.4	0.00e+00	0	25	0	2197815296	52	4079
2026-01-07 03:08:54.93	333.06	76.53	-43.5	-44.5	15.3	0.00e+00	0	26	0	2203058176	52	4229
2026-01-07 03:08:55.92	331.22	76.79	-43.4	-44.4	15.4	0.00e+00	0	25	0	2208301056	52	4155
2026-01-07 03:08:56.93	329.27	77.03	-43.1	-44.0	15.4	0.00e+00	0	25	0	2214592512	52	4001
2026-01-07 03:08:57.94	327.24	77.27	-42.9	-43.9	15.5	0.00e+00	0	25	0	2219835392	52	3949
2026-01-07 03:08:58.93	325.18	77.48	-42.7	-43.7	15.5	0.00e+00	0	25	0	2226126848	52	3854
2026-01-07 03:08:59.93	323.03	77.67	-42.5	-43.4	15.5	0.00e+00	0	25	0	2231369728	51	3952
2026-01-07 03:09:00.92	320.83	77.85	-42.5	-43.5	15.5	0.00e+00	0	25	0	2236612608	51	3975
2026-01-07 03:09:01.93	318.52	78.01	-42.6	-43.5	15.4	0.00e+00	0	25	0	2242904064	51	3997
2026-01-07 03:09:02.93	316.18	78.16	-42.6	-43.6	15.4	0.00e+00	0	26	0	2248146944	51	4025
2026-01-07 03:09:03.93	313.78	78.28	-42.7	-43.8	15.4	0.00e+00	0	25	0	2253389824	51	4099
2026-01-07 03:09:04.93	311.33	78.38	-42.8	-43.8	15.4	0.00e+00	0	25	0	2259681280	51	4129
2026-01-07 03:09:05.93	308.84	78.46	-42.9	-43.9	15.4	0.00e+00	0	25	0	2264924160	51	4164
2026-01-07 03:09:06.93	306.33	78.52	-42.9	-43.9	15.4	0.00e+00	0	25	0	2271215616	51	4157
2026-01-07 03:09:07.93	303.79	78.56	-42.7	-43.6	15.4	0.00e+00	0	26	0	2276458496	51	4049
2026-01-07 03:09:08.93	301.23	78.57	-42.4	-43.4	15.4	0.00e+00	0	25	0	2281701376	51	3923
2026-01-07 03:09:09.93	298.68	78.57	-42.4	-43.4	15.5	0.00e+00	0	25	0	2287992832	51	3919
2026-01-07 03:09:10.94	296.11	78.54	-42.3	-43.3	15.5	0.00e+00	0	25	0	2293235712	51	3903
2026-01-07 03:09:11.94	293.58	78.48	-42.5	-43.5	15.5	0.00e+00	0	25	0	2299527168	51	3966
2026-01-07 03:09:12.94	291.08	78.41	-42.5	-43.4	15.4	0.00e+00	0	25	0	2304770048	51	3942
2026-01-07 03:09:13.93	288.64	78.32	-42.7	-43.6	15.4	0.00e+00	0	25	0	2310012928	51	4043
2026-01-07 03:09:14.92	286.25	78.20	-43.0	-44.0	15.4	0.00e+00	0	25	0	2315255808	51	4237
2026-01-07 03:09:15.92	283.88	78.07	-42.9	-43.9	15.4	0.00e+00	0	25	0	2321547264	51	4163
2026-01-07 03:09:16.92	281.57	77.91	-42.9	-43.8	15.4	0.00e+00	0	25	0	2326790144	51	4144
2026-01-07 03:09:17.92	279.33	77.74	-43.0	-44.0	15.4	0.00e+00	0	25	0	2333081600	51	4219
2026-01-07 03:09:18.92	277.15	77.55	-43.1	-44.1	15.4	0.00e+00	0	25	0	2338324480	51	4281
2026-01-07 03:09:19.92	275.04	77.34	-43.0	-44.0	15.4	0.00e+00	0	26	0	2343567360	51	4236
2026-01-07 03:09:20.93	272.99	77.12	-43.1	-44.1	15.4	0.00e+00	0	25	0	2349858816	51	4263
2026-01-07 03:09:21.93	271.03	76.88	-43.2	-44.3	15.4	0.00e+00	0	25	0	2355101696	51	4342
2026-01-07 03:09:22.92	269.16	76.63	-43.2	-44.2	15.4	0.00e+00	0	26	0	2360344576	51	4333
2026-01-07 03:09:23.93	267.33	76.36	-43.1	-44.1	15.4	0.00e+00	0	25	0	2366636032	51	4258
2026-01-07 03:09:24.92	265.60	76.09	-43.2	-44.3	15.4	0.00e+00	0	25	0	2371878912	51	4341
2026-01-07 03:09:25.92	263.94	75.80	-43.4	-44.4	15.4	0.00e+00	0	26	0	2377121792	51	4421
2026-01-07 03:09:26.93	262.32	75.50	-43.3	-44.3	15.4	0.00e+00	0	26	0	2383413248	52	4132
2026-01-07 03:09:27.93	260.79	75.19	-43.4	-44.3	15.4	0.00e+00	0	26	0	2388656128	52	4137
2026-01-07 03:09:28.94	259.31	74.87	-43.3	-44.3	15.4	0.00e+00	0	25	0	2394947584	52	4112
2026-01-07 03:09:29.94	257.91	74.54	-43.8	-44.8	15.3	0.00e+00	0	25	0	2400190464	52	4379
2026-01-07 03:09:30.94	256.57	74.20	-43.5	-44.5	15.4	0.00e+00	0	25	0	2406481920	52	4229
2026-01-07 03:09:31.94	255.30	73.86	-43.5	-44.5	15.4	0.00e+00	0	25	0	2411724800	52	4222
2026-01-07 03:09:32.94	254.07	73.51	-43.7	-44.7	15.3	0.00e+00	0	25	0	2416967680	52	4340
2026-01-07 03:09:33.94	252.90	73.16	-43.8	-44.8	15.3	0.00e+00	0	25	0	2423259136	52	4369
2026-01-07 03:09:34.94	251.78	72.80	-43.8	-44.8	15.3	0.00e+00	0	25	0	2428502016	52	4356
2026-01-07 03:09:35.93	250.72	72.44	-43.8	-44.8	15.3	0.00e+00	0	25	0	2433744896	52	4357
2026-01-07 03:09:36.93	249.70	72.07	-43.9	-44.9	15.3	0.00e+00	0	25	0	2438987776	52	4439
2026-01-07 03:09:37.94	248.70	71.70	-43.9	-44.9	15.3	0.00e+00	0	25	0	2445279232	53	4176
2026-01-07 03:09:38.94	247.77	71.32	-43.6	-44.6	15.4	0.00e+00	0	25	0	2450522112	53	4020
2026-01-07 03:09:39.94	246.87	70.94	-43.8	-44.8	15.3	0.00e+00	0	25	0	2456813568	53	4112
2026-01-07 03:09:40.94	246.00	70.56	-44.3	-45.3	15.3	0.00e+00	0	25	0	2462056448	53	4370
2026-01-07 03:09:41.93	245.19	70.18	-44.4	-45.5	15.3	0.00e+00	0	25	0	2467299328	54	4199
2026-01-07 03:09:42.92	244.40	69.80	-44.2	-45.2	15.4	0.00e+00	0	25	0	2473590784	54	4053
2026-01-07 03:09:43.92	243.64	69.41	-44.1	-45.1	15.4	0.00e+00	0	25	0	2478833664	54	4042
2026-01-07 03:09:44.91	242.92	69.02	-44.5	-45.5	15.3	0.00e+00	0	25	0	2484076544	54	4234
2026-01-07 03:09:45.91	242.21	68.63	-44.7	-45.8	15.3	0.00e+00	0	25	0	2490368000	54	4349
2026-01-07 03:09:46.90	241.55	68.24	-44.4	-45.5	15.3	0.00e+00	0	25	0	2495610880	54	4203
2026-01-07 03:09:47.90	240.90	67.85	-44.5	-45.5	15.3	0.00e+00	0	25	0	2500853760	54	4225
2026-01-07 03:09:48.90	240.27	67.45	-44.9	-46.0	15.3	0.00e+00	0	25	0	2507145216	54	4446
2026-01-07 03:09:49.90	239.67	67.06	-44.5	-45.6	15.3	0.00e+00	0	26	0	2512388096	54	4248
2026-01-07 03:09:50.89	239.10	66.67	-44.2	-45.2	15.4	0.00e+00	0	25	0	2518679552	54	4085
2026-01-07 03:09:51.90	238.54	66.27	-44.2	-45.2	15.3	0.00e+00	0	26	0	2523922432	54	4087
2026-01-07 03:09:52.89	238.00	65.87	-44.6	-45.6	15.3	0.00e+00	0	25	0	2529165312	54	4282
2026-01-07 03:09:53.89	237.49	65.48	-44.8	-45.8	15.3	0.00e+00	0	25	0	2535456768	54	4390
2026-01-07 03:09:54.89	236.99	65.08	-44.7	-45.8	15.3	0.00e+00	0	25	0	2540699648	54	4346
2026-01-07 03:09:55.90	236.50	64.68	-44.4	-45.5	15.3	0.00e+00	0	25	0	2545942528	54	4199
2026-01-07 03:09:56.91	236.03	64.29	-44.3	-45.4	15.3	0.00e+00	0	25	0	2552233984	54	4153
2026-01-07 03:09:57.91	235.58	63.89	-44.3	-45.4	15.3	0.00e+00	0	25	0	2557476864	54	4151
2026-01-07 03:09:58.91	235.15	63.50	-44.5	-45.6	15.3	0.00e+00	0	25	0	2562719744	54	4256
2026-01-07 03:09:59.92	234.72	63.10	-44.5	-45.5	15.3	0.00e+00	0	25	0	2569011200	54	4222
2026-01-07 03:10:00.91	234.32	62.71	-44.5	-45.5	15.3	0.00e+00	0	25	0	2574254080	54	4231
2026-01-07 03:10:01.91	233.93	62.32	-44.3	-45.3	15.3	0.00e+00	0	25	0	2580545536	54	4143
2026-01-07 03:10:02.91	233.55	61.93	-44.3	-45.3	15.3	0.00e+00	0	25	0	2585788416	54	4126
2026-01-07 03:10:03.91	233.18	61.55	-44.3	-45.4	15.3	0.00e+00	0	25	0	2591031296	54	4146
2026-01-07 03:10:04.91	232.82	61.16	-44.4	-45.4	15.3	0.00e+00	0	25	0	2597322752	54	4183
2026-01-07 03:10:05.91	232.47	60.77	-44.8	-45.8	15.3	0.00e+00	0	26	0	2602565632	54	4369
2026-01-07 03:10:06.91	232.14	60.39	-45.0	-46.1	15.3	0.00e+00	0	25	0	2607808512	55	4260
2026-01-07 03:10:07.91	231.81	60.01	-45.1	-46.2	15.2	0.00e+00	0	25	0	2614099968	55	4304
2026-01-07 03:10:08.91	231.50	59.62	-45.3	-46.3	15.2	0.00e+00	0	25	0	2619342848	55	4371
2026-01-07 03:10:09.90	231.19	59.25	-45.6	-46.7	15.2	0.00e+00	0	25	0	2624585728	56	4315
2026-01-07 03:10:10.89	230.90	58.87	-45.8	-46.9	15.2	0.00e+00	0	25	0	2630877184	56	4401
2026-01-07 03:10:11.89	230.61	58.50	-45.6	-46.7	15.2	0.00e+00	0	25	0	2636120064	56	4292
2026-01-07 03:10:12.88	230.33	58.13	-45.6	-46.7	15.2	0.00e+00	0	25	0	2641362944	56	4294
2026-01-07 03:10:13.88	230.06	57.75	-45.7	-46.8	15.2	0.00e+00	0	25	0	2647654400	56	4349
2026-01-07 03:10:14.88	229.79	57.38	-45.7	-46.8	15.2	0.00e+00	0	25	0	2652897280	56	4379
2026-01-07 03:10:15.87	229.53	57.01	-45.8	-46.9	15.2	0.00e+00	0	26	0	2658140160	56	4396
2026-01-07 03:10:16.87	229.28	56.65	-45.9	-47.0	15.2	0.00e+00	0	25	0	2664431616	57	4207
2026-01-07 03:10:17.88	229.03	56.28	-46.5	-47.6	15.2	0.00e+00	0	25	0	2669674496	58	4257
2026-01-07 03:10:18.88	228.79	55.91	-46.7	-47.9	15.1	0.00e+00	0	25	0	2674917376	58	4412
2026-01-07 03:10:19.87	228.56	55.55	-46.7	-47.8	15.1	0.00e+00	0	26	0	2681208832	58	4388
2026-01-07 03:10:20.87	228.34	55.19	-46.7	-47.8	15.1	0.00e+00	0	25	0	2686451712	58	4384
2026-01-07 03:10:21.87	228.12	54.84	-46.5	-47.6	15.1	0.00e+00	0	25	0	2692743168	58	4282
2026-01-07 03:10:22.88	227.90	54.48	-46.4	-47.5	15.2	0.00e+00	0	25	0	2697986048	58	4236
2026-01-07 03:10:23.88	227.69	54.12	-46.3	-47.4	15.2	0.00e+00	0	25	0	2703228928	58	4190
2026-01-07 03:10:24.88	227.48	53.77	-46.3	-47.4	15.2	0.00e+00	0	25	0	2709520384	58	4172
2026-01-07 03:10:25.88	227.28	53.42	-46.0	-47.0	15.3	0.00e+00	0	25	0	2714763264	58	3999
2026-01-07 03:10:26.89	227.09	53.07	-45.8	-46.9	15.4	0.00e+00	0	25	0	2720006144	58	3915
2026-01-07 03:10:27.89	226.90	52.72	-45.9	-47.0	15.3	0.00e+00	0	26	0	2726297600	58	3974
2026-01-07 03:10:28.89	226.71	52.38	-45.8	-46.9	15.4	0.00e+00	0	25	0	2731540480	58	3922
2026-01-07 03:10:29.89	226.53	52.04	-45.6	-46.7	15.3	0.00e+00	0	25	0	2737831936	57	4064
2026-01-07 03:10:30.89	226.35	51.70	-45.7	-46.8	15.2	0.00e+00	0	25	0	2743074816	57	4104
2026-01-07 03:10:31.90	226.18	51.36	-45.3	-46.3	15.4	0.00e+00	0	25	0	2748317696	57	3911
2026-01-07 03:10:32.90	226.01	51.02	-45.3	-46.3	15.4	0.00e+00	0	25	0	2754609152	57	3889
2026-01-07 03:10:33.91	225.84	50.68	-45.5	-46.5	15.4	0.00e+00	0	25	0	2759852032	57	3984
2026-01-07 03:10:34.91	225.68	50.35	-45.5	-46.6	15.4	0.00e+00	0	25	0	2766143488	57	4014
2026-01-07 03:10:35.90	225.52	50.03	-45.6	-46.6	15.3	0.00e+00	0	25	0	2771386368	57	4044
2026-01-07 03:10:36.91	225.37	49.70	-45.5	-46.6	15.3	0.00e+00	0	25	0	2776629248	57	4042
2026-01-07 03:10:37.91	225.22	49.37	-45.3	-46.3	15.4	0.00e+00	0	25	0	2782920704	57	3906
2026-01-07 03:10:38.90	225.07	49.05	-45.0	-46.1	15.4	0.00e+00	0	25	0	2788163584	56	4013
2026-01-07 03:10:39.89	224.93	48.73	-45.1	-46.2	15.3	0.00e+00	0	25	0	2793406464	56	4062
2026-01-07 03:10:40.89	224.78	48.42	-45.0	-46.0	15.4	0.00e+00	0	25	0	2799697920	56	3982
2026-01-07 03:10:41.89	224.65	48.10	-45.1	-46.1	15.4	0.00e+00	0	25	0	2804940800	56	4043
2026-01-07 03:10:42.89	224.51	47.78	-45.2	-46.3	15.3	0.00e+00	0	25	0	2810183680	56	4108
2026-01-07 03:10:43.89	224.38	47.47	-45.2	-46.3	15.3	0.00e+00	0	25	0	2816475136	56	4107
2026-01-07 03:10:44.88	224.25	47.17	-45.3	-46.3	15.3	0.00e+00	0	25	0	2821718016	56	4130
2026-01-07 03:10:45.88	224.12	46.86	-45.3	-46.4	15.3	0.00e+00	0	25	0	2826960896	56	4155
2026-01-07 03:10:46.88	223.99	46.55	-45.1	-46.2	15.3	0.00e+00	0	25	0	2833252352	56	4060
2026-01-07 03:10:47.88	223.87	46.25	-45.0	-46.1	15.4	0.00e+00	0	25	0	2838495232	56	4016
2026-01-07 03:10:48.87	223.75	45.95	-45.2	-46.3	15.3	0.00e+00	0	25	0	2843738112	56	4126
2026-01-07 03:10:49.87	223.63	45.65	-45.3	-46.3	15.3	0.00e+00	0	25	0	2850029568	56	4144
2026-01-07 03:10:50.86	223.52	45.35	-45.3	-46.4	15.3	0.00e+00	0	26	0	2855272448	56	4172
2026-01-07 03:10:51.85	223.41	45.06	-45.3	-46.4	15.3	0.00e+00	0	25	0	2860515328	56	4165
2026-01-07 03:10:52.84	223.29	44.77	-45.3	-46.4	15.3	0.00e+00	0	25	0	2866806784	56	4154
2026-01-07 03:10:53.84	223.19	44.48	-45.1	-46.1	15.3	0.00e+00	0	25	0	2872049664	56	4024
2026-01-07 03:10:54.84	223.08	44.19	-45.1	-46.2	15.3	0.00e+00	0	25	0	2878341120	56	4052
2026-01-07 03:10:55.85	222.97	43.90	-45.1	-46.1	15.3	0.00e+00	0	26	0	2883584000	56	4035
2026-01-07 03:10:56.84	222.87	43.62	-45.2	-46.2	15.3	0.00e+00	0	25	0	2888826880	56	4085
2026-01-07 03:10:57.84	222.77	43.33	-45.1	-46.1	15.3	0.00e+00	0	26	0	2895118336	56	4050
2026-01-07 03:10:58.83	222.67	43.05	-45.1	-46.2	15.3	0.00e+00	0	25	0	2900361216	56	4058
2026-01-07 03:10:59.83	222.57	42.77	-45.0	-46.1	15.4	0.00e+00	0	25	0	2905604096	56	4014
2026-01-07 03:11:00.83	222.47	42.50	-45.1	-46.2	15.3	0.00e+00	0	26	0	2911895552	56	4055
2026-01-07 03:11:01.82	222.38	42.22	-44.9	-45.9	15.4	0.00e+00	0	25	0	2917138432	56	3927
2026-01-07 03:11:02.82	222.29	41.95	-44.8	-45.8	15.4	0.00e+00	0	26	0	2922381312	56	3894
2026-01-07 03:11:03.82	222.20	41.68	-44.8	-45.8	15.4	0.00e+00	0	25	0	2928672768	56	3888
2026-01-07 03:11:04.82	222.11	41.41	-44.7	-45.7	15.5	0.00e+00	0	25	0	2933915648	56	3847
2026-01-07 03:11:05.81	222.02	41.14	-44.5	-45.5	15.4	0.00e+00	0	25	0	2939158528	55	3988
2026-01-07 03:11:06.81	221.93	40.88	-44.5	-45.5	15.4	0.00e+00	0	25	0	2945449984	55	3973
2026-01-07 03:11:07.81	221.85	40.61	-44.4	-45.4	15.4	0.00e+00	0	25	0	2950692864	55	3929
2026-01-07 03:11:08.82	221.76	40.35	-44.2	-45.2	15.5	0.00e+00	0	25	0	2955935744	55	3862
2026-01-07 03:11:09.82	221.68	40.09	-44.2	-45.2	15.5	0.00e+00	0	25	0	2962227200	55	3850
2026-01-07 03:11:10.82	221.60	39.83	-44.0	-45.0	15.4	0.00e+00	0	25	0	2967470080	54	4002
2026-01-07 03:11:11.82	221.52	39.57	-44.0	-45.0	15.4	0.00e+00	0	25	0	2973761536	54	3993
2026-01-07 03:11:12.82	221.44	39.32	-44.1	-45.2	15.4	0.00e+00	0	25	0	2979004416	54	4056
2026-01-07 03:11:13.83	221.36	39.06	-44.1	-45.1	15.4	0.00e+00	0	26	0	2984247296	54	4036
2026-01-07 03:11:14.83	221.29	38.81	-44.1	-45.1	15.4	0.00e+00	0	25	0	2990538752	54	4043
2026-01-07 03:11:15.83	221.21	38.56	-44.1	-45.2	15.4	0.00e+00	0	25	0	2995781632	54	4057
2026-01-07 03:11:16.83	221.14	38.31	-44.3	-45.3	15.3	0.00e+00	0	25	0	3001024512	54	4115
2026-01-07 03:11:17.82	221.07	38.07	-44.3	-45.4	15.3	0.00e+00	0	25	0	3007315968	54	4154
2026-01-07 03:11:18.83	220.99	37.82	-44.3	-45.4	15.3	0.00e+00	0	25	0	3012558848	54	4146
2026-01-07 03:11:19.83	220.92	37.58	-44.3	-45.4	15.3	0.00e+00	0	25	0	3017801728	54	4152
2026-01-07 03:11:20.83	220.85	37.34	-44.4	-45.5	15.3	0.00e+00	0	25	0	3024093184	54	4205
2026-01-07 03:11:21.82	220.79	37.10	-44.4	-45.5	15.3	0.00e+00	0	25	0	3029336064	54	4202
2026-01-07 03:11:22.82	220.72	36.86	-44.5	-45.5	15.3	0.00e+00	0	25	0	3035627520	54	4213
2026-01-07 03:11:23.82	220.65	36.63	-44.5	-45.5	15.3	0.00e+00	0	25	0	3040870400	54	4225
2026-01-07 03:11:24.82	220.59	36.39	-44.5	-45.5	15.3	0.00e+00	0	25	0	3046113280	54	4215
2026-01-07 03:11:25.83	220.52	36.16	-44.4	-45.4	15.3	0.00e+00	0	26	0	3052404736	54	4161
2026-01-07 03:11:26.83	220.46	35.93	-44.4	-45.4	15.3	0.00e+00	0	25	0	3057647616	54	4185
2026-01-07 03:11:27.82	220.40	35.70	-44.3	-45.4	15.3	0.00e+00	0	26	0	3062890496	54	4155
2026-01-07 03:11:28.82	220.34	35.47	-44.5	-45.5	15.3	0.00e+00	0	25	0	3069181952	54	4222
2026-01-07 03:11:29.82	220.28	35.24	-44.5	-45.5	15.3	0.00e+00	0	25	0	3074424832	54	4236
2026-01-07 03:11:30.82	220.22	35.02	-44.5	-45.5	15.3	0.00e+00	0	25	0	3079667712	54	4230
2026-01-07 03:11:31.82	220.16	34.80	-44.6	-45.7	15.3	0.00e+00	0	25	0	3085959168	54	4294
2026-01-07 03:11:32.82	220.10	34.57	-44.6	-45.7	15.3	0.00e+00	0	26	0	3091202048	54	4309
2026-01-07 03:11:33.83	220.04	34.35	-44.6	-45.7	15.3	0.00e+00	0	25	0	3097493504	54	4320
2026-01-07 03:11:34.83	219.99	34.13	-44.7	-45.7	15.3	0.00e+00	0	25	0	3102736384	54	4338
2026-01-07 03:11:35.82	219.93	33.92	-44.6	-45.7	15.3	0.00e+00	0	26	0	3107979264	54	4304
2026-01-07 03:11:36.83	219.88	33.70	-44.7	-45.7	15.3	0.00e+00	0	25	0	3114270720	54	4333
2026-01-07 03:11:37.81	219.83	33.49	-44.7	-45.7	15.2	0.00e+00	0	25	0	3119513600	54	4319
2026-01-07 03:11:38.82	219.77	33.28	-44.6	-45.6	15.3	0.00e+00	0	25	0	3124756480	54	4276
2026-01-07 03:11:39.82	219.72	33.06	-44.6	-45.7	15.3	0.00e+00	0	25	0	3131047936	54	4297
2026-01-07 03:11:40.83	219.67	32.85	-44.7	-45.8	15.2	0.00e+00	0	25	0	3136290816	54	4341
2026-01-07 03:11:41.83	219.62	32.64	-44.7	-45.7	15.3	0.00e+00	0	25	0	3141533696	54	4334
2026-01-07 03:11:42.83	219.57	32.44	-44.8	-45.9	15.2	0.00e+00	0	25	0	3147825152	54	4401
2026-01-07 03:11:43.83	219.52	32.23	-44.8	-45.8	15.2	0.00e+00	0	25	0	3153068032	54	4391
2026-01-07 03:11:44.83	219.47	32.03	-44.9	-46.0	15.2	0.00e+00	0	25	0	3159359488	54	4462
2026-01-07 03:11:45.84	219.42	31.82	-44.9	-46.0	15.3	0.00e+00	0	25	0	3164602368	55	4210
2026-01-07 03:11:46.83	219.37	31.62	-45.0	-46.0	15.3	0.00e+00	0	26	0	3169845248	55	4229
2026-01-07 03:11:47.83	219.33	31.42	-44.9	-46.0	15.3	0.00e+00	0	25	0	3176136704	55	4222
2026-01-07 03:11:48.83	219.28	31.22	-45.0	-46.0	15.3	0.00e+00	0	25	0	3181379584	55	4237
2026-01-07 03:11:49.83	219.23	31.03	-44.9	-46.0	15.3	0.00e+00	0	26	0	3186622464	55	4223
2026-01-07 03:11:50.83	219.19	30.83	-45.0	-46.0	15.3	0.00e+00	0	25	0	3192913920	55	4233
2026-01-07 03:11:51.84	219.14	30.63	-45.0	-46.0	15.3	0.00e+00	0	25	0	3198156800	55	4232
2026-01-07 03:11:52.84	219.10	30.44	-44.9	-46.0	15.3	0.00e+00	0	25	0	3204448256	55	4211
2026-01-07 03:11:53.84	219.06	30.25	-44.9	-46.0	15.3	0.00e+00	0	25	0	3209691136	55	4194
2026-01-07 03:11:54.83	219.01	30.06	-44.9	-45.9	15.3	0.00e+00	0	26	0	3214934016	55	4187
2026-01-07 03:11:55.83	218.97	29.87	-44.9	-45.9	15.3	0.00e+00	0	25	0	3221225472	55	4177
2026-01-07 03:11:56.84	218.93	29.68	-44.9	-45.9	15.3	0.00e+00	0	25	0	3226468352	55	4185
2026-01-07 03:11:57.84	218.89	29.49	-44.8	-45.8	15.3	0.00e+00	0	25	0	3232759808	55	4136
2026-01-07 03:11:58.83	218.85	29.31	-44.7	-45.8	15.3	0.00e+00	0	25	0	3238002688	55	4125
2026-01-07 03:11:59.84	218.81	29.12	-44.8	-45.8	15.3	0.00e+00	0	25	0	3243245568	55	4120
2026-01-07 03:12:00.84	218.77	28.94	-44.6	-45.7	15.3	0.00e+00	0	25	0	3249537024	55	4054
2026-01-07 03:12:01.84	218.73	28.75	-44.7	-45.8	15.3	0.00e+00	0	26	0	3254779904	55	4110
2026-01-07 03:12:02.84	218.69	28.57	-44.7	-45.8	15.3	0.00e+00	0	25	0	3260022784	55	4112
2026-01-07 03:12:03.85	218.65	28.39	-44.7	-45.7	15.3	0.00e+00	0	25	0	3266314240	55	4080
2026-01-07 03:12:04.85	218.61	28.21	-44.7	-45.7	15.3	0.00e+00	0	25	0	3271557120	55	4088
2026-01-07 03:12:05.85	218.57	28.03	-44.7	-45.7	15.3	0.00e+00	0	25	0	3276800000	55	4085
2026-01-07 03:12:06.85	218.54	27.86	-44.7	-45.8	15.3	0.00e+00	0	25	0	3283091456	55	4100
2026-01-07 03:12:07.84	218.50	27.68	-44.8	-45.8	15.3	0.00e+00	0	25	0	3288334336	55	4145
2026-01-07 03:12:08.84	218.47	27.51	-44.9	-46.0	15.3	0.00e+00	0	26	0	3294625792	55	4198
2026-01-07 03:12:09.85	218.43	27.33	-44.9	-45.9	15.3	0.00e+00	0	26	0	3299868672	55	4183
2026-01-07 03:12:10.85	218.39	27.16	-44.9	-46.0	15.3	0.00e+00	0	26	0	3305111552	55	4207
2026-01-07 03:12:11.86	218.36	26.99	-44.9	-46.0	15.3	0.00e+00	0	25	0	3311403008	55	4234
2026-01-07 03:12:12.86	218.32	26.82	-45.0	-46.1	15.2	0.00e+00	0	25	0	3316645888	55	4244
2026-01-07 03:12:13.86	218.29	26.65	-45.0	-46.1	15.2	0.00e+00	0	26	0	3321888768	55	4257
2026-01-07 03:12:14.86	218.26	26.48	-45.1	-46.2	15.2	0.00e+00	0	26	0	3328180224	55	4295
2026-01-07 03:12:15.86	218.22	26.31	-44.9	-46.0	15.3	0.00e+00	0	25	0	3333423104	55	4222
2026-01-07 03:12:16.87	218.19	26.14	-45.0	-46.0	15.3	0.00e+00	0	26	0	3338665984	55	4231
2026-01-07 03:12:17.87	218.16	25.98	-44.9	-46.0	15.2	0.00e+00	0	25	0	3344957440	55	4224
2026-01-07 03:12:18.87	218.13	25.81	-44.9	-46.0	15.3	0.00e+00	0	25	0	3350200320	55	4196
2026-01-07 03:12:19.87	218.09	25.65	-44.9	-45.9	15.3	0.00e+00	0	25	0	3356491776	55	4185
2026-01-07 03:12:20.87	218.06	25.49	-44.9	-45.9	15.3	0.00e+00	0	25	0	3361734656	55	4185
2026-01-07 03:12:21.86	218.03	25.33	-44.9	-45.9	15.3	0.00e+00	0	25	0	3366977536	55	4178
2026-01-07 03:12:22.85	218.00	25.17	-44.9	-45.9	15.2	0.00e+00	0	26	0	3373268992	55	4187
2026-01-07 03:12:23.85	217.97	25.01	-44.9	-45.9	15.2	0.00e+00	0	26	0	3378511872	55	4181
2026-01-07 03:12:24.85	217.94	24.85	-45.0	-46.0	15.2	0.00e+00	0	25	0	3383754752	55	4221
2026-01-07 03:12:25.85	217.91	24.69	-45.0	-46.0	15.2	0.00e+00	0	25	0	3390046208	55	4235
2026-01-07 03:12:26.85	217.88	24.54	-45.1	-46.1	15.2	0.00e+00	0	26	0	3395289088	55	4279
2026-01-07 03:12:27.85	217.85	24.38	-45.1	-46.1	15.2	0.00e+00	0	26	0	3400531968	55	4286
2026-01-07 03:12:28.85	217.83	24.23	-45.2	-46.2	15.2	0.00e+00	0	25	0	3406823424	55	4327
2026-01-07 03:12:29.85	217.80	24.07	-45.3	-46.3	15.2	0.00e+00	0	25	0	3412066304	55	4391
2026-01-07 03:12:30.85	217.77	23.92	-45.2	-46.3	15.2	0.00e+00	0	26	0	3418357760	55	4363
2026-01-07 03:12:31.84	217.74	23.77	-45.3	-46.4	15.2	0.00e+00	0	25	0	3423600640	55	4397
2026-01-07 03:12:32.85	217.71	23.62	-45.4	-46.4	15.2	0.00e+00	0	26	0	3428843520	55	4438
2026-01-07 03:12:33.84	217.69	23.47	-45.4	-46.5	15.2	0.00e+00	0	26	0	3435134976	55	4461
2026-01-07 03:12:34.85	217.66	23.32	-45.6	-46.7	15.2	0.00e+00	0	25	0	3440377856	56	4324
2026-01-07 03:12:35.85	217.63	23.17	-45.7	-46.8	15.2	0.00e+00	0	26	0	3445620736	56	4366
2026-01-07 03:12:36.85	217.61	23.02	-45.7	-46.8	15.1	0.00e+00	0	26	0	3451912192	56	4387
2026-01-07 03:12:37.85	217.58	22.87	-45.8	-46.8	15.1	0.00e+00	0	25	0	3457155072	56	4389
2026-01-07 03:12:38.83	217.56	22.73	-45.8	-46.9	15.1	0.00e+00	0	25	0	3462397952	56	4396
2026-01-07 03:12:39.83	217.53	22.59	-45.8	-46.9	15.1	0.00e+00	0	25	0	3468689408	56	4399
2026-01-07 03:12:40.83	217.51	22.44	-45.9	-47.0	15.1	0.00e+00	0	26	0	3473932288	56	4461
2026-01-07 03:12:41.83	217.48	22.30	-45.9	-47.0	15.2	0.00e+00	0	25	0	3479175168	57	4224
2026-01-07 03:12:42.82	217.46	22.16	-45.8	-46.9	15.2	0.00e+00	0	25	0	3485466624	57	4182
2026-01-07 03:12:43.83	217.43	22.01	-45.8	-46.9	15.2	0.00e+00	0	26	0	3490709504	57	4187
2026-01-07 03:12:44.83	217.41	21.87	-45.8	-47.0	15.2	0.00e+00	0	26	0	3495952384	57	4198
2026-01-07 03:12:45.82	217.38	21.73	-45.9	-47.0	15.2	0.00e+00	0	26	0	3502243840	57	4218
2026-01-07 03:12:46.83	217.36	21.59	-46.0	-47.1	15.1	0.00e+00	0	26	0	3507486720	57	4264
2026-01-07 03:12:47.83	217.34	21.45	-46.0	-47.1	15.2	0.00e+00	0	25	0	3512729600	57	4244
2026-01-07 03:12:48.82	217.31	21.32	-46.0	-47.1	15.2	0.00e+00	0	26	0	3519021056	57	4247
2026-01-07 03:12:49.82	217.29	21.18	-45.9	-47.0	15.2	0.00e+00	0	25	0	3524263936	57	4240
2026-01-07 03:12:50.81	217.27	21.04	-46.1	-47.2	15.1	0.00e+00	0	25	0	3530555392	57	4316
2026-01-07 03:12:51.82	217.24	20.91	-46.1	-47.2	15.1	0.00e+00	0	26	0	3535798272	57	4318
2026-01-07 03:12:52.82	217.22	20.77	-46.1	-47.2	15.1	0.00e+00	0	25	0	3541041152	57	4312
2026-01-07 03:12:53.82	217.20	20.64	-46.0	-47.1	15.1	0.00e+00	0	26	0	3547332608	57	4274
2026-01-07 03:12:54.81	217.18	20.50	-46.0	-47.1	15.1	0.00e+00	0	25	0	3552575488	57	4279
2026-01-07 03:12:55.81	217.16	20.37	-46.0	-47.2	15.1	0.00e+00	0	25	0	3557818368	57	4298
2026-01-07 03:12:56.81	217.14	20.24	-46.0	-47.1	15.1	0.00e+00	0	26	0	3564109824	57	4288
2026-01-07 03:12:57.81	217.11	20.11	-46.1	-47.2	15.1	0.00e+00	0	26	0	3569352704	57	4338
2026-01-07 03:12:58.81	217.09	19.98	-46.1	-47.2	15.1	0.00e+00	0	25	0	3574595584	57	4309
2026-01-07 03:12:59.80	217.07	19.85	-46.2	-47.3	15.1	0.00e+00	0	25	0	3580887040	57	4362
2026-01-07 03:13:00.80	217.05	19.72	-46.2	-47.4	15.1	0.00e+00	0	25	0	3586129920	57	4401
2026-01-07 03:13:01.81	217.03	19.59	-46.1	-47.2	15.1	0.00e+00	0	25	0	3592421376	57	4328
2026-01-07 03:13:02.81	217.01	19.46	-46.1	-47.3	15.1	0.00e+00	0	26	0	3597664256	57	4348
2026-01-07 03:13:03.82	216.99	19.33	-46.2	-47.3	15.1	0.00e+00	0	26	0	3602907136	57	4386
2026-01-07 03:13:04.81	216.97	19.20	-46.1	-47.2	15.1	0.00e+00	0	25	0	3609198592	57	4338
2026-01-07 03:13:05.81	216.95	19.08	-46.1	-47.2	15.1	0.00e+00	0	25	0	3614441472	57	4334
2026-01-07 03:13:06.81	216.93	18.95	-46.2	-47.3	15.1	0.00e+00	0	26	0	3619684352	57	4351
2026-01-07 03:13:07.80	216.91	18.83	-46.2	-47.3	15.1	0.00e+00	0	26	0	3625975808	57	4358
2026-01-07 03:13:08.80	216.90	18.70	-46.2	-47.3	15.1	0.00e+00	0	26	0	3631218688	57	4381
2026-01-07 03:13:09.81	216.88	18.58	-46.2	-47.3	15.1	0.00e+00	0	25	0	3637510144	57	4358
2026-01-07 03:13:10.81	216.86	18.45	-46.2	-47.2	15.1	0.00e+00	0	26	0	3642753024	57	4338
2026-01-07 03:13:11.81	216.84	18.33	-46.3	-47.4	15.1	0.00e+00	0	26	0	3647995904	57	4397
2026-01-07 03:13:12.81	216.82	18.21	-46.3	-47.4	15.1	0.00e+00	0	26	0	3654287360	57	4413
2026-01-07 03:13:13.81	216.80	18.09	-46.4	-47.5	15.0	0.00e+00	0	25	0	3659530240	57	4450
2026-01-07 03:13:14.81	216.78	17.97	-46.4	-47.5	15.0	0.00e+00	0	26	0	3664773120	57	4448
2026-01-07 03:13:15.81	216.77	17.85	-46.4	-47.5	15.0	0.00e+00	0	25	0	3671064576	57	4463
2026-01-07 03:13:16.81	216.75	17.73	-46.4	-47.5	15.1	0.00e+00	0	26	0	3676307456	58	4240
2026-01-07 03:13:17.80	216.73	17.61	-46.4	-47.5	15.1	0.00e+00	0	26	0	3681550336	58	4234
2026-01-07 03:13:18.80	216.71	17.49	-46.5	-47.6	15.1	0.00e+00	0	25	0	3687841792	58	4287
2026-01-07 03:13:19.79	216.70	17.37	-46.6	-47.8	15.0	0.00e+00	0	25	0	3693084672	58	4341
2026-01-07 03:13:20.79	216.68	17.26	-46.6	-47.7	15.0	0.00e+00	0	25	0	3699376128	58	4337
2026-01-07 03:13:21.78	216.66	17.14	-46.6	-47.7	15.1	0.00e+00	0	25	0	3704619008	58	4318
2026-01-07 03:13:22.78	216.65	17.02	-46.7	-47.8	15.0	0.00e+00	0	25	0	3709861888	58	4386
