passes_logs/2026/01/07/R3.2S_Murmansk/R3.2S_Murmansk__20260107_204208_TY-42_rec.log

#Pass ID: 20260107_204208_TY-42
#Satellite: TY-42
#Configuration: TY-42_900M
#almurnet v.1.7.20251203
#Start time: 2026-01-07 20:42:09

#Version: 2.2.20231116
#Station: R3.2S_Murmansk
#Location: 33.079688 lon 68.888172 lat
#TLE: 1 64048U 25103A   26007.59650463  .00008010  00000-0  38191-3 0 09990
#TLE: 2 64048 097.4111 083.1529 0001828 091.9744 304.3340 15.19168086 35693

#Time	Az	El	Level	Level2	SNR	BER	BlckErr	Temp	State	Recorded	gain1	gain2
2026-01-07 20:42:09.77	211.77	2.09	-57.4	-60.6	6.1	0.00e+00	0	30	0	0	81	21100
2026-01-07 20:42:10.76	211.87	2.15	-57.5	-60.7	6.2	0.00e+00	0	30	104	0	82	19990
2026-01-07 20:42:11.75	211.96	2.21	-57.5	-60.7	6.2	0.00e+00	0	30	104	0	82	20054
2026-01-07 20:42:12.75	212.06	2.27	-57.5	-60.7	6.2	0.00e+00	0	30	104	0	82	19997
2026-01-07 20:42:13.74	212.15	2.33	-57.5	-60.7	6.2	0.00e+00	0	30	104	0	82	20045
2026-01-07 20:42:14.74	212.25	2.39	-57.5	-60.7	6.2	0.00e+00	0	30	104	0	82	20008
2026-01-07 20:42:15.74	212.35	2.45	-57.5	-60.7	6.2	0.00e+00	0	30	104	0	82	20052
2026-01-07 20:42:16.74	212.45	2.51	-57.5	-60.7	6.2	0.00e+00	0	30	104	0	82	20102
2026-01-07 20:42:17.74	212.55	2.57	-57.5	-60.7	6.2	0.00e+00	0	31	104	0	82	20072
2026-01-07 20:42:18.74	212.65	2.63	-57.5	-60.7	6.2	0.00e+00	0	31	104	0	82	20103
2026-01-07 20:42:19.74	212.75	2.69	-57.5	-60.7	6.2	0.00e+00	0	31	104	0	82	20088
2026-01-07 20:42:20.74	212.85	2.76	-57.5	-60.7	6.2	0.00e+00	0	31	104	0	82	20101
2026-01-07 20:42:21.74	212.95	2.82	-57.5	-60.7	6.2	0.00e+00	0	31	104	0	82	20092
2026-01-07 20:42:22.73	213.05	2.88	-57.5	-60.7	6.2	0.00e+00	0	31	104	0	82	20122
2026-01-07 20:42:23.73	213.15	2.94	-57.5	-60.7	6.2	0.00e+00	0	31	104	0	82	20161
2026-01-07 20:42:24.73	213.25	3.00	-57.5	-60.7	6.2	0.00e+00	0	31	104	0	82	20106
2026-01-07 20:42:25.73	213.35	3.06	-57.5	-60.7	6.2	0.00e+00	0	31	104	0	82	20072
2026-01-07 20:42:26.73	213.46	3.13	-57.5	-60.7	6.2	0.00e+00	0	31	104	0	82	20088
2026-01-07 20:42:27.73	213.56	3.19	-57.5	-60.7	6.2	0.00e+00	0	31	104	0	82	20137
2026-01-07 20:42:28.73	213.67	3.25	-57.5	-60.7	6.2	0.00e+00	0	31	104	0	82	20104
2026-01-07 20:42:29.72	213.77	3.31	-57.5	-60.7	6.2	0.00e+00	0	31	104	0	82	20150
2026-01-07 20:42:30.72	213.88	3.37	-57.5	-60.8	6.2	0.00e+00	0	31	104	0	82	20194
2026-01-07 20:42:31.72	213.98	3.44	-57.5	-60.8	6.2	0.00e+00	0	31	104	0	82	20171
2026-01-07 20:42:32.72	214.09	3.50	-57.5	-60.7	6.2	0.00e+00	0	31	104	0	82	20073
2026-01-07 20:42:33.72	214.20	3.56	-57.5	-60.8	6.2	0.00e+00	0	31	104	0	82	20169
2026-01-07 20:42:34.72	214.31	3.63	-57.5	-60.8	6.2	0.00e+00	0	31	104	0	82	20167
2026-01-07 20:42:35.71	214.41	3.69	-57.5	-60.7	6.2	0.00e+00	0	31	104	0	82	20110
2026-01-07 20:42:36.71	214.52	3.75	-57.5	-60.7	6.2	0.00e+00	0	31	104	0	82	20151
2026-01-07 20:42:37.71	214.63	3.82	-57.5	-60.8	6.2	0.00e+00	0	31	104	0	82	20202
2026-01-07 20:42:38.71	214.74	3.88	-57.5	-60.8	6.2	0.00e+00	0	31	104	0	82	20217
2026-01-07 20:42:39.71	214.85	3.94	-57.5	-60.8	6.2	0.00e+00	0	31	104	0	82	20192
2026-01-07 20:42:40.70	214.96	4.01	-57.5	-60.8	6.2	0.00e+00	0	31	104	0	82	20201
2026-01-07 20:42:41.70	215.08	4.07	-57.5	-60.8	6.2	0.00e+00	0	31	104	0	82	20176
2026-01-07 20:42:42.70	215.19	4.13	-57.5	-60.8	6.2	0.00e+00	0	31	104	0	82	20167
2026-01-07 20:42:43.69	215.30	4.20	-57.5	-60.8	6.2	0.00e+00	0	31	104	0	82	20190
2026-01-07 20:42:44.69	215.41	4.26	-57.5	-60.7	6.1	0.00e+00	0	31	104	0	82	20145
2026-01-07 20:42:45.69	215.53	4.33	-57.5	-60.7	6.2	0.00e+00	0	31	104	0	82	20099
2026-01-07 20:42:46.68	215.64	4.39	-57.5	-60.8	6.2	0.00e+00	0	31	104	0	82	20202
2026-01-07 20:42:47.68	215.76	4.46	-57.5	-60.7	6.2	0.00e+00	0	32	104	0	82	20106
2026-01-07 20:42:48.67	215.87	4.52	-57.5	-60.8	6.2	0.00e+00	0	32	104	0	82	20190
2026-01-07 20:42:49.67	215.99	4.58	-57.5	-60.8	6.2	0.00e+00	0	31	104	0	82	20176
2026-01-07 20:42:50.66	216.11	4.65	-57.5	-60.7	6.2	0.00e+00	0	31	104	0	82	20150
2026-01-07 20:42:51.66	216.22	4.71	-57.5	-60.7	6.2	0.00e+00	0	32	104	0	82	20125
2026-01-07 20:42:52.66	216.34	4.78	-57.5	-60.8	6.1	0.00e+00	0	32	104	0	82	20164
2026-01-07 20:42:53.66	216.46	4.84	-57.5	-60.7	6.2	0.00e+00	0	32	104	0	82	20159
2026-01-07 20:42:54.66	216.58	4.91	-57.5	-60.8	6.2	0.00e+00	0	32	104	0	82	20237
2026-01-07 20:42:55.66	216.70	4.98	-57.5	-60.7	6.2	0.00e+00	0	32	104	0	82	20146
2026-01-07 20:42:56.66	216.82	5.04	-57.5	-60.8	6.2	0.00e+00	0	32	104	0	82	20193
2026-01-07 20:42:57.66	216.95	5.11	-57.7	-60.9	6.2	0.00e+00	0	32	104	0	82	20521
2026-01-07 20:42:58.66	217.07	5.17	-57.6	-60.8	6.1	0.00e+00	0	32	104	0	82	20347
2026-01-07 20:42:59.65	217.19	5.24	-57.6	-60.8	6.1	0.00e+00	0	32	104	0	82	20251
2026-01-07 20:43:00.65	217.32	5.31	-57.5	-60.7	6.2	0.00e+00	0	32	104	0	82	20048
2026-01-07 20:43:01.65	217.44	5.37	-57.7	-60.9	6.2	0.00e+00	0	32	104	0	82	20458
2026-01-07 20:43:02.65	217.57	5.44	-57.7	-60.9	6.2	0.00e+00	0	32	104	0	82	20534
2026-01-07 20:43:03.66	217.69	5.51	-57.6	-60.9	6.2	0.00e+00	0	32	104	0	82	20425
2026-01-07 20:43:04.66	217.82	5.57	-57.5	-60.8	6.2	0.00e+00	0	32	104	0	82	20202
2026-01-07 20:43:05.65	217.95	5.64	-57.7	-60.9	6.2	0.00e+00	0	32	104	0	82	20500
2026-01-07 20:43:06.65	218.07	5.71	-57.7	-60.9	6.2	0.00e+00	0	32	104	0	82	20536
2026-01-07 20:43:07.65	218.20	5.77	-57.6	-60.9	6.2	0.00e+00	0	32	104	0	82	20431
2026-01-07 20:43:08.65	218.33	5.84	-57.6	-60.8	6.2	0.00e+00	0	32	104	0	82	20252
2026-01-07 20:43:09.64	218.46	5.91	-57.7	-60.9	6.2	0.00e+00	0	32	104	0	82	20621
2026-01-07 20:43:10.64	218.59	5.97	-57.7	-61.0	6.2	0.00e+00	0	32	104	0	82	20707
2026-01-07 20:43:11.63	218.72	6.04	-57.7	-60.9	6.1	0.00e+00	0	32	104	0	82	20434
2026-01-07 20:43:12.63	218.86	6.11	-57.6	-60.8	6.2	0.00e+00	0	32	104	0	82	20375
2026-01-07 20:43:13.63	218.99	6.18	-57.7	-60.9	6.2	0.00e+00	0	32	104	0	82	20573
2026-01-07 20:43:14.62	219.12	6.24	-57.8	-61.0	6.2	0.00e+00	0	32	104	0	82	20709
2026-01-07 20:43:15.62	219.26	6.31	-57.7	-60.9	6.2	0.00e+00	0	32	104	0	82	20540
2026-01-07 20:43:16.61	219.39	6.38	-57.6	-60.9	6.2	0.00e+00	0	32	104	0	82	20456
2026-01-07 20:43:17.60	219.53	6.45	-57.7	-61.0	6.2	0.00e+00	0	32	104	0	82	20684
2026-01-07 20:43:18.61	219.67	6.52	-57.8	-61.0	6.2	0.00e+00	0	32	104	0	82	20697
2026-01-07 20:43:19.59	219.80	6.59	-57.7	-60.9	6.2	0.00e+00	0	32	104	0	82	20624
2026-01-07 20:43:20.59	219.94	6.65	-57.7	-60.9	6.1	0.00e+00	0	32	104	0	82	20540
2026-01-07 20:43:21.58	220.08	6.72	-57.7	-61.0	6.2	0.00e+00	0	32	104	0	82	20731
2026-01-07 20:43:22.57	220.22	6.79	-57.8	-61.0	6.2	0.00e+00	0	32	104	0	82	20835
2026-01-07 20:43:23.57	220.36	6.86	-57.7	-61.0	6.2	0.00e+00	0	32	104	0	82	20703
2026-01-07 20:43:24.57	220.50	6.93	-57.7	-60.9	6.2	0.00e+00	0	33	104	0	82	20586
2026-01-07 20:43:25.57	220.64	7.00	-57.8	-61.0	6.2	0.00e+00	0	32	104	0	82	20755
2026-01-07 20:43:26.57	220.79	7.07	-57.8	-61.1	6.1	0.00e+00	0	33	104	0	82	20960
2026-01-07 20:43:27.57	220.93	7.14	-57.8	-61.0	6.2	0.00e+00	0	33	104	0	82	20758
2026-01-07 20:43:28.56	221.07	7.21	-57.7	-61.0	6.2	0.00e+00	0	33	104	0	82	20636
2026-01-07 20:43:29.55	221.22	7.28	-57.8	-61.0	6.1	0.00e+00	0	33	104	0	82	20799
2026-01-07 20:43:30.55	221.36	7.35	-57.8	-61.1	6.2	0.00e+00	0	33	104	0	82	20982
2026-01-07 20:43:31.54	221.51	7.42	-57.8	-61.0	6.2	0.00e+00	0	32	104	0	82	20777
2026-01-07 20:43:32.55	221.66	7.49	-57.8	-61.0	6.2	0.00e+00	0	32	104	0	82	20747
2026-01-07 20:43:33.54	221.81	7.56	-57.8	-61.1	6.2	0.00e+00	0	33	104	0	82	20911
2026-01-07 20:43:34.54	221.96	7.63	-57.9	-61.1	6.1	0.00e+00	0	33	104	0	82	21058
2026-01-07 20:43:35.53	222.11	7.70	-57.8	-61.1	6.2	0.00e+00	0	33	104	0	82	20890
2026-01-07 20:43:36.53	222.26	7.77	-57.8	-61.0	6.1	0.00e+00	0	33	104	0	82	20814
2026-01-07 20:43:37.52	222.41	7.84	-57.9	-61.1	6.2	0.00e+00	0	33	104	0	82	20967
2026-01-07 20:43:38.51	222.57	7.91	-57.9	-61.1	6.2	0.00e+00	0	33	104	0	82	21053
2026-01-07 20:43:39.51	222.72	7.98	-57.8	-61.1	6.2	0.00e+00	0	33	104	0	82	21020
2026-01-07 20:43:40.51	222.88	8.05	-57.8	-61.1	6.2	0.00e+00	0	33	104	0	82	20882
2026-01-07 20:43:41.50	223.03	8.12	-57.9	-61.1	6.2	0.00e+00	0	33	104	0	82	20915
2026-01-07 20:43:42.49	223.19	8.19	-57.9	-61.2	6.1	0.00e+00	0	33	104	0	82	21188
2026-01-07 20:43:43.48	223.34	8.26	-57.9	-61.1	6.2	0.00e+00	0	33	104	0	82	21054
2026-01-07 20:43:44.48	223.50	8.33	-57.8	-61.1	6.2	0.00e+00	0	33	104	0	82	20978
2026-01-07 20:43:45.47	223.66	8.40	-57.9	-61.1	6.2	0.00e+00	0	33	104	0	82	21041
2026-01-07 20:43:46.47	223.82	8.48	-57.9	-61.2	6.1	0.00e+00	0	33	104	0	82	21129
2026-01-07 20:43:47.47	223.98	8.55	-57.9	-61.1	6.2	0.00e+00	0	33	104	0	82	21043
2026-01-07 20:43:48.46	224.15	8.62	-57.9	-61.1	6.2	0.00e+00	0	33	104	0	82	20983
2026-01-07 20:43:49.46	224.31	8.69	-57.9	-61.1	6.2	0.00e+00	0	33	104	0	82	21001
2026-01-07 20:43:50.46	224.48	8.76	-58.0	-61.2	6.2	0.00e+00	0	33	104	0	82	21266
2026-01-07 20:43:51.45	224.64	8.84	-57.9	-61.1	6.2	0.00e+00	0	33	104	0	82	21106
2026-01-07 20:43:52.44	224.80	8.91	-57.9	-61.1	6.2	0.00e+00	0	33	104	0	82	21016
2026-01-07 20:43:53.43	224.97	8.98	-57.9	-61.1	6.1	0.00e+00	0	33	104	0	82	21101
2026-01-07 20:43:54.43	225.14	9.05	-58.0	-61.2	6.2	0.00e+00	0	33	104	0	82	21277
2026-01-07 20:43:55.42	225.31	9.12	-58.0	-61.2	6.2	0.00e+00	0	33	104	0	82	21138
2026-01-07 20:43:56.42	225.48	9.20	-57.9	-61.2	6.2	0.00e+00	0	33	104	0	82	21184
2026-01-07 20:43:57.42	225.65	9.27	-58.0	-61.2	6.2	0.00e+00	0	33	104	0	82	21230
2026-01-07 20:43:58.41	225.82	9.34	-58.0	-61.2	6.2	0.00e+00	0	33	104	0	82	21355
2026-01-07 20:43:59.40	225.99	9.41	-58.0	-61.2	6.2	0.00e+00	0	33	104	0	82	21275
2026-01-07 20:44:00.39	226.17	9.49	-58.0	-61.2	6.2	0.00e+00	0	33	104	0	82	21211
2026-01-07 20:44:01.40	226.35	9.56	-58.0	-61.2	6.1	0.00e+00	0	33	104	0	82	21280
2026-01-07 20:44:02.40	226.52	9.63	-58.1	-61.3	6.2	0.00e+00	0	33	104	0	82	21440
2026-01-07 20:44:03.40	226.70	9.71	-58.0	-61.3	6.2	0.00e+00	0	33	104	0	82	21400
2026-01-07 20:44:04.40	226.88	9.78	-58.0	-61.2	6.2	0.00e+00	0	33	104	0	82	21305
2026-01-07 20:44:05.40	227.06	9.85	-58.0	-61.3	6.1	0.00e+00	0	33	104	0	82	21395
2026-01-07 20:44:06.40	227.24	9.93	-58.1	-61.3	6.2	0.00e+00	0	33	104	0	82	21536
2026-01-07 20:44:07.40	227.43	10.00	-58.1	-61.3	6.2	0.00e+00	0	33	104	0	82	21400
2026-01-07 20:44:08.40	227.61	10.08	-58.0	-61.2	6.2	0.00e+00	0	33	104	0	82	21345
2026-01-07 20:44:09.39	227.79	10.15	-58.1	-61.3	6.2	0.00e+00	0	33	104	0	82	21403
2026-01-07 20:44:10.39	227.98	10.22	-58.1	-61.3	6.1	0.00e+00	0	33	104	0	82	21585
2026-01-07 20:44:11.38	228.16	10.30	-58.1	-61.3	6.2	0.00e+00	0	33	104	0	82	21544
2026-01-07 20:44:12.39	228.35	10.37	-58.0	-61.3	6.2	0.00e+00	0	33	104	0	82	21420
2026-01-07 20:44:13.38	228.54	10.44	-58.1	-61.3	6.2	0.00e+00	0	33	104	0	82	21543
2026-01-07 20:44:14.38	228.73	10.52	-58.1	-61.4	6.2	0.00e+00	0	33	104	0	82	21644
2026-01-07 20:44:15.37	228.92	10.59	-58.1	-61.3	6.1	0.00e+00	0	33	104	0	82	21579
2026-01-07 20:44:16.37	229.11	10.67	-58.1	-61.3	6.2	0.00e+00	0	33	104	0	82	21511
2026-01-07 20:44:17.37	229.31	10.74	-58.1	-61.3	6.1	0.00e+00	0	33	104	0	82	21517
2026-01-07 20:44:18.36	229.50	10.81	-58.1	-61.4	6.1	0.00e+00	0	33	104	0	82	21652
2026-01-07 20:44:19.36	229.70	10.89	-58.1	-61.3	6.1	0.00e+00	0	33	104	0	82	21536
2026-01-07 20:44:20.36	229.89	10.96	-58.1	-61.3	6.1	0.00e+00	0	33	104	0	82	21529
2026-01-07 20:44:21.36	230.09	11.04	-58.1	-61.3	6.1	0.00e+00	0	33	104	0	82	21605
2026-01-07 20:44:22.36	230.29	11.11	-58.1	-61.4	6.2	0.00e+00	0	33	104	0	82	21652
2026-01-07 20:44:23.36	230.49	11.19	-58.1	-61.3	6.2	0.00e+00	0	33	104	0	82	21606
2026-01-07 20:44:24.36	230.69	11.26	-58.1	-61.3	6.2	0.00e+00	0	33	104	0	82	21524
2026-01-07 20:44:25.36	230.90	11.33	-58.1	-61.3	6.2	0.00e+00	0	33	104	0	82	21547
2026-01-07 20:44:26.36	231.10	11.41	-58.2	-61.4	6.2	0.00e+00	0	33	104	0	82	21644
2026-01-07 20:44:27.35	231.31	11.48	-58.1	-61.4	6.2	0.00e+00	0	33	104	0	82	21705
2026-01-07 20:44:28.35	231.51	11.56	-58.1	-61.4	6.1	0.00e+00	0	33	104	0	82	21685
2026-01-07 20:44:29.35	231.72	11.63	-58.1	-61.3	6.1	0.00e+00	0	33	104	0	82	21562
2026-01-07 20:44:30.34	231.93	11.71	-58.2	-61.4	6.1	0.00e+00	0	33	104	0	82	21749
2026-01-07 20:44:31.34	232.14	11.78	-58.1	-61.4	6.1	0.00e+00	0	33	104	0	82	21626
2026-01-07 20:44:32.34	232.35	11.85	-58.1	-61.4	6.2	0.00e+00	0	33	104	0	82	21683
2026-01-07 20:44:33.34	232.56	11.93	-58.1	-61.4	6.1	0.00e+00	0	33	104	0	82	21631
2026-01-07 20:44:34.32	232.77	12.00	-58.2	-61.4	6.2	0.00e+00	0	33	104	0	82	21783
2026-01-07 20:44:35.32	232.99	12.08	-58.2	-61.4	6.2	0.00e+00	0	33	104	0	82	21740
2026-01-07 20:44:36.32	233.21	12.15	-58.2	-61.4	6.1	0.00e+00	0	33	104	0	82	21776
2026-01-07 20:44:37.31	233.42	12.23	-58.2	-61.4	6.2	0.00e+00	0	33	104	0	82	21714
2026-01-07 20:44:38.31	233.64	12.30	-58.2	-61.4	6.2	0.00e+00	0	33	104	0	82	21837
2026-01-07 20:44:39.31	233.86	12.37	-58.2	-61.4	6.1	0.00e+00	0	33	104	0	82	21751
2026-01-07 20:44:40.31	234.08	12.45	-58.2	-61.4	6.2	0.00e+00	0	33	104	0	82	21728
2026-01-07 20:44:41.30	234.31	12.52	-58.2	-61.4	6.2	0.00e+00	0	33	104	0	82	21811
2026-01-07 20:44:42.30	234.53	12.60	-58.2	-61.5	6.2	0.00e+00	0	33	104	0	82	21944
2026-01-07 20:44:43.30	234.76	12.67	-58.2	-61.4	6.2	0.00e+00	0	33	104	0	82	21851
2026-01-07 20:44:44.29	234.98	12.74	-58.2	-61.5	6.1	0.00e+00	0	33	104	0	82	21885
2026-01-07 20:44:45.29	235.21	12.82	-58.2	-61.4	6.1	0.00e+00	0	33	104	0	82	21796
2026-01-07 20:44:46.29	235.44	12.89	-58.3	-61.5	6.1	0.00e+00	0	33	104	0	82	21915
2026-01-07 20:44:47.28	235.67	12.96	-58.2	-61.5	6.2	0.00e+00	0	33	104	0	82	21904
2026-01-07 20:44:48.27	235.90	13.04	-58.2	-61.5	6.2	0.00e+00	0	33	104	0	82	21970
2026-01-07 20:44:49.28	236.14	13.11	-58.2	-61.5	6.2	0.00e+00	0	33	104	0	82	21909
2026-01-07 20:44:50.28	236.37	13.19	-58.3	-61.5	6.2	0.00e+00	0	33	104	0	82	22027
2026-01-07 20:44:51.27	236.61	13.26	-58.3	-61.5	6.2	0.00e+00	0	33	104	0	82	22011
2026-01-07 20:44:52.26	236.84	13.33	-58.2	-61.5	6.2	0.00e+00	0	33	104	0	82	21913
2026-01-07 20:44:53.25	237.08	13.40	-58.2	-61.5	6.1	0.00e+00	0	33	104	0	82	21918
2026-01-07 20:44:54.24	237.32	13.48	-58.3	-61.5	6.1	0.00e+00	0	33	104	0	82	22020
2026-01-07 20:44:55.23	237.56	13.55	-58.3	-61.5	6.1	0.00e+00	0	34	104	0	82	21965
2026-01-07 20:44:56.23	237.80	13.62	-58.2	-61.5	6.2	0.00e+00	0	33	104	0	82	21981
2026-01-07 20:44:57.23	238.05	13.69	-58.2	-61.5	6.2	0.00e+00	0	33	104	0	82	21941
2026-01-07 20:44:58.23	238.29	13.77	-58.3	-61.5	6.2	0.00e+00	0	34	104	0	82	22052
2026-01-07 20:44:59.22	238.54	13.84	-50.4	-51.0	8.8	0.00e+00	0	34	104	0	67	15599
2026-01-07 20:45:00.22	238.79	13.91	-42.4	-42.8	12.1	0.00e+00	0	34	0	58720256	50	16109
2026-01-07 20:45:01.21	239.04	13.98	-52.6	-53.5	8.1	2.92e-02	0	34	104	109051904	72	15525
2026-01-07 20:45:02.20	239.29	14.05	-38.4	-38.7	12.6	0.00e+00	0	34	0	167772160	43	14968
2026-01-07 20:45:03.20	239.54	14.13	-37.8	-38.1	12.7	0.00e+00	0	34	0	276824064	42	14886
2026-01-07 20:45:04.20	239.80	14.20	-37.7	-38.0	12.7	1.04e-02	0	34	0	394264576	42	14739
2026-01-07 20:45:05.20	240.05	14.27	-37.6	-37.9	12.7	1.85e-03	0	35	0	503316480	42	14473
2026-01-07 20:45:06.19	240.31	14.34	-37.7	-38.0	12.7	1.85e-03	0	35	0	612368384	42	14639
2026-01-07 20:45:07.19	240.57	14.41	-37.7	-38.0	12.7	1.85e-03	0	35	0	729808896	42	14745
2026-01-07 20:45:08.19	240.83	14.48	-37.7	-38.0	12.7	1.72e-03	0	35	0	838860800	42	14670
2026-01-07 20:45:09.18	241.09	14.55	-37.6	-37.9	12.7	1.72e-03	0	35	0	956301312	42	14571
2026-01-07 20:45:10.18	241.35	14.62	-37.6	-37.9	12.7	1.90e-03	0	35	0	1065353216	42	14544
2026-01-07 20:45:11.18	241.62	14.69	-37.6	-37.9	12.7	1.90e-03	0	35	0	1174405120	42	14520
2026-01-07 20:45:12.18	241.88	14.76	-37.6	-37.9	12.7	1.90e-03	0	35	0	1291845632	42	14572
2026-01-07 20:45:13.17	242.15	14.83	-37.5	-37.8	12.8	1.23e-03	0	35	0	1400897536	42	14368
2026-01-07 20:45:14.17	242.42	14.90	-37.6	-37.8	12.7	1.23e-03	0	35	0	1518338048	42	14433
2026-01-07 20:45:15.16	242.68	14.97	-37.5	-37.8	12.8	1.23e-03	0	35	0	1627389952	42	14346
2026-01-07 20:45:16.16	242.96	15.04	-37.5	-37.8	12.8	1.66e-03	0	35	0	1736441856	42	14391
2026-01-07 20:45:17.16	243.23	15.11	-37.5	-37.8	12.8	1.66e-03	0	35	0	1845493760	42	14350
2026-01-07 20:45:18.15	243.50	15.17	-37.5	-37.8	12.8	1.66e-03	0	35	0	1962934272	42	14276
2026-01-07 20:45:19.14	243.78	15.24	-37.4	-37.7	12.8	1.66e-03	0	35	0	2071986176	42	14202
2026-01-07 20:45:20.14	244.05	15.31	-37.4	-37.7	12.8	1.43e-03	0	36	0	2181038080	42	14192
2026-01-07 20:45:21.13	244.33	15.38	-37.4	-37.7	12.8	1.43e-03	0	35	0	2298478592	42	14213
2026-01-07 20:45:22.13	244.61	15.44	-37.4	-37.7	12.8	9.44e-04	0	35	0	2407530496	42	14262
2026-01-07 20:45:23.13	244.89	15.51	-37.4	-37.7	12.8	9.44e-04	0	35	0	2524971008	42	14182
2026-01-07 20:45:24.13	245.18	15.58	-37.5	-37.8	12.8	9.44e-04	0	35	0	2634022912	42	14324
2026-01-07 20:45:25.12	245.46	15.64	-37.3	-37.6	12.8	9.44e-04	0	35	0	2751463424	41	14790
2026-01-07 20:45:26.12	245.75	15.71	-37.3	-37.6	12.8	1.27e-03	0	35	0	2860515328	41	14783
2026-01-07 20:45:27.12	246.04	15.77	-37.2	-37.5	12.8	1.27e-03	0	35	0	2969567232	41	14714
2026-01-07 20:45:28.12	246.32	15.84	-37.3	-37.5	12.8	1.27e-03	0	35	0	3087007744	41	14766
2026-01-07 20:45:29.11	246.61	15.90	-37.3	-37.6	12.8	9.06e-04	0	36	0	3196059648	41	14801
2026-01-07 20:45:30.11	246.90	15.96	-37.3	-37.6	12.8	9.06e-04	0	36	0	3313500160	41	14824
2026-01-07 20:45:31.10	247.20	16.03	-37.1	-37.4	12.8	9.06e-04	0	35	0	3414163456	41	14553
2026-01-07 20:45:32.10	247.49	16.09	-37.2	-37.5	12.8	1.28e-03	0	36	0	3531603968	41	14631
2026-01-07 20:45:33.09	247.78	16.15	-37.2	-37.5	12.8	1.28e-03	0	36	0	3640655872	41	14658
2026-01-07 20:45:34.08	248.08	16.21	-37.2	-37.5	12.8	8.87e-04	0	36	0	3749707776	41	14694
2026-01-07 20:45:35.08	248.38	16.28	-37.1	-37.3	12.9	8.87e-04	0	36	0	3867148288	41	14406
2026-01-07 20:45:36.07	248.68	16.34	-37.1	-37.4	12.8	8.87e-04	0	36	0	3976200192	41	14459
2026-01-07 20:45:37.06	248.98	16.40	-36.9	-37.2	12.9	1.05e-03	0	36	0	4093640704	41	14139
2026-01-07 20:45:38.06	249.28	16.46	-36.9	-37.2	12.9	1.05e-03	0	36	0	4202692608	41	14151
2026-01-07 20:45:39.06	249.58	16.52	-36.7	-37.0	12.9	1.05e-03	0	36	0	4311744512	40	14715
2026-01-07 20:45:40.06	249.89	16.58	-36.7	-37.0	12.9	7.44e-04	0	36	0	4420796416	40	14625
2026-01-07 20:45:41.05	250.19	16.63	-36.7	-37.0	12.9	7.44e-04	0	36	0	4538236928	40	14611
2026-01-07 20:45:42.05	250.50	16.69	-36.7	-37.0	12.9	7.44e-04	0	36	0	4647288832	40	14767
2026-01-07 20:45:43.04	250.81	16.75	-36.7	-37.0	12.9	7.44e-04	0	36	0	4764729344	40	14687
2026-01-07 20:45:44.04	251.12	16.81	-36.7	-37.0	12.9	8.11e-04	0	36	0	4873781248	40	14635
2026-01-07 20:45:45.03	251.43	16.86	-36.7	-37.0	12.9	8.11e-04	0	36	0	4982833152	40	14643
2026-01-07 20:45:46.02	251.74	16.92	-36.7	-37.0	12.9	5.01e-04	0	36	0	5100273664	40	14687
2026-01-07 20:45:47.02	252.06	16.98	-36.7	-37.0	12.9	5.01e-04	0	36	0	5209325568	40	14663
2026-01-07 20:45:48.00	252.37	17.03	-36.7	-36.9	12.9	5.01e-04	0	36	0	5318377472	40	14587
2026-01-07 20:45:49.00	252.69	17.08	-36.6	-36.9	12.9	6.96e-04	0	36	0	5427429376	40	14493
2026-01-07 20:45:49.99	253.01	17.14	-36.7	-37.0	12.8	6.96e-04	0	36	0	5544869888	40	14724
2026-01-07 20:45:50.97	253.32	17.19	-36.6	-36.9	12.8	6.96e-04	0	36	0	5653921792	40	14553
2026-01-07 20:45:51.97	253.64	17.24	-36.7	-37.0	12.7	6.87e-04	0	36	0	5771362304	40	14635
2026-01-07 20:45:52.96	253.96	17.29	-36.6	-36.9	12.8	6.87e-04	0	36	0	5872025600	40	14526
2026-01-07 20:45:53.95	254.28	17.34	-36.6	-36.9	12.9	6.87e-04	0	36	0	5989466112	40	14571
2026-01-07 20:45:54.95	254.61	17.39	-36.6	-36.9	12.9	1.12e-03	0	36	0	6098518016	40	14473
2026-01-07 20:45:55.94	254.93	17.44	-36.6	-36.9	12.9	1.12e-03	0	36	0	6215958528	40	14451
2026-01-07 20:45:56.94	255.26	17.49	-36.6	-36.9	12.9	4.15e-04	0	36	0	6325010432	40	14559
2026-01-07 20:45:57.93	255.59	17.54	-36.6	-36.9	12.9	4.15e-04	0	36	0	6434062336	40	14473
2026-01-07 20:45:58.92	255.91	17.59	-36.7	-37.0	12.9	4.15e-04	0	36	0	6551502848	40	14638
2026-01-07 20:45:59.92	256.25	17.64	-36.7	-37.0	12.9	6.91e-04	0	36	0	6660554752	40	14669
2026-01-07 20:46:00.92	256.58	17.68	-36.7	-37.0	12.9	6.91e-04	0	36	0	6777995264	40	14628
2026-01-07 20:46:01.92	256.91	17.73	-36.5	-36.8	12.9	6.91e-04	0	36	0	6887047168	40	14392
2026-01-07 20:46:02.91	257.25	17.77	-36.6	-36.9	12.9	6.34e-04	0	36	0	6996099072	40	14469
2026-01-07 20:46:03.91	257.58	17.82	-36.6	-36.9	12.9	6.34e-04	0	36	0	7105150976	40	14506
2026-01-07 20:46:04.90	257.92	17.86	-36.6	-36.9	12.9	6.34e-04	0	36	0	7222591488	40	14584
2026-01-07 20:46:05.90	258.26	17.90	-36.6	-36.9	12.9	7.06e-04	0	36	0	7331643392	40	14468
2026-01-07 20:46:06.89	258.59	17.94	-36.5	-36.8	12.9	7.06e-04	0	36	0	7440695296	40	14282
2026-01-07 20:46:07.88	258.93	17.99	-36.6	-36.9	12.9	6.01e-04	0	36	0	7558135808	40	14473
2026-01-07 20:46:08.87	259.27	18.03	-36.5	-36.8	12.9	6.01e-04	0	36	0	7667187712	40	14391
2026-01-07 20:46:09.87	259.61	18.07	-36.5	-36.8	12.9	6.01e-04	0	36	0	7784628224	40	14306
2026-01-07 20:46:10.86	259.95	18.10	-36.6	-36.8	12.9	3.91e-04	0	36	0	7885291520	40	14413
2026-01-07 20:46:11.85	260.29	18.14	-36.5	-36.8	12.9	3.91e-04	0	36	0	8002732032	40	14369
2026-01-07 20:46:12.84	260.63	18.18	-36.5	-36.8	12.9	3.91e-04	0	36	0	8111783936	40	14302
2026-01-07 20:46:13.84	260.98	18.21	-36.5	-36.8	12.9	3.91e-04	0	36	0	8229224448	40	14315
2026-01-07 20:46:14.84	261.33	18.25	-36.6	-36.9	12.9	5.01e-04	0	37	0	8338276352	40	14442
2026-01-07 20:46:15.83	261.67	18.28	-36.5	-36.8	12.9	5.01e-04	0	36	0	8447328256	40	14385
2026-01-07 20:46:16.82	262.02	18.32	-36.5	-36.8	12.9	5.01e-04	0	36	0	8564768768	40	14353
2026-01-07 20:46:17.82	262.37	18.35	-36.5	-36.8	12.9	5.48e-04	0	37	0	8673820672	40	14382
2026-01-07 20:46:18.82	262.72	18.38	-36.5	-36.8	12.9	5.48e-04	0	36	0	8791261184	40	14376
2026-01-07 20:46:19.82	263.07	18.41	-36.6	-36.9	12.9	5.48e-04	0	37	0	8900313088	40	14452
2026-01-07 20:46:20.82	263.42	18.44	-36.6	-36.9	12.9	5.29e-04	0	37	0	9017753600	40	14470
2026-01-07 20:46:21.82	263.78	18.47	-36.5	-36.7	12.9	5.29e-04	0	37	0	9126805504	40	14248
2026-01-07 20:46:22.81	264.13	18.50	-36.5	-36.7	12.9	5.29e-04	0	37	0	9235857408	40	14265
2026-01-07 20:46:23.80	264.48	18.53	-36.5	-36.8	12.9	4.72e-04	0	37	0	9344909312	40	14305
2026-01-07 20:46:24.80	264.83	18.55	-36.6	-36.9	12.9	4.72e-04	0	37	0	9453961216	40	14489
2026-01-07 20:46:25.80	265.19	18.58	-36.5	-36.8	12.9	4.24e-04	0	37	0	9571401728	40	14331
2026-01-07 20:46:26.80	265.55	18.60	-36.5	-36.8	12.9	4.24e-04	0	37	0	9680453632	40	14396
2026-01-07 20:46:27.79	265.90	18.63	-36.4	-36.7	12.9	4.24e-04	0	37	0	9797894144	40	14224
2026-01-07 20:46:28.78	266.26	18.65	-36.5	-36.8	12.9	3.86e-04	0	37	0	9906946048	40	14335
2026-01-07 20:46:29.77	266.61	18.67	-36.5	-36.8	12.9	3.86e-04	0	37	0	10024386560	40	14331
2026-01-07 20:46:30.77	266.97	18.69	-36.5	-36.8	12.9	3.86e-04	0	37	0	10133438464	40	14389
2026-01-07 20:46:31.76	267.33	18.71	-36.5	-36.7	12.9	4.86e-04	0	37	0	10242490368	40	14268
2026-01-07 20:46:32.76	267.69	18.73	-36.6	-36.9	12.8	4.86e-04	0	37	0	10359930880	40	14470
2026-01-07 20:46:33.76	268.05	18.75	-36.6	-36.9	12.8	3.86e-04	0	37	0	10468982784	40	14515
2026-01-07 20:46:34.75	268.40	18.77	-36.5	-36.8	12.9	3.86e-04	0	37	0	10578034688	40	14313
2026-01-07 20:46:35.75	268.77	18.78	-36.6	-36.9	12.8	3.86e-04	0	37	0	10687086592	40	14470
2026-01-07 20:46:36.74	269.12	18.80	-36.7	-36.9	12.8	5.05e-04	0	37	0	10804527104	40	14595
2026-01-07 20:46:37.73	269.48	18.81	-36.5	-36.8	12.9	5.05e-04	0	37	0	10913579008	40	14359
2026-01-07 20:46:38.73	269.85	18.82	-36.5	-36.8	12.9	5.05e-04	0	37	0	11031019520	40	14322
2026-01-07 20:46:39.73	270.21	18.84	-36.6	-36.8	12.8	6.48e-04	0	37	0	11140071424	40	14420
2026-01-07 20:46:40.72	270.57	18.85	-36.6	-36.9	12.8	6.48e-04	0	37	0	11249123328	40	14446
2026-01-07 20:46:41.71	270.93	18.86	-36.5	-36.8	12.9	7.15e-04	0	37	0	11366563840	40	14328
2026-01-07 20:46:42.71	271.29	18.87	-36.6	-36.8	12.9	7.15e-04	0	37	0	11475615744	40	14421
2026-01-07 20:46:43.71	271.66	18.87	-36.5	-36.8	12.9	7.15e-04	0	37	0	11584667648	40	14400
2026-01-07 20:46:44.70	272.02	18.88	-36.6	-36.9	12.8	7.15e-04	0	37	0	11693719552	40	14541
2026-01-07 20:46:45.69	272.38	18.89	-36.6	-36.8	12.9	5.63e-04	0	37	0	11811160064	40	14431
2026-01-07 20:46:46.69	272.74	18.89	-36.6	-36.9	12.8	5.63e-04	0	37	0	11920211968	40	14457
2026-01-07 20:46:47.68	273.10	18.89	-36.6	-36.9	12.9	3.72e-04	0	37	0	12037652480	40	14547
2026-01-07 20:46:48.67	273.46	18.90	-36.6	-36.9	12.8	3.72e-04	0	37	0	12146704384	40	14552
2026-01-07 20:46:49.67	273.83	18.90	-36.7	-37.0	12.8	3.72e-04	0	37	0	12255756288	40	14654
2026-01-07 20:46:50.66	274.19	18.90	-36.6	-36.9	12.8	4.24e-04	0	37	0	12373196800	40	14563
2026-01-07 20:46:51.66	274.55	18.90	-36.8	-37.0	12.8	4.24e-04	0	37	0	12482248704	40	14762
2026-01-07 20:46:52.65	274.92	18.90	-36.7	-37.0	12.8	4.24e-04	0	37	0	12591300608	40	14645
2026-01-07 20:46:53.64	275.28	18.90	-36.7	-37.0	12.8	4.86e-04	0	37	0	12700352512	40	14685
2026-01-07 20:46:54.63	275.64	18.89	-36.8	-37.1	12.8	4.86e-04	0	37	0	12817793024	40	14786
2026-01-07 20:46:55.63	276.00	18.89	-36.6	-36.9	12.8	4.86e-04	0	37	0	12926844928	40	14512
2026-01-07 20:46:56.62	276.36	18.88	-36.7	-37.0	12.8	3.86e-04	0	37	0	13044285440	40	14649
2026-01-07 20:46:57.61	276.72	18.88	-36.8	-37.1	12.8	3.86e-04	0	37	0	13153337344	40	14835
2026-01-07 20:46:58.60	277.08	18.87	-36.8	-37.1	12.8	3.86e-04	0	37	0	13262389248	40	14792
2026-01-07 20:46:59.60	277.45	18.86	-36.9	-37.1	12.8	4.91e-04	0	37	0	13371441152	40	14923
2026-01-07 20:47:00.58	277.80	18.85	-36.9	-37.2	12.8	4.91e-04	0	37	0	13488881664	40	15074
2026-01-07 20:47:01.58	278.17	18.84	-36.9	-37.2	12.8	4.91e-04	0	37	0	13597933568	40	14953
2026-01-07 20:47:02.58	278.53	18.83	-36.8	-37.1	12.8	4.53e-04	0	37	0	13706985472	40	14781
2026-01-07 20:47:03.58	278.89	18.82	-36.9	-37.2	12.8	4.53e-04	0	37	0	13824425984	40	14949
2026-01-07 20:47:04.58	279.25	18.81	-37.0	-37.3	12.7	4.53e-04	0	37	0	13933477888	40	15143
2026-01-07 20:47:05.57	279.61	18.79	-37.0	-37.3	12.7	7.63e-04	0	37	0	14050918400	40	15241
2026-01-07 20:47:06.56	279.97	18.78	-37.0	-37.2	12.7	7.63e-04	0	37	0	14151581696	40	15101
2026-01-07 20:47:07.56	280.33	18.76	-36.9	-37.2	12.7	7.63e-04	0	37	0	14269022208	40	14964
2026-01-07 20:47:08.55	280.69	18.74	-36.9	-37.2	12.7	8.20e-04	0	37	0	14378074112	40	15026
2026-01-07 20:47:09.54	281.05	18.72	-36.9	-37.2	12.7	8.20e-04	0	37	0	14495514624	40	15061
2026-01-07 20:47:10.54	281.40	18.71	-37.1	-37.3	12.7	8.20e-04	0	37	0	14604566528	40	15244
2026-01-07 20:47:11.54	281.76	18.69	-37.1	-37.4	12.7	8.82e-04	0	37	0	14713618432	40	15350
2026-01-07 20:47:12.54	282.12	18.66	-37.0	-37.3	12.7	8.82e-04	0	37	0	14831058944	40	15186
2026-01-07 20:47:13.53	282.48	18.64	-37.0	-37.3	12.7	8.82e-04	0	37	0	14940110848	40	15229
2026-01-07 20:47:14.52	282.83	18.62	-37.0	-37.3	12.7	7.34e-04	0	37	0	15057551360	40	15210
2026-01-07 20:47:15.52	283.19	18.60	-37.1	-37.4	12.7	7.34e-04	0	37	0	15166603264	40	15327
2026-01-07 20:47:16.52	283.54	18.57	-37.1	-37.3	12.7	4.24e-04	0	37	0	15284043776	40	15282
2026-01-07 20:47:17.51	283.89	18.54	-37.1	-37.3	12.7	4.24e-04	0	37	0	15384707072	40	15284
2026-01-07 20:47:18.50	284.25	18.52	-37.1	-37.3	12.7	4.24e-04	0	37	0	15502147584	40	15278
2026-01-07 20:47:19.50	284.60	18.49	-37.1	-37.4	12.8	3.19e-04	0	37	0	15611199488	40	15308
2026-01-07 20:47:20.50	284.95	18.46	-37.0	-37.3	12.8	3.19e-04	0	37	0	15720251392	40	15244
2026-01-07 20:47:21.50	285.31	18.43	-37.1	-37.4	12.8	3.58e-04	0	37	0	15837691904	40	15356
2026-01-07 20:47:22.50	285.66	18.40	-37.1	-37.3	12.8	3.58e-04	0	37	0	15946743808	40	15287
2026-01-07 20:47:23.50	286.01	18.37	-37.1	-37.3	12.8	3.58e-04	0	37	0	16064184320	40	15255
2026-01-07 20:47:24.50	286.36	18.34	-37.2	-37.5	12.8	3.24e-04	0	37	0	16173236224	40	15484
2026-01-07 20:47:25.50	286.71	18.31	-37.1	-37.4	12.8	3.24e-04	0	37	0	16290676736	40	15455
2026-01-07 20:47:26.50	287.05	18.27	-37.1	-37.4	12.8	3.24e-04	0	37	0	16399728640	40	15419
2026-01-07 20:47:27.50	287.40	18.24	-37.2	-37.5	12.8	5.34e-04	0	37	0	16508780544	40	15495
2026-01-07 20:47:28.48	287.74	18.20	-37.1	-37.4	12.8	5.34e-04	0	37	0	16626221056	40	15415
2026-01-07 20:47:29.48	288.09	18.16	-37.1	-37.4	12.8	5.34e-04	0	37	0	16735272960	40	15454
2026-01-07 20:47:30.48	288.43	18.13	-37.2	-37.5	12.8	3.38e-04	0	37	0	16852713472	40	15520
2026-01-07 20:47:31.47	288.77	18.09	-37.1	-37.4	12.8	3.38e-04	0	37	0	16961765376	40	15434
2026-01-07 20:47:32.47	289.11	18.05	-37.2	-37.5	12.8	3.38e-04	0	37	0	17070817280	40	15481
2026-01-07 20:47:33.47	289.46	18.01	-37.2	-37.5	12.8	3.67e-04	0	37	0	17188257792	40	15485
2026-01-07 20:47:34.47	289.80	17.97	-37.3	-37.5	12.8	3.67e-04	0	37	0	17297309696	40	15630
2026-01-07 20:47:35.46	290.13	17.93	-37.3	-37.6	12.8	3.67e-04	0	37	0	17414750208	40	15709
2026-01-07 20:47:36.46	290.47	17.89	-37.3	-37.6	12.8	3.29e-04	0	37	0	17515413504	40	15689
2026-01-07 20:47:37.45	290.80	17.84	-37.3	-37.6	12.8	3.29e-04	0	37	0	17632854016	40	15681
2026-01-07 20:47:38.45	291.14	17.80	-37.4	-37.6	12.8	3.29e-04	0	37	0	17741905920	40	15791
2026-01-07 20:47:39.44	291.47	17.76	-37.5	-37.8	12.8	4.24e-04	0	37	0	17859346432	40	16043
2026-01-07 20:47:40.43	291.80	17.71	-37.3	-37.6	12.8	4.24e-04	0	37	0	17968398336	40	15794
2026-01-07 20:47:41.42	292.13	17.67	-37.3	-37.6	12.8	4.24e-04	0	37	0	18077450240	40	15709
2026-01-07 20:47:42.40	292.46	17.62	-37.3	-37.6	12.8	3.58e-04	0	37	0	18186502144	40	15798
2026-01-07 20:47:43.40	292.79	17.57	-37.3	-37.6	12.8	3.58e-04	0	37	0	18303942656	40	15695
2026-01-07 20:47:44.40	293.12	17.53	-37.4	-37.7	12.8	3.58e-04	0	37	0	18412994560	40	15930
2026-01-07 20:47:45.41	293.45	17.48	-37.4	-37.7	12.8	3.58e-04	0	37	0	18522046464	40	15861
2026-01-07 20:47:46.41	293.77	17.43	-37.4	-37.7	12.8	3.86e-04	0	37	0	18639486976	40	15859
2026-01-07 20:47:47.40	294.10	17.38	-37.4	-37.7	12.8	3.86e-04	0	37	0	18748538880	40	15975
2026-01-07 20:47:48.41	294.42	17.33	-37.4	-37.7	12.8	3.86e-04	0	37	0	18865979392	40	15898
2026-01-07 20:47:49.40	294.74	17.28	-37.4	-37.7	12.8	3.24e-04	0	37	0	18975031296	40	15948
2026-01-07 20:47:50.39	295.06	17.22	-37.5	-37.8	12.8	3.24e-04	0	37	0	19084083200	40	16021
2026-01-07 20:47:51.38	295.38	17.17	-37.4	-37.7	12.8	3.24e-04	0	37	0	19201523712	40	15983
2026-01-07 20:47:52.39	295.70	17.12	-37.5	-37.8	12.8	4.48e-04	0	37	0	19310575616	40	16074
2026-01-07 20:47:53.38	296.02	17.07	-37.5	-37.7	12.8	4.48e-04	0	37	0	19428016128	40	15968
2026-01-07 20:47:54.36	296.33	17.01	-37.4	-37.7	12.8	4.48e-04	0	37	0	19537068032	40	15997
2026-01-07 20:47:55.36	296.64	16.96	-37.5	-37.8	12.8	3.62e-04	0	37	0	19646119936	40	16036
2026-01-07 20:47:56.35	296.95	16.90	-37.4	-37.7	12.8	3.62e-04	0	37	0	19755171840	40	15963
2026-01-07 20:47:57.35	297.27	16.85	-37.5	-37.8	12.8	3.62e-04	0	37	0	19872612352	40	16024
2026-01-07 20:47:58.34	297.57	16.79	-37.5	-37.8	12.8	3.67e-04	0	37	0	19981664256	40	16168
2026-01-07 20:47:59.34	297.88	16.73	-37.6	-37.9	12.8	3.67e-04	0	37	0	20090716160	40	16231
2026-01-07 20:48:00.33	298.19	16.68	-37.6	-37.9	12.8	3.67e-04	0	37	0	20208156672	40	16266
2026-01-07 20:48:01.33	298.50	16.62	-37.7	-37.9	12.8	4.29e-04	0	37	0	20317208576	41	15464
2026-01-07 20:48:02.33	298.80	16.56	-37.7	-38.0	12.8	4.29e-04	0	37	0	20434649088	41	15598
2026-01-07 20:48:03.33	299.11	16.50	-37.6	-37.9	12.9	4.29e-04	0	37	0	20543700992	41	15392
2026-01-07 20:48:04.33	299.41	16.44	-37.6	-37.9	12.9	4.58e-04	0	37	0	20661141504	41	15427
2026-01-07 20:48:05.33	299.71	16.38	-37.7	-38.0	12.8	4.58e-04	0	37	0	20770193408	41	15493
2026-01-07 20:48:06.33	300.01	16.32	-37.6	-37.9	12.8	5.29e-04	0	37	0	20879245312	41	15457
2026-01-07 20:48:07.31	300.31	16.26	-37.8	-38.0	12.8	5.29e-04	0	37	0	20996685824	41	15618
2026-01-07 20:48:08.31	300.60	16.20	-37.7	-37.9	12.9	5.29e-04	0	37	0	21105737728	41	15472
2026-01-07 20:48:09.31	300.90	16.13	-37.7	-38.0	12.9	5.29e-04	0	37	0	21214789632	41	15502
2026-01-07 20:48:10.31	301.19	16.07	-37.8	-38.1	12.8	5.63e-04	0	37	0	21323841536	41	15712
2026-01-07 20:48:11.30	301.48	16.01	-37.8	-38.1	12.9	5.63e-04	0	37	0	21441282048	41	15718
2026-01-07 20:48:12.31	301.78	15.95	-37.8	-38.1	12.9	5.10e-04	0	37	0	21550333952	41	15674
2026-01-07 20:48:13.30	302.07	15.88	-37.8	-38.0	12.9	5.10e-04	0	37	0	21667774464	41	15649
2026-01-07 20:48:14.30	302.36	15.82	-37.9	-38.2	12.8	5.10e-04	0	37	0	21776826368	41	15845
2026-01-07 20:48:15.30	302.64	15.75	-37.7	-38.0	12.9	4.53e-04	0	37	0	21885878272	41	15581
2026-01-07 20:48:16.30	302.93	15.69	-37.8	-38.1	12.9	4.53e-04	0	37	0	22003318784	41	15707
2026-01-07 20:48:17.29	303.21	15.62	-37.8	-38.1	12.9	4.53e-04	0	37	0	22112370688	41	15745
2026-01-07 20:48:18.29	303.49	15.56	-37.9	-38.1	12.9	4.10e-04	0	37	0	22229811200	41	15826
2026-01-07 20:48:19.28	303.77	15.49	-37.8	-38.1	12.9	4.10e-04	0	37	0	22338863104	41	15790
2026-01-07 20:48:20.27	304.05	15.43	-37.9	-38.2	12.9	4.10e-04	0	37	0	22447915008	41	15921
2026-01-07 20:48:21.26	304.33	15.36	-37.9	-38.2	12.9	5.05e-04	0	37	0	22565355520	41	15874
2026-01-07 20:48:22.27	304.61	15.29	-37.9	-38.2	12.9	5.05e-04	0	38	0	22674407424	41	15853
2026-01-07 20:48:23.25	304.88	15.23	-37.9	-38.2	12.9	5.05e-04	0	37	0	22783459328	41	15850
2026-01-07 20:48:24.26	305.16	15.16	-38.0	-38.3	12.8	6.05e-04	0	37	0	22892511232	41	16037
2026-01-07 20:48:25.15	305.40	15.10	-38.0	-38.2	12.8	6.05e-04	0	37	0	23009951744	41	16013
2026-01-07 20:48:26.19	305.68	15.03	-38.0	-38.3	12.8	6.05e-04	0	37	0	23127392256	41	16057
2026-01-07 20:48:27.15	305.94	14.96	-38.0	-38.3	12.8	6.39e-04	0	37	0	23236444160	41	16079
2026-01-07 20:48:28.15	306.21	14.89	-38.1	-38.4	12.8	6.39e-04	0	37	0	23345496064	41	16230
2026-01-07 20:48:29.14	306.48	14.82	-38.1	-38.3	12.8	6.39e-04	0	38	0	23454547968	41	16179
2026-01-07 20:48:30.14	306.74	14.75	-38.1	-38.4	12.8	8.25e-04	0	37	0	23571988480	42	15424
2026-01-07 20:48:31.14	307.01	14.69	-38.1	-38.4	12.8	8.25e-04	0	37	0	23681040384	42	15386
2026-01-07 20:48:32.13	307.27	14.62	-38.2	-38.5	12.8	8.25e-04	0	37	0	23798480896	42	15475
2026-01-07 20:48:33.12	307.53	14.55	-38.2	-38.5	12.8	8.25e-04	0	38	0	23907532800	42	15477
2026-01-07 20:48:34.13	307.79	14.48	-38.2	-38.5	12.8	6.82e-04	0	37	0	24024973312	42	15494
2026-01-07 20:48:35.12	308.05	14.41	-38.1	-38.4	12.9	6.82e-04	0	37	0	24134025216	42	15423
2026-01-07 20:48:36.11	308.30	14.34	-38.3	-38.5	12.8	7.68e-04	0	37	0	24243077120	42	15650
2026-01-07 20:48:37.10	308.55	14.27	-38.3	-38.6	12.8	7.68e-04	0	37	0	24352129024	42	15771
2026-01-07 20:48:38.10	308.81	14.20	-38.3	-38.6	12.8	7.68e-04	0	37	0	24461180928	42	15794
2026-01-07 20:48:39.10	309.06	14.12	-38.4	-38.7	12.8	7.82e-04	0	37	0	24578621440	42	15895
2026-01-07 20:48:40.10	309.31	14.05	-38.4	-38.7	12.8	7.82e-04	0	38	0	24687673344	42	15940
2026-01-07 20:48:41.09	309.56	13.98	-38.4	-38.7	12.8	9.82e-04	0	38	0	24805113856	42	15899
2026-01-07 20:48:42.09	309.81	13.91	-38.5	-38.7	12.8	9.82e-04	0	37	0	24914165760	42	16011
2026-01-07 20:48:43.09	310.06	13.84	-38.6	-38.9	12.8	9.82e-04	0	38	0	25031606272	42	16221
2026-01-07 20:48:44.09	310.31	13.77	-38.5	-38.8	12.8	1.00e-03	0	38	0	25140658176	42	16148
2026-01-07 20:48:45.09	310.55	13.69	-38.6	-38.9	12.7	1.00e-03	0	38	0	25249710080	42	16234
2026-01-07 20:48:46.08	310.79	13.62	-38.6	-38.9	12.7	9.96e-04	0	38	0	25367150592	42	16332
2026-01-07 20:48:47.07	311.03	13.55	-38.6	-38.9	12.7	9.96e-04	0	37	0	25476202496	43	15471
2026-01-07 20:48:48.06	311.27	13.48	-38.6	-38.8	12.8	9.96e-04	0	38	0	25593643008	43	15282
2026-01-07 20:48:49.06	311.51	13.41	-38.7	-39.0	12.7	9.96e-04	0	38	0	25702694912	43	15546
2026-01-07 20:48:50.06	311.75	13.33	-38.8	-39.1	12.7	8.58e-04	0	38	0	25811746816	43	15758
2026-01-07 20:48:51.05	311.98	13.26	-38.6	-38.9	12.7	8.58e-04	0	38	0	25920798720	43	15462
2026-01-07 20:48:52.06	312.22	13.19	-38.9	-39.2	12.7	8.58e-04	0	38	0	26038239232	43	15911
2026-01-07 20:48:53.05	312.45	13.11	-38.7	-39.0	12.7	1.05e-03	0	38	0	26147291136	43	15571
2026-01-07 20:48:54.04	312.68	13.04	-38.7	-39.0	12.7	1.05e-03	0	38	0	26256343040	43	15612
2026-01-07 20:48:55.03	312.91	12.97	-38.7	-39.0	12.7	1.05e-03	0	38	0	26373783552	43	15494
2026-01-07 20:48:56.02	313.14	12.90	-38.8	-39.1	12.7	9.54e-04	0	38	0	26482835456	43	15687
2026-01-07 20:48:57.02	313.37	12.82	-38.8	-39.1	12.7	9.54e-04	0	38	0	26600275968	43	15795
2026-01-07 20:48:58.01	313.59	12.75	-38.8	-39.1	12.7	1.11e-03	0	37	0	26709327872	43	15685
2026-01-07 20:48:59.01	313.82	12.68	-38.7	-39.0	12.7	1.11e-03	0	38	0	26818379776	43	15582
2026-01-07 20:49:00.00	314.04	12.60	-38.9	-39.2	12.7	1.11e-03	0	37	0	26927431680	43	15900
2026-01-07 20:49:01.00	314.26	12.53	-38.8	-39.1	12.7	1.13e-03	0	38	0	27044872192	43	15772
2026-01-07 20:49:01.99	314.48	12.46	-38.8	-39.1	12.7	1.13e-03	0	38	0	27153924096	43	15692
2026-01-07 20:49:02.98	314.70	12.38	-38.8	-39.1	12.7	1.13e-03	0	38	0	27262976000	43	15788
2026-01-07 20:49:03.98	314.92	12.31	-38.7	-39.0	12.7	1.02e-03	0	38	0	27380416512	43	15582
2026-01-07 20:49:04.97	315.14	12.24	-38.8	-39.1	12.7	1.02e-03	0	38	0	27489468416	43	15810
2026-01-07 20:49:05.97	315.35	12.16	-38.8	-39.1	12.7	1.02e-03	0	38	0	27606908928	43	15786
2026-01-07 20:49:06.97	315.57	12.09	-38.7	-39.0	12.7	1.12e-03	0	38	0	27715960832	43	15584
2026-01-07 20:49:07.97	315.78	12.02	-38.8	-39.1	12.7	1.12e-03	0	38	0	27825012736	43	15703
2026-01-07 20:49:08.97	316.00	11.94	-38.8	-39.1	12.7	1.12e-03	0	38	0	27942453248	43	15822
2026-01-07 20:49:09.96	316.21	11.87	-38.9	-39.2	12.7	1.12e-03	0	38	0	28051505152	43	15852
2026-01-07 20:49:10.96	316.42	11.79	-38.8	-39.1	12.7	1.11e-03	0	38	0	28168945664	43	15813
2026-01-07 20:49:11.96	316.63	11.72	-38.8	-39.1	12.7	1.11e-03	0	38	0	28277997568	43	15797
2026-01-07 20:49:12.95	316.83	11.65	-38.9	-39.2	12.6	1.11e-03	0	38	0	28387049472	43	16012
2026-01-07 20:49:13.95	317.04	11.57	-38.9	-39.2	12.7	1.11e-03	0	38	0	28496101376	43	15987
2026-01-07 20:49:14.95	317.25	11.50	-39.0	-39.3	12.6	1.11e-03	0	38	0	28613541888	43	16063
2026-01-07 20:49:15.94	317.45	11.43	-39.0	-39.3	12.6	1.11e-03	0	38	0	28722593792	43	16104
2026-01-07 20:49:16.94	317.65	11.35	-39.1	-39.4	12.6	1.18e-03	0	38	0	28831645696	43	16249
2026-01-07 20:49:17.93	317.85	11.28	-39.1	-39.4	12.6	1.18e-03	0	38	0	28949086208	43	16295
2026-01-07 20:49:18.93	318.05	11.20	-39.1	-39.4	12.6	1.28e-03	0	38	0	29058138112	43	16205
2026-01-07 20:49:19.92	318.25	11.13	-39.1	-39.4	12.6	1.28e-03	0	38	0	29175578624	44	15399
2026-01-07 20:49:20.92	318.45	11.06	-39.1	-39.4	12.6	1.28e-03	0	38	0	29284630528	44	15446
2026-01-07 20:49:21.92	318.65	10.98	-39.1	-39.4	12.6	1.19e-03	0	38	0	29402071040	44	15439
2026-01-07 20:49:22.92	318.84	10.91	-39.2	-39.6	12.6	1.19e-03	0	38	0	29511122944	44	15668
2026-01-07 20:49:23.92	319.04	10.84	-39.1	-39.5	12.6	1.19e-03	0	38	0	29620174848	44	15483
2026-01-07 20:49:24.91	319.23	10.76	-39.2	-39.5	12.6	1.52e-03	0	38	0	29737615360	44	15566
2026-01-07 20:49:25.91	319.42	10.69	-39.2	-39.5	12.6	1.52e-03	0	38	0	29846667264	44	15625
2026-01-07 20:49:26.90	319.61	10.62	-39.2	-39.5	12.6	1.52e-03	0	38	0	29955719168	44	15600
2026-01-07 20:49:27.90	319.80	10.54	-39.3	-39.6	12.6	1.59e-03	0	38	0	30064771072	44	15682
2026-01-07 20:49:28.89	319.99	10.47	-39.3	-39.6	12.6	1.59e-03	0	38	0	30182211584	44	15789
2026-01-07 20:49:29.89	320.18	10.40	-39.3	-39.6	12.5	1.59e-03	0	38	0	30291263488	44	15757
2026-01-07 20:49:30.88	320.36	10.32	-39.4	-39.7	12.5	1.65e-03	0	38	0	30408704000	44	15935
2026-01-07 20:49:31.87	320.55	10.25	-39.4	-39.7	12.5	1.65e-03	0	38	0	30517755904	44	15985
2026-01-07 20:49:32.86	320.73	10.18	-39.3	-39.6	12.5	1.92e-03	0	38	0	30626807808	44	15811
2026-01-07 20:49:33.85	320.91	10.11	-39.4	-39.7	12.5	1.92e-03	0	38	0	30735859712	44	15953
2026-01-07 20:49:34.83	321.09	10.03	-39.4	-39.7	12.5	1.92e-03	0	38	0	30853300224	44	15894
2026-01-07 20:49:35.83	321.27	9.96	-39.4	-39.7	12.5	1.83e-03	0	38	0	30962352128	44	15910
2026-01-07 20:49:36.82	321.45	9.89	-39.5	-39.8	12.5	1.83e-03	0	38	0	31071404032	45	15247
2026-01-07 20:49:37.82	321.63	9.82	-39.5	-39.8	12.5	1.83e-03	0	38	0	31188844544	45	15236
2026-01-07 20:49:38.81	321.81	9.74	-39.5	-39.8	12.5	1.99e-03	0	38	0	31297896448	45	15234
2026-01-07 20:49:39.81	321.98	9.67	-39.6	-39.9	12.5	1.99e-03	0	38	0	31415336960	45	15425
2026-01-07 20:49:40.81	322.16	9.60	-39.6	-40.0	12.5	2.47e-03	0	38	0	31524388864	45	15476
2026-01-07 20:49:41.81	322.33	9.52	-39.6	-39.9	12.5	2.47e-03	0	38	0	31633440768	45	15453
2026-01-07 20:49:42.80	322.51	9.45	-39.6	-39.9	12.5	2.47e-03	0	38	0	31742492672	45	15448
2026-01-07 20:49:43.79	322.68	9.38	-39.6	-39.9	12.5	2.50e-03	0	38	0	31859933184	45	15462
2026-01-07 20:49:44.79	322.85	9.31	-39.8	-40.0	12.4	2.50e-03	0	38	0	31968985088	45	15646
2026-01-07 20:49:45.78	323.02	9.24	-39.8	-40.1	12.4	2.50e-03	0	38	0	32078036992	45	15713
2026-01-07 20:49:46.78	323.19	9.16	-39.9	-40.2	12.4	2.92e-03	0	38	0	32195477504	45	15854
2026-01-07 20:49:47.78	323.36	9.09	-39.9	-40.2	12.4	2.92e-03	0	38	0	32304529408	45	15853
2026-01-07 20:49:48.77	323.53	9.02	-39.9	-40.2	12.4	2.92e-03	0	38	0	32421969920	45	15960
2026-01-07 20:49:49.77	323.69	8.95	-40.2	-40.5	12.4	3.44e-03	0	38	0	32531021824	46	15618
2026-01-07 20:49:50.76	323.86	8.88	-39.9	-40.2	12.4	3.44e-03	0	38	0	32640073728	46	15108
2026-01-07 20:49:51.75	324.02	8.81	-40.0	-40.3	12.4	3.44e-03	0	38	0	32749125632	46	15274
2026-01-07 20:49:52.75	324.19	8.74	-40.1	-40.4	12.4	3.44e-03	0	38	0	32866566144	46	15412
2026-01-07 20:49:53.75	324.35	8.66	-40.0	-40.3	12.4	3.25e-03	0	38	0	32975618048	46	15274
2026-01-07 20:49:54.75	324.51	8.59	-40.0	-40.2	12.4	3.25e-03	0	38	0	33084669952	46	15094
2026-01-07 20:49:55.74	324.67	8.52	-40.2	-40.5	12.4	3.25e-03	0	38	0	33202110464	46	15496
2026-01-07 20:49:56.73	324.83	8.45	-40.2	-40.5	12.4	3.41e-03	0	38	0	33311162368	46	15517
2026-01-07 20:49:57.72	324.99	8.38	-40.0	-40.3	12.4	3.41e-03	0	38	0	33428602880	46	15220
2026-01-07 20:49:58.71	325.14	8.31	-40.2	-40.5	12.4	3.41e-03	0	38	0	33537654784	46	15504
2026-01-07 20:49:59.70	325.30	8.24	-40.1	-40.4	12.4	3.45e-03	0	38	0	33646706688	46	15404
2026-01-07 20:50:00.69	325.46	8.17	-40.1	-40.5	12.4	3.45e-03	0	38	0	33755758592	46	15474
2026-01-07 20:50:01.68	325.61	8.10	-40.2	-40.5	12.3	3.45e-03	0	38	0	33873199104	46	15634
2026-01-07 20:50:02.67	325.76	8.03	-40.1	-40.4	12.4	3.85e-03	0	38	0	33982251008	46	15434
2026-01-07 20:50:03.68	325.92	7.96	-40.2	-40.5	12.4	3.85e-03	0	38	0	34091302912	46	15521
2026-01-07 20:50:04.68	326.07	7.89	-40.4	-40.7	12.3	3.85e-03	0	38	0	34208743424	46	15875
2026-01-07 20:50:05.67	326.22	7.82	-40.2	-40.6	12.3	4.50e-03	0	38	0	34317795328	46	15655
2026-01-07 20:50:06.66	326.37	7.75	-40.5	-40.8	12.2	4.50e-03	0	38	0	34435235840	46	16090
2026-01-07 20:50:07.66	326.52	7.68	-40.3	-40.6	12.3	4.50e-03	0	38	0	34544287744	46	15672
2026-01-07 20:50:08.66	326.67	7.61	-40.3	-40.6	12.3	4.79e-03	0	38	0	34661728256	46	15798
2026-01-07 20:50:09.66	326.82	7.54	-40.2	-40.5	12.3	4.79e-03	0	38	0	34770780160	46	15570
2026-01-07 20:50:10.66	326.97	7.47	-40.3	-40.6	12.3	4.79e-03	0	38	0	34879832064	46	15799
2026-01-07 20:50:11.65	327.12	7.40	-40.4	-40.7	12.3	5.11e-03	0	38	0	34988883968	46	15991
2026-01-07 20:50:12.64	327.26	7.33	-40.3	-40.6	12.3	5.11e-03	0	38	0	35097935872	46	15723
2026-01-07 20:50:13.63	327.40	7.26	-40.2	-40.5	12.3	5.13e-03	0	38	0	35215376384	46	15578
2026-01-07 20:50:14.63	327.55	7.19	-40.2	-40.5	12.3	5.13e-03	0	38	0	35324428288	46	15487
2026-01-07 20:50:15.63	327.69	7.12	-40.4	-40.7	12.3	5.13e-03	0	38	0	35441868800	46	15858
2026-01-07 20:50:16.62	327.83	7.06	-40.2	-40.5	12.3	5.85e-03	0	38	0	35550920704	46	15554
2026-01-07 20:50:17.62	327.98	6.99	-40.1	-40.4	12.3	5.85e-03	0	38	0	35668361216	46	15388
2026-01-07 20:50:18.62	328.12	6.92	-40.0	-40.4	12.4	5.85e-03	0	38	0	35777413120	46	15307
2026-01-07 20:50:19.62	328.26	6.85	-40.1	-40.4	12.3	5.85e-03	0	38	0	35886465024	46	15436
2026-01-07 20:50:20.62	328.40	6.78	-40.2	-40.5	12.3	5.56e-03	0	38	0	36003905536	46	15614
2026-01-07 20:50:21.62	328.54	6.71	-40.0	-40.3	12.3	5.56e-03	0	38	0	36112957440	46	15241
2026-01-07 20:50:22.62	328.68	6.64	-40.2	-40.5	12.3	5.46e-03	0	38	0	36230397952	46	15560
2026-01-07 20:50:23.62	328.81	6.58	-40.1	-40.3	12.3	5.46e-03	0	38	0	36339449856	46	15285
2026-01-07 20:50:24.62	328.95	6.51	-40.1	-40.4	12.3	5.46e-03	0	38	0	36448501760	46	15361
2026-01-07 20:50:25.61	329.08	6.44	-40.1	-40.4	12.3	5.70e-03	0	38	0	36565942272	46	15357
2026-01-07 20:50:26.60	329.22	6.37	-40.1	-40.4	12.3	5.70e-03	0	38	0	36674994176	46	15337
2026-01-07 20:50:27.60	329.35	6.31	-40.1	-40.4	12.3	5.70e-03	0	38	0	36784046080	46	15458
2026-01-07 20:50:28.59	329.49	6.24	-40.0	-40.3	12.3	5.70e-03	0	38	0	36893097984	46	15283
2026-01-07 20:50:29.59	329.62	6.17	-40.2	-40.5	12.3	6.00e-03	0	38	0	37010538496	46	15521
2026-01-07 20:50:30.58	329.75	6.11	-40.2	-40.5	12.2	6.00e-03	0	38	0	37119590400	46	15599
2026-01-07 20:50:31.58	329.88	6.04	-40.0	-40.4	12.3	6.00e-03	0	38	0	37237030912	46	15303
2026-01-07 20:50:32.58	330.01	5.97	-40.2	-40.6	12.2	7.38e-03	0	38	0	37346082816	46	15676
2026-01-07 20:50:33.58	330.14	5.90	-40.2	-40.5	12.2	7.38e-03	0	38	0	37455134720	46	15518
2026-01-07 20:50:34.58	330.27	5.84	-40.3	-40.6	12.2	7.38e-03	0	38	0	37572575232	46	15811
2026-01-07 20:50:35.57	330.40	5.77	-40.1	-40.4	12.3	7.92e-03	0	38	0	37681627136	46	15322
2026-01-07 20:50:36.57	330.53	5.70	-40.4	-40.7	12.2	7.92e-03	0	38	0	37799067648	46	15941
2026-01-07 20:50:37.57	330.65	5.64	-40.2	-40.5	12.2	8.43e-03	0	38	0	37908119552	46	15501
2026-01-07 20:50:38.57	330.78	5.57	-40.4	-40.7	12.1	8.43e-03	0	38	0	38017171456	46	15938
2026-01-07 20:50:39.57	330.91	5.51	-40.4	-40.7	12.1	8.43e-03	0	38	0	38134611968	46	15950
2026-01-07 20:50:40.56	331.03	5.44	-40.4	-40.8	12.1	8.95e-03	0	38	0	38243663872	46	16017
2026-01-07 20:50:41.56	331.15	5.37	-40.5	-40.8	12.1	8.95e-03	0	38	0	38361104384	47	15274
2026-01-07 20:50:42.55	331.28	5.31	-40.2	-40.5	12.3	8.95e-03	0	38	0	38461767680	47	14639
2026-01-07 20:50:43.55	331.40	5.24	-40.3	-40.6	12.2	1.06e-02	0	38	0	38579208192	47	14871
2026-01-07 20:50:44.55	331.52	5.18	-40.4	-40.8	12.2	1.06e-02	0	38	0	38688260096	47	15139
2026-01-07 20:50:45.54	331.64	5.11	-40.5	-40.9	12.1	1.06e-02	0	38	0	38805700608	47	15362
2026-01-07 20:50:46.53	331.76	5.05	-40.6	-40.9	12.1	1.13e-02	0	38	0	38914752512	47	15426
2026-01-07 20:50:47.53	331.88	4.98	-46.5	-47.0	10.7	1.13e-02	0	38	0	39032193024	58	16437
2026-01-07 20:50:48.52	332.00	4.92	-58.4	-61.7	6.2	4.98e-02	0	37	104	39065747456	82	22386
2026-01-07 20:50:49.52	332.12	4.85	-58.9	-62.2	6.2	4.98e-02	0	37	104	39065747456	83	22404
2026-01-07 20:50:50.52	332.24	4.79	-59.4	-62.6	6.2	4.98e-02	0	37	104	39065747456	84	22361
2026-01-07 20:50:51.51	332.36	4.72	-59.6	-62.9	6.2	4.98e-02	0	37	104	39065747456	85	21669
2026-01-07 20:50:52.51	332.47	4.66	-59.8	-63.0	6.2	4.98e-02	0	37	104	39065747456	85	22090
2026-01-07 20:50:53.50	332.59	4.60	-59.9	-63.2	6.1	4.98e-02	0	37	104	39065747456	85	22425
2026-01-07 20:50:54.50	332.70	4.53	-60.0	-63.3	6.1	4.98e-02	0	37	104	39065747456	85	22677
2026-01-07 20:50:55.49	332.82	4.47	-60.2	-63.5	6.2	0.00e+00	0	37	104	39065747456	86	21863
2026-01-07 20:50:56.48	332.93	4.41	-60.2	-63.5	6.2	0.00e+00	0	37	104	39065747456	86	21891
2026-01-07 20:50:57.48	333.05	4.34	-60.3	-63.6	6.1	0.00e+00	0	37	104	39065747456	86	22175
2026-01-07 20:50:58.48	333.16	4.28	-60.3	-63.6	6.2	0.00e+00	0	37	104	39065747456	86	22283
2026-01-07 20:50:59.48	333.27	4.21	-60.4	-63.6	6.2	0.00e+00	0	37	104	39065747456	86	22286
2026-01-07 20:51:00.48	333.39	4.15	-60.4	-63.7	6.1	0.00e+00	0	37	104	39065747456	86	22394
2026-01-07 20:51:01.46	333.50	4.09	-60.4	-63.7	6.2	0.00e+00	0	37	104	39065747456	86	22379
2026-01-07 20:51:02.46	333.61	4.02	-60.4	-63.7	6.2	0.00e+00	0	37	104	39065747456	86	22456
2026-01-07 20:51:03.45	333.72	3.96	-60.4	-63.7	6.2	0.00e+00	0	37	104	39065747456	86	22461
2026-01-07 20:51:04.45	333.83	3.90	-60.4	-63.7	6.2	0.00e+00	0	37	104	39065747456	86	22486
2026-01-07 20:51:05.45	333.94	3.84	-60.4	-63.7	6.2	0.00e+00	0	37	104	39065747456	86	22424
2026-01-07 20:51:06.44	334.04	3.77	-60.4	-63.7	6.2	0.00e+00	0	37	104	39065747456	86	22445
2026-01-07 20:51:07.44	334.15	3.71	-60.4	-63.7	6.2	0.00e+00	0	36	104	39065747456	86	22390
2026-01-07 20:51:08.44	334.26	3.65	-60.4	-63.7	6.2	0.00e+00	0	37	104	39065747456	86	22417
2026-01-07 20:51:09.44	334.37	3.59	-60.4	-63.6	6.2	0.00e+00	0	37	104	39065747456	86	22349
2026-01-07 20:51:10.44	334.47	3.52	-60.4	-63.6	6.1	0.00e+00	0	37	104	39065747456	86	22200
2026-01-07 20:51:11.44	334.58	3.46	-60.3	-63.6	6.1	0.00e+00	0	36	104	39065747456	86	22133
2026-01-07 20:51:12.44	334.69	3.40	-60.3	-63.5	6.2	0.00e+00	0	37	104	39065747456	86	22048
2026-01-07 20:51:13.44	334.79	3.34	-60.3	-63.5	6.2	0.00e+00	0	37	104	39065747456	86	22081
2026-01-07 20:51:14.44	334.90	3.27	-60.3	-63.5	6.1	0.00e+00	0	36	104	39065747456	86	21962
2026-01-07 20:51:15.43	335.00	3.21	-60.3	-63.5	6.1	0.00e+00	0	36	104	39065747456	86	22002
2026-01-07 20:51:16.43	335.10	3.15	-60.2	-63.5	6.2	0.00e+00	0	36	104	39065747456	86	21904
2026-01-07 20:51:17.43	335.21	3.09	-60.2	-63.5	6.1	0.00e+00	0	37	104	39065747456	86	21904
2026-01-07 20:51:18.42	335.31	3.03	-60.2	-63.5	6.1	0.00e+00	0	36	104	39065747456	86	21885
2026-01-07 20:51:19.42	335.41	2.97	-60.2	-63.4	6.2	0.00e+00	0	36	104	39065747456	86	21849
2026-01-07 20:51:20.41	335.51	2.91	-60.2	-63.5	6.1	0.00e+00	0	36	104	39065747456	86	21858
2026-01-07 20:51:21.41	335.61	2.85	-60.2	-63.5	6.2	0.00e+00	0	36	104	39065747456	86	21869
2026-01-07 20:51:22.41	335.71	2.79	-60.2	-63.4	6.2	0.00e+00	0	36	104	39065747456	86	21741
2026-01-07 20:51:23.42	335.81	2.72	-60.2	-63.4	6.1	0.00e+00	0	36	104	39065747456	86	21748
2026-01-07 20:51:24.41	335.91	2.66	-60.2	-63.4	6.1	0.00e+00	0	36	104	39065747456	86	21722
2026-01-07 20:51:25.42	336.01	2.60	-60.2	-63.4	6.2	0.00e+00	0	36	104	39065747456	86	21800
2026-01-07 20:51:26.42	336.11	2.54	-60.2	-63.4	6.2	0.00e+00	0	36	104	39065747456	86	21757
2026-01-07 20:51:27.42	336.21	2.48	-60.2	-63.4	6.2	0.00e+00	0	36	104	39065747456	86	21716
2026-01-07 20:51:28.42	336.30	2.42	-60.1	-63.4	6.2	0.00e+00	0	36	104	39065747456	86	21667
2026-01-07 20:51:29.42	336.40	2.36	-60.1	-63.4	6.2	0.00e+00	0	36	104	39065747456	86	21659
2026-01-07 20:51:30.43	336.50	2.30	-60.1	-63.3	6.2	0.00e+00	0	36	104	39065747456	86	21597
2026-01-07 20:51:31.43	336.59	2.24	-60.1	-63.3	6.2	0.00e+00	0	36	104	39065747456	86	21587
2026-01-07 20:51:32.43	336.69	2.18	-60.1	-63.3	6.2	0.00e+00	0	36	104	39065747456	86	21543
2026-01-07 20:51:33.42	336.78	2.12	-60.1	-63.4	6.2	0.00e+00	0	36	104	39065747456	86	21630
2026-01-07 20:51:34.42	336.88	2.06	-60.1	-63.4	6.2	0.00e+00	0	36	104	39065747456	86	21648
2026-01-07 20:51:35.42	336.97	2.00	-60.1	-63.3	6.2	0.00e+00	0	36	104	39065747456	86	21549
2026-01-07 20:51:36.41	337.07	1.94	-60.1	-63.3	6.2	0.00e+00	0	36	104	39065747456	86	21489
2026-01-07 20:51:37.41	337.16	1.88	-60.1	-63.3	6.1	0.00e+00	0	36	104	39065747456	86	21540

#Closed at: 2026-01-07 20:51:38
#Recorded file [39065 MB]: D:/lorett/data/31004_260107_234209.dat