passes_logs/2026/01/07/R3.2S_Murmansk/R3.2S_Murmansk__20260107_144245_FENGYUN_3D_rec.log

#Pass ID: 20260107_144245_FENGYUN 3D
#Satellite: FENGYUN 3D
#Configuration: FENGYUN 3D
#almurnet v.1.7.20251203
#Start time: 2026-01-07 14:42:46

#Version: 2.2.20231116
#Station: R3.2S_Murmansk
#Location: 33.079688 lon 68.888172 lat
#TLE: 1 43010U 17072A   26006.26440730  .00000376  00000+0  19957-3 0  9994
#TLE: 2 43010  98.9925 337.9455 0002045 123.9195 236.2175 14.19693586422016

#Time	Az	El	Level	Level2	SNR	BER	BlckErr	Temp	State	Recorded	gain1	gain2
2026-01-07 14:42:46.43	233.62	2.03	-57.9	-70.9	3.8	8.45e-01	0	23	0	0	82	15731
2026-01-07 14:42:47.44	233.71	2.08	-57.9	-70.9	3.8	8.46e-01	0	23	104	0	80	17535
2026-01-07 14:42:48.45	233.80	2.13	-57.9	-70.9	3.8	8.46e-01	0	23	104	0	80	17555
2026-01-07 14:42:49.46	233.89	2.18	-57.9	-70.9	3.8	8.46e-01	0	23	104	0	80	17567
2026-01-07 14:42:50.47	233.99	2.22	-57.9	-70.9	3.8	8.44e-01	0	23	104	0	80	17502
2026-01-07 14:42:51.48	234.08	2.27	-57.9	-70.9	3.8	8.46e-01	0	23	104	0	80	17526
2026-01-07 14:42:52.49	234.18	2.32	-57.9	-70.9	3.8	8.46e-01	0	23	104	0	80	17575
2026-01-07 14:42:53.50	234.27	2.37	-57.9	-70.9	3.8	8.46e-01	0	23	104	0	80	17577
2026-01-07 14:42:54.50	234.36	2.42	-57.9	-70.9	3.8	8.45e-01	0	23	104	0	80	17590
2026-01-07 14:42:55.51	234.46	2.47	-57.9	-70.9	3.8	8.45e-01	0	23	104	0	80	17587
2026-01-07 14:42:56.52	234.56	2.51	-57.9	-70.9	3.8	8.46e-01	0	23	104	0	80	17609
2026-01-07 14:42:57.53	234.65	2.56	-57.9	-70.9	3.8	8.46e-01	0	23	104	0	80	17575
2026-01-07 14:42:58.54	234.75	2.61	-57.9	-70.9	3.8	8.46e-01	0	23	104	0	80	17575
2026-01-07 14:42:59.55	234.84	2.66	-57.9	-70.9	3.8	8.46e-01	0	23	104	0	80	17609
2026-01-07 14:43:00.56	234.94	2.71	-57.9	-70.9	3.8	8.45e-01	0	23	104	0	80	17603
2026-01-07 14:43:01.56	235.04	2.76	-57.9	-70.9	3.8	8.45e-01	0	23	104	0	80	17561
2026-01-07 14:43:02.57	235.13	2.81	-57.9	-70.8	3.8	8.46e-01	0	24	104	0	80	17381
2026-01-07 14:43:03.58	235.23	2.85	-57.9	-70.8	3.8	8.45e-01	0	24	104	0	80	17420
2026-01-07 14:43:04.58	235.33	2.90	-57.9	-70.8	3.8	8.46e-01	0	24	104	0	80	17330
2026-01-07 14:43:05.59	235.43	2.95	-57.9	-70.8	3.8	8.46e-01	0	23	104	0	80	17328
2026-01-07 14:43:06.60	235.52	3.00	-57.9	-70.8	3.8	8.45e-01	0	24	104	0	80	17389
2026-01-07 14:43:07.62	235.62	3.05	-57.9	-70.8	3.8	8.46e-01	0	24	104	0	80	17426
2026-01-07 14:43:08.62	235.72	3.10	-57.9	-70.8	3.8	8.46e-01	0	24	104	0	80	17412
2026-01-07 14:43:09.63	235.82	3.15	-57.9	-70.8	3.8	8.46e-01	0	24	104	0	80	17346
2026-01-07 14:43:10.64	235.92	3.20	-57.9	-70.8	3.8	8.46e-01	0	24	104	0	80	17393
2026-01-07 14:43:11.65	236.02	3.24	-57.9	-70.9	3.8	8.46e-01	0	24	104	0	80	17548
2026-01-07 14:43:12.66	236.12	3.29	-57.9	-70.9	3.8	8.45e-01	0	24	104	0	80	17600
2026-01-07 14:43:13.68	236.22	3.34	-57.9	-70.9	3.8	8.46e-01	0	24	104	0	80	17665
2026-01-07 14:43:14.68	236.32	3.39	-57.9	-70.9	3.8	8.46e-01	0	24	104	0	80	17599
2026-01-07 14:43:15.69	236.42	3.44	-57.9	-70.8	3.8	8.46e-01	0	24	104	0	80	17380
2026-01-07 14:43:16.70	236.53	3.49	-57.9	-70.7	3.8	8.45e-01	0	24	104	0	80	17189
2026-01-07 14:43:17.71	236.63	3.54	-57.9	-70.6	3.8	8.46e-01	0	24	104	0	80	16948
2026-01-07 14:43:18.72	236.73	3.59	-57.9	-70.5	3.8	8.46e-01	0	24	104	0	80	16779
2026-01-07 14:43:19.72	236.83	3.63	-57.9	-70.7	3.8	8.46e-01	0	24	104	0	80	17099
2026-01-07 14:43:20.74	236.94	3.68	-57.9	-70.8	3.8	8.45e-01	0	24	104	0	80	17373
2026-01-07 14:43:21.75	237.04	3.73	-57.9	-70.9	3.8	8.45e-01	0	24	104	0	80	17501
2026-01-07 14:43:22.76	237.14	3.78	-57.9	-70.9	3.8	8.45e-01	0	24	104	0	80	17558
2026-01-07 14:43:23.77	237.25	3.83	-57.9	-70.9	3.8	8.46e-01	0	24	104	0	80	17625
2026-01-07 14:43:24.77	237.35	3.88	-57.9	-70.9	3.8	8.45e-01	0	24	104	0	80	17628
2026-01-07 14:43:25.78	237.45	3.93	-57.9	-70.9	3.8	8.45e-01	0	24	104	0	80	17518
2026-01-07 14:43:26.79	237.56	3.98	-57.9	-70.7	3.8	8.46e-01	0	24	104	0	80	17198
2026-01-07 14:43:27.80	237.66	4.03	-57.9	-70.5	3.8	8.46e-01	0	24	104	0	80	16853
2026-01-07 14:43:28.81	237.77	4.08	-57.9	-70.3	3.8	8.45e-01	0	24	104	0	80	16368
2026-01-07 14:43:29.81	237.87	4.12	-57.9	-70.2	3.8	8.45e-01	0	24	104	0	80	16282
2026-01-07 14:43:30.82	237.98	4.17	-57.9	-70.3	3.8	8.45e-01	0	24	104	0	80	16352
2026-01-07 14:43:31.83	238.09	4.22	-57.8	-70.2	3.8	8.45e-01	0	24	104	0	80	16133
2026-01-07 14:43:32.84	238.19	4.27	-57.8	-70.1	3.8	8.46e-01	0	24	104	0	80	15979
2026-01-07 14:43:33.84	238.30	4.32	-57.8	-70.1	3.8	8.45e-01	0	24	104	0	80	16072
2026-01-07 14:43:34.85	238.41	4.37	-57.8	-70.0	3.8	8.45e-01	0	24	104	0	80	15845
2026-01-07 14:43:35.86	238.52	4.42	-57.9	-70.0	3.8	8.45e-01	0	24	104	0	80	15892
2026-01-07 14:43:36.87	238.62	4.47	-57.9	-70.2	3.8	8.45e-01	0	24	104	0	80	16288
2026-01-07 14:43:37.88	238.73	4.52	-57.9	-70.7	3.8	8.46e-01	0	25	104	0	80	17222
2026-01-07 14:43:38.89	238.84	4.57	-57.9	-70.8	3.8	8.46e-01	0	24	104	0	80	17303
2026-01-07 14:43:39.90	238.95	4.61	-57.8	-69.6	3.8	8.46e-01	0	24	104	0	80	15057
2026-01-07 14:43:40.91	239.06	4.66	-57.6	-67.6	4.2	8.43e-01	0	25	104	0	80	11977
2026-01-07 14:43:41.92	239.17	4.71	-57.4	-65.9	4.7	8.13e-01	0	24	0	0	80	9856
2026-01-07 14:43:42.93	239.28	4.76	-57.2	-64.8	5.2	7.50e-01	0	25	0	0	80	8732
2026-01-07 14:43:43.94	239.39	4.81	-57.1	-64.4	5.5	6.47e-01	0	24	0	1048576	80	8308
2026-01-07 14:43:44.95	239.50	4.86	-57.0	-63.6	6.0	4.12e-01	0	24	0	6291456	80	7597
2026-01-07 14:43:45.96	239.61	4.91	-56.5	-62.0	7.2	1.37e-01	0	24	0	11534336	79	6697
2026-01-07 14:43:46.97	239.73	4.96	-55.6	-59.7	9.2	2.63e-02	0	24	0	17825792	77	5777
2026-01-07 14:43:47.98	239.84	5.01	-54.3	-57.4	11.1	1.76e-03	0	25	0	23068672	75	4942
2026-01-07 14:43:48.99	239.95	5.06	-54.0	-56.8	11.5	6.40e-05	0	25	0	29360128	74	4886
2026-01-07 14:43:49.99	240.06	5.11	-57.1	-64.1	5.7	3.64e-01	0	25	0	34603008	79	8509
2026-01-07 14:43:51.00	240.18	5.16	-50.9	-52.6	13.9	0.00e+00	0	24	0	40894464	68	4252
2026-01-07 14:43:52.01	240.29	5.20	-57.0	-64.3	5.5	1.42e-02	0	24	0	46137344	79	8733
2026-01-07 14:43:53.02	240.40	5.25	-50.6	-52.3	13.8	0.00e+00	0	24	0	51380224	66	4617
2026-01-07 14:43:54.03	240.52	5.30	-49.6	-51.1	14.3	0.00e+00	0	25	0	57671680	65	4262
2026-01-07 14:43:55.04	240.63	5.35	-49.5	-51.0	14.3	0.00e+00	0	25	0	62914560	65	4237
2026-01-07 14:43:56.05	240.75	5.40	-49.5	-51.0	14.4	0.00e+00	0	25	0	69206016	65	4206
2026-01-07 14:43:57.05	240.86	5.45	-49.4	-50.9	14.4	0.00e+00	0	25	0	74448896	65	4174
2026-01-07 14:43:58.06	240.98	5.50	-49.4	-50.8	14.5	0.00e+00	0	25	0	79691776	65	4127
2026-01-07 14:43:59.07	241.09	5.55	-49.4	-50.9	14.4	0.00e+00	0	25	0	85983232	65	4176
2026-01-07 14:44:00.07	241.21	5.60	-49.4	-50.8	14.5	0.00e+00	0	24	0	91226112	65	4129
2026-01-07 14:44:01.08	241.33	5.65	-49.1	-50.5	14.5	0.00e+00	0	25	0	97517568	64	4228
2026-01-07 14:44:02.09	241.44	5.70	-49.0	-50.4	14.5	0.00e+00	0	25	0	102760448	64	4190
2026-01-07 14:44:03.10	241.56	5.74	-49.2	-50.6	14.4	0.00e+00	0	25	0	108003328	64	4268
2026-01-07 14:44:04.11	241.68	5.79	-49.2	-50.6	14.4	0.00e+00	0	25	0	114294784	64	4282
2026-01-07 14:44:05.12	241.80	5.84	-49.1	-50.5	14.5	0.00e+00	0	25	0	119537664	64	4226
2026-01-07 14:44:06.13	241.92	5.89	-49.0	-50.4	14.5	0.00e+00	0	25	0	124780544	64	4176
2026-01-07 14:44:07.13	242.04	5.94	-48.9	-50.3	14.6	0.00e+00	0	25	0	131072000	64	4132
2026-01-07 14:44:08.14	242.16	5.99	-48.9	-50.3	14.6	0.00e+00	0	25	0	136314880	64	4144
2026-01-07 14:44:09.15	242.28	6.04	-48.8	-50.2	14.7	0.00e+00	0	24	0	142606336	64	4069
2026-01-07 14:44:10.16	242.40	6.09	-49.0	-50.4	14.6	0.00e+00	0	25	0	147849216	64	4147
2026-01-07 14:44:11.17	242.52	6.14	-48.7	-50.1	14.7	0.00e+00	0	25	0	154140672	64	4016
2026-01-07 14:44:12.18	242.64	6.19	-48.9	-50.2	14.6	0.00e+00	0	25	0	159383552	64	4093
2026-01-07 14:44:13.19	242.76	6.23	-49.0	-50.4	14.6	0.00e+00	0	25	0	165675008	64	4155
2026-01-07 14:44:14.20	242.88	6.28	-49.0	-50.4	14.6	0.00e+00	0	25	0	170917888	64	4180
2026-01-07 14:44:15.21	243.00	6.33	-48.9	-50.2	14.7	0.00e+00	0	25	0	176160768	64	4085
2026-01-07 14:44:16.22	243.13	6.38	-48.9	-50.2	14.7	0.00e+00	0	25	0	182452224	64	4085
2026-01-07 14:44:17.23	243.25	6.43	-48.7	-50.1	14.8	0.00e+00	0	25	0	187695104	64	4016
2026-01-07 14:44:18.23	243.37	6.48	-48.9	-50.2	14.7	0.00e+00	0	25	0	193986560	64	4088
2026-01-07 14:44:19.24	243.50	6.53	-48.9	-50.3	14.6	0.00e+00	0	25	0	199229440	64	4107
2026-01-07 14:44:20.25	243.62	6.58	-49.0	-50.4	14.6	0.00e+00	0	25	0	204472320	64	4166
2026-01-07 14:44:21.26	243.75	6.63	-48.8	-50.2	14.7	0.00e+00	0	25	0	210763776	64	4084
2026-01-07 14:44:22.27	243.87	6.67	-48.9	-50.3	14.6	0.00e+00	0	25	0	216006656	64	4128
2026-01-07 14:44:23.28	244.00	6.72	-48.9	-50.3	14.6	0.00e+00	0	25	0	221249536	64	4125
2026-01-07 14:44:24.28	244.12	6.77	-48.8	-50.1	14.7	0.00e+00	0	25	0	227540992	64	4045
2026-01-07 14:44:25.29	244.25	6.82	-48.8	-50.2	14.7	0.00e+00	0	25	0	232783872	64	4067
2026-01-07 14:44:26.30	244.37	6.87	-48.9	-50.3	14.6	0.00e+00	0	25	0	239075328	64	4136
2026-01-07 14:44:27.31	244.50	6.92	-48.6	-50.0	14.6	0.00e+00	0	25	0	244318208	63	4215
2026-01-07 14:44:28.31	244.63	6.97	-48.5	-49.9	14.7	0.00e+00	0	25	0	250609664	63	4146
2026-01-07 14:44:29.32	244.76	7.02	-48.6	-49.9	14.7	0.00e+00	0	25	0	255852544	63	4166
2026-01-07 14:44:30.34	244.89	7.06	-48.5	-49.8	14.8	0.00e+00	0	25	0	262144000	63	4126
2026-01-07 14:44:31.34	245.01	7.11	-48.6	-49.9	14.7	0.00e+00	0	25	0	267386880	63	4182
2026-01-07 14:44:32.35	245.14	7.16	-48.4	-49.7	14.8	0.00e+00	0	25	0	272629760	63	4059
2026-01-07 14:44:33.36	245.27	7.21	-48.5	-49.8	14.7	0.00e+00	0	25	0	278921216	63	4139
2026-01-07 14:44:34.37	245.40	7.26	-48.5	-49.8	14.7	0.00e+00	0	25	0	284164096	63	4139
2026-01-07 14:44:35.37	245.53	7.31	-48.4	-49.8	14.8	0.00e+00	0	25	0	289406976	63	4104
2026-01-07 14:44:36.38	245.66	7.35	-48.5	-49.8	14.8	0.00e+00	0	25	0	295698432	63	4143
2026-01-07 14:44:37.39	245.79	7.40	-48.6	-50.0	14.7	0.00e+00	0	25	0	300941312	63	4206
2026-01-07 14:44:38.40	245.93	7.45	-48.5	-49.8	14.7	0.00e+00	0	25	0	307232768	63	4142
2026-01-07 14:44:39.40	246.06	7.50	-48.5	-49.8	14.7	0.00e+00	0	25	0	312475648	63	4140
2026-01-07 14:44:40.41	246.19	7.55	-48.6	-50.0	14.7	0.00e+00	0	25	0	317718528	63	4194
2026-01-07 14:44:41.42	246.32	7.60	-48.7	-50.1	14.6	0.00e+00	0	25	0	324009984	63	4257
2026-01-07 14:44:42.42	246.45	7.64	-48.6	-50.0	14.7	0.00e+00	0	25	0	329252864	63	4217
2026-01-07 14:44:43.43	246.59	7.69	-48.7	-50.0	14.6	0.00e+00	0	25	0	335544320	63	4233
2026-01-07 14:44:44.44	246.72	7.74	-48.7	-50.1	14.6	0.00e+00	0	25	0	340787200	63	4245
2026-01-07 14:44:45.45	246.86	7.79	-48.4	-49.7	14.8	0.00e+00	0	25	0	347078656	63	4080
2026-01-07 14:44:46.46	246.99	7.84	-48.4	-49.7	14.8	0.00e+00	0	25	0	352321536	63	4089
2026-01-07 14:44:47.46	247.13	7.88	-48.4	-49.7	14.8	0.00e+00	0	25	0	357564416	63	4071
2026-01-07 14:44:48.47	247.26	7.93	-48.3	-49.6	14.9	0.00e+00	0	25	0	363855872	63	4017
2026-01-07 14:44:49.48	247.40	7.98	-48.3	-49.6	14.8	0.00e+00	0	25	0	369098752	63	4050
2026-01-07 14:44:50.49	247.54	8.03	-48.3	-49.6	14.9	0.00e+00	0	25	0	375390208	63	4038
2026-01-07 14:44:51.50	247.67	8.08	-48.2	-49.5	14.9	0.00e+00	0	25	0	380633088	63	3982
2026-01-07 14:44:52.50	247.81	8.12	-48.0	-49.3	14.9	0.00e+00	0	25	0	385875968	62	4131
2026-01-07 14:44:53.51	247.95	8.17	-47.9	-49.2	14.9	0.00e+00	0	25	0	392167424	62	4068
2026-01-07 14:44:54.52	248.09	8.22	-48.0	-49.3	14.9	0.00e+00	0	25	0	397410304	62	4108
2026-01-07 14:44:55.53	248.23	8.27	-48.1	-49.3	14.9	0.00e+00	0	25	0	403701760	62	4125
2026-01-07 14:44:56.54	248.37	8.31	-48.0	-49.3	14.9	0.00e+00	0	25	0	408944640	62	4121
2026-01-07 14:44:57.55	248.51	8.36	-48.2	-49.4	14.8	0.00e+00	0	25	0	414187520	62	4187
2026-01-07 14:44:58.56	248.65	8.41	-48.2	-49.5	14.8	0.00e+00	0	25	0	420478976	62	4199
2026-01-07 14:44:59.56	248.79	8.46	-48.2	-49.4	14.8	0.00e+00	0	25	0	425721856	62	4180
2026-01-07 14:45:00.57	248.93	8.50	-48.2	-49.5	14.8	0.00e+00	0	25	0	432013312	62	4195
2026-01-07 14:45:01.58	249.07	8.55	-48.2	-49.5	14.8	0.00e+00	0	25	0	437256192	62	4207
2026-01-07 14:45:02.58	249.21	8.60	-48.2	-49.5	14.8	0.00e+00	0	25	0	443547648	62	4220
2026-01-07 14:45:03.59	249.35	8.65	-48.2	-49.5	14.8	0.00e+00	0	25	0	448790528	62	4233
2026-01-07 14:45:04.60	249.49	8.69	-48.1	-49.4	14.8	0.00e+00	0	25	0	454033408	62	4163
2026-01-07 14:45:05.61	249.64	8.74	-48.1	-49.4	14.8	0.00e+00	0	25	0	460324864	62	4163
2026-01-07 14:45:06.62	249.78	8.79	-48.1	-49.3	14.9	0.00e+00	0	25	0	465567744	62	4133
2026-01-07 14:45:07.63	249.93	8.83	-48.0	-49.3	14.9	0.00e+00	0	25	0	470810624	62	4100
2026-01-07 14:45:08.64	250.07	8.88	-48.1	-49.4	14.8	0.00e+00	0	25	0	477102080	62	4170
2026-01-07 14:45:09.65	250.22	8.93	-48.1	-49.3	14.9	0.00e+00	0	25	0	482344960	62	4144
2026-01-07 14:45:10.65	250.36	8.97	-48.1	-49.4	14.8	0.00e+00	0	25	0	488636416	62	4185
2026-01-07 14:45:11.66	250.51	9.02	-48.2	-49.5	14.8	0.00e+00	0	25	0	493879296	62	4201
2026-01-07 14:45:12.67	250.65	9.07	-48.2	-49.5	14.8	0.00e+00	0	25	0	499122176	62	4203
2026-01-07 14:45:13.68	250.80	9.11	-48.2	-49.5	14.8	0.00e+00	0	25	0	505413632	62	4194
2026-01-07 14:45:14.68	250.95	9.16	-48.2	-49.4	14.8	0.00e+00	0	25	0	510656512	62	4191
2026-01-07 14:45:15.69	251.09	9.21	-48.0	-49.3	14.9	0.00e+00	0	25	0	516947968	62	4135
2026-01-07 14:45:16.70	251.24	9.25	-48.1	-49.3	14.9	0.00e+00	0	25	0	522190848	62	4138
2026-01-07 14:45:17.71	251.39	9.30	-48.2	-49.5	14.8	0.00e+00	0	25	0	528482304	62	4195
2026-01-07 14:45:18.71	251.54	9.34	-48.2	-49.5	14.8	0.00e+00	0	25	0	533725184	62	4212
2026-01-07 14:45:19.72	251.69	9.39	-48.0	-49.3	14.9	0.00e+00	0	25	0	538968064	62	4112
2026-01-07 14:45:20.73	251.84	9.44	-48.1	-49.4	14.8	0.00e+00	0	25	0	545259520	62	4163
2026-01-07 14:45:21.74	251.99	9.48	-48.2	-49.4	14.8	0.00e+00	0	25	0	550502400	62	4189
2026-01-07 14:45:22.75	252.14	9.53	-48.0	-49.2	14.9	0.00e+00	0	25	0	556793856	62	4089
2026-01-07 14:45:23.76	252.29	9.57	-47.9	-49.2	15.0	0.00e+00	0	25	0	562036736	62	4069
2026-01-07 14:45:24.77	252.44	9.62	-48.1	-49.4	14.9	0.00e+00	0	25	0	567279616	62	4146
2026-01-07 14:45:25.77	252.60	9.66	-47.8	-49.1	15.0	0.00e+00	0	25	0	573571072	62	4014
2026-01-07 14:45:26.78	252.75	9.71	-47.8	-49.1	15.0	0.00e+00	0	25	0	578813952	62	4006
2026-01-07 14:45:27.79	252.90	9.75	-47.8	-49.0	15.0	0.00e+00	0	25	0	585105408	62	3986
2026-01-07 14:45:28.80	253.06	9.80	-47.8	-49.1	15.0	0.00e+00	0	25	0	590348288	62	4013
2026-01-07 14:45:29.81	253.21	9.84	-47.6	-48.8	14.9	0.00e+00	0	25	0	595591168	61	4140
2026-01-07 14:45:30.82	253.36	9.89	-47.7	-48.9	14.9	0.00e+00	0	25	0	601882624	61	4165
2026-01-07 14:45:31.83	253.52	9.93	-47.7	-49.0	14.9	0.00e+00	0	25	0	607125504	61	4216
2026-01-07 14:45:32.84	253.68	9.98	-47.6	-48.9	14.9	0.00e+00	0	25	0	613416960	61	4147
2026-01-07 14:45:33.85	253.83	10.02	-47.6	-48.9	14.9	0.00e+00	0	25	0	618659840	61	4146
2026-01-07 14:45:34.85	253.99	10.07	-47.6	-48.8	15.0	0.00e+00	0	25	0	624951296	61	4130
2026-01-07 14:45:35.86	254.14	10.11	-47.6	-48.9	14.9	0.00e+00	0	25	0	630194176	61	4169
2026-01-07 14:45:36.87	254.30	10.16	-47.7	-48.9	14.9	0.00e+00	0	25	0	635437056	61	4170
2026-01-07 14:45:37.88	254.46	10.20	-47.8	-49.0	14.9	0.00e+00	0	25	0	641728512	61	4213
2026-01-07 14:45:38.89	254.62	10.25	-47.6	-48.8	14.9	0.00e+00	0	25	0	646971392	61	4143
2026-01-07 14:45:39.90	254.78	10.29	-47.6	-48.8	15.0	0.00e+00	0	25	0	653262848	61	4124
2026-01-07 14:45:40.91	254.94	10.33	-47.5	-48.7	15.0	0.00e+00	0	25	0	658505728	61	4095
2026-01-07 14:45:41.92	255.10	10.38	-47.6	-48.8	15.0	0.00e+00	0	25	0	663748608	61	4108
2026-01-07 14:45:42.93	255.26	10.42	-47.6	-48.8	15.0	0.00e+00	0	25	0	670040064	61	4127
2026-01-07 14:45:43.93	255.42	10.46	-47.6	-48.8	15.0	0.00e+00	0	25	0	675282944	61	4117
2026-01-07 14:45:44.94	255.58	10.51	-47.5	-48.7	15.0	0.00e+00	0	25	0	681574400	61	4087
2026-01-07 14:45:45.94	255.74	10.55	-47.5	-48.7	15.0	0.00e+00	0	25	0	686817280	61	4089
2026-01-07 14:45:46.95	255.90	10.59	-47.4	-48.7	15.0	0.00e+00	0	25	0	692060160	61	4052
2026-01-07 14:45:47.96	256.06	10.64	-47.4	-48.6	15.1	0.00e+00	0	25	0	698351616	61	4019
2026-01-07 14:45:48.97	256.23	10.68	-47.5	-48.7	15.0	0.00e+00	0	25	0	703594496	61	4061
2026-01-07 14:45:49.98	256.39	10.72	-47.5	-48.7	15.0	0.00e+00	0	25	0	709885952	61	4061
2026-01-07 14:45:50.99	256.55	10.77	-47.4	-48.6	15.1	0.00e+00	0	25	0	715128832	61	4027
2026-01-07 14:45:51.99	256.72	10.81	-47.5	-48.7	15.0	0.00e+00	0	25	0	721420288	61	4074
2026-01-07 14:45:53.00	256.88	10.85	-47.4	-48.6	15.1	0.00e+00	0	25	0	726663168	61	4035
2026-01-07 14:45:54.01	257.05	10.89	-47.4	-48.6	15.0	0.00e+00	0	25	0	731906048	61	4051
2026-01-07 14:45:55.02	257.21	10.94	-47.4	-48.6	15.1	0.00e+00	0	25	0	738197504	61	4021
2026-01-07 14:45:56.03	257.38	10.98	-47.4	-48.7	15.0	0.00e+00	0	25	0	743440384	61	4053
2026-01-07 14:45:57.04	257.54	11.02	-47.4	-48.6	15.1	0.00e+00	0	25	0	749731840	61	4018
2026-01-07 14:45:58.05	257.71	11.06	-47.3	-48.4	15.1	0.00e+00	0	25	0	754974720	61	3956
2026-01-07 14:45:59.06	257.88	11.10	-47.3	-48.5	15.1	0.00e+00	0	25	0	760217600	61	3960
2026-01-07 14:46:00.07	258.05	11.14	-47.4	-48.6	15.1	0.00e+00	0	25	0	766509056	61	4022
2026-01-07 14:46:01.07	258.21	11.19	-47.4	-48.6	15.1	0.00e+00	0	25	0	771751936	61	4022
2026-01-07 14:46:02.08	258.38	11.23	-47.3	-48.5	15.1	0.00e+00	0	25	0	776994816	61	3984
2026-01-07 14:46:03.08	258.55	11.27	-47.3	-48.5	15.1	0.00e+00	0	25	0	783286272	61	3979
2026-01-07 14:46:04.09	258.72	11.31	-47.2	-48.4	15.1	0.00e+00	0	25	0	788529152	61	3937
2026-01-07 14:46:05.10	258.89	11.35	-47.2	-48.3	15.2	0.00e+00	0	25	0	794820608	61	3910
2026-01-07 14:46:06.11	259.06	11.39	-47.1	-48.3	15.0	0.00e+00	0	25	0	800063488	60	4103
2026-01-07 14:46:07.12	259.23	11.43	-47.0	-48.2	15.1	0.00e+00	0	25	0	806354944	60	4072
2026-01-07 14:46:08.12	259.40	11.47	-47.1	-48.2	15.1	0.00e+00	0	25	0	811597824	60	4080
2026-01-07 14:46:09.13	259.58	11.51	-47.0	-48.2	15.1	0.00e+00	0	25	0	816840704	60	4076
2026-01-07 14:46:10.14	259.75	11.55	-47.0	-48.1	15.1	0.00e+00	0	25	0	823132160	60	4040
2026-01-07 14:46:11.15	259.92	11.59	-47.0	-48.2	15.1	0.00e+00	0	25	0	828375040	60	4057
2026-01-07 14:46:12.16	260.10	11.63	-47.0	-48.1	15.1	0.00e+00	0	25	0	834666496	60	4034
2026-01-07 14:46:13.16	260.27	11.67	-46.9	-48.1	15.1	0.00e+00	0	25	0	839909376	60	4019
2026-01-07 14:46:14.17	260.44	11.71	-47.0	-48.1	15.1	0.00e+00	0	25	0	845152256	60	4051
2026-01-07 14:46:15.18	260.62	11.75	-47.0	-48.1	15.1	0.00e+00	0	25	0	851443712	60	4050
2026-01-07 14:46:16.19	260.79	11.78	-47.1	-48.3	15.0	0.00e+00	0	25	0	856686592	60	4108
2026-01-07 14:46:17.19	260.97	11.82	-47.1	-48.3	15.0	0.00e+00	0	25	0	862978048	60	4133
2026-01-07 14:46:18.20	261.14	11.86	-47.1	-48.3	15.0	0.00e+00	0	25	0	868220928	60	4141
2026-01-07 14:46:19.21	261.32	11.90	-47.2	-48.3	15.0	0.00e+00	0	25	0	873463808	60	4145
2026-01-07 14:46:20.22	261.50	11.94	-47.2	-48.4	15.0	0.00e+00	0	25	0	879755264	60	4164
2026-01-07 14:46:21.23	261.67	11.98	-47.3	-48.5	15.0	0.00e+00	0	25	0	884998144	60	4219
2026-01-07 14:46:22.24	261.85	12.01	-47.3	-48.5	15.0	0.00e+00	0	25	0	891289600	60	4208
2026-01-07 14:46:23.24	262.03	12.05	-47.2	-48.4	15.0	0.00e+00	0	25	0	896532480	60	4171
2026-01-07 14:46:24.25	262.21	12.09	-47.1	-48.3	15.0	0.00e+00	0	25	0	902823936	60	4139
2026-01-07 14:46:25.26	262.39	12.13	-47.2	-48.3	15.0	0.00e+00	0	25	0	908066816	60	4145
2026-01-07 14:46:26.27	262.57	12.16	-47.1	-48.2	15.1	0.00e+00	0	25	0	913309696	60	4093
2026-01-07 14:46:27.28	262.75	12.20	-47.0	-48.2	15.1	0.00e+00	0	25	0	919601152	60	4065
2026-01-07 14:46:28.28	262.93	12.24	-47.1	-48.3	15.1	0.00e+00	0	25	0	924844032	60	4101
2026-01-07 14:46:29.29	263.11	12.27	-47.0	-48.1	15.1	0.00e+00	0	25	0	931135488	60	4035
2026-01-07 14:46:30.29	263.29	12.31	-46.9	-48.0	15.2	0.00e+00	0	25	0	936378368	60	3984
2026-01-07 14:46:31.30	263.47	12.34	-47.0	-48.1	15.1	0.00e+00	0	25	0	941621248	60	4039
2026-01-07 14:46:32.30	263.65	12.38	-47.0	-48.2	15.1	0.00e+00	0	25	0	947912704	60	4078
2026-01-07 14:46:33.31	263.83	12.41	-47.1	-48.3	15.1	0.00e+00	0	25	0	953155584	60	4107
2026-01-07 14:46:34.32	264.02	12.45	-47.2	-48.4	15.0	0.00e+00	0	25	0	958398464	60	4157
2026-01-07 14:46:35.32	264.20	12.49	-47.2	-48.4	15.0	0.00e+00	0	25	0	964689920	60	4192
2026-01-07 14:46:36.32	264.38	12.52	-47.2	-48.4	15.0	0.00e+00	0	25	0	969932800	60	4176
2026-01-07 14:46:37.33	264.56	12.55	-47.2	-48.4	15.0	0.00e+00	0	25	0	976224256	60	4151
2026-01-07 14:46:38.33	264.75	12.59	-47.0	-48.2	15.1	0.00e+00	0	25	0	981467136	60	4081
2026-01-07 14:46:39.34	264.93	12.62	-47.0	-48.2	15.1	0.00e+00	0	25	0	987758592	60	4074
2026-01-07 14:46:40.34	265.12	12.66	-47.1	-48.2	15.1	0.00e+00	0	25	0	993001472	60	4093
2026-01-07 14:46:41.35	265.30	12.69	-46.9	-48.1	15.2	0.00e+00	0	25	0	998244352	60	4011
2026-01-07 14:46:42.36	265.49	12.72	-46.7	-47.9	15.2	0.00e+00	0	25	0	1004535808	60	3920
2026-01-07 14:46:43.37	265.68	12.76	-47.0	-48.2	15.0	0.00e+00	0	25	0	1009778688	59	4311
2026-01-07 14:46:44.38	265.86	12.79	-47.2	-48.4	14.9	0.00e+00	0	25	0	1015021568	59	4395
2026-01-07 14:46:45.38	266.05	12.82	-47.3	-48.5	14.9	0.00e+00	0	25	0	1021313024	59	4475
2026-01-07 14:46:46.39	266.24	12.86	-47.3	-48.6	14.9	0.00e+00	0	25	0	1026555904	59	4496
2026-01-07 14:46:47.40	266.43	12.89	-47.4	-48.6	14.9	0.00e+00	0	25	0	1032847360	59	4517
2026-01-07 14:46:48.40	266.61	12.92	-47.1	-48.3	15.1	0.00e+00	0	25	0	1038090240	60	4118
2026-01-07 14:46:49.41	266.80	12.95	-47.2	-48.4	15.0	0.00e+00	0	25	0	1043333120	60	4149
2026-01-07 14:46:50.42	266.99	12.98	-47.1	-48.2	15.1	0.00e+00	0	25	0	1049624576	60	4095
2026-01-07 14:46:51.42	267.18	13.02	-47.0	-48.2	15.1	0.00e+00	0	25	0	1054867456	60	4065
2026-01-07 14:46:52.43	267.37	13.05	-46.9	-48.1	15.1	0.00e+00	0	25	0	1061158912	60	4025
2026-01-07 14:46:53.44	267.56	13.08	-46.7	-47.9	15.2	0.00e+00	0	25	0	1066401792	60	3936
2026-01-07 14:46:54.45	267.75	13.11	-46.7	-47.9	15.2	0.00e+00	0	25	0	1072693248	60	3927
2026-01-07 14:46:55.47	267.95	13.14	-46.7	-47.8	15.3	0.00e+00	0	25	0	1077936128	60	3897
2026-01-07 14:46:56.48	268.14	13.17	-47.1	-48.3	15.0	0.00e+00	0	25	0	1083179008	59	4357
2026-01-07 14:46:57.49	268.33	13.20	-47.1	-48.3	15.0	0.00e+00	0	25	0	1089470464	59	4380
2026-01-07 14:46:58.49	268.52	13.23	-47.1	-48.2	15.0	0.00e+00	0	25	0	1094713344	59	4334
2026-01-07 14:46:59.49	268.71	13.26	-47.0	-48.2	15.0	0.00e+00	0	25	0	1101004800	59	4313
2026-01-07 14:47:00.48	268.90	13.29	-47.1	-48.3	15.0	0.00e+00	0	25	0	1106247680	59	4353
2026-01-07 14:47:01.48	269.10	13.32	-47.1	-48.3	15.0	0.00e+00	0	25	0	1111490560	59	4377
2026-01-07 14:47:02.48	269.29	13.34	-47.1	-48.4	15.0	0.00e+00	0	25	0	1116733440	59	4395
2026-01-07 14:47:03.48	269.48	13.37	-47.2	-48.4	14.9	0.00e+00	0	25	0	1123024896	59	4409
2026-01-07 14:47:04.49	269.68	13.40	-47.2	-48.4	15.0	0.00e+00	0	25	0	1128267776	59	4409
2026-01-07 14:47:05.50	269.87	13.43	-47.3	-48.5	14.9	0.00e+00	0	25	0	1134559232	59	4481
2026-01-07 14:47:06.51	270.07	13.46	-47.3	-48.6	14.9	0.00e+00	0	25	0	1139802112	59	4499
2026-01-07 14:47:07.52	270.26	13.48	-47.2	-48.4	15.0	0.00e+00	0	25	0	1146093568	59	4401
2026-01-07 14:47:08.53	270.46	13.51	-47.3	-48.5	14.9	0.00e+00	0	25	0	1151336448	59	4456
2026-01-07 14:47:09.54	270.66	13.54	-47.2	-48.4	14.9	0.00e+00	0	25	0	1157627904	59	4441
2026-01-07 14:47:10.55	270.85	13.56	-47.2	-48.4	14.9	0.00e+00	0	25	0	1162870784	59	4421
2026-01-07 14:47:11.56	271.05	13.59	-47.2	-48.4	14.9	0.00e+00	0	25	0	1168113664	59	4427
2026-01-07 14:47:12.57	271.25	13.62	-47.3	-48.5	14.9	0.00e+00	0	25	0	1174405120	59	4454
2026-01-07 14:47:13.57	271.44	13.64	-47.1	-48.3	15.0	0.00e+00	0	25	0	1179648000	59	4382
2026-01-07 14:47:14.58	271.64	13.67	-47.1	-48.3	15.0	0.00e+00	0	25	0	1184890880	59	4373
2026-01-07 14:47:15.59	271.84	13.69	-47.1	-48.3	15.0	0.00e+00	0	25	0	1191182336	59	4381
2026-01-07 14:47:16.60	272.04	13.72	-47.2	-48.4	14.9	0.00e+00	0	25	0	1196425216	59	4416
2026-01-07 14:47:17.60	272.24	13.74	-47.2	-48.5	14.9	0.00e+00	0	25	0	1202716672	59	4451
2026-01-07 14:47:18.61	272.44	13.76	-47.3	-48.5	14.9	0.00e+00	0	25	0	1207959552	59	4490
2026-01-07 14:47:19.62	272.64	13.79	-47.2	-48.4	15.0	0.00e+00	0	25	0	1213202432	59	4426
2026-01-07 14:47:20.63	272.84	13.81	-47.2	-48.4	15.0	0.00e+00	0	25	0	1219493888	59	4400
2026-01-07 14:47:21.63	273.04	13.84	-47.1	-48.3	15.0	0.00e+00	0	25	0	1224736768	59	4373
2026-01-07 14:47:22.65	273.24	13.86	-47.0	-48.2	15.0	0.00e+00	0	25	0	1231028224	59	4322
2026-01-07 14:47:23.65	273.44	13.88	-47.0	-48.1	15.0	0.00e+00	0	25	0	1236271104	59	4287
2026-01-07 14:47:24.66	273.64	13.90	-47.0	-48.1	15.1	0.00e+00	0	25	0	1242562560	59	4270
2026-01-07 14:47:25.68	273.84	13.93	-47.0	-48.2	15.0	0.00e+00	0	25	0	1247805440	59	4324
2026-01-07 14:47:26.68	274.04	13.95	-47.0	-48.2	15.0	0.00e+00	0	25	0	1254096896	59	4302
2026-01-07 14:47:27.69	274.25	13.97	-47.1	-48.3	15.0	0.00e+00	0	25	0	1259339776	59	4378
2026-01-07 14:47:28.70	274.45	13.99	-47.0	-48.2	15.0	0.00e+00	0	25	0	1264582656	59	4333
2026-01-07 14:47:29.71	274.65	14.01	-47.1	-48.3	15.0	0.00e+00	0	25	0	1270874112	59	4347
2026-01-07 14:47:30.71	274.85	14.03	-47.1	-48.3	15.0	0.00e+00	0	25	0	1276116992	59	4380
2026-01-07 14:47:31.95	275.10	14.06	-47.1	-48.3	15.0	0.00e+00	0	25	0	1281359872	59	4365
2026-01-07 14:47:32.81	275.28	14.07	-47.1	-48.3	15.0	0.00e+00	0	25	0	1286602752	59	4390
2026-01-07 14:47:33.96	275.51	14.10	-47.0	-48.2	15.1	0.00e+00	0	25	0	1292894208	59	4294
2026-01-07 14:47:34.82	275.68	14.11	-47.0	-48.2	15.0	0.00e+00	0	25	0	1298137088	59	4317
2026-01-07 14:47:35.98	275.92	14.13	-47.1	-48.3	15.0	0.00e+00	0	25	0	1304428544	59	4368
2026-01-07 14:47:36.84	276.09	14.15	-47.1	-48.3	15.0	0.00e+00	0	25	0	1309671424	59	4382
2026-01-07 14:47:37.99	276.33	14.17	-47.1	-48.3	15.0	0.00e+00	0	25	0	1315962880	59	4357
2026-01-07 14:47:38.86	276.50	14.19	-47.0	-48.2	15.0	0.00e+00	0	25	0	1320157184	59	4313
2026-01-07 14:47:40.01	276.74	14.21	-47.1	-48.3	15.0	0.00e+00	0	25	0	1327497216	59	4375
2026-01-07 14:47:40.87	276.91	14.22	-47.2	-48.4	15.0	0.00e+00	0	25	0	1331691520	59	4399
2026-01-07 14:47:42.02	277.15	14.24	-47.3	-48.5	14.9	0.00e+00	0	25	0	1339031552	59	4458
2026-01-07 14:47:42.89	277.33	14.25	-47.4	-48.6	14.9	0.00e+00	0	25	0	1343225856	59	4508
2026-01-07 14:47:44.04	277.56	14.27	-47.2	-48.4	15.1	0.00e+00	0	25	0	1349517312	60	4172
2026-01-07 14:47:44.90	277.74	14.29	-47.1	-48.3	15.1	0.00e+00	0	25	0	1354760192	60	4132
2026-01-07 14:47:46.05	277.97	14.30	-47.1	-48.3	15.1	0.00e+00	0	25	0	1361051648	60	4109
2026-01-07 14:47:46.92	278.15	14.32	-47.2	-48.3	15.1	0.00e+00	0	25	0	1366294528	60	4142
2026-01-07 14:47:48.08	278.39	14.33	-47.1	-48.3	15.1	0.00e+00	0	25	0	1372585984	60	4109
2026-01-07 14:47:48.93	278.56	14.35	-47.0	-48.2	15.1	0.00e+00	0	25	0	1377828864	60	4066
2026-01-07 14:47:50.08	278.80	14.36	-46.8	-47.9	15.2	0.00e+00	0	25	0	1384120320	60	3955
2026-01-07 14:47:50.94	278.98	14.38	-46.8	-48.0	15.2	0.00e+00	0	25	0	1388314624	60	3963
2026-01-07 14:47:52.09	279.21	14.39	-46.7	-47.9	15.3	0.00e+00	0	25	0	1394606080	60	3928
2026-01-07 14:47:52.96	279.39	14.40	-46.8	-48.0	15.2	0.00e+00	0	25	0	1399848960	60	3971
2026-01-07 14:47:54.11	279.63	14.42	-46.8	-48.0	15.2	0.00e+00	0	25	0	1406140416	60	3963
2026-01-07 14:47:54.98	279.81	14.43	-46.9	-48.0	15.2	0.00e+00	0	25	0	1411383296	60	3993
2026-01-07 14:47:56.13	280.05	14.44	-47.0	-48.1	15.2	0.00e+00	0	25	0	1417674752	60	4037
2026-01-07 14:47:56.99	280.22	14.45	-47.0	-48.1	15.1	0.00e+00	0	25	0	1422917632	60	4042
2026-01-07 14:47:58.14	280.46	14.47	-47.0	-48.2	15.1	0.00e+00	0	25	0	1429209088	60	4060
2026-01-07 14:47:59.00	280.64	14.47	-46.9	-48.0	15.2	0.00e+00	0	25	0	1433403392	60	3989
2026-01-07 14:48:00.15	280.88	14.49	-46.9	-48.1	15.2	0.00e+00	0	25	0	1440743424	60	4007
2026-01-07 14:48:01.01	281.06	14.50	-46.9	-48.0	15.2	0.00e+00	0	25	0	1444937728	60	4000
2026-01-07 14:48:02.16	281.30	14.51	-46.9	-48.1	15.2	0.00e+00	0	25	0	1452277760	60	4015
2026-01-07 14:48:03.02	281.48	14.52	-46.9	-48.0	15.2	0.00e+00	0	25	0	1456472064	60	3994
2026-01-07 14:48:04.17	281.71	14.53	-46.9	-48.0	15.2	0.00e+00	0	25	0	1462763520	60	3991
2026-01-07 14:48:05.03	281.89	14.53	-46.9	-48.0	15.2	0.00e+00	0	25	0	1468006400	60	3986
2026-01-07 14:48:06.19	282.13	14.54	-46.8	-48.0	15.2	0.00e+00	0	25	0	1474297856	60	3966
2026-01-07 14:48:07.05	282.31	14.55	-46.7	-47.8	15.3	0.00e+00	0	25	0	1479540736	60	3906
2026-01-07 14:48:08.21	282.55	14.56	-47.0	-48.2	15.0	0.00e+00	0	25	0	1485832192	59	4308
2026-01-07 14:48:09.06	282.73	14.57	-47.1	-48.3	15.0	0.00e+00	0	25	0	1491075072	59	4343
2026-01-07 14:48:10.22	282.97	14.58	-47.0	-48.2	15.0	0.00e+00	0	25	0	1497366528	59	4320
2026-01-07 14:48:11.08	283.15	14.58	-47.0	-48.2	15.0	0.00e+00	0	25	0	1501560832	59	4305
2026-01-07 14:48:12.23	283.39	14.59	-47.1	-48.3	15.0	0.00e+00	0	25	0	1508900864	59	4365
2026-01-07 14:48:13.10	283.57	14.60	-47.2	-48.4	15.0	0.00e+00	0	25	0	1513095168	59	4409
2026-01-07 14:48:14.24	283.81	14.60	-47.3	-48.5	15.0	0.00e+00	0	25	0	1519386624	59	4459
2026-01-07 14:48:15.11	283.99	14.61	-47.3	-48.5	14.9	0.00e+00	0	25	0	1524629504	59	4468
2026-01-07 14:48:16.26	284.23	14.61	-47.3	-48.5	14.9	0.00e+00	0	25	0	1530920960	59	4466
2026-01-07 14:48:17.12	284.41	14.62	-47.3	-48.5	15.0	0.00e+00	0	25	0	1536163840	59	4451
2026-01-07 14:48:18.27	284.66	14.62	-47.3	-48.5	15.0	0.00e+00	0	25	0	1542455296	59	4454
2026-01-07 14:48:19.14	284.84	14.63	-47.2	-48.4	15.0	0.00e+00	0	25	0	1547698176	59	4409
2026-01-07 14:48:20.29	285.08	14.63	-47.2	-48.4	15.0	0.00e+00	0	25	0	1553989632	59	4441
2026-01-07 14:48:21.16	285.26	14.63	-47.3	-48.5	14.9	0.00e+00	0	25	0	1559232512	59	4477
2026-01-07 14:48:22.31	285.50	14.64	-47.3	-48.6	14.9	0.00e+00	0	25	0	1565523968	59	4496
2026-01-07 14:48:23.17	285.68	14.64	-47.2	-48.4	15.1	0.00e+00	0	25	0	1569718272	60	4152
2026-01-07 14:48:24.32	285.92	14.64	-47.3	-48.5	15.0	0.00e+00	0	25	0	1576009728	60	4194
2026-01-07 14:48:25.19	286.10	14.64	-47.2	-48.3	15.1	0.00e+00	0	25	0	1581252608	60	4134
2026-01-07 14:48:26.34	286.34	14.65	-47.1	-48.3	15.1	0.00e+00	0	25	0	1587544064	60	4117
2026-01-07 14:48:27.21	286.53	14.65	-47.1	-48.3	15.1	0.00e+00	0	25	0	1592786944	60	4110
2026-01-07 14:48:28.36	286.77	14.65	-47.2	-48.3	15.1	0.00e+00	0	25	0	1599078400	60	4143
2026-01-07 14:48:29.23	286.95	14.65	-47.2	-48.4	15.1	0.00e+00	0	25	0	1604321280	60	4151
2026-01-07 14:48:30.38	287.19	14.65	-47.0	-48.2	15.1	0.00e+00	0	25	0	1610612736	60	4073
2026-01-07 14:48:31.24	287.37	14.65	-47.1	-48.2	15.1	0.00e+00	0	25	0	1614807040	60	4087
2026-01-07 14:48:32.39	287.61	14.65	-47.0	-48.2	15.2	0.00e+00	0	25	0	1622147072	60	4060
2026-01-07 14:48:33.26	287.79	14.65	-46.9	-48.1	15.2	0.00e+00	0	25	0	1626341376	60	4015
2026-01-07 14:48:34.41	288.03	14.65	-47.0	-48.1	15.2	0.00e+00	0	25	0	1633681408	60	4042
2026-01-07 14:48:35.28	288.22	14.64	-47.1	-48.2	15.1	0.00e+00	0	25	0	1637875712	60	4076
2026-01-07 14:48:36.43	288.46	14.64	-47.1	-48.2	15.1	0.00e+00	0	25	0	1644167168	60	4076
2026-01-07 14:48:37.30	288.64	14.64	-47.1	-48.2	15.1	0.00e+00	0	25	0	1649410048	60	4093
2026-01-07 14:48:38.45	288.88	14.64	-47.1	-48.2	15.1	0.00e+00	0	25	0	1655701504	60	4091
2026-01-07 14:48:39.31	289.06	14.63	-47.1	-48.2	15.1	0.00e+00	0	25	0	1660944384	60	4082
2026-01-07 14:48:40.47	289.30	14.63	-47.1	-48.2	15.1	0.00e+00	0	25	0	1667235840	60	4073
2026-01-07 14:48:41.33	289.48	14.63	-47.1	-48.2	15.1	0.00e+00	0	25	0	1672478720	60	4092
2026-01-07 14:48:42.48	289.72	14.62	-47.1	-48.2	15.1	0.00e+00	0	25	0	1678770176	60	4095
2026-01-07 14:48:43.34	289.90	14.62	-47.1	-48.3	15.1	0.00e+00	0	25	0	1682964480	60	4122
2026-01-07 14:48:44.49	290.14	14.61	-47.2	-48.4	15.1	0.00e+00	0	25	0	1690304512	60	4149
2026-01-07 14:48:45.36	290.33	14.61	-47.1	-48.3	15.1	0.00e+00	0	25	0	1694498816	60	4122
2026-01-07 14:48:46.51	290.57	14.60	-47.2	-48.4	15.1	0.00e+00	0	25	0	1701838848	60	4155
2026-01-07 14:48:47.37	290.75	14.60	-47.1	-48.3	15.1	0.00e+00	0	25	0	1706033152	60	4126
2026-01-07 14:48:48.53	290.99	14.59	-47.2	-48.4	15.1	0.00e+00	0	25	0	1712324608	60	4155
2026-01-07 14:48:49.39	291.17	14.58	-47.3	-48.4	15.0	0.00e+00	0	25	0	1717567488	60	4184
2026-01-07 14:48:50.55	291.41	14.58	-47.3	-48.4	15.0	0.00e+00	0	25	0	1723858944	60	4191
2026-01-07 14:48:51.41	291.59	14.57	-47.2	-48.4	15.1	0.00e+00	0	25	0	1729101824	60	4151
2026-01-07 14:48:52.57	291.83	14.56	-47.2	-48.4	15.1	0.00e+00	0	25	0	1735393280	60	4176
2026-01-07 14:48:53.43	292.01	14.55	-47.3	-48.5	15.0	0.00e+00	0	25	0	1740636160	60	4206
2026-01-07 14:48:54.59	292.25	14.55	-47.1	-48.3	15.1	0.00e+00	0	25	0	1746927616	60	4106
2026-01-07 14:48:55.45	292.43	14.54	-47.0	-48.1	15.2	0.00e+00	0	26	0	1751121920	60	4039
2026-01-07 14:48:56.60	292.67	14.53	-47.0	-48.1	15.2	0.00e+00	0	25	0	1757413376	60	4045
2026-01-07 14:48:57.47	292.85	14.52	-47.0	-48.2	15.1	0.00e+00	0	25	0	1762656256	60	4065
2026-01-07 14:48:58.62	293.09	14.51	-47.1	-48.3	15.1	0.00e+00	0	25	0	1768947712	60	4100
2026-01-07 14:48:59.48	293.26	14.50	-47.1	-48.3	15.1	0.00e+00	0	25	0	1774190592	60	4102
2026-01-07 14:49:00.64	293.51	14.49	-47.1	-48.3	15.1	0.00e+00	0	25	0	1780482048	60	4107
2026-01-07 14:49:01.50	293.68	14.48	-47.2	-48.4	15.0	0.00e+00	0	25	0	1785724928	60	4160
2026-01-07 14:49:02.65	293.92	14.47	-47.1	-48.3	15.1	0.00e+00	0	25	0	1792016384	60	4113
2026-01-07 14:49:03.51	294.10	14.46	-47.1	-48.2	15.1	0.00e+00	0	25	0	1797259264	60	4076
2026-01-07 14:49:04.66	294.34	14.44	-47.1	-48.3	15.1	0.00e+00	0	25	0	1803550720	60	4124
2026-01-07 14:49:05.52	294.51	14.43	-47.3	-48.5	15.0	0.00e+00	0	25	0	1807745024	60	4211
2026-01-07 14:49:06.66	294.75	14.42	-47.3	-48.5	15.0	0.00e+00	0	25	0	1815085056	60	4209
2026-01-07 14:49:07.53	294.93	14.41	-47.3	-48.5	15.0	0.00e+00	0	25	0	1819279360	60	4205
2026-01-07 14:49:08.68	295.17	14.39	-47.3	-48.5	15.0	0.00e+00	0	25	0	1825570816	60	4226
2026-01-07 14:49:09.54	295.34	14.38	-47.4	-48.6	15.0	0.00e+00	0	25	0	1830813696	60	4245
2026-01-07 14:49:10.70	295.58	14.36	-47.2	-48.3	15.1	0.00e+00	0	25	0	1837105152	60	4142
2026-01-07 14:49:11.57	295.76	14.35	-47.2	-48.4	15.1	0.00e+00	0	25	0	1842348032	60	4159
2026-01-07 14:49:12.72	296.00	14.34	-47.3	-48.4	15.0	0.00e+00	0	25	0	1848639488	60	4190
2026-01-07 14:49:13.58	296.17	14.32	-47.2	-48.4	15.0	0.00e+00	0	25	0	1853882368	60	4163
2026-01-07 14:49:14.74	296.41	14.31	-47.1	-48.3	15.1	0.00e+00	0	25	0	1860173824	60	4113
2026-01-07 14:49:15.60	296.59	14.29	-47.2	-48.4	15.1	0.00e+00	0	25	0	1864368128	60	4158
2026-01-07 14:49:16.76	296.82	14.27	-47.0	-48.2	15.1	0.00e+00	0	25	0	1871708160	60	4065
2026-01-07 14:49:17.62	297.00	14.26	-47.1	-48.3	15.1	0.00e+00	0	25	0	1875902464	60	4100
2026-01-07 14:49:18.78	297.23	14.24	-47.1	-48.3	15.1	0.00e+00	0	25	0	1883242496	60	4100
2026-01-07 14:49:19.64	297.41	14.23	-47.1	-48.3	15.1	0.00e+00	0	25	0	1887436800	60	4103
2026-01-07 14:49:20.79	297.64	14.21	-47.2	-48.4	15.0	0.00e+00	0	25	0	1893728256	60	4152
2026-01-07 14:49:21.66	297.82	14.19	-47.2	-48.4	15.0	0.00e+00	0	25	0	1898971136	60	4174
2026-01-07 14:49:22.81	298.05	14.17	-47.2	-48.3	15.1	0.00e+00	0	25	0	1905262592	60	4139
2026-01-07 14:49:23.68	298.23	14.16	-47.2	-48.3	15.1	0.00e+00	0	25	0	1910505472	60	4138
2026-01-07 14:49:24.83	298.46	14.13	-47.2	-48.4	15.0	0.00e+00	0	25	0	1916796928	60	4169
2026-01-07 14:49:25.70	298.64	14.12	-47.3	-48.5	15.0	0.00e+00	0	25	0	1922039808	60	4228
2026-01-07 14:49:26.85	298.87	14.10	-47.1	-48.3	15.1	0.00e+00	0	25	0	1928331264	60	4119
2026-01-07 14:49:27.70	299.04	14.08	-47.2	-48.3	15.1	0.00e+00	0	25	0	1932525568	60	4134
2026-01-07 14:49:28.85	299.28	14.06	-47.3	-48.4	15.0	0.00e+00	0	25	0	1938817024	60	4181
2026-01-07 14:49:29.72	299.45	14.04	-47.2	-48.4	15.0	0.00e+00	0	25	0	1944059904	60	4166
2026-01-07 14:49:30.86	299.68	14.02	-47.3	-48.4	15.0	0.00e+00	0	25	0	1950351360	60	4190
2026-01-07 14:49:31.72	299.85	14.00	-47.3	-48.5	15.0	0.00e+00	0	25	0	1955594240	60	4199
2026-01-07 14:49:32.88	300.08	13.98	-47.3	-48.5	15.0	0.00e+00	0	25	0	1961885696	60	4215
2026-01-07 14:49:33.74	300.26	13.96	-47.4	-48.5	15.0	0.00e+00	0	25	0	1967128576	60	4238
2026-01-07 14:49:34.89	300.49	13.93	-47.3	-48.5	15.0	0.00e+00	0	25	0	1973420032	60	4198
2026-01-07 14:49:35.76	300.66	13.91	-47.3	-48.5	15.0	0.00e+00	0	25	0	1977614336	60	4222
2026-01-07 14:49:36.91	300.89	13.89	-47.3	-48.5	15.0	0.00e+00	0	25	0	1984954368	60	4224
2026-01-07 14:49:37.78	301.06	13.87	-47.3	-48.5	15.0	0.00e+00	0	25	0	1989148672	60	4199
2026-01-07 14:49:38.93	301.29	13.84	-47.3	-48.5	15.0	0.00e+00	0	25	0	1996488704	60	4220
2026-01-07 14:49:39.80	301.46	13.82	-47.4	-48.6	15.0	0.00e+00	0	25	0	2000683008	60	4252
2026-01-07 14:49:40.95	301.69	13.80	-47.4	-48.6	14.9	0.00e+00	0	25	0	2006974464	60	4281
2026-01-07 14:49:41.81	301.86	13.78	-47.5	-48.7	14.9	0.00e+00	0	25	0	2012217344	60	4335
2026-01-07 14:49:42.97	302.09	13.75	-47.4	-48.6	14.9	0.00e+00	0	25	0	2018508800	60	4288
2026-01-07 14:49:43.83	302.26	13.73	-47.4	-48.6	14.9	0.00e+00	0	25	0	2023751680	60	4276
2026-01-07 14:49:44.98	302.49	13.70	-47.5	-48.7	14.9	0.00e+00	0	25	0	2030043136	60	4302
2026-01-07 14:49:45.85	302.66	13.68	-47.3	-48.5	15.0	0.00e+00	0	25	0	2035286016	60	4241
2026-01-07 14:49:47.00	302.88	13.65	-47.4	-48.6	15.0	0.00e+00	0	25	0	2041577472	60	4250
2026-01-07 14:49:47.87	303.05	13.63	-47.3	-48.5	15.0	0.00e+00	0	25	0	2046820352	60	4232
2026-01-07 14:49:49.02	303.28	13.60	-47.4	-48.6	14.9	0.00e+00	0	25	0	2053111808	60	4264
2026-01-07 14:49:49.88	303.45	13.58	-47.4	-48.6	14.9	0.00e+00	0	25	0	2057306112	60	4289
2026-01-07 14:49:51.04	303.67	13.55	-47.4	-48.6	15.0	0.00e+00	0	25	0	2064646144	60	4283
2026-01-07 14:49:51.90	303.84	13.52	-47.5	-48.7	14.9	0.00e+00	0	25	0	2068840448	60	4305
2026-01-07 14:49:53.05	304.06	13.49	-47.5	-48.7	14.9	0.00e+00	0	25	0	2075131904	60	4304
2026-01-07 14:49:53.92	304.23	13.47	-47.5	-48.7	14.9	0.00e+00	0	25	0	2080374784	60	4340
2026-01-07 14:49:55.07	304.45	13.44	-47.4	-48.6	14.9	0.00e+00	0	25	0	2086666240	60	4274
2026-01-07 14:49:55.94	304.62	13.41	-47.3	-48.5	14.9	0.00e+00	0	25	0	2091909120	60	4236
2026-01-07 14:49:57.09	304.84	13.38	-47.4	-48.6	15.0	0.00e+00	0	26	0	2098200576	60	4267
2026-01-07 14:49:57.95	305.01	13.36	-47.5	-48.7	14.9	0.00e+00	0	25	0	2103443456	60	4303
2026-01-07 14:49:59.11	305.23	13.33	-47.4	-48.6	15.0	0.00e+00	0	25	0	2109734912	60	4260
2026-01-07 14:49:59.97	305.40	13.30	-47.4	-48.6	14.9	0.00e+00	0	25	0	2114977792	60	4281
2026-01-07 14:50:01.12	305.62	13.27	-47.3	-48.5	15.0	0.00e+00	0	25	0	2121269248	60	4229
2026-01-07 14:50:01.99	305.78	13.24	-47.3	-48.5	15.0	0.00e+00	0	25	0	2125463552	60	4219
2026-01-07 14:50:03.14	306.00	13.21	-47.3	-48.5	15.0	0.00e+00	0	25	0	2131755008	60	4210
2026-01-07 14:50:04.00	306.16	13.18	-47.4	-48.6	15.0	0.00e+00	0	25	0	2136997888	60	4248
2026-01-07 14:50:05.15	306.38	13.15	-47.3	-48.5	15.0	0.00e+00	0	26	0	2143289344	60	4209
2026-01-07 14:50:06.02	306.55	13.12	-47.4	-48.6	15.0	0.00e+00	0	25	0	2148532224	60	4249
2026-01-07 14:50:07.18	306.77	13.09	-47.4	-48.6	15.0	0.00e+00	0	25	0	2154823680	60	4258
2026-01-07 14:50:08.04	306.93	13.06	-47.5	-48.7	14.9	0.00e+00	0	25	0	2160066560	60	4339
2026-01-07 14:50:09.19	307.15	13.03	-47.5	-48.8	14.9	0.00e+00	0	25	0	2166358016	60	4354
2026-01-07 14:50:10.06	307.31	13.00	-47.6	-48.8	14.9	0.00e+00	0	25	0	2171600896	60	4382
2026-01-07 14:50:11.21	307.52	12.96	-47.6	-48.8	14.9	0.00e+00	0	25	0	2177892352	60	4366
2026-01-07 14:50:12.07	307.69	12.94	-47.4	-48.7	14.9	0.00e+00	0	25	0	2182086656	60	4292
2026-01-07 14:50:13.23	307.90	12.90	-47.4	-48.6	14.9	0.00e+00	0	25	0	2189426688	60	4264
2026-01-07 14:50:14.09	308.06	12.87	-47.4	-48.6	14.9	0.00e+00	0	25	0	2193620992	60	4285
2026-01-07 14:50:15.24	308.28	12.84	-47.4	-48.7	14.9	0.00e+00	0	25	0	2199912448	60	4298
2026-01-07 14:50:16.11	308.44	12.81	-47.4	-48.6	14.9	0.00e+00	0	25	0	2205155328	60	4290
2026-01-07 14:50:17.27	308.65	12.77	-47.4	-48.6	14.9	0.00e+00	0	25	0	2211446784	60	4289
2026-01-07 14:50:18.13	308.81	12.74	-47.5	-48.7	14.9	0.00e+00	0	25	0	2216689664	60	4298
2026-01-07 14:50:19.28	309.02	12.70	-47.4	-48.6	14.9	0.00e+00	0	25	0	2222981120	60	4289
2026-01-07 14:50:20.15	309.18	12.67	-47.4	-48.6	14.9	0.00e+00	0	25	0	2228224000	60	4290
2026-01-07 14:50:21.30	309.39	12.64	-47.4	-48.6	15.0	0.00e+00	0	25	0	2234515456	60	4254
2026-01-07 14:50:22.16	309.55	12.61	-47.4	-48.6	14.9	0.00e+00	0	25	0	2239758336	60	4287
2026-01-07 14:50:23.31	309.76	12.57	-47.4	-48.6	14.9	0.00e+00	0	25	0	2246049792	60	4281
2026-01-07 14:50:24.17	309.92	12.54	-47.5	-48.7	14.9	0.00e+00	0	25	0	2250244096	60	4337
2026-01-07 14:50:25.32	310.13	12.50	-47.5	-48.7	14.9	0.00e+00	0	25	0	2257584128	60	4323
2026-01-07 14:50:26.19	310.29	12.47	-47.6	-48.8	14.9	0.00e+00	0	25	0	2261778432	60	4387
2026-01-07 14:50:27.33	310.49	12.43	-47.6	-48.8	14.9	0.00e+00	0	25	0	2268069888	60	4369
2026-01-07 14:50:28.19	310.65	12.40	-47.5	-48.8	14.9	0.00e+00	0	25	0	2273312768	60	4341
2026-01-07 14:50:29.35	310.86	12.36	-47.6	-48.8	14.8	0.00e+00	0	25	0	2279604224	60	4390
2026-01-07 14:50:30.21	311.01	12.33	-47.6	-48.9	14.8	0.00e+00	0	25	0	2284847104	60	4408
2026-01-07 14:50:31.36	311.22	12.29	-47.5	-48.7	14.9	0.00e+00	0	25	0	2291138560	60	4334
2026-01-07 14:50:32.22	311.37	12.26	-47.4	-48.6	14.9	0.00e+00	0	25	0	2296381440	60	4291
2026-01-07 14:50:33.37	311.58	12.21	-47.5	-48.7	14.9	0.00e+00	0	25	0	2302672896	60	4337
2026-01-07 14:50:34.24	311.73	12.18	-47.5	-48.7	14.9	0.00e+00	0	25	0	2306867200	60	4316
2026-01-07 14:50:35.39	311.94	12.14	-47.6	-48.9	14.8	0.00e+00	0	25	0	2313158656	60	4399
2026-01-07 14:50:36.25	312.09	12.11	-47.7	-48.9	14.8	0.00e+00	0	25	0	2318401536	60	4421
2026-01-07 14:50:37.40	312.29	12.07	-47.7	-49.0	14.8	0.00e+00	0	25	0	2324692992	60	4455
2026-01-07 14:50:38.27	312.44	12.04	-47.7	-48.9	14.8	0.00e+00	0	25	0	2329935872	60	4430
2026-01-07 14:50:39.43	312.65	11.99	-47.7	-48.9	14.8	0.00e+00	0	25	0	2336227328	60	4439
2026-01-07 14:50:40.29	312.80	11.96	-47.6	-48.8	14.8	0.00e+00	0	25	0	2341470208	60	4380
2026-01-07 14:50:41.45	313.00	11.92	-47.6	-48.9	14.8	0.00e+00	0	25	0	2347761664	60	4396
2026-01-07 14:50:42.31	313.15	11.88	-47.8	-49.0	14.8	0.00e+00	0	25	0	2353004544	60	4475
2026-01-07 14:50:43.46	313.35	11.84	-47.7	-49.0	14.8	0.00e+00	0	25	0	2359296000	60	4450
2026-01-07 14:50:44.33	313.50	11.81	-47.8	-49.0	14.8	0.00e+00	0	25	0	2363490304	60	4486
2026-01-07 14:50:45.48	313.70	11.76	-47.8	-49.1	14.8	0.00e+00	0	25	0	2370830336	60	4512
2026-01-07 14:50:46.35	313.85	11.73	-47.8	-49.1	14.8	0.00e+00	0	25	0	2375024640	60	4506
2026-01-07 14:50:47.50	314.05	11.69	-47.9	-49.1	14.7	0.00e+00	0	25	0	2381316096	60	4531
2026-01-07 14:50:48.36	314.20	11.65	-47.8	-49.0	14.8	0.00e+00	0	25	0	2386558976	60	4477
2026-01-07 14:50:49.52	314.40	11.61	-47.7	-49.0	14.8	0.00e+00	0	25	0	2392850432	60	4459
2026-01-07 14:50:50.38	314.55	11.57	-47.7	-48.9	14.8	0.00e+00	0	25	0	2398093312	60	4414
2026-01-07 14:50:51.53	314.74	11.53	-47.6	-48.8	14.8	0.00e+00	0	25	0	2404384768	60	4388
2026-01-07 14:50:52.39	314.89	11.50	-47.6	-48.8	14.8	0.00e+00	0	25	0	2409627648	60	4373
2026-01-07 14:50:53.55	315.08	11.45	-47.6	-48.8	14.8	0.00e+00	0	25	0	2415919104	60	4386
2026-01-07 14:50:54.41	315.23	11.42	-47.7	-48.9	14.8	0.00e+00	0	25	0	2421161984	60	4404
2026-01-07 14:50:55.56	315.42	11.37	-47.8	-49.0	14.7	0.00e+00	0	25	0	2427453440	60	4485
2026-01-07 14:50:56.43	315.57	11.33	-47.8	-49.0	14.7	0.00e+00	0	25	0	2431647744	60	4474
2026-01-07 14:50:57.58	315.76	11.29	-47.9	-49.2	14.7	0.00e+00	0	25	0	2438987776	60	4556
2026-01-07 14:50:58.44	315.91	11.25	-48.0	-49.3	14.8	0.00e+00	0	25	0	2443182080	61	4350
2026-01-07 14:50:59.59	316.10	11.21	-47.9	-49.2	14.8	0.00e+00	0	25	0	2449473536	61	4303
2026-01-07 14:51:00.46	316.24	11.17	-47.9	-49.1	14.8	0.00e+00	0	25	0	2454716416	61	4288
2026-01-07 14:51:01.61	316.44	11.12	-47.8	-49.1	14.8	0.00e+00	0	25	0	2461007872	61	4268
2026-01-07 14:51:02.48	316.58	11.09	-47.9	-49.1	14.8	0.00e+00	0	25	0	2466250752	61	4288
2026-01-07 14:51:03.63	316.77	11.04	-47.8	-49.0	14.9	0.00e+00	0	25	0	2472542208	61	4216
2026-01-07 14:51:04.49	316.91	11.01	-47.7	-49.0	14.9	0.00e+00	0	25	0	2477785088	61	4194
2026-01-07 14:51:05.64	317.10	10.96	-47.7	-48.9	14.9	0.00e+00	0	25	0	2484076544	61	4187
2026-01-07 14:51:06.51	317.24	10.92	-47.8	-49.0	14.9	0.00e+00	0	25	0	2488270848	61	4215
2026-01-07 14:51:07.66	317.43	10.88	-47.7	-49.0	14.9	0.00e+00	0	25	0	2494562304	61	4204
2026-01-07 14:51:08.52	317.57	10.84	-47.7	-49.0	14.9	0.00e+00	0	25	0	2499805184	61	4201
2026-01-07 14:51:09.67	317.76	10.79	-47.7	-49.0	14.9	0.00e+00	0	25	0	2506096640	61	4206
2026-01-07 14:51:10.54	317.90	10.75	-47.8	-49.1	14.8	0.00e+00	0	25	0	2511339520	61	4253
2026-01-07 14:51:11.69	318.08	10.71	-47.8	-49.0	14.8	0.00e+00	0	25	0	2517630976	61	4237
2026-01-07 14:51:12.56	318.22	10.67	-47.8	-49.0	14.8	0.00e+00	0	25	0	2522873856	61	4235
2026-01-07 14:51:13.71	318.41	10.62	-47.8	-49.1	14.8	0.00e+00	0	25	0	2529165312	61	4252
2026-01-07 14:51:14.57	318.55	10.58	-48.0	-49.3	14.7	0.00e+00	0	25	0	2534408192	61	4346
2026-01-07 14:51:15.72	318.73	10.54	-48.0	-49.3	14.8	0.00e+00	0	25	0	2540699648	61	4362
2026-01-07 14:51:16.59	318.87	10.50	-48.1	-49.4	14.7	0.00e+00	0	26	0	2544893952	61	4414
2026-01-07 14:51:17.74	319.05	10.45	-48.1	-49.4	14.7	0.00e+00	0	25	0	2552233984	61	4440
2026-01-07 14:51:18.61	319.19	10.41	-48.3	-49.6	14.6	0.00e+00	0	25	0	2556428288	61	4527
2026-01-07 14:51:19.76	319.37	10.36	-48.2	-49.5	14.7	0.00e+00	0	25	0	2563768320	61	4459
2026-01-07 14:51:20.62	319.51	10.32	-48.2	-49.5	14.7	0.00e+00	0	25	0	2567962624	61	4465
2026-01-07 14:51:21.77	319.69	10.27	-48.2	-49.5	14.6	0.00e+00	0	25	0	2574254080	61	4488
2026-01-07 14:51:22.63	319.82	10.24	-48.2	-49.5	14.6	0.00e+00	0	25	0	2579496960	61	4470
2026-01-07 14:51:23.79	320.00	10.19	-48.2	-49.5	14.6	0.00e+00	0	25	0	2585788416	61	4491
2026-01-07 14:51:24.65	320.14	10.15	-48.2	-49.5	14.6	0.00e+00	0	25	0	2591031296	61	4490
2026-01-07 14:51:25.80	320.32	10.10	-48.1	-49.5	14.6	0.00e+00	0	25	0	2597322752	61	4443
2026-01-07 14:51:26.67	320.45	10.06	-48.1	-49.4	14.7	0.00e+00	0	25	0	2602565632	61	4422
2026-01-07 14:51:27.82	320.63	10.01	-48.1	-49.4	14.7	0.00e+00	0	25	0	2608857088	61	4434
2026-01-07 14:51:28.69	320.76	9.97	-48.2	-49.5	14.7	0.00e+00	0	25	0	2613051392	61	4455
2026-01-07 14:51:29.84	320.94	9.92	-48.3	-49.6	14.6	0.00e+00	0	25	0	2620391424	61	4499
2026-01-07 14:51:30.70	321.07	9.88	-48.2	-49.5	14.6	0.00e+00	0	25	0	2624585728	61	4462
2026-01-07 14:51:31.85	321.24	9.83	-48.2	-49.4	14.6	0.00e+00	0	25	0	2630877184	61	4436
2026-01-07 14:51:32.72	321.38	9.79	-48.1	-49.4	14.7	0.00e+00	0	26	0	2636120064	61	4420
2026-01-07 14:51:33.87	321.55	9.74	-48.1	-49.4	14.7	0.00e+00	0	26	0	2642411520	61	4436
2026-01-07 14:51:34.73	321.68	9.70	-48.2	-49.5	14.6	0.00e+00	0	25	0	2647654400	61	4451
2026-01-07 14:51:35.88	321.85	9.65	-48.2	-49.4	14.6	0.00e+00	0	25	0	2653945856	61	4440
2026-01-07 14:51:36.74	321.98	9.61	-48.2	-49.5	14.6	0.00e+00	0	25	0	2659188736	61	4448
2026-01-07 14:51:37.89	322.16	9.56	-48.2	-49.6	14.6	0.00e+00	0	25	0	2665480192	61	4498
2026-01-07 14:51:38.76	322.29	9.52	-48.2	-49.5	14.6	0.00e+00	0	25	0	2669674496	61	4470
2026-01-07 14:51:39.91	322.46	9.47	-48.1	-49.4	14.6	0.00e+00	0	25	0	2677014528	61	4436
2026-01-07 14:51:40.77	322.58	9.43	-48.0	-49.3	14.7	0.00e+00	0	25	0	2681208832	61	4360
2026-01-07 14:51:41.92	322.76	9.38	-48.1	-49.4	14.7	0.00e+00	0	25	0	2687500288	61	4426
2026-01-07 14:51:42.79	322.88	9.34	-48.1	-49.4	14.7	0.00e+00	0	25	0	2692743168	61	4398
2026-01-07 14:51:43.94	323.05	9.29	-48.0	-49.3	14.6	0.00e+00	0	25	0	2699034624	61	4381
2026-01-07 14:51:44.80	323.18	9.25	-48.1	-49.4	14.6	0.00e+00	0	25	0	2704277504	61	4419
2026-01-07 14:51:45.96	323.35	9.20	-48.1	-49.3	14.7	0.00e+00	0	26	0	2710568960	61	4383
2026-01-07 14:51:46.81	323.47	9.16	-48.1	-49.4	14.7	0.00e+00	0	25	0	2715811840	61	4400
2026-01-07 14:51:47.96	323.64	9.11	-48.2	-49.5	14.6	0.00e+00	0	25	0	2722103296	61	4451
2026-01-07 14:51:48.83	323.77	9.07	-48.1	-49.4	14.6	0.00e+00	0	25	0	2726297600	61	4419
2026-01-07 14:51:49.98	323.93	9.01	-48.1	-49.4	14.5	0.00e+00	0	25	0	2733637632	61	4402
2026-01-07 14:51:50.84	324.06	8.97	-48.2	-49.5	14.5	0.00e+00	0	25	0	2737831936	61	4445
2026-01-07 14:51:52.00	324.22	8.92	-48.2	-49.5	14.6	0.00e+00	0	25	0	2744123392	61	4446
2026-01-07 14:51:52.86	324.34	8.88	-48.1	-49.4	14.7	0.00e+00	0	25	0	2749366272	61	4407
2026-01-07 14:51:54.02	324.51	8.83	-48.2	-49.5	14.6	0.00e+00	0	25	0	2755657728	61	4476
2026-01-07 14:51:54.88	324.63	8.79	-48.3	-49.7	14.4	0.00e+00	0	25	0	2760900608	61	4547
2026-01-07 14:51:56.03	324.80	8.73	-48.4	-49.8	14.3	0.00e+00	0	25	0	2767192064	61	4603
2026-01-07 14:51:56.90	324.92	8.69	-48.4	-49.8	14.4	0.00e+00	0	25	0	2772434944	62	4366
2026-01-07 14:51:58.04	325.08	8.64	-48.5	-49.9	14.1	0.00e+00	0	25	0	2778726400	62	4404
2026-01-07 14:51:58.91	325.20	8.60	-48.5	-49.9	14.1	0.00e+00	0	25	0	2783969280	62	4398
2026-01-07 14:52:00.06	325.36	8.55	-48.4	-49.7	14.6	0.00e+00	0	25	0	2790260736	62	4332
2026-01-07 14:52:00.92	325.48	8.51	-48.5	-49.9	14.5	0.00e+00	0	25	0	2794455040	62	4395
2026-01-07 14:52:02.08	325.64	8.45	-48.5	-49.8	13.7	0.00e+00	0	25	0	2801795072	62	4381
2026-01-07 14:52:02.94	325.76	8.41	-48.4	-49.8	13.3	0.00e+00	0	25	0	2805989376	62	4362
2026-01-07 14:52:04.09	325.92	8.36	-48.4	-49.8	13.1	0.00e+00	0	25	0	2812280832	62	4348
2026-01-07 14:52:04.96	326.04	8.32	-48.4	-49.9	12.2	0.00e+00	0	25	0	2817523712	62	4430
2026-01-07 14:52:06.11	326.20	8.26	-48.4	-49.9	12.7	0.00e+00	0	25	0	2823815168	62	4411
2026-01-07 14:52:06.97	326.32	8.22	-48.5	-50.0	12.8	0.00e+00	0	25	0	2829058048	62	4443
2026-01-07 14:52:08.12	326.48	8.17	-48.6	-50.0	13.9	0.00e+00	0	25	0	2835349504	62	4446
2026-01-07 14:52:08.99	326.59	8.13	-48.6	-49.9	14.2	0.00e+00	0	25	0	2840592384	62	4433
2026-01-07 14:52:10.14	326.75	8.07	-48.6	-50.0	14.3	0.00e+00	0	25	0	2846883840	62	4442
2026-01-07 14:52:11.00	326.87	8.03	-48.7	-50.1	14.3	0.00e+00	0	26	0	2851078144	62	4505
2026-01-07 14:52:12.16	327.02	7.98	-48.7	-50.2	14.4	0.00e+00	0	25	0	2858418176	62	4556
2026-01-07 14:52:13.02	327.14	7.94	-48.7	-50.1	14.5	0.00e+00	0	25	0	2862612480	62	4532
2026-01-07 14:52:14.17	327.29	7.88	-48.6	-50.0	14.4	0.00e+00	0	25	0	2868903936	62	4475
2026-01-07 14:52:15.04	327.41	7.84	-48.5	-50.0	14.4	0.00e+00	0	25	0	2874146816	62	4462
2026-01-07 14:52:16.20	327.56	7.79	-48.6	-50.0	14.5	0.00e+00	0	25	0	2880438272	62	4455
2026-01-07 14:52:17.06	327.68	7.75	-48.8	-50.2	14.4	0.00e+00	0	25	0	2885681152	62	4596
2026-01-07 14:52:18.22	327.83	7.69	-48.8	-50.2	14.4	0.00e+00	0	25	0	2891972608	62	4590
2026-01-07 14:52:19.08	327.95	7.65	-49.4	-50.4	14.3	0.00e+00	0	26	0	2897215488	63	4418
2026-01-07 14:52:20.24	328.10	7.60	-48.9	-50.3	14.4	0.00e+00	0	25	0	2903506944	63	4371
2026-01-07 14:52:21.10	328.21	7.56	-48.9	-50.3	14.4	0.00e+00	0	25	0	2907701248	63	4348
2026-01-07 14:52:22.25	328.36	7.50	-48.6	-50.0	14.6	0.00e+00	0	25	0	2915041280	63	4215
2026-01-07 14:52:23.11	328.47	7.46	-48.8	-50.1	14.5	0.00e+00	0	25	0	2919235584	63	4283
2026-01-07 14:52:24.26	328.62	7.41	-48.6	-50.0	14.6	0.00e+00	0	25	0	2926575616	63	4218
2026-01-07 14:52:25.13	328.74	7.36	-48.7	-50.1	14.5	0.00e+00	0	25	0	2930769920	63	4268
2026-01-07 14:52:26.28	328.88	7.31	-48.8	-50.2	14.5	0.00e+00	0	26	0	2937061376	63	4317
2026-01-07 14:52:27.14	328.99	7.27	-48.8	-50.1	14.5	0.00e+00	0	25	0	2942304256	63	4285
2026-01-07 14:52:28.30	329.14	7.21	-48.8	-50.1	14.5	0.00e+00	0	25	0	2948595712	63	4270
2026-01-07 14:52:29.16	329.25	7.17	-48.7	-50.1	14.6	0.00e+00	0	25	0	2953838592	63	4257
2026-01-07 14:52:30.30	329.40	7.12	-48.9	-50.3	14.5	0.00e+00	0	25	0	2960130048	63	4356
2026-01-07 14:52:31.17	329.51	7.08	-48.7	-50.0	14.5	0.00e+00	0	25	0	2965372928	63	4230
2026-01-07 14:52:32.32	329.65	7.02	-48.7	-50.1	14.5	0.00e+00	0	25	0	2971664384	63	4280
2026-01-07 14:52:33.18	329.76	6.98	-48.7	-50.1	14.4	0.00e+00	0	25	0	2975858688	63	4271
2026-01-07 14:52:34.34	329.91	6.92	-48.8	-50.2	14.4	0.00e+00	0	25	0	2983198720	63	4318
2026-01-07 14:52:35.21	330.02	6.88	-48.7	-50.1	14.5	0.00e+00	0	25	0	2987393024	63	4264
2026-01-07 14:52:36.36	330.16	6.83	-49.0	-50.4	14.4	0.00e+00	0	25	0	2994733056	63	4412
2026-01-07 14:52:37.22	330.27	6.79	-48.9	-50.3	14.4	0.00e+00	0	25	0	2998927360	63	4386
2026-01-07 14:52:38.38	330.41	6.73	-49.1	-50.6	14.3	0.00e+00	0	25	0	3005218816	63	4516
2026-01-07 14:52:39.24	330.52	6.69	-49.0	-50.4	14.4	0.00e+00	0	25	0	3010461696	63	4428
2026-01-07 14:52:40.40	330.66	6.63	-48.9	-50.3	14.4	0.00e+00	0	25	0	3016753152	63	4388
2026-01-07 14:52:41.26	330.77	6.59	-49.2	-50.7	14.2	0.00e+00	0	25	0	3021996032	63	4551
2026-01-07 14:52:42.41	330.91	6.54	-49.0	-50.4	14.4	0.00e+00	0	25	0	3028287488	63	4420
2026-01-07 14:52:43.28	331.02	6.50	-49.2	-50.7	14.2	0.00e+00	0	26	0	3033530368	63	4579
2026-01-07 14:52:44.43	331.16	6.44	-49.3	-50.7	14.2	0.00e+00	0	25	0	3039821824	63	4590
2026-01-07 14:52:45.29	331.26	6.40	-49.2	-50.6	14.2	0.00e+00	0	25	0	3044016128	63	4536
2026-01-07 14:52:46.45	331.40	6.34	-49.2	-50.6	14.2	0.00e+00	0	26	0	3050307584	63	4534
2026-01-07 14:52:47.31	331.51	6.30	-49.2	-50.7	14.2	0.00e+00	0	26	0	3055550464	63	4559
2026-01-07 14:52:48.46	331.64	6.25	-49.0	-50.5	14.3	0.00e+00	0	25	0	3061841920	63	4457
2026-01-07 14:52:49.32	331.75	6.20	-49.1	-50.6	14.2	0.00e+00	0	25	0	3067084800	63	4502
2026-01-07 14:52:50.47	331.88	6.15	-49.1	-50.5	14.3	0.00e+00	0	25	0	3073376256	63	4493
2026-01-07 14:52:51.34	331.99	6.11	-49.0	-50.5	14.3	0.00e+00	0	25	0	3078619136	63	4442
2026-01-07 14:52:52.49	332.12	6.05	-49.3	-50.8	14.2	0.00e+00	0	25	0	3084910592	63	4613
2026-01-07 14:52:53.35	332.23	6.01	-49.4	-50.9	14.2	0.00e+00	0	25	0	3089104896	64	4395
2026-01-07 14:52:54.51	332.36	5.95	-49.1	-50.6	14.4	0.00e+00	0	25	0	3096444928	64	4245
2026-01-07 14:52:55.37	332.46	5.91	-49.4	-50.9	14.2	0.00e+00	0	25	0	3100639232	64	4426
2026-01-07 14:52:56.52	332.60	5.86	-49.1	-50.5	14.4	0.00e+00	0	25	0	3107979264	64	4240
2026-01-07 14:52:57.39	332.70	5.82	-49.5	-51.0	14.1	0.00e+00	0	25	0	3112173568	64	4479
2026-01-07 14:52:58.54	332.84	5.76	-49.4	-50.9	14.2	0.00e+00	0	25	0	3118465024	64	4413
2026-01-07 14:52:59.40	332.94	5.72	-49.4	-50.9	14.2	0.00e+00	0	25	0	3123707904	64	4434
2026-01-07 14:53:00.55	333.07	5.66	-49.7	-51.3	14.0	0.00e+00	0	25	0	3129999360	64	4615
2026-01-07 14:53:01.42	333.17	5.62	-49.4	-50.9	14.2	0.00e+00	0	25	0	3135242240	64	4427
2026-01-07 14:53:02.57	333.30	5.57	-49.6	-51.1	14.1	0.00e+00	0	25	0	3141533696	64	4509
2026-01-07 14:53:03.44	333.40	5.52	-49.8	-51.4	13.9	0.00e+00	0	25	0	3146776576	64	4684
2026-01-07 14:53:04.58	333.53	5.47	-49.5	-51.0	14.1	0.00e+00	0	25	0	3153068032	64	4490
2026-01-07 14:53:05.45	333.63	5.43	-49.4	-50.9	14.1	0.00e+00	0	25	0	3157262336	64	4440
2026-01-07 14:53:06.60	333.76	5.37	-49.7	-51.3	13.9	0.00e+00	0	25	0	3164602368	64	4649
2026-01-07 14:53:07.46	333.86	5.33	-49.8	-51.3	14.0	0.00e+00	0	25	0	3168796672	65	4387
2026-01-07 14:53:08.61	333.99	5.27	-49.7	-51.3	14.0	0.00e+00	0	25	0	3176136704	65	4370
2026-01-07 14:53:09.48	334.09	5.23	-49.8	-51.5	13.9	0.00e+00	0	25	0	3180331008	65	4448
2026-01-07 14:53:10.63	334.22	5.18	-49.4	-50.9	14.2	0.00e+00	0	25	0	3186622464	65	4175
2026-01-07 14:53:11.49	334.31	5.13	-49.2	-50.8	14.1	0.00e+00	0	25	0	3191865344	64	4355
2026-01-07 14:53:12.64	334.44	5.08	-50.1	-51.8	13.5	0.00e+00	0	25	0	3198156800	65	4650
2026-01-07 14:53:13.51	334.54	5.04	-50.8	-52.8	13.0	0.00e+00	0	25	0	3203399680	66	4909
2026-01-07 14:53:14.66	334.66	4.98	-51.7	-53.8	12.9	0.00e+00	0	25	0	3209691136	68	4894
2026-01-07 14:53:15.53	334.76	4.94	-58.2	-70.5	3.8	4.87e-01	0	25	104	3212836864	81	15841
2026-01-07 14:53:16.68	334.89	4.88	-58.8	-71.8	3.8	8.45e-01	0	25	104	3212836864	82	17444
2026-01-07 14:53:17.55	334.98	4.84	-59.0	-72.1	3.8	8.45e-01	0	26	104	3212836864	83	17032
2026-01-07 14:53:18.70	335.11	4.79	-59.3	-72.4	3.8	8.47e-01	0	25	104	3212836864	83	17487
2026-01-07 14:53:19.56	335.20	4.75	-59.6	-72.7	3.8	8.46e-01	0	25	104	3212836864	84	17133
2026-01-07 14:53:20.72	335.33	4.69	-59.8	-72.8	3.8	8.46e-01	0	25	104	3212836864	84	17380
2026-01-07 14:53:21.58	335.42	4.65	-59.9	-72.9	3.8	8.45e-01	0	25	104	3212836864	84	17665
2026-01-07 14:53:22.73	335.55	4.59	-60.0	-73.1	3.8	8.46e-01	0	25	104	3212836864	85	16932
2026-01-07 14:53:23.59	335.64	4.55	-60.0	-73.1	3.8	8.47e-01	0	25	104	3212836864	85	17014
2026-01-07 14:53:24.74	335.76	4.50	-60.1	-73.1	3.8	8.46e-01	0	25	104	3212836864	85	17060
2026-01-07 14:53:25.61	335.85	4.45	-60.1	-73.2	3.8	8.46e-01	0	25	104	3212836864	85	17227
2026-01-07 14:53:26.76	335.98	4.40	-60.2	-73.2	3.8	8.46e-01	0	25	104	3212836864	85	17256
2026-01-07 14:53:27.63	336.07	4.36	-60.2	-73.2	3.8	8.46e-01	0	25	104	3212836864	85	17244
2026-01-07 14:53:28.78	336.19	4.30	-60.2	-73.3	3.8	8.46e-01	0	25	104	3212836864	85	17336
2026-01-07 14:53:29.65	336.28	4.26	-60.2	-73.3	3.8	8.45e-01	0	25	104	3212836864	85	17432
2026-01-07 14:53:30.80	336.40	4.20	-60.2	-73.3	3.8	8.45e-01	0	25	104	3212836864	85	17345
2026-01-07 14:53:31.66	336.50	4.16	-60.3	-73.3	3.8	8.46e-01	0	25	104	3212836864	85	17445
2026-01-07 14:53:32.82	336.62	4.11	-60.3	-73.3	3.8	8.45e-01	0	25	104	3212836864	85	17463
2026-01-07 14:53:33.68	336.71	4.06	-60.3	-73.4	3.8	8.47e-01	0	25	104	3212836864	85	17540
2026-01-07 14:53:34.84	336.83	4.01	-60.3	-73.4	3.8	8.45e-01	0	25	104	3212836864	85	17548
2026-01-07 14:53:35.70	336.92	3.97	-60.3	-73.4	3.8	8.46e-01	0	25	104	3212836864	85	17558
2026-01-07 14:53:36.86	337.04	3.91	-60.3	-73.4	3.8	8.45e-01	0	26	104	3212836864	85	17524
2026-01-07 14:53:37.72	337.12	3.87	-60.2	-73.3	3.8	8.46e-01	0	26	104	3212836864	85	17397
2026-01-07 14:53:38.87	337.24	3.81	-60.2	-73.3	3.8	8.46e-01	0	25	104	3212836864	85	17331
2026-01-07 14:53:39.74	337.33	3.77	-60.2	-73.3	3.8	8.45e-01	0	25	104	3212836864	85	17315
2026-01-07 14:53:40.89	337.45	3.72	-60.2	-73.2	3.8	8.45e-01	0	25	104	3212836864	85	17279
2026-01-07 14:53:41.75	337.54	3.68	-60.2	-73.3	3.8	8.46e-01	0	25	104	3212836864	85	17283
2026-01-07 14:53:42.91	337.65	3.62	-60.1	-73.2	3.8	8.45e-01	0	25	104	3212836864	85	17270
2026-01-07 14:53:43.78	337.74	3.58	-60.1	-73.2	3.8	8.45e-01	0	25	104	3212836864	85	17217
2026-01-07 14:53:44.93	337.86	3.52	-60.1	-73.2	3.8	8.45e-01	0	25	104	3212836864	85	17235
2026-01-07 14:53:45.79	337.94	3.48	-60.1	-73.2	3.8	8.45e-01	0	25	104	3212836864	85	17210
2026-01-07 14:53:46.94	338.06	3.43	-60.1	-73.2	3.8	8.45e-01	0	25	104	3212836864	85	17191
2026-01-07 14:53:47.80	338.15	3.39	-60.1	-73.2	3.8	8.45e-01	0	25	104	3212836864	85	17184
2026-01-07 14:53:48.96	338.26	3.33	-60.1	-73.2	3.8	8.45e-01	0	26	104	3212836864	85	17132
2026-01-07 14:53:49.82	338.35	3.29	-60.1	-73.2	3.8	8.45e-01	0	25	104	3212836864	85	17150
2026-01-07 14:53:50.98	338.46	3.23	-60.0	-73.1	3.8	8.46e-01	0	25	104	3212836864	85	17045
2026-01-07 14:53:51.84	338.55	3.19	-60.0	-73.1	3.8	8.46e-01	0	26	104	3212836864	85	17040
2026-01-07 14:53:52.99	338.66	3.14	-60.0	-73.1	3.8	8.46e-01	0	26	104	3212836864	85	17048
2026-01-07 14:53:53.86	338.74	3.09	-60.0	-73.1	3.9	8.46e-01	0	25	104	3212836864	85	17041
2026-01-07 14:53:55.01	338.86	3.04	-60.0	-73.1	3.8	8.46e-01	0	25	104	3212836864	85	17058
2026-01-07 14:53:55.88	338.94	3.00	-60.0	-73.1	3.8	8.46e-01	0	25	104	3212836864	85	17039
2026-01-07 14:53:57.04	339.05	2.94	-60.0	-73.1	3.8	8.45e-01	0	25	104	3212836864	85	17041
2026-01-07 14:53:57.90	339.14	2.90	-60.0	-73.1	3.8	8.45e-01	0	25	104	3212836864	85	16988
2026-01-07 14:53:59.05	339.25	2.85	-60.0	-73.1	3.8	8.46e-01	0	25	104	3212836864	85	16960
2026-01-07 14:53:59.92	339.33	2.81	-60.0	-73.1	3.8	8.45e-01	0	25	104	3212836864	85	16998
2026-01-07 14:54:01.07	339.44	2.75	-60.0	-73.1	3.8	8.46e-01	0	25	104	3212836864	85	16900
2026-01-07 14:54:01.94	339.53	2.71	-60.0	-73.1	3.8	8.45e-01	0	25	104	3212836864	85	16924
2026-01-07 14:54:03.09	339.63	2.65	-60.0	-73.1	3.8	8.45e-01	0	25	104	3212836864	85	16929
2026-01-07 14:54:03.96	339.72	2.61	-60.0	-73.1	3.8	8.46e-01	0	26	104	3212836864	85	16899
2026-01-07 14:54:05.10	339.83	2.56	-60.0	-73.1	3.8	8.46e-01	0	25	104	3212836864	85	16922
2026-01-07 14:54:05.97	339.91	2.52	-60.0	-73.1	3.8	8.44e-01	0	25	104	3212836864	85	16889
2026-01-07 14:54:07.12	340.02	2.46	-60.0	-73.1	3.8	8.45e-01	0	25	104	3212836864	85	16901
2026-01-07 14:54:07.98	340.10	2.42	-60.0	-73.0	3.8	8.46e-01	0	26	104	3212836864	85	16854
2026-01-07 14:54:09.14	340.20	2.37	-60.0	-73.1	3.8	8.46e-01	0	25	104	3212836864	85	16937
2026-01-07 14:54:09.99	340.28	2.33	-60.0	-73.1	3.8	8.45e-01	0	26	104	3212836864	85	16928
2026-01-07 14:54:11.15	340.39	2.27	-60.0	-73.0	3.8	8.46e-01	0	25	104	3212836864	85	16838
2026-01-07 14:54:12.02	340.47	2.23	-59.9	-73.0	3.8	8.46e-01	0	25	104	3212836864	85	16852
2026-01-07 14:54:13.17	340.58	2.17	-59.9	-73.0	3.8	8.45e-01	0	26	104	3212836864	85	16779
2026-01-07 14:54:14.03	340.66	2.13	-59.9	-73.0	3.8	8.45e-01	0	26	104	3212836864	85	16882
2026-01-07 14:54:15.19	340.76	2.08	-59.9	-73.0	3.8	8.45e-01	0	25	104	3212836864	85	16835
2026-01-07 14:54:16.05	340.84	2.04	-59.9	-73.0	3.8	8.46e-01	0	25	104	3212836864	85	16845
