passes_logs/2026/01/07/R3.2S_Murmansk/R3.2S_Murmansk__20260107_111853_FENGYUN_3D_rec.log

#Pass ID: 20260107_111853_FENGYUN 3D
#Satellite: FENGYUN 3D
#Configuration: FENGYUN 3D
#almurnet v.1.7.20251203
#Start time: 2026-01-07 11:18:55

#Version: 2.2.20231116
#Station: R3.2S_Murmansk
#Location: 33.079688 lon 68.888172 lat
#TLE: 1 43010U 17072A   26006.26440730  .00000376  00000+0  19957-3 0  9994
#TLE: 2 43010  98.9925 337.9455 0002045 123.9195 236.2175 14.19693586422016

#Time	Az	El	Level	Level2	SNR	BER	BlckErr	Temp	State	Recorded	gain1	gain2
2026-01-07 11:18:55.87	146.00	2.13	-57.4	-70.4	3.8	8.45e-01	0	23	0	0	81	15713
2026-01-07 11:18:56.88	146.00	2.19	-57.4	-70.4	3.8	8.47e-01	0	23	104	0	79	17564
2026-01-07 11:18:57.89	146.00	2.26	-57.4	-70.4	3.8	8.47e-01	0	23	104	0	79	17644
2026-01-07 11:18:58.90	145.99	2.32	-57.4	-70.5	3.8	8.45e-01	0	23	104	0	80	16715
2026-01-07 11:18:59.90	145.99	2.39	-57.4	-70.4	3.8	8.45e-01	0	23	104	0	80	16689
2026-01-07 11:19:00.91	145.99	2.46	-57.4	-70.4	3.8	8.46e-01	0	23	104	0	80	16689
2026-01-07 11:19:01.92	145.98	2.52	-57.4	-70.4	3.8	8.45e-01	0	23	104	0	80	16624
2026-01-07 11:19:02.93	145.98	2.59	-57.4	-70.4	3.8	8.45e-01	0	23	104	0	80	16626
2026-01-07 11:19:03.93	145.98	2.65	-57.4	-70.4	3.8	8.45e-01	0	23	104	0	80	16572
2026-01-07 11:19:04.94	145.98	2.72	-57.4	-70.4	3.8	8.46e-01	0	23	104	0	80	16533
2026-01-07 11:19:05.95	145.97	2.79	-57.5	-70.4	3.8	8.45e-01	0	23	104	0	80	16510
2026-01-07 11:19:06.96	145.97	2.85	-57.4	-70.4	3.8	8.46e-01	0	24	104	0	80	16514
2026-01-07 11:19:07.97	145.97	2.92	-57.4	-70.3	3.8	8.45e-01	0	23	104	0	80	16420
2026-01-07 11:19:08.97	145.96	2.99	-57.4	-70.3	3.8	8.45e-01	0	23	104	0	80	16324
2026-01-07 11:19:09.99	145.96	3.05	-57.4	-70.2	3.8	8.44e-01	0	24	104	0	80	16145
2026-01-07 11:19:11.00	145.96	3.12	-57.4	-70.1	3.8	8.45e-01	0	23	104	0	80	16010
2026-01-07 11:19:12.00	145.96	3.19	-57.4	-69.9	3.8	8.45e-01	0	23	104	0	80	15641
2026-01-07 11:19:13.01	145.95	3.26	-57.4	-69.7	3.8	8.46e-01	0	24	104	0	80	15252
2026-01-07 11:19:14.02	145.95	3.32	-57.4	-69.3	3.8	8.45e-01	0	24	104	0	80	14704
2026-01-07 11:19:15.03	145.95	3.39	-57.3	-69.0	3.8	8.46e-01	0	24	104	0	80	14055
2026-01-07 11:19:16.04	145.94	3.46	-57.3	-68.4	3.8	8.45e-01	0	23	104	0	80	13134
2026-01-07 11:19:17.04	145.94	3.53	-57.2	-67.8	3.9	8.44e-01	0	24	104	0	80	12255
2026-01-07 11:19:18.05	145.94	3.60	-57.2	-67.0	4.2	8.38e-01	0	24	0	0	80	11243
2026-01-07 11:19:19.06	145.93	3.67	-57.0	-65.8	4.5	8.27e-01	0	24	0	0	80	9823
2026-01-07 11:19:20.07	145.93	3.73	-56.9	-65.1	4.8	7.85e-01	0	24	0	0	80	9000
2026-01-07 11:19:21.08	145.93	3.80	-56.7	-64.2	5.3	7.49e-01	0	24	0	0	80	8132
2026-01-07 11:19:22.09	145.92	3.87	-56.3	-62.6	6.3	3.51e-01	0	24	0	4194304	79	7185
2026-01-07 11:19:23.10	145.92	3.94	-56.1	-61.8	7.0	1.65e-01	0	24	0	9437184	78	6894
2026-01-07 11:19:24.11	145.92	4.01	-55.8	-60.9	7.8	8.08e-02	0	24	0	15728640	78	6257
2026-01-07 11:19:25.11	145.91	4.08	-55.3	-59.8	8.7	2.56e-02	0	24	0	20971520	77	5806
2026-01-07 11:19:26.12	145.91	4.15	-54.7	-58.5	9.9	6.95e-03	0	24	0	27262976	76	5285
2026-01-07 11:19:27.13	145.91	4.22	-54.1	-57.5	10.5	8.65e-04	0	24	0	32505856	74	5305
2026-01-07 11:19:28.13	145.90	4.29	-53.4	-56.3	11.4	2.54e-04	0	24	0	37748736	73	4923
2026-01-07 11:19:29.15	145.90	4.36	-53.1	-55.9	11.7	6.40e-05	0	24	0	44040192	72	4930
2026-01-07 11:19:30.16	145.89	4.43	-52.7	-55.3	12.2	1.14e-05	0	24	0	49283072	72	4622
2026-01-07 11:19:31.17	145.89	4.50	-52.4	-54.8	12.4	0.00e+00	0	24	0	55574528	71	4629
2026-01-07 11:19:32.17	145.89	4.57	-52.3	-54.7	12.5	5.70e-06	0	24	0	60817408	71	4594
2026-01-07 11:19:33.18	145.88	4.65	-52.2	-54.5	12.7	1.10e-06	0	24	0	67108864	71	4474
2026-01-07 11:19:34.18	145.88	4.72	-52.0	-54.3	12.7	0.00e+00	0	24	0	72351744	70	4610
2026-01-07 11:19:35.19	145.88	4.79	-51.9	-54.1	12.8	0.00e+00	0	24	0	77594624	70	4535
2026-01-07 11:19:36.20	145.87	4.86	-51.9	-54.1	12.9	0.00e+00	0	24	0	83886080	70	4516
2026-01-07 11:19:37.21	145.87	4.93	-52.0	-54.3	12.7	0.00e+00	0	24	0	89128960	70	4628
2026-01-07 11:19:38.22	145.86	5.00	-52.2	-54.5	12.5	0.00e+00	0	24	0	95420416	70	4757
2026-01-07 11:19:39.22	145.86	5.08	-52.3	-54.7	12.4	1.10e-06	0	24	0	100663296	70	4849
2026-01-07 11:19:40.22	145.86	5.15	-53.3	-56.2	11.4	1.37e-05	0	24	0	105906176	71	5420
2026-01-07 11:19:41.23	145.85	5.22	-56.1	-61.5	7.1	5.34e-01	0	24	0	111149056	78	6710
2026-01-07 11:19:42.25	145.85	5.29	-49.4	-51.1	14.2	0.00e+00	0	24	0	116391936	65	4246
2026-01-07 11:19:43.26	145.84	5.37	-50.2	-52.0	13.9	0.00e+00	0	24	0	122683392	67	4204
2026-01-07 11:19:44.26	145.84	5.44	-54.7	-58.8	9.2	6.19e-03	0	24	0	127926272	75	5847
2026-01-07 11:19:45.27	145.84	5.51	-49.3	-50.9	14.3	0.00e+00	0	24	0	134217728	65	4181
2026-01-07 11:19:46.28	145.83	5.59	-49.3	-50.9	14.3	0.00e+00	0	24	0	139460608	65	4189
2026-01-07 11:19:47.29	145.83	5.66	-49.1	-50.7	14.3	0.00e+00	0	24	0	145752064	64	4298
2026-01-07 11:19:48.30	145.82	5.74	-49.2	-50.9	14.2	0.00e+00	0	24	0	150994944	64	4405
2026-01-07 11:19:49.31	145.82	5.81	-49.1	-50.7	14.3	0.00e+00	0	24	0	156237824	64	4299
2026-01-07 11:19:50.32	145.81	5.89	-49.0	-50.6	14.4	0.00e+00	0	24	0	162529280	64	4258
2026-01-07 11:19:51.33	145.81	5.96	-49.0	-50.6	14.4	0.00e+00	0	24	0	167772160	64	4247
2026-01-07 11:19:52.34	145.80	6.04	-49.0	-50.6	14.4	0.00e+00	0	24	0	174063616	64	4270
2026-01-07 11:19:53.34	145.80	6.11	-49.0	-50.5	14.4	0.00e+00	0	24	0	179306496	64	4235
2026-01-07 11:19:54.34	145.80	6.19	-48.9	-50.5	14.4	0.00e+00	0	24	0	184549376	64	4229
2026-01-07 11:19:55.35	145.79	6.26	-49.0	-50.5	14.4	0.00e+00	0	24	0	190840832	64	4236
2026-01-07 11:19:56.36	145.79	6.34	-48.8	-50.3	14.6	0.00e+00	0	24	0	196083712	64	4106
2026-01-07 11:19:57.37	145.78	6.41	-48.9	-50.5	14.4	0.00e+00	0	24	0	202375168	64	4219
2026-01-07 11:19:58.37	145.78	6.49	-48.9	-50.5	14.5	0.00e+00	0	24	0	207618048	64	4195
2026-01-07 11:19:59.38	145.77	6.57	-48.6	-50.1	14.5	0.00e+00	0	24	0	212860928	63	4291
2026-01-07 11:20:00.39	145.77	6.64	-48.8	-50.3	14.4	0.00e+00	0	24	0	219152384	63	4357
2026-01-07 11:20:01.40	145.76	6.72	-48.9	-50.5	14.3	0.00e+00	0	24	0	224395264	63	4450
2026-01-07 11:20:02.41	145.76	6.80	-48.7	-50.3	14.5	0.00e+00	0	24	0	230686720	63	4343
2026-01-07 11:20:03.42	145.75	6.87	-48.8	-50.3	14.4	0.00e+00	0	24	0	235929600	63	4386
2026-01-07 11:20:04.43	145.75	6.95	-48.7	-50.3	14.4	0.00e+00	0	24	0	242221056	63	4352
2026-01-07 11:20:05.44	145.74	7.03	-48.7	-50.2	14.5	0.00e+00	0	24	0	247463936	63	4315
2026-01-07 11:20:06.45	145.74	7.11	-48.7	-50.3	14.5	0.00e+00	0	24	0	252706816	63	4349
2026-01-07 11:20:07.46	145.73	7.19	-48.8	-50.3	14.4	0.00e+00	0	24	0	258998272	63	4384
2026-01-07 11:20:08.46	145.73	7.27	-48.8	-50.3	14.5	0.00e+00	0	24	0	264241152	63	4367
2026-01-07 11:20:09.47	145.72	7.34	-48.5	-50.0	14.6	0.00e+00	0	25	0	270532608	63	4232
2026-01-07 11:20:10.48	145.72	7.42	-48.6	-50.1	14.5	0.00e+00	0	24	0	275775488	63	4290
2026-01-07 11:20:11.49	145.71	7.50	-48.7	-50.2	14.5	0.00e+00	0	24	0	281018368	63	4328
2026-01-07 11:20:12.49	145.71	7.58	-48.6	-50.1	14.5	0.00e+00	0	24	0	287309824	63	4281
2026-01-07 11:20:13.50	145.70	7.66	-48.7	-50.2	14.5	0.00e+00	0	24	0	292552704	63	4314
2026-01-07 11:20:14.50	145.70	7.74	-48.5	-49.9	14.7	0.00e+00	0	24	0	297795584	63	4191
2026-01-07 11:20:15.50	145.69	7.82	-48.5	-50.0	14.6	0.00e+00	0	24	0	304087040	63	4225
2026-01-07 11:20:16.52	145.68	7.90	-48.6	-50.1	14.6	0.00e+00	0	24	0	309329920	63	4245
2026-01-07 11:20:17.52	145.68	7.98	-48.6	-50.0	14.6	0.00e+00	0	24	0	315621376	63	4235
2026-01-07 11:20:18.53	145.67	8.06	-48.4	-49.8	14.7	0.00e+00	0	24	0	320864256	63	4144
2026-01-07 11:20:19.54	145.67	8.15	-48.4	-49.8	14.7	0.00e+00	0	24	0	327155712	63	4140
2026-01-07 11:20:20.55	145.66	8.23	-48.2	-49.7	14.8	0.00e+00	0	25	0	332398592	63	4059
2026-01-07 11:20:21.56	145.66	8.31	-48.2	-49.7	14.7	0.00e+00	0	25	0	337641472	62	4295
2026-01-07 11:20:22.57	145.65	8.39	-48.1	-49.6	14.7	0.00e+00	0	25	0	343932928	62	4247
2026-01-07 11:20:23.58	145.64	8.48	-48.1	-49.5	14.7	0.00e+00	0	25	0	349175808	62	4240
2026-01-07 11:20:24.59	145.64	8.56	-48.1	-49.5	14.8	0.00e+00	0	25	0	355467264	62	4208
2026-01-07 11:20:25.60	145.63	8.64	-48.1	-49.6	14.7	0.00e+00	0	25	0	360710144	62	4246
2026-01-07 11:20:26.61	145.63	8.72	-48.0	-49.4	14.8	0.00e+00	0	25	0	365953024	62	4174
2026-01-07 11:20:27.62	145.62	8.81	-48.1	-49.6	14.7	0.00e+00	0	24	0	372244480	62	4246
2026-01-07 11:20:28.63	145.61	8.89	-48.0	-49.4	14.8	0.00e+00	0	24	0	377487360	62	4169
2026-01-07 11:20:29.64	145.61	8.98	-48.0	-49.4	14.8	0.00e+00	0	25	0	383778816	62	4170
2026-01-07 11:20:30.65	145.60	9.06	-47.9	-49.3	14.8	0.00e+00	0	25	0	389021696	62	4137
2026-01-07 11:20:31.66	145.60	9.15	-48.1	-49.6	14.8	0.00e+00	0	25	0	394264576	62	4244
2026-01-07 11:20:32.66	145.59	9.23	-48.2	-49.6	14.7	0.00e+00	0	25	0	400556032	62	4287
2026-01-07 11:20:33.68	145.58	9.32	-48.1	-49.5	14.8	0.00e+00	0	25	0	405798912	62	4215
2026-01-07 11:20:34.68	145.58	9.40	-47.9	-49.3	14.9	0.00e+00	0	25	0	412090368	62	4127
2026-01-07 11:20:35.69	145.57	9.49	-47.8	-49.3	14.9	0.00e+00	0	25	0	417333248	62	4103
2026-01-07 11:20:36.70	145.56	9.57	-47.9	-49.3	14.9	0.00e+00	0	25	0	423624704	62	4118
2026-01-07 11:20:37.71	145.56	9.66	-47.8	-49.2	14.9	0.00e+00	0	24	0	428867584	62	4066
2026-01-07 11:20:38.71	145.55	9.75	-47.8	-49.2	14.9	0.00e+00	0	25	0	434110464	62	4055
2026-01-07 11:20:39.72	145.54	9.83	-47.7	-49.1	15.0	0.00e+00	0	25	0	440401920	62	4039
2026-01-07 11:20:40.73	145.54	9.92	-47.9	-49.2	14.9	0.00e+00	0	25	0	445644800	62	4093
2026-01-07 11:20:41.74	145.53	10.01	-47.8	-49.2	15.0	0.00e+00	0	25	0	451936256	62	4052
2026-01-07 11:20:42.75	145.52	10.10	-47.8	-49.2	14.9	0.00e+00	0	25	0	457179136	62	4086
2026-01-07 11:20:43.76	145.51	10.19	-47.7	-49.0	14.8	0.00e+00	0	24	0	462422016	61	4235
2026-01-07 11:20:44.77	145.51	10.27	-47.6	-49.0	14.9	0.00e+00	0	25	0	468713472	61	4212
2026-01-07 11:20:45.78	145.50	10.36	-47.6	-49.0	14.9	0.00e+00	0	25	0	473956352	61	4212
2026-01-07 11:20:46.79	145.49	10.45	-47.6	-49.0	14.9	0.00e+00	0	25	0	480247808	61	4230
2026-01-07 11:20:47.79	145.49	10.54	-47.5	-48.9	14.9	0.00e+00	0	25	0	485490688	61	4173
2026-01-07 11:20:48.80	145.48	10.63	-47.6	-49.0	14.8	0.00e+00	0	25	0	490733568	61	4223
2026-01-07 11:20:49.81	145.47	10.72	-47.7	-49.1	14.8	0.00e+00	0	25	0	497025024	61	4270
2026-01-07 11:20:50.82	145.46	10.81	-47.7	-49.1	14.8	0.00e+00	0	25	0	502267904	61	4276
2026-01-07 11:20:51.83	145.46	10.90	-47.6	-49.0	14.9	0.00e+00	0	25	0	508559360	61	4203
2026-01-07 11:20:52.83	145.45	11.00	-47.6	-49.0	14.9	0.00e+00	0	25	0	513802240	61	4198
2026-01-07 11:20:53.84	145.44	11.09	-47.6	-48.9	14.9	0.00e+00	0	25	0	520093696	61	4183
2026-01-07 11:20:54.84	145.43	11.18	-47.6	-48.9	14.9	0.00e+00	0	25	0	525336576	61	4190
2026-01-07 11:20:55.85	145.42	11.27	-47.5	-48.9	14.9	0.00e+00	0	25	0	530579456	61	4174
2026-01-07 11:20:56.86	145.42	11.36	-47.6	-48.9	14.9	0.00e+00	0	25	0	536870912	61	4184
2026-01-07 11:20:57.86	145.41	11.46	-47.4	-48.8	15.0	0.00e+00	0	25	0	542113792	61	4109
2026-01-07 11:20:58.87	145.40	11.55	-47.4	-48.8	15.0	0.00e+00	0	25	0	547356672	61	4123
2026-01-07 11:20:59.88	145.39	11.64	-47.6	-48.9	14.9	0.00e+00	0	25	0	553648128	61	4180
2026-01-07 11:21:00.89	145.38	11.74	-47.4	-48.8	15.0	0.00e+00	0	25	0	558891008	61	4115
2026-01-07 11:21:01.90	145.38	11.83	-47.3	-48.7	15.0	0.00e+00	0	25	0	565182464	61	4060
2026-01-07 11:21:02.91	145.37	11.93	-47.5	-48.8	15.0	0.00e+00	0	25	0	570425344	61	4136
2026-01-07 11:21:03.92	145.36	12.02	-47.4	-48.7	15.0	0.00e+00	0	25	0	575668224	61	4071
2026-01-07 11:21:04.92	145.35	12.12	-47.5	-48.8	15.0	0.00e+00	0	25	0	581959680	61	4132
2026-01-07 11:21:05.93	145.34	12.21	-47.4	-48.7	15.0	0.00e+00	0	25	0	587202560	61	4077
2026-01-07 11:21:06.94	145.33	12.31	-47.3	-48.6	15.1	0.00e+00	0	25	0	593494016	61	4032
2026-01-07 11:21:07.95	145.32	12.41	-47.3	-48.6	15.1	0.00e+00	0	25	0	598736896	61	4037
2026-01-07 11:21:08.96	145.32	12.50	-47.2	-48.5	15.1	0.00e+00	0	25	0	605028352	61	4004
2026-01-07 11:21:09.96	145.31	12.60	-47.3	-48.6	15.1	0.00e+00	0	25	0	610271232	61	4043
2026-01-07 11:21:10.97	145.30	12.70	-47.3	-48.6	15.1	0.00e+00	0	25	0	616562688	61	4043
2026-01-07 11:21:11.98	145.29	12.80	-47.3	-48.7	15.1	0.00e+00	0	25	0	621805568	61	4059
2026-01-07 11:21:12.99	145.28	12.90	-47.2	-48.6	15.1	0.00e+00	0	25	0	627048448	61	4021
2026-01-07 11:21:14.00	145.27	12.99	-47.3	-48.6	15.1	0.00e+00	0	25	0	633339904	61	4035
2026-01-07 11:21:15.01	145.26	13.09	-47.3	-48.6	15.1	0.00e+00	0	25	0	638582784	61	4037
2026-01-07 11:21:16.02	145.25	13.19	-47.2	-48.5	15.1	0.00e+00	0	25	0	643825664	61	4003
2026-01-07 11:21:17.03	145.24	13.29	-47.1	-48.4	15.0	0.00e+00	0	25	0	650117120	60	4152
2026-01-07 11:21:18.04	145.23	13.40	-47.1	-48.4	15.0	0.00e+00	0	25	0	655360000	60	4185
2026-01-07 11:21:19.04	145.22	13.50	-47.1	-48.4	15.0	0.00e+00	0	25	0	661651456	60	4192
2026-01-07 11:21:20.05	145.21	13.60	-47.1	-48.4	15.0	0.00e+00	0	25	0	666894336	60	4160
2026-01-07 11:21:21.06	145.20	13.70	-47.0	-48.3	15.1	0.00e+00	0	25	0	672137216	60	4128
2026-01-07 11:21:22.06	145.19	13.80	-47.1	-48.4	15.0	0.00e+00	0	25	0	678428672	60	4173
2026-01-07 11:21:23.07	145.18	13.90	-47.1	-48.4	15.0	0.00e+00	0	25	0	683671552	60	4182
2026-01-07 11:21:24.08	145.17	14.01	-46.9	-48.2	15.1	0.00e+00	0	25	0	689963008	60	4081
2026-01-07 11:21:25.09	145.16	14.11	-47.0	-48.3	15.1	0.00e+00	0	25	0	695205888	60	4123
2026-01-07 11:21:26.10	145.15	14.22	-46.9	-48.2	15.1	0.00e+00	0	25	0	701497344	60	4079
2026-01-07 11:21:27.11	145.14	14.32	-47.0	-48.3	15.1	0.00e+00	0	25	0	706740224	60	4112
2026-01-07 11:21:28.12	145.13	14.43	-46.9	-48.2	15.1	0.00e+00	0	25	0	711983104	60	4072
2026-01-07 11:21:29.13	145.12	14.53	-46.9	-48.2	15.1	0.00e+00	0	25	0	718274560	60	4075
2026-01-07 11:21:30.13	145.11	14.64	-46.8	-48.1	15.2	0.00e+00	0	25	0	723517440	60	4016
2026-01-07 11:21:31.14	145.10	14.74	-46.8	-48.1	15.2	0.00e+00	0	25	0	729808896	60	4051
2026-01-07 11:21:32.15	145.09	14.85	-46.8	-48.1	15.2	0.00e+00	0	25	0	735051776	60	4035
2026-01-07 11:21:33.15	145.08	14.96	-46.8	-48.1	15.2	0.00e+00	0	25	0	740294656	60	4039
2026-01-07 11:21:34.16	145.07	15.06	-46.8	-48.1	15.2	0.00e+00	0	25	0	746586112	60	4006
2026-01-07 11:21:35.16	145.06	15.17	-46.7	-48.0	15.3	0.00e+00	0	25	0	751828992	60	3968
2026-01-07 11:21:36.16	145.04	15.28	-46.7	-48.0	15.2	0.00e+00	0	25	0	757071872	60	3962
2026-01-07 11:21:37.17	145.03	15.39	-46.7	-48.0	15.2	0.00e+00	0	25	0	763363328	60	3987
2026-01-07 11:21:38.18	145.02	15.50	-46.8	-48.2	15.0	0.00e+00	0	25	0	768606208	59	4292
2026-01-07 11:21:39.19	145.01	15.61	-46.8	-48.1	15.1	0.00e+00	0	25	0	774897664	59	4285
2026-01-07 11:21:40.19	145.00	15.72	-46.8	-48.1	15.1	0.00e+00	0	25	0	780140544	59	4291
2026-01-07 11:21:41.20	144.99	15.83	-46.8	-48.1	15.0	0.00e+00	0	25	0	786432000	59	4291
2026-01-07 11:21:42.21	144.97	15.94	-46.8	-48.1	15.1	0.00e+00	0	25	0	791674880	59	4270
2026-01-07 11:21:43.22	144.96	16.06	-46.8	-48.2	15.0	0.00e+00	0	25	0	796917760	59	4293
2026-01-07 11:21:44.23	144.95	16.17	-46.7	-48.0	15.1	0.00e+00	0	25	0	803209216	59	4224
2026-01-07 11:21:45.24	144.94	16.28	-46.7	-48.0	15.1	0.00e+00	0	25	0	808452096	59	4206
2026-01-07 11:21:46.25	144.92	16.40	-46.6	-47.9	15.1	0.00e+00	0	25	0	814743552	59	4171
2026-01-07 11:21:47.25	144.91	16.51	-46.6	-47.9	15.1	0.00e+00	0	25	0	819986432	59	4187
2026-01-07 11:21:48.26	144.90	16.62	-46.6	-47.9	15.2	0.00e+00	0	25	0	825229312	59	4175
2026-01-07 11:21:49.27	144.89	16.74	-46.4	-47.7	15.2	0.00e+00	0	25	0	831520768	59	4081
2026-01-07 11:21:50.27	144.87	16.85	-46.5	-47.8	15.2	0.00e+00	0	25	0	836763648	59	4101
2026-01-07 11:21:51.28	144.86	16.97	-46.5	-47.8	15.2	0.00e+00	0	25	0	843055104	59	4106
2026-01-07 11:21:52.28	144.85	17.09	-46.4	-47.7	15.2	0.00e+00	0	25	0	848297984	59	4082
2026-01-07 11:21:53.29	144.83	17.21	-46.4	-47.6	15.3	0.00e+00	0	25	0	853540864	59	4045
2026-01-07 11:21:54.29	144.82	17.32	-46.3	-47.6	15.3	0.00e+00	0	25	0	859832320	59	4020
2026-01-07 11:21:55.30	144.81	17.44	-46.3	-47.6	15.3	0.00e+00	0	25	0	865075200	59	4011
2026-01-07 11:21:56.31	144.79	17.56	-46.4	-47.7	15.3	0.00e+00	0	25	0	871366656	59	4052
2026-01-07 11:21:57.32	144.78	17.68	-46.2	-47.5	15.4	0.00e+00	0	25	0	876609536	59	3966
2026-01-07 11:21:58.33	144.76	17.80	-46.2	-47.5	15.4	0.00e+00	0	25	0	882900992	59	3977
2026-01-07 11:21:59.34	144.75	17.92	-46.3	-47.6	15.3	0.00e+00	0	25	0	888143872	59	4005
2026-01-07 11:22:00.34	144.74	18.04	-46.2	-47.4	15.4	0.00e+00	0	25	0	893386752	59	3953
2026-01-07 11:22:01.35	144.72	18.17	-46.1	-47.4	15.2	0.00e+00	0	25	0	899678208	58	4166
2026-01-07 11:22:02.36	144.71	18.29	-46.1	-47.3	15.2	0.00e+00	0	25	0	904921088	58	4135
2026-01-07 11:22:03.36	144.69	18.41	-46.0	-47.2	15.3	0.00e+00	0	25	0	910163968	58	4077
2026-01-07 11:22:04.37	144.68	18.54	-45.9	-47.2	15.3	0.00e+00	0	25	0	916455424	58	4065
2026-01-07 11:22:05.38	144.66	18.66	-45.9	-47.2	15.3	0.00e+00	0	25	0	921698304	58	4054
2026-01-07 11:22:06.39	144.65	18.79	-45.9	-47.1	15.3	0.00e+00	0	25	0	927989760	58	4051
2026-01-07 11:22:07.40	144.63	18.91	-45.9	-47.2	15.3	0.00e+00	0	25	0	933232640	58	4063
2026-01-07 11:22:08.40	144.62	19.04	-46.0	-47.2	15.3	0.00e+00	0	25	0	938475520	58	4098
2026-01-07 11:22:09.41	144.60	19.17	-46.0	-47.2	15.3	0.00e+00	0	25	0	944766976	58	4085
2026-01-07 11:22:10.41	144.58	19.29	-45.9	-47.2	15.3	0.00e+00	0	25	0	950009856	58	4069
2026-01-07 11:22:11.42	144.57	19.42	-46.0	-47.3	15.3	0.00e+00	0	25	0	956301312	58	4105
2026-01-07 11:22:12.43	144.55	19.55	-45.9	-47.1	15.3	0.00e+00	0	25	0	961544192	58	4044
2026-01-07 11:22:13.44	144.54	19.68	-45.9	-47.2	15.3	0.00e+00	0	25	0	967835648	58	4055
2026-01-07 11:22:14.45	144.52	19.81	-46.0	-47.3	15.3	0.00e+00	0	25	0	973078528	58	4105
2026-01-07 11:22:15.45	144.50	19.94	-45.9	-47.1	15.3	0.00e+00	0	25	0	978321408	58	4042
2026-01-07 11:22:16.46	144.49	20.08	-45.9	-47.2	15.3	0.00e+00	0	25	0	984612864	58	4055
2026-01-07 11:22:17.47	144.47	20.21	-45.9	-47.2	15.3	0.00e+00	0	25	0	989855744	58	4056
2026-01-07 11:22:18.48	144.45	20.34	-45.9	-47.2	15.3	0.00e+00	0	25	0	996147200	58	4058
2026-01-07 11:22:19.49	144.43	20.48	-46.0	-47.3	15.3	0.00e+00	0	25	0	1001390080	58	4107
2026-01-07 11:22:20.49	144.42	20.61	-46.1	-47.4	15.2	0.00e+00	0	25	0	1006632960	58	4170
2026-01-07 11:22:21.50	144.40	20.75	-46.0	-47.2	15.3	0.00e+00	0	25	0	1012924416	58	4092
2026-01-07 11:22:22.51	144.38	20.88	-45.9	-47.2	15.3	0.00e+00	0	25	0	1018167296	58	4082
2026-01-07 11:22:23.52	144.36	21.02	-45.8	-47.1	15.3	0.00e+00	0	25	0	1023410176	58	4035
2026-01-07 11:22:24.53	144.34	21.16	-45.8	-47.1	15.4	0.00e+00	0	25	0	1029701632	58	4012
2026-01-07 11:22:25.53	144.33	21.30	-45.8	-47.0	15.4	0.00e+00	0	25	0	1034944512	58	4002
2026-01-07 11:22:26.54	144.31	21.43	-45.7	-47.0	15.4	0.00e+00	0	25	0	1041235968	58	3964
2026-01-07 11:22:27.55	144.29	21.58	-45.8	-47.1	15.4	0.00e+00	0	25	0	1046478848	58	4016
2026-01-07 11:22:28.55	144.27	21.71	-45.7	-47.0	15.4	0.00e+00	0	25	0	1052770304	58	3962
2026-01-07 11:22:29.56	144.25	21.86	-45.5	-46.7	15.3	0.00e+00	0	25	0	1058013184	57	4092
2026-01-07 11:22:30.57	144.23	22.00	-45.5	-46.8	15.3	0.00e+00	0	25	0	1064304640	57	4100
2026-01-07 11:22:31.58	144.21	22.14	-45.4	-46.7	15.4	0.00e+00	0	25	0	1069547520	57	4063
2026-01-07 11:22:32.59	144.19	22.29	-45.5	-46.8	15.3	0.00e+00	0	25	0	1074790400	57	4101
2026-01-07 11:22:33.60	144.17	22.43	-45.4	-46.7	15.4	0.00e+00	0	25	0	1081081856	57	4064
2026-01-07 11:22:34.61	144.15	22.58	-45.3	-46.6	15.4	0.00e+00	0	25	0	1086324736	57	4013
2026-01-07 11:22:35.61	144.13	22.72	-45.5	-46.7	15.3	0.00e+00	0	25	0	1091567616	57	4068
2026-01-07 11:22:36.62	144.11	22.87	-45.5	-46.7	15.4	0.00e+00	0	25	0	1097859072	57	4078
2026-01-07 11:22:37.63	144.09	23.02	-45.4	-46.6	15.4	0.00e+00	0	25	0	1103101952	57	4017
2026-01-07 11:22:38.64	144.07	23.17	-45.5	-46.7	15.4	0.00e+00	0	25	0	1109393408	57	4077
2026-01-07 11:22:39.65	144.04	23.32	-45.4	-46.7	15.3	0.00e+00	0	25	0	1114636288	57	4058
2026-01-07 11:22:40.65	144.02	23.47	-45.5	-46.7	15.3	0.00e+00	0	25	0	1119879168	57	4087
2026-01-07 11:22:41.66	144.00	23.62	-45.5	-46.7	15.3	0.00e+00	0	25	0	1126170624	57	4087
2026-01-07 11:22:42.67	143.98	23.77	-45.4	-46.7	15.4	0.00e+00	0	25	0	1131413504	57	4055
2026-01-07 11:22:43.68	143.96	23.93	-45.4	-46.6	15.4	0.00e+00	0	25	0	1137704960	57	4043
2026-01-07 11:22:44.69	143.93	24.08	-45.5	-46.7	15.3	0.00e+00	0	25	0	1142947840	57	4088
2026-01-07 11:22:45.70	143.91	24.24	-45.4	-46.7	15.4	0.00e+00	0	25	0	1149239296	57	4062
2026-01-07 11:22:46.71	143.89	24.39	-45.5	-46.7	15.4	0.00e+00	0	25	0	1154482176	57	4081
2026-01-07 11:22:47.71	143.86	24.55	-45.4	-46.7	15.4	0.00e+00	0	25	0	1159725056	57	4065
2026-01-07 11:22:48.72	143.84	24.71	-45.3	-46.5	15.4	0.00e+00	0	25	0	1166016512	57	3991
2026-01-07 11:22:49.73	143.82	24.87	-45.2	-46.4	15.5	0.00e+00	0	25	0	1171259392	57	3949
2026-01-07 11:22:50.74	143.79	25.03	-45.2	-46.4	15.5	0.00e+00	0	25	0	1177550848	57	3957
2026-01-07 11:22:51.74	143.77	25.19	-45.2	-46.4	15.5	0.00e+00	0	25	0	1182793728	57	3929
2026-01-07 11:22:52.75	143.74	25.35	-45.2	-46.4	15.5	0.00e+00	0	25	0	1188036608	57	3928
2026-01-07 11:22:53.76	143.72	25.51	-45.1	-46.3	15.3	0.00e+00	0	25	0	1194328064	56	4142
2026-01-07 11:22:54.77	143.69	25.68	-45.0	-46.2	15.4	0.00e+00	0	25	0	1199570944	56	4078
2026-01-07 11:22:55.78	143.66	25.84	-45.0	-46.2	15.4	0.00e+00	0	25	0	1205862400	56	4084
2026-01-07 11:22:56.79	143.64	26.01	-45.0	-46.2	15.4	0.00e+00	0	25	0	1211105280	56	4094
2026-01-07 11:22:57.79	143.61	26.17	-45.0	-46.2	15.4	0.00e+00	0	25	0	1216348160	56	4058
2026-01-07 11:22:58.80	143.58	26.34	-45.0	-46.2	15.4	0.00e+00	0	25	0	1222639616	56	4067
2026-01-07 11:22:59.81	143.56	26.51	-44.9	-46.1	15.5	0.00e+00	0	25	0	1227882496	56	4012
2026-01-07 11:23:00.82	143.53	26.68	-44.8	-46.0	15.5	0.00e+00	0	25	0	1234173952	56	3968
2026-01-07 11:23:01.83	143.50	26.85	-44.8	-46.0	15.5	0.00e+00	0	25	0	1239416832	56	3991
2026-01-07 11:23:02.84	143.47	27.02	-44.8	-46.0	15.5	0.00e+00	0	25	0	1245708288	56	3991
2026-01-07 11:23:03.84	143.45	27.20	-44.8	-46.0	15.5	0.00e+00	0	25	0	1250951168	56	3965
2026-01-07 11:23:04.85	143.42	27.37	-44.8	-46.0	15.5	0.00e+00	0	25	0	1256194048	56	3982
2026-01-07 11:23:05.85	143.39	27.55	-44.7	-45.9	15.5	0.00e+00	0	25	0	1262485504	56	3949
2026-01-07 11:23:06.86	143.36	27.72	-44.8	-46.0	15.5	0.00e+00	0	25	0	1267728384	56	3984
2026-01-07 11:23:07.87	143.33	27.90	-44.8	-46.1	15.5	0.00e+00	0	25	0	1274019840	56	4006
2026-01-07 11:23:08.88	143.30	28.08	-44.9	-46.1	15.4	0.00e+00	0	25	0	1279262720	56	4022
2026-01-07 11:23:09.89	143.27	28.26	-44.9	-46.1	15.4	0.00e+00	0	25	0	1284505600	56	4047
2026-01-07 11:23:10.90	143.24	28.44	-44.9	-46.1	15.5	0.00e+00	0	25	0	1290797056	56	4027
2026-01-07 11:23:11.91	143.20	28.62	-44.9	-46.1	15.4	0.00e+00	0	25	0	1296039936	56	4050
2026-01-07 11:23:12.92	143.17	28.81	-44.9	-46.1	15.4	0.00e+00	0	25	0	1301282816	56	4020
2026-01-07 11:23:13.93	143.14	28.99	-44.8	-46.0	15.5	0.00e+00	0	25	0	1307574272	56	3980
2026-01-07 11:23:14.93	143.11	29.18	-44.7	-45.9	15.5	0.00e+00	0	25	0	1312817152	56	3951
2026-01-07 11:23:15.94	143.07	29.36	-44.8	-45.9	15.5	0.00e+00	0	25	0	1319108608	56	3957
2026-01-07 11:23:16.95	143.04	29.55	-44.7	-45.9	15.5	0.00e+00	0	25	0	1324351488	56	3950
2026-01-07 11:23:17.95	143.01	29.74	-44.5	-45.7	15.4	0.00e+00	0	25	0	1330642944	55	4055
2026-01-07 11:23:18.96	142.97	29.93	-44.5	-45.7	15.4	0.00e+00	0	25	0	1335885824	55	4084
2026-01-07 11:23:19.97	142.94	30.13	-44.6	-45.8	15.4	0.00e+00	0	25	0	1341128704	55	4113
2026-01-07 11:23:20.98	142.90	30.32	-44.4	-45.6	15.5	0.00e+00	0	25	0	1347420160	55	4046
2026-01-07 11:23:21.99	142.87	30.51	-44.4	-45.6	15.5	0.00e+00	0	25	0	1352663040	55	4021
2026-01-07 11:23:23.00	142.83	30.71	-44.5	-45.6	15.4	0.00e+00	0	25	0	1358954496	55	4049
2026-01-07 11:23:24.01	142.79	30.91	-44.4	-45.6	15.5	0.00e+00	0	25	0	1364197376	55	4025
2026-01-07 11:23:25.02	142.75	31.11	-44.5	-45.7	15.4	0.00e+00	0	25	0	1369440256	55	4067
2026-01-07 11:23:26.02	142.72	31.31	-44.4	-45.6	15.5	0.00e+00	0	25	0	1375731712	55	4027
2026-01-07 11:23:27.03	142.68	31.51	-44.4	-45.6	15.5	0.00e+00	0	25	0	1380974592	55	4037
2026-01-07 11:23:28.04	142.64	31.71	-44.4	-45.6	15.4	0.00e+00	0	25	0	1387266048	55	4042
2026-01-07 11:23:29.05	142.60	31.92	-44.5	-45.7	15.4	0.00e+00	0	25	0	1392508928	55	4061
2026-01-07 11:23:30.06	142.56	32.12	-44.5	-45.8	15.4	0.00e+00	0	25	0	1397751808	55	4101
2026-01-07 11:23:31.07	142.52	32.33	-44.5	-45.7	15.4	0.00e+00	0	25	0	1404043264	55	4064
2026-01-07 11:23:32.07	142.48	32.54	-44.4	-45.6	15.5	0.00e+00	0	25	0	1409286144	55	4033
2026-01-07 11:23:33.08	142.44	32.75	-44.3	-45.5	15.5	0.00e+00	0	25	0	1415577600	55	3973
2026-01-07 11:23:34.09	142.40	32.96	-44.4	-45.6	15.4	0.00e+00	0	25	0	1420820480	55	4031
2026-01-07 11:23:35.09	142.35	33.17	-44.4	-45.6	15.5	0.00e+00	0	25	0	1427111936	55	4018
2026-01-07 11:23:36.09	142.31	33.38	-44.2	-45.4	15.6	0.00e+00	0	25	0	1432354816	55	3915
2026-01-07 11:23:37.10	142.27	33.60	-44.1	-45.3	15.4	0.00e+00	0	25	0	1437597696	54	4126
2026-01-07 11:23:38.11	142.22	33.81	-44.0	-45.2	15.5	0.00e+00	0	25	0	1443889152	54	4067
2026-01-07 11:23:39.12	142.18	34.03	-44.0	-45.1	15.5	0.00e+00	0	25	0	1449132032	54	4041
2026-01-07 11:23:40.13	142.13	34.25	-43.9	-45.1	15.5	0.00e+00	0	25	0	1455423488	54	4026
2026-01-07 11:23:41.14	142.08	34.48	-43.9	-45.0	15.5	0.00e+00	0	25	0	1460666368	54	3983
2026-01-07 11:23:42.15	142.04	34.70	-43.9	-45.0	15.5	0.00e+00	0	25	0	1465909248	54	4001
2026-01-07 11:23:43.16	141.99	34.93	-43.7	-44.9	15.6	0.00e+00	0	25	0	1472200704	54	3917
2026-01-07 11:23:44.16	141.94	35.15	-43.7	-44.8	15.6	0.00e+00	0	25	0	1477443584	54	3901
2026-01-07 11:23:45.17	141.89	35.38	-43.7	-44.9	15.6	0.00e+00	0	25	0	1482686464	54	3918
2026-01-07 11:23:46.18	141.84	35.61	-43.8	-45.0	15.6	0.00e+00	0	25	0	1488977920	54	3973
2026-01-07 11:23:47.18	141.79	35.84	-43.9	-45.1	15.5	0.00e+00	0	25	0	1494220800	54	4013
2026-01-07 11:23:48.19	141.74	36.07	-44.1	-45.2	15.5	0.00e+00	0	25	0	1500512256	54	4097
2026-01-07 11:23:49.20	141.68	36.31	-44.2	-45.4	15.4	0.00e+00	0	25	0	1505755136	54	4178
2026-01-07 11:23:50.21	141.63	36.54	-44.5	-45.5	15.3	0.00e+00	0	25	0	1512046592	54	4242
2026-01-07 11:23:51.22	141.58	36.78	-44.5	-45.5	15.4	0.00e+00	0	25	0	1517289472	54	4236
2026-01-07 11:23:52.22	141.52	37.02	-44.5	-45.5	15.4	0.00e+00	0	25	0	1523580928	54	4233
2026-01-07 11:23:53.23	141.46	37.26	-44.5	-45.5	15.4	0.00e+00	0	25	0	1528823808	54	4232
2026-01-07 11:23:54.24	141.41	37.51	-44.4	-45.5	15.4	0.00e+00	0	25	0	1534066688	54	4207
2026-01-07 11:23:55.25	141.35	37.75	-44.4	-45.5	15.4	0.00e+00	0	25	0	1540358144	54	4196
2026-01-07 11:23:56.25	141.29	38.00	-44.3	-45.3	15.4	0.00e+00	0	25	0	1545601024	54	4132
2026-01-07 11:23:57.26	141.23	38.25	-44.2	-45.2	15.4	0.00e+00	0	25	0	1550843904	54	4094
2026-01-07 11:23:58.27	141.17	38.50	-44.2	-45.2	15.4	0.00e+00	0	25	0	1557135360	54	4079
2026-01-07 11:23:59.28	141.11	38.75	-44.2	-45.2	15.4	0.00e+00	0	25	0	1562378240	54	4067
2026-01-07 11:24:00.28	141.05	39.00	-44.2	-45.3	15.4	0.00e+00	0	25	0	1568669696	54	4099
2026-01-07 11:24:01.29	140.98	39.26	-44.2	-45.2	15.4	0.00e+00	0	25	0	1573912576	54	4092
2026-01-07 11:24:02.30	140.92	39.52	-44.3	-45.4	15.4	0.00e+00	0	25	0	1579155456	54	4153
2026-01-07 11:24:03.31	140.85	39.78	-44.5	-45.5	15.3	0.00e+00	0	25	0	1585446912	54	4239
2026-01-07 11:24:04.32	140.79	40.04	-44.6	-45.7	15.3	0.00e+00	0	25	0	1590689792	54	4296
2026-01-07 11:24:05.33	140.72	40.30	-44.8	-45.9	15.3	0.00e+00	0	25	0	1596981248	54	4402
2026-01-07 11:24:06.34	140.65	40.57	-44.8	-45.9	15.3	0.00e+00	0	25	0	1602224128	54	4425
2026-01-07 11:24:07.34	140.58	40.83	-44.8	-45.9	15.3	0.00e+00	0	25	0	1608515584	54	4426
2026-01-07 11:24:08.35	140.51	41.10	-44.8	-45.8	15.3	0.00e+00	0	25	0	1613758464	54	4386
2026-01-07 11:24:09.36	140.43	41.38	-44.6	-45.7	15.3	0.00e+00	0	25	0	1619001344	54	4294
2026-01-07 11:24:10.36	140.36	41.65	-44.6	-45.6	15.3	0.00e+00	0	25	0	1625292800	54	4288
2026-01-07 11:24:11.37	140.28	41.92	-44.7	-45.8	15.3	0.00e+00	0	25	0	1630535680	54	4362
2026-01-07 11:24:12.38	140.21	42.20	-44.8	-45.9	15.3	0.00e+00	0	25	0	1636827136	54	4405
2026-01-07 11:24:13.39	140.13	42.48	-44.8	-45.9	15.3	0.00e+00	0	25	0	1642070016	54	4408
2026-01-07 11:24:14.40	140.05	42.76	-44.8	-45.9	15.3	0.00e+00	0	25	0	1647312896	54	4425
2026-01-07 11:24:15.41	139.97	43.05	-44.6	-45.7	15.3	0.00e+00	0	25	0	1653604352	54	4292
2026-01-07 11:24:16.42	139.88	43.33	-44.5	-45.6	15.4	0.00e+00	0	25	0	1658847232	54	4243
2026-01-07 11:24:17.43	139.80	43.62	-44.5	-45.6	15.3	0.00e+00	0	25	0	1665138688	54	4257
2026-01-07 11:24:18.44	139.71	43.91	-44.7	-45.8	15.3	0.00e+00	0	25	0	1670381568	54	4356
2026-01-07 11:24:19.45	139.62	44.20	-44.9	-46.0	15.3	0.00e+00	0	25	0	1675624448	55	4208
2026-01-07 11:24:20.46	139.54	44.50	-45.0	-46.0	15.3	0.00e+00	0	25	0	1681915904	55	4237
2026-01-07 11:24:21.47	139.44	44.79	-45.0	-46.0	15.3	0.00e+00	0	25	0	1687158784	55	4237
2026-01-07 11:24:22.48	139.35	45.09	-45.1	-46.2	15.3	0.00e+00	0	25	0	1693450240	55	4302
2026-01-07 11:24:23.49	139.26	45.39	-45.2	-46.3	15.3	0.00e+00	0	25	0	1698693120	55	4381
2026-01-07 11:24:24.50	139.16	45.69	-45.2	-46.3	15.3	0.00e+00	0	25	0	1704984576	55	4352
2026-01-07 11:24:25.51	139.06	46.00	-45.2	-46.3	15.3	0.00e+00	0	25	0	1710227456	55	4344
2026-01-07 11:24:26.52	138.96	46.31	-44.8	-45.8	15.4	0.00e+00	0	25	0	1715470336	55	4143
2026-01-07 11:24:27.53	138.86	46.62	-44.7	-45.7	15.4	0.00e+00	0	25	0	1721761792	55	4076
2026-01-07 11:24:28.53	138.75	46.93	-44.6	-45.6	15.4	0.00e+00	0	25	0	1727004672	55	4039
2026-01-07 11:24:29.54	138.65	47.24	-44.4	-45.4	15.5	0.00e+00	0	25	0	1733296128	55	3947
2026-01-07 11:24:30.54	138.54	47.55	-44.6	-45.7	15.4	0.00e+00	0	25	0	1738539008	55	4072
2026-01-07 11:24:31.55	138.43	47.87	-44.7	-45.8	15.4	0.00e+00	0	25	0	1743781888	55	4125
2026-01-07 11:24:32.56	138.31	48.19	-44.8	-45.8	15.4	0.00e+00	0	25	0	1750073344	55	4126
2026-01-07 11:24:33.56	138.20	48.51	-44.6	-45.7	15.4	0.00e+00	0	25	0	1755316224	55	4068
2026-01-07 11:24:34.57	138.08	48.84	-44.6	-45.6	15.4	0.00e+00	0	25	0	1761607680	55	4038
2026-01-07 11:24:35.58	137.96	49.16	-44.8	-45.8	15.4	0.00e+00	0	25	0	1766850560	55	4120
2026-01-07 11:24:36.59	137.83	49.49	-44.9	-46.0	15.3	0.00e+00	0	25	0	1772093440	55	4205
2026-01-07 11:24:37.59	137.71	49.82	-45.2	-46.3	15.3	0.00e+00	0	25	0	1778384896	55	4371
2026-01-07 11:24:38.60	137.58	50.16	-45.4	-46.5	15.2	0.00e+00	0	25	0	1783627776	55	4479
2026-01-07 11:24:39.61	137.44	50.49	-45.6	-46.7	15.3	0.00e+00	0	25	0	1789919232	56	4317
2026-01-07 11:24:40.62	137.31	50.83	-45.8	-46.9	15.2	0.00e+00	0	25	0	1795162112	56	4394
2026-01-07 11:24:41.62	137.17	51.17	-45.9	-46.9	15.2	0.00e+00	0	25	0	1801453568	56	4440
2026-01-07 11:24:42.63	137.03	51.51	-46.1	-47.2	15.2	0.00e+00	0	25	0	1806696448	57	4327
2026-01-07 11:24:43.64	136.88	51.86	-46.2	-47.4	15.2	0.00e+00	0	25	0	1811939328	57	4396
2026-01-07 11:24:44.65	136.73	52.21	-46.2	-47.3	15.2	0.00e+00	0	25	0	1818230784	57	4378
2026-01-07 11:24:45.66	136.58	52.56	-46.3	-47.4	15.2	0.00e+00	0	25	0	1823473664	57	4438
2026-01-07 11:24:46.67	136.42	52.91	-46.2	-47.3	15.2	0.00e+00	0	25	0	1828716544	57	4359
2026-01-07 11:24:47.67	136.26	53.26	-46.1	-47.2	15.2	0.00e+00	0	25	0	1835008000	57	4296
2026-01-07 11:24:48.68	136.10	53.62	-46.0	-47.1	15.3	0.00e+00	0	25	0	1840250880	57	4256
2026-01-07 11:24:49.69	135.93	53.98	-46.0	-47.1	15.2	0.00e+00	0	25	0	1846542336	57	4262
2026-01-07 11:24:50.69	135.76	54.33	-46.0	-47.1	15.3	0.00e+00	0	25	0	1851785216	57	4243
2026-01-07 11:24:51.70	135.58	54.70	-46.0	-47.1	15.3	0.00e+00	0	25	0	1858076672	57	4279
2026-01-07 11:24:52.71	135.40	55.06	-46.1	-47.2	15.2	0.00e+00	0	25	0	1863319552	57	4316
2026-01-07 11:24:53.72	135.21	55.43	-46.0	-47.1	15.2	0.00e+00	0	25	0	1868562432	57	4247
2026-01-07 11:24:54.73	135.01	55.80	-45.9	-46.9	15.3	0.00e+00	0	25	0	1874853888	57	4190
2026-01-07 11:24:55.73	134.82	56.17	-45.9	-47.0	15.3	0.00e+00	0	25	0	1880096768	57	4194
2026-01-07 11:24:56.74	134.62	56.55	-45.9	-47.0	15.3	0.00e+00	0	25	0	1886388224	57	4215
2026-01-07 11:24:57.74	134.41	56.92	-45.7	-46.7	15.3	0.00e+00	0	25	0	1891631104	57	4096
2026-01-07 11:24:58.74	134.20	57.29	-45.3	-46.4	15.5	0.00e+00	0	25	0	1896873984	57	3932
2026-01-07 11:24:59.76	133.97	57.68	-45.1	-46.2	15.4	0.00e+00	0	25	0	1903165440	56	4062
2026-01-07 11:25:00.77	133.75	58.06	-45.3	-46.4	15.3	0.00e+00	0	25	0	1908408320	56	4173
2026-01-07 11:25:01.77	133.51	58.44	-45.7	-46.9	15.2	0.00e+00	0	25	0	1914699776	56	4399
2026-01-07 11:25:02.77	133.27	58.83	-45.6	-46.7	15.3	0.00e+00	0	25	0	1919942656	56	4312
2026-01-07 11:25:03.78	133.03	59.22	-45.6	-46.7	15.3	0.00e+00	0	25	0	1925185536	56	4295
2026-01-07 11:25:04.79	132.77	59.61	-45.4	-46.5	15.3	0.00e+00	0	25	0	1931476992	56	4228
2026-01-07 11:25:05.79	132.51	60.00	-45.4	-46.4	15.3	0.00e+00	0	25	0	1936719872	56	4179
2026-01-07 11:25:06.80	132.24	60.39	-45.0	-46.0	15.4	0.00e+00	0	25	0	1943011328	56	3992
2026-01-07 11:25:07.81	131.96	60.79	-44.9	-45.9	15.5	0.00e+00	0	25	0	1948254208	56	3948
2026-01-07 11:25:08.82	131.67	61.19	-45.1	-46.1	15.4	0.00e+00	0	25	0	1953497088	56	4047
2026-01-07 11:25:09.83	131.37	61.59	-45.2	-46.2	15.4	0.00e+00	0	25	0	1959788544	56	4096
2026-01-07 11:25:10.84	131.06	61.99	-44.7	-45.7	15.5	0.00e+00	0	25	0	1965031424	56	3856
2026-01-07 11:25:11.85	130.74	62.39	-44.4	-45.5	15.5	0.00e+00	0	25	0	1971322880	55	3961
2026-01-07 11:25:12.85	130.41	62.80	-44.3	-45.3	15.5	0.00e+00	0	25	0	1976565760	55	3906
2026-01-07 11:25:13.86	130.07	63.20	-44.5	-45.5	15.5	0.00e+00	0	25	0	1981808640	55	3996
2026-01-07 11:25:14.87	129.71	63.61	-44.6	-45.7	15.4	0.00e+00	0	25	0	1988100096	55	4068
2026-01-07 11:25:15.88	129.35	64.02	-44.4	-45.5	15.5	0.00e+00	0	25	0	1993342976	55	3967
2026-01-07 11:25:16.89	128.97	64.43	-44.5	-45.5	15.4	0.00e+00	0	25	0	1999634432	55	3995
2026-01-07 11:25:17.90	128.57	64.84	-44.8	-45.9	15.4	0.00e+00	0	25	0	2004877312	55	4178
2026-01-07 11:25:18.91	128.16	65.26	-44.7	-45.7	15.4	0.00e+00	0	25	0	2010120192	55	4093
2026-01-07 11:25:19.91	127.74	65.67	-44.3	-45.3	15.5	0.00e+00	0	25	0	2016411648	55	3910
2026-01-07 11:25:20.92	127.30	66.08	-44.1	-45.1	15.5	0.00e+00	0	25	0	2021654528	54	4016
2026-01-07 11:25:21.93	126.84	66.50	-43.9	-45.0	15.5	0.00e+00	0	25	0	2027945984	54	3965
2026-01-07 11:25:22.94	126.36	66.92	-43.8	-44.8	15.5	0.00e+00	0	25	0	2033188864	54	3913
2026-01-07 11:25:23.95	125.87	67.33	-43.6	-44.6	15.5	0.00e+00	0	25	0	2039480320	53	4041
2026-01-07 11:25:24.96	125.35	67.75	-43.6	-44.6	15.5	0.00e+00	0	25	0	2044723200	53	4018
2026-01-07 11:25:25.97	124.81	68.17	-43.7	-44.7	15.5	0.00e+00	0	25	0	2051014656	53	4079
2026-01-07 11:25:26.98	124.25	68.59	-43.7	-44.7	15.4	0.00e+00	0	25	0	2056257536	53	4087
2026-01-07 11:25:27.98	123.67	69.00	-43.4	-44.4	15.5	0.00e+00	0	25	0	2061500416	53	3935
2026-01-07 11:25:28.99	123.06	69.42	-43.5	-44.5	15.5	0.00e+00	0	25	0	2067791872	53	3974
2026-01-07 11:25:30.00	122.42	69.84	-43.5	-44.5	15.5	0.00e+00	0	25	0	2073034752	53	3983
2026-01-07 11:25:31.01	121.75	70.25	-43.5	-44.5	15.5	0.00e+00	0	25	0	2078277632	53	3998
2026-01-07 11:25:32.02	121.05	70.67	-43.4	-44.4	15.5	0.00e+00	0	25	0	2084569088	53	3914
2026-01-07 11:25:33.03	120.32	71.08	-43.6	-44.6	15.4	0.00e+00	0	25	0	2089811968	53	4042
2026-01-07 11:25:34.04	119.55	71.50	-43.6	-44.7	15.5	0.00e+00	0	25	0	2096103424	53	4058
2026-01-07 11:25:35.04	118.76	71.90	-43.7	-44.7	15.5	0.00e+00	0	25	0	2101346304	53	4075
2026-01-07 11:25:36.05	117.91	72.31	-43.8	-44.8	15.4	0.00e+00	0	25	0	2106589184	53	4126
2026-01-07 11:25:37.06	117.03	72.72	-43.7	-44.7	15.4	0.00e+00	0	25	0	2112880640	53	4058
2026-01-07 11:25:38.06	116.11	73.12	-43.7	-44.7	15.5	0.00e+00	0	25	0	2118123520	53	4064
2026-01-07 11:25:39.07	115.13	73.52	-43.8	-44.8	15.4	0.00e+00	0	25	0	2124414976	53	4138
2026-01-07 11:25:40.08	114.10	73.92	-43.8	-44.9	15.4	0.00e+00	0	25	0	2129657856	53	4146
2026-01-07 11:25:41.09	113.02	74.31	-43.6	-44.7	15.4	0.00e+00	0	25	0	2135949312	53	4065
2026-01-07 11:25:42.10	111.87	74.70	-43.4	-44.4	15.5	0.00e+00	0	25	0	2141192192	53	3938
2026-01-07 11:25:43.11	110.67	75.09	-43.1	-44.1	15.5	0.00e+00	0	25	0	2146435072	52	4027
2026-01-07 11:25:44.11	109.41	75.46	-43.0	-44.0	15.5	0.00e+00	0	25	0	2152726528	52	3985
2026-01-07 11:25:45.12	108.08	75.83	-43.0	-44.0	15.5	0.00e+00	0	25	0	2157969408	52	3961
2026-01-07 11:25:46.13	106.66	76.20	-42.9	-43.9	15.5	0.00e+00	0	25	0	2164260864	52	3930
2026-01-07 11:25:47.14	105.17	76.56	-42.7	-43.7	15.5	0.00e+00	0	25	0	2169503744	51	4071
2026-01-07 11:25:48.15	103.59	76.91	-42.6	-43.6	15.5	0.00e+00	0	25	0	2174746624	51	4027
2026-01-07 11:25:49.15	101.95	77.24	-42.6	-43.6	15.5	0.00e+00	0	25	0	2181038080	51	4028
2026-01-07 11:25:50.16	100.19	77.57	-42.5	-43.5	15.5	0.00e+00	0	25	0	2186280960	51	3990
2026-01-07 11:25:51.17	98.34	77.89	-42.2	-43.2	15.5	0.00e+00	0	25	0	2192572416	50	4080
2026-01-07 11:25:52.17	96.41	78.20	-42.2	-43.2	15.5	0.00e+00	0	25	0	2197815296	50	4052
2026-01-07 11:25:53.18	94.35	78.49	-42.1	-43.1	15.5	0.00e+00	0	25	0	2203058176	50	4028
2026-01-07 11:25:54.19	92.19	78.77	-41.9	-42.8	15.6	0.00e+00	0	25	0	2209349632	50	3902
2026-01-07 11:25:55.20	89.92	79.03	-41.9	-42.9	15.6	0.00e+00	0	25	0	2214592512	50	3916
2026-01-07 11:25:56.21	87.54	79.27	-41.8	-42.8	15.6	0.00e+00	0	25	0	2220883968	50	3869
2026-01-07 11:25:57.22	85.05	79.50	-42.0	-43.0	15.5	0.00e+00	0	25	0	2226126848	50	3987
2026-01-07 11:25:58.23	82.45	79.70	-41.6	-42.6	15.5	0.00e+00	0	25	0	2232418304	49	4018
2026-01-07 11:25:59.24	79.76	79.89	-41.6	-42.5	15.5	0.00e+00	0	25	0	2237661184	49	4003
2026-01-07 11:26:00.24	76.99	80.04	-41.9	-42.9	15.5	0.00e+00	0	25	0	2242904064	49	4158
2026-01-07 11:26:01.25	74.11	80.18	-41.9	-42.9	15.5	0.00e+00	0	25	0	2249195520	49	4174
2026-01-07 11:26:02.26	71.16	80.29	-41.9	-42.9	15.5	0.00e+00	0	25	0	2254438400	49	4171
2026-01-07 11:26:03.27	68.15	80.38	-42.3	-43.3	15.5	0.00e+00	0	25	0	2260729856	50	4113
2026-01-07 11:26:04.29	65.05	80.44	-42.2	-43.2	15.5	0.00e+00	0	25	0	2265972736	50	4076
2026-01-07 11:26:05.29	61.99	80.47	-41.9	-42.9	15.5	0.00e+00	0	25	0	2271215616	50	3936
2026-01-07 11:26:06.30	58.89	80.48	-41.9	-42.8	15.6	0.00e+00	0	25	0	2277507072	50	3904
2026-01-07 11:26:07.31	55.79	80.45	-41.9	-42.9	15.6	0.00e+00	0	25	0	2282749952	50	3936
2026-01-07 11:26:08.32	52.71	80.40	-42.2	-43.1	15.5	0.00e+00	0	25	0	2289041408	50	4045
2026-01-07 11:26:09.33	49.68	80.33	-42.1	-43.1	15.5	0.00e+00	0	25	0	2294284288	50	4038
2026-01-07 11:26:10.34	46.70	80.22	-42.1	-43.1	15.5	0.00e+00	0	25	0	2299527168	50	4009
2026-01-07 11:26:11.35	43.80	80.10	-42.0	-43.0	15.5	0.00e+00	0	25	0	2305818624	50	3980
2026-01-07 11:26:12.35	41.00	79.94	-42.1	-43.0	15.5	0.00e+00	0	25	0	2311061504	50	4000
2026-01-07 11:26:13.36	38.27	79.77	-42.1	-43.1	15.5	0.00e+00	0	25	0	2317352960	50	4041
2026-01-07 11:26:14.37	35.64	79.57	-42.3	-43.3	15.5	0.00e+00	0	25	0	2322595840	50	4126
2026-01-07 11:26:15.38	33.12	79.35	-42.0	-43.0	15.5	0.00e+00	0	25	0	2327838720	50	3962
2026-01-07 11:26:16.39	30.70	79.11	-42.0	-42.9	15.5	0.00e+00	0	25	0	2334130176	50	3950
2026-01-07 11:26:17.40	28.39	78.86	-42.2	-43.2	15.5	0.00e+00	0	25	0	2339373056	50	4083
2026-01-07 11:26:18.40	26.21	78.59	-42.0	-43.0	15.5	0.00e+00	0	25	0	2345664512	50	3966
2026-01-07 11:26:19.40	24.14	78.31	-41.9	-42.9	15.6	0.00e+00	0	25	0	2350907392	50	3923
2026-01-07 11:26:20.41	22.15	78.01	-42.1	-43.1	15.5	0.00e+00	0	25	0	2356150272	50	4040
2026-01-07 11:26:21.42	20.26	77.69	-42.2	-43.1	15.5	0.00e+00	0	25	0	2362441728	50	4048
2026-01-07 11:26:22.43	18.47	77.37	-42.3	-43.2	15.5	0.00e+00	0	25	0	2367684608	50	4088
2026-01-07 11:26:23.44	16.78	77.03	-42.6	-43.6	15.5	0.00e+00	0	25	0	2373976064	50	4245
2026-01-07 11:26:24.44	15.19	76.69	-42.9	-43.9	15.5	0.00e+00	0	25	0	2379218944	51	4193
2026-01-07 11:26:25.45	13.67	76.33	-42.8	-43.8	15.5	0.00e+00	0	25	0	2384461824	51	4133
2026-01-07 11:26:26.46	12.23	75.97	-42.9	-43.9	15.5	0.00e+00	0	25	0	2390753280	51	4161
2026-01-07 11:26:27.46	10.88	75.60	-42.9	-44.0	15.5	0.00e+00	0	25	0	2395996160	51	4198
2026-01-07 11:26:28.47	9.58	75.23	-42.7	-43.7	15.5	0.00e+00	0	25	0	2402287616	51	4087
2026-01-07 11:26:29.47	8.37	74.85	-42.8	-43.8	15.4	0.00e+00	0	25	0	2407530496	51	4124
2026-01-07 11:26:30.48	7.20	74.46	-43.3	-44.3	15.4	0.00e+00	0	25	0	2413821952	51	4349
2026-01-07 11:26:31.49	6.10	74.07	-43.3	-44.3	15.4	0.00e+00	0	25	0	2419064832	51	4361
2026-01-07 11:26:32.49	5.06	73.68	-43.3	-44.3	15.4	0.00e+00	0	25	0	2424307712	51	4370
2026-01-07 11:26:33.50	4.06	73.28	-43.5	-44.5	15.4	0.00e+00	0	25	0	2430599168	52	4201
2026-01-07 11:26:34.51	3.12	72.88	-43.4	-44.4	15.4	0.00e+00	0	25	0	2435842048	52	4190
2026-01-07 11:26:35.51	2.22	72.47	-43.6	-44.6	15.4	0.00e+00	0	25	0	2441084928	52	4274
2026-01-07 11:26:36.52	1.36	72.07	-43.9	-44.9	15.4	0.00e+00	0	25	0	2447376384	52	4430
2026-01-07 11:26:37.53	0.55	71.66	-43.6	-44.6	15.4	0.00e+00	0	25	0	2452619264	52	4260
2026-01-07 11:26:38.54	359.77	71.24	-43.5	-44.6	15.4	0.00e+00	0	25	0	2458910720	52	4249
2026-01-07 11:26:39.54	359.03	70.83	-43.7	-44.7	15.4	0.00e+00	0	25	0	2464153600	52	4332
2026-01-07 11:26:40.55	358.32	70.42	-44.0	-45.0	15.4	0.00e+00	0	25	0	2469396480	53	4235
2026-01-07 11:26:41.56	357.64	70.00	-44.2	-45.3	15.4	0.00e+00	0	25	0	2475687936	53	4355
2026-01-07 11:26:42.57	356.99	69.59	-44.1	-45.2	15.4	0.00e+00	0	25	0	2480930816	53	4294
2026-01-07 11:26:43.57	356.37	69.17	-44.1	-45.1	15.4	0.00e+00	0	25	0	2487222272	53	4285
2026-01-07 11:26:44.57	355.78	68.76	-44.2	-45.2	15.4	0.00e+00	0	25	0	2492465152	53	4330
2026-01-07 11:26:45.58	355.21	68.34	-44.2	-45.2	15.4	0.00e+00	0	25	0	2498756608	53	4324
2026-01-07 11:26:46.59	354.67	67.93	-44.1	-45.1	15.4	0.00e+00	0	25	0	2503999488	53	4269
2026-01-07 11:26:47.60	354.14	67.51	-44.1	-45.1	15.4	0.00e+00	0	25	0	2509242368	53	4273
2026-01-07 11:26:48.61	353.64	67.09	-44.1	-45.1	15.4	0.00e+00	0	25	0	2515533824	53	4260
2026-01-07 11:26:49.62	353.15	66.68	-44.0	-45.0	15.4	0.00e+00	0	25	0	2520776704	53	4241
2026-01-07 11:26:50.63	352.69	66.26	-43.9	-45.0	15.4	0.00e+00	0	25	0	2527068160	53	4202
2026-01-07 11:26:51.64	352.24	65.85	-44.0	-45.1	15.4	0.00e+00	0	25	0	2532311040	53	4255
2026-01-07 11:26:52.65	351.81	65.43	-43.8	-44.8	15.4	0.00e+00	0	25	0	2537553920	53	4117
2026-01-07 11:26:53.66	351.39	65.02	-43.9	-44.9	15.4	0.00e+00	0	25	0	2543845376	53	4155
2026-01-07 11:26:54.66	351.00	64.61	-44.2	-45.2	15.4	0.00e+00	0	25	0	2549088256	53	4314
2026-01-07 11:26:55.67	350.61	64.20	-44.2	-45.2	15.4	0.00e+00	0	25	0	2555379712	53	4317
2026-01-07 11:26:56.67	350.24	63.79	-44.2	-45.2	15.4	0.00e+00	0	25	0	2560622592	53	4330
2026-01-07 11:26:57.68	349.88	63.39	-44.1	-45.1	15.4	0.00e+00	0	25	0	2565865472	53	4277
2026-01-07 11:26:58.69	349.54	62.98	-44.2	-45.2	15.4	0.00e+00	0	25	0	2572156928	53	4321
2026-01-07 11:26:59.70	349.20	62.57	-44.3	-45.3	15.4	0.00e+00	0	25	0	2577399808	53	4373
2026-01-07 11:27:00.70	348.88	62.17	-44.3	-45.4	15.4	0.00e+00	0	25	0	2583691264	53	4409
2026-01-07 11:27:01.71	348.57	61.77	-44.4	-45.5	15.4	0.00e+00	0	25	0	2588934144	54	4218
2026-01-07 11:27:02.73	348.26	61.37	-44.4	-45.5	15.4	0.00e+00	0	25	0	2595225600	54	4211
2026-01-07 11:27:03.73	347.97	60.97	-44.4	-45.4	15.4	0.00e+00	0	25	0	2600468480	54	4179
2026-01-07 11:27:04.74	347.69	60.58	-44.3	-45.3	15.4	0.00e+00	0	25	0	2605711360	54	4122
2026-01-07 11:27:05.75	347.41	60.18	-44.3	-45.4	15.4	0.00e+00	0	25	0	2612002816	54	4146
2026-01-07 11:27:06.75	347.15	59.79	-44.6	-45.6	15.4	0.00e+00	0	25	0	2617245696	54	4265
2026-01-07 11:27:07.76	346.89	59.40	-44.9	-46.0	15.3	0.00e+00	0	25	0	2622488576	54	4451
2026-01-07 11:27:08.77	346.64	59.01	-45.0	-46.1	15.3	0.00e+00	0	25	0	2628780032	55	4281
2026-01-07 11:27:09.78	346.39	58.62	-45.2	-46.2	15.3	0.00e+00	0	25	0	2634022912	55	4336
2026-01-07 11:27:10.78	346.16	58.24	-45.6	-46.7	15.3	0.00e+00	0	25	0	2640314368	56	4314
2026-01-07 11:27:11.79	345.93	57.86	-45.8	-46.9	15.2	0.00e+00	0	25	0	2645557248	56	4417
2026-01-07 11:27:12.79	345.71	57.48	-45.9	-47.0	15.3	0.00e+00	0	25	0	2650800128	57	4210
2026-01-07 11:27:13.80	345.49	57.10	-45.9	-47.0	15.3	0.00e+00	0	25	0	2657091584	57	4196
2026-01-07 11:27:14.81	345.28	56.72	-45.7	-46.8	15.3	0.00e+00	0	25	0	2662334464	57	4123
2026-01-07 11:27:15.82	345.07	56.35	-45.7	-46.8	15.4	0.00e+00	0	25	0	2668625920	57	4105
2026-01-07 11:27:16.83	344.87	55.98	-45.6	-46.7	15.4	0.00e+00	0	25	0	2673868800	57	4068
2026-01-07 11:27:17.84	344.68	55.61	-45.6	-46.7	15.4	0.00e+00	0	25	0	2680160256	57	4066
2026-01-07 11:27:18.84	344.49	55.24	-45.7	-46.7	15.4	0.00e+00	0	25	0	2685403136	57	4083
2026-01-07 11:27:19.85	344.31	54.87	-45.7	-46.8	15.3	0.00e+00	0	25	0	2690646016	57	4117
2026-01-07 11:27:20.86	344.13	54.51	-46.0	-47.1	15.3	0.00e+00	0	25	0	2696937472	57	4258
2026-01-07 11:27:21.87	343.95	54.15	-46.1	-47.2	15.3	0.00e+00	0	25	0	2702180352	57	4338
2026-01-07 11:27:22.87	343.78	53.79	-46.1	-47.2	15.3	0.00e+00	0	25	0	2708471808	57	4321
2026-01-07 11:27:23.87	343.62	53.44	-46.0	-47.1	15.3	0.00e+00	0	25	0	2713714688	57	4286
2026-01-07 11:27:24.88	343.46	53.08	-45.8	-46.9	15.3	0.00e+00	0	25	0	2718957568	57	4170
2026-01-07 11:27:25.89	343.30	52.73	-45.8	-46.9	15.3	0.00e+00	0	25	0	2725249024	57	4153
2026-01-07 11:27:26.90	343.14	52.38	-45.8	-46.9	15.3	0.00e+00	0	25	0	2730491904	57	4148
2026-01-07 11:27:27.91	342.99	52.03	-45.8	-46.9	15.3	0.00e+00	0	25	0	2735734784	57	4188
2026-01-07 11:27:28.92	342.85	51.69	-45.5	-46.6	15.4	0.00e+00	0	25	0	2742026240	57	4034
2026-01-07 11:27:29.93	342.70	51.34	-45.5	-46.5	15.4	0.00e+00	0	25	0	2747269120	57	3998
2026-01-07 11:27:30.94	342.56	51.00	-45.2	-46.3	15.5	0.00e+00	0	25	0	2753560576	57	3880
2026-01-07 11:27:31.95	342.43	50.66	-45.1	-46.1	15.4	0.00e+00	0	25	0	2758803456	56	4046
2026-01-07 11:27:32.96	342.29	50.33	-45.1	-46.1	15.4	0.00e+00	0	25	0	2765094912	56	4032
2026-01-07 11:27:33.96	342.16	50.00	-44.9	-46.0	15.5	0.00e+00	0	25	0	2770337792	56	3966
2026-01-07 11:27:34.97	342.03	49.66	-44.9	-46.0	15.5	0.00e+00	0	25	0	2776629248	56	3980
2026-01-07 11:27:35.98	341.91	49.33	-44.9	-45.9	15.5	0.00e+00	0	25	0	2781872128	56	3950
2026-01-07 11:27:36.99	341.79	49.01	-44.9	-45.9	15.5	0.00e+00	0	25	0	2787115008	56	3952
2026-01-07 11:27:38.00	341.67	48.68	-44.8	-45.9	15.5	0.00e+00	0	25	0	2793406464	56	3919
2026-01-07 11:27:39.00	341.55	48.36	-44.7	-45.7	15.5	0.00e+00	0	25	0	2798649344	56	3867
2026-01-07 11:27:40.01	341.44	48.04	-44.8	-45.9	15.5	0.00e+00	0	25	0	2803892224	56	3927
2026-01-07 11:27:41.02	341.32	47.72	-44.9	-45.9	15.5	0.00e+00	0	25	0	2810183680	56	3957
2026-01-07 11:27:42.03	341.21	47.41	-44.9	-46.0	15.5	0.00e+00	0	25	0	2815426560	56	3964
2026-01-07 11:27:43.04	341.11	47.09	-44.7	-45.8	15.6	0.00e+00	0	25	0	2821718016	56	3889
2026-01-07 11:27:44.04	341.00	46.78	-44.8	-45.9	15.5	0.00e+00	0	25	0	2826960896	56	3921
2026-01-07 11:27:45.04	340.90	46.48	-44.7	-45.7	15.6	0.00e+00	0	25	0	2832203776	56	3848
2026-01-07 11:27:46.05	340.80	46.17	-44.4	-45.4	15.5	0.00e+00	0	25	0	2838495232	55	3939
2026-01-07 11:27:47.07	340.70	45.86	-44.4	-45.4	15.5	0.00e+00	0	25	0	2843738112	55	3948
2026-01-07 11:27:48.08	340.60	45.56	-44.5	-45.5	15.5	0.00e+00	0	25	0	2850029568	55	3990
2026-01-07 11:27:49.08	340.51	45.26	-44.6	-45.6	15.4	0.00e+00	0	25	0	2855272448	55	4051
2026-01-07 11:27:50.09	340.41	44.96	-44.7	-45.7	15.4	0.00e+00	0	25	0	2861563904	55	4093
2026-01-07 11:27:51.10	340.32	44.66	-44.8	-45.8	15.4	0.00e+00	0	25	0	2866806784	55	4138
2026-01-07 11:27:52.11	340.23	44.37	-44.8	-45.9	15.4	0.00e+00	0	25	0	2872049664	55	4147
2026-01-07 11:27:53.11	340.14	44.08	-44.7	-45.7	15.4	0.00e+00	0	25	0	2878341120	55	4083
2026-01-07 11:27:54.12	340.06	43.79	-44.6	-45.6	15.4	0.00e+00	0	25	0	2883584000	55	4044
2026-01-07 11:27:55.13	339.97	43.50	-44.6	-45.7	15.4	0.00e+00	0	25	0	2889875456	55	4058
2026-01-07 11:27:56.14	339.89	43.22	-44.5	-45.6	15.4	0.00e+00	0	25	0	2895118336	55	4019
2026-01-07 11:27:57.15	339.81	42.93	-44.5	-45.6	15.4	0.00e+00	0	25	0	2900361216	55	4025
2026-01-07 11:27:58.16	339.73	42.65	-44.6	-45.7	15.4	0.00e+00	0	25	0	2906652672	55	4060
2026-01-07 11:27:59.17	339.65	42.37	-44.6	-45.6	15.5	0.00e+00	0	25	0	2911895552	55	4028
2026-01-07 11:28:00.18	339.57	42.09	-44.6	-45.6	15.4	0.00e+00	0	25	0	2918187008	55	4023
2026-01-07 11:28:01.19	339.49	41.82	-44.2	-45.3	15.5	0.00e+00	0	25	0	2923429888	55	3874
2026-01-07 11:28:02.20	339.42	41.54	-44.1	-45.1	15.4	0.00e+00	0	25	0	2928672768	54	4033
2026-01-07 11:28:03.21	339.34	41.27	-44.1	-45.1	15.4	0.00e+00	0	25	0	2934964224	54	4048
2026-01-07 11:28:04.22	339.27	41.00	-44.1	-45.1	15.5	0.00e+00	0	25	0	2940207104	54	4029
2026-01-07 11:28:05.23	339.20	40.73	-44.1	-45.1	15.5	0.00e+00	0	25	0	2946498560	54	4033
2026-01-07 11:28:06.23	339.13	40.47	-44.1	-45.1	15.5	0.00e+00	0	25	0	2951741440	54	4016
2026-01-07 11:28:07.25	339.06	40.20	-44.0	-45.1	15.5	0.00e+00	0	25	0	2958032896	54	4013
2026-01-07 11:28:08.25	339.00	39.94	-43.9	-44.9	15.5	0.00e+00	0	25	0	2963275776	54	3948
2026-01-07 11:28:09.26	338.93	39.68	-43.9	-44.9	15.5	0.00e+00	0	25	0	2968518656	54	3935
2026-01-07 11:28:10.27	338.87	39.42	-43.9	-44.9	15.5	0.00e+00	0	25	0	2974810112	54	3942
2026-01-07 11:28:11.27	338.80	39.17	-43.8	-44.8	15.5	0.00e+00	0	25	0	2980052992	54	3883
2026-01-07 11:28:12.28	338.74	38.92	-43.9	-44.9	15.5	0.00e+00	0	25	0	2986344448	54	3920
2026-01-07 11:28:13.29	338.68	38.66	-43.6	-44.6	15.4	0.00e+00	0	25	0	2991587328	53	4038
2026-01-07 11:28:14.30	338.62	38.41	-43.6	-44.7	15.4	0.00e+00	0	25	0	2996830208	53	4053
2026-01-07 11:28:15.30	338.56	38.16	-43.6	-44.6	15.5	0.00e+00	0	25	0	3003121664	53	4023
2026-01-07 11:28:16.31	338.50	37.92	-43.6	-44.6	15.5	0.00e+00	0	25	0	3008364544	53	4033
2026-01-07 11:28:17.32	338.44	37.67	-43.6	-44.6	15.5	0.00e+00	0	25	0	3014656000	53	4025
2026-01-07 11:28:18.33	338.38	37.43	-43.6	-44.6	15.5	0.00e+00	0	25	0	3019898880	53	4039
2026-01-07 11:28:19.33	338.33	37.19	-43.6	-44.6	15.5	0.00e+00	0	25	0	3025141760	53	4020
2026-01-07 11:28:20.34	338.27	36.95	-43.6	-44.6	15.4	0.00e+00	0	25	0	3031433216	53	4021
2026-01-07 11:28:21.35	338.22	36.71	-43.6	-44.6	15.4	0.00e+00	0	25	0	3036676096	53	4049
2026-01-07 11:28:22.36	338.16	36.47	-43.7	-44.7	15.4	0.00e+00	0	25	0	3042967552	53	4059
2026-01-07 11:28:23.37	338.11	36.24	-43.8	-44.8	15.4	0.00e+00	0	25	0	3048210432	53	4145
2026-01-07 11:28:24.38	338.06	36.00	-44.0	-45.0	15.4	0.00e+00	0	25	0	3054501888	53	4212
2026-01-07 11:28:25.39	338.01	35.77	-44.2	-45.2	15.4	0.00e+00	0	25	0	3059744768	53	4312
2026-01-07 11:28:26.39	337.96	35.54	-44.2	-45.3	15.4	0.00e+00	0	25	0	3064987648	53	4353
2026-01-07 11:28:27.41	337.91	35.31	-44.4	-45.4	15.3	0.00e+00	0	25	0	3071279104	53	4432
2026-01-07 11:28:28.42	337.86	35.08	-44.4	-45.5	15.4	0.00e+00	0	25	0	3076521984	54	4212
2026-01-07 11:28:29.42	337.81	34.86	-44.5	-45.6	15.4	0.00e+00	0	25	0	3082813440	54	4243
2026-01-07 11:28:30.43	337.76	34.64	-44.5	-45.5	15.4	0.00e+00	0	25	0	3088056320	54	4235
2026-01-07 11:28:31.44	337.72	34.41	-44.5	-45.6	15.3	0.00e+00	0	25	0	3093299200	54	4253
2026-01-07 11:28:32.45	337.67	34.19	-44.5	-45.6	15.3	0.00e+00	0	25	0	3099590656	54	4260
2026-01-07 11:28:33.46	337.63	33.97	-44.5	-45.5	15.4	0.00e+00	0	25	0	3104833536	54	4238
2026-01-07 11:28:34.47	337.58	33.76	-44.6	-45.6	15.3	0.00e+00	0	25	0	3110076416	54	4284
2026-01-07 11:28:35.48	337.54	33.54	-44.4	-45.5	15.3	0.00e+00	0	25	0	3116367872	54	4207
2026-01-07 11:28:36.49	337.49	33.33	-44.4	-45.4	15.4	0.00e+00	0	25	0	3121610752	54	4179
2026-01-07 11:28:37.49	337.45	33.11	-44.4	-45.4	15.4	0.00e+00	0	25	0	3127902208	54	4179
2026-01-07 11:28:38.50	337.41	32.90	-44.3	-45.4	15.4	0.00e+00	0	25	0	3133145088	54	4150
2026-01-07 11:28:39.50	337.37	32.69	-44.5	-45.5	15.4	0.00e+00	0	25	0	3138387968	54	4208
2026-01-07 11:28:40.51	337.33	32.49	-44.5	-45.6	15.3	0.00e+00	0	25	0	3144679424	54	4261
2026-01-07 11:28:41.52	337.29	32.28	-44.4	-45.5	15.4	0.00e+00	0	25	0	3149922304	54	4207
2026-01-07 11:28:42.53	337.25	32.07	-44.4	-45.5	15.3	0.00e+00	0	25	0	3156213760	54	4203
2026-01-07 11:28:43.53	337.21	31.87	-44.4	-45.4	15.4	0.00e+00	0	25	0	3161456640	54	4164
2026-01-07 11:28:44.54	337.17	31.67	-44.5	-45.5	15.4	0.00e+00	0	25	0	3167748096	54	4215
2026-01-07 11:28:45.55	337.13	31.46	-44.5	-45.5	15.4	0.00e+00	0	25	0	3172990976	54	4217
2026-01-07 11:28:46.56	337.09	31.26	-44.4	-45.4	15.4	0.00e+00	0	25	0	3178233856	54	4191
2026-01-07 11:28:47.57	337.06	31.06	-44.3	-45.3	15.4	0.00e+00	0	25	0	3184525312	54	4131
2026-01-07 11:28:48.57	337.02	30.87	-44.2	-45.2	15.4	0.00e+00	0	25	0	3189768192	54	4066
2026-01-07 11:28:49.58	336.98	30.67	-44.2	-45.3	15.4	0.00e+00	0	25	0	3196059648	54	4102
2026-01-07 11:28:50.59	336.95	30.48	-44.2	-45.2	15.4	0.00e+00	0	25	0	3201302528	54	4067
2026-01-07 11:28:51.60	336.91	30.28	-44.1	-45.1	15.4	0.00e+00	0	25	0	3206545408	54	4044
2026-01-07 11:28:52.60	336.88	30.09	-44.1	-45.1	15.4	0.00e+00	0	25	0	3212836864	54	4044
2026-01-07 11:28:53.61	336.84	29.90	-44.0	-45.1	15.4	0.00e+00	0	25	0	3218079744	54	4010
2026-01-07 11:28:54.63	336.81	29.71	-44.0	-45.1	15.4	0.00e+00	0	25	0	3224371200	54	4005
2026-01-07 11:28:55.64	336.78	29.52	-44.1	-45.1	15.4	0.00e+00	0	25	0	3229614080	54	4042
2026-01-07 11:28:56.64	336.74	29.33	-44.1	-45.2	15.4	0.00e+00	0	25	0	3234856960	54	4057
2026-01-07 11:28:57.65	336.71	29.15	-44.3	-45.3	15.4	0.00e+00	0	25	0	3241148416	54	4116
2026-01-07 11:28:58.66	336.68	28.96	-44.3	-45.4	15.4	0.00e+00	0	25	0	3246391296	54	4147
2026-01-07 11:28:59.67	336.65	28.78	-44.4	-45.4	15.4	0.00e+00	0	25	0	3252682752	54	4166
2026-01-07 11:29:00.67	336.61	28.60	-44.4	-45.5	15.4	0.00e+00	0	25	0	3257925632	54	4194
2026-01-07 11:29:01.68	336.58	28.42	-44.4	-45.4	15.4	0.00e+00	0	25	0	3264217088	54	4187
2026-01-07 11:29:02.69	336.55	28.24	-44.4	-45.4	15.4	0.00e+00	0	25	0	3269459968	54	4188
2026-01-07 11:29:03.70	336.52	28.06	-44.4	-45.4	15.4	0.00e+00	0	25	0	3274702848	54	4182
2026-01-07 11:29:04.71	336.49	27.88	-44.4	-45.4	15.4	0.00e+00	0	25	0	3280994304	54	4171
2026-01-07 11:29:05.72	336.46	27.70	-44.4	-45.4	15.4	0.00e+00	0	25	0	3286237184	54	4167
2026-01-07 11:29:06.73	336.43	27.53	-44.3	-45.3	15.4	0.00e+00	0	25	0	3292528640	54	4143
2026-01-07 11:29:07.74	336.41	27.35	-44.2	-45.2	15.4	0.00e+00	0	25	0	3297771520	54	4086
2026-01-07 11:29:08.75	336.38	27.18	-44.2	-45.2	15.4	0.00e+00	0	25	0	3303014400	54	4069
2026-01-07 11:29:09.76	336.35	27.01	-44.2	-45.2	15.4	0.00e+00	0	25	0	3309305856	54	4072
2026-01-07 11:29:10.77	336.32	26.83	-44.2	-45.2	15.4	0.00e+00	0	25	0	3314548736	54	4098
2026-01-07 11:29:11.78	336.29	26.66	-44.3	-45.4	15.4	0.00e+00	0	25	0	3320840192	54	4153
2026-01-07 11:29:12.79	336.27	26.49	-44.4	-45.4	15.3	0.00e+00	0	25	0	3326083072	54	4180
2026-01-07 11:29:13.80	336.24	26.33	-44.5	-45.5	15.3	0.00e+00	0	25	0	3331325952	54	4210
2026-01-07 11:29:14.81	336.21	26.16	-44.5	-45.6	15.3	0.00e+00	0	25	0	3337617408	54	4246
2026-01-07 11:29:15.82	336.19	25.99	-44.5	-45.5	15.3	0.00e+00	0	25	0	3342860288	54	4220
2026-01-07 11:29:16.83	336.16	25.83	-44.5	-45.5	15.3	0.00e+00	0	25	0	3349151744	54	4242
2026-01-07 11:29:17.84	336.14	25.66	-44.6	-45.7	15.3	0.00e+00	0	25	0	3354394624	54	4304
2026-01-07 11:29:18.85	336.11	25.50	-44.6	-45.7	15.3	0.00e+00	0	25	0	3360686080	54	4321
2026-01-07 11:29:19.85	336.09	25.34	-44.7	-45.7	15.3	0.00e+00	0	25	0	3365928960	54	4338
2026-01-07 11:29:20.86	336.06	25.18	-44.8	-45.8	15.3	0.00e+00	0	25	0	3371171840	54	4389
2026-01-07 11:29:21.87	336.04	25.02	-44.8	-45.9	15.3	0.00e+00	0	25	0	3377463296	54	4434
2026-01-07 11:29:22.88	336.01	24.86	-44.8	-45.9	15.3	0.00e+00	0	25	0	3382706176	54	4416
2026-01-07 11:29:23.89	335.99	24.70	-44.9	-46.0	15.3	0.00e+00	0	25	0	3388997632	54	4466
2026-01-07 11:29:24.90	335.97	24.54	-45.0	-46.1	15.3	0.00e+00	0	25	0	3394240512	55	4253
2026-01-07 11:29:25.91	335.94	24.39	-45.0	-46.1	15.3	0.00e+00	0	25	0	3399483392	55	4264
2026-01-07 11:29:26.92	335.92	24.23	-45.0	-46.0	15.3	0.00e+00	0	25	0	3405774848	55	4240
2026-01-07 11:29:27.93	335.90	24.08	-44.9	-46.0	15.3	0.00e+00	0	25	0	3411017728	55	4211
2026-01-07 11:29:28.93	335.88	23.92	-44.9	-46.0	15.3	0.00e+00	0	25	0	3417309184	55	4228
2026-01-07 11:29:29.94	335.86	23.77	-44.9	-46.0	15.3	0.00e+00	0	25	0	3422552064	55	4205
2026-01-07 11:29:30.95	335.83	23.62	-45.0	-46.0	15.3	0.00e+00	0	25	0	3427794944	55	4229
2026-01-07 11:29:31.96	335.81	23.47	-45.0	-46.0	15.3	0.00e+00	0	25	0	3434086400	55	4237
2026-01-07 11:29:32.96	335.79	23.32	-44.8	-45.9	15.3	0.00e+00	0	25	0	3439329280	55	4155
2026-01-07 11:29:33.97	335.77	23.17	-44.9	-45.9	15.3	0.00e+00	0	25	0	3445620736	55	4185
2026-01-07 11:29:34.98	335.75	23.02	-44.9	-46.0	15.3	0.00e+00	0	25	0	3450863616	55	4197
2026-01-07 11:29:35.99	335.73	22.87	-44.9	-45.9	15.3	0.00e+00	0	25	0	3457155072	55	4192
2026-01-07 11:29:36.99	335.71	22.73	-44.9	-46.0	15.3	0.00e+00	0	25	0	3462397952	55	4212
2026-01-07 11:29:38.00	335.69	22.58	-45.0	-46.0	15.3	0.00e+00	0	25	0	3467640832	55	4222
2026-01-07 11:29:39.01	335.67	22.44	-45.0	-46.0	15.3	0.00e+00	0	25	0	3473932288	55	4229
2026-01-07 11:29:40.01	335.65	22.29	-45.1	-46.2	15.2	0.00e+00	0	25	0	3479175168	55	4313
2026-01-07 11:29:41.02	335.63	22.15	-45.1	-46.2	15.2	0.00e+00	0	25	0	3484418048	55	4306
2026-01-07 11:29:42.02	335.61	22.01	-45.1	-46.2	15.2	0.00e+00	0	25	0	3490709504	55	4313
2026-01-07 11:29:43.03	335.59	21.87	-45.2	-46.3	15.2	0.00e+00	0	25	0	3495952384	55	4353
2026-01-07 11:29:44.03	335.57	21.73	-45.1	-46.2	15.2	0.00e+00	0	25	0	3502243840	55	4317
2026-01-07 11:29:45.04	335.55	21.59	-45.2	-46.3	15.2	0.00e+00	0	25	0	3507486720	55	4376
2026-01-07 11:29:46.05	335.54	21.45	-45.2	-46.3	15.2	0.00e+00	0	25	0	3512729600	55	4352
2026-01-07 11:29:47.06	335.52	21.31	-45.2	-46.3	15.2	0.00e+00	0	25	0	3519021056	55	4378
2026-01-07 11:29:48.07	335.50	21.17	-45.2	-46.3	15.2	0.00e+00	0	25	0	3524263936	55	4386
2026-01-07 11:29:49.08	335.48	21.03	-45.3	-46.4	15.2	0.00e+00	0	25	0	3530555392	55	4434
2026-01-07 11:29:50.08	335.46	20.90	-45.3	-46.4	15.2	0.00e+00	0	25	0	3535798272	55	4434
2026-01-07 11:29:51.09	335.45	20.76	-45.4	-46.5	15.2	0.00e+00	0	25	0	3542089728	55	4467
2026-01-07 11:29:52.10	335.43	20.63	-45.7	-46.8	15.2	0.00e+00	0	25	0	3547332608	56	4352
2026-01-07 11:29:53.11	335.41	20.49	-45.7	-46.8	15.2	0.00e+00	0	25	0	3552575488	56	4353
2026-01-07 11:29:54.11	335.39	20.36	-45.8	-46.9	15.2	0.00e+00	0	25	0	3558866944	56	4439
2026-01-07 11:29:55.13	335.38	20.23	-45.8	-47.0	15.2	0.00e+00	0	25	0	3564109824	56	4453
2026-01-07 11:29:56.14	335.36	20.09	-45.8	-46.9	15.2	0.00e+00	0	25	0	3570401280	56	4434
2026-01-07 11:29:57.14	335.35	19.96	-45.8	-47.0	15.2	0.00e+00	0	25	0	3575644160	56	4448
2026-01-07 11:29:58.15	335.33	19.83	-45.8	-46.9	15.2	0.00e+00	0	25	0	3580887040	56	4435
2026-01-07 11:29:59.15	335.31	19.70	-45.9	-47.0	15.1	0.00e+00	0	25	0	3587178496	56	4489
2026-01-07 11:30:00.16	335.30	19.57	-45.9	-47.1	15.2	0.00e+00	0	25	0	3592421376	57	4249
2026-01-07 11:30:01.17	335.28	19.45	-45.8	-46.9	15.2	0.00e+00	0	25	0	3597664256	57	4193
2026-01-07 11:30:02.18	335.27	19.32	-45.9	-47.0	15.2	0.00e+00	0	25	0	3603955712	57	4234
2026-01-07 11:30:03.19	335.25	19.19	-46.0	-47.1	15.2	0.00e+00	0	25	0	3609198592	57	4268
2026-01-07 11:30:04.20	335.24	19.06	-46.0	-47.1	15.2	0.00e+00	0	25	0	3615490048	57	4276
2026-01-07 11:30:05.20	335.22	18.94	-45.9	-47.1	15.2	0.00e+00	0	25	0	3620732928	57	4245
2026-01-07 11:30:06.21	335.21	18.81	-45.9	-47.0	15.2	0.00e+00	0	25	0	3627024384	57	4242
2026-01-07 11:30:07.21	335.19	18.69	-45.9	-47.1	15.2	0.00e+00	0	25	0	3632267264	57	4250
2026-01-07 11:30:08.23	335.18	18.56	-46.0	-47.2	15.2	0.00e+00	0	25	0	3638558720	57	4297
2026-01-07 11:30:09.23	335.16	18.44	-46.2	-47.3	15.1	0.00e+00	0	25	0	3643801600	57	4357
2026-01-07 11:30:10.24	335.15	18.32	-46.2	-47.3	15.2	0.00e+00	0	25	0	3649044480	57	4351
2026-01-07 11:30:11.25	335.13	18.19	-46.2	-47.3	15.1	0.00e+00	0	25	0	3655335936	57	4380
2026-01-07 11:30:12.26	335.12	18.07	-46.3	-47.4	15.1	0.00e+00	0	25	0	3660578816	57	4407
2026-01-07 11:30:13.27	335.11	17.95	-46.2	-47.4	15.1	0.00e+00	0	25	0	3666870272	57	4407
2026-01-07 11:30:14.27	335.09	17.83	-46.3	-47.5	15.1	0.00e+00	0	25	0	3672113152	57	4450
2026-01-07 11:30:15.28	335.08	17.71	-46.4	-47.6	15.2	0.00e+00	0	25	0	3677356032	58	4267
2026-01-07 11:30:16.29	335.07	17.59	-46.4	-47.5	15.2	0.00e+00	0	26	0	3683647488	58	4221
2026-01-07 11:30:17.30	335.05	17.47	-46.4	-47.5	15.2	0.00e+00	0	25	0	3688890368	58	4215
2026-01-07 11:30:18.31	335.04	17.35	-46.5	-47.7	15.1	0.00e+00	0	25	0	3694133248	58	4295
2026-01-07 11:30:19.32	335.03	17.24	-46.4	-47.6	15.2	0.00e+00	0	25	0	3700424704	58	4266
2026-01-07 11:30:20.32	335.01	17.12	-46.4	-47.6	15.2	0.00e+00	0	25	0	3705667584	58	4251
2026-01-07 11:30:21.32	335.00	17.01	-46.5	-47.6	15.1	0.00e+00	0	25	0	3711959040	58	4276
2026-01-07 11:30:22.33	334.99	16.89	-46.5	-47.6	15.1	0.00e+00	0	26	0	3717201920	58	4275
