passes_logs/2026/01/07/R3.2S_Murmansk/R3.2S_Murmansk__20260107_210203_NOAA_20_JPSS-1_rec.log

#Pass ID: 20260107_210203_NOAA 20 (JPSS-1)
#Satellite: NOAA 20 (JPSS-1)
#Configuration: NOAA 20
#almurnet v.1.7.20251203
#Start time: 2026-01-07 21:02:06

#Version: 2.2.20231116
#Station: R3.2S_Murmansk
#Location: 33.079688 lon 68.888172 lat
#TLE: 1 43013U 17073A   26006.30790171  .00000126  00000+0  80695-4 0  9991
#TLE: 2 43013  98.7629 307.3394 0001808  51.8724 308.2615 14.19533762421505

#Time	Az	El	Level	Level2	SNR	BER	BlckErr	Temp	State	Recorded	gain1	gain2
2026-01-07 21:02:06.03	18.90	2.09	-57.5	-73.5	3.8	1.49e+00	0	23	0	0	81	22265
2026-01-07 21:02:07.02	19.00	2.13	-57.5	-73.4	3.8	1.49e+00	0	23	104	0	80	23382
2026-01-07 21:02:08.01	19.10	2.17	-57.4	-73.4	3.8	1.49e+00	0	23	104	0	80	23357
2026-01-07 21:02:09.00	19.21	2.21	-57.5	-73.4	3.8	1.49e+00	0	23	104	0	80	23429
2026-01-07 21:02:09.99	19.31	2.25	-57.5	-73.4	3.8	1.49e+00	0	23	104	0	80	23414
2026-01-07 21:02:10.99	19.42	2.30	-57.4	-73.4	3.8	1.49e+00	0	23	104	0	80	23387
2026-01-07 21:02:11.98	19.52	2.34	-57.5	-73.4	3.8	1.49e+00	0	23	104	0	80	23427
2026-01-07 21:02:12.97	19.63	2.38	-57.5	-73.4	3.8	1.49e+00	0	23	104	0	80	23364
2026-01-07 21:02:13.96	19.74	2.42	-57.4	-73.4	3.8	1.49e+00	0	23	104	0	80	23341
2026-01-07 21:02:14.96	19.84	2.46	-57.4	-73.3	3.8	1.49e+00	0	23	104	0	80	23206
2026-01-07 21:02:15.97	19.95	2.50	-57.4	-73.3	3.8	1.49e+00	0	23	104	0	80	23181
2026-01-07 21:02:16.97	20.06	2.54	-57.4	-73.3	3.8	1.49e+00	0	23	104	0	80	23086
2026-01-07 21:02:17.96	20.17	2.58	-57.5	-73.2	3.8	1.49e+00	0	23	104	0	80	22900
2026-01-07 21:02:18.96	20.27	2.62	-57.5	-73.3	3.8	1.49e+00	0	24	104	0	80	23301
2026-01-07 21:02:19.95	20.38	2.66	-57.5	-73.3	3.8	1.49e+00	0	24	104	0	80	23060
2026-01-07 21:02:20.94	20.49	2.70	-57.5	-73.3	3.8	1.49e+00	0	24	104	0	80	23245
2026-01-07 21:02:21.93	20.60	2.74	-57.4	-73.4	3.8	1.49e+00	0	23	104	0	80	23316
2026-01-07 21:02:22.92	20.70	2.78	-57.5	-73.4	3.8	1.49e+00	0	24	104	0	80	23337
2026-01-07 21:02:23.92	20.81	2.82	-57.4	-73.4	3.8	1.49e+00	0	24	104	0	80	23334
2026-01-07 21:02:24.91	20.92	2.86	-57.5	-73.4	3.8	1.49e+00	0	24	104	0	80	23371
2026-01-07 21:02:25.90	21.03	2.91	-57.5	-73.4	3.8	1.49e+00	0	24	104	0	80	23369
2026-01-07 21:02:26.89	21.14	2.95	-57.4	-73.3	3.8	1.49e+00	0	24	104	0	80	23250
2026-01-07 21:02:27.89	21.25	2.99	-57.5	-73.4	3.8	1.49e+00	0	24	104	0	80	23324
2026-01-07 21:02:28.89	21.36	3.03	-57.4	-73.4	3.8	1.49e+00	0	24	104	0	80	23388
2026-01-07 21:02:29.89	21.47	3.07	-57.5	-73.4	3.8	1.49e+00	0	24	104	0	80	23474
2026-01-07 21:02:30.89	21.59	3.11	-57.5	-73.4	3.8	1.49e+00	0	24	104	0	80	23335
2026-01-07 21:02:31.88	21.70	3.15	-57.5	-73.4	3.8	1.49e+00	0	24	104	0	80	23335
2026-01-07 21:02:32.89	21.81	3.19	-57.5	-73.4	3.8	1.49e+00	0	24	104	0	80	23476
2026-01-07 21:02:33.89	21.92	3.23	-57.5	-73.4	3.8	1.49e+00	0	24	104	0	80	23562
2026-01-07 21:02:34.88	22.03	3.27	-57.5	-73.5	3.8	1.49e+00	0	24	104	0	80	23628
2026-01-07 21:02:35.88	22.15	3.31	-57.5	-73.5	3.8	1.49e+00	0	24	104	0	80	23603
2026-01-07 21:02:36.88	22.26	3.35	-57.5	-73.5	3.8	1.49e+00	0	24	104	0	80	23685
2026-01-07 21:02:37.87	22.37	3.39	-57.5	-73.5	3.8	1.49e+00	0	24	104	0	80	23586
2026-01-07 21:02:38.87	22.49	3.43	-57.5	-73.4	3.8	1.49e+00	0	24	104	0	80	23494
2026-01-07 21:02:39.87	22.60	3.47	-57.5	-73.4	3.8	1.49e+00	0	24	104	0	80	23495
2026-01-07 21:02:40.86	22.71	3.51	-57.5	-73.3	3.8	1.49e+00	0	24	104	0	80	23208
2026-01-07 21:02:41.86	22.83	3.55	-57.5	-73.4	3.8	1.49e+00	0	24	104	0	80	23350
2026-01-07 21:02:42.86	22.94	3.59	-57.5	-73.4	3.8	1.49e+00	0	24	104	0	80	23373
2026-01-07 21:02:43.87	23.06	3.63	-57.4	-73.4	3.8	1.49e+00	0	24	104	0	80	23434
2026-01-07 21:02:44.86	23.17	3.67	-57.5	-73.4	3.8	1.49e+00	0	24	104	0	80	23462
2026-01-07 21:02:45.86	23.29	3.71	-57.5	-73.5	3.8	1.49e+00	0	24	104	0	80	23637
2026-01-07 21:02:46.86	23.41	3.75	-57.5	-73.5	3.8	1.49e+00	0	24	104	0	80	23634
2026-01-07 21:02:47.85	23.52	3.79	-57.5	-73.4	3.8	1.49e+00	0	24	104	0	80	23417
2026-01-07 21:02:48.86	23.64	3.83	-57.5	-73.4	3.8	1.49e+00	0	24	104	0	80	23341
2026-01-07 21:02:49.85	23.76	3.87	-57.4	-73.4	3.8	1.49e+00	0	24	104	0	80	23318
2026-01-07 21:02:50.85	23.87	3.91	-57.5	-73.4	3.8	1.49e+00	0	24	104	0	80	23501
2026-01-07 21:02:51.85	23.99	3.95	-57.5	-73.4	3.8	1.49e+00	0	24	104	0	80	23580
2026-01-07 21:02:52.84	24.11	3.99	-57.4	-73.4	3.8	1.49e+00	0	24	104	0	80	23366
2026-01-07 21:02:53.84	24.23	4.03	-57.5	-73.3	3.8	1.49e+00	0	24	104	0	80	23152
2026-01-07 21:02:54.83	24.35	4.07	-57.5	-73.1	3.8	1.49e+00	0	24	104	0	80	22602
2026-01-07 21:02:55.82	24.46	4.11	-57.4	-73.1	3.8	1.49e+00	0	24	104	0	80	22725
2026-01-07 21:02:56.82	24.58	4.15	-57.4	-73.3	3.8	1.49e+00	0	24	104	0	80	23149
2026-01-07 21:02:57.81	24.70	4.19	-57.5	-73.3	3.8	1.49e+00	0	24	104	0	80	23295
2026-01-07 21:02:58.82	24.82	4.23	-57.5	-73.4	3.8	1.49e+00	0	24	104	0	80	23423
2026-01-07 21:02:59.82	24.94	4.27	-57.4	-73.1	3.8	1.49e+00	0	24	104	0	80	22687
2026-01-07 21:03:00.82	25.06	4.31	-57.4	-72.4	3.8	1.49e+00	0	24	104	0	80	20946
2026-01-07 21:03:01.82	25.18	4.35	-57.4	-71.6	3.8	1.49e+00	0	24	104	0	80	19151
2026-01-07 21:03:02.81	25.30	4.39	-57.4	-71.2	3.9	1.49e+00	0	24	104	0	80	18187
2026-01-07 21:03:03.81	25.43	4.43	-57.4	-71.0	3.8	1.48e+00	0	24	104	0	80	17863
2026-01-07 21:03:04.82	25.55	4.47	-57.4	-71.1	3.8	1.49e+00	0	24	104	0	80	17987
2026-01-07 21:03:05.82	25.67	4.51	-57.3	-69.7	4.2	1.45e+00	0	24	0	0	80	15333
2026-01-07 21:03:06.82	25.79	4.55	-57.1	-67.0	5.4	9.88e-01	0	24	0	1048576	80	11280
2026-01-07 21:03:07.82	25.92	4.59	-56.6	-64.1	7.6	1.18e-01	0	24	0	3145728	79	8483
2026-01-07 21:03:08.82	26.04	4.62	-55.9	-61.5	9.7	9.40e-03	0	24	0	5242880	78	6677
2026-01-07 21:03:09.82	26.16	4.66	-55.2	-59.6	11.3	6.72e-04	0	24	0	6291456	77	5695
2026-01-07 21:03:10.82	26.29	4.70	-54.3	-57.9	12.4	1.52e-05	0	24	0	8388608	75	5220
2026-01-07 21:03:11.81	26.41	4.74	-54.1	-57.4	12.7	0.00e+00	0	24	0	10485760	74	5251
2026-01-07 21:03:12.81	26.53	4.78	-54.0	-57.2	12.8	0.00e+00	0	24	0	12582912	74	5145
2026-01-07 21:03:13.81	26.66	4.82	-53.9	-57.1	13.0	0.00e+00	0	24	0	13631488	74	5044
2026-01-07 21:03:14.81	26.78	4.86	-54.3	-57.8	12.4	7.00e-07	0	24	0	15728640	74	5495
2026-01-07 21:03:15.81	26.91	4.90	-54.8	-58.8	11.6	9.10e-06	0	24	0	17825792	74	6184
2026-01-07 21:03:16.81	27.03	4.94	-55.4	-60.2	10.6	7.01e-05	0	24	0	19922944	75	6864
2026-01-07 21:03:17.80	27.16	4.97	-56.2	-62.6	8.8	1.74e-03	0	24	0	22020096	77	8048
2026-01-07 21:03:18.80	27.29	5.01	-56.6	-64.0	7.6	4.02e-02	0	24	0	23068672	78	8914
2026-01-07 21:03:19.78	27.41	5.05	-56.4	-63.1	8.4	7.43e-02	0	24	0	25165824	78	8053
2026-01-07 21:03:20.77	27.54	5.09	-56.7	-66.7	5.5	6.13e-02	0	24	0	27262976	78	12122
2026-01-07 21:03:21.76	27.66	5.13	-57.1	-65.8	6.5	1.25e-01	0	24	0	29360128	79	10350
2026-01-07 21:03:22.76	27.79	5.17	-55.0	-58.9	11.8	1.60e-01	0	24	0	30408704	76	5587
2026-01-07 21:03:23.74	27.91	5.20	-57.2	-67.3	5.4	3.67e-03	0	24	0	32505856	79	12341
2026-01-07 21:03:24.74	28.04	5.24	-55.5	-60.0	10.9	7.75e-01	0	24	0	34603008	77	5929
2026-01-07 21:03:25.73	28.17	5.28	-54.4	-57.7	12.7	3.00e-06	0	24	0	36700160	75	5135
2026-01-07 21:03:26.73	28.30	5.32	-53.8	-56.7	13.3	0.00e+00	0	24	0	38797312	74	4827
2026-01-07 21:03:27.72	28.43	5.36	-53.4	-56.1	13.6	0.00e+00	0	25	0	39845888	73	4777
2026-01-07 21:03:28.72	28.56	5.39	-53.5	-56.3	13.5	0.00e+00	0	25	0	41943040	73	4905
2026-01-07 21:03:29.71	28.68	5.43	-53.6	-56.5	13.3	0.00e+00	0	25	0	44040192	73	5001
2026-01-07 21:03:30.71	28.81	5.47	-53.8	-56.7	13.2	0.00e+00	0	25	0	46137344	73	5112
2026-01-07 21:03:31.72	28.95	5.51	-53.7	-56.6	13.2	0.00e+00	0	24	0	47185920	73	5080
2026-01-07 21:03:32.71	29.08	5.55	-53.7	-56.7	13.2	0.00e+00	0	25	0	49283072	73	5107
2026-01-07 21:03:33.71	29.21	5.58	-53.5	-56.3	13.4	0.00e+00	0	24	0	51380224	73	4897
2026-01-07 21:03:34.70	29.34	5.62	-53.6	-56.3	13.4	0.00e+00	0	25	0	53477376	73	4909
2026-01-07 21:03:35.70	29.47	5.66	-53.7	-56.5	13.3	0.00e+00	0	25	0	55574528	73	5037
2026-01-07 21:03:36.71	29.60	5.70	-53.7	-56.6	13.3	0.00e+00	0	25	0	56623104	73	5079
2026-01-07 21:03:37.70	29.73	5.73	-53.7	-56.6	13.2	0.00e+00	0	25	0	58720256	73	5080
2026-01-07 21:03:38.70	29.87	5.77	-53.7	-56.6	13.3	0.00e+00	0	25	0	60817408	73	5076
2026-01-07 21:03:39.70	30.00	5.81	-53.9	-56.9	13.0	0.00e+00	0	25	0	62914560	73	5277
2026-01-07 21:03:40.69	30.13	5.85	-53.6	-56.4	13.4	0.00e+00	0	25	0	65011712	73	4949
2026-01-07 21:03:41.68	30.26	5.88	-53.9	-56.9	13.1	0.00e+00	0	25	0	66060288	73	5244
2026-01-07 21:03:42.69	30.40	5.92	-53.8	-56.7	13.2	0.00e+00	0	25	0	68157440	73	5143
2026-01-07 21:03:43.69	30.53	5.96	-53.5	-56.2	13.5	0.00e+00	0	25	0	70254592	73	4859
2026-01-07 21:03:44.69	30.67	5.99	-53.6	-56.3	13.5	0.00e+00	0	25	0	72351744	73	4915
2026-01-07 21:03:45.69	30.80	6.03	-53.6	-56.3	13.5	0.00e+00	0	25	0	74448896	73	4905
2026-01-07 21:03:46.69	30.94	6.07	-53.6	-56.4	13.4	0.00e+00	0	25	0	75497472	73	4942
2026-01-07 21:03:47.69	31.08	6.10	-53.8	-56.6	13.3	0.00e+00	0	24	0	77594624	73	5060
2026-01-07 21:03:48.68	31.21	6.14	-53.6	-56.4	13.4	0.00e+00	0	25	0	79691776	73	4945
2026-01-07 21:03:49.68	31.35	6.18	-53.6	-56.3	13.5	0.00e+00	0	25	0	81788928	73	4925
2026-01-07 21:03:50.68	31.48	6.21	-53.5	-56.2	13.5	0.00e+00	0	25	0	82837504	73	4832
2026-01-07 21:03:51.68	31.62	6.25	-53.4	-56.0	13.7	0.00e+00	0	25	0	84934656	73	4737
2026-01-07 21:03:52.68	31.76	6.29	-53.7	-56.4	13.5	0.00e+00	0	25	0	87031808	73	4958
2026-01-07 21:03:53.68	31.89	6.32	-53.5	-56.2	13.6	0.00e+00	0	24	0	89128960	73	4830
2026-01-07 21:03:54.68	32.03	6.36	-53.6	-56.3	13.5	0.00e+00	0	24	0	91226112	73	4910
2026-01-07 21:03:55.67	32.17	6.39	-53.6	-56.3	13.5	0.00e+00	0	25	0	92274688	73	4925
2026-01-07 21:03:56.67	32.31	6.43	-53.4	-55.9	13.7	0.00e+00	0	25	0	94371840	73	4693
2026-01-07 21:03:57.67	32.45	6.47	-53.4	-56.0	13.7	0.00e+00	0	24	0	96468992	73	4714
2026-01-07 21:03:58.67	32.59	6.50	-53.4	-56.0	13.7	0.00e+00	0	25	0	98566144	73	4732
2026-01-07 21:03:59.68	32.73	6.54	-53.4	-56.0	13.7	0.00e+00	0	25	0	100663296	73	4752
2026-01-07 21:04:00.67	32.87	6.57	-53.4	-56.1	13.6	0.00e+00	0	25	0	101711872	73	4772
2026-01-07 21:04:01.67	33.01	6.61	-53.4	-56.0	13.7	0.00e+00	0	25	0	103809024	73	4748
2026-01-07 21:04:02.68	33.15	6.64	-53.4	-56.0	13.7	0.00e+00	0	25	0	105906176	73	4713
2026-01-07 21:04:03.67	33.29	6.68	-53.5	-56.2	13.6	0.00e+00	0	25	0	108003328	73	4826
2026-01-07 21:04:04.67	33.43	6.71	-53.6	-56.3	13.6	0.00e+00	0	25	0	109051904	73	4891
2026-01-07 21:04:05.66	33.57	6.75	-53.5	-56.1	13.6	0.00e+00	0	25	0	111149056	73	4812
2026-01-07 21:04:06.66	33.71	6.78	-53.5	-56.1	13.7	0.00e+00	0	25	0	113246208	73	4766
2026-01-07 21:04:07.66	33.85	6.82	-53.1	-55.6	13.8	0.00e+00	0	25	0	115343360	72	4767
2026-01-07 21:04:08.66	34.00	6.85	-53.2	-55.8	13.7	0.00e+00	0	25	0	117440512	72	4885
2026-01-07 21:04:09.66	34.14	6.89	-53.2	-55.7	13.7	0.00e+00	0	25	0	118489088	72	4869
2026-01-07 21:04:10.66	34.28	6.92	-53.2	-55.7	13.8	0.00e+00	0	25	0	120586240	72	4815
2026-01-07 21:04:11.66	34.43	6.96	-53.3	-55.8	13.7	0.00e+00	0	25	0	122683392	72	4887
2026-01-07 21:04:12.65	34.57	6.99	-53.2	-55.7	13.8	0.00e+00	0	25	0	124780544	72	4827
2026-01-07 21:04:13.65	34.71	7.03	-53.2	-55.8	13.7	0.00e+00	0	25	0	126877696	72	4871
2026-01-07 21:04:14.64	34.86	7.06	-53.3	-55.8	13.7	0.00e+00	0	25	0	127926272	72	4907
2026-01-07 21:04:15.64	35.00	7.09	-53.4	-55.9	13.7	0.00e+00	0	25	0	130023424	72	4957
2026-01-07 21:04:16.64	35.15	7.13	-53.4	-55.9	13.6	0.00e+00	0	25	0	132120576	72	4980
2026-01-07 21:04:17.64	35.29	7.16	-53.4	-56.0	13.6	0.00e+00	0	25	0	134217728	72	5039
2026-01-07 21:04:18.64	35.44	7.20	-53.4	-56.0	13.6	0.00e+00	0	25	0	135266304	72	4989
2026-01-07 21:04:19.63	35.58	7.23	-53.5	-56.1	13.5	0.00e+00	0	25	0	137363456	72	5064
2026-01-07 21:04:20.62	35.73	7.26	-53.5	-56.2	13.5	0.00e+00	0	25	0	139460608	72	5112
2026-01-07 21:04:21.63	35.88	7.30	-53.5	-56.1	13.5	0.00e+00	0	25	0	141557760	72	5048
2026-01-07 21:04:22.62	36.02	7.33	-53.6	-56.3	13.4	0.00e+00	0	25	0	143654912	72	5178
2026-01-07 21:04:23.62	36.17	7.36	-53.6	-56.3	13.4	0.00e+00	0	25	0	144703488	72	5181
2026-01-07 21:04:24.61	36.32	7.40	-53.5	-56.2	13.5	0.00e+00	0	25	0	146800640	72	5117
2026-01-07 21:04:25.61	36.46	7.43	-53.3	-55.9	13.6	0.00e+00	0	25	0	148897792	72	4952
2026-01-07 21:04:26.61	36.61	7.46	-53.3	-55.9	13.7	0.00e+00	0	25	0	150994944	72	4927
2026-01-07 21:04:27.61	36.76	7.49	-53.2	-55.7	13.8	0.00e+00	0	25	0	152043520	72	4821
2026-01-07 21:04:28.60	36.91	7.53	-53.3	-55.9	13.7	0.00e+00	0	25	0	154140672	72	4937
2026-01-07 21:04:29.59	37.06	7.56	-53.3	-55.9	13.7	0.00e+00	0	25	0	156237824	72	4933
2026-01-07 21:04:30.59	37.21	7.59	-53.3	-55.9	13.7	0.00e+00	0	25	0	158334976	72	4931
2026-01-07 21:04:31.59	37.36	7.62	-53.4	-55.9	13.6	0.00e+00	0	25	0	160432128	72	4982
2026-01-07 21:04:32.59	37.51	7.66	-53.4	-55.9	13.6	0.00e+00	0	25	0	161480704	72	4961
2026-01-07 21:04:33.58	37.66	7.69	-53.3	-55.9	13.7	0.00e+00	0	25	0	163577856	72	4937
2026-01-07 21:04:34.58	37.81	7.72	-53.3	-55.8	13.7	0.00e+00	0	25	0	165675008	72	4886
2026-01-07 21:04:35.57	37.96	7.75	-53.4	-55.9	13.7	0.00e+00	0	25	0	167772160	72	4972
2026-01-07 21:04:36.57	38.11	7.78	-53.5	-56.2	13.5	0.00e+00	0	25	0	168820736	72	5102
2026-01-07 21:04:37.56	38.26	7.81	-53.4	-56.0	13.5	0.00e+00	0	25	0	170917888	72	5033
2026-01-07 21:04:38.56	38.41	7.85	-53.5	-56.0	13.5	0.00e+00	0	25	0	173015040	72	5032
2026-01-07 21:04:39.56	38.57	7.88	-53.5	-56.1	13.5	0.00e+00	0	25	0	175112192	72	5066
2026-01-07 21:04:40.55	38.72	7.91	-53.5	-56.1	13.5	0.00e+00	0	25	0	177209344	72	5090
2026-01-07 21:04:41.54	38.87	7.94	-53.7	-56.4	13.4	0.00e+00	0	25	0	178257920	72	5273
2026-01-07 21:04:42.54	39.02	7.97	-53.7	-56.4	13.4	0.00e+00	0	25	0	180355072	72	5272
2026-01-07 21:04:43.52	39.17	8.00	-53.6	-56.3	13.5	0.00e+00	0	25	0	182452224	72	5179
2026-01-07 21:04:44.51	39.33	8.03	-53.7	-56.4	13.4	0.00e+00	0	25	0	184549376	72	5260
2026-01-07 21:04:45.52	39.48	8.06	-53.7	-56.5	13.3	0.00e+00	0	25	0	185597952	72	5283
2026-01-07 21:04:46.51	39.64	8.09	-53.6	-56.3	13.5	0.00e+00	0	25	0	187695104	72	5196
2026-01-07 21:04:47.51	39.79	8.12	-53.6	-56.3	13.5	0.00e+00	0	25	0	189792256	72	5182
2026-01-07 21:04:48.50	39.94	8.15	-53.5	-56.1	13.5	0.00e+00	0	25	0	191889408	72	5099
2026-01-07 21:04:49.51	40.10	8.18	-53.5	-56.2	13.4	0.00e+00	0	25	0	193986560	72	5115
2026-01-07 21:04:50.50	40.26	8.21	-53.5	-56.2	13.5	0.00e+00	0	25	0	195035136	72	5106
2026-01-07 21:04:51.50	40.41	8.24	-53.6	-56.2	13.6	0.00e+00	0	25	0	197132288	72	5138
2026-01-07 21:04:52.50	40.57	8.27	-53.5	-56.1	13.6	0.00e+00	0	25	0	199229440	72	5062
2026-01-07 21:04:53.49	40.72	8.30	-53.5	-56.1	13.5	0.00e+00	0	25	0	201326592	72	5085
2026-01-07 21:04:54.50	40.88	8.33	-53.6	-56.2	13.5	0.00e+00	0	25	0	203423744	72	5129
2026-01-07 21:04:55.50	41.04	8.36	-53.6	-56.3	13.4	0.00e+00	0	25	0	204472320	72	5206
2026-01-07 21:04:56.49	41.20	8.39	-53.5	-56.0	13.6	0.00e+00	0	25	0	206569472	72	5036
2026-01-07 21:04:57.49	41.36	8.41	-53.5	-56.2	13.6	0.00e+00	0	25	0	208666624	72	5102
2026-01-07 21:04:58.48	41.51	8.44	-53.6	-56.2	13.5	0.00e+00	0	25	0	210763776	72	5149
2026-01-07 21:04:59.48	41.67	8.47	-53.4	-55.9	13.6	0.00e+00	0	25	0	211812352	72	4969
2026-01-07 21:05:00.48	41.83	8.50	-53.5	-56.1	13.6	0.00e+00	0	25	0	213909504	72	5054
2026-01-07 21:05:01.48	41.99	8.53	-53.6	-56.2	13.6	0.00e+00	0	25	0	216006656	72	5118
2026-01-07 21:05:02.48	42.15	8.55	-53.5	-56.1	13.6	0.00e+00	0	25	0	218103808	72	5053
2026-01-07 21:05:03.47	42.31	8.58	-53.5	-56.1	13.6	0.00e+00	0	25	0	220200960	72	5070
2026-01-07 21:05:04.47	42.47	8.61	-53.4	-56.0	13.6	0.00e+00	0	25	0	221249536	72	4985
2026-01-07 21:05:05.47	42.63	8.64	-53.5	-56.1	13.5	0.00e+00	0	25	0	223346688	72	5067
2026-01-07 21:05:06.47	42.79	8.66	-53.5	-56.1	13.6	0.00e+00	0	25	0	225443840	72	5081
2026-01-07 21:05:07.47	42.95	8.69	-53.5	-56.2	13.5	0.00e+00	0	25	0	227540992	72	5115
2026-01-07 21:05:08.47	43.11	8.72	-53.5	-56.1	13.5	0.00e+00	0	25	0	229638144	72	5071
2026-01-07 21:05:09.47	43.27	8.75	-53.5	-56.1	13.5	0.00e+00	0	25	0	230686720	72	5051
2026-01-07 21:05:10.47	43.44	8.77	-53.6	-56.2	13.6	0.00e+00	0	25	0	232783872	72	5150
2026-01-07 21:05:11.47	43.60	8.80	-53.7	-56.4	13.5	0.00e+00	0	25	0	234881024	72	5227
2026-01-07 21:05:12.47	43.76	8.82	-53.6	-56.2	13.5	0.00e+00	0	25	0	236978176	72	5137
2026-01-07 21:05:13.47	43.92	8.85	-53.6	-56.2	13.5	0.00e+00	0	25	0	238026752	72	5146
2026-01-07 21:05:14.47	44.09	8.88	-53.5	-56.1	13.6	0.00e+00	0	25	0	240123904	72	5075
2026-01-07 21:05:15.46	44.25	8.90	-53.4	-56.0	13.7	0.00e+00	0	25	0	242221056	72	4984
2026-01-07 21:05:16.46	44.41	8.93	-53.4	-55.9	13.7	0.00e+00	0	25	0	244318208	72	4976
2026-01-07 21:05:17.45	44.58	8.95	-53.4	-55.9	13.7	0.00e+00	0	25	0	246415360	72	4942
2026-01-07 21:05:18.44	44.74	8.98	-53.3	-55.7	13.8	0.00e+00	0	25	0	247463936	72	4845
2026-01-07 21:05:19.45	44.90	9.00	-53.2	-55.7	13.8	0.00e+00	0	25	0	249561088	72	4828
2026-01-07 21:05:20.44	45.07	9.03	-53.2	-55.6	13.8	0.00e+00	0	25	0	251658240	72	4809
2026-01-07 21:05:21.44	45.23	9.05	-53.2	-55.6	13.8	0.00e+00	0	25	0	253755392	72	4802
2026-01-07 21:05:22.44	45.40	9.08	-53.2	-55.7	13.8	0.00e+00	0	25	0	255852544	72	4838
2026-01-07 21:05:23.43	45.56	9.10	-53.2	-55.6	13.7	0.00e+00	0	25	0	256901120	72	4805
2026-01-07 21:05:24.43	45.73	9.13	-53.4	-55.9	13.8	0.00e+00	0	25	0	258998272	72	4966
2026-01-07 21:05:25.42	45.89	9.15	-53.3	-55.8	13.7	0.00e+00	0	25	0	261095424	72	4892
2026-01-07 21:05:26.42	46.06	9.17	-53.3	-55.8	13.7	0.00e+00	0	25	0	263192576	72	4901
2026-01-07 21:05:27.42	46.23	9.20	-53.4	-55.9	13.6	0.00e+00	0	25	0	264241152	72	4959
2026-01-07 21:05:28.42	46.39	9.22	-53.3	-55.8	13.7	0.00e+00	0	25	0	266338304	72	4909
2026-01-07 21:05:29.42	46.56	9.24	-53.4	-56.0	13.8	0.00e+00	0	25	0	268435456	72	5009
2026-01-07 21:05:30.41	46.73	9.27	-53.4	-55.9	13.7	0.00e+00	0	25	0	270532608	72	4950
2026-01-07 21:05:31.42	46.89	9.29	-53.4	-55.9	13.7	0.00e+00	0	25	0	272629760	72	4961
2026-01-07 21:05:32.42	47.06	9.31	-53.4	-55.9	13.7	0.00e+00	0	25	0	273678336	72	4973
2026-01-07 21:05:33.41	47.23	9.33	-53.2	-55.7	13.8	0.00e+00	0	25	0	275775488	72	4836
2026-01-07 21:05:34.42	47.40	9.36	-53.2	-55.6	13.9	0.00e+00	0	25	0	277872640	72	4809
2026-01-07 21:05:35.42	47.57	9.38	-53.0	-55.4	13.9	0.00e+00	0	25	0	279969792	72	4668
2026-01-07 21:05:36.41	47.74	9.40	-53.0	-55.3	13.9	0.00e+00	0	25	0	281018368	72	4650
2026-01-07 21:05:37.41	47.90	9.42	-53.1	-55.5	13.9	0.00e+00	0	25	0	283115520	72	4747
2026-01-07 21:05:38.41	48.07	9.44	-53.2	-55.6	13.9	0.00e+00	0	25	0	285212672	72	4768
2026-01-07 21:05:39.40	48.24	9.46	-53.2	-55.6	13.9	0.00e+00	0	25	0	287309824	72	4784
2026-01-07 21:05:40.41	48.41	9.49	-53.2	-55.6	13.9	0.00e+00	0	25	0	289406976	72	4796
2026-01-07 21:05:41.41	48.58	9.51	-53.1	-55.5	13.9	0.00e+00	0	25	0	290455552	72	4728
2026-01-07 21:05:42.41	48.75	9.53	-53.2	-55.6	13.9	0.00e+00	0	25	0	292552704	72	4802
2026-01-07 21:05:43.41	48.93	9.55	-53.2	-55.6	13.9	0.00e+00	0	25	0	294649856	72	4779
2026-01-07 21:05:44.41	49.10	9.57	-53.2	-55.6	13.8	0.00e+00	0	25	0	296747008	72	4803
2026-01-07 21:05:45.40	49.27	9.59	-53.1	-55.4	13.9	0.00e+00	0	25	0	298844160	72	4699
2026-01-07 21:05:46.40	49.44	9.61	-53.1	-55.5	14.0	0.00e+00	0	25	0	299892736	72	4750
2026-01-07 21:05:47.40	49.61	9.63	-53.1	-55.5	13.9	0.00e+00	0	25	0	301989888	72	4751
2026-01-07 21:05:48.40	49.78	9.65	-53.2	-55.6	13.9	0.00e+00	0	25	0	304087040	72	4811
2026-01-07 21:05:49.40	49.95	9.67	-53.2	-55.6	13.9	0.00e+00	0	25	0	306184192	72	4800
2026-01-07 21:05:50.40	50.12	9.69	-53.2	-55.7	13.8	0.00e+00	0	25	0	308281344	72	4823
2026-01-07 21:05:51.39	50.30	9.70	-53.2	-55.6	13.8	0.00e+00	0	25	0	309329920	72	4810
2026-01-07 21:05:52.39	50.47	9.72	-53.2	-55.7	13.9	0.00e+00	0	25	0	311427072	72	4824
2026-01-07 21:05:53.39	50.64	9.74	-53.3	-55.7	13.8	0.00e+00	0	25	0	313524224	72	4866
2026-01-07 21:05:54.40	50.82	9.76	-53.2	-55.7	13.8	0.00e+00	0	25	0	315621376	72	4836
2026-01-07 21:05:55.40	50.99	9.78	-53.3	-55.7	13.8	0.00e+00	0	25	0	316669952	72	4842
2026-01-07 21:05:56.40	51.16	9.80	-53.3	-55.8	13.8	0.00e+00	0	25	0	318767104	72	4906
2026-01-07 21:05:57.39	51.34	9.81	-53.3	-55.8	13.8	0.00e+00	0	25	0	320864256	72	4920
2026-01-07 21:05:58.39	51.51	9.83	-53.4	-55.9	13.7	0.00e+00	0	25	0	322961408	72	4933
2026-01-07 21:05:59.38	51.68	9.85	-53.4	-55.9	13.6	0.00e+00	0	25	0	325058560	72	4949
2026-01-07 21:06:00.38	51.86	9.86	-53.4	-55.9	13.6	0.00e+00	0	25	0	326107136	72	4953
2026-01-07 21:06:01.39	52.03	9.88	-53.4	-56.0	13.7	0.00e+00	0	25	0	328204288	72	5006
2026-01-07 21:06:02.38	52.21	9.90	-53.4	-56.0	13.6	0.00e+00	0	25	0	330301440	72	5005
2026-01-07 21:06:03.38	52.38	9.91	-53.5	-56.0	13.7	0.00e+00	0	25	0	332398592	72	5032
2026-01-07 21:06:04.38	52.56	9.93	-53.4	-56.0	13.7	0.00e+00	0	25	0	333447168	72	4984
2026-01-07 21:06:05.37	52.73	9.95	-53.6	-56.1	13.6	0.00e+00	0	25	0	335544320	72	5099
2026-01-07 21:06:06.36	52.90	9.96	-53.4	-55.9	13.6	0.00e+00	0	25	0	337641472	72	4969
2026-01-07 21:06:07.36	53.08	9.98	-53.5	-56.0	13.6	0.00e+00	0	25	0	339738624	72	5018
2026-01-07 21:06:08.36	53.25	9.99	-53.4	-55.9	13.7	0.00e+00	0	25	0	341835776	72	4930
2026-01-07 21:06:09.35	53.43	10.01	-53.5	-56.1	13.6	0.00e+00	0	25	0	342884352	72	5075
2026-01-07 21:06:10.36	53.61	10.02	-53.5	-56.1	13.5	0.00e+00	0	25	0	344981504	72	5084
2026-01-07 21:06:11.36	53.78	10.04	-53.6	-56.3	13.5	0.00e+00	0	25	0	347078656	72	5164
2026-01-07 21:06:12.36	53.96	10.05	-53.7	-56.4	13.3	0.00e+00	0	25	0	349175808	72	5237
2026-01-07 21:06:13.35	54.13	10.06	-53.8	-56.6	13.3	0.00e+00	0	25	0	351272960	72	5377
2026-01-07 21:06:14.35	54.31	10.08	-53.9	-56.6	13.3	0.00e+00	0	25	0	352321536	72	5390
2026-01-07 21:06:15.34	54.49	10.09	-54.0	-56.9	13.3	0.00e+00	0	25	0	354418688	73	5267
2026-01-07 21:06:16.34	54.66	10.10	-54.0	-56.9	13.2	0.00e+00	0	25	0	356515840	73	5263
2026-01-07 21:06:17.34	54.84	10.12	-54.1	-57.0	13.2	0.00e+00	0	25	0	358612992	73	5310
2026-01-07 21:06:18.33	55.02	10.13	-54.1	-57.0	13.2	0.00e+00	0	25	0	359661568	73	5318
2026-01-07 21:06:19.32	55.19	10.14	-53.9	-56.7	13.2	0.00e+00	0	25	0	361758720	73	5145
2026-01-07 21:06:20.31	55.37	10.15	-53.9	-56.8	13.3	0.00e+00	0	25	0	363855872	73	5162
2026-01-07 21:06:21.30	55.54	10.17	-53.9	-56.7	13.3	0.00e+00	0	25	0	365953024	73	5145
2026-01-07 21:06:22.30	55.72	10.18	-53.8	-56.6	13.4	0.00e+00	0	25	0	368050176	73	5064
2026-01-07 21:06:23.29	55.90	10.19	-53.8	-56.5	13.4	0.00e+00	0	25	0	369098752	73	5039
2026-01-07 21:06:24.28	56.08	10.20	-53.8	-56.4	13.5	0.00e+00	0	25	0	371195904	73	4981
2026-01-07 21:06:25.27	56.25	10.21	-53.7	-56.3	13.5	0.00e+00	0	25	0	373293056	73	4919
2026-01-07 21:06:26.26	56.43	10.22	-53.7	-56.4	13.6	0.00e+00	0	25	0	375390208	73	4945
2026-01-07 21:06:27.25	56.61	10.23	-53.6	-56.2	13.7	0.00e+00	0	25	0	376438784	73	4862
2026-01-07 21:06:28.25	56.79	10.24	-53.7	-56.4	13.6	0.00e+00	0	25	0	378535936	73	4952
2026-01-07 21:06:29.25	56.96	10.25	-53.7	-56.3	13.6	0.00e+00	0	25	0	380633088	73	4900
2026-01-07 21:06:30.25	57.14	10.26	-53.7	-56.3	13.5	0.00e+00	0	25	0	382730240	73	4926
2026-01-07 21:06:31.24	57.32	10.27	-53.8	-56.4	13.5	0.00e+00	0	25	0	384827392	73	4976
2026-01-07 21:06:32.24	57.50	10.28	-53.8	-56.5	13.4	0.00e+00	0	25	0	385875968	73	5005
2026-01-07 21:06:33.24	57.68	10.29	-53.8	-56.5	13.4	0.00e+00	0	25	0	387973120	73	5024
2026-01-07 21:06:34.24	57.86	10.30	-53.8	-56.5	13.4	0.00e+00	0	25	0	390070272	73	4987
2026-01-07 21:06:35.24	58.04	10.31	-53.8	-56.5	13.4	0.00e+00	0	25	0	392167424	73	5019
2026-01-07 21:06:36.24	58.22	10.32	-53.8	-56.5	13.4	0.00e+00	0	25	0	394264576	73	5006
2026-01-07 21:06:37.24	58.40	10.33	-53.7	-56.3	13.6	0.00e+00	0	25	0	395313152	73	4917
2026-01-07 21:06:38.25	58.58	10.34	-53.6	-56.2	13.6	0.00e+00	0	25	0	397410304	73	4826
2026-01-07 21:06:39.25	58.76	10.34	-53.6	-56.1	13.7	0.00e+00	0	25	0	399507456	73	4801
2026-01-07 21:06:40.25	58.94	10.35	-53.5	-56.0	13.8	0.00e+00	0	25	0	401604608	73	4738
2026-01-07 21:06:41.25	59.12	10.36	-53.4	-55.9	13.9	0.00e+00	0	25	0	402653184	73	4660
2026-01-07 21:06:42.25	59.30	10.37	-53.5	-56.0	13.8	0.00e+00	0	25	0	404750336	73	4713
2026-01-07 21:06:43.24	59.48	10.37	-53.4	-55.9	13.8	0.00e+00	0	25	0	406847488	73	4677
2026-01-07 21:06:44.24	59.66	10.38	-53.4	-55.9	13.8	0.00e+00	0	25	0	408944640	73	4703
2026-01-07 21:06:45.24	59.84	10.39	-53.4	-55.9	13.9	0.00e+00	0	25	0	411041792	73	4664
2026-01-07 21:06:46.23	60.02	10.39	-53.3	-55.8	13.9	0.00e+00	0	25	0	412090368	73	4616
2026-01-07 21:06:47.23	60.20	10.40	-53.4	-55.9	13.8	0.00e+00	0	25	0	414187520	73	4696
2026-01-07 21:06:48.22	60.38	10.40	-53.4	-56.0	13.8	0.00e+00	0	25	0	416284672	73	4713
2026-01-07 21:06:49.22	60.56	10.41	-53.4	-55.9	13.9	0.00e+00	0	25	0	418381824	73	4676
2026-01-07 21:06:50.22	60.74	10.41	-53.4	-55.9	13.8	0.00e+00	0	25	0	419430400	73	4657
2026-01-07 21:06:51.22	60.92	10.42	-53.4	-56.0	13.8	0.00e+00	0	25	0	421527552	73	4714
2026-01-07 21:06:52.22	61.10	10.42	-53.4	-56.0	13.8	0.00e+00	0	25	0	423624704	73	4708
2026-01-07 21:06:53.22	61.29	10.43	-53.4	-55.9	13.8	0.00e+00	0	25	0	425721856	73	4691
2026-01-07 21:06:54.22	61.47	10.43	-53.4	-55.9	13.8	0.00e+00	0	25	0	427819008	73	4694
2026-01-07 21:06:55.22	61.65	10.44	-53.4	-55.9	13.8	0.00e+00	0	25	0	428867584	73	4694
2026-01-07 21:06:56.22	61.83	10.44	-53.3	-55.8	13.9	0.00e+00	0	25	0	430964736	73	4606
2026-01-07 21:06:57.21	62.01	10.44	-53.3	-55.7	13.9	0.00e+00	0	25	0	433061888	73	4594
2026-01-07 21:06:58.21	62.19	10.45	-53.3	-55.8	13.9	0.00e+00	0	25	0	435159040	73	4609
2026-01-07 21:06:59.21	62.37	10.45	-53.1	-55.5	13.9	0.00e+00	0	25	0	437256192	72	4726
2026-01-07 21:07:00.21	62.55	10.45	-53.0	-55.3	14.0	0.00e+00	0	25	0	438304768	72	4612
2026-01-07 21:07:01.21	62.73	10.45	-52.9	-55.2	14.1	0.00e+00	0	25	0	440401920	72	4583
2026-01-07 21:07:02.21	62.92	10.46	-52.9	-55.2	14.2	0.00e+00	0	25	0	442499072	72	4554
2026-01-07 21:07:03.22	63.10	10.46	-52.8	-55.1	14.2	0.00e+00	0	25	0	444596224	72	4514
2026-01-07 21:07:04.21	63.28	10.46	-52.8	-55.1	14.2	0.00e+00	0	25	0	445644800	72	4500
2026-01-07 21:07:05.20	63.46	10.46	-52.7	-54.9	14.3	0.00e+00	0	25	0	447741952	72	4426
2026-01-07 21:07:06.20	63.64	10.46	-52.7	-55.0	14.3	0.00e+00	0	25	0	449839104	72	4448
2026-01-07 21:07:07.21	63.82	10.46	-52.9	-55.2	14.1	0.00e+00	0	25	0	451936256	72	4561
2026-01-07 21:07:08.21	64.01	10.46	-52.8	-55.1	14.1	0.00e+00	0	25	0	454033408	72	4512
2026-01-07 21:07:09.21	64.19	10.46	-52.9	-55.1	14.1	0.00e+00	0	25	0	455081984	72	4532
2026-01-07 21:07:10.21	64.37	10.46	-52.9	-55.2	14.2	0.00e+00	0	25	0	457179136	72	4562
2026-01-07 21:07:11.20	64.55	10.46	-52.8	-55.1	14.1	0.00e+00	0	25	0	459276288	72	4500
2026-01-07 21:07:12.20	64.73	10.46	-52.9	-55.2	14.1	0.00e+00	0	25	0	461373440	72	4565
2026-01-07 21:07:13.20	64.91	10.46	-52.6	-54.8	14.2	0.00e+00	0	25	0	463470592	71	4627
2026-01-07 21:07:14.20	65.09	10.46	-52.5	-54.6	14.3	0.00e+00	0	25	0	464519168	71	4532
2026-01-07 21:07:15.20	65.28	10.46	-52.3	-54.4	14.4	0.00e+00	0	25	0	466616320	71	4425
2026-01-07 21:07:16.19	65.46	10.46	-52.2	-54.2	14.5	0.00e+00	0	25	0	468713472	71	4331
2026-01-07 21:07:17.18	65.64	10.46	-52.1	-54.1	14.4	0.00e+00	0	25	0	470810624	70	4534
2026-01-07 21:07:18.18	65.82	10.46	-52.1	-54.2	14.4	0.00e+00	0	25	0	472907776	70	4552
2026-01-07 21:07:19.18	66.00	10.45	-52.1	-54.1	14.4	0.00e+00	0	25	0	473956352	70	4516
2026-01-07 21:07:20.18	66.18	10.45	-52.1	-54.1	14.4	0.00e+00	0	25	0	476053504	70	4532
2026-01-07 21:07:21.17	66.36	10.45	-52.2	-54.3	14.3	0.00e+00	0	25	0	478150656	70	4616
2026-01-07 21:07:22.17	66.54	10.44	-52.3	-54.4	14.3	0.00e+00	0	25	0	480247808	70	4702
2026-01-07 21:07:23.17	66.72	10.44	-52.4	-54.5	14.2	0.00e+00	0	25	0	481296384	70	4706
2026-01-07 21:07:24.16	66.90	10.44	-52.4	-54.6	14.2	0.00e+00	0	25	0	483393536	70	4771
2026-01-07 21:07:25.17	67.09	10.43	-52.5	-54.6	14.2	0.00e+00	0	25	0	485490688	70	4801
2026-01-07 21:07:26.16	67.26	10.43	-52.4	-54.6	14.2	0.00e+00	0	25	0	487587840	70	4780
2026-01-07 21:07:27.15	67.44	10.43	-52.5	-54.7	14.1	0.00e+00	0	25	0	489684992	70	4833
2026-01-07 21:07:28.15	67.63	10.42	-52.4	-54.5	14.2	0.00e+00	0	25	0	490733568	70	4756
2026-01-07 21:07:29.15	67.81	10.42	-52.5	-54.6	14.1	0.00e+00	0	25	0	492830720	70	4796
2026-01-07 21:07:30.14	67.99	10.41	-52.4	-54.5	14.2	0.00e+00	0	25	0	494927872	70	4758
2026-01-07 21:07:31.13	68.17	10.41	-52.4	-54.5	14.2	0.00e+00	0	25	0	497025024	70	4717
2026-01-07 21:07:32.13	68.35	10.40	-52.3	-54.4	14.3	0.00e+00	0	25	0	498073600	70	4686
2026-01-07 21:07:33.12	68.53	10.40	-52.2	-54.3	14.3	0.00e+00	0	25	0	500170752	70	4601
2026-01-07 21:07:34.11	68.70	10.39	-52.3	-54.3	14.3	0.00e+00	0	25	0	502267904	70	4643
2026-01-07 21:07:35.11	68.89	10.38	-52.2	-54.3	14.3	0.00e+00	0	25	0	504365056	70	4633
2026-01-07 21:07:36.10	69.06	10.38	-52.2	-54.3	14.3	0.00e+00	0	25	0	506462208	70	4620
2026-01-07 21:07:37.10	69.25	10.37	-52.2	-54.3	14.3	0.00e+00	0	25	0	507510784	70	4619
2026-01-07 21:07:38.10	69.43	10.36	-52.3	-54.4	14.3	0.00e+00	0	25	0	509607936	70	4672
2026-01-07 21:07:39.10	69.61	10.36	-52.2	-54.2	14.3	0.00e+00	0	25	0	511705088	70	4594
2026-01-07 21:07:40.10	69.79	10.35	-52.2	-54.3	14.3	0.00e+00	0	25	0	513802240	70	4609
2026-01-07 21:07:41.11	69.97	10.34	-52.3	-54.4	14.3	0.00e+00	0	25	0	514850816	70	4682
2026-01-07 21:07:42.11	70.15	10.33	-52.3	-54.4	14.3	0.00e+00	0	25	0	516947968	70	4654
2026-01-07 21:07:43.11	70.33	10.33	-52.3	-54.3	14.3	0.00e+00	0	25	0	519045120	70	4634
2026-01-07 21:07:44.10	70.51	10.32	-52.3	-54.3	14.3	0.00e+00	0	25	0	521142272	70	4645
2026-01-07 21:07:45.11	70.69	10.31	-52.3	-54.4	14.3	0.00e+00	0	25	0	523239424	70	4689
2026-01-07 21:07:46.11	70.87	10.30	-52.4	-54.6	14.2	0.00e+00	0	25	0	524288000	70	4773
2026-01-07 21:07:47.11	71.05	10.29	-52.5	-54.6	14.1	0.00e+00	0	25	0	526385152	70	4788
2026-01-07 21:07:48.11	71.23	10.28	-52.5	-54.6	14.2	0.00e+00	0	25	0	528482304	70	4796
2026-01-07 21:07:49.11	71.41	10.27	-52.5	-54.7	14.1	0.00e+00	0	25	0	530579456	70	4831
2026-01-07 21:07:50.11	71.59	10.26	-52.5	-54.6	14.2	0.00e+00	0	25	0	532676608	70	4806
2026-01-07 21:07:51.10	71.76	10.25	-52.6	-54.8	14.1	0.00e+00	0	25	0	533725184	70	4876
2026-01-07 21:07:52.11	71.95	10.24	-52.6	-54.8	14.1	0.00e+00	0	25	0	535822336	70	4876
2026-01-07 21:07:53.11	72.12	10.23	-52.6	-54.8	14.0	0.00e+00	0	25	0	537919488	70	4918
2026-01-07 21:07:54.11	72.30	10.22	-52.7	-55.0	14.0	0.00e+00	0	25	0	540016640	70	5007
2026-01-07 21:07:55.10	72.48	10.21	-52.6	-54.9	14.0	0.00e+00	0	25	0	541065216	70	4955
2026-01-07 21:07:56.10	72.66	10.20	-52.7	-55.0	14.0	0.00e+00	0	25	0	543162368	70	5010
2026-01-07 21:07:57.09	72.84	10.19	-52.7	-55.0	14.0	0.00e+00	0	25	0	545259520	70	5027
2026-01-07 21:07:58.09	73.01	10.17	-52.8	-55.0	13.9	0.00e+00	0	25	0	547356672	70	5040
2026-01-07 21:07:59.09	73.19	10.16	-52.7	-55.0	14.0	0.00e+00	0	25	0	549453824	70	5006
2026-01-07 21:08:00.10	73.37	10.15	-52.8	-55.1	13.9	0.00e+00	0	25	0	550502400	70	5053
2026-01-07 21:08:01.10	73.55	10.14	-52.7	-55.0	13.9	0.00e+00	0	25	0	552599552	70	5015
2026-01-07 21:08:02.10	73.73	10.12	-52.8	-55.0	13.9	0.00e+00	0	25	0	554696704	70	5039
2026-01-07 21:08:03.10	73.91	10.11	-52.7	-55.0	14.0	0.00e+00	0	25	0	556793856	70	5002
2026-01-07 21:08:04.10	74.08	10.10	-52.7	-54.9	14.0	0.00e+00	0	25	0	558891008	70	4955
2026-01-07 21:08:05.10	74.26	10.09	-52.6	-54.8	14.1	0.00e+00	0	25	0	559939584	70	4873
2026-01-07 21:08:06.11	74.44	10.07	-52.5	-54.7	14.1	0.00e+00	0	25	0	562036736	70	4824
2026-01-07 21:08:07.09	74.61	10.06	-52.4	-54.6	14.2	0.00e+00	0	25	0	564133888	70	4771
2026-01-07 21:08:08.09	74.79	10.04	-52.3	-54.4	14.3	0.00e+00	0	25	0	566231040	70	4653
2026-01-07 21:08:09.09	74.97	10.03	-52.3	-54.4	14.3	0.00e+00	0	25	0	568328192	70	4655
2026-01-07 21:08:10.10	75.15	10.01	-52.3	-54.4	14.3	0.00e+00	0	25	0	569376768	70	4702
2026-01-07 21:08:11.10	75.32	10.00	-52.3	-54.4	14.3	0.00e+00	0	25	0	571473920	70	4653
2026-01-07 21:08:12.10	75.50	9.98	-52.4	-54.5	14.2	0.00e+00	0	25	0	573571072	70	4721
2026-01-07 21:08:13.10	75.67	9.97	-52.4	-54.5	14.2	0.00e+00	0	25	0	575668224	70	4743
2026-01-07 21:08:14.10	75.85	9.95	-52.5	-54.6	14.1	0.00e+00	0	25	0	576716800	70	4802
2026-01-07 21:08:15.10	76.03	9.94	-52.5	-54.7	14.1	0.00e+00	0	25	0	578813952	70	4832
2026-01-07 21:08:16.09	76.20	9.92	-52.5	-54.7	14.1	0.00e+00	0	25	0	580911104	70	4846
2026-01-07 21:08:17.08	76.37	9.91	-52.5	-54.7	14.1	0.00e+00	0	25	0	583008256	70	4833
2026-01-07 21:08:18.07	76.55	9.89	-52.5	-54.7	14.1	0.00e+00	0	25	0	585105408	70	4846
2026-01-07 21:08:19.07	76.72	9.87	-52.6	-54.9	14.0	0.00e+00	0	25	0	586153984	70	4940
2026-01-07 21:08:20.07	76.90	9.86	-52.4	-54.6	14.1	0.00e+00	0	25	0	588251136	70	4793
2026-01-07 21:08:21.06	77.07	9.84	-52.5	-54.7	14.1	0.00e+00	0	25	0	590348288	70	4824
2026-01-07 21:08:22.06	77.24	9.82	-52.5	-54.7	14.1	0.00e+00	0	25	0	592445440	70	4851
2026-01-07 21:08:23.05	77.42	9.81	-52.5	-54.7	14.1	0.00e+00	0	25	0	593494016	70	4851
2026-01-07 21:08:24.04	77.59	9.79	-52.5	-54.7	14.1	0.00e+00	0	25	0	595591168	70	4832
2026-01-07 21:08:25.04	77.76	9.77	-52.4	-54.5	14.2	0.00e+00	0	25	0	597688320	70	4759
2026-01-07 21:08:26.03	77.93	9.75	-52.3	-54.4	14.3	0.00e+00	0	25	0	599785472	70	4671
2026-01-07 21:08:27.03	78.11	9.73	-52.3	-54.4	14.2	0.00e+00	0	25	0	601882624	70	4704
2026-01-07 21:08:28.03	78.28	9.71	-52.3	-54.4	14.3	0.00e+00	0	25	0	602931200	70	4679
2026-01-07 21:08:29.02	78.45	9.70	-52.2	-54.3	14.3	0.00e+00	0	25	0	605028352	70	4634
2026-01-07 21:08:30.02	78.62	9.68	-52.3	-54.4	14.3	0.00e+00	0	25	0	607125504	70	4655
2026-01-07 21:08:31.01	78.80	9.66	-52.1	-54.1	14.4	0.00e+00	0	25	0	609222656	70	4533
2026-01-07 21:08:32.01	78.97	9.64	-52.0	-54.0	14.5	0.00e+00	0	25	0	610271232	70	4473
2026-01-07 21:08:33.01	79.14	9.62	-52.1	-54.1	14.4	0.00e+00	0	25	0	612368384	70	4516
2026-01-07 21:08:34.00	79.31	9.60	-52.0	-54.0	14.5	0.00e+00	0	25	0	614465536	70	4471
2026-01-07 21:08:35.00	79.48	9.58	-51.9	-54.0	14.5	0.00e+00	0	25	0	616562688	70	4445
2026-01-07 21:08:35.99	79.65	9.56	-52.0	-54.0	14.5	0.00e+00	0	25	0	618659840	70	4483
2026-01-07 21:08:36.99	79.82	9.54	-52.1	-54.2	14.4	0.00e+00	0	25	0	619708416	70	4552
2026-01-07 21:08:37.99	79.99	9.52	-52.1	-54.1	14.4	0.00e+00	0	25	0	621805568	70	4533
2026-01-07 21:08:39.00	80.17	9.50	-52.2	-54.3	14.3	0.00e+00	0	25	0	623902720	70	4617
2026-01-07 21:08:40.00	80.34	9.48	-52.2	-54.3	14.3	0.00e+00	0	25	0	625999872	70	4615
2026-01-07 21:08:40.99	80.50	9.46	-52.2	-54.4	14.3	0.00e+00	0	25	0	628097024	70	4654
2026-01-07 21:08:41.99	80.67	9.43	-52.2	-54.3	14.3	0.00e+00	0	25	0	629145600	70	4651
2026-01-07 21:08:43.00	80.85	9.41	-52.2	-54.3	14.3	0.00e+00	0	25	0	631242752	70	4622
2026-01-07 21:08:43.99	81.01	9.39	-52.2	-54.3	14.3	0.00e+00	0	25	0	633339904	70	4606
2026-01-07 21:08:45.00	81.19	9.37	-52.3	-54.4	14.2	0.00e+00	0	25	0	635437056	70	4698
2026-01-07 21:08:46.00	81.35	9.35	-52.4	-54.5	14.2	0.00e+00	0	25	0	637534208	70	4751
2026-01-07 21:08:47.00	81.52	9.32	-52.3	-54.5	14.2	0.00e+00	0	25	0	638582784	70	4723
2026-01-07 21:08:48.00	81.69	9.30	-52.3	-54.5	14.2	0.00e+00	0	25	0	640679936	70	4714
2026-01-07 21:08:49.00	81.86	9.28	-52.4	-54.5	14.2	0.00e+00	0	25	0	642777088	70	4739
2026-01-07 21:08:49.99	82.03	9.25	-52.3	-54.4	14.2	0.00e+00	0	25	0	644874240	70	4692
2026-01-07 21:08:50.99	82.19	9.23	-52.2	-54.3	14.3	0.00e+00	0	25	0	645922816	70	4619
2026-01-07 21:08:51.99	82.36	9.21	-52.2	-54.3	14.3	0.00e+00	0	25	0	648019968	70	4623
2026-01-07 21:08:52.99	82.53	9.18	-52.0	-54.0	14.4	0.00e+00	0	25	0	650117120	70	4468
2026-01-07 21:08:53.99	82.70	9.16	-52.0	-54.1	14.4	0.00e+00	0	25	0	652214272	70	4506
2026-01-07 21:08:54.99	82.86	9.14	-52.1	-54.1	14.4	0.00e+00	0	25	0	654311424	70	4527
2026-01-07 21:08:55.99	83.03	9.11	-52.1	-54.1	14.4	0.00e+00	0	25	0	655360000	70	4516
2026-01-07 21:08:56.98	83.19	9.09	-52.1	-54.2	14.4	0.00e+00	0	25	0	657457152	70	4570
2026-01-07 21:08:57.98	83.36	9.06	-52.2	-54.3	14.3	0.00e+00	0	25	0	659554304	70	4646
2026-01-07 21:08:58.98	83.53	9.04	-52.4	-54.6	14.2	0.00e+00	0	25	0	661651456	70	4764
2026-01-07 21:08:59.98	83.69	9.01	-52.4	-54.6	14.1	0.00e+00	0	25	0	663748608	70	4796
2026-01-07 21:09:00.98	83.86	8.99	-52.5	-54.8	14.1	0.00e+00	0	25	0	664797184	70	4878
2026-01-07 21:09:01.99	84.02	8.96	-52.6	-54.9	14.0	0.00e+00	0	25	0	666894336	70	4938
2026-01-07 21:09:02.98	84.19	8.94	-52.6	-54.9	14.0	0.00e+00	0	25	0	668991488	70	4932
2026-01-07 21:09:03.98	84.35	8.91	-52.5	-54.7	14.1	0.00e+00	0	25	0	671088640	70	4850
2026-01-07 21:09:04.98	84.51	8.89	-52.5	-54.7	14.1	0.00e+00	0	25	0	672137216	70	4859
2026-01-07 21:09:05.98	84.68	8.86	-52.5	-54.8	14.0	0.00e+00	0	25	0	674234368	70	4896
2026-01-07 21:09:06.98	84.84	8.84	-52.4	-54.7	14.1	0.00e+00	0	25	0	676331520	70	4815
2026-01-07 21:09:07.97	85.00	8.81	-52.5	-54.7	14.1	0.00e+00	0	25	0	678428672	70	4829
2026-01-07 21:09:08.96	85.16	8.78	-52.5	-54.7	14.0	0.00e+00	0	25	0	680525824	70	4845
2026-01-07 21:09:09.97	85.33	8.76	-52.4	-54.6	14.1	0.00e+00	0	25	0	681574400	70	4804
2026-01-07 21:09:10.97	85.49	8.73	-52.5	-54.7	14.1	0.00e+00	0	25	0	683671552	70	4827
2026-01-07 21:09:11.97	85.65	8.70	-52.6	-54.9	14.0	0.00e+00	0	25	0	685768704	70	4927
2026-01-07 21:09:12.97	85.81	8.68	-52.7	-55.0	13.9	0.00e+00	0	25	0	687865856	70	5023
2026-01-07 21:09:13.98	85.98	8.65	-52.8	-55.2	13.8	0.00e+00	0	25	0	689963008	70	5122
2026-01-07 21:09:14.98	86.14	8.62	-52.9	-55.3	13.8	0.00e+00	0	25	0	691011584	70	5168
2026-01-07 21:09:15.98	86.30	8.59	-53.0	-55.5	13.8	0.00e+00	0	25	0	693108736	71	4988
2026-01-07 21:09:16.98	86.46	8.56	-53.0	-55.5	13.7	0.00e+00	0	25	0	695205888	71	5026
2026-01-07 21:09:17.98	86.62	8.54	-53.1	-55.6	13.7	0.00e+00	0	25	0	697303040	71	5082
2026-01-07 21:09:18.97	86.78	8.51	-53.2	-55.7	13.6	0.00e+00	0	25	0	698351616	71	5114
2026-01-07 21:09:19.97	86.94	8.48	-53.3	-55.9	13.5	0.00e+00	0	25	0	700448768	71	5227
2026-01-07 21:09:20.97	87.10	8.45	-53.4	-56.1	13.4	0.00e+00	0	25	0	702545920	71	5357
2026-01-07 21:09:21.97	87.26	8.42	-53.6	-56.4	13.3	0.00e+00	0	25	0	704643072	72	5263
2026-01-07 21:09:22.97	87.42	8.39	-53.8	-56.6	13.2	0.00e+00	0	25	0	706740224	72	5388
2026-01-07 21:09:23.96	87.57	8.37	-53.8	-56.8	13.1	0.00e+00	0	25	0	707788800	72	5476
2026-01-07 21:09:24.95	87.73	8.34	-54.0	-57.0	13.1	0.00e+00	0	25	0	709885952	73	5298
2026-01-07 21:09:25.95	87.89	8.31	-54.0	-57.0	13.1	0.00e+00	0	25	0	711983104	73	5300
2026-01-07 21:09:26.95	88.04	8.28	-54.0	-57.0	13.0	0.00e+00	0	25	0	714080256	73	5338
2026-01-07 21:09:27.94	88.20	8.25	-54.0	-57.0	13.0	0.00e+00	0	25	0	716177408	73	5304
2026-01-07 21:09:28.95	88.36	8.22	-53.9	-56.9	13.1	0.00e+00	0	25	0	717225984	73	5271
2026-01-07 21:09:29.95	88.52	8.19	-53.8	-56.7	13.2	0.00e+00	0	25	0	719323136	73	5110
2026-01-07 21:09:30.94	88.67	8.16	-53.7	-56.5	13.3	0.00e+00	0	25	0	721420288	73	5002
2026-01-07 21:09:31.94	88.83	8.13	-53.6	-56.4	13.4	0.00e+00	0	25	0	723517440	73	4963
2026-01-07 21:09:32.94	88.98	8.10	-53.7	-56.5	13.4	0.00e+00	0	25	0	724566016	73	4985
2026-01-07 21:09:33.94	89.14	8.07	-53.7	-56.5	13.4	0.00e+00	0	25	0	726663168	73	4994
2026-01-07 21:09:34.94	89.29	8.04	-53.7	-56.5	13.4	0.00e+00	0	25	0	728760320	73	5001
2026-01-07 21:09:35.94	89.45	8.01	-53.7	-56.6	13.3	0.00e+00	0	25	0	730857472	73	5053
2026-01-07 21:09:36.94	89.60	7.98	-53.7	-56.5	13.3	0.00e+00	0	25	0	732954624	73	5028
2026-01-07 21:09:37.94	89.76	7.95	-53.7	-56.6	13.3	0.00e+00	0	25	0	734003200	73	5044
2026-01-07 21:09:38.93	89.91	7.92	-53.8	-56.7	13.2	0.00e+00	0	25	0	736100352	73	5146
2026-01-07 21:09:39.93	90.06	7.88	-53.9	-56.8	13.2	0.00e+00	0	25	0	738197504	73	5185
2026-01-07 21:09:40.93	90.22	7.85	-53.9	-56.8	13.1	0.00e+00	0	25	0	740294656	73	5183
2026-01-07 21:09:41.92	90.37	7.82	-54.0	-57.1	13.0	0.00e+00	0	25	0	741343232	73	5344
2026-01-07 21:09:42.92	90.52	7.79	-54.0	-57.2	12.9	0.00e+00	0	25	0	743440384	73	5408
2026-01-07 21:09:43.92	90.67	7.76	-54.2	-57.4	12.8	0.00e+00	0	25	0	745537536	73	5546
2026-01-07 21:09:44.92	90.82	7.73	-54.4	-57.8	12.5	7.00e-07	0	25	0	747634688	73	5812
2026-01-07 21:09:45.92	90.98	7.69	-54.6	-58.0	12.4	0.00e+00	0	25	0	749731840	74	5651
2026-01-07 21:09:46.91	91.13	7.66	-54.7	-58.3	12.2	1.50e-06	0	25	0	750780416	74	5848
2026-01-07 21:09:47.91	91.28	7.63	-54.8	-58.4	12.1	0.00e+00	0	25	0	752877568	74	5884
2026-01-07 21:09:48.91	91.43	7.60	-54.8	-58.4	12.1	0.00e+00	0	25	0	754974720	74	5892
2026-01-07 21:09:49.91	91.58	7.56	-54.8	-58.6	12.0	7.00e-07	0	25	0	757071872	74	6012
2026-01-07 21:09:50.91	91.73	7.53	-54.7	-58.4	12.2	7.00e-07	0	25	0	759169024	74	5856
2026-01-07 21:09:51.91	91.88	7.50	-54.7	-58.3	12.2	1.50e-06	0	25	0	760217600	74	5806
2026-01-07 21:09:52.90	92.03	7.47	-54.7	-58.3	12.2	2.20e-06	0	25	0	762314752	74	5853
2026-01-07 21:09:53.90	92.17	7.43	-54.7	-58.3	12.2	1.50e-06	0	25	0	764411904	74	5847
2026-01-07 21:09:54.89	92.32	7.40	-54.7	-58.3	12.3	1.50e-06	0	25	0	766509056	74	5789
2026-01-07 21:09:55.89	92.47	7.37	-54.5	-58.0	12.5	0.00e+00	0	25	0	768606208	74	5603
2026-01-07 21:09:56.89	92.62	7.33	-54.5	-57.9	12.5	0.00e+00	0	25	0	769654784	74	5549
2026-01-07 21:09:57.87	92.76	7.30	-54.4	-57.8	12.5	0.00e+00	0	25	0	771751936	74	5526
2026-01-07 21:09:58.87	92.91	7.27	-54.4	-57.8	12.6	0.00e+00	0	25	0	773849088	74	5470
2026-01-07 21:09:59.87	93.06	7.23	-54.4	-57.7	12.6	7.00e-07	0	25	0	775946240	74	5436
2026-01-07 21:10:00.87	93.20	7.20	-54.3	-57.6	12.7	0.00e+00	0	25	0	776994816	74	5342
2026-01-07 21:10:01.87	93.35	7.17	-54.3	-57.5	12.7	0.00e+00	0	25	0	779091968	74	5337
2026-01-07 21:10:02.87	93.50	7.13	-54.3	-57.6	12.7	0.00e+00	0	25	0	781189120	74	5372
2026-01-07 21:10:03.86	93.64	7.10	-54.3	-57.7	12.6	0.00e+00	0	25	0	783286272	74	5436
2026-01-07 21:10:04.87	93.79	7.06	-54.4	-57.8	12.6	0.00e+00	0	25	0	785383424	74	5492
2026-01-07 21:10:05.87	93.93	7.03	-54.4	-57.9	12.5	0.00e+00	0	25	0	786432000	74	5549
2026-01-07 21:10:06.86	94.08	7.00	-54.5	-58.0	12.4	7.00e-07	0	25	0	788529152	74	5640
2026-01-07 21:10:07.87	94.22	6.96	-54.5	-58.0	12.4	7.00e-07	0	25	0	790626304	74	5609
2026-01-07 21:10:08.87	94.37	6.93	-54.5	-58.1	12.3	7.00e-07	0	25	0	792723456	74	5683
2026-01-07 21:10:09.87	94.51	6.89	-54.5	-58.0	12.3	7.00e-07	0	25	0	793772032	74	5641
2026-01-07 21:10:10.86	94.65	6.86	-54.4	-57.8	12.5	0.00e+00	0	25	0	795869184	74	5471
2026-01-07 21:10:11.86	94.80	6.82	-54.2	-57.5	12.7	0.00e+00	0	25	0	797966336	74	5324
2026-01-07 21:10:12.86	94.94	6.79	-54.2	-57.4	12.8	0.00e+00	0	25	0	800063488	74	5224
2026-01-07 21:10:13.86	95.08	6.75	-54.1	-57.3	12.9	0.00e+00	0	25	0	802160640	74	5196
2026-01-07 21:10:14.85	95.22	6.72	-54.1	-57.2	12.9	0.00e+00	0	25	0	803209216	74	5140
2026-01-07 21:10:15.85	95.36	6.68	-54.0	-57.1	13.0	0.00e+00	0	25	0	805306368	74	5062
2026-01-07 21:10:16.85	95.51	6.64	-54.1	-57.2	13.0	0.00e+00	0	25	0	807403520	74	5121
2026-01-07 21:10:17.85	95.65	6.61	-54.2	-57.4	12.8	7.00e-07	0	25	0	809500672	74	5239
2026-01-07 21:10:18.85	95.79	6.57	-54.2	-57.5	12.7	0.00e+00	0	25	0	811597824	74	5304
2026-01-07 21:10:19.85	95.93	6.54	-54.3	-57.8	12.5	0.00e+00	0	25	0	812646400	74	5473
2026-01-07 21:10:20.84	96.07	6.50	-54.5	-58.0	12.4	0.00e+00	0	25	0	814743552	74	5625
2026-01-07 21:10:21.84	96.21	6.47	-54.5	-58.0	12.4	7.00e-07	0	25	0	816840704	74	5607
2026-01-07 21:10:22.83	96.35	6.43	-54.5	-58.0	12.4	0.00e+00	0	25	0	818937856	74	5623
2026-01-07 21:10:23.83	96.49	6.39	-54.4	-57.9	12.4	0.00e+00	0	25	0	819986432	74	5567
2026-01-07 21:10:24.82	96.62	6.36	-54.4	-57.8	12.5	1.50e-06	0	25	0	822083584	74	5509
2026-01-07 21:10:25.81	96.76	6.32	-54.2	-57.5	12.8	0.00e+00	0	25	0	824180736	74	5282
2026-01-07 21:10:26.82	96.90	6.28	-53.9	-57.0	13.1	0.00e+00	0	25	0	826277888	74	4993
2026-01-07 21:10:27.82	97.04	6.25	-53.8	-56.9	13.1	0.00e+00	0	25	0	828375040	74	4936
2026-01-07 21:10:28.82	97.18	6.21	-53.7	-56.6	13.3	0.00e+00	0	25	0	829423616	74	4768
2026-01-07 21:10:29.82	97.31	6.18	-53.6	-56.6	13.2	0.00e+00	0	25	0	831520768	73	5059
2026-01-07 21:10:30.81	97.45	6.14	-53.6	-56.5	13.2	0.00e+00	0	25	0	833617920	73	5014
2026-01-07 21:10:31.81	97.58	6.10	-53.7	-56.6	13.2	0.00e+00	0	25	0	835715072	73	5073
2026-01-07 21:10:32.80	97.72	6.07	-53.7	-56.7	13.1	0.00e+00	0	25	0	836763648	73	5137
2026-01-07 21:10:33.80	97.86	6.03	-53.7	-56.7	13.1	0.00e+00	0	25	0	838860800	73	5128
2026-01-07 21:10:34.80	97.99	5.99	-53.8	-56.8	13.1	0.00e+00	0	25	0	840957952	73	5179
2026-01-07 21:10:35.79	98.12	5.95	-53.8	-56.8	13.1	0.00e+00	0	25	0	843055104	73	5168
2026-01-07 21:10:36.79	98.26	5.92	-53.8	-56.9	13.0	0.00e+00	0	25	0	845152256	73	5224
2026-01-07 21:10:37.79	98.39	5.88	-53.7	-56.7	13.1	0.00e+00	0	25	0	846200832	73	5150
2026-01-07 21:10:38.79	98.53	5.84	-53.6	-56.6	13.1	0.00e+00	0	25	0	848297984	73	5069
2026-01-07 21:10:39.80	98.66	5.80	-53.7	-56.6	13.1	0.00e+00	0	25	0	850395136	73	5097
2026-01-07 21:10:40.79	98.80	5.77	-53.6	-56.6	13.2	0.00e+00	0	25	0	852492288	73	5050
2026-01-07 21:10:41.79	98.93	5.73	-53.6	-56.6	13.1	0.00e+00	0	25	0	854589440	73	5073
2026-01-07 21:10:42.79	99.06	5.69	-53.7	-56.6	13.1	0.00e+00	0	25	0	855638016	73	5100
2026-01-07 21:10:43.79	99.20	5.65	-53.7	-56.7	13.1	0.00e+00	0	25	0	857735168	73	5113
2026-01-07 21:10:44.79	99.33	5.62	-53.8	-56.9	12.9	0.00e+00	0	25	0	859832320	73	5247
2026-01-07 21:10:45.79	99.46	5.58	-53.9	-57.0	12.9	0.00e+00	0	25	0	861929472	73	5321
2026-01-07 21:10:46.79	99.59	5.54	-53.9	-57.1	12.8	0.00e+00	0	25	0	864026624	73	5364
2026-01-07 21:10:47.78	99.72	5.50	-53.9	-57.1	12.8	0.00e+00	0	25	0	865075200	73	5382
2026-01-07 21:10:48.78	99.85	5.46	-53.9	-57.0	12.8	0.00e+00	0	25	0	867172352	73	5333
2026-01-07 21:10:49.78	99.98	5.43	-53.8	-57.0	12.9	0.00e+00	0	25	0	869269504	73	5305
2026-01-07 21:10:50.78	100.11	5.39	-53.7	-56.8	13.0	0.00e+00	0	25	0	871366656	73	5198
2026-01-07 21:10:51.78	100.24	5.35	-53.6	-56.6	13.1	0.00e+00	0	25	0	872415232	73	5083
2026-01-07 21:10:52.78	100.37	5.31	-53.5	-56.4	13.3	0.00e+00	0	25	0	874512384	73	4946
2026-01-07 21:10:53.78	100.50	5.27	-53.4	-56.3	13.3	0.00e+00	0	25	0	876609536	73	4916
2026-01-07 21:10:54.77	100.63	5.23	-53.4	-56.3	13.3	0.00e+00	0	25	0	878706688	73	4901
2026-01-07 21:10:55.77	100.76	5.20	-53.3	-56.1	13.4	0.00e+00	0	25	0	880803840	73	4772
2026-01-07 21:10:56.77	100.89	5.16	-53.2	-56.0	13.5	0.00e+00	0	25	0	881852416	73	4735
2026-01-07 21:10:57.78	101.02	5.12	-53.3	-56.0	13.5	0.00e+00	0	25	0	883949568	73	4752
2026-01-07 21:10:58.78	101.14	5.08	-53.1	-55.8	13.5	0.00e+00	0	25	0	886046720	72	4925
2026-01-07 21:10:59.78	101.27	5.04	-53.1	-55.8	13.5	0.00e+00	0	25	0	888143872	72	4882
2026-01-07 21:11:00.78	101.40	5.00	-57.0	-66.2	7.0	0.00e+00	0	25	0	889192448	79	10820
2026-01-07 21:11:01.77	101.52	4.96	-57.9	-74.1	3.8	1.49e+00	0	25	104	890241024	81	23876
2026-01-07 21:11:02.76	101.65	4.92	-58.2	-74.3	3.8	1.49e+00	0	25	104	890241024	81	24513
2026-01-07 21:11:03.76	101.78	4.88	-58.5	-74.6	3.8	1.49e+00	0	25	104	890241024	82	23868
2026-01-07 21:11:04.77	101.90	4.84	-58.7	-74.8	3.8	1.49e+00	0	25	104	890241024	82	24467
2026-01-07 21:11:05.76	102.03	4.81	-58.9	-74.9	3.8	1.49e+00	0	25	104	890241024	82	24934
2026-01-07 21:11:06.76	102.15	4.77	-59.0	-75.1	3.8	1.49e+00	0	25	104	890241024	83	23966
2026-01-07 21:11:07.76	102.28	4.73	-59.1	-75.2	3.8	1.49e+00	0	25	104	890241024	83	24283
2026-01-07 21:11:08.77	102.40	4.69	-59.3	-75.3	3.8	1.49e+00	0	25	104	890241024	83	24644
2026-01-07 21:11:09.76	102.53	4.65	-59.3	-75.4	3.8	1.49e+00	0	25	104	890241024	83	24884
2026-01-07 21:11:10.76	102.65	4.61	-59.4	-75.5	3.8	1.49e+00	0	25	104	890241024	83	25097
2026-01-07 21:11:11.76	102.77	4.57	-59.7	-75.8	3.8	1.49e+00	0	25	104	890241024	84	24456
2026-01-07 21:11:12.76	102.90	4.53	-59.7	-75.8	3.8	1.49e+00	0	25	104	890241024	84	24522
2026-01-07 21:11:13.75	103.02	4.49	-59.8	-75.9	3.8	1.49e+00	0	25	104	890241024	84	24724
2026-01-07 21:11:14.75	103.14	4.45	-59.8	-75.9	3.8	1.49e+00	0	25	104	890241024	84	24845
2026-01-07 21:11:15.75	103.26	4.41	-59.8	-75.9	3.8	1.49e+00	0	25	104	890241024	84	24923
2026-01-07 21:11:16.76	103.39	4.37	-59.9	-76.0	3.8	1.49e+00	0	25	104	890241024	84	25087
2026-01-07 21:11:17.76	103.51	4.33	-60.0	-76.1	3.8	1.49e+00	0	25	104	890241024	85	23930
2026-01-07 21:11:18.75	103.63	4.29	-60.0	-76.1	3.8	1.49e+00	0	25	104	890241024	85	24035
2026-01-07 21:11:19.75	103.75	4.25	-60.1	-76.2	3.8	1.49e+00	0	25	104	890241024	85	24235
2026-01-07 21:11:20.75	103.87	4.21	-60.1	-76.2	3.8	1.49e+00	0	25	104	890241024	85	24318
2026-01-07 21:11:21.75	103.99	4.17	-60.1	-76.2	3.8	1.49e+00	0	25	104	890241024	85	24288
2026-01-07 21:11:22.74	104.11	4.13	-60.1	-76.2	3.8	1.49e+00	0	25	104	890241024	85	24394
2026-01-07 21:11:23.75	104.23	4.09	-60.2	-76.3	3.8	1.49e+00	0	25	104	890241024	85	24513
2026-01-07 21:11:24.74	104.35	4.05	-60.2	-76.3	3.8	1.49e+00	0	25	104	890241024	85	24543
2026-01-07 21:11:25.74	104.47	4.01	-60.2	-76.3	3.8	1.49e+00	0	25	104	890241024	85	24650
2026-01-07 21:11:26.73	104.58	3.97	-60.3	-76.4	3.8	1.49e+00	0	25	104	890241024	85	24794
2026-01-07 21:11:27.73	104.70	3.93	-60.3	-76.4	3.8	1.49e+00	0	25	104	890241024	85	24878
2026-01-07 21:11:28.72	104.82	3.89	-60.3	-76.4	3.8	1.49e+00	0	25	104	890241024	85	24826
2026-01-07 21:11:29.72	104.94	3.85	-60.3	-76.4	3.8	1.49e+00	0	25	104	890241024	85	24786
2026-01-07 21:11:30.72	105.06	3.81	-60.2	-76.4	3.8	1.49e+00	0	25	104	890241024	85	24710
2026-01-07 21:11:31.71	105.17	3.77	-60.2	-76.3	3.8	1.49e+00	0	25	104	890241024	85	24554
2026-01-07 21:11:32.71	105.29	3.73	-60.2	-76.3	3.8	1.49e+00	0	25	104	890241024	85	24512
2026-01-07 21:11:33.70	105.40	3.69	-60.2	-76.3	3.8	1.49e+00	0	25	104	890241024	85	24506
2026-01-07 21:11:34.70	105.52	3.65	-60.2	-76.3	3.8	1.49e+00	0	25	104	890241024	85	24495
2026-01-07 21:11:35.70	105.64	3.61	-60.2	-76.2	3.8	1.49e+00	0	25	104	890241024	85	24377
2026-01-07 21:11:36.70	105.75	3.57	-60.1	-76.2	3.8	1.49e+00	0	25	104	890241024	85	24402
2026-01-07 21:11:37.69	105.87	3.53	-60.1	-76.3	3.8	1.49e+00	0	25	104	890241024	85	24424
2026-01-07 21:11:38.68	105.98	3.49	-60.1	-76.2	3.8	1.49e+00	0	25	104	890241024	85	24346
2026-01-07 21:11:39.68	106.09	3.45	-60.1	-76.2	3.8	1.49e+00	0	25	104	890241024	85	24305
2026-01-07 21:11:40.68	106.21	3.41	-60.1	-76.2	3.8	1.49e+00	0	25	104	890241024	85	24320
2026-01-07 21:11:41.68	106.32	3.37	-60.1	-76.2	3.8	1.49e+00	0	25	104	890241024	85	24313
2026-01-07 21:11:42.67	106.44	3.33	-60.1	-76.2	3.8	1.49e+00	0	25	104	890241024	85	24267
2026-01-07 21:11:43.68	106.55	3.29	-60.1	-76.2	3.8	1.49e+00	0	25	104	890241024	85	24247
2026-01-07 21:11:44.68	106.66	3.25	-60.1	-76.2	3.8	1.49e+00	0	25	104	890241024	85	24216
2026-01-07 21:11:45.67	106.78	3.20	-60.1	-76.2	3.8	1.49e+00	0	25	104	890241024	85	24216
2026-01-07 21:11:46.66	106.89	3.16	-60.1	-76.2	3.8	1.49e+00	0	25	104	890241024	85	24200
2026-01-07 21:11:47.66	107.00	3.12	-60.1	-76.2	3.8	1.49e+00	0	25	104	890241024	85	24223
2026-01-07 21:11:48.65	107.11	3.08	-60.1	-76.2	3.8	1.49e+00	0	25	104	890241024	85	24211
2026-01-07 21:11:49.65	107.22	3.04	-60.1	-76.2	3.8	1.49e+00	0	25	104	890241024	85	24163
2026-01-07 21:11:50.64	107.33	3.00	-60.1	-76.2	3.8	1.49e+00	0	25	104	890241024	85	24201
2026-01-07 21:11:51.65	107.45	2.96	-60.1	-76.1	3.8	1.49e+00	0	25	104	890241024	85	24104
2026-01-07 21:11:52.65	107.56	2.92	-60.0	-76.2	3.8	1.49e+00	0	25	104	890241024	85	24188
2026-01-07 21:11:53.65	107.67	2.88	-60.0	-76.2	3.8	1.49e+00	0	25	104	890241024	85	24162
2026-01-07 21:11:54.65	107.78	2.84	-60.0	-76.1	3.8	1.49e+00	0	25	104	890241024	85	24094
2026-01-07 21:11:55.66	107.89	2.80	-60.0	-76.2	3.8	1.49e+00	0	25	104	890241024	85	24150
2026-01-07 21:11:56.66	108.00	2.75	-60.0	-76.1	3.8	1.49e+00	0	25	104	890241024	85	24022
2026-01-07 21:11:57.65	108.11	2.71	-60.0	-76.1	3.8	1.49e+00	0	25	104	890241024	85	24038
2026-01-07 21:11:58.65	108.22	2.67	-60.0	-76.1	3.8	1.49e+00	0	25	104	890241024	85	24078
2026-01-07 21:11:59.64	108.32	2.63	-60.0	-76.1	3.8	1.49e+00	0	25	104	890241024	85	24046
2026-01-07 21:12:00.65	108.43	2.59	-60.0	-76.1	3.8	1.49e+00	0	25	104	890241024	85	24058
2026-01-07 21:12:01.65	108.54	2.55	-60.0	-76.1	3.8	1.49e+00	0	25	104	890241024	85	23971
2026-01-07 21:12:02.65	108.65	2.51	-60.0	-76.1	3.8	1.49e+00	0	25	104	890241024	85	23949
2026-01-07 21:12:03.64	108.76	2.47	-60.0	-76.1	3.8	1.49e+00	0	25	104	890241024	85	23982
2026-01-07 21:12:04.64	108.86	2.43	-60.0	-76.1	3.8	1.49e+00	0	25	104	890241024	85	23959
2026-01-07 21:12:05.63	108.97	2.38	-60.0	-76.1	3.9	1.49e+00	0	25	104	890241024	85	24005
2026-01-07 21:12:06.62	109.08	2.34	-60.0	-76.1	3.8	1.49e+00	0	25	104	890241024	85	24003
2026-01-07 21:12:07.62	109.18	2.30	-60.0	-76.1	3.8	1.49e+00	0	25	104	890241024	85	23957
2026-01-07 21:12:08.62	109.29	2.26	-60.0	-76.1	3.8	1.49e+00	0	25	104	890241024	85	23902
2026-01-07 21:12:09.62	109.40	2.22	-60.0	-76.1	3.8	1.49e+00	0	25	104	890241024	85	23888
2026-01-07 21:12:10.62	109.50	2.18	-60.0	-76.1	3.8	1.49e+00	0	25	104	890241024	85	23870
2026-01-07 21:12:11.61	109.61	2.14	-60.0	-76.1	3.8	1.49e+00	0	25	104	890241024	85	23889
2026-01-07 21:12:12.62	109.71	2.09	-60.0	-76.1	3.8	1.49e+00	0	25	104	890241024	85	23940
2026-01-07 21:12:13.62	109.82	2.05	-60.0	-76.1	3.8	1.49e+00	0	25	104	890241024	85	23866
2026-01-07 21:12:14.62	109.92	2.01	-60.0	-76.1	3.8	1.49e+00	0	25	104	890241024	85	23902
2026-01-07 21:12:15.63	110.03	1.97	-59.9	-76.0	3.8	1.49e+00	0	25	104	890241024	85	23849
2026-01-07 21:12:16.63	110.13	1.93	-59.9	-76.0	3.8	1.49e+00	0	25	104	890241024	85	23827

#Closed at: 2026-01-07 21:12:16
#Recorded file [890 MB]: D:/lorett/data/31004_260108_000205.dat