passes_logs/2026/01/07/R3.2S_Murmansk/R3.2S_Murmansk__20260107_122209_NOAA_20_JPSS-1_rec.log

#Pass ID: 20260107_122209_NOAA 20 (JPSS-1)
#Satellite: NOAA 20 (JPSS-1)
#Configuration: NOAA 20
#almurnet v.1.7.20251203
#Start time: 2026-01-07 12:22:09

#Version: 2.2.20231116
#Station: R3.2S_Murmansk
#Location: 33.079688 lon 68.888172 lat
#TLE: 1 43013U 17073A   26006.30790171  .00000126  00000+0  80695-4 0  9991
#TLE: 2 43013  98.7629 307.3394 0001808  51.8724 308.2615 14.19533762421505

#Time	Az	El	Level	Level2	SNR	BER	BlckErr	Temp	State	Recorded	gain1	gain2
2026-01-07 12:22:09.34	224.64	2.00	-57.9	-73.9	3.8	1.49e+00	0	23	0	0	82	22201
2026-01-07 12:22:10.36	224.73	2.05	-57.8	-73.9	3.8	1.49e+00	0	23	104	0	80	24769
2026-01-07 12:22:11.37	224.81	2.10	-57.8	-73.9	3.8	1.49e+00	0	23	104	0	80	24774
2026-01-07 12:22:12.38	224.89	2.15	-57.8	-73.9	3.8	1.49e+00	0	23	104	0	80	24784
2026-01-07 12:22:13.38	224.98	2.20	-57.8	-73.9	3.8	1.49e+00	0	23	104	0	80	24772
2026-01-07 12:22:14.39	225.06	2.26	-57.8	-73.9	3.8	1.49e+00	0	23	104	0	80	24738
2026-01-07 12:22:15.40	225.15	2.31	-57.8	-73.8	3.8	1.49e+00	0	23	104	0	80	24630
2026-01-07 12:22:16.41	225.23	2.36	-57.8	-73.8	3.8	1.49e+00	0	23	104	0	80	24618
2026-01-07 12:22:17.42	225.32	2.41	-57.8	-73.8	3.8	1.49e+00	0	23	104	0	80	24546
2026-01-07 12:22:18.44	225.41	2.46	-57.8	-73.8	3.8	1.49e+00	0	23	104	0	80	24501
2026-01-07 12:22:19.44	225.49	2.52	-57.8	-73.8	3.8	1.49e+00	0	23	104	0	80	24579
2026-01-07 12:22:20.45	225.58	2.57	-57.8	-73.8	3.8	1.49e+00	0	23	104	0	80	24564
2026-01-07 12:22:21.46	225.66	2.62	-57.8	-73.8	3.8	1.49e+00	0	23	104	0	80	24586
2026-01-07 12:22:22.47	225.75	2.67	-57.8	-73.8	3.8	1.49e+00	0	23	104	0	80	24649
2026-01-07 12:22:23.48	225.84	2.73	-57.8	-73.8	3.8	1.49e+00	0	23	104	0	80	24691
2026-01-07 12:22:24.48	225.93	2.78	-57.8	-73.8	3.8	1.49e+00	0	24	104	0	80	24677
2026-01-07 12:22:25.49	226.01	2.83	-57.8	-73.8	3.8	1.49e+00	0	24	104	0	80	24635
2026-01-07 12:22:26.50	226.10	2.88	-57.8	-73.8	3.8	1.49e+00	0	23	104	0	80	24687
2026-01-07 12:22:27.51	226.19	2.94	-57.8	-73.9	3.8	1.49e+00	0	23	104	0	80	24735
2026-01-07 12:22:28.51	226.28	2.99	-57.8	-73.9	3.8	1.49e+00	0	24	104	0	80	24780
2026-01-07 12:22:29.52	226.37	3.04	-57.8	-73.9	3.8	1.49e+00	0	23	104	0	80	24756
2026-01-07 12:22:30.53	226.46	3.09	-57.8	-73.8	3.8	1.49e+00	0	24	104	0	80	24669
2026-01-07 12:22:31.54	226.55	3.15	-57.8	-73.8	3.8	1.49e+00	0	24	104	0	80	24489
2026-01-07 12:22:32.55	226.64	3.20	-57.8	-73.7	3.8	1.49e+00	0	24	104	0	80	24303
2026-01-07 12:22:33.56	226.73	3.25	-57.8	-73.7	3.8	1.49e+00	0	24	104	0	80	24323
2026-01-07 12:22:34.57	226.82	3.30	-57.8	-73.7	3.8	1.49e+00	0	24	104	0	80	24249
2026-01-07 12:22:35.58	226.91	3.36	-57.8	-73.7	3.8	1.49e+00	0	24	104	0	80	24398
2026-01-07 12:22:36.59	227.00	3.41	-57.8	-73.8	3.8	1.49e+00	0	24	104	0	80	24481
2026-01-07 12:22:37.60	227.09	3.46	-57.8	-73.8	3.8	1.49e+00	0	24	104	0	80	24609
2026-01-07 12:22:38.61	227.18	3.52	-57.8	-73.8	3.8	1.49e+00	0	24	104	0	80	24693
2026-01-07 12:22:39.62	227.28	3.57	-57.8	-73.9	3.8	1.49e+00	0	24	104	0	80	24743
2026-01-07 12:22:40.63	227.37	3.62	-57.8	-73.8	3.8	1.49e+00	0	24	104	0	80	24633
2026-01-07 12:22:41.63	227.46	3.67	-57.8	-73.9	3.8	1.49e+00	0	24	104	0	80	24699
2026-01-07 12:22:42.64	227.55	3.73	-57.8	-73.8	3.8	1.49e+00	0	24	104	0	80	24548
2026-01-07 12:22:43.65	227.65	3.78	-57.8	-73.7	3.8	1.49e+00	0	24	104	0	80	24244
2026-01-07 12:22:44.66	227.74	3.83	-57.8	-73.6	3.8	1.49e+00	0	24	104	0	80	23988
2026-01-07 12:22:45.66	227.83	3.89	-57.8	-73.6	3.8	1.49e+00	0	24	104	0	80	23946
2026-01-07 12:22:46.67	227.93	3.94	-57.8	-73.6	3.8	1.49e+00	0	24	104	0	80	24090
2026-01-07 12:22:47.68	228.02	3.99	-57.8	-73.6	3.8	1.49e+00	0	24	104	0	80	23964
2026-01-07 12:22:48.69	228.12	4.05	-57.8	-73.6	3.8	1.49e+00	0	24	104	0	80	23925
2026-01-07 12:22:49.69	228.21	4.10	-57.8	-73.5	3.8	1.49e+00	0	24	104	0	80	23811
2026-01-07 12:22:50.70	228.31	4.15	-57.8	-73.5	3.8	1.49e+00	0	24	104	0	80	23836
2026-01-07 12:22:51.71	228.41	4.21	-57.8	-73.4	3.8	1.49e+00	0	24	104	0	80	23391
2026-01-07 12:22:52.72	228.50	4.26	-57.8	-73.4	3.8	1.49e+00	0	24	104	0	80	23481
2026-01-07 12:22:53.73	228.60	4.32	-57.8	-73.5	3.8	1.49e+00	0	24	104	0	80	23761
2026-01-07 12:22:54.74	228.70	4.37	-57.8	-73.7	3.8	1.49e+00	0	24	104	0	80	24360
2026-01-07 12:22:55.74	228.79	4.42	-57.8	-73.9	3.8	1.49e+00	0	24	104	0	80	24705
2026-01-07 12:22:56.75	228.89	4.48	-57.8	-73.7	3.8	1.49e+00	0	24	104	0	80	24216
2026-01-07 12:22:57.76	228.99	4.53	-57.8	-73.2	3.8	1.49e+00	0	24	104	0	80	22790
2026-01-07 12:22:58.77	229.09	4.58	-57.8	-72.4	3.8	1.49e+00	0	24	104	0	80	20996
2026-01-07 12:22:59.78	229.19	4.64	-57.7	-71.8	3.8	1.49e+00	0	24	104	0	80	19578
2026-01-07 12:23:00.79	229.29	4.69	-57.7	-71.4	3.8	1.48e+00	0	24	104	0	80	18635
2026-01-07 12:23:01.80	229.39	4.75	-57.7	-71.5	3.8	1.48e+00	0	24	104	0	80	18828
2026-01-07 12:23:02.81	229.49	4.80	-57.8	-71.9	3.8	1.49e+00	0	24	104	0	80	19625
2026-01-07 12:23:03.82	229.59	4.85	-57.7	-71.4	4.0	1.48e+00	0	24	0	0	80	18657
2026-01-07 12:23:04.83	229.69	4.91	-57.7	-70.2	4.2	1.43e+00	0	24	0	0	80	16201
2026-01-07 12:23:05.83	229.79	4.96	-57.5	-68.4	4.9	1.10e+00	0	24	0	1048576	80	13138
2026-01-07 12:23:06.84	229.89	5.02	-57.3	-66.4	6.1	3.48e-01	0	24	0	3145728	80	10497
2026-01-07 12:23:07.85	229.99	5.07	-57.1	-64.8	7.4	1.01e-01	0	24	0	5242880	80	8712
2026-01-07 12:23:08.85	230.09	5.12	-57.8	-71.4	3.8	1.83e-01	0	24	104	6291456	80	18727
2026-01-07 12:23:09.86	230.19	5.18	-56.6	-63.0	8.9	1.97e-01	0	24	0	6291456	79	7490
2026-01-07 12:23:10.87	230.30	5.23	-57.7	-72.6	3.8	8.07e-01	0	24	104	7340032	80	21376
2026-01-07 12:23:11.88	230.40	5.29	-54.2	-57.2	13.1	9.61e-01	0	24	0	7340032	75	4862
2026-01-07 12:23:12.89	230.50	5.34	-54.2	-57.2	13.1	0.00e+00	0	24	0	9437184	74	5143
2026-01-07 12:23:13.89	230.61	5.40	-54.2	-57.2	13.1	0.00e+00	0	24	0	11534336	74	5157
2026-01-07 12:23:14.90	230.71	5.45	-54.2	-57.2	13.1	0.00e+00	0	24	0	12582912	74	5140
2026-01-07 12:23:15.91	230.82	5.51	-54.3	-57.4	13.0	0.00e+00	0	25	0	14680064	74	5257
2026-01-07 12:23:16.92	230.92	5.56	-54.1	-57.1	13.2	0.00e+00	0	24	0	16777216	74	5072
2026-01-07 12:23:17.93	231.03	5.61	-54.2	-57.3	13.1	0.00e+00	0	24	0	18874368	74	5199
2026-01-07 12:23:18.94	231.13	5.67	-54.1	-57.1	13.2	0.00e+00	0	24	0	20971520	74	5069
2026-01-07 12:23:19.95	231.24	5.72	-54.0	-57.0	13.3	0.00e+00	0	24	0	22020096	74	4991
2026-01-07 12:23:20.95	231.34	5.78	-54.2	-57.2	13.2	0.00e+00	0	24	0	24117248	74	5114
2026-01-07 12:23:21.96	231.45	5.83	-54.2	-57.2	13.2	0.00e+00	0	25	0	26214400	74	5104
2026-01-07 12:23:22.96	231.56	5.89	-54.2	-57.2	13.1	0.00e+00	0	24	0	28311552	74	5152
2026-01-07 12:23:23.97	231.66	5.94	-54.0	-56.9	13.4	0.00e+00	0	24	0	30408704	74	4967
2026-01-07 12:23:24.97	231.77	6.00	-54.1	-57.1	13.2	0.00e+00	0	25	0	31457280	74	5073
2026-01-07 12:23:25.98	231.88	6.05	-54.0	-56.8	13.4	0.00e+00	0	24	0	33554432	74	4920
2026-01-07 12:23:26.98	231.99	6.11	-54.1	-57.0	13.3	0.00e+00	0	24	0	35651584	74	4993
2026-01-07 12:23:27.99	232.10	6.16	-54.1	-56.9	13.3	0.00e+00	0	24	0	37748736	74	4975
2026-01-07 12:23:29.00	232.21	6.22	-53.9	-56.7	13.5	0.00e+00	0	24	0	39845888	74	4819
2026-01-07 12:23:30.00	232.32	6.27	-54.0	-56.8	13.4	0.00e+00	0	24	0	40894464	74	4897
2026-01-07 12:23:31.01	232.43	6.32	-54.0	-56.8	13.5	0.00e+00	0	24	0	42991616	74	4885
2026-01-07 12:23:32.02	232.54	6.38	-53.9	-56.7	13.5	0.00e+00	0	24	0	45088768	74	4820
2026-01-07 12:23:33.03	232.65	6.43	-54.0	-56.8	13.4	0.00e+00	0	24	0	47185920	74	4908
2026-01-07 12:23:34.04	232.76	6.49	-54.0	-56.8	13.4	0.00e+00	0	24	0	49283072	74	4923
2026-01-07 12:23:35.04	232.87	6.54	-54.0	-56.8	13.5	0.00e+00	0	24	0	50331648	74	4888
2026-01-07 12:23:36.05	232.98	6.60	-54.0	-56.8	13.4	0.00e+00	0	24	0	52428800	74	4910
2026-01-07 12:23:37.06	233.10	6.66	-53.9	-56.7	13.5	0.00e+00	0	25	0	54525952	74	4826
2026-01-07 12:23:38.07	233.21	6.71	-53.9	-56.6	13.6	0.00e+00	0	24	0	56623104	74	4772
2026-01-07 12:23:39.08	233.32	6.77	-53.9	-56.7	13.5	0.00e+00	0	24	0	58720256	74	4846
2026-01-07 12:23:40.08	233.44	6.82	-54.0	-56.8	13.5	0.00e+00	0	25	0	59768832	74	4888
2026-01-07 12:23:41.09	233.55	6.88	-53.9	-56.6	13.6	0.00e+00	0	25	0	61865984	74	4775
2026-01-07 12:23:42.10	233.67	6.93	-53.9	-56.6	13.6	0.00e+00	0	24	0	63963136	74	4804
2026-01-07 12:23:43.11	233.78	6.99	-53.9	-56.7	13.6	0.00e+00	0	24	0	66060288	74	4836
2026-01-07 12:23:44.11	233.90	7.04	-53.8	-56.5	13.7	0.00e+00	0	25	0	68157440	74	4751
2026-01-07 12:23:45.12	234.01	7.10	-54.0	-56.9	13.5	0.00e+00	0	25	0	69206016	74	4931
2026-01-07 12:23:46.13	234.13	7.15	-53.8	-56.6	13.7	0.00e+00	0	24	0	71303168	74	4771
2026-01-07 12:23:47.13	234.25	7.21	-53.8	-56.6	13.6	0.00e+00	0	25	0	73400320	74	4799
2026-01-07 12:23:48.14	234.36	7.26	-53.6	-56.3	13.7	0.00e+00	0	24	0	75497472	73	4905
2026-01-07 12:23:49.14	234.48	7.32	-53.5	-56.2	13.7	0.00e+00	0	25	0	77594624	73	4835
2026-01-07 12:23:50.15	234.60	7.37	-53.4	-56.1	13.8	0.00e+00	0	25	0	78643200	73	4774
2026-01-07 12:23:51.16	234.72	7.43	-53.5	-56.2	13.8	0.00e+00	0	25	0	80740352	73	4819
2026-01-07 12:23:52.17	234.84	7.48	-53.5	-56.1	13.8	0.00e+00	0	25	0	82837504	73	4782
2026-01-07 12:23:53.18	234.96	7.54	-53.5	-56.1	13.8	0.00e+00	0	25	0	84934656	73	4808
2026-01-07 12:23:54.18	235.07	7.59	-53.3	-56.0	13.9	0.00e+00	0	25	0	87031808	73	4712
2026-01-07 12:23:55.19	235.19	7.65	-53.0	-55.6	14.0	0.00e+00	0	25	0	88080384	72	4787
2026-01-07 12:23:56.20	235.32	7.71	-53.0	-55.5	14.1	0.00e+00	0	25	0	90177536	72	4748
2026-01-07 12:23:57.21	235.44	7.76	-52.9	-55.5	14.1	0.00e+00	0	24	0	92274688	72	4714
2026-01-07 12:23:58.21	235.56	7.82	-52.9	-55.6	14.1	0.00e+00	0	25	0	94371840	72	4771
2026-01-07 12:23:59.22	235.68	7.87	-52.9	-55.6	14.0	0.00e+00	0	25	0	96468992	72	4787
2026-01-07 12:24:00.22	235.80	7.93	-53.0	-55.5	14.0	0.00e+00	0	25	0	97517568	72	4739
2026-01-07 12:24:01.23	235.92	7.98	-53.0	-55.5	14.1	0.00e+00	0	25	0	99614720	72	4710
2026-01-07 12:24:02.24	236.05	8.04	-52.9	-55.3	14.2	0.00e+00	0	24	0	101711872	72	4644
2026-01-07 12:24:03.25	236.17	8.09	-53.0	-55.4	14.1	0.00e+00	0	25	0	103809024	72	4690
2026-01-07 12:24:04.26	236.30	8.15	-53.1	-55.5	14.0	0.00e+00	0	25	0	105906176	72	4729
2026-01-07 12:24:05.27	236.42	8.21	-52.8	-55.4	14.2	0.00e+00	0	25	0	106954752	72	4657
2026-01-07 12:24:06.28	236.55	8.26	-52.8	-55.3	14.2	0.00e+00	0	25	0	109051904	72	4616
2026-01-07 12:24:07.29	236.67	8.32	-52.9	-55.3	14.2	0.00e+00	0	25	0	111149056	72	4649
2026-01-07 12:24:08.29	236.80	8.37	-52.9	-55.3	14.2	0.00e+00	0	25	0	113246208	72	4630
2026-01-07 12:24:09.30	236.93	8.43	-53.0	-55.4	14.1	0.00e+00	0	25	0	115343360	72	4677
2026-01-07 12:24:10.31	237.05	8.48	-52.9	-55.4	14.1	0.00e+00	0	25	0	116391936	72	4658
2026-01-07 12:24:11.32	237.18	8.54	-52.9	-55.4	14.1	0.00e+00	0	25	0	118489088	72	4656
2026-01-07 12:24:12.32	237.31	8.59	-52.9	-55.3	14.2	0.00e+00	0	25	0	120586240	72	4631
2026-01-07 12:24:13.33	237.44	8.65	-52.9	-55.3	14.2	0.00e+00	0	25	0	122683392	72	4651
2026-01-07 12:24:14.33	237.56	8.71	-52.8	-55.2	14.3	0.00e+00	0	25	0	124780544	72	4582
2026-01-07 12:24:15.34	237.69	8.76	-52.9	-55.3	14.2	0.00e+00	0	25	0	125829120	72	4615
2026-01-07 12:24:16.35	237.82	8.82	-53.1	-55.5	14.1	0.00e+00	0	25	0	127926272	72	4728
2026-01-07 12:24:17.36	237.96	8.87	-53.0	-55.4	14.1	0.00e+00	0	25	0	130023424	72	4691
2026-01-07 12:24:18.36	238.08	8.93	-53.1	-55.5	14.0	0.00e+00	0	25	0	132120576	72	4752
2026-01-07 12:24:19.37	238.22	8.98	-53.0	-55.5	14.1	0.00e+00	0	25	0	134217728	72	4746
2026-01-07 12:24:20.38	238.35	9.04	-53.0	-55.6	14.0	0.00e+00	0	25	0	135266304	72	4778
2026-01-07 12:24:21.39	238.48	9.09	-53.1	-55.6	14.0	0.00e+00	0	25	0	137363456	72	4789
2026-01-07 12:24:22.40	238.61	9.15	-53.1	-55.5	14.1	0.00e+00	0	25	0	139460608	72	4751
2026-01-07 12:24:23.41	238.75	9.21	-53.0	-55.5	14.1	0.00e+00	0	25	0	141557760	72	4721
2026-01-07 12:24:24.41	238.88	9.26	-52.9	-55.4	14.2	0.00e+00	0	25	0	143654912	72	4677
2026-01-07 12:24:25.42	239.02	9.32	-52.9	-55.4	14.1	0.00e+00	0	25	0	144703488	72	4680
2026-01-07 12:24:26.43	239.15	9.37	-52.9	-55.4	14.2	0.00e+00	0	25	0	146800640	72	4665
2026-01-07 12:24:27.44	239.29	9.43	-52.9	-55.2	14.3	0.00e+00	0	25	0	148897792	72	4592
2026-01-07 12:24:28.44	239.42	9.48	-52.8	-55.2	14.3	0.00e+00	0	25	0	150994944	72	4591
2026-01-07 12:24:29.45	239.56	9.54	-52.8	-55.2	14.3	0.00e+00	0	25	0	153092096	72	4589
2026-01-07 12:24:30.46	239.69	9.59	-52.8	-55.2	14.3	0.00e+00	0	25	0	154140672	72	4587
2026-01-07 12:24:31.46	239.83	9.65	-52.9	-55.3	14.2	0.00e+00	0	25	0	156237824	72	4650
2026-01-07 12:24:32.47	239.97	9.71	-52.8	-55.2	14.3	0.00e+00	0	25	0	158334976	72	4578
2026-01-07 12:24:33.48	240.11	9.76	-52.9	-55.4	14.2	0.00e+00	0	25	0	160432128	72	4653
2026-01-07 12:24:34.49	240.25	9.82	-52.9	-55.3	14.2	0.00e+00	0	25	0	162529280	72	4643
2026-01-07 12:24:35.49	240.38	9.87	-52.9	-55.4	14.2	0.00e+00	0	25	0	163577856	72	4657
2026-01-07 12:24:36.50	240.52	9.93	-52.9	-55.3	14.2	0.00e+00	0	25	0	165675008	72	4637
2026-01-07 12:24:37.51	240.66	9.98	-52.9	-55.4	14.2	0.00e+00	0	25	0	167772160	72	4676
2026-01-07 12:24:38.52	240.81	10.04	-52.7	-55.3	14.3	0.00e+00	0	25	0	169869312	72	4623
2026-01-07 12:24:39.52	240.95	10.09	-52.7	-55.3	14.3	0.00e+00	0	25	0	171966464	72	4619
2026-01-07 12:24:40.53	241.09	10.15	-52.7	-55.3	14.3	0.00e+00	0	25	0	173015040	72	4606
2026-01-07 12:24:41.53	241.23	10.20	-52.8	-55.3	14.3	0.00e+00	0	25	0	175112192	72	4608
2026-01-07 12:24:42.53	241.37	10.26	-52.7	-55.1	14.4	0.00e+00	0	25	0	177209344	72	4532
2026-01-07 12:24:43.55	241.52	10.31	-52.5	-55.0	14.3	0.00e+00	0	25	0	179306496	71	4742
2026-01-07 12:24:44.55	241.66	10.37	-52.6	-55.1	14.3	0.00e+00	0	25	0	181403648	71	4776
2026-01-07 12:24:45.56	241.80	10.42	-52.6	-55.0	14.3	0.00e+00	0	25	0	182452224	71	4729
2026-01-07 12:24:46.57	241.95	10.48	-52.6	-55.0	14.3	0.00e+00	0	25	0	184549376	71	4754
2026-01-07 12:24:47.57	242.09	10.53	-52.6	-54.9	14.3	0.00e+00	0	25	0	186646528	71	4691
2026-01-07 12:24:48.59	242.24	10.59	-52.6	-55.0	14.3	0.00e+00	0	25	0	188743680	71	4737
2026-01-07 12:24:49.59	242.39	10.64	-52.7	-55.0	14.3	0.00e+00	0	25	0	190840832	71	4747
2026-01-07 12:24:50.60	242.53	10.70	-52.8	-55.1	14.2	0.00e+00	0	25	0	192937984	71	4785
2026-01-07 12:24:51.61	242.68	10.75	-52.8	-55.1	14.2	0.00e+00	0	25	0	193986560	71	4784
2026-01-07 12:24:52.62	242.83	10.81	-52.8	-55.1	14.2	0.00e+00	0	25	0	196083712	71	4796
2026-01-07 12:24:53.62	242.98	10.86	-52.7	-54.9	14.3	0.00e+00	0	25	0	198180864	71	4705
2026-01-07 12:24:54.63	243.13	10.92	-52.6	-54.9	14.3	0.00e+00	0	25	0	200278016	71	4656
2026-01-07 12:24:55.63	243.27	10.97	-52.7	-54.9	14.3	0.00e+00	0	25	0	201326592	71	4678
2026-01-07 12:24:56.64	243.43	11.03	-52.7	-54.9	14.3	0.00e+00	0	25	0	203423744	71	4666
2026-01-07 12:24:57.65	243.58	11.08	-52.7	-54.8	14.4	0.00e+00	0	25	0	205520896	71	4627
2026-01-07 12:24:58.66	243.73	11.14	-52.6	-54.8	14.4	0.00e+00	0	25	0	207618048	71	4601
2026-01-07 12:24:59.66	243.88	11.19	-52.6	-54.8	14.4	0.00e+00	0	25	0	209715200	71	4600
2026-01-07 12:25:00.67	244.03	11.24	-52.6	-54.7	14.4	0.00e+00	0	25	0	210763776	71	4593
2026-01-07 12:25:01.68	244.18	11.30	-52.6	-54.6	14.4	0.00e+00	0	25	0	212860928	71	4545
2026-01-07 12:25:02.68	244.34	11.35	-52.5	-54.5	14.5	0.00e+00	0	25	0	214958080	71	4485
2026-01-07 12:25:03.69	244.49	11.41	-52.4	-54.5	14.5	0.00e+00	0	25	0	217055232	71	4457
2026-01-07 12:25:04.70	244.65	11.46	-52.5	-54.5	14.5	0.00e+00	0	25	0	219152384	71	4482
2026-01-07 12:25:05.71	244.80	11.52	-52.4	-54.4	14.6	0.00e+00	0	25	0	221249536	71	4413
2026-01-07 12:25:06.71	244.96	11.57	-52.3	-54.4	14.6	0.00e+00	0	25	0	222298112	71	4394
2026-01-07 12:25:07.72	245.11	11.62	-52.3	-54.2	14.7	0.00e+00	0	25	0	224395264	71	4337
2026-01-07 12:25:08.73	245.27	11.68	-52.3	-54.3	14.6	0.00e+00	0	25	0	226492416	71	4377
2026-01-07 12:25:09.73	245.43	11.73	-52.3	-54.3	14.6	0.00e+00	0	25	0	228589568	71	4363
2026-01-07 12:25:10.74	245.58	11.78	-52.2	-54.2	14.7	0.00e+00	0	25	0	229638144	71	4322
2026-01-07 12:25:11.75	245.74	11.84	-52.1	-54.0	14.6	0.00e+00	0	25	0	231735296	70	4483
2026-01-07 12:25:12.76	245.90	11.89	-52.2	-54.2	14.5	0.00e+00	0	25	0	233832448	70	4551
2026-01-07 12:25:13.77	246.06	11.95	-52.1	-54.0	14.6	0.00e+00	0	25	0	235929600	70	4481
2026-01-07 12:25:14.77	246.22	12.00	-51.9	-53.8	14.7	0.00e+00	0	25	0	238026752	70	4378
2026-01-07 12:25:15.78	246.38	12.05	-51.9	-53.8	14.8	0.00e+00	0	25	0	239075328	70	4381
2026-01-07 12:25:16.79	246.54	12.11	-51.9	-53.8	14.8	0.00e+00	0	25	0	241172480	70	4382
2026-01-07 12:25:17.80	246.71	12.16	-51.9	-53.8	14.8	0.00e+00	0	25	0	243269632	70	4368
2026-01-07 12:25:18.80	246.87	12.21	-51.8	-53.7	14.8	0.00e+00	0	25	0	245366784	70	4336
2026-01-07 12:25:19.81	247.03	12.26	-51.8	-53.7	14.8	0.00e+00	0	25	0	247463936	70	4306
2026-01-07 12:25:20.82	247.19	12.32	-51.8	-53.7	14.8	0.00e+00	0	25	0	249561088	70	4297
2026-01-07 12:25:21.83	247.36	12.37	-51.7	-53.7	14.8	0.00e+00	0	25	0	250609664	70	4306
2026-01-07 12:25:22.84	247.52	12.42	-51.7	-53.7	14.8	0.00e+00	0	25	0	252706816	70	4302
2026-01-07 12:25:23.85	247.69	12.48	-51.8	-53.8	14.8	0.00e+00	0	25	0	254803968	70	4353
2026-01-07 12:25:24.85	247.85	12.53	-51.8	-53.8	14.8	0.00e+00	0	25	0	256901120	70	4365
2026-01-07 12:25:25.86	248.02	12.58	-51.8	-53.8	14.8	0.00e+00	0	25	0	258998272	70	4388
2026-01-07 12:25:26.87	248.19	12.63	-51.8	-53.8	14.8	0.00e+00	0	25	0	260046848	70	4358
2026-01-07 12:25:27.87	248.35	12.68	-51.7	-53.8	14.8	0.00e+00	0	25	0	262144000	70	4346
2026-01-07 12:25:28.88	248.52	12.74	-51.6	-53.7	14.9	0.00e+00	0	25	0	264241152	69	4570
2026-01-07 12:25:29.88	248.69	12.79	-51.6	-53.7	14.7	0.00e+00	0	25	0	266338304	69	4589
2026-01-07 12:25:30.89	248.86	12.84	-51.5	-53.6	14.8	0.00e+00	0	25	0	267386880	69	4520
2026-01-07 12:25:31.90	249.03	12.89	-51.4	-53.4	14.9	0.00e+00	0	25	0	269484032	69	4437
2026-01-07 12:25:32.91	249.20	12.94	-51.4	-53.5	14.9	0.00e+00	0	25	0	271581184	69	4449
2026-01-07 12:25:33.92	249.37	13.00	-51.4	-53.4	14.9	0.00e+00	0	25	0	273678336	69	4439
2026-01-07 12:25:34.93	249.54	13.05	-51.3	-53.4	14.9	0.00e+00	0	25	0	275775488	69	4425
2026-01-07 12:25:35.94	249.72	13.10	-51.4	-53.6	14.8	0.00e+00	0	25	0	277872640	69	4504
2026-01-07 12:25:36.95	249.89	13.15	-51.5	-53.7	14.8	0.00e+00	0	25	0	278921216	69	4550
2026-01-07 12:25:37.96	250.06	13.20	-51.5	-53.7	14.8	0.00e+00	0	25	0	281018368	69	4553
2026-01-07 12:25:38.96	250.24	13.25	-51.4	-53.7	14.8	0.00e+00	0	25	0	283115520	69	4547
2026-01-07 12:25:39.97	250.41	13.30	-51.4	-53.6	14.8	0.00e+00	0	25	0	285212672	69	4519
2026-01-07 12:25:40.98	250.59	13.35	-51.5	-53.7	14.8	0.00e+00	0	25	0	287309824	69	4554
2026-01-07 12:25:41.98	250.76	13.40	-51.5	-53.7	14.7	0.00e+00	0	25	0	288358400	69	4568
2026-01-07 12:25:42.99	250.94	13.45	-51.5	-53.7	14.8	0.00e+00	0	25	0	290455552	69	4571
2026-01-07 12:25:44.00	251.11	13.50	-51.5	-53.8	14.8	0.00e+00	0	25	0	292552704	69	4634
2026-01-07 12:25:45.01	251.29	13.55	-51.3	-53.5	14.9	0.00e+00	0	25	0	294649856	69	4475
2026-01-07 12:25:46.01	251.47	13.60	-51.3	-53.5	14.9	0.00e+00	0	25	0	296747008	69	4487
2026-01-07 12:25:47.03	251.65	13.65	-51.3	-53.5	14.9	0.00e+00	0	25	0	297795584	69	4477
2026-01-07 12:25:48.03	251.83	13.70	-51.3	-53.5	14.9	0.00e+00	0	25	0	299892736	69	4472
2026-01-07 12:25:49.04	252.01	13.75	-51.4	-53.6	14.8	0.00e+00	0	25	0	301989888	69	4529
2026-01-07 12:25:50.05	252.19	13.80	-51.5	-53.7	14.8	0.00e+00	0	25	0	304087040	69	4592
2026-01-07 12:25:51.05	252.37	13.85	-51.6	-53.8	14.7	0.00e+00	0	25	0	306184192	69	4599
2026-01-07 12:25:52.06	252.55	13.90	-51.5	-53.7	14.8	0.00e+00	0	25	0	307232768	69	4597
2026-01-07 12:25:53.07	252.73	13.95	-51.5	-53.8	14.7	0.00e+00	0	25	0	309329920	69	4614
2026-01-07 12:25:54.07	252.91	14.00	-51.6	-53.8	14.7	0.00e+00	0	25	0	311427072	69	4642
2026-01-07 12:25:55.08	253.09	14.04	-51.6	-53.9	14.7	0.00e+00	0	25	0	313524224	69	4671
2026-01-07 12:25:56.09	253.28	14.09	-51.6	-53.9	14.7	0.00e+00	0	25	0	315621376	69	4683
2026-01-07 12:25:57.09	253.46	14.14	-51.6	-53.9	14.7	0.00e+00	0	25	0	316669952	69	4668
2026-01-07 12:25:58.10	253.65	14.19	-51.7	-53.9	14.6	0.00e+00	0	25	0	318767104	69	4690
2026-01-07 12:25:59.11	253.83	14.24	-51.7	-54.1	14.6	0.00e+00	0	25	0	320864256	69	4760
2026-01-07 12:26:00.11	254.02	14.28	-51.9	-54.2	14.5	0.00e+00	0	25	0	322961408	69	4831
2026-01-07 12:26:01.12	254.20	14.33	-51.9	-54.4	14.5	0.00e+00	0	25	0	325058560	69	4930
2026-01-07 12:26:02.13	254.39	14.38	-52.0	-54.5	14.4	0.00e+00	0	25	0	326107136	69	4993
2026-01-07 12:26:03.14	254.58	14.43	-52.1	-54.6	14.3	0.00e+00	0	25	0	328204288	69	5098
2026-01-07 12:26:04.15	254.77	14.47	-52.1	-54.6	14.3	0.00e+00	0	25	0	330301440	69	5050
2026-01-07 12:26:05.15	254.96	14.52	-52.2	-54.6	14.3	0.00e+00	0	25	0	332398592	69	5074
2026-01-07 12:26:06.16	255.15	14.56	-52.2	-54.8	14.3	0.00e+00	0	25	0	334495744	69	5174
2026-01-07 12:26:07.17	255.34	14.61	-52.3	-54.8	14.2	0.00e+00	0	25	0	335544320	69	5190
2026-01-07 12:26:08.17	255.52	14.66	-52.3	-55.0	14.1	0.00e+00	0	25	0	337641472	69	5290
2026-01-07 12:26:09.17	255.71	14.70	-52.3	-54.9	14.2	0.00e+00	0	25	0	339738624	69	5242
2026-01-07 12:26:10.18	255.91	14.75	-52.5	-55.0	14.3	0.00e+00	0	25	0	341835776	70	5032
2026-01-07 12:26:11.19	256.10	14.79	-52.5	-55.1	14.2	0.00e+00	0	25	0	343932928	70	5062
2026-01-07 12:26:12.19	256.29	14.84	-52.6	-55.2	14.1	0.00e+00	0	25	0	344981504	70	5148
2026-01-07 12:26:13.19	256.48	14.88	-52.6	-55.2	14.2	0.00e+00	0	25	0	347078656	70	5132
2026-01-07 12:26:14.20	256.68	14.93	-52.7	-55.3	14.1	0.00e+00	0	25	0	349175808	70	5178
2026-01-07 12:26:15.21	256.87	14.97	-52.8	-55.4	14.0	0.00e+00	0	25	0	351272960	70	5261
2026-01-07 12:26:16.21	257.07	15.02	-52.8	-55.4	14.0	0.00e+00	0	25	0	353370112	70	5253
2026-01-07 12:26:17.22	257.26	15.06	-52.8	-55.4	14.0	0.00e+00	0	25	0	354418688	70	5274
2026-01-07 12:26:18.23	257.46	15.10	-52.8	-55.4	14.0	0.00e+00	0	25	0	356515840	70	5271
2026-01-07 12:26:19.24	257.66	15.15	-52.9	-55.5	14.0	0.00e+00	0	25	0	358612992	70	5280
2026-01-07 12:26:20.25	257.85	15.19	-52.8	-55.5	14.0	0.00e+00	0	25	0	360710144	70	5281
2026-01-07 12:26:21.26	258.05	15.23	-52.9	-55.5	14.0	0.00e+00	0	25	0	362807296	70	5288
2026-01-07 12:26:22.26	258.25	15.28	-52.9	-55.5	14.0	0.00e+00	0	25	0	363855872	70	5318
2026-01-07 12:26:23.27	258.45	15.32	-53.0	-55.6	14.0	0.00e+00	0	25	0	365953024	71	5074
2026-01-07 12:26:24.28	258.65	15.36	-53.1	-55.8	14.0	0.00e+00	0	25	0	368050176	71	5177
2026-01-07 12:26:25.28	258.85	15.40	-53.0	-55.8	14.0	0.00e+00	0	25	0	370147328	71	5166
2026-01-07 12:26:26.29	259.05	15.45	-53.2	-56.0	13.8	0.00e+00	0	25	0	372244480	71	5295
2026-01-07 12:26:27.30	259.25	15.49	-53.2	-55.9	13.9	0.00e+00	0	25	0	373293056	71	5275
2026-01-07 12:26:28.31	259.45	15.53	-53.3	-56.1	13.8	0.00e+00	0	25	0	375390208	71	5341
2026-01-07 12:26:29.32	259.65	15.57	-53.4	-56.2	13.8	0.00e+00	0	25	0	377487360	72	5104
2026-01-07 12:26:30.33	259.86	15.61	-53.3	-56.1	13.9	0.00e+00	0	25	0	379584512	72	5080
2026-01-07 12:26:31.33	260.06	15.65	-53.4	-56.1	13.9	0.00e+00	0	25	0	381681664	72	5045
2026-01-07 12:26:32.33	260.26	15.69	-53.5	-56.2	13.8	0.00e+00	0	25	0	382730240	72	5122
2026-01-07 12:26:33.34	260.46	15.73	-53.6	-56.3	13.8	0.00e+00	0	25	0	384827392	72	5162
2026-01-07 12:26:34.35	260.67	15.77	-53.4	-56.0	13.9	0.00e+00	0	25	0	386924544	72	5000
2026-01-07 12:26:35.36	260.88	15.81	-53.3	-55.9	14.0	0.00e+00	0	25	0	389021696	72	4970
2026-01-07 12:26:36.36	261.08	15.85	-53.3	-56.0	14.0	0.00e+00	0	25	0	391118848	72	4989
2026-01-07 12:26:37.37	261.29	15.89	-53.3	-55.9	14.0	0.00e+00	0	25	0	392167424	72	4935
2026-01-07 12:26:38.38	261.49	15.93	-53.3	-55.8	14.0	0.00e+00	0	25	0	394264576	72	4903
2026-01-07 12:26:39.39	261.70	15.96	-53.2	-55.8	14.0	0.00e+00	0	25	0	396361728	72	4909
2026-01-07 12:26:40.40	261.91	16.00	-53.2	-55.8	14.1	0.00e+00	0	25	0	398458880	72	4898
2026-01-07 12:26:41.40	262.12	16.04	-53.2	-55.7	14.1	0.00e+00	0	25	0	400556032	72	4828
2026-01-07 12:26:42.41	262.33	16.08	-53.2	-55.7	14.1	0.00e+00	0	25	0	401604608	72	4829
2026-01-07 12:26:43.42	262.54	16.11	-53.1	-55.5	14.2	0.00e+00	0	25	0	403701760	72	4710
2026-01-07 12:26:44.42	262.75	16.15	-53.0	-55.4	14.2	0.00e+00	0	25	0	405798912	72	4694
2026-01-07 12:26:45.43	262.96	16.19	-53.0	-55.4	14.3	0.00e+00	0	25	0	407896064	72	4686
2026-01-07 12:26:46.43	263.17	16.22	-53.1	-55.5	14.2	0.00e+00	0	25	0	409993216	72	4728
2026-01-07 12:26:47.44	263.38	16.26	-52.8	-55.1	14.4	0.00e+00	0	25	0	411041792	72	4512
2026-01-07 12:26:48.45	263.59	16.29	-52.6	-54.7	14.4	0.00e+00	0	25	0	413138944	71	4598
2026-01-07 12:26:49.46	263.80	16.33	-52.6	-54.8	14.4	0.00e+00	0	25	0	415236096	71	4613
2026-01-07 12:26:50.46	264.01	16.36	-52.6	-54.8	14.4	0.00e+00	0	25	0	417333248	71	4634
2026-01-07 12:26:51.47	264.23	16.40	-52.5	-54.7	14.5	0.00e+00	0	25	0	419430400	71	4565
2026-01-07 12:26:52.48	264.44	16.43	-52.5	-54.6	14.5	0.00e+00	0	25	0	420478976	71	4541
2026-01-07 12:26:53.49	264.66	16.47	-52.4	-54.5	14.6	0.00e+00	0	25	0	422576128	71	4469
2026-01-07 12:26:54.50	264.87	16.50	-52.4	-54.6	14.6	0.00e+00	0	25	0	424673280	71	4502
2026-01-07 12:26:55.51	265.09	16.53	-52.3	-54.3	14.7	0.00e+00	0	25	0	426770432	71	4381
2026-01-07 12:26:56.52	265.30	16.57	-52.2	-54.3	14.7	0.00e+00	0	25	0	428867584	71	4353
2026-01-07 12:26:57.52	265.52	16.60	-52.2	-54.2	14.7	0.00e+00	0	25	0	429916160	71	4338
2026-01-07 12:26:58.53	265.74	16.63	-52.0	-54.0	14.7	0.00e+00	0	25	0	432013312	70	4490
2026-01-07 12:26:59.54	265.95	16.66	-52.0	-53.9	14.7	0.00e+00	0	25	0	434110464	70	4439
2026-01-07 12:27:00.55	266.17	16.70	-51.9	-53.9	14.8	0.00e+00	0	25	0	436207616	70	4413
2026-01-07 12:27:01.55	266.39	16.73	-51.9	-53.9	14.8	0.00e+00	0	25	0	438304768	70	4398
2026-01-07 12:27:02.56	266.61	16.76	-52.0	-54.0	14.7	0.00e+00	0	25	0	439353344	70	4463
2026-01-07 12:27:03.57	266.83	16.79	-51.9	-53.8	14.8	0.00e+00	0	25	0	441450496	70	4373
2026-01-07 12:27:04.58	267.04	16.82	-51.9	-53.9	14.8	0.00e+00	0	25	0	443547648	70	4412
2026-01-07 12:27:05.58	267.26	16.85	-52.1	-54.1	14.7	0.00e+00	0	25	0	445644800	70	4507
2026-01-07 12:27:06.59	267.48	16.88	-52.1	-54.2	14.6	0.00e+00	0	25	0	447741952	70	4556
2026-01-07 12:27:07.60	267.70	16.91	-52.2	-54.2	14.6	0.00e+00	0	25	0	448790528	70	4593
2026-01-07 12:27:08.61	267.93	16.93	-52.2	-54.3	14.6	0.00e+00	0	25	0	450887680	70	4626
2026-01-07 12:27:09.61	268.15	16.96	-52.3	-54.5	14.5	0.00e+00	0	25	0	452984832	70	4707
2026-01-07 12:27:10.62	268.37	16.99	-52.3	-54.4	14.5	0.00e+00	0	25	0	455081984	70	4675
2026-01-07 12:27:11.63	268.59	17.02	-52.3	-54.5	14.5	0.00e+00	0	25	0	457179136	70	4711
2026-01-07 12:27:12.64	268.81	17.04	-52.3	-54.5	14.5	0.00e+00	0	25	0	458227712	70	4723
2026-01-07 12:27:13.64	269.03	17.07	-52.4	-54.6	14.4	0.00e+00	0	25	0	460324864	70	4795
2026-01-07 12:27:14.65	269.26	17.10	-52.5	-54.7	14.4	0.00e+00	0	25	0	462422016	70	4834
2026-01-07 12:27:15.65	269.48	17.12	-52.5	-54.7	14.4	0.00e+00	0	25	0	464519168	70	4838
2026-01-07 12:27:16.65	269.70	17.15	-52.4	-54.6	14.4	0.00e+00	0	25	0	466616320	70	4777
2026-01-07 12:27:17.65	269.92	17.17	-52.4	-54.6	14.4	0.00e+00	0	25	0	467664896	70	4767
2026-01-07 12:27:18.66	270.15	17.20	-52.3	-54.4	14.5	0.00e+00	0	25	0	469762048	70	4687
2026-01-07 12:27:19.67	270.37	17.22	-52.3	-54.4	14.5	0.00e+00	0	25	0	471859200	70	4676
2026-01-07 12:27:20.67	270.60	17.25	-52.3	-54.4	14.5	0.00e+00	0	25	0	473956352	70	4686
2026-01-07 12:27:21.68	270.82	17.27	-52.3	-54.4	14.5	0.00e+00	0	25	0	476053504	70	4694
2026-01-07 12:27:22.69	271.05	17.29	-52.5	-54.6	14.4	0.00e+00	0	25	0	477102080	70	4807
2026-01-07 12:27:23.70	271.28	17.32	-52.6	-54.8	14.3	0.00e+00	0	25	0	479199232	70	4875
2026-01-07 12:27:24.71	271.50	17.34	-52.5	-54.7	14.4	0.00e+00	0	25	0	481296384	70	4828
2026-01-07 12:27:25.72	271.73	17.36	-52.6	-54.7	14.4	0.00e+00	0	25	0	483393536	70	4868
2026-01-07 12:27:26.72	271.96	17.38	-52.6	-54.8	14.3	0.00e+00	0	25	0	485490688	70	4892
2026-01-07 12:27:27.72	272.18	17.40	-52.7	-54.9	14.3	0.00e+00	0	25	0	486539264	70	4957
2026-01-07 12:27:28.73	272.41	17.42	-52.6	-54.7	14.3	0.00e+00	0	25	0	488636416	70	4863
2026-01-07 12:27:29.74	272.64	17.44	-52.6	-54.7	14.4	0.00e+00	0	25	0	490733568	70	4846
2026-01-07 12:27:30.74	272.87	17.46	-52.6	-54.7	14.4	0.00e+00	0	25	0	492830720	70	4863
2026-01-07 12:27:31.75	273.10	17.48	-52.5	-54.7	14.4	0.00e+00	0	25	0	494927872	70	4823
2026-01-07 12:27:32.76	273.33	17.50	-52.7	-54.8	14.3	0.00e+00	0	25	0	495976448	70	4902
2026-01-07 12:27:33.77	273.56	17.52	-52.6	-54.7	14.3	0.00e+00	0	25	0	498073600	70	4831
2026-01-07 12:27:34.77	273.78	17.54	-52.6	-54.8	14.3	0.00e+00	0	25	0	500170752	70	4876
2026-01-07 12:27:35.79	274.02	17.56	-52.7	-54.8	14.3	0.00e+00	0	25	0	502267904	70	4902
2026-01-07 12:27:36.79	274.25	17.57	-52.6	-54.7	14.3	0.00e+00	0	25	0	504365056	70	4870
2026-01-07 12:27:37.80	274.48	17.59	-52.5	-54.6	14.4	0.00e+00	0	25	0	505413632	70	4784
2026-01-07 12:27:38.81	274.71	17.61	-52.5	-54.6	14.4	0.00e+00	0	25	0	507510784	70	4804
2026-01-07 12:27:39.82	274.94	17.62	-52.6	-54.6	14.4	0.00e+00	0	25	0	509607936	70	4801
2026-01-07 12:27:40.83	275.17	17.64	-52.6	-54.7	14.4	0.00e+00	0	25	0	511705088	70	4837
2026-01-07 12:27:41.83	275.40	17.65	-52.6	-54.8	14.3	0.00e+00	0	25	0	513802240	70	4891
2026-01-07 12:27:42.83	275.63	17.67	-52.7	-54.8	14.3	0.00e+00	0	25	0	514850816	70	4924
2026-01-07 12:27:43.85	275.86	17.68	-52.7	-54.9	14.3	0.00e+00	0	25	0	516947968	70	4931
2026-01-07 12:27:44.85	276.09	17.70	-52.7	-54.8	14.3	0.00e+00	0	25	0	519045120	70	4883
2026-01-07 12:27:45.85	276.32	17.71	-52.6	-54.6	14.4	0.00e+00	0	25	0	521142272	70	4809
2026-01-07 12:27:46.85	276.56	17.72	-52.5	-54.5	14.4	0.00e+00	0	25	0	523239424	70	4738
2026-01-07 12:27:47.86	276.79	17.74	-52.5	-54.5	14.4	0.00e+00	0	25	0	524288000	70	4706
2026-01-07 12:27:48.87	277.02	17.75	-52.4	-54.4	14.5	0.00e+00	0	25	0	526385152	70	4688
2026-01-07 12:27:49.87	277.25	17.76	-52.5	-54.5	14.5	0.00e+00	0	25	0	528482304	70	4707
2026-01-07 12:27:50.88	277.49	17.77	-52.5	-54.5	14.4	0.00e+00	0	25	0	530579456	70	4758
2026-01-07 12:27:51.89	277.72	17.78	-52.6	-54.7	14.4	0.00e+00	0	25	0	532676608	70	4816
2026-01-07 12:27:52.90	277.95	17.79	-52.6	-54.7	14.3	0.00e+00	0	25	0	533725184	70	4833
2026-01-07 12:27:53.91	278.19	17.80	-52.8	-54.9	14.3	0.00e+00	0	25	0	535822336	70	4927
2026-01-07 12:27:54.92	278.42	17.81	-52.8	-55.0	14.2	0.00e+00	0	25	0	537919488	70	4986
2026-01-07 12:27:55.93	278.66	17.82	-53.1	-55.3	14.2	0.00e+00	0	25	0	540016640	71	4873
2026-01-07 12:27:56.94	278.89	17.83	-53.2	-55.4	14.1	0.00e+00	0	25	0	542113792	71	4979
2026-01-07 12:27:57.95	279.13	17.84	-53.3	-55.6	14.0	0.00e+00	0	25	0	544210944	71	5048
2026-01-07 12:27:58.96	279.36	17.84	-53.4	-55.7	14.0	0.00e+00	0	25	0	545259520	72	4857
2026-01-07 12:27:59.97	279.59	17.85	-53.4	-55.6	14.2	0.00e+00	0	25	0	547356672	72	4802
2026-01-07 12:28:00.97	279.83	17.86	-53.3	-55.5	14.2	0.00e+00	0	25	0	549453824	72	4757
2026-01-07 12:28:01.98	280.06	17.86	-53.2	-55.3	14.3	0.00e+00	0	25	0	551550976	72	4641
2026-01-07 12:28:02.98	280.30	17.87	-53.1	-55.2	14.4	0.00e+00	0	25	0	552599552	72	4577
2026-01-07 12:28:03.99	280.53	17.87	-53.1	-55.2	14.3	0.00e+00	0	25	0	554696704	72	4555
2026-01-07 12:28:04.99	280.76	17.88	-52.9	-54.9	14.5	0.00e+00	0	25	0	556793856	72	4412
2026-01-07 12:28:06.00	281.00	17.88	-52.9	-55.0	14.5	0.00e+00	0	25	0	558891008	72	4448
2026-01-07 12:28:07.01	281.23	17.89	-52.9	-54.9	14.5	0.00e+00	0	25	0	560988160	72	4408
2026-01-07 12:28:08.02	281.47	17.89	-53.0	-55.0	14.4	0.00e+00	0	25	0	562036736	72	4489
2026-01-07 12:28:09.03	281.70	17.89	-53.1	-55.2	14.3	0.00e+00	0	25	0	564133888	72	4575
2026-01-07 12:28:10.03	281.94	17.90	-53.1	-55.3	14.3	0.00e+00	0	25	0	566231040	72	4600
2026-01-07 12:28:11.04	282.17	17.90	-53.2	-55.4	14.2	0.00e+00	0	25	0	568328192	72	4671
2026-01-07 12:28:12.04	282.41	17.90	-53.2	-55.4	14.2	0.00e+00	0	25	0	570425344	72	4671
2026-01-07 12:28:13.05	282.64	17.90	-53.2	-55.4	14.2	0.00e+00	0	25	0	572522496	72	4678
2026-01-07 12:28:14.05	282.87	17.90	-53.2	-55.4	14.3	0.00e+00	0	25	0	573571072	72	4663
2026-01-07 12:28:15.06	283.11	17.90	-53.1	-55.2	14.3	0.00e+00	0	25	0	575668224	72	4578
2026-01-07 12:28:16.07	283.35	17.90	-53.2	-55.3	14.3	0.00e+00	0	25	0	577765376	72	4638
2026-01-07 12:28:17.08	283.58	17.90	-53.1	-55.1	14.4	0.00e+00	0	25	0	579862528	72	4529
2026-01-07 12:28:18.08	283.81	17.90	-53.1	-55.1	14.4	0.00e+00	0	25	0	580911104	72	4542
2026-01-07 12:28:19.09	284.05	17.90	-53.0	-55.1	14.4	0.00e+00	0	25	0	583008256	72	4501
2026-01-07 12:28:20.10	284.29	17.90	-53.0	-55.1	14.4	0.00e+00	0	25	0	585105408	72	4517
2026-01-07 12:28:21.11	284.52	17.89	-53.0	-55.0	14.5	0.00e+00	0	25	0	587202560	72	4446
2026-01-07 12:28:22.12	284.76	17.89	-53.0	-55.0	14.4	0.00e+00	0	25	0	589299712	72	4464
2026-01-07 12:28:23.13	284.99	17.89	-53.0	-55.0	14.5	0.00e+00	0	25	0	590348288	72	4470
2026-01-07 12:28:24.14	285.23	17.88	-53.0	-55.0	14.4	0.00e+00	0	25	0	592445440	72	4489
2026-01-07 12:28:25.14	285.46	17.88	-53.1	-55.2	14.4	0.00e+00	0	25	0	594542592	72	4565
2026-01-07 12:28:26.15	285.69	17.87	-53.0	-55.1	14.4	0.00e+00	0	25	0	596639744	72	4514
2026-01-07 12:28:27.16	285.93	17.87	-53.1	-55.1	14.4	0.00e+00	0	25	0	598736896	72	4536
2026-01-07 12:28:28.17	286.16	17.86	-53.0	-55.0	14.5	0.00e+00	0	25	0	600834048	72	4474
2026-01-07 12:28:29.18	286.40	17.86	-52.9	-54.9	14.5	0.00e+00	0	25	0	601882624	72	4417
2026-01-07 12:28:30.18	286.63	17.85	-52.9	-54.9	14.5	0.00e+00	0	25	0	603979776	72	4440
2026-01-07 12:28:31.19	286.87	17.84	-52.9	-54.9	14.5	0.00e+00	0	25	0	606076928	72	4402
2026-01-07 12:28:32.19	287.10	17.83	-52.8	-54.8	14.6	0.00e+00	0	25	0	608174080	72	4352
2026-01-07 12:28:33.20	287.33	17.83	-52.8	-54.8	14.6	0.00e+00	0	25	0	610271232	72	4348
2026-01-07 12:28:34.21	287.57	17.82	-52.8	-54.8	14.6	0.00e+00	0	25	0	611319808	72	4372
2026-01-07 12:28:35.22	287.80	17.81	-52.8	-54.7	14.6	0.00e+00	0	25	0	613416960	72	4330
2026-01-07 12:28:36.23	288.03	17.80	-52.8	-54.7	14.6	0.00e+00	0	25	0	615514112	72	4317
2026-01-07 12:28:37.24	288.27	17.79	-52.8	-54.7	14.6	0.00e+00	0	25	0	617611264	72	4333
2026-01-07 12:28:38.25	288.50	17.78	-52.7	-54.7	14.7	0.00e+00	0	25	0	619708416	72	4295
2026-01-07 12:28:39.26	288.74	17.77	-52.7	-54.6	14.7	0.00e+00	0	25	0	620756992	72	4286
2026-01-07 12:28:40.27	288.97	17.76	-52.8	-54.7	14.6	0.00e+00	0	25	0	622854144	72	4323
2026-01-07 12:28:41.27	289.20	17.74	-52.8	-54.7	14.6	0.00e+00	0	25	0	624951296	72	4332
2026-01-07 12:28:42.28	289.43	17.73	-52.9	-54.9	14.5	0.00e+00	0	25	0	627048448	72	4438
2026-01-07 12:28:43.29	289.67	17.72	-52.9	-54.9	14.5	0.00e+00	0	25	0	629145600	72	4435
2026-01-07 12:28:44.30	289.90	17.71	-53.1	-55.1	14.4	0.00e+00	0	25	0	630194176	72	4529
2026-01-07 12:28:45.30	290.13	17.69	-53.1	-55.1	14.4	0.00e+00	0	25	0	632291328	72	4544
2026-01-07 12:28:46.31	290.36	17.68	-53.0	-55.0	14.5	0.00e+00	0	25	0	634388480	72	4456
2026-01-07 12:28:47.31	290.59	17.66	-52.9	-54.9	14.5	0.00e+00	0	25	0	636485632	72	4415
2026-01-07 12:28:48.32	290.82	17.65	-52.9	-54.9	14.5	0.00e+00	0	25	0	638582784	72	4404
2026-01-07 12:28:49.33	291.05	17.63	-52.9	-54.9	14.5	0.00e+00	0	25	0	639631360	72	4405
2026-01-07 12:28:50.33	291.28	17.62	-52.5	-54.4	14.6	0.00e+00	0	25	0	641728512	71	4424
2026-01-07 12:28:51.34	291.51	17.60	-52.4	-54.3	14.7	0.00e+00	0	25	0	643825664	71	4351
2026-01-07 12:28:52.35	291.74	17.59	-52.3	-54.1	14.8	0.00e+00	0	25	0	645922816	71	4278
2026-01-07 12:28:53.35	291.97	17.57	-52.2	-54.0	14.9	0.00e+00	0	25	0	648019968	71	4229
2026-01-07 12:28:54.36	292.20	17.55	-52.2	-54.1	14.8	0.00e+00	0	25	0	649068544	71	4247
2026-01-07 12:28:55.37	292.43	17.53	-52.2	-54.0	14.8	0.00e+00	0	25	0	651165696	71	4237
2026-01-07 12:28:56.37	292.66	17.51	-52.4	-54.2	14.7	0.00e+00	0	25	0	653262848	71	4317
2026-01-07 12:28:57.37	292.89	17.50	-52.4	-54.2	14.7	0.00e+00	0	25	0	655360000	71	4317
2026-01-07 12:28:58.38	293.12	17.48	-52.4	-54.3	14.7	0.00e+00	0	25	0	657457152	71	4346
2026-01-07 12:28:59.39	293.34	17.46	-52.3	-54.2	14.8	0.00e+00	0	25	0	658505728	71	4301
2026-01-07 12:29:00.40	293.57	17.44	-52.3	-54.1	14.8	0.00e+00	0	25	0	660602880	71	4291
2026-01-07 12:29:01.40	293.80	17.42	-52.3	-54.1	14.8	0.00e+00	0	25	0	662700032	71	4264
2026-01-07 12:29:02.41	294.03	17.40	-52.2	-54.1	14.8	0.00e+00	0	25	0	664797184	71	4249
2026-01-07 12:29:03.42	294.25	17.38	-52.4	-54.2	14.7	0.00e+00	0	25	0	666894336	71	4316
2026-01-07 12:29:04.42	294.48	17.35	-52.2	-53.9	14.7	0.00e+00	0	25	0	667942912	70	4440
2026-01-07 12:29:05.43	294.71	17.33	-52.1	-53.9	14.7	0.00e+00	0	25	0	670040064	70	4419
2026-01-07 12:29:06.44	294.93	17.31	-52.1	-53.9	14.8	0.00e+00	0	25	0	672137216	70	4393
2026-01-07 12:29:07.45	295.16	17.29	-52.0	-53.7	14.8	0.00e+00	0	25	0	674234368	70	4325
2026-01-07 12:29:08.46	295.38	17.26	-51.9	-53.7	14.8	0.00e+00	0	25	0	676331520	70	4309
2026-01-07 12:29:09.47	295.61	17.24	-52.0	-53.8	14.8	0.00e+00	0	25	0	677380096	70	4345
2026-01-07 12:29:10.47	295.83	17.22	-51.9	-53.7	14.8	0.00e+00	0	25	0	679477248	70	4302
2026-01-07 12:29:11.48	296.06	17.19	-51.9	-53.6	14.9	0.00e+00	0	25	0	681574400	70	4272
2026-01-07 12:29:12.49	296.28	17.17	-51.9	-53.6	14.9	0.00e+00	0	25	0	683671552	70	4270
2026-01-07 12:29:13.50	296.51	17.14	-51.8	-53.6	14.9	0.00e+00	0	25	0	685768704	70	4248
2026-01-07 12:29:14.50	296.73	17.12	-51.8	-53.5	14.9	0.00e+00	0	25	0	686817280	70	4221
2026-01-07 12:29:15.51	296.95	17.09	-51.8	-53.5	14.9	0.00e+00	0	25	0	688914432	70	4232
2026-01-07 12:29:16.51	297.17	17.06	-51.8	-53.5	14.9	0.00e+00	0	25	0	691011584	70	4210
2026-01-07 12:29:17.52	297.40	17.04	-51.8	-53.5	14.9	0.00e+00	0	25	0	693108736	70	4225
2026-01-07 12:29:18.52	297.62	17.01	-51.8	-53.5	14.9	0.00e+00	0	25	0	695205888	70	4214
2026-01-07 12:29:19.54	297.84	16.98	-51.9	-53.7	14.8	0.00e+00	0	25	0	696254464	70	4302
2026-01-07 12:29:20.54	298.06	16.95	-52.0	-53.8	14.8	0.00e+00	0	25	0	698351616	70	4381
2026-01-07 12:29:21.55	298.28	16.93	-52.1	-53.9	14.8	0.00e+00	0	25	0	700448768	70	4402
2026-01-07 12:29:22.56	298.50	16.90	-52.1	-53.9	14.7	0.00e+00	0	25	0	702545920	70	4415
2026-01-07 12:29:23.56	298.72	16.87	-52.1	-53.9	14.7	0.00e+00	0	25	0	704643072	70	4396
2026-01-07 12:29:24.56	298.94	16.84	-52.0	-53.8	14.8	0.00e+00	0	25	0	705691648	70	4376
2026-01-07 12:29:25.57	299.16	16.81	-52.0	-53.8	14.8	0.00e+00	0	25	0	707788800	70	4377
2026-01-07 12:29:26.58	299.37	16.78	-52.0	-53.7	14.8	0.00e+00	0	25	0	709885952	70	4340
2026-01-07 12:29:27.58	299.59	16.75	-51.8	-53.5	14.9	0.00e+00	0	25	0	711983104	70	4223
2026-01-07 12:29:28.59	299.81	16.72	-51.7	-53.4	15.0	0.00e+00	0	25	0	714080256	70	4158
2026-01-07 12:29:29.59	300.02	16.69	-51.5	-53.2	14.9	0.00e+00	0	25	0	715128832	69	4322
2026-01-07 12:29:30.60	300.24	16.66	-51.4	-53.1	14.9	0.00e+00	0	25	0	717225984	69	4273
2026-01-07 12:29:31.61	300.46	16.62	-51.4	-53.1	15.0	0.00e+00	0	25	0	719323136	69	4244
2026-01-07 12:29:32.61	300.67	16.59	-51.2	-52.8	15.1	0.00e+00	0	25	0	721420288	69	4122
2026-01-07 12:29:33.61	300.89	16.56	-51.1	-52.7	15.0	0.00e+00	0	25	0	723517440	68	4323
2026-01-07 12:29:34.62	301.10	16.53	-51.1	-52.7	15.0	0.00e+00	0	25	0	724566016	68	4301
2026-01-07 12:29:35.63	301.32	16.49	-51.0	-52.6	15.0	0.00e+00	0	25	0	726663168	68	4253
2026-01-07 12:29:36.64	301.53	16.46	-51.1	-52.7	15.0	0.00e+00	0	25	0	728760320	68	4330
2026-01-07 12:29:37.65	301.74	16.43	-51.2	-52.8	14.9	0.00e+00	0	25	0	730857472	68	4370
2026-01-07 12:29:38.66	301.96	16.39	-51.3	-52.9	14.9	0.00e+00	0	25	0	732954624	68	4417
2026-01-07 12:29:39.67	302.17	16.36	-51.3	-53.0	14.8	0.00e+00	0	25	0	734003200	68	4460
2026-01-07 12:29:40.67	302.38	16.32	-51.4	-53.0	14.8	0.00e+00	0	25	0	736100352	68	4492
2026-01-07 12:29:41.69	302.60	16.29	-51.5	-53.1	14.8	0.00e+00	0	25	0	738197504	68	4543
2026-01-07 12:29:42.69	302.81	16.25	-51.4	-53.0	14.8	0.00e+00	0	25	0	740294656	68	4489
2026-01-07 12:29:43.70	303.02	16.22	-51.4	-53.0	14.8	0.00e+00	0	25	0	742391808	68	4479
2026-01-07 12:29:44.70	303.23	16.18	-51.4	-53.1	14.8	0.00e+00	0	25	0	743440384	68	4496
2026-01-07 12:29:45.71	303.44	16.14	-51.3	-52.9	14.9	0.00e+00	0	25	0	745537536	68	4436
2026-01-07 12:29:46.72	303.64	16.11	-51.1	-52.7	15.0	0.00e+00	0	25	0	747634688	68	4300
2026-01-07 12:29:47.73	303.85	16.07	-51.0	-52.6	15.0	0.00e+00	0	25	0	749731840	68	4272
2026-01-07 12:29:48.73	304.06	16.03	-50.9	-52.4	15.1	0.00e+00	0	25	0	751828992	68	4193
2026-01-07 12:29:49.74	304.27	15.99	-50.7	-52.3	15.2	0.00e+00	0	25	0	752877568	68	4108
2026-01-07 12:29:50.75	304.48	15.96	-50.8	-52.3	15.2	0.00e+00	0	25	0	754974720	68	4129
2026-01-07 12:29:51.75	304.68	15.92	-50.8	-52.3	15.1	0.00e+00	0	25	0	757071872	68	4140
2026-01-07 12:29:52.76	304.89	15.88	-50.8	-52.4	15.1	0.00e+00	0	25	0	759169024	68	4164
2026-01-07 12:29:53.77	305.09	15.84	-51.0	-52.5	15.0	0.00e+00	0	25	0	761266176	68	4239
2026-01-07 12:29:54.77	305.30	15.80	-51.1	-52.8	14.9	0.00e+00	0	25	0	762314752	68	4346
2026-01-07 12:29:55.78	305.50	15.76	-51.3	-53.0	14.8	0.00e+00	0	25	0	764411904	68	4482
2026-01-07 12:29:56.79	305.71	15.72	-51.5	-53.3	14.7	0.00e+00	0	25	0	766509056	68	4599
2026-01-07 12:29:57.80	305.91	15.68	-51.6	-53.4	14.7	0.00e+00	0	25	0	768606208	68	4656
2026-01-07 12:29:58.80	306.11	15.64	-51.6	-53.4	14.6	0.00e+00	0	25	0	770703360	68	4680
2026-01-07 12:29:59.81	306.31	15.60	-51.7	-53.4	14.6	0.00e+00	0	25	0	771751936	68	4694
2026-01-07 12:30:00.82	306.52	15.56	-51.6	-53.4	14.7	0.00e+00	0	25	0	773849088	68	4672
2026-01-07 12:30:01.83	306.72	15.52	-51.5	-53.2	14.7	0.00e+00	0	25	0	775946240	68	4586
2026-01-07 12:30:02.83	306.92	15.48	-51.6	-53.4	14.7	0.00e+00	0	25	0	778043392	68	4669
2026-01-07 12:30:03.84	307.12	15.44	-51.6	-53.4	14.6	0.00e+00	0	25	0	780140544	68	4668
2026-01-07 12:30:04.85	307.32	15.40	-51.7	-53.5	14.6	0.00e+00	0	25	0	781189120	68	4707
2026-01-07 12:30:05.86	307.52	15.36	-51.8	-53.5	14.6	0.00e+00	0	25	0	783286272	68	4748
2026-01-07 12:30:06.87	307.72	15.31	-51.6	-53.4	14.7	0.00e+00	0	25	0	785383424	68	4676
2026-01-07 12:30:07.88	307.92	15.27	-51.5	-53.2	14.7	0.00e+00	0	25	0	787480576	68	4550
2026-01-07 12:30:08.89	308.11	15.23	-51.5	-53.3	14.7	0.00e+00	0	25	0	789577728	68	4607
2026-01-07 12:30:09.89	308.31	15.19	-51.3	-53.0	14.8	0.00e+00	0	25	0	790626304	68	4454
2026-01-07 12:30:10.90	308.51	15.14	-51.3	-52.9	14.9	0.00e+00	0	25	0	792723456	68	4427
2026-01-07 12:30:11.91	308.70	15.10	-51.5	-53.1	14.7	0.00e+00	0	25	0	794820608	68	4544
2026-01-07 12:30:12.91	308.90	15.06	-51.7	-53.4	14.6	0.00e+00	0	25	0	796917760	68	4704
2026-01-07 12:30:13.92	309.09	15.01	-51.9	-53.7	14.5	0.00e+00	0	25	0	799014912	68	4857
2026-01-07 12:30:14.93	309.29	14.97	-52.3	-54.2	14.4	0.00e+00	0	25	0	800063488	69	4856
2026-01-07 12:30:15.94	309.48	14.92	-52.5	-54.5	14.4	0.00e+00	0	25	0	802160640	70	4710
2026-01-07 12:30:16.94	309.67	14.88	-52.7	-54.8	14.3	0.00e+00	0	25	0	804257792	70	4874
2026-01-07 12:30:17.95	309.86	14.83	-52.9	-54.9	14.1	0.00e+00	0	25	0	806354944	70	4980
2026-01-07 12:30:18.96	310.06	14.79	-53.0	-55.1	14.2	0.00e+00	0	25	0	808452096	71	4803
2026-01-07 12:30:19.96	310.25	14.74	-53.0	-55.2	14.2	0.00e+00	0	25	0	809500672	71	4829
2026-01-07 12:30:20.97	310.44	14.70	-53.1	-55.2	14.1	0.00e+00	0	25	0	811597824	71	4852
2026-01-07 12:30:21.98	310.63	14.65	-53.1	-55.3	14.1	0.00e+00	0	25	0	813694976	71	4890
2026-01-07 12:30:22.99	310.82	14.61	-53.2	-55.4	14.0	0.00e+00	0	25	0	815792128	71	4982
2026-01-07 12:30:23.99	311.01	14.56	-53.2	-55.3	14.1	0.00e+00	0	25	0	817889280	71	4926
2026-01-07 12:30:25.00	311.20	14.52	-53.1	-55.3	14.1	0.00e+00	0	25	0	818937856	71	4902
2026-01-07 12:30:26.01	311.38	14.47	-53.1	-55.2	14.2	0.00e+00	0	25	0	821035008	71	4856
2026-01-07 12:30:27.02	311.57	14.42	-53.0	-55.2	14.2	0.00e+00	0	25	0	823132160	71	4831
2026-01-07 12:30:28.03	311.76	14.38	-53.0	-55.1	14.2	0.00e+00	0	25	0	825229312	71	4800
2026-01-07 12:30:29.04	311.95	14.33	-52.9	-55.0	14.3	0.00e+00	0	25	0	827326464	71	4729
2026-01-07 12:30:30.05	312.13	14.28	-52.9	-55.0	14.3	0.00e+00	0	25	0	829423616	71	4731
2026-01-07 12:30:31.05	312.31	14.23	-53.0	-55.1	14.2	0.00e+00	0	25	0	830472192	71	4788
2026-01-07 12:30:32.06	312.50	14.19	-52.8	-54.9	14.3	0.00e+00	0	25	0	832569344	71	4696
2026-01-07 12:30:33.06	312.68	14.14	-52.8	-54.9	14.3	0.00e+00	0	25	0	834666496	71	4667
2026-01-07 12:30:34.07	312.87	14.09	-52.8	-54.8	14.3	0.00e+00	0	25	0	836763648	71	4637
2026-01-07 12:30:35.08	313.05	14.04	-52.9	-55.0	14.3	0.00e+00	0	25	0	837812224	71	4720
2026-01-07 12:30:36.09	313.23	14.00	-53.1	-55.2	14.1	0.00e+00	0	25	0	839909376	71	4868
2026-01-07 12:30:37.10	313.41	13.95	-53.1	-55.3	14.1	0.00e+00	0	25	0	842006528	71	4916
2026-01-07 12:30:38.10	313.59	13.90	-53.3	-55.6	13.9	0.00e+00	0	25	0	844103680	71	5063
2026-01-07 12:30:39.11	313.77	13.85	-53.2	-55.5	14.0	0.00e+00	0	25	0	846200832	71	4996
2026-01-07 12:30:40.12	313.95	13.80	-53.3	-55.6	13.9	0.00e+00	0	25	0	847249408	71	5089
2026-01-07 12:30:41.12	314.13	13.75	-53.4	-55.7	13.9	0.00e+00	0	25	0	849346560	71	5125
2026-01-07 12:30:42.13	314.31	13.70	-53.5	-55.9	13.9	0.00e+00	0	25	0	851443712	72	4938
2026-01-07 12:30:43.13	314.49	13.65	-53.5	-55.9	13.9	0.00e+00	0	25	0	853540864	72	4959
2026-01-07 12:30:44.14	314.67	13.61	-53.6	-56.0	13.8	0.00e+00	0	25	0	855638016	72	5007
2026-01-07 12:30:45.15	314.84	13.56	-53.5	-55.9	13.9	0.00e+00	0	25	0	857735168	72	4931
2026-01-07 12:30:46.16	315.02	13.51	-53.4	-55.7	14.0	0.00e+00	0	25	0	858783744	72	4844
2026-01-07 12:30:47.16	315.20	13.46	-53.3	-55.6	14.1	0.00e+00	0	25	0	860880896	72	4770
2026-01-07 12:30:48.16	315.37	13.41	-53.3	-55.5	14.1	0.00e+00	0	25	0	862978048	72	4753
2026-01-07 12:30:49.17	315.54	13.36	-53.3	-55.6	14.1	0.00e+00	0	25	0	865075200	72	4764
2026-01-07 12:30:50.17	315.72	13.31	-53.1	-55.2	14.2	0.00e+00	0	25	0	866123776	72	4594
2026-01-07 12:30:51.18	315.89	13.26	-53.2	-55.5	14.1	0.00e+00	0	25	0	868220928	72	4730
2026-01-07 12:30:52.19	316.06	13.21	-53.1	-55.3	14.2	0.00e+00	0	25	0	870318080	72	4615
2026-01-07 12:30:53.20	316.24	13.15	-53.2	-55.4	14.2	0.00e+00	0	25	0	872415232	72	4663
2026-01-07 12:30:54.21	316.41	13.10	-53.1	-55.3	14.2	0.00e+00	0	25	0	874512384	72	4607
2026-01-07 12:30:55.22	316.58	13.05	-53.1	-55.3	14.2	0.00e+00	0	25	0	875560960	72	4623
2026-01-07 12:30:56.23	316.75	13.00	-53.1	-55.2	14.2	0.00e+00	0	25	0	877658112	72	4592
2026-01-07 12:30:57.23	316.92	12.95	-53.0	-55.2	14.3	0.00e+00	0	25	0	879755264	72	4575
2026-01-07 12:30:58.24	317.09	12.90	-53.0	-55.1	14.3	0.00e+00	0	25	0	881852416	72	4513
2026-01-07 12:30:59.25	317.26	12.85	-52.8	-54.9	14.4	0.00e+00	0	25	0	883949568	72	4420
2026-01-07 12:31:00.25	317.43	12.80	-52.8	-54.8	14.5	0.00e+00	0	25	0	886046720	72	4379
2026-01-07 12:31:01.26	317.60	12.75	-52.5	-54.5	14.5	0.00e+00	0	25	0	887095296	71	4444
2026-01-07 12:31:02.27	317.76	12.69	-52.4	-54.3	14.6	0.00e+00	0	25	0	889192448	71	4365
2026-01-07 12:31:03.27	317.93	12.64	-52.3	-54.3	14.6	0.00e+00	0	25	0	891289600	71	4354
2026-01-07 12:31:04.28	318.09	12.59	-52.4	-54.3	14.6	0.00e+00	0	25	0	893386752	71	4380
2026-01-07 12:31:05.29	318.26	12.54	-52.5	-54.4	14.5	0.00e+00	0	25	0	894435328	71	4440
2026-01-07 12:31:06.30	318.43	12.49	-52.6	-54.7	14.4	0.00e+00	0	25	0	896532480	71	4561
2026-01-07 12:31:07.30	318.59	12.43	-52.6	-54.6	14.4	0.00e+00	0	25	0	898629632	71	4542
2026-01-07 12:31:08.31	318.75	12.38	-52.7	-54.7	14.3	0.00e+00	0	25	0	900726784	71	4591
2026-01-07 12:31:09.32	318.92	12.33	-52.8	-55.0	14.2	0.00e+00	0	25	0	902823936	71	4709
2026-01-07 12:31:10.32	319.08	12.28	-52.9	-55.1	14.2	0.00e+00	0	25	0	903872512	71	4768
2026-01-07 12:31:11.33	319.24	12.22	-53.0	-55.2	14.1	0.00e+00	0	25	0	905969664	71	4870
2026-01-07 12:31:12.34	319.40	12.17	-53.1	-55.3	14.0	0.00e+00	0	25	0	908066816	71	4925
2026-01-07 12:31:13.35	319.56	12.12	-53.2	-55.5	13.9	0.00e+00	0	25	0	910163968	71	5031
2026-01-07 12:31:14.36	319.73	12.07	-53.2	-55.5	14.0	0.00e+00	0	25	0	912261120	71	5001
2026-01-07 12:31:15.37	319.89	12.01	-53.1	-55.3	14.1	0.00e+00	0	25	0	914358272	71	4895
2026-01-07 12:31:16.37	320.04	11.96	-52.9	-55.0	14.2	0.00e+00	0	25	0	915406848	71	4742
2026-01-07 12:31:17.38	320.20	11.91	-52.7	-54.8	14.3	0.00e+00	0	25	0	917504000	71	4649
2026-01-07 12:31:18.39	320.36	11.85	-52.5	-54.5	14.5	0.00e+00	0	25	0	919601152	71	4473
2026-01-07 12:31:19.40	320.52	11.80	-52.2	-54.2	14.6	0.00e+00	0	25	0	921698304	71	4293
2026-01-07 12:31:20.40	320.68	11.75	-52.3	-54.2	14.6	0.00e+00	0	25	0	923795456	71	4330
2026-01-07 12:31:21.41	320.83	11.69	-52.1	-54.0	14.6	0.00e+00	0	25	0	924844032	70	4462
2026-01-07 12:31:22.42	320.99	11.64	-52.1	-54.0	14.6	0.00e+00	0	25	0	926941184	70	4470
2026-01-07 12:31:23.43	321.14	11.59	-52.0	-53.9	14.6	0.00e+00	0	25	0	929038336	70	4439
2026-01-07 12:31:24.43	321.30	11.53	-52.2	-54.2	14.5	0.00e+00	0	25	0	931135488	70	4547
2026-01-07 12:31:25.43	321.45	11.48	-52.1	-54.0	14.6	0.00e+00	0	25	0	932184064	70	4488
2026-01-07 12:31:26.43	321.60	11.43	-52.1	-54.1	14.5	0.00e+00	0	25	0	934281216	70	4505
2026-01-07 12:31:27.44	321.76	11.37	-52.1	-54.1	14.5	0.00e+00	0	25	0	936378368	70	4500
2026-01-07 12:31:28.45	321.91	11.32	-52.2	-54.1	14.5	0.00e+00	0	25	0	938475520	70	4525
2026-01-07 12:31:29.45	322.06	11.26	-52.2	-54.2	14.4	0.00e+00	0	25	0	940572672	70	4577
2026-01-07 12:31:30.46	322.21	11.21	-52.2	-54.1	14.5	0.00e+00	0	25	0	942669824	70	4542
2026-01-07 12:31:31.47	322.37	11.16	-52.2	-54.1	14.5	0.00e+00	0	25	0	943718400	70	4530
2026-01-07 12:31:32.46	322.51	11.10	-52.1	-54.0	14.6	0.00e+00	0	25	0	945815552	70	4490
2026-01-07 12:31:33.47	322.66	11.05	-52.0	-53.9	14.6	0.00e+00	0	25	0	947912704	70	4438
2026-01-07 12:31:34.48	322.81	10.99	-52.1	-54.1	14.5	0.00e+00	0	25	0	950009856	70	4496
2026-01-07 12:31:35.48	322.96	10.94	-52.2	-54.2	14.5	0.00e+00	0	25	0	951058432	70	4570
2026-01-07 12:31:36.49	323.11	10.89	-52.4	-54.4	14.4	0.00e+00	0	25	0	953155584	70	4663
2026-01-07 12:31:37.50	323.26	10.83	-52.5	-54.5	14.3	0.00e+00	0	25	0	955252736	70	4752
2026-01-07 12:31:38.50	323.41	10.78	-52.3	-54.4	14.4	0.00e+00	0	25	0	957349888	70	4655
2026-01-07 12:31:39.51	323.55	10.72	-52.4	-54.4	14.3	0.00e+00	0	25	0	959447040	70	4690
2026-01-07 12:31:40.52	323.70	10.67	-52.5	-54.5	14.3	0.00e+00	0	25	0	960495616	70	4736
2026-01-07 12:31:41.53	323.85	10.61	-52.3	-54.3	14.4	0.00e+00	0	25	0	962592768	70	4634
2026-01-07 12:31:42.54	323.99	10.56	-52.1	-54.0	14.5	0.00e+00	0	25	0	964689920	70	4491
2026-01-07 12:31:43.54	324.14	10.51	-52.0	-54.0	14.6	0.00e+00	0	25	0	966787072	70	4443
2026-01-07 12:31:44.55	324.28	10.45	-51.9	-53.8	14.6	0.00e+00	0	26	0	968884224	70	4377
2026-01-07 12:31:45.56	324.42	10.40	-51.9	-53.8	14.7	0.00e+00	0	25	0	970981376	70	4360
2026-01-07 12:31:46.56	324.57	10.34	-52.1	-54.0	14.5	0.00e+00	0	25	0	972029952	70	4473
2026-01-07 12:31:47.57	324.71	10.29	-52.1	-54.1	14.5	0.00e+00	0	25	0	974127104	70	4498
2026-01-07 12:31:48.57	324.85	10.23	-52.3	-54.3	14.4	0.00e+00	0	25	0	976224256	70	4610
2026-01-07 12:31:49.58	324.99	10.18	-52.3	-54.3	14.4	0.00e+00	0	25	0	978321408	70	4645
2026-01-07 12:31:50.59	325.13	10.12	-52.5	-54.6	14.2	0.00e+00	0	25	0	979369984	70	4772
2026-01-07 12:31:51.59	325.27	10.07	-52.7	-54.8	14.1	0.00e+00	0	25	0	981467136	70	4911
2026-01-07 12:31:52.59	325.41	10.01	-52.6	-54.8	14.1	0.00e+00	0	25	0	983564288	70	4879
2026-01-07 12:31:53.60	325.55	9.96	-52.5	-54.7	14.2	0.00e+00	0	25	0	985661440	70	4815
2026-01-07 12:31:54.60	325.69	9.90	-52.4	-54.5	14.3	0.00e+00	0	25	0	987758592	70	4749
2026-01-07 12:31:55.61	325.83	9.85	-52.3	-54.4	14.3	0.00e+00	0	25	0	988807168	70	4667
2026-01-07 12:31:56.62	325.97	9.79	-52.4	-54.5	14.3	0.00e+00	0	25	0	990904320	70	4737
2026-01-07 12:31:57.62	326.10	9.74	-52.3	-54.3	14.4	0.00e+00	0	25	0	993001472	70	4601
2026-01-07 12:31:58.63	326.24	9.68	-52.2	-54.2	14.4	0.00e+00	0	25	0	995098624	70	4576
2026-01-07 12:31:59.64	326.38	9.63	-52.3	-54.3	14.4	0.00e+00	0	25	0	997195776	70	4608
2026-01-07 12:32:00.65	326.52	9.57	-52.2	-54.3	14.4	0.00e+00	0	25	0	999292928	70	4602
2026-01-07 12:32:01.65	326.65	9.52	-52.4	-54.4	14.3	0.00e+00	0	25	0	1000341504	70	4696
2026-01-07 12:32:02.66	326.79	9.46	-52.5	-54.7	14.2	0.00e+00	0	25	0	1002438656	70	4818
2026-01-07 12:32:03.66	326.92	9.41	-52.6	-54.7	14.1	0.00e+00	0	25	0	1004535808	70	4870
2026-01-07 12:32:04.67	327.05	9.35	-52.6	-54.8	14.1	0.00e+00	0	25	0	1006632960	70	4890
2026-01-07 12:32:05.68	327.19	9.30	-52.7	-54.8	14.1	0.00e+00	0	25	0	1007681536	70	4913
2026-01-07 12:32:06.68	327.32	9.24	-52.7	-54.9	14.1	0.00e+00	0	25	0	1009778688	70	4929
2026-01-07 12:32:07.69	327.45	9.19	-52.7	-54.9	14.1	0.00e+00	0	25	0	1011875840	70	4935
2026-01-07 12:32:08.70	327.59	9.13	-52.5	-54.6	14.2	0.00e+00	0	25	0	1013972992	70	4790
2026-01-07 12:32:09.71	327.72	9.08	-52.5	-54.6	14.2	0.00e+00	0	25	0	1016070144	70	4777
2026-01-07 12:32:10.72	327.85	9.02	-52.4	-54.4	14.3	0.00e+00	0	25	0	1017118720	70	4689
2026-01-07 12:32:11.73	327.98	8.97	-52.3	-54.3	14.3	0.00e+00	0	25	0	1019215872	70	4647
2026-01-07 12:32:12.74	328.11	8.91	-52.2	-54.2	14.4	0.00e+00	0	25	0	1021313024	70	4594
2026-01-07 12:32:13.74	328.24	8.86	-52.1	-54.1	14.4	0.00e+00	0	25	0	1023410176	70	4528
2026-01-07 12:32:14.75	328.37	8.80	-52.2	-54.3	14.4	0.00e+00	0	25	0	1025507328	70	4604
2026-01-07 12:32:15.76	328.50	8.75	-52.4	-54.5	14.2	0.00e+00	0	25	0	1027604480	70	4723
2026-01-07 12:32:16.77	328.63	8.69	-52.5	-54.6	14.2	0.00e+00	0	25	0	1028653056	70	4767
2026-01-07 12:32:17.78	328.76	8.64	-52.6	-54.8	14.1	0.00e+00	0	25	0	1030750208	70	4912
2026-01-07 12:32:18.78	328.88	8.58	-52.8	-55.0	14.0	0.00e+00	0	25	0	1032847360	70	5032
2026-01-07 12:32:19.79	329.01	8.53	-52.7	-55.0	14.0	0.00e+00	0	25	0	1034944512	70	4992
2026-01-07 12:32:20.79	329.14	8.47	-52.9	-55.2	13.9	0.00e+00	0	25	0	1037041664	70	5127
2026-01-07 12:32:21.80	329.26	8.42	-53.0	-55.3	13.9	0.00e+00	0	25	0	1038090240	71	4897
2026-01-07 12:32:22.81	329.39	8.36	-52.9	-55.3	14.0	0.00e+00	0	25	0	1040187392	71	4885
2026-01-07 12:32:23.82	329.51	8.31	-52.9	-55.2	14.0	0.00e+00	0	25	0	1042284544	71	4841
2026-01-07 12:32:24.83	329.64	8.25	-53.0	-55.3	14.0	0.00e+00	0	25	0	1044381696	71	4899
2026-01-07 12:32:25.83	329.76	8.20	-53.0	-55.3	14.0	0.00e+00	0	25	0	1045430272	71	4891
2026-01-07 12:32:26.84	329.89	8.14	-52.9	-55.2	14.0	0.00e+00	0	25	0	1047527424	71	4818
2026-01-07 12:32:27.85	330.01	8.09	-52.9	-55.3	13.9	0.00e+00	0	25	0	1049624576	71	4878
2026-01-07 12:32:28.85	330.13	8.03	-53.1	-55.5	13.8	0.00e+00	0	25	0	1051721728	71	5029
2026-01-07 12:32:29.86	330.26	7.98	-53.2	-55.7	13.7	0.00e+00	0	25	0	1053818880	71	5106
2026-01-07 12:32:30.87	330.38	7.92	-53.2	-55.7	13.7	0.00e+00	0	25	0	1055916032	71	5146
2026-01-07 12:32:31.87	330.50	7.87	-53.2	-55.7	13.7	0.00e+00	0	25	0	1056964608	71	5124
2026-01-07 12:32:32.88	330.62	7.81	-53.3	-55.9	13.6	0.00e+00	0	25	0	1059061760	71	5219
2026-01-07 12:32:33.89	330.74	7.76	-53.3	-55.8	13.8	0.00e+00	0	25	0	1061158912	72	4899
2026-01-07 12:32:34.90	330.86	7.70	-53.4	-55.9	13.7	0.00e+00	0	25	0	1063256064	72	4930
2026-01-07 12:32:35.91	330.98	7.65	-53.4	-55.9	13.7	0.00e+00	0	25	0	1065353216	72	4962
2026-01-07 12:32:36.92	331.10	7.59	-53.3	-55.8	13.7	0.00e+00	0	25	0	1066401792	72	4914
2026-01-07 12:32:37.92	331.22	7.54	-53.2	-55.7	13.8	0.00e+00	0	25	0	1068498944	72	4831
2026-01-07 12:32:38.93	331.34	7.48	-53.3	-55.7	13.8	0.00e+00	0	25	0	1070596096	72	4868
2026-01-07 12:32:39.94	331.46	7.43	-53.2	-55.7	13.8	0.00e+00	0	25	0	1072693248	72	4825
2026-01-07 12:32:40.95	331.58	7.37	-53.2	-55.7	13.8	0.00e+00	0	25	0	1074790400	72	4834
2026-01-07 12:32:41.95	331.69	7.32	-53.3	-55.8	13.7	0.00e+00	0	25	0	1075838976	72	4881
2026-01-07 12:32:42.96	331.81	7.26	-53.3	-55.8	13.8	0.00e+00	0	25	0	1077936128	72	4882
2026-01-07 12:32:43.97	331.93	7.21	-53.4	-56.0	13.6	0.00e+00	0	25	0	1080033280	72	5000
2026-01-07 12:32:44.98	332.04	7.15	-53.5	-56.2	13.5	0.00e+00	0	25	0	1082130432	72	5123
2026-01-07 12:32:45.98	332.16	7.10	-53.7	-56.4	13.4	0.00e+00	0	25	0	1084227584	72	5250
2026-01-07 12:32:46.99	332.27	7.04	-53.6	-56.3	13.5	0.00e+00	0	25	0	1085276160	72	5162
2026-01-07 12:32:48.00	332.39	6.99	-53.5	-56.2	13.5	0.00e+00	0	25	0	1087373312	72	5127
2026-01-07 12:32:49.00	332.50	6.93	-53.6	-56.3	13.4	0.00e+00	0	25	0	1089470464	72	5186
2026-01-07 12:32:50.01	332.62	6.88	-53.6	-56.3	13.4	0.00e+00	0	25	0	1091567616	72	5190
2026-01-07 12:32:51.02	332.73	6.82	-53.7	-56.4	13.4	0.00e+00	0	25	0	1093664768	72	5234
2026-01-07 12:32:52.03	332.84	6.77	-53.6	-56.3	13.4	0.00e+00	0	25	0	1094713344	72	5165
2026-01-07 12:32:53.03	332.96	6.71	-53.4	-56.1	13.5	0.00e+00	0	25	0	1096810496	72	5048
2026-01-07 12:32:54.04	333.07	6.66	-53.5	-56.2	13.5	0.00e+00	0	25	0	1098907648	72	5111
2026-01-07 12:32:55.05	333.18	6.61	-53.4	-56.0	13.6	0.00e+00	0	25	0	1101004800	72	5004
2026-01-07 12:32:56.06	333.29	6.55	-53.3	-55.9	13.6	0.00e+00	0	25	0	1103101952	72	4960
2026-01-07 12:32:57.07	333.40	6.50	-53.4	-56.0	13.5	0.00e+00	0	25	0	1104150528	72	5025
2026-01-07 12:32:58.07	333.51	6.44	-53.4	-56.1	13.5	0.00e+00	0	25	0	1106247680	72	5057
2026-01-07 12:32:59.08	333.62	6.39	-53.2	-55.7	13.7	0.00e+00	0	25	0	1108344832	72	4859
2026-01-07 12:33:00.09	333.73	6.33	-53.3	-55.9	13.6	0.00e+00	0	25	0	1110441984	72	4949
2026-01-07 12:33:01.10	333.84	6.28	-53.3	-55.9	13.6	0.00e+00	0	25	0	1112539136	72	4976
2026-01-07 12:33:02.10	333.95	6.22	-53.5	-56.1	13.5	0.00e+00	0	25	0	1113587712	72	5081
2026-01-07 12:33:03.11	334.06	6.17	-53.5	-56.2	13.4	0.00e+00	0	25	0	1115684864	72	5157
2026-01-07 12:33:04.12	334.17	6.12	-53.7	-56.5	13.2	0.00e+00	0	25	0	1117782016	72	5339
2026-01-07 12:33:05.13	334.28	6.06	-53.8	-56.7	13.1	0.00e+00	0	25	0	1119879168	72	5458
2026-01-07 12:33:06.14	334.39	6.01	-53.8	-56.7	13.1	0.00e+00	0	25	0	1121976320	72	5448
2026-01-07 12:33:07.14	334.49	5.95	-53.8	-56.7	13.1	0.00e+00	0	25	0	1123024896	72	5432
2026-01-07 12:33:08.15	334.60	5.90	-53.9	-56.9	13.0	0.00e+00	0	25	0	1125122048	73	5235
2026-01-07 12:33:09.15	334.71	5.84	-53.9	-56.9	13.0	0.00e+00	0	25	0	1127219200	73	5229
2026-01-07 12:33:10.16	334.81	5.79	-53.9	-57.0	13.0	0.00e+00	0	25	0	1129316352	73	5295
2026-01-07 12:33:11.18	334.92	5.74	-53.7	-56.5	13.2	0.00e+00	0	25	0	1131413504	73	5036
2026-01-07 12:33:12.18	335.02	5.68	-53.7	-56.6	13.2	0.00e+00	0	25	0	1132462080	73	5092
2026-01-07 12:33:13.19	335.13	5.63	-53.8	-56.7	13.1	0.00e+00	0	25	0	1134559232	73	5157
2026-01-07 12:33:14.20	335.24	5.57	-53.8	-56.8	13.1	0.00e+00	0	25	0	1136656384	73	5179
2026-01-07 12:33:15.20	335.34	5.52	-53.6	-56.5	13.3	0.00e+00	0	26	0	1138753536	73	5024
2026-01-07 12:33:16.21	335.44	5.47	-53.8	-56.8	13.1	0.00e+00	0	25	0	1140850688	73	5173
2026-01-07 12:33:17.21	335.55	5.41	-53.9	-57.0	13.0	0.00e+00	0	26	0	1141899264	73	5280
2026-01-07 12:33:18.22	335.65	5.36	-54.0	-57.1	12.9	0.00e+00	0	25	0	1143996416	73	5360
2026-01-07 12:33:19.23	335.75	5.30	-54.0	-57.2	12.9	0.00e+00	0	25	0	1146093568	73	5404
2026-01-07 12:33:20.23	335.85	5.25	-53.9	-56.9	13.1	0.00e+00	0	25	0	1148190720	73	5219
2026-01-07 12:33:21.24	335.96	5.20	-54.1	-57.3	12.7	7.00e-07	0	25	0	1150287872	73	5495
2026-01-07 12:33:22.25	336.06	5.14	-53.8	-56.8	13.1	0.00e+00	0	25	0	1151336448	73	5171
2026-01-07 12:33:23.26	336.16	5.09	-53.9	-57.0	12.9	0.00e+00	0	25	0	1153433600	73	5307
2026-01-07 12:33:24.27	336.26	5.04	-54.1	-57.3	12.7	0.00e+00	0	25	0	1155530752	73	5512
2026-01-07 12:33:25.28	336.36	4.98	-58.2	-73.4	3.8	2.40e-01	0	25	104	1156579328	81	22186
2026-01-07 12:33:26.29	336.46	4.93	-58.8	-74.8	3.8	1.49e+00	0	25	104	1156579328	82	24632
2026-01-07 12:33:27.29	336.56	4.88	-59.1	-75.2	3.8	1.49e+00	0	25	104	1156579328	83	24224
2026-01-07 12:33:28.30	336.66	4.82	-59.3	-75.4	3.8	1.49e+00	0	25	104	1156579328	83	24828
2026-01-07 12:33:29.31	336.76	4.77	-59.7	-75.8	3.8	1.49e+00	0	25	104	1156579328	84	24446
2026-01-07 12:33:30.32	336.86	4.71	-59.8	-75.9	3.8	1.49e+00	0	26	104	1156579328	84	24740
2026-01-07 12:33:31.32	336.96	4.66	-59.9	-76.0	3.8	1.49e+00	0	25	104	1156579328	84	25047
2026-01-07 12:33:32.33	337.06	4.61	-60.0	-76.1	3.8	1.49e+00	0	25	104	1156579328	85	23978
2026-01-07 12:33:33.34	337.16	4.55	-60.1	-76.2	3.8	1.49e+00	0	25	104	1156579328	85	24182
2026-01-07 12:33:34.34	337.25	4.50	-60.2	-76.2	3.8	1.49e+00	0	25	104	1156579328	85	24368
2026-01-07 12:33:35.34	337.35	4.45	-60.2	-76.3	3.8	1.49e+00	0	25	104	1156579328	85	24429
2026-01-07 12:33:36.35	337.45	4.40	-60.2	-76.3	3.8	1.49e+00	0	25	104	1156579328	85	24580
2026-01-07 12:33:37.36	337.54	4.34	-60.3	-76.3	3.8	1.49e+00	0	25	104	1156579328	85	24692
2026-01-07 12:33:38.37	337.64	4.29	-60.3	-76.4	3.8	1.49e+00	0	25	104	1156579328	85	24722
2026-01-07 12:33:39.38	337.74	4.24	-60.3	-76.4	3.8	1.49e+00	0	25	104	1156579328	85	24744
2026-01-07 12:33:40.38	337.83	4.18	-60.3	-76.4	3.8	1.49e+00	0	26	104	1156579328	85	24754
2026-01-07 12:33:41.40	337.93	4.13	-60.3	-76.4	3.8	1.49e+00	0	25	104	1156579328	85	24894
2026-01-07 12:33:42.41	338.02	4.08	-60.4	-76.4	3.8	1.49e+00	0	26	104	1156579328	85	24917
2026-01-07 12:33:43.42	338.12	4.02	-60.4	-76.5	3.8	1.49e+00	0	26	104	1156579328	85	24988
