passes_logs/2026/01/07/R3.2S_Murmansk/R3.2S_Murmansk__20260107_103936_NOAA_20_JPSS-1_rec.log

#Pass ID: 20260107_103936_NOAA 20 (JPSS-1)
#Satellite: NOAA 20 (JPSS-1)
#Configuration: NOAA 20
#almurnet v.1.7.20251203
#Start time: 2026-01-07 10:39:37

#Version: 2.2.20231116
#Station: R3.2S_Murmansk
#Location: 33.079688 lon 68.888172 lat
#TLE: 1 43013U 17073A   26006.30790171  .00000126  00000+0  80695-4 0  9991
#TLE: 2 43013  98.7629 307.3394 0001808  51.8724 308.2615 14.19533762421505

#Time	Az	El	Level	Level2	SNR	BER	BlckErr	Temp	State	Recorded	gain1	gain2
2026-01-07 10:39:37.27	179.63	2.06	-57.9	-73.8	3.8	1.49e+00	0	23	0	0	82	21939
2026-01-07 10:39:38.28	179.66	2.13	-57.8	-73.7	3.8	1.49e+00	0	23	104	0	80	24363
2026-01-07 10:39:39.29	179.70	2.19	-57.8	-73.7	3.8	1.49e+00	0	23	104	0	80	24332
2026-01-07 10:39:40.30	179.73	2.25	-57.8	-73.8	3.8	1.49e+00	0	23	104	0	80	24530
2026-01-07 10:39:41.31	179.77	2.32	-57.8	-73.8	3.8	1.49e+00	0	23	104	0	80	24557
2026-01-07 10:39:42.31	179.80	2.38	-57.8	-73.8	3.8	1.49e+00	0	23	104	0	80	24493
2026-01-07 10:39:43.32	179.84	2.44	-57.8	-73.8	3.8	1.49e+00	0	23	104	0	80	24489
2026-01-07 10:39:44.33	179.88	2.51	-57.8	-73.7	3.8	1.49e+00	0	23	104	0	80	24368
2026-01-07 10:39:45.34	179.91	2.57	-57.8	-73.6	3.8	1.49e+00	0	23	104	0	80	24119
2026-01-07 10:39:46.35	179.95	2.63	-57.8	-73.7	3.8	1.49e+00	0	24	104	0	80	24177
2026-01-07 10:39:47.36	179.98	2.70	-57.8	-73.5	3.8	1.49e+00	0	24	104	0	80	23842
2026-01-07 10:39:48.37	180.02	2.76	-57.8	-73.6	3.8	1.49e+00	0	24	104	0	80	24009
2026-01-07 10:39:49.37	180.06	2.83	-57.8	-73.5	3.8	1.49e+00	0	24	104	0	80	23802
2026-01-07 10:39:50.38	180.09	2.89	-57.8	-73.7	3.8	1.49e+00	0	23	104	0	80	24238
2026-01-07 10:39:51.39	180.13	2.96	-57.8	-73.7	3.8	1.49e+00	0	24	104	0	80	24254
2026-01-07 10:39:52.40	180.17	3.02	-57.8	-73.8	3.8	1.49e+00	0	24	104	0	80	24466
2026-01-07 10:39:53.41	180.21	3.09	-57.8	-73.8	3.8	1.49e+00	0	24	104	0	80	24491
2026-01-07 10:39:54.42	180.24	3.15	-57.8	-73.7	3.8	1.49e+00	0	23	104	0	80	24366
2026-01-07 10:39:55.43	180.28	3.22	-57.8	-73.7	3.8	1.49e+00	0	24	104	0	80	24186
2026-01-07 10:39:56.44	180.32	3.28	-57.8	-73.6	3.8	1.49e+00	0	24	104	0	80	24055
2026-01-07 10:39:57.45	180.36	3.35	-57.8	-73.6	3.8	1.49e+00	0	24	104	0	80	24004
2026-01-07 10:39:58.46	180.40	3.41	-57.8	-73.7	3.8	1.49e+00	0	24	104	0	80	24161
2026-01-07 10:39:59.46	180.43	3.48	-57.8	-73.7	3.8	1.49e+00	0	24	104	0	80	24391
2026-01-07 10:40:00.47	180.47	3.55	-57.8	-73.8	3.8	1.49e+00	0	24	104	0	80	24585
2026-01-07 10:40:01.48	180.51	3.61	-57.8	-73.8	3.8	1.49e+00	0	24	104	0	80	24576
2026-01-07 10:40:02.49	180.55	3.68	-57.8	-73.7	3.8	1.49e+00	0	24	104	0	80	24353
2026-01-07 10:40:03.49	180.59	3.74	-57.8	-73.4	3.8	1.49e+00	0	24	104	0	80	23390
2026-01-07 10:40:04.50	180.63	3.81	-57.8	-72.8	3.8	1.49e+00	0	24	104	0	80	21878
2026-01-07 10:40:05.51	180.67	3.88	-57.7	-71.8	3.8	1.49e+00	0	24	104	0	80	19547
2026-01-07 10:40:06.52	180.71	3.94	-57.7	-71.0	3.9	1.48e+00	0	24	104	0	80	17845
2026-01-07 10:40:07.53	180.75	4.01	-57.7	-70.1	4.2	1.41e+00	0	24	0	0	80	15946
2026-01-07 10:40:08.54	180.79	4.08	-57.6	-69.3	4.5	1.15e+00	0	24	0	0	80	14552
2026-01-07 10:40:09.55	180.82	4.15	-57.5	-68.5	4.8	8.95e-01	0	24	0	2097152	80	13316
2026-01-07 10:40:10.55	180.86	4.21	-57.5	-68.0	5.1	7.54e-01	0	24	0	4194304	80	12531
2026-01-07 10:40:11.56	180.90	4.28	-57.5	-67.9	5.1	5.61e-01	0	24	0	6291456	80	12391
2026-01-07 10:40:12.57	180.95	4.35	-57.4	-67.3	5.5	4.76e-01	0	24	0	8388608	80	11643
2026-01-07 10:40:13.58	180.99	4.42	-57.3	-66.6	5.9	3.96e-01	0	24	0	9437184	80	10756
2026-01-07 10:40:14.58	181.03	4.49	-57.3	-66.3	6.2	2.67e-01	0	24	0	11534336	80	10314
2026-01-07 10:40:15.59	181.07	4.55	-57.2	-65.7	6.6	2.44e-01	0	24	0	13631488	80	9609
2026-01-07 10:40:16.60	181.11	4.62	-57.1	-65.0	7.1	1.31e-01	0	24	0	15728640	80	8900
2026-01-07 10:40:17.61	181.15	4.69	-57.0	-64.6	7.5	8.28e-02	0	24	0	17825792	80	8474
2026-01-07 10:40:18.62	181.19	4.76	-56.9	-63.9	8.1	4.17e-02	0	24	0	18874368	80	7850
2026-01-07 10:40:19.62	181.23	4.83	-56.7	-63.1	8.9	1.44e-02	0	24	0	20971520	79	7545
2026-01-07 10:40:20.63	181.27	4.90	-56.5	-62.3	9.5	1.17e-02	0	24	0	23068672	79	6945
2026-01-07 10:40:21.64	181.32	4.97	-56.3	-61.9	9.9	3.95e-03	0	24	0	25165824	79	6591
2026-01-07 10:40:22.65	181.36	5.04	-56.4	-61.9	9.8	4.52e-03	0	24	0	27262976	79	6645
2026-01-07 10:40:23.66	181.40	5.11	-56.3	-61.8	10.0	2.48e-03	0	24	0	28311552	79	6495
2026-01-07 10:40:24.67	181.44	5.18	-57.0	-64.1	8.0	8.04e-03	0	24	0	30408704	79	8499
2026-01-07 10:40:25.67	181.49	5.25	-56.4	-62.2	9.6	3.76e-02	0	24	0	32505856	79	6878
2026-01-07 10:40:26.68	181.53	5.32	-57.7	-72.5	3.8	1.90e-01	0	25	104	33554432	80	21258
2026-01-07 10:40:27.69	181.57	5.39	-54.9	-58.4	12.3	5.51e-01	0	24	0	33554432	76	5236
2026-01-07 10:40:28.70	181.62	5.46	-54.0	-57.0	13.2	0.00e+00	0	24	0	34603008	74	4985
2026-01-07 10:40:29.70	181.66	5.53	-53.9	-56.8	13.4	0.00e+00	0	24	0	36700160	74	4892
2026-01-07 10:40:30.71	181.70	5.60	-54.0	-56.9	13.3	0.00e+00	0	24	0	38797312	74	4979
2026-01-07 10:40:31.72	181.75	5.67	-54.1	-57.0	13.2	0.00e+00	0	24	0	40894464	74	5010
2026-01-07 10:40:32.72	181.79	5.74	-54.0	-56.9	13.3	0.00e+00	0	24	0	42991616	74	4944
2026-01-07 10:40:33.72	181.83	5.81	-54.1	-57.1	13.2	0.00e+00	0	24	0	44040192	74	5042
2026-01-07 10:40:34.73	181.88	5.88	-54.1	-57.0	13.2	0.00e+00	0	25	0	46137344	74	5040
2026-01-07 10:40:35.73	181.92	5.95	-54.1	-57.1	13.2	0.00e+00	0	24	0	48234496	74	5068
2026-01-07 10:40:36.74	181.97	6.03	-54.1	-57.0	13.3	0.00e+00	0	25	0	50331648	74	5025
2026-01-07 10:40:37.75	182.01	6.10	-54.2	-57.1	13.2	0.00e+00	0	25	0	52428800	74	5090
2026-01-07 10:40:38.76	182.06	6.17	-53.9	-56.7	13.5	0.00e+00	0	25	0	53477376	74	4832
2026-01-07 10:40:39.76	182.10	6.24	-53.9	-56.8	13.4	0.00e+00	0	24	0	55574528	74	4879
2026-01-07 10:40:40.77	182.15	6.32	-53.9	-56.7	13.5	0.00e+00	0	25	0	57671680	74	4843
2026-01-07 10:40:41.78	182.19	6.39	-53.9	-56.8	13.4	0.00e+00	0	25	0	59768832	74	4873
2026-01-07 10:40:42.78	182.24	6.46	-53.8	-56.5	13.6	0.00e+00	0	25	0	61865984	74	4730
2026-01-07 10:40:43.79	182.29	6.54	-53.8	-56.6	13.5	0.00e+00	0	25	0	62914560	74	4789
2026-01-07 10:40:44.80	182.33	6.61	-53.9	-56.7	13.5	0.00e+00	0	25	0	65011712	74	4817
2026-01-07 10:40:45.81	182.38	6.68	-53.8	-56.6	13.6	0.00e+00	0	25	0	67108864	74	4771
2026-01-07 10:40:46.81	182.43	6.76	-53.6	-56.2	13.7	0.00e+00	0	25	0	69206016	73	4843
2026-01-07 10:40:47.81	182.47	6.83	-53.6	-56.3	13.6	0.00e+00	0	25	0	71303168	73	4912
2026-01-07 10:40:48.82	182.52	6.90	-53.7	-56.4	13.5	0.00e+00	0	25	0	72351744	73	4962
2026-01-07 10:40:49.83	182.57	6.98	-53.7	-56.4	13.5	0.00e+00	0	25	0	74448896	73	4961
2026-01-07 10:40:50.84	182.62	7.05	-53.7	-56.4	13.6	0.00e+00	0	25	0	76546048	73	4957
2026-01-07 10:40:51.85	182.66	7.13	-53.8	-56.5	13.5	0.00e+00	0	25	0	78643200	73	5034
2026-01-07 10:40:52.86	182.71	7.20	-53.7	-56.4	13.6	0.00e+00	0	25	0	80740352	73	4928
2026-01-07 10:40:53.87	182.76	7.28	-53.6	-56.3	13.7	0.00e+00	0	25	0	81788928	73	4880
2026-01-07 10:40:54.88	182.81	7.36	-53.6	-56.2	13.7	0.00e+00	0	25	0	83886080	73	4828
2026-01-07 10:40:55.88	182.86	7.43	-53.6	-56.2	13.7	0.00e+00	0	25	0	85983232	73	4819
2026-01-07 10:40:56.89	182.91	7.51	-53.7	-56.3	13.6	0.00e+00	0	25	0	88080384	73	4895
2026-01-07 10:40:57.90	182.96	7.58	-53.6	-56.2	13.7	0.00e+00	0	25	0	90177536	73	4868
2026-01-07 10:40:58.90	183.01	7.66	-53.6	-56.2	13.7	0.00e+00	0	25	0	91226112	73	4820
2026-01-07 10:40:59.91	183.06	7.74	-53.5	-56.1	13.8	0.00e+00	0	25	0	93323264	73	4772
2026-01-07 10:41:00.92	183.11	7.81	-53.6	-56.2	13.7	0.00e+00	0	25	0	95420416	73	4816
2026-01-07 10:41:01.93	183.16	7.89	-53.5	-56.0	13.9	0.00e+00	0	25	0	97517568	73	4717
2026-01-07 10:41:02.93	183.21	7.97	-53.4	-55.9	13.9	0.00e+00	0	25	0	99614720	73	4696
2026-01-07 10:41:03.93	183.26	8.04	-53.5	-56.0	13.9	0.00e+00	0	25	0	100663296	73	4712
2026-01-07 10:41:04.94	183.31	8.12	-53.5	-56.0	13.8	0.00e+00	0	25	0	102760448	73	4734
2026-01-07 10:41:05.94	183.36	8.20	-53.4	-55.9	13.9	0.00e+00	0	25	0	104857600	73	4688
2026-01-07 10:41:06.95	183.41	8.28	-53.5	-55.9	13.9	0.00e+00	0	25	0	106954752	73	4694
2026-01-07 10:41:07.96	183.46	8.35	-53.5	-56.0	13.8	0.00e+00	0	25	0	109051904	73	4755
2026-01-07 10:41:08.97	183.52	8.43	-53.4	-55.9	13.9	0.00e+00	0	25	0	110100480	73	4656
2026-01-07 10:41:09.98	183.57	8.51	-53.4	-55.9	13.9	0.00e+00	0	25	0	112197632	73	4672
2026-01-07 10:41:10.98	183.62	8.59	-53.4	-55.9	13.9	0.00e+00	0	25	0	114294784	73	4678
2026-01-07 10:41:11.98	183.67	8.67	-53.5	-55.9	13.9	0.00e+00	0	25	0	116391936	73	4688
2026-01-07 10:41:12.99	183.73	8.75	-53.4	-55.8	14.0	0.00e+00	0	25	0	118489088	73	4611
2026-01-07 10:41:14.00	183.78	8.83	-53.2	-55.6	14.1	0.00e+00	0	25	0	119537664	73	4523
2026-01-07 10:41:15.00	183.83	8.91	-53.2	-55.5	14.0	0.00e+00	0	25	0	121634816	72	4739
2026-01-07 10:41:16.01	183.89	8.99	-53.1	-55.4	14.1	0.00e+00	0	25	0	123731968	72	4700
2026-01-07 10:41:17.02	183.94	9.07	-53.1	-55.5	14.1	0.00e+00	0	25	0	125829120	72	4707
2026-01-07 10:41:18.02	184.00	9.15	-53.1	-55.4	14.1	0.00e+00	0	25	0	127926272	72	4661
2026-01-07 10:41:19.03	184.05	9.23	-53.1	-55.4	14.1	0.00e+00	0	25	0	128974848	72	4679
2026-01-07 10:41:20.04	184.11	9.31	-53.1	-55.4	14.1	0.00e+00	0	25	0	131072000	72	4700
2026-01-07 10:41:21.04	184.16	9.39	-53.1	-55.3	14.1	0.00e+00	0	25	0	133169152	72	4648
2026-01-07 10:41:22.05	184.22	9.47	-53.1	-55.3	14.1	0.00e+00	0	25	0	135266304	72	4650
2026-01-07 10:41:23.06	184.27	9.56	-53.1	-55.3	14.1	0.00e+00	0	25	0	137363456	72	4648
2026-01-07 10:41:24.06	184.33	9.64	-53.0	-55.3	14.2	0.00e+00	0	25	0	138412032	72	4632
2026-01-07 10:41:25.07	184.39	9.72	-52.9	-55.2	14.2	0.00e+00	0	25	0	140509184	72	4561
2026-01-07 10:41:26.08	184.44	9.80	-53.1	-55.3	14.1	0.00e+00	0	25	0	142606336	72	4651
2026-01-07 10:41:27.09	184.50	9.89	-52.9	-55.1	14.3	0.00e+00	0	25	0	144703488	72	4536
2026-01-07 10:41:28.09	184.56	9.97	-53.1	-55.3	14.2	0.00e+00	0	25	0	146800640	72	4634
2026-01-07 10:41:29.10	184.62	10.05	-53.0	-55.2	14.2	0.00e+00	0	25	0	147849216	72	4585
2026-01-07 10:41:30.11	184.67	10.14	-53.1	-55.4	14.1	0.00e+00	0	25	0	149946368	72	4662
2026-01-07 10:41:31.12	184.73	10.22	-52.9	-55.1	14.3	0.00e+00	0	25	0	152043520	72	4538
2026-01-07 10:41:32.12	184.79	10.30	-53.0	-55.2	14.3	0.00e+00	0	25	0	154140672	72	4565
2026-01-07 10:41:33.13	184.85	10.39	-52.9	-55.1	14.3	0.00e+00	0	25	0	156237824	72	4523
2026-01-07 10:41:34.14	184.91	10.47	-53.1	-55.3	14.2	0.00e+00	0	25	0	157286400	72	4622
2026-01-07 10:41:35.14	184.97	10.56	-52.9	-55.0	14.3	0.00e+00	0	25	0	159383552	72	4485
2026-01-07 10:41:36.15	185.03	10.64	-52.9	-55.1	14.3	0.00e+00	0	25	0	161480704	72	4538
2026-01-07 10:41:37.15	185.09	10.73	-52.9	-55.1	14.3	0.00e+00	0	25	0	163577856	72	4506
2026-01-07 10:41:38.16	185.15	10.81	-52.8	-55.0	14.4	0.00e+00	0	25	0	165675008	72	4459
2026-01-07 10:41:39.17	185.21	10.90	-52.8	-55.0	14.4	0.00e+00	0	25	0	166723584	72	4445
2026-01-07 10:41:40.17	185.27	10.99	-52.7	-54.8	14.4	0.00e+00	0	25	0	168820736	72	4387
2026-01-07 10:41:41.18	185.33	11.07	-52.8	-54.9	14.4	0.00e+00	0	25	0	170917888	72	4405
2026-01-07 10:41:42.19	185.40	11.16	-52.8	-54.9	14.4	0.00e+00	0	25	0	173015040	72	4433
2026-01-07 10:41:43.20	185.46	11.25	-52.7	-54.8	14.5	0.00e+00	0	25	0	175112192	72	4357
2026-01-07 10:41:44.20	185.52	11.33	-52.8	-54.9	14.4	0.00e+00	0	25	0	176160768	72	4431
2026-01-07 10:41:45.21	185.58	11.42	-52.8	-54.9	14.5	0.00e+00	0	25	0	178257920	72	4395
2026-01-07 10:41:46.22	185.65	11.51	-52.7	-54.8	14.5	0.00e+00	0	25	0	180355072	72	4391
2026-01-07 10:41:47.23	185.71	11.60	-52.8	-54.9	14.4	0.00e+00	0	25	0	182452224	72	4397
2026-01-07 10:41:48.23	185.77	11.69	-52.5	-54.6	14.5	0.00e+00	0	25	0	184549376	71	4515
2026-01-07 10:41:49.24	185.84	11.78	-52.6	-54.6	14.4	0.00e+00	0	25	0	185597952	71	4533
2026-01-07 10:41:50.24	185.90	11.86	-52.5	-54.5	14.5	0.00e+00	0	25	0	187695104	71	4474
2026-01-07 10:41:51.25	185.97	11.95	-52.5	-54.5	14.5	0.00e+00	0	25	0	189792256	71	4471
2026-01-07 10:41:52.26	186.03	12.04	-52.5	-54.6	14.5	0.00e+00	0	25	0	191889408	71	4495
2026-01-07 10:41:53.26	186.10	12.13	-52.6	-54.7	14.4	0.00e+00	0	25	0	193986560	71	4561
2026-01-07 10:41:54.27	186.17	12.22	-52.4	-54.4	14.5	0.00e+00	0	25	0	195035136	71	4437
2026-01-07 10:41:55.27	186.23	12.31	-52.4	-54.4	14.6	0.00e+00	0	25	0	197132288	71	4426
2026-01-07 10:41:56.28	186.30	12.40	-52.3	-54.3	14.6	0.00e+00	0	25	0	199229440	71	4367
2026-01-07 10:41:57.28	186.37	12.49	-52.3	-54.3	14.6	0.00e+00	0	25	0	201326592	71	4346
2026-01-07 10:41:58.29	186.44	12.59	-52.2	-54.1	14.7	0.00e+00	0	25	0	203423744	71	4286
2026-01-07 10:41:59.30	186.50	12.68	-52.2	-54.1	14.7	0.00e+00	0	25	0	204472320	71	4269
2026-01-07 10:42:00.31	186.57	12.77	-52.2	-54.1	14.7	0.00e+00	0	25	0	206569472	71	4286
2026-01-07 10:42:01.31	186.64	12.86	-52.3	-54.2	14.7	0.00e+00	0	25	0	208666624	71	4314
2026-01-07 10:42:02.32	186.71	12.96	-52.2	-54.1	14.7	0.00e+00	0	25	0	210763776	71	4288
2026-01-07 10:42:03.33	186.78	13.05	-52.1	-53.9	14.7	0.00e+00	0	25	0	212860928	70	4438
2026-01-07 10:42:04.33	186.85	13.14	-52.1	-54.0	14.6	0.00e+00	0	25	0	213909504	70	4483
2026-01-07 10:42:05.34	186.92	13.24	-52.2	-54.1	14.6	0.00e+00	0	25	0	216006656	70	4514
2026-01-07 10:42:06.35	186.99	13.33	-52.1	-53.9	14.7	0.00e+00	0	25	0	218103808	70	4434
2026-01-07 10:42:07.36	187.07	13.43	-52.0	-53.8	14.7	0.00e+00	0	25	0	220200960	70	4367
2026-01-07 10:42:08.36	187.14	13.52	-51.9	-53.8	14.7	0.00e+00	0	25	0	222298112	70	4356
2026-01-07 10:42:09.37	187.21	13.61	-51.9	-53.8	14.7	0.00e+00	0	25	0	223346688	70	4355
2026-01-07 10:42:10.38	187.28	13.71	-51.9	-53.7	14.8	0.00e+00	0	25	0	225443840	70	4296
2026-01-07 10:42:11.38	187.36	13.81	-51.8	-53.7	14.8	0.00e+00	0	25	0	227540992	70	4298
2026-01-07 10:42:12.39	187.43	13.90	-51.8	-53.6	14.8	0.00e+00	0	25	0	229638144	70	4261
2026-01-07 10:42:13.40	187.50	14.00	-51.7	-53.5	14.9	0.00e+00	0	25	0	231735296	70	4209
2026-01-07 10:42:14.41	187.58	14.10	-51.7	-53.4	14.8	0.00e+00	0	25	0	232783872	69	4435
2026-01-07 10:42:15.41	187.65	14.19	-51.6	-53.3	14.8	0.00e+00	0	25	0	234881024	69	4391
2026-01-07 10:42:16.42	187.73	14.29	-51.6	-53.3	14.8	0.00e+00	0	25	0	236978176	69	4384
2026-01-07 10:42:17.43	187.81	14.39	-51.5	-53.3	14.8	0.00e+00	0	25	0	239075328	69	4358
2026-01-07 10:42:18.43	187.88	14.49	-51.6	-53.4	14.8	0.00e+00	0	25	0	241172480	69	4420
2026-01-07 10:42:19.44	187.96	14.58	-51.5	-53.2	14.9	0.00e+00	0	25	0	242221056	69	4316
2026-01-07 10:42:20.45	188.04	14.68	-51.6	-53.4	14.8	0.00e+00	0	25	0	244318208	69	4403
2026-01-07 10:42:21.46	188.12	14.78	-51.6	-53.4	14.8	0.00e+00	0	25	0	246415360	69	4407
2026-01-07 10:42:22.47	188.19	14.88	-51.5	-53.3	14.9	0.00e+00	0	25	0	248512512	69	4345
2026-01-07 10:42:23.48	188.27	14.98	-51.6	-53.3	14.8	0.00e+00	0	25	0	250609664	69	4369
2026-01-07 10:42:24.49	188.35	15.08	-51.6	-53.4	14.8	0.00e+00	0	25	0	251658240	69	4426
2026-01-07 10:42:25.49	188.43	15.18	-51.5	-53.2	14.9	0.00e+00	0	25	0	253755392	69	4332
2026-01-07 10:42:26.50	188.51	15.28	-51.5	-53.3	14.9	0.00e+00	0	25	0	255852544	69	4343
2026-01-07 10:42:27.51	188.60	15.39	-51.5	-53.3	14.9	0.00e+00	0	25	0	257949696	69	4342
2026-01-07 10:42:28.51	188.68	15.49	-51.5	-53.2	14.9	0.00e+00	0	25	0	260046848	69	4323
2026-01-07 10:42:29.51	188.76	15.59	-51.4	-53.1	14.9	0.00e+00	0	25	0	261095424	69	4285
2026-01-07 10:42:30.52	188.84	15.69	-51.5	-53.2	14.9	0.00e+00	0	25	0	263192576	69	4316
2026-01-07 10:42:31.53	188.92	15.79	-51.4	-53.1	14.9	0.00e+00	0	25	0	265289728	69	4291
2026-01-07 10:42:32.54	189.01	15.90	-51.4	-53.1	15.0	0.00e+00	0	25	0	267386880	69	4244
2026-01-07 10:42:33.55	189.09	16.00	-51.4	-53.1	14.9	0.00e+00	0	25	0	269484032	69	4285
2026-01-07 10:42:34.55	189.18	16.11	-51.4	-53.2	14.9	0.00e+00	0	25	0	270532608	69	4294
2026-01-07 10:42:35.56	189.26	16.21	-51.4	-53.1	14.9	0.00e+00	0	25	0	272629760	69	4284
2026-01-07 10:42:36.57	189.35	16.32	-51.3	-53.0	15.0	0.00e+00	0	25	0	274726912	69	4194
2026-01-07 10:42:37.58	189.44	16.42	-51.3	-53.0	15.0	0.00e+00	0	25	0	276824064	69	4212
2026-01-07 10:42:38.58	189.52	16.53	-51.3	-53.0	15.0	0.00e+00	0	25	0	278921216	69	4217
2026-01-07 10:42:39.59	189.61	16.63	-51.4	-53.1	15.0	0.00e+00	0	25	0	279969792	69	4251
2026-01-07 10:42:40.60	189.70	16.74	-51.4	-53.0	15.0	0.00e+00	0	25	0	282066944	69	4236
2026-01-07 10:42:41.61	189.79	16.85	-51.4	-53.0	15.0	0.00e+00	0	25	0	284164096	69	4240
2026-01-07 10:42:42.62	189.88	16.95	-51.4	-53.1	15.0	0.00e+00	0	25	0	286261248	69	4244
2026-01-07 10:42:43.62	189.97	17.06	-51.5	-53.2	14.9	0.00e+00	0	25	0	288358400	69	4319
2026-01-07 10:42:44.63	190.06	17.17	-51.5	-53.2	14.9	0.00e+00	0	25	0	289406976	69	4295
2026-01-07 10:42:45.64	190.15	17.28	-51.5	-53.1	15.0	0.00e+00	0	25	0	291504128	69	4284
2026-01-07 10:42:46.65	190.24	17.39	-51.4	-53.1	15.0	0.00e+00	0	25	0	293601280	69	4251
2026-01-07 10:42:47.65	190.34	17.50	-51.3	-52.9	15.0	0.00e+00	0	25	0	295698432	69	4193
2026-01-07 10:42:48.66	190.43	17.61	-51.3	-52.9	15.1	0.00e+00	0	25	0	297795584	69	4169
2026-01-07 10:42:49.66	190.52	17.71	-51.3	-52.9	15.0	0.00e+00	0	25	0	298844160	69	4167
2026-01-07 10:42:50.67	190.62	17.83	-51.2	-52.9	15.1	0.00e+00	0	25	0	300941312	69	4158
2026-01-07 10:42:51.68	190.71	17.94	-51.2	-52.9	15.1	0.00e+00	0	25	0	303038464	69	4163
2026-01-07 10:42:52.69	190.81	18.05	-51.3	-52.9	15.0	0.00e+00	0	25	0	305135616	69	4175
2026-01-07 10:42:53.69	190.90	18.16	-51.2	-52.8	15.1	0.00e+00	0	25	0	307232768	69	4128
2026-01-07 10:42:54.70	191.00	18.27	-51.2	-52.8	15.1	0.00e+00	0	25	0	308281344	69	4127
2026-01-07 10:42:55.71	191.10	18.39	-51.3	-52.9	15.0	0.00e+00	0	25	0	310378496	69	4187
2026-01-07 10:42:56.72	191.20	18.50	-51.3	-52.9	15.1	0.00e+00	0	25	0	312475648	69	4186
2026-01-07 10:42:57.73	191.30	18.61	-51.2	-52.9	15.1	0.00e+00	0	25	0	314572800	69	4165
2026-01-07 10:42:58.73	191.40	18.73	-51.3	-53.0	15.0	0.00e+00	0	25	0	316669952	69	4212
2026-01-07 10:42:59.74	191.50	18.84	-51.3	-53.0	15.0	0.00e+00	0	25	0	317718528	69	4218
2026-01-07 10:43:00.75	191.60	18.96	-51.3	-53.0	15.0	0.00e+00	0	25	0	319815680	69	4211
2026-01-07 10:43:01.76	191.70	19.07	-51.4	-53.0	15.0	0.00e+00	0	25	0	321912832	69	4229
2026-01-07 10:43:02.76	191.81	19.19	-51.5	-53.2	14.9	0.00e+00	0	25	0	324009984	69	4296
2026-01-07 10:43:03.77	191.91	19.30	-51.4	-53.0	15.0	0.00e+00	0	25	0	326107136	69	4231
2026-01-07 10:43:04.78	192.02	19.42	-51.4	-53.0	15.0	0.00e+00	0	25	0	327155712	69	4234
2026-01-07 10:43:05.79	192.12	19.54	-51.3	-53.0	15.0	0.00e+00	0	25	0	329252864	69	4221
2026-01-07 10:43:06.80	192.23	19.66	-51.4	-53.0	15.0	0.00e+00	0	25	0	331350016	69	4240
2026-01-07 10:43:07.81	192.34	19.78	-51.4	-53.1	15.0	0.00e+00	0	25	0	333447168	69	4245
2026-01-07 10:43:08.81	192.44	19.89	-51.4	-53.1	15.0	0.00e+00	0	25	0	335544320	69	4285
2026-01-07 10:43:09.82	192.55	20.01	-51.4	-53.1	15.0	0.00e+00	0	25	0	337641472	69	4270
2026-01-07 10:43:10.82	192.66	20.13	-51.4	-53.1	15.0	0.00e+00	0	25	0	338690048	69	4260
2026-01-07 10:43:11.83	192.77	20.25	-51.5	-53.2	14.9	0.00e+00	0	25	0	340787200	69	4301
2026-01-07 10:43:12.84	192.88	20.37	-51.5	-53.2	14.9	0.00e+00	0	25	0	342884352	69	4318
2026-01-07 10:43:13.85	192.99	20.49	-51.5	-53.2	14.9	0.00e+00	0	25	0	344981504	69	4337
2026-01-07 10:43:14.86	193.11	20.62	-51.6	-53.3	14.9	0.00e+00	0	25	0	346030080	69	4364
2026-01-07 10:43:15.86	193.22	20.74	-51.6	-53.3	14.9	0.00e+00	0	25	0	348127232	69	4344
2026-01-07 10:43:16.87	193.33	20.86	-51.5	-53.2	14.9	0.00e+00	0	25	0	350224384	69	4330
2026-01-07 10:43:17.88	193.45	20.98	-51.5	-53.2	14.9	0.00e+00	0	25	0	352321536	69	4332
2026-01-07 10:43:18.88	193.57	21.11	-51.6	-53.3	14.9	0.00e+00	0	25	0	354418688	69	4350
2026-01-07 10:43:19.89	193.68	21.23	-51.6	-53.3	14.9	0.00e+00	0	25	0	355467264	69	4367
2026-01-07 10:43:20.89	193.80	21.35	-51.5	-53.2	14.9	0.00e+00	0	25	0	357564416	69	4340
2026-01-07 10:43:21.90	193.92	21.48	-51.5	-53.2	14.9	0.00e+00	0	25	0	359661568	69	4317
2026-01-07 10:43:22.91	194.04	21.60	-51.5	-53.2	14.9	0.00e+00	0	25	0	361758720	69	4322
2026-01-07 10:43:23.92	194.16	21.73	-51.6	-53.3	14.9	0.00e+00	0	25	0	363855872	69	4352
2026-01-07 10:43:24.93	194.28	21.86	-51.5	-53.2	15.0	0.00e+00	0	25	0	365953024	69	4301
2026-01-07 10:43:25.94	194.41	21.98	-51.4	-53.1	15.0	0.00e+00	0	25	0	367001600	69	4258
2026-01-07 10:43:26.94	194.53	22.11	-51.5	-53.1	14.9	0.00e+00	0	25	0	369098752	69	4276
2026-01-07 10:43:27.95	194.65	22.24	-51.4	-53.1	15.0	0.00e+00	0	25	0	371195904	69	4266
2026-01-07 10:43:28.96	194.78	22.37	-51.5	-53.2	14.9	0.00e+00	0	25	0	373293056	69	4328
2026-01-07 10:43:29.97	194.91	22.50	-51.5	-53.2	14.9	0.00e+00	0	25	0	375390208	69	4314
2026-01-07 10:43:30.98	195.03	22.63	-51.6	-53.3	14.9	0.00e+00	0	25	0	376438784	69	4377
2026-01-07 10:43:31.98	195.16	22.76	-51.6	-53.3	14.9	0.00e+00	0	25	0	378535936	69	4353
2026-01-07 10:43:32.99	195.29	22.89	-51.5	-53.2	14.9	0.00e+00	0	25	0	380633088	69	4327
2026-01-07 10:43:34.00	195.42	23.02	-51.5	-53.2	14.9	0.00e+00	0	25	0	382730240	69	4337
2026-01-07 10:43:35.01	195.56	23.15	-51.5	-53.2	14.9	0.00e+00	0	25	0	383778816	69	4303
2026-01-07 10:43:36.01	195.69	23.28	-51.4	-53.1	15.0	0.00e+00	0	25	0	385875968	69	4264
2026-01-07 10:43:37.02	195.82	23.42	-51.4	-53.1	15.0	0.00e+00	0	25	0	387973120	69	4267
2026-01-07 10:43:38.03	195.96	23.55	-51.4	-53.1	15.0	0.00e+00	0	25	0	390070272	69	4266
2026-01-07 10:43:39.04	196.09	23.68	-51.5	-53.1	15.0	0.00e+00	0	25	0	392167424	69	4282
2026-01-07 10:43:40.05	196.23	23.82	-51.3	-52.9	15.1	0.00e+00	0	25	0	394264576	69	4167
2026-01-07 10:43:41.05	196.37	23.95	-51.4	-53.0	15.0	0.00e+00	0	25	0	395313152	69	4214
2026-01-07 10:43:42.06	196.51	24.09	-51.4	-53.1	15.0	0.00e+00	0	25	0	397410304	69	4249
2026-01-07 10:43:43.07	196.65	24.22	-51.5	-53.1	15.0	0.00e+00	0	25	0	399507456	69	4275
2026-01-07 10:43:44.08	196.79	24.36	-51.6	-53.3	14.9	0.00e+00	0	25	0	401604608	69	4371
2026-01-07 10:43:45.08	196.94	24.50	-51.6	-53.3	14.9	0.00e+00	0	25	0	403701760	69	4367
2026-01-07 10:43:46.09	197.08	24.63	-51.7	-53.4	14.9	0.00e+00	0	25	0	404750336	69	4401
2026-01-07 10:43:47.10	197.23	24.77	-51.8	-53.5	14.8	0.00e+00	0	25	0	406847488	69	4466
2026-01-07 10:43:48.11	197.37	24.91	-51.7	-53.4	14.8	0.00e+00	0	25	0	408944640	69	4435
2026-01-07 10:43:49.12	197.52	25.05	-51.8	-53.5	14.8	0.00e+00	0	25	0	411041792	69	4479
2026-01-07 10:43:50.12	197.67	25.19	-51.8	-53.5	14.8	0.00e+00	0	25	0	413138944	69	4466
2026-01-07 10:43:51.13	197.82	25.33	-51.8	-53.5	14.8	0.00e+00	0	25	0	414187520	69	4472
2026-01-07 10:43:52.14	197.98	25.47	-51.9	-53.6	14.7	0.00e+00	0	25	0	416284672	69	4532
2026-01-07 10:43:53.15	198.13	25.61	-51.9	-53.6	14.8	0.00e+00	0	25	0	418381824	69	4537
2026-01-07 10:43:54.16	198.28	25.75	-51.9	-53.7	14.7	0.00e+00	0	25	0	420478976	69	4558
2026-01-07 10:43:55.16	198.44	25.89	-51.9	-53.7	14.7	0.00e+00	0	25	0	422576128	69	4563
2026-01-07 10:43:56.17	198.60	26.04	-52.0	-53.8	14.7	0.00e+00	0	25	0	423624704	69	4631
2026-01-07 10:43:57.18	198.76	26.18	-52.1	-53.9	14.6	0.00e+00	0	25	0	425721856	69	4695
2026-01-07 10:43:58.18	198.92	26.32	-52.2	-54.1	14.5	0.00e+00	0	25	0	427819008	69	4761
2026-01-07 10:43:59.19	199.08	26.47	-52.2	-54.0	14.6	0.00e+00	0	25	0	429916160	69	4754
2026-01-07 10:44:00.20	199.24	26.61	-52.2	-54.1	14.6	0.00e+00	0	25	0	432013312	69	4772
2026-01-07 10:44:01.20	199.40	26.76	-52.2	-54.1	14.5	0.00e+00	0	25	0	433061888	69	4790
2026-01-07 10:44:02.21	199.57	26.91	-52.2	-54.1	14.6	0.00e+00	0	25	0	435159040	69	4760
2026-01-07 10:44:03.22	199.74	27.05	-52.2	-54.0	14.5	0.00e+00	0	25	0	437256192	69	4745
2026-01-07 10:44:04.22	199.91	27.20	-52.3	-54.2	14.5	0.00e+00	0	25	0	439353344	69	4821
2026-01-07 10:44:05.23	200.08	27.35	-52.4	-54.3	14.6	0.00e+00	0	25	0	441450496	70	4630
2026-01-07 10:44:06.24	200.25	27.50	-52.4	-54.3	14.6	0.00e+00	0	25	0	442499072	70	4641
2026-01-07 10:44:07.25	200.42	27.64	-52.5	-54.4	14.5	0.00e+00	0	25	0	444596224	70	4695
2026-01-07 10:44:08.25	200.60	27.79	-52.5	-54.4	14.5	0.00e+00	0	25	0	446693376	70	4694
2026-01-07 10:44:09.26	200.78	27.94	-52.6	-54.5	14.5	0.00e+00	0	25	0	448790528	70	4722
2026-01-07 10:44:10.27	200.95	28.09	-52.7	-54.6	14.4	0.00e+00	0	25	0	450887680	70	4810
2026-01-07 10:44:11.28	201.13	28.24	-52.7	-54.7	14.4	0.00e+00	0	25	0	451936256	70	4824
2026-01-07 10:44:12.29	201.32	28.40	-52.8	-54.8	14.4	0.00e+00	0	25	0	454033408	70	4884
2026-01-07 10:44:13.30	201.50	28.55	-52.8	-54.8	14.3	0.00e+00	0	25	0	456130560	70	4877
2026-01-07 10:44:14.30	201.68	28.70	-52.9	-54.9	14.4	0.00e+00	0	25	0	458227712	71	4690
2026-01-07 10:44:15.31	201.87	28.85	-53.1	-55.1	14.3	0.00e+00	0	25	0	460324864	71	4805
2026-01-07 10:44:16.31	202.06	29.01	-53.2	-55.3	14.2	0.00e+00	0	25	0	461373440	71	4918
2026-01-07 10:44:17.32	202.25	29.16	-53.5	-55.7	14.1	0.00e+00	0	25	0	463470592	72	4846
2026-01-07 10:44:18.33	202.44	29.32	-53.7	-56.0	14.0	0.00e+00	0	25	0	465567744	72	5023
2026-01-07 10:44:19.33	202.64	29.47	-53.9	-56.2	13.9	0.00e+00	0	25	0	467664896	72	5140
2026-01-07 10:44:20.34	202.83	29.62	-54.0	-56.3	13.9	0.00e+00	0	25	0	469762048	73	4919
2026-01-07 10:44:21.34	203.03	29.78	-54.1	-56.5	13.9	0.00e+00	0	25	0	470810624	73	4993
2026-01-07 10:44:22.34	203.23	29.93	-54.2	-56.6	13.8	0.00e+00	0	25	0	472907776	73	5078
2026-01-07 10:44:23.35	203.43	30.09	-54.2	-56.7	13.7	0.00e+00	0	25	0	475004928	73	5140
2026-01-07 10:44:24.36	203.63	30.25	-54.3	-56.8	13.6	0.00e+00	0	25	0	477102080	73	5208
2026-01-07 10:44:25.37	203.84	30.41	-54.4	-56.9	13.7	0.00e+00	0	25	0	479199232	74	4957
2026-01-07 10:44:26.38	204.04	30.57	-54.4	-56.9	13.7	0.00e+00	0	25	0	480247808	74	4979
2026-01-07 10:44:27.38	204.25	30.72	-54.3	-56.7	13.8	0.00e+00	0	25	0	482344960	74	4868
2026-01-07 10:44:28.39	204.46	30.88	-54.3	-56.8	13.8	0.00e+00	0	25	0	484442112	74	4901
2026-01-07 10:44:29.40	204.68	31.04	-54.2	-56.6	13.9	0.00e+00	0	25	0	486539264	74	4786
2026-01-07 10:44:30.40	204.89	31.20	-54.1	-56.5	13.9	0.00e+00	0	25	0	488636416	74	4751
2026-01-07 10:44:31.41	205.11	31.36	-54.2	-56.6	13.9	0.00e+00	0	25	0	489684992	74	4807
2026-01-07 10:44:32.42	205.33	31.53	-54.1	-56.5	14.0	0.00e+00	0	25	0	491782144	74	4717
2026-01-07 10:44:33.43	205.55	31.69	-54.0	-56.4	14.1	0.00e+00	0	25	0	493879296	74	4653
2026-01-07 10:44:34.44	205.78	31.85	-54.0	-56.4	14.1	0.00e+00	0	25	0	495976448	74	4671
2026-01-07 10:44:35.45	206.00	32.01	-54.1	-56.4	14.0	0.00e+00	0	25	0	498073600	74	4686
2026-01-07 10:44:36.45	206.23	32.18	-54.1	-56.5	14.0	0.00e+00	0	25	0	499122176	74	4709
2026-01-07 10:44:37.46	206.46	32.34	-53.9	-56.2	14.2	0.00e+00	0	25	0	501219328	74	4560
2026-01-07 10:44:38.47	206.69	32.50	-53.8	-56.0	14.3	0.00e+00	0	25	0	503316480	74	4469
2026-01-07 10:44:39.48	206.93	32.67	-53.4	-55.5	14.4	0.00e+00	0	25	0	505413632	73	4489
2026-01-07 10:44:40.49	207.17	32.83	-53.4	-55.5	14.4	0.00e+00	0	25	0	507510784	73	4488
2026-01-07 10:44:41.49	207.41	33.00	-53.4	-55.5	14.4	0.00e+00	0	25	0	508559360	73	4444
2026-01-07 10:44:42.50	207.65	33.16	-53.0	-55.0	14.5	0.00e+00	0	25	0	510656512	72	4463
2026-01-07 10:44:43.51	207.89	33.33	-52.9	-54.8	14.6	0.00e+00	0	25	0	512753664	72	4368
2026-01-07 10:44:44.52	208.14	33.49	-52.8	-54.8	14.7	0.00e+00	0	25	0	514850816	72	4341
2026-01-07 10:44:45.53	208.39	33.66	-52.8	-54.8	14.6	0.00e+00	0	25	0	516947968	72	4356
2026-01-07 10:44:46.54	208.64	33.83	-52.7	-54.6	14.8	0.00e+00	0	25	0	517996544	72	4262
2026-01-07 10:44:47.54	208.90	33.99	-52.5	-54.4	14.7	0.00e+00	0	25	0	520093696	71	4414
2026-01-07 10:44:48.55	209.16	34.16	-52.5	-54.4	14.7	0.00e+00	0	25	0	522190848	71	4419
2026-01-07 10:44:49.55	209.41	34.32	-52.1	-53.9	14.8	0.00e+00	0	25	0	524288000	70	4394
2026-01-07 10:44:50.56	209.68	34.49	-52.1	-53.9	14.8	0.00e+00	0	25	0	526385152	70	4397
2026-01-07 10:44:51.57	209.94	34.66	-51.9	-53.6	14.9	0.00e+00	0	25	0	527433728	70	4279
2026-01-07 10:44:52.58	210.21	34.83	-51.8	-53.5	15.0	0.00e+00	0	25	0	529530880	70	4218
2026-01-07 10:44:53.59	210.48	35.00	-51.9	-53.6	14.9	0.00e+00	0	25	0	531628032	70	4279
2026-01-07 10:44:54.59	210.75	35.16	-51.9	-53.6	14.9	0.00e+00	0	25	0	533725184	70	4268
2026-01-07 10:44:55.60	211.03	35.33	-51.9	-53.6	14.9	0.00e+00	0	25	0	535822336	70	4263
2026-01-07 10:44:56.61	211.31	35.50	-52.0	-53.8	14.8	0.00e+00	0	25	0	536870912	70	4350
2026-01-07 10:44:57.62	211.59	35.67	-52.2	-53.9	14.8	0.00e+00	0	25	0	538968064	70	4436
2026-01-07 10:44:58.62	211.87	35.84	-52.3	-54.1	14.7	0.00e+00	0	25	0	541065216	70	4523
2026-01-07 10:44:59.63	212.16	36.01	-52.2	-54.0	14.8	0.00e+00	0	25	0	543162368	70	4453
2026-01-07 10:45:00.64	212.45	36.18	-52.1	-53.9	14.8	0.00e+00	0	25	0	545259520	70	4412
2026-01-07 10:45:01.65	212.75	36.35	-52.0	-53.8	14.9	0.00e+00	0	25	0	546308096	70	4349
2026-01-07 10:45:02.65	213.04	36.52	-51.9	-53.6	14.9	0.00e+00	0	25	0	548405248	70	4269
2026-01-07 10:45:03.66	213.34	36.69	-51.8	-53.4	15.0	0.00e+00	0	25	0	550502400	70	4182
2026-01-07 10:45:04.66	213.64	36.85	-51.8	-53.4	15.0	0.00e+00	0	25	0	552599552	70	4191
2026-01-07 10:45:05.67	213.95	37.02	-51.8	-53.4	15.0	0.00e+00	0	25	0	554696704	70	4190
2026-01-07 10:45:06.69	214.26	37.19	-51.5	-53.1	15.0	0.00e+00	0	25	0	555745280	69	4279
2026-01-07 10:45:07.69	214.57	37.36	-51.4	-53.0	15.1	0.00e+00	0	25	0	557842432	69	4213
2026-01-07 10:45:08.70	214.89	37.53	-51.6	-53.3	14.9	0.00e+00	0	25	0	559939584	69	4361
2026-01-07 10:45:09.70	215.20	37.70	-51.7	-53.4	14.9	0.00e+00	0	25	0	562036736	69	4398
2026-01-07 10:45:10.70	215.52	37.87	-51.8	-53.4	14.9	0.00e+00	0	25	0	564133888	69	4440
2026-01-07 10:45:11.71	215.85	38.04	-51.7	-53.3	14.8	0.00e+00	0	25	0	565182464	69	4391
2026-01-07 10:45:12.72	216.17	38.21	-51.8	-53.4	14.9	0.00e+00	0	25	0	567279616	69	4435
2026-01-07 10:45:13.72	216.50	38.37	-51.8	-53.5	14.8	0.00e+00	0	25	0	569376768	69	4456
2026-01-07 10:45:14.73	216.84	38.54	-51.4	-53.0	15.1	0.00e+00	0	25	0	571473920	69	4235
2026-01-07 10:45:15.74	217.18	38.71	-51.5	-53.1	15.0	0.00e+00	0	25	0	573571072	69	4277
2026-01-07 10:45:16.74	217.52	38.88	-51.7	-53.4	14.9	0.00e+00	0	25	0	574619648	69	4426
2026-01-07 10:45:17.75	217.86	39.04	-52.0	-53.7	14.7	0.00e+00	0	25	0	576716800	69	4594
2026-01-07 10:45:18.76	218.21	39.21	-52.0	-53.8	14.7	0.00e+00	0	25	0	578813952	69	4612
2026-01-07 10:45:19.76	218.56	39.38	-52.1	-53.9	14.7	0.00e+00	0	25	0	580911104	69	4692
2026-01-07 10:45:20.77	218.92	39.54	-52.0	-53.7	14.7	0.00e+00	0	25	0	583008256	69	4582
2026-01-07 10:45:21.78	219.28	39.71	-51.9	-53.6	14.8	0.00e+00	0	25	0	584056832	69	4519
2026-01-07 10:45:22.78	219.64	39.87	-52.0	-53.7	14.8	0.00e+00	0	25	0	586153984	69	4577
2026-01-07 10:45:23.79	220.01	40.04	-52.0	-53.8	14.7	0.00e+00	0	25	0	588251136	69	4604
2026-01-07 10:45:24.80	220.38	40.20	-52.2	-53.9	14.7	0.00e+00	0	25	0	590348288	69	4704
2026-01-07 10:45:25.81	220.75	40.37	-52.2	-54.0	14.6	0.00e+00	0	25	0	592445440	69	4735
2026-01-07 10:45:26.82	221.13	40.53	-52.4	-54.2	14.5	0.00e+00	0	25	0	594542592	69	4841
2026-01-07 10:45:27.83	221.51	40.69	-52.6	-54.5	14.5	0.00e+00	0	25	0	595591168	70	4752
2026-01-07 10:45:28.83	221.90	40.85	-52.8	-54.7	14.4	0.00e+00	0	25	0	597688320	70	4825
2026-01-07 10:45:29.84	222.29	41.02	-52.8	-54.8	14.4	0.00e+00	0	25	0	599785472	70	4879
2026-01-07 10:45:30.85	222.68	41.18	-52.7	-54.6	14.5	0.00e+00	0	25	0	601882624	70	4787
2026-01-07 10:45:31.85	223.07	41.34	-52.6	-54.4	14.5	0.00e+00	0	25	0	602931200	70	4700
2026-01-07 10:45:32.86	223.48	41.49	-52.5	-54.4	14.6	0.00e+00	0	25	0	605028352	70	4654
2026-01-07 10:45:33.86	223.88	41.65	-52.7	-54.6	14.5	0.00e+00	0	25	0	607125504	70	4767
2026-01-07 10:45:34.86	224.28	41.81	-52.9	-54.8	14.4	0.00e+00	0	25	0	609222656	70	4917
2026-01-07 10:45:35.87	224.70	41.96	-53.0	-54.9	14.5	0.00e+00	0	25	0	611319808	71	4686
2026-01-07 10:45:36.88	225.11	42.12	-52.9	-54.9	14.5	0.00e+00	0	25	0	612368384	71	4671
2026-01-07 10:45:37.88	225.53	42.27	-52.7	-54.6	14.6	0.00e+00	0	25	0	614465536	71	4510
2026-01-07 10:45:38.89	225.96	42.42	-52.6	-54.5	14.7	0.00e+00	0	25	0	616562688	71	4474
2026-01-07 10:45:39.89	226.38	42.58	-52.4	-54.3	14.8	0.00e+00	0	25	0	618659840	71	4342
2026-01-07 10:45:40.90	226.81	42.73	-52.3	-54.1	14.9	0.00e+00	0	25	0	620756992	71	4276
2026-01-07 10:45:41.91	227.25	42.88	-52.5	-54.3	14.7	0.00e+00	0	25	0	621805568	71	4384
2026-01-07 10:45:42.92	227.69	43.03	-52.8	-54.7	14.6	0.00e+00	0	25	0	623902720	71	4574
2026-01-07 10:45:43.93	228.14	43.17	-53.2	-55.3	14.3	0.00e+00	0	25	0	625999872	71	4887
2026-01-07 10:45:44.93	228.58	43.32	-53.5	-55.7	14.1	0.00e+00	0	25	0	628097024	72	4841
2026-01-07 10:45:45.94	229.03	43.46	-53.6	-55.8	14.2	0.00e+00	0	25	0	630194176	72	4895
2026-01-07 10:45:46.95	229.49	43.61	-53.4	-55.4	14.4	0.00e+00	0	25	0	631242752	72	4699
2026-01-07 10:45:47.96	229.95	43.75	-53.1	-55.1	14.5	0.00e+00	0	25	0	633339904	72	4541
2026-01-07 10:45:48.96	230.41	43.89	-52.9	-54.8	14.6	0.00e+00	0	25	0	635437056	72	4385
2026-01-07 10:45:49.97	230.88	44.02	-52.9	-54.8	14.7	0.00e+00	0	25	0	637534208	72	4368
2026-01-07 10:45:50.98	231.36	44.16	-53.3	-55.4	14.4	0.00e+00	0	25	0	639631360	72	4663
2026-01-07 10:45:51.98	231.83	44.30	-53.7	-56.0	14.0	0.00e+00	0	25	0	640679936	72	4986
2026-01-07 10:45:52.99	232.31	44.43	-53.9	-56.1	14.1	0.00e+00	0	25	0	642777088	73	4799
2026-01-07 10:45:54.00	232.80	44.56	-53.7	-55.9	14.3	0.00e+00	0	25	0	644874240	73	4653
2026-01-07 10:45:55.01	233.28	44.69	-53.1	-55.1	14.5	0.00e+00	0	25	0	646971392	72	4503
2026-01-07 10:45:56.01	233.77	44.82	-52.9	-54.9	14.7	0.00e+00	0	25	0	649068544	72	4396
2026-01-07 10:45:57.02	234.27	44.95	-52.9	-54.8	14.7	0.00e+00	0	25	0	651165696	72	4368
2026-01-07 10:45:58.03	234.77	45.07	-52.7	-54.6	14.8	0.00e+00	0	25	0	652214272	72	4261
2026-01-07 10:45:59.04	235.28	45.19	-53.0	-55.0	14.4	0.00e+00	0	25	0	654311424	71	4708
2026-01-07 10:46:00.05	235.78	45.31	-53.6	-55.7	14.2	0.00e+00	0	25	0	656408576	72	4845
2026-01-07 10:46:01.03	236.28	45.43	-53.9	-56.2	14.1	0.00e+00	0	25	0	658505728	73	4815
2026-01-07 10:46:02.03	236.79	45.54	-54.0	-56.3	14.0	0.00e+00	0	25	0	659554304	73	4877
2026-01-07 10:46:03.04	237.31	45.66	-53.5	-55.6	14.4	0.00e+00	0	25	0	661651456	73	4531
2026-01-07 10:46:04.04	237.83	45.77	-53.4	-55.4	14.5	0.00e+00	0	25	0	663748608	73	4410
2026-01-07 10:46:05.05	238.36	45.88	-53.4	-55.4	14.5	0.00e+00	0	25	0	665845760	73	4427
2026-01-07 10:46:06.06	238.89	45.98	-53.5	-55.5	14.4	0.00e+00	0	25	0	667942912	73	4483
2026-01-07 10:46:07.07	239.42	46.09	-53.8	-56.0	14.2	0.00e+00	0	25	0	668991488	73	4730
2026-01-07 10:46:08.07	239.95	46.19	-54.1	-56.5	13.9	0.00e+00	0	25	0	671088640	73	4989
2026-01-07 10:46:09.08	240.50	46.29	-54.1	-56.5	13.9	0.00e+00	0	25	0	673185792	73	4991
2026-01-07 10:46:10.09	241.04	46.39	-53.8	-56.0	14.2	0.00e+00	0	25	0	675282944	73	4744
2026-01-07 10:46:11.10	241.59	46.48	-53.8	-56.0	14.2	0.00e+00	0	25	0	677380096	73	4713
2026-01-07 10:46:12.10	242.13	46.57	-53.9	-56.1	14.1	0.00e+00	0	25	0	678428672	73	4769
2026-01-07 10:46:13.11	242.69	46.66	-54.0	-56.2	14.0	0.00e+00	0	25	0	680525824	73	4859
2026-01-07 10:46:14.12	243.24	46.75	-53.9	-56.1	14.1	0.00e+00	0	25	0	682622976	73	4770
2026-01-07 10:46:15.12	243.80	46.83	-53.6	-55.7	14.3	0.00e+00	0	25	0	684720128	73	4596
2026-01-07 10:46:16.13	244.36	46.91	-53.7	-55.9	14.2	0.00e+00	0	25	0	686817280	73	4676
2026-01-07 10:46:17.14	244.93	46.99	-53.8	-56.1	14.2	0.00e+00	0	25	0	687865856	73	4766
2026-01-07 10:46:18.14	245.49	47.07	-53.5	-55.6	14.4	0.00e+00	0	25	0	689963008	73	4539
2026-01-07 10:46:19.15	246.06	47.14	-53.3	-55.3	14.6	0.00e+00	0	25	0	692060160	73	4366
2026-01-07 10:46:20.15	246.63	47.21	-53.2	-55.2	14.4	0.00e+00	0	25	0	694157312	72	4576
2026-01-07 10:46:21.16	247.21	47.28	-53.4	-55.5	14.3	0.00e+00	0	25	0	696254464	72	4721
2026-01-07 10:46:22.17	247.78	47.34	-53.5	-55.6	14.2	0.00e+00	0	25	0	697303040	72	4813
2026-01-07 10:46:23.18	248.37	47.40	-53.6	-55.6	14.2	0.00e+00	0	25	0	699400192	72	4812
2026-01-07 10:46:24.18	248.94	47.46	-53.4	-55.4	14.3	0.00e+00	0	25	0	701497344	72	4703
2026-01-07 10:46:25.19	249.53	47.51	-53.3	-55.3	14.4	0.00e+00	0	25	0	703594496	72	4606
2026-01-07 10:46:26.20	250.12	47.57	-53.3	-55.2	14.5	0.00e+00	0	25	0	705691648	72	4597
2026-01-07 10:46:27.21	250.70	47.61	-53.5	-55.6	14.3	0.00e+00	0	25	0	706740224	72	4811
2026-01-07 10:46:28.22	251.29	47.66	-53.9	-56.2	14.1	0.00e+00	0	25	0	708837376	73	4826
2026-01-07 10:46:29.23	251.89	47.70	-54.3	-56.7	13.9	0.00e+00	0	25	0	710934528	73	5114
2026-01-07 10:46:30.23	252.48	47.74	-53.8	-56.0	14.2	0.00e+00	0	25	0	713031680	73	4749
2026-01-07 10:46:31.24	253.07	47.78	-53.5	-55.5	14.4	0.00e+00	0	25	0	715128832	73	4487
2026-01-07 10:46:32.24	253.66	47.81	-53.3	-55.3	14.5	0.00e+00	0	25	0	716177408	73	4359
2026-01-07 10:46:33.25	254.26	47.84	-53.4	-55.4	14.5	0.00e+00	0	25	0	718274560	73	4418
2026-01-07 10:46:34.26	254.86	47.86	-53.5	-55.6	14.4	0.00e+00	0	26	0	720371712	73	4516
2026-01-07 10:46:35.26	255.45	47.89	-53.6	-55.7	14.4	0.00e+00	0	25	0	722468864	73	4550
2026-01-07 10:46:36.20	256.01	47.90	-53.3	-55.3	14.5	0.00e+00	0	25	0	724566016	73	4388
2026-01-07 10:46:37.21	256.61	47.92	-53.2	-55.1	14.6	0.00e+00	0	25	0	725614592	73	4283
2026-01-07 10:46:38.21	257.21	47.93	-52.9	-54.8	14.6	0.00e+00	0	25	0	727711744	72	4381
2026-01-07 10:46:39.22	257.81	47.94	-52.6	-54.4	14.7	0.00e+00	0	25	0	729808896	71	4407
2026-01-07 10:46:40.23	258.41	47.95	-52.6	-54.4	14.7	0.00e+00	0	25	0	731906048	71	4418
2026-01-07 10:46:41.23	259.01	47.95	-52.7	-54.5	14.6	0.00e+00	0	25	0	734003200	71	4483
2026-01-07 10:46:42.24	259.61	47.95	-52.9	-54.8	14.5	0.00e+00	0	25	0	735051776	71	4623
2026-01-07 10:46:43.25	260.21	47.95	-53.0	-54.9	14.5	0.00e+00	0	25	0	737148928	71	4667
2026-01-07 10:46:44.26	260.82	47.94	-53.0	-54.9	14.5	0.00e+00	0	25	0	739246080	71	4673
2026-01-07 10:46:45.27	261.42	47.93	-53.1	-55.0	14.4	0.00e+00	0	25	0	741343232	71	4741
2026-01-07 10:46:46.27	262.01	47.92	-53.3	-55.4	14.3	0.00e+00	0	25	0	743440384	71	4938
2026-01-07 10:46:47.28	262.61	47.90	-53.4	-55.5	14.3	0.00e+00	0	25	0	744488960	72	4717
2026-01-07 10:46:48.29	263.21	47.88	-53.5	-55.6	14.2	0.00e+00	0	25	0	746586112	72	4814
2026-01-07 10:46:49.30	263.81	47.85	-53.5	-55.5	14.3	0.00e+00	0	25	0	748683264	72	4741
2026-01-07 10:46:50.30	264.41	47.83	-53.4	-55.5	14.3	0.00e+00	0	25	0	750780416	72	4730
2026-01-07 10:46:51.30	265.00	47.80	-53.4	-55.4	14.4	0.00e+00	0	25	0	752877568	72	4701
2026-01-07 10:46:52.31	265.59	47.76	-53.5	-55.6	14.2	0.00e+00	0	25	0	753926144	72	4777
2026-01-07 10:46:53.32	266.19	47.73	-53.2	-55.2	14.5	0.00e+00	0	26	0	756023296	72	4577
2026-01-07 10:46:54.33	266.78	47.69	-53.2	-55.1	14.5	0.00e+00	0	25	0	758120448	72	4541
2026-01-07 10:46:55.34	267.37	47.64	-53.3	-55.3	14.4	0.00e+00	0	25	0	760217600	72	4607
2026-01-07 10:46:56.35	267.96	47.60	-53.4	-55.4	14.4	0.00e+00	0	26	0	762314752	72	4673
2026-01-07 10:46:57.35	268.54	47.55	-53.7	-55.9	14.1	0.00e+00	0	25	0	764411904	72	4964
2026-01-07 10:46:58.35	269.12	47.50	-53.8	-56.0	14.1	0.00e+00	0	26	0	765460480	72	5013
2026-01-07 10:46:59.36	269.71	47.44	-53.7	-55.9	14.1	0.00e+00	0	25	0	767557632	72	4965
2026-01-07 10:47:00.36	270.28	47.38	-53.3	-55.3	14.4	0.00e+00	0	25	0	769654784	72	4630
2026-01-07 10:47:01.37	270.86	47.32	-53.3	-55.3	14.4	0.00e+00	0	26	0	771751936	72	4610
2026-01-07 10:47:02.38	271.44	47.25	-53.4	-55.5	14.4	0.00e+00	0	25	0	772800512	72	4726
2026-01-07 10:47:03.39	272.02	47.19	-53.7	-55.8	14.2	0.00e+00	0	25	0	774897664	72	4915
2026-01-07 10:47:04.40	272.59	47.12	-53.6	-55.7	14.2	0.00e+00	0	25	0	776994816	72	4817
2026-01-07 10:47:05.41	273.16	47.04	-53.5	-55.5	14.3	0.00e+00	0	25	0	779091968	72	4742
2026-01-07 10:47:06.41	273.72	46.97	-53.7	-55.8	14.2	0.00e+00	0	25	0	781189120	72	4904
2026-01-07 10:47:07.42	274.28	46.89	-54.0	-56.2	14.1	0.00e+00	0	26	0	782237696	73	4851
2026-01-07 10:47:08.43	274.84	46.80	-54.4	-56.8	13.7	0.00e+00	0	25	0	784334848	73	5198
2026-01-07 10:47:09.43	275.40	46.72	-54.6	-57.1	13.7	0.00e+00	0	25	0	786432000	74	5100
2026-01-07 10:47:10.44	275.95	46.63	-54.4	-56.8	13.9	0.00e+00	0	25	0	788529152	74	4894
2026-01-07 10:47:11.45	276.50	46.54	-54.2	-56.5	14.1	0.00e+00	0	25	0	790626304	74	4731
2026-01-07 10:47:12.46	277.05	46.45	-54.2	-56.5	14.1	0.00e+00	0	25	0	792723456	74	4713
2026-01-07 10:47:13.47	277.60	46.35	-54.5	-57.0	13.8	0.00e+00	0	25	0	793772032	74	4992
2026-01-07 10:47:14.47	278.14	46.26	-55.0	-57.7	13.4	0.00e+00	0	25	0	795869184	75	5151
2026-01-07 10:47:15.48	278.67	46.15	-55.2	-58.0	13.3	0.00e+00	0	25	0	797966336	75	5312
2026-01-07 10:47:16.49	279.21	46.05	-55.1	-57.9	13.3	0.00e+00	0	25	0	800063488	75	5258
2026-01-07 10:47:17.49	279.74	45.95	-54.6	-57.0	13.9	0.00e+00	0	25	0	801112064	75	4750
2026-01-07 10:47:18.50	280.27	45.84	-54.2	-56.5	14.2	0.00e+00	0	25	0	803209216	75	4449
2026-01-07 10:47:19.51	280.79	45.73	-54.1	-56.3	14.2	0.00e+00	0	25	0	805306368	74	4637
2026-01-07 10:47:20.51	281.31	45.62	-54.3	-56.6	14.0	0.00e+00	0	25	0	807403520	74	4804
2026-01-07 10:47:21.52	281.82	45.50	-54.5	-56.9	13.8	0.00e+00	0	25	0	809500672	74	4973
2026-01-07 10:47:22.53	282.34	45.39	-54.2	-56.5	14.1	0.00e+00	0	25	0	810549248	74	4731
2026-01-07 10:47:23.54	282.85	45.27	-54.1	-56.3	14.1	0.00e+00	0	26	0	812646400	74	4646
2026-01-07 10:47:24.55	283.35	45.15	-54.1	-56.4	14.2	0.00e+00	0	25	0	814743552	74	4660
2026-01-07 10:47:25.55	283.85	45.03	-54.4	-56.8	13.9	0.00e+00	0	25	0	816840704	74	4901
2026-01-07 10:47:26.56	284.35	44.90	-54.1	-56.4	14.1	0.00e+00	0	25	0	818937856	74	4664
2026-01-07 10:47:27.57	284.84	44.77	-53.3	-55.3	14.6	0.00e+00	0	25	0	821035008	73	4389
2026-01-07 10:47:28.58	285.33	44.65	-53.1	-55.1	14.5	0.00e+00	0	25	0	822083584	72	4524
2026-01-07 10:47:29.59	285.82	44.51	-52.8	-54.6	14.8	0.00e+00	0	25	0	824180736	72	4267
2026-01-07 10:47:30.59	286.30	44.38	-52.8	-54.6	14.6	0.00e+00	0	25	0	826277888	71	4538
2026-01-07 10:47:31.59	286.77	44.25	-52.8	-54.7	14.6	0.00e+00	0	25	0	828375040	71	4586
2026-01-07 10:47:32.59	287.24	44.12	-52.8	-54.7	14.6	0.00e+00	0	25	0	829423616	71	4560
2026-01-07 10:47:33.60	287.71	43.98	-52.5	-54.3	14.7	0.00e+00	0	25	0	831520768	71	4390
2026-01-07 10:47:34.61	288.18	43.84	-52.3	-54.0	14.9	0.00e+00	0	25	0	833617920	71	4199
2026-01-07 10:47:35.61	288.64	43.70	-52.1	-53.8	14.9	0.00e+00	0	25	0	835715072	70	4380
2026-01-07 10:47:36.62	289.10	43.56	-52.1	-53.7	14.9	0.00e+00	0	25	0	837812224	70	4339
2026-01-07 10:47:37.63	289.55	43.42	-52.2	-53.9	14.9	0.00e+00	0	25	0	838860800	70	4402
2026-01-07 10:47:38.63	290.00	43.27	-51.7	-53.3	15.1	0.00e+00	0	25	0	840957952	70	4110
2026-01-07 10:47:39.64	290.45	43.13	-51.4	-52.9	15.1	0.00e+00	0	25	0	843055104	69	4181
2026-01-07 10:47:40.65	290.89	42.98	-51.5	-53.0	15.1	0.00e+00	0	25	0	845152256	69	4234
2026-01-07 10:47:41.66	291.33	42.83	-51.5	-53.0	15.1	0.00e+00	0	25	0	847249408	69	4232
2026-01-07 10:47:42.67	291.76	42.68	-51.4	-52.9	15.1	0.00e+00	0	25	0	849346560	69	4177
2026-01-07 10:47:43.67	292.19	42.53	-51.1	-52.6	15.1	0.00e+00	0	25	0	850395136	68	4282
2026-01-07 10:47:44.68	292.62	42.38	-51.0	-52.5	15.2	0.00e+00	0	25	0	852492288	68	4199
2026-01-07 10:47:45.68	293.03	42.23	-51.1	-52.7	15.1	0.00e+00	0	25	0	854589440	68	4306
2026-01-07 10:47:46.69	293.45	42.07	-51.2	-52.8	15.0	0.00e+00	0	25	0	856686592	68	4354
2026-01-07 10:47:47.70	293.87	41.92	-51.1	-52.6	15.1	0.00e+00	0	25	0	858783744	68	4267
2026-01-07 10:47:48.71	294.28	41.76	-51.1	-52.6	15.1	0.00e+00	0	25	0	859832320	68	4246
2026-01-07 10:47:49.71	294.68	41.61	-51.1	-52.6	15.1	0.00e+00	0	25	0	861929472	68	4277
2026-01-07 10:47:50.72	295.08	41.45	-51.2	-52.8	15.0	0.00e+00	0	25	0	864026624	68	4343
2026-01-07 10:47:51.73	295.48	41.29	-51.6	-53.2	14.9	0.00e+00	0	25	0	866123776	68	4561
2026-01-07 10:47:52.74	295.88	41.13	-52.1	-53.9	14.7	0.00e+00	0	25	0	867172352	69	4672
2026-01-07 10:47:53.75	296.27	40.97	-52.3	-54.2	14.6	0.00e+00	0	25	0	869269504	69	4815
2026-01-07 10:47:54.76	296.66	40.81	-52.1	-53.9	14.7	0.00e+00	0	25	0	871366656	69	4667
2026-01-07 10:47:55.76	297.04	40.65	-51.9	-53.6	14.8	0.00e+00	0	25	0	873463808	69	4510
2026-01-07 10:47:56.77	297.42	40.49	-52.1	-53.8	14.7	0.00e+00	0	25	0	875560960	69	4638
2026-01-07 10:47:57.78	297.79	40.32	-53.0	-54.9	14.4	0.00e+00	0	25	0	877658112	71	4703
2026-01-07 10:47:58.78	298.16	40.16	-53.6	-55.7	14.2	0.00e+00	0	25	0	878706688	72	4850
2026-01-07 10:47:59.79	298.53	40.00	-53.0	-54.9	14.6	0.00e+00	0	25	0	880803840	72	4417
2026-01-07 10:48:00.79	298.89	39.83	-52.3	-54.0	14.9	0.00e+00	0	25	0	882900992	71	4207
2026-01-07 10:48:01.79	299.25	39.67	-51.9	-53.6	15.0	0.00e+00	0	25	0	884998144	70	4258
2026-01-07 10:48:02.80	299.61	39.50	-52.1	-53.7	14.9	0.00e+00	0	25	0	887095296	70	4338
2026-01-07 10:48:03.81	299.97	39.34	-52.8	-54.6	14.5	0.00e+00	0	25	0	888143872	70	4802
2026-01-07 10:48:04.81	300.31	39.17	-53.4	-55.5	14.3	0.00e+00	0	25	0	890241024	72	4713
2026-01-07 10:48:05.82	300.66	39.01	-53.5	-55.6	14.3	0.00e+00	0	25	0	892338176	72	4791
2026-01-07 10:48:06.83	301.00	38.84	-52.7	-54.5	14.8	0.00e+00	0	25	0	894435328	72	4241
2026-01-07 10:48:07.84	301.34	38.67	-52.0	-53.7	14.9	0.00e+00	0	25	0	895483904	70	4313
2026-01-07 10:48:08.85	301.68	38.50	-51.8	-53.4	15.0	0.00e+00	0	25	0	897581056	70	4192
2026-01-07 10:48:09.86	302.02	38.34	-52.3	-54.0	14.8	0.00e+00	0	25	0	899678208	70	4485
2026-01-07 10:48:10.86	302.34	38.17	-53.6	-55.7	14.2	0.00e+00	0	25	0	901775360	72	4833
2026-01-07 10:48:11.87	302.67	38.00	-53.9	-56.2	14.1	0.00e+00	0	25	0	903872512	73	4835
2026-01-07 10:48:12.88	302.99	37.83	-52.9	-54.8	14.7	0.00e+00	0	25	0	905969664	72	4387
2026-01-07 10:48:13.89	303.31	37.67	-52.0	-53.6	14.9	0.00e+00	0	25	0	907018240	70	4285
2026-01-07 10:48:14.90	303.63	37.50	-51.8	-53.5	15.0	0.00e+00	0	25	0	909115392	70	4194
2026-01-07 10:48:15.90	303.94	37.33	-52.4	-54.1	14.7	0.00e+00	0	25	0	911212544	70	4531
2026-01-07 10:48:16.90	304.25	37.16	-53.7	-55.8	14.2	0.00e+00	0	25	0	913309696	72	4916
2026-01-07 10:48:17.91	304.56	36.99	-54.7	-57.3	13.6	0.00e+00	0	25	0	915406848	74	5168
2026-01-07 10:48:18.92	304.86	36.82	-54.3	-56.7	13.9	0.00e+00	0	25	0	916455424	74	4842
2026-01-07 10:48:19.92	305.16	36.66	-53.4	-55.5	14.5	0.00e+00	0	25	0	918552576	73	4444
2026-01-07 10:48:20.93	305.46	36.49	-53.0	-54.9	14.6	0.00e+00	0	25	0	920649728	72	4411
2026-01-07 10:48:21.94	305.75	36.32	-53.0	-54.9	14.6	0.00e+00	0	26	0	922746880	72	4418
2026-01-07 10:48:22.95	306.04	36.15	-53.1	-55.1	14.5	0.00e+00	0	25	0	924844032	72	4522
2026-01-07 10:48:23.95	306.33	35.98	-53.9	-56.1	14.0	0.00e+00	0	25	0	925892608	72	5089
2026-01-07 10:48:24.96	306.62	35.81	-55.0	-57.7	13.5	0.00e+00	0	25	0	927989760	75	5148
2026-01-07 10:48:25.97	306.90	35.65	-55.6	-58.7	13.0	0.00e+00	0	25	0	930086912	76	5460
2026-01-07 10:48:26.97	307.18	35.48	-55.1	-57.8	13.5	0.00e+00	0	25	0	932184064	76	4915
2026-01-07 10:48:27.98	307.46	35.31	-54.1	-56.4	14.2	0.00e+00	0	25	0	934281216	74	4676
2026-01-07 10:48:28.98	307.73	35.15	-53.4	-55.4	14.4	0.00e+00	0	25	0	935329792	73	4431
2026-01-07 10:48:29.99	308.00	34.98	-52.8	-54.6	14.8	0.00e+00	0	25	0	937426944	72	4251
2026-01-07 10:48:30.99	308.27	34.81	-53.0	-54.9	14.6	0.00e+00	0	25	0	939524096	72	4419
2026-01-07 10:48:32.00	308.54	34.64	-53.7	-55.9	14.1	0.00e+00	0	25	0	941621248	72	4953
2026-01-07 10:48:33.01	308.80	34.48	-54.8	-57.5	13.5	0.00e+00	0	25	0	943718400	74	5280
2026-01-07 10:48:34.02	309.06	34.31	-54.5	-57.0	13.7	0.00e+00	0	25	0	944766976	74	5041
2026-01-07 10:48:35.02	309.32	34.14	-53.9	-56.1	14.2	0.00e+00	0	25	0	946864128	74	4533
2026-01-07 10:48:36.03	309.57	33.98	-53.0	-54.9	14.6	0.00e+00	0	25	0	948961280	72	4392
2026-01-07 10:48:37.03	309.83	33.81	-52.6	-54.4	14.7	0.00e+00	0	25	0	951058432	71	4427
2026-01-07 10:48:38.04	310.08	33.65	-52.6	-54.5	14.7	0.00e+00	0	25	0	952107008	71	4448
2026-01-07 10:48:39.04	310.32	33.48	-52.5	-54.3	14.7	0.00e+00	0	25	0	954204160	71	4380
2026-01-07 10:48:40.05	310.57	33.32	-53.2	-55.2	14.3	0.00e+00	0	25	0	956301312	71	4832
2026-01-07 10:48:41.06	310.81	33.15	-54.2	-56.5	13.9	0.00e+00	0	25	0	958398464	73	5028
2026-01-07 10:48:42.07	311.06	32.99	-55.2	-58.1	13.2	0.00e+00	0	25	0	960495616	75	5378
2026-01-07 10:48:43.07	311.29	32.83	-55.5	-58.4	13.1	0.00e+00	0	25	0	962592768	76	5274
2026-01-07 10:48:44.08	311.53	32.66	-54.9	-57.6	13.6	0.00e+00	0	25	0	963641344	76	4771
2026-01-07 10:48:45.09	311.76	32.50	-54.3	-56.6	14.1	0.00e+00	0	25	0	965738496	75	4544
2026-01-07 10:48:46.10	312.00	32.34	-54.1	-56.4	14.1	0.00e+00	0	25	0	967835648	74	4655
2026-01-07 10:48:47.11	312.23	32.17	-53.5	-55.6	14.4	0.00e+00	0	25	0	969932800	73	4516
2026-01-07 10:48:48.11	312.45	32.01	-53.3	-55.3	14.6	0.00e+00	0	25	0	972029952	73	4353
2026-01-07 10:48:49.12	312.68	31.85	-53.7	-55.8	14.3	0.00e+00	0	25	0	973078528	73	4616
2026-01-07 10:48:50.13	312.90	31.69	-54.7	-57.3	13.5	0.00e+00	0	25	0	975175680	74	5197
2026-01-07 10:48:51.14	313.12	31.53	-56.0	-59.4	12.5	0.00e+00	0	25	0	977272832	77	5544
2026-01-07 10:48:52.14	313.34	31.37	-56.7	-60.8	11.6	2.20e-06	0	25	0	979369984	78	6197
2026-01-07 10:48:53.15	313.56	31.21	-56.3	-60.1	12.2	6.80e-06	0	25	0	981467136	78	5665
2026-01-07 10:48:54.16	313.77	31.05	-55.3	-58.2	13.3	0.00e+00	0	25	0	982515712	77	4868
2026-01-07 10:48:55.16	313.98	30.89	-54.3	-56.7	14.0	0.00e+00	0	25	0	984612864	75	4580
2026-01-07 10:48:56.17	314.19	30.73	-53.8	-56.0	14.3	0.00e+00	0	25	0	986710016	74	4465
2026-01-07 10:48:57.18	314.40	30.58	-53.3	-55.3	14.5	0.00e+00	0	25	0	988807168	73	4390
2026-01-07 10:48:58.19	314.61	30.42	-52.9	-54.8	14.6	0.00e+00	0	25	0	990904320	72	4381
2026-01-07 10:48:59.19	314.81	30.26	-52.7	-54.5	14.8	0.00e+00	0	25	0	991952896	72	4238
2026-01-07 10:49:00.20	315.01	30.10	-52.6	-54.4	14.7	0.00e+00	0	25	0	994050048	71	4438
2026-01-07 10:49:01.20	315.21	29.95	-53.2	-55.3	14.3	0.00e+00	0	25	0	996147200	71	4877
2026-01-07 10:49:02.21	315.41	29.79	-53.8	-56.1	14.0	0.00e+00	0	25	0	998244352	72	5049
2026-01-07 10:49:03.22	315.61	29.64	-54.2	-56.5	13.8	0.00e+00	0	25	0	1000341504	73	5035
2026-01-07 10:49:04.23	315.80	29.48	-54.0	-56.4	13.9	0.00e+00	0	25	0	1001390080	73	4937
2026-01-07 10:49:05.23	316.00	29.33	-53.7	-55.9	14.2	0.00e+00	0	25	0	1003487232	73	4657
2026-01-07 10:49:06.24	316.19	29.18	-53.5	-55.6	14.4	0.00e+00	0	25	0	1005584384	73	4499
2026-01-07 10:49:07.25	316.38	29.02	-53.4	-55.4	14.4	0.00e+00	0	25	0	1007681536	73	4430
2026-01-07 10:49:08.26	316.57	28.87	-53.3	-55.3	14.5	0.00e+00	0	25	0	1009778688	73	4382
2026-01-07 10:49:09.26	316.75	28.72	-52.8	-54.7	14.7	0.00e+00	0	25	0	1010827264	72	4338
2026-01-07 10:49:10.27	316.93	28.57	-53.1	-55.1	14.5	0.00e+00	0	25	0	1012924416	72	4533
2026-01-07 10:49:11.27	317.12	28.42	-53.3	-55.4	14.3	0.00e+00	0	25	0	1015021568	72	4673
2026-01-07 10:49:12.28	317.30	28.27	-53.6	-55.7	14.2	0.00e+00	0	25	0	1017118720	72	4851
2026-01-07 10:49:13.29	317.48	28.12	-53.8	-56.1	14.0	0.00e+00	0	25	0	1019215872	72	5087
2026-01-07 10:49:14.30	317.66	27.97	-53.6	-55.8	14.1	0.00e+00	0	25	0	1020264448	72	4907
2026-01-07 10:49:15.31	317.83	27.82	-53.4	-55.5	14.3	0.00e+00	0	25	0	1022361600	72	4731
2026-01-07 10:49:16.32	318.01	27.67	-53.1	-55.0	14.5	0.00e+00	0	25	0	1024458752	72	4486
2026-01-07 10:49:17.32	318.18	27.52	-52.9	-54.8	14.7	0.00e+00	0	25	0	1026555904	72	4350
2026-01-07 10:49:18.33	318.35	27.37	-52.3	-54.0	14.9	0.00e+00	0	25	0	1028653056	71	4234
2026-01-07 10:49:19.33	318.52	27.23	-51.5	-53.1	15.0	0.00e+00	0	25	0	1029701632	69	4288
2026-01-07 10:49:20.35	318.69	27.08	-51.1	-52.6	15.1	0.00e+00	0	25	0	1031798784	68	4290
2026-01-07 10:49:21.36	318.86	26.93	-51.2	-52.7	15.0	0.00e+00	0	25	0	1033895936	68	4330
2026-01-07 10:49:22.36	319.02	26.79	-51.4	-53.0	14.9	0.00e+00	0	25	0	1035993088	68	4459
2026-01-07 10:49:23.37	319.19	26.65	-51.6	-53.3	14.8	0.00e+00	0	25	0	1038090240	68	4606
2026-01-07 10:49:24.38	319.35	26.50	-51.9	-53.6	14.6	0.00e+00	0	25	0	1039138816	68	4790
2026-01-07 10:49:25.39	319.51	26.36	-52.3	-54.2	14.5	0.00e+00	0	25	0	1041235968	69	4816
2026-01-07 10:49:26.40	319.67	26.21	-52.5	-54.4	14.6	0.00e+00	0	25	0	1043333120	70	4653
2026-01-07 10:49:27.40	319.83	26.07	-52.7	-54.6	14.4	0.00e+00	0	25	0	1045430272	70	4798
2026-01-07 10:49:28.41	319.98	25.93	-52.6	-54.5	14.5	0.00e+00	0	25	0	1047527424	70	4722
2026-01-07 10:49:29.42	320.14	25.79	-52.5	-54.4	14.6	0.00e+00	0	25	0	1048576000	70	4664
2026-01-07 10:49:30.42	320.29	25.65	-52.5	-54.3	14.6	0.00e+00	0	25	0	1050673152	70	4635
2026-01-07 10:49:31.43	320.45	25.51	-52.2	-54.0	14.7	0.00e+00	0	25	0	1052770304	70	4451
2026-01-07 10:49:32.43	320.60	25.37	-52.3	-54.1	14.7	0.00e+00	0	25	0	1054867456	70	4515
2026-01-07 10:49:33.44	320.75	25.23	-52.2	-54.0	14.8	0.00e+00	0	25	0	1056964608	70	4442
2026-01-07 10:49:34.45	320.90	25.09	-52.2	-54.0	14.7	0.00e+00	0	25	0	1058013184	70	4465
2026-01-07 10:49:35.45	321.04	24.95	-52.2	-54.0	14.7	0.00e+00	0	25	0	1060110336	70	4478
2026-01-07 10:49:36.46	321.19	24.81	-52.0	-53.8	14.8	0.00e+00	0	25	0	1062207488	70	4347
2026-01-07 10:49:37.46	321.34	24.68	-51.9	-53.6	14.9	0.00e+00	0	25	0	1064304640	70	4253
2026-01-07 10:49:38.47	321.48	24.54	-52.0	-53.7	14.9	0.00e+00	0	25	0	1066401792	70	4326
2026-01-07 10:49:39.48	321.62	24.41	-52.0	-53.7	14.9	0.00e+00	0	25	0	1067450368	70	4306
2026-01-07 10:49:40.49	321.77	24.27	-52.0	-53.8	14.8	0.00e+00	0	25	0	1069547520	70	4346
2026-01-07 10:49:41.49	321.91	24.14	-52.2	-54.0	14.7	0.00e+00	0	25	0	1071644672	70	4462
2026-01-07 10:49:42.50	322.04	24.00	-52.5	-54.4	14.6	0.00e+00	0	25	0	1073741824	70	4660
2026-01-07 10:49:43.51	322.18	23.87	-52.7	-54.7	14.4	0.00e+00	0	25	0	1075838976	70	4815
2026-01-07 10:49:44.52	322.32	23.73	-53.1	-55.2	14.3	0.00e+00	0	25	0	1076887552	71	4822
2026-01-07 10:49:45.52	322.46	23.60	-53.3	-55.5	14.2	0.00e+00	0	25	0	1078984704	71	4986
2026-01-07 10:49:46.53	322.59	23.47	-53.3	-55.5	14.2	0.00e+00	0	25	0	1081081856	71	4997
2026-01-07 10:49:47.54	322.73	23.34	-53.3	-55.5	14.2	0.00e+00	0	25	0	1083179008	72	4736
2026-01-07 10:49:48.55	322.86	23.20	-53.2	-55.4	14.3	0.00e+00	0	25	0	1085276160	72	4653
2026-01-07 10:49:49.55	322.99	23.07	-53.3	-55.4	14.3	0.00e+00	0	25	0	1086324736	72	4655
2026-01-07 10:49:50.56	323.12	22.94	-52.9	-54.9	14.5	0.00e+00	0	25	0	1088421888	72	4424
2026-01-07 10:49:51.57	323.25	22.81	-52.6	-54.5	14.6	0.00e+00	0	25	0	1090519040	71	4470
2026-01-07 10:49:52.58	323.38	22.68	-52.5	-54.4	14.6	0.00e+00	0	25	0	1092616192	71	4428
2026-01-07 10:49:53.59	323.51	22.55	-52.3	-54.1	14.8	0.00e+00	0	25	0	1094713344	71	4286
2026-01-07 10:49:54.60	323.63	22.43	-52.3	-54.1	14.8	0.00e+00	0	25	0	1095761920	71	4281
2026-01-07 10:49:55.60	323.76	22.30	-52.3	-54.1	14.8	0.00e+00	0	25	0	1097859072	71	4256
2026-01-07 10:49:56.61	323.88	22.17	-52.4	-54.2	14.8	0.00e+00	0	25	0	1099956224	71	4308
2026-01-07 10:49:57.62	324.01	22.04	-52.4	-54.3	14.7	0.00e+00	0	25	0	1102053376	71	4365
2026-01-07 10:49:58.63	324.13	21.92	-52.6	-54.5	14.6	0.00e+00	0	25	0	1104150528	71	4444
2026-01-07 10:49:59.63	324.25	21.79	-52.6	-54.5	14.6	0.00e+00	0	25	0	1105199104	71	4482
2026-01-07 10:50:00.64	324.37	21.67	-52.7	-54.6	14.5	0.00e+00	0	25	0	1107296256	71	4540
2026-01-07 10:50:01.65	324.49	21.54	-52.6	-54.5	14.6	0.00e+00	0	25	0	1109393408	71	4481
2026-01-07 10:50:02.65	324.61	21.42	-52.5	-54.4	14.6	0.00e+00	0	25	0	1111490560	71	4421
2026-01-07 10:50:03.66	324.73	21.30	-52.5	-54.4	14.7	0.00e+00	0	25	0	1113587712	71	4425
2026-01-07 10:50:04.67	324.84	21.17	-52.5	-54.3	14.6	0.00e+00	0	25	0	1114636288	71	4373
2026-01-07 10:50:05.68	324.96	21.05	-52.4	-54.2	14.7	0.00e+00	0	25	0	1116733440	71	4339
2026-01-07 10:50:06.69	325.08	20.93	-52.2	-54.0	14.8	0.00e+00	0	25	0	1118830592	71	4233
2026-01-07 10:50:07.69	325.19	20.81	-52.2	-53.9	14.7	0.00e+00	0	25	0	1120927744	70	4440
2026-01-07 10:50:08.70	325.30	20.68	-52.2	-54.1	14.7	0.00e+00	0	25	0	1123024896	70	4494
2026-01-07 10:50:09.71	325.42	20.56	-52.1	-53.8	14.7	0.00e+00	0	25	0	1124073472	70	4390
2026-01-07 10:50:10.71	325.53	20.44	-52.1	-53.9	14.7	0.00e+00	0	25	0	1126170624	70	4407
2026-01-07 10:50:11.72	325.64	20.32	-52.2	-54.0	14.7	0.00e+00	0	25	0	1128267776	70	4463
2026-01-07 10:50:12.73	325.75	20.20	-52.1	-53.9	14.7	0.00e+00	0	25	0	1130364928	70	4416
2026-01-07 10:50:13.73	325.86	20.09	-52.2	-54.0	14.7	0.00e+00	0	25	0	1132462080	70	4476
2026-01-07 10:50:14.74	325.97	19.97	-52.2	-54.0	14.7	0.00e+00	0	25	0	1133510656	70	4484
2026-01-07 10:50:15.75	326.07	19.85	-52.3	-54.2	14.6	0.00e+00	0	25	0	1135607808	70	4547
2026-01-07 10:50:16.76	326.18	19.73	-52.3	-54.2	14.6	0.00e+00	0	25	0	1137704960	70	4547
2026-01-07 10:50:17.76	326.29	19.61	-52.3	-54.2	14.6	0.00e+00	0	25	0	1139802112	70	4570
2026-01-07 10:50:18.77	326.39	19.50	-52.5	-54.4	14.5	0.00e+00	0	25	0	1141899264	70	4652
2026-01-07 10:50:19.78	326.50	19.38	-52.5	-54.5	14.5	0.00e+00	0	25	0	1142947840	70	4710
2026-01-07 10:50:20.78	326.60	19.27	-52.7	-54.6	14.4	0.00e+00	0	25	0	1145044992	70	4811
2026-01-07 10:50:21.79	326.70	19.15	-52.7	-54.7	14.4	0.00e+00	0	25	0	1147142144	70	4817
2026-01-07 10:50:22.79	326.81	19.04	-52.8	-54.8	14.3	0.00e+00	0	25	0	1149239296	70	4913
2026-01-07 10:50:23.80	326.91	18.92	-52.9	-55.0	14.2	0.00e+00	0	25	0	1151336448	70	4995
2026-01-07 10:50:24.81	327.01	18.81	-53.0	-55.1	14.3	0.00e+00	0	25	0	1152385024	71	4773
2026-01-07 10:50:25.82	327.11	18.69	-52.9	-55.0	14.3	0.00e+00	0	25	0	1154482176	71	4728
2026-01-07 10:50:26.83	327.21	18.58	-53.0	-55.1	14.3	0.00e+00	0	25	0	1156579328	71	4785
2026-01-07 10:50:27.84	327.31	18.47	-52.9	-54.9	14.3	0.00e+00	0	25	0	1158676480	71	4696
2026-01-07 10:50:28.85	327.41	18.36	-52.9	-54.9	14.3	0.00e+00	0	25	0	1160773632	71	4702
2026-01-07 10:50:29.85	327.50	18.24	-52.7	-54.7	14.4	0.00e+00	0	25	0	1161822208	71	4592
2026-01-07 10:50:30.86	327.60	18.13	-52.7	-54.7	14.5	0.00e+00	0	25	0	1163919360	71	4577
2026-01-07 10:50:31.87	327.70	18.02	-52.7	-54.7	14.5	0.00e+00	0	25	0	1166016512	71	4563
2026-01-07 10:50:32.87	327.79	17.91	-52.7	-54.7	14.4	0.00e+00	0	25	0	1168113664	71	4585
2026-01-07 10:50:33.88	327.89	17.80	-52.6	-54.6	14.5	0.00e+00	0	25	0	1170210816	71	4525
2026-01-07 10:50:34.89	327.98	17.69	-52.7	-54.7	14.5	0.00e+00	0	25	0	1171259392	71	4553
2026-01-07 10:50:35.89	328.07	17.58	-52.7	-54.6	14.5	0.00e+00	0	25	0	1173356544	71	4539
2026-01-07 10:50:36.90	328.17	17.47	-52.6	-54.6	14.5	0.00e+00	0	25	0	1175453696	71	4508
2026-01-07 10:50:37.90	328.26	17.37	-52.6	-54.6	14.5	0.00e+00	0	25	0	1177550848	71	4511
2026-01-07 10:50:38.91	328.35	17.26	-52.7	-54.6	14.5	0.00e+00	0	25	0	1179648000	71	4533
2026-01-07 10:50:39.91	328.44	17.15	-52.7	-54.7	14.5	0.00e+00	0	25	0	1180696576	71	4549
2026-01-07 10:50:40.92	328.53	17.04	-52.7	-54.8	14.4	0.00e+00	0	25	0	1182793728	71	4604
2026-01-07 10:50:41.92	328.62	16.94	-52.8	-54.8	14.4	0.00e+00	0	25	0	1184890880	71	4615
2026-01-07 10:50:42.93	328.71	16.83	-52.7	-54.7	14.4	0.00e+00	0	25	0	1186988032	71	4576
2026-01-07 10:50:43.94	328.80	16.73	-52.7	-54.7	14.4	0.00e+00	0	25	0	1189085184	71	4596
2026-01-07 10:50:44.95	328.89	16.62	-52.7	-54.7	14.4	0.00e+00	0	25	0	1190133760	71	4591
2026-01-07 10:50:45.95	328.97	16.52	-52.6	-54.6	14.5	0.00e+00	0	25	0	1192230912	71	4529
2026-01-07 10:50:46.96	329.06	16.41	-52.6	-54.6	14.5	0.00e+00	0	25	0	1194328064	71	4537
2026-01-07 10:50:47.96	329.15	16.31	-52.6	-54.6	14.5	0.00e+00	0	25	0	1196425216	71	4505
2026-01-07 10:50:48.97	329.23	16.20	-52.6	-54.6	14.5	0.00e+00	0	25	0	1198522368	71	4495
2026-01-07 10:50:49.98	329.32	16.10	-52.6	-54.6	14.5	0.00e+00	0	25	0	1199570944	71	4528
2026-01-07 10:50:50.98	329.40	16.00	-52.6	-54.5	14.5	0.00e+00	0	25	0	1201668096	71	4482
2026-01-07 10:50:51.99	329.48	15.89	-52.5	-54.5	14.5	0.00e+00	0	25	0	1203765248	71	4463
2026-01-07 10:50:52.99	329.57	15.79	-52.5	-54.5	14.6	0.00e+00	0	25	0	1205862400	71	4450
2026-01-07 10:50:54.00	329.65	15.69	-52.4	-54.3	14.6	0.00e+00	0	25	0	1207959552	71	4385
2026-01-07 10:50:55.01	329.73	15.59	-52.5	-54.4	14.6	0.00e+00	0	25	0	1209008128	71	4433
2026-01-07 10:50:56.02	329.82	15.49	-52.5	-54.4	14.6	0.00e+00	0	25	0	1211105280	71	4420
2026-01-07 10:50:57.02	329.90	15.39	-52.4	-54.3	14.6	0.00e+00	0	25	0	1213202432	71	4362
2026-01-07 10:50:58.03	329.98	15.29	-52.5	-54.4	14.6	0.00e+00	0	25	0	1215299584	71	4415
2026-01-07 10:50:59.04	330.06	15.19	-52.5	-54.5	14.5	0.00e+00	0	25	0	1217396736	71	4463
2026-01-07 10:51:00.04	330.14	15.09	-52.6	-54.5	14.5	0.00e+00	0	25	0	1218445312	71	4480
2026-01-07 10:51:01.05	330.22	14.99	-52.6	-54.6	14.5	0.00e+00	0	25	0	1220542464	71	4542
2026-01-07 10:51:02.06	330.30	14.89	-52.7	-54.7	14.5	0.00e+00	0	25	0	1222639616	71	4559
2026-01-07 10:51:03.07	330.37	14.79	-52.6	-54.7	14.4	0.00e+00	0	25	0	1224736768	71	4551
2026-01-07 10:51:04.08	330.45	14.69	-52.7	-54.8	14.4	0.00e+00	0	25	0	1226833920	71	4608
2026-01-07 10:51:05.07	330.53	14.59	-52.8	-54.9	14.3	0.00e+00	0	25	0	1227882496	71	4658
2026-01-07 10:51:06.09	330.61	14.49	-52.9	-55.0	14.3	0.00e+00	0	25	0	1229979648	71	4709
2026-01-07 10:51:07.09	330.68	14.40	-53.0	-55.1	14.2	0.00e+00	0	25	0	1232076800	71	4778
2026-01-07 10:51:08.09	330.76	14.30	-53.0	-55.2	14.1	0.00e+00	0	25	0	1234173952	71	4847
