passes_logs/2026/01/07/R3.2S_Murmansk/R3.2S_Murmansk__20260107_094814_TY-42_rec.log

#Pass ID: 20260107_094814_TY-42
#Satellite: TY-42
#Configuration: TY-42_900M
#almurnet v.1.7.20251203
#Start time: 2026-01-07 09:48:16

#Version: 2.2.20231116
#Station: R3.2S_Murmansk
#Location: 33.079688 lon 68.888172 lat
#TLE: 1 64048U 25103A   26007.22115741  .00008010  00000-0  38191-3 0 09995
#TLE: 2 64048 097.4112 082.7846 0001819 091.9666 052.8694 15.19168316 35631

#Time	Az	El	Level	Level2	SNR	BER	BlckErr	Temp	State	Recorded	gain1	gain2
2026-01-07 09:48:16.15	21.06	2.09	-57.2	-60.4	6.1	0.00e+00	0	30	0	0	81	20626
2026-01-07 09:48:17.16	21.05	2.16	-57.2	-60.5	6.2	0.00e+00	0	30	104	0	81	20685
2026-01-07 09:48:18.17	21.03	2.23	-57.3	-60.5	6.2	0.00e+00	0	30	104	0	81	20676
2026-01-07 09:48:19.17	21.02	2.30	-57.3	-60.5	6.2	0.00e+00	0	30	104	0	81	20715
2026-01-07 09:48:20.17	21.01	2.37	-57.2	-60.5	6.2	0.00e+00	0	30	104	0	81	20668
2026-01-07 09:48:21.18	20.99	2.44	-57.2	-60.5	6.2	0.00e+00	0	30	104	0	81	20685
2026-01-07 09:48:22.19	20.98	2.51	-57.2	-60.4	6.2	0.00e+00	0	31	104	0	81	20618
2026-01-07 09:48:23.20	20.96	2.59	-57.2	-60.5	6.2	0.00e+00	0	31	104	0	81	20665
2026-01-07 09:48:24.21	20.95	2.66	-57.2	-60.5	6.2	0.00e+00	0	31	104	0	81	20689
2026-01-07 09:48:25.21	20.93	2.73	-57.2	-60.4	6.2	0.00e+00	0	31	104	0	81	20630
2026-01-07 09:48:26.22	20.92	2.80	-57.3	-60.5	6.2	0.00e+00	0	31	104	0	81	20698
2026-01-07 09:48:27.23	20.90	2.87	-57.3	-60.5	6.2	0.00e+00	0	31	104	0	81	20694
2026-01-07 09:48:28.24	20.89	2.95	-57.3	-60.5	6.2	0.00e+00	0	31	104	0	81	20754
2026-01-07 09:48:29.25	20.87	3.02	-57.3	-60.5	6.1	0.00e+00	0	31	104	0	81	20716
2026-01-07 09:48:30.26	20.86	3.09	-57.3	-60.5	6.2	0.00e+00	0	31	104	0	81	20773
2026-01-07 09:48:31.27	20.84	3.17	-57.3	-60.5	6.2	0.00e+00	0	31	104	0	81	20689
2026-01-07 09:48:32.28	20.83	3.24	-57.3	-60.5	6.2	0.00e+00	0	31	104	0	81	20733
2026-01-07 09:48:33.28	20.81	3.31	-57.3	-60.4	6.2	0.00e+00	0	31	104	0	81	20599
2026-01-07 09:48:34.29	20.80	3.39	-57.2	-60.5	6.2	0.00e+00	0	31	104	0	81	20652
2026-01-07 09:48:35.30	20.78	3.46	-57.2	-60.4	6.1	0.00e+00	0	31	104	0	81	20611
2026-01-07 09:48:36.30	20.76	3.54	-57.2	-60.4	6.2	0.00e+00	0	31	104	0	81	20507
2026-01-07 09:48:37.30	20.75	3.61	-57.2	-60.4	6.2	0.00e+00	0	31	104	0	81	20491
2026-01-07 09:48:38.31	20.73	3.69	-57.2	-60.4	6.1	0.00e+00	0	31	104	0	81	20460
2026-01-07 09:48:39.32	20.72	3.76	-57.2	-60.4	6.2	0.00e+00	0	31	104	0	81	20467
2026-01-07 09:48:40.33	20.70	3.84	-57.2	-60.4	6.2	0.00e+00	0	31	104	0	81	20475
2026-01-07 09:48:41.34	20.68	3.92	-57.2	-60.4	6.1	0.00e+00	0	31	104	0	81	20570
2026-01-07 09:48:42.35	20.66	3.99	-57.3	-60.5	6.2	0.00e+00	0	31	104	0	81	20661
2026-01-07 09:48:43.36	20.65	4.07	-57.3	-60.5	6.2	0.00e+00	0	31	104	0	81	20669
2026-01-07 09:48:44.36	20.63	4.15	-57.3	-60.5	6.1	0.00e+00	0	31	104	0	81	20704
2026-01-07 09:48:45.37	20.61	4.22	-57.3	-60.5	6.2	0.00e+00	0	31	104	0	81	20690
2026-01-07 09:48:46.37	20.60	4.30	-57.3	-60.5	6.2	0.00e+00	0	31	104	0	81	20688
2026-01-07 09:48:47.38	20.58	4.38	-57.3	-60.5	6.2	0.00e+00	0	31	104	0	81	20739
2026-01-07 09:48:48.39	20.56	4.46	-57.3	-60.5	6.2	0.00e+00	0	31	104	0	81	20754
2026-01-07 09:48:49.39	20.54	4.54	-57.3	-60.5	6.2	0.00e+00	0	31	104	0	81	20759
2026-01-07 09:48:50.39	20.52	4.61	-57.3	-60.6	6.2	0.00e+00	0	31	104	0	81	20912
2026-01-07 09:48:51.41	20.51	4.69	-57.3	-60.6	6.2	0.00e+00	0	31	104	0	81	20905
2026-01-07 09:48:52.41	20.49	4.77	-57.3	-60.5	6.2	0.00e+00	0	31	104	0	81	20871
2026-01-07 09:48:53.42	20.47	4.85	-57.3	-60.5	6.2	0.00e+00	0	31	104	0	81	20871
2026-01-07 09:48:54.43	20.45	4.93	-57.3	-60.5	6.2	0.00e+00	0	32	104	0	81	20778
2026-01-07 09:48:55.43	20.43	5.01	-57.3	-60.5	6.2	0.00e+00	0	32	104	0	81	20733
2026-01-07 09:48:56.44	20.41	5.09	-57.4	-60.7	6.2	0.00e+00	0	31	104	0	81	21183
2026-01-07 09:48:57.45	20.39	5.17	-57.5	-60.8	6.1	0.00e+00	0	32	104	0	81	21400
2026-01-07 09:48:58.46	20.37	5.26	-57.4	-60.6	6.2	0.00e+00	0	32	104	0	81	20958
2026-01-07 09:48:59.46	20.36	5.34	-57.4	-60.6	6.2	0.00e+00	0	32	104	0	81	21016
2026-01-07 09:49:00.46	20.34	5.42	-57.4	-60.6	6.2	0.00e+00	0	32	104	0	81	20935
2026-01-07 09:49:01.47	20.32	5.50	-57.4	-60.6	6.1	0.00e+00	0	32	104	0	81	20928
2026-01-07 09:49:02.47	20.30	5.58	-57.4	-60.6	6.1	0.00e+00	0	32	104	0	81	21064
2026-01-07 09:49:03.48	20.28	5.67	-57.4	-60.7	6.2	0.00e+00	0	32	104	0	81	21129
2026-01-07 09:49:04.48	20.26	5.75	-57.5	-60.6	6.2	0.00e+00	0	32	104	0	81	21090
2026-01-07 09:49:05.48	20.24	5.83	-57.4	-60.6	6.2	0.00e+00	0	32	104	0	81	21032
2026-01-07 09:49:06.48	20.21	5.91	-57.5	-60.7	6.2	0.00e+00	0	32	104	0	81	21179
2026-01-07 09:49:07.49	20.19	6.00	-57.5	-60.7	6.2	0.00e+00	0	32	104	0	81	21273
2026-01-07 09:49:08.49	20.17	6.08	-57.5	-60.8	6.2	0.00e+00	0	32	104	0	81	21363
2026-01-07 09:49:09.50	20.15	6.17	-57.5	-60.7	6.2	0.00e+00	0	32	104	0	81	21185
2026-01-07 09:49:10.50	20.13	6.25	-57.5	-60.7	6.1	0.00e+00	0	32	104	0	81	21261
2026-01-07 09:49:11.51	20.11	6.34	-57.6	-60.8	6.2	0.00e+00	0	32	104	0	81	21432
2026-01-07 09:49:12.51	20.09	6.43	-57.5	-60.8	6.2	0.00e+00	0	32	104	0	81	21387
2026-01-07 09:49:13.52	20.06	6.51	-57.5	-60.7	6.2	0.00e+00	0	32	104	0	81	21283
2026-01-07 09:49:14.53	20.04	6.60	-57.5	-60.8	6.2	0.00e+00	0	32	104	0	81	21369
2026-01-07 09:49:15.53	20.02	6.69	-57.6	-60.8	6.2	0.00e+00	0	32	104	0	81	21600
2026-01-07 09:49:16.54	20.00	6.77	-57.6	-60.8	6.2	0.00e+00	0	32	104	0	81	21445
2026-01-07 09:49:17.54	19.98	6.86	-57.6	-60.8	6.2	0.00e+00	0	32	104	0	81	21475
2026-01-07 09:49:18.54	19.95	6.95	-57.6	-60.8	6.1	0.00e+00	0	32	104	0	81	21416
2026-01-07 09:49:19.54	19.93	7.04	-57.6	-60.8	6.2	0.00e+00	0	32	104	0	81	21573
2026-01-07 09:49:20.55	19.91	7.13	-57.6	-60.8	6.1	0.00e+00	0	32	104	0	81	21537
2026-01-07 09:49:21.55	19.88	7.22	-57.6	-60.8	6.2	0.00e+00	0	32	104	0	81	21484
2026-01-07 09:49:22.56	19.86	7.31	-57.6	-60.8	6.2	0.00e+00	0	32	104	0	81	21585
2026-01-07 09:49:23.57	19.83	7.40	-57.7	-60.9	6.2	0.00e+00	0	32	104	0	81	21724
2026-01-07 09:49:24.57	19.81	7.49	-57.6	-60.9	6.2	0.00e+00	0	32	104	0	81	21676
2026-01-07 09:49:25.58	19.79	7.58	-57.6	-60.8	6.2	0.00e+00	0	32	104	0	81	21579
2026-01-07 09:49:26.57	19.76	7.67	-57.7	-60.9	6.2	0.00e+00	0	32	104	0	81	21659
2026-01-07 09:49:27.58	19.74	7.76	-57.7	-60.9	6.2	0.00e+00	0	32	104	0	81	21760
2026-01-07 09:49:28.59	19.71	7.85	-57.7	-60.9	6.2	0.00e+00	0	32	104	0	81	21664
2026-01-07 09:49:29.59	19.69	7.95	-57.7	-60.9	6.2	0.00e+00	0	33	104	0	81	21738
2026-01-07 09:49:30.59	19.66	8.04	-57.7	-60.9	6.2	0.00e+00	0	33	104	0	81	21796
2026-01-07 09:49:31.60	19.63	8.13	-57.8	-61.0	6.1	0.00e+00	0	33	104	0	81	21986
2026-01-07 09:49:32.61	19.61	8.23	-57.7	-60.9	6.2	0.00e+00	0	32	104	0	81	21780
2026-01-07 09:49:33.62	19.58	8.32	-48.8	-49.3	9.8	0.00e+00	0	33	104	0	76	7595
2026-01-07 09:49:34.61	19.56	8.42	-51.8	-52.8	8.0	0.00e+00	1206	34	104	25165824	69	17038
2026-01-07 09:49:35.62	19.53	8.51	-49.4	-50.1	8.9	0.00e+00	0	33	104	25165824	66	14777
2026-01-07 09:49:36.63	19.50	8.61	-47.4	-47.9	10.2	0.00e+00	1743	34	0	50331648	60	16282
2026-01-07 09:49:37.64	19.47	8.71	-45.5	-45.9	9.7	0.00e+00	0	33	104	83886080	58	14477
2026-01-07 09:49:38.65	19.45	8.81	-44.6	-45.0	11.3	0.00e+00	0	34	0	159383552	56	14652
2026-01-07 09:49:39.65	19.42	8.90	-43.9	-44.3	11.6	6.26e-02	0	34	0	268435456	55	14284
2026-01-07 09:49:40.66	19.39	9.00	-43.0	-43.3	11.8	6.26e-02	0	34	0	385875968	53	14378
2026-01-07 09:49:41.66	19.36	9.10	-42.4	-42.7	11.9	6.26e-02	0	34	0	503316480	51	15069
2026-01-07 09:49:42.67	19.33	9.20	-42.1	-42.4	12.0	4.13e-02	0	34	0	612368384	51	14560
2026-01-07 09:49:43.68	19.30	9.30	-42.0	-42.3	12.1	4.13e-02	0	34	0	721420288	51	14373
2026-01-07 09:49:44.68	19.28	9.40	-41.8	-42.1	12.1	4.13e-02	0	34	0	838860800	50	14855
2026-01-07 09:49:45.68	19.25	9.50	-41.9	-42.3	12.0	1.70e-02	0	34	0	947912704	50	15185
2026-01-07 09:49:46.69	19.22	9.60	-41.9	-42.2	12.1	1.70e-02	0	34	0	1065353216	50	15068
2026-01-07 09:49:47.69	19.19	9.70	-41.8	-42.1	12.1	1.60e-02	0	34	0	1174405120	50	14835
2026-01-07 09:49:48.70	19.16	9.81	-41.8	-42.1	12.1	1.60e-02	0	34	0	1291845632	50	14871
2026-01-07 09:49:49.70	19.12	9.91	-41.8	-42.1	12.1	1.60e-02	0	34	0	1409286144	50	14939
2026-01-07 09:49:50.70	19.09	10.01	-41.6	-41.9	12.2	1.38e-02	0	34	0	1518338048	50	14533
2026-01-07 09:49:51.71	19.06	10.12	-41.5	-41.8	12.2	1.38e-02	0	34	0	1627389952	50	14347
2026-01-07 09:49:52.72	19.03	10.22	-41.7	-42.1	12.1	1.38e-02	0	34	0	1744830464	50	14809
2026-01-07 09:49:53.73	19.00	10.33	-41.6	-41.9	12.2	1.21e-02	0	35	0	1853882368	50	14491
2026-01-07 09:49:54.74	18.97	10.43	-41.6	-41.9	12.2	1.21e-02	0	35	0	1971322880	50	14585
2026-01-07 09:49:55.74	18.93	10.54	-41.5	-41.8	12.2	1.21e-02	0	35	0	2080374784	50	14394
2026-01-07 09:49:56.75	18.90	10.65	-41.6	-41.9	12.2	1.07e-02	0	35	0	2197815296	50	14481
2026-01-07 09:49:57.76	18.87	10.75	-41.6	-41.9	12.2	1.07e-02	0	35	0	2315255808	50	14511
2026-01-07 09:49:58.76	18.83	10.86	-41.1	-41.4	12.3	1.07e-02	0	35	0	2424307712	49	14568
2026-01-07 09:49:59.77	18.80	10.97	-41.3	-41.6	12.2	9.98e-03	0	35	0	2533359616	49	14866
2026-01-07 09:50:00.77	18.77	11.08	-41.3	-41.6	12.2	9.98e-03	0	35	0	2650800128	49	14895
2026-01-07 09:50:01.78	18.73	11.19	-41.4	-41.7	12.2	9.98e-03	0	35	0	2759852032	49	15042
2026-01-07 09:50:02.78	18.70	11.30	-41.2	-41.5	12.3	9.76e-03	0	35	0	2877292544	49	14619
2026-01-07 09:50:03.79	18.66	11.41	-41.2	-41.5	12.3	9.76e-03	0	35	0	2986344448	49	14656
2026-01-07 09:50:04.79	18.63	11.52	-41.0	-41.3	12.4	7.99e-03	0	35	0	3095396352	49	14330
2026-01-07 09:50:05.78	18.59	11.64	-41.0	-41.3	12.3	7.99e-03	0	35	0	3212836864	49	14395
2026-01-07 09:50:06.79	18.55	11.75	-41.0	-41.3	12.4	7.99e-03	0	35	0	3321888768	49	14358
2026-01-07 09:50:07.80	18.52	11.86	-41.1	-41.4	12.4	7.10e-03	0	35	0	3439329280	49	14485
2026-01-07 09:50:08.81	18.48	11.98	-41.0	-41.3	12.4	7.10e-03	0	35	0	3556769792	49	14292
2026-01-07 09:50:09.82	18.44	12.10	-40.7	-41.0	12.4	7.10e-03	0	35	0	3665821696	48	14765
2026-01-07 09:50:10.83	18.40	12.21	-40.7	-41.0	12.4	5.94e-03	0	35	0	3783262208	48	14696
2026-01-07 09:50:11.84	18.37	12.33	-40.7	-41.0	12.4	5.94e-03	0	35	0	3892314112	48	14732
2026-01-07 09:50:12.84	18.33	12.45	-40.8	-41.1	12.4	5.35e-03	0	35	0	4001366016	48	14854
2026-01-07 09:50:13.84	18.29	12.56	-40.7	-41.0	12.4	5.35e-03	0	35	0	4118806528	48	14738
2026-01-07 09:50:14.85	18.25	12.68	-40.6	-40.9	12.5	5.35e-03	0	35	0	4227858432	48	14467
2026-01-07 09:50:15.85	18.21	12.80	-40.5	-40.8	12.5	4.85e-03	0	35	0	4345298944	48	14351
2026-01-07 09:50:16.86	18.17	12.92	-40.6	-40.9	12.5	4.85e-03	0	35	0	4462739456	48	14465
2026-01-07 09:50:17.86	18.13	13.05	-40.4	-40.7	12.5	4.85e-03	0	35	0	4571791360	48	14204
2026-01-07 09:50:18.87	18.09	13.17	-39.5	-39.8	12.4	4.01e-03	0	35	0	4689231872	46	14388
2026-01-07 09:50:19.86	18.04	13.29	-39.5	-39.8	12.4	4.01e-03	0	36	0	4798283776	46	14347
2026-01-07 09:50:20.87	18.00	13.41	-39.5	-39.8	12.4	4.01e-03	0	35	0	4907335680	46	14303
2026-01-07 09:50:21.87	17.96	13.54	-39.5	-39.7	12.4	6.08e-03	0	36	0	5024776192	46	14254
2026-01-07 09:50:22.87	17.92	13.66	-39.5	-39.8	12.4	6.08e-03	0	35	0	5133828096	46	14364
2026-01-07 09:50:23.88	17.87	13.79	-39.4	-39.7	12.5	5.37e-03	0	36	0	5251268608	46	14158
2026-01-07 09:50:24.89	17.83	13.92	-39.4	-39.7	12.5	5.37e-03	0	36	0	5360320512	46	14213
2026-01-07 09:50:25.90	17.78	14.05	-39.2	-39.5	12.4	5.37e-03	0	36	0	5469372416	45	14631
2026-01-07 09:50:26.90	17.74	14.17	-39.2	-39.5	12.5	5.09e-03	0	36	0	5586812928	45	14608
2026-01-07 09:50:27.91	17.69	14.30	-39.1	-39.4	12.5	5.09e-03	0	36	0	5704253440	45	14471
2026-01-07 09:50:28.91	17.65	14.43	-39.1	-39.4	12.5	5.09e-03	0	36	0	5813305344	45	14521
2026-01-07 09:50:29.91	17.60	14.56	-39.0	-39.3	12.5	3.80e-03	0	36	0	5930745856	45	14409
2026-01-07 09:50:30.91	17.55	14.70	-38.9	-39.2	12.6	3.80e-03	0	36	0	6039797760	45	14238
2026-01-07 09:50:31.91	17.51	14.83	-38.9	-39.3	12.6	3.80e-03	0	36	0	6157238272	45	14278
2026-01-07 09:50:32.92	17.46	14.96	-38.9	-39.2	12.6	3.42e-03	0	36	0	6266290176	45	14177
2026-01-07 09:50:33.92	17.41	15.10	-38.8	-39.1	12.5	3.42e-03	0	36	0	6375342080	44	14896
2026-01-07 09:50:34.92	17.36	15.23	-38.8	-39.1	12.5	3.42e-03	0	36	0	6492782592	44	14796
2026-01-07 09:50:35.92	17.31	15.37	-38.6	-38.9	12.6	3.42e-03	0	36	0	6601834496	44	14558
2026-01-07 09:50:36.92	17.26	15.51	-38.5	-38.8	12.6	3.09e-03	0	36	0	6719275008	44	14314
2026-01-07 09:50:37.93	17.21	15.65	-38.6	-38.9	12.6	3.09e-03	0	36	0	6828326912	44	14462
2026-01-07 09:50:38.93	17.16	15.79	-38.5	-38.8	12.6	2.40e-03	0	36	0	6937378816	44	14280
2026-01-07 09:50:39.94	17.10	15.93	-38.4	-38.7	12.6	2.40e-03	0	36	0	7054819328	44	14269
2026-01-07 09:50:40.94	17.05	16.07	-38.4	-38.7	12.6	2.40e-03	0	36	0	7163871232	43	15069
2026-01-07 09:50:41.94	17.00	16.21	-38.4	-38.7	12.6	2.40e-03	0	36	0	7281311744	43	15047
2026-01-07 09:50:42.95	16.94	16.36	-38.4	-38.7	12.6	2.19e-03	0	36	0	7390363648	43	15027
2026-01-07 09:50:43.95	16.89	16.50	-38.5	-38.8	12.5	2.19e-03	0	36	0	7507804160	43	15177
2026-01-07 09:50:44.96	16.83	16.65	-38.6	-38.9	12.6	2.19e-03	0	36	0	7625244672	43	15312
2026-01-07 09:50:45.96	16.78	16.79	-38.3	-38.6	12.6	2.29e-03	0	36	0	7734296576	43	14875
2026-01-07 09:50:46.97	16.72	16.94	-38.3	-38.6	12.6	2.29e-03	0	36	0	7843348480	43	14925
2026-01-07 09:50:47.98	16.66	17.09	-38.1	-38.4	12.7	2.29e-03	0	36	0	7960788992	43	14561
2026-01-07 09:50:48.98	16.60	17.24	-38.1	-38.4	12.7	2.29e-03	0	36	0	8069840896	43	14592
2026-01-07 09:50:49.98	16.54	17.40	-38.1	-38.4	12.7	1.97e-03	0	36	0	8187281408	43	14473
2026-01-07 09:50:50.99	16.48	17.55	-38.0	-38.3	12.7	1.97e-03	0	36	0	8296333312	43	14336
2026-01-07 09:50:51.99	16.42	17.70	-37.9	-38.2	12.7	1.97e-03	0	36	0	8405385216	43	14236
2026-01-07 09:50:52.99	16.36	17.86	-37.8	-38.1	12.6	1.60e-03	0	36	0	8522825728	42	14883
2026-01-07 09:50:54.00	16.30	18.02	-37.8	-38.1	12.6	1.60e-03	0	36	0	8631877632	42	14882
2026-01-07 09:50:55.01	16.24	18.17	-37.8	-38.1	12.6	1.60e-03	0	36	0	8749318144	42	14812
2026-01-07 09:50:56.01	16.17	18.33	-37.6	-37.9	12.7	1.48e-03	0	36	0	8866758656	42	14542
2026-01-07 09:50:57.01	16.11	18.49	-37.5	-37.8	12.7	1.48e-03	0	36	0	8975810560	42	14354
2026-01-07 09:50:58.01	16.04	18.65	-37.5	-37.8	12.7	1.48e-03	0	36	0	9084862464	42	14397
2026-01-07 09:50:59.02	15.98	18.82	-37.4	-37.7	12.7	1.38e-03	0	36	0	9202302976	42	14177
2026-01-07 09:51:00.03	15.91	18.98	-37.5	-37.8	12.7	1.38e-03	0	36	0	9311354880	42	14296
2026-01-07 09:51:01.03	15.84	19.15	-37.2	-37.5	12.7	1.43e-03	0	36	0	9428795392	41	14723
2026-01-07 09:51:02.03	15.77	19.31	-37.0	-37.3	12.7	1.43e-03	0	36	0	9537847296	41	14377
2026-01-07 09:51:03.04	15.70	19.48	-37.0	-37.3	12.7	1.43e-03	0	37	0	9655287808	41	14307
2026-01-07 09:51:04.04	15.63	19.65	-37.0	-37.3	12.7	1.04e-03	0	36	0	9764339712	41	14431
2026-01-07 09:51:05.04	15.56	19.82	-36.8	-37.1	12.6	1.04e-03	0	37	0	9873391616	40	14863
2026-01-07 09:51:06.05	15.49	20.00	-36.6	-36.9	12.7	1.27e-03	0	37	0	9990832128	40	14519
2026-01-07 09:51:07.06	15.41	20.17	-36.6	-36.9	12.7	1.27e-03	0	37	0	10108272640	40	14455
2026-01-07 09:51:08.07	15.34	20.35	-36.4	-36.7	12.6	1.27e-03	0	36	0	10217324544	39	15029
2026-01-07 09:51:09.07	15.26	20.53	-36.4	-36.7	12.7	9.49e-04	0	37	0	10334765056	39	14972
2026-01-07 09:51:10.07	15.19	20.70	-36.4	-36.7	12.7	9.49e-04	0	37	0	10443816960	39	14982
2026-01-07 09:51:11.07	15.11	20.88	-36.0	-36.3	12.8	9.49e-04	0	36	0	10561257472	39	14379
2026-01-07 09:51:12.07	15.03	21.06	-36.0	-36.3	12.8	5.91e-04	0	37	0	10670309376	39	14320
2026-01-07 09:51:13.07	14.95	21.25	-36.0	-36.3	12.8	5.91e-04	0	37	0	10779361280	39	14305
2026-01-07 09:51:14.08	14.87	21.43	-36.0	-36.3	12.8	4.53e-04	0	37	0	10896801792	39	14415
2026-01-07 09:51:15.08	14.79	21.62	-35.9	-36.2	12.9	4.53e-04	0	37	0	11005853696	39	14173
2026-01-07 09:51:16.09	14.70	21.81	-36.0	-36.3	12.8	4.53e-04	0	37	0	11123294208	39	14302
2026-01-07 09:51:17.10	14.62	22.00	-35.8	-36.1	12.8	3.77e-04	0	37	0	11232346112	38	14902
2026-01-07 09:51:18.10	14.53	22.19	-35.8	-36.1	12.8	3.77e-04	0	37	0	11349786624	38	14820
2026-01-07 09:51:19.10	14.44	22.38	-35.5	-35.8	12.9	3.15e-04	0	37	0	11458838528	38	14328
2026-01-07 09:51:20.09	14.36	22.58	-35.4	-35.7	12.9	3.15e-04	0	37	0	11567890432	38	14185
2026-01-07 09:51:21.10	14.27	22.77	-35.5	-35.8	12.9	3.15e-04	0	37	0	11685330944	38	14314
2026-01-07 09:51:22.11	14.17	22.97	-35.2	-35.5	12.9	1.52e-04	0	37	0	11802771456	37	14692
2026-01-07 09:51:23.12	14.08	23.18	-35.2	-35.5	13.0	1.52e-04	0	37	0	11911823360	37	14620
2026-01-07 09:51:24.12	13.99	23.38	-35.0	-35.3	13.0	1.33e-04	0	37	0	12029263872	37	14437
2026-01-07 09:51:25.12	13.89	23.58	-35.0	-35.2	13.0	1.33e-04	0	37	0	12138315776	37	14272
2026-01-07 09:51:26.12	13.80	23.79	-35.0	-35.3	13.0	1.33e-04	0	37	0	12247367680	37	14371
2026-01-07 09:51:27.13	13.70	24.00	-35.0	-35.3	13.0	4.76e-05	0	37	0	12364808192	37	14431
2026-01-07 09:51:28.14	13.60	24.21	-34.9	-35.2	13.1	4.76e-05	0	37	0	12473860096	37	14225
2026-01-07 09:51:29.14	13.50	24.42	-34.8	-35.1	13.0	4.76e-05	0	37	0	12591300608	36	14820
2026-01-07 09:51:30.14	13.39	24.63	-34.8	-35.1	13.0	3.33e-05	0	37	0	12700352512	36	14905
2026-01-07 09:51:31.14	13.29	24.85	-34.8	-35.1	13.0	3.33e-05	0	37	0	12817793024	36	14809
2026-01-07 09:51:32.14	13.18	25.06	-34.7	-35.0	13.0	3.33e-05	0	37	0	12926844928	36	14636
2026-01-07 09:51:33.15	13.07	25.29	-34.7	-35.0	13.1	1.43e-05	0	37	0	13035896832	36	14621
2026-01-07 09:51:34.16	12.96	25.51	-34.7	-35.0	13.1	1.43e-05	0	37	0	13153337344	36	14681
2026-01-07 09:51:35.16	12.85	25.73	-34.7	-35.0	13.1	2.38e-05	0	37	0	13270777856	36	14642
2026-01-07 09:51:36.17	12.74	25.96	-34.6	-34.9	13.1	2.38e-05	0	37	0	13379829760	36	14506
2026-01-07 09:51:37.17	12.62	26.19	-34.7	-35.0	13.1	2.38e-05	0	37	0	13497270272	36	14618
2026-01-07 09:51:38.17	12.51	26.42	-34.5	-34.7	13.1	3.33e-05	0	37	0	13606322176	36	14272
2026-01-07 09:51:39.18	12.39	26.66	-34.4	-34.7	13.1	3.33e-05	0	37	0	13715374080	36	14171
2026-01-07 09:51:40.19	12.26	26.89	-31.6	-31.9	13.0	6.19e-05	0	37	0	13832814592	30	14477
2026-01-07 09:51:41.19	12.14	27.13	-31.4	-31.7	13.0	6.19e-05	0	37	0	13941866496	30	14229
2026-01-07 09:51:42.20	12.01	27.37	-31.2	-31.5	13.0	6.19e-05	0	37	0	14059307008	29	14710
2026-01-07 09:51:43.20	11.89	27.62	-31.2	-31.5	13.0	6.19e-05	0	37	0	14176747520	29	14708
2026-01-07 09:51:44.21	11.76	27.86	-31.1	-31.5	13.0	6.19e-05	0	37	0	14285799424	29	14610
2026-01-07 09:51:45.21	11.62	28.11	-31.1	-31.4	13.0	9.53e-05	0	37	0	14403239936	29	14458
2026-01-07 09:51:46.22	11.49	28.36	-31.0	-31.3	13.0	9.53e-05	0	37	0	14512291840	29	14382
2026-01-07 09:51:47.22	11.35	28.61	-30.8	-31.1	13.0	9.53e-05	0	37	0	14621343744	28	14815
2026-01-07 09:51:48.23	11.21	28.87	-30.9	-31.2	13.0	1.10e-04	0	37	0	14738784256	28	14958
2026-01-07 09:51:49.23	11.07	29.13	-30.7	-31.0	13.1	1.10e-04	0	37	0	14847836160	28	14726
2026-01-07 09:51:50.23	10.93	29.39	-30.7	-31.0	13.1	1.10e-04	0	37	0	14965276672	28	14713
2026-01-07 09:51:51.24	10.78	29.65	-30.6	-30.9	13.1	1.86e-04	0	37	0	15074328576	28	14547
2026-01-07 09:51:52.24	10.63	29.92	-30.4	-30.7	13.2	1.86e-04	0	37	0	15191769088	28	14181
2026-01-07 09:51:53.24	10.48	30.19	-30.5	-30.8	13.2	1.86e-04	0	37	0	15300820992	28	14286
2026-01-07 09:51:54.24	10.32	30.46	-30.3	-30.6	13.1	9.53e-05	0	37	0	15409872896	27	14804
2026-01-07 09:51:55.24	10.17	30.73	-30.3	-30.6	13.1	9.53e-05	0	37	0	15527313408	27	14894
2026-01-07 09:51:56.25	10.00	31.01	-30.2	-30.5	13.2	9.53e-05	0	37	0	15636365312	27	14668
2026-01-07 09:51:57.25	9.84	31.29	-30.0	-30.3	13.2	9.50e-06	0	37	0	15753805824	27	14373
2026-01-07 09:51:58.26	9.67	31.58	-30.0	-30.3	13.2	9.50e-06	0	37	0	15871246336	27	14307
2026-01-07 09:51:59.26	9.50	31.86	-29.9	-30.2	13.3	9.50e-06	0	37	0	15980298240	27	14195
2026-01-07 09:52:00.26	9.33	32.15	-29.9	-30.2	13.2	9.50e-06	0	37	0	16089350144	27	14235
2026-01-07 09:52:01.27	9.15	32.45	-29.9	-30.2	13.2	9.50e-06	0	37	0	16206790656	27	14234
2026-01-07 09:52:02.28	8.97	32.74	-29.6	-29.9	13.2	2.38e-05	0	37	0	16315842560	26	14584
2026-01-07 09:52:03.28	8.78	33.04	-29.6	-29.9	13.2	2.38e-05	0	37	0	16433283072	26	14519
2026-01-07 09:52:04.28	8.59	33.34	-29.5	-29.8	13.2	2.38e-05	0	37	0	16542334976	26	14343
2026-01-07 09:52:05.29	8.40	33.65	-29.2	-29.5	13.1	1.43e-05	0	37	0	16659775488	25	14776
2026-01-07 09:52:06.30	8.20	33.96	-29.0	-29.3	13.2	1.43e-05	0	37	0	16768827392	25	14415
2026-01-07 09:52:07.30	8.00	34.27	-28.8	-29.1	13.2	1.90e-05	0	37	0	16886267904	24	14853
2026-01-07 09:52:08.31	7.80	34.59	-28.8	-29.0	13.2	1.90e-05	0	37	0	16995319808	24	14756
2026-01-07 09:52:09.31	7.59	34.90	-28.6	-28.9	13.3	1.90e-05	0	37	0	17112760320	24	14525
2026-01-07 09:52:10.32	7.37	35.23	-28.5	-28.8	13.3	1.90e-05	0	37	0	17221812224	24	14327
2026-01-07 09:52:11.32	7.16	35.55	-28.5	-28.8	13.3	0.00e+00	0	37	0	17339252736	24	14331
2026-01-07 09:52:12.33	6.93	35.88	-28.5	-28.8	13.3	0.00e+00	0	37	0	17448304640	24	14367
2026-01-07 09:52:13.34	6.70	36.21	-28.4	-28.7	13.3	0.00e+00	0	37	0	17557356544	24	14223
2026-01-07 09:52:14.35	6.47	36.55	-28.5	-28.7	13.3	0.00e+00	0	37	0	17674797056	24	14247
2026-01-07 09:52:15.36	6.23	36.89	-28.1	-28.4	13.3	0.00e+00	0	37	0	17792237568	23	14582
2026-01-07 09:52:16.36	5.98	37.23	-28.1	-28.4	13.3	0.00e+00	0	37	0	17901289472	23	14521
2026-01-07 09:52:17.37	5.73	37.58	-28.0	-28.2	13.3	0.00e+00	0	37	0	18018729984	23	14231
2026-01-07 09:52:18.37	5.48	37.93	-27.8	-28.1	13.3	0.00e+00	0	37	0	18127781888	22	14801
2026-01-07 09:52:19.38	5.22	38.28	-27.7	-27.9	13.3	0.00e+00	0	37	0	18245222400	22	14567
2026-01-07 09:52:20.38	4.95	38.64	-27.6	-27.9	13.3	0.00e+00	0	37	0	18354274304	22	14575
2026-01-07 09:52:21.39	4.67	39.00	-27.6	-27.9	13.3	0.00e+00	0	37	0	18463326208	22	14472
2026-01-07 09:52:22.40	4.39	39.37	-27.5	-27.8	13.3	0.00e+00	0	37	0	18580766720	22	14338
2026-01-07 09:52:23.40	4.11	39.73	-27.5	-27.7	13.4	0.00e+00	0	37	0	18698207232	22	14254
2026-01-07 09:52:24.40	3.81	40.10	-27.4	-27.7	13.4	0.00e+00	0	37	0	18807259136	22	14165
2026-01-07 09:52:25.40	3.51	40.48	-27.3	-27.5	13.3	0.00e+00	0	37	0	18924699648	21	14743
2026-01-07 09:52:26.41	3.20	40.86	-27.1	-27.4	13.3	0.00e+00	0	37	0	19033751552	21	14528
2026-01-07 09:52:27.41	2.89	41.24	-27.2	-27.5	13.3	0.00e+00	0	37	0	19151192064	21	14629
2026-01-07 09:52:28.42	2.56	41.62	-27.0	-27.2	13.4	0.00e+00	0	37	0	19260243968	21	14257
2026-01-07 09:52:29.43	2.23	42.02	-26.8	-27.0	13.3	0.00e+00	0	37	0	19369295872	20	14738
2026-01-07 09:52:30.44	1.88	42.41	-26.8	-27.1	13.3	0.00e+00	0	37	0	19486736384	20	14791
2026-01-07 09:52:31.45	1.53	42.81	-26.7	-26.9	13.4	0.00e+00	0	37	0	19595788288	20	14590
2026-01-07 09:52:32.45	1.17	43.21	-26.6	-26.8	13.4	0.00e+00	0	37	0	19713228800	20	14439
2026-01-07 09:52:33.46	0.80	43.61	-26.5	-26.7	13.4	0.00e+00	0	37	0	19830669312	20	14252
2026-01-07 09:52:34.46	0.42	44.02	-26.4	-26.7	13.4	0.00e+00	0	37	0	19939721216	20	14186
2026-01-07 09:52:35.47	0.03	44.43	-26.5	-26.7	13.4	0.00e+00	0	37	0	20057161728	20	14256
2026-01-07 09:52:36.48	359.63	44.85	-26.5	-26.7	13.4	0.00e+00	0	37	0	20166213632	20	14165
2026-01-07 09:52:37.48	359.22	45.26	-26.4	-26.6	13.4	0.00e+00	0	37	0	20275265536	20	14090
2026-01-07 09:52:38.49	358.79	45.69	-26.3	-26.6	13.4	0.00e+00	0	37	0	20392706048	19	14842
2026-01-07 09:52:39.50	358.36	46.11	-26.2	-26.4	13.4	0.00e+00	0	37	0	20501757952	19	14535
2026-01-07 09:52:40.51	357.91	46.54	-26.2	-26.5	13.4	0.00e+00	0	37	0	20619198464	19	14644
2026-01-07 09:52:41.51	357.45	46.97	-26.0	-26.2	13.4	0.00e+00	0	37	0	20736638976	19	14249
2026-01-07 09:52:42.52	356.97	47.40	-26.0	-26.2	13.4	0.00e+00	0	37	0	20845690880	19	14178
2026-01-07 09:52:43.53	356.48	47.84	-26.0	-26.3	13.4	0.00e+00	0	37	0	20954742784	19	14280
2026-01-07 09:52:44.53	355.98	48.28	-26.1	-26.3	13.4	0.00e+00	0	37	0	21072183296	19	14386
2026-01-07 09:52:45.54	355.46	48.72	-26.0	-26.2	13.4	0.00e+00	0	37	0	21181235200	19	14212
2026-01-07 09:52:46.55	354.92	49.17	-25.6	-25.8	13.4	0.00e+00	0	37	0	21298675712	18	14387
2026-01-07 09:52:47.55	354.38	49.61	-25.6	-25.8	13.4	0.00e+00	0	37	0	21407727616	18	14403
2026-01-07 09:52:48.56	353.81	50.06	-25.5	-25.8	13.4	0.00e+00	0	37	0	21525168128	18	14331
2026-01-07 09:52:49.56	353.23	50.51	-25.4	-25.7	13.4	0.00e+00	0	37	0	21642608640	18	14125
2026-01-07 09:52:50.56	352.63	50.96	-25.2	-25.4	13.3	0.00e+00	0	37	0	21751660544	17	14596
2026-01-07 09:52:51.56	352.01	51.41	-25.1	-25.4	13.4	3.81e-05	0	37	0	21860712448	17	14525
2026-01-07 09:52:52.57	351.37	51.86	-25.2	-25.4	13.4	3.81e-05	0	37	0	21978152960	17	14529
2026-01-07 09:52:53.58	350.70	52.32	-25.0	-25.3	13.4	3.81e-05	0	37	0	22087204864	17	14378
2026-01-07 09:52:54.58	350.02	52.77	-24.9	-25.2	13.4	2.38e-05	0	37	0	22204645376	17	14186
2026-01-07 09:52:55.58	349.32	53.23	-25.0	-25.2	13.4	2.38e-05	0	37	0	22313697280	17	14227
2026-01-07 09:52:56.58	348.60	53.68	-24.9	-25.1	13.4	9.50e-06	0	37	0	22431137792	17	14096
2026-01-07 09:52:57.59	347.84	54.14	-59.2	-62.6	6.1	9.50e-06	0	37	104	22506635264	68	56158
2026-01-07 09:52:58.60	347.06	54.59	-59.7	-62.9	6.2	9.50e-06	0	37	104	22506635264	85	21812
2026-01-07 09:52:59.60	346.26	55.05	-59.7	-63.0	6.2	9.50e-06	0	36	104	22506635264	85	21910
2026-01-07 09:53:00.60	345.44	55.50	-59.7	-63.0	6.2	9.50e-06	0	36	104	22506635264	85	21914
2026-01-07 09:53:01.61	344.58	55.95	-59.8	-63.0	6.2	9.50e-06	0	36	104	22506635264	85	22004
2026-01-07 09:53:02.62	343.69	56.40	-59.8	-63.0	6.2	9.50e-06	0	36	104	22506635264	85	22066
2026-01-07 09:53:03.62	342.78	56.84	-59.8	-63.0	6.2	9.50e-06	0	36	104	22506635264	85	22034
2026-01-07 09:53:04.63	341.83	57.29	-59.8	-63.0	6.1	9.50e-06	0	36	104	22506635264	85	22001
2026-01-07 09:53:05.64	340.85	57.73	-59.8	-63.0	6.1	4.70e-06	0	36	104	22506635264	85	21992
2026-01-07 09:53:06.65	339.84	58.16	-59.8	-63.0	6.2	4.70e-06	0	36	104	22506635264	85	22093
2026-01-07 09:53:07.66	338.79	58.59	-59.8	-63.0	6.1	4.70e-06	0	36	104	22506635264	85	21961
2026-01-07 09:53:08.67	337.70	59.02	-59.8	-63.0	6.1	4.70e-06	0	36	104	22506635264	85	22065
2026-01-07 09:53:09.67	336.59	59.43	-59.8	-63.1	6.1	4.70e-06	0	36	104	22506635264	85	22161
2026-01-07 09:53:10.68	335.44	59.84	-59.8	-63.1	6.1	4.70e-06	0	36	104	22506635264	85	22130
2026-01-07 09:53:11.68	334.26	60.24	-59.8	-63.0	6.1	4.70e-06	0	36	104	22506635264	85	22035
2026-01-07 09:53:12.68	333.04	60.64	-59.8	-63.1	6.1	4.70e-06	0	36	104	22506635264	85	22155
2026-01-07 09:53:13.69	331.77	61.02	-59.8	-63.1	6.1	4.70e-06	0	36	104	22506635264	85	22221
2026-01-07 09:53:14.69	330.47	61.39	-59.9	-63.1	6.1	4.70e-06	0	36	104	22506635264	85	22291
2026-01-07 09:53:15.70	329.12	61.76	-59.8	-63.1	6.2	4.70e-06	0	36	104	22506635264	85	22158
2026-01-07 09:53:16.70	327.74	62.11	-59.8	-63.1	6.2	0.00e+00	0	36	104	22506635264	85	22254
2026-01-07 09:53:17.71	326.31	62.45	-59.9	-63.1	6.2	0.00e+00	0	36	104	22506635264	85	22173
2026-01-07 09:53:18.72	324.84	62.77	-59.9	-63.1	6.2	0.00e+00	0	36	104	22506635264	85	22277
2026-01-07 09:53:19.71	323.36	63.08	-59.8	-63.0	6.2	0.00e+00	0	36	104	22506635264	85	22041
2026-01-07 09:53:20.72	321.81	63.38	-59.8	-63.1	6.2	0.00e+00	0	36	104	22506635264	85	22227
2026-01-07 09:53:21.73	320.22	63.66	-59.9	-63.1	6.2	0.00e+00	0	36	104	22506635264	85	22273
2026-01-07 09:53:22.73	318.61	63.92	-59.9	-63.1	6.1	0.00e+00	0	36	104	22506635264	85	22318
2026-01-07 09:53:23.74	316.94	64.16	-59.8	-63.1	6.2	0.00e+00	0	36	104	22506635264	85	22178
2026-01-07 09:53:24.75	315.25	64.39	-59.9	-63.1	6.1	0.00e+00	0	36	104	22506635264	85	22261
2026-01-07 09:53:25.75	313.53	64.59	-59.9	-63.1	6.1	0.00e+00	0	36	104	22506635264	85	22329
2026-01-07 09:53:26.76	311.77	64.78	-59.9	-63.1	6.1	0.00e+00	0	36	104	22506635264	85	22331
2026-01-07 09:53:27.76	310.00	64.94	-59.8	-63.1	6.1	0.00e+00	0	36	104	22506635264	85	22179
2026-01-07 09:53:28.76	308.21	65.08	-59.9	-63.1	6.1	0.00e+00	0	36	104	22506635264	85	22230
2026-01-07 09:53:29.77	306.37	65.21	-59.9	-63.1	6.1	0.00e+00	0	36	104	22506635264	85	22343
2026-01-07 09:53:30.77	304.53	65.30	-59.9	-63.1	6.2	0.00e+00	0	36	104	22506635264	85	22266
2026-01-07 09:53:31.78	302.67	65.38	-59.9	-63.1	6.1	0.00e+00	0	36	104	22506635264	85	22268
2026-01-07 09:53:32.79	300.79	65.43	-59.9	-63.1	6.1	0.00e+00	0	35	104	22506635264	85	22227
2026-01-07 09:53:33.79	298.92	65.46	-60.0	-63.2	6.2	0.00e+00	0	35	104	22506635264	85	22501
2026-01-07 09:53:34.80	297.03	65.46	-60.0	-63.2	6.2	0.00e+00	0	35	104	22506635264	85	22482
2026-01-07 09:53:35.80	295.16	65.44	-59.9	-63.1	6.1	0.00e+00	0	35	104	22506635264	85	22328
2026-01-07 09:53:36.80	293.30	65.40	-59.9	-63.1	6.1	0.00e+00	0	35	104	22506635264	85	22330
2026-01-07 09:53:37.81	291.43	65.33	-59.9	-63.2	6.1	0.00e+00	0	35	104	22506635264	85	22519
2026-01-07 09:53:38.82	289.57	65.24	-59.9	-63.2	6.2	0.00e+00	0	35	104	22506635264	85	22373
2026-01-07 09:53:39.82	287.74	65.13	-59.9	-63.1	6.1	0.00e+00	0	35	104	22506635264	85	22228
2026-01-07 09:53:40.83	285.92	64.99	-59.9	-63.1	6.2	0.00e+00	0	35	104	22506635264	85	22303
2026-01-07 09:53:41.84	284.12	64.84	-59.9	-63.2	6.2	0.00e+00	0	35	104	22506635264	85	22397
2026-01-07 09:53:42.84	282.37	64.66	-59.9	-63.1	6.2	0.00e+00	0	35	104	22506635264	85	22338
2026-01-07 09:53:43.84	280.64	64.46	-59.9	-63.1	6.1	0.00e+00	0	35	104	22506635264	85	22240
2026-01-07 09:53:44.84	278.95	64.25	-59.9	-63.1	6.1	0.00e+00	0	35	104	22506635264	85	22257
2026-01-07 09:53:45.85	277.27	64.01	-59.9	-63.1	6.1	0.00e+00	0	35	104	22506635264	85	22298
2026-01-07 09:53:46.86	275.63	63.75	-59.9	-63.1	6.1	0.00e+00	0	35	104	22506635264	85	22308
2026-01-07 09:53:47.87	274.03	63.47	-59.8	-63.1	6.1	0.00e+00	0	35	104	22506635264	85	22133
2026-01-07 09:53:48.87	272.48	63.19	-59.8	-63.1	6.2	0.00e+00	0	35	104	22506635264	85	22118
2026-01-07 09:53:49.87	270.96	62.88	-59.9	-63.1	6.2	0.00e+00	0	35	104	22506635264	85	22278
2026-01-07 09:53:50.87	269.49	62.56	-59.8	-63.1	6.1	0.00e+00	0	35	104	22506635264	85	22171
2026-01-07 09:53:51.87	268.06	62.23	-59.8	-63.0	6.2	0.00e+00	0	35	104	22506635264	85	22037
2026-01-07 09:53:52.88	266.65	61.88	-59.8	-63.0	6.1	0.00e+00	0	35	104	22506635264	85	22068
2026-01-07 09:53:53.88	265.30	61.53	-59.8	-63.0	6.2	0.00e+00	0	35	104	22506635264	85	22099
2026-01-07 09:53:54.89	263.97	61.15	-59.8	-63.1	6.1	0.00e+00	0	35	104	22506635264	85	22172
2026-01-07 09:53:55.90	262.69	60.77	-59.8	-63.0	6.2	0.00e+00	0	35	104	22506635264	85	21909
2026-01-07 09:53:56.90	261.45	60.38	-59.8	-63.0	6.2	0.00e+00	0	35	104	22506635264	85	22002
2026-01-07 09:53:57.90	260.25	59.98	-59.8	-63.0	6.1	0.00e+00	0	35	104	22506635264	85	22036
2026-01-07 09:53:58.91	259.08	59.58	-59.8	-63.0	6.2	0.00e+00	0	35	104	22506635264	85	22024
2026-01-07 09:53:59.91	257.96	59.16	-59.7	-63.0	6.2	0.00e+00	0	35	104	22506635264	85	21914
2026-01-07 09:54:00.92	256.86	58.74	-59.7	-63.0	6.2	0.00e+00	0	35	104	22506635264	85	21984
2026-01-07 09:54:01.92	255.81	58.31	-59.7	-63.0	6.1	0.00e+00	0	35	104	22506635264	85	21898
2026-01-07 09:54:02.93	254.78	57.88	-59.8	-63.0	6.2	0.00e+00	0	35	104	22506635264	85	22006
2026-01-07 09:54:03.93	253.80	57.44	-59.7	-62.9	6.2	0.00e+00	0	35	104	22506635264	85	21814
2026-01-07 09:54:04.94	252.83	57.00	-59.7	-63.0	6.1	0.00e+00	0	35	104	22506635264	85	21880
2026-01-07 09:54:05.95	251.90	56.55	-59.7	-63.0	6.2	0.00e+00	0	35	104	22506635264	85	21929
2026-01-07 09:54:06.95	251.01	56.11	-59.7	-62.9	6.1	0.00e+00	0	35	104	22506635264	85	21820
2026-01-07 09:54:07.96	250.14	55.65	-59.7	-62.9	6.2	0.00e+00	0	35	104	22506635264	85	21702
2026-01-07 09:54:08.97	249.29	55.20	-59.7	-62.9	6.2	0.00e+00	0	35	104	22506635264	85	21704
2026-01-07 09:54:09.98	248.48	54.74	-59.7	-62.9	6.2	0.00e+00	0	35	104	22506635264	85	21825
2026-01-07 09:54:10.98	247.70	54.29	-59.7	-62.9	6.2	0.00e+00	0	35	104	22506635264	85	21818
2026-01-07 09:54:11.98	246.94	53.83	-59.7	-62.9	6.1	0.00e+00	0	35	104	22506635264	85	21675
2026-01-07 09:54:12.99	246.20	53.37	-59.6	-62.8	6.1	0.00e+00	0	35	104	22506635264	85	21547
2026-01-07 09:54:13.99	245.49	52.92	-59.7	-62.9	6.2	0.00e+00	0	35	104	22506635264	85	21819
2026-01-07 09:54:15.00	244.79	52.46	-59.7	-62.9	6.1	0.00e+00	0	35	104	22506635264	85	21788
2026-01-07 09:54:16.00	244.13	52.01	-59.6	-62.9	6.1	0.00e+00	0	35	104	22506635264	85	21672
2026-01-07 09:54:17.01	243.47	51.55	-59.6	-62.9	6.1	0.00e+00	0	35	104	22506635264	85	21686
2026-01-07 09:54:18.02	242.84	51.09	-59.7	-62.9	6.2	0.00e+00	0	35	104	22506635264	85	21752
2026-01-07 09:54:19.03	242.23	50.64	-59.6	-62.9	6.2	0.00e+00	0	35	104	22506635264	85	21660
2026-01-07 09:54:20.03	241.64	50.19	-59.6	-62.8	6.1	0.00e+00	0	35	104	22506635264	85	21548
2026-01-07 09:54:21.04	241.07	49.74	-59.6	-62.9	6.2	0.00e+00	0	35	104	22506635264	85	21640
2026-01-07 09:54:22.04	240.51	49.29	-59.6	-62.9	6.1	0.00e+00	0	35	104	22506635264	85	21717
2026-01-07 09:54:23.05	239.97	48.84	-59.6	-62.9	6.2	0.00e+00	0	35	104	22506635264	85	21621
2026-01-07 09:54:24.05	239.45	48.40	-59.6	-62.8	6.1	0.00e+00	0	35	104	22506635264	85	21496
2026-01-07 09:54:25.06	238.94	47.96	-59.6	-62.8	6.2	0.00e+00	0	35	104	22506635264	85	21601
2026-01-07 09:54:26.06	238.45	47.52	-59.6	-62.8	6.2	0.00e+00	0	35	104	22506635264	85	21576
2026-01-07 09:54:27.07	237.96	47.09	-59.6	-62.8	6.1	0.00e+00	0	35	104	22506635264	85	21588
2026-01-07 09:54:28.07	237.50	46.66	-59.6	-62.8	6.2	0.00e+00	0	35	104	22506635264	85	21486
2026-01-07 09:54:29.08	237.04	46.22	-59.6	-62.8	6.1	0.00e+00	0	35	104	22506635264	85	21471
2026-01-07 09:54:30.09	236.60	45.80	-59.6	-62.8	6.2	0.00e+00	0	35	104	22506635264	85	21543
2026-01-07 09:54:31.10	236.17	45.37	-59.6	-62.8	6.1	0.00e+00	0	35	104	22506635264	85	21434
2026-01-07 09:54:32.10	235.76	44.95	-59.5	-62.8	6.1	0.00e+00	0	35	104	22506635264	85	21432
2026-01-07 09:54:33.11	235.35	44.54	-59.6	-62.8	6.2	0.00e+00	0	35	104	22506635264	85	21386
2026-01-07 09:54:34.11	234.96	44.12	-59.6	-62.8	6.2	0.00e+00	0	35	104	22506635264	85	21449
2026-01-07 09:54:35.12	234.57	43.71	-59.5	-62.8	6.2	0.00e+00	0	35	104	22506635264	85	21445
2026-01-07 09:54:36.13	234.20	43.30	-59.5	-62.7	6.1	0.00e+00	0	35	104	22506635264	85	21318
2026-01-07 09:54:37.13	233.83	42.90	-59.5	-62.8	6.2	0.00e+00	0	35	104	22506635264	85	21363
2026-01-07 09:54:38.14	233.48	42.50	-59.5	-62.7	6.2	0.00e+00	0	35	104	22506635264	85	21331
2026-01-07 09:54:39.14	233.13	42.11	-59.5	-62.7	6.1	0.00e+00	0	35	104	22506635264	85	21281
2026-01-07 09:54:40.14	232.80	41.72	-59.5	-62.7	6.2	0.00e+00	0	35	104	22506635264	85	21279
2026-01-07 09:54:41.15	232.47	41.33	-59.5	-62.7	6.1	0.00e+00	0	35	104	22506635264	85	21314
2026-01-07 09:54:42.16	232.15	40.94	-59.5	-62.7	6.1	0.00e+00	0	35	104	22506635264	85	21254
2026-01-07 09:54:43.16	231.84	40.56	-59.5	-62.7	6.2	0.00e+00	0	35	104	22506635264	85	21269
2026-01-07 09:54:44.17	231.53	40.18	-59.5	-62.7	6.1	0.00e+00	0	35	104	22506635264	85	21153
2026-01-07 09:54:45.17	231.23	39.81	-59.5	-62.7	6.1	0.00e+00	0	35	104	22506635264	85	21237
2026-01-07 09:54:46.18	230.94	39.44	-59.4	-62.7	6.2	0.00e+00	0	35	104	22506635264	85	21170
2026-01-07 09:54:47.18	230.66	39.07	-59.5	-62.7	6.2	0.00e+00	0	34	104	22506635264	85	21158
2026-01-07 09:54:48.19	230.38	38.71	-59.4	-62.6	6.2	0.00e+00	0	35	104	22506635264	85	21049
2026-01-07 09:54:49.20	230.11	38.35	-59.4	-62.7	6.2	0.00e+00	0	35	104	22506635264	85	21197
2026-01-07 09:54:50.20	229.85	38.00	-59.4	-62.7	6.2	0.00e+00	0	35	104	22506635264	85	21161
2026-01-07 09:54:51.20	229.59	37.65	-59.4	-62.6	6.2	0.00e+00	0	35	104	22506635264	85	21113
2026-01-07 09:54:52.20	229.34	37.30	-59.4	-62.6	6.2	0.00e+00	0	35	104	22506635264	85	21069
2026-01-07 09:54:53.21	229.09	36.95	-59.4	-62.6	6.1	0.00e+00	0	35	104	22506635264	85	21097
2026-01-07 09:54:54.21	228.85	36.61	-59.4	-62.6	6.1	0.00e+00	0	35	104	22506635264	85	21103
2026-01-07 09:54:55.22	228.62	36.27	-59.4	-62.6	6.2	0.00e+00	0	35	104	22506635264	85	21059
2026-01-07 09:54:56.23	228.38	35.94	-59.3	-62.6	6.1	0.00e+00	0	35	104	22506635264	85	20884
2026-01-07 09:54:57.24	228.16	35.60	-59.4	-62.6	6.1	0.00e+00	0	35	104	22506635264	85	21018
2026-01-07 09:54:58.24	227.94	35.28	-59.4	-62.6	6.2	0.00e+00	0	35	104	22506635264	85	21062
2026-01-07 09:54:59.24	227.72	34.96	-59.4	-62.6	6.2	0.00e+00	0	35	104	22506635264	85	21044
2026-01-07 09:55:00.24	227.51	34.64	-59.3	-62.6	6.2	0.00e+00	0	35	104	22506635264	85	20878
2026-01-07 09:55:01.25	227.30	34.32	-59.3	-62.6	6.2	0.00e+00	0	35	104	22506635264	85	20884
2026-01-07 09:55:02.25	227.10	34.00	-59.3	-62.6	6.2	0.00e+00	0	35	104	22506635264	85	20873
2026-01-07 09:55:03.25	226.90	33.70	-59.3	-62.6	6.2	0.00e+00	0	35	104	22506635264	85	20955
2026-01-07 09:55:04.26	226.71	33.39	-59.3	-62.5	6.1	0.00e+00	0	35	104	22506635264	85	20809
2026-01-07 09:55:05.26	226.52	33.08	-59.3	-62.5	6.2	0.00e+00	0	35	104	22506635264	85	20869
2026-01-07 09:55:06.27	226.33	32.78	-59.3	-62.5	6.2	0.00e+00	0	35	104	22506635264	85	20860
2026-01-07 09:55:07.27	226.15	32.48	-59.3	-62.5	6.2	0.00e+00	0	35	104	22506635264	85	20734
2026-01-07 09:55:08.27	225.97	32.19	-59.3	-62.5	6.2	0.00e+00	0	35	104	22506635264	85	20725
2026-01-07 09:55:09.28	225.79	31.90	-59.3	-62.5	6.2	0.00e+00	0	35	104	22506635264	85	20658
2026-01-07 09:55:10.28	225.62	31.61	-59.3	-62.5	6.2	0.00e+00	0	35	104	22506635264	85	20771
2026-01-07 09:55:11.29	225.45	31.32	-59.3	-62.5	6.1	0.00e+00	0	35	104	22506635264	85	20813
2026-01-07 09:55:12.30	225.28	31.04	-59.2	-62.5	6.2	0.00e+00	0	35	104	22506635264	85	20676
2026-01-07 09:55:13.31	225.12	30.76	-59.2	-62.5	6.1	0.00e+00	0	35	104	22506635264	85	20731
2026-01-07 09:55:14.32	224.96	30.48	-59.3	-62.5	6.2	0.00e+00	0	35	104	22506635264	85	20701
2026-01-07 09:55:15.32	224.80	30.21	-59.3	-62.5	6.1	0.00e+00	0	35	104	22506635264	85	20667
2026-01-07 09:55:16.33	224.65	29.93	-59.2	-62.5	6.2	0.00e+00	0	35	104	22506635264	85	20644
2026-01-07 09:55:17.34	224.50	29.66	-59.2	-62.4	6.2	0.00e+00	0	35	104	22506635264	85	20606
2026-01-07 09:55:18.35	224.35	29.40	-59.2	-62.5	6.2	0.00e+00	0	35	104	22506635264	85	20679
2026-01-07 09:55:19.35	224.20	29.13	-59.2	-62.4	6.1	0.00e+00	0	35	104	22506635264	85	20619
2026-01-07 09:55:20.36	224.06	28.87	-59.2	-62.4	6.1	0.00e+00	0	35	104	22506635264	85	20612
2026-01-07 09:55:21.36	223.92	28.62	-59.2	-62.4	6.2	0.00e+00	0	35	104	22506635264	85	20566
2026-01-07 09:55:22.36	223.78	28.36	-59.2	-62.4	6.1	0.00e+00	0	35	104	22506635264	85	20552
2026-01-07 09:55:23.36	223.65	28.11	-59.2	-62.4	6.2	0.00e+00	0	35	104	22506635264	85	20577
2026-01-07 09:55:24.37	223.51	27.86	-59.2	-62.4	6.1	0.00e+00	0	35	104	22506635264	85	20554
2026-01-07 09:55:25.37	223.38	27.61	-59.2	-62.4	6.2	0.00e+00	0	35	104	22506635264	85	20533
2026-01-07 09:55:26.38	223.25	27.37	-59.2	-62.4	6.2	0.00e+00	0	35	104	22506635264	85	20569
2026-01-07 09:55:27.38	223.13	27.13	-59.2	-62.4	6.2	0.00e+00	0	35	104	22506635264	85	20490
2026-01-07 09:55:28.39	223.00	26.88	-59.1	-62.4	6.1	0.00e+00	0	35	104	22506635264	85	20507
2026-01-07 09:55:29.40	222.88	26.65	-59.1	-62.4	6.2	0.00e+00	0	35	104	22506635264	85	20503
2026-01-07 09:55:30.40	222.76	26.41	-59.1	-62.4	6.2	0.00e+00	0	35	104	22506635264	85	20437
2026-01-07 09:55:31.41	222.64	26.18	-59.1	-62.4	6.1	0.00e+00	0	35	104	22506635264	85	20536
2026-01-07 09:55:32.40	222.52	25.95	-59.1	-62.3	6.2	0.00e+00	0	34	104	22506635264	85	20367
2026-01-07 09:55:33.41	222.41	25.72	-59.1	-62.3	6.2	0.00e+00	0	34	104	22506635264	85	20393
2026-01-07 09:55:34.42	222.29	25.49	-59.1	-62.3	6.2	0.00e+00	0	35	104	22506635264	85	20356
2026-01-07 09:55:35.42	222.18	25.27	-59.1	-62.4	6.1	0.00e+00	0	35	104	22506635264	85	20406
2026-01-07 09:55:36.43	222.07	25.05	-59.1	-62.3	6.2	0.00e+00	0	35	104	22506635264	85	20215
2026-01-07 09:55:37.43	221.97	24.83	-59.1	-62.3	6.1	0.00e+00	0	35	104	22506635264	85	20321
2026-01-07 09:55:38.44	221.86	24.61	-59.1	-62.3	6.1	0.00e+00	0	34	104	22506635264	85	20382
2026-01-07 09:55:39.44	221.76	24.39	-59.1	-62.3	6.1	0.00e+00	0	35	104	22506635264	85	20308
2026-01-07 09:55:40.44	221.66	24.18	-59.1	-62.3	6.2	0.00e+00	0	34	104	22506635264	85	20219
2026-01-07 09:55:41.45	221.55	23.97	-59.0	-62.2	6.1	0.00e+00	0	35	104	22506635264	85	20147
2026-01-07 09:55:42.46	221.45	23.76	-59.0	-62.3	6.2	0.00e+00	0	35	104	22506635264	85	20193
2026-01-07 09:55:43.47	221.36	23.55	-59.0	-62.3	6.1	0.00e+00	0	35	104	22506635264	85	20178
2026-01-07 09:55:44.47	221.26	23.35	-59.0	-62.2	6.2	0.00e+00	0	35	104	22506635264	85	20141
2026-01-07 09:55:45.48	221.16	23.14	-59.0	-62.3	6.2	0.00e+00	0	35	104	22506635264	85	20180
2026-01-07 09:55:46.48	221.07	22.94	-59.0	-62.2	6.2	0.00e+00	0	35	104	22506635264	85	20137
2026-01-07 09:55:47.48	220.98	22.74	-59.0	-62.2	6.2	0.00e+00	0	35	104	22506635264	85	20162
2026-01-07 09:55:48.49	220.89	22.54	-59.0	-62.2	6.1	0.00e+00	0	35	104	22506635264	85	20047
2026-01-07 09:55:49.49	220.80	22.35	-59.0	-62.2	6.1	0.00e+00	0	34	104	22506635264	85	20043
2026-01-07 09:55:50.50	220.71	22.15	-59.0	-62.2	6.1	0.00e+00	0	34	104	22506635264	85	20083
2026-01-07 09:55:51.50	220.62	21.96	-59.0	-62.2	6.1	0.00e+00	0	34	104	22506635264	85	20103
2026-01-07 09:55:52.50	220.54	21.77	-59.0	-62.2	6.1	0.00e+00	0	35	104	22506635264	85	20027
2026-01-07 09:55:53.50	220.45	21.58	-59.0	-62.2	6.2	0.00e+00	0	35	104	22506635264	85	20011
2026-01-07 09:55:54.50	220.37	21.39	-59.0	-62.2	6.1	0.00e+00	0	35	104	22506635264	85	20052
2026-01-07 09:55:55.50	220.29	21.21	-59.0	-62.2	6.1	0.00e+00	0	34	104	22506635264	85	20006
2026-01-07 09:55:56.51	220.21	21.02	-58.9	-62.2	6.2	0.00e+00	0	35	104	22506635264	85	19968
2026-01-07 09:55:57.51	220.13	20.84	-58.9	-62.1	6.2	0.00e+00	0	35	104	22506635264	85	19908
2026-01-07 09:55:58.52	220.05	20.66	-58.9	-62.1	6.1	0.00e+00	0	34	104	22506635264	85	19922
2026-01-07 09:55:59.52	219.97	20.48	-58.9	-62.2	6.2	0.00e+00	0	35	104	22506635264	85	19961
2026-01-07 09:56:00.53	219.90	20.30	-58.9	-62.1	6.1	0.00e+00	0	34	104	22506635264	85	19909
2026-01-07 09:56:01.53	219.82	20.12	-58.9	-62.1	6.2	0.00e+00	0	35	104	22506635264	85	19857
2026-01-07 09:56:02.53	219.75	19.95	-58.9	-62.1	6.2	0.00e+00	0	35	104	22506635264	85	19888
2026-01-07 09:56:03.53	219.67	19.78	-58.9	-62.1	6.1	0.00e+00	0	35	104	22506635264	85	19901
2026-01-07 09:56:04.54	219.60	19.60	-58.8	-62.1	6.2	0.00e+00	0	35	104	22506635264	84	20960
2026-01-07 09:56:05.55	219.53	19.43	-58.9	-62.1	6.2	0.00e+00	0	35	104	22506635264	84	20933
2026-01-07 09:56:06.56	219.46	19.26	-58.8	-62.1	6.2	0.00e+00	0	34	104	22506635264	84	20961
2026-01-07 09:56:07.56	219.39	19.09	-58.8	-62.1	6.2	0.00e+00	0	35	104	22506635264	84	20975
2026-01-07 09:56:08.56	219.32	18.93	-58.8	-62.1	6.2	0.00e+00	0	34	104	22506635264	84	20911
2026-01-07 09:56:09.56	219.25	18.76	-58.8	-62.1	6.1	0.00e+00	0	34	104	22506635264	84	20916
2026-01-07 09:56:10.57	219.19	18.60	-58.8	-62.0	6.2	0.00e+00	0	35	104	22506635264	84	20868
2026-01-07 09:56:11.57	219.12	18.44	-58.8	-62.0	6.2	0.00e+00	0	35	104	22506635264	84	20794
2026-01-07 09:56:12.57	219.05	18.28	-58.8	-62.0	6.2	0.00e+00	0	34	104	22506635264	84	20852
2026-01-07 09:56:13.58	218.99	18.12	-58.8	-62.0	6.1	0.00e+00	0	34	104	22506635264	84	20854
2026-01-07 09:56:14.58	218.93	17.96	-58.8	-62.0	6.2	0.00e+00	0	35	104	22506635264	84	20817
2026-01-07 09:56:15.58	218.86	17.80	-58.8	-62.0	6.2	0.00e+00	0	35	104	22506635264	84	20823
2026-01-07 09:56:16.59	218.80	17.64	-58.8	-62.0	6.1	0.00e+00	0	35	104	22506635264	84	20776
2026-01-07 09:56:17.60	218.74	17.49	-58.8	-62.0	6.2	0.00e+00	0	34	104	22506635264	84	20713
2026-01-07 09:56:18.61	218.68	17.33	-58.8	-62.0	6.2	0.00e+00	0	34	104	22506635264	84	20748
2026-01-07 09:56:19.61	218.62	17.18	-58.8	-62.0	6.2	0.00e+00	0	34	104	22506635264	84	20765
2026-01-07 09:56:20.62	218.56	17.03	-58.7	-62.0	6.2	0.00e+00	0	35	104	22506635264	84	20700
2026-01-07 09:56:21.63	218.50	16.88	-58.7	-62.0	6.1	0.00e+00	0	35	104	22506635264	84	20703
2026-01-07 09:56:22.64	218.44	16.73	-58.8	-62.0	6.1	0.00e+00	0	35	104	22506635264	84	20764
2026-01-07 09:56:23.64	218.39	16.58	-58.8	-62.0	6.2	0.00e+00	0	35	104	22506635264	84	20817
2026-01-07 09:56:24.65	218.33	16.43	-58.8	-62.0	6.2	0.00e+00	0	34	104	22506635264	84	20704
2026-01-07 09:56:25.66	218.27	16.29	-58.7	-62.0	6.1	0.00e+00	0	34	104	22506635264	84	20683
2026-01-07 09:56:26.66	218.22	16.14	-58.7	-62.0	6.2	0.00e+00	0	35	104	22506635264	84	20644
2026-01-07 09:56:27.67	218.17	16.00	-58.7	-62.0	6.2	0.00e+00	0	34	104	22506635264	84	20662
2026-01-07 09:56:28.68	218.11	15.85	-58.7	-62.0	6.2	0.00e+00	0	35	104	22506635264	84	20646
2026-01-07 09:56:29.68	218.06	15.71	-58.7	-61.9	6.2	0.00e+00	0	35	104	22506635264	84	20534
2026-01-07 09:56:30.68	218.01	15.57	-58.7	-61.9	6.2	0.00e+00	0	34	104	22506635264	84	20566
2026-01-07 09:56:31.69	217.95	15.43	-58.7	-61.9	6.1	0.00e+00	0	35	104	22506635264	84	20574
2026-01-07 09:56:32.69	217.90	15.30	-58.7	-61.9	6.2	0.00e+00	0	34	104	22506635264	84	20624
2026-01-07 09:56:33.70	217.85	15.16	-58.7	-61.9	6.2	0.00e+00	0	35	104	22506635264	84	20533
2026-01-07 09:56:34.70	217.80	15.02	-58.6	-61.9	6.2	0.00e+00	0	35	104	22506635264	84	20498
2026-01-07 09:56:35.71	217.75	14.88	-58.7	-61.9	6.1	0.00e+00	0	34	104	22506635264	84	20469
2026-01-07 09:56:36.71	217.71	14.75	-58.6	-61.9	6.1	0.00e+00	0	35	104	22506635264	84	20454
2026-01-07 09:56:37.70	217.66	14.62	-58.6	-61.9	6.2	0.00e+00	0	35	104	22506635264	84	20449
2026-01-07 09:56:38.71	217.61	14.49	-58.6	-61.9	6.2	0.00e+00	0	35	104	22506635264	84	20421
2026-01-07 09:56:39.71	217.56	14.35	-58.6	-61.9	6.2	0.00e+00	0	35	104	22506635264	84	20407
2026-01-07 09:56:40.72	217.52	14.22	-58.6	-61.9	6.2	0.00e+00	0	35	104	22506635264	84	20439
2026-01-07 09:56:41.72	217.47	14.09	-58.6	-61.8	6.2	0.00e+00	0	35	104	22506635264	84	20295
2026-01-07 09:56:42.73	217.42	13.96	-58.6	-61.8	6.2	0.00e+00	0	34	104	22506635264	84	20362
2026-01-07 09:56:43.74	217.38	13.83	-58.6	-61.8	6.2	0.00e+00	0	35	104	22506635264	84	20317
2026-01-07 09:56:44.74	217.33	13.71	-58.6	-61.8	6.1	0.00e+00	0	34	104	22506635264	84	20298
2026-01-07 09:56:45.74	217.29	13.58	-58.6	-61.8	6.2	0.00e+00	0	35	104	22506635264	84	20226
2026-01-07 09:56:46.75	217.25	13.45	-58.6	-61.8	6.2	0.00e+00	0	35	104	22506635264	84	20230
2026-01-07 09:56:47.75	217.20	13.33	-58.6	-61.8	6.2	0.00e+00	0	35	104	22506635264	84	20327
2026-01-07 09:56:48.75	217.16	13.21	-58.6	-61.8	6.2	0.00e+00	0	35	104	22506635264	84	20316
2026-01-07 09:56:49.75	217.12	13.08	-58.5	-61.8	6.2	0.00e+00	0	35	104	22506635264	84	20252
2026-01-07 09:56:50.76	217.08	12.96	-58.5	-61.8	6.1	0.00e+00	0	35	104	22506635264	84	20250
2026-01-07 09:56:51.77	217.03	12.84	-58.5	-61.8	6.1	0.00e+00	0	35	104	22506635264	84	20237
2026-01-07 09:56:52.77	216.99	12.72	-58.5	-61.7	6.2	0.00e+00	0	34	104	22506635264	84	20160
2026-01-07 09:56:53.78	216.95	12.60	-58.5	-61.7	6.1	0.00e+00	0	35	104	22506635264	84	20061
2026-01-07 09:56:54.79	216.91	12.48	-58.5	-61.7	6.1	0.00e+00	0	35	104	22506635264	84	20054
2026-01-07 09:56:55.79	216.87	12.36	-58.5	-61.7	6.2	0.00e+00	0	35	104	22506635264	84	20122
2026-01-07 09:56:56.78	216.83	12.24	-58.5	-61.7	6.2	0.00e+00	0	35	104	22506635264	84	20150
2026-01-07 09:56:57.78	216.80	12.13	-58.5	-61.7	6.2	0.00e+00	0	35	104	22506635264	84	20074
2026-01-07 09:56:58.79	216.76	12.01	-58.5	-61.7	6.2	0.00e+00	0	34	104	22506635264	84	19998
2026-01-07 09:56:59.80	216.72	11.89	-58.5	-61.7	6.2	0.00e+00	0	34	104	22506635264	84	20094
2026-01-07 09:57:00.80	216.68	11.78	-58.5	-61.7	6.2	0.00e+00	0	34	104	22506635264	84	20058
2026-01-07 09:57:01.80	216.64	11.66	-58.5	-61.7	6.2	0.00e+00	0	34	104	22506635264	84	19955
2026-01-07 09:57:02.81	216.61	11.55	-58.4	-61.7	6.2	0.00e+00	0	35	104	22506635264	84	19947
2026-01-07 09:57:03.81	216.57	11.44	-58.5	-61.7	6.2	0.00e+00	0	35	104	22506635264	84	20030
2026-01-07 09:57:04.81	216.54	11.32	-58.5	-61.7	6.2	0.00e+00	0	35	104	22506635264	84	20000
2026-01-07 09:57:05.82	216.50	11.21	-58.4	-61.6	6.2	0.00e+00	0	35	104	22506635264	84	19931
2026-01-07 09:57:06.83	216.46	11.10	-58.4	-61.7	6.2	0.00e+00	0	34	104	22506635264	84	19936
2026-01-07 09:57:07.84	216.43	10.99	-58.4	-61.7	6.1	0.00e+00	0	34	104	22506635264	84	19966
2026-01-07 09:57:08.84	216.39	10.88	-58.4	-61.6	6.2	0.00e+00	0	35	104	22506635264	84	19873
2026-01-07 09:57:09.85	216.36	10.77	-58.4	-61.6	6.2	0.00e+00	0	35	104	22506635264	84	19869
2026-01-07 09:57:10.85	216.33	10.66	-58.2	-61.4	6.2	0.00e+00	0	35	104	22506635264	83	20571
2026-01-07 09:57:11.86	216.29	10.55	-58.2	-61.5	6.1	0.00e+00	0	34	104	22506635264	83	20679
2026-01-07 09:57:12.86	216.26	10.45	-58.2	-61.4	6.2	0.00e+00	0	35	104	22506635264	83	20616
2026-01-07 09:57:13.86	216.23	10.34	-58.2	-61.4	6.2	0.00e+00	0	35	104	22506635264	83	20537
2026-01-07 09:57:14.87	216.19	10.23	-58.2	-61.4	6.1	0.00e+00	0	34	104	22506635264	83	20514
2026-01-07 09:57:15.87	216.16	10.13	-58.2	-61.4	6.1	0.00e+00	0	35	104	22506635264	83	20570
2026-01-07 09:57:16.87	216.13	10.02	-58.2	-61.4	6.1	0.00e+00	0	35	104	22506635264	83	20562
2026-01-07 09:57:17.88	216.10	9.92	-58.2	-61.4	6.2	0.00e+00	0	34	104	22506635264	83	20551
2026-01-07 09:57:18.88	216.06	9.82	-58.1	-61.3	6.2	0.00e+00	0	35	104	22506635264	83	20351
2026-01-07 09:57:19.89	216.03	9.71	-58.2	-61.4	6.2	0.00e+00	0	35	104	22506635264	83	20554
2026-01-07 09:57:20.89	216.00	9.61	-58.1	-61.4	6.1	0.00e+00	0	35	104	22506635264	83	20476
2026-01-07 09:57:21.90	215.97	9.51	-58.1	-61.3	6.1	0.00e+00	0	35	104	22506635264	83	20302
2026-01-07 09:57:22.91	215.94	9.41	-58.1	-61.3	6.2	0.00e+00	0	35	104	22506635264	83	20266
2026-01-07 09:57:23.91	215.91	9.31	-58.1	-61.4	6.2	0.00e+00	0	35	104	22506635264	83	20400
2026-01-07 09:57:24.92	215.88	9.20	-58.1	-61.3	6.2	0.00e+00	0	34	104	22506635264	83	20336
2026-01-07 09:57:25.92	215.85	9.10	-58.1	-61.3	6.2	0.00e+00	0	34	104	22506635264	83	20249
2026-01-07 09:57:26.92	215.82	9.01	-58.0	-61.3	6.2	0.00e+00	0	35	104	22506635264	83	20221
2026-01-07 09:57:27.92	215.79	8.91	-58.1	-61.3	6.2	0.00e+00	0	35	104	22506635264	83	20337
2026-01-07 09:57:28.92	215.77	8.81	-58.1	-61.3	6.1	0.00e+00	0	35	104	22506635264	83	20278
2026-01-07 09:57:29.93	215.74	8.71	-58.0	-61.2	6.2	0.00e+00	0	34	104	22506635264	83	20155
2026-01-07 09:57:30.94	215.71	8.61	-58.0	-61.3	6.2	0.00e+00	0	34	104	22506635264	83	20176
2026-01-07 09:57:31.94	215.68	8.52	-58.1	-61.3	6.2	0.00e+00	0	34	104	22506635264	83	20318
2026-01-07 09:57:32.94	215.65	8.42	-58.0	-61.3	6.1	0.00e+00	0	34	104	22506635264	83	20229
2026-01-07 09:57:33.94	215.63	8.32	-58.0	-61.2	6.2	0.00e+00	0	35	104	22506635264	83	20072
2026-01-07 09:57:34.95	215.60	8.23	-58.0	-61.2	6.1	0.00e+00	0	35	104	22506635264	83	20058
2026-01-07 09:57:35.96	215.57	8.13	-58.0	-61.3	6.2	0.00e+00	0	35	104	22506635264	83	20226
2026-01-07 09:57:36.96	215.55	8.04	-58.0	-61.2	6.1	0.00e+00	0	34	104	22506635264	83	20140
2026-01-07 09:57:37.98	215.52	7.94	-58.0	-61.2	6.2	0.00e+00	0	35	104	22506635264	83	20009
2026-01-07 09:57:38.98	215.49	7.85	-57.9	-61.1	6.2	0.00e+00	0	35	104	22506635264	83	19836
2026-01-07 09:57:39.98	215.47	7.76	-58.0	-61.2	6.2	0.00e+00	0	35	104	22506635264	83	19976
2026-01-07 09:57:40.99	215.44	7.66	-57.9	-61.1	6.2	0.00e+00	0	34	104	22506635264	83	19889
2026-01-07 09:57:41.99	215.42	7.57	-57.9	-61.1	6.2	0.00e+00	0	35	104	22506635264	83	19846
2026-01-07 09:57:43.00	215.39	7.48	-57.8	-61.0	6.1	0.00e+00	0	35	104	22506635264	82	20868
2026-01-07 09:57:44.00	215.37	7.39	-57.9	-61.1	6.2	0.00e+00	0	35	104	22506635264	82	21056
2026-01-07 09:57:45.01	215.34	7.30	-57.8	-61.1	6.2	0.00e+00	0	35	104	22506635264	82	20994
2026-01-07 09:57:46.01	215.32	7.21	-57.8	-61.0	6.2	0.00e+00	0	34	104	22506635264	82	20814
2026-01-07 09:57:47.02	215.29	7.12	-57.8	-61.0	6.2	0.00e+00	0	34	104	22506635264	82	20680
2026-01-07 09:57:48.03	215.27	7.03	-57.8	-61.1	6.2	0.00e+00	0	35	104	22506635264	82	20988
2026-01-07 09:57:49.04	215.24	6.94	-57.8	-61.0	6.2	0.00e+00	0	35	104	22506635264	82	20825
2026-01-07 09:57:50.05	215.22	6.85	-57.7	-61.0	6.2	0.00e+00	0	35	104	22506635264	82	20654
2026-01-07 09:57:51.06	215.20	6.76	-57.7	-60.9	6.2	0.00e+00	0	35	104	22506635264	82	20503
2026-01-07 09:57:52.06	215.17	6.67	-57.9	-61.1	6.2	0.00e+00	0	34	104	22506635264	82	20895
2026-01-07 09:57:53.07	215.15	6.58	-57.8	-61.0	6.1	0.00e+00	0	34	104	22506635264	82	20822
2026-01-07 09:57:54.07	215.13	6.50	-57.8	-61.0	6.2	0.00e+00	0	35	104	22506635264	82	20721
2026-01-07 09:57:55.08	215.10	6.41	-57.7	-61.0	6.1	0.00e+00	0	35	104	22506635264	82	20659
2026-01-07 09:57:56.09	215.08	6.32	-57.8	-61.1	6.2	0.00e+00	0	35	104	22506635264	82	20964
2026-01-07 09:57:57.09	215.06	6.24	-57.8	-61.0	6.2	0.00e+00	0	35	104	22506635264	82	20799
2026-01-07 09:57:58.10	215.04	6.15	-57.7	-60.9	6.1	0.00e+00	0	35	104	22506635264	82	20616
2026-01-07 09:57:59.11	215.01	6.06	-57.7	-60.9	6.1	0.00e+00	0	35	104	22506635264	82	20541
2026-01-07 09:58:00.12	214.99	5.98	-57.8	-61.0	6.1	0.00e+00	0	35	104	22506635264	82	20704
2026-01-07 09:58:01.12	214.97	5.89	-57.7	-60.9	6.2	0.00e+00	0	35	104	22506635264	82	20545
2026-01-07 09:58:02.13	214.95	5.81	-57.6	-60.9	6.1	0.00e+00	0	35	104	22506635264	82	20474
2026-01-07 09:58:03.14	214.93	5.72	-57.6	-60.8	6.1	0.00e+00	0	35	104	22506635264	82	20351
2026-01-07 09:58:04.14	214.91	5.64	-57.7	-61.0	6.2	0.00e+00	0	35	104	22506635264	82	20689
2026-01-07 09:58:05.15	214.89	5.56	-57.7	-60.9	6.1	0.00e+00	0	35	104	22506635264	82	20524
2026-01-07 09:58:06.15	214.87	5.47	-57.6	-60.8	6.1	0.00e+00	0	35	104	22506635264	82	20298
2026-01-07 09:58:07.16	214.84	5.39	-57.6	-60.8	6.1	0.00e+00	0	35	104	22506635264	82	20262
2026-01-07 09:58:08.17	214.82	5.31	-57.7	-60.9	6.2	0.00e+00	0	35	104	22506635264	82	20618
2026-01-07 09:58:09.18	214.80	5.23	-57.6	-60.8	6.2	0.00e+00	0	34	104	22506635264	82	20372
2026-01-07 09:58:10.18	214.78	5.14	-57.5	-60.7	6.2	0.00e+00	0	34	104	22506635264	82	20138
2026-01-07 09:58:11.18	214.76	5.06	-57.5	-60.7	6.2	0.00e+00	0	35	104	22506635264	82	19964
2026-01-07 09:58:12.19	214.74	4.98	-57.9	-61.1	6.1	0.00e+00	0	34	104	22506635264	82	20999
2026-01-07 09:58:13.19	214.72	4.90	-58.3	-61.6	6.1	0.00e+00	0	34	104	22506635264	82	22135
2026-01-07 09:58:14.20	214.71	4.82	-58.6	-61.9	6.1	0.00e+00	0	35	104	22506635264	82	22894
2026-01-07 09:58:15.21	214.69	4.74	-58.9	-62.1	6.1	0.00e+00	0	35	104	22506635264	83	22191
2026-01-07 09:58:16.22	214.67	4.66	-59.0	-62.2	6.1	0.00e+00	0	35	104	22506635264	83	22584
2026-01-07 09:58:17.23	214.65	4.58	-59.1	-62.3	6.1	0.00e+00	0	35	104	22506635264	83	22861
2026-01-07 09:58:18.24	214.63	4.50	-59.4	-62.6	6.1	0.00e+00	0	35	104	22506635264	84	22195
2026-01-07 09:58:19.25	214.61	4.42	-59.4	-62.7	6.2	0.00e+00	0	35	104	22506635264	84	22454
2026-01-07 09:58:20.25	214.59	4.34	-59.5	-62.7	6.1	0.00e+00	0	35	104	22506635264	84	22567
2026-01-07 09:58:21.26	214.57	4.27	-59.6	-62.8	6.1	0.00e+00	0	35	104	22506635264	84	22821
2026-01-07 09:58:22.27	214.56	4.19	-59.6	-62.9	6.1	0.00e+00	0	35	104	22506635264	85	21724
2026-01-07 09:58:23.27	214.54	4.11	-59.7	-62.9	6.1	0.00e+00	0	35	104	22506635264	85	21805
2026-01-07 09:58:24.28	214.52	4.03	-59.7	-63.0	6.2	0.00e+00	0	34	104	22506635264	85	21898
2026-01-07 09:58:25.29	214.50	3.96	-59.8	-63.0	6.2	0.00e+00	0	35	104	22506635264	85	21988
2026-01-07 09:58:26.30	214.48	3.88	-59.8	-63.0	6.1	0.00e+00	0	35	104	22506635264	85	22100
2026-01-07 09:58:27.31	214.47	3.80	-59.8	-63.1	6.1	0.00e+00	0	35	104	22506635264	85	22150
2026-01-07 09:58:28.31	214.45	3.73	-59.9	-63.1	6.2	0.00e+00	0	35	104	22506635264	85	22194
2026-01-07 09:58:29.32	214.43	3.65	-59.9	-63.1	6.2	0.00e+00	0	35	104	22506635264	85	22277
2026-01-07 09:58:30.33	214.41	3.57	-59.9	-63.2	6.1	0.00e+00	0	35	104	22506635264	85	22373
2026-01-07 09:58:31.34	214.40	3.50	-59.9	-63.2	6.1	0.00e+00	0	35	104	22506635264	85	22461
2026-01-07 09:58:32.34	214.38	3.42	-60.0	-63.2	6.1	0.00e+00	0	35	104	22506635264	85	22547
2026-01-07 09:58:33.35	214.36	3.35	-60.0	-63.2	6.1	0.00e+00	0	35	104	22506635264	85	22523
2026-01-07 09:58:34.36	214.35	3.27	-60.0	-63.2	6.2	0.00e+00	0	35	104	22506635264	85	22460
2026-01-07 09:58:35.36	214.33	3.20	-59.9	-63.2	6.2	0.00e+00	0	35	104	22506635264	85	22404
2026-01-07 09:58:36.37	214.31	3.12	-59.9	-63.1	6.2	0.00e+00	0	34	104	22506635264	85	22337
2026-01-07 09:58:37.38	214.30	3.05	-59.9	-63.1	6.1	0.00e+00	0	35	104	22506635264	85	22318
2026-01-07 09:58:38.39	214.28	2.98	-59.9	-63.1	6.2	0.00e+00	0	34	104	22506635264	85	22227
2026-01-07 09:58:39.39	214.27	2.90	-59.9	-63.1	6.2	0.00e+00	0	35	104	22506635264	85	22252
2026-01-07 09:58:40.40	214.25	2.83	-59.8	-63.1	6.2	0.00e+00	0	35	104	22506635264	85	22181
2026-01-07 09:58:41.41	214.23	2.76	-59.8	-63.1	6.1	0.00e+00	0	34	104	22506635264	85	22157
2026-01-07 09:58:42.42	214.22	2.68	-59.8	-63.0	6.1	0.00e+00	0	35	104	22506635264	85	22067
2026-01-07 09:58:43.43	214.20	2.61	-59.8	-63.0	6.1	0.00e+00	0	35	104	22506635264	85	22061
2026-01-07 09:58:44.44	214.19	2.54	-59.8	-63.0	6.1	0.00e+00	0	35	104	22506635264	85	21990
2026-01-07 09:58:45.44	214.17	2.47	-59.8	-63.0	6.1	0.00e+00	0	35	104	22506635264	85	22014
2026-01-07 09:58:46.45	214.16	2.40	-59.8	-63.0	6.2	0.00e+00	0	35	104	22506635264	85	22048
2026-01-07 09:58:47.46	214.14	2.32	-59.8	-63.0	6.2	0.00e+00	0	35	104	22506635264	85	21937
2026-01-07 09:58:48.47	214.13	2.25	-59.8	-63.0	6.2	0.00e+00	0	35	104	22506635264	85	21949
2026-01-07 09:58:49.47	214.11	2.18	-59.7	-63.0	6.2	0.00e+00	0	34	104	22506635264	85	21904
2026-01-07 09:58:50.48	214.10	2.11	-59.7	-63.0	6.2	0.00e+00	0	34	104	22506635264	85	21866
2026-01-07 09:58:51.49	214.08	2.04	-59.7	-63.0	6.1	0.00e+00	0	35	104	22506635264	85	21873
2026-01-07 09:58:52.50	214.07	1.97	-59.7	-63.0	6.2	0.00e+00	0	35	104	22506635264	85	21857
2026-01-07 09:58:53.50	214.05	1.90	-59.7	-62.9	6.1	0.00e+00	0	35	104	22506635264	85	21847

#Closed at: 2026-01-07 09:58:54
#Recorded file [22506 MB]: D:/lorett/data/31004_260107_124815.dat