passes_logs/2026/01/07/R3.2S_Murmansk/R3.2S_Murmansk__20260107_040154_NOAA_20_JPSS-1_rec.log

#Pass ID: 20260107_040154_NOAA 20 (JPSS-1)
#Satellite: NOAA 20 (JPSS-1)
#Configuration: NOAA 20
#almurnet v.1.7.20251203
#Start time: 2026-01-07 04:01:53

#Version: 2.2.20231116
#Station: R3.2S_Murmansk
#Location: 33.079688 lon 68.888172 lat
#TLE: 1 43013U 17073A   26006.30790171  .00000126  00000+0  80695-4 0  9991
#TLE: 2 43013  98.7629 307.3394 0001808  51.8724 308.2615 14.19533762421505

#Time	Az	El	Level	Level2	SNR	BER	BlckErr	Temp	State	Recorded	gain1	gain2
2026-01-07 04:01:53.60	47.50	1.97	-57.5	-73.5	3.8	1.49e+00	0	23	0	0	81	22300
2026-01-07 04:01:54.60	47.44	2.03	-57.4	-73.4	3.8	1.49e+00	0	23	104	0	80	23524
2026-01-07 04:01:55.60	47.38	2.09	-57.5	-73.5	3.8	1.49e+00	0	23	104	0	80	23584
2026-01-07 04:01:56.61	47.32	2.15	-57.5	-73.4	3.8	1.49e+00	0	23	104	0	80	23468
2026-01-07 04:01:57.61	47.26	2.20	-57.5	-73.4	3.8	1.49e+00	0	23	104	0	80	23573
2026-01-07 04:01:58.61	47.20	2.26	-57.5	-73.4	3.8	1.49e+00	0	24	104	0	80	23524
2026-01-07 04:01:59.61	47.14	2.32	-57.5	-73.5	3.8	1.49e+00	0	24	104	0	80	23610
2026-01-07 04:02:00.61	47.08	2.38	-57.4	-73.5	3.8	1.49e+00	0	24	104	0	80	23588
2026-01-07 04:02:01.61	47.02	2.44	-57.5	-73.5	3.8	1.49e+00	0	24	104	0	80	23630
2026-01-07 04:02:02.61	46.96	2.49	-57.5	-73.4	3.8	1.49e+00	0	24	104	0	80	23568
2026-01-07 04:02:03.60	46.90	2.55	-57.5	-73.4	3.8	1.49e+00	0	24	104	0	80	23531
2026-01-07 04:02:04.61	46.83	2.61	-57.5	-73.5	3.8	1.49e+00	0	24	104	0	80	23610
2026-01-07 04:02:05.60	46.77	2.67	-57.5	-73.4	3.8	1.49e+00	0	24	104	0	80	23521
2026-01-07 04:02:06.60	46.71	2.73	-57.4	-73.5	3.8	1.49e+00	0	24	104	0	80	23585
2026-01-07 04:02:07.60	46.65	2.79	-57.5	-73.4	3.8	1.49e+00	0	24	104	0	80	23563
2026-01-07 04:02:08.60	46.59	2.85	-57.5	-73.5	3.8	1.49e+00	0	24	104	0	80	23602
2026-01-07 04:02:09.59	46.52	2.90	-57.5	-73.5	3.8	1.49e+00	0	24	104	0	80	23601
2026-01-07 04:02:10.60	46.46	2.96	-57.5	-73.5	3.8	1.49e+00	0	24	104	0	80	23620
2026-01-07 04:02:11.59	46.40	3.02	-57.5	-73.5	3.8	1.49e+00	0	24	104	0	80	23592
2026-01-07 04:02:12.59	46.33	3.08	-57.5	-73.4	3.8	1.49e+00	0	24	104	0	80	23566
2026-01-07 04:02:13.59	46.27	3.14	-57.5	-73.4	3.8	1.49e+00	0	24	104	0	80	23561
2026-01-07 04:02:14.59	46.20	3.20	-57.5	-73.4	3.8	1.49e+00	0	24	104	0	80	23501
2026-01-07 04:02:15.59	46.14	3.26	-57.5	-73.4	3.8	1.49e+00	0	24	104	0	80	23412
2026-01-07 04:02:16.59	46.08	3.32	-57.5	-73.4	3.8	1.49e+00	0	24	104	0	80	23461
2026-01-07 04:02:17.59	46.01	3.38	-57.5	-73.4	3.8	1.49e+00	0	24	104	0	80	23540
2026-01-07 04:02:18.59	45.94	3.44	-57.5	-73.4	3.8	1.49e+00	0	24	104	0	80	23553
2026-01-07 04:02:19.59	45.88	3.50	-57.5	-73.4	3.8	1.49e+00	0	24	104	0	80	23554
2026-01-07 04:02:20.58	45.81	3.56	-57.5	-73.5	3.8	1.49e+00	0	24	104	0	80	23636
2026-01-07 04:02:21.59	45.75	3.62	-57.5	-73.4	3.8	1.49e+00	0	24	104	0	80	23557
2026-01-07 04:02:22.60	45.68	3.68	-57.5	-73.5	3.8	1.49e+00	0	24	104	0	80	23595
2026-01-07 04:02:23.59	45.61	3.74	-57.5	-73.4	3.8	1.49e+00	0	24	104	0	80	23506
2026-01-07 04:02:24.59	45.55	3.80	-57.5	-73.4	3.8	1.49e+00	0	24	104	0	80	23531
2026-01-07 04:02:25.59	45.48	3.86	-57.5	-73.5	3.8	1.49e+00	0	24	104	0	80	23663
2026-01-07 04:02:26.59	45.41	3.92	-57.5	-73.5	3.8	1.49e+00	0	24	104	0	80	23607
2026-01-07 04:02:27.59	45.34	3.98	-57.5	-73.5	3.8	1.49e+00	0	24	104	0	80	23657
2026-01-07 04:02:28.59	45.28	4.04	-57.5	-73.4	3.8	1.49e+00	0	24	104	0	80	23459
2026-01-07 04:02:29.59	45.21	4.10	-57.5	-73.2	3.8	1.49e+00	0	24	104	0	80	23010
2026-01-07 04:02:30.60	45.14	4.16	-57.5	-73.0	3.8	1.49e+00	0	24	104	0	80	22314
2026-01-07 04:02:31.60	45.07	4.22	-57.4	-72.5	3.8	1.49e+00	0	24	104	0	80	21164
2026-01-07 04:02:32.60	45.00	4.29	-57.4	-72.2	3.8	1.49e+00	0	24	104	0	80	20457
2026-01-07 04:02:33.61	44.93	4.35	-57.4	-71.7	3.8	1.49e+00	0	24	104	0	80	19330
2026-01-07 04:02:34.61	44.86	4.41	-57.4	-71.4	3.8	1.49e+00	0	24	104	0	80	18724
2026-01-07 04:02:35.61	44.79	4.47	-57.4	-70.9	3.9	1.49e+00	0	24	104	0	80	17586
2026-01-07 04:02:36.60	44.72	4.53	-57.3	-70.2	4.1	1.46e+00	0	24	0	0	80	16133
2026-01-07 04:02:37.60	44.65	4.59	-57.3	-69.2	4.4	1.35e+00	87	24	0	0	80	14530
2026-01-07 04:02:38.60	44.58	4.65	-57.2	-68.2	4.8	9.63e-01	0	24	0	2097152	80	12883
2026-01-07 04:02:39.60	44.50	4.72	-57.1	-67.0	5.4	5.59e-01	0	25	0	4194304	80	11173
2026-01-07 04:02:40.61	44.43	4.78	-57.0	-66.0	6.1	3.31e-01	0	24	0	5242880	80	10023
2026-01-07 04:02:41.61	44.36	4.84	-56.9	-65.2	6.6	2.04e-01	0	25	0	7340032	80	9145
2026-01-07 04:02:42.60	44.29	4.90	-56.7	-64.7	7.1	1.35e-01	0	24	0	9437184	80	8575
2026-01-07 04:02:43.60	44.21	4.96	-56.7	-64.3	7.4	8.58e-02	0	24	0	11534336	80	8207
2026-01-07 04:02:44.60	44.14	5.03	-56.6	-64.1	7.5	7.46e-02	0	24	0	12582912	79	8537
2026-01-07 04:02:45.59	44.07	5.09	-56.6	-63.7	8.2	5.64e-02	0	25	0	14680064	79	8118
2026-01-07 04:02:46.59	43.99	5.15	-57.1	-66.1	6.2	1.17e-01	0	24	0	16777216	79	10659
2026-01-07 04:02:47.59	43.92	5.21	-56.7	-64.4	7.5	1.89e-01	0	24	0	18874368	79	8794
2026-01-07 04:02:48.59	43.84	5.28	-55.7	-60.4	10.7	4.02e-01	0	24	0	20971520	78	5873
2026-01-07 04:02:49.60	43.77	5.34	-56.9	-65.3	6.9	2.20e-06	0	25	0	22020096	78	10301
2026-01-07 04:02:50.59	43.69	5.40	-56.5	-62.8	8.5	7.14e-01	0	24	0	24117248	79	7357
2026-01-07 04:02:51.59	43.62	5.46	-54.9	-58.6	12.2	3.80e-06	0	25	0	25165824	76	5344
2026-01-07 04:02:52.59	43.54	5.53	-54.8	-58.4	12.4	7.00e-07	0	25	0	27262976	76	5252
2026-01-07 04:02:53.60	43.47	5.59	-54.6	-58.1	12.5	7.00e-07	0	25	0	29360128	75	5349
2026-01-07 04:02:54.59	43.39	5.65	-54.5	-58.0	12.6	7.00e-07	0	25	0	31457280	75	5288
2026-01-07 04:02:55.59	43.31	5.72	-54.5	-57.8	12.7	0.00e+00	0	24	0	33554432	75	5194
2026-01-07 04:02:56.58	43.24	5.78	-54.3	-57.5	12.9	0.00e+00	0	25	0	34603008	75	5029
2026-01-07 04:02:57.57	43.16	5.84	-54.3	-57.6	12.8	0.00e+00	0	25	0	36700160	75	5085
2026-01-07 04:02:58.58	43.08	5.91	-54.3	-57.5	12.9	0.00e+00	0	25	0	38797312	75	4991
2026-01-07 04:02:59.58	43.00	5.97	-54.1	-57.2	13.0	0.00e+00	0	25	0	40894464	74	5130
2026-01-07 04:03:00.58	42.92	6.04	-54.2	-57.3	12.9	0.00e+00	0	25	0	42991616	74	5188
2026-01-07 04:03:01.57	42.85	6.10	-54.2	-57.2	13.0	0.00e+00	0	25	0	44040192	74	5158
2026-01-07 04:03:02.57	42.77	6.16	-54.1	-57.2	13.0	7.00e-07	0	25	0	46137344	74	5103
2026-01-07 04:03:03.58	42.69	6.23	-54.2	-57.3	12.9	0.00e+00	0	25	0	48234496	74	5205
2026-01-07 04:03:04.58	42.61	6.29	-54.3	-57.4	12.9	0.00e+00	0	25	0	50331648	74	5255
2026-01-07 04:03:05.58	42.52	6.36	-54.2	-57.3	13.0	0.00e+00	0	25	0	51380224	74	5164
2026-01-07 04:03:06.59	42.44	6.42	-54.1	-57.1	13.1	0.00e+00	0	25	0	53477376	74	5045
2026-01-07 04:03:07.58	42.36	6.49	-54.1	-57.1	13.1	0.00e+00	0	25	0	55574528	74	5078
2026-01-07 04:03:08.59	42.28	6.55	-54.1	-57.1	13.1	0.00e+00	0	25	0	57671680	74	5064
2026-01-07 04:03:09.59	42.20	6.62	-54.1	-57.0	13.2	0.00e+00	0	25	0	59768832	74	5032
2026-01-07 04:03:10.58	42.12	6.68	-54.1	-57.1	13.1	0.00e+00	0	25	0	60817408	74	5051
2026-01-07 04:03:11.58	42.03	6.75	-53.9	-56.8	13.4	0.00e+00	0	25	0	62914560	74	4896
2026-01-07 04:03:12.58	41.95	6.81	-53.9	-56.7	13.4	0.00e+00	0	25	0	65011712	74	4848
2026-01-07 04:03:13.57	41.87	6.88	-54.0	-56.9	13.3	0.00e+00	0	25	0	67108864	74	4972
2026-01-07 04:03:14.57	41.78	6.94	-54.0	-56.8	13.3	0.00e+00	0	25	0	69206016	74	4918
2026-01-07 04:03:15.57	41.70	7.01	-54.1	-57.0	13.2	0.00e+00	0	25	0	70254592	74	5033
2026-01-07 04:03:16.57	41.61	7.07	-54.1	-57.0	13.2	0.00e+00	0	25	0	72351744	74	5030
2026-01-07 04:03:17.57	41.53	7.14	-54.1	-57.0	13.2	0.00e+00	0	25	0	74448896	74	4998
2026-01-07 04:03:18.57	41.44	7.20	-54.1	-57.0	13.2	0.00e+00	0	25	0	76546048	74	5029
2026-01-07 04:03:19.57	41.36	7.27	-54.1	-57.1	13.2	0.00e+00	0	25	0	77594624	74	5064
2026-01-07 04:03:20.57	41.27	7.34	-54.1	-57.0	13.2	0.00e+00	0	25	0	79691776	74	5035
2026-01-07 04:03:21.58	41.18	7.40	-54.1	-57.0	13.2	0.00e+00	0	25	0	81788928	74	5032
2026-01-07 04:03:22.57	41.10	7.47	-54.1	-57.0	13.3	0.00e+00	0	25	0	83886080	74	5019
2026-01-07 04:03:23.57	41.01	7.53	-54.2	-57.2	13.1	0.00e+00	0	25	0	85983232	74	5128
2026-01-07 04:03:24.57	40.92	7.60	-54.1	-57.1	13.2	0.00e+00	0	25	0	87031808	74	5060
2026-01-07 04:03:25.57	40.83	7.67	-54.2	-57.2	13.1	0.00e+00	0	25	0	89128960	74	5137
2026-01-07 04:03:26.58	40.74	7.73	-54.2	-57.1	13.2	0.00e+00	0	25	0	91226112	74	5064
2026-01-07 04:03:27.57	40.65	7.80	-54.2	-57.1	13.2	0.00e+00	0	25	0	93323264	74	5043
2026-01-07 04:03:28.56	40.56	7.87	-54.2	-57.2	13.2	0.00e+00	0	25	0	95420416	74	5106
2026-01-07 04:03:29.57	40.47	7.93	-54.2	-57.1	13.2	0.00e+00	0	25	0	96468992	74	5046
2026-01-07 04:03:30.56	40.38	8.00	-54.1	-56.9	13.3	7.00e-07	0	25	0	98566144	74	4964
2026-01-07 04:03:31.56	40.29	8.07	-54.0	-56.8	13.4	0.00e+00	0	25	0	100663296	74	4882
2026-01-07 04:03:32.56	40.20	8.14	-54.1	-56.9	13.4	0.00e+00	0	25	0	102760448	74	4963
2026-01-07 04:03:33.55	40.11	8.20	-54.2	-57.1	13.3	0.00e+00	0	25	0	104857600	74	5046
2026-01-07 04:03:34.55	40.02	8.27	-54.2	-57.0	13.3	0.00e+00	0	25	0	105906176	74	5024
2026-01-07 04:03:35.55	39.92	8.34	-54.1	-56.9	13.4	0.00e+00	0	25	0	108003328	74	4949
2026-01-07 04:03:36.55	39.83	8.41	-54.0	-56.8	13.4	0.00e+00	0	25	0	110100480	74	4906
2026-01-07 04:03:37.55	39.74	8.47	-54.0	-56.8	13.5	0.00e+00	0	25	0	112197632	74	4888
2026-01-07 04:03:38.55	39.64	8.54	-54.0	-56.8	13.5	0.00e+00	0	25	0	113246208	74	4886
2026-01-07 04:03:39.54	39.55	8.61	-54.0	-56.7	13.5	0.00e+00	0	25	0	115343360	74	4864
2026-01-07 04:03:40.54	39.45	8.68	-53.9	-56.6	13.6	0.00e+00	0	25	0	117440512	74	4806
2026-01-07 04:03:41.54	39.36	8.75	-54.0	-56.8	13.5	0.00e+00	0	25	0	119537664	74	4886
2026-01-07 04:03:42.54	39.26	8.81	-54.1	-56.9	13.4	0.00e+00	0	25	0	121634816	74	4941
2026-01-07 04:03:43.53	39.17	8.88	-54.0	-56.8	13.5	0.00e+00	0	25	0	122683392	74	4874
2026-01-07 04:03:44.53	39.07	8.95	-54.1	-56.8	13.4	0.00e+00	0	25	0	124780544	74	4909
2026-01-07 04:03:45.54	38.97	9.02	-54.0	-56.7	13.5	0.00e+00	0	25	0	126877696	74	4819
2026-01-07 04:03:46.53	38.88	9.09	-54.0	-56.7	13.5	0.00e+00	0	25	0	128974848	74	4841
2026-01-07 04:03:47.54	38.78	9.16	-54.0	-56.8	13.5	0.00e+00	0	25	0	130023424	74	4877
2026-01-07 04:03:48.53	38.68	9.23	-54.0	-56.7	13.5	0.00e+00	0	25	0	132120576	74	4829
2026-01-07 04:03:49.54	38.58	9.30	-54.0	-56.7	13.6	0.00e+00	0	25	0	134217728	74	4817
2026-01-07 04:03:50.54	38.48	9.36	-54.1	-56.9	13.4	0.00e+00	0	25	0	136314880	74	4954
2026-01-07 04:03:51.54	38.38	9.43	-54.1	-56.9	13.4	0.00e+00	0	25	0	138412032	74	4931
2026-01-07 04:03:52.54	38.28	9.50	-54.0	-56.7	13.5	0.00e+00	0	25	0	139460608	74	4850
2026-01-07 04:03:53.54	38.18	9.57	-54.0	-56.6	13.6	0.00e+00	0	25	0	141557760	74	4797
2026-01-07 04:03:54.54	38.07	9.64	-54.0	-56.6	13.6	0.00e+00	0	25	0	143654912	74	4806
2026-01-07 04:03:55.54	37.97	9.71	-54.0	-56.7	13.6	0.00e+00	0	25	0	145752064	74	4817
2026-01-07 04:03:56.53	37.87	9.78	-53.9	-56.6	13.6	0.00e+00	0	25	0	147849216	74	4786
2026-01-07 04:03:57.53	37.77	9.85	-54.0	-56.6	13.6	0.00e+00	0	25	0	148897792	74	4786
2026-01-07 04:03:58.53	37.66	9.92	-53.9	-56.5	13.7	0.00e+00	0	25	0	150994944	74	4752
2026-01-07 04:03:59.53	37.56	9.99	-53.9	-56.6	13.7	0.00e+00	0	25	0	153092096	74	4761
2026-01-07 04:04:00.54	37.45	10.06	-53.9	-56.5	13.7	0.00e+00	0	25	0	155189248	74	4759
2026-01-07 04:04:01.54	37.35	10.13	-53.9	-56.5	13.7	0.00e+00	0	25	0	156237824	74	4720
2026-01-07 04:04:02.54	37.24	10.20	-53.8	-56.4	13.7	0.00e+00	0	25	0	158334976	74	4705
2026-01-07 04:04:03.54	37.13	10.27	-53.8	-56.4	13.7	0.00e+00	0	25	0	160432128	74	4674
2026-01-07 04:04:04.54	37.03	10.35	-53.6	-56.1	13.8	0.00e+00	0	25	0	162529280	73	4777
2026-01-07 04:04:05.53	36.92	10.42	-53.7	-56.2	13.7	0.00e+00	0	25	0	164626432	73	4825
2026-01-07 04:04:06.53	36.81	10.49	-53.7	-56.2	13.8	0.00e+00	0	25	0	165675008	73	4828
2026-01-07 04:04:07.54	36.70	10.56	-53.6	-56.0	13.9	0.00e+00	0	25	0	167772160	73	4722
2026-01-07 04:04:08.54	36.59	10.63	-53.5	-55.9	13.9	0.00e+00	0	25	0	169869312	73	4703
2026-01-07 04:04:09.54	36.48	10.70	-53.4	-55.8	14.0	0.00e+00	0	25	0	171966464	73	4643
2026-01-07 04:04:10.54	36.37	10.77	-53.5	-55.9	13.9	0.00e+00	0	25	0	174063616	73	4690
2026-01-07 04:04:11.54	36.26	10.84	-53.5	-55.9	13.9	0.00e+00	0	25	0	175112192	73	4698
2026-01-07 04:04:12.54	36.15	10.91	-53.5	-55.9	13.9	0.00e+00	0	25	0	177209344	73	4705
2026-01-07 04:04:13.54	36.04	10.99	-53.5	-55.9	13.9	0.00e+00	0	25	0	179306496	73	4681
2026-01-07 04:04:14.54	35.93	11.06	-53.5	-55.9	14.0	0.00e+00	0	25	0	181403648	73	4654
2026-01-07 04:04:15.55	35.81	11.13	-53.6	-56.0	13.9	0.00e+00	0	25	0	183500800	73	4738
2026-01-07 04:04:16.54	35.70	11.20	-53.5	-55.9	13.9	0.00e+00	0	25	0	184549376	73	4672
2026-01-07 04:04:17.53	35.59	11.27	-53.5	-56.0	13.9	0.00e+00	0	25	0	186646528	73	4720
2026-01-07 04:04:18.53	35.47	11.35	-53.6	-56.0	13.9	0.00e+00	0	25	0	188743680	73	4720
2026-01-07 04:04:19.53	35.36	11.42	-53.5	-55.9	14.0	0.00e+00	0	25	0	190840832	73	4667
2026-01-07 04:04:20.54	35.24	11.49	-53.5	-56.0	13.9	0.00e+00	0	25	0	191889408	73	4713
2026-01-07 04:04:21.53	35.12	11.56	-53.6	-56.0	13.9	0.00e+00	0	25	0	193986560	73	4743
2026-01-07 04:04:22.53	35.01	11.63	-53.7	-56.2	13.8	0.00e+00	0	25	0	196083712	73	4832
2026-01-07 04:04:23.53	34.89	11.71	-53.8	-56.3	13.7	0.00e+00	0	25	0	198180864	73	4898
2026-01-07 04:04:24.52	34.77	11.78	-53.7	-56.2	13.8	0.00e+00	0	25	0	200278016	73	4831
2026-01-07 04:04:25.53	34.65	11.85	-53.7	-56.2	13.8	0.00e+00	0	25	0	201326592	73	4829
2026-01-07 04:04:26.53	34.53	11.93	-53.7	-56.2	13.8	0.00e+00	0	25	0	203423744	73	4817
2026-01-07 04:04:27.52	34.41	12.00	-53.6	-56.1	13.8	0.00e+00	0	25	0	205520896	73	4802
2026-01-07 04:04:28.53	34.29	12.07	-53.6	-56.0	13.9	0.00e+00	0	25	0	207618048	73	4710
2026-01-07 04:04:29.53	34.17	12.15	-53.5	-56.0	13.9	0.00e+00	0	25	0	209715200	73	4708
2026-01-07 04:04:30.53	34.05	12.22	-53.5	-55.9	13.9	0.00e+00	0	25	0	210763776	73	4705
2026-01-07 04:04:31.54	33.92	12.29	-53.5	-55.9	14.0	0.00e+00	0	25	0	212860928	73	4675
2026-01-07 04:04:32.53	33.80	12.37	-53.5	-55.9	14.0	0.00e+00	0	25	0	214958080	73	4678
2026-01-07 04:04:33.53	33.68	12.44	-53.6	-56.0	13.9	0.00e+00	0	25	0	217055232	73	4712
2026-01-07 04:04:34.53	33.55	12.51	-53.5	-55.9	14.0	0.00e+00	0	25	0	219152384	73	4665
2026-01-07 04:04:35.54	33.43	12.59	-53.4	-55.7	14.1	0.00e+00	0	25	0	220200960	73	4553
2026-01-07 04:04:36.53	33.30	12.66	-53.4	-55.7	14.1	0.00e+00	0	25	0	222298112	73	4557
2026-01-07 04:04:37.54	33.18	12.73	-53.4	-55.7	14.1	0.00e+00	0	25	0	224395264	73	4590
2026-01-07 04:04:38.54	33.05	12.81	-53.4	-55.7	14.1	0.00e+00	0	25	0	226492416	73	4571
2026-01-07 04:04:39.54	32.92	12.88	-53.4	-55.7	14.1	0.00e+00	0	25	0	227540992	73	4547
2026-01-07 04:04:40.53	32.79	12.96	-53.3	-55.6	14.1	0.00e+00	0	25	0	229638144	73	4527
2026-01-07 04:04:41.54	32.66	13.03	-53.3	-55.7	14.1	0.00e+00	0	25	0	231735296	73	4547
2026-01-07 04:04:42.53	32.53	13.10	-53.3	-55.6	14.2	0.00e+00	0	25	0	233832448	73	4518
2026-01-07 04:04:43.53	32.40	13.18	-53.4	-55.7	14.1	0.00e+00	0	25	0	235929600	73	4582
2026-01-07 04:04:44.53	32.27	13.25	-53.4	-55.7	14.1	0.00e+00	0	25	0	236978176	73	4569
2026-01-07 04:04:45.53	32.14	13.33	-53.4	-55.8	14.1	0.00e+00	0	25	0	239075328	73	4612
2026-01-07 04:04:46.53	32.01	13.40	-53.3	-55.6	14.2	0.00e+00	0	25	0	241172480	73	4503
2026-01-07 04:04:47.53	31.88	13.48	-53.2	-55.5	14.2	0.00e+00	0	25	0	243269632	73	4443
2026-01-07 04:04:48.53	31.74	13.55	-53.2	-55.5	14.2	0.00e+00	0	25	0	245366784	73	4453
2026-01-07 04:04:49.53	31.61	13.63	-53.2	-55.4	14.3	0.00e+00	0	25	0	246415360	73	4409
2026-01-07 04:04:50.53	31.47	13.70	-53.1	-55.3	14.2	0.00e+00	0	25	0	248512512	72	4614
2026-01-07 04:04:51.53	31.34	13.78	-53.1	-55.3	14.2	0.00e+00	0	25	0	250609664	72	4631
2026-01-07 04:04:52.54	31.20	13.85	-53.1	-55.3	14.2	0.00e+00	0	25	0	252706816	72	4633
2026-01-07 04:04:53.54	31.06	13.93	-53.0	-55.1	14.3	0.00e+00	0	25	0	253755392	72	4537
2026-01-07 04:04:54.54	30.92	14.00	-53.1	-55.2	14.2	0.00e+00	0	25	0	255852544	72	4589
2026-01-07 04:04:55.54	30.78	14.08	-53.1	-55.3	14.2	0.00e+00	0	25	0	257949696	72	4603
2026-01-07 04:04:56.53	30.65	14.15	-53.1	-55.3	14.2	0.00e+00	0	25	0	260046848	72	4638
2026-01-07 04:04:57.53	30.51	14.23	-53.1	-55.2	14.2	0.00e+00	0	25	0	262144000	72	4593
2026-01-07 04:04:58.53	30.36	14.30	-53.1	-55.3	14.2	0.00e+00	0	25	0	263192576	72	4606
2026-01-07 04:04:59.54	30.22	14.38	-53.1	-55.3	14.2	0.00e+00	0	25	0	265289728	72	4605
2026-01-07 04:05:00.54	30.08	14.45	-53.1	-55.2	14.2	0.00e+00	0	25	0	267386880	72	4595
2026-01-07 04:05:01.54	29.94	14.53	-53.0	-55.1	14.3	0.00e+00	0	25	0	269484032	72	4523
2026-01-07 04:05:02.55	29.79	14.61	-53.0	-55.2	14.3	0.00e+00	0	25	0	271581184	72	4572
2026-01-07 04:05:03.54	29.65	14.68	-53.0	-55.1	14.3	0.00e+00	0	25	0	272629760	72	4519
2026-01-07 04:05:04.54	29.50	14.76	-53.0	-55.2	14.2	0.00e+00	0	25	0	274726912	72	4559
2026-01-07 04:05:05.53	29.36	14.83	-52.9	-55.0	14.3	0.00e+00	0	25	0	276824064	72	4486
2026-01-07 04:05:06.53	29.21	14.91	-52.9	-55.0	14.4	0.00e+00	0	25	0	278921216	72	4448
2026-01-07 04:05:07.53	29.06	14.98	-52.8	-54.9	14.4	0.00e+00	0	25	0	281018368	72	4428
2026-01-07 04:05:08.53	28.91	15.06	-52.8	-54.9	14.5	0.00e+00	0	25	0	282066944	72	4398
2026-01-07 04:05:09.53	28.76	15.13	-52.8	-54.9	14.4	0.00e+00	0	25	0	284164096	72	4396
2026-01-07 04:05:10.53	28.61	15.21	-52.9	-54.9	14.4	0.00e+00	0	25	0	286261248	72	4437
2026-01-07 04:05:11.53	28.46	15.29	-52.8	-54.9	14.4	0.00e+00	0	25	0	288358400	72	4427
2026-01-07 04:05:12.53	28.31	15.36	-52.8	-54.9	14.5	0.00e+00	0	25	0	289406976	72	4397
2026-01-07 04:05:13.53	28.16	15.44	-52.8	-54.8	14.5	0.00e+00	0	25	0	291504128	72	4370
2026-01-07 04:05:14.53	28.01	15.51	-52.8	-54.8	14.5	0.00e+00	0	25	0	293601280	72	4363
2026-01-07 04:05:15.53	27.85	15.59	-52.8	-54.8	14.5	0.00e+00	0	25	0	295698432	72	4381
2026-01-07 04:05:16.53	27.70	15.67	-52.8	-54.8	14.5	0.00e+00	0	25	0	297795584	72	4364
2026-01-07 04:05:17.54	27.54	15.74	-52.9	-55.0	14.4	0.00e+00	0	25	0	298844160	72	4442
2026-01-07 04:05:18.54	27.38	15.82	-52.9	-54.9	14.4	0.00e+00	0	25	0	300941312	72	4426
2026-01-07 04:05:19.54	27.23	15.90	-52.9	-55.0	14.4	0.00e+00	0	25	0	303038464	72	4461
2026-01-07 04:05:20.54	27.07	15.97	-52.9	-55.0	14.4	0.00e+00	0	25	0	305135616	72	4482
2026-01-07 04:05:21.54	26.91	16.05	-52.9	-55.0	14.4	0.00e+00	0	25	0	307232768	72	4481
2026-01-07 04:05:22.53	26.75	16.12	-53.0	-55.2	14.3	0.00e+00	0	25	0	308281344	72	4558
2026-01-07 04:05:23.53	26.59	16.20	-53.1	-55.3	14.2	0.00e+00	0	25	0	310378496	72	4602
2026-01-07 04:05:24.52	26.43	16.28	-53.1	-55.2	14.3	0.00e+00	0	25	0	312475648	72	4597
2026-01-07 04:05:25.52	26.27	16.35	-53.1	-55.2	14.3	0.00e+00	0	25	0	314572800	72	4577
2026-01-07 04:05:26.53	26.10	16.43	-53.1	-55.2	14.3	0.00e+00	0	25	0	315621376	72	4587
2026-01-07 04:05:27.52	25.94	16.50	-53.1	-55.2	14.3	0.00e+00	0	25	0	317718528	72	4572
2026-01-07 04:05:28.51	25.78	16.58	-53.1	-55.2	14.3	0.00e+00	0	25	0	319815680	72	4584
2026-01-07 04:05:29.51	25.61	16.66	-53.1	-55.2	14.3	0.00e+00	0	25	0	321912832	72	4569
2026-01-07 04:05:30.51	25.45	16.73	-53.1	-55.3	14.2	0.00e+00	0	25	0	324009984	72	4612
2026-01-07 04:05:31.51	25.28	16.81	-53.1	-55.2	14.3	0.00e+00	0	25	0	325058560	72	4578
2026-01-07 04:05:32.51	25.11	16.88	-53.2	-55.3	14.2	0.00e+00	0	25	0	327155712	72	4636
2026-01-07 04:05:33.51	24.94	16.96	-53.2	-55.4	14.2	0.00e+00	0	25	0	329252864	72	4685
2026-01-07 04:05:34.50	24.78	17.04	-53.1	-55.3	14.3	0.00e+00	0	25	0	331350016	72	4608
2026-01-07 04:05:35.51	24.60	17.11	-53.1	-55.3	14.3	0.00e+00	0	25	0	333447168	72	4617
2026-01-07 04:05:36.51	24.43	17.19	-53.2	-55.3	14.2	0.00e+00	0	25	0	334495744	72	4628
2026-01-07 04:05:37.52	24.26	17.27	-53.1	-55.3	14.2	0.00e+00	0	25	0	336592896	72	4626
2026-01-07 04:05:38.51	24.09	17.34	-53.2	-55.3	14.2	0.00e+00	0	25	0	338690048	72	4644
2026-01-07 04:05:39.52	23.91	17.42	-53.1	-55.2	14.3	0.00e+00	0	25	0	340787200	72	4556
2026-01-07 04:05:40.52	23.73	17.49	-53.1	-55.2	14.3	0.00e+00	0	25	0	342884352	72	4546
2026-01-07 04:05:41.51	23.56	17.57	-53.1	-55.2	14.3	0.00e+00	0	25	0	343932928	72	4593
2026-01-07 04:05:42.51	23.38	17.64	-53.2	-55.3	14.2	0.00e+00	0	25	0	346030080	72	4619
2026-01-07 04:05:43.50	23.21	17.72	-53.3	-55.4	14.2	0.00e+00	0	25	0	348127232	72	4703
2026-01-07 04:05:44.50	23.03	17.80	-53.3	-55.5	14.1	0.00e+00	0	25	0	350224384	72	4746
2026-01-07 04:05:45.50	22.85	17.87	-53.4	-55.6	14.1	0.00e+00	0	25	0	351272960	72	4788
2026-01-07 04:05:46.50	22.67	17.95	-53.4	-55.6	14.1	0.00e+00	0	25	0	353370112	72	4783
2026-01-07 04:05:47.50	22.49	18.02	-53.4	-55.7	14.1	0.00e+00	0	25	0	355467264	72	4815
2026-01-07 04:05:48.49	22.31	18.10	-53.5	-55.7	14.0	0.00e+00	0	25	0	357564416	72	4865
2026-01-07 04:05:49.50	22.12	18.17	-53.4	-55.6	14.1	0.00e+00	0	25	0	359661568	72	4780
2026-01-07 04:05:50.49	21.94	18.25	-53.3	-55.5	14.1	0.00e+00	0	25	0	360710144	72	4739
2026-01-07 04:05:51.48	21.76	18.32	-53.3	-55.5	14.1	0.00e+00	0	25	0	362807296	72	4751
2026-01-07 04:05:52.48	21.57	18.40	-53.4	-55.6	14.1	0.00e+00	0	25	0	364904448	72	4773
2026-01-07 04:05:53.47	21.38	18.47	-53.4	-55.6	14.1	0.00e+00	0	25	0	367001600	72	4795
2026-01-07 04:05:54.47	21.20	18.55	-53.4	-55.6	14.1	0.00e+00	0	25	0	368050176	72	4788
2026-01-07 04:05:55.47	21.01	18.62	-53.4	-55.7	14.1	0.00e+00	0	25	0	370147328	72	4820
2026-01-07 04:05:56.47	20.82	18.70	-53.2	-55.4	14.2	0.00e+00	0	25	0	372244480	72	4669
2026-01-07 04:05:57.47	20.63	18.77	-53.1	-55.3	14.3	0.00e+00	0	25	0	374341632	72	4606
2026-01-07 04:05:58.47	20.43	18.85	-53.2	-55.4	14.2	0.00e+00	0	25	0	376438784	72	4667
2026-01-07 04:05:59.47	20.24	18.92	-53.2	-55.4	14.2	0.00e+00	0	25	0	377487360	72	4671
2026-01-07 04:06:00.46	20.05	18.99	-53.2	-55.3	14.2	0.00e+00	0	25	0	379584512	72	4631
2026-01-07 04:06:01.46	19.86	19.07	-53.2	-55.4	14.2	0.00e+00	0	25	0	381681664	72	4683
2026-01-07 04:06:02.46	19.66	19.14	-53.2	-55.3	14.3	0.00e+00	0	25	0	383778816	72	4636
2026-01-07 04:06:03.46	19.46	19.22	-53.1	-55.2	14.3	0.00e+00	0	25	0	385875968	72	4565
2026-01-07 04:06:04.45	19.27	19.29	-53.1	-55.2	14.3	0.00e+00	0	25	0	386924544	72	4556
2026-01-07 04:06:05.45	19.07	19.36	-53.0	-55.1	14.4	0.00e+00	0	25	0	389021696	72	4506
2026-01-07 04:06:06.46	18.87	19.44	-53.1	-55.2	14.3	0.00e+00	0	25	0	391118848	72	4565
2026-01-07 04:06:07.45	18.67	19.51	-52.9	-55.0	14.4	0.00e+00	0	25	0	393216000	72	4460
2026-01-07 04:06:08.46	18.47	19.58	-52.9	-54.9	14.5	0.00e+00	0	25	0	395313152	72	4414
2026-01-07 04:06:09.46	18.26	19.66	-52.8	-54.8	14.5	0.00e+00	0	25	0	396361728	72	4391
2026-01-07 04:06:10.46	18.06	19.73	-52.8	-54.8	14.5	0.00e+00	0	25	0	398458880	72	4378
2026-01-07 04:06:11.45	17.86	19.80	-52.7	-54.7	14.6	0.00e+00	0	25	0	400556032	72	4292
2026-01-07 04:06:12.45	17.65	19.87	-52.6	-54.5	14.5	0.00e+00	0	25	0	402653184	71	4480
2026-01-07 04:06:13.45	17.45	19.95	-52.5	-54.5	14.5	0.00e+00	0	25	0	403701760	71	4448
2026-01-07 04:06:14.45	17.24	20.02	-52.4	-54.3	14.6	0.00e+00	0	25	0	405798912	71	4371
2026-01-07 04:06:15.45	17.03	20.09	-52.4	-54.2	14.7	0.00e+00	0	25	0	407896064	71	4335
2026-01-07 04:06:16.45	16.82	20.16	-52.2	-54.0	14.8	0.00e+00	0	25	0	409993216	71	4216
2026-01-07 04:06:17.46	16.61	20.23	-51.9	-53.7	14.8	0.00e+00	0	25	0	412090368	70	4294
2026-01-07 04:06:18.46	16.40	20.31	-51.9	-53.6	14.8	0.00e+00	0	25	0	413138944	70	4285
2026-01-07 04:06:19.46	16.19	20.38	-52.0	-53.7	14.8	0.00e+00	0	25	0	415236096	70	4332
2026-01-07 04:06:20.45	15.97	20.45	-51.8	-53.6	14.9	0.00e+00	0	25	0	417333248	70	4251
2026-01-07 04:06:21.44	15.76	20.52	-51.8	-53.5	14.9	0.00e+00	0	25	0	419430400	70	4212
2026-01-07 04:06:22.43	15.55	20.59	-51.6	-53.3	14.8	0.00e+00	0	25	0	420478976	69	4361
2026-01-07 04:06:23.43	15.33	20.66	-51.5	-53.2	14.9	0.00e+00	0	25	0	422576128	69	4314
2026-01-07 04:06:24.43	15.12	20.73	-51.5	-53.2	14.9	0.00e+00	0	25	0	424673280	69	4319
2026-01-07 04:06:25.43	14.90	20.80	-51.6	-53.3	14.9	0.00e+00	0	25	0	426770432	69	4351
2026-01-07 04:06:26.43	14.68	20.87	-51.5	-53.2	14.9	0.00e+00	0	25	0	428867584	69	4307
2026-01-07 04:06:27.44	14.46	20.94	-51.6	-53.3	14.9	0.00e+00	0	25	0	429916160	69	4341
2026-01-07 04:06:28.44	14.23	21.01	-51.5	-53.2	14.9	0.00e+00	0	25	0	432013312	69	4333
2026-01-07 04:06:29.43	14.01	21.07	-51.4	-53.1	14.9	0.00e+00	0	25	0	434110464	69	4267
2026-01-07 04:06:30.43	13.79	21.14	-51.5	-53.1	14.9	0.00e+00	0	25	0	436207616	69	4289
2026-01-07 04:06:31.43	13.57	21.21	-51.4	-53.0	15.0	0.00e+00	0	25	0	438304768	69	4213
2026-01-07 04:06:32.43	13.34	21.28	-51.3	-52.9	15.0	0.00e+00	0	25	0	439353344	69	4188
2026-01-07 04:06:33.43	13.12	21.35	-51.3	-53.0	15.0	0.00e+00	0	25	0	441450496	69	4197
2026-01-07 04:06:34.43	12.89	21.41	-51.4	-53.0	15.0	0.00e+00	0	25	0	443547648	69	4229
2026-01-07 04:06:35.43	12.66	21.48	-51.3	-53.0	15.0	0.00e+00	0	25	0	445644800	69	4204
2026-01-07 04:06:36.44	12.43	21.55	-51.4	-53.0	15.0	0.00e+00	0	25	0	446693376	69	4230
2026-01-07 04:06:37.43	12.20	21.61	-51.3	-52.9	15.0	0.00e+00	0	25	0	448790528	69	4164
2026-01-07 04:06:38.44	11.97	21.68	-51.2	-52.8	15.1	0.00e+00	0	25	0	450887680	69	4124
2026-01-07 04:06:39.44	11.74	21.75	-51.2	-52.8	15.1	0.00e+00	0	25	0	452984832	69	4122
2026-01-07 04:06:40.43	11.50	21.81	-51.2	-52.8	15.0	0.00e+00	0	25	0	455081984	69	4142
2026-01-07 04:06:41.43	11.27	21.88	-51.2	-52.8	15.1	0.00e+00	0	25	0	456130560	69	4144
2026-01-07 04:06:42.43	11.03	21.94	-51.3	-53.0	15.0	0.00e+00	0	25	0	458227712	69	4197
2026-01-07 04:06:43.43	10.80	22.00	-51.2	-52.8	15.1	0.00e+00	0	25	0	460324864	69	4132
2026-01-07 04:06:44.44	10.56	22.07	-51.0	-52.5	15.0	0.00e+00	0	25	0	462422016	68	4240
2026-01-07 04:06:45.44	10.32	22.13	-51.0	-52.6	15.0	0.00e+00	0	25	0	464519168	68	4267
2026-01-07 04:06:46.44	10.08	22.20	-51.2	-52.8	14.9	0.00e+00	0	25	0	465567744	68	4357
2026-01-07 04:06:47.42	9.85	22.26	-51.3	-52.9	14.9	0.00e+00	0	25	0	467664896	68	4406
2026-01-07 04:06:48.43	9.60	22.32	-51.3	-52.9	14.9	0.00e+00	0	25	0	469762048	68	4431
2026-01-07 04:06:49.43	9.36	22.38	-51.4	-53.0	14.8	0.00e+00	0	25	0	471859200	68	4475
2026-01-07 04:06:50.43	9.12	22.44	-51.4	-53.1	14.8	0.00e+00	0	25	0	473956352	68	4510
2026-01-07 04:06:51.42	8.88	22.51	-51.3	-53.0	14.8	0.00e+00	0	25	0	475004928	68	4455
2026-01-07 04:06:52.42	8.63	22.57	-51.3	-53.0	14.9	0.00e+00	0	25	0	477102080	68	4443
2026-01-07 04:06:53.42	8.38	22.63	-51.3	-52.9	14.9	0.00e+00	0	25	0	479199232	68	4419
2026-01-07 04:06:54.42	8.14	22.69	-51.3	-52.9	14.9	0.00e+00	0	25	0	481296384	68	4439
2026-01-07 04:06:55.42	7.89	22.75	-51.4	-53.0	14.8	0.00e+00	0	25	0	482344960	68	4464
2026-01-07 04:06:56.42	7.64	22.81	-51.5	-53.1	14.8	0.00e+00	0	25	0	484442112	68	4527
2026-01-07 04:06:57.42	7.39	22.86	-51.4	-53.1	14.8	0.00e+00	0	25	0	486539264	68	4514
2026-01-07 04:06:58.42	7.14	22.92	-51.4	-53.0	14.8	0.00e+00	0	25	0	488636416	68	4485
2026-01-07 04:06:59.41	6.89	22.98	-51.4	-53.0	14.8	0.00e+00	0	25	0	490733568	68	4464
2026-01-07 04:07:00.41	6.64	23.04	-51.2	-52.8	14.9	0.00e+00	0	25	0	491782144	68	4367
2026-01-07 04:07:01.40	6.39	23.09	-51.2	-52.8	14.9	0.00e+00	0	25	0	493879296	68	4357
2026-01-07 04:07:02.40	6.13	23.15	-51.1	-52.7	14.9	0.00e+00	0	25	0	495976448	68	4335
2026-01-07 04:07:03.40	5.88	23.21	-51.1	-52.7	15.0	0.00e+00	0	25	0	498073600	68	4334
2026-01-07 04:07:04.41	5.62	23.26	-51.0	-52.5	15.0	0.00e+00	0	25	0	500170752	68	4241
2026-01-07 04:07:05.41	5.36	23.32	-51.0	-52.5	15.0	0.00e+00	0	25	0	501219328	68	4237
2026-01-07 04:07:06.41	5.10	23.37	-51.0	-52.6	15.0	0.00e+00	0	25	0	503316480	68	4277
2026-01-07 04:07:07.41	4.84	23.42	-51.1	-52.7	15.0	0.00e+00	0	25	0	505413632	68	4293
2026-01-07 04:07:08.41	4.58	23.48	-51.1	-52.7	15.0	0.00e+00	0	25	0	507510784	68	4330
2026-01-07 04:07:09.40	4.33	23.53	-51.1	-52.7	15.0	0.00e+00	0	25	0	508559360	68	4326
2026-01-07 04:07:10.40	4.06	23.58	-51.0	-52.6	15.0	0.00e+00	0	25	0	510656512	68	4246
2026-01-07 04:07:11.40	3.80	23.63	-50.9	-52.5	15.1	0.00e+00	0	25	0	512753664	68	4196
2026-01-07 04:07:12.40	3.54	23.68	-51.0	-52.6	15.0	0.00e+00	0	25	0	514850816	68	4263
2026-01-07 04:07:13.40	3.27	23.73	-50.9	-52.4	15.1	0.00e+00	0	25	0	516947968	68	4164
2026-01-07 04:07:14.40	3.01	23.78	-50.9	-52.5	15.1	0.00e+00	0	25	0	517996544	68	4198
2026-01-07 04:07:15.40	2.74	23.83	-50.8	-52.3	15.2	0.00e+00	0	25	0	520093696	68	4134
2026-01-07 04:07:16.40	2.48	23.88	-50.8	-52.3	15.1	0.00e+00	0	25	0	522190848	68	4137
2026-01-07 04:07:17.39	2.21	23.93	-50.7	-52.2	15.2	0.00e+00	0	25	0	524288000	68	4068
2026-01-07 04:07:18.39	1.94	23.98	-50.4	-51.9	15.2	0.00e+00	0	25	0	525336576	67	4170
2026-01-07 04:07:19.39	1.67	24.03	-50.6	-52.1	15.1	0.00e+00	0	26	0	527433728	67	4250
2026-01-07 04:07:20.38	1.40	24.07	-50.6	-52.1	15.0	0.00e+00	0	25	0	529530880	67	4288
2026-01-07 04:07:21.38	1.13	24.12	-50.7	-52.3	15.0	0.00e+00	0	25	0	531628032	67	4350
2026-01-07 04:07:22.38	0.86	24.16	-50.9	-52.5	14.9	0.00e+00	0	25	0	533725184	67	4454
2026-01-07 04:07:23.38	0.59	24.21	-50.9	-52.4	14.9	0.00e+00	0	25	0	534773760	67	4438
2026-01-07 04:07:24.38	0.32	24.25	-51.0	-52.6	14.8	0.00e+00	0	25	0	536870912	67	4512
2026-01-07 04:07:25.39	0.04	24.29	-51.0	-52.6	14.8	0.00e+00	0	25	0	538968064	67	4541
2026-01-07 04:07:26.39	359.76	24.34	-51.2	-52.8	14.8	0.00e+00	0	25	0	541065216	67	4640
2026-01-07 04:07:27.39	359.49	24.38	-51.3	-52.9	14.7	0.00e+00	0	25	0	543162368	67	4686
2026-01-07 04:07:28.39	359.21	24.42	-51.3	-53.0	14.7	0.00e+00	0	25	0	544210944	67	4739
2026-01-07 04:07:29.39	358.94	24.46	-51.3	-52.9	14.7	0.00e+00	0	25	0	546308096	67	4686
2026-01-07 04:07:30.37	358.66	24.50	-51.4	-53.0	14.7	0.00e+00	0	25	0	548405248	67	4745
2026-01-07 04:07:31.38	358.38	24.54	-51.4	-53.0	14.7	0.00e+00	0	25	0	550502400	67	4743
2026-01-07 04:07:32.38	358.10	24.58	-51.7	-53.4	14.7	0.00e+00	0	25	0	552599552	68	4663
2026-01-07 04:07:33.38	357.82	24.62	-51.7	-53.5	14.6	0.00e+00	0	25	0	553648128	68	4717
2026-01-07 04:07:34.38	357.54	24.65	-51.9	-53.7	14.6	0.00e+00	0	25	0	555745280	68	4815
2026-01-07 04:07:35.37	357.26	24.69	-51.8	-53.6	14.6	0.00e+00	0	25	0	557842432	68	4769
2026-01-07 04:07:36.37	356.98	24.73	-51.8	-53.6	14.6	0.00e+00	0	25	0	559939584	68	4764
2026-01-07 04:07:37.37	356.70	24.76	-51.8	-53.5	14.6	0.00e+00	0	25	0	560988160	68	4736
2026-01-07 04:07:38.36	356.42	24.80	-52.0	-53.7	14.7	0.00e+00	0	25	0	563085312	69	4595
2026-01-07 04:07:39.36	356.14	24.83	-52.3	-54.1	14.5	0.00e+00	0	25	0	565182464	69	4798
2026-01-07 04:07:40.35	355.85	24.86	-52.2	-54.1	14.5	0.00e+00	0	25	0	567279616	69	4760
2026-01-07 04:07:41.35	355.57	24.89	-52.3	-54.1	14.5	0.00e+00	0	25	0	569376768	69	4808
2026-01-07 04:07:42.35	355.28	24.93	-52.2	-54.0	14.5	0.00e+00	0	25	0	570425344	69	4750
2026-01-07 04:07:43.35	355.00	24.96	-52.2	-54.0	14.5	0.00e+00	0	25	0	572522496	69	4741
2026-01-07 04:07:44.34	354.71	24.99	-52.3	-54.1	14.5	0.00e+00	0	25	0	574619648	69	4797
2026-01-07 04:07:45.34	354.43	25.02	-52.5	-54.3	14.5	0.00e+00	0	25	0	576716800	70	4642
2026-01-07 04:07:46.34	354.14	25.04	-52.6	-54.5	14.4	0.00e+00	0	25	0	577765376	70	4736
2026-01-07 04:07:47.34	353.85	25.07	-52.6	-54.6	14.4	0.00e+00	0	25	0	579862528	70	4769
2026-01-07 04:07:48.33	353.56	25.10	-52.7	-54.7	14.4	0.00e+00	0	25	0	581959680	70	4834
2026-01-07 04:07:49.33	353.27	25.13	-52.7	-54.7	14.4	0.00e+00	0	25	0	584056832	70	4840
2026-01-07 04:07:50.34	352.98	25.15	-52.7	-54.6	14.4	0.00e+00	0	25	0	586153984	70	4804
2026-01-07 04:07:51.33	352.69	25.18	-52.7	-54.6	14.4	0.00e+00	0	25	0	587202560	70	4802
2026-01-07 04:07:52.33	352.40	25.20	-52.7	-54.6	14.4	0.00e+00	0	25	0	589299712	70	4807
2026-01-07 04:07:53.33	352.11	25.22	-52.8	-54.8	14.3	0.00e+00	0	25	0	591396864	70	4872
2026-01-07 04:07:54.33	351.82	25.24	-52.9	-55.0	14.4	0.00e+00	0	25	0	593494016	71	4708
2026-01-07 04:07:55.34	351.53	25.27	-52.7	-54.6	14.5	0.00e+00	0	25	0	595591168	71	4539
2026-01-07 04:07:56.34	351.23	25.29	-52.8	-54.8	14.5	0.00e+00	0	25	0	596639744	71	4610
2026-01-07 04:07:57.34	350.94	25.31	-52.8	-54.8	14.4	0.00e+00	0	25	0	598736896	71	4629
2026-01-07 04:07:58.34	350.65	25.33	-52.9	-54.9	14.4	0.00e+00	0	25	0	600834048	71	4677
2026-01-07 04:07:59.34	350.35	25.34	-53.0	-55.0	14.3	0.00e+00	0	25	0	602931200	71	4735
2026-01-07 04:08:00.34	350.06	25.36	-53.0	-55.1	14.3	0.00e+00	0	25	0	605028352	71	4772
2026-01-07 04:08:01.34	349.77	25.38	-53.0	-55.0	14.3	0.00e+00	0	25	0	606076928	71	4738
2026-01-07 04:08:02.33	349.48	25.39	-53.0	-55.0	14.3	0.00e+00	0	25	0	608174080	71	4735
2026-01-07 04:08:03.34	349.18	25.41	-52.9	-54.9	14.4	0.00e+00	0	25	0	610271232	71	4685
2026-01-07 04:08:04.34	348.88	25.42	-52.9	-54.8	14.4	0.00e+00	0	25	0	612368384	71	4637
2026-01-07 04:08:05.34	348.59	25.44	-52.8	-54.8	14.5	0.00e+00	0	25	0	613416960	71	4607
2026-01-07 04:08:06.34	348.29	25.45	-52.8	-54.8	14.5	0.00e+00	0	25	0	615514112	71	4617
2026-01-07 04:08:07.34	348.00	25.46	-52.6	-54.5	14.6	0.00e+00	0	25	0	617611264	71	4481
2026-01-07 04:08:08.34	347.70	25.47	-52.8	-54.7	14.5	0.00e+00	0	25	0	619708416	71	4572
2026-01-07 04:08:09.33	347.41	25.48	-52.9	-54.9	14.4	0.00e+00	0	25	0	621805568	71	4670
2026-01-07 04:08:10.34	347.11	25.49	-53.1	-55.1	14.3	0.00e+00	0	25	0	622854144	71	4786
2026-01-07 04:08:11.33	346.81	25.50	-53.2	-55.3	14.2	0.00e+00	0	25	0	624951296	71	4899
2026-01-07 04:08:12.33	346.52	25.51	-53.1	-55.2	14.2	0.00e+00	0	25	0	627048448	71	4819
2026-01-07 04:08:13.33	346.22	25.51	-53.1	-55.2	14.3	0.00e+00	0	25	0	629145600	71	4838
2026-01-07 04:08:14.33	345.92	25.52	-53.1	-55.1	14.3	0.00e+00	0	25	0	631242752	71	4799
2026-01-07 04:08:15.34	345.62	25.53	-52.9	-54.9	14.4	0.00e+00	0	25	0	632291328	71	4655
2026-01-07 04:08:16.34	345.33	25.53	-52.8	-54.8	14.4	0.00e+00	0	25	0	634388480	71	4613
2026-01-07 04:08:17.33	345.03	25.53	-52.7	-54.6	14.5	0.00e+00	0	25	0	636485632	71	4526
2026-01-07 04:08:18.33	344.74	25.54	-52.7	-54.6	14.5	0.00e+00	0	25	0	638582784	71	4522
2026-01-07 04:08:19.33	344.44	25.54	-52.5	-54.4	14.6	0.00e+00	0	25	0	639631360	71	4410
2026-01-07 04:08:20.33	344.14	25.54	-52.6	-54.5	14.6	0.00e+00	0	25	0	641728512	71	4449
2026-01-07 04:08:21.33	343.84	25.54	-52.6	-54.4	14.6	0.00e+00	0	25	0	643825664	71	4422
2026-01-07 04:08:22.33	343.55	25.54	-52.6	-54.5	14.6	0.00e+00	0	25	0	645922816	71	4471
2026-01-07 04:08:23.33	343.25	25.54	-52.5	-54.3	14.7	0.00e+00	0	25	0	648019968	71	4371
2026-01-07 04:08:24.33	342.95	25.53	-52.4	-54.3	14.7	0.00e+00	0	25	0	649068544	71	4345
2026-01-07 04:08:25.33	342.66	25.53	-52.2	-54.0	14.9	0.00e+00	0	25	0	651165696	71	4199
2026-01-07 04:08:26.33	342.36	25.53	-52.2	-54.0	14.9	0.00e+00	0	25	0	653262848	71	4213
2026-01-07 04:08:27.33	342.06	25.52	-52.1	-53.8	14.8	0.00e+00	0	25	0	655360000	70	4374
2026-01-07 04:08:28.33	341.76	25.51	-52.1	-53.8	14.8	0.00e+00	0	25	0	657457152	70	4383
2026-01-07 04:08:29.33	341.47	25.51	-52.0	-53.8	14.8	0.00e+00	0	25	0	658505728	70	4356
2026-01-07 04:08:30.31	341.18	25.50	-51.9	-53.6	14.8	0.00e+00	0	25	0	660602880	70	4289
2026-01-07 04:08:31.32	340.88	25.49	-51.7	-53.3	15.0	0.00e+00	0	25	0	662700032	70	4142
2026-01-07 04:08:32.32	340.58	25.48	-51.7	-53.3	14.8	0.00e+00	0	25	0	664797184	69	4372
2026-01-07 04:08:33.32	340.29	25.47	-51.6	-53.3	14.9	0.00e+00	0	25	0	666894336	69	4357
2026-01-07 04:08:34.32	339.99	25.46	-51.6	-53.2	14.9	0.00e+00	0	25	0	667942912	69	4309
2026-01-07 04:08:35.33	339.69	25.45	-51.5	-53.1	15.0	0.00e+00	0	25	0	670040064	69	4265
2026-01-07 04:08:36.32	339.40	25.44	-51.6	-53.2	14.9	0.00e+00	0	25	0	672137216	69	4316
2026-01-07 04:08:37.32	339.10	25.42	-51.6	-53.2	14.9	0.00e+00	0	25	0	674234368	69	4307
2026-01-07 04:08:38.31	338.81	25.41	-51.4	-53.0	15.0	0.00e+00	0	25	0	675282944	69	4222
2026-01-07 04:08:39.31	338.52	25.39	-51.4	-53.0	15.0	0.00e+00	0	25	0	677380096	69	4218
2026-01-07 04:08:40.30	338.22	25.38	-51.4	-53.0	15.0	0.00e+00	0	25	0	679477248	69	4194
2026-01-07 04:08:41.30	337.93	25.36	-51.3	-52.9	15.1	0.00e+00	0	25	0	681574400	69	4167
2026-01-07 04:08:42.29	337.64	25.34	-51.3	-52.9	15.1	0.00e+00	0	25	0	683671552	69	4153
2026-01-07 04:08:43.30	337.34	25.33	-51.0	-52.6	15.0	0.00e+00	0	25	0	684720128	68	4251
2026-01-07 04:08:44.30	337.05	25.31	-51.0	-52.5	15.1	0.00e+00	0	25	0	686817280	68	4226
2026-01-07 04:08:45.31	336.75	25.29	-50.9	-52.4	15.1	0.00e+00	0	25	0	688914432	68	4169
2026-01-07 04:08:46.31	336.46	25.27	-50.8	-52.3	15.1	0.00e+00	0	25	0	691011584	68	4130
2026-01-07 04:08:47.30	336.17	25.24	-50.8	-52.4	15.1	0.00e+00	0	25	0	693108736	68	4147
2026-01-07 04:08:48.31	335.88	25.22	-50.8	-52.3	15.2	0.00e+00	0	25	0	694157312	68	4127
2026-01-07 04:08:49.30	335.59	25.20	-50.8	-52.4	15.1	0.00e+00	0	25	0	696254464	68	4147
2026-01-07 04:08:50.30	335.30	25.17	-50.8	-52.3	15.2	0.00e+00	0	25	0	698351616	68	4138
2026-01-07 04:08:51.30	335.01	25.15	-50.5	-52.0	15.1	0.00e+00	0	25	0	700448768	67	4219
2026-01-07 04:08:52.30	334.72	25.12	-50.6	-52.0	15.1	0.00e+00	0	25	0	701497344	67	4240
2026-01-07 04:08:53.31	334.43	25.10	-50.5	-52.0	15.1	0.00e+00	0	25	0	703594496	67	4211
2026-01-07 04:08:54.30	334.14	25.07	-50.5	-52.0	15.1	0.00e+00	0	25	0	705691648	67	4229
2026-01-07 04:08:55.31	333.85	25.04	-50.6	-52.1	15.0	0.00e+00	0	25	0	707788800	67	4269
2026-01-07 04:08:56.31	333.56	25.01	-50.7	-52.3	15.0	0.00e+00	0	25	0	709885952	67	4353
2026-01-07 04:08:57.30	333.28	24.99	-50.8	-52.4	15.0	0.00e+00	0	25	0	710934528	67	4417
2026-01-07 04:08:58.30	332.99	24.96	-50.9	-52.5	14.9	0.00e+00	0	25	0	713031680	67	4457
2026-01-07 04:08:59.31	332.70	24.92	-51.0	-52.6	14.9	0.00e+00	0	25	0	715128832	67	4514
2026-01-07 04:09:00.31	332.42	24.89	-50.9	-52.5	14.9	0.00e+00	0	25	0	717225984	67	4469
2026-01-07 04:09:01.31	332.13	24.86	-50.9	-52.5	14.9	0.00e+00	0	25	0	719323136	67	4450
2026-01-07 04:09:02.32	331.84	24.83	-51.0	-52.6	14.9	0.00e+00	0	25	0	720371712	67	4499
2026-01-07 04:09:03.32	331.56	24.79	-51.1	-52.6	14.8	0.00e+00	0	25	0	722468864	67	4544
2026-01-07 04:09:04.32	331.28	24.76	-51.0	-52.6	14.9	0.00e+00	0	25	0	724566016	67	4494
2026-01-07 04:09:05.32	330.99	24.72	-51.1	-52.7	14.8	0.00e+00	0	25	0	726663168	67	4566
2026-01-07 04:09:06.32	330.71	24.69	-51.2	-52.8	14.8	0.00e+00	0	25	0	728760320	67	4639
2026-01-07 04:09:07.32	330.43	24.65	-51.4	-53.0	14.7	0.00e+00	0	25	0	729808896	67	4738
2026-01-07 04:09:08.31	330.15	24.61	-51.4	-53.0	14.7	0.00e+00	0	25	0	731906048	67	4733
2026-01-07 04:09:09.31	329.87	24.58	-51.4	-53.0	14.7	0.00e+00	0	25	0	734003200	67	4744
2026-01-07 04:09:10.32	329.59	24.54	-51.6	-53.3	14.7	0.00e+00	0	25	0	736100352	68	4624
2026-01-07 04:09:11.31	329.32	24.50	-51.7	-53.4	14.7	0.00e+00	0	25	0	737148928	68	4677
2026-01-07 04:09:12.32	329.04	24.46	-51.8	-53.5	14.7	0.00e+00	0	25	0	739246080	68	4718
2026-01-07 04:09:13.32	328.76	24.42	-51.9	-53.6	14.6	0.00e+00	0	25	0	741343232	68	4790
2026-01-07 04:09:14.32	328.48	24.37	-51.9	-53.6	14.7	0.00e+00	0	25	0	743440384	69	4505
2026-01-07 04:09:15.31	328.21	24.33	-51.7	-53.4	14.8	0.00e+00	0	25	0	745537536	69	4410
2026-01-07 04:09:16.31	327.93	24.29	-51.8	-53.5	14.8	0.00e+00	0	25	0	746586112	69	4459
2026-01-07 04:09:17.31	327.66	24.25	-51.8	-53.5	14.8	0.00e+00	0	25	0	748683264	69	4460
2026-01-07 04:09:18.31	327.39	24.20	-51.9	-53.6	14.7	0.00e+00	0	25	0	750780416	69	4535
2026-01-07 04:09:19.31	327.11	24.16	-52.0	-53.7	14.7	0.00e+00	0	25	0	752877568	69	4594
2026-01-07 04:09:20.31	326.84	24.11	-52.1	-53.9	14.6	0.00e+00	0	25	0	754974720	69	4684
2026-01-07 04:09:21.31	326.57	24.07	-52.3	-54.1	14.5	0.00e+00	0	25	0	756023296	69	4763
2026-01-07 04:09:22.32	326.30	24.02	-52.3	-54.2	14.5	0.00e+00	0	25	0	758120448	69	4817
2026-01-07 04:09:23.31	326.03	23.97	-52.3	-54.2	14.5	0.00e+00	0	25	0	760217600	69	4831
2026-01-07 04:09:24.32	325.76	23.93	-52.5	-54.3	14.5	0.00e+00	0	25	0	762314752	70	4621
2026-01-07 04:09:25.32	325.49	23.88	-52.5	-54.4	14.5	0.00e+00	0	25	0	764411904	70	4663
2026-01-07 04:09:26.32	325.23	23.83	-52.6	-54.4	14.5	0.00e+00	0	25	0	765460480	70	4695
2026-01-07 04:09:27.32	324.96	23.78	-52.5	-54.4	14.5	0.00e+00	0	25	0	767557632	70	4670
2026-01-07 04:09:28.32	324.69	23.73	-52.6	-54.4	14.5	0.00e+00	0	25	0	769654784	70	4684
2026-01-07 04:09:29.32	324.43	23.68	-52.5	-54.4	14.5	0.00e+00	0	25	0	771751936	70	4671
2026-01-07 04:09:30.33	324.16	23.63	-52.6	-54.4	14.5	0.00e+00	0	25	0	772800512	70	4701
2026-01-07 04:09:31.33	323.90	23.57	-52.5	-54.3	14.5	0.00e+00	0	25	0	774897664	70	4649
2026-01-07 04:09:32.33	323.64	23.52	-52.5	-54.3	14.5	0.00e+00	0	25	0	776994816	70	4626
2026-01-07 04:09:33.32	323.38	23.47	-52.6	-54.5	14.5	0.00e+00	0	25	0	779091968	70	4730
2026-01-07 04:09:34.31	323.12	23.42	-52.7	-54.6	14.4	0.00e+00	0	25	0	781189120	70	4780
2026-01-07 04:09:35.32	322.86	23.36	-52.7	-54.6	14.4	0.00e+00	0	25	0	782237696	70	4796
2026-01-07 04:09:36.33	322.60	23.31	-52.7	-54.6	14.4	0.00e+00	0	25	0	784334848	70	4776
2026-01-07 04:09:37.33	322.34	23.25	-52.7	-54.6	14.4	0.00e+00	0	25	0	786432000	70	4797
2026-01-07 04:09:38.32	322.09	23.20	-52.7	-54.6	14.4	0.00e+00	0	25	0	788529152	70	4777
2026-01-07 04:09:39.32	321.83	23.14	-52.7	-54.6	14.4	0.00e+00	0	25	0	790626304	70	4780
2026-01-07 04:09:40.32	321.58	23.09	-52.7	-54.5	14.4	0.00e+00	0	25	0	791674880	70	4759
2026-01-07 04:09:41.32	321.33	23.03	-52.7	-54.6	14.4	0.00e+00	0	25	0	793772032	70	4762
2026-01-07 04:09:42.31	321.08	22.97	-52.6	-54.5	14.4	0.00e+00	0	25	0	795869184	70	4726
2026-01-07 04:09:43.31	320.82	22.91	-52.7	-54.7	14.4	0.00e+00	0	25	0	797966336	70	4824
2026-01-07 04:09:44.31	320.57	22.86	-52.7	-54.6	14.4	0.00e+00	0	25	0	799014912	70	4802
2026-01-07 04:09:45.31	320.32	22.80	-52.9	-54.9	14.2	0.00e+00	0	25	0	801112064	70	4954
2026-01-07 04:09:46.32	320.07	22.74	-53.1	-55.1	14.3	0.00e+00	0	25	0	803209216	71	4783
2026-01-07 04:09:47.31	319.83	22.68	-53.0	-55.1	14.3	0.00e+00	0	25	0	805306368	71	4769
2026-01-07 04:09:48.32	319.58	22.62	-53.0	-55.0	14.3	0.00e+00	0	25	0	807403520	71	4729
2026-01-07 04:09:49.32	319.33	22.56	-53.0	-55.0	14.3	0.00e+00	0	25	0	808452096	71	4755
2026-01-07 04:09:50.32	319.09	22.50	-53.0	-55.0	14.3	0.00e+00	0	25	0	810549248	71	4739
2026-01-07 04:09:51.31	318.84	22.44	-53.1	-55.1	14.3	0.00e+00	0	25	0	812646400	71	4785
2026-01-07 04:09:52.31	318.60	22.37	-52.9	-54.9	14.4	0.00e+00	0	25	0	814743552	71	4679
2026-01-07 04:09:53.31	318.36	22.31	-53.0	-55.0	14.4	0.00e+00	0	25	0	816840704	71	4726
2026-01-07 04:09:54.30	318.12	22.25	-52.8	-54.7	14.5	0.00e+00	0	25	0	817889280	71	4583
2026-01-07 04:09:55.30	317.88	22.19	-52.7	-54.7	14.5	0.00e+00	0	25	0	819986432	71	4552
2026-01-07 04:09:56.30	317.64	22.12	-52.8	-54.7	14.5	0.00e+00	0	25	0	822083584	71	4569
2026-01-07 04:09:57.30	317.40	22.06	-52.8	-54.7	14.5	0.00e+00	0	25	0	824180736	71	4561
2026-01-07 04:09:58.30	317.17	22.00	-52.6	-54.5	14.6	0.00e+00	0	25	0	825229312	71	4490
2026-01-07 04:09:59.29	316.93	21.93	-52.5	-54.3	14.7	0.00e+00	0	25	0	827326464	71	4389
2026-01-07 04:10:00.29	316.70	21.87	-52.5	-54.4	14.7	0.00e+00	0	25	0	829423616	71	4402
2026-01-07 04:10:01.28	316.46	21.80	-52.4	-54.2	14.7	0.00e+00	0	25	0	831520768	71	4306
2026-01-07 04:10:02.28	316.23	21.74	-52.4	-54.2	14.8	0.00e+00	0	25	0	833617920	71	4294
2026-01-07 04:10:03.28	316.00	21.67	-52.2	-54.0	14.9	0.00e+00	0	25	0	834666496	71	4201
2026-01-07 04:10:04.28	315.77	21.60	-52.1	-53.9	14.7	0.00e+00	0	25	0	836763648	70	4424
2026-01-07 04:10:05.28	315.54	21.54	-52.1	-53.9	14.7	0.00e+00	0	25	0	838860800	70	4396
2026-01-07 04:10:06.28	315.31	21.47	-52.0	-53.8	14.8	0.00e+00	0	25	0	840957952	70	4354
2026-01-07 04:10:07.27	315.08	21.41	-52.0	-53.8	14.8	0.00e+00	0	25	0	843055104	70	4342
2026-01-07 04:10:08.27	314.85	21.34	-52.0	-53.7	14.7	0.00e+00	0	25	0	844103680	70	4319
2026-01-07 04:10:09.26	314.63	21.27	-51.9	-53.7	14.8	0.00e+00	0	25	0	846200832	70	4299
2026-01-07 04:10:10.26	314.40	21.20	-52.0	-53.7	14.8	0.00e+00	0	25	0	848297984	70	4330
2026-01-07 04:10:11.26	314.18	21.13	-51.9	-53.7	14.8	0.00e+00	0	25	0	850395136	70	4297
2026-01-07 04:10:12.26	313.96	21.07	-51.9	-53.6	14.9	0.00e+00	0	25	0	851443712	70	4286
2026-01-07 04:10:13.27	313.73	21.00	-51.9	-53.6	14.9	0.00e+00	0	25	0	853540864	70	4281
2026-01-07 04:10:14.27	313.51	20.93	-52.0	-53.7	14.8	0.00e+00	0	25	0	855638016	70	4305
2026-01-07 04:10:15.27	313.29	20.86	-51.9	-53.6	14.9	0.00e+00	0	25	0	857735168	70	4272
2026-01-07 04:10:16.27	313.07	20.79	-51.9	-53.6	14.9	0.00e+00	0	25	0	859832320	70	4267
2026-01-07 04:10:17.26	312.86	20.72	-51.9	-53.7	14.8	0.00e+00	0	25	0	860880896	70	4302
2026-01-07 04:10:18.27	312.64	20.65	-52.1	-53.9	14.8	0.00e+00	0	25	0	862978048	70	4397
2026-01-07 04:10:19.27	312.42	20.58	-51.9	-53.7	14.9	0.00e+00	0	25	0	865075200	70	4296
2026-01-07 04:10:20.26	312.21	20.51	-51.9	-53.7	14.8	0.00e+00	0	25	0	867172352	70	4300
2026-01-07 04:10:21.26	311.99	20.44	-52.0	-53.7	14.8	0.00e+00	0	25	0	869269504	70	4309
2026-01-07 04:10:22.26	311.78	20.37	-51.9	-53.6	14.9	0.00e+00	0	25	0	870318080	70	4259
2026-01-07 04:10:23.26	311.57	20.30	-51.9	-53.6	14.8	0.00e+00	0	25	0	872415232	70	4287
2026-01-07 04:10:24.26	311.36	20.22	-51.9	-53.6	14.8	0.00e+00	0	25	0	874512384	70	4277
2026-01-07 04:10:25.25	311.15	20.15	-52.0	-53.7	14.8	0.00e+00	0	25	0	876609536	70	4316
2026-01-07 04:10:26.25	310.94	20.08	-52.0	-53.8	14.8	0.00e+00	0	25	0	877658112	70	4345
2026-01-07 04:10:27.25	310.73	20.01	-51.9	-53.7	14.8	0.00e+00	0	25	0	879755264	70	4314
2026-01-07 04:10:28.25	310.52	19.94	-52.0	-53.8	14.8	0.00e+00	0	25	0	881852416	70	4365
2026-01-07 04:10:29.25	310.32	19.86	-52.0	-53.7	14.8	0.00e+00	0	25	0	883949568	70	4335
2026-01-07 04:10:30.25	310.11	19.79	-52.0	-53.8	14.8	0.00e+00	0	25	0	886046720	70	4351
2026-01-07 04:10:31.25	309.91	19.72	-52.1	-53.8	14.7	0.00e+00	0	25	0	887095296	70	4377
2026-01-07 04:10:32.26	309.70	19.64	-52.0	-53.7	14.8	0.00e+00	0	25	0	889192448	70	4320
2026-01-07 04:10:33.26	309.50	19.57	-52.0	-53.7	14.8	0.00e+00	0	25	0	891289600	70	4324
2026-01-07 04:10:34.26	309.30	19.50	-51.9	-53.6	14.9	0.00e+00	0	25	0	893386752	70	4256
2026-01-07 04:10:35.26	309.10	19.43	-51.9	-53.6	14.9	0.00e+00	0	25	0	895483904	70	4252
2026-01-07 04:10:36.26	308.90	19.35	-51.8	-53.4	14.9	0.00e+00	0	25	0	896532480	70	4187
2026-01-07 04:10:37.26	308.70	19.28	-51.8	-53.5	14.9	0.00e+00	0	25	0	898629632	70	4239
2026-01-07 04:10:38.25	308.50	19.20	-51.6	-53.3	14.8	0.00e+00	0	25	0	900726784	69	4363
2026-01-07 04:10:39.25	308.31	19.13	-51.6	-53.3	14.9	0.00e+00	0	25	0	902823936	69	4371
2026-01-07 04:10:40.25	308.11	19.06	-51.6	-53.3	14.8	0.00e+00	0	25	0	904921088	69	4376
2026-01-07 04:10:41.25	307.92	18.98	-51.7	-53.3	14.8	0.00e+00	0	25	0	905969664	69	4381
2026-01-07 04:10:42.25	307.72	18.91	-51.7	-53.4	14.8	0.00e+00	0	25	0	908066816	69	4393
2026-01-07 04:10:43.26	307.53	18.83	-51.6	-53.2	14.9	0.00e+00	0	25	0	910163968	69	4323
2026-01-07 04:10:44.26	307.34	18.76	-51.5	-53.2	14.9	0.00e+00	0	25	0	912261120	69	4310
2026-01-07 04:10:45.26	307.14	18.68	-51.6	-53.3	14.8	0.00e+00	0	25	0	913309696	69	4381
2026-01-07 04:10:46.26	306.95	18.61	-51.6	-53.2	14.9	0.00e+00	0	25	0	915406848	69	4337
2026-01-07 04:10:47.27	306.76	18.53	-51.6	-53.2	14.9	0.00e+00	0	25	0	917504000	69	4322
2026-01-07 04:10:48.27	306.58	18.46	-51.5	-53.1	14.9	0.00e+00	0	25	0	919601152	69	4291
2026-01-07 04:10:49.27	306.39	18.38	-51.5	-53.2	14.9	0.00e+00	0	25	0	921698304	69	4295
2026-01-07 04:10:50.26	306.20	18.31	-51.5	-53.2	14.9	0.00e+00	0	25	0	922746880	69	4304
2026-01-07 04:10:51.27	306.02	18.23	-51.5	-53.1	14.9	0.00e+00	0	25	0	924844032	69	4259
2026-01-07 04:10:52.27	305.83	18.16	-51.2	-52.7	15.1	0.00e+00	0	25	0	926941184	69	4096
2026-01-07 04:10:53.27	305.65	18.08	-51.1	-52.6	15.0	0.00e+00	0	25	0	929038336	68	4269
2026-01-07 04:10:54.27	305.47	18.01	-51.2	-52.8	14.9	0.00e+00	0	25	0	931135488	68	4344
2026-01-07 04:10:55.26	305.29	17.93	-51.1	-52.7	15.0	0.00e+00	0	25	0	932184064	68	4329
2026-01-07 04:10:56.26	305.11	17.86	-51.1	-52.7	14.9	0.00e+00	0	25	0	934281216	68	4323
2026-01-07 04:10:57.26	304.93	17.78	-51.2	-52.8	14.9	0.00e+00	0	25	0	936378368	68	4364
2026-01-07 04:10:58.26	304.75	17.70	-51.3	-52.9	14.9	0.00e+00	0	25	0	938475520	68	4437
2026-01-07 04:10:59.26	304.57	17.63	-51.2	-52.8	14.9	0.00e+00	0	25	0	939524096	68	4357
2026-01-07 04:11:00.26	304.39	17.55	-51.2	-52.8	14.9	0.00e+00	0	25	0	941621248	68	4360
2026-01-07 04:11:01.25	304.22	17.48	-51.1	-52.7	15.0	0.00e+00	0	25	0	943718400	68	4319
2026-01-07 04:11:02.26	304.04	17.40	-51.2	-52.8	14.9	0.00e+00	0	25	0	945815552	68	4346
2026-01-07 04:11:03.26	303.87	17.32	-51.1	-52.6	15.0	0.00e+00	0	25	0	947912704	68	4283
2026-01-07 04:11:04.26	303.69	17.25	-51.1	-52.7	15.0	0.00e+00	0	25	0	948961280	68	4301
2026-01-07 04:11:05.26	303.52	17.17	-51.0	-52.5	15.0	0.00e+00	0	25	0	951058432	68	4240
2026-01-07 04:11:06.26	303.35	17.10	-50.9	-52.5	15.0	0.00e+00	0	25	0	953155584	68	4216
2026-01-07 04:11:07.25	303.18	17.02	-51.0	-52.5	15.0	0.00e+00	0	25	0	955252736	68	4233
2026-01-07 04:11:08.25	303.01	16.94	-51.0	-52.6	15.0	0.00e+00	0	25	0	957349888	68	4245
2026-01-07 04:11:09.25	302.84	16.87	-51.1	-52.7	15.0	0.00e+00	0	25	0	958398464	68	4295
2026-01-07 04:11:10.24	302.68	16.79	-51.2	-52.8	14.9	0.00e+00	0	25	0	960495616	68	4377
2026-01-07 04:11:11.25	302.51	16.72	-51.3	-53.0	14.8	0.00e+00	0	25	0	962592768	68	4447
2026-01-07 04:11:12.24	302.34	16.64	-51.3	-52.9	14.8	0.00e+00	0	25	0	964689920	68	4427
2026-01-07 04:11:13.25	302.17	16.56	-51.4	-53.0	14.8	0.00e+00	0	25	0	966787072	68	4478
2026-01-07 04:11:14.25	302.01	16.49	-51.3	-52.9	14.9	0.00e+00	0	25	0	967835648	68	4441
2026-01-07 04:11:15.25	301.85	16.41	-51.2	-52.8	14.9	0.00e+00	0	25	0	969932800	68	4363
2026-01-07 04:11:16.25	301.68	16.33	-51.2	-52.9	14.9	0.00e+00	0	25	0	972029952	68	4402
2026-01-07 04:11:17.25	301.52	16.26	-51.2	-52.8	14.9	0.00e+00	0	25	0	974127104	68	4378
2026-01-07 04:11:18.25	301.36	16.18	-51.1	-52.7	14.9	0.00e+00	0	25	0	975175680	68	4329
2026-01-07 04:11:19.25	301.20	16.11	-51.1	-52.7	14.9	0.00e+00	0	25	0	977272832	68	4332
2026-01-07 04:11:20.25	301.04	16.03	-51.2	-52.8	14.9	0.00e+00	0	25	0	979369984	68	4370
2026-01-07 04:11:21.24	300.88	15.95	-51.2	-52.8	14.9	0.00e+00	0	25	0	981467136	68	4374
2026-01-07 04:11:22.24	300.72	15.88	-51.2	-52.8	14.9	0.00e+00	0	25	0	983564288	68	4349
2026-01-07 04:11:23.25	300.56	15.80	-51.2	-52.9	14.9	0.00e+00	0	25	0	984612864	68	4403
2026-01-07 04:11:24.25	300.41	15.72	-51.3	-52.9	14.8	0.00e+00	0	25	0	986710016	68	4419
2026-01-07 04:11:25.25	300.25	15.65	-51.3	-53.0	14.8	0.00e+00	0	25	0	988807168	68	4450
2026-01-07 04:11:26.24	300.10	15.57	-51.3	-53.0	14.8	0.00e+00	0	25	0	990904320	68	4465
2026-01-07 04:11:27.25	299.94	15.50	-51.5	-53.1	14.8	0.00e+00	0	25	0	993001472	68	4536
2026-01-07 04:11:28.25	299.79	15.42	-51.5	-53.1	14.7	0.00e+00	0	25	0	994050048	68	4541
2026-01-07 04:11:29.24	299.64	15.34	-51.6	-53.3	14.7	0.00e+00	0	25	0	996147200	68	4632
2026-01-07 04:11:30.25	299.49	15.27	-51.6	-53.3	14.7	0.00e+00	0	25	0	998244352	68	4646
2026-01-07 04:11:31.25	299.34	15.19	-51.7	-53.5	14.6	0.00e+00	0	25	0	1000341504	68	4718
2026-01-07 04:11:32.24	299.19	15.12	-51.8	-53.5	14.6	0.00e+00	0	25	0	1001390080	68	4739
2026-01-07 04:11:33.24	299.04	15.04	-51.8	-53.6	14.6	0.00e+00	0	25	0	1003487232	68	4786
2026-01-07 04:11:34.25	298.89	14.96	-52.0	-53.8	14.6	0.00e+00	0	25	0	1005584384	69	4603
2026-01-07 04:11:35.25	298.74	14.89	-52.0	-53.8	14.6	0.00e+00	0	25	0	1007681536	69	4629
2026-01-07 04:11:36.25	298.59	14.81	-52.1	-53.9	14.5	0.00e+00	0	25	0	1009778688	69	4704
2026-01-07 04:11:37.24	298.45	14.74	-52.1	-54.0	14.5	0.00e+00	0	25	0	1010827264	69	4725
2026-01-07 04:11:38.24	298.30	14.66	-52.1	-54.0	14.5	0.00e+00	0	25	0	1012924416	69	4728
2026-01-07 04:11:39.25	298.16	14.58	-52.2	-54.0	14.5	0.00e+00	0	25	0	1015021568	69	4738
2026-01-07 04:11:40.25	298.01	14.51	-52.2	-54.0	14.5	0.00e+00	0	25	0	1017118720	69	4737
2026-01-07 04:11:41.25	297.87	14.43	-52.2	-54.0	14.5	0.00e+00	0	25	0	1019215872	69	4750
2026-01-07 04:11:42.24	297.73	14.36	-52.1	-53.9	14.6	0.00e+00	0	25	0	1020264448	69	4667
2026-01-07 04:11:43.24	297.59	14.28	-52.0	-53.8	14.6	0.00e+00	0	25	0	1022361600	69	4650
2026-01-07 04:11:44.24	297.45	14.21	-52.0	-53.7	14.6	0.00e+00	0	25	0	1024458752	69	4592
2026-01-07 04:11:45.24	297.31	14.13	-52.0	-53.8	14.5	0.00e+00	0	25	0	1026555904	69	4644
2026-01-07 04:11:46.24	297.17	14.06	-52.0	-53.8	14.6	0.00e+00	0	25	0	1027604480	69	4642
2026-01-07 04:11:47.24	297.03	13.98	-52.1	-53.9	14.5	0.00e+00	0	25	0	1029701632	69	4686
2026-01-07 04:11:48.23	296.89	13.91	-52.2	-54.0	14.5	0.00e+00	0	25	0	1031798784	69	4733
2026-01-07 04:11:49.23	296.75	13.83	-52.3	-54.2	14.5	0.00e+00	0	25	0	1033895936	69	4817
2026-01-07 04:11:50.23	296.62	13.76	-52.5	-54.4	14.5	0.00e+00	0	25	0	1035993088	70	4672
2026-01-07 04:11:51.23	296.48	13.68	-52.5	-54.4	14.5	0.00e+00	0	25	0	1037041664	70	4664
2026-01-07 04:11:52.23	296.34	13.61	-52.5	-54.5	14.4	0.00e+00	0	25	0	1039138816	70	4723
2026-01-07 04:11:53.23	296.21	13.53	-52.5	-54.4	14.4	0.00e+00	0	25	0	1041235968	70	4678
2026-01-07 04:11:54.23	296.08	13.46	-52.5	-54.4	14.5	0.00e+00	0	25	0	1043333120	70	4668
2026-01-07 04:11:55.23	295.94	13.38	-52.5	-54.4	14.4	0.00e+00	0	25	0	1045430272	70	4683
2026-01-07 04:11:56.22	295.81	13.31	-52.5	-54.4	14.4	0.00e+00	0	25	0	1046478848	70	4687
2026-01-07 04:11:57.22	295.68	13.23	-52.4	-54.3	14.5	0.00e+00	0	25	0	1048576000	70	4650
2026-01-07 04:11:58.22	295.55	13.16	-52.5	-54.4	14.5	0.00e+00	0	25	0	1050673152	70	4662
2026-01-07 04:11:59.21	295.42	13.09	-52.5	-54.4	14.4	0.00e+00	0	25	0	1052770304	70	4686
2026-01-07 04:12:00.22	295.29	13.01	-52.5	-54.4	14.5	0.00e+00	0	25	0	1053818880	70	4655
2026-01-07 04:12:01.22	295.16	12.94	-52.6	-54.5	14.4	0.00e+00	0	25	0	1055916032	70	4731
2026-01-07 04:12:02.22	295.03	12.86	-52.6	-54.5	14.3	0.00e+00	0	25	0	1058013184	70	4754
2026-01-07 04:12:03.22	294.90	12.79	-52.6	-54.6	14.4	0.00e+00	0	25	0	1060110336	70	4763
2026-01-07 04:12:04.21	294.78	12.72	-52.7	-54.7	14.3	0.00e+00	0	25	0	1062207488	70	4827
2026-01-07 04:12:05.22	294.65	12.64	-52.7	-54.6	14.3	0.00e+00	0	25	0	1063256064	70	4807
2026-01-07 04:12:06.21	294.52	12.57	-52.8	-54.8	14.3	0.00e+00	0	25	0	1065353216	70	4888
2026-01-07 04:12:07.21	294.40	12.49	-52.8	-54.9	14.2	0.00e+00	0	25	0	1067450368	70	4937
2026-01-07 04:12:08.21	294.27	12.42	-52.8	-54.8	14.2	0.00e+00	0	25	0	1069547520	70	4905
2026-01-07 04:12:09.21	294.15	12.35	-52.8	-54.8	14.2	0.00e+00	0	25	0	1071644672	70	4922
2026-01-07 04:12:10.21	294.03	12.27	-52.8	-54.8	14.2	0.00e+00	0	25	0	1072693248	70	4924
2026-01-07 04:12:11.21	293.90	12.20	-52.9	-54.9	14.2	0.00e+00	0	25	0	1074790400	70	4973
2026-01-07 04:12:12.21	293.78	12.13	-52.9	-54.9	14.2	0.00e+00	0	25	0	1076887552	70	4968
2026-01-07 04:12:13.21	293.66	12.05	-52.9	-54.9	14.2	0.00e+00	0	25	0	1078984704	70	4968
2026-01-07 04:12:14.20	293.54	11.98	-52.8	-54.8	14.2	0.00e+00	0	25	0	1081081856	70	4908
2026-01-07 04:12:15.20	293.42	11.91	-52.8	-54.9	14.2	0.00e+00	0	25	0	1082130432	70	4951
2026-01-07 04:12:16.20	293.30	11.84	-52.9	-54.9	14.2	0.00e+00	0	25	0	1084227584	70	4972
2026-01-07 04:12:17.20	293.18	11.76	-52.9	-54.9	14.2	0.00e+00	0	25	0	1086324736	70	4982
2026-01-07 04:12:18.19	293.06	11.69	-52.9	-54.9	14.2	0.00e+00	0	25	0	1088421888	70	4972
2026-01-07 04:12:19.19	292.95	11.62	-52.9	-54.9	14.2	0.00e+00	0	25	0	1089470464	70	4975
2026-01-07 04:12:20.19	292.83	11.55	-52.9	-55.0	14.2	0.00e+00	0	25	0	1091567616	70	4998
2026-01-07 04:12:21.19	292.71	11.47	-53.0	-55.1	14.2	0.00e+00	0	25	0	1093664768	71	4780
2026-01-07 04:12:22.18	292.60	11.40	-53.0	-55.2	14.2	0.00e+00	0	25	0	1095761920	71	4824
2026-01-07 04:12:23.19	292.48	11.33	-53.0	-55.2	14.2	0.00e+00	0	25	0	1097859072	71	4815
2026-01-07 04:12:24.18	292.37	11.26	-53.1	-55.2	14.2	0.00e+00	0	25	0	1098907648	71	4823
2026-01-07 04:12:25.18	292.25	11.19	-53.0	-55.1	14.2	0.00e+00	0	25	0	1101004800	71	4774
2026-01-07 04:12:26.18	292.14	11.11	-53.0	-55.1	14.2	0.00e+00	0	25	0	1103101952	71	4807
2026-01-07 04:12:27.17	292.03	11.04	-53.0	-55.1	14.2	0.00e+00	0	25	0	1105199104	71	4784
2026-01-07 04:12:28.17	291.91	10.97	-53.1	-55.3	14.1	0.00e+00	0	25	0	1106247680	71	4893
2026-01-07 04:12:29.16	291.80	10.90	-53.1	-55.2	14.1	0.00e+00	0	25	0	1108344832	71	4861
2026-01-07 04:12:30.16	291.69	10.83	-53.1	-55.3	14.1	0.00e+00	0	25	0	1110441984	71	4899
2026-01-07 04:12:31.16	291.58	10.76	-53.2	-55.4	14.1	0.00e+00	0	25	0	1112539136	71	4927
2026-01-07 04:12:32.16	291.47	10.68	-53.3	-55.5	14.0	0.00e+00	0	25	0	1114636288	71	5000
2026-01-07 04:12:33.16	291.36	10.61	-53.4	-55.6	13.9	0.00e+00	0	25	0	1115684864	71	5090
2026-01-07 04:12:34.16	291.25	10.54	-53.4	-55.7	13.9	0.00e+00	0	25	0	1117782016	71	5147
2026-01-07 04:12:35.15	291.14	10.47	-53.5	-55.8	13.9	0.00e+00	0	25	0	1119879168	72	4901
2026-01-07 04:12:36.15	291.03	10.40	-53.6	-56.0	13.8	0.00e+00	0	25	0	1121976320	72	5000
2026-01-07 04:12:37.15	290.93	10.33	-53.6	-56.0	13.8	0.00e+00	0	25	0	1123024896	72	5027
2026-01-07 04:12:38.15	290.82	10.26	-53.6	-56.0	13.8	0.00e+00	0	25	0	1125122048	72	5033
2026-01-07 04:12:39.14	290.71	10.19	-53.7	-56.1	13.8	0.00e+00	0	25	0	1127219200	72	5054
2026-01-07 04:12:40.14	290.61	10.12	-53.7	-56.1	13.7	0.00e+00	0	25	0	1129316352	72	5097
2026-01-07 04:12:41.14	290.50	10.05	-53.6	-56.0	13.8	0.00e+00	0	25	0	1131413504	72	5013
2026-01-07 04:12:42.14	290.40	9.98	-53.7	-56.1	13.7	0.00e+00	0	25	0	1132462080	72	5093
2026-01-07 04:12:43.13	290.29	9.91	-53.8	-56.2	13.7	0.00e+00	0	25	0	1134559232	72	5125
2026-01-07 04:12:44.13	290.19	9.84	-53.8	-56.2	13.7	0.00e+00	0	25	0	1136656384	72	5143
2026-01-07 04:12:45.14	290.09	9.77	-53.8	-56.2	13.7	0.00e+00	0	25	0	1138753536	72	5137
2026-01-07 04:12:46.13	289.98	9.70	-53.9	-56.4	13.6	0.00e+00	0	25	0	1140850688	72	5236
2026-01-07 04:12:47.13	289.88	9.63	-53.9	-56.4	13.6	0.00e+00	0	25	0	1141899264	72	5260
2026-01-07 04:12:48.12	289.78	9.56	-53.8	-56.3	13.6	0.00e+00	0	25	0	1143996416	72	5200
2026-01-07 04:12:49.13	289.68	9.49	-54.0	-56.6	13.6	0.00e+00	0	25	0	1146093568	73	5044
2026-01-07 04:12:50.13	289.58	9.42	-54.0	-56.6	13.6	0.00e+00	0	25	0	1148190720	73	5045
2026-01-07 04:12:51.13	289.48	9.35	-54.0	-56.5	13.6	0.00e+00	0	25	0	1149239296	73	5021
2026-01-07 04:12:52.12	289.38	9.28	-53.9	-56.5	13.6	0.00e+00	0	25	0	1151336448	73	5006
2026-01-07 04:12:53.13	289.28	9.21	-54.0	-56.6	13.6	0.00e+00	0	25	0	1153433600	73	5046
2026-01-07 04:12:54.12	289.18	9.14	-54.0	-56.5	13.6	0.00e+00	0	25	0	1155530752	73	5036
2026-01-07 04:12:55.12	289.08	9.07	-53.9	-56.5	13.6	0.00e+00	0	25	0	1157627904	73	5005
2026-01-07 04:12:56.12	288.98	9.01	-54.0	-56.5	13.6	0.00e+00	0	25	0	1158676480	73	5021
2026-01-07 04:12:57.11	288.89	8.94	-53.9	-56.4	13.6	0.00e+00	0	25	0	1160773632	73	4966
2026-01-07 04:12:58.11	288.79	8.87	-53.9	-56.4	13.7	0.00e+00	0	25	0	1162870784	73	4956
2026-01-07 04:12:59.11	288.69	8.80	-53.9	-56.4	13.6	0.00e+00	0	25	0	1164967936	73	4980
2026-01-07 04:13:00.11	288.59	8.73	-53.8	-56.4	13.7	0.00e+00	0	25	0	1167065088	73	4933
2026-01-07 04:13:01.11	288.50	8.66	-53.9	-56.5	13.6	0.00e+00	0	25	0	1168113664	73	5002
2026-01-07 04:13:02.11	288.40	8.60	-53.9	-56.4	13.6	0.00e+00	0	25	0	1170210816	73	4981
2026-01-07 04:13:03.11	288.31	8.53	-54.0	-56.5	13.6	0.00e+00	0	25	0	1172307968	73	5039
2026-01-07 04:13:04.11	288.21	8.46	-53.9	-56.5	13.6	0.00e+00	0	25	0	1174405120	73	5015
2026-01-07 04:13:05.11	288.12	8.39	-54.0	-56.6	13.5	0.00e+00	0	25	0	1176502272	73	5066
2026-01-07 04:13:06.10	288.03	8.32	-54.0	-56.6	13.5	0.00e+00	0	25	0	1177550848	73	5055
2026-01-07 04:13:07.11	287.93	8.26	-54.1	-56.8	13.4	0.00e+00	0	25	0	1179648000	73	5167
2026-01-07 04:13:08.11	287.84	8.19	-54.1	-56.8	13.4	0.00e+00	0	25	0	1181745152	73	5175
2026-01-07 04:13:09.11	287.75	8.12	-54.1	-56.8	13.4	0.00e+00	0	25	0	1183842304	73	5160
2026-01-07 04:13:10.11	287.66	8.05	-54.1	-56.9	13.3	0.00e+00	0	25	0	1184890880	73	5222
2026-01-07 04:13:11.11	287.57	7.99	-54.2	-56.9	13.3	0.00e+00	0	25	0	1186988032	73	5267
2026-01-07 04:13:12.11	287.48	7.92	-54.3	-57.1	13.2	0.00e+00	0	25	0	1189085184	73	5374
2026-01-07 04:13:13.11	287.39	7.85	-54.3	-57.1	13.2	0.00e+00	0	25	0	1191182336	73	5353
2026-01-07 04:13:14.11	287.30	7.79	-54.3	-57.2	13.2	0.00e+00	0	25	0	1193279488	73	5417
2026-01-07 04:13:15.10	287.21	7.72	-54.3	-57.2	13.1	0.00e+00	0	25	0	1194328064	73	5433
2026-01-07 04:13:16.10	287.12	7.65	-54.3	-57.1	13.2	0.00e+00	0	25	0	1196425216	73	5391
2026-01-07 04:13:17.09	287.03	7.59	-54.3	-57.1	13.2	0.00e+00	0	25	0	1198522368	73	5352
2026-01-07 04:13:18.09	286.94	7.52	-54.4	-57.3	13.0	0.00e+00	0	25	0	1200619520	73	5485
2026-01-07 04:13:19.08	286.85	7.45	-54.3	-57.1	13.2	0.00e+00	0	25	0	1201668096	73	5369
2026-01-07 04:13:20.09	286.77	7.39	-54.3	-57.1	13.2	0.00e+00	0	25	0	1203765248	73	5391
2026-01-07 04:13:21.09	286.68	7.32	-54.3	-57.2	13.1	0.00e+00	0	25	0	1205862400	73	5444
2026-01-07 04:13:22.09	286.59	7.26	-54.4	-57.3	13.0	0.00e+00	0	25	0	1207959552	73	5493
2026-01-07 04:13:23.08	286.51	7.19	-54.4	-57.3	13.0	0.00e+00	0	25	0	1210056704	73	5495
2026-01-07 04:13:24.08	286.42	7.12	-54.5	-57.5	13.1	0.00e+00	0	25	0	1211105280	74	5280
2026-01-07 04:13:25.08	286.34	7.06	-54.5	-57.4	13.1	0.00e+00	0	25	0	1213202432	74	5262
