passes_logs/2026/01/07/R3.2S_Murmansk/R3.2S_Murmansk__20260107_071943_NOAA_20_JPSS-1_rec.log

#Pass ID: 20260107_071943_NOAA 20 (JPSS-1)
#Satellite: NOAA 20 (JPSS-1)
#Configuration: NOAA 20
#almurnet v.1.7.20251203
#Start time: 2026-01-07 07:19:45

#Version: 2.2.20231116
#Station: R3.2S_Murmansk
#Location: 33.079688 lon 68.888172 lat
#TLE: 1 43013U 17073A   26006.30790171  .00000126  00000+0  80695-4 0  9991
#TLE: 2 43013  98.7629 307.3394 0001808  51.8724 308.2615 14.19533762421505

#Time	Az	El	Level	Level2	SNR	BER	BlckErr	Temp	State	Recorded	gain1	gain2
2026-01-07 07:19:45.15	101.74	2.08	-57.7	-73.6	3.8	1.49e+00	0	23	0	0	81	22723
2026-01-07 07:19:46.15	101.70	2.14	-57.6	-73.6	3.8	1.49e+00	0	23	104	0	80	24013
2026-01-07 07:19:47.14	101.65	2.20	-57.6	-73.6	3.8	1.49e+00	0	23	104	0	80	23958
2026-01-07 07:19:48.14	101.61	2.27	-57.6	-73.6	3.8	1.49e+00	0	23	104	0	80	23901
2026-01-07 07:19:49.14	101.56	2.33	-57.6	-73.6	3.8	1.49e+00	0	23	104	0	80	23994
2026-01-07 07:19:50.14	101.51	2.39	-57.6	-73.6	3.8	1.49e+00	0	23	104	0	80	24068
2026-01-07 07:19:51.14	101.47	2.45	-57.6	-73.6	3.8	1.49e+00	0	23	104	0	80	24104
2026-01-07 07:19:52.14	101.42	2.51	-57.6	-73.6	3.8	1.49e+00	0	24	104	0	80	24054
2026-01-07 07:19:53.14	101.37	2.57	-57.6	-73.6	3.8	1.49e+00	0	24	104	0	80	24078
2026-01-07 07:19:54.14	101.32	2.63	-57.6	-73.6	3.8	1.49e+00	0	24	104	0	80	24122
2026-01-07 07:19:55.13	101.28	2.69	-57.6	-73.7	3.8	1.49e+00	0	24	104	0	80	24140
2026-01-07 07:19:56.14	101.23	2.76	-57.6	-73.7	3.8	1.49e+00	0	24	104	0	80	24140
2026-01-07 07:19:57.13	101.18	2.82	-57.6	-73.7	3.8	1.49e+00	0	24	104	0	80	24188
2026-01-07 07:19:58.13	101.13	2.88	-57.7	-73.6	3.8	1.49e+00	0	24	104	0	80	24034
2026-01-07 07:19:59.13	101.08	2.94	-57.7	-73.6	3.8	1.49e+00	0	24	104	0	80	24064
2026-01-07 07:20:00.12	101.03	3.00	-57.6	-73.6	3.8	1.49e+00	0	24	104	0	80	24051
2026-01-07 07:20:01.12	100.98	3.07	-57.6	-73.6	3.8	1.49e+00	0	24	104	0	80	24003
2026-01-07 07:20:02.11	100.94	3.13	-57.7	-73.6	3.8	1.49e+00	0	24	104	0	80	24001
2026-01-07 07:20:03.11	100.89	3.19	-57.6	-73.6	3.8	1.49e+00	0	24	104	0	80	24048
2026-01-07 07:20:04.12	100.84	3.25	-57.7	-73.6	3.8	1.49e+00	0	24	104	0	80	24060
2026-01-07 07:20:05.12	100.79	3.32	-57.7	-73.7	3.8	1.49e+00	0	24	104	0	80	24161
2026-01-07 07:20:06.12	100.74	3.38	-57.7	-73.7	3.8	1.49e+00	0	24	104	0	80	24145
2026-01-07 07:20:07.12	100.68	3.44	-57.7	-73.6	3.8	1.49e+00	0	24	104	0	80	24057
2026-01-07 07:20:08.13	100.63	3.51	-57.7	-73.6	3.8	1.49e+00	0	24	104	0	80	23958
2026-01-07 07:20:09.12	100.58	3.57	-57.7	-73.5	3.8	1.49e+00	0	24	104	0	80	23664
2026-01-07 07:20:10.13	100.53	3.63	-57.7	-73.4	3.8	1.49e+00	0	24	104	0	80	23495
2026-01-07 07:20:11.13	100.48	3.70	-57.6	-73.4	3.8	1.49e+00	0	24	104	0	80	23385
2026-01-07 07:20:12.12	100.43	3.76	-57.7	-73.4	3.8	1.49e+00	0	24	104	0	80	23499
2026-01-07 07:20:13.12	100.38	3.82	-57.6	-73.4	3.8	1.49e+00	0	24	104	0	80	23406
2026-01-07 07:20:14.12	100.32	3.89	-57.6	-73.5	3.8	1.49e+00	0	24	104	0	80	23730
2026-01-07 07:20:15.13	100.27	3.95	-57.7	-73.6	3.8	1.49e+00	0	24	104	0	80	23943
2026-01-07 07:20:16.12	100.22	4.02	-57.7	-73.7	3.8	1.49e+00	0	24	104	0	80	24168
2026-01-07 07:20:17.12	100.17	4.08	-57.6	-73.6	3.8	1.49e+00	0	24	104	0	80	23968
2026-01-07 07:20:18.13	100.11	4.15	-57.6	-73.4	3.8	1.49e+00	0	24	104	0	80	23413
2026-01-07 07:20:19.13	100.06	4.21	-57.6	-72.9	3.8	1.49e+00	0	24	104	0	80	22188
2026-01-07 07:20:20.12	100.01	4.28	-57.6	-72.3	3.8	1.49e+00	0	24	104	0	80	20658
2026-01-07 07:20:21.12	99.95	4.34	-57.6	-71.6	3.8	1.49e+00	0	24	104	0	80	19051
2026-01-07 07:20:22.11	99.90	4.40	-57.5	-70.6	4.1	1.46e+00	0	24	0	0	80	16978
2026-01-07 07:20:23.12	99.84	4.47	-57.5	-69.7	4.3	1.40e+00	55	24	0	0	80	15339
2026-01-07 07:20:24.12	99.79	4.54	-57.4	-69.0	4.5	1.20e+00	0	24	0	1048576	80	14088
2026-01-07 07:20:25.13	99.73	4.60	-57.4	-68.1	5.0	7.76e-01	0	24	0	3145728	80	12728
2026-01-07 07:20:26.11	99.68	4.67	-57.3	-67.4	5.3	5.33e-01	0	24	0	5242880	80	11696
2026-01-07 07:20:27.12	99.62	4.73	-57.2	-66.7	5.8	4.33e-01	0	24	0	7340032	80	10793
2026-01-07 07:20:28.12	99.57	4.80	-57.1	-66.1	6.1	2.79e-01	0	24	0	8388608	80	10175
2026-01-07 07:20:29.12	99.51	4.86	-57.1	-65.7	6.4	2.19e-01	0	24	0	10485760	80	9615
2026-01-07 07:20:30.12	99.45	4.93	-57.0	-65.2	6.8	1.51e-01	0	24	0	12582912	80	9171
2026-01-07 07:20:31.12	99.40	5.00	-57.0	-65.1	7.0	1.31e-01	0	24	0	14680064	80	8984
2026-01-07 07:20:32.12	99.34	5.06	-56.9	-64.8	7.1	1.11e-01	0	24	0	16777216	80	8739
2026-01-07 07:20:33.12	99.28	5.13	-57.0	-64.9	7.0	1.21e-01	0	24	0	17825792	80	8818
2026-01-07 07:20:34.12	99.23	5.20	-55.8	-60.3	11.2	8.09e-03	0	24	0	19922944	78	5818
2026-01-07 07:20:35.12	99.17	5.26	-57.6	-70.7	3.9	1.20e+00	0	24	104	20971520	80	17265
2026-01-07 07:20:36.12	99.11	5.33	-57.7	-68.2	5.0	3.95e-01	0	25	0	20971520	80	12936
2026-01-07 07:20:37.13	99.05	5.40	-55.6	-60.0	11.2	5.14e-04	0	25	0	23068672	77	5977
2026-01-07 07:20:38.12	98.99	5.46	-55.1	-59.0	12.0	2.59e-05	0	25	0	25165824	76	5632
2026-01-07 07:20:39.12	98.94	5.53	-55.1	-59.0	11.9	7.60e-06	0	24	0	27262976	76	5646
2026-01-07 07:20:40.12	98.88	5.60	-54.7	-58.1	12.7	2.20e-06	0	25	0	29360128	76	5062
2026-01-07 07:20:41.11	98.82	5.67	-54.3	-57.4	13.0	7.00e-07	0	25	0	30408704	75	4971
2026-01-07 07:20:42.10	98.76	5.73	-54.1	-57.1	13.1	0.00e+00	0	24	0	32505856	74	5080
2026-01-07 07:20:43.10	98.70	5.80	-54.0	-56.9	13.3	0.00e+00	0	25	0	34603008	74	4929
2026-01-07 07:20:44.09	98.64	5.87	-54.1	-57.0	13.2	0.00e+00	0	24	0	36700160	74	5031
2026-01-07 07:20:45.09	98.58	5.94	-53.9	-56.8	13.3	7.00e-07	0	25	0	37748736	74	4883
2026-01-07 07:20:46.09	98.52	6.00	-54.0	-57.0	13.2	0.00e+00	0	25	0	39845888	74	4992
2026-01-07 07:20:47.08	98.46	6.07	-54.0	-56.9	13.3	0.00e+00	0	25	0	41943040	74	4947
2026-01-07 07:20:48.07	98.40	6.14	-54.0	-56.9	13.3	0.00e+00	0	25	0	44040192	74	4938
2026-01-07 07:20:49.06	98.33	6.21	-53.9	-56.8	13.3	0.00e+00	0	24	0	46137344	74	4901
2026-01-07 07:20:50.06	98.27	6.28	-53.9	-56.8	13.3	0.00e+00	0	25	0	47185920	74	4880
2026-01-07 07:20:51.06	98.21	6.35	-53.9	-56.8	13.4	0.00e+00	0	25	0	49283072	74	4885
2026-01-07 07:20:52.06	98.15	6.42	-53.8	-56.6	13.5	0.00e+00	0	25	0	51380224	74	4780
2026-01-07 07:20:53.06	98.08	6.49	-53.9	-56.7	13.4	0.00e+00	0	25	0	53477376	74	4839
2026-01-07 07:20:54.06	98.02	6.56	-53.9	-56.8	13.4	0.00e+00	0	25	0	54525952	74	4881
2026-01-07 07:20:55.06	97.96	6.62	-53.9	-56.8	13.3	0.00e+00	0	25	0	56623104	74	4896
2026-01-07 07:20:56.06	97.89	6.69	-53.8	-56.6	13.5	0.00e+00	0	25	0	58720256	74	4814
2026-01-07 07:20:57.06	97.83	6.76	-54.0	-56.9	13.3	0.00e+00	0	25	0	60817408	74	4947
2026-01-07 07:20:58.06	97.76	6.84	-54.0	-56.9	13.2	0.00e+00	0	25	0	62914560	74	4950
2026-01-07 07:20:59.07	97.70	6.91	-53.9	-56.7	13.4	0.00e+00	0	25	0	63963136	74	4868
2026-01-07 07:21:00.07	97.63	6.98	-53.9	-56.8	13.4	0.00e+00	0	25	0	66060288	74	4886
2026-01-07 07:21:01.06	97.57	7.05	-54.0	-57.0	13.2	0.00e+00	0	25	0	68157440	74	4984
2026-01-07 07:21:02.07	97.50	7.12	-54.0	-56.8	13.4	0.00e+00	0	25	0	70254592	74	4900
2026-01-07 07:21:03.07	97.44	7.19	-54.0	-56.8	13.4	0.00e+00	0	25	0	72351744	74	4904
2026-01-07 07:21:04.05	97.37	7.26	-54.0	-56.9	13.3	0.00e+00	0	25	0	73400320	74	4934
2026-01-07 07:21:05.06	97.30	7.33	-53.9	-56.7	13.4	0.00e+00	0	25	0	75497472	74	4841
2026-01-07 07:21:06.06	97.24	7.40	-54.0	-56.8	13.4	0.00e+00	0	25	0	77594624	74	4898
2026-01-07 07:21:07.06	97.17	7.47	-54.0	-56.9	13.3	0.00e+00	0	25	0	79691776	74	4936
2026-01-07 07:21:08.06	97.10	7.55	-53.9	-56.7	13.5	0.00e+00	0	25	0	81788928	74	4833
2026-01-07 07:21:09.06	97.03	7.62	-54.0	-56.9	13.3	0.00e+00	0	25	0	82837504	74	4937
2026-01-07 07:21:10.06	96.96	7.69	-53.9	-56.7	13.5	0.00e+00	0	25	0	84934656	74	4824
2026-01-07 07:21:11.06	96.89	7.76	-53.9	-56.8	13.4	0.00e+00	0	25	0	87031808	74	4883
2026-01-07 07:21:12.06	96.82	7.83	-54.0	-56.8	13.4	0.00e+00	0	25	0	89128960	74	4908
2026-01-07 07:21:13.06	96.76	7.91	-53.9	-56.7	13.4	0.00e+00	0	25	0	90177536	74	4846
2026-01-07 07:21:14.05	96.69	7.98	-53.9	-56.7	13.4	0.00e+00	0	25	0	92274688	74	4843
2026-01-07 07:21:15.06	96.61	8.05	-53.9	-56.7	13.5	0.00e+00	0	25	0	94371840	74	4826
2026-01-07 07:21:16.06	96.54	8.13	-53.9	-56.6	13.5	0.00e+00	0	25	0	96468992	74	4814
2026-01-07 07:21:17.06	96.47	8.20	-53.9	-56.7	13.5	0.00e+00	0	25	0	98566144	74	4841
2026-01-07 07:21:18.06	96.40	8.27	-53.8	-56.6	13.5	0.00e+00	0	25	0	99614720	74	4763
2026-01-07 07:21:19.06	96.33	8.35	-53.9	-56.7	13.5	0.00e+00	0	25	0	101711872	74	4815
2026-01-07 07:21:20.06	96.26	8.42	-53.8	-56.5	13.6	0.00e+00	0	25	0	103809024	74	4747
2026-01-07 07:21:21.06	96.18	8.49	-53.8	-56.5	13.6	0.00e+00	0	25	0	105906176	74	4737
2026-01-07 07:21:22.06	96.11	8.57	-53.7	-56.4	13.7	0.00e+00	0	25	0	108003328	74	4675
2026-01-07 07:21:23.07	96.04	8.64	-53.8	-56.5	13.6	0.00e+00	0	25	0	109051904	74	4736
2026-01-07 07:21:24.06	95.96	8.72	-53.8	-56.6	13.6	0.00e+00	0	25	0	111149056	74	4768
2026-01-07 07:21:25.06	95.89	8.79	-53.8	-56.5	13.6	0.00e+00	0	25	0	113246208	74	4756
2026-01-07 07:21:26.05	95.81	8.87	-53.7	-56.4	13.7	0.00e+00	0	25	0	115343360	74	4675
2026-01-07 07:21:27.06	95.74	8.94	-53.7	-56.4	13.7	0.00e+00	0	25	0	116391936	74	4678
2026-01-07 07:21:28.06	95.66	9.02	-53.7	-56.4	13.7	0.00e+00	0	25	0	118489088	74	4657
2026-01-07 07:21:29.06	95.59	9.09	-53.5	-56.1	13.7	0.00e+00	0	25	0	120586240	73	4778
2026-01-07 07:21:30.07	95.51	9.17	-53.6	-56.2	13.7	0.00e+00	0	25	0	122683392	73	4819
2026-01-07 07:21:31.07	95.43	9.24	-53.5	-56.0	13.8	0.00e+00	0	25	0	124780544	73	4740
2026-01-07 07:21:32.07	95.36	9.32	-53.5	-56.1	13.7	0.00e+00	0	25	0	125829120	73	4795
2026-01-07 07:21:33.07	95.28	9.40	-53.5	-56.1	13.7	0.00e+00	0	25	0	127926272	73	4787
2026-01-07 07:21:34.07	95.20	9.47	-53.5	-56.0	13.8	0.00e+00	0	25	0	130023424	73	4735
2026-01-07 07:21:35.07	95.12	9.55	-53.6	-56.2	13.7	0.00e+00	0	25	0	132120576	73	4839
2026-01-07 07:21:36.07	95.04	9.62	-53.6	-56.2	13.7	0.00e+00	0	25	0	134217728	73	4857
2026-01-07 07:21:37.08	94.96	9.70	-53.6	-56.3	13.7	0.00e+00	0	25	0	135266304	73	4875
2026-01-07 07:21:38.08	94.88	9.78	-53.5	-56.1	13.8	0.00e+00	0	25	0	137363456	73	4771
2026-01-07 07:21:39.09	94.80	9.86	-53.4	-55.9	13.9	0.00e+00	0	25	0	139460608	73	4667
2026-01-07 07:21:40.08	94.72	9.93	-53.4	-55.9	13.9	0.00e+00	0	25	0	141557760	73	4658
2026-01-07 07:21:41.08	94.64	10.01	-53.4	-55.9	13.9	0.00e+00	0	25	0	143654912	73	4656
2026-01-07 07:21:42.08	94.56	10.09	-53.4	-55.9	13.9	0.00e+00	0	25	0	144703488	73	4658
2026-01-07 07:21:43.07	94.48	10.17	-53.3	-55.7	14.0	0.00e+00	0	25	0	146800640	73	4579
2026-01-07 07:21:44.07	94.40	10.24	-53.4	-55.8	13.9	0.00e+00	0	25	0	148897792	73	4647
2026-01-07 07:21:45.07	94.31	10.32	-53.2	-55.5	14.1	0.00e+00	0	25	0	150994944	73	4477
2026-01-07 07:21:46.07	94.23	10.40	-53.1	-55.5	14.0	0.00e+00	0	25	0	152043520	72	4735
2026-01-07 07:21:47.08	94.15	10.48	-53.2	-55.6	13.9	0.00e+00	0	25	0	154140672	72	4800
2026-01-07 07:21:48.07	94.06	10.56	-53.2	-55.6	13.9	0.00e+00	0	25	0	156237824	72	4776
2026-01-07 07:21:49.07	93.98	10.64	-53.1	-55.4	14.0	0.00e+00	0	25	0	158334976	72	4689
2026-01-07 07:21:50.06	93.89	10.72	-53.1	-55.4	14.0	0.00e+00	0	25	0	160432128	72	4662
2026-01-07 07:21:51.07	93.81	10.80	-53.0	-55.3	14.1	0.00e+00	0	25	0	161480704	72	4617
2026-01-07 07:21:52.07	93.72	10.88	-53.0	-55.3	14.1	0.00e+00	0	25	0	163577856	72	4632
2026-01-07 07:21:53.07	93.63	10.96	-53.0	-55.3	14.1	0.00e+00	0	25	0	165675008	72	4641
2026-01-07 07:21:54.07	93.55	11.04	-53.0	-55.3	14.1	0.00e+00	0	25	0	167772160	72	4612
2026-01-07 07:21:55.07	93.46	11.12	-53.1	-55.4	14.0	0.00e+00	0	25	0	169869312	72	4669
2026-01-07 07:21:56.07	93.37	11.20	-53.0	-55.3	14.1	0.00e+00	0	25	0	170917888	72	4627
2026-01-07 07:21:57.07	93.28	11.28	-53.0	-55.3	14.1	0.00e+00	0	25	0	173015040	72	4619
2026-01-07 07:21:58.07	93.19	11.36	-53.0	-55.2	14.2	0.00e+00	0	25	0	175112192	72	4574
2026-01-07 07:21:59.07	93.10	11.44	-53.0	-55.2	14.1	0.00e+00	0	25	0	177209344	72	4590
2026-01-07 07:22:00.08	93.01	11.52	-53.1	-55.4	14.1	0.00e+00	0	25	0	178257920	72	4658
2026-01-07 07:22:01.08	92.92	11.60	-52.9	-55.1	14.2	0.00e+00	0	25	0	180355072	72	4518
2026-01-07 07:22:02.08	92.83	11.68	-53.0	-55.2	14.2	0.00e+00	0	25	0	182452224	72	4590
2026-01-07 07:22:03.09	92.74	11.77	-53.0	-55.2	14.2	0.00e+00	0	25	0	184549376	72	4584
2026-01-07 07:22:04.09	92.65	11.85	-53.0	-55.3	14.1	0.00e+00	0	25	0	186646528	72	4615
2026-01-07 07:22:05.10	92.55	11.93	-53.0	-55.3	14.1	0.00e+00	0	25	0	188743680	72	4603
2026-01-07 07:22:06.11	92.46	12.01	-52.9	-55.1	14.3	0.00e+00	0	25	0	189792256	72	4521
2026-01-07 07:22:07.11	92.36	12.10	-52.9	-55.1	14.2	0.00e+00	0	25	0	191889408	72	4530
2026-01-07 07:22:08.11	92.27	12.18	-52.9	-55.1	14.2	0.00e+00	0	25	0	193986560	72	4536
2026-01-07 07:22:09.10	92.18	12.26	-52.9	-55.2	14.2	0.00e+00	0	25	0	196083712	72	4559
2026-01-07 07:22:10.10	92.08	12.34	-53.0	-55.2	14.2	0.00e+00	0	25	0	197132288	72	4585
2026-01-07 07:22:11.10	91.98	12.43	-52.9	-55.1	14.2	0.00e+00	0	25	0	199229440	72	4544
2026-01-07 07:22:12.11	91.89	12.51	-52.9	-55.1	14.2	0.00e+00	0	25	0	201326592	72	4536
2026-01-07 07:22:13.11	91.79	12.60	-53.0	-55.2	14.2	0.00e+00	0	25	0	203423744	72	4581
2026-01-07 07:22:14.10	91.69	12.68	-52.9	-55.2	14.2	0.00e+00	0	25	0	205520896	72	4557
2026-01-07 07:22:15.09	91.60	12.76	-52.9	-55.0	14.3	0.00e+00	0	25	0	206569472	72	4486
2026-01-07 07:22:16.09	91.50	12.85	-52.8	-54.9	14.3	0.00e+00	0	25	0	208666624	72	4435
2026-01-07 07:22:17.09	91.40	12.93	-52.8	-54.9	14.3	0.00e+00	0	25	0	210763776	72	4435
2026-01-07 07:22:18.09	91.30	13.02	-52.8	-55.0	14.3	0.00e+00	0	25	0	212860928	72	4457
2026-01-07 07:22:19.09	91.20	13.10	-52.8	-54.9	14.4	0.00e+00	0	25	0	213909504	72	4417
2026-01-07 07:22:20.09	91.09	13.19	-52.8	-54.9	14.4	0.00e+00	0	25	0	216006656	72	4404
2026-01-07 07:22:21.08	90.99	13.27	-52.8	-54.9	14.4	0.00e+00	0	25	0	218103808	72	4439
2026-01-07 07:22:22.08	90.89	13.36	-52.7	-54.9	14.4	0.00e+00	0	25	0	220200960	72	4398
2026-01-07 07:22:23.09	90.79	13.44	-52.7	-54.8	14.4	0.00e+00	0	25	0	222298112	72	4384
2026-01-07 07:22:24.09	90.68	13.53	-52.7	-54.8	14.4	0.00e+00	0	25	0	223346688	72	4380
2026-01-07 07:22:25.09	90.58	13.62	-52.7	-54.8	14.4	0.00e+00	0	25	0	225443840	72	4380
2026-01-07 07:22:26.09	90.47	13.70	-52.8	-54.9	14.4	0.00e+00	0	25	0	227540992	72	4414
2026-01-07 07:22:27.09	90.37	13.79	-52.8	-55.0	14.3	0.00e+00	0	25	0	229638144	72	4453
2026-01-07 07:22:28.09	90.26	13.88	-52.8	-54.9	14.4	0.00e+00	0	25	0	231735296	72	4424
2026-01-07 07:22:29.09	90.16	13.96	-52.7	-54.8	14.4	0.00e+00	0	25	0	232783872	72	4382
2026-01-07 07:22:30.09	90.05	14.05	-52.7	-54.8	14.4	0.00e+00	0	25	0	234881024	72	4379
2026-01-07 07:22:31.09	89.94	14.14	-52.7	-54.8	14.4	0.00e+00	0	25	0	236978176	72	4371
2026-01-07 07:22:32.09	89.83	14.23	-52.7	-54.8	14.4	0.00e+00	0	25	0	239075328	72	4387
2026-01-07 07:22:33.09	89.72	14.31	-52.7	-54.8	14.4	0.00e+00	0	25	0	241172480	72	4369
2026-01-07 07:22:34.09	89.61	14.40	-52.8	-54.9	14.4	0.00e+00	0	25	0	242221056	72	4423
2026-01-07 07:22:35.08	89.50	14.49	-52.8	-55.0	14.3	0.00e+00	0	25	0	244318208	72	4471
2026-01-07 07:22:36.08	89.39	14.58	-52.8	-55.0	14.3	0.00e+00	0	25	0	246415360	72	4465
2026-01-07 07:22:37.09	89.28	14.67	-52.9	-55.1	14.3	0.00e+00	0	25	0	248512512	72	4512
2026-01-07 07:22:38.08	89.16	14.76	-52.8	-54.9	14.4	0.00e+00	0	25	0	249561088	72	4417
2026-01-07 07:22:39.08	89.05	14.84	-52.9	-55.1	14.3	0.00e+00	0	25	0	251658240	72	4504
2026-01-07 07:22:40.08	88.94	14.93	-52.9	-55.1	14.3	0.00e+00	0	25	0	253755392	72	4525
2026-01-07 07:22:41.08	88.82	15.02	-53.1	-55.3	14.2	0.00e+00	0	25	0	255852544	72	4615
2026-01-07 07:22:42.07	88.71	15.11	-53.0	-55.1	14.2	0.00e+00	0	25	0	257949696	72	4545
2026-01-07 07:22:43.07	88.59	15.20	-52.9	-55.1	14.3	0.00e+00	0	25	0	258998272	72	4525
2026-01-07 07:22:44.07	88.47	15.29	-53.0	-55.1	14.3	0.00e+00	0	25	0	261095424	72	4542
2026-01-07 07:22:45.07	88.36	15.38	-53.0	-55.2	14.3	0.00e+00	0	25	0	263192576	72	4557
2026-01-07 07:22:46.06	88.24	15.47	-52.9	-55.0	14.3	0.00e+00	0	25	0	265289728	72	4486
2026-01-07 07:22:47.06	88.12	15.56	-53.0	-55.2	14.2	0.00e+00	0	25	0	267386880	72	4560
2026-01-07 07:22:48.07	88.00	15.66	-52.9	-55.1	14.3	0.00e+00	0	25	0	268435456	72	4524
2026-01-07 07:22:49.07	87.88	15.75	-53.0	-55.1	14.3	0.00e+00	0	25	0	270532608	72	4545
2026-01-07 07:22:50.06	87.76	15.84	-52.9	-55.0	14.4	0.00e+00	0	25	0	272629760	72	4467
2026-01-07 07:22:51.06	87.63	15.93	-52.8	-54.9	14.4	0.00e+00	0	25	0	274726912	72	4441
2026-01-07 07:22:52.06	87.51	16.02	-52.8	-54.9	14.4	0.00e+00	0	25	0	275775488	72	4411
2026-01-07 07:22:53.06	87.39	16.11	-52.8	-54.9	14.4	0.00e+00	0	25	0	277872640	72	4417
2026-01-07 07:22:54.05	87.26	16.21	-52.7	-54.8	14.5	0.00e+00	0	25	0	279969792	72	4380
2026-01-07 07:22:55.04	87.14	16.30	-52.8	-55.0	14.4	0.00e+00	0	25	0	282066944	72	4450
2026-01-07 07:22:56.04	87.01	16.39	-52.8	-54.9	14.4	0.00e+00	0	25	0	284164096	72	4436
2026-01-07 07:22:57.03	86.89	16.48	-53.0	-55.1	14.3	0.00e+00	0	25	0	285212672	72	4521
2026-01-07 07:22:58.03	86.76	16.57	-52.9	-55.0	14.3	0.00e+00	0	25	0	287309824	72	4474
2026-01-07 07:22:59.03	86.63	16.67	-52.9	-55.1	14.3	0.00e+00	0	25	0	289406976	72	4518
2026-01-07 07:23:00.02	86.50	16.76	-53.0	-55.2	14.3	0.00e+00	0	25	0	291504128	72	4569
2026-01-07 07:23:01.02	86.37	16.85	-53.1	-55.2	14.2	0.00e+00	0	25	0	292552704	72	4597
2026-01-07 07:23:02.01	86.24	16.95	-53.1	-55.3	14.2	0.00e+00	0	25	0	294649856	72	4618
2026-01-07 07:23:03.00	86.11	17.04	-53.1	-55.3	14.2	0.00e+00	0	25	0	296747008	72	4603
2026-01-07 07:23:04.00	85.98	17.14	-53.1	-55.3	14.2	0.00e+00	0	25	0	298844160	72	4631
2026-01-07 07:23:05.00	85.85	17.23	-53.0	-55.2	14.2	0.00e+00	0	25	0	300941312	72	4579
2026-01-07 07:23:06.00	85.71	17.32	-53.0	-55.1	14.3	0.00e+00	0	25	0	301989888	72	4538
2026-01-07 07:23:07.01	85.57	17.42	-53.0	-55.2	14.3	0.00e+00	0	25	0	304087040	72	4549
2026-01-07 07:23:08.00	85.44	17.51	-53.0	-55.1	14.3	0.00e+00	0	25	0	306184192	72	4529
2026-01-07 07:23:09.00	85.30	17.61	-53.0	-55.1	14.3	0.00e+00	0	25	0	308281344	72	4542
2026-01-07 07:23:10.01	85.16	17.71	-53.0	-55.2	14.3	0.00e+00	0	25	0	310378496	72	4556
2026-01-07 07:23:11.01	85.02	17.80	-52.9	-55.0	14.4	0.00e+00	0	25	0	311427072	72	4478
2026-01-07 07:23:12.01	84.88	17.90	-52.8	-54.9	14.4	0.00e+00	0	25	0	313524224	72	4406
2026-01-07 07:23:13.01	84.74	17.99	-52.9	-55.0	14.4	0.00e+00	0	25	0	315621376	72	4462
2026-01-07 07:23:14.00	84.60	18.09	-52.9	-55.0	14.3	0.00e+00	0	25	0	317718528	72	4486
2026-01-07 07:23:15.00	84.46	18.19	-52.8	-54.9	14.4	0.00e+00	0	25	0	318767104	72	4422
2026-01-07 07:23:16.00	84.32	18.28	-52.9	-55.0	14.4	0.00e+00	0	25	0	320864256	72	4456
2026-01-07 07:23:17.00	84.17	18.38	-52.9	-55.1	14.4	0.00e+00	0	25	0	322961408	72	4503
2026-01-07 07:23:17.99	84.03	18.48	-52.8	-54.9	14.4	0.00e+00	0	25	0	325058560	72	4418
2026-01-07 07:23:18.99	83.88	18.57	-52.7	-54.7	14.5	0.00e+00	0	25	0	327155712	72	4332
2026-01-07 07:23:19.98	83.74	18.67	-52.8	-54.8	14.5	0.00e+00	0	25	0	328204288	72	4372
2026-01-07 07:23:20.98	83.59	18.77	-52.8	-54.8	14.5	0.00e+00	0	25	0	330301440	72	4366
2026-01-07 07:23:21.98	83.44	18.87	-52.8	-54.8	14.5	0.00e+00	0	25	0	332398592	72	4388
2026-01-07 07:23:22.98	83.29	18.96	-52.8	-54.9	14.5	0.00e+00	0	25	0	334495744	72	4407
2026-01-07 07:23:23.97	83.14	19.06	-52.7	-54.8	14.5	0.00e+00	0	25	0	336592896	72	4354
2026-01-07 07:23:24.97	82.99	19.16	-52.6	-54.6	14.4	0.00e+00	0	25	0	337641472	71	4535
2026-01-07 07:23:25.98	82.83	19.26	-52.6	-54.7	14.4	0.00e+00	0	25	0	339738624	71	4550
2026-01-07 07:23:26.98	82.68	19.36	-52.6	-54.6	14.5	0.00e+00	0	25	0	341835776	71	4505
2026-01-07 07:23:27.97	82.53	19.46	-52.5	-54.5	14.5	0.00e+00	0	25	0	343932928	71	4489
2026-01-07 07:23:28.97	82.37	19.56	-52.6	-54.6	14.5	0.00e+00	0	25	0	344981504	71	4498
2026-01-07 07:23:29.96	82.21	19.65	-52.6	-54.6	14.5	0.00e+00	0	25	0	347078656	71	4520
2026-01-07 07:23:30.96	82.06	19.75	-52.6	-54.7	14.4	0.00e+00	0	25	0	349175808	71	4556
2026-01-07 07:23:31.97	81.89	19.85	-52.5	-54.5	14.5	0.00e+00	0	25	0	351272960	71	4444
2026-01-07 07:23:32.97	81.73	19.95	-52.5	-54.5	14.5	0.00e+00	0	25	0	353370112	71	4472
2026-01-07 07:23:33.97	81.57	20.05	-52.6	-54.5	14.5	0.00e+00	0	25	0	354418688	71	4489
2026-01-07 07:23:34.97	81.41	20.15	-52.4	-54.3	14.6	0.00e+00	0	25	0	356515840	71	4388
2026-01-07 07:23:35.97	81.25	20.25	-52.3	-54.3	14.7	0.00e+00	0	25	0	358612992	71	4341
2026-01-07 07:23:36.96	81.08	20.35	-52.3	-54.2	14.7	0.00e+00	0	25	0	360710144	71	4303
2026-01-07 07:23:37.96	80.92	20.45	-52.3	-54.2	14.7	0.00e+00	0	25	0	362807296	71	4320
2026-01-07 07:23:38.96	80.75	20.55	-52.2	-54.1	14.7	0.00e+00	0	25	0	363855872	71	4277
2026-01-07 07:23:39.96	80.58	20.66	-52.1	-54.0	14.6	0.00e+00	0	25	0	365953024	70	4446
2026-01-07 07:23:40.95	80.42	20.76	-52.2	-54.0	14.6	0.00e+00	0	25	0	368050176	70	4480
2026-01-07 07:23:41.94	80.25	20.86	-52.1	-54.0	14.6	0.00e+00	0	25	0	370147328	70	4475
2026-01-07 07:23:42.94	80.08	20.96	-52.2	-54.0	14.6	0.00e+00	0	25	0	371195904	70	4490
2026-01-07 07:23:43.94	79.90	21.06	-52.2	-54.1	14.6	0.00e+00	0	25	0	373293056	70	4506
2026-01-07 07:23:44.93	79.73	21.16	-52.3	-54.1	14.6	0.00e+00	0	25	0	375390208	70	4541
2026-01-07 07:23:45.92	79.56	21.26	-52.3	-54.1	14.6	0.00e+00	0	25	0	377487360	70	4540
2026-01-07 07:23:46.92	79.38	21.36	-52.2	-54.1	14.6	0.00e+00	0	25	0	379584512	70	4515
2026-01-07 07:23:47.92	79.21	21.46	-52.3	-54.3	14.5	0.00e+00	0	25	0	380633088	70	4608
2026-01-07 07:23:48.92	79.03	21.56	-52.4	-54.3	14.5	0.00e+00	0	25	0	382730240	70	4641
2026-01-07 07:23:49.92	78.85	21.67	-52.5	-54.5	14.4	0.00e+00	0	25	0	384827392	70	4744
2026-01-07 07:23:50.92	78.67	21.77	-52.7	-54.7	14.3	0.00e+00	0	25	0	386924544	70	4824
2026-01-07 07:23:51.91	78.49	21.87	-52.6	-54.6	14.3	0.00e+00	0	25	0	389021696	70	4800
2026-01-07 07:23:52.91	78.30	21.97	-52.6	-54.6	14.3	0.00e+00	0	25	0	390070272	70	4792
2026-01-07 07:23:53.91	78.12	22.07	-52.5	-54.5	14.4	0.00e+00	0	25	0	392167424	70	4743
2026-01-07 07:23:54.90	77.94	22.18	-52.6	-54.6	14.4	0.00e+00	0	25	0	394264576	70	4782
2026-01-07 07:23:55.91	77.75	22.28	-52.7	-54.7	14.3	0.00e+00	0	25	0	396361728	70	4845
2026-01-07 07:23:56.91	77.56	22.38	-52.7	-54.8	14.3	0.00e+00	0	25	0	397410304	70	4879
2026-01-07 07:23:57.90	77.37	22.48	-52.7	-54.8	14.3	0.00e+00	0	25	0	399507456	70	4888
2026-01-07 07:23:58.90	77.18	22.59	-52.8	-54.8	14.2	0.00e+00	0	25	0	401604608	70	4915
2026-01-07 07:23:59.90	76.99	22.69	-52.8	-54.8	14.2	0.00e+00	0	25	0	403701760	70	4923
2026-01-07 07:24:00.90	76.80	22.79	-52.9	-54.9	14.2	0.00e+00	0	25	0	405798912	70	4981
2026-01-07 07:24:01.90	76.60	22.90	-53.0	-55.1	14.2	0.00e+00	0	25	0	406847488	71	4807
2026-01-07 07:24:02.90	76.41	23.00	-53.0	-55.1	14.2	0.00e+00	0	25	0	408944640	71	4792
2026-01-07 07:24:03.89	76.21	23.10	-52.9	-54.9	14.3	0.00e+00	0	25	0	411041792	71	4705
2026-01-07 07:24:04.89	76.01	23.20	-52.8	-54.8	14.4	0.00e+00	0	25	0	413138944	71	4638
2026-01-07 07:24:05.88	75.82	23.31	-52.7	-54.8	14.4	0.00e+00	0	25	0	414187520	71	4606
2026-01-07 07:24:06.89	75.61	23.41	-52.7	-54.8	14.4	0.00e+00	0	25	0	416284672	71	4603
2026-01-07 07:24:07.88	75.41	23.51	-52.8	-54.8	14.4	0.00e+00	0	25	0	418381824	71	4629
2026-01-07 07:24:08.88	75.21	23.62	-52.7	-54.7	14.4	0.00e+00	0	25	0	420478976	71	4597
2026-01-07 07:24:09.87	75.01	23.72	-52.7	-54.7	14.4	0.00e+00	0	25	0	422576128	71	4582
2026-01-07 07:24:10.87	74.80	23.82	-52.6	-54.5	14.5	0.00e+00	0	25	0	423624704	71	4489
2026-01-07 07:24:11.86	74.59	23.92	-52.7	-54.7	14.5	0.00e+00	0	25	0	425721856	71	4549
2026-01-07 07:24:12.86	74.38	24.03	-52.5	-54.5	14.6	0.00e+00	0	25	0	427819008	71	4454
2026-01-07 07:24:13.85	74.18	24.13	-52.5	-54.4	14.6	0.00e+00	0	25	0	429916160	71	4434
2026-01-07 07:24:14.85	73.96	24.23	-52.5	-54.5	14.5	0.00e+00	0	25	0	430964736	71	4447
2026-01-07 07:24:15.84	73.75	24.34	-52.6	-54.6	14.5	0.00e+00	0	25	0	433061888	71	4511
2026-01-07 07:24:16.84	73.54	24.44	-52.7	-54.6	14.5	0.00e+00	0	25	0	435159040	71	4535
2026-01-07 07:24:17.83	73.32	24.54	-52.6	-54.5	14.5	0.00e+00	0	25	0	437256192	71	4485
2026-01-07 07:24:18.83	73.11	24.64	-52.5	-54.5	14.5	0.00e+00	0	25	0	439353344	71	4460
2026-01-07 07:24:19.83	72.89	24.75	-52.4	-54.3	14.6	0.00e+00	0	25	0	440401920	71	4362
2026-01-07 07:24:20.83	72.67	24.85	-52.2	-54.0	14.8	0.00e+00	0	25	0	442499072	71	4239
2026-01-07 07:24:21.83	72.44	24.95	-52.1	-53.9	14.7	0.00e+00	0	25	0	444596224	70	4427
2026-01-07 07:24:22.82	72.22	25.06	-52.0	-53.8	14.7	0.00e+00	0	25	0	446693376	70	4389
2026-01-07 07:24:23.82	72.00	25.16	-52.1	-53.9	14.7	0.00e+00	0	25	0	448790528	70	4422
2026-01-07 07:24:24.81	71.77	25.26	-52.1	-53.9	14.7	0.00e+00	0	25	0	449839104	70	4433
2026-01-07 07:24:25.81	71.55	25.36	-52.1	-53.9	14.7	0.00e+00	0	25	0	451936256	70	4415
2026-01-07 07:24:26.81	71.32	25.47	-52.1	-53.9	14.7	0.00e+00	0	25	0	454033408	70	4434
2026-01-07 07:24:27.81	71.09	25.57	-52.0	-53.8	14.7	0.00e+00	0	25	0	456130560	70	4387
2026-01-07 07:24:28.80	70.86	25.67	-52.2	-54.0	14.7	0.00e+00	0	25	0	457179136	70	4462
2026-01-07 07:24:29.80	70.62	25.77	-52.2	-54.0	14.6	0.00e+00	0	25	0	459276288	70	4475
2026-01-07 07:24:30.79	70.39	25.87	-52.2	-54.1	14.6	0.00e+00	0	25	0	461373440	70	4515
2026-01-07 07:24:31.80	70.15	25.97	-52.2	-54.1	14.6	0.00e+00	0	25	0	463470592	70	4496
2026-01-07 07:24:32.80	69.91	26.08	-52.3	-54.1	14.6	0.00e+00	0	25	0	465567744	70	4525
2026-01-07 07:24:33.79	69.67	26.18	-52.2	-54.0	14.7	0.00e+00	0	25	0	466616320	70	4464
2026-01-07 07:24:34.78	69.43	26.28	-52.1	-53.9	14.7	0.00e+00	0	25	0	468713472	70	4396
2026-01-07 07:24:35.78	69.19	26.38	-52.0	-53.8	14.8	0.00e+00	0	25	0	470810624	70	4364
2026-01-07 07:24:36.78	68.95	26.48	-52.2	-54.1	14.6	0.00e+00	0	25	0	472907776	70	4512
2026-01-07 07:24:37.78	68.70	26.58	-52.3	-54.1	14.6	0.00e+00	0	25	0	473956352	70	4531
2026-01-07 07:24:38.78	68.45	26.68	-52.3	-54.2	14.6	0.00e+00	0	25	0	476053504	70	4569
2026-01-07 07:24:39.78	68.20	26.78	-52.3	-54.2	14.5	0.00e+00	0	25	0	478150656	70	4580
2026-01-07 07:24:40.78	67.95	26.88	-52.3	-54.1	14.6	0.00e+00	0	25	0	480247808	70	4542
2026-01-07 07:24:41.78	67.70	26.98	-52.1	-53.9	14.7	0.00e+00	0	25	0	482344960	70	4427
2026-01-07 07:24:42.78	67.44	27.08	-52.1	-53.9	14.7	0.00e+00	0	25	0	483393536	70	4435
2026-01-07 07:24:43.78	67.19	27.18	-52.2	-54.0	14.7	0.00e+00	0	25	0	485490688	70	4488
2026-01-07 07:24:44.77	66.93	27.28	-52.3	-54.1	14.6	0.00e+00	0	25	0	487587840	70	4514
2026-01-07 07:24:45.77	66.68	27.38	-52.3	-54.2	14.6	0.00e+00	0	25	0	489684992	70	4568
2026-01-07 07:24:46.77	66.41	27.48	-52.6	-54.6	14.4	0.00e+00	0	25	0	491782144	70	4781
2026-01-07 07:24:47.77	66.15	27.57	-52.8	-54.9	14.3	0.00e+00	0	25	0	492830720	70	4949
2026-01-07 07:24:48.78	65.89	27.67	-53.0	-55.1	14.2	0.00e+00	0	25	0	494927872	71	4797
2026-01-07 07:24:49.77	65.62	27.77	-53.1	-55.2	14.2	0.00e+00	0	25	0	497025024	71	4844
2026-01-07 07:24:50.77	65.36	27.87	-53.2	-55.3	14.1	0.00e+00	0	25	0	499122176	71	4899
2026-01-07 07:24:51.76	65.09	27.96	-53.2	-55.4	14.1	0.00e+00	0	25	0	501219328	71	4946
2026-01-07 07:24:52.77	64.82	28.06	-53.3	-55.5	14.1	0.00e+00	0	25	0	502267904	71	4984
2026-01-07 07:24:53.77	64.54	28.16	-53.5	-55.7	14.1	0.00e+00	0	25	0	504365056	72	4834
2026-01-07 07:24:54.77	64.27	28.25	-53.5	-55.7	14.1	0.00e+00	0	25	0	506462208	72	4870
2026-01-07 07:24:55.77	64.00	28.35	-53.6	-55.9	13.9	0.00e+00	0	25	0	508559360	72	4957
2026-01-07 07:24:56.77	63.72	28.44	-53.7	-56.0	13.9	0.00e+00	0	25	0	509607936	72	5024
2026-01-07 07:24:57.77	63.44	28.54	-53.8	-56.2	13.8	0.00e+00	0	25	0	511705088	72	5109
2026-01-07 07:24:58.77	63.16	28.63	-53.8	-56.2	13.8	0.00e+00	0	25	0	513802240	72	5153
2026-01-07 07:24:59.77	62.88	28.72	-54.0	-56.4	13.7	0.00e+00	0	25	0	515899392	73	4975
2026-01-07 07:25:00.77	62.59	28.82	-54.1	-56.6	13.7	0.00e+00	0	25	0	517996544	73	5045
2026-01-07 07:25:01.77	62.31	28.91	-54.1	-56.6	13.7	0.00e+00	0	25	0	519045120	73	5058
2026-01-07 07:25:02.77	62.02	29.00	-54.2	-56.8	13.6	0.00e+00	0	25	0	521142272	73	5184
2026-01-07 07:25:03.76	61.74	29.09	-54.3	-56.9	13.6	0.00e+00	0	25	0	523239424	73	5223
2026-01-07 07:25:04.76	61.45	29.18	-54.2	-56.7	13.6	0.00e+00	0	25	0	525336576	73	5159
2026-01-07 07:25:05.76	61.15	29.27	-54.2	-56.7	13.6	0.00e+00	0	25	0	527433728	73	5145
2026-01-07 07:25:06.75	60.86	29.36	-54.4	-57.0	13.5	0.00e+00	0	25	0	528482304	73	5306
2026-01-07 07:25:07.76	60.57	29.45	-54.6	-57.3	13.4	0.00e+00	0	25	0	530579456	74	5172
2026-01-07 07:25:08.76	60.27	29.54	-54.7	-57.5	13.3	0.00e+00	0	25	0	532676608	74	5325
2026-01-07 07:25:09.76	59.97	29.63	-55.0	-58.0	13.2	0.00e+00	0	25	0	534773760	75	5295
2026-01-07 07:25:10.76	59.67	29.72	-54.9	-57.8	13.2	0.00e+00	0	25	0	536870912	75	5217
2026-01-07 07:25:11.75	59.37	29.80	-54.7	-57.5	13.4	0.00e+00	0	25	0	537919488	75	4994
2026-01-07 07:25:12.74	59.07	29.89	-54.7	-57.4	13.5	0.00e+00	0	25	0	540016640	75	4971
2026-01-07 07:25:13.73	58.77	29.97	-54.6	-57.3	13.5	0.00e+00	0	25	0	542113792	75	4918
2026-01-07 07:25:14.73	58.46	30.06	-54.3	-56.9	13.8	0.00e+00	0	25	0	544210944	75	4653
2026-01-07 07:25:15.73	58.16	30.14	-54.1	-56.6	13.9	0.00e+00	0	25	0	545259520	74	4766
2026-01-07 07:25:16.73	57.85	30.22	-54.1	-56.5	13.9	0.00e+00	0	25	0	547356672	74	4717
2026-01-07 07:25:17.73	57.53	30.31	-54.1	-56.5	13.9	0.00e+00	0	25	0	549453824	74	4747
2026-01-07 07:25:18.72	57.22	30.39	-54.3	-56.8	13.7	0.00e+00	0	25	0	551550976	74	4900
2026-01-07 07:25:19.72	56.91	30.47	-54.3	-56.9	13.7	0.00e+00	0	25	0	553648128	74	4962
2026-01-07 07:25:20.72	56.59	30.55	-54.3	-56.9	13.7	0.00e+00	0	25	0	554696704	74	4957
2026-01-07 07:25:21.73	56.27	30.63	-54.1	-56.6	13.9	0.00e+00	0	25	0	556793856	74	4777
2026-01-07 07:25:22.73	55.95	30.71	-54.1	-56.6	13.9	0.00e+00	0	25	0	558891008	74	4768
2026-01-07 07:25:23.73	55.63	30.79	-54.1	-56.5	13.9	0.00e+00	0	25	0	560988160	74	4759
2026-01-07 07:25:24.73	55.31	30.87	-54.0	-56.4	13.9	0.00e+00	0	25	0	562036736	74	4681
2026-01-07 07:25:25.73	54.99	30.94	-53.9	-56.2	14.1	0.00e+00	0	25	0	564133888	74	4575
2026-01-07 07:25:26.72	54.66	31.02	-54.0	-56.4	14.0	0.00e+00	0	25	0	566231040	74	4668
2026-01-07 07:25:27.72	54.34	31.09	-54.0	-56.4	14.0	0.00e+00	0	25	0	568328192	74	4665
2026-01-07 07:25:28.71	54.01	31.17	-53.9	-56.2	14.1	0.00e+00	0	25	0	570425344	74	4581
2026-01-07 07:25:29.72	53.68	31.24	-53.9	-56.2	14.1	0.00e+00	0	25	0	571473920	74	4590
2026-01-07 07:25:30.72	53.35	31.31	-53.9	-56.2	14.1	0.00e+00	0	25	0	573571072	74	4556
2026-01-07 07:25:31.71	53.02	31.38	-54.0	-56.3	14.0	0.00e+00	0	25	0	575668224	74	4638
2026-01-07 07:25:32.70	52.69	31.45	-54.0	-56.4	14.0	0.00e+00	0	25	0	577765376	74	4652
2026-01-07 07:25:33.69	52.35	31.52	-54.1	-56.5	13.9	0.00e+00	0	25	0	578813952	74	4756
2026-01-07 07:25:34.69	52.02	31.59	-54.1	-56.5	13.9	0.00e+00	0	25	0	580911104	74	4756
2026-01-07 07:25:35.69	51.68	31.66	-53.9	-56.3	14.1	0.00e+00	0	25	0	583008256	74	4604
2026-01-07 07:25:36.68	51.34	31.72	-53.9	-56.2	14.1	0.00e+00	0	25	0	585105408	74	4577
2026-01-07 07:25:37.68	51.00	31.79	-54.0	-56.4	14.0	0.00e+00	0	25	0	587202560	74	4692
2026-01-07 07:25:38.68	50.66	31.86	-54.1	-56.6	13.8	0.00e+00	0	25	0	588251136	74	4784
2026-01-07 07:25:39.67	50.32	31.92	-54.1	-56.6	13.9	0.00e+00	0	25	0	590348288	74	4764
2026-01-07 07:25:40.67	49.97	31.98	-54.2	-56.6	13.8	0.00e+00	0	25	0	592445440	74	4788
2026-01-07 07:25:41.67	49.62	32.04	-54.0	-56.4	14.0	0.00e+00	0	25	0	594542592	74	4677
2026-01-07 07:25:42.68	49.27	32.10	-54.0	-56.4	14.0	0.00e+00	0	25	0	596639744	74	4681
2026-01-07 07:25:43.68	48.92	32.16	-53.9	-56.2	14.1	0.00e+00	0	25	0	597688320	74	4575
2026-01-07 07:25:44.68	48.57	32.22	-53.8	-56.0	14.2	0.00e+00	0	25	0	599785472	74	4489
2026-01-07 07:25:45.68	48.22	32.28	-53.5	-55.7	14.2	0.00e+00	0	25	0	601882624	73	4580
2026-01-07 07:25:46.68	47.87	32.33	-53.6	-55.7	14.2	0.00e+00	0	25	0	603979776	73	4594
2026-01-07 07:25:47.68	47.51	32.39	-53.6	-55.8	14.2	0.00e+00	0	25	0	605028352	73	4630
2026-01-07 07:25:48.68	47.16	32.44	-53.5	-55.6	14.3	0.00e+00	0	25	0	607125504	73	4531
2026-01-07 07:25:49.67	46.80	32.49	-53.3	-55.4	14.4	0.00e+00	0	25	0	609222656	73	4425
2026-01-07 07:25:50.67	46.44	32.55	-53.4	-55.5	14.3	0.00e+00	0	25	0	611319808	73	4484
2026-01-07 07:25:51.67	46.08	32.60	-53.5	-55.6	14.3	0.00e+00	0	25	0	613416960	73	4525
2026-01-07 07:25:52.66	45.73	32.65	-53.6	-55.8	14.1	0.00e+00	0	25	0	614465536	73	4647
2026-01-07 07:25:53.66	45.37	32.69	-53.6	-55.9	14.1	0.00e+00	0	25	0	616562688	73	4667
2026-01-07 07:25:54.65	45.01	32.74	-53.7	-56.0	14.1	0.00e+00	0	25	0	618659840	73	4706
2026-01-07 07:25:55.65	44.64	32.78	-53.5	-55.6	14.3	0.00e+00	0	25	0	620756992	73	4526
2026-01-07 07:25:56.65	44.28	32.83	-53.4	-55.5	14.3	0.00e+00	0	25	0	622854144	73	4461
2026-01-07 07:25:57.66	43.91	32.87	-53.2	-55.3	14.3	0.00e+00	0	25	0	623902720	72	4601
2026-01-07 07:25:58.66	43.54	32.91	-52.9	-54.8	14.6	0.00e+00	0	25	0	625999872	72	4372
2026-01-07 07:25:59.66	43.18	32.95	-52.6	-54.4	14.6	0.00e+00	0	25	0	628097024	71	4438
2026-01-07 07:26:00.66	42.81	32.99	-52.6	-54.5	14.6	0.00e+00	0	25	0	630194176	71	4458
2026-01-07 07:26:01.66	42.44	33.03	-52.5	-54.4	14.7	0.00e+00	0	25	0	632291328	71	4400
2026-01-07 07:26:02.66	42.07	33.07	-52.6	-54.5	14.6	0.00e+00	0	25	0	633339904	71	4450
2026-01-07 07:26:03.66	41.70	33.10	-52.9	-54.8	14.4	0.00e+00	0	25	0	635437056	71	4641
2026-01-07 07:26:04.65	41.33	33.14	-53.0	-55.0	14.4	0.00e+00	0	25	0	637534208	71	4720
2026-01-07 07:26:05.66	40.96	33.17	-52.9	-54.9	14.4	0.00e+00	0	25	0	639631360	71	4666
2026-01-07 07:26:06.66	40.58	33.20	-52.9	-54.9	14.4	0.00e+00	0	25	0	640679936	71	4700
2026-01-07 07:26:07.66	40.21	33.23	-52.9	-54.9	14.4	0.00e+00	0	25	0	642777088	71	4695
2026-01-07 07:26:08.66	39.83	33.26	-53.1	-55.1	14.3	0.00e+00	0	25	0	644874240	71	4813
2026-01-07 07:26:09.66	39.46	33.28	-53.2	-55.3	14.2	0.00e+00	0	25	0	646971392	71	4890
2026-01-07 07:26:10.67	39.08	33.31	-53.3	-55.4	14.1	0.00e+00	0	25	0	649068544	71	4971
2026-01-07 07:26:11.66	38.71	33.33	-53.3	-55.4	14.2	0.00e+00	0	25	0	650117120	72	4686
2026-01-07 07:26:12.66	38.33	33.36	-53.4	-55.6	14.2	0.00e+00	0	25	0	652214272	72	4783
2026-01-07 07:26:13.66	37.95	33.38	-53.5	-55.7	14.1	0.00e+00	0	25	0	654311424	72	4840
2026-01-07 07:26:14.66	37.58	33.40	-53.5	-55.7	14.1	0.00e+00	0	25	0	656408576	72	4819
2026-01-07 07:26:15.66	37.20	33.42	-53.6	-55.8	14.0	0.00e+00	0	25	0	658505728	72	4924
2026-01-07 07:26:16.66	36.82	33.44	-53.5	-55.7	14.1	0.00e+00	0	25	0	659554304	72	4841
2026-01-07 07:26:17.67	36.44	33.45	-53.5	-55.7	14.1	0.00e+00	0	25	0	661651456	72	4829
2026-01-07 07:26:18.67	36.06	33.47	-53.6	-55.8	14.0	0.00e+00	0	25	0	663748608	72	4872
2026-01-07 07:26:19.68	35.67	33.48	-53.5	-55.6	14.2	0.00e+00	0	25	0	665845760	72	4806
2026-01-07 07:26:20.68	35.29	33.49	-53.4	-55.6	14.2	0.00e+00	0	25	0	666894336	72	4783
2026-01-07 07:26:21.69	34.91	33.50	-53.4	-55.5	14.2	0.00e+00	0	25	0	668991488	72	4751
2026-01-07 07:26:22.69	34.53	33.51	-53.4	-55.5	14.2	0.00e+00	0	25	0	671088640	72	4750
2026-01-07 07:26:23.69	34.15	33.52	-53.5	-55.6	14.2	0.00e+00	0	25	0	673185792	72	4801
2026-01-07 07:26:24.69	33.77	33.52	-53.5	-55.6	14.1	0.00e+00	0	25	0	675282944	72	4812
2026-01-07 07:26:25.69	33.39	33.53	-53.5	-55.6	14.2	0.00e+00	0	25	0	676331520	72	4794
2026-01-07 07:26:26.70	33.00	33.53	-53.4	-55.6	14.2	0.00e+00	0	25	0	678428672	72	4769
2026-01-07 07:26:27.70	32.62	33.53	-53.4	-55.5	14.2	0.00e+00	0	25	0	680525824	72	4745
2026-01-07 07:26:28.70	32.24	33.53	-53.5	-55.6	14.2	0.00e+00	0	25	0	682622976	72	4791
2026-01-07 07:26:29.70	31.86	33.53	-53.3	-55.4	14.3	0.00e+00	0	25	0	684720128	72	4685
2026-01-07 07:26:30.70	31.48	33.53	-53.3	-55.4	14.3	0.00e+00	0	25	0	685768704	72	4697
2026-01-07 07:26:31.70	31.10	33.52	-53.3	-55.4	14.3	0.00e+00	0	25	0	687865856	72	4660
2026-01-07 07:26:32.71	30.71	33.52	-53.3	-55.4	14.3	0.00e+00	0	25	0	689963008	72	4652
2026-01-07 07:26:33.71	30.33	33.51	-53.3	-55.4	14.3	0.00e+00	0	25	0	692060160	72	4673
2026-01-07 07:26:34.72	29.95	33.50	-53.5	-55.6	14.1	0.00e+00	0	25	0	694157312	72	4807
2026-01-07 07:26:35.72	29.57	33.49	-53.6	-55.8	14.0	0.00e+00	0	25	0	695205888	72	4901
2026-01-07 07:26:36.72	29.19	33.48	-53.9	-56.2	13.9	0.00e+00	0	25	0	697303040	72	5127
2026-01-07 07:26:37.72	28.81	33.47	-53.9	-56.3	13.9	0.00e+00	0	25	0	699400192	73	4873
2026-01-07 07:26:38.73	28.43	33.45	-53.9	-56.3	13.9	0.00e+00	0	25	0	701497344	73	4883
2026-01-07 07:26:39.73	28.05	33.44	-53.8	-56.1	14.0	0.00e+00	0	25	0	703594496	73	4779
2026-01-07 07:26:40.73	27.67	33.42	-53.9	-56.2	14.0	0.00e+00	0	25	0	704643072	73	4856
2026-01-07 07:26:41.74	27.29	33.40	-53.9	-56.3	14.0	0.00e+00	0	25	0	706740224	73	4886
2026-01-07 07:26:42.74	26.91	33.38	-54.0	-56.4	13.9	0.00e+00	0	25	0	708837376	73	4930
2026-01-07 07:26:43.74	26.53	33.36	-54.0	-56.3	13.9	0.00e+00	0	25	0	710934528	73	4913
2026-01-07 07:26:44.74	26.16	33.34	-54.0	-56.3	13.9	0.00e+00	0	25	0	711983104	73	4906
2026-01-07 07:26:45.74	25.78	33.31	-53.8	-56.0	14.1	0.00e+00	0	25	0	714080256	73	4729
2026-01-07 07:26:46.74	25.41	33.29	-53.9	-56.1	14.0	0.00e+00	0	25	0	716177408	73	4802
2026-01-07 07:26:47.74	25.03	33.26	-53.9	-56.2	14.0	0.00e+00	0	25	0	718274560	73	4837
2026-01-07 07:26:48.75	24.65	33.23	-53.9	-56.2	14.0	0.00e+00	0	25	0	720371712	73	4866
2026-01-07 07:26:49.75	24.28	33.20	-53.9	-56.2	14.0	0.00e+00	0	25	0	722468864	73	4847
2026-01-07 07:26:50.75	23.91	33.17	-53.9	-56.2	14.0	0.00e+00	0	25	0	723517440	73	4849
2026-01-07 07:26:51.76	23.53	33.14	-53.9	-56.1	14.0	0.00e+00	0	25	0	725614592	73	4804
2026-01-07 07:26:52.76	23.16	33.10	-53.9	-56.3	13.9	0.00e+00	0	25	0	727711744	73	4873
2026-01-07 07:26:53.77	22.79	33.07	-54.1	-56.4	13.8	0.00e+00	0	25	0	729808896	73	4968
2026-01-07 07:26:54.77	22.42	33.03	-54.2	-56.6	13.7	0.00e+00	0	25	0	730857472	73	5091
2026-01-07 07:26:55.77	22.05	32.99	-54.4	-56.9	13.6	0.00e+00	0	25	0	732954624	73	5228
2026-01-07 07:26:56.77	21.68	32.96	-54.4	-56.9	13.7	0.00e+00	0	25	0	735051776	74	4976
2026-01-07 07:26:57.78	21.31	32.91	-54.3	-56.8	13.8	0.00e+00	0	26	0	737148928	74	4910
2026-01-07 07:26:58.78	20.94	32.87	-54.4	-56.9	13.7	0.00e+00	0	25	0	739246080	74	4978
2026-01-07 07:26:59.79	20.57	32.83	-54.4	-56.9	13.7	0.00e+00	0	26	0	740294656	74	4964
2026-01-07 07:27:00.79	20.21	32.79	-54.4	-57.0	13.7	0.00e+00	0	25	0	742391808	74	4984
2026-01-07 07:27:01.79	19.85	32.74	-54.5	-57.1	13.6	0.00e+00	0	25	0	744488960	74	5069
2026-01-07 07:27:02.79	19.48	32.69	-54.6	-57.2	13.5	0.00e+00	0	25	0	746586112	74	5155
2026-01-07 07:27:03.79	19.12	32.65	-54.7	-57.3	13.5	0.00e+00	0	25	0	748683264	74	5205
2026-01-07 07:27:04.80	18.76	32.60	-54.5	-57.1	13.6	0.00e+00	0	26	0	749731840	74	5091
2026-01-07 07:27:05.80	18.40	32.55	-54.6	-57.2	13.5	0.00e+00	0	25	0	751828992	74	5118
2026-01-07 07:27:06.81	18.04	32.49	-54.5	-57.0	13.7	0.00e+00	0	25	0	753926144	74	5030
2026-01-07 07:27:07.80	17.69	32.44	-54.5	-57.1	13.6	0.00e+00	0	25	0	756023296	74	5054
2026-01-07 07:27:08.81	17.33	32.39	-54.3	-56.8	13.8	0.00e+00	0	25	0	758120448	74	4877
2026-01-07 07:27:09.81	16.97	32.33	-54.3	-56.7	13.8	0.00e+00	0	25	0	759169024	74	4852
2026-01-07 07:27:10.81	16.62	32.28	-54.2	-56.6	13.8	0.00e+00	0	25	0	761266176	74	4813
2026-01-07 07:27:11.82	16.27	32.22	-54.2	-56.6	13.9	0.00e+00	0	26	0	763363328	74	4795
2026-01-07 07:27:12.82	15.92	32.16	-54.1	-56.4	14.0	0.00e+00	0	25	0	765460480	74	4669
2026-01-07 07:27:13.82	15.57	32.10	-53.9	-56.2	14.1	0.00e+00	0	25	0	767557632	74	4576
2026-01-07 07:27:14.82	15.22	32.04	-54.0	-56.3	14.0	0.00e+00	0	25	0	768606208	74	4637
2026-01-07 07:27:15.82	14.87	31.98	-54.3	-56.8	13.8	0.00e+00	0	25	0	770703360	74	4883
2026-01-07 07:27:16.82	14.53	31.92	-54.4	-56.9	13.7	0.00e+00	0	25	0	772800512	74	4949
2026-01-07 07:27:17.83	14.18	31.85	-54.4	-57.0	13.7	0.00e+00	0	25	0	774897664	74	4993
2026-01-07 07:27:18.83	13.84	31.79	-54.3	-56.7	13.8	0.00e+00	0	25	0	775946240	74	4868
2026-01-07 07:27:19.83	13.50	31.72	-54.2	-56.6	13.9	0.00e+00	0	25	0	778043392	74	4792
2026-01-07 07:27:20.83	13.16	31.66	-54.1	-56.5	14.0	0.00e+00	0	26	0	780140544	74	4715
2026-01-07 07:27:21.83	12.82	31.59	-54.0	-56.3	14.0	0.00e+00	0	25	0	782237696	74	4645
2026-01-07 07:27:22.83	12.48	31.52	-54.0	-56.3	14.1	0.00e+00	0	25	0	784334848	74	4645
2026-01-07 07:27:23.83	12.15	31.45	-54.3	-56.7	13.8	0.00e+00	0	25	0	785383424	74	4858
2026-01-07 07:27:24.82	11.82	31.38	-54.4	-57.0	13.7	0.00e+00	0	25	0	787480576	74	5003
2026-01-07 07:27:25.81	11.49	31.31	-54.6	-57.3	13.5	0.00e+00	0	25	0	789577728	74	5172
2026-01-07 07:27:26.81	11.16	31.24	-54.6	-57.2	13.5	0.00e+00	0	25	0	791674880	74	5131
2026-01-07 07:27:27.81	10.83	31.16	-54.6	-57.2	13.5	0.00e+00	0	25	0	793772032	74	5142
2026-01-07 07:27:28.81	10.50	31.09	-54.5	-57.1	13.6	0.00e+00	0	25	0	794820608	74	5076
2026-01-07 07:27:29.80	10.18	31.02	-54.5	-57.1	13.5	0.00e+00	0	25	0	796917760	74	5069
2026-01-07 07:27:30.80	9.85	30.94	-54.5	-57.0	13.6	0.00e+00	0	25	0	799014912	74	5013
2026-01-07 07:27:31.80	9.53	30.86	-54.5	-57.1	13.6	0.00e+00	0	25	0	801112064	74	5068
2026-01-07 07:27:32.80	9.21	30.79	-54.5	-57.1	13.6	0.00e+00	0	25	0	803209216	74	5063
2026-01-07 07:27:33.80	8.88	30.71	-54.5	-57.1	13.6	0.00e+00	0	25	0	804257792	74	5048
2026-01-07 07:27:34.80	8.57	30.63	-54.5	-57.0	13.6	0.00e+00	0	25	0	806354944	74	5040
2026-01-07 07:27:35.79	8.25	30.55	-54.5	-57.1	13.6	0.00e+00	0	25	0	808452096	74	5071
2026-01-07 07:27:36.79	7.94	30.47	-54.6	-57.2	13.5	0.00e+00	0	25	0	810549248	74	5155
2026-01-07 07:27:37.78	7.63	30.39	-54.7	-57.4	13.4	0.00e+00	0	25	0	811597824	74	5262
2026-01-07 07:27:38.78	7.31	30.31	-54.7	-57.3	13.4	0.00e+00	0	26	0	813694976	74	5209
2026-01-07 07:27:39.77	7.01	30.23	-54.4	-57.0	13.7	0.00e+00	0	25	0	815792128	74	4992
2026-01-07 07:27:40.77	6.70	30.14	-54.3	-56.7	13.8	0.00e+00	0	25	0	817889280	74	4840
2026-01-07 07:27:41.76	6.39	30.06	-54.2	-56.5	13.9	0.00e+00	0	25	0	819986432	74	4750
2026-01-07 07:27:42.75	6.09	29.97	-54.1	-56.4	14.0	0.00e+00	0	25	0	821035008	74	4672
2026-01-07 07:27:43.75	5.79	29.89	-54.1	-56.5	14.0	0.00e+00	0	26	0	823132160	74	4721
2026-01-07 07:27:44.75	5.48	29.80	-54.1	-56.5	13.9	0.00e+00	0	25	0	825229312	74	4745
2026-01-07 07:27:45.74	5.18	29.72	-54.2	-56.5	13.9	0.00e+00	0	25	0	827326464	74	4755
2026-01-07 07:27:46.74	4.88	29.63	-54.3	-56.8	13.8	0.00e+00	0	25	0	828375040	74	4907
2026-01-07 07:27:47.73	4.59	29.54	-54.4	-56.9	13.7	0.00e+00	0	25	0	830472192	74	4952
2026-01-07 07:27:48.73	4.29	29.45	-54.3	-56.8	13.8	0.00e+00	0	25	0	832569344	74	4887
2026-01-07 07:27:49.72	4.00	29.37	-54.2	-56.6	13.9	0.00e+00	0	25	0	834666496	74	4809
2026-01-07 07:27:50.72	3.71	29.28	-54.0	-56.3	14.1	0.00e+00	0	25	0	836763648	74	4603
2026-01-07 07:27:51.71	3.42	29.19	-53.8	-56.0	14.2	0.00e+00	0	25	0	837812224	74	4459
2026-01-07 07:27:52.71	3.13	29.10	-53.8	-56.0	14.2	0.00e+00	0	25	0	839909376	74	4471
2026-01-07 07:27:53.70	2.85	29.01	-53.8	-56.0	14.2	0.00e+00	0	25	0	842006528	74	4455
2026-01-07 07:27:54.70	2.56	28.91	-53.8	-56.0	14.2	0.00e+00	0	26	0	844103680	74	4492
2026-01-07 07:27:55.70	2.28	28.82	-53.8	-56.1	14.2	0.00e+00	0	25	0	845152256	74	4524
2026-01-07 07:27:56.69	2.00	28.73	-53.9	-56.3	14.0	0.00e+00	0	25	0	847249408	74	4603
2026-01-07 07:27:57.69	1.71	28.64	-54.0	-56.3	14.0	0.00e+00	0	25	0	849346560	74	4642
2026-01-07 07:27:58.69	1.43	28.54	-54.1	-56.4	13.9	0.00e+00	0	25	0	851443712	74	4685
2026-01-07 07:27:59.68	1.16	28.45	-54.1	-56.5	13.9	0.00e+00	0	25	0	853540864	74	4719
2026-01-07 07:28:00.68	0.88	28.36	-54.0	-56.4	14.0	0.00e+00	0	25	0	854589440	74	4673
2026-01-07 07:28:01.69	0.61	28.26	-53.9	-56.2	14.1	0.00e+00	0	25	0	856686592	74	4563
2026-01-07 07:28:02.69	0.33	28.16	-53.8	-56.1	14.1	0.00e+00	0	26	0	858783744	74	4526
2026-01-07 07:28:03.69	0.06	28.07	-53.7	-55.9	14.3	0.00e+00	0	25	0	860880896	74	4414
2026-01-07 07:28:04.69	359.79	27.97	-53.8	-56.1	14.2	0.00e+00	0	26	0	861929472	74	4521
2026-01-07 07:28:05.69	359.52	27.88	-53.7	-55.9	14.2	0.00e+00	0	25	0	864026624	74	4425
2026-01-07 07:28:06.70	359.25	27.78	-53.6	-55.8	14.2	0.00e+00	0	25	0	866123776	73	4610
2026-01-07 07:28:07.71	358.99	27.68	-53.3	-55.4	14.4	0.00e+00	0	25	0	868220928	73	4434
2026-01-07 07:28:08.72	358.72	27.58	-53.1	-55.1	14.4	0.00e+00	0	25	0	870318080	72	4502
2026-01-07 07:28:09.72	358.46	27.48	-52.9	-54.9	14.5	0.00e+00	0	25	0	871366656	72	4418
2026-01-07 07:28:10.72	358.20	27.38	-52.8	-54.8	14.6	0.00e+00	0	25	0	873463808	72	4348
2026-01-07 07:28:11.72	357.94	27.29	-52.9	-54.8	14.6	0.00e+00	0	26	0	875560960	72	4366
2026-01-07 07:28:12.72	357.68	27.19	-53.0	-55.0	14.5	0.00e+00	0	25	0	877658112	72	4453
2026-01-07 07:28:13.72	357.43	27.09	-53.0	-54.9	14.5	0.00e+00	0	25	0	879755264	72	4428
2026-01-07 07:28:14.72	357.17	26.99	-52.8	-54.8	14.6	0.00e+00	0	25	0	880803840	72	4360
2026-01-07 07:28:15.72	356.92	26.89	-52.8	-54.7	14.6	0.00e+00	0	25	0	882900992	72	4334
2026-01-07 07:28:16.72	356.67	26.79	-52.6	-54.4	14.6	0.00e+00	0	25	0	884998144	71	4438
2026-01-07 07:28:17.72	356.42	26.69	-52.3	-54.1	14.8	0.00e+00	0	26	0	887095296	71	4270
2026-01-07 07:28:18.73	356.17	26.59	-52.2	-54.0	14.9	0.00e+00	0	25	0	889192448	71	4223
2026-01-07 07:28:19.74	355.93	26.49	-52.1	-53.9	14.7	0.00e+00	0	25	0	890241024	70	4425
2026-01-07 07:28:20.74	355.68	26.39	-51.9	-53.7	14.8	0.00e+00	0	25	0	892338176	70	4307
2026-01-07 07:28:21.75	355.44	26.28	-51.9	-53.6	14.9	0.00e+00	0	25	0	894435328	70	4264
2026-01-07 07:28:22.76	355.19	26.18	-51.8	-53.5	14.9	0.00e+00	0	25	0	896532480	70	4206
2026-01-07 07:28:23.76	354.95	26.08	-51.6	-53.3	14.9	0.00e+00	0	26	0	898629632	69	4357
2026-01-07 07:28:24.77	354.71	25.98	-51.6	-53.3	14.9	0.00e+00	0	25	0	899678208	69	4368
2026-01-07 07:28:25.77	354.48	25.88	-51.6	-53.3	14.8	0.00e+00	0	25	0	901775360	69	4373
2026-01-07 07:28:26.78	354.24	25.77	-51.4	-53.0	15.0	0.00e+00	0	25	0	903872512	69	4207
2026-01-07 07:28:27.78	354.01	25.67	-51.2	-52.8	14.9	0.00e+00	0	26	0	905969664	68	4341
2026-01-07 07:28:28.78	353.78	25.57	-51.2	-52.8	14.9	0.00e+00	0	25	0	908066816	68	4379
2026-01-07 07:28:29.78	353.55	25.47	-51.1	-52.7	15.0	0.00e+00	0	25	0	909115392	68	4314
2026-01-07 07:28:30.78	353.32	25.36	-51.1	-52.7	15.0	0.00e+00	0	25	0	911212544	68	4322
2026-01-07 07:28:31.78	353.09	25.26	-51.1	-52.7	15.0	0.00e+00	0	26	0	913309696	68	4293
2026-01-07 07:28:32.79	352.86	25.16	-51.1	-52.6	15.0	0.00e+00	0	25	0	915406848	68	4275
2026-01-07 07:28:33.79	352.64	25.06	-50.8	-52.3	15.1	0.00e+00	0	25	0	916455424	68	4129
2026-01-07 07:28:34.80	352.41	24.95	-50.8	-52.3	15.2	0.00e+00	0	26	0	918552576	68	4108
2026-01-07 07:28:35.80	352.19	24.85	-50.5	-52.0	15.1	0.00e+00	0	25	0	920649728	67	4199
2026-01-07 07:28:36.80	351.97	24.75	-50.6	-52.1	15.1	0.00e+00	0	25	0	922746880	67	4262
2026-01-07 07:28:37.81	351.75	24.64	-50.5	-52.0	15.1	0.00e+00	0	25	0	924844032	67	4197
2026-01-07 07:28:38.82	351.53	24.54	-50.3	-51.8	15.2	0.00e+00	0	25	0	926941184	67	4106
2026-01-07 07:28:39.82	351.32	24.44	-50.3	-51.7	15.2	0.00e+00	0	25	0	927989760	67	4098
2026-01-07 07:28:40.81	351.11	24.33	-50.3	-51.7	15.2	0.00e+00	0	25	0	930086912	67	4098
2026-01-07 07:28:41.82	350.89	24.23	-50.3	-51.8	15.2	0.00e+00	0	25	0	932184064	67	4122
2026-01-07 07:28:42.82	350.68	24.13	-50.4	-51.9	15.1	0.00e+00	0	25	0	934281216	67	4174
2026-01-07 07:28:43.83	350.47	24.02	-50.5	-52.0	15.1	0.00e+00	0	25	0	935329792	67	4227
2026-01-07 07:28:44.83	350.26	23.92	-50.5	-52.0	15.1	0.00e+00	0	25	0	937426944	67	4213
2026-01-07 07:28:45.83	350.05	23.82	-50.6	-52.1	15.1	0.00e+00	0	25	0	939524096	67	4255
2026-01-07 07:28:46.83	349.85	23.71	-50.5	-52.0	15.1	0.00e+00	0	25	0	941621248	67	4233
2026-01-07 07:28:47.83	349.64	23.61	-50.6	-52.1	15.0	0.00e+00	0	25	0	943718400	67	4281
2026-01-07 07:28:48.83	349.44	23.51	-50.7	-52.3	15.0	0.00e+00	0	25	0	944766976	67	4354
2026-01-07 07:28:49.83	349.24	23.40	-50.8	-52.3	15.0	0.00e+00	0	25	0	946864128	67	4387
2026-01-07 07:28:50.83	349.04	23.30	-50.7	-52.3	15.0	0.00e+00	0	25	0	948961280	67	4343
2026-01-07 07:28:51.83	348.84	23.20	-50.8	-52.4	14.9	0.00e+00	0	25	0	951058432	67	4393
2026-01-07 07:28:52.83	348.64	23.10	-50.8	-52.4	14.9	0.00e+00	0	25	0	953155584	67	4398
2026-01-07 07:28:53.83	348.45	22.99	-50.9	-52.4	14.9	0.00e+00	0	25	0	954204160	67	4431
2026-01-07 07:28:54.84	348.25	22.89	-50.9	-52.4	14.9	0.00e+00	0	26	0	956301312	67	4433
2026-01-07 07:28:55.84	348.06	22.79	-50.8	-52.4	14.9	0.00e+00	0	26	0	958398464	67	4418
2026-01-07 07:28:56.85	347.86	22.68	-51.0	-52.6	14.9	0.00e+00	0	25	0	960495616	67	4500
2026-01-07 07:28:57.85	347.67	22.58	-51.0	-52.6	14.8	0.00e+00	0	25	0	961544192	67	4505
2026-01-07 07:28:58.85	347.48	22.48	-51.0	-52.6	14.8	0.00e+00	0	26	0	963641344	67	4533
2026-01-07 07:28:59.86	347.29	22.37	-51.0	-52.6	14.8	0.00e+00	0	25	0	965738496	67	4533
2026-01-07 07:29:00.85	347.10	22.27	-51.1	-52.7	14.8	0.00e+00	0	25	0	967835648	67	4569
2026-01-07 07:29:01.86	346.92	22.17	-51.1	-52.7	14.8	0.00e+00	0	25	0	969932800	67	4585
2026-01-07 07:29:02.86	346.73	22.07	-51.2	-52.8	14.8	0.00e+00	0	26	0	972029952	67	4630
2026-01-07 07:29:03.86	346.55	21.96	-51.3	-53.0	14.7	0.00e+00	0	25	0	973078528	67	4717
2026-01-07 07:29:04.86	346.37	21.86	-51.2	-52.9	14.7	0.00e+00	0	25	0	975175680	67	4665
2026-01-07 07:29:05.86	346.19	21.76	-51.2	-52.9	14.7	0.00e+00	0	26	0	977272832	67	4662
2026-01-07 07:29:06.86	346.01	21.66	-51.3	-52.9	14.7	0.00e+00	0	25	0	979369984	67	4701
2026-01-07 07:29:07.85	345.83	21.56	-51.1	-52.8	14.7	0.00e+00	0	25	0	980418560	67	4612
2026-01-07 07:29:08.86	345.65	21.46	-51.1	-52.7	14.8	0.00e+00	0	25	0	982515712	67	4598
2026-01-07 07:29:09.87	345.47	21.35	-51.2	-52.8	14.8	0.00e+00	0	25	0	984612864	67	4630
2026-01-07 07:29:10.86	345.30	21.25	-51.2	-52.8	14.7	0.00e+00	0	26	0	986710016	67	4640
2026-01-07 07:29:11.87	345.12	21.15	-51.2	-52.9	14.7	0.00e+00	0	26	0	988807168	67	4656
2026-01-07 07:29:12.86	344.95	21.05	-51.3	-52.9	14.7	0.00e+00	0	25	0	989855744	67	4699
2026-01-07 07:29:13.87	344.78	20.95	-51.3	-53.0	14.7	0.00e+00	0	25	0	991952896	67	4736
2026-01-07 07:29:14.86	344.61	20.85	-51.3	-52.9	14.7	0.00e+00	0	26	0	994050048	67	4701
2026-01-07 07:29:15.86	344.44	20.75	-51.4	-53.1	14.6	0.00e+00	0	25	0	996147200	67	4767
2026-01-07 07:29:16.88	344.27	20.64	-51.6	-53.4	14.7	0.00e+00	0	25	0	998244352	68	4655
2026-01-07 07:29:17.87	344.10	20.55	-51.6	-53.3	14.7	0.00e+00	0	25	0	999292928	68	4637
2026-01-07 07:29:18.86	343.94	20.45	-51.6	-53.3	14.7	0.00e+00	0	26	0	1001390080	68	4632
2026-01-07 07:29:19.86	343.77	20.35	-51.7	-53.4	14.6	0.00e+00	0	26	0	1003487232	68	4663
2026-01-07 07:29:20.86	343.61	20.25	-51.7	-53.4	14.6	0.00e+00	0	25	0	1005584384	68	4696
2026-01-07 07:29:21.86	343.45	20.15	-51.8	-53.6	14.6	0.00e+00	0	25	0	1007681536	68	4768
2026-01-07 07:29:22.85	343.29	20.05	-52.0	-53.7	14.7	0.00e+00	0	25	0	1008730112	69	4592
2026-01-07 07:29:23.86	343.13	19.95	-51.9	-53.7	14.6	0.00e+00	0	25	0	1010827264	69	4577
2026-01-07 07:29:24.85	342.97	19.85	-52.1	-53.9	14.6	0.00e+00	0	25	0	1012924416	69	4668
2026-01-07 07:29:25.85	342.81	19.75	-52.2	-54.0	14.5	0.00e+00	0	26	0	1015021568	69	4715
2026-01-07 07:29:26.84	342.65	19.65	-52.2	-54.0	14.5	0.00e+00	0	25	0	1016070144	69	4746
2026-01-07 07:29:27.83	342.50	19.55	-52.2	-54.0	14.5	0.00e+00	0	25	0	1018167296	69	4745
2026-01-07 07:29:28.84	342.34	19.45	-52.1	-53.9	14.5	0.00e+00	0	25	0	1020264448	69	4694
2026-01-07 07:29:29.83	342.19	19.35	-52.3	-54.1	14.4	0.00e+00	0	25	0	1022361600	69	4800
2026-01-07 07:29:30.83	342.04	19.26	-52.3	-54.2	14.4	0.00e+00	0	25	0	1024458752	69	4819
2026-01-07 07:29:31.83	341.88	19.16	-52.4	-54.3	14.4	0.00e+00	0	25	0	1025507328	69	4875
2026-01-07 07:29:32.82	341.73	19.06	-52.4	-54.3	14.4	0.00e+00	0	25	0	1027604480	69	4877
2026-01-07 07:29:33.82	341.58	18.96	-52.4	-54.3	14.4	0.00e+00	0	25	0	1029701632	69	4897
2026-01-07 07:29:34.82	341.43	18.87	-52.3	-54.2	14.4	0.00e+00	0	25	0	1031798784	69	4856
2026-01-07 07:29:35.82	341.29	18.77	-52.5	-54.4	14.5	0.00e+00	0	26	0	1032847360	70	4680
2026-01-07 07:29:36.81	341.14	18.67	-52.6	-54.5	14.4	0.00e+00	0	25	0	1034944512	70	4738
2026-01-07 07:29:37.81	340.99	18.57	-52.5	-54.4	14.4	0.00e+00	0	25	0	1037041664	70	4693
2026-01-07 07:29:38.80	340.85	18.48	-52.6	-54.6	14.3	0.00e+00	0	26	0	1039138816	70	4779
2026-01-07 07:29:39.80	340.71	18.38	-52.6	-54.6	14.3	0.00e+00	0	26	0	1041235968	70	4790
2026-01-07 07:29:40.80	340.56	18.28	-52.7	-54.7	14.3	0.00e+00	0	25	0	1042284544	70	4869
2026-01-07 07:29:41.80	340.42	18.19	-52.7	-54.6	14.3	0.00e+00	0	25	0	1044381696	70	4798
2026-01-07 07:29:42.79	340.28	18.09	-52.7	-54.7	14.3	0.00e+00	0	25	0	1046478848	70	4820
2026-01-07 07:29:43.79	340.14	18.00	-52.6	-54.6	14.3	0.00e+00	0	25	0	1048576000	70	4772
2026-01-07 07:29:44.79	340.00	17.90	-52.6	-54.5	14.4	0.00e+00	0	25	0	1049624576	70	4744
2026-01-07 07:29:45.79	339.86	17.81	-52.6	-54.5	14.4	0.00e+00	0	25	0	1051721728	70	4724
2026-01-07 07:29:46.79	339.72	17.71	-52.5	-54.5	14.4	0.00e+00	0	25	0	1053818880	70	4728
2026-01-07 07:29:47.79	339.58	17.61	-52.6	-54.5	14.4	0.00e+00	0	25	0	1055916032	70	4750
2026-01-07 07:29:48.79	339.45	17.52	-52.6	-54.6	14.4	3.00e-06	0	25	0	1058013184	70	4760
2026-01-07 07:29:49.79	339.31	17.42	-52.7	-54.7	14.3	0.00e+00	0	25	0	1059061760	70	4864
2026-01-07 07:29:50.79	339.18	17.33	-52.7	-54.7	14.3	0.00e+00	0	26	0	1061158912	70	4855
2026-01-07 07:29:51.78	339.05	17.24	-52.8	-54.8	14.3	0.00e+00	0	25	0	1063256064	70	4885
2026-01-07 07:29:52.77	338.91	17.14	-52.9	-54.9	14.2	0.00e+00	0	25	0	1065353216	70	4972
2026-01-07 07:29:53.78	338.78	17.05	-52.9	-54.9	14.2	0.00e+00	0	25	0	1067450368	70	4977
2026-01-07 07:29:54.78	338.65	16.95	-53.0	-55.1	14.3	0.00e+00	0	25	0	1068498944	71	4769
2026-01-07 07:29:55.78	338.52	16.86	-53.0	-55.1	14.2	0.00e+00	0	25	0	1070596096	71	4778
2026-01-07 07:29:56.77	338.39	16.77	-53.0	-55.1	14.2	0.00e+00	0	25	0	1072693248	71	4809
2026-01-07 07:29:57.77	338.26	16.67	-53.1	-55.2	14.2	0.00e+00	0	25	0	1074790400	71	4853
2026-01-07 07:29:58.77	338.13	16.58	-53.1	-55.2	14.1	0.00e+00	0	25	0	1075838976	71	4854
2026-01-07 07:29:59.76	338.01	16.49	-53.0	-55.1	14.2	0.00e+00	0	25	0	1077936128	71	4779
2026-01-07 07:30:00.76	337.88	16.40	-53.0	-55.1	14.2	0.00e+00	0	25	0	1080033280	71	4809
2026-01-07 07:30:01.75	337.76	16.31	-53.0	-55.1	14.2	0.00e+00	0	25	0	1082130432	71	4808
2026-01-07 07:30:02.76	337.63	16.21	-53.0	-55.1	14.2	0.00e+00	0	25	0	1084227584	71	4773
2026-01-07 07:30:03.75	337.51	16.12	-53.0	-55.1	14.2	0.00e+00	0	25	0	1085276160	71	4770
2026-01-07 07:30:04.74	337.39	16.03	-53.1	-55.2	14.1	0.00e+00	0	25	0	1087373312	71	4850
2026-01-07 07:30:05.74	337.26	15.94	-53.1	-55.2	14.2	0.00e+00	0	26	0	1089470464	71	4849
2026-01-07 07:30:06.73	337.14	15.85	-53.0	-55.1	14.2	0.00e+00	0	26	0	1091567616	71	4771
2026-01-07 07:30:07.73	337.02	15.76	-53.0	-55.1	14.2	0.00e+00	0	25	0	1092616192	71	4813
2026-01-07 07:30:08.73	336.90	15.67	-53.0	-55.1	14.2	0.00e+00	0	25	0	1094713344	71	4812
2026-01-07 07:30:09.73	336.78	15.57	-53.0	-55.1	14.2	0.00e+00	0	26	0	1096810496	71	4796
2026-01-07 07:30:10.73	336.66	15.48	-53.0	-55.1	14.2	0.00e+00	0	26	0	1098907648	71	4800
2026-01-07 07:30:11.73	336.55	15.39	-53.0	-55.2	14.2	0.00e+00	0	25	0	1101004800	71	4828
2026-01-07 07:30:12.73	336.43	15.30	-53.0	-55.1	14.2	0.00e+00	0	25	0	1102053376	71	4782
2026-01-07 07:30:13.73	336.31	15.21	-52.9	-54.9	14.3	0.00e+00	0	25	0	1104150528	71	4694
2026-01-07 07:30:14.72	336.20	15.12	-52.9	-55.0	14.3	0.00e+00	0	25	0	1106247680	71	4710
2026-01-07 07:30:15.72	336.08	15.04	-52.9	-54.9	14.3	0.00e+00	0	25	0	1108344832	71	4682
2026-01-07 07:30:16.71	335.97	14.95	-52.9	-54.9	14.3	0.00e+00	0	25	0	1110441984	71	4697
2026-01-07 07:30:17.71	335.86	14.86	-52.9	-55.0	14.2	0.00e+00	0	26	0	1111490560	71	4749
2026-01-07 07:30:18.71	335.74	14.77	-53.0	-55.2	14.1	0.00e+00	0	26	0	1113587712	71	4830
2026-01-07 07:30:19.70	335.63	14.68	-53.1	-55.2	14.1	0.00e+00	0	25	0	1115684864	71	4850
2026-01-07 07:30:20.70	335.52	14.59	-53.1	-55.3	14.1	0.00e+00	0	25	0	1117782016	71	4884
2026-01-07 07:30:21.70	335.41	14.50	-53.1	-55.3	14.1	0.00e+00	0	25	0	1118830592	71	4904
2026-01-07 07:30:22.70	335.30	14.42	-53.2	-55.3	14.1	0.00e+00	0	25	0	1120927744	71	4917
2026-01-07 07:30:23.70	335.19	14.33	-53.2	-55.4	14.0	0.00e+00	0	25	0	1123024896	71	4963
2026-01-07 07:30:24.70	335.08	14.24	-53.2	-55.4	14.0	0.00e+00	0	25	0	1125122048	71	4963
2026-01-07 07:30:25.70	334.97	14.15	-53.2	-55.4	14.0	0.00e+00	0	25	0	1127219200	71	4964
2026-01-07 07:30:26.70	334.87	14.07	-53.1	-55.2	14.1	0.00e+00	0	26	0	1128267776	71	4860
2026-01-07 07:30:27.70	334.76	13.98	-53.1	-55.2	14.1	0.00e+00	0	25	0	1130364928	71	4855
2026-01-07 07:30:28.70	334.65	13.89	-53.0	-55.2	14.1	0.00e+00	0	25	0	1132462080	71	4842
2026-01-07 07:30:29.70	334.55	13.81	-53.1	-55.3	14.1	0.00e+00	0	25	0	1134559232	71	4886
2026-01-07 07:30:30.70	334.44	13.72	-53.1	-55.2	14.1	0.00e+00	0	25	0	1136656384	71	4866
2026-01-07 07:30:31.70	334.34	13.63	-53.0	-55.2	14.1	0.00e+00	0	25	0	1137704960	71	4833
2026-01-07 07:30:32.69	334.24	13.55	-53.1	-55.2	14.1	0.00e+00	0	25	0	1139802112	71	4866
2026-01-07 07:30:33.70	334.13	13.46	-53.0	-55.1	14.1	0.00e+00	0	25	0	1141899264	71	4813
2026-01-07 07:30:34.69	334.03	13.38	-53.0	-55.2	14.0	0.00e+00	0	25	0	1143996416	71	4826
2026-01-07 07:30:35.69	333.93	13.29	-53.2	-55.4	14.0	0.00e+00	0	25	0	1145044992	71	4937
2026-01-07 07:30:36.70	333.83	13.20	-53.0	-55.2	14.1	0.00e+00	0	25	0	1147142144	71	4844
2026-01-07 07:30:37.70	333.73	13.12	-53.1	-55.2	14.1	0.00e+00	0	25	0	1149239296	71	4858
2026-01-07 07:30:38.70	333.62	13.04	-53.0	-55.2	14.1	0.00e+00	0	25	0	1151336448	71	4841
2026-01-07 07:30:39.70	333.53	12.95	-53.0	-55.2	14.1	0.00e+00	0	25	0	1153433600	71	4846
2026-01-07 07:30:40.70	333.43	12.87	-53.0	-55.1	14.1	0.00e+00	0	25	0	1154482176	71	4806
2026-01-07 07:30:41.69	333.33	12.78	-53.0	-55.2	14.1	0.00e+00	0	25	0	1156579328	71	4850
2026-01-07 07:30:42.70	333.23	12.70	-53.1	-55.2	14.1	0.00e+00	0	25	0	1158676480	71	4864
2026-01-07 07:30:43.70	333.13	12.61	-53.0	-55.2	14.1	0.00e+00	0	25	0	1160773632	71	4823
2026-01-07 07:30:44.70	333.04	12.53	-53.1	-55.3	14.1	0.00e+00	0	25	0	1162870784	71	4878
2026-01-07 07:30:45.70	332.94	12.45	-53.1	-55.3	14.1	0.00e+00	0	25	0	1163919360	71	4882
2026-01-07 07:30:46.71	332.84	12.36	-53.1	-55.3	14.1	0.00e+00	0	25	0	1166016512	71	4913
2026-01-07 07:30:47.71	332.75	12.28	-53.2	-55.4	14.0	0.00e+00	0	25	0	1168113664	71	4978
2026-01-07 07:30:48.71	332.66	12.20	-53.3	-55.6	13.9	0.00e+00	0	25	0	1170210816	71	5044
2026-01-07 07:30:49.71	332.56	12.12	-53.3	-55.5	13.9	0.00e+00	0	25	0	1172307968	71	5036
2026-01-07 07:30:50.72	332.47	12.03	-53.4	-55.7	13.8	0.00e+00	0	25	0	1173356544	71	5133
2026-01-07 07:30:51.71	332.38	11.95	-53.5	-55.8	13.9	0.00e+00	0	25	0	1175453696	72	4922
2026-01-07 07:30:52.71	332.28	11.87	-53.6	-55.9	13.8	0.00e+00	0	26	0	1177550848	72	4983
2026-01-07 07:30:53.71	332.19	11.79	-53.6	-56.1	13.7	0.00e+00	0	25	0	1179648000	72	5054
2026-01-07 07:30:54.71	332.10	11.71	-53.6	-56.1	13.7	0.00e+00	0	25	0	1181745152	72	5043
2026-01-07 07:30:55.71	332.01	11.62	-53.7	-56.1	13.7	0.00e+00	0	25	0	1182793728	72	5093
2026-01-07 07:30:56.72	331.92	11.54	-53.7	-56.2	13.7	0.00e+00	0	26	0	1184890880	72	5111
2026-01-07 07:30:57.72	331.83	11.46	-53.7	-56.2	13.7	0.00e+00	0	25	0	1186988032	72	5102
2026-01-07 07:30:58.72	331.74	11.38	-53.7	-56.2	13.7	0.00e+00	0	25	0	1189085184	72	5122
2026-01-07 07:30:59.73	331.65	11.30	-53.7	-56.2	13.6	0.00e+00	0	26	0	1190133760	72	5145
2026-01-07 07:31:00.73	331.56	11.22	-53.7	-56.2	13.6	0.00e+00	0	25	0	1192230912	72	5124
2026-01-07 07:31:01.73	331.48	11.14	-53.7	-56.2	13.7	0.00e+00	0	25	0	1194328064	72	5130
2026-01-07 07:31:02.73	331.39	11.06	-53.8	-56.3	13.6	0.00e+00	0	25	0	1196425216	72	5176
2026-01-07 07:31:03.74	331.30	10.98	-53.8	-56.4	13.6	0.00e+00	0	25	0	1198522368	72	5230
2026-01-07 07:31:04.74	331.22	10.90	-53.7	-56.2	13.6	0.00e+00	0	25	0	1199570944	72	5126
2026-01-07 07:31:05.74	331.13	10.82	-53.8	-56.3	13.6	0.00e+00	0	25	0	1201668096	72	5167
2026-01-07 07:31:06.74	331.04	10.74	-53.7	-56.2	13.6	0.00e+00	0	25	0	1203765248	72	5153
2026-01-07 07:31:07.75	330.96	10.66	-53.7	-56.2	13.6	0.00e+00	0	25	0	1205862400	72	5150
2026-01-07 07:31:08.75	330.88	10.58	-53.8	-56.3	13.6	0.00e+00	0	25	0	1207959552	72	5199
2026-01-07 07:31:09.75	330.79	10.50	-53.8	-56.4	13.5	0.00e+00	0	25	0	1209008128	72	5220
2026-01-07 07:31:10.76	330.71	10.42	-53.8	-56.3	13.6	0.00e+00	0	25	0	1211105280	72	5199
2026-01-07 07:31:11.76	330.62	10.35	-53.8	-56.4	13.5	0.00e+00	0	25	0	1213202432	72	5254
2026-01-07 07:31:12.77	330.54	10.27	-53.9	-56.5	13.4	0.00e+00	0	25	0	1215299584	72	5307
2026-01-07 07:31:13.77	330.46	10.19	-53.9	-56.6	13.5	0.00e+00	0	25	0	1217396736	73	5049
2026-01-07 07:31:14.77	330.38	10.11	-53.8	-56.4	13.6	0.00e+00	0	25	0	1218445312	73	4957
2026-01-07 07:31:15.78	330.30	10.03	-53.9	-56.6	13.5	0.00e+00	0	25	0	1220542464	73	5052
2026-01-07 07:31:16.78	330.22	9.96	-53.9	-56.5	13.6	0.00e+00	0	25	0	1222639616	73	4991
