passes_logs/2026/01/07/R3.2S_Murmansk/R3.2S_Murmansk__20260107_020803_AQUA_rec.log

#Pass ID: 20260107_020803_AQUA
#Satellite: AQUA
#Configuration: AQUA
#almurnet v.1.7.20251203
#Start time: 2026-01-07 02:08:04

#Version: 2.2.20231116
#Station: R3.2S_Murmansk
#Location: 33.079688 lon 68.888172 lat
#TLE: 1 27424U 02022A   26004.96787593  .00001598  00000+0  32997-3 0  9996
#TLE: 2 27424  98.4069 331.2279 0002002  90.2377   0.6092 14.61798176259425

#Time	Az	El	Level	Level2	SNR	BER	BlckErr	Temp	State	Recorded	gain1	gain2
2026-01-07 02:08:04.31	23.14	2.03	-57.7	-77.0	3.8	7.46e-01	0	24	0	0	84	32711
2026-01-07 02:08:05.31	23.15	2.09	-57.5	-76.4	3.8	7.45e-01	0	24	104	0	82	34366
2026-01-07 02:08:06.31	23.16	2.16	-57.5	-76.3	3.8	7.47e-01	0	24	104	0	82	33788
2026-01-07 02:08:07.31	23.17	2.22	-57.5	-76.3	3.8	7.47e-01	0	25	104	0	82	33948
2026-01-07 02:08:08.32	23.18	2.29	-57.5	-76.1	3.8	7.47e-01	0	25	104	0	82	33270
2026-01-07 02:08:09.32	23.19	2.36	-57.5	-76.1	3.8	7.44e-01	0	25	104	0	82	33281
2026-01-07 02:08:10.32	23.20	2.43	-57.5	-76.2	3.8	7.45e-01	0	25	104	0	82	33694
2026-01-07 02:08:11.32	23.21	2.49	-57.5	-76.2	3.8	7.48e-01	0	25	104	0	82	33508
2026-01-07 02:08:12.32	23.22	2.56	-57.5	-76.2	3.8	7.47e-01	0	25	104	0	82	33526
2026-01-07 02:08:13.32	23.23	2.63	-57.5	-76.2	3.9	7.46e-01	0	25	104	0	82	33666
2026-01-07 02:08:14.31	23.24	2.69	-57.5	-75.9	3.8	7.46e-01	0	25	104	0	82	32442
2026-01-07 02:08:15.31	23.25	2.76	-57.4	-75.4	3.9	7.46e-01	0	25	104	0	82	30476
2026-01-07 02:08:16.32	23.26	2.83	-57.4	-75.0	3.9	7.45e-01	0	25	104	0	82	29314
2026-01-07 02:08:17.32	23.27	2.90	-57.4	-73.5	4.2	7.36e-01	0	25	104	0	82	24465
2026-01-07 02:08:18.32	23.28	2.97	-57.4	-72.7	4.0	7.40e-01	0	25	104	0	82	22457
2026-01-07 02:08:19.33	23.29	3.04	-57.3	-71.2	5.0	7.10e-01	0	25	0	0	82	18795
2026-01-07 02:08:20.33	23.30	3.11	-57.3	-69.9	5.7	6.91e-01	90	25	0	0	82	16234
2026-01-07 02:08:21.33	23.31	3.17	-57.3	-70.0	5.7	6.89e-01	48	25	0	1048576	82	16330
2026-01-07 02:08:22.33	23.32	3.24	-57.2	-69.7	5.8	6.88e-01	92	25	0	2621440	82	15939
2026-01-07 02:08:23.33	23.33	3.31	-57.2	-69.9	5.8	6.88e-01	92	25	0	3145728	82	16168
2026-01-07 02:08:24.33	23.34	3.38	-57.3	-70.8	5.2	7.02e-01	43	25	0	3145728	82	17980
2026-01-07 02:08:25.33	23.35	3.45	-57.3	-70.7	5.2	7.04e-01	0	25	0	3670016	82	17734
2026-01-07 02:08:26.33	23.36	3.52	-57.3	-71.2	5.0	7.11e-01	0	25	0	3670016	82	18797
2026-01-07 02:08:27.33	23.37	3.59	-57.3	-69.8	5.7	6.86e-01	92	25	0	3670016	82	16019
2026-01-07 02:08:28.33	23.38	3.66	-57.2	-68.5	6.7	6.63e-01	92	25	0	5767168	82	13749
2026-01-07 02:08:29.33	23.39	3.73	-57.0	-67.2	7.8	6.42e-01	36	25	0	7864320	82	11875
2026-01-07 02:08:30.32	23.40	3.80	-56.7	-64.7	9.9	6.18e-01	0	25	0	9437184	82	8932
2026-01-07 02:08:31.32	23.41	3.87	-56.1	-62.2	11.7	6.05e-01	0	25	0	11534336	81	7110
2026-01-07 02:08:32.32	23.42	3.95	-55.8	-61.5	12.2	6.06e-01	0	25	0	13107200	80	6945
2026-01-07 02:08:33.32	23.43	4.02	-55.3	-60.2	13.0	6.06e-01	0	25	0	15204352	79	6294
2026-01-07 02:08:34.32	23.44	4.09	-55.0	-59.5	13.4	6.06e-01	0	25	0	16777216	79	5816
2026-01-07 02:08:35.32	23.45	4.16	-54.6	-58.6	13.8	6.04e-01	0	25	0	18874368	78	5574
2026-01-07 02:08:36.33	23.46	4.23	-54.5	-58.4	13.9	6.03e-01	0	25	0	20971520	78	5455
2026-01-07 02:08:37.33	23.47	4.31	-54.2	-57.7	14.1	6.03e-01	0	25	0	22544384	77	5332
2026-01-07 02:08:38.32	23.48	4.38	-54.0	-57.4	14.3	6.06e-01	0	26	0	24641536	77	5125
2026-01-07 02:08:39.33	23.49	4.45	-54.1	-57.6	14.2	6.06e-01	0	25	0	26214400	77	5256
2026-01-07 02:08:40.33	23.50	4.52	-53.8	-57.2	14.3	6.05e-01	0	26	0	28311552	76	5287
2026-01-07 02:08:41.34	23.51	4.60	-54.0	-57.6	14.1	6.05e-01	0	26	0	30408704	76	5532
2026-01-07 02:08:42.34	23.52	4.67	-54.1	-57.7	14.1	6.03e-01	0	25	0	31981568	76	5629
2026-01-07 02:08:43.34	23.53	4.74	-54.4	-58.2	13.8	6.02e-01	0	26	0	34078720	76	5935
2026-01-07 02:08:44.34	23.54	4.82	-54.5	-58.4	13.7	6.04e-01	0	25	0	35651584	76	6125
2026-01-07 02:08:45.34	23.56	4.89	-54.9	-59.2	13.4	6.03e-01	0	26	0	37748736	77	6290
2026-01-07 02:08:46.34	23.57	4.97	-55.2	-59.8	13.0	6.03e-01	0	26	0	39321600	78	6413
2026-01-07 02:08:47.33	23.58	5.04	-54.8	-59.0	13.5	6.04e-01	0	26	0	41418752	78	5807
2026-01-07 02:08:48.34	23.59	5.12	-53.3	-56.4	14.6	6.02e-01	0	26	0	43515904	75	5105
2026-01-07 02:08:49.34	23.60	5.19	-55.0	-59.4	13.2	6.04e-01	0	26	0	45088768	77	6453
2026-01-07 02:08:50.34	23.61	5.27	-56.1	-62.0	11.7	6.08e-01	0	26	0	47185920	80	7315
2026-01-07 02:08:51.34	23.62	5.34	-53.2	-56.2	14.6	6.05e-01	0	26	0	48758784	74	5315
2026-01-07 02:08:52.34	23.63	5.42	-56.3	-63.2	10.4	6.12e-01	0	26	0	50855936	81	7968
2026-01-07 02:08:53.34	23.64	5.49	-52.5	-55.1	15.0	6.05e-01	0	26	0	52428800	74	4686
2026-01-07 02:08:54.33	23.65	5.57	-52.0	-54.4	15.1	6.03e-01	0	26	0	54525952	73	4581
2026-01-07 02:08:55.34	23.66	5.65	-52.0	-54.4	15.0	6.02e-01	0	26	0	56623104	72	4817
2026-01-07 02:08:56.35	23.68	5.72	-51.7	-54.0	15.1	6.03e-01	0	26	0	58195968	72	4602
2026-01-07 02:08:57.35	23.69	5.80	-51.6	-53.9	15.2	6.02e-01	0	26	0	60293120	72	4567
2026-01-07 02:08:58.35	23.70	5.88	-51.7	-53.9	15.1	6.05e-01	0	26	0	61865984	72	4597
2026-01-07 02:08:59.35	23.71	5.95	-51.5	-53.7	15.2	6.05e-01	0	26	0	63963136	72	4474
2026-01-07 02:09:00.35	23.72	6.03	-51.2	-53.2	15.2	6.05e-01	0	26	0	65536000	71	4488
2026-01-07 02:09:01.35	23.73	6.11	-51.4	-53.6	15.1	6.03e-01	0	26	0	67633152	71	4654
2026-01-07 02:09:02.35	23.74	6.19	-51.4	-53.6	15.1	6.04e-01	0	26	0	69730304	71	4696
2026-01-07 02:09:03.35	23.75	6.27	-51.2	-53.3	15.2	6.06e-01	0	26	0	71303168	71	4536
2026-01-07 02:09:04.35	23.77	6.35	-51.6	-53.8	15.0	6.05e-01	0	26	0	73400320	71	4784
2026-01-07 02:09:05.35	23.78	6.42	-51.3	-53.5	15.1	6.05e-01	0	26	0	74973184	71	4608
2026-01-07 02:09:06.35	23.79	6.50	-51.5	-53.7	15.1	6.03e-01	0	26	0	77070336	71	4718
2026-01-07 02:09:07.35	23.80	6.58	-51.4	-53.6	15.1	6.05e-01	0	26	0	79167488	71	4683
2026-01-07 02:09:08.35	23.81	6.66	-51.2	-53.3	15.2	6.04e-01	0	26	0	80740352	71	4542
2026-01-07 02:09:09.35	23.82	6.74	-51.2	-53.3	15.2	6.02e-01	0	26	0	82837504	71	4496
2026-01-07 02:09:10.35	23.84	6.82	-51.2	-53.3	15.2	6.03e-01	0	26	0	84410368	71	4496
2026-01-07 02:09:11.35	23.85	6.90	-51.3	-53.5	15.2	6.05e-01	0	26	0	86507520	71	4601
2026-01-07 02:09:12.35	23.86	6.98	-51.2	-53.3	15.2	6.05e-01	0	26	0	88080384	71	4521
2026-01-07 02:09:13.34	23.87	7.07	-51.1	-53.2	15.3	6.04e-01	0	26	0	90177536	71	4471
2026-01-07 02:09:14.34	23.88	7.15	-51.2	-53.3	15.2	6.04e-01	0	26	0	92274688	71	4494
2026-01-07 02:09:15.34	23.89	7.23	-51.2	-53.2	15.3	6.04e-01	0	26	0	93847552	71	4480
2026-01-07 02:09:16.34	23.91	7.31	-51.2	-53.3	15.2	6.04e-01	0	26	0	95944704	71	4508
2026-01-07 02:09:17.33	23.92	7.39	-51.0	-53.0	15.3	6.03e-01	0	26	0	97517568	71	4374
2026-01-07 02:09:18.33	23.93	7.47	-51.0	-53.1	15.3	6.02e-01	0	26	0	99614720	71	4398
2026-01-07 02:09:19.34	23.94	7.56	-50.9	-52.9	15.4	6.03e-01	0	26	0	101187584	71	4332
2026-01-07 02:09:20.34	23.95	7.64	-51.0	-53.1	15.3	6.05e-01	0	26	0	103284736	71	4399
2026-01-07 02:09:21.34	23.97	7.73	-50.9	-52.8	15.4	6.04e-01	0	26	0	105381888	71	4283
2026-01-07 02:09:22.34	23.98	7.81	-50.8	-52.8	15.2	6.05e-01	0	26	0	106954752	70	4531
2026-01-07 02:09:23.35	23.99	7.89	-50.8	-52.7	15.3	6.05e-01	0	26	0	109051904	70	4478
2026-01-07 02:09:24.35	24.00	7.98	-50.9	-52.8	15.2	6.04e-01	0	26	0	110624768	70	4545
2026-01-07 02:09:25.35	24.02	8.06	-50.7	-52.7	15.3	6.04e-01	0	26	0	112721920	70	4456
2026-01-07 02:09:26.36	24.03	8.15	-50.8	-52.8	15.3	6.02e-01	0	26	0	114819072	70	4505
2026-01-07 02:09:27.35	24.04	8.23	-50.8	-52.8	15.2	6.06e-01	0	26	0	116391936	70	4515
2026-01-07 02:09:28.36	24.05	8.32	-50.9	-52.9	15.2	6.04e-01	0	26	0	118489088	70	4558
2026-01-07 02:09:29.35	24.07	8.41	-50.7	-52.6	15.3	6.03e-01	0	26	0	120061952	70	4432
2026-01-07 02:09:30.35	24.08	8.49	-50.6	-52.5	15.4	6.04e-01	0	26	0	122159104	70	4368
2026-01-07 02:09:31.35	24.09	8.58	-50.6	-52.5	15.4	6.03e-01	0	26	0	123731968	70	4354
2026-01-07 02:09:32.35	24.10	8.67	-50.6	-52.5	15.4	6.05e-01	0	26	0	125829120	70	4368
2026-01-07 02:09:33.35	24.12	8.75	-50.5	-52.4	15.4	6.05e-01	0	26	0	127926272	70	4292
2026-01-07 02:09:34.35	24.13	8.84	-50.5	-52.3	15.4	6.05e-01	0	26	0	129499136	70	4275
2026-01-07 02:09:35.35	24.14	8.93	-50.5	-52.4	15.4	6.04e-01	0	26	0	131596288	70	4312
2026-01-07 02:09:36.35	24.16	9.02	-50.4	-52.3	15.4	6.04e-01	0	26	0	133169152	70	4251
2026-01-07 02:09:37.35	24.17	9.11	-50.5	-52.3	15.4	6.03e-01	0	26	0	135266304	70	4291
2026-01-07 02:09:38.36	24.18	9.20	-50.6	-52.4	15.4	6.04e-01	0	26	0	137363456	70	4330
2026-01-07 02:09:39.36	24.19	9.29	-50.6	-52.4	15.4	6.02e-01	0	26	0	138936320	70	4326
2026-01-07 02:09:40.36	24.21	9.38	-50.4	-52.3	15.4	6.06e-01	0	26	0	141033472	70	4251
2026-01-07 02:09:41.36	24.22	9.47	-50.4	-52.3	15.3	6.03e-01	0	26	0	142606336	69	4499
2026-01-07 02:09:42.35	24.23	9.56	-50.5	-52.3	15.3	6.03e-01	0	26	0	144703488	69	4524
2026-01-07 02:09:43.35	24.25	9.65	-50.3	-52.1	15.3	6.05e-01	0	27	0	146276352	69	4416
2026-01-07 02:09:44.35	24.26	9.74	-50.4	-52.2	15.3	6.05e-01	0	26	0	148373504	69	4475
2026-01-07 02:09:45.36	24.27	9.83	-50.3	-52.1	15.3	6.01e-01	0	26	0	150470656	69	4415
2026-01-07 02:09:46.35	24.29	9.92	-50.4	-52.3	15.3	6.02e-01	0	26	0	152043520	69	4510
2026-01-07 02:09:47.34	24.30	10.01	-50.4	-52.2	15.3	6.03e-01	0	26	0	154140672	69	4459
2026-01-07 02:09:48.34	24.32	10.11	-50.4	-52.2	15.3	6.02e-01	0	26	0	155713536	69	4482
2026-01-07 02:09:49.34	24.33	10.20	-50.4	-52.2	15.3	6.03e-01	0	26	0	157810688	69	4484
2026-01-07 02:09:50.35	24.34	10.29	-50.5	-52.3	15.3	6.02e-01	0	27	0	159383552	69	4539
2026-01-07 02:09:51.35	24.36	10.39	-50.3	-52.1	15.3	6.04e-01	0	27	0	161480704	69	4441
2026-01-07 02:09:52.35	24.37	10.48	-50.3	-52.2	15.3	6.05e-01	0	27	0	163053568	69	4447
2026-01-07 02:09:53.36	24.39	10.58	-50.3	-52.1	15.3	6.03e-01	0	27	0	165150720	69	4434
2026-01-07 02:09:54.35	24.40	10.67	-50.3	-52.1	15.3	6.03e-01	0	26	0	167247872	69	4424
2026-01-07 02:09:55.35	24.41	10.77	-50.3	-52.1	15.4	6.02e-01	0	26	0	168820736	69	4436
2026-01-07 02:09:56.35	24.43	10.87	-50.3	-52.1	15.4	6.04e-01	0	27	0	170917888	69	4403
2026-01-07 02:09:57.35	24.44	10.96	-50.2	-52.0	15.4	6.04e-01	0	27	0	172490752	69	4383
2026-01-07 02:09:58.35	24.46	11.06	-50.3	-52.1	15.4	6.05e-01	0	26	0	174587904	69	4406
2026-01-07 02:09:59.35	24.47	11.16	-50.3	-52.1	15.4	6.05e-01	0	26	0	176160768	69	4401
2026-01-07 02:10:00.35	24.49	11.25	-50.3	-52.1	15.4	6.02e-01	0	26	0	178257920	69	4418
2026-01-07 02:10:01.34	24.50	11.35	-50.3	-52.1	15.4	6.06e-01	0	26	0	180355072	69	4416
2026-01-07 02:10:02.34	24.51	11.45	-50.3	-52.1	15.3	6.05e-01	0	27	0	181927936	69	4416
2026-01-07 02:10:03.35	24.53	11.55	-50.3	-52.1	15.4	6.05e-01	0	27	0	184025088	69	4432
2026-01-07 02:10:04.35	24.54	11.65	-50.2	-52.0	15.4	6.05e-01	0	27	0	185597952	69	4378
2026-01-07 02:10:05.36	24.56	11.75	-50.1	-51.9	15.4	6.04e-01	0	27	0	187695104	69	4318
2026-01-07 02:10:06.36	24.57	11.85	-50.1	-51.9	15.4	6.03e-01	0	27	0	189792256	69	4317
2026-01-07 02:10:07.36	24.59	11.95	-50.0	-51.7	15.5	6.04e-01	0	27	0	191365120	69	4238
2026-01-07 02:10:08.36	24.60	12.05	-50.0	-51.8	15.4	6.03e-01	0	27	0	193462272	69	4261
2026-01-07 02:10:09.37	24.62	12.16	-50.1	-51.9	15.4	6.04e-01	0	27	0	195035136	69	4307
2026-01-07 02:10:10.37	24.63	12.26	-50.1	-51.9	15.4	6.02e-01	0	27	0	197132288	69	4293
2026-01-07 02:10:11.38	24.65	12.36	-50.0	-51.8	15.4	6.05e-01	0	27	0	199229440	69	4249
2026-01-07 02:10:12.37	24.67	12.46	-50.1	-51.9	15.4	6.03e-01	0	26	0	200802304	69	4302
2026-01-07 02:10:13.38	24.68	12.57	-50.1	-51.8	15.4	6.05e-01	0	27	0	202899456	69	4284
2026-01-07 02:10:14.38	24.70	12.67	-50.0	-51.7	15.5	6.04e-01	0	27	0	204472320	69	4208
2026-01-07 02:10:15.39	24.71	12.78	-50.0	-51.7	15.5	6.05e-01	0	27	0	206569472	69	4216
2026-01-07 02:10:16.39	24.73	12.88	-49.9	-51.6	15.5	6.02e-01	0	26	0	208142336	69	4191
2026-01-07 02:10:17.38	24.74	12.99	-50.0	-51.7	15.5	6.02e-01	0	27	0	210239488	69	4211
2026-01-07 02:10:18.39	24.76	13.10	-49.8	-51.5	15.4	6.01e-01	0	27	0	212336640	68	4380
2026-01-07 02:10:19.39	24.78	13.20	-49.9	-51.6	15.3	6.05e-01	0	27	0	213909504	68	4416
2026-01-07 02:10:20.38	24.79	13.31	-49.7	-51.4	15.4	6.04e-01	0	27	0	216006656	68	4313
2026-01-07 02:10:21.38	24.81	13.42	-49.8	-51.5	15.4	6.03e-01	0	27	0	217579520	68	4351
2026-01-07 02:10:22.37	24.82	13.53	-49.7	-51.4	15.4	6.03e-01	0	27	0	219676672	68	4339
2026-01-07 02:10:23.37	24.84	13.63	-49.7	-51.4	15.4	6.04e-01	0	27	0	221249536	68	4312
2026-01-07 02:10:24.37	24.86	13.74	-49.8	-51.5	15.4	6.03e-01	0	27	0	223346688	68	4363
2026-01-07 02:10:25.38	24.87	13.86	-49.8	-51.5	15.4	6.03e-01	0	27	0	225443840	68	4356
2026-01-07 02:10:26.38	24.89	13.97	-49.7	-51.4	15.4	6.03e-01	0	27	0	227016704	68	4296
2026-01-07 02:10:27.38	24.91	14.08	-49.8	-51.5	15.4	6.03e-01	0	27	0	229113856	68	4354
2026-01-07 02:10:28.37	24.92	14.19	-49.6	-51.3	15.4	6.04e-01	0	27	0	230686720	68	4279
2026-01-07 02:10:29.37	24.94	14.30	-49.7	-51.4	15.4	6.04e-01	0	27	0	232783872	68	4311
2026-01-07 02:10:30.38	24.96	14.41	-49.8	-51.5	15.2	6.04e-01	0	27	0	234881024	68	4351
2026-01-07 02:10:31.37	24.98	14.53	-49.7	-51.4	15.4	6.05e-01	0	26	0	236453888	68	4331
2026-01-07 02:10:32.38	24.99	14.64	-49.8	-51.5	15.4	6.04e-01	0	27	0	238551040	68	4384
2026-01-07 02:10:33.37	25.01	14.75	-49.7	-51.4	15.4	6.04e-01	0	27	0	240123904	68	4306
2026-01-07 02:10:34.37	25.03	14.87	-49.8	-51.5	15.4	6.04e-01	0	27	0	242221056	68	4386
2026-01-07 02:10:35.37	25.05	14.99	-49.8	-51.4	15.4	6.03e-01	0	27	0	243793920	68	4336
2026-01-07 02:10:36.37	25.06	15.10	-49.7	-51.4	15.4	6.03e-01	0	27	0	245891072	68	4322
2026-01-07 02:10:37.37	25.08	15.22	-49.7	-51.4	15.4	6.02e-01	0	27	0	247988224	68	4293
2026-01-07 02:10:38.36	25.10	15.34	-49.8	-51.5	15.4	6.02e-01	0	27	0	249561088	68	4362
2026-01-07 02:10:39.36	25.12	15.45	-49.8	-51.5	15.4	6.05e-01	0	27	0	251658240	68	4376
2026-01-07 02:10:40.36	25.14	15.57	-49.9	-51.6	15.4	6.04e-01	0	27	0	253231104	68	4416
2026-01-07 02:10:41.36	25.15	15.69	-49.7	-51.4	15.4	6.04e-01	0	27	0	255328256	68	4310
2026-01-07 02:10:42.36	25.17	15.81	-49.5	-51.1	15.5	6.04e-01	0	27	0	256901120	68	4168
2026-01-07 02:10:43.36	25.19	15.93	-49.6	-51.2	15.5	6.04e-01	0	27	0	258998272	68	4222
2026-01-07 02:10:44.36	25.21	16.06	-49.5	-51.2	15.5	6.04e-01	0	27	0	261095424	68	4209
2026-01-07 02:10:45.36	25.23	16.18	-49.4	-51.1	15.5	6.01e-01	0	27	0	262668288	68	4157
2026-01-07 02:10:46.36	25.25	16.30	-49.5	-51.2	15.5	6.03e-01	0	27	0	264765440	68	4201
2026-01-07 02:10:47.36	25.27	16.42	-49.3	-50.9	15.6	6.01e-01	0	27	0	266338304	67	4330
2026-01-07 02:10:48.35	25.29	16.55	-49.4	-51.1	15.4	6.03e-01	0	27	0	268435456	67	4393
2026-01-07 02:10:49.35	25.31	16.67	-49.3	-51.0	15.4	6.02e-01	0	27	0	270008320	67	4354
2026-01-07 02:10:50.35	25.33	16.80	-49.4	-51.0	15.4	6.05e-01	0	27	0	272105472	67	4379
2026-01-07 02:10:51.35	25.34	16.92	-49.4	-51.0	15.4	6.05e-01	0	27	0	273678336	67	4375
2026-01-07 02:10:52.35	25.36	17.05	-49.4	-51.0	15.4	6.03e-01	0	27	0	275775488	67	4370
2026-01-07 02:10:53.35	25.38	17.18	-49.5	-51.1	15.4	6.05e-01	0	27	0	277872640	67	4436
2026-01-07 02:10:54.35	25.40	17.31	-49.4	-51.0	15.4	6.03e-01	0	27	0	279445504	67	4385
2026-01-07 02:10:55.36	25.43	17.44	-49.5	-51.2	15.3	6.06e-01	0	27	0	281542656	67	4455
2026-01-07 02:10:56.36	25.45	17.57	-49.5	-51.1	15.4	6.04e-01	0	26	0	283639808	67	4441
2026-01-07 02:10:57.36	25.47	17.70	-49.6	-51.2	15.3	6.01e-01	0	27	0	285212672	67	4487
2026-01-07 02:10:58.36	25.49	17.83	-49.6	-51.2	15.3	6.05e-01	0	27	0	287309824	67	4479
2026-01-07 02:10:59.37	25.51	17.97	-49.6	-51.2	15.3	6.05e-01	0	27	0	288882688	67	4482
2026-01-07 02:11:00.37	25.53	18.10	-49.6	-51.3	15.3	6.05e-01	0	27	0	290979840	67	4507
2026-01-07 02:11:01.38	25.55	18.23	-49.6	-51.3	15.3	6.03e-01	0	27	0	292552704	67	4504
2026-01-07 02:11:02.38	25.57	18.37	-49.7	-51.4	15.3	6.02e-01	0	27	0	294649856	67	4550
2026-01-07 02:11:03.37	25.59	18.50	-49.6	-51.2	15.3	6.05e-01	0	26	0	296747008	67	4485
2026-01-07 02:11:04.37	25.61	18.64	-49.6	-51.2	15.3	6.05e-01	0	27	0	298319872	67	4485
2026-01-07 02:11:05.37	25.64	18.78	-49.5	-51.1	15.4	6.04e-01	0	27	0	300417024	67	4439
2026-01-07 02:11:06.38	25.66	18.92	-49.5	-51.2	15.3	6.03e-01	0	27	0	301989888	67	4464
2026-01-07 02:11:07.38	25.68	19.06	-49.7	-51.3	15.3	6.04e-01	0	27	0	304087040	67	4535
2026-01-07 02:11:08.37	25.70	19.19	-49.5	-51.1	15.4	6.04e-01	0	27	0	305659904	67	4439
2026-01-07 02:11:09.37	25.72	19.34	-49.6	-51.3	15.3	6.03e-01	0	27	0	307757056	67	4502
2026-01-07 02:11:10.37	25.75	19.48	-49.6	-51.3	15.3	6.06e-01	0	27	0	309854208	67	4497
2026-01-07 02:11:11.37	25.77	19.62	-49.6	-51.2	15.3	6.04e-01	0	27	0	311427072	67	4476
2026-01-07 02:11:12.37	25.79	19.76	-49.6	-51.2	15.3	6.06e-01	0	27	0	313524224	67	4469
2026-01-07 02:11:13.37	25.82	19.91	-49.6	-51.2	15.3	6.03e-01	0	27	0	315097088	67	4470
2026-01-07 02:11:14.36	25.84	20.05	-49.5	-51.2	15.3	6.03e-01	0	27	0	317194240	67	4464
2026-01-07 02:11:15.36	25.86	20.20	-49.6	-51.3	15.3	6.02e-01	0	27	0	318767104	67	4494
2026-01-07 02:11:16.36	25.89	20.34	-49.5	-51.2	15.3	6.03e-01	0	27	0	320864256	67	4459
2026-01-07 02:11:17.36	25.91	20.49	-49.6	-51.3	15.3	6.04e-01	0	27	0	322961408	67	4504
2026-01-07 02:11:18.35	25.93	20.64	-49.7	-51.4	15.3	6.04e-01	0	27	0	324534272	67	4574
2026-01-07 02:11:19.35	25.96	20.79	-49.8	-51.4	15.3	6.04e-01	0	27	0	326631424	67	4594
2026-01-07 02:11:20.35	25.98	20.94	-49.6	-51.3	15.3	6.03e-01	0	27	0	328204288	67	4495
2026-01-07 02:11:21.36	26.01	21.10	-49.7	-51.4	15.3	6.05e-01	0	27	0	330301440	67	4561
2026-01-07 02:11:22.36	26.03	21.25	-49.8	-51.5	15.2	6.07e-01	0	27	0	332398592	67	4639
2026-01-07 02:11:23.35	26.06	21.40	-49.9	-51.6	15.2	6.02e-01	0	27	0	333971456	67	4653
2026-01-07 02:11:24.35	26.08	21.56	-49.9	-51.7	15.2	6.05e-01	0	27	0	335544320	67	4706
2026-01-07 02:11:25.36	26.11	21.71	-50.1	-51.8	15.2	6.04e-01	0	27	0	337641472	67	4800
2026-01-07 02:11:26.36	26.14	21.87	-50.1	-51.8	15.3	6.01e-01	0	27	0	339738624	68	4519
2026-01-07 02:11:27.36	26.16	22.03	-50.0	-51.7	15.3	6.05e-01	0	27	0	341311488	68	4452
2026-01-07 02:11:28.36	26.19	22.19	-50.1	-51.8	15.3	6.04e-01	0	27	0	343408640	68	4504
2026-01-07 02:11:29.36	26.21	22.35	-50.0	-51.7	15.3	6.02e-01	0	27	0	345505792	68	4454
2026-01-07 02:11:30.35	26.24	22.51	-49.9	-51.5	15.4	6.03e-01	0	27	0	347078656	68	4388
2026-01-07 02:11:31.35	26.27	22.67	-49.9	-51.6	15.4	6.05e-01	0	27	0	349175808	68	4399
2026-01-07 02:11:32.35	26.30	22.83	-50.0	-51.7	15.3	6.02e-01	0	27	0	350748672	68	4446
2026-01-07 02:11:33.35	26.32	23.00	-49.9	-51.5	15.4	6.03e-01	0	27	0	352845824	68	4382
2026-01-07 02:11:34.34	26.35	23.16	-49.9	-51.5	15.4	6.02e-01	0	27	0	354418688	68	4387
2026-01-07 02:11:35.34	26.38	23.33	-49.9	-51.5	15.4	6.04e-01	0	27	0	356515840	68	4379
2026-01-07 02:11:36.35	26.41	23.50	-49.9	-51.6	15.3	6.03e-01	0	27	0	358088704	68	4416
2026-01-07 02:11:37.34	26.44	23.67	-50.0	-51.7	15.3	6.06e-01	0	27	0	360185856	68	4443
2026-01-07 02:11:38.35	26.46	23.84	-50.0	-51.7	15.3	6.05e-01	0	27	0	362283008	68	4465
2026-01-07 02:11:39.35	26.49	24.01	-50.1	-51.8	15.3	6.03e-01	0	27	0	363855872	68	4500
2026-01-07 02:11:40.36	26.52	24.19	-50.0	-51.7	15.3	6.02e-01	0	27	0	365953024	68	4472
2026-01-07 02:11:41.36	26.55	24.36	-50.0	-51.6	15.4	6.03e-01	0	27	0	367525888	68	4438
2026-01-07 02:11:42.36	26.58	24.54	-50.0	-51.6	15.3	6.05e-01	0	27	0	369623040	68	4428
2026-01-07 02:11:43.35	26.61	24.71	-50.0	-51.7	15.3	6.04e-01	0	27	0	371195904	68	4471
2026-01-07 02:11:44.35	26.64	24.89	-50.1	-51.8	15.3	6.04e-01	0	27	0	373293056	68	4539
2026-01-07 02:11:45.34	26.68	25.07	-50.1	-51.8	15.3	6.02e-01	0	27	0	375390208	68	4524
2026-01-07 02:11:46.34	26.71	25.25	-50.2	-51.9	15.3	6.03e-01	0	27	0	376963072	68	4566
2026-01-07 02:11:47.34	26.74	25.43	-50.3	-52.0	15.2	6.04e-01	0	27	0	379060224	68	4615
2026-01-07 02:11:48.34	26.77	25.62	-50.2	-52.0	15.3	6.03e-01	0	27	0	380633088	68	4605
2026-01-07 02:11:49.33	26.80	25.80	-50.2	-51.9	15.3	6.04e-01	0	27	0	382730240	68	4575
2026-01-07 02:11:50.34	26.84	25.99	-50.1	-51.9	15.3	6.03e-01	0	27	0	384303104	68	4547
2026-01-07 02:11:51.33	26.87	26.17	-50.1	-51.8	15.3	6.05e-01	0	27	0	386400256	68	4510
2026-01-07 02:11:52.34	26.90	26.37	-50.0	-51.7	15.3	6.05e-01	0	27	0	388497408	68	4446
2026-01-07 02:11:53.34	26.94	26.56	-50.0	-51.7	15.3	6.05e-01	0	27	0	390070272	68	4481
2026-01-07 02:11:54.34	26.97	26.75	-50.0	-51.6	15.3	6.02e-01	0	27	0	392167424	68	4436
2026-01-07 02:11:55.34	27.00	26.94	-50.0	-51.7	15.3	6.03e-01	0	27	0	393740288	68	4444
2026-01-07 02:11:56.34	27.04	27.14	-49.8	-51.4	15.4	6.03e-01	0	27	0	395837440	68	4328
2026-01-07 02:11:57.34	27.07	27.33	-49.7	-51.4	15.4	6.03e-01	0	27	0	397410304	68	4301
2026-01-07 02:11:58.34	27.11	27.53	-49.7	-51.4	15.4	6.04e-01	0	27	0	399507456	68	4297
2026-01-07 02:11:59.33	27.15	27.73	-49.5	-51.1	15.5	6.04e-01	0	27	0	401604608	68	4183
2026-01-07 02:12:00.33	27.18	27.93	-49.5	-51.2	15.5	6.04e-01	0	27	0	403177472	68	4198
2026-01-07 02:12:01.32	27.22	28.13	-49.6	-51.2	15.5	6.03e-01	0	27	0	405274624	68	4238
2026-01-07 02:12:02.33	27.26	28.34	-49.6	-51.2	15.5	6.03e-01	0	27	0	406847488	68	4226
2026-01-07 02:12:03.33	27.29	28.54	-49.6	-51.2	15.5	6.06e-01	0	27	0	408944640	68	4222
2026-01-07 02:12:04.33	27.33	28.75	-49.5	-51.1	15.5	6.03e-01	0	27	0	411041792	68	4184
2026-01-07 02:12:05.34	27.37	28.96	-49.6	-51.1	15.5	6.06e-01	0	27	0	412614656	68	4191
2026-01-07 02:12:06.34	27.41	29.17	-49.6	-51.2	15.5	6.03e-01	0	27	0	414711808	68	4219
2026-01-07 02:12:07.34	27.45	29.39	-49.6	-51.2	15.5	6.04e-01	0	27	0	416284672	68	4205
2026-01-07 02:12:08.34	27.49	29.60	-49.6	-51.2	15.5	6.03e-01	0	27	0	418381824	68	4236
2026-01-07 02:12:09.34	27.53	29.82	-49.7	-51.3	15.5	6.05e-01	0	27	0	419954688	68	4260
2026-01-07 02:12:10.34	27.57	30.04	-49.7	-51.3	15.4	6.04e-01	0	27	0	422051840	68	4256
2026-01-07 02:12:11.33	27.61	30.25	-49.4	-51.0	15.5	6.05e-01	0	27	0	424148992	68	4116
2026-01-07 02:12:12.33	27.66	30.48	-49.4	-50.9	15.4	6.05e-01	0	27	0	425721856	67	4339
2026-01-07 02:12:13.34	27.70	30.70	-49.5	-51.1	15.4	6.04e-01	0	27	0	427819008	67	4393
2026-01-07 02:12:14.34	27.74	30.93	-49.4	-51.0	15.4	6.04e-01	0	27	0	429391872	67	4367
2026-01-07 02:12:15.34	27.79	31.15	-49.5	-51.1	15.4	6.05e-01	0	27	0	431489024	67	4410
2026-01-07 02:12:16.35	27.83	31.38	-49.5	-51.1	15.3	6.04e-01	0	27	0	433061888	67	4424
2026-01-07 02:12:17.34	27.88	31.61	-49.5	-51.2	15.4	6.03e-01	0	27	0	435159040	67	4444
2026-01-07 02:12:18.34	27.92	31.85	-49.4	-51.0	15.4	6.06e-01	0	27	0	437256192	67	4344
2026-01-07 02:12:19.34	27.97	32.08	-49.4	-51.0	15.4	6.05e-01	0	27	0	438829056	67	4359
2026-01-07 02:12:20.33	28.01	32.32	-49.5	-51.1	15.4	6.04e-01	0	27	0	440926208	67	4415
2026-01-07 02:12:21.33	28.06	32.55	-49.7	-51.3	15.3	6.02e-01	0	27	0	442499072	67	4524
2026-01-07 02:12:22.32	28.11	32.79	-49.8	-51.4	15.3	6.03e-01	0	27	0	444596224	67	4598
2026-01-07 02:12:23.32	28.16	33.04	-49.9	-51.6	15.2	6.05e-01	0	27	0	446169088	67	4661
2026-01-07 02:12:24.32	28.21	33.28	-49.8	-51.5	15.3	6.05e-01	0	27	0	448266240	67	4623
2026-01-07 02:12:25.32	28.26	33.53	-49.9	-51.6	15.2	6.02e-01	0	27	0	450363392	67	4662
2026-01-07 02:12:26.31	28.31	33.77	-50.0	-51.7	15.2	6.03e-01	0	27	0	451936256	67	4712
2026-01-07 02:12:27.32	28.36	34.03	-50.2	-51.9	15.3	6.04e-01	0	27	0	454033408	68	4548
2026-01-07 02:12:28.31	28.41	34.28	-50.2	-51.9	15.3	6.04e-01	0	27	0	455606272	68	4582
2026-01-07 02:12:29.31	28.47	34.54	-50.3	-52.0	15.3	6.06e-01	0	27	0	457703424	68	4628
2026-01-07 02:12:30.31	28.52	34.79	-50.3	-52.0	15.2	6.03e-01	0	27	0	459800576	68	4632
2026-01-07 02:12:31.32	28.58	35.06	-50.4	-52.1	15.2	6.03e-01	0	27	0	461373440	68	4661
2026-01-07 02:12:32.32	28.63	35.32	-50.4	-52.1	15.2	6.04e-01	0	27	0	463470592	68	4704
2026-01-07 02:12:33.32	28.69	35.58	-50.6	-52.4	15.1	6.03e-01	0	27	0	465043456	69	4568
2026-01-07 02:12:34.32	28.75	35.85	-50.8	-52.5	15.2	6.02e-01	0	27	0	467140608	69	4650
2026-01-07 02:12:35.32	28.80	36.12	-50.8	-52.5	15.2	6.03e-01	0	27	0	468713472	69	4650
2026-01-07 02:12:36.32	28.86	36.39	-50.7	-52.4	15.3	6.03e-01	0	27	0	470810624	69	4588
2026-01-07 02:12:37.32	28.92	36.67	-50.9	-52.7	15.2	6.05e-01	0	27	0	472907776	69	4746
2026-01-07 02:12:38.32	28.99	36.94	-51.2	-53.1	15.2	6.05e-01	0	27	0	474480640	70	4661
2026-01-07 02:12:39.32	29.05	37.22	-51.4	-53.2	15.1	5.99e-01	0	27	0	476577792	70	4750
2026-01-07 02:12:40.32	29.11	37.51	-51.4	-53.2	15.2	6.03e-01	0	27	0	478150656	70	4753
2026-01-07 02:12:41.31	29.18	37.79	-51.4	-53.3	15.1	6.03e-01	0	27	0	480247808	70	4795
2026-01-07 02:12:42.31	29.24	38.07	-51.4	-53.3	15.1	6.03e-01	0	27	0	481820672	70	4796
2026-01-07 02:12:43.31	29.31	38.36	-51.7	-53.6	15.2	6.06e-01	0	27	0	483917824	71	4679
2026-01-07 02:12:44.31	29.38	38.65	-51.7	-53.6	15.2	6.04e-01	0	27	0	486014976	71	4684
2026-01-07 02:12:45.31	29.44	38.95	-51.8	-53.7	15.1	6.04e-01	0	27	0	487587840	71	4744
2026-01-07 02:12:46.31	29.51	39.25	-51.4	-53.3	15.3	6.02e-01	0	27	0	489684992	71	4499
2026-01-07 02:12:47.31	29.59	39.55	-51.4	-53.3	15.3	6.04e-01	0	27	0	491257856	71	4503
2026-01-07 02:12:48.31	29.66	39.85	-51.5	-53.3	15.3	6.03e-01	0	27	0	493355008	71	4535
2026-01-07 02:12:49.31	29.73	40.15	-51.5	-53.4	15.2	6.03e-01	0	27	0	494927872	71	4598
2026-01-07 02:12:50.31	29.81	40.46	-51.5	-53.4	15.2	6.03e-01	0	27	0	497025024	71	4596
2026-01-07 02:12:51.31	29.88	40.77	-51.4	-53.3	15.3	6.04e-01	0	27	0	499122176	71	4510
2026-01-07 02:12:52.31	29.96	41.09	-51.3	-53.2	15.3	6.04e-01	0	27	0	500695040	71	4456
2026-01-07 02:12:53.31	30.04	41.40	-50.9	-52.7	15.4	6.05e-01	0	27	0	502792192	71	4218
2026-01-07 02:12:54.31	30.12	41.72	-50.8	-52.5	15.4	6.04e-01	0	27	0	504365056	70	4372
2026-01-07 02:12:55.32	30.21	42.05	-50.6	-52.4	15.4	6.02e-01	0	27	0	506462208	70	4293
2026-01-07 02:12:56.31	30.29	42.37	-50.5	-52.2	15.4	6.04e-01	0	27	0	508035072	70	4233
2026-01-07 02:12:57.31	30.38	42.70	-50.4	-52.1	15.5	6.03e-01	0	27	0	510132224	70	4163
2026-01-07 02:12:58.32	30.47	43.04	-50.2	-51.9	15.4	6.05e-01	0	27	0	512229376	69	4316
2026-01-07 02:12:59.32	30.56	43.37	-50.3	-51.9	15.4	6.04e-01	0	27	0	513802240	69	4328
2026-01-07 02:13:00.32	30.65	43.71	-50.1	-51.8	15.4	6.04e-01	0	27	0	515899392	69	4243
2026-01-07 02:13:01.32	30.74	44.05	-49.8	-51.4	15.4	6.03e-01	0	27	0	517472256	68	4302
2026-01-07 02:13:02.32	30.84	44.39	-49.7	-51.2	15.4	6.03e-01	0	27	0	519569408	68	4237
2026-01-07 02:13:03.33	30.93	44.74	-49.7	-51.3	15.4	6.04e-01	0	27	0	521666560	68	4291
2026-01-07 02:13:04.32	31.03	45.09	-49.8	-51.4	15.4	6.04e-01	0	27	0	523239424	68	4315
2026-01-07 02:13:05.32	31.13	45.44	-49.7	-51.2	15.4	6.02e-01	0	27	0	525336576	68	4235
2026-01-07 02:13:06.32	31.24	45.80	-49.7	-51.3	15.4	6.07e-01	0	27	0	526909440	68	4258
2026-01-07 02:13:07.32	31.34	46.16	-49.8	-51.4	15.4	6.02e-01	0	27	0	529006592	68	4316
2026-01-07 02:13:08.32	31.45	46.52	-49.8	-51.4	15.4	6.03e-01	0	27	0	530579456	68	4315
2026-01-07 02:13:09.32	31.56	46.89	-49.8	-51.4	15.4	6.05e-01	0	27	0	532676608	68	4322
2026-01-07 02:13:10.32	31.68	47.25	-49.8	-51.4	15.4	6.04e-01	0	27	0	534773760	68	4329
2026-01-07 02:13:11.32	31.79	47.63	-49.8	-51.4	15.4	6.05e-01	0	27	0	536346624	68	4297
2026-01-07 02:13:12.32	31.91	48.00	-49.7	-51.3	15.4	6.04e-01	0	27	0	538443776	68	4274
2026-01-07 02:13:13.33	32.04	48.39	-49.9	-51.6	15.4	6.04e-01	0	27	0	540016640	68	4398
2026-01-07 02:13:14.33	32.16	48.77	-49.6	-51.2	15.5	6.06e-01	0	27	0	542113792	68	4214
2026-01-07 02:13:15.33	32.29	49.15	-49.7	-51.3	15.4	6.03e-01	0	27	0	543686656	68	4264
2026-01-07 02:13:16.33	32.42	49.54	-49.8	-51.4	15.4	6.05e-01	0	27	0	545783808	68	4305
2026-01-07 02:13:17.33	32.55	49.94	-49.6	-51.2	15.5	6.03e-01	0	27	0	547880960	68	4211
2026-01-07 02:13:18.33	32.69	50.33	-49.6	-51.2	15.5	6.04e-01	0	27	0	549453824	68	4194
2026-01-07 02:13:19.32	32.83	50.73	-49.4	-51.0	15.5	6.04e-01	0	27	0	551550976	68	4121
2026-01-07 02:13:20.32	32.98	51.13	-49.6	-51.1	15.5	6.01e-01	0	27	0	553123840	68	4192
2026-01-07 02:13:21.32	33.13	51.54	-49.5	-51.1	15.5	6.04e-01	0	27	0	555220992	68	4158
2026-01-07 02:13:22.32	33.28	51.95	-49.4	-50.9	15.5	6.04e-01	0	27	0	556793856	68	4091
2026-01-07 02:13:23.32	33.44	52.36	-49.1	-50.7	15.5	6.04e-01	0	27	0	558891008	67	4198
2026-01-07 02:13:24.31	33.60	52.77	-48.9	-50.4	15.6	6.03e-01	0	27	0	560988160	67	4082
2026-01-07 02:13:25.31	33.77	53.20	-49.0	-50.5	15.5	6.04e-01	0	27	0	562561024	67	4134
2026-01-07 02:13:26.31	33.94	53.62	-49.1	-50.6	15.5	6.03e-01	0	27	0	564658176	67	4169
2026-01-07 02:13:27.30	34.11	54.04	-49.0	-50.6	15.5	6.04e-01	0	27	0	566231040	67	4153
2026-01-07 02:13:28.31	34.29	54.48	-49.0	-50.5	15.5	6.03e-01	0	27	0	568328192	67	4132
2026-01-07 02:13:29.30	34.48	54.91	-49.3	-50.8	15.4	6.05e-01	0	27	0	569901056	67	4268
2026-01-07 02:13:30.30	34.67	55.34	-49.6	-51.2	15.3	6.02e-01	0	27	0	571998208	67	4452
2026-01-07 02:13:31.29	34.87	55.78	-49.4	-51.0	15.4	6.04e-01	0	27	0	573571072	67	4372
2026-01-07 02:13:32.29	35.07	56.23	-49.8	-51.4	15.3	6.03e-01	0	27	0	575668224	67	4573
2026-01-07 02:13:33.30	35.29	56.68	-50.0	-51.6	15.2	6.04e-01	0	27	0	577765376	67	4682
2026-01-07 02:13:34.30	35.51	57.13	-50.3	-52.0	15.3	6.04e-01	0	27	0	579338240	68	4637
2026-01-07 02:13:35.30	35.73	57.58	-50.5	-52.2	15.2	6.04e-01	0	27	0	581435392	68	4718
2026-01-07 02:13:36.30	35.97	58.04	-50.7	-52.5	15.3	6.05e-01	0	27	0	583008256	69	4616
2026-01-07 02:13:37.30	36.21	58.50	-50.7	-52.5	15.2	6.04e-01	0	27	0	585105408	69	4601
2026-01-07 02:13:38.30	36.46	58.97	-50.9	-52.7	15.2	6.04e-01	0	27	0	587202560	69	4707
2026-01-07 02:13:39.30	36.72	59.44	-51.0	-52.8	15.2	6.04e-01	0	27	0	588775424	69	4779
2026-01-07 02:13:40.30	36.99	59.91	-51.2	-53.0	15.2	6.05e-01	0	27	0	590872576	70	4629
2026-01-07 02:13:41.30	37.27	60.38	-51.4	-53.3	15.1	6.04e-01	0	27	0	592445440	70	4766
2026-01-07 02:13:42.30	37.55	60.86	-51.4	-53.2	15.2	6.04e-01	0	27	0	594542592	70	4754
2026-01-07 02:13:43.30	37.85	61.34	-51.6	-53.5	15.1	6.04e-01	0	27	0	596115456	70	4891
2026-01-07 02:13:44.30	38.17	61.82	-51.9	-53.8	15.1	6.03e-01	0	27	0	598212608	71	4781
2026-01-07 02:13:45.30	38.49	62.31	-52.1	-54.1	15.1	6.04e-01	0	27	0	600309760	72	4687
2026-01-07 02:13:46.29	38.82	62.79	-52.3	-54.3	15.1	6.02e-01	0	27	0	601882624	72	4785
2026-01-07 02:13:47.29	39.18	63.29	-52.8	-54.9	15.1	6.06e-01	0	27	0	603979776	73	4834
2026-01-07 02:13:48.29	39.54	63.78	-52.8	-55.0	15.0	6.05e-01	0	27	0	605552640	73	4892
2026-01-07 02:13:49.29	39.92	64.28	-53.2	-55.4	14.9	6.03e-01	0	27	0	607649792	74	4852
2026-01-07 02:13:50.28	40.32	64.77	-53.4	-55.7	14.9	6.05e-01	0	27	0	609222656	74	5037
2026-01-07 02:13:51.29	40.74	65.28	-53.8	-56.2	14.8	6.04e-01	0	27	0	611319808	75	5033
2026-01-07 02:13:52.28	41.17	65.78	-54.3	-56.9	14.7	6.02e-01	0	27	0	613416960	76	5123
2026-01-07 02:13:53.28	41.63	66.28	-54.2	-56.7	14.8	6.03e-01	0	27	0	614989824	76	5016
2026-01-07 02:13:54.27	42.10	66.79	-54.4	-57.1	14.6	6.04e-01	0	27	0	617086976	76	5221
2026-01-07 02:13:55.27	42.60	67.29	-54.7	-57.5	14.6	6.02e-01	0	27	0	618659840	77	5170
2026-01-07 02:13:56.27	43.13	67.81	-54.7	-57.6	14.6	6.04e-01	0	27	0	620756992	77	5221
2026-01-07 02:13:57.27	43.68	68.32	-54.3	-56.9	14.8	6.04e-01	0	27	0	622329856	77	4869
2026-01-07 02:13:58.27	44.26	68.83	-54.9	-57.9	14.4	6.04e-01	0	27	0	624427008	77	5405
2026-01-07 02:13:59.27	44.87	69.35	-54.8	-57.6	14.6	6.04e-01	0	27	0	626524160	77	5229
2026-01-07 02:14:00.28	45.53	69.87	-54.8	-57.7	14.6	6.01e-01	0	27	0	628097024	77	5285
2026-01-07 02:14:01.28	46.21	70.38	-55.2	-58.2	14.4	6.06e-01	0	27	0	630194176	78	5329
2026-01-07 02:14:02.28	46.93	70.90	-55.0	-58.0	14.5	6.04e-01	0	27	0	631767040	78	5165
2026-01-07 02:14:03.28	47.70	71.41	-54.7	-57.5	14.7	6.05e-01	0	27	0	633864192	78	4873
2026-01-07 02:14:04.28	48.51	71.93	-54.6	-57.3	14.7	6.03e-01	0	27	0	635961344	78	4805
2026-01-07 02:14:05.28	49.37	72.44	-53.7	-56.1	15.0	6.05e-01	0	27	0	637534208	76	4672
2026-01-07 02:14:06.29	50.30	72.96	-53.2	-55.5	15.1	6.02e-01	0	27	0	639631360	75	4615
2026-01-07 02:14:07.29	51.28	73.47	-53.1	-55.2	15.2	6.05e-01	0	27	0	641204224	75	4477
2026-01-07 02:14:08.29	52.32	73.98	-53.4	-55.7	15.0	6.04e-01	0	27	0	643301376	75	4710
2026-01-07 02:14:09.29	53.43	74.48	-52.8	-54.9	15.1	6.03e-01	0	27	0	644874240	74	4592
2026-01-07 02:14:10.28	54.61	74.98	-52.6	-54.7	15.2	6.02e-01	0	27	0	646971392	74	4462
2026-01-07 02:14:11.28	55.88	75.47	-52.7	-54.8	15.2	6.04e-01	0	27	0	649068544	74	4497
2026-01-07 02:14:12.29	57.26	75.97	-52.7	-54.9	15.2	6.04e-01	0	27	0	650641408	74	4547
2026-01-07 02:14:13.29	58.73	76.45	-52.6	-54.6	15.2	6.04e-01	0	27	0	652738560	74	4428
2026-01-07 02:14:14.29	60.31	76.93	-52.6	-54.7	15.2	6.05e-01	0	27	0	654311424	74	4474
2026-01-07 02:14:15.29	62.01	77.40	-52.5	-54.5	15.3	6.04e-01	0	27	0	656408576	74	4378
2026-01-07 02:14:16.29	63.85	77.85	-52.3	-54.4	15.2	6.03e-01	0	27	0	657981440	73	4546
2026-01-07 02:14:17.29	65.83	78.30	-52.3	-54.2	15.2	6.06e-01	0	27	0	660078592	73	4485
2026-01-07 02:14:18.29	67.97	78.73	-51.9	-53.8	15.4	6.06e-01	0	27	0	662175744	73	4271
2026-01-07 02:14:19.29	70.28	79.15	-52.1	-54.1	15.2	6.03e-01	0	27	0	663748608	72	4663
2026-01-07 02:14:20.29	72.77	79.55	-51.5	-53.4	15.4	6.03e-01	0	27	0	665845760	72	4296
2026-01-07 02:14:21.28	75.43	79.92	-51.2	-53.0	15.3	6.08e-01	0	27	0	667418624	71	4353
2026-01-07 02:14:22.27	78.30	80.28	-51.2	-53.0	15.3	6.04e-01	0	27	0	669515776	71	4345
2026-01-07 02:14:23.27	81.41	80.61	-50.8	-52.5	15.3	6.06e-01	0	27	0	671088640	70	4360
2026-01-07 02:14:24.26	84.70	80.91	-50.5	-52.2	15.5	6.04e-01	0	27	0	673185792	70	4212
2026-01-07 02:14:25.26	88.25	81.18	-50.7	-52.4	15.4	6.02e-01	0	27	0	675282944	70	4311
2026-01-07 02:14:26.26	92.01	81.41	-50.7	-52.4	15.4	6.06e-01	0	27	0	676855808	70	4330
2026-01-07 02:14:27.25	95.93	81.61	-50.8	-52.5	15.4	6.05e-01	0	27	0	678952960	70	4362
2026-01-07 02:14:28.26	100.10	81.77	-51.0	-52.7	15.3	6.05e-01	0	27	0	680525824	70	4472
2026-01-07 02:14:29.25	104.32	81.88	-51.1	-52.9	15.2	6.05e-01	0	27	0	682622976	70	4562
2026-01-07 02:14:30.24	108.65	81.95	-50.9	-52.6	15.3	6.03e-01	0	27	0	684195840	70	4432
2026-01-07 02:14:31.24	113.06	81.97	-51.0	-52.8	15.3	6.05e-01	0	27	0	686292992	70	4516
2026-01-07 02:14:32.23	117.43	81.95	-51.1	-52.9	15.2	6.05e-01	0	27	0	687865856	70	4550
2026-01-07 02:14:33.23	121.79	81.88	-50.9	-52.7	15.3	6.03e-01	0	27	0	689963008	70	4457
2026-01-07 02:14:34.23	126.05	81.76	-50.7	-52.4	15.4	6.04e-01	0	27	0	692060160	70	4298
2026-01-07 02:14:35.23	130.17	81.60	-50.7	-52.4	15.4	6.03e-01	0	27	0	693633024	70	4319
2026-01-07 02:14:36.23	134.11	81.40	-50.7	-52.4	15.4	6.04e-01	0	27	0	695730176	70	4333
2026-01-07 02:14:37.23	137.85	81.16	-50.8	-52.5	15.4	6.03e-01	0	27	0	697303040	70	4391
2026-01-07 02:14:38.24	141.42	80.88	-50.5	-52.2	15.5	6.04e-01	0	27	0	699400192	70	4217
2026-01-07 02:14:39.23	144.69	80.58	-51.0	-52.8	15.3	6.03e-01	0	27	0	700973056	70	4509
2026-01-07 02:14:40.24	147.81	80.24	-51.2	-53.0	15.2	6.04e-01	0	27	0	703070208	70	4630
2026-01-07 02:14:41.24	150.69	79.88	-51.3	-53.1	15.2	6.02e-01	0	27	0	705167360	70	4670
2026-01-07 02:14:42.24	153.35	79.50	-51.6	-53.5	15.2	6.04e-01	0	27	0	706740224	71	4627
2026-01-07 02:14:43.25	155.85	79.09	-51.7	-53.5	15.2	6.04e-01	0	27	0	708837376	71	4645
2026-01-07 02:14:44.29	158.22	78.66	-51.5	-53.3	15.2	6.05e-01	0	27	0	710410240	71	4507
2026-01-07 02:14:45.27	160.29	78.23	-52.0	-53.9	15.1	6.03e-01	0	27	0	712507392	71	4854
2026-01-07 02:14:46.27	162.25	77.78	-51.9	-53.8	15.1	6.02e-01	0	27	0	714604544	71	4806
2026-01-07 02:14:47.26	164.05	77.33	-52.0	-53.9	15.2	6.03e-01	0	27	0	716177408	72	4597
2026-01-07 02:14:48.26	165.73	76.86	-51.9	-53.8	15.3	6.03e-01	0	27	0	718274560	72	4505
2026-01-07 02:14:49.26	167.30	76.38	-52.3	-54.3	15.1	6.03e-01	0	27	0	719847424	72	4763
2026-01-07 02:14:50.26	168.75	75.89	-52.9	-55.0	15.0	6.02e-01	0	27	0	721944576	73	4910
2026-01-07 02:14:51.26	170.11	75.40	-52.0	-53.9	15.3	6.05e-01	0	27	0	723517440	73	4300
2026-01-07 02:14:52.26	171.37	74.91	-52.7	-54.8	15.1	6.04e-01	0	27	0	725614592	73	4783
2026-01-07 02:14:53.26	172.55	74.40	-52.9	-55.0	15.0	6.05e-01	0	27	0	727711744	73	4908
2026-01-07 02:14:54.26	173.65	73.90	-52.8	-55.0	15.0	6.02e-01	0	27	0	729284608	73	4877
2026-01-07 02:14:55.26	174.68	73.39	-52.8	-55.0	15.0	6.05e-01	0	27	0	731381760	73	4876
2026-01-07 02:14:56.27	175.66	72.87	-53.1	-55.3	14.9	6.05e-01	0	27	0	732954624	73	5095
2026-01-07 02:14:57.27	176.57	72.36	-53.0	-55.4	14.8	6.03e-01	0	27	0	735051776	74	4850
2026-01-07 02:14:58.26	177.41	71.85	-52.2	-55.3	14.2	6.05e-01	0	27	0	736624640	73	5077
2026-01-07 02:14:59.26	178.22	71.33	-52.4	-55.5	14.1	6.02e-01	0	27	0	738721792	73	5203
2026-01-07 02:15:00.26	178.98	70.82	-52.7	-55.0	14.8	6.04e-01	0	27	0	740818944	73	4907
2026-01-07 02:15:01.27	179.70	70.30	-53.5	-55.8	14.8	6.05e-01	0	27	0	742391808	74	5068
2026-01-07 02:15:02.27	180.38	69.78	-53.7	-56.3	14.7	6.04e-01	0	27	0	744488960	75	5056
2026-01-07 02:15:03.26	181.02	69.27	-53.2	-55.5	15.1	6.03e-01	0	27	0	746061824	75	4602
2026-01-07 02:15:04.27	181.63	68.75	-53.0	-55.1	15.2	6.03e-01	0	27	0	748158976	75	4433
2026-01-07 02:15:05.27	182.21	68.24	-53.7	-56.2	14.8	6.04e-01	0	27	0	749731840	75	4988
2026-01-07 02:15:06.26	182.76	67.73	-53.4	-55.7	15.0	6.01e-01	0	27	0	751828992	75	4713
2026-01-07 02:15:07.26	183.28	67.22	-53.5	-55.8	15.0	6.05e-01	0	27	0	753926144	75	4777
2026-01-07 02:15:08.26	183.78	66.70	-53.1	-55.2	15.1	6.05e-01	0	27	0	755499008	75	4475
2026-01-07 02:15:09.27	184.26	66.19	-53.6	-55.9	15.0	6.05e-01	0	27	0	757596160	75	4841
2026-01-07 02:15:10.27	184.71	65.68	-54.3	-56.9	14.7	6.02e-01	0	27	0	759169024	76	5124
2026-01-07 02:15:11.27	185.14	65.18	-53.7	-56.0	15.0	6.04e-01	0	27	0	761266176	76	4645
2026-01-07 02:15:12.27	185.56	64.68	-53.6	-55.8	15.1	6.06e-01	0	27	0	763363328	76	4532
2026-01-07 02:15:13.28	185.96	64.17	-53.5	-55.7	15.1	6.04e-01	0	27	0	764936192	76	4479
2026-01-07 02:15:14.28	186.34	63.68	-52.6	-54.6	15.2	6.05e-01	0	27	0	767033344	74	4432
2026-01-07 02:15:15.29	186.70	63.18	-51.7	-53.5	15.3	6.03e-01	0	27	0	768606208	72	4389
2026-01-07 02:15:16.29	187.05	62.68	-51.5	-53.3	15.4	6.04e-01	0	27	0	770703360	72	4276
2026-01-07 02:15:17.30	187.39	62.19	-51.4	-53.2	15.3	6.02e-01	0	27	0	772800512	71	4470
2026-01-07 02:15:18.30	187.71	61.70	-51.5	-53.3	15.3	6.06e-01	0	27	0	774373376	71	4512
2026-01-07 02:15:19.29	188.02	61.22	-51.3	-53.0	15.3	6.03e-01	0	27	0	776470528	71	4376
2026-01-07 02:15:20.29	188.32	60.74	-51.3	-53.0	15.3	6.03e-01	0	27	0	778043392	71	4390
2026-01-07 02:15:21.28	188.60	60.27	-51.1	-52.8	15.4	6.04e-01	0	27	0	780140544	71	4281
2026-01-07 02:15:22.28	188.88	59.79	-50.9	-52.6	15.5	6.04e-01	0	27	0	781713408	71	4166
2026-01-07 02:15:23.28	189.14	59.32	-51.1	-52.9	15.4	6.05e-01	0	27	0	783810560	71	4310
2026-01-07 02:15:24.28	189.40	58.85	-51.2	-52.9	15.4	6.04e-01	0	27	0	785383424	71	4331
2026-01-07 02:15:25.28	189.65	58.39	-51.1	-52.8	15.4	6.04e-01	0	27	0	787480576	71	4288
2026-01-07 02:15:26.28	189.89	57.93	-50.8	-52.5	15.4	6.04e-01	0	27	0	789577728	70	4347
2026-01-07 02:15:27.28	190.12	57.47	-50.8	-52.5	15.4	6.05e-01	0	27	0	791150592	70	4377
2026-01-07 02:15:28.28	190.35	57.01	-50.5	-52.2	15.4	6.02e-01	0	27	0	793247744	70	4229
2026-01-07 02:15:29.28	190.56	56.56	-50.4	-52.0	15.5	6.03e-01	0	27	0	794820608	70	4145
2026-01-07 02:15:30.27	190.77	56.12	-50.1	-51.7	15.5	6.04e-01	0	27	0	796917760	69	4210
2026-01-07 02:15:31.27	190.98	55.67	-49.8	-51.3	15.4	6.03e-01	0	27	0	798490624	68	4277
2026-01-07 02:15:32.27	191.17	55.23	-49.8	-51.4	15.4	6.02e-01	0	27	0	800587776	68	4310
2026-01-07 02:15:33.27	191.37	54.79	-49.8	-51.4	15.4	6.04e-01	0	27	0	802684928	68	4322
2026-01-07 02:15:34.27	191.55	54.36	-49.7	-51.3	15.4	6.04e-01	0	27	0	804257792	68	4254
2026-01-07 02:15:35.27	191.73	53.93	-49.5	-51.0	15.5	6.03e-01	0	27	0	806354944	68	4126
2026-01-07 02:15:36.26	191.91	53.50	-49.6	-51.1	15.5	6.05e-01	0	27	0	807927808	68	4192
2026-01-07 02:15:37.27	192.08	53.08	-49.8	-51.4	15.4	6.04e-01	0	27	0	810024960	68	4301
2026-01-07 02:15:38.26	192.24	52.66	-49.6	-51.2	15.5	6.05e-01	0	27	0	811597824	68	4211
2026-01-07 02:15:39.26	192.40	52.24	-49.7	-51.2	15.5	6.05e-01	0	27	0	813694976	68	4219
2026-01-07 02:15:40.26	192.56	51.83	-49.7	-51.3	15.4	6.02e-01	0	27	0	815792128	68	4253
2026-01-07 02:15:41.26	192.71	51.42	-50.0	-51.6	15.4	6.05e-01	0	27	0	817364992	68	4420
2026-01-07 02:15:42.26	192.86	51.01	-50.2	-51.9	15.3	6.04e-01	0	27	0	819462144	68	4552
2026-01-07 02:15:43.26	193.01	50.61	-50.0	-51.6	15.3	6.05e-01	0	27	0	821035008	68	4420
2026-01-07 02:15:44.26	193.15	50.21	-50.1	-51.7	15.3	6.02e-01	0	27	0	823132160	68	4445
2026-01-07 02:15:45.25	193.28	49.81	-50.5	-52.2	15.2	6.04e-01	0	27	0	825229312	68	4708
2026-01-07 02:15:46.24	193.42	49.43	-50.4	-52.1	15.2	6.03e-01	0	27	0	826802176	68	4654
2026-01-07 02:15:47.24	193.55	49.04	-50.6	-52.3	15.2	6.03e-01	0	27	0	828899328	68	4762
2026-01-07 02:15:48.24	193.67	48.65	-50.5	-52.2	15.2	6.02e-01	0	27	0	830472192	68	4740
2026-01-07 02:15:49.24	193.80	48.27	-50.2	-51.9	15.3	6.04e-01	0	27	0	832569344	68	4558
2026-01-07 02:15:50.24	193.92	47.89	-50.2	-51.9	15.3	6.04e-01	0	27	0	834142208	68	4550
2026-01-07 02:15:51.24	194.04	47.51	-50.2	-51.8	15.3	6.04e-01	0	27	0	836239360	68	4542
2026-01-07 02:15:52.24	194.15	47.14	-50.1	-51.7	15.3	6.04e-01	0	27	0	837812224	68	4491
2026-01-07 02:15:53.23	194.27	46.77	-50.3	-52.0	15.3	6.04e-01	0	27	0	839909376	68	4620
2026-01-07 02:15:54.23	194.38	46.40	-50.4	-52.1	15.2	6.05e-01	0	27	0	842006528	68	4685
2026-01-07 02:15:55.24	194.49	46.04	-50.4	-52.1	15.2	6.03e-01	0	27	0	843579392	68	4699
2026-01-07 02:15:56.23	194.59	45.68	-50.4	-52.2	15.2	6.07e-01	0	27	0	845676544	68	4715
2026-01-07 02:15:57.24	194.69	45.32	-50.5	-52.2	15.2	6.03e-01	0	27	0	847249408	68	4750
2026-01-07 02:15:58.24	194.80	44.97	-50.4	-52.1	15.2	6.03e-01	0	27	0	849346560	68	4672
2026-01-07 02:15:59.24	194.89	44.62	-50.4	-52.1	15.2	6.03e-01	0	27	0	851443712	68	4678
2026-01-07 02:16:00.25	194.99	44.27	-50.3	-52.0	15.3	6.04e-01	0	27	0	853016576	68	4610
2026-01-07 02:16:01.24	195.09	43.93	-50.4	-52.1	15.2	6.02e-01	0	27	0	855113728	68	4657
2026-01-07 02:16:02.24	195.18	43.59	-50.4	-52.1	15.2	6.05e-01	0	27	0	856686592	68	4661
2026-01-07 02:16:03.23	195.27	43.25	-50.4	-52.1	15.2	6.01e-01	0	27	0	858783744	68	4666
2026-01-07 02:16:04.24	195.36	42.91	-50.5	-52.2	15.2	6.06e-01	0	27	0	860356608	68	4725
2026-01-07 02:16:05.24	195.45	42.58	-50.3	-51.9	15.3	6.03e-01	0	27	0	862453760	68	4573
2026-01-07 02:16:06.24	195.53	42.25	-50.3	-52.0	15.2	6.00e-01	0	27	0	864026624	68	4603
2026-01-07 02:16:07.23	195.62	41.93	-50.5	-52.2	15.2	6.04e-01	0	27	0	866123776	68	4750
2026-01-07 02:16:08.23	195.70	41.61	-50.8	-52.6	15.2	6.03e-01	0	27	0	868220928	69	4684
2026-01-07 02:16:09.24	195.78	41.28	-51.0	-52.8	15.2	6.03e-01	0	27	0	869793792	69	4765
2026-01-07 02:16:10.25	195.86	40.96	-51.0	-52.8	15.2	6.04e-01	0	27	0	871890944	69	4792
2026-01-07 02:16:11.25	195.94	40.65	-51.0	-52.8	15.2	6.03e-01	0	27	0	873988096	69	4782
2026-01-07 02:16:12.25	196.01	40.34	-51.0	-52.8	15.2	6.03e-01	0	27	0	875560960	69	4793
2026-01-07 02:16:13.25	196.09	40.03	-51.1	-52.9	15.1	6.04e-01	0	27	0	877658112	69	4815
2026-01-07 02:16:14.26	196.16	39.72	-51.2	-53.0	15.2	6.04e-01	0	27	0	879230976	70	4618
2026-01-07 02:16:15.26	196.24	39.42	-51.3	-53.2	15.2	6.04e-01	0	27	0	881328128	70	4712
2026-01-07 02:16:16.26	196.31	39.12	-51.4	-53.3	15.1	6.04e-01	0	27	0	882900992	70	4764
2026-01-07 02:16:17.25	196.38	38.82	-51.3	-53.2	15.2	6.03e-01	0	27	0	884998144	70	4716
2026-01-07 02:16:18.26	196.44	38.52	-51.3	-53.1	15.2	6.02e-01	0	27	0	887095296	70	4686
2026-01-07 02:16:19.26	196.51	38.23	-51.2	-53.0	15.2	6.04e-01	0	27	0	888668160	70	4611
2026-01-07 02:16:20.26	196.58	37.94	-51.0	-52.8	15.3	6.04e-01	0	27	0	890765312	70	4533
2026-01-07 02:16:21.26	196.64	37.66	-51.1	-52.8	15.3	6.02e-01	0	27	0	892338176	70	4543
2026-01-07 02:16:22.26	196.71	37.37	-51.0	-52.8	15.3	6.06e-01	0	27	0	894435328	70	4507
2026-01-07 02:16:23.25	196.77	37.09	-51.0	-52.8	15.3	6.04e-01	0	27	0	896008192	70	4536
2026-01-07 02:16:24.25	196.83	36.81	-50.8	-52.5	15.3	6.04e-01	0	27	0	898105344	70	4381
2026-01-07 02:16:25.25	196.89	36.54	-50.6	-52.2	15.4	6.04e-01	0	27	0	900202496	70	4241
2026-01-07 02:16:26.24	196.95	36.26	-50.5	-52.2	15.5	6.05e-01	0	27	0	901775360	70	4196
2026-01-07 02:16:27.24	197.01	35.99	-50.5	-52.2	15.4	6.03e-01	0	27	0	903872512	70	4229
2026-01-07 02:16:28.24	197.07	35.72	-50.5	-52.2	15.4	6.04e-01	0	27	0	905445376	70	4224
2026-01-07 02:16:29.23	197.13	35.46	-50.4	-52.1	15.5	6.04e-01	0	27	0	907542528	70	4186
2026-01-07 02:16:30.23	197.18	35.19	-50.3	-51.9	15.4	6.04e-01	0	27	0	909115392	69	4333
2026-01-07 02:16:31.23	197.24	34.93	-50.3	-52.0	15.4	6.03e-01	0	27	0	911212544	69	4353
2026-01-07 02:16:32.22	197.29	34.67	-50.1	-51.7	15.5	6.06e-01	0	27	0	912785408	69	4216
2026-01-07 02:16:33.22	197.35	34.41	-50.0	-51.7	15.5	6.02e-01	0	27	0	914882560	69	4211
2026-01-07 02:16:34.22	197.40	34.16	-50.0	-51.6	15.5	6.04e-01	0	27	0	916979712	69	4173
2026-01-07 02:16:35.21	197.45	33.90	-49.7	-51.3	15.4	6.04e-01	0	27	0	918552576	68	4291
2026-01-07 02:16:36.21	197.50	33.65	-49.6	-51.2	15.5	6.03e-01	0	27	0	920649728	68	4226
2026-01-07 02:16:37.21	197.55	33.40	-49.7	-51.3	15.5	6.04e-01	0	27	0	922222592	68	4246
2026-01-07 02:16:38.21	197.60	33.16	-49.4	-51.0	15.5	6.04e-01	0	27	0	924319744	68	4110
2026-01-07 02:16:39.21	197.65	32.91	-49.5	-51.0	15.5	6.04e-01	0	27	0	925892608	68	4132
2026-01-07 02:16:40.21	197.70	32.67	-49.5	-51.0	15.5	6.05e-01	0	27	0	927989760	68	4142
2026-01-07 02:16:41.20	197.75	32.43	-49.2	-50.8	15.4	6.02e-01	0	27	0	930086912	67	4253
2026-01-07 02:16:42.20	197.79	32.19	-49.1	-50.7	15.5	6.04e-01	0	27	0	931659776	67	4196
2026-01-07 02:16:43.20	197.84	31.95	-49.1	-50.7	15.5	6.05e-01	0	27	0	933756928	67	4195
2026-01-07 02:16:44.20	197.89	31.72	-49.0	-50.5	15.5	6.02e-01	0	27	0	935329792	67	4131
2026-01-07 02:16:45.21	197.93	31.48	-49.1	-50.6	15.5	6.05e-01	0	27	0	937426944	67	4181
2026-01-07 02:16:46.21	197.98	31.25	-49.2	-50.7	15.5	6.03e-01	0	27	0	938999808	67	4232
2026-01-07 02:16:47.20	198.02	31.02	-49.2	-50.7	15.5	6.05e-01	0	27	0	941096960	67	4224
2026-01-07 02:16:48.20	198.06	30.80	-49.1	-50.7	15.5	6.02e-01	0	27	0	943194112	67	4206
2026-01-07 02:16:49.21	198.11	30.57	-49.2	-50.8	15.5	6.03e-01	0	27	0	944766976	67	4248
2026-01-07 02:16:50.21	198.15	30.34	-49.3	-50.9	15.4	6.05e-01	0	27	0	946864128	67	4295
2026-01-07 02:16:51.21	198.19	30.12	-49.2	-50.8	15.4	6.04e-01	0	27	0	948436992	67	4257
2026-01-07 02:16:52.21	198.23	29.90	-49.4	-51.0	15.4	6.05e-01	0	27	0	950534144	67	4345
2026-01-07 02:16:53.20	198.27	29.69	-49.4	-51.0	15.4	6.02e-01	0	27	0	952631296	67	4344
2026-01-07 02:16:54.20	198.31	29.47	-49.4	-51.0	15.4	6.04e-01	0	27	0	954204160	67	4350
2026-01-07 02:16:55.20	198.35	29.25	-49.5	-51.1	15.3	6.05e-01	0	27	0	956301312	67	4436
2026-01-07 02:16:56.20	198.39	29.04	-49.6	-51.3	15.3	6.03e-01	0	27	0	957874176	67	4516
2026-01-07 02:16:57.20	198.43	28.83	-49.6	-51.3	15.3	6.02e-01	0	27	0	959971328	67	4530
2026-01-07 02:16:58.19	198.47	28.62	-49.6	-51.2	15.3	6.05e-01	0	27	0	961544192	67	4488
2026-01-07 02:16:59.20	198.51	28.41	-49.6	-51.2	15.3	6.03e-01	0	27	0	963641344	67	4470
2026-01-07 02:17:00.19	198.55	28.21	-49.5	-51.1	15.4	6.04e-01	0	27	0	965214208	67	4428
2026-01-07 02:17:01.19	198.58	28.00	-49.5	-51.1	15.3	6.04e-01	0	27	0	967311360	67	4422
2026-01-07 02:17:02.19	198.62	27.80	-49.5	-51.1	15.3	6.03e-01	0	27	0	969408512	67	4406
2026-01-07 02:17:03.19	198.66	27.60	-49.4	-51.0	15.4	6.03e-01	0	27	0	970981376	67	4372
2026-01-07 02:17:04.19	198.69	27.40	-49.5	-51.1	15.3	6.03e-01	0	27	0	973078528	67	4429
2026-01-07 02:17:05.18	198.73	27.20	-49.5	-51.1	15.3	6.05e-01	0	27	0	974651392	67	4420
2026-01-07 02:17:06.19	198.76	27.00	-49.5	-51.2	15.3	6.05e-01	0	27	0	976748544	67	4448
2026-01-07 02:17:07.19	198.80	26.81	-49.6	-51.3	15.3	6.05e-01	0	27	0	978321408	67	4494
2026-01-07 02:17:08.19	198.83	26.61	-49.6	-51.2	15.3	6.04e-01	0	27	0	980418560	67	4482
2026-01-07 02:17:09.18	198.86	26.42	-49.7	-51.3	15.3	6.06e-01	0	27	0	982515712	67	4521
2026-01-07 02:17:10.18	198.90	26.23	-49.7	-51.4	15.3	6.03e-01	0	27	0	984088576	67	4548
2026-01-07 02:17:11.18	198.93	26.04	-49.7	-51.4	15.3	6.05e-01	0	27	0	986185728	67	4561
2026-01-07 02:17:12.18	198.96	25.86	-49.9	-51.5	15.3	6.05e-01	0	27	0	987758592	67	4647
2026-01-07 02:17:13.18	199.00	25.67	-49.8	-51.5	15.3	6.05e-01	0	27	0	989855744	67	4627
2026-01-07 02:17:14.19	199.03	25.48	-49.9	-51.6	15.3	6.02e-01	0	27	0	991428608	67	4659
2026-01-07 02:17:15.19	199.06	25.30	-50.0	-51.7	15.2	6.04e-01	0	27	0	993525760	67	4709
2026-01-07 02:17:16.19	199.09	25.12	-50.1	-51.8	15.2	6.03e-01	0	27	0	995622912	67	4778
2026-01-07 02:17:17.19	199.12	24.93	-50.2	-51.9	15.3	6.05e-01	0	27	0	997195776	68	4547
2026-01-07 02:17:18.19	199.15	24.75	-50.2	-51.9	15.3	6.06e-01	0	27	0	999292928	68	4594
2026-01-07 02:17:19.19	199.18	24.58	-50.2	-51.9	15.3	6.05e-01	0	27	0	1001390080	68	4584
2026-01-07 02:17:20.19	199.21	24.40	-50.3	-52.1	15.2	6.04e-01	0	27	0	1002962944	68	4660
2026-01-07 02:17:21.18	199.24	24.22	-50.4	-52.2	15.2	6.03e-01	0	27	0	1004535808	68	4710
2026-01-07 02:17:22.18	199.27	24.05	-50.4	-52.1	15.2	6.04e-01	0	27	0	1006632960	68	4680
2026-01-07 02:17:23.17	199.30	23.88	-50.4	-52.2	15.2	6.01e-01	0	27	0	1008730112	68	4717
2026-01-07 02:17:24.17	199.33	23.71	-50.4	-52.2	15.2	6.05e-01	0	27	0	1010302976	68	4710
2026-01-07 02:17:25.16	199.36	23.54	-50.3	-52.1	15.2	6.05e-01	0	27	0	1012400128	68	4673
2026-01-07 02:17:26.16	199.39	23.37	-50.4	-52.1	15.2	6.04e-01	0	27	0	1013972992	68	4679
2026-01-07 02:17:27.16	199.41	23.20	-50.4	-52.1	15.2	6.02e-01	0	27	0	1016070144	68	4693
2026-01-07 02:17:28.15	199.44	23.03	-50.4	-52.1	15.2	6.03e-01	0	27	0	1018167296	68	4683
2026-01-07 02:17:29.16	199.47	22.86	-50.2	-51.9	15.2	6.06e-01	0	27	0	1019740160	68	4598
2026-01-07 02:17:30.16	199.50	22.70	-50.2	-51.9	15.3	6.04e-01	0	27	0	1021837312	68	4556
2026-01-07 02:17:31.16	199.52	22.54	-50.2	-51.9	15.3	6.06e-01	0	27	0	1023410176	68	4547
2026-01-07 02:17:32.15	199.55	22.37	-50.0	-51.7	15.3	6.04e-01	0	27	0	1025507328	68	4479
2026-01-07 02:17:33.15	199.58	22.21	-50.0	-51.7	15.3	6.03e-01	0	27	0	1027080192	68	4480
2026-01-07 02:17:34.15	199.60	22.05	-50.0	-51.7	15.3	6.04e-01	0	27	0	1029177344	68	4449
2026-01-07 02:17:35.15	199.63	21.89	-50.1	-51.8	15.3	6.05e-01	0	27	0	1031274496	68	4501
2026-01-07 02:17:36.15	199.65	21.73	-50.0	-51.6	15.3	6.05e-01	0	27	0	1032847360	68	4435
2026-01-07 02:17:37.15	199.68	21.58	-49.9	-51.5	15.4	6.04e-01	0	27	0	1034944512	68	4380
2026-01-07 02:17:38.15	199.70	21.42	-49.8	-51.4	15.4	6.06e-01	0	27	0	1036517376	68	4337
2026-01-07 02:17:39.14	199.73	21.27	-49.9	-51.6	15.3	6.02e-01	0	27	0	1038614528	68	4403
2026-01-07 02:17:40.14	199.75	21.11	-49.9	-51.5	15.3	6.05e-01	0	27	0	1040187392	68	4371
2026-01-07 02:17:41.14	199.78	20.96	-49.8	-51.5	15.4	6.04e-01	0	27	0	1042284544	68	4341
2026-01-07 02:17:42.14	199.80	20.81	-49.8	-51.4	15.4	6.03e-01	0	27	0	1043857408	68	4327
2026-01-07 02:17:43.14	199.83	20.66	-49.8	-51.4	15.4	6.04e-01	0	27	0	1045954560	68	4331
2026-01-07 02:17:44.13	199.85	20.51	-49.8	-51.4	15.4	6.05e-01	0	27	0	1048051712	68	4328
2026-01-07 02:17:45.13	199.87	20.36	-49.8	-51.5	15.4	6.02e-01	0	27	0	1049624576	68	4341
2026-01-07 02:17:46.12	199.90	20.21	-49.9	-51.5	15.4	6.05e-01	0	27	0	1051721728	68	4376
2026-01-07 02:17:47.12	199.92	20.06	-49.8	-51.5	15.4	6.05e-01	0	27	0	1053294592	68	4360
2026-01-07 02:17:48.11	199.94	19.92	-49.8	-51.4	15.4	6.03e-01	0	27	0	1055391744	68	4334
2026-01-07 02:17:49.12	199.97	19.77	-49.8	-51.4	15.4	6.05e-01	0	27	0	1056964608	68	4335
2026-01-07 02:17:50.12	199.99	19.63	-49.8	-51.4	15.4	6.06e-01	0	27	0	1059061760	68	4339
2026-01-07 02:17:51.13	200.01	19.48	-49.8	-51.5	15.4	6.04e-01	0	27	0	1061158912	68	4345
2026-01-07 02:17:52.13	200.04	19.34	-49.9	-51.5	15.4	6.04e-01	0	27	0	1062731776	68	4383
2026-01-07 02:17:53.12	200.06	19.20	-49.9	-51.6	15.3	6.05e-01	0	27	0	1064828928	68	4401
2026-01-07 02:17:54.12	200.08	19.06	-49.8	-51.5	15.4	6.04e-01	0	27	0	1066401792	68	4370
2026-01-07 02:17:55.13	200.10	18.92	-49.8	-51.5	15.4	6.03e-01	0	27	0	1068498944	68	4362
2026-01-07 02:17:56.12	200.12	18.78	-49.8	-51.4	15.4	6.05e-01	0	27	0	1070071808	68	4314
2026-01-07 02:17:57.13	200.14	18.64	-49.8	-51.5	15.4	6.06e-01	0	27	0	1072168960	68	4362
2026-01-07 02:17:58.13	200.17	18.50	-49.8	-51.5	15.4	6.06e-01	0	27	0	1074266112	68	4365
2026-01-07 02:17:59.12	200.19	18.37	-49.9	-51.5	15.4	6.03e-01	0	27	0	1075838976	68	4381
2026-01-07 02:18:00.12	200.21	18.23	-49.8	-51.5	15.4	6.05e-01	0	27	0	1077936128	68	4349
2026-01-07 02:18:01.12	200.23	18.10	-49.9	-51.6	15.4	6.05e-01	0	27	0	1079508992	68	4409
2026-01-07 02:18:02.11	200.25	17.96	-49.9	-51.6	15.4	6.05e-01	0	27	0	1081606144	68	4400
2026-01-07 02:18:03.11	200.27	17.83	-49.9	-51.6	15.4	6.05e-01	0	27	0	1083703296	68	4396
2026-01-07 02:18:04.12	200.29	17.69	-49.9	-51.6	15.3	6.03e-01	0	27	0	1085276160	68	4438
2026-01-07 02:18:05.12	200.31	17.56	-49.9	-51.6	15.4	6.03e-01	0	27	0	1087373312	68	4413
2026-01-07 02:18:06.12	200.33	17.43	-50.0	-51.7	15.3	6.04e-01	0	27	0	1088946176	68	4456
2026-01-07 02:18:07.12	200.35	17.30	-49.9	-51.7	15.3	6.03e-01	0	27	0	1091043328	68	4443
2026-01-07 02:18:08.12	200.37	17.17	-50.0	-51.7	15.3	6.02e-01	0	27	0	1092616192	68	4479
2026-01-07 02:18:09.12	200.39	17.04	-50.0	-51.7	15.3	6.05e-01	0	27	0	1094713344	68	4485
2026-01-07 02:18:10.12	200.41	16.92	-50.0	-51.7	15.3	6.03e-01	0	27	0	1096810496	68	4466
2026-01-07 02:18:11.12	200.43	16.79	-50.1	-51.8	15.3	6.03e-01	0	27	0	1098383360	68	4535
2026-01-07 02:18:12.12	200.45	16.66	-58.7	-72.9	4.2	7.15e-01	0	27	104	1099431936	85	19351
2026-01-07 02:18:13.12	200.47	16.54	-58.8	-75.3	4.3	7.39e-01	0	27	104	1099431936	85	25333
2026-01-07 02:18:14.12	200.49	16.41	-58.6	-75.2	3.9	7.42e-01	0	27	104	1099431936	85	25082
2026-01-07 02:18:15.12	200.50	16.29	-58.6	-76.6	3.9	7.41e-01	0	27	104	1099431936	85	29638
2026-01-07 02:18:16.12	200.52	16.16	-58.7	-77.7	3.8	7.43e-01	0	27	104	1099431936	85	33652
2026-01-07 02:18:17.13	200.54	16.04	-58.7	-76.8	3.8	7.46e-01	0	27	104	1099431936	85	30142
2026-01-07 02:18:18.12	200.56	15.92	-58.6	-72.5	4.9	7.13e-01	0	27	0	1099431936	85	18506
2026-01-07 02:18:19.12	200.58	15.79	-58.5	-72.6	4.9	7.14e-01	0	27	0	1099431936	85	18685
2026-01-07 02:18:20.12	200.60	15.67	-58.5	-71.5	5.5	6.95e-01	0	27	0	1099431936	85	16349
2026-01-07 02:18:21.13	200.61	15.55	-58.5	-71.4	5.5	6.93e-01	70	27	0	1100480512	85	16300
2026-01-07 02:18:22.12	200.63	15.43	-58.5	-71.3	5.6	6.91e-01	28	27	0	1101529088	85	15997
2026-01-07 02:18:23.13	200.65	15.31	-58.4	-71.2	5.7	6.90e-01	92	27	0	1102577664	85	15827
2026-01-07 02:18:24.13	200.67	15.19	-58.4	-70.7	6.0	6.81e-01	92	27	0	1103626240	85	14891
2026-01-07 02:18:25.13	200.69	15.08	-58.4	-71.3	5.5	6.95e-01	54	27	0	1105199104	85	16108
2026-01-07 02:18:26.13	200.70	14.96	-58.6	-74.7	4.2	7.35e-01	0	27	104	1105723392	85	23734
2026-01-07 02:18:27.13	200.72	14.84	-58.6	-76.6	3.9	7.48e-01	0	27	104	1105723392	85	29466
2026-01-07 02:18:28.13	200.74	14.73	-58.5	-72.4	5.1	7.12e-01	0	27	104	1105723392	85	18114
2026-01-07 02:18:29.14	200.75	14.61	-58.6	-76.2	3.8	7.44e-01	0	27	104	1105723392	85	28097
2026-01-07 02:18:30.13	200.77	14.50	-58.5	-72.9	4.2	7.33e-01	0	27	104	1105723392	85	19376
2026-01-07 02:18:31.13	200.79	14.38	-58.5	-71.9	5.2	7.03e-01	22	27	0	1105723392	85	17246
2026-01-07 02:18:32.12	200.81	14.27	-58.4	-71.8	5.2	7.03e-01	0	27	0	1105723392	85	16988
2026-01-07 02:18:33.13	200.82	14.16	-58.4	-71.1	5.6	6.88e-01	92	27	0	1106247680	85	15729
2026-01-07 02:18:34.13	200.84	14.04	-58.4	-70.9	5.8	6.85e-01	89	27	0	1107296256	85	15320
2026-01-07 02:18:35.12	200.85	13.93	-58.3	-69.8	6.5	6.66e-01	90	27	0	1108869120	85	13559
2026-01-07 02:18:36.12	200.87	13.82	-58.4	-70.9	5.8	6.87e-01	92	27	0	1110966272	85	15304
2026-01-07 02:18:37.13	200.89	13.71	-58.5	-74.9	4.1	7.39e-01	0	27	104	1110966272	85	24133
2026-01-07 02:18:38.13	200.90	13.60	-58.6	-76.5	3.8	7.50e-01	0	28	104	1110966272	85	29026
2026-01-07 02:18:39.13	200.92	13.49	-58.4	-72.0	5.1	7.06e-01	0	27	104	1110966272	85	17462
2026-01-07 02:18:40.13	200.94	13.38	-58.5	-76.0	3.9	7.46e-01	0	27	104	1110966272	85	27403
2026-01-07 02:18:41.13	200.95	13.27	-58.4	-72.7	4.8	7.17e-01	0	27	104	1110966272	85	18930
2026-01-07 02:18:42.12	200.97	13.16	-58.4	-72.7	4.8	7.17e-01	0	27	104	1110966272	85	18895
2026-01-07 02:18:43.12	200.98	13.06	-58.4	-72.7	4.8	7.18e-01	0	27	104	1110966272	85	18791
2026-01-07 02:18:44.12	201.00	12.95	-58.4	-71.6	5.3	7.01e-01	22	28	0	1110966272	85	16583
2026-01-07 02:18:45.12	201.01	12.84	-58.3	-71.0	5.6	6.89e-01	90	28	0	1111490560	85	15558
2026-01-07 02:18:46.12	201.03	12.74	-58.3	-70.6	5.9	6.84e-01	75	28	0	1113063424	85	14788
2026-01-07 02:18:47.12	201.04	12.63	-58.3	-70.2	6.1	6.76e-01	90	27	0	1114636288	85	14158
2026-01-07 02:18:48.11	201.06	12.53	-58.2	-70.2	6.2	6.77e-01	92	27	0	1116733440	85	14148
2026-01-07 02:18:49.12	201.07	12.42	-58.5	-74.8	4.2	7.39e-01	0	28	104	1117257728	85	24102
2026-01-07 02:18:50.12	201.09	12.32	-58.5	-76.5	3.8	7.48e-01	0	28	104	1117257728	85	29038
2026-01-07 02:18:51.12	201.10	12.22	-58.4	-72.5	4.9	7.13e-01	0	27	104	1117257728	85	18509
2026-01-07 02:18:52.12	201.12	12.11	-58.5	-75.4	3.9	7.43e-01	0	27	104	1117257728	85	25808
2026-01-07 02:18:53.11	201.13	12.01	-58.3	-72.6	4.8	7.15e-01	0	27	0	1117257728	85	18550
2026-01-07 02:18:54.12	201.15	11.91	-58.3	-72.4	4.9	7.12e-01	0	27	104	1117257728	85	18111
2026-01-07 02:18:55.12	201.16	11.81	-58.3	-71.5	5.3	6.98e-01	64	28	0	1117257728	85	16358
2026-01-07 02:18:56.13	201.18	11.70	-58.3	-71.3	5.5	6.96e-01	42	27	0	1118306304	85	16087
2026-01-07 02:18:57.12	201.19	11.61	-58.2	-70.8	5.8	6.84e-01	92	28	0	1119354880	85	15055
2026-01-07 02:18:58.11	201.21	11.51	-58.2	-70.7	5.7	6.85e-01	92	27	0	1120403456	85	15009
2026-01-07 02:18:59.12	201.22	11.41	-58.2	-70.7	5.9	6.85e-01	91	28	0	1121976320	85	14938
2026-01-07 02:19:00.13	201.24	11.30	-58.4	-74.7	4.1	7.36e-01	0	28	104	1122500608	85	23823
2026-01-07 02:19:01.13	201.25	11.21	-58.4	-76.6	3.8	7.47e-01	0	27	104	1122500608	85	29426
2026-01-07 02:19:02.13	201.26	11.11	-58.3	-73.7	4.0	7.42e-01	0	27	104	1122500608	85	21124
2026-01-07 02:19:03.13	201.28	11.01	-58.4	-75.9	3.8	7.46e-01	0	28	104	1122500608	85	27387
2026-01-07 02:19:04.12	201.29	10.91	-58.3	-72.9	4.6	7.24e-01	0	27	104	1122500608	85	19212
2026-01-07 02:19:05.13	201.31	10.82	-58.3	-73.1	4.2	7.24e-01	0	27	104	1122500608	85	19788
2026-01-07 02:19:06.12	201.32	10.72	-58.3	-73.3	4.5	7.28e-01	0	28	104	1122500608	85	20238
2026-01-07 02:19:07.12	201.33	10.62	-58.3	-77.5	3.8	7.46e-01	0	27	104	1122500608	85	32571
2026-01-07 02:19:08.12	201.35	10.53	-58.3	-75.1	4.1	7.42e-01	0	27	104	1122500608	85	24872
2026-01-07 02:19:09.12	201.36	10.43	-58.3	-76.2	3.8	7.45e-01	0	27	104	1122500608	85	28050
2026-01-07 02:19:10.12	201.37	10.34	-58.2	-73.2	4.6	7.24e-01	0	28	104	1122500608	85	19890
2026-01-07 02:19:11.12	201.39	10.24	-58.3	-76.2	3.9	7.42e-01	0	28	104	1122500608	85	28034
2026-01-07 02:19:12.12	201.40	10.15	-58.2	-73.3	4.5	7.27e-01	0	28	104	1122500608	85	20169
2026-01-07 02:19:13.11	201.41	10.06	-58.2	-73.2	4.1	7.20e-01	0	27	104	1122500608	85	19990
2026-01-07 02:19:14.12	201.43	9.96	-58.2	-73.2	4.0	7.40e-01	0	28	104	1122500608	85	19842
2026-01-07 02:19:15.11	201.44	9.87	-58.1	-71.5	5.2	7.02e-01	0	28	0	1122500608	85	16491
2026-01-07 02:19:16.12	201.45	9.78	-58.1	-71.0	5.5	6.94e-01	16	27	0	1122500608	85	15458
2026-01-07 02:19:17.12	201.47	9.68	-58.1	-70.9	5.7	6.90e-01	90	28	0	1123549184	85	15231
2026-01-07 02:19:18.13	201.48	9.59	-58.1	-71.0	5.6	6.93e-01	41	28	0	1124597760	85	15462
2026-01-07 02:19:19.13	201.49	9.50	-58.0	-70.5	5.8	6.88e-01	53	28	0	1126170624	85	14675
2026-01-07 02:19:20.12	201.50	9.41	-58.2	-73.3	4.4	7.28e-01	0	27	104	1126694912	85	20201
2026-01-07 02:19:21.12	201.52	9.32	-58.2	-75.5	3.9	7.46e-01	0	27	104	1126694912	85	26122
2026-01-07 02:19:22.12	201.53	9.23	-58.1	-75.9	3.8	7.45e-01	0	28	104	1126694912	85	27375
2026-01-07 02:19:23.12	201.54	9.14	-58.1	-73.8	4.1	7.34e-01	0	28	104	1126694912	85	21394
2026-01-07 02:19:24.12	201.55	9.05	-58.2	-76.1	3.9	7.42e-01	0	28	104	1126694912	85	27864
2026-01-07 02:19:25.12	201.57	8.96	-58.1	-73.4	4.3	7.30e-01	0	28	104	1126694912	85	20502
2026-01-07 02:19:26.12	201.58	8.87	-58.1	-73.7	4.3	7.32e-01	0	28	104	1126694912	85	21252
2026-01-07 02:19:27.12	201.59	8.78	-58.1	-73.5	4.1	7.40e-01	0	28	104	1126694912	85	20581
2026-01-07 02:19:28.12	201.60	8.69	-58.1	-77.3	3.8	7.49e-01	0	28	104	1126694912	85	31893
2026-01-07 02:19:29.12	201.62	8.61	-58.1	-75.5	3.9	7.42e-01	0	27	104	1126694912	85	25865
2026-01-07 02:19:30.12	201.63	8.52	-58.0	-76.1	3.8	7.47e-01	0	28	104	1126694912	85	27824
2026-01-07 02:19:31.12	201.64	8.43	-58.0	-74.1	4.0	7.37e-01	0	28	104	1126694912	85	22144
2026-01-07 02:19:32.12	201.65	8.34	-58.1	-76.3	3.8	7.45e-01	0	28	104	1126694912	85	28542
