passes_logs/2026/01/07/R3.2S_Murmansk/R3.2S_Murmansk__20260107_013152_NOAA_21_JPSS-2_rec.log

#Pass ID: 20260107_013152_NOAA 21 (JPSS-2)
#Satellite: NOAA 21 (JPSS-2)
#Configuration: NOAA-21
#almurnet v.1.7.20251203
#Start time: 2026-01-07 01:31:53

#Version: 2.2.20231116
#Station: R3.2S_Murmansk
#Location: 33.079688 lon 68.888172 lat
#TLE: 1 54234U 22150A   26005.56767909  .00000152  00000+0  92756-4 0  9990
#TLE: 2 54234  98.7490 306.5820 0001036 340.2747  19.8389 14.19532370163472

#Time	Az	El	Level	Level2	SNR	BER	BlckErr	Temp	State	Recorded	gain1	gain2
2026-01-07 01:31:53.49	28.18	2.03	-57.8	-71.5	3.8	1.49e+00	0	25	0	0	82	16842
2026-01-07 01:31:54.48	28.17	2.10	-57.7	-71.5	3.8	1.49e+00	0	25	104	0	80	18817
2026-01-07 01:31:55.48	28.15	2.16	-57.7	-71.5	3.8	1.49e+00	0	25	104	0	80	18865
2026-01-07 01:31:56.48	28.13	2.22	-57.7	-71.5	3.8	1.49e+00	0	25	104	0	80	18884
2026-01-07 01:31:57.48	28.11	2.29	-57.7	-71.5	3.8	1.49e+00	0	25	104	0	80	18863
2026-01-07 01:31:58.48	28.10	2.35	-57.7	-71.5	3.8	1.49e+00	0	25	104	0	80	18873
2026-01-07 01:31:59.48	28.08	2.41	-57.8	-71.5	3.8	1.49e+00	0	25	104	0	80	18887
2026-01-07 01:32:00.48	28.06	2.48	-57.8	-71.5	3.8	1.49e+00	0	25	104	0	80	18877
2026-01-07 01:32:01.48	28.04	2.54	-57.8	-71.5	3.8	1.49e+00	0	25	104	0	80	18888
2026-01-07 01:32:02.48	28.02	2.61	-57.8	-71.5	3.8	1.49e+00	0	25	104	0	80	18847
2026-01-07 01:32:03.48	28.00	2.67	-57.8	-71.5	3.8	1.49e+00	0	25	104	0	80	18895
2026-01-07 01:32:04.47	27.99	2.74	-57.8	-71.5	3.8	1.49e+00	0	25	104	0	80	18909
2026-01-07 01:32:05.47	27.97	2.80	-57.7	-71.5	3.8	1.49e+00	0	25	104	0	80	18871
2026-01-07 01:32:06.47	27.95	2.87	-57.7	-71.5	3.8	1.49e+00	0	25	104	0	80	18888
2026-01-07 01:32:07.47	27.93	2.93	-57.7	-71.5	3.8	1.49e+00	0	26	104	0	80	18885
2026-01-07 01:32:08.47	27.91	3.00	-57.8	-71.5	3.8	1.49e+00	0	25	104	0	80	18823
2026-01-07 01:32:09.48	27.89	3.06	-57.7	-71.2	3.8	1.49e+00	0	25	104	0	80	18265
2026-01-07 01:32:10.48	27.87	3.13	-57.7	-70.9	3.8	1.49e+00	0	25	104	0	80	17574
2026-01-07 01:32:11.49	27.85	3.20	-57.7	-70.5	3.9	1.49e+00	0	25	104	0	80	16765
2026-01-07 01:32:12.48	27.83	3.26	-57.6	-69.9	3.9	1.49e+00	0	26	104	0	80	15668
2026-01-07 01:32:13.49	27.81	3.33	-57.6	-69.6	3.8	1.49e+00	0	26	104	0	80	15107
2026-01-07 01:32:14.49	27.79	3.39	-57.6	-69.4	3.9	1.49e+00	0	26	104	0	80	14794
2026-01-07 01:32:15.49	27.77	3.46	-57.6	-69.6	3.9	1.49e+00	0	26	104	0	80	15073
2026-01-07 01:32:16.48	27.75	3.53	-57.6	-69.5	3.9	1.49e+00	0	26	104	0	80	15022
2026-01-07 01:32:17.48	27.73	3.59	-57.6	-69.7	3.8	1.49e+00	0	26	104	0	80	15370
2026-01-07 01:32:18.48	27.71	3.66	-57.7	-69.6	3.9	1.48e+00	0	26	104	0	80	15170
2026-01-07 01:32:19.47	27.69	3.73	-57.7	-70.1	3.8	1.49e+00	0	26	104	0	80	16113
2026-01-07 01:32:20.46	27.67	3.79	-57.7	-70.5	3.8	1.49e+00	0	26	104	0	80	16851
2026-01-07 01:32:21.46	27.65	3.86	-57.7	-70.7	3.8	1.49e+00	0	26	104	0	80	17236
2026-01-07 01:32:22.46	27.63	3.93	-57.7	-71.0	3.8	1.49e+00	0	26	104	0	80	17861
2026-01-07 01:32:23.45	27.61	4.00	-57.7	-71.0	3.8	1.49e+00	0	26	104	0	80	17757
2026-01-07 01:32:24.45	27.59	4.06	-57.7	-70.6	3.8	1.49e+00	0	26	104	0	80	16931
2026-01-07 01:32:25.44	27.57	4.13	-57.6	-69.4	3.9	1.48e+00	0	26	104	0	80	14785
2026-01-07 01:32:26.45	27.55	4.20	-57.5	-67.4	4.4	1.47e+00	0	26	104	0	80	11732
2026-01-07 01:32:27.44	27.53	4.27	-57.2	-65.8	5.0	7.27e-01	0	26	0	0	80	9720
2026-01-07 01:32:28.44	27.51	4.34	-57.0	-64.3	5.9	3.22e-01	0	26	0	3145728	80	8209
2026-01-07 01:32:29.45	27.48	4.41	-56.8	-63.7	6.3	2.48e-01	0	26	0	6291456	80	7631
2026-01-07 01:32:30.45	27.46	4.47	-56.5	-62.4	7.3	1.35e-01	0	26	0	9437184	79	6987
2026-01-07 01:32:31.45	27.44	4.54	-56.1	-61.1	8.4	4.15e-02	0	26	0	12582912	78	6386
2026-01-07 01:32:32.44	27.42	4.61	-55.9	-60.6	8.9	1.53e-02	0	26	0	15728640	78	6051
2026-01-07 01:32:33.44	27.40	4.68	-55.8	-60.4	9.0	1.02e-02	0	26	0	18874368	78	5916
2026-01-07 01:32:34.44	27.37	4.75	-55.8	-60.3	9.2	1.01e-02	0	26	0	22020096	78	5789
2026-01-07 01:32:35.44	27.35	4.82	-55.6	-59.8	9.5	4.77e-03	0	26	0	25165824	77	5830
2026-01-07 01:32:36.44	27.33	4.89	-55.6	-59.9	9.4	5.81e-03	0	26	0	28311552	77	5910
2026-01-07 01:32:37.44	27.31	4.96	-55.6	-60.0	9.4	4.15e-03	0	26	0	31457280	77	5951
2026-01-07 01:32:38.45	27.29	5.03	-55.2	-58.7	10.6	2.72e-03	0	26	0	34603008	77	5154
2026-01-07 01:32:39.45	27.26	5.10	-54.0	-56.7	12.0	1.10e-02	0	26	0	37748736	74	4827
2026-01-07 01:32:40.44	27.24	5.17	-55.1	-58.9	10.4	0.00e+00	0	26	0	40894464	75	5901
2026-01-07 01:32:41.45	27.22	5.24	-56.4	-61.4	8.4	2.77e-01	0	26	0	42991616	79	6253
2026-01-07 01:32:42.44	27.19	5.31	-52.5	-54.6	13.1	2.20e-06	0	26	0	46137344	71	4508
2026-01-07 01:32:43.45	27.17	5.39	-54.6	-58.5	10.5	2.55e-02	0	26	0	49283072	76	5314
2026-01-07 01:32:44.44	27.15	5.46	-52.9	-55.1	12.8	0.00e+00	0	26	0	52428800	71	4766
2026-01-07 01:32:45.44	27.12	5.53	-52.5	-54.5	13.2	0.00e+00	0	26	0	55574528	71	4460
2026-01-07 01:32:46.45	27.10	5.60	-52.3	-54.3	13.3	0.00e+00	0	26	0	58720256	71	4377
2026-01-07 01:32:47.45	27.08	5.67	-52.3	-54.3	13.4	0.00e+00	0	26	0	61865984	71	4375
2026-01-07 01:32:48.45	27.05	5.75	-52.4	-54.4	13.3	0.00e+00	0	26	0	65011712	71	4421
2026-01-07 01:32:49.45	27.03	5.82	-52.4	-54.4	13.3	0.00e+00	0	26	0	68157440	71	4400
2026-01-07 01:32:50.44	27.00	5.89	-52.2	-54.2	13.4	0.00e+00	0	26	0	71303168	71	4300
2026-01-07 01:32:51.44	26.98	5.96	-52.5	-54.5	13.3	0.00e+00	0	26	0	74448896	71	4445
2026-01-07 01:32:52.44	26.96	6.04	-52.5	-54.4	13.3	0.00e+00	0	26	0	77594624	71	4438
2026-01-07 01:32:53.44	26.93	6.11	-52.4	-54.4	13.3	0.00e+00	0	26	0	80740352	71	4424
2026-01-07 01:32:54.44	26.91	6.18	-52.2	-54.1	13.5	0.00e+00	0	26	0	83886080	71	4287
2026-01-07 01:32:55.44	26.88	6.26	-51.9	-53.8	13.6	0.00e+00	0	26	0	87031808	70	4358
2026-01-07 01:32:56.44	26.86	6.33	-51.6	-53.4	13.7	0.00e+00	0	26	0	90177536	69	4407
2026-01-07 01:32:57.43	26.83	6.40	-51.8	-53.5	13.6	0.00e+00	0	26	0	93323264	69	4492
2026-01-07 01:32:58.44	26.81	6.48	-51.6	-53.4	13.7	0.00e+00	0	26	0	96468992	69	4395
2026-01-07 01:32:59.44	26.78	6.55	-51.6	-53.4	13.7	0.00e+00	0	26	0	99614720	69	4405
2026-01-07 01:33:00.44	26.75	6.63	-51.9	-53.7	13.6	0.00e+00	0	26	0	102760448	69	4551
2026-01-07 01:33:01.44	26.73	6.70	-51.6	-53.3	13.8	0.00e+00	0	26	0	105906176	69	4358
2026-01-07 01:33:02.44	26.70	6.78	-51.6	-53.3	13.8	0.00e+00	0	26	0	109051904	69	4366
2026-01-07 01:33:03.45	26.68	6.85	-51.6	-53.4	13.8	0.00e+00	0	27	0	112197632	69	4399
2026-01-07 01:33:04.45	26.65	6.93	-51.5	-53.2	13.8	0.00e+00	0	27	0	115343360	69	4312
2026-01-07 01:33:05.45	26.62	7.00	-51.4	-53.1	13.9	0.00e+00	0	26	0	118489088	69	4273
2026-01-07 01:33:06.45	26.60	7.08	-51.6	-53.3	13.8	0.00e+00	0	27	0	121634816	69	4358
2026-01-07 01:33:07.45	26.57	7.16	-51.6	-53.3	13.8	0.00e+00	0	27	0	124780544	69	4353
2026-01-07 01:33:08.45	26.54	7.23	-51.2	-52.9	14.0	0.00e+00	0	27	0	127926272	69	4158
2026-01-07 01:33:09.45	26.52	7.31	-51.3	-53.0	13.9	0.00e+00	0	27	0	131072000	68	4458
2026-01-07 01:33:10.45	26.49	7.39	-51.3	-52.9	13.9	0.00e+00	0	27	0	134217728	68	4436
2026-01-07 01:33:11.45	26.46	7.46	-51.1	-52.7	14.0	0.00e+00	0	27	0	137363456	68	4340
2026-01-07 01:33:12.45	26.43	7.54	-51.1	-52.7	14.0	0.00e+00	0	27	0	140509184	68	4333
2026-01-07 01:33:13.45	26.41	7.62	-51.0	-52.6	14.1	0.00e+00	0	27	0	143654912	68	4259
2026-01-07 01:33:14.45	26.38	7.69	-51.2	-52.8	14.0	0.00e+00	0	27	0	146800640	68	4356
2026-01-07 01:33:15.45	26.35	7.77	-51.2	-52.8	14.0	0.00e+00	0	27	0	149946368	68	4350
2026-01-07 01:33:16.45	26.32	7.85	-51.1	-52.7	14.0	0.00e+00	0	27	0	153092096	68	4325
2026-01-07 01:33:17.45	26.29	7.93	-51.3	-52.9	13.9	0.00e+00	0	27	0	156237824	68	4408
2026-01-07 01:33:18.44	26.27	8.01	-51.1	-52.6	14.1	0.00e+00	0	27	0	159383552	68	4286
2026-01-07 01:33:19.44	26.24	8.09	-51.0	-52.5	14.1	0.00e+00	0	27	0	162529280	68	4235
2026-01-07 01:33:20.44	26.21	8.16	-51.0	-52.5	14.1	0.00e+00	0	27	0	165675008	68	4220
2026-01-07 01:33:21.44	26.18	8.24	-51.0	-52.5	14.1	0.00e+00	0	27	0	168820736	68	4234
2026-01-07 01:33:22.44	26.15	8.32	-51.0	-52.5	14.1	0.00e+00	0	27	0	171966464	68	4240
2026-01-07 01:33:23.43	26.12	8.40	-50.9	-52.4	14.2	0.00e+00	0	27	0	175112192	68	4174
2026-01-07 01:33:24.43	26.09	8.48	-50.9	-52.4	14.2	0.00e+00	0	27	0	178257920	68	4177
2026-01-07 01:33:25.42	26.06	8.56	-50.9	-52.4	14.2	0.00e+00	0	27	0	180355072	68	4178
2026-01-07 01:33:26.43	26.03	8.64	-50.8	-52.3	14.2	0.00e+00	0	27	0	183500800	68	4125
2026-01-07 01:33:27.42	26.00	8.72	-50.9	-52.4	14.2	0.00e+00	0	27	0	186646528	68	4185
2026-01-07 01:33:28.42	25.97	8.80	-50.9	-52.4	14.2	0.00e+00	0	27	0	189792256	68	4165
2026-01-07 01:33:29.42	25.94	8.89	-50.8	-52.3	14.2	0.00e+00	0	27	0	192937984	68	4145
2026-01-07 01:33:30.42	25.91	8.97	-50.8	-52.3	14.3	0.00e+00	0	27	0	196083712	68	4126
2026-01-07 01:33:31.43	25.88	9.05	-50.7	-52.2	14.3	0.00e+00	0	27	0	199229440	68	4069
2026-01-07 01:33:32.43	25.85	9.13	-50.8	-52.3	14.3	0.00e+00	0	27	0	202375168	68	4112
2026-01-07 01:33:33.42	25.81	9.21	-50.7	-52.2	14.3	0.00e+00	0	27	0	205520896	68	4072
2026-01-07 01:33:34.42	25.78	9.30	-50.7	-52.2	14.3	0.00e+00	0	27	0	208666624	68	4069
2026-01-07 01:33:35.42	25.75	9.38	-50.7	-52.2	14.3	0.00e+00	0	27	0	211812352	68	4093
2026-01-07 01:33:36.42	25.72	9.46	-50.8	-52.3	14.2	0.00e+00	0	27	0	214958080	68	4116
2026-01-07 01:33:37.42	25.69	9.55	-50.8	-52.3	14.2	0.00e+00	0	27	0	218103808	68	4135
2026-01-07 01:33:38.42	25.65	9.63	-50.7	-52.2	14.3	0.00e+00	0	27	0	221249536	68	4089
2026-01-07 01:33:39.43	25.62	9.71	-50.3	-51.8	14.4	0.00e+00	0	27	0	224395264	67	4104
2026-01-07 01:33:40.42	25.59	9.80	-50.4	-51.9	14.3	0.00e+00	0	27	0	227540992	67	4173
2026-01-07 01:33:41.42	25.56	9.88	-50.3	-51.8	14.4	0.00e+00	0	27	0	230686720	67	4107
2026-01-07 01:33:42.42	25.52	9.97	-50.2	-51.7	14.4	0.00e+00	0	27	0	233832448	67	4062
2026-01-07 01:33:43.41	25.49	10.05	-50.3	-51.7	14.4	0.00e+00	0	27	0	236978176	67	4085
2026-01-07 01:33:44.42	25.46	10.14	-50.2	-51.7	14.4	0.00e+00	0	27	0	240123904	67	4054
2026-01-07 01:33:45.42	25.42	10.22	-50.3	-51.7	14.4	0.00e+00	0	27	0	243269632	67	4071
2026-01-07 01:33:46.42	25.39	10.31	-50.2	-51.6	14.4	0.00e+00	0	27	0	246415360	67	4049
2026-01-07 01:33:47.42	25.35	10.39	-50.1	-51.5	14.3	0.00e+00	0	27	0	249561088	66	4241
2026-01-07 01:33:48.42	25.32	10.48	-50.2	-51.7	14.3	0.00e+00	0	27	0	252706816	66	4294
2026-01-07 01:33:49.42	25.28	10.57	-50.1	-51.5	14.4	0.00e+00	0	27	0	255852544	66	4227
2026-01-07 01:33:50.42	25.25	10.65	-50.2	-51.6	14.3	0.00e+00	0	27	0	258998272	66	4254
2026-01-07 01:33:51.42	25.21	10.74	-50.1	-51.5	14.4	0.00e+00	0	27	0	262144000	66	4230
2026-01-07 01:33:52.42	25.18	10.83	-50.0	-51.4	14.4	0.00e+00	0	27	0	265289728	66	4186
2026-01-07 01:33:53.42	25.14	10.92	-50.0	-51.4	14.4	0.00e+00	0	27	0	268435456	66	4178
2026-01-07 01:33:54.42	25.11	11.01	-49.9	-51.3	14.5	0.00e+00	0	27	0	271581184	66	4131
2026-01-07 01:33:55.42	25.07	11.09	-50.0	-51.4	14.4	0.00e+00	0	27	0	274726912	66	4167
2026-01-07 01:33:56.42	25.03	11.18	-50.0	-51.3	14.4	0.00e+00	0	27	0	277872640	66	4140
2026-01-07 01:33:57.43	25.00	11.27	-49.8	-51.2	14.5	0.00e+00	0	27	0	281018368	66	4075
2026-01-07 01:33:58.43	24.96	11.36	-49.9	-51.2	14.5	0.00e+00	0	27	0	284164096	66	4085
2026-01-07 01:33:59.43	24.92	11.45	-49.9	-51.2	14.5	0.00e+00	0	27	0	287309824	66	4084
2026-01-07 01:34:00.43	24.88	11.54	-49.8	-51.2	14.5	0.00e+00	0	27	0	290455552	66	4062
2026-01-07 01:34:01.43	24.85	11.63	-49.8	-51.2	14.5	0.00e+00	0	27	0	293601280	66	4054
2026-01-07 01:34:02.43	24.81	11.72	-49.8	-51.1	14.6	0.00e+00	0	27	0	296747008	66	4035
2026-01-07 01:34:03.42	24.77	11.81	-49.6	-51.0	14.5	0.00e+00	0	27	0	299892736	65	4210
2026-01-07 01:34:04.42	24.73	11.90	-49.8	-51.2	14.4	0.00e+00	0	27	0	303038464	65	4314
2026-01-07 01:34:05.42	24.69	12.00	-49.6	-50.9	14.5	0.00e+00	0	27	0	306184192	65	4175
2026-01-07 01:34:06.42	24.65	12.09	-49.6	-50.9	14.5	0.00e+00	0	27	0	309329920	65	4184
2026-01-07 01:34:07.42	24.61	12.18	-49.5	-50.9	14.5	0.00e+00	0	27	0	312475648	65	4156
2026-01-07 01:34:08.42	24.57	12.27	-49.6	-51.0	14.5	0.00e+00	0	27	0	315621376	65	4205
2026-01-07 01:34:09.43	24.53	12.37	-49.5	-50.8	14.6	0.00e+00	0	27	0	318767104	65	4132
2026-01-07 01:34:10.44	24.49	12.46	-49.5	-50.8	14.6	0.00e+00	0	27	0	321912832	65	4113
2026-01-07 01:34:11.44	24.45	12.56	-49.5	-50.8	14.6	0.00e+00	0	27	0	325058560	65	4113
2026-01-07 01:34:12.45	24.41	12.65	-49.5	-50.8	14.6	0.00e+00	0	27	0	328204288	65	4145
2026-01-07 01:34:13.45	24.37	12.74	-49.4	-50.7	14.6	0.00e+00	0	27	0	331350016	65	4092
2026-01-07 01:34:14.45	24.33	12.84	-49.4	-50.7	14.6	0.00e+00	0	27	0	334495744	65	4061
2026-01-07 01:34:15.45	24.29	12.93	-49.5	-50.8	14.6	0.00e+00	0	27	0	337641472	65	4120
2026-01-07 01:34:16.45	24.25	13.03	-49.4	-50.7	14.6	0.00e+00	0	27	0	340787200	65	4091
2026-01-07 01:34:17.44	24.20	13.13	-49.4	-50.7	14.6	0.00e+00	0	27	0	343932928	65	4095
2026-01-07 01:34:18.44	24.16	13.22	-49.4	-50.7	14.6	0.00e+00	0	27	0	347078656	65	4094
2026-01-07 01:34:19.44	24.12	13.32	-49.5	-50.8	14.6	0.00e+00	0	27	0	350224384	65	4144
2026-01-07 01:34:20.45	24.07	13.42	-49.5	-50.8	14.6	0.00e+00	0	27	0	353370112	65	4127
2026-01-07 01:34:21.44	24.03	13.51	-49.4	-50.7	14.6	0.00e+00	0	27	0	356515840	65	4087
2026-01-07 01:34:22.44	23.99	13.61	-49.4	-50.7	14.6	0.00e+00	0	27	0	359661568	65	4086
2026-01-07 01:34:23.43	23.94	13.71	-49.3	-50.6	14.7	0.00e+00	0	27	0	361758720	65	4029
2026-01-07 01:34:24.43	23.90	13.81	-49.4	-50.7	14.6	0.00e+00	0	27	0	364904448	65	4058
2026-01-07 01:34:25.43	23.86	13.90	-49.5	-50.8	14.6	0.00e+00	0	27	0	368050176	65	4110
2026-01-07 01:34:26.42	23.81	14.00	-49.3	-50.6	14.7	0.00e+00	0	27	0	371195904	65	4040
2026-01-07 01:34:27.42	23.77	14.10	-49.3	-50.6	14.6	0.00e+00	0	27	0	374341632	65	4046
2026-01-07 01:34:28.42	23.72	14.20	-49.3	-50.6	14.7	0.00e+00	0	27	0	377487360	65	4019
2026-01-07 01:34:29.41	23.67	14.30	-49.4	-50.7	14.6	0.00e+00	0	27	0	380633088	65	4057
2026-01-07 01:34:30.41	23.63	14.40	-49.3	-50.6	14.7	0.00e+00	0	27	0	383778816	65	4022
2026-01-07 01:34:31.41	23.58	14.50	-49.3	-50.6	14.7	0.00e+00	0	27	0	386924544	65	4007
2026-01-07 01:34:32.41	23.53	14.60	-49.3	-50.6	14.7	0.00e+00	0	27	0	390070272	65	4005
2026-01-07 01:34:33.41	23.49	14.71	-49.3	-50.6	14.7	0.00e+00	0	27	0	393216000	65	4008
2026-01-07 01:34:34.40	23.44	14.81	-49.3	-50.5	14.7	0.00e+00	0	27	0	396361728	65	3991
2026-01-07 01:34:35.40	23.39	14.91	-49.3	-50.6	14.7	0.00e+00	0	27	0	399507456	65	4022
2026-01-07 01:34:36.40	23.34	15.01	-49.3	-50.6	14.7	0.00e+00	0	27	0	402653184	65	4038
2026-01-07 01:34:37.40	23.29	15.12	-49.4	-50.6	14.7	0.00e+00	0	27	0	405798912	65	4047
2026-01-07 01:34:38.40	23.24	15.22	-49.3	-50.6	14.7	0.00e+00	0	27	0	408944640	65	4013
2026-01-07 01:34:39.41	23.19	15.33	-49.2	-50.5	14.7	0.00e+00	0	27	0	412090368	65	3982
2026-01-07 01:34:40.41	23.14	15.43	-49.2	-50.5	14.7	0.00e+00	0	27	0	415236096	65	3986
2026-01-07 01:34:41.41	23.09	15.54	-49.3	-50.6	14.7	0.00e+00	0	27	0	418381824	65	4023
2026-01-07 01:34:42.41	23.04	15.64	-49.3	-50.5	14.7	0.00e+00	0	27	0	421527552	65	4001
2026-01-07 01:34:43.40	22.99	15.75	-49.3	-50.6	14.7	0.00e+00	0	27	0	424673280	65	4039
2026-01-07 01:34:44.40	22.94	15.85	-49.3	-50.6	14.7	0.00e+00	0	27	0	427819008	65	4016
2026-01-07 01:34:45.41	22.89	15.96	-49.2	-50.5	14.7	0.00e+00	0	27	0	430964736	65	3971
2026-01-07 01:34:46.41	22.84	16.07	-49.3	-50.6	14.7	0.00e+00	0	27	0	434110464	65	4009
2026-01-07 01:34:47.41	22.78	16.18	-49.3	-50.5	14.7	0.00e+00	0	27	0	437256192	65	3993
2026-01-07 01:34:48.41	22.73	16.29	-49.2	-50.5	14.7	0.00e+00	0	27	0	440401920	65	3980
2026-01-07 01:34:49.42	22.68	16.40	-49.2	-50.5	14.7	0.00e+00	0	27	0	443547648	65	3982
2026-01-07 01:34:50.42	22.62	16.51	-49.2	-50.5	14.7	0.00e+00	0	27	0	446693376	65	3970
2026-01-07 01:34:51.43	22.57	16.62	-49.3	-50.6	14.7	0.00e+00	0	27	0	449839104	65	4016
2026-01-07 01:34:52.43	22.51	16.73	-49.3	-50.5	14.7	0.00e+00	0	27	0	452984832	65	4002
2026-01-07 01:34:53.43	22.46	16.84	-49.3	-50.5	14.7	0.00e+00	0	27	0	456130560	65	3999
2026-01-07 01:34:54.43	22.40	16.95	-49.4	-50.6	14.7	0.00e+00	0	27	0	459276288	65	4050
2026-01-07 01:34:55.43	22.35	17.06	-49.3	-50.6	14.7	0.00e+00	0	27	0	462422016	65	4008
2026-01-07 01:34:56.43	22.29	17.17	-49.4	-50.7	14.6	0.00e+00	0	27	0	465567744	65	4072
2026-01-07 01:34:57.43	22.23	17.28	-49.4	-50.7	14.6	0.00e+00	0	27	0	468713472	65	4079
2026-01-07 01:34:58.42	22.17	17.40	-49.4	-50.7	14.6	0.00e+00	0	27	0	471859200	65	4079
2026-01-07 01:34:59.43	22.12	17.51	-49.6	-50.9	14.6	0.00e+00	0	27	0	475004928	65	4146
2026-01-07 01:35:00.43	22.06	17.63	-49.5	-50.8	14.6	0.00e+00	0	27	0	478150656	65	4131
2026-01-07 01:35:01.43	22.00	17.74	-49.6	-51.0	14.5	0.00e+00	0	27	0	481296384	65	4198
2026-01-07 01:35:02.43	21.94	17.86	-49.7	-51.0	14.5	0.00e+00	0	27	0	484442112	65	4230
2026-01-07 01:35:03.44	21.88	17.97	-49.7	-51.0	14.5	0.00e+00	0	27	0	487587840	65	4206
2026-01-07 01:35:04.44	21.82	18.09	-49.7	-51.0	14.5	0.00e+00	0	27	0	490733568	65	4232
2026-01-07 01:35:05.44	21.76	18.20	-49.7	-51.0	14.5	0.00e+00	0	27	0	493879296	65	4217
2026-01-07 01:35:06.44	21.70	18.32	-49.8	-51.1	14.5	0.00e+00	0	27	0	497025024	65	4264
2026-01-07 01:35:07.44	21.63	18.44	-49.8	-51.1	14.5	0.00e+00	0	27	0	500170752	65	4268
2026-01-07 01:35:08.44	21.57	18.56	-49.8	-51.2	14.5	0.00e+00	0	27	0	503316480	65	4313
2026-01-07 01:35:09.44	21.51	18.68	-49.7	-51.0	14.5	0.00e+00	0	27	0	506462208	65	4228
2026-01-07 01:35:10.44	21.45	18.80	-49.7	-51.0	14.5	0.00e+00	0	27	0	509607936	65	4221
2026-01-07 01:35:11.44	21.38	18.92	-49.7	-51.1	14.5	0.00e+00	0	27	0	512753664	65	4243
2026-01-07 01:35:12.44	21.32	19.04	-49.6	-50.9	14.6	0.00e+00	0	27	0	515899392	65	4187
2026-01-07 01:35:13.44	21.25	19.16	-49.6	-50.9	14.6	0.00e+00	0	27	0	517996544	65	4170
2026-01-07 01:35:14.44	21.19	19.28	-49.6	-50.9	14.6	0.00e+00	0	27	0	521142272	65	4191
2026-01-07 01:35:15.43	21.12	19.40	-49.6	-50.9	14.6	0.00e+00	0	27	0	524288000	65	4190
2026-01-07 01:35:16.44	21.05	19.52	-49.4	-50.7	14.6	0.00e+00	0	27	0	527433728	65	4082
2026-01-07 01:35:17.43	20.99	19.64	-49.5	-50.8	14.6	0.00e+00	0	27	0	530579456	65	4116
2026-01-07 01:35:18.44	20.92	19.77	-49.5	-50.8	14.6	0.00e+00	0	27	0	533725184	65	4131
2026-01-07 01:35:19.43	20.85	19.89	-49.4	-50.7	14.6	0.00e+00	0	27	0	536870912	65	4075
2026-01-07 01:35:20.43	20.78	20.02	-49.3	-50.5	14.7	0.00e+00	0	27	0	540016640	65	4002
2026-01-07 01:35:21.42	20.71	20.14	-49.1	-50.4	14.7	0.00e+00	0	27	0	543162368	64	4155
2026-01-07 01:35:22.41	20.64	20.27	-49.2	-50.4	14.7	0.00e+00	0	27	0	546308096	64	4173
2026-01-07 01:35:23.41	20.57	20.39	-49.1	-50.4	14.7	0.00e+00	0	27	0	549453824	64	4166
2026-01-07 01:35:24.41	20.50	20.52	-49.0	-50.2	14.7	0.00e+00	0	27	0	552599552	64	4061
2026-01-07 01:35:25.39	20.43	20.64	-49.0	-50.2	14.7	0.00e+00	0	27	0	555745280	64	4075
2026-01-07 01:35:26.39	20.36	20.77	-49.0	-50.2	14.7	0.00e+00	0	27	0	558891008	64	4071
2026-01-07 01:35:27.39	20.29	20.90	-48.8	-50.1	14.8	0.00e+00	0	27	0	562036736	64	4008
2026-01-07 01:35:28.39	20.21	21.03	-48.8	-50.0	14.8	0.00e+00	0	27	0	565182464	64	3977
2026-01-07 01:35:29.40	20.14	21.16	-48.8	-50.0	14.8	0.00e+00	0	27	0	568328192	64	3991
2026-01-07 01:35:30.39	20.06	21.29	-48.7	-49.9	14.7	0.00e+00	0	27	0	571473920	63	4160
2026-01-07 01:35:31.39	19.99	21.42	-48.7	-49.9	14.7	0.00e+00	0	27	0	574619648	63	4156
2026-01-07 01:35:32.39	19.91	21.56	-48.6	-49.8	14.8	0.00e+00	0	27	0	577765376	63	4125
2026-01-07 01:35:33.39	19.83	21.69	-48.7	-49.9	14.7	0.00e+00	0	27	0	580911104	63	4151
2026-01-07 01:35:34.39	19.75	21.82	-48.5	-49.7	14.8	0.00e+00	0	27	0	584056832	63	4076
2026-01-07 01:35:35.39	19.68	21.96	-48.6	-49.8	14.8	0.00e+00	0	27	0	587202560	63	4102
2026-01-07 01:35:36.39	19.60	22.09	-48.4	-49.6	14.8	0.00e+00	0	27	0	590348288	63	4037
2026-01-07 01:35:37.39	19.52	22.23	-48.6	-49.8	14.8	0.00e+00	0	27	0	593494016	63	4113
2026-01-07 01:35:38.38	19.44	22.36	-48.4	-49.6	14.8	0.00e+00	0	27	0	596639744	63	4014
2026-01-07 01:35:39.38	19.35	22.50	-48.4	-49.6	14.9	0.00e+00	0	27	0	599785472	63	4012
2026-01-07 01:35:40.38	19.27	22.63	-48.3	-49.4	14.9	0.00e+00	0	27	0	602931200	63	3954
2026-01-07 01:35:41.37	19.19	22.77	-48.3	-49.5	14.9	0.00e+00	0	27	0	606076928	63	3972
2026-01-07 01:35:42.38	19.10	22.91	-48.3	-49.5	14.9	0.00e+00	0	27	0	609222656	63	3979
2026-01-07 01:35:43.37	19.02	23.05	-48.3	-49.5	14.9	0.00e+00	0	27	0	612368384	63	3960
2026-01-07 01:35:44.37	18.94	23.19	-48.1	-49.3	14.8	0.00e+00	0	27	0	615514112	62	4111
2026-01-07 01:35:45.38	18.85	23.33	-48.2	-49.3	14.8	0.00e+00	0	27	0	618659840	62	4123
2026-01-07 01:35:46.36	18.76	23.47	-48.2	-49.3	14.8	0.00e+00	0	27	0	621805568	62	4145
2026-01-07 01:35:47.36	18.67	23.61	-48.2	-49.4	14.8	0.00e+00	0	27	0	624951296	62	4177
2026-01-07 01:35:48.36	18.59	23.75	-48.3	-49.4	14.8	0.00e+00	0	27	0	628097024	62	4184
2026-01-07 01:35:49.37	18.50	23.90	-48.3	-49.4	14.8	0.00e+00	0	27	0	630194176	62	4186
2026-01-07 01:35:50.37	18.41	24.04	-48.3	-49.4	14.8	0.00e+00	0	27	0	633339904	62	4181
2026-01-07 01:35:51.37	18.31	24.19	-48.3	-49.5	14.8	0.00e+00	0	27	0	636485632	62	4212
2026-01-07 01:35:52.37	18.22	24.33	-48.4	-49.6	14.7	0.00e+00	0	27	0	639631360	62	4246
2026-01-07 01:35:53.37	18.13	24.48	-48.4	-49.6	14.7	0.00e+00	0	27	0	642777088	62	4259
2026-01-07 01:35:54.38	18.03	24.63	-48.5	-49.7	14.7	0.00e+00	0	27	0	645922816	62	4321
2026-01-07 01:35:55.37	17.94	24.77	-48.6	-49.8	14.7	0.00e+00	0	27	0	649068544	62	4352
2026-01-07 01:35:56.37	17.84	24.92	-48.5	-49.7	14.7	0.00e+00	0	27	0	652214272	62	4294
2026-01-07 01:35:57.38	17.75	25.07	-48.5	-49.7	14.7	0.00e+00	0	27	0	655360000	62	4307
2026-01-07 01:35:58.38	17.65	25.22	-48.4	-49.6	14.7	0.00e+00	0	27	0	658505728	62	4268
2026-01-07 01:35:59.38	17.55	25.37	-48.6	-49.8	14.7	0.00e+00	0	27	0	661651456	62	4347
2026-01-07 01:36:00.37	17.45	25.52	-48.6	-49.8	14.7	0.00e+00	0	27	0	664797184	62	4352
2026-01-07 01:36:01.38	17.35	25.68	-48.7	-49.9	14.6	0.00e+00	0	27	0	667942912	62	4414
2026-01-07 01:36:02.37	17.25	25.83	-48.7	-49.9	14.6	0.00e+00	0	27	0	671088640	62	4428
2026-01-07 01:36:03.37	17.15	25.98	-48.8	-50.0	14.6	0.00e+00	0	27	0	674234368	62	4476
2026-01-07 01:36:04.38	17.04	26.14	-48.9	-50.2	14.6	0.00e+00	0	27	0	677380096	63	4296
2026-01-07 01:36:05.38	16.94	26.30	-49.0	-50.2	14.6	0.00e+00	0	27	0	680525824	63	4303
2026-01-07 01:36:06.39	16.83	26.45	-49.0	-50.2	14.6	0.00e+00	0	27	0	683671552	63	4325
2026-01-07 01:36:07.39	16.72	26.61	-49.1	-50.3	14.6	0.00e+00	0	27	0	686817280	63	4376
2026-01-07 01:36:08.39	16.61	26.77	-49.2	-50.4	14.6	0.00e+00	0	27	0	689963008	63	4441
2026-01-07 01:36:09.39	16.50	26.93	-49.4	-50.6	14.5	0.00e+00	0	27	0	693108736	63	4532
2026-01-07 01:36:10.40	16.39	27.09	-49.4	-50.6	14.6	0.00e+00	0	27	0	696254464	64	4291
2026-01-07 01:36:11.40	16.28	27.25	-49.5	-50.8	14.5	0.00e+00	0	27	0	699400192	64	4369
2026-01-07 01:36:12.40	16.17	27.41	-49.6	-50.8	14.5	0.00e+00	0	27	0	702545920	64	4390
2026-01-07 01:36:13.40	16.06	27.57	-49.6	-50.9	14.5	0.00e+00	0	27	0	705691648	64	4435
2026-01-07 01:36:14.40	15.94	27.73	-49.7	-51.1	14.4	0.00e+00	0	27	0	708837376	64	4495
2026-01-07 01:36:15.41	15.82	27.90	-49.7	-51.0	14.4	0.00e+00	0	27	0	711983104	64	4482
2026-01-07 01:36:16.41	15.71	28.06	-49.7	-51.0	14.4	0.00e+00	0	27	0	715128832	64	4485
2026-01-07 01:36:17.40	15.59	28.23	-49.7	-51.0	14.5	0.00e+00	0	27	0	718274560	64	4469
2026-01-07 01:36:18.41	15.47	28.40	-49.8	-51.1	14.4	0.00e+00	0	27	0	721420288	64	4529
2026-01-07 01:36:19.41	15.34	28.56	-49.8	-51.1	14.4	0.00e+00	0	27	0	724566016	64	4499
2026-01-07 01:36:20.41	15.22	28.73	-49.9	-51.2	14.4	0.00e+00	0	27	0	727711744	64	4556
2026-01-07 01:36:21.41	15.10	28.90	-49.7	-51.0	14.5	0.00e+00	0	27	0	730857472	64	4481
2026-01-07 01:36:22.41	14.97	29.07	-49.6	-50.8	14.5	0.00e+00	0	27	0	734003200	64	4384
2026-01-07 01:36:23.41	14.85	29.24	-49.6	-50.9	14.5	0.00e+00	0	27	0	737148928	64	4398
2026-01-07 01:36:24.41	14.72	29.41	-49.5	-50.7	14.6	0.00e+00	0	27	0	740294656	64	4325
2026-01-07 01:36:25.41	14.59	29.58	-49.4	-50.6	14.6	0.00e+00	0	27	0	743440384	64	4267
2026-01-07 01:36:26.40	14.46	29.75	-49.2	-50.4	14.7	0.00e+00	0	27	0	746586112	64	4163
2026-01-07 01:36:27.40	14.33	29.93	-49.0	-50.3	14.7	0.00e+00	0	27	0	749731840	64	4101
2026-01-07 01:36:28.40	14.19	30.10	-49.0	-50.2	14.7	0.00e+00	0	27	0	752877568	64	4092
2026-01-07 01:36:29.40	14.06	30.28	-49.0	-50.2	14.8	0.00e+00	0	27	0	756023296	64	4057
2026-01-07 01:36:30.40	13.92	30.45	-48.9	-50.1	14.8	0.00e+00	0	27	0	759169024	64	4040
2026-01-07 01:36:31.40	13.78	30.63	-49.1	-50.2	14.7	0.00e+00	0	27	0	762314752	64	4096
2026-01-07 01:36:32.40	13.64	30.81	-49.1	-50.3	14.7	0.00e+00	0	27	0	765460480	64	4141
2026-01-07 01:36:33.40	13.50	30.99	-49.2	-50.4	14.7	0.00e+00	0	27	0	768606208	64	4182
2026-01-07 01:36:34.40	13.36	31.17	-49.2	-50.5	14.7	0.00e+00	0	27	0	771751936	64	4209
2026-01-07 01:36:35.40	13.21	31.35	-49.3	-50.5	14.7	0.00e+00	0	27	0	774897664	64	4212
2026-01-07 01:36:36.40	13.07	31.53	-49.3	-50.5	14.6	0.00e+00	0	27	0	778043392	64	4229
2026-01-07 01:36:37.40	12.92	31.72	-49.2	-50.5	14.7	0.00e+00	0	27	0	781189120	64	4196
2026-01-07 01:36:38.40	12.77	31.90	-49.2	-50.4	14.7	0.00e+00	0	27	0	784334848	64	4167
2026-01-07 01:36:39.40	12.62	32.08	-49.3	-50.5	14.6	0.00e+00	0	27	0	787480576	64	4235
2026-01-07 01:36:40.39	12.46	32.27	-49.1	-50.4	14.7	0.00e+00	0	27	0	790626304	64	4149
2026-01-07 01:36:41.40	12.31	32.46	-49.2	-50.4	14.7	0.00e+00	0	27	0	793772032	64	4168
2026-01-07 01:36:42.38	12.15	32.64	-49.2	-50.4	14.7	0.00e+00	0	27	0	796917760	64	4179
2026-01-07 01:36:43.38	11.99	32.83	-49.3	-50.5	14.6	0.00e+00	0	27	0	799014912	64	4235
2026-01-07 01:36:44.38	11.83	33.02	-49.4	-50.6	14.6	0.00e+00	0	28	0	802160640	64	4290
2026-01-07 01:36:45.38	11.67	33.21	-49.5	-50.8	14.6	0.00e+00	0	27	0	805306368	64	4343
2026-01-07 01:36:46.38	11.51	33.40	-49.6	-50.9	14.5	0.00e+00	0	27	0	809500672	64	4416
2026-01-07 01:36:47.39	11.34	33.59	-49.8	-51.1	14.5	0.00e+00	0	27	0	811597824	64	4494
2026-01-07 01:36:48.38	11.17	33.79	-49.8	-51.1	14.4	0.00e+00	0	27	0	814743552	64	4504
2026-01-07 01:36:49.38	11.00	33.98	-49.9	-51.2	14.4	0.00e+00	0	27	0	817889280	64	4567
2026-01-07 01:36:50.38	10.83	34.17	-50.0	-51.3	14.5	0.00e+00	0	27	0	821035008	65	4382
2026-01-07 01:36:51.38	10.65	34.37	-50.1	-51.4	14.4	0.00e+00	0	27	0	824180736	65	4425
2026-01-07 01:36:52.38	10.47	34.57	-50.2	-51.5	14.4	0.00e+00	0	28	0	827326464	65	4488
2026-01-07 01:36:53.39	10.29	34.77	-50.3	-51.7	14.3	0.00e+00	0	27	0	830472192	65	4550
2026-01-07 01:36:54.38	10.11	34.96	-50.5	-51.9	14.4	0.00e+00	0	27	0	833617920	66	4402
2026-01-07 01:36:55.38	9.93	35.16	-50.6	-52.0	14.3	0.00e+00	0	27	0	836763648	66	4472
2026-01-07 01:36:56.38	9.74	35.36	-50.8	-52.2	14.2	0.00e+00	0	27	0	839909376	66	4555
2026-01-07 01:36:57.37	9.56	35.56	-51.0	-52.4	14.2	0.00e+00	0	27	0	843055104	67	4429
2026-01-07 01:36:58.37	9.36	35.76	-51.1	-52.5	14.2	0.00e+00	0	28	0	846200832	67	4467
2026-01-07 01:36:59.37	9.17	35.97	-51.2	-52.7	14.2	0.00e+00	0	27	0	849346560	67	4564
2026-01-07 01:37:00.36	8.98	36.17	-51.1	-52.6	14.2	0.00e+00	0	27	0	852492288	67	4513
2026-01-07 01:37:01.36	8.78	36.38	-51.1	-52.5	14.2	0.00e+00	0	27	0	855638016	67	4468
2026-01-07 01:37:02.37	8.58	36.58	-51.0	-52.4	14.2	0.00e+00	0	27	0	858783744	67	4426
2026-01-07 01:37:03.37	8.37	36.79	-51.0	-52.4	14.2	0.00e+00	0	28	0	861929472	67	4436
2026-01-07 01:37:04.37	8.17	37.00	-50.9	-52.3	14.3	0.00e+00	0	27	0	865075200	67	4380
2026-01-07 01:37:05.37	7.96	37.21	-50.9	-52.3	14.3	0.00e+00	0	28	0	868220928	67	4355
2026-01-07 01:37:06.37	7.75	37.42	-50.6	-52.0	14.4	0.00e+00	0	27	0	871366656	67	4223
2026-01-07 01:37:07.36	7.53	37.62	-50.8	-52.3	14.3	0.00e+00	0	27	0	874512384	67	4342
2026-01-07 01:37:08.37	7.31	37.84	-50.8	-52.2	14.3	0.00e+00	0	27	0	877658112	67	4337
2026-01-07 01:37:09.36	7.10	38.05	-50.9	-52.4	14.3	0.00e+00	0	28	0	880803840	67	4401
2026-01-07 01:37:10.37	6.87	38.26	-51.1	-52.5	14.2	0.00e+00	0	27	0	883949568	67	4462
2026-01-07 01:37:11.37	6.64	38.48	-50.9	-52.4	14.3	0.00e+00	0	28	0	887095296	67	4393
2026-01-07 01:37:12.37	6.42	38.69	-50.9	-52.3	14.3	0.00e+00	0	27	0	890241024	67	4383
2026-01-07 01:37:13.37	6.18	38.91	-50.9	-52.3	14.3	0.00e+00	0	27	0	893386752	67	4371
2026-01-07 01:37:14.38	5.95	39.12	-50.6	-52.0	14.4	0.00e+00	0	27	0	896532480	67	4222
2026-01-07 01:37:15.39	5.70	39.34	-50.7	-52.1	14.4	0.00e+00	0	27	0	899678208	67	4255
2026-01-07 01:37:16.39	5.46	39.56	-50.7	-52.1	14.4	0.00e+00	0	28	0	902823936	67	4255
2026-01-07 01:37:17.39	5.22	39.78	-50.8	-52.1	14.4	0.00e+00	0	28	0	905969664	67	4291
2026-01-07 01:37:18.39	4.97	40.00	-50.7	-52.0	14.4	0.00e+00	0	27	0	909115392	67	4228
2026-01-07 01:37:19.39	4.72	40.22	-50.8	-52.2	14.4	0.00e+00	0	27	0	912261120	67	4303
2026-01-07 01:37:20.38	4.46	40.44	-50.9	-52.3	14.3	0.00e+00	0	27	0	915406848	67	4378
2026-01-07 01:37:21.38	4.21	40.66	-50.8	-52.2	14.4	0.00e+00	0	27	0	918552576	67	4309
2026-01-07 01:37:22.39	3.94	40.88	-50.8	-52.1	14.4	0.00e+00	0	28	0	921698304	67	4278
2026-01-07 01:37:23.38	3.68	41.10	-50.6	-51.9	14.4	0.00e+00	0	27	0	924844032	67	4183
2026-01-07 01:37:24.38	3.41	41.33	-50.5	-51.8	14.5	0.00e+00	0	28	0	927989760	67	4127
2026-01-07 01:37:25.38	3.13	41.55	-50.6	-51.9	14.5	0.00e+00	0	27	0	931135488	67	4167
2026-01-07 01:37:26.38	2.85	41.78	-50.7	-52.0	14.4	0.00e+00	0	27	0	934281216	67	4215
2026-01-07 01:37:27.38	2.57	42.00	-51.0	-52.3	14.3	0.00e+00	0	28	0	937426944	67	4382
2026-01-07 01:37:28.38	2.29	42.23	-51.2	-52.6	14.2	0.00e+00	0	27	0	940572672	67	4501
2026-01-07 01:37:29.38	2.00	42.45	-51.3	-52.7	14.2	0.00e+00	0	27	0	943718400	67	4587
2026-01-07 01:37:30.37	1.71	42.68	-51.9	-53.4	14.0	0.00e+00	0	27	0	945815552	68	4689
2026-01-07 01:37:31.37	1.41	42.91	-52.0	-53.6	14.0	0.00e+00	0	27	0	948961280	69	4516
2026-01-07 01:37:32.36	1.11	43.13	-52.1	-53.7	13.9	0.00e+00	0	27	0	952107008	69	4578
2026-01-07 01:37:33.36	0.80	43.36	-52.2	-53.7	14.0	0.00e+00	0	27	0	955252736	69	4581
2026-01-07 01:37:34.36	0.49	43.59	-52.1	-53.7	14.0	0.00e+00	0	27	0	958398464	69	4564
2026-01-07 01:37:35.36	0.17	43.82	-52.1	-53.7	14.0	0.00e+00	0	27	0	961544192	69	4566
2026-01-07 01:37:36.36	359.85	44.05	-52.2	-53.8	13.9	0.00e+00	0	28	0	964689920	69	4616
2026-01-07 01:37:37.35	359.53	44.28	-52.1	-53.6	14.0	0.00e+00	0	28	0	967835648	69	4536
2026-01-07 01:37:38.35	359.20	44.51	-52.0	-53.6	14.0	0.00e+00	0	27	0	970981376	69	4500
2026-01-07 01:37:39.35	358.87	44.74	-52.0	-53.5	14.0	0.00e+00	0	28	0	974127104	69	4476
2026-01-07 01:37:40.35	358.53	44.97	-52.1	-53.7	14.0	0.00e+00	0	27	0	977272832	69	4573
2026-01-07 01:37:41.35	358.18	45.20	-52.0	-53.6	14.0	0.00e+00	0	27	0	980418560	69	4508
2026-01-07 01:37:42.36	357.83	45.43	-52.0	-53.5	14.0	0.00e+00	0	27	0	983564288	69	4488
2026-01-07 01:37:43.36	357.48	45.66	-52.0	-53.5	14.1	0.00e+00	0	27	0	986710016	69	4467
2026-01-07 01:37:44.37	357.11	45.90	-52.3	-53.9	13.9	0.00e+00	0	28	0	989855744	69	4658
2026-01-07 01:37:45.36	356.75	46.13	-52.7	-54.4	13.8	0.00e+00	0	27	0	993001472	70	4662
2026-01-07 01:37:46.37	356.37	46.36	-52.7	-54.4	13.8	0.00e+00	0	27	0	996147200	70	4656
2026-01-07 01:37:47.37	356.00	46.59	-52.5	-54.1	13.9	0.00e+00	0	27	0	999292928	70	4514
2026-01-07 01:37:48.37	355.61	46.82	-52.3	-54.0	13.9	0.00e+00	0	27	0	1002438656	70	4450
2026-01-07 01:37:49.37	355.23	47.05	-52.2	-53.7	14.0	0.00e+00	0	28	0	1005584384	70	4338
2026-01-07 01:37:50.38	354.83	47.29	-52.2	-53.7	14.0	0.00e+00	0	27	0	1008730112	70	4337
2026-01-07 01:37:51.38	354.43	47.52	-52.2	-53.8	14.0	0.00e+00	0	27	0	1011875840	70	4354
2026-01-07 01:37:52.38	354.02	47.75	-52.4	-54.1	13.9	0.00e+00	0	27	0	1015021568	70	4494
2026-01-07 01:37:53.38	353.61	47.98	-52.4	-54.0	13.9	0.00e+00	0	27	0	1018167296	70	4491
2026-01-07 01:37:54.38	353.19	48.21	-52.7	-54.3	13.8	0.00e+00	0	27	0	1021313024	70	4646
2026-01-07 01:37:55.39	352.76	48.44	-52.9	-54.6	13.7	0.00e+00	0	27	0	1024458752	70	4787
2026-01-07 01:37:56.39	352.33	48.67	-52.7	-54.4	13.8	0.00e+00	0	27	0	1027604480	70	4652
2026-01-07 01:37:57.39	351.89	48.89	-52.6	-54.2	13.8	0.00e+00	0	27	0	1030750208	70	4592
2026-01-07 01:37:58.38	351.46	49.12	-52.4	-54.1	13.9	0.00e+00	0	28	0	1033895936	70	4496
2026-01-07 01:37:59.39	351.00	49.35	-52.1	-53.7	14.1	0.00e+00	0	27	0	1037041664	70	4308
2026-01-07 01:38:00.38	350.55	49.57	-52.0	-53.5	14.2	0.00e+00	0	28	0	1040187392	70	4201
2026-01-07 01:38:01.38	350.08	49.80	-52.0	-53.4	14.2	0.00e+00	0	27	0	1043333120	70	4187
2026-01-07 01:38:02.38	349.61	50.02	-51.9	-53.4	14.2	0.00e+00	0	28	0	1046478848	70	4156
2026-01-07 01:38:03.38	349.13	50.24	-51.7	-53.1	14.4	0.00e+00	0	28	0	1049624576	70	4051
2026-01-07 01:38:04.38	348.65	50.46	-51.5	-53.0	14.3	0.00e+00	0	27	0	1052770304	69	4194
2026-01-07 01:38:05.38	348.15	50.69	-51.4	-52.8	14.4	0.00e+00	0	28	0	1055916032	69	4127
2026-01-07 01:38:06.38	347.65	50.90	-51.1	-52.4	14.4	0.00e+00	0	27	0	1059061760	68	4181
2026-01-07 01:38:07.38	347.15	51.12	-51.2	-52.6	14.4	0.00e+00	0	27	0	1062207488	68	4251
2026-01-07 01:38:08.37	346.64	51.34	-51.0	-52.4	14.4	0.00e+00	0	27	0	1065353216	68	4154
2026-01-07 01:38:09.38	346.11	51.55	-51.1	-52.4	14.4	0.00e+00	0	27	0	1068498944	68	4178
2026-01-07 01:38:10.38	345.58	51.77	-50.9	-52.3	14.5	0.00e+00	0	28	0	1071644672	68	4121
2026-01-07 01:38:11.39	345.04	51.98	-51.0	-52.4	14.5	0.00e+00	0	27	0	1074790400	68	4148
2026-01-07 01:38:12.39	344.49	52.19	-50.9	-52.2	14.5	0.00e+00	0	27	0	1077936128	68	4065
2026-01-07 01:38:13.39	343.94	52.40	-50.8	-52.1	14.5	0.00e+00	0	27	0	1081081856	68	4032
2026-01-07 01:38:14.39	343.38	52.61	-50.9	-52.2	14.5	0.00e+00	0	27	0	1084227584	68	4073
2026-01-07 01:38:15.39	342.81	52.81	-50.8	-52.2	14.5	0.00e+00	0	28	0	1087373312	68	4065
2026-01-07 01:38:16.39	342.23	53.01	-50.8	-52.1	14.6	0.00e+00	0	28	0	1090519040	68	4030
2026-01-07 01:38:17.39	341.65	53.21	-50.3	-51.6	14.6	0.00e+00	0	27	0	1093664768	67	4030
2026-01-07 01:38:18.40	341.05	53.41	-50.4	-51.7	14.6	0.00e+00	0	28	0	1096810496	67	4082
2026-01-07 01:38:19.40	340.44	53.61	-50.6	-51.9	14.5	0.00e+00	0	27	0	1099956224	67	4158
2026-01-07 01:38:20.40	339.84	53.80	-50.7	-52.0	14.5	0.00e+00	0	28	0	1103101952	67	4241
2026-01-07 01:38:21.39	339.22	53.99	-50.6	-52.0	14.5	0.00e+00	0	28	0	1106247680	67	4201
2026-01-07 01:38:22.39	338.60	54.18	-50.2	-51.5	14.6	0.00e+00	0	27	0	1109393408	67	3969
2026-01-07 01:38:23.39	337.96	54.36	-50.1	-51.3	14.6	0.00e+00	0	28	0	1112539136	66	4125
2026-01-07 01:38:24.40	337.31	54.55	-49.8	-51.0	14.7	0.00e+00	0	27	0	1115684864	66	3978
2026-01-07 01:38:25.40	336.66	54.72	-49.9	-51.1	14.7	0.00e+00	0	28	0	1118830592	66	4029
2026-01-07 01:38:26.40	336.01	54.90	-49.9	-51.1	14.7	0.00e+00	0	28	0	1121976320	66	4050
2026-01-07 01:38:27.40	335.34	55.07	-49.7	-50.9	14.8	0.00e+00	0	27	0	1125122048	66	3930
2026-01-07 01:38:28.38	334.68	55.24	-49.6	-50.8	14.7	0.00e+00	0	27	0	1128267776	65	4103
2026-01-07 01:38:29.38	333.99	55.40	-49.5	-50.7	14.7	0.00e+00	0	28	0	1130364928	65	4087
2026-01-07 01:38:30.36	333.32	55.56	-49.6	-50.8	14.6	0.00e+00	0	28	0	1133510656	65	4127
2026-01-07 01:38:31.36	332.62	55.72	-50.0	-51.3	14.5	0.00e+00	0	27	0	1136656384	65	4352
2026-01-07 01:38:32.36	331.91	55.87	-50.0	-51.3	14.5	0.00e+00	0	28	0	1139802112	65	4380
2026-01-07 01:38:33.36	331.20	56.03	-50.1	-51.3	14.5	0.00e+00	0	28	0	1142947840	65	4385
2026-01-07 01:38:34.36	330.47	56.17	-49.9	-51.2	14.6	0.00e+00	0	28	0	1146093568	65	4302
2026-01-07 01:38:35.36	329.74	56.31	-49.8	-51.0	14.6	0.00e+00	0	27	0	1149239296	65	4230
2026-01-07 01:38:36.36	329.01	56.45	-49.7	-50.9	14.7	0.00e+00	0	27	0	1152385024	65	4186
2026-01-07 01:38:37.37	328.25	56.59	-49.4	-50.6	14.8	0.00e+00	0	28	0	1155530752	65	4013
2026-01-07 01:38:38.37	327.50	56.72	-49.2	-50.4	14.9	0.00e+00	0	28	0	1158676480	65	3931
2026-01-07 01:38:39.37	326.74	56.84	-49.3	-50.4	14.8	0.00e+00	0	28	0	1161822208	65	3945
2026-01-07 01:38:40.37	325.98	56.96	-49.1	-50.3	14.8	0.00e+00	0	28	0	1164967936	64	4129
2026-01-07 01:38:41.37	325.21	57.08	-49.3	-50.5	14.7	0.00e+00	0	27	0	1168113664	64	4235
2026-01-07 01:38:42.38	324.42	57.19	-49.4	-50.7	14.6	0.00e+00	0	27	0	1171259392	64	4293
2026-01-07 01:38:43.38	323.63	57.30	-49.4	-50.7	14.7	0.00e+00	0	27	0	1174405120	64	4305
2026-01-07 01:38:44.38	322.84	57.40	-49.5	-50.7	14.6	0.00e+00	0	27	0	1177550848	64	4339
2026-01-07 01:38:45.38	322.05	57.49	-49.7	-50.9	14.6	0.00e+00	0	27	0	1180696576	64	4408
2026-01-07 01:38:46.38	321.24	57.58	-49.8	-51.1	14.5	0.00e+00	0	27	0	1183842304	64	4502
2026-01-07 01:38:47.38	320.44	57.67	-49.8	-51.0	14.5	0.00e+00	0	27	0	1186988032	64	4490
2026-01-07 01:38:48.38	319.62	57.75	-49.8	-51.1	14.5	0.00e+00	0	28	0	1190133760	64	4504
2026-01-07 01:38:49.38	318.81	57.82	-50.0	-51.2	14.5	0.00e+00	0	28	0	1193279488	65	4339
2026-01-07 01:38:50.38	317.98	57.89	-49.9	-51.2	14.5	0.00e+00	0	27	0	1196425216	65	4298
2026-01-07 01:38:51.38	317.16	57.96	-49.5	-50.7	14.7	0.00e+00	0	27	0	1199570944	65	4083
2026-01-07 01:38:52.38	316.33	58.01	-49.3	-50.5	14.8	0.00e+00	0	28	0	1202716672	65	3974
2026-01-07 01:38:53.38	315.50	58.07	-49.1	-50.3	14.8	0.00e+00	0	28	0	1205862400	64	4111
2026-01-07 01:38:54.38	314.66	58.11	-49.0	-50.2	14.8	0.00e+00	0	27	0	1209008128	64	4074
2026-01-07 01:38:55.38	313.82	58.15	-49.0	-50.1	14.9	0.00e+00	0	27	0	1212153856	64	4032
2026-01-07 01:38:56.37	312.99	58.19	-49.0	-50.1	14.8	0.00e+00	0	27	0	1215299584	64	4040
2026-01-07 01:38:57.38	312.14	58.22	-49.0	-50.1	14.9	0.00e+00	0	28	0	1218445312	64	4035
2026-01-07 01:38:58.38	311.29	58.24	-49.1	-50.3	14.8	0.00e+00	0	27	0	1221591040	64	4107
2026-01-07 01:38:59.39	310.44	58.26	-49.2	-50.4	14.7	0.00e+00	0	27	0	1224736768	64	4164
2026-01-07 01:39:00.38	309.60	58.27	-49.3	-50.5	14.7	0.00e+00	0	27	0	1227882496	64	4198
2026-01-07 01:39:01.37	308.76	58.28	-49.7	-51.0	14.6	0.00e+00	0	28	0	1231028224	64	4442
2026-01-07 01:39:02.37	307.91	58.28	-49.7	-51.0	14.6	0.00e+00	0	27	0	1234173952	64	4456
2026-01-07 01:39:03.37	307.06	58.27	-49.8	-51.0	14.5	0.00e+00	0	27	0	1237319680	64	4478
2026-01-07 01:39:04.38	306.20	58.26	-49.4	-50.6	14.7	0.00e+00	0	28	0	1240465408	64	4262
2026-01-07 01:39:05.38	305.36	58.24	-49.5	-50.8	14.6	0.00e+00	0	27	0	1243611136	64	4349
2026-01-07 01:39:06.39	304.50	58.22	-49.8	-51.1	14.6	0.00e+00	0	28	0	1246756864	65	4279
2026-01-07 01:39:07.39	303.66	58.19	-49.6	-50.8	14.7	0.00e+00	0	28	0	1249902592	65	4134
2026-01-07 01:39:08.39	302.82	58.15	-49.6	-50.8	14.7	0.00e+00	0	27	0	1253048320	65	4128
2026-01-07 01:39:09.39	301.98	58.11	-49.4	-50.6	14.8	0.00e+00	0	27	0	1256194048	65	4032
2026-01-07 01:39:10.39	301.14	58.07	-49.2	-50.4	14.9	0.00e+00	0	27	0	1259339776	65	3925
2026-01-07 01:39:11.39	300.31	58.02	-49.2	-50.3	14.8	0.00e+00	0	27	0	1262485504	64	4141
2026-01-07 01:39:12.40	299.47	57.96	-49.0	-50.2	14.8	0.00e+00	0	28	0	1265631232	64	4076
2026-01-07 01:39:13.40	298.65	57.89	-49.6	-50.8	14.6	0.00e+00	0	28	0	1268776960	64	4366
2026-01-07 01:39:14.40	297.82	57.82	-49.8	-51.1	14.5	0.00e+00	0	28	0	1271922688	64	4507
2026-01-07 01:39:15.40	297.01	57.75	-49.8	-51.1	14.6	0.00e+00	0	27	0	1275068416	65	4267
2026-01-07 01:39:16.40	296.19	57.67	-49.7	-50.9	14.7	0.00e+00	0	28	0	1278214144	65	4175
2026-01-07 01:39:17.40	295.38	57.58	-49.6	-50.8	14.7	0.00e+00	0	28	0	1281359872	65	4140
2026-01-07 01:39:18.39	294.59	57.49	-49.7	-51.0	14.7	0.00e+00	0	27	0	1284505600	65	4210
2026-01-07 01:39:19.39	293.79	57.40	-49.4	-50.6	14.8	0.00e+00	0	28	0	1286602752	65	4045
2026-01-07 01:39:20.39	293.00	57.30	-49.4	-50.6	14.8	0.00e+00	0	28	0	1289748480	65	4040
2026-01-07 01:39:21.39	292.21	57.19	-49.4	-50.6	14.8	0.00e+00	0	27	0	1292894208	65	4026
2026-01-07 01:39:22.39	291.43	57.08	-49.3	-50.5	14.9	0.00e+00	0	28	0	1296039936	65	3987
2026-01-07 01:39:23.39	290.66	56.97	-49.5	-50.7	14.8	0.00e+00	0	27	0	1299185664	65	4076
2026-01-07 01:39:24.40	289.89	56.84	-49.6	-50.8	14.7	0.00e+00	0	28	0	1302331392	65	4117
2026-01-07 01:39:25.40	289.13	56.72	-50.0	-51.2	14.6	0.00e+00	0	27	0	1305477120	65	4335
2026-01-07 01:39:26.40	288.37	56.59	-50.1	-51.4	14.5	0.00e+00	0	27	0	1308622848	65	4414
2026-01-07 01:39:27.40	287.63	56.46	-49.9	-51.1	14.6	0.00e+00	0	28	0	1311768576	65	4286
2026-01-07 01:39:28.40	286.89	56.32	-49.8	-51.1	14.6	0.00e+00	0	27	0	1314914304	65	4255
2026-01-07 01:39:29.39	286.17	56.18	-50.1	-51.4	14.5	0.00e+00	0	27	0	1318060032	65	4430
2026-01-07 01:39:30.39	285.44	56.03	-50.6	-52.0	14.4	0.00e+00	0	27	0	1321205760	66	4447
2026-01-07 01:39:31.39	284.73	55.88	-50.7	-52.1	14.4	0.00e+00	0	27	0	1324351488	66	4521
2026-01-07 01:39:32.39	284.02	55.73	-50.3	-51.6	14.5	0.00e+00	0	27	0	1327497216	66	4271
2026-01-07 01:39:33.38	283.33	55.57	-50.3	-51.6	14.6	0.00e+00	0	27	0	1330642944	66	4259
2026-01-07 01:39:34.38	282.64	55.41	-50.2	-51.4	14.6	0.00e+00	0	27	0	1333788672	66	4193
2026-01-07 01:39:35.37	281.96	55.24	-49.8	-51.1	14.8	0.00e+00	0	27	0	1336934400	66	4016
2026-01-07 01:39:36.37	281.28	55.07	-49.8	-51.0	14.8	0.00e+00	0	27	0	1340080128	66	3977
2026-01-07 01:39:37.37	280.61	54.90	-49.6	-50.8	14.7	0.00e+00	0	27	0	1343225856	65	4144
2026-01-07 01:39:38.37	279.95	54.73	-49.7	-50.9	14.6	0.00e+00	0	27	0	1346371584	65	4180
2026-01-07 01:39:39.37	279.30	54.55	-49.9	-51.2	14.6	0.00e+00	0	27	0	1349517312	65	4311
2026-01-07 01:39:40.36	278.67	54.37	-50.1	-51.4	14.5	0.00e+00	0	27	0	1352663040	65	4397
2026-01-07 01:39:41.36	278.03	54.18	-50.0	-51.3	14.5	0.00e+00	0	27	0	1355808768	65	4349
2026-01-07 01:39:42.36	277.40	53.99	-50.2	-51.5	14.4	0.00e+00	0	27	0	1358954496	65	4443
2026-01-07 01:39:43.36	276.79	53.80	-50.2	-51.5	14.5	0.00e+00	0	27	0	1362100224	65	4476
2026-01-07 01:39:44.36	276.17	53.61	-50.0	-51.3	14.5	0.00e+00	0	27	0	1365245952	65	4366
2026-01-07 01:39:45.35	275.58	53.42	-50.1	-51.4	14.5	0.00e+00	0	27	0	1368391680	65	4413
2026-01-07 01:39:46.35	274.98	53.22	-50.9	-52.3	14.3	0.00e+00	0	27	0	1371537408	66	4605
2026-01-07 01:39:47.35	274.40	53.02	-51.0	-52.5	14.3	0.00e+00	0	28	0	1374683136	67	4451
2026-01-07 01:39:48.35	273.82	52.82	-50.8	-52.1	14.4	0.00e+00	0	27	0	1377828864	67	4285
2026-01-07 01:39:49.35	273.25	52.61	-50.6	-51.9	14.5	0.00e+00	0	28	0	1380974592	67	4180
2026-01-07 01:39:50.35	272.69	52.41	-50.3	-51.5	14.6	0.00e+00	0	27	0	1384120320	67	3999
2026-01-07 01:39:51.36	272.13	52.19	-50.2	-51.4	14.7	0.00e+00	0	27	0	1387266048	67	3952
2026-01-07 01:39:52.36	271.58	51.98	-50.6	-51.9	14.4	0.00e+00	0	27	0	1390411776	66	4410
2026-01-07 01:39:53.36	271.04	51.77	-51.3	-52.7	14.2	0.00e+00	0	28	0	1393557504	67	4587
2026-01-07 01:39:54.36	270.51	51.56	-52.3	-53.9	14.0	0.00e+00	0	27	0	1396703232	69	4660
2026-01-07 01:39:55.35	269.99	51.34	-52.5	-54.2	13.9	0.00e+00	0	28	0	1399848960	70	4557
2026-01-07 01:39:56.35	269.48	51.13	-52.1	-53.6	14.1	0.00e+00	0	27	0	1402994688	70	4269
2026-01-07 01:39:57.35	268.97	50.91	-51.0	-52.3	14.4	0.00e+00	0	28	0	1406140416	68	4125
2026-01-07 01:39:58.35	268.47	50.69	-50.3	-51.6	14.6	0.00e+00	0	27	0	1409286144	67	4041
2026-01-07 01:39:59.35	267.97	50.47	-50.7	-52.0	14.4	0.00e+00	0	27	0	1412431872	67	4242
2026-01-07 01:40:00.35	267.49	50.25	-51.4	-52.8	14.0	0.00e+00	0	27	0	1415577600	67	4641
2026-01-07 01:40:01.35	267.01	50.02	-52.2	-53.9	13.8	0.00e+00	0	28	0	1418723328	69	4655
2026-01-07 01:40:02.34	266.54	49.80	-52.5	-54.1	13.9	0.00e+00	0	27	0	1420820480	70	4515
2026-01-07 01:40:03.34	266.07	49.58	-52.3	-53.9	13.9	0.00e+00	0	28	0	1423966208	70	4435
2026-01-07 01:40:04.34	265.61	49.35	-52.3	-53.9	14.0	0.00e+00	0	27	0	1427111936	70	4393
2026-01-07 01:40:05.33	265.17	49.12	-52.2	-53.7	14.1	0.00e+00	0	27	0	1430257664	70	4325
2026-01-07 01:40:06.34	264.72	48.89	-51.9	-53.4	14.2	0.00e+00	0	28	0	1433403392	70	4175
2026-01-07 01:40:07.34	264.28	48.67	-51.5	-52.9	14.3	0.00e+00	0	27	0	1436549120	69	4182
2026-01-07 01:40:08.34	263.85	48.44	-51.3	-52.7	14.4	0.00e+00	0	28	0	1439694848	69	4088
2026-01-07 01:40:09.34	263.42	48.21	-51.7	-53.2	14.1	0.00e+00	0	28	0	1442840576	69	4319
2026-01-07 01:40:10.34	263.00	47.98	-52.6	-54.3	13.7	0.00e+00	0	27	0	1445986304	70	4608
2026-01-07 01:40:11.35	262.58	47.75	-52.9	-54.7	13.6	0.00e+00	0	28	0	1449132032	71	4575
2026-01-07 01:40:12.35	262.18	47.51	-52.1	-53.6	14.0	0.00e+00	0	28	0	1452277760	70	4287
2026-01-07 01:40:13.35	261.78	47.28	-51.1	-52.4	14.3	0.00e+00	0	28	0	1455423488	68	4188
2026-01-07 01:40:14.34	261.38	47.05	-50.8	-52.2	14.5	0.00e+00	0	28	0	1458569216	68	4058
2026-01-07 01:40:15.34	261.00	46.82	-51.0	-52.3	14.5	0.00e+00	0	28	0	1461714944	68	4133
2026-01-07 01:40:16.34	260.61	46.59	-51.3	-52.7	14.3	0.00e+00	0	27	0	1464860672	68	4299
2026-01-07 01:40:17.33	260.24	46.36	-51.7	-53.2	14.1	0.00e+00	0	28	0	1468006400	68	4567
2026-01-07 01:40:18.33	259.87	46.13	-51.9	-53.4	14.0	0.00e+00	0	27	0	1471152128	68	4654
2026-01-07 01:40:19.33	259.50	45.90	-52.4	-54.0	13.8	0.00e+00	0	27	0	1474297856	69	4716
2026-01-07 01:40:20.34	259.13	45.66	-53.2	-55.0	13.5	0.00e+00	0	28	0	1477443584	71	4717
2026-01-07 01:40:21.34	258.78	45.43	-53.5	-55.4	13.4	0.00e+00	0	27	0	1480589312	72	4653
2026-01-07 01:40:22.33	258.43	45.20	-53.0	-54.8	13.7	0.00e+00	0	28	0	1483735040	72	4343
2026-01-07 01:40:23.33	258.08	44.97	-52.5	-54.2	13.8	0.00e+00	0	27	0	1486880768	71	4303
2026-01-07 01:40:24.32	257.75	44.74	-52.4	-54.0	14.0	0.00e+00	0	28	0	1490026496	71	4230
2026-01-07 01:40:25.33	257.41	44.51	-51.9	-53.3	14.2	0.00e+00	0	27	0	1493172224	70	4143
2026-01-07 01:40:26.33	257.08	44.28	-52.1	-53.6	14.1	0.00e+00	0	27	0	1496317952	70	4280
2026-01-07 01:40:27.33	256.75	44.05	-52.7	-54.3	13.8	0.00e+00	0	27	0	1499463680	70	4647
2026-01-07 01:40:28.33	256.43	43.82	-53.2	-55.0	13.5	0.00e+00	0	28	0	1502609408	71	4755
2026-01-07 01:40:29.33	256.11	43.59	-53.0	-54.7	13.7	0.00e+00	0	27	0	1505755136	71	4563
2026-01-07 01:40:30.32	255.80	43.36	-52.9	-54.6	13.7	0.00e+00	0	28	0	1508900864	71	4538
2026-01-07 01:40:31.31	255.50	43.13	-52.8	-54.5	13.8	0.00e+00	0	27	0	1512046592	71	4468
2026-01-07 01:40:32.31	255.19	42.90	-52.3	-53.9	14.1	0.00e+00	0	28	0	1515192320	71	4146
2026-01-07 01:40:33.32	254.89	42.67	-52.1	-53.6	14.1	0.00e+00	0	27	0	1518338048	70	4283
2026-01-07 01:40:34.32	254.60	42.45	-51.7	-53.2	14.3	0.00e+00	0	27	0	1521483776	70	4081
2026-01-07 01:40:35.31	254.31	42.22	-51.4	-52.9	14.3	0.00e+00	0	27	0	1524629504	69	4149
2026-01-07 01:40:36.31	254.02	41.99	-51.1	-52.4	14.4	0.00e+00	0	28	0	1527775232	68	4176
2026-01-07 01:40:37.31	253.74	41.77	-51.0	-52.3	14.5	0.00e+00	0	28	0	1530920960	68	4118
2026-01-07 01:40:38.31	253.46	41.54	-51.8	-53.3	14.0	0.00e+00	0	28	0	1534066688	68	4606
2026-01-07 01:40:39.31	253.19	41.32	-52.9	-54.7	13.5	0.00e+00	0	28	0	1537212416	70	4839
2026-01-07 01:40:40.31	252.92	41.09	-53.7	-55.6	13.3	0.00e+00	0	28	0	1540358144	72	4808
2026-01-07 01:40:41.31	252.65	40.87	-53.5	-55.4	13.3	0.00e+00	0	27	0	1543503872	72	4674
2026-01-07 01:40:42.31	252.39	40.65	-52.8	-54.5	13.7	0.00e+00	0	28	0	1546649600	72	4240
2026-01-07 01:40:43.30	252.13	40.43	-52.1	-53.7	14.0	0.00e+00	0	28	0	1549795328	70	4300
2026-01-07 01:40:44.31	251.87	40.20	-51.8	-53.3	14.2	0.00e+00	0	27	0	1552941056	70	4126
2026-01-07 01:40:45.31	251.62	39.98	-51.9	-53.4	14.2	0.00e+00	0	28	0	1555038208	70	4172
2026-01-07 01:40:46.30	251.37	39.77	-51.8	-53.3	14.2	0.00e+00	0	28	0	1558183936	70	4139
2026-01-07 01:40:47.29	251.13	39.55	-51.8	-53.2	14.3	0.00e+00	0	27	0	1561329664	70	4092
2026-01-07 01:40:48.29	250.88	39.33	-51.3	-52.7	14.4	0.00e+00	0	28	0	1564475392	69	4090
2026-01-07 01:40:49.30	250.64	39.11	-51.2	-52.6	14.4	0.00e+00	0	28	0	1567621120	69	4046
2026-01-07 01:40:50.30	250.41	38.89	-51.1	-52.5	14.4	0.00e+00	0	28	0	1570766848	68	4216
2026-01-07 01:40:51.29	250.18	38.68	-51.4	-52.9	14.2	0.00e+00	0	28	0	1573912576	68	4409
2026-01-07 01:40:52.30	249.94	38.46	-52.1	-53.7	14.0	0.00e+00	0	27	0	1577058304	69	4571
2026-01-07 01:40:53.30	249.72	38.25	-52.8	-54.5	13.7	0.00e+00	0	28	0	1580204032	70	4731
2026-01-07 01:40:54.29	249.49	38.04	-53.0	-54.8	13.6	0.00e+00	0	28	0	1583349760	71	4629
2026-01-07 01:40:55.29	249.27	37.82	-52.9	-54.6	13.7	0.00e+00	0	27	0	1586495488	71	4539
2026-01-07 01:40:56.30	249.05	37.61	-52.6	-54.3	13.8	0.00e+00	0	28	0	1589641216	71	4345
2026-01-07 01:40:57.30	248.84	37.40	-52.1	-53.7	14.0	0.00e+00	0	27	0	1592786944	70	4298
2026-01-07 01:40:58.30	248.63	37.19	-51.7	-53.2	14.3	0.00e+00	0	28	0	1595932672	70	4062
2026-01-07 01:40:59.29	248.42	36.98	-51.0	-52.4	14.4	0.00e+00	0	28	0	1599078400	68	4165
2026-01-07 01:41:00.29	248.21	36.77	-50.9	-52.2	14.4	0.00e+00	0	28	0	1602224128	68	4090
2026-01-07 01:41:01.29	248.01	36.57	-50.8	-52.2	14.5	0.00e+00	0	28	0	1605369856	68	4072
2026-01-07 01:41:02.30	247.80	36.36	-51.1	-52.5	14.3	0.00e+00	0	28	0	1608515584	68	4216
2026-01-07 01:41:03.30	247.60	36.15	-51.2	-52.6	14.3	0.00e+00	0	27	0	1611661312	68	4280
2026-01-07 01:41:04.30	247.41	35.95	-51.1	-52.5	14.4	0.00e+00	0	28	0	1614807040	68	4202
2026-01-07 01:41:05.32	247.21	35.74	-50.9	-52.2	14.5	0.00e+00	0	27	0	1617952768	68	4087
2026-01-07 01:41:06.31	247.02	35.54	-50.8	-52.1	14.5	0.00e+00	0	28	0	1621098496	68	4051
2026-01-07 01:41:07.31	246.83	35.34	-50.3	-51.6	14.6	0.00e+00	0	27	0	1624244224	67	4039
2026-01-07 01:41:08.31	246.64	35.14	-49.9	-51.1	14.7	0.00e+00	0	28	0	1627389952	66	4030
2026-01-07 01:41:09.31	246.46	34.94	-49.9	-51.2	14.7	0.00e+00	0	28	0	1630535680	66	4067
2026-01-07 01:41:10.31	246.28	34.74	-50.1	-51.4	14.6	0.00e+00	0	28	0	1633681408	66	4180
2026-01-07 01:41:11.31	246.10	34.54	-50.4	-51.7	14.4	0.00e+00	0	28	0	1636827136	66	4320
2026-01-07 01:41:12.31	245.92	34.34	-50.4	-51.8	14.4	0.00e+00	0	28	0	1639972864	66	4352
2026-01-07 01:41:13.31	245.74	34.14	-50.4	-51.8	14.4	0.00e+00	0	28	0	1643118592	66	4356
2026-01-07 01:41:14.31	245.57	33.95	-50.4	-51.8	14.4	0.00e+00	0	28	0	1646264320	66	4350
2026-01-07 01:41:15.32	245.40	33.75	-50.4	-51.8	14.4	0.00e+00	0	27	0	1649410048	66	4343
2026-01-07 01:41:16.32	245.23	33.56	-50.4	-51.8	14.4	0.00e+00	0	28	0	1652555776	66	4354
2026-01-07 01:41:17.32	245.06	33.37	-50.4	-51.7	14.4	0.00e+00	0	28	0	1655701504	66	4306
2026-01-07 01:41:18.33	244.89	33.17	-50.3	-51.6	14.5	0.00e+00	0	28	0	1658847232	66	4266
2026-01-07 01:41:19.33	244.73	32.98	-50.3	-51.6	14.5	0.00e+00	0	28	0	1661992960	66	4285
2026-01-07 01:41:20.34	244.57	32.79	-50.2	-51.5	14.5	0.00e+00	0	28	0	1665138688	66	4223
2026-01-07 01:41:21.34	244.41	32.60	-50.2	-51.5	14.5	0.00e+00	0	28	0	1668284416	66	4234
2026-01-07 01:41:22.35	244.25	32.41	-50.2	-51.5	14.5	0.00e+00	0	27	0	1671430144	66	4223
2026-01-07 01:41:23.35	244.09	32.22	-50.1	-51.4	14.6	0.00e+00	0	27	0	1674575872	66	4177
2026-01-07 01:41:24.35	243.94	32.04	-49.8	-51.1	14.7	0.00e+00	0	28	0	1677721600	66	4021
2026-01-07 01:41:25.35	243.79	31.85	-49.8	-51.0	14.7	0.00e+00	0	27	0	1680867328	66	3995
2026-01-07 01:41:26.34	243.64	31.67	-49.6	-50.8	14.8	0.00e+00	0	28	0	1684013056	65	4136
2026-01-07 01:41:27.34	243.49	31.49	-49.3	-50.5	14.8	0.00e+00	0	27	0	1687158784	65	3972
2026-01-07 01:41:28.34	243.34	31.30	-49.1	-50.3	14.7	0.00e+00	0	28	0	1690304512	64	4120
2026-01-07 01:41:29.34	243.20	31.12	-49.1	-50.3	14.7	0.00e+00	0	28	0	1693450240	64	4130
2026-01-07 01:41:30.34	243.05	30.94	-48.8	-50.0	14.8	0.00e+00	0	28	0	1696595968	64	3960
2026-01-07 01:41:31.34	242.91	30.76	-48.8	-50.0	14.9	0.00e+00	0	28	0	1699741696	64	3979
2026-01-07 01:41:32.34	242.77	30.58	-48.9	-50.0	14.8	0.00e+00	0	28	0	1702887424	64	4004
2026-01-07 01:41:33.34	242.63	30.41	-49.1	-50.3	14.7	0.00e+00	0	28	0	1706033152	64	4108
2026-01-07 01:41:34.34	242.49	30.23	-49.3	-50.5	14.6	0.00e+00	0	28	0	1709178880	64	4221
2026-01-07 01:41:35.34	242.36	30.05	-49.5	-50.8	14.6	0.00e+00	0	28	0	1712324608	64	4343
2026-01-07 01:41:36.33	242.22	29.88	-49.8	-51.0	14.5	0.00e+00	0	27	0	1714421760	64	4493
2026-01-07 01:41:37.33	242.09	29.70	-49.9	-51.2	14.4	0.00e+00	0	28	0	1717567488	64	4591
2026-01-07 01:41:38.33	241.96	29.53	-50.0	-51.3	14.5	0.00e+00	0	27	0	1721761792	65	4388
2026-01-07 01:41:39.33	241.83	29.36	-50.1	-51.4	14.4	0.00e+00	0	28	0	1724907520	65	4437
2026-01-07 01:41:40.33	241.70	29.19	-50.1	-51.4	14.4	0.00e+00	0	28	0	1728053248	65	4410
2026-01-07 01:41:41.33	241.57	29.01	-50.0	-51.3	14.5	0.00e+00	0	28	0	1730150400	65	4364
2026-01-07 01:41:42.32	241.45	28.85	-49.9	-51.2	14.5	0.00e+00	0	28	0	1733296128	65	4299
2026-01-07 01:41:43.33	241.32	28.68	-49.5	-50.8	14.7	0.00e+00	0	28	0	1736441856	65	4119
2026-01-07 01:41:44.33	241.20	28.51	-49.5	-50.7	14.7	0.00e+00	0	28	0	1739587584	65	4088
2026-01-07 01:41:45.32	241.08	28.34	-49.5	-50.7	14.7	0.00e+00	0	28	0	1742733312	65	4076
2026-01-07 01:41:46.33	240.96	28.17	-49.5	-50.8	14.7	0.00e+00	0	27	0	1745879040	65	4113
2026-01-07 01:41:47.32	240.84	28.01	-49.1	-50.3	14.7	0.00e+00	0	28	0	1749024768	64	4135
2026-01-07 01:41:48.32	240.72	27.84	-49.0	-50.2	14.8	0.00e+00	0	27	0	1752170496	64	4089
2026-01-07 01:41:49.31	240.61	27.68	-49.0	-50.2	14.8	0.00e+00	0	27	0	1755316224	64	4073
2026-01-07 01:41:50.31	240.49	27.52	-49.0	-50.1	14.8	0.00e+00	0	28	0	1758461952	64	4051
2026-01-07 01:41:51.31	240.38	27.36	-48.8	-50.0	14.9	0.00e+00	0	28	0	1761607680	64	3985
2026-01-07 01:41:52.32	240.26	27.19	-48.9	-50.1	14.8	0.00e+00	0	28	0	1764753408	64	4039
2026-01-07 01:41:53.33	240.15	27.03	-48.9	-50.1	14.8	0.00e+00	0	27	0	1767899136	64	4041
2026-01-07 01:41:54.33	240.04	26.87	-48.8	-50.0	14.8	0.00e+00	0	28	0	1771044864	64	3979
2026-01-07 01:41:55.33	239.93	26.71	-48.8	-50.0	14.8	0.00e+00	0	28	0	1774190592	64	3995
2026-01-07 01:41:56.33	239.82	26.55	-48.8	-50.0	14.8	0.00e+00	0	28	0	1777336320	64	3970
2026-01-07 01:41:57.32	239.71	26.40	-48.9	-50.1	14.8	0.00e+00	0	28	0	1780482048	64	4026
2026-01-07 01:41:58.32	239.61	26.24	-49.0	-50.2	14.8	0.00e+00	0	28	0	1783627776	64	4056
2026-01-07 01:41:59.32	239.50	26.09	-49.1	-50.3	14.7	0.00e+00	0	28	0	1786773504	64	4127
2026-01-07 01:42:00.32	239.40	25.93	-49.2	-50.5	14.7	0.00e+00	0	27	0	1789919232	64	4199
2026-01-07 01:42:01.32	239.29	25.78	-49.2	-50.4	14.7	0.00e+00	0	28	0	1793064960	64	4181
2026-01-07 01:42:02.32	239.19	25.62	-49.1	-50.3	14.7	0.00e+00	0	28	0	1796210688	64	4141
2026-01-07 01:42:03.32	239.09	25.47	-49.2	-50.5	14.7	0.00e+00	0	28	0	1799356416	64	4200
2026-01-07 01:42:04.32	238.99	25.32	-49.1	-50.3	14.7	0.00e+00	0	27	0	1802502144	64	4103
2026-01-07 01:42:05.32	238.89	25.17	-49.1	-50.3	14.7	0.00e+00	0	28	0	1805647872	64	4131
2026-01-07 01:42:06.32	238.79	25.02	-49.2	-50.5	14.7	0.00e+00	0	28	0	1808793600	64	4196
2026-01-07 01:42:07.33	238.70	24.86	-49.1	-50.3	14.7	0.00e+00	0	28	0	1811939328	64	4120
2026-01-07 01:42:08.33	238.60	24.72	-49.2	-50.4	14.7	0.00e+00	0	28	0	1815085056	64	4156
2026-01-07 01:42:09.33	238.50	24.57	-49.2	-50.5	14.7	0.00e+00	0	28	0	1818230784	64	4205
2026-01-07 01:42:10.33	238.41	24.42	-49.2	-50.4	14.7	0.00e+00	0	27	0	1821376512	64	4182
2026-01-07 01:42:11.34	238.31	24.27	-49.3	-50.5	14.6	0.00e+00	0	28	0	1824522240	64	4220
2026-01-07 01:42:12.33	238.22	24.13	-49.4	-50.6	14.6	0.00e+00	0	28	0	1827667968	64	4276
2026-01-07 01:42:13.33	238.13	23.98	-49.2	-50.5	14.6	0.00e+00	0	28	0	1830813696	64	4207
2026-01-07 01:42:14.33	238.04	23.84	-49.2	-50.4	14.7	0.00e+00	0	28	0	1833959424	64	4183
2026-01-07 01:42:15.33	237.95	23.69	-49.2	-50.4	14.7	0.00e+00	0	28	0	1837105152	64	4184
2026-01-07 01:42:16.32	237.86	23.55	-49.0	-50.2	14.7	0.00e+00	0	28	0	1840250880	64	4089
2026-01-07 01:42:17.31	237.77	23.41	-49.0	-50.2	14.7	0.00e+00	0	28	0	1843396608	64	4093
2026-01-07 01:42:18.31	237.69	23.27	-49.1	-50.3	14.7	0.00e+00	0	28	0	1846542336	64	4125
2026-01-07 01:42:19.32	237.60	23.13	-49.1	-50.3	14.7	0.00e+00	0	28	0	1849688064	64	4144
2026-01-07 01:42:20.31	237.51	22.99	-49.1	-50.3	14.7	0.00e+00	0	27	0	1852833792	64	4109
2026-01-07 01:42:21.31	237.43	22.85	-49.0	-50.3	14.7	0.00e+00	0	27	0	1855979520	64	4104
2026-01-07 01:42:22.31	237.34	22.71	-49.0	-50.2	14.7	0.00e+00	0	27	0	1859125248	64	4093
2026-01-07 01:42:23.31	237.26	22.57	-49.0	-50.2	14.7	0.00e+00	0	28	0	1862270976	64	4092
2026-01-07 01:42:24.31	237.18	22.43	-49.0	-50.3	14.7	0.00e+00	0	28	0	1865416704	64	4099
2026-01-07 01:42:25.31	237.10	22.30	-49.1	-50.4	14.7	0.00e+00	0	27	0	1868562432	64	4156
2026-01-07 01:42:26.31	237.01	22.16	-49.0	-50.2	14.7	0.00e+00	0	28	0	1870659584	64	4089
2026-01-07 01:42:27.31	236.93	22.02	-49.0	-50.2	14.8	0.00e+00	0	28	0	1873805312	64	4061
2026-01-07 01:42:28.31	236.85	21.89	-49.0	-50.3	14.7	0.00e+00	0	28	0	1876951040	64	4101
2026-01-07 01:42:29.31	236.78	21.76	-49.0	-50.2	14.8	0.00e+00	0	28	0	1880096768	64	4059
2026-01-07 01:42:30.31	236.70	21.62	-49.0	-50.2	14.7	0.00e+00	0	28	0	1883242496	64	4074
2026-01-07 01:42:31.31	236.62	21.49	-49.0	-50.2	14.8	0.00e+00	0	28	0	1886388224	64	4075
2026-01-07 01:42:32.32	236.54	21.36	-48.8	-50.0	14.8	0.00e+00	0	28	0	1889533952	64	3997
2026-01-07 01:42:33.31	236.47	21.22	-48.8	-50.0	14.8	0.00e+00	0	27	0	1892679680	64	3959
2026-01-07 01:42:34.31	236.39	21.09	-48.8	-50.0	14.8	0.00e+00	0	27	0	1895825408	64	3989
2026-01-07 01:42:35.30	236.32	20.96	-48.8	-50.0	14.8	0.00e+00	0	28	0	1898971136	64	3970
2026-01-07 01:42:36.30	236.24	20.83	-48.7	-49.9	14.9	0.00e+00	0	28	0	1902116864	64	3924
2026-01-07 01:42:37.30	236.17	20.71	-48.8	-50.0	14.8	0.00e+00	0	28	0	1905262592	64	3968
2026-01-07 01:42:38.30	236.09	20.58	-48.9	-50.1	14.8	0.00e+00	0	28	0	1908408320	64	4008
2026-01-07 01:42:39.29	236.02	20.45	-49.0	-50.2	14.8	0.00e+00	0	28	0	1911554048	64	4059
2026-01-07 01:42:40.29	235.95	20.32	-48.8	-50.1	14.8	0.00e+00	0	28	0	1914699776	64	4006
2026-01-07 01:42:41.29	235.88	20.20	-49.0	-50.2	14.7	0.00e+00	0	28	0	1917845504	64	4075
2026-01-07 01:42:42.29	235.81	20.07	-49.0	-50.2	14.7	0.00e+00	0	28	0	1920991232	64	4076
2026-01-07 01:42:43.29	235.74	19.94	-49.0	-50.2	14.7	0.00e+00	0	28	0	1924136960	64	4075
2026-01-07 01:42:44.29	235.67	19.82	-49.1	-50.4	14.7	0.00e+00	0	28	0	1927282688	64	4151
2026-01-07 01:42:45.29	235.60	19.69	-49.1	-50.4	14.7	0.00e+00	0	27	0	1930428416	64	4159
2026-01-07 01:42:46.28	235.53	19.57	-49.3	-50.5	14.6	0.00e+00	0	28	0	1933574144	64	4221
2026-01-07 01:42:47.27	235.47	19.45	-49.2	-50.4	14.6	0.00e+00	0	28	0	1936719872	64	4180
2026-01-07 01:42:48.28	235.40	19.32	-49.2	-50.4	14.6	0.00e+00	0	28	0	1939865600	64	4183
2026-01-07 01:42:49.29	235.33	19.20	-49.2	-50.5	14.6	0.00e+00	0	28	0	1943011328	64	4205
2026-01-07 01:42:50.29	235.26	19.08	-49.2	-50.5	14.6	0.00e+00	0	28	0	1946157056	64	4208
2026-01-07 01:42:51.29	235.20	18.96	-49.1	-50.4	14.7	0.00e+00	0	28	0	1949302784	64	4152
2026-01-07 01:42:52.29	235.13	18.84	-49.2	-50.5	14.6	0.00e+00	0	28	0	1952448512	64	4199
2026-01-07 01:42:53.29	235.07	18.72	-49.2	-50.5	14.6	0.00e+00	0	28	0	1955594240	64	4209
2026-01-07 01:42:54.30	235.01	18.60	-49.1	-50.4	14.6	0.00e+00	0	28	0	1958739968	64	4147
2026-01-07 01:42:55.31	234.94	18.48	-49.1	-50.3	14.7	0.00e+00	0	28	0	1961885696	64	4143
2026-01-07 01:42:56.31	234.88	18.36	-49.1	-50.3	14.7	0.00e+00	0	27	0	1965031424	64	4137
2026-01-07 01:42:57.32	234.82	18.24	-49.2	-50.4	14.6	0.00e+00	0	28	0	1968177152	64	4173
2026-01-07 01:42:58.32	234.75	18.12	-49.1	-50.4	14.6	0.00e+00	0	28	0	1971322880	64	4166
2026-01-07 01:42:59.33	234.69	18.00	-49.1	-50.3	14.7	0.00e+00	0	28	0	1974468608	64	4138
2026-01-07 01:43:00.32	234.63	17.89	-49.1	-50.3	14.7	0.00e+00	0	27	0	1977614336	64	4124
2026-01-07 01:43:01.32	234.57	17.77	-49.2	-50.4	14.6	0.00e+00	0	27	0	1980760064	64	4173
2026-01-07 01:43:02.33	234.51	17.66	-49.1	-50.3	14.7	0.00e+00	0	28	0	1983905792	64	4131
2026-01-07 01:43:03.33	234.45	17.54	-49.1	-50.4	14.7	0.00e+00	0	28	0	1987051520	64	4147
2026-01-07 01:43:04.33	234.39	17.43	-49.1	-50.3	14.7	0.00e+00	0	28	0	1990197248	64	4134
2026-01-07 01:43:05.33	234.33	17.31	-49.1	-50.4	14.7	0.00e+00	0	27	0	1993342976	64	4149
2026-01-07 01:43:06.33	234.28	17.20	-49.2	-50.5	14.6	0.00e+00	0	27	0	1996488704	64	4202
2026-01-07 01:43:07.32	234.22	17.09	-49.2	-50.4	14.6	0.00e+00	0	28	0	1999634432	64	4184
2026-01-07 01:43:08.32	234.16	16.98	-49.3	-50.6	14.6	0.00e+00	0	28	0	2002780160	64	4243
2026-01-07 01:43:09.32	234.11	16.86	-49.3	-50.5	14.6	0.00e+00	0	27	0	2005925888	64	4236
2026-01-07 01:43:10.32	234.05	16.75	-49.4	-50.6	14.6	0.00e+00	0	27	0	2009071616	64	4286
2026-01-07 01:43:11.33	233.99	16.64	-49.3	-50.6	14.6	0.00e+00	0	27	0	2012217344	64	4269
2026-01-07 01:43:12.33	233.94	16.53	-49.4	-50.7	14.5	0.00e+00	0	27	0	2015363072	64	4304
2026-01-07 01:43:13.32	233.88	16.42	-49.5	-50.8	14.5	0.00e+00	0	28	0	2018508800	64	4341
2026-01-07 01:43:14.31	233.83	16.31	-49.6	-50.9	14.5	0.00e+00	0	27	0	2021654528	64	4403
2026-01-07 01:43:15.31	233.78	16.20	-49.6	-50.9	14.5	0.00e+00	0	28	0	2024800256	64	4439
2026-01-07 01:43:16.32	233.72	16.09	-49.6	-50.9	14.5	0.00e+00	0	28	0	2026897408	64	4393
2026-01-07 01:43:17.32	233.67	15.99	-49.6	-51.0	14.5	0.00e+00	0	28	0	2030043136	64	4447
2026-01-07 01:43:18.31	233.62	15.88	-49.7	-51.1	14.4	0.00e+00	0	27	0	2033188864	64	4494
2026-01-07 01:43:19.31	233.56	15.77	-49.6	-50.9	14.5	0.00e+00	0	28	0	2036334592	64	4407
2026-01-07 01:43:20.31	233.51	15.67	-49.6	-50.9	14.5	0.00e+00	0	28	0	2039480320	64	4409
2026-01-07 01:43:21.31	233.46	15.56	-49.6	-50.9	14.5	0.00e+00	0	28	0	2042626048	64	4425
