passes_logs/2026/01/07/R3.2S_Murmansk/R3.2S_Murmansk__20260107_114828_AQUA_rec.log

#Pass ID: 20260107_114828_AQUA
#Satellite: AQUA
#Configuration: AQUA
#almurnet v.1.7.20251203
#Start time: 2026-01-07 11:48:29

#Version: 2.2.20231116
#Station: R3.2S_Murmansk
#Location: 33.079688 lon 68.888172 lat
#TLE: 1 27424U 02022A   26004.96787593  .00001598  00000+0  32997-3 0  9996
#TLE: 2 27424  98.4069 331.2279 0002002  90.2377   0.6092 14.61798176259425

#Time	Az	El	Level	Level2	SNR	BER	BlckErr	Temp	State	Recorded	gain1	gain2
2026-01-07 11:48:29.34	166.12	2.08	-57.2	-76.4	3.8	7.47e-01	0	23	0	0	83	32492
2026-01-07 11:48:30.35	166.14	2.15	-57.2	-75.9	3.8	7.46e-01	0	23	104	0	82	32435
2026-01-07 11:48:31.36	166.16	2.22	-57.2	-75.9	3.8	7.49e-01	0	23	104	0	82	32255
2026-01-07 11:48:32.37	166.18	2.28	-57.2	-75.5	3.8	7.47e-01	0	23	104	0	82	31084
2026-01-07 11:48:33.38	166.20	2.35	-57.2	-75.6	3.8	7.46e-01	0	23	104	0	82	31267
2026-01-07 11:48:34.39	166.22	2.42	-57.2	-75.7	3.8	7.44e-01	0	23	104	0	82	31459
2026-01-07 11:48:35.40	166.24	2.49	-57.2	-75.9	3.8	7.48e-01	0	23	104	0	82	32408
2026-01-07 11:48:36.41	166.26	2.55	-57.2	-76.1	3.8	7.42e-01	0	23	104	0	82	33216
2026-01-07 11:48:37.42	166.28	2.62	-57.2	-76.2	3.8	7.46e-01	0	23	104	0	82	33516
2026-01-07 11:48:38.43	166.30	2.69	-57.2	-76.3	3.8	7.46e-01	0	23	104	0	82	33835
2026-01-07 11:48:39.44	166.33	2.76	-57.2	-76.2	3.8	7.48e-01	0	23	104	0	82	33600
2026-01-07 11:48:40.44	166.35	2.83	-57.2	-76.0	3.8	7.46e-01	0	23	104	0	82	32767
2026-01-07 11:48:41.45	166.37	2.90	-57.2	-75.7	3.8	7.45e-01	0	23	104	0	82	31796
2026-01-07 11:48:42.46	166.39	2.96	-57.2	-75.6	3.8	7.49e-01	0	23	104	0	82	31394
2026-01-07 11:48:43.47	166.41	3.03	-57.2	-75.8	3.8	7.46e-01	0	23	104	0	82	31891
2026-01-07 11:48:44.48	166.43	3.10	-57.2	-75.9	3.8	7.45e-01	0	23	104	0	82	32480
2026-01-07 11:48:45.49	166.46	3.17	-57.2	-76.4	3.8	7.47e-01	0	23	104	0	82	34474
2026-01-07 11:48:46.50	166.48	3.24	-57.2	-76.5	3.8	7.47e-01	0	24	104	0	82	34796
2026-01-07 11:48:47.51	166.50	3.31	-57.2	-75.9	3.8	7.44e-01	0	24	104	0	82	32328
2026-01-07 11:48:48.52	166.52	3.38	-57.2	-74.2	3.9	7.42e-01	0	24	104	0	82	26629
2026-01-07 11:48:49.53	166.54	3.45	-57.1	-71.6	4.6	7.18e-01	0	24	104	0	82	19633
2026-01-07 11:48:50.54	166.57	3.52	-57.0	-70.1	5.4	6.95e-01	45	24	0	0	82	16536
2026-01-07 11:48:51.55	166.59	3.60	-56.8	-67.6	7.1	6.56e-01	92	24	0	1572864	82	12481
2026-01-07 11:48:52.56	166.61	3.67	-56.7	-66.2	8.4	6.37e-01	0	24	0	3670016	82	10622
2026-01-07 11:48:53.57	166.63	3.74	-56.6	-65.5	9.1	6.29e-01	0	24	0	5242880	82	9761
2026-01-07 11:48:54.58	166.66	3.81	-56.4	-64.2	10.1	6.21e-01	0	24	0	7340032	82	8458
2026-01-07 11:48:55.58	166.68	3.88	-56.2	-63.6	10.6	6.17e-01	0	24	0	8912896	81	8355
2026-01-07 11:48:56.59	166.70	3.95	-56.1	-63.1	11.1	6.15e-01	0	24	0	11010048	81	7825
2026-01-07 11:48:57.60	166.73	4.02	-56.1	-62.9	11.2	6.11e-01	0	24	0	13107200	81	7653
2026-01-07 11:48:58.60	166.75	4.10	-55.8	-61.9	12.0	6.12e-01	0	24	0	14680064	80	7220
2026-01-07 11:48:59.61	166.77	4.17	-55.8	-61.9	11.9	6.12e-01	0	24	0	16777216	80	7239
2026-01-07 11:49:00.62	166.80	4.24	-55.7	-61.9	11.9	6.11e-01	0	24	0	18350080	80	7211
2026-01-07 11:49:01.62	166.82	4.31	-55.6	-61.4	12.3	6.10e-01	0	24	0	20447232	80	6812
2026-01-07 11:49:02.63	166.84	4.39	-55.4	-60.8	12.7	6.10e-01	0	24	0	22544384	80	6393
2026-01-07 11:49:03.64	166.87	4.46	-55.4	-60.8	12.6	6.10e-01	0	24	0	24117248	79	6767
2026-01-07 11:49:04.65	166.89	4.53	-55.3	-60.5	12.9	6.08e-01	0	24	0	26214400	79	6520
2026-01-07 11:49:05.66	166.91	4.61	-55.1	-59.9	13.3	6.06e-01	0	24	0	27787264	79	6093
2026-01-07 11:49:06.67	166.94	4.68	-55.2	-60.2	13.0	6.09e-01	0	24	0	29884416	79	6324
2026-01-07 11:49:07.68	166.96	4.76	-55.2	-60.2	13.0	6.08e-01	0	24	0	31981568	79	6346
2026-01-07 11:49:08.69	166.99	4.83	-55.3	-60.6	12.7	6.07e-01	0	24	0	33554432	79	6621
2026-01-07 11:49:09.70	167.01	4.91	-55.5	-61.1	12.3	6.09e-01	0	24	0	35651584	79	7008
2026-01-07 11:49:10.70	167.04	4.98	-55.7	-61.7	12.0	6.08e-01	0	24	0	37224448	79	7521
2026-01-07 11:49:11.71	167.06	5.06	-53.7	-57.1	14.5	6.07e-01	0	24	0	39321600	76	5223
2026-01-07 11:49:12.72	167.09	5.13	-57.1	-73.7	4.1	7.48e-01	0	24	104	40894464	81	26472
2026-01-07 11:49:13.73	167.11	5.21	-52.6	-55.4	14.7	6.05e-01	0	24	0	40894464	74	4844
2026-01-07 11:49:14.73	167.14	5.28	-52.2	-54.9	14.9	6.06e-01	0	24	0	42467328	72	5108
2026-01-07 11:49:15.74	167.16	5.36	-54.1	-58.0	14.0	6.08e-01	0	24	0	44564480	75	6159
2026-01-07 11:49:16.75	167.19	5.43	-51.4	-53.8	15.3	6.07e-01	0	24	0	46661632	72	4498
2026-01-07 11:49:17.75	167.21	5.51	-51.1	-53.3	15.5	6.07e-01	0	24	0	48234496	71	4508
2026-01-07 11:49:18.76	167.24	5.59	-51.1	-53.3	15.4	6.07e-01	0	24	0	50331648	71	4531
2026-01-07 11:49:19.77	167.26	5.66	-51.1	-53.4	15.3	6.08e-01	0	24	0	51904512	70	4827
2026-01-07 11:49:20.78	167.29	5.74	-51.1	-53.3	15.3	6.06e-01	0	24	0	54001664	70	4761
2026-01-07 11:49:21.78	167.31	5.82	-50.8	-53.0	15.4	6.07e-01	0	24	0	55574528	70	4617
2026-01-07 11:49:22.80	167.34	5.90	-50.9	-53.0	15.4	6.06e-01	0	24	0	57671680	70	4637
2026-01-07 11:49:23.80	167.37	5.97	-50.7	-52.8	15.5	6.05e-01	0	24	0	59768832	70	4526
2026-01-07 11:49:24.81	167.39	6.05	-50.7	-52.7	15.5	6.03e-01	0	24	0	61341696	70	4484
2026-01-07 11:49:25.81	167.42	6.13	-50.7	-52.8	15.5	6.08e-01	0	24	0	63438848	70	4542
2026-01-07 11:49:26.82	167.45	6.21	-50.8	-52.9	15.4	6.04e-01	0	24	0	65011712	70	4578
2026-01-07 11:49:27.83	167.47	6.29	-50.8	-52.9	15.4	6.07e-01	0	24	0	67108864	70	4561
2026-01-07 11:49:28.84	167.50	6.37	-50.7	-52.8	15.5	6.06e-01	0	24	0	69206016	70	4524
2026-01-07 11:49:29.85	167.53	6.45	-50.8	-52.8	15.5	6.08e-01	0	24	0	70778880	70	4542
2026-01-07 11:49:30.85	167.55	6.53	-50.8	-52.9	15.4	6.06e-01	0	24	0	72876032	70	4594
2026-01-07 11:49:31.86	167.58	6.61	-50.8	-52.9	15.5	6.06e-01	0	24	0	74973184	70	4566
2026-01-07 11:49:32.87	167.61	6.69	-50.7	-52.7	15.5	6.08e-01	0	24	0	76546048	70	4478
2026-01-07 11:49:33.87	167.63	6.77	-50.6	-52.7	15.6	6.08e-01	0	24	0	78643200	70	4446
2026-01-07 11:49:34.88	167.66	6.85	-50.5	-52.5	15.6	6.04e-01	0	24	0	80216064	70	4355
2026-01-07 11:49:35.89	167.69	6.93	-50.7	-52.8	15.5	6.06e-01	0	24	0	82313216	70	4497
2026-01-07 11:49:36.90	167.72	7.01	-50.6	-52.6	15.6	6.06e-01	0	24	0	84410368	70	4422
2026-01-07 11:49:37.91	167.75	7.09	-50.6	-52.5	15.6	6.05e-01	0	24	0	85983232	70	4391
2026-01-07 11:49:38.92	167.77	7.18	-50.6	-52.6	15.5	6.05e-01	0	24	0	88080384	70	4434
2026-01-07 11:49:39.93	167.80	7.26	-50.5	-52.5	15.6	6.08e-01	0	24	0	89653248	70	4351
2026-01-07 11:49:40.93	167.83	7.34	-50.7	-52.7	15.6	6.06e-01	0	24	0	91750400	70	4458
2026-01-07 11:49:41.93	167.86	7.42	-50.8	-52.9	15.5	6.07e-01	0	24	0	93847552	70	4547
2026-01-07 11:49:42.94	167.89	7.51	-50.8	-52.9	15.5	6.03e-01	0	24	0	95420416	70	4558
2026-01-07 11:49:43.95	167.92	7.59	-50.5	-52.5	15.6	6.10e-01	0	24	0	97517568	70	4366
2026-01-07 11:49:44.96	167.95	7.67	-50.6	-52.6	15.6	6.05e-01	0	24	0	99090432	70	4417
2026-01-07 11:49:45.97	167.98	7.76	-50.4	-52.4	15.7	6.06e-01	0	24	0	101187584	70	4299
2026-01-07 11:49:46.98	168.01	7.84	-50.3	-52.3	15.5	6.02e-01	0	24	0	103284736	69	4494
2026-01-07 11:49:47.98	168.04	7.93	-50.3	-52.3	15.5	6.05e-01	0	24	0	104857600	69	4506
2026-01-07 11:49:48.99	168.07	8.01	-50.3	-52.3	15.5	6.05e-01	0	25	0	106954752	69	4502
2026-01-07 11:49:50.00	168.10	8.10	-50.3	-52.3	15.5	6.06e-01	0	25	0	108527616	69	4504
2026-01-07 11:49:51.00	168.13	8.18	-50.3	-52.3	15.5	6.07e-01	0	24	0	110624768	69	4495
2026-01-07 11:49:52.01	168.16	8.27	-50.3	-52.3	15.5	6.04e-01	0	24	0	112721920	69	4497
2026-01-07 11:49:53.02	168.19	8.36	-50.5	-52.4	15.5	6.06e-01	0	24	0	114294784	69	4596
2026-01-07 11:49:54.03	168.22	8.44	-50.4	-52.3	15.5	6.07e-01	0	24	0	116391936	69	4543
2026-01-07 11:49:55.03	168.25	8.53	-50.2	-52.1	15.6	6.06e-01	0	24	0	117964800	69	4399
2026-01-07 11:49:56.03	168.28	8.62	-50.3	-52.2	15.6	6.07e-01	0	24	0	120061952	69	4466
2026-01-07 11:49:57.04	168.31	8.70	-50.2	-52.1	15.6	6.07e-01	0	24	0	122159104	69	4420
2026-01-07 11:49:58.05	168.34	8.79	-50.1	-52.0	15.5	6.07e-01	0	25	0	123731968	69	4379
2026-01-07 11:49:59.06	168.37	8.88	-50.1	-51.9	15.6	6.09e-01	0	24	0	125829120	69	4337
2026-01-07 11:50:00.07	168.41	8.97	-50.1	-52.0	15.6	6.06e-01	0	24	0	127401984	69	4384
2026-01-07 11:50:01.07	168.44	9.06	-50.2	-52.1	15.6	6.03e-01	0	25	0	129499136	69	4399
2026-01-07 11:50:02.08	168.47	9.15	-50.1	-52.0	15.7	6.05e-01	0	24	0	131596288	69	4345
2026-01-07 11:50:03.08	168.50	9.24	-50.1	-52.0	15.6	6.06e-01	0	25	0	133169152	69	4347
2026-01-07 11:50:04.09	168.53	9.33	-50.0	-51.9	15.7	6.05e-01	0	24	0	135266304	69	4308
2026-01-07 11:50:05.10	168.57	9.42	-50.1	-51.9	15.7	6.07e-01	0	24	0	136839168	69	4326
2026-01-07 11:50:06.10	168.60	9.51	-50.0	-51.9	15.7	6.06e-01	0	24	0	138936320	69	4312
2026-01-07 11:50:07.11	168.63	9.60	-50.0	-51.9	15.7	6.06e-01	0	25	0	141033472	69	4317
2026-01-07 11:50:08.11	168.67	9.69	-50.0	-51.9	15.7	6.06e-01	0	25	0	142606336	69	4309
2026-01-07 11:50:09.12	168.70	9.78	-50.0	-51.9	15.7	6.04e-01	0	25	0	144703488	69	4299
2026-01-07 11:50:10.13	168.73	9.88	-50.0	-51.8	15.7	6.07e-01	0	25	0	146276352	69	4287
2026-01-07 11:50:11.13	168.77	9.97	-49.9	-51.7	15.7	6.07e-01	0	25	0	148373504	69	4240
2026-01-07 11:50:12.14	168.80	10.06	-50.1	-51.9	15.7	6.02e-01	0	24	0	150470656	69	4320
2026-01-07 11:50:13.15	168.84	10.15	-50.0	-51.8	15.7	6.08e-01	0	24	0	152043520	69	4290
2026-01-07 11:50:14.16	168.87	10.25	-50.0	-51.9	15.7	6.07e-01	0	25	0	154140672	69	4313
2026-01-07 11:50:15.16	168.90	10.34	-49.9	-51.7	15.8	6.05e-01	0	24	0	155713536	69	4231
2026-01-07 11:50:16.17	168.94	10.44	-49.9	-51.7	15.6	6.08e-01	0	24	0	157810688	68	4448
2026-01-07 11:50:17.18	168.97	10.53	-49.8	-51.6	15.6	6.06e-01	0	24	0	159907840	68	4393
2026-01-07 11:50:18.19	169.01	10.63	-49.8	-51.6	15.6	6.07e-01	0	24	0	161480704	68	4406
2026-01-07 11:50:19.20	169.05	10.72	-49.8	-51.6	15.6	6.08e-01	0	25	0	163577856	68	4418
2026-01-07 11:50:20.21	169.08	10.82	-49.8	-51.6	15.6	6.05e-01	0	25	0	165150720	68	4412
2026-01-07 11:50:21.22	169.12	10.92	-49.8	-51.5	15.6	6.05e-01	0	25	0	167247872	68	4388
2026-01-07 11:50:22.22	169.15	11.01	-49.6	-51.4	15.7	6.08e-01	0	24	0	169345024	68	4319
2026-01-07 11:50:23.23	169.19	11.11	-49.7	-51.5	15.7	6.05e-01	0	25	0	170917888	68	4347
2026-01-07 11:50:24.24	169.23	11.21	-49.7	-51.5	15.6	6.04e-01	0	25	0	173015040	68	4374
2026-01-07 11:50:25.25	169.26	11.31	-49.7	-51.4	15.7	6.05e-01	0	24	0	175112192	68	4330
2026-01-07 11:50:26.26	169.30	11.41	-49.6	-51.3	15.7	6.06e-01	0	25	0	176685056	68	4281
2026-01-07 11:50:27.26	169.34	11.51	-49.7	-51.4	15.7	6.07e-01	0	25	0	178782208	68	4339
2026-01-07 11:50:28.27	169.38	11.61	-49.6	-51.4	15.7	6.01e-01	0	25	0	180355072	68	4306
2026-01-07 11:50:29.28	169.42	11.71	-49.7	-51.5	15.7	6.07e-01	0	25	0	182452224	68	4342
2026-01-07 11:50:30.29	169.45	11.81	-49.8	-51.6	15.6	6.08e-01	0	25	0	184025088	68	4393
2026-01-07 11:50:31.29	169.49	11.91	-49.5	-51.2	15.7	6.06e-01	0	25	0	186122240	68	4234
2026-01-07 11:50:32.30	169.53	12.01	-49.4	-51.2	15.8	6.06e-01	0	25	0	188219392	68	4202
2026-01-07 11:50:33.30	169.57	12.11	-49.5	-51.2	15.7	6.05e-01	0	25	0	189792256	68	4236
2026-01-07 11:50:34.31	169.61	12.21	-49.5	-51.2	15.7	6.08e-01	0	24	0	191889408	68	4236
2026-01-07 11:50:35.32	169.65	12.32	-49.5	-51.2	15.7	6.05e-01	0	24	0	193462272	68	4227
2026-01-07 11:50:36.33	169.69	12.42	-49.5	-51.2	15.7	6.05e-01	0	24	0	195559424	68	4218
2026-01-07 11:50:37.33	169.73	12.52	-49.4	-51.1	15.8	6.06e-01	0	24	0	197656576	68	4189
2026-01-07 11:50:38.34	169.77	12.63	-49.5	-51.2	15.8	6.07e-01	0	24	0	199229440	68	4210
2026-01-07 11:50:39.34	169.81	12.73	-49.5	-51.2	15.7	6.05e-01	0	25	0	201326592	68	4221
2026-01-07 11:50:40.35	169.85	12.84	-49.6	-51.3	15.7	6.07e-01	0	25	0	203423744	68	4267
2026-01-07 11:50:41.35	169.89	12.94	-49.5	-51.2	15.7	6.06e-01	0	24	0	204996608	68	4234
2026-01-07 11:50:42.35	169.93	13.05	-49.5	-51.2	15.7	6.06e-01	0	25	0	207093760	68	4223
2026-01-07 11:50:43.36	169.97	13.15	-49.5	-51.2	15.8	6.07e-01	0	25	0	208666624	68	4235
2026-01-07 11:50:44.37	170.02	13.26	-49.4	-51.1	15.8	6.07e-01	0	25	0	210763776	68	4175
2026-01-07 11:50:45.38	170.06	13.37	-49.4	-51.1	15.8	6.06e-01	0	25	0	212336640	68	4174
2026-01-07 11:50:46.39	170.10	13.48	-49.4	-51.1	15.8	6.06e-01	0	25	0	214433792	68	4176
2026-01-07 11:50:47.39	170.14	13.59	-49.3	-51.0	15.7	6.05e-01	0	25	0	216530944	67	4356
2026-01-07 11:50:48.40	170.19	13.70	-49.2	-50.9	15.7	6.06e-01	0	25	0	218103808	67	4325
2026-01-07 11:50:49.40	170.23	13.81	-49.3	-51.0	15.6	6.06e-01	0	25	0	220200960	67	4369
2026-01-07 11:50:50.41	170.28	13.92	-49.4	-51.1	15.6	6.06e-01	0	25	0	221773824	67	4399
2026-01-07 11:50:51.41	170.32	14.03	-49.2	-50.9	15.7	6.04e-01	0	25	0	223870976	67	4321
2026-01-07 11:50:52.42	170.36	14.14	-49.2	-50.9	15.7	6.05e-01	0	25	0	225968128	67	4311
2026-01-07 11:50:53.43	170.41	14.25	-49.3	-51.0	15.6	6.06e-01	0	25	0	227540992	67	4389
2026-01-07 11:50:54.44	170.45	14.36	-49.3	-51.0	15.6	6.05e-01	0	25	0	229638144	67	4380
2026-01-07 11:50:55.44	170.50	14.48	-49.3	-51.0	15.6	6.08e-01	0	25	0	231735296	67	4360
2026-01-07 11:50:56.44	170.55	14.59	-49.4	-51.1	15.6	6.07e-01	0	25	0	233308160	67	4398
2026-01-07 11:50:57.45	170.59	14.70	-49.3	-51.0	15.6	6.04e-01	0	25	0	235405312	67	4381
2026-01-07 11:50:58.46	170.64	14.82	-49.2	-50.9	15.7	6.06e-01	0	25	0	236978176	67	4324
2026-01-07 11:50:59.47	170.69	14.93	-49.3	-51.0	15.7	6.07e-01	0	25	0	239075328	67	4364
2026-01-07 11:51:00.48	170.73	15.05	-49.3	-50.9	15.7	6.06e-01	0	25	0	240648192	67	4337
2026-01-07 11:51:01.49	170.78	15.17	-49.2	-50.9	15.7	6.07e-01	0	25	0	242745344	67	4297
2026-01-07 11:51:02.49	170.83	15.28	-49.2	-50.9	15.7	6.06e-01	0	25	0	244842496	67	4324
2026-01-07 11:51:03.50	170.88	15.40	-49.2	-50.8	15.7	6.07e-01	0	25	0	246415360	67	4287
2026-01-07 11:51:04.51	170.93	15.52	-49.2	-50.9	15.7	6.07e-01	0	25	0	248512512	67	4313
2026-01-07 11:51:05.52	170.98	15.64	-49.2	-50.9	15.7	6.06e-01	0	25	0	250085376	67	4324
2026-01-07 11:51:06.52	171.03	15.76	-49.2	-50.9	15.7	6.07e-01	0	25	0	252182528	67	4315
2026-01-07 11:51:07.52	171.07	15.88	-49.1	-50.8	15.7	6.05e-01	0	25	0	254279680	67	4256
2026-01-07 11:51:08.53	171.13	16.00	-49.1	-50.8	15.7	6.07e-01	0	25	0	255852544	67	4264
2026-01-07 11:51:09.53	171.18	16.12	-49.2	-50.8	15.7	6.06e-01	0	25	0	257949696	67	4272
2026-01-07 11:51:10.54	171.23	16.24	-49.1	-50.7	15.8	6.05e-01	0	25	0	259522560	67	4222
2026-01-07 11:51:11.54	171.28	16.37	-49.2	-50.8	15.7	6.07e-01	0	25	0	261619712	67	4262
2026-01-07 11:51:12.55	171.33	16.49	-49.2	-50.8	15.7	6.03e-01	0	25	0	263716864	67	4281
2026-01-07 11:51:13.56	171.38	16.62	-49.2	-50.9	15.7	6.05e-01	0	25	0	265289728	67	4317
2026-01-07 11:51:14.57	171.44	16.74	-49.1	-50.7	15.7	6.06e-01	0	25	0	267386880	67	4221
2026-01-07 11:51:15.58	171.49	16.87	-49.1	-50.7	15.8	6.07e-01	0	25	0	268959744	67	4226
2026-01-07 11:51:16.59	171.54	16.99	-49.2	-50.8	15.7	6.06e-01	0	25	0	271056896	67	4278
2026-01-07 11:51:17.60	171.60	17.12	-49.0	-50.7	15.8	6.06e-01	0	25	0	273154048	67	4201
2026-01-07 11:51:18.61	171.65	17.25	-49.1	-50.8	15.7	6.04e-01	0	25	0	274726912	67	4255
2026-01-07 11:51:19.61	171.71	17.38	-49.1	-50.7	15.7	6.05e-01	0	25	0	276824064	67	4212
2026-01-07 11:51:20.62	171.76	17.51	-49.2	-50.9	15.7	6.09e-01	0	25	0	278396928	67	4294
2026-01-07 11:51:21.62	171.82	17.64	-49.2	-50.8	15.7	6.07e-01	0	25	0	280494080	67	4276
2026-01-07 11:51:22.63	171.88	17.77	-49.1	-50.8	15.7	6.07e-01	0	25	0	282591232	67	4252
2026-01-07 11:51:23.64	171.93	17.90	-49.2	-50.8	15.7	6.07e-01	0	25	0	284164096	67	4274
2026-01-07 11:51:24.64	171.99	18.03	-49.2	-50.8	15.7	6.05e-01	0	25	0	286261248	67	4283
2026-01-07 11:51:25.64	172.05	18.16	-49.2	-50.9	15.7	6.06e-01	0	25	0	288358400	67	4306
2026-01-07 11:51:26.65	172.11	18.30	-49.1	-50.7	15.7	6.07e-01	0	25	0	289931264	67	4222
2026-01-07 11:51:27.66	172.17	18.43	-49.1	-50.7	15.8	6.07e-01	0	25	0	292028416	67	4212
2026-01-07 11:51:28.67	172.23	18.57	-49.1	-50.7	15.8	6.06e-01	0	25	0	293601280	67	4235
2026-01-07 11:51:29.68	172.29	18.70	-49.1	-50.7	15.7	6.04e-01	0	25	0	295698432	67	4233
2026-01-07 11:51:30.69	172.35	18.84	-49.0	-50.6	15.8	6.05e-01	0	25	0	297271296	67	4188
2026-01-07 11:51:31.69	172.41	18.98	-49.1	-50.8	15.7	6.06e-01	0	25	0	299368448	67	4248
2026-01-07 11:51:32.70	172.47	19.12	-49.1	-50.7	15.8	6.07e-01	0	25	0	301465600	67	4218
2026-01-07 11:51:33.71	172.53	19.26	-49.2	-50.8	15.7	6.07e-01	0	25	0	303038464	67	4262
2026-01-07 11:51:34.71	172.59	19.40	-49.2	-50.8	15.7	6.08e-01	0	25	0	305135616	67	4289
2026-01-07 11:51:35.72	172.66	19.54	-49.2	-50.9	15.7	6.07e-01	0	25	0	306708480	67	4293
2026-01-07 11:51:36.72	172.72	19.68	-49.3	-51.0	15.6	6.07e-01	0	25	0	308805632	67	4348
2026-01-07 11:51:37.73	172.79	19.82	-49.3	-51.0	15.6	6.06e-01	0	25	0	310902784	67	4377
2026-01-07 11:51:38.74	172.85	19.97	-49.3	-51.0	15.6	6.07e-01	0	24	0	312475648	67	4365
2026-01-07 11:51:39.74	172.92	20.11	-49.3	-50.9	15.7	6.05e-01	0	25	0	314572800	67	4320
2026-01-07 11:51:40.75	172.98	20.26	-49.3	-50.9	15.7	6.06e-01	0	25	0	316669952	67	4337
2026-01-07 11:51:41.76	173.05	20.40	-49.2	-50.8	15.7	6.07e-01	0	25	0	318242816	67	4260
2026-01-07 11:51:42.76	173.12	20.55	-49.1	-50.7	15.7	6.04e-01	0	25	0	320339968	67	4233
2026-01-07 11:51:43.77	173.19	20.70	-49.0	-50.6	15.8	6.06e-01	0	25	0	321912832	67	4176
2026-01-07 11:51:44.78	173.26	20.85	-49.1	-50.7	15.8	6.06e-01	0	25	0	324009984	67	4211
2026-01-07 11:51:45.79	173.32	21.00	-49.0	-50.6	15.8	6.05e-01	0	25	0	325582848	67	4179
2026-01-07 11:51:46.80	173.40	21.15	-49.1	-50.8	15.7	6.06e-01	0	25	0	327680000	67	4246
2026-01-07 11:51:47.80	173.47	21.30	-49.2	-50.8	15.7	6.05e-01	0	25	0	329777152	67	4270
2026-01-07 11:51:48.81	173.54	21.45	-49.3	-50.9	15.7	6.08e-01	0	25	0	331350016	67	4329
2026-01-07 11:51:49.82	173.61	21.61	-49.2	-50.9	15.7	6.07e-01	0	25	0	333447168	67	4305
2026-01-07 11:51:50.82	173.68	21.76	-49.3	-51.0	15.6	6.04e-01	0	25	0	335020032	67	4363
2026-01-07 11:51:51.82	173.76	21.92	-49.3	-51.0	15.7	6.07e-01	0	25	0	337117184	67	4346
2026-01-07 11:51:52.83	173.83	22.07	-49.4	-51.0	15.6	6.07e-01	0	25	0	339214336	67	4375
2026-01-07 11:51:53.84	173.91	22.23	-49.4	-51.1	15.6	6.07e-01	0	25	0	340787200	67	4394
2026-01-07 11:51:54.84	173.98	22.39	-49.3	-50.9	15.7	6.05e-01	0	25	0	342884352	67	4324
2026-01-07 11:51:55.85	174.06	22.55	-49.3	-51.0	15.6	6.06e-01	0	25	0	344981504	67	4342
2026-01-07 11:51:56.85	174.14	22.71	-49.3	-50.9	15.6	6.07e-01	0	25	0	346554368	67	4334
2026-01-07 11:51:57.86	174.22	22.87	-49.3	-51.0	15.7	6.05e-01	0	25	0	348651520	67	4351
2026-01-07 11:51:58.87	174.29	23.04	-49.4	-51.0	15.6	6.08e-01	0	25	0	350224384	67	4368
2026-01-07 11:51:59.88	174.38	23.20	-49.3	-51.0	15.6	6.07e-01	0	25	0	352321536	67	4358
2026-01-07 11:52:00.88	174.46	23.37	-49.4	-51.1	15.6	6.08e-01	0	25	0	353894400	67	4423
2026-01-07 11:52:01.90	174.54	23.53	-49.5	-51.2	15.6	6.08e-01	0	25	0	355991552	67	4447
2026-01-07 11:52:02.90	174.62	23.70	-49.6	-51.3	15.5	6.05e-01	0	25	0	358088704	67	4509
2026-01-07 11:52:03.91	174.70	23.87	-49.6	-51.3	15.5	6.07e-01	0	25	0	359661568	67	4527
2026-01-07 11:52:04.92	174.79	24.04	-49.6	-51.3	15.5	6.07e-01	0	25	0	361758720	67	4520
2026-01-07 11:52:05.92	174.87	24.21	-49.6	-51.3	15.5	6.06e-01	0	25	0	363331584	67	4520
2026-01-07 11:52:06.93	174.96	24.38	-49.5	-51.1	15.6	6.03e-01	0	25	0	365428736	67	4433
2026-01-07 11:52:07.94	175.05	24.56	-49.4	-51.1	15.6	6.04e-01	0	25	0	367525888	67	4416
2026-01-07 11:52:08.94	175.14	24.73	-49.4	-51.0	15.6	6.06e-01	0	25	0	369098752	67	4375
2026-01-07 11:52:09.95	175.22	24.90	-49.2	-50.9	15.7	6.07e-01	0	25	0	371195904	67	4295
2026-01-07 11:52:10.95	175.31	25.08	-49.3	-51.0	15.6	6.06e-01	0	24	0	373293056	67	4360
2026-01-07 11:52:11.95	175.41	25.26	-49.4	-51.0	15.6	6.05e-01	0	25	0	374865920	67	4389
2026-01-07 11:52:12.96	175.50	25.44	-49.5	-51.1	15.6	6.06e-01	0	25	0	376963072	67	4440
2026-01-07 11:52:13.96	175.59	25.62	-49.5	-51.2	15.6	6.05e-01	0	25	0	378535936	67	4474
2026-01-07 11:52:14.97	175.68	25.80	-49.5	-51.2	15.6	6.04e-01	0	25	0	380633088	67	4454
2026-01-07 11:52:15.98	175.78	25.98	-49.5	-51.2	15.6	6.06e-01	0	25	0	382205952	67	4447
2026-01-07 11:52:16.99	175.88	26.17	-49.4	-51.0	15.6	6.06e-01	0	25	0	384303104	67	4378
2026-01-07 11:52:18.00	175.98	26.35	-49.3	-50.9	15.7	6.06e-01	0	25	0	386400256	67	4336
2026-01-07 11:52:19.01	176.07	26.54	-49.3	-50.9	15.7	6.04e-01	0	25	0	387973120	67	4314
2026-01-07 11:52:20.01	176.17	26.73	-49.4	-51.0	15.6	6.06e-01	0	25	0	390070272	67	4363
2026-01-07 11:52:21.02	176.28	26.92	-49.4	-51.1	15.6	6.06e-01	0	25	0	391643136	67	4408
2026-01-07 11:52:22.03	176.38	27.11	-49.4	-51.1	15.6	6.06e-01	0	25	0	393740288	67	4415
2026-01-07 11:52:23.04	176.48	27.30	-49.3	-50.9	15.7	6.06e-01	0	25	0	395837440	67	4340
2026-01-07 11:52:24.04	176.59	27.49	-49.2	-50.9	15.7	6.09e-01	0	25	0	397410304	67	4305
2026-01-07 11:52:25.05	176.69	27.69	-49.1	-50.7	15.8	6.04e-01	0	25	0	399507456	67	4196
2026-01-07 11:52:26.06	176.80	27.89	-49.1	-50.7	15.8	6.04e-01	0	25	0	401604608	67	4210
2026-01-07 11:52:27.07	176.91	28.09	-49.1	-50.7	15.8	6.06e-01	0	25	0	403177472	67	4196
2026-01-07 11:52:28.08	177.02	28.29	-48.9	-50.5	15.8	6.05e-01	0	25	0	405274624	67	4127
2026-01-07 11:52:29.09	177.13	28.49	-49.0	-50.5	15.8	6.07e-01	0	25	0	406847488	67	4142
2026-01-07 11:52:30.09	177.24	28.69	-48.9	-50.5	15.8	6.07e-01	0	25	0	408944640	67	4122
2026-01-07 11:52:31.10	177.36	28.89	-48.9	-50.5	15.8	6.08e-01	0	25	0	411041792	67	4130
2026-01-07 11:52:32.11	177.47	29.10	-48.9	-50.5	15.8	6.06e-01	0	25	0	412614656	67	4128
2026-01-07 11:52:33.11	177.59	29.30	-48.9	-50.5	15.8	6.07e-01	0	25	0	414711808	67	4111
2026-01-07 11:52:34.11	177.71	29.51	-48.9	-50.4	15.8	6.06e-01	0	25	0	416284672	67	4095
2026-01-07 11:52:35.12	177.83	29.72	-48.8	-50.3	15.7	6.07e-01	0	25	0	418381824	66	4288
2026-01-07 11:52:36.12	177.95	29.93	-48.9	-50.4	15.7	6.06e-01	0	25	0	419954688	66	4339
2026-01-07 11:52:37.13	178.07	30.14	-49.0	-50.6	15.6	6.07e-01	0	25	0	422051840	66	4422
2026-01-07 11:52:38.13	178.20	30.36	-49.1	-50.7	15.6	6.05e-01	0	25	0	424148992	66	4472
2026-01-07 11:52:39.14	178.33	30.57	-49.1	-50.7	15.6	6.06e-01	0	25	0	425721856	66	4474
2026-01-07 11:52:40.15	178.45	30.79	-48.9	-50.5	15.6	6.07e-01	0	25	0	427819008	66	4366
2026-01-07 11:52:41.15	178.58	31.01	-48.8	-50.4	15.7	6.05e-01	0	25	0	429916160	66	4300
2026-01-07 11:52:42.16	178.72	31.23	-48.9	-50.5	15.7	6.05e-01	0	25	0	431489024	66	4369
2026-01-07 11:52:43.17	178.85	31.45	-49.0	-50.6	15.6	6.06e-01	0	25	0	433586176	66	4393
2026-01-07 11:52:44.17	178.99	31.67	-49.1	-50.7	15.6	6.05e-01	0	25	0	435159040	66	4481
2026-01-07 11:52:45.18	179.12	31.90	-49.1	-50.7	15.6	6.07e-01	0	25	0	437256192	66	4462
2026-01-07 11:52:46.19	179.26	32.13	-49.0	-50.6	15.6	6.08e-01	0	25	0	438829056	66	4398
2026-01-07 11:52:47.19	179.40	32.36	-49.0	-50.6	15.6	6.06e-01	0	25	0	440926208	66	4433
2026-01-07 11:52:48.20	179.55	32.59	-49.3	-50.9	15.5	6.07e-01	0	25	0	443023360	66	4565
2026-01-07 11:52:49.21	179.69	32.82	-49.3	-51.0	15.5	6.05e-01	0	25	0	444596224	66	4623
2026-01-07 11:52:50.22	179.84	33.06	-49.4	-51.1	15.5	6.07e-01	0	25	0	446693376	66	4682
2026-01-07 11:52:51.23	179.99	33.29	-49.4	-51.1	15.5	6.07e-01	0	25	0	448266240	66	4671
2026-01-07 11:52:52.23	180.14	33.53	-49.5	-51.2	15.5	6.05e-01	0	25	0	450363392	66	4719
2026-01-07 11:52:53.24	180.30	33.77	-49.6	-51.3	15.4	6.07e-01	0	25	0	452460544	66	4779
2026-01-07 11:52:54.25	180.45	34.01	-49.8	-51.5	15.5	6.07e-01	0	25	0	454033408	67	4602
2026-01-07 11:52:55.25	180.61	34.25	-49.8	-51.6	15.5	6.06e-01	0	25	0	456130560	67	4653
2026-01-07 11:52:56.26	180.77	34.50	-49.8	-51.5	15.5	6.07e-01	0	25	0	458227712	67	4613
2026-01-07 11:52:57.26	180.94	34.74	-49.8	-51.5	15.5	6.07e-01	0	25	0	459800576	67	4635
2026-01-07 11:52:58.27	181.10	34.99	-49.8	-51.5	15.5	6.05e-01	0	25	0	461897728	67	4637
2026-01-07 11:52:59.27	181.27	35.24	-49.8	-51.5	15.5	6.07e-01	0	25	0	463470592	67	4629
2026-01-07 11:53:00.28	181.44	35.49	-50.2	-52.0	15.4	6.05e-01	0	25	0	465567744	68	4608
2026-01-07 11:53:01.29	181.62	35.75	-50.4	-52.1	15.4	6.07e-01	0	25	0	467140608	68	4705
2026-01-07 11:53:02.29	181.79	36.00	-50.4	-52.2	15.4	6.08e-01	0	25	0	469237760	68	4743
2026-01-07 11:53:03.30	181.97	36.26	-50.5	-52.3	15.4	6.05e-01	0	25	0	471334912	68	4780
2026-01-07 11:53:04.31	182.15	36.52	-50.5	-52.3	15.4	6.08e-01	0	25	0	472907776	68	4791
2026-01-07 11:53:05.32	182.34	36.78	-50.7	-52.5	15.5	6.05e-01	0	25	0	475004928	69	4621
2026-01-07 11:53:06.33	182.53	37.05	-50.7	-52.5	15.4	6.08e-01	0	25	0	477102080	69	4619
2026-01-07 11:53:07.34	182.72	37.31	-50.7	-52.5	15.5	6.04e-01	0	25	0	478674944	69	4617
2026-01-07 11:53:08.35	182.92	37.58	-50.7	-52.5	15.5	6.06e-01	0	25	0	480772096	69	4617
2026-01-07 11:53:09.35	183.11	37.85	-50.7	-52.5	15.4	6.07e-01	0	25	0	482344960	69	4632
2026-01-07 11:53:10.36	183.31	38.12	-50.9	-52.8	15.4	6.06e-01	0	25	0	484442112	69	4772
2026-01-07 11:53:11.37	183.52	38.40	-50.9	-52.8	15.4	6.06e-01	0	25	0	486539264	69	4774
2026-01-07 11:53:12.37	183.73	38.67	-50.9	-52.7	15.4	6.05e-01	0	25	0	488112128	69	4747
2026-01-07 11:53:13.37	183.94	38.94	-50.8	-52.7	15.4	6.04e-01	0	25	0	490209280	69	4720
2026-01-07 11:53:14.38	184.15	39.22	-50.6	-52.4	15.5	6.07e-01	0	25	0	491782144	69	4590
2026-01-07 11:53:15.39	184.37	39.51	-50.6	-52.5	15.5	6.08e-01	0	25	0	493879296	69	4605
2026-01-07 11:53:16.40	184.59	39.79	-50.7	-52.5	15.5	6.06e-01	0	25	0	495976448	69	4627
2026-01-07 11:53:17.41	184.82	40.07	-50.7	-52.6	15.4	6.07e-01	0	25	0	497549312	69	4656
2026-01-07 11:53:18.41	185.05	40.36	-50.3	-52.0	15.6	6.03e-01	0	25	0	499646464	69	4379
2026-01-07 11:53:19.42	185.29	40.65	-50.2	-51.9	15.7	6.07e-01	0	25	0	501219328	69	4332
2026-01-07 11:53:20.43	185.53	40.94	-50.3	-52.0	15.6	6.08e-01	0	25	0	503316480	69	4376
2026-01-07 11:53:21.43	185.77	41.23	-50.2	-51.9	15.7	6.07e-01	0	25	0	505413632	69	4310
2026-01-07 11:53:22.44	186.02	41.53	-50.0	-51.7	15.7	6.07e-01	0	25	0	506986496	69	4209
2026-01-07 11:53:23.45	186.27	41.82	-49.9	-51.6	15.8	6.06e-01	0	25	0	509083648	69	4160
2026-01-07 11:53:24.45	186.52	42.12	-49.9	-51.5	15.6	6.05e-01	0	25	0	510656512	68	4384
2026-01-07 11:53:25.46	186.79	42.42	-49.5	-51.1	15.8	6.06e-01	0	25	0	512753664	68	4150
2026-01-07 11:53:26.47	187.05	42.72	-49.1	-50.6	15.7	6.05e-01	0	25	0	514850816	67	4176
2026-01-07 11:53:27.48	187.33	43.03	-49.1	-50.7	15.8	6.08e-01	0	25	0	516423680	67	4200
2026-01-07 11:53:28.49	187.60	43.34	-49.0	-50.5	15.8	6.08e-01	0	25	0	518520832	67	4134
2026-01-07 11:53:29.49	187.88	43.64	-49.0	-50.6	15.8	6.06e-01	0	25	0	520093696	67	4153
2026-01-07 11:53:30.50	188.17	43.95	-49.1	-50.6	15.7	6.07e-01	0	25	0	522190848	67	4192
2026-01-07 11:53:31.51	188.47	44.27	-49.0	-50.6	15.8	6.06e-01	0	25	0	524288000	67	4166
2026-01-07 11:53:32.51	188.76	44.58	-49.0	-50.6	15.8	6.06e-01	0	25	0	525860864	67	4154
2026-01-07 11:53:33.51	189.07	44.89	-48.7	-50.2	15.7	6.07e-01	0	25	0	527958016	66	4221
2026-01-07 11:53:34.52	189.38	45.21	-48.7	-50.3	15.7	6.06e-01	0	25	0	529530880	66	4250
2026-01-07 11:53:35.53	189.70	45.53	-48.8	-50.4	15.7	6.05e-01	0	25	0	531628032	66	4299
2026-01-07 11:53:36.54	190.02	45.85	-48.9	-50.4	15.7	6.05e-01	0	25	0	533725184	66	4324
2026-01-07 11:53:37.55	190.35	46.17	-48.9	-50.4	15.7	6.05e-01	0	25	0	535298048	66	4330
2026-01-07 11:53:38.55	190.69	46.49	-48.6	-50.2	15.7	6.08e-01	0	25	0	537395200	66	4195
2026-01-07 11:53:39.56	191.04	46.82	-48.6	-50.1	15.8	6.07e-01	0	25	0	538968064	66	4179
2026-01-07 11:53:40.57	191.39	47.15	-48.7	-50.2	15.7	6.07e-01	0	25	0	541065216	66	4236
2026-01-07 11:53:41.58	191.75	47.48	-48.6	-50.1	15.7	6.06e-01	0	25	0	543162368	66	4192
2026-01-07 11:53:42.58	192.11	47.80	-48.8	-50.3	15.7	6.07e-01	0	25	0	544735232	66	4267
2026-01-07 11:53:43.59	192.49	48.14	-48.6	-50.2	15.7	6.07e-01	0	25	0	546832384	66	4202
2026-01-07 11:53:44.60	192.87	48.47	-48.7	-50.2	15.7	6.06e-01	0	25	0	548405248	66	4237
2026-01-07 11:53:45.61	193.27	48.80	-48.7	-50.3	15.7	6.04e-01	0	25	0	550502400	66	4251
2026-01-07 11:53:46.62	193.67	49.14	-48.7	-50.3	15.7	6.06e-01	0	25	0	552599552	66	4255
2026-01-07 11:53:47.62	194.07	49.47	-48.7	-50.2	15.7	6.08e-01	0	25	0	554172416	66	4220
2026-01-07 11:53:48.63	194.49	49.81	-48.8	-50.3	15.7	6.07e-01	0	25	0	556269568	66	4267
2026-01-07 11:53:49.64	194.92	50.15	-48.6	-50.1	15.7	6.06e-01	0	25	0	557842432	66	4170
2026-01-07 11:53:50.65	195.36	50.49	-48.7	-50.2	15.7	6.06e-01	0	25	0	559939584	66	4235
2026-01-07 11:53:51.66	195.81	50.83	-48.7	-50.2	15.7	6.05e-01	0	25	0	562036736	66	4236
2026-01-07 11:53:52.66	196.26	51.17	-48.6	-50.2	15.7	6.06e-01	0	25	0	563609600	66	4204
2026-01-07 11:53:53.67	196.73	51.51	-48.5	-50.0	15.8	6.05e-01	0	25	0	565706752	66	4104
2026-01-07 11:53:54.68	197.21	51.86	-48.4	-49.9	15.7	6.08e-01	0	25	0	567279616	65	4304
2026-01-07 11:53:55.69	197.70	52.20	-48.6	-50.1	15.6	6.06e-01	0	25	0	569376768	65	4402
2026-01-07 11:53:56.69	198.20	52.54	-48.6	-50.1	15.6	6.07e-01	0	25	0	571473920	65	4427
2026-01-07 11:53:57.70	198.71	52.88	-48.5	-50.0	15.6	6.07e-01	0	25	0	573046784	65	4380
2026-01-07 11:53:58.71	199.24	53.23	-48.5	-50.0	15.7	6.05e-01	0	25	0	575143936	65	4351
2026-01-07 11:53:59.72	199.78	53.57	-48.4	-49.9	15.7	6.07e-01	0	25	0	576716800	65	4327
2026-01-07 11:54:00.73	200.33	53.92	-48.6	-50.1	15.6	6.06e-01	0	25	0	578813952	65	4435
2026-01-07 11:54:01.74	200.90	54.26	-48.7	-50.2	15.6	6.06e-01	0	25	0	580911104	65	4491
2026-01-07 11:54:02.75	201.47	54.60	-48.4	-49.9	15.6	6.08e-01	0	25	0	582483968	65	4302
2026-01-07 11:54:03.76	202.07	54.95	-48.8	-50.3	15.6	6.03e-01	0	25	0	584581120	65	4534
2026-01-07 11:54:04.76	202.67	55.29	-48.9	-50.4	15.5	6.06e-01	0	25	0	586678272	65	4580
2026-01-07 11:54:05.77	203.29	55.63	-48.8	-50.4	15.5	6.06e-01	0	25	0	588251136	65	4564
2026-01-07 11:54:06.78	203.93	55.97	-49.1	-50.6	15.5	6.06e-01	0	25	0	590348288	65	4698
2026-01-07 11:54:07.79	204.58	56.31	-49.3	-50.9	15.5	6.05e-01	0	25	0	591921152	66	4592
2026-01-07 11:54:08.80	205.25	56.64	-49.5	-51.1	15.5	6.05e-01	0	25	0	594018304	66	4680
2026-01-07 11:54:09.81	205.94	56.98	-49.9	-51.5	15.5	6.06e-01	0	25	0	596115456	67	4640
2026-01-07 11:54:10.81	206.63	57.31	-50.0	-51.7	15.4	6.08e-01	0	25	0	597688320	67	4716
2026-01-07 11:54:11.82	207.35	57.64	-50.2	-52.0	15.5	6.01e-01	0	25	0	599785472	68	4607
2026-01-07 11:54:12.83	208.09	57.97	-50.5	-52.3	15.4	6.02e-01	0	25	0	601358336	68	4794
2026-01-07 11:54:13.83	208.84	58.30	-50.6	-52.3	15.5	6.01e-01	0	25	0	603455488	69	4518
2026-01-07 11:54:14.84	209.61	58.62	-50.9	-52.7	15.4	5.99e-01	0	25	0	605028352	69	4728
2026-01-07 11:54:15.85	210.41	58.94	-51.1	-53.0	15.3	6.01e-01	0	25	0	607125504	69	4873
2026-01-07 11:54:16.86	211.22	59.26	-51.1	-52.9	15.4	6.03e-01	0	25	0	609222656	70	4598
2026-01-07 11:54:17.87	212.05	59.57	-51.3	-53.2	15.3	6.00e-01	0	25	0	610795520	70	4758
2026-01-07 11:54:18.88	212.91	59.88	-51.2	-53.0	15.4	6.02e-01	0	25	0	612892672	70	4627
2026-01-07 11:54:19.89	213.78	60.19	-51.5	-53.5	15.3	6.01e-01	0	25	0	614989824	70	4886
2026-01-07 11:54:20.90	214.67	60.49	-51.2	-53.1	15.4	6.00e-01	0	25	0	616562688	70	4653
2026-01-07 11:54:21.90	215.58	60.78	-51.5	-53.4	15.3	5.98e-01	0	25	0	618659840	70	4849
2026-01-07 11:54:22.91	216.52	61.07	-51.6	-53.6	15.4	6.03e-01	0	25	0	620232704	71	4663
2026-01-07 11:54:23.92	217.48	61.36	-51.7	-53.6	15.4	6.02e-01	0	25	0	622329856	71	4689
2026-01-07 11:54:24.93	218.46	61.64	-51.7	-53.7	15.3	6.01e-01	0	25	0	624427008	71	4718
2026-01-07 11:54:25.94	219.46	61.92	-52.0	-54.1	15.2	6.04e-01	0	25	0	625999872	71	4955
2026-01-07 11:54:26.95	220.49	62.18	-52.4	-54.6	15.2	5.96e-01	0	25	0	628097024	72	4935
2026-01-07 11:54:27.95	221.53	62.44	-52.1	-54.2	15.3	6.01e-01	0	25	0	630194176	72	4733
2026-01-07 11:54:28.96	222.60	62.70	-52.3	-54.4	15.2	6.02e-01	0	25	0	631767040	72	4848
2026-01-07 11:54:29.97	223.69	62.94	-52.7	-54.9	15.2	6.02e-01	0	25	0	633864192	73	4862
2026-01-07 11:54:30.98	224.80	63.18	-52.5	-54.6	15.3	6.01e-01	0	25	0	635437056	73	4681
2026-01-07 11:54:31.98	225.93	63.41	-52.7	-55.0	15.2	6.01e-01	0	25	0	637534208	73	4886
2026-01-07 11:54:32.98	227.08	63.63	-52.6	-54.8	15.2	6.01e-01	0	25	0	639107072	73	4791
2026-01-07 11:54:33.99	228.26	63.84	-52.7	-55.0	15.1	6.01e-01	0	25	0	641204224	73	4880
2026-01-07 11:54:35.00	229.46	64.04	-52.8	-55.1	15.1	6.00e-01	0	25	0	643301376	73	4939
2026-01-07 11:54:36.01	230.68	64.24	-52.9	-55.2	15.1	6.03e-01	0	25	0	644874240	73	5021
2026-01-07 11:54:37.01	231.91	64.42	-52.9	-55.1	15.1	6.04e-01	0	25	0	646971392	73	4972
2026-01-07 11:54:38.02	233.17	64.59	-52.9	-55.1	15.2	6.01e-01	0	25	0	648544256	74	4693
2026-01-07 11:54:39.03	234.46	64.75	-52.8	-55.0	15.3	6.02e-01	0	25	0	650641408	74	4602
2026-01-07 11:54:40.03	235.74	64.90	-52.7	-54.9	15.3	6.00e-01	0	25	0	652738560	74	4577
2026-01-07 11:54:41.05	237.07	65.05	-52.9	-55.1	15.2	6.01e-01	0	25	0	654311424	74	4677
2026-01-07 11:54:42.06	238.40	65.18	-52.8	-55.1	15.3	6.03e-01	0	25	0	656408576	74	4657
2026-01-07 11:54:43.06	239.73	65.29	-53.0	-55.3	15.2	6.02e-01	0	25	0	658505728	74	4811
2026-01-07 11:54:44.06	241.08	65.39	-53.2	-55.6	15.1	6.02e-01	0	25	0	660078592	74	4931
2026-01-07 11:54:45.08	242.46	65.49	-52.9	-55.2	15.3	6.01e-01	0	25	0	662175744	74	4706
2026-01-07 11:54:46.08	243.83	65.57	-53.3	-55.6	15.1	6.02e-01	0	25	0	663748608	74	4983
2026-01-07 11:54:47.09	245.22	65.63	-52.9	-55.1	15.3	6.01e-01	0	25	0	665845760	74	4686
2026-01-07 11:54:48.10	246.62	65.69	-52.7	-54.9	15.4	6.01e-01	0	25	0	667942912	74	4562
2026-01-07 11:54:49.11	248.03	65.73	-52.8	-55.0	15.3	6.00e-01	0	25	0	669515776	74	4613
2026-01-07 11:54:50.11	249.42	65.76	-52.7	-54.9	15.4	6.02e-01	0	25	0	671612928	74	4554
2026-01-07 11:54:51.12	250.84	65.77	-52.5	-54.6	15.5	6.01e-01	0	25	0	673185792	74	4417
2026-01-07 11:54:52.13	252.25	65.78	-52.9	-55.1	15.2	6.01e-01	0	25	0	675282944	74	4696
2026-01-07 11:54:53.14	253.66	65.77	-52.5	-54.6	15.5	6.00e-01	0	25	0	676855808	74	4392
2026-01-07 11:54:54.14	255.06	65.74	-52.8	-55.0	15.2	6.01e-01	0	25	0	678952960	73	4887
2026-01-07 11:54:55.15	256.46	65.70	-52.5	-54.6	15.3	6.03e-01	0	25	0	681050112	73	4702
2026-01-07 11:54:56.15	257.85	65.65	-52.4	-54.5	15.4	6.00e-01	0	25	0	682622976	73	4611
2026-01-07 11:54:57.16	259.25	65.59	-52.5	-54.6	15.3	5.98e-01	0	25	0	684720128	73	4693
2026-01-07 11:54:58.16	260.62	65.52	-52.6	-54.8	15.2	6.02e-01	0	25	0	686817280	73	4794
2026-01-07 11:54:59.17	261.99	65.43	-52.7	-54.8	15.2	6.01e-01	0	25	0	688390144	73	4800
2026-01-07 11:55:00.18	263.35	65.33	-52.4	-54.5	15.3	6.01e-01	0	25	0	690487296	73	4610
2026-01-07 11:55:01.19	264.70	65.21	-52.3	-54.4	15.4	6.01e-01	0	25	0	692060160	73	4547
2026-01-07 11:55:02.19	266.03	65.09	-52.0	-54.0	15.5	6.01e-01	0	25	0	694157312	73	4379
2026-01-07 11:55:03.20	267.35	64.95	-51.9	-53.9	15.6	6.02e-01	0	25	0	696254464	73	4327
2026-01-07 11:55:04.21	268.65	64.81	-51.7	-53.6	15.5	6.01e-01	0	25	0	697827328	72	4415
2026-01-07 11:55:05.22	269.94	64.65	-51.8	-53.8	15.4	6.00e-01	0	25	0	699924480	72	4498
2026-01-07 11:55:06.23	271.20	64.48	-51.7	-53.6	15.5	6.01e-01	0	25	0	701497344	72	4416
2026-01-07 11:55:07.24	272.45	64.30	-51.4	-53.2	15.7	6.02e-01	0	25	0	703594496	72	4241
2026-01-07 11:55:08.24	273.67	64.11	-51.6	-53.5	15.4	6.00e-01	0	25	0	705691648	71	4629
2026-01-07 11:55:09.25	274.88	63.91	-51.3	-53.2	15.5	6.04e-01	0	25	0	707264512	71	4449
2026-01-07 11:55:10.26	276.06	63.70	-51.3	-53.1	15.5	6.03e-01	0	25	0	709361664	71	4432
2026-01-07 11:55:11.27	277.23	63.48	-51.3	-53.2	15.5	6.01e-01	0	25	0	710934528	71	4458
2026-01-07 11:55:12.27	278.36	63.26	-51.7	-53.7	15.4	6.01e-01	0	25	0	713031680	71	4733
2026-01-07 11:55:13.27	279.47	63.02	-51.3	-53.1	15.5	5.99e-01	0	25	0	715128832	71	4420
2026-01-07 11:55:14.28	280.57	62.78	-51.0	-52.7	15.7	6.04e-01	0	25	0	716701696	71	4240
2026-01-07 11:55:15.29	281.65	62.53	-51.0	-52.8	15.7	6.01e-01	0	25	0	718798848	71	4244
2026-01-07 11:55:16.30	282.70	62.27	-50.9	-52.6	15.7	6.01e-01	0	25	0	720371712	71	4185
2026-01-07 11:55:17.31	283.73	62.01	-50.6	-52.3	15.7	6.01e-01	0	25	0	722468864	70	4280
2026-01-07 11:55:18.31	284.73	61.74	-50.6	-52.4	15.7	6.03e-01	0	25	0	724566016	70	4299
2026-01-07 11:55:19.32	285.72	61.46	-50.6	-52.3	15.7	6.02e-01	0	25	0	726138880	70	4264
2026-01-07 11:55:20.33	286.69	61.18	-50.5	-52.2	15.7	6.00e-01	0	25	0	728236032	70	4231
2026-01-07 11:55:21.34	287.63	60.89	-50.6	-52.3	15.7	6.00e-01	0	25	0	729808896	70	4282
2026-01-07 11:55:22.35	288.55	60.59	-50.5	-52.2	15.7	6.00e-01	0	25	0	731906048	70	4218
2026-01-07 11:55:23.35	289.44	60.30	-50.8	-52.5	15.6	6.01e-01	0	25	0	734003200	70	4382
2026-01-07 11:55:24.36	290.32	59.99	-50.9	-52.7	15.5	5.98e-01	0	25	0	735576064	70	4469
2026-01-07 11:55:25.37	291.18	59.69	-51.1	-52.9	15.5	6.02e-01	0	25	0	737673216	70	4570
2026-01-07 11:55:26.38	292.02	59.37	-51.1	-52.9	15.4	6.03e-01	0	25	0	739246080	70	4589
2026-01-07 11:55:27.39	292.84	59.06	-50.8	-52.6	15.6	6.02e-01	0	25	0	741343232	70	4401
2026-01-07 11:55:28.39	293.63	58.74	-50.6	-52.3	15.7	6.01e-01	0	25	0	743440384	70	4272
2026-01-07 11:55:29.40	294.41	58.42	-50.7	-52.5	15.6	6.01e-01	0	25	0	745013248	70	4358
2026-01-07 11:55:30.41	295.17	58.09	-51.3	-53.2	15.4	6.02e-01	0	25	0	747110400	70	4740
2026-01-07 11:55:31.42	295.91	57.77	-50.2	-51.8	15.6	6.00e-01	0	25	0	748683264	69	4290
2026-01-07 11:55:32.42	296.63	57.44	-49.8	-51.4	15.6	6.01e-01	0	25	0	750780416	68	4304
2026-01-07 11:55:33.43	297.34	57.11	-49.9	-51.5	15.6	6.01e-01	0	25	0	752877568	68	4348
2026-01-07 11:55:34.43	298.02	56.78	-50.0	-51.7	15.6	5.99e-01	0	25	0	754450432	68	4469
2026-01-07 11:55:35.43	298.69	56.44	-49.6	-51.2	15.7	6.04e-01	0	25	0	756547584	68	4232
2026-01-07 11:55:36.44	299.35	56.11	-49.2	-50.7	15.7	6.01e-01	0	25	0	758120448	67	4207
2026-01-07 11:55:37.45	299.99	55.77	-48.8	-50.3	15.7	6.00e-01	0	25	0	760217600	66	4274
2026-01-07 11:55:38.46	300.62	55.43	-48.9	-50.5	15.6	6.03e-01	0	25	0	762314752	66	4348
2026-01-07 11:55:39.47	301.23	55.09	-49.2	-50.7	15.6	5.99e-01	0	25	0	763887616	66	4488
2026-01-07 11:55:40.47	301.82	54.75	-49.2	-50.8	15.5	6.00e-01	0	25	0	765984768	66	4529
2026-01-07 11:55:41.48	302.41	54.41	-49.1	-50.7	15.5	6.00e-01	0	25	0	767557632	66	4455
2026-01-07 11:55:42.50	302.98	54.06	-49.1	-50.7	15.6	6.01e-01	0	25	0	769654784	66	4444
2026-01-07 11:55:43.50	303.53	53.72	-48.7	-50.2	15.7	6.01e-01	0	25	0	771751936	66	4213
2026-01-07 11:55:44.51	304.08	53.38	-49.1	-50.6	15.6	6.01e-01	0	25	0	773324800	66	4424
2026-01-07 11:55:45.52	304.61	53.03	-49.4	-51.0	15.5	6.01e-01	0	25	0	775421952	66	4640
2026-01-07 11:55:46.53	305.12	52.69	-49.3	-50.9	15.5	6.03e-01	0	25	0	776994816	66	4587
2026-01-07 11:55:47.54	305.63	52.35	-49.2	-50.8	15.5	6.00e-01	0	25	0	779091968	66	4517
2026-01-07 11:55:48.55	306.12	52.00	-49.2	-50.7	15.5	5.99e-01	0	25	0	781189120	66	4482
2026-01-07 11:55:49.55	306.60	51.67	-49.4	-51.0	15.5	6.02e-01	0	25	0	782761984	66	4634
2026-01-07 11:55:50.56	307.08	51.32	-49.4	-51.0	15.5	6.00e-01	0	25	0	784859136	66	4609
2026-01-07 11:55:51.57	307.54	50.98	-49.7	-51.3	15.5	6.02e-01	0	25	0	786432000	67	4517
2026-01-07 11:55:52.57	307.98	50.65	-49.8	-51.4	15.5	6.02e-01	0	25	0	788529152	67	4595
2026-01-07 11:55:53.57	308.42	50.31	-49.8	-51.4	15.4	6.00e-01	0	25	0	790626304	67	4593
2026-01-07 11:55:54.58	308.85	49.97	-49.8	-51.4	15.5	6.00e-01	0	25	0	792199168	67	4564
2026-01-07 11:55:55.59	309.28	49.63	-49.6	-51.2	15.5	6.00e-01	0	25	0	794296320	67	4474
2026-01-07 11:55:56.60	309.69	49.30	-49.8	-51.4	15.5	6.04e-01	0	25	0	796393472	67	4596
2026-01-07 11:55:57.60	310.09	48.96	-50.0	-51.7	15.4	6.04e-01	0	25	0	797966336	67	4717
2026-01-07 11:55:58.61	310.48	48.63	-49.9	-51.5	15.5	6.00e-01	0	25	0	800063488	67	4640
2026-01-07 11:55:59.61	310.87	48.30	-49.9	-51.5	15.4	6.02e-01	0	25	0	801636352	67	4649
2026-01-07 11:56:00.62	311.25	47.97	-49.9	-51.5	15.4	6.02e-01	0	25	0	803733504	67	4645
2026-01-07 11:56:01.63	311.62	47.64	-49.9	-51.5	15.5	6.00e-01	0	25	0	805306368	67	4646
2026-01-07 11:56:02.64	311.98	47.31	-49.9	-51.6	15.5	6.03e-01	0	25	0	807403520	67	4656
2026-01-07 11:56:03.64	312.33	46.99	-50.0	-51.6	15.4	5.97e-01	0	25	0	809500672	67	4696
2026-01-07 11:56:04.65	312.68	46.66	-50.0	-51.7	15.4	6.04e-01	0	25	0	811073536	67	4725
2026-01-07 11:56:05.66	313.02	46.34	-49.9	-51.6	15.4	6.02e-01	0	25	0	813170688	67	4678
2026-01-07 11:56:06.67	313.35	46.01	-49.9	-51.6	15.4	6.01e-01	0	25	0	814743552	67	4660
2026-01-07 11:56:07.68	313.68	45.69	-49.7	-51.3	15.5	5.99e-01	0	25	0	816840704	67	4542
2026-01-07 11:56:08.69	314.00	45.37	-49.7	-51.4	15.5	6.01e-01	0	25	0	818937856	67	4554
2026-01-07 11:56:09.70	314.32	45.06	-49.7	-51.4	15.5	6.01e-01	0	25	0	820510720	67	4561
2026-01-07 11:56:10.70	314.62	44.74	-49.9	-51.5	15.5	6.02e-01	0	25	0	822607872	67	4639
2026-01-07 11:56:11.71	314.92	44.43	-49.9	-51.5	15.5	6.02e-01	0	25	0	824705024	67	4634
2026-01-07 11:56:12.72	315.22	44.12	-49.8	-51.5	15.5	6.00e-01	0	25	0	826277888	67	4618
2026-01-07 11:56:13.73	315.51	43.81	-49.8	-51.4	15.5	6.01e-01	0	25	0	828375040	67	4582
2026-01-07 11:56:14.73	315.79	43.50	-49.8	-51.5	15.5	6.00e-01	0	25	0	829947904	67	4615
2026-01-07 11:56:15.74	316.07	43.20	-49.8	-51.5	15.5	6.02e-01	0	25	0	832045056	67	4599
2026-01-07 11:56:16.75	316.35	42.89	-49.8	-51.5	15.5	6.00e-01	0	25	0	834142208	67	4611
2026-01-07 11:56:17.76	316.62	42.59	-49.8	-51.4	15.5	6.02e-01	0	25	0	835715072	67	4583
2026-01-07 11:56:18.76	316.88	42.29	-50.0	-51.6	15.4	6.01e-01	0	25	0	837812224	67	4692
2026-01-07 11:56:19.77	317.14	41.99	-50.1	-51.8	15.4	6.01e-01	0	25	0	839385088	67	4763
2026-01-07 11:56:20.77	317.39	41.70	-50.0	-51.7	15.4	6.00e-01	0	25	0	841482240	67	4715
2026-01-07 11:56:21.78	317.64	41.40	-50.1	-51.8	15.4	6.00e-01	0	25	0	843055104	67	4796
2026-01-07 11:56:22.79	317.88	41.11	-50.2	-51.8	15.5	6.01e-01	0	25	0	845152256	68	4542
2026-01-07 11:56:23.79	318.12	40.82	-50.3	-52.0	15.4	6.02e-01	0	25	0	847249408	68	4642
2026-01-07 11:56:24.80	318.36	40.53	-50.4	-52.1	15.4	6.02e-01	0	25	0	848822272	68	4703
2026-01-07 11:56:25.80	318.59	40.25	-50.5	-52.3	15.4	6.01e-01	0	25	0	850919424	68	4761
2026-01-07 11:56:26.80	318.82	39.96	-50.5	-52.2	15.4	6.03e-01	0	25	0	853016576	68	4729
2026-01-07 11:56:27.81	319.04	39.68	-50.4	-52.1	15.4	5.98e-01	0	25	0	854589440	68	4684
2026-01-07 11:56:28.82	319.26	39.40	-50.3	-52.0	15.5	6.02e-01	0	25	0	856686592	68	4601
2026-01-07 11:56:29.82	319.48	39.12	-50.4	-52.2	15.4	6.01e-01	0	25	0	858259456	68	4723
2026-01-07 11:56:30.83	319.69	38.84	-50.5	-52.2	15.4	6.02e-01	0	25	0	860356608	68	4742
2026-01-07 11:56:31.84	319.90	38.57	-50.4	-52.1	15.4	6.00e-01	0	25	0	861929472	68	4698
2026-01-07 11:56:32.85	320.11	38.29	-50.1	-51.8	15.5	6.00e-01	0	25	0	864026624	68	4529
2026-01-07 11:56:33.85	320.31	38.02	-50.0	-51.7	15.5	6.01e-01	0	25	0	866123776	68	4446
2026-01-07 11:56:34.86	320.51	37.76	-49.9	-51.5	15.6	6.01e-01	0	25	0	867696640	68	4387
2026-01-07 11:56:35.87	320.70	37.49	-49.8	-51.4	15.6	6.00e-01	0	25	0	869793792	68	4322
2026-01-07 11:56:36.88	320.90	37.22	-49.8	-51.4	15.6	6.01e-01	0	25	0	871366656	68	4307
2026-01-07 11:56:37.88	321.09	36.96	-49.7	-51.3	15.7	6.02e-01	0	25	0	873463808	68	4267
2026-01-07 11:56:38.89	321.27	36.70	-49.7	-51.4	15.7	6.01e-01	0	25	0	875560960	68	4292
2026-01-07 11:56:39.89	321.45	36.44	-49.5	-51.1	15.7	6.04e-01	0	25	0	877133824	68	4187
2026-01-07 11:56:40.90	321.64	36.18	-49.5	-51.2	15.7	6.00e-01	0	25	0	879230976	68	4194
2026-01-07 11:56:41.91	321.81	35.92	-49.7	-51.3	15.7	6.02e-01	0	25	0	881328128	68	4260
2026-01-07 11:56:42.92	321.99	35.67	-49.6	-51.2	15.7	6.01e-01	0	25	0	882900992	68	4202
2026-01-07 11:56:43.93	322.16	35.42	-49.6	-51.2	15.7	6.00e-01	0	25	0	884998144	68	4231
2026-01-07 11:56:44.93	322.33	35.17	-49.4	-50.9	15.8	6.00e-01	0	25	0	886571008	68	4098
2026-01-07 11:56:45.94	322.50	34.92	-49.0	-50.5	15.8	6.01e-01	0	25	0	888668160	67	4121
2026-01-07 11:56:46.95	322.66	34.67	-48.8	-50.3	15.7	6.03e-01	0	25	0	890765312	66	4291
2026-01-07 11:56:47.95	322.83	34.43	-48.9	-50.5	15.6	6.03e-01	0	25	0	892338176	66	4341
2026-01-07 11:56:48.96	322.99	34.19	-48.7	-50.2	15.7	6.01e-01	0	25	0	894435328	66	4241
2026-01-07 11:56:49.97	323.14	33.94	-48.7	-50.2	15.7	5.99e-01	0	25	0	896008192	66	4208
2026-01-07 11:56:50.98	323.30	33.70	-48.7	-50.2	15.7	6.01e-01	0	25	0	898105344	66	4228
2026-01-07 11:56:51.98	323.45	33.47	-48.5	-50.1	15.8	6.01e-01	0	25	0	899678208	66	4146
2026-01-07 11:56:52.99	323.60	33.23	-48.5	-50.0	15.8	6.02e-01	0	25	0	901775360	66	4124
2026-01-07 11:56:54.00	323.75	33.00	-48.5	-49.9	15.8	6.00e-01	0	25	0	903872512	66	4098
2026-01-07 11:56:55.01	323.90	32.76	-48.4	-49.9	15.8	6.00e-01	0	25	0	905445376	66	4068
2026-01-07 11:56:56.02	324.04	32.53	-48.3	-49.8	15.7	6.00e-01	0	25	0	907542528	65	4271
2026-01-07 11:56:57.03	324.19	32.30	-48.4	-49.9	15.6	6.00e-01	0	25	0	909639680	65	4336
2026-01-07 11:56:58.03	324.32	32.08	-48.4	-49.9	15.6	6.00e-01	0	25	0	911212544	65	4328
2026-01-07 11:56:59.04	324.46	31.85	-48.3	-49.8	15.7	6.01e-01	0	25	0	913309696	65	4288
2026-01-07 11:57:00.05	324.60	31.63	-48.3	-49.8	15.7	5.99e-01	0	25	0	914882560	65	4280
2026-01-07 11:57:01.06	324.74	31.40	-48.2	-49.7	15.7	6.02e-01	0	25	0	916979712	65	4229
2026-01-07 11:57:02.07	324.87	31.18	-48.2	-49.6	15.7	6.00e-01	0	25	0	919076864	65	4190
2026-01-07 11:57:03.08	325.00	30.96	-48.1	-49.6	15.7	6.03e-01	0	25	0	920649728	65	4175
2026-01-07 11:57:04.09	325.13	30.74	-48.2	-49.6	15.7	6.01e-01	0	25	0	922746880	65	4191
2026-01-07 11:57:05.09	325.26	30.53	-48.2	-49.6	15.7	6.03e-01	0	25	0	924319744	65	4182
2026-01-07 11:57:06.10	325.38	30.31	-48.2	-49.6	15.7	6.01e-01	0	25	0	926416896	65	4184
2026-01-07 11:57:07.11	325.51	30.10	-48.2	-49.6	15.7	6.01e-01	0	25	0	928514048	65	4192
2026-01-07 11:57:08.11	325.63	29.89	-48.1	-49.6	15.8	6.00e-01	0	25	0	930086912	65	4152
2026-01-07 11:57:09.12	325.75	29.68	-48.2	-49.6	15.7	6.01e-01	0	25	0	932184064	65	4183
2026-01-07 11:57:10.13	325.87	29.47	-48.2	-49.7	15.7	6.00e-01	0	25	0	933756928	65	4229
2026-01-07 11:57:11.14	325.99	29.27	-48.3	-49.8	15.7	6.01e-01	0	25	0	935854080	65	4267
2026-01-07 11:57:12.15	326.11	29.06	-48.4	-49.9	15.6	5.99e-01	0	25	0	937951232	65	4321
2026-01-07 11:57:13.16	326.22	28.86	-48.4	-50.0	15.6	6.00e-01	0	25	0	939524096	65	4342
2026-01-07 11:57:14.16	326.33	28.66	-48.6	-50.1	15.6	6.02e-01	0	25	0	941621248	65	4418
2026-01-07 11:57:15.17	326.45	28.45	-48.6	-50.2	15.6	6.00e-01	0	25	0	943194112	65	4466
2026-01-07 11:57:16.18	326.56	28.25	-48.7	-50.3	15.5	5.99e-01	0	25	0	945291264	65	4497
2026-01-07 11:57:17.19	326.67	28.06	-48.7	-50.2	15.5	6.02e-01	0	25	0	947388416	65	4485
2026-01-07 11:57:18.20	326.78	27.86	-48.7	-50.3	15.6	6.00e-01	0	25	0	948961280	65	4499
2026-01-07 11:57:19.21	326.88	27.66	-48.8	-50.4	15.5	6.02e-01	0	25	0	951058432	65	4549
2026-01-07 11:57:20.21	326.99	27.47	-48.8	-50.3	15.5	6.03e-01	0	25	0	953155584	65	4544
2026-01-07 11:57:21.22	327.09	27.28	-48.7	-50.3	15.6	6.02e-01	0	25	0	954728448	65	4511
2026-01-07 11:57:22.23	327.20	27.09	-48.8	-50.4	15.5	6.00e-01	0	25	0	956825600	65	4553
2026-01-07 11:57:23.23	327.30	26.90	-48.9	-50.5	15.5	6.02e-01	0	25	0	958398464	65	4609
2026-01-07 11:57:24.23	327.40	26.71	-49.0	-50.6	15.5	6.01e-01	0	25	0	960495616	65	4681
2026-01-07 11:57:25.24	327.50	26.52	-49.0	-50.6	15.5	6.00e-01	0	25	0	962068480	65	4700
2026-01-07 11:57:26.24	327.59	26.34	-49.0	-50.6	15.5	6.04e-01	0	25	0	964165632	65	4685
2026-01-07 11:57:27.24	327.69	26.16	-49.1	-50.7	15.5	6.02e-01	0	25	0	966262784	65	4711
2026-01-07 11:57:28.25	327.79	25.97	-49.0	-50.6	15.5	5.99e-01	0	25	0	967835648	65	4657
2026-01-07 11:57:29.27	327.88	25.79	-49.1	-50.7	15.5	5.99e-01	0	25	0	969932800	65	4739
2026-01-07 11:57:30.27	327.98	25.61	-49.2	-50.8	15.5	6.01e-01	0	25	0	971505664	66	4509
2026-01-07 11:57:31.27	328.07	25.43	-49.1	-50.7	15.6	6.03e-01	0	25	0	973602816	66	4486
2026-01-07 11:57:32.28	328.16	25.25	-49.2	-50.9	15.5	6.00e-01	0	25	0	975699968	66	4558
2026-01-07 11:57:33.29	328.25	25.08	-49.3	-50.9	15.5	6.01e-01	0	25	0	977272832	66	4597
2026-01-07 11:57:34.29	328.34	24.90	-49.4	-51.0	15.5	6.00e-01	0	25	0	979369984	66	4635
2026-01-07 11:57:35.30	328.43	24.73	-49.3	-51.0	15.5	5.99e-01	0	25	0	981467136	66	4621
2026-01-07 11:57:36.31	328.52	24.55	-49.4	-51.1	15.5	6.01e-01	0	25	0	983040000	66	4652
2026-01-07 11:57:37.32	328.60	24.38	-49.4	-51.0	15.5	5.99e-01	0	25	0	985137152	66	4646
2026-01-07 11:57:38.32	328.69	24.21	-49.5	-51.2	15.4	6.00e-01	0	25	0	986710016	66	4748
2026-01-07 11:57:39.33	328.78	24.04	-49.5	-51.2	15.4	6.02e-01	0	25	0	988807168	66	4735
2026-01-07 11:57:40.34	328.86	23.87	-49.6	-51.3	15.4	6.00e-01	0	25	0	990380032	66	4762
2026-01-07 11:57:41.35	328.94	23.71	-49.6	-51.3	15.4	5.99e-01	0	25	0	992477184	66	4780
2026-01-07 11:57:42.35	329.03	23.54	-49.6	-51.3	15.5	6.01e-01	0	25	0	994574336	67	4527
2026-01-07 11:57:43.36	329.11	23.37	-49.6	-51.2	15.5	6.02e-01	0	25	0	996147200	67	4493
2026-01-07 11:57:44.37	329.19	23.21	-49.6	-51.2	15.6	6.01e-01	0	25	0	998244352	67	4487
2026-01-07 11:57:45.37	329.27	23.05	-49.5	-51.2	15.6	5.99e-01	0	25	0	999817216	67	4453
2026-01-07 11:57:46.38	329.35	22.89	-49.5	-51.2	15.5	6.02e-01	0	25	0	1001914368	67	4474
2026-01-07 11:57:47.38	329.42	22.73	-49.5	-51.1	15.6	5.98e-01	0	25	0	1004011520	67	4440
2026-01-07 11:57:48.39	329.50	22.57	-49.4	-51.0	15.6	5.99e-01	0	25	0	1005584384	67	4366
2026-01-07 11:57:49.40	329.58	22.41	-49.4	-51.0	15.6	6.02e-01	0	25	0	1007681536	67	4368
2026-01-07 11:57:50.41	329.66	22.25	-49.4	-51.1	15.6	6.01e-01	0	25	0	1009778688	67	4394
2026-01-07 11:57:51.42	329.73	22.09	-49.3	-50.9	15.6	6.02e-01	0	25	0	1011351552	67	4323
2026-01-07 11:57:52.43	329.81	21.93	-49.2	-50.9	15.7	6.01e-01	0	25	0	1013448704	67	4296
2026-01-07 11:57:53.43	329.88	21.78	-49.2	-50.8	15.7	6.02e-01	0	25	0	1015021568	67	4275
2026-01-07 11:57:54.44	329.95	21.63	-49.2	-50.9	15.7	6.01e-01	0	25	0	1017118720	67	4310
2026-01-07 11:57:55.45	330.02	21.47	-49.2	-50.8	15.7	6.00e-01	0	25	0	1019215872	67	4257
2026-01-07 11:57:56.46	330.10	21.32	-49.3	-50.9	15.7	6.00e-01	0	25	0	1020788736	67	4305
2026-01-07 11:57:57.47	330.17	21.17	-49.3	-50.9	15.6	6.02e-01	0	25	0	1022885888	67	4328
2026-01-07 11:57:58.47	330.24	21.02	-49.2	-50.8	15.7	5.98e-01	0	25	0	1024458752	67	4264
2026-01-07 11:57:59.48	330.31	20.87	-49.2	-50.8	15.7	6.04e-01	0	25	0	1026555904	67	4279
2026-01-07 11:58:00.49	330.38	20.72	-49.1	-50.7	15.7	6.01e-01	0	25	0	1028128768	67	4219
2026-01-07 11:58:01.49	330.44	20.58	-49.0	-50.6	15.7	6.02e-01	0	25	0	1030225920	67	4193
2026-01-07 11:58:02.50	330.51	20.43	-49.0	-50.6	15.7	5.99e-01	0	25	0	1032323072	67	4167
2026-01-07 11:58:03.51	330.58	20.28	-49.0	-50.6	15.7	6.02e-01	0	25	0	1033895936	67	4181
2026-01-07 11:58:04.52	330.64	20.14	-49.0	-50.6	15.7	5.98e-01	0	25	0	1035993088	67	4185
2026-01-07 11:58:05.53	330.71	19.99	-48.9	-50.5	15.8	6.02e-01	0	25	0	1038090240	67	4121
2026-01-07 11:58:06.53	330.78	19.85	-49.0	-50.6	15.8	6.01e-01	0	25	0	1039663104	67	4162
2026-01-07 11:58:07.54	330.84	19.71	-48.9	-50.5	15.8	6.02e-01	0	25	0	1041760256	67	4126
2026-01-07 11:58:08.55	330.90	19.57	-48.9	-50.5	15.8	5.98e-01	0	25	0	1043333120	67	4107
2026-01-07 11:58:09.56	330.97	19.43	-48.9	-50.5	15.8	6.01e-01	0	25	0	1045430272	67	4130
2026-01-07 11:58:10.57	331.03	19.29	-48.9	-50.5	15.8	6.01e-01	0	25	0	1047527424	67	4128
2026-01-07 11:58:11.58	331.09	19.15	-48.9	-50.5	15.8	6.02e-01	0	25	0	1049100288	67	4137
2026-01-07 11:58:12.59	331.16	19.01	-48.9	-50.5	15.8	6.01e-01	0	25	0	1051197440	67	4100
2026-01-07 11:58:13.59	331.22	18.88	-49.0	-50.6	15.7	6.01e-01	0	25	0	1052770304	67	4157
2026-01-07 11:58:14.60	331.28	18.74	-49.0	-50.6	15.7	6.00e-01	0	25	0	1054867456	67	4171
2026-01-07 11:58:15.61	331.34	18.60	-49.0	-50.6	15.7	6.01e-01	0	25	0	1056964608	67	4179
2026-01-07 11:58:16.61	331.40	18.47	-49.0	-50.6	15.7	6.03e-01	0	25	0	1058537472	67	4154
2026-01-07 11:58:17.62	331.46	18.34	-49.0	-50.6	15.7	6.02e-01	0	25	0	1060634624	67	4174
2026-01-07 11:58:18.63	331.51	18.20	-49.0	-50.7	15.7	5.98e-01	0	25	0	1062207488	67	4195
2026-01-07 11:58:19.64	331.57	18.07	-48.9	-50.5	15.8	6.00e-01	0	25	0	1064304640	67	4126
2026-01-07 11:58:20.64	331.63	17.94	-48.9	-50.5	15.8	6.02e-01	0	25	0	1066401792	67	4140
2026-01-07 11:58:21.65	331.69	17.81	-49.1	-50.7	15.7	6.01e-01	0	25	0	1067974656	67	4209
2026-01-07 11:58:22.65	331.74	17.68	-49.0	-50.6	15.7	6.00e-01	0	25	0	1070071808	67	4190
2026-01-07 11:58:23.66	331.80	17.55	-48.9	-50.5	15.8	6.00e-01	0	25	0	1071644672	67	4145
2026-01-07 11:58:24.67	331.86	17.42	-49.0	-50.6	15.8	6.01e-01	0	25	0	1073741824	67	4170
2026-01-07 11:58:25.68	331.91	17.29	-49.0	-50.7	15.7	6.00e-01	0	25	0	1075838976	67	4194
2026-01-07 11:58:26.69	331.97	17.17	-49.1	-50.7	15.7	6.01e-01	0	25	0	1077411840	67	4225
2026-01-07 11:58:27.69	332.02	17.04	-49.0	-50.6	15.7	6.00e-01	0	25	0	1079508992	67	4192
2026-01-07 11:58:28.70	332.07	16.91	-49.0	-50.6	15.7	6.00e-01	0	25	0	1081081856	67	4183
2026-01-07 11:58:29.71	332.13	16.79	-49.0	-50.6	15.8	5.99e-01	0	25	0	1083179008	67	4173
2026-01-07 11:58:30.71	332.18	16.66	-49.0	-50.6	15.7	5.98e-01	0	25	0	1085276160	67	4176
2026-01-07 11:58:31.72	332.23	16.54	-49.0	-50.6	15.8	6.02e-01	0	25	0	1086849024	67	4157
2026-01-07 11:58:32.73	332.28	16.42	-48.9	-50.5	15.8	6.02e-01	0	25	0	1088946176	67	4140
2026-01-07 11:58:33.74	332.34	16.29	-49.0	-50.6	15.7	6.01e-01	0	25	0	1090519040	67	4192
2026-01-07 11:58:34.74	332.39	16.17	-48.8	-50.4	15.6	6.01e-01	0	25	0	1092616192	66	4339
2026-01-07 11:58:35.75	332.44	16.05	-49.0	-50.6	15.6	5.97e-01	0	25	0	1094713344	66	4431
2026-01-07 11:58:36.76	332.49	15.93	-48.9	-50.6	15.6	6.01e-01	0	25	0	1096286208	66	4405
2026-01-07 11:58:37.77	332.54	15.81	-48.9	-50.5	15.6	5.99e-01	0	25	0	1098383360	66	4374
2026-01-07 11:58:38.78	332.59	15.69	-48.9	-50.5	15.6	6.00e-01	0	25	0	1099956224	66	4380
2026-01-07 11:58:39.79	332.64	15.57	-48.9	-50.5	15.6	6.01e-01	0	25	0	1102053376	66	4356
2026-01-07 11:58:40.79	332.69	15.46	-48.9	-50.6	15.6	6.00e-01	0	25	0	1104150528	66	4392
2026-01-07 11:58:41.80	332.74	15.34	-48.9	-50.5	15.6	6.01e-01	0	25	0	1105723392	66	4359
2026-01-07 11:58:42.81	332.79	15.22	-48.9	-50.5	15.6	6.03e-01	0	25	0	1107820544	66	4373
2026-01-07 11:58:43.82	332.83	15.11	-48.9	-50.5	15.6	6.02e-01	0	25	0	1109393408	66	4352
2026-01-07 11:58:44.83	332.88	14.99	-48.8	-50.5	15.6	6.00e-01	0	25	0	1111490560	66	4349
2026-01-07 11:58:45.84	332.93	14.87	-48.8	-50.4	15.6	5.99e-01	0	25	0	1113587712	66	4340
2026-01-07 11:58:46.84	332.97	14.76	-48.8	-50.4	15.6	6.00e-01	0	25	0	1115160576	66	4321
2026-01-07 11:58:47.85	333.02	14.65	-48.9	-50.5	15.6	5.99e-01	0	25	0	1117257728	66	4366
2026-01-07 11:58:48.86	333.07	14.53	-48.9	-50.5	15.6	6.03e-01	0	25	0	1119354880	66	4373
2026-01-07 11:58:49.87	333.11	14.42	-48.9	-50.5	15.6	6.00e-01	0	25	0	1120927744	66	4374
2026-01-07 11:58:50.87	333.16	14.31	-48.9	-50.5	15.6	6.02e-01	0	25	0	1123024896	66	4356
2026-01-07 11:58:51.88	333.20	14.20	-48.8	-50.4	15.6	6.02e-01	0	25	0	1124597760	66	4336
2026-01-07 11:58:52.89	333.25	14.09	-48.8	-50.5	15.6	6.02e-01	0	25	0	1126694912	66	4345
2026-01-07 11:58:53.90	333.29	13.98	-48.8	-50.4	15.6	6.02e-01	0	25	0	1128792064	66	4340
2026-01-07 11:58:54.90	333.34	13.87	-48.8	-50.4	15.7	6.01e-01	0	25	0	1130364928	66	4301
2026-01-07 11:58:55.91	333.38	13.76	-48.8	-50.4	15.6	6.04e-01	0	25	0	1132462080	66	4327
2026-01-07 11:58:56.92	333.43	13.65	-48.8	-50.4	15.6	6.02e-01	0	25	0	1134034944	66	4327
2026-01-07 11:58:57.92	333.47	13.54	-48.9	-50.5	15.6	6.02e-01	0	25	0	1136132096	66	4360
2026-01-07 11:58:58.93	333.51	13.43	-48.8	-50.5	15.6	6.00e-01	0	25	0	1137704960	66	4350
2026-01-07 11:58:59.94	333.55	13.33	-48.9	-50.6	15.6	6.01e-01	0	25	0	1139802112	66	4395
2026-01-07 11:59:00.94	333.60	13.22	-48.9	-50.5	15.6	6.02e-01	0	25	0	1141899264	66	4375
2026-01-07 11:59:01.95	333.64	13.11	-49.0	-50.7	15.6	5.98e-01	0	25	0	1143472128	66	4442
2026-01-07 11:59:02.96	333.68	13.01	-49.0	-50.7	15.6	6.00e-01	0	25	0	1145569280	66	4454
2026-01-07 11:59:03.97	333.72	12.90	-48.9	-50.6	15.6	6.02e-01	0	25	0	1147666432	66	4398
2026-01-07 11:59:04.97	333.76	12.80	-48.9	-50.6	15.6	6.01e-01	0	25	0	1149239296	66	4408
2026-01-07 11:59:05.98	333.80	12.69	-48.9	-50.6	15.6	6.01e-01	0	25	0	1151336448	66	4405
2026-01-07 11:59:06.99	333.85	12.59	-49.0	-50.6	15.6	6.03e-01	0	25	0	1152909312	66	4433
2026-01-07 11:59:08.00	333.89	12.49	-48.9	-50.6	15.6	6.01e-01	0	25	0	1155006464	66	4397
2026-01-07 11:59:09.01	333.93	12.38	-49.0	-50.6	15.5	6.03e-01	0	25	0	1157103616	66	4433
2026-01-07 11:59:10.02	333.97	12.28	-49.0	-50.7	15.5	6.01e-01	0	25	0	1158676480	66	4467
2026-01-07 11:59:11.03	334.01	12.18	-48.9	-50.6	15.6	6.00e-01	0	25	0	1160773632	66	4398
2026-01-07 11:59:12.03	334.04	12.08	-48.9	-50.6	15.6	6.04e-01	0	25	0	1162346496	66	4412
2026-01-07 11:59:13.04	334.08	11.98	-49.0	-50.6	15.6	6.02e-01	0	25	0	1164443648	66	4437
2026-01-07 11:59:14.04	334.12	11.88	-49.1	-50.7	15.5	6.02e-01	0	25	0	1166540800	66	4480
2026-01-07 11:59:15.05	334.16	11.78	-49.1	-50.7	15.5	6.02e-01	0	25	0	1168113664	66	4492
2026-01-07 11:59:16.06	334.20	11.68	-49.1	-50.8	15.5	5.99e-01	0	25	0	1170210816	66	4498
2026-01-07 11:59:17.06	334.24	11.58	-49.0	-50.7	15.5	6.00e-01	0	25	0	1171783680	66	4467
2026-01-07 11:59:18.08	334.28	11.48	-49.1	-50.8	15.4	6.02e-01	0	25	0	1173880832	66	4518
2026-01-07 11:59:19.08	334.31	11.38	-49.1	-50.8	15.5	6.01e-01	0	25	0	1175977984	66	4524
2026-01-07 11:59:20.09	334.35	11.28	-49.1	-50.8	15.5	6.00e-01	0	25	0	1177550848	66	4510
2026-01-07 11:59:21.10	334.39	11.19	-49.1	-50.8	15.5	6.00e-01	0	25	0	1179648000	66	4527
2026-01-07 11:59:22.11	334.43	11.09	-49.2	-50.9	15.5	6.00e-01	0	25	0	1181220864	66	4552
2026-01-07 11:59:23.12	334.46	10.99	-49.2	-50.9	15.5	5.99e-01	0	25	0	1183318016	66	4569
2026-01-07 11:59:24.13	334.50	10.90	-49.2	-50.9	15.5	6.01e-01	0	25	0	1185415168	66	4597
2026-01-07 11:59:25.14	334.53	10.80	-49.2	-50.9	15.5	6.00e-01	0	25	0	1186988032	66	4598
2026-01-07 11:59:26.14	334.57	10.70	-49.2	-50.9	15.5	6.02e-01	0	25	0	1189085184	66	4583
2026-01-07 11:59:27.14	334.61	10.61	-49.2	-51.0	15.5	6.01e-01	0	25	0	1190658048	66	4599
2026-01-07 11:59:28.15	334.64	10.52	-49.2	-51.0	15.5	6.05e-01	0	25	0	1192755200	66	4604
2026-01-07 11:59:29.16	334.68	10.42	-49.3	-51.0	15.5	6.01e-01	0	25	0	1194852352	66	4619
2026-01-07 11:59:30.17	334.71	10.33	-49.3	-51.0	15.5	6.01e-01	0	25	0	1196425216	66	4644
2026-01-07 11:59:31.17	334.75	10.23	-49.3	-51.0	15.5	6.02e-01	0	25	0	1198522368	66	4643
2026-01-07 11:59:32.17	334.78	10.14	-49.5	-51.2	15.4	6.02e-01	0	25	0	1200095232	66	4740
2026-01-07 11:59:33.19	334.82	10.05	-49.4	-51.1	15.4	5.99e-01	0	25	0	1202192384	66	4704
2026-01-07 11:59:34.19	334.85	9.96	-49.4	-51.1	15.4	6.01e-01	0	25	0	1204289536	66	4678
2026-01-07 11:59:35.19	334.88	9.87	-49.3	-51.1	15.4	6.01e-01	0	25	0	1205862400	66	4671
2026-01-07 11:59:36.20	334.92	9.77	-49.4	-51.2	15.4	6.02e-01	0	25	0	1207959552	66	4707
2026-01-07 11:59:37.21	334.95	9.68	-49.4	-51.1	15.4	6.02e-01	0	25	0	1209532416	66	4695
2026-01-07 11:59:38.21	334.99	9.59	-49.4	-51.2	15.4	6.02e-01	0	25	0	1211629568	66	4733
2026-01-07 11:59:39.22	335.02	9.50	-49.4	-51.2	15.4	6.01e-01	0	25	0	1213726720	66	4722
2026-01-07 11:59:40.23	335.05	9.41	-49.5	-51.3	15.4	6.01e-01	0	25	0	1215299584	66	4802
2026-01-07 11:59:41.24	335.09	9.32	-49.5	-51.3	15.4	6.01e-01	0	25	0	1217396736	66	4795
2026-01-07 11:59:42.24	335.12	9.23	-49.6	-51.4	15.5	5.99e-01	0	25	0	1219493888	67	4556
2026-01-07 11:59:43.25	335.15	9.14	-49.6	-51.4	15.5	6.01e-01	0	25	0	1221066752	67	4574
2026-01-07 11:59:44.26	335.18	9.06	-49.5	-51.3	15.5	6.03e-01	0	25	0	1223163904	67	4511
2026-01-07 11:59:45.26	335.22	8.97	-49.6	-51.4	15.5	6.00e-01	0	25	0	1224736768	67	4569
2026-01-07 11:59:46.27	335.25	8.88	-49.6	-51.4	15.5	6.00e-01	0	25	0	1226833920	67	4587
2026-01-07 11:59:47.28	335.28	8.79	-49.6	-51.4	15.5	5.99e-01	0	25	0	1228406784	67	4550
2026-01-07 11:59:48.29	335.31	8.70	-49.7	-51.5	15.4	6.02e-01	0	25	0	1230503936	67	4632
2026-01-07 11:59:49.30	335.34	8.62	-49.7	-51.5	15.4	6.00e-01	0	25	0	1232601088	67	4628
2026-01-07 11:59:50.30	335.37	8.53	-49.8	-51.6	15.2	6.04e-01	0	25	0	1234173952	67	4694
2026-01-07 11:59:51.31	335.40	8.44	-49.7	-51.5	15.4	6.02e-01	0	25	0	1236271104	67	4634
2026-01-07 11:59:52.32	335.44	8.36	-49.9	-51.8	15.3	6.05e-01	0	25	0	1237843968	67	4778
2026-01-07 11:59:53.33	335.47	8.27	-49.9	-51.8	15.4	5.99e-01	0	25	0	1239941120	67	4760
2026-01-07 11:59:54.33	335.50	8.19	-49.8	-51.6	15.4	6.00e-01	0	25	0	1242038272	67	4682
2026-01-07 11:59:55.34	335.53	8.10	-49.9	-51.7	15.3	6.02e-01	0	25	0	1243611136	67	4753
2026-01-07 11:59:56.35	335.56	8.02	-49.9	-51.7	15.4	6.00e-01	0	25	0	1245708288	67	4752
2026-01-07 11:59:57.35	335.59	7.93	-49.8	-51.7	15.4	6.00e-01	0	25	0	1247805440	67	4722
2026-01-07 11:59:58.36	335.62	7.85	-49.9	-51.7	15.4	6.00e-01	0	25	0	1249378304	67	4744
2026-01-07 11:59:59.36	335.65	7.77	-49.8	-51.6	15.4	6.00e-01	0	25	0	1251475456	67	4695
