passes_logs/2026/01/07/R3.2S_Murmansk/R3.2S_Murmansk__20260107_224231_NOAA_20_JPSS-1_rec.log

#Pass ID: 20260107_224231_NOAA 20 (JPSS-1)
#Satellite: NOAA 20 (JPSS-1)
#Configuration: NOAA 20
#almurnet v.1.7.20251203
#Start time: 2026-01-07 22:42:31

#Version: 2.2.20231116
#Station: R3.2S_Murmansk
#Location: 33.079688 lon 68.888172 lat
#TLE: 1 43013U 17073A   26006.30790171  .00000126  00000+0  80695-4 0  9991
#TLE: 2 43013  98.7629 307.3394 0001808  51.8724 308.2615 14.19533762421505

#Time	Az	El	Level	Level2	SNR	BER	BlckErr	Temp	State	Recorded	gain1	gain2
2026-01-07 22:42:31.83	19.35	2.04	-57.7	-73.7	3.8	1.49e+00	0	23	0	0	82	21608
2026-01-07 22:42:32.83	19.41	2.10	-57.6	-73.6	3.8	1.49e+00	0	23	104	0	80	24087
2026-01-07 22:42:33.83	19.47	2.16	-57.6	-73.6	3.8	1.49e+00	0	23	104	0	80	24038
2026-01-07 22:42:34.83	19.53	2.22	-57.6	-73.6	3.8	1.49e+00	0	23	104	0	80	24015
2026-01-07 22:42:35.82	19.59	2.27	-57.6	-73.6	3.8	1.49e+00	0	23	104	0	80	23968
2026-01-07 22:42:36.82	19.65	2.33	-57.6	-73.6	3.8	1.49e+00	0	23	104	0	80	23881
2026-01-07 22:42:37.82	19.71	2.39	-57.6	-73.5	3.8	1.49e+00	0	23	104	0	80	23694
2026-01-07 22:42:38.82	19.77	2.45	-57.6	-73.5	3.8	1.49e+00	0	23	104	0	80	23792
2026-01-07 22:42:39.81	19.83	2.51	-57.6	-73.5	3.8	1.49e+00	0	23	104	0	80	23804
2026-01-07 22:42:40.81	19.89	2.56	-57.6	-73.5	3.8	1.49e+00	0	23	104	0	80	23593
2026-01-07 22:42:41.81	19.95	2.62	-57.6	-73.4	3.8	1.49e+00	0	23	104	0	80	23405
2026-01-07 22:42:42.81	20.01	2.68	-57.6	-73.2	3.8	1.49e+00	0	23	104	0	80	22857
2026-01-07 22:42:43.81	20.08	2.74	-57.6	-72.9	3.8	1.49e+00	0	23	104	0	80	22205
2026-01-07 22:42:44.80	20.14	2.80	-57.6	-72.8	3.8	1.49e+00	0	23	104	0	80	21880
2026-01-07 22:42:45.79	20.20	2.86	-57.6	-72.6	3.8	1.49e+00	0	23	104	0	80	21290
2026-01-07 22:42:46.79	20.26	2.92	-57.6	-72.3	3.8	1.49e+00	0	23	104	0	80	20608
2026-01-07 22:42:47.78	20.32	2.97	-57.6	-72.2	3.8	1.49e+00	0	24	104	0	80	20417
2026-01-07 22:42:48.78	20.39	3.03	-57.6	-72.4	3.8	1.49e+00	0	24	104	0	80	20810
2026-01-07 22:42:49.78	20.45	3.09	-57.6	-72.5	3.8	1.49e+00	0	23	104	0	80	21138
2026-01-07 22:42:50.77	20.51	3.15	-57.6	-72.4	3.8	1.49e+00	0	23	104	0	80	20983
2026-01-07 22:42:51.77	20.58	3.21	-57.6	-72.3	3.8	1.49e+00	0	24	104	0	80	20725
2026-01-07 22:42:52.77	20.64	3.27	-57.5	-71.7	3.8	1.49e+00	0	23	104	0	80	19274
2026-01-07 22:42:53.77	20.71	3.33	-57.5	-71.4	3.8	1.49e+00	0	24	104	0	80	18561
2026-01-07 22:42:54.76	20.77	3.39	-57.5	-70.0	4.2	1.41e+00	0	24	0	0	80	15893
2026-01-07 22:42:55.76	20.83	3.45	-57.4	-69.3	4.4	1.32e+00	66	24	0	0	80	14667
2026-01-07 22:42:56.76	20.90	3.51	-57.4	-68.6	4.7	9.43e-01	0	24	0	2097152	80	13467
2026-01-07 22:42:57.76	20.96	3.57	-57.3	-68.0	5.0	7.24e-01	0	24	0	4194304	80	12538
2026-01-07 22:42:58.75	21.03	3.63	-57.3	-67.6	5.2	6.25e-01	0	24	0	5242880	80	11965
2026-01-07 22:42:59.75	21.10	3.69	-57.2	-66.8	5.6	4.79e-01	0	24	0	7340032	80	10968
2026-01-07 22:43:00.75	21.16	3.75	-57.2	-66.9	5.6	3.94e-01	0	24	0	9437184	80	11120
2026-01-07 22:43:01.76	21.23	3.81	-57.1	-66.3	6.0	3.21e-01	0	24	0	11534336	80	10311
2026-01-07 22:43:02.76	21.29	3.87	-57.1	-65.9	6.2	2.88e-01	0	24	0	13631488	80	9868
2026-01-07 22:43:03.76	21.36	3.93	-57.0	-65.0	6.9	1.48e-01	0	24	0	14680064	80	8945
2026-01-07 22:43:04.76	21.43	3.99	-56.7	-63.8	8.0	8.54e-02	0	24	0	16777216	80	7761
2026-01-07 22:43:05.77	21.50	4.05	-56.5	-62.8	8.9	2.22e-02	0	24	0	18874368	79	7334
2026-01-07 22:43:06.77	21.56	4.11	-56.1	-61.5	10.0	4.74e-03	0	24	0	20971520	78	6712
2026-01-07 22:43:07.77	21.63	4.17	-55.5	-60.1	11.0	8.07e-04	0	24	0	23068672	77	6058
2026-01-07 22:43:08.78	21.70	4.24	-55.0	-58.8	12.0	6.80e-06	0	24	0	24117248	76	5527
2026-01-07 22:43:09.77	21.77	4.30	-54.5	-58.1	12.4	3.00e-06	0	24	0	26214400	75	5358
2026-01-07 22:43:10.77	21.84	4.36	-54.3	-57.7	12.7	0.00e+00	0	24	0	28311552	75	5130
2026-01-07 22:43:11.77	21.91	4.42	-54.1	-57.3	12.9	0.00e+00	0	24	0	30408704	74	5173
2026-01-07 22:43:12.78	21.98	4.48	-53.9	-56.9	13.2	0.00e+00	0	24	0	32505856	74	4968
2026-01-07 22:43:13.78	22.05	4.54	-53.9	-57.0	13.0	0.00e+00	0	24	0	33554432	73	5306
2026-01-07 22:43:14.77	22.11	4.60	-53.9	-57.1	13.0	0.00e+00	0	24	0	35651584	73	5346
2026-01-07 22:43:15.77	22.18	4.67	-54.3	-57.7	12.5	0.00e+00	0	24	0	37748736	73	5774
2026-01-07 22:43:16.76	22.25	4.73	-54.5	-58.0	12.3	0.00e+00	0	24	0	39845888	74	5648
2026-01-07 22:43:17.75	22.32	4.79	-55.0	-59.2	11.6	5.30e-06	0	24	0	40894464	75	6071
2026-01-07 22:43:18.75	22.39	4.85	-55.6	-60.3	10.8	1.43e-04	0	24	0	42991616	76	6563
2026-01-07 22:43:19.75	22.47	4.91	-56.0	-61.5	9.9	1.37e-03	0	24	0	45088768	77	7067
2026-01-07 22:43:20.75	22.54	4.98	-56.4	-62.8	8.8	5.70e-03	0	24	0	47185920	77	8182
2026-01-07 22:43:21.75	22.61	5.04	-56.7	-63.9	7.9	2.22e-02	0	24	0	49283072	78	8816
2026-01-07 22:43:22.75	22.68	5.10	-54.1	-57.3	13.0	5.71e-03	0	24	0	50331648	75	4894
2026-01-07 22:43:23.75	22.75	5.16	-56.7	-64.3	7.6	2.14e-04	0	24	0	52428800	78	9249
2026-01-07 22:43:24.75	22.82	5.23	-57.3	-67.0	5.8	1.63e-01	0	24	0	54525952	79	11899
2026-01-07 22:43:25.75	22.90	5.29	-55.2	-59.2	11.8	1.14e-01	0	24	0	56623104	77	5418
2026-01-07 22:43:26.74	22.97	5.35	-57.2	-67.0	5.6	2.91e-02	0	24	0	57671680	79	11899
2026-01-07 22:43:27.74	23.04	5.42	-55.4	-59.7	11.2	4.76e-01	0	24	0	59768832	77	5784
2026-01-07 22:43:28.72	23.12	5.48	-54.0	-57.0	13.1	7.00e-07	0	24	0	61865984	74	5016
2026-01-07 22:43:29.73	23.19	5.54	-53.5	-56.2	13.6	0.00e+00	0	24	0	63963136	73	4826
2026-01-07 22:43:30.73	23.26	5.61	-53.3	-56.0	13.7	0.00e+00	0	24	0	65011712	73	4715
2026-01-07 22:43:31.73	23.34	5.67	-53.3	-55.9	13.7	0.00e+00	0	24	0	67108864	73	4665
2026-01-07 22:43:32.74	23.42	5.73	-53.3	-55.9	13.8	0.00e+00	0	24	0	69206016	73	4667
2026-01-07 22:43:33.74	23.49	5.80	-53.1	-55.6	13.8	0.00e+00	0	24	0	71303168	72	4813
2026-01-07 22:43:34.74	23.57	5.86	-53.0	-55.4	13.9	0.00e+00	0	24	0	73400320	72	4697
2026-01-07 22:43:35.74	23.64	5.93	-53.0	-55.5	13.9	0.00e+00	0	24	0	74448896	72	4745
2026-01-07 22:43:36.74	23.72	5.99	-53.0	-55.5	13.9	0.00e+00	0	24	0	76546048	72	4707
2026-01-07 22:43:37.74	23.79	6.06	-53.0	-55.5	13.9	0.00e+00	0	24	0	78643200	72	4743
2026-01-07 22:43:38.74	23.87	6.12	-53.0	-55.5	13.9	0.00e+00	0	24	0	80740352	72	4757
2026-01-07 22:43:39.73	23.95	6.18	-53.0	-55.5	13.9	0.00e+00	0	24	0	82837504	72	4728
2026-01-07 22:43:40.73	24.02	6.25	-53.1	-55.6	13.8	0.00e+00	0	24	0	83886080	72	4778
2026-01-07 22:43:41.73	24.10	6.31	-53.1	-55.6	13.8	0.00e+00	0	24	0	85983232	72	4796
2026-01-07 22:43:42.73	24.18	6.38	-53.0	-55.4	14.0	0.00e+00	0	24	0	88080384	72	4675
2026-01-07 22:43:43.72	24.26	6.44	-53.0	-55.5	13.9	0.00e+00	0	24	0	90177536	72	4742
2026-01-07 22:43:44.72	24.34	6.51	-53.1	-55.6	13.9	0.00e+00	0	24	0	91226112	72	4771
2026-01-07 22:43:45.72	24.42	6.57	-53.0	-55.4	14.0	0.00e+00	0	24	0	93323264	72	4669
2026-01-07 22:43:46.72	24.50	6.64	-53.0	-55.4	14.0	0.00e+00	0	24	0	95420416	72	4693
2026-01-07 22:43:47.71	24.57	6.70	-53.0	-55.4	13.9	0.00e+00	0	24	0	97517568	72	4693
2026-01-07 22:43:48.70	24.65	6.77	-53.0	-55.4	14.0	0.00e+00	0	24	0	99614720	72	4654
2026-01-07 22:43:49.69	24.73	6.84	-52.9	-55.3	14.1	0.00e+00	0	25	0	100663296	72	4623
2026-01-07 22:43:50.69	24.81	6.90	-52.9	-55.2	14.1	0.00e+00	0	24	0	102760448	72	4595
2026-01-07 22:43:51.70	24.90	6.97	-52.9	-55.3	14.1	0.00e+00	0	24	0	104857600	72	4612
2026-01-07 22:43:52.68	24.98	7.03	-52.9	-55.2	14.1	0.00e+00	0	24	0	106954752	72	4593
2026-01-07 22:43:53.68	25.06	7.10	-52.9	-55.3	14.1	0.00e+00	0	24	0	109051904	72	4619
2026-01-07 22:43:54.67	25.14	7.17	-53.0	-55.3	14.1	0.00e+00	0	24	0	110100480	72	4635
2026-01-07 22:43:55.67	25.22	7.23	-52.9	-55.3	14.1	0.00e+00	0	24	0	112197632	72	4615
2026-01-07 22:43:56.67	25.30	7.30	-52.9	-55.2	14.1	0.00e+00	0	25	0	114294784	72	4567
2026-01-07 22:43:57.66	25.39	7.37	-52.9	-55.3	14.1	0.00e+00	0	24	0	116391936	72	4614
2026-01-07 22:43:58.65	25.47	7.43	-52.9	-55.3	14.1	0.00e+00	0	24	0	117440512	72	4608
2026-01-07 22:43:59.66	25.55	7.50	-52.9	-55.3	14.1	0.00e+00	0	24	0	119537664	72	4613
2026-01-07 22:44:00.65	25.64	7.57	-53.0	-55.4	14.1	0.00e+00	0	24	0	121634816	72	4654
2026-01-07 22:44:01.64	25.72	7.63	-52.9	-55.3	14.1	0.00e+00	0	24	0	123731968	72	4607
2026-01-07 22:44:02.64	25.81	7.70	-53.0	-55.3	14.1	0.00e+00	0	25	0	125829120	72	4644
2026-01-07 22:44:03.63	25.89	7.77	-52.8	-55.2	14.2	0.00e+00	0	24	0	126877696	72	4555
2026-01-07 22:44:04.63	25.98	7.84	-52.9	-55.2	14.2	0.00e+00	0	24	0	128974848	72	4584
2026-01-07 22:44:05.63	26.06	7.90	-52.8	-55.1	14.2	0.00e+00	0	24	0	131072000	72	4503
2026-01-07 22:44:06.63	26.15	7.97	-52.9	-55.2	14.1	0.00e+00	0	24	0	133169152	72	4594
2026-01-07 22:44:07.63	26.24	8.04	-52.8	-55.1	14.2	0.00e+00	0	24	0	134217728	72	4520
2026-01-07 22:44:08.63	26.32	8.11	-52.7	-55.0	14.3	0.00e+00	0	24	0	136314880	72	4453
2026-01-07 22:44:09.63	26.41	8.18	-52.8	-55.0	14.3	0.00e+00	0	25	0	138412032	72	4485
2026-01-07 22:44:10.63	26.50	8.24	-52.7	-54.9	14.3	0.00e+00	0	24	0	140509184	72	4437
2026-01-07 22:44:11.62	26.59	8.31	-52.8	-55.1	14.2	0.00e+00	0	24	0	142606336	72	4509
2026-01-07 22:44:12.62	26.67	8.38	-52.9	-55.2	14.2	0.00e+00	0	25	0	143654912	72	4551
2026-01-07 22:44:13.62	26.76	8.45	-52.8	-55.0	14.3	0.00e+00	0	24	0	145752064	72	4480
2026-01-07 22:44:14.61	26.85	8.52	-52.7	-54.9	14.4	0.00e+00	0	24	0	147849216	72	4404
2026-01-07 22:44:15.61	26.94	8.59	-52.7	-54.9	14.4	0.00e+00	0	24	0	149946368	72	4408
2026-01-07 22:44:16.60	27.03	8.66	-52.8	-55.0	14.3	0.00e+00	0	24	0	150994944	72	4466
2026-01-07 22:44:17.60	27.12	8.73	-52.6	-54.8	14.3	0.00e+00	0	24	0	153092096	71	4631
2026-01-07 22:44:18.60	27.21	8.80	-52.7	-55.0	14.1	0.00e+00	0	24	0	155189248	71	4726
2026-01-07 22:44:19.61	27.31	8.87	-52.7	-54.9	14.2	0.00e+00	0	24	0	157286400	71	4675
2026-01-07 22:44:20.60	27.40	8.94	-52.7	-54.9	14.2	0.00e+00	0	24	0	159383552	71	4678
2026-01-07 22:44:21.61	27.49	9.01	-52.6	-54.8	14.3	0.00e+00	0	25	0	160432128	71	4625
2026-01-07 22:44:22.60	27.58	9.08	-52.5	-54.7	14.3	0.00e+00	0	24	0	162529280	71	4561
2026-01-07 22:44:23.60	27.68	9.15	-52.5	-54.7	14.4	0.00e+00	0	24	0	164626432	71	4552
2026-01-07 22:44:24.59	27.77	9.22	-52.5	-54.7	14.3	0.00e+00	0	25	0	166723584	71	4557
2026-01-07 22:44:25.59	27.86	9.29	-52.4	-54.5	14.4	0.00e+00	0	25	0	168820736	71	4462
2026-01-07 22:44:26.59	27.96	9.36	-52.5	-54.6	14.4	0.00e+00	0	24	0	169869312	71	4509
2026-01-07 22:44:27.59	28.05	9.43	-52.4	-54.5	14.4	0.00e+00	0	25	0	171966464	71	4461
2026-01-07 22:44:28.58	28.15	9.50	-52.3	-54.3	14.5	0.00e+00	0	25	0	174063616	71	4379
2026-01-07 22:44:29.59	28.24	9.57	-52.2	-54.3	14.6	0.00e+00	0	24	0	176160768	71	4342
2026-01-07 22:44:30.58	28.34	9.64	-52.2	-54.2	14.6	0.00e+00	0	25	0	177209344	71	4339
2026-01-07 22:44:31.57	28.44	9.71	-52.2	-54.2	14.6	0.00e+00	0	25	0	179306496	71	4338
2026-01-07 22:44:32.57	28.53	9.78	-52.1	-54.1	14.5	0.00e+00	0	24	0	181403648	70	4521
2026-01-07 22:44:33.57	28.63	9.86	-52.2	-54.2	14.5	0.00e+00	0	25	0	183500800	70	4572
2026-01-07 22:44:34.57	28.73	9.93	-52.2	-54.3	14.4	0.00e+00	0	25	0	185597952	70	4615
2026-01-07 22:44:35.57	28.83	10.00	-52.1	-54.1	14.5	0.00e+00	0	25	0	186646528	70	4541
2026-01-07 22:44:36.57	28.93	10.07	-52.2	-54.2	14.4	0.00e+00	0	25	0	188743680	70	4597
2026-01-07 22:44:37.57	29.03	10.14	-52.2	-54.2	14.4	0.00e+00	0	24	0	190840832	70	4589
2026-01-07 22:44:38.57	29.13	10.22	-52.2	-54.3	14.4	0.00e+00	0	25	0	192937984	70	4616
2026-01-07 22:44:39.57	29.23	10.29	-52.3	-54.4	14.4	0.00e+00	0	25	0	193986560	70	4674
2026-01-07 22:44:40.57	29.33	10.36	-52.4	-54.5	14.3	0.00e+00	0	25	0	196083712	70	4725
2026-01-07 22:44:41.57	29.43	10.43	-52.4	-54.5	14.3	0.00e+00	0	25	0	198180864	70	4740
2026-01-07 22:44:42.57	29.53	10.51	-52.5	-54.6	14.3	0.00e+00	0	25	0	200278016	70	4760
2026-01-07 22:44:43.56	29.63	10.58	-52.5	-54.6	14.3	0.00e+00	0	25	0	202375168	70	4773
2026-01-07 22:44:44.56	29.74	10.65	-52.5	-54.6	14.3	0.00e+00	0	25	0	203423744	70	4768
2026-01-07 22:44:45.55	29.84	10.73	-52.5	-54.6	14.3	0.00e+00	0	25	0	205520896	70	4766
2026-01-07 22:44:46.55	29.94	10.80	-52.5	-54.6	14.3	0.00e+00	0	25	0	207618048	70	4764
2026-01-07 22:44:47.54	30.04	10.87	-52.4	-54.6	14.3	0.00e+00	0	25	0	209715200	70	4761
2026-01-07 22:44:48.53	30.15	10.94	-52.5	-54.6	14.3	0.00e+00	0	25	0	211812352	70	4771
2026-01-07 22:44:49.52	30.25	11.02	-52.5	-54.5	14.3	0.00e+00	0	25	0	212860928	70	4757
2026-01-07 22:44:50.52	30.36	11.09	-52.5	-54.6	14.3	0.00e+00	0	25	0	214958080	70	4786
2026-01-07 22:44:51.51	30.46	11.17	-52.5	-54.6	14.3	0.00e+00	0	25	0	217055232	70	4795
2026-01-07 22:44:52.50	30.57	11.24	-52.4	-54.5	14.3	0.00e+00	0	25	0	219152384	70	4722
2026-01-07 22:44:53.49	30.68	11.31	-52.3	-54.4	14.4	0.00e+00	0	24	0	220200960	70	4654
2026-01-07 22:44:54.49	30.78	11.39	-52.4	-54.4	14.3	0.00e+00	0	25	0	222298112	70	4700
2026-01-07 22:44:55.49	30.89	11.46	-52.3	-54.3	14.5	0.00e+00	0	25	0	224395264	70	4610
2026-01-07 22:44:56.48	31.00	11.54	-52.1	-54.1	14.6	0.00e+00	0	25	0	226492416	70	4510
2026-01-07 22:44:57.47	31.11	11.61	-52.2	-54.2	14.5	0.00e+00	0	25	0	228589568	70	4551
2026-01-07 22:44:58.47	31.22	11.69	-52.1	-54.1	14.5	0.00e+00	0	25	0	229638144	70	4513
2026-01-07 22:44:59.46	31.33	11.76	-52.0	-54.0	14.6	0.00e+00	0	25	0	231735296	70	4459
2026-01-07 22:45:00.47	31.44	11.84	-52.1	-54.1	14.5	0.00e+00	0	25	0	233832448	70	4526
2026-01-07 22:45:01.47	31.55	11.91	-52.1	-54.1	14.6	0.00e+00	0	25	0	235929600	70	4518
2026-01-07 22:45:02.46	31.66	11.99	-52.2	-54.1	14.5	0.00e+00	0	25	0	236978176	70	4531
2026-01-07 22:45:03.47	31.78	12.06	-52.1	-54.0	14.6	0.00e+00	0	25	0	239075328	70	4484
2026-01-07 22:45:04.46	31.89	12.14	-52.1	-54.0	14.6	0.00e+00	0	25	0	241172480	70	4475
2026-01-07 22:45:05.47	32.00	12.22	-52.1	-54.1	14.5	0.00e+00	0	25	0	243269632	70	4527
2026-01-07 22:45:06.47	32.12	12.29	-52.1	-54.1	14.5	0.00e+00	0	25	0	245366784	70	4497
2026-01-07 22:45:07.47	32.23	12.37	-52.1	-54.0	14.6	0.00e+00	0	25	0	246415360	70	4482
2026-01-07 22:45:08.47	32.35	12.45	-52.2	-54.1	14.5	0.00e+00	0	25	0	248512512	70	4543
2026-01-07 22:45:09.47	32.47	12.52	-52.1	-54.1	14.6	0.00e+00	0	25	0	250609664	70	4494
2026-01-07 22:45:10.46	32.58	12.60	-52.1	-54.1	14.5	0.00e+00	0	25	0	252706816	70	4513
2026-01-07 22:45:11.46	32.70	12.68	-52.2	-54.1	14.5	0.00e+00	0	25	0	254803968	70	4539
2026-01-07 22:45:12.46	32.82	12.75	-52.1	-54.1	14.5	0.00e+00	0	25	0	255852544	70	4519
2026-01-07 22:45:13.46	32.94	12.83	-52.1	-54.1	14.6	0.00e+00	0	25	0	257949696	70	4501
2026-01-07 22:45:14.46	33.05	12.91	-52.0	-53.9	14.6	0.00e+00	0	25	0	260046848	70	4438
2026-01-07 22:45:15.46	33.17	12.98	-51.9	-53.7	14.7	0.00e+00	0	25	0	262144000	70	4336
2026-01-07 22:45:16.46	33.29	13.06	-51.9	-53.8	14.7	0.00e+00	0	25	0	263192576	70	4380
2026-01-07 22:45:17.46	33.42	13.14	-52.0	-53.9	14.7	0.00e+00	0	25	0	265289728	70	4394
2026-01-07 22:45:18.47	33.54	13.22	-52.0	-54.0	14.6	0.00e+00	0	25	0	267386880	70	4449
2026-01-07 22:45:19.47	33.66	13.30	-52.1	-54.0	14.6	0.00e+00	0	25	0	269484032	70	4461
2026-01-07 22:45:20.47	33.78	13.38	-52.1	-54.1	14.6	0.00e+00	0	25	0	271581184	70	4523
2026-01-07 22:45:21.46	33.91	13.45	-52.2	-54.1	14.6	0.00e+00	0	25	0	272629760	70	4534
2026-01-07 22:45:22.46	34.03	13.53	-52.3	-54.3	14.5	0.00e+00	0	25	0	274726912	70	4616
2026-01-07 22:45:23.46	34.15	13.61	-52.2	-54.2	14.5	0.00e+00	0	25	0	276824064	70	4584
2026-01-07 22:45:24.45	34.28	13.69	-52.3	-54.3	14.5	0.00e+00	0	25	0	278921216	70	4608
2026-01-07 22:45:25.44	34.40	13.77	-52.2	-54.2	14.5	0.00e+00	0	25	0	281018368	70	4578
2026-01-07 22:45:26.44	34.53	13.85	-52.2	-54.1	14.6	0.00e+00	0	25	0	282066944	70	4533
2026-01-07 22:45:27.45	34.66	13.93	-52.2	-54.1	14.5	0.00e+00	0	25	0	284164096	70	4527
2026-01-07 22:45:28.45	34.79	14.00	-52.1	-54.0	14.6	0.00e+00	0	25	0	286261248	70	4483
2026-01-07 22:45:29.45	34.91	14.08	-52.1	-54.0	14.6	0.00e+00	0	25	0	288358400	70	4480
2026-01-07 22:45:30.46	35.05	14.16	-52.0	-54.0	14.6	0.00e+00	0	25	0	290455552	70	4444
2026-01-07 22:45:31.46	35.17	14.24	-52.1	-54.0	14.6	0.00e+00	0	25	0	291504128	70	4488
2026-01-07 22:45:32.46	35.31	14.32	-52.1	-54.0	14.7	0.00e+00	0	25	0	293601280	70	4465
2026-01-07 22:45:33.46	35.44	14.40	-52.1	-54.0	14.6	0.00e+00	0	25	0	295698432	70	4456
2026-01-07 22:45:34.46	35.57	14.48	-52.1	-54.0	14.6	0.00e+00	0	25	0	297795584	70	4458
2026-01-07 22:45:35.46	35.70	14.56	-52.1	-54.1	14.6	0.00e+00	0	25	0	298844160	70	4511
2026-01-07 22:45:36.46	35.83	14.64	-52.1	-54.0	14.6	0.00e+00	0	25	0	300941312	70	4488
2026-01-07 22:45:37.46	35.97	14.73	-52.1	-54.0	14.6	0.00e+00	0	25	0	303038464	70	4487
2026-01-07 22:45:38.45	36.10	14.81	-52.0	-53.9	14.6	0.00e+00	0	25	0	305135616	70	4424
2026-01-07 22:45:39.46	36.24	14.89	-52.0	-53.8	14.7	0.00e+00	0	25	0	307232768	70	4389
2026-01-07 22:45:40.46	36.37	14.97	-52.0	-53.8	14.7	0.00e+00	0	25	0	308281344	70	4379
2026-01-07 22:45:41.45	36.51	15.05	-51.9	-53.8	14.7	0.00e+00	0	25	0	310378496	70	4376
2026-01-07 22:45:42.46	36.65	15.13	-51.9	-53.8	14.7	0.00e+00	0	25	0	312475648	70	4375
2026-01-07 22:45:43.46	36.79	15.21	-51.9	-53.8	14.7	0.00e+00	0	25	0	314572800	70	4360
2026-01-07 22:45:44.46	36.93	15.29	-51.9	-53.7	14.8	0.00e+00	0	25	0	316669952	70	4329
2026-01-07 22:45:45.45	37.06	15.37	-51.9	-53.7	14.7	0.00e+00	0	25	0	317718528	70	4338
2026-01-07 22:45:46.45	37.21	15.45	-52.0	-53.8	14.7	0.00e+00	0	25	0	319815680	70	4391
2026-01-07 22:45:47.45	37.35	15.54	-51.9	-53.8	14.7	0.00e+00	0	25	0	321912832	70	4379
2026-01-07 22:45:48.44	37.49	15.62	-52.1	-54.0	14.6	0.00e+00	0	25	0	324009984	70	4491
2026-01-07 22:45:49.44	37.63	15.70	-52.0	-54.0	14.6	0.00e+00	0	25	0	325058560	70	4444
2026-01-07 22:45:50.44	37.77	15.78	-52.1	-54.0	14.7	0.00e+00	0	25	0	327155712	70	4443
2026-01-07 22:45:51.44	37.92	15.86	-52.1	-53.9	14.7	0.00e+00	0	25	0	329252864	70	4436
2026-01-07 22:45:52.43	38.06	15.94	-51.8	-53.7	14.8	0.00e+00	0	25	0	331350016	70	4294
2026-01-07 22:45:53.43	38.21	16.03	-51.8	-53.7	14.8	0.00e+00	0	25	0	333447168	70	4293
2026-01-07 22:45:54.42	38.35	16.11	-51.8	-53.6	14.9	0.00e+00	0	25	0	334495744	70	4251
2026-01-07 22:45:55.42	38.50	16.19	-51.6	-53.4	14.8	0.00e+00	0	25	0	336592896	69	4435
2026-01-07 22:45:56.41	38.65	16.27	-51.6	-53.4	14.8	0.00e+00	0	25	0	338690048	69	4405
2026-01-07 22:45:57.41	38.79	16.36	-51.6	-53.3	14.8	0.00e+00	0	25	0	340787200	69	4375
2026-01-07 22:45:58.41	38.94	16.44	-51.5	-53.3	14.8	0.00e+00	0	25	0	341835776	69	4348
2026-01-07 22:45:59.41	39.09	16.52	-51.5	-53.3	14.8	0.00e+00	0	25	0	343932928	69	4359
2026-01-07 22:46:00.41	39.25	16.61	-51.5	-53.3	14.8	0.00e+00	0	25	0	346030080	69	4348
2026-01-07 22:46:01.41	39.40	16.69	-51.5	-53.2	14.9	0.00e+00	0	25	0	348127232	69	4335
2026-01-07 22:46:02.41	39.55	16.77	-51.5	-53.3	14.8	0.00e+00	0	25	0	350224384	69	4360
2026-01-07 22:46:03.40	39.70	16.85	-51.5	-53.3	14.9	0.00e+00	0	25	0	351272960	69	4351
2026-01-07 22:46:04.39	39.86	16.94	-51.5	-53.2	14.8	0.00e+00	0	25	0	353370112	69	4340
2026-01-07 22:46:05.39	40.01	17.02	-51.5	-53.2	14.9	0.00e+00	0	25	0	355467264	69	4328
2026-01-07 22:46:06.39	40.17	17.10	-51.5	-53.2	14.9	0.00e+00	0	25	0	357564416	69	4319
2026-01-07 22:46:07.39	40.32	17.19	-51.5	-53.2	14.9	0.00e+00	0	25	0	359661568	69	4321
2026-01-07 22:46:08.39	40.48	17.27	-51.3	-53.0	15.0	0.00e+00	0	25	0	360710144	69	4240
2026-01-07 22:46:09.39	40.64	17.36	-51.3	-53.0	15.0	0.00e+00	0	25	0	362807296	69	4218
2026-01-07 22:46:10.39	40.80	17.44	-51.3	-53.0	15.0	0.00e+00	0	25	0	364904448	69	4201
2026-01-07 22:46:11.39	40.96	17.52	-51.3	-53.0	15.0	0.00e+00	0	25	0	367001600	69	4233
2026-01-07 22:46:12.39	41.12	17.61	-51.3	-53.0	15.0	0.00e+00	0	25	0	369098752	69	4201
2026-01-07 22:46:13.39	41.28	17.69	-51.4	-53.1	14.9	0.00e+00	0	25	0	370147328	69	4269
2026-01-07 22:46:14.39	41.45	17.78	-51.4	-53.1	14.9	0.00e+00	0	25	0	372244480	69	4255
2026-01-07 22:46:15.40	41.61	17.86	-51.3	-53.1	15.0	0.00e+00	0	25	0	374341632	69	4244
2026-01-07 22:46:16.39	41.78	17.94	-51.4	-53.1	14.9	0.00e+00	0	25	0	376438784	69	4271
2026-01-07 22:46:17.38	41.94	18.03	-51.4	-53.1	14.9	0.00e+00	0	25	0	377487360	69	4275
2026-01-07 22:46:18.37	42.11	18.11	-51.4	-53.1	14.9	0.00e+00	0	25	0	379584512	69	4248
2026-01-07 22:46:19.37	42.27	18.20	-51.3	-53.0	15.0	0.00e+00	0	25	0	381681664	69	4220
2026-01-07 22:46:20.37	42.44	18.28	-51.2	-52.9	15.0	0.00e+00	0	25	0	383778816	69	4173
2026-01-07 22:46:21.37	42.61	18.37	-51.2	-52.8	14.9	0.00e+00	0	25	0	385875968	68	4382
2026-01-07 22:46:22.36	42.78	18.45	-51.0	-52.6	15.0	0.00e+00	0	25	0	386924544	68	4286
2026-01-07 22:46:23.36	42.95	18.53	-50.9	-52.5	15.0	0.00e+00	0	25	0	389021696	68	4233
2026-01-07 22:46:24.35	43.12	18.62	-50.9	-52.5	15.0	0.00e+00	0	25	0	391118848	68	4233
2026-01-07 22:46:25.35	43.29	18.70	-50.9	-52.6	15.0	0.00e+00	0	25	0	393216000	68	4249
2026-01-07 22:46:26.35	43.47	18.79	-51.0	-52.7	15.0	0.00e+00	0	25	0	394264576	68	4305
2026-01-07 22:46:27.36	43.64	18.87	-50.9	-52.6	15.0	0.00e+00	0	25	0	396361728	68	4251
2026-01-07 22:46:28.36	43.82	18.96	-51.1	-52.8	14.9	0.00e+00	0	25	0	398458880	68	4341
2026-01-07 22:46:29.36	44.00	19.04	-51.1	-52.7	14.9	0.00e+00	0	25	0	400556032	68	4329
2026-01-07 22:46:30.35	44.17	19.13	-51.0	-52.7	15.0	0.00e+00	0	25	0	402653184	68	4293
2026-01-07 22:46:31.36	44.35	19.22	-51.0	-52.6	15.0	0.00e+00	0	25	0	403701760	68	4274
2026-01-07 22:46:32.36	44.53	19.30	-50.9	-52.5	15.0	0.00e+00	0	25	0	405798912	68	4215
2026-01-07 22:46:33.35	44.71	19.38	-50.8	-52.4	15.1	0.00e+00	0	25	0	407896064	68	4171
2026-01-07 22:46:34.35	44.89	19.47	-50.8	-52.4	15.1	0.00e+00	0	25	0	409993216	68	4172
2026-01-07 22:46:35.36	45.08	19.56	-50.8	-52.3	15.2	0.00e+00	0	25	0	412090368	68	4140
2026-01-07 22:46:36.35	45.26	19.64	-50.7	-52.3	15.1	0.00e+00	0	25	0	413138944	68	4124
2026-01-07 22:46:37.35	45.45	19.73	-50.8	-52.4	15.1	0.00e+00	0	25	0	415236096	68	4183
2026-01-07 22:46:38.34	45.63	19.81	-50.9	-52.5	15.0	0.00e+00	0	25	0	417333248	68	4238
2026-01-07 22:46:39.34	45.82	19.89	-51.0	-52.6	15.0	0.00e+00	0	25	0	419430400	68	4260
2026-01-07 22:46:40.34	46.00	19.98	-50.9	-52.6	15.0	0.00e+00	0	25	0	421527552	68	4246
2026-01-07 22:46:41.34	46.19	20.07	-50.9	-52.5	15.1	0.00e+00	0	25	0	422576128	68	4198
2026-01-07 22:46:42.34	46.38	20.15	-50.6	-52.2	15.0	0.00e+00	0	25	0	424673280	67	4327
2026-01-07 22:46:43.34	46.57	20.24	-50.6	-52.2	15.0	0.00e+00	0	25	0	426770432	67	4335
2026-01-07 22:46:44.34	46.76	20.32	-50.5	-52.1	15.0	0.00e+00	0	25	0	428867584	67	4269
2026-01-07 22:46:45.34	46.96	20.41	-50.5	-52.1	15.1	0.00e+00	0	25	0	429916160	67	4243
2026-01-07 22:46:46.34	47.15	20.49	-50.3	-51.9	15.2	0.00e+00	0	25	0	432013312	67	4152
2026-01-07 22:46:47.34	47.35	20.58	-50.4	-51.9	15.1	0.00e+00	0	25	0	434110464	67	4187
2026-01-07 22:46:48.34	47.54	20.66	-50.4	-51.9	15.2	0.00e+00	0	25	0	436207616	67	4164
2026-01-07 22:46:49.33	47.74	20.75	-50.4	-51.9	15.1	0.00e+00	0	25	0	438304768	67	4171
2026-01-07 22:46:50.33	47.94	20.83	-50.4	-52.0	15.1	0.00e+00	0	25	0	439353344	67	4202
2026-01-07 22:46:51.32	48.13	20.91	-50.6	-52.2	15.0	0.00e+00	0	25	0	441450496	67	4301
2026-01-07 22:46:52.32	48.33	21.00	-50.6	-52.2	15.0	0.00e+00	0	25	0	443547648	67	4334
2026-01-07 22:46:53.31	48.53	21.08	-50.7	-52.3	15.0	0.00e+00	0	25	0	445644800	67	4378
2026-01-07 22:46:54.30	48.73	21.17	-50.7	-52.3	15.0	0.00e+00	0	25	0	446693376	67	4359
2026-01-07 22:46:55.30	48.94	21.25	-50.7	-52.3	15.0	0.00e+00	0	25	0	448790528	67	4375
2026-01-07 22:46:56.30	49.14	21.34	-50.7	-52.3	15.0	0.00e+00	0	25	0	450887680	67	4346
2026-01-07 22:46:57.30	49.35	21.42	-50.5	-52.1	15.1	0.00e+00	0	25	0	452984832	67	4258
2026-01-07 22:46:58.29	49.55	21.50	-50.5	-52.1	15.1	0.00e+00	0	25	0	455081984	67	4243
2026-01-07 22:46:59.29	49.76	21.59	-50.5	-52.0	15.1	0.00e+00	0	25	0	456130560	67	4227
2026-01-07 22:47:00.29	49.97	21.67	-50.6	-52.2	15.0	0.00e+00	0	25	0	458227712	67	4296
2026-01-07 22:47:01.30	50.18	21.76	-50.7	-52.3	15.0	0.00e+00	0	25	0	460324864	67	4365
2026-01-07 22:47:02.31	50.39	21.84	-50.7	-52.3	15.0	0.00e+00	0	25	0	462422016	67	4380
2026-01-07 22:47:03.31	50.60	21.93	-50.8	-52.4	14.9	0.00e+00	0	25	0	464519168	67	4428
2026-01-07 22:47:04.30	50.82	22.01	-50.8	-52.4	14.9	0.00e+00	0	25	0	465567744	67	4433
2026-01-07 22:47:05.30	51.03	22.09	-50.8	-52.4	14.9	0.00e+00	0	25	0	467664896	67	4411
2026-01-07 22:47:06.29	51.24	22.18	-50.7	-52.3	15.0	0.00e+00	0	25	0	469762048	67	4374
2026-01-07 22:47:07.28	51.46	22.26	-50.6	-52.2	15.0	0.00e+00	0	25	0	471859200	67	4309
2026-01-07 22:47:08.28	51.68	22.34	-50.4	-51.9	15.1	0.00e+00	0	25	0	472907776	67	4184
2026-01-07 22:47:09.28	51.90	22.43	-50.3	-51.9	15.2	0.00e+00	0	25	0	475004928	67	4150
2026-01-07 22:47:10.27	52.11	22.51	-50.3	-51.8	15.2	0.00e+00	0	25	0	477102080	67	4108
2026-01-07 22:47:11.27	52.33	22.59	-50.4	-51.9	15.1	0.00e+00	0	25	0	479199232	67	4181
2026-01-07 22:47:12.27	52.56	22.67	-50.6	-52.1	15.1	0.00e+00	0	25	0	481296384	67	4275
2026-01-07 22:47:13.27	52.78	22.76	-50.6	-52.2	15.1	0.00e+00	0	25	0	482344960	67	4301
2026-01-07 22:47:14.26	53.00	22.84	-50.6	-52.2	15.0	0.00e+00	0	25	0	484442112	67	4295
2026-01-07 22:47:15.26	53.23	22.92	-50.6	-52.2	15.0	0.00e+00	0	25	0	486539264	67	4299
2026-01-07 22:47:16.26	53.46	23.00	-50.6	-52.2	15.0	0.00e+00	0	25	0	488636416	67	4323
2026-01-07 22:47:17.26	53.68	23.08	-50.6	-52.2	15.0	0.00e+00	0	25	0	489684992	67	4311
2026-01-07 22:47:18.25	53.91	23.16	-50.7	-52.2	15.0	0.00e+00	0	25	0	491782144	67	4337
2026-01-07 22:47:19.24	54.14	23.24	-50.6	-52.1	15.0	0.00e+00	0	25	0	493879296	67	4284
2026-01-07 22:47:20.24	54.37	23.33	-50.7	-52.3	15.0	0.00e+00	0	25	0	495976448	67	4345
2026-01-07 22:47:21.24	54.61	23.41	-50.6	-52.2	15.0	0.00e+00	0	25	0	498073600	67	4317
2026-01-07 22:47:22.24	54.84	23.49	-50.8	-52.4	14.9	0.00e+00	0	25	0	499122176	67	4407
2026-01-07 22:47:23.23	55.07	23.57	-50.9	-52.6	14.9	0.00e+00	0	25	0	501219328	67	4499
2026-01-07 22:47:24.23	55.31	23.65	-51.1	-52.8	14.8	0.00e+00	0	25	0	503316480	67	4602
2026-01-07 22:47:25.23	55.55	23.73	-51.3	-53.0	14.7	0.00e+00	0	25	0	505413632	67	4740
2026-01-07 22:47:26.23	55.79	23.81	-51.3	-53.0	14.7	0.00e+00	0	25	0	507510784	67	4751
2026-01-07 22:47:27.22	56.02	23.89	-51.3	-53.1	14.7	0.00e+00	0	25	0	508559360	67	4767
2026-01-07 22:47:28.22	56.26	23.96	-51.2	-52.9	14.7	0.00e+00	0	25	0	510656512	67	4701
2026-01-07 22:47:29.22	56.51	24.04	-51.1	-52.8	14.7	0.00e+00	0	25	0	512753664	67	4627
2026-01-07 22:47:30.22	56.75	24.12	-51.3	-53.0	14.7	0.00e+00	0	25	0	514850816	67	4719
2026-01-07 22:47:31.22	57.00	24.20	-51.2	-52.9	14.7	0.00e+00	0	25	0	515899392	67	4698
2026-01-07 22:47:32.22	57.24	24.28	-51.3	-53.1	14.7	0.00e+00	0	25	0	517996544	67	4764
2026-01-07 22:47:33.22	57.49	24.36	-51.4	-53.1	14.6	0.00e+00	0	25	0	520093696	67	4805
2026-01-07 22:47:34.22	57.74	24.43	-51.6	-53.4	14.7	0.00e+00	0	25	0	522190848	68	4662
2026-01-07 22:47:35.22	57.99	24.51	-51.6	-53.3	14.7	0.00e+00	0	25	0	524288000	68	4637
2026-01-07 22:47:36.22	58.24	24.59	-51.5	-53.2	14.7	0.00e+00	0	25	0	525336576	68	4598
2026-01-07 22:47:37.22	58.49	24.66	-51.5	-53.2	14.8	0.00e+00	0	25	0	527433728	68	4584
2026-01-07 22:47:38.22	58.74	24.74	-51.5	-53.2	14.7	0.00e+00	0	25	0	529530880	68	4592
2026-01-07 22:47:39.21	58.99	24.81	-51.6	-53.3	14.7	0.00e+00	0	25	0	531628032	68	4626
2026-01-07 22:47:40.22	59.25	24.89	-51.6	-53.4	14.7	0.00e+00	0	25	0	533725184	68	4656
2026-01-07 22:47:41.21	59.51	24.97	-51.7	-53.4	14.6	0.00e+00	0	25	0	534773760	68	4699
2026-01-07 22:47:42.21	59.76	25.04	-51.9	-53.7	14.6	0.00e+00	0	25	0	536870912	68	4824
2026-01-07 22:47:43.21	60.02	25.11	-52.2	-54.0	14.5	0.00e+00	0	25	0	538968064	69	4750
2026-01-07 22:47:44.20	60.28	25.19	-52.2	-54.1	14.5	0.00e+00	0	25	0	541065216	69	4767
2026-01-07 22:47:45.20	60.54	25.26	-52.3	-54.3	14.4	0.00e+00	0	25	0	542113792	69	4890
2026-01-07 22:47:46.20	60.81	25.33	-52.4	-54.4	14.5	0.00e+00	0	25	0	544210944	70	4659
2026-01-07 22:47:47.20	61.07	25.41	-52.4	-54.3	14.5	0.00e+00	0	25	0	546308096	70	4644
2026-01-07 22:47:48.20	61.34	25.48	-52.3	-54.2	14.6	0.00e+00	0	25	0	548405248	70	4571
2026-01-07 22:47:49.20	61.60	25.55	-52.1	-53.9	14.7	0.00e+00	0	25	0	550502400	70	4441
2026-01-07 22:47:50.20	61.87	25.62	-52.1	-53.9	14.7	0.00e+00	0	25	0	551550976	70	4430
2026-01-07 22:47:51.19	62.14	25.69	-52.1	-54.0	14.7	0.00e+00	0	25	0	553648128	70	4448
2026-01-07 22:47:52.19	62.41	25.76	-52.3	-54.2	14.6	0.00e+00	0	25	0	555745280	70	4551
2026-01-07 22:47:53.20	62.68	25.83	-52.5	-54.5	14.4	0.00e+00	0	25	0	557842432	70	4731
2026-01-07 22:47:54.19	62.95	25.90	-52.8	-54.8	14.3	0.00e+00	0	25	0	559939584	70	4910
2026-01-07 22:47:55.19	63.22	25.97	-53.0	-55.1	14.3	0.00e+00	0	25	0	560988160	71	4789
2026-01-07 22:47:56.19	63.50	26.04	-53.1	-55.3	14.2	0.00e+00	0	25	0	563085312	71	4877
2026-01-07 22:47:57.19	63.77	26.11	-53.0	-55.1	14.3	0.00e+00	0	25	0	565182464	71	4787
2026-01-07 22:47:58.17	64.04	26.17	-52.9	-54.9	14.3	0.00e+00	0	25	0	567279616	71	4698
2026-01-07 22:47:59.17	64.32	26.24	-52.7	-54.8	14.4	0.00e+00	0	25	0	568328192	71	4605
2026-01-07 22:48:00.16	64.60	26.30	-52.8	-54.8	14.4	0.00e+00	0	25	0	570425344	71	4619
2026-01-07 22:48:01.15	64.88	26.37	-52.8	-54.8	14.4	0.00e+00	0	25	0	572522496	71	4635
2026-01-07 22:48:02.15	65.16	26.43	-53.0	-55.0	14.3	0.00e+00	0	25	0	574619648	71	4745
2026-01-07 22:48:03.15	65.44	26.50	-53.2	-55.3	14.2	0.00e+00	0	25	0	576716800	71	4918
2026-01-07 22:48:04.13	65.72	26.56	-53.4	-55.6	14.0	0.00e+00	0	25	0	577765376	71	5079
2026-01-07 22:48:05.13	66.00	26.62	-53.5	-55.7	14.1	0.00e+00	0	25	0	579862528	72	4849
2026-01-07 22:48:06.12	66.28	26.69	-53.4	-55.6	14.1	0.00e+00	0	25	0	581959680	72	4776
2026-01-07 22:48:07.13	66.57	26.75	-53.2	-55.4	14.2	0.00e+00	0	25	0	584056832	72	4658
2026-01-07 22:48:08.12	66.86	26.81	-53.1	-55.3	14.3	0.00e+00	0	25	0	586153984	72	4615
2026-01-07 22:48:09.12	67.15	26.87	-53.1	-55.2	14.3	0.00e+00	0	25	0	587202560	72	4563
2026-01-07 22:48:10.12	67.44	26.93	-53.1	-55.2	14.4	0.00e+00	0	25	0	589299712	72	4588
2026-01-07 22:48:11.12	67.73	26.99	-53.1	-55.2	14.3	0.00e+00	0	25	0	591396864	72	4575
2026-01-07 22:48:12.12	68.02	27.05	-53.3	-55.5	14.2	0.00e+00	0	25	0	593494016	72	4745
2026-01-07 22:48:13.11	68.31	27.11	-53.4	-55.7	14.1	0.00e+00	0	25	0	594542592	72	4824
2026-01-07 22:48:14.12	68.61	27.17	-53.6	-55.9	14.0	0.00e+00	0	25	0	596639744	72	4943
2026-01-07 22:48:15.12	68.91	27.22	-53.5	-55.7	14.0	0.00e+00	0	25	0	598736896	72	4867
2026-01-07 22:48:16.12	69.20	27.28	-53.3	-55.6	14.1	0.00e+00	0	25	0	600834048	72	4773
2026-01-07 22:48:17.13	69.50	27.34	-53.2	-55.3	14.3	0.00e+00	0	25	0	602931200	72	4635
2026-01-07 22:48:18.12	69.80	27.39	-52.9	-54.9	14.5	0.00e+00	0	25	0	603979776	72	4431
2026-01-07 22:48:19.12	70.10	27.45	-52.8	-54.8	14.6	0.00e+00	0	25	0	606076928	72	4359
2026-01-07 22:48:20.11	70.40	27.50	-53.0	-55.0	14.5	0.00e+00	0	25	0	608174080	72	4485
2026-01-07 22:48:21.11	70.70	27.55	-53.1	-55.3	14.3	0.00e+00	0	25	0	610271232	72	4619
2026-01-07 22:48:22.11	71.00	27.60	-53.4	-55.7	14.1	0.00e+00	0	25	0	611319808	72	4826
2026-01-07 22:48:23.11	71.31	27.65	-53.7	-56.1	13.8	0.00e+00	0	25	0	613416960	72	5095
2026-01-07 22:48:24.11	71.61	27.71	-54.1	-56.7	13.6	0.00e+00	0	25	0	615514112	73	5146
2026-01-07 22:48:25.10	71.91	27.75	-54.3	-57.0	13.5	0.00e+00	0	25	0	617611264	73	5283
2026-01-07 22:48:26.11	72.22	27.80	-54.5	-57.2	13.5	0.00e+00	0	25	0	619708416	74	5110
2026-01-07 22:48:27.11	72.53	27.85	-54.4	-57.1	13.5	0.00e+00	0	25	0	620756992	74	5078
2026-01-07 22:48:28.10	72.83	27.90	-54.3	-57.0	13.6	0.00e+00	0	25	0	622854144	74	4999
2026-01-07 22:48:29.11	73.15	27.95	-54.3	-56.9	13.6	0.00e+00	0	25	0	624951296	74	4949
2026-01-07 22:48:30.11	73.46	27.99	-54.1	-56.6	13.8	0.00e+00	0	25	0	627048448	74	4772
2026-01-07 22:48:31.11	73.77	28.04	-54.0	-56.4	13.9	0.00e+00	0	25	0	629145600	74	4702
2026-01-07 22:48:32.11	74.08	28.08	-54.0	-56.4	14.0	0.00e+00	0	25	0	630194176	74	4688
2026-01-07 22:48:33.12	74.40	28.13	-53.9	-56.3	14.1	0.00e+00	0	25	0	632291328	74	4600
2026-01-07 22:48:34.12	74.71	28.17	-53.8	-56.1	14.1	0.00e+00	0	25	0	634388480	74	4529
2026-01-07 22:48:35.11	75.02	28.21	-53.7	-56.0	14.2	0.00e+00	0	25	0	636485632	74	4466
2026-01-07 22:48:36.11	75.33	28.25	-53.5	-55.8	14.2	0.00e+00	0	25	0	637534208	73	4622
2026-01-07 22:48:37.11	75.65	28.29	-53.5	-55.7	14.2	0.00e+00	0	25	0	639631360	73	4585
2026-01-07 22:48:38.10	75.96	28.33	-53.4	-55.7	14.2	0.00e+00	0	25	0	641728512	73	4561
2026-01-07 22:48:39.11	76.28	28.37	-53.4	-55.6	14.3	0.00e+00	0	25	0	643825664	73	4531
2026-01-07 22:48:40.11	76.60	28.41	-53.5	-55.8	14.2	0.00e+00	0	25	0	645922816	73	4619
2026-01-07 22:48:41.11	76.92	28.44	-53.7	-56.1	14.0	0.00e+00	0	25	0	646971392	73	4775
2026-01-07 22:48:42.11	77.24	28.48	-54.0	-56.4	13.8	0.00e+00	0	25	0	649068544	73	4968
2026-01-07 22:48:43.11	77.56	28.51	-54.1	-56.6	13.7	0.00e+00	0	25	0	651165696	73	5050
2026-01-07 22:48:44.11	77.88	28.55	-54.2	-56.8	13.6	0.00e+00	0	25	0	653262848	73	5193
2026-01-07 22:48:45.10	78.20	28.58	-54.3	-57.0	13.4	0.00e+00	0	25	0	655360000	73	5311
2026-01-07 22:48:46.11	78.53	28.61	-54.3	-57.0	13.5	0.00e+00	0	25	0	656408576	73	5295
2026-01-07 22:48:47.11	78.85	28.64	-54.2	-56.8	13.6	0.00e+00	0	25	0	658505728	73	5164
2026-01-07 22:48:48.11	79.17	28.67	-54.2	-56.7	13.7	0.00e+00	0	25	0	660602880	73	5135
2026-01-07 22:48:49.11	79.50	28.70	-53.9	-56.4	13.8	0.00e+00	0	25	0	662700032	73	4941
2026-01-07 22:48:50.11	79.82	28.73	-53.9	-56.2	13.9	0.00e+00	0	25	0	664797184	73	4864
2026-01-07 22:48:51.11	80.15	28.76	-53.9	-56.3	13.9	0.00e+00	0	25	0	665845760	73	4900
2026-01-07 22:48:52.10	80.47	28.78	-53.7	-56.1	14.0	0.00e+00	0	25	0	667942912	73	4761
2026-01-07 22:48:53.10	80.80	28.81	-53.6	-55.9	14.1	0.00e+00	0	25	0	670040064	73	4686
2026-01-07 22:48:54.09	81.12	28.83	-53.7	-56.1	14.0	0.00e+00	0	25	0	672137216	73	4768
2026-01-07 22:48:55.09	81.45	28.86	-53.7	-56.0	14.0	0.00e+00	0	25	0	673185792	73	4746
2026-01-07 22:48:56.08	81.77	28.88	-53.6	-55.9	14.1	0.00e+00	0	25	0	675282944	73	4696
2026-01-07 22:48:57.08	82.10	28.90	-53.5	-55.7	14.2	0.00e+00	0	25	0	677380096	73	4590
2026-01-07 22:48:58.05	82.42	28.92	-53.5	-55.7	14.2	0.00e+00	0	25	0	679477248	73	4566
2026-01-07 22:48:59.04	82.74	28.94	-53.5	-55.7	14.2	0.00e+00	0	25	0	681574400	73	4593
2026-01-07 22:49:00.03	83.07	28.96	-53.6	-55.9	14.2	0.00e+00	0	25	0	682622976	73	4678
2026-01-07 22:49:01.03	83.40	28.97	-53.5	-55.7	14.2	0.00e+00	0	25	0	684720128	73	4576
2026-01-07 22:49:02.03	83.73	28.99	-53.3	-55.4	14.4	0.00e+00	0	25	0	686817280	73	4435
2026-01-07 22:49:03.03	84.06	29.01	-53.0	-55.0	14.5	0.00e+00	0	25	0	688914432	72	4463
2026-01-07 22:49:04.01	84.38	29.02	-52.8	-54.8	14.6	0.00e+00	0	25	0	689963008	72	4359
2026-01-07 22:49:05.01	84.72	29.03	-52.9	-54.9	14.5	0.00e+00	0	25	0	692060160	72	4407
2026-01-07 22:49:06.01	85.05	29.05	-53.1	-55.1	14.4	0.00e+00	0	25	0	694157312	72	4526
2026-01-07 22:49:07.01	85.38	29.06	-53.3	-55.5	14.2	0.00e+00	0	25	0	696254464	72	4733
2026-01-07 22:49:08.01	85.71	29.07	-53.7	-56.0	13.9	0.00e+00	0	25	0	698351616	72	4999
2026-01-07 22:49:09.01	86.04	29.08	-53.9	-56.3	13.7	0.00e+00	0	25	0	699400192	72	5214
2026-01-07 22:49:10.01	86.37	29.09	-54.0	-56.4	13.8	0.00e+00	0	25	0	701497344	73	4957
2026-01-07 22:49:11.00	86.70	29.09	-53.6	-55.9	14.1	0.00e+00	0	25	0	703594496	73	4682
2026-01-07 22:49:12.00	87.04	29.10	-53.3	-55.4	14.4	0.00e+00	0	25	0	705691648	73	4441
2026-01-07 22:49:13.00	87.37	29.11	-53.1	-55.1	14.4	0.00e+00	0	25	0	706740224	72	4544
2026-01-07 22:49:14.00	87.70	29.11	-52.7	-54.7	14.6	0.00e+00	0	25	0	708837376	72	4316
2026-01-07 22:49:15.00	88.03	29.11	-52.4	-54.3	14.7	0.00e+00	0	25	0	710934528	71	4362
2026-01-07 22:49:16.00	88.37	29.12	-52.4	-54.3	14.7	0.00e+00	0	25	0	713031680	71	4362
2026-01-07 22:49:17.00	88.70	29.12	-52.6	-54.6	14.5	0.00e+00	0	25	0	715128832	71	4503
2026-01-07 22:49:17.99	89.03	29.12	-52.7	-54.7	14.5	0.00e+00	0	25	0	716177408	71	4567
2026-01-07 22:49:18.99	89.36	29.12	-52.9	-55.0	14.4	0.00e+00	0	25	0	718274560	71	4716
2026-01-07 22:49:19.99	89.69	29.11	-53.0	-55.1	14.3	0.00e+00	0	25	0	720371712	71	4770
2026-01-07 22:49:21.00	90.03	29.11	-53.1	-55.3	14.2	0.00e+00	0	25	0	722468864	71	4877
2026-01-07 22:49:22.00	90.36	29.11	-53.1	-55.2	14.2	0.00e+00	0	25	0	724566016	71	4867
2026-01-07 22:49:23.00	90.70	29.10	-53.1	-55.2	14.2	0.00e+00	0	25	0	725614592	71	4849
2026-01-07 22:49:23.99	91.03	29.10	-52.8	-54.8	14.4	0.00e+00	0	25	0	727711744	71	4618
2026-01-07 22:49:24.99	91.36	29.09	-52.4	-54.3	14.7	0.00e+00	0	25	0	729808896	71	4351
2026-01-07 22:49:25.98	91.69	29.08	-52.4	-54.2	14.7	0.00e+00	0	25	0	731906048	71	4323
2026-01-07 22:49:26.98	92.02	29.07	-52.2	-54.1	14.8	0.00e+00	0	25	0	732954624	71	4247
2026-01-07 22:49:27.98	92.35	29.06	-52.6	-54.5	14.6	0.00e+00	0	25	0	735051776	71	4454
2026-01-07 22:49:28.98	92.68	29.05	-52.9	-55.0	14.4	0.00e+00	0	25	0	737148928	71	4706
2026-01-07 22:49:29.98	93.01	29.04	-53.4	-55.7	14.0	0.00e+00	0	25	0	739246080	71	5113
2026-01-07 22:49:30.97	93.34	29.03	-53.9	-56.3	13.8	0.00e+00	0	25	0	741343232	72	5177
2026-01-07 22:49:31.97	93.67	29.01	-54.2	-56.7	13.6	0.00e+00	0	25	0	742391808	73	5159
2026-01-07 22:49:32.97	94.00	29.00	-54.2	-56.8	13.6	0.00e+00	0	25	0	744488960	73	5209
2026-01-07 22:49:33.97	94.34	28.98	-54.1	-56.6	13.7	0.00e+00	0	25	0	746586112	73	5086
2026-01-07 22:49:34.96	94.66	28.96	-53.9	-56.3	13.9	0.00e+00	0	25	0	748683264	73	4913
2026-01-07 22:49:35.96	94.99	28.95	-53.8	-56.2	14.0	0.00e+00	0	25	0	750780416	73	4843
2026-01-07 22:49:36.96	95.32	28.93	-53.3	-55.5	14.4	0.00e+00	0	25	0	751828992	73	4449
2026-01-07 22:49:37.96	95.65	28.91	-53.1	-55.2	14.4	0.00e+00	0	25	0	753926144	72	4585
2026-01-07 22:49:38.96	95.98	28.89	-53.3	-55.5	14.2	0.00e+00	0	25	0	756023296	72	4744
2026-01-07 22:49:39.95	96.30	28.86	-53.9	-56.2	13.8	0.00e+00	0	25	0	758120448	72	5143
2026-01-07 22:49:40.95	96.63	28.84	-54.4	-57.0	13.5	0.00e+00	0	25	0	760217600	73	5318
2026-01-07 22:49:41.95	96.96	28.82	-54.8	-57.7	13.2	0.00e+00	0	25	0	761266176	74	5426
2026-01-07 22:49:42.95	97.29	28.79	-54.7	-57.5	13.3	0.00e+00	0	25	0	763363328	74	5314
2026-01-07 22:49:43.94	97.61	28.77	-54.3	-56.9	13.6	0.00e+00	0	25	0	765460480	74	4965
2026-01-07 22:49:44.94	97.93	28.74	-53.9	-56.3	14.0	0.00e+00	0	25	0	767557632	74	4629
2026-01-07 22:49:45.94	98.26	28.71	-53.8	-56.1	14.2	0.00e+00	0	25	0	768606208	74	4531
2026-01-07 22:49:46.94	98.58	28.68	-53.6	-55.9	14.1	0.00e+00	0	25	0	770703360	73	4670
2026-01-07 22:49:47.93	98.91	28.65	-53.9	-56.3	13.9	0.00e+00	0	25	0	772800512	73	4902
2026-01-07 22:49:48.93	99.23	28.62	-54.0	-56.5	13.8	0.00e+00	0	25	0	774897664	73	5011
2026-01-07 22:49:49.93	99.55	28.59	-53.9	-56.3	13.9	0.00e+00	0	25	0	776994816	73	4911
2026-01-07 22:49:50.92	99.87	28.56	-53.7	-56.0	14.0	0.00e+00	0	25	0	778043392	73	4731
2026-01-07 22:49:51.92	100.19	28.53	-53.5	-55.7	14.2	0.00e+00	0	25	0	780140544	73	4586
2026-01-07 22:49:52.92	100.51	28.49	-53.3	-55.4	14.4	0.00e+00	0	25	0	782237696	73	4412
2026-01-07 22:49:53.92	100.83	28.46	-53.2	-55.3	14.3	0.00e+00	0	25	0	784334848	72	4629
2026-01-07 22:49:54.91	101.15	28.42	-53.4	-55.6	14.1	0.00e+00	0	25	0	785383424	72	4787
2026-01-07 22:49:55.91	101.47	28.38	-53.6	-55.9	14.0	0.00e+00	0	25	0	787480576	72	4956
2026-01-07 22:49:56.90	101.78	28.34	-53.7	-56.0	13.9	0.00e+00	0	25	0	789577728	72	5000
2026-01-07 22:49:57.91	102.10	28.31	-53.5	-55.7	14.1	0.00e+00	0	25	0	791674880	72	4852
2026-01-07 22:49:58.91	102.42	28.27	-53.2	-55.3	14.3	0.00e+00	0	25	0	793772032	72	4626
2026-01-07 22:49:59.90	102.73	28.23	-53.0	-55.0	14.5	0.00e+00	0	25	0	794820608	72	4460
2026-01-07 22:50:00.89	103.05	28.18	-52.7	-54.7	14.7	0.00e+00	0	25	0	796917760	72	4304
2026-01-07 22:50:01.89	103.36	28.14	-52.5	-54.3	14.7	0.00e+00	0	25	0	799014912	71	4386
2026-01-07 22:50:02.89	103.67	28.10	-52.4	-54.3	14.7	0.00e+00	0	25	0	801112064	71	4348
2026-01-07 22:50:03.89	103.99	28.05	-52.3	-54.1	14.8	0.00e+00	0	25	0	802160640	71	4289
2026-01-07 22:50:04.88	104.29	28.01	-51.9	-53.7	14.8	0.00e+00	0	25	0	804257792	70	4319
2026-01-07 22:50:05.87	104.60	27.97	-51.9	-53.7	14.9	0.00e+00	0	25	0	806354944	70	4299
2026-01-07 22:50:06.87	104.91	27.92	-52.0	-53.7	14.8	0.00e+00	0	25	0	808452096	70	4337
2026-01-07 22:50:07.87	105.22	27.87	-52.0	-53.8	14.8	0.00e+00	0	25	0	810549248	70	4375
2026-01-07 22:50:08.86	105.53	27.82	-52.2	-54.0	14.7	0.00e+00	0	25	0	811597824	70	4491
2026-01-07 22:50:09.86	105.83	27.78	-52.2	-54.1	14.6	0.00e+00	0	25	0	813694976	70	4518
2026-01-07 22:50:10.86	106.14	27.73	-52.5	-54.4	14.5	0.00e+00	0	25	0	815792128	70	4668
2026-01-07 22:50:11.86	106.45	27.68	-52.5	-54.5	14.5	0.00e+00	0	25	0	817889280	70	4713
2026-01-07 22:50:12.86	106.75	27.62	-52.7	-54.7	14.4	0.00e+00	0	25	0	819986432	70	4834
2026-01-07 22:50:13.86	107.05	27.57	-52.5	-54.5	14.4	0.00e+00	0	25	0	821035008	70	4728
2026-01-07 22:50:14.86	107.36	27.52	-52.4	-54.3	14.5	0.00e+00	0	25	0	823132160	70	4613
2026-01-07 22:50:15.87	107.66	27.47	-52.4	-54.2	14.6	0.00e+00	0	25	0	825229312	70	4586
2026-01-07 22:50:16.86	107.96	27.41	-52.1	-53.9	14.7	0.00e+00	0	25	0	827326464	70	4410
2026-01-07 22:50:17.86	108.26	27.36	-51.9	-53.6	14.9	0.00e+00	0	25	0	829423616	70	4278
2026-01-07 22:50:18.85	108.56	27.30	-51.6	-53.3	15.0	0.00e+00	0	25	0	830472192	69	4378
2026-01-07 22:50:19.85	108.85	27.25	-51.6	-53.4	14.8	0.00e+00	0	25	0	832569344	69	4394
2026-01-07 22:50:20.85	109.15	27.19	-51.7	-53.4	14.8	0.00e+00	0	25	0	834666496	69	4431
2026-01-07 22:50:21.86	109.45	27.13	-51.8	-53.6	14.7	0.00e+00	0	25	0	836763648	69	4520
2026-01-07 22:50:22.86	109.74	27.07	-52.0	-53.8	14.6	0.00e+00	0	25	0	837812224	69	4614
2026-01-07 22:50:23.85	110.03	27.01	-52.2	-54.1	14.5	0.00e+00	0	25	0	839909376	69	4762
2026-01-07 22:50:24.86	110.33	26.95	-52.3	-54.2	14.4	0.00e+00	0	25	0	842006528	69	4857
2026-01-07 22:50:25.86	110.62	26.89	-52.4	-54.3	14.4	0.00e+00	0	25	0	844103680	69	4911
2026-01-07 22:50:26.86	110.91	26.83	-52.6	-54.5	14.4	0.00e+00	0	25	0	846200832	70	4746
2026-01-07 22:50:27.86	111.20	26.77	-52.6	-54.6	14.4	0.00e+00	0	25	0	847249408	70	4769
2026-01-07 22:50:28.86	111.49	26.71	-52.6	-54.6	14.4	0.00e+00	0	25	0	849346560	70	4766
2026-01-07 22:50:29.86	111.77	26.65	-52.6	-54.6	14.4	0.00e+00	0	25	0	851443712	70	4804
2026-01-07 22:50:30.86	112.06	26.58	-52.6	-54.5	14.4	0.00e+00	0	25	0	853540864	70	4750
2026-01-07 22:50:31.86	112.35	26.52	-52.5	-54.4	14.5	0.00e+00	0	25	0	855638016	70	4693
2026-01-07 22:50:32.86	112.63	26.45	-52.5	-54.4	14.5	0.00e+00	0	25	0	856686592	70	4689
2026-01-07 22:50:33.85	112.91	26.39	-52.3	-54.2	14.6	0.00e+00	0	25	0	858783744	70	4593
2026-01-07 22:50:34.86	113.19	26.32	-52.1	-53.9	14.7	0.00e+00	0	25	0	860880896	70	4427
2026-01-07 22:50:35.85	113.47	26.26	-52.1	-54.0	14.7	0.00e+00	0	25	0	862978048	70	4451
2026-01-07 22:50:36.85	113.75	26.19	-52.1	-54.0	14.7	0.00e+00	0	25	0	864026624	70	4451
2026-01-07 22:50:37.85	114.03	26.12	-52.3	-54.1	14.6	0.00e+00	0	25	0	866123776	70	4539
2026-01-07 22:50:38.85	114.30	26.05	-52.5	-54.5	14.4	0.00e+00	0	25	0	868220928	70	4707
2026-01-07 22:50:39.85	114.58	25.99	-52.7	-54.8	14.3	0.00e+00	0	25	0	870318080	70	4873
2026-01-07 22:50:40.84	114.85	25.92	-52.9	-55.0	14.2	0.00e+00	0	25	0	872415232	70	5016
2026-01-07 22:50:41.84	115.13	25.85	-53.0	-55.2	14.3	0.00e+00	0	25	0	873463808	71	4816
2026-01-07 22:50:42.84	115.40	25.78	-53.1	-55.3	14.2	0.00e+00	0	25	0	875560960	71	4873
2026-01-07 22:50:43.84	115.67	25.71	-53.1	-55.2	14.2	0.00e+00	0	25	0	877658112	71	4860
2026-01-07 22:50:44.83	115.94	25.64	-53.1	-55.2	14.2	0.00e+00	0	25	0	879755264	71	4856
2026-01-07 22:50:45.83	116.20	25.57	-52.9	-55.0	14.3	0.00e+00	0	25	0	880803840	71	4707
2026-01-07 22:50:46.82	116.47	25.50	-52.7	-54.7	14.5	0.00e+00	0	25	0	882900992	71	4559
2026-01-07 22:50:47.83	116.74	25.42	-52.6	-54.5	14.5	0.00e+00	0	25	0	884998144	71	4477
2026-01-07 22:50:48.83	117.00	25.35	-52.4	-54.3	14.7	0.00e+00	0	25	0	887095296	71	4357
2026-01-07 22:50:49.83	117.27	25.28	-52.2	-54.0	14.8	0.00e+00	0	25	0	889192448	71	4230
2026-01-07 22:50:50.83	117.53	25.20	-52.1	-53.9	14.7	0.00e+00	0	25	0	890241024	70	4428
2026-01-07 22:50:51.83	117.79	25.13	-52.0	-53.9	14.8	0.00e+00	0	25	0	892338176	70	4393
2026-01-07 22:50:52.82	118.05	25.06	-51.9	-53.6	14.8	0.00e+00	0	25	0	894435328	70	4288
2026-01-07 22:50:53.82	118.31	24.98	-51.9	-53.6	14.9	0.00e+00	0	25	0	896532480	70	4276
2026-01-07 22:50:54.82	118.57	24.91	-51.7	-53.5	14.9	0.00e+00	0	25	0	898629632	70	4195
2026-01-07 22:50:55.81	118.82	24.83	-51.5	-53.2	14.9	0.00e+00	0	25	0	899678208	69	4332
2026-01-07 22:50:56.82	119.08	24.75	-51.6	-53.3	14.8	0.00e+00	0	25	0	901775360	69	4367
2026-01-07 22:50:57.81	119.33	24.68	-51.8	-53.6	14.7	0.00e+00	0	25	0	903872512	69	4525
2026-01-07 22:50:58.80	119.58	24.60	-52.1	-54.0	14.5	0.00e+00	0	25	0	905969664	69	4720
2026-01-07 22:50:59.79	119.83	24.53	-52.3	-54.2	14.4	0.00e+00	0	25	0	907018240	69	4852
2026-01-07 22:51:00.79	120.08	24.45	-52.2	-54.1	14.4	0.00e+00	0	25	0	909115392	69	4800
2026-01-07 22:51:01.79	120.33	24.37	-52.0	-53.9	14.6	0.00e+00	0	25	0	911212544	69	4671
2026-01-07 22:51:02.79	120.58	24.29	-51.7	-53.5	14.7	0.00e+00	0	25	0	913309696	69	4475
2026-01-07 22:51:03.78	120.82	24.22	-51.6	-53.3	14.8	0.00e+00	0	25	0	915406848	69	4386
2026-01-07 22:51:04.78	121.07	24.14	-51.7	-53.4	14.8	0.00e+00	0	25	0	916455424	69	4439
2026-01-07 22:51:05.77	121.31	24.06	-52.0	-53.8	14.6	0.00e+00	0	25	0	918552576	69	4643
2026-01-07 22:51:06.76	121.55	23.98	-52.1	-53.9	14.5	0.00e+00	0	25	0	920649728	69	4684
2026-01-07 22:51:07.76	121.80	23.90	-52.0	-53.8	14.6	0.00e+00	0	25	0	922746880	69	4627
2026-01-07 22:51:08.76	122.04	23.82	-51.8	-53.5	14.7	0.00e+00	0	25	0	924844032	69	4485
2026-01-07 22:51:09.75	122.27	23.74	-51.6	-53.4	14.8	0.00e+00	0	25	0	925892608	69	4412
2026-01-07 22:51:10.75	122.51	23.66	-51.6	-53.4	14.8	0.00e+00	0	25	0	927989760	69	4414
2026-01-07 22:51:11.74	122.75	23.58	-51.7	-53.5	14.7	0.00e+00	0	25	0	930086912	69	4465
2026-01-07 22:51:12.74	122.98	23.50	-52.1	-53.9	14.5	0.00e+00	0	25	0	932184064	69	4689
2026-01-07 22:51:13.74	123.22	23.42	-52.3	-54.2	14.4	0.00e+00	0	25	0	933232640	69	4869
2026-01-07 22:51:14.74	123.45	23.34	-52.4	-54.3	14.3	0.00e+00	0	25	0	935329792	69	4926
2026-01-07 22:51:15.73	123.68	23.26	-52.4	-54.3	14.5	0.00e+00	0	25	0	937426944	70	4630
2026-01-07 22:51:16.73	123.92	23.18	-52.2	-54.0	14.6	0.00e+00	0	25	0	939524096	70	4484
2026-01-07 22:51:17.72	124.14	23.10	-52.0	-53.8	14.8	0.00e+00	0	25	0	941621248	70	4377
2026-01-07 22:51:18.72	124.37	23.01	-52.0	-53.8	14.8	0.00e+00	0	25	0	942669824	70	4355
2026-01-07 22:51:19.71	124.60	22.93	-52.1	-54.0	14.6	0.00e+00	0	25	0	944766976	70	4471
2026-01-07 22:51:20.71	124.83	22.85	-52.6	-54.6	14.3	0.00e+00	0	25	0	946864128	70	4811
2026-01-07 22:51:21.72	125.06	22.77	-53.1	-55.2	14.1	0.00e+00	0	25	0	948961280	71	4866
2026-01-07 22:51:22.72	125.28	22.68	-53.3	-55.6	14.0	0.00e+00	0	25	0	950009856	71	5067
2026-01-07 22:51:23.72	125.50	22.60	-53.3	-55.5	14.0	0.00e+00	0	25	0	952107008	71	5029
2026-01-07 22:51:24.72	125.73	22.52	-53.1	-55.2	14.2	0.00e+00	0	25	0	954204160	71	4859
2026-01-07 22:51:25.72	125.95	22.43	-52.6	-54.6	14.5	0.00e+00	0	25	0	956301312	71	4509
2026-01-07 22:51:26.72	126.17	22.35	-52.3	-54.2	14.7	0.00e+00	0	25	0	958398464	71	4302
2026-01-07 22:51:27.71	126.38	22.27	-52.4	-54.3	14.6	0.00e+00	0	25	0	959447040	71	4376
2026-01-07 22:51:28.71	126.60	22.18	-52.6	-54.6	14.5	0.00e+00	0	25	0	961544192	71	4536
2026-01-07 22:51:29.71	126.82	22.10	-52.9	-55.0	14.3	0.00e+00	0	25	0	963641344	71	4726
2026-01-07 22:51:30.70	127.03	22.02	-53.0	-55.1	14.2	0.00e+00	0	25	0	965738496	71	4804
2026-01-07 22:51:31.71	127.25	21.93	-52.8	-54.8	14.4	0.00e+00	0	25	0	967835648	71	4650
2026-01-07 22:51:32.70	127.46	21.85	-52.7	-54.8	14.4	0.00e+00	0	25	0	968884224	71	4600
2026-01-07 22:51:33.70	127.67	21.76	-52.5	-54.5	14.5	0.00e+00	0	25	0	970981376	71	4481
2026-01-07 22:51:34.70	127.88	21.68	-52.3	-54.2	14.7	0.00e+00	0	25	0	973078528	71	4302
2026-01-07 22:51:35.70	128.09	21.59	-52.2	-54.0	14.7	0.00e+00	0	25	0	975175680	71	4230
2026-01-07 22:51:36.70	128.30	21.51	-52.0	-53.8	14.7	0.00e+00	0	25	0	976224256	70	4358
2026-01-07 22:51:37.70	128.51	21.42	-52.4	-54.4	14.5	0.00e+00	0	25	0	978321408	70	4670
2026-01-07 22:51:38.69	128.71	21.34	-52.7	-54.8	14.2	0.00e+00	0	25	0	980418560	70	4904
2026-01-07 22:51:39.69	128.92	21.26	-52.8	-54.9	14.2	0.00e+00	0	25	0	982515712	70	4970
2026-01-07 22:51:40.69	129.12	21.17	-52.8	-54.9	14.1	0.00e+00	0	25	0	984612864	70	4951
2026-01-07 22:51:41.68	129.32	21.09	-52.4	-54.4	14.4	0.00e+00	0	25	0	985661440	70	4684
2026-01-07 22:51:42.69	129.53	21.00	-52.3	-54.3	14.5	0.00e+00	0	25	0	987758592	70	4603
2026-01-07 22:51:43.69	129.73	20.91	-52.2	-54.0	14.6	0.00e+00	0	25	0	989855744	70	4493
2026-01-07 22:51:44.68	129.93	20.83	-52.3	-54.3	14.5	0.00e+00	0	25	0	991952896	70	4607
2026-01-07 22:51:45.68	130.13	20.74	-52.3	-54.2	14.5	0.00e+00	0	25	0	994050048	70	4585
2026-01-07 22:51:46.67	130.32	20.66	-52.5	-54.5	14.4	0.00e+00	0	25	0	995098624	70	4731
2026-01-07 22:51:47.67	130.52	20.57	-52.7	-54.8	14.3	0.00e+00	0	25	0	997195776	70	4871
2026-01-07 22:51:48.67	130.72	20.49	-52.6	-54.6	14.3	0.00e+00	0	25	0	999292928	70	4801
2026-01-07 22:51:49.67	130.91	20.40	-52.5	-54.5	14.4	0.00e+00	0	25	0	1001390080	70	4730
2026-01-07 22:51:50.67	131.10	20.32	-52.3	-54.3	14.5	0.00e+00	0	25	0	1002438656	70	4601
2026-01-07 22:51:51.67	131.30	20.23	-52.0	-53.9	14.7	0.00e+00	0	25	0	1004535808	70	4417
2026-01-07 22:51:52.67	131.49	20.15	-52.1	-53.9	14.6	0.00e+00	0	25	0	1006632960	70	4424
2026-01-07 22:51:53.67	131.68	20.06	-51.9	-53.7	14.8	0.00e+00	0	25	0	1008730112	70	4294
2026-01-07 22:51:54.67	131.87	19.97	-51.8	-53.6	14.8	0.00e+00	0	25	0	1010827264	70	4284
2026-01-07 22:51:55.66	132.05	19.89	-51.9	-53.7	14.7	0.00e+00	0	25	0	1011875840	70	4335
2026-01-07 22:51:56.66	132.24	19.80	-52.0	-53.9	14.7	0.00e+00	0	25	0	1013972992	70	4398
2026-01-07 22:51:57.65	132.43	19.72	-51.9	-53.8	14.7	0.00e+00	0	25	0	1016070144	70	4357
2026-01-07 22:51:58.65	132.61	19.63	-51.9	-53.8	14.7	0.00e+00	0	25	0	1018167296	70	4343
2026-01-07 22:51:59.65	132.80	19.55	-51.8	-53.7	14.7	0.00e+00	0	25	0	1019215872	70	4318
2026-01-07 22:52:00.64	132.98	19.46	-51.5	-53.4	14.6	0.00e+00	0	25	0	1021313024	69	4440
2026-01-07 22:52:01.63	133.16	19.38	-51.4	-53.2	14.7	0.00e+00	0	25	0	1023410176	69	4337
2026-01-07 22:52:02.62	133.34	19.29	-51.4	-53.1	14.8	0.00e+00	0	25	0	1025507328	69	4284
2026-01-07 22:52:03.63	133.52	19.21	-51.5	-53.3	14.8	0.00e+00	0	25	0	1027604480	69	4366
2026-01-07 22:52:04.62	133.70	19.12	-51.7	-53.5	14.7	0.00e+00	0	25	0	1028653056	69	4468
2026-01-07 22:52:05.62	133.88	19.04	-51.8	-53.7	14.6	0.00e+00	0	25	0	1030750208	69	4561
2026-01-07 22:52:06.62	134.05	18.95	-51.9	-53.7	14.6	0.00e+00	0	25	0	1032847360	69	4575
2026-01-07 22:52:07.62	134.23	18.87	-51.9	-53.8	14.6	0.00e+00	0	25	0	1034944512	69	4608
2026-01-07 22:52:08.62	134.41	18.78	-51.8	-53.7	14.6	0.00e+00	0	25	0	1037041664	69	4568
2026-01-07 22:52:09.61	134.58	18.69	-51.8	-53.6	14.7	0.00e+00	0	25	0	1038090240	69	4520
2026-01-07 22:52:10.61	134.75	18.61	-51.7	-53.6	14.7	0.00e+00	0	25	0	1040187392	69	4502
2026-01-07 22:52:11.61	134.93	18.52	-51.6	-53.3	14.8	0.00e+00	0	25	0	1042284544	69	4389
2026-01-07 22:52:12.61	135.10	18.44	-51.5	-53.3	14.8	0.00e+00	0	25	0	1044381696	69	4356
2026-01-07 22:52:13.61	135.27	18.35	-51.5	-53.2	14.9	0.00e+00	0	25	0	1045430272	69	4338
2026-01-07 22:52:14.60	135.44	18.27	-51.5	-53.3	14.8	0.00e+00	0	25	0	1047527424	69	4345
2026-01-07 22:52:15.59	135.61	18.18	-51.5	-53.2	14.8	0.00e+00	0	25	0	1049624576	69	4323
2026-01-07 22:52:16.59	135.77	18.10	-51.5	-53.2	14.8	0.00e+00	0	25	0	1051721728	69	4328
2026-01-07 22:52:17.59	135.94	18.01	-51.4	-53.2	14.9	0.00e+00	0	25	0	1053818880	69	4299
2026-01-07 22:52:18.58	136.11	17.93	-51.2	-52.9	15.0	0.00e+00	0	25	0	1054867456	69	4179
2026-01-07 22:52:19.59	136.27	17.84	-51.1	-52.8	14.9	0.00e+00	0	25	0	1056964608	68	4364
2026-01-07 22:52:20.58	136.44	17.76	-51.2	-52.8	14.9	0.00e+00	0	25	0	1059061760	68	4388
2026-01-07 22:52:21.59	136.60	17.67	-51.1	-52.8	14.9	0.00e+00	0	25	0	1061158912	68	4351
2026-01-07 22:52:22.58	136.76	17.59	-51.2	-52.9	14.8	0.00e+00	0	25	0	1062207488	68	4422
2026-01-07 22:52:23.58	136.92	17.51	-51.2	-52.9	14.8	0.00e+00	0	25	0	1064304640	68	4425
2026-01-07 22:52:24.57	137.08	17.42	-51.3	-53.0	14.8	0.00e+00	0	25	0	1066401792	68	4457
2026-01-07 22:52:25.58	137.25	17.34	-51.3	-53.0	14.8	0.00e+00	0	25	0	1068498944	68	4484
2026-01-07 22:52:26.58	137.40	17.25	-51.3	-53.1	14.8	0.00e+00	0	25	0	1070596096	68	4497
2026-01-07 22:52:27.58	137.56	17.17	-51.4	-53.2	14.7	0.00e+00	0	25	0	1071644672	68	4577
2026-01-07 22:52:28.59	137.72	17.08	-51.5	-53.3	14.7	0.00e+00	0	25	0	1073741824	68	4624
2026-01-07 22:52:29.58	137.88	17.00	-51.6	-53.4	14.6	0.00e+00	0	25	0	1075838976	68	4693
2026-01-07 22:52:30.58	138.03	16.92	-51.7	-53.5	14.5	0.00e+00	0	25	0	1077936128	68	4739
2026-01-07 22:52:31.58	138.19	16.83	-51.7	-53.5	14.5	0.00e+00	0	25	0	1080033280	68	4750
2026-01-07 22:52:32.59	138.34	16.75	-51.7	-53.5	14.6	0.00e+00	0	25	0	1081081856	68	4730
2026-01-07 22:52:33.59	138.50	16.66	-51.7	-53.5	14.5	0.00e+00	0	25	0	1083179008	68	4739
2026-01-07 22:52:34.58	138.65	16.58	-51.7	-53.5	14.5	0.00e+00	0	25	0	1085276160	68	4731
2026-01-07 22:52:35.58	138.80	16.50	-51.5	-53.3	14.6	0.00e+00	0	25	0	1087373312	68	4637
2026-01-07 22:52:36.58	138.95	16.41	-51.4	-53.1	14.7	0.00e+00	0	25	0	1089470464	68	4537
2026-01-07 22:52:37.58	139.10	16.33	-51.4	-53.2	14.7	0.00e+00	0	25	0	1090519040	68	4578
2026-01-07 22:52:38.58	139.25	16.25	-51.4	-53.1	14.7	0.00e+00	0	25	0	1092616192	68	4533
2026-01-07 22:52:39.58	139.40	16.16	-51.5	-53.3	14.6	0.00e+00	0	25	0	1094713344	68	4609
2026-01-07 22:52:40.58	139.55	16.08	-51.4	-53.1	14.7	0.00e+00	0	25	0	1096810496	68	4540
2026-01-07 22:52:41.57	139.69	16.00	-51.5	-53.2	14.6	0.00e+00	0	25	0	1097859072	68	4595
2026-01-07 22:52:42.57	139.84	15.91	-51.5	-53.3	14.6	0.00e+00	0	25	0	1099956224	68	4616
2026-01-07 22:52:43.57	139.98	15.83	-51.6	-53.4	14.6	0.00e+00	0	25	0	1102053376	68	4673
2026-01-07 22:52:44.57	140.13	15.75	-51.6	-53.4	14.6	0.00e+00	0	25	0	1104150528	68	4698
2026-01-07 22:52:45.57	140.27	15.67	-51.6	-53.4	14.6	0.00e+00	0	25	0	1106247680	68	4704
2026-01-07 22:52:46.58	140.42	15.58	-51.5	-53.4	14.6	0.00e+00	0	25	0	1107296256	68	4661
2026-01-07 22:52:47.58	140.56	15.50	-51.5	-53.3	14.6	0.00e+00	0	25	0	1109393408	68	4643
2026-01-07 22:52:48.58	140.70	15.42	-51.6	-53.4	14.6	0.00e+00	0	25	0	1111490560	68	4676
2026-01-07 22:52:49.58	140.84	15.34	-51.6	-53.4	14.6	0.00e+00	0	25	0	1113587712	68	4696
2026-01-07 22:52:50.57	140.98	15.26	-51.6	-53.5	14.6	0.00e+00	0	25	0	1115684864	68	4710
2026-01-07 22:52:51.57	141.12	15.17	-51.9	-53.8	14.4	0.00e+00	0	25	0	1116733440	68	4878
2026-01-07 22:52:52.57	141.26	15.09	-52.0	-53.9	14.5	0.00e+00	0	25	0	1118830592	69	4683
2026-01-07 22:52:53.57	141.40	15.01	-52.1	-54.1	14.4	0.00e+00	0	25	0	1120927744	69	4763
2026-01-07 22:52:54.57	141.53	14.93	-52.2	-54.3	14.3	0.00e+00	0	25	0	1123024896	69	4881
2026-01-07 22:52:55.58	141.67	14.85	-52.3	-54.4	14.2	0.00e+00	0	25	0	1125122048	69	4937
2026-01-07 22:52:56.57	141.81	14.77	-52.3	-54.3	14.3	0.00e+00	0	25	0	1126170624	69	4904
2026-01-07 22:52:57.57	141.94	14.68	-52.3	-54.3	14.3	0.00e+00	0	25	0	1128267776	69	4914
2026-01-07 22:52:58.56	142.07	14.60	-52.3	-54.4	14.2	0.00e+00	0	25	0	1130364928	69	4939
2026-01-07 22:52:59.56	142.21	14.52	-52.4	-54.4	14.2	0.00e+00	0	25	0	1132462080	69	4977
2026-01-07 22:53:00.55	142.34	14.44	-52.3	-54.4	14.2	0.00e+00	0	25	0	1133510656	69	4943
2026-01-07 22:53:01.56	142.47	14.36	-52.3	-54.4	14.2	0.00e+00	0	25	0	1135607808	69	4927
2026-01-07 22:53:02.55	142.60	14.28	-52.2	-54.2	14.3	0.00e+00	0	25	0	1137704960	69	4853
2026-01-07 22:53:03.55	142.73	14.20	-52.2	-54.2	14.3	0.00e+00	0	25	0	1139802112	69	4854
2026-01-07 22:53:04.54	142.86	14.12	-52.3	-54.3	14.3	0.00e+00	0	25	0	1141899264	69	4905
2026-01-07 22:53:05.54	142.99	14.04	-52.3	-54.3	14.3	0.00e+00	0	25	0	1142947840	69	4899
2026-01-07 22:53:06.54	143.12	13.96	-52.4	-54.4	14.2	0.00e+00	0	25	0	1145044992	69	4977
2026-01-07 22:53:07.53	143.25	13.88	-52.5	-54.6	14.3	0.00e+00	0	25	0	1147142144	70	4785
2026-01-07 22:53:08.54	143.38	13.80	-52.5	-54.7	14.2	0.00e+00	0	25	0	1149239296	70	4825
2026-01-07 22:53:09.53	143.50	13.72	-52.6	-54.8	14.1	0.00e+00	0	25	0	1150287872	70	4890
2026-01-07 22:53:10.54	143.63	13.64	-52.7	-54.9	14.1	0.00e+00	0	25	0	1152385024	70	4959
2026-01-07 22:53:11.53	143.75	13.57	-52.8	-55.0	14.0	0.00e+00	0	25	0	1154482176	70	5003
2026-01-07 22:53:12.53	143.88	13.49	-52.8	-55.0	14.0	0.00e+00	0	25	0	1156579328	70	5040
2026-01-07 22:53:13.54	144.01	13.41	-52.8	-55.0	14.0	0.00e+00	0	25	0	1158676480	70	5023
2026-01-07 22:53:14.53	144.13	13.33	-52.9	-55.2	13.9	0.00e+00	0	25	0	1159725056	70	5106
2026-01-07 22:53:15.54	144.25	13.25	-53.0	-55.3	14.0	0.00e+00	0	25	0	1161822208	71	4892
2026-01-07 22:53:16.53	144.37	13.17	-52.9	-55.1	14.1	0.00e+00	0	25	0	1163919360	71	4795
2026-01-07 22:53:17.53	144.49	13.09	-52.9	-55.1	14.1	0.00e+00	0	25	0	1166016512	71	4791
2026-01-07 22:53:18.51	144.61	13.02	-52.9	-55.2	14.0	0.00e+00	0	25	0	1168113664	71	4828
2026-01-07 22:53:19.51	144.73	12.94	-52.9	-55.1	14.1	0.00e+00	0	25	0	1169162240	71	4799
2026-01-07 22:53:20.51	144.85	12.86	-52.7	-54.9	14.2	0.00e+00	0	25	0	1171259392	71	4660
2026-01-07 22:53:21.50	144.97	12.78	-52.6	-54.7	14.3	0.00e+00	0	25	0	1173356544	71	4584
2026-01-07 22:53:22.50	145.09	12.70	-52.6	-54.8	14.3	0.00e+00	0	25	0	1175453696	71	4609
2026-01-07 22:53:23.50	145.21	12.63	-52.5	-54.6	14.3	0.00e+00	0	25	0	1176502272	71	4541
2026-01-07 22:53:24.50	145.33	12.55	-52.5	-54.6	14.4	0.00e+00	0	25	0	1178599424	71	4516
2026-01-07 22:53:25.50	145.44	12.47	-52.6	-54.8	14.3	0.00e+00	0	25	0	1180696576	71	4629
2026-01-07 22:53:26.49	145.56	12.40	-52.7	-54.9	14.2	0.00e+00	0	25	0	1182793728	71	4683
2026-01-07 22:53:27.50	145.68	12.32	-52.7	-54.9	14.2	0.00e+00	0	25	0	1184890880	71	4670
2026-01-07 22:53:28.50	145.79	12.24	-52.7	-54.9	14.2	0.00e+00	0	25	0	1185939456	71	4704
2026-01-07 22:53:29.48	145.90	12.17	-52.8	-55.1	14.1	0.00e+00	0	25	0	1188036608	71	4782
2026-01-07 22:53:30.48	146.02	12.09	-53.0	-55.3	14.0	0.00e+00	0	25	0	1190133760	71	4886
2026-01-07 22:53:31.49	146.13	12.01	-53.0	-55.3	14.0	0.00e+00	0	25	0	1192230912	71	4897
2026-01-07 22:53:32.48	146.24	11.94	-53.0	-55.4	13.9	0.00e+00	0	25	0	1193279488	71	4928
2026-01-07 22:53:33.47	146.35	11.86	-52.9	-55.2	14.0	0.00e+00	0	25	0	1195376640	71	4868
2026-01-07 22:53:34.47	146.47	11.78	-53.0	-55.3	14.0	0.00e+00	0	25	0	1197473792	71	4885
2026-01-07 22:53:35.46	146.58	11.71	-52.9	-55.1	14.0	0.00e+00	0	25	0	1199570944	71	4804
2026-01-07 22:53:36.46	146.69	11.63	-52.5	-54.7	14.3	0.00e+00	0	25	0	1201668096	71	4567
2026-01-07 22:53:37.46	146.80	11.56	-52.4	-54.5	14.4	0.00e+00	0	25	0	1202716672	71	4473
2026-01-07 22:53:38.46	146.91	11.48	-52.4	-54.4	14.4	0.00e+00	0	25	0	1204813824	71	4441
2026-01-07 22:53:39.45	147.01	11.41	-52.2	-54.2	14.4	0.00e+00	0	25	0	1206910976	70	4548
2026-01-07 22:53:40.45	147.12	11.33	-52.1	-54.1	14.5	0.00e+00	0	25	0	1209008128	70	4535
2026-01-07 22:53:41.45	147.23	11.26	-52.2	-54.3	14.4	0.00e+00	0	25	0	1211105280	70	4620
2026-01-07 22:53:42.45	147.34	11.18	-52.1	-54.1	14.5	0.00e+00	0	25	0	1212153856	70	4516
2026-01-07 22:53:43.44	147.44	11.11	-52.1	-54.1	14.5	0.00e+00	0	25	0	1214251008	70	4498
2026-01-07 22:53:44.44	147.55	11.03	-52.1	-54.1	14.5	0.00e+00	0	25	0	1216348160	70	4530
2026-01-07 22:53:45.44	147.66	10.96	-52.1	-54.1	14.5	0.00e+00	0	25	0	1218445312	70	4519
2026-01-07 22:53:46.44	147.76	10.88	-52.2	-54.3	14.4	0.00e+00	0	25	0	1219493888	70	4600
2026-01-07 22:53:47.45	147.87	10.81	-52.3	-54.4	14.3	0.00e+00	0	25	0	1221591040	70	4659
2026-01-07 22:53:48.45	147.97	10.73	-52.4	-54.5	14.3	0.00e+00	0	25	0	1223688192	70	4714
2026-01-07 22:53:49.46	148.08	10.66	-52.5	-54.6	14.2	0.00e+00	0	25	0	1225785344	70	4793
2026-01-07 22:53:50.46	148.18	10.59	-52.5	-54.7	14.1	0.00e+00	0	25	0	1227882496	70	4844
2026-01-07 22:53:51.46	148.28	10.51	-52.5	-54.7	14.1	0.00e+00	0	25	0	1228931072	70	4861
2026-01-07 22:53:52.46	148.39	10.44	-52.4	-54.6	14.2	0.00e+00	0	25	0	1231028224	70	4788
2026-01-07 22:53:53.46	148.49	10.37	-52.5	-54.6	14.2	0.00e+00	0	25	0	1233125376	70	4803
2026-01-07 22:53:54.46	148.59	10.29	-52.4	-54.6	14.2	0.00e+00	0	25	0	1235222528	70	4782
2026-01-07 22:53:55.46	148.69	10.22	-52.4	-54.6	14.2	0.00e+00	0	25	0	1237319680	70	4780
2026-01-07 22:53:56.46	148.79	10.15	-52.4	-54.6	14.2	0.00e+00	0	25	0	1238368256	70	4766
2026-01-07 22:53:57.46	148.89	10.07	-52.3	-54.4	14.3	0.00e+00	0	25	0	1240465408	70	4691
2026-01-07 22:53:58.45	148.99	10.00	-52.3	-54.4	14.3	0.00e+00	0	25	0	1242562560	70	4660
2026-01-07 22:53:59.44	149.09	9.93	-52.3	-54.4	14.3	0.00e+00	0	25	0	1244659712	70	4666
2026-01-07 22:54:00.44	149.19	9.86	-52.2	-54.3	14.3	0.00e+00	0	25	0	1245708288	70	4605
