passes_logs/2026/01/07/R3.2S_Murmansk/R3.2S_Murmansk__20260107_083825_SUOMI_NPP_rec.log

#Pass ID: 20260107_083825_SUOMI NPP
#Satellite: SUOMI NPP
#Configuration: NPP
#almurnet v.1.7.20251203
#Start time: 2026-01-07 08:38:26

#Version: 2.2.20231116
#Station: R3.2S_Murmansk
#Location: 33.079688 lon 68.888172 lat
#TLE: 1 37849U 11061A   26005.94084933  .00000134  00000+0  84554-4 0  9990
#TLE: 2 37849  98.7803 308.0679 0002567  79.1029 281.0436 14.19522657735426

#Time	Az	El	Level	Level2	SNR	BER	BlckErr	Temp	State	Recorded	gain1	gain2
2026-01-07 08:38:26.24	129.22	2.08	-57.5	-73.5	3.8	1.49e+00	0	23	0	0	80	23665
2026-01-07 08:38:27.23	129.19	2.14	-57.5	-73.5	3.8	1.49e+00	0	23	104	0	80	23720
2026-01-07 08:38:28.22	129.17	2.20	-57.5	-73.5	3.8	1.49e+00	0	23	104	0	80	23745
2026-01-07 08:38:29.22	129.15	2.27	-57.5	-73.5	3.8	1.49e+00	0	23	104	0	80	23764
2026-01-07 08:38:30.22	129.13	2.33	-57.5	-73.5	3.8	1.49e+00	0	23	104	0	80	23739
2026-01-07 08:38:31.21	129.11	2.40	-57.5	-73.5	3.8	1.49e+00	0	23	104	0	80	23710
2026-01-07 08:38:32.21	129.09	2.46	-57.5	-73.5	3.8	1.49e+00	0	23	104	0	80	23697
2026-01-07 08:38:33.20	129.07	2.52	-57.5	-73.5	3.8	1.49e+00	0	23	104	0	80	23664
2026-01-07 08:38:34.20	129.04	2.59	-57.5	-73.5	3.8	1.49e+00	0	23	104	0	80	23631
2026-01-07 08:38:35.19	129.02	2.65	-57.5	-73.5	3.8	1.49e+00	0	23	104	0	80	23583
2026-01-07 08:38:36.19	129.00	2.72	-57.5	-73.5	3.8	1.49e+00	0	23	104	0	80	23629
2026-01-07 08:38:37.18	128.98	2.78	-57.5	-73.5	3.8	1.49e+00	0	23	104	0	80	23609
2026-01-07 08:38:38.18	128.96	2.85	-57.5	-73.5	3.8	1.49e+00	0	23	104	0	80	23620
2026-01-07 08:38:39.17	128.93	2.91	-57.5	-73.5	3.8	1.49e+00	0	23	104	0	80	23654
2026-01-07 08:38:40.17	128.91	2.98	-57.5	-73.5	3.8	1.49e+00	0	23	104	0	80	23599
2026-01-07 08:38:41.16	128.89	3.04	-57.5	-73.4	3.8	1.49e+00	0	23	104	0	80	23487
2026-01-07 08:38:42.15	128.87	3.11	-57.5	-73.4	3.8	1.49e+00	0	24	104	0	80	23426
2026-01-07 08:38:43.15	128.84	3.17	-57.5	-73.3	3.8	1.49e+00	0	23	104	0	80	23306
2026-01-07 08:38:44.15	128.82	3.24	-57.5	-73.3	3.8	1.49e+00	0	23	104	0	80	23060
2026-01-07 08:38:45.13	128.80	3.31	-57.5	-73.2	3.8	1.49e+00	0	23	104	0	80	22818
2026-01-07 08:38:46.13	128.77	3.37	-57.5	-72.9	3.8	1.49e+00	0	24	104	0	80	22186
2026-01-07 08:38:47.12	128.75	3.44	-57.5	-72.7	3.8	1.49e+00	0	23	104	0	80	21556
2026-01-07 08:38:48.12	128.73	3.50	-57.5	-72.2	3.8	1.49e+00	0	24	104	0	80	20349
2026-01-07 08:38:49.11	128.70	3.57	-57.4	-71.4	3.8	1.49e+00	0	24	104	0	80	18619
2026-01-07 08:38:50.11	128.68	3.64	-57.4	-70.4	4.1	1.44e+00	0	24	0	0	80	16567
2026-01-07 08:38:51.11	128.66	3.70	-57.3	-69.7	4.3	1.39e+00	0	24	0	0	80	15234
2026-01-07 08:38:52.11	128.63	3.77	-57.3	-68.7	4.6	1.25e+00	0	24	0	1048576	80	13623
2026-01-07 08:38:53.11	128.61	3.84	-57.2	-67.6	5.1	6.44e-01	0	24	0	3145728	80	12069
2026-01-07 08:38:54.10	128.58	3.91	-57.1	-66.7	5.6	4.75e-01	0	24	0	4194304	80	10827
2026-01-07 08:38:55.10	128.56	3.97	-57.0	-65.8	6.2	3.49e-01	0	24	0	6291456	80	9818
2026-01-07 08:38:56.09	128.53	4.04	-56.8	-64.4	7.3	1.77e-01	0	24	0	8388608	80	8350
2026-01-07 08:38:57.09	128.51	4.11	-56.6	-63.7	7.9	6.77e-02	0	24	0	10485760	79	8168
2026-01-07 08:38:58.08	128.48	4.18	-56.4	-62.7	8.8	2.73e-02	0	24	0	11534336	79	7270
2026-01-07 08:38:59.08	128.46	4.25	-56.0	-61.5	9.8	8.55e-03	0	24	0	13631488	78	6652
2026-01-07 08:39:00.08	128.43	4.32	-55.8	-60.9	10.4	1.07e-03	0	24	0	15728640	78	6208
2026-01-07 08:39:01.08	128.41	4.38	-55.4	-59.9	11.1	2.88e-04	0	24	0	17825792	77	5864
2026-01-07 08:39:02.07	128.38	4.45	-54.9	-58.8	11.9	3.50e-05	0	24	0	19922944	76	5509
2026-01-07 08:39:03.08	128.36	4.52	-54.4	-58.0	12.4	3.00e-06	0	24	0	20971520	75	5305
2026-01-07 08:39:04.08	128.33	4.59	-54.1	-57.4	12.7	0.00e+00	0	24	0	23068672	74	5272
2026-01-07 08:39:05.08	128.31	4.66	-53.7	-56.8	13.1	0.00e+00	0	24	0	25165824	74	4893
2026-01-07 08:39:06.08	128.28	4.73	-53.6	-56.6	13.2	0.00e+00	0	24	0	27262976	73	5063
2026-01-07 08:39:07.08	128.26	4.80	-53.5	-56.4	13.3	0.00e+00	0	24	0	28311552	73	4958
2026-01-07 08:39:08.08	128.23	4.87	-53.5	-56.4	13.3	7.00e-07	0	24	0	30408704	73	4936
2026-01-07 08:39:09.07	128.20	4.94	-53.4	-56.3	13.3	0.00e+00	0	24	0	32505856	73	4899
2026-01-07 08:39:10.07	128.18	5.01	-53.6	-56.6	13.1	0.00e+00	0	24	0	34603008	73	5064
2026-01-07 08:39:11.07	128.15	5.08	-56.1	-61.4	10.0	9.80e-04	0	24	0	36700160	77	7014
2026-01-07 08:39:12.06	128.12	5.15	-56.5	-63.0	8.7	1.73e-03	0	24	0	37748736	78	7907
2026-01-07 08:39:13.07	128.10	5.22	-53.3	-56.1	13.3	2.67e-05	0	24	0	39845888	72	5097
2026-01-07 08:39:14.07	128.07	5.29	-53.6	-56.5	13.1	0.00e+00	0	24	0	41943040	72	5326
2026-01-07 08:39:15.07	128.04	5.37	-56.7	-64.9	6.9	5.70e-03	0	24	0	44040192	78	9843
2026-01-07 08:39:16.07	128.02	5.44	-52.6	-54.9	14.0	4.11e-05	0	24	0	46137344	71	4703
2026-01-07 08:39:17.07	127.99	5.51	-52.7	-55.1	13.8	0.00e+00	0	24	0	47185920	71	4812
2026-01-07 08:39:18.08	127.96	5.58	-52.6	-54.9	14.0	0.00e+00	0	24	0	49283072	71	4700
2026-01-07 08:39:19.07	127.93	5.65	-52.5	-54.8	14.0	0.00e+00	0	24	0	51380224	71	4627
2026-01-07 08:39:20.06	127.90	5.73	-52.6	-55.0	13.9	0.00e+00	0	24	0	53477376	71	4740
2026-01-07 08:39:21.06	127.88	5.80	-52.7	-55.1	13.9	0.00e+00	0	24	0	55574528	71	4769
2026-01-07 08:39:22.06	127.85	5.87	-52.6	-54.9	13.9	0.00e+00	0	24	0	56623104	71	4702
2026-01-07 08:39:23.06	127.82	5.94	-52.6	-54.9	13.9	0.00e+00	0	24	0	58720256	71	4681
2026-01-07 08:39:24.05	127.79	6.02	-52.5	-54.8	14.0	0.00e+00	0	24	0	60817408	71	4641
2026-01-07 08:39:25.05	127.76	6.09	-52.7	-55.1	13.9	0.00e+00	0	24	0	62914560	71	4778
2026-01-07 08:39:26.05	127.73	6.16	-52.5	-54.9	14.0	0.00e+00	0	24	0	63963136	71	4653
2026-01-07 08:39:27.04	127.71	6.24	-52.5	-54.8	14.1	0.00e+00	0	24	0	66060288	71	4619
2026-01-07 08:39:28.05	127.68	6.31	-52.5	-54.9	14.0	0.00e+00	0	24	0	68157440	71	4666
2026-01-07 08:39:29.05	127.65	6.38	-52.4	-54.7	14.2	0.00e+00	0	24	0	70254592	71	4549
2026-01-07 08:39:30.05	127.62	6.46	-52.4	-54.6	14.2	0.00e+00	0	24	0	72351744	71	4517
2026-01-07 08:39:31.05	127.59	6.53	-52.3	-54.5	14.3	0.00e+00	0	24	0	73400320	71	4457
2026-01-07 08:39:32.05	127.56	6.61	-52.4	-54.6	14.2	0.00e+00	0	24	0	75497472	71	4540
2026-01-07 08:39:33.05	127.53	6.68	-52.5	-54.8	14.1	0.00e+00	0	24	0	77594624	71	4607
2026-01-07 08:39:34.04	127.50	6.76	-52.5	-54.8	14.1	0.00e+00	0	24	0	79691776	71	4625
2026-01-07 08:39:35.04	127.47	6.83	-52.4	-54.6	14.2	0.00e+00	0	24	0	80740352	71	4542
2026-01-07 08:39:36.03	127.44	6.91	-52.3	-54.5	14.3	0.00e+00	0	24	0	82837504	71	4466
2026-01-07 08:39:37.03	127.41	6.98	-52.4	-54.7	14.2	0.00e+00	0	24	0	84934656	71	4551
2026-01-07 08:39:38.01	127.38	7.06	-52.4	-54.6	14.2	0.00e+00	0	24	0	87031808	71	4537
2026-01-07 08:39:39.00	127.34	7.13	-52.5	-54.7	14.2	0.00e+00	0	24	0	89128960	71	4569
2026-01-07 08:39:40.00	127.31	7.21	-52.4	-54.6	14.2	0.00e+00	0	24	0	90177536	71	4534
2026-01-07 08:39:40.99	127.28	7.29	-52.4	-54.7	14.2	0.00e+00	0	24	0	92274688	71	4547
2026-01-07 08:39:41.98	127.25	7.36	-52.5	-54.7	14.2	0.00e+00	0	24	0	94371840	71	4579
2026-01-07 08:39:42.98	127.22	7.44	-52.5	-54.8	14.2	0.00e+00	0	24	0	96468992	71	4599
2026-01-07 08:39:43.97	127.19	7.51	-52.6	-54.9	14.1	0.00e+00	0	24	0	97517568	71	4695
2026-01-07 08:39:44.96	127.16	7.59	-52.5	-54.7	14.2	0.00e+00	0	25	0	99614720	71	4579
2026-01-07 08:39:45.95	127.12	7.67	-52.2	-54.3	14.4	0.00e+00	0	24	0	101711872	71	4370
2026-01-07 08:39:46.95	127.09	7.75	-52.3	-54.4	14.4	0.00e+00	0	24	0	103809024	71	4425
2026-01-07 08:39:47.95	127.06	7.82	-52.3	-54.4	14.2	0.00e+00	0	24	0	105906176	70	4670
2026-01-07 08:39:48.95	127.03	7.90	-52.1	-54.2	14.3	0.00e+00	0	24	0	106954752	70	4597
2026-01-07 08:39:49.94	126.99	7.98	-52.3	-54.5	14.2	0.00e+00	0	24	0	109051904	70	4707
2026-01-07 08:39:50.94	126.96	8.06	-52.2	-54.3	14.3	0.00e+00	0	24	0	111149056	70	4635
2026-01-07 08:39:51.94	126.93	8.14	-52.3	-54.5	14.2	0.00e+00	0	24	0	113246208	70	4734
2026-01-07 08:39:52.93	126.89	8.22	-52.2	-54.4	14.3	0.00e+00	0	24	0	114294784	70	4666
2026-01-07 08:39:53.93	126.86	8.30	-52.1	-54.2	14.3	0.00e+00	0	24	0	116391936	70	4598
2026-01-07 08:39:54.92	126.82	8.38	-52.3	-54.5	14.2	0.00e+00	0	24	0	118489088	70	4717
2026-01-07 08:39:55.92	126.79	8.46	-52.2	-54.3	14.3	0.00e+00	0	25	0	120586240	70	4639
2026-01-07 08:39:56.92	126.76	8.54	-52.2	-54.3	14.3	0.00e+00	0	25	0	122683392	70	4601
2026-01-07 08:39:57.91	126.72	8.62	-52.2	-54.4	14.2	0.00e+00	0	24	0	123731968	70	4653
2026-01-07 08:39:58.91	126.69	8.70	-52.2	-54.3	14.3	0.00e+00	0	24	0	125829120	70	4604
2026-01-07 08:39:59.91	126.65	8.78	-52.2	-54.3	14.3	0.00e+00	0	25	0	127926272	70	4632
2026-01-07 08:40:00.91	126.62	8.86	-52.3	-54.4	14.3	0.00e+00	0	25	0	130023424	70	4673
2026-01-07 08:40:01.91	126.58	8.94	-52.1	-54.2	14.4	0.00e+00	0	24	0	132120576	70	4573
2026-01-07 08:40:02.90	126.54	9.02	-52.0	-54.1	14.4	0.00e+00	0	24	0	133169152	70	4505
2026-01-07 08:40:03.90	126.51	9.10	-51.8	-53.7	14.6	0.00e+00	0	24	0	135266304	70	4335
2026-01-07 08:40:04.90	126.47	9.19	-52.2	-54.3	14.3	0.00e+00	0	24	0	137363456	70	4640
2026-01-07 08:40:05.89	126.44	9.27	-52.0	-54.0	14.4	0.00e+00	0	25	0	139460608	70	4483
2026-01-07 08:40:06.89	126.40	9.35	-52.0	-54.0	14.5	0.00e+00	0	25	0	140509184	70	4462
2026-01-07 08:40:07.88	126.36	9.43	-52.0	-54.0	14.5	0.00e+00	0	24	0	142606336	70	4457
2026-01-07 08:40:08.88	126.33	9.52	-52.0	-54.1	14.4	0.00e+00	0	25	0	144703488	70	4507
2026-01-07 08:40:09.89	126.29	9.60	-52.1	-54.2	14.4	0.00e+00	0	24	0	146800640	70	4553
2026-01-07 08:40:10.88	126.25	9.68	-52.1	-54.1	14.4	0.00e+00	0	25	0	148897792	70	4530
2026-01-07 08:40:11.87	126.21	9.77	-52.1	-54.2	14.3	0.00e+00	0	25	0	149946368	70	4573
2026-01-07 08:40:12.87	126.17	9.85	-52.0	-54.0	14.5	0.00e+00	0	24	0	152043520	70	4453
2026-01-07 08:40:13.87	126.14	9.94	-52.0	-54.0	14.5	0.00e+00	0	24	0	154140672	70	4469
2026-01-07 08:40:14.87	126.10	10.02	-52.0	-54.0	14.5	0.00e+00	0	25	0	156237824	70	4460
2026-01-07 08:40:15.86	126.06	10.11	-51.8	-53.7	14.6	0.00e+00	0	25	0	157286400	70	4332
2026-01-07 08:40:16.85	126.02	10.19	-51.9	-53.8	14.6	0.00e+00	0	25	0	159383552	70	4373
2026-01-07 08:40:17.84	125.98	10.28	-51.8	-53.7	14.6	0.00e+00	0	25	0	161480704	70	4325
2026-01-07 08:40:18.83	125.94	10.36	-51.9	-53.8	14.6	0.00e+00	0	25	0	163577856	70	4381
2026-01-07 08:40:19.83	125.90	10.45	-51.7	-53.6	14.5	0.00e+00	0	25	0	165675008	69	4520
2026-01-07 08:40:20.82	125.86	10.53	-51.7	-53.6	14.6	0.00e+00	0	25	0	166723584	69	4497
2026-01-07 08:40:21.82	125.82	10.62	-51.8	-53.7	14.5	0.00e+00	0	25	0	168820736	69	4559
2026-01-07 08:40:22.82	125.78	10.71	-51.8	-53.7	14.5	0.00e+00	0	25	0	170917888	69	4562
2026-01-07 08:40:23.82	125.74	10.80	-51.5	-53.4	14.7	0.00e+00	0	25	0	173015040	69	4416
2026-01-07 08:40:24.82	125.70	10.88	-51.8	-53.8	14.5	0.00e+00	0	25	0	174063616	69	4622
2026-01-07 08:40:25.82	125.66	10.97	-51.6	-53.5	14.6	0.00e+00	0	25	0	176160768	69	4486
2026-01-07 08:40:26.81	125.62	11.06	-51.7	-53.7	14.5	0.00e+00	0	25	0	178257920	69	4555
2026-01-07 08:40:27.82	125.57	11.15	-51.8	-53.7	14.5	0.00e+00	0	25	0	180355072	69	4585
2026-01-07 08:40:28.80	125.53	11.24	-51.5	-53.3	14.7	0.00e+00	0	25	0	182452224	69	4373
2026-01-07 08:40:29.79	125.49	11.33	-51.6	-53.4	14.6	0.00e+00	0	25	0	183500800	69	4427
2026-01-07 08:40:30.79	125.45	11.42	-51.6	-53.4	14.6	0.00e+00	0	25	0	185597952	69	4428
2026-01-07 08:40:31.77	125.41	11.50	-51.5	-53.3	14.7	0.00e+00	0	25	0	187695104	69	4381
2026-01-07 08:40:32.77	125.36	11.59	-51.5	-53.3	14.7	0.00e+00	0	25	0	189792256	69	4355
2026-01-07 08:40:33.77	125.32	11.68	-51.4	-53.2	14.8	0.00e+00	0	25	0	191889408	69	4333
2026-01-07 08:40:34.76	125.28	11.77	-51.4	-53.3	14.8	0.00e+00	0	25	0	192937984	69	4343
2026-01-07 08:40:35.75	125.23	11.87	-51.4	-53.1	14.8	0.00e+00	0	25	0	195035136	69	4288
2026-01-07 08:40:36.75	125.19	11.96	-50.9	-52.8	14.8	0.00e+00	0	25	0	197132288	68	4381
2026-01-07 08:40:37.74	125.14	12.05	-51.1	-53.1	14.7	0.00e+00	0	25	0	199229440	68	4508
2026-01-07 08:40:38.73	125.10	12.14	-51.1	-53.1	14.7	0.00e+00	0	25	0	200278016	68	4512
2026-01-07 08:40:39.73	125.05	12.23	-51.0	-52.9	14.8	0.00e+00	0	25	0	202375168	68	4408
2026-01-07 08:40:40.73	125.01	12.32	-51.1	-53.1	14.7	0.00e+00	0	25	0	204472320	68	4532
2026-01-07 08:40:41.72	124.96	12.42	-51.1	-53.1	14.7	0.00e+00	0	25	0	206569472	68	4514
2026-01-07 08:40:42.72	124.92	12.51	-51.1	-53.1	14.7	0.00e+00	0	25	0	208666624	68	4501
2026-01-07 08:40:43.70	124.87	12.60	-51.1	-53.0	14.8	0.00e+00	0	25	0	209715200	68	4473
2026-01-07 08:40:44.70	124.82	12.70	-51.1	-53.0	14.8	0.00e+00	0	25	0	211812352	68	4484
2026-01-07 08:40:45.69	124.78	12.79	-50.9	-52.8	14.8	0.00e+00	0	25	0	213909504	68	4391
2026-01-07 08:40:46.69	124.73	12.89	-51.0	-53.0	14.8	0.00e+00	0	25	0	216006656	68	4447
2026-01-07 08:40:47.69	124.68	12.98	-50.9	-52.8	14.8	0.00e+00	0	25	0	217055232	68	4390
2026-01-07 08:40:48.68	124.63	13.08	-50.9	-52.8	14.9	0.00e+00	0	25	0	219152384	68	4364
2026-01-07 08:40:49.68	124.58	13.17	-51.0	-52.9	14.8	0.00e+00	0	25	0	221249536	68	4398
2026-01-07 08:40:50.68	124.54	13.27	-51.0	-52.9	14.8	0.00e+00	0	25	0	223346688	68	4414
2026-01-07 08:40:51.68	124.49	13.37	-50.9	-52.7	14.9	0.00e+00	0	25	0	225443840	68	4339
2026-01-07 08:40:52.68	124.44	13.46	-50.8	-52.6	15.0	0.00e+00	0	25	0	226492416	68	4282
2026-01-07 08:40:53.67	124.39	13.56	-51.0	-52.9	14.8	0.00e+00	0	25	0	228589568	68	4395
2026-01-07 08:40:54.66	124.34	13.66	-51.0	-52.9	14.8	0.00e+00	0	25	0	230686720	68	4395
2026-01-07 08:40:55.65	124.29	13.75	-50.8	-52.7	14.9	0.00e+00	0	25	0	232783872	68	4319
2026-01-07 08:40:56.64	124.24	13.85	-50.8	-52.7	14.9	0.00e+00	0	25	0	233832448	68	4328
2026-01-07 08:40:57.64	124.19	13.95	-51.0	-52.9	14.8	0.00e+00	0	25	0	235929600	68	4431
2026-01-07 08:40:58.63	124.13	14.05	-51.0	-53.0	14.8	0.00e+00	0	25	0	238026752	68	4449
2026-01-07 08:40:59.63	124.08	14.15	-51.0	-52.9	14.8	0.00e+00	0	25	0	240123904	68	4426
2026-01-07 08:41:00.62	124.03	14.25	-51.0	-52.9	14.8	0.00e+00	0	25	0	242221056	68	4405
2026-01-07 08:41:01.61	123.98	14.35	-50.9	-52.8	14.9	0.00e+00	0	25	0	243269632	68	4370
2026-01-07 08:41:02.61	123.92	14.45	-51.0	-52.9	14.8	0.00e+00	0	25	0	245366784	68	4394
2026-01-07 08:41:03.61	123.87	14.55	-50.9	-52.8	14.8	0.00e+00	0	25	0	247463936	68	4371
2026-01-07 08:41:04.61	123.82	14.65	-50.8	-52.7	14.9	0.00e+00	0	25	0	249561088	68	4313
2026-01-07 08:41:05.61	123.76	14.75	-50.9	-52.8	14.9	0.00e+00	0	25	0	250609664	68	4367
2026-01-07 08:41:06.61	123.71	14.85	-51.0	-52.9	14.8	0.00e+00	0	25	0	252706816	68	4396
2026-01-07 08:41:07.61	123.65	14.96	-50.9	-52.8	14.9	0.00e+00	0	25	0	254803968	68	4347
2026-01-07 08:41:08.60	123.60	15.06	-51.0	-52.8	14.9	0.00e+00	0	25	0	256901120	68	4386
2026-01-07 08:41:09.60	123.54	15.16	-51.0	-52.9	14.8	0.00e+00	0	25	0	258998272	68	4422
2026-01-07 08:41:10.59	123.49	15.27	-50.9	-52.7	14.9	0.00e+00	0	25	0	260046848	68	4329
2026-01-07 08:41:11.58	123.43	15.37	-50.9	-52.8	14.9	0.00e+00	0	25	0	262144000	68	4360
2026-01-07 08:41:12.57	123.37	15.47	-50.9	-52.8	14.9	0.00e+00	0	25	0	264241152	68	4365
2026-01-07 08:41:13.56	123.32	15.58	-50.8	-52.6	15.0	0.00e+00	0	25	0	266338304	68	4268
2026-01-07 08:41:14.55	123.26	15.68	-50.8	-52.6	14.9	0.00e+00	0	25	0	267386880	68	4285
2026-01-07 08:41:15.55	123.20	15.79	-50.9	-52.7	14.9	0.00e+00	0	25	0	269484032	68	4309
2026-01-07 08:41:16.55	123.14	15.90	-50.9	-52.8	14.9	0.00e+00	0	25	0	271581184	68	4358
2026-01-07 08:41:17.55	123.08	16.00	-50.9	-52.7	14.9	0.00e+00	0	25	0	273678336	68	4311
2026-01-07 08:41:18.55	123.02	16.11	-51.0	-52.9	14.8	0.00e+00	0	25	0	275775488	68	4394
2026-01-07 08:41:19.55	122.96	16.22	-51.0	-52.8	14.9	0.00e+00	0	25	0	276824064	68	4366
2026-01-07 08:41:20.54	122.90	16.33	-50.7	-52.5	15.0	0.00e+00	0	25	0	278921216	68	4215
2026-01-07 08:41:21.54	122.84	16.43	-50.8	-52.6	15.0	0.00e+00	0	25	0	281018368	68	4246
2026-01-07 08:41:22.53	122.78	16.54	-50.9	-52.7	14.9	0.00e+00	0	25	0	283115520	68	4314
2026-01-07 08:41:23.52	122.72	16.65	-50.7	-52.5	15.0	0.00e+00	0	25	0	284164096	68	4236
2026-01-07 08:41:24.52	122.65	16.76	-50.8	-52.6	14.9	0.00e+00	0	25	0	286261248	68	4284
2026-01-07 08:41:25.52	122.59	16.87	-51.0	-52.8	14.9	0.00e+00	0	25	0	288358400	68	4365
2026-01-07 08:41:26.51	122.53	16.98	-50.9	-52.7	14.9	0.00e+00	0	25	0	290455552	68	4331
2026-01-07 08:41:27.51	122.46	17.09	-50.8	-52.6	15.0	0.00e+00	0	25	0	292552704	68	4256
2026-01-07 08:41:28.51	122.40	17.21	-50.9	-52.7	14.9	0.00e+00	0	25	0	293601280	68	4340
2026-01-07 08:41:29.50	122.34	17.32	-50.9	-52.7	14.9	0.00e+00	0	25	0	295698432	68	4320
2026-01-07 08:41:30.50	122.27	17.43	-50.9	-52.7	14.9	0.00e+00	0	25	0	297795584	68	4336
2026-01-07 08:41:31.49	122.20	17.54	-50.9	-52.7	14.9	0.00e+00	0	25	0	299892736	68	4318
2026-01-07 08:41:32.49	122.14	17.66	-51.0	-52.9	14.8	0.00e+00	0	25	0	301989888	68	4417
2026-01-07 08:41:33.49	122.07	17.77	-51.1	-53.0	14.8	0.00e+00	0	25	0	303038464	68	4452
2026-01-07 08:41:34.49	122.00	17.89	-51.0	-52.9	14.8	0.00e+00	0	25	0	305135616	68	4421
2026-01-07 08:41:35.47	121.94	18.00	-51.2	-53.2	14.7	0.00e+00	0	25	0	307232768	68	4574
2026-01-07 08:41:36.48	121.87	18.12	-51.3	-53.3	14.6	0.00e+00	0	25	0	309329920	68	4628
2026-01-07 08:41:37.48	121.80	18.23	-51.1	-53.0	14.8	0.00e+00	0	25	0	310378496	68	4464
2026-01-07 08:41:38.48	121.73	18.35	-51.2	-53.2	14.7	0.00e+00	0	25	0	312475648	68	4597
2026-01-07 08:41:39.47	121.66	18.47	-51.1	-53.0	14.8	0.00e+00	0	25	0	314572800	68	4489
2026-01-07 08:41:40.47	121.59	18.58	-50.9	-52.8	14.9	0.00e+00	0	25	0	316669952	68	4341
2026-01-07 08:41:41.46	121.52	18.70	-50.9	-52.8	14.9	0.00e+00	0	25	0	318767104	68	4364
2026-01-07 08:41:42.45	121.44	18.82	-50.9	-52.8	14.9	0.00e+00	0	25	0	319815680	68	4375
2026-01-07 08:41:43.45	121.37	18.94	-51.0	-52.9	14.8	0.00e+00	0	25	0	321912832	68	4436
2026-01-07 08:41:44.45	121.30	19.06	-51.0	-53.0	14.8	0.00e+00	0	25	0	324009984	68	4444
2026-01-07 08:41:45.44	121.22	19.18	-51.0	-52.9	14.9	0.00e+00	0	25	0	326107136	68	4409
2026-01-07 08:41:46.44	121.15	19.30	-51.2	-53.1	14.8	0.00e+00	0	25	0	328204288	68	4530
2026-01-07 08:41:47.44	121.07	19.42	-50.9	-52.8	14.9	0.00e+00	0	25	0	329252864	68	4355
2026-01-07 08:41:48.43	121.00	19.54	-51.0	-52.9	14.9	0.00e+00	0	25	0	331350016	68	4413
2026-01-07 08:41:49.42	120.92	19.66	-51.1	-53.0	14.8	0.00e+00	0	25	0	333447168	68	4462
2026-01-07 08:41:50.41	120.85	19.79	-51.1	-53.0	14.8	0.00e+00	0	25	0	335544320	68	4443
2026-01-07 08:41:51.41	120.77	19.91	-50.9	-52.7	15.0	0.00e+00	0	25	0	336592896	68	4335
2026-01-07 08:41:52.41	120.69	20.03	-50.9	-52.8	14.9	0.00e+00	0	25	0	338690048	68	4367
2026-01-07 08:41:53.41	120.61	20.16	-51.1	-53.0	14.8	0.00e+00	0	25	0	340787200	68	4477
2026-01-07 08:41:54.40	120.53	20.28	-51.4	-53.4	14.6	0.00e+00	0	25	0	342884352	68	4685
2026-01-07 08:41:55.38	120.45	20.41	-51.3	-53.2	14.7	0.00e+00	0	25	0	343932928	68	4591
2026-01-07 08:41:56.38	120.37	20.53	-51.4	-53.4	14.6	0.00e+00	0	25	0	346030080	68	4665
2026-01-07 08:41:57.38	120.29	20.66	-51.7	-53.8	14.5	0.00e+00	0	25	0	348127232	68	4871
2026-01-07 08:41:58.38	120.21	20.79	-51.8	-53.9	14.4	0.00e+00	0	25	0	350224384	68	4952
2026-01-07 08:41:59.37	120.13	20.91	-51.7	-53.9	14.5	0.00e+00	0	25	0	352321536	68	4939
2026-01-07 08:42:00.37	120.04	21.04	-51.9	-54.0	14.5	0.00e+00	0	25	0	353370112	69	4745
2026-01-07 08:42:01.37	119.96	21.17	-51.8	-53.9	14.6	0.00e+00	0	25	0	355467264	69	4663
2026-01-07 08:42:02.37	119.87	21.30	-51.9	-54.0	14.5	0.00e+00	0	25	0	357564416	69	4752
2026-01-07 08:42:03.36	119.79	21.43	-51.8	-53.9	14.6	0.00e+00	0	25	0	359661568	69	4683
2026-01-07 08:42:04.35	119.70	21.56	-51.8	-53.9	14.5	0.00e+00	0	25	0	361758720	69	4691
2026-01-07 08:42:05.35	119.61	21.70	-51.7	-53.7	14.6	0.00e+00	0	25	0	362807296	69	4566
2026-01-07 08:42:06.34	119.53	21.83	-51.8	-53.9	14.6	0.00e+00	0	25	0	364904448	69	4689
2026-01-07 08:42:07.34	119.44	21.96	-52.0	-54.2	14.4	0.00e+00	0	25	0	367001600	69	4856
2026-01-07 08:42:08.35	119.35	22.09	-52.0	-54.2	14.4	0.00e+00	0	25	0	369098752	69	4862
2026-01-07 08:42:09.33	119.26	22.23	-52.0	-54.1	14.4	0.00e+00	0	25	0	370147328	69	4799
2026-01-07 08:42:10.33	119.17	22.36	-52.3	-54.6	14.2	0.00e+00	0	25	0	372244480	69	5051
2026-01-07 08:42:11.32	119.07	22.50	-52.0	-54.1	14.4	0.00e+00	0	25	0	374341632	69	4805
2026-01-07 08:42:12.33	118.98	22.63	-52.0	-54.2	14.4	0.00e+00	0	25	0	376438784	69	4851
2026-01-07 08:42:13.33	118.89	22.77	-52.0	-54.1	14.4	0.00e+00	0	25	0	378535936	69	4802
2026-01-07 08:42:14.32	118.79	22.91	-51.7	-53.8	14.6	0.00e+00	0	25	0	379584512	69	4600
2026-01-07 08:42:15.31	118.70	23.04	-51.8	-53.9	14.6	0.00e+00	0	25	0	381681664	69	4664
2026-01-07 08:42:16.30	118.60	23.18	-51.8	-53.9	14.5	0.00e+00	0	25	0	383778816	69	4676
2026-01-07 08:42:17.30	118.50	23.32	-51.8	-53.9	14.6	0.00e+00	0	25	0	385875968	69	4682
2026-01-07 08:42:18.30	118.41	23.46	-52.3	-54.6	14.2	0.00e+00	0	25	0	386924544	69	5098
2026-01-07 08:42:19.29	118.31	23.60	-52.2	-54.5	14.3	0.00e+00	0	25	0	389021696	69	5005
2026-01-07 08:42:20.28	118.21	23.74	-52.3	-54.5	14.2	0.00e+00	0	25	0	391118848	69	5027
2026-01-07 08:42:21.28	118.11	23.88	-52.5	-54.9	14.2	0.00e+00	0	25	0	393216000	70	4931
2026-01-07 08:42:22.28	118.00	24.03	-52.5	-54.8	14.3	0.00e+00	0	25	0	395313152	70	4889
2026-01-07 08:42:23.27	117.90	24.17	-52.5	-54.8	14.3	0.00e+00	0	25	0	396361728	70	4895
2026-01-07 08:42:24.27	117.80	24.31	-52.6	-55.0	14.2	0.00e+00	0	25	0	398458880	70	5004
2026-01-07 08:42:25.26	117.69	24.46	-52.8	-55.2	14.0	0.00e+00	0	25	0	400556032	70	5143
2026-01-07 08:42:26.26	117.59	24.60	-52.9	-55.3	14.0	0.00e+00	0	25	0	402653184	70	5207
2026-01-07 08:42:27.26	117.48	24.75	-52.3	-54.5	14.4	0.00e+00	0	25	0	403701760	70	4707
2026-01-07 08:42:28.25	117.37	24.89	-52.4	-54.5	14.4	0.00e+00	0	25	0	405798912	70	4731
2026-01-07 08:42:29.25	117.26	25.04	-52.4	-54.5	14.4	0.00e+00	0	25	0	407896064	70	4722
2026-01-07 08:42:30.24	117.15	25.19	-52.2	-54.3	14.5	0.00e+00	0	25	0	409993216	70	4608
2026-01-07 08:42:31.24	117.04	25.34	-52.4	-54.5	14.4	0.00e+00	0	25	0	412090368	70	4715
2026-01-07 08:42:32.24	116.93	25.49	-52.2	-54.2	14.5	0.00e+00	0	25	0	413138944	70	4576
2026-01-07 08:42:33.23	116.82	25.64	-52.0	-54.0	14.6	0.00e+00	0	25	0	415236096	70	4483
2026-01-07 08:42:34.23	116.70	25.79	-52.4	-54.6	14.4	0.00e+00	0	25	0	417333248	70	4796
2026-01-07 08:42:35.23	116.59	25.94	-52.3	-54.4	14.4	0.00e+00	0	25	0	419430400	70	4704
2026-01-07 08:42:36.23	116.47	26.09	-52.3	-54.4	14.5	0.00e+00	0	25	0	420478976	70	4694
2026-01-07 08:42:37.22	116.35	26.25	-52.5	-54.7	14.3	0.00e+00	0	25	0	422576128	70	4849
2026-01-07 08:42:38.21	116.24	26.40	-52.5	-54.8	14.3	0.00e+00	0	25	0	424673280	70	4878
2026-01-07 08:42:39.21	116.12	26.55	-52.6	-54.9	14.2	0.00e+00	0	25	0	426770432	70	4981
2026-01-07 08:42:40.21	115.99	26.71	-52.6	-54.9	14.2	0.00e+00	0	25	0	428867584	70	4966
2026-01-07 08:42:41.20	115.87	26.86	-52.5	-54.8	14.3	0.00e+00	0	25	0	429916160	70	4885
2026-01-07 08:42:42.20	115.75	27.02	-52.8	-55.3	14.0	0.00e+00	0	25	0	432013312	70	5173
2026-01-07 08:42:43.20	115.62	27.18	-52.3	-54.5	14.4	0.00e+00	0	25	0	434110464	70	4754
2026-01-07 08:42:44.20	115.50	27.34	-52.0	-54.2	14.6	0.00e+00	0	25	0	436207616	70	4566
2026-01-07 08:42:45.20	115.37	27.50	-52.2	-54.3	14.5	0.00e+00	0	25	0	438304768	70	4624
2026-01-07 08:42:46.19	115.24	27.66	-52.2	-54.4	14.5	0.00e+00	0	25	0	439353344	70	4687
2026-01-07 08:42:47.19	115.11	27.82	-52.2	-54.4	14.5	0.00e+00	0	25	0	441450496	70	4663
2026-01-07 08:42:48.18	114.98	27.98	-52.2	-54.3	14.5	0.00e+00	0	25	0	443547648	70	4615
2026-01-07 08:42:49.18	114.85	28.14	-52.2	-54.4	14.5	0.00e+00	0	25	0	445644800	70	4681
2026-01-07 08:42:50.18	114.71	28.30	-52.3	-54.5	14.4	0.00e+00	0	25	0	446693376	70	4742
2026-01-07 08:42:51.17	114.58	28.47	-52.3	-54.5	14.5	0.00e+00	0	25	0	448790528	70	4712
2026-01-07 08:42:52.17	114.44	28.63	-52.2	-54.2	14.5	0.00e+00	0	25	0	450887680	70	4597
2026-01-07 08:42:53.16	114.30	28.80	-52.6	-54.8	14.2	0.00e+00	0	25	0	452984832	70	4921
2026-01-07 08:42:54.16	114.16	28.96	-52.3	-54.4	14.5	0.00e+00	0	25	0	455081984	70	4658
2026-01-07 08:42:55.16	114.02	29.13	-52.6	-54.8	14.3	0.00e+00	0	25	0	456130560	70	4885
2026-01-07 08:42:56.16	113.88	29.30	-52.6	-54.8	14.4	0.00e+00	0	25	0	458227712	71	4621
2026-01-07 08:42:57.15	113.73	29.47	-52.7	-54.9	14.4	0.00e+00	0	25	0	460324864	71	4655
2026-01-07 08:42:58.15	113.59	29.64	-52.9	-55.3	14.2	0.00e+00	0	25	0	462422016	71	4895
2026-01-07 08:42:59.15	113.44	29.81	-52.7	-54.9	14.4	0.00e+00	0	25	0	463470592	71	4658
2026-01-07 08:43:00.14	113.29	29.98	-52.8	-55.1	14.3	0.00e+00	0	25	0	465567744	71	4770
2026-01-07 08:43:01.14	113.14	30.15	-53.1	-55.5	14.0	0.00e+00	0	25	0	467664896	71	5008
2026-01-07 08:43:02.13	112.99	30.32	-53.2	-55.7	14.0	0.00e+00	0	25	0	469762048	71	5103
2026-01-07 08:43:03.13	112.83	30.49	-53.2	-55.7	13.9	0.00e+00	0	25	0	471859200	71	5103
2026-01-07 08:43:04.13	112.68	30.67	-53.5	-56.1	13.9	0.00e+00	0	25	0	472907776	72	5089
2026-01-07 08:43:05.14	112.52	30.84	-53.5	-56.2	13.8	0.00e+00	0	25	0	475004928	72	5112
2026-01-07 08:43:06.14	112.36	31.02	-53.6	-56.2	13.8	0.00e+00	0	25	0	477102080	72	5132
2026-01-07 08:43:07.14	112.19	31.20	-53.2	-55.7	14.1	0.00e+00	0	25	0	479199232	72	4819
2026-01-07 08:43:08.14	112.03	31.37	-53.4	-55.9	13.9	0.00e+00	0	25	0	481296384	72	4975
2026-01-07 08:43:09.13	111.87	31.55	-53.4	-55.8	14.0	0.00e+00	0	25	0	482344960	72	4925
2026-01-07 08:43:10.13	111.70	31.73	-53.2	-55.7	14.1	0.00e+00	0	25	0	484442112	72	4825
2026-01-07 08:43:11.12	111.53	31.91	-53.4	-55.9	14.0	0.00e+00	0	25	0	486539264	72	4934
2026-01-07 08:43:12.12	111.36	32.09	-53.5	-56.2	13.8	0.00e+00	0	25	0	488636416	72	5104
2026-01-07 08:43:13.12	111.19	32.27	-53.8	-56.6	13.6	0.00e+00	0	25	0	489684992	72	5369
2026-01-07 08:43:14.11	111.02	32.45	-54.1	-57.1	13.4	0.00e+00	0	25	0	491782144	73	5365
2026-01-07 08:43:15.11	110.84	32.64	-54.0	-56.8	13.5	0.00e+00	0	25	0	493879296	73	5216
2026-01-07 08:43:16.11	110.66	32.82	-54.2	-57.2	13.4	0.00e+00	0	25	0	495976448	73	5403
2026-01-07 08:43:17.11	110.48	33.01	-54.0	-56.8	13.5	0.00e+00	0	25	0	498073600	73	5214
2026-01-07 08:43:18.11	110.30	33.19	-53.9	-56.7	13.6	0.00e+00	0	25	0	499122176	73	5149
2026-01-07 08:43:19.11	110.11	33.38	-54.0	-56.9	13.5	0.00e+00	0	25	0	501219328	73	5259
2026-01-07 08:43:20.11	109.92	33.57	-54.1	-57.1	13.4	0.00e+00	0	25	0	503316480	73	5394
2026-01-07 08:43:21.11	109.73	33.75	-54.5	-57.7	13.2	0.00e+00	0	25	0	505413632	74	5414
2026-01-07 08:43:22.10	109.54	33.94	-55.0	-58.9	12.5	0.00e+00	0	25	0	507510784	75	5858
2026-01-07 08:43:23.11	109.35	34.13	-55.1	-59.1	12.2	7.00e-07	0	25	0	508559360	75	6034
2026-01-07 08:43:24.10	109.15	34.32	-55.1	-59.1	12.4	0.00e+00	0	25	0	510656512	75	5998
2026-01-07 08:43:25.10	108.96	34.51	-55.0	-59.2	12.2	7.00e-07	0	25	0	512753664	75	6066
2026-01-07 08:43:26.10	108.75	34.71	-54.8	-58.8	12.5	0.00e+00	0	25	0	514850816	75	5835
2026-01-07 08:43:27.09	108.55	34.90	-54.5	-58.2	12.9	0.00e+00	0	25	0	515899392	75	5436
2026-01-07 08:43:28.08	108.35	35.09	-54.4	-58.0	13.1	0.00e+00	0	25	0	517996544	75	5309
2026-01-07 08:43:29.09	108.14	35.28	-54.2	-57.6	13.3	0.00e+00	0	25	0	520093696	75	5067
2026-01-07 08:43:30.09	107.93	35.48	-54.1	-57.3	13.4	0.00e+00	0	25	0	522190848	74	5218
2026-01-07 08:43:31.09	107.71	35.68	-53.8	-56.9	13.7	0.00e+00	0	25	0	524288000	74	4938
2026-01-07 08:43:32.09	107.50	35.87	-53.6	-56.5	13.7	0.00e+00	0	25	0	525336576	73	5032
2026-01-07 08:43:33.08	107.28	36.07	-53.1	-55.9	14.0	0.00e+00	0	25	0	527433728	72	4936
2026-01-07 08:43:34.08	107.06	36.27	-53.1	-55.8	14.1	0.00e+00	0	25	0	529530880	72	4892
2026-01-07 08:43:35.08	106.83	36.46	-52.9	-55.4	14.3	0.00e+00	0	25	0	531628032	72	4698
2026-01-07 08:43:36.07	106.61	36.66	-52.3	-54.6	14.6	0.00e+00	0	25	0	532676608	71	4513
2026-01-07 08:43:37.07	106.38	36.86	-52.3	-54.6	14.5	0.00e+00	0	25	0	534773760	71	4534
2026-01-07 08:43:38.07	106.15	37.06	-52.4	-54.7	14.5	0.00e+00	0	25	0	536870912	71	4582
2026-01-07 08:43:39.06	105.91	37.26	-52.5	-54.9	14.3	0.00e+00	0	25	0	538968064	70	4932
2026-01-07 08:43:40.07	105.67	37.47	-53.0	-55.5	14.0	0.00e+00	0	25	0	541065216	71	5035
2026-01-07 08:43:41.06	105.43	37.67	-52.7	-55.2	14.2	0.00e+00	0	25	0	542113792	71	4819
2026-01-07 08:43:42.07	105.19	37.87	-53.1	-55.6	14.0	0.00e+00	0	25	0	544210944	71	5093
2026-01-07 08:43:43.07	104.94	38.08	-53.2	-55.9	13.8	0.00e+00	0	25	0	546308096	71	5277
2026-01-07 08:43:44.05	104.69	38.28	-53.3	-56.1	13.9	0.00e+00	0	25	0	548405248	72	5092
2026-01-07 08:43:45.06	104.44	38.49	-53.6	-56.7	13.5	0.00e+00	0	25	0	550502400	72	5425
2026-01-07 08:43:46.05	104.18	38.69	-53.8	-57.2	13.2	0.00e+00	0	25	0	551550976	72	5750
2026-01-07 08:43:47.05	103.92	38.90	-53.5	-56.8	13.5	0.00e+00	0	25	0	553648128	72	5495
2026-01-07 08:43:48.05	103.66	39.10	-53.3	-56.5	13.7	0.00e+00	0	25	0	555745280	72	5312
2026-01-07 08:43:49.05	103.39	39.31	-53.5	-56.8	13.5	0.00e+00	0	25	0	557842432	72	5500
2026-01-07 08:43:50.05	103.12	39.52	-53.6	-57.0	13.4	0.00e+00	0	25	0	559939584	72	5622
2026-01-07 08:43:51.04	102.85	39.72	-53.8	-57.2	13.1	0.00e+00	0	25	0	560988160	72	5783
2026-01-07 08:43:52.04	102.57	39.93	-54.1	-57.7	13.1	0.00e+00	0	25	0	563085312	73	5739
2026-01-07 08:43:53.04	102.29	40.14	-53.8	-57.1	13.5	0.00e+00	0	25	0	565182464	73	5396
2026-01-07 08:43:54.05	102.00	40.36	-53.8	-57.1	13.5	0.00e+00	0	25	0	567279616	73	5373
2026-01-07 08:43:55.04	101.71	40.56	-53.9	-57.1	13.4	0.00e+00	0	25	0	568328192	73	5362
2026-01-07 08:43:56.04	101.42	40.77	-53.8	-57.1	13.4	0.00e+00	0	25	0	570425344	73	5386
2026-01-07 08:43:57.04	101.12	40.99	-54.3	-58.4	12.6	0.00e+00	0	25	0	572522496	73	6218
2026-01-07 08:43:58.04	100.82	41.20	-54.3	-58.6	12.5	7.00e-07	0	25	0	574619648	73	6359
2026-01-07 08:43:59.03	100.52	41.41	-53.9	-57.7	13.0	0.00e+00	0	25	0	576716800	73	5779
2026-01-07 08:44:00.03	100.21	41.62	-53.4	-56.7	13.7	0.00e+00	0	25	0	577765376	73	5105
2026-01-07 08:44:01.03	99.90	41.83	-53.1	-56.0	13.9	0.00e+00	0	25	0	579862528	72	5008
2026-01-07 08:44:02.02	99.58	42.04	-52.9	-55.6	14.2	0.00e+00	0	25	0	581959680	72	4784
2026-01-07 08:44:03.01	99.26	42.25	-52.9	-55.6	14.2	0.00e+00	0	25	0	584056832	72	4770
2026-01-07 08:44:04.01	98.94	42.47	-52.8	-55.4	14.3	0.00e+00	0	25	0	585105408	72	4666
2026-01-07 08:44:05.01	98.61	42.68	-52.7	-55.3	14.2	0.00e+00	0	25	0	587202560	71	4910
2026-01-07 08:44:06.00	98.28	42.89	-52.9	-55.7	14.0	0.00e+00	0	25	0	589299712	71	5101
2026-01-07 08:44:06.99	97.94	43.10	-53.1	-55.8	13.8	0.00e+00	0	25	0	591396864	71	5214
2026-01-07 08:44:07.99	97.60	43.31	-53.7	-56.8	13.3	0.00e+00	0	25	0	593494016	72	5489
2026-01-07 08:44:08.98	97.25	43.53	-54.0	-57.3	13.3	0.00e+00	0	25	0	594542592	73	5486
2026-01-07 08:44:09.99	96.90	43.74	-53.8	-57.0	13.4	0.00e+00	0	25	0	596639744	73	5307
2026-01-07 08:44:10.98	96.54	43.95	-54.0	-57.3	13.2	0.00e+00	0	25	0	598736896	73	5504
2026-01-07 08:44:11.98	96.18	44.17	-54.1	-57.4	13.2	0.00e+00	0	25	0	600834048	73	5541
2026-01-07 08:44:12.98	95.81	44.38	-54.2	-57.8	12.9	0.00e+00	0	25	0	601882624	73	5810
2026-01-07 08:44:13.98	95.44	44.59	-54.6	-58.7	12.4	0.00e+00	0	25	0	603979776	74	6108
2026-01-07 08:44:14.99	95.06	44.81	-54.3	-58.1	12.8	0.00e+00	0	25	0	606076928	74	5665
2026-01-07 08:44:15.98	94.68	45.02	-54.2	-57.9	13.0	0.00e+00	0	25	0	608174080	74	5582
2026-01-07 08:44:16.99	94.29	45.23	-53.8	-57.1	13.4	0.00e+00	0	25	0	610271232	74	5093
2026-01-07 08:44:17.99	93.90	45.44	-53.4	-56.5	13.7	0.00e+00	0	25	0	611319808	73	5013
2026-01-07 08:44:18.99	93.50	45.65	-53.3	-56.3	13.8	0.00e+00	0	25	0	613416960	73	4902
2026-01-07 08:44:20.00	93.09	45.87	-52.8	-55.5	14.1	0.00e+00	0	25	0	615514112	72	4751
2026-01-07 08:44:21.00	92.68	46.08	-53.3	-56.2	13.7	0.00e+00	0	25	0	617611264	72	5146
2026-01-07 08:44:22.00	92.27	46.29	-53.1	-55.8	13.9	0.00e+00	0	25	0	619708416	72	4911
2026-01-07 08:44:23.01	91.84	46.50	-52.9	-55.4	14.2	0.00e+00	0	25	0	620756992	72	4661
2026-01-07 08:44:24.00	91.42	46.70	-52.7	-55.1	14.1	0.00e+00	0	25	0	622854144	71	4814
2026-01-07 08:44:25.01	90.99	46.91	-52.9	-55.4	14.0	0.00e+00	0	25	0	624951296	71	4963
2026-01-07 08:44:26.00	90.55	47.12	-53.1	-55.9	13.6	0.00e+00	0	25	0	627048448	71	5278
2026-01-07 08:44:27.01	90.11	47.33	-53.6	-56.8	13.4	0.00e+00	0	25	0	629145600	72	5468
2026-01-07 08:44:28.00	89.66	47.53	-53.9	-57.2	13.2	0.00e+00	0	25	0	630194176	73	5430
2026-01-07 08:44:28.99	89.21	47.73	-53.7	-56.8	13.5	0.00e+00	0	25	0	632291328	73	5191
2026-01-07 08:44:30.00	88.75	47.94	-53.5	-56.3	13.8	0.00e+00	0	25	0	634388480	73	4918
2026-01-07 08:44:30.99	88.28	48.14	-53.0	-55.7	14.0	0.00e+00	0	25	0	636485632	72	4830
2026-01-07 08:44:31.99	87.81	48.34	-52.9	-55.5	14.0	0.00e+00	0	25	0	637534208	71	4994
2026-01-07 08:44:32.98	87.34	48.54	-52.6	-55.1	14.2	0.00e+00	0	25	0	639631360	71	4813
2026-01-07 08:44:33.98	86.85	48.73	-52.6	-55.1	14.2	0.00e+00	0	25	0	641728512	71	4781
2026-01-07 08:44:34.98	86.36	48.93	-52.6	-55.1	14.3	0.00e+00	0	25	0	643825664	71	4764
2026-01-07 08:44:35.98	85.86	49.13	-52.0	-54.2	14.5	0.00e+00	0	25	0	645922816	70	4565
2026-01-07 08:44:36.99	85.35	49.32	-51.2	-53.1	14.9	0.00e+00	0	25	0	646971392	69	4262
2026-01-07 08:44:37.99	84.84	49.52	-51.1	-53.0	14.8	0.00e+00	0	25	0	649068544	68	4466
2026-01-07 08:44:38.99	84.32	49.71	-51.3	-53.2	14.8	0.00e+00	0	25	0	651165696	68	4584
2026-01-07 08:44:39.99	83.80	49.90	-51.5	-53.5	14.6	0.00e+00	0	25	0	653262848	68	4735
2026-01-07 08:44:40.99	83.27	50.08	-51.5	-53.7	14.5	0.00e+00	0	25	0	655360000	68	4817
2026-01-07 08:44:41.99	82.73	50.27	-51.0	-53.0	14.7	0.00e+00	0	25	0	656408576	68	4442
2026-01-07 08:44:42.98	82.19	50.45	-51.2	-53.2	14.7	0.00e+00	0	25	0	658505728	68	4578
2026-01-07 08:44:43.98	81.64	50.63	-51.1	-53.2	14.7	0.00e+00	0	25	0	660602880	68	4552
2026-01-07 08:44:44.97	81.09	50.81	-51.4	-53.5	14.6	0.00e+00	0	25	0	662700032	68	4739
2026-01-07 08:44:45.96	80.53	50.98	-51.6	-53.8	14.5	0.00e+00	0	25	0	663748608	68	4906
2026-01-07 08:44:46.96	79.96	51.16	-52.0	-54.3	14.3	0.00e+00	0	25	0	665845760	69	4924
2026-01-07 08:44:47.95	79.39	51.33	-51.6	-53.8	14.6	0.00e+00	0	25	0	667942912	69	4618
2026-01-07 08:44:48.96	78.80	51.50	-51.1	-53.1	14.8	0.00e+00	0	25	0	670040064	68	4520
2026-01-07 08:44:49.96	78.21	51.67	-50.8	-52.7	14.9	0.00e+00	0	25	0	672137216	68	4309
2026-01-07 08:44:50.95	77.62	51.83	-51.5	-53.7	14.5	0.00e+00	0	25	0	673185792	68	4833
2026-01-07 08:44:51.95	77.01	51.99	-52.3	-54.9	14.1	0.00e+00	0	25	0	675282944	69	5242
2026-01-07 08:44:52.95	76.40	52.15	-52.1	-54.6	14.2	0.00e+00	0	25	0	677380096	69	5049
2026-01-07 08:44:53.95	75.79	52.31	-51.7	-54.1	14.4	0.00e+00	0	25	0	679477248	69	4793
2026-01-07 08:44:54.95	75.16	52.46	-51.7	-54.0	14.4	0.00e+00	0	25	0	681574400	69	4742
2026-01-07 08:44:55.95	74.53	52.61	-51.4	-53.7	14.6	0.00e+00	0	25	0	682622976	69	4567
2026-01-07 08:44:56.95	73.90	52.76	-51.0	-53.1	14.7	0.00e+00	0	25	0	684720128	68	4536
2026-01-07 08:44:57.94	73.26	52.90	-50.5	-52.5	14.8	0.00e+00	0	25	0	686817280	67	4477
2026-01-07 08:44:58.93	72.62	53.04	-50.9	-53.2	14.6	0.00e+00	0	25	0	688914432	67	4819
2026-01-07 08:44:59.92	71.97	53.17	-51.4	-53.8	14.3	0.00e+00	0	25	0	689963008	67	5179
2026-01-07 08:45:00.88	71.34	53.30	-51.3	-53.6	14.5	0.00e+00	0	25	0	692060160	68	4780
2026-01-07 08:45:01.88	70.67	53.43	-51.1	-53.2	14.7	0.00e+00	0	25	0	694157312	68	4565
2026-01-07 08:45:02.87	70.01	53.56	-51.7	-54.0	14.3	0.00e+00	0	25	0	696254464	68	5041
2026-01-07 08:45:03.87	69.33	53.68	-52.0	-54.6	14.2	0.00e+00	0	25	0	697303040	69	5088
2026-01-07 08:45:04.85	68.66	53.80	-51.8	-54.3	14.3	0.00e+00	0	25	0	699400192	69	4908
2026-01-07 08:45:05.84	67.97	53.91	-51.5	-53.9	14.5	0.00e+00	0	25	0	701497344	69	4682
2026-01-07 08:45:06.84	67.28	54.02	-51.4	-53.7	14.6	0.00e+00	0	25	0	703594496	69	4576
2026-01-07 08:45:07.84	66.58	54.13	-51.4	-53.8	14.6	0.00e+00	0	25	0	705691648	69	4612
2026-01-07 08:45:08.84	65.87	54.23	-50.7	-53.0	14.8	0.00e+00	0	25	0	706740224	68	4444
2026-01-07 08:45:09.84	65.16	54.33	-50.5	-52.7	14.7	0.00e+00	0	25	0	708837376	67	4598
2026-01-07 08:45:10.84	64.45	54.42	-50.4	-52.5	14.9	0.00e+00	0	25	0	710934528	67	4483
2026-01-07 08:45:11.83	63.74	54.51	-49.9	-51.9	15.0	0.00e+00	0	25	0	713031680	66	4401
2026-01-07 08:45:12.83	63.01	54.60	-49.5	-51.3	15.1	0.00e+00	0	25	0	714080256	65	4385
2026-01-07 08:45:13.83	62.29	54.68	-48.9	-50.7	15.2	0.00e+00	0	25	0	716177408	64	4309
2026-01-07 08:45:14.83	61.55	54.76	-48.7	-50.5	15.3	0.00e+00	0	25	0	718274560	64	4196
2026-01-07 08:45:15.81	60.83	54.83	-48.6	-50.3	15.2	0.00e+00	0	25	0	720371712	63	4387
2026-01-07 08:45:16.82	60.08	54.90	-48.8	-50.6	15.1	0.00e+00	0	25	0	722468864	63	4496
2026-01-07 08:45:17.81	59.35	54.96	-49.9	-51.6	14.8	0.00e+00	0	25	0	723517440	64	4764
2026-01-07 08:45:18.80	58.61	55.01	-49.5	-51.5	14.9	0.00e+00	0	25	0	725614592	64	4724
2026-01-07 08:45:19.81	57.85	55.07	-49.7	-51.6	14.8	0.00e+00	0	25	0	727711744	64	4798
2026-01-07 08:45:20.81	57.10	55.12	-49.6	-51.6	14.8	0.00e+00	0	25	0	729808896	64	4777
2026-01-07 08:45:21.81	56.35	55.16	-49.5	-51.3	14.9	0.00e+00	0	25	0	731906048	64	4642
2026-01-07 08:45:22.81	55.59	55.20	-49.0	-50.8	15.1	0.00e+00	0	25	0	732954624	64	4346
2026-01-07 08:45:23.81	54.83	55.23	-48.7	-50.3	15.2	0.00e+00	0	25	0	735051776	63	4390
2026-01-07 08:45:24.80	54.08	55.26	-48.9	-50.7	15.0	0.00e+00	0	25	0	737148928	63	4580
2026-01-07 08:45:25.80	53.32	55.28	-49.8	-51.8	14.7	0.00e+00	0	25	0	739246080	64	4898
2026-01-07 08:45:26.81	52.55	55.30	-50.3	-52.4	14.6	0.00e+00	0	25	0	741343232	65	4949
2026-01-07 08:45:27.81	51.79	55.32	-49.7	-51.5	15.0	0.00e+00	0	25	0	742391808	65	4482
2026-01-07 08:45:28.80	51.03	55.33	-48.9	-50.6	15.2	0.00e+00	0	25	0	744488960	64	4253
2026-01-07 08:45:29.80	50.27	55.33	-49.1	-50.8	15.1	0.00e+00	0	25	0	746586112	64	4346
2026-01-07 08:45:30.80	49.50	55.33	-49.5	-51.3	14.9	0.00e+00	0	25	0	748683264	64	4632
2026-01-07 08:45:31.81	48.73	55.32	-49.3	-51.1	15.0	0.00e+00	0	25	0	749731840	64	4506
2026-01-07 08:45:32.80	47.97	55.31	-49.3	-51.1	15.0	0.00e+00	0	25	0	751828992	64	4522
2026-01-07 08:45:33.80	47.21	55.29	-49.5	-51.2	15.0	0.00e+00	0	25	0	753926144	64	4585
2026-01-07 08:45:34.80	46.45	55.27	-49.3	-51.0	15.1	0.00e+00	0	25	0	756023296	64	4487
2026-01-07 08:45:35.79	45.70	55.24	-49.1	-50.8	15.1	0.00e+00	0	25	0	758120448	64	4389
2026-01-07 08:45:36.79	44.94	55.21	-49.6	-51.5	14.9	0.00e+00	0	25	0	759169024	64	4712
2026-01-07 08:45:37.79	44.18	55.18	-49.7	-51.6	14.8	0.00e+00	0	25	0	761266176	64	4789
2026-01-07 08:45:38.79	43.43	55.13	-49.5	-51.4	14.9	0.00e+00	0	25	0	763363328	64	4670
2026-01-07 08:45:39.78	42.68	55.09	-49.3	-51.1	15.0	0.00e+00	0	25	0	765460480	64	4516
2026-01-07 08:45:40.78	41.93	55.04	-48.9	-50.6	15.2	0.00e+00	0	25	0	766509056	64	4289
2026-01-07 08:45:41.77	41.19	54.98	-48.5	-50.1	15.3	0.00e+00	0	25	0	768606208	63	4265
2026-01-07 08:45:42.76	40.46	54.92	-48.1	-49.7	15.3	0.00e+00	0	25	0	770703360	62	4300
2026-01-07 08:45:43.75	39.72	54.86	-48.2	-49.7	15.3	0.00e+00	0	25	0	772800512	62	4326
2026-01-07 08:45:44.75	38.99	54.79	-48.4	-50.0	15.2	0.00e+00	0	25	0	774897664	62	4442
2026-01-07 08:45:45.74	38.26	54.71	-48.5	-50.1	15.1	0.00e+00	0	25	0	775946240	62	4531
2026-01-07 08:45:46.74	37.53	54.63	-48.4	-50.0	15.1	0.00e+00	0	25	0	778043392	62	4463
2026-01-07 08:45:47.72	36.82	54.55	-48.2	-49.7	15.3	0.00e+00	0	25	0	780140544	62	4315
2026-01-07 08:45:48.72	36.10	54.46	-48.3	-49.9	15.2	0.00e+00	0	25	0	782237696	62	4393
2026-01-07 08:45:49.71	35.39	54.37	-48.5	-50.0	15.1	0.00e+00	0	25	0	783286272	62	4491
2026-01-07 08:45:50.71	34.68	54.28	-48.6	-50.1	15.1	0.00e+00	0	25	0	785383424	62	4519
2026-01-07 08:45:51.71	33.97	54.18	-48.3	-49.7	15.2	0.00e+00	0	25	0	787480576	62	4338
2026-01-07 08:45:52.71	33.27	54.07	-48.9	-50.5	15.0	0.00e+00	0	25	0	789577728	62	4713
2026-01-07 08:45:53.71	32.57	53.96	-49.7	-51.5	14.8	0.00e+00	0	25	0	791674880	64	4732
2026-01-07 08:45:54.70	31.89	53.85	-49.8	-51.5	15.0	0.00e+00	0	25	0	792723456	65	4474
2026-01-07 08:45:55.70	31.20	53.73	-49.4	-51.1	15.2	0.00e+00	0	25	0	794820608	65	4255
2026-01-07 08:45:56.69	30.53	53.61	-49.5	-51.1	15.1	0.00e+00	0	25	0	796917760	65	4264
2026-01-07 08:45:57.69	29.85	53.49	-50.1	-51.8	14.9	0.00e+00	0	25	0	799014912	65	4614
2026-01-07 08:45:58.68	29.19	53.36	-51.0	-52.9	14.7	0.00e+00	0	25	0	800063488	67	4699
2026-01-07 08:45:59.68	28.53	53.23	-51.2	-53.2	14.6	0.00e+00	0	25	0	802160640	67	4830
2026-01-07 08:46:00.68	27.87	53.09	-50.5	-52.3	14.9	0.00e+00	0	25	0	804257792	67	4355
2026-01-07 08:46:01.67	27.23	52.96	-50.8	-52.7	14.7	0.00e+00	0	25	0	806354944	67	4595
2026-01-07 08:46:02.67	26.59	52.81	-51.7	-53.9	14.4	0.00e+00	0	25	0	808452096	68	4947
2026-01-07 08:46:03.67	25.95	52.67	-51.1	-53.0	14.8	0.00e+00	0	25	0	809500672	68	4482
2026-01-07 08:46:04.67	25.32	52.52	-51.0	-52.8	14.9	0.00e+00	0	25	0	811597824	68	4391
2026-01-07 08:46:05.66	24.70	52.37	-51.7	-53.8	14.4	0.00e+00	0	25	0	813694976	68	4914
2026-01-07 08:46:06.65	24.09	52.22	-52.3	-54.5	14.3	0.00e+00	0	25	0	815792128	69	5041
2026-01-07 08:46:07.65	23.47	52.06	-52.3	-54.6	14.3	0.00e+00	0	25	0	817889280	70	4794
2026-01-07 08:46:08.64	22.87	51.90	-51.8	-53.9	14.7	0.00e+00	0	25	0	818937856	70	4441
2026-01-07 08:46:09.64	22.28	51.74	-51.3	-53.3	14.8	0.00e+00	0	25	0	821035008	69	4350
2026-01-07 08:46:10.63	21.69	51.57	-51.0	-52.9	14.9	0.00e+00	0	25	0	823132160	68	4393
2026-01-07 08:46:11.63	21.10	51.40	-51.6	-53.7	14.5	0.00e+00	0	25	0	825229312	68	4820
2026-01-07 08:46:12.62	20.53	51.24	-52.5	-54.9	14.2	0.00e+00	0	25	0	826277888	70	4963
2026-01-07 08:46:13.61	19.96	51.06	-52.4	-54.8	14.2	0.00e+00	0	25	0	828375040	70	4889
2026-01-07 08:46:14.61	19.40	50.89	-51.8	-53.9	14.6	0.00e+00	0	25	0	830472192	70	4410
2026-01-07 08:46:15.60	18.84	50.71	-51.2	-53.1	14.7	0.00e+00	0	25	0	832569344	68	4515
2026-01-07 08:46:16.60	18.29	50.53	-51.1	-53.1	14.6	0.00e+00	0	25	0	834666496	68	4500
2026-01-07 08:46:17.60	17.75	50.35	-51.2	-53.2	14.7	0.00e+00	0	25	0	835715072	68	4546
2026-01-07 08:46:18.58	17.22	50.17	-51.7	-53.9	14.2	0.00e+00	0	25	0	837812224	68	4965
2026-01-07 08:46:19.57	16.69	49.99	-51.6	-53.8	14.1	0.00e+00	0	25	0	839909376	68	4910
2026-01-07 08:46:20.58	16.16	49.80	-51.5	-53.7	14.2	0.00e+00	0	25	0	842006528	68	4822
2026-01-07 08:46:21.58	15.64	49.61	-51.7	-53.9	14.3	0.00e+00	0	25	0	843055104	68	4947
2026-01-07 08:46:22.58	15.12	49.41	-52.0	-54.2	14.4	0.00e+00	0	25	0	845152256	69	4853
2026-01-07 08:46:23.57	14.62	49.22	-52.3	-54.7	14.2	0.00e+00	0	25	0	847249408	70	4841
2026-01-07 08:46:24.57	14.12	49.03	-52.1	-54.4	14.3	0.00e+00	0	25	0	849346560	70	4679
2026-01-07 08:46:25.57	13.63	48.83	-52.3	-54.6	14.2	0.00e+00	0	25	0	851443712	70	4782
2026-01-07 08:46:26.57	13.14	48.64	-52.1	-54.3	14.5	0.00e+00	0	25	0	852492288	70	4608
2026-01-07 08:46:27.57	12.66	48.44	-52.6	-55.0	14.1	0.00e+00	0	25	0	854589440	70	5001
2026-01-07 08:46:28.56	12.19	48.24	-52.9	-55.3	14.1	0.00e+00	0	25	0	856686592	71	4920
2026-01-07 08:46:29.56	11.72	48.04	-53.5	-56.3	13.7	0.00e+00	0	25	0	858783744	72	5197
2026-01-07 08:46:30.55	11.26	47.84	-54.5	-58.0	13.0	0.00e+00	0	25	0	860880896	74	5644
2026-01-07 08:46:31.55	10.80	47.63	-55.9	-60.7	11.4	1.52e-05	0	25	0	861929472	77	6455
2026-01-07 08:46:32.54	10.36	47.43	-55.9	-60.8	11.3	2.04e-04	0	25	0	864026624	77	6533
2026-01-07 08:46:33.54	9.91	47.23	-55.4	-59.4	12.2	9.10e-06	0	25	0	866123776	77	5577
2026-01-07 08:46:34.54	9.47	47.02	-54.9	-58.3	12.8	7.00e-07	0	25	0	868220928	76	5217
2026-01-07 08:46:35.66	8.99	46.79	-54.5	-57.8	12.9	0.00e+00	0	25	0	869269504	75	5176
2026-01-07 08:46:36.52	8.62	46.61	-53.5	-56.0	14.0	0.00e+00	0	25	0	871366656	73	4757
2026-01-07 08:46:37.65	8.14	46.38	-53.9	-56.7	13.6	0.00e+00	0	25	0	873463808	73	5146
2026-01-07 08:46:38.50	7.79	46.20	-53.9	-56.6	13.6	0.00e+00	0	25	0	874512384	73	5082
2026-01-07 08:46:39.64	7.32	45.96	-54.3	-57.3	13.5	0.00e+00	0	25	0	877658112	74	5160
2026-01-07 08:46:40.50	6.97	45.78	-53.4	-55.9	14.1	0.00e+00	0	25	0	878706688	73	4664
2026-01-07 08:46:41.63	6.52	45.54	-52.8	-55.1	14.4	0.00e+00	0	25	0	880803840	72	4510
2026-01-07 08:46:42.48	6.18	45.36	-52.6	-54.7	14.4	0.00e+00	0	25	0	882900992	71	4595
2026-01-07 08:46:43.61	5.74	45.12	-52.2	-54.3	14.7	0.00e+00	0	25	0	884998144	71	4373
2026-01-07 08:46:44.47	5.41	44.94	-52.4	-54.6	14.4	0.00e+00	0	25	0	886046720	70	4796
2026-01-07 08:46:45.60	4.99	44.70	-53.8	-56.7	13.6	0.00e+00	0	25	0	888143872	72	5411
2026-01-07 08:46:46.45	4.67	44.52	-54.3	-57.5	13.1	0.00e+00	0	25	0	890241024	73	5634
2026-01-07 08:46:47.59	4.25	44.28	-54.1	-57.3	13.3	0.00e+00	0	25	0	892338176	73	5487
2026-01-07 08:46:48.44	3.94	44.10	-53.5	-56.1	13.9	0.00e+00	0	25	0	893386752	73	4797
2026-01-07 08:46:49.58	3.53	43.85	-53.5	-56.2	13.9	0.00e+00	0	25	0	895483904	73	4845
2026-01-07 08:46:50.43	3.23	43.67	-54.1	-57.1	13.4	0.00e+00	0	25	0	897581056	73	5357
2026-01-07 08:46:51.57	2.83	43.43	-54.1	-57.3	13.2	0.00e+00	0	25	0	899678208	73	5518
2026-01-07 08:46:52.43	2.53	43.25	-54.3	-57.6	13.2	0.00e+00	0	25	0	900726784	74	5395
2026-01-07 08:46:53.57	2.14	43.01	-53.8	-56.7	13.7	0.00e+00	0	25	0	902823936	74	4866
2026-01-07 08:46:54.41	1.86	42.83	-53.1	-55.7	14.1	0.00e+00	0	25	0	904921088	72	4837
2026-01-07 08:46:55.55	1.48	42.58	-52.6	-54.9	14.3	0.00e+00	0	25	0	907018240	71	4670
2026-01-07 08:46:56.41	1.20	42.40	-52.5	-54.7	14.4	0.00e+00	0	25	0	908066816	71	4580
2026-01-07 08:46:57.54	0.84	42.16	-52.1	-54.2	14.5	0.00e+00	0	25	0	911212544	70	4587
2026-01-07 08:46:58.40	0.56	41.98	-52.1	-54.3	14.4	0.00e+00	0	25	0	912261120	70	4651
2026-01-07 08:46:59.53	0.21	41.74	-52.2	-54.5	14.4	0.00e+00	0	25	0	914358272	70	4710
2026-01-07 08:47:00.38	359.94	41.56	-52.5	-54.9	14.1	0.00e+00	0	25	0	916455424	70	4960
2026-01-07 08:47:01.52	359.59	41.32	-53.1	-55.9	13.8	0.00e+00	0	25	0	918552576	71	5224
2026-01-07 08:47:02.37	359.34	41.14	-53.5	-56.3	13.7	0.00e+00	0	25	0	919601152	72	5206
2026-01-07 08:47:03.51	359.00	40.90	-54.1	-57.3	13.3	0.00e+00	0	25	0	921698304	73	5480
2026-01-07 08:47:04.36	358.75	40.72	-54.5	-58.0	13.0	0.00e+00	0	25	0	923795456	74	5601
2026-01-07 08:47:05.50	358.41	40.48	-54.5	-58.0	12.9	0.00e+00	0	25	0	925892608	74	5648
2026-01-07 08:47:06.36	358.17	40.30	-54.4	-58.0	13.1	0.00e+00	0	25	0	926941184	74	5605
2026-01-07 08:47:07.51	357.84	40.06	-53.7	-56.7	13.7	0.00e+00	0	25	0	929038336	74	4848
2026-01-07 08:47:08.36	357.60	39.88	-53.9	-57.0	13.5	0.00e+00	0	25	0	931135488	74	5021
2026-01-07 08:47:09.50	357.29	39.64	-53.9	-57.1	13.4	0.00e+00	0	25	0	933232640	73	5383
2026-01-07 08:47:10.35	357.06	39.47	-53.9	-57.1	13.3	0.00e+00	0	25	0	934281216	73	5389
2026-01-07 08:47:11.49	356.75	39.23	-53.9	-57.3	13.4	0.00e+00	0	25	0	936378368	73	5468
2026-01-07 08:47:12.34	356.53	39.06	-53.7	-56.7	13.5	0.00e+00	0	25	0	938475520	73	5140
2026-01-07 08:47:13.48	356.23	38.82	-53.6	-56.6	13.6	0.00e+00	0	25	0	940572672	73	5089
2026-01-07 08:47:14.33	356.01	38.65	-53.8	-56.8	13.5	0.00e+00	0	25	0	942669824	73	5177
2026-01-07 08:47:15.48	355.71	38.41	-54.0	-57.2	13.2	0.00e+00	0	25	0	944766976	73	5424
2026-01-07 08:47:16.33	355.50	38.24	-53.5	-56.4	13.7	0.00e+00	0	25	0	945815552	73	4954
2026-01-07 08:47:17.48	355.21	38.00	-53.4	-56.2	13.8	0.00e+00	0	25	0	947912704	73	4832
2026-01-07 08:47:18.33	355.00	37.83	-53.4	-56.3	13.7	0.00e+00	0	25	0	950009856	72	5169
2026-01-07 08:47:19.47	354.73	37.60	-53.5	-56.4	13.8	0.00e+00	0	25	0	952107008	72	5230
2026-01-07 08:47:20.33	354.52	37.42	-53.3	-56.1	13.7	0.00e+00	0	25	0	953155584	72	5073
2026-01-07 08:47:21.46	354.25	37.20	-53.0	-55.7	14.0	0.00e+00	0	25	0	955252736	72	4825
2026-01-07 08:47:22.32	354.05	37.02	-53.0	-55.6	14.1	0.00e+00	0	25	0	957349888	72	4767
2026-01-07 08:47:23.45	353.79	36.80	-53.3	-55.9	13.9	0.00e+00	0	25	0	959447040	72	4968
2026-01-07 08:47:24.31	353.59	36.63	-53.3	-56.0	13.8	0.00e+00	0	25	0	960495616	72	5018
2026-01-07 08:47:25.45	353.34	36.40	-53.3	-56.0	13.9	0.00e+00	0	25	0	962592768	72	5013
2026-01-07 08:47:26.31	353.15	36.23	-53.8	-56.7	13.5	0.00e+00	0	25	0	964689920	72	5459
2026-01-07 08:47:27.45	352.90	36.01	-54.1	-57.2	13.2	0.00e+00	0	25	0	966787072	73	5438
2026-01-07 08:47:28.30	352.71	35.84	-54.4	-57.8	12.9	0.00e+00	0	25	0	968884224	73	5822
2026-01-07 08:47:29.43	352.47	35.62	-54.3	-57.6	13.3	0.00e+00	0	25	0	970981376	74	5382
2026-01-07 08:47:30.29	352.29	35.45	-54.3	-57.6	13.2	0.00e+00	0	25	0	972029952	74	5395
2026-01-07 08:47:31.44	352.05	35.23	-53.5	-56.1	14.0	0.00e+00	0	25	0	974127104	73	4790
2026-01-07 08:47:32.29	351.87	35.06	-52.9	-55.2	14.3	0.00e+00	0	25	0	976224256	72	4590
2026-01-07 08:47:33.43	351.64	34.84	-52.7	-55.0	14.5	0.00e+00	0	25	0	978321408	72	4461
2026-01-07 08:47:34.28	351.46	34.68	-53.3	-55.8	14.0	0.00e+00	0	25	0	979369984	72	4915
2026-01-07 08:47:35.43	351.24	34.46	-53.8	-56.7	13.6	0.00e+00	0	25	0	981467136	72	5406
2026-01-07 08:47:36.29	351.07	34.29	-53.9	-56.7	13.6	0.00e+00	0	25	0	983564288	72	5426
2026-01-07 08:47:37.43	350.84	34.08	-53.7	-56.4	13.8	0.00e+00	0	25	0	985661440	73	4957
2026-01-07 08:47:38.28	350.68	33.92	-53.6	-56.2	13.9	0.00e+00	0	25	0	986710016	73	4848
2026-01-07 08:47:39.42	350.46	33.70	-53.2	-55.7	14.2	0.00e+00	0	25	0	988807168	73	4572
2026-01-07 08:47:40.28	350.30	33.54	-53.4	-56.0	14.0	0.00e+00	0	25	0	990904320	73	4707
2026-01-07 08:47:41.42	350.09	33.33	-54.0	-57.0	13.4	0.00e+00	0	25	0	993001472	73	5295
2026-01-07 08:47:42.27	349.93	33.17	-53.9	-56.9	13.4	0.00e+00	0	25	0	995098624	73	5238
2026-01-07 08:47:43.42	349.72	32.96	-53.7	-56.6	13.7	0.00e+00	0	25	0	997195776	73	5048
2026-01-07 08:47:44.27	349.57	32.80	-53.1	-55.7	14.0	0.00e+00	0	25	0	998244352	72	4844
2026-01-07 08:47:45.40	349.37	32.60	-53.5	-56.2	13.8	0.00e+00	0	25	0	1000341504	72	5128
2026-01-07 08:47:46.26	349.22	32.44	-53.2	-55.7	14.1	0.00e+00	0	25	0	1002438656	72	4839
2026-01-07 08:47:47.40	349.02	32.23	-53.6	-56.4	13.7	0.00e+00	0	25	0	1004535808	72	5221
2026-01-07 08:47:48.25	348.88	32.08	-53.8	-56.6	13.5	0.00e+00	0	25	0	1005584384	72	5401
2026-01-07 08:47:49.39	348.68	31.87	-53.6	-56.3	13.7	0.00e+00	0	25	0	1007681536	72	5165
2026-01-07 08:47:50.25	348.54	31.72	-52.8	-55.1	14.4	0.00e+00	0	25	0	1009778688	72	4529
2026-01-07 08:47:51.38	348.35	31.52	-52.6	-54.8	14.4	0.00e+00	0	25	0	1011875840	71	4616
2026-01-07 08:47:52.24	348.21	31.36	-52.8	-55.0	14.3	0.00e+00	0	25	0	1012924416	71	4741
2026-01-07 08:47:53.37	348.03	31.16	-53.0	-55.4	14.1	0.00e+00	0	25	0	1015021568	71	4949
2026-01-07 08:47:54.23	347.89	31.01	-53.5	-56.0	13.9	0.00e+00	0	25	0	1017118720	72	5033
2026-01-07 08:47:55.37	347.71	30.81	-53.8	-56.6	13.6	0.00e+00	0	25	0	1019215872	72	5397
2026-01-07 08:47:56.22	347.57	30.66	-53.8	-56.5	13.7	0.00e+00	0	25	0	1020264448	73	5026
2026-01-07 08:47:57.36	347.40	30.46	-53.0	-55.3	14.3	0.00e+00	0	25	0	1023410176	72	4622
2026-01-07 08:47:58.21	347.27	30.32	-52.9	-55.2	14.3	0.00e+00	0	25	0	1024458752	72	4573
2026-01-07 08:47:59.34	347.09	30.12	-52.6	-54.8	14.4	0.00e+00	0	25	0	1026555904	71	4617
2026-01-07 08:48:00.19	346.97	29.98	-52.6	-54.8	14.4	0.00e+00	0	25	0	1028653056	71	4611
2026-01-07 08:48:01.33	346.80	29.78	-52.6	-54.8	14.4	0.00e+00	0	25	0	1030750208	71	4635
2026-01-07 08:48:02.17	346.67	29.64	-52.9	-55.2	14.2	0.00e+00	0	25	0	1031798784	71	4859
2026-01-07 08:48:03.31	346.51	29.45	-52.7	-55.0	14.3	0.00e+00	0	25	0	1033895936	71	4714
2026-01-07 08:48:04.16	346.39	29.31	-52.5	-54.6	14.5	0.00e+00	0	25	0	1035993088	71	4521
2026-01-07 08:48:05.30	346.22	29.11	-52.4	-54.5	14.5	0.00e+00	0	25	0	1038090240	71	4455
2026-01-07 08:48:06.15	346.10	28.97	-51.9	-53.9	14.7	0.00e+00	0	25	0	1039138816	70	4406
2026-01-07 08:48:07.29	345.94	28.78	-51.7	-53.6	14.8	0.00e+00	0	25	0	1041235968	70	4290
2026-01-07 08:48:08.15	345.83	28.64	-51.6	-53.5	14.7	0.00e+00	0	25	0	1043333120	69	4456
2026-01-07 08:48:09.28	345.67	28.46	-52.1	-54.2	14.4	0.00e+00	0	25	0	1045430272	69	4819
2026-01-07 08:48:10.13	345.56	28.32	-52.2	-54.3	14.3	0.00e+00	0	25	0	1046478848	69	4916
2026-01-07 08:48:11.28	345.40	28.13	-52.7	-55.0	14.2	0.00e+00	0	25	0	1048576000	70	5001
2026-01-07 08:48:12.13	345.29	27.99	-52.7	-55.0	14.1	0.00e+00	0	25	0	1050673152	70	5003
2026-01-07 08:48:13.28	345.14	27.81	-52.9	-55.3	14.0	0.00e+00	0	25	0	1052770304	70	5181
2026-01-07 08:48:14.13	345.03	27.67	-52.8	-55.1	14.2	0.00e+00	0	25	0	1053818880	71	4796
2026-01-07 08:48:15.26	344.88	27.49	-52.7	-55.0	14.3	0.00e+00	0	25	0	1056964608	71	4756
2026-01-07 08:48:16.12	344.78	27.35	-53.1	-55.6	13.9	0.00e+00	0	25	0	1058013184	71	5076
2026-01-07 08:48:17.26	344.63	27.17	-53.0	-55.5	14.0	0.00e+00	0	25	0	1060110336	71	5002
2026-01-07 08:48:18.12	344.53	27.04	-53.0	-55.5	14.1	0.00e+00	0	25	0	1062207488	71	4997
2026-01-07 08:48:19.25	344.39	26.86	-53.1	-55.5	14.0	0.00e+00	0	25	0	1064304640	71	5008
2026-01-07 08:48:20.10	344.28	26.73	-52.8	-55.1	14.3	0.00e+00	0	25	0	1065353216	71	4772
2026-01-07 08:48:21.24	344.14	26.55	-52.3	-54.4	14.6	0.00e+00	0	25	0	1067450368	71	4421
2026-01-07 08:48:22.09	344.04	26.42	-52.1	-54.1	14.6	0.00e+00	0	25	0	1069547520	70	4532
2026-01-07 08:48:23.22	343.91	26.25	-51.7	-53.6	14.9	0.00e+00	0	25	0	1071644672	70	4273
2026-01-07 08:48:24.08	343.81	26.12	-51.4	-53.2	14.9	0.00e+00	0	25	0	1072693248	69	4335
2026-01-07 08:48:25.21	343.68	25.94	-51.8	-53.6	14.7	0.00e+00	0	25	0	1074790400	69	4544
2026-01-07 08:48:26.07	343.58	25.81	-51.9	-53.9	14.5	0.00e+00	0	25	0	1076887552	69	4668
2026-01-07 08:48:27.21	343.45	25.64	-52.4	-54.5	14.3	0.00e+00	0	25	0	1078984704	69	5012
2026-01-07 08:48:28.06	343.35	25.51	-52.8	-55.1	14.1	0.00e+00	0	25	0	1080033280	70	5068
2026-01-07 08:48:29.21	343.22	25.34	-53.2	-55.6	13.9	0.00e+00	0	25	0	1082130432	71	5092
2026-01-07 08:48:30.06	343.13	25.22	-53.3	-55.8	13.8	0.00e+00	0	25	0	1084227584	71	5203
2026-01-07 08:48:31.19	343.01	25.05	-53.5	-56.1	13.8	0.00e+00	0	25	0	1086324736	72	5045
2026-01-07 08:48:32.04	342.91	24.92	-53.5	-56.0	13.8	0.00e+00	0	25	0	1087373312	72	5002
2026-01-07 08:48:33.18	342.79	24.76	-53.3	-55.7	14.0	0.00e+00	0	25	0	1090519040	72	4842
2026-01-07 08:48:34.04	342.70	24.63	-53.2	-55.6	14.0	0.00e+00	0	25	0	1091567616	72	4782
2026-01-07 08:48:35.18	342.58	24.47	-53.2	-55.6	14.0	0.00e+00	0	25	0	1093664768	72	4776
2026-01-07 08:48:36.04	342.49	24.34	-53.1	-55.5	14.1	0.00e+00	0	25	0	1095761920	72	4744
2026-01-07 08:48:37.17	342.37	24.18	-53.1	-55.5	14.1	0.00e+00	0	25	0	1097859072	72	4740
2026-01-07 08:48:38.03	342.29	24.06	-53.3	-55.9	13.9	0.00e+00	0	25	0	1098907648	72	4928
2026-01-07 08:48:39.16	342.17	23.90	-53.2	-55.7	14.0	0.00e+00	0	25	0	1101004800	72	4834
2026-01-07 08:48:40.02	342.08	23.77	-53.3	-55.9	13.8	0.00e+00	0	25	0	1103101952	72	4937
2026-01-07 08:48:41.16	341.97	23.61	-53.1	-55.5	14.1	0.00e+00	0	25	0	1105199104	72	4738
2026-01-07 08:48:42.01	341.89	23.49	-53.0	-55.4	14.2	0.00e+00	0	25	0	1106247680	72	4652
2026-01-07 08:48:43.15	341.78	23.33	-53.0	-55.3	14.2	0.00e+00	0	25	0	1108344832	72	4627
2026-01-07 08:48:44.00	341.69	23.22	-52.8	-55.1	14.3	0.00e+00	0	25	0	1110441984	72	4514
2026-01-07 08:48:45.13	341.58	23.06	-52.8	-55.0	14.3	0.00e+00	0	25	0	1112539136	71	4736
2026-01-07 08:48:45.98	341.50	22.94	-52.7	-55.0	14.3	0.00e+00	0	25	0	1113587712	71	4726
2026-01-07 08:48:47.12	341.40	22.79	-52.8	-55.1	14.2	0.00e+00	0	25	0	1115684864	71	4785
2026-01-07 08:48:47.97	341.32	22.67	-52.6	-54.8	14.3	0.00e+00	0	25	0	1117782016	71	4650
2026-01-07 08:48:49.10	341.21	22.52	-52.9	-55.2	14.2	0.00e+00	0	25	0	1119879168	71	4833
2026-01-07 08:48:49.95	341.13	22.40	-52.9	-55.2	14.2	0.00e+00	0	25	0	1120927744	71	4823
2026-01-07 08:48:51.10	341.03	22.25	-52.7	-54.9	14.3	0.00e+00	0	25	0	1124073472	71	4693
2026-01-07 08:48:51.95	340.95	22.13	-52.6	-54.7	14.4	0.00e+00	0	25	0	1125122048	71	4580
2026-01-07 08:48:53.08	340.85	21.98	-52.5	-54.6	14.5	0.00e+00	0	25	0	1127219200	71	4533
2026-01-07 08:48:53.93	340.78	21.87	-52.5	-54.6	14.3	0.00e+00	0	25	0	1129316352	71	4541
2026-01-07 08:48:55.06	340.68	21.72	-52.2	-54.2	14.7	0.00e+00	0	25	0	1131413504	71	4311
2026-01-07 08:48:55.91	340.60	21.61	-52.2	-54.2	14.5	0.00e+00	0	25	0	1132462080	70	4584
2026-01-07 08:48:57.06	340.51	21.46	-51.9	-53.9	14.7	0.00e+00	0	25	0	1134559232	70	4393
2026-01-07 08:48:57.90	340.43	21.35	-51.9	-53.8	14.7	0.00e+00	0	25	0	1136656384	70	4390
2026-01-07 08:48:59.03	340.34	21.20	-52.1	-54.1	14.5	0.00e+00	0	25	0	1138753536	70	4527
2026-01-07 08:48:59.89	340.27	21.09	-52.1	-54.2	14.5	0.00e+00	0	25	0	1139802112	70	4549
2026-01-07 08:49:01.02	340.17	20.95	-52.4	-54.5	14.4	0.00e+00	0	25	0	1141899264	70	4719
2026-01-07 08:49:01.88	340.10	20.84	-52.5	-54.7	14.3	0.00e+00	0	25	0	1143996416	70	4815
2026-01-07 08:49:03.02	340.01	20.69	-52.7	-55.0	14.2	0.00e+00	0	25	0	1146093568	70	4990
2026-01-07 08:49:03.87	339.94	20.58	-52.9	-55.3	14.1	0.00e+00	0	25	0	1147142144	71	4909
2026-01-07 08:49:05.02	339.85	20.44	-53.2	-55.8	13.8	0.00e+00	0	25	0	1149239296	71	5177
2026-01-07 08:49:05.87	339.78	20.33	-53.6	-56.3	13.6	0.00e+00	0	25	0	1151336448	72	5179
2026-01-07 08:49:07.01	339.69	20.19	-53.6	-56.3	13.6	0.00e+00	0	25	0	1153433600	72	5199
2026-01-07 08:49:07.85	339.62	20.08	-54.0	-56.9	13.4	0.00e+00	0	25	0	1155530752	73	5275
2026-01-07 08:49:08.99	339.53	19.94	-53.8	-56.6	13.6	0.00e+00	0	25	0	1157627904	73	5053
2026-01-07 08:49:09.84	339.47	19.84	-53.8	-56.6	13.6	0.00e+00	0	25	0	1158676480	73	5053
2026-01-07 08:49:10.97	339.38	19.70	-53.8	-56.7	13.5	0.00e+00	0	25	0	1160773632	73	5132
2026-01-07 08:49:11.82	339.32	19.60	-53.6	-56.4	13.7	0.00e+00	0	25	0	1162870784	73	4927
2026-01-07 08:49:12.95	339.23	19.46	-53.4	-56.0	13.9	0.00e+00	0	25	0	1164967936	73	4733
2026-01-07 08:49:13.80	339.17	19.35	-53.1	-55.6	14.1	0.00e+00	0	25	0	1166016512	72	4774
2026-01-07 08:49:14.94	339.08	19.22	-53.1	-55.5	14.1	0.00e+00	0	25	0	1168113664	72	4746
2026-01-07 08:49:15.79	339.02	19.12	-52.8	-55.1	14.3	0.00e+00	0	25	0	1170210816	72	4507
2026-01-07 08:49:16.94	338.94	18.98	-53.0	-55.4	14.1	0.00e+00	0	25	0	1172307968	72	4659
2026-01-07 08:49:17.79	338.88	18.88	-52.5	-54.7	14.4	0.00e+00	0	25	0	1173356544	71	4582
2026-01-07 08:49:18.94	338.79	18.74	-52.2	-54.2	14.6	0.00e+00	0	25	0	1175453696	71	4325
2026-01-07 08:49:19.79	338.73	18.64	-52.2	-54.3	14.4	0.00e+00	0	25	0	1177550848	70	4608
2026-01-07 08:49:20.93	338.65	18.51	-51.7	-53.7	14.8	0.00e+00	0	25	0	1179648000	70	4293
2026-01-07 08:49:21.79	338.59	18.40	-51.6	-53.5	14.7	0.00e+00	0	25	0	1180696576	69	4489
2026-01-07 08:49:22.93	338.51	18.27	-51.5	-53.4	14.7	0.00e+00	0	25	0	1183842304	69	4430
2026-01-07 08:49:23.78	338.46	18.17	-51.4	-53.2	14.8	0.00e+00	0	25	0	1184890880	69	4335
2026-01-07 08:49:24.92	338.38	18.04	-51.2	-53.0	14.9	0.00e+00	0	25	0	1186988032	69	4221
2026-01-07 08:49:25.78	338.32	17.94	-51.3	-53.1	14.9	0.00e+00	0	25	0	1189085184	69	4264
2026-01-07 08:49:26.91	338.24	17.81	-51.3	-53.2	14.9	0.00e+00	0	25	0	1191182336	69	4294
2026-01-07 08:49:27.76	338.19	17.72	-51.2	-53.0	14.7	0.00e+00	0	25	0	1192230912	68	4492
2026-01-07 08:49:28.90	338.11	17.59	-51.5	-53.5	14.5	0.00e+00	0	25	0	1194328064	68	4707
2026-01-07 08:49:29.76	338.06	17.49	-51.6	-53.6	14.5	0.00e+00	0	25	0	1196425216	68	4791
2026-01-07 08:49:30.89	337.98	17.36	-51.4	-53.3	14.6	0.00e+00	0	25	0	1198522368	68	4649
2026-01-07 08:49:31.74	337.93	17.27	-51.8	-53.8	14.4	0.00e+00	0	25	0	1199570944	68	4920
2026-01-07 08:49:32.88	337.85	17.14	-51.8	-53.8	14.4	0.00e+00	0	25	0	1201668096	69	4625
2026-01-07 08:49:33.73	337.80	17.05	-52.0	-54.1	14.4	0.00e+00	0	25	0	1203765248	69	4767
2026-01-07 08:49:34.87	337.73	16.92	-52.2	-54.3	14.2	0.00e+00	0	25	0	1205862400	69	4924
2026-01-07 08:49:35.73	337.68	16.82	-52.4	-54.6	14.3	0.00e+00	0	25	0	1206910976	70	4775
2026-01-07 08:49:36.86	337.61	16.70	-52.4	-54.6	14.2	0.00e+00	0	25	0	1209008128	70	4811
2026-01-07 08:49:37.71	337.55	16.61	-52.5	-54.7	14.2	0.00e+00	0	25	0	1211105280	70	4856
2026-01-07 08:49:38.85	337.48	16.48	-52.7	-55.1	14.0	0.00e+00	0	25	0	1213202432	70	5044
2026-01-07 08:49:39.71	337.43	16.39	-52.6	-55.0	14.1	0.00e+00	0	25	0	1215299584	70	4984
2026-01-07 08:49:40.85	337.36	16.27	-52.8	-55.1	13.9	0.00e+00	0	25	0	1217396736	70	5090
2026-01-07 08:49:41.69	337.31	16.18	-52.7	-55.0	14.0	0.00e+00	0	25	0	1218445312	70	5041
2026-01-07 08:49:42.82	337.25	16.06	-52.6	-54.9	14.1	0.00e+00	0	25	0	1220542464	70	4965
2026-01-07 08:49:43.68	337.19	15.96	-52.7	-55.1	14.0	0.00e+00	0	25	0	1222639616	70	5066
2026-01-07 08:49:44.82	337.13	15.84	-52.6	-54.9	14.1	0.00e+00	0	25	0	1224736768	70	4937
2026-01-07 08:49:45.67	337.08	15.75	-52.5	-54.8	14.1	0.00e+00	0	25	0	1225785344	70	4881
2026-01-07 08:49:46.81	337.01	15.63	-52.6	-55.0	14.0	0.00e+00	0	25	0	1227882496	70	4993
2026-01-07 08:49:47.66	336.96	15.54	-52.6	-54.9	14.1	0.00e+00	0	25	0	1229979648	70	4951
2026-01-07 08:49:48.80	336.90	15.42	-52.8	-55.2	13.9	0.00e+00	0	25	0	1232076800	70	5128
2026-01-07 08:49:49.65	336.85	15.33	-52.9	-55.3	13.9	0.00e+00	0	25	0	1233125376	71	4919
2026-01-07 08:49:50.78	336.79	15.22	-52.8	-55.2	14.0	0.00e+00	0	25	0	1235222528	71	4848
2026-01-07 08:49:51.63	336.74	15.13	-52.9	-55.4	13.9	0.00e+00	0	25	0	1237319680	71	4947
