passes_logs/2025/01/18/planumMaritime01/planumMaritime01__20250118_082619_NOAA_19_rec.log

#Pass ID: 20250118_082619_NOAA 19
#Satellite: NOAA 19
#Configuration: NOAA 19
#Start time: 2025-01-18 08:26:24.688630

#LorettStation: 1.0.0 05.05.2024
#Station: planumMaritime01
#Location: 37.49445 lon 55.92918 lat
#TLE: 1 33591U 09005A   25017.12803845  .00000314  00000+0  19161-3 0  9999
#TLE: 2 33591  99.0192  80.9069 0014403  51.8715 308.3753 14.13261185821848

#Time	Az	El	Level	SNR
2025-01-18 08:26:26.844684	11.9	10.2	-94.4	0.0
2025-01-18 08:26:27.965088	11.8	10.3	-94.3	0.0
2025-01-18 08:26:29.085128	11.8	10.4	-94.4	0.0
2025-01-18 08:26:30.205454	11.8	10.5	-94.3	0.0
2025-01-18 08:26:31.326753	11.7	10.6	-94.6	0.0
2025-01-18 08:26:32.449036	11.7	10.7	-94.4	0.0
2025-01-18 08:26:33.570650	11.6	10.8	-94.3	0.0
2025-01-18 08:26:34.690661	11.6	10.9	-94.5	0.0
2025-01-18 08:26:35.814885	11.6	11.0	-94.8	0.0
2025-01-18 08:26:36.935719	11.5	11.1	-94.7	0.0
2025-01-18 08:26:38.058112	11.5	11.2	-94.6	0.0
2025-01-18 08:26:39.179641	11.4	11.3	-94.6	0.0
2025-01-18 08:26:40.301124	11.4	11.4	-94.7	0.0
2025-01-18 08:26:41.421687	11.4	11.5	-94.8	0.0
2025-01-18 08:26:42.543649	11.3	11.6	-94.8	0.0
2025-01-18 08:26:43.664860	11.3	11.7	-94.9	0.0
2025-01-18 08:26:44.786527	11.2	11.8	-94.8	0.0
2025-01-18 08:26:45.905943	11.2	11.9	-94.7	0.0
2025-01-18 08:26:47.028567	11.1	12.0	-94.6	0.0
2025-01-18 08:26:48.149777	11.1	12.1	-94.9	0.0
2025-01-18 08:26:49.272167	11.0	12.2	-95.0	0.0
2025-01-18 08:26:50.395808	11.0	12.3	-94.3	0.0
2025-01-18 08:26:51.516646	11.0	12.4	-94.7	0.0
2025-01-18 08:26:52.638518	10.9	12.5	-94.6	0.0
2025-01-18 08:26:53.761313	10.9	12.6	-94.6	0.0
2025-01-18 08:26:54.883073	10.8	12.7	-94.4	0.0
2025-01-18 08:26:56.003504	10.8	12.8	-94.2	0.0
2025-01-18 08:26:57.124668	10.7	12.9	-94.1	0.0
2025-01-18 08:26:58.246187	10.7	13.0	-94.4	0.0
2025-01-18 08:26:59.367921	10.6	13.1	-94.7	0.0
2025-01-18 08:27:00.489154	10.6	13.2	-94.4	0.0
2025-01-18 08:27:01.610771	10.5	13.3	-94.8	0.0
2025-01-18 08:27:02.731259	10.5	13.4	-94.4	0.0
2025-01-18 08:27:03.852664	10.4	13.5	-94.4	0.0
2025-01-18 08:27:04.973667	10.4	13.7	-94.7	0.0
2025-01-18 08:27:06.093998	10.3	13.8	-94.8	0.0
2025-01-18 08:27:07.216134	10.3	13.9	-94.5	0.0
2025-01-18 08:27:08.335386	10.2	14.0	-94.3	0.0
2025-01-18 08:27:09.456506	10.2	14.1	-94.6	0.0
2025-01-18 08:27:10.576997	10.1	14.2	-94.7	0.0
2025-01-18 08:27:11.700228	10.1	14.3	-94.6	0.0
2025-01-18 08:27:12.821315	10.0	14.4	-94.8	0.0
2025-01-18 08:27:13.941481	10.0	14.5	-94.8	0.0
2025-01-18 08:27:15.060656	9.9	14.7	-94.5	0.0
2025-01-18 08:27:16.182131	9.9	14.8	-94.6	0.0
2025-01-18 08:27:17.302463	9.8	14.9	-94.7	0.0
2025-01-18 08:27:18.423572	9.8	15.0	-94.8	0.0
2025-01-18 08:27:19.542083	9.7	15.1	-94.5	0.0
2025-01-18 08:27:20.664228	9.7	15.2	-94.9	0.0
2025-01-18 08:27:21.785596	9.6	15.3	-94.7	0.0
2025-01-18 08:27:22.905800	9.5	15.5	-94.9	0.0
2025-01-18 08:27:24.026501	9.5	15.6	-94.6	0.0
2025-01-18 08:27:25.147429	9.4	15.7	-94.8	0.0
2025-01-18 08:27:26.267688	9.4	15.8	-94.9	0.0
2025-01-18 08:27:27.387946	9.3	15.9	-94.9	0.0
2025-01-18 08:27:28.511829	9.3	16.0	-94.8	0.0
2025-01-18 08:27:29.631724	9.2	16.2	-94.8	0.0
2025-01-18 08:27:30.752780	9.1	16.3	-95.0	0.0
2025-01-18 08:27:31.873862	9.1	16.4	-94.7	0.0
2025-01-18 08:27:32.995656	9.0	16.5	-94.7	0.0
2025-01-18 08:27:34.116562	8.9	16.7	-94.6	0.0
2025-01-18 08:27:35.238389	8.9	16.8	-94.6	0.0
2025-01-18 08:27:36.358923	8.8	16.9	-95.1	0.0
2025-01-18 08:27:37.479960	8.8	17.0	-94.7	0.0
2025-01-18 08:27:38.601939	8.7	17.1	-94.9	0.0
2025-01-18 08:27:39.722790	8.6	17.3	-94.5	0.0
2025-01-18 08:27:40.843190	8.6	17.4	-94.4	0.0
2025-01-18 08:27:41.962840	8.5	17.5	-94.4	0.0
2025-01-18 08:27:43.084174	8.4	17.7	-94.8	0.0
2025-01-18 08:27:44.207476	8.4	17.8	-94.5	0.0
2025-01-18 08:27:45.327546	8.3	17.9	-94.7	0.0
2025-01-18 08:27:46.448866	8.2	18.0	-94.5	0.0
2025-01-18 08:27:47.567616	8.2	18.2	-94.7	0.0
2025-01-18 08:27:48.688658	8.1	18.3	-94.6	0.0
2025-01-18 08:27:49.809435	8.0	18.4	-94.6	0.0
2025-01-18 08:27:50.929287	8.0	18.6	-94.3	0.0
2025-01-18 08:27:52.053021	7.9	18.7	-94.6	0.0
2025-01-18 08:27:53.173306	7.8	18.8	-94.6	0.0
2025-01-18 08:27:54.293736	7.7	19.0	-94.6	0.0
2025-01-18 08:27:55.415131	7.7	19.1	-94.5	0.0
2025-01-18 08:27:56.534580	7.6	19.2	-94.4	0.0
2025-01-18 08:27:57.654638	7.5	19.4	-94.3	0.0
2025-01-18 08:27:58.776663	7.5	19.5	-94.7	0.0
2025-01-18 08:27:59.898029	7.4	19.6	-94.6	0.0
2025-01-18 08:28:01.019978	7.3	19.8	-94.7	0.0
2025-01-18 08:28:02.140164	7.2	19.9	-94.3	0.0
2025-01-18 08:28:03.261216	7.1	20.0	-94.4	0.0
2025-01-18 08:28:04.382393	7.1	20.2	-94.4	0.0
2025-01-18 08:28:05.505609	7.0	20.3	-94.4	0.0
2025-01-18 08:28:06.625276	6.9	20.5	-94.7	0.0
2025-01-18 08:28:07.747695	6.8	20.6	-94.5	0.0
2025-01-18 08:28:08.867809	6.7	20.8	-94.7	0.0
2025-01-18 08:28:09.990629	6.7	20.9	-94.7	0.0
2025-01-18 08:28:11.114702	6.6	21.0	-94.7	0.0
2025-01-18 08:28:12.235646	6.5	21.2	-94.7	0.0
2025-01-18 08:28:13.357432	6.4	21.3	-94.8	0.0
2025-01-18 08:28:14.480922	6.3	21.5	-94.6	0.0
2025-01-18 08:28:15.604960	6.2	21.6	-94.6	0.0
2025-01-18 08:28:16.726451	6.2	21.8	-94.6	0.0
2025-01-18 08:28:17.848080	6.1	21.9	-94.6	0.0
2025-01-18 08:28:18.970460	6.0	22.1	-94.9	0.0
2025-01-18 08:28:20.090142	5.9	22.2	-95.0	0.0
2025-01-18 08:28:21.211480	5.8	22.4	-94.7	0.0
2025-01-18 08:28:22.331416	5.7	22.5	-94.7	0.0
2025-01-18 08:28:23.453911	5.6	22.7	-94.7	0.0
2025-01-18 08:28:24.572191	5.5	22.8	-94.7	0.0
2025-01-18 08:28:25.693345	5.4	23.0	-95.0	0.0
2025-01-18 08:28:26.814626	5.3	23.1	-94.6	0.0
2025-01-18 08:28:27.936649	5.2	23.3	-94.7	0.0
2025-01-18 08:28:29.057795	5.1	23.4	-94.8	0.0
2025-01-18 08:28:30.177580	5.0	23.6	-94.9	0.0
2025-01-18 08:28:31.298166	4.9	23.8	-94.7	0.0
2025-01-18 08:28:32.418930	4.8	23.9	-94.9	0.0
2025-01-18 08:28:33.540492	4.7	24.1	-94.6	0.0
2025-01-18 08:28:34.662555	4.6	24.2	-94.8	0.0
2025-01-18 08:28:35.783534	4.5	24.4	-94.9	0.0
2025-01-18 08:28:36.905517	4.4	24.6	-94.9	0.0
2025-01-18 08:28:38.026530	4.3	24.7	-94.9	0.0
2025-01-18 08:28:39.147186	4.2	24.9	-94.8	0.0
2025-01-18 08:28:40.267187	4.1	25.1	-94.7	0.0
2025-01-18 08:28:41.390403	4.0	25.2	-94.8	0.0
2025-01-18 08:28:42.510664	3.9	25.4	-94.7	0.0
2025-01-18 08:28:43.631776	3.8	25.6	-94.9	0.0
2025-01-18 08:28:44.754469	3.7	25.7	-94.9	0.0
2025-01-18 08:28:45.875797	3.5	25.9	-94.7	0.0
2025-01-18 08:28:46.993631	3.4	26.1	-94.7	0.0
2025-01-18 08:28:48.114973	3.3	26.2	-94.6	0.0
2025-01-18 08:28:49.235399	3.2	26.4	-94.9	0.0
2025-01-18 08:28:50.356375	3.1	26.6	-94.9	0.0
2025-01-18 08:28:51.478136	2.9	26.8	-94.7	0.0
2025-01-18 08:28:52.599918	2.8	26.9	-94.5	0.0
2025-01-18 08:28:53.719599	2.7	27.1	-94.6	0.0
2025-01-18 08:28:54.840649	2.6	27.3	-94.6	0.0
2025-01-18 08:28:55.961961	2.5	27.5	-94.7	0.0
2025-01-18 08:28:57.082528	2.3	27.7	-94.5	0.0
2025-01-18 08:28:58.204042	2.2	27.8	-94.6	0.0
2025-01-18 08:28:59.325291	2.1	28.0	-94.8	0.0
2025-01-18 08:29:00.447125	1.9	28.2	-94.6	0.0
2025-01-18 08:29:01.567783	1.8	28.4	-94.9	0.0
2025-01-18 08:29:02.691873	1.7	28.6	-94.7	0.0
2025-01-18 08:29:03.813256	1.5	28.8	-94.9	0.0
2025-01-18 08:29:04.934663	1.4	28.9	-94.8	0.0
2025-01-18 08:29:06.056291	1.2	29.1	-95.0	0.0
2025-01-18 08:29:07.175907	1.1	29.3	-95.0	0.0
2025-01-18 08:29:08.298037	1.0	29.5	-94.8	0.0
2025-01-18 08:29:09.420419	0.8	29.7	-94.7	0.0
2025-01-18 08:29:10.541115	0.7	29.9	-94.8	0.0
2025-01-18 08:29:11.660803	0.5	30.1	-95.0	0.0
2025-01-18 08:29:12.782046	0.4	30.3	-95.0	0.0
2025-01-18 08:29:13.902922	0.2	30.5	-94.8	0.0
2025-01-18 08:29:15.025520	0.1	30.7	-94.7	0.0
2025-01-18 08:29:16.146011	359.9	30.9	-95.0	0.0
2025-01-18 08:29:17.266616	359.7	31.1	-95.0	0.0
2025-01-18 08:29:18.386502	359.6	31.3	-94.9	0.0
2025-01-18 08:29:19.505406	359.4	31.5	-94.7	0.0
2025-01-18 08:29:20.629026	359.3	31.7	-94.6	0.0
2025-01-18 08:29:21.749887	359.1	31.9	-94.9	0.0
2025-01-18 08:29:22.871315	358.9	32.1	-95.0	0.0
2025-01-18 08:29:23.993281	358.7	32.3	-94.6	0.0
2025-01-18 08:29:25.114784	358.6	32.5	-94.9	0.0
2025-01-18 08:29:26.235624	358.4	32.7	-94.7	0.0
2025-01-18 08:29:27.356306	358.2	32.9	-94.8	0.0
2025-01-18 08:29:28.477580	358.0	33.1	-94.5	0.0
2025-01-18 08:29:29.596029	357.9	33.3	-94.7	0.0
2025-01-18 08:29:30.716095	357.7	33.5	-94.7	0.0
2025-01-18 08:29:31.836590	357.5	33.7	-94.6	0.0
2025-01-18 08:29:32.957276	357.3	34.0	-94.7	0.0
2025-01-18 08:29:34.080548	357.1	34.2	-94.7	0.0
2025-01-18 08:29:35.199809	356.9	34.4	-94.9	0.0
2025-01-18 08:29:36.319632	356.7	34.6	-94.5	0.0
2025-01-18 08:29:37.439998	356.5	34.8	-94.6	0.0
2025-01-18 08:29:38.563569	356.3	35.0	-94.7	0.0
2025-01-18 08:29:39.685493	356.1	35.3	-94.5	0.0
2025-01-18 08:29:40.806503	355.9	35.5	-94.6	0.0
2025-01-18 08:29:41.926671	355.7	35.7	-94.7	0.0
2025-01-18 08:29:43.050648	355.5	35.9	-94.8	0.0
2025-01-18 08:29:44.170452	355.2	36.2	-94.7	0.0
2025-01-18 08:29:45.290808	355.0	36.4	-94.3	0.0
2025-01-18 08:29:46.409717	354.8	36.6	-94.6	0.0
2025-01-18 08:29:47.529566	354.6	36.8	-94.8	0.0
2025-01-18 08:29:48.651417	354.3	37.1	-94.6	0.0
2025-01-18 08:29:49.772496	354.1	37.3	-94.7	0.0
2025-01-18 08:29:50.893521	353.9	37.5	-94.6	0.0
2025-01-18 08:29:52.013627	353.6	37.8	-94.7	0.0
2025-01-18 08:29:53.133450	353.4	38.0	-94.5	0.0
2025-01-18 08:29:54.254671	353.1	38.2	-94.7	0.0
2025-01-18 08:29:55.374175	352.9	38.5	-94.6	0.0
2025-01-18 08:29:56.493625	352.6	38.7	-94.5	0.0
2025-01-18 08:29:57.614626	352.4	38.9	-94.7	0.0
2025-01-18 08:29:58.735650	352.1	39.2	-94.7	0.0
2025-01-18 08:29:59.858360	351.8	39.4	-94.6	0.0
2025-01-18 08:30:00.980432	351.6	39.7	-94.6	0.0
2025-01-18 08:30:02.099494	351.3	39.9	-94.6	0.0
2025-01-18 08:30:03.221805	351.0	40.1	-94.5	0.0
2025-01-18 08:30:04.342473	350.7	40.4	-94.5	0.0
2025-01-18 08:30:05.462342	350.4	40.6	-94.7	0.0
2025-01-18 08:30:06.583315	350.1	40.9	-94.7	0.0
2025-01-18 08:30:07.701602	349.8	41.1	-94.7	0.0
2025-01-18 08:30:08.823589	349.5	41.4	-94.7	0.0
2025-01-18 08:30:09.944982	349.2	41.6	-94.8	0.0
2025-01-18 08:30:11.065077	348.9	41.9	-94.7	0.0
2025-01-18 08:30:12.186372	348.6	42.1	-94.6	0.0
2025-01-18 08:30:13.306231	348.3	42.3	-94.6	0.0
2025-01-18 08:30:14.427939	348.0	42.6	-94.4	0.0
2025-01-18 08:30:15.549555	347.6	42.8	-94.8	0.0
2025-01-18 08:30:16.670168	347.3	43.1	-94.7	0.0
2025-01-18 08:30:17.792521	347.0	43.4	-94.9	0.0
2025-01-18 08:30:18.915741	346.6	43.6	-95.0	0.0
2025-01-18 08:30:20.037259	346.3	43.9	-94.7	0.0
2025-01-18 08:30:21.159449	345.9	44.1	-94.8	0.0
2025-01-18 08:30:22.279248	345.5	44.4	-95.1	0.0
2025-01-18 08:30:23.400618	345.2	44.6	-95.0	0.0
2025-01-18 08:30:24.522327	344.8	44.9	-95.0	0.0
2025-01-18 08:30:25.643180	344.4	45.1	-94.7	0.0
2025-01-18 08:30:26.763580	344.0	45.4	-94.9	0.0
2025-01-18 08:30:27.884078	343.6	45.6	-95.0	0.0
2025-01-18 08:30:29.003763	343.2	45.9	-94.9	0.0
2025-01-18 08:30:30.125835	342.8	46.1	-94.8	0.0
2025-01-18 08:30:31.248651	342.4	46.4	-94.7	0.0
2025-01-18 08:30:32.370738	342.0	46.6	-94.8	0.0
2025-01-18 08:30:33.492473	341.6	46.9	-94.6	0.0
2025-01-18 08:30:34.612961	341.1	47.1	-94.7	0.0
2025-01-18 08:30:35.730746	340.7	47.4	-94.9	0.0
2025-01-18 08:30:36.850716	340.2	47.7	-94.8	0.0
2025-01-18 08:30:37.972495	339.8	47.9	-94.7	0.0
2025-01-18 08:30:39.091661	339.3	48.2	-94.7	0.0
2025-01-18 08:30:40.213083	338.8	48.4	-94.7	0.0
2025-01-18 08:30:41.332759	338.4	48.7	-95.1	0.0
2025-01-18 08:30:42.455347	337.9	48.9	-94.6	0.0
2025-01-18 08:30:43.578913	337.4	49.2	-94.6	0.0
2025-01-18 08:30:44.699107	336.9	49.4	-94.6	0.0
2025-01-18 08:30:45.820419	336.4	49.6	-94.6	0.0
2025-01-18 08:30:46.940649	335.8	49.9	-94.4	0.0
2025-01-18 08:30:48.061978	335.3	50.1	-94.6	0.0
2025-01-18 08:30:49.183257	334.8	50.4	-94.6	0.0
2025-01-18 08:30:50.305423	334.2	50.6	-94.6	0.0
2025-01-18 08:30:51.427752	333.7	50.9	-94.5	0.0
2025-01-18 08:30:52.548454	333.1	51.1	-94.4	0.0
2025-01-18 08:30:53.670370	332.5	51.3	-94.4	0.0
2025-01-18 08:30:54.790969	332.0	51.6	-94.6	0.0
2025-01-18 08:30:55.911281	331.4	51.8	-94.6	0.0
2025-01-18 08:30:57.032631	330.8	52.0	-95.0	0.0
2025-01-18 08:30:58.151824	330.2	52.3	-94.4	0.0
2025-01-18 08:30:59.274645	329.5	52.5	-94.5	0.0
2025-01-18 08:31:00.396156	328.9	52.7	-94.9	0.0
2025-01-18 08:31:01.516052	328.3	52.9	-94.7	0.0
2025-01-18 08:31:02.636514	327.6	53.1	-94.6	0.0
2025-01-18 08:31:03.757650	327.0	53.4	-95.1	0.0
2025-01-18 08:31:04.877600	326.3	53.6	-94.7	0.0
2025-01-18 08:31:05.999503	325.6	53.8	-94.8	0.0
2025-01-18 08:31:07.123665	324.9	54.0	-94.6	0.0
2025-01-18 08:31:08.244282	324.3	54.2	-94.8	0.0
2025-01-18 08:31:09.365215	323.5	54.4	-94.8	0.0
2025-01-18 08:31:10.485618	322.8	54.6	-94.9	0.0
2025-01-18 08:31:11.605494	322.1	54.8	-94.7	0.0
2025-01-18 08:31:12.725725	321.4	55.0	-95.2	0.0
2025-01-18 08:31:13.848722	320.6	55.1	-95.0	0.0
2025-01-18 08:31:14.968600	319.9	55.3	-95.0	0.0
2025-01-18 08:31:16.089996	319.1	55.5	-94.8	0.0
2025-01-18 08:31:17.208241	318.3	55.7	-94.7	0.0
2025-01-18 08:31:18.329068	317.6	55.8	-94.9	0.0
2025-01-18 08:31:19.450212	316.8	56.0	-95.0	0.0
2025-01-18 08:31:20.571964	316.0	56.1	-94.7	0.0
2025-01-18 08:31:21.695322	315.2	56.3	-94.7	0.0
2025-01-18 08:31:22.815479	314.3	56.4	-95.0	0.0
2025-01-18 08:31:23.936378	313.5	56.6	-94.7	0.0
2025-01-18 08:31:25.056685	312.7	56.7	-94.5	0.0
2025-01-18 08:31:26.178137	311.8	56.8	-94.9	0.0
2025-01-18 08:31:27.299577	311.0	57.0	-94.9	0.0
2025-01-18 08:31:28.421373	310.1	57.1	-94.9	0.0
2025-01-18 08:31:29.539514	309.3	57.2	-94.7	0.0
2025-01-18 08:31:30.661566	308.4	57.3	-94.6	0.0
2025-01-18 08:31:31.781812	307.5	57.4	-94.6	0.0
2025-01-18 08:31:32.901515	306.6	57.5	-94.8	0.0
2025-01-18 08:31:34.023804	305.7	57.6	-94.7	0.0
2025-01-18 08:31:35.145181	304.8	57.6	-94.6	0.0
2025-01-18 08:31:36.265545	303.9	57.7	-94.6	0.0
2025-01-18 08:31:37.385475	303.0	57.8	-94.5	0.0
2025-01-18 08:31:38.505845	302.1	57.8	-94.6	0.0
2025-01-18 08:31:39.627232	301.2	57.9	-94.8	0.0
2025-01-18 08:31:40.748434	300.3	57.9	-94.6	0.0
2025-01-18 08:31:41.868078	299.4	58.0	-94.6	0.0
2025-01-18 08:31:42.988919	298.5	58.0	-94.5	0.0
2025-01-18 08:31:44.107948	297.5	58.0	-94.9	0.0
2025-01-18 08:31:45.229275	296.6	58.0	-94.7	0.0
2025-01-18 08:31:46.349981	295.7	58.1	-94.6	0.0
2025-01-18 08:31:47.470563	294.8	58.1	-94.5	0.0
2025-01-18 08:31:48.593656	293.8	58.1	-94.5	0.0
2025-01-18 08:31:49.713234	292.9	58.0	-94.6	0.0
2025-01-18 08:31:50.833777	292.0	58.0	-94.6	0.0
2025-01-18 08:31:51.954137	291.1	58.0	-94.7	0.0
2025-01-18 08:31:53.076267	290.1	58.0	-94.6	0.0
2025-01-18 08:31:54.198119	289.2	57.9	-94.4	0.0
2025-01-18 08:31:55.318593	288.3	57.9	-94.7	0.0
2025-01-18 08:31:56.439219	287.4	57.8	-94.7	0.0
2025-01-18 08:31:57.561297	286.5	57.8	-94.7	0.0
2025-01-18 08:31:58.683880	285.6	57.7	-94.9	0.0
2025-01-18 08:31:59.803907	284.7	57.6	-94.7	0.0
2025-01-18 08:32:00.926580	283.8	57.6	-94.7	0.0
2025-01-18 08:32:02.047040	282.9	57.5	-94.8	0.0
2025-01-18 08:32:03.167196	282.0	57.4	-94.8	0.0
2025-01-18 08:32:04.290073	281.1	57.3	-94.7	0.0
2025-01-18 08:32:05.411249	280.2	57.2	-95.0	0.0
2025-01-18 08:32:06.531193	279.4	57.1	-94.6	0.0
2025-01-18 08:32:07.653895	278.5	56.9	-94.8	0.0
2025-01-18 08:32:08.773647	277.7	56.8	-95.0	0.0
2025-01-18 08:32:09.894482	276.8	56.7	-94.9	0.0
2025-01-18 08:32:11.018054	276.0	56.6	-94.9	0.0
2025-01-18 08:32:12.137945	275.2	56.4	-94.9	0.0
2025-01-18 08:32:13.258132	274.4	56.3	-95.1	0.0
2025-01-18 08:32:14.379909	273.5	56.1	-95.0	0.0
2025-01-18 08:32:15.501039	272.7	56.0	-94.9	0.0
2025-01-18 08:32:16.621361	272.0	55.8	-94.9	0.0
2025-01-18 08:32:17.740839	271.2	55.6	-95.0	0.0
2025-01-18 08:32:18.861571	270.4	55.5	-94.7	0.0
2025-01-18 08:32:19.983777	269.6	55.3	-94.9	0.0
2025-01-18 08:32:21.104679	268.9	55.1	-95.0	0.0
2025-01-18 08:32:22.227500	268.1	54.9	-95.0	0.0
2025-01-18 08:32:23.349242	267.4	54.8	-94.9	0.0
2025-01-18 08:32:24.467973	266.7	54.6	-94.9	0.0
2025-01-18 08:32:25.589924	266.0	54.4	-94.9	0.0
2025-01-18 08:32:26.711334	265.3	54.2	-94.5	0.0
2025-01-18 08:32:27.831354	264.6	54.0	-94.7	0.0
2025-01-18 08:32:28.952855	263.9	53.8	-94.8	0.0
2025-01-18 08:32:30.073711	263.2	53.5	-94.6	0.0
2025-01-18 08:32:31.193928	262.5	53.3	-94.7	0.0
2025-01-18 08:32:32.315578	261.9	53.1	-94.6	0.0
2025-01-18 08:32:33.434970	261.2	52.9	-94.5	0.0
2025-01-18 08:32:34.555663	260.6	52.7	-94.7	0.0
2025-01-18 08:32:35.676921	260.0	52.5	-94.8	0.0
2025-01-18 08:32:36.798510	259.4	52.2	-94.8	0.0
2025-01-18 08:32:37.918567	258.7	52.0	-94.4	0.0
2025-01-18 08:32:39.042277	258.1	51.8	-94.6	0.0
2025-01-18 08:32:40.162681	257.6	51.5	-94.7	0.0
2025-01-18 08:32:41.284479	257.0	51.3	-94.6	0.0
2025-01-18 08:32:42.405823	256.4	51.1	-94.5	0.0
2025-01-18 08:32:43.525805	255.8	50.8	-94.6	0.0
2025-01-18 08:32:44.647634	255.3	50.6	-94.7	0.0
2025-01-18 08:32:45.769266	254.7	50.4	-94.5	0.0
2025-01-18 08:32:46.892351	254.2	50.1	-94.7	0.0
2025-01-18 08:32:48.014154	253.7	49.9	-94.8	0.0
2025-01-18 08:32:49.134361	253.2	49.6	-94.8	0.0
2025-01-18 08:32:50.254727	252.6	49.4	-94.9	0.0
2025-01-18 08:32:51.374255	252.1	49.1	-94.4	0.0
2025-01-18 08:32:52.496595	251.6	48.9	-94.8	0.0
2025-01-18 08:32:53.617478	251.2	48.6	-94.9	0.0
2025-01-18 08:32:54.737993	250.7	48.4	-94.8	0.0
2025-01-18 08:32:55.860631	250.2	48.1	-94.9	0.0
2025-01-18 08:32:56.983740	249.7	47.9	-94.9	0.0
2025-01-18 08:32:58.104770	249.3	47.6	-94.9	0.0
2025-01-18 08:32:59.224509	248.8	47.4	-94.8	0.0
2025-01-18 08:33:00.345952	248.4	47.1	-94.7	0.0
2025-01-18 08:33:01.466083	248.0	46.9	-94.9	0.0
2025-01-18 08:33:02.587334	247.5	46.6	-95.0	0.0
2025-01-18 08:33:03.707457	247.1	46.4	-94.9	0.0
2025-01-18 08:33:04.828260	246.7	46.1	-94.8	0.0
2025-01-18 08:33:05.950861	246.3	45.9	-94.7	0.0
2025-01-18 08:33:07.072793	245.9	45.6	-94.9	0.0
2025-01-18 08:33:08.198173	245.5	45.3	-94.9	0.0
2025-01-18 08:33:09.318459	245.1	45.1	-94.6	0.0
2025-01-18 08:33:10.439914	244.7	44.8	-94.7	0.0
2025-01-18 08:33:11.559812	244.4	44.6	-94.9	0.0
2025-01-18 08:33:12.682075	244.0	44.3	-94.6	0.0
2025-01-18 08:33:13.803087	243.6	44.1	-94.9	0.0
2025-01-18 08:33:14.924104	243.3	43.8	-95.0	0.0
2025-01-18 08:33:16.043669	242.9	43.6	-94.8	0.0
2025-01-18 08:33:17.164872	242.6	43.3	-94.9	0.0
2025-01-18 08:33:18.287625	242.2	43.1	-94.8	0.0
2025-01-18 08:33:19.407825	241.9	42.8	-95.0	0.0
2025-01-18 08:33:20.529700	241.6	42.6	-94.9	0.0
2025-01-18 08:33:21.651211	241.2	42.3	-94.9	0.0
2025-01-18 08:33:22.770593	240.9	42.1	-94.7	0.0
2025-01-18 08:33:23.893540	240.6	41.8	-94.9	0.0
2025-01-18 08:33:25.014432	240.3	41.6	-95.0	0.0
2025-01-18 08:33:26.134915	240.0	41.3	-95.0	0.0
2025-01-18 08:33:27.254188	239.7	41.1	-94.7	0.0
2025-01-18 08:33:28.376278	239.4	40.8	-94.5	0.0
2025-01-18 08:33:29.497709	239.1	40.6	-94.8	0.0
2025-01-18 08:33:30.617086	238.8	40.3	-95.0	0.0
2025-01-18 08:33:31.737823	238.5	40.1	-94.9	0.0
2025-01-18 08:33:32.860558	238.2	39.9	-94.8	0.0
2025-01-18 08:33:33.983460	238.0	39.6	-94.9	0.0
2025-01-18 08:33:35.104530	237.7	39.4	-94.9	0.0
2025-01-18 08:33:36.226687	237.4	39.1	-94.6	0.0
2025-01-18 08:33:37.346927	237.2	38.9	-94.7	0.0
2025-01-18 08:33:38.464494	236.9	38.7	-94.6	0.0
2025-01-18 08:33:39.585481	236.7	38.4	-94.9	0.0
2025-01-18 08:33:40.707649	236.4	38.2	-94.9	0.0
2025-01-18 08:33:41.829478	236.2	38.0	-94.8	0.0
2025-01-18 08:33:42.950058	235.9	37.7	-94.9	0.0
2025-01-18 08:33:44.071563	235.7	37.5	-94.9	0.0
2025-01-18 08:33:45.193460	235.4	37.3	-94.9	0.0
2025-01-18 08:33:46.315112	235.2	37.0	-94.9	0.0
2025-01-18 08:33:47.434762	235.0	36.8	-94.7	0.0
2025-01-18 08:33:48.556647	234.7	36.6	-94.8	0.0
2025-01-18 08:33:49.678066	234.5	36.3	-94.9	0.0
2025-01-18 08:33:50.800444	234.3	36.1	-95.4	0.0
2025-01-18 08:33:51.919517	234.1	35.9	-95.0	0.0
2025-01-18 08:33:53.041639	233.9	35.7	-94.9	0.0
2025-01-18 08:33:54.163500	233.6	35.5	-94.9	0.0
2025-01-18 08:33:55.284622	233.4	35.2	-94.9	0.0
2025-01-18 08:33:56.405790	233.2	35.0	-94.9	0.0
2025-01-18 08:33:57.528982	233.0	34.8	-95.2	0.0
2025-01-18 08:33:58.650524	232.8	34.6	-95.0	0.0
2025-01-18 08:33:59.770606	232.6	34.4	-94.8	0.0
2025-01-18 08:34:00.891966	232.4	34.1	-95.0	0.0
2025-01-18 08:34:02.014518	232.2	33.9	-95.1	0.0
2025-01-18 08:34:03.134547	232.0	33.7	-95.1	0.0
2025-01-18 08:34:04.255406	231.9	33.5	-95.2	0.0
2025-01-18 08:34:05.374636	231.7	33.3	-95.0	0.0
2025-01-18 08:34:06.496576	231.5	33.1	-95.0	0.0
2025-01-18 08:34:07.617220	231.3	32.9	-95.1	0.0
2025-01-18 08:34:08.739413	231.1	32.7	-95.1	0.0
2025-01-18 08:34:09.860313	231.0	32.4	-94.9	0.0
2025-01-18 08:34:10.982983	230.8	32.2	-95.0	0.0
2025-01-18 08:34:12.104114	230.6	32.0	-94.9	0.0
2025-01-18 08:34:13.223852	230.4	31.8	-94.8	0.0
2025-01-18 08:34:14.346121	230.3	31.6	-94.8	0.0
2025-01-18 08:34:15.467762	230.1	31.4	-94.6	0.0
2025-01-18 08:34:16.590075	229.9	31.2	-94.7	0.0
2025-01-18 08:34:17.711081	229.8	31.0	-94.6	0.0
2025-01-18 08:34:18.832396	229.6	30.8	-94.7	0.0
2025-01-18 08:34:19.951787	229.5	30.6	-94.8	0.0
2025-01-18 08:34:21.071589	229.3	30.4	-94.7	0.0
2025-01-18 08:34:22.193353	229.2	30.2	-94.8	0.0
2025-01-18 08:34:23.313605	229.0	30.0	-94.7	0.0
2025-01-18 08:34:24.433314	228.9	29.9	-94.9	0.0
2025-01-18 08:34:25.552807	228.7	29.7	-94.8	0.0
2025-01-18 08:34:26.672835	228.6	29.5	-94.8	0.0
2025-01-18 08:34:27.792784	228.4	29.3	-94.7	0.0
2025-01-18 08:34:28.913915	228.3	29.1	-94.6	0.0
2025-01-18 08:34:30.033838	228.1	28.9	-95.0	0.0
2025-01-18 08:34:31.153752	228.0	28.7	-94.8	0.0
2025-01-18 08:34:32.274711	227.9	28.5	-94.9	0.0
2025-01-18 08:34:33.397734	227.7	28.3	-94.8	0.0
2025-01-18 08:34:34.518674	227.6	28.2	-94.9	0.0
2025-01-18 08:34:35.639591	227.5	28.0	-95.0	0.0
2025-01-18 08:34:36.760608	227.3	27.8	-94.8	0.0
2025-01-18 08:34:37.881727	227.2	27.6	-94.5	0.0
2025-01-18 08:34:39.001969	227.1	27.4	-94.8	0.0
2025-01-18 08:34:40.122351	226.9	27.3	-94.8	0.0
2025-01-18 08:34:41.246214	226.8	27.1	-95.0	0.0
2025-01-18 08:34:42.367980	226.7	26.9	-94.9	0.0
2025-01-18 08:34:43.491666	226.6	26.7	-95.0	0.0
2025-01-18 08:34:44.615518	226.4	26.6	-94.8	0.0
2025-01-18 08:34:45.737556	226.3	26.4	-95.1	0.0
2025-01-18 08:34:46.858905	226.2	26.2	-95.0	0.0
2025-01-18 08:34:47.978605	226.1	26.0	-95.0	0.0
2025-01-18 08:34:49.099175	226.0	25.9	-95.3	0.0
2025-01-18 08:34:50.222068	225.9	25.7	-95.0	0.0
2025-01-18 08:34:51.341514	225.7	25.5	-94.8	0.0
2025-01-18 08:34:52.462712	225.6	25.4	-94.9	0.0
2025-01-18 08:34:53.584026	225.5	25.2	-95.0	0.0
2025-01-18 08:34:54.704149	225.4	25.0	-95.1	0.0
2025-01-18 08:34:55.827132	225.3	24.9	-94.7	0.0
2025-01-18 08:34:56.947297	225.2	24.7	-95.2	0.0
2025-01-18 08:34:58.067499	225.1	24.5	-94.8	0.0
2025-01-18 08:34:59.189489	225.0	24.4	-95.0	0.0
2025-01-18 08:35:00.310737	224.9	24.2	-94.8	0.0
2025-01-18 08:35:01.429743	224.8	24.0	-95.0	0.0
2025-01-18 08:35:02.551905	224.7	23.9	-95.1	0.0
2025-01-18 08:35:03.672565	224.6	23.7	-94.8	0.0
2025-01-18 08:35:04.793478	224.5	23.6	-94.8	0.0
2025-01-18 08:35:05.913522	224.4	23.4	-94.7	0.0
2025-01-18 08:35:07.035395	224.3	23.3	-94.7	0.0
2025-01-18 08:35:08.155625	224.2	23.1	-95.0	0.0
2025-01-18 08:35:09.280623	224.1	22.9	-94.7	0.0
2025-01-18 08:35:10.402843	224.0	22.8	-94.9	0.0
2025-01-18 08:35:11.526572	223.9	22.6	-94.7	0.0
2025-01-18 08:35:12.650518	223.8	22.5	-95.0	0.0
2025-01-18 08:35:13.769884	223.7	22.3	-95.0	0.0
2025-01-18 08:35:14.893016	223.6	22.2	-94.8	0.0
2025-01-18 08:35:16.014523	223.5	22.0	-94.8	0.0
2025-01-18 08:35:17.135328	223.4	21.9	-94.8	0.0
2025-01-18 08:35:18.257635	223.3	21.7	-94.8	0.0
2025-01-18 08:35:19.379021	223.3	21.6	-94.9	0.0
2025-01-18 08:35:20.500177	223.2	21.4	-95.0	0.0
2025-01-18 08:35:21.620417	223.1	21.3	-94.8	0.0
2025-01-18 08:35:22.741455	223.0	21.2	-94.8	0.0
2025-01-18 08:35:23.862381	222.9	21.0	-94.9	0.0
2025-01-18 08:35:24.982292	222.8	20.9	-95.0	0.0
2025-01-18 08:35:26.100669	222.7	20.7	-95.1	0.0
2025-01-18 08:35:27.220745	222.7	20.6	-94.9	0.0
2025-01-18 08:35:28.339575	222.6	20.4	-95.0	0.0
2025-01-18 08:35:29.461862	222.5	20.3	-95.0	0.0
2025-01-18 08:35:30.584298	222.4	20.2	-95.1	0.0
2025-01-18 08:35:31.703564	222.3	20.0	-95.1	0.0
2025-01-18 08:35:32.824649	222.3	19.9	-95.2	0.0
2025-01-18 08:35:33.945674	222.2	19.7	-95.0	0.0
2025-01-18 08:35:35.065223	222.1	19.6	-95.0	0.0
2025-01-18 08:35:36.187102	222.0	19.5	-95.0	0.0
2025-01-18 08:35:37.308549	222.0	19.3	-95.1	0.0
2025-01-18 08:35:38.428463	221.9	19.2	-95.0	0.0
2025-01-18 08:35:39.550604	221.8	19.1	-94.8	0.0
2025-01-18 08:35:40.671558	221.7	18.9	-94.7	0.0
2025-01-18 08:35:41.792541	221.7	18.8	-95.2	0.0
2025-01-18 08:35:42.914714	221.6	18.7	-94.9	0.0
2025-01-18 08:35:44.035093	221.5	18.5	-95.1	0.0
2025-01-18 08:35:45.156500	221.4	18.4	-95.0	0.0
2025-01-18 08:35:46.279238	221.4	18.3	-94.9	0.0
2025-01-18 08:35:47.399824	221.3	18.1	-95.0	0.0
2025-01-18 08:35:48.521666	221.2	18.0	-95.0	0.0
2025-01-18 08:35:49.642753	221.2	17.9	-94.6	0.0
2025-01-18 08:35:50.763667	221.1	17.7	-94.9	0.0
2025-01-18 08:35:51.885649	221.0	17.6	-95.0	0.0
2025-01-18 08:35:53.006177	221.0	17.5	-95.0	0.0
2025-01-18 08:35:54.127413	220.9	17.4	-94.8	0.0
2025-01-18 08:35:55.248037	220.8	17.2	-95.0	0.0
2025-01-18 08:35:56.369893	220.8	17.1	-94.7	0.0
2025-01-18 08:35:57.492293	220.7	17.0	-95.0	0.0
2025-01-18 08:35:58.615491	220.6	16.9	-94.9	0.0
2025-01-18 08:35:59.736905	220.6	16.7	-95.2	0.0
2025-01-18 08:36:00.857396	220.5	16.6	-94.8	0.0
2025-01-18 08:36:01.978654	220.5	16.5	-94.8	0.0
2025-01-18 08:36:03.099127	220.4	16.4	-94.9	0.0
2025-01-18 08:36:04.219973	220.3	16.3	-94.9	0.0
2025-01-18 08:36:05.340330	220.3	16.1	-94.9	0.0
2025-01-18 08:36:06.460590	220.2	16.0	-94.8	0.0
2025-01-18 08:36:07.582524	220.2	15.9	-95.0	0.0
2025-01-18 08:36:08.701563	220.1	15.8	-94.9	0.0
2025-01-18 08:36:09.822459	220.0	15.7	-95.0	0.0
2025-01-18 08:36:10.942720	220.0	15.5	-94.9	0.0
2025-01-18 08:36:12.064175	219.9	15.4	-94.9	0.0
2025-01-18 08:36:13.184183	219.9	15.3	-95.0	0.0
2025-01-18 08:36:14.302877	219.8	15.2	-95.0	0.0
2025-01-18 08:36:15.423489	219.8	15.1	-95.0	0.0
2025-01-18 08:36:16.543027	219.7	15.0	-94.9	0.0
2025-01-18 08:36:17.660928	219.6	14.8	-94.9	0.0
2025-01-18 08:36:18.781514	219.6	14.7	-95.1	0.0
2025-01-18 08:36:19.901491	219.5	14.6	-94.7	0.0
2025-01-18 08:36:21.021977	219.5	14.5	-95.1	0.0
2025-01-18 08:36:22.143351	219.4	14.4	-95.0	0.0
2025-01-18 08:36:23.263169	219.4	14.3	-95.1	0.0
2025-01-18 08:36:24.384577	219.3	14.2	-94.7	0.0
2025-01-18 08:36:25.505067	219.3	14.1	-95.0	0.0
2025-01-18 08:36:26.628561	219.2	14.0	-95.0	0.0
2025-01-18 08:36:27.748648	219.2	13.8	-94.9	0.0
2025-01-18 08:36:28.869887	219.1	13.7	-94.7	0.0
2025-01-18 08:36:29.991011	219.1	13.6	-95.0	0.0
2025-01-18 08:36:31.112576	219.0	13.5	-94.9	0.0
2025-01-18 08:36:32.235621	219.0	13.4	-94.7	0.0
2025-01-18 08:36:33.358647	218.9	13.3	-94.8	0.0
2025-01-18 08:36:34.477885	218.9	13.2	-94.8	0.0
2025-01-18 08:36:35.598490	218.8	13.1	-94.7	0.0
2025-01-18 08:36:36.719499	218.8	13.0	-94.9	0.0
2025-01-18 08:36:37.838037	218.7	12.9	-94.9	0.0
2025-01-18 08:36:38.960228	218.7	12.8	-95.0	0.0
2025-01-18 08:36:40.083198	218.6	12.7	-94.7	0.0
2025-01-18 08:36:41.203056	218.6	12.6	-94.7	0.0
2025-01-18 08:36:42.324063	218.5	12.4	-94.7	0.0
2025-01-18 08:36:43.444012	218.5	12.3	-95.0	0.0
2025-01-18 08:36:44.564667	218.4	12.2	-94.8	0.0
2025-01-18 08:36:45.686842	218.4	12.1	-94.9	0.0
2025-01-18 08:36:46.809638	218.3	12.0	-94.6	0.0
2025-01-18 08:36:47.932242	218.3	11.9	-94.8	0.0
2025-01-18 08:36:49.051739	218.3	11.8	-95.1	0.0
2025-01-18 08:36:50.172512	218.2	11.7	-94.9	0.0
2025-01-18 08:36:51.292175	218.2	11.6	-94.8	0.0
2025-01-18 08:36:52.411721	218.1	11.5	-95.0	0.0
2025-01-18 08:36:53.533985	218.1	11.4	-95.0	0.0
2025-01-18 08:36:54.655967	218.0	11.3	-94.7	0.0
2025-01-18 08:36:55.777271	218.0	11.2	-94.9	0.0
2025-01-18 08:36:56.897096	217.9	11.1	-95.0	0.0
2025-01-18 08:36:58.016973	217.9	11.0	-94.9	0.0
2025-01-18 08:36:59.137293	217.9	10.9	-94.7	0.0
2025-01-18 08:37:00.259658	217.8	10.8	-94.7	0.0
2025-01-18 08:37:01.381096	217.8	10.7	-95.1	0.0
2025-01-18 08:37:02.501519	217.7	10.6	-94.8	0.0
2025-01-18 08:37:03.623788	217.7	10.5	-95.0	0.0
2025-01-18 08:37:04.743397	217.7	10.4	-94.8	0.0
2025-01-18 08:37:05.864518	217.6	10.3	-94.9	0.0
2025-01-18 08:37:06.985884	217.6	10.3	-95.0	0.0
2025-01-18 08:37:08.107091	217.5	10.2	-94.7	0.0
2025-01-18 08:37:09.229189	217.5	10.1	-94.8	0.0
2025-01-18 08:37:10.350542	217.5	10.0	-95.1	0.0
#Closed at: 2025-01-18 08:26:19.692657