passes_logs/2025/01/18/planumMaritime01/planumMaritime01__20250118_103157_NOAA_18_rec.log

#Pass ID: 20250118_103157_NOAA 18
#Satellite: NOAA 18
#Configuration: NOAA 18
#Start time: 2025-01-18 10:32:02.462358

#LorettStation: 1.0.0 05.05.2024
#Station: planumMaritime01
#Location: 37.49445 lon 55.92918 lat
#TLE: 1 28654U 05018A   25017.14480960  .00000361  00000+0  21486-3 0  9999
#TLE: 2 28654  98.8562  98.1779 0014463 173.1209 187.0164 14.13488310 13483

#Time	Az	El	Level	SNR
2025-01-18 10:32:04.615914	2.0	10.2	-94.7	0.0
2025-01-18 10:32:05.736806	1.9	10.2	-94.6	0.0
2025-01-18 10:32:06.858814	1.8	10.3	-94.7	0.0
2025-01-18 10:32:07.979942	1.7	10.4	-94.6	0.0
2025-01-18 10:32:09.100123	1.6	10.5	-94.5	0.0
2025-01-18 10:32:10.220710	1.5	10.6	-94.6	0.0
2025-01-18 10:32:11.343813	1.4	10.6	-94.5	0.0
2025-01-18 10:32:12.463880	1.2	10.7	-94.5	0.0
2025-01-18 10:32:13.584397	1.1	10.8	-94.5	0.0
2025-01-18 10:32:14.705740	1.0	10.9	-94.6	0.0
2025-01-18 10:32:15.827094	0.9	11.0	-94.9	0.0
2025-01-18 10:32:16.948181	0.8	11.0	-94.8	0.0
2025-01-18 10:32:18.067635	0.7	11.1	-94.6	0.0
2025-01-18 10:32:19.187026	0.5	11.2	-94.7	0.0
2025-01-18 10:32:20.308413	0.4	11.3	-94.6	0.0
2025-01-18 10:32:21.430426	0.3	11.4	-94.8	0.0
2025-01-18 10:32:22.552010	0.2	11.5	-94.6	0.0
2025-01-18 10:32:23.673203	0.1	11.5	-94.4	0.0
2025-01-18 10:32:24.793685	359.9	11.6	-94.6	0.0
2025-01-18 10:32:25.915729	359.8	11.7	-94.6	0.0
2025-01-18 10:32:27.037446	359.7	11.8	-94.8	0.0
2025-01-18 10:32:28.158839	359.6	11.9	-94.6	0.0
2025-01-18 10:32:29.280720	359.4	12.0	-94.8	0.0
2025-01-18 10:32:30.400828	359.3	12.0	-94.7	0.0
2025-01-18 10:32:31.522000	359.2	12.1	-94.7	0.0
2025-01-18 10:32:32.641288	359.1	12.2	-95.0	0.0
2025-01-18 10:32:33.758820	358.9	12.3	-94.7	0.0
2025-01-18 10:32:34.882953	358.8	12.4	-94.6	0.0
2025-01-18 10:32:36.002483	358.7	12.5	-94.7	0.0
2025-01-18 10:32:37.123884	358.5	12.5	-94.7	0.0
2025-01-18 10:32:38.245505	358.4	12.6	-94.8	0.0
2025-01-18 10:32:39.365798	358.3	12.7	-94.6	0.0
2025-01-18 10:32:40.485447	358.1	12.8	-94.7	0.0
2025-01-18 10:32:41.605585	358.0	12.9	-94.5	0.0
2025-01-18 10:32:42.724187	357.9	13.0	-94.5	0.0
2025-01-18 10:32:43.845851	357.7	13.0	-94.7	0.0
2025-01-18 10:32:44.968617	357.6	13.1	-94.7	0.0
2025-01-18 10:32:46.088802	357.5	13.2	-94.5	0.0
2025-01-18 10:32:47.211527	357.3	13.3	-94.4	0.0
2025-01-18 10:32:48.332526	357.2	13.4	-94.6	0.0
2025-01-18 10:32:49.451322	357.0	13.5	-94.6	0.0
2025-01-18 10:32:50.572095	356.9	13.6	-94.7	0.0
2025-01-18 10:32:51.690235	356.8	13.6	-94.6	0.0
2025-01-18 10:32:52.811558	356.6	13.7	-94.6	0.0
2025-01-18 10:32:53.932019	356.5	13.8	-94.7	0.0
2025-01-18 10:32:55.051825	356.3	13.9	-94.5	0.0
2025-01-18 10:32:56.173831	356.2	14.0	-94.7	0.0
2025-01-18 10:32:57.296690	356.0	14.1	-94.6	0.0
2025-01-18 10:32:58.415237	355.9	14.2	-94.7	0.0
2025-01-18 10:32:59.535967	355.8	14.2	-94.5	0.0
2025-01-18 10:33:00.659476	355.6	14.3	-94.7	0.0
2025-01-18 10:33:01.780786	355.5	14.4	-94.5	0.0
2025-01-18 10:33:02.902838	355.3	14.5	-94.7	0.0
2025-01-18 10:33:04.024141	355.2	14.6	-94.7	0.0
2025-01-18 10:33:05.147144	355.0	14.7	-94.8	0.0
2025-01-18 10:33:06.266858	354.8	14.8	-94.9	0.0
2025-01-18 10:33:07.386977	354.7	14.9	-94.8	0.0
2025-01-18 10:33:08.507425	354.5	14.9	-94.7	0.0
2025-01-18 10:33:09.628335	354.4	15.0	-94.8	0.0
2025-01-18 10:33:10.748475	354.2	15.1	-94.8	0.0
2025-01-18 10:33:11.870739	354.1	15.2	-94.7	0.0
2025-01-18 10:33:12.991913	353.9	15.3	-94.7	0.0
2025-01-18 10:33:14.113406	353.8	15.4	-94.7	0.0
2025-01-18 10:33:15.234444	353.6	15.5	-94.6	0.0
2025-01-18 10:33:16.353967	353.4	15.6	-94.8	0.0
2025-01-18 10:33:17.473030	353.3	15.7	-94.6	0.0
2025-01-18 10:33:18.591479	353.1	15.7	-94.7	0.0
2025-01-18 10:33:19.714726	352.9	15.8	-94.7	0.0
2025-01-18 10:33:20.835969	352.8	15.9	-94.8	0.0
2025-01-18 10:33:21.956913	352.6	16.0	-94.7	0.0
2025-01-18 10:33:23.078658	352.4	16.1	-94.6	0.0
2025-01-18 10:33:24.199557	352.3	16.2	-94.7	0.0
2025-01-18 10:33:25.318909	352.1	16.3	-94.7	0.0
2025-01-18 10:33:26.442022	351.9	16.4	-94.7	0.0
2025-01-18 10:33:27.560974	351.8	16.4	-94.5	0.0
2025-01-18 10:33:28.681307	351.6	16.5	-94.8	0.0
2025-01-18 10:33:29.803466	351.4	16.6	-94.6	0.0
2025-01-18 10:33:30.923240	351.2	16.7	-94.6	0.0
2025-01-18 10:33:32.042407	351.1	16.8	-94.6	0.0
2025-01-18 10:33:33.162801	350.9	16.9	-94.5	0.0
2025-01-18 10:33:34.281881	350.7	17.0	-94.4	0.0
2025-01-18 10:33:35.403618	350.5	17.1	-94.4	0.0
2025-01-18 10:33:36.525761	350.4	17.2	-94.7	0.0
2025-01-18 10:33:37.644811	350.2	17.3	-94.5	0.0
2025-01-18 10:33:38.767393	350.0	17.3	-94.3	0.0
2025-01-18 10:33:39.887430	349.8	17.4	-94.3	0.0
2025-01-18 10:33:41.006444	349.6	17.5	-94.7	0.0
2025-01-18 10:33:42.126745	349.4	17.6	-94.7	0.0
2025-01-18 10:33:43.248345	349.3	17.7	-94.4	0.0
2025-01-18 10:33:44.369292	349.1	17.8	-94.7	0.0
2025-01-18 10:33:45.488796	348.9	17.9	-94.5	0.0
2025-01-18 10:33:46.610151	348.7	18.0	-94.4	0.0
2025-01-18 10:33:47.730626	348.5	18.1	-94.6	0.0
2025-01-18 10:33:48.851543	348.3	18.1	-94.4	0.0
2025-01-18 10:33:49.974470	348.1	18.2	-94.5	0.0
2025-01-18 10:33:51.095925	347.9	18.3	-94.4	0.0
2025-01-18 10:33:52.218453	347.7	18.4	-94.5	0.0
2025-01-18 10:33:53.341148	347.5	18.5	-94.7	0.0
2025-01-18 10:33:54.462658	347.3	18.6	-94.6	0.0
2025-01-18 10:33:55.582205	347.1	18.7	-94.8	0.0
2025-01-18 10:33:56.704741	346.9	18.8	-94.8	0.0
2025-01-18 10:33:57.825868	346.7	18.9	-94.8	0.0
2025-01-18 10:33:58.946092	346.5	19.0	-94.7	0.0
2025-01-18 10:34:00.066708	346.3	19.0	-94.5	0.0
2025-01-18 10:34:01.188406	346.1	19.1	-94.8	0.0
2025-01-18 10:34:02.310549	345.9	19.2	-94.8	0.0
2025-01-18 10:34:03.432024	345.7	19.3	-94.7	0.0
2025-01-18 10:34:04.552110	345.5	19.4	-94.8	0.0
2025-01-18 10:34:05.673701	345.3	19.5	-94.9	0.0
2025-01-18 10:34:06.795510	345.1	19.6	-94.8	0.0
2025-01-18 10:34:07.917042	344.9	19.7	-94.7	0.0
2025-01-18 10:34:09.037430	344.7	19.7	-95.0	0.0
2025-01-18 10:34:10.159115	344.4	19.8	-94.9	0.0
2025-01-18 10:34:11.280223	344.2	19.9	-94.9	0.0
2025-01-18 10:34:12.400767	344.0	20.0	-94.7	0.0
2025-01-18 10:34:13.521691	343.8	20.1	-94.5	0.0
2025-01-18 10:34:14.643945	343.6	20.2	-94.6	0.0
2025-01-18 10:34:15.765623	343.3	20.3	-94.9	0.0
2025-01-18 10:34:16.887786	343.1	20.4	-94.7	0.0
2025-01-18 10:34:18.010424	342.9	20.5	-95.0	0.0
2025-01-18 10:34:19.132588	342.7	20.5	-94.9	0.0
2025-01-18 10:34:20.253786	342.4	20.6	-95.0	0.0
2025-01-18 10:34:21.373659	342.2	20.7	-94.9	0.0
2025-01-18 10:34:22.496423	342.0	20.8	-94.8	0.0
2025-01-18 10:34:23.617750	341.8	20.9	-95.1	0.0
2025-01-18 10:34:24.738410	341.5	21.0	-94.8	0.0
2025-01-18 10:34:25.860775	341.3	21.1	-95.0	0.0
2025-01-18 10:34:26.982114	341.1	21.1	-94.8	0.0
2025-01-18 10:34:28.103500	340.8	21.2	-94.8	0.0
2025-01-18 10:34:29.225653	340.6	21.3	-94.6	0.0
2025-01-18 10:34:30.345875	340.4	21.4	-94.7	0.0
2025-01-18 10:34:31.469083	340.1	21.5	-94.5	0.0
2025-01-18 10:34:32.590920	339.9	21.6	-94.5	0.0
2025-01-18 10:34:33.712697	339.6	21.7	-94.6	0.0
2025-01-18 10:34:34.834508	339.4	21.7	-94.7	0.0
2025-01-18 10:34:35.959437	339.1	21.8	-94.9	0.0
2025-01-18 10:34:37.082842	338.9	21.9	-94.8	0.0
2025-01-18 10:34:38.202288	338.6	22.0	-94.8	0.0
2025-01-18 10:34:39.324269	338.4	22.1	-94.6	0.0
2025-01-18 10:34:40.445619	338.1	22.2	-94.7	0.0
2025-01-18 10:34:41.566919	337.9	22.2	-95.0	0.0
2025-01-18 10:34:42.688679	337.6	22.3	-94.8	0.0
2025-01-18 10:34:43.811781	337.4	22.4	-95.0	0.0
2025-01-18 10:34:44.933850	337.1	22.5	-95.0	0.0
2025-01-18 10:34:46.054078	336.9	22.6	-94.8	0.0
2025-01-18 10:34:47.176147	336.6	22.6	-94.6	0.0
2025-01-18 10:34:48.297726	336.4	22.7	-94.5	0.0
2025-01-18 10:34:49.419196	336.1	22.8	-94.6	0.0
2025-01-18 10:34:50.539990	335.8	22.9	-94.9	0.0
2025-01-18 10:34:51.660380	335.6	23.0	-94.7	0.0
2025-01-18 10:34:52.781428	335.3	23.0	-94.5	0.0
2025-01-18 10:34:53.902831	335.0	23.1	-94.8	0.0
2025-01-18 10:34:55.024823	334.8	23.2	-94.8	0.0
2025-01-18 10:34:56.145039	334.5	23.3	-94.7	0.0
2025-01-18 10:34:57.267635	334.2	23.4	-94.8	0.0
2025-01-18 10:34:58.388157	334.0	23.4	-94.5	0.0
2025-01-18 10:34:59.509338	333.7	23.5	-94.6	0.0
2025-01-18 10:35:00.630693	333.4	23.6	-94.6	0.0
2025-01-18 10:35:01.751871	333.1	23.7	-94.6	0.0
2025-01-18 10:35:02.871921	332.9	23.7	-94.6	0.0
2025-01-18 10:35:03.991927	332.6	23.8	-94.5	0.0
2025-01-18 10:35:05.114086	332.3	23.9	-94.7	0.0
2025-01-18 10:35:06.235545	332.0	23.9	-94.7	0.0
2025-01-18 10:35:07.357055	331.7	24.0	-94.7	0.0
2025-01-18 10:35:08.478813	331.4	24.1	-94.7	0.0
2025-01-18 10:35:09.600564	331.2	24.2	-94.6	0.0
2025-01-18 10:35:10.720145	330.9	24.2	-94.5	0.0
2025-01-18 10:35:11.842960	330.6	24.3	-94.8	0.0
2025-01-18 10:35:12.965197	330.3	24.4	-94.7	0.0
2025-01-18 10:35:14.086873	330.0	24.4	-94.8	0.0
2025-01-18 10:35:15.207367	329.7	24.5	-94.6	0.0
2025-01-18 10:35:16.330007	329.4	24.6	-94.6	0.0
2025-01-18 10:35:17.450711	329.1	24.6	-94.6	0.0
2025-01-18 10:35:18.574764	328.8	24.7	-94.4	0.0
2025-01-18 10:35:19.696772	328.5	24.8	-94.4	0.0
2025-01-18 10:35:20.819808	328.2	24.8	-94.6	0.0
2025-01-18 10:35:21.940074	327.9	24.9	-94.8	0.0
2025-01-18 10:35:23.062090	327.6	25.0	-95.1	0.0
2025-01-18 10:35:24.185045	327.3	25.0	-95.0	0.0
2025-01-18 10:35:25.307474	327.0	25.1	-95.0	0.0
2025-01-18 10:35:26.428714	326.7	25.2	-94.9	0.0
2025-01-18 10:35:27.547882	326.4	25.2	-94.9	0.0
2025-01-18 10:35:28.670115	326.1	25.3	-94.8	0.0
2025-01-18 10:35:29.789889	325.8	25.3	-95.1	0.0
2025-01-18 10:35:30.911979	325.5	25.4	-95.0	0.0
2025-01-18 10:35:32.035638	325.2	25.4	-94.8	0.0
2025-01-18 10:35:33.157025	324.9	25.5	-94.8	0.0
2025-01-18 10:35:34.278633	324.6	25.6	-94.7	0.0
2025-01-18 10:35:35.400040	324.3	25.6	-94.5	0.0
2025-01-18 10:35:36.519748	323.9	25.7	-95.0	0.0
2025-01-18 10:35:37.640965	323.6	25.7	-94.9	0.0
2025-01-18 10:35:38.763028	323.3	25.8	-94.8	0.0
2025-01-18 10:35:39.883813	323.0	25.8	-94.8	0.0
2025-01-18 10:35:41.007841	322.7	25.9	-94.7	0.0
2025-01-18 10:35:42.129094	322.3	25.9	-94.7	0.0
2025-01-18 10:35:43.250491	322.0	26.0	-94.6	0.0
2025-01-18 10:35:44.373141	321.7	26.0	-94.7	0.0
2025-01-18 10:35:45.492011	321.4	26.1	-94.5	0.0
2025-01-18 10:35:46.614167	321.1	26.1	-94.7	0.0
2025-01-18 10:35:47.735895	320.7	26.2	-94.9	0.0
2025-01-18 10:35:48.855439	320.4	26.2	-94.5	0.0
2025-01-18 10:35:49.976638	320.1	26.2	-94.6	0.0
2025-01-18 10:35:51.098312	319.8	26.3	-94.6	0.0
2025-01-18 10:35:52.219287	319.4	26.3	-94.9	0.0
2025-01-18 10:35:53.341639	319.1	26.4	-94.7	0.0
2025-01-18 10:35:54.464224	318.8	26.4	-94.9	0.0
2025-01-18 10:35:55.586669	318.4	26.4	-94.7	0.0
2025-01-18 10:35:56.709472	318.1	26.5	-94.8	0.0
2025-01-18 10:35:57.829935	317.8	26.5	-94.8	0.0
2025-01-18 10:35:58.951801	317.4	26.6	-94.8	0.0
2025-01-18 10:36:00.072528	317.1	26.6	-94.8	0.0
2025-01-18 10:36:01.192533	316.8	26.6	-94.8	0.0
2025-01-18 10:36:02.315284	316.4	26.7	-94.8	0.0
2025-01-18 10:36:03.437418	316.1	26.7	-94.8	0.0
2025-01-18 10:36:04.558299	315.8	26.7	-94.8	0.0
2025-01-18 10:36:05.680432	315.4	26.7	-94.7	0.0
2025-01-18 10:36:06.801934	315.1	26.8	-95.0	0.0
2025-01-18 10:36:07.926523	314.7	26.8	-94.7	0.0
2025-01-18 10:36:09.049567	314.4	26.8	-94.9	0.0
2025-01-18 10:36:10.169990	314.1	26.9	-95.0	0.0
2025-01-18 10:36:11.290997	313.7	26.9	-95.1	0.0
2025-01-18 10:36:12.415946	313.4	26.9	-94.9	0.0
2025-01-18 10:36:13.538986	313.0	26.9	-95.1	0.0
2025-01-18 10:36:14.658574	312.7	26.9	-95.0	0.0
2025-01-18 10:36:15.781783	312.4	27.0	-94.8	0.0
2025-01-18 10:36:16.904110	312.0	27.0	-94.8	0.0
2025-01-18 10:36:18.026169	311.7	27.0	-94.6	0.0
2025-01-18 10:36:19.147855	311.3	27.0	-94.6	0.0
2025-01-18 10:36:20.268038	311.0	27.0	-94.5	0.0
2025-01-18 10:36:21.391965	310.6	27.0	-94.6	0.0
2025-01-18 10:36:22.514309	310.3	27.1	-94.9	0.0
2025-01-18 10:36:23.634937	310.0	27.1	-94.6	0.0
2025-01-18 10:36:24.756751	309.6	27.1	-94.9	0.0
2025-01-18 10:36:25.880722	309.3	27.1	-94.9	0.0
2025-01-18 10:36:27.001152	308.9	27.1	-95.0	0.0
2025-01-18 10:36:28.123216	308.6	27.1	-94.8	0.0
2025-01-18 10:36:29.245260	308.2	27.1	-94.9	0.0
2025-01-18 10:36:30.369325	307.9	27.1	-94.8	0.0
2025-01-18 10:36:31.487692	307.5	27.1	-94.9	0.0
2025-01-18 10:36:32.608838	307.2	27.1	-94.7	0.0
2025-01-18 10:36:33.728645	306.8	27.1	-94.8	0.0
2025-01-18 10:36:34.850782	306.5	27.1	-94.8	0.0
2025-01-18 10:36:35.973595	306.2	27.1	-94.8	0.0
2025-01-18 10:36:37.097510	305.8	27.1	-94.9	0.0
2025-01-18 10:36:38.218984	305.5	27.1	-94.8	0.0
2025-01-18 10:36:39.337493	305.1	27.1	-94.9	0.0
2025-01-18 10:36:40.457657	304.8	27.1	-94.8	0.0
2025-01-18 10:36:41.579461	304.4	27.1	-94.7	0.0
2025-01-18 10:36:42.699822	304.1	27.1	-94.7	0.0
2025-01-18 10:36:43.820984	303.7	27.1	-95.0	0.0
2025-01-18 10:36:44.940102	303.4	27.1	-95.0	0.0
2025-01-18 10:36:46.062300	303.0	27.0	-95.0	0.0
2025-01-18 10:36:47.183800	302.7	27.0	-94.7	0.0
2025-01-18 10:36:48.306881	302.4	27.0	-94.9	0.0
2025-01-18 10:36:49.427431	302.0	27.0	-94.8	0.0
2025-01-18 10:36:50.549706	301.7	27.0	-95.0	0.0
2025-01-18 10:36:51.672808	301.3	27.0	-95.1	0.0
2025-01-18 10:36:52.794599	301.0	27.0	-95.3	0.0
2025-01-18 10:36:53.914769	300.6	26.9	-94.8	0.0
2025-01-18 10:36:55.036638	300.3	26.9	-95.1	0.0
2025-01-18 10:36:56.157129	300.0	26.9	-94.8	0.0
2025-01-18 10:36:57.277647	299.6	26.9	-94.9	0.0
2025-01-18 10:36:58.400258	299.3	26.8	-94.8	0.0
2025-01-18 10:36:59.520886	298.9	26.8	-95.1	0.0
2025-01-18 10:37:00.642169	298.6	26.8	-95.0	0.0
2025-01-18 10:37:01.762987	298.3	26.8	-94.7	0.0
2025-01-18 10:37:02.883325	297.9	26.7	-94.7	0.0
2025-01-18 10:37:04.004969	297.6	26.7	-95.0	0.0
2025-01-18 10:37:05.128092	297.2	26.7	-94.6	0.0
2025-01-18 10:37:06.252042	296.9	26.6	-94.6	0.0
2025-01-18 10:37:07.372511	296.6	26.6	-94.6	0.0
2025-01-18 10:37:08.492130	296.2	26.6	-94.9	0.0
2025-01-18 10:37:09.613932	295.9	26.5	-94.8	0.0
2025-01-18 10:37:10.737142	295.6	26.5	-94.9	0.0
2025-01-18 10:37:11.857526	295.2	26.5	-94.6	0.0
2025-01-18 10:37:12.980249	294.9	26.4	-94.6	0.0
2025-01-18 10:37:14.102476	294.6	26.4	-94.8	0.0
2025-01-18 10:37:15.222930	294.2	26.4	-94.9	0.0
2025-01-18 10:37:16.343163	293.9	26.3	-95.0	0.0
2025-01-18 10:37:17.465342	293.6	26.3	-95.0	0.0
2025-01-18 10:37:18.585268	293.3	26.2	-94.9	0.0
2025-01-18 10:37:19.707001	292.9	26.2	-95.0	0.0
2025-01-18 10:37:20.828316	292.6	26.1	-95.0	0.0
2025-01-18 10:37:21.950258	292.3	26.1	-95.1	0.0
2025-01-18 10:37:23.071521	291.9	26.0	-95.0	0.0
2025-01-18 10:37:24.192935	291.6	26.0	-94.7	0.0
2025-01-18 10:37:25.316799	291.3	25.9	-94.9	0.0
2025-01-18 10:37:26.435713	291.0	25.9	-94.9	0.0
2025-01-18 10:37:27.557551	290.7	25.8	-94.8	0.0
2025-01-18 10:37:28.680174	290.3	25.8	-94.6	0.0
2025-01-18 10:37:29.801373	290.0	25.7	-94.5	0.0
2025-01-18 10:37:30.922304	289.7	25.7	-94.8	0.0
2025-01-18 10:37:32.044340	289.4	25.6	-94.9	0.0
2025-01-18 10:37:33.166752	289.1	25.6	-94.7	0.0
2025-01-18 10:37:34.287438	288.8	25.5	-94.5	0.0
2025-01-18 10:37:35.410330	288.4	25.5	-94.5	0.0
2025-01-18 10:37:36.531090	288.1	25.4	-94.8	0.0
2025-01-18 10:37:37.653958	287.8	25.4	-94.8	0.0
2025-01-18 10:37:38.776006	287.5	25.3	-94.5	0.0
2025-01-18 10:37:39.897923	287.2	25.2	-94.9	0.0
2025-01-18 10:37:41.019658	286.9	25.2	-94.9	0.0
2025-01-18 10:37:42.140745	286.6	25.1	-94.6	0.0
2025-01-18 10:37:43.259919	286.3	25.1	-94.9	0.0
2025-01-18 10:37:44.380912	286.0	25.0	-94.5	0.0
2025-01-18 10:37:45.501534	285.7	24.9	-94.9	0.0
2025-01-18 10:37:46.619932	285.4	24.9	-94.6	0.0
2025-01-18 10:37:47.741791	285.1	24.8	-94.9	0.0
2025-01-18 10:37:48.860806	284.8	24.7	-94.8	0.0
2025-01-18 10:37:49.982642	284.5	24.7	-94.7	0.0
2025-01-18 10:37:51.104092	284.2	24.6	-94.8	0.0
2025-01-18 10:37:52.225238	283.9	24.5	-94.7	0.0
2025-01-18 10:37:53.347113	283.6	24.5	-94.7	0.0
2025-01-18 10:37:54.469663	283.3	24.4	-94.9	0.0
2025-01-18 10:37:55.589956	283.0	24.3	-94.7	0.0
2025-01-18 10:37:56.712048	282.7	24.3	-94.9	0.0
2025-01-18 10:37:57.833466	282.4	24.2	-94.7	0.0
2025-01-18 10:37:58.953773	282.1	24.1	-94.8	0.0
2025-01-18 10:38:00.075098	281.9	24.0	-94.9	0.0
2025-01-18 10:38:01.198162	281.6	24.0	-94.7	0.0
2025-01-18 10:38:02.319276	281.3	23.9	-94.6	0.0
2025-01-18 10:38:03.441467	281.0	23.8	-94.9	0.0
2025-01-18 10:38:04.562844	280.7	23.8	-94.7	0.0
2025-01-18 10:38:05.684541	280.4	23.7	-95.0	0.0
2025-01-18 10:38:06.805797	280.2	23.6	-94.9	0.0
2025-01-18 10:38:07.925301	279.9	23.5	-95.0	0.0
2025-01-18 10:38:09.047798	279.6	23.5	-95.0	0.0
2025-01-18 10:38:10.167467	279.3	23.4	-94.9	0.0
2025-01-18 10:38:11.288365	279.1	23.3	-94.9	0.0
2025-01-18 10:38:12.408804	278.8	23.2	-94.8	0.0
2025-01-18 10:38:13.526438	278.5	23.1	-94.8	0.0
2025-01-18 10:38:14.648343	278.3	23.1	-94.5	0.0
2025-01-18 10:38:15.769570	278.0	23.0	-94.7	0.0
2025-01-18 10:38:16.890888	277.7	22.9	-94.9	0.0
2025-01-18 10:38:18.012965	277.5	22.8	-94.7	0.0
2025-01-18 10:38:19.132842	277.2	22.7	-95.0	0.0
2025-01-18 10:38:20.254410	276.9	22.7	-94.9	0.0
2025-01-18 10:38:21.377108	276.7	22.6	-95.0	0.0
2025-01-18 10:38:22.498440	276.4	22.5	-94.9	0.0
2025-01-18 10:38:23.618765	276.2	22.4	-95.0	0.0
2025-01-18 10:38:24.738133	275.9	22.3	-94.7	0.0
2025-01-18 10:38:25.859015	275.6	22.3	-95.0	0.0
2025-01-18 10:38:26.979967	275.4	22.2	-94.9	0.0
2025-01-18 10:38:28.101670	275.1	22.1	-94.7	0.0
2025-01-18 10:38:29.222082	274.9	22.0	-94.7	0.0
2025-01-18 10:38:30.342978	274.6	21.9	-95.1	0.0
2025-01-18 10:38:31.465236	274.4	21.8	-94.9	0.0
2025-01-18 10:38:32.585002	274.1	21.8	-94.7	0.0
2025-01-18 10:38:33.706111	273.9	21.7	-94.6	0.0
2025-01-18 10:38:34.826072	273.6	21.6	-94.7	0.0
2025-01-18 10:38:35.948815	273.4	21.5	-95.2	0.0
2025-01-18 10:38:37.069112	273.2	21.4	-94.8	0.0
2025-01-18 10:38:38.191273	272.9	21.3	-94.7	0.0
2025-01-18 10:38:39.312017	272.7	21.2	-94.6	0.0
2025-01-18 10:38:40.431809	272.4	21.2	-94.8	0.0
2025-01-18 10:38:41.553704	272.2	21.1	-94.6	0.0
2025-01-18 10:38:42.674545	272.0	21.0	-94.8	0.0
2025-01-18 10:38:43.795140	271.7	20.9	-94.7	0.0
2025-01-18 10:38:44.914510	271.5	20.8	-94.7	0.0
2025-01-18 10:38:46.034972	271.3	20.7	-94.8	0.0
2025-01-18 10:38:47.155094	271.0	20.6	-94.9	0.0
2025-01-18 10:38:48.277469	270.8	20.5	-94.6	0.0
2025-01-18 10:38:49.398308	270.6	20.5	-94.9	0.0
2025-01-18 10:38:50.517298	270.4	20.4	-94.6	0.0
2025-01-18 10:38:51.637439	270.1	20.3	-94.6	0.0
2025-01-18 10:38:52.758270	269.9	20.2	-94.7	0.0
2025-01-18 10:38:53.880917	269.7	20.1	-94.8	0.0
2025-01-18 10:38:55.003488	269.5	20.0	-94.8	0.0
2025-01-18 10:38:56.123435	269.2	19.9	-94.6	0.0
2025-01-18 10:38:57.246579	269.0	19.8	-94.6	0.0
2025-01-18 10:38:58.369988	268.8	19.8	-94.8	0.0
2025-01-18 10:38:59.491694	268.6	19.7	-94.7	0.0
2025-01-18 10:39:00.612828	268.4	19.6	-94.8	0.0
2025-01-18 10:39:01.732757	268.2	19.5	-94.6	0.0
2025-01-18 10:39:02.854921	268.0	19.4	-94.8	0.0
2025-01-18 10:39:03.975799	267.7	19.3	-95.0	0.0
2025-01-18 10:39:05.099092	267.5	19.2	-94.9	0.0
2025-01-18 10:39:06.218862	267.3	19.1	-94.7	0.0
2025-01-18 10:39:07.342415	267.1	19.0	-94.9	0.0
2025-01-18 10:39:08.464300	266.9	18.9	-95.0	0.0
2025-01-18 10:39:09.584801	266.7	18.9	-94.8	0.0
2025-01-18 10:39:10.706556	266.5	18.8	-95.0	0.0
2025-01-18 10:39:11.825836	266.3	18.7	-95.0	0.0
2025-01-18 10:39:12.944728	266.1	18.6	-94.8	0.0
2025-01-18 10:39:14.063558	265.9	18.5	-94.7	0.0
2025-01-18 10:39:15.185349	265.7	18.4	-95.2	0.0
2025-01-18 10:39:16.307334	265.5	18.3	-95.1	0.0
2025-01-18 10:39:17.426940	265.3	18.2	-95.1	0.0
2025-01-18 10:39:18.548330	265.1	18.1	-94.7	0.0
2025-01-18 10:39:19.669997	264.9	18.0	-94.9	0.0
2025-01-18 10:39:20.790188	264.7	18.0	-95.1	0.0
2025-01-18 10:39:21.912917	264.5	17.9	-95.0	0.0
2025-01-18 10:39:23.032885	264.3	17.8	-95.0	0.0
2025-01-18 10:39:24.154656	264.1	17.7	-94.6	0.0
2025-01-18 10:39:25.275254	264.0	17.6	-94.8	0.0
2025-01-18 10:39:26.397979	263.8	17.5	-94.9	0.0
2025-01-18 10:39:27.519956	263.6	17.4	-94.3	0.0
2025-01-18 10:39:28.641199	263.4	17.3	-94.5	0.0
2025-01-18 10:39:29.763808	263.2	17.2	-94.5	0.0
2025-01-18 10:39:30.883671	263.0	17.1	-94.8	0.0
2025-01-18 10:39:32.005788	262.8	17.1	-94.6	0.0
2025-01-18 10:39:33.126322	262.7	17.0	-94.5	0.0
2025-01-18 10:39:34.247622	262.5	16.9	-94.5	0.0
2025-01-18 10:39:35.368832	262.3	16.8	-94.6	0.0
2025-01-18 10:39:36.490966	262.1	16.7	-94.8	0.0
2025-01-18 10:39:37.613953	262.0	16.6	-95.1	0.0
2025-01-18 10:39:38.732612	261.8	16.5	-94.6	0.0
2025-01-18 10:39:39.852924	261.6	16.4	-94.6	0.0
2025-01-18 10:39:40.974651	261.4	16.3	-94.7	0.0
2025-01-18 10:39:42.097348	261.3	16.2	-94.9	0.0
2025-01-18 10:39:43.223252	261.1	16.2	-94.9	0.0
2025-01-18 10:39:44.344121	260.9	16.1	-94.9	0.0
2025-01-18 10:39:45.466491	260.7	16.0	-94.9	0.0
2025-01-18 10:39:46.587763	260.6	15.9	-95.1	0.0
2025-01-18 10:39:47.710542	260.4	15.8	-94.7	0.0
2025-01-18 10:39:48.830092	260.2	15.7	-94.8	0.0
2025-01-18 10:39:49.953380	260.1	15.6	-94.8	0.0
2025-01-18 10:39:51.074529	259.9	15.5	-95.1	0.0
2025-01-18 10:39:52.195904	259.8	15.4	-94.9	0.0
2025-01-18 10:39:53.318034	259.6	15.3	-94.9	0.0
2025-01-18 10:39:54.439169	259.4	15.3	-94.8	0.0
2025-01-18 10:39:55.559477	259.3	15.2	-94.9	0.0
2025-01-18 10:39:56.681814	259.1	15.1	-94.7	0.0
2025-01-18 10:39:57.804406	258.9	15.0	-94.9	0.0
2025-01-18 10:39:58.925447	258.8	14.9	-94.8	0.0
2025-01-18 10:40:00.045425	258.6	14.8	-94.7	0.0
2025-01-18 10:40:01.165827	258.5	14.7	-94.7	0.0
2025-01-18 10:40:02.286416	258.3	14.6	-94.8	0.0
2025-01-18 10:40:03.407786	258.2	14.5	-94.7	0.0
2025-01-18 10:40:04.530133	258.0	14.5	-94.6	0.0
2025-01-18 10:40:05.650270	257.9	14.4	-94.7	0.0
2025-01-18 10:40:06.772757	257.7	14.3	-94.9	0.0
2025-01-18 10:40:07.894439	257.6	14.2	-95.0	0.0
2025-01-18 10:40:09.016681	257.4	14.1	-94.8	0.0
2025-01-18 10:40:10.137428	257.3	14.0	-94.8	0.0
2025-01-18 10:40:11.258765	257.1	13.9	-94.9	0.0
2025-01-18 10:40:12.379867	257.0	13.8	-94.8	0.0
2025-01-18 10:40:13.501594	256.8	13.8	-94.9	0.0
2025-01-18 10:40:14.621447	256.7	13.7	-94.9	0.0
2025-01-18 10:40:15.742990	256.5	13.6	-95.0	0.0
2025-01-18 10:40:16.864501	256.4	13.5	-94.9	0.0
2025-01-18 10:40:17.988914	256.3	13.4	-94.6	0.0
2025-01-18 10:40:19.110615	256.1	13.3	-94.7	0.0
2025-01-18 10:40:20.231394	256.0	13.2	-94.8	0.0
2025-01-18 10:40:21.351527	255.8	13.2	-94.9	0.0
2025-01-18 10:40:22.474246	255.7	13.1	-94.8	0.0
2025-01-18 10:40:23.593495	255.6	13.0	-94.7	0.0
2025-01-18 10:40:24.716192	255.4	12.9	-94.8	0.0
2025-01-18 10:40:25.835345	255.3	12.8	-94.7	0.0
2025-01-18 10:40:26.954995	255.1	12.7	-94.8	0.0
2025-01-18 10:40:28.075825	255.0	12.6	-94.8	0.0
2025-01-18 10:40:29.196354	254.9	12.6	-94.9	0.0
2025-01-18 10:40:30.318368	254.7	12.5	-94.8	0.0
2025-01-18 10:40:31.440200	254.6	12.4	-94.9	0.0
2025-01-18 10:40:32.559875	254.5	12.3	-94.8	0.0
2025-01-18 10:40:33.679697	254.3	12.2	-94.8	0.0
2025-01-18 10:40:34.801053	254.2	12.1	-94.8	0.0
2025-01-18 10:40:35.922195	254.1	12.0	-94.9	0.0
2025-01-18 10:40:37.044376	254.0	12.0	-94.7	0.0
2025-01-18 10:40:38.162336	253.8	11.9	-94.7	0.0
2025-01-18 10:40:39.286521	253.7	11.8	-94.8	0.0
2025-01-18 10:40:40.408405	253.6	11.7	-94.9	0.0
2025-01-18 10:40:41.529852	253.4	11.6	-95.0	0.0
2025-01-18 10:40:42.651085	253.3	11.5	-95.0	0.0
2025-01-18 10:40:43.770720	253.2	11.5	-94.9	0.0
2025-01-18 10:40:44.888947	253.1	11.4	-95.0	0.0
2025-01-18 10:40:46.009411	252.9	11.3	-94.7	0.0
2025-01-18 10:40:47.128457	252.8	11.2	-95.0	0.0
2025-01-18 10:40:48.248688	252.7	11.1	-95.0	0.0
2025-01-18 10:40:49.372867	252.6	11.0	-94.8	0.0
2025-01-18 10:40:50.496424	252.5	11.0	-94.7	0.0
2025-01-18 10:40:51.618573	252.3	10.9	-95.0	0.0
2025-01-18 10:40:52.740089	252.2	10.8	-95.1	0.0
2025-01-18 10:40:53.860299	252.1	10.7	-94.9	0.0
2025-01-18 10:40:54.981727	252.0	10.6	-94.9	0.0
2025-01-18 10:40:56.104246	251.9	10.6	-94.9	0.0
2025-01-18 10:40:57.224933	251.8	10.5	-95.0	0.0
2025-01-18 10:40:58.345285	251.6	10.4	-95.0	0.0
2025-01-18 10:40:59.465414	251.5	10.3	-94.9	0.0
2025-01-18 10:41:00.586048	251.4	10.2	-94.9	0.0
2025-01-18 10:41:01.706415	251.3	10.1	-94.6	0.0
2025-01-18 10:41:02.826877	251.2	10.1	-94.9	0.0
2025-01-18 10:41:03.947618	251.1	10.0	-94.9	0.0
#Closed at: 2025-01-18 10:31:57.466090