passes_logs/2025/01/18/planumMaritime01/planumMaritime01__20250118_064552_NOAA_19_rec.log

#Pass ID: 20250118_064552_NOAA 19
#Satellite: NOAA 19
#Configuration: NOAA 19
#Start time: 2025-01-18 06:45:57.010027

#LorettStation: 1.0.0 05.05.2024
#Station: planumMaritime01
#Location: 37.49445 lon 55.92918 lat
#TLE: 1 33591U 09005A   25017.12803845  .00000314  00000+0  19161-3 0  9999
#TLE: 2 33591  99.0192  80.9069 0014403  51.8715 308.3753 14.13261185821848

#Time	Az	El	Level	SNR
2025-01-18 06:45:59.170564	31.6	10.2	-94.6	0.0
2025-01-18 06:46:00.290640	31.7	10.2	-94.2	0.0
2025-01-18 06:46:01.413548	31.8	10.3	-94.5	0.0
2025-01-18 06:46:02.533669	31.9	10.4	-94.7	0.0
2025-01-18 06:46:03.656142	32.0	10.5	-94.8	0.0
2025-01-18 06:46:04.776928	32.1	10.6	-94.9	0.0
2025-01-18 06:46:05.895643	32.2	10.7	-94.5	0.0
2025-01-18 06:46:07.015348	32.3	10.7	-94.5	0.0
2025-01-18 06:46:08.136463	32.4	10.8	-94.9	0.0
2025-01-18 06:46:09.259872	32.5	10.9	-94.8	0.0
2025-01-18 06:46:10.383649	32.6	11.0	-94.8	0.0
2025-01-18 06:46:11.503766	32.7	11.1	-94.7	0.0
2025-01-18 06:46:12.625447	32.8	11.2	-94.9	0.0
2025-01-18 06:46:13.745563	32.9	11.3	-94.8	0.0
2025-01-18 06:46:14.865485	33.0	11.3	-94.7	0.0
2025-01-18 06:46:15.985536	33.2	11.4	-94.9	0.0
2025-01-18 06:46:17.104254	33.3	11.5	-94.8	0.0
2025-01-18 06:46:18.222012	33.4	11.6	-94.6	0.0
2025-01-18 06:46:19.343619	33.5	11.7	-94.8	0.0
2025-01-18 06:46:20.463576	33.6	11.8	-95.0	0.0
2025-01-18 06:46:21.584310	33.7	11.9	-94.5	0.0
2025-01-18 06:46:22.705504	33.8	12.0	-94.8	0.0
2025-01-18 06:46:23.828367	34.0	12.0	-94.7	0.0
2025-01-18 06:46:24.949898	34.1	12.1	-94.9	0.0
2025-01-18 06:46:26.072623	34.2	12.2	-94.6	0.0
2025-01-18 06:46:27.193634	34.3	12.3	-94.6	0.0
2025-01-18 06:46:28.314669	34.4	12.4	-94.7	0.0
2025-01-18 06:46:29.436268	34.5	12.5	-94.6	0.0
2025-01-18 06:46:30.556285	34.7	12.6	-94.8	0.0
2025-01-18 06:46:31.679648	34.8	12.7	-94.7	0.0
2025-01-18 06:46:32.800383	34.9	12.7	-94.3	0.0
2025-01-18 06:46:33.921607	35.0	12.8	-94.9	0.0
2025-01-18 06:46:35.042231	35.1	12.9	-94.6	0.0
2025-01-18 06:46:36.163985	35.3	13.0	-94.8	0.0
2025-01-18 06:46:37.284407	35.4	13.1	-94.7	0.0
2025-01-18 06:46:38.403809	35.5	13.2	-94.4	0.0
2025-01-18 06:46:39.524247	35.6	13.3	-94.5	0.0
2025-01-18 06:46:40.647507	35.8	13.4	-95.0	0.0
2025-01-18 06:46:41.767228	35.9	13.5	-94.9	0.0
2025-01-18 06:46:42.888112	36.0	13.6	-94.6	0.0
2025-01-18 06:46:44.008577	36.1	13.7	-94.5	0.0
2025-01-18 06:46:45.127942	36.3	13.7	-94.6	0.0
2025-01-18 06:46:46.248461	36.4	13.8	-94.6	0.0
2025-01-18 06:46:47.369692	36.5	13.9	-94.6	0.0
2025-01-18 06:46:48.489025	36.7	14.0	-94.5	0.0
2025-01-18 06:46:49.609455	36.8	14.1	-94.9	0.0
2025-01-18 06:46:50.730429	36.9	14.2	-94.7	0.0
2025-01-18 06:46:51.852456	37.1	14.3	-94.4	0.0
2025-01-18 06:46:52.973867	37.2	14.4	-94.7	0.0
2025-01-18 06:46:54.095069	37.3	14.5	-94.7	0.0
2025-01-18 06:46:55.215633	37.5	14.6	-94.5	0.0
2025-01-18 06:46:56.337504	37.6	14.7	-94.3	0.0
2025-01-18 06:46:57.457789	37.7	14.8	-94.4	0.0
2025-01-18 06:46:58.578011	37.9	14.9	-94.6	0.0
2025-01-18 06:46:59.698762	38.0	15.0	-94.5	0.0
2025-01-18 06:47:00.819726	38.2	15.1	-94.7	0.0
2025-01-18 06:47:01.941870	38.3	15.1	-94.5	0.0
2025-01-18 06:47:03.064759	38.4	15.2	-94.6	0.0
2025-01-18 06:47:04.186375	38.6	15.3	-95.0	0.0
2025-01-18 06:47:05.309586	38.7	15.4	-94.7	0.0
2025-01-18 06:47:06.431119	38.9	15.5	-94.9	0.0
2025-01-18 06:47:07.552801	39.0	15.6	-94.9	0.0
2025-01-18 06:47:08.675032	39.2	15.7	-94.8	0.0
2025-01-18 06:47:09.795722	39.3	15.8	-94.6	0.0
2025-01-18 06:47:10.917799	39.5	15.9	-94.7	0.0
2025-01-18 06:47:12.039835	39.6	16.0	-94.6	0.0
2025-01-18 06:47:13.160296	39.8	16.1	-94.7	0.0
2025-01-18 06:47:14.282567	39.9	16.2	-94.7	0.0
2025-01-18 06:47:15.404749	40.1	16.3	-94.9	0.0
2025-01-18 06:47:16.523220	40.2	16.4	-94.7	0.0
2025-01-18 06:47:17.643973	40.4	16.5	-94.4	0.0
2025-01-18 06:47:18.766649	40.5	16.6	-94.8	0.0
2025-01-18 06:47:19.889127	40.7	16.7	-94.6	0.0
2025-01-18 06:47:21.009852	40.8	16.8	-94.8	0.0
2025-01-18 06:47:22.131158	41.0	16.9	-94.7	0.0
2025-01-18 06:47:23.251046	41.1	17.0	-94.8	0.0
2025-01-18 06:47:24.372789	41.3	17.1	-94.5	0.0
2025-01-18 06:47:25.493618	41.5	17.2	-94.8	0.0
2025-01-18 06:47:26.615438	41.6	17.3	-94.7	0.0
2025-01-18 06:47:27.736651	41.8	17.4	-94.6	0.0
2025-01-18 06:47:28.857788	42.0	17.5	-94.5	0.0
2025-01-18 06:47:29.980477	42.1	17.6	-94.8	0.0
2025-01-18 06:47:31.099515	42.3	17.7	-94.6	0.0
2025-01-18 06:47:32.222529	42.5	17.8	-94.7	0.0
2025-01-18 06:47:33.343005	42.6	17.9	-94.8	0.0
2025-01-18 06:47:34.464876	42.8	18.0	-94.6	0.0
2025-01-18 06:47:35.585721	43.0	18.1	-95.0	0.0
2025-01-18 06:47:36.705811	43.1	18.2	-94.4	0.0
2025-01-18 06:47:37.824998	43.3	18.3	-94.7	0.0
2025-01-18 06:47:38.945563	43.5	18.4	-94.8	0.0
2025-01-18 06:47:40.064237	43.6	18.5	-94.5	0.0
2025-01-18 06:47:41.183303	43.8	18.6	-94.5	0.0
2025-01-18 06:47:42.304926	44.0	18.7	-94.8	0.0
2025-01-18 06:47:43.422799	44.2	18.8	-94.7	0.0
2025-01-18 06:47:44.542770	44.4	18.9	-94.5	0.0
2025-01-18 06:47:45.664445	44.5	19.0	-94.7	0.0
2025-01-18 06:47:46.785761	44.7	19.1	-94.7	0.0
2025-01-18 06:47:47.907405	44.9	19.2	-94.6	0.0
2025-01-18 06:47:49.029647	45.1	19.3	-94.6	0.0
2025-01-18 06:47:50.149291	45.3	19.4	-95.1	0.0
2025-01-18 06:47:51.270505	45.5	19.5	-94.5	0.0
2025-01-18 06:47:52.389428	45.6	19.6	-94.6	0.0
2025-01-18 06:47:53.510486	45.8	19.7	-94.5	0.0
2025-01-18 06:47:54.631964	46.0	19.8	-94.8	0.0
2025-01-18 06:47:55.753504	46.2	19.9	-94.9	0.0
2025-01-18 06:47:56.874755	46.4	20.0	-94.6	0.0
2025-01-18 06:47:57.998462	46.6	20.1	-95.0	0.0
2025-01-18 06:47:59.119251	46.8	20.2	-94.9	0.0
2025-01-18 06:48:00.239985	47.0	20.3	-94.9	0.0
2025-01-18 06:48:01.362939	47.2	20.4	-95.0	0.0
2025-01-18 06:48:02.484785	47.4	20.6	-94.8	0.0
2025-01-18 06:48:03.607482	47.6	20.7	-94.9	0.0
2025-01-18 06:48:04.729070	47.8	20.8	-94.5	0.0
2025-01-18 06:48:05.849427	48.0	20.9	-94.7	0.0
2025-01-18 06:48:06.969878	48.2	21.0	-94.7	0.0
2025-01-18 06:48:08.091424	48.4	21.1	-94.6	0.0
2025-01-18 06:48:09.209130	48.6	21.2	-95.2	0.0
2025-01-18 06:48:10.331547	48.8	21.3	-94.8	0.0
2025-01-18 06:48:11.453125	49.0	21.4	-94.8	0.0
2025-01-18 06:48:12.573417	49.2	21.5	-94.7	0.0
2025-01-18 06:48:13.692832	49.4	21.6	-95.0	0.0
2025-01-18 06:48:14.812513	49.6	21.7	-95.0	0.0
2025-01-18 06:48:15.934714	49.9	21.8	-94.8	0.0
2025-01-18 06:48:17.054140	50.1	21.9	-94.8	0.0
2025-01-18 06:48:18.175495	50.3	22.0	-94.9	0.0
2025-01-18 06:48:19.295865	50.5	22.1	-95.0	0.0
2025-01-18 06:48:20.418065	50.7	22.2	-94.7	0.0
2025-01-18 06:48:21.536816	51.0	22.3	-94.8	0.0
2025-01-18 06:48:22.656824	51.2	22.4	-94.8	0.0
2025-01-18 06:48:23.777514	51.4	22.5	-94.6	0.0
2025-01-18 06:48:24.899704	51.6	22.6	-94.6	0.0
2025-01-18 06:48:26.019061	51.9	22.7	-94.7	0.0
2025-01-18 06:48:27.140316	52.1	22.9	-94.8	0.0
2025-01-18 06:48:28.260024	52.3	23.0	-94.6	0.0
2025-01-18 06:48:29.380452	52.5	23.1	-95.1	0.0
2025-01-18 06:48:30.500462	52.8	23.2	-94.7	0.0
2025-01-18 06:48:31.620771	53.0	23.3	-94.8	0.0
2025-01-18 06:48:32.741170	53.3	23.4	-94.7	0.0
2025-01-18 06:48:33.861459	53.5	23.5	-94.8	0.0
2025-01-18 06:48:34.982507	53.7	23.6	-94.8	0.0
2025-01-18 06:48:36.103131	54.0	23.7	-94.9	0.0
2025-01-18 06:48:37.224684	54.2	23.8	-94.8	0.0
2025-01-18 06:48:38.344464	54.5	23.9	-94.7	0.0
2025-01-18 06:48:39.465754	54.7	24.0	-94.6	0.0
2025-01-18 06:48:40.585782	54.9	24.1	-94.9	0.0
2025-01-18 06:48:41.709216	55.2	24.2	-94.7	0.0
2025-01-18 06:48:42.831409	55.5	24.3	-94.5	0.0
2025-01-18 06:48:43.951049	55.7	24.4	-94.4	0.0
2025-01-18 06:48:45.070665	56.0	24.5	-94.7	0.0
2025-01-18 06:48:46.194138	56.2	24.6	-94.7	0.0
2025-01-18 06:48:47.315160	56.5	24.7	-94.4	0.0
2025-01-18 06:48:48.435343	56.7	24.8	-94.5	0.0
2025-01-18 06:48:49.556166	57.0	24.9	-94.6	0.0
2025-01-18 06:48:50.676913	57.3	25.0	-94.5	0.0
2025-01-18 06:48:51.797663	57.5	25.1	-94.5	0.0
2025-01-18 06:48:52.917571	57.8	25.2	-94.4	0.0
2025-01-18 06:48:54.036538	58.0	25.3	-94.7	0.0
2025-01-18 06:48:55.156413	58.3	25.4	-94.6	0.0
2025-01-18 06:48:56.276380	58.6	25.5	-94.6	0.0
2025-01-18 06:48:57.397564	58.9	25.6	-94.5	0.0
2025-01-18 06:48:58.518140	59.1	25.7	-94.8	0.0
2025-01-18 06:48:59.640350	59.4	25.8	-94.7	0.0
2025-01-18 06:49:00.761698	59.7	25.9	-94.6	0.0
2025-01-18 06:49:01.883922	60.0	26.0	-94.7	0.0
2025-01-18 06:49:03.005413	60.2	26.1	-94.5	0.0
2025-01-18 06:49:04.127582	60.5	26.2	-94.7	0.0
2025-01-18 06:49:05.249635	60.8	26.3	-94.7	0.0
2025-01-18 06:49:06.370218	61.1	26.4	-95.0	0.0
2025-01-18 06:49:07.491047	61.4	26.5	-94.8	0.0
2025-01-18 06:49:08.612835	61.7	26.6	-95.0	0.0
2025-01-18 06:49:09.733663	62.0	26.7	-94.7	0.0
2025-01-18 06:49:10.852424	62.3	26.8	-94.5	0.0
2025-01-18 06:49:11.973517	62.6	26.9	-94.6	0.0
2025-01-18 06:49:13.095770	62.8	27.0	-94.9	0.0
2025-01-18 06:49:14.217592	63.1	27.1	-95.0	0.0
2025-01-18 06:49:15.337653	63.4	27.2	-95.0	0.0
2025-01-18 06:49:16.458302	63.7	27.3	-94.9	0.0
2025-01-18 06:49:17.580758	64.0	27.4	-94.9	0.0
2025-01-18 06:49:18.701676	64.4	27.5	-95.0	0.0
2025-01-18 06:49:19.822701	64.7	27.6	-95.0	0.0
2025-01-18 06:49:20.943741	65.0	27.7	-95.0	0.0
2025-01-18 06:49:22.063867	65.3	27.7	-94.9	0.0
2025-01-18 06:49:23.185258	65.6	27.8	-94.8	0.0
2025-01-18 06:49:24.306542	65.9	27.9	-95.0	0.0
2025-01-18 06:49:25.428818	66.2	28.0	-95.1	0.0
2025-01-18 06:49:26.550889	66.5	28.1	-94.8	0.0
2025-01-18 06:49:27.673634	66.9	28.2	-94.9	0.0
2025-01-18 06:49:28.794323	67.2	28.3	-94.8	0.0
2025-01-18 06:49:29.914874	67.5	28.4	-94.7	0.0
2025-01-18 06:49:31.037234	67.8	28.5	-94.9	0.0
2025-01-18 06:49:32.157606	68.1	28.5	-94.5	0.0
2025-01-18 06:49:33.279732	68.5	28.6	-94.4	0.0
2025-01-18 06:49:34.402167	68.8	28.7	-94.7	0.0
2025-01-18 06:49:35.520872	69.1	28.8	-94.7	0.0
2025-01-18 06:49:36.641501	69.5	28.9	-94.6	0.0
2025-01-18 06:49:37.759893	69.8	29.0	-94.7	0.0
2025-01-18 06:49:38.880961	70.1	29.0	-94.6	0.0
2025-01-18 06:49:40.000251	70.5	29.1	-94.9	0.0
2025-01-18 06:49:41.119638	70.8	29.2	-94.9	0.0
2025-01-18 06:49:42.239541	71.1	29.3	-95.1	0.0
2025-01-18 06:49:43.359074	71.5	29.3	-94.9	0.0
2025-01-18 06:49:44.479545	71.8	29.4	-94.7	0.0
2025-01-18 06:49:45.600258	72.2	29.5	-94.7	0.0
2025-01-18 06:49:46.721501	72.5	29.6	-94.7	0.0
2025-01-18 06:49:47.842676	72.9	29.6	-95.0	0.0
2025-01-18 06:49:48.965326	73.2	29.7	-94.8	0.0
2025-01-18 06:49:50.088602	73.6	29.8	-94.6	0.0
2025-01-18 06:49:51.210787	73.9	29.9	-94.7	0.0
2025-01-18 06:49:52.331858	74.3	29.9	-94.7	0.0
2025-01-18 06:49:53.451651	74.6	30.0	-94.7	0.0
2025-01-18 06:49:54.573820	75.0	30.1	-94.7	0.0
2025-01-18 06:49:55.693133	75.4	30.1	-94.7	0.0
2025-01-18 06:49:56.813219	75.7	30.2	-94.9	0.0
2025-01-18 06:49:57.934863	76.1	30.3	-94.7	0.0
2025-01-18 06:49:59.057630	76.4	30.3	-94.6	0.0
2025-01-18 06:50:00.176982	76.8	30.4	-94.5	0.0
2025-01-18 06:50:01.296765	77.2	30.4	-94.7	0.0
2025-01-18 06:50:02.415967	77.5	30.5	-94.6	0.0
2025-01-18 06:50:03.537700	77.9	30.6	-94.8	0.0
2025-01-18 06:50:04.658002	78.3	30.6	-94.8	0.0
2025-01-18 06:50:05.780463	78.6	30.7	-94.6	0.0
2025-01-18 06:50:06.902998	79.0	30.7	-94.7	0.0
2025-01-18 06:50:08.026440	79.4	30.8	-94.7	0.0
2025-01-18 06:50:09.147598	79.8	30.8	-95.0	0.0
2025-01-18 06:50:10.269276	80.1	30.9	-95.0	0.0
2025-01-18 06:50:11.389660	80.5	30.9	-94.9	0.0
2025-01-18 06:50:12.509230	80.9	31.0	-95.0	0.0
2025-01-18 06:50:13.631328	81.3	31.0	-94.9	0.0
2025-01-18 06:50:14.752502	81.7	31.1	-95.2	0.0
2025-01-18 06:50:15.873918	82.0	31.1	-95.1	0.0
2025-01-18 06:50:16.996820	82.4	31.2	-94.9	0.0
2025-01-18 06:50:18.119597	82.8	31.2	-95.1	0.0
2025-01-18 06:50:19.241569	83.2	31.3	-95.1	0.0
2025-01-18 06:50:20.361343	83.6	31.3	-94.8	0.0
2025-01-18 06:50:21.482372	84.0	31.3	-94.7	0.0
2025-01-18 06:50:22.602173	84.3	31.4	-95.0	0.0
2025-01-18 06:50:23.722287	84.7	31.4	-95.0	0.0
2025-01-18 06:50:24.842622	85.1	31.4	-94.9	0.0
2025-01-18 06:50:25.961545	85.5	31.5	-94.7	0.0
2025-01-18 06:50:27.080892	85.9	31.5	-95.2	0.0
2025-01-18 06:50:28.201866	86.3	31.5	-95.0	0.0
2025-01-18 06:50:29.323218	86.7	31.6	-94.8	0.0
2025-01-18 06:50:30.444520	87.1	31.6	-94.9	0.0
2025-01-18 06:50:31.564646	87.5	31.6	-94.7	0.0
2025-01-18 06:50:32.684913	87.9	31.6	-94.9	0.0
2025-01-18 06:50:33.804835	88.3	31.7	-95.0	0.0
2025-01-18 06:50:34.926286	88.7	31.7	-94.7	0.0
2025-01-18 06:50:36.047820	89.0	31.7	-94.9	0.0
2025-01-18 06:50:37.167707	89.4	31.7	-94.8	0.0
2025-01-18 06:50:38.288669	89.8	31.7	-95.0	0.0
2025-01-18 06:50:39.409550	90.2	31.8	-94.8	0.0
2025-01-18 06:50:40.531597	90.6	31.8	-94.8	0.0
2025-01-18 06:50:41.651749	91.0	31.8	-94.8	0.0
2025-01-18 06:50:42.773342	91.4	31.8	-94.7	0.0
2025-01-18 06:50:43.893298	91.8	31.8	-94.6	0.0
2025-01-18 06:50:45.013559	92.2	31.8	-94.9	0.0
2025-01-18 06:50:46.135948	92.6	31.8	-94.9	0.0
2025-01-18 06:50:47.255744	93.0	31.8	-94.7	0.0
2025-01-18 06:50:48.375512	93.4	31.8	-94.8	0.0
2025-01-18 06:50:49.495531	93.8	31.8	-95.0	0.0
2025-01-18 06:50:50.616560	94.2	31.8	-94.9	0.0
2025-01-18 06:50:51.736668	94.6	31.8	-94.7	0.0
2025-01-18 06:50:52.858546	95.0	31.8	-94.6	0.0
2025-01-18 06:50:53.977992	95.4	31.8	-94.7	0.0
2025-01-18 06:50:55.098489	95.8	31.8	-94.9	0.0
2025-01-18 06:50:56.219174	96.2	31.8	-94.7	0.0
2025-01-18 06:50:57.341959	96.6	31.8	-94.8	0.0
2025-01-18 06:50:58.463692	97.0	31.8	-94.8	0.0
2025-01-18 06:50:59.583740	97.4	31.8	-94.5	0.0
2025-01-18 06:51:00.704569	97.8	31.8	-94.6	0.0
2025-01-18 06:51:01.826661	98.2	31.7	-94.6	0.0
2025-01-18 06:51:02.946651	98.6	31.7	-94.9	0.0
2025-01-18 06:51:04.069489	99.0	31.7	-94.8	0.0
2025-01-18 06:51:05.191332	99.4	31.7	-94.6	0.0
2025-01-18 06:51:06.312737	99.8	31.7	-94.6	0.0
2025-01-18 06:51:07.434547	100.2	31.7	-94.7	0.0
2025-01-18 06:51:08.556557	100.6	31.6	-94.8	0.0
2025-01-18 06:51:09.678950	101.0	31.6	-94.9	0.0
2025-01-18 06:51:10.801615	101.4	31.6	-95.1	0.0
2025-01-18 06:51:11.921997	101.7	31.6	-95.0	0.0
2025-01-18 06:51:13.042898	102.1	31.5	-95.0	0.0
2025-01-18 06:51:14.164166	102.5	31.5	-94.9	0.0
2025-01-18 06:51:15.285640	102.9	31.5	-95.0	0.0
2025-01-18 06:51:16.406719	103.3	31.4	-95.1	0.0
2025-01-18 06:51:17.529156	103.7	31.4	-94.8	0.0
2025-01-18 06:51:18.650852	104.1	31.4	-95.0	0.0
2025-01-18 06:51:19.773048	104.5	31.3	-94.8	0.0
2025-01-18 06:51:20.896329	104.9	31.3	-94.7	0.0
2025-01-18 06:51:22.016627	105.2	31.2	-94.9	0.0
2025-01-18 06:51:23.137882	105.6	31.2	-94.7	0.0
2025-01-18 06:51:24.258348	106.0	31.2	-94.5	0.0
2025-01-18 06:51:25.379796	106.4	31.1	-94.6	0.0
2025-01-18 06:51:26.502082	106.8	31.1	-94.8	0.0
2025-01-18 06:51:27.622746	107.2	31.0	-94.8	0.0
2025-01-18 06:51:28.743379	107.5	31.0	-94.6	0.0
2025-01-18 06:51:29.861548	107.9	30.9	-94.5	0.0
2025-01-18 06:51:30.983889	108.3	30.9	-94.7	0.0
2025-01-18 06:51:32.103520	108.7	30.8	-94.7	0.0
2025-01-18 06:51:33.225594	109.0	30.8	-94.7	0.0
2025-01-18 06:51:34.348288	109.4	30.7	-95.0	0.0
2025-01-18 06:51:35.469066	109.8	30.7	-94.8	0.0
2025-01-18 06:51:36.589174	110.2	30.6	-94.7	0.0
2025-01-18 06:51:37.712778	110.5	30.5	-94.7	0.0
2025-01-18 06:51:38.835736	110.9	30.5	-94.6	0.0
2025-01-18 06:51:39.956336	111.3	30.4	-94.8	0.0
2025-01-18 06:51:41.079071	111.6	30.4	-94.9	0.0
2025-01-18 06:51:42.200676	112.0	30.3	-94.7	0.0
2025-01-18 06:51:43.321372	112.3	30.2	-94.8	0.0
2025-01-18 06:51:44.443567	112.7	30.2	-95.0	0.0
2025-01-18 06:51:45.564941	113.1	30.1	-94.7	0.0
2025-01-18 06:51:46.687403	113.4	30.0	-94.6	0.0
2025-01-18 06:51:47.808755	113.8	30.0	-94.6	0.0
2025-01-18 06:51:48.930889	114.1	29.9	-94.7	0.0
2025-01-18 06:51:50.051615	114.5	29.8	-94.7	0.0
2025-01-18 06:51:51.172677	114.8	29.8	-94.8	0.0
2025-01-18 06:51:52.292040	115.2	29.7	-94.7	0.0
2025-01-18 06:51:53.413587	115.5	29.6	-94.7	0.0
2025-01-18 06:51:54.535413	115.9	29.5	-94.7	0.0
2025-01-18 06:51:55.656420	116.2	29.5	-94.6	0.0
2025-01-18 06:51:56.776089	116.6	29.4	-94.7	0.0
2025-01-18 06:51:57.897003	116.9	29.3	-95.0	0.0
2025-01-18 06:51:59.017984	117.3	29.2	-94.7	0.0
2025-01-18 06:52:00.140092	117.6	29.2	-94.6	0.0
2025-01-18 06:52:01.260247	117.9	29.1	-94.7	0.0
2025-01-18 06:52:02.381686	118.3	29.0	-95.2	0.0
2025-01-18 06:52:03.502704	118.6	28.9	-94.9	0.0
2025-01-18 06:52:04.621960	119.0	28.8	-94.8	0.0
2025-01-18 06:52:05.743881	119.3	28.7	-94.8	0.0
2025-01-18 06:52:06.866519	119.6	28.7	-94.8	0.0
2025-01-18 06:52:07.988337	119.9	28.6	-95.0	0.0
2025-01-18 06:52:09.109676	120.3	28.5	-94.8	0.0
2025-01-18 06:52:10.230512	120.6	28.4	-94.9	0.0
2025-01-18 06:52:11.351597	120.9	28.3	-94.8	0.0
2025-01-18 06:52:12.473697	121.2	28.2	-94.9	0.0
2025-01-18 06:52:13.592632	121.6	28.1	-94.8	0.0
2025-01-18 06:52:14.712060	121.9	28.1	-94.8	0.0
2025-01-18 06:52:15.832153	122.2	28.0	-95.0	0.0
2025-01-18 06:52:16.952640	122.5	27.9	-94.9	0.0
2025-01-18 06:52:18.074847	122.8	27.8	-94.7	0.0
2025-01-18 06:52:19.196823	123.1	27.7	-94.9	0.0
2025-01-18 06:52:20.317118	123.4	27.6	-95.1	0.0
2025-01-18 06:52:21.437720	123.7	27.5	-94.7	0.0
2025-01-18 06:52:22.557601	124.1	27.4	-94.9	0.0
2025-01-18 06:52:23.680646	124.4	27.3	-94.8	0.0
2025-01-18 06:52:24.802326	124.7	27.2	-94.6	0.0
2025-01-18 06:52:25.922607	125.0	27.1	-94.9	0.0
2025-01-18 06:52:27.044366	125.3	27.0	-94.9	0.0
2025-01-18 06:52:28.167546	125.6	27.0	-94.6	0.0
2025-01-18 06:52:29.289224	125.9	26.9	-94.8	0.0
2025-01-18 06:52:30.409454	126.1	26.8	-94.8	0.0
2025-01-18 06:52:31.530487	126.4	26.7	-94.9	0.0
2025-01-18 06:52:32.650610	126.7	26.6	-94.5	0.0
2025-01-18 06:52:33.771689	127.0	26.5	-95.0	0.0
2025-01-18 06:52:34.891738	127.3	26.4	-94.7	0.0
2025-01-18 06:52:36.010470	127.6	26.3	-94.7	0.0
2025-01-18 06:52:37.130317	127.9	26.2	-94.9	0.0
2025-01-18 06:52:38.251931	128.1	26.1	-94.8	0.0
2025-01-18 06:52:39.373636	128.4	26.0	-94.7	0.0
2025-01-18 06:52:40.494290	128.7	25.9	-95.0	0.0
2025-01-18 06:52:41.615736	129.0	25.8	-94.6	0.0
2025-01-18 06:52:42.736905	129.3	25.7	-94.7	0.0
2025-01-18 06:52:43.856504	129.5	25.6	-94.8	0.0
2025-01-18 06:52:44.976563	129.8	25.5	-94.5	0.0
2025-01-18 06:52:46.098635	130.1	25.4	-94.6	0.0
2025-01-18 06:52:47.219613	130.3	25.3	-94.6	0.0
2025-01-18 06:52:48.340210	130.6	25.2	-94.9	0.0
2025-01-18 06:52:49.459312	130.9	25.1	-94.7	0.0
2025-01-18 06:52:50.581400	131.1	25.0	-94.6	0.0
2025-01-18 06:52:51.703618	131.4	24.9	-94.6	0.0
2025-01-18 06:52:52.825246	131.7	24.8	-94.8	0.0
2025-01-18 06:52:53.946563	131.9	24.7	-94.8	0.0
2025-01-18 06:52:55.069304	132.2	24.6	-94.8	0.0
2025-01-18 06:52:56.191723	132.4	24.5	-94.8	0.0
2025-01-18 06:52:57.313005	132.7	24.3	-94.8	0.0
2025-01-18 06:52:58.434277	132.9	24.2	-94.9	0.0
2025-01-18 06:52:59.552430	133.2	24.1	-95.1	0.0
2025-01-18 06:53:00.673597	133.4	24.0	-94.6	0.0
2025-01-18 06:53:01.796137	133.7	23.9	-94.9	0.0
2025-01-18 06:53:02.916555	133.9	23.8	-94.7	0.0
2025-01-18 06:53:04.038035	134.2	23.7	-95.0	0.0
2025-01-18 06:53:05.158486	134.4	23.6	-94.9	0.0
2025-01-18 06:53:06.279564	134.6	23.5	-94.8	0.0
2025-01-18 06:53:07.401026	134.9	23.4	-95.0	0.0
2025-01-18 06:53:08.521148	135.1	23.3	-94.8	0.0
2025-01-18 06:53:09.643125	135.4	23.2	-95.2	0.0
2025-01-18 06:53:10.765405	135.6	23.1	-94.9	0.0
2025-01-18 06:53:11.886745	135.8	23.0	-95.0	0.0
2025-01-18 06:53:13.008265	136.1	22.9	-94.9	0.0
2025-01-18 06:53:14.127610	136.3	22.8	-94.7	0.0
2025-01-18 06:53:15.248730	136.5	22.7	-94.9	0.0
2025-01-18 06:53:16.371645	136.7	22.6	-94.6	0.0
2025-01-18 06:53:17.491422	137.0	22.5	-94.7	0.0
2025-01-18 06:53:18.613570	137.2	22.4	-94.7	0.0
2025-01-18 06:53:19.734126	137.4	22.3	-94.9	0.0
2025-01-18 06:53:20.853925	137.6	22.2	-94.8	0.0
2025-01-18 06:53:21.975464	137.9	22.0	-94.5	0.0
2025-01-18 06:53:23.096528	138.1	21.9	-94.5	0.0
2025-01-18 06:53:24.217632	138.3	21.8	-94.9	0.0
2025-01-18 06:53:25.339411	138.5	21.7	-94.7	0.0
2025-01-18 06:53:26.461550	138.7	21.6	-94.8	0.0
2025-01-18 06:53:27.583474	138.9	21.5	-94.6	0.0
2025-01-18 06:53:28.704471	139.1	21.4	-94.6	0.0
2025-01-18 06:53:29.825005	139.4	21.3	-94.7	0.0
2025-01-18 06:53:30.946969	139.6	21.2	-94.7	0.0
2025-01-18 06:53:32.069896	139.8	21.1	-94.8	0.0
2025-01-18 06:53:33.191364	140.0	21.0	-94.8	0.0
2025-01-18 06:53:34.314043	140.2	20.9	-94.9	0.0
2025-01-18 06:53:35.434561	140.4	20.8	-95.1	0.0
2025-01-18 06:53:36.553454	140.6	20.7	-94.8	0.0
2025-01-18 06:53:37.675430	140.8	20.6	-94.9	0.0
2025-01-18 06:53:38.797480	141.0	20.5	-94.9	0.0
2025-01-18 06:53:39.917538	141.2	20.4	-95.0	0.0
2025-01-18 06:53:41.038995	141.4	20.3	-95.0	0.0
2025-01-18 06:53:42.160579	141.6	20.2	-95.0	0.0
2025-01-18 06:53:43.281258	141.8	20.1	-94.9	0.0
2025-01-18 06:53:44.400969	142.0	20.0	-95.0	0.0
2025-01-18 06:53:45.520310	142.1	19.8	-95.0	0.0
2025-01-18 06:53:46.640290	142.3	19.7	-94.9	0.0
2025-01-18 06:53:47.759637	142.5	19.6	-94.9	0.0
2025-01-18 06:53:48.882635	142.7	19.5	-95.2	0.0
2025-01-18 06:53:50.004883	142.9	19.4	-95.3	0.0
2025-01-18 06:53:51.124525	143.1	19.3	-95.0	0.0
2025-01-18 06:53:52.246851	143.3	19.2	-94.9	0.0
2025-01-18 06:53:53.368971	143.4	19.1	-95.2	0.0
2025-01-18 06:53:54.490628	143.6	19.0	-94.9	0.0
2025-01-18 06:53:55.611048	143.8	18.9	-94.7	0.0
2025-01-18 06:53:56.731428	144.0	18.8	-95.1	0.0
2025-01-18 06:53:57.850463	144.2	18.7	-95.0	0.0
2025-01-18 06:53:58.973475	144.3	18.6	-95.0	0.0
2025-01-18 06:54:00.092797	144.5	18.5	-94.7	0.0
2025-01-18 06:54:01.214490	144.7	18.4	-94.9	0.0
2025-01-18 06:54:02.335394	144.9	18.3	-95.2	0.0
2025-01-18 06:54:03.456568	145.0	18.2	-94.9	0.0
2025-01-18 06:54:04.576015	145.2	18.1	-94.8	0.0
2025-01-18 06:54:05.695452	145.4	18.0	-94.8	0.0
2025-01-18 06:54:06.818632	145.5	17.9	-95.0	0.0
2025-01-18 06:54:07.940382	145.7	17.8	-94.7	0.0
2025-01-18 06:54:09.062913	145.9	17.7	-94.6	0.0
2025-01-18 06:54:10.184485	146.0	17.6	-94.9	0.0
2025-01-18 06:54:11.306285	146.2	17.5	-94.9	0.0
2025-01-18 06:54:12.425744	146.4	17.4	-94.7	0.0
2025-01-18 06:54:13.545450	146.5	17.3	-94.6	0.0
2025-01-18 06:54:14.665628	146.7	17.2	-94.6	0.0
2025-01-18 06:54:15.787444	146.9	17.1	-94.8	0.0
2025-01-18 06:54:16.909079	147.0	17.0	-94.7	0.0
2025-01-18 06:54:18.029995	147.2	16.9	-94.7	0.0
2025-01-18 06:54:19.150605	147.3	16.8	-94.7	0.0
2025-01-18 06:54:20.270512	147.5	16.7	-94.7	0.0
2025-01-18 06:54:21.390290	147.6	16.6	-94.7	0.0
2025-01-18 06:54:22.509890	147.8	16.5	-94.6	0.0
2025-01-18 06:54:23.631742	148.0	16.4	-94.7	0.0
2025-01-18 06:54:24.750627	148.1	16.3	-94.5	0.0
2025-01-18 06:54:25.869838	148.3	16.2	-94.9	0.0
2025-01-18 06:54:26.991053	148.4	16.1	-94.6	0.0
2025-01-18 06:54:28.111854	148.6	16.0	-94.9	0.0
2025-01-18 06:54:29.233034	148.7	15.9	-94.5	0.0
2025-01-18 06:54:30.352345	148.9	15.8	-94.6	0.0
2025-01-18 06:54:31.472680	149.0	15.7	-94.9	0.0
2025-01-18 06:54:32.593212	149.1	15.6	-94.6	0.0
2025-01-18 06:54:33.712903	149.3	15.5	-94.7	0.0
2025-01-18 06:54:34.833885	149.4	15.4	-94.5	0.0
2025-01-18 06:54:35.955462	149.6	15.3	-94.9	0.0
2025-01-18 06:54:37.076449	149.7	15.2	-94.8	0.0
2025-01-18 06:54:38.198426	149.9	15.2	-94.8	0.0
2025-01-18 06:54:39.318166	150.0	15.1	-94.6	0.0
2025-01-18 06:54:40.439025	150.1	15.0	-94.6	0.0
2025-01-18 06:54:41.557475	150.3	14.9	-94.9	0.0
2025-01-18 06:54:42.676723	150.4	14.8	-94.9	0.0
2025-01-18 06:54:43.794610	150.6	14.7	-94.9	0.0
2025-01-18 06:54:44.917742	150.7	14.6	-94.6	0.0
2025-01-18 06:54:46.040595	150.8	14.5	-94.5	0.0
2025-01-18 06:54:47.161736	151.0	14.4	-94.9	0.0
2025-01-18 06:54:48.280166	151.1	14.3	-94.8	0.0
2025-01-18 06:54:49.403321	151.2	14.2	-94.6	0.0
2025-01-18 06:54:50.525223	151.4	14.1	-94.7	0.0
2025-01-18 06:54:51.648918	151.5	14.0	-94.7	0.0
2025-01-18 06:54:52.771052	151.6	13.9	-94.8	0.0
2025-01-18 06:54:53.894246	151.8	13.8	-94.7	0.0
2025-01-18 06:54:55.017188	151.9	13.7	-95.0	0.0
2025-01-18 06:54:56.139217	152.0	13.7	-95.2	0.0
2025-01-18 06:54:57.260485	152.1	13.6	-95.2	0.0
2025-01-18 06:54:58.381240	152.3	13.5	-94.8	0.0
2025-01-18 06:54:59.502901	152.4	13.4	-95.1	0.0
2025-01-18 06:55:00.623587	152.5	13.3	-95.2	0.0
2025-01-18 06:55:01.744766	152.6	13.2	-95.1	0.0
2025-01-18 06:55:02.866699	152.8	13.1	-94.7	0.0
2025-01-18 06:55:03.988659	152.9	13.0	-94.6	0.0
2025-01-18 06:55:05.109561	153.0	12.9	-95.1	0.0
2025-01-18 06:55:06.232587	153.1	12.8	-95.2	0.0
2025-01-18 06:55:07.354918	153.3	12.7	-95.0	0.0
2025-01-18 06:55:08.478794	153.4	12.7	-94.7	0.0
2025-01-18 06:55:09.600553	153.5	12.6	-95.0	0.0
2025-01-18 06:55:10.724073	153.6	12.5	-94.9	0.0
2025-01-18 06:55:11.844327	153.7	12.4	-94.8	0.0
2025-01-18 06:55:12.965153	153.9	12.3	-94.6	0.0
2025-01-18 06:55:14.086584	154.0	12.2	-94.9	0.0
2025-01-18 06:55:15.208247	154.1	12.1	-95.1	0.0
2025-01-18 06:55:16.331430	154.2	12.0	-95.1	0.0
2025-01-18 06:55:17.451615	154.3	11.9	-94.8	0.0
2025-01-18 06:55:18.573984	154.4	11.9	-94.9	0.0
2025-01-18 06:55:19.696179	154.5	11.8	-94.9	0.0
2025-01-18 06:55:20.818486	154.7	11.7	-94.9	0.0
2025-01-18 06:55:21.939902	154.8	11.6	-94.8	0.0
2025-01-18 06:55:23.060783	154.9	11.5	-94.8	0.0
2025-01-18 06:55:24.181363	155.0	11.4	-94.9	0.0
2025-01-18 06:55:25.302213	155.1	11.3	-94.8	0.0
2025-01-18 06:55:26.424462	155.2	11.2	-95.0	0.0
2025-01-18 06:55:27.547485	155.3	11.2	-95.0	0.0
2025-01-18 06:55:28.669363	155.4	11.1	-94.9	0.0
2025-01-18 06:55:29.791198	155.5	11.0	-94.9	0.0
2025-01-18 06:55:30.914715	155.6	10.9	-94.9	0.0
2025-01-18 06:55:32.034398	155.8	10.8	-95.0	0.0
2025-01-18 06:55:33.153420	155.9	10.7	-94.9	0.0
2025-01-18 06:55:34.274216	156.0	10.6	-95.1	0.0
2025-01-18 06:55:35.395689	156.1	10.6	-95.0	0.0
2025-01-18 06:55:36.515432	156.2	10.5	-95.0	0.0
2025-01-18 06:55:37.636629	156.3	10.4	-95.1	0.0
2025-01-18 06:55:38.757253	156.4	10.3	-95.2	0.0
2025-01-18 06:55:39.877645	156.5	10.2	-95.2	0.0
2025-01-18 06:55:40.998581	156.6	10.1	-95.1	0.0
2025-01-18 06:55:42.124025	156.7	10.1	-95.1	0.0
#Closed at: 2025-01-18 06:45:52.013188