passes_logs/2025/01/18/planumMaritime01/planumMaritime01__20250118_122551_METEOR-M2_2_rec.log

#Pass ID: 20250118_122551_METEOR-M2 2
#Satellite: METEOR-M2 2
#Configuration: METEOR-M2 2
#Start time: 2025-01-18 12:25:56.448514

#LorettStation: 1.0.0 05.05.2024
#Station: planumMaritime01
#Location: 37.49445 lon 55.92918 lat
#TLE: 1 44387U 19038A   25017.10552627  .00000225  00000+0  11761-3 0  9997
#TLE: 2 44387  98.8570 353.5196 0002279  75.7364 284.4068 14.24118150287836

#Time	Az	El	Level	SNR
2025-01-18 12:25:58.604835	165.2	10.2	-94.3	0.0
2025-01-18 12:25:59.725343	165.2	10.3	-94.6	0.0
2025-01-18 12:26:00.843967	165.2	10.4	-94.6	0.0
2025-01-18 12:26:01.962326	165.2	10.5	-94.5	0.0
2025-01-18 12:26:03.085684	165.3	10.6	-94.4	0.0
2025-01-18 12:26:04.205588	165.3	10.7	-94.5	0.0
2025-01-18 12:26:05.329320	165.3	10.8	-94.2	0.0
2025-01-18 12:26:06.450346	165.3	10.9	-94.5	0.0
2025-01-18 12:26:07.570914	165.3	11.0	-94.4	0.0
2025-01-18 12:26:08.691922	165.3	11.1	-94.2	0.0
2025-01-18 12:26:09.813288	165.3	11.2	-94.1	0.0
2025-01-18 12:26:10.933132	165.4	11.3	-94.4	0.0
2025-01-18 12:26:12.053514	165.4	11.4	-94.3	0.0
2025-01-18 12:26:13.175944	165.4	11.5	-94.3	0.0
2025-01-18 12:26:14.296254	165.4	11.6	-94.2	0.0
2025-01-18 12:26:15.415896	165.4	11.7	-94.4	0.0
2025-01-18 12:26:16.535031	165.4	11.8	-94.2	0.0
2025-01-18 12:26:17.656866	165.5	11.9	-94.4	0.0
2025-01-18 12:26:18.778183	165.5	12.0	-94.4	0.0
2025-01-18 12:26:19.899984	165.5	12.2	-94.5	0.0
2025-01-18 12:26:21.021944	165.5	12.3	-94.6	0.0
2025-01-18 12:26:22.141751	165.5	12.4	-94.9	0.0
2025-01-18 12:26:23.261068	165.5	12.5	-94.4	0.0
2025-01-18 12:26:24.382671	165.5	12.6	-94.6	0.0
2025-01-18 12:26:25.503762	165.6	12.7	-94.7	0.0
2025-01-18 12:26:26.623673	165.6	12.8	-94.7	0.0
2025-01-18 12:26:27.743785	165.6	12.9	-94.5	0.0
2025-01-18 12:26:28.866099	165.6	13.0	-94.6	0.0
2025-01-18 12:26:29.987571	165.6	13.1	-94.6	0.0
2025-01-18 12:26:31.107074	165.6	13.3	-94.6	0.0
2025-01-18 12:26:32.229385	165.7	13.4	-94.7	0.0
2025-01-18 12:26:33.349837	165.7	13.5	-94.9	0.0
2025-01-18 12:26:34.471933	165.7	13.6	-94.9	0.0
2025-01-18 12:26:35.593592	165.7	13.7	-94.8	0.0
2025-01-18 12:26:36.714696	165.7	13.8	-94.8	0.0
2025-01-18 12:26:37.835583	165.7	13.9	-94.4	0.0
2025-01-18 12:26:38.957652	165.8	14.1	-94.6	0.0
2025-01-18 12:26:40.077630	165.8	14.2	-94.9	0.0
2025-01-18 12:26:41.198739	165.8	14.3	-94.8	0.0
2025-01-18 12:26:42.318956	165.8	14.4	-94.6	0.0
2025-01-18 12:26:43.441068	165.8	14.5	-94.6	0.0
2025-01-18 12:26:44.563260	165.8	14.6	-94.7	0.0
2025-01-18 12:26:45.683374	165.9	14.8	-94.8	0.0
2025-01-18 12:26:46.805544	165.9	14.9	-94.6	0.0
2025-01-18 12:26:47.927706	165.9	15.0	-94.8	0.0
2025-01-18 12:26:49.049545	165.9	15.1	-94.6	0.0
2025-01-18 12:26:50.171547	165.9	15.3	-94.7	0.0
2025-01-18 12:26:51.292569	166.0	15.4	-94.6	0.0
2025-01-18 12:26:52.412270	166.0	15.5	-94.5	0.0
2025-01-18 12:26:53.534034	166.0	15.6	-94.4	0.0
2025-01-18 12:26:54.657077	166.0	15.7	-94.6	0.0
2025-01-18 12:26:55.778854	166.0	15.9	-94.7	0.0
2025-01-18 12:26:56.900854	166.1	16.0	-94.9	0.0
2025-01-18 12:26:58.023403	166.1	16.1	-94.4	0.0
2025-01-18 12:26:59.144738	166.1	16.3	-94.7	0.0
2025-01-18 12:27:00.266466	166.1	16.4	-94.7	0.0
2025-01-18 12:27:01.387984	166.1	16.5	-94.6	0.0
2025-01-18 12:27:02.508999	166.1	16.6	-94.7	0.0
2025-01-18 12:27:03.630867	166.2	16.8	-94.5	0.0
2025-01-18 12:27:04.752156	166.2	16.9	-94.7	0.0
2025-01-18 12:27:05.873936	166.2	17.0	-94.8	0.0
2025-01-18 12:27:06.995601	166.2	17.2	-94.8	0.0
2025-01-18 12:27:08.118393	166.3	17.3	-94.7	0.0
2025-01-18 12:27:09.241061	166.3	17.4	-94.6	0.0
2025-01-18 12:27:10.362541	166.3	17.6	-94.7	0.0
2025-01-18 12:27:11.483953	166.3	17.7	-94.8	0.0
2025-01-18 12:27:12.605879	166.3	17.8	-94.7	0.0
2025-01-18 12:27:13.726475	166.4	18.0	-94.7	0.0
2025-01-18 12:27:14.848770	166.4	18.1	-94.8	0.0
2025-01-18 12:27:15.972748	166.4	18.3	-94.9	0.0
2025-01-18 12:27:17.093171	166.4	18.4	-94.5	0.0
2025-01-18 12:27:18.213036	166.4	18.5	-94.6	0.0
2025-01-18 12:27:19.334378	166.5	18.7	-94.7	0.0
2025-01-18 12:27:20.453824	166.5	18.8	-94.8	0.0
2025-01-18 12:27:21.575909	166.5	19.0	-94.9	0.0
2025-01-18 12:27:22.698290	166.5	19.1	-94.8	0.0
2025-01-18 12:27:23.819756	166.6	19.2	-94.7	0.0
2025-01-18 12:27:24.943346	166.6	19.4	-94.6	0.0
2025-01-18 12:27:26.063321	166.6	19.5	-94.7	0.0
2025-01-18 12:27:27.184222	166.6	19.7	-95.0	0.0
2025-01-18 12:27:28.305391	166.6	19.8	-94.8	0.0
2025-01-18 12:27:29.426328	166.7	20.0	-94.8	0.0
2025-01-18 12:27:30.546773	166.7	20.1	-94.6	0.0
2025-01-18 12:27:31.669176	166.7	20.3	-94.8	0.0
2025-01-18 12:27:32.792349	166.7	20.4	-94.7	0.0
2025-01-18 12:27:33.913082	166.8	20.6	-94.6	0.0
2025-01-18 12:27:35.033679	166.8	20.7	-94.5	0.0
2025-01-18 12:27:36.152819	166.8	20.9	-94.6	0.0
2025-01-18 12:27:37.272920	166.8	21.0	-94.8	0.0
2025-01-18 12:27:38.393644	166.9	21.2	-94.6	0.0
2025-01-18 12:27:39.513292	166.9	21.4	-94.8	0.0
2025-01-18 12:27:40.633717	166.9	21.5	-94.8	0.0
2025-01-18 12:27:41.754018	167.0	21.7	-94.7	0.0
2025-01-18 12:27:42.873545	167.0	21.8	-94.6	0.0
2025-01-18 12:27:43.993205	167.0	22.0	-94.6	0.0
2025-01-18 12:27:45.112887	167.0	22.1	-94.6	0.0
2025-01-18 12:27:46.233705	167.1	22.3	-94.6	0.0
2025-01-18 12:27:47.357583	167.1	22.5	-94.8	0.0
2025-01-18 12:27:48.477938	167.1	22.6	-94.6	0.0
2025-01-18 12:27:49.602105	167.1	22.8	-94.7	0.0
2025-01-18 12:27:50.723986	167.2	23.0	-94.7	0.0
2025-01-18 12:27:51.847163	167.2	23.1	-94.5	0.0
2025-01-18 12:27:52.968658	167.2	23.3	-94.6	0.0
2025-01-18 12:27:54.090553	167.3	23.5	-94.8	0.0
2025-01-18 12:27:55.210684	167.3	23.7	-94.7	0.0
2025-01-18 12:27:56.332923	167.3	23.8	-94.9	0.0
2025-01-18 12:27:57.453943	167.3	24.0	-94.6	0.0
2025-01-18 12:27:58.573964	167.4	24.2	-94.5	0.0
2025-01-18 12:27:59.695407	167.4	24.4	-94.7	0.0
2025-01-18 12:28:00.818667	167.4	24.5	-94.8	0.0
2025-01-18 12:28:01.940668	167.5	24.7	-95.0	0.0
2025-01-18 12:28:03.060360	167.5	24.9	-94.9	0.0
2025-01-18 12:28:04.179758	167.5	25.1	-94.6	0.0
2025-01-18 12:28:05.301151	167.6	25.3	-94.8	0.0
2025-01-18 12:28:06.422111	167.6	25.4	-94.9	0.0
2025-01-18 12:28:07.544769	167.6	25.6	-94.8	0.0
2025-01-18 12:28:08.664452	167.7	25.8	-94.9	0.0
2025-01-18 12:28:09.784051	167.7	26.0	-94.9	0.0
2025-01-18 12:28:10.905686	167.7	26.2	-94.7	0.0
2025-01-18 12:28:12.025089	167.8	26.4	-94.9	0.0
2025-01-18 12:28:13.145546	167.8	26.6	-94.8	0.0
2025-01-18 12:28:14.267688	167.8	26.8	-94.7	0.0
2025-01-18 12:28:15.389772	167.9	26.9	-94.7	0.0
2025-01-18 12:28:16.510802	167.9	27.1	-94.6	0.0
2025-01-18 12:28:17.629859	167.9	27.3	-94.9	0.0
2025-01-18 12:28:18.750469	168.0	27.5	-94.9	0.0
2025-01-18 12:28:19.870866	168.0	27.7	-94.6	0.0
2025-01-18 12:28:20.991934	168.1	27.9	-94.8	0.0
2025-01-18 12:28:22.114246	168.1	28.1	-94.7	0.0
2025-01-18 12:28:23.234943	168.1	28.3	-94.7	0.0
2025-01-18 12:28:24.355791	168.2	28.6	-94.7	0.0
2025-01-18 12:28:25.476471	168.2	28.8	-94.8	0.0
2025-01-18 12:28:26.599240	168.2	29.0	-94.7	0.0
2025-01-18 12:28:27.720531	168.3	29.2	-94.6	0.0
2025-01-18 12:28:28.841946	168.3	29.4	-94.8	0.0
2025-01-18 12:28:29.963649	168.4	29.6	-94.7	0.0
2025-01-18 12:28:31.083943	168.4	29.8	-94.4	0.0
2025-01-18 12:28:32.203889	168.5	30.0	-94.5	0.0
2025-01-18 12:28:33.324398	168.5	30.3	-94.6	0.0
2025-01-18 12:28:34.443097	168.5	30.5	-94.7	0.0
2025-01-18 12:28:35.564436	168.6	30.7	-94.5	0.0
2025-01-18 12:28:36.685596	168.6	30.9	-94.7	0.0
2025-01-18 12:28:37.805052	168.7	31.1	-94.6	0.0
2025-01-18 12:28:38.927124	168.7	31.4	-94.8	0.0
2025-01-18 12:28:40.048570	168.8	31.6	-94.6	0.0
2025-01-18 12:28:41.172363	168.8	31.8	-94.5	0.0
2025-01-18 12:28:42.295820	168.9	32.1	-94.8	0.0
2025-01-18 12:28:43.416942	168.9	32.3	-94.5	0.0
2025-01-18 12:28:44.537207	169.0	32.5	-94.7	0.0
2025-01-18 12:28:45.658941	169.0	32.8	-94.8	0.0
2025-01-18 12:28:46.780411	169.1	33.0	-94.9	0.0
2025-01-18 12:28:47.903169	169.1	33.3	-94.9	0.0
2025-01-18 12:28:49.023832	169.2	33.5	-95.0	0.0
2025-01-18 12:28:50.146198	169.2	33.8	-94.8	0.0
2025-01-18 12:28:51.268280	169.3	34.0	-94.7	0.0
2025-01-18 12:28:52.389805	169.3	34.2	-95.0	0.0
2025-01-18 12:28:53.510915	169.4	34.5	-94.8	0.0
2025-01-18 12:28:54.632349	169.4	34.8	-94.8	0.0
2025-01-18 12:28:55.751788	169.5	35.0	-94.9	0.0
2025-01-18 12:28:56.872864	169.5	35.3	-94.8	0.0
2025-01-18 12:28:57.995040	169.6	35.5	-94.8	0.0
2025-01-18 12:28:59.115796	169.6	35.8	-94.7	0.0
2025-01-18 12:29:00.237032	169.7	36.1	-94.7	0.0
2025-01-18 12:29:01.358000	169.8	36.3	-95.1	0.0
2025-01-18 12:29:02.478328	169.8	36.6	-94.7	0.0
2025-01-18 12:29:03.598949	169.9	36.9	-94.5	0.0
2025-01-18 12:29:04.721312	170.0	37.1	-94.6	0.0
2025-01-18 12:29:05.842491	170.0	37.4	-94.8	0.0
2025-01-18 12:29:06.964871	170.1	37.7	-94.8	0.0
2025-01-18 12:29:08.085803	170.2	38.0	-94.7	0.0
2025-01-18 12:29:09.206071	170.2	38.2	-94.5	0.0
2025-01-18 12:29:10.324658	170.3	38.5	-94.7	0.0
2025-01-18 12:29:11.447361	170.4	38.8	-94.8	0.0
2025-01-18 12:29:12.567330	170.4	39.1	-94.6	0.0
2025-01-18 12:29:13.688163	170.5	39.4	-94.6	0.0
2025-01-18 12:29:14.809483	170.6	39.7	-94.5	0.0
2025-01-18 12:29:15.930664	170.6	40.0	-94.6	0.0
2025-01-18 12:29:17.050500	170.7	40.3	-94.8	0.0
2025-01-18 12:29:18.170938	170.8	40.6	-94.8	0.0
2025-01-18 12:29:19.292751	170.9	40.9	-94.7	0.0
2025-01-18 12:29:20.414919	171.0	41.2	-94.6	0.0
2025-01-18 12:29:21.533781	171.0	41.5	-94.3	0.0
2025-01-18 12:29:22.656231	171.1	41.8	-94.7	0.0
2025-01-18 12:29:23.775380	171.2	42.1	-94.7	0.0
2025-01-18 12:29:24.897098	171.3	42.5	-94.7	0.0
2025-01-18 12:29:26.019078	171.4	42.8	-94.7	0.0
2025-01-18 12:29:27.139772	171.5	43.1	-94.5	0.0
2025-01-18 12:29:28.259853	171.6	43.4	-94.3	0.0
2025-01-18 12:29:29.380357	171.7	43.8	-94.6	0.0
2025-01-18 12:29:30.499796	171.7	44.1	-94.6	0.0
2025-01-18 12:29:31.621098	171.8	44.4	-94.6	0.0
2025-01-18 12:29:32.741809	171.9	44.8	-94.5	0.0
2025-01-18 12:29:33.862437	172.0	45.1	-94.7	0.0
2025-01-18 12:29:34.984081	172.1	45.4	-94.5	0.0
2025-01-18 12:29:36.105776	172.3	45.8	-94.6	0.0
2025-01-18 12:29:37.227847	172.4	46.1	-94.8	0.0
2025-01-18 12:29:38.348556	172.5	46.5	-94.6	0.0
2025-01-18 12:29:39.468752	172.6	46.8	-94.5	0.0
2025-01-18 12:29:40.590043	172.7	47.2	-94.8	0.0
2025-01-18 12:29:41.709912	172.8	47.5	-94.8	0.0
2025-01-18 12:29:42.831554	172.9	47.9	-94.8	0.0
2025-01-18 12:29:43.951938	173.1	48.3	-94.7	0.0
2025-01-18 12:29:45.071612	173.2	48.6	-94.7	0.0
2025-01-18 12:29:46.194908	173.3	49.0	-94.8	0.0
2025-01-18 12:29:47.315891	173.4	49.4	-95.0	0.0
2025-01-18 12:29:48.437149	173.6	49.8	-94.8	0.0
2025-01-18 12:29:49.558941	173.7	50.1	-94.9	0.0
2025-01-18 12:29:50.679007	173.9	50.5	-94.9	0.0
2025-01-18 12:29:51.798962	174.0	50.9	-94.7	0.0
2025-01-18 12:29:52.920948	174.1	51.3	-94.6	0.0
2025-01-18 12:29:54.042294	174.3	51.7	-95.0	0.0
2025-01-18 12:29:55.164127	174.5	52.1	-94.8	0.0
2025-01-18 12:29:56.284920	174.6	52.5	-94.8	0.0
2025-01-18 12:29:57.406027	174.8	52.9	-94.6	0.0
2025-01-18 12:29:58.527604	174.9	53.3	-94.7	0.0
2025-01-18 12:29:59.647833	175.1	53.7	-94.9	0.0
2025-01-18 12:30:00.767919	175.3	54.1	-95.0	0.0
2025-01-18 12:30:01.889075	175.5	54.5	-94.9	0.0
2025-01-18 12:30:03.008938	175.7	54.9	-94.9	0.0
2025-01-18 12:30:04.128852	175.9	55.4	-94.9	0.0
2025-01-18 12:30:05.249419	176.1	55.8	-94.7	0.0
2025-01-18 12:30:06.369193	176.3	56.2	-94.9	0.0
2025-01-18 12:30:07.491085	176.5	56.6	-94.9	0.0
2025-01-18 12:30:08.611552	176.7	57.1	-94.9	0.0
2025-01-18 12:30:09.732797	176.9	57.5	-94.8	0.0
2025-01-18 12:30:10.853438	177.2	57.9	-94.9	0.0
2025-01-18 12:30:11.974792	177.4	58.4	-94.9	0.0
2025-01-18 12:30:13.098038	177.7	58.8	-94.7	0.0
2025-01-18 12:30:14.220105	177.9	59.3	-94.8	0.0
2025-01-18 12:30:15.342762	178.2	59.7	-94.7	0.0
2025-01-18 12:30:16.466196	178.5	60.2	-95.0	0.0
2025-01-18 12:30:17.587855	178.7	60.6	-94.9	0.0
2025-01-18 12:30:18.705929	179.0	61.1	-94.9	0.0
2025-01-18 12:30:19.829087	179.3	61.5	-94.7	0.0
2025-01-18 12:30:20.951558	179.7	62.0	-94.9	0.0
2025-01-18 12:30:22.072883	180.0	62.5	-95.1	0.0
2025-01-18 12:30:23.194854	180.3	62.9	-95.1	0.0
2025-01-18 12:30:24.314987	180.7	63.4	-94.8	0.0
2025-01-18 12:30:25.437077	181.1	63.9	-94.9	0.0
2025-01-18 12:30:26.556750	181.5	64.4	-94.6	0.0
2025-01-18 12:30:27.677831	181.9	64.8	-94.8	0.0
2025-01-18 12:30:28.799039	182.3	65.3	-94.8	0.0
2025-01-18 12:30:29.918456	182.7	65.8	-94.8	0.0
2025-01-18 12:30:31.039734	183.2	66.3	-94.7	0.0
2025-01-18 12:30:32.161975	183.6	66.7	-94.7	0.0
2025-01-18 12:30:33.281938	184.1	67.2	-95.0	0.0
2025-01-18 12:30:34.404749	184.7	67.7	-94.8	0.0
2025-01-18 12:30:35.525880	185.2	68.2	-95.0	0.0
2025-01-18 12:30:36.646564	185.8	68.7	-94.7	0.0
2025-01-18 12:30:37.767266	186.4	69.2	-94.8	0.0
2025-01-18 12:30:38.887914	187.0	69.6	-94.7	0.0
2025-01-18 12:30:40.008828	187.7	70.1	-94.8	0.0
2025-01-18 12:30:41.128178	188.4	70.6	-94.9	0.0
2025-01-18 12:30:42.250899	189.1	71.1	-94.9	0.0
2025-01-18 12:30:43.372316	189.9	71.6	-94.8	0.0
2025-01-18 12:30:44.492661	190.7	72.1	-94.8	0.0
2025-01-18 12:30:45.611050	191.6	72.6	-94.8	0.0
2025-01-18 12:30:46.732904	192.6	73.0	-94.8	0.0
2025-01-18 12:30:47.853474	193.5	73.5	-94.8	0.0
2025-01-18 12:30:48.973475	194.6	74.0	-94.7	0.0
2025-01-18 12:30:50.095268	195.7	74.5	-95.0	0.0
2025-01-18 12:30:51.215656	196.9	74.9	-94.8	0.0
2025-01-18 12:30:52.335382	198.1	75.4	-94.8	0.0
2025-01-18 12:30:53.455673	199.5	75.8	-95.0	0.0
2025-01-18 12:30:54.576167	200.9	76.3	-94.9	0.0
2025-01-18 12:30:55.696187	202.5	76.7	-94.9	0.0
2025-01-18 12:30:56.817299	204.1	77.2	-94.8	0.0
2025-01-18 12:30:57.938063	205.9	77.6	-95.2	0.0
2025-01-18 12:30:59.058390	207.7	78.0	-95.1	0.0
2025-01-18 12:31:00.180122	209.8	78.4	-94.7	0.0
2025-01-18 12:31:01.300506	211.9	78.8	-94.8	0.0
2025-01-18 12:31:02.422037	214.3	79.2	-94.7	0.0
2025-01-18 12:31:03.542383	216.8	79.5	-95.0	0.0
2025-01-18 12:31:04.663392	219.4	79.8	-95.0	0.0
2025-01-18 12:31:05.783799	222.2	80.2	-94.6	0.0
2025-01-18 12:31:06.902994	225.2	80.4	-94.8	0.0
2025-01-18 12:31:08.023892	228.4	80.7	-95.2	0.0
2025-01-18 12:31:09.142774	231.8	80.9	-94.7	0.0
2025-01-18 12:31:10.261862	235.3	81.1	-94.8	0.0
2025-01-18 12:31:11.379983	239.0	81.3	-94.9	0.0
2025-01-18 12:31:12.503317	242.8	81.4	-95.1	0.0
2025-01-18 12:31:13.625677	246.7	81.5	-95.0	0.0
2025-01-18 12:31:14.744468	250.6	81.5	-94.8	0.0
2025-01-18 12:31:15.866855	254.6	81.6	-94.9	0.0
2025-01-18 12:31:16.988491	258.6	81.5	-94.7	0.0
2025-01-18 12:31:18.109838	262.5	81.5	-94.9	0.0
2025-01-18 12:31:19.228912	266.4	81.3	-94.8	0.0
2025-01-18 12:31:20.349209	270.1	81.2	-94.8	0.0
2025-01-18 12:31:21.469756	273.7	81.0	-94.8	0.0
2025-01-18 12:31:22.593991	277.1	80.8	-94.7	0.0
2025-01-18 12:31:23.716090	280.4	80.5	-94.4	0.0
2025-01-18 12:31:24.837533	283.5	80.3	-94.6	0.0
2025-01-18 12:31:25.956572	286.4	80.0	-94.8	0.0
2025-01-18 12:31:27.077985	289.1	79.6	-94.7	0.0
2025-01-18 12:31:28.199135	291.6	79.3	-94.5	0.0
2025-01-18 12:31:29.319548	294.0	78.9	-94.6	0.0
2025-01-18 12:31:30.438502	296.2	78.6	-94.6	0.0
2025-01-18 12:31:31.559913	298.3	78.2	-94.6	0.0
2025-01-18 12:31:32.679983	300.3	77.8	-94.6	0.0
2025-01-18 12:31:33.802092	302.1	77.3	-94.4	0.0
2025-01-18 12:31:34.923296	303.8	76.9	-94.6	0.0
2025-01-18 12:31:36.043633	305.3	76.5	-94.6	0.0
2025-01-18 12:31:37.165674	306.8	76.0	-94.5	0.0
2025-01-18 12:31:38.286609	308.2	75.6	-94.8	0.0
2025-01-18 12:31:39.406313	309.5	75.1	-94.5	0.0
2025-01-18 12:31:40.528620	310.7	74.6	-94.4	0.0
2025-01-18 12:31:41.652102	311.8	74.2	-94.5	0.0
2025-01-18 12:31:42.772823	312.9	73.7	-94.8	0.0
2025-01-18 12:31:43.894010	313.9	73.2	-94.8	0.0
2025-01-18 12:31:45.017946	314.9	72.8	-94.8	0.0
2025-01-18 12:31:46.137655	315.8	72.3	-94.7	0.0
2025-01-18 12:31:47.257878	316.6	71.8	-94.7	0.0
2025-01-18 12:31:48.377503	317.4	71.3	-94.7	0.0
2025-01-18 12:31:49.497387	318.2	70.8	-94.5	0.0
2025-01-18 12:31:50.616563	318.9	70.3	-94.9	0.0
2025-01-18 12:31:51.735228	319.5	69.9	-94.4	0.0
2025-01-18 12:31:52.854766	320.2	69.4	-94.6	0.0
2025-01-18 12:31:53.975775	320.8	68.9	-94.8	0.0
2025-01-18 12:31:55.096937	321.4	68.4	-94.7	0.0
2025-01-18 12:31:56.220008	322.0	67.9	-94.8	0.0
2025-01-18 12:31:57.341263	322.5	67.4	-94.7	0.0
2025-01-18 12:31:58.462323	323.0	66.9	-94.7	0.0
2025-01-18 12:31:59.580288	323.5	66.5	-94.8	0.0
2025-01-18 12:32:00.701385	323.9	66.0	-94.7	0.0
2025-01-18 12:32:01.822016	324.4	65.5	-95.1	0.0
2025-01-18 12:32:02.941705	324.8	65.0	-94.6	0.0
2025-01-18 12:32:04.063826	325.2	64.6	-94.6	0.0
2025-01-18 12:32:05.186123	325.6	64.1	-94.8	0.0
2025-01-18 12:32:06.307867	326.0	63.6	-94.9	0.0
2025-01-18 12:32:07.429636	326.4	63.2	-94.9	0.0
2025-01-18 12:32:08.548706	326.7	62.7	-94.8	0.0
2025-01-18 12:32:09.670920	327.0	62.2	-94.6	0.0
2025-01-18 12:32:10.793530	327.4	61.8	-94.9	0.0
2025-01-18 12:32:11.914164	327.7	61.3	-94.9	0.0
2025-01-18 12:32:13.035242	328.0	60.8	-95.0	0.0
2025-01-18 12:32:14.156059	328.3	60.4	-94.8	0.0
2025-01-18 12:32:15.277248	328.5	59.9	-94.8	0.0
2025-01-18 12:32:16.398548	328.8	59.5	-94.7	0.0
2025-01-18 12:32:17.519862	329.1	59.0	-94.7	0.0
2025-01-18 12:32:18.640923	329.3	58.6	-94.4	0.0
2025-01-18 12:32:19.762162	329.6	58.2	-94.8	0.0
2025-01-18 12:32:20.882799	329.8	57.7	-95.0	0.0
2025-01-18 12:32:22.004195	330.0	57.3	-94.7	0.0
2025-01-18 12:32:23.126198	330.3	56.9	-94.7	0.0
2025-01-18 12:32:24.247068	330.5	56.4	-94.6	0.0
2025-01-18 12:32:25.367894	330.7	56.0	-94.5	0.0
2025-01-18 12:32:26.490292	330.9	55.6	-94.5	0.0
2025-01-18 12:32:27.612431	331.1	55.2	-94.5	0.0
2025-01-18 12:32:28.732118	331.3	54.8	-94.6	0.0
2025-01-18 12:32:29.854594	331.5	54.3	-94.7	0.0
2025-01-18 12:32:30.975944	331.6	53.9	-94.4	0.0
2025-01-18 12:32:32.094697	331.8	53.5	-94.6	0.0
2025-01-18 12:32:33.214422	332.0	53.1	-94.7	0.0
2025-01-18 12:32:34.337210	332.2	52.7	-94.8	0.0
2025-01-18 12:32:35.459671	332.3	52.3	-94.8	0.0
2025-01-18 12:32:36.581931	332.5	51.9	-94.7	0.0
2025-01-18 12:32:37.702485	332.6	51.5	-94.9	0.0
2025-01-18 12:32:38.823510	332.8	51.1	-94.8	0.0
2025-01-18 12:32:39.943661	332.9	50.8	-94.7	0.0
2025-01-18 12:32:41.065613	333.1	50.4	-94.8	0.0
2025-01-18 12:32:42.185947	333.2	50.0	-94.9	0.0
2025-01-18 12:32:43.307603	333.3	49.6	-94.8	0.0
2025-01-18 12:32:44.428876	333.5	49.2	-94.8	0.0
2025-01-18 12:32:45.549847	333.6	48.9	-94.7	0.0
2025-01-18 12:32:46.670010	333.7	48.5	-94.8	0.0
2025-01-18 12:32:47.791450	333.9	48.1	-94.8	0.0
2025-01-18 12:32:48.910811	334.0	47.8	-94.6	0.0
2025-01-18 12:32:50.033075	334.1	47.4	-94.6	0.0
2025-01-18 12:32:51.154801	334.2	47.1	-94.7	0.0
2025-01-18 12:32:52.275236	334.3	46.7	-95.2	0.0
2025-01-18 12:32:53.398070	334.4	46.4	-94.7	0.0
2025-01-18 12:32:54.520196	334.5	46.0	-94.9	0.0
2025-01-18 12:32:55.640687	334.6	45.7	-94.8	0.0
2025-01-18 12:32:56.762755	334.8	45.3	-94.8	0.0
2025-01-18 12:32:57.885065	334.9	45.0	-94.7	0.0
2025-01-18 12:32:59.007067	335.0	44.6	-94.7	0.0
2025-01-18 12:33:00.129895	335.1	44.3	-94.9	0.0
2025-01-18 12:33:01.250810	335.1	44.0	-94.8	0.0
2025-01-18 12:33:02.369044	335.2	43.6	-94.7	0.0
2025-01-18 12:33:03.489085	335.3	43.3	-94.8	0.0
2025-01-18 12:33:04.607765	335.4	43.0	-94.9	0.0
2025-01-18 12:33:05.727289	335.5	42.7	-94.9	0.0
2025-01-18 12:33:06.847228	335.6	42.4	-94.6	0.0
2025-01-18 12:33:07.969116	335.7	42.1	-94.6	0.0
2025-01-18 12:33:09.090342	335.8	41.7	-94.9	0.0
2025-01-18 12:33:10.212916	335.9	41.4	-94.6	0.0
2025-01-18 12:33:11.333902	335.9	41.1	-94.8	0.0
2025-01-18 12:33:12.454596	336.0	40.8	-94.7	0.0
2025-01-18 12:33:13.575530	336.1	40.5	-94.8	0.0
2025-01-18 12:33:14.697756	336.2	40.2	-94.9	0.0
2025-01-18 12:33:15.821757	336.2	39.9	-94.9	0.0
2025-01-18 12:33:16.943784	336.3	39.6	-94.9	0.0
2025-01-18 12:33:18.065510	336.4	39.3	-95.0	0.0
2025-01-18 12:33:19.187426	336.5	39.0	-94.8	0.0
2025-01-18 12:33:20.308112	336.5	38.8	-94.9	0.0
2025-01-18 12:33:21.430377	336.6	38.5	-94.8	0.0
2025-01-18 12:33:22.549280	336.7	38.2	-95.0	0.0
2025-01-18 12:33:23.671804	336.7	37.9	-94.9	0.0
2025-01-18 12:33:24.793717	336.8	37.6	-94.6	0.0
2025-01-18 12:33:25.912906	336.9	37.4	-94.6	0.0
2025-01-18 12:33:27.034864	336.9	37.1	-94.8	0.0
2025-01-18 12:33:28.155735	337.0	36.8	-94.9	0.0
2025-01-18 12:33:29.278661	337.1	36.5	-95.0	0.0
2025-01-18 12:33:30.401322	337.1	36.3	-94.6	0.0
2025-01-18 12:33:31.522138	337.2	36.0	-94.6	0.0
2025-01-18 12:33:32.642804	337.2	35.8	-94.7	0.0
2025-01-18 12:33:33.763781	337.3	35.5	-94.7	0.0
2025-01-18 12:33:34.885698	337.4	35.2	-94.8	0.0
2025-01-18 12:33:36.007633	337.4	35.0	-94.6	0.0
2025-01-18 12:33:37.130372	337.5	34.7	-94.9	0.0
2025-01-18 12:33:38.250335	337.5	34.5	-95.0	0.0
2025-01-18 12:33:39.371432	337.6	34.2	-94.8	0.0
2025-01-18 12:33:40.491591	337.6	34.0	-94.8	0.0
2025-01-18 12:33:41.613006	337.7	33.7	-94.8	0.0
2025-01-18 12:33:42.733960	337.7	33.5	-95.1	0.0
2025-01-18 12:33:43.856078	337.8	33.2	-95.1	0.0
2025-01-18 12:33:44.976815	337.8	33.0	-95.1	0.0
2025-01-18 12:33:46.097330	337.9	32.8	-95.0	0.0
2025-01-18 12:33:47.218805	337.9	32.5	-94.9	0.0
2025-01-18 12:33:48.339905	338.0	32.3	-95.1	0.0
2025-01-18 12:33:49.462708	338.0	32.1	-95.0	0.0
2025-01-18 12:33:50.583472	338.1	31.8	-95.0	0.0
2025-01-18 12:33:51.705059	338.1	31.6	-94.9	0.0
2025-01-18 12:33:52.826624	338.2	31.4	-94.9	0.0
2025-01-18 12:33:53.947907	338.2	31.2	-94.8	0.0
2025-01-18 12:33:55.068893	338.3	30.9	-95.0	0.0
2025-01-18 12:33:56.190577	338.3	30.7	-94.8	0.0
2025-01-18 12:33:57.309771	338.4	30.5	-95.1	0.0
2025-01-18 12:33:58.429648	338.4	30.3	-94.8	0.0
2025-01-18 12:33:59.550867	338.4	30.1	-94.9	0.0
2025-01-18 12:34:00.669426	338.5	29.8	-95.0	0.0
2025-01-18 12:34:01.793600	338.5	29.6	-94.8	0.0
2025-01-18 12:34:02.912749	338.6	29.4	-95.1	0.0
2025-01-18 12:34:04.034021	338.6	29.2	-94.9	0.0
2025-01-18 12:34:05.154487	338.6	29.0	-94.8	0.0
2025-01-18 12:34:06.274797	338.7	28.8	-94.9	0.0
2025-01-18 12:34:07.394435	338.7	28.6	-95.0	0.0
2025-01-18 12:34:08.514846	338.8	28.4	-94.9	0.0
2025-01-18 12:34:09.636192	338.8	28.2	-94.9	0.0
2025-01-18 12:34:10.757653	338.8	28.0	-94.8	0.0
2025-01-18 12:34:11.876017	338.9	27.8	-95.1	0.0
2025-01-18 12:34:12.997875	338.9	27.6	-95.0	0.0
2025-01-18 12:34:14.119456	339.0	27.4	-94.9	0.0
2025-01-18 12:34:15.238987	339.0	27.2	-94.7	0.0
2025-01-18 12:34:16.358901	339.0	27.0	-94.8	0.0
2025-01-18 12:34:17.478770	339.1	26.8	-95.0	0.0
2025-01-18 12:34:18.598478	339.1	26.6	-94.9	0.0
2025-01-18 12:34:19.719812	339.1	26.4	-94.9	0.0
2025-01-18 12:34:20.840795	339.2	26.2	-94.8	0.0
2025-01-18 12:34:21.960945	339.2	26.0	-95.0	0.0
2025-01-18 12:34:23.081990	339.2	25.9	-95.0	0.0
2025-01-18 12:34:24.203861	339.3	25.7	-94.8	0.0
2025-01-18 12:34:25.324136	339.3	25.5	-94.8	0.0
2025-01-18 12:34:26.444639	339.3	25.3	-94.8	0.0
2025-01-18 12:34:27.563923	339.4	25.1	-94.9	0.0
2025-01-18 12:34:28.683767	339.4	24.9	-95.0	0.0
2025-01-18 12:34:29.804268	339.4	24.8	-95.0	0.0
2025-01-18 12:34:30.925240	339.5	24.6	-94.8	0.0
2025-01-18 12:34:32.044863	339.5	24.4	-94.7	0.0
2025-01-18 12:34:33.165577	339.5	24.2	-94.9	0.0
2025-01-18 12:34:34.285653	339.6	24.1	-94.8	0.0
2025-01-18 12:34:35.405503	339.6	23.9	-94.8	0.0
2025-01-18 12:34:36.526875	339.6	23.7	-94.6	0.0
2025-01-18 12:34:37.646913	339.6	23.5	-94.7	0.0
2025-01-18 12:34:38.767376	339.7	23.4	-94.9	0.0
2025-01-18 12:34:39.889054	339.7	23.2	-94.9	0.0
2025-01-18 12:34:41.010447	339.7	23.0	-95.0	0.0
2025-01-18 12:34:42.131672	339.8	22.9	-94.8	0.0
2025-01-18 12:34:43.252770	339.8	22.7	-94.7	0.0
2025-01-18 12:34:44.371436	339.8	22.5	-94.8	0.0
2025-01-18 12:34:45.491890	339.8	22.4	-95.0	0.0
2025-01-18 12:34:46.614252	339.9	22.2	-94.9	0.0
2025-01-18 12:34:47.735772	339.9	22.1	-94.6	0.0
2025-01-18 12:34:48.857170	339.9	21.9	-94.7	0.0
2025-01-18 12:34:49.977527	340.0	21.7	-95.1	0.0
2025-01-18 12:34:51.098594	340.0	21.6	-94.9	0.0
2025-01-18 12:34:52.220471	340.0	21.4	-94.8	0.0
2025-01-18 12:34:53.341798	340.0	21.3	-94.9	0.0
2025-01-18 12:34:54.463750	340.1	21.1	-94.7	0.0
2025-01-18 12:34:55.584867	340.1	21.0	-94.9	0.0
2025-01-18 12:34:56.706745	340.1	20.8	-95.0	0.0
2025-01-18 12:34:57.826638	340.1	20.7	-94.9	0.0
2025-01-18 12:34:58.947921	340.2	20.5	-95.0	0.0
2025-01-18 12:35:00.070169	340.2	20.4	-94.9	0.0
2025-01-18 12:35:01.193067	340.2	20.2	-95.1	0.0
2025-01-18 12:35:02.314764	340.2	20.1	-94.8	0.0
2025-01-18 12:35:03.436778	340.3	19.9	-94.9	0.0
2025-01-18 12:35:04.559443	340.3	19.8	-95.0	0.0
2025-01-18 12:35:05.679607	340.3	19.6	-95.0	0.0
2025-01-18 12:35:06.800751	340.3	19.5	-95.1	0.0
2025-01-18 12:35:07.920853	340.4	19.3	-95.2	0.0
2025-01-18 12:35:09.041035	340.4	19.2	-95.3	0.0
2025-01-18 12:35:10.162760	340.4	19.0	-95.1	0.0
2025-01-18 12:35:11.280300	340.4	18.9	-94.8	0.0
2025-01-18 12:35:12.404039	340.5	18.8	-95.2	0.0
2025-01-18 12:35:13.524990	340.5	18.6	-95.2	0.0
2025-01-18 12:35:14.644891	340.5	18.5	-94.9	0.0
2025-01-18 12:35:15.765396	340.5	18.4	-94.9	0.0
2025-01-18 12:35:16.886891	340.5	18.2	-95.0	0.0
2025-01-18 12:35:18.009149	340.6	18.1	-95.2	0.0
2025-01-18 12:35:19.130146	340.6	17.9	-94.8	0.0
2025-01-18 12:35:20.251372	340.6	17.8	-95.1	0.0
2025-01-18 12:35:21.372922	340.6	17.7	-95.0	0.0
2025-01-18 12:35:22.493903	340.7	17.5	-94.8	0.0
2025-01-18 12:35:23.615191	340.7	17.4	-94.7	0.0
2025-01-18 12:35:24.735388	340.7	17.3	-95.0	0.0
2025-01-18 12:35:25.856311	340.7	17.1	-95.1	0.0
2025-01-18 12:35:26.978136	340.7	17.0	-94.7	0.0
2025-01-18 12:35:28.099448	340.8	16.9	-94.8	0.0
2025-01-18 12:35:29.223352	340.8	16.8	-94.8	0.0
2025-01-18 12:35:30.343283	340.8	16.6	-94.7	0.0
2025-01-18 12:35:31.466899	340.8	16.5	-94.8	0.0
2025-01-18 12:35:32.586604	340.8	16.4	-94.6	0.0
2025-01-18 12:35:33.707311	340.9	16.2	-94.8	0.0
2025-01-18 12:35:34.827842	340.9	16.1	-94.7	0.0
2025-01-18 12:35:35.949774	340.9	16.0	-94.9	0.0
2025-01-18 12:35:37.071183	340.9	15.9	-94.5	0.0
2025-01-18 12:35:38.193033	340.9	15.7	-94.8	0.0
2025-01-18 12:35:39.313944	341.0	15.6	-94.8	0.0
2025-01-18 12:35:40.435739	341.0	15.5	-95.0	0.0
2025-01-18 12:35:41.555824	341.0	15.4	-95.1	0.0
2025-01-18 12:35:42.676067	341.0	15.3	-94.7	0.0
2025-01-18 12:35:43.796922	341.0	15.1	-94.8	0.0
2025-01-18 12:35:44.918575	341.1	15.0	-95.0	0.0
2025-01-18 12:35:46.036930	341.1	14.9	-94.9	0.0
2025-01-18 12:35:47.157472	341.1	14.8	-94.7	0.0
2025-01-18 12:35:48.276174	341.1	14.7	-94.6	0.0
2025-01-18 12:35:49.397532	341.1	14.5	-94.9	0.0
2025-01-18 12:35:50.520640	341.2	14.4	-95.0	0.0
2025-01-18 12:35:51.642087	341.2	14.3	-94.9	0.0
2025-01-18 12:35:52.763318	341.2	14.2	-95.1	0.0
2025-01-18 12:35:53.883120	341.2	14.1	-94.8	0.0
2025-01-18 12:35:55.003951	341.2	14.0	-94.7	0.0
2025-01-18 12:35:56.127155	341.2	13.8	-95.1	0.0
2025-01-18 12:35:57.249590	341.3	13.7	-95.2	0.0
2025-01-18 12:35:58.370865	341.3	13.6	-95.3	0.0
2025-01-18 12:35:59.492056	341.3	13.5	-95.2	0.0
2025-01-18 12:36:00.610748	341.3	13.4	-95.0	0.0
2025-01-18 12:36:01.733743	341.3	13.3	-94.7	0.0
2025-01-18 12:36:02.854485	341.3	13.2	-94.9	0.0
2025-01-18 12:36:03.974270	341.4	13.1	-95.2	0.0
2025-01-18 12:36:05.096459	341.4	12.9	-95.4	0.0
2025-01-18 12:36:06.219133	341.4	12.8	-94.7	0.0
2025-01-18 12:36:07.337564	341.4	12.7	-95.0	0.0
2025-01-18 12:36:08.457808	341.4	12.6	-95.0	0.0
2025-01-18 12:36:09.578501	341.5	12.5	-95.0	0.0
2025-01-18 12:36:10.700333	341.5	12.4	-94.8	0.0
2025-01-18 12:36:11.820775	341.5	12.3	-94.9	0.0
2025-01-18 12:36:12.941444	341.5	12.2	-95.0	0.0
2025-01-18 12:36:14.062776	341.5	12.1	-94.8	0.0
2025-01-18 12:36:15.184563	341.5	12.0	-94.5	0.0
2025-01-18 12:36:16.305133	341.5	11.9	-95.0	0.0
2025-01-18 12:36:17.426185	341.6	11.8	-94.8	0.0
2025-01-18 12:36:18.547201	341.6	11.7	-94.8	0.0
2025-01-18 12:36:19.667682	341.6	11.6	-94.7	0.0
2025-01-18 12:36:20.788941	341.6	11.4	-94.8	0.0
2025-01-18 12:36:21.910879	341.6	11.3	-94.6	0.0
2025-01-18 12:36:23.032838	341.6	11.2	-94.5	0.0
2025-01-18 12:36:24.152926	341.7	11.1	-94.8	0.0
2025-01-18 12:36:25.273537	341.7	11.0	-94.9	0.0
2025-01-18 12:36:26.396607	341.7	10.9	-94.6	0.0
2025-01-18 12:36:27.518542	341.7	10.8	-94.7	0.0
2025-01-18 12:36:28.640073	341.7	10.7	-94.8	0.0
2025-01-18 12:36:29.759078	341.7	10.6	-94.9	0.0
2025-01-18 12:36:30.879320	341.8	10.5	-94.8	0.0
2025-01-18 12:36:31.999839	341.8	10.4	-94.7	0.0
2025-01-18 12:36:33.122251	341.8	10.3	-94.6	0.0
2025-01-18 12:36:34.243240	341.8	10.2	-94.8	0.0
2025-01-18 12:36:35.363672	341.8	10.1	-94.7	0.0
2025-01-18 12:36:36.485557	341.8	10.0	-95.0	0.0
#Closed at: 2025-01-18 12:25:51.450611