passes_logs/2025/01/18/planumMaritime01/planumMaritime01__20250118_085046_NOAA_18_rec.log

#Pass ID: 20250118_085046_NOAA 18
#Satellite: NOAA 18
#Configuration: NOAA 18
#Start time: 2025-01-18 08:50:51.832669

#LorettStation: 1.0.0 05.05.2024
#Station: planumMaritime01
#Location: 37.49445 lon 55.92918 lat
#TLE: 1 28654U 05018A   25017.14480960  .00000361  00000+0  21486-3 0  9999
#TLE: 2 28654  98.8562  98.1779 0014463 173.1209 187.0164 14.13488310 13483

#Time	Az	El	Level	SNR
2025-01-18 08:50:53.996517	19.0	10.2	-94.3	0.0
2025-01-18 08:50:55.116802	19.0	10.3	-94.4	0.0
2025-01-18 08:50:56.238739	19.0	10.4	-94.7	0.0
2025-01-18 08:50:57.359763	19.1	10.5	-94.7	0.0
2025-01-18 08:50:58.478908	19.1	10.6	-94.6	0.0
2025-01-18 08:50:59.599849	19.1	10.7	-94.4	0.0
2025-01-18 08:51:00.722399	19.1	10.8	-94.6	0.0
2025-01-18 08:51:01.842353	19.1	10.9	-94.6	0.0
2025-01-18 08:51:02.964463	19.2	11.0	-94.8	0.0
2025-01-18 08:51:04.084725	19.2	11.1	-94.8	0.0
2025-01-18 08:51:05.203909	19.2	11.2	-94.6	0.0
2025-01-18 08:51:06.324617	19.2	11.3	-94.5	0.0
2025-01-18 08:51:07.444444	19.3	11.4	-94.8	0.0
2025-01-18 08:51:08.565720	19.3	11.5	-94.7	0.0
2025-01-18 08:51:09.686229	19.3	11.6	-94.8	0.0
2025-01-18 08:51:10.805953	19.3	11.7	-94.4	0.0
2025-01-18 08:51:11.925961	19.4	11.8	-94.5	0.0
2025-01-18 08:51:13.047041	19.4	11.9	-94.6	0.0
2025-01-18 08:51:14.170907	19.4	12.0	-94.8	0.0
2025-01-18 08:51:15.292089	19.4	12.1	-94.9	0.0
2025-01-18 08:51:16.414368	19.4	12.2	-94.7	0.0
2025-01-18 08:51:17.536590	19.5	12.3	-94.6	0.0
2025-01-18 08:51:18.657811	19.5	12.4	-94.7	0.0
2025-01-18 08:51:19.780626	19.5	12.5	-94.5	0.0
2025-01-18 08:51:20.900621	19.5	12.6	-94.4	0.0
2025-01-18 08:51:22.023997	19.6	12.7	-94.6	0.0
2025-01-18 08:51:23.145225	19.6	12.8	-94.5	0.0
2025-01-18 08:51:24.266823	19.6	12.9	-94.5	0.0
2025-01-18 08:51:25.387507	19.6	13.0	-94.7	0.0
2025-01-18 08:51:26.509469	19.7	13.1	-94.6	0.0
2025-01-18 08:51:27.631040	19.7	13.3	-94.5	0.0
2025-01-18 08:51:28.752438	19.7	13.4	-94.4	0.0
2025-01-18 08:51:29.873179	19.7	13.5	-94.6	0.0
2025-01-18 08:51:30.992867	19.8	13.6	-94.6	0.0
2025-01-18 08:51:32.113032	19.8	13.7	-94.6	0.0
2025-01-18 08:51:33.236039	19.8	13.8	-94.5	0.0
2025-01-18 08:51:34.359058	19.8	13.9	-94.6	0.0
2025-01-18 08:51:35.479826	19.9	14.0	-94.6	0.0
2025-01-18 08:51:36.601826	19.9	14.1	-94.5	0.0
2025-01-18 08:51:37.721885	19.9	14.3	-94.5	0.0
2025-01-18 08:51:38.842785	20.0	14.4	-94.7	0.0
2025-01-18 08:51:39.964787	20.0	14.5	-94.8	0.0
2025-01-18 08:51:41.086880	20.0	14.6	-94.8	0.0
2025-01-18 08:51:42.206676	20.0	14.7	-94.6	0.0
2025-01-18 08:51:43.326562	20.1	14.8	-94.7	0.0
2025-01-18 08:51:44.446843	20.1	14.9	-94.6	0.0
2025-01-18 08:51:45.569420	20.1	15.1	-94.7	0.0
2025-01-18 08:51:46.689334	20.1	15.2	-94.7	0.0
2025-01-18 08:51:47.809400	20.2	15.3	-94.6	0.0
2025-01-18 08:51:48.931175	20.2	15.4	-94.7	0.0
2025-01-18 08:51:50.054925	20.2	15.5	-94.8	0.0
2025-01-18 08:51:51.175340	20.3	15.7	-94.7	0.0
2025-01-18 08:51:52.297922	20.3	15.8	-94.7	0.0
2025-01-18 08:51:53.419020	20.3	15.9	-94.8	0.0
2025-01-18 08:51:54.540145	20.3	16.0	-94.6	0.0
2025-01-18 08:51:55.662928	20.4	16.1	-94.5	0.0
2025-01-18 08:51:56.784365	20.4	16.3	-94.4	0.0
2025-01-18 08:51:57.905181	20.4	16.4	-94.7	0.0
2025-01-18 08:51:59.026759	20.5	16.5	-94.7	0.0
2025-01-18 08:52:00.147023	20.5	16.6	-94.6	0.0
2025-01-18 08:52:01.269170	20.5	16.8	-94.4	0.0
2025-01-18 08:52:02.390421	20.6	16.9	-94.7	0.0
2025-01-18 08:52:03.511330	20.6	17.0	-94.8	0.0
2025-01-18 08:52:04.633484	20.6	17.1	-94.7	0.0
2025-01-18 08:52:05.754915	20.7	17.3	-94.9	0.0
2025-01-18 08:52:06.875290	20.7	17.4	-94.9	0.0
2025-01-18 08:52:07.997755	20.7	17.5	-94.8	0.0
2025-01-18 08:52:09.119319	20.7	17.7	-94.7	0.0
2025-01-18 08:52:10.240123	20.8	17.8	-94.6	0.0
2025-01-18 08:52:11.360842	20.8	17.9	-94.7	0.0
2025-01-18 08:52:12.482884	20.8	18.0	-94.7	0.0
2025-01-18 08:52:13.606261	20.9	18.2	-94.7	0.0
2025-01-18 08:52:14.728946	20.9	18.3	-94.9	0.0
2025-01-18 08:52:15.850287	20.9	18.4	-94.7	0.0
2025-01-18 08:52:16.972359	21.0	18.6	-94.6	0.0
2025-01-18 08:52:18.093428	21.0	18.7	-94.5	0.0
2025-01-18 08:52:19.215182	21.0	18.9	-94.6	0.0
2025-01-18 08:52:20.337830	21.1	19.0	-94.3	0.0
2025-01-18 08:52:21.459836	21.1	19.1	-94.5	0.0
2025-01-18 08:52:22.580847	21.2	19.3	-94.7	0.0
2025-01-18 08:52:23.700657	21.2	19.4	-94.9	0.0
2025-01-18 08:52:24.821575	21.2	19.5	-94.7	0.0
2025-01-18 08:52:25.943091	21.3	19.7	-94.5	0.0
2025-01-18 08:52:27.064484	21.3	19.8	-94.6	0.0
2025-01-18 08:52:28.186727	21.3	20.0	-94.6	0.0
2025-01-18 08:52:29.308639	21.4	20.1	-94.7	0.0
2025-01-18 08:52:30.430928	21.4	20.3	-94.9	0.0
2025-01-18 08:52:31.551842	21.4	20.4	-95.0	0.0
2025-01-18 08:52:32.673757	21.5	20.6	-94.7	0.0
2025-01-18 08:52:33.794803	21.5	20.7	-94.8	0.0
2025-01-18 08:52:34.915737	21.6	20.8	-95.1	0.0
2025-01-18 08:52:36.036553	21.6	21.0	-95.0	0.0
2025-01-18 08:52:37.158370	21.6	21.1	-94.9	0.0
2025-01-18 08:52:38.275861	21.7	21.3	-94.8	0.0
2025-01-18 08:52:39.396168	21.7	21.4	-94.9	0.0
2025-01-18 08:52:40.515007	21.8	21.6	-95.1	0.0
2025-01-18 08:52:41.637990	21.8	21.7	-94.7	0.0
2025-01-18 08:52:42.756273	21.8	21.9	-94.7	0.0
2025-01-18 08:52:43.877393	21.9	22.1	-94.8	0.0
2025-01-18 08:52:44.999812	21.9	22.2	-94.8	0.0
2025-01-18 08:52:46.122692	22.0	22.4	-94.7	0.0
2025-01-18 08:52:47.245381	22.0	22.5	-94.4	0.0
2025-01-18 08:52:48.365844	22.0	22.7	-95.0	0.0
2025-01-18 08:52:49.485625	22.1	22.8	-94.4	0.0
2025-01-18 08:52:50.607907	22.1	23.0	-94.7	0.0
2025-01-18 08:52:51.729112	22.2	23.2	-94.7	0.0
2025-01-18 08:52:52.849869	22.2	23.3	-94.5	0.0
2025-01-18 08:52:53.970574	22.3	23.5	-94.5	0.0
2025-01-18 08:52:55.089787	22.3	23.7	-94.9	0.0
2025-01-18 08:52:56.210412	22.4	23.8	-94.8	0.0
2025-01-18 08:52:57.333426	22.4	24.0	-94.7	0.0
2025-01-18 08:52:58.454524	22.5	24.1	-94.5	0.0
2025-01-18 08:52:59.572563	22.5	24.3	-94.3	0.0
2025-01-18 08:53:00.694719	22.5	24.5	-94.7	0.0
2025-01-18 08:53:01.817448	22.6	24.7	-94.5	0.0
2025-01-18 08:53:02.937902	22.6	24.8	-94.4	0.0
2025-01-18 08:53:04.060846	22.7	25.0	-94.5	0.0
2025-01-18 08:53:05.180492	22.7	25.2	-94.5	0.0
2025-01-18 08:53:06.302036	22.8	25.4	-94.4	0.0
2025-01-18 08:53:07.423347	22.8	25.5	-94.5	0.0
2025-01-18 08:53:08.543529	22.9	25.7	-94.5	0.0
2025-01-18 08:53:09.664316	22.9	25.9	-94.5	0.0
2025-01-18 08:53:10.786028	23.0	26.1	-94.2	0.0
2025-01-18 08:53:11.903561	23.0	26.2	-94.3	0.0
2025-01-18 08:53:13.026676	23.1	26.4	-94.6	0.0
2025-01-18 08:53:14.146853	23.2	26.6	-94.7	0.0
2025-01-18 08:53:15.268926	23.2	26.8	-94.8	0.0
2025-01-18 08:53:16.390410	23.3	27.0	-94.3	0.0
2025-01-18 08:53:17.511268	23.3	27.2	-94.5	0.0
2025-01-18 08:53:18.632088	23.4	27.4	-94.6	0.0
2025-01-18 08:53:19.755058	23.4	27.5	-94.8	0.0
2025-01-18 08:53:20.874795	23.5	27.7	-94.8	0.0
2025-01-18 08:53:21.995738	23.5	27.9	-94.7	0.0
2025-01-18 08:53:23.115718	23.6	28.1	-94.4	0.0
2025-01-18 08:53:24.236945	23.7	28.3	-94.8	0.0
2025-01-18 08:53:25.358207	23.7	28.5	-94.5	0.0
2025-01-18 08:53:26.480383	23.8	28.7	-94.8	0.0
2025-01-18 08:53:27.601164	23.8	28.9	-95.0	0.0
2025-01-18 08:53:28.721881	23.9	29.1	-94.9	0.0
2025-01-18 08:53:29.842112	24.0	29.3	-94.8	0.0
2025-01-18 08:53:30.963933	24.0	29.5	-94.9	0.0
2025-01-18 08:53:32.085844	24.1	29.7	-94.9	0.0
2025-01-18 08:53:33.205620	24.2	29.9	-94.9	0.0
2025-01-18 08:53:34.326582	24.2	30.1	-94.7	0.0
2025-01-18 08:53:35.446878	24.3	30.3	-95.0	0.0
2025-01-18 08:53:36.568508	24.4	30.5	-94.9	0.0
2025-01-18 08:53:37.688825	24.4	30.8	-94.9	0.0
2025-01-18 08:53:38.809431	24.5	31.0	-94.7	0.0
2025-01-18 08:53:39.933096	24.6	31.2	-94.8	0.0
2025-01-18 08:53:41.054963	24.6	31.4	-94.9	0.0
2025-01-18 08:53:42.175165	24.7	31.6	-94.8	0.0
2025-01-18 08:53:43.297455	24.8	31.8	-94.4	0.0
2025-01-18 08:53:44.419317	24.8	32.1	-94.5	0.0
2025-01-18 08:53:45.539742	24.9	32.3	-94.7	0.0
2025-01-18 08:53:46.660949	25.0	32.5	-94.7	0.0
2025-01-18 08:53:47.782429	25.1	32.7	-94.9	0.0
2025-01-18 08:53:48.905502	25.2	33.0	-94.6	0.0
2025-01-18 08:53:50.027087	25.2	33.2	-94.6	0.0
2025-01-18 08:53:51.146708	25.3	33.4	-94.6	0.0
2025-01-18 08:53:52.267949	25.4	33.7	-94.8	0.0
2025-01-18 08:53:53.390605	25.5	33.9	-94.6	0.0
2025-01-18 08:53:54.511824	25.6	34.1	-94.7	0.0
2025-01-18 08:53:55.631551	25.6	34.4	-95.0	0.0
2025-01-18 08:53:56.752504	25.7	34.6	-94.6	0.0
2025-01-18 08:53:57.873229	25.8	34.8	-94.7	0.0
2025-01-18 08:53:58.994905	25.9	35.1	-94.8	0.0
2025-01-18 08:54:00.116785	26.0	35.3	-94.6	0.0
2025-01-18 08:54:01.238374	26.1	35.6	-94.7	0.0
2025-01-18 08:54:02.359828	26.2	35.8	-94.8	0.0
2025-01-18 08:54:03.480183	26.3	36.1	-94.9	0.0
2025-01-18 08:54:04.600843	26.3	36.3	-94.9	0.0
2025-01-18 08:54:05.723742	26.4	36.6	-94.7	0.0
2025-01-18 08:54:06.844889	26.5	36.8	-94.8	0.0
2025-01-18 08:54:07.967343	26.6	37.1	-94.8	0.0
2025-01-18 08:54:09.088866	26.7	37.4	-94.7	0.0
2025-01-18 08:54:10.208938	26.8	37.6	-94.9	0.0
2025-01-18 08:54:11.332730	26.9	37.9	-94.8	0.0
2025-01-18 08:54:12.453662	27.0	38.2	-94.7	0.0
2025-01-18 08:54:13.572766	27.2	38.4	-94.9	0.0
2025-01-18 08:54:14.693868	27.3	38.7	-95.0	0.0
2025-01-18 08:54:15.816755	27.4	39.0	-94.8	0.0
2025-01-18 08:54:16.939494	27.5	39.2	-94.7	0.0
2025-01-18 08:54:18.060875	27.6	39.5	-95.1	0.0
2025-01-18 08:54:19.182022	27.7	39.8	-94.9	0.0
2025-01-18 08:54:20.303198	27.8	40.1	-94.6	0.0
2025-01-18 08:54:21.425652	27.9	40.4	-94.9	0.0
2025-01-18 08:54:22.546569	28.1	40.6	-94.8	0.0
2025-01-18 08:54:23.667154	28.2	40.9	-95.2	0.0
2025-01-18 08:54:24.788362	28.3	41.2	-94.9	0.0
2025-01-18 08:54:25.911343	28.4	41.5	-94.8	0.0
2025-01-18 08:54:27.035282	28.6	41.8	-94.9	0.0
2025-01-18 08:54:28.156011	28.7	42.1	-95.0	0.0
2025-01-18 08:54:29.276937	28.8	42.4	-94.9	0.0
2025-01-18 08:54:30.399153	29.0	42.7	-94.8	0.0
2025-01-18 08:54:31.520995	29.1	43.0	-94.6	0.0
2025-01-18 08:54:32.642003	29.2	43.3	-94.6	0.0
2025-01-18 08:54:33.762338	29.4	43.6	-94.8	0.0
2025-01-18 08:54:34.883650	29.5	43.9	-94.6	0.0
2025-01-18 08:54:36.005775	29.7	44.2	-94.7	0.0
2025-01-18 08:54:37.126209	29.8	44.6	-94.5	0.0
2025-01-18 08:54:38.247989	30.0	44.9	-94.5	0.0
2025-01-18 08:54:39.368023	30.2	45.2	-94.6	0.0
2025-01-18 08:54:40.491545	30.3	45.5	-94.7	0.0
2025-01-18 08:54:41.608736	30.5	45.8	-94.8	0.0
2025-01-18 08:54:42.732154	30.7	46.2	-94.6	0.0
2025-01-18 08:54:43.852090	30.8	46.5	-94.5	0.0
2025-01-18 08:54:44.973737	31.0	46.8	-94.6	0.0
2025-01-18 08:54:46.095758	31.2	47.2	-94.8	0.0
2025-01-18 08:54:47.218816	31.4	47.5	-94.7	0.0
2025-01-18 08:54:48.339006	31.5	47.8	-94.9	0.0
2025-01-18 08:54:49.460609	31.7	48.2	-94.8	0.0
2025-01-18 08:54:50.581448	31.9	48.5	-94.6	0.0
2025-01-18 08:54:51.702577	32.1	48.9	-94.9	0.0
2025-01-18 08:54:52.824612	32.3	49.2	-94.9	0.0
2025-01-18 08:54:53.945771	32.5	49.6	-94.8	0.0
2025-01-18 08:54:55.066891	32.8	49.9	-95.0	0.0
2025-01-18 08:54:56.189643	33.0	50.3	-95.0	0.0
2025-01-18 08:54:57.310857	33.2	50.6	-94.7	0.0
2025-01-18 08:54:58.433828	33.4	51.0	-94.8	0.0
2025-01-18 08:54:59.553638	33.7	51.3	-94.8	0.0
2025-01-18 08:55:00.676628	33.9	51.7	-94.8	0.0
2025-01-18 08:55:01.797882	34.1	52.1	-94.8	0.0
2025-01-18 08:55:02.918977	34.4	52.4	-94.7	0.0
2025-01-18 08:55:04.041043	34.6	52.8	-94.8	0.0
2025-01-18 08:55:05.161758	34.9	53.2	-94.8	0.0
2025-01-18 08:55:06.283695	35.2	53.6	-94.7	0.0
2025-01-18 08:55:07.405263	35.5	53.9	-94.9	0.0
2025-01-18 08:55:08.525737	35.7	54.3	-94.7	0.0
2025-01-18 08:55:09.646774	36.0	54.7	-94.9	0.0
2025-01-18 08:55:10.768016	36.3	55.1	-94.8	0.0
2025-01-18 08:55:11.888093	36.6	55.5	-94.6	0.0
2025-01-18 08:55:13.009834	37.0	55.8	-95.0	0.0
2025-01-18 08:55:14.132459	37.3	56.2	-94.6	0.0
2025-01-18 08:55:15.254934	37.6	56.6	-94.8	0.0
2025-01-18 08:55:16.376719	38.0	57.0	-94.5	0.0
2025-01-18 08:55:17.501295	38.3	57.4	-94.6	0.0
2025-01-18 08:55:18.622242	38.7	57.8	-94.8	0.0
2025-01-18 08:55:19.742349	39.1	58.2	-94.8	0.0
2025-01-18 08:55:20.864840	39.4	58.6	-94.7	0.0
2025-01-18 08:55:21.988011	39.8	59.0	-94.5	0.0
2025-01-18 08:55:23.108421	40.3	59.4	-94.7	0.0
2025-01-18 08:55:24.228908	40.7	59.8	-94.4	0.0
2025-01-18 08:55:25.348927	41.1	60.2	-94.7	0.0
2025-01-18 08:55:26.468672	41.6	60.6	-94.6	0.0
2025-01-18 08:55:27.590705	42.0	61.0	-94.7	0.0
2025-01-18 08:55:28.710519	42.5	61.4	-94.6	0.0
2025-01-18 08:55:29.832170	43.0	61.9	-94.4	0.0
2025-01-18 08:55:30.952541	43.5	62.3	-94.5	0.0
2025-01-18 08:55:32.074172	44.0	62.7	-94.7	0.0
2025-01-18 08:55:33.195584	44.6	63.1	-94.6	0.0
2025-01-18 08:55:34.318593	45.2	63.5	-94.5	0.0
2025-01-18 08:55:35.439605	45.8	63.9	-94.5	0.0
2025-01-18 08:55:36.561985	46.4	64.3	-94.7	0.0
2025-01-18 08:55:37.683494	47.0	64.7	-94.8	0.0
2025-01-18 08:55:38.806210	47.6	65.1	-94.8	0.0
2025-01-18 08:55:39.928552	48.3	65.5	-94.9	0.0
2025-01-18 08:55:41.050661	49.0	65.9	-95.0	0.0
2025-01-18 08:55:42.173126	49.8	66.4	-95.0	0.0
2025-01-18 08:55:43.293358	50.5	66.8	-94.8	0.0
2025-01-18 08:55:44.413676	51.3	67.2	-94.8	0.0
2025-01-18 08:55:45.534854	52.1	67.6	-94.6	0.0
2025-01-18 08:55:46.656094	53.0	68.0	-94.9	0.0
2025-01-18 08:55:47.777971	53.9	68.4	-94.7	0.0
2025-01-18 08:55:48.898823	54.8	68.7	-94.7	0.0
2025-01-18 08:55:50.019439	55.7	69.1	-94.8	0.0
2025-01-18 08:55:51.139738	56.7	69.5	-94.7	0.0
2025-01-18 08:55:52.258693	57.8	69.9	-94.9	0.0
2025-01-18 08:55:53.380188	58.8	70.3	-95.0	0.0
2025-01-18 08:55:54.500481	60.0	70.6	-94.7	0.0
2025-01-18 08:55:55.621570	61.1	71.0	-94.5	0.0
2025-01-18 08:55:56.742523	62.3	71.4	-94.6	0.0
2025-01-18 08:55:57.864028	63.6	71.7	-94.5	0.0
2025-01-18 08:55:58.986236	64.9	72.1	-94.5	0.0
2025-01-18 08:56:00.106861	66.3	72.4	-94.7	0.0
2025-01-18 08:56:01.227499	67.7	72.7	-94.6	0.0
2025-01-18 08:56:02.348253	69.2	73.0	-94.5	0.0
2025-01-18 08:56:03.470197	70.8	73.3	-94.6	0.0
2025-01-18 08:56:04.590746	72.4	73.6	-94.5	0.0
2025-01-18 08:56:05.713299	74.0	73.9	-94.5	0.0
2025-01-18 08:56:06.833148	75.7	74.2	-94.5	0.0
2025-01-18 08:56:07.953736	77.5	74.5	-94.8	0.0
2025-01-18 08:56:09.075132	79.4	74.7	-94.6	0.0
2025-01-18 08:56:10.196854	81.3	74.9	-94.7	0.0
2025-01-18 08:56:11.317884	83.2	75.1	-94.6	0.0
2025-01-18 08:56:12.437914	85.3	75.3	-94.5	0.0
2025-01-18 08:56:13.560036	87.3	75.5	-94.7	0.0
2025-01-18 08:56:14.678844	89.5	75.7	-94.5	0.0
2025-01-18 08:56:15.798761	91.6	75.8	-94.6	0.0
2025-01-18 08:56:16.919737	93.8	75.9	-94.6	0.0
2025-01-18 08:56:18.040287	96.1	76.0	-94.7	0.0
2025-01-18 08:56:19.163195	98.4	76.1	-94.7	0.0
2025-01-18 08:56:20.285907	100.7	76.2	-94.6	0.0
2025-01-18 08:56:21.407845	103.0	76.2	-94.7	0.0
2025-01-18 08:56:22.529711	105.3	76.2	-94.8	0.0
2025-01-18 08:56:23.650016	107.6	76.2	-94.8	0.0
2025-01-18 08:56:24.771688	110.0	76.2	-94.6	0.0
2025-01-18 08:56:25.891601	112.3	76.1	-94.9	0.0
2025-01-18 08:56:27.013909	114.5	76.0	-95.0	0.0
2025-01-18 08:56:28.134769	116.8	75.9	-94.9	0.0
2025-01-18 08:56:29.255924	119.0	75.8	-94.7	0.0
2025-01-18 08:56:30.377670	121.2	75.7	-94.9	0.0
2025-01-18 08:56:31.497917	123.3	75.5	-94.9	0.0
2025-01-18 08:56:32.618321	125.4	75.4	-94.9	0.0
2025-01-18 08:56:33.740537	127.5	75.2	-94.9	0.0
2025-01-18 08:56:34.860601	129.4	75.0	-94.7	0.0
2025-01-18 08:56:35.981630	131.4	74.7	-95.0	0.0
2025-01-18 08:56:37.105015	133.2	74.5	-94.6	0.0
2025-01-18 08:56:38.226304	135.0	74.2	-94.7	0.0
2025-01-18 08:56:39.347846	136.8	74.0	-94.6	0.0
2025-01-18 08:56:40.469449	138.4	73.7	-94.8	0.0
2025-01-18 08:56:41.590177	140.1	73.4	-94.9	0.0
2025-01-18 08:56:42.710426	141.6	73.1	-94.7	0.0
2025-01-18 08:56:43.833830	143.1	72.8	-94.7	0.0
2025-01-18 08:56:44.958516	144.6	72.5	-94.9	0.0
2025-01-18 08:56:46.079195	145.9	72.1	-94.6	0.0
2025-01-18 08:56:47.199881	147.3	71.8	-94.7	0.0
2025-01-18 08:56:48.318602	148.5	71.4	-94.7	0.0
2025-01-18 08:56:49.438840	149.8	71.1	-94.6	0.0
2025-01-18 08:56:50.559736	150.9	70.7	-94.5	0.0
2025-01-18 08:56:51.679859	152.1	70.3	-94.7	0.0
2025-01-18 08:56:52.799221	153.2	70.0	-94.6	0.0
2025-01-18 08:56:53.919427	154.2	69.6	-94.7	0.0
2025-01-18 08:56:55.039706	155.2	69.2	-94.6	0.0
2025-01-18 08:56:56.161542	156.2	68.8	-94.6	0.0
2025-01-18 08:56:57.284856	157.1	68.4	-94.7	0.0
2025-01-18 08:56:58.405165	158.0	68.0	-94.7	0.0
2025-01-18 08:56:59.527670	158.9	67.6	-94.8	0.0
2025-01-18 08:57:00.647994	159.7	67.2	-95.0	0.0
2025-01-18 08:57:01.768166	160.5	66.8	-94.5	0.0
2025-01-18 08:57:02.889854	161.2	66.4	-94.6	0.0
2025-01-18 08:57:04.009762	162.0	66.0	-94.7	0.0
2025-01-18 08:57:05.129806	162.7	65.6	-94.7	0.0
2025-01-18 08:57:06.250861	163.4	65.2	-95.0	0.0
2025-01-18 08:57:07.369094	164.0	64.8	-94.6	0.0
2025-01-18 08:57:08.492269	164.7	64.4	-94.7	0.0
2025-01-18 08:57:09.611852	165.3	63.9	-94.5	0.0
2025-01-18 08:57:10.731454	165.9	63.5	-94.8	0.0
2025-01-18 08:57:11.851215	166.4	63.1	-94.6	0.0
2025-01-18 08:57:12.974096	167.0	62.7	-94.2	0.0
2025-01-18 08:57:14.097987	167.5	62.3	-94.7	0.0
2025-01-18 08:57:15.218746	168.0	61.9	-94.7	0.0
2025-01-18 08:57:16.339635	168.5	61.5	-94.9	0.0
2025-01-18 08:57:17.461079	169.0	61.1	-95.0	0.0
2025-01-18 08:57:18.580993	169.5	60.7	-94.8	0.0
2025-01-18 08:57:19.703313	169.9	60.2	-94.8	0.0
2025-01-18 08:57:20.826047	170.4	59.8	-94.9	0.0
2025-01-18 08:57:21.947904	170.8	59.4	-94.7	0.0
2025-01-18 08:57:23.068823	171.2	59.0	-94.7	0.0
2025-01-18 08:57:24.190862	171.6	58.6	-94.7	0.0
2025-01-18 08:57:25.310802	172.0	58.2	-94.8	0.0
2025-01-18 08:57:26.432789	172.4	57.8	-94.9	0.0
2025-01-18 08:57:27.554071	172.8	57.4	-94.7	0.0
2025-01-18 08:57:28.674922	173.1	57.0	-94.9	0.0
2025-01-18 08:57:29.796224	173.5	56.6	-94.9	0.0
2025-01-18 08:57:30.916725	173.8	56.2	-95.0	0.0
2025-01-18 08:57:32.036939	174.1	55.8	-95.0	0.0
2025-01-18 08:57:33.158108	174.4	55.5	-94.8	0.0
2025-01-18 08:57:34.279351	174.8	55.1	-94.9	0.0
2025-01-18 08:57:35.399892	175.1	54.7	-94.9	0.0
2025-01-18 08:57:36.520900	175.4	54.3	-94.9	0.0
2025-01-18 08:57:37.642096	175.6	53.9	-94.9	0.0
2025-01-18 08:57:38.764050	175.9	53.5	-95.0	0.0
2025-01-18 08:57:39.884585	176.2	53.2	-95.0	0.0
2025-01-18 08:57:41.006476	176.5	52.8	-94.9	0.0
2025-01-18 08:57:42.125619	176.7	52.4	-94.8	0.0
2025-01-18 08:57:43.245235	177.0	52.0	-94.7	0.0
2025-01-18 08:57:44.367908	177.2	51.7	-94.8	0.0
2025-01-18 08:57:45.490822	177.4	51.3	-94.9	0.0
2025-01-18 08:57:46.611294	177.7	50.9	-94.7	0.0
2025-01-18 08:57:47.732510	177.9	50.6	-94.7	0.0
2025-01-18 08:57:48.855226	178.1	50.2	-94.8	0.0
2025-01-18 08:57:49.975851	178.4	49.9	-94.8	0.0
2025-01-18 08:57:51.096886	178.6	49.5	-95.1	0.0
2025-01-18 08:57:52.219065	178.8	49.2	-95.0	0.0
2025-01-18 08:57:53.340121	179.0	48.8	-95.0	0.0
2025-01-18 08:57:54.461675	179.2	48.5	-94.8	0.0
2025-01-18 08:57:55.582006	179.4	48.1	-94.7	0.0
2025-01-18 08:57:56.702436	179.6	47.8	-94.9	0.0
2025-01-18 08:57:57.823542	179.8	47.4	-94.9	0.0
2025-01-18 08:57:58.946397	179.9	47.1	-94.8	0.0
2025-01-18 08:58:00.067725	180.1	46.8	-94.7	0.0
2025-01-18 08:58:01.190341	180.3	46.4	-94.8	0.0
2025-01-18 08:58:02.312697	180.5	46.1	-94.8	0.0
2025-01-18 08:58:03.433178	180.6	45.8	-94.8	0.0
2025-01-18 08:58:04.553198	180.8	45.4	-94.9	0.0
2025-01-18 08:58:05.674716	181.0	45.1	-94.7	0.0
2025-01-18 08:58:06.797647	181.1	44.8	-94.9	0.0
2025-01-18 08:58:07.917057	181.3	44.5	-94.8	0.0
2025-01-18 08:58:09.037908	181.4	44.2	-95.0	0.0
2025-01-18 08:58:10.160079	181.6	43.8	-94.7	0.0
2025-01-18 08:58:11.279653	181.7	43.5	-94.7	0.0
2025-01-18 08:58:12.399865	181.9	43.2	-95.3	0.0
2025-01-18 08:58:13.519384	182.0	42.9	-94.8	0.0
2025-01-18 08:58:14.641817	182.2	42.6	-94.8	0.0
2025-01-18 08:58:15.763274	182.3	42.3	-94.8	0.0
2025-01-18 08:58:16.885690	182.4	42.0	-95.2	0.0
2025-01-18 08:58:18.005811	182.6	41.7	-95.0	0.0
2025-01-18 08:58:19.126247	182.7	41.4	-95.1	0.0
2025-01-18 08:58:20.246324	182.8	41.1	-94.5	0.0
2025-01-18 08:58:21.366294	182.9	40.8	-95.0	0.0
2025-01-18 08:58:22.487895	183.1	40.5	-95.0	0.0
2025-01-18 08:58:23.608083	183.2	40.3	-95.1	0.0
2025-01-18 08:58:24.729065	183.3	40.0	-95.1	0.0
2025-01-18 08:58:25.848601	183.4	39.7	-95.0	0.0
2025-01-18 08:58:26.969101	183.5	39.4	-94.9	0.0
2025-01-18 08:58:28.089972	183.6	39.1	-94.8	0.0
2025-01-18 08:58:29.210111	183.8	38.8	-95.2	0.0
2025-01-18 08:58:30.331823	183.9	38.6	-95.2	0.0
2025-01-18 08:58:31.449950	184.0	38.3	-94.7	0.0
2025-01-18 08:58:32.570506	184.1	38.0	-94.8	0.0
2025-01-18 08:58:33.690216	184.2	37.8	-95.0	0.0
2025-01-18 08:58:34.810476	184.3	37.5	-95.1	0.0
2025-01-18 08:58:35.932745	184.4	37.2	-94.8	0.0
2025-01-18 08:58:37.056007	184.5	37.0	-94.9	0.0
2025-01-18 08:58:38.175913	184.6	36.7	-94.9	0.0
2025-01-18 08:58:39.297623	184.7	36.4	-94.9	0.0
2025-01-18 08:58:40.419356	184.8	36.2	-95.1	0.0
2025-01-18 08:58:41.540854	184.9	35.9	-95.0	0.0
2025-01-18 08:58:42.661905	185.0	35.7	-94.9	0.0
2025-01-18 08:58:43.783129	185.0	35.4	-94.8	0.0
2025-01-18 08:58:44.904780	185.1	35.2	-95.0	0.0
2025-01-18 08:58:46.026830	185.2	34.9	-95.2	0.0
2025-01-18 08:58:47.147870	185.3	34.7	-95.2	0.0
2025-01-18 08:58:48.272318	185.4	34.4	-95.0	0.0
2025-01-18 08:58:49.394483	185.5	34.2	-95.0	0.0
2025-01-18 08:58:50.514177	185.6	34.0	-94.8	0.0
2025-01-18 08:58:51.634909	185.6	33.7	-94.9	0.0
2025-01-18 08:58:52.753872	185.7	33.5	-94.8	0.0
2025-01-18 08:58:53.874956	185.8	33.3	-94.6	0.0
2025-01-18 08:58:54.997760	185.9	33.0	-94.9	0.0
2025-01-18 08:58:56.120176	186.0	32.8	-94.8	0.0
2025-01-18 08:58:57.241772	186.0	32.6	-94.5	0.0
2025-01-18 08:58:58.363506	186.1	32.3	-94.9	0.0
2025-01-18 08:58:59.483843	186.2	32.1	-94.6	0.0
2025-01-18 08:59:00.604468	186.3	31.9	-94.4	0.0
2025-01-18 08:59:01.726549	186.3	31.7	-94.8	0.0
2025-01-18 08:59:02.848022	186.4	31.4	-95.0	0.0
2025-01-18 08:59:03.970359	186.5	31.2	-95.0	0.0
2025-01-18 08:59:05.091317	186.6	31.0	-95.0	0.0
2025-01-18 08:59:06.211282	186.6	30.8	-94.7	0.0
2025-01-18 08:59:07.330989	186.7	30.6	-94.8	0.0
2025-01-18 08:59:08.451265	186.8	30.4	-94.9	0.0
2025-01-18 08:59:09.573562	186.8	30.1	-95.0	0.0
2025-01-18 08:59:10.694761	186.9	29.9	-95.1	0.0
2025-01-18 08:59:11.814016	187.0	29.7	-95.0	0.0
2025-01-18 08:59:12.935798	187.0	29.5	-94.8	0.0
2025-01-18 08:59:14.058845	187.1	29.3	-95.0	0.0
2025-01-18 08:59:15.179428	187.1	29.1	-95.0	0.0
2025-01-18 08:59:16.301510	187.2	28.9	-95.0	0.0
2025-01-18 08:59:17.420339	187.3	28.7	-95.1	0.0
2025-01-18 08:59:18.542222	187.3	28.5	-95.0	0.0
2025-01-18 08:59:19.662633	187.4	28.3	-95.1	0.0
2025-01-18 08:59:20.784726	187.5	28.1	-95.1	0.0
2025-01-18 08:59:21.904877	187.5	27.9	-95.1	0.0
2025-01-18 08:59:23.025831	187.6	27.7	-95.0	0.0
2025-01-18 08:59:24.148185	187.6	27.5	-94.9	0.0
2025-01-18 08:59:25.268737	187.7	27.3	-94.9	0.0
2025-01-18 08:59:26.389722	187.7	27.1	-95.1	0.0
2025-01-18 08:59:27.510283	187.8	27.0	-95.2	0.0
2025-01-18 08:59:28.629907	187.8	26.8	-94.9	0.0
2025-01-18 08:59:29.751695	187.9	26.6	-94.9	0.0
2025-01-18 08:59:30.874968	188.0	26.4	-94.9	0.0
2025-01-18 08:59:31.996723	188.0	26.2	-95.1	0.0
2025-01-18 08:59:33.114671	188.1	26.0	-95.0	0.0
2025-01-18 08:59:34.236547	188.1	25.8	-94.8	0.0
2025-01-18 08:59:35.357719	188.2	25.7	-94.9	0.0
2025-01-18 08:59:36.478895	188.2	25.5	-95.0	0.0
2025-01-18 08:59:37.599827	188.3	25.3	-94.9	0.0
2025-01-18 08:59:38.720068	188.3	25.1	-94.4	0.0
2025-01-18 08:59:39.841781	188.4	25.0	-94.8	0.0
2025-01-18 08:59:40.962523	188.4	24.8	-94.9	0.0
2025-01-18 08:59:42.082549	188.5	24.6	-94.8	0.0
2025-01-18 08:59:43.201672	188.5	24.4	-94.7	0.0
2025-01-18 08:59:44.321965	188.6	24.3	-94.8	0.0
2025-01-18 08:59:45.443589	188.6	24.1	-94.9	0.0
2025-01-18 08:59:46.564469	188.6	23.9	-94.9	0.0
2025-01-18 08:59:47.686462	188.7	23.8	-94.8	0.0
2025-01-18 08:59:48.807839	188.7	23.6	-94.7	0.0
2025-01-18 08:59:49.929496	188.8	23.4	-94.8	0.0
2025-01-18 08:59:51.051920	188.8	23.3	-94.7	0.0
2025-01-18 08:59:52.172846	188.9	23.1	-94.6	0.0
2025-01-18 08:59:53.293819	188.9	22.9	-95.1	0.0
2025-01-18 08:59:54.416104	189.0	22.8	-95.0	0.0
2025-01-18 08:59:55.535155	189.0	22.6	-94.7	0.0
2025-01-18 08:59:56.658054	189.0	22.4	-94.7	0.0
2025-01-18 08:59:57.777457	189.1	22.3	-94.6	0.0
2025-01-18 08:59:58.901450	189.1	22.1	-95.0	0.0
2025-01-18 09:00:00.023158	189.2	22.0	-94.9	0.0
2025-01-18 09:00:01.145900	189.2	21.8	-95.2	0.0
2025-01-18 09:00:02.266932	189.3	21.7	-94.9	0.0
2025-01-18 09:00:03.389847	189.3	21.5	-95.0	0.0
2025-01-18 09:00:04.509905	189.3	21.3	-94.9	0.0
2025-01-18 09:00:05.631242	189.4	21.2	-94.8	0.0
2025-01-18 09:00:06.752398	189.4	21.0	-94.9	0.0
2025-01-18 09:00:07.873137	189.4	20.9	-95.2	0.0
2025-01-18 09:00:08.994530	189.5	20.7	-95.0	0.0
2025-01-18 09:00:10.116187	189.5	20.6	-95.0	0.0
2025-01-18 09:00:11.237461	189.6	20.4	-94.9	0.0
2025-01-18 09:00:12.356978	189.6	20.3	-94.9	0.0
2025-01-18 09:00:13.475922	189.6	20.1	-95.2	0.0
2025-01-18 09:00:14.596860	189.7	20.0	-95.1	0.0
2025-01-18 09:00:15.717611	189.7	19.9	-94.9	0.0
2025-01-18 09:00:16.837923	189.7	19.7	-94.8	0.0
2025-01-18 09:00:17.960300	189.8	19.6	-94.8	0.0
2025-01-18 09:00:19.081414	189.8	19.4	-95.0	0.0
2025-01-18 09:00:20.202820	189.9	19.3	-94.8	0.0
2025-01-18 09:00:21.326917	189.9	19.1	-94.9	0.0
2025-01-18 09:00:22.448340	189.9	19.0	-94.9	0.0
2025-01-18 09:00:23.569061	190.0	18.9	-94.8	0.0
2025-01-18 09:00:24.689759	190.0	18.7	-94.8	0.0
2025-01-18 09:00:25.809907	190.0	18.6	-94.9	0.0
2025-01-18 09:00:26.929305	190.1	18.5	-94.9	0.0
2025-01-18 09:00:28.052205	190.1	18.3	-95.1	0.0
2025-01-18 09:00:29.174654	190.1	18.2	-94.9	0.0
2025-01-18 09:00:30.294596	190.2	18.0	-94.7	0.0
2025-01-18 09:00:31.414675	190.2	17.9	-94.5	0.0
2025-01-18 09:00:32.534832	190.2	17.8	-94.9	0.0
2025-01-18 09:00:33.657120	190.3	17.6	-94.8	0.0
2025-01-18 09:00:34.777990	190.3	17.5	-94.6	0.0
2025-01-18 09:00:35.899625	190.3	17.4	-95.0	0.0
2025-01-18 09:00:37.022001	190.4	17.3	-94.9	0.0
2025-01-18 09:00:38.141726	190.4	17.1	-94.9	0.0
2025-01-18 09:00:39.264539	190.4	17.0	-94.9	0.0
2025-01-18 09:00:40.385334	190.4	16.9	-94.9	0.0
2025-01-18 09:00:41.507776	190.5	16.7	-95.0	0.0
2025-01-18 09:00:42.630376	190.5	16.6	-94.6	0.0
2025-01-18 09:00:43.752020	190.5	16.5	-94.8	0.0
2025-01-18 09:00:44.873524	190.6	16.4	-94.7	0.0
2025-01-18 09:00:45.994002	190.6	16.2	-94.9	0.0
2025-01-18 09:00:47.113303	190.6	16.1	-94.9	0.0
2025-01-18 09:00:48.235693	190.7	16.0	-95.1	0.0
2025-01-18 09:00:49.355779	190.7	15.9	-94.8	0.0
2025-01-18 09:00:50.474321	190.7	15.7	-94.8	0.0
2025-01-18 09:00:51.595995	190.7	15.6	-94.7	0.0
2025-01-18 09:00:52.718271	190.8	15.5	-94.8	0.0
2025-01-18 09:00:53.838136	190.8	15.4	-95.0	0.0
2025-01-18 09:00:54.960089	190.8	15.3	-95.1	0.0
2025-01-18 09:00:56.079274	190.8	15.1	-94.8	0.0
2025-01-18 09:00:57.202871	190.9	15.0	-94.8	0.0
2025-01-18 09:00:58.324902	190.9	14.9	-94.8	0.0
2025-01-18 09:00:59.445076	190.9	14.8	-95.0	0.0
2025-01-18 09:01:00.567378	191.0	14.7	-94.9	0.0
2025-01-18 09:01:01.689094	191.0	14.5	-94.8	0.0
2025-01-18 09:01:02.809134	191.0	14.4	-94.7	0.0
2025-01-18 09:01:03.929407	191.0	14.3	-94.9	0.0
2025-01-18 09:01:05.051883	191.1	14.2	-94.7	0.0
2025-01-18 09:01:06.172182	191.1	14.1	-95.0	0.0
2025-01-18 09:01:07.292737	191.1	14.0	-94.8	0.0
2025-01-18 09:01:08.412166	191.1	13.9	-95.0	0.0
2025-01-18 09:01:09.533228	191.2	13.7	-95.0	0.0
2025-01-18 09:01:10.655963	191.2	13.6	-94.8	0.0
2025-01-18 09:01:11.776509	191.2	13.5	-94.9	0.0
2025-01-18 09:01:12.895395	191.2	13.4	-94.8	0.0
2025-01-18 09:01:14.015092	191.3	13.3	-95.1	0.0
2025-01-18 09:01:15.135791	191.3	13.2	-94.7	0.0
2025-01-18 09:01:16.256351	191.3	13.1	-95.0	0.0
2025-01-18 09:01:17.377210	191.3	13.0	-94.9	0.0
2025-01-18 09:01:18.497858	191.4	12.9	-95.0	0.0
2025-01-18 09:01:19.618891	191.4	12.7	-94.8	0.0
2025-01-18 09:01:20.740186	191.4	12.6	-94.7	0.0
2025-01-18 09:01:21.859780	191.4	12.5	-94.9	0.0
2025-01-18 09:01:22.981211	191.5	12.4	-94.9	0.0
2025-01-18 09:01:24.101686	191.5	12.3	-94.9	0.0
2025-01-18 09:01:25.224566	191.5	12.2	-95.0	0.0
2025-01-18 09:01:26.343911	191.5	12.1	-94.7	0.0
2025-01-18 09:01:27.463616	191.6	12.0	-94.9	0.0
2025-01-18 09:01:28.584572	191.6	11.9	-94.9	0.0
2025-01-18 09:01:29.707385	191.6	11.8	-94.8	0.0
2025-01-18 09:01:30.827652	191.6	11.7	-94.9	0.0
2025-01-18 09:01:31.947066	191.6	11.6	-94.8	0.0
2025-01-18 09:01:33.066037	191.7	11.5	-94.9	0.0
2025-01-18 09:01:34.187037	191.7	11.4	-94.9	0.0
2025-01-18 09:01:35.306061	191.7	11.3	-94.8	0.0
2025-01-18 09:01:36.427750	191.7	11.2	-94.8	0.0
2025-01-18 09:01:37.545999	191.8	11.1	-94.6	0.0
2025-01-18 09:01:38.668727	191.8	11.0	-94.9	0.0
2025-01-18 09:01:39.790297	191.8	10.9	-94.8	0.0
2025-01-18 09:01:40.909223	191.8	10.8	-94.7	0.0
2025-01-18 09:01:42.029407	191.8	10.7	-94.8	0.0
2025-01-18 09:01:43.150760	191.9	10.6	-94.7	0.0
2025-01-18 09:01:44.271608	191.9	10.5	-94.8	0.0
2025-01-18 09:01:45.390507	191.9	10.4	-95.0	0.0
2025-01-18 09:01:46.511641	191.9	10.3	-94.8	0.0
2025-01-18 09:01:47.634194	191.9	10.2	-94.7	0.0
2025-01-18 09:01:48.756862	192.0	10.1	-94.5	0.0
#Closed at: 2025-01-18 08:50:46.834999