passes_logs/2025/01/18/planumMaritime01/planumMaritime01__20250118_062859_METOP-C_rec.log

#Pass ID: 20250118_062859_METOP-C
#Satellite: METOP-C
#Configuration: METOP-C
#Start time: 2025-01-18 06:29:04.351004

#LorettStation: 1.0.0 05.05.2024
#Station: planumMaritime01
#Location: 37.49445 lon 55.92918 lat
#TLE: 1 43689U 18087A   25017.12268116  .00000242  00000+0  13070-3 0  9997
#TLE: 2 43689  98.6961  79.5832 0001518 160.4189 199.7047 14.21482278321517

#Time	Az	El	Level	SNR
2025-01-18 06:29:06.507462	34.4	10.2	-94.6	0.0
2025-01-18 06:29:07.627363	34.5	10.2	-94.8	0.0
2025-01-18 06:29:08.747545	34.7	10.3	-94.7	0.0
2025-01-18 06:29:09.868377	34.8	10.4	-94.7	0.0
2025-01-18 06:29:10.986519	34.9	10.5	-94.6	0.0
2025-01-18 06:29:12.106771	35.0	10.5	-94.6	0.0
2025-01-18 06:29:13.229206	35.1	10.6	-94.7	0.0
2025-01-18 06:29:14.349762	35.3	10.7	-94.6	0.0
2025-01-18 06:29:15.472962	35.4	10.8	-94.5	0.0
2025-01-18 06:29:16.594038	35.5	10.9	-94.4	0.0
2025-01-18 06:29:17.713230	35.6	10.9	-94.4	0.0
2025-01-18 06:29:18.834200	35.8	11.0	-94.8	0.0
2025-01-18 06:29:19.955685	35.9	11.1	-94.6	0.0
2025-01-18 06:29:21.078000	36.0	11.2	-94.7	0.0
2025-01-18 06:29:22.201555	36.2	11.3	-94.6	0.0
2025-01-18 06:29:23.321865	36.3	11.3	-94.5	0.0
2025-01-18 06:29:24.443665	36.4	11.4	-94.7	0.0
2025-01-18 06:29:25.564363	36.6	11.5	-94.5	0.0
2025-01-18 06:29:26.684499	36.7	11.6	-94.3	0.0
2025-01-18 06:29:27.806374	36.8	11.7	-94.7	0.0
2025-01-18 06:29:28.928950	36.9	11.8	-94.6	0.0
2025-01-18 06:29:30.050272	37.1	11.8	-94.9	0.0
2025-01-18 06:29:31.170529	37.2	11.9	-94.6	0.0
2025-01-18 06:29:32.289970	37.4	12.0	-94.5	0.0
2025-01-18 06:29:33.412330	37.5	12.1	-94.6	0.0
2025-01-18 06:29:34.535266	37.6	12.2	-94.4	0.0
2025-01-18 06:29:35.655002	37.8	12.2	-94.8	0.0
2025-01-18 06:29:36.777530	37.9	12.3	-94.9	0.0
2025-01-18 06:29:37.897640	38.0	12.4	-95.0	0.0
2025-01-18 06:29:39.017872	38.2	12.5	-94.5	0.0
2025-01-18 06:29:40.139194	38.3	12.6	-94.5	0.0
2025-01-18 06:29:41.259812	38.5	12.7	-94.7	0.0
2025-01-18 06:29:42.377617	38.6	12.7	-94.6	0.0
2025-01-18 06:29:43.499225	38.8	12.8	-94.5	0.0
2025-01-18 06:29:44.618649	38.9	12.9	-94.7	0.0
2025-01-18 06:29:45.739547	39.0	13.0	-94.8	0.0
2025-01-18 06:29:46.861130	39.2	13.1	-94.9	0.0
2025-01-18 06:29:47.982199	39.3	13.2	-94.7	0.0
2025-01-18 06:29:49.102765	39.5	13.2	-94.6	0.0
2025-01-18 06:29:50.224019	39.6	13.3	-94.9	0.0
2025-01-18 06:29:51.344584	39.8	13.4	-94.9	0.0
2025-01-18 06:29:52.465626	39.9	13.5	-95.0	0.0
2025-01-18 06:29:53.589820	40.1	13.6	-94.8	0.0
2025-01-18 06:29:54.710744	40.2	13.7	-94.7	0.0
2025-01-18 06:29:55.831383	40.4	13.7	-95.0	0.0
2025-01-18 06:29:56.952182	40.5	13.8	-94.9	0.0
2025-01-18 06:29:58.074432	40.7	13.9	-94.8	0.0
2025-01-18 06:29:59.196321	40.8	14.0	-94.8	0.0
2025-01-18 06:30:00.316552	41.0	14.1	-95.0	0.0
2025-01-18 06:30:01.438499	41.2	14.2	-94.7	0.0
2025-01-18 06:30:02.558252	41.3	14.3	-95.0	0.0
2025-01-18 06:30:03.679234	41.5	14.3	-94.6	0.0
2025-01-18 06:30:04.801014	41.6	14.4	-94.4	0.0
2025-01-18 06:30:05.924361	41.8	14.5	-94.4	0.0
2025-01-18 06:30:07.047297	42.0	14.6	-94.5	0.0
2025-01-18 06:30:08.168677	42.1	14.7	-94.5	0.0
2025-01-18 06:30:09.288398	42.3	14.8	-94.5	0.0
2025-01-18 06:30:10.413243	42.4	14.9	-94.5	0.0
2025-01-18 06:30:11.533697	42.6	14.9	-94.7	0.0
2025-01-18 06:30:12.651874	42.8	15.0	-94.4	0.0
2025-01-18 06:30:13.774116	42.9	15.1	-94.3	0.0
2025-01-18 06:30:14.895229	43.1	15.2	-94.5	0.0
2025-01-18 06:30:16.016525	43.3	15.3	-94.7	0.0
2025-01-18 06:30:17.139234	43.4	15.4	-94.7	0.0
2025-01-18 06:30:18.261010	43.6	15.5	-94.6	0.0
2025-01-18 06:30:19.382649	43.8	15.6	-94.8	0.0
2025-01-18 06:30:20.505790	44.0	15.6	-94.6	0.0
2025-01-18 06:30:21.626830	44.1	15.7	-94.7	0.0
2025-01-18 06:30:22.748888	44.3	15.8	-94.6	0.0
2025-01-18 06:30:23.871350	44.5	15.9	-94.7	0.0
2025-01-18 06:30:24.995086	44.7	16.0	-94.9	0.0
2025-01-18 06:30:26.115619	44.8	16.1	-94.8	0.0
2025-01-18 06:30:27.237631	45.0	16.2	-94.8	0.0
2025-01-18 06:30:28.358198	45.2	16.2	-94.9	0.0
2025-01-18 06:30:29.479435	45.4	16.3	-94.8	0.0
2025-01-18 06:30:30.601108	45.5	16.4	-94.7	0.0
2025-01-18 06:30:31.723775	45.7	16.5	-95.0	0.0
2025-01-18 06:30:32.843361	45.9	16.6	-94.7	0.0
2025-01-18 06:30:33.963510	46.1	16.7	-94.8	0.0
2025-01-18 06:30:35.081854	46.3	16.8	-94.7	0.0
2025-01-18 06:30:36.203369	46.5	16.9	-94.8	0.0
2025-01-18 06:30:37.325498	46.7	16.9	-94.8	0.0
2025-01-18 06:30:38.445069	46.8	17.0	-94.5	0.0
2025-01-18 06:30:39.568640	47.0	17.1	-95.0	0.0
2025-01-18 06:30:40.688750	47.2	17.2	-94.8	0.0
2025-01-18 06:30:41.810738	47.4	17.3	-94.7	0.0
2025-01-18 06:30:42.932355	47.6	17.4	-94.8	0.0
2025-01-18 06:30:44.054011	47.8	17.5	-94.8	0.0
2025-01-18 06:30:45.174339	48.0	17.6	-94.9	0.0
2025-01-18 06:30:46.294674	48.2	17.6	-94.7	0.0
2025-01-18 06:30:47.415240	48.4	17.7	-94.9	0.0
2025-01-18 06:30:48.537677	48.6	17.8	-94.8	0.0
2025-01-18 06:30:49.658445	48.8	17.9	-94.7	0.0
2025-01-18 06:30:50.780360	49.0	18.0	-94.8	0.0
2025-01-18 06:30:51.900967	49.2	18.1	-94.6	0.0
2025-01-18 06:30:53.022834	49.4	18.2	-94.8	0.0
2025-01-18 06:30:54.144296	49.6	18.3	-94.8	0.0
2025-01-18 06:30:55.266347	49.8	18.3	-94.6	0.0
2025-01-18 06:30:56.387709	50.0	18.4	-94.8	0.0
2025-01-18 06:30:57.508153	50.2	18.5	-94.5	0.0
2025-01-18 06:30:58.628150	50.4	18.6	-94.7	0.0
2025-01-18 06:30:59.751211	50.6	18.7	-94.7	0.0
2025-01-18 06:31:00.871730	50.9	18.8	-94.5	0.0
2025-01-18 06:31:01.994740	51.1	18.9	-94.5	0.0
2025-01-18 06:31:03.116869	51.3	19.0	-94.6	0.0
2025-01-18 06:31:04.239701	51.5	19.0	-94.6	0.0
2025-01-18 06:31:05.359197	51.7	19.1	-94.6	0.0
2025-01-18 06:31:06.480270	51.9	19.2	-94.8	0.0
2025-01-18 06:31:07.601211	52.1	19.3	-94.8	0.0
2025-01-18 06:31:08.722608	52.4	19.4	-94.8	0.0
2025-01-18 06:31:09.846701	52.6	19.5	-94.9	0.0
2025-01-18 06:31:10.970358	52.8	19.6	-94.9	0.0
2025-01-18 06:31:12.092853	53.0	19.7	-94.8	0.0
2025-01-18 06:31:13.213569	53.3	19.7	-95.1	0.0
2025-01-18 06:31:14.337041	53.5	19.8	-94.9	0.0
2025-01-18 06:31:15.458334	53.7	19.9	-94.5	0.0
2025-01-18 06:31:16.579368	53.9	20.0	-94.5	0.0
2025-01-18 06:31:17.699405	54.2	20.1	-94.9	0.0
2025-01-18 06:31:18.820576	54.4	20.2	-94.8	0.0
2025-01-18 06:31:19.941683	54.6	20.3	-94.8	0.0
2025-01-18 06:31:21.062941	54.9	20.3	-94.5	0.0
2025-01-18 06:31:22.182999	55.1	20.4	-94.5	0.0
2025-01-18 06:31:23.303952	55.3	20.5	-94.6	0.0
2025-01-18 06:31:24.425250	55.6	20.6	-94.9	0.0
2025-01-18 06:31:25.546649	55.8	20.7	-94.7	0.0
2025-01-18 06:31:26.668238	56.0	20.8	-94.5	0.0
2025-01-18 06:31:27.788133	56.3	20.8	-94.6	0.0
2025-01-18 06:31:28.908457	56.5	20.9	-94.6	0.0
2025-01-18 06:31:30.030482	56.8	21.0	-94.6	0.0
2025-01-18 06:31:31.152211	57.0	21.1	-94.5	0.0
2025-01-18 06:31:32.274723	57.3	21.2	-94.6	0.0
2025-01-18 06:31:33.396274	57.5	21.3	-94.7	0.0
2025-01-18 06:31:34.517209	57.8	21.3	-94.8	0.0
2025-01-18 06:31:35.639239	58.0	21.4	-94.7	0.0
2025-01-18 06:31:36.761157	58.3	21.5	-94.8	0.0
2025-01-18 06:31:37.881647	58.5	21.6	-94.8	0.0
2025-01-18 06:31:39.003990	58.8	21.7	-94.7	0.0
2025-01-18 06:31:40.124531	59.0	21.8	-94.9	0.0
2025-01-18 06:31:41.248556	59.3	21.8	-94.7	0.0
2025-01-18 06:31:42.371160	59.5	21.9	-94.8	0.0
2025-01-18 06:31:43.491648	59.8	22.0	-94.5	0.0
2025-01-18 06:31:44.610527	60.1	22.1	-94.8	0.0
2025-01-18 06:31:45.735208	60.3	22.2	-94.7	0.0
2025-01-18 06:31:46.854604	60.6	22.2	-94.9	0.0
2025-01-18 06:31:47.975411	60.9	22.3	-94.6	0.0
2025-01-18 06:31:49.098337	61.1	22.4	-94.8	0.0
2025-01-18 06:31:50.219358	61.4	22.5	-94.7	0.0
2025-01-18 06:31:51.341226	61.7	22.5	-94.5	0.0
2025-01-18 06:31:52.463003	61.9	22.6	-94.8	0.0
2025-01-18 06:31:53.584128	62.2	22.7	-94.8	0.0
2025-01-18 06:31:54.707149	62.5	22.8	-94.7	0.0
2025-01-18 06:31:55.829317	62.7	22.9	-94.8	0.0
2025-01-18 06:31:56.947706	63.0	22.9	-94.6	0.0
2025-01-18 06:31:58.071260	63.3	23.0	-94.9	0.0
2025-01-18 06:31:59.192257	63.6	23.1	-94.8	0.0
2025-01-18 06:32:00.313328	63.9	23.2	-94.6	0.0
2025-01-18 06:32:01.433207	64.1	23.2	-94.7	0.0
2025-01-18 06:32:02.552374	64.4	23.3	-94.7	0.0
2025-01-18 06:32:03.672795	64.7	23.4	-94.9	0.0
2025-01-18 06:32:04.794050	65.0	23.4	-94.6	0.0
2025-01-18 06:32:05.915726	65.3	23.5	-94.7	0.0
2025-01-18 06:32:07.037137	65.6	23.6	-94.9	0.0
2025-01-18 06:32:08.158486	65.8	23.7	-94.9	0.0
2025-01-18 06:32:09.281548	66.1	23.7	-94.9	0.0
2025-01-18 06:32:10.403252	66.4	23.8	-94.5	0.0
2025-01-18 06:32:11.523946	66.7	23.9	-94.7	0.0
2025-01-18 06:32:12.645260	67.0	23.9	-94.7	0.0
2025-01-18 06:32:13.766617	67.3	24.0	-94.3	0.0
2025-01-18 06:32:14.886914	67.6	24.1	-94.8	0.0
2025-01-18 06:32:16.008904	67.9	24.1	-94.7	0.0
2025-01-18 06:32:17.129776	68.2	24.2	-94.5	0.0
2025-01-18 06:32:18.250308	68.5	24.3	-94.7	0.0
2025-01-18 06:32:19.371395	68.8	24.3	-94.6	0.0
2025-01-18 06:32:20.492173	69.1	24.4	-94.5	0.0
2025-01-18 06:32:21.612366	69.4	24.5	-94.6	0.0
2025-01-18 06:32:22.734160	69.7	24.5	-94.8	0.0
2025-01-18 06:32:23.856509	70.0	24.6	-94.8	0.0
2025-01-18 06:32:24.976056	70.3	24.6	-94.7	0.0
2025-01-18 06:32:26.095924	70.6	24.7	-94.5	0.0
2025-01-18 06:32:27.215279	70.9	24.8	-94.5	0.0
2025-01-18 06:32:28.336544	71.2	24.8	-94.6	0.0
2025-01-18 06:32:29.457537	71.6	24.9	-94.5	0.0
2025-01-18 06:32:30.579278	71.9	24.9	-94.8	0.0
2025-01-18 06:32:31.700028	72.2	25.0	-94.5	0.0
2025-01-18 06:32:32.822048	72.5	25.1	-94.6	0.0
2025-01-18 06:32:33.943967	72.8	25.1	-94.7	0.0
2025-01-18 06:32:35.066366	73.1	25.2	-95.0	0.0
2025-01-18 06:32:36.188278	73.4	25.2	-94.8	0.0
2025-01-18 06:32:37.310267	73.8	25.3	-95.0	0.0
2025-01-18 06:32:38.430621	74.1	25.3	-94.9	0.0
2025-01-18 06:32:39.551878	74.4	25.4	-94.9	0.0
2025-01-18 06:32:40.674247	74.7	25.4	-94.9	0.0
2025-01-18 06:32:41.796200	75.1	25.5	-95.1	0.0
2025-01-18 06:32:42.918155	75.4	25.5	-95.1	0.0
2025-01-18 06:32:44.040471	75.7	25.6	-94.7	0.0
2025-01-18 06:32:45.162578	76.0	25.6	-94.9	0.0
2025-01-18 06:32:46.283360	76.4	25.7	-95.0	0.0
2025-01-18 06:32:47.404312	76.7	25.7	-94.8	0.0
2025-01-18 06:32:48.527050	77.0	25.8	-94.5	0.0
2025-01-18 06:32:49.646218	77.3	25.8	-94.8	0.0
2025-01-18 06:32:50.767418	77.7	25.8	-94.9	0.0
2025-01-18 06:32:51.889489	78.0	25.9	-94.9	0.0
2025-01-18 06:32:53.010207	78.3	25.9	-94.8	0.0
2025-01-18 06:32:54.130473	78.7	26.0	-94.8	0.0
2025-01-18 06:32:55.251365	79.0	26.0	-94.6	0.0
2025-01-18 06:32:56.370841	79.3	26.0	-94.7	0.0
2025-01-18 06:32:57.490519	79.7	26.1	-94.8	0.0
2025-01-18 06:32:58.612329	80.0	26.1	-94.7	0.0
2025-01-18 06:32:59.734431	80.4	26.2	-94.6	0.0
2025-01-18 06:33:00.854948	80.7	26.2	-94.7	0.0
2025-01-18 06:33:01.976910	81.0	26.2	-94.9	0.0
2025-01-18 06:33:03.098044	81.4	26.2	-94.9	0.0
2025-01-18 06:33:04.218001	81.7	26.3	-94.5	0.0
2025-01-18 06:33:05.337999	82.1	26.3	-94.7	0.0
2025-01-18 06:33:06.458299	82.4	26.3	-94.6	0.0
2025-01-18 06:33:07.580249	82.7	26.4	-94.8	0.0
2025-01-18 06:33:08.704224	83.1	26.4	-94.8	0.0
2025-01-18 06:33:09.825212	83.4	26.4	-94.8	0.0
2025-01-18 06:33:10.945351	83.8	26.4	-94.7	0.0
2025-01-18 06:33:12.067385	84.1	26.5	-94.9	0.0
2025-01-18 06:33:13.186671	84.5	26.5	-94.6	0.0
2025-01-18 06:33:14.308302	84.8	26.5	-94.9	0.0
2025-01-18 06:33:15.430073	85.2	26.5	-94.9	0.0
2025-01-18 06:33:16.551260	85.5	26.6	-94.8	0.0
2025-01-18 06:33:17.672121	85.8	26.6	-94.6	0.0
2025-01-18 06:33:18.789954	86.2	26.6	-94.6	0.0
2025-01-18 06:33:19.911218	86.5	26.6	-95.0	0.0
2025-01-18 06:33:21.031250	86.9	26.6	-94.9	0.0
2025-01-18 06:33:22.153086	87.2	26.6	-94.9	0.0
2025-01-18 06:33:23.274181	87.6	26.6	-94.8	0.0
2025-01-18 06:33:24.394838	87.9	26.7	-94.9	0.0
2025-01-18 06:33:25.515385	88.3	26.7	-94.8	0.0
2025-01-18 06:33:26.635261	88.6	26.7	-94.9	0.0
2025-01-18 06:33:27.757950	89.0	26.7	-94.8	0.0
2025-01-18 06:33:28.878873	89.3	26.7	-95.0	0.0
2025-01-18 06:33:29.999480	89.7	26.7	-94.8	0.0
2025-01-18 06:33:31.122215	90.0	26.7	-94.7	0.0
2025-01-18 06:33:32.245072	90.4	26.7	-95.0	0.0
2025-01-18 06:33:33.364813	90.7	26.7	-94.9	0.0
2025-01-18 06:33:34.485988	91.1	26.7	-94.9	0.0
2025-01-18 06:33:35.608204	91.4	26.7	-95.0	0.0
2025-01-18 06:33:36.727861	91.8	26.7	-94.8	0.0
2025-01-18 06:33:37.850246	92.1	26.7	-94.8	0.0
2025-01-18 06:33:38.970666	92.5	26.7	-94.8	0.0
2025-01-18 06:33:40.091701	92.8	26.7	-94.7	0.0
2025-01-18 06:33:41.214494	93.2	26.7	-94.9	0.0
2025-01-18 06:33:42.335539	93.5	26.7	-94.9	0.0
2025-01-18 06:33:43.457132	93.9	26.7	-94.6	0.0
2025-01-18 06:33:44.575447	94.2	26.7	-94.5	0.0
2025-01-18 06:33:45.696050	94.6	26.7	-95.0	0.0
2025-01-18 06:33:46.817803	94.9	26.7	-94.8	0.0
2025-01-18 06:33:47.938901	95.3	26.6	-94.8	0.0
2025-01-18 06:33:49.058979	95.6	26.6	-94.4	0.0
2025-01-18 06:33:50.183317	96.0	26.6	-94.7	0.0
2025-01-18 06:33:51.304251	96.3	26.6	-94.5	0.0
2025-01-18 06:33:52.427509	96.7	26.6	-94.7	0.0
2025-01-18 06:33:53.550477	97.0	26.6	-94.6	0.0
2025-01-18 06:33:54.672550	97.4	26.5	-94.8	0.0
2025-01-18 06:33:55.795063	97.7	26.5	-94.9	0.0
2025-01-18 06:33:56.916512	98.1	26.5	-94.8	0.0
2025-01-18 06:33:58.037002	98.4	26.5	-94.8	0.0
2025-01-18 06:33:59.159494	98.8	26.5	-94.6	0.0
2025-01-18 06:34:00.281452	99.1	26.4	-94.6	0.0
2025-01-18 06:34:01.401278	99.4	26.4	-94.8	0.0
2025-01-18 06:34:02.521856	99.8	26.4	-94.9	0.0
2025-01-18 06:34:03.645373	100.1	26.4	-94.8	0.0
2025-01-18 06:34:04.766715	100.5	26.3	-94.8	0.0
2025-01-18 06:34:05.887390	100.8	26.3	-94.7	0.0
2025-01-18 06:34:07.010008	101.2	26.3	-94.6	0.0
2025-01-18 06:34:08.130803	101.5	26.2	-94.7	0.0
2025-01-18 06:34:09.250306	101.8	26.2	-94.5	0.0
2025-01-18 06:34:10.372997	102.2	26.2	-94.6	0.0
2025-01-18 06:34:11.495318	102.5	26.1	-94.7	0.0
2025-01-18 06:34:12.617108	102.9	26.1	-95.1	0.0
2025-01-18 06:34:13.736804	103.2	26.1	-94.8	0.0
2025-01-18 06:34:14.856927	103.5	26.0	-94.6	0.0
2025-01-18 06:34:15.977367	103.9	26.0	-94.8	0.0
2025-01-18 06:34:17.099806	104.2	26.0	-94.9	0.0
2025-01-18 06:34:18.220912	104.5	25.9	-95.2	0.0
2025-01-18 06:34:19.341231	104.9	25.9	-94.6	0.0
2025-01-18 06:34:20.460762	105.2	25.8	-94.8	0.0
2025-01-18 06:34:21.581643	105.5	25.8	-94.8	0.0
2025-01-18 06:34:22.701253	105.9	25.7	-94.7	0.0
2025-01-18 06:34:23.819964	106.2	25.7	-94.6	0.0
2025-01-18 06:34:24.942611	106.5	25.6	-94.8	0.0
2025-01-18 06:34:26.064923	106.8	25.6	-94.9	0.0
2025-01-18 06:34:27.186546	107.2	25.6	-94.9	0.0
2025-01-18 06:34:28.307215	107.5	25.5	-94.9	0.0
2025-01-18 06:34:29.429030	107.8	25.5	-95.2	0.0
2025-01-18 06:34:30.549650	108.1	25.4	-95.1	0.0
2025-01-18 06:34:31.669134	108.5	25.4	-94.7	0.0
2025-01-18 06:34:32.791928	108.8	25.3	-95.0	0.0
2025-01-18 06:34:33.910586	109.1	25.3	-95.0	0.0
2025-01-18 06:34:35.033239	109.4	25.2	-95.2	0.0
2025-01-18 06:34:36.153498	109.8	25.1	-95.1	0.0
2025-01-18 06:34:37.274076	110.1	25.1	-95.0	0.0
2025-01-18 06:34:38.395050	110.4	25.0	-94.8	0.0
2025-01-18 06:34:39.516684	110.7	25.0	-94.8	0.0
2025-01-18 06:34:40.639055	111.0	24.9	-95.0	0.0
2025-01-18 06:34:41.761282	111.3	24.9	-95.1	0.0
2025-01-18 06:34:42.884039	111.6	24.8	-95.0	0.0
2025-01-18 06:34:44.005003	112.0	24.7	-94.9	0.0
2025-01-18 06:34:45.126320	112.3	24.7	-94.7	0.0
2025-01-18 06:34:46.246613	112.6	24.6	-94.8	0.0
2025-01-18 06:34:47.366693	112.9	24.6	-94.6	0.0
2025-01-18 06:34:48.487243	113.2	24.5	-94.9	0.0
2025-01-18 06:34:49.608393	113.5	24.4	-94.8	0.0
2025-01-18 06:34:50.730015	113.8	24.4	-94.9	0.0
2025-01-18 06:34:51.850902	114.1	24.3	-94.7	0.0
2025-01-18 06:34:52.972561	114.4	24.2	-94.8	0.0
2025-01-18 06:34:54.092092	114.7	24.2	-94.7	0.0
2025-01-18 06:34:55.212746	115.0	24.1	-94.8	0.0
2025-01-18 06:34:56.334210	115.3	24.0	-94.9	0.0
2025-01-18 06:34:57.453337	115.6	24.0	-94.9	0.0
2025-01-18 06:34:58.577497	115.9	23.9	-94.7	0.0
2025-01-18 06:34:59.699699	116.2	23.8	-94.7	0.0
2025-01-18 06:35:00.822374	116.5	23.8	-94.7	0.0
2025-01-18 06:35:01.943407	116.8	23.7	-95.2	0.0
2025-01-18 06:35:03.064234	117.1	23.6	-95.0	0.0
2025-01-18 06:35:04.185076	117.3	23.5	-95.0	0.0
2025-01-18 06:35:05.306630	117.6	23.5	-94.9	0.0
2025-01-18 06:35:06.428402	117.9	23.4	-94.8	0.0
2025-01-18 06:35:07.548874	118.2	23.3	-94.9	0.0
2025-01-18 06:35:08.671787	118.5	23.3	-95.2	0.0
2025-01-18 06:35:09.795305	118.8	23.2	-95.0	0.0
2025-01-18 06:35:10.915346	119.1	23.1	-95.0	0.0
2025-01-18 06:35:12.035959	119.3	23.0	-94.9	0.0
2025-01-18 06:35:13.155067	119.6	23.0	-95.1	0.0
2025-01-18 06:35:14.275549	119.9	22.9	-95.0	0.0
2025-01-18 06:35:15.398940	120.2	22.8	-94.9	0.0
2025-01-18 06:35:16.519336	120.4	22.7	-95.0	0.0
2025-01-18 06:35:17.641554	120.7	22.7	-94.9	0.0
2025-01-18 06:35:18.762259	121.0	22.6	-95.0	0.0
2025-01-18 06:35:19.881517	121.3	22.5	-95.1	0.0
2025-01-18 06:35:21.002460	121.5	22.4	-94.8	0.0
2025-01-18 06:35:22.124342	121.8	22.3	-95.2	0.0
2025-01-18 06:35:23.244443	122.1	22.3	-95.0	0.0
2025-01-18 06:35:24.367481	122.3	22.2	-94.9	0.0
2025-01-18 06:35:25.489763	122.6	22.1	-94.9	0.0
2025-01-18 06:35:26.609509	122.9	22.0	-94.6	0.0
2025-01-18 06:35:27.730391	123.1	21.9	-94.7	0.0
2025-01-18 06:35:28.852087	123.4	21.9	-94.6	0.0
2025-01-18 06:35:29.974410	123.6	21.8	-94.6	0.0
2025-01-18 06:35:31.095246	123.9	21.7	-94.8	0.0
2025-01-18 06:35:32.216796	124.1	21.6	-94.7	0.0
2025-01-18 06:35:33.337077	124.4	21.5	-94.7	0.0
2025-01-18 06:35:34.457284	124.7	21.4	-94.6	0.0
2025-01-18 06:35:35.577875	124.9	21.4	-94.4	0.0
2025-01-18 06:35:36.699311	125.2	21.3	-94.8	0.0
2025-01-18 06:35:37.819157	125.4	21.2	-94.8	0.0
2025-01-18 06:35:38.941110	125.7	21.1	-94.8	0.0
2025-01-18 06:35:40.062839	125.9	21.0	-94.5	0.0
2025-01-18 06:35:41.183233	126.1	20.9	-94.8	0.0
2025-01-18 06:35:42.307941	126.4	20.9	-94.6	0.0
2025-01-18 06:35:43.431652	126.6	20.8	-94.6	0.0
2025-01-18 06:35:44.553382	126.9	20.7	-94.9	0.0
2025-01-18 06:35:45.675474	127.1	20.6	-95.2	0.0
2025-01-18 06:35:46.796372	127.4	20.5	-94.8	0.0
2025-01-18 06:35:47.918834	127.6	20.4	-95.0	0.0
2025-01-18 06:35:49.039238	127.8	20.4	-94.8	0.0
2025-01-18 06:35:50.159398	128.1	20.3	-94.9	0.0
2025-01-18 06:35:51.281322	128.3	20.2	-94.8	0.0
2025-01-18 06:35:52.403841	128.5	20.1	-94.8	0.0
2025-01-18 06:35:53.524782	128.8	20.0	-94.7	0.0
2025-01-18 06:35:54.646802	129.0	19.9	-94.9	0.0
2025-01-18 06:35:55.766934	129.2	19.8	-94.9	0.0
2025-01-18 06:35:56.887120	129.4	19.7	-94.8	0.0
2025-01-18 06:35:58.008001	129.7	19.7	-94.8	0.0
2025-01-18 06:35:59.131317	129.9	19.6	-95.1	0.0
2025-01-18 06:36:00.254538	130.1	19.5	-94.8	0.0
2025-01-18 06:36:01.375315	130.3	19.4	-94.8	0.0
2025-01-18 06:36:02.496646	130.6	19.3	-94.9	0.0
2025-01-18 06:36:03.617735	130.8	19.2	-95.0	0.0
2025-01-18 06:36:04.740001	131.0	19.1	-95.0	0.0
2025-01-18 06:36:05.860229	131.2	19.0	-94.7	0.0
2025-01-18 06:36:06.979211	131.4	19.0	-94.8	0.0
2025-01-18 06:36:08.100751	131.7	18.9	-95.0	0.0
2025-01-18 06:36:09.219724	131.9	18.8	-94.8	0.0
2025-01-18 06:36:10.340130	132.1	18.7	-94.6	0.0
2025-01-18 06:36:11.464100	132.3	18.6	-94.8	0.0
2025-01-18 06:36:12.585238	132.5	18.5	-95.0	0.0
2025-01-18 06:36:13.707299	132.7	18.4	-95.1	0.0
2025-01-18 06:36:14.828155	132.9	18.3	-94.7	0.0
2025-01-18 06:36:15.947860	133.1	18.3	-94.7	0.0
2025-01-18 06:36:17.069022	133.3	18.2	-94.5	0.0
2025-01-18 06:36:18.190062	133.5	18.1	-95.1	0.0
2025-01-18 06:36:19.311083	133.7	18.0	-94.8	0.0
2025-01-18 06:36:20.432251	133.9	17.9	-94.9	0.0
2025-01-18 06:36:21.554466	134.1	17.8	-94.6	0.0
2025-01-18 06:36:22.675159	134.3	17.7	-94.9	0.0
2025-01-18 06:36:23.797374	134.5	17.6	-94.6	0.0
2025-01-18 06:36:24.919966	134.7	17.5	-94.7	0.0
2025-01-18 06:36:26.042874	134.9	17.5	-94.6	0.0
2025-01-18 06:36:27.164735	135.1	17.4	-94.8	0.0
2025-01-18 06:36:28.286966	135.3	17.3	-94.6	0.0
2025-01-18 06:36:29.407802	135.5	17.2	-94.8	0.0
2025-01-18 06:36:30.529058	135.7	17.1	-94.8	0.0
2025-01-18 06:36:31.651379	135.9	17.0	-95.1	0.0
2025-01-18 06:36:32.774184	136.1	16.9	-94.8	0.0
2025-01-18 06:36:33.896485	136.3	16.8	-94.8	0.0
2025-01-18 06:36:35.017726	136.5	16.8	-94.9	0.0
2025-01-18 06:36:36.140286	136.7	16.7	-94.9	0.0
2025-01-18 06:36:37.261260	136.8	16.6	-94.9	0.0
2025-01-18 06:36:38.382519	137.0	16.5	-94.8	0.0
2025-01-18 06:36:39.505614	137.2	16.4	-94.8	0.0
2025-01-18 06:36:40.627385	137.4	16.3	-94.9	0.0
2025-01-18 06:36:41.747021	137.6	16.2	-94.9	0.0
2025-01-18 06:36:42.866859	137.8	16.1	-94.6	0.0
2025-01-18 06:36:43.989127	137.9	16.0	-94.8	0.0
2025-01-18 06:36:45.110253	138.1	16.0	-95.0	0.0
2025-01-18 06:36:46.232076	138.3	15.9	-94.7	0.0
2025-01-18 06:36:47.351817	138.5	15.8	-94.8	0.0
2025-01-18 06:36:48.473111	138.6	15.7	-94.6	0.0
2025-01-18 06:36:49.594671	138.8	15.6	-94.8	0.0
2025-01-18 06:36:50.715244	139.0	15.5	-95.0	0.0
2025-01-18 06:36:51.835672	139.2	15.4	-94.5	0.0
2025-01-18 06:36:52.959166	139.3	15.3	-94.7	0.0
2025-01-18 06:36:54.080685	139.5	15.3	-94.7	0.0
2025-01-18 06:36:55.203231	139.7	15.2	-94.9	0.0
2025-01-18 06:36:56.324135	139.8	15.1	-94.7	0.0
2025-01-18 06:36:57.446652	140.0	15.0	-94.7	0.0
2025-01-18 06:36:58.567738	140.2	14.9	-94.9	0.0
2025-01-18 06:36:59.689232	140.3	14.8	-94.7	0.0
2025-01-18 06:37:00.809150	140.5	14.7	-94.9	0.0
2025-01-18 06:37:01.929554	140.7	14.6	-94.7	0.0
2025-01-18 06:37:03.051209	140.8	14.6	-95.0	0.0
2025-01-18 06:37:04.169612	141.0	14.5	-94.7	0.0
2025-01-18 06:37:05.293774	141.2	14.4	-94.6	0.0
2025-01-18 06:37:06.415454	141.3	14.3	-94.7	0.0
2025-01-18 06:37:07.536898	141.5	14.2	-94.8	0.0
2025-01-18 06:37:08.659147	141.6	14.1	-94.7	0.0
2025-01-18 06:37:09.779346	141.8	14.0	-94.6	0.0
2025-01-18 06:37:10.901349	141.9	14.0	-94.6	0.0
2025-01-18 06:37:12.019782	142.1	13.9	-94.8	0.0
2025-01-18 06:37:13.139760	142.3	13.8	-94.9	0.0
2025-01-18 06:37:14.260758	142.4	13.7	-94.6	0.0
2025-01-18 06:37:15.381211	142.6	13.6	-94.7	0.0
2025-01-18 06:37:16.503983	142.7	13.5	-94.7	0.0
2025-01-18 06:37:17.625107	142.9	13.4	-94.9	0.0
2025-01-18 06:37:18.747327	143.0	13.4	-94.8	0.0
2025-01-18 06:37:19.868770	143.2	13.3	-94.8	0.0
2025-01-18 06:37:20.990130	143.3	13.2	-94.6	0.0
2025-01-18 06:37:22.110476	143.5	13.1	-94.9	0.0
2025-01-18 06:37:23.231622	143.6	13.0	-94.6	0.0
2025-01-18 06:37:24.353380	143.8	12.9	-94.7	0.0
2025-01-18 06:37:25.473392	143.9	12.8	-94.7	0.0
2025-01-18 06:37:26.592918	144.0	12.8	-94.8	0.0
2025-01-18 06:37:27.713700	144.2	12.7	-94.7	0.0
2025-01-18 06:37:28.836062	144.3	12.6	-94.7	0.0
2025-01-18 06:37:29.958356	144.5	12.5	-94.7	0.0
2025-01-18 06:37:31.077583	144.6	12.4	-94.9	0.0
2025-01-18 06:37:32.197785	144.8	12.3	-94.7	0.0
2025-01-18 06:37:33.319136	144.9	12.3	-95.3	0.0
2025-01-18 06:37:34.441964	145.0	12.2	-95.2	0.0
2025-01-18 06:37:35.561714	145.2	12.1	-95.0	0.0
2025-01-18 06:37:36.682013	145.3	12.0	-94.8	0.0
2025-01-18 06:37:37.802837	145.4	11.9	-94.8	0.0
2025-01-18 06:37:38.926525	145.6	11.8	-94.8	0.0
2025-01-18 06:37:40.047567	145.7	11.8	-95.1	0.0
2025-01-18 06:37:41.167171	145.9	11.7	-95.1	0.0
2025-01-18 06:37:42.287434	146.0	11.6	-94.7	0.0
2025-01-18 06:37:43.411453	146.1	11.5	-94.8	0.0
2025-01-18 06:37:44.532876	146.3	11.4	-95.3	0.0
2025-01-18 06:37:45.652338	146.4	11.4	-95.0	0.0
2025-01-18 06:37:46.773331	146.5	11.3	-95.0	0.0
2025-01-18 06:37:47.895492	146.6	11.2	-95.0	0.0
2025-01-18 06:37:49.014763	146.8	11.1	-94.8	0.0
2025-01-18 06:37:50.134609	146.9	11.0	-94.9	0.0
2025-01-18 06:37:51.255390	147.0	10.9	-95.1	0.0
2025-01-18 06:37:52.377720	147.2	10.9	-95.0	0.0
2025-01-18 06:37:53.498348	147.3	10.8	-95.1	0.0
2025-01-18 06:37:54.616435	147.4	10.7	-94.8	0.0
2025-01-18 06:37:55.738415	147.5	10.6	-94.8	0.0
2025-01-18 06:37:56.861154	147.7	10.5	-94.7	0.0
2025-01-18 06:37:57.982687	147.8	10.5	-94.8	0.0
2025-01-18 06:37:59.104322	147.9	10.4	-95.0	0.0
2025-01-18 06:38:00.224534	148.0	10.3	-94.6	0.0
2025-01-18 06:38:01.345226	148.2	10.2	-94.9	0.0
2025-01-18 06:38:02.467676	148.3	10.1	-94.7	0.0
2025-01-18 06:38:03.587389	148.4	10.1	-94.9	0.0
#Closed at: 2025-01-18 06:28:59.351851