passes_logs/2025/01/18/planumMaritime01/planumMaritime01__20250118_005726_METEOR-M2_2_rec.log

#Pass ID: 20250118_005726_METEOR-M2 2
#Satellite: METEOR-M2 2
#Configuration: METEOR-M2 2
#Start time: 2025-01-18 00:57:31.671434

#LorettStation: 1.0.0 05.05.2024
#Station: planumMaritime01
#Location: 37.49445 lon 55.92918 lat
#TLE: 1 44387U 19038A   25017.10552627  .00000225  00000+0  11761-3 0  9997
#TLE: 2 44387  98.8570 353.5196 0002279  75.7364 284.4068 14.24118150287836

#Time	Az	El	Level	SNR
2025-01-18 00:57:33.829068	31.6	10.2	-94.6	0.0
2025-01-18 00:57:34.949569	31.7	10.2	-94.4	0.0
2025-01-18 00:57:36.070592	31.8	10.3	-94.4	0.0
2025-01-18 00:57:37.191730	31.9	10.4	-94.4	0.0
2025-01-18 00:57:38.312727	32.0	10.5	-94.4	0.0
2025-01-18 00:57:39.432415	32.1	10.6	-94.5	0.0
2025-01-18 00:57:40.554544	32.2	10.7	-94.4	0.0
2025-01-18 00:57:41.674619	32.3	10.8	-94.6	0.0
2025-01-18 00:57:42.796271	32.5	10.8	-94.3	0.0
2025-01-18 00:57:43.917419	32.6	10.9	-94.5	0.0
2025-01-18 00:57:45.037177	32.7	11.0	-94.5	0.0
2025-01-18 00:57:46.160631	32.8	11.1	-94.5	0.0
2025-01-18 00:57:47.281785	32.9	11.2	-94.6	0.0
2025-01-18 00:57:48.401889	33.0	11.3	-94.4	0.0
2025-01-18 00:57:49.525064	33.1	11.4	-94.7	0.0
2025-01-18 00:57:50.643776	33.2	11.5	-94.6	0.0
2025-01-18 00:57:51.763688	33.4	11.5	-94.7	0.0
2025-01-18 00:57:52.884843	33.5	11.6	-94.5	0.0
2025-01-18 00:57:54.004846	33.6	11.7	-94.7	0.0
2025-01-18 00:57:55.127526	33.7	11.8	-94.5	0.0
2025-01-18 00:57:56.249194	33.8	11.9	-94.7	0.0
2025-01-18 00:57:57.370720	33.9	12.0	-94.6	0.0
2025-01-18 00:57:58.492523	34.1	12.1	-94.7	0.0
2025-01-18 00:57:59.612584	34.2	12.2	-94.9	0.0
2025-01-18 00:58:00.734649	34.3	12.3	-94.7	0.0
2025-01-18 00:58:01.855753	34.4	12.3	-94.7	0.0
2025-01-18 00:58:02.976745	34.5	12.4	-94.5	0.0
2025-01-18 00:58:04.096555	34.7	12.5	-94.6	0.0
2025-01-18 00:58:05.216565	34.8	12.6	-94.8	0.0
2025-01-18 00:58:06.334207	34.9	12.7	-94.5	0.0
2025-01-18 00:58:07.458385	35.0	12.8	-94.6	0.0
2025-01-18 00:58:08.579072	35.2	12.9	-94.5	0.0
2025-01-18 00:58:09.700737	35.3	13.0	-94.7	0.0
2025-01-18 00:58:10.820099	35.4	13.1	-94.5	0.0
2025-01-18 00:58:11.940592	35.5	13.2	-94.7	0.0
2025-01-18 00:58:13.062674	35.7	13.3	-94.6	0.0
2025-01-18 00:58:14.183375	35.8	13.3	-94.7	0.0
2025-01-18 00:58:15.303067	35.9	13.4	-94.6	0.0
2025-01-18 00:58:16.424682	36.1	13.5	-94.7	0.0
2025-01-18 00:58:17.547547	36.2	13.6	-94.9	0.0
2025-01-18 00:58:18.667740	36.3	13.7	-94.7	0.0
2025-01-18 00:58:19.789677	36.4	13.8	-94.7	0.0
2025-01-18 00:58:20.910068	36.6	13.9	-94.6	0.0
2025-01-18 00:58:22.032162	36.7	14.0	-94.6	0.0
2025-01-18 00:58:23.152390	36.9	14.1	-94.8	0.0
2025-01-18 00:58:24.273255	37.0	14.2	-94.7	0.0
2025-01-18 00:58:25.393596	37.1	14.3	-94.6	0.0
2025-01-18 00:58:26.513042	37.3	14.4	-94.6	0.0
2025-01-18 00:58:27.632757	37.4	14.5	-94.7	0.0
2025-01-18 00:58:28.754371	37.5	14.6	-94.7	0.0
2025-01-18 00:58:29.873773	37.7	14.7	-94.8	0.0
2025-01-18 00:58:30.995619	37.8	14.8	-94.7	0.0
2025-01-18 00:58:32.117167	38.0	14.9	-94.8	0.0
2025-01-18 00:58:33.237092	38.1	14.9	-94.7	0.0
2025-01-18 00:58:34.357720	38.3	15.0	-94.6	0.0
2025-01-18 00:58:35.477485	38.4	15.1	-94.7	0.0
2025-01-18 00:58:36.597754	38.5	15.2	-94.5	0.0
2025-01-18 00:58:37.716557	38.7	15.3	-94.7	0.0
2025-01-18 00:58:38.837978	38.8	15.4	-94.6	0.0
2025-01-18 00:58:39.956674	39.0	15.5	-94.8	0.0
2025-01-18 00:58:41.075726	39.1	15.6	-94.8	0.0
2025-01-18 00:58:42.196182	39.3	15.7	-94.6	0.0
2025-01-18 00:58:43.317593	39.4	15.8	-94.5	0.0
2025-01-18 00:58:44.439039	39.6	15.9	-94.6	0.0
2025-01-18 00:58:45.560960	39.7	16.0	-94.7	0.0
2025-01-18 00:58:46.681447	39.9	16.1	-94.7	0.0
2025-01-18 00:58:47.803171	40.1	16.2	-94.4	0.0
2025-01-18 00:58:48.923920	40.2	16.3	-94.7	0.0
2025-01-18 00:58:50.046465	40.4	16.4	-94.6	0.0
2025-01-18 00:58:51.167241	40.5	16.5	-94.6	0.0
2025-01-18 00:58:52.289836	40.7	16.6	-94.8	0.0
2025-01-18 00:58:53.408990	40.8	16.7	-94.6	0.0
2025-01-18 00:58:54.529478	41.0	16.8	-94.8	0.0
2025-01-18 00:58:55.652027	41.2	16.9	-94.7	0.0
2025-01-18 00:58:56.772985	41.3	17.0	-94.7	0.0
2025-01-18 00:58:57.895670	41.5	17.1	-94.8	0.0
2025-01-18 00:58:59.018048	41.7	17.2	-94.7	0.0
2025-01-18 00:59:00.141115	41.8	17.3	-94.6	0.0
2025-01-18 00:59:01.262181	42.0	17.4	-94.9	0.0
2025-01-18 00:59:02.385265	42.2	17.5	-94.7	0.0
2025-01-18 00:59:03.503839	42.3	17.6	-94.9	0.0
2025-01-18 00:59:04.624671	42.5	17.7	-94.8	0.0
2025-01-18 00:59:05.746624	42.7	17.8	-94.6	0.0
2025-01-18 00:59:06.867347	42.9	17.9	-94.9	0.0
2025-01-18 00:59:07.989691	43.0	18.0	-95.2	0.0
2025-01-18 00:59:09.111687	43.2	18.1	-94.8	0.0
2025-01-18 00:59:10.232106	43.4	18.2	-94.8	0.0
2025-01-18 00:59:11.353011	43.6	18.4	-94.7	0.0
2025-01-18 00:59:12.474021	43.7	18.5	-95.0	0.0
2025-01-18 00:59:13.593332	43.9	18.6	-94.9	0.0
2025-01-18 00:59:14.714596	44.1	18.7	-94.7	0.0
2025-01-18 00:59:15.834854	44.3	18.8	-94.7	0.0
2025-01-18 00:59:16.957059	44.5	18.9	-94.9	0.0
2025-01-18 00:59:18.077160	44.7	19.0	-94.9	0.0
2025-01-18 00:59:19.197924	44.9	19.1	-94.9	0.0
2025-01-18 00:59:20.318962	45.0	19.2	-94.9	0.0
2025-01-18 00:59:21.438633	45.2	19.3	-94.9	0.0
2025-01-18 00:59:22.559718	45.4	19.4	-94.6	0.0
2025-01-18 00:59:23.681634	45.6	19.5	-95.0	0.0
2025-01-18 00:59:24.800790	45.8	19.6	-95.1	0.0
2025-01-18 00:59:25.922812	46.0	19.7	-94.7	0.0
2025-01-18 00:59:27.042177	46.2	19.8	-94.6	0.0
2025-01-18 00:59:28.163509	46.4	19.9	-94.7	0.0
2025-01-18 00:59:29.286032	46.6	20.0	-94.7	0.0
2025-01-18 00:59:30.404421	46.8	20.1	-94.8	0.0
2025-01-18 00:59:31.526750	47.0	20.2	-94.6	0.0
2025-01-18 00:59:32.645778	47.2	20.3	-94.5	0.0
2025-01-18 00:59:33.764585	47.4	20.4	-94.6	0.0
2025-01-18 00:59:34.885604	47.6	20.6	-94.7	0.0
2025-01-18 00:59:36.004940	47.8	20.7	-94.8	0.0
2025-01-18 00:59:37.125071	48.0	20.8	-94.9	0.0
2025-01-18 00:59:38.244034	48.2	20.9	-94.7	0.0
2025-01-18 00:59:39.365654	48.4	21.0	-94.5	0.0
2025-01-18 00:59:40.487513	48.7	21.1	-94.7	0.0
2025-01-18 00:59:41.608560	48.9	21.2	-94.6	0.0
2025-01-18 00:59:42.728326	49.1	21.3	-94.6	0.0
2025-01-18 00:59:43.850119	49.3	21.4	-94.5	0.0
2025-01-18 00:59:44.970715	49.5	21.5	-94.6	0.0
2025-01-18 00:59:46.093535	49.7	21.6	-94.9	0.0
2025-01-18 00:59:47.213732	50.0	21.7	-94.7	0.0
2025-01-18 00:59:48.335720	50.2	21.8	-94.7	0.0
2025-01-18 00:59:49.454280	50.4	21.9	-94.7	0.0
2025-01-18 00:59:50.574758	50.6	22.0	-94.7	0.0
2025-01-18 00:59:51.696468	50.9	22.2	-94.9	0.0
2025-01-18 00:59:52.817377	51.1	22.3	-94.8	0.0
2025-01-18 00:59:53.937005	51.3	22.4	-94.7	0.0
2025-01-18 00:59:55.059732	51.6	22.5	-94.8	0.0
2025-01-18 00:59:56.179359	51.8	22.6	-94.9	0.0
2025-01-18 00:59:57.300665	52.0	22.7	-94.8	0.0
2025-01-18 00:59:58.421786	52.3	22.8	-94.9	0.0
2025-01-18 00:59:59.541684	52.5	22.9	-94.9	0.0
2025-01-18 01:00:00.662065	52.7	23.0	-95.0	0.0
2025-01-18 01:00:01.781361	53.0	23.1	-94.8	0.0
2025-01-18 01:00:02.901157	53.2	23.2	-94.9	0.0
2025-01-18 01:00:04.021937	53.5	23.3	-94.7	0.0
2025-01-18 01:00:05.141721	53.7	23.4	-94.7	0.0
2025-01-18 01:00:06.260613	54.0	23.5	-95.0	0.0
2025-01-18 01:00:07.380302	54.2	23.7	-94.5	0.0
2025-01-18 01:00:08.501428	54.5	23.8	-94.6	0.0
2025-01-18 01:00:09.622401	54.7	23.9	-94.8	0.0
2025-01-18 01:00:10.743602	55.0	24.0	-94.9	0.0
2025-01-18 01:00:11.864947	55.2	24.1	-94.9	0.0
2025-01-18 01:00:12.984977	55.5	24.2	-95.2	0.0
2025-01-18 01:00:14.106912	55.8	24.3	-94.8	0.0
2025-01-18 01:00:15.230705	56.0	24.4	-94.9	0.0
2025-01-18 01:00:16.351511	56.3	24.5	-94.9	0.0
2025-01-18 01:00:17.472379	56.5	24.6	-95.2	0.0
2025-01-18 01:00:18.593579	56.8	24.7	-95.1	0.0
2025-01-18 01:00:19.716574	57.1	24.8	-95.0	0.0
2025-01-18 01:00:20.838529	57.4	24.9	-94.8	0.0
2025-01-18 01:00:21.958861	57.6	25.0	-94.7	0.0
2025-01-18 01:00:23.078724	57.9	25.1	-94.7	0.0
2025-01-18 01:00:24.200077	58.2	25.2	-94.8	0.0
2025-01-18 01:00:25.321836	58.5	25.3	-94.9	0.0
2025-01-18 01:00:26.442350	58.7	25.4	-94.8	0.0
2025-01-18 01:00:27.561402	59.0	25.5	-94.9	0.0
2025-01-18 01:00:28.683440	59.3	25.6	-94.7	0.0
2025-01-18 01:00:29.804469	59.6	25.7	-94.9	0.0
2025-01-18 01:00:30.922468	59.9	25.8	-94.6	0.0
2025-01-18 01:00:32.042386	60.2	25.9	-94.9	0.0
2025-01-18 01:00:33.163104	60.5	26.0	-94.9	0.0
2025-01-18 01:00:34.284237	60.7	26.1	-94.7	0.0
2025-01-18 01:00:35.404539	61.0	26.2	-95.0	0.0
2025-01-18 01:00:36.525827	61.3	26.3	-94.9	0.0
2025-01-18 01:00:37.644392	61.6	26.4	-94.8	0.0
2025-01-18 01:00:38.765720	61.9	26.5	-94.8	0.0
2025-01-18 01:00:39.887782	62.2	26.6	-94.8	0.0
2025-01-18 01:00:41.006905	62.5	26.7	-95.0	0.0
2025-01-18 01:00:42.128794	62.8	26.8	-94.8	0.0
2025-01-18 01:00:43.247375	63.1	26.9	-94.8	0.0
2025-01-18 01:00:44.367780	63.5	27.0	-95.2	0.0
2025-01-18 01:00:45.488943	63.8	27.1	-94.9	0.0
2025-01-18 01:00:46.609079	64.1	27.2	-94.7	0.0
2025-01-18 01:00:47.730869	64.4	27.3	-94.6	0.0
2025-01-18 01:00:48.852561	64.7	27.4	-94.9	0.0
2025-01-18 01:00:49.972594	65.0	27.5	-94.6	0.0
2025-01-18 01:00:51.095377	65.4	27.6	-94.5	0.0
2025-01-18 01:00:52.215468	65.7	27.7	-94.8	0.0
2025-01-18 01:00:53.335451	66.0	27.8	-95.0	0.0
2025-01-18 01:00:54.458100	66.3	27.9	-94.7	0.0
2025-01-18 01:00:55.576381	66.7	28.0	-94.6	0.0
2025-01-18 01:00:56.700688	67.0	28.1	-94.5	0.0
2025-01-18 01:00:57.821068	67.3	28.1	-94.6	0.0
2025-01-18 01:00:58.943445	67.6	28.2	-94.4	0.0
2025-01-18 01:01:00.064584	68.0	28.3	-94.4	0.0
2025-01-18 01:01:01.187918	68.3	28.4	-94.8	0.0
2025-01-18 01:01:02.308686	68.7	28.5	-94.8	0.0
2025-01-18 01:01:03.430435	69.0	28.6	-94.4	0.0
2025-01-18 01:01:04.551845	69.3	28.7	-94.4	0.0
2025-01-18 01:01:05.674232	69.7	28.7	-94.8	0.0
2025-01-18 01:01:06.795056	70.0	28.8	-95.0	0.0
2025-01-18 01:01:07.917984	70.4	28.9	-94.8	0.0
2025-01-18 01:01:09.038136	70.7	29.0	-94.8	0.0
2025-01-18 01:01:10.158712	71.1	29.1	-95.0	0.0
2025-01-18 01:01:11.279891	71.4	29.2	-94.9	0.0
2025-01-18 01:01:12.401462	71.8	29.2	-94.9	0.0
2025-01-18 01:01:13.523464	72.1	29.3	-94.5	0.0
2025-01-18 01:01:14.646877	72.5	29.4	-94.6	0.0
2025-01-18 01:01:15.767034	72.9	29.5	-94.8	0.0
2025-01-18 01:01:16.888526	73.2	29.5	-94.7	0.0
2025-01-18 01:01:18.009449	73.6	29.6	-94.6	0.0
2025-01-18 01:01:19.129155	74.0	29.7	-94.8	0.0
2025-01-18 01:01:20.250049	74.3	29.8	-94.9	0.0
2025-01-18 01:01:21.370528	74.7	29.8	-94.7	0.0
2025-01-18 01:01:22.493962	75.1	29.9	-94.8	0.0
2025-01-18 01:01:23.615357	75.4	30.0	-94.8	0.0
2025-01-18 01:01:24.735308	75.8	30.0	-94.8	0.0
2025-01-18 01:01:25.856123	76.2	30.1	-94.5	0.0
2025-01-18 01:01:26.978786	76.6	30.2	-94.8	0.0
2025-01-18 01:01:28.099776	76.9	30.2	-94.8	0.0
2025-01-18 01:01:29.219003	77.3	30.3	-94.7	0.0
2025-01-18 01:01:30.340699	77.7	30.3	-94.5	0.0
2025-01-18 01:01:31.461913	78.1	30.4	-94.5	0.0
2025-01-18 01:01:32.581880	78.4	30.5	-94.4	0.0
2025-01-18 01:01:33.705014	78.8	30.5	-94.7	0.0
2025-01-18 01:01:34.827255	79.2	30.6	-94.6	0.0
2025-01-18 01:01:35.947717	79.6	30.6	-94.7	0.0
2025-01-18 01:01:37.068796	80.0	30.7	-94.8	0.0
2025-01-18 01:01:38.191702	80.4	30.7	-94.7	0.0
2025-01-18 01:01:39.313052	80.8	30.8	-94.9	0.0
2025-01-18 01:01:40.435772	81.2	30.8	-94.6	0.0
2025-01-18 01:01:41.555633	81.6	30.9	-94.8	0.0
2025-01-18 01:01:42.676703	82.0	30.9	-94.9	0.0
2025-01-18 01:01:43.798997	82.4	31.0	-94.8	0.0
2025-01-18 01:01:44.919914	82.7	31.0	-94.8	0.0
2025-01-18 01:01:46.039632	83.1	31.1	-94.7	0.0
2025-01-18 01:01:47.160706	83.5	31.1	-94.7	0.0
2025-01-18 01:01:48.281615	83.9	31.1	-94.5	0.0
2025-01-18 01:01:49.399017	84.3	31.2	-94.8	0.0
2025-01-18 01:01:50.521486	84.7	31.2	-94.7	0.0
2025-01-18 01:01:51.641025	85.1	31.3	-94.6	0.0
2025-01-18 01:01:52.763642	85.5	31.3	-94.8	0.0
2025-01-18 01:01:53.885633	86.0	31.3	-94.5	0.0
2025-01-18 01:01:55.006801	86.4	31.3	-94.8	0.0
2025-01-18 01:01:56.127378	86.8	31.4	-94.8	0.0
2025-01-18 01:01:57.251441	87.2	31.4	-94.8	0.0
2025-01-18 01:01:58.372088	87.6	31.4	-94.7	0.0
2025-01-18 01:01:59.494849	88.0	31.5	-94.8	0.0
2025-01-18 01:02:00.614931	88.4	31.5	-94.8	0.0
2025-01-18 01:02:01.736993	88.8	31.5	-94.9	0.0
2025-01-18 01:02:02.860674	89.2	31.5	-94.8	0.0
2025-01-18 01:02:03.980840	89.6	31.5	-95.0	0.0
2025-01-18 01:02:05.101759	90.0	31.6	-95.1	0.0
2025-01-18 01:02:06.223663	90.4	31.6	-94.9	0.0
2025-01-18 01:02:07.343714	90.9	31.6	-94.7	0.0
2025-01-18 01:02:08.465064	91.3	31.6	-94.8	0.0
2025-01-18 01:02:09.586689	91.7	31.6	-95.1	0.0
2025-01-18 01:02:10.706654	92.1	31.6	-94.9	0.0
2025-01-18 01:02:11.827831	92.5	31.6	-95.1	0.0
2025-01-18 01:02:12.949590	92.9	31.6	-95.1	0.0
2025-01-18 01:02:14.071718	93.3	31.6	-94.8	0.0
2025-01-18 01:02:15.194927	93.7	31.6	-94.9	0.0
2025-01-18 01:02:16.318585	94.1	31.6	-95.0	0.0
2025-01-18 01:02:17.437876	94.6	31.6	-94.7	0.0
2025-01-18 01:02:18.560700	95.0	31.6	-94.6	0.0
2025-01-18 01:02:19.682767	95.4	31.6	-94.6	0.0
2025-01-18 01:02:20.804539	95.8	31.6	-94.7	0.0
2025-01-18 01:02:21.926973	96.2	31.6	-94.8	0.0
2025-01-18 01:02:23.049767	96.6	31.6	-95.1	0.0
2025-01-18 01:02:24.168608	97.0	31.6	-94.8	0.0
2025-01-18 01:02:25.290599	97.4	31.6	-94.4	0.0
2025-01-18 01:02:26.414694	97.9	31.6	-95.0	0.0
2025-01-18 01:02:27.535836	98.3	31.6	-94.9	0.0
2025-01-18 01:02:28.657526	98.7	31.5	-94.8	0.0
2025-01-18 01:02:29.778383	99.1	31.5	-94.9	0.0
2025-01-18 01:02:30.899284	99.5	31.5	-95.0	0.0
2025-01-18 01:02:32.020689	99.9	31.5	-94.9	0.0
2025-01-18 01:02:33.142717	100.3	31.5	-94.9	0.0
2025-01-18 01:02:34.262899	100.7	31.4	-94.7	0.0
2025-01-18 01:02:35.384746	101.1	31.4	-94.9	0.0
2025-01-18 01:02:36.505052	101.5	31.4	-95.1	0.0
2025-01-18 01:02:37.625965	101.9	31.3	-94.9	0.0
2025-01-18 01:02:38.745369	102.3	31.3	-94.9	0.0
2025-01-18 01:02:39.865406	102.8	31.3	-94.8	0.0
2025-01-18 01:02:40.986110	103.2	31.2	-95.2	0.0
2025-01-18 01:02:42.107607	103.6	31.2	-95.0	0.0
2025-01-18 01:02:43.229942	104.0	31.2	-95.2	0.0
2025-01-18 01:02:44.350877	104.4	31.1	-95.1	0.0
2025-01-18 01:02:45.470768	104.8	31.1	-94.8	0.0
2025-01-18 01:02:46.591630	105.2	31.1	-94.9	0.0
2025-01-18 01:02:47.711544	105.6	31.0	-95.0	0.0
2025-01-18 01:02:48.834096	106.0	31.0	-95.1	0.0
2025-01-18 01:02:49.955101	106.3	30.9	-94.9	0.0
2025-01-18 01:02:51.076454	106.7	30.9	-94.9	0.0
2025-01-18 01:02:52.196637	107.1	30.8	-94.9	0.0
2025-01-18 01:02:53.317850	107.5	30.8	-94.7	0.0
2025-01-18 01:02:54.440769	107.9	30.7	-95.0	0.0
2025-01-18 01:02:55.561350	108.3	30.7	-95.0	0.0
2025-01-18 01:02:56.684729	108.7	30.6	-94.7	0.0
2025-01-18 01:02:57.806770	109.1	30.6	-94.8	0.0
2025-01-18 01:02:58.927418	109.5	30.5	-94.7	0.0
2025-01-18 01:03:00.049567	109.9	30.5	-94.7	0.0
2025-01-18 01:03:01.169437	110.2	30.4	-94.7	0.0
2025-01-18 01:03:02.291593	110.6	30.3	-95.0	0.0
2025-01-18 01:03:03.412759	111.0	30.3	-95.0	0.0
2025-01-18 01:03:04.534679	111.4	30.2	-95.0	0.0
2025-01-18 01:03:05.655794	111.8	30.1	-94.7	0.0
2025-01-18 01:03:06.776889	112.1	30.1	-94.9	0.0
2025-01-18 01:03:07.896707	112.5	30.0	-94.6	0.0
2025-01-18 01:03:09.016342	112.9	29.9	-94.9	0.0
2025-01-18 01:03:10.135321	113.3	29.9	-94.9	0.0
2025-01-18 01:03:11.256968	113.6	29.8	-94.8	0.0
2025-01-18 01:03:12.377783	114.0	29.7	-94.6	0.0
2025-01-18 01:03:13.499453	114.4	29.7	-94.5	0.0
2025-01-18 01:03:14.618864	114.7	29.6	-94.9	0.0
2025-01-18 01:03:15.739292	115.1	29.5	-94.7	0.0
2025-01-18 01:03:16.862191	115.5	29.4	-94.9	0.0
2025-01-18 01:03:17.984817	115.8	29.4	-94.9	0.0
2025-01-18 01:03:19.105271	116.2	29.3	-94.8	0.0
2025-01-18 01:03:20.227544	116.5	29.2	-94.8	0.0
2025-01-18 01:03:21.347731	116.9	29.1	-94.9	0.0
2025-01-18 01:03:22.471081	117.2	29.1	-94.8	0.0
2025-01-18 01:03:23.592752	117.6	29.0	-94.9	0.0
2025-01-18 01:03:24.713789	117.9	28.9	-94.7	0.0
2025-01-18 01:03:25.834365	118.3	28.8	-94.6	0.0
2025-01-18 01:03:26.956646	118.6	28.7	-94.7	0.0
2025-01-18 01:03:28.075345	119.0	28.6	-94.8	0.0
2025-01-18 01:03:29.196233	119.3	28.6	-94.8	0.0
2025-01-18 01:03:30.317767	119.7	28.5	-94.9	0.0
2025-01-18 01:03:31.439827	120.0	28.4	-95.0	0.0
2025-01-18 01:03:32.561992	120.3	28.3	-94.9	0.0
2025-01-18 01:03:33.683869	120.7	28.2	-94.8	0.0
2025-01-18 01:03:34.804007	121.0	28.1	-94.9	0.0
2025-01-18 01:03:35.928338	121.3	28.0	-94.6	0.0
2025-01-18 01:03:37.050205	121.7	27.9	-95.1	0.0
2025-01-18 01:03:38.172245	122.0	27.8	-95.1	0.0
2025-01-18 01:03:39.292929	122.3	27.8	-95.0	0.0
2025-01-18 01:03:40.414615	122.7	27.7	-94.8	0.0
2025-01-18 01:03:41.534721	123.0	27.6	-94.9	0.0
2025-01-18 01:03:42.657058	123.3	27.5	-95.0	0.0
2025-01-18 01:03:43.776193	123.6	27.4	-95.1	0.0
2025-01-18 01:03:44.898589	123.9	27.3	-94.8	0.0
2025-01-18 01:03:46.021081	124.3	27.2	-94.8	0.0
2025-01-18 01:03:47.142396	124.6	27.1	-94.8	0.0
2025-01-18 01:03:48.261551	124.9	27.0	-94.7	0.0
2025-01-18 01:03:49.382482	125.2	26.9	-94.8	0.0
2025-01-18 01:03:50.501808	125.5	26.8	-94.9	0.0
2025-01-18 01:03:51.624126	125.8	26.7	-94.7	0.0
2025-01-18 01:03:52.745421	126.1	26.6	-94.7	0.0
2025-01-18 01:03:53.866738	126.4	26.5	-94.6	0.0
2025-01-18 01:03:54.989061	126.7	26.4	-94.7	0.0
2025-01-18 01:03:56.109788	127.0	26.3	-94.7	0.0
2025-01-18 01:03:57.230921	127.3	26.2	-94.8	0.0
2025-01-18 01:03:58.351508	127.6	26.1	-94.8	0.0
2025-01-18 01:03:59.471644	127.9	26.0	-94.7	0.0
2025-01-18 01:04:00.593987	128.2	25.9	-94.8	0.0
2025-01-18 01:04:01.716554	128.5	25.8	-94.6	0.0
2025-01-18 01:04:02.836591	128.8	25.7	-94.6	0.0
2025-01-18 01:04:03.957680	129.1	25.6	-94.5	0.0
2025-01-18 01:04:05.080966	129.3	25.5	-94.7	0.0
2025-01-18 01:04:06.200613	129.6	25.4	-94.8	0.0
2025-01-18 01:04:07.322247	129.9	25.3	-94.6	0.0
2025-01-18 01:04:08.441877	130.2	25.2	-94.7	0.0
2025-01-18 01:04:09.566168	130.5	25.1	-94.6	0.0
2025-01-18 01:04:10.687679	130.7	25.0	-94.9	0.0
2025-01-18 01:04:11.809841	131.0	24.9	-95.1	0.0
2025-01-18 01:04:12.932718	131.3	24.8	-95.0	0.0
2025-01-18 01:04:14.053815	131.5	24.7	-94.8	0.0
2025-01-18 01:04:15.173678	131.8	24.5	-94.9	0.0
2025-01-18 01:04:16.295447	132.1	24.4	-94.8	0.0
2025-01-18 01:04:17.415597	132.3	24.3	-95.1	0.0
2025-01-18 01:04:18.535681	132.6	24.2	-95.1	0.0
2025-01-18 01:04:19.657557	132.9	24.1	-94.9	0.0
2025-01-18 01:04:20.778759	133.1	24.0	-94.9	0.0
2025-01-18 01:04:21.899378	133.4	23.9	-94.8	0.0
2025-01-18 01:04:23.019795	133.6	23.8	-95.1	0.0
2025-01-18 01:04:24.138725	133.9	23.7	-95.0	0.0
2025-01-18 01:04:25.261159	134.1	23.6	-95.0	0.0
2025-01-18 01:04:26.380848	134.4	23.5	-94.8	0.0
2025-01-18 01:04:27.501243	134.6	23.4	-94.7	0.0
2025-01-18 01:04:28.622948	134.9	23.3	-94.9	0.0
2025-01-18 01:04:29.743012	135.1	23.2	-95.1	0.0
2025-01-18 01:04:30.864964	135.4	23.1	-95.1	0.0
2025-01-18 01:04:31.987429	135.6	22.9	-94.8	0.0
2025-01-18 01:04:33.107347	135.9	22.8	-94.9	0.0
2025-01-18 01:04:34.228711	136.1	22.7	-94.5	0.0
2025-01-18 01:04:35.349323	136.3	22.6	-94.7	0.0
2025-01-18 01:04:36.468243	136.6	22.5	-94.7	0.0
2025-01-18 01:04:37.587911	136.8	22.4	-94.9	0.0
2025-01-18 01:04:38.709860	137.0	22.3	-94.8	0.0
2025-01-18 01:04:39.829879	137.3	22.2	-95.1	0.0
2025-01-18 01:04:40.950540	137.5	22.1	-95.1	0.0
2025-01-18 01:04:42.070731	137.7	22.0	-94.9	0.0
2025-01-18 01:04:43.192665	138.0	21.9	-94.7	0.0
2025-01-18 01:04:44.313287	138.2	21.8	-94.7	0.0
2025-01-18 01:04:45.432116	138.4	21.7	-95.2	0.0
2025-01-18 01:04:46.553458	138.6	21.5	-95.1	0.0
2025-01-18 01:04:47.675797	138.9	21.4	-94.8	0.0
2025-01-18 01:04:48.798600	139.1	21.3	-94.8	0.0
2025-01-18 01:04:49.918748	139.3	21.2	-94.8	0.0
2025-01-18 01:04:51.038634	139.5	21.1	-94.6	0.0
2025-01-18 01:04:52.158287	139.7	21.0	-94.8	0.0
2025-01-18 01:04:53.282058	139.9	20.9	-94.5	0.0
2025-01-18 01:04:54.400799	140.1	20.8	-94.8	0.0
2025-01-18 01:04:55.521308	140.4	20.7	-94.7	0.0
2025-01-18 01:04:56.642525	140.6	20.6	-94.5	0.0
2025-01-18 01:04:57.763171	140.8	20.5	-94.4	0.0
2025-01-18 01:04:58.884933	141.0	20.4	-94.6	0.0
2025-01-18 01:05:00.004889	141.2	20.3	-94.8	0.0
2025-01-18 01:05:01.127480	141.4	20.1	-94.8	0.0
2025-01-18 01:05:02.248820	141.6	20.0	-94.6	0.0
2025-01-18 01:05:03.368609	141.8	19.9	-94.7	0.0
2025-01-18 01:05:04.489937	142.0	19.8	-94.7	0.0
2025-01-18 01:05:05.609895	142.2	19.7	-94.6	0.0
2025-01-18 01:05:06.731461	142.4	19.6	-94.8	0.0
2025-01-18 01:05:07.852072	142.6	19.5	-94.7	0.0
2025-01-18 01:05:08.971880	142.8	19.4	-94.7	0.0
2025-01-18 01:05:10.093695	143.0	19.3	-94.7	0.0
2025-01-18 01:05:11.215388	143.1	19.2	-94.6	0.0
2025-01-18 01:05:12.336773	143.3	19.1	-94.8	0.0
2025-01-18 01:05:13.457782	143.5	19.0	-94.7	0.0
2025-01-18 01:05:14.576763	143.7	18.9	-94.8	0.0
2025-01-18 01:05:15.696613	143.9	18.8	-94.7	0.0
2025-01-18 01:05:16.819777	144.1	18.7	-94.9	0.0
2025-01-18 01:05:17.939876	144.3	18.6	-94.9	0.0
2025-01-18 01:05:19.059201	144.4	18.5	-94.7	0.0
2025-01-18 01:05:20.178760	144.6	18.4	-94.5	0.0
2025-01-18 01:05:21.298288	144.8	18.2	-94.7	0.0
2025-01-18 01:05:22.419322	145.0	18.1	-94.8	0.0
2025-01-18 01:05:23.540614	145.2	18.0	-94.8	0.0
2025-01-18 01:05:24.661578	145.3	17.9	-94.5	0.0
2025-01-18 01:05:25.783031	145.5	17.8	-94.7	0.0
2025-01-18 01:05:26.904504	145.7	17.7	-94.9	0.0
2025-01-18 01:05:28.024150	145.9	17.6	-95.3	0.0
2025-01-18 01:05:29.144757	146.0	17.5	-94.7	0.0
2025-01-18 01:05:30.265675	146.2	17.4	-94.8	0.0
2025-01-18 01:05:31.388259	146.4	17.3	-94.8	0.0
2025-01-18 01:05:32.508792	146.5	17.2	-94.9	0.0
2025-01-18 01:05:33.629840	146.7	17.1	-94.9	0.0
2025-01-18 01:05:34.752311	146.9	17.0	-95.1	0.0
2025-01-18 01:05:35.871924	147.0	16.9	-95.2	0.0
2025-01-18 01:05:36.993787	147.2	16.8	-95.2	0.0
2025-01-18 01:05:38.117037	147.4	16.7	-95.0	0.0
2025-01-18 01:05:39.237920	147.5	16.6	-95.1	0.0
2025-01-18 01:05:40.356272	147.7	16.5	-95.1	0.0
2025-01-18 01:05:41.478591	147.8	16.4	-94.9	0.0
2025-01-18 01:05:42.600451	148.0	16.3	-95.0	0.0
2025-01-18 01:05:43.723274	148.2	16.2	-95.0	0.0
2025-01-18 01:05:44.841738	148.3	16.1	-94.9	0.0
2025-01-18 01:05:45.962535	148.5	16.0	-94.9	0.0
2025-01-18 01:05:47.082399	148.6	15.9	-95.0	0.0
2025-01-18 01:05:48.203584	148.8	15.8	-94.9	0.0
2025-01-18 01:05:49.323159	148.9	15.7	-94.9	0.0
2025-01-18 01:05:50.443883	149.1	15.6	-95.0	0.0
2025-01-18 01:05:51.566581	149.2	15.5	-95.2	0.0
2025-01-18 01:05:52.687513	149.4	15.4	-94.9	0.0
2025-01-18 01:05:53.807633	149.5	15.3	-95.1	0.0
2025-01-18 01:05:54.928991	149.7	15.2	-94.8	0.0
2025-01-18 01:05:56.050981	149.8	15.1	-94.9	0.0
2025-01-18 01:05:57.170614	150.0	15.0	-94.9	0.0
2025-01-18 01:05:58.291760	150.1	14.9	-95.2	0.0
2025-01-18 01:05:59.411687	150.3	14.8	-94.9	0.0
2025-01-18 01:06:00.531793	150.4	14.7	-94.9	0.0
2025-01-18 01:06:01.651117	150.5	14.6	-95.3	0.0
2025-01-18 01:06:02.771354	150.7	14.5	-94.9	0.0
2025-01-18 01:06:03.893445	150.8	14.4	-95.0	0.0
2025-01-18 01:06:05.014799	151.0	14.3	-95.0	0.0
2025-01-18 01:06:06.135079	151.1	14.2	-94.8	0.0
2025-01-18 01:06:07.256500	151.2	14.1	-94.9	0.0
2025-01-18 01:06:08.375063	151.4	14.1	-95.0	0.0
2025-01-18 01:06:09.496291	151.5	14.0	-94.9	0.0
2025-01-18 01:06:10.617043	151.7	13.9	-95.1	0.0
2025-01-18 01:06:11.737269	151.8	13.8	-94.9	0.0
2025-01-18 01:06:12.857120	151.9	13.7	-95.0	0.0
2025-01-18 01:06:13.977739	152.1	13.6	-95.0	0.0
2025-01-18 01:06:15.098670	152.2	13.5	-94.9	0.0
2025-01-18 01:06:16.221680	152.3	13.4	-95.0	0.0
2025-01-18 01:06:17.344986	152.4	13.3	-94.9	0.0
2025-01-18 01:06:18.465554	152.6	13.2	-94.7	0.0
2025-01-18 01:06:19.584980	152.7	13.1	-94.8	0.0
2025-01-18 01:06:20.705683	152.8	13.0	-95.0	0.0
2025-01-18 01:06:21.827577	153.0	12.9	-94.9	0.0
2025-01-18 01:06:22.949717	153.1	12.8	-94.8	0.0
2025-01-18 01:06:24.068762	153.2	12.7	-94.6	0.0
2025-01-18 01:06:25.189674	153.3	12.7	-94.9	0.0
2025-01-18 01:06:26.308727	153.5	12.6	-94.9	0.0
2025-01-18 01:06:27.429012	153.6	12.5	-94.8	0.0
2025-01-18 01:06:28.550600	153.7	12.4	-94.8	0.0
2025-01-18 01:06:29.671545	153.8	12.3	-94.8	0.0
2025-01-18 01:06:30.792984	153.9	12.2	-94.8	0.0
2025-01-18 01:06:31.911417	154.1	12.1	-94.9	0.0
2025-01-18 01:06:33.032763	154.2	12.0	-95.0	0.0
2025-01-18 01:06:34.154421	154.3	11.9	-95.1	0.0
2025-01-18 01:06:35.275464	154.4	11.8	-94.8	0.0
2025-01-18 01:06:36.398614	154.5	11.7	-94.9	0.0
2025-01-18 01:06:37.520768	154.7	11.7	-94.9	0.0
2025-01-18 01:06:38.643171	154.8	11.6	-94.9	0.0
2025-01-18 01:06:39.763904	154.9	11.5	-94.9	0.0
2025-01-18 01:06:40.886731	155.0	11.4	-95.1	0.0
2025-01-18 01:06:42.006813	155.1	11.3	-95.2	0.0
2025-01-18 01:06:43.127712	155.2	11.2	-95.1	0.0
2025-01-18 01:06:44.247998	155.3	11.1	-94.9	0.0
2025-01-18 01:06:45.368731	155.5	11.0	-95.1	0.0
2025-01-18 01:06:46.490501	155.6	10.9	-95.2	0.0
2025-01-18 01:06:47.610616	155.7	10.9	-95.2	0.0
2025-01-18 01:06:48.733419	155.8	10.8	-95.1	0.0
2025-01-18 01:06:49.855138	155.9	10.7	-94.9	0.0
2025-01-18 01:06:50.975534	156.0	10.6	-94.9	0.0
2025-01-18 01:06:52.096740	156.1	10.5	-95.1	0.0
2025-01-18 01:06:53.216491	156.2	10.4	-95.0	0.0
2025-01-18 01:06:54.336613	156.3	10.3	-95.1	0.0
2025-01-18 01:06:55.457783	156.4	10.3	-95.0	0.0
2025-01-18 01:06:56.580021	156.5	10.2	-95.0	0.0
2025-01-18 01:06:57.700708	156.6	10.1	-95.2	0.0
2025-01-18 01:06:58.822507	156.7	10.0	-95.1	0.0
#Closed at: 2025-01-18 00:57:26.673568