passes_logs/2025/01/18/planumMaritime01/planumMaritime01__20250118_184404_NOAA_18_rec.log

#Pass ID: 20250118_184404_NOAA 18
#Satellite: NOAA 18
#Configuration: NOAA 18
#Start time: 2025-01-18 18:44:09.813460

#LorettStation: 1.0.0 05.05.2024
#Station: planumMaritime01
#Location: 37.49445 lon 55.92918 lat
#TLE: 1 28654U 05018A   25018.13582066  .00000389  00000+0  23006-3 0  9999
#TLE: 2 28654  98.8561  99.1591 0014505 170.4027 189.7425 14.13489305 13620

#Time	Az	El	Level	SNR
2025-01-18 18:44:11.971416	141.7	10.2	-94.6	0.0
2025-01-18 18:44:13.090939	141.7	10.3	-94.8	0.0
2025-01-18 18:44:14.212806	141.7	10.4	-94.7	0.0
2025-01-18 18:44:15.332420	141.6	10.5	-94.9	0.0
2025-01-18 18:44:16.452632	141.6	10.6	-94.4	0.0
2025-01-18 18:44:17.574193	141.5	10.7	-94.6	0.0
2025-01-18 18:44:18.693482	141.5	10.8	-94.8	0.0
2025-01-18 18:44:19.817549	141.5	10.9	-94.8	0.0
2025-01-18 18:44:20.936225	141.4	11.0	-94.7	0.0
2025-01-18 18:44:22.059023	141.4	11.1	-94.5	0.0
2025-01-18 18:44:23.180586	141.3	11.2	-94.5	0.0
2025-01-18 18:44:24.300350	141.3	11.2	-94.5	0.0
2025-01-18 18:44:25.421923	141.2	11.3	-94.6	0.0
2025-01-18 18:44:26.545381	141.2	11.4	-94.8	0.0
2025-01-18 18:44:27.666493	141.1	11.5	-94.5	0.0
2025-01-18 18:44:28.787654	141.1	11.6	-94.5	0.0
2025-01-18 18:44:29.909259	141.0	11.7	-94.4	0.0
2025-01-18 18:44:31.029601	141.0	11.9	-94.5	0.0
2025-01-18 18:44:32.151612	141.0	12.0	-94.4	0.0
2025-01-18 18:44:33.271157	140.9	12.1	-94.4	0.0
2025-01-18 18:44:34.392333	140.9	12.2	-94.4	0.0
2025-01-18 18:44:35.514080	140.8	12.3	-94.5	0.0
2025-01-18 18:44:36.636086	140.8	12.4	-94.6	0.0
2025-01-18 18:44:37.757438	140.7	12.5	-94.5	0.0
2025-01-18 18:44:38.879342	140.7	12.6	-94.6	0.0
2025-01-18 18:44:40.002630	140.6	12.7	-94.4	0.0
2025-01-18 18:44:41.125290	140.6	12.8	-94.7	0.0
2025-01-18 18:44:42.247139	140.5	12.9	-95.0	0.0
2025-01-18 18:44:43.367120	140.5	13.0	-94.9	0.0
2025-01-18 18:44:44.488642	140.4	13.1	-94.9	0.0
2025-01-18 18:44:45.610649	140.4	13.2	-94.7	0.0
2025-01-18 18:44:46.731966	140.3	13.3	-94.9	0.0
2025-01-18 18:44:47.851418	140.3	13.4	-94.9	0.0
2025-01-18 18:44:48.973729	140.2	13.5	-94.7	0.0
2025-01-18 18:44:50.094182	140.1	13.6	-94.9	0.0
2025-01-18 18:44:51.216935	140.1	13.7	-94.6	0.0
2025-01-18 18:44:52.337496	140.0	13.9	-94.8	0.0
2025-01-18 18:44:53.458718	140.0	14.0	-94.5	0.0
2025-01-18 18:44:54.580588	139.9	14.1	-94.6	0.0
2025-01-18 18:44:55.699441	139.9	14.2	-94.9	0.0
2025-01-18 18:44:56.820775	139.8	14.3	-94.6	0.0
2025-01-18 18:44:57.942267	139.8	14.4	-94.7	0.0
2025-01-18 18:44:59.063380	139.7	14.5	-94.5	0.0
2025-01-18 18:45:00.185458	139.7	14.6	-94.6	0.0
2025-01-18 18:45:01.305147	139.6	14.7	-94.4	0.0
2025-01-18 18:45:02.424205	139.5	14.9	-94.7	0.0
2025-01-18 18:45:03.546733	139.5	15.0	-94.7	0.0
2025-01-18 18:45:04.669485	139.4	15.1	-94.5	0.0
2025-01-18 18:45:05.791934	139.4	15.2	-94.3	0.0
2025-01-18 18:45:06.913481	139.3	15.3	-94.3	0.0
2025-01-18 18:45:08.032276	139.2	15.4	-94.6	0.0
2025-01-18 18:45:09.154720	139.2	15.5	-94.7	0.0
2025-01-18 18:45:10.275908	139.1	15.7	-94.4	0.0
2025-01-18 18:45:11.397698	139.1	15.8	-94.6	0.0
2025-01-18 18:45:12.520695	139.0	15.9	-94.7	0.0
2025-01-18 18:45:13.642176	138.9	16.0	-94.6	0.0
2025-01-18 18:45:14.761556	138.9	16.1	-94.5	0.0
2025-01-18 18:45:15.881933	138.8	16.3	-94.6	0.0
2025-01-18 18:45:17.002708	138.7	16.4	-94.7	0.0
2025-01-18 18:45:18.123998	138.7	16.5	-94.7	0.0
2025-01-18 18:45:19.246245	138.6	16.6	-94.7	0.0
2025-01-18 18:45:20.366650	138.5	16.7	-94.6	0.0
2025-01-18 18:45:21.488580	138.5	16.9	-94.7	0.0
2025-01-18 18:45:22.612482	138.4	17.0	-94.5	0.0
2025-01-18 18:45:23.734932	138.3	17.1	-94.7	0.0
2025-01-18 18:45:24.856144	138.3	17.2	-94.9	0.0
2025-01-18 18:45:25.977913	138.2	17.4	-94.9	0.0
2025-01-18 18:45:27.097934	138.1	17.5	-94.7	0.0
2025-01-18 18:45:28.218723	138.1	17.6	-94.7	0.0
2025-01-18 18:45:29.339969	138.0	17.7	-94.9	0.0
2025-01-18 18:45:30.461419	137.9	17.9	-94.8	0.0
2025-01-18 18:45:31.583444	137.9	18.0	-94.7	0.0
2025-01-18 18:45:32.704067	137.8	18.1	-94.7	0.0
2025-01-18 18:45:33.826104	137.7	18.2	-94.9	0.0
2025-01-18 18:45:34.948593	137.6	18.4	-94.7	0.0
2025-01-18 18:45:36.069701	137.6	18.5	-94.8	0.0
2025-01-18 18:45:37.191764	137.5	18.6	-94.7	0.0
2025-01-18 18:45:38.314877	137.4	18.8	-94.9	0.0
2025-01-18 18:45:39.435895	137.3	18.9	-94.9	0.0
2025-01-18 18:45:40.558686	137.3	19.0	-95.1	0.0
2025-01-18 18:45:41.677650	137.2	19.2	-94.8	0.0
2025-01-18 18:45:42.800783	137.1	19.3	-94.8	0.0
2025-01-18 18:45:43.922501	137.0	19.4	-94.8	0.0
2025-01-18 18:45:45.044650	136.9	19.6	-94.7	0.0
2025-01-18 18:45:46.165442	136.9	19.7	-94.5	0.0
2025-01-18 18:45:47.285239	136.8	19.8	-94.8	0.0
2025-01-18 18:45:48.405537	136.7	20.0	-94.8	0.0
2025-01-18 18:45:49.527838	136.6	20.1	-94.6	0.0
2025-01-18 18:45:50.651336	136.5	20.3	-94.5	0.0
2025-01-18 18:45:51.772449	136.5	20.4	-94.6	0.0
2025-01-18 18:45:52.895733	136.4	20.5	-94.6	0.0
2025-01-18 18:45:54.017050	136.3	20.7	-94.7	0.0
2025-01-18 18:45:55.136403	136.2	20.8	-94.8	0.0
2025-01-18 18:45:56.258613	136.1	21.0	-94.6	0.0
2025-01-18 18:45:57.380623	136.0	21.1	-94.8	0.0
2025-01-18 18:45:58.500174	135.9	21.2	-94.4	0.0
2025-01-18 18:45:59.621417	135.8	21.4	-94.7	0.0
2025-01-18 18:46:00.742631	135.8	21.5	-94.5	0.0
2025-01-18 18:46:01.861557	135.7	21.7	-94.7	0.0
2025-01-18 18:46:02.980260	135.6	21.8	-94.5	0.0
2025-01-18 18:46:04.100499	135.5	22.0	-94.3	0.0
2025-01-18 18:46:05.223278	135.4	22.1	-94.5	0.0
2025-01-18 18:46:06.342358	135.3	22.3	-94.7	0.0
2025-01-18 18:46:07.462213	135.2	22.4	-94.6	0.0
2025-01-18 18:46:08.583398	135.1	22.6	-94.6	0.0
2025-01-18 18:46:09.703521	135.0	22.7	-94.4	0.0
2025-01-18 18:46:10.826836	134.9	22.9	-94.7	0.0
2025-01-18 18:46:11.947304	134.8	23.0	-94.7	0.0
2025-01-18 18:46:13.066283	134.7	23.2	-94.5	0.0
2025-01-18 18:46:14.186319	134.6	23.3	-94.7	0.0
2025-01-18 18:46:15.307544	134.5	23.5	-94.6	0.0
2025-01-18 18:46:16.429812	134.4	23.6	-94.5	0.0
2025-01-18 18:46:17.549903	134.3	23.8	-94.5	0.0
2025-01-18 18:46:18.672097	134.2	24.0	-94.9	0.0
2025-01-18 18:46:19.794355	134.1	24.1	-95.0	0.0
2025-01-18 18:46:20.915280	134.0	24.3	-95.0	0.0
2025-01-18 18:46:22.036792	133.9	24.4	-94.6	0.0
2025-01-18 18:46:23.158728	133.7	24.6	-94.7	0.0
2025-01-18 18:46:24.279792	133.6	24.8	-95.0	0.0
2025-01-18 18:46:25.401585	133.5	24.9	-95.1	0.0
2025-01-18 18:46:26.522599	133.4	25.1	-94.9	0.0
2025-01-18 18:46:27.646336	133.3	25.3	-94.9	0.0
2025-01-18 18:46:28.767017	133.2	25.4	-94.9	0.0
2025-01-18 18:46:29.889324	133.1	25.6	-94.7	0.0
2025-01-18 18:46:31.010429	132.9	25.7	-94.7	0.0
2025-01-18 18:46:32.129784	132.8	25.9	-94.6	0.0
2025-01-18 18:46:33.250157	132.7	26.1	-94.8	0.0
2025-01-18 18:46:34.372160	132.6	26.3	-94.6	0.0
2025-01-18 18:46:35.493088	132.4	26.4	-94.8	0.0
2025-01-18 18:46:36.613380	132.3	26.6	-94.7	0.0
2025-01-18 18:46:37.734502	132.2	26.8	-94.5	0.0
2025-01-18 18:46:38.855203	132.1	26.9	-94.5	0.0
2025-01-18 18:46:39.975923	131.9	27.1	-94.6	0.0
2025-01-18 18:46:41.096710	131.8	27.3	-94.5	0.0
2025-01-18 18:46:42.217692	131.7	27.5	-94.7	0.0
2025-01-18 18:46:43.338753	131.5	27.6	-94.3	0.0
2025-01-18 18:46:44.461219	131.4	27.8	-94.7	0.0
2025-01-18 18:46:45.583193	131.3	28.0	-94.5	0.0
2025-01-18 18:46:46.706474	131.1	28.2	-94.5	0.0
2025-01-18 18:46:47.827612	131.0	28.4	-94.9	0.0
2025-01-18 18:46:48.948537	130.8	28.5	-94.7	0.0
2025-01-18 18:46:50.070212	130.7	28.7	-94.9	0.0
2025-01-18 18:46:51.192348	130.5	28.9	-94.8	0.0
2025-01-18 18:46:52.314238	130.4	29.1	-95.0	0.0
2025-01-18 18:46:53.434598	130.2	29.3	-94.7	0.0
2025-01-18 18:46:54.556718	130.1	29.5	-94.8	0.0
2025-01-18 18:46:55.677649	129.9	29.7	-94.7	0.0
2025-01-18 18:46:56.799130	129.8	29.9	-94.8	0.0
2025-01-18 18:46:57.920295	129.6	30.0	-94.7	0.0
2025-01-18 18:46:59.040524	129.5	30.2	-94.6	0.0
2025-01-18 18:47:00.160240	129.3	30.4	-95.0	0.0
2025-01-18 18:47:01.282876	129.2	30.6	-94.9	0.0
2025-01-18 18:47:02.403361	129.0	30.8	-95.0	0.0
2025-01-18 18:47:03.525028	128.8	31.0	-95.0	0.0
2025-01-18 18:47:04.645575	128.7	31.2	-94.7	0.0
2025-01-18 18:47:05.766743	128.5	31.4	-94.7	0.0
2025-01-18 18:47:06.889956	128.3	31.6	-94.7	0.0
2025-01-18 18:47:08.011909	128.1	31.8	-94.8	0.0
2025-01-18 18:47:09.132297	128.0	32.0	-95.0	0.0
2025-01-18 18:47:10.254079	127.8	32.2	-94.6	0.0
2025-01-18 18:47:11.373830	127.6	32.4	-94.9	0.0
2025-01-18 18:47:12.495681	127.4	32.6	-94.9	0.0
2025-01-18 18:47:13.617174	127.2	32.8	-94.8	0.0
2025-01-18 18:47:14.737651	127.0	33.0	-94.7	0.0
2025-01-18 18:47:15.857055	126.9	33.2	-94.8	0.0
2025-01-18 18:47:16.980710	126.7	33.4	-94.9	0.0
2025-01-18 18:47:18.100595	126.5	33.6	-94.7	0.0
2025-01-18 18:47:19.222764	126.3	33.8	-94.7	0.0
2025-01-18 18:47:20.346332	126.1	34.1	-95.0	0.0
2025-01-18 18:47:21.467048	125.9	34.3	-94.9	0.0
2025-01-18 18:47:22.588540	125.7	34.5	-94.6	0.0
2025-01-18 18:47:23.708891	125.4	34.7	-94.9	0.0
2025-01-18 18:47:24.829113	125.2	34.9	-95.1	0.0
2025-01-18 18:47:25.950482	125.0	35.1	-94.8	0.0
2025-01-18 18:47:27.072631	124.8	35.3	-94.8	0.0
2025-01-18 18:47:28.194674	124.6	35.6	-94.9	0.0
2025-01-18 18:47:29.314903	124.4	35.8	-95.0	0.0
2025-01-18 18:47:30.435594	124.1	36.0	-94.9	0.0
2025-01-18 18:47:31.558763	123.9	36.2	-94.8	0.0
2025-01-18 18:47:32.679348	123.7	36.4	-94.8	0.0
2025-01-18 18:47:33.801215	123.4	36.7	-94.8	0.0
2025-01-18 18:47:34.923511	123.2	36.9	-94.8	0.0
2025-01-18 18:47:36.045496	123.0	37.1	-94.5	0.0
2025-01-18 18:47:37.166631	122.7	37.3	-94.5	0.0
2025-01-18 18:47:38.287265	122.5	37.6	-94.7	0.0
2025-01-18 18:47:39.408721	122.2	37.8	-94.8	0.0
2025-01-18 18:47:40.529078	121.9	38.0	-94.7	0.0
2025-01-18 18:47:41.651315	121.7	38.2	-94.7	0.0
2025-01-18 18:47:42.773845	121.4	38.5	-94.6	0.0
2025-01-18 18:47:43.894461	121.2	38.7	-94.7	0.0
2025-01-18 18:47:45.014787	120.9	38.9	-94.9	0.0
2025-01-18 18:47:46.135133	120.6	39.2	-94.7	0.0
2025-01-18 18:47:47.255847	120.3	39.4	-94.7	0.0
2025-01-18 18:47:48.380058	120.0	39.6	-94.8	0.0
2025-01-18 18:47:49.501263	119.8	39.9	-94.8	0.0
2025-01-18 18:47:50.625496	119.5	40.1	-94.9	0.0
2025-01-18 18:47:51.746567	119.2	40.3	-95.0	0.0
2025-01-18 18:47:52.868479	118.9	40.6	-94.9	0.0
2025-01-18 18:47:53.989267	118.6	40.8	-95.0	0.0
2025-01-18 18:47:55.110364	118.3	41.0	-95.0	0.0
2025-01-18 18:47:56.232550	117.9	41.3	-94.7	0.0
2025-01-18 18:47:57.356355	117.6	41.5	-95.0	0.0
2025-01-18 18:47:58.479805	117.3	41.8	-94.6	0.0
2025-01-18 18:47:59.601576	117.0	42.0	-94.7	0.0
2025-01-18 18:48:00.722244	116.6	42.2	-94.5	0.0
2025-01-18 18:48:01.844110	116.3	42.5	-94.7	0.0
2025-01-18 18:48:02.966266	116.0	42.7	-94.8	0.0
2025-01-18 18:48:04.086550	115.6	43.0	-94.6	0.0
2025-01-18 18:48:05.207084	115.3	43.2	-95.0	0.0
2025-01-18 18:48:06.327878	114.9	43.5	-94.6	0.0
2025-01-18 18:48:07.450078	114.5	43.7	-94.5	0.0
2025-01-18 18:48:08.572610	114.2	43.9	-94.7	0.0
2025-01-18 18:48:09.693513	113.8	44.2	-94.8	0.0
2025-01-18 18:48:10.813228	113.4	44.4	-94.8	0.0
2025-01-18 18:48:11.934944	113.0	44.7	-94.6	0.0
2025-01-18 18:48:13.058707	112.6	44.9	-94.7	0.0
2025-01-18 18:48:14.180927	112.2	45.1	-94.9	0.0
2025-01-18 18:48:15.301461	111.8	45.4	-94.8	0.0
2025-01-18 18:48:16.423439	111.4	45.6	-94.9	0.0
2025-01-18 18:48:17.547351	111.0	45.9	-94.6	0.0
2025-01-18 18:48:18.667725	110.6	46.1	-94.9	0.0
2025-01-18 18:48:19.789408	110.1	46.4	-94.7	0.0
2025-01-18 18:48:20.911598	109.7	46.6	-94.8	0.0
2025-01-18 18:48:22.031362	109.2	46.8	-94.6	0.0
2025-01-18 18:48:23.153450	108.8	47.1	-95.0	0.0
2025-01-18 18:48:24.273112	108.3	47.3	-94.7	0.0
2025-01-18 18:48:25.394549	107.9	47.6	-94.8	0.0
2025-01-18 18:48:26.517155	107.4	47.8	-94.7	0.0
2025-01-18 18:48:27.637484	106.9	48.0	-95.0	0.0
2025-01-18 18:48:28.757047	106.4	48.3	-94.7	0.0
2025-01-18 18:48:29.878631	105.9	48.5	-94.6	0.0
2025-01-18 18:48:31.001034	105.4	48.7	-94.8	0.0
2025-01-18 18:48:32.122581	104.9	49.0	-94.8	0.0
2025-01-18 18:48:33.243296	104.4	49.2	-94.9	0.0
2025-01-18 18:48:34.364289	103.9	49.4	-94.8	0.0
2025-01-18 18:48:35.486277	103.3	49.7	-94.9	0.0
2025-01-18 18:48:36.608703	102.8	49.9	-94.9	0.0
2025-01-18 18:48:37.728356	102.2	50.1	-94.9	0.0
2025-01-18 18:48:38.850231	101.7	50.3	-94.9	0.0
2025-01-18 18:48:39.971690	101.1	50.6	-95.0	0.0
2025-01-18 18:48:41.093282	100.5	50.8	-94.8	0.0
2025-01-18 18:48:42.213159	100.0	51.0	-94.7	0.0
2025-01-18 18:48:43.333566	99.4	51.2	-94.7	0.0
2025-01-18 18:48:44.456564	98.8	51.4	-94.6	0.0
2025-01-18 18:48:45.578859	98.2	51.6	-94.6	0.0
2025-01-18 18:48:46.698190	97.5	51.8	-94.8	0.0
2025-01-18 18:48:47.820874	96.9	52.0	-94.6	0.0
2025-01-18 18:48:48.942675	96.3	52.2	-94.6	0.0
2025-01-18 18:48:50.067398	95.6	52.4	-94.8	0.0
2025-01-18 18:48:51.189116	95.0	52.6	-94.8	0.0
2025-01-18 18:48:52.310647	94.3	52.8	-94.4	0.0
2025-01-18 18:48:53.431266	93.6	53.0	-94.6	0.0
2025-01-18 18:48:54.554574	93.0	53.2	-94.6	0.0
2025-01-18 18:48:55.674565	92.3	53.4	-94.8	0.0
2025-01-18 18:48:56.795193	91.6	53.6	-95.1	0.0
2025-01-18 18:48:57.916607	90.9	53.7	-95.0	0.0
2025-01-18 18:48:59.037533	90.2	53.9	-94.8	0.0
2025-01-18 18:49:00.158587	89.4	54.1	-94.7	0.0
2025-01-18 18:49:01.280141	88.7	54.3	-94.7	0.0
2025-01-18 18:49:02.400249	88.0	54.4	-95.0	0.0
2025-01-18 18:49:03.523330	87.2	54.6	-94.8	0.0
2025-01-18 18:49:04.644911	86.5	54.7	-94.9	0.0
2025-01-18 18:49:05.765768	85.7	54.9	-94.9	0.0
2025-01-18 18:49:06.885574	84.9	55.0	-94.7	0.0
2025-01-18 18:49:08.003730	84.2	55.1	-94.8	0.0
2025-01-18 18:49:09.124030	83.4	55.3	-95.1	0.0
2025-01-18 18:49:10.245630	82.6	55.4	-94.9	0.0
2025-01-18 18:49:11.368270	81.8	55.5	-94.9	0.0
2025-01-18 18:49:12.488539	81.0	55.6	-94.6	0.0
2025-01-18 18:49:13.610061	80.2	55.7	-94.7	0.0
2025-01-18 18:49:14.729827	79.3	55.9	-94.8	0.0
2025-01-18 18:49:15.852526	78.5	56.0	-94.8	0.0
2025-01-18 18:49:16.974837	77.7	56.0	-95.0	0.0
2025-01-18 18:49:18.095125	76.8	56.1	-95.0	0.0
2025-01-18 18:49:19.215091	76.0	56.2	-94.8	0.0
2025-01-18 18:49:20.335388	75.2	56.3	-95.3	0.0
2025-01-18 18:49:21.455561	74.3	56.4	-94.9	0.0
2025-01-18 18:49:22.576671	73.5	56.4	-95.0	0.0
2025-01-18 18:49:23.698170	72.6	56.5	-95.0	0.0
2025-01-18 18:49:24.819541	71.7	56.5	-94.8	0.0
2025-01-18 18:49:25.941152	70.9	56.6	-94.7	0.0
2025-01-18 18:49:27.062875	70.0	56.6	-94.7	0.0
2025-01-18 18:49:28.183265	69.1	56.7	-95.0	0.0
2025-01-18 18:49:29.304998	68.3	56.7	-94.8	0.0
2025-01-18 18:49:30.426986	67.4	56.7	-94.8	0.0
2025-01-18 18:49:31.549782	66.5	56.7	-94.8	0.0
2025-01-18 18:49:32.671389	65.6	56.7	-94.6	0.0
2025-01-18 18:49:33.794497	64.8	56.7	-94.6	0.0
2025-01-18 18:49:34.914837	63.9	56.7	-94.7	0.0
2025-01-18 18:49:36.034844	63.0	56.7	-94.8	0.0
2025-01-18 18:49:37.155486	62.1	56.7	-94.8	0.0
2025-01-18 18:49:38.276761	61.3	56.7	-94.9	0.0
2025-01-18 18:49:39.396594	60.4	56.6	-94.7	0.0
2025-01-18 18:49:40.518942	59.5	56.6	-94.6	0.0
2025-01-18 18:49:41.641041	58.6	56.5	-94.7	0.0
2025-01-18 18:49:42.761383	57.8	56.5	-94.9	0.0
2025-01-18 18:49:43.882175	56.9	56.4	-94.6	0.0
2025-01-18 18:49:45.003019	56.1	56.4	-95.0	0.0
2025-01-18 18:49:46.122511	55.2	56.3	-94.7	0.0
2025-01-18 18:49:47.244245	54.4	56.2	-94.8	0.0
2025-01-18 18:49:48.363751	53.5	56.1	-94.9	0.0
2025-01-18 18:49:49.485344	52.7	56.1	-95.0	0.0
2025-01-18 18:49:50.609299	51.9	56.0	-95.0	0.0
2025-01-18 18:49:51.729771	51.0	55.9	-95.1	0.0
2025-01-18 18:49:52.848026	50.2	55.8	-94.6	0.0
2025-01-18 18:49:53.970486	49.4	55.7	-94.9	0.0
2025-01-18 18:49:55.092832	48.6	55.5	-94.7	0.0
2025-01-18 18:49:56.215518	47.8	55.4	-95.0	0.0
2025-01-18 18:49:57.336479	47.0	55.3	-94.8	0.0
2025-01-18 18:49:58.457927	46.2	55.2	-94.9	0.0
2025-01-18 18:49:59.578804	45.4	55.0	-94.8	0.0
2025-01-18 18:50:00.698081	44.7	54.9	-94.9	0.0
2025-01-18 18:50:01.818693	43.9	54.7	-94.8	0.0
2025-01-18 18:50:02.941806	43.1	54.6	-95.0	0.0
2025-01-18 18:50:04.065949	42.4	54.4	-94.9	0.0
2025-01-18 18:50:05.187134	41.7	54.3	-95.3	0.0
2025-01-18 18:50:06.308457	40.9	54.1	-94.8	0.0
2025-01-18 18:50:07.428684	40.2	53.9	-95.0	0.0
2025-01-18 18:50:08.551558	39.5	53.8	-95.0	0.0
2025-01-18 18:50:09.672483	38.8	53.6	-94.9	0.0
2025-01-18 18:50:10.791934	38.1	53.4	-94.9	0.0
2025-01-18 18:50:11.911224	37.4	53.2	-94.7	0.0
2025-01-18 18:50:13.031517	36.7	53.0	-94.8	0.0
2025-01-18 18:50:14.152661	36.0	52.9	-94.9	0.0
2025-01-18 18:50:15.273245	35.4	52.7	-95.0	0.0
2025-01-18 18:50:16.393840	34.7	52.5	-95.0	0.0
2025-01-18 18:50:17.516121	34.1	52.3	-94.9	0.0
2025-01-18 18:50:18.636433	33.4	52.1	-94.8	0.0
2025-01-18 18:50:19.758838	32.8	51.9	-94.9	0.0
2025-01-18 18:50:20.881079	32.2	51.7	-94.7	0.0
2025-01-18 18:50:22.003266	31.6	51.4	-94.9	0.0
2025-01-18 18:50:23.124344	31.0	51.2	-95.0	0.0
2025-01-18 18:50:24.247048	30.4	51.0	-94.9	0.0
2025-01-18 18:50:25.369582	29.8	50.8	-95.0	0.0
2025-01-18 18:50:26.490347	29.2	50.6	-94.8	0.0
2025-01-18 18:50:27.612956	28.7	50.4	-94.7	0.0
2025-01-18 18:50:28.734011	28.1	50.1	-94.7	0.0
2025-01-18 18:50:29.855576	27.6	49.9	-94.5	0.0
2025-01-18 18:50:30.976823	27.0	49.7	-94.6	0.0
2025-01-18 18:50:32.098509	26.5	49.5	-94.9	0.0
2025-01-18 18:50:33.220219	25.9	49.2	-95.0	0.0
2025-01-18 18:50:34.341498	25.4	49.0	-94.8	0.0
2025-01-18 18:50:35.462581	24.9	48.8	-94.6	0.0
2025-01-18 18:50:36.584610	24.4	48.5	-94.6	0.0
2025-01-18 18:50:37.705633	23.9	48.3	-94.9	0.0
2025-01-18 18:50:38.824776	23.4	48.1	-94.8	0.0
2025-01-18 18:50:39.947883	22.9	47.8	-94.9	0.0
2025-01-18 18:50:41.069185	22.5	47.6	-95.2	0.0
2025-01-18 18:50:42.189816	22.0	47.4	-94.9	0.0
2025-01-18 18:50:43.310829	21.5	47.1	-94.8	0.0
2025-01-18 18:50:44.433122	21.1	46.9	-94.9	0.0
2025-01-18 18:50:45.553942	20.6	46.6	-95.2	0.0
2025-01-18 18:50:46.675989	20.2	46.4	-95.2	0.0
2025-01-18 18:50:47.796201	19.8	46.2	-95.0	0.0
2025-01-18 18:50:48.918506	19.4	45.9	-95.1	0.0
2025-01-18 18:50:50.040666	18.9	45.7	-94.8	0.0
2025-01-18 18:50:51.162840	18.5	45.4	-94.8	0.0
2025-01-18 18:50:52.284106	18.1	45.2	-94.8	0.0
2025-01-18 18:50:53.404050	17.7	44.9	-95.2	0.0
2025-01-18 18:50:54.525636	17.3	44.7	-95.0	0.0
2025-01-18 18:50:55.645308	16.9	44.5	-94.9	0.0
2025-01-18 18:50:56.766315	16.5	44.2	-95.0	0.0
2025-01-18 18:50:57.888497	16.2	44.0	-94.6	0.0
2025-01-18 18:50:59.009229	15.8	43.7	-94.7	0.0
2025-01-18 18:51:00.128606	15.4	43.5	-95.1	0.0
2025-01-18 18:51:01.251035	15.1	43.2	-94.9	0.0
2025-01-18 18:51:02.370131	14.7	43.0	-95.1	0.0
2025-01-18 18:51:03.491421	14.4	42.8	-94.7	0.0
2025-01-18 18:51:04.612326	14.0	42.5	-94.6	0.0
2025-01-18 18:51:05.732490	13.7	42.3	-95.0	0.0
2025-01-18 18:51:06.854147	13.4	42.0	-94.9	0.0
2025-01-18 18:51:07.974747	13.0	41.8	-94.7	0.0
2025-01-18 18:51:09.095323	12.7	41.6	-94.6	0.0
2025-01-18 18:51:10.215287	12.4	41.3	-94.6	0.0
2025-01-18 18:51:11.335161	12.1	41.1	-95.0	0.0
2025-01-18 18:51:12.455963	11.8	40.8	-94.8	0.0
2025-01-18 18:51:13.580279	11.5	40.6	-94.9	0.0
2025-01-18 18:51:14.699750	11.2	40.4	-94.7	0.0
2025-01-18 18:51:15.820411	10.9	40.1	-94.7	0.0
2025-01-18 18:51:16.941385	10.6	39.9	-94.7	0.0
2025-01-18 18:51:18.060929	10.3	39.7	-95.1	0.0
2025-01-18 18:51:19.181177	10.0	39.4	-94.9	0.0
2025-01-18 18:51:20.302971	9.7	39.2	-94.7	0.0
2025-01-18 18:51:21.423669	9.5	39.0	-94.7	0.0
2025-01-18 18:51:22.545423	9.2	38.7	-94.9	0.0
2025-01-18 18:51:23.664409	8.9	38.5	-94.9	0.0
2025-01-18 18:51:24.785442	8.6	38.3	-94.9	0.0
2025-01-18 18:51:25.905299	8.4	38.1	-94.8	0.0
2025-01-18 18:51:27.025450	8.1	37.8	-94.9	0.0
2025-01-18 18:51:28.146725	7.9	37.6	-95.1	0.0
2025-01-18 18:51:29.266395	7.6	37.4	-94.9	0.0
2025-01-18 18:51:30.387472	7.4	37.2	-94.9	0.0
2025-01-18 18:51:31.509327	7.1	36.9	-94.7	0.0
2025-01-18 18:51:32.629633	6.9	36.7	-94.7	0.0
2025-01-18 18:51:33.750684	6.7	36.5	-94.6	0.0
2025-01-18 18:51:34.871211	6.4	36.3	-94.9	0.0
2025-01-18 18:51:35.992497	6.2	36.0	-94.8	0.0
2025-01-18 18:51:37.114256	6.0	35.8	-94.8	0.0
2025-01-18 18:51:38.236606	5.8	35.6	-94.8	0.0
2025-01-18 18:51:39.358967	5.5	35.4	-94.8	0.0
2025-01-18 18:51:40.479411	5.3	35.2	-95.2	0.0
2025-01-18 18:51:41.599032	5.1	35.0	-95.2	0.0
2025-01-18 18:51:42.720472	4.9	34.7	-95.1	0.0
2025-01-18 18:51:43.839373	4.7	34.5	-94.7	0.0
2025-01-18 18:51:44.958495	4.5	34.3	-94.9	0.0
2025-01-18 18:51:46.079330	4.3	34.1	-95.0	0.0
2025-01-18 18:51:47.199456	4.1	33.9	-94.8	0.0
2025-01-18 18:51:48.320593	3.9	33.7	-94.8	0.0
2025-01-18 18:51:49.440498	3.7	33.5	-95.0	0.0
2025-01-18 18:51:50.563534	3.5	33.3	-95.1	0.0
2025-01-18 18:51:51.686157	3.3	33.1	-95.1	0.0
2025-01-18 18:51:52.808881	3.1	32.9	-95.0	0.0
2025-01-18 18:51:53.928900	2.9	32.6	-95.1	0.0
2025-01-18 18:51:55.049942	2.7	32.4	-95.3	0.0
2025-01-18 18:51:56.172461	2.6	32.2	-95.1	0.0
2025-01-18 18:51:57.292604	2.4	32.0	-95.1	0.0
2025-01-18 18:51:58.413105	2.2	31.8	-95.0	0.0
2025-01-18 18:51:59.533181	2.0	31.6	-95.0	0.0
2025-01-18 18:52:00.656730	1.9	31.4	-94.8	0.0
2025-01-18 18:52:01.777632	1.7	31.2	-95.1	0.0
2025-01-18 18:52:02.898816	1.5	31.0	-95.1	0.0
2025-01-18 18:52:04.018791	1.4	30.9	-95.2	0.0
2025-01-18 18:52:05.139197	1.2	30.7	-95.0	0.0
2025-01-18 18:52:06.261370	1.0	30.5	-94.9	0.0
2025-01-18 18:52:07.382153	0.9	30.3	-95.0	0.0
2025-01-18 18:52:08.501486	0.7	30.1	-94.9	0.0
2025-01-18 18:52:09.622713	0.6	29.9	-94.9	0.0
2025-01-18 18:52:10.743650	0.4	29.7	-95.2	0.0
2025-01-18 18:52:11.864463	0.2	29.5	-95.1	0.0
2025-01-18 18:52:12.986785	0.1	29.3	-95.0	0.0
2025-01-18 18:52:14.108515	359.9	29.1	-94.8	0.0
2025-01-18 18:52:15.228524	359.8	29.0	-94.9	0.0
2025-01-18 18:52:16.350482	359.7	28.8	-94.7	0.0
2025-01-18 18:52:17.472877	359.5	28.6	-94.8	0.0
2025-01-18 18:52:18.593601	359.4	28.4	-94.9	0.0
2025-01-18 18:52:19.713396	359.2	28.2	-95.0	0.0
2025-01-18 18:52:20.832936	359.1	28.0	-94.7	0.0
2025-01-18 18:52:21.956126	359.0	27.9	-94.7	0.0
2025-01-18 18:52:23.077277	358.8	27.7	-94.7	0.0
2025-01-18 18:52:24.199149	358.7	27.5	-94.9	0.0
2025-01-18 18:52:25.321482	358.5	27.3	-95.1	0.0
2025-01-18 18:52:26.443106	358.4	27.2	-94.9	0.0
2025-01-18 18:52:27.561839	358.3	27.0	-94.6	0.0
2025-01-18 18:52:28.682988	358.2	26.8	-94.7	0.0
2025-01-18 18:52:29.805703	358.0	26.6	-94.9	0.0
2025-01-18 18:52:30.923909	357.9	26.5	-94.9	0.0
2025-01-18 18:52:32.046271	357.8	26.3	-94.9	0.0
2025-01-18 18:52:33.166405	357.7	26.1	-94.7	0.0
2025-01-18 18:52:34.287333	357.5	26.0	-94.8	0.0
2025-01-18 18:52:35.408937	357.4	25.8	-95.0	0.0
2025-01-18 18:52:36.529000	357.3	25.6	-94.9	0.0
2025-01-18 18:52:37.652114	357.2	25.5	-95.1	0.0
2025-01-18 18:52:38.774034	357.1	25.3	-95.1	0.0
2025-01-18 18:52:39.893541	357.0	25.1	-95.0	0.0
2025-01-18 18:52:41.013055	356.8	25.0	-95.1	0.0
2025-01-18 18:52:42.134090	356.7	24.8	-94.8	0.0
2025-01-18 18:52:43.255239	356.6	24.6	-95.0	0.0
2025-01-18 18:52:44.374777	356.5	24.5	-95.0	0.0
2025-01-18 18:52:45.495410	356.4	24.3	-94.7	0.0
2025-01-18 18:52:46.617239	356.3	24.2	-95.1	0.0
2025-01-18 18:52:47.739508	356.2	24.0	-95.1	0.0
2025-01-18 18:52:48.861205	356.1	23.8	-95.1	0.0
2025-01-18 18:52:49.983128	356.0	23.7	-95.1	0.0
2025-01-18 18:52:51.105842	355.9	23.5	-95.2	0.0
2025-01-18 18:52:52.228114	355.8	23.4	-95.2	0.0
2025-01-18 18:52:53.350601	355.7	23.2	-94.9	0.0
2025-01-18 18:52:54.470384	355.6	23.1	-95.0	0.0
2025-01-18 18:52:55.591460	355.5	22.9	-94.8	0.0
2025-01-18 18:52:56.712347	355.4	22.8	-95.0	0.0
2025-01-18 18:52:57.831129	355.3	22.6	-95.1	0.0
2025-01-18 18:52:58.953491	355.2	22.5	-95.0	0.0
2025-01-18 18:53:00.075583	355.1	22.3	-94.8	0.0
2025-01-18 18:53:01.195468	355.0	22.2	-95.0	0.0
2025-01-18 18:53:02.318584	354.9	22.0	-94.8	0.0
2025-01-18 18:53:03.440401	354.8	21.9	-95.1	0.0
2025-01-18 18:53:04.560249	354.7	21.7	-94.8	0.0
2025-01-18 18:53:05.683053	354.6	21.6	-94.9	0.0
2025-01-18 18:53:06.803156	354.5	21.4	-95.0	0.0
2025-01-18 18:53:07.922920	354.4	21.3	-94.5	0.0
2025-01-18 18:53:09.044337	354.3	21.1	-94.8	0.0
2025-01-18 18:53:10.165278	354.3	21.0	-94.9	0.0
2025-01-18 18:53:11.286440	354.2	20.9	-94.9	0.0
2025-01-18 18:53:12.406906	354.1	20.7	-94.9	0.0
2025-01-18 18:53:13.527491	354.0	20.6	-94.7	0.0
2025-01-18 18:53:14.649806	353.9	20.4	-94.9	0.0
2025-01-18 18:53:15.772622	353.8	20.3	-94.9	0.0
2025-01-18 18:53:16.892513	353.7	20.2	-95.0	0.0
2025-01-18 18:53:18.015416	353.7	20.0	-95.0	0.0
2025-01-18 18:53:19.134667	353.6	19.9	-95.1	0.0
2025-01-18 18:53:20.257006	353.5	19.7	-95.0	0.0
2025-01-18 18:53:21.378328	353.4	19.6	-95.1	0.0
2025-01-18 18:53:22.500477	353.3	19.5	-94.9	0.0
2025-01-18 18:53:23.622928	353.3	19.3	-94.9	0.0
2025-01-18 18:53:24.744200	353.2	19.2	-94.9	0.0
2025-01-18 18:53:25.866739	353.1	19.1	-94.9	0.0
2025-01-18 18:53:26.989842	353.0	18.9	-94.9	0.0
2025-01-18 18:53:28.110843	353.0	18.8	-94.9	0.0
2025-01-18 18:53:29.230038	352.9	18.7	-95.0	0.0
2025-01-18 18:53:30.351900	352.8	18.5	-94.9	0.0
2025-01-18 18:53:31.474102	352.7	18.4	-94.9	0.0
2025-01-18 18:53:32.595214	352.7	18.3	-95.0	0.0
2025-01-18 18:53:33.715447	352.6	18.2	-94.9	0.0
2025-01-18 18:53:34.838657	352.5	18.0	-95.2	0.0
2025-01-18 18:53:35.960166	352.4	17.9	-95.1	0.0
2025-01-18 18:53:37.082439	352.4	17.8	-95.0	0.0
2025-01-18 18:53:38.201486	352.3	17.6	-95.0	0.0
2025-01-18 18:53:39.322877	352.2	17.5	-94.9	0.0
2025-01-18 18:53:40.445459	352.2	17.4	-95.1	0.0
2025-01-18 18:53:41.568187	352.1	17.3	-95.2	0.0
2025-01-18 18:53:42.688665	352.0	17.1	-94.9	0.0
2025-01-18 18:53:43.807561	352.0	17.0	-95.1	0.0
2025-01-18 18:53:44.928648	351.9	16.9	-95.0	0.0
2025-01-18 18:53:46.050532	351.8	16.8	-94.7	0.0
2025-01-18 18:53:47.169633	351.8	16.7	-94.9	0.0
2025-01-18 18:53:48.290869	351.7	16.5	-94.9	0.0
2025-01-18 18:53:49.411483	351.6	16.4	-94.9	0.0
2025-01-18 18:53:50.532577	351.6	16.3	-94.6	0.0
2025-01-18 18:53:51.651590	351.5	16.2	-95.0	0.0
2025-01-18 18:53:52.774372	351.5	16.1	-95.1	0.0
2025-01-18 18:53:53.894445	351.4	15.9	-95.0	0.0
2025-01-18 18:53:55.016237	351.3	15.8	-94.9	0.0
2025-01-18 18:53:56.136677	351.3	15.7	-94.9	0.0
2025-01-18 18:53:57.261331	351.2	15.6	-94.9	0.0
2025-01-18 18:53:58.381646	351.2	15.5	-94.7	0.0
2025-01-18 18:53:59.503358	351.1	15.3	-94.6	0.0
2025-01-18 18:54:00.624891	351.0	15.2	-94.6	0.0
2025-01-18 18:54:01.746722	351.0	15.1	-94.7	0.0
2025-01-18 18:54:02.866083	350.9	15.0	-94.6	0.0
2025-01-18 18:54:03.986493	350.9	14.9	-94.7	0.0
2025-01-18 18:54:05.108933	350.8	14.8	-94.6	0.0
2025-01-18 18:54:06.228495	350.7	14.7	-94.7	0.0
2025-01-18 18:54:07.348462	350.7	14.6	-94.6	0.0
2025-01-18 18:54:08.471882	350.6	14.4	-94.7	0.0
2025-01-18 18:54:09.592683	350.6	14.3	-94.8	0.0
2025-01-18 18:54:10.714982	350.5	14.2	-94.6	0.0
2025-01-18 18:54:11.836686	350.5	14.1	-94.8	0.0
2025-01-18 18:54:12.957198	350.4	14.0	-94.7	0.0
2025-01-18 18:54:14.078578	350.4	13.9	-95.1	0.0
2025-01-18 18:54:15.199616	350.3	13.8	-95.2	0.0
2025-01-18 18:54:16.321637	350.3	13.7	-94.9	0.0
2025-01-18 18:54:17.442117	350.2	13.6	-94.7	0.0
2025-01-18 18:54:18.564580	350.2	13.5	-94.7	0.0
2025-01-18 18:54:19.685910	350.1	13.3	-95.2	0.0
2025-01-18 18:54:20.807865	350.1	13.2	-95.0	0.0
2025-01-18 18:54:21.928503	350.0	13.1	-95.1	0.0
2025-01-18 18:54:23.052292	350.0	13.0	-94.8	0.0
2025-01-18 18:54:24.173570	349.9	12.9	-95.0	0.0
2025-01-18 18:54:25.296163	349.9	12.8	-95.1	0.0
2025-01-18 18:54:26.417756	349.8	12.7	-94.8	0.0
2025-01-18 18:54:27.539587	349.8	12.6	-94.7	0.0
2025-01-18 18:54:28.661031	349.7	12.5	-94.5	0.0
2025-01-18 18:54:29.781592	349.7	12.4	-95.1	0.0
2025-01-18 18:54:30.900199	349.6	12.3	-95.0	0.0
2025-01-18 18:54:32.019832	349.6	12.2	-94.9	0.0
2025-01-18 18:54:33.142612	349.5	12.1	-94.6	0.0
2025-01-18 18:54:34.261752	349.5	12.0	-94.9	0.0
2025-01-18 18:54:35.381916	349.4	11.9	-94.8	0.0
2025-01-18 18:54:36.502883	349.4	11.8	-94.9	0.0
2025-01-18 18:54:37.624594	349.3	11.7	-94.6	0.0
2025-01-18 18:54:38.745341	349.3	11.6	-94.9	0.0
2025-01-18 18:54:39.867326	349.2	11.5	-94.8	0.0
2025-01-18 18:54:40.989359	349.2	11.4	-94.7	0.0
2025-01-18 18:54:42.110746	349.2	11.3	-94.9	0.0
2025-01-18 18:54:43.232742	349.1	11.2	-95.0	0.0
2025-01-18 18:54:44.354412	349.1	11.1	-95.0	0.0
2025-01-18 18:54:45.476574	349.0	11.0	-94.9	0.0
2025-01-18 18:54:46.593886	349.0	10.9	-94.8	0.0
2025-01-18 18:54:47.714630	348.9	10.8	-95.0	0.0
2025-01-18 18:54:48.834752	348.9	10.7	-94.9	0.0
2025-01-18 18:54:49.955347	348.9	10.6	-94.6	0.0
2025-01-18 18:54:51.076134	348.8	10.5	-94.7	0.0
2025-01-18 18:54:52.197640	348.8	10.4	-95.0	0.0
2025-01-18 18:54:53.319567	348.7	10.3	-94.9	0.0
2025-01-18 18:54:54.438706	348.7	10.2	-94.7	0.0
2025-01-18 18:54:55.559543	348.7	10.1	-94.7	0.0
2025-01-18 18:54:56.679593	348.6	10.0	-94.7	0.0
#Closed at: 2025-01-18 18:44:04.815724