passes_logs/2025/01/18/planumMaritime01/planumMaritime01__20250118_071230_METOP-B_rec.log

#Pass ID: 20250118_071230_METOP-B
#Satellite: METOP-B
#Configuration: METOP-B
#Start time: 2025-01-18 07:12:35.339086

#LorettStation: 1.0.0 05.05.2024
#Station: planumMaritime01
#Location: 37.49445 lon 55.92918 lat
#TLE: 1 38771U 12049A   25017.15368062  .00000245  00000+0  13171-3 0  9994
#TLE: 2 38771  98.6007  75.2563 0001735  79.5844 280.5529 14.21411545639949

#Time	Az	El	Level	SNR
2025-01-18 07:12:37.500726	19.6	10.2	-94.2	0.0
2025-01-18 07:12:38.621597	19.6	10.3	-94.5	0.0
2025-01-18 07:12:39.742877	19.7	10.4	-94.4	0.0
2025-01-18 07:12:40.863252	19.7	10.5	-94.6	0.0
2025-01-18 07:12:41.985063	19.7	10.6	-94.5	0.0
2025-01-18 07:12:43.104189	19.8	10.7	-94.4	0.0
2025-01-18 07:12:44.227496	19.8	10.8	-94.6	0.0
2025-01-18 07:12:45.349470	19.8	10.9	-94.7	0.0
2025-01-18 07:12:46.470131	19.9	11.0	-94.5	0.0
2025-01-18 07:12:47.591850	19.9	11.1	-94.9	0.0
2025-01-18 07:12:48.711649	19.9	11.2	-94.6	0.0
2025-01-18 07:12:49.832178	19.9	11.3	-94.7	0.0
2025-01-18 07:12:50.953475	20.0	11.4	-94.8	0.0
2025-01-18 07:12:52.074077	20.0	11.5	-94.9	0.0
2025-01-18 07:12:53.192243	20.0	11.6	-94.8	0.0
2025-01-18 07:12:54.313323	20.1	11.7	-94.8	0.0
2025-01-18 07:12:55.438340	20.1	11.8	-94.8	0.0
2025-01-18 07:12:56.558399	20.1	11.9	-94.7	0.0
2025-01-18 07:12:57.680813	20.2	12.0	-94.4	0.0
2025-01-18 07:12:58.803478	20.2	12.1	-94.4	0.0
2025-01-18 07:12:59.924227	20.2	12.2	-94.4	0.0
2025-01-18 07:13:01.046120	20.3	12.3	-94.6	0.0
2025-01-18 07:13:02.167043	20.3	12.4	-94.7	0.0
2025-01-18 07:13:03.288744	20.3	12.5	-94.6	0.0
2025-01-18 07:13:04.410610	20.4	12.6	-94.5	0.0
2025-01-18 07:13:05.529707	20.4	12.7	-94.6	0.0
2025-01-18 07:13:06.653401	20.4	12.8	-94.5	0.0
2025-01-18 07:13:07.776823	20.5	13.0	-94.5	0.0
2025-01-18 07:13:08.897419	20.5	13.1	-94.5	0.0
2025-01-18 07:13:10.019267	20.5	13.2	-94.4	0.0
2025-01-18 07:13:11.140300	20.6	13.3	-94.8	0.0
2025-01-18 07:13:12.261376	20.6	13.4	-94.5	0.0
2025-01-18 07:13:13.382196	20.6	13.5	-94.8	0.0
2025-01-18 07:13:14.503563	20.7	13.6	-94.6	0.0
2025-01-18 07:13:15.625656	20.7	13.7	-94.6	0.0
2025-01-18 07:13:16.747078	20.8	13.8	-94.9	0.0
2025-01-18 07:13:17.868599	20.8	14.0	-94.7	0.0
2025-01-18 07:13:18.991425	20.8	14.1	-94.7	0.0
2025-01-18 07:13:20.111307	20.9	14.2	-94.7	0.0
2025-01-18 07:13:21.232462	20.9	14.3	-94.6	0.0
2025-01-18 07:13:22.353632	20.9	14.4	-94.6	0.0
2025-01-18 07:13:23.475223	21.0	14.5	-94.2	0.0
2025-01-18 07:13:24.597216	21.0	14.6	-94.5	0.0
2025-01-18 07:13:25.717580	21.1	14.8	-94.3	0.0
2025-01-18 07:13:26.840299	21.1	14.9	-94.5	0.0
2025-01-18 07:13:27.961716	21.1	15.0	-94.6	0.0
2025-01-18 07:13:29.082300	21.2	15.1	-94.7	0.0
2025-01-18 07:13:30.202469	21.2	15.2	-94.6	0.0
2025-01-18 07:13:31.322940	21.3	15.3	-94.5	0.0
2025-01-18 07:13:32.443146	21.3	15.5	-94.5	0.0
2025-01-18 07:13:33.563882	21.3	15.6	-94.7	0.0
2025-01-18 07:13:34.686290	21.4	15.7	-94.5	0.0
2025-01-18 07:13:35.807890	21.4	15.8	-94.6	0.0
2025-01-18 07:13:36.928409	21.5	16.0	-94.6	0.0
2025-01-18 07:13:38.049340	21.5	16.1	-94.7	0.0
2025-01-18 07:13:39.168680	21.5	16.2	-94.6	0.0
2025-01-18 07:13:40.291056	21.6	16.3	-94.7	0.0
2025-01-18 07:13:41.413269	21.6	16.4	-94.6	0.0
2025-01-18 07:13:42.534443	21.7	16.6	-94.7	0.0
2025-01-18 07:13:43.655369	21.7	16.7	-94.8	0.0
2025-01-18 07:13:44.776159	21.8	16.8	-95.0	0.0
2025-01-18 07:13:45.895349	21.8	17.0	-94.7	0.0
2025-01-18 07:13:47.019169	21.8	17.1	-95.1	0.0
2025-01-18 07:13:48.140428	21.9	17.2	-94.9	0.0
2025-01-18 07:13:49.262435	21.9	17.3	-95.0	0.0
2025-01-18 07:13:50.383357	22.0	17.5	-94.9	0.0
2025-01-18 07:13:51.504497	22.0	17.6	-94.9	0.0
2025-01-18 07:13:52.624270	22.1	17.7	-94.9	0.0
2025-01-18 07:13:53.747998	22.1	17.9	-94.7	0.0
2025-01-18 07:13:54.869001	22.2	18.0	-94.6	0.0
2025-01-18 07:13:55.990994	22.2	18.1	-94.6	0.0
2025-01-18 07:13:57.113301	22.3	18.3	-94.6	0.0
2025-01-18 07:13:58.233472	22.3	18.4	-94.8	0.0
2025-01-18 07:13:59.355052	22.3	18.5	-94.6	0.0
2025-01-18 07:14:00.475300	22.4	18.7	-94.9	0.0
2025-01-18 07:14:01.595327	22.4	18.8	-94.7	0.0
2025-01-18 07:14:02.718586	22.5	19.0	-94.6	0.0
2025-01-18 07:14:03.840853	22.5	19.1	-94.4	0.0
2025-01-18 07:14:04.961217	22.6	19.2	-94.3	0.0
2025-01-18 07:14:06.083325	22.6	19.4	-94.6	0.0
2025-01-18 07:14:07.204432	22.7	19.5	-94.7	0.0
2025-01-18 07:14:08.327557	22.7	19.7	-94.8	0.0
2025-01-18 07:14:09.450377	22.8	19.8	-94.8	0.0
2025-01-18 07:14:10.571318	22.8	19.9	-94.9	0.0
2025-01-18 07:14:11.692149	22.9	20.1	-94.7	0.0
2025-01-18 07:14:12.811154	23.0	20.2	-94.7	0.0
2025-01-18 07:14:13.931529	23.0	20.4	-94.7	0.0
2025-01-18 07:14:15.053263	23.1	20.5	-94.9	0.0
2025-01-18 07:14:16.175076	23.1	20.7	-94.7	0.0
2025-01-18 07:14:17.294361	23.2	20.8	-94.9	0.0
2025-01-18 07:14:18.415393	23.2	21.0	-94.7	0.0
2025-01-18 07:14:19.538285	23.3	21.1	-94.8	0.0
2025-01-18 07:14:20.659078	23.3	21.3	-94.7	0.0
2025-01-18 07:14:21.779375	23.4	21.4	-94.9	0.0
2025-01-18 07:14:22.901461	23.5	21.6	-94.7	0.0
2025-01-18 07:14:24.022376	23.5	21.7	-95.0	0.0
2025-01-18 07:14:25.141850	23.6	21.9	-94.7	0.0
2025-01-18 07:14:26.262221	23.6	22.0	-94.7	0.0
2025-01-18 07:14:27.385666	23.7	22.2	-94.8	0.0
2025-01-18 07:14:28.506725	23.7	22.4	-94.5	0.0
2025-01-18 07:14:29.625742	23.8	22.5	-94.8	0.0
2025-01-18 07:14:30.748318	23.9	22.7	-94.9	0.0
2025-01-18 07:14:31.870851	23.9	22.8	-94.6	0.0
2025-01-18 07:14:32.989969	24.0	23.0	-94.7	0.0
2025-01-18 07:14:34.112259	24.1	23.2	-94.6	0.0
2025-01-18 07:14:35.234875	24.1	23.3	-94.9	0.0
2025-01-18 07:14:36.355921	24.2	23.5	-94.3	0.0
2025-01-18 07:14:37.479939	24.2	23.6	-94.5	0.0
2025-01-18 07:14:38.602507	24.3	23.8	-94.6	0.0
2025-01-18 07:14:39.723258	24.4	24.0	-94.4	0.0
2025-01-18 07:14:40.846115	24.4	24.2	-94.4	0.0
2025-01-18 07:14:41.965453	24.5	24.3	-94.6	0.0
2025-01-18 07:14:43.089590	24.6	24.5	-94.8	0.0
2025-01-18 07:14:44.210277	24.7	24.7	-94.8	0.0
2025-01-18 07:14:45.330115	24.7	24.8	-94.7	0.0
2025-01-18 07:14:46.450326	24.8	25.0	-94.5	0.0
2025-01-18 07:14:47.571289	24.9	25.2	-94.7	0.0
2025-01-18 07:14:48.693632	24.9	25.4	-94.8	0.0
2025-01-18 07:14:49.814767	25.0	25.5	-94.7	0.0
2025-01-18 07:14:50.935030	25.1	25.7	-94.8	0.0
2025-01-18 07:14:52.057011	25.2	25.9	-94.7	0.0
2025-01-18 07:14:53.179240	25.2	26.1	-94.4	0.0
2025-01-18 07:14:54.300050	25.3	26.3	-94.5	0.0
2025-01-18 07:14:55.421226	25.4	26.4	-94.9	0.0
2025-01-18 07:14:56.543038	25.5	26.6	-94.8	0.0
2025-01-18 07:14:57.663546	25.5	26.8	-94.6	0.0
2025-01-18 07:14:58.785644	25.6	27.0	-94.7	0.0
2025-01-18 07:14:59.906761	25.7	27.2	-94.6	0.0
2025-01-18 07:15:01.027774	25.8	27.4	-94.8	0.0
2025-01-18 07:15:02.149242	25.9	27.6	-94.9	0.0
2025-01-18 07:15:03.269491	25.9	27.8	-94.6	0.0
2025-01-18 07:15:04.391477	26.0	28.0	-94.9	0.0
2025-01-18 07:15:05.513900	26.1	28.2	-94.8	0.0
2025-01-18 07:15:06.635133	26.2	28.4	-94.7	0.0
2025-01-18 07:15:07.755857	26.3	28.5	-94.6	0.0
2025-01-18 07:15:08.876029	26.4	28.7	-94.6	0.0
2025-01-18 07:15:09.996001	26.5	28.9	-94.9	0.0
2025-01-18 07:15:11.115709	26.5	29.1	-94.9	0.0
2025-01-18 07:15:12.236472	26.6	29.4	-94.8	0.0
2025-01-18 07:15:13.354887	26.7	29.6	-94.8	0.0
2025-01-18 07:15:14.477309	26.8	29.8	-94.7	0.0
2025-01-18 07:15:15.598051	26.9	30.0	-94.6	0.0
2025-01-18 07:15:16.717199	27.0	30.2	-94.8	0.0
2025-01-18 07:15:17.837973	27.1	30.4	-94.9	0.0
2025-01-18 07:15:18.959057	27.2	30.6	-94.9	0.0
2025-01-18 07:15:20.081377	27.3	30.8	-94.8	0.0
2025-01-18 07:15:21.201801	27.4	31.0	-94.8	0.0
2025-01-18 07:15:22.324060	27.5	31.2	-94.7	0.0
2025-01-18 07:15:23.445459	27.6	31.5	-94.7	0.0
2025-01-18 07:15:24.566829	27.7	31.7	-94.7	0.0
2025-01-18 07:15:25.688867	27.8	31.9	-94.8	0.0
2025-01-18 07:15:26.811107	27.9	32.1	-94.7	0.0
2025-01-18 07:15:27.930621	28.0	32.3	-94.8	0.0
2025-01-18 07:15:29.052260	28.1	32.6	-95.0	0.0
2025-01-18 07:15:30.173150	28.3	32.8	-94.9	0.0
2025-01-18 07:15:31.292057	28.4	33.0	-94.6	0.0
2025-01-18 07:15:32.411683	28.5	33.3	-94.7	0.0
2025-01-18 07:15:33.533561	28.6	33.5	-94.7	0.0
2025-01-18 07:15:34.655372	28.7	33.7	-95.0	0.0
2025-01-18 07:15:35.777350	28.8	34.0	-94.9	0.0
2025-01-18 07:15:36.899510	29.0	34.2	-94.6	0.0
2025-01-18 07:15:38.020177	29.1	34.4	-94.6	0.0
2025-01-18 07:15:39.140297	29.2	34.7	-94.7	0.0
2025-01-18 07:15:40.261594	29.3	34.9	-94.7	0.0
2025-01-18 07:15:41.381168	29.5	35.2	-94.7	0.0
2025-01-18 07:15:42.503311	29.6	35.4	-94.7	0.0
2025-01-18 07:15:43.623143	29.7	35.7	-94.7	0.0
2025-01-18 07:15:44.745559	29.9	35.9	-94.7	0.0
2025-01-18 07:15:45.867086	30.0	36.2	-94.7	0.0
2025-01-18 07:15:46.989148	30.1	36.4	-94.7	0.0
2025-01-18 07:15:48.111903	30.3	36.7	-94.6	0.0
2025-01-18 07:15:49.233084	30.4	36.9	-94.5	0.0
2025-01-18 07:15:50.352783	30.6	37.2	-94.6	0.0
2025-01-18 07:15:51.475252	30.7	37.4	-94.5	0.0
2025-01-18 07:15:52.595761	30.9	37.7	-94.5	0.0
2025-01-18 07:15:53.717474	31.0	38.0	-94.8	0.0
2025-01-18 07:15:54.838377	31.2	38.2	-94.5	0.0
2025-01-18 07:15:55.961140	31.3	38.5	-94.7	0.0
2025-01-18 07:15:57.083089	31.5	38.8	-94.8	0.0
2025-01-18 07:15:58.202875	31.6	39.0	-94.5	0.0
2025-01-18 07:15:59.322449	31.8	39.3	-94.7	0.0
2025-01-18 07:16:00.445458	32.0	39.6	-94.9	0.0
2025-01-18 07:16:01.566152	32.1	39.9	-94.8	0.0
2025-01-18 07:16:02.687073	32.3	40.2	-94.9	0.0
2025-01-18 07:16:03.807331	32.5	40.4	-94.4	0.0
2025-01-18 07:16:04.928216	32.7	40.7	-94.6	0.0
2025-01-18 07:16:06.050117	32.8	41.0	-94.8	0.0
2025-01-18 07:16:07.171057	33.0	41.3	-94.7	0.0
2025-01-18 07:16:08.293170	33.2	41.6	-94.8	0.0
2025-01-18 07:16:09.413489	33.4	41.9	-94.9	0.0
2025-01-18 07:16:10.536577	33.6	42.2	-94.8	0.0
2025-01-18 07:16:11.654523	33.8	42.5	-94.8	0.0
2025-01-18 07:16:12.776215	34.0	42.8	-94.8	0.0
2025-01-18 07:16:13.896289	34.2	43.1	-94.9	0.0
2025-01-18 07:16:15.019148	34.4	43.4	-94.9	0.0
2025-01-18 07:16:16.141289	34.6	43.7	-94.8	0.0
2025-01-18 07:16:17.262152	34.8	44.0	-94.6	0.0
2025-01-18 07:16:18.382915	35.1	44.3	-94.7	0.0
2025-01-18 07:16:19.501222	35.3	44.6	-94.9	0.0
2025-01-18 07:16:20.623081	35.5	44.9	-94.8	0.0
2025-01-18 07:16:21.743137	35.8	45.2	-94.6	0.0
2025-01-18 07:16:22.863460	36.0	45.5	-94.7	0.0
2025-01-18 07:16:23.985023	36.2	45.8	-94.9	0.0
2025-01-18 07:16:25.105344	36.5	46.2	-94.7	0.0
2025-01-18 07:16:26.225249	36.7	46.5	-94.9	0.0
2025-01-18 07:16:27.345568	37.0	46.8	-94.7	0.0
2025-01-18 07:16:28.466877	37.3	47.1	-94.7	0.0
2025-01-18 07:16:29.587690	37.5	47.5	-94.7	0.0
2025-01-18 07:16:30.708916	37.8	47.8	-94.7	0.0
2025-01-18 07:16:31.828850	38.1	48.1	-94.7	0.0
2025-01-18 07:16:32.952271	38.4	48.5	-94.7	0.0
2025-01-18 07:16:34.075333	38.7	48.8	-94.6	0.0
2025-01-18 07:16:35.196293	39.0	49.1	-94.7	0.0
2025-01-18 07:16:36.318003	39.3	49.5	-94.4	0.0
2025-01-18 07:16:37.438555	39.6	49.8	-94.3	0.0
2025-01-18 07:16:38.559351	39.9	50.1	-94.3	0.0
2025-01-18 07:16:39.680108	40.2	50.5	-94.9	0.0
2025-01-18 07:16:40.802317	40.6	50.8	-94.6	0.0
2025-01-18 07:16:41.923757	40.9	51.2	-94.3	0.0
2025-01-18 07:16:43.044759	41.3	51.5	-94.6	0.0
2025-01-18 07:16:44.165474	41.6	51.9	-94.5	0.0
2025-01-18 07:16:45.287779	42.0	52.2	-94.7	0.0
2025-01-18 07:16:46.408884	42.4	52.6	-94.7	0.0
2025-01-18 07:16:47.529288	42.7	52.9	-94.7	0.0
2025-01-18 07:16:48.653673	43.1	53.3	-94.9	0.0
2025-01-18 07:16:49.775151	43.5	53.6	-94.8	0.0
2025-01-18 07:16:50.895480	43.9	54.0	-94.9	0.0
2025-01-18 07:16:52.014216	44.4	54.4	-95.1	0.0
2025-01-18 07:16:53.133189	44.8	54.7	-94.9	0.0
2025-01-18 07:16:54.253200	45.2	55.1	-94.7	0.0
2025-01-18 07:16:55.374325	45.7	55.4	-94.6	0.0
2025-01-18 07:16:56.493977	46.2	55.8	-94.8	0.0
2025-01-18 07:16:57.616170	46.7	56.2	-95.0	0.0
2025-01-18 07:16:58.737204	47.1	56.5	-95.0	0.0
2025-01-18 07:16:59.858667	47.6	56.9	-94.9	0.0
2025-01-18 07:17:00.979196	48.2	57.2	-94.7	0.0
2025-01-18 07:17:02.099100	48.7	57.6	-95.0	0.0
2025-01-18 07:17:03.222425	49.2	58.0	-95.1	0.0
2025-01-18 07:17:04.341949	49.8	58.3	-95.0	0.0
2025-01-18 07:17:05.463171	50.4	58.7	-95.0	0.0
2025-01-18 07:17:06.584893	51.0	59.0	-94.9	0.0
2025-01-18 07:17:07.707454	51.6	59.4	-94.9	0.0
2025-01-18 07:17:08.826712	52.2	59.8	-95.0	0.0
2025-01-18 07:17:09.949446	52.9	60.1	-95.1	0.0
2025-01-18 07:17:11.070165	53.5	60.5	-94.9	0.0
2025-01-18 07:17:12.191847	54.2	60.8	-94.7	0.0
2025-01-18 07:17:13.315313	54.9	61.2	-95.0	0.0
2025-01-18 07:17:14.437860	55.6	61.6	-94.8	0.0
2025-01-18 07:17:15.560713	56.4	61.9	-94.8	0.0
2025-01-18 07:17:16.681331	57.1	62.2	-94.6	0.0
2025-01-18 07:17:17.803456	57.9	62.6	-94.5	0.0
2025-01-18 07:17:18.923968	58.7	62.9	-94.9	0.0
2025-01-18 07:17:20.045189	59.6	63.3	-94.7	0.0
2025-01-18 07:17:21.167295	60.4	63.6	-94.9	0.0
2025-01-18 07:17:22.290357	61.3	63.9	-94.8	0.0
2025-01-18 07:17:23.412661	62.2	64.3	-95.1	0.0
2025-01-18 07:17:24.532290	63.1	64.6	-94.6	0.0
2025-01-18 07:17:25.657282	64.1	64.9	-94.9	0.0
2025-01-18 07:17:26.779567	65.1	65.2	-94.8	0.0
2025-01-18 07:17:27.900357	66.1	65.5	-94.6	0.0
2025-01-18 07:17:29.022401	67.1	65.8	-94.7	0.0
2025-01-18 07:17:30.142243	68.2	66.1	-94.8	0.0
2025-01-18 07:17:31.263587	69.3	66.4	-94.9	0.0
2025-01-18 07:17:32.384268	70.4	66.7	-94.7	0.0
2025-01-18 07:17:33.504981	71.6	67.0	-94.8	0.0
2025-01-18 07:17:34.627485	72.8	67.3	-94.8	0.0
2025-01-18 07:17:35.747269	74.0	67.5	-94.7	0.0
2025-01-18 07:17:36.871331	75.2	67.8	-94.9	0.0
2025-01-18 07:17:37.994326	76.5	68.0	-94.8	0.0
2025-01-18 07:17:39.116405	77.8	68.2	-95.1	0.0
2025-01-18 07:17:40.235703	79.2	68.5	-94.7	0.0
2025-01-18 07:17:41.356137	80.5	68.7	-94.9	0.0
2025-01-18 07:17:42.478840	81.9	68.9	-94.9	0.0
2025-01-18 07:17:43.599282	83.3	69.1	-94.9	0.0
2025-01-18 07:17:44.719453	84.8	69.2	-95.1	0.0
2025-01-18 07:17:45.839324	86.3	69.4	-94.9	0.0
2025-01-18 07:17:46.958696	87.8	69.6	-94.9	0.0
2025-01-18 07:17:48.080156	89.3	69.7	-94.7	0.0
2025-01-18 07:17:49.204600	90.9	69.8	-95.0	0.0
2025-01-18 07:17:50.326566	92.4	69.9	-95.0	0.0
2025-01-18 07:17:51.447142	94.0	70.0	-95.3	0.0
2025-01-18 07:17:52.569183	95.6	70.1	-95.0	0.0
2025-01-18 07:17:53.690206	97.2	70.2	-94.9	0.0
2025-01-18 07:17:54.810153	98.8	70.2	-94.6	0.0
2025-01-18 07:17:55.928373	100.5	70.3	-95.1	0.0
2025-01-18 07:17:57.048188	102.1	70.3	-94.9	0.0
2025-01-18 07:17:58.168088	103.8	70.3	-94.8	0.0
2025-01-18 07:17:59.290134	105.4	70.3	-94.9	0.0
2025-01-18 07:18:00.411198	107.0	70.3	-95.0	0.0
2025-01-18 07:18:01.530401	108.7	70.3	-94.8	0.0
2025-01-18 07:18:02.650462	110.3	70.2	-95.1	0.0
2025-01-18 07:18:03.771423	111.9	70.1	-94.7	0.0
2025-01-18 07:18:04.892712	113.5	70.1	-94.8	0.0
2025-01-18 07:18:06.014009	115.1	70.0	-94.8	0.0
2025-01-18 07:18:07.135693	116.7	69.9	-95.0	0.0
2025-01-18 07:18:08.256929	118.3	69.7	-95.0	0.0
2025-01-18 07:18:09.379384	119.8	69.6	-94.9	0.0
2025-01-18 07:18:10.500663	121.3	69.5	-94.7	0.0
2025-01-18 07:18:11.619796	122.8	69.3	-94.7	0.0
2025-01-18 07:18:12.741256	124.3	69.1	-94.6	0.0
2025-01-18 07:18:13.862351	125.7	68.9	-94.6	0.0
2025-01-18 07:18:14.982775	127.1	68.7	-94.7	0.0
2025-01-18 07:18:16.103281	128.5	68.5	-94.7	0.0
2025-01-18 07:18:17.225402	129.8	68.3	-94.6	0.0
2025-01-18 07:18:18.345381	131.1	68.1	-94.8	0.0
2025-01-18 07:18:19.465698	132.4	67.9	-94.9	0.0
2025-01-18 07:18:20.586191	133.7	67.6	-94.8	0.0
2025-01-18 07:18:21.707060	134.9	67.3	-94.7	0.0
2025-01-18 07:18:22.828616	136.1	67.1	-94.9	0.0
2025-01-18 07:18:23.951165	137.3	66.8	-94.7	0.0
2025-01-18 07:18:25.071846	138.4	66.5	-94.8	0.0
2025-01-18 07:18:26.192743	139.6	66.2	-94.8	0.0
2025-01-18 07:18:27.315336	140.6	65.9	-94.7	0.0
2025-01-18 07:18:28.436011	141.7	65.6	-94.8	0.0
2025-01-18 07:18:29.557719	142.7	65.3	-94.6	0.0
2025-01-18 07:18:30.678564	143.7	65.0	-94.5	0.0
2025-01-18 07:18:31.800034	144.7	64.7	-94.6	0.0
2025-01-18 07:18:32.923169	145.6	64.4	-94.7	0.0
2025-01-18 07:18:34.043324	146.5	64.1	-94.9	0.0
2025-01-18 07:18:35.165193	147.4	63.7	-95.0	0.0
2025-01-18 07:18:36.287797	148.3	63.4	-94.9	0.0
2025-01-18 07:18:37.407645	149.1	63.0	-94.7	0.0
2025-01-18 07:18:38.527260	149.9	62.7	-94.7	0.0
2025-01-18 07:18:39.647852	150.7	62.4	-95.0	0.0
2025-01-18 07:18:40.770869	151.5	62.0	-95.1	0.0
2025-01-18 07:18:41.891442	152.2	61.7	-95.1	0.0
2025-01-18 07:18:43.013866	153.0	61.3	-95.0	0.0
2025-01-18 07:18:44.133460	153.7	61.0	-94.7	0.0
2025-01-18 07:18:45.254734	154.4	60.6	-95.0	0.0
2025-01-18 07:18:46.376943	155.0	60.2	-95.0	0.0
2025-01-18 07:18:47.497288	155.7	59.9	-94.7	0.0
2025-01-18 07:18:48.618919	156.3	59.5	-94.9	0.0
2025-01-18 07:18:49.740805	156.9	59.2	-94.9	0.0
2025-01-18 07:18:50.862400	157.5	58.8	-94.9	0.0
2025-01-18 07:18:51.984945	158.1	58.4	-94.4	0.0
2025-01-18 07:18:53.103939	158.7	58.1	-95.1	0.0
2025-01-18 07:18:54.224685	159.3	57.7	-94.9	0.0
2025-01-18 07:18:55.349477	159.8	57.3	-94.6	0.0
2025-01-18 07:18:56.469841	160.3	57.0	-94.5	0.0
2025-01-18 07:18:57.591433	160.8	56.6	-94.5	0.0
2025-01-18 07:18:58.713427	161.3	56.3	-94.6	0.0
2025-01-18 07:18:59.834853	161.8	55.9	-94.4	0.0
2025-01-18 07:19:00.955833	162.3	55.5	-94.2	0.0
2025-01-18 07:19:02.076488	162.7	55.2	-94.8	0.0
2025-01-18 07:19:03.197288	163.2	54.8	-94.6	0.0
2025-01-18 07:19:04.317055	163.6	54.4	-94.5	0.0
2025-01-18 07:19:05.438196	164.1	54.1	-94.4	0.0
2025-01-18 07:19:06.559155	164.5	53.7	-94.4	0.0
2025-01-18 07:19:07.681844	164.9	53.4	-94.7	0.0
2025-01-18 07:19:08.801375	165.3	53.0	-94.8	0.0
2025-01-18 07:19:09.920213	165.7	52.7	-94.4	0.0
2025-01-18 07:19:11.043273	166.0	52.3	-94.5	0.0
2025-01-18 07:19:12.164770	166.4	52.0	-94.7	0.0
2025-01-18 07:19:13.285841	166.8	51.6	-94.8	0.0
2025-01-18 07:19:14.407196	167.1	51.3	-94.7	0.0
2025-01-18 07:19:15.529413	167.5	50.9	-94.5	0.0
2025-01-18 07:19:16.650735	167.8	50.6	-94.8	0.0
2025-01-18 07:19:17.773006	168.1	50.2	-95.0	0.0
2025-01-18 07:19:18.895132	168.5	49.9	-95.0	0.0
2025-01-18 07:19:20.015004	168.8	49.5	-94.7	0.0
2025-01-18 07:19:21.138478	169.1	49.2	-94.7	0.0
2025-01-18 07:19:22.257658	169.4	48.8	-94.8	0.0
2025-01-18 07:19:23.379096	169.7	48.5	-94.9	0.0
2025-01-18 07:19:24.500372	170.0	48.2	-94.9	0.0
2025-01-18 07:19:25.622108	170.3	47.8	-95.0	0.0
2025-01-18 07:19:26.743567	170.5	47.5	-94.7	0.0
2025-01-18 07:19:27.865546	170.8	47.2	-94.8	0.0
2025-01-18 07:19:28.987016	171.1	46.9	-94.6	0.0
2025-01-18 07:19:30.107308	171.3	46.5	-94.8	0.0
2025-01-18 07:19:31.227325	171.6	46.2	-95.0	0.0
2025-01-18 07:19:32.348283	171.8	45.9	-94.7	0.0
2025-01-18 07:19:33.470419	172.1	45.6	-94.5	0.0
2025-01-18 07:19:34.590537	172.3	45.3	-94.5	0.0
2025-01-18 07:19:35.711863	172.6	44.9	-94.8	0.0
2025-01-18 07:19:36.831571	172.8	44.6	-95.0	0.0
2025-01-18 07:19:37.952912	173.0	44.3	-94.6	0.0
2025-01-18 07:19:39.077174	173.2	44.0	-94.7	0.0
2025-01-18 07:19:40.198202	173.5	43.7	-94.7	0.0
2025-01-18 07:19:41.318669	173.7	43.4	-94.9	0.0
2025-01-18 07:19:42.440202	173.9	43.1	-94.8	0.0
2025-01-18 07:19:43.561144	174.1	42.8	-94.7	0.0
2025-01-18 07:19:44.683679	174.3	42.5	-94.8	0.0
2025-01-18 07:19:45.806570	174.5	42.2	-94.8	0.0
2025-01-18 07:19:46.927306	174.7	41.9	-94.8	0.0
2025-01-18 07:19:48.047576	174.9	41.6	-94.9	0.0
2025-01-18 07:19:49.167482	175.1	41.3	-94.9	0.0
2025-01-18 07:19:50.287611	175.3	41.0	-94.8	0.0
2025-01-18 07:19:51.408598	175.4	40.7	-94.9	0.0
2025-01-18 07:19:52.528289	175.6	40.4	-94.7	0.0
2025-01-18 07:19:53.648955	175.8	40.2	-94.7	0.0
2025-01-18 07:19:54.772093	176.0	39.9	-94.7	0.0
2025-01-18 07:19:55.893068	176.1	39.6	-94.9	0.0
2025-01-18 07:19:57.016261	176.3	39.3	-95.1	0.0
2025-01-18 07:19:58.135324	176.5	39.0	-95.1	0.0
2025-01-18 07:19:59.256917	176.6	38.8	-94.8	0.0
2025-01-18 07:20:00.380348	176.8	38.5	-94.7	0.0
2025-01-18 07:20:01.499331	176.9	38.2	-94.9	0.0
2025-01-18 07:20:02.619466	177.1	38.0	-94.9	0.0
2025-01-18 07:20:03.739796	177.2	37.7	-94.7	0.0
2025-01-18 07:20:04.860308	177.4	37.4	-94.6	0.0
2025-01-18 07:20:05.982186	177.5	37.2	-94.7	0.0
2025-01-18 07:20:07.102911	177.7	36.9	-94.8	0.0
2025-01-18 07:20:08.221983	177.8	36.7	-94.7	0.0
2025-01-18 07:20:09.342786	178.0	36.4	-94.9	0.0
2025-01-18 07:20:10.463083	178.1	36.1	-94.8	0.0
2025-01-18 07:20:11.582287	178.2	35.9	-95.1	0.0
2025-01-18 07:20:12.704638	178.4	35.6	-94.9	0.0
2025-01-18 07:20:13.828156	178.5	35.4	-94.8	0.0
2025-01-18 07:20:14.950453	178.6	35.1	-94.9	0.0
2025-01-18 07:20:16.072369	178.8	34.9	-94.9	0.0
2025-01-18 07:20:17.193950	178.9	34.7	-94.8	0.0
2025-01-18 07:20:18.315985	179.0	34.4	-94.8	0.0
2025-01-18 07:20:19.437272	179.1	34.2	-94.7	0.0
2025-01-18 07:20:20.558567	179.3	33.9	-94.9	0.0
2025-01-18 07:20:21.681275	179.4	33.7	-95.0	0.0
2025-01-18 07:20:22.802042	179.5	33.5	-94.7	0.0
2025-01-18 07:20:23.921693	179.6	33.2	-95.2	0.0
2025-01-18 07:20:25.041424	179.7	33.0	-94.8	0.0
2025-01-18 07:20:26.164953	179.8	32.8	-94.8	0.0
2025-01-18 07:20:27.285245	180.0	32.5	-94.8	0.0
2025-01-18 07:20:28.406801	180.1	32.3	-94.8	0.0
2025-01-18 07:20:29.524802	180.2	32.1	-94.9	0.0
2025-01-18 07:20:30.647180	180.3	31.9	-95.0	0.0
2025-01-18 07:20:31.768832	180.4	31.6	-95.1	0.0
2025-01-18 07:20:32.889969	180.5	31.4	-94.8	0.0
2025-01-18 07:20:34.011625	180.6	31.2	-94.9	0.0
2025-01-18 07:20:35.135106	180.7	31.0	-95.2	0.0
2025-01-18 07:20:36.255060	180.8	30.8	-95.1	0.0
2025-01-18 07:20:37.375424	180.9	30.5	-94.8	0.0
2025-01-18 07:20:38.494454	181.0	30.3	-94.8	0.0
2025-01-18 07:20:39.615528	181.1	30.1	-95.0	0.0
2025-01-18 07:20:40.736034	181.2	29.9	-95.1	0.0
2025-01-18 07:20:41.856859	181.3	29.7	-95.0	0.0
2025-01-18 07:20:42.980489	181.4	29.5	-95.0	0.0
2025-01-18 07:20:44.099350	181.5	29.3	-94.9	0.0
2025-01-18 07:20:45.220112	181.6	29.1	-94.9	0.0
2025-01-18 07:20:46.341153	181.6	28.9	-95.0	0.0
2025-01-18 07:20:47.460613	181.7	28.7	-94.9	0.0
2025-01-18 07:20:48.582603	181.8	28.5	-95.0	0.0
2025-01-18 07:20:49.704517	181.9	28.3	-94.9	0.0
2025-01-18 07:20:50.823415	182.0	28.1	-94.8	0.0
2025-01-18 07:20:51.944052	182.1	27.9	-94.9	0.0
2025-01-18 07:20:53.062517	182.2	27.7	-95.0	0.0
2025-01-18 07:20:54.185288	182.2	27.5	-94.9	0.0
2025-01-18 07:20:55.305951	182.3	27.3	-94.8	0.0
2025-01-18 07:20:56.426672	182.4	27.1	-95.0	0.0
2025-01-18 07:20:57.547294	182.5	26.9	-95.0	0.0
2025-01-18 07:20:58.667241	182.6	26.7	-94.9	0.0
2025-01-18 07:20:59.788724	182.6	26.6	-94.8	0.0
2025-01-18 07:21:00.911160	182.7	26.4	-94.7	0.0
2025-01-18 07:21:02.033211	182.8	26.2	-94.9	0.0
2025-01-18 07:21:03.154671	182.9	26.0	-94.7	0.0
2025-01-18 07:21:04.276182	182.9	25.8	-94.9	0.0
2025-01-18 07:21:05.396748	183.0	25.6	-94.8	0.0
2025-01-18 07:21:06.517185	183.1	25.5	-94.9	0.0
2025-01-18 07:21:07.637317	183.2	25.3	-94.7	0.0
2025-01-18 07:21:08.758847	183.2	25.1	-94.8	0.0
2025-01-18 07:21:09.880491	183.3	24.9	-94.7	0.0
2025-01-18 07:21:11.005387	183.4	24.7	-94.9	0.0
2025-01-18 07:21:12.127142	183.4	24.6	-95.0	0.0
2025-01-18 07:21:13.248370	183.5	24.4	-94.9	0.0
2025-01-18 07:21:14.370819	183.6	24.2	-95.1	0.0
2025-01-18 07:21:15.491004	183.7	24.1	-95.1	0.0
2025-01-18 07:21:16.612180	183.7	23.9	-95.3	0.0
2025-01-18 07:21:17.732179	183.8	23.7	-94.9	0.0
2025-01-18 07:21:18.853950	183.8	23.6	-95.1	0.0
2025-01-18 07:21:19.977470	183.9	23.4	-95.0	0.0
2025-01-18 07:21:21.097391	184.0	23.2	-95.2	0.0
2025-01-18 07:21:22.219148	184.0	23.1	-95.0	0.0
2025-01-18 07:21:23.341333	184.1	22.9	-95.1	0.0
2025-01-18 07:21:24.461739	184.2	22.7	-95.0	0.0
2025-01-18 07:21:25.582868	184.2	22.6	-94.8	0.0
2025-01-18 07:21:26.704652	184.3	22.4	-94.8	0.0
2025-01-18 07:21:27.824737	184.3	22.2	-95.2	0.0
2025-01-18 07:21:28.946462	184.4	22.1	-95.0	0.0
2025-01-18 07:21:30.067547	184.5	21.9	-94.9	0.0
2025-01-18 07:21:31.189748	184.5	21.8	-94.7	0.0
2025-01-18 07:21:32.310154	184.6	21.6	-94.8	0.0
2025-01-18 07:21:33.430303	184.6	21.5	-94.6	0.0
2025-01-18 07:21:34.552093	184.7	21.3	-94.6	0.0
2025-01-18 07:21:35.673312	184.8	21.2	-94.8	0.0
2025-01-18 07:21:36.794230	184.8	21.0	-94.9	0.0
2025-01-18 07:21:37.914069	184.9	20.9	-94.7	0.0
2025-01-18 07:21:39.034262	184.9	20.7	-94.7	0.0
2025-01-18 07:21:40.155129	185.0	20.6	-94.8	0.0
2025-01-18 07:21:41.276394	185.0	20.4	-95.0	0.0
2025-01-18 07:21:42.398366	185.1	20.3	-94.8	0.0
2025-01-18 07:21:43.519813	185.1	20.1	-94.7	0.0
2025-01-18 07:21:44.642630	185.2	20.0	-94.6	0.0
2025-01-18 07:21:45.762622	185.2	19.8	-94.6	0.0
2025-01-18 07:21:46.884762	185.3	19.7	-94.8	0.0
2025-01-18 07:21:48.005915	185.3	19.5	-95.0	0.0
2025-01-18 07:21:49.129178	185.4	19.4	-95.0	0.0
2025-01-18 07:21:50.250304	185.4	19.2	-94.9	0.0
2025-01-18 07:21:51.373284	185.5	19.1	-94.8	0.0
2025-01-18 07:21:52.495245	185.5	19.0	-95.1	0.0
2025-01-18 07:21:53.616335	185.6	18.8	-95.0	0.0
2025-01-18 07:21:54.736390	185.6	18.7	-95.1	0.0
2025-01-18 07:21:55.857221	185.7	18.5	-94.9	0.0
2025-01-18 07:21:56.980406	185.7	18.4	-94.9	0.0
2025-01-18 07:21:58.102176	185.8	18.3	-94.9	0.0
2025-01-18 07:21:59.222670	185.8	18.1	-95.0	0.0
2025-01-18 07:22:00.344445	185.9	18.0	-94.8	0.0
2025-01-18 07:22:01.465426	185.9	17.9	-94.8	0.0
2025-01-18 07:22:02.589538	186.0	17.7	-94.8	0.0
2025-01-18 07:22:03.710090	186.0	17.6	-94.9	0.0
2025-01-18 07:22:04.830241	186.1	17.5	-94.8	0.0
2025-01-18 07:22:05.950721	186.1	17.3	-94.7	0.0
2025-01-18 07:22:07.072229	186.1	17.2	-94.8	0.0
2025-01-18 07:22:08.193153	186.2	17.1	-94.8	0.0
2025-01-18 07:22:09.314346	186.2	17.0	-95.0	0.0
2025-01-18 07:22:10.435347	186.3	16.8	-95.2	0.0
2025-01-18 07:22:11.557499	186.3	16.7	-94.8	0.0
2025-01-18 07:22:12.678287	186.4	16.6	-95.1	0.0
2025-01-18 07:22:13.801424	186.4	16.4	-95.0	0.0
2025-01-18 07:22:14.922026	186.4	16.3	-94.9	0.0
2025-01-18 07:22:16.042190	186.5	16.2	-94.9	0.0
2025-01-18 07:22:17.162452	186.5	16.1	-94.6	0.0
2025-01-18 07:22:18.283135	186.6	15.9	-95.0	0.0
2025-01-18 07:22:19.404769	186.6	15.8	-95.0	0.0
2025-01-18 07:22:20.524292	186.6	15.7	-94.9	0.0
2025-01-18 07:22:21.645222	186.7	15.6	-94.8	0.0
2025-01-18 07:22:22.766137	186.7	15.4	-94.8	0.0
2025-01-18 07:22:23.887117	186.8	15.3	-95.0	0.0
2025-01-18 07:22:25.009092	186.8	15.2	-94.9	0.0
2025-01-18 07:22:26.128425	186.8	15.1	-94.9	0.0
2025-01-18 07:22:27.249568	186.9	15.0	-95.0	0.0
2025-01-18 07:22:28.370952	186.9	14.8	-94.8	0.0
2025-01-18 07:22:29.490805	187.0	14.7	-94.8	0.0
2025-01-18 07:22:30.613647	187.0	14.6	-95.0	0.0
2025-01-18 07:22:31.737029	187.0	14.5	-94.8	0.0
2025-01-18 07:22:32.857647	187.1	14.4	-94.6	0.0
2025-01-18 07:22:33.979413	187.1	14.3	-95.0	0.0
2025-01-18 07:22:35.102226	187.1	14.1	-95.0	0.0
2025-01-18 07:22:36.221240	187.2	14.0	-94.8	0.0
2025-01-18 07:22:37.342541	187.2	13.9	-94.8	0.0
2025-01-18 07:22:38.462019	187.3	13.8	-95.0	0.0
2025-01-18 07:22:39.583055	187.3	13.7	-94.9	0.0
2025-01-18 07:22:40.704417	187.3	13.6	-94.6	0.0
2025-01-18 07:22:41.824349	187.4	13.5	-95.1	0.0
2025-01-18 07:22:42.944521	187.4	13.4	-94.9	0.0
2025-01-18 07:22:44.065900	187.4	13.2	-94.7	0.0
2025-01-18 07:22:45.189145	187.5	13.1	-94.7	0.0
2025-01-18 07:22:46.310511	187.5	13.0	-94.9	0.0
2025-01-18 07:22:47.431276	187.5	12.9	-94.8	0.0
2025-01-18 07:22:48.553590	187.6	12.8	-94.9	0.0
2025-01-18 07:22:49.676072	187.6	12.7	-94.9	0.0
2025-01-18 07:22:50.795876	187.6	12.6	-95.0	0.0
2025-01-18 07:22:51.916861	187.7	12.5	-95.1	0.0
2025-01-18 07:22:53.037864	187.7	12.4	-94.8	0.0
2025-01-18 07:22:54.158833	187.7	12.3	-95.1	0.0
2025-01-18 07:22:55.279866	187.8	12.2	-94.7	0.0
2025-01-18 07:22:56.400976	187.8	12.1	-94.9	0.0
2025-01-18 07:22:57.522330	187.8	11.9	-95.1	0.0
2025-01-18 07:22:58.643483	187.9	11.8	-95.0	0.0
2025-01-18 07:22:59.764160	187.9	11.7	-94.9	0.0
2025-01-18 07:23:00.887200	187.9	11.6	-94.7	0.0
2025-01-18 07:23:02.009967	188.0	11.5	-94.8	0.0
2025-01-18 07:23:03.129301	188.0	11.4	-95.0	0.0
2025-01-18 07:23:04.251686	188.0	11.3	-94.9	0.0
2025-01-18 07:23:05.371019	188.0	11.2	-94.8	0.0
2025-01-18 07:23:06.493063	188.1	11.1	-94.9	0.0
2025-01-18 07:23:07.615515	188.1	11.0	-94.8	0.0
2025-01-18 07:23:08.737035	188.1	10.9	-94.8	0.0
2025-01-18 07:23:09.857287	188.2	10.8	-94.9	0.0
2025-01-18 07:23:10.978086	188.2	10.7	-94.9	0.0
2025-01-18 07:23:12.099304	188.2	10.6	-95.0	0.0
2025-01-18 07:23:13.219864	188.3	10.5	-94.7	0.0
2025-01-18 07:23:14.338874	188.3	10.4	-94.8	0.0
2025-01-18 07:23:15.461797	188.3	10.3	-94.7	0.0
2025-01-18 07:23:16.584234	188.3	10.2	-94.6	0.0
2025-01-18 07:23:17.708200	188.4	10.1	-94.4	0.0
2025-01-18 07:23:18.829778	188.4	10.0	-94.8	0.0
#Closed at: 2025-01-18 07:12:30.341444