passes_logs/2025/01/18/planumMaritime01/planumMaritime01__20250118_080843_METOP-C_rec.log

#Pass ID: 20250118_080843_METOP-C
#Satellite: METOP-C
#Configuration: METOP-C
#Start time: 2025-01-18 08:08:48.426126

#LorettStation: 1.0.0 05.05.2024
#Station: planumMaritime01
#Location: 37.49445 lon 55.92918 lat
#TLE: 1 43689U 18087A   25017.12268116  .00000242  00000+0  13070-3 0  9997
#TLE: 2 43689  98.6961  79.5832 0001518 160.4189 199.7047 14.21482278321517

#Time	Az	El	Level	SNR
2025-01-18 08:08:50.584896	12.8	10.2	-94.7	0.0
2025-01-18 08:08:51.705866	12.8	10.3	-94.6	0.0
2025-01-18 08:08:52.828633	12.8	10.4	-94.3	0.0
2025-01-18 08:08:53.947842	12.8	10.5	-94.2	0.0
2025-01-18 08:08:55.069881	12.7	10.6	-94.5	0.0
2025-01-18 08:08:56.190706	12.7	10.7	-94.4	0.0
2025-01-18 08:08:57.312287	12.7	10.8	-94.5	0.0
2025-01-18 08:08:58.434390	12.7	10.9	-94.6	0.0
2025-01-18 08:08:59.557292	12.6	11.0	-94.6	0.0
2025-01-18 08:09:00.678561	12.6	11.1	-94.6	0.0
2025-01-18 08:09:01.799734	12.6	11.2	-94.4	0.0
2025-01-18 08:09:02.920826	12.5	11.3	-94.4	0.0
2025-01-18 08:09:04.042067	12.5	11.4	-94.4	0.0
2025-01-18 08:09:05.162314	12.5	11.5	-94.8	0.0
2025-01-18 08:09:06.284100	12.5	11.6	-94.7	0.0
2025-01-18 08:09:07.403401	12.4	11.7	-94.5	0.0
2025-01-18 08:09:08.525462	12.4	11.8	-94.5	0.0
2025-01-18 08:09:09.645466	12.4	11.9	-94.7	0.0
2025-01-18 08:09:10.766473	12.3	12.0	-94.9	0.0
2025-01-18 08:09:11.887489	12.3	12.1	-94.9	0.0
2025-01-18 08:09:13.008537	12.3	12.2	-94.9	0.0
2025-01-18 08:09:14.128965	12.3	12.3	-94.7	0.0
2025-01-18 08:09:15.250126	12.2	12.4	-94.7	0.0
2025-01-18 08:09:16.371523	12.2	12.5	-94.7	0.0
2025-01-18 08:09:17.492063	12.2	12.6	-94.6	0.0
2025-01-18 08:09:18.614068	12.1	12.7	-94.8	0.0
2025-01-18 08:09:19.733113	12.1	12.9	-94.4	0.0
2025-01-18 08:09:20.856029	12.1	13.0	-94.6	0.0
2025-01-18 08:09:21.978924	12.0	13.1	-94.4	0.0
2025-01-18 08:09:23.098495	12.0	13.2	-94.8	0.0
2025-01-18 08:09:24.219109	12.0	13.3	-94.5	0.0
2025-01-18 08:09:25.341740	11.9	13.4	-94.7	0.0
2025-01-18 08:09:26.462527	11.9	13.5	-94.6	0.0
2025-01-18 08:09:27.587083	11.9	13.6	-94.4	0.0
2025-01-18 08:09:28.707254	11.8	13.7	-94.5	0.0
2025-01-18 08:09:29.828572	11.8	13.8	-94.6	0.0
2025-01-18 08:09:30.947026	11.8	14.0	-94.8	0.0
2025-01-18 08:09:32.067530	11.7	14.1	-94.6	0.0
2025-01-18 08:09:33.190788	11.7	14.2	-94.5	0.0
2025-01-18 08:09:34.310805	11.7	14.3	-94.6	0.0
2025-01-18 08:09:35.433145	11.6	14.4	-94.5	0.0
2025-01-18 08:09:36.553592	11.6	14.5	-94.2	0.0
2025-01-18 08:09:37.673543	11.6	14.6	-94.6	0.0
2025-01-18 08:09:38.792908	11.5	14.8	-94.6	0.0
2025-01-18 08:09:39.913394	11.5	14.9	-94.4	0.0
2025-01-18 08:09:41.037383	11.4	15.0	-94.5	0.0
2025-01-18 08:09:42.158537	11.4	15.1	-94.5	0.0
2025-01-18 08:09:43.279310	11.4	15.2	-94.5	0.0
2025-01-18 08:09:44.399650	11.3	15.4	-94.5	0.0
2025-01-18 08:09:45.522487	11.3	15.5	-94.7	0.0
2025-01-18 08:09:46.641590	11.3	15.6	-94.4	0.0
2025-01-18 08:09:47.762947	11.2	15.7	-94.6	0.0
2025-01-18 08:09:48.885244	11.2	15.8	-94.5	0.0
2025-01-18 08:09:50.006302	11.1	16.0	-94.7	0.0
2025-01-18 08:09:51.129053	11.1	16.1	-94.8	0.0
2025-01-18 08:09:52.248164	11.1	16.2	-94.5	0.0
2025-01-18 08:09:53.369489	11.0	16.3	-94.5	0.0
2025-01-18 08:09:54.492563	11.0	16.5	-94.2	0.0
2025-01-18 08:09:55.612673	10.9	16.6	-94.8	0.0
2025-01-18 08:09:56.733293	10.9	16.7	-94.7	0.0
2025-01-18 08:09:57.852582	10.8	16.8	-94.8	0.0
2025-01-18 08:09:58.974313	10.8	17.0	-94.4	0.0
2025-01-18 08:10:00.096353	10.8	17.1	-94.4	0.0
2025-01-18 08:10:01.218343	10.7	17.2	-94.9	0.0
2025-01-18 08:10:02.337463	10.7	17.4	-94.7	0.0
2025-01-18 08:10:03.458736	10.6	17.5	-94.7	0.0
2025-01-18 08:10:04.578660	10.6	17.6	-94.8	0.0
2025-01-18 08:10:05.698384	10.5	17.7	-94.5	0.0
2025-01-18 08:10:06.820530	10.5	17.9	-94.8	0.0
2025-01-18 08:10:07.942534	10.4	18.0	-94.8	0.0
2025-01-18 08:10:09.062979	10.4	18.1	-94.9	0.0
2025-01-18 08:10:10.183431	10.3	18.3	-94.9	0.0
2025-01-18 08:10:11.307361	10.3	18.4	-94.9	0.0
2025-01-18 08:10:12.429146	10.3	18.5	-94.6	0.0
2025-01-18 08:10:13.550415	10.2	18.7	-94.6	0.0
2025-01-18 08:10:14.669223	10.2	18.8	-94.8	0.0
2025-01-18 08:10:15.790562	10.1	19.0	-94.8	0.0
2025-01-18 08:10:16.911430	10.1	19.1	-94.8	0.0
2025-01-18 08:10:18.033087	10.0	19.2	-94.9	0.0
2025-01-18 08:10:19.151348	10.0	19.4	-95.1	0.0
2025-01-18 08:10:20.270108	9.9	19.5	-94.7	0.0
2025-01-18 08:10:21.391195	9.8	19.7	-94.7	0.0
2025-01-18 08:10:22.514234	9.8	19.8	-94.9	0.0
2025-01-18 08:10:23.636599	9.7	19.9	-94.8	0.0
2025-01-18 08:10:24.758515	9.7	20.1	-94.5	0.0
2025-01-18 08:10:25.878762	9.6	20.2	-94.5	0.0
2025-01-18 08:10:26.998368	9.6	20.4	-94.7	0.0
2025-01-18 08:10:28.119323	9.5	20.5	-94.7	0.0
2025-01-18 08:10:29.237746	9.5	20.7	-94.6	0.0
2025-01-18 08:10:30.357882	9.4	20.8	-94.8	0.0
2025-01-18 08:10:31.482060	9.4	21.0	-94.5	0.0
2025-01-18 08:10:32.603956	9.3	21.1	-94.2	0.0
2025-01-18 08:10:33.723965	9.2	21.3	-94.4	0.0
2025-01-18 08:10:34.844153	9.2	21.4	-94.5	0.0
2025-01-18 08:10:35.964599	9.1	21.6	-94.3	0.0
2025-01-18 08:10:37.086967	9.1	21.7	-94.2	0.0
2025-01-18 08:10:38.210002	9.0	21.9	-94.5	0.0
2025-01-18 08:10:39.330801	8.9	22.0	-94.7	0.0
2025-01-18 08:10:40.451309	8.9	22.2	-94.4	0.0
2025-01-18 08:10:41.571513	8.8	22.4	-94.3	0.0
2025-01-18 08:10:42.693310	8.7	22.5	-94.4	0.0
2025-01-18 08:10:43.812940	8.7	22.7	-94.6	0.0
2025-01-18 08:10:44.933922	8.6	22.8	-94.7	0.0
2025-01-18 08:10:46.056727	8.5	23.0	-94.5	0.0
2025-01-18 08:10:47.179207	8.5	23.2	-94.6	0.0
2025-01-18 08:10:48.300664	8.4	23.3	-94.8	0.0
2025-01-18 08:10:49.421472	8.3	23.5	-94.8	0.0
2025-01-18 08:10:50.542185	8.3	23.6	-94.5	0.0
2025-01-18 08:10:51.663375	8.2	23.8	-94.8	0.0
2025-01-18 08:10:52.785511	8.1	24.0	-94.8	0.0
2025-01-18 08:10:53.906909	8.1	24.1	-94.8	0.0
2025-01-18 08:10:55.027372	8.0	24.3	-94.7	0.0
2025-01-18 08:10:56.151584	7.9	24.5	-94.7	0.0
2025-01-18 08:10:57.272758	7.8	24.7	-94.8	0.0
2025-01-18 08:10:58.392279	7.8	24.8	-94.7	0.0
2025-01-18 08:10:59.514586	7.7	25.0	-94.7	0.0
2025-01-18 08:11:00.634195	7.6	25.2	-94.9	0.0
2025-01-18 08:11:01.756168	7.5	25.4	-94.7	0.0
2025-01-18 08:11:02.877173	7.5	25.5	-94.7	0.0
2025-01-18 08:11:03.999411	7.4	25.7	-94.7	0.0
2025-01-18 08:11:05.120908	7.3	25.9	-94.7	0.0
2025-01-18 08:11:06.242648	7.2	26.1	-94.5	0.0
2025-01-18 08:11:07.366490	7.1	26.3	-94.9	0.0
2025-01-18 08:11:08.488704	7.1	26.4	-94.8	0.0
2025-01-18 08:11:09.607733	7.0	26.6	-94.8	0.0
2025-01-18 08:11:10.727941	6.9	26.8	-94.6	0.0
2025-01-18 08:11:11.848871	6.8	27.0	-94.6	0.0
2025-01-18 08:11:12.968807	6.7	27.2	-94.6	0.0
2025-01-18 08:11:14.088893	6.6	27.4	-94.6	0.0
2025-01-18 08:11:15.210568	6.5	27.6	-95.0	0.0
2025-01-18 08:11:16.330570	6.5	27.7	-94.7	0.0
2025-01-18 08:11:17.450552	6.4	27.9	-94.4	0.0
2025-01-18 08:11:18.570229	6.3	28.1	-94.6	0.0
2025-01-18 08:11:19.692666	6.2	28.3	-94.8	0.0
2025-01-18 08:11:20.812398	6.1	28.5	-94.5	0.0
2025-01-18 08:11:21.934448	6.0	28.7	-94.2	0.0
2025-01-18 08:11:23.056536	5.9	28.9	-94.5	0.0
2025-01-18 08:11:24.178028	5.8	29.1	-94.8	0.0
2025-01-18 08:11:25.299398	5.7	29.3	-94.5	0.0
2025-01-18 08:11:26.421086	5.6	29.5	-94.5	0.0
2025-01-18 08:11:27.541481	5.5	29.7	-94.8	0.0
2025-01-18 08:11:28.666517	5.4	29.9	-94.8	0.0
2025-01-18 08:11:29.788210	5.3	30.1	-94.7	0.0
2025-01-18 08:11:30.909339	5.2	30.4	-94.7	0.0
2025-01-18 08:11:32.029666	5.1	30.6	-94.8	0.0
2025-01-18 08:11:33.152899	5.0	30.8	-94.7	0.0
2025-01-18 08:11:34.274189	4.8	31.0	-94.7	0.0
2025-01-18 08:11:35.394252	4.7	31.2	-94.7	0.0
2025-01-18 08:11:36.513460	4.6	31.4	-94.8	0.0
2025-01-18 08:11:37.633949	4.5	31.6	-94.5	0.0
2025-01-18 08:11:38.753009	4.4	31.8	-94.6	0.0
2025-01-18 08:11:39.873048	4.3	32.1	-94.6	0.0
2025-01-18 08:11:40.996521	4.1	32.3	-94.8	0.0
2025-01-18 08:11:42.117382	4.0	32.5	-94.7	0.0
2025-01-18 08:11:43.239229	3.9	32.7	-94.6	0.0
2025-01-18 08:11:44.361343	3.8	33.0	-94.7	0.0
2025-01-18 08:11:45.481218	3.6	33.2	-94.8	0.0
2025-01-18 08:11:46.599151	3.5	33.4	-94.8	0.0
2025-01-18 08:11:47.720949	3.4	33.7	-94.7	0.0
2025-01-18 08:11:48.843171	3.2	33.9	-94.6	0.0
2025-01-18 08:11:49.964392	3.1	34.1	-94.7	0.0
2025-01-18 08:11:51.085812	3.0	34.4	-94.7	0.0
2025-01-18 08:11:52.205517	2.8	34.6	-94.7	0.0
2025-01-18 08:11:53.325914	2.7	34.8	-94.6	0.0
2025-01-18 08:11:54.446426	2.5	35.1	-94.8	0.0
2025-01-18 08:11:55.566547	2.4	35.3	-94.9	0.0
2025-01-18 08:11:56.688050	2.2	35.6	-94.5	0.0
2025-01-18 08:11:57.807772	2.1	35.8	-94.6	0.0
2025-01-18 08:11:58.929595	1.9	36.0	-94.9	0.0
2025-01-18 08:12:00.051564	1.8	36.3	-94.6	0.0
2025-01-18 08:12:01.170473	1.6	36.5	-94.5	0.0
2025-01-18 08:12:02.291133	1.5	36.8	-94.6	0.0
2025-01-18 08:12:03.414793	1.3	37.1	-94.9	0.0
2025-01-18 08:12:04.534816	1.1	37.3	-94.7	0.0
2025-01-18 08:12:05.655190	1.0	37.6	-94.4	0.0
2025-01-18 08:12:06.775787	0.8	37.8	-94.4	0.0
2025-01-18 08:12:07.896475	0.6	38.1	-94.4	0.0
2025-01-18 08:12:09.017427	0.4	38.3	-94.8	0.0
2025-01-18 08:12:10.137013	0.3	38.6	-94.6	0.0
2025-01-18 08:12:11.257514	0.1	38.9	-94.6	0.0
2025-01-18 08:12:12.378383	359.9	39.1	-94.6	0.0
2025-01-18 08:12:13.500469	359.7	39.4	-94.4	0.0
2025-01-18 08:12:14.620503	359.5	39.7	-94.6	0.0
2025-01-18 08:12:15.741739	359.3	40.0	-94.9	0.0
2025-01-18 08:12:16.861468	359.1	40.2	-94.6	0.0
2025-01-18 08:12:17.983618	358.9	40.5	-94.6	0.0
2025-01-18 08:12:19.104758	358.7	40.8	-94.4	0.0
2025-01-18 08:12:20.225903	358.5	41.1	-94.8	0.0
2025-01-18 08:12:21.345454	358.3	41.3	-94.7	0.0
2025-01-18 08:12:22.465465	358.1	41.6	-94.6	0.0
2025-01-18 08:12:23.586899	357.9	41.9	-94.3	0.0
2025-01-18 08:12:24.706134	357.6	42.2	-94.6	0.0
2025-01-18 08:12:25.825948	357.4	42.5	-94.7	0.0
2025-01-18 08:12:26.946232	357.2	42.8	-94.9	0.0
2025-01-18 08:12:28.066365	356.9	43.1	-94.6	0.0
2025-01-18 08:12:29.187766	356.7	43.4	-94.6	0.0
2025-01-18 08:12:30.310607	356.4	43.7	-94.6	0.0
2025-01-18 08:12:31.433373	356.2	44.0	-94.6	0.0
2025-01-18 08:12:32.554004	355.9	44.3	-94.6	0.0
2025-01-18 08:12:33.675252	355.7	44.6	-94.9	0.0
2025-01-18 08:12:34.797579	355.4	44.9	-95.0	0.0
2025-01-18 08:12:35.919718	355.1	45.2	-94.7	0.0
2025-01-18 08:12:37.041835	354.8	45.5	-94.9	0.0
2025-01-18 08:12:38.160797	354.6	45.8	-94.8	0.0
2025-01-18 08:12:39.282199	354.3	46.1	-94.6	0.0
2025-01-18 08:12:40.403903	354.0	46.4	-94.8	0.0
2025-01-18 08:12:41.526881	353.7	46.7	-94.9	0.0
2025-01-18 08:12:42.647253	353.4	47.0	-94.9	0.0
2025-01-18 08:12:43.767569	353.1	47.3	-94.9	0.0
2025-01-18 08:12:44.890207	352.7	47.6	-94.9	0.0
2025-01-18 08:12:46.010941	352.4	48.0	-94.9	0.0
2025-01-18 08:12:47.132027	352.1	48.3	-94.8	0.0
2025-01-18 08:12:48.251208	351.7	48.6	-94.8	0.0
2025-01-18 08:12:49.372141	351.4	48.9	-95.0	0.0
2025-01-18 08:12:50.492669	351.0	49.2	-94.8	0.0
2025-01-18 08:12:51.612320	350.7	49.6	-94.8	0.0
2025-01-18 08:12:52.732970	350.3	49.9	-94.8	0.0
2025-01-18 08:12:53.852664	349.9	50.2	-95.0	0.0
2025-01-18 08:12:54.975552	349.5	50.5	-94.8	0.0
2025-01-18 08:12:56.095976	349.2	50.9	-94.8	0.0
2025-01-18 08:12:57.216775	348.8	51.2	-94.8	0.0
2025-01-18 08:12:58.336963	348.3	51.5	-95.0	0.0
2025-01-18 08:12:59.455541	347.9	51.9	-94.9	0.0
2025-01-18 08:13:00.578076	347.5	52.2	-94.8	0.0
2025-01-18 08:13:01.698068	347.0	52.5	-94.6	0.0
2025-01-18 08:13:02.819463	346.6	52.8	-94.8	0.0
2025-01-18 08:13:03.941066	346.1	53.2	-94.8	0.0
2025-01-18 08:13:05.061404	345.7	53.5	-94.7	0.0
2025-01-18 08:13:06.181811	345.2	53.8	-94.7	0.0
2025-01-18 08:13:07.301562	344.7	54.2	-94.7	0.0
2025-01-18 08:13:08.420559	344.2	54.5	-94.9	0.0
2025-01-18 08:13:09.539415	343.7	54.8	-94.9	0.0
2025-01-18 08:13:10.660568	343.1	55.2	-94.8	0.0
2025-01-18 08:13:11.779280	342.6	55.5	-94.9	0.0
2025-01-18 08:13:12.901105	342.0	55.8	-94.7	0.0
2025-01-18 08:13:14.021502	341.5	56.2	-94.8	0.0
2025-01-18 08:13:15.143479	340.9	56.5	-94.9	0.0
2025-01-18 08:13:16.266424	340.3	56.8	-94.9	0.0
2025-01-18 08:13:17.387686	339.7	57.1	-94.5	0.0
2025-01-18 08:13:18.507552	339.0	57.5	-94.4	0.0
2025-01-18 08:13:19.628635	338.4	57.8	-95.0	0.0
2025-01-18 08:13:20.750638	337.7	58.1	-94.9	0.0
2025-01-18 08:13:21.870789	337.1	58.4	-94.8	0.0
2025-01-18 08:13:22.993397	336.4	58.7	-94.6	0.0
2025-01-18 08:13:24.113166	335.7	59.1	-94.2	0.0
2025-01-18 08:13:25.233289	334.9	59.4	-94.4	0.0
2025-01-18 08:13:26.354624	334.2	59.7	-94.8	0.0
2025-01-18 08:13:27.474893	333.4	60.0	-94.7	0.0
2025-01-18 08:13:28.595974	332.7	60.3	-94.5	0.0
2025-01-18 08:13:29.718927	331.9	60.6	-94.5	0.0
2025-01-18 08:13:30.839104	331.1	60.9	-94.6	0.0
2025-01-18 08:13:31.960089	330.2	61.2	-94.6	0.0
2025-01-18 08:13:33.078168	329.4	61.5	-94.8	0.0
2025-01-18 08:13:34.200224	328.5	61.8	-94.5	0.0
2025-01-18 08:13:35.322033	327.6	62.0	-94.3	0.0
2025-01-18 08:13:36.444649	326.7	62.3	-94.4	0.0
2025-01-18 08:13:37.566161	325.7	62.6	-94.8	0.0
2025-01-18 08:13:38.686885	324.8	62.8	-94.9	0.0
2025-01-18 08:13:39.809651	323.8	63.1	-94.7	0.0
2025-01-18 08:13:40.933085	322.8	63.4	-94.6	0.0
2025-01-18 08:13:42.052661	321.8	63.6	-94.8	0.0
2025-01-18 08:13:43.174120	320.7	63.8	-94.9	0.0
2025-01-18 08:13:44.295039	319.7	64.1	-94.8	0.0
2025-01-18 08:13:45.416569	318.6	64.3	-94.7	0.0
2025-01-18 08:13:46.535606	317.5	64.5	-94.9	0.0
2025-01-18 08:13:47.656846	316.3	64.7	-94.8	0.0
2025-01-18 08:13:48.777139	315.2	64.9	-94.8	0.0
2025-01-18 08:13:49.900106	314.0	65.1	-94.7	0.0
2025-01-18 08:13:51.021650	312.8	65.3	-94.8	0.0
2025-01-18 08:13:52.143198	311.6	65.5	-94.9	0.0
2025-01-18 08:13:53.265021	310.4	65.6	-94.8	0.0
2025-01-18 08:13:54.388350	309.1	65.8	-94.7	0.0
2025-01-18 08:13:55.510953	307.9	65.9	-94.7	0.0
2025-01-18 08:13:56.631160	306.6	66.1	-94.5	0.0
2025-01-18 08:13:57.750620	305.3	66.2	-94.8	0.0
2025-01-18 08:13:58.871481	304.0	66.3	-94.9	0.0
2025-01-18 08:13:59.993458	302.7	66.4	-94.8	0.0
2025-01-18 08:14:01.114479	301.4	66.5	-94.7	0.0
2025-01-18 08:14:02.234197	300.0	66.6	-94.8	0.0
2025-01-18 08:14:03.355551	298.7	66.6	-94.9	0.0
2025-01-18 08:14:04.477020	297.3	66.7	-94.7	0.0
2025-01-18 08:14:05.596563	295.9	66.7	-94.7	0.0
2025-01-18 08:14:06.718920	294.6	66.7	-94.9	0.0
2025-01-18 08:14:07.842523	293.2	66.8	-94.9	0.0
2025-01-18 08:14:08.964044	291.8	66.8	-94.9	0.0
2025-01-18 08:14:10.085694	290.5	66.7	-94.8	0.0
2025-01-18 08:14:11.206593	289.1	66.7	-94.8	0.0
2025-01-18 08:14:12.325647	287.7	66.7	-94.7	0.0
2025-01-18 08:14:13.446904	286.4	66.6	-94.9	0.0
2025-01-18 08:14:14.567705	285.0	66.6	-94.9	0.0
2025-01-18 08:14:15.687408	283.7	66.5	-94.9	0.0
2025-01-18 08:14:16.807768	282.3	66.4	-94.8	0.0
2025-01-18 08:14:17.929260	281.0	66.3	-94.9	0.0
2025-01-18 08:14:19.050941	279.7	66.2	-94.8	0.0
2025-01-18 08:14:20.170482	278.4	66.1	-94.8	0.0
2025-01-18 08:14:21.291049	277.1	66.0	-94.8	0.0
2025-01-18 08:14:22.411734	275.8	65.9	-94.8	0.0
2025-01-18 08:14:23.533386	274.6	65.7	-94.6	0.0
2025-01-18 08:14:24.655649	273.3	65.6	-94.5	0.0
2025-01-18 08:14:25.773544	272.1	65.4	-94.7	0.0
2025-01-18 08:14:26.897723	270.9	65.2	-95.1	0.0
2025-01-18 08:14:28.018009	269.7	65.0	-95.0	0.0
2025-01-18 08:14:29.137091	268.6	64.8	-94.7	0.0
2025-01-18 08:14:30.258428	267.4	64.6	-94.7	0.0
2025-01-18 08:14:31.379420	266.3	64.4	-94.9	0.0
2025-01-18 08:14:32.501782	265.2	64.2	-94.9	0.0
2025-01-18 08:14:33.623975	264.1	64.0	-94.8	0.0
2025-01-18 08:14:34.745359	263.0	63.7	-94.9	0.0
2025-01-18 08:14:35.867183	262.0	63.5	-94.8	0.0
2025-01-18 08:14:36.988543	261.0	63.3	-94.6	0.0
2025-01-18 08:14:38.109086	260.0	63.0	-94.7	0.0
2025-01-18 08:14:39.231356	259.0	62.7	-94.8	0.0
2025-01-18 08:14:40.352969	258.1	62.5	-94.9	0.0
2025-01-18 08:14:41.475380	257.1	62.2	-94.8	0.0
2025-01-18 08:14:42.595541	256.2	61.9	-94.9	0.0
2025-01-18 08:14:43.717677	255.3	61.6	-94.8	0.0
2025-01-18 08:14:44.837481	254.5	61.4	-94.8	0.0
2025-01-18 08:14:45.958278	253.6	61.1	-94.9	0.0
2025-01-18 08:14:47.078594	252.8	60.8	-94.9	0.0
2025-01-18 08:14:48.200667	252.0	60.5	-94.9	0.0
2025-01-18 08:14:49.323767	251.2	60.2	-95.2	0.0
2025-01-18 08:14:50.444746	250.4	59.9	-94.9	0.0
2025-01-18 08:14:51.565810	249.7	59.5	-94.8	0.0
2025-01-18 08:14:52.687823	248.9	59.2	-94.9	0.0
2025-01-18 08:14:53.807849	248.2	58.9	-95.2	0.0
2025-01-18 08:14:54.928781	247.5	58.6	-95.0	0.0
2025-01-18 08:14:56.051519	246.8	58.3	-95.1	0.0
2025-01-18 08:14:57.170750	246.2	58.0	-94.9	0.0
2025-01-18 08:14:58.291429	245.5	57.6	-94.9	0.0
2025-01-18 08:14:59.413486	244.9	57.3	-94.9	0.0
2025-01-18 08:15:00.534751	244.2	57.0	-95.2	0.0
2025-01-18 08:15:01.656693	243.6	56.7	-95.1	0.0
2025-01-18 08:15:02.776262	243.0	56.3	-94.9	0.0
2025-01-18 08:15:03.896592	242.5	56.0	-94.9	0.0
2025-01-18 08:15:05.019599	241.9	55.7	-94.7	0.0
2025-01-18 08:15:06.140799	241.3	55.3	-95.0	0.0
2025-01-18 08:15:07.261632	240.8	55.0	-94.8	0.0
2025-01-18 08:15:08.383816	240.3	54.7	-94.6	0.0
2025-01-18 08:15:09.503880	239.8	54.3	-94.9	0.0
2025-01-18 08:15:10.625970	239.3	54.0	-94.8	0.0
2025-01-18 08:15:11.748232	238.8	53.7	-94.6	0.0
2025-01-18 08:15:12.868477	238.3	53.3	-94.4	0.0
2025-01-18 08:15:13.990636	237.8	53.0	-94.6	0.0
2025-01-18 08:15:15.112062	237.4	52.7	-94.6	0.0
2025-01-18 08:15:16.231456	236.9	52.3	-94.6	0.0
2025-01-18 08:15:17.352230	236.5	52.0	-94.8	0.0
2025-01-18 08:15:18.473028	236.1	51.7	-94.7	0.0
2025-01-18 08:15:19.596271	235.6	51.3	-94.7	0.0
2025-01-18 08:15:20.718682	235.2	51.0	-94.7	0.0
2025-01-18 08:15:21.840952	234.8	50.7	-94.6	0.0
2025-01-18 08:15:22.960059	234.4	50.4	-94.7	0.0
2025-01-18 08:15:24.081147	234.0	50.0	-94.7	0.0
2025-01-18 08:15:25.199786	233.7	49.7	-94.7	0.0
2025-01-18 08:15:26.322504	233.3	49.4	-94.9	0.0
2025-01-18 08:15:27.443668	232.9	49.1	-94.9	0.0
2025-01-18 08:15:28.564638	232.6	48.7	-94.8	0.0
2025-01-18 08:15:29.685650	232.3	48.4	-95.0	0.0
2025-01-18 08:15:30.807503	231.9	48.1	-94.4	0.0
2025-01-18 08:15:31.928231	231.6	47.8	-94.5	0.0
2025-01-18 08:15:33.048493	231.3	47.5	-94.8	0.0
2025-01-18 08:15:34.167089	230.9	47.1	-95.0	0.0
2025-01-18 08:15:35.288220	230.6	46.8	-94.5	0.0
2025-01-18 08:15:36.409622	230.3	46.5	-94.6	0.0
2025-01-18 08:15:37.530003	230.0	46.2	-94.6	0.0
2025-01-18 08:15:38.651398	229.7	45.9	-94.8	0.0
2025-01-18 08:15:39.771657	229.4	45.6	-94.9	0.0
2025-01-18 08:15:40.893721	229.2	45.3	-95.1	0.0
2025-01-18 08:15:42.018270	228.9	45.0	-94.8	0.0
2025-01-18 08:15:43.140893	228.6	44.7	-94.9	0.0
2025-01-18 08:15:44.262589	228.4	44.4	-94.7	0.0
2025-01-18 08:15:45.383466	228.1	44.1	-94.8	0.0
2025-01-18 08:15:46.503447	227.8	43.8	-94.9	0.0
2025-01-18 08:15:47.626064	227.6	43.5	-94.5	0.0
2025-01-18 08:15:48.747564	227.3	43.2	-94.7	0.0
2025-01-18 08:15:49.869502	227.1	42.9	-94.7	0.0
2025-01-18 08:15:50.989534	226.9	42.6	-94.7	0.0
2025-01-18 08:15:52.107675	226.6	42.3	-94.5	0.0
2025-01-18 08:15:53.228668	226.4	42.0	-94.8	0.0
2025-01-18 08:15:54.352231	226.2	41.7	-94.8	0.0
2025-01-18 08:15:55.472405	226.0	41.4	-94.8	0.0
2025-01-18 08:15:56.594331	225.7	41.1	-94.4	0.0
2025-01-18 08:15:57.718213	225.5	40.9	-94.5	0.0
2025-01-18 08:15:58.841910	225.3	40.6	-94.9	0.0
2025-01-18 08:15:59.964008	225.1	40.3	-94.8	0.0
2025-01-18 08:16:01.083791	224.9	40.0	-94.6	0.0
2025-01-18 08:16:02.204524	224.7	39.8	-94.8	0.0
2025-01-18 08:16:03.324188	224.5	39.5	-94.7	0.0
2025-01-18 08:16:04.445513	224.3	39.2	-94.8	0.0
2025-01-18 08:16:05.568255	224.1	38.9	-94.8	0.0
2025-01-18 08:16:06.690943	224.0	38.7	-94.7	0.0
2025-01-18 08:16:07.812343	223.8	38.4	-94.6	0.0
2025-01-18 08:16:08.934791	223.6	38.1	-94.7	0.0
2025-01-18 08:16:10.055115	223.4	37.9	-94.8	0.0
2025-01-18 08:16:11.175417	223.2	37.6	-94.7	0.0
2025-01-18 08:16:12.294753	223.1	37.4	-94.9	0.0
2025-01-18 08:16:13.415720	222.9	37.1	-94.8	0.0
2025-01-18 08:16:14.536380	222.7	36.8	-94.7	0.0
2025-01-18 08:16:15.657693	222.6	36.6	-94.7	0.0
2025-01-18 08:16:16.778685	222.4	36.3	-95.0	0.0
2025-01-18 08:16:17.901561	222.3	36.1	-94.8	0.0
2025-01-18 08:16:19.023206	222.1	35.8	-94.7	0.0
2025-01-18 08:16:20.144645	221.9	35.6	-94.8	0.0
2025-01-18 08:16:21.265098	221.8	35.3	-94.6	0.0
2025-01-18 08:16:22.386338	221.6	35.1	-94.7	0.0
2025-01-18 08:16:23.507699	221.5	34.9	-94.7	0.0
2025-01-18 08:16:24.629648	221.4	34.6	-94.8	0.0
2025-01-18 08:16:25.750845	221.2	34.4	-94.5	0.0
2025-01-18 08:16:26.870878	221.1	34.1	-94.7	0.0
2025-01-18 08:16:27.992543	220.9	33.9	-94.8	0.0
2025-01-18 08:16:29.114391	220.8	33.7	-94.8	0.0
2025-01-18 08:16:30.237045	220.7	33.4	-94.6	0.0
2025-01-18 08:16:31.359353	220.5	33.2	-95.1	0.0
2025-01-18 08:16:32.480446	220.4	33.0	-95.1	0.0
2025-01-18 08:16:33.602510	220.3	32.7	-94.7	0.0
2025-01-18 08:16:34.724274	220.2	32.5	-94.9	0.0
2025-01-18 08:16:35.843382	220.0	32.3	-94.8	0.0
2025-01-18 08:16:36.966728	219.9	32.1	-94.6	0.0
2025-01-18 08:16:38.088230	219.8	31.9	-94.8	0.0
2025-01-18 08:16:39.208959	219.7	31.6	-94.9	0.0
2025-01-18 08:16:40.328003	219.5	31.4	-94.9	0.0
2025-01-18 08:16:41.450664	219.4	31.2	-94.8	0.0
2025-01-18 08:16:42.572648	219.3	31.0	-94.7	0.0
2025-01-18 08:16:43.695370	219.2	30.8	-94.7	0.0
2025-01-18 08:16:44.815927	219.1	30.6	-94.5	0.0
2025-01-18 08:16:45.935870	219.0	30.3	-94.9	0.0
2025-01-18 08:16:47.057781	218.9	30.1	-94.7	0.0
2025-01-18 08:16:48.180318	218.8	29.9	-94.8	0.0
2025-01-18 08:16:49.302329	218.7	29.7	-94.7	0.0
2025-01-18 08:16:50.424814	218.6	29.5	-94.7	0.0
2025-01-18 08:16:51.545637	218.5	29.3	-94.7	0.0
2025-01-18 08:16:52.667930	218.4	29.1	-94.5	0.0
2025-01-18 08:16:53.788193	218.3	28.9	-94.7	0.0
2025-01-18 08:16:54.908728	218.2	28.7	-94.8	0.0
2025-01-18 08:16:56.031879	218.1	28.5	-94.8	0.0
2025-01-18 08:16:57.153095	218.0	28.3	-94.8	0.0
2025-01-18 08:16:58.273758	217.9	28.1	-94.8	0.0
2025-01-18 08:16:59.394952	217.8	27.9	-94.9	0.0
2025-01-18 08:17:00.516656	217.7	27.7	-94.7	0.0
2025-01-18 08:17:01.635944	217.6	27.5	-94.9	0.0
2025-01-18 08:17:02.758343	217.5	27.3	-94.9	0.0
2025-01-18 08:17:03.879194	217.4	27.1	-95.0	0.0
2025-01-18 08:17:05.001758	217.3	27.0	-94.8	0.0
2025-01-18 08:17:06.123170	217.2	26.8	-95.0	0.0
2025-01-18 08:17:07.245572	217.1	26.6	-94.9	0.0
2025-01-18 08:17:08.368371	217.1	26.4	-94.8	0.0
2025-01-18 08:17:09.490380	217.0	26.2	-94.6	0.0
2025-01-18 08:17:10.612321	216.9	26.0	-94.6	0.0
2025-01-18 08:17:11.732620	216.8	25.8	-95.0	0.0
2025-01-18 08:17:12.853946	216.7	25.7	-94.7	0.0
2025-01-18 08:17:13.976649	216.7	25.5	-94.8	0.0
2025-01-18 08:17:15.097107	216.6	25.3	-94.7	0.0
2025-01-18 08:17:16.216242	216.5	25.1	-94.8	0.0
2025-01-18 08:17:17.337008	216.4	25.0	-94.7	0.0
2025-01-18 08:17:18.459539	216.3	24.8	-94.9	0.0
2025-01-18 08:17:19.581701	216.3	24.6	-95.0	0.0
2025-01-18 08:17:20.701254	216.2	24.4	-94.6	0.0
2025-01-18 08:17:21.822172	216.1	24.3	-94.9	0.0
2025-01-18 08:17:22.944786	216.0	24.1	-94.8	0.0
2025-01-18 08:17:24.064729	216.0	23.9	-94.7	0.0
2025-01-18 08:17:25.184931	215.9	23.8	-95.0	0.0
2025-01-18 08:17:26.306249	215.8	23.6	-94.7	0.0
2025-01-18 08:17:27.427206	215.8	23.4	-94.9	0.0
2025-01-18 08:17:28.548265	215.7	23.3	-94.6	0.0
2025-01-18 08:17:29.667658	215.6	23.1	-94.8	0.0
2025-01-18 08:17:30.788615	215.6	22.9	-95.0	0.0
2025-01-18 08:17:31.910072	215.5	22.8	-94.8	0.0
2025-01-18 08:17:33.031995	215.4	22.6	-94.7	0.0
2025-01-18 08:17:34.153261	215.4	22.4	-94.7	0.0
2025-01-18 08:17:35.273615	215.3	22.3	-94.8	0.0
2025-01-18 08:17:36.395731	215.2	22.1	-94.8	0.0
2025-01-18 08:17:37.516675	215.2	22.0	-94.7	0.0
2025-01-18 08:17:38.637588	215.1	21.8	-94.8	0.0
2025-01-18 08:17:39.757680	215.0	21.7	-94.9	0.0
2025-01-18 08:17:40.879808	215.0	21.5	-94.8	0.0
2025-01-18 08:17:42.000596	214.9	21.4	-94.7	0.0
2025-01-18 08:17:43.121247	214.9	21.2	-94.7	0.0
2025-01-18 08:17:44.242620	214.8	21.0	-94.9	0.0
2025-01-18 08:17:45.363455	214.7	20.9	-94.9	0.0
2025-01-18 08:17:46.484479	214.7	20.7	-94.9	0.0
2025-01-18 08:17:47.604360	214.6	20.6	-94.8	0.0
2025-01-18 08:17:48.727326	214.6	20.4	-94.8	0.0
2025-01-18 08:17:49.848724	214.5	20.3	-94.9	0.0
2025-01-18 08:17:50.967828	214.5	20.2	-94.8	0.0
2025-01-18 08:17:52.090561	214.4	20.0	-94.9	0.0
2025-01-18 08:17:53.211320	214.3	19.9	-94.9	0.0
2025-01-18 08:17:54.330710	214.3	19.7	-95.0	0.0
2025-01-18 08:17:55.452373	214.2	19.6	-94.9	0.0
2025-01-18 08:17:56.572149	214.2	19.4	-94.9	0.0
2025-01-18 08:17:57.693671	214.1	19.3	-94.9	0.0
2025-01-18 08:17:58.815164	214.1	19.1	-95.0	0.0
2025-01-18 08:17:59.936848	214.0	19.0	-94.8	0.0
2025-01-18 08:18:01.056494	214.0	18.9	-94.9	0.0
2025-01-18 08:18:02.179460	213.9	18.7	-94.9	0.0
2025-01-18 08:18:03.299605	213.9	18.6	-94.9	0.0
2025-01-18 08:18:04.421754	213.8	18.5	-94.8	0.0
2025-01-18 08:18:05.541057	213.8	18.3	-94.8	0.0
2025-01-18 08:18:06.662567	213.7	18.2	-95.0	0.0
2025-01-18 08:18:07.784407	213.7	18.0	-95.0	0.0
2025-01-18 08:18:08.904524	213.6	17.9	-94.7	0.0
2025-01-18 08:18:10.024566	213.6	17.8	-95.0	0.0
2025-01-18 08:18:11.144917	213.5	17.6	-95.0	0.0
2025-01-18 08:18:12.264502	213.5	17.5	-94.9	0.0
2025-01-18 08:18:13.385868	213.4	17.4	-94.6	0.0
2025-01-18 08:18:14.508784	213.4	17.3	-94.9	0.0
2025-01-18 08:18:15.630674	213.3	17.1	-95.1	0.0
2025-01-18 08:18:16.753356	213.3	17.0	-95.0	0.0
2025-01-18 08:18:17.873552	213.3	16.9	-94.6	0.0
2025-01-18 08:18:18.994508	213.2	16.7	-94.9	0.0
2025-01-18 08:18:20.116721	213.2	16.6	-94.9	0.0
2025-01-18 08:18:21.238637	213.1	16.5	-95.1	0.0
2025-01-18 08:18:22.359941	213.1	16.4	-95.0	0.0
2025-01-18 08:18:23.484399	213.0	16.2	-95.0	0.0
2025-01-18 08:18:24.608633	213.0	16.1	-94.8	0.0
2025-01-18 08:18:25.728820	213.0	16.0	-94.8	0.0
2025-01-18 08:18:26.851947	212.9	15.9	-94.6	0.0
2025-01-18 08:18:27.972451	212.9	15.7	-94.7	0.0
2025-01-18 08:18:29.093964	212.8	15.6	-94.7	0.0
2025-01-18 08:18:30.215040	212.8	15.5	-94.7	0.0
2025-01-18 08:18:31.337268	212.8	15.4	-94.9	0.0
2025-01-18 08:18:32.460655	212.7	15.2	-95.0	0.0
2025-01-18 08:18:33.581635	212.7	15.1	-95.0	0.0
2025-01-18 08:18:34.702093	212.6	15.0	-95.0	0.0
2025-01-18 08:18:35.822492	212.6	14.9	-94.7	0.0
2025-01-18 08:18:36.942871	212.6	14.8	-95.0	0.0
2025-01-18 08:18:38.062010	212.5	14.7	-95.0	0.0
2025-01-18 08:18:39.184329	212.5	14.5	-95.2	0.0
2025-01-18 08:18:40.304926	212.4	14.4	-95.0	0.0
2025-01-18 08:18:41.425950	212.4	14.3	-95.0	0.0
2025-01-18 08:18:42.545677	212.4	14.2	-95.0	0.0
2025-01-18 08:18:43.665852	212.3	14.1	-95.1	0.0
2025-01-18 08:18:44.789605	212.3	14.0	-95.0	0.0
2025-01-18 08:18:45.911651	212.3	13.8	-95.0	0.0
2025-01-18 08:18:47.033184	212.2	13.7	-94.9	0.0
2025-01-18 08:18:48.154557	212.2	13.6	-95.0	0.0
2025-01-18 08:18:49.275955	212.2	13.5	-95.0	0.0
2025-01-18 08:18:50.394821	212.1	13.4	-95.1	0.0
2025-01-18 08:18:51.516224	212.1	13.3	-95.1	0.0
2025-01-18 08:18:52.637328	212.1	13.2	-95.1	0.0
2025-01-18 08:18:53.757805	212.0	13.1	-94.8	0.0
2025-01-18 08:18:54.879660	212.0	12.9	-94.8	0.0
2025-01-18 08:18:56.001672	212.0	12.8	-94.8	0.0
2025-01-18 08:18:57.120742	211.9	12.7	-95.2	0.0
2025-01-18 08:18:58.241031	211.9	12.6	-94.9	0.0
2025-01-18 08:18:59.361981	211.9	12.5	-94.8	0.0
2025-01-18 08:19:00.484805	211.8	12.4	-94.7	0.0
2025-01-18 08:19:01.605718	211.8	12.3	-94.6	0.0
2025-01-18 08:19:02.725423	211.8	12.2	-94.9	0.0
2025-01-18 08:19:03.846664	211.7	12.1	-94.8	0.0
2025-01-18 08:19:04.968679	211.7	12.0	-94.8	0.0
2025-01-18 08:19:06.088908	211.7	11.9	-94.9	0.0
2025-01-18 08:19:07.209839	211.6	11.8	-94.7	0.0
2025-01-18 08:19:08.330648	211.6	11.7	-94.8	0.0
2025-01-18 08:19:09.452661	211.6	11.6	-94.6	0.0
2025-01-18 08:19:10.572901	211.5	11.5	-94.8	0.0
2025-01-18 08:19:11.696073	211.5	11.4	-95.0	0.0
2025-01-18 08:19:12.817557	211.5	11.2	-94.6	0.0
2025-01-18 08:19:13.938272	211.5	11.1	-94.7	0.0
2025-01-18 08:19:15.060546	211.4	11.0	-94.5	0.0
2025-01-18 08:19:16.181668	211.4	10.9	-94.9	0.0
2025-01-18 08:19:17.303678	211.4	10.8	-94.9	0.0
2025-01-18 08:19:18.424883	211.3	10.7	-94.6	0.0
2025-01-18 08:19:19.545096	211.3	10.6	-94.6	0.0
2025-01-18 08:19:20.667015	211.3	10.5	-94.9	0.0
2025-01-18 08:19:21.787885	211.3	10.4	-94.8	0.0
2025-01-18 08:19:22.908907	211.2	10.3	-94.8	0.0
2025-01-18 08:19:24.031193	211.2	10.2	-94.8	0.0
2025-01-18 08:19:25.152716	211.2	10.1	-95.1	0.0
2025-01-18 08:19:26.271782	211.1	10.0	-95.0	0.0
#Closed at: 2025-01-18 08:08:43.430177