passes_logs/2026/01/07/R4.6S_Anadyr_2ch/R4.6S_Anadyr_2ch__20260107_155519_NOAA_20_JPSS-1_rec.log

#Pass ID: 20260107_155519_NOAA 20 (JPSS-1)
#Satellite: NOAA 20 (JPSS-1)
#Configuration: NOAA 20
#almurnet v.1.7.20251203
#Start time: 2026-01-07 15:55:20

#Version: 2.2.20231116
#Station: R4.6S_Anadyr_2ch
#Location: 177.4865 lon 64.73178 lat
#TLE: 1 43013U 17073A   25350.93759711  .00000080  00000+0  58734-4 0  9994
#TLE: 2 43013  98.7603 287.1885 0002156  81.1496 278.9924 14.19526878418610

#Time	Az	El	Level	Level2	SNR	BER	BlckErr	Temp	State	Recorded	gain1	gain2
2026-01-07 15:55:20.03	23.93	0.05	-51.9	-67.0	3.5	1.51e+00	0	32	0	0	60	109096
2026-01-07 15:55:21.03	23.90	0.11	-51.9	-67.3	3.6	1.51e+00	0	33	104	0	60	112717
2026-01-07 15:55:22.04	23.87	0.17	-51.9	-67.3	3.6	1.51e+00	0	34	104	0	60	113157
2026-01-07 15:55:23.05	23.85	0.23	-51.9	-67.2	3.6	1.51e+00	0	33	104	0	60	112295
2026-01-07 15:55:24.07	23.82	0.29	-51.8	-67.3	3.6	1.51e+00	0	34	104	0	60	113190
2026-01-07 15:55:25.08	23.79	0.35	-52.0	-67.3	3.6	1.51e+00	0	34	104	0	60	113362
2026-01-07 15:55:26.09	23.76	0.41	-52.0	-67.4	3.6	1.51e+00	0	34	104	0	60	113672
2026-01-07 15:55:27.10	23.73	0.47	-52.0	-67.3	3.6	1.51e+00	0	34	104	0	60	113159
2026-01-07 15:55:28.11	23.70	0.53	-51.9	-67.2	3.6	1.51e+00	0	34	104	0	60	112340
2026-01-07 15:55:29.12	23.67	0.59	-51.8	-67.2	3.6	1.51e+00	0	34	104	0	60	111165
2026-01-07 15:55:30.13	23.65	0.65	-51.8	-67.1	3.6	1.51e+00	0	34	104	0	60	110606
2026-01-07 15:55:31.14	23.62	0.71	-51.6	-67.0	3.6	1.51e+00	0	34	104	0	60	109128
2026-01-07 15:55:32.16	23.59	0.77	-51.5	-66.8	3.6	1.51e+00	0	34	104	0	60	106567
2026-01-07 15:55:33.17	23.56	0.83	-51.3	-66.7	3.6	1.51e+00	0	34	104	0	60	105291
2026-01-07 15:55:34.18	23.53	0.89	-51.1	-66.5	3.6	1.51e+00	0	34	104	0	60	102693
2026-01-07 15:55:35.19	23.50	0.95	-50.8	-66.1	3.6	1.51e+00	0	34	104	0	60	98510
2026-01-07 15:55:36.20	23.47	1.01	-50.5	-65.8	3.6	1.51e+00	0	34	104	0	60	94937
2026-01-07 15:55:37.21	23.44	1.07	-50.5	-65.8	3.6	1.51e+00	0	34	104	0	60	95249
2026-01-07 15:55:38.22	23.41	1.13	-50.5	-65.9	3.6	1.51e+00	0	34	104	0	60	95666
2026-01-07 15:55:39.23	23.38	1.19	-50.5	-65.8	3.6	1.51e+00	0	34	104	0	60	95326
2026-01-07 15:55:40.24	23.35	1.25	-50.5	-65.8	3.6	1.51e+00	0	34	104	0	60	95340
2026-01-07 15:55:41.25	23.32	1.31	-50.5	-65.8	3.6	1.51e+00	0	34	104	0	60	95029
2026-01-07 15:55:42.27	23.29	1.37	-50.5	-65.8	3.6	1.51e+00	0	34	104	0	60	94969
2026-01-07 15:55:43.28	23.26	1.44	-50.5	-65.8	3.6	1.51e+00	0	34	104	0	60	95014
2026-01-07 15:55:44.29	23.23	1.50	-50.5	-65.8	3.6	1.51e+00	0	34	104	0	60	95073
2026-01-07 15:55:45.30	23.19	1.56	-50.5	-65.8	3.6	1.51e+00	0	34	104	0	60	95255
2026-01-07 15:55:46.31	23.16	1.62	-50.5	-65.9	3.6	1.51e+00	0	34	104	0	60	95742
2026-01-07 15:55:47.32	23.13	1.68	-50.5	-65.8	3.6	1.51e+00	0	34	104	0	60	95296
2026-01-07 15:55:48.33	23.10	1.75	-50.5	-65.8	3.6	1.51e+00	0	34	104	0	60	94822
2026-01-07 15:55:49.34	23.07	1.81	-50.5	-65.6	3.6	1.51e+00	0	34	104	0	60	93183
2026-01-07 15:55:50.35	23.04	1.87	-50.5	-65.5	3.6	1.51e+00	0	34	104	0	60	91838
2026-01-07 15:55:51.37	23.00	1.93	-50.5	-65.4	3.6	1.51e+00	0	34	104	0	60	90607
2026-01-07 15:55:52.38	22.97	2.00	-50.5	-65.5	3.6	1.51e+00	0	34	104	0	60	91938
2026-01-07 15:55:53.39	22.94	2.06	-50.5	-65.5	3.6	1.51e+00	0	34	104	0	60	91611
2026-01-07 15:55:54.40	22.91	2.12	-50.5	-65.6	3.6	1.51e+00	0	34	104	0	60	92951
2026-01-07 15:55:55.41	22.87	2.18	-50.5	-65.8	3.6	1.51e+00	0	34	104	0	60	94732
2026-01-07 15:55:56.42	22.84	2.25	-50.5	-65.8	3.6	1.51e+00	0	34	104	0	60	95226
2026-01-07 15:55:57.43	22.81	2.31	-50.5	-65.8	3.6	1.51e+00	0	34	104	0	60	95404
2026-01-07 15:55:58.44	22.78	2.37	-50.5	-65.8	3.6	1.51e+00	0	34	104	0	60	95187
2026-01-07 15:55:59.45	22.74	2.44	-50.5	-65.7	3.6	1.51e+00	0	34	104	0	60	94265
2026-01-07 15:56:00.46	22.71	2.50	-50.5	-65.7	3.6	1.51e+00	0	34	104	0	60	93552
2026-01-07 15:56:01.47	22.68	2.56	-50.5	-65.5	3.6	1.51e+00	0	34	104	0	60	91995
2026-01-07 15:56:02.48	22.64	2.63	-50.5	-65.3	3.6	1.51e+00	0	34	104	0	60	89518
2026-01-07 15:56:03.49	22.61	2.69	-50.5	-65.0	3.6	1.51e+00	0	34	104	0	60	86959
2026-01-07 15:56:04.50	22.57	2.76	-50.4	-64.8	3.6	1.51e+00	0	34	104	0	60	84489
2026-01-07 15:56:05.52	22.54	2.82	-50.4	-64.7	3.6	1.51e+00	0	34	104	0	60	83714
2026-01-07 15:56:06.53	22.50	2.89	-50.4	-64.7	3.6	1.51e+00	0	34	104	0	60	83666
2026-01-07 15:56:07.54	22.47	2.95	-50.4	-64.9	3.6	1.51e+00	0	34	104	0	60	85963
2026-01-07 15:56:08.55	22.44	3.02	-50.5	-65.5	3.6	1.51e+00	0	34	104	0	60	91473
2026-01-07 15:56:09.56	22.40	3.08	-50.5	-65.8	3.6	1.51e+00	0	34	104	0	60	95440
2026-01-07 15:56:10.57	22.37	3.15	-50.5	-65.1	3.6	1.51e+00	0	34	104	0	60	88120
2026-01-07 15:56:11.58	22.33	3.21	-50.4	-63.2	3.8	1.51e+00	0	34	104	0	60	70558
2026-01-07 15:56:12.59	22.29	3.28	-50.2	-59.7	4.7	1.05e+00	7	34	0	0	60	46847
2026-01-07 15:56:13.60	22.26	3.34	-49.9	-57.5	6.4	4.05e-01	67	34	102	1048576	60	36388
2026-01-07 15:56:14.62	22.22	3.41	-49.6	-56.1	7.9	1.43e-01	0	34	102	1048576	60	31286
2026-01-07 15:56:15.63	22.19	3.47	-49.4	-55.3	9.0	3.35e-02	6	34	102	1048576	60	28471
2026-01-07 15:56:16.64	22.15	3.54	-49.1	-54.6	9.8	1.27e-02	90	34	102	1048576	60	26088
2026-01-07 15:56:17.64	22.11	3.60	-49.0	-54.2	10.1	7.69e-03	8	35	102	1048576	60	25086
2026-01-07 15:56:18.66	22.08	3.67	-50.5	-64.6	3.6	8.23e-01	0	34	104	1048576	60	82650
2026-01-07 15:56:19.67	22.04	3.74	-50.6	-65.2	3.6	1.51e+00	0	34	104	1048576	60	88630
2026-01-07 15:56:20.68	22.00	3.80	-49.3	-55.5	6.2	1.45e+00	0	34	104	1048576	60	29083
2026-01-07 15:56:21.69	21.97	3.87	-46.5	-48.7	17.8	3.41e-01	0	34	0	1048576	60	13254
2026-01-07 15:56:22.70	21.93	3.94	-50.4	-65.2	3.6	2.68e-02	0	34	104	1048576	60	88521
2026-01-07 15:56:23.71	21.89	4.00	-47.0	-50.0	6.0	1.51e+00	92	34	104	1048576	60	15342
2026-01-07 15:56:24.72	21.85	4.07	-43.5	-44.8	20.1	0.00e+00	26	34	0	1048576	60	8522
2026-01-07 15:56:25.73	21.82	4.14	-43.4	-44.8	20.3	0.00e+00	92	34	0	1048576	60	8453
2026-01-07 15:56:26.74	21.78	4.21	-43.6	-45.0	20.1	0.00e+00	57	34	0	1048576	60	8636
2026-01-07 15:56:27.75	21.74	4.27	-43.5	-44.9	20.1	0.00e+00	56	34	0	1048576	60	8568
2026-01-07 15:56:28.76	21.70	4.34	-43.1	-44.4	20.6	0.00e+00	21	34	0	1048576	60	8109
2026-01-07 15:56:29.77	21.66	4.41	-43.1	-44.4	20.6	0.00e+00	55	34	0	1048576	60	8108
2026-01-07 15:56:30.78	21.62	4.48	-42.9	-44.2	20.8	0.00e+00	0	34	0	1048576	60	7920
2026-01-07 15:56:31.79	21.59	4.54	-42.8	-44.1	21.0	0.00e+00	56	34	0	1048576	60	7805
2026-01-07 15:56:32.81	21.55	4.61	-42.9	-44.1	21.0	0.00e+00	90	34	0	1048576	60	7814
2026-01-07 15:56:33.82	21.51	4.68	-42.9	-44.2	20.8	0.00e+00	56	34	0	1048576	60	7888
2026-01-07 15:56:34.83	21.47	4.75	-42.8	-44.0	21.0	0.00e+00	92	34	0	1048576	60	7750
2026-01-07 15:56:35.84	21.43	4.82	-42.8	-44.0	21.0	0.00e+00	2	34	0	1048576	60	7767
2026-01-07 15:56:36.85	21.39	4.89	-42.7	-44.0	21.1	0.00e+00	0	34	0	1048576	60	7695
2026-01-07 15:56:37.86	21.35	4.96	-42.9	-44.1	21.0	0.00e+00	0	34	0	1048576	60	7859
2026-01-07 15:56:38.87	21.31	5.03	-43.0	-44.3	20.9	0.00e+00	2	34	0	1048576	60	7971
2026-01-07 15:56:39.88	21.27	5.10	-43.1	-44.3	20.8	0.00e+00	81	34	0	1048576	60	8034
2026-01-07 15:56:40.89	21.23	5.17	-42.8	-44.0	21.1	0.00e+00	21	34	0	1048576	60	7769
2026-01-07 15:56:41.90	21.18	5.23	-42.9	-44.2	21.1	0.00e+00	92	35	0	1048576	60	7905
2026-01-07 15:56:42.92	21.14	5.31	-42.7	-43.9	21.3	0.00e+00	4	34	101	1048576	60	7619
2026-01-07 15:56:43.93	21.10	5.38	-42.8	-44.0	21.1	0.00e+00	22	34	101	1048576	60	7762
2026-01-07 15:56:44.94	21.06	5.45	-42.8	-44.0	21.2	0.00e+00	21	34	101	1048576	60	7695
2026-01-07 15:56:45.95	21.02	5.52	-42.9	-44.1	21.1	0.00e+00	58	34	101	1048576	60	7805
2026-01-07 15:56:46.96	20.97	5.59	-42.6	-43.8	21.3	0.00e+00	92	34	101	1048576	60	7567
2026-01-07 15:56:47.97	20.93	5.66	-42.6	-43.8	21.4	0.00e+00	54	34	101	1048576	60	7551
2026-01-07 15:56:48.98	20.89	5.73	-42.7	-43.9	21.2	0.00e+00	92	34	101	1048576	60	7620
2026-01-07 15:56:49.99	20.85	5.80	-42.7	-43.9	21.3	0.00e+00	2	34	101	1048576	60	7666
2026-01-07 15:56:51.00	20.80	5.87	-42.7	-43.9	21.3	0.00e+00	49	34	101	1048576	60	7633
2026-01-07 15:56:52.02	20.76	5.94	-42.6	-43.8	21.4	0.00e+00	0	34	101	1048576	60	7575
2026-01-07 15:56:53.03	20.72	6.02	-42.6	-43.8	21.4	0.00e+00	56	34	101	1048576	60	7543
2026-01-07 15:56:54.04	20.67	6.09	-42.7	-43.9	21.3	0.00e+00	0	35	101	1048576	60	7651
2026-01-07 15:56:55.04	20.63	6.16	-42.7	-43.9	21.4	0.00e+00	2	35	101	1048576	60	7681
2026-01-07 15:56:56.06	20.58	6.23	-42.8	-44.0	21.3	0.00e+00	92	34	101	1048576	60	7690
2026-01-07 15:56:57.07	20.54	6.30	-42.7	-43.9	21.3	0.00e+00	0	35	101	1048576	60	7632
2026-01-07 15:56:58.08	20.49	6.38	-42.8	-44.0	21.2	0.00e+00	92	35	101	1048576	60	7723
2026-01-07 15:56:59.09	20.45	6.45	-42.7	-43.9	21.5	0.00e+00	0	35	101	1048576	60	7631
2026-01-07 15:57:00.10	20.40	6.52	-42.6	-43.7	21.6	0.00e+00	28	35	101	1048576	60	7480
2026-01-07 15:57:01.11	20.36	6.59	-42.6	-43.8	21.6	0.00e+00	0	35	101	1048576	60	7539
2026-01-07 15:57:02.12	20.31	6.67	-42.7	-43.9	21.6	0.00e+00	0	35	101	1048576	60	7597
2026-01-07 15:57:03.13	20.27	6.74	-42.6	-43.8	21.5	0.00e+00	92	35	101	1048576	60	7519
2026-01-07 15:57:04.14	20.22	6.82	-42.5	-43.7	21.6	0.00e+00	29	35	101	1048576	60	7469
2026-01-07 15:57:05.15	20.17	6.89	-42.7	-43.9	21.5	0.00e+00	91	34	101	1048576	60	7606
2026-01-07 15:57:06.17	20.13	6.96	-42.6	-43.7	21.6	0.00e+00	0	34	101	1048576	60	7485
2026-01-07 15:57:07.18	20.08	7.04	-42.6	-43.7	21.6	0.00e+00	2	35	101	1048576	60	7507
2026-01-07 15:57:08.19	20.03	7.11	-42.7	-43.9	21.5	0.00e+00	58	35	101	1048576	60	7637
2026-01-07 15:57:09.20	19.99	7.19	-42.7	-43.8	21.5	0.00e+00	60	34	101	1048576	60	7576
2026-01-07 15:57:10.21	19.94	7.26	-42.7	-43.8	21.5	0.00e+00	18	35	101	1048576	60	7595
2026-01-07 15:57:11.22	19.89	7.34	-42.7	-43.8	21.5	0.00e+00	60	35	101	1048576	60	7584
2026-01-07 15:57:12.23	19.84	7.41	-42.5	-43.7	21.7	0.00e+00	92	35	101	1048576	60	7457
2026-01-07 15:57:13.24	19.79	7.49	-42.5	-43.7	21.7	0.00e+00	0	34	101	1048576	60	7448
2026-01-07 15:57:14.26	19.74	7.56	-42.6	-43.7	21.7	0.00e+00	0	35	101	1048576	60	7471
2026-01-07 15:57:15.27	19.69	7.64	-42.5	-43.7	21.7	0.00e+00	0	35	101	1048576	60	7456
2026-01-07 15:57:16.28	19.64	7.72	-42.5	-43.7	21.8	0.00e+00	0	35	101	1048576	60	7457
2026-01-07 15:57:17.29	19.59	7.79	-42.6	-43.7	21.7	0.00e+00	0	35	101	1048576	60	7484
2026-01-07 15:57:18.30	19.54	7.87	-42.5	-43.6	21.8	0.00e+00	0	35	101	1048576	60	7409
2026-01-07 15:57:19.31	19.49	7.95	-42.6	-43.8	21.6	0.00e+00	92	35	101	1048576	60	7535
2026-01-07 15:57:20.32	19.44	8.02	-42.4	-43.5	21.8	0.00e+00	0	35	101	1048576	60	7323
2026-01-07 15:57:21.33	19.39	8.10	-42.5	-43.7	21.8	0.00e+00	92	34	101	1048576	60	7427
2026-01-07 15:57:22.34	19.34	8.18	-42.5	-43.7	21.7	0.00e+00	0	35	101	1048576	60	7441
2026-01-07 15:57:23.35	19.29	8.26	-42.5	-43.7	21.8	0.00e+00	0	35	101	1048576	60	7442
2026-01-07 15:57:24.36	19.24	8.33	-42.5	-43.6	21.8	0.00e+00	0	35	101	1048576	60	7411
2026-01-07 15:57:25.37	19.19	8.41	-42.3	-43.4	22.0	0.00e+00	27	35	101	1048576	60	7253
2026-01-07 15:57:26.39	19.13	8.49	-42.3	-43.4	22.0	0.00e+00	90	35	101	1048576	60	7193
2026-01-07 15:57:27.39	19.08	8.57	-42.4	-43.5	22.1	0.00e+00	5	35	101	1048576	60	7259
2026-01-07 15:57:28.41	19.03	8.65	-42.3	-43.4	22.0	0.00e+00	92	35	101	1048576	60	7228
2026-01-07 15:57:29.42	18.97	8.73	-42.4	-43.5	21.9	0.00e+00	56	35	101	1048576	60	7290
2026-01-07 15:57:30.43	18.92	8.80	-42.3	-43.4	22.1	0.00e+00	6	35	101	1048576	60	7173
2026-01-07 15:57:31.44	18.87	8.88	-42.2	-43.3	22.1	0.00e+00	0	35	101	1048576	60	7150
2026-01-07 15:57:32.45	18.81	8.96	-42.5	-43.6	22.0	0.00e+00	0	35	101	1048576	60	7374
2026-01-07 15:57:33.46	18.76	9.04	-42.2	-43.2	22.2	0.00e+00	92	35	101	1048576	60	7077
2026-01-07 15:57:34.47	18.70	9.12	-42.1	-43.2	22.3	0.00e+00	8	35	101	1048576	60	7066
2026-01-07 15:57:35.48	18.65	9.20	-42.0	-43.1	22.4	0.00e+00	92	35	101	1048576	60	6953
2026-01-07 15:57:36.49	18.59	9.28	-42.0	-43.1	22.3	0.00e+00	0	35	101	1048576	60	6961
2026-01-07 15:57:37.50	18.54	9.36	-42.1	-43.1	22.4	0.00e+00	32	35	101	1048576	60	6993
2026-01-07 15:57:38.52	18.48	9.45	-42.3	-43.4	22.3	0.00e+00	0	35	101	1048576	60	7171
2026-01-07 15:57:39.53	18.42	9.53	-42.0	-43.1	22.4	0.00e+00	22	34	101	1048576	60	6938
2026-01-07 15:57:40.54	18.37	9.61	-42.0	-43.0	22.5	0.00e+00	0	35	101	1048576	60	6880
2026-01-07 15:57:41.55	18.31	9.69	-42.0	-43.0	22.5	0.00e+00	27	35	101	1048576	60	6884
2026-01-07 15:57:42.56	18.25	9.77	-41.9	-42.9	22.5	0.00e+00	92	35	101	1048576	60	6838
2026-01-07 15:57:43.57	18.19	9.85	-42.0	-43.1	22.5	0.00e+00	28	35	101	1048576	60	6931
2026-01-07 15:57:44.58	18.14	9.94	-42.0	-43.0	22.5	0.00e+00	91	35	101	1048576	60	6889
2026-01-07 15:57:45.59	18.08	10.02	-42.0	-43.0	22.5	0.00e+00	5	35	101	1048576	60	6923
2026-01-07 15:57:46.60	18.02	10.10	-41.9	-42.9	22.6	0.00e+00	6	35	101	1048576	60	6814
2026-01-07 15:57:47.61	17.96	10.19	-41.9	-42.9	22.6	0.00e+00	0	35	101	1048576	60	6841
2026-01-07 15:57:48.62	17.90	10.27	-42.0	-43.0	22.5	0.00e+00	7	35	101	1048576	60	6915
2026-01-07 15:57:49.63	17.84	10.35	-41.8	-42.9	22.7	0.00e+00	92	35	101	1048576	60	6776
2026-01-07 15:57:50.64	17.78	10.44	-41.9	-43.0	22.6	0.00e+00	0	35	101	1048576	60	6882
2026-01-07 15:57:51.65	17.72	10.52	-42.0	-43.1	22.5	0.00e+00	51	35	101	1048576	60	6934
2026-01-07 15:57:52.67	17.66	10.61	-41.9	-42.9	22.6	0.00e+00	0	35	101	1048576	60	6840
2026-01-07 15:57:53.68	17.59	10.69	-41.9	-42.9	22.6	0.00e+00	7	35	101	1048576	60	6790
2026-01-07 15:57:54.69	17.53	10.78	-41.8	-42.8	22.7	0.00e+00	5	35	101	1048576	60	6730
2026-01-07 15:57:55.70	17.47	10.86	-41.8	-42.8	22.7	0.00e+00	28	35	101	1048576	60	6762
2026-01-07 15:57:56.71	17.41	10.95	-41.7	-42.7	22.8	0.00e+00	92	35	101	1048576	60	6671
2026-01-07 15:57:57.72	17.34	11.03	-41.7	-42.7	22.8	0.00e+00	0	35	101	1048576	60	6691
2026-01-07 15:57:58.73	17.28	11.12	-41.8	-42.8	22.8	0.00e+00	92	35	101	1048576	60	6701
2026-01-07 15:57:59.74	17.22	11.20	-41.8	-42.8	22.8	0.00e+00	50	35	101	1048576	60	6713
2026-01-07 15:58:00.75	17.15	11.29	-41.7	-42.7	22.8	0.00e+00	30	35	101	1048576	60	6619
2026-01-07 15:58:01.76	17.09	11.38	-41.7	-42.7	22.8	0.00e+00	56	35	101	1048576	60	6659
2026-01-07 15:58:02.77	17.02	11.46	-41.6	-42.6	22.9	0.00e+00	25	35	101	1048576	60	6565
2026-01-07 15:58:03.78	16.96	11.55	-41.6	-42.6	22.9	0.00e+00	27	35	101	1048576	60	6575
2026-01-07 15:58:04.79	16.89	11.64	-41.7	-42.7	22.8	0.00e+00	52	35	101	1048576	60	6672
2026-01-07 15:58:05.80	16.82	11.73	-41.5	-42.5	23.1	0.00e+00	92	35	101	1048576	60	6497
2026-01-07 15:58:06.81	16.76	11.81	-41.6	-42.6	22.9	0.00e+00	2	35	101	1048576	60	6589
2026-01-07 15:58:07.82	16.69	11.90	-41.6	-42.6	22.9	0.00e+00	16	35	101	1048576	60	6588
2026-01-07 15:58:08.83	16.62	11.99	-41.5	-42.5	23.0	0.00e+00	52	35	101	1048576	60	6469
2026-01-07 15:58:09.84	16.56	12.08	-41.5	-42.4	23.0	0.00e+00	0	35	101	1048576	60	6464
2026-01-07 15:58:10.85	16.49	12.17	-41.7	-42.7	22.8	0.00e+00	0	35	101	1048576	60	6684
2026-01-07 15:58:11.86	16.42	12.26	-41.7	-42.7	22.9	0.00e+00	0	35	101	1048576	60	6623
2026-01-07 15:58:12.87	16.35	12.35	-41.6	-42.6	23.0	0.00e+00	92	35	101	1048576	60	6545
2026-01-07 15:58:13.88	16.28	12.44	-41.5	-42.5	23.2	0.00e+00	0	35	101	1048576	60	6476
2026-01-07 15:58:14.89	16.21	12.53	-41.6	-42.6	23.1	0.00e+00	92	35	101	1048576	60	6541
2026-01-07 15:58:15.90	16.14	12.62	-41.5	-42.5	23.1	0.00e+00	30	35	101	1048576	60	6488
2026-01-07 15:58:16.91	16.07	12.71	-41.6	-42.6	23.0	0.00e+00	24	35	101	1048576	60	6573
2026-01-07 15:58:17.92	16.00	12.80	-41.6	-42.5	23.1	0.00e+00	0	35	101	1048576	60	6525
2026-01-07 15:58:18.93	15.92	12.89	-41.8	-42.7	22.9	0.00e+00	0	35	101	1048576	60	6691
2026-01-07 15:58:19.94	15.85	12.98	-41.7	-42.7	22.8	0.00e+00	92	35	101	1048576	60	6636
2026-01-07 15:58:20.96	15.78	13.08	-41.4	-42.4	23.2	0.00e+00	23	35	101	1048576	60	6426
2026-01-07 15:58:21.97	15.70	13.17	-41.1	-42.0	23.5	0.00e+00	92	35	101	1048576	60	6145
2026-01-07 15:58:22.98	15.63	13.26	-41.3	-42.2	23.4	0.00e+00	52	35	101	1048576	60	6283
2026-01-07 15:58:23.99	15.55	13.36	-41.2	-42.1	23.5	0.00e+00	52	35	101	1048576	60	6198
2026-01-07 15:58:25.00	15.48	13.45	-41.2	-42.2	23.4	0.00e+00	51	35	101	1048576	60	6258
2026-01-07 15:58:26.01	15.40	13.54	-41.2	-42.1	23.5	0.00e+00	2	35	101	1048576	60	6213
2026-01-07 15:58:27.02	15.33	13.64	-41.1	-42.1	23.4	0.00e+00	77	35	101	1048576	60	6192
2026-01-07 15:58:28.03	15.25	13.73	-41.2	-42.2	23.5	0.00e+00	57	35	101	1048576	60	6246
2026-01-07 15:58:29.04	15.17	13.83	-41.1	-42.1	23.5	0.00e+00	92	35	101	1048576	60	6182
2026-01-07 15:58:30.05	15.10	13.92	-41.1	-42.1	23.5	0.00e+00	0	35	101	1048576	60	6188
2026-01-07 15:58:31.06	15.02	14.02	-41.2	-42.2	23.4	0.00e+00	7	35	101	1048576	60	6248
2026-01-07 15:58:32.08	14.94	14.11	-41.2	-42.2	23.4	0.00e+00	0	35	101	1048576	60	6267
2026-01-07 15:58:33.09	14.86	14.21	-41.1	-42.1	23.5	0.00e+00	0	35	101	1048576	60	6196
2026-01-07 15:58:34.10	14.78	14.30	-41.1	-42.1	23.5	0.00e+00	0	35	101	1048576	60	6179
2026-01-07 15:58:35.11	14.70	14.40	-41.2	-42.1	23.6	0.00e+00	0	35	101	1048576	60	6214
2026-01-07 15:58:36.12	14.62	14.50	-41.1	-42.0	23.5	0.00e+00	92	35	101	1048576	60	6162
2026-01-07 15:58:37.13	14.54	14.59	-41.2	-42.1	23.5	0.00e+00	0	35	101	1048576	60	6207
2026-01-07 15:58:38.14	14.46	14.69	-41.2	-42.2	23.5	0.00e+00	79	35	101	1048576	60	6255
2026-01-07 15:58:39.15	14.37	14.79	-41.1	-42.1	23.6	0.00e+00	30	35	101	1048576	60	6174
2026-01-07 15:58:40.16	14.29	14.89	-41.3	-42.2	23.5	0.00e+00	49	35	101	1048576	60	6281
2026-01-07 15:58:41.17	14.21	14.99	-41.2	-42.1	23.6	0.00e+00	11	35	101	1048576	60	6220
2026-01-07 15:58:42.19	14.12	15.09	-41.1	-42.0	23.5	0.00e+00	0	35	101	1048576	60	6170
2026-01-07 15:58:43.20	14.04	15.18	-41.1	-42.1	23.5	0.00e+00	91	35	101	1048576	60	6201
2026-01-07 15:58:44.21	13.95	15.28	-41.2	-42.1	23.5	0.00e+00	0	35	101	1048576	60	6225
2026-01-07 15:58:45.22	13.87	15.38	-41.2	-42.1	23.5	0.00e+00	92	35	101	1048576	60	6220
2026-01-07 15:58:46.23	13.78	15.48	-41.2	-42.2	23.5	0.00e+00	49	35	101	1048576	60	6252
2026-01-07 15:58:47.24	13.69	15.58	-41.2	-42.1	23.5	0.00e+00	52	35	101	1048576	60	6226
2026-01-07 15:58:48.25	13.61	15.68	-41.3	-42.2	23.4	0.00e+00	0	35	101	1048576	60	6296
2026-01-07 15:58:49.26	13.52	15.79	-41.2	-42.1	23.5	0.00e+00	0	35	101	1048576	60	6206
2026-01-07 15:58:50.27	13.43	15.89	-41.3	-42.2	23.4	0.00e+00	25	35	101	1048576	60	6284
2026-01-07 15:58:51.28	13.34	15.99	-41.2	-42.1	23.5	0.00e+00	0	35	101	1048576	60	6228
2026-01-07 15:58:52.29	13.25	16.09	-41.2	-42.1	23.5	0.00e+00	92	35	101	1048576	60	6243
2026-01-07 15:58:53.31	13.16	16.20	-41.3	-42.2	23.4	0.00e+00	32	35	101	1048576	60	6295
2026-01-07 15:58:54.32	13.06	16.30	-41.3	-42.2	23.4	0.00e+00	26	35	101	1048576	60	6287
2026-01-07 15:58:55.33	12.97	16.40	-41.2	-42.2	23.5	0.00e+00	0	35	101	1048576	60	6252
2026-01-07 15:58:56.34	12.88	16.50	-41.2	-42.2	23.5	0.00e+00	0	35	101	1048576	60	6257
2026-01-07 15:58:57.35	12.79	16.61	-41.3	-42.2	23.4	0.00e+00	30	35	101	1048576	60	6289
2026-01-07 15:58:58.36	12.69	16.71	-41.3	-42.2	23.5	0.00e+00	0	35	101	1048576	60	6295
2026-01-07 15:58:59.37	12.60	16.82	-41.2	-42.1	23.5	0.00e+00	92	35	101	1048576	60	6239
2026-01-07 15:59:00.38	12.50	16.92	-41.4	-42.3	23.4	0.00e+00	30	35	101	1048576	60	6359
2026-01-07 15:59:01.39	12.41	17.03	-41.3	-42.3	23.4	0.00e+00	18	35	101	1048576	60	6324
2026-01-07 15:59:02.40	12.31	17.13	-41.3	-42.3	23.5	0.00e+00	52	35	101	1048576	60	6332
2026-01-07 15:59:03.41	12.21	17.24	-41.5	-42.4	23.4	0.00e+00	51	35	101	1048576	60	6461
2026-01-07 15:59:04.42	12.11	17.35	-41.5	-42.4	23.3	0.00e+00	0	35	101	1048576	60	6445
2026-01-07 15:59:05.44	12.01	17.46	-41.5	-42.4	23.4	0.00e+00	6	35	101	1048576	60	6431
2026-01-07 15:59:06.45	11.91	17.56	-41.6	-42.5	23.2	0.00e+00	92	35	101	1048576	60	6524
2026-01-07 15:59:07.46	11.81	17.67	-41.6	-42.6	23.2	0.00e+00	5	35	101	1048576	60	6568
2026-01-07 15:59:08.47	11.71	17.78	-41.6	-42.5	23.2	0.00e+00	92	35	101	1048576	60	6535
2026-01-07 15:59:09.48	11.61	17.89	-41.7	-42.6	23.0	0.00e+00	7	35	101	1048576	60	6599
2026-01-07 15:59:10.49	11.50	18.00	-41.7	-42.6	23.2	0.00e+00	0	35	101	1048576	60	6605
2026-01-07 15:59:11.50	11.40	18.10	-41.8	-42.8	23.0	0.00e+00	0	35	101	1048576	60	6711
2026-01-07 15:59:12.51	11.30	18.21	-41.9	-42.9	22.9	0.00e+00	0	35	101	1048576	60	6780
2026-01-07 15:59:13.52	11.19	18.32	-41.7	-42.6	23.1	0.00e+00	90	35	101	1048576	60	6594
2026-01-07 15:59:14.53	11.09	18.43	-41.7	-42.7	23.1	0.00e+00	27	35	101	1048576	60	6651
2026-01-07 15:59:15.54	10.98	18.55	-41.6	-42.6	23.2	0.00e+00	92	35	101	1048576	60	6547
2026-01-07 15:59:16.55	10.87	18.66	-41.7	-42.7	23.2	0.00e+00	55	35	101	1048576	60	6617
2026-01-07 15:59:17.57	10.76	18.77	-41.7	-42.6	23.2	0.00e+00	53	35	101	1048576	60	6596
2026-01-07 15:59:18.58	10.65	18.88	-41.6	-42.5	23.3	0.00e+00	31	35	101	1048576	60	6501
2026-01-07 15:59:19.59	10.54	18.99	-41.7	-42.7	23.1	0.00e+00	55	35	101	1048576	60	6631
2026-01-07 15:59:20.60	10.43	19.11	-41.7	-42.6	23.2	0.00e+00	92	35	101	1048576	60	6599
2026-01-07 15:59:21.61	10.32	19.22	-41.7	-42.7	23.1	0.00e+00	8	35	101	1048576	60	6624
2026-01-07 15:59:22.62	10.21	19.33	-41.8	-42.7	23.1	0.00e+00	91	35	101	1048576	60	6677
2026-01-07 15:59:23.63	10.09	19.45	-41.6	-42.5	23.3	0.00e+00	7	35	101	1048576	60	6512
2026-01-07 15:59:24.64	9.98	19.56	-41.6	-42.6	23.2	0.00e+00	92	35	101	1048576	60	6578
2026-01-07 15:59:25.66	9.86	19.68	-41.6	-42.5	23.2	0.00e+00	6	35	101	1048576	60	6501
2026-01-07 15:59:26.67	9.75	19.79	-41.6	-42.6	23.0	0.00e+00	0	35	101	1048576	60	6556
2026-01-07 15:59:27.68	9.63	19.91	-41.6	-42.6	23.1	0.00e+00	0	35	101	1048576	60	6569
2026-01-07 15:59:28.69	9.51	20.02	-41.6	-42.6	23.2	0.00e+00	6	35	101	1048576	60	6564
2026-01-07 15:59:29.70	9.39	20.14	-41.5	-42.5	23.3	0.00e+00	92	35	101	1048576	60	6496
2026-01-07 15:59:30.71	9.27	20.26	-41.6	-42.5	23.2	0.00e+00	0	35	101	1048576	60	6533
2026-01-07 15:59:31.72	9.15	20.37	-41.7	-42.6	23.1	0.00e+00	89	35	101	1048576	60	6597
2026-01-07 15:59:32.73	9.03	20.49	-41.8	-42.8	23.1	0.00e+00	33	35	101	1048576	60	6694
2026-01-07 15:59:33.74	8.91	20.61	-41.7	-42.7	23.1	0.00e+00	48	35	101	1048576	60	6675
2026-01-07 15:59:34.76	8.78	20.73	-41.7	-42.6	23.2	0.00e+00	19	35	101	1048576	60	6613
2026-01-07 15:59:35.77	8.66	20.85	-41.8	-42.7	23.1	0.00e+00	48	35	101	1048576	60	6689
2026-01-07 15:59:36.78	8.53	20.97	-41.6	-42.6	23.3	0.00e+00	92	35	101	1048576	60	6566
2026-01-07 15:59:37.79	8.41	21.09	-41.6	-42.6	23.3	0.00e+00	27	35	101	1048576	60	6565
2026-01-07 15:59:38.80	8.28	21.21	-41.7	-42.7	23.2	0.00e+00	92	35	101	1048576	60	6670
2026-01-07 15:59:39.81	8.15	21.33	-41.9	-42.9	22.9	0.00e+00	55	35	101	1048576	60	6813
2026-01-07 15:59:40.82	8.02	21.45	-41.8	-42.8	23.1	0.00e+00	2	35	101	1048576	60	6744
2026-01-07 15:59:41.83	7.89	21.57	-41.8	-42.8	23.1	0.00e+00	49	35	101	1048576	60	6738
2026-01-07 15:59:42.84	7.76	21.69	-41.7	-42.7	23.1	0.00e+00	0	35	101	1048576	60	6643
2026-01-07 15:59:43.85	7.62	21.81	-41.8	-42.7	23.1	0.00e+00	92	35	101	1048576	60	6681
2026-01-07 15:59:44.87	7.49	21.94	-41.6	-42.6	23.3	0.00e+00	0	35	101	1048576	60	6546
2026-01-07 15:59:45.88	7.35	22.06	-41.6	-42.5	23.3	0.00e+00	92	35	101	1048576	60	6497
2026-01-07 15:59:46.89	7.22	22.18	-41.6	-42.5	23.4	0.00e+00	0	35	101	1048576	60	6507
2026-01-07 15:59:47.90	7.08	22.31	-41.6	-42.5	23.4	0.00e+00	30	35	101	1048576	60	6511
2026-01-07 15:59:48.91	6.94	22.43	-41.6	-42.5	23.3	0.00e+00	34	35	101	1048576	60	6519
2026-01-07 15:59:49.92	6.80	22.56	-41.8	-42.7	23.2	0.00e+00	33	35	101	1048576	60	6680
2026-01-07 15:59:50.93	6.66	22.68	-41.7	-42.6	22.9	0.00e+00	0	35	101	1048576	60	6613
2026-01-07 15:59:51.94	6.52	22.81	-41.7	-42.7	23.0	0.00e+00	49	35	101	1048576	60	6635
2026-01-07 15:59:52.95	6.38	22.93	-41.8	-42.7	23.2	0.00e+00	92	35	101	1048576	60	6683
2026-01-07 15:59:53.96	6.23	23.06	-41.8	-42.8	23.2	0.00e+00	27	35	101	1048576	60	6718
2026-01-07 15:59:54.97	6.09	23.19	-41.7	-42.7	23.3	0.00e+00	55	35	101	1048576	60	6641
2026-01-07 15:59:55.98	5.94	23.31	-41.8	-42.7	23.2	0.00e+00	48	35	101	1048576	60	6656
2026-01-07 15:59:57.00	5.79	23.44	-41.7	-42.7	23.3	0.00e+00	2	35	101	1048576	60	6628
2026-01-07 15:59:58.01	5.64	23.57	-41.7	-42.7	23.4	0.00e+00	0	35	101	1048576	60	6620
2026-01-07 15:59:59.02	5.49	23.70	-41.6	-42.6	23.3	0.00e+00	47	35	101	1048576	60	6573
2026-01-07 16:00:00.03	5.34	23.83	-41.8	-42.8	23.2	0.00e+00	92	35	101	1048576	60	6707
2026-01-07 16:00:01.04	5.19	23.96	-41.8	-42.7	23.2	0.00e+00	3	35	101	1048576	60	6689
2026-01-07 16:00:02.05	5.03	24.09	-41.8	-42.8	23.1	0.00e+00	92	35	101	1048576	60	6718
2026-01-07 16:00:03.06	4.88	24.22	-41.9	-42.9	23.0	0.00e+00	0	35	101	1048576	60	6820
2026-01-07 16:00:04.07	4.72	24.35	-41.9	-42.9	23.1	0.00e+00	0	35	101	1048576	60	6770
2026-01-07 16:00:05.08	4.56	24.48	-41.9	-42.9	23.1	0.00e+00	0	35	101	1048576	60	6815
2026-01-07 16:00:06.09	4.40	24.61	-41.8	-42.8	23.1	0.00e+00	0	35	101	1048576	60	6726
2026-01-07 16:00:07.10	4.24	24.74	-41.8	-42.8	23.2	0.00e+00	90	35	101	1048576	60	6722
2026-01-07 16:00:08.12	4.08	24.88	-41.9	-42.9	23.1	0.00e+00	35	35	101	1048576	60	6827
2026-01-07 16:00:09.13	3.91	25.01	-42.0	-43.0	22.9	0.00e+00	90	35	101	1048576	60	6915
2026-01-07 16:00:10.14	3.75	25.14	-41.9	-42.8	23.0	0.00e+00	0	35	101	1048576	60	6754
2026-01-07 16:00:11.15	3.58	25.28	-42.2	-43.3	22.6	0.00e+00	0	35	101	1048576	60	7109
2026-01-07 16:00:12.16	3.41	25.41	-41.9	-42.9	23.0	0.00e+00	48	35	101	1048576	60	6797
2026-01-07 16:00:13.17	3.24	25.54	-42.0	-43.0	22.9	0.00e+00	29	35	101	1048576	60	6876
2026-01-07 16:00:14.18	3.07	25.68	-41.8	-42.8	23.1	0.00e+00	0	35	101	1048576	60	6707
2026-01-07 16:00:15.19	2.90	25.81	-41.9	-42.9	23.1	0.00e+00	45	35	101	1048576	60	6774
2026-01-07 16:00:16.20	2.72	25.95	-41.8	-42.8	23.1	0.00e+00	92	35	101	1048576	60	6731
2026-01-07 16:00:17.21	2.55	26.09	-41.8	-42.8	23.2	0.00e+00	2	35	101	1048576	60	6701
2026-01-07 16:00:18.22	2.37	26.22	-41.8	-42.8	23.3	0.00e+00	92	35	101	1048576	60	6693
2026-01-07 16:00:19.23	2.19	26.36	-41.9	-42.8	23.1	0.00e+00	0	35	101	1048576	60	6769
2026-01-07 16:00:20.24	2.01	26.50	-41.8	-42.8	23.1	0.00e+00	0	35	101	1048576	60	6739
2026-01-07 16:00:21.25	1.83	26.63	-41.8	-42.8	23.2	0.00e+00	2	35	101	1048576	60	6699
2026-01-07 16:00:22.27	1.65	26.77	-41.8	-42.8	23.1	0.00e+00	0	35	101	1048576	60	6725
2026-01-07 16:00:23.28	1.46	26.91	-41.8	-42.8	23.1	0.00e+00	92	35	101	1048576	60	6702
2026-01-07 16:00:24.29	1.27	27.05	-41.8	-42.7	23.2	0.00e+00	0	35	101	1048576	60	6684
2026-01-07 16:00:25.30	1.09	27.19	-41.7	-42.6	23.2	0.00e+00	92	35	101	1048576	60	6592
2026-01-07 16:00:26.31	0.90	27.33	-41.8	-42.8	23.0	0.00e+00	2	35	101	1048576	60	6728
2026-01-07 16:00:27.32	0.70	27.47	-42.0	-43.0	22.4	0.00e+00	0	35	101	1048576	60	6895
2026-01-07 16:00:28.33	0.51	27.61	-41.9	-42.9	22.9	0.00e+00	15	35	101	1048576	60	6830
2026-01-07 16:00:29.34	0.32	27.75	-42.1	-43.1	22.8	0.00e+00	0	35	101	1048576	60	6986
2026-01-07 16:00:30.35	0.12	27.89	-42.2	-43.2	22.8	0.00e+00	92	35	101	1048576	60	7042
2026-01-07 16:00:31.36	359.92	28.03	-42.1	-43.1	22.9	0.00e+00	50	35	101	1048576	60	6973
2026-01-07 16:00:32.37	359.72	28.17	-42.1	-43.2	22.7	0.00e+00	92	35	101	1048576	60	7015
2026-01-07 16:00:33.38	359.52	28.31	-42.5	-43.5	22.6	0.00e+00	49	35	101	1048576	60	7293
2026-01-07 16:00:34.40	359.31	28.45	-42.4	-43.5	22.6	0.00e+00	7	35	101	1048576	60	7267
2026-01-07 16:00:35.41	359.11	28.60	-42.4	-43.5	22.5	0.00e+00	0	35	101	1048576	60	7271
2026-01-07 16:00:36.42	358.90	28.74	-42.6	-43.7	22.3	0.00e+00	5	35	101	1048576	60	7464
2026-01-07 16:00:37.43	358.69	28.88	-42.8	-43.9	22.1	0.00e+00	0	35	101	1048576	60	7669
2026-01-07 16:00:38.44	358.48	29.02	-43.3	-44.4	21.6	0.00e+00	48	35	101	1048576	60	8129
2026-01-07 16:00:39.45	358.26	29.17	-43.2	-44.4	21.7	0.00e+00	91	35	101	1048576	60	8088
2026-01-07 16:00:40.46	358.05	29.31	-43.5	-44.7	21.4	0.00e+00	6	35	101	1048576	60	8356
2026-01-07 16:00:41.47	357.83	29.46	-43.6	-44.8	21.3	0.00e+00	57	35	101	1048576	60	8516
2026-01-07 16:00:42.48	357.61	29.60	-43.7	-44.9	21.2	0.00e+00	7	35	101	1048576	60	8607
2026-01-07 16:00:43.50	357.39	29.75	-43.8	-45.0	21.0	0.00e+00	0	35	101	1048576	60	8715
2026-01-07 16:00:44.51	357.16	29.89	-43.9	-45.2	20.9	0.00e+00	7	35	101	1048576	60	8878
2026-01-07 16:00:45.52	356.94	30.04	-44.3	-45.7	20.5	0.00e+00	0	35	101	1048576	60	9392
2026-01-07 16:00:46.53	356.71	30.18	-44.7	-46.1	20.1	0.00e+00	92	35	101	1048576	60	9888
2026-01-07 16:00:47.54	356.48	30.33	-44.8	-46.3	19.9	0.00e+00	34	35	101	1048576	60	10035
2026-01-07 16:00:48.55	356.25	30.47	-45.0	-46.5	19.7	0.00e+00	92	35	101	1048576	60	10283
2026-01-07 16:00:49.56	356.01	30.62	-45.1	-46.6	19.6	0.00e+00	6	35	101	1048576	60	10454
2026-01-07 16:00:50.57	355.78	30.76	-45.2	-46.8	19.6	0.00e+00	52	35	101	1048576	60	10635
2026-01-07 16:00:51.58	355.54	30.91	-45.3	-46.9	19.3	0.00e+00	58	35	101	1048576	60	10797
2026-01-07 16:00:52.60	355.30	31.06	-45.4	-47.0	19.1	0.00e+00	6	35	101	1048576	60	10967
2026-01-07 16:00:53.61	355.05	31.20	-45.4	-47.0	19.1	0.00e+00	92	35	101	1048576	60	10854
2026-01-07 16:00:54.62	354.81	31.35	-45.1	-46.6	19.5	0.00e+00	53	35	101	1048576	60	10374
2026-01-07 16:00:55.63	354.56	31.50	-45.1	-46.6	19.5	0.00e+00	91	35	101	1048576	60	10484
2026-01-07 16:00:56.64	354.31	31.64	-45.0	-46.5	19.7	0.00e+00	52	35	101	1048576	60	10355
2026-01-07 16:00:57.65	354.06	31.79	-44.8	-46.2	20.0	0.00e+00	0	35	101	1048576	60	10000
2026-01-07 16:00:58.66	353.81	31.94	-44.7	-46.1	20.1	0.00e+00	5	35	101	1048576	60	9895
2026-01-07 16:00:59.67	353.55	32.09	-44.7	-46.1	20.0	0.00e+00	7	35	101	1048576	60	9868
2026-01-07 16:01:00.68	353.29	32.23	-44.9	-46.5	19.7	0.00e+00	91	35	101	1048576	60	10280
2026-01-07 16:01:01.69	353.03	32.38	-45.1	-46.7	19.5	0.00e+00	0	35	101	1048576	60	10526
2026-01-07 16:01:02.70	352.77	32.53	-45.2	-46.8	19.4	0.00e+00	90	35	101	1048576	60	10616
2026-01-07 16:01:03.72	352.50	32.68	-45.2	-46.7	19.5	0.00e+00	0	35	101	1048576	60	10598
2026-01-07 16:01:04.73	352.23	32.82	-44.9	-46.3	19.9	0.00e+00	90	35	101	1048576	60	10087
2026-01-07 16:01:05.74	351.96	32.97	-44.9	-46.3	19.9	0.00e+00	35	35	101	1048576	60	10120
2026-01-07 16:01:06.75	351.69	33.12	-44.9	-46.3	19.9	0.00e+00	47	35	101	1048576	60	10097
2026-01-07 16:01:07.76	351.41	33.27	-45.0	-46.5	19.7	0.00e+00	0	35	101	1048576	60	10289
2026-01-07 16:01:08.77	351.13	33.41	-44.9	-46.4	19.8	0.00e+00	52	35	101	1048576	60	10210
2026-01-07 16:01:09.78	350.85	33.56	-44.9	-46.4	19.8	0.00e+00	92	35	101	1048576	60	10190
2026-01-07 16:01:10.79	350.57	33.71	-44.8	-46.2	20.0	0.00e+00	2	35	101	1048576	60	10007
2026-01-07 16:01:11.81	350.28	33.86	-44.7	-46.1	20.1	0.00e+00	92	35	101	1048576	60	9831
2026-01-07 16:01:12.82	349.99	34.00	-44.4	-45.8	20.4	0.00e+00	0	35	101	1048576	60	9525
2026-01-07 16:01:13.83	349.70	34.15	-44.5	-45.9	20.4	0.00e+00	52	35	101	1048576	60	9586
2026-01-07 16:01:14.84	349.40	34.30	-44.1	-45.4	20.8	0.00e+00	50	35	101	1048576	60	9129
2026-01-07 16:01:15.85	349.11	34.44	-44.0	-45.3	21.0	0.00e+00	0	35	101	1048576	60	9000
2026-01-07 16:01:16.86	348.81	34.59	-43.8	-45.0	21.0	0.00e+00	92	35	101	1048576	60	8714
2026-01-07 16:01:17.87	348.50	34.73	-43.5	-44.7	21.6	0.00e+00	0	35	101	1048576	60	8330
2026-01-07 16:01:18.88	348.20	34.88	-43.7	-44.9	21.3	0.00e+00	91	35	101	1048576	60	8527
2026-01-07 16:01:19.89	347.89	35.03	-43.5	-44.7	21.6	0.00e+00	0	35	101	1048576	60	8371
2026-01-07 16:01:20.90	347.58	35.17	-43.2	-44.3	21.7	0.00e+00	0	35	101	1048576	60	8011
2026-01-07 16:01:21.91	347.27	35.32	-43.3	-44.4	21.8	0.00e+00	0	35	101	1048576	60	8119
2026-01-07 16:01:22.92	346.95	35.46	-43.1	-44.2	22.0	0.00e+00	0	35	101	1048576	60	7883
2026-01-07 16:01:23.94	346.63	35.61	-43.2	-44.3	22.0	0.00e+00	9	35	101	1048576	60	8013
2026-01-07 16:01:24.95	346.31	35.75	-42.8	-43.9	22.3	0.00e+00	36	35	101	1048576	60	7620
2026-01-07 16:01:25.96	345.98	35.89	-42.9	-44.0	22.1	0.00e+00	92	35	101	1048576	60	7765
2026-01-07 16:01:26.97	345.65	36.04	-43.0	-44.1	22.2	0.00e+00	46	35	101	1048576	60	7799
2026-01-07 16:01:27.98	345.32	36.18	-43.0	-44.1	22.1	0.00e+00	35	35	101	1048576	60	7813
2026-01-07 16:01:28.99	344.99	36.32	-43.4	-44.5	21.5	0.00e+00	35	35	101	1048576	60	8226
2026-01-07 16:01:30.00	344.65	36.46	-43.5	-44.7	21.6	0.00e+00	45	35	101	1048576	60	8348
2026-01-07 16:01:31.01	344.31	36.60	-43.6	-44.8	21.4	0.00e+00	8	35	101	1048576	60	8432
2026-01-07 16:01:32.02	343.97	36.74	-43.6	-44.7	21.6	0.00e+00	45	35	101	1048576	60	8421
2026-01-07 16:01:33.03	343.63	36.88	-42.9	-44.0	22.1	0.00e+00	92	35	101	1048576	60	7744
2026-01-07 16:01:34.04	343.28	37.02	-42.8	-43.9	22.1	0.00e+00	0	35	101	1048576	60	7632
2026-01-07 16:01:35.06	342.92	37.16	-43.0	-44.1	21.6	0.00e+00	84	35	101	1048576	60	7820
2026-01-07 16:01:36.07	342.57	37.30	-43.4	-44.5	21.6	0.00e+00	0	35	101	1048576	60	8227
2026-01-07 16:01:37.08	342.21	37.44	-43.5	-44.6	21.5	0.00e+00	2	35	101	1048576	60	8319
2026-01-07 16:01:38.09	341.85	37.57	-43.5	-44.7	21.5	0.00e+00	0	35	101	1048576	60	8350
2026-01-07 16:01:39.10	341.49	37.71	-43.2	-44.3	21.8	0.00e+00	0	35	101	1048576	60	8037
2026-01-07 16:01:40.11	341.12	37.85	-43.0	-44.1	22.1	0.00e+00	90	35	101	1048576	60	7830
2026-01-07 16:01:41.12	340.75	37.98	-43.0	-44.1	22.0	0.00e+00	31	35	101	1048576	60	7781
2026-01-07 16:01:42.13	340.38	38.11	-43.1	-44.2	22.0	0.00e+00	92	35	101	1048576	60	7927
2026-01-07 16:01:43.14	340.00	38.25	-43.3	-44.5	21.6	0.00e+00	30	35	101	1048576	60	8181
2026-01-07 16:01:44.15	339.62	38.38	-43.5	-44.6	21.5	0.00e+00	51	35	101	1048576	60	8327
2026-01-07 16:01:45.17	339.24	38.51	-43.6	-44.8	21.5	0.00e+00	53	35	101	1048576	60	8468
2026-01-07 16:01:46.18	338.85	38.64	-43.5	-44.6	21.6	0.00e+00	0	35	101	1048576	60	8307
2026-01-07 16:01:47.19	338.46	38.77	-43.6	-44.8	21.5	0.00e+00	90	35	101	1048576	60	8446
2026-01-07 16:01:48.20	338.07	38.90	-43.2	-44.3	21.8	0.00e+00	46	35	101	1048576	60	8017
2026-01-07 16:01:49.21	337.68	39.02	-43.2	-44.3	21.9	0.00e+00	92	35	101	1048576	60	7999
2026-01-07 16:01:50.22	337.28	39.15	-43.1	-44.2	21.9	0.00e+00	46	35	101	1048576	60	7899
2026-01-07 16:01:51.23	336.88	39.27	-42.7	-43.8	22.2	0.00e+00	62	35	101	1048576	60	7554
2026-01-07 16:01:52.24	336.47	39.40	-42.6	-43.6	22.5	0.00e+00	52	35	101	1048576	60	7421
2026-01-07 16:01:53.25	336.07	39.52	-42.5	-43.5	22.6	0.00e+00	0	35	101	1048576	60	7319
2026-01-07 16:01:54.26	335.66	39.64	-42.4	-43.4	22.7	0.00e+00	92	35	101	1048576	60	7238
2026-01-07 16:01:55.27	335.24	39.76	-42.2	-43.2	22.9	0.00e+00	0	35	101	1048576	60	7036
2026-01-07 16:01:56.28	334.83	39.88	-42.2	-43.2	22.8	0.00e+00	92	35	101	1048576	60	7066
2026-01-07 16:01:57.29	334.41	39.99	-42.0	-43.0	23.1	0.00e+00	34	35	101	1048576	60	6903
2026-01-07 16:01:58.30	333.99	40.11	-41.7	-42.6	23.4	0.00e+00	52	35	101	1048576	60	6587
2026-01-07 16:01:59.31	333.56	40.22	-41.7	-42.6	23.5	0.00e+00	0	35	101	1048576	60	6563
2026-01-07 16:02:00.32	333.13	40.33	-41.2	-42.1	23.8	0.00e+00	0	35	101	1048576	60	6191
2026-01-07 16:02:01.33	332.70	40.45	-41.3	-42.2	23.7	0.00e+00	0	35	101	1048576	60	6262
2026-01-07 16:02:02.34	332.27	40.56	-41.6	-42.5	23.5	0.00e+00	0	35	101	1048576	60	6502
2026-01-07 16:02:03.36	331.83	40.66	-41.6	-42.5	23.4	0.00e+00	92	35	101	1048576	60	6524
2026-01-07 16:02:04.37	331.39	40.77	-41.4	-42.3	23.7	0.00e+00	47	35	101	1048576	60	6345
2026-01-07 16:02:05.38	330.94	40.88	-41.1	-42.0	23.9	0.00e+00	92	35	101	1048576	60	6135
2026-01-07 16:02:06.39	330.50	40.98	-41.2	-42.1	23.8	0.00e+00	48	35	101	1048576	60	6179
2026-01-07 16:02:07.40	330.05	41.08	-41.5	-42.4	23.6	0.00e+00	6	35	101	1048576	60	6437
2026-01-07 16:02:08.41	329.60	41.18	-41.8	-42.8	23.2	0.00e+00	52	35	101	1048576	60	6726
2026-01-07 16:02:09.42	329.14	41.28	-42.2	-43.3	22.8	0.00e+00	6	35	101	1048576	60	7089
2026-01-07 16:02:10.43	328.69	41.37	-42.5	-43.5	22.5	0.00e+00	92	35	101	1048576	60	7301
2026-01-07 16:02:11.44	328.23	41.47	-42.5	-43.5	22.7	0.00e+00	0	35	101	1048576	60	7329
2026-01-07 16:02:12.45	327.76	41.56	-42.4	-43.5	22.8	0.00e+00	90	35	101	1048576	60	7271
2026-01-07 16:02:13.46	327.30	41.65	-42.2	-43.2	22.7	0.00e+00	0	35	101	1048576	60	7056
2026-01-07 16:02:14.47	326.83	41.74	-41.9	-42.8	23.2	0.00e+00	0	35	101	1048576	60	6759
2026-01-07 16:02:15.48	326.36	41.83	-41.2	-42.1	23.9	0.00e+00	6	35	101	1048576	60	6181
2026-01-07 16:02:16.49	325.89	41.91	-41.1	-42.0	24.0	0.00e+00	36	35	101	1048576	60	6105
2026-01-07 16:02:17.50	325.41	41.99	-40.8	-41.6	24.2	0.00e+00	92	35	101	1048576	60	5869
2026-01-07 16:02:18.52	324.93	42.08	-40.8	-41.6	24.2	0.00e+00	28	35	101	1048576	60	5874
2026-01-07 16:02:19.53	324.45	42.15	-41.0	-41.9	24.0	0.00e+00	92	35	101	1048576	60	6055
2026-01-07 16:02:20.54	323.97	42.23	-41.2	-42.1	23.8	0.00e+00	34	35	101	1048576	60	6227
2026-01-07 16:02:21.55	323.48	42.31	-41.3	-42.2	23.8	0.00e+00	50	35	101	1048576	60	6276
2026-01-07 16:02:22.56	323.00	42.38	-41.4	-42.3	23.8	0.00e+00	53	35	101	1048576	60	6324
2026-01-07 16:02:23.57	322.51	42.45	-41.3	-42.2	23.8	0.00e+00	52	35	101	1048576	60	6251
2026-01-07 16:02:24.58	322.02	42.52	-41.4	-42.3	23.6	0.00e+00	2	35	101	1048576	60	6351
2026-01-07 16:02:25.59	321.52	42.58	-41.7	-42.6	23.5	0.00e+00	0	35	101	1048576	60	6584
2026-01-07 16:02:26.60	321.03	42.64	-41.1	-42.0	23.9	0.00e+00	92	35	101	1048576	60	6115
2026-01-07 16:02:27.61	320.53	42.70	-41.0	-41.9	24.0	0.00e+00	7	35	101	1048576	60	6072
2026-01-07 16:02:28.62	320.03	42.76	-40.7	-41.6	24.3	0.00e+00	90	35	101	1048576	60	5847
2026-01-07 16:02:29.63	319.53	42.82	-40.9	-41.8	24.1	0.00e+00	51	35	101	1048576	60	5983
2026-01-07 16:02:30.64	319.03	42.87	-40.9	-41.8	24.1	0.00e+00	6	35	101	1048576	60	5979
2026-01-07 16:02:31.66	318.52	42.92	-41.3	-42.2	23.7	0.00e+00	0	35	101	1048576	60	6256
2026-01-07 16:02:32.67	318.01	42.97	-41.5	-42.4	23.5	0.00e+00	6	35	101	1048576	60	6422
2026-01-07 16:02:33.68	317.50	43.02	-41.7	-42.6	23.3	0.00e+00	92	35	101	1048576	60	6614
2026-01-07 16:02:34.69	316.99	43.06	-41.6	-42.6	23.4	0.00e+00	0	35	101	1048576	60	6552
2026-01-07 16:02:35.70	316.48	43.10	-41.0	-41.8	24.1	0.00e+00	92	35	101	1048576	60	6026
2026-01-07 16:02:36.71	315.97	43.14	-40.9	-41.8	24.2	0.00e+00	35	35	101	1048576	60	5971
2026-01-07 16:02:37.72	315.46	43.18	-41.1	-41.9	23.9	0.00e+00	0	35	101	1048576	60	6087
2026-01-07 16:02:38.73	314.95	43.21	-41.1	-42.0	23.9	0.00e+00	24	35	101	1048576	60	6132
2026-01-07 16:02:39.74	314.43	43.24	-41.2	-42.1	23.8	0.00e+00	31	35	101	1048576	60	6200
2026-01-07 16:02:40.75	313.92	43.27	-41.5	-42.4	23.6	0.00e+00	75	35	101	1048576	60	6448
2026-01-07 16:02:41.76	313.40	43.30	-41.8	-42.8	23.2	0.00e+00	50	35	101	1048576	60	6733
2026-01-07 16:02:42.78	312.88	43.32	-42.1	-43.1	22.9	0.00e+00	92	35	101	1048576	60	6997
2026-01-07 16:02:43.79	312.36	43.34	-42.1	-43.1	23.0	0.00e+00	30	35	101	1048576	60	6959
2026-01-07 16:02:44.80	311.84	43.36	-42.2	-43.2	22.9	0.00e+00	52	35	101	1048576	60	7017
2026-01-07 16:02:45.81	311.32	43.38	-42.0	-43.0	23.0	0.00e+00	50	35	101	1048576	60	6915
2026-01-07 16:02:46.82	310.80	43.39	-42.1	-43.1	23.1	0.00e+00	45	35	101	1048576	60	6932
2026-01-07 16:02:47.83	310.28	43.40	-42.0	-43.0	23.1	0.00e+00	29	35	101	1048576	60	6853
2026-01-07 16:02:48.84	309.76	43.41	-42.3	-43.3	22.8	0.00e+00	0	35	101	1048576	60	7112
2026-01-07 16:02:49.85	309.24	43.41	-42.6	-43.6	22.5	0.00e+00	92	35	101	1048576	60	7404
2026-01-07 16:02:50.86	308.72	43.41	-42.4	-43.4	22.6	0.00e+00	2	35	101	1048576	60	7241
2026-01-07 16:02:51.88	308.19	43.41	-42.0	-43.0	23.0	0.00e+00	92	35	101	1048576	60	6904
2026-01-07 16:02:52.89	307.67	43.41	-42.3	-43.3	22.1	0.00e+00	0	35	101	1048576	60	7094
2026-01-07 16:02:53.90	307.15	43.40	-42.6	-43.7	22.4	0.00e+00	38	35	101	1048576	60	7433
2026-01-07 16:02:54.91	306.63	43.40	-43.0	-44.1	22.1	0.00e+00	0	35	101	1048576	60	7787
2026-01-07 16:02:55.92	306.11	43.38	-43.3	-44.4	21.8	0.00e+00	36	35	101	1048576	60	8116
2026-01-07 16:02:56.93	305.59	43.37	-43.1	-44.3	21.9	0.00e+00	92	35	101	1048576	60	7959
2026-01-07 16:02:57.94	305.07	43.35	-43.3	-44.4	21.8	0.00e+00	37	35	101	1048576	60	8105
2026-01-07 16:02:58.96	304.54	43.33	-43.4	-44.6	21.6	0.00e+00	90	35	101	1048576	60	8272
2026-01-07 16:02:59.97	304.03	43.31	-43.6	-44.7	21.5	0.00e+00	45	35	101	1048576	60	8393
2026-01-07 16:03:00.98	303.51	43.29	-43.9	-45.2	21.2	0.00e+00	46	35	101	1048576	60	8846
2026-01-07 16:03:01.99	302.99	43.26	-44.0	-45.2	21.1	0.00e+00	36	35	101	1048576	60	8898
2026-01-07 16:03:03.00	302.48	43.23	-43.8	-45.0	21.3	0.00e+00	44	35	101	1048576	60	8653
2026-01-07 16:03:04.01	301.96	43.20	-43.8	-45.0	21.2	0.00e+00	91	35	101	1048576	60	8691
2026-01-07 16:03:05.02	301.45	43.17	-43.9	-45.1	21.1	0.00e+00	44	35	101	1048576	60	8821
2026-01-07 16:03:06.03	300.93	43.13	-44.0	-45.3	21.0	0.00e+00	92	35	101	1048576	60	8944
2026-01-07 16:03:07.05	300.42	43.09	-44.3	-45.6	20.8	0.00e+00	0	35	101	1048576	60	9320
2026-01-07 16:03:08.06	299.91	43.05	-44.3	-45.6	20.6	0.00e+00	0	35	101	1048576	60	9294
2026-01-07 16:03:09.07	299.40	43.00	-44.8	-46.2	20.2	0.00e+00	0	35	101	1048576	60	9905
2026-01-07 16:03:10.08	298.89	42.95	-44.9	-46.3	20.0	0.00e+00	0	35	101	1048576	60	10086
2026-01-07 16:03:11.09	298.39	42.90	-45.0	-46.4	19.8	0.00e+00	71	35	101	1048576	60	10202
2026-01-07 16:03:12.10	297.88	42.85	-44.9	-46.4	20.0	0.00e+00	0	35	101	1048576	60	10157
2026-01-07 16:03:13.11	297.38	42.80	-44.9	-46.3	20.2	0.00e+00	92	35	101	1048576	60	10064
2026-01-07 16:03:14.12	296.88	42.74	-44.4	-45.7	20.7	0.00e+00	0	35	101	1048576	60	9350
2026-01-07 16:03:15.13	296.38	42.68	-44.4	-45.7	20.4	0.00e+00	0	35	101	1048576	60	9383
2026-01-07 16:03:16.14	295.88	42.62	-45.0	-46.4	19.9	0.00e+00	36	35	101	1048576	60	10198
2026-01-07 16:03:17.15	295.39	42.55	-45.2	-46.7	19.5	0.00e+00	47	35	101	1048576	60	10582
2026-01-07 16:03:18.17	294.89	42.49	-45.2	-46.7	19.7	0.00e+00	2	35	101	1048576	60	10556
2026-01-07 16:03:19.18	294.40	42.42	-44.8	-46.3	20.0	0.00e+00	46	35	101	1048576	60	10051
2026-01-07 16:03:20.19	293.91	42.35	-44.4	-45.8	20.5	0.00e+00	93	35	101	1048576	60	9477
2026-01-07 16:03:21.20	293.42	42.28	-44.4	-45.8	20.8	0.00e+00	46	35	101	1048576	60	9468
2026-01-07 16:03:22.21	292.94	42.20	-43.9	-45.1	21.2	0.00e+00	90	35	101	1048576	60	8746
2026-01-07 16:03:23.22	292.46	42.12	-43.8	-44.9	21.2	0.00e+00	0	35	101	1048576	60	8620
2026-01-07 16:03:24.23	291.98	42.04	-43.7	-44.9	21.5	0.00e+00	2	35	101	1048576	60	8584
2026-01-07 16:03:25.24	291.50	41.96	-43.6	-44.8	21.5	0.00e+00	47	35	101	1048576	60	8455
2026-01-07 16:03:26.25	291.03	41.88	-43.7	-44.9	21.4	0.00e+00	0	35	101	1048576	60	8616
2026-01-07 16:03:27.26	290.55	41.79	-43.4	-44.5	21.7	0.00e+00	92	35	101	1048576	60	8230
2026-01-07 16:03:28.27	290.08	41.70	-43.2	-44.3	22.0	0.00e+00	0	35	101	1048576	60	7983
2026-01-07 16:03:29.28	289.62	41.62	-42.7	-43.8	22.4	0.00e+00	92	35	101	1048576	60	7539
2026-01-07 16:03:30.29	289.15	41.52	-42.2	-43.1	23.0	0.00e+00	0	35	101	1048576	60	7005
2026-01-07 16:03:31.30	288.69	41.43	-42.1	-43.1	23.0	0.00e+00	2	35	101	1048576	60	6978
2026-01-07 16:03:32.31	288.23	41.33	-42.7	-43.8	22.4	0.00e+00	28	35	101	1048576	60	7533
2026-01-07 16:03:33.33	287.77	41.24	-42.4	-43.4	22.7	0.00e+00	0	35	101	1048576	60	7207
2026-01-07 16:03:34.34	287.32	41.14	-42.6	-43.7	22.5	0.00e+00	87	35	101	1048576	60	7434
2026-01-07 16:03:35.35	286.86	41.04	-42.4	-43.4	22.7	0.00e+00	46	35	101	1048576	60	7187
2026-01-07 16:03:36.36	286.42	40.93	-42.6	-43.6	22.5	0.00e+00	90	35	101	1048576	60	7419
2026-01-07 16:03:37.37	285.97	40.83	-42.4	-43.4	23.0	0.00e+00	30	35	101	1048576	60	7209
2026-01-07 16:03:38.38	285.53	40.73	-42.1	-43.1	22.9	0.00e+00	0	35	101	1048576	60	6969
2026-01-07 16:03:39.39	285.09	40.62	-42.2	-43.1	23.3	0.00e+00	0	35	101	1048576	60	7007
2026-01-07 16:03:40.40	284.65	40.51	-41.6	-42.6	23.0	0.00e+00	54	35	101	1048576	60	6545
2026-01-07 16:03:41.41	284.22	40.40	-41.8	-42.7	23.6	0.00e+00	68	35	101	1048576	60	6670
2026-01-07 16:03:42.42	283.79	40.29	-41.4	-42.4	23.8	0.00e+00	52	35	101	1048576	60	6393
2026-01-07 16:03:43.44	283.36	40.17	-41.6	-42.5	23.4	0.00e+00	92	35	101	1048576	60	6526
2026-01-07 16:03:44.45	282.93	40.06	-41.6	-42.6	23.6	0.00e+00	0	35	101	1048576	60	6554
2026-01-07 16:03:45.46	282.51	39.94	-41.4	-42.4	23.7	0.00e+00	92	35	101	1048576	60	6395
2026-01-07 16:03:46.47	282.09	39.82	-40.9	-41.7	24.2	0.00e+00	6	35	101	1048576	60	5945
2026-01-07 16:03:47.48	281.68	39.70	-39.8	-40.6	24.6	0.00e+00	0	35	101	1048576	58	5891
2026-01-07 16:03:48.49	281.26	39.58	-39.4	-40.2	25.4	0.00e+00	0	35	101	1048576	58	5577
2026-01-07 16:03:49.50	280.85	39.46	-39.5	-40.3	25.3	0.00e+00	34	35	101	1048576	58	5639
2026-01-07 16:03:50.51	280.45	39.34	-39.4	-40.2	25.5	0.00e+00	91	35	101	1048576	58	5591
2026-01-07 16:03:51.52	280.04	39.22	-39.5	-40.3	25.3	0.00e+00	34	35	101	1048576	58	5654
2026-01-07 16:03:52.54	279.64	39.09	-39.6	-40.4	25.2	0.00e+00	90	35	101	1048576	58	5747
2026-01-07 16:03:53.55	279.24	38.96	-39.6	-40.4	25.3	0.00e+00	5	35	101	1048576	58	5738
2026-01-07 16:03:54.56	278.85	38.84	-39.6	-40.4	25.3	0.00e+00	49	35	101	1048576	58	5739
2026-01-07 16:03:55.57	278.46	38.71	-39.7	-40.5	25.3	0.00e+00	32	35	101	1048576	58	5762
2026-01-07 16:03:56.58	278.07	38.58	-39.6	-40.4	25.3	0.00e+00	35	35	101	1048576	58	5746
2026-01-07 16:03:57.59	277.69	38.45	-39.6	-40.4	25.2	0.00e+00	46	35	101	1048576	58	5725
2026-01-07 16:03:58.60	277.30	38.32	-39.8	-40.6	25.2	0.00e+00	52	35	101	1048576	58	5838
2026-01-07 16:03:59.61	276.93	38.18	-39.9	-40.7	25.0	0.00e+00	91	35	101	1048576	58	5950
2026-01-07 16:04:00.62	276.55	38.05	-40.0	-40.8	24.9	0.00e+00	49	35	101	1048576	58	6022
2026-01-07 16:04:01.63	276.18	37.92	-40.1	-40.9	24.9	0.00e+00	0	35	101	1048576	58	6057
2026-01-07 16:04:02.65	275.81	37.78	-40.3	-41.1	24.7	0.00e+00	0	35	101	1048576	58	6227
2026-01-07 16:04:03.66	275.44	37.65	-40.2	-41.1	24.7	0.00e+00	7	35	101	1048576	58	6179
2026-01-07 16:04:04.67	275.08	37.51	-40.4	-41.2	24.5	0.00e+00	81	35	101	1048576	58	6317
2026-01-07 16:04:05.68	274.72	37.37	-40.4	-41.2	24.5	0.00e+00	0	35	101	1048576	58	6314
2026-01-07 16:04:06.69	274.36	37.23	-40.4	-41.3	24.5	0.00e+00	92	35	101	1048576	58	6323
2026-01-07 16:04:07.70	274.00	37.09	-40.4	-41.2	24.5	0.00e+00	29	35	101	1048576	58	6301
2026-01-07 16:04:08.71	273.65	36.96	-40.5	-41.3	24.5	0.00e+00	31	35	101	1048576	58	6375
2026-01-07 16:04:09.72	273.31	36.82	-40.7	-41.5	24.3	0.00e+00	0	35	101	1048576	58	6512
2026-01-07 16:04:10.73	272.96	36.68	-40.8	-41.7	24.2	0.00e+00	24	35	101	1048576	58	6660
2026-01-07 16:04:11.74	272.62	36.53	-40.8	-41.7	24.1	0.00e+00	15	35	101	1048576	58	6631
2026-01-07 16:04:12.75	272.28	36.39	-41.0	-41.8	24.1	0.00e+00	52	35	101	1048576	58	6763
2026-01-07 16:04:13.77	271.94	36.25	-41.1	-42.0	23.9	0.00e+00	90	35	101	1048576	58	6889
2026-01-07 16:04:14.78	271.61	36.11	-41.0	-41.9	23.9	0.00e+00	52	35	101	1048576	58	6796
2026-01-07 16:04:15.79	271.28	35.96	-41.2	-42.1	23.8	0.00e+00	92	35	101	1048576	60	6236
2026-01-07 16:04:16.80	270.95	35.82	-41.6	-42.5	23.5	0.00e+00	0	35	101	1048576	60	6514
2026-01-07 16:04:17.81	270.63	35.68	-42.0	-42.9	23.2	0.00e+00	46	35	101	1048576	60	6838
2026-01-07 16:04:18.82	270.30	35.53	-42.1	-43.1	23.1	0.00e+00	0	35	101	1048576	60	6955
2026-01-07 16:04:19.83	269.99	35.39	-42.1	-43.1	23.0	0.00e+00	48	35	101	1048576	60	7003
2026-01-07 16:04:20.84	269.67	35.24	-42.2	-43.2	22.9	0.00e+00	90	35	101	1048576	60	7029
2026-01-07 16:04:21.85	269.36	35.10	-42.3	-43.3	22.8	0.00e+00	0	35	101	1048576	60	7127
2026-01-07 16:04:22.86	269.05	34.95	-42.3	-43.3	22.8	0.00e+00	91	35	101	1048576	60	7169
2026-01-07 16:04:23.87	268.74	34.80	-42.1	-43.1	22.7	0.00e+00	0	35	101	1048576	60	6993
2026-01-07 16:04:24.89	268.43	34.66	-42.3	-43.3	22.8	0.00e+00	42	35	101	1048576	60	7141
2026-01-07 16:04:25.90	268.13	34.51	-42.6	-43.6	22.5	0.00e+00	25	35	101	1048576	60	7373
2026-01-07 16:04:26.91	267.83	34.36	-42.9	-43.9	22.3	0.00e+00	0	35	101	1048576	60	7673
2026-01-07 16:04:27.92	267.53	34.22	-42.8	-43.9	22.3	0.00e+00	89	35	101	1048576	60	7605
2026-01-07 16:04:28.93	267.24	34.07	-43.0	-44.1	22.1	0.00e+00	0	35	101	1048576	60	7812
2026-01-07 16:04:29.94	266.95	33.92	-43.3	-44.4	21.7	0.00e+00	92	35	101	1048576	60	8134
2026-01-07 16:04:30.95	266.66	33.78	-43.5	-44.7	21.5	0.00e+00	34	35	101	1048576	60	8392
2026-01-07 16:04:31.96	266.37	33.63	-43.7	-44.9	21.2	0.00e+00	48	35	101	1048576	60	8565
2026-01-07 16:04:32.97	266.09	33.48	-43.7	-44.9	21.3	0.00e+00	46	35	101	1048576	60	8619
2026-01-07 16:04:33.98	265.81	33.33	-43.9	-45.2	21.0	0.00e+00	34	35	101	1048576	60	8832
2026-01-07 16:04:34.99	265.53	33.18	-44.1	-45.3	20.9	0.00e+00	5	35	101	1048576	60	9023
2026-01-07 16:04:36.00	265.26	33.04	-44.1	-45.4	20.9	0.00e+00	46	35	101	1048576	60	9028
2026-01-07 16:04:37.02	264.98	32.89	-44.0	-45.2	21.0	0.00e+00	92	35	101	1048576	60	8899
2026-01-07 16:04:38.03	264.71	32.74	-44.1	-45.4	21.1	0.00e+00	0	35	101	1048576	60	9028
2026-01-07 16:04:39.04	264.44	32.59	-44.1	-45.4	20.8	0.00e+00	92	35	101	1048576	60	9077
2026-01-07 16:04:40.05	264.18	32.44	-44.3	-45.6	20.7	0.00e+00	0	35	101	1048576	60	9329
2026-01-07 16:04:41.06	263.91	32.30	-44.2	-45.5	20.8	0.00e+00	0	35	101	1048576	60	9153
2026-01-07 16:04:42.07	263.65	32.15	-44.1	-45.4	20.9	0.00e+00	0	35	101	1048576	60	9073
2026-01-07 16:04:43.08	263.39	32.00	-44.0	-45.2	21.0	0.00e+00	0	35	101	1048576	60	8904
2026-01-07 16:04:44.09	263.14	31.85	-43.8	-45.1	21.2	0.00e+00	92	35	101	1048576	60	8722
2026-01-07 16:04:45.11	262.88	31.70	-43.9	-45.2	21.1	0.00e+00	0	35	101	1048576	60	8829
2026-01-07 16:04:46.12	262.63	31.56	-44.2	-45.4	20.8	0.00e+00	92	35	101	1048576	60	9127
2026-01-07 16:04:47.13	262.38	31.41	-44.1	-45.4	20.8	0.00e+00	34	35	101	1048576	60	9090
2026-01-07 16:04:48.14	262.13	31.26	-44.1	-45.4	20.9	0.00e+00	36	35	101	1048576	60	9082
2026-01-07 16:04:49.15	261.89	31.12	-44.1	-45.3	21.0	0.00e+00	34	35	101	1048576	60	8992
2026-01-07 16:04:50.16	261.65	30.97	-43.9	-45.2	21.1	0.00e+00	0	35	101	1048576	60	8839
2026-01-07 16:04:51.17	261.41	30.82	-43.8	-45.0	21.1	0.00e+00	44	35	101	1048576	60	8625
2026-01-07 16:04:52.18	261.17	30.68	-43.7	-44.9	21.4	0.00e+00	48	35	101	1048576	60	8548
2026-01-07 16:04:53.19	260.93	30.53	-43.4	-44.6	21.6	0.00e+00	92	35	101	1048576	60	8258
2026-01-07 16:04:54.21	260.70	30.38	-43.4	-44.5	21.6	0.00e+00	45	35	101	1048576	60	8227
2026-01-07 16:04:55.22	260.47	30.24	-43.3	-44.4	21.5	0.00e+00	92	35	101	1048576	60	8069
2026-01-07 16:04:56.23	260.24	30.09	-43.1	-44.2	21.8	0.00e+00	0	35	101	1048576	60	7931
2026-01-07 16:04:57.24	260.01	29.94	-43.1	-44.2	21.9	0.00e+00	50	35	101	1048576	60	7870
2026-01-07 16:04:58.25	259.78	29.80	-43.1	-44.2	22.0	0.00e+00	35	35	101	1048576	60	7887
2026-01-07 16:04:59.26	259.56	29.65	-42.8	-43.9	22.1	0.00e+00	0	35	101	1048576	60	7640
2026-01-07 16:05:00.27	259.34	29.51	-42.9	-44.0	22.2	0.00e+00	92	35	101	1048576	60	7718
2026-01-07 16:05:01.28	259.12	29.37	-42.8	-43.9	22.2	0.00e+00	0	35	101	1048576	60	7613
2026-01-07 16:05:02.29	258.90	29.22	-42.5	-43.5	22.6	0.00e+00	40	35	101	1048576	60	7299
2026-01-07 16:05:03.30	258.69	29.08	-42.2	-43.2	22.8	0.00e+00	34	35	101	1048576	60	7058
2026-01-07 16:05:04.31	258.47	28.93	-42.3	-43.3	22.7	0.00e+00	0	35	101	1048576	60	7166
2026-01-07 16:05:05.32	258.26	28.79	-42.5	-43.5	22.7	0.00e+00	0	35	101	1048576	60	7295
2026-01-07 16:05:06.33	258.05	28.65	-42.5	-43.5	22.6	0.00e+00	0	35	101	1048576	60	7291
2026-01-07 16:05:07.35	257.84	28.50	-42.2	-43.2	22.9	0.00e+00	92	35	101	1048576	60	7077
2026-01-07 16:05:08.36	257.64	28.36	-42.3	-43.4	22.7	0.00e+00	54	35	101	1048576	60	7178
2026-01-07 16:05:09.37	257.43	28.22	-42.4	-43.4	22.6	0.00e+00	90	35	101	1048576	60	7221
2026-01-07 16:05:10.38	257.23	28.08	-42.4	-43.4	22.7	0.00e+00	56	35	101	1048576	60	7205
2026-01-07 16:05:11.39	257.03	27.93	-42.4	-43.4	22.6	0.00e+00	54	35	101	1048576	60	7235
2026-01-07 16:05:12.40	256.83	27.79	-42.4	-43.5	22.6	0.00e+00	53	35	101	1048576	60	7282
2026-01-07 16:05:13.41	256.63	27.65	-42.3	-43.3	22.8	0.00e+00	7	35	101	1048576	60	7149
2026-01-07 16:05:14.42	256.44	27.51	-42.3	-43.3	22.7	0.00e+00	92	35	101	1048576	60	7144
2026-01-07 16:05:15.44	256.24	27.37	-42.4	-43.4	22.7	0.00e+00	0	35	101	1048576	60	7190
2026-01-07 16:05:16.45	256.05	27.23	-41.8	-42.8	23.2	0.00e+00	92	35	101	1048576	60	6730
2026-01-07 16:05:17.46	255.86	27.09	-41.8	-42.8	23.2	0.00e+00	5	35	101	1048576	60	6715
2026-01-07 16:05:18.47	255.67	26.95	-41.9	-42.8	23.2	0.00e+00	76	35	101	1048576	60	6742
2026-01-07 16:05:19.48	255.49	26.81	-42.1	-43.1	23.0	0.00e+00	0	35	101	1048576	60	6963
2026-01-07 16:05:20.49	255.30	26.67	-42.2	-43.2	22.9	0.00e+00	5	35	101	1048576	60	7048
2026-01-07 16:05:21.50	255.12	26.54	-42.4	-43.4	22.6	0.00e+00	15	35	101	1048576	60	7209
2026-01-07 16:05:22.51	254.94	26.40	-42.4	-43.4	22.5	0.00e+00	0	35	101	1048576	60	7249
2026-01-07 16:05:23.52	254.76	26.26	-42.5	-43.5	22.5	0.00e+00	90	35	101	1048576	60	7307
2026-01-07 16:05:24.53	254.58	26.12	-42.6	-43.6	22.4	0.00e+00	31	35	101	1048576	60	7387
2026-01-07 16:05:25.54	254.40	25.99	-42.6	-43.6	22.4	0.00e+00	92	35	101	1048576	60	7396
2026-01-07 16:05:26.55	254.23	25.85	-42.5	-43.5	22.5	0.00e+00	54	35	101	1048576	60	7323
2026-01-07 16:05:27.56	254.05	25.72	-42.3	-43.3	22.8	0.00e+00	53	35	101	1048576	60	7121
2026-01-07 16:05:28.58	253.88	25.58	-42.2	-43.2	22.8	0.00e+00	8	35	101	1048576	60	7026
2026-01-07 16:05:29.59	253.71	25.45	-42.2	-43.2	22.9	0.00e+00	0	35	101	1048576	60	7018
2026-01-07 16:05:30.60	253.54	25.31	-42.2	-43.2	22.8	0.00e+00	90	35	101	1048576	60	7017
2026-01-07 16:05:31.61	253.37	25.18	-42.3	-43.3	22.8	0.00e+00	8	35	101	1048576	60	7104
2026-01-07 16:05:32.62	253.20	25.04	-42.5	-43.5	22.5	0.00e+00	92	35	101	1048576	60	7292
2026-01-07 16:05:33.63	253.04	24.91	-42.6	-43.6	22.4	0.00e+00	6	35	101	1048576	60	7377
2026-01-07 16:05:34.64	252.87	24.78	-42.8	-43.9	22.2	0.00e+00	7	35	101	1048576	60	7627
2026-01-07 16:05:35.65	252.71	24.64	-42.9	-44.0	22.0	0.00e+00	2	35	101	1048576	60	7722
2026-01-07 16:05:36.66	252.55	24.51	-43.1	-44.2	22.0	0.00e+00	6	35	101	1048576	60	7883
2026-01-07 16:05:37.67	252.39	24.38	-43.1	-44.2	21.9	0.00e+00	92	35	101	1048576	60	7922
2026-01-07 16:05:38.68	252.23	24.25	-43.1	-44.2	21.9	0.00e+00	7	35	101	1048576	60	7924
2026-01-07 16:05:39.69	252.08	24.12	-42.9	-44.0	22.1	0.00e+00	92	35	101	1048576	60	7700
2026-01-07 16:05:40.70	251.92	23.99	-42.8	-43.9	22.2	0.00e+00	0	35	101	1048576	60	7658
2026-01-07 16:05:41.71	251.77	23.86	-42.7	-43.7	22.3	0.00e+00	28	35	101	1048576	60	7482
2026-01-07 16:05:42.73	251.61	23.73	-42.6	-43.7	22.3	0.00e+00	0	35	101	1048576	60	7447
2026-01-07 16:05:43.74	251.46	23.60	-42.4	-43.5	22.5	0.00e+00	26	35	101	1048576	60	7273
2026-01-07 16:05:44.75	251.31	23.47	-42.4	-43.4	22.6	0.00e+00	60	35	101	1048576	60	7190
2026-01-07 16:05:45.76	251.16	23.34	-42.4	-43.4	22.6	0.00e+00	56	35	101	1048576	60	7249
2026-01-07 16:05:46.77	251.01	23.21	-42.5	-43.5	22.5	0.00e+00	92	35	101	1048576	60	7306
2026-01-07 16:05:47.78	250.87	23.09	-42.4	-43.4	22.5	0.00e+00	51	35	101	1048576	60	7238
2026-01-07 16:05:48.79	250.72	22.96	-42.4	-43.4	22.4	0.00e+00	70	35	101	1048576	60	7231
2026-01-07 16:05:49.81	250.57	22.83	-42.4	-43.4	22.5	0.00e+00	56	35	101	1048576	60	7236
2026-01-07 16:05:50.82	250.43	22.70	-42.3	-43.3	22.7	0.00e+00	50	35	101	1048576	60	7144
2026-01-07 16:05:51.83	250.29	22.58	-42.5	-43.5	22.5	0.00e+00	69	35	101	1048576	60	7296
2026-01-07 16:05:52.84	250.15	22.45	-42.5	-43.6	22.4	0.00e+00	0	35	101	1048576	60	7345
2026-01-07 16:05:53.85	250.01	22.33	-42.6	-43.7	22.4	0.00e+00	91	35	101	1048576	60	7445
2026-01-07 16:05:54.86	249.87	22.20	-42.6	-43.7	22.2	0.00e+00	2	35	101	1048576	60	7431
2026-01-07 16:05:55.87	249.73	22.08	-42.7	-43.8	22.2	0.00e+00	90	35	101	1048576	60	7558
2026-01-07 16:05:56.88	249.60	21.96	-42.9	-44.0	22.1	0.00e+00	0	35	101	1048576	60	7703
2026-01-07 16:05:57.89	249.46	21.83	-42.8	-43.9	22.1	0.00e+00	0	35	101	1048576	60	7644
2026-01-07 16:05:58.90	249.33	21.71	-42.7	-43.8	22.2	0.00e+00	0	35	101	1048576	60	7572
2026-01-07 16:05:59.91	249.19	21.59	-42.8	-43.9	22.1	0.00e+00	0	35	101	1048576	60	7631
2026-01-07 16:06:00.92	249.06	21.47	-42.6	-43.7	22.3	0.00e+00	92	35	101	1048576	60	7431
2026-01-07 16:06:01.93	248.93	21.34	-42.7	-43.8	22.2	0.00e+00	0	35	101	1048576	60	7554
2026-01-07 16:06:02.94	248.80	21.22	-42.6	-43.7	22.3	0.00e+00	92	35	101	1048576	60	7465
2026-01-07 16:06:03.95	248.67	21.10	-42.5	-43.5	22.5	0.00e+00	31	35	101	1048576	60	7310
2026-01-07 16:06:04.96	248.54	20.98	-42.5	-43.5	22.5	0.00e+00	62	35	101	1048576	60	7295
2026-01-07 16:06:05.97	248.42	20.86	-42.5	-43.5	22.4	0.00e+00	31	35	101	1048576	60	7333
2026-01-07 16:06:06.98	248.29	20.74	-42.6	-43.7	22.1	0.00e+00	31	35	101	1048576	60	7450
2026-01-07 16:06:08.00	248.16	20.62	-42.6	-43.6	22.3	0.00e+00	92	35	101	1048576	60	7395
2026-01-07 16:06:09.01	248.04	20.50	-42.4	-43.5	22.5	0.00e+00	57	35	101	1048576	60	7265
2026-01-07 16:06:10.02	247.92	20.39	-42.5	-43.5	22.4	0.00e+00	92	35	101	1048576	60	7324
2026-01-07 16:06:11.03	247.80	20.27	-42.6	-43.6	22.3	0.00e+00	0	35	101	1048576	60	7399
2026-01-07 16:06:12.04	247.67	20.15	-42.4	-43.4	22.5	0.00e+00	90	35	101	1048576	60	7222
2026-01-07 16:06:13.05	247.55	20.03	-42.5	-43.5	22.3	0.00e+00	0	35	101	1048576	60	7324
2026-01-07 16:06:14.06	247.44	19.92	-42.5	-43.5	22.4	0.00e+00	0	35	101	1048576	60	7310
2026-01-07 16:06:15.07	247.32	19.80	-42.6	-43.6	22.3	0.00e+00	0	35	101	1048576	60	7418
2026-01-07 16:06:16.08	247.20	19.69	-42.5	-43.6	22.4	0.00e+00	0	35	101	1048576	60	7370
2026-01-07 16:06:17.10	247.08	19.57	-42.7	-43.8	22.2	0.00e+00	92	35	101	1048576	60	7514
2026-01-07 16:06:18.11	246.97	19.46	-42.6	-43.7	22.3	0.00e+00	0	35	101	1048576	60	7456
2026-01-07 16:06:19.12	246.85	19.34	-42.8	-43.9	22.2	0.00e+00	0	35	101	1048576	60	7607
2026-01-07 16:06:20.13	246.74	19.23	-42.8	-44.0	22.0	0.00e+00	31	35	101	1048576	60	7692
2026-01-07 16:06:21.14	246.63	19.11	-42.7	-43.8	22.2	0.00e+00	0	35	101	1048576	60	7567
2026-01-07 16:06:22.15	246.51	19.00	-42.5	-43.5	22.4	0.00e+00	0	35	101	1048576	60	7332
2026-01-07 16:06:23.16	246.40	18.89	-42.5	-43.5	22.4	0.00e+00	50	35	101	1048576	60	7309
2026-01-07 16:06:24.17	246.29	18.77	-42.4	-43.4	22.6	0.00e+00	91	35	101	1048576	60	7235
2026-01-07 16:06:25.18	246.18	18.66	-42.4	-43.4	22.5	0.00e+00	50	35	101	1048576	60	7222
2026-01-07 16:06:26.19	246.07	18.55	-42.4	-43.4	22.5	0.00e+00	92	35	101	1048576	60	7204
2026-01-07 16:06:27.21	245.97	18.44	-42.4	-43.4	22.5	0.00e+00	0	35	101	1048576	60	7235
2026-01-07 16:06:28.22	245.86	18.33	-42.3	-43.3	22.5	0.00e+00	0	35	101	1048576	60	7155
2026-01-07 16:06:29.23	245.75	18.22	-42.3	-43.4	22.5	0.00e+00	0	35	101	1048576	60	7193
2026-01-07 16:06:30.24	245.65	18.11	-42.3	-43.4	22.5	0.00e+00	50	35	101	1048576	60	7206
2026-01-07 16:06:31.25	245.54	18.00	-42.2	-43.2	22.6	0.00e+00	92	35	101	1048576	60	7060
2026-01-07 16:06:32.26	245.44	17.89	-42.3	-43.3	22.6	0.00e+00	0	35	101	1048576	60	7154
2026-01-07 16:06:33.27	245.33	17.78	-42.3	-43.3	22.5	0.00e+00	92	35	101	1048576	60	7145
2026-01-07 16:06:34.28	245.23	17.67	-42.2	-43.3	22.7	0.00e+00	2	35	101	1048576	60	7101
2026-01-07 16:06:35.29	245.13	17.56	-42.3	-43.3	22.6	0.00e+00	0	35	101	1048576	60	7133
2026-01-07 16:06:36.30	245.03	17.45	-42.5	-43.5	22.5	0.00e+00	30	35	101	1048576	60	7333
2026-01-07 16:06:37.31	244.93	17.35	-42.3	-43.3	22.5	0.00e+00	0	35	101	1048576	60	7162
2026-01-07 16:06:38.32	244.83	17.24	-42.5	-43.5	22.4	0.00e+00	9	35	101	1048576	60	7319
2026-01-07 16:06:39.34	244.73	17.13	-42.5	-43.6	22.3	0.00e+00	23	35	101	1048576	60	7385
2026-01-07 16:06:40.35	244.63	17.03	-42.6	-43.7	22.2	0.00e+00	92	35	101	1048576	60	7455
2026-01-07 16:06:41.36	244.54	16.92	-42.5	-43.6	22.3	0.00e+00	25	35	101	1048576	60	7365
2026-01-07 16:06:42.37	244.44	16.81	-42.7	-43.8	22.1	0.00e+00	72	35	101	1048576	60	7563
2026-01-07 16:06:43.38	244.34	16.71	-42.7	-43.8	22.1	0.00e+00	0	35	101	1048576	60	7553
2026-01-07 16:06:44.39	244.25	16.60	-42.8	-43.9	22.0	0.00e+00	6	35	101	1048576	60	7673
2026-01-07 16:06:45.40	244.15	16.50	-42.9	-44.0	21.9	0.00e+00	65	35	101	1048576	60	7721
2026-01-07 16:06:46.41	244.06	16.40	-42.9	-44.1	21.8	0.00e+00	52	35	101	1048576	60	7780
2026-01-07 16:06:47.43	243.97	16.29	-42.9	-44.0	21.9	0.00e+00	90	35	101	1048576	60	7755
2026-01-07 16:06:48.44	243.87	16.19	-42.8	-43.9	22.0	0.00e+00	6	35	101	1048576	60	7630
2026-01-07 16:06:49.45	243.78	16.08	-42.8	-43.9	22.1	0.00e+00	92	35	101	1048576	60	7612
2026-01-07 16:06:50.46	243.69	15.98	-42.7	-43.8	22.1	0.00e+00	0	35	101	1048576	60	7567
2026-01-07 16:06:51.47	243.60	15.88	-42.7	-43.8	22.1	0.00e+00	0	35	101	1048576	60	7587
2026-01-07 16:06:52.48	243.51	15.78	-42.9	-44.0	22.0	0.00e+00	0	35	101	1048576	60	7720
2026-01-07 16:06:53.49	243.42	15.68	-42.7	-43.8	22.1	0.00e+00	0	35	101	1048576	60	7524
2026-01-07 16:06:54.50	243.33	15.57	-42.8	-43.9	22.0	0.00e+00	92	35	101	1048576	60	7607
2026-01-07 16:06:55.51	243.24	15.47	-42.6	-43.7	22.2	0.00e+00	28	35	101	1048576	60	7476
