passes_logs/2026/01/07/R4.6S_Anadyr_2ch/R4.6S_Anadyr_2ch__20260107_221925_TY-39_rec.log

#Pass ID: 20260107_221925_TY-39
#Satellite: TY-39
#Configuration: TY-39
#almurnet v.1.7.20251203
#Start time: 2026-01-07 22:19:31

#Version: 2.2.20231116
#Station: R4.6S_Anadyr_2ch
#Location: 177.4865 lon 64.73178 lat
#TLE: 1 51832U 22019J   25350.98409328  .00002071  00000-0  10077-3 0  9999
#TLE: 2 51832  97.3692  53.3782 0009735 139.3452 220.8512 15.19459940210129

#Time	Az	El	Level	Level2	SNR	BER	BlckErr	Temp	State	Recorded	gain1	gain2
2026-01-07 22:19:31.53	18.94	0.36	-52.0	-64.7	3.4	1.52e+00	0	33	0	0	60	81232
2026-01-07 22:19:32.54	18.97	0.42	-51.0	-53.4	3.6	0.00e+00	0	34	104	0	60	78313
2026-01-07 22:19:33.55	19.01	0.49	-51.0	-53.5	3.6	0.00e+00	0	34	104	0	60	78729
2026-01-07 22:19:34.56	19.04	0.55	-51.0	-53.4	3.6	0.00e+00	0	35	104	0	60	78490
2026-01-07 22:19:35.57	19.08	0.62	-51.0	-53.4	3.6	0.00e+00	0	35	104	0	60	78569
2026-01-07 22:19:36.58	19.12	0.68	-50.9	-53.5	3.6	0.00e+00	0	35	104	0	60	78922
2026-01-07 22:19:37.60	19.15	0.75	-51.0	-53.4	3.6	0.00e+00	0	35	104	0	60	78403
2026-01-07 22:19:38.61	19.19	0.81	-51.0	-53.5	3.6	0.00e+00	0	35	104	0	60	78728
2026-01-07 22:19:39.62	19.23	0.88	-51.0	-53.5	3.6	0.00e+00	0	35	104	0	60	78726
2026-01-07 22:19:40.63	19.26	0.94	-51.0	-53.4	3.6	0.00e+00	0	35	104	0	60	78319
2026-01-07 22:19:41.64	19.30	1.01	-51.0	-53.5	3.6	0.00e+00	0	35	104	0	60	78743
2026-01-07 22:19:42.65	19.34	1.08	-51.0	-53.4	3.6	0.00e+00	0	35	104	0	60	78603
2026-01-07 22:19:43.66	19.37	1.14	-51.0	-53.4	3.6	0.00e+00	0	35	104	0	60	78178
2026-01-07 22:19:44.67	19.41	1.21	-51.0	-53.5	3.6	0.00e+00	0	35	104	0	60	79165
2026-01-07 22:19:45.68	19.45	1.27	-51.0	-53.4	3.6	0.00e+00	0	35	104	0	60	78501
2026-01-07 22:19:46.69	19.49	1.34	-51.0	-53.4	3.6	0.00e+00	0	35	104	0	60	78323
2026-01-07 22:19:47.70	19.53	1.41	-51.0	-53.5	3.6	0.00e+00	0	35	104	0	60	78684
2026-01-07 22:19:48.71	19.56	1.47	-51.0	-53.4	3.6	0.00e+00	0	35	104	0	60	78590
2026-01-07 22:19:49.73	19.60	1.54	-51.0	-53.5	3.6	0.00e+00	0	35	104	0	60	78810
2026-01-07 22:19:50.74	19.64	1.61	-51.0	-53.4	3.6	0.00e+00	0	35	104	0	60	78407
2026-01-07 22:19:51.75	19.68	1.68	-51.0	-53.4	3.6	0.00e+00	0	35	104	0	60	78481
2026-01-07 22:19:52.76	19.72	1.75	-51.0	-53.4	3.6	0.00e+00	0	35	104	0	60	78530
2026-01-07 22:19:53.77	19.76	1.81	-51.0	-53.5	3.6	0.00e+00	0	35	104	0	60	78688
2026-01-07 22:19:54.78	19.80	1.88	-51.0	-53.4	3.6	0.00e+00	0	35	104	0	60	78588
2026-01-07 22:19:55.79	19.84	1.95	-51.0	-53.4	3.6	0.00e+00	0	35	104	0	60	78433
2026-01-07 22:19:56.80	19.88	2.02	-51.0	-53.4	3.6	0.00e+00	0	35	104	0	60	78464
2026-01-07 22:19:57.81	19.92	2.09	-51.0	-53.4	3.6	0.00e+00	0	35	104	0	60	78170
2026-01-07 22:19:58.82	19.96	2.16	-51.0	-53.4	3.6	0.00e+00	0	35	104	0	60	78519
2026-01-07 22:19:59.83	20.00	2.23	-51.0	-53.4	3.6	0.00e+00	0	35	104	0	60	77772
2026-01-07 22:20:00.85	20.04	2.30	-51.0	-53.5	3.6	0.00e+00	0	35	104	0	60	78809
2026-01-07 22:20:01.86	20.08	2.37	-51.0	-53.5	3.6	0.00e+00	0	35	104	0	60	78923
2026-01-07 22:20:02.87	20.12	2.44	-50.9	-53.4	3.6	0.00e+00	0	35	104	0	60	78576
2026-01-07 22:20:03.88	20.17	2.51	-51.0	-53.5	3.6	0.00e+00	0	35	104	0	60	78945
2026-01-07 22:20:04.89	20.21	2.58	-51.1	-53.6	3.6	0.00e+00	0	35	104	0	60	79776
2026-01-07 22:20:05.90	20.25	2.65	-50.9	-53.4	3.6	0.00e+00	0	36	104	0	60	78260
2026-01-07 22:20:06.91	20.29	2.72	-50.9	-53.3	3.6	0.00e+00	0	35	104	0	60	77606
2026-01-07 22:20:07.92	20.33	2.79	-51.1	-53.5	3.6	0.00e+00	0	36	104	0	60	79136
2026-01-07 22:20:08.93	20.38	2.86	-34.3	-34.6	12.0	2.77e-05	0	35	104	0	50	15980
2026-01-07 22:20:09.94	20.42	2.93	-50.6	-52.8	3.6	2.08e-05	0	36	104	8388608	60	73367
2026-01-07 22:20:10.95	20.46	3.00	-36.2	-36.5	11.6	0.00e+00	0	36	104	8388608	54	15719
2026-01-07 22:20:11.97	20.51	3.08	-34.5	-34.9	14.6	9.01e-05	0	36	0	8388608	50	16569
2026-01-07 22:20:12.98	20.55	3.15	-33.4	-33.8	15.1	0.00e+00	0	36	0	8388608	48	16333
2026-01-07 22:20:13.99	20.59	3.22	-32.8	-33.3	15.4	0.00e+00	0	36	0	8388608	46	17237
2026-01-07 22:20:15.00	20.64	3.29	-32.9	-33.3	15.3	0.00e+00	0	36	0	8388608	46	17349
2026-01-07 22:20:16.01	20.68	3.37	-32.7	-33.1	15.5	0.00e+00	0	36	101	8388608	46	16888
2026-01-07 22:20:17.02	20.73	3.44	-32.6	-33.0	15.6	0.00e+00	0	36	101	8388608	46	16786
2026-01-07 22:20:18.03	20.77	3.51	-32.7	-33.2	15.4	0.00e+00	0	36	101	8388608	46	17090
2026-01-07 22:20:19.04	20.82	3.59	-32.6	-33.1	15.5	0.00e+00	0	36	101	8388608	46	16882
2026-01-07 22:20:20.05	20.86	3.66	-32.6	-33.0	15.5	0.00e+00	0	36	101	8388608	46	16753
2026-01-07 22:20:21.06	20.91	3.73	-32.6	-33.1	15.5	0.00e+00	0	36	101	8388608	46	16854
2026-01-07 22:20:22.07	20.95	3.81	-32.5	-32.9	15.6	0.00e+00	0	36	101	8388608	46	16572
2026-01-07 22:20:23.09	21.00	3.88	-32.4	-32.8	15.6	0.00e+00	0	36	101	8388608	46	16366
2026-01-07 22:20:24.10	21.05	3.96	-32.5	-33.0	15.6	0.00e+00	0	36	101	8388608	46	16679
2026-01-07 22:20:25.11	21.09	4.03	-32.4	-32.8	15.7	0.00e+00	0	36	101	8388608	46	16339
2026-01-07 22:20:26.12	21.14	4.11	-32.3	-32.7	15.7	0.00e+00	0	36	101	8388608	46	16210
2026-01-07 22:20:27.13	21.19	4.18	-32.3	-32.8	15.7	0.00e+00	0	36	101	8388608	46	16270
2026-01-07 22:20:28.14	21.24	4.26	-32.3	-32.7	15.7	0.00e+00	0	36	101	8388608	46	16201
2026-01-07 22:20:29.15	21.28	4.34	-32.2	-32.6	15.8	0.00e+00	0	36	101	8388608	46	16030
2026-01-07 22:20:30.16	21.33	4.41	-32.5	-32.9	15.6	0.00e+00	0	36	101	8388608	46	16524
2026-01-07 22:20:31.17	21.38	4.49	-32.2	-32.7	15.7	0.00e+00	0	36	101	8388608	46	16132
2026-01-07 22:20:32.18	21.43	4.57	-32.3	-32.7	15.8	0.00e+00	0	36	101	8388608	46	16213
2026-01-07 22:20:33.20	21.48	4.65	-32.0	-32.5	15.9	0.00e+00	0	36	101	8388608	44	17608
2026-01-07 22:20:34.20	21.53	4.72	-32.0	-32.4	15.8	0.00e+00	0	36	101	8388608	44	17598
2026-01-07 22:20:35.22	21.58	4.80	-32.0	-32.5	15.8	0.00e+00	0	36	101	8388608	44	17661
2026-01-07 22:20:36.23	21.63	4.88	-32.0	-32.5	15.8	0.00e+00	0	36	101	8388608	44	17656
2026-01-07 22:20:37.24	21.68	4.96	-32.1	-32.6	15.9	0.00e+00	0	36	101	8388608	44	17807
2026-01-07 22:20:38.25	21.73	5.04	-32.0	-32.4	15.9	0.00e+00	0	36	101	8388608	44	17486
2026-01-07 22:20:39.26	21.78	5.12	-32.0	-32.5	15.9	0.00e+00	0	36	101	8388608	44	17649
2026-01-07 22:20:40.27	21.83	5.20	-31.7	-32.2	16.0	0.00e+00	0	36	101	8388608	44	17039
2026-01-07 22:20:41.28	21.88	5.28	-31.9	-32.3	15.9	0.00e+00	0	36	101	8388608	44	17392
2026-01-07 22:20:42.29	21.93	5.36	-31.8	-32.3	15.9	0.00e+00	0	36	101	8388608	44	17220
2026-01-07 22:20:43.31	21.99	5.44	-31.9	-32.3	15.9	0.00e+00	0	36	101	8388608	44	17281
2026-01-07 22:20:44.32	22.04	5.52	-31.6	-32.1	16.0	0.00e+00	0	37	101	8388608	44	16877
2026-01-07 22:20:45.33	22.09	5.60	-31.7	-32.1	16.0	0.00e+00	0	37	101	8388608	44	16909
2026-01-07 22:20:46.34	22.14	5.68	-31.6	-32.1	16.0	0.00e+00	0	37	101	8388608	44	16879
2026-01-07 22:20:47.35	22.20	5.76	-31.6	-32.1	16.0	0.00e+00	0	36	101	8388608	44	16816
2026-01-07 22:20:48.36	22.25	5.84	-31.5	-32.0	16.0	0.00e+00	0	36	101	8388608	44	16657
2026-01-07 22:20:49.37	22.31	5.93	-31.5	-31.9	16.1	0.00e+00	0	37	101	8388608	44	16527
2026-01-07 22:20:50.38	22.36	6.01	-31.4	-31.8	16.1	0.00e+00	0	36	101	8388608	44	16374
2026-01-07 22:20:51.39	22.42	6.09	-31.4	-31.8	16.1	0.00e+00	0	37	101	8388608	44	16416
2026-01-07 22:20:52.40	22.47	6.17	-31.3	-31.8	16.1	0.00e+00	0	37	101	8388608	44	16255
2026-01-07 22:20:53.42	22.53	6.26	-31.4	-31.9	16.1	0.00e+00	0	37	101	8388608	44	16428
2026-01-07 22:20:54.43	22.58	6.34	-31.3	-31.7	16.1	0.00e+00	0	37	101	8388608	44	16199
2026-01-07 22:20:55.44	22.64	6.43	-31.3	-31.7	16.1	0.00e+00	0	37	101	8388608	44	16227
2026-01-07 22:20:56.45	22.70	6.51	-31.2	-31.7	16.2	0.00e+00	0	37	101	8388608	44	16081
2026-01-07 22:20:57.46	22.75	6.60	-31.3	-31.7	16.2	0.00e+00	0	37	101	8388608	44	16223
2026-01-07 22:20:58.47	22.81	6.68	-31.2	-31.7	16.1	0.00e+00	0	37	101	8388608	44	16082
2026-01-07 22:20:59.48	22.87	6.77	-31.4	-31.8	16.1	0.00e+00	0	37	101	8388608	44	16337
2026-01-07 22:21:00.49	22.93	6.85	-31.2	-31.7	16.1	0.00e+00	0	37	101	8388608	44	16117
2026-01-07 22:21:01.50	22.99	6.94	-31.2	-31.7	16.1	0.00e+00	0	37	101	8388608	42	18031
2026-01-07 22:21:02.51	23.05	7.03	-31.0	-31.5	16.2	0.00e+00	0	37	101	8388608	42	17673
2026-01-07 22:21:03.52	23.10	7.12	-31.0	-31.4	16.2	0.00e+00	0	37	101	8388608	42	17553
2026-01-07 22:21:04.53	23.16	7.20	-31.2	-31.6	16.2	0.00e+00	0	37	101	8388608	42	17948
2026-01-07 22:21:05.54	23.23	7.29	-31.0	-31.5	16.1	0.00e+00	0	37	101	8388608	42	17662
2026-01-07 22:21:06.56	23.29	7.38	-31.0	-31.4	16.2	0.00e+00	0	37	101	8388608	42	17596
2026-01-07 22:21:07.57	23.35	7.47	-31.0	-31.4	16.2	0.00e+00	0	37	101	8388608	42	17581
2026-01-07 22:21:08.58	23.41	7.56	-30.9	-31.4	16.2	0.00e+00	0	37	101	8388608	42	17490
2026-01-07 22:21:09.59	23.47	7.65	-30.8	-31.3	16.2	0.00e+00	0	37	101	8388608	42	17229
2026-01-07 22:21:10.60	23.53	7.74	-30.8	-31.3	16.2	0.00e+00	0	37	101	8388608	42	17272
2026-01-07 22:21:11.61	23.60	7.83	-30.7	-31.1	16.3	0.00e+00	0	37	101	8388608	42	16988
2026-01-07 22:21:12.62	23.66	7.92	-30.7	-31.2	16.3	0.00e+00	0	37	101	8388608	42	17101
2026-01-07 22:21:13.63	23.72	8.01	-30.6	-31.1	16.4	0.00e+00	0	37	101	8388608	42	16888
2026-01-07 22:21:14.65	23.79	8.10	-30.6	-31.1	16.4	0.00e+00	0	37	101	8388608	42	16817
2026-01-07 22:21:15.66	23.85	8.20	-30.6	-31.1	16.3	0.00e+00	0	37	101	8388608	42	16923
2026-01-07 22:21:16.67	23.92	8.29	-30.6	-31.1	16.3	0.00e+00	0	37	101	8388608	42	16850
2026-01-07 22:21:17.68	23.99	8.38	-30.5	-31.0	16.3	0.00e+00	0	37	101	8388608	42	16656
2026-01-07 22:21:18.69	24.05	8.47	-30.6	-31.1	16.3	0.00e+00	0	37	101	8388608	42	16813
2026-01-07 22:21:19.70	24.12	8.57	-30.5	-31.0	16.3	0.00e+00	0	37	101	8388608	42	16635
2026-01-07 22:21:20.71	24.19	8.66	-30.6	-31.1	16.4	0.00e+00	0	37	101	8388608	42	16898
2026-01-07 22:21:21.72	24.25	8.76	-30.4	-30.9	16.4	0.00e+00	0	37	101	8388608	42	16481
2026-01-07 22:21:22.73	24.32	8.85	-30.3	-30.8	16.5	0.00e+00	0	37	101	8388608	42	16298
2026-01-07 22:21:23.74	24.39	8.95	-30.3	-30.7	16.4	0.00e+00	0	37	101	8388608	42	16221
2026-01-07 22:21:24.75	24.46	9.04	-30.4	-30.8	16.4	0.00e+00	0	37	101	8388608	42	16396
2026-01-07 22:21:25.76	24.53	9.14	-30.2	-30.7	16.4	0.00e+00	0	37	101	8388608	42	16163
2026-01-07 22:21:26.78	24.60	9.24	-30.2	-30.7	16.4	0.00e+00	0	37	101	8388608	42	16121
2026-01-07 22:21:27.79	24.67	9.34	-30.2	-30.7	16.4	0.00e+00	0	37	101	8388608	42	16107
2026-01-07 22:21:28.80	24.74	9.43	-30.3	-30.7	16.3	0.00e+00	0	37	101	8388608	42	16147
2026-01-07 22:21:29.81	24.82	9.53	-30.0	-30.5	16.4	0.00e+00	0	37	101	8388608	42	15790
2026-01-07 22:21:30.82	24.89	9.63	-30.2	-30.7	16.3	0.00e+00	0	37	101	8388608	40	18070
2026-01-07 22:21:31.83	24.96	9.73	-29.9	-30.4	16.4	0.00e+00	0	37	101	8388608	40	17473
2026-01-07 22:21:32.84	25.04	9.83	-30.1	-30.6	16.4	0.00e+00	0	37	101	8388608	40	17816
2026-01-07 22:21:33.85	25.11	9.93	-30.0	-30.4	16.5	0.00e+00	0	37	101	8388608	40	17556
2026-01-07 22:21:34.86	25.19	10.03	-29.9	-30.3	16.5	0.00e+00	0	37	101	8388608	40	17326
2026-01-07 22:21:35.87	25.26	10.13	-29.8	-30.3	16.5	0.00e+00	0	37	101	8388608	40	17329
2026-01-07 22:21:36.88	25.34	10.23	-29.9	-30.3	16.3	0.00e+00	0	37	101	8388608	40	17385
2026-01-07 22:21:37.89	25.41	10.34	-29.8	-30.3	16.5	0.00e+00	0	37	101	8388608	40	17239
2026-01-07 22:21:38.91	25.49	10.44	-29.7	-30.1	16.5	0.00e+00	0	37	101	8388608	40	17002
2026-01-07 22:21:39.92	25.57	10.55	-29.7	-30.1	16.6	0.00e+00	0	37	101	8388608	40	16981
2026-01-07 22:21:40.93	25.65	10.65	-29.8	-30.3	16.5	0.00e+00	0	37	101	8388608	40	17245
2026-01-07 22:21:41.94	25.73	10.75	-29.8	-30.2	16.5	0.00e+00	0	37	101	8388608	40	17163
2026-01-07 22:21:42.95	25.81	10.86	-29.5	-30.0	16.6	0.00e+00	0	37	101	8388608	40	16704
2026-01-07 22:21:43.96	25.89	10.96	-29.6	-30.0	16.6	0.00e+00	0	37	101	8388608	40	16797
2026-01-07 22:21:44.97	25.97	11.07	-29.5	-29.9	16.7	0.00e+00	0	37	101	8388608	40	16568
2026-01-07 22:21:45.98	26.05	11.18	-29.5	-30.0	16.7	0.00e+00	0	37	101	8388608	40	16722
2026-01-07 22:21:46.99	26.14	11.29	-29.7	-30.2	16.6	0.00e+00	0	38	101	8388608	40	17010
2026-01-07 22:21:48.01	26.22	11.39	-29.4	-29.8	16.6	0.00e+00	0	37	101	8388608	40	16396
2026-01-07 22:21:49.02	26.30	11.50	-29.4	-29.9	16.6	0.00e+00	0	37	101	8388608	40	16446
2026-01-07 22:21:50.03	26.39	11.61	-29.2	-29.7	16.6	0.00e+00	0	37	101	8388608	40	16151
2026-01-07 22:21:51.04	26.47	11.72	-29.3	-29.8	16.6	0.00e+00	0	37	101	8388608	40	16270
2026-01-07 22:21:52.05	26.56	11.83	-29.2	-29.6	16.7	0.00e+00	0	37	101	8388608	40	16020
2026-01-07 22:21:53.06	26.65	11.94	-29.2	-29.6	16.8	0.00e+00	0	37	101	8388608	40	16045
2026-01-07 22:21:54.07	26.74	12.06	-29.1	-29.6	16.7	0.00e+00	0	37	101	8388608	40	15928
2026-01-07 22:21:55.08	26.82	12.17	-29.2	-29.6	16.6	0.00e+00	0	37	101	8388608	40	15999
2026-01-07 22:21:56.09	26.91	12.28	-29.1	-29.6	16.7	0.00e+00	0	37	101	8388608	40	15916
2026-01-07 22:21:57.10	27.00	12.39	-29.2	-29.7	16.6	0.00e+00	0	37	101	8388608	40	16104
2026-01-07 22:21:58.11	27.09	12.51	-29.0	-29.4	16.7	0.00e+00	0	37	101	8388608	38	17594
2026-01-07 22:21:59.12	27.19	12.62	-29.2	-29.6	16.7	0.00e+00	0	37	101	8388608	38	17923
2026-01-07 22:22:00.14	27.28	12.74	-29.2	-29.7	16.6	0.00e+00	0	37	101	8388608	38	18059
2026-01-07 22:22:01.15	27.37	12.86	-29.2	-29.6	16.5	0.00e+00	0	37	101	8388608	38	17971
2026-01-07 22:22:02.16	27.47	12.97	-28.8	-29.3	16.6	0.00e+00	0	37	101	8388608	38	17253
2026-01-07 22:22:03.17	27.56	13.09	-28.8	-29.3	16.6	0.00e+00	0	37	101	8388608	38	17284
2026-01-07 22:22:04.18	27.66	13.21	-28.8	-29.2	16.7	0.00e+00	0	37	101	8388608	38	17170
2026-01-07 22:22:05.19	27.76	13.33	-28.8	-29.2	16.7	0.00e+00	0	37	101	8388608	38	17099
2026-01-07 22:22:06.20	27.85	13.45	-28.8	-29.2	16.7	0.00e+00	0	37	101	8388608	38	17176
2026-01-07 22:22:07.21	27.95	13.57	-28.6	-29.1	16.7	0.00e+00	0	38	101	8388608	38	16852
2026-01-07 22:22:08.22	28.05	13.69	-28.7	-29.1	16.8	0.00e+00	0	38	101	8388608	38	16986
2026-01-07 22:22:09.23	28.15	13.81	-28.7	-29.2	16.8	0.00e+00	0	37	101	8388608	38	17065
2026-01-07 22:22:10.24	28.25	13.93	-28.6	-29.0	16.7	0.00e+00	0	38	101	8388608	38	16786
2026-01-07 22:22:11.25	28.36	14.06	-28.7	-29.2	16.7	0.00e+00	0	38	101	8388608	38	17034
2026-01-07 22:22:12.27	28.46	14.18	-28.6	-29.1	16.7	0.00e+00	0	38	101	8388608	38	16859
2026-01-07 22:22:13.28	28.57	14.31	-28.6	-29.0	16.8	0.00e+00	0	37	101	8388608	38	16785
2026-01-07 22:22:14.29	28.67	14.43	-28.6	-29.1	16.8	0.00e+00	0	38	101	8388608	38	16831
2026-01-07 22:22:15.30	28.78	14.56	-28.4	-28.8	16.8	0.00e+00	0	38	101	8388608	38	16425
2026-01-07 22:22:16.31	28.89	14.69	-28.2	-28.7	16.8	0.00e+00	0	38	101	8388608	38	16108
2026-01-07 22:22:17.32	28.99	14.82	-28.2	-28.6	16.8	0.00e+00	0	38	101	8388608	38	15995
2026-01-07 22:22:18.33	29.10	14.94	-28.2	-28.7	16.9	0.00e+00	0	38	101	8388608	38	16138
2026-01-07 22:22:19.34	29.21	15.07	-28.2	-28.7	16.9	0.00e+00	0	38	101	8388608	38	16087
2026-01-07 22:22:20.36	29.33	15.21	-28.2	-28.6	16.9	0.00e+00	0	38	101	8388608	38	15961
2026-01-07 22:22:21.37	29.44	15.34	-28.0	-28.5	16.9	0.00e+00	0	38	101	8388608	38	15773
2026-01-07 22:22:22.38	29.55	15.47	-28.0	-28.5	17.0	0.00e+00	0	38	101	8388608	36	17623
2026-01-07 22:22:23.39	29.67	15.60	-28.1	-28.6	17.0	0.00e+00	0	38	101	8388608	36	17913
2026-01-07 22:22:24.40	29.79	15.74	-27.9	-28.4	17.0	0.00e+00	0	38	101	8388608	36	17442
2026-01-07 22:22:25.41	29.90	15.87	-28.0	-28.5	16.9	0.00e+00	0	38	101	8388608	36	17666
2026-01-07 22:22:26.42	30.02	16.01	-27.9	-28.4	16.9	0.00e+00	0	38	101	8388608	36	17432
2026-01-07 22:22:27.43	30.14	16.14	-28.0	-28.5	17.0	0.00e+00	0	38	101	8388608	36	17608
2026-01-07 22:22:28.44	30.26	16.28	-28.1	-28.5	16.9	0.00e+00	0	38	101	8388608	36	17755
2026-01-07 22:22:29.46	30.39	16.42	-27.6	-28.1	17.0	0.00e+00	0	38	101	8388608	36	16916
2026-01-07 22:22:30.47	30.51	16.56	-27.8	-28.3	16.9	0.00e+00	0	38	101	8388608	36	17202
2026-01-07 22:22:31.48	30.64	16.70	-27.7	-28.1	16.9	0.00e+00	0	38	101	8388608	36	16985
2026-01-07 22:22:32.49	30.76	16.84	-27.7	-28.2	17.0	0.00e+00	0	38	101	8388608	36	17073
2026-01-07 22:22:33.50	30.89	16.98	-27.4	-27.9	17.0	0.00e+00	0	38	101	8388608	36	16526
2026-01-07 22:22:34.51	31.02	17.12	-27.6	-28.1	17.0	0.00e+00	0	38	101	8388608	36	16827
2026-01-07 22:22:35.52	31.15	17.27	-27.4	-27.8	17.0	0.00e+00	0	38	101	8388608	36	16373
2026-01-07 22:22:36.53	31.28	17.41	-27.4	-27.8	17.0	0.00e+00	0	38	101	8388608	36	16423
2026-01-07 22:22:37.54	31.42	17.56	-27.3	-27.7	17.0	0.00e+00	0	38	101	8388608	36	16229
2026-01-07 22:22:38.55	31.55	17.70	-27.5	-27.9	17.0	0.00e+00	0	38	101	8388608	36	16617
2026-01-07 22:22:39.57	31.69	17.85	-27.2	-27.6	17.1	0.00e+00	0	38	101	8388608	36	16043
2026-01-07 22:22:40.57	31.83	18.00	-27.2	-27.6	17.0	0.00e+00	0	38	101	8388608	36	15990
2026-01-07 22:22:41.59	31.97	18.15	-27.1	-27.5	17.1	0.00e+00	0	38	101	8388608	36	15834
2026-01-07 22:22:42.60	32.11	18.30	-27.0	-27.5	17.0	0.00e+00	0	38	101	8388608	36	15804
2026-01-07 22:22:43.61	32.25	18.46	-27.1	-27.6	17.0	0.00e+00	0	38	101	8388608	34	17856
2026-01-07 22:22:44.62	32.39	18.61	-27.1	-27.6	17.0	0.00e+00	0	38	101	8388608	34	17807
2026-01-07 22:22:45.63	32.54	18.76	-26.9	-27.4	17.1	0.00e+00	0	38	101	8388608	34	17535
2026-01-07 22:22:46.64	32.69	18.92	-27.0	-27.5	17.1	0.00e+00	0	38	101	8388608	34	17697
2026-01-07 22:22:47.65	32.84	19.07	-26.8	-27.3	17.0	0.00e+00	0	38	101	8388608	34	17277
2026-01-07 22:22:48.66	32.99	19.23	-26.8	-27.3	17.0	0.00e+00	0	38	101	8388608	34	17207
2026-01-07 22:22:49.67	33.14	19.39	-26.8	-27.3	17.1	0.00e+00	0	38	101	8388608	34	17234
2026-01-07 22:22:50.68	33.29	19.55	-26.8	-27.3	17.1	0.00e+00	0	38	101	8388608	34	17236
2026-01-07 22:22:51.70	33.45	19.71	-26.8	-27.3	17.1	0.00e+00	0	38	101	8388608	34	17301
2026-01-07 22:22:52.71	33.61	19.87	-26.7	-27.2	17.1	0.00e+00	0	38	101	8388608	34	17021
2026-01-07 22:22:53.72	33.77	20.03	-26.7	-27.2	17.1	0.00e+00	0	38	101	8388608	34	17063
2026-01-07 22:22:54.73	33.93	20.20	-26.8	-27.3	17.1	0.00e+00	0	38	101	8388608	34	17277
2026-01-07 22:22:55.74	34.10	20.36	-26.8	-27.2	17.1	0.00e+00	0	38	101	8388608	34	17168
2026-01-07 22:22:56.75	34.26	20.53	-26.6	-27.1	17.1	0.00e+00	0	38	101	8388608	34	16842
2026-01-07 22:22:57.76	34.43	20.70	-26.7	-27.2	17.1	0.00e+00	0	38	101	8388608	34	17103
2026-01-07 22:22:58.77	34.60	20.86	-26.5	-26.9	17.0	0.00e+00	0	38	101	8388608	34	16570
2026-01-07 22:22:59.78	34.77	21.03	-26.5	-27.0	17.0	0.00e+00	0	38	101	8388608	34	16732
2026-01-07 22:23:00.79	34.94	21.21	-27.0	-27.4	17.0	0.00e+00	0	38	101	8388608	34	17534
2026-01-07 22:23:01.80	35.12	21.38	-26.7	-27.1	17.2	0.00e+00	0	38	101	8388608	34	16964
2026-01-07 22:23:02.82	35.30	21.55	-26.2	-26.6	17.2	0.00e+00	0	38	101	8388608	34	16016
2026-01-07 22:23:03.83	35.48	21.73	-26.3	-26.7	17.2	0.00e+00	0	38	101	8388608	34	16186
2026-01-07 22:23:04.84	35.66	21.90	-26.3	-26.8	17.2	0.00e+00	0	38	101	8388608	34	16341
2026-01-07 22:23:05.85	35.85	22.08	-26.4	-26.9	17.1	0.00e+00	0	38	101	8388608	34	16480
2026-01-07 22:23:06.86	36.04	22.26	-26.0	-26.5	17.2	0.00e+00	0	38	101	8388608	34	15702
2026-01-07 22:23:07.87	36.23	22.44	-26.1	-26.5	17.2	0.00e+00	0	38	101	8388608	32	17724
2026-01-07 22:23:08.88	36.42	22.62	-26.1	-26.5	17.2	0.00e+00	0	38	101	8388608	32	17728
2026-01-07 22:23:09.89	36.61	22.80	-26.2	-26.7	17.2	0.00e+00	0	38	101	8388608	32	18032
2026-01-07 22:23:10.90	36.81	22.99	-25.9	-26.3	17.2	0.00e+00	0	38	101	8388608	32	17318
2026-01-07 22:23:11.92	37.01	23.17	-25.8	-26.3	17.2	0.00e+00	0	38	101	8388608	32	17313
2026-01-07 22:23:12.93	37.21	23.36	-25.8	-26.3	17.0	0.00e+00	0	38	101	8388608	32	17248
2026-01-07 22:23:13.94	37.42	23.55	-25.7	-26.2	17.1	0.00e+00	0	38	101	8388608	32	17079
2026-01-07 22:23:14.95	37.63	23.74	-25.5	-26.0	17.2	0.00e+00	0	38	101	8388608	32	16668
2026-01-07 22:23:15.96	37.84	23.93	-25.6	-26.0	17.2	0.00e+00	0	38	101	8388608	32	16786
2026-01-07 22:23:16.97	38.05	24.12	-25.5	-25.9	17.2	0.00e+00	0	38	101	8388608	32	16597
2026-01-07 22:23:17.98	38.27	24.31	-25.4	-25.9	17.2	0.00e+00	0	38	101	8388608	32	16471
2026-01-07 22:23:18.99	38.49	24.51	-25.4	-25.8	17.2	0.00e+00	0	38	101	8388608	32	16376
2026-01-07 22:23:20.00	38.71	24.70	-25.3	-25.8	17.2	0.00e+00	0	38	101	8388608	32	16270
2026-01-07 22:23:21.01	38.93	24.90	-25.3	-25.8	17.3	0.00e+00	0	38	101	8388608	32	16244
2026-01-07 22:23:22.02	39.16	25.10	-25.3	-25.8	17.3	0.00e+00	0	38	101	8388608	32	16302
2026-01-07 22:23:23.03	39.39	25.30	-25.3	-25.8	17.3	0.00e+00	0	38	101	8388608	32	16261
2026-01-07 22:23:24.05	39.63	25.50	-25.3	-25.8	17.3	0.00e+00	0	38	101	8388608	32	16356
2026-01-07 22:23:25.06	39.87	25.70	-25.2	-25.7	17.3	0.00e+00	0	38	101	8388608	32	16099
2026-01-07 22:23:26.07	40.11	25.91	-25.0	-25.5	17.3	0.00e+00	0	38	101	8388608	30	17733
2026-01-07 22:23:27.08	40.36	26.11	-25.2	-25.6	17.2	0.00e+00	0	38	101	8388608	30	18012
2026-01-07 22:23:28.09	40.60	26.32	-24.9	-25.4	17.3	0.00e+00	0	38	101	8388608	30	17491
2026-01-07 22:23:29.10	40.86	26.53	-25.1	-25.6	17.3	0.00e+00	0	38	101	8388608	30	17899
2026-01-07 22:23:30.11	41.11	26.74	-24.9	-25.3	17.3	0.00e+00	0	38	101	8388608	30	17353
2026-01-07 22:23:31.12	41.37	26.95	-25.0	-25.4	17.3	0.00e+00	0	38	101	8388608	30	17522
2026-01-07 22:23:32.13	41.63	27.16	-24.9	-25.3	17.3	0.00e+00	0	38	101	8388608	30	17373
2026-01-07 22:23:33.14	41.90	27.38	-24.7	-25.2	17.2	0.00e+00	0	38	101	8388608	30	17060
2026-01-07 22:23:34.16	42.17	27.59	-24.8	-25.3	17.1	0.00e+00	0	38	101	8388608	30	17314
2026-01-07 22:23:35.17	42.45	27.81	-24.8	-25.3	17.2	0.00e+00	0	38	101	8388608	30	17318
2026-01-07 22:23:36.18	42.73	28.03	-24.6	-25.1	17.3	0.00e+00	0	38	101	8388608	30	16935
2026-01-07 22:23:37.19	43.01	28.25	-24.7	-25.2	17.4	0.00e+00	0	38	101	8388608	30	17101
2026-01-07 22:23:38.20	43.30	28.47	-24.5	-25.0	17.4	0.00e+00	0	38	101	8388608	30	16646
2026-01-07 22:23:39.21	43.59	28.69	-24.7	-25.1	17.3	0.00e+00	0	38	101	8388608	30	16957
2026-01-07 22:23:40.22	43.88	28.92	-24.6	-25.1	17.3	0.00e+00	0	38	101	8388608	30	16854
2026-01-07 22:23:41.23	44.18	29.14	-24.5	-24.9	17.4	0.00e+00	0	38	101	8388608	30	16584
2026-01-07 22:23:42.24	44.49	29.37	-24.4	-24.8	17.3	0.00e+00	0	38	101	8388608	30	16361
2026-01-07 22:23:43.25	44.80	29.60	-24.4	-24.8	17.3	0.00e+00	0	38	101	8388608	30	16395
2026-01-07 22:23:44.27	45.11	29.83	-24.2	-24.7	17.4	0.00e+00	0	38	101	8388608	30	16170
2026-01-07 22:23:45.28	45.43	30.06	-24.3	-24.7	17.3	0.00e+00	0	38	101	8388608	30	16229
2026-01-07 22:23:46.29	45.76	30.29	-24.3	-24.7	17.3	0.00e+00	0	38	101	8388608	30	16200
2026-01-07 22:23:47.30	46.08	30.53	-24.1	-24.5	17.4	0.00e+00	0	38	101	8388608	30	15849
2026-01-07 22:23:48.31	46.42	30.76	-24.2	-24.6	17.4	0.00e+00	0	38	101	8388608	30	16031
2026-01-07 22:23:49.32	46.76	31.00	-24.1	-24.6	17.4	0.00e+00	0	38	101	8388608	30	15981
2026-01-07 22:23:50.33	47.10	31.23	-24.1	-24.6	17.4	0.00e+00	0	38	101	8388608	30	15939
2026-01-07 22:23:51.34	47.45	31.47	-23.9	-24.4	17.5	0.00e+00	0	38	101	8388608	28	17518
2026-01-07 22:23:52.35	47.81	31.71	-23.9	-24.3	17.3	0.00e+00	0	38	101	8388608	28	17363
2026-01-07 22:23:53.37	48.17	31.95	-24.0	-24.4	17.4	0.00e+00	0	38	101	8388608	28	17542
2026-01-07 22:23:54.38	48.54	32.20	-23.9	-24.4	17.4	0.00e+00	0	38	101	8388608	28	17430
2026-01-07 22:23:55.39	48.91	32.44	-23.7	-24.2	17.4	0.00e+00	0	38	101	8388608	28	17083
2026-01-07 22:23:56.40	49.29	32.68	-23.8	-24.3	17.5	0.00e+00	0	38	101	8388608	28	17251
2026-01-07 22:23:57.41	49.67	32.93	-23.8	-24.3	17.4	0.00e+00	0	38	101	8388608	28	17321
2026-01-07 22:23:58.42	50.07	33.18	-23.7	-24.2	17.5	0.00e+00	0	38	101	8388608	28	17081
2026-01-07 22:23:59.43	50.46	33.42	-23.6	-24.1	17.4	0.00e+00	0	38	101	8388608	28	16823
2026-01-07 22:24:00.44	50.87	33.67	-23.7	-24.2	17.4	0.00e+00	0	38	101	8388608	28	17047
2026-01-07 22:24:01.45	51.28	33.92	-23.6	-24.0	17.5	0.00e+00	0	38	101	8388608	28	16799
2026-01-07 22:24:02.46	51.69	34.17	-23.6	-24.0	17.4	0.00e+00	0	38	101	8388608	28	16766
2026-01-07 22:24:03.47	52.12	34.42	-23.5	-23.9	17.4	0.00e+00	0	38	101	8388608	28	16613
2026-01-07 22:24:04.49	52.55	34.67	-23.5	-24.0	17.5	0.00e+00	0	38	101	8388608	28	16702
2026-01-07 22:24:05.49	52.99	34.92	-23.4	-23.8	17.6	0.00e+00	0	38	101	8388608	28	16371
2026-01-07 22:24:06.51	53.43	35.18	-23.4	-23.9	17.4	0.00e+00	0	38	101	8388608	28	16523
2026-01-07 22:24:07.52	53.89	35.43	-23.4	-23.9	17.4	0.00e+00	0	38	101	8388608	28	16529
2026-01-07 22:24:08.53	54.35	35.68	-23.3	-23.7	17.4	0.00e+00	0	38	101	8388608	28	16232
2026-01-07 22:24:09.54	54.81	35.94	-23.3	-23.8	17.4	0.00e+00	0	38	101	8388608	28	16260
2026-01-07 22:24:10.55	55.29	36.19	-23.2	-23.7	17.5	0.00e+00	0	38	101	8388608	28	16126
2026-01-07 22:24:11.56	55.77	36.44	-23.2	-23.7	17.5	0.00e+00	0	38	101	8388608	28	16067
2026-01-07 22:24:12.57	56.26	36.70	-23.2	-23.7	17.5	0.00e+00	0	38	101	8388608	28	16054
2026-01-07 22:24:13.58	56.76	36.95	-23.3	-23.7	17.4	0.00e+00	0	38	101	8388608	28	16211
2026-01-07 22:24:14.59	57.27	37.21	-23.1	-23.5	17.4	0.00e+00	0	38	101	8388608	28	15802
2026-01-07 22:24:15.60	57.78	37.46	-23.1	-23.6	17.5	0.00e+00	0	38	101	8388608	26	17930
2026-01-07 22:24:16.61	58.31	37.71	-23.2	-23.7	17.5	0.00e+00	0	38	101	8388608	26	18113
2026-01-07 22:24:17.62	58.84	37.97	-23.2	-23.7	17.4	0.00e+00	0	38	101	8388608	26	18148
2026-01-07 22:24:18.63	59.38	38.22	-23.3	-23.8	17.4	0.00e+00	0	38	101	8388608	26	18228
2026-01-07 22:24:19.65	59.93	38.48	-23.1	-23.5	17.4	0.00e+00	0	38	101	8388608	26	17789
2026-01-07 22:24:20.65	60.49	38.72	-23.0	-23.5	17.5	0.00e+00	0	38	101	8388608	26	17639
2026-01-07 22:24:21.67	61.06	38.98	-22.9	-23.4	17.4	0.00e+00	0	38	101	8388608	26	17510
2026-01-07 22:24:22.68	61.64	39.23	-22.9	-23.4	17.5	0.00e+00	0	38	101	8388608	26	17488
2026-01-07 22:24:23.69	62.23	39.48	-23.0	-23.4	17.4	0.00e+00	0	38	101	8388608	26	17580
2026-01-07 22:24:24.70	62.82	39.72	-22.9	-23.3	17.5	0.00e+00	0	38	101	8388608	26	17390
2026-01-07 22:24:25.71	63.43	39.97	-23.0	-23.5	17.5	0.00e+00	0	38	101	8388608	26	17647
2026-01-07 22:24:26.72	64.04	40.22	-23.0	-23.5	17.5	0.00e+00	0	38	101	8388608	26	17699
2026-01-07 22:24:27.73	64.67	40.46	-22.9	-23.3	17.5	0.00e+00	0	38	101	8388608	26	17375
2026-01-07 22:24:28.74	65.30	40.70	-22.8	-23.3	17.5	0.00e+00	0	38	101	8388608	26	17250
2026-01-07 22:24:29.75	65.94	40.94	-22.9	-23.3	17.4	0.00e+00	0	38	101	8388608	26	17340
2026-01-07 22:24:30.76	66.60	41.18	-22.8	-23.2	17.5	0.00e+00	0	38	101	8388608	26	17127
2026-01-07 22:24:31.77	67.26	41.41	-22.9	-23.4	17.5	0.00e+00	0	38	101	8388608	26	17436
2026-01-07 22:24:32.78	67.94	41.64	-22.8	-23.2	17.5	0.00e+00	0	38	101	8388608	26	17188
2026-01-07 22:24:33.80	68.63	41.88	-22.7	-23.2	17.5	0.00e+00	0	38	101	8388608	26	17056
2026-01-07 22:24:34.81	69.32	42.10	-22.8	-23.2	17.5	0.00e+00	0	38	101	8388608	26	17193
2026-01-07 22:24:35.82	70.03	42.33	-22.7	-23.1	17.5	0.00e+00	0	38	101	8388608	26	16995
2026-01-07 22:24:36.83	70.74	42.55	-22.7	-23.2	17.5	0.00e+00	0	38	101	8388608	26	17064
2026-01-07 22:24:37.84	71.47	42.76	-22.7	-23.2	17.4	0.00e+00	0	38	101	8388608	26	17040
2026-01-07 22:24:38.85	72.20	42.98	-22.7	-23.2	17.4	0.00e+00	0	38	101	8388608	26	17037
2026-01-07 22:24:39.86	72.95	43.19	-22.7	-23.2	17.5	0.00e+00	0	38	101	8388608	26	17038
2026-01-07 22:24:40.87	73.70	43.40	-22.6	-23.1	17.5	0.00e+00	0	38	101	8388608	26	16925
2026-01-07 22:24:41.88	74.47	43.60	-22.7	-23.1	17.5	0.00e+00	0	38	101	8388608	26	16972
2026-01-07 22:24:42.89	75.24	43.80	-22.7	-23.2	17.4	0.00e+00	0	38	101	8388608	26	17098
2026-01-07 22:24:43.90	76.03	43.99	-22.7	-23.1	17.4	0.00e+00	0	38	101	8388608	26	16929
2026-01-07 22:24:44.91	76.82	44.18	-22.8	-23.3	17.5	0.00e+00	0	38	101	8388608	26	17322
2026-01-07 22:24:45.93	77.63	44.36	-22.6	-23.1	17.5	0.00e+00	0	38	101	8388608	26	16912
2026-01-07 22:24:46.94	78.45	44.54	-22.6	-23.1	17.5	0.00e+00	0	38	101	8388608	26	16815
2026-01-07 22:24:47.95	79.27	44.71	-22.8	-23.2	17.5	0.00e+00	0	38	101	8388608	26	17169
2026-01-07 22:24:48.96	80.10	44.88	-22.8	-23.2	17.5	0.00e+00	0	38	101	8388608	26	17141
2026-01-07 22:24:49.97	80.94	45.04	-22.6	-23.1	17.5	0.00e+00	0	38	101	8388608	26	16884
2026-01-07 22:24:50.98	81.79	45.20	-22.7	-23.1	17.5	0.00e+00	0	38	101	8388608	26	16968
2026-01-07 22:24:51.99	82.65	45.35	-22.7	-23.2	17.5	0.00e+00	0	38	101	8388608	26	17096
2026-01-07 22:24:53.00	83.52	45.49	-22.6	-23.1	17.4	0.00e+00	0	38	101	8388608	26	16908
2026-01-07 22:24:54.02	84.40	45.63	-22.8	-23.2	17.4	0.00e+00	0	38	101	8388608	26	17189
2026-01-07 22:24:55.03	85.29	45.76	-22.6	-23.1	17.5	0.00e+00	0	38	101	8388608	26	16889
2026-01-07 22:24:56.04	86.18	45.89	-22.8	-23.2	17.4	0.00e+00	0	38	101	8388608	26	17195
2026-01-07 22:24:57.05	87.07	46.01	-22.7	-23.2	17.5	0.00e+00	0	38	101	8388608	26	17050
2026-01-07 22:24:58.06	87.98	46.12	-22.8	-23.3	17.4	0.00e+00	0	38	101	8388608	26	17290
2026-01-07 22:24:59.07	88.89	46.22	-22.8	-23.3	17.5	0.00e+00	0	38	101	8388608	26	17216
2026-01-07 22:25:00.08	89.80	46.31	-22.9	-23.4	17.5	0.00e+00	0	38	101	8388608	26	17425
2026-01-07 22:25:01.09	90.72	46.40	-22.8	-23.3	17.5	0.00e+00	0	38	101	8388608	26	17221
2026-01-07 22:25:02.10	91.65	46.48	-22.8	-23.3	17.5	0.00e+00	0	38	101	8388608	26	17244
2026-01-07 22:25:03.11	92.58	46.55	-22.8	-23.2	17.5	0.00e+00	0	38	101	8388608	26	17174
2026-01-07 22:25:04.12	93.52	46.62	-22.9	-23.4	17.4	0.00e+00	0	38	101	8388608	26	17410
2026-01-07 22:25:05.13	94.46	46.68	-22.8	-23.2	17.5	0.00e+00	0	38	101	8388608	26	17164
2026-01-07 22:25:06.14	95.40	46.72	-22.9	-23.3	17.5	0.00e+00	0	38	101	8388608	26	17306
2026-01-07 22:25:07.15	96.34	46.76	-22.8	-23.3	17.4	0.00e+00	0	38	101	8388608	26	17289
2026-01-07 22:25:08.17	97.30	46.80	-22.8	-23.3	17.5	0.00e+00	0	38	101	8388608	26	17329
2026-01-07 22:25:09.18	98.25	46.82	-22.9	-23.3	17.5	0.00e+00	0	38	101	8388608	26	17394
2026-01-07 22:25:10.19	99.20	46.84	-22.9	-23.4	17.5	0.00e+00	0	38	101	8388608	26	17415
2026-01-07 22:25:11.20	100.15	46.84	-23.0	-23.4	17.5	0.00e+00	0	38	101	8388608	26	17594
2026-01-07 22:25:12.21	101.10	46.84	-23.0	-23.5	17.5	0.00e+00	0	38	101	8388608	26	17672
2026-01-07 22:25:13.22	102.06	46.84	-23.0	-23.5	17.5	0.00e+00	0	38	101	8388608	26	17694
2026-01-07 22:25:14.23	103.01	46.82	-23.0	-23.5	17.5	0.00e+00	0	38	101	8388608	26	17611
2026-01-07 22:25:15.24	103.96	46.79	-23.1	-23.6	17.5	0.00e+00	0	38	101	8388608	26	17825
2026-01-07 22:25:16.26	104.91	46.76	-23.1	-23.5	17.4	0.00e+00	0	38	101	8388608	26	17756
2026-01-07 22:25:17.27	105.86	46.72	-23.1	-23.6	17.4	0.00e+00	0	38	101	8388608	26	17833
2026-01-07 22:25:18.28	106.80	46.67	-23.1	-23.6	17.5	0.00e+00	0	38	101	8388608	26	17941
2026-01-07 22:25:19.29	107.74	46.61	-23.1	-23.6	17.5	0.00e+00	0	38	101	8388608	26	17843
2026-01-07 22:25:20.30	108.67	46.54	-23.2	-23.7	17.5	0.00e+00	0	38	101	8388608	26	18087
2026-01-07 22:25:21.31	109.60	46.47	-23.2	-23.7	17.4	0.00e+00	0	38	101	8388608	26	18041
2026-01-07 22:25:22.32	110.53	46.39	-23.3	-23.8	17.5	0.00e+00	0	38	101	8388608	26	18243
2026-01-07 22:25:23.33	111.45	46.30	-23.2	-23.7	17.4	0.00e+00	0	38	101	8388608	26	18144
2026-01-07 22:25:24.34	112.37	46.20	-23.3	-23.8	17.5	0.00e+00	0	38	101	8388608	26	18317
2026-01-07 22:25:25.35	113.28	46.10	-23.3	-23.7	17.4	0.00e+00	0	38	101	8388608	26	18188
2026-01-07 22:25:26.36	114.18	45.99	-23.4	-23.9	17.4	0.00e+00	0	38	101	8388608	26	18531
2026-01-07 22:25:27.38	115.08	45.87	-23.4	-23.9	17.4	0.00e+00	0	38	101	8388608	26	18492
2026-01-07 22:25:28.39	115.97	45.74	-23.4	-23.9	17.4	0.00e+00	0	38	101	8388608	26	18582
2026-01-07 22:25:29.40	116.86	45.61	-23.5	-24.0	17.4	0.00e+00	0	38	101	8388608	26	18732
2026-01-07 22:25:30.41	117.73	45.47	-23.5	-24.0	17.4	0.00e+00	0	38	101	8388608	26	18666
2026-01-07 22:25:31.42	118.60	45.32	-23.5	-24.0	17.5	0.00e+00	0	38	101	8388608	26	18722
2026-01-07 22:25:32.43	119.45	45.17	-23.5	-24.0	17.5	0.00e+00	0	38	101	8388608	26	18700
2026-01-07 22:25:33.44	120.30	45.02	-23.6	-24.1	17.4	0.00e+00	0	38	101	8388608	26	19030
2026-01-07 22:25:34.45	121.14	44.85	-23.6	-24.0	17.5	0.00e+00	0	38	101	8388608	26	18826
2026-01-07 22:25:35.46	121.98	44.68	-23.6	-24.1	17.5	0.00e+00	0	38	101	8388608	26	18951
2026-01-07 22:25:36.48	122.81	44.51	-23.7	-24.2	17.5	0.00e+00	0	38	101	8388608	26	19134
2026-01-07 22:25:37.49	123.62	44.33	-23.7	-24.2	17.4	0.00e+00	0	38	101	8388608	26	19143
2026-01-07 22:25:38.50	124.42	44.14	-23.9	-24.4	17.4	0.00e+00	0	38	101	8388608	26	19542
2026-01-07 22:25:39.51	125.22	43.95	-23.8	-24.3	17.4	0.00e+00	0	38	101	8388608	26	19315
2026-01-07 22:25:40.52	126.00	43.76	-24.0	-24.4	17.4	0.00e+00	0	38	101	8388608	26	19726
2026-01-07 22:25:41.53	126.78	43.56	-23.9	-24.4	17.4	0.00e+00	0	38	101	8388608	26	19548
2026-01-07 22:25:42.54	127.54	43.36	-24.0	-24.5	17.5	0.00e+00	0	38	101	8388608	28	17720
2026-01-07 22:25:43.55	128.29	43.15	-23.9	-24.4	17.4	0.00e+00	0	38	101	8388608	28	17490
2026-01-07 22:25:44.57	129.05	42.94	-24.1	-24.5	17.4	0.00e+00	0	38	101	8388608	28	17781
2026-01-07 22:25:45.58	129.78	42.72	-24.2	-24.6	17.4	0.00e+00	0	39	101	8388608	28	17987
2026-01-07 22:25:46.59	130.50	42.50	-24.0	-24.5	17.5	0.00e+00	0	38	101	8388608	28	17635
2026-01-07 22:25:47.60	131.22	42.28	-24.2	-24.7	17.4	0.00e+00	0	38	101	8388608	28	18042
2026-01-07 22:25:48.61	131.92	42.05	-24.4	-24.9	17.4	0.00e+00	0	38	101	8388608	28	18488
2026-01-07 22:25:49.62	132.61	41.83	-24.4	-24.8	17.4	0.00e+00	0	39	101	8388608	28	18430
2026-01-07 22:25:50.63	133.30	41.60	-24.2	-24.7	17.4	0.00e+00	0	38	101	8388608	28	18117
2026-01-07 22:25:51.64	133.97	41.36	-24.3	-24.7	17.4	0.00e+00	0	38	101	8388608	28	18188
2026-01-07 22:25:52.65	134.63	41.13	-24.3	-24.7	17.4	0.00e+00	0	38	101	8388608	28	18220
2026-01-07 22:25:53.66	135.29	40.89	-24.4	-24.9	17.4	0.00e+00	0	38	101	8388608	28	18477
2026-01-07 22:25:54.67	135.93	40.65	-24.4	-24.9	17.4	0.00e+00	0	38	101	8388608	28	18460
2026-01-07 22:25:55.68	136.56	40.41	-24.5	-24.9	17.4	0.00e+00	0	38	101	8388608	28	18639
2026-01-07 22:25:56.69	137.19	40.16	-24.5	-25.0	17.3	0.00e+00	0	38	101	8388608	28	18713
2026-01-07 22:25:57.70	137.80	39.92	-24.5	-25.0	17.4	0.00e+00	0	39	101	8388608	28	18770
2026-01-07 22:25:58.72	138.41	39.67	-24.6	-25.0	17.4	0.00e+00	0	39	101	8388608	28	18852
2026-01-07 22:25:59.73	139.01	39.42	-24.6	-25.1	17.5	0.00e+00	0	38	101	8388608	28	18986
2026-01-07 22:26:00.74	139.59	39.17	-24.7	-25.1	17.3	0.00e+00	0	38	101	8388608	28	19053
2026-01-07 22:26:01.75	140.17	38.92	-24.7	-25.1	17.3	0.00e+00	0	38	101	8388608	28	19052
2026-01-07 22:26:02.76	140.74	38.67	-24.8	-25.3	17.3	0.00e+00	0	39	101	8388608	28	19440
2026-01-07 22:26:03.77	141.29	38.41	-24.8	-25.3	17.3	0.00e+00	0	38	101	8388608	28	19461
2026-01-07 22:26:04.78	141.84	38.16	-24.9	-25.3	17.4	0.00e+00	0	38	101	8388608	28	19480
2026-01-07 22:26:05.79	142.38	37.91	-25.1	-25.6	17.3	0.00e+00	0	38	101	8388608	28	20039
2026-01-07 22:26:06.80	142.91	37.65	-24.9	-25.4	17.3	0.00e+00	0	38	101	8388608	30	17499
2026-01-07 22:26:07.82	143.44	37.40	-25.1	-25.5	17.4	0.00e+00	0	38	101	8388608	30	17755
2026-01-07 22:26:08.83	143.96	37.14	-25.2	-25.7	17.3	0.00e+00	0	38	101	8388608	30	18084
2026-01-07 22:26:09.84	144.46	36.89	-25.1	-25.6	17.3	0.00e+00	0	38	101	8388608	30	17954
2026-01-07 22:26:10.85	144.96	36.63	-25.3	-25.8	17.4	0.00e+00	0	38	101	8388608	30	18261
2026-01-07 22:26:11.86	145.45	36.38	-25.3	-25.8	17.4	0.00e+00	0	38	101	8388608	30	18317
2026-01-07 22:26:12.87	145.93	36.12	-25.3	-25.8	17.3	0.00e+00	0	38	101	8388608	30	18294
2026-01-07 22:26:13.88	146.41	35.87	-25.3	-25.8	17.4	0.00e+00	0	38	101	8388608	30	18305
2026-01-07 22:26:14.89	146.87	35.61	-25.4	-25.9	17.3	0.00e+00	0	38	101	8388608	30	18436
2026-01-07 22:26:15.90	147.33	35.36	-25.4	-25.9	17.3	0.00e+00	0	39	101	8388608	30	18445
2026-01-07 22:26:16.91	147.78	35.11	-25.4	-25.9	17.3	0.00e+00	0	38	101	8388608	30	18534
2026-01-07 22:26:17.92	148.23	34.85	-25.5	-26.0	17.3	0.00e+00	0	38	101	8388608	30	18710
2026-01-07 22:26:18.94	148.67	34.60	-25.5	-26.0	17.3	0.00e+00	0	38	101	8388608	30	18722
2026-01-07 22:26:19.95	149.10	34.35	-25.6	-26.1	17.3	0.00e+00	0	39	101	8388608	30	18990
2026-01-07 22:26:20.96	149.52	34.10	-25.7	-26.2	17.3	0.00e+00	0	38	101	8388608	30	19185
2026-01-07 22:26:21.97	149.94	33.85	-25.7	-26.2	17.3	0.00e+00	0	38	101	8388608	30	19111
2026-01-07 22:26:22.98	150.35	33.60	-25.7	-26.2	17.3	0.00e+00	0	39	101	8388608	30	19255
2026-01-07 22:26:23.99	150.75	33.35	-25.8	-26.3	17.3	0.00e+00	0	39	101	8388608	30	19308
2026-01-07 22:26:25.00	151.14	33.10	-25.8	-26.3	17.3	0.00e+00	0	38	101	8388608	30	19353
2026-01-07 22:26:26.01	151.54	32.85	-25.9	-26.4	17.3	0.00e+00	0	38	101	8388608	30	19645
2026-01-07 22:26:27.02	151.92	32.61	-25.9	-26.4	17.3	0.00e+00	0	38	101	8388608	30	19593
2026-01-07 22:26:28.03	152.30	32.36	-26.0	-26.4	17.3	0.00e+00	0	39	101	8388608	30	19716
2026-01-07 22:26:29.04	152.67	32.12	-26.0	-26.5	17.2	0.00e+00	0	38	101	8388608	32	17685
2026-01-07 22:26:30.05	153.03	31.88	-26.1	-26.6	17.2	0.00e+00	0	38	101	8388608	32	17972
2026-01-07 22:26:31.06	153.40	31.64	-26.1	-26.6	17.3	0.00e+00	0	38	101	8388608	32	17899
2026-01-07 22:26:32.07	153.75	31.40	-26.1	-26.6	17.2	0.00e+00	0	38	101	8388608	32	17938
2026-01-07 22:26:33.09	154.10	31.15	-26.2	-26.7	17.2	0.00e+00	0	38	101	8388608	32	18055
2026-01-07 22:26:34.10	154.45	30.92	-26.2	-26.7	17.2	0.00e+00	0	38	101	8388608	32	18135
2026-01-07 22:26:35.11	154.78	30.68	-26.3	-26.7	17.3	0.00e+00	0	38	101	8388608	32	18196
2026-01-07 22:26:36.12	155.12	30.45	-26.4	-26.8	17.2	0.00e+00	0	39	101	8388608	32	18428
2026-01-07 22:26:37.13	155.45	30.21	-26.5	-26.9	17.3	0.00e+00	0	38	101	8388608	32	18643
2026-01-07 22:26:38.14	155.77	29.98	-26.4	-26.9	17.2	0.00e+00	0	39	101	8388608	32	18479
2026-01-07 22:26:39.15	156.09	29.75	-26.5	-27.0	17.3	0.00e+00	0	39	101	8388608	32	18698
2026-01-07 22:26:40.16	156.40	29.52	-26.5	-27.0	17.2	0.00e+00	0	39	101	8388608	32	18690
2026-01-07 22:26:41.17	156.71	29.29	-26.6	-27.1	17.3	0.00e+00	0	39	101	8388608	32	18876
2026-01-07 22:26:42.18	157.01	29.06	-26.7	-27.2	17.2	0.00e+00	0	38	101	8388608	32	19098
2026-01-07 22:26:43.20	157.32	28.83	-26.6	-27.1	17.2	0.00e+00	0	38	101	8388608	32	19009
2026-01-07 22:26:44.21	157.61	28.61	-26.7	-27.2	17.2	0.00e+00	0	39	101	8388608	32	19110
2026-01-07 22:26:45.22	157.90	28.39	-26.8	-27.2	17.2	0.00e+00	0	38	101	8388608	32	19265
2026-01-07 22:26:46.23	158.19	28.17	-26.8	-27.3	17.2	0.00e+00	0	39	101	8388608	32	19339
2026-01-07 22:26:47.24	158.47	27.95	-26.9	-27.4	17.1	0.00e+00	0	39	101	8388608	32	19600
2026-01-07 22:26:48.25	158.75	27.73	-26.8	-27.3	17.2	0.00e+00	0	38	101	8388608	32	19429
2026-01-07 22:26:49.26	159.02	27.51	-27.0	-27.4	17.2	0.00e+00	0	39	101	8388608	32	19733
2026-01-07 22:26:50.27	159.29	27.29	-26.9	-27.4	17.2	0.00e+00	0	38	101	8388608	32	19664
2026-01-07 22:26:51.28	159.56	27.08	-27.1	-27.6	17.2	0.00e+00	0	38	101	8388608	34	17889
2026-01-07 22:26:52.29	159.82	26.87	-27.1	-27.6	17.1	0.00e+00	0	39	101	8388608	34	17836
2026-01-07 22:26:53.30	160.08	26.65	-27.1	-27.6	17.1	0.00e+00	0	38	101	8388608	34	17828
2026-01-07 22:26:54.32	160.34	26.44	-27.2	-27.6	17.1	0.00e+00	0	39	101	8388608	34	17964
2026-01-07 22:26:55.33	160.59	26.23	-27.1	-27.6	17.2	0.00e+00	0	38	101	8388608	34	17953
2026-01-07 22:26:56.34	160.83	26.03	-27.2	-27.7	17.1	0.00e+00	0	38	101	8388608	34	18016
2026-01-07 22:26:57.35	161.08	25.82	-27.2	-27.7	17.1	0.00e+00	0	39	101	8388608	34	18111
2026-01-07 22:26:58.36	161.32	25.62	-27.3	-27.8	17.1	0.00e+00	0	39	101	8388608	34	18267
2026-01-07 22:26:59.37	161.56	25.41	-27.4	-27.9	17.1	0.00e+00	0	39	101	8388608	34	18505
2026-01-07 22:27:00.38	161.79	25.21	-27.4	-27.8	17.1	0.00e+00	0	39	101	8388608	34	18407
2026-01-07 22:27:01.39	162.02	25.01	-27.4	-27.9	17.1	0.00e+00	0	39	101	8388608	34	18565
2026-01-07 22:27:02.41	162.25	24.81	-27.5	-28.0	17.1	0.00e+00	0	38	101	8388608	34	18649
2026-01-07 22:27:03.42	162.48	24.61	-27.6	-28.1	17.1	0.00e+00	0	39	101	8388608	34	18895
2026-01-07 22:27:04.43	162.70	24.42	-27.6	-28.1	17.1	0.00e+00	0	39	101	8388608	34	18877
2026-01-07 22:27:05.44	162.92	24.22	-27.6	-28.0	17.1	0.00e+00	0	38	101	8388608	34	18819
2026-01-07 22:27:06.45	163.13	24.03	-27.8	-28.2	17.0	0.00e+00	0	39	101	8388608	34	19250
2026-01-07 22:27:07.46	163.35	23.84	-27.7	-28.2	17.0	0.00e+00	0	38	101	8388608	34	19176
2026-01-07 22:27:08.47	163.56	23.65	-27.7	-28.2	17.1	0.00e+00	0	39	101	8388608	34	19148
2026-01-07 22:27:09.48	163.76	23.46	-27.8	-28.3	17.1	0.00e+00	0	39	101	8388608	34	19308
2026-01-07 22:27:10.49	163.97	23.27	-27.9	-28.3	17.0	0.00e+00	0	39	101	8388608	34	19487
2026-01-07 22:27:11.50	164.17	23.08	-27.8	-28.3	17.0	0.00e+00	0	39	101	8388608	34	19398
2026-01-07 22:27:12.51	164.37	22.90	-28.0	-28.5	17.1	0.00e+00	0	39	101	8388608	34	19827
2026-01-07 22:27:13.52	164.57	22.71	-27.9	-28.4	17.0	0.00e+00	0	39	101	8388608	34	19685
2026-01-07 22:27:14.53	164.76	22.53	-28.1	-28.6	17.0	0.00e+00	0	39	101	8388608	36	17941
2026-01-07 22:27:15.54	164.95	22.35	-28.1	-28.6	17.0	0.00e+00	0	39	101	8388608	36	17830
2026-01-07 22:27:16.55	165.14	22.17	-28.2	-28.7	17.0	0.00e+00	0	38	101	8388608	36	18061
2026-01-07 22:27:17.56	165.33	21.99	-28.2	-28.7	17.0	0.00e+00	0	38	101	8388608	36	18139
2026-01-07 22:27:18.57	165.51	21.81	-28.4	-28.9	16.9	0.00e+00	0	39	101	8388608	36	18456
2026-01-07 22:27:19.59	165.70	21.63	-28.2	-28.7	17.0	0.00e+00	0	39	101	8388608	36	18089
2026-01-07 22:27:20.60	165.88	21.46	-28.3	-28.7	16.9	0.00e+00	0	38	101	8388608	36	18164
2026-01-07 22:27:21.61	166.05	21.29	-28.4	-28.8	16.9	0.00e+00	0	39	101	8388608	36	18411
2026-01-07 22:27:22.62	166.23	21.11	-28.4	-28.9	16.9	0.00e+00	0	39	101	8388608	36	18497
2026-01-07 22:27:23.63	166.40	20.94	-28.4	-28.8	16.9	0.00e+00	0	38	101	8388608	36	18378
2026-01-07 22:27:24.64	166.57	20.77	-28.5	-29.0	16.9	0.00e+00	0	39	101	8388608	36	18788
2026-01-07 22:27:25.65	166.74	20.60	-28.5	-28.9	16.9	0.00e+00	0	39	101	8388608	36	18623
2026-01-07 22:27:26.67	166.91	20.43	-28.5	-28.9	16.9	0.00e+00	0	39	101	8388608	36	18638
2026-01-07 22:27:27.68	167.08	20.27	-28.6	-29.1	16.9	0.00e+00	0	38	101	8388608	36	19000
2026-01-07 22:27:28.69	167.24	20.10	-28.6	-29.0	16.9	0.00e+00	0	38	101	8388608	36	18806
2026-01-07 22:27:29.70	167.40	19.94	-28.7	-29.2	16.9	0.00e+00	0	39	101	8388608	36	19118
2026-01-07 22:27:30.71	167.56	19.78	-28.8	-29.2	16.9	0.00e+00	0	39	101	8388608	36	19265
2026-01-07 22:27:31.72	167.72	19.61	-28.7	-29.2	16.9	0.00e+00	0	39	101	8388608	36	19224
2026-01-07 22:27:32.73	167.87	19.45	-28.9	-29.3	16.9	0.00e+00	0	39	101	8388608	36	19474
2026-01-07 22:27:33.74	168.03	19.29	-28.9	-29.3	16.9	0.00e+00	0	39	101	8388608	36	19513
2026-01-07 22:27:34.75	168.18	19.14	-29.0	-29.4	16.8	0.00e+00	0	39	101	8388608	36	19710
2026-01-07 22:27:35.77	168.33	18.98	-28.9	-29.4	16.9	0.00e+00	0	39	101	8388608	38	17501
2026-01-07 22:27:36.78	168.48	18.82	-29.0	-29.5	16.8	0.00e+00	0	39	101	8388608	38	17658
2026-01-07 22:27:37.79	168.63	18.67	-29.1	-29.6	16.8	0.00e+00	0	39	101	8388608	38	17932
2026-01-07 22:27:38.80	168.77	18.51	-29.0	-29.5	16.8	0.00e+00	0	39	101	8388608	38	17700
2026-01-07 22:27:39.81	168.92	18.36	-29.1	-29.6	16.8	0.00e+00	0	39	101	8388608	38	17886
2026-01-07 22:27:40.82	169.06	18.21	-29.3	-29.8	16.7	0.00e+00	0	39	101	8388608	38	18226
2026-01-07 22:27:41.83	169.20	18.06	-29.1	-29.6	16.7	0.00e+00	0	38	101	8388608	38	17883
2026-01-07 22:27:42.84	169.34	17.91	-29.2	-29.6	16.4	0.00e+00	0	39	101	8388608	38	17960
2026-01-07 22:27:43.85	169.48	17.76	-29.2	-29.7	16.1	0.00e+00	0	39	101	8388608	38	18103
2026-01-07 22:27:44.86	169.61	17.61	-29.3	-29.8	16.2	0.00e+00	0	38	101	8388608	38	18295
2026-01-07 22:27:45.87	169.75	17.46	-29.3	-29.7	16.5	0.00e+00	0	39	101	8388608	38	18187
2026-01-07 22:27:46.88	169.88	17.32	-51.8	-54.3	3.6	0.00e+00	0	38	104	8388608	60	87023
2026-01-07 22:27:47.89	170.01	17.17	-51.6	-54.2	3.6	0.00e+00	0	38	104	8388608	60	85289
2026-01-07 22:27:48.90	170.14	17.03	-51.8	-54.3	3.6	0.00e+00	0	38	104	8388608	60	86579
2026-01-07 22:27:49.92	170.27	16.88	-51.8	-54.3	3.6	0.00e+00	0	38	104	8388608	60	86430
2026-01-07 22:27:50.93	170.40	16.74	-51.8	-54.3	3.6	0.00e+00	0	38	104	8388608	60	86883
2026-01-07 22:27:51.94	170.52	16.60	-51.6	-54.2	3.6	0.00e+00	0	38	104	8388608	60	85310
2026-01-07 22:27:52.95	170.65	16.46	-51.8	-54.3	3.6	0.00e+00	0	38	104	8388608	60	86850
2026-01-07 22:27:53.96	170.77	16.32	-51.8	-54.3	3.6	0.00e+00	0	38	104	8388608	60	86535
2026-01-07 22:27:54.97	170.89	16.18	-51.7	-54.2	3.6	0.00e+00	0	38	104	8388608	60	85940
2026-01-07 22:27:55.98	171.01	16.04	-51.9	-54.4	3.6	0.00e+00	0	38	104	8388608	60	87278
2026-01-07 22:27:56.99	171.13	15.91	-51.8	-54.3	3.6	0.00e+00	0	38	104	8388608	60	86656
2026-01-07 22:27:58.00	171.25	15.77	-51.8	-54.3	3.6	0.00e+00	0	38	104	8388608	60	86466
2026-01-07 22:27:59.01	171.37	15.64	-51.8	-54.3	3.6	0.00e+00	0	38	104	8388608	60	86482
2026-01-07 22:28:00.02	171.48	15.50	-51.9	-54.4	3.6	0.00e+00	0	38	104	8388608	60	87787
2026-01-07 22:28:01.03	171.60	15.37	-51.8	-54.3	3.6	0.00e+00	0	38	104	8388608	60	86475
2026-01-07 22:28:02.04	171.71	15.24	-51.8	-54.3	3.6	0.00e+00	0	38	104	8388608	60	86445
2026-01-07 22:28:03.05	171.83	15.11	-51.7	-54.3	3.6	0.00e+00	0	38	104	8388608	60	86352
2026-01-07 22:28:04.07	171.94	14.97	-51.8	-54.3	3.6	0.00e+00	0	38	104	8388608	60	86539
2026-01-07 22:28:05.08	172.05	14.84	-51.8	-54.3	3.6	0.00e+00	0	38	104	8388608	60	86217
2026-01-07 22:28:06.09	172.16	14.72	-51.8	-54.3	3.6	0.00e+00	0	38	104	8388608	60	86408
2026-01-07 22:28:07.10	172.27	14.59	-51.8	-54.3	3.6	0.00e+00	0	38	104	8388608	60	86343
2026-01-07 22:28:08.11	172.37	14.46	-51.7	-54.2	3.6	0.00e+00	0	38	104	8388608	60	86120
2026-01-07 22:28:09.12	172.48	14.33	-51.5	-54.0	3.5	0.00e+00	0	38	104	8388608	60	84168
2026-01-07 22:28:10.13	172.58	14.21	-51.8	-54.3	3.6	0.00e+00	0	38	104	8388608	60	86441
2026-01-07 22:28:11.14	172.69	14.08	-51.7	-54.2	3.6	0.00e+00	0	38	104	8388608	60	85465
2026-01-07 22:28:12.15	172.79	13.96	-51.6	-54.2	3.6	0.00e+00	0	38	104	8388608	60	85404
2026-01-07 22:28:13.16	172.89	13.84	-51.7	-54.2	3.6	0.00e+00	0	38	104	8388608	60	85397
2026-01-07 22:28:14.17	172.99	13.71	-51.7	-54.2	3.6	0.00e+00	0	38	104	8388608	60	85419
2026-01-07 22:28:15.19	173.09	13.59	-51.6	-54.2	3.6	0.00e+00	0	38	104	8388608	60	85379
2026-01-07 22:28:16.20	173.19	13.47	-51.8	-54.3	3.6	0.00e+00	0	38	104	8388608	60	86375
2026-01-07 22:28:17.21	173.29	13.35	-51.7	-54.2	3.6	0.00e+00	0	38	104	8388608	60	85741
2026-01-07 22:28:18.22	173.39	13.23	-51.6	-54.1	3.6	0.00e+00	0	38	104	8388608	60	85061
2026-01-07 22:28:19.23	173.49	13.11	-51.7	-54.2	3.6	0.00e+00	0	38	104	8388608	60	85768
2026-01-07 22:28:20.24	173.58	12.99	-51.7	-54.3	3.6	0.00e+00	0	38	104	8388608	60	86236
2026-01-07 22:28:21.25	173.68	12.87	-51.6	-54.2	3.6	0.00e+00	0	38	104	8388608	60	85334
2026-01-07 22:28:22.26	173.77	12.76	-51.7	-54.2	3.6	0.00e+00	0	38	104	8388608	60	85683
2026-01-07 22:28:23.27	173.86	12.64	-51.7	-54.2	3.6	0.00e+00	0	38	104	8388608	60	85512
2026-01-07 22:28:24.28	173.95	12.52	-51.6	-54.1	3.6	0.00e+00	0	38	104	8388608	60	84776
2026-01-07 22:28:25.29	174.05	12.41	-51.5	-54.0	3.6	0.00e+00	0	38	104	8388608	60	84073
2026-01-07 22:28:26.31	174.14	12.29	-51.7	-54.2	3.6	0.00e+00	0	38	104	8388608	60	85454
2026-01-07 22:28:27.32	174.23	12.18	-51.5	-54.0	3.6	0.00e+00	0	38	104	8388608	60	83819
2026-01-07 22:28:28.33	174.32	12.07	-51.4	-54.0	3.6	0.00e+00	0	38	104	8388608	60	83612
2026-01-07 22:28:29.34	174.40	11.95	-51.5	-54.0	3.6	0.00e+00	0	38	104	8388608	60	83867
2026-01-07 22:28:30.35	174.49	11.84	-51.6	-54.1	3.6	0.00e+00	0	38	104	8388608	60	84764
2026-01-07 22:28:31.36	174.58	11.73	-51.5	-54.1	3.6	0.00e+00	0	38	104	8388608	60	84291
2026-01-07 22:28:32.37	174.66	11.62	-51.5	-54.1	3.5	0.00e+00	0	38	104	8388608	60	84366
2026-01-07 22:28:33.38	174.75	11.51	-51.5	-54.0	3.6	0.00e+00	0	38	104	8388608	60	84230
2026-01-07 22:28:34.39	174.83	11.40	-51.4	-54.0	3.5	0.00e+00	0	38	104	8388608	60	83773
2026-01-07 22:28:35.40	174.92	11.29	-51.5	-54.0	3.6	0.00e+00	0	38	104	8388608	60	84172
2026-01-07 22:28:36.41	175.00	11.18	-51.5	-54.0	3.6	0.00e+00	0	38	104	8388608	60	83933
2026-01-07 22:28:37.43	175.08	11.07	-51.6	-54.1	3.6	0.00e+00	0	38	104	8388608	60	84444
2026-01-07 22:28:38.44	175.16	10.97	-51.6	-54.1	3.6	0.00e+00	0	38	104	8388608	60	84479
2026-01-07 22:28:39.45	175.24	10.86	-51.6	-54.1	3.6	0.00e+00	0	38	104	8388608	60	84559
2026-01-07 22:28:40.46	175.32	10.76	-51.6	-54.1	3.6	0.00e+00	0	38	104	8388608	60	84990
2026-01-07 22:28:41.47	175.40	10.65	-51.6	-54.1	3.6	0.00e+00	0	38	104	8388608	60	84902
2026-01-07 22:28:42.48	175.48	10.54	-51.6	-54.1	3.6	0.00e+00	0	38	104	8388608	60	84797
2026-01-07 22:28:43.49	175.56	10.44	-51.6	-54.1	3.6	0.00e+00	0	38	104	8388608	60	84707
2026-01-07 22:28:44.50	175.64	10.34	-51.5	-54.1	3.6	0.00e+00	0	38	104	8388608	60	84503
2026-01-07 22:28:45.51	175.71	10.23	-51.6	-54.1	3.6	0.00e+00	0	38	104	8388608	60	85201
2026-01-07 22:28:46.52	175.79	10.13	-51.6	-54.1	3.6	0.00e+00	0	38	104	8388608	60	84461
2026-01-07 22:28:47.54	175.87	10.03	-51.6	-54.1	3.6	0.00e+00	0	38	104	8388608	60	84379
2026-01-07 22:28:48.54	175.94	9.93	-51.4	-53.9	3.6	0.00e+00	0	38	104	8388608	60	83218
2026-01-07 22:28:49.55	176.02	9.83	-51.5	-54.0	3.6	0.00e+00	0	38	104	8388608	60	84171
2026-01-07 22:28:50.57	176.09	9.72	-51.5	-54.0	3.6	0.00e+00	0	38	104	8388608	60	83652
2026-01-07 22:28:51.58	176.16	9.62	-51.4	-54.0	3.6	0.00e+00	0	38	104	8388608	60	83304
2026-01-07 22:28:52.59	176.24	9.53	-51.4	-53.9	3.6	0.00e+00	0	38	104	8388608	60	83123
2026-01-07 22:28:53.60	176.31	9.43	-51.5	-54.0	3.6	0.00e+00	0	38	104	8388608	60	83470
2026-01-07 22:28:54.61	176.38	9.33	-51.4	-53.9	3.6	0.00e+00	0	38	104	8388608	60	82954
2026-01-07 22:28:55.62	176.45	9.23	-51.4	-54.0	3.6	0.00e+00	0	38	104	8388608	60	83810
2026-01-07 22:28:56.63	176.52	9.13	-51.3	-53.8	3.6	0.00e+00	0	38	104	8388608	60	81646
2026-01-07 22:28:57.64	176.59	9.04	-51.4	-53.9	3.6	0.00e+00	0	38	104	8388608	60	82916
2026-01-07 22:28:58.65	176.66	8.94	-51.3	-53.8	3.6	0.00e+00	0	38	104	8388608	60	82058
2026-01-07 22:28:59.66	176.73	8.84	-51.2	-53.8	3.6	0.00e+00	0	38	104	8388608	60	81822
2026-01-07 22:29:00.67	176.80	8.75	-51.4	-53.9	3.6	0.00e+00	0	38	104	8388608	60	82756
2026-01-07 22:29:01.68	176.86	8.65	-51.3	-53.9	3.6	0.00e+00	0	38	104	8388608	60	82382
2026-01-07 22:29:02.70	176.93	8.56	-51.3	-53.9	3.5	0.00e+00	0	38	104	8388608	60	82643
2026-01-07 22:29:03.71	177.00	8.46	-51.5	-53.9	3.6	0.00e+00	0	38	104	8388608	60	83085
2026-01-07 22:29:04.72	177.06	8.37	-51.3	-53.8	3.6	0.00e+00	0	38	104	8388608	60	82095
2026-01-07 22:29:05.73	177.13	8.27	-51.4	-53.9	3.6	0.00e+00	0	38	104	8388608	60	82880
2026-01-07 22:29:06.74	177.20	8.18	-51.4	-53.8	3.6	0.00e+00	0	38	104	8388608	60	82299
2026-01-07 22:29:07.75	177.26	8.09	-51.4	-53.9	3.6	0.00e+00	0	38	104	8388608	60	83208
2026-01-07 22:29:08.76	177.32	8.00	-51.2	-53.7	3.6	0.00e+00	0	38	104	8388608	60	81021
2026-01-07 22:29:09.77	177.39	7.90	-51.4	-53.9	3.6	0.00e+00	0	38	104	8388608	60	83086
2026-01-07 22:29:10.78	177.45	7.81	-51.4	-53.9	3.6	0.00e+00	0	38	104	8388608	60	82877
2026-01-07 22:29:11.80	177.52	7.72	-51.4	-53.8	3.6	0.00e+00	0	38	104	8388608	60	82213
2026-01-07 22:29:12.81	177.58	7.63	-51.0	-53.5	3.6	0.00e+00	0	38	104	8388608	60	79468
2026-01-07 22:29:13.82	177.64	7.54	-51.4	-53.9	3.6	0.00e+00	0	38	104	8388608	60	83029
2026-01-07 22:29:14.83	177.70	7.45	-51.2	-53.8	3.6	0.00e+00	0	38	104	8388608	60	81394
2026-01-07 22:29:15.84	177.76	7.36	-51.1	-53.6	3.6	0.00e+00	0	38	104	8388608	60	80164
2026-01-07 22:29:16.85	177.82	7.27	-51.2	-53.7	3.6	0.00e+00	0	38	104	8388608	60	81280
2026-01-07 22:29:17.86	177.88	7.18	-51.3	-53.8	3.6	0.00e+00	0	38	104	8388608	60	82275
2026-01-07 22:29:18.87	177.94	7.10	-51.1	-53.6	3.6	0.00e+00	0	38	104	8388608	60	80266
2026-01-07 22:29:19.88	178.00	7.01	-50.9	-53.5	3.6	0.00e+00	0	38	104	8388608	60	79193
2026-01-07 22:29:20.89	178.06	6.92	-51.1	-53.7	3.6	0.00e+00	0	38	104	8388608	60	80486
2026-01-07 22:29:21.90	178.12	6.83	-51.3	-53.9	3.6	0.00e+00	0	38	104	8388608	60	82761
2026-01-07 22:29:22.92	178.18	6.75	-51.0	-53.6	3.6	0.00e+00	0	38	104	8388608	60	79988
2026-01-07 22:29:23.93	178.24	6.66	-51.1	-53.6	3.6	0.00e+00	0	38	104	8388608	60	80172
2026-01-07 22:29:24.94	178.29	6.57	-51.2	-53.7	3.6	0.00e+00	0	38	104	8388608	60	80878
2026-01-07 22:29:25.95	178.35	6.49	-51.2	-53.8	3.6	0.00e+00	0	38	104	8388608	60	81508
2026-01-07 22:29:26.96	178.41	6.40	-51.2	-53.7	3.6	0.00e+00	0	38	104	8388608	60	81245
2026-01-07 22:29:27.97	178.46	6.32	-51.3	-53.8	3.6	0.00e+00	0	38	104	8388608	60	81890
2026-01-07 22:29:28.98	178.52	6.23	-51.1	-53.5	3.6	0.00e+00	0	38	104	8388608	60	79155
2026-01-07 22:29:29.99	178.57	6.15	-51.2	-53.7	3.6	0.00e+00	0	38	104	8388608	60	81185
2026-01-07 22:29:31.00	178.63	6.07	-51.1	-53.6	3.6	0.00e+00	0	38	104	8388608	60	80215
2026-01-07 22:29:32.02	178.68	5.98	-51.3	-53.8	3.6	0.00e+00	0	38	104	8388608	60	82021
2026-01-07 22:29:33.03	178.74	5.90	-51.0	-53.5	3.6	0.00e+00	0	38	104	8388608	60	78770
2026-01-07 22:29:34.04	178.79	5.82	-51.3	-53.8	3.6	0.00e+00	0	38	104	8388608	60	81778
2026-01-07 22:29:35.05	178.84	5.73	-51.0	-53.5	3.6	0.00e+00	0	38	104	8388608	60	79076
2026-01-07 22:29:36.06	178.90	5.65	-51.1	-53.7	3.6	0.00e+00	0	38	104	8388608	60	80881
2026-01-07 22:29:37.07	178.95	5.57	-50.8	-53.3	3.6	0.00e+00	0	38	104	8388608	60	77587
2026-01-07 22:29:38.08	179.00	5.49	-51.2	-53.7	3.6	0.00e+00	0	38	104	8388608	60	81335
2026-01-07 22:29:39.09	179.06	5.41	-50.9	-53.4	3.6	0.00e+00	0	38	104	8388608	60	78441
2026-01-07 22:29:40.10	179.11	5.33	-51.1	-53.6	3.6	0.00e+00	0	38	104	8388608	60	80138
2026-01-07 22:29:41.11	179.16	5.25	-50.7	-53.3	3.6	0.00e+00	0	38	104	8388608	60	77218
2026-01-07 22:29:42.12	179.21	5.17	-51.1	-53.6	3.6	0.00e+00	0	38	104	8388608	60	79902
2026-01-07 22:29:43.13	179.26	5.09	-50.8	-53.4	3.6	0.00e+00	0	38	104	8388608	60	78226
2026-01-07 22:29:44.15	179.31	5.01	-50.6	-53.3	3.6	0.00e+00	0	38	104	8388608	60	76965
2026-01-07 22:29:45.16	179.36	4.93	-50.8	-53.3	3.6	0.00e+00	0	38	104	8388608	60	77302
2026-01-07 22:29:46.17	179.41	4.85	-51.1	-53.6	3.6	0.00e+00	0	38	104	8388608	60	80368
2026-01-07 22:29:47.18	179.46	4.77	-51.6	-54.1	3.6	0.00e+00	0	38	104	8388608	60	84693
2026-01-07 22:29:48.19	179.51	4.69	-51.8	-54.3	3.6	0.00e+00	0	38	104	8388608	60	87011
2026-01-07 22:29:49.20	179.56	4.61	-52.1	-54.6	3.6	0.00e+00	0	38	104	8388608	60	89993
2026-01-07 22:29:50.21	179.61	4.53	-52.2	-54.7	3.6	0.00e+00	0	38	104	8388608	60	90496
2026-01-07 22:29:51.22	179.66	4.46	-52.2	-54.7	3.6	0.00e+00	0	38	104	8388608	60	91117
2026-01-07 22:29:52.23	179.70	4.38	-52.2	-54.8	3.6	0.00e+00	0	38	104	8388608	60	91352
2026-01-07 22:29:53.24	179.75	4.30	-52.0	-54.5	3.6	0.00e+00	0	38	104	8388608	60	89170
2026-01-07 22:29:54.25	179.80	4.23	-52.1	-54.7	3.6	0.00e+00	0	38	104	8388608	60	90634
2026-01-07 22:29:55.26	179.85	4.15	-52.4	-54.9	3.6	0.00e+00	0	38	104	8388608	60	92969
2026-01-07 22:29:56.27	179.89	4.07	-52.2	-54.7	3.6	0.00e+00	0	38	104	8388608	60	90320
2026-01-07 22:29:57.28	179.94	4.00	-52.1	-54.6	3.6	0.00e+00	0	38	104	8388608	60	89592
2026-01-07 22:29:58.30	179.99	3.92	-52.5	-55.0	3.6	0.00e+00	0	38	104	8388608	60	93692
2026-01-07 22:29:59.31	180.03	3.85	-52.4	-54.9	3.5	0.00e+00	0	38	104	8388608	60	92742
2026-01-07 22:30:00.32	180.08	3.77	-52.3	-54.8	3.6	0.00e+00	0	38	104	8388608	60	91694
2026-01-07 22:30:01.33	180.12	3.70	-52.4	-54.9	3.6	0.00e+00	0	38	104	8388608	60	92765
2026-01-07 22:30:02.34	180.17	3.62	-52.4	-54.9	3.6	0.00e+00	0	38	104	8388608	60	92809
2026-01-07 22:30:03.35	180.21	3.55	-52.4	-54.9	3.6	0.00e+00	0	38	104	8388608	60	92455
2026-01-07 22:30:04.36	180.26	3.47	-52.4	-54.8	3.6	0.00e+00	0	38	104	8388608	60	92312
2026-01-07 22:30:05.37	180.30	3.40	-52.4	-54.9	3.6	0.00e+00	0	38	104	8388608	60	92445
2026-01-07 22:30:06.38	180.35	3.33	-52.4	-54.8	3.6	0.00e+00	0	38	104	8388608	60	92201
2026-01-07 22:30:07.39	180.39	3.25	-52.4	-54.8	3.6	0.00e+00	0	38	104	8388608	60	92044
2026-01-07 22:30:08.40	180.43	3.18	-52.4	-54.9	3.6	0.00e+00	0	38	104	8388608	60	92772
2026-01-07 22:30:09.41	180.48	3.11	-52.4	-54.9	3.6	0.00e+00	0	38	104	8388608	60	92538
2026-01-07 22:30:10.42	180.52	3.04	-52.4	-54.8	3.6	0.00e+00	0	38	104	8388608	60	92290
2026-01-07 22:30:11.43	180.56	2.96	-52.4	-54.9	3.6	0.00e+00	0	38	104	8388608	60	92725
2026-01-07 22:30:12.44	180.60	2.89	-52.4	-54.9	3.6	0.00e+00	0	38	104	8388608	60	92382
2026-01-07 22:30:13.45	180.65	2.82	-52.4	-54.9	3.6	0.00e+00	0	38	104	8388608	60	92765
2026-01-07 22:30:14.46	180.69	2.75	-52.4	-54.9	3.6	0.00e+00	0	38	104	8388608	60	92603
2026-01-07 22:30:15.48	180.73	2.68	-52.3	-54.9	3.6	0.00e+00	0	38	104	8388608	60	92676
2026-01-07 22:30:16.49	180.77	2.60	-52.3	-54.8	3.6	0.00e+00	0	38	104	8388608	60	92144
2026-01-07 22:30:17.50	180.81	2.53	-52.3	-54.8	3.6	0.00e+00	0	38	104	8388608	60	91954
2026-01-07 22:30:18.51	180.86	2.46	-52.3	-54.8	3.6	0.00e+00	0	38	104	8388608	60	91913
2026-01-07 22:30:19.52	180.90	2.39	-52.4	-54.8	3.6	0.00e+00	0	38	104	8388608	60	92126
2026-01-07 22:30:20.53	180.94	2.32	-52.3	-54.9	3.6	0.00e+00	0	38	104	8388608	60	92438
2026-01-07 22:30:21.54	180.98	2.25	-52.3	-54.8	3.6	0.00e+00	0	38	104	8388608	60	92089
2026-01-07 22:30:22.55	181.02	2.18	-52.3	-54.8	3.6	0.00e+00	0	38	104	8388608	60	92160
2026-01-07 22:30:23.56	181.06	2.11	-52.3	-54.8	3.6	0.00e+00	0	38	104	8388608	60	92135
2026-01-07 22:30:24.57	181.10	2.04	-52.3	-54.8	3.6	0.00e+00	0	38	104	8388608	60	92025
2026-01-07 22:30:25.58	181.14	1.97	-52.3	-54.8	3.6	0.00e+00	0	38	104	8388608	60	92223
2026-01-07 22:30:26.59	181.18	1.91	-52.3	-54.8	3.6	0.00e+00	0	38	104	8388608	60	92249
2026-01-07 22:30:27.60	181.22	1.84	-52.3	-54.8	3.6	0.00e+00	0	38	104	8388608	60	92300
2026-01-07 22:30:28.61	181.25	1.77	-52.3	-54.8	3.6	0.00e+00	0	38	104	8388608	60	91913
2026-01-07 22:30:29.62	181.29	1.70	-52.3	-54.9	3.6	0.00e+00	0	38	104	8388608	60	92408
2026-01-07 22:30:30.64	181.33	1.63	-52.3	-54.8	3.6	0.00e+00	0	38	104	8388608	60	92040
2026-01-07 22:30:31.65	181.37	1.56	-52.3	-54.9	3.6	0.00e+00	0	38	104	8388608	60	92444
2026-01-07 22:30:32.66	181.41	1.50	-52.3	-54.8	3.6	0.00e+00	0	38	104	8388608	60	92244
2026-01-07 22:30:33.67	181.45	1.43	-52.3	-54.8	3.6	0.00e+00	0	38	104	8388608	60	91730
2026-01-07 22:30:34.68	181.48	1.36	-52.3	-54.8	3.6	0.00e+00	0	38	104	8388608	60	91962
2026-01-07 22:30:35.69	181.52	1.29	-52.3	-54.8	3.6	0.00e+00	0	38	104	8388608	60	92129
2026-01-07 22:30:36.70	181.56	1.23	-52.3	-54.8	3.6	0.00e+00	0	38	104	8388608	60	91326
2026-01-07 22:30:37.71	181.60	1.16	-52.3	-54.8	3.6	0.00e+00	0	38	104	8388608	60	91959
2026-01-07 22:30:38.72	181.63	1.09	-52.3	-54.9	3.6	0.00e+00	0	38	104	8388608	60	92451
2026-01-07 22:30:39.73	181.67	1.03	-52.3	-54.8	3.6	0.00e+00	0	38	104	8388608	60	92278
2026-01-07 22:30:40.75	181.71	0.96	-52.3	-54.8	3.6	0.00e+00	0	38	104	8388608	60	91724
2026-01-07 22:30:41.76	181.74	0.89	-52.3	-54.8	3.6	0.00e+00	0	38	104	8388608	60	92060
2026-01-07 22:30:42.77	181.78	0.83	-52.3	-54.9	3.6	0.00e+00	0	38	104	8388608	60	92406
2026-01-07 22:30:43.78	181.82	0.76	-52.3	-54.8	3.6	0.00e+00	0	38	104	8388608	60	91829
2026-01-07 22:30:44.79	181.85	0.70	-52.3	-54.8	3.6	0.00e+00	0	38	104	8388608	60	91734
2026-01-07 22:30:45.80	181.89	0.63	-52.3	-54.9	3.6	0.00e+00	0	38	104	8388608	60	92601
2026-01-07 22:30:46.81	181.92	0.57	-52.3	-54.8	3.6	0.00e+00	0	38	104	8388608	60	91766
2026-01-07 22:30:47.82	181.96	0.50	-52.3	-54.8	3.6	0.00e+00	0	38	104	8388608	60	92238
2026-01-07 22:30:48.83	181.99	0.44	-52.3	-54.8	3.6	0.00e+00	0	38	104	8388608	60	92077
2026-01-07 22:30:49.84	182.03	0.37	-52.3	-54.8	3.6	0.00e+00	0	38	104	8388608	60	91483
2026-01-07 22:30:50.86	182.06	0.31	-52.3	-54.8	3.6	0.00e+00	0	38	104	8388608	60	92043
2026-01-07 22:30:51.87	182.10	0.24	-52.3	-54.8	3.6	0.00e+00	0	38	104	8388608	60	91977
2026-01-07 22:30:52.88	182.13	0.18	-52.3	-54.8	3.6	0.00e+00	0	38	104	8388608	60	92324
2026-01-07 22:30:53.89	182.17	0.12	-52.3	-54.8	3.6	0.00e+00	0	38	104	8388608	60	92149
2026-01-07 22:30:54.90	182.20	0.05	-52.3	-54.8	3.6	0.00e+00	0	38	104	8388608	60	91944
2026-01-07 22:30:55.91	182.23	-0.01	-52.3	-54.8	3.6	0.00e+00	0	38	104	8388608	60	92354

#Closed at: 2026-01-07 22:30:56
#Recorded file [8 MB]: D:/lorett/data/35034_260108_011931.dat