passes_logs/2026/01/07/R4.6S_Anadyr_2ch/R4.6S_Anadyr_2ch__20260107_074109_TY-41_rec.log

#Pass ID: 20260107_074109_TY-41
#Satellite: TY-41
#Configuration: TY-39_900M
#almurnet v.1.7.20251203
#Start time: 2026-01-07 07:41:39

#Version: 2.2.20231116
#Station: R4.6S_Anadyr_2ch
#Location: 177.4865 lon 64.73178 lat
#TLE: 1 61231U 24173E   25350.69767361  .00008010  00000-0  38191-3 0 09994
#TLE: 2 61231 097.4116 061.2842 0001674 094.3615 204.6766 15.19171214 68043

#Time	Az	El	Level	Level2	SNR	BER	BlckErr	Temp	State	Recorded	gain1	gain2
2026-01-07 07:41:39.57	110.03	1.80	-51.5	-53.1	5.7	0.00e+00	0	31	0	0	60	75492
2026-01-07 07:41:40.58	109.95	1.87	-51.5	-54.0	6.1	0.00e+00	0	33	104	0	60	83543
2026-01-07 07:41:41.59	109.86	1.93	-51.5	-54.0	6.1	0.00e+00	0	33	104	0	60	83434
2026-01-07 07:41:42.60	109.78	1.99	-51.5	-54.0	6.1	0.00e+00	0	33	104	0	60	83774
2026-01-07 07:41:43.61	109.70	2.05	-51.5	-54.0	6.1	0.00e+00	0	33	104	0	60	83503
2026-01-07 07:41:44.63	109.61	2.12	-51.5	-54.0	6.1	0.00e+00	0	33	104	0	60	83954
2026-01-07 07:41:45.64	109.52	2.18	-51.5	-54.0	6.1	0.00e+00	0	33	104	0	60	83845
2026-01-07 07:41:46.65	109.44	2.24	-51.5	-54.0	6.1	0.00e+00	0	33	104	0	60	83754
2026-01-07 07:41:47.66	109.35	2.31	-51.5	-54.0	6.1	0.00e+00	0	33	104	0	60	83973
2026-01-07 07:41:48.67	109.26	2.37	-51.5	-54.0	6.1	0.00e+00	0	33	104	0	60	83868
2026-01-07 07:41:49.68	109.17	2.43	-51.5	-54.0	6.1	0.00e+00	0	33	104	0	60	83804
2026-01-07 07:41:50.69	109.09	2.50	-51.5	-54.0	6.1	0.00e+00	0	34	104	0	60	83580
2026-01-07 07:41:51.70	109.00	2.56	-51.5	-54.0	6.1	0.00e+00	0	33	104	0	60	83368
2026-01-07 07:41:52.71	108.91	2.63	-51.5	-54.0	6.1	0.00e+00	0	33	104	0	60	83983
2026-01-07 07:41:53.72	108.82	2.69	-51.5	-54.0	6.1	0.00e+00	0	34	104	0	60	83888
2026-01-07 07:41:54.73	108.73	2.76	-51.5	-54.0	6.1	0.00e+00	0	34	104	0	60	83943
2026-01-07 07:41:55.74	108.64	2.82	-51.5	-54.0	6.1	0.00e+00	0	34	104	0	60	83794
2026-01-07 07:41:56.75	108.55	2.88	-51.5	-54.0	6.1	0.00e+00	0	34	104	0	60	83844
2026-01-07 07:41:57.77	108.45	2.95	-51.5	-54.0	6.1	0.00e+00	0	34	104	0	60	83746
2026-01-07 07:41:58.78	108.36	3.02	-51.5	-54.0	6.1	0.00e+00	0	34	104	0	60	83718
2026-01-07 07:41:59.79	108.27	3.08	-51.5	-54.0	6.1	0.00e+00	0	34	104	0	60	83970
2026-01-07 07:42:00.80	108.17	3.15	-51.5	-54.0	6.1	0.00e+00	0	34	104	0	60	83788
2026-01-07 07:42:01.81	108.08	3.21	-51.5	-54.0	6.1	0.00e+00	0	34	104	0	60	83716
2026-01-07 07:42:02.82	107.98	3.28	-51.5	-54.0	6.1	0.00e+00	0	34	104	0	60	83757
2026-01-07 07:42:03.83	107.89	3.34	-51.5	-54.0	6.1	0.00e+00	0	34	104	0	60	84044
2026-01-07 07:42:04.84	107.79	3.41	-51.5	-54.0	6.1	0.00e+00	0	34	104	0	60	83570
2026-01-07 07:42:05.85	107.70	3.47	-51.5	-54.0	6.1	0.00e+00	0	34	104	0	60	83933
2026-01-07 07:42:06.86	107.60	3.54	-51.5	-54.0	6.1	0.00e+00	0	34	104	0	60	83746
2026-01-07 07:42:07.87	107.50	3.61	-51.5	-54.0	6.1	0.00e+00	0	34	104	0	60	84091
2026-01-07 07:42:08.88	107.40	3.67	-51.5	-54.0	6.1	0.00e+00	0	34	104	0	60	83595
2026-01-07 07:42:09.89	107.31	3.74	-51.5	-54.0	6.1	0.00e+00	0	34	104	0	60	83753
2026-01-07 07:42:10.90	107.21	3.81	-51.5	-54.1	6.1	0.00e+00	0	34	104	0	60	84299
2026-01-07 07:42:11.92	107.11	3.87	-51.5	-54.0	6.1	0.00e+00	0	34	104	0	60	84111
2026-01-07 07:42:12.93	107.00	3.94	-51.5	-54.0	6.1	0.00e+00	0	34	104	0	60	83593
2026-01-07 07:42:13.94	106.90	4.01	-51.5	-54.0	6.1	0.00e+00	0	34	104	0	60	84023
2026-01-07 07:42:14.95	106.80	4.08	-51.5	-54.0	6.1	0.00e+00	0	34	104	0	60	83804
2026-01-07 07:42:15.96	106.70	4.14	-51.5	-54.0	6.1	0.00e+00	0	34	104	0	60	84203
2026-01-07 07:42:16.97	106.60	4.21	-51.5	-54.0	6.1	0.00e+00	0	34	104	0	60	83612
2026-01-07 07:42:17.98	106.49	4.28	-51.5	-54.0	6.1	0.00e+00	0	34	104	0	60	83733
2026-01-07 07:42:18.99	106.39	4.35	-51.5	-54.0	6.1	0.00e+00	0	34	104	0	60	83818
2026-01-07 07:42:20.01	106.28	4.42	-51.5	-54.0	6.1	0.00e+00	0	34	104	0	60	84185
2026-01-07 07:42:21.02	106.18	4.48	-51.5	-54.0	6.1	0.00e+00	0	34	104	0	60	84140
2026-01-07 07:42:22.03	106.07	4.55	-51.5	-54.0	6.1	0.00e+00	0	34	104	0	60	84154
2026-01-07 07:42:23.04	105.97	4.62	-51.5	-54.0	6.1	0.00e+00	0	34	104	0	60	84092
2026-01-07 07:42:24.05	105.86	4.69	-51.5	-54.0	6.1	0.00e+00	0	34	104	0	60	83988
2026-01-07 07:42:25.06	105.75	4.76	-51.5	-54.0	6.1	0.00e+00	0	34	104	0	60	83682
2026-01-07 07:42:26.07	105.64	4.83	-51.5	-54.0	6.1	0.00e+00	0	34	104	0	60	83300
2026-01-07 07:42:27.08	105.53	4.90	-51.5	-54.0	6.1	0.00e+00	0	34	104	0	60	83989
2026-01-07 07:42:28.09	105.42	4.97	-51.5	-54.0	6.1	0.00e+00	0	34	104	0	60	83606
2026-01-07 07:42:29.10	105.31	5.04	-51.5	-54.0	6.1	0.00e+00	0	34	104	0	60	84111
2026-01-07 07:42:30.11	105.20	5.10	-51.5	-54.0	6.1	0.00e+00	0	34	104	0	60	83491
2026-01-07 07:42:31.12	105.09	5.17	-51.5	-54.0	6.1	0.00e+00	0	34	104	0	60	83960
2026-01-07 07:42:32.13	104.98	5.24	-51.5	-54.0	6.1	0.00e+00	0	35	104	0	60	84125
2026-01-07 07:42:33.14	104.86	5.31	-51.5	-54.0	6.1	0.00e+00	0	34	104	0	60	84064
2026-01-07 07:42:34.15	104.75	5.39	-51.5	-54.0	6.1	0.00e+00	0	35	104	0	60	83998
2026-01-07 07:42:35.17	104.63	5.46	-51.5	-54.0	6.1	0.00e+00	0	35	104	0	60	84038
2026-01-07 07:42:36.18	104.52	5.53	-51.5	-54.0	6.1	0.00e+00	0	34	104	0	60	83778
2026-01-07 07:42:37.19	104.40	5.60	-51.6	-54.1	6.1	0.00e+00	0	35	104	0	60	84270
2026-01-07 07:42:38.20	104.28	5.67	-51.5	-54.0	6.1	0.00e+00	0	35	104	0	60	84168
2026-01-07 07:42:39.21	104.16	5.74	-51.5	-54.0	6.1	0.00e+00	0	34	104	0	60	83827
2026-01-07 07:42:40.22	104.05	5.81	-51.5	-54.1	6.1	0.00e+00	0	35	104	0	60	84386
2026-01-07 07:42:41.23	103.93	5.88	-51.5	-54.0	6.1	0.00e+00	0	34	104	0	60	83984
2026-01-07 07:42:42.24	103.81	5.95	-51.5	-54.0	6.1	0.00e+00	0	35	104	0	60	84027
2026-01-07 07:42:43.25	103.69	6.03	-51.5	-54.0	6.1	0.00e+00	0	35	104	0	60	84156
2026-01-07 07:42:44.26	103.56	6.10	-51.5	-54.0	6.1	0.00e+00	0	35	104	0	60	84027
2026-01-07 07:42:45.27	103.44	6.17	-51.5	-54.0	6.1	0.00e+00	0	34	104	0	60	84047
2026-01-07 07:42:46.29	103.32	6.24	-51.5	-54.0	6.1	0.00e+00	0	35	104	0	60	84145
2026-01-07 07:42:47.30	103.19	6.31	-51.5	-54.0	6.1	0.00e+00	0	35	104	0	60	84234
2026-01-07 07:42:48.31	103.07	6.39	-51.5	-54.0	6.1	0.00e+00	0	35	104	0	60	83848
2026-01-07 07:42:49.32	102.94	6.46	-51.5	-54.0	6.1	0.00e+00	0	35	104	0	60	83972
2026-01-07 07:42:50.33	102.82	6.53	-51.5	-54.0	6.1	0.00e+00	0	35	104	0	60	83825
2026-01-07 07:42:51.34	102.69	6.61	-51.6	-54.1	6.1	0.00e+00	0	35	104	0	60	84294
2026-01-07 07:42:52.35	102.56	6.68	-51.5	-54.0	6.1	0.00e+00	0	35	104	0	60	83444
2026-01-07 07:42:53.36	102.43	6.75	-51.5	-54.1	6.1	0.00e+00	0	35	104	0	60	84257
2026-01-07 07:42:54.37	102.30	6.83	-51.5	-54.0	6.1	0.00e+00	0	35	104	0	60	84241
2026-01-07 07:42:55.38	102.17	6.90	-51.5	-54.0	6.1	0.00e+00	0	35	104	0	60	84181
2026-01-07 07:42:56.39	102.04	6.97	-51.6	-54.0	6.1	0.00e+00	0	35	104	0	60	83974
2026-01-07 07:42:57.40	101.91	7.05	-51.5	-54.0	6.1	0.00e+00	0	35	104	0	60	83787
2026-01-07 07:42:58.41	101.78	7.12	-51.5	-54.0	6.0	0.00e+00	0	35	104	0	60	84020
2026-01-07 07:42:59.42	101.64	7.20	-51.5	-54.1	6.1	0.00e+00	0	35	104	0	60	84429
2026-01-07 07:43:00.43	101.51	7.27	-51.5	-54.0	6.1	0.00e+00	0	35	104	0	60	84190
2026-01-07 07:43:01.45	101.37	7.35	-51.5	-54.0	6.1	0.00e+00	0	35	104	0	60	83915
2026-01-07 07:43:02.46	101.24	7.42	-51.6	-54.0	6.1	0.00e+00	0	35	104	0	60	84159
2026-01-07 07:43:03.47	101.10	7.50	-51.6	-54.1	6.1	0.00e+00	0	35	104	0	60	84289
2026-01-07 07:43:04.48	100.96	7.57	-51.5	-54.1	6.1	0.00e+00	0	35	104	0	60	84437
2026-01-07 07:43:05.49	100.82	7.65	-51.6	-54.0	6.1	0.00e+00	0	35	104	0	60	84167
2026-01-07 07:43:06.50	100.68	7.72	-51.5	-54.0	6.1	0.00e+00	0	35	104	0	60	83603
2026-01-07 07:43:07.51	100.54	7.80	-51.5	-54.0	6.1	0.00e+00	0	35	104	0	60	83892
2026-01-07 07:43:08.52	100.40	7.87	-51.5	-54.0	6.1	0.00e+00	0	35	104	0	60	83825
2026-01-07 07:43:09.53	100.26	7.95	-51.6	-54.0	6.1	0.00e+00	0	35	104	0	60	83978
2026-01-07 07:43:10.54	100.11	8.03	-51.5	-54.1	6.1	0.00e+00	0	35	104	0	60	84406
2026-01-07 07:43:11.55	99.97	8.10	-51.6	-54.0	6.1	0.00e+00	0	35	104	0	60	84239
2026-01-07 07:43:12.56	99.82	8.18	-51.6	-54.0	6.1	0.00e+00	0	35	104	0	60	83935
2026-01-07 07:43:13.57	99.68	8.25	-51.5	-54.0	6.1	0.00e+00	0	35	104	0	60	84069
2026-01-07 07:43:14.59	99.53	8.33	-51.6	-54.0	6.1	0.00e+00	0	35	104	0	60	84242
2026-01-07 07:43:15.59	99.38	8.41	-51.6	-54.1	6.1	0.00e+00	0	35	104	0	60	84285
2026-01-07 07:43:16.60	99.23	8.48	-51.6	-54.0	6.1	0.00e+00	0	35	104	0	60	83993
2026-01-07 07:43:17.62	99.08	8.56	-51.6	-54.1	6.1	0.00e+00	0	35	104	0	60	84513
2026-01-07 07:43:18.63	98.93	8.64	-51.6	-54.0	6.1	0.00e+00	0	35	104	0	60	84106
2026-01-07 07:43:19.64	98.77	8.72	-51.6	-54.1	6.1	0.00e+00	0	35	104	0	60	84372
2026-01-07 07:43:20.65	98.62	8.80	-51.6	-54.0	6.1	0.00e+00	0	35	104	0	60	84117
2026-01-07 07:43:21.66	98.47	8.87	-51.6	-54.0	6.1	0.00e+00	0	35	104	0	60	83988
2026-01-07 07:43:22.67	98.31	8.95	-51.6	-54.1	6.1	0.00e+00	0	35	104	0	60	84378
2026-01-07 07:43:23.68	98.15	9.03	-51.6	-54.0	6.1	0.00e+00	0	35	104	0	60	84097
2026-01-07 07:43:24.69	98.00	9.11	-51.5	-54.0	6.1	0.00e+00	0	35	104	0	60	84061
2026-01-07 07:43:25.70	97.84	9.19	-51.6	-54.0	6.1	0.00e+00	0	35	104	0	60	83658
2026-01-07 07:43:26.71	97.68	9.26	-51.6	-54.0	6.1	0.00e+00	0	35	104	0	60	84102
2026-01-07 07:43:27.73	97.52	9.34	-51.5	-54.1	6.1	0.00e+00	0	35	104	0	60	84672
2026-01-07 07:43:28.74	97.35	9.42	-51.6	-54.0	6.1	0.00e+00	0	35	104	0	60	84200
2026-01-07 07:43:29.75	97.19	9.50	-51.6	-54.0	6.1	0.00e+00	0	35	104	0	60	84057
2026-01-07 07:43:30.75	97.03	9.58	-51.6	-54.0	6.1	0.00e+00	0	35	104	0	60	83991
2026-01-07 07:43:31.76	96.86	9.66	-51.6	-54.0	6.1	0.00e+00	0	35	104	0	60	83827
2026-01-07 07:43:32.77	96.70	9.74	-51.6	-54.0	6.1	0.00e+00	0	35	104	0	60	84147
2026-01-07 07:43:33.78	96.53	9.82	-51.6	-54.0	6.1	0.00e+00	0	35	104	0	60	84139
2026-01-07 07:43:34.79	96.36	9.90	-51.6	-54.0	6.1	0.00e+00	0	35	104	0	60	83904
2026-01-07 07:43:35.80	96.19	9.98	-51.6	-54.1	6.1	0.00e+00	0	35	104	0	60	84523
2026-01-07 07:43:36.81	96.02	10.06	-51.6	-54.0	6.1	0.00e+00	0	35	104	0	60	84014
2026-01-07 07:43:37.82	95.85	10.14	-51.6	-54.0	6.1	0.00e+00	0	35	104	0	60	83722
2026-01-07 07:43:38.83	95.67	10.22	-51.6	-54.0	6.1	0.00e+00	0	35	104	0	60	83915
2026-01-07 07:43:39.84	95.50	10.30	-51.6	-54.0	6.1	0.00e+00	0	35	104	0	60	84059
2026-01-07 07:43:40.85	95.32	10.38	-51.6	-54.0	6.1	0.00e+00	0	35	104	0	60	84234
2026-01-07 07:43:41.86	95.15	10.46	-51.6	-54.1	6.1	0.00e+00	0	35	104	0	60	84494
2026-01-07 07:43:42.87	94.97	10.54	-51.6	-54.1	6.1	0.00e+00	0	35	104	0	60	84254
2026-01-07 07:43:43.88	94.79	10.62	-51.6	-54.1	6.1	0.00e+00	0	35	104	0	60	84303
2026-01-07 07:43:44.89	94.61	10.70	-51.6	-54.0	6.1	0.00e+00	0	35	104	0	60	84046
2026-01-07 07:43:45.90	94.43	10.78	-51.6	-54.1	6.1	0.00e+00	0	35	104	0	60	84373
2026-01-07 07:43:46.91	94.24	10.86	-51.6	-54.0	6.1	0.00e+00	0	35	104	0	60	83785
2026-01-07 07:43:47.92	94.06	10.95	-51.6	-54.0	6.1	0.00e+00	0	35	104	0	60	84102
2026-01-07 07:43:48.93	93.87	11.03	-51.6	-54.0	6.1	0.00e+00	0	35	104	0	60	83953
2026-01-07 07:43:49.94	93.69	11.11	-51.6	-54.0	6.1	0.00e+00	0	35	104	0	60	84033
2026-01-07 07:43:50.95	93.50	11.19	-51.6	-54.0	6.1	0.00e+00	0	35	104	0	60	84090
2026-01-07 07:43:51.96	93.31	11.27	-51.6	-54.1	6.1	0.00e+00	0	35	104	0	60	84332
2026-01-07 07:43:52.97	93.12	11.35	-51.6	-54.0	6.1	0.00e+00	0	35	104	0	60	84126
2026-01-07 07:43:53.98	92.93	11.43	-51.6	-54.0	6.1	0.00e+00	0	35	104	0	60	83775
2026-01-07 07:43:54.99	92.73	11.52	-51.6	-54.0	6.1	0.00e+00	0	35	104	0	60	84174
2026-01-07 07:43:56.00	92.54	11.60	-51.6	-54.1	6.1	0.00e+00	0	35	104	0	60	84429
2026-01-07 07:43:57.02	92.34	11.68	-51.6	-54.0	6.1	0.00e+00	0	36	104	0	60	84227
2026-01-07 07:43:58.03	92.14	11.76	-51.6	-54.1	6.1	0.00e+00	0	35	104	0	60	84441
2026-01-07 07:43:59.04	91.95	11.85	-51.6	-54.1	6.1	0.00e+00	0	35	104	0	60	84740
2026-01-07 07:44:00.05	91.75	11.93	-51.6	-54.1	6.1	0.00e+00	0	36	104	0	60	84509
2026-01-07 07:44:01.06	91.54	12.01	-51.6	-54.1	6.1	0.00e+00	0	35	104	0	60	84459
2026-01-07 07:44:02.07	91.34	12.09	-51.6	-54.0	6.1	0.00e+00	0	36	104	0	60	83894
2026-01-07 07:44:03.08	91.14	12.18	-51.6	-54.0	6.1	0.00e+00	0	35	104	0	60	84078
2026-01-07 07:44:04.09	90.93	12.26	-51.6	-54.1	6.1	0.00e+00	0	35	104	0	60	84393
2026-01-07 07:44:05.10	90.72	12.34	-51.6	-54.1	6.1	0.00e+00	0	36	104	0	60	84298
2026-01-07 07:44:06.11	90.52	12.42	-51.6	-54.0	6.1	0.00e+00	0	35	104	0	60	84153
2026-01-07 07:44:07.12	90.31	12.51	-51.6	-54.1	6.1	0.00e+00	0	35	104	0	60	84273
2026-01-07 07:44:08.13	90.10	12.59	-51.6	-54.1	6.1	0.00e+00	0	36	104	0	60	84323
2026-01-07 07:44:09.14	89.88	12.67	-51.6	-54.0	6.1	0.00e+00	0	36	104	0	60	84197
2026-01-07 07:44:10.15	89.67	12.75	-51.6	-54.1	6.1	0.00e+00	0	36	104	0	60	84380
2026-01-07 07:44:11.16	89.45	12.84	-51.6	-54.0	6.1	0.00e+00	0	36	104	0	60	84123
2026-01-07 07:44:12.18	89.23	12.92	-51.6	-54.0	6.1	0.00e+00	0	35	104	0	60	84199
2026-01-07 07:44:13.19	89.02	13.00	-51.6	-54.1	6.1	0.00e+00	0	36	104	0	60	84294
2026-01-07 07:44:14.20	88.80	13.09	-51.6	-54.1	6.1	0.00e+00	0	36	104	0	60	84323
2026-01-07 07:44:15.21	88.57	13.17	-51.6	-54.0	6.1	0.00e+00	0	36	104	0	60	84181
2026-01-07 07:44:16.22	88.35	13.25	-51.6	-54.0	6.1	0.00e+00	0	36	104	0	60	84052
2026-01-07 07:44:17.23	88.13	13.34	-51.6	-54.0	6.1	0.00e+00	0	36	104	0	60	84040
2026-01-07 07:44:18.24	87.90	13.42	-51.6	-54.0	6.1	0.00e+00	0	36	104	0	60	84247
2026-01-07 07:44:19.25	87.67	13.50	-51.6	-54.1	6.1	0.00e+00	0	36	104	0	60	84337
2026-01-07 07:44:20.26	87.44	13.58	-51.6	-54.0	6.1	0.00e+00	0	36	104	0	60	84096
2026-01-07 07:44:21.27	87.21	13.67	-51.6	-54.0	6.1	0.00e+00	0	36	104	0	60	84132
2026-01-07 07:44:22.29	86.98	13.75	-51.6	-54.0	6.1	0.00e+00	0	36	104	0	60	83930
2026-01-07 07:44:23.30	86.75	13.83	-51.6	-54.0	6.1	0.00e+00	0	36	104	0	60	84110
2026-01-07 07:44:24.31	86.51	13.92	-51.6	-54.1	6.1	0.00e+00	0	36	104	0	60	84822
2026-01-07 07:44:25.32	86.27	14.00	-51.6	-54.0	6.1	0.00e+00	0	36	104	0	60	84061
2026-01-07 07:44:26.33	86.04	14.08	-51.6	-54.1	6.1	0.00e+00	0	36	104	0	60	84329
2026-01-07 07:44:27.34	85.79	14.16	-51.6	-54.0	6.1	0.00e+00	0	36	104	0	60	84223
2026-01-07 07:44:28.35	85.55	14.25	-51.6	-54.1	6.1	0.00e+00	0	36	104	0	60	84440
2026-01-07 07:44:29.36	85.31	14.33	-51.6	-54.0	6.1	0.00e+00	0	36	104	0	60	84230
2026-01-07 07:44:30.37	85.07	14.41	-51.6	-54.0	6.1	0.00e+00	0	36	104	0	60	84045
2026-01-07 07:44:31.38	84.82	14.49	-51.6	-54.1	6.1	0.00e+00	0	36	104	0	60	84297
2026-01-07 07:44:32.39	84.57	14.57	-51.6	-54.0	6.1	0.00e+00	0	36	104	0	60	84120
2026-01-07 07:44:33.40	84.32	14.66	-51.6	-54.1	6.1	0.00e+00	0	36	104	0	60	84562
2026-01-07 07:44:34.41	84.07	14.74	-51.6	-54.1	6.1	0.00e+00	0	36	104	0	60	84446
2026-01-07 07:44:35.43	83.81	14.82	-51.6	-54.0	6.1	0.00e+00	0	36	104	0	60	84059
2026-01-07 07:44:36.44	83.56	14.90	-51.6	-54.1	6.1	0.00e+00	0	36	104	0	60	84309
2026-01-07 07:44:37.45	83.30	14.98	-51.6	-54.1	6.1	0.00e+00	0	36	104	0	60	84444
2026-01-07 07:44:38.46	83.05	15.07	-51.6	-54.1	6.1	0.00e+00	0	36	104	0	60	84341
2026-01-07 07:44:39.47	82.79	15.15	-51.6	-54.0	6.1	0.00e+00	0	36	104	0	60	84141
2026-01-07 07:44:40.48	82.52	15.23	-51.6	-54.1	6.1	0.00e+00	0	36	104	0	60	84784
2026-01-07 07:44:41.49	82.26	15.31	-51.6	-54.1	6.1	0.00e+00	0	36	104	0	60	84552
2026-01-07 07:44:42.50	82.00	15.39	-51.6	-54.1	6.1	0.00e+00	0	36	104	0	60	84511
2026-01-07 07:44:43.51	81.73	15.47	-51.6	-54.0	6.1	0.00e+00	0	36	104	0	60	84242
2026-01-07 07:44:44.52	81.46	15.55	-51.6	-54.0	6.1	0.00e+00	0	36	104	0	60	83994
2026-01-07 07:44:45.53	81.19	15.63	-51.6	-54.1	6.1	0.00e+00	0	36	104	0	60	84401
2026-01-07 07:44:46.54	80.92	15.71	-51.6	-54.1	6.1	0.00e+00	0	36	104	0	60	84344
2026-01-07 07:44:47.55	80.65	15.79	-51.6	-54.1	6.1	0.00e+00	0	36	104	0	60	84361
2026-01-07 07:44:48.56	80.37	15.87	-51.6	-54.1	6.1	0.00e+00	0	36	104	0	60	84714
2026-01-07 07:44:49.57	80.10	15.95	-51.6	-54.1	6.1	0.00e+00	0	36	104	0	60	84358
2026-01-07 07:44:50.59	79.82	16.03	-51.6	-54.1	6.1	0.00e+00	0	36	104	0	60	84329
2026-01-07 07:44:51.60	79.54	16.10	-51.6	-54.1	6.1	0.00e+00	0	36	104	0	60	84423
2026-01-07 07:44:52.61	79.25	16.18	-51.6	-54.1	6.1	0.00e+00	0	36	104	0	60	84288
2026-01-07 07:44:53.62	78.97	16.26	-51.6	-54.1	6.1	0.00e+00	0	36	104	0	60	84312
2026-01-07 07:44:54.63	78.68	16.34	-51.6	-54.0	6.1	0.00e+00	0	36	104	0	60	83960
2026-01-07 07:44:55.64	78.40	16.41	-51.6	-54.1	6.1	0.00e+00	0	36	104	0	60	84388
2026-01-07 07:44:56.65	78.11	16.49	-51.6	-54.0	6.1	0.00e+00	0	36	104	0	60	84245
2026-01-07 07:44:57.66	77.82	16.57	-51.6	-54.1	6.1	0.00e+00	0	36	104	0	60	84509
2026-01-07 07:44:58.67	77.53	16.64	-51.6	-54.1	6.1	0.00e+00	0	36	104	0	60	84375
2026-01-07 07:44:59.68	77.23	16.72	-51.6	-54.0	6.1	0.00e+00	0	36	104	0	60	84228
2026-01-07 07:45:00.68	76.94	16.79	-51.6	-54.0	6.1	0.00e+00	0	36	104	0	60	84074
2026-01-07 07:45:01.69	76.64	16.87	-51.6	-54.1	6.1	0.00e+00	0	36	104	0	60	84322
2026-01-07 07:45:02.70	76.34	16.94	-51.6	-54.0	6.1	0.00e+00	0	36	104	0	60	84098
2026-01-07 07:45:03.71	76.04	17.02	-51.6	-54.1	6.1	0.00e+00	0	36	104	0	60	84519
2026-01-07 07:45:04.72	75.74	17.09	-51.6	-54.1	6.1	0.00e+00	0	36	104	0	60	84264
2026-01-07 07:45:05.73	75.44	17.16	-51.6	-54.1	6.1	0.00e+00	0	36	104	0	60	84756
2026-01-07 07:45:06.74	75.13	17.24	-51.6	-54.0	6.1	0.00e+00	0	36	104	0	60	84184
2026-01-07 07:45:07.75	74.82	17.31	-51.6	-54.1	6.1	0.00e+00	0	36	104	0	60	84487
2026-01-07 07:45:08.76	74.51	17.38	-51.6	-54.0	6.1	0.00e+00	0	36	104	0	60	83996
2026-01-07 07:45:09.77	74.20	17.45	-51.6	-54.1	6.1	0.00e+00	0	36	104	0	60	84719
2026-01-07 07:45:10.79	73.89	17.52	-51.6	-54.0	6.1	0.00e+00	0	36	104	0	60	84146
2026-01-07 07:45:11.80	73.57	17.59	-51.6	-54.1	6.1	0.00e+00	0	36	104	0	60	84920
2026-01-07 07:45:12.81	73.26	17.66	-51.6	-54.1	6.0	0.00e+00	0	36	104	0	60	84522
2026-01-07 07:45:13.82	72.94	17.73	-51.6	-54.1	6.1	0.00e+00	0	36	104	0	60	84536
2026-01-07 07:45:14.83	72.62	17.80	-51.6	-54.0	6.0	0.00e+00	0	36	104	0	60	84054
2026-01-07 07:45:15.84	72.30	17.87	-51.6	-54.1	6.1	0.00e+00	0	36	104	0	60	84356
2026-01-07 07:45:16.85	71.97	17.94	-51.6	-54.1	6.0	0.00e+00	0	36	104	0	60	84315
2026-01-07 07:45:17.86	71.65	18.00	-51.6	-54.1	6.1	0.00e+00	0	36	104	0	60	84412
2026-01-07 07:45:18.87	71.32	18.07	-51.6	-54.1	6.1	0.00e+00	0	36	104	0	60	84482
2026-01-07 07:45:19.89	70.99	18.14	-51.6	-54.1	6.1	0.00e+00	0	36	104	0	60	84563
2026-01-07 07:45:20.90	70.66	18.20	-51.6	-54.1	6.1	0.00e+00	0	36	104	0	60	84274
2026-01-07 07:45:21.91	70.33	18.27	-51.6	-54.1	6.1	0.00e+00	0	36	104	0	60	84490
2026-01-07 07:45:22.92	70.00	18.33	-51.6	-54.0	6.1	0.00e+00	0	36	104	0	60	84148
2026-01-07 07:45:23.93	69.66	18.39	-51.6	-54.1	6.1	0.00e+00	0	36	104	0	60	84748
2026-01-07 07:45:24.94	69.33	18.46	-51.6	-54.1	6.1	0.00e+00	0	36	104	0	60	84413
2026-01-07 07:45:25.95	68.99	18.52	-51.6	-54.1	6.1	0.00e+00	0	36	104	0	60	84260
2026-01-07 07:45:26.96	68.65	18.58	-51.6	-54.1	6.1	0.00e+00	0	36	104	0	60	84319
2026-01-07 07:45:27.97	68.31	18.64	-51.6	-54.0	6.1	0.00e+00	0	36	104	0	60	83972
2026-01-07 07:45:28.98	67.97	18.70	-51.6	-54.1	6.1	0.00e+00	0	36	104	0	60	84400
2026-01-07 07:45:30.00	67.62	18.76	-51.6	-54.0	6.1	0.00e+00	0	36	104	0	60	84055
2026-01-07 07:45:31.01	67.28	18.81	-51.6	-54.1	6.1	0.00e+00	0	36	104	0	60	84329
2026-01-07 07:45:32.02	66.93	18.87	-51.6	-54.1	6.1	0.00e+00	0	36	104	0	60	84647
2026-01-07 07:45:33.03	66.58	18.93	-51.6	-54.1	6.1	0.00e+00	0	36	104	0	60	84488
2026-01-07 07:45:34.04	66.23	18.98	-51.6	-54.0	6.1	0.00e+00	0	36	104	0	60	84243
2026-01-07 07:45:35.05	65.88	19.04	-51.6	-54.1	6.1	0.00e+00	0	36	104	0	60	84267
2026-01-07 07:45:36.06	65.53	19.09	-51.6	-54.1	6.1	0.00e+00	0	36	104	0	60	84408
2026-01-07 07:45:37.07	65.17	19.14	-51.6	-54.1	6.1	0.00e+00	0	36	104	0	60	84753
2026-01-07 07:45:38.08	64.82	19.20	-51.6	-54.0	6.1	0.00e+00	0	36	104	0	60	84245
2026-01-07 07:45:39.09	64.46	19.25	-51.6	-54.1	6.1	0.00e+00	0	36	104	0	60	84272
2026-01-07 07:45:40.10	64.10	19.30	-51.6	-54.1	6.1	0.00e+00	0	36	104	0	60	84299
2026-01-07 07:45:41.12	63.74	19.35	-51.6	-54.1	6.1	0.00e+00	0	36	104	0	60	84555
2026-01-07 07:45:42.13	63.38	19.40	-51.6	-54.1	6.1	0.00e+00	0	36	104	0	60	84679
2026-01-07 07:45:43.14	63.02	19.44	-51.6	-54.1	6.1	0.00e+00	0	36	104	0	60	84282
2026-01-07 07:45:44.15	62.66	19.49	-51.6	-54.0	6.1	0.00e+00	0	36	104	0	60	83798
2026-01-07 07:45:45.16	62.29	19.53	-51.6	-54.1	6.1	0.00e+00	0	36	104	0	60	84767
2026-01-07 07:45:46.17	61.93	19.58	-51.6	-54.1	6.0	0.00e+00	0	36	104	0	60	84442
2026-01-07 07:45:47.18	61.56	19.62	-51.6	-54.1	6.1	0.00e+00	0	36	104	0	60	84482
2026-01-07 07:45:48.19	61.19	19.66	-51.6	-54.1	6.1	0.00e+00	0	36	104	0	60	84268
2026-01-07 07:45:49.20	60.82	19.71	-51.6	-54.1	6.1	0.00e+00	0	36	104	0	60	84612
2026-01-07 07:45:50.21	60.45	19.75	-51.6	-54.1	6.1	0.00e+00	0	36	104	0	60	84486
2026-01-07 07:45:51.22	60.08	19.79	-51.6	-54.1	6.1	0.00e+00	0	36	104	0	60	84261
2026-01-07 07:45:52.23	59.71	19.82	-51.6	-54.1	6.1	0.00e+00	0	36	104	0	60	84504
2026-01-07 07:45:53.25	59.33	19.86	-51.6	-54.1	6.0	0.00e+00	0	36	104	0	60	84617
2026-01-07 07:45:54.26	58.95	19.90	-51.6	-54.0	6.1	0.00e+00	0	36	104	0	60	84245
2026-01-07 07:45:55.27	58.58	19.93	-51.6	-54.0	6.1	0.00e+00	0	36	104	0	60	84122
2026-01-07 07:45:56.28	58.20	19.97	-51.6	-54.0	6.1	0.00e+00	0	36	104	0	60	84150
2026-01-07 07:45:57.29	57.82	20.00	-51.6	-54.1	6.1	0.00e+00	0	36	104	0	60	84278
2026-01-07 07:45:58.30	57.45	20.03	-51.6	-54.1	6.1	0.00e+00	0	36	104	0	60	84604
2026-01-07 07:45:59.31	57.07	20.06	-51.6	-54.0	6.1	0.00e+00	0	36	104	0	60	84125
2026-01-07 07:46:00.32	56.69	20.09	-51.6	-54.1	6.1	0.00e+00	0	36	104	0	60	84310
2026-01-07 07:46:01.34	56.30	20.12	-51.6	-54.1	6.1	0.00e+00	0	36	104	0	60	84373
2026-01-07 07:46:02.35	55.92	20.15	-51.6	-54.1	6.1	0.00e+00	0	36	104	0	60	84434
2026-01-07 07:46:03.36	55.54	20.17	-51.6	-54.1	6.1	0.00e+00	0	36	104	0	60	84356
2026-01-07 07:46:04.37	55.15	20.20	-51.6	-54.0	6.1	0.00e+00	0	36	104	0	60	84075
2026-01-07 07:46:05.38	54.77	20.22	-51.6	-54.1	6.1	0.00e+00	0	36	104	0	60	84538
2026-01-07 07:46:06.39	54.39	20.24	-51.6	-54.1	6.1	0.00e+00	0	36	104	0	60	84289
2026-01-07 07:46:07.40	54.00	20.27	-51.6	-54.1	6.1	0.00e+00	0	36	104	0	60	84519
2026-01-07 07:46:08.41	53.62	20.29	-51.6	-54.1	6.1	0.00e+00	0	36	104	0	60	84456
2026-01-07 07:46:09.42	53.23	20.30	-51.6	-54.1	6.1	0.00e+00	0	36	104	0	60	84270
2026-01-07 07:46:10.43	52.84	20.32	-51.6	-54.1	6.1	0.00e+00	0	36	104	0	60	84546
2026-01-07 07:46:11.44	52.46	20.34	-51.6	-54.1	6.1	0.00e+00	0	36	104	0	60	84298
2026-01-07 07:46:12.45	52.07	20.35	-51.6	-54.0	6.1	0.00e+00	0	36	104	0	60	84178
2026-01-07 07:46:13.46	51.68	20.37	-51.6	-54.1	6.0	0.00e+00	0	36	104	0	60	84762
2026-01-07 07:46:14.47	51.29	20.38	-51.6	-54.1	6.1	0.00e+00	0	36	104	0	60	84629
2026-01-07 07:46:15.48	50.90	20.39	-51.6	-54.1	6.1	0.00e+00	0	36	104	0	60	84284
2026-01-07 07:46:16.49	50.51	20.40	-51.6	-54.1	6.1	0.00e+00	0	36	104	0	60	84592
2026-01-07 07:46:17.50	50.12	20.41	-51.6	-54.1	6.1	0.00e+00	0	36	104	0	60	84263
2026-01-07 07:46:18.51	49.73	20.42	-51.6	-54.0	6.1	0.00e+00	0	36	104	0	60	83988
2026-01-07 07:46:19.52	49.34	20.43	-51.6	-54.1	6.1	0.00e+00	0	36	104	0	60	84541
2026-01-07 07:46:20.54	48.95	20.43	-51.6	-54.1	6.1	0.00e+00	0	36	104	0	60	84276
2026-01-07 07:46:21.55	48.56	20.44	-51.6	-54.0	6.1	0.00e+00	0	36	104	0	60	84200
2026-01-07 07:46:22.56	48.17	20.44	-51.6	-54.1	6.1	0.00e+00	0	36	104	0	60	84361
2026-01-07 07:46:23.57	47.78	20.44	-51.6	-54.1	6.1	0.00e+00	0	36	104	0	60	84377
2026-01-07 07:46:24.58	47.39	20.44	-51.6	-54.1	6.1	0.00e+00	0	36	104	0	60	84448
2026-01-07 07:46:25.59	47.00	20.44	-51.6	-54.1	6.1	0.00e+00	0	36	104	0	60	84388
2026-01-07 07:46:26.60	46.61	20.44	-51.6	-54.1	6.1	0.00e+00	0	36	104	0	60	84513
2026-01-07 07:46:27.61	46.22	20.43	-51.6	-54.1	6.0	0.00e+00	0	36	104	0	60	84342
2026-01-07 07:46:28.62	45.83	20.43	-51.6	-54.1	6.1	0.00e+00	0	36	104	0	60	84756
2026-01-07 07:46:29.64	45.43	20.42	-51.6	-54.1	6.1	0.00e+00	0	36	104	0	60	84501
2026-01-07 07:46:30.65	45.05	20.42	-51.6	-54.1	6.1	0.00e+00	0	36	104	0	60	84512
2026-01-07 07:46:31.66	44.66	20.41	-51.6	-54.1	6.1	0.00e+00	0	36	104	0	60	84627
2026-01-07 07:46:32.67	44.27	20.40	-51.6	-54.1	6.1	0.00e+00	0	36	104	0	60	84714
2026-01-07 07:46:33.68	43.88	20.39	-51.6	-54.0	6.1	0.00e+00	0	36	104	0	60	84206
2026-01-07 07:46:34.69	43.49	20.38	-51.6	-54.1	6.1	0.00e+00	0	36	104	0	60	84422
2026-01-07 07:46:35.70	43.10	20.36	-51.6	-54.1	6.1	0.00e+00	0	36	104	0	60	84653
2026-01-07 07:46:36.71	42.71	20.35	-51.6	-54.1	6.1	0.00e+00	0	36	104	0	60	84268
2026-01-07 07:46:37.72	42.33	20.33	-51.6	-54.1	6.1	0.00e+00	0	36	104	0	60	84633
2026-01-07 07:46:38.73	41.94	20.32	-51.6	-54.1	6.1	0.00e+00	0	36	104	0	60	84469
2026-01-07 07:46:39.74	41.55	20.30	-51.6	-54.1	6.1	0.00e+00	0	36	104	0	60	84546
2026-01-07 07:46:40.75	41.17	20.28	-51.6	-54.1	6.0	0.00e+00	0	36	104	0	60	84407
2026-01-07 07:46:41.76	40.78	20.26	-51.6	-54.1	6.1	0.00e+00	0	36	104	0	60	84556
2026-01-07 07:46:42.77	40.40	20.24	-51.6	-54.1	6.1	0.00e+00	0	36	104	0	60	84812
2026-01-07 07:46:43.79	40.01	20.21	-51.6	-54.1	6.1	0.00e+00	0	36	104	0	60	84605
2026-01-07 07:46:44.80	39.63	20.19	-51.6	-54.1	6.1	0.00e+00	0	36	104	0	60	84659
2026-01-07 07:46:45.81	39.25	20.16	-51.6	-54.1	6.1	0.00e+00	0	36	104	0	60	84454
2026-01-07 07:46:46.82	38.86	20.14	-51.6	-54.1	6.1	0.00e+00	0	36	104	0	60	84283
2026-01-07 07:46:47.83	38.48	20.11	-51.6	-54.1	6.1	0.00e+00	0	36	104	0	60	84801
2026-01-07 07:46:48.84	38.10	20.08	-51.6	-54.1	6.1	0.00e+00	0	36	104	0	60	84517
2026-01-07 07:46:49.85	37.72	20.05	-51.6	-54.1	6.1	0.00e+00	0	36	104	0	60	84365
2026-01-07 07:46:50.86	37.35	20.02	-51.6	-54.1	6.1	0.00e+00	0	36	104	0	60	84615
2026-01-07 07:46:51.87	36.97	19.99	-51.6	-54.1	6.1	0.00e+00	0	36	104	0	60	84776
2026-01-07 07:46:52.88	36.59	19.95	-51.6	-54.1	6.1	0.00e+00	0	36	104	0	60	84546
2026-01-07 07:46:53.89	36.22	19.92	-51.6	-54.1	6.1	0.00e+00	0	36	104	0	60	84644
2026-01-07 07:46:54.90	35.84	19.88	-51.6	-54.1	6.1	0.00e+00	0	36	104	0	60	84798
2026-01-07 07:46:55.91	35.47	19.85	-51.6	-54.0	6.1	0.00e+00	0	36	104	0	60	84127
2026-01-07 07:46:56.93	35.09	19.81	-51.6	-54.0	6.1	0.00e+00	0	36	104	0	60	84161
2026-01-07 07:46:57.94	34.72	19.77	-51.6	-54.1	6.1	0.00e+00	0	36	104	0	60	84433
2026-01-07 07:46:58.95	34.35	19.73	-51.6	-54.1	6.1	0.00e+00	0	36	104	0	60	84379
2026-01-07 07:46:59.96	33.98	19.69	-51.6	-54.1	6.1	0.00e+00	0	36	104	0	60	84288
2026-01-07 07:47:00.97	33.61	19.65	-51.6	-54.1	6.1	0.00e+00	0	36	104	0	60	84527
2026-01-07 07:47:01.98	33.25	19.60	-51.6	-54.1	6.1	0.00e+00	0	36	104	0	60	84314
2026-01-07 07:47:02.99	32.88	19.56	-51.6	-54.1	6.1	0.00e+00	0	36	104	0	60	84658
2026-01-07 07:47:04.00	32.52	19.52	-51.6	-54.1	6.1	0.00e+00	0	36	104	0	60	84467
2026-01-07 07:47:05.01	32.15	19.47	-51.6	-54.1	6.1	0.00e+00	0	36	104	0	60	84609
2026-01-07 07:47:06.02	31.79	19.42	-51.6	-54.1	6.1	0.00e+00	0	36	104	0	60	84329
2026-01-07 07:47:07.03	31.43	19.38	-51.6	-54.1	6.1	0.00e+00	0	36	104	0	60	84591
2026-01-07 07:47:08.04	31.07	19.33	-51.6	-54.1	6.1	0.00e+00	0	36	104	0	60	84579
2026-01-07 07:47:09.06	30.71	19.28	-51.6	-54.1	6.1	0.00e+00	0	36	104	0	60	84457
2026-01-07 07:47:10.06	30.36	19.23	-51.6	-54.1	6.1	0.00e+00	0	36	104	0	60	84289
2026-01-07 07:47:11.08	30.00	19.18	-51.6	-54.1	6.1	0.00e+00	0	36	104	0	60	84415
2026-01-07 07:47:12.09	29.65	19.12	-51.6	-54.1	6.1	0.00e+00	0	36	104	0	60	84576
2026-01-07 07:47:13.09	29.30	19.07	-51.6	-54.1	6.1	0.00e+00	0	36	104	0	60	84449
2026-01-07 07:47:14.10	28.95	19.02	-51.6	-54.1	6.1	0.00e+00	0	36	104	0	60	84773
2026-01-07 07:47:15.11	28.60	18.96	-51.6	-54.1	6.1	0.00e+00	0	36	104	0	60	84660
2026-01-07 07:47:16.12	28.25	18.91	-51.6	-54.0	6.0	0.00e+00	0	36	104	0	60	84160
2026-01-07 07:47:17.13	27.90	18.85	-51.6	-54.0	6.1	0.00e+00	0	36	104	0	60	84179
2026-01-07 07:47:18.14	27.56	18.79	-51.6	-54.1	6.1	0.00e+00	0	36	104	0	60	84897
2026-01-07 07:47:19.15	27.21	18.74	-51.6	-54.1	6.1	0.00e+00	0	36	104	0	60	84288
2026-01-07 07:47:20.16	26.87	18.68	-51.6	-54.1	6.1	0.00e+00	0	36	104	0	60	84922
2026-01-07 07:47:21.17	26.53	18.62	-51.6	-54.1	6.1	0.00e+00	0	36	104	0	60	84865
2026-01-07 07:47:22.18	26.19	18.56	-51.6	-54.1	6.1	0.00e+00	0	36	104	0	60	84437
2026-01-07 07:47:23.20	25.85	18.50	-51.6	-54.1	6.1	0.00e+00	0	36	104	0	60	84649
2026-01-07 07:47:24.20	25.52	18.43	-51.6	-54.0	6.1	0.00e+00	0	36	104	0	60	84237
2026-01-07 07:47:25.21	25.19	18.37	-51.6	-54.0	6.1	0.00e+00	0	36	104	0	60	84133
2026-01-07 07:47:26.22	24.85	18.31	-51.6	-54.1	6.1	0.00e+00	0	36	104	0	60	84517
2026-01-07 07:47:27.23	24.52	18.25	-51.6	-54.0	6.1	0.00e+00	0	36	104	0	60	84241
2026-01-07 07:47:28.24	24.19	18.18	-51.6	-54.1	6.1	0.00e+00	0	36	104	0	60	84557
2026-01-07 07:47:29.25	23.87	18.12	-51.6	-54.1	6.1	0.00e+00	0	36	104	0	60	84397
2026-01-07 07:47:30.26	23.54	18.05	-51.6	-54.1	6.1	0.00e+00	0	36	104	0	60	84627
2026-01-07 07:47:31.28	23.21	17.98	-51.6	-54.1	6.1	0.00e+00	0	36	104	0	60	84548
2026-01-07 07:47:32.28	22.89	17.92	-51.6	-54.1	6.1	0.00e+00	0	36	104	0	60	84719
2026-01-07 07:47:33.30	22.57	17.85	-51.6	-54.1	6.1	0.00e+00	0	36	104	0	60	84521
2026-01-07 07:47:34.31	22.25	17.78	-51.6	-54.1	6.1	0.00e+00	0	36	104	0	60	84594
2026-01-07 07:47:35.32	21.93	17.71	-51.6	-54.1	6.1	0.00e+00	0	36	104	0	60	84469
2026-01-07 07:47:36.33	21.62	17.64	-51.6	-54.1	6.1	0.00e+00	0	36	104	0	60	84425
2026-01-07 07:47:37.34	21.30	17.57	-51.6	-54.1	6.1	0.00e+00	0	36	104	0	60	84375
2026-01-07 07:47:38.35	20.99	17.50	-51.6	-54.1	6.1	0.00e+00	0	36	104	0	60	84381
2026-01-07 07:47:39.36	20.68	17.43	-51.6	-54.1	6.1	0.00e+00	0	36	104	0	60	84251
2026-01-07 07:47:40.38	20.37	17.36	-51.6	-54.1	6.1	0.00e+00	0	36	104	0	60	84556
2026-01-07 07:47:41.39	20.06	17.29	-51.6	-54.1	6.1	0.00e+00	0	36	104	0	60	84504
2026-01-07 07:47:42.40	19.75	17.22	-51.6	-54.1	6.1	0.00e+00	0	36	104	0	60	84397
2026-01-07 07:47:43.41	19.45	17.14	-51.6	-54.1	6.1	0.00e+00	0	36	104	0	60	84386
2026-01-07 07:47:44.42	19.15	17.07	-51.6	-54.1	6.1	0.00e+00	0	36	104	0	60	84344
2026-01-07 07:47:45.43	18.85	17.00	-51.6	-54.1	6.1	0.00e+00	0	36	104	0	60	84396
2026-01-07 07:47:46.44	18.55	16.92	-51.6	-54.1	6.1	0.00e+00	0	36	104	0	60	84703
2026-01-07 07:47:47.45	18.25	16.85	-51.6	-54.1	6.1	0.00e+00	0	36	104	0	60	84732
2026-01-07 07:47:48.46	17.96	16.78	-51.6	-54.1	6.1	0.00e+00	0	36	104	0	60	84470
2026-01-07 07:47:49.47	17.66	16.70	-51.6	-54.1	6.1	0.00e+00	0	36	104	0	60	84532
2026-01-07 07:47:50.48	17.37	16.62	-51.6	-54.0	6.1	0.00e+00	0	36	104	0	60	84156
2026-01-07 07:47:51.50	17.08	16.55	-51.6	-54.1	6.1	0.00e+00	0	36	104	0	60	84641
2026-01-07 07:47:52.51	16.79	16.47	-51.6	-54.1	6.1	0.00e+00	0	36	104	0	60	84425
2026-01-07 07:47:53.52	16.50	16.40	-51.6	-54.1	6.1	0.00e+00	0	36	104	0	60	84258
2026-01-07 07:47:54.53	16.22	16.32	-51.6	-54.1	6.1	0.00e+00	0	36	104	0	60	84460
2026-01-07 07:47:55.54	15.94	16.24	-51.6	-54.1	6.1	0.00e+00	0	36	104	0	60	84610
2026-01-07 07:47:56.55	15.65	16.16	-51.6	-54.1	6.1	0.00e+00	0	36	104	0	60	84372
2026-01-07 07:47:57.56	15.37	16.09	-51.6	-54.1	6.0	0.00e+00	0	36	104	0	60	84911
2026-01-07 07:47:58.57	15.10	16.01	-51.6	-54.1	6.1	0.00e+00	0	36	104	0	60	84344
2026-01-07 07:47:59.59	14.82	15.93	-51.6	-54.1	6.1	0.00e+00	0	36	104	0	60	84416
2026-01-07 07:48:00.60	14.54	15.85	-51.6	-54.1	6.1	0.00e+00	0	36	104	0	60	84350
2026-01-07 07:48:01.61	14.27	15.77	-51.6	-54.1	6.0	0.00e+00	0	36	104	0	60	84478
2026-01-07 07:48:02.62	14.00	15.69	-51.6	-54.1	6.1	0.00e+00	0	36	104	0	60	84296
2026-01-07 07:48:03.63	13.73	15.61	-51.6	-54.1	6.1	0.00e+00	0	36	104	0	60	84584
2026-01-07 07:48:04.64	13.46	15.53	-51.6	-54.1	6.1	0.00e+00	0	36	104	0	60	84730
2026-01-07 07:48:05.65	13.20	15.45	-51.6	-54.0	6.1	0.00e+00	0	36	104	0	60	84194
2026-01-07 07:48:06.66	12.93	15.37	-51.6	-54.1	6.1	0.00e+00	0	36	104	0	60	84570
2026-01-07 07:48:07.67	12.67	15.29	-51.6	-54.1	6.1	0.00e+00	0	36	104	0	60	84787
2026-01-07 07:48:08.69	12.41	15.21	-51.6	-54.1	6.1	0.00e+00	0	36	104	0	60	84280
2026-01-07 07:48:09.70	12.15	15.13	-51.6	-54.0	6.1	0.00e+00	0	36	104	0	60	84138
2026-01-07 07:48:10.71	11.89	15.05	-51.6	-54.1	6.1	0.00e+00	0	36	104	0	60	84618
2026-01-07 07:48:11.72	11.63	14.97	-51.6	-54.1	6.1	0.00e+00	0	36	104	0	60	84338
2026-01-07 07:48:12.73	11.38	14.89	-51.6	-54.1	6.1	0.00e+00	0	36	104	0	60	84794
2026-01-07 07:48:13.74	11.13	14.81	-51.6	-54.1	6.1	0.00e+00	0	36	104	0	60	84653
2026-01-07 07:48:14.75	10.87	14.73	-51.6	-54.1	6.1	0.00e+00	0	36	104	0	60	84909
2026-01-07 07:48:15.76	10.63	14.64	-51.6	-54.1	6.1	0.00e+00	0	36	104	0	60	84506
2026-01-07 07:48:16.77	10.38	14.56	-51.6	-54.1	6.1	0.00e+00	0	36	104	0	60	84320
2026-01-07 07:48:17.78	10.13	14.48	-51.6	-54.1	6.1	0.00e+00	0	36	104	0	60	84727
2026-01-07 07:48:18.79	9.89	14.40	-51.6	-54.1	6.1	0.00e+00	0	36	104	0	60	84274
2026-01-07 07:48:19.80	9.64	14.32	-51.6	-54.1	6.1	0.00e+00	0	36	104	0	60	84327
2026-01-07 07:48:20.81	9.40	14.24	-51.6	-54.1	6.0	0.00e+00	0	36	104	0	60	84467
2026-01-07 07:48:21.83	9.16	14.15	-51.6	-54.1	6.1	0.00e+00	0	36	104	0	60	84534
2026-01-07 07:48:22.84	8.92	14.07	-51.6	-54.1	6.1	0.00e+00	0	36	104	0	60	84505
2026-01-07 07:48:23.85	8.69	13.99	-51.6	-54.1	6.1	0.00e+00	0	36	104	0	60	84480
2026-01-07 07:48:24.86	8.45	13.91	-51.6	-54.1	6.1	0.00e+00	0	36	104	0	60	84272
2026-01-07 07:48:25.87	8.22	13.82	-51.6	-54.1	6.1	0.00e+00	0	36	104	0	60	84635
2026-01-07 07:48:26.88	7.99	13.74	-51.6	-54.1	6.1	0.00e+00	0	36	104	0	60	84709
2026-01-07 07:48:27.89	7.76	13.66	-51.6	-54.0	6.1	0.00e+00	0	36	104	0	60	84203
2026-01-07 07:48:28.90	7.53	13.58	-51.6	-54.1	6.1	0.00e+00	0	36	104	0	60	84344
2026-01-07 07:48:29.91	7.30	13.50	-51.6	-54.1	6.1	0.00e+00	0	36	104	0	60	84501
2026-01-07 07:48:30.92	7.08	13.41	-51.6	-54.1	6.1	0.00e+00	0	36	104	0	60	84416
2026-01-07 07:48:31.93	6.85	13.33	-51.6	-54.1	6.1	0.00e+00	0	36	104	0	60	84843
2026-01-07 07:48:32.95	6.63	13.25	-51.6	-54.0	6.1	0.00e+00	0	36	104	0	60	84055
2026-01-07 07:48:33.96	6.41	13.16	-51.6	-54.0	6.1	0.00e+00	0	36	104	0	60	84214
2026-01-07 07:48:34.97	6.19	13.08	-51.6	-54.0	6.1	0.00e+00	0	36	104	0	60	84048
2026-01-07 07:48:35.98	5.97	13.00	-51.6	-54.0	6.1	0.00e+00	0	36	104	0	60	83802
2026-01-07 07:48:36.99	5.75	12.92	-51.6	-54.1	6.1	0.00e+00	0	36	104	0	60	84982
2026-01-07 07:48:38.00	5.54	12.84	-51.6	-54.1	6.1	0.00e+00	0	36	104	0	60	84471
2026-01-07 07:48:39.01	5.32	12.75	-51.6	-54.0	6.1	0.00e+00	0	36	104	0	60	84245
2026-01-07 07:48:40.02	5.11	12.67	-51.6	-54.1	6.1	0.00e+00	0	36	104	0	60	84616
2026-01-07 07:48:41.03	4.90	12.59	-51.6	-54.0	6.1	0.00e+00	0	36	104	0	60	84149
2026-01-07 07:48:42.04	4.69	12.51	-51.6	-54.1	6.1	0.00e+00	0	36	104	0	60	84543
2026-01-07 07:48:43.05	4.48	12.42	-51.6	-54.1	6.1	0.00e+00	0	36	104	0	60	84470
2026-01-07 07:48:44.06	4.28	12.34	-51.6	-54.0	6.1	0.00e+00	0	36	104	0	60	84170
2026-01-07 07:48:45.08	4.07	12.26	-51.6	-54.1	6.1	0.00e+00	0	36	104	0	60	84743
2026-01-07 07:48:46.09	3.87	12.18	-51.6	-54.1	6.1	0.00e+00	0	36	104	0	60	84830
2026-01-07 07:48:47.10	3.66	12.09	-51.6	-54.1	6.1	0.00e+00	0	36	104	0	60	84690
2026-01-07 07:48:48.11	3.46	12.01	-51.6	-54.1	6.1	0.00e+00	0	36	104	0	60	84912
2026-01-07 07:48:49.12	3.26	11.93	-51.6	-54.1	6.1	0.00e+00	0	36	104	0	60	84745
2026-01-07 07:48:50.13	3.06	11.85	-51.6	-54.1	6.1	0.00e+00	0	36	104	0	60	84476
2026-01-07 07:48:51.14	2.87	11.77	-51.6	-54.1	6.1	0.00e+00	0	36	104	0	60	84293
2026-01-07 07:48:52.15	2.67	11.69	-51.6	-54.0	6.1	0.00e+00	0	36	104	0	60	84182
2026-01-07 07:48:53.16	2.48	11.60	-51.6	-54.1	6.1	0.00e+00	0	36	104	0	60	84723
2026-01-07 07:48:54.18	2.28	11.52	-51.6	-54.1	6.1	0.00e+00	0	36	104	0	60	84750
2026-01-07 07:48:55.19	2.09	11.44	-51.6	-54.1	6.1	0.00e+00	0	36	104	0	60	84721
2026-01-07 07:48:56.20	1.90	11.36	-51.6	-54.1	6.1	0.00e+00	0	36	104	0	60	84416
2026-01-07 07:48:57.21	1.71	11.28	-51.6	-54.1	6.1	0.00e+00	0	36	104	0	60	84769
2026-01-07 07:48:58.22	1.53	11.20	-51.6	-54.1	6.1	0.00e+00	0	36	104	0	60	84401
2026-01-07 07:48:59.23	1.34	11.11	-51.6	-54.1	6.1	0.00e+00	0	36	104	0	60	84341
2026-01-07 07:49:00.24	1.15	11.03	-51.6	-54.1	6.1	0.00e+00	0	36	104	0	60	84953
2026-01-07 07:49:01.25	0.97	10.95	-51.6	-54.1	6.1	0.00e+00	0	36	104	0	60	84622
2026-01-07 07:49:02.26	0.79	10.87	-51.6	-54.1	6.1	0.00e+00	0	36	104	0	60	84504
2026-01-07 07:49:03.27	0.61	10.79	-51.6	-54.1	6.1	0.00e+00	0	36	104	0	60	84399
2026-01-07 07:49:04.28	0.43	10.71	-51.6	-54.1	6.1	0.00e+00	0	36	104	0	60	84717
2026-01-07 07:49:05.29	0.25	10.63	-51.6	-54.1	6.1	0.00e+00	0	36	104	0	60	84744
2026-01-07 07:49:06.30	0.07	10.55	-51.6	-54.1	6.1	0.00e+00	0	36	104	0	60	84753
2026-01-07 07:49:07.31	359.89	10.47	-51.6	-54.0	6.1	0.00e+00	0	36	104	0	60	83972
2026-01-07 07:49:08.33	359.72	10.39	-51.6	-54.1	6.1	0.00e+00	0	36	104	0	60	84525
2026-01-07 07:49:09.34	359.54	10.31	-51.6	-54.1	6.1	0.00e+00	0	36	104	0	60	84586
2026-01-07 07:49:10.35	359.37	10.23	-51.6	-54.1	6.1	0.00e+00	0	36	104	0	60	84259
2026-01-07 07:49:11.36	359.20	10.15	-51.6	-54.1	6.1	0.00e+00	0	36	104	0	60	84366
2026-01-07 07:49:12.37	359.03	10.07	-51.6	-54.1	6.1	0.00e+00	0	36	104	0	60	84380
2026-01-07 07:49:13.38	358.86	9.99	-51.6	-54.1	6.1	0.00e+00	0	36	104	0	60	84790
2026-01-07 07:49:14.39	358.69	9.91	-51.6	-54.0	6.1	0.00e+00	0	36	104	0	60	84028
2026-01-07 07:49:15.40	358.52	9.83	-51.6	-54.0	6.1	0.00e+00	0	36	104	0	60	84047
2026-01-07 07:49:16.41	358.36	9.75	-51.6	-54.1	6.1	0.00e+00	0	36	104	0	60	84949
2026-01-07 07:49:17.42	358.19	9.67	-51.6	-54.1	6.1	0.00e+00	0	36	104	0	60	84355
2026-01-07 07:49:18.44	358.03	9.59	-51.6	-54.1	6.1	0.00e+00	0	36	104	0	60	84677
2026-01-07 07:49:19.45	357.86	9.52	-51.6	-54.1	6.1	0.00e+00	0	36	104	0	60	84395
2026-01-07 07:49:20.46	357.70	9.44	-51.6	-54.0	6.0	0.00e+00	0	36	104	0	60	84025
2026-01-07 07:49:21.47	357.54	9.36	-51.6	-54.1	6.1	0.00e+00	0	36	104	0	60	84613
2026-01-07 07:49:22.48	357.38	9.28	-51.6	-54.1	6.1	0.00e+00	0	36	104	0	60	84354
2026-01-07 07:49:23.49	357.22	9.20	-51.6	-54.1	6.1	0.00e+00	0	36	104	0	60	84775
2026-01-07 07:49:24.50	357.07	9.12	-51.6	-54.1	6.1	0.00e+00	0	36	104	0	60	84440
2026-01-07 07:49:25.51	356.91	9.05	-51.6	-54.1	6.1	0.00e+00	0	36	104	0	60	84888
2026-01-07 07:49:26.52	356.76	8.97	-51.6	-54.0	6.1	0.00e+00	0	36	104	0	60	84004
2026-01-07 07:49:27.54	356.60	8.89	-51.6	-54.1	6.1	0.00e+00	0	36	104	0	60	84555
2026-01-07 07:49:28.55	356.45	8.81	-51.6	-54.1	6.1	0.00e+00	0	36	104	0	60	84690
2026-01-07 07:49:29.56	356.30	8.74	-51.6	-54.1	6.1	0.00e+00	0	36	104	0	60	84413
2026-01-07 07:49:30.57	356.14	8.66	-51.6	-54.1	6.1	0.00e+00	0	36	104	0	60	84504
2026-01-07 07:49:31.58	355.99	8.58	-51.6	-54.1	6.1	0.00e+00	0	36	104	0	60	84608
2026-01-07 07:49:32.59	355.85	8.51	-51.6	-54.1	6.1	0.00e+00	0	36	104	0	60	84453
2026-01-07 07:49:33.60	355.70	8.43	-51.6	-54.1	6.1	0.00e+00	0	36	104	0	60	84489
2026-01-07 07:49:34.61	355.55	8.35	-51.6	-54.1	6.1	0.00e+00	0	36	104	0	60	84457
2026-01-07 07:49:35.62	355.40	8.28	-51.6	-54.1	6.1	0.00e+00	0	36	104	0	60	84462
2026-01-07 07:49:36.63	355.26	8.20	-51.6	-54.1	6.1	0.00e+00	0	36	104	0	60	84736
2026-01-07 07:49:37.64	355.12	8.12	-51.6	-54.1	6.1	0.00e+00	0	36	104	0	60	84978
2026-01-07 07:49:38.65	354.97	8.05	-51.6	-54.1	6.1	0.00e+00	0	36	104	0	60	84388
2026-01-07 07:49:39.66	354.83	7.97	-51.6	-54.1	6.1	0.00e+00	0	36	104	0	60	84364
2026-01-07 07:49:40.68	354.69	7.90	-51.6	-54.1	6.1	0.00e+00	0	36	104	0	60	84278
2026-01-07 07:49:41.69	354.55	7.82	-51.6	-54.1	6.1	0.00e+00	0	36	104	0	60	84665
2026-01-07 07:49:42.70	354.41	7.75	-51.6	-54.1	6.1	0.00e+00	0	36	104	0	60	84318
2026-01-07 07:49:43.71	354.27	7.67	-51.6	-54.1	6.1	0.00e+00	0	36	104	0	60	84783
2026-01-07 07:49:44.72	354.13	7.60	-51.6	-54.1	6.1	0.00e+00	0	36	104	0	60	84419
2026-01-07 07:49:45.73	353.99	7.52	-51.6	-54.1	6.1	0.00e+00	0	36	104	0	60	84312
2026-01-07 07:49:46.74	353.86	7.45	-51.6	-54.0	6.1	0.00e+00	0	36	104	0	60	84173
2026-01-07 07:49:47.75	353.72	7.37	-51.6	-54.0	6.0	0.00e+00	0	36	104	0	60	84235
2026-01-07 07:49:48.76	353.59	7.30	-51.6	-54.1	6.1	0.00e+00	0	36	104	0	60	84570
2026-01-07 07:49:49.77	353.46	7.22	-51.6	-54.1	6.1	0.00e+00	0	36	104	0	60	84641
2026-01-07 07:49:50.79	353.32	7.15	-51.6	-54.1	6.1	0.00e+00	0	36	104	0	60	84283
2026-01-07 07:49:51.80	353.19	7.08	-51.6	-54.1	6.1	0.00e+00	0	36	104	0	60	84336
2026-01-07 07:49:52.81	353.06	7.00	-51.6	-54.1	6.1	0.00e+00	0	36	104	0	60	84505
2026-01-07 07:49:53.82	352.93	6.93	-51.6	-54.1	6.1	0.00e+00	0	36	104	0	60	84697
2026-01-07 07:49:54.83	352.80	6.86	-51.6	-54.1	6.1	0.00e+00	0	36	104	0	60	84476
2026-01-07 07:49:55.84	352.67	6.78	-51.6	-54.1	6.1	0.00e+00	0	37	104	0	60	84529
2026-01-07 07:49:56.85	352.55	6.71	-51.6	-54.1	6.1	0.00e+00	0	37	104	0	60	84741
2026-01-07 07:49:57.86	352.42	6.64	-51.6	-54.1	6.1	0.00e+00	0	36	104	0	60	84449
2026-01-07 07:49:58.87	352.29	6.56	-51.6	-54.0	6.1	0.00e+00	0	36	104	0	60	84190
2026-01-07 07:49:59.88	352.17	6.49	-51.6	-54.1	6.1	0.00e+00	0	37	104	0	60	84593
2026-01-07 07:50:00.90	352.04	6.42	-51.6	-54.1	6.1	0.00e+00	0	37	104	0	60	84826
2026-01-07 07:50:01.91	351.92	6.35	-51.6	-54.1	6.1	0.00e+00	0	36	104	0	60	84505
2026-01-07 07:50:02.92	351.80	6.27	-51.6	-54.1	6.1	0.00e+00	0	36	104	0	60	84679
2026-01-07 07:50:03.93	351.68	6.20	-51.6	-54.1	6.1	0.00e+00	0	36	104	0	60	84532
2026-01-07 07:50:04.94	351.55	6.13	-51.6	-54.1	6.1	0.00e+00	0	36	104	0	60	84760
2026-01-07 07:50:05.95	351.43	6.06	-51.6	-54.1	6.1	0.00e+00	0	36	104	0	60	84806
2026-01-07 07:50:06.96	351.32	5.99	-51.6	-54.1	6.1	0.00e+00	0	37	104	0	60	84383
2026-01-07 07:50:07.97	351.20	5.92	-51.6	-54.1	6.1	0.00e+00	0	37	104	0	60	84469
2026-01-07 07:50:08.98	351.08	5.85	-51.6	-54.1	6.1	0.00e+00	0	36	104	0	60	84332
2026-01-07 07:50:09.99	350.96	5.78	-51.6	-54.1	6.1	0.00e+00	0	36	104	0	60	84357
2026-01-07 07:50:11.00	350.84	5.70	-51.6	-54.1	6.1	0.00e+00	0	36	104	0	60	84378
2026-01-07 07:50:12.01	350.73	5.63	-51.6	-54.1	6.1	0.00e+00	0	36	104	0	60	84394
2026-01-07 07:50:13.02	350.61	5.56	-51.6	-54.1	6.1	0.00e+00	0	36	104	0	60	84598
2026-01-07 07:50:14.03	350.50	5.49	-51.6	-54.1	6.1	0.00e+00	0	36	104	0	60	84781
2026-01-07 07:50:15.05	350.39	5.42	-51.6	-54.1	6.1	0.00e+00	0	36	104	0	60	84257
2026-01-07 07:50:16.06	350.27	5.35	-51.6	-54.0	6.1	0.00e+00	0	36	104	0	60	84236
2026-01-07 07:50:17.07	350.16	5.28	-51.6	-54.1	6.1	0.00e+00	0	37	104	0	60	84732
2026-01-07 07:50:18.08	350.05	5.21	-51.6	-54.1	6.1	0.00e+00	0	36	104	0	60	84317
2026-01-07 07:50:19.09	349.94	5.14	-51.6	-54.0	6.1	0.00e+00	0	36	104	0	60	84032
2026-01-07 07:50:20.10	349.83	5.07	-51.6	-54.0	6.1	0.00e+00	0	36	104	0	60	84156
2026-01-07 07:50:21.11	349.72	5.01	-51.6	-54.1	6.1	0.00e+00	0	36	104	0	60	84462
2026-01-07 07:50:22.12	349.61	4.94	-51.6	-54.0	6.1	0.00e+00	0	36	104	0	60	84195
2026-01-07 07:50:23.14	349.50	4.87	-51.6	-54.1	6.1	0.00e+00	0	36	104	0	60	84577
2026-01-07 07:50:24.15	349.39	4.80	-51.6	-54.1	6.1	0.00e+00	0	36	104	0	60	84255
2026-01-07 07:50:25.16	349.29	4.73	-51.6	-54.1	6.1	0.00e+00	0	36	104	0	60	84492
2026-01-07 07:50:26.17	349.18	4.66	-51.6	-54.0	6.1	0.00e+00	0	37	104	0	60	84173
2026-01-07 07:50:27.18	349.07	4.59	-51.6	-54.0	6.1	0.00e+00	0	37	104	0	60	83978
2026-01-07 07:50:28.19	348.97	4.53	-51.6	-54.1	6.1	0.00e+00	0	36	104	0	60	84752
2026-01-07 07:50:29.20	348.87	4.46	-51.6	-54.1	6.1	0.00e+00	0	36	104	0	60	84740
2026-01-07 07:50:30.21	348.76	4.39	-51.6	-54.1	6.1	0.00e+00	0	36	104	0	60	84356
2026-01-07 07:50:31.22	348.66	4.32	-51.6	-54.1	6.1	0.00e+00	0	36	104	0	60	84470
2026-01-07 07:50:32.23	348.56	4.25	-51.6	-54.1	6.1	0.00e+00	0	37	104	0	60	84385
2026-01-07 07:50:33.25	348.45	4.19	-51.6	-54.1	6.1	0.00e+00	0	36	104	0	60	84301
2026-01-07 07:50:34.26	348.35	4.12	-51.6	-54.1	6.1	0.00e+00	0	36	104	0	60	84568
2026-01-07 07:50:35.27	348.25	4.05	-51.6	-54.1	6.1	0.00e+00	0	36	104	0	60	84431
2026-01-07 07:50:36.28	348.15	3.99	-51.6	-54.1	6.1	0.00e+00	0	36	104	0	60	84456
2026-01-07 07:50:37.29	348.05	3.92	-51.6	-54.1	6.1	0.00e+00	0	36	104	0	60	84566
2026-01-07 07:50:38.30	347.95	3.85	-51.6	-54.1	6.1	0.00e+00	0	36	104	0	60	84480
2026-01-07 07:50:39.31	347.86	3.79	-51.6	-54.1	6.1	0.00e+00	0	36	104	0	60	84366
2026-01-07 07:50:40.32	347.76	3.72	-51.6	-54.1	6.1	0.00e+00	0	36	104	0	60	84602
2026-01-07 07:50:41.33	347.66	3.65	-51.6	-54.1	6.1	0.00e+00	0	36	104	0	60	84486
2026-01-07 07:50:42.34	347.57	3.59	-51.6	-54.1	6.1	0.00e+00	0	36	104	0	60	84340
2026-01-07 07:50:43.35	347.47	3.52	-51.6	-54.1	6.1	0.00e+00	0	36	104	0	60	84798
2026-01-07 07:50:44.36	347.37	3.46	-51.6	-54.1	6.1	0.00e+00	0	36	104	0	60	84607
2026-01-07 07:50:45.38	347.28	3.39	-51.6	-54.1	6.1	0.00e+00	0	36	104	0	60	84425
2026-01-07 07:50:46.39	347.18	3.32	-51.6	-54.1	6.1	0.00e+00	0	36	104	0	60	84823
2026-01-07 07:50:47.40	347.09	3.26	-51.6	-54.1	6.1	0.00e+00	0	36	104	0	60	84415
2026-01-07 07:50:48.41	347.00	3.19	-51.6	-54.1	6.0	0.00e+00	0	36	104	0	60	84656
2026-01-07 07:50:49.42	346.91	3.13	-51.6	-54.1	6.1	0.00e+00	0	36	104	0	60	84478
2026-01-07 07:50:50.43	346.81	3.06	-51.6	-54.1	6.1	0.00e+00	0	37	104	0	60	84568
2026-01-07 07:50:51.44	346.72	3.00	-51.6	-54.1	6.1	0.00e+00	0	36	104	0	60	84721
2026-01-07 07:50:52.45	346.63	2.93	-51.6	-54.1	6.1	0.00e+00	0	36	104	0	60	84616
2026-01-07 07:50:53.46	346.54	2.87	-51.6	-54.1	6.1	0.00e+00	0	36	104	0	60	84322
2026-01-07 07:50:54.47	346.45	2.81	-51.6	-54.0	6.1	0.00e+00	0	36	104	0	60	84208
2026-01-07 07:50:55.49	346.36	2.74	-51.6	-54.1	6.1	0.00e+00	0	37	104	0	60	84401
2026-01-07 07:50:56.50	346.27	2.68	-51.6	-54.1	6.1	0.00e+00	0	36	104	0	60	84522
2026-01-07 07:50:57.51	346.18	2.61	-51.6	-54.1	6.1	0.00e+00	0	36	104	0	60	84589
2026-01-07 07:50:58.52	346.10	2.55	-51.6	-54.1	6.1	0.00e+00	0	36	104	0	60	84924
2026-01-07 07:50:59.53	346.01	2.49	-51.6	-54.1	6.1	0.00e+00	0	36	104	0	60	84379
2026-01-07 07:51:00.54	345.92	2.42	-51.6	-54.1	6.1	0.00e+00	0	36	104	0	60	84492
2026-01-07 07:51:01.55	345.84	2.36	-51.6	-54.1	6.1	0.00e+00	0	36	104	0	60	84712
2026-01-07 07:51:02.56	345.75	2.30	-51.6	-54.1	6.1	0.00e+00	0	36	104	0	60	84366
2026-01-07 07:51:03.57	345.67	2.23	-51.6	-54.0	6.1	0.00e+00	0	36	104	0	60	84152
2026-01-07 07:51:04.59	345.58	2.17	-51.6	-54.1	6.1	0.00e+00	0	36	104	0	60	84549
2026-01-07 07:51:05.60	345.50	2.11	-51.6	-54.0	6.1	0.00e+00	0	36	104	0	60	84103
2026-01-07 07:51:06.61	345.41	2.04	-51.6	-54.0	6.1	0.00e+00	0	36	104	0	60	84243
2026-01-07 07:51:07.62	345.33	1.98	-51.6	-54.1	6.1	0.00e+00	0	36	104	0	60	84457
2026-01-07 07:51:08.63	345.25	1.92	-51.6	-54.1	6.1	0.00e+00	0	36	104	0	60	84628
2026-01-07 07:51:09.64	345.16	1.86	-51.6	-54.0	6.1	0.00e+00	0	36	104	0	60	84197
2026-01-07 07:51:10.65	345.08	1.79	-51.6	-54.1	6.1	0.00e+00	0	36	104	0	60	84348
2026-01-07 07:51:11.66	345.00	1.73	-51.6	-54.1	6.1	0.00e+00	0	36	104	0	60	84717
2026-01-07 07:51:12.67	344.92	1.67	-51.6	-54.1	6.1	0.00e+00	0	36	104	0	60	84465
2026-01-07 07:51:13.68	344.84	1.61	-51.6	-54.1	6.1	0.00e+00	0	36	104	0	60	84643
2026-01-07 07:51:14.70	344.76	1.55	-51.6	-54.1	6.1	0.00e+00	0	36	104	0	60	84757
2026-01-07 07:51:15.71	344.68	1.49	-51.6	-54.1	6.1	0.00e+00	0	36	104	0	60	84447
2026-01-07 07:51:16.72	344.60	1.42	-51.6	-54.1	6.1	0.00e+00	0	36	104	0	60	84487
2026-01-07 07:51:17.73	344.52	1.36	-51.6	-54.0	6.1	0.00e+00	0	36	104	0	60	84090
2026-01-07 07:51:18.74	344.44	1.30	-51.6	-54.1	6.1	0.00e+00	0	36	104	0	60	84710
2026-01-07 07:51:19.75	344.36	1.24	-51.6	-54.1	6.1	0.00e+00	0	36	104	0	60	84387
2026-01-07 07:51:20.76	344.29	1.18	-51.6	-54.1	6.1	0.00e+00	0	36	104	0	60	84334
2026-01-07 07:51:21.77	344.21	1.12	-51.6	-54.1	6.1	0.00e+00	0	36	104	0	60	84640
2026-01-07 07:51:22.78	344.13	1.06	-51.6	-54.1	6.1	0.00e+00	0	36	104	0	60	84636
2026-01-07 07:51:23.79	344.06	1.00	-51.6	-54.1	6.1	0.00e+00	0	36	104	0	60	84651
2026-01-07 07:51:24.80	343.98	0.94	-51.6	-54.1	6.1	0.00e+00	0	36	104	0	60	84590
2026-01-07 07:51:25.81	343.90	0.88	-51.6	-54.1	6.1	0.00e+00	0	36	104	0	60	84586
2026-01-07 07:51:26.83	343.83	0.82	-51.6	-54.1	6.1	0.00e+00	0	36	104	0	60	84531
2026-01-07 07:51:27.84	343.75	0.76	-51.6	-54.1	6.1	0.00e+00	0	36	104	0	60	85022
2026-01-07 07:51:28.85	343.68	0.70	-51.6	-54.1	6.1	0.00e+00	0	36	104	0	60	84598
2026-01-07 07:51:29.86	343.61	0.64	-51.6	-54.1	6.1	0.00e+00	0	36	104	0	60	85011
2026-01-07 07:51:30.87	343.53	0.58	-51.6	-54.1	6.1	0.00e+00	0	36	104	0	60	84511
2026-01-07 07:51:31.88	343.46	0.52	-51.6	-54.1	6.1	0.00e+00	0	36	104	0	60	84357
2026-01-07 07:51:32.89	343.39	0.46	-51.6	-54.1	6.1	0.00e+00	0	36	104	0	60	84482
2026-01-07 07:51:33.90	343.31	0.40	-51.6	-54.1	6.1	0.00e+00	0	36	104	0	60	84629
2026-01-07 07:51:34.91	343.24	0.34	-51.6	-54.1	6.1	0.00e+00	0	36	104	0	60	84697
2026-01-07 07:51:35.93	343.17	0.28	-51.6	-54.1	6.1	0.00e+00	0	36	104	0	60	84495
2026-01-07 07:51:36.94	343.10	0.22	-51.6	-54.1	6.1	0.00e+00	0	36	104	0	60	84764
2026-01-07 07:51:37.95	343.03	0.16	-51.6	-54.0	6.1	0.00e+00	0	36	104	0	60	84213
2026-01-07 07:51:38.96	342.96	0.10	-51.6	-54.1	6.1	0.00e+00	0	36	104	0	60	84348
2026-01-07 07:51:39.97	342.89	0.04	-51.6	-54.1	6.1	0.00e+00	0	36	104	0	60	84636

#Closed at: 2026-01-07 07:51:40
#Recorded file [0 MB]: D:/lorett/data/35034_260107_104139.dat