passes_logs/2026/01/07/R4.6S_Anadyr_2ch/R4.6S_Anadyr_2ch__20260107_021049_NOAA_20_JPSS-1_rec.log

#Pass ID: 20260107_021049_NOAA 20 (JPSS-1)
#Satellite: NOAA 20 (JPSS-1)
#Configuration: NOAA 20
#almurnet v.1.7.20251203
#Start time: 2026-01-07 02:10:53

#Version: 2.2.20231116
#Station: R4.6S_Anadyr_2ch
#Location: 177.4865 lon 64.73178 lat
#TLE: 1 43013U 17073A   25350.93759711  .00000080  00000+0  58734-4 0  9994
#TLE: 2 43013  98.7603 287.1885 0002156  81.1496 278.9924 14.19526878418610

#Time	Az	El	Level	Level2	SNR	BER	BlckErr	Temp	State	Recorded	gain1	gain2
2026-01-07 02:10:53.30	207.37	0.18	-51.1	-65.3	3.3	1.54e+00	0	31	0	0	60	89724
2026-01-07 02:10:54.31	207.43	0.23	-51.4	-66.7	3.6	1.51e+00	0	31	104	0	60	105996
2026-01-07 02:10:55.32	207.49	0.29	-51.4	-66.8	3.6	1.51e+00	0	31	104	0	60	106664
2026-01-07 02:10:56.33	207.56	0.34	-51.4	-66.8	3.6	1.51e+00	0	31	104	0	60	106350
2026-01-07 02:10:57.34	207.62	0.40	-51.4	-66.8	3.6	1.51e+00	0	31	104	0	60	106285
2026-01-07 02:10:58.35	207.68	0.45	-51.4	-66.7	3.6	1.51e+00	0	32	104	0	60	105774
2026-01-07 02:10:59.36	207.75	0.50	-51.3	-66.7	3.6	1.51e+00	0	31	104	0	60	105716
2026-01-07 02:11:00.37	207.81	0.56	-51.2	-66.7	3.6	1.51e+00	0	31	104	0	60	105046
2026-01-07 02:11:01.38	207.88	0.61	-51.2	-66.6	3.6	1.51e+00	0	31	104	0	60	104470
2026-01-07 02:11:02.39	207.94	0.66	-51.2	-66.6	3.6	1.51e+00	0	32	104	0	60	103709
2026-01-07 02:11:03.40	208.01	0.72	-51.1	-66.5	3.6	1.51e+00	0	31	104	0	60	102726
2026-01-07 02:11:04.41	208.07	0.77	-51.0	-66.3	3.6	1.51e+00	0	31	104	0	60	101229
2026-01-07 02:11:05.42	208.14	0.83	-50.8	-66.1	3.6	1.51e+00	0	32	104	0	60	98666
2026-01-07 02:11:06.43	208.20	0.88	-50.4	-65.8	3.6	1.51e+00	0	32	104	0	60	94997
2026-01-07 02:11:07.44	208.27	0.94	-49.9	-65.3	3.6	1.51e+00	0	32	104	0	60	89241
2026-01-07 02:11:08.45	208.33	0.99	-49.9	-65.2	3.6	1.51e+00	0	32	104	0	60	88927
2026-01-07 02:11:09.46	208.40	1.05	-49.9	-65.2	3.6	1.51e+00	0	32	104	0	60	88495
2026-01-07 02:11:10.47	208.47	1.10	-49.9	-65.3	3.6	1.51e+00	0	32	104	0	60	89416
2026-01-07 02:11:11.47	208.53	1.15	-49.9	-65.2	3.6	1.51e+00	0	32	104	0	60	88968
2026-01-07 02:11:12.48	208.60	1.21	-49.9	-65.3	3.6	1.51e+00	0	32	104	0	60	89268
2026-01-07 02:11:13.49	208.67	1.26	-49.9	-65.2	3.6	1.51e+00	0	32	104	0	60	88864
2026-01-07 02:11:14.50	208.74	1.32	-49.9	-65.3	3.6	1.51e+00	0	32	104	0	60	89403
2026-01-07 02:11:15.51	208.80	1.37	-49.9	-65.2	3.6	1.51e+00	0	32	104	0	60	88978
2026-01-07 02:11:16.52	208.87	1.43	-49.9	-65.2	3.6	1.51e+00	0	32	104	0	60	89041
2026-01-07 02:11:17.53	208.94	1.48	-49.9	-65.3	3.6	1.51e+00	0	32	104	0	60	89272
2026-01-07 02:11:18.54	209.01	1.54	-49.9	-65.3	3.6	1.51e+00	0	32	104	0	60	89681
2026-01-07 02:11:19.55	209.08	1.59	-49.9	-65.3	3.6	1.51e+00	0	32	104	0	60	89361
2026-01-07 02:11:20.56	209.15	1.65	-49.9	-65.2	3.6	1.51e+00	0	32	104	0	60	89211
2026-01-07 02:11:21.57	209.22	1.71	-49.9	-65.3	3.6	1.51e+00	0	32	104	0	60	89682
2026-01-07 02:11:22.58	209.29	1.76	-49.9	-65.3	3.6	1.51e+00	0	32	104	0	60	89606
2026-01-07 02:11:23.59	209.36	1.82	-49.9	-65.3	3.6	1.51e+00	0	32	104	0	60	89501
2026-01-07 02:11:24.59	209.42	1.87	-49.9	-65.2	3.6	1.51e+00	0	32	104	0	60	89037
2026-01-07 02:11:25.60	209.50	1.93	-49.9	-65.2	3.6	1.51e+00	0	32	104	0	60	89214
2026-01-07 02:11:26.61	209.57	1.98	-49.9	-65.2	3.6	1.51e+00	0	32	104	0	60	88502
2026-01-07 02:11:27.62	209.64	2.04	-49.9	-65.1	3.6	1.51e+00	0	32	104	0	60	87719
2026-01-07 02:11:28.64	209.71	2.10	-49.9	-65.1	3.6	1.51e+00	0	32	104	0	60	87626
2026-01-07 02:11:29.64	209.78	2.15	-49.9	-65.1	3.6	1.51e+00	0	32	104	0	60	88195
2026-01-07 02:11:30.65	209.85	2.21	-49.9	-65.1	3.6	1.51e+00	0	32	104	0	60	88009
2026-01-07 02:11:31.66	209.92	2.26	-49.9	-65.1	3.6	1.51e+00	0	32	104	0	60	87527
2026-01-07 02:11:32.67	209.99	2.32	-49.9	-65.1	3.6	1.51e+00	0	32	104	0	60	87456
2026-01-07 02:11:33.68	210.07	2.38	-49.9	-65.1	3.6	1.51e+00	0	32	104	0	60	87242
2026-01-07 02:11:34.69	210.14	2.43	-49.9	-65.2	3.6	1.51e+00	0	32	104	0	60	88246
2026-01-07 02:11:35.70	210.21	2.49	-49.9	-65.2	3.6	1.51e+00	0	32	104	0	60	88431
2026-01-07 02:11:36.71	210.28	2.55	-49.9	-64.9	3.6	1.51e+00	0	32	104	0	60	86111
2026-01-07 02:11:37.72	210.36	2.60	-49.9	-64.3	3.6	1.51e+00	0	32	104	0	60	80080
2026-01-07 02:11:38.73	210.43	2.66	-49.9	-64.1	3.6	1.51e+00	0	32	104	0	60	77828
2026-01-07 02:11:39.74	210.51	2.72	-49.8	-63.9	3.6	1.51e+00	0	32	104	0	60	76707
2026-01-07 02:11:40.75	210.58	2.77	-49.9	-64.2	3.6	1.51e+00	0	32	104	0	60	78882
2026-01-07 02:11:41.76	210.65	2.83	-49.8	-62.7	3.6	1.51e+00	0	32	104	0	60	66595
2026-01-07 02:11:42.77	210.73	2.89	-49.5	-58.9	5.6	8.03e-01	92	32	104	0	60	43119
2026-01-07 02:11:43.78	210.80	2.94	-48.9	-55.0	9.0	1.43e-01	92	32	0	0	60	27266
2026-01-07 02:11:44.79	210.88	3.00	-47.9	-52.4	11.8	6.90e-03	91	32	102	1048576	60	20213
2026-01-07 02:11:45.79	210.95	3.06	-47.0	-50.3	14.0	1.29e-05	0	32	102	1048576	60	16000
2026-01-07 02:11:46.80	211.03	3.12	-46.2	-48.9	15.5	0.00e+00	91	32	102	1048576	60	13566
2026-01-07 02:11:47.81	211.11	3.17	-45.8	-48.2	16.1	0.00e+00	92	32	102	1048576	60	12601
2026-01-07 02:11:48.82	211.18	3.23	-45.6	-48.0	16.3	0.00e+00	92	32	102	1048576	60	12237
2026-01-07 02:11:49.83	211.26	3.29	-45.0	-47.1	17.4	0.00e+00	92	32	102	1048576	60	11049
2026-01-07 02:11:50.84	211.34	3.35	-47.9	-52.1	11.4	0.00e+00	92	32	102	1048576	60	19687
2026-01-07 02:11:51.85	211.41	3.40	-48.4	-53.7	8.0	2.42e-03	90	32	102	1048576	60	23561
2026-01-07 02:11:52.86	211.49	3.46	-49.7	-63.3	3.7	1.50e+00	0	32	104	1048576	60	71313
2026-01-07 02:11:53.87	211.57	3.52	-45.0	-47.0	17.2	7.75e-01	92	32	0	1048576	60	10892
2026-01-07 02:11:54.88	211.65	3.58	-44.9	-46.8	17.6	0.00e+00	35	32	0	1048576	60	10722
2026-01-07 02:11:55.89	211.73	3.64	-44.6	-46.4	18.1	0.00e+00	92	32	0	1048576	60	10217
2026-01-07 02:11:56.90	211.80	3.69	-44.2	-45.9	18.6	0.00e+00	92	32	0	1048576	60	9632
2026-01-07 02:11:57.91	211.88	3.75	-44.4	-46.3	18.2	0.00e+00	92	32	0	1048576	60	10032
2026-01-07 02:11:58.92	211.96	3.81	-44.5	-46.4	18.1	0.00e+00	92	32	0	1048576	60	10166
2026-01-07 02:11:59.93	212.04	3.87	-44.5	-46.3	18.1	0.00e+00	92	32	0	1048576	60	10070
2026-01-07 02:12:00.94	212.12	3.93	-44.6	-46.4	17.9	0.00e+00	92	32	0	1048576	60	10215
2026-01-07 02:12:01.95	212.20	3.99	-43.7	-45.3	19.1	0.00e+00	0	32	0	1048576	60	9014
2026-01-07 02:12:02.96	212.28	4.05	-43.2	-44.7	19.8	0.00e+00	91	32	0	1048576	60	8362
2026-01-07 02:12:03.97	212.36	4.10	-42.9	-44.3	20.2	0.00e+00	92	32	0	1048576	60	7958
2026-01-07 02:12:04.99	212.45	4.16	-42.8	-44.2	20.2	0.00e+00	92	32	0	1048576	60	7910
2026-01-07 02:12:06.00	212.53	4.22	-43.0	-44.5	20.2	0.00e+00	90	32	0	1048576	60	8146
2026-01-07 02:12:07.01	212.61	4.28	-43.1	-44.5	19.9	0.00e+00	92	32	0	1048576	60	8230
2026-01-07 02:12:08.02	212.69	4.34	-43.0	-44.4	20.1	0.00e+00	90	32	0	1048576	60	8099
2026-01-07 02:12:09.03	212.77	4.40	-43.0	-44.4	20.1	0.00e+00	0	32	0	1048576	60	8127
2026-01-07 02:12:10.04	212.86	4.46	-42.8	-44.2	20.4	0.00e+00	90	32	0	1048576	60	7902
2026-01-07 02:12:11.05	212.94	4.52	-42.9	-44.3	20.2	0.00e+00	78	32	0	1048576	60	8026
2026-01-07 02:12:12.06	213.02	4.58	-42.9	-44.2	20.4	0.00e+00	92	32	101	1048576	60	7942
2026-01-07 02:12:13.07	213.11	4.64	-42.9	-44.3	20.4	0.00e+00	92	32	101	1048576	60	7963
2026-01-07 02:12:14.08	213.19	4.70	-43.0	-44.4	20.3	0.00e+00	92	32	101	1048576	60	8048
2026-01-07 02:12:15.09	213.28	4.76	-42.9	-44.3	20.4	0.00e+00	90	32	101	1048576	60	7964
2026-01-07 02:12:16.10	213.36	4.82	-43.0	-44.4	20.2	0.00e+00	44	32	101	1048576	60	8093
2026-01-07 02:12:17.11	213.45	4.88	-43.1	-44.4	20.2	0.00e+00	91	32	101	1048576	60	8138
2026-01-07 02:12:18.12	213.53	4.94	-43.1	-44.5	20.1	0.00e+00	43	32	101	1048576	60	8222
2026-01-07 02:12:19.13	213.62	5.00	-43.3	-44.8	19.9	0.00e+00	90	32	101	1048576	60	8451
2026-01-07 02:12:20.14	213.70	5.06	-43.1	-44.6	20.0	0.00e+00	92	32	101	1048576	60	8237
2026-01-07 02:12:21.14	213.79	5.12	-43.3	-44.7	19.8	0.00e+00	92	32	101	1048576	60	8407
2026-01-07 02:12:22.15	213.87	5.18	-43.0	-44.3	20.3	0.00e+00	90	32	101	1048576	60	8037
2026-01-07 02:12:23.16	213.96	5.24	-42.9	-44.2	20.5	0.00e+00	92	32	101	1048576	60	7911
2026-01-07 02:12:24.17	214.05	5.30	-42.8	-44.2	20.5	0.00e+00	92	32	101	1048576	60	7887
2026-01-07 02:12:25.18	214.14	5.36	-42.8	-44.2	20.5	0.00e+00	0	32	101	1048576	60	7878
2026-01-07 02:12:26.19	214.22	5.42	-42.8	-44.1	20.6	0.00e+00	92	32	101	1048576	60	7834
2026-01-07 02:12:27.19	214.31	5.48	-42.8	-44.1	20.6	0.00e+00	92	32	101	1048576	60	7814
2026-01-07 02:12:28.20	214.40	5.54	-42.8	-44.1	20.7	0.00e+00	92	32	101	1048576	60	7783
2026-01-07 02:12:29.21	214.49	5.60	-42.8	-44.1	20.7	0.00e+00	92	32	101	1048576	60	7796
2026-01-07 02:12:30.22	214.58	5.66	-42.5	-43.8	20.9	0.00e+00	65	32	101	1048576	60	7569
2026-01-07 02:12:31.23	214.67	5.72	-42.6	-43.9	20.9	0.00e+00	90	32	101	1048576	60	7636
2026-01-07 02:12:32.24	214.76	5.78	-42.6	-43.9	20.8	0.00e+00	0	32	101	1048576	60	7668
2026-01-07 02:12:33.24	214.85	5.84	-42.5	-43.7	21.0	0.00e+00	90	32	101	1048576	60	7485
2026-01-07 02:12:34.25	214.94	5.91	-42.5	-43.7	21.1	0.00e+00	37	32	101	1048576	60	7463
2026-01-07 02:12:35.26	215.03	5.97	-42.4	-43.6	21.1	0.00e+00	92	32	101	1048576	60	7399
2026-01-07 02:12:36.27	215.12	6.03	-42.4	-43.7	21.0	0.00e+00	92	32	101	1048576	60	7458
2026-01-07 02:12:37.28	215.22	6.09	-42.4	-43.6	21.2	0.00e+00	90	32	101	1048576	60	7397
2026-01-07 02:12:38.29	215.31	6.15	-42.4	-43.7	21.1	0.00e+00	92	32	101	1048576	60	7432
2026-01-07 02:12:39.30	215.40	6.21	-42.3	-43.5	21.3	0.00e+00	36	32	101	1048576	60	7326
2026-01-07 02:12:40.31	215.49	6.28	-42.2	-43.4	21.4	0.00e+00	92	32	101	1048576	60	7243
2026-01-07 02:12:41.32	215.59	6.34	-42.2	-43.5	21.3	0.00e+00	33	32	101	1048576	60	7256
2026-01-07 02:12:42.33	215.68	6.40	-42.1	-43.3	21.5	0.00e+00	92	32	101	1048576	60	7116
2026-01-07 02:12:43.33	215.77	6.46	-42.1	-43.3	21.5	0.00e+00	90	32	101	1048576	60	7153
2026-01-07 02:12:44.34	215.87	6.52	-42.2	-43.4	21.3	0.00e+00	91	32	101	1048576	60	7236
2026-01-07 02:12:45.35	215.96	6.59	-42.2	-43.4	21.4	0.00e+00	92	32	101	1048576	60	7190
2026-01-07 02:12:46.36	216.06	6.65	-42.3	-43.5	21.4	0.00e+00	92	32	101	1048576	60	7261
2026-01-07 02:12:47.37	216.16	6.71	-42.2	-43.3	21.4	0.00e+00	90	32	101	1048576	60	7161
2026-01-07 02:12:48.38	216.25	6.77	-42.2	-43.4	21.5	0.00e+00	0	32	101	1048576	60	7180
2026-01-07 02:12:49.39	216.35	6.83	-42.1	-43.3	21.5	0.00e+00	90	32	101	1048576	60	7136
2026-01-07 02:12:50.40	216.45	6.90	-42.1	-43.3	21.5	0.00e+00	92	32	101	1048576	60	7105
2026-01-07 02:12:51.41	216.54	6.96	-42.0	-43.2	21.6	0.00e+00	92	32	101	1048576	60	7066
2026-01-07 02:12:52.42	216.64	7.02	-42.1	-43.2	21.6	0.00e+00	90	32	101	1048576	60	7064
2026-01-07 02:12:53.43	216.74	7.09	-42.0	-43.2	21.6	0.00e+00	90	32	101	1048576	60	7038
2026-01-07 02:12:54.44	216.84	7.15	-42.1	-43.3	21.5	0.00e+00	90	32	101	1048576	60	7134
2026-01-07 02:12:55.45	216.94	7.21	-42.0	-43.2	21.7	0.00e+00	0	32	101	1048576	60	7025
2026-01-07 02:12:56.46	217.04	7.28	-42.1	-43.3	21.6	0.00e+00	92	32	101	1048576	60	7092
2026-01-07 02:12:57.47	217.14	7.34	-42.1	-43.3	21.5	0.00e+00	91	32	101	1048576	60	7127
2026-01-07 02:12:58.47	217.24	7.40	-42.1	-43.3	21.6	0.00e+00	90	32	101	1048576	60	7095
2026-01-07 02:12:59.48	217.34	7.46	-42.1	-43.3	21.6	0.00e+00	92	32	101	1048576	60	7128
2026-01-07 02:13:00.49	217.44	7.53	-42.1	-43.3	21.6	0.00e+00	92	32	101	1048576	60	7090
2026-01-07 02:13:01.50	217.54	7.59	-42.1	-43.3	21.6	0.00e+00	91	32	101	1048576	60	7108
2026-01-07 02:13:02.51	217.64	7.66	-42.2	-43.3	21.6	0.00e+00	92	32	101	1048576	60	7165
2026-01-07 02:13:03.52	217.74	7.72	-42.1	-43.3	21.7	0.00e+00	91	32	101	1048576	60	7103
2026-01-07 02:13:04.53	217.85	7.78	-42.1	-43.3	21.7	0.00e+00	24	32	101	1048576	60	7129
2026-01-07 02:13:05.54	217.95	7.85	-42.1	-43.2	21.7	0.00e+00	90	32	101	1048576	60	7073
2026-01-07 02:13:06.55	218.05	7.91	-42.1	-43.2	21.7	0.00e+00	90	32	101	1048576	60	7059
2026-01-07 02:13:07.56	218.16	7.98	-42.0	-43.2	21.7	0.00e+00	92	32	101	1048576	60	7049
2026-01-07 02:13:08.57	218.26	8.04	-42.1	-43.3	21.6	0.00e+00	90	32	101	1048576	60	7131
2026-01-07 02:13:09.58	218.37	8.10	-42.0	-43.1	21.8	0.00e+00	92	32	101	1048576	60	6974
2026-01-07 02:13:10.59	218.47	8.17	-41.9	-43.0	21.9	0.00e+00	90	32	101	1048576	60	6852
2026-01-07 02:13:11.60	218.58	8.23	-41.8	-42.9	22.0	0.00e+00	0	32	101	1048576	60	6803
2026-01-07 02:13:12.61	218.68	8.30	-41.8	-42.9	22.0	0.00e+00	92	32	101	1048576	60	6814
2026-01-07 02:13:13.62	218.79	8.36	-41.8	-42.9	22.0	0.00e+00	90	32	101	1048576	60	6797
2026-01-07 02:13:14.63	218.90	8.43	-41.6	-42.7	22.2	0.00e+00	90	32	101	1048576	60	6622
2026-01-07 02:13:15.64	219.01	8.49	-41.5	-42.6	22.3	0.00e+00	92	32	101	1048576	60	6546
2026-01-07 02:13:16.65	219.12	8.56	-41.5	-42.6	22.3	0.00e+00	91	32	101	1048576	60	6578
2026-01-07 02:13:17.66	219.22	8.62	-41.6	-42.7	22.2	0.00e+00	91	32	101	1048576	60	6627
2026-01-07 02:13:18.67	219.33	8.69	-41.7	-42.8	22.1	0.00e+00	26	32	101	1048576	60	6730
2026-01-07 02:13:19.68	219.44	8.75	-41.6	-42.7	22.2	0.00e+00	92	32	101	1048576	60	6645
2026-01-07 02:13:20.69	219.55	8.82	-41.7	-42.8	22.2	0.00e+00	7	32	101	1048576	60	6708
2026-01-07 02:13:21.70	219.66	8.88	-41.6	-42.6	22.3	0.00e+00	90	32	101	1048576	60	6602
2026-01-07 02:13:22.71	219.77	8.95	-41.7	-42.8	22.1	0.00e+00	92	32	101	1048576	60	6764
2026-01-07 02:13:23.72	219.89	9.01	-41.7	-42.8	22.2	0.00e+00	91	32	101	1048576	60	6711
2026-01-07 02:13:24.73	220.00	9.08	-41.8	-42.9	22.0	0.00e+00	90	32	101	1048576	60	6841
2026-01-07 02:13:25.74	220.11	9.14	-41.6	-42.7	22.3	0.00e+00	37	32	101	1048576	60	6668
2026-01-07 02:13:26.75	220.22	9.21	-41.7	-42.7	22.2	0.00e+00	92	32	101	1048576	60	6687
2026-01-07 02:13:27.76	220.34	9.27	-41.8	-42.9	22.1	0.00e+00	0	32	101	1048576	60	6775
2026-01-07 02:13:28.77	220.45	9.34	-41.8	-42.8	22.1	0.00e+00	92	32	101	1048576	60	6762
2026-01-07 02:13:29.78	220.57	9.41	-41.6	-42.7	22.3	0.00e+00	92	32	101	1048576	60	6675
2026-01-07 02:13:30.79	220.68	9.47	-41.6	-42.7	22.2	0.00e+00	92	32	101	1048576	60	6677
2026-01-07 02:13:31.80	220.80	9.54	-41.7	-42.8	22.1	0.00e+00	92	32	101	1048576	60	6728
2026-01-07 02:13:32.81	220.91	9.60	-41.9	-43.0	22.1	0.00e+00	92	32	101	1048576	60	6864
2026-01-07 02:13:33.82	221.03	9.67	-41.6	-42.6	22.3	0.00e+00	92	32	101	1048576	60	6602
2026-01-07 02:13:34.83	221.14	9.74	-41.6	-42.7	22.3	0.00e+00	0	32	101	1048576	60	6656
2026-01-07 02:13:35.84	221.26	9.80	-41.6	-42.7	22.3	0.00e+00	90	32	101	1048576	60	6645
2026-01-07 02:13:36.84	221.38	9.87	-41.7	-42.7	22.2	0.00e+00	90	32	101	1048576	60	6686
2026-01-07 02:13:37.86	221.50	9.94	-41.8	-42.8	22.1	0.00e+00	92	32	101	1048576	60	6764
2026-01-07 02:13:38.87	221.62	10.00	-41.8	-42.8	22.2	0.00e+00	92	32	101	1048576	60	6767
2026-01-07 02:13:39.88	221.74	10.07	-41.8	-42.9	22.1	0.00e+00	37	32	101	1048576	60	6783
2026-01-07 02:13:40.88	221.86	10.14	-41.8	-42.9	22.1	0.00e+00	92	32	101	1048576	60	6795
2026-01-07 02:13:41.89	221.98	10.20	-41.9	-43.0	22.0	0.00e+00	0	32	101	1048576	60	6863
2026-01-07 02:13:42.90	222.10	10.27	-41.7	-42.7	22.3	0.00e+00	92	32	101	1048576	60	6689
2026-01-07 02:13:43.91	222.22	10.34	-41.7	-42.8	22.2	0.00e+00	87	32	101	1048576	60	6753
2026-01-07 02:13:44.92	222.34	10.40	-41.7	-42.7	22.2	0.00e+00	92	32	101	1048576	60	6687
2026-01-07 02:13:45.93	222.46	10.47	-41.7	-42.7	22.2	0.00e+00	92	32	101	1048576	60	6687
2026-01-07 02:13:46.94	222.59	10.54	-41.7	-42.8	22.2	0.00e+00	92	32	101	1048576	60	6719
2026-01-07 02:13:47.95	222.71	10.60	-41.4	-42.5	22.5	0.00e+00	90	32	101	1048576	60	6475
2026-01-07 02:13:48.96	222.84	10.67	-41.5	-42.5	22.4	0.00e+00	90	32	101	1048576	60	6530
2026-01-07 02:13:49.98	222.96	10.74	-41.6	-42.7	22.4	0.00e+00	92	32	101	1048576	60	6618
2026-01-07 02:13:50.98	223.09	10.81	-41.4	-42.4	22.6	0.00e+00	74	32	101	1048576	60	6458
2026-01-07 02:13:51.99	223.21	10.87	-41.5	-42.5	22.4	0.00e+00	92	32	101	1048576	60	6531
2026-01-07 02:13:53.00	223.34	10.94	-41.5	-42.6	22.4	0.00e+00	91	32	101	1048576	60	6570
2026-01-07 02:13:54.01	223.47	11.01	-41.6	-42.6	22.4	0.00e+00	92	32	101	1048576	60	6581
2026-01-07 02:13:55.02	223.59	11.08	-41.5	-42.6	22.5	0.00e+00	92	32	101	1048576	60	6576
2026-01-07 02:13:56.03	223.72	11.14	-41.4	-42.4	22.6	0.00e+00	28	32	101	1048576	60	6459
2026-01-07 02:13:57.04	223.85	11.21	-41.4	-42.4	22.6	0.00e+00	92	32	101	1048576	60	6460
2026-01-07 02:13:58.05	223.98	11.28	-41.5	-42.6	22.5	0.00e+00	11	32	101	1048576	60	6543
2026-01-07 02:13:59.07	224.11	11.35	-41.3	-42.3	22.6	0.00e+00	92	32	101	1048576	60	6378
2026-01-07 02:14:00.07	224.24	11.42	-41.3	-42.3	22.8	0.00e+00	92	32	101	1048576	60	6376
2026-01-07 02:14:01.09	224.37	11.48	-41.2	-42.2	22.8	0.00e+00	92	32	101	1048576	60	6267
2026-01-07 02:14:02.10	224.51	11.55	-41.3	-42.3	22.8	0.00e+00	92	32	101	1048576	60	6334
2026-01-07 02:14:03.11	224.64	11.62	-41.2	-42.2	22.7	0.00e+00	69	32	101	1048576	60	6304
2026-01-07 02:14:04.12	224.77	11.69	-41.2	-42.2	22.8	0.00e+00	92	32	101	1048576	60	6262
2026-01-07 02:14:05.13	224.90	11.76	-41.0	-42.0	22.6	0.00e+00	77	32	101	1048576	60	6172
2026-01-07 02:14:06.14	225.04	11.82	-41.1	-42.1	22.9	0.00e+00	90	32	101	1048576	60	6223
2026-01-07 02:14:07.15	225.17	11.89	-41.2	-42.2	22.7	0.00e+00	42	32	101	1048576	60	6292
2026-01-07 02:14:08.16	225.31	11.96	-41.2	-42.2	22.8	0.00e+00	92	32	101	1048576	60	6313
2026-01-07 02:14:09.17	225.44	12.03	-41.4	-42.4	22.6	0.00e+00	90	32	101	1048576	60	6450
2026-01-07 02:14:10.18	225.58	12.10	-41.3	-42.3	22.7	0.00e+00	92	32	101	1048576	60	6356
2026-01-07 02:14:11.19	225.72	12.17	-41.4	-42.5	22.6	0.00e+00	90	32	101	1048576	60	6467
2026-01-07 02:14:12.20	225.86	12.24	-41.2	-42.3	22.8	0.00e+00	8	32	101	1048576	60	6328
2026-01-07 02:14:13.21	225.99	12.30	-41.1	-42.1	22.9	0.00e+00	92	32	101	1048576	60	6243
2026-01-07 02:14:14.22	226.13	12.37	-41.2	-42.2	22.8	0.00e+00	14	32	101	1048576	60	6283
2026-01-07 02:14:15.23	226.27	12.44	-41.1	-42.1	22.9	0.00e+00	92	32	101	1048576	60	6187
2026-01-07 02:14:16.24	226.41	12.51	-41.2	-42.2	22.7	0.00e+00	90	32	101	1048576	60	6299
2026-01-07 02:14:17.25	226.55	12.58	-41.1	-42.1	22.9	0.00e+00	90	32	101	1048576	60	6213
2026-01-07 02:14:18.25	226.69	12.65	-41.1	-42.1	22.9	0.00e+00	91	32	101	1048576	60	6241
2026-01-07 02:14:19.27	226.84	12.72	-41.1	-42.1	22.9	0.00e+00	0	32	101	1048576	60	6243
2026-01-07 02:14:20.28	226.98	12.79	-40.9	-41.9	23.1	0.00e+00	92	32	101	1048576	60	6083
2026-01-07 02:14:21.28	227.12	12.85	-41.0	-42.0	23.0	0.00e+00	0	32	101	1048576	60	6128
2026-01-07 02:14:22.29	227.27	12.92	-41.0	-42.0	23.0	0.00e+00	90	32	101	1048576	60	6108
2026-01-07 02:14:23.31	227.41	12.99	-41.0	-42.0	23.1	0.00e+00	92	32	101	1048576	60	6105
2026-01-07 02:14:24.31	227.56	13.06	-41.0	-42.0	23.0	0.00e+00	90	32	101	1048576	60	6133
2026-01-07 02:14:25.32	227.70	13.13	-41.1	-42.1	23.0	0.00e+00	92	32	101	1048576	60	6178
2026-01-07 02:14:26.33	227.85	13.20	-40.9	-41.9	23.2	0.00e+00	0	32	101	1048576	60	6071
2026-01-07 02:14:27.34	228.00	13.27	-40.9	-41.9	23.1	0.00e+00	92	32	101	1048576	60	6078
2026-01-07 02:14:28.35	228.15	13.34	-40.9	-41.9	23.1	0.00e+00	38	32	101	1048576	60	6052
2026-01-07 02:14:29.36	228.29	13.41	-40.9	-41.9	23.1	0.00e+00	92	32	101	1048576	60	6078
2026-01-07 02:14:30.37	228.44	13.47	-40.9	-41.9	23.2	0.00e+00	92	32	101	1048576	60	6060
2026-01-07 02:14:31.38	228.59	13.54	-41.0	-42.0	23.1	0.00e+00	90	32	101	1048576	60	6107
2026-01-07 02:14:32.39	228.74	13.61	-40.8	-41.8	23.3	0.00e+00	91	32	101	1048576	60	6003
2026-01-07 02:14:33.40	228.90	13.68	-40.8	-41.8	23.2	0.00e+00	92	32	101	1048576	60	5991
2026-01-07 02:14:34.41	229.05	13.75	-40.9	-41.9	23.1	0.00e+00	92	32	101	1048576	60	6093
2026-01-07 02:14:35.42	229.20	13.82	-41.0	-42.0	23.0	0.00e+00	6	32	101	1048576	60	6120
2026-01-07 02:14:36.43	229.35	13.89	-40.9	-41.9	23.1	0.00e+00	92	32	101	1048576	60	6087
2026-01-07 02:14:37.44	229.51	13.96	-40.9	-41.9	23.1	0.00e+00	0	32	101	1048576	60	6074
2026-01-07 02:14:38.45	229.66	14.03	-41.1	-42.1	23.0	0.00e+00	92	32	101	1048576	60	6198
2026-01-07 02:14:39.46	229.82	14.10	-40.9	-41.9	23.1	0.00e+00	91	32	101	1048576	60	6083
2026-01-07 02:14:40.47	229.98	14.17	-40.8	-41.8	23.2	0.00e+00	91	32	101	1048576	60	6001
2026-01-07 02:14:41.47	230.13	14.24	-40.9	-41.8	23.3	0.00e+00	92	32	101	1048576	60	6015
2026-01-07 02:14:42.48	230.29	14.30	-40.9	-41.8	23.2	0.00e+00	44	32	101	1048576	60	6019
2026-01-07 02:14:43.49	230.45	14.37	-41.0	-42.0	23.1	0.00e+00	92	32	101	1048576	60	6125
2026-01-07 02:14:44.50	230.61	14.44	-40.8	-41.7	23.2	0.00e+00	0	32	101	1048576	60	5946
2026-01-07 02:14:45.51	230.77	14.51	-40.8	-41.8	23.2	0.00e+00	92	32	101	1048576	60	5999
2026-01-07 02:14:46.52	230.93	14.58	-40.9	-41.8	23.2	0.00e+00	91	32	101	1048576	60	6012
2026-01-07 02:14:47.53	231.09	14.65	-40.7	-41.6	23.4	0.00e+00	92	32	101	1048576	60	5878
2026-01-07 02:14:48.54	231.25	14.72	-40.6	-41.5	23.5	0.00e+00	92	32	101	1048576	60	5821
2026-01-07 02:14:49.55	231.41	14.79	-40.8	-41.7	23.3	0.00e+00	92	32	101	1048576	60	5938
2026-01-07 02:14:50.56	231.58	14.86	-40.8	-41.8	23.3	0.00e+00	90	32	101	1048576	60	5993
2026-01-07 02:14:51.57	231.74	14.93	-40.6	-41.5	23.4	0.00e+00	56	32	101	1048576	60	5828
2026-01-07 02:14:52.58	231.91	15.00	-40.7	-41.7	23.4	0.00e+00	92	32	101	1048576	60	5932
2026-01-07 02:14:53.59	232.07	15.07	-40.8	-41.7	23.4	0.00e+00	92	32	101	1048576	60	5934
2026-01-07 02:14:54.60	232.24	15.14	-40.9	-41.9	23.2	0.00e+00	91	32	101	1048576	60	6034
2026-01-07 02:14:55.61	232.41	15.20	-40.9	-41.9	23.2	0.00e+00	90	32	101	1048576	60	6037
2026-01-07 02:14:56.62	232.57	15.27	-40.9	-41.9	23.2	0.00e+00	91	32	101	1048576	60	6086
2026-01-07 02:14:57.63	232.74	15.34	-40.7	-41.6	23.3	0.00e+00	92	32	101	1048576	60	5894
2026-01-07 02:14:58.64	232.91	15.41	-40.8	-41.7	23.3	0.00e+00	7	32	101	1048576	60	5944
2026-01-07 02:14:59.64	233.08	15.48	-40.8	-41.7	23.3	0.00e+00	92	32	101	1048576	60	5962
2026-01-07 02:15:00.65	233.25	15.55	-40.7	-41.6	23.4	0.00e+00	2	32	101	1048576	60	5895
2026-01-07 02:15:01.66	233.42	15.62	-40.8	-41.7	23.3	0.00e+00	92	32	101	1048576	60	5950
2026-01-07 02:15:02.67	233.60	15.69	-40.8	-41.8	23.3	0.00e+00	92	32	101	1048576	60	5970
2026-01-07 02:15:03.69	233.77	15.76	-40.8	-41.7	23.3	0.00e+00	90	32	101	1048576	60	5952
2026-01-07 02:15:04.70	233.95	15.82	-40.8	-41.8	23.3	0.00e+00	92	32	101	1048576	60	6002
2026-01-07 02:15:05.71	234.12	15.89	-40.9	-41.8	23.2	0.00e+00	92	33	101	1048576	60	6022
2026-01-07 02:15:06.71	234.29	15.96	-40.8	-41.8	23.3	0.00e+00	92	32	101	1048576	60	5989
2026-01-07 02:15:07.73	234.47	16.03	-40.9	-41.9	23.2	0.00e+00	17	32	101	1048576	60	6060
2026-01-07 02:15:08.74	234.65	16.10	-40.8	-41.8	23.3	0.00e+00	92	32	101	1048576	60	5979
2026-01-07 02:15:09.74	234.83	16.17	-40.6	-41.5	23.6	0.00e+00	92	32	101	1048576	60	5787
2026-01-07 02:15:10.75	235.00	16.23	-40.5	-41.4	23.6	0.00e+00	92	32	101	1048576	60	5749
2026-01-07 02:15:11.76	235.18	16.30	-40.5	-41.4	23.7	0.00e+00	92	32	101	1048576	60	5714
2026-01-07 02:15:12.77	235.36	16.37	-40.6	-41.5	23.6	0.00e+00	92	32	101	1048576	60	5814
2026-01-07 02:15:13.78	235.55	16.44	-40.4	-41.3	23.8	0.00e+00	92	32	101	1048576	60	5675
2026-01-07 02:15:14.79	235.73	16.51	-40.5	-41.4	23.7	0.00e+00	46	32	101	1048576	60	5718
2026-01-07 02:15:15.80	235.91	16.57	-40.5	-41.4	23.7	0.00e+00	90	32	101	1048576	60	5737
2026-01-07 02:15:16.81	236.09	16.64	-40.5	-41.4	23.7	0.00e+00	91	33	101	1048576	60	5721
2026-01-07 02:15:17.82	236.28	16.71	-40.5	-41.5	23.7	0.00e+00	92	32	101	1048576	60	5762
2026-01-07 02:15:18.83	236.46	16.78	-40.4	-41.3	23.8	0.00e+00	90	32	101	1048576	60	5683
2026-01-07 02:15:19.84	236.65	16.85	-40.3	-41.2	23.8	0.00e+00	92	32	101	1048576	60	5627
2026-01-07 02:15:20.86	236.84	16.91	-40.3	-41.2	23.9	0.00e+00	90	32	101	1048576	60	5601
2026-01-07 02:15:21.86	237.02	16.98	-40.1	-41.0	24.0	0.00e+00	28	32	101	1048576	58	6153
2026-01-07 02:15:22.88	237.21	17.05	-40.0	-40.9	24.1	0.00e+00	91	32	101	1048576	58	6082
2026-01-07 02:15:23.89	237.40	17.11	-40.0	-40.9	24.1	0.00e+00	7	32	101	1048576	58	6059
2026-01-07 02:15:24.90	237.59	17.18	-40.1	-41.0	24.0	0.00e+00	91	32	101	1048576	58	6113
2026-01-07 02:15:25.91	237.78	17.25	-40.2	-41.1	23.9	0.00e+00	90	32	101	1048576	58	6227
2026-01-07 02:15:26.92	237.98	17.32	-40.1	-41.0	23.9	0.00e+00	92	32	101	1048576	58	6126
2026-01-07 02:15:27.93	238.17	17.38	-40.2	-41.1	23.9	0.00e+00	92	32	101	1048576	58	6228
2026-01-07 02:15:28.94	238.36	17.45	-40.3	-41.2	23.8	0.00e+00	91	32	101	1048576	58	6254
2026-01-07 02:15:29.95	238.56	17.52	-40.1	-40.9	24.0	0.00e+00	92	32	101	1048576	58	6096
2026-01-07 02:15:30.96	238.75	17.58	-40.1	-41.0	24.0	0.00e+00	0	32	101	1048576	58	6125
2026-01-07 02:15:31.97	238.95	17.65	-39.9	-40.7	24.2	0.00e+00	92	32	101	1048576	58	5959
2026-01-07 02:15:32.98	239.14	17.71	-39.9	-40.8	24.1	0.00e+00	91	32	101	1048576	58	5967
2026-01-07 02:15:33.99	239.34	17.78	-39.7	-40.6	24.4	0.00e+00	92	32	101	1048576	58	5867
2026-01-07 02:15:35.00	239.54	17.84	-39.9	-40.7	24.2	0.00e+00	92	32	101	1048576	58	5956
2026-01-07 02:15:36.01	239.74	17.91	-39.6	-40.5	24.5	0.00e+00	92	32	101	1048576	58	5785
2026-01-07 02:15:37.02	239.94	17.98	-39.7	-40.6	24.3	0.00e+00	92	32	101	1048576	58	5837
2026-01-07 02:15:38.03	240.14	18.04	-39.6	-40.5	24.4	0.00e+00	0	32	101	1048576	58	5787
2026-01-07 02:15:39.04	240.34	18.11	-39.7	-40.5	24.4	0.00e+00	92	32	101	1048576	58	5822
2026-01-07 02:15:40.05	240.54	18.17	-39.7	-40.6	24.3	0.00e+00	91	32	101	1048576	58	5864
2026-01-07 02:15:41.06	240.75	18.24	-39.9	-40.7	24.2	0.00e+00	91	32	101	1048576	58	5959
2026-01-07 02:15:42.07	240.95	18.30	-39.5	-40.4	24.5	0.00e+00	92	32	101	1048576	58	5719
2026-01-07 02:15:43.08	241.16	18.36	-39.7	-40.5	24.4	0.00e+00	92	32	101	1048576	58	5798
2026-01-07 02:15:44.08	241.36	18.43	-39.6	-40.4	24.5	0.00e+00	92	32	101	1048576	58	5732
2026-01-07 02:15:45.10	241.57	18.49	-39.5	-40.3	24.6	0.00e+00	0	32	101	1048576	58	5662
2026-01-07 02:15:46.10	241.77	18.56	-39.5	-40.4	24.5	0.00e+00	92	32	101	1048576	58	5714
2026-01-07 02:15:47.11	241.98	18.62	-39.7	-40.5	24.5	0.00e+00	0	32	101	1048576	58	5800
2026-01-07 02:15:48.12	242.19	18.68	-39.6	-40.5	24.4	0.00e+00	92	32	101	1048576	58	5798
2026-01-07 02:15:49.13	242.40	18.75	-39.8	-40.6	24.3	0.00e+00	90	32	101	1048576	58	5889
2026-01-07 02:15:50.14	242.61	18.81	-39.8	-40.7	24.1	0.00e+00	92	32	101	1048576	58	5931
2026-01-07 02:15:51.15	242.82	18.87	-39.9	-40.7	24.3	0.00e+00	92	32	101	1048576	58	5953
2026-01-07 02:15:52.16	243.04	18.93	-40.0	-40.9	24.1	0.00e+00	40	32	101	1048576	58	6050
2026-01-07 02:15:53.17	243.25	19.00	-39.7	-40.6	24.4	0.00e+00	92	32	101	1048576	58	5868
2026-01-07 02:15:54.18	243.47	19.06	-39.8	-40.7	24.3	0.00e+00	0	32	101	1048576	58	5927
2026-01-07 02:15:55.19	243.68	19.12	-39.8	-40.6	24.3	0.00e+00	92	32	101	1048576	58	5886
2026-01-07 02:15:56.20	243.90	19.18	-39.8	-40.7	24.2	0.00e+00	92	32	101	1048576	58	5898
2026-01-07 02:15:57.21	244.11	19.24	-39.9	-40.8	24.2	0.00e+00	92	32	101	1048576	58	5976
2026-01-07 02:15:58.22	244.33	19.30	-40.1	-41.0	24.0	0.00e+00	92	32	101	1048576	58	6124
2026-01-07 02:15:59.23	244.55	19.36	-40.3	-41.2	23.9	0.00e+00	90	32	101	1048576	58	6256
2026-01-07 02:16:00.24	244.77	19.42	-40.5	-41.4	23.6	0.00e+00	92	32	101	1048576	58	6457
2026-01-07 02:16:01.25	244.99	19.48	-40.7	-41.6	23.5	0.00e+00	0	32	101	1048576	58	6603
2026-01-07 02:16:02.26	245.21	19.54	-40.8	-41.8	23.3	0.00e+00	92	32	101	1048576	58	6731
2026-01-07 02:16:03.27	245.43	19.60	-40.8	-41.7	23.5	0.00e+00	92	32	101	1048576	58	6686
2026-01-07 02:16:04.28	245.66	19.66	-40.8	-41.7	23.4	0.00e+00	92	32	101	1048576	58	6691
2026-01-07 02:16:05.29	245.88	19.72	-40.9	-41.9	23.3	0.00e+00	91	32	101	1048576	58	6771
2026-01-07 02:16:06.30	246.10	19.78	-40.9	-41.8	23.3	0.00e+00	90	32	101	1048576	58	6753
2026-01-07 02:16:07.31	246.33	19.84	-40.9	-41.9	23.3	0.00e+00	91	32	101	1048576	58	6788
2026-01-07 02:16:08.32	246.55	19.90	-41.0	-41.9	23.3	0.00e+00	34	32	101	1048576	58	6840
2026-01-07 02:16:09.33	246.78	19.96	-41.0	-42.0	23.2	0.00e+00	92	32	101	1048576	58	6885
2026-01-07 02:16:10.34	247.01	20.01	-41.3	-42.3	23.0	0.00e+00	0	32	101	1048576	60	6364
2026-01-07 02:16:11.35	247.24	20.07	-41.6	-42.6	22.7	0.00e+00	90	32	101	1048576	60	6563
2026-01-07 02:16:12.36	247.47	20.13	-41.7	-42.8	22.6	0.00e+00	92	32	101	1048576	60	6735
2026-01-07 02:16:13.37	247.70	20.18	-42.0	-43.1	22.3	0.00e+00	91	32	101	1048576	60	6949
2026-01-07 02:16:14.38	247.93	20.24	-42.1	-43.2	22.2	0.00e+00	92	32	101	1048576	60	7034
2026-01-07 02:16:15.39	248.16	20.30	-42.3	-43.4	22.0	0.00e+00	92	32	101	1048576	60	7223
2026-01-07 02:16:16.40	248.39	20.35	-42.3	-43.5	21.9	0.00e+00	92	32	101	1048576	60	7272
2026-01-07 02:16:17.41	248.63	20.41	-42.3	-43.4	22.0	0.00e+00	45	32	101	1048576	60	7187
2026-01-07 02:16:18.42	248.86	20.46	-42.2	-43.3	22.0	0.00e+00	92	32	101	1048576	60	7168
2026-01-07 02:16:19.43	249.10	20.52	-42.1	-43.2	22.2	0.00e+00	92	32	101	1048576	60	7043
2026-01-07 02:16:20.44	249.33	20.57	-41.7	-42.7	22.6	0.00e+00	92	32	101	1048576	60	6679
2026-01-07 02:16:21.45	249.57	20.62	-41.6	-42.7	22.7	0.00e+00	90	32	101	1048576	60	6629
2026-01-07 02:16:22.46	249.81	20.68	-41.4	-42.4	22.7	0.00e+00	92	32	101	1048576	60	6454
2026-01-07 02:16:23.47	250.04	20.73	-41.6	-42.6	22.8	0.00e+00	92	32	101	1048576	60	6564
2026-01-07 02:16:24.48	250.28	20.78	-41.6	-42.6	22.7	0.00e+00	0	32	101	1048576	60	6581
2026-01-07 02:16:25.49	250.52	20.84	-41.6	-42.7	22.7	0.00e+00	92	32	101	1048576	60	6632
2026-01-07 02:16:26.50	250.76	20.89	-41.5	-42.5	22.8	0.00e+00	84	32	101	1048576	60	6531
2026-01-07 02:16:27.51	251.01	20.94	-41.5	-42.5	22.8	0.00e+00	91	32	101	1048576	60	6474
2026-01-07 02:16:28.52	251.25	20.99	-41.4	-42.4	22.9	0.00e+00	91	32	101	1048576	60	6407
2026-01-07 02:16:29.53	251.49	21.04	-41.4	-42.4	23.0	0.00e+00	50	32	101	1048576	60	6459
2026-01-07 02:16:30.54	251.74	21.09	-41.3	-42.3	23.0	0.00e+00	92	32	101	1048576	60	6328
2026-01-07 02:16:31.55	251.98	21.14	-41.1	-42.1	23.2	0.00e+00	55	32	101	1048576	60	6204
2026-01-07 02:16:32.56	252.23	21.19	-41.1	-42.1	23.2	0.00e+00	92	32	101	1048576	60	6206
2026-01-07 02:16:33.57	252.47	21.24	-40.9	-41.9	23.4	0.00e+00	16	32	101	1048576	60	6068
2026-01-07 02:16:34.58	252.72	21.29	-40.7	-41.6	23.6	0.00e+00	91	32	101	1048576	60	5880
2026-01-07 02:16:35.59	252.97	21.34	-40.7	-41.6	23.6	0.00e+00	92	32	101	1048576	60	5885
2026-01-07 02:16:36.60	253.22	21.39	-40.6	-41.5	23.7	0.00e+00	92	32	101	1048576	60	5776
2026-01-07 02:16:37.61	253.46	21.43	-40.5	-41.4	23.8	0.00e+00	92	32	101	1048576	60	5699
2026-01-07 02:16:38.62	253.71	21.48	-40.7	-41.6	23.7	0.00e+00	0	32	101	1048576	60	5869
2026-01-07 02:16:39.63	253.96	21.53	-40.9	-41.8	23.3	0.00e+00	92	32	101	1048576	60	6024
2026-01-07 02:16:40.64	254.22	21.57	-41.0	-42.0	23.2	0.00e+00	0	32	101	1048576	60	6140
2026-01-07 02:16:41.65	254.47	21.62	-41.4	-42.4	23.0	0.00e+00	92	32	101	1048576	60	6428
2026-01-07 02:16:42.65	254.72	21.66	-41.4	-42.4	22.9	0.00e+00	91	32	101	1048576	60	6417
2026-01-07 02:16:43.66	254.97	21.71	-41.5	-42.5	22.9	0.00e+00	53	32	101	1048576	60	6510
2026-01-07 02:16:44.67	255.23	21.75	-41.5	-42.5	22.9	0.00e+00	92	32	101	1048576	60	6505
2026-01-07 02:16:45.68	255.48	21.79	-41.5	-42.5	22.8	0.00e+00	48	32	101	1048576	60	6505
2026-01-07 02:16:46.69	255.74	21.84	-41.5	-42.5	22.9	0.00e+00	90	32	101	1048576	60	6493
2026-01-07 02:16:47.70	255.99	21.88	-41.4	-42.4	22.9	0.00e+00	46	32	101	1048576	60	6430
2026-01-07 02:16:48.71	256.25	21.92	-41.4	-42.4	22.9	0.00e+00	90	32	101	1048576	60	6453
2026-01-07 02:16:49.72	256.51	21.96	-41.2	-42.2	23.1	0.00e+00	90	32	101	1048576	60	6258
2026-01-07 02:16:50.73	256.77	22.00	-41.2	-42.2	23.0	0.00e+00	92	32	101	1048576	60	6285
2026-01-07 02:16:51.74	257.02	22.04	-41.2	-42.1	23.1	0.00e+00	90	32	101	1048576	60	6224
2026-01-07 02:16:52.75	257.28	22.08	-41.1	-42.1	23.2	0.00e+00	92	32	101	1048576	60	6194
2026-01-07 02:16:53.76	257.54	22.12	-41.2	-42.2	23.0	0.00e+00	91	32	101	1048576	60	6295
2026-01-07 02:16:54.77	257.81	22.16	-41.4	-42.3	23.0	0.00e+00	6	32	101	1048576	60	6389
2026-01-07 02:16:55.79	258.07	22.20	-41.5	-42.5	22.8	0.00e+00	90	32	101	1048576	60	6473
2026-01-07 02:16:56.80	258.33	22.24	-41.4	-42.4	23.0	0.00e+00	46	32	101	1048576	60	6406
2026-01-07 02:16:57.81	258.59	22.27	-41.4	-42.4	23.0	0.00e+00	92	32	101	1048576	60	6423
2026-01-07 02:16:58.82	258.86	22.31	-41.2	-42.1	23.2	0.00e+00	90	32	101	1048576	60	6235
2026-01-07 02:16:59.83	259.12	22.35	-41.2	-42.2	23.1	0.00e+00	2	32	101	1048576	60	6255
2026-01-07 02:17:00.84	259.39	22.38	-40.9	-41.9	23.4	0.00e+00	90	32	101	1048576	60	6065
2026-01-07 02:17:01.85	259.65	22.42	-40.8	-41.7	23.6	0.00e+00	0	32	101	1048576	60	5928
2026-01-07 02:17:02.86	259.92	22.45	-40.7	-41.7	23.6	0.00e+00	93	32	101	1048576	60	5907
2026-01-07 02:17:03.86	260.18	22.49	-40.9	-41.8	23.5	0.00e+00	0	32	101	1048576	60	6011
2026-01-07 02:17:04.87	260.45	22.52	-40.8	-41.7	23.6	0.00e+00	91	32	101	1048576	60	5926
2026-01-07 02:17:05.88	260.71	22.55	-40.8	-41.8	23.5	0.00e+00	92	32	101	1048576	60	5983
2026-01-07 02:17:06.89	260.98	22.58	-40.6	-41.6	23.5	0.00e+00	92	32	101	1048576	60	5837
2026-01-07 02:17:07.90	261.25	22.61	-40.6	-41.5	23.7	0.00e+00	92	32	101	1048576	60	5813
2026-01-07 02:17:08.91	261.52	22.65	-40.7	-41.6	23.6	0.00e+00	0	32	101	1048576	60	5864
2026-01-07 02:17:09.92	261.79	22.68	-40.7	-41.7	23.5	0.00e+00	92	32	101	1048576	60	5921
2026-01-07 02:17:10.93	262.06	22.71	-40.8	-41.8	23.6	0.00e+00	40	32	101	1048576	60	5975
2026-01-07 02:17:11.94	262.33	22.73	-40.7	-41.6	23.5	0.00e+00	92	32	101	1048576	60	5892
2026-01-07 02:17:12.95	262.60	22.76	-40.8	-41.8	23.5	0.00e+00	92	32	101	1048576	60	5971
2026-01-07 02:17:13.95	262.87	22.79	-41.0	-42.0	23.3	0.00e+00	92	32	101	1048576	60	6134
2026-01-07 02:17:14.96	263.14	22.82	-40.9	-41.9	23.3	0.00e+00	92	32	101	1048576	60	6072
2026-01-07 02:17:15.97	263.41	22.84	-41.1	-42.1	23.2	0.00e+00	7	32	101	1048576	60	6225
2026-01-07 02:17:16.98	263.69	22.87	-41.4	-42.4	22.9	0.00e+00	91	32	101	1048576	60	6418
2026-01-07 02:17:17.99	263.96	22.89	-41.4	-42.4	22.9	0.00e+00	32	32	101	1048576	60	6448
2026-01-07 02:17:19.00	264.23	22.92	-41.6	-42.6	22.8	0.00e+00	92	32	101	1048576	60	6575
2026-01-07 02:17:20.02	264.51	22.94	-41.6	-42.6	22.5	0.00e+00	0	32	101	1048576	60	6576
2026-01-07 02:17:21.03	264.78	22.97	-41.6	-42.6	22.7	0.00e+00	92	32	101	1048576	60	6579
2026-01-07 02:17:22.04	265.06	22.99	-41.6	-42.6	22.7	0.00e+00	92	32	101	1048576	60	6604
2026-01-07 02:17:23.05	265.33	23.01	-41.5	-42.5	22.9	0.00e+00	0	32	101	1048576	60	6480
2026-01-07 02:17:24.05	265.61	23.03	-41.4	-42.4	23.0	0.00e+00	90	32	101	1048576	60	6393
2026-01-07 02:17:25.06	265.88	23.05	-41.4	-42.4	22.9	0.00e+00	0	32	101	1048576	60	6462
2026-01-07 02:17:26.07	266.16	23.07	-41.2	-42.2	23.1	0.00e+00	90	32	101	1048576	60	6246
2026-01-07 02:17:27.08	266.44	23.09	-41.3	-42.3	22.9	0.00e+00	0	32	101	1048576	60	6351
2026-01-07 02:17:28.09	266.71	23.11	-41.0	-42.0	23.3	0.00e+00	92	32	101	1048576	60	6120
2026-01-07 02:17:29.10	266.99	23.13	-41.2	-42.1	23.3	0.00e+00	92	32	101	1048576	60	6239
2026-01-07 02:17:30.11	267.27	23.15	-40.8	-41.8	23.5	0.00e+00	92	32	101	1048576	60	5969
2026-01-07 02:17:31.12	267.55	23.16	-40.8	-41.7	23.4	0.00e+00	92	32	101	1048576	60	5963
2026-01-07 02:17:32.13	267.82	23.18	-41.0	-42.0	23.3	0.00e+00	46	32	101	1048576	60	6141
2026-01-07 02:17:33.14	268.10	23.19	-41.0	-41.9	23.4	0.00e+00	92	32	101	1048576	60	6073
2026-01-07 02:17:34.15	268.38	23.21	-40.9	-41.8	23.5	0.00e+00	43	32	101	1048576	60	6002
2026-01-07 02:17:35.16	268.66	23.22	-40.9	-41.9	23.4	0.00e+00	92	32	101	1048576	60	6049
2026-01-07 02:17:36.17	268.94	23.24	-40.8	-41.8	23.5	0.00e+00	92	32	101	1048576	60	5976
2026-01-07 02:17:37.18	269.22	23.25	-40.5	-41.4	23.8	0.00e+00	90	32	101	1048576	60	5744
2026-01-07 02:17:38.19	269.50	23.26	-40.5	-41.4	23.8	0.00e+00	92	32	101	1048576	60	5753
2026-01-07 02:17:39.20	269.78	23.27	-40.5	-41.4	23.8	0.00e+00	0	32	101	1048576	60	5721
2026-01-07 02:17:40.21	270.06	23.28	-40.6	-41.5	23.7	0.00e+00	92	32	101	1048576	60	5810
2026-01-07 02:17:41.21	270.33	23.29	-40.7	-41.6	23.6	0.00e+00	46	32	101	1048576	60	5853
2026-01-07 02:17:42.22	270.61	23.30	-40.9	-41.8	23.4	0.00e+00	91	32	101	1048576	60	6006
2026-01-07 02:17:43.23	270.89	23.31	-41.0	-42.0	23.3	0.00e+00	17	32	101	1048576	60	6139
2026-01-07 02:17:44.24	271.17	23.32	-41.0	-41.9	23.3	0.00e+00	90	32	101	1048576	60	6076
2026-01-07 02:17:45.25	271.46	23.33	-41.0	-41.9	23.3	0.00e+00	92	32	101	1048576	60	6086
2026-01-07 02:17:46.26	271.74	23.33	-40.9	-41.9	23.4	0.00e+00	0	32	101	1048576	60	6071
2026-01-07 02:17:47.27	272.02	23.34	-40.7	-41.6	23.6	0.00e+00	91	32	101	1048576	60	5880
2026-01-07 02:17:48.28	272.30	23.34	-40.6	-41.5	23.7	0.00e+00	0	32	101	1048576	60	5809
2026-01-07 02:17:49.28	272.58	23.35	-40.5	-41.5	23.8	0.00e+00	91	32	101	1048576	60	5768
2026-01-07 02:17:50.29	272.86	23.35	-40.5	-41.4	23.8	0.00e+00	0	32	101	1048576	60	5731
2026-01-07 02:17:51.30	273.14	23.35	-40.5	-41.4	23.7	0.00e+00	91	32	101	1048576	60	5741
2026-01-07 02:17:52.31	273.42	23.36	-40.6	-41.5	23.7	0.00e+00	90	32	101	1048576	60	5793
2026-01-07 02:17:53.32	273.70	23.36	-40.8	-41.7	23.5	0.00e+00	91	32	101	1048576	60	5926
2026-01-07 02:17:54.33	273.98	23.36	-40.8	-41.7	23.5	0.00e+00	92	32	101	1048576	60	5963
2026-01-07 02:17:55.34	274.26	23.36	-40.9	-41.9	23.4	0.00e+00	0	32	101	1048576	60	6035
2026-01-07 02:17:56.35	274.54	23.36	-40.9	-41.8	23.4	0.00e+00	90	32	101	1048576	60	6033
2026-01-07 02:17:57.36	274.82	23.36	-40.8	-41.7	22.9	0.00e+00	48	32	101	1048576	60	5947
2026-01-07 02:17:58.37	275.11	23.35	-40.7	-41.7	23.6	0.00e+00	92	32	101	1048576	60	5900
2026-01-07 02:17:59.38	275.39	23.35	-40.7	-41.6	23.6	0.00e+00	22	32	101	1048576	60	5869
2026-01-07 02:18:00.39	275.67	23.35	-40.4	-41.3	23.8	0.00e+00	92	32	101	1048576	60	5683
2026-01-07 02:18:01.40	275.95	23.34	-40.4	-41.3	23.8	0.00e+00	90	32	101	1048576	60	5692
2026-01-07 02:18:02.41	276.23	23.34	-40.6	-41.5	23.7	0.00e+00	7	32	101	1048576	60	5782
2026-01-07 02:18:03.42	276.51	23.33	-40.8	-41.7	23.6	0.00e+00	91	32	101	1048576	60	5950
2026-01-07 02:18:04.43	276.79	23.33	-41.0	-41.9	23.3	0.00e+00	0	32	101	1048576	60	6089
2026-01-07 02:18:05.44	277.07	23.32	-41.2	-42.2	23.0	0.00e+00	92	32	101	1048576	60	6306
2026-01-07 02:18:06.45	277.35	23.31	-41.3	-42.3	22.9	0.00e+00	0	32	101	1048576	60	6375
2026-01-07 02:18:07.46	277.63	23.30	-41.4	-42.4	22.9	0.00e+00	92	32	101	1048576	60	6453
2026-01-07 02:18:08.47	277.91	23.29	-41.3	-42.3	23.0	0.00e+00	92	32	101	1048576	60	6319
2026-01-07 02:18:09.48	278.19	23.28	-41.3	-42.3	23.0	0.00e+00	44	32	101	1048576	60	6320
2026-01-07 02:18:10.49	278.47	23.27	-41.3	-42.3	23.0	0.00e+00	92	32	101	1048576	60	6356
2026-01-07 02:18:11.50	278.75	23.26	-41.1	-42.1	23.2	0.00e+00	38	32	101	1048576	60	6214
2026-01-07 02:18:12.50	279.03	23.25	-41.1	-42.0	23.2	0.00e+00	91	32	101	1048576	60	6162
2026-01-07 02:18:13.51	279.31	23.24	-41.0	-41.9	23.3	0.00e+00	8	32	101	1048576	60	6084
2026-01-07 02:18:14.52	279.59	23.23	-40.8	-41.7	23.4	0.00e+00	92	32	101	1048576	60	5955
2026-01-07 02:18:15.53	279.86	23.21	-41.0	-41.9	23.3	0.00e+00	90	32	101	1048576	60	6097
2026-01-07 02:18:16.54	280.14	23.20	-40.5	-41.4	23.8	0.00e+00	50	32	101	1048576	60	5735
2026-01-07 02:18:17.55	280.42	23.18	-40.5	-41.5	23.8	0.00e+00	92	32	101	1048576	60	5764
2026-01-07 02:18:18.56	280.70	23.17	-40.5	-41.4	23.7	0.00e+00	40	32	101	1048576	60	5760
2026-01-07 02:18:19.57	280.98	23.15	-40.6	-41.5	23.7	0.00e+00	92	32	101	1048576	60	5816
2026-01-07 02:18:20.58	281.25	23.13	-40.8	-41.7	23.5	0.00e+00	6	32	101	1048576	60	5964
2026-01-07 02:18:21.59	281.53	23.11	-41.0	-41.9	23.3	0.00e+00	92	32	101	1048576	60	6089
2026-01-07 02:18:22.60	281.81	23.10	-41.2	-42.2	23.0	0.00e+00	91	32	101	1048576	60	6293
2026-01-07 02:18:23.61	282.08	23.08	-41.4	-42.4	22.9	0.00e+00	91	32	101	1048576	60	6411
2026-01-07 02:18:24.62	282.36	23.06	-41.3	-42.3	22.9	0.00e+00	92	32	101	1048576	60	6360
2026-01-07 02:18:25.63	282.63	23.04	-41.3	-42.3	23.0	0.00e+00	8	32	101	1048576	60	6322
2026-01-07 02:18:26.64	282.91	23.01	-41.2	-42.2	23.2	0.00e+00	92	32	101	1048576	60	6277
2026-01-07 02:18:27.65	283.18	22.99	-41.1	-42.1	23.0	0.00e+00	7	32	101	1048576	60	6211
2026-01-07 02:18:28.66	283.46	22.97	-41.4	-42.4	23.0	0.00e+00	90	32	101	1048576	60	6417
2026-01-07 02:18:29.67	283.73	22.95	-41.2	-42.2	23.0	0.00e+00	6	32	101	1048576	60	6301
2026-01-07 02:18:30.68	284.01	22.92	-41.1	-42.1	23.1	0.00e+00	90	32	101	1048576	60	6208
2026-01-07 02:18:31.69	284.28	22.90	-40.9	-41.9	23.4	0.00e+00	92	32	101	1048576	60	6034
2026-01-07 02:18:32.70	284.55	22.87	-40.4	-41.4	23.8	0.00e+00	48	32	101	1048576	60	5697
2026-01-07 02:18:33.70	284.82	22.85	-40.5	-41.4	23.7	0.00e+00	91	32	101	1048576	60	5721
2026-01-07 02:18:34.71	285.09	22.82	-40.6	-41.5	23.7	0.00e+00	0	32	101	1048576	60	5776
2026-01-07 02:18:35.72	285.36	22.79	-40.9	-41.8	23.4	0.00e+00	92	32	101	1048576	60	6027
2026-01-07 02:18:36.73	285.64	22.77	-41.0	-42.0	23.3	0.00e+00	25	32	101	1048576	60	6114
2026-01-07 02:18:37.74	285.91	22.74	-41.1	-42.1	23.2	0.00e+00	92	32	101	1048576	60	6194
2026-01-07 02:18:38.75	286.18	22.71	-41.0	-42.0	23.2	0.00e+00	92	32	101	1048576	60	6128
2026-01-07 02:18:39.76	286.45	22.68	-40.7	-41.7	23.6	0.00e+00	92	32	101	1048576	60	5898
2026-01-07 02:18:40.77	286.71	22.65	-40.4	-41.3	23.8	0.00e+00	91	32	101	1048576	60	5669
2026-01-07 02:18:41.78	286.98	22.62	-40.3	-41.2	23.9	0.00e+00	7	32	101	1048576	60	5612
2026-01-07 02:18:42.79	287.25	22.59	-40.4	-41.4	23.8	0.00e+00	92	32	101	1048576	60	5700
2026-01-07 02:18:43.80	287.52	22.56	-40.4	-41.3	23.9	0.00e+00	44	32	101	1048576	60	5662
2026-01-07 02:18:44.80	287.78	22.53	-40.5	-41.5	23.7	0.00e+00	92	32	101	1048576	60	5770
2026-01-07 02:18:45.81	288.05	22.49	-40.6	-41.5	23.6	0.00e+00	78	32	101	1048576	60	5813
2026-01-07 02:18:46.82	288.31	22.46	-40.6	-41.5	23.8	0.00e+00	31	32	101	1048576	60	5799
2026-01-07 02:18:47.83	288.58	22.42	-40.5	-41.4	23.7	0.00e+00	91	32	101	1048576	60	5738
2026-01-07 02:18:48.84	288.84	22.39	-40.6	-41.5	23.6	0.00e+00	8	32	101	1048576	60	5819
2026-01-07 02:18:49.85	289.11	22.35	-40.2	-41.1	23.4	0.00e+00	92	32	101	1048576	60	5512
2026-01-07 02:18:50.86	289.37	22.32	-40.0	-40.9	24.1	0.00e+00	0	32	101	1048576	58	6093
2026-01-07 02:18:51.87	289.63	22.28	-39.8	-40.7	24.3	0.00e+00	92	32	101	1048576	58	5911
2026-01-07 02:18:52.88	289.90	22.25	-40.0	-40.8	24.2	0.00e+00	0	32	101	1048576	58	6033
2026-01-07 02:18:53.89	290.16	22.21	-39.6	-40.5	24.5	0.00e+00	92	32	101	1048576	58	5777
2026-01-07 02:18:54.89	290.42	22.17	-39.6	-40.5	24.5	0.00e+00	92	32	101	1048576	58	5762
2026-01-07 02:18:55.90	290.68	22.13	-39.5	-40.4	24.5	0.00e+00	49	32	101	1048576	58	5697
2026-01-07 02:18:56.91	290.93	22.09	-39.4	-40.3	24.7	0.00e+00	92	32	101	1048576	58	5631
2026-01-07 02:18:57.92	291.19	22.05	-39.3	-40.1	24.7	0.00e+00	36	32	101	1048576	58	5524
2026-01-07 02:18:58.93	291.45	22.01	-39.6	-40.4	24.6	0.00e+00	92	32	101	1048576	58	5752
2026-01-07 02:18:59.94	291.71	21.97	-39.6	-40.4	24.3	0.00e+00	40	32	101	1048576	58	5739
2026-01-07 02:19:00.95	291.97	21.93	-40.0	-40.8	24.3	0.00e+00	92	32	101	1048576	58	6033
2026-01-07 02:19:01.96	292.22	21.89	-40.0	-40.8	24.2	0.00e+00	91	32	101	1048576	58	6030
2026-01-07 02:19:02.97	292.48	21.85	-40.1	-41.0	24.2	0.00e+00	47	32	101	1048576	58	6117
2026-01-07 02:19:03.97	292.73	21.81	-39.7	-40.6	24.5	0.00e+00	90	32	101	1048576	58	5850
2026-01-07 02:19:04.98	292.99	21.76	-39.8	-40.7	24.4	0.00e+00	2	32	101	1048576	58	5908
2026-01-07 02:19:05.99	293.24	21.72	-39.5	-40.4	24.6	0.00e+00	90	32	101	1048576	58	5705
2026-01-07 02:19:07.00	293.49	21.67	-39.1	-40.0	25.0	0.00e+00	0	32	101	1048576	58	5443
2026-01-07 02:19:08.01	293.74	21.63	-39.3	-40.1	24.8	0.00e+00	91	32	101	1048576	56	6199
2026-01-07 02:19:09.02	294.00	21.58	-39.1	-39.9	25.0	0.00e+00	92	32	101	1048576	56	6058
2026-01-07 02:19:10.03	294.25	21.54	-38.9	-39.7	25.1	0.00e+00	27	32	101	1048576	56	5907
2026-01-07 02:19:11.04	294.50	21.49	-38.7	-39.5	25.3	0.00e+00	92	32	101	1048576	56	5828
2026-01-07 02:19:12.05	294.74	21.45	-38.4	-39.2	25.5	0.00e+00	0	32	101	1048576	56	5592
2026-01-07 02:19:13.06	294.99	21.40	-38.4	-39.2	25.4	0.00e+00	92	32	101	1048576	56	5604
2026-01-07 02:19:14.07	295.24	21.35	-38.4	-39.2	24.9	0.00e+00	0	32	101	1048576	56	5575
2026-01-07 02:19:15.07	295.49	21.30	-38.4	-39.2	25.4	0.00e+00	92	32	101	1048576	56	5580
2026-01-07 02:19:16.08	295.73	21.26	-38.5	-39.3	25.4	0.00e+00	0	32	101	1048576	56	5686
2026-01-07 02:19:17.09	295.98	21.21	-38.4	-39.2	25.5	0.00e+00	92	32	101	1048576	56	5605
2026-01-07 02:19:18.10	296.22	21.16	-38.6	-39.4	25.4	0.00e+00	92	32	101	1048576	56	5732
2026-01-07 02:19:19.11	296.47	21.11	-38.7	-39.5	25.3	0.00e+00	47	32	101	1048576	56	5772
2026-01-07 02:19:20.12	296.71	21.06	-38.7	-39.5	25.3	0.00e+00	91	32	101	1048576	56	5792
2026-01-07 02:19:21.13	296.95	21.01	-38.9	-39.7	25.2	0.00e+00	46	32	101	1048576	56	5904
2026-01-07 02:19:22.14	297.19	20.96	-39.1	-39.9	25.0	0.00e+00	92	32	101	1048576	56	6076
2026-01-07 02:19:23.15	297.43	20.91	-39.3	-40.1	24.3	0.00e+00	0	32	101	1048576	56	6202
2026-01-07 02:19:24.15	297.67	20.86	-39.3	-40.1	24.7	0.00e+00	92	32	101	1048576	56	6210
2026-01-07 02:19:25.16	297.91	20.80	-39.6	-40.4	24.6	0.00e+00	54	32	101	1048576	56	6428
2026-01-07 02:19:26.17	298.15	20.75	-39.7	-40.6	24.1	0.00e+00	0	32	101	1048576	56	6559
2026-01-07 02:19:27.18	298.39	20.70	-39.5	-40.4	24.6	0.00e+00	92	32	101	1048576	56	6412
2026-01-07 02:19:28.19	298.62	20.65	-39.7	-40.5	24.4	0.00e+00	0	32	101	1048576	56	6525
2026-01-07 02:19:29.20	298.86	20.59	-39.6	-40.4	24.6	0.00e+00	92	32	101	1048576	56	6462
2026-01-07 02:19:30.21	299.09	20.54	-39.5	-40.4	24.6	0.00e+00	0	32	101	1048576	56	6402
2026-01-07 02:19:31.22	299.33	20.48	-39.2	-40.0	24.9	0.00e+00	92	32	101	1048576	56	6154
2026-01-07 02:19:32.23	299.56	20.43	-39.1	-40.0	24.8	0.00e+00	0	32	101	1048576	56	6107
2026-01-07 02:19:33.24	299.80	20.38	-39.1	-39.9	24.9	0.00e+00	0	32	101	1048576	56	6097
2026-01-07 02:19:34.25	300.03	20.32	-38.9	-39.7	25.1	0.00e+00	92	32	101	1048576	56	5947
2026-01-07 02:19:35.26	300.26	20.26	-39.0	-39.8	25.1	0.00e+00	0	32	101	1048576	56	5978
2026-01-07 02:19:36.27	300.49	20.21	-39.0	-39.8	25.0	0.00e+00	90	32	101	1048576	56	6010
2026-01-07 02:19:37.28	300.72	20.15	-39.1	-39.9	24.9	0.00e+00	0	32	101	1048576	56	6096
2026-01-07 02:19:38.29	300.95	20.10	-39.4	-40.3	24.6	0.00e+00	92	32	101	1048576	56	6340
2026-01-07 02:19:39.30	301.17	20.04	-39.8	-40.7	24.3	0.00e+00	0	32	101	1048576	56	6641
2026-01-07 02:19:40.30	301.40	19.98	-40.2	-41.1	24.0	0.00e+00	66	32	101	1048576	58	6201
2026-01-07 02:19:41.31	301.63	19.92	-40.4	-41.4	23.7	0.00e+00	92	32	101	1048576	58	6400
2026-01-07 02:19:42.32	301.85	19.87	-40.6	-41.6	23.4	0.00e+00	44	32	101	1048576	58	6563
2026-01-07 02:19:43.33	302.08	19.81	-40.7	-41.7	23.4	0.00e+00	92	32	101	1048576	58	6622
2026-01-07 02:19:44.34	302.30	19.75	-40.8	-41.7	23.4	0.00e+00	46	32	101	1048576	58	6685
2026-01-07 02:19:45.35	302.52	19.69	-40.8	-41.7	23.3	0.00e+00	92	32	101	1048576	58	6668
2026-01-07 02:19:46.36	302.74	19.63	-40.8	-41.8	23.3	0.00e+00	2	32	101	1048576	58	6701
2026-01-07 02:19:47.37	302.97	19.57	-40.9	-41.9	23.3	0.00e+00	0	32	101	1048576	58	6771
2026-01-07 02:19:48.38	303.19	19.51	-40.7	-41.7	23.3	0.00e+00	91	32	101	1048576	58	6657
2026-01-07 02:19:49.39	303.41	19.45	-40.6	-41.6	23.5	0.00e+00	5	32	101	1048576	58	6561
2026-01-07 02:19:50.40	303.62	19.39	-40.4	-41.3	23.7	0.00e+00	91	32	101	1048576	58	6337
2026-01-07 02:19:51.41	303.84	19.33	-40.2	-41.0	23.9	0.00e+00	5	32	101	1048576	58	6169
2026-01-07 02:19:52.42	304.06	19.27	-40.0	-40.9	24.0	0.00e+00	92	32	101	1048576	58	6077
2026-01-07 02:19:53.43	304.27	19.21	-39.9	-40.8	24.2	0.00e+00	5	32	101	1048576	58	5976
2026-01-07 02:19:54.44	304.49	19.15	-39.8	-40.6	24.3	0.00e+00	92	32	101	1048576	58	5883
2026-01-07 02:19:55.45	304.70	19.09	-39.8	-40.7	24.2	0.00e+00	0	32	101	1048576	58	5920
2026-01-07 02:19:56.46	304.92	19.03	-39.9	-40.8	24.2	0.00e+00	0	32	101	1048576	58	5989
2026-01-07 02:19:57.47	305.13	18.97	-40.0	-40.9	24.0	0.00e+00	92	32	101	1048576	58	6083
2026-01-07 02:19:58.48	305.34	18.91	-40.2	-41.1	23.8	0.00e+00	0	32	101	1048576	58	6210
2026-01-07 02:19:59.48	305.55	18.84	-40.4	-41.3	23.7	0.00e+00	92	32	101	1048576	58	6337
2026-01-07 02:20:00.50	305.76	18.78	-40.5	-41.4	23.6	0.00e+00	0	32	101	1048576	58	6447
2026-01-07 02:20:01.51	305.97	18.72	-40.6	-41.5	23.5	0.00e+00	92	32	101	1048576	58	6496
2026-01-07 02:20:02.51	306.18	18.66	-40.7	-41.6	23.2	0.00e+00	0	32	101	1048576	58	6591
2026-01-07 02:20:03.52	306.39	18.59	-40.6	-41.6	23.4	0.00e+00	42	32	101	1048576	58	6569
2026-01-07 02:20:04.53	306.59	18.53	-40.8	-41.7	23.3	0.00e+00	92	32	101	1048576	58	6666
2026-01-07 02:20:05.54	306.80	18.47	-40.8	-41.7	23.3	0.00e+00	40	32	101	1048576	58	6672
2026-01-07 02:20:06.55	307.01	18.40	-40.8	-41.7	23.2	0.00e+00	92	32	101	1048576	58	6679
2026-01-07 02:20:07.56	307.21	18.34	-40.8	-41.7	23.3	0.00e+00	45	32	101	1048576	58	6660
2026-01-07 02:20:08.57	307.41	18.28	-40.3	-41.2	23.8	0.00e+00	92	32	101	1048576	58	6281
2026-01-07 02:20:09.58	307.62	18.21	-40.0	-40.9	24.0	0.00e+00	5	32	101	1048576	58	6094
2026-01-07 02:20:10.59	307.82	18.15	-40.0	-40.9	23.9	0.00e+00	6	32	101	1048576	58	6044
2026-01-07 02:20:11.60	308.02	18.08	-39.8	-40.7	24.2	0.00e+00	92	32	101	1048576	58	5947
2026-01-07 02:20:12.61	308.22	18.02	-40.0	-40.9	24.1	0.00e+00	6	32	101	1048576	58	6056
2026-01-07 02:20:13.61	308.42	17.95	-40.1	-41.0	23.9	0.00e+00	92	32	101	1048576	58	6104
2026-01-07 02:20:14.62	308.62	17.89	-40.1	-41.0	23.9	0.00e+00	6	32	101	1048576	58	6157
2026-01-07 02:20:15.63	308.81	17.82	-40.2	-41.1	23.8	0.00e+00	92	32	101	1048576	58	6193
2026-01-07 02:20:16.64	309.01	17.76	-40.3	-41.2	23.7	0.00e+00	8	32	101	1048576	58	6305
2026-01-07 02:20:17.65	309.21	17.69	-40.2	-41.1	23.8	0.00e+00	90	32	101	1048576	58	6217
2026-01-07 02:20:18.66	309.40	17.63	-40.2	-41.1	23.8	0.00e+00	2	32	101	1048576	58	6199
2026-01-07 02:20:19.66	309.59	17.56	-40.1	-41.0	23.9	0.00e+00	7	32	101	1048576	58	6139
2026-01-07 02:20:20.67	309.79	17.50	-40.2	-41.1	23.8	0.00e+00	92	32	101	1048576	58	6237
2026-01-07 02:20:21.68	309.98	17.43	-40.1	-41.0	23.9	0.00e+00	0	32	101	1048576	58	6128
2026-01-07 02:20:22.69	310.17	17.37	-40.4	-41.3	23.6	0.00e+00	92	32	101	1048576	58	6370
2026-01-07 02:20:23.70	310.36	17.30	-40.5	-41.4	23.4	0.00e+00	0	32	101	1048576	58	6458
2026-01-07 02:20:24.71	310.55	17.23	-40.7	-41.7	23.3	0.00e+00	90	32	101	1048576	58	6619
2026-01-07 02:20:25.71	310.74	17.17	-40.8	-41.7	23.3	0.00e+00	0	32	101	1048576	58	6685
2026-01-07 02:20:26.72	310.93	17.10	-40.8	-41.8	23.2	0.00e+00	45	32	101	1048576	58	6741
2026-01-07 02:20:27.73	311.12	17.03	-40.9	-41.9	23.1	0.00e+00	92	32	101	1048576	58	6811
2026-01-07 02:20:28.74	311.30	16.97	-40.6	-41.6	23.5	0.00e+00	36	32	101	1048576	58	6568
2026-01-07 02:20:29.75	311.49	16.90	-40.8	-41.8	23.2	0.00e+00	92	32	101	1048576	58	6737
2026-01-07 02:20:30.76	311.68	16.83	-40.9	-41.9	23.2	0.00e+00	35	32	101	1048576	58	6792
2026-01-07 02:20:31.77	311.86	16.77	-41.0	-42.0	22.9	0.00e+00	92	32	101	1048576	58	6910
2026-01-07 02:20:32.78	312.04	16.70	-41.0	-42.0	23.0	0.00e+00	35	32	101	1048576	58	6924
2026-01-07 02:20:33.78	312.23	16.63	-41.1	-42.0	23.0	0.00e+00	90	32	101	1048576	58	6927
2026-01-07 02:20:34.79	312.41	16.57	-40.8	-41.8	23.2	0.00e+00	0	32	101	1048576	58	6740
2026-01-07 02:20:35.80	312.59	16.50	-40.6	-41.6	23.4	0.00e+00	0	32	101	1048576	58	6543
2026-01-07 02:20:36.81	312.77	16.43	-40.5	-41.4	23.5	0.00e+00	92	32	101	1048576	58	6449
2026-01-07 02:20:37.81	312.95	16.36	-40.4	-41.3	23.6	0.00e+00	35	32	101	1048576	58	6333
2026-01-07 02:20:38.82	313.13	16.30	-40.6	-41.5	23.5	0.00e+00	92	32	101	1048576	58	6514
2026-01-07 02:20:39.83	313.31	16.23	-40.3	-41.3	23.6	0.00e+00	0	32	101	1048576	58	6321
2026-01-07 02:20:40.84	313.48	16.16	-40.6	-41.5	23.4	0.00e+00	92	32	101	1048576	58	6520
2026-01-07 02:20:41.85	313.66	16.09	-41.0	-42.0	23.0	0.00e+00	0	32	101	1048576	58	6867
2026-01-07 02:20:42.86	313.84	16.03	-41.4	-42.4	22.6	0.00e+00	0	32	101	1048576	60	6428
2026-01-07 02:20:43.87	314.01	15.96	-41.6	-42.6	22.5	0.00e+00	92	32	101	1048576	60	6596
2026-01-07 02:20:44.88	314.18	15.89	-41.4	-42.5	22.7	0.00e+00	0	32	101	1048576	60	6495
2026-01-07 02:20:45.89	314.36	15.82	-41.1	-42.1	23.0	0.00e+00	90	32	101	1048576	60	6218
2026-01-07 02:20:46.90	314.53	15.75	-41.1	-42.1	22.9	0.00e+00	0	32	101	1048576	60	6243
2026-01-07 02:20:47.91	314.70	15.68	-41.0	-42.0	23.2	0.00e+00	90	32	101	1048576	60	6108
2026-01-07 02:20:48.92	314.87	15.62	-40.6	-41.6	23.4	0.00e+00	28	32	101	1048576	60	5856
2026-01-07 02:20:49.93	315.05	15.55	-40.5	-41.5	23.5	0.00e+00	36	32	101	1048576	60	5772
2026-01-07 02:20:50.94	315.22	15.48	-40.5	-41.4	23.5	0.00e+00	92	32	101	1048576	60	5741
2026-01-07 02:20:51.95	315.38	15.41	-40.6	-41.5	23.5	0.00e+00	43	32	101	1048576	60	5796
2026-01-07 02:20:52.95	315.55	15.34	-40.8	-41.8	23.2	0.00e+00	92	32	101	1048576	60	6011
2026-01-07 02:20:53.96	315.72	15.28	-41.1	-42.1	23.0	0.00e+00	44	32	101	1048576	60	6201
2026-01-07 02:20:54.97	315.89	15.21	-41.1	-42.2	22.9	0.00e+00	92	32	101	1048576	60	6259
2026-01-07 02:20:55.98	316.05	15.14	-41.1	-42.1	23.0	0.00e+00	38	32	101	1048576	60	6238
2026-01-07 02:20:56.99	316.22	15.07	-40.9	-41.8	23.2	0.00e+00	91	32	101	1048576	60	6028
2026-01-07 02:20:58.00	316.38	15.00	-40.8	-41.8	23.2	0.00e+00	13	32	101	1048576	60	6014
2026-01-07 02:20:59.01	316.55	14.93	-40.5	-41.5	23.5	0.00e+00	0	32	101	1048576	60	5762
2026-01-07 02:21:00.02	316.71	14.86	-40.3	-41.2	23.8	0.00e+00	92	32	101	1048576	60	5599
2026-01-07 02:21:01.03	316.87	14.80	-40.3	-41.2	23.8	0.00e+00	0	32	101	1048576	60	5604
2026-01-07 02:21:02.04	317.03	14.73	-40.3	-41.2	23.7	0.00e+00	64	32	101	1048576	60	5630
2026-01-07 02:21:03.05	317.19	14.66	-40.6	-41.5	23.5	0.00e+00	0	32	101	1048576	60	5803
2026-01-07 02:21:04.05	317.35	14.59	-40.8	-41.7	23.3	0.00e+00	0	32	101	1048576	60	5944
2026-01-07 02:21:05.06	317.51	14.52	-41.0	-42.0	23.0	0.00e+00	0	32	101	1048576	60	6155
2026-01-07 02:21:06.07	317.67	14.45	-41.2	-42.3	22.8	0.00e+00	0	32	101	1048576	60	6326
2026-01-07 02:21:07.08	317.83	14.38	-41.3	-42.3	22.7	0.00e+00	92	32	101	1048576	60	6367
2026-01-07 02:21:08.09	317.99	14.32	-41.2	-42.3	22.7	0.00e+00	46	32	101	1048576	60	6336
2026-01-07 02:21:09.10	318.14	14.25	-41.2	-42.2	22.9	0.00e+00	92	32	101	1048576	60	6268
2026-01-07 02:21:10.11	318.30	14.18	-41.1	-42.1	23.0	0.00e+00	45	32	101	1048576	60	6188
2026-01-07 02:21:11.12	318.45	14.11	-40.9	-41.8	23.1	0.00e+00	45	32	101	1048576	60	6023
2026-01-07 02:21:12.12	318.61	14.04	-40.9	-41.9	23.0	0.00e+00	40	32	101	1048576	60	6047
2026-01-07 02:21:13.13	318.76	13.97	-40.8	-41.8	23.0	0.00e+00	38	32	101	1048576	60	5970
2026-01-07 02:21:14.14	318.91	13.91	-40.9	-41.8	23.1	0.00e+00	92	32	101	1048576	60	6029
2026-01-07 02:21:15.15	319.07	13.84	-41.1	-42.1	22.7	0.00e+00	0	32	101	1048576	60	6200
2026-01-07 02:21:16.16	319.22	13.77	-41.3	-42.3	22.7	0.00e+00	92	32	101	1048576	60	6381
2026-01-07 02:21:17.17	319.37	13.70	-41.3	-42.4	22.6	0.00e+00	0	32	101	1048576	60	6394
2026-01-07 02:21:18.17	319.52	13.63	-41.4	-42.5	22.4	0.00e+00	35	32	101	1048576	60	6503
2026-01-07 02:21:19.18	319.67	13.56	-41.3	-42.3	22.3	0.00e+00	0	32	101	1048576	60	6378
2026-01-07 02:21:20.19	319.82	13.49	-41.4	-42.4	22.2	0.00e+00	34	32	101	1048576	60	6440
2026-01-07 02:21:21.20	319.97	13.43	-41.2	-42.3	22.7	0.00e+00	90	32	101	1048576	60	6326
2026-01-07 02:21:22.21	320.11	13.36	-41.0	-42.0	23.0	0.00e+00	0	32	101	1048576	60	6115
2026-01-07 02:21:23.22	320.26	13.29	-41.0	-42.0	23.0	0.00e+00	92	32	101	1048576	60	6158
2026-01-07 02:21:24.23	320.41	13.22	-40.9	-41.8	23.1	0.00e+00	0	32	101	1048576	60	6033
2026-01-07 02:21:25.24	320.55	13.15	-40.7	-41.6	23.3	0.00e+00	90	32	101	1048576	60	5895
2026-01-07 02:21:26.24	320.70	13.08	-40.8	-41.8	23.2	0.00e+00	0	32	101	1048576	60	5985
2026-01-07 02:21:27.25	320.84	13.02	-41.0	-42.0	23.0	0.00e+00	0	32	101	1048576	60	6138
2026-01-07 02:21:28.26	320.99	12.95	-41.2	-42.2	22.8	0.00e+00	0	32	101	1048576	60	6272
2026-01-07 02:21:29.27	321.13	12.88	-41.4	-42.4	22.5	0.00e+00	42	32	101	1048576	60	6456
2026-01-07 02:21:30.28	321.27	12.81	-41.5	-42.6	22.4	0.00e+00	92	32	101	1048576	60	6575
2026-01-07 02:21:31.29	321.41	12.74	-41.5	-42.6	22.4	0.00e+00	0	32	101	1048576	60	6583
2026-01-07 02:21:32.30	321.56	12.67	-41.5	-42.5	22.4	0.00e+00	92	32	101	1048576	60	6533
2026-01-07 02:21:33.31	321.70	12.61	-41.5	-42.6	22.4	0.00e+00	43	32	101	1048576	60	6589
2026-01-07 02:21:34.32	321.84	12.54	-41.3	-42.4	22.7	0.00e+00	39	32	101	1048576	60	6400
2026-01-07 02:21:35.33	321.98	12.47	-41.1	-42.1	22.9	0.00e+00	43	32	101	1048576	60	6229
2026-01-07 02:21:36.34	322.12	12.40	-41.2	-42.2	22.8	0.00e+00	43	32	101	1048576	60	6256
2026-01-07 02:21:37.35	322.25	12.33	-41.0	-42.0	22.8	0.00e+00	56	32	101	1048576	60	6152
2026-01-07 02:21:38.36	322.39	12.27	-41.0	-42.0	22.8	0.00e+00	0	32	101	1048576	60	6157
2026-01-07 02:21:39.37	322.53	12.20	-41.0	-42.0	22.9	0.00e+00	92	32	101	1048576	60	6164
2026-01-07 02:21:40.38	322.66	12.13	-41.1	-42.2	22.8	0.00e+00	38	32	101	1048576	60	6256
2026-01-07 02:21:41.39	322.80	12.06	-41.3	-42.4	22.5	0.00e+00	5	32	101	1048576	60	6422
2026-01-07 02:21:42.40	322.94	12.00	-41.5	-42.5	22.4	0.00e+00	46	32	101	1048576	60	6521
2026-01-07 02:21:43.41	323.07	11.93	-41.6	-42.7	22.3	0.00e+00	5	32	101	1048576	60	6630
2026-01-07 02:21:44.42	323.20	11.86	-41.4	-42.5	22.5	0.00e+00	72	32	101	1048576	60	6494
2026-01-07 02:21:45.43	323.34	11.79	-41.4	-42.4	22.5	0.00e+00	5	32	101	1048576	60	6447
2026-01-07 02:21:46.44	323.47	11.72	-41.6	-42.6	22.4	0.00e+00	91	32	101	1048576	60	6593
2026-01-07 02:21:47.45	323.60	11.66	-41.2	-42.3	22.7	0.00e+00	5	32	101	1048576	60	6336
2026-01-07 02:21:48.46	323.74	11.59	-41.4	-42.4	22.5	0.00e+00	55	32	101	1048576	60	6433
2026-01-07 02:21:49.48	323.87	11.52	-41.4	-42.5	22.5	0.00e+00	44	32	101	1048576	60	6486
2026-01-07 02:21:50.49	324.00	11.45	-41.5	-42.5	22.5	0.00e+00	0	32	101	1048576	60	6519
2026-01-07 02:21:51.50	324.13	11.39	-41.4	-42.4	22.5	0.00e+00	0	32	101	1048576	60	6458
2026-01-07 02:21:52.51	324.26	11.32	-41.6	-42.7	22.3	0.00e+00	0	32	101	1048576	60	6630
2026-01-07 02:21:53.52	324.39	11.25	-41.7	-42.8	22.1	0.00e+00	91	32	101	1048576	60	6700
2026-01-07 02:21:54.53	324.51	11.19	-41.9	-43.1	21.9	0.00e+00	43	32	101	1048576	60	6941
2026-01-07 02:21:55.54	324.64	11.12	-42.1	-43.2	21.7	0.00e+00	77	32	101	1048576	60	7055
2026-01-07 02:21:56.55	324.77	11.05	-42.1	-43.2	21.7	0.00e+00	40	32	101	1048576	60	7058
2026-01-07 02:21:57.56	324.90	10.98	-42.2	-43.3	21.7	0.00e+00	41	32	101	1048576	60	7150
2026-01-07 02:21:58.57	325.02	10.92	-42.1	-43.3	21.7	0.00e+00	45	32	101	1048576	60	7119
2026-01-07 02:21:59.58	325.15	10.85	-42.1	-43.2	21.7	0.00e+00	44	32	101	1048576	60	7081
2026-01-07 02:22:00.59	325.27	10.78	-41.9	-43.1	21.9	0.00e+00	92	32	101	1048576	60	6935
2026-01-07 02:22:01.60	325.40	10.72	-41.7	-42.8	22.1	0.00e+00	0	32	101	1048576	60	6737
2026-01-07 02:22:02.61	325.52	10.65	-41.5	-42.6	22.3	0.00e+00	90	32	101	1048576	60	6580
2026-01-07 02:22:03.61	325.64	10.59	-41.3	-42.4	22.5	0.00e+00	7	32	101	1048576	60	6432
2026-01-07 02:22:04.62	325.77	10.52	-41.4	-42.5	22.4	0.00e+00	28	32	101	1048576	60	6496
2026-01-07 02:22:05.63	325.89	10.45	-41.3	-42.4	22.4	0.00e+00	0	32	101	1048576	60	6425
2026-01-07 02:22:06.64	326.01	10.39	-41.5	-42.6	22.3	0.00e+00	0	32	101	1048576	60	6546
2026-01-07 02:22:07.65	326.13	10.32	-41.3	-42.4	22.5	0.00e+00	8	32	101	1048576	60	6409
2026-01-07 02:22:08.66	326.25	10.25	-41.4	-42.4	22.4	0.00e+00	0	32	101	1048576	60	6442
2026-01-07 02:22:09.67	326.37	10.19	-41.5	-42.5	22.3	0.00e+00	90	32	101	1048576	60	6525
2026-01-07 02:22:10.68	326.49	10.12	-41.6	-42.6	22.2	0.00e+00	41	32	101	1048576	60	6607
2026-01-07 02:22:11.69	326.61	10.06	-41.7	-42.8	22.1	0.00e+00	43	32	101	1048576	60	6703
2026-01-07 02:22:12.70	326.73	9.99	-41.7	-42.8	22.0	0.00e+00	0	32	101	1048576	60	6748
2026-01-07 02:22:13.71	326.85	9.92	-41.8	-42.9	22.0	0.00e+00	0	32	101	1048576	60	6821
2026-01-07 02:22:14.72	326.96	9.86	-41.9	-43.1	21.7	0.00e+00	0	32	101	1048576	60	6951
2026-01-07 02:22:15.73	327.08	9.79	-41.9	-43.1	21.8	0.00e+00	42	32	101	1048576	60	6946
2026-01-07 02:22:16.74	327.20	9.73	-42.1	-43.2	21.6	0.00e+00	91	32	101	1048576	60	7059
2026-01-07 02:22:17.75	327.31	9.66	-42.1	-43.3	21.6	0.00e+00	39	32	101	1048576	60	7112
2026-01-07 02:22:18.76	327.43	9.60	-42.2	-43.4	21.5	0.00e+00	92	32	101	1048576	60	7197
2026-01-07 02:22:19.77	327.54	9.53	-42.2	-43.4	21.5	0.00e+00	40	32	101	1048576	60	7225
2026-01-07 02:22:20.78	327.66	9.47	-42.2	-43.4	21.5	0.00e+00	2	32	101	1048576	60	7205
2026-01-07 02:22:21.79	327.77	9.40	-42.3	-43.5	21.4	0.00e+00	38	32	101	1048576	60	7317
2026-01-07 02:22:22.80	327.89	9.33	-42.4	-43.7	21.2	0.00e+00	39	32	101	1048576	60	7435
