passes_logs/2026/01/07/R4.6S_Anadyr_2ch/R4.6S_Anadyr_2ch__20260107_002903_NOAA_20_JPSS-1_rec.log

#Pass ID: 20260107_002903_NOAA 20 (JPSS-1)
#Satellite: NOAA 20 (JPSS-1)
#Configuration: NOAA 20
#almurnet v.1.7.20251203
#Start time: 2026-01-07 00:29:06

#Version: 2.2.20231116
#Station: R4.6S_Anadyr_2ch
#Location: 177.4865 lon 64.73178 lat
#TLE: 1 43013U 17073A   25350.93759711  .00000080  00000+0  58734-4 0  9994
#TLE: 2 43013  98.7603 287.1885 0002156  81.1496 278.9924 14.19526878418610

#Time	Az	El	Level	Level2	SNR	BER	BlckErr	Temp	State	Recorded	gain1	gain2
2026-01-07 00:29:06.81	162.98	0.20	-51.5	-65.4	3.3	1.54e+00	0	31	0	0	60	91219
2026-01-07 00:29:07.82	162.99	0.26	-51.6	-67.0	3.6	1.51e+00	0	31	104	0	60	109237
2026-01-07 00:29:08.83	163.00	0.32	-51.7	-67.0	3.6	1.51e+00	0	31	104	0	60	109512
2026-01-07 00:29:09.84	163.02	0.38	-51.6	-67.0	3.6	1.51e+00	0	31	104	0	60	109289
2026-01-07 00:29:10.85	163.03	0.44	-51.6	-67.0	3.6	1.51e+00	0	31	104	0	60	108578
2026-01-07 00:29:11.85	163.04	0.50	-51.5	-66.9	3.6	1.51e+00	0	31	104	0	60	107653
2026-01-07 00:29:12.86	163.05	0.57	-51.4	-66.8	3.6	1.51e+00	0	31	104	0	60	106817
2026-01-07 00:29:13.87	163.06	0.63	-51.3	-66.7	3.6	1.51e+00	0	31	104	0	60	105657
2026-01-07 00:29:14.88	163.07	0.69	-51.1	-66.5	3.6	1.51e+00	0	31	104	0	60	102636
2026-01-07 00:29:15.89	163.09	0.75	-49.9	-65.3	3.6	1.51e+00	0	31	104	0	60	89680
2026-01-07 00:29:16.90	163.10	0.81	-50.5	-65.8	3.6	1.51e+00	0	31	104	0	60	95196
2026-01-07 00:29:17.91	163.11	0.87	-50.2	-65.5	3.6	1.51e+00	0	31	104	0	60	91743
2026-01-07 00:29:18.92	163.12	0.94	-50.2	-65.5	3.6	1.51e+00	0	31	104	0	60	91663
2026-01-07 00:29:19.93	163.13	1.00	-50.2	-65.5	3.5	1.51e+00	0	31	104	0	60	91977
2026-01-07 00:29:20.94	163.15	1.06	-50.1	-65.5	3.6	1.51e+00	0	31	104	0	60	91746
2026-01-07 00:29:21.95	163.16	1.12	-50.1	-65.5	3.6	1.51e+00	0	31	104	0	60	91707
2026-01-07 00:29:22.96	163.17	1.19	-50.1	-65.5	3.6	1.51e+00	0	31	104	0	60	91425
2026-01-07 00:29:23.97	163.18	1.25	-50.1	-65.5	3.6	1.51e+00	0	31	104	0	60	91379
2026-01-07 00:29:24.98	163.19	1.31	-50.1	-65.4	3.6	1.51e+00	0	31	104	0	60	90831
2026-01-07 00:29:25.99	163.21	1.38	-50.1	-65.4	3.6	1.51e+00	0	31	104	0	60	90857
2026-01-07 00:29:27.00	163.22	1.44	-50.1	-65.3	3.6	1.51e+00	0	31	104	0	60	90253
2026-01-07 00:29:28.00	163.23	1.50	-50.1	-65.3	3.5	1.51e+00	0	31	104	0	60	89926
2026-01-07 00:29:29.01	163.24	1.57	-50.1	-65.3	3.6	1.51e+00	0	31	104	0	60	89505
2026-01-07 00:29:30.02	163.26	1.63	-50.1	-65.3	3.6	1.51e+00	0	31	104	0	60	89910
2026-01-07 00:29:31.03	163.27	1.69	-50.1	-65.3	3.6	1.51e+00	0	31	104	0	60	90242
2026-01-07 00:29:32.04	163.28	1.76	-50.1	-65.4	3.6	1.51e+00	0	31	104	0	60	91000
2026-01-07 00:29:33.05	163.29	1.82	-50.1	-65.4	3.6	1.51e+00	0	31	104	0	60	91180
2026-01-07 00:29:34.06	163.31	1.89	-50.1	-65.5	3.6	1.51e+00	0	31	104	0	60	91361
2026-01-07 00:29:35.07	163.32	1.95	-50.1	-65.4	3.6	1.51e+00	0	31	104	0	60	90992
2026-01-07 00:29:36.08	163.33	2.02	-50.1	-65.4	3.6	1.51e+00	0	31	104	0	60	91269
2026-01-07 00:29:37.08	163.34	2.08	-50.1	-65.4	3.6	1.51e+00	0	31	104	0	60	90662
2026-01-07 00:29:38.09	163.36	2.15	-50.1	-65.3	3.6	1.51e+00	0	31	104	0	60	89953
2026-01-07 00:29:39.10	163.37	2.21	-50.1	-65.2	3.6	1.51e+00	0	31	104	0	60	88632
2026-01-07 00:29:40.11	163.38	2.28	-50.1	-65.1	3.6	1.51e+00	0	31	104	0	60	88111
2026-01-07 00:29:41.12	163.39	2.34	-50.1	-64.9	3.6	1.51e+00	0	31	104	0	60	85550
2026-01-07 00:29:42.13	163.41	2.41	-50.1	-64.7	3.6	1.51e+00	0	31	104	0	60	83794
2026-01-07 00:29:43.14	163.42	2.47	-50.1	-64.5	3.6	1.51e+00	0	31	104	0	60	81618
2026-01-07 00:29:44.15	163.43	2.54	-50.1	-64.4	3.6	1.51e+00	0	31	104	0	60	80590
2026-01-07 00:29:45.16	163.45	2.60	-50.1	-64.5	3.6	1.51e+00	0	31	104	0	60	81867
2026-01-07 00:29:46.16	163.46	2.67	-50.1	-64.7	3.6	1.51e+00	0	31	104	0	60	83972
2026-01-07 00:29:47.17	163.47	2.74	-50.1	-65.0	3.6	1.51e+00	0	31	104	0	60	86934
2026-01-07 00:29:48.18	163.49	2.80	-50.1	-64.8	3.6	1.51e+00	0	32	104	0	60	84259
2026-01-07 00:29:49.19	163.50	2.87	-50.0	-63.4	3.6	1.51e+00	0	32	104	0	60	72012
2026-01-07 00:29:50.20	163.51	2.94	-49.9	-60.9	4.5	1.24e+00	20	32	104	0	60	54339
2026-01-07 00:29:51.21	163.53	3.00	-49.6	-57.8	5.8	5.03e-01	92	32	0	0	60	37817
2026-01-07 00:29:52.21	163.54	3.07	-49.3	-55.8	8.0	1.48e-01	44	31	102	1048576	60	30034
2026-01-07 00:29:53.22	163.55	3.14	-48.8	-54.1	10.0	3.16e-02	92	31	102	1048576	60	24676
2026-01-07 00:29:54.23	163.57	3.20	-48.2	-52.7	11.6	1.80e-03	92	32	102	1048576	60	21082
2026-01-07 00:29:55.24	163.58	3.27	-47.7	-51.5	12.9	2.14e-04	0	32	102	1048576	60	18431
2026-01-07 00:29:56.24	163.59	3.34	-47.4	-50.8	13.6	2.67e-05	92	32	102	1048576	60	16957
2026-01-07 00:29:57.25	163.61	3.41	-47.2	-50.5	14.0	5.30e-06	7	31	102	1048576	60	16299
2026-01-07 00:29:58.26	163.62	3.47	-47.0	-50.1	14.4	2.20e-06	90	32	102	1048576	60	15543
2026-01-07 00:29:59.26	163.63	3.54	-47.1	-50.3	14.1	2.20e-06	8	31	102	1048576	60	16036
2026-01-07 00:30:00.27	163.65	3.61	-47.3	-50.7	13.6	6.10e-06	92	31	102	1048576	60	16774
2026-01-07 00:30:01.28	163.66	3.68	-48.2	-52.7	11.0	2.59e-05	92	32	102	1048576	60	21144
2026-01-07 00:30:02.29	163.68	3.75	-50.1	-63.4	3.7	1.17e+00	0	32	104	1048576	60	72332
2026-01-07 00:30:03.30	163.69	3.82	-47.8	-51.7	13.1	4.12e-01	91	31	104	1048576	60	18655
2026-01-07 00:30:04.30	163.70	3.89	-50.1	-64.2	3.6	1.49e+00	0	32	104	1048576	60	79195
2026-01-07 00:30:05.31	163.72	3.96	-45.6	-47.8	16.2	1.18e+00	92	31	104	1048576	60	12003
2026-01-07 00:30:06.32	163.73	4.02	-50.2	-63.3	3.6	5.82e-01	0	32	104	1048576	60	71541
2026-01-07 00:30:07.33	163.75	4.09	-45.6	-47.9	16.3	7.15e-01	92	32	104	1048576	60	12170
2026-01-07 00:30:08.34	163.76	4.16	-45.3	-47.5	17.2	0.00e+00	0	32	0	1048576	60	11518
2026-01-07 00:30:09.34	163.77	4.23	-44.6	-46.4	18.3	0.00e+00	91	32	0	1048576	60	10219
2026-01-07 00:30:10.35	163.79	4.30	-44.6	-46.3	18.2	0.00e+00	92	32	0	1048576	60	10122
2026-01-07 00:30:11.35	163.80	4.37	-44.4	-46.2	18.5	0.00e+00	36	31	0	1048576	60	9934
2026-01-07 00:30:12.36	163.82	4.44	-44.3	-46.0	18.5	0.00e+00	92	32	0	1048576	60	9771
2026-01-07 00:30:13.37	163.83	4.51	-44.3	-46.0	18.6	0.00e+00	74	32	0	1048576	60	9785
2026-01-07 00:30:14.38	163.85	4.59	-44.1	-45.8	19.0	0.00e+00	92	32	0	1048576	60	9491
2026-01-07 00:30:15.39	163.86	4.66	-44.1	-45.8	19.0	0.00e+00	61	32	0	1048576	60	9465
2026-01-07 00:30:16.39	163.87	4.73	-44.1	-45.8	18.9	0.00e+00	90	31	0	1048576	60	9483
2026-01-07 00:30:17.40	163.89	4.80	-44.0	-45.7	19.1	0.00e+00	91	32	0	1048576	60	9346
2026-01-07 00:30:18.41	163.90	4.87	-44.0	-45.6	19.2	0.00e+00	92	31	0	1048576	60	9305
2026-01-07 00:30:19.42	163.92	4.94	-44.0	-45.7	19.1	0.00e+00	91	32	0	1048576	60	9360
2026-01-07 00:30:20.42	163.93	5.01	-43.9	-45.4	19.4	0.00e+00	9	32	0	1048576	60	9096
2026-01-07 00:30:21.43	163.95	5.09	-44.0	-45.5	19.2	0.00e+00	92	32	0	1048576	60	9232
2026-01-07 00:30:22.44	163.96	5.16	-43.9	-45.5	19.4	0.00e+00	12	32	0	1048576	60	9182
2026-01-07 00:30:23.45	163.98	5.23	-43.9	-45.5	19.3	0.00e+00	92	32	0	1048576	60	9187
2026-01-07 00:30:24.45	163.99	5.30	-43.9	-45.4	19.3	0.00e+00	74	32	0	1048576	60	9118
2026-01-07 00:30:25.46	164.01	5.38	-44.0	-45.5	19.3	0.00e+00	92	32	0	1048576	60	9220
2026-01-07 00:30:26.47	164.02	5.45	-43.9	-45.4	19.4	0.00e+00	92	32	101	1048576	60	9097
2026-01-07 00:30:27.48	164.04	5.52	-43.8	-45.3	19.5	0.00e+00	13	32	101	1048576	60	8958
2026-01-07 00:30:28.49	164.05	5.60	-43.9	-45.4	19.5	0.00e+00	90	32	101	1048576	60	9076
2026-01-07 00:30:29.50	164.07	5.67	-43.7	-45.2	19.6	0.00e+00	45	32	101	1048576	60	8919
2026-01-07 00:30:30.51	164.08	5.74	-43.8	-45.3	19.5	0.00e+00	92	32	101	1048576	60	9006
2026-01-07 00:30:31.52	164.10	5.82	-43.6	-45.1	19.8	0.00e+00	0	32	101	1048576	60	8788
2026-01-07 00:30:32.53	164.12	5.89	-43.6	-45.1	19.8	0.00e+00	92	32	101	1048576	60	8731
2026-01-07 00:30:33.54	164.13	5.97	-43.6	-45.1	19.8	0.00e+00	92	32	101	1048576	60	8801
2026-01-07 00:30:34.54	164.15	6.04	-43.5	-45.0	19.9	0.00e+00	92	32	101	1048576	60	8640
2026-01-07 00:30:35.55	164.16	6.12	-43.5	-44.9	19.9	0.00e+00	90	32	101	1048576	60	8618
2026-01-07 00:30:36.56	164.18	6.19	-43.7	-45.2	19.9	0.00e+00	0	32	101	1048576	60	8827
2026-01-07 00:30:37.57	164.19	6.27	-43.6	-45.0	19.8	0.00e+00	92	32	101	1048576	60	8697
2026-01-07 00:30:38.58	164.21	6.34	-43.7	-45.1	19.8	0.00e+00	73	32	101	1048576	60	8789
2026-01-07 00:30:39.59	164.23	6.42	-43.4	-44.8	20.1	0.00e+00	90	32	101	1048576	60	8484
2026-01-07 00:30:40.59	164.24	6.50	-43.4	-44.8	20.1	0.00e+00	74	32	101	1048576	60	8486
2026-01-07 00:30:41.60	164.26	6.57	-43.4	-44.8	20.2	0.00e+00	92	32	101	1048576	60	8451
2026-01-07 00:30:42.61	164.27	6.65	-43.3	-44.6	20.3	0.00e+00	92	32	101	1048576	60	8325
2026-01-07 00:30:43.62	164.29	6.73	-43.2	-44.6	20.4	0.00e+00	73	32	101	1048576	60	8253
2026-01-07 00:30:44.63	164.31	6.80	-43.2	-44.6	20.4	0.00e+00	92	32	101	1048576	60	8290
2026-01-07 00:30:45.64	164.32	6.88	-43.2	-44.6	20.4	0.00e+00	5	32	101	1048576	60	8281
2026-01-07 00:30:46.64	164.34	6.96	-43.2	-44.6	20.4	0.00e+00	92	32	101	1048576	60	8252
2026-01-07 00:30:47.65	164.36	7.04	-43.2	-44.5	20.5	0.00e+00	67	32	101	1048576	60	8182
2026-01-07 00:30:48.66	164.37	7.11	-43.1	-44.5	20.5	0.00e+00	90	32	101	1048576	60	8167
2026-01-07 00:30:49.67	164.39	7.19	-43.2	-44.6	20.4	0.00e+00	92	32	101	1048576	60	8243
2026-01-07 00:30:50.68	164.41	7.27	-43.1	-44.4	20.7	0.00e+00	6	32	101	1048576	60	8096
2026-01-07 00:30:51.69	164.42	7.35	-43.1	-44.4	20.6	0.00e+00	91	32	101	1048576	60	8072
2026-01-07 00:30:52.70	164.44	7.43	-43.0	-44.3	20.7	0.00e+00	0	32	101	1048576	60	8010
2026-01-07 00:30:53.70	164.46	7.51	-43.0	-44.3	20.7	0.00e+00	92	32	101	1048576	60	8034
2026-01-07 00:30:54.71	164.47	7.59	-43.0	-44.3	20.7	0.00e+00	0	32	101	1048576	60	7982
2026-01-07 00:30:55.72	164.49	7.67	-42.9	-44.2	20.8	0.00e+00	93	32	101	1048576	60	7913
2026-01-07 00:30:56.73	164.51	7.75	-42.9	-44.2	20.9	0.00e+00	92	32	101	1048576	60	7885
2026-01-07 00:30:57.74	164.53	7.83	-42.9	-44.2	20.9	0.00e+00	92	32	101	1048576	60	7898
2026-01-07 00:30:58.75	164.54	7.91	-42.8	-44.1	20.9	0.00e+00	92	32	101	1048576	60	7804
2026-01-07 00:30:59.75	164.56	7.99	-42.7	-44.0	21.1	0.00e+00	0	32	101	1048576	60	7710
2026-01-07 00:31:00.76	164.58	8.07	-42.8	-44.1	21.0	0.00e+00	92	32	101	1048576	60	7807
2026-01-07 00:31:01.77	164.60	8.15	-42.7	-44.0	21.1	0.00e+00	69	32	101	1048576	60	7703
2026-01-07 00:31:02.78	164.61	8.23	-42.7	-44.0	21.1	0.00e+00	92	32	101	1048576	60	7685
2026-01-07 00:31:03.79	164.63	8.31	-42.7	-43.9	21.2	0.00e+00	75	32	101	1048576	60	7665
2026-01-07 00:31:04.80	164.65	8.40	-42.8	-44.1	21.0	0.00e+00	90	32	101	1048576	60	7821
2026-01-07 00:31:05.80	164.67	8.48	-42.6	-43.9	21.2	0.00e+00	92	32	101	1048576	60	7603
2026-01-07 00:31:06.81	164.68	8.56	-42.8	-44.1	21.1	0.00e+00	70	32	101	1048576	60	7784
2026-01-07 00:31:07.82	164.70	8.64	-42.6	-43.8	21.2	0.00e+00	92	32	101	1048576	60	7592
2026-01-07 00:31:08.83	164.72	8.73	-42.5	-43.8	21.4	0.00e+00	0	32	101	1048576	60	7512
2026-01-07 00:31:09.84	164.74	8.81	-42.5	-43.7	21.4	0.00e+00	92	32	101	1048576	60	7470
2026-01-07 00:31:10.85	164.76	8.89	-42.5	-43.6	21.5	0.00e+00	0	32	101	1048576	60	7409
2026-01-07 00:31:11.85	164.78	8.98	-42.5	-43.7	21.4	0.00e+00	92	32	101	1048576	60	7468
2026-01-07 00:31:12.86	164.79	9.06	-42.5	-43.7	21.4	0.00e+00	92	32	101	1048576	60	7432
2026-01-07 00:31:13.87	164.81	9.14	-42.3	-43.5	21.6	0.00e+00	90	32	101	1048576	60	7264
2026-01-07 00:31:14.88	164.83	9.23	-42.3	-43.5	21.6	0.00e+00	92	32	101	1048576	60	7266
2026-01-07 00:31:15.89	164.85	9.32	-42.2	-43.4	21.7	0.00e+00	0	32	101	1048576	60	7201
2026-01-07 00:31:16.90	164.87	9.40	-42.3	-43.5	21.6	0.00e+00	92	32	101	1048576	60	7290
2026-01-07 00:31:17.91	164.89	9.49	-42.2	-43.3	21.8	0.00e+00	0	32	101	1048576	60	7167
2026-01-07 00:31:18.92	164.91	9.57	-42.3	-43.4	21.7	0.00e+00	92	32	101	1048576	60	7211
2026-01-07 00:31:19.93	164.93	9.66	-42.1	-43.2	21.9	0.00e+00	92	32	101	1048576	60	7047
2026-01-07 00:31:20.94	164.95	9.75	-42.1	-43.3	21.8	0.00e+00	92	32	101	1048576	60	7110
2026-01-07 00:31:21.94	164.96	9.83	-42.0	-43.1	22.0	0.00e+00	92	32	101	1048576	60	6999
2026-01-07 00:31:22.95	164.98	9.92	-42.0	-43.1	22.0	0.00e+00	0	32	101	1048576	60	6979
2026-01-07 00:31:23.96	165.00	10.01	-42.1	-43.2	22.0	0.00e+00	92	32	101	1048576	60	7036
2026-01-07 00:31:24.97	165.02	10.09	-42.1	-43.2	22.0	0.00e+00	0	32	101	1048576	60	7044
2026-01-07 00:31:25.98	165.04	10.18	-41.8	-42.9	22.2	0.00e+00	92	32	101	1048576	60	6802
2026-01-07 00:31:26.99	165.06	10.27	-41.8	-42.9	22.2	0.00e+00	71	32	101	1048576	60	6792
2026-01-07 00:31:27.99	165.08	10.36	-41.7	-42.8	22.3	0.00e+00	92	32	101	1048576	60	6734
2026-01-07 00:31:29.00	165.10	10.45	-41.8	-42.9	22.3	0.00e+00	90	32	101	1048576	60	6787
2026-01-07 00:31:30.01	165.12	10.54	-41.9	-42.9	22.2	0.00e+00	68	32	101	1048576	60	6835
2026-01-07 00:31:31.02	165.14	10.63	-41.7	-42.8	22.4	0.00e+00	92	32	101	1048576	60	6731
2026-01-07 00:31:32.02	165.16	10.72	-41.6	-42.7	22.5	0.00e+00	71	32	101	1048576	60	6628
2026-01-07 00:31:33.03	165.18	10.81	-41.7	-42.7	22.4	0.00e+00	92	32	101	1048576	60	6684
2026-01-07 00:31:34.04	165.20	10.90	-41.5	-42.6	22.6	0.00e+00	0	32	101	1048576	60	6567
2026-01-07 00:31:35.05	165.22	10.99	-41.7	-42.7	22.5	0.00e+00	92	32	101	1048576	60	6656
2026-01-07 00:31:36.06	165.25	11.08	-41.6	-42.7	22.5	0.00e+00	92	32	101	1048576	60	6624
2026-01-07 00:31:37.07	165.27	11.17	-41.6	-42.6	22.6	0.00e+00	91	32	101	1048576	60	6572
2026-01-07 00:31:38.08	165.29	11.26	-41.5	-42.5	22.6	0.00e+00	92	32	101	1048576	60	6486
2026-01-07 00:31:39.08	165.31	11.36	-41.5	-42.5	22.7	0.00e+00	0	32	101	1048576	60	6521
2026-01-07 00:31:40.09	165.33	11.45	-41.5	-42.6	22.5	0.00e+00	92	32	101	1048576	60	6551
2026-01-07 00:31:41.09	165.35	11.54	-41.5	-42.6	22.6	0.00e+00	0	32	101	1048576	60	6544
2026-01-07 00:31:42.10	165.37	11.63	-41.4	-42.4	22.8	0.00e+00	92	32	101	1048576	60	6400
2026-01-07 00:31:43.11	165.39	11.73	-41.3	-42.3	22.8	0.00e+00	84	32	101	1048576	60	6381
2026-01-07 00:31:44.12	165.41	11.82	-41.2	-42.2	22.9	0.00e+00	92	32	101	1048576	60	6282
2026-01-07 00:31:45.12	165.44	11.92	-41.2	-42.2	23.0	0.00e+00	90	32	101	1048576	60	6263
2026-01-07 00:31:46.13	165.46	12.01	-41.1	-42.1	23.0	0.00e+00	92	32	101	1048576	60	6232
2026-01-07 00:31:47.14	165.48	12.11	-41.2	-42.2	23.0	0.00e+00	92	32	101	1048576	60	6278
2026-01-07 00:31:48.15	165.50	12.20	-41.2	-42.2	23.0	0.00e+00	0	32	101	1048576	60	6247
2026-01-07 00:31:49.16	165.52	12.30	-41.1	-42.1	23.1	0.00e+00	92	32	101	1048576	60	6176
2026-01-07 00:31:50.16	165.55	12.39	-41.1	-42.0	23.1	0.00e+00	0	32	101	1048576	60	6161
2026-01-07 00:31:51.17	165.57	12.49	-41.2	-42.2	23.0	0.00e+00	92	32	101	1048576	60	6258
2026-01-07 00:31:52.18	165.59	12.59	-41.2	-42.2	23.0	0.00e+00	93	32	101	1048576	60	6256
2026-01-07 00:31:53.19	165.61	12.69	-40.9	-41.9	23.3	0.00e+00	90	32	101	1048576	60	6038
2026-01-07 00:31:54.20	165.64	12.78	-40.9	-41.9	23.2	0.00e+00	91	32	101	1048576	60	6068
2026-01-07 00:31:55.21	165.66	12.88	-40.9	-41.9	23.3	0.00e+00	0	32	101	1048576	60	6053
2026-01-07 00:31:56.22	165.68	12.98	-41.0	-42.0	23.1	0.00e+00	92	32	101	1048576	60	6130
2026-01-07 00:31:57.23	165.71	13.08	-40.9	-41.8	23.3	0.00e+00	14	32	101	1048576	60	6022
2026-01-07 00:31:58.24	165.73	13.18	-41.0	-41.9	23.2	0.00e+00	91	32	101	1048576	60	6079
2026-01-07 00:31:59.24	165.75	13.28	-41.0	-41.9	23.2	0.00e+00	92	32	101	1048576	60	6101
2026-01-07 00:32:00.25	165.78	13.38	-40.9	-41.9	23.3	0.00e+00	92	32	101	1048576	60	6049
2026-01-07 00:32:01.26	165.80	13.48	-40.9	-41.9	23.2	0.00e+00	92	32	101	1048576	60	6063
2026-01-07 00:32:02.27	165.83	13.58	-40.9	-41.8	23.3	0.00e+00	7	32	101	1048576	60	6003
2026-01-07 00:32:03.27	165.85	13.68	-41.0	-42.0	23.3	0.00e+00	92	32	101	1048576	60	6111
2026-01-07 00:32:04.28	165.87	13.78	-40.8	-41.8	23.4	0.00e+00	0	32	101	1048576	60	5984
2026-01-07 00:32:05.29	165.90	13.89	-40.9	-41.9	23.3	0.00e+00	93	32	101	1048576	60	6050
2026-01-07 00:32:06.30	165.92	13.99	-40.8	-41.7	23.5	0.00e+00	0	32	101	1048576	60	5932
2026-01-07 00:32:07.30	165.95	14.09	-40.9	-41.9	23.3	0.00e+00	91	32	101	1048576	60	6056
2026-01-07 00:32:08.31	165.97	14.19	-40.9	-41.9	23.3	0.00e+00	92	32	101	1048576	60	6043
2026-01-07 00:32:09.32	166.00	14.30	-41.0	-41.9	23.3	0.00e+00	92	32	101	1048576	60	6076
2026-01-07 00:32:10.33	166.02	14.40	-41.1	-42.0	23.2	0.00e+00	92	32	101	1048576	60	6154
2026-01-07 00:32:11.34	166.05	14.51	-40.8	-41.8	23.5	0.00e+00	6	32	101	1048576	60	5975
2026-01-07 00:32:12.35	166.07	14.61	-40.8	-41.8	23.4	0.00e+00	92	32	101	1048576	60	6002
2026-01-07 00:32:13.36	166.10	14.72	-41.0	-41.9	23.3	0.00e+00	0	32	101	1048576	60	6095
2026-01-07 00:32:14.36	166.12	14.83	-40.8	-41.8	23.4	0.00e+00	90	32	101	1048576	60	5967
2026-01-07 00:32:15.37	166.15	14.93	-40.9	-41.8	23.4	0.00e+00	90	32	101	1048576	60	6013
2026-01-07 00:32:16.38	166.18	15.04	-40.9	-41.8	23.5	0.00e+00	92	32	101	1048576	60	6000
2026-01-07 00:32:17.39	166.20	15.15	-40.8	-41.8	23.5	0.00e+00	92	32	101	1048576	60	5973
2026-01-07 00:32:18.39	166.23	15.26	-40.8	-41.8	23.5	0.00e+00	2	32	101	1048576	60	5988
2026-01-07 00:32:19.40	166.25	15.36	-40.7	-41.7	23.6	0.00e+00	90	32	101	1048576	60	5909
2026-01-07 00:32:20.41	166.28	15.47	-40.8	-41.7	23.5	0.00e+00	77	32	101	1048576	60	5962
2026-01-07 00:32:21.42	166.31	15.58	-40.8	-41.7	23.5	0.00e+00	90	32	101	1048576	60	5963
2026-01-07 00:32:22.43	166.34	15.69	-40.7	-41.6	23.6	0.00e+00	92	32	101	1048576	60	5864
2026-01-07 00:32:23.43	166.36	15.80	-40.7	-41.6	23.6	0.00e+00	90	32	101	1048576	60	5881
2026-01-07 00:32:24.44	166.39	15.91	-40.8	-41.8	23.4	0.00e+00	90	32	101	1048576	60	5984
2026-01-07 00:32:25.44	166.42	16.03	-40.8	-41.7	23.6	0.00e+00	58	32	101	1048576	60	5956
2026-01-07 00:32:26.45	166.44	16.14	-40.6	-41.5	23.7	0.00e+00	92	32	101	1048576	60	5787
2026-01-07 00:32:27.46	166.47	16.25	-40.7	-41.6	23.7	0.00e+00	0	32	101	1048576	60	5862
2026-01-07 00:32:28.47	166.50	16.36	-40.6	-41.5	23.7	0.00e+00	92	32	101	1048576	60	5803
2026-01-07 00:32:29.48	166.53	16.48	-40.6	-41.5	23.7	0.00e+00	0	32	101	1048576	60	5790
2026-01-07 00:32:30.48	166.56	16.59	-40.5	-41.4	23.8	0.00e+00	92	32	101	1048576	60	5726
2026-01-07 00:32:31.49	166.59	16.71	-40.5	-41.4	23.8	0.00e+00	92	32	101	1048576	60	5730
2026-01-07 00:32:32.50	166.62	16.82	-40.7	-41.6	23.6	0.00e+00	92	32	101	1048576	60	5875
2026-01-07 00:32:33.51	166.64	16.94	-40.6	-41.5	23.8	0.00e+00	90	32	101	1048576	60	5780
2026-01-07 00:32:34.52	166.67	17.05	-40.5	-41.5	23.8	0.00e+00	12	32	101	1048576	60	5763
2026-01-07 00:32:35.53	166.70	17.17	-40.6	-41.5	23.8	0.00e+00	90	32	101	1048576	60	5772
2026-01-07 00:32:36.54	166.73	17.29	-40.6	-41.5	23.8	0.00e+00	0	32	101	1048576	60	5802
2026-01-07 00:32:37.55	166.76	17.41	-40.7	-41.6	23.6	0.00e+00	92	32	101	1048576	60	5848
2026-01-07 00:32:38.56	166.79	17.53	-40.5	-41.4	23.8	0.00e+00	92	32	101	1048576	60	5729
2026-01-07 00:32:39.57	166.82	17.65	-40.6	-41.5	23.7	0.00e+00	90	32	101	1048576	60	5818
2026-01-07 00:32:40.58	166.85	17.77	-40.6	-41.5	23.8	0.00e+00	92	32	101	1048576	60	5788
2026-01-07 00:32:41.59	166.88	17.89	-40.7	-41.6	23.7	0.00e+00	11	32	101	1048576	60	5854
2026-01-07 00:32:42.60	166.92	18.01	-40.7	-41.6	23.7	0.00e+00	90	32	101	1048576	60	5867
2026-01-07 00:32:43.61	166.95	18.13	-40.6	-41.5	23.8	0.00e+00	79	32	101	1048576	60	5810
2026-01-07 00:32:44.62	166.98	18.25	-40.7	-41.6	23.6	0.00e+00	92	32	101	1048576	60	5865
2026-01-07 00:32:45.63	167.01	18.37	-40.7	-41.6	23.7	0.00e+00	92	32	101	1048576	60	5875
2026-01-07 00:32:46.64	167.04	18.50	-40.7	-41.7	23.6	0.00e+00	92	32	101	1048576	60	5901
2026-01-07 00:32:47.65	167.07	18.62	-40.7	-41.6	23.6	0.00e+00	90	32	101	1048576	60	5880
2026-01-07 00:32:48.66	167.11	18.75	-40.8	-41.7	23.7	0.00e+00	8	32	101	1048576	60	5913
2026-01-07 00:32:49.67	167.14	18.87	-40.8	-41.8	23.6	0.00e+00	92	32	101	1048576	60	5969
2026-01-07 00:32:50.68	167.17	19.00	-40.9	-41.8	23.5	0.00e+00	7	32	101	1048576	60	5989
2026-01-07 00:32:51.69	167.20	19.12	-40.9	-41.8	23.5	0.00e+00	91	32	101	1048576	60	6015
2026-01-07 00:32:52.70	167.24	19.25	-41.0	-41.9	23.4	0.00e+00	26	32	101	1048576	60	6096
2026-01-07 00:32:53.71	167.27	19.38	-41.0	-41.9	23.4	0.00e+00	90	32	101	1048576	60	6079
2026-01-07 00:32:54.72	167.31	19.51	-41.0	-41.9	23.4	0.00e+00	91	32	101	1048576	60	6102
2026-01-07 00:32:55.72	167.34	19.64	-41.1	-42.0	23.4	0.00e+00	92	32	101	1048576	60	6151
2026-01-07 00:32:56.73	167.37	19.77	-41.0	-41.9	23.4	0.00e+00	92	32	101	1048576	60	6076
2026-01-07 00:32:57.74	167.41	19.90	-41.1	-42.1	23.4	0.00e+00	0	32	101	1048576	60	6192
2026-01-07 00:32:58.75	167.44	20.03	-41.1	-42.1	23.3	0.00e+00	90	32	101	1048576	60	6188
2026-01-07 00:32:59.76	167.48	20.16	-41.2	-42.1	23.3	0.00e+00	0	32	101	1048576	60	6235
2026-01-07 00:33:00.77	167.51	20.29	-41.2	-42.1	23.2	0.00e+00	92	32	101	1048576	60	6234
2026-01-07 00:33:01.78	167.55	20.43	-41.3	-42.2	23.1	0.00e+00	92	32	101	1048576	60	6303
2026-01-07 00:33:02.79	167.59	20.56	-41.2	-42.1	23.2	0.00e+00	92	32	101	1048576	60	6231
2026-01-07 00:33:03.80	167.62	20.69	-41.3	-42.3	23.1	0.00e+00	92	32	101	1048576	60	6334
2026-01-07 00:33:04.82	167.66	20.83	-41.3	-42.3	23.2	0.00e+00	10	32	101	1048576	60	6331
2026-01-07 00:33:05.83	167.70	20.97	-41.3	-42.3	23.1	0.00e+00	92	32	101	1048576	60	6352
2026-01-07 00:33:06.83	167.73	21.10	-41.5	-42.4	23.1	0.00e+00	13	32	101	1048576	60	6461
2026-01-07 00:33:07.84	167.77	21.24	-41.4	-42.4	23.0	0.00e+00	92	32	101	1048576	60	6435
2026-01-07 00:33:08.85	167.81	21.38	-41.5	-42.4	23.0	0.00e+00	73	32	101	1048576	60	6454
2026-01-07 00:33:09.87	167.85	21.52	-41.6	-42.6	22.9	0.00e+00	90	32	101	1048576	60	6570
2026-01-07 00:33:10.87	167.88	21.66	-41.6	-42.6	22.8	0.00e+00	90	32	101	1048576	60	6591
2026-01-07 00:33:11.88	167.92	21.80	-41.6	-42.6	22.9	0.00e+00	92	32	101	1048576	60	6575
2026-01-07 00:33:12.89	167.96	21.94	-41.6	-42.6	22.9	0.00e+00	92	32	101	1048576	60	6604
2026-01-07 00:33:13.90	168.00	22.08	-41.6	-42.6	22.8	0.00e+00	0	32	101	1048576	60	6571
2026-01-07 00:33:14.92	168.04	22.23	-41.6	-42.6	22.8	0.00e+00	92	32	101	1048576	60	6580
2026-01-07 00:33:15.92	168.08	22.37	-41.6	-42.5	23.0	0.00e+00	0	32	101	1048576	60	6533
2026-01-07 00:33:16.93	168.12	22.52	-41.6	-42.6	22.9	0.00e+00	92	32	101	1048576	60	6550
2026-01-07 00:33:17.94	168.16	22.66	-41.6	-42.6	22.9	0.00e+00	90	32	101	1048576	60	6543
2026-01-07 00:33:18.95	168.20	22.81	-41.6	-42.6	22.9	0.00e+00	90	32	101	1048576	60	6593
2026-01-07 00:33:19.96	168.24	22.95	-41.6	-42.6	22.9	0.00e+00	92	32	101	1048576	60	6550
2026-01-07 00:33:20.97	168.28	23.10	-41.6	-42.6	23.0	0.00e+00	74	32	101	1048576	60	6563
2026-01-07 00:33:21.98	168.33	23.25	-41.6	-42.6	22.8	0.00e+00	92	32	101	1048576	60	6594
2026-01-07 00:33:22.99	168.37	23.40	-41.5	-42.5	23.0	0.00e+00	0	32	101	1048576	60	6529
2026-01-07 00:33:24.00	168.41	23.55	-41.7	-42.7	22.8	0.00e+00	92	32	101	1048576	60	6633
2026-01-07 00:33:25.01	168.46	23.70	-41.7	-42.7	22.9	0.00e+00	92	32	101	1048576	60	6638
2026-01-07 00:33:26.02	168.50	23.85	-41.5	-42.5	23.0	0.00e+00	92	32	101	1048576	60	6487
2026-01-07 00:33:27.03	168.54	24.01	-41.5	-42.5	22.9	0.00e+00	92	32	101	1048576	60	6512
2026-01-07 00:33:28.04	168.59	24.16	-41.7	-42.7	22.9	0.00e+00	92	32	101	1048576	60	6632
2026-01-07 00:33:29.04	168.63	24.31	-41.6	-42.6	22.9	0.00e+00	91	32	101	1048576	60	6577
2026-01-07 00:33:30.05	168.68	24.47	-41.5	-42.5	23.1	0.00e+00	6	32	101	1048576	60	6468
2026-01-07 00:33:31.06	168.72	24.63	-41.3	-42.3	23.2	0.00e+00	92	32	101	1048576	60	6327
2026-01-07 00:33:32.07	168.77	24.79	-41.4	-42.3	23.1	0.00e+00	65	32	101	1048576	60	6380
2026-01-07 00:33:33.08	168.81	24.94	-41.3	-42.3	23.2	0.00e+00	92	32	101	1048576	60	6339
2026-01-07 00:33:34.09	168.86	25.10	-41.2	-42.1	23.3	0.00e+00	92	32	101	1048576	60	6245
2026-01-07 00:33:35.10	168.91	25.26	-41.3	-42.3	23.2	0.00e+00	92	32	101	1048576	60	6334
2026-01-07 00:33:36.11	168.96	25.43	-41.3	-42.2	23.3	0.00e+00	92	32	101	1048576	60	6293
2026-01-07 00:33:37.12	169.00	25.59	-41.2	-42.1	23.4	0.00e+00	0	32	101	1048576	60	6237
2026-01-07 00:33:38.13	169.05	25.75	-41.2	-42.2	23.3	0.00e+00	90	32	101	1048576	60	6251
2026-01-07 00:33:39.14	169.10	25.92	-41.3	-42.2	23.3	0.00e+00	0	32	101	1048576	60	6296
2026-01-07 00:33:40.15	169.15	26.08	-41.2	-42.1	23.3	0.00e+00	92	32	101	1048576	60	6212
2026-01-07 00:33:41.16	169.20	26.25	-41.1	-42.0	23.5	0.00e+00	90	32	101	1048576	60	6144
2026-01-07 00:33:42.17	169.25	26.41	-41.2	-42.2	23.3	0.00e+00	91	32	101	1048576	60	6249
2026-01-07 00:33:43.18	169.30	26.58	-41.3	-42.2	23.2	0.00e+00	91	32	101	1048576	60	6303
2026-01-07 00:33:44.19	169.35	26.75	-41.3	-42.3	23.2	0.00e+00	9	32	101	1048576	60	6367
2026-01-07 00:33:45.20	169.41	26.92	-41.1	-42.0	23.5	0.00e+00	92	32	101	1048576	60	6160
2026-01-07 00:33:46.21	169.46	27.09	-41.2	-42.1	23.4	0.00e+00	0	32	101	1048576	60	6236
2026-01-07 00:33:47.22	169.51	27.27	-41.1	-42.0	23.4	0.00e+00	92	32	101	1048576	60	6140
2026-01-07 00:33:48.23	169.57	27.44	-41.2	-42.1	23.3	0.00e+00	92	32	101	1048576	60	6221
2026-01-07 00:33:49.23	169.62	27.61	-41.2	-42.2	23.3	0.00e+00	92	32	101	1048576	60	6263
2026-01-07 00:33:50.24	169.67	27.79	-41.3	-42.3	23.2	0.00e+00	92	32	101	1048576	60	6349
2026-01-07 00:33:51.25	169.73	27.97	-41.5	-42.4	23.0	0.00e+00	92	32	101	1048576	60	6461
2026-01-07 00:33:52.26	169.79	28.14	-41.6	-42.6	23.0	0.00e+00	90	32	101	1048576	60	6542
2026-01-07 00:33:53.27	169.84	28.32	-41.7	-42.7	22.9	0.00e+00	0	32	101	1048576	60	6684
2026-01-07 00:33:54.28	169.90	28.50	-41.9	-42.9	22.7	0.00e+00	92	32	101	1048576	60	6821
2026-01-07 00:33:55.29	169.96	28.69	-41.9	-43.0	22.6	0.00e+00	91	32	101	1048576	60	6858
2026-01-07 00:33:56.30	170.02	28.87	-42.2	-43.3	22.3	0.00e+00	92	32	101	1048576	60	7098
2026-01-07 00:33:57.31	170.07	29.05	-42.4	-43.4	22.2	0.00e+00	92	32	101	1048576	60	7250
2026-01-07 00:33:58.32	170.13	29.24	-42.4	-43.5	22.1	0.00e+00	92	32	101	1048576	60	7288
2026-01-07 00:33:59.33	170.19	29.42	-42.6	-43.7	22.0	0.00e+00	92	32	101	1048576	60	7439
2026-01-07 00:34:00.34	170.25	29.61	-42.7	-43.8	21.9	0.00e+00	81	32	101	1048576	60	7519
2026-01-07 00:34:01.35	170.32	29.80	-42.7	-43.9	21.8	0.00e+00	92	32	101	1048576	60	7604
2026-01-07 00:34:02.36	170.38	29.99	-42.9	-44.0	21.7	0.00e+00	0	32	101	1048576	60	7737
2026-01-07 00:34:03.36	170.44	30.18	-42.7	-43.8	21.9	0.00e+00	92	32	101	1048576	60	7535
2026-01-07 00:34:04.37	170.50	30.37	-42.8	-43.9	21.8	0.00e+00	92	32	101	1048576	60	7680
2026-01-07 00:34:05.38	170.57	30.56	-42.9	-44.0	21.7	0.00e+00	92	32	101	1048576	60	7758
2026-01-07 00:34:06.40	170.63	30.76	-43.1	-44.2	21.5	0.00e+00	91	32	101	1048576	60	7935
2026-01-07 00:34:07.40	170.70	30.95	-43.1	-44.3	21.4	0.00e+00	92	32	101	1048576	60	7956
2026-01-07 00:34:08.42	170.77	31.15	-43.2	-44.3	21.3	0.00e+00	92	32	101	1048576	60	8045
2026-01-07 00:34:09.42	170.83	31.35	-43.4	-44.6	21.1	0.00e+00	10	32	101	1048576	60	8327
2026-01-07 00:34:10.43	170.90	31.55	-43.5	-44.7	21.1	0.00e+00	92	32	101	1048576	60	8400
2026-01-07 00:34:11.44	170.97	31.75	-43.6	-44.8	21.0	0.00e+00	92	32	101	1048576	60	8497
2026-01-07 00:34:12.45	171.04	31.95	-43.8	-45.1	20.8	0.00e+00	91	32	101	1048576	60	8750
2026-01-07 00:34:13.46	171.11	32.16	-43.5	-44.8	20.9	0.00e+00	92	32	101	1048576	60	8434
2026-01-07 00:34:14.47	171.18	32.36	-43.5	-44.8	21.1	0.00e+00	92	32	101	1048576	60	8425
2026-01-07 00:34:15.48	171.25	32.57	-43.4	-44.7	21.1	0.00e+00	92	32	101	1048576	60	8329
2026-01-07 00:34:16.49	171.33	32.78	-42.9	-44.0	21.7	0.00e+00	0	32	101	1048576	60	7744
2026-01-07 00:34:17.50	171.40	32.99	-42.6	-43.7	22.0	0.00e+00	92	32	101	1048576	60	7501
2026-01-07 00:34:18.51	171.48	33.20	-42.6	-43.7	22.0	0.00e+00	30	32	101	1048576	60	7462
2026-01-07 00:34:19.51	171.55	33.41	-42.2	-43.3	22.4	0.00e+00	92	32	101	1048576	60	7123
2026-01-07 00:34:20.52	171.63	33.62	-42.2	-43.2	22.4	0.00e+00	92	32	101	1048576	60	7085
2026-01-07 00:34:21.53	171.71	33.84	-42.3	-43.3	22.4	0.00e+00	92	32	101	1048576	60	7167
2026-01-07 00:34:22.54	171.78	34.05	-41.6	-42.6	23.0	0.00e+00	91	32	101	1048576	60	6577
2026-01-07 00:34:23.55	171.86	34.27	-41.5	-42.5	23.0	0.00e+00	0	32	101	1048576	60	6508
2026-01-07 00:34:24.56	171.94	34.49	-41.5	-42.5	23.1	0.00e+00	92	32	101	1048576	60	6508
2026-01-07 00:34:25.57	172.03	34.71	-41.3	-42.3	23.3	0.00e+00	0	32	101	1048576	60	6344
2026-01-07 00:34:26.58	172.11	34.94	-41.1	-42.0	23.5	0.00e+00	90	32	101	1048576	60	6113
2026-01-07 00:34:27.59	172.19	35.16	-41.0	-41.9	23.7	0.00e+00	92	32	101	1048576	60	6052
2026-01-07 00:34:28.60	172.28	35.39	-41.0	-41.9	23.6	0.00e+00	92	32	101	1048576	60	6076
2026-01-07 00:34:29.61	172.36	35.61	-40.8	-41.6	23.9	0.00e+00	92	32	101	1048576	60	5892
2026-01-07 00:34:30.62	172.45	35.84	-40.3	-41.2	24.1	0.00e+00	91	32	101	1048576	60	5607
2026-01-07 00:34:31.63	172.54	36.07	-40.5	-41.4	24.1	0.00e+00	92	32	101	1048576	60	5698
2026-01-07 00:34:32.64	172.63	36.30	-40.5	-41.4	23.9	0.00e+00	2	32	101	1048576	60	5696
2026-01-07 00:34:33.65	172.72	36.54	-40.5	-41.4	24.0	0.00e+00	92	32	101	1048576	60	5721
2026-01-07 00:34:34.66	172.81	36.77	-40.8	-41.7	23.8	0.00e+00	92	32	101	1048576	60	5917
2026-01-07 00:34:35.67	172.91	37.01	-40.8	-41.7	23.8	0.00e+00	92	32	101	1048576	60	5914
2026-01-07 00:34:36.68	173.00	37.25	-40.8	-41.8	23.7	0.00e+00	90	32	101	1048576	60	5969
2026-01-07 00:34:37.69	173.10	37.49	-41.1	-42.1	23.4	0.00e+00	90	32	101	1048576	60	6183
2026-01-07 00:34:38.70	173.19	37.73	-41.1	-42.0	23.5	0.00e+00	91	32	101	1048576	60	6172
2026-01-07 00:34:39.71	173.29	37.97	-41.1	-42.0	23.6	0.00e+00	0	32	101	1048576	60	6131
2026-01-07 00:34:40.72	173.39	38.22	-41.2	-42.1	23.4	0.00e+00	92	32	101	1048576	60	6215
2026-01-07 00:34:41.73	173.50	38.47	-41.1	-42.0	23.4	0.00e+00	84	32	101	1048576	60	6155
2026-01-07 00:34:42.73	173.60	38.71	-41.2	-42.1	23.5	0.00e+00	92	32	101	1048576	60	6210
2026-01-07 00:34:43.75	173.70	38.96	-41.2	-42.1	23.4	0.00e+00	92	32	101	1048576	60	6199
2026-01-07 00:34:44.75	173.81	39.21	-41.3	-42.3	23.2	0.00e+00	92	32	101	1048576	60	6343
2026-01-07 00:34:45.76	173.92	39.47	-41.6	-42.6	23.0	0.00e+00	92	32	101	1048576	60	6561
2026-01-07 00:34:46.77	174.03	39.72	-41.7	-42.7	22.8	0.00e+00	34	32	101	1048576	60	6657
2026-01-07 00:34:47.78	174.14	39.98	-41.9	-42.9	22.7	0.00e+00	92	32	101	1048576	60	6804
2026-01-07 00:34:48.79	174.25	40.24	-42.0	-43.0	22.7	0.00e+00	0	32	101	1048576	60	6891
2026-01-07 00:34:49.80	174.37	40.50	-41.9	-42.9	22.7	0.00e+00	92	32	101	1048576	60	6796
2026-01-07 00:34:50.81	174.48	40.76	-42.0	-43.0	22.6	0.00e+00	92	32	101	1048576	60	6887
2026-01-07 00:34:51.82	174.60	41.03	-41.8	-42.8	22.9	0.00e+00	90	32	101	1048576	60	6731
2026-01-07 00:34:52.83	174.72	41.29	-41.9	-42.9	22.7	0.00e+00	92	32	101	1048576	60	6777
2026-01-07 00:34:53.84	174.84	41.56	-42.0	-43.0	22.7	0.00e+00	7	32	101	1048576	60	6906
2026-01-07 00:34:54.85	174.97	41.83	-42.1	-43.1	22.6	0.00e+00	92	32	101	1048576	60	6981
2026-01-07 00:34:55.86	175.09	42.10	-41.9	-42.9	22.8	0.00e+00	2	32	101	1048576	60	6812
2026-01-07 00:34:56.87	175.22	42.38	-41.9	-42.9	22.7	0.00e+00	92	32	101	1048576	60	6844
2026-01-07 00:34:57.88	175.35	42.65	-41.8	-42.8	22.9	0.00e+00	92	32	101	1048576	60	6754
2026-01-07 00:34:58.89	175.49	42.93	-41.8	-42.8	22.9	0.00e+00	92	32	101	1048576	60	6730
2026-01-07 00:34:59.90	175.62	43.21	-41.6	-42.6	23.1	0.00e+00	90	32	101	1048576	60	6544
2026-01-07 00:35:00.91	175.76	43.49	-41.8	-42.8	22.9	0.00e+00	90	32	101	1048576	60	6704
2026-01-07 00:35:01.92	175.90	43.77	-41.8	-42.9	22.8	0.00e+00	92	32	101	1048576	60	6772
2026-01-07 00:35:02.93	176.04	44.06	-41.9	-42.9	22.7	0.00e+00	0	32	101	1048576	60	6833
2026-01-07 00:35:03.94	176.18	44.34	-42.2	-43.3	22.3	0.00e+00	92	32	101	1048576	60	7119
2026-01-07 00:35:04.95	176.33	44.63	-42.5	-43.6	22.1	0.00e+00	82	32	101	1048576	60	7405
2026-01-07 00:35:05.96	176.48	44.92	-42.5	-43.6	22.1	0.00e+00	91	32	101	1048576	60	7349
2026-01-07 00:35:06.96	176.63	45.21	-42.4	-43.5	22.2	0.00e+00	92	32	101	1048576	60	7288
2026-01-07 00:35:07.97	176.79	45.51	-42.3	-43.3	22.2	0.00e+00	82	32	101	1048576	60	7155
2026-01-07 00:35:08.98	176.95	45.80	-42.3	-43.3	22.4	0.00e+00	92	32	101	1048576	60	7165
2026-01-07 00:35:09.99	177.11	46.10	-42.4	-43.5	22.3	0.00e+00	0	32	101	1048576	60	7259
2026-01-07 00:35:11.00	177.27	46.40	-42.3	-43.4	22.3	0.00e+00	92	32	101	1048576	60	7214
2026-01-07 00:35:12.01	177.44	46.70	-42.2	-43.3	22.4	0.00e+00	31	32	101	1048576	60	7120
2026-01-07 00:35:13.02	177.61	47.01	-42.3	-43.3	22.4	0.00e+00	93	32	101	1048576	60	7147
2026-01-07 00:35:14.03	177.78	47.31	-42.4	-43.5	22.2	0.00e+00	90	32	101	1048576	60	7326
2026-01-07 00:35:15.04	177.96	47.62	-42.5	-43.6	22.1	0.00e+00	92	32	101	1048576	60	7344
2026-01-07 00:35:16.05	178.14	47.93	-42.7	-43.8	21.9	0.00e+00	92	32	101	1048576	60	7553
2026-01-07 00:35:17.06	178.32	48.24	-42.4	-43.5	22.2	0.00e+00	92	32	101	1048576	60	7311
2026-01-07 00:35:18.07	178.51	48.56	-42.5	-43.6	22.2	0.00e+00	90	32	101	1048576	60	7339
2026-01-07 00:35:19.08	178.70	48.87	-42.5	-43.6	22.2	0.00e+00	7	32	101	1048576	60	7362
2026-01-07 00:35:20.09	178.90	49.19	-41.8	-42.8	22.8	0.00e+00	92	32	101	1048576	60	6757
2026-01-07 00:35:21.10	179.10	49.51	-41.7	-42.7	22.8	0.00e+00	92	32	101	1048576	60	6651
2026-01-07 00:35:22.11	179.30	49.83	-41.0	-42.0	23.6	0.00e+00	92	32	101	1048576	60	6120
2026-01-07 00:35:23.12	179.51	50.16	-40.7	-41.6	23.9	0.00e+00	90	32	101	1048576	60	5876
2026-01-07 00:35:24.13	179.72	50.48	-40.7	-41.5	24.0	0.00e+00	0	32	101	1048576	60	5828
2026-01-07 00:35:25.14	179.94	50.81	-39.9	-40.8	24.6	0.00e+00	92	32	101	1048576	58	5981
2026-01-07 00:35:26.15	180.16	51.14	-39.1	-39.9	25.3	0.00e+00	79	32	101	1048576	56	6079
2026-01-07 00:35:27.16	180.38	51.47	-38.6	-39.4	25.7	0.00e+00	91	32	101	1048576	56	5716
2026-01-07 00:35:28.17	180.61	51.80	-38.7	-39.5	25.6	0.00e+00	85	32	101	1048576	56	5810
2026-01-07 00:35:29.18	180.85	52.14	-38.4	-39.1	25.9	0.00e+00	92	32	101	1048576	56	5548
2026-01-07 00:35:30.19	181.09	52.47	-38.4	-39.2	25.9	0.00e+00	90	32	101	1048576	56	5591
2026-01-07 00:35:31.20	181.34	52.81	-38.2	-39.0	26.1	0.00e+00	7	32	101	1048576	56	5456
2026-01-07 00:35:32.21	181.59	53.15	-37.9	-38.7	26.2	0.00e+00	90	32	101	1048576	54	5908
2026-01-07 00:35:33.22	181.85	53.49	-37.8	-38.5	26.5	0.00e+00	0	32	101	1048576	54	5788
2026-01-07 00:35:34.23	182.11	53.84	-37.6	-38.3	26.5	0.00e+00	92	32	101	1048576	54	5659
2026-01-07 00:35:35.24	182.39	54.18	-37.6	-38.3	26.6	0.00e+00	0	32	101	1048576	54	5665
2026-01-07 00:35:36.26	182.67	54.53	-37.6	-38.3	26.6	0.00e+00	90	32	101	1048576	54	5673
2026-01-07 00:35:37.27	182.95	54.88	-37.7	-38.4	26.4	0.00e+00	92	32	101	1048576	54	5716
2026-01-07 00:35:38.28	183.24	55.23	-37.9	-38.7	26.2	0.00e+00	27	32	101	1048576	54	5901
2026-01-07 00:35:39.29	183.54	55.59	-38.2	-38.9	26.0	0.00e+00	92	32	101	1048576	54	6085
2026-01-07 00:35:40.30	183.85	55.94	-38.3	-39.1	26.0	0.00e+00	0	32	101	1048576	54	6181
2026-01-07 00:35:41.31	184.16	56.29	-38.6	-39.3	25.7	0.00e+00	92	32	101	1048576	54	6380
2026-01-07 00:35:42.32	184.48	56.65	-38.8	-39.6	25.5	0.00e+00	0	32	101	1048576	54	6588
2026-01-07 00:35:43.33	184.81	57.01	-39.3	-40.1	25.1	0.00e+00	92	32	101	1048576	56	6223
2026-01-07 00:35:44.34	185.15	57.37	-39.5	-40.3	25.1	0.00e+00	92	32	101	1048576	56	6346
2026-01-07 00:35:45.35	185.50	57.73	-39.3	-40.1	25.1	0.00e+00	88	32	101	1048576	56	6183
2026-01-07 00:35:46.36	185.85	58.09	-38.9	-39.7	25.5	0.00e+00	92	32	101	1048576	56	5908
2026-01-07 00:35:47.37	186.22	58.45	-38.5	-39.3	25.9	0.00e+00	5	32	101	1048576	56	5656
2026-01-07 00:35:48.38	186.60	58.82	-38.3	-39.0	25.9	0.00e+00	90	32	101	1048576	56	5499
2026-01-07 00:35:49.39	186.98	59.18	-38.2	-38.9	26.0	0.00e+00	8	32	101	1048576	56	5407
2026-01-07 00:35:50.40	187.38	59.55	-38.2	-38.9	26.0	0.00e+00	92	32	101	1048576	56	5403
2026-01-07 00:35:51.41	187.79	59.91	-38.0	-38.7	26.2	0.00e+00	0	32	101	1048576	54	5923
2026-01-07 00:35:52.43	188.22	60.29	-38.0	-38.8	26.1	0.00e+00	92	32	101	1048576	54	5971
2026-01-07 00:35:53.43	188.64	60.65	-37.5	-38.2	26.6	0.00e+00	90	32	101	1048576	54	5586
2026-01-07 00:35:54.44	189.09	61.02	-37.5	-38.2	26.6	0.00e+00	11	32	101	1048576	54	5628
2026-01-07 00:35:55.45	189.55	61.39	-37.1	-37.8	26.9	0.00e+00	91	32	101	1048576	52	5985
2026-01-07 00:35:56.46	190.02	61.76	-37.0	-37.7	26.4	0.00e+00	8	32	101	1048576	52	5915
2026-01-07 00:35:57.47	190.51	62.13	-37.1	-37.8	27.0	0.00e+00	92	32	101	1048576	52	5980
2026-01-07 00:35:58.48	191.01	62.50	-37.0	-37.7	27.0	0.00e+00	23	32	101	1048576	52	5932
2026-01-07 00:35:59.49	191.53	62.87	-37.0	-37.7	26.9	0.00e+00	92	32	101	1048576	52	5916
2026-01-07 00:36:00.49	192.06	63.24	-37.2	-37.9	26.7	0.00e+00	92	32	101	1048576	52	6097
2026-01-07 00:36:01.50	192.60	63.61	-37.6	-38.4	26.5	0.00e+00	92	32	101	1048576	52	6391
2026-01-07 00:36:02.51	193.17	63.98	-37.8	-38.5	26.4	0.00e+00	92	32	101	1048576	52	6483
2026-01-07 00:36:03.52	193.76	64.35	-37.9	-38.7	26.1	0.00e+00	7	32	101	1048576	52	6635
2026-01-07 00:36:04.53	194.36	64.72	-38.3	-39.0	25.9	0.00e+00	92	32	101	1048576	54	6131
2026-01-07 00:36:05.54	194.99	65.09	-38.6	-39.3	25.6	0.00e+00	0	32	101	1048576	54	6361
2026-01-07 00:36:06.55	195.63	65.45	-39.0	-39.8	25.3	0.00e+00	92	32	101	1048576	54	6735
2026-01-07 00:36:07.56	196.30	65.82	-39.8	-40.6	24.6	0.00e+00	92	32	101	1048576	56	6615
2026-01-07 00:36:08.57	196.99	66.19	-41.0	-42.0	23.5	0.00e+00	92	32	101	1048576	58	6852
2026-01-07 00:36:09.57	197.69	66.55	-42.1	-43.1	22.5	0.00e+00	92	32	101	1048576	60	6972
2026-01-07 00:36:10.59	198.44	66.91	-42.1	-43.1	22.6	0.00e+00	84	32	101	1048576	60	6971
2026-01-07 00:36:11.59	199.19	67.27	-42.0	-43.0	22.8	0.00e+00	91	32	101	1048576	60	6869
2026-01-07 00:36:12.60	199.98	67.63	-41.9	-42.9	22.7	0.00e+00	0	32	101	1048576	60	6788
2026-01-07 00:36:13.61	200.80	67.98	-41.8	-42.8	22.7	0.00e+00	92	32	101	1048576	60	6716
2026-01-07 00:36:14.62	201.64	68.33	-42.1	-43.1	22.4	0.00e+00	0	32	101	1048576	60	6993
2026-01-07 00:36:15.63	202.52	68.68	-42.2	-43.2	22.4	0.00e+00	91	32	101	1048576	60	7082
2026-01-07 00:36:16.64	203.43	69.03	-41.7	-42.7	22.9	0.00e+00	90	32	101	1048576	60	6691
2026-01-07 00:36:17.64	204.36	69.37	-41.5	-42.5	23.1	0.00e+00	6	32	101	1048576	60	6506
2026-01-07 00:36:18.65	205.33	69.70	-41.4	-42.4	23.3	0.00e+00	92	32	101	1048576	60	6434
2026-01-07 00:36:19.66	206.34	70.04	-41.5	-42.5	23.1	0.00e+00	8	32	101	1048576	60	6472
2026-01-07 00:36:20.67	207.38	70.37	-41.1	-42.1	23.5	0.00e+00	92	32	101	1048576	60	6176
2026-01-07 00:36:21.67	208.45	70.69	-41.5	-42.4	23.2	0.00e+00	11	33	101	1048576	60	6449
2026-01-07 00:36:22.68	209.57	71.00	-41.5	-42.5	23.0	0.00e+00	92	32	101	1048576	60	6522
2026-01-07 00:36:23.69	210.73	71.32	-42.5	-43.6	22.0	0.00e+00	92	32	101	1048576	60	7371
2026-01-07 00:36:24.70	211.93	71.62	-43.3	-44.5	21.3	0.00e+00	92	32	101	1048576	60	8184
2026-01-07 00:36:25.70	213.16	71.92	-42.7	-43.9	21.9	0.00e+00	92	32	101	1048576	60	7615
2026-01-07 00:36:26.72	214.46	72.21	-42.8	-44.0	21.6	0.00e+00	0	32	101	1048576	60	7734
2026-01-07 00:36:27.72	215.78	72.49	-42.5	-43.7	22.0	0.00e+00	92	32	101	1048576	60	7435
2026-01-07 00:36:28.73	217.15	72.77	-43.2	-44.5	21.4	0.00e+00	0	32	101	1048576	60	8159
2026-01-07 00:36:29.74	218.57	73.03	-42.5	-43.6	22.2	0.00e+00	92	32	101	1048576	60	7386
2026-01-07 00:36:30.75	220.04	73.29	-41.9	-42.9	22.9	0.00e+00	92	32	101	1048576	60	6787
2026-01-07 00:36:31.76	221.55	73.53	-41.4	-42.4	23.2	0.00e+00	92	32	101	1048576	60	6424
2026-01-07 00:36:32.77	223.12	73.77	-41.4	-42.4	23.1	0.00e+00	91	32	101	1048576	60	6414
2026-01-07 00:36:33.78	224.72	73.99	-41.8	-42.8	22.8	0.00e+00	6	32	101	1048576	60	6740
2026-01-07 00:36:34.79	226.38	74.20	-41.7	-42.7	22.8	0.00e+00	92	32	101	1048576	60	6684
2026-01-07 00:36:35.80	228.08	74.40	-41.7	-42.7	23.1	0.00e+00	79	32	101	1048576	60	6619
2026-01-07 00:36:36.80	229.80	74.59	-41.6	-42.5	23.0	0.00e+00	92	32	101	1048576	60	6539
2026-01-07 00:36:37.81	231.59	74.76	-41.6	-42.6	23.0	0.00e+00	0	32	101	1048576	60	6546
2026-01-07 00:36:38.82	233.41	74.92	-41.8	-42.8	22.7	0.00e+00	92	32	101	1048576	60	6749
2026-01-07 00:36:39.83	235.28	75.06	-41.7	-42.7	22.8	0.00e+00	92	32	101	1048576	60	6671
2026-01-07 00:36:40.84	237.18	75.19	-41.9	-43.0	22.7	0.00e+00	6	32	101	1048576	60	6883
2026-01-07 00:36:41.85	239.11	75.30	-41.8	-42.8	22.8	0.00e+00	92	32	101	1048576	60	6714
2026-01-07 00:36:42.86	241.07	75.39	-41.7	-42.7	22.8	0.00e+00	0	32	101	1048576	60	6689
2026-01-07 00:36:43.87	243.05	75.47	-42.1	-43.2	22.5	0.00e+00	92	32	101	1048576	60	7032
2026-01-07 00:36:44.88	245.06	75.54	-42.2	-43.3	22.4	0.00e+00	0	32	101	1048576	60	7096
2026-01-07 00:36:45.88	247.06	75.58	-42.2	-43.2	22.3	0.00e+00	92	32	101	1048576	60	7086
2026-01-07 00:36:46.89	249.09	75.61	-41.6	-42.5	23.2	0.00e+00	92	32	101	1048576	60	6520
2026-01-07 00:36:47.90	251.12	75.62	-41.3	-42.2	23.2	0.00e+00	0	32	101	1048576	60	6307
2026-01-07 00:36:48.91	253.16	75.61	-41.7	-42.8	22.7	0.00e+00	92	32	101	1048576	60	6693
2026-01-07 00:36:49.91	255.17	75.59	-42.0	-43.0	22.5	0.00e+00	0	32	101	1048576	60	6892
2026-01-07 00:36:50.92	257.20	75.55	-42.9	-44.0	21.8	0.00e+00	92	32	101	1048576	60	7736
2026-01-07 00:36:51.93	259.20	75.49	-43.8	-45.1	20.7	0.00e+00	0	32	101	1048576	60	8767
2026-01-07 00:36:52.94	261.19	75.41	-43.7	-45.1	20.8	0.00e+00	90	32	101	1048576	60	8728
2026-01-07 00:36:53.95	263.16	75.32	-42.9	-44.0	21.6	0.00e+00	91	32	101	1048576	60	7734
2026-01-07 00:36:54.96	265.09	75.21	-43.0	-44.2	21.4	0.00e+00	90	32	101	1048576	60	7892
2026-01-07 00:36:55.97	267.00	75.09	-44.6	-46.1	19.5	0.00e+00	92	32	101	1048576	60	9864
2026-01-07 00:36:56.97	268.85	74.95	-45.8	-47.7	18.3	0.00e+00	0	32	101	1048576	60	11786
2026-01-07 00:36:57.98	270.69	74.80	-45.1	-46.7	19.1	0.00e+00	90	32	101	1048576	60	10572
2026-01-07 00:36:58.99	272.48	74.63	-44.5	-45.9	19.9	0.00e+00	8	32	101	1048576	60	9642
2026-01-07 00:37:00.00	274.23	74.45	-43.5	-44.7	21.1	0.00e+00	92	32	101	1048576	60	8365
2026-01-07 00:37:01.01	275.94	74.25	-43.6	-44.8	20.8	0.00e+00	0	32	101	1048576	60	8489
2026-01-07 00:37:02.02	277.61	74.04	-44.3	-45.7	20.1	0.00e+00	92	32	101	1048576	60	9376
2026-01-07 00:37:03.03	279.22	73.82	-43.4	-44.7	21.0	0.00e+00	92	32	101	1048576	60	8369
2026-01-07 00:37:04.04	280.79	73.59	-43.2	-44.4	21.4	0.00e+00	6	32	101	1048576	60	8087
2026-01-07 00:37:05.04	282.30	73.35	-42.9	-44.1	21.6	0.00e+00	91	32	101	1048576	60	7799
2026-01-07 00:37:06.05	283.78	73.09	-43.8	-45.2	20.6	0.00e+00	7	32	101	1048576	60	8857
2026-01-07 00:37:07.06	285.21	72.83	-43.2	-44.4	21.3	0.00e+00	92	32	101	1048576	60	8133
2026-01-07 00:37:08.07	286.60	72.56	-42.6	-43.7	22.0	0.00e+00	0	32	101	1048576	60	7492
2026-01-07 00:37:09.08	287.94	72.28	-42.0	-43.0	22.5	0.00e+00	90	32	101	1048576	60	6914
2026-01-07 00:37:10.08	289.22	71.99	-42.7	-43.9	21.8	0.00e+00	92	32	101	1048576	60	7624
2026-01-07 00:37:11.10	290.48	71.69	-42.2	-43.3	22.5	0.00e+00	92	32	101	1048576	60	7122
2026-01-07 00:37:12.11	291.69	71.39	-41.2	-42.1	23.4	0.00e+00	91	32	101	1048576	60	6215
2026-01-07 00:37:13.12	292.86	71.08	-40.9	-41.8	23.6	0.00e+00	0	32	101	1048576	60	6032
2026-01-07 00:37:14.12	293.98	70.77	-42.3	-43.4	22.2	0.00e+00	92	32	101	1048576	60	7216
2026-01-07 00:37:15.13	295.07	70.45	-42.6	-43.8	21.9	0.00e+00	0	32	101	1048576	60	7562
2026-01-07 00:37:16.14	296.12	70.12	-41.7	-42.7	23.0	0.00e+00	92	32	101	1048576	60	6677
2026-01-07 00:37:17.16	297.14	69.78	-41.1	-42.0	23.3	0.00e+00	86	32	101	1048576	60	6138
2026-01-07 00:37:18.16	298.11	69.45	-41.2	-42.2	23.3	0.00e+00	91	32	101	1048576	60	6247
2026-01-07 00:37:19.17	299.06	69.11	-41.1	-42.1	23.3	0.00e+00	92	32	101	1048576	60	6183
2026-01-07 00:37:20.18	299.97	68.77	-41.3	-42.3	23.2	0.00e+00	0	32	101	1048576	60	6347
2026-01-07 00:37:21.19	300.85	68.42	-41.5	-42.5	23.0	0.00e+00	92	32	101	1048576	60	6494
2026-01-07 00:37:22.20	301.70	68.07	-41.3	-42.3	23.1	0.00e+00	0	32	101	1048576	60	6320
2026-01-07 00:37:23.21	302.52	67.71	-42.4	-43.5	22.0	0.00e+00	92	32	101	1048576	60	7321
2026-01-07 00:37:24.22	303.32	67.36	-42.8	-44.0	21.6	0.00e+00	53	32	101	1048576	60	7755
2026-01-07 00:37:25.22	304.08	67.00	-41.4	-42.4	23.1	0.00e+00	92	32	101	1048576	60	6415
2026-01-07 00:37:26.23	304.82	66.64	-40.8	-41.7	23.8	0.00e+00	92	32	101	1048576	60	5926
2026-01-07 00:37:27.24	305.54	66.28	-41.0	-41.9	23.5	0.00e+00	0	32	101	1048576	60	6068
2026-01-07 00:37:28.25	306.23	65.92	-41.2	-42.2	23.3	0.00e+00	92	32	101	1048576	60	6281
2026-01-07 00:37:29.26	306.90	65.55	-40.5	-41.4	24.0	0.00e+00	0	32	101	1048576	60	5725
2026-01-07 00:37:30.27	307.55	65.19	-38.7	-39.5	25.6	0.00e+00	92	32	101	1048576	56	5809
2026-01-07 00:37:31.28	308.18	64.82	-38.0	-38.7	26.1	0.00e+00	0	32	101	1048576	54	5924
2026-01-07 00:37:32.28	308.78	64.45	-37.3	-38.0	26.5	0.00e+00	92	32	101	1048576	54	5468
2026-01-07 00:37:33.29	309.37	64.08	-37.2	-37.9	26.8	0.00e+00	90	32	101	1048576	52	6074
2026-01-07 00:37:34.30	309.94	63.72	-37.1	-37.8	26.9	0.00e+00	0	32	101	1048576	52	5984
2026-01-07 00:37:35.31	310.50	63.35	-36.7	-37.4	27.1	0.00e+00	92	32	101	1048576	52	5706
2026-01-07 00:37:36.32	311.03	62.98	-35.7	-36.4	27.7	0.00e+00	0	32	101	1048576	50	5723
2026-01-07 00:37:37.33	311.55	62.61	-36.1	-36.8	27.5	0.00e+00	92	32	101	1048576	50	5976
2026-01-07 00:37:38.34	312.06	62.24	-37.1	-37.9	26.8	0.00e+00	0	32	101	1048576	50	6777
2026-01-07 00:37:39.34	312.54	61.87	-37.8	-38.6	26.3	0.00e+00	91	32	101	1048576	52	6551
2026-01-07 00:37:40.35	313.02	61.50	-37.5	-38.2	26.5	0.00e+00	2	32	101	1048576	52	6297
2026-01-07 00:37:41.36	313.48	61.13	-37.3	-38.0	26.7	0.00e+00	91	32	101	1048576	52	6173
2026-01-07 00:37:42.37	313.93	60.76	-37.5	-38.2	26.3	0.00e+00	90	32	101	1048576	52	6307
2026-01-07 00:37:43.38	314.36	60.40	-38.7	-39.5	25.5	0.00e+00	0	32	101	1048576	54	6516
2026-01-07 00:37:44.39	314.79	60.03	-40.7	-41.6	23.7	0.00e+00	92	32	101	1048576	58	6589
2026-01-07 00:37:45.40	315.20	59.66	-42.8	-44.0	21.7	0.00e+00	82	32	101	1048576	60	7735
2026-01-07 00:37:46.41	315.60	59.30	-42.4	-43.6	22.1	0.00e+00	92	32	101	1048576	60	7374
2026-01-07 00:37:47.41	315.98	58.94	-41.1	-42.0	23.5	0.00e+00	0	32	101	1048576	60	6130
2026-01-07 00:37:48.42	316.36	58.58	-40.2	-41.1	24.3	0.00e+00	92	32	101	1048576	60	5512
2026-01-07 00:37:49.43	316.73	58.21	-40.7	-41.6	23.6	0.00e+00	91	33	101	1048576	58	6562
2026-01-07 00:37:50.44	317.09	57.85	-42.0	-43.1	22.4	0.00e+00	0	32	101	1048576	60	6988
2026-01-07 00:37:51.45	317.44	57.49	-42.4	-43.6	22.2	0.00e+00	92	32	101	1048576	60	7374
2026-01-07 00:37:52.45	317.78	57.14	-41.5	-42.5	23.1	0.00e+00	0	32	101	1048576	60	6479
2026-01-07 00:37:53.46	318.11	56.78	-40.5	-41.4	24.1	0.00e+00	91	32	101	1048576	60	5747
2026-01-07 00:37:54.47	318.43	56.43	-39.0	-39.8	25.3	0.00e+00	0	33	101	1048576	56	6022
2026-01-07 00:37:55.48	318.75	56.07	-38.7	-39.5	25.5	0.00e+00	0	32	101	1048576	56	5803
2026-01-07 00:37:56.49	319.06	55.72	-39.2	-40.0	25.2	0.00e+00	80	32	101	1048576	56	6156
2026-01-07 00:37:57.50	319.36	55.37	-39.1	-39.9	25.3	0.00e+00	5	32	101	1048576	56	6076
2026-01-07 00:37:58.51	319.65	55.02	-38.9	-39.8	25.4	0.00e+00	91	32	101	1048576	56	5965
2026-01-07 00:37:59.52	319.94	54.67	-38.1	-38.9	26.2	0.00e+00	0	32	101	1048576	56	5387
2026-01-07 00:38:00.52	320.21	54.33	-36.5	-37.2	27.3	0.00e+00	90	32	101	1048576	52	5567
2026-01-07 00:38:01.53	320.49	53.98	-36.4	-37.1	27.4	0.00e+00	0	32	101	1048576	52	5532
2026-01-07 00:38:02.54	320.75	53.64	-37.1	-37.9	26.8	0.00e+00	92	32	101	1048576	52	6036
2026-01-07 00:38:03.55	321.01	53.30	-38.1	-38.9	24.9	0.00e+00	0	33	101	1048576	52	6800
2026-01-07 00:38:04.56	321.27	52.96	-38.6	-39.5	25.5	0.00e+00	92	32	101	1048576	54	6466
2026-01-07 00:38:05.56	321.51	52.62	-38.7	-39.5	25.6	0.00e+00	91	32	101	1048576	54	6486
2026-01-07 00:38:06.57	321.76	52.29	-38.6	-39.3	25.6	0.00e+00	82	32	101	1048576	54	6372
2026-01-07 00:38:07.58	321.99	51.95	-38.8	-39.5	25.5	0.00e+00	92	33	101	1048576	54	6533
2026-01-07 00:38:08.59	322.23	51.62	-38.7	-39.5	25.6	0.00e+00	3	32	101	1048576	54	6515
2026-01-07 00:38:09.60	322.45	51.29	-39.1	-39.9	25.2	0.00e+00	90	33	101	1048576	54	6836
2026-01-07 00:38:10.61	322.68	50.96	-40.5	-41.4	24.0	0.00e+00	5	32	101	1048576	58	6460
2026-01-07 00:38:11.62	322.89	50.64	-42.5	-43.7	22.0	0.00e+00	82	32	101	1048576	60	7445
2026-01-07 00:38:12.63	323.11	50.31	-44.6	-46.2	19.5	0.00e+00	92	32	101	1048576	60	10006
2026-01-07 00:38:13.63	323.31	49.99	-45.2	-47.0	18.9	0.00e+00	6	33	101	1048576	60	10973
2026-01-07 00:38:14.64	323.52	49.67	-44.0	-45.5	20.4	0.00e+00	90	32	101	1048576	60	9157
2026-01-07 00:38:15.65	323.72	49.35	-43.4	-44.7	21.2	0.00e+00	3	32	101	1048576	60	8369
2026-01-07 00:38:16.66	323.92	49.04	-42.9	-44.1	21.8	0.00e+00	90	32	101	1048576	60	7828
2026-01-07 00:38:17.66	324.11	48.72	-42.4	-43.5	22.2	0.00e+00	0	32	101	1048576	60	7312
2026-01-07 00:38:18.67	324.30	48.41	-42.6	-43.7	22.1	0.00e+00	92	32	101	1048576	60	7450
2026-01-07 00:38:19.68	324.48	48.10	-42.9	-44.1	21.6	0.00e+00	92	33	101	1048576	60	7809
2026-01-07 00:38:20.69	324.66	47.79	-43.5	-44.7	21.0	0.00e+00	0	32	101	1048576	60	8417
2026-01-07 00:38:21.69	324.84	47.48	-44.3	-45.8	20.0	0.00e+00	92	32	101	1048576	60	9512
2026-01-07 00:38:22.70	325.01	47.18	-44.3	-45.8	20.2	0.00e+00	6	32	101	1048576	60	9504
2026-01-07 00:38:23.71	325.18	46.88	-43.4	-44.7	21.3	0.00e+00	92	32	101	1048576	60	8370
2026-01-07 00:38:24.72	325.35	46.57	-42.4	-43.5	22.3	0.00e+00	0	32	101	1048576	60	7259
2026-01-07 00:38:25.73	325.52	46.27	-41.4	-42.4	23.2	0.00e+00	90	32	101	1048576	60	6400
2026-01-07 00:38:26.74	325.68	45.98	-40.7	-41.5	23.9	0.00e+00	0	32	101	1048576	60	5821
2026-01-07 00:38:27.75	325.84	45.68	-40.7	-41.6	23.9	0.00e+00	0	32	101	1048576	60	5835
2026-01-07 00:38:28.76	326.00	45.39	-41.1	-42.0	23.3	0.00e+00	92	32	101	1048576	60	6167
2026-01-07 00:38:29.76	326.15	45.10	-41.7	-42.7	22.9	0.00e+00	81	32	101	1048576	60	6631
2026-01-07 00:38:30.77	326.30	44.81	-42.0	-43.1	22.7	0.00e+00	91	32	101	1048576	60	6943
2026-01-07 00:38:31.78	326.45	44.52	-41.9	-42.9	22.7	0.00e+00	81	33	101	1048576	60	6819
2026-01-07 00:38:32.79	326.59	44.23	-41.4	-42.5	23.2	0.00e+00	92	32	101	1048576	60	6467
2026-01-07 00:38:33.79	326.73	43.95	-41.1	-42.1	23.6	0.00e+00	82	32	101	1048576	60	6187
2026-01-07 00:38:34.80	326.87	43.67	-40.8	-41.8	23.8	0.00e+00	0	32	101	1048576	60	5991
2026-01-07 00:38:35.81	327.01	43.39	-40.5	-41.4	24.1	0.00e+00	92	32	101	1048576	60	5718
2026-01-07 00:38:36.82	327.15	43.11	-39.7	-40.5	24.8	0.00e+00	82	32	101	1048576	58	5788
2026-01-07 00:38:37.82	327.28	42.83	-39.3	-40.1	25.2	0.00e+00	90	32	101	1048576	58	5504
2026-01-07 00:38:38.83	327.41	42.56	-39.0	-39.8	25.4	0.00e+00	0	32	101	1048576	56	5981
2026-01-07 00:38:39.84	327.54	42.29	-39.4	-40.2	25.0	0.00e+00	90	32	101	1048576	56	6301
2026-01-07 00:38:40.85	327.67	42.02	-40.5	-41.4	23.9	0.00e+00	0	32	101	1048576	58	6441
2026-01-07 00:38:41.85	327.79	41.75	-42.3	-43.5	22.2	0.00e+00	92	32	101	1048576	60	7288
2026-01-07 00:38:42.86	327.91	41.48	-43.5	-44.9	20.9	0.00e+00	0	32	101	1048576	60	8551
2026-01-07 00:38:43.87	328.04	41.21	-43.4	-44.8	21.1	0.00e+00	0	32	101	1048576	60	8452
2026-01-07 00:38:44.88	328.16	40.95	-42.7	-43.9	21.9	0.00e+00	92	32	101	1048576	60	7639
2026-01-07 00:38:45.89	328.27	40.69	-42.0	-43.1	22.5	0.00e+00	0	32	101	1048576	60	6983
2026-01-07 00:38:46.90	328.39	40.43	-41.7	-42.6	23.0	0.00e+00	92	32	101	1048576	60	6608
2026-01-07 00:38:47.90	328.50	40.17	-40.6	-41.5	24.1	0.00e+00	0	32	101	1048576	60	5764
2026-01-07 00:38:48.91	328.61	39.92	-39.6	-40.4	24.9	0.00e+00	92	32	101	1048576	58	5737
2026-01-07 00:38:49.92	328.72	39.66	-39.5	-40.2	25.1	0.00e+00	2	33	101	1048576	58	5617
2026-01-07 00:38:50.93	328.83	39.41	-40.1	-40.9	24.2	0.00e+00	4	32	101	1048576	58	6093
2026-01-07 00:38:51.93	328.94	39.16	-41.1	-42.0	23.5	0.00e+00	92	32	101	1048576	58	6875
2026-01-07 00:38:52.95	329.05	38.91	-42.0	-43.0	22.6	0.00e+00	0	32	101	1048576	60	6927
2026-01-07 00:38:53.95	329.15	38.66	-42.6	-43.7	21.8	0.00e+00	92	32	101	1048576	60	7481
2026-01-07 00:38:54.96	329.25	38.41	-43.0	-44.3	21.5	0.00e+00	81	32	101	1048576	60	7986
2026-01-07 00:38:55.97	329.35	38.17	-42.6	-43.8	22.0	0.00e+00	92	32	101	1048576	60	7555
2026-01-07 00:38:56.98	329.45	37.93	-42.0	-43.2	22.6	0.00e+00	81	32	101	1048576	60	7014
2026-01-07 00:38:57.99	329.55	37.68	-41.8	-42.9	22.7	0.00e+00	92	32	101	1048576	60	6806
2026-01-07 00:38:59.00	329.65	37.44	-40.7	-41.6	23.9	0.00e+00	83	32	101	1048576	60	5883
2026-01-07 00:39:00.01	329.74	37.21	-40.3	-41.1	24.3	0.00e+00	82	32	101	1048576	60	5565
2026-01-07 00:39:01.01	329.84	36.97	-39.9	-40.8	24.5	0.00e+00	90	32	101	1048576	58	5967
2026-01-07 00:39:02.02	329.93	36.74	-39.7	-40.5	24.8	0.00e+00	81	32	101	1048576	58	5775
2026-01-07 00:39:03.03	330.02	36.50	-39.7	-40.5	24.8	0.00e+00	90	32	101	1048576	58	5807
2026-01-07 00:39:04.03	330.11	36.27	-39.9	-40.7	24.5	0.00e+00	0	32	101	1048576	58	5953
2026-01-07 00:39:05.04	330.20	36.04	-40.2	-41.1	24.3	0.00e+00	92	32	101	1048576	58	6204
2026-01-07 00:39:06.05	330.29	35.82	-40.5	-41.4	24.0	0.00e+00	0	32	101	1048576	58	6403
2026-01-07 00:39:07.06	330.37	35.59	-40.9	-41.8	23.6	0.00e+00	0	32	101	1048576	58	6716
2026-01-07 00:39:08.06	330.46	35.37	-41.2	-42.2	23.4	0.00e+00	92	32	101	1048576	60	6273
2026-01-07 00:39:09.07	330.54	35.14	-41.5	-42.5	23.1	0.00e+00	0	32	101	1048576	60	6493
2026-01-07 00:39:10.08	330.63	34.92	-41.7	-42.8	22.8	0.00e+00	92	32	101	1048576	60	6702
2026-01-07 00:39:11.08	330.71	34.70	-42.0	-43.0	22.6	0.00e+00	0	32	101	1048576	60	6914
2026-01-07 00:39:12.09	330.79	34.48	-42.3	-43.4	22.3	0.00e+00	92	32	101	1048576	60	7195
2026-01-07 00:39:13.10	330.87	34.26	-42.5	-43.6	22.1	0.00e+00	0	32	101	1048576	60	7395
2026-01-07 00:39:14.11	330.95	34.05	-42.6	-43.8	22.0	0.00e+00	2	32	101	1048576	60	7514
2026-01-07 00:39:15.11	331.03	33.83	-42.6	-43.7	22.0	0.00e+00	92	32	101	1048576	60	7478
2026-01-07 00:39:16.12	331.11	33.62	-42.5	-43.6	22.1	0.00e+00	2	32	101	1048576	60	7370
2026-01-07 00:39:17.13	331.18	33.41	-42.1	-43.2	22.5	0.00e+00	92	32	101	1048576	60	7055
2026-01-07 00:39:18.14	331.26	33.20	-41.8	-42.8	22.8	0.00e+00	81	32	101	1048576	60	6747
2026-01-07 00:39:19.15	331.33	32.99	-41.6	-42.6	23.0	0.00e+00	90	32	101	1048576	60	6612
2026-01-07 00:39:20.16	331.41	32.78	-41.6	-42.6	23.0	0.00e+00	81	32	101	1048576	60	6567
2026-01-07 00:39:21.17	331.48	32.57	-41.4	-42.4	23.1	0.00e+00	92	32	101	1048576	60	6411
2026-01-07 00:39:22.17	331.55	32.37	-41.6	-42.5	23.0	0.00e+00	0	32	101	1048576	60	6522
2026-01-07 00:39:23.18	331.62	32.17	-41.9	-42.9	22.8	0.00e+00	0	32	101	1048576	60	6808
2026-01-07 00:39:24.19	331.69	31.96	-41.9	-43.0	22.6	0.00e+00	91	32	101	1048576	60	6860
2026-01-07 00:39:25.20	331.76	31.76	-42.1	-43.2	22.5	0.00e+00	0	32	101	1048576	60	7051
2026-01-07 00:39:26.21	331.83	31.56	-42.3	-43.4	22.3	0.00e+00	90	32	101	1048576	60	7192
2026-01-07 00:39:27.22	331.90	31.36	-42.5	-43.6	22.0	0.00e+00	81	32	101	1048576	60	7398
2026-01-07 00:39:28.23	331.97	31.17	-42.6	-43.7	21.9	0.00e+00	92	32	101	1048576	60	7493
2026-01-07 00:39:29.24	332.03	30.97	-42.7	-43.8	21.9	0.00e+00	1	32	101	1048576	60	7544
2026-01-07 00:39:30.25	332.10	30.78	-42.7	-43.8	21.9	0.00e+00	2	32	101	1048576	60	7588
2026-01-07 00:39:31.26	332.16	30.58	-42.7	-43.9	21.9	0.00e+00	92	32	101	1048576	60	7623
2026-01-07 00:39:32.27	332.23	30.39	-42.6	-43.7	22.0	0.00e+00	0	32	101	1048576	60	7470
2026-01-07 00:39:33.28	332.29	30.20	-42.6	-43.7	22.0	0.00e+00	92	32	101	1048576	60	7494
2026-01-07 00:39:34.29	332.35	30.01	-42.5	-43.6	22.0	0.00e+00	0	32	101	1048576	60	7414
2026-01-07 00:39:35.30	332.41	29.82	-42.4	-43.6	22.1	0.00e+00	0	32	101	1048576	60	7345
2026-01-07 00:39:36.31	332.48	29.64	-42.5	-43.6	22.1	0.00e+00	0	32	101	1048576	60	7357
2026-01-07 00:39:37.32	332.54	29.45	-42.1	-43.1	22.6	0.00e+00	2	32	101	1048576	60	6971
2026-01-07 00:39:38.33	332.60	29.26	-41.7	-42.7	22.9	0.00e+00	92	32	101	1048576	60	6673
2026-01-07 00:39:39.34	332.66	29.08	-41.8	-42.9	22.8	0.00e+00	2	32	101	1048576	60	6771
2026-01-07 00:39:40.34	332.72	28.90	-41.2	-42.2	23.4	0.00e+00	92	32	101	1048576	60	6268
2026-01-07 00:39:41.35	332.77	28.72	-40.9	-41.8	23.6	0.00e+00	0	32	101	1048576	60	6020
2026-01-07 00:39:42.36	332.83	28.54	-40.9	-41.9	23.6	0.00e+00	12	32	101	1048576	60	6040
2026-01-07 00:39:43.37	332.89	28.36	-40.3	-41.2	24.2	0.00e+00	80	32	101	1048576	60	5601
2026-01-07 00:39:44.38	332.94	28.18	-40.3	-41.2	24.2	0.00e+00	79	32	101	1048576	60	5593
2026-01-07 00:39:45.39	333.00	28.00	-40.2	-41.1	24.3	0.00e+00	61	32	101	1048576	60	5503
2026-01-07 00:39:46.40	333.06	27.83	-39.7	-40.5	24.6	0.00e+00	0	32	101	1048576	58	5795
2026-01-07 00:39:47.41	333.11	27.65	-39.7	-40.5	24.7	0.00e+00	92	32	101	1048576	58	5794
2026-01-07 00:39:48.42	333.17	27.48	-39.6	-40.4	24.8	0.00e+00	79	32	101	1048576	58	5746
2026-01-07 00:39:49.43	333.22	27.31	-39.7	-40.5	24.7	0.00e+00	92	32	101	1048576	58	5825
2026-01-07 00:39:50.44	333.27	27.14	-39.8	-40.6	24.6	0.00e+00	1	32	101	1048576	58	5868
2026-01-07 00:39:51.45	333.32	26.97	-39.8	-40.7	24.5	0.00e+00	6	32	101	1048576	58	5907
2026-01-07 00:39:52.46	333.38	26.80	-40.0	-40.9	24.4	0.00e+00	0	32	101	1048576	58	6063
2026-01-07 00:39:53.47	333.43	26.63	-40.1	-40.9	24.3	0.00e+00	6	32	101	1048576	58	6103
2026-01-07 00:39:54.48	333.48	26.46	-40.3	-41.2	24.1	0.00e+00	92	32	101	1048576	58	6262
2026-01-07 00:39:55.49	333.53	26.30	-40.1	-41.0	24.2	0.00e+00	7	32	101	1048576	58	6152
2026-01-07 00:39:56.50	333.58	26.13	-40.3	-41.2	24.1	0.00e+00	92	32	101	1048576	58	6277
2026-01-07 00:39:57.51	333.63	25.97	-40.3	-41.2	24.1	0.00e+00	5	32	101	1048576	58	6285
2026-01-07 00:39:58.52	333.68	25.80	-40.3	-41.2	24.1	0.00e+00	0	32	101	1048576	58	6257
2026-01-07 00:39:59.52	333.73	25.64	-40.4	-41.3	23.9	0.00e+00	0	32	101	1048576	58	6373
2026-01-07 00:40:00.54	333.78	25.48	-40.2	-41.1	24.2	0.00e+00	81	32	101	1048576	58	6195
2026-01-07 00:40:01.55	333.82	25.32	-40.1	-41.0	24.3	0.00e+00	76	32	101	1048576	58	6139
2026-01-07 00:40:02.56	333.87	25.16	-39.9	-40.8	24.4	0.00e+00	80	32	101	1048576	58	6015
2026-01-07 00:40:03.57	333.92	25.00	-39.7	-40.5	24.6	0.00e+00	92	32	101	1048576	58	5804
2026-01-07 00:40:04.58	333.97	24.84	-39.5	-40.4	24.7	0.00e+00	79	32	101	1048576	58	5715
2026-01-07 00:40:05.59	334.01	24.69	-39.5	-40.3	24.9	0.00e+00	81	32	101	1048576	58	5675
2026-01-07 00:40:06.60	334.06	24.53	-39.3	-40.1	25.0	0.00e+00	78	32	101	1048576	58	5545
2026-01-07 00:40:07.61	334.10	24.38	-39.3	-40.1	25.0	0.00e+00	7	32	101	1048576	58	5555
2026-01-07 00:40:08.62	334.15	24.22	-39.3	-40.2	24.9	0.00e+00	48	32	101	1048576	58	5586
2026-01-07 00:40:09.63	334.19	24.07	-39.2	-40.0	24.9	0.00e+00	8	32	101	1048576	56	6172
2026-01-07 00:40:10.64	334.24	23.92	-39.2	-40.1	25.0	0.00e+00	90	32	101	1048576	56	6190
2026-01-07 00:40:11.65	334.28	23.77	-39.2	-40.1	24.9	0.00e+00	9	32	101	1048576	56	6180
2026-01-07 00:40:12.66	334.32	23.62	-39.2	-40.0	25.0	0.00e+00	92	32	101	1048576	56	6164
2026-01-07 00:40:13.67	334.37	23.47	-39.3	-40.1	25.0	0.00e+00	7	32	101	1048576	56	6202
2026-01-07 00:40:14.68	334.41	23.32	-39.3	-40.1	25.0	0.00e+00	6	32	101	1048576	56	6195
2026-01-07 00:40:15.69	334.45	23.17	-39.2	-40.0	25.1	0.00e+00	0	32	101	1048576	56	6131
2026-01-07 00:40:16.70	334.49	23.02	-39.3	-40.1	24.9	0.00e+00	6	32	101	1048576	56	6200
2026-01-07 00:40:17.71	334.54	22.88	-39.2	-40.0	25.0	0.00e+00	92	32	101	1048576	56	6144
2026-01-07 00:40:18.72	334.58	22.73	-39.4	-40.2	24.7	0.00e+00	6	32	101	1048576	56	6286
2026-01-07 00:40:19.73	334.62	22.59	-39.5	-40.3	24.4	0.00e+00	92	32	101	1048576	56	6366
2026-01-07 00:40:20.74	334.66	22.44	-39.3	-40.1	24.6	0.00e+00	0	32	101	1048576	56	6204
2026-01-07 00:40:21.75	334.70	22.30	-39.4	-40.3	24.7	0.00e+00	0	32	101	1048576	56	6332
2026-01-07 00:40:22.76	334.74	22.16	-39.3	-40.1	24.9	0.00e+00	77	32	101	1048576	56	6221
2026-01-07 00:40:23.77	334.78	22.02	-39.4	-40.2	24.8	0.00e+00	0	32	101	1048576	56	6283
2026-01-07 00:40:24.78	334.82	21.88	-39.5	-40.3	24.7	0.00e+00	90	32	101	1048576	56	6343
2026-01-07 00:40:25.79	334.86	21.74	-39.7	-40.5	24.6	0.00e+00	2	32	101	1048576	56	6529
2026-01-07 00:40:26.80	334.89	21.60	-39.6	-40.4	24.7	0.00e+00	92	32	101	1048576	56	6432
2026-01-07 00:40:27.81	334.93	21.46	-39.6	-40.4	24.7	0.00e+00	79	32	101	1048576	56	6443
2026-01-07 00:40:28.82	334.97	21.32	-39.6	-40.5	24.6	0.00e+00	86	32	101	1048576	56	6512
2026-01-07 00:40:29.83	335.01	21.19	-39.6	-40.4	24.7	0.00e+00	1	32	101	1048576	56	6445
2026-01-07 00:40:30.84	335.05	21.05	-39.6	-40.4	24.7	0.00e+00	0	32	101	1048576	56	6433
2026-01-07 00:40:31.85	335.08	20.91	-39.7	-40.6	24.6	0.00e+00	73	32	101	1048576	56	6563
2026-01-07 00:40:32.86	335.12	20.78	-39.7	-40.5	24.5	0.00e+00	0	32	101	1048576	56	6534
2026-01-07 00:40:33.87	335.16	20.64	-39.7	-40.5	24.6	0.00e+00	92	32	101	1048576	56	6511
2026-01-07 00:40:34.88	335.19	20.51	-39.7	-40.5	24.6	0.00e+00	0	32	101	1048576	56	6512
