passes_logs/2026/01/07/R4.6S_Anadyr_2ch/R4.6S_Anadyr_2ch__20260107_214131_NOAA_21_JPSS-2_rec.log

#Pass ID: 20260107_214131_NOAA 21 (JPSS-2)
#Satellite: NOAA 21 (JPSS-2)
#Configuration: NOAA-21
#almurnet v.1.7.20251203
#Start time: 2026-01-07 21:41:34

#Version: 2.2.20231116
#Station: R4.6S_Anadyr_2ch
#Location: 177.4865 lon 64.73178 lat
#TLE: 1 54234U 22150A   25350.97269056  .00000057  00000+0  47676-4 0  9992
#TLE: 2 54234  98.7466 287.2282 0002043  29.8355 330.2937 14.19525482160692

#Time	Az	El	Level	Level2	SNR	BER	BlckErr	Temp	State	Recorded	gain1	gain2
2026-01-07 21:41:34.15	96.05	0.14	-52.1	-67.1	3.5	1.51e+00	0	33	0	0	60	110285
2026-01-07 21:41:35.16	95.99	0.20	-52.0	-65.0	3.5	1.52e+00	0	34	104	0	60	84583
2026-01-07 21:41:36.17	95.93	0.25	-51.9	-65.1	3.5	1.51e+00	0	34	104	0	60	84843
2026-01-07 21:41:37.18	95.88	0.31	-52.1	-65.1	3.5	1.52e+00	0	34	104	0	60	85356
2026-01-07 21:41:38.19	95.82	0.36	-52.0	-65.1	3.5	1.52e+00	0	34	104	0	60	85515
2026-01-07 21:41:39.20	95.76	0.41	-52.0	-65.1	3.5	1.52e+00	0	34	104	0	60	85398
2026-01-07 21:41:40.21	95.70	0.47	-52.0	-65.2	3.5	1.52e+00	0	34	104	0	60	85945
2026-01-07 21:41:41.22	95.64	0.52	-52.1	-65.1	3.5	1.52e+00	0	34	104	0	60	85641
2026-01-07 21:41:42.23	95.58	0.58	-52.1	-65.1	3.5	1.52e+00	0	34	104	0	60	85167
2026-01-07 21:41:43.24	95.52	0.64	-51.3	-65.1	3.5	1.51e+00	0	34	104	0	60	85649
2026-01-07 21:41:44.25	95.46	0.69	-51.9	-64.9	3.5	1.51e+00	0	34	104	0	60	83421
2026-01-07 21:41:45.27	95.40	0.75	-51.9	-64.9	3.5	1.52e+00	0	34	104	0	60	83179
2026-01-07 21:41:46.28	95.34	0.80	-51.5	-64.8	3.5	1.52e+00	0	34	104	0	60	82013
2026-01-07 21:41:47.29	95.28	0.86	-51.3	-64.5	3.5	1.52e+00	0	34	104	0	60	79742
2026-01-07 21:41:48.30	95.22	0.91	-50.9	-63.8	3.5	1.52e+00	0	35	104	0	60	73455
2026-01-07 21:41:49.31	95.16	0.97	-49.5	-63.4	3.5	1.51e+00	0	35	104	0	60	69879
2026-01-07 21:41:50.32	95.10	1.02	-49.5	-63.3	3.5	1.52e+00	0	35	104	0	60	69375
2026-01-07 21:41:51.33	95.04	1.08	-49.5	-63.4	3.5	1.52e+00	0	35	104	0	60	70005
2026-01-07 21:41:52.34	94.98	1.14	-49.5	-63.4	3.5	1.52e+00	0	35	104	0	60	69745
2026-01-07 21:41:53.35	94.92	1.19	-49.5	-63.4	3.5	1.52e+00	0	35	104	0	60	70074
2026-01-07 21:41:54.36	94.85	1.25	-49.5	-63.4	3.5	1.51e+00	0	35	104	0	60	69744
2026-01-07 21:41:55.37	94.79	1.30	-49.5	-63.4	3.5	1.52e+00	0	35	104	0	60	69657
2026-01-07 21:41:56.39	94.73	1.36	-49.5	-63.3	3.5	1.52e+00	0	35	104	0	60	69493
2026-01-07 21:41:57.40	94.67	1.42	-49.5	-63.3	3.5	1.52e+00	0	35	104	0	60	69128
2026-01-07 21:41:58.41	94.60	1.47	-49.5	-63.4	3.5	1.52e+00	0	35	104	0	60	69952
2026-01-07 21:41:59.42	94.54	1.53	-49.5	-63.4	3.5	1.52e+00	0	35	104	0	60	70225
2026-01-07 21:42:00.43	94.48	1.59	-49.5	-63.4	3.5	1.51e+00	0	35	104	0	60	70404
2026-01-07 21:42:01.44	94.41	1.64	-49.5	-63.4	3.5	1.51e+00	0	35	104	0	60	70373
2026-01-07 21:42:02.45	94.35	1.70	-49.5	-63.4	3.5	1.52e+00	0	35	104	0	60	70309
2026-01-07 21:42:03.46	94.28	1.76	-49.5	-63.4	3.5	1.51e+00	0	35	104	0	60	70236
2026-01-07 21:42:04.47	94.22	1.81	-49.5	-63.4	3.5	1.51e+00	0	35	104	0	60	70315
2026-01-07 21:42:05.49	94.15	1.87	-49.5	-63.4	3.5	1.52e+00	0	35	104	0	60	70222
2026-01-07 21:42:06.50	94.09	1.93	-49.5	-63.3	3.5	1.52e+00	0	35	104	0	60	69452
2026-01-07 21:42:07.51	94.02	1.98	-49.5	-63.2	3.5	1.52e+00	0	35	104	0	60	68144
2026-01-07 21:42:08.52	93.96	2.04	-49.5	-63.0	3.5	1.51e+00	0	35	104	0	60	67243
2026-01-07 21:42:09.53	93.89	2.10	-49.5	-63.1	3.5	1.52e+00	0	35	104	0	60	67861
2026-01-07 21:42:10.54	93.83	2.15	-49.5	-63.3	3.5	1.52e+00	0	35	104	0	60	69316
2026-01-07 21:42:11.55	93.76	2.21	-49.5	-63.4	3.5	1.52e+00	0	35	104	0	60	70262
2026-01-07 21:42:12.56	93.69	2.27	-49.5	-63.4	3.5	1.52e+00	0	35	104	0	60	70432
2026-01-07 21:42:13.57	93.63	2.33	-49.5	-63.4	3.5	1.52e+00	0	35	104	0	60	70337
2026-01-07 21:42:14.58	93.56	2.38	-49.5	-63.4	3.5	1.52e+00	0	35	104	0	60	70217
2026-01-07 21:42:15.60	93.49	2.44	-49.5	-63.4	3.5	1.52e+00	0	35	104	0	60	70352
2026-01-07 21:42:16.61	93.42	2.50	-49.5	-63.4	3.5	1.52e+00	0	35	104	0	60	70227
2026-01-07 21:42:17.62	93.36	2.56	-49.5	-63.1	3.5	1.52e+00	0	35	104	0	60	68017
2026-01-07 21:42:18.63	93.29	2.62	-49.4	-62.8	3.5	1.52e+00	0	35	104	0	60	65139
2026-01-07 21:42:19.64	93.22	2.67	-49.4	-62.6	3.5	1.51e+00	0	35	104	0	60	63697
2026-01-07 21:42:20.65	93.15	2.73	-49.4	-62.8	3.5	1.52e+00	0	35	104	0	60	65466
2026-01-07 21:42:21.66	93.08	2.79	-49.5	-63.3	3.5	1.52e+00	0	35	104	0	60	69206
2026-01-07 21:42:22.67	93.01	2.85	-49.4	-62.0	3.5	1.52e+00	0	35	104	0	60	59623
2026-01-07 21:42:23.68	92.94	2.91	-48.9	-57.8	5.5	8.67e-01	122	35	104	0	60	36911
2026-01-07 21:42:24.69	92.87	2.96	-48.0	-53.0	9.3	5.52e-02	122	35	102	1048576	60	21167
2026-01-07 21:42:25.70	92.80	3.02	-46.7	-50.2	12.4	4.84e-04	123	35	102	1048576	60	15296
2026-01-07 21:42:26.71	92.73	3.08	-45.4	-48.1	14.7	8.30e-06	123	35	102	1048576	60	11966
2026-01-07 21:42:27.72	92.66	3.14	-44.4	-46.6	16.2	0.00e+00	121	35	102	1048576	60	10155
2026-01-07 21:42:28.74	92.59	3.20	-43.6	-45.6	17.1	0.00e+00	123	35	102	1048576	60	8992
2026-01-07 21:42:29.75	92.52	3.26	-45.5	-48.1	14.2	0.00e+00	123	35	102	1048576	60	12084
2026-01-07 21:42:30.76	92.45	3.32	-44.6	-46.5	16.1	0.00e+00	123	35	102	1048576	60	10064
2026-01-07 21:42:31.77	92.37	3.38	-49.4	-59.3	3.6	1.95e-04	122	35	102	1048576	60	43734
2026-01-07 21:42:32.78	92.30	3.44	-49.6	-58.1	3.8	1.49e+00	0	35	104	1048576	60	38043
2026-01-07 21:42:33.79	92.23	3.49	-46.6	-50.4	9.9	7.19e-03	123	35	0	1048576	60	15648
2026-01-07 21:42:34.80	92.16	3.55	-47.0	-50.7	12.6	2.94e-02	123	35	0	1048576	60	16151
2026-01-07 21:42:35.81	92.08	3.61	-46.7	-50.0	12.4	3.25e-04	123	35	0	1048576	60	14952
2026-01-07 21:42:36.82	92.01	3.67	-46.4	-49.4	12.9	3.04e-04	123	35	0	1048576	60	14002
2026-01-07 21:42:37.83	91.94	3.73	-46.9	-50.3	12.2	1.52e-04	123	35	0	1048576	60	15557
2026-01-07 21:42:38.85	91.86	3.79	-46.9	-50.0	12.3	1.16e-04	123	35	0	1048576	60	15018
2026-01-07 21:42:39.86	91.79	3.85	-47.2	-50.6	11.7	1.92e-04	120	35	0	1048576	60	16020
2026-01-07 21:42:40.87	91.71	3.91	-47.3	-50.7	11.6	4.16e-04	122	35	0	1048576	60	16284
2026-01-07 21:42:41.88	91.64	3.97	-47.6	-51.2	11.6	3.27e-04	123	35	0	1048576	60	17159
2026-01-07 21:42:42.89	91.56	4.03	-47.3	-50.3	12.5	4.06e-04	123	35	0	1048576	60	15566
2026-01-07 21:42:43.90	91.48	4.09	-46.7	-49.5	12.7	9.76e-05	123	35	0	1048576	60	14152
2026-01-07 21:42:44.91	91.41	4.15	-46.8	-49.7	13.4	7.32e-05	122	35	101	1048576	60	14393
2026-01-07 21:42:45.92	91.33	4.21	-46.5	-49.2	13.7	3.00e-06	122	35	101	1048576	60	13622
2026-01-07 21:42:46.93	91.26	4.27	-45.9	-48.3	14.7	0.00e+00	122	35	101	1048576	60	12283
2026-01-07 21:42:47.95	91.18	4.33	-45.4	-47.5	15.2	0.00e+00	122	35	101	1048576	60	11269
2026-01-07 21:42:48.96	91.10	4.39	-44.7	-46.6	16.6	0.00e+00	123	35	101	1048576	60	10105
2026-01-07 21:42:49.97	91.02	4.45	-43.3	-44.8	18.2	0.00e+00	123	35	101	1048576	60	8255
2026-01-07 21:42:50.98	90.94	4.51	-42.5	-43.8	19.3	0.00e+00	123	35	101	1048576	60	7346
2026-01-07 21:42:51.99	90.87	4.57	-42.1	-43.4	19.5	0.00e+00	123	35	101	1048576	60	7038
2026-01-07 21:42:53.00	90.79	4.63	-41.7	-42.9	20.1	0.00e+00	123	35	101	1048576	60	6647
2026-01-07 21:42:54.01	90.71	4.70	-41.2	-42.4	20.5	0.00e+00	122	35	101	1048576	60	6257
2026-01-07 21:42:55.02	90.63	4.76	-41.2	-42.4	20.6	0.00e+00	121	35	101	1048576	60	6223
2026-01-07 21:42:56.03	90.55	4.82	-41.3	-42.5	20.5	0.00e+00	123	35	101	1048576	60	6279
2026-01-07 21:42:57.04	90.47	4.88	-41.1	-42.2	20.7	0.00e+00	123	35	101	1048576	60	6115
2026-01-07 21:42:58.05	90.39	4.94	-41.1	-42.2	20.7	0.00e+00	123	35	101	1048576	60	6125
2026-01-07 21:42:59.06	90.31	5.00	-41.0	-42.2	20.7	0.00e+00	120	35	101	1048576	60	6098
2026-01-07 21:43:00.08	90.23	5.06	-41.1	-42.3	20.7	0.00e+00	122	35	101	1048576	60	6146
2026-01-07 21:43:01.09	90.14	5.12	-40.9	-42.1	20.9	0.00e+00	122	35	101	1048576	60	6039
2026-01-07 21:43:02.10	90.06	5.19	-41.0	-42.2	20.9	0.00e+00	123	35	101	1048576	60	6101
2026-01-07 21:43:03.11	89.98	5.25	-40.9	-42.1	20.9	0.00e+00	122	35	101	1048576	60	6000
2026-01-07 21:43:04.12	89.90	5.31	-41.0	-42.2	20.8	0.00e+00	123	35	101	1048576	60	6067
2026-01-07 21:43:05.13	89.82	5.37	-41.0	-42.1	20.8	0.00e+00	122	35	101	1048576	60	6046
2026-01-07 21:43:06.14	89.73	5.43	-40.8	-42.0	21.0	0.00e+00	122	35	101	1048576	60	5948
2026-01-07 21:43:07.15	89.65	5.49	-40.7	-41.9	21.1	0.00e+00	123	35	101	1048576	60	5881
2026-01-07 21:43:08.17	89.56	5.56	-40.7	-41.8	21.1	0.00e+00	122	35	101	1048576	60	5839
2026-01-07 21:43:09.18	89.48	5.62	-40.6	-41.7	21.2	0.00e+00	123	35	101	1048576	60	5777
2026-01-07 21:43:10.19	89.39	5.68	-40.6	-41.8	21.2	0.00e+00	123	35	101	1048576	60	5795
2026-01-07 21:43:11.20	89.31	5.74	-40.6	-41.8	21.3	0.00e+00	122	35	101	1048576	60	5794
2026-01-07 21:43:12.21	89.22	5.81	-40.5	-41.6	21.3	0.00e+00	123	35	101	1048576	60	5707
2026-01-07 21:43:13.22	89.14	5.87	-40.4	-41.5	21.5	0.00e+00	122	35	101	1048576	60	5654
2026-01-07 21:43:14.23	89.05	5.93	-40.5	-41.7	21.3	0.00e+00	123	35	101	1048576	60	5738
2026-01-07 21:43:15.24	88.96	5.99	-40.5	-41.7	21.3	0.00e+00	123	35	101	1048576	60	5740
2026-01-07 21:43:16.25	88.88	6.06	-40.5	-41.7	21.2	0.00e+00	122	36	101	1048576	60	5727
2026-01-07 21:43:17.26	88.79	6.12	-40.3	-41.5	21.5	0.00e+00	122	35	101	1048576	60	5598
2026-01-07 21:43:18.28	88.70	6.18	-40.4	-41.5	21.5	0.00e+00	123	35	101	1048576	60	5604
2026-01-07 21:43:19.29	88.61	6.25	-40.3	-41.4	21.6	0.00e+00	123	35	101	1048576	60	5548
2026-01-07 21:43:20.30	88.52	6.31	-40.3	-41.4	21.6	0.00e+00	123	35	101	1048576	60	5564
2026-01-07 21:43:21.31	88.44	6.37	-40.2	-41.3	21.7	0.00e+00	123	35	101	1048576	60	5472
2026-01-07 21:43:22.32	88.35	6.43	-40.2	-41.3	21.8	0.00e+00	120	35	101	1048576	60	5474
2026-01-07 21:43:23.33	88.26	6.50	-40.3	-41.4	21.6	0.00e+00	123	35	101	1048576	60	5572
2026-01-07 21:43:24.34	88.17	6.56	-40.4	-41.5	21.6	0.00e+00	122	35	101	1048576	60	5620
2026-01-07 21:43:25.35	88.08	6.62	-40.0	-41.1	21.9	0.00e+00	122	35	101	1048576	58	6023
2026-01-07 21:43:26.36	87.98	6.69	-39.9	-40.9	21.9	0.00e+00	123	36	101	1048576	58	5919
2026-01-07 21:43:27.37	87.89	6.75	-39.9	-41.0	21.9	0.00e+00	123	35	101	1048576	58	5945
2026-01-07 21:43:28.38	87.80	6.82	-39.9	-41.0	21.9	0.00e+00	122	35	101	1048576	58	5945
2026-01-07 21:43:29.39	87.71	6.88	-39.9	-41.0	22.0	0.00e+00	123	35	101	1048576	58	5947
2026-01-07 21:43:30.40	87.62	6.94	-39.7	-40.7	22.2	0.00e+00	120	36	101	1048576	58	5768
2026-01-07 21:43:31.42	87.52	7.01	-39.8	-40.8	22.1	0.00e+00	123	36	101	1048576	58	5853
2026-01-07 21:43:32.43	87.43	7.07	-39.8	-40.8	22.2	0.00e+00	122	35	101	1048576	58	5836
2026-01-07 21:43:33.44	87.33	7.14	-39.8	-40.9	22.1	0.00e+00	123	35	101	1048576	58	5870
2026-01-07 21:43:34.45	87.24	7.20	-39.6	-40.7	22.3	0.00e+00	120	35	101	1048576	58	5727
2026-01-07 21:43:35.46	87.15	7.27	-39.6	-40.6	22.3	0.00e+00	122	35	101	1048576	58	5705
2026-01-07 21:43:36.47	87.05	7.33	-39.6	-40.6	22.2	0.00e+00	120	35	101	1048576	58	5701
2026-01-07 21:43:37.48	86.95	7.39	-39.6	-40.7	22.2	0.00e+00	122	36	101	1048576	58	5736
2026-01-07 21:43:38.49	86.86	7.46	-39.7	-40.8	22.2	0.00e+00	120	35	101	1048576	58	5801
2026-01-07 21:43:39.50	86.76	7.52	-39.6	-40.7	22.2	0.00e+00	123	36	101	1048576	58	5738
2026-01-07 21:43:40.51	86.66	7.59	-39.5	-40.5	22.4	0.00e+00	121	35	101	1048576	58	5608
2026-01-07 21:43:41.52	86.57	7.65	-39.5	-40.5	22.4	0.00e+00	122	35	101	1048576	58	5647
2026-01-07 21:43:42.53	86.47	7.72	-39.4	-40.4	22.5	0.00e+00	122	36	101	1048576	58	5552
2026-01-07 21:43:43.54	86.37	7.78	-39.4	-40.4	22.5	0.00e+00	123	36	101	1048576	58	5591
2026-01-07 21:43:44.56	86.27	7.85	-39.4	-40.4	22.4	0.00e+00	123	36	101	1048576	58	5589
2026-01-07 21:43:45.57	86.17	7.91	-39.4	-40.4	22.4	0.00e+00	122	36	101	1048576	58	5547
2026-01-07 21:43:46.58	86.07	7.98	-39.4	-40.4	22.5	0.00e+00	123	35	101	1048576	58	5569
2026-01-07 21:43:47.59	85.97	8.05	-39.3	-40.3	22.5	0.00e+00	123	36	101	1048576	58	5525
2026-01-07 21:43:48.60	85.87	8.11	-39.3	-40.3	22.5	0.00e+00	120	36	101	1048576	58	5526
2026-01-07 21:43:49.61	85.77	8.18	-39.5	-40.5	22.5	0.00e+00	122	35	101	1048576	58	5621
2026-01-07 21:43:50.62	85.67	8.24	-39.3	-40.3	22.7	0.00e+00	123	36	101	1048576	58	5488
2026-01-07 21:43:51.63	85.57	8.31	-39.4	-40.4	22.6	0.00e+00	122	35	101	1048576	58	5556
2026-01-07 21:43:52.64	85.46	8.37	-39.4	-40.4	22.6	0.00e+00	123	36	101	1048576	58	5537
2026-01-07 21:43:53.65	85.36	8.44	-39.4	-40.4	22.5	0.00e+00	122	35	101	1048576	58	5550
2026-01-07 21:43:54.67	85.26	8.51	-39.3	-40.3	22.7	0.00e+00	123	35	101	1048576	58	5482
2026-01-07 21:43:55.68	85.15	8.57	-39.3	-40.3	22.6	0.00e+00	122	36	101	1048576	56	6203
2026-01-07 21:43:56.69	85.05	8.64	-39.2	-40.2	22.8	0.00e+00	122	36	101	1048576	56	6075
2026-01-07 21:43:57.70	84.94	8.70	-39.1	-40.1	22.9	0.00e+00	123	36	101	1048576	56	6024
2026-01-07 21:43:58.71	84.84	8.77	-39.2	-40.2	22.8	0.00e+00	122	36	101	1048576	56	6107
2026-01-07 21:43:59.72	84.73	8.84	-39.2	-40.2	22.7	0.00e+00	122	36	101	1048576	56	6070
2026-01-07 21:44:00.73	84.63	8.90	-39.3	-40.3	22.7	0.00e+00	122	36	101	1048576	56	6197
2026-01-07 21:44:01.74	84.52	8.97	-39.5	-40.4	22.6	0.00e+00	123	36	101	1048576	56	6274
2026-01-07 21:44:02.75	84.41	9.04	-39.1	-40.1	22.9	0.00e+00	123	36	101	1048576	56	5998
2026-01-07 21:44:03.76	84.30	9.10	-39.1	-40.0	23.0	0.00e+00	120	36	101	1048576	56	5985
2026-01-07 21:44:04.77	84.20	9.17	-39.0	-40.0	23.1	0.00e+00	123	36	101	1048576	56	5942
2026-01-07 21:44:05.78	84.09	9.24	-39.1	-40.1	23.1	0.00e+00	123	36	101	1048576	56	5995
2026-01-07 21:44:06.80	83.98	9.30	-39.0	-40.0	23.1	0.00e+00	123	36	101	1048576	56	5931
2026-01-07 21:44:07.81	83.87	9.37	-38.9	-39.9	23.1	0.00e+00	123	36	101	1048576	56	5888
2026-01-07 21:44:08.82	83.76	9.44	-38.9	-39.9	23.0	0.00e+00	122	36	101	1048576	56	5902
2026-01-07 21:44:09.83	83.64	9.51	-39.0	-40.0	23.0	0.00e+00	120	36	101	1048576	56	5976
2026-01-07 21:44:10.84	83.53	9.57	-38.8	-39.8	23.2	0.00e+00	123	36	101	1048576	56	5813
2026-01-07 21:44:11.85	83.42	9.64	-39.0	-40.0	23.1	0.00e+00	120	36	101	1048576	56	5939
2026-01-07 21:44:12.86	83.31	9.71	-38.9	-39.8	23.2	0.00e+00	122	36	101	1048576	56	5846
2026-01-07 21:44:13.87	83.19	9.78	-38.9	-39.9	23.1	0.00e+00	123	36	101	1048576	56	5889
2026-01-07 21:44:14.88	83.08	9.84	-38.8	-39.8	23.2	0.00e+00	123	36	101	1048576	56	5810
2026-01-07 21:44:15.90	82.97	9.91	-38.7	-39.7	23.2	0.00e+00	122	36	101	1048576	56	5748
2026-01-07 21:44:16.91	82.85	9.98	-38.8	-39.7	23.3	0.00e+00	123	36	101	1048576	56	5762
2026-01-07 21:44:17.92	82.74	10.05	-38.7	-39.7	23.3	0.00e+00	123	36	101	1048576	56	5763
2026-01-07 21:44:18.93	82.62	10.11	-38.7	-39.6	23.2	0.00e+00	123	36	101	1048576	56	5704
2026-01-07 21:44:19.94	82.50	10.18	-38.8	-39.7	23.2	0.00e+00	122	36	101	1048576	56	5782
2026-01-07 21:44:20.95	82.39	10.25	-38.8	-39.8	23.2	0.00e+00	123	36	101	1048576	56	5816
2026-01-07 21:44:21.96	82.27	10.32	-38.8	-39.7	23.2	0.00e+00	123	36	101	1048576	56	5790
2026-01-07 21:44:22.97	82.15	10.39	-38.8	-39.8	23.3	0.00e+00	122	36	101	1048576	56	5813
2026-01-07 21:44:23.98	82.03	10.45	-38.8	-39.8	23.3	0.00e+00	122	36	101	1048576	56	5801
2026-01-07 21:44:24.99	81.91	10.52	-38.7	-39.6	23.4	0.00e+00	123	36	101	1048576	56	5703
2026-01-07 21:44:26.01	81.79	10.59	-38.8	-39.7	23.3	0.00e+00	123	36	101	1048576	56	5776
2026-01-07 21:44:27.02	81.67	10.66	-38.5	-39.4	23.5	0.00e+00	120	36	101	1048576	56	5554
2026-01-07 21:44:28.03	81.55	10.73	-38.4	-39.4	23.5	0.00e+00	123	36	101	1048576	56	5549
2026-01-07 21:44:29.04	81.43	10.80	-38.4	-39.4	23.6	0.00e+00	122	36	101	1048576	56	5538
2026-01-07 21:44:30.05	81.31	10.87	-38.5	-39.5	23.6	0.00e+00	123	36	101	1048576	56	5612
2026-01-07 21:44:31.06	81.19	10.93	-38.5	-39.4	23.6	0.00e+00	122	36	101	1048576	56	5561
2026-01-07 21:44:32.07	81.06	11.00	-38.6	-39.5	23.5	0.00e+00	123	36	101	1048576	56	5637
2026-01-07 21:44:33.08	80.94	11.07	-38.3	-39.3	23.6	0.00e+00	120	36	101	1048576	56	5479
2026-01-07 21:44:34.09	80.81	11.14	-38.6	-39.5	23.5	0.00e+00	123	36	101	1048576	56	5630
2026-01-07 21:44:35.10	80.69	11.21	-38.6	-39.6	23.3	0.00e+00	122	36	101	1048576	56	5662
2026-01-07 21:44:36.12	80.56	11.28	-38.5	-39.4	23.4	0.00e+00	123	36	101	1048576	56	5588
2026-01-07 21:44:37.13	80.44	11.35	-38.5	-39.4	23.4	0.00e+00	122	36	101	1048576	56	5581
2026-01-07 21:44:38.14	80.31	11.42	-38.6	-39.6	23.4	0.00e+00	122	36	101	1048576	56	5666
2026-01-07 21:44:39.15	80.18	11.49	-38.6	-39.5	23.5	0.00e+00	123	36	101	1048576	56	5644
2026-01-07 21:44:40.16	80.05	11.56	-38.4	-39.3	23.6	0.00e+00	123	36	101	1048576	56	5520
2026-01-07 21:44:41.17	79.92	11.63	-38.3	-39.3	23.7	0.00e+00	122	36	101	1048576	56	5486
2026-01-07 21:44:42.18	79.80	11.69	-38.4	-39.3	23.4	0.00e+00	123	36	101	1048576	56	5515
2026-01-07 21:44:43.19	79.67	11.76	-38.3	-39.2	23.7	0.00e+00	120	36	101	1048576	56	5443
2026-01-07 21:44:44.20	79.53	11.83	-38.3	-39.2	23.7	0.00e+00	123	36	101	1048576	56	5428
2026-01-07 21:44:45.21	79.40	11.90	-38.1	-39.0	23.9	0.00e+00	120	36	101	1048576	54	5986
2026-01-07 21:44:46.22	79.27	11.97	-38.0	-39.0	23.8	0.00e+00	123	36	101	1048576	54	5954
2026-01-07 21:44:47.23	79.14	12.04	-38.0	-38.9	23.8	0.00e+00	123	36	101	1048576	54	5923
2026-01-07 21:44:48.25	79.01	12.11	-38.1	-39.1	23.8	0.00e+00	122	36	101	1048576	54	6009
2026-01-07 21:44:49.26	78.87	12.18	-38.1	-39.1	23.6	0.00e+00	122	36	101	1048576	54	6007
2026-01-07 21:44:50.27	78.74	12.25	-38.3	-39.3	23.6	0.00e+00	122	36	101	1048576	54	6151
2026-01-07 21:44:51.28	78.60	12.32	-38.3	-39.3	23.6	0.00e+00	122	36	101	1048576	54	6146
2026-01-07 21:44:52.29	78.47	12.39	-38.5	-39.5	23.5	0.00e+00	122	36	101	1048576	54	6301
2026-01-07 21:44:53.30	78.33	12.46	-38.5	-39.4	23.5	0.00e+00	123	36	101	1048576	54	6273
2026-01-07 21:44:54.31	78.19	12.53	-38.3	-39.3	23.7	0.00e+00	123	36	101	1048576	54	6138
2026-01-07 21:44:55.32	78.06	12.60	-38.4	-39.4	23.7	0.00e+00	122	36	101	1048576	54	6218
2026-01-07 21:44:56.33	77.92	12.67	-38.1	-39.0	23.9	0.00e+00	122	36	101	1048576	54	5976
2026-01-07 21:44:57.34	77.78	12.74	-38.1	-39.1	23.8	0.00e+00	123	36	101	1048576	54	6014
2026-01-07 21:44:58.35	77.64	12.81	-38.0	-38.9	24.0	0.00e+00	120	36	101	1048576	54	5887
2026-01-07 21:44:59.36	77.50	12.88	-38.0	-38.9	23.9	0.00e+00	123	36	101	1048576	54	5898
2026-01-07 21:45:00.37	77.36	12.95	-37.9	-38.8	24.0	0.00e+00	123	36	101	1048576	54	5845
2026-01-07 21:45:01.38	77.22	13.02	-38.0	-38.9	23.8	0.00e+00	123	36	101	1048576	54	5923
2026-01-07 21:45:02.39	77.07	13.09	-38.1	-39.1	23.8	0.00e+00	120	36	101	1048576	54	6013
2026-01-07 21:45:03.40	76.93	13.16	-38.3	-39.2	23.7	0.00e+00	122	36	101	1048576	54	6091
2026-01-07 21:45:04.42	76.78	13.23	-38.2	-39.1	23.8	0.00e+00	120	36	101	1048576	54	6040
2026-01-07 21:45:05.43	76.64	13.30	-38.2	-39.1	23.7	0.00e+00	123	36	101	1048576	54	6025
2026-01-07 21:45:06.44	76.50	13.37	-38.2	-39.1	23.8	0.00e+00	122	36	101	1048576	54	6051
2026-01-07 21:45:07.45	76.35	13.44	-38.3	-39.3	23.6	0.00e+00	123	36	101	1048576	54	6163
2026-01-07 21:45:08.46	76.20	13.51	-38.2	-39.1	23.8	0.00e+00	123	36	101	1048576	54	6046
2026-01-07 21:45:09.47	76.06	13.58	-38.0	-38.9	23.9	0.00e+00	123	36	101	1048576	54	5925
2026-01-07 21:45:10.48	75.91	13.65	-38.0	-39.0	23.8	0.00e+00	122	36	101	1048576	54	5936
2026-01-07 21:45:11.49	75.76	13.72	-38.0	-38.9	23.9	0.00e+00	122	36	101	1048576	54	5924
2026-01-07 21:45:12.50	75.61	13.79	-38.0	-38.9	24.0	0.00e+00	123	36	101	1048576	54	5921
2026-01-07 21:45:13.51	75.46	13.86	-38.0	-39.0	23.9	0.00e+00	123	36	101	1048576	54	5946
2026-01-07 21:45:14.52	75.31	13.93	-38.2	-39.2	23.8	0.00e+00	123	36	101	1048576	54	6080
2026-01-07 21:45:15.53	75.16	14.00	-38.1	-39.1	23.8	0.00e+00	122	36	101	1048576	54	6010
2026-01-07 21:45:16.55	75.00	14.07	-38.2	-39.2	23.7	0.00e+00	122	36	101	1048576	54	6096
2026-01-07 21:45:17.55	74.85	14.14	-38.3	-39.3	23.7	0.00e+00	120	36	101	1048576	54	6144
2026-01-07 21:45:18.57	74.70	14.21	-38.4	-39.3	23.6	0.00e+00	122	36	101	1048576	54	6196
2026-01-07 21:45:19.58	74.54	14.28	-38.4	-39.3	23.7	0.00e+00	122	36	101	1048576	54	6176
2026-01-07 21:45:20.59	74.39	14.35	-38.2	-39.1	23.8	0.00e+00	122	36	101	1048576	54	6041
2026-01-07 21:45:21.60	74.23	14.42	-38.2	-39.2	23.8	0.00e+00	120	36	101	1048576	54	6076
2026-01-07 21:45:22.61	74.07	14.50	-38.1	-39.1	23.9	0.00e+00	123	36	101	1048576	54	6000
2026-01-07 21:45:23.62	73.92	14.57	-38.1	-39.1	23.8	0.00e+00	123	36	101	1048576	54	6014
2026-01-07 21:45:24.63	73.76	14.64	-38.2	-39.1	23.8	0.00e+00	123	36	101	1048576	54	6062
2026-01-07 21:45:25.64	73.60	14.71	-38.2	-39.1	23.8	0.00e+00	121	36	101	1048576	54	6056
2026-01-07 21:45:26.66	73.44	14.78	-38.4	-39.3	23.6	0.00e+00	117	36	101	1048576	54	6178
2026-01-07 21:45:27.67	73.28	14.85	-38.4	-39.4	23.6	0.00e+00	123	36	101	1048576	54	6225
2026-01-07 21:45:28.68	73.12	14.92	-38.4	-39.4	23.6	0.00e+00	123	36	101	1048576	54	6224
2026-01-07 21:45:29.69	72.95	14.99	-38.5	-39.5	23.7	0.00e+00	122	36	101	1048576	54	6308
2026-01-07 21:45:30.70	72.79	15.06	-38.5	-39.4	23.6	0.00e+00	122	36	101	1048576	54	6237
2026-01-07 21:45:31.71	72.63	15.13	-38.3	-39.2	23.8	0.00e+00	123	36	101	1048576	54	6122
2026-01-07 21:45:32.72	72.46	15.20	-38.4	-39.3	23.7	0.00e+00	123	36	101	1048576	54	6194
2026-01-07 21:45:33.73	72.30	15.27	-38.2	-39.1	23.8	0.00e+00	122	36	101	1048576	54	6059
2026-01-07 21:45:34.74	72.13	15.34	-38.1	-39.1	23.8	0.00e+00	122	36	101	1048576	54	6009
2026-01-07 21:45:35.76	71.96	15.41	-38.3	-39.2	23.8	0.00e+00	120	36	101	1048576	54	6092
2026-01-07 21:45:36.77	71.80	15.48	-38.2	-39.1	23.9	0.00e+00	123	36	101	1048576	54	6063
2026-01-07 21:45:37.78	71.63	15.55	-38.2	-39.2	23.7	0.00e+00	123	36	101	1048576	54	6081
2026-01-07 21:45:38.79	71.46	15.62	-38.3	-39.3	23.8	0.00e+00	122	36	101	1048576	54	6166
2026-01-07 21:45:39.80	71.29	15.69	-38.3	-39.2	23.8	0.00e+00	123	36	101	1048576	54	6107
2026-01-07 21:45:40.81	71.12	15.75	-38.2	-39.1	23.9	0.00e+00	122	36	101	1048576	54	6044
2026-01-07 21:45:41.82	70.95	15.82	-38.1	-39.1	24.0	0.00e+00	122	36	101	1048576	54	6024
2026-01-07 21:45:42.83	70.77	15.89	-38.2	-39.1	23.9	0.00e+00	123	36	101	1048576	54	6011
2026-01-07 21:45:43.84	70.60	15.96	-38.1	-39.0	24.0	0.00e+00	122	36	101	1048576	54	5988
2026-01-07 21:45:44.85	70.43	16.03	-37.9	-38.8	24.1	0.00e+00	122	36	101	1048576	54	5833
2026-01-07 21:45:45.86	70.25	16.10	-37.8	-38.7	24.1	0.00e+00	123	36	101	1048576	54	5780
2026-01-07 21:45:46.87	70.08	16.17	-37.9	-38.8	24.0	0.00e+00	123	36	101	1048576	54	5849
2026-01-07 21:45:47.88	69.90	16.24	-37.8	-38.8	24.0	0.00e+00	122	36	101	1048576	54	5799
2026-01-07 21:45:48.89	69.72	16.31	-38.0	-38.9	24.0	0.00e+00	123	36	101	1048576	54	5910
2026-01-07 21:45:49.90	69.54	16.38	-38.1	-39.0	24.0	0.00e+00	123	36	101	1048576	54	5968
2026-01-07 21:45:50.92	69.36	16.45	-37.9	-38.8	24.1	0.00e+00	123	36	101	1048576	54	5829
2026-01-07 21:45:51.93	69.18	16.52	-37.9	-38.9	24.2	0.00e+00	120	36	101	1048576	54	5869
2026-01-07 21:45:52.94	69.00	16.58	-37.9	-38.9	24.0	0.00e+00	123	36	101	1048576	54	5864
2026-01-07 21:45:53.95	68.82	16.65	-38.0	-38.9	24.0	0.00e+00	121	36	101	1048576	54	5889
2026-01-07 21:45:54.96	68.64	16.72	-38.1	-39.0	23.9	0.00e+00	123	36	101	1048576	54	5959
2026-01-07 21:45:55.97	68.46	16.79	-37.9	-38.8	24.1	0.00e+00	123	36	101	1048576	54	5844
2026-01-07 21:45:56.98	68.27	16.86	-38.0	-38.9	24.0	0.00e+00	123	36	101	1048576	54	5923
2026-01-07 21:45:57.99	68.09	16.93	-38.0	-38.9	24.1	0.00e+00	123	36	101	1048576	54	5883
2026-01-07 21:45:59.00	67.90	16.99	-38.0	-38.9	23.9	0.00e+00	122	36	101	1048576	54	5920
2026-01-07 21:46:00.02	67.71	17.06	-38.1	-39.1	23.9	0.00e+00	123	36	101	1048576	54	5995
2026-01-07 21:46:01.03	67.53	17.13	-38.3	-39.2	23.8	0.00e+00	122	36	101	1048576	54	6134
2026-01-07 21:46:02.04	67.34	17.20	-38.4	-39.3	23.9	0.00e+00	122	36	101	1048576	54	6171
2026-01-07 21:46:03.05	67.15	17.26	-38.2	-39.1	23.9	0.00e+00	122	36	101	1048576	54	6055
2026-01-07 21:46:04.06	66.96	17.33	-38.0	-39.0	24.1	0.00e+00	123	36	101	1048576	54	5929
2026-01-07 21:46:05.07	66.77	17.40	-38.1	-39.0	24.1	0.00e+00	122	36	101	1048576	54	5933
2026-01-07 21:46:06.08	66.58	17.47	-37.9	-38.8	24.2	0.00e+00	123	36	101	1048576	54	5822
2026-01-07 21:46:07.09	66.39	17.53	-38.0	-38.9	24.1	0.00e+00	122	36	101	1048576	54	5885
2026-01-07 21:46:08.10	66.19	17.60	-38.0	-38.9	24.1	0.00e+00	120	36	101	1048576	54	5899
2026-01-07 21:46:09.11	66.00	17.67	-38.0	-38.9	24.1	0.00e+00	122	36	101	1048576	54	5891
2026-01-07 21:46:10.13	65.80	17.73	-38.0	-38.9	24.2	0.00e+00	123	36	101	1048576	54	5901
2026-01-07 21:46:11.14	65.61	17.80	-38.0	-38.9	24.1	0.00e+00	122	36	101	1048576	54	5885
2026-01-07 21:46:12.15	65.41	17.86	-37.9	-38.9	24.1	0.00e+00	121	36	101	1048576	54	5863
2026-01-07 21:46:13.16	65.21	17.93	-37.9	-38.8	24.2	0.00e+00	123	36	101	1048576	54	5841
2026-01-07 21:46:14.17	65.01	18.00	-37.9	-38.8	24.1	0.00e+00	122	36	101	1048576	54	5821
2026-01-07 21:46:15.18	64.81	18.06	-38.0	-38.9	24.1	0.00e+00	121	36	101	1048576	54	5885
2026-01-07 21:46:16.19	64.61	18.13	-37.9	-38.8	24.2	0.00e+00	123	36	101	1048576	54	5812
2026-01-07 21:46:17.20	64.41	18.19	-38.0	-38.9	24.1	0.00e+00	123	36	101	1048576	54	5876
2026-01-07 21:46:18.21	64.21	18.26	-37.7	-38.6	24.3	0.00e+00	123	36	101	1048576	54	5682
2026-01-07 21:46:19.22	64.01	18.32	-37.7	-38.7	24.3	0.00e+00	123	36	101	1048576	54	5727
2026-01-07 21:46:20.23	63.80	18.39	-37.7	-38.6	24.2	0.00e+00	120	36	101	1048576	54	5717
2026-01-07 21:46:21.24	63.60	18.45	-37.8	-38.7	24.1	0.00e+00	122	36	101	1048576	54	5789
2026-01-07 21:46:22.25	63.39	18.51	-37.8	-38.7	24.2	0.00e+00	123	36	101	1048576	54	5769
2026-01-07 21:46:23.26	63.19	18.58	-37.7	-38.6	24.3	0.00e+00	123	36	101	1048576	54	5717
2026-01-07 21:46:24.28	62.98	18.64	-37.8	-38.7	24.3	0.00e+00	122	36	101	1048576	54	5763
2026-01-07 21:46:25.29	62.77	18.71	-37.7	-38.6	24.3	0.00e+00	122	36	101	1048576	54	5709
2026-01-07 21:46:26.30	62.56	18.77	-37.7	-38.6	24.2	0.00e+00	122	36	101	1048576	54	5670
2026-01-07 21:46:27.31	62.35	18.83	-37.7	-38.6	24.3	0.00e+00	123	36	101	1048576	54	5722
2026-01-07 21:46:28.32	62.14	18.89	-37.8	-38.8	24.1	0.00e+00	123	36	101	1048576	54	5795
2026-01-07 21:46:29.33	61.93	18.96	-37.9	-38.9	24.1	0.00e+00	122	36	101	1048576	54	5860
2026-01-07 21:46:30.34	61.72	19.02	-37.8	-38.8	24.2	0.00e+00	120	36	101	1048576	54	5808
2026-01-07 21:46:31.35	61.50	19.08	-37.8	-38.7	24.3	0.00e+00	122	36	101	1048576	54	5790
2026-01-07 21:46:32.36	61.29	19.14	-37.7	-38.7	24.2	0.00e+00	121	36	101	1048576	54	5747
2026-01-07 21:46:33.38	61.07	19.20	-37.8	-38.7	24.2	0.00e+00	123	36	101	1048576	54	5748
2026-01-07 21:46:34.39	60.86	19.27	-37.8	-38.8	24.3	0.00e+00	120	36	101	1048576	54	5804
2026-01-07 21:46:35.40	60.64	19.33	-37.8	-38.8	24.3	0.00e+00	123	36	101	1048576	54	5803
2026-01-07 21:46:36.41	60.42	19.39	-37.7	-38.6	24.3	0.00e+00	120	36	101	1048576	54	5710
2026-01-07 21:46:37.42	60.20	19.45	-37.4	-38.4	24.6	0.00e+00	123	36	101	1048576	54	5533
2026-01-07 21:46:38.43	59.98	19.51	-37.5	-38.4	24.5	0.00e+00	120	36	101	1048576	54	5566
2026-01-07 21:46:39.44	59.76	19.57	-37.6	-38.5	24.5	0.00e+00	122	36	101	1048576	54	5636
2026-01-07 21:46:40.45	59.54	19.63	-37.4	-38.3	24.5	0.00e+00	120	36	101	1048576	54	5530
2026-01-07 21:46:41.46	59.32	19.68	-37.5	-38.4	24.5	0.00e+00	122	36	101	1048576	54	5563
2026-01-07 21:46:42.47	59.10	19.74	-37.5	-38.4	24.5	0.00e+00	123	36	101	1048576	54	5549
2026-01-07 21:46:43.48	58.87	19.80	-37.4	-38.3	24.6	0.00e+00	123	36	101	1048576	54	5527
2026-01-07 21:46:44.49	58.65	19.86	-37.4	-38.4	24.6	0.00e+00	120	36	101	1048576	54	5534
2026-01-07 21:46:45.51	58.42	19.92	-37.4	-38.3	24.6	0.00e+00	122	36	101	1048576	54	5477
2026-01-07 21:46:46.52	58.20	19.98	-37.4	-38.3	24.6	0.00e+00	120	36	101	1048576	54	5497
2026-01-07 21:46:47.52	57.97	20.03	-37.4	-38.3	24.6	0.00e+00	123	36	101	1048576	54	5486
2026-01-07 21:46:48.54	57.74	20.09	-37.6	-38.5	24.5	0.00e+00	120	36	101	1048576	54	5596
2026-01-07 21:46:49.55	57.51	20.15	-37.2	-38.1	24.6	0.00e+00	120	36	101	1048576	54	5361
2026-01-07 21:46:50.56	57.28	20.20	-37.4	-38.3	24.6	0.00e+00	122	36	101	1048576	54	5496
2026-01-07 21:46:51.57	57.05	20.26	-37.4	-38.3	24.5	0.00e+00	122	36	101	1048576	54	5511
2026-01-07 21:46:52.58	56.82	20.31	-37.4	-38.4	24.6	0.00e+00	123	36	101	1048576	54	5531
2026-01-07 21:46:53.59	56.59	20.37	-37.5	-38.4	24.6	0.00e+00	122	36	101	1048576	54	5562
2026-01-07 21:46:54.60	56.35	20.42	-37.5	-38.4	24.6	0.00e+00	120	36	101	1048576	54	5553
2026-01-07 21:46:55.61	56.12	20.48	-37.4	-38.3	24.6	0.00e+00	123	36	101	1048576	54	5499
2026-01-07 21:46:56.62	55.89	20.53	-37.4	-38.3	24.6	0.00e+00	123	36	101	1048576	54	5494
2026-01-07 21:46:57.63	55.65	20.58	-37.2	-38.1	24.7	0.00e+00	123	36	101	1048576	54	5384
2026-01-07 21:46:58.64	55.41	20.64	-37.4	-38.3	24.6	0.00e+00	122	36	101	1048576	54	5492
2026-01-07 21:46:59.66	55.17	20.69	-37.5	-38.4	24.6	0.00e+00	123	36	101	1048576	54	5557
2026-01-07 21:47:00.66	54.94	20.74	-37.4	-38.3	24.7	0.00e+00	120	36	101	1048576	54	5468
2026-01-07 21:47:01.68	54.70	20.79	-37.3	-38.2	24.7	0.00e+00	123	36	101	1048576	54	5453
2026-01-07 21:47:02.68	54.46	20.84	-37.2	-38.1	24.8	0.00e+00	123	36	101	1048576	52	6001
2026-01-07 21:47:03.70	54.22	20.90	-37.3	-38.2	24.8	0.00e+00	122	36	101	1048576	52	6075
2026-01-07 21:47:04.71	53.98	20.95	-37.2	-38.1	24.8	0.00e+00	123	36	101	1048576	52	6023
2026-01-07 21:47:05.72	53.74	21.00	-37.3	-38.2	24.7	0.00e+00	123	36	101	1048576	52	6117
2026-01-07 21:47:06.73	53.49	21.04	-37.1	-38.0	24.9	0.00e+00	122	36	101	1048576	52	5947
2026-01-07 21:47:07.74	53.25	21.09	-37.0	-37.9	25.0	0.00e+00	123	36	101	1048576	52	5897
2026-01-07 21:47:08.75	53.00	21.14	-36.9	-37.8	25.0	0.00e+00	123	36	101	1048576	52	5817
2026-01-07 21:47:09.76	52.76	21.19	-36.9	-37.7	25.0	0.00e+00	121	36	101	1048576	52	5784
2026-01-07 21:47:10.78	52.51	21.24	-37.0	-37.9	24.9	0.00e+00	123	36	101	1048576	52	5859
2026-01-07 21:47:11.79	52.26	21.29	-37.0	-37.9	25.0	0.00e+00	120	36	101	1048576	52	5870
2026-01-07 21:47:12.80	52.02	21.33	-36.8	-37.7	25.1	0.00e+00	123	36	101	1048576	52	5760
2026-01-07 21:47:13.81	51.77	21.38	-37.0	-37.9	24.9	0.00e+00	122	36	101	1048576	52	5875
2026-01-07 21:47:14.82	51.52	21.42	-37.0	-37.9	24.9	0.00e+00	123	36	101	1048576	52	5878
2026-01-07 21:47:15.83	51.27	21.47	-37.1	-38.0	24.8	0.00e+00	120	36	101	1048576	52	5970
2026-01-07 21:47:16.84	51.02	21.51	-37.2	-38.1	24.7	0.00e+00	122	36	101	1048576	52	5995
2026-01-07 21:47:17.85	50.77	21.56	-37.2	-38.1	24.8	0.00e+00	122	36	101	1048576	52	6055
2026-01-07 21:47:18.86	50.52	21.60	-37.2	-38.1	24.8	0.00e+00	123	36	101	1048576	52	6012
2026-01-07 21:47:19.87	50.27	21.65	-37.3	-38.2	24.7	0.00e+00	122	36	101	1048576	52	6106
2026-01-07 21:47:20.89	50.01	21.69	-37.2	-38.1	24.7	0.00e+00	122	36	101	1048576	52	6051
2026-01-07 21:47:21.90	49.76	21.73	-37.2	-38.1	24.8	0.00e+00	123	36	101	1048576	52	6041
2026-01-07 21:47:22.91	49.50	21.77	-37.2	-38.1	24.8	0.00e+00	123	36	101	1048576	52	6034
2026-01-07 21:47:23.92	49.25	21.81	-37.2	-38.1	24.9	0.00e+00	123	36	101	1048576	52	6002
2026-01-07 21:47:24.93	48.99	21.85	-37.2	-38.1	24.8	0.00e+00	122	36	101	1048576	52	6022
2026-01-07 21:47:25.94	48.73	21.89	-37.1	-38.0	24.9	0.00e+00	123	36	101	1048576	52	5963
2026-01-07 21:47:26.95	48.48	21.93	-37.3	-38.2	24.8	0.00e+00	123	36	101	1048576	52	6074
2026-01-07 21:47:27.96	48.22	21.97	-37.2	-38.1	24.9	0.00e+00	123	36	101	1048576	52	6011
2026-01-07 21:47:28.97	47.96	22.01	-37.0	-37.9	24.9	0.00e+00	123	36	101	1048576	52	5878
2026-01-07 21:47:29.98	47.70	22.05	-37.1	-38.0	25.0	0.00e+00	123	36	101	1048576	52	5941
2026-01-07 21:47:30.99	47.44	22.09	-37.0	-37.8	25.0	0.00e+00	121	36	101	1048576	52	5843
2026-01-07 21:47:32.01	47.18	22.12	-36.9	-37.8	25.1	0.00e+00	123	36	101	1048576	52	5827
2026-01-07 21:47:33.02	46.92	22.16	-37.0	-37.8	25.0	0.00e+00	120	36	101	1048576	52	5858
2026-01-07 21:47:34.03	46.66	22.19	-37.2	-38.1	24.8	0.00e+00	123	36	101	1048576	52	5999
2026-01-07 21:47:35.04	46.39	22.23	-37.1	-37.9	24.9	0.00e+00	121	36	101	1048576	52	5912
2026-01-07 21:47:36.05	46.13	22.26	-37.2	-38.0	24.9	0.00e+00	123	36	101	1048576	52	5983
2026-01-07 21:47:37.06	45.87	22.30	-37.0	-37.8	25.0	0.00e+00	123	36	101	1048576	52	5845
2026-01-07 21:47:38.07	45.60	22.33	-37.2	-38.0	24.9	0.00e+00	123	36	101	1048576	52	5994
2026-01-07 21:47:39.08	45.34	22.36	-37.3	-38.2	24.8	0.00e+00	116	36	101	1048576	52	6068
2026-01-07 21:47:40.09	45.07	22.39	-37.3	-38.2	24.7	0.00e+00	123	36	101	1048576	52	6083
2026-01-07 21:47:41.10	44.81	22.43	-37.5	-38.4	24.6	0.00e+00	122	36	101	1048576	52	6246
2026-01-07 21:47:42.11	44.54	22.46	-37.5	-38.4	24.7	0.00e+00	123	36	101	1048576	52	6213
2026-01-07 21:47:43.12	44.28	22.49	-37.5	-38.4	24.6	0.00e+00	122	36	101	1048576	52	6253
2026-01-07 21:47:44.14	44.01	22.52	-37.5	-38.4	24.6	0.00e+00	122	36	101	1048576	52	6216
2026-01-07 21:47:45.15	43.74	22.54	-37.4	-38.3	24.6	0.00e+00	123	36	101	1048576	52	6152
2026-01-07 21:47:46.16	43.47	22.57	-37.5	-38.4	24.6	0.00e+00	123	36	101	1048576	52	6208
2026-01-07 21:47:47.17	43.20	22.60	-37.6	-38.5	24.5	0.00e+00	123	36	101	1048576	52	6329
2026-01-07 21:47:48.18	42.93	22.63	-37.6	-38.5	24.5	0.00e+00	123	36	101	1048576	52	6330
2026-01-07 21:47:49.19	42.66	22.65	-37.6	-38.5	24.6	0.00e+00	123	36	101	1048576	52	6309
2026-01-07 21:47:50.20	42.39	22.68	-37.2	-38.1	24.7	0.00e+00	122	36	101	1048576	52	6044
2026-01-07 21:47:51.21	42.12	22.70	-37.3	-38.1	24.8	0.00e+00	121	36	101	1048576	52	6054
2026-01-07 21:47:52.23	41.85	22.73	-37.2	-38.0	24.9	0.00e+00	123	36	101	1048576	52	5988
2026-01-07 21:47:53.24	41.58	22.75	-37.0	-37.9	24.9	0.00e+00	122	36	101	1048576	52	5887
2026-01-07 21:47:54.25	41.31	22.77	-37.2	-38.1	24.8	0.00e+00	122	36	101	1048576	52	6015
2026-01-07 21:47:55.26	41.04	22.79	-37.2	-38.1	24.8	0.00e+00	123	36	101	1048576	52	6033
2026-01-07 21:47:56.27	40.76	22.82	-37.4	-38.3	24.7	0.00e+00	121	36	101	1048576	52	6140
2026-01-07 21:47:57.28	40.49	22.84	-37.3	-38.2	24.7	0.00e+00	123	36	101	1048576	52	6083
2026-01-07 21:47:58.29	40.22	22.86	-37.4	-38.3	24.7	0.00e+00	122	36	101	1048576	52	6137
2026-01-07 21:47:59.30	39.94	22.88	-37.3	-38.2	24.8	0.00e+00	123	36	101	1048576	52	6072
2026-01-07 21:48:00.31	39.67	22.89	-37.4	-38.3	24.7	0.00e+00	122	36	101	1048576	52	6141
2026-01-07 21:48:01.32	39.40	22.91	-37.4	-38.3	24.7	0.00e+00	123	36	101	1048576	52	6161
2026-01-07 21:48:02.33	39.12	22.93	-37.4	-38.3	24.7	0.00e+00	122	36	101	1048576	52	6147
2026-01-07 21:48:03.34	38.85	22.95	-37.3	-38.2	24.7	0.00e+00	122	36	101	1048576	52	6089
2026-01-07 21:48:04.36	38.57	22.96	-37.3	-38.2	24.7	0.00e+00	123	36	101	1048576	52	6092
2026-01-07 21:48:05.37	38.29	22.98	-37.2	-38.1	24.9	0.00e+00	123	36	101	1048576	52	6035
2026-01-07 21:48:06.38	38.02	22.99	-37.2	-38.1	24.9	0.00e+00	123	36	101	1048576	52	6023
2026-01-07 21:48:07.39	37.74	23.01	-37.0	-37.8	25.0	0.00e+00	122	36	101	1048576	52	5858
2026-01-07 21:48:08.40	37.47	23.02	-37.0	-37.9	25.0	0.00e+00	122	36	101	1048576	52	5864
2026-01-07 21:48:09.41	37.19	23.03	-36.9	-37.8	25.1	0.00e+00	123	36	101	1048576	52	5824
2026-01-07 21:48:10.42	36.91	23.04	-36.8	-37.7	25.2	0.00e+00	123	36	101	1048576	52	5759
2026-01-07 21:48:11.43	36.64	23.05	-36.8	-37.7	25.2	0.00e+00	122	36	101	1048576	52	5768
2026-01-07 21:48:12.44	36.36	23.06	-36.9	-37.8	25.0	0.00e+00	123	36	101	1048576	52	5835
2026-01-07 21:48:13.45	36.08	23.07	-37.1	-38.0	24.9	0.00e+00	123	36	101	1048576	52	5970
2026-01-07 21:48:14.47	35.80	23.08	-37.1	-38.0	24.9	0.00e+00	123	36	101	1048576	52	5982
2026-01-07 21:48:15.48	35.53	23.09	-37.1	-38.0	24.8	0.00e+00	123	36	101	1048576	52	5983
2026-01-07 21:48:16.49	35.25	23.10	-37.3	-38.2	24.8	0.00e+00	120	36	101	1048576	52	6068
2026-01-07 21:48:17.50	34.97	23.10	-37.4	-38.4	24.6	0.00e+00	123	36	101	1048576	52	6210
2026-01-07 21:48:18.51	34.69	23.11	-37.5	-38.4	24.7	0.00e+00	123	36	101	1048576	52	6256
2026-01-07 21:48:19.52	34.42	23.11	-37.3	-38.2	24.8	0.00e+00	123	36	101	1048576	52	6070
2026-01-07 21:48:20.53	34.14	23.12	-37.4	-38.3	24.7	0.00e+00	122	36	101	1048576	52	6141
2026-01-07 21:48:21.54	33.86	23.12	-37.3	-38.2	24.8	0.00e+00	123	36	101	1048576	52	6065
2026-01-07 21:48:22.56	33.58	23.13	-37.4	-38.2	24.8	0.00e+00	123	36	101	1048576	52	6133
2026-01-07 21:48:23.57	33.30	23.13	-37.3	-38.2	24.8	0.00e+00	123	36	101	1048576	52	6079
2026-01-07 21:48:24.58	33.02	23.13	-37.2	-38.1	24.9	0.00e+00	123	36	101	1048576	52	6001
2026-01-07 21:48:25.59	32.75	23.13	-37.0	-37.9	25.0	0.00e+00	122	36	101	1048576	52	5859
2026-01-07 21:48:26.60	32.47	23.13	-36.9	-37.8	25.1	0.00e+00	122	36	101	1048576	52	5831
2026-01-07 21:48:27.61	32.19	23.13	-36.9	-37.7	25.1	0.00e+00	122	36	101	1048576	52	5791
2026-01-07 21:48:28.62	31.91	23.13	-36.8	-37.7	25.1	0.00e+00	123	36	101	1048576	52	5760
2026-01-07 21:48:29.63	31.63	23.13	-36.9	-37.7	25.1	0.00e+00	122	36	101	1048576	52	5768
2026-01-07 21:48:30.64	31.36	23.12	-36.9	-37.7	25.1	0.00e+00	123	36	101	1048576	52	5774
2026-01-07 21:48:31.65	31.08	23.12	-36.9	-37.7	25.1	0.00e+00	123	36	101	1048576	52	5775
2026-01-07 21:48:32.66	30.80	23.12	-36.9	-37.8	25.1	0.00e+00	123	36	101	1048576	52	5808
2026-01-07 21:48:33.68	30.52	23.11	-36.9	-37.8	25.1	0.00e+00	120	36	101	1048576	52	5811
2026-01-07 21:48:34.69	30.24	23.10	-36.9	-37.8	25.0	0.00e+00	122	36	101	1048576	52	5843
2026-01-07 21:48:35.70	29.97	23.10	-37.1	-38.0	24.9	0.00e+00	123	36	101	1048576	52	5980
2026-01-07 21:48:36.71	29.69	23.09	-37.1	-38.0	24.8	0.00e+00	122	36	101	1048576	52	5976
2026-01-07 21:48:37.72	29.41	23.08	-37.2	-38.1	24.7	0.00e+00	121	36	101	1048576	52	6048
2026-01-07 21:48:38.73	29.13	23.07	-37.1	-38.0	24.9	0.00e+00	122	36	101	1048576	52	5961
2026-01-07 21:48:39.74	28.86	23.06	-37.1	-37.9	24.9	0.00e+00	120	36	101	1048576	52	5925
2026-01-07 21:48:40.75	28.58	23.05	-37.1	-38.0	25.0	0.00e+00	123	36	101	1048576	52	5978
2026-01-07 21:48:41.76	28.30	23.04	-36.9	-37.8	25.0	0.00e+00	123	36	101	1048576	52	5818
2026-01-07 21:48:42.78	28.03	23.03	-37.1	-38.0	24.8	0.00e+00	123	36	101	1048576	52	5930
2026-01-07 21:48:43.79	27.75	23.02	-36.9	-37.8	25.0	0.00e+00	122	36	101	1048576	52	5796
2026-01-07 21:48:44.80	27.47	23.01	-37.0	-37.9	25.0	0.00e+00	122	36	101	1048576	52	5888
2026-01-07 21:48:45.81	27.20	22.99	-36.8	-37.7	25.1	0.00e+00	123	36	101	1048576	52	5749
2026-01-07 21:48:46.82	26.92	22.98	-36.9	-37.7	25.0	0.00e+00	123	36	101	1048576	52	5782
2026-01-07 21:48:47.83	26.65	22.96	-36.7	-37.6	25.2	0.00e+00	120	36	101	1048576	52	5681
2026-01-07 21:48:48.84	26.37	22.95	-36.9	-37.8	25.0	0.00e+00	123	36	101	1048576	52	5808
2026-01-07 21:48:49.85	26.10	22.93	-37.0	-37.9	25.0	0.00e+00	120	36	101	1048576	52	5874
2026-01-07 21:48:50.86	25.82	22.91	-36.9	-37.8	25.1	0.00e+00	122	36	101	1048576	52	5812
2026-01-07 21:48:51.87	25.55	22.90	-36.9	-37.8	25.0	0.00e+00	123	36	101	1048576	52	5829
2026-01-07 21:48:52.89	25.27	22.88	-37.0	-37.9	25.0	0.00e+00	122	36	101	1048576	52	5882
2026-01-07 21:48:53.90	25.00	22.86	-37.1	-38.0	24.9	0.00e+00	120	36	101	1048576	52	5935
2026-01-07 21:48:54.91	24.73	22.84	-37.2	-38.1	24.8	0.00e+00	123	36	101	1048576	52	6022
2026-01-07 21:48:55.92	24.45	22.82	-37.1	-38.0	24.9	0.00e+00	122	36	101	1048576	52	5968
2026-01-07 21:48:56.93	24.18	22.80	-37.1	-37.9	25.0	0.00e+00	123	36	101	1048576	52	5925
2026-01-07 21:48:57.94	23.91	22.77	-37.1	-38.0	24.9	0.00e+00	123	36	101	1048576	52	5969
2026-01-07 21:48:58.95	23.64	22.75	-37.1	-38.0	24.9	0.00e+00	123	36	101	1048576	52	5933
2026-01-07 21:48:59.96	23.37	22.73	-37.2	-38.0	24.9	0.00e+00	120	36	101	1048576	52	5993
2026-01-07 21:49:00.97	23.10	22.70	-37.3	-38.2	24.7	0.00e+00	123	36	101	1048576	52	6086
2026-01-07 21:49:01.98	22.83	22.68	-37.5	-38.4	24.6	0.00e+00	122	36	101	1048576	52	6237
2026-01-07 21:49:02.99	22.56	22.65	-37.4	-38.3	24.7	0.00e+00	123	36	101	1048576	52	6158
2026-01-07 21:49:04.00	22.29	22.63	-37.6	-38.5	24.6	0.00e+00	123	36	101	1048576	52	6279
2026-01-07 21:49:05.02	22.02	22.60	-37.3	-38.2	24.8	0.00e+00	123	36	101	1048576	52	6101
2026-01-07 21:49:06.03	21.75	22.57	-37.1	-38.0	24.9	0.00e+00	120	36	101	1048576	52	5966
2026-01-07 21:49:07.04	21.48	22.55	-37.1	-38.0	24.9	0.00e+00	123	36	101	1048576	52	5929
2026-01-07 21:49:08.05	21.21	22.52	-37.0	-37.9	25.0	0.00e+00	123	36	101	1048576	52	5870
2026-01-07 21:49:09.06	20.95	22.49	-37.0	-37.9	25.0	0.00e+00	123	36	101	1048576	52	5880
2026-01-07 21:49:10.07	20.68	22.46	-37.0	-37.9	24.9	0.00e+00	123	36	101	1048576	52	5909
2026-01-07 21:49:11.08	20.42	22.43	-37.1	-38.0	24.8	0.00e+00	122	36	101	1048576	52	5946
2026-01-07 21:49:12.09	20.15	22.40	-37.3	-38.2	24.7	0.00e+00	122	36	101	1048576	52	6084
2026-01-07 21:49:13.10	19.89	22.37	-37.4	-38.3	24.6	0.00e+00	123	36	101	1048576	52	6195
2026-01-07 21:49:14.12	19.62	22.33	-37.4	-38.3	24.6	0.00e+00	123	36	101	1048576	52	6180
2026-01-07 21:49:15.13	19.36	22.30	-37.4	-38.3	24.7	0.00e+00	122	36	101	1048576	52	6163
2026-01-07 21:49:16.14	19.09	22.27	-37.2	-38.1	24.8	0.00e+00	123	36	101	1048576	52	6022
2026-01-07 21:49:17.15	18.83	22.23	-37.2	-38.0	24.8	0.00e+00	123	36	101	1048576	52	5985
2026-01-07 21:49:18.16	18.57	22.20	-37.3	-38.2	24.6	0.00e+00	122	36	101	1048576	52	6117
2026-01-07 21:49:19.17	18.31	22.16	-37.4	-38.3	24.6	0.00e+00	123	36	101	1048576	52	6165
2026-01-07 21:49:20.18	18.05	22.13	-37.6	-38.5	24.5	0.00e+00	122	36	101	1048576	52	6295
2026-01-07 21:49:21.19	17.79	22.09	-37.3	-38.2	24.7	0.00e+00	123	36	101	1048576	52	6094
2026-01-07 21:49:22.20	17.53	22.05	-37.4	-38.3	24.7	0.00e+00	123	36	101	1048576	52	6155
2026-01-07 21:49:23.21	17.27	22.02	-37.3	-38.2	24.6	0.00e+00	123	36	101	1048576	52	6103
2026-01-07 21:49:24.23	17.01	21.98	-37.2	-38.1	24.7	0.00e+00	123	36	101	1048576	52	6005
2026-01-07 21:49:25.24	16.75	21.94	-37.2	-38.1	24.8	0.00e+00	123	36	101	1048576	52	6017
2026-01-07 21:49:26.25	16.49	21.90	-37.2	-38.1	24.8	0.00e+00	123	36	101	1048576	52	6007
2026-01-07 21:49:27.26	16.24	21.86	-37.1	-38.0	24.8	0.00e+00	122	36	101	1048576	52	5986
2026-01-07 21:49:28.27	15.98	21.82	-37.1	-38.0	24.8	0.00e+00	123	36	101	1048576	52	5940
2026-01-07 21:49:29.28	15.73	21.78	-37.3	-38.2	24.6	0.00e+00	120	36	101	1048576	52	6098
2026-01-07 21:49:30.29	15.47	21.74	-37.4	-38.4	24.5	0.00e+00	123	36	101	1048576	52	6207
2026-01-07 21:49:31.30	15.22	21.69	-37.5	-38.4	24.6	0.00e+00	122	36	101	1048576	52	6263
2026-01-07 21:49:32.32	14.96	21.65	-37.6	-38.6	24.5	0.00e+00	123	36	101	1048576	52	6364
2026-01-07 21:49:33.33	14.71	21.61	-37.7	-38.6	24.4	0.00e+00	123	36	101	1048576	52	6356
2026-01-07 21:49:34.34	14.46	21.56	-37.5	-38.4	24.6	0.00e+00	122	36	101	1048576	52	6246
2026-01-07 21:49:35.35	14.21	21.52	-37.6	-38.5	24.6	0.00e+00	120	36	101	1048576	52	6291
2026-01-07 21:49:36.36	13.96	21.48	-37.7	-38.6	24.5	0.00e+00	122	36	101	1048576	52	6358
2026-01-07 21:49:37.37	13.71	21.43	-37.6	-38.5	24.6	0.00e+00	122	36	101	1048576	52	6313
2026-01-07 21:49:38.38	13.46	21.39	-37.6	-38.6	24.4	0.00e+00	123	36	101	1048576	52	6355
2026-01-07 21:49:39.39	13.22	21.34	-37.7	-38.7	24.5	0.00e+00	123	36	101	1048576	52	6430
2026-01-07 21:49:40.40	12.97	21.29	-37.9	-38.8	24.4	0.00e+00	120	36	101	1048576	52	6559
2026-01-07 21:49:41.42	12.72	21.24	-37.8	-38.7	24.5	0.00e+00	123	36	101	1048576	52	6474
2026-01-07 21:49:42.43	12.48	21.20	-37.7	-38.6	24.5	0.00e+00	123	36	101	1048576	52	6362
2026-01-07 21:49:43.44	12.23	21.15	-37.6	-38.5	24.5	0.00e+00	122	36	101	1048576	52	6313
2026-01-07 21:49:44.45	11.99	21.10	-37.4	-38.2	24.8	0.00e+00	122	36	101	1048576	52	6124
2026-01-07 21:49:45.46	11.74	21.05	-37.4	-38.3	24.8	0.00e+00	122	36	101	1048576	52	6137
2026-01-07 21:49:46.47	11.50	21.00	-37.4	-38.3	24.7	0.00e+00	122	36	101	1048576	52	6143
2026-01-07 21:49:47.48	11.26	20.95	-37.2	-38.1	24.8	0.00e+00	123	36	101	1048576	52	6028
2026-01-07 21:49:48.49	11.02	20.90	-37.4	-38.3	24.7	0.00e+00	123	36	101	1048576	52	6194
2026-01-07 21:49:49.50	10.78	20.85	-37.6	-38.5	24.5	0.00e+00	118	36	101	1048576	52	6336
2026-01-07 21:49:50.51	10.54	20.80	-37.8	-38.8	24.4	0.00e+00	122	36	101	1048576	52	6511
2026-01-07 21:49:51.52	10.30	20.75	-37.9	-38.8	24.3	0.00e+00	120	36	101	1048576	52	6541
2026-01-07 21:49:52.53	10.07	20.70	-38.0	-38.9	24.3	0.00e+00	122	36	101	1048576	52	6592
2026-01-07 21:49:53.54	9.83	20.65	-38.0	-39.0	24.2	0.00e+00	123	36	101	1048576	54	5930
2026-01-07 21:49:54.56	9.59	20.59	-38.1	-39.0	24.1	0.00e+00	123	36	101	1048576	54	5962
2026-01-07 21:49:55.56	9.36	20.54	-38.0	-38.9	24.2	0.00e+00	121	36	101	1048576	54	5894
2026-01-07 21:49:56.58	9.12	20.49	-37.7	-38.6	24.5	0.00e+00	123	36	101	1048576	54	5666
2026-01-07 21:49:57.59	8.89	20.43	-37.4	-38.3	24.7	0.00e+00	123	36	101	1048576	54	5496
2026-01-07 21:49:58.60	8.66	20.38	-37.4	-38.3	24.7	0.00e+00	123	36	101	1048576	54	5497
2026-01-07 21:49:59.61	8.42	20.32	-37.4	-38.3	24.7	0.00e+00	122	36	101	1048576	54	5475
2026-01-07 21:50:00.62	8.19	20.27	-37.4	-38.3	24.6	0.00e+00	123	36	101	1048576	54	5525
2026-01-07 21:50:01.63	7.96	20.21	-37.5	-38.5	24.5	0.00e+00	120	36	101	1048576	54	5599
2026-01-07 21:50:02.64	7.73	20.16	-37.5	-38.4	24.6	0.00e+00	122	36	101	1048576	54	5589
2026-01-07 21:50:03.65	7.51	20.10	-37.6	-38.5	24.4	0.00e+00	120	36	101	1048576	54	5658
2026-01-07 21:50:04.66	7.28	20.04	-37.7	-38.6	24.4	0.00e+00	123	36	101	1048576	54	5674
2026-01-07 21:50:05.67	7.05	19.99	-37.6	-38.5	24.5	0.00e+00	121	36	101	1048576	54	5612
2026-01-07 21:50:06.69	6.82	19.93	-37.4	-38.3	24.6	0.00e+00	123	36	101	1048576	54	5524
2026-01-07 21:50:07.70	6.60	19.87	-37.3	-38.2	24.7	0.00e+00	123	36	101	1048576	54	5433
2026-01-07 21:50:08.71	6.38	19.81	-37.4	-38.3	24.7	0.00e+00	122	36	101	1048576	54	5513
2026-01-07 21:50:09.72	6.15	19.75	-37.5	-38.4	24.6	0.00e+00	120	36	101	1048576	54	5541
2026-01-07 21:50:10.73	5.93	19.70	-37.6	-38.5	24.5	0.00e+00	123	36	101	1048576	54	5625
2026-01-07 21:50:11.74	5.71	19.64	-37.6	-38.5	24.5	0.00e+00	121	36	101	1048576	54	5635
2026-01-07 21:50:12.75	5.49	19.58	-37.6	-38.6	24.5	0.00e+00	123	36	101	1048576	54	5664
2026-01-07 21:50:13.76	5.27	19.52	-37.4	-38.3	24.7	0.00e+00	121	36	101	1048576	54	5487
2026-01-07 21:50:14.77	5.05	19.46	-37.4	-38.3	24.6	0.00e+00	122	36	101	1048576	54	5484
2026-01-07 21:50:15.79	4.83	19.40	-37.4	-38.3	24.6	0.00e+00	120	36	101	1048576	54	5506
2026-01-07 21:50:16.80	4.61	19.34	-37.4	-38.3	24.7	0.00e+00	123	36	101	1048576	54	5486
2026-01-07 21:50:17.81	4.40	19.28	-37.2	-38.1	24.9	0.00e+00	122	36	101	1048576	54	5373
2026-01-07 21:50:18.82	4.18	19.22	-37.2	-38.1	24.9	0.00e+00	123	36	101	1048576	54	5347
2026-01-07 21:50:19.83	3.97	19.16	-37.3	-38.2	24.8	0.00e+00	123	36	101	1048576	54	5449
2026-01-07 21:50:20.84	3.75	19.09	-37.3	-38.2	24.8	0.00e+00	123	36	101	1048576	54	5429
2026-01-07 21:50:21.85	3.54	19.03	-37.5	-38.4	24.6	0.00e+00	123	36	101	1048576	54	5553
2026-01-07 21:50:22.86	3.33	18.97	-37.6	-38.5	24.5	0.00e+00	123	36	101	1048576	54	5653
2026-01-07 21:50:23.87	3.12	18.91	-37.8	-38.7	24.4	0.00e+00	122	36	101	1048576	54	5776
2026-01-07 21:50:24.89	2.90	18.85	-37.8	-38.7	24.4	0.00e+00	122	36	101	1048576	54	5749
2026-01-07 21:50:25.90	2.70	18.78	-37.6	-38.5	24.5	0.00e+00	122	36	101	1048576	54	5602
2026-01-07 21:50:26.91	2.49	18.72	-37.5	-38.4	24.6	0.00e+00	122	36	101	1048576	54	5572
2026-01-07 21:50:27.92	2.28	18.66	-37.5	-38.4	24.6	0.00e+00	122	36	101	1048576	54	5557
2026-01-07 21:50:28.93	2.07	18.59	-37.5	-38.4	24.6	0.00e+00	122	36	101	1048576	54	5548
2026-01-07 21:50:29.94	1.87	18.53	-37.4	-38.4	24.6	0.00e+00	122	36	101	1048576	54	5535
2026-01-07 21:50:30.95	1.66	18.47	-37.5	-38.4	24.5	0.00e+00	123	36	101	1048576	54	5572
2026-01-07 21:50:31.96	1.46	18.40	-37.6	-38.5	24.4	0.00e+00	123	36	101	1048576	54	5614
2026-01-07 21:50:32.97	1.26	18.34	-37.6	-38.5	24.4	0.00e+00	120	36	101	1048576	54	5623
2026-01-07 21:50:33.98	1.05	18.27	-37.4	-38.3	24.6	0.00e+00	123	36	101	1048576	54	5511
2026-01-07 21:50:34.99	0.85	18.21	-37.4	-38.3	24.5	0.00e+00	121	36	101	1048576	54	5526
2026-01-07 21:50:36.00	0.65	18.14	-37.6	-38.5	24.6	0.00e+00	122	36	101	1048576	54	5649
2026-01-07 21:50:37.02	0.45	18.08	-37.3	-38.2	24.8	0.00e+00	120	36	101	1048576	54	5445
2026-01-07 21:50:38.03	0.25	18.01	-37.3	-38.2	24.8	0.00e+00	123	36	101	1048576	54	5441
2026-01-07 21:50:39.04	0.05	17.95	-37.4	-38.3	24.6	0.00e+00	122	36	101	1048576	54	5514
2026-01-07 21:50:40.05	359.86	17.88	-37.6	-38.5	24.6	0.00e+00	123	36	101	1048576	54	5630
2026-01-07 21:50:41.06	359.66	17.82	-37.8	-38.8	24.3	0.00e+00	122	36	101	1048576	54	5793
2026-01-07 21:50:42.07	359.47	17.75	-38.0	-38.9	24.2	0.00e+00	123	36	101	1048576	54	5898
2026-01-07 21:50:43.08	359.27	17.68	-38.3	-39.2	24.0	0.00e+00	120	36	101	1048576	54	6093
2026-01-07 21:50:44.09	359.08	17.62	-38.2	-39.2	24.0	0.00e+00	122	36	101	1048576	54	6082
2026-01-07 21:50:45.10	358.88	17.55	-38.3	-39.2	24.0	0.00e+00	121	36	101	1048576	54	6098
2026-01-07 21:50:46.12	358.69	17.48	-38.2	-39.2	24.0	0.00e+00	122	36	101	1048576	54	6068
2026-01-07 21:50:47.13	358.50	17.42	-38.2	-39.1	24.0	0.00e+00	122	36	101	1048576	54	6045
2026-01-07 21:50:48.14	358.31	17.35	-38.2	-39.1	24.0	0.00e+00	123	36	101	1048576	54	6050
2026-01-07 21:50:49.15	358.12	17.28	-38.1	-39.1	24.0	0.00e+00	123	36	101	1048576	54	6008
2026-01-07 21:50:50.16	357.93	17.22	-37.7	-38.6	24.3	0.00e+00	122	36	101	1048576	54	5703
2026-01-07 21:50:51.17	357.74	17.15	-37.6	-38.5	24.4	0.00e+00	122	36	101	1048576	54	5648
2026-01-07 21:50:52.18	357.56	17.08	-37.7	-38.6	24.3	0.00e+00	123	36	101	1048576	54	5699
2026-01-07 21:50:53.19	357.37	17.01	-37.6	-38.5	24.5	0.00e+00	121	36	101	1048576	54	5597
2026-01-07 21:50:54.20	357.19	16.95	-37.8	-38.8	24.3	0.00e+00	123	36	101	1048576	54	5804
2026-01-07 21:50:55.22	357.00	16.88	-37.6	-38.5	24.4	0.00e+00	122	36	101	1048576	54	5646
2026-01-07 21:50:56.23	356.82	16.81	-37.8	-38.7	24.3	0.00e+00	123	36	101	1048576	54	5763
2026-01-07 21:50:57.24	356.64	16.74	-37.6	-38.5	24.4	0.00e+00	123	36	101	1048576	54	5650
2026-01-07 21:50:58.25	356.45	16.67	-37.5	-38.4	24.5	0.00e+00	123	36	101	1048576	54	5572
2026-01-07 21:50:59.26	356.27	16.60	-37.5	-38.4	24.4	0.00e+00	122	36	101	1048576	54	5584
2026-01-07 21:51:00.26	356.10	16.54	-37.4	-38.3	24.5	0.00e+00	123	36	101	1048576	54	5528
2026-01-07 21:51:01.27	355.92	16.47	-37.5	-38.4	24.4	0.00e+00	122	36	101	1048576	54	5593
2026-01-07 21:51:02.28	355.74	16.40	-37.7	-38.6	24.3	0.00e+00	122	36	101	1048576	54	5698
2026-01-07 21:51:03.29	355.56	16.33	-37.8	-38.7	24.4	0.00e+00	122	36	101	1048576	54	5773
2026-01-07 21:51:04.30	355.38	16.26	-37.8	-38.7	24.2	0.00e+00	122	36	101	1048576	54	5763
2026-01-07 21:51:05.31	355.21	16.19	-38.0	-38.9	24.2	0.00e+00	122	36	101	1048576	54	5912
2026-01-07 21:51:06.32	355.03	16.13	-38.1	-39.0	24.0	0.00e+00	120	36	101	1048576	54	5982
2026-01-07 21:51:07.33	354.86	16.06	-38.2	-39.1	24.0	0.00e+00	122	36	101	1048576	54	6010
2026-01-07 21:51:08.34	354.69	15.99	-38.0	-38.9	24.1	0.00e+00	123	36	101	1048576	54	5883
2026-01-07 21:51:09.35	354.51	15.92	-37.9	-38.9	24.1	0.00e+00	123	36	101	1048576	54	5876
2026-01-07 21:51:10.36	354.34	15.85	-37.9	-38.8	24.2	0.00e+00	122	36	101	1048576	54	5853
2026-01-07 21:51:11.37	354.17	15.78	-38.1	-39.0	24.0	0.00e+00	122	36	101	1048576	54	5968
2026-01-07 21:51:12.38	354.00	15.71	-38.0	-39.0	24.0	0.00e+00	123	36	101	1048576	54	5948
2026-01-07 21:51:13.40	353.83	15.64	-38.0	-39.0	24.0	0.00e+00	122	36	101	1048576	54	5932
2026-01-07 21:51:14.41	353.66	15.57	-38.2	-39.1	23.9	0.00e+00	123	36	101	1048576	54	6037
2026-01-07 21:51:15.42	353.49	15.50	-38.1	-39.1	23.9	0.00e+00	123	36	101	1048576	54	5999
2026-01-07 21:51:16.43	353.33	15.43	-38.2	-39.1	23.9	0.00e+00	120	36	101	1048576	54	6048
2026-01-07 21:51:17.44	353.16	15.36	-38.2	-39.1	23.9	0.00e+00	123	36	101	1048576	54	6043
2026-01-07 21:51:18.45	352.99	15.29	-38.2	-39.1	23.9	0.00e+00	120	36	101	1048576	54	6021
2026-01-07 21:51:19.46	352.83	15.22	-38.2	-39.2	23.9	0.00e+00	123	36	101	1048576	54	6074
2026-01-07 21:51:20.47	352.67	15.15	-38.3	-39.2	23.8	0.00e+00	120	36	101	1048576	54	6104
2026-01-07 21:51:21.48	352.50	15.08	-38.3	-39.3	23.8	0.00e+00	122	36	101	1048576	54	6145
2026-01-07 21:51:22.49	352.34	15.01	-38.3	-39.3	23.8	0.00e+00	123	36	101	1048576	54	6151
2026-01-07 21:51:23.50	352.18	14.94	-38.2	-39.2	23.9	0.00e+00	123	36	101	1048576	54	6068
2026-01-07 21:51:24.51	352.02	14.87	-38.2	-39.1	23.9	0.00e+00	123	36	101	1048576	54	6028
2026-01-07 21:51:25.52	351.86	14.80	-38.1	-39.0	23.9	0.00e+00	122	36	101	1048576	54	5947
2026-01-07 21:51:26.53	351.70	14.73	-38.1	-39.0	24.0	0.00e+00	120	36	101	1048576	54	5939
2026-01-07 21:51:27.54	351.54	14.66	-38.0	-38.9	24.2	0.00e+00	123	36	101	1048576	54	5884
2026-01-07 21:51:28.55	351.38	14.59	-38.0	-38.9	24.0	0.00e+00	123	36	101	1048576	54	5901
2026-01-07 21:51:29.57	351.23	14.52	-38.1	-39.0	24.0	0.00e+00	123	36	101	1048576	54	5989
2026-01-07 21:51:30.58	351.07	14.45	-38.2	-39.1	23.8	0.00e+00	122	36	101	1048576	54	6023
2026-01-07 21:51:31.59	350.91	14.38	-38.1	-39.0	24.0	0.00e+00	122	36	101	1048576	54	5982
2026-01-07 21:51:32.60	350.76	14.31	-38.1	-39.1	23.9	0.00e+00	123	36	101	1048576	54	6008
2026-01-07 21:51:33.61	350.61	14.24	-38.2	-39.2	24.0	0.00e+00	123	36	101	1048576	54	6073
2026-01-07 21:51:34.62	350.45	14.17	-38.0	-38.9	24.0	0.00e+00	122	36	101	1048576	54	5925
2026-01-07 21:51:35.63	350.30	14.10	-38.1	-39.0	24.0	0.00e+00	122	36	101	1048576	54	5991
2026-01-07 21:51:36.64	350.15	14.03	-38.1	-39.0	24.0	0.00e+00	123	36	101	1048576	54	5960
2026-01-07 21:51:37.65	350.00	13.96	-38.0	-38.9	24.0	0.00e+00	123	36	101	1048576	54	5902
2026-01-07 21:51:38.66	349.85	13.89	-38.1	-39.0	24.0	0.00e+00	120	36	101	1048576	54	5969
2026-01-07 21:51:39.67	349.70	13.82	-38.1	-39.1	23.9	0.00e+00	122	36	101	1048576	54	5998
2026-01-07 21:51:40.68	349.55	13.75	-38.4	-39.3	23.8	0.00e+00	122	36	101	1048576	54	6196
2026-01-07 21:51:41.69	349.40	13.68	-38.6	-39.6	23.5	0.00e+00	122	36	101	1048576	54	6380
2026-01-07 21:51:42.70	349.25	13.61	-38.5	-39.5	23.6	0.00e+00	123	36	101	1048576	54	6310
2026-01-07 21:51:43.71	349.11	13.54	-38.8	-39.7	23.4	0.00e+00	122	36	101	1048576	54	6482
2026-01-07 21:51:44.73	348.96	13.47	-38.9	-39.9	23.3	0.00e+00	123	36	101	1048576	54	6580
2026-01-07 21:51:45.74	348.81	13.40	-38.9	-39.9	23.2	0.00e+00	123	36	101	1048576	54	6586
2026-01-07 21:51:46.75	348.67	13.33	-39.2	-40.2	23.0	0.00e+00	121	36	101	1048576	54	6826
2026-01-07 21:51:47.76	348.53	13.26	-39.1	-40.1	23.1	0.00e+00	123	36	101	1048576	56	5997
2026-01-07 21:51:48.77	348.38	13.19	-39.1	-40.1	22.9	0.00e+00	123	36	101	1048576	56	6057
2026-01-07 21:51:49.78	348.24	13.12	-39.1	-40.1	23.1	0.00e+00	120	36	101	1048576	56	6043
2026-01-07 21:51:50.79	348.10	13.05	-39.0	-40.0	23.1	0.00e+00	123	36	101	1048576	56	5989
2026-01-07 21:51:51.80	347.96	12.98	-39.0	-40.0	23.1	0.00e+00	120	36	101	1048576	56	5947
2026-01-07 21:51:52.81	347.82	12.91	-38.8	-39.8	23.3	0.00e+00	123	36	101	1048576	56	5809
2026-01-07 21:51:53.82	347.68	12.85	-38.7	-39.6	23.5	0.00e+00	123	36	101	1048576	56	5714
2026-01-07 21:51:54.83	347.54	12.78	-38.7	-39.7	23.4	0.00e+00	122	36	101	1048576	56	5778
2026-01-07 21:51:55.84	347.40	12.71	-38.9	-39.9	23.3	0.00e+00	123	36	101	1048576	56	5872
2026-01-07 21:51:56.86	347.26	12.64	-39.1	-40.1	23.2	0.00e+00	123	36	101	1048576	56	6042
2026-01-07 21:51:57.87	347.12	12.57	-39.1	-40.1	23.1	0.00e+00	123	36	101	1048576	56	6004
2026-01-07 21:51:58.88	346.99	12.50	-39.2	-40.2	23.1	0.00e+00	123	36	101	1048576	56	6095
2026-01-07 21:51:59.89	346.85	12.43	-39.3	-40.3	22.9	0.00e+00	120	36	101	1048576	56	6156
2026-01-07 21:52:00.90	346.72	12.36	-39.4	-40.4	22.8	0.00e+00	122	36	101	1048576	56	6251
2026-01-07 21:52:01.91	346.58	12.29	-39.4	-40.4	22.9	0.00e+00	123	36	101	1048576	56	6236
2026-01-07 21:52:02.92	346.45	12.22	-39.4	-40.4	22.9	0.00e+00	123	36	101	1048576	56	6257
2026-01-07 21:52:03.93	346.31	12.15	-39.4	-40.4	22.8	0.00e+00	120	36	101	1048576	56	6268
2026-01-07 21:52:04.94	346.18	12.08	-39.1	-40.1	23.1	0.00e+00	122	36	101	1048576	56	6008
2026-01-07 21:52:05.96	346.05	12.01	-39.0	-40.0	23.1	0.00e+00	122	36	101	1048576	56	5957
2026-01-07 21:52:06.97	345.92	11.94	-38.9	-39.9	23.2	0.00e+00	122	36	101	1048576	56	5911
2026-01-07 21:52:07.98	345.79	11.87	-39.1	-40.1	23.0	0.00e+00	123	36	101	1048576	56	6000
2026-01-07 21:52:08.99	345.66	11.80	-38.8	-39.8	23.2	0.00e+00	123	36	101	1048576	56	5840
2026-01-07 21:52:10.00	345.53	11.73	-38.8	-39.8	23.3	0.00e+00	123	36	101	1048576	56	5820
2026-01-07 21:52:11.01	345.40	11.66	-38.9	-39.9	23.3	0.00e+00	122	36	101	1048576	56	5860
2026-01-07 21:52:12.02	345.27	11.59	-38.7	-39.7	23.4	0.00e+00	122	36	101	1048576	56	5762
2026-01-07 21:52:13.03	345.14	11.53	-38.8	-39.8	23.4	0.00e+00	123	36	101	1048576	56	5796
2026-01-07 21:52:14.04	345.02	11.46	-38.9	-39.9	23.2	0.00e+00	122	36	101	1048576	56	5921
2026-01-07 21:52:15.05	344.89	11.39	-39.0	-39.9	23.1	0.00e+00	123	36	101	1048576	56	5924
2026-01-07 21:52:16.06	344.77	11.32	-39.0	-40.0	23.2	0.00e+00	123	36	101	1048576	56	5947
2026-01-07 21:52:17.07	344.64	11.25	-39.3	-40.3	22.9	0.00e+00	122	36	101	1048576	56	6138
2026-01-07 21:52:18.08	344.52	11.18	-39.2	-40.2	22.9	0.00e+00	123	36	101	1048576	56	6114
2026-01-07 21:52:19.09	344.39	11.11	-39.3	-40.3	22.9	0.00e+00	123	36	101	1048576	56	6192
2026-01-07 21:52:20.10	344.27	11.04	-39.4	-40.4	22.8	0.00e+00	122	36	101	1048576	56	6215
2026-01-07 21:52:21.12	344.15	10.98	-39.4	-40.4	22.8	0.00e+00	120	36	101	1048576	56	6209
2026-01-07 21:52:22.13	344.02	10.91	-39.3	-40.3	22.9	0.00e+00	123	36	101	1048576	56	6205
2026-01-07 21:52:23.14	343.90	10.84	-39.3	-40.3	22.8	0.00e+00	123	36	101	1048576	56	6195
2026-01-07 21:52:24.15	343.78	10.77	-39.0	-40.0	23.0	0.00e+00	122	36	101	1048576	56	5993
2026-01-07 21:52:25.16	343.66	10.70	-39.1	-40.1	22.9	0.00e+00	123	36	101	1048576	56	6055
2026-01-07 21:52:26.17	343.54	10.63	-39.1	-40.1	23.0	0.00e+00	122	36	101	1048576	56	5995
2026-01-07 21:52:27.18	343.42	10.57	-39.1	-40.1	23.0	0.00e+00	123	36	101	1048576	56	6036
2026-01-07 21:52:28.19	343.30	10.50	-39.2	-40.2	23.0	0.00e+00	122	36	101	1048576	56	6109
2026-01-07 21:52:29.20	343.19	10.43	-39.3	-40.3	22.8	0.00e+00	123	36	101	1048576	56	6180
2026-01-07 21:52:30.22	343.07	10.36	-39.2	-40.2	22.9	0.00e+00	123	36	101	1048576	56	6114
2026-01-07 21:52:31.23	342.95	10.29	-39.4	-40.4	22.8	0.00e+00	122	36	101	1048576	56	6263
2026-01-07 21:52:32.24	342.83	10.23	-39.6	-40.6	22.6	0.00e+00	123	36	101	1048576	56	6421
2026-01-07 21:52:33.25	342.72	10.16	-39.8	-40.8	22.4	0.00e+00	122	36	101	1048576	56	6571
2026-01-07 21:52:34.26	342.60	10.09	-40.0	-41.0	22.3	0.00e+00	123	36	101	1048576	56	6710
2026-01-07 21:52:35.27	342.49	10.02	-40.3	-41.4	22.0	0.00e+00	123	36	101	1048576	56	6976
2026-01-07 21:52:36.28	342.37	9.95	-40.2	-41.3	21.8	0.00e+00	120	36	101	1048576	58	6168
2026-01-07 21:52:37.29	342.26	9.89	-40.3	-41.4	21.8	0.00e+00	122	36	101	1048576	58	6263
2026-01-07 21:52:38.30	342.15	9.82	-40.0	-41.1	22.0	0.00e+00	123	36	101	1048576	58	6043
2026-01-07 21:52:39.31	342.03	9.75	-40.1	-41.2	22.0	0.00e+00	123	36	101	1048576	58	6086
2026-01-07 21:52:40.32	341.92	9.69	-39.8	-40.9	22.0	0.00e+00	122	36	101	1048576	58	5912
2026-01-07 21:52:41.34	341.81	9.62	-39.8	-40.9	22.0	0.00e+00	123	36	101	1048576	58	5904
2026-01-07 21:52:42.35	341.70	9.55	-39.8	-40.8	22.2	0.00e+00	121	36	101	1048576	58	5855
2026-01-07 21:52:43.35	341.59	9.48	-39.6	-40.7	22.2	0.00e+00	123	36	101	1048576	58	5731
2026-01-07 21:52:44.37	341.48	9.42	-39.5	-40.6	22.3	0.00e+00	123	36	101	1048576	58	5671
2026-01-07 21:52:45.38	341.37	9.35	-39.2	-40.2	22.7	0.00e+00	123	36	101	1048576	58	5464
2026-01-07 21:52:46.39	341.26	9.28	-39.3	-40.4	22.7	0.00e+00	123	36	101	1048576	56	6221
2026-01-07 21:52:47.40	341.15	9.22	-39.4	-40.4	22.6	0.00e+00	122	36	101	1048576	56	6248
2026-01-07 21:52:48.41	341.04	9.15	-39.3	-40.3	22.7	0.00e+00	123	36	101	1048576	56	6200
2026-01-07 21:52:49.42	340.94	9.08	-39.5	-40.5	22.7	0.00e+00	122	36	101	1048576	56	6312
2026-01-07 21:52:50.43	340.83	9.02	-39.6	-40.6	22.5	0.00e+00	122	36	101	1048576	56	6385
2026-01-07 21:52:51.44	340.72	8.95	-39.6	-40.7	22.4	0.00e+00	123	36	101	1048576	56	6428
2026-01-07 21:52:52.45	340.62	8.88	-39.7	-40.8	22.4	0.00e+00	122	36	101	1048576	56	6504
2026-01-07 21:52:53.46	340.51	8.82	-39.9	-41.0	22.1	0.00e+00	120	36	101	1048576	56	6656
2026-01-07 21:52:54.47	340.41	8.75	-40.1	-41.2	22.0	0.00e+00	122	36	101	1048576	56	6827
2026-01-07 21:52:55.48	340.30	8.69	-40.1	-41.2	21.9	0.00e+00	123	36	101	1048576	58	6113
2026-01-07 21:52:56.49	340.20	8.62	-40.3	-41.4	21.8	0.00e+00	123	36	101	1048576	58	6230
2026-01-07 21:52:57.51	340.10	8.55	-40.3	-41.4	21.8	0.00e+00	122	36	101	1048576	58	6242
2026-01-07 21:52:58.51	339.99	8.49	-40.4	-41.5	21.6	0.00e+00	123	36	101	1048576	58	6319
2026-01-07 21:52:59.53	339.89	8.42	-40.5	-41.7	21.6	0.00e+00	123	36	101	1048576	58	6457
2026-01-07 21:53:00.54	339.79	8.36	-40.3	-41.5	21.5	0.00e+00	120	36	101	1048576	58	6303
2026-01-07 21:53:01.55	339.69	8.29	-40.3	-41.4	21.6	0.00e+00	123	36	101	1048576	58	6252
2026-01-07 21:53:02.56	339.59	8.23	-40.2	-41.3	21.7	0.00e+00	120	36	101	1048576	58	6201
