passes_logs/2026/01/07/R4.6S_Anadyr_2ch/R4.6S_Anadyr_2ch__20260107_185404_SUOMI_NPP_rec.log

#Pass ID: 20260107_185404_SUOMI NPP
#Satellite: SUOMI NPP
#Configuration: NPP
#almurnet v.1.7.20251203
#Start time: 2026-01-07 18:54:07

#Version: 2.2.20231116
#Station: R4.6S_Anadyr_2ch
#Location: 177.4865 lon 64.73178 lat
#TLE: 1 37849U 11061A   25350.92281687  .00000071  00000+0  54882-4 0  9996
#TLE: 2 37849  98.7777 288.2268 0002366 112.8570 247.2856 14.19515404732588

#Time	Az	El	Level	Level2	SNR	BER	BlckErr	Temp	State	Recorded	gain1	gain2
2026-01-07 18:54:07.50	45.00	0.13	-51.6	-62.6	3.5	8.47e-01	0	32	0	0	60	66317
2026-01-07 18:54:08.51	44.93	0.18	-51.7	-67.3	3.6	1.51e+00	0	34	104	0	60	113021
2026-01-07 18:54:09.52	44.86	0.23	-51.7	-67.2	3.6	1.51e+00	0	34	104	0	60	112049
2026-01-07 18:54:10.53	44.78	0.27	-51.8	-67.3	3.6	1.51e+00	0	34	104	0	60	113044
2026-01-07 18:54:11.54	44.70	0.32	-51.7	-67.3	3.6	1.51e+00	0	34	104	0	60	112837
2026-01-07 18:54:12.55	44.63	0.37	-51.7	-67.3	3.6	1.51e+00	0	34	104	0	60	112741
2026-01-07 18:54:13.56	44.55	0.42	-51.7	-67.3	3.6	1.51e+00	0	34	104	0	60	112613
2026-01-07 18:54:14.57	44.48	0.47	-51.7	-67.3	3.6	1.51e+00	0	34	104	0	60	112476
2026-01-07 18:54:15.58	44.40	0.52	-51.7	-67.3	3.6	1.51e+00	0	34	104	0	60	113063
2026-01-07 18:54:16.59	44.32	0.57	-51.7	-67.3	3.6	1.51e+00	0	34	104	0	60	112931
2026-01-07 18:54:17.60	44.25	0.62	-51.7	-67.3	3.6	1.51e+00	0	34	104	0	60	112764
2026-01-07 18:54:18.62	44.17	0.67	-51.7	-67.2	3.6	1.51e+00	0	34	104	0	60	112056
2026-01-07 18:54:19.62	44.09	0.72	-51.7	-67.3	3.6	1.51e+00	0	34	104	0	60	112741
2026-01-07 18:54:20.63	44.01	0.77	-51.8	-67.3	3.6	1.51e+00	0	34	104	0	60	113058
2026-01-07 18:54:21.64	43.94	0.82	-51.7	-67.3	3.6	1.51e+00	0	34	104	0	60	112349
2026-01-07 18:54:22.65	43.86	0.87	-51.7	-67.3	3.6	1.51e+00	0	34	104	0	60	112956
2026-01-07 18:54:23.66	43.78	0.92	-51.8	-67.3	3.6	1.51e+00	0	34	104	0	60	113295
2026-01-07 18:54:24.67	43.70	0.97	-51.7	-67.3	3.6	1.51e+00	0	34	104	0	60	113074
2026-01-07 18:54:25.68	43.62	1.02	-51.7	-67.3	3.6	1.51e+00	0	34	104	0	60	112490
2026-01-07 18:54:26.69	43.54	1.07	-51.7	-67.3	3.6	1.51e+00	0	34	104	0	60	112902
2026-01-07 18:54:27.70	43.46	1.12	-51.8	-67.3	3.6	1.51e+00	0	34	104	0	60	112370
2026-01-07 18:54:28.71	43.38	1.17	-51.7	-67.3	3.6	1.51e+00	0	34	104	0	60	112432
2026-01-07 18:54:29.72	43.30	1.22	-51.7	-67.3	3.6	1.51e+00	0	34	104	0	60	112969
2026-01-07 18:54:30.73	43.22	1.27	-51.7	-67.3	3.6	1.51e+00	0	34	104	0	60	112805
2026-01-07 18:54:31.75	43.14	1.33	-51.7	-67.4	3.6	1.51e+00	0	34	104	0	60	113680
2026-01-07 18:54:32.76	43.06	1.38	-51.8	-67.3	3.6	1.51e+00	0	34	104	0	60	112769
2026-01-07 18:54:33.77	42.97	1.43	-51.7	-67.3	3.6	1.51e+00	0	34	104	0	60	113070
2026-01-07 18:54:34.78	42.89	1.48	-51.8	-67.3	3.6	1.51e+00	0	34	104	0	60	112720
2026-01-07 18:54:35.79	42.81	1.53	-51.8	-67.3	3.6	1.51e+00	0	34	104	0	60	112627
2026-01-07 18:54:36.80	42.73	1.58	-51.8	-67.3	3.6	1.51e+00	0	34	104	0	60	112973
2026-01-07 18:54:37.81	42.65	1.63	-51.7	-67.3	3.6	1.51e+00	0	34	104	0	60	112824
2026-01-07 18:54:38.82	42.56	1.68	-51.7	-67.3	3.6	1.51e+00	0	34	104	0	60	113034
2026-01-07 18:54:39.83	42.48	1.73	-51.7	-67.3	3.6	1.51e+00	0	34	104	0	60	113312
2026-01-07 18:54:40.84	42.40	1.78	-51.7	-67.3	3.6	1.51e+00	0	34	104	0	60	113036
2026-01-07 18:54:41.85	42.31	1.83	-51.7	-67.3	3.6	1.51e+00	0	34	104	0	60	112795
2026-01-07 18:54:42.86	42.23	1.88	-51.7	-67.3	3.6	1.51e+00	0	34	104	0	60	112998
2026-01-07 18:54:43.87	42.14	1.93	-51.7	-67.3	3.6	1.51e+00	0	34	104	0	60	113327
2026-01-07 18:54:44.89	42.06	1.98	-51.7	-67.3	3.6	1.51e+00	0	34	104	0	60	112789
2026-01-07 18:54:45.90	41.97	2.03	-51.7	-67.3	3.6	1.51e+00	0	34	104	0	60	113018
2026-01-07 18:54:46.91	41.89	2.09	-51.7	-67.2	3.6	1.51e+00	0	34	104	0	60	112129
2026-01-07 18:54:47.92	41.80	2.14	-51.7	-67.3	3.6	1.51e+00	0	34	104	0	60	112787
2026-01-07 18:54:48.93	41.72	2.19	-51.7	-67.3	3.6	1.51e+00	0	34	104	0	60	113181
2026-01-07 18:54:49.94	41.63	2.24	-51.7	-67.3	3.6	1.51e+00	0	35	104	0	60	112596
2026-01-07 18:54:50.95	41.54	2.29	-51.7	-67.3	3.6	1.51e+00	0	34	104	0	60	113284
2026-01-07 18:54:51.96	41.46	2.34	-51.7	-67.3	3.6	1.51e+00	0	34	104	0	60	113412
2026-01-07 18:54:52.97	41.37	2.39	-51.7	-67.3	3.6	1.51e+00	0	34	104	0	60	112834
2026-01-07 18:54:53.98	41.28	2.44	-51.7	-67.3	3.5	1.51e+00	0	35	104	0	60	112813
2026-01-07 18:54:55.00	41.19	2.49	-51.7	-67.3	3.6	1.51e+00	0	34	104	0	60	112573
2026-01-07 18:54:56.01	41.10	2.54	-51.7	-67.3	3.6	1.51e+00	0	34	104	0	60	112883
2026-01-07 18:54:57.02	41.02	2.60	-51.7	-67.3	3.6	1.51e+00	0	34	104	0	60	113116
2026-01-07 18:54:58.03	40.93	2.65	-51.7	-67.3	3.6	1.51e+00	0	35	104	0	60	112626
2026-01-07 18:54:59.04	40.84	2.70	-51.7	-67.3	3.6	1.51e+00	0	35	104	0	60	112587
2026-01-07 18:55:00.05	40.75	2.75	-51.7	-67.3	3.6	1.51e+00	0	35	104	0	60	112811
2026-01-07 18:55:01.06	40.66	2.80	-51.7	-67.3	3.6	1.51e+00	0	35	104	0	60	112708
2026-01-07 18:55:02.07	40.57	2.85	-51.7	-67.3	3.6	1.51e+00	0	35	104	0	60	112726
2026-01-07 18:55:03.08	40.48	2.90	-51.7	-67.3	3.6	1.51e+00	0	35	104	0	60	113089
2026-01-07 18:55:04.09	40.39	2.95	-51.7	-67.3	3.6	1.51e+00	0	35	104	0	60	113197
2026-01-07 18:55:05.10	40.30	3.01	-51.7	-67.3	3.6	1.51e+00	0	35	104	0	60	112970
2026-01-07 18:55:06.11	40.20	3.06	-51.7	-67.3	3.6	1.51e+00	0	35	104	0	60	113136
2026-01-07 18:55:07.13	40.11	3.11	-51.7	-67.3	3.6	1.51e+00	0	35	104	0	60	113134
2026-01-07 18:55:08.14	40.02	3.16	-51.7	-67.3	3.6	1.51e+00	0	35	104	0	60	113130
2026-01-07 18:55:09.15	39.93	3.21	-51.7	-67.3	3.6	1.51e+00	0	35	104	0	60	112479
2026-01-07 18:55:10.16	39.83	3.26	-51.7	-67.3	3.6	1.51e+00	0	35	104	0	60	112695
2026-01-07 18:55:11.17	39.74	3.32	-51.7	-67.3	3.6	1.51e+00	0	35	104	0	60	113099
2026-01-07 18:55:12.18	39.65	3.37	-51.7	-67.3	3.6	1.51e+00	0	35	104	0	60	112620
2026-01-07 18:55:13.19	39.55	3.42	-51.7	-67.3	3.6	1.51e+00	0	35	104	0	60	112857
2026-01-07 18:55:14.20	39.46	3.47	-51.7	-67.3	3.6	1.51e+00	0	35	104	0	60	112379
2026-01-07 18:55:15.21	39.37	3.52	-51.7	-67.3	3.6	1.51e+00	0	35	104	0	60	112502
2026-01-07 18:55:16.22	39.27	3.57	-51.7	-67.3	3.6	1.51e+00	0	35	104	0	60	112655
2026-01-07 18:55:17.23	39.17	3.62	-51.7	-67.3	3.6	1.51e+00	0	35	104	0	60	112869
2026-01-07 18:55:18.24	39.08	3.68	-51.7	-67.3	3.6	1.51e+00	0	35	104	0	60	112946
2026-01-07 18:55:19.25	38.98	3.73	-51.7	-67.1	3.6	1.51e+00	0	35	104	0	60	110841
2026-01-07 18:55:20.26	38.89	3.78	-51.7	-67.3	3.6	1.51e+00	0	35	104	0	60	113486
2026-01-07 18:55:21.28	38.79	3.83	-51.7	-67.2	3.6	1.51e+00	0	35	104	0	60	112321
2026-01-07 18:55:22.29	38.69	3.88	-51.7	-67.3	3.6	1.51e+00	0	35	104	0	60	112899
2026-01-07 18:55:23.30	38.60	3.94	-51.7	-67.3	3.6	1.51e+00	0	35	104	0	60	113383
2026-01-07 18:55:24.31	38.50	3.99	-51.7	-67.3	3.6	1.51e+00	0	35	104	0	60	113273
2026-01-07 18:55:25.32	38.40	4.04	-51.7	-67.3	3.6	1.51e+00	0	35	104	0	60	112799
2026-01-07 18:55:26.33	38.30	4.09	-51.7	-67.3	3.6	1.51e+00	0	35	104	0	60	112724
2026-01-07 18:55:27.34	38.20	4.14	-51.7	-67.3	3.6	1.51e+00	0	35	104	0	60	113015
2026-01-07 18:55:28.35	38.10	4.19	-51.7	-67.4	3.6	1.51e+00	0	35	104	0	60	113840
2026-01-07 18:55:29.36	38.00	4.25	-51.7	-67.3	3.6	1.51e+00	0	35	104	0	60	113203
2026-01-07 18:55:30.37	37.90	4.30	-51.7	-67.3	3.6	1.51e+00	0	35	104	0	60	113290
2026-01-07 18:55:31.38	37.80	4.35	-51.7	-67.3	3.6	1.51e+00	0	35	104	0	60	112775
2026-01-07 18:55:32.39	37.70	4.40	-51.7	-67.3	3.6	1.51e+00	0	35	104	0	60	112839
2026-01-07 18:55:33.40	37.60	4.45	-51.7	-67.3	3.6	1.51e+00	0	35	104	0	60	112654
2026-01-07 18:55:34.41	37.50	4.51	-51.7	-67.3	3.6	1.51e+00	0	35	104	0	60	113506
2026-01-07 18:55:35.42	37.40	4.56	-51.7	-67.3	3.6	1.51e+00	0	35	104	0	60	113456
2026-01-07 18:55:36.43	37.30	4.61	-51.7	-67.3	3.6	1.51e+00	0	35	104	0	60	113258
2026-01-07 18:55:37.45	37.19	4.66	-51.7	-67.3	3.6	1.51e+00	0	35	104	0	60	112673
2026-01-07 18:55:38.46	37.09	4.72	-51.7	-67.3	3.6	1.51e+00	0	35	104	0	60	113095
2026-01-07 18:55:39.46	36.99	4.77	-51.7	-67.3	3.5	1.51e+00	0	35	104	0	60	113505
2026-01-07 18:55:40.48	36.88	4.82	-51.7	-67.3	3.6	1.51e+00	0	35	104	0	60	113302
2026-01-07 18:55:41.49	36.78	4.87	-51.7	-67.3	3.6	1.51e+00	0	35	104	0	60	113078
2026-01-07 18:55:42.50	36.68	4.92	-51.7	-67.3	3.6	1.51e+00	0	35	104	0	60	112533
2026-01-07 18:55:43.51	36.57	4.98	-51.7	-67.3	3.5	1.51e+00	0	35	104	0	60	113310
2026-01-07 18:55:44.52	36.47	5.03	-51.7	-67.3	3.6	1.51e+00	0	35	104	0	60	113179
2026-01-07 18:55:45.53	36.36	5.08	-51.7	-67.3	3.6	1.51e+00	0	35	104	0	60	112392
2026-01-07 18:55:46.54	36.26	5.13	-51.7	-67.3	3.6	1.51e+00	0	35	104	0	60	112555
2026-01-07 18:55:47.55	36.15	5.18	-51.7	-67.2	3.6	1.51e+00	0	35	104	0	60	112304
2026-01-07 18:55:48.56	36.04	5.24	-51.7	-67.3	3.6	1.51e+00	0	35	104	0	60	113150
2026-01-07 18:55:49.57	35.94	5.29	-51.7	-67.3	3.5	1.51e+00	0	35	104	0	60	113082
2026-01-07 18:55:50.58	35.83	5.34	-51.7	-67.3	3.6	1.51e+00	0	35	104	0	60	112913
2026-01-07 18:55:51.59	35.72	5.39	-51.7	-67.3	3.6	1.51e+00	0	35	104	0	60	113082
2026-01-07 18:55:52.60	35.61	5.45	-51.7	-67.3	3.6	1.51e+00	0	35	104	0	60	113212
2026-01-07 18:55:53.62	35.50	5.50	-51.7	-67.3	3.6	1.51e+00	0	35	104	0	60	112616
2026-01-07 18:55:54.63	35.39	5.55	-51.7	-67.3	3.6	1.51e+00	0	35	104	0	60	112771
2026-01-07 18:55:55.64	35.28	5.60	-51.7	-67.3	3.6	1.51e+00	0	35	104	0	60	112793
2026-01-07 18:55:56.65	35.17	5.66	-51.7	-67.3	3.5	1.51e+00	0	35	104	0	60	112819
2026-01-07 18:55:57.66	35.06	5.71	-51.7	-67.3	3.6	1.51e+00	0	35	104	0	60	113238
2026-01-07 18:55:58.67	34.95	5.76	-51.7	-67.3	3.6	1.51e+00	0	35	104	0	60	112903
2026-01-07 18:55:59.68	34.84	5.81	-51.7	-67.3	3.6	1.51e+00	0	35	104	0	60	113265
2026-01-07 18:56:00.69	34.73	5.86	-51.7	-67.3	3.6	1.51e+00	0	35	104	0	60	113445
2026-01-07 18:56:01.70	34.62	5.92	-51.7	-67.3	3.6	1.51e+00	0	35	104	0	60	113101
2026-01-07 18:56:02.71	34.51	5.97	-51.7	-67.3	3.6	1.51e+00	0	35	104	0	60	112689
2026-01-07 18:56:03.72	34.39	6.02	-51.7	-67.3	3.6	1.51e+00	0	35	104	0	60	113289
2026-01-07 18:56:04.74	34.28	6.07	-51.7	-67.3	3.6	1.51e+00	0	35	104	0	60	113296
2026-01-07 18:56:05.75	34.17	6.13	-51.7	-67.3	3.6	1.51e+00	0	35	104	0	60	113543
2026-01-07 18:56:06.76	34.05	6.18	-51.7	-67.3	3.6	1.51e+00	0	35	104	0	60	113321
2026-01-07 18:56:07.77	33.94	6.23	-51.7	-67.3	3.6	1.51e+00	0	35	104	0	60	112892
2026-01-07 18:56:08.78	33.82	6.28	-51.7	-67.3	3.6	1.51e+00	0	35	104	0	60	112719
2026-01-07 18:56:09.79	33.71	6.33	-51.7	-67.3	3.6	1.51e+00	0	35	104	0	60	112860
2026-01-07 18:56:10.80	33.59	6.39	-51.7	-67.3	3.6	1.51e+00	0	35	104	0	60	113252
2026-01-07 18:56:11.81	33.47	6.44	-51.7	-67.4	3.6	1.51e+00	0	35	104	0	60	113791
2026-01-07 18:56:12.82	33.36	6.49	-51.7	-67.3	3.6	1.51e+00	0	35	104	0	60	113250
2026-01-07 18:56:13.83	33.24	6.54	-51.7	-67.3	3.6	1.51e+00	0	35	104	0	60	113552
2026-01-07 18:56:14.85	33.12	6.60	-51.7	-67.3	3.6	1.51e+00	0	35	104	0	60	112916
2026-01-07 18:56:15.86	33.00	6.65	-51.7	-67.3	3.6	1.51e+00	0	35	104	0	60	113030
2026-01-07 18:56:16.87	32.89	6.70	-51.7	-67.3	3.6	1.51e+00	0	35	104	0	60	113347
2026-01-07 18:56:17.88	32.77	6.75	-51.7	-67.3	3.6	1.51e+00	0	35	104	0	60	113138
2026-01-07 18:56:18.89	32.65	6.81	-51.7	-67.3	3.6	1.51e+00	0	35	104	0	60	112759
2026-01-07 18:56:19.90	32.53	6.86	-51.7	-67.3	3.6	1.51e+00	0	35	104	0	60	113118
2026-01-07 18:56:20.91	32.41	6.91	-51.7	-67.3	3.6	1.51e+00	0	35	104	0	60	112779
2026-01-07 18:56:21.92	32.29	6.96	-51.7	-67.3	3.6	1.51e+00	0	35	104	0	60	112820
2026-01-07 18:56:22.93	32.17	7.01	-51.7	-67.3	3.5	1.51e+00	0	35	104	0	60	112686
2026-01-07 18:56:23.95	32.05	7.07	-51.7	-67.3	3.6	1.51e+00	0	35	104	0	60	112654
2026-01-07 18:56:24.96	31.92	7.12	-51.7	-67.3	3.6	1.51e+00	0	35	104	0	60	113134
2026-01-07 18:56:25.97	31.80	7.17	-51.7	-67.4	3.6	1.51e+00	0	35	104	0	60	113769
2026-01-07 18:56:26.98	31.68	7.22	-51.7	-67.3	3.6	1.51e+00	0	35	104	0	60	112833
2026-01-07 18:56:27.99	31.56	7.27	-51.7	-67.3	3.6	1.51e+00	0	35	104	0	60	112520
2026-01-07 18:56:29.00	31.43	7.33	-51.7	-67.3	3.6	1.51e+00	0	35	104	0	60	113133
2026-01-07 18:56:30.01	31.31	7.38	-51.7	-67.3	3.6	1.51e+00	0	35	104	0	60	112705
2026-01-07 18:56:31.02	31.18	7.43	-51.7	-67.3	3.6	1.51e+00	0	35	104	0	60	112680
2026-01-07 18:56:32.03	31.06	7.48	-51.7	-67.3	3.6	1.51e+00	0	35	104	0	60	113061
2026-01-07 18:56:33.04	30.93	7.53	-51.7	-67.3	3.6	1.51e+00	0	35	104	0	60	112948
2026-01-07 18:56:34.05	30.81	7.59	-51.7	-67.3	3.6	1.51e+00	0	35	104	0	60	113393
2026-01-07 18:56:35.06	30.68	7.64	-51.7	-67.3	3.5	1.51e+00	0	35	104	0	60	113054
2026-01-07 18:56:36.07	30.55	7.69	-51.7	-67.3	3.6	1.51e+00	0	35	104	0	60	112915
2026-01-07 18:56:37.08	30.43	7.74	-51.7	-67.3	3.6	1.51e+00	0	35	104	0	60	113122
2026-01-07 18:56:38.09	30.30	7.79	-51.7	-67.3	3.6	1.51e+00	0	35	104	0	60	113087
2026-01-07 18:56:39.10	30.17	7.85	-51.7	-67.3	3.6	1.51e+00	0	35	104	0	60	113233
2026-01-07 18:56:40.11	30.04	7.90	-51.7	-67.3	3.6	1.51e+00	0	35	104	0	60	112915
2026-01-07 18:56:41.12	29.91	7.95	-51.7	-67.3	3.6	1.51e+00	0	35	104	0	60	113073
2026-01-07 18:56:42.14	29.78	8.00	-51.7	-67.3	3.6	1.51e+00	0	35	104	0	60	113105
2026-01-07 18:56:43.15	29.65	8.05	-51.7	-67.3	3.6	1.51e+00	0	35	104	0	60	113487
2026-01-07 18:56:44.16	29.52	8.10	-51.7	-67.3	3.6	1.51e+00	0	35	104	0	60	112945
2026-01-07 18:56:45.17	29.39	8.16	-51.7	-67.3	3.6	1.51e+00	0	35	104	0	60	113407
2026-01-07 18:56:46.18	29.26	8.21	-51.7	-67.3	3.6	1.51e+00	0	35	104	0	60	112606
2026-01-07 18:56:47.19	29.13	8.26	-51.7	-67.3	3.6	1.51e+00	0	35	104	0	60	113382
2026-01-07 18:56:48.20	28.99	8.31	-51.7	-67.3	3.6	1.51e+00	0	35	104	0	60	113021
2026-01-07 18:56:49.21	28.86	8.36	-51.7	-67.3	3.6	1.51e+00	0	35	104	0	60	113333
2026-01-07 18:56:50.22	28.73	8.41	-51.7	-67.3	3.6	1.51e+00	0	35	104	0	60	113136
2026-01-07 18:56:51.24	28.59	8.46	-51.7	-67.3	3.6	1.51e+00	0	35	104	0	60	113071
2026-01-07 18:56:52.25	28.46	8.52	-51.7	-67.3	3.6	1.51e+00	0	35	104	0	60	112782
2026-01-07 18:56:53.26	28.32	8.57	-51.7	-67.3	3.6	1.51e+00	0	35	104	0	60	113551
2026-01-07 18:56:54.27	28.19	8.62	-51.7	-67.3	3.6	1.51e+00	0	35	104	0	60	113167
2026-01-07 18:56:55.28	28.05	8.67	-51.7	-67.3	3.6	1.51e+00	0	35	104	0	60	112856
2026-01-07 18:56:56.29	27.92	8.72	-51.7	-67.3	3.6	1.51e+00	0	35	104	0	60	112494
2026-01-07 18:56:57.30	27.78	8.77	-51.7	-67.3	3.6	1.51e+00	0	35	104	0	60	112715
2026-01-07 18:56:58.31	27.64	8.82	-51.7	-67.3	3.6	1.51e+00	0	35	104	0	60	112909
2026-01-07 18:56:59.32	27.50	8.87	-51.7	-67.3	3.6	1.51e+00	0	35	104	0	60	112969
2026-01-07 18:57:00.33	27.37	8.92	-51.7	-67.3	3.6	1.51e+00	0	35	104	0	60	113060
2026-01-07 18:57:01.35	27.23	8.97	-51.7	-67.3	3.6	1.51e+00	0	35	104	0	60	113201
2026-01-07 18:57:02.36	27.09	9.03	-51.7	-67.3	3.6	1.51e+00	0	35	104	0	60	113278
2026-01-07 18:57:03.37	26.95	9.08	-51.7	-67.3	3.6	1.51e+00	0	35	104	0	60	112846
2026-01-07 18:57:04.38	26.81	9.13	-51.7	-67.3	3.6	1.51e+00	0	35	104	0	60	112800
2026-01-07 18:57:05.39	26.66	9.18	-51.7	-67.3	3.6	1.51e+00	0	35	104	0	60	113439
2026-01-07 18:57:06.40	26.52	9.23	-51.7	-67.3	3.6	1.51e+00	0	35	104	0	60	113026
2026-01-07 18:57:07.41	26.38	9.28	-51.7	-67.3	3.6	1.51e+00	0	35	104	0	60	112579
2026-01-07 18:57:08.42	26.24	9.33	-51.7	-67.3	3.6	1.51e+00	0	35	104	0	60	113123
2026-01-07 18:57:09.43	26.10	9.38	-51.7	-67.3	3.6	1.51e+00	0	35	104	0	60	113316
2026-01-07 18:57:10.44	25.95	9.43	-51.7	-67.3	3.6	1.51e+00	0	35	104	0	60	112884
2026-01-07 18:57:11.45	25.81	9.48	-51.7	-67.3	3.6	1.51e+00	0	35	104	0	60	113037
2026-01-07 18:57:12.47	25.66	9.53	-51.7	-67.3	3.6	1.51e+00	0	35	104	0	60	113084
2026-01-07 18:57:13.48	25.52	9.58	-51.7	-67.3	3.6	1.51e+00	0	35	104	0	60	112867
2026-01-07 18:57:14.49	25.37	9.63	-51.7	-67.3	3.6	1.51e+00	0	35	104	0	60	112855
2026-01-07 18:57:15.50	25.23	9.68	-51.7	-67.3	3.6	1.51e+00	0	35	104	0	60	112908
2026-01-07 18:57:16.51	25.08	9.73	-51.7	-67.3	3.6	1.51e+00	0	35	104	0	60	113184
2026-01-07 18:57:17.52	24.94	9.78	-51.7	-67.3	3.6	1.51e+00	0	35	104	0	60	113180
2026-01-07 18:57:18.53	24.79	9.83	-51.7	-67.3	3.6	1.51e+00	0	35	104	0	60	112893
2026-01-07 18:57:19.54	24.64	9.88	-51.7	-67.3	3.6	1.51e+00	0	35	104	0	60	112845
2026-01-07 18:57:20.55	24.49	9.93	-51.7	-67.3	3.6	1.51e+00	0	35	104	0	60	113211
2026-01-07 18:57:21.57	24.34	9.98	-51.7	-67.3	3.6	1.51e+00	0	35	104	0	60	112559
2026-01-07 18:57:22.58	24.19	10.03	-51.7	-67.3	3.6	1.51e+00	0	36	104	0	60	112749
2026-01-07 18:57:23.59	24.04	10.07	-51.7	-67.3	3.6	1.51e+00	0	35	104	0	60	113182
2026-01-07 18:57:24.60	23.89	10.12	-51.7	-67.4	3.6	1.51e+00	0	35	104	0	60	113790
2026-01-07 18:57:25.61	23.74	10.17	-51.7	-67.3	3.6	1.51e+00	0	36	104	0	60	112760
2026-01-07 18:57:26.62	23.59	10.22	-51.7	-67.3	3.6	1.51e+00	0	35	104	0	60	113108
2026-01-07 18:57:27.63	23.44	10.27	-51.7	-67.3	3.6	1.51e+00	0	35	104	0	60	113226
2026-01-07 18:57:28.64	23.28	10.32	-51.7	-67.3	3.6	1.51e+00	0	35	104	0	60	112900
2026-01-07 18:57:29.65	23.13	10.37	-51.7	-67.3	3.6	1.51e+00	0	36	104	0	60	113456
2026-01-07 18:57:30.66	22.98	10.42	-51.7	-67.3	3.6	1.51e+00	0	35	104	0	60	113145
2026-01-07 18:57:31.68	22.82	10.46	-51.7	-67.3	3.6	1.51e+00	0	35	104	0	60	112748
2026-01-07 18:57:32.69	22.67	10.51	-51.7	-67.3	3.6	1.51e+00	0	35	104	0	60	113030
2026-01-07 18:57:33.70	22.51	10.56	-51.7	-67.3	3.6	1.51e+00	0	35	104	0	60	112756
2026-01-07 18:57:34.71	22.36	10.61	-51.7	-67.3	3.6	1.51e+00	0	35	104	0	60	113246
2026-01-07 18:57:35.72	22.20	10.66	-51.7	-67.2	3.6	1.51e+00	0	35	104	0	60	112342
2026-01-07 18:57:36.73	22.04	10.70	-51.7	-67.3	3.6	1.51e+00	0	35	104	0	60	113208
2026-01-07 18:57:37.74	21.89	10.75	-51.7	-67.3	3.6	1.51e+00	0	35	104	0	60	112858
2026-01-07 18:57:38.75	21.73	10.80	-51.7	-67.3	3.6	1.51e+00	0	35	104	0	60	113169
2026-01-07 18:57:39.76	21.57	10.85	-51.7	-67.3	3.6	1.51e+00	0	35	104	0	60	113100
2026-01-07 18:57:40.78	21.41	10.89	-51.7	-67.3	3.6	1.51e+00	0	35	104	0	60	112831
2026-01-07 18:57:41.79	21.25	10.94	-51.7	-67.3	3.6	1.51e+00	0	35	104	0	60	112983
2026-01-07 18:57:42.80	21.09	10.99	-51.7	-67.3	3.6	1.51e+00	0	35	104	0	60	112831
2026-01-07 18:57:43.81	20.93	11.04	-51.7	-67.3	3.6	1.51e+00	0	36	104	0	60	112463
2026-01-07 18:57:44.82	20.77	11.08	-51.7	-67.3	3.6	1.51e+00	0	36	104	0	60	112528
2026-01-07 18:57:45.83	20.61	11.13	-51.7	-67.3	3.6	1.51e+00	0	35	104	0	60	112613
2026-01-07 18:57:46.84	20.45	11.18	-51.7	-67.3	3.6	1.51e+00	0	35	104	0	60	112810
2026-01-07 18:57:47.85	20.29	11.22	-51.7	-67.3	3.6	1.51e+00	0	35	104	0	60	113208
2026-01-07 18:57:48.86	20.12	11.27	-51.7	-67.3	3.6	1.51e+00	0	36	104	0	60	113188
2026-01-07 18:57:49.87	19.96	11.31	-51.7	-67.3	3.6	1.51e+00	0	36	104	0	60	113035
2026-01-07 18:57:50.89	19.79	11.36	-51.7	-67.3	3.6	1.51e+00	0	35	104	0	60	113017
2026-01-07 18:57:51.90	19.63	11.41	-51.7	-67.3	3.6	1.51e+00	0	35	104	0	60	113198
2026-01-07 18:57:52.91	19.46	11.45	-51.7	-67.3	3.6	1.51e+00	0	35	104	0	60	113051
2026-01-07 18:57:53.92	19.30	11.50	-51.7	-67.3	3.6	1.51e+00	0	35	104	0	60	113499
2026-01-07 18:57:54.93	19.13	11.54	-51.7	-67.3	3.6	1.51e+00	0	35	104	0	60	113137
2026-01-07 18:57:55.94	18.97	11.59	-51.7	-67.3	3.6	1.51e+00	0	35	104	0	60	112827
2026-01-07 18:57:56.95	18.80	11.63	-51.7	-67.3	3.6	1.51e+00	0	35	104	0	60	113081
2026-01-07 18:57:57.96	18.63	11.68	-51.7	-67.3	3.6	1.51e+00	0	36	104	0	60	113556
2026-01-07 18:57:58.97	18.46	11.72	-51.7	-67.4	3.5	1.51e+00	0	35	104	0	60	113728
2026-01-07 18:57:59.98	18.29	11.77	-51.7	-67.3	3.6	1.51e+00	0	36	104	0	60	113255
2026-01-07 18:58:01.00	18.12	11.81	-51.7	-67.3	3.6	1.51e+00	0	35	104	0	60	113624
2026-01-07 18:58:02.01	17.95	11.86	-51.7	-67.3	3.6	1.51e+00	0	35	104	0	60	113579
2026-01-07 18:58:03.02	17.78	11.90	-51.7	-67.3	3.6	1.51e+00	0	36	104	0	60	112793
2026-01-07 18:58:04.03	17.61	11.94	-51.7	-67.3	3.6	1.51e+00	0	36	104	0	60	113349
2026-01-07 18:58:05.04	17.44	11.99	-51.7	-67.3	3.6	1.51e+00	0	36	104	0	60	113124
2026-01-07 18:58:06.05	17.27	12.03	-51.7	-67.3	3.6	1.51e+00	0	36	104	0	60	113168
2026-01-07 18:58:07.06	17.10	12.07	-51.7	-67.3	3.6	1.51e+00	0	36	104	0	60	113011
2026-01-07 18:58:08.07	16.93	12.12	-51.7	-67.3	3.6	1.51e+00	0	35	104	0	60	113103
2026-01-07 18:58:09.08	16.75	12.16	-51.7	-67.3	3.6	1.51e+00	0	35	104	0	60	112947
2026-01-07 18:58:10.09	16.58	12.20	-51.7	-67.3	3.6	1.51e+00	0	35	104	0	60	112561
2026-01-07 18:58:11.10	16.40	12.25	-51.7	-67.3	3.6	1.51e+00	0	35	104	0	60	113234
2026-01-07 18:58:12.11	16.23	12.29	-51.7	-67.3	3.6	1.51e+00	0	35	104	0	60	113251
2026-01-07 18:58:13.12	16.05	12.33	-51.7	-67.3	3.6	1.51e+00	0	35	104	0	60	112634
2026-01-07 18:58:14.13	15.88	12.37	-51.7	-67.4	3.6	1.51e+00	0	35	104	0	60	113703
2026-01-07 18:58:15.14	15.70	12.41	-51.7	-67.3	3.6	1.51e+00	0	35	104	0	60	113107
2026-01-07 18:58:16.16	15.52	12.46	-51.7	-67.3	3.6	1.51e+00	0	36	104	0	60	112932
2026-01-07 18:58:17.17	15.35	12.50	-51.7	-67.3	3.6	1.51e+00	0	35	104	0	60	113613
2026-01-07 18:58:18.18	15.17	12.54	-51.7	-67.3	3.6	1.51e+00	0	36	104	0	60	113495
2026-01-07 18:58:19.19	14.99	12.58	-51.7	-67.3	3.6	1.51e+00	0	36	104	0	60	112763
2026-01-07 18:58:20.20	14.81	12.62	-51.7	-67.2	3.6	1.51e+00	0	35	104	0	60	112165
2026-01-07 18:58:21.21	14.63	12.66	-51.7	-67.3	3.6	1.51e+00	0	35	104	0	60	112982
2026-01-07 18:58:22.22	14.45	12.70	-51.7	-67.3	3.6	1.51e+00	0	36	104	0	60	113334
2026-01-07 18:58:23.23	14.27	12.74	-51.7	-67.3	3.6	1.51e+00	0	35	104	0	60	113096
2026-01-07 18:58:24.24	14.09	12.78	-51.7	-67.3	3.6	1.51e+00	0	36	104	0	60	113008
2026-01-07 18:58:25.25	13.91	12.82	-51.7	-67.3	3.6	1.51e+00	0	36	104	0	60	113400
2026-01-07 18:58:26.26	13.73	12.86	-51.7	-67.3	3.6	1.51e+00	0	36	104	0	60	112964
2026-01-07 18:58:27.28	13.54	12.90	-51.7	-67.3	3.6	1.51e+00	0	36	104	0	60	113365
2026-01-07 18:58:28.29	13.36	12.94	-51.7	-67.3	3.6	1.51e+00	0	35	104	0	60	113098
2026-01-07 18:58:29.30	13.18	12.98	-51.7	-67.2	3.6	1.51e+00	0	35	104	0	60	112249
2026-01-07 18:58:30.31	12.99	13.02	-51.7	-67.3	3.6	1.51e+00	0	36	104	0	60	112900
2026-01-07 18:58:31.32	12.81	13.06	-51.7	-67.3	3.6	1.51e+00	0	36	104	0	60	112768
2026-01-07 18:58:32.33	12.62	13.10	-51.7	-67.3	3.6	1.51e+00	0	36	104	0	60	112812
2026-01-07 18:58:33.34	12.44	13.13	-51.7	-67.3	3.6	1.51e+00	0	36	104	0	60	112874
2026-01-07 18:58:34.35	12.25	13.17	-51.7	-67.2	3.6	1.51e+00	0	36	104	0	60	112347
2026-01-07 18:58:35.36	12.06	13.21	-51.7	-67.3	3.6	1.51e+00	0	36	104	0	60	112668
2026-01-07 18:58:36.37	11.88	13.25	-51.7	-67.3	3.6	1.51e+00	0	36	104	0	60	112893
2026-01-07 18:58:37.39	11.69	13.28	-51.7	-67.3	3.6	1.51e+00	0	35	104	0	60	113223
2026-01-07 18:58:38.40	11.50	13.32	-51.7	-67.3	3.6	1.51e+00	0	36	104	0	60	112997
2026-01-07 18:58:39.41	11.31	13.36	-51.7	-67.3	3.6	1.51e+00	0	36	104	0	60	112662
2026-01-07 18:58:40.42	11.12	13.39	-51.7	-67.3	3.6	1.51e+00	0	36	104	0	60	112483
2026-01-07 18:58:41.43	10.94	13.43	-51.7	-67.3	3.6	1.51e+00	0	35	104	0	60	113047
2026-01-07 18:58:42.44	10.75	13.46	-51.7	-67.3	3.6	1.51e+00	0	36	104	0	60	113035
2026-01-07 18:58:43.45	10.56	13.50	-51.7	-67.3	3.6	1.51e+00	0	36	104	0	60	113363
2026-01-07 18:58:44.46	10.37	13.53	-51.7	-67.3	3.6	1.51e+00	0	36	104	0	60	113382
2026-01-07 18:58:45.47	10.17	13.57	-51.7	-67.3	3.6	1.51e+00	0	36	104	0	60	113266
2026-01-07 18:58:46.49	9.98	13.60	-51.7	-67.3	3.6	1.51e+00	0	36	104	0	60	113455
2026-01-07 18:58:47.50	9.79	13.64	-51.7	-67.3	3.6	1.51e+00	0	36	104	0	60	113563
2026-01-07 18:58:48.51	9.60	13.67	-51.7	-67.3	3.6	1.51e+00	0	36	104	0	60	112978
2026-01-07 18:58:49.52	9.40	13.71	-51.7	-67.3	3.6	1.51e+00	0	36	104	0	60	113343
2026-01-07 18:58:50.53	9.21	13.74	-51.7	-67.3	3.6	1.51e+00	0	36	104	0	60	112874
2026-01-07 18:58:51.54	9.02	13.77	-51.7	-67.3	3.6	1.51e+00	0	36	104	0	60	112458
2026-01-07 18:58:52.55	8.82	13.81	-51.7	-67.3	3.6	1.51e+00	0	36	104	0	60	113068
2026-01-07 18:58:53.56	8.63	13.84	-51.7	-67.3	3.6	1.51e+00	0	36	104	0	60	113098
2026-01-07 18:58:54.57	8.43	13.87	-51.7	-67.3	3.6	1.51e+00	0	36	104	0	60	113530
2026-01-07 18:58:55.58	8.24	13.90	-51.7	-67.3	3.6	1.51e+00	0	36	104	0	60	113398
2026-01-07 18:58:56.59	8.04	13.94	-51.7	-67.3	3.6	1.51e+00	0	36	104	0	60	112926
2026-01-07 18:58:57.61	7.84	13.97	-51.7	-67.3	3.6	1.51e+00	0	36	104	0	60	112807
2026-01-07 18:58:58.62	7.65	14.00	-51.7	-67.3	3.6	1.51e+00	0	36	104	0	60	112928
2026-01-07 18:58:59.63	7.45	14.03	-51.7	-67.3	3.6	1.51e+00	0	36	104	0	60	112890
2026-01-07 18:59:00.64	7.25	14.06	-51.7	-67.3	3.6	1.51e+00	0	36	104	0	60	112660
2026-01-07 18:59:01.65	7.05	14.09	-51.7	-67.3	3.6	1.51e+00	0	36	104	0	60	113436
2026-01-07 18:59:02.66	6.86	14.12	-51.7	-67.3	3.6	1.51e+00	0	36	104	0	60	113592
2026-01-07 18:59:03.67	6.66	14.15	-51.7	-67.3	3.6	1.51e+00	0	36	104	0	60	113282
2026-01-07 18:59:04.68	6.46	14.18	-51.7	-67.3	3.6	1.51e+00	0	35	104	0	60	113475
2026-01-07 18:59:05.69	6.26	14.21	-51.7	-67.3	3.6	1.51e+00	0	36	104	0	60	113066
2026-01-07 18:59:06.70	6.06	14.24	-51.7	-67.3	3.5	1.51e+00	0	36	104	0	60	113436
2026-01-07 18:59:07.71	5.86	14.27	-51.7	-67.3	3.6	1.51e+00	0	36	104	0	60	112977
2026-01-07 18:59:08.73	5.65	14.30	-51.7	-67.3	3.6	1.51e+00	0	36	104	0	60	112767
2026-01-07 18:59:09.74	5.45	14.32	-51.7	-67.3	3.6	1.51e+00	0	36	104	0	60	112738
2026-01-07 18:59:10.75	5.25	14.35	-51.7	-67.3	3.6	1.51e+00	0	36	104	0	60	112893
2026-01-07 18:59:11.76	5.05	14.38	-51.7	-67.3	3.6	1.51e+00	0	36	104	0	60	112841
2026-01-07 18:59:12.77	4.85	14.41	-51.7	-67.3	3.6	1.51e+00	0	36	104	0	60	112439
2026-01-07 18:59:13.78	4.65	14.43	-51.7	-67.3	3.6	1.51e+00	0	36	104	0	60	112659
2026-01-07 18:59:14.79	4.44	14.46	-51.7	-67.3	3.6	1.51e+00	0	36	104	0	60	113080
2026-01-07 18:59:15.80	4.24	14.48	-51.7	-67.4	3.6	1.51e+00	0	36	104	0	60	113711
2026-01-07 18:59:16.81	4.04	14.51	-51.7	-67.3	3.6	1.51e+00	0	36	104	0	60	113435
2026-01-07 18:59:17.82	3.83	14.53	-51.7	-67.3	3.6	1.51e+00	0	36	104	0	60	113271
2026-01-07 18:59:18.84	3.62	14.56	-51.7	-67.3	3.6	1.51e+00	0	36	104	0	60	112755
2026-01-07 18:59:19.84	3.42	14.58	-51.7	-67.2	3.6	1.51e+00	0	36	104	0	60	112137
2026-01-07 18:59:20.86	3.21	14.61	-51.7	-67.3	3.6	1.51e+00	0	36	104	0	60	113168
2026-01-07 18:59:21.87	3.01	14.63	-51.7	-67.3	3.6	1.51e+00	0	36	104	0	60	112909
2026-01-07 18:59:22.88	2.80	14.66	-51.7	-67.3	3.6	1.51e+00	0	36	104	0	60	113053
2026-01-07 18:59:23.89	2.60	14.68	-51.7	-67.3	3.6	1.51e+00	0	36	104	0	60	113118
2026-01-07 18:59:24.90	2.39	14.70	-51.7	-67.4	3.6	1.51e+00	0	36	104	0	60	113658
2026-01-07 18:59:25.91	2.18	14.72	-51.7	-67.3	3.6	1.51e+00	0	36	104	0	60	112436
2026-01-07 18:59:26.92	1.98	14.75	-51.7	-67.3	3.6	1.51e+00	0	36	104	0	60	113165
2026-01-07 18:59:27.93	1.77	14.77	-51.7	-67.3	3.6	1.51e+00	0	36	104	0	60	112936
2026-01-07 18:59:28.94	1.56	14.79	-51.7	-67.3	3.6	1.51e+00	0	36	104	0	60	113031
2026-01-07 18:59:29.95	1.35	14.81	-51.7	-67.3	3.6	1.51e+00	0	36	104	0	60	113387
2026-01-07 18:59:30.97	1.14	14.83	-51.7	-67.3	3.6	1.51e+00	0	36	104	0	60	112766
2026-01-07 18:59:31.98	0.94	14.85	-51.7	-67.3	3.6	1.51e+00	0	36	104	0	60	112741
2026-01-07 18:59:32.99	0.73	14.87	-51.7	-67.3	3.6	1.51e+00	0	36	104	0	60	113057
2026-01-07 18:59:34.00	0.52	14.89	-51.7	-67.3	3.6	1.51e+00	0	36	104	0	60	113392
2026-01-07 18:59:35.01	0.31	14.91	-51.7	-67.4	3.6	1.51e+00	0	36	104	0	60	114107
2026-01-07 18:59:36.02	0.10	14.93	-51.7	-67.3	3.6	1.51e+00	0	36	104	0	60	112793
2026-01-07 18:59:37.03	359.89	14.95	-51.7	-67.3	3.6	1.51e+00	0	36	104	0	60	112690
2026-01-07 18:59:38.04	359.68	14.97	-51.7	-67.3	3.6	1.51e+00	0	36	104	0	60	112809
2026-01-07 18:59:39.05	359.47	14.98	-51.7	-67.3	3.6	1.51e+00	0	36	104	0	60	112409
2026-01-07 18:59:40.06	359.26	15.00	-51.7	-67.2	3.6	1.51e+00	0	36	104	0	60	112220
2026-01-07 18:59:41.07	359.05	15.02	-51.7	-67.2	3.6	1.51e+00	0	36	104	0	60	111888
2026-01-07 18:59:42.09	358.83	15.03	-51.7	-67.3	3.6	1.51e+00	0	36	104	0	60	112605
2026-01-07 18:59:43.10	358.62	15.05	-51.7	-67.3	3.6	1.51e+00	0	36	104	0	60	113218
2026-01-07 18:59:44.11	358.41	15.07	-51.7	-67.3	3.6	1.51e+00	0	36	104	0	60	112867
2026-01-07 18:59:45.12	358.20	15.08	-51.7	-67.3	3.6	1.51e+00	0	36	104	0	60	112361
2026-01-07 18:59:46.13	357.99	15.10	-51.7	-67.3	3.6	1.51e+00	0	36	104	0	60	112677
2026-01-07 18:59:47.14	357.77	15.11	-51.7	-67.3	3.6	1.51e+00	0	36	104	0	60	113256
2026-01-07 18:59:48.15	357.56	15.13	-51.7	-67.3	3.6	1.51e+00	0	36	104	0	60	113045
2026-01-07 18:59:49.16	357.35	15.14	-51.7	-67.3	3.6	1.51e+00	0	36	104	0	60	112385
2026-01-07 18:59:50.17	357.13	15.15	-51.7	-67.3	3.6	1.51e+00	0	36	104	0	60	112516
2026-01-07 18:59:51.18	356.92	15.17	-51.7	-67.3	3.6	1.51e+00	0	36	104	0	60	112939
2026-01-07 18:59:52.20	356.71	15.18	-51.7	-67.3	3.6	1.51e+00	0	36	104	0	60	113318
2026-01-07 18:59:53.21	356.49	15.19	-51.7	-67.3	3.6	1.51e+00	0	36	104	0	60	112959
2026-01-07 18:59:54.22	356.28	15.20	-51.7	-67.3	3.6	1.51e+00	0	36	104	0	60	113627
2026-01-07 18:59:55.23	356.07	15.21	-51.7	-67.3	3.6	1.51e+00	0	36	104	0	60	113606
2026-01-07 18:59:56.24	355.85	15.23	-51.7	-67.3	3.6	1.51e+00	0	36	104	0	60	113185
2026-01-07 18:59:57.25	355.64	15.24	-51.7	-67.3	3.6	1.51e+00	0	36	104	0	60	113039
2026-01-07 18:59:58.26	355.42	15.25	-51.7	-67.3	3.6	1.51e+00	0	36	104	0	60	113141
2026-01-07 18:59:59.27	355.21	15.26	-51.6	-67.3	3.6	1.51e+00	0	36	104	0	60	112908
2026-01-07 19:00:00.28	354.99	15.27	-51.7	-67.2	3.6	1.51e+00	0	36	104	0	60	112301
2026-01-07 19:00:01.30	354.78	15.28	-51.7	-67.3	3.6	1.51e+00	0	36	104	0	60	112719
2026-01-07 19:00:02.31	354.56	15.28	-51.7	-67.3	3.6	1.51e+00	0	36	104	0	60	113208
2026-01-07 19:00:03.32	354.35	15.29	-51.6	-67.3	3.6	1.51e+00	0	36	104	0	60	113271
2026-01-07 19:00:04.33	354.13	15.30	-51.7	-67.3	3.6	1.51e+00	0	36	104	0	60	112927
2026-01-07 19:00:05.34	353.92	15.31	-51.7	-67.3	3.6	1.51e+00	0	36	104	0	60	112638
2026-01-07 19:00:06.35	353.70	15.31	-51.7	-67.3	3.6	1.51e+00	0	36	104	0	60	113643
2026-01-07 19:00:07.36	353.49	15.32	-51.7	-67.3	3.6	1.51e+00	0	35	104	0	60	112598
2026-01-07 19:00:08.37	353.27	15.33	-51.7	-67.3	3.6	1.51e+00	0	36	104	0	60	112903
2026-01-07 19:00:09.38	353.05	15.33	-51.7	-67.3	3.6	1.51e+00	0	36	104	0	60	112697
2026-01-07 19:00:10.39	352.84	15.34	-51.7	-67.3	3.6	1.51e+00	0	36	104	0	60	112826
2026-01-07 19:00:11.40	352.62	15.34	-51.7	-67.3	3.6	1.51e+00	0	36	104	0	60	112816
2026-01-07 19:00:12.42	352.40	15.35	-51.7	-67.3	3.6	1.51e+00	0	36	104	0	60	112994
2026-01-07 19:00:13.43	352.19	15.35	-51.7	-67.3	3.6	1.51e+00	0	36	104	0	60	113033
2026-01-07 19:00:14.44	351.97	15.36	-51.7	-67.3	3.6	1.51e+00	0	36	104	0	60	112912
2026-01-07 19:00:15.45	351.76	15.36	-51.7	-67.3	3.6	1.51e+00	0	36	104	0	60	113194
2026-01-07 19:00:16.46	351.54	15.36	-51.7	-67.3	3.6	1.51e+00	0	36	104	0	60	113593
2026-01-07 19:00:17.47	351.32	15.37	-51.7	-67.3	3.6	1.51e+00	0	36	104	0	60	113117
2026-01-07 19:00:18.48	351.11	15.37	-51.7	-67.3	3.6	1.51e+00	0	36	104	0	60	112951
2026-01-07 19:00:19.49	350.89	15.37	-51.7	-67.3	3.6	1.51e+00	0	36	104	0	60	113065
2026-01-07 19:00:20.50	350.68	15.37	-51.7	-67.3	3.6	1.51e+00	0	36	104	0	60	112780
2026-01-07 19:00:21.51	350.46	15.37	-51.7	-67.3	3.5	1.51e+00	0	35	104	0	60	113419
2026-01-07 19:00:22.52	350.24	15.37	-51.7	-67.3	3.5	1.51e+00	0	36	104	0	60	112802
2026-01-07 19:00:23.53	350.03	15.37	-51.7	-67.3	3.6	1.51e+00	0	36	104	0	60	112957
2026-01-07 19:00:24.54	349.81	15.37	-51.7	-67.3	3.6	1.51e+00	0	36	104	0	60	113052
2026-01-07 19:00:25.55	349.60	15.37	-51.7	-67.2	3.6	1.51e+00	0	36	104	0	60	112286
2026-01-07 19:00:26.57	349.38	15.37	-51.7	-67.2	3.6	1.51e+00	0	36	104	0	60	111984
2026-01-07 19:00:27.58	349.16	15.37	-51.7	-67.3	3.6	1.51e+00	0	36	104	0	60	112486
2026-01-07 19:00:28.59	348.94	15.37	-51.7	-67.3	3.6	1.51e+00	0	36	104	0	60	113042
2026-01-07 19:00:29.60	348.73	15.36	-51.7	-67.3	3.5	1.51e+00	0	36	104	0	60	113039
2026-01-07 19:00:30.61	348.51	15.36	-51.7	-67.3	3.6	1.51e+00	0	36	104	0	60	113019
2026-01-07 19:00:31.62	348.30	15.36	-51.7	-67.3	3.6	1.51e+00	0	36	104	0	60	113512
2026-01-07 19:00:32.63	348.08	15.36	-51.7	-67.3	3.6	1.51e+00	0	36	104	0	60	113353
2026-01-07 19:00:33.64	347.86	15.35	-51.7	-67.3	3.5	1.51e+00	0	36	104	0	60	112973
2026-01-07 19:00:34.65	347.65	15.35	-51.7	-67.3	3.6	1.51e+00	0	36	104	0	60	112868
2026-01-07 19:00:35.67	347.43	15.34	-51.7	-67.3	3.6	1.51e+00	0	36	104	0	60	113003
2026-01-07 19:00:36.68	347.21	15.34	-51.7	-67.3	3.6	1.51e+00	0	36	104	0	60	112734
2026-01-07 19:00:37.69	347.00	15.33	-51.7	-67.3	3.6	1.51e+00	0	36	104	0	60	113292
2026-01-07 19:00:38.70	346.78	15.33	-51.7	-67.3	3.6	1.51e+00	0	36	104	0	60	113059
2026-01-07 19:00:39.71	346.57	15.32	-51.7	-67.3	3.5	1.51e+00	0	36	104	0	60	113120
2026-01-07 19:00:40.72	346.35	15.31	-51.7	-67.3	3.6	1.51e+00	0	36	104	0	60	113142
2026-01-07 19:00:41.73	346.14	15.30	-51.7	-67.3	3.6	1.51e+00	0	36	104	0	60	113036
2026-01-07 19:00:42.74	345.92	15.30	-51.7	-67.3	3.6	1.51e+00	0	36	104	0	60	113251
2026-01-07 19:00:43.75	345.71	15.29	-51.7	-67.3	3.6	1.51e+00	0	36	104	0	60	113446
2026-01-07 19:00:44.76	345.49	15.28	-51.7	-67.3	3.6	1.51e+00	0	36	104	0	60	113280
2026-01-07 19:00:45.77	345.28	15.27	-51.7	-67.3	3.6	1.51e+00	0	36	104	0	60	113160
2026-01-07 19:00:46.79	345.06	15.26	-51.7	-67.3	3.6	1.51e+00	0	36	104	0	60	113552
2026-01-07 19:00:47.80	344.85	15.25	-51.7	-67.3	3.6	1.51e+00	0	36	104	0	60	113214
2026-01-07 19:00:48.81	344.63	15.24	-51.7	-67.3	3.6	1.51e+00	0	36	104	0	60	113211
2026-01-07 19:00:49.82	344.42	15.23	-51.7	-67.3	3.6	1.51e+00	0	36	104	0	60	112608
2026-01-07 19:00:50.83	344.20	15.22	-51.7	-67.3	3.6	1.51e+00	0	36	104	0	60	113360
2026-01-07 19:00:51.84	343.99	15.21	-51.7	-67.3	3.6	1.51e+00	0	36	104	0	60	112886
2026-01-07 19:00:52.85	343.77	15.20	-51.7	-67.3	3.6	1.51e+00	0	36	104	0	60	112950
2026-01-07 19:00:53.86	343.56	15.19	-51.7	-67.3	3.6	1.51e+00	0	36	104	0	60	112656
2026-01-07 19:00:54.87	343.35	15.17	-51.7	-67.2	3.6	1.51e+00	0	36	104	0	60	112201
2026-01-07 19:00:55.89	343.13	15.16	-51.7	-67.3	3.6	1.51e+00	0	36	104	0	60	112836
2026-01-07 19:00:56.90	342.92	15.15	-51.7	-67.3	3.6	1.51e+00	0	36	104	0	60	113073
2026-01-07 19:00:57.91	342.71	15.13	-51.7	-67.3	3.6	1.51e+00	0	36	104	0	60	112964
2026-01-07 19:00:58.92	342.49	15.12	-51.7	-67.3	3.6	1.51e+00	0	36	104	0	60	112587
2026-01-07 19:00:59.93	342.28	15.11	-51.7	-67.3	3.6	1.51e+00	0	36	104	0	60	112890
2026-01-07 19:01:00.94	342.07	15.09	-51.7	-67.3	3.6	1.51e+00	0	36	104	0	60	112374
2026-01-07 19:01:01.95	341.86	15.08	-51.7	-67.3	3.6	1.51e+00	0	36	104	0	60	112803
2026-01-07 19:01:02.96	341.65	15.06	-51.7	-67.3	3.6	1.51e+00	0	36	104	0	60	112825
2026-01-07 19:01:03.97	341.43	15.04	-51.7	-67.3	3.6	1.51e+00	0	36	104	0	60	112861
2026-01-07 19:01:04.98	341.22	15.03	-51.7	-67.3	3.6	1.51e+00	0	36	104	0	60	113208
2026-01-07 19:01:05.99	341.01	15.01	-51.7	-67.3	3.6	1.51e+00	0	36	104	0	60	113443
2026-01-07 19:01:07.00	340.80	14.99	-51.7	-67.3	3.6	1.51e+00	0	36	104	0	60	112515
2026-01-07 19:01:08.02	340.59	14.98	-51.7	-67.2	3.6	1.51e+00	0	36	104	0	60	112079
2026-01-07 19:01:09.03	340.38	14.96	-51.7	-67.2	3.6	1.51e+00	0	36	104	0	60	111524
2026-01-07 19:01:10.04	340.17	14.94	-51.7	-67.3	3.5	1.51e+00	0	36	104	0	60	112671
2026-01-07 19:01:11.05	339.96	14.92	-51.7	-67.2	3.6	1.51e+00	0	36	104	0	60	112051
2026-01-07 19:01:12.06	339.75	14.90	-51.7	-67.3	3.6	1.51e+00	0	36	104	0	60	112659
2026-01-07 19:01:13.07	339.54	14.88	-51.7	-67.3	3.6	1.51e+00	0	36	104	0	60	113022
2026-01-07 19:01:14.08	339.33	14.86	-51.7	-67.3	3.6	1.51e+00	0	36	104	0	60	113292
2026-01-07 19:01:15.09	339.12	14.84	-51.7	-67.3	3.6	1.51e+00	0	36	104	0	60	113537
2026-01-07 19:01:16.10	338.91	14.82	-51.7	-67.3	3.6	1.51e+00	0	36	104	0	60	112849
2026-01-07 19:01:17.11	338.70	14.80	-51.7	-67.3	3.6	1.51e+00	0	36	104	0	60	112937
2026-01-07 19:01:18.12	338.50	14.78	-51.7	-67.3	3.6	1.51e+00	0	36	104	0	60	113629
2026-01-07 19:01:19.14	338.29	14.76	-51.7	-67.3	3.6	1.51e+00	0	36	104	0	60	113177
2026-01-07 19:01:20.15	338.08	14.74	-51.7	-67.3	3.6	1.51e+00	0	36	104	0	60	112627
2026-01-07 19:01:21.16	337.87	14.71	-51.7	-67.3	3.6	1.51e+00	0	36	104	0	60	113561
2026-01-07 19:01:22.17	337.67	14.69	-51.7	-67.3	3.6	1.51e+00	0	36	104	0	60	113211
2026-01-07 19:01:23.18	337.46	14.67	-51.7	-67.3	3.5	1.51e+00	0	36	104	0	60	113190
2026-01-07 19:01:24.19	337.25	14.65	-51.7	-67.4	3.6	1.51e+00	0	36	104	0	60	113763
2026-01-07 19:01:25.20	337.05	14.62	-51.7	-67.3	3.6	1.51e+00	0	36	104	0	60	112839
2026-01-07 19:01:26.21	336.84	14.60	-51.7	-67.3	3.6	1.51e+00	0	36	104	0	60	112809
2026-01-07 19:01:27.22	336.64	14.57	-51.7	-67.3	3.6	1.51e+00	0	36	104	0	60	113504
2026-01-07 19:01:28.24	336.43	14.55	-51.7	-67.3	3.6	1.51e+00	0	36	104	0	60	113422
2026-01-07 19:01:29.25	336.23	14.52	-51.7	-67.3	3.6	1.51e+00	0	36	104	0	60	113089
2026-01-07 19:01:30.26	336.02	14.50	-51.7	-67.3	3.6	1.51e+00	0	36	104	0	60	113179
2026-01-07 19:01:31.27	335.82	14.47	-51.7	-67.3	3.6	1.51e+00	0	36	104	0	60	113118
2026-01-07 19:01:32.28	335.61	14.45	-51.7	-67.3	3.6	1.51e+00	0	36	104	0	60	113570
2026-01-07 19:01:33.29	335.41	14.42	-51.7	-67.3	3.6	1.51e+00	0	36	104	0	60	112899
2026-01-07 19:01:34.30	335.21	14.39	-51.7	-67.3	3.6	1.51e+00	0	36	104	0	60	112987
2026-01-07 19:01:35.31	335.01	14.37	-51.7	-67.3	3.6	1.51e+00	0	36	104	0	60	113323
2026-01-07 19:01:36.32	334.81	14.34	-51.7	-67.3	3.6	1.51e+00	0	36	104	0	60	113111
2026-01-07 19:01:37.33	334.60	14.31	-51.7	-67.3	3.6	1.51e+00	0	36	104	0	60	113373
2026-01-07 19:01:38.34	334.40	14.28	-51.7	-67.4	3.6	1.51e+00	0	36	104	0	60	113717
2026-01-07 19:01:39.35	334.20	14.25	-51.7	-67.3	3.6	1.51e+00	0	36	104	0	60	112851
2026-01-07 19:01:40.36	334.00	14.23	-51.7	-67.4	3.6	1.51e+00	0	36	104	0	60	113697
2026-01-07 19:01:41.38	333.80	14.20	-51.6	-67.3	3.6	1.51e+00	0	36	104	0	60	113208
2026-01-07 19:01:42.39	333.60	14.17	-51.6	-67.3	3.6	1.51e+00	0	36	104	0	60	112490
2026-01-07 19:01:43.40	333.40	14.14	-51.7	-67.3	3.6	1.51e+00	0	36	104	0	60	113219
2026-01-07 19:01:44.41	333.20	14.11	-51.6	-67.3	3.6	1.51e+00	0	36	104	0	60	113091
2026-01-07 19:01:45.42	333.00	14.08	-51.6	-67.3	3.5	1.51e+00	0	36	104	0	60	112587
2026-01-07 19:01:46.43	332.81	14.05	-51.6	-67.3	3.6	1.51e+00	0	36	104	0	60	112789
2026-01-07 19:01:47.44	332.61	14.02	-51.6	-67.3	3.6	1.51e+00	0	36	104	0	60	112856
2026-01-07 19:01:48.45	332.41	13.99	-51.6	-67.3	3.6	1.51e+00	0	36	104	0	60	113616
2026-01-07 19:01:49.46	332.22	13.95	-51.6	-67.3	3.6	1.51e+00	0	36	104	0	60	112974
2026-01-07 19:01:50.47	332.02	13.92	-51.6	-67.3	3.6	1.51e+00	0	36	104	0	60	113294
2026-01-07 19:01:51.49	331.82	13.89	-51.6	-67.3	3.6	1.51e+00	0	36	104	0	60	113215
2026-01-07 19:01:52.50	331.63	13.86	-51.6	-67.3	3.6	1.51e+00	0	36	104	0	60	113133
2026-01-07 19:01:53.51	331.43	13.83	-51.6	-67.3	3.6	1.51e+00	0	36	104	0	60	113204
2026-01-07 19:01:54.52	331.24	13.79	-51.6	-67.3	3.5	1.51e+00	0	36	104	0	60	112888
2026-01-07 19:01:55.53	331.04	13.76	-51.6	-67.3	3.6	1.51e+00	0	36	104	0	60	113213
2026-01-07 19:01:56.54	330.85	13.73	-51.6	-67.3	3.6	1.51e+00	0	36	104	0	60	113082
2026-01-07 19:01:57.55	330.66	13.69	-51.6	-67.3	3.6	1.51e+00	0	36	104	0	60	113330
2026-01-07 19:01:58.56	330.46	13.66	-51.6	-67.3	3.6	1.51e+00	0	36	104	0	60	113257
2026-01-07 19:01:59.57	330.27	13.62	-51.6	-67.3	3.6	1.51e+00	0	36	104	0	60	112864
2026-01-07 19:02:00.59	330.08	13.59	-51.6	-67.3	3.6	1.51e+00	0	36	104	0	60	112950
2026-01-07 19:02:01.60	329.89	13.55	-51.6	-67.3	3.6	1.51e+00	0	36	104	0	60	113202
2026-01-07 19:02:02.61	329.70	13.52	-51.6	-67.3	3.6	1.51e+00	0	36	104	0	60	112686
2026-01-07 19:02:03.62	329.51	13.48	-51.6	-67.3	3.6	1.51e+00	0	36	104	0	60	113241
2026-01-07 19:02:04.63	329.32	13.45	-51.6	-67.3	3.6	1.51e+00	0	36	104	0	60	113043
2026-01-07 19:02:05.64	329.13	13.41	-51.6	-67.3	3.6	1.51e+00	0	36	104	0	60	112447
2026-01-07 19:02:06.65	328.94	13.38	-51.6	-67.4	3.6	1.51e+00	0	36	104	0	60	113688
2026-01-07 19:02:07.66	328.75	13.34	-51.6	-67.3	3.6	1.51e+00	0	36	104	0	60	112847
2026-01-07 19:02:08.68	328.56	13.30	-51.6	-67.3	3.6	1.51e+00	0	36	104	0	60	113122
2026-01-07 19:02:09.68	328.37	13.27	-51.6	-67.3	3.6	1.51e+00	0	36	104	0	60	113243
2026-01-07 19:02:10.70	328.18	13.23	-51.6	-67.3	3.6	1.51e+00	0	36	104	0	60	113189
2026-01-07 19:02:11.71	328.00	13.19	-51.6	-67.3	3.6	1.51e+00	0	36	104	0	60	112835
2026-01-07 19:02:12.72	327.81	13.15	-51.6	-67.3	3.6	1.51e+00	0	36	104	0	60	113282
2026-01-07 19:02:13.73	327.63	13.12	-51.6	-67.3	3.6	1.51e+00	0	36	104	0	60	112559
2026-01-07 19:02:14.74	327.44	13.08	-51.6	-67.3	3.6	1.51e+00	0	36	104	0	60	113152
2026-01-07 19:02:15.75	327.26	13.04	-51.6	-67.3	3.6	1.51e+00	0	36	104	0	60	112782
2026-01-07 19:02:16.76	327.07	13.00	-51.6	-67.3	3.6	1.51e+00	0	36	104	0	60	113189
2026-01-07 19:02:17.77	326.89	12.96	-51.6	-67.3	3.6	1.51e+00	0	36	104	0	60	113064
2026-01-07 19:02:18.79	326.70	12.92	-51.6	-67.3	3.6	1.51e+00	0	36	104	0	60	112609
2026-01-07 19:02:19.80	326.52	12.88	-51.6	-67.3	3.6	1.51e+00	0	36	104	0	60	112981
2026-01-07 19:02:20.81	326.34	12.84	-51.6	-67.3	3.6	1.51e+00	0	36	104	0	60	113066
2026-01-07 19:02:21.82	326.16	12.81	-51.6	-67.3	3.6	1.51e+00	0	36	104	0	60	113319
2026-01-07 19:02:22.83	325.97	12.77	-51.6	-67.3	3.6	1.51e+00	0	36	104	0	60	113353
2026-01-07 19:02:23.84	325.79	12.73	-51.6	-67.3	3.6	1.51e+00	0	36	104	0	60	112690
2026-01-07 19:02:24.85	325.61	12.68	-51.6	-67.3	3.6	1.51e+00	0	36	104	0	60	113124
2026-01-07 19:02:25.86	325.43	12.64	-51.6	-67.3	3.6	1.51e+00	0	36	104	0	60	113556
2026-01-07 19:02:26.87	325.25	12.60	-51.6	-67.3	3.6	1.51e+00	0	36	104	0	60	113244
2026-01-07 19:02:27.88	325.08	12.56	-51.6	-67.2	3.6	1.51e+00	0	36	104	0	60	112231
2026-01-07 19:02:28.90	324.90	12.52	-51.6	-67.3	3.6	1.51e+00	0	36	104	0	60	112623
2026-01-07 19:02:29.91	324.72	12.48	-51.6	-67.3	3.6	1.51e+00	0	36	104	0	60	113298
2026-01-07 19:02:30.92	324.54	12.44	-51.6	-67.3	3.6	1.51e+00	0	36	104	0	60	113401
2026-01-07 19:02:31.93	324.36	12.40	-51.6	-67.3	3.6	1.51e+00	0	36	104	0	60	113105
2026-01-07 19:02:32.94	324.19	12.35	-51.6	-67.3	3.6	1.51e+00	0	36	104	0	60	112918
2026-01-07 19:02:33.95	324.01	12.31	-51.6	-67.3	3.6	1.51e+00	0	36	104	0	60	113343
2026-01-07 19:02:34.96	323.84	12.27	-51.6	-67.3	3.6	1.51e+00	0	36	104	0	60	113184
2026-01-07 19:02:35.97	323.66	12.23	-51.6	-67.3	3.6	1.51e+00	0	36	104	0	60	112808
2026-01-07 19:02:36.98	323.49	12.18	-51.6	-67.3	3.6	1.51e+00	0	36	104	0	60	113138
2026-01-07 19:02:37.99	323.31	12.14	-51.6	-67.3	3.6	1.51e+00	0	36	104	0	60	112930
2026-01-07 19:02:39.00	323.14	12.10	-51.6	-67.3	3.6	1.51e+00	0	36	104	0	60	113200
2026-01-07 19:02:40.01	322.97	12.06	-51.6	-67.3	3.6	1.51e+00	0	36	104	0	60	113084
2026-01-07 19:02:41.03	322.79	12.01	-51.6	-67.3	3.6	1.51e+00	0	36	104	0	60	113268
2026-01-07 19:02:42.04	322.62	11.97	-51.6	-67.3	3.6	1.51e+00	0	36	104	0	60	113329
2026-01-07 19:02:43.05	322.45	11.92	-51.6	-67.3	3.6	1.51e+00	0	36	104	0	60	112642
2026-01-07 19:02:44.06	322.28	11.88	-51.6	-67.3	3.6	1.51e+00	0	36	104	0	60	113029
2026-01-07 19:02:45.07	322.11	11.84	-51.6	-67.3	3.6	1.51e+00	0	36	104	0	60	112581
2026-01-07 19:02:46.08	321.94	11.79	-51.6	-67.3	3.6	1.51e+00	0	36	104	0	60	113346
2026-01-07 19:02:47.09	321.77	11.75	-51.6	-67.3	3.6	1.51e+00	0	36	104	0	60	112970
2026-01-07 19:02:48.10	321.60	11.70	-51.6	-67.3	3.6	1.51e+00	0	36	104	0	60	113073
2026-01-07 19:02:49.11	321.44	11.66	-51.6	-67.3	3.6	1.51e+00	0	36	104	0	60	113567
2026-01-07 19:02:50.12	321.27	11.61	-51.6	-67.3	3.6	1.51e+00	0	36	104	0	60	113030
2026-01-07 19:02:51.14	321.10	11.57	-51.6	-67.3	3.6	1.51e+00	0	36	104	0	60	112857
2026-01-07 19:02:52.15	320.93	11.52	-51.6	-67.3	3.6	1.51e+00	0	36	104	0	60	113627
2026-01-07 19:02:53.16	320.77	11.48	-51.6	-67.3	3.6	1.51e+00	0	36	104	0	60	113343
2026-01-07 19:02:54.17	320.60	11.43	-51.6	-67.3	3.6	1.51e+00	0	36	104	0	60	113335
2026-01-07 19:02:55.18	320.44	11.39	-51.6	-67.3	3.6	1.51e+00	0	36	104	0	60	112984
2026-01-07 19:02:56.19	320.27	11.34	-51.6	-67.3	3.6	1.51e+00	0	36	104	0	60	113003
2026-01-07 19:02:57.20	320.11	11.29	-51.6	-67.3	3.6	1.51e+00	0	36	104	0	60	113254
2026-01-07 19:02:58.21	319.95	11.25	-51.6	-67.3	3.6	1.51e+00	0	36	104	0	60	112833
2026-01-07 19:02:59.22	319.78	11.20	-51.6	-67.3	3.6	1.51e+00	0	36	104	0	60	113028
2026-01-07 19:03:00.23	319.62	11.15	-51.6	-67.3	3.6	1.51e+00	0	36	104	0	60	113419
2026-01-07 19:03:01.25	319.46	11.11	-51.6	-67.3	3.6	1.51e+00	0	36	104	0	60	113120
2026-01-07 19:03:02.26	319.30	11.06	-51.6	-67.3	3.6	1.51e+00	0	36	104	0	60	113294
2026-01-07 19:03:03.27	319.14	11.01	-51.6	-67.3	3.6	1.51e+00	0	36	104	0	60	113302
2026-01-07 19:03:04.28	318.98	10.97	-51.6	-67.3	3.6	1.51e+00	0	36	104	0	60	113185
2026-01-07 19:03:05.29	318.82	10.92	-51.6	-67.3	3.5	1.51e+00	0	36	104	0	60	112406
2026-01-07 19:03:06.30	318.66	10.87	-51.6	-67.3	3.6	1.51e+00	0	36	104	0	60	113088
2026-01-07 19:03:07.31	318.50	10.83	-51.6	-67.3	3.6	1.51e+00	0	36	104	0	60	113284
2026-01-07 19:03:08.32	318.34	10.78	-51.6	-67.3	3.6	1.51e+00	0	36	104	0	60	113274
2026-01-07 19:03:09.33	318.18	10.73	-51.6	-67.3	3.6	1.51e+00	0	36	104	0	60	113202
2026-01-07 19:03:10.34	318.03	10.68	-51.6	-67.3	3.6	1.51e+00	0	36	104	0	60	112744
2026-01-07 19:03:11.36	317.87	10.63	-51.6	-67.3	3.6	1.51e+00	0	36	104	0	60	113541
2026-01-07 19:03:12.37	317.71	10.59	-51.6	-67.3	3.6	1.51e+00	0	36	104	0	60	112947
2026-01-07 19:03:13.38	317.56	10.54	-51.6	-67.3	3.6	1.51e+00	0	36	104	0	60	113185
2026-01-07 19:03:14.39	317.40	10.49	-51.6	-67.3	3.6	1.51e+00	0	36	104	0	60	112534
2026-01-07 19:03:15.40	317.25	10.44	-51.6	-67.3	3.6	1.51e+00	0	36	104	0	60	113251
2026-01-07 19:03:16.41	317.09	10.39	-51.6	-67.3	3.6	1.51e+00	0	36	104	0	60	113005
2026-01-07 19:03:17.42	316.94	10.35	-51.6	-67.3	3.6	1.51e+00	0	36	104	0	60	113309
2026-01-07 19:03:18.43	316.79	10.30	-51.6	-67.3	3.6	1.51e+00	0	36	104	0	60	112770
2026-01-07 19:03:19.44	316.64	10.25	-51.6	-67.3	3.6	1.51e+00	0	36	104	0	60	113590
2026-01-07 19:03:20.45	316.48	10.20	-51.6	-67.3	3.6	1.51e+00	0	36	104	0	60	113542
2026-01-07 19:03:21.46	316.33	10.15	-51.6	-67.3	3.6	1.51e+00	0	36	104	0	60	113611
2026-01-07 19:03:22.48	316.18	10.10	-51.6	-67.3	3.6	1.51e+00	0	36	104	0	60	112936
2026-01-07 19:03:23.49	316.03	10.05	-51.6	-67.4	3.6	1.51e+00	0	36	104	0	60	113674
2026-01-07 19:03:24.50	315.88	10.00	-51.6	-67.3	3.6	1.51e+00	0	36	104	0	60	113387
2026-01-07 19:03:25.51	315.73	9.95	-51.6	-67.2	3.6	1.51e+00	0	36	104	0	60	112211
2026-01-07 19:03:26.52	315.58	9.90	-51.6	-67.3	3.6	1.51e+00	0	36	104	0	60	112363
2026-01-07 19:03:27.53	315.43	9.86	-51.6	-67.3	3.6	1.51e+00	0	36	104	0	60	112958
2026-01-07 19:03:28.54	315.29	9.81	-51.6	-67.3	3.6	1.51e+00	0	36	104	0	60	113386
2026-01-07 19:03:29.55	315.14	9.76	-51.6	-67.3	3.6	1.51e+00	0	36	104	0	60	113083
2026-01-07 19:03:30.56	314.99	9.71	-51.6	-67.3	3.6	1.51e+00	0	36	104	0	60	113021
2026-01-07 19:03:31.57	314.85	9.66	-51.6	-67.3	3.6	1.51e+00	0	36	104	0	60	112684
2026-01-07 19:03:32.59	314.70	9.61	-51.6	-67.3	3.6	1.51e+00	0	36	104	0	60	112985
2026-01-07 19:03:33.60	314.55	9.56	-51.6	-67.3	3.6	1.51e+00	0	36	104	0	60	113122
2026-01-07 19:03:34.61	314.41	9.51	-51.6	-67.3	3.6	1.51e+00	0	36	104	0	60	113130
2026-01-07 19:03:35.62	314.26	9.46	-51.6	-67.3	3.6	1.51e+00	0	36	104	0	60	113606
2026-01-07 19:03:36.63	314.12	9.41	-51.6	-67.3	3.6	1.51e+00	0	36	104	0	60	112595
2026-01-07 19:03:37.64	313.98	9.36	-51.6	-67.3	3.6	1.51e+00	0	36	104	0	60	112935
2026-01-07 19:03:38.65	313.83	9.31	-51.6	-67.3	3.6	1.51e+00	0	36	104	0	60	113170
2026-01-07 19:03:39.66	313.69	9.26	-51.6	-67.3	3.6	1.51e+00	0	36	104	0	60	113459
2026-01-07 19:03:40.67	313.55	9.21	-51.6	-67.3	3.6	1.51e+00	0	36	104	0	60	113130
2026-01-07 19:03:41.69	313.41	9.15	-51.6	-67.3	3.6	1.51e+00	0	36	104	0	60	113047
2026-01-07 19:03:42.70	313.27	9.10	-51.6	-67.4	3.6	1.51e+00	0	36	104	0	60	113678
2026-01-07 19:03:43.71	313.13	9.05	-51.6	-67.3	3.6	1.51e+00	0	36	104	0	60	113450
2026-01-07 19:03:44.72	312.99	9.00	-51.6	-67.3	3.6	1.51e+00	0	36	104	0	60	113079
2026-01-07 19:03:45.73	312.85	8.95	-51.6	-67.3	3.6	1.51e+00	0	36	104	0	60	113309
2026-01-07 19:03:46.74	312.71	8.90	-51.6	-67.3	3.6	1.51e+00	0	36	104	0	60	112875
2026-01-07 19:03:47.75	312.57	8.85	-51.6	-67.3	3.6	1.51e+00	0	36	104	0	60	112931
2026-01-07 19:03:48.76	312.43	8.80	-51.6	-67.3	3.6	1.51e+00	0	36	104	0	60	112503
2026-01-07 19:03:49.77	312.30	8.75	-51.6	-67.3	3.6	1.51e+00	0	36	104	0	60	113196
2026-01-07 19:03:50.79	312.16	8.70	-51.6	-67.3	3.6	1.51e+00	0	36	104	0	60	113373
2026-01-07 19:03:51.80	312.02	8.65	-51.6	-67.3	3.6	1.51e+00	0	36	104	0	60	113435
2026-01-07 19:03:52.81	311.89	8.59	-51.6	-67.3	3.6	1.51e+00	0	36	104	0	60	112961
2026-01-07 19:03:53.82	311.75	8.54	-51.6	-67.3	3.6	1.51e+00	0	36	104	0	60	113078
2026-01-07 19:03:54.83	311.62	8.49	-51.6	-67.3	3.6	1.51e+00	0	36	104	0	60	113051
2026-01-07 19:03:55.84	311.48	8.44	-51.6	-67.3	3.6	1.51e+00	0	36	104	0	60	113087
2026-01-07 19:03:56.85	311.35	8.39	-51.6	-67.3	3.6	1.51e+00	0	36	104	0	60	113172
2026-01-07 19:03:57.86	311.22	8.34	-51.6	-67.3	3.6	1.51e+00	0	36	104	0	60	112588
2026-01-07 19:03:58.87	311.08	8.29	-51.6	-67.3	3.6	1.51e+00	0	36	104	0	60	112568
2026-01-07 19:03:59.88	310.95	8.24	-51.6	-67.3	3.6	1.51e+00	0	36	104	0	60	113579
2026-01-07 19:04:00.89	310.82	8.18	-51.6	-67.3	3.6	1.51e+00	0	36	104	0	60	113648
2026-01-07 19:04:01.91	310.69	8.13	-51.6	-67.3	3.6	1.51e+00	0	36	104	0	60	112619
2026-01-07 19:04:02.92	310.55	8.08	-51.6	-67.4	3.6	1.51e+00	0	36	104	0	60	113740
2026-01-07 19:04:03.93	310.42	8.03	-51.6	-67.3	3.6	1.51e+00	0	36	104	0	60	113536
2026-01-07 19:04:04.94	310.29	7.98	-51.6	-67.3	3.6	1.51e+00	0	36	104	0	60	113355
2026-01-07 19:04:05.95	310.17	7.93	-51.6	-67.3	3.6	1.51e+00	0	36	104	0	60	113335
2026-01-07 19:04:06.96	310.04	7.87	-51.6	-67.3	3.6	1.51e+00	0	36	104	0	60	112960
2026-01-07 19:04:07.97	309.91	7.82	-51.6	-67.3	3.6	1.51e+00	0	36	104	0	60	113236
2026-01-07 19:04:08.98	309.78	7.77	-51.6	-67.3	3.6	1.51e+00	0	36	104	0	60	113142
2026-01-07 19:04:09.99	309.65	7.72	-51.6	-67.3	3.6	1.51e+00	0	36	104	0	60	113025
2026-01-07 19:04:11.00	309.52	7.67	-51.6	-67.3	3.6	1.51e+00	0	36	104	0	60	113420
2026-01-07 19:04:12.01	309.40	7.61	-51.6	-67.3	3.6	1.51e+00	0	36	104	0	60	113262
2026-01-07 19:04:13.03	309.27	7.56	-51.6	-67.3	3.6	1.51e+00	0	36	104	0	60	112881
2026-01-07 19:04:14.04	309.14	7.51	-51.6	-67.3	3.6	1.51e+00	0	36	104	0	60	113524
2026-01-07 19:04:15.05	309.02	7.46	-51.6	-67.3	3.6	1.51e+00	0	36	104	0	60	112808
2026-01-07 19:04:16.06	308.89	7.41	-51.6	-67.3	3.6	1.51e+00	0	36	104	0	60	113077
2026-01-07 19:04:17.07	308.77	7.35	-51.6	-67.3	3.6	1.51e+00	0	36	104	0	60	113109
2026-01-07 19:04:18.08	308.65	7.30	-51.6	-67.3	3.6	1.51e+00	0	36	104	0	60	113470
2026-01-07 19:04:19.09	308.52	7.25	-51.6	-67.3	3.6	1.51e+00	0	36	104	0	60	112686
2026-01-07 19:04:20.10	308.40	7.20	-51.6	-67.3	3.6	1.51e+00	0	36	104	0	60	113332
2026-01-07 19:04:21.11	308.28	7.15	-51.6	-67.3	3.6	1.51e+00	0	36	104	0	60	113331
2026-01-07 19:04:22.12	308.15	7.09	-51.6	-67.3	3.6	1.51e+00	0	36	104	0	60	112937
2026-01-07 19:04:23.13	308.03	7.04	-51.6	-67.3	3.6	1.51e+00	0	36	104	0	60	112829
2026-01-07 19:04:24.14	307.91	6.99	-51.6	-67.3	3.6	1.51e+00	0	36	104	0	60	113248
2026-01-07 19:04:25.15	307.79	6.94	-51.6	-67.3	3.6	1.51e+00	0	36	104	0	60	113354
2026-01-07 19:04:26.16	307.67	6.89	-51.6	-67.3	3.6	1.51e+00	0	36	104	0	60	112795
2026-01-07 19:04:27.18	307.55	6.83	-51.6	-67.3	3.6	1.51e+00	0	36	104	0	60	113543
2026-01-07 19:04:28.19	307.43	6.78	-51.6	-67.3	3.6	1.51e+00	0	36	104	0	60	113179
2026-01-07 19:04:29.20	307.31	6.73	-51.6	-67.3	3.6	1.51e+00	0	36	104	0	60	113421
2026-01-07 19:04:30.21	307.19	6.68	-51.6	-67.3	3.6	1.51e+00	0	36	104	0	60	113437
2026-01-07 19:04:31.22	307.07	6.62	-51.6	-67.3	3.6	1.51e+00	0	36	104	0	60	113265
2026-01-07 19:04:32.23	306.96	6.57	-51.6	-67.3	3.6	1.51e+00	0	36	104	0	60	113281
2026-01-07 19:04:33.24	306.84	6.52	-51.6	-67.3	3.6	1.51e+00	0	36	104	0	60	113293
2026-01-07 19:04:34.25	306.72	6.47	-51.6	-67.3	3.6	1.51e+00	0	36	104	0	60	112968
2026-01-07 19:04:35.26	306.60	6.42	-51.6	-67.3	3.6	1.51e+00	0	36	104	0	60	113042
2026-01-07 19:04:36.27	306.49	6.36	-51.6	-67.3	3.6	1.51e+00	0	36	104	0	60	112978
2026-01-07 19:04:37.28	306.37	6.31	-51.6	-67.3	3.6	1.51e+00	0	36	104	0	60	113480
2026-01-07 19:04:38.30	306.26	6.26	-51.6	-67.3	3.6	1.51e+00	0	36	104	0	60	112868
2026-01-07 19:04:39.31	306.14	6.21	-51.6	-67.3	3.6	1.51e+00	0	36	104	0	60	113206
2026-01-07 19:04:40.32	306.03	6.15	-51.6	-67.3	3.6	1.51e+00	0	36	104	0	60	112918
2026-01-07 19:04:41.33	305.91	6.10	-51.6	-67.3	3.6	1.51e+00	0	36	104	0	60	113089
2026-01-07 19:04:42.34	305.80	6.05	-51.6	-67.3	3.6	1.51e+00	0	36	104	0	60	113060
2026-01-07 19:04:43.35	305.69	6.00	-51.6	-67.3	3.6	1.51e+00	0	36	104	0	60	112657
2026-01-07 19:04:44.36	305.57	5.95	-51.6	-67.3	3.6	1.51e+00	0	36	104	0	60	113396
2026-01-07 19:04:45.37	305.46	5.89	-51.6	-67.3	3.6	1.51e+00	0	36	104	0	60	113113
2026-01-07 19:04:46.38	305.35	5.84	-51.6	-67.3	3.6	1.51e+00	0	36	104	0	60	113483
2026-01-07 19:04:47.39	305.24	5.79	-51.6	-67.3	3.6	1.51e+00	0	36	104	0	60	113292
2026-01-07 19:04:48.41	305.13	5.74	-51.6	-67.3	3.6	1.51e+00	0	36	104	0	60	113593
2026-01-07 19:04:49.42	305.02	5.68	-51.6	-67.3	3.6	1.51e+00	0	36	104	0	60	112894
2026-01-07 19:04:50.43	304.91	5.63	-51.6	-67.3	3.6	1.51e+00	0	36	104	0	60	113156
2026-01-07 19:04:51.44	304.80	5.58	-51.6	-67.3	3.6	1.51e+00	0	36	104	0	60	113250
2026-01-07 19:04:52.45	304.69	5.53	-51.6	-67.3	3.6	1.51e+00	0	36	104	0	60	113353
2026-01-07 19:04:53.46	304.58	5.47	-51.6	-67.3	3.6	1.51e+00	0	36	104	0	60	113632
2026-01-07 19:04:54.47	304.47	5.42	-51.6	-67.3	3.6	1.51e+00	0	36	104	0	60	113024
2026-01-07 19:04:55.48	304.36	5.37	-51.6	-67.3	3.6	1.51e+00	0	36	104	0	60	113014
2026-01-07 19:04:56.49	304.25	5.32	-51.6	-67.3	3.6	1.51e+00	0	36	104	0	60	113501
2026-01-07 19:04:57.50	304.15	5.27	-51.6	-67.3	3.6	1.51e+00	0	36	104	0	60	113391
2026-01-07 19:04:58.51	304.04	5.21	-51.6	-67.3	3.6	1.51e+00	0	36	104	0	60	112721
2026-01-07 19:04:59.52	303.93	5.16	-51.6	-67.3	3.6	1.51e+00	0	36	104	0	60	113366
2026-01-07 19:05:00.53	303.83	5.11	-51.6	-67.3	3.6	1.51e+00	0	36	104	0	60	113306
2026-01-07 19:05:01.54	303.72	5.06	-51.6	-67.3	3.6	1.51e+00	0	36	104	0	60	113189
2026-01-07 19:05:02.56	303.61	5.00	-51.6	-67.3	3.6	1.51e+00	0	36	104	0	60	113005
2026-01-07 19:05:03.57	303.51	4.95	-51.6	-67.3	3.6	1.51e+00	0	36	104	0	60	112951
2026-01-07 19:05:04.58	303.40	4.90	-51.6	-67.3	3.6	1.51e+00	0	36	104	0	60	113298
2026-01-07 19:05:05.59	303.30	4.85	-51.6	-67.3	3.6	1.51e+00	0	36	104	0	60	112949
2026-01-07 19:05:06.60	303.20	4.80	-51.6	-67.3	3.6	1.51e+00	0	36	104	0	60	113015
2026-01-07 19:05:07.61	303.09	4.74	-51.6	-67.3	3.6	1.51e+00	0	36	104	0	60	113248
2026-01-07 19:05:08.62	302.99	4.69	-51.6	-67.3	3.6	1.51e+00	0	36	104	0	60	113520
2026-01-07 19:05:09.63	302.89	4.64	-51.6	-67.3	3.6	1.51e+00	0	36	104	0	60	112949
2026-01-07 19:05:10.64	302.78	4.59	-51.6	-67.3	3.6	1.51e+00	0	36	104	0	60	112608
2026-01-07 19:05:11.66	302.68	4.54	-51.6	-67.3	3.6	1.51e+00	0	36	104	0	60	113468
2026-01-07 19:05:12.67	302.58	4.48	-51.6	-67.3	3.6	1.51e+00	0	36	104	0	60	113310
2026-01-07 19:05:13.68	302.48	4.43	-51.6	-67.3	3.6	1.51e+00	0	36	104	0	60	113193
2026-01-07 19:05:14.69	302.38	4.38	-51.6	-67.3	3.6	1.51e+00	0	36	104	0	60	113006
2026-01-07 19:05:15.70	302.28	4.33	-51.6	-67.4	3.6	1.51e+00	0	36	104	0	60	113690
2026-01-07 19:05:16.71	302.18	4.28	-51.7	-67.3	3.6	1.51e+00	0	36	104	0	60	113084
2026-01-07 19:05:17.72	302.08	4.22	-51.6	-67.3	3.6	1.51e+00	0	36	104	0	60	113430
2026-01-07 19:05:18.73	301.98	4.17	-51.7	-67.3	3.6	1.51e+00	0	36	104	0	60	112751
2026-01-07 19:05:19.74	301.88	4.12	-51.6	-67.3	3.6	1.51e+00	0	36	104	0	60	112970
2026-01-07 19:05:20.76	301.78	4.07	-51.6	-67.3	3.6	1.51e+00	0	36	104	0	60	113432
2026-01-07 19:05:21.77	301.68	4.02	-51.7	-67.4	3.6	1.51e+00	0	36	104	0	60	113896
2026-01-07 19:05:22.78	301.58	3.96	-51.7	-67.3	3.6	1.51e+00	0	36	104	0	60	112808
2026-01-07 19:05:23.79	301.48	3.91	-51.7	-67.3	3.6	1.51e+00	0	36	104	0	60	113362
2026-01-07 19:05:24.80	301.39	3.86	-51.6	-67.4	3.6	1.51e+00	0	36	104	0	60	113656
2026-01-07 19:05:25.81	301.29	3.81	-51.7	-67.3	3.6	1.51e+00	0	36	104	0	60	113408
2026-01-07 19:05:26.82	301.19	3.76	-51.7	-67.3	3.6	1.51e+00	0	36	104	0	60	113283
2026-01-07 19:05:27.83	301.10	3.70	-51.6	-67.3	3.6	1.51e+00	0	36	104	0	60	113265
2026-01-07 19:05:28.84	301.00	3.65	-51.7	-67.3	3.6	1.51e+00	0	36	104	0	60	113195
2026-01-07 19:05:29.85	300.91	3.60	-51.6	-67.3	3.6	1.51e+00	0	36	104	0	60	113028
2026-01-07 19:05:30.86	300.81	3.55	-51.6	-67.3	3.6	1.51e+00	0	36	104	0	60	113083
2026-01-07 19:05:31.88	300.71	3.50	-51.7	-67.3	3.6	1.51e+00	0	36	104	0	60	113517
2026-01-07 19:05:32.89	300.62	3.45	-51.7	-67.3	3.6	1.51e+00	0	36	104	0	60	112695
2026-01-07 19:05:33.90	300.53	3.39	-51.6	-67.3	3.6	1.51e+00	0	36	104	0	60	113300
2026-01-07 19:05:34.91	300.43	3.34	-51.7	-67.3	3.6	1.51e+00	0	36	104	0	60	113648
2026-01-07 19:05:35.92	300.34	3.29	-51.6	-67.3	3.6	1.51e+00	0	36	104	0	60	113234
2026-01-07 19:05:36.93	300.25	3.24	-51.7	-67.3	3.6	1.51e+00	0	36	104	0	60	113529
2026-01-07 19:05:37.94	300.15	3.19	-51.6	-67.3	3.6	1.51e+00	0	36	104	0	60	112959
2026-01-07 19:05:38.95	300.06	3.14	-51.6	-67.3	3.6	1.51e+00	0	36	104	0	60	113221
2026-01-07 19:05:39.96	299.97	3.09	-51.6	-67.4	3.6	1.51e+00	0	36	104	0	60	113750
2026-01-07 19:05:40.97	299.88	3.03	-51.6	-67.3	3.6	1.51e+00	0	36	104	0	60	113078
2026-01-07 19:05:41.99	299.78	2.98	-51.6	-67.3	3.6	1.51e+00	0	36	104	0	60	113069
2026-01-07 19:05:43.00	299.69	2.93	-51.6	-67.3	3.6	1.51e+00	0	36	104	0	60	113293
2026-01-07 19:05:44.01	299.60	2.88	-51.6	-67.3	3.6	1.51e+00	0	36	104	0	60	113320
2026-01-07 19:05:45.02	299.51	2.83	-51.6	-67.3	3.6	1.51e+00	0	36	104	0	60	113104
2026-01-07 19:05:46.03	299.42	2.78	-51.6	-67.3	3.6	1.51e+00	0	36	104	0	60	113457
2026-01-07 19:05:47.04	299.33	2.73	-51.6	-67.3	3.6	1.51e+00	0	36	104	0	60	113609
2026-01-07 19:05:48.05	299.24	2.67	-51.6	-67.3	3.6	1.51e+00	0	36	104	0	60	113206
2026-01-07 19:05:49.06	299.15	2.62	-51.6	-67.3	3.6	1.51e+00	0	36	104	0	60	113079
2026-01-07 19:05:50.07	299.06	2.57	-51.6	-67.3	3.6	1.51e+00	0	36	104	0	60	113477
2026-01-07 19:05:51.08	298.98	2.52	-51.6	-67.3	3.6	1.51e+00	0	36	104	0	60	112872
2026-01-07 19:05:52.09	298.89	2.47	-51.6	-67.3	3.6	1.51e+00	0	36	104	0	60	113320
2026-01-07 19:05:53.10	298.80	2.42	-51.6	-67.3	3.6	1.51e+00	0	36	104	0	60	113036
2026-01-07 19:05:54.11	298.71	2.37	-51.6	-67.3	3.6	1.51e+00	0	36	104	0	60	113038
2026-01-07 19:05:55.13	298.62	2.32	-51.7	-67.3	3.6	1.51e+00	0	36	104	0	60	112955
2026-01-07 19:05:56.13	298.54	2.27	-51.6	-67.3	3.6	1.51e+00	0	36	104	0	60	112949
2026-01-07 19:05:57.15	298.45	2.21	-51.6	-67.3	3.6	1.51e+00	0	36	104	0	60	112962
2026-01-07 19:05:58.16	298.36	2.16	-51.6	-67.3	3.6	1.51e+00	0	36	104	0	60	112927
2026-01-07 19:05:59.17	298.28	2.11	-51.6	-67.3	3.6	1.51e+00	0	36	104	0	60	113086
2026-01-07 19:06:00.18	298.19	2.06	-51.7	-67.3	3.6	1.51e+00	0	36	104	0	60	113560
2026-01-07 19:06:01.19	298.11	2.01	-51.6	-67.3	3.6	1.51e+00	0	36	104	0	60	113009
2026-01-07 19:06:02.20	298.02	1.96	-51.6	-67.3	3.6	1.51e+00	0	36	104	0	60	113220
2026-01-07 19:06:03.21	297.94	1.91	-51.6	-67.3	3.6	1.51e+00	0	36	104	0	60	113170
2026-01-07 19:06:04.22	297.85	1.86	-51.7	-67.3	3.6	1.51e+00	0	36	104	0	60	112733
2026-01-07 19:06:05.24	297.77	1.81	-51.6	-67.3	3.6	1.51e+00	0	36	104	0	60	112936
2026-01-07 19:06:06.25	297.68	1.76	-51.6	-67.3	3.6	1.51e+00	0	36	104	0	60	113336
2026-01-07 19:06:07.26	297.60	1.71	-51.6	-67.3	3.6	1.51e+00	0	36	104	0	60	113206
2026-01-07 19:06:08.27	297.52	1.66	-51.7	-67.3	3.6	1.51e+00	0	36	104	0	60	112849
2026-01-07 19:06:09.28	297.43	1.61	-51.6	-67.3	3.6	1.51e+00	0	36	104	0	60	113119
2026-01-07 19:06:10.29	297.35	1.55	-51.6	-67.3	3.6	1.51e+00	0	36	104	0	60	113359
2026-01-07 19:06:11.30	297.27	1.50	-51.6	-67.3	3.6	1.51e+00	0	36	104	0	60	113075
2026-01-07 19:06:12.31	297.19	1.45	-51.7	-67.3	3.6	1.51e+00	0	36	104	0	60	113472
2026-01-07 19:06:13.32	297.10	1.40	-51.6	-67.3	3.6	1.51e+00	0	36	104	0	60	112742
2026-01-07 19:06:14.34	297.02	1.35	-51.6	-67.3	3.6	1.51e+00	0	36	104	0	60	113420
2026-01-07 19:06:15.35	296.94	1.30	-51.6	-67.3	3.6	1.51e+00	0	36	104	0	60	113090
2026-01-07 19:06:16.36	296.86	1.25	-51.6	-67.3	3.6	1.51e+00	0	36	104	0	60	113242
2026-01-07 19:06:17.37	296.78	1.20	-51.6	-67.3	3.6	1.51e+00	0	36	104	0	60	112952
2026-01-07 19:06:18.38	296.70	1.15	-51.6	-67.3	3.6	1.51e+00	0	36	104	0	60	113435
2026-01-07 19:06:19.39	296.62	1.10	-51.6	-67.3	3.6	1.51e+00	0	36	104	0	60	112879
2026-01-07 19:06:20.40	296.54	1.05	-51.6	-67.3	3.6	1.51e+00	0	36	104	0	60	113409
2026-01-07 19:06:21.41	296.46	1.00	-51.6	-67.3	3.6	1.51e+00	0	36	104	0	60	113310
2026-01-07 19:06:22.42	296.38	0.95	-51.6	-67.3	3.6	1.51e+00	0	36	104	0	60	113440
2026-01-07 19:06:23.43	296.30	0.90	-51.6	-67.3	3.6	1.51e+00	0	36	104	0	60	113132
2026-01-07 19:06:24.44	296.22	0.85	-51.6	-67.3	3.6	1.51e+00	0	36	104	0	60	113527
2026-01-07 19:06:25.46	296.14	0.80	-51.6	-67.3	3.6	1.51e+00	0	36	104	0	60	113435
2026-01-07 19:06:26.47	296.06	0.75	-51.6	-67.3	3.6	1.51e+00	0	36	104	0	60	112977
2026-01-07 19:06:27.48	295.99	0.70	-51.6	-67.3	3.6	1.51e+00	0	36	104	0	60	112802
2026-01-07 19:06:28.49	295.91	0.65	-51.6	-67.3	3.6	1.51e+00	0	36	104	0	60	113323
2026-01-07 19:06:29.50	295.83	0.60	-51.6	-67.3	3.6	1.51e+00	0	36	104	0	60	113089
