passes_logs/2026/01/07/R4.6S_Anadyr_2ch/R4.6S_Anadyr_2ch__20260107_121346_SUOMI_NPP_rec.log

#Pass ID: 20260107_121346_SUOMI NPP
#Satellite: SUOMI NPP
#Configuration: NPP
#almurnet v.1.7.20251203
#Start time: 2026-01-07 12:13:46

#Version: 2.2.20231116
#Station: R4.6S_Anadyr_2ch
#Location: 177.4865 lon 64.73178 lat
#TLE: 1 37849U 11061A   25350.92281687  .00000071  00000+0  54882-4 0  9996
#TLE: 2 37849  98.7777 288.2268 0002366 112.8570 247.2856 14.19515404732588

#Time	Az	El	Level	Level2	SNR	BER	BlckErr	Temp	State	Recorded	gain1	gain2
2026-01-07 12:13:46.86	19.39	0.04	-51.9	-64.6	3.4	1.52e+00	0	32	0	0	60	80128
2026-01-07 12:13:47.86	19.47	0.08	-51.9	-67.3	3.6	1.51e+00	0	33	104	0	60	112418
2026-01-07 12:13:48.88	19.56	0.13	-51.9	-67.2	3.6	1.51e+00	0	33	104	0	60	112168
2026-01-07 12:13:49.89	19.64	0.18	-51.9	-67.3	3.6	1.51e+00	0	33	104	0	60	112394
2026-01-07 12:13:50.90	19.72	0.22	-51.9	-67.3	3.6	1.51e+00	0	33	104	0	60	112750
2026-01-07 12:13:51.91	19.80	0.27	-51.9	-67.3	3.6	1.51e+00	0	33	104	0	60	112961
2026-01-07 12:13:52.92	19.88	0.32	-51.9	-67.3	3.6	1.51e+00	0	33	104	0	60	112628
2026-01-07 12:13:53.93	19.96	0.37	-51.7	-67.2	3.6	1.51e+00	0	33	104	0	60	112161
2026-01-07 12:13:54.94	20.05	0.41	-51.8	-67.2	3.6	1.51e+00	0	33	104	0	60	112011
2026-01-07 12:13:55.96	20.13	0.46	-51.7	-67.0	3.6	1.51e+00	0	33	104	0	60	109495
2026-01-07 12:13:56.97	20.21	0.51	-51.6	-67.0	3.6	1.51e+00	0	33	104	0	60	109044
2026-01-07 12:13:57.98	20.29	0.56	-51.5	-66.9	3.6	1.51e+00	0	33	104	0	60	107472
2026-01-07 12:13:58.99	20.38	0.60	-51.4	-66.7	3.6	1.51e+00	0	33	104	0	60	105631
2026-01-07 12:14:00.00	20.46	0.65	-51.2	-66.6	3.6	1.51e+00	0	33	104	0	60	103909
2026-01-07 12:14:01.01	20.55	0.70	-50.9	-66.2	3.6	1.51e+00	0	33	104	0	60	99962
2026-01-07 12:14:02.02	20.63	0.74	-50.3	-65.7	3.6	1.51e+00	0	33	104	0	60	93736
2026-01-07 12:14:03.03	20.71	0.79	-50.3	-65.6	3.6	1.51e+00	0	33	104	0	60	93260
2026-01-07 12:14:04.04	20.80	0.84	-50.3	-65.6	3.6	1.51e+00	0	33	104	0	60	92914
2026-01-07 12:14:05.05	20.88	0.89	-50.3	-65.6	3.5	1.51e+00	0	33	104	0	60	92786
2026-01-07 12:14:06.07	20.97	0.94	-50.3	-65.6	3.6	1.51e+00	0	33	104	0	60	92864
2026-01-07 12:14:07.08	21.05	0.98	-50.3	-65.6	3.6	1.51e+00	0	33	104	0	60	93294
2026-01-07 12:14:08.08	21.14	1.03	-50.3	-65.6	3.6	1.51e+00	0	33	104	0	60	93334
2026-01-07 12:14:09.10	21.23	1.08	-50.2	-65.6	3.6	1.51e+00	0	33	104	0	60	93334
2026-01-07 12:14:10.11	21.31	1.13	-50.3	-65.6	3.6	1.51e+00	0	33	104	0	60	92951
2026-01-07 12:14:11.12	21.40	1.17	-50.3	-65.6	3.6	1.51e+00	0	34	104	0	60	92971
2026-01-07 12:14:12.13	21.48	1.22	-50.2	-65.6	3.6	1.51e+00	0	34	104	0	60	93126
2026-01-07 12:14:13.14	21.57	1.27	-50.3	-65.7	3.6	1.51e+00	0	33	104	0	60	93573
2026-01-07 12:14:14.15	21.66	1.32	-50.3	-65.6	3.6	1.51e+00	0	33	104	0	60	92864
2026-01-07 12:14:15.16	21.75	1.37	-50.2	-65.6	3.6	1.51e+00	0	34	104	0	60	93021
2026-01-07 12:14:16.17	21.83	1.41	-50.2	-65.6	3.6	1.51e+00	0	34	104	0	60	93213
2026-01-07 12:14:17.18	21.92	1.46	-50.2	-65.6	3.6	1.51e+00	0	34	104	0	60	92968
2026-01-07 12:14:18.20	22.01	1.51	-50.2	-65.6	3.6	1.51e+00	0	34	104	0	60	93006
2026-01-07 12:14:19.20	22.10	1.56	-50.2	-65.6	3.6	1.51e+00	0	34	104	0	60	93349
2026-01-07 12:14:20.22	22.19	1.61	-50.2	-65.6	3.6	1.51e+00	0	34	104	0	60	93397
2026-01-07 12:14:21.23	22.28	1.65	-50.2	-65.6	3.6	1.51e+00	0	34	104	0	60	93316
2026-01-07 12:14:22.24	22.37	1.70	-50.3	-65.6	3.6	1.51e+00	0	34	104	0	60	92793
2026-01-07 12:14:23.25	22.46	1.75	-50.2	-65.6	3.6	1.51e+00	0	34	104	0	60	92704
2026-01-07 12:14:24.26	22.55	1.80	-50.2	-65.5	3.6	1.51e+00	0	34	104	0	60	92182
2026-01-07 12:14:25.27	22.64	1.85	-50.2	-65.5	3.6	1.51e+00	0	34	104	0	60	92150
2026-01-07 12:14:26.28	22.73	1.89	-50.2	-65.5	3.6	1.51e+00	0	34	104	0	60	91898
2026-01-07 12:14:27.29	22.82	1.94	-50.2	-65.6	3.6	1.51e+00	0	34	104	0	60	92472
2026-01-07 12:14:28.30	22.91	1.99	-50.2	-65.5	3.5	1.51e+00	0	34	104	0	60	92344
2026-01-07 12:14:29.31	23.00	2.04	-50.2	-65.6	3.6	1.51e+00	0	34	104	0	60	92574
2026-01-07 12:14:30.32	23.09	2.09	-50.2	-65.6	3.6	1.51e+00	0	34	104	0	60	93108
2026-01-07 12:14:31.34	23.18	2.14	-50.2	-65.6	3.6	1.51e+00	0	34	104	0	60	93147
2026-01-07 12:14:32.35	23.28	2.18	-50.2	-65.6	3.6	1.51e+00	0	34	104	0	60	93240
2026-01-07 12:14:33.36	23.37	2.23	-50.2	-65.5	3.6	1.51e+00	0	34	104	0	60	91730
2026-01-07 12:14:34.37	23.46	2.28	-50.2	-65.0	3.6	1.51e+00	0	34	104	0	60	86452
2026-01-07 12:14:35.38	23.55	2.33	-50.2	-64.4	3.6	1.51e+00	0	34	104	0	60	80730
2026-01-07 12:14:36.39	23.65	2.38	-50.2	-64.7	3.6	1.51e+00	0	34	104	0	60	83530
2026-01-07 12:14:37.40	23.74	2.43	-50.2	-64.6	3.6	1.51e+00	0	34	104	0	60	82546
2026-01-07 12:14:38.41	23.83	2.47	-50.0	-60.8	4.6	1.37e+00	0	34	104	0	60	53545
2026-01-07 12:14:39.42	23.93	2.52	-49.2	-55.4	8.6	1.92e-01	92	34	102	1048576	60	28589
2026-01-07 12:14:40.43	24.02	2.57	-47.7	-51.4	13.2	3.43e-03	0	34	102	1048576	60	18175
2026-01-07 12:14:41.44	24.12	2.62	-46.1	-48.5	16.2	0.00e+00	0	34	102	1048576	60	12998
2026-01-07 12:14:42.45	24.21	2.67	-44.9	-46.8	17.7	0.00e+00	0	34	102	1048576	60	10715
2026-01-07 12:14:43.46	24.31	2.72	-44.2	-45.9	18.6	0.00e+00	0	34	102	1048576	60	9616
2026-01-07 12:14:44.48	24.40	2.77	-44.0	-45.7	18.8	0.00e+00	64	34	102	1048576	60	9387
2026-01-07 12:14:45.49	24.50	2.81	-44.4	-46.2	18.4	0.00e+00	0	34	102	1048576	60	9899
2026-01-07 12:14:46.50	24.60	2.86	-45.3	-47.5	17.0	0.00e+00	92	34	102	1048576	60	11544
2026-01-07 12:14:47.51	24.69	2.91	-46.8	-49.8	14.5	0.00e+00	0	34	102	1048576	60	15023
2026-01-07 12:14:48.52	24.79	2.96	-48.6	-53.5	10.6	2.80e-04	0	34	102	1048576	60	22962
2026-01-07 12:14:49.53	24.89	3.01	-47.8	-51.4	13.5	2.76e-02	0	34	102	1048576	60	18061
2026-01-07 12:14:50.54	24.98	3.06	-44.5	-46.3	18.4	0.00e+00	0	34	102	1048576	60	10067
2026-01-07 12:14:51.55	25.08	3.11	-49.7	-58.4	4.2	4.80e-05	72	34	102	1048576	60	40503
2026-01-07 12:14:52.57	25.18	3.16	-50.1	-63.8	3.8	1.50e+00	0	34	104	1048576	60	75347
2026-01-07 12:14:53.58	25.28	3.20	-43.9	-45.5	17.8	1.47e+00	91	34	104	1048576	60	9157
2026-01-07 12:14:54.59	25.38	3.25	-45.8	-48.0	17.3	6.10e-06	0	34	0	1048576	60	12231
2026-01-07 12:14:55.60	25.48	3.30	-44.9	-46.7	18.2	0.00e+00	0	34	0	1048576	60	10571
2026-01-07 12:14:56.61	25.57	3.35	-44.8	-46.6	18.0	0.00e+00	0	34	0	1048576	60	10438
2026-01-07 12:14:57.62	25.67	3.40	-44.1	-45.8	18.9	0.00e+00	0	34	0	1048576	60	9472
2026-01-07 12:14:58.63	25.77	3.45	-44.4	-46.1	18.7	0.00e+00	15	34	0	1048576	60	9800
2026-01-07 12:14:59.64	25.87	3.50	-44.2	-45.9	18.9	0.00e+00	0	34	0	1048576	60	9644
2026-01-07 12:15:00.65	25.97	3.55	-44.1	-45.8	18.9	0.00e+00	90	34	0	1048576	60	9462
2026-01-07 12:15:01.66	26.08	3.60	-44.1	-45.8	19.0	0.00e+00	0	34	0	1048576	60	9485
2026-01-07 12:15:02.68	26.18	3.65	-44.0	-45.6	19.1	0.00e+00	0	34	0	1048576	60	9336
2026-01-07 12:15:03.69	26.28	3.69	-44.0	-45.6	19.1	0.00e+00	0	34	0	1048576	60	9275
2026-01-07 12:15:04.70	26.38	3.74	-44.0	-45.6	19.0	0.00e+00	0	34	0	1048576	60	9315
2026-01-07 12:15:05.71	26.48	3.79	-43.9	-45.5	19.3	0.00e+00	21	34	0	1048576	60	9148
2026-01-07 12:15:06.72	26.59	3.84	-43.9	-45.5	19.2	0.00e+00	0	34	0	1048576	60	9188
2026-01-07 12:15:07.73	26.69	3.89	-43.8	-45.4	19.4	0.00e+00	54	34	0	1048576	60	9037
2026-01-07 12:15:08.74	26.79	3.94	-43.7	-45.3	19.5	0.00e+00	0	34	0	1048576	60	8926
2026-01-07 12:15:09.75	26.89	3.99	-43.8	-45.3	19.4	0.00e+00	92	34	0	1048576	60	9006
2026-01-07 12:15:10.76	27.00	4.04	-43.7	-45.2	19.5	0.00e+00	0	34	0	1048576	60	8845
2026-01-07 12:15:11.78	27.10	4.09	-43.6	-45.1	19.6	0.00e+00	0	34	0	1048576	60	8787
2026-01-07 12:15:12.79	27.21	4.14	-43.6	-45.1	19.6	0.00e+00	23	34	101	1048576	60	8782
2026-01-07 12:15:13.80	27.31	4.19	-43.7	-45.2	19.6	0.00e+00	0	34	101	1048576	60	8826
2026-01-07 12:15:14.81	27.42	4.24	-43.5	-44.9	19.7	0.00e+00	59	34	101	1048576	60	8612
2026-01-07 12:15:15.82	27.52	4.28	-43.4	-44.9	19.9	0.00e+00	0	34	101	1048576	60	8542
2026-01-07 12:15:16.83	27.63	4.33	-43.4	-44.9	20.0	0.00e+00	81	34	101	1048576	60	8542
2026-01-07 12:15:17.84	27.73	4.38	-43.4	-44.8	20.0	0.00e+00	0	34	101	1048576	60	8445
2026-01-07 12:15:18.85	27.84	4.43	-43.2	-44.6	20.2	0.00e+00	0	34	101	1048576	60	8278
2026-01-07 12:15:19.86	27.95	4.48	-43.0	-44.3	20.4	0.00e+00	0	34	101	1048576	60	7979
2026-01-07 12:15:20.87	28.05	4.53	-43.3	-44.7	20.1	0.00e+00	0	34	101	1048576	60	8363
2026-01-07 12:15:21.88	28.16	4.58	-43.0	-44.4	20.3	0.00e+00	42	34	101	1048576	60	8059
2026-01-07 12:15:22.89	28.27	4.63	-43.1	-44.4	20.4	0.00e+00	0	34	101	1048576	60	8116
2026-01-07 12:15:23.90	28.38	4.68	-43.0	-44.3	20.5	0.00e+00	92	34	101	1048576	60	8001
2026-01-07 12:15:24.91	28.49	4.73	-42.9	-44.2	20.5	0.00e+00	0	34	101	1048576	60	7952
2026-01-07 12:15:25.93	28.60	4.78	-42.8	-44.1	20.7	0.00e+00	0	34	101	1048576	60	7805
2026-01-07 12:15:26.94	28.71	4.83	-42.8	-44.1	20.7	0.00e+00	0	34	101	1048576	60	7808
2026-01-07 12:15:27.95	28.82	4.88	-42.6	-43.9	20.7	0.00e+00	0	34	101	1048576	60	7623
2026-01-07 12:15:28.96	28.93	4.93	-42.6	-43.9	20.8	0.00e+00	84	34	101	1048576	60	7641
2026-01-07 12:15:29.97	29.04	4.97	-42.7	-43.9	20.7	0.00e+00	0	34	101	1048576	60	7667
2026-01-07 12:15:30.98	29.15	5.02	-42.6	-43.8	20.9	0.00e+00	80	34	101	1048576	60	7558
2026-01-07 12:15:31.99	29.26	5.07	-42.5	-43.7	21.0	0.00e+00	0	34	101	1048576	60	7464
2026-01-07 12:15:33.00	29.37	5.12	-42.5	-43.7	21.1	0.00e+00	0	34	101	1048576	60	7469
2026-01-07 12:15:34.01	29.48	5.17	-42.5	-43.7	21.2	0.00e+00	0	34	101	1048576	60	7429
2026-01-07 12:15:35.02	29.59	5.22	-42.5	-43.7	21.0	0.00e+00	0	34	101	1048576	60	7484
2026-01-07 12:15:36.03	29.70	5.27	-42.5	-43.7	21.0	0.00e+00	76	34	101	1048576	60	7445
2026-01-07 12:15:37.04	29.82	5.32	-42.6	-43.8	21.1	0.00e+00	0	34	101	1048576	60	7553
2026-01-07 12:15:38.05	29.93	5.37	-42.5	-43.8	21.0	0.00e+00	55	34	101	1048576	60	7521
2026-01-07 12:15:39.06	30.04	5.42	-42.5	-43.8	21.0	0.00e+00	0	34	101	1048576	60	7511
2026-01-07 12:15:40.08	30.16	5.47	-42.5	-43.7	21.0	0.00e+00	0	34	101	1048576	60	7488
2026-01-07 12:15:41.09	30.27	5.52	-42.7	-44.0	20.8	0.00e+00	0	34	101	1048576	60	7728
2026-01-07 12:15:42.10	30.39	5.57	-42.7	-44.0	20.8	0.00e+00	0	34	101	1048576	60	7686
2026-01-07 12:15:43.11	30.50	5.62	-42.7	-44.0	21.0	0.00e+00	25	34	101	1048576	60	7686
2026-01-07 12:15:44.12	30.62	5.67	-42.8	-44.1	20.4	0.00e+00	0	34	101	1048576	60	7792
2026-01-07 12:15:45.13	30.73	5.72	-42.8	-44.0	20.9	0.00e+00	92	34	101	1048576	60	7760
2026-01-07 12:15:46.14	30.85	5.76	-42.8	-44.0	20.4	0.00e+00	22	34	101	1048576	60	7747
2026-01-07 12:15:47.15	30.97	5.81	-42.7	-43.9	20.8	0.00e+00	0	34	101	1048576	60	7673
2026-01-07 12:15:48.16	31.08	5.86	-42.8	-44.1	20.8	0.00e+00	0	34	101	1048576	60	7799
2026-01-07 12:15:49.17	31.20	5.91	-42.8	-44.1	20.9	0.00e+00	0	34	101	1048576	60	7802
2026-01-07 12:15:50.18	31.32	5.96	-42.9	-44.2	20.7	0.00e+00	0	34	101	1048576	60	7885
2026-01-07 12:15:51.19	31.44	6.01	-42.9	-44.3	20.7	0.00e+00	0	34	101	1048576	60	7954
2026-01-07 12:15:52.21	31.56	6.06	-43.1	-44.4	20.7	0.00e+00	82	34	101	1048576	60	8120
2026-01-07 12:15:53.22	31.67	6.11	-43.0	-44.3	20.8	0.00e+00	0	34	101	1048576	60	7982
2026-01-07 12:15:54.23	31.79	6.16	-43.0	-44.3	20.6	0.00e+00	0	34	101	1048576	60	8008
2026-01-07 12:15:55.24	31.91	6.21	-43.0	-44.3	20.6	0.00e+00	0	34	101	1048576	60	8015
2026-01-07 12:15:56.25	32.03	6.26	-43.0	-44.3	20.8	0.00e+00	0	34	101	1048576	60	7964
2026-01-07 12:15:57.26	32.15	6.31	-42.8	-44.0	20.9	0.00e+00	0	34	101	1048576	60	7744
2026-01-07 12:15:58.27	32.27	6.36	-42.9	-44.2	20.8	0.00e+00	0	34	101	1048576	60	7883
2026-01-07 12:15:59.28	32.39	6.41	-42.7	-43.9	21.0	0.00e+00	76	34	101	1048576	60	7680
2026-01-07 12:16:00.29	32.52	6.46	-42.9	-44.2	20.8	0.00e+00	0	34	101	1048576	60	7868
2026-01-07 12:16:01.31	32.64	6.51	-42.8	-44.0	20.9	0.00e+00	91	34	101	1048576	60	7745
2026-01-07 12:16:02.32	32.76	6.56	-42.6	-43.9	21.0	0.00e+00	0	34	101	1048576	60	7610
2026-01-07 12:16:03.33	32.88	6.60	-42.7	-44.0	21.0	0.00e+00	0	34	101	1048576	60	7716
2026-01-07 12:16:04.34	33.01	6.65	-42.6	-43.9	21.1	0.00e+00	0	34	101	1048576	60	7611
2026-01-07 12:16:05.35	33.13	6.70	-42.9	-44.1	20.9	0.00e+00	0	34	101	1048576	60	7845
2026-01-07 12:16:06.36	33.25	6.75	-42.8	-44.1	20.9	0.00e+00	92	34	101	1048576	60	7778
2026-01-07 12:16:07.37	33.38	6.80	-42.8	-44.1	20.9	0.00e+00	0	34	101	1048576	60	7819
2026-01-07 12:16:08.38	33.50	6.85	-42.6	-43.8	21.1	0.00e+00	92	34	101	1048576	60	7573
2026-01-07 12:16:09.39	33.63	6.90	-42.6	-43.9	21.1	0.00e+00	0	34	101	1048576	60	7625
2026-01-07 12:16:10.40	33.75	6.95	-42.6	-43.9	21.2	0.00e+00	0	34	101	1048576	60	7610
2026-01-07 12:16:11.41	33.88	7.00	-42.5	-43.6	21.3	0.00e+00	0	34	101	1048576	60	7422
2026-01-07 12:16:12.43	34.01	7.05	-42.4	-43.6	21.3	0.00e+00	0	34	101	1048576	60	7342
2026-01-07 12:16:13.44	34.13	7.10	-42.3	-43.5	21.5	0.00e+00	10	34	101	1048576	60	7256
2026-01-07 12:16:14.45	34.26	7.15	-42.3	-43.5	21.4	0.00e+00	0	34	101	1048576	60	7274
2026-01-07 12:16:15.46	34.39	7.19	-42.2	-43.4	21.5	0.00e+00	92	34	101	1048576	60	7179
2026-01-07 12:16:16.47	34.52	7.24	-42.1	-43.2	21.7	0.00e+00	0	34	101	1048576	60	7074
2026-01-07 12:16:17.48	34.65	7.29	-41.9	-43.1	21.8	0.00e+00	0	34	101	1048576	60	6936
2026-01-07 12:16:18.49	34.77	7.34	-42.0	-43.1	21.9	0.00e+00	0	34	101	1048576	60	6958
2026-01-07 12:16:19.50	34.90	7.39	-42.0	-43.1	21.8	0.00e+00	0	34	101	1048576	60	6963
2026-01-07 12:16:20.51	35.03	7.44	-42.0	-43.1	21.7	0.00e+00	47	34	101	1048576	60	6983
2026-01-07 12:16:21.52	35.16	7.49	-42.0	-43.2	21.7	0.00e+00	0	34	101	1048576	60	7020
2026-01-07 12:16:22.54	35.29	7.54	-42.0	-43.1	21.8	0.00e+00	92	34	101	1048576	60	6976
2026-01-07 12:16:23.55	35.43	7.59	-41.9	-43.1	21.8	0.00e+00	0	34	101	1048576	60	6952
2026-01-07 12:16:24.56	35.56	7.63	-41.9	-43.1	21.9	0.00e+00	0	34	101	1048576	60	6948
2026-01-07 12:16:25.57	35.69	7.68	-41.7	-42.8	22.0	0.00e+00	0	34	101	1048576	60	6767
2026-01-07 12:16:26.58	35.82	7.73	-41.8	-42.9	22.1	0.00e+00	0	34	101	1048576	60	6785
2026-01-07 12:16:27.59	35.95	7.78	-41.7	-42.8	22.1	0.00e+00	38	34	101	1048576	60	6697
2026-01-07 12:16:28.60	36.09	7.83	-41.4	-42.5	22.4	0.00e+00	0	34	101	1048576	60	6484
2026-01-07 12:16:29.61	36.22	7.88	-41.3	-42.3	22.5	0.00e+00	67	34	101	1048576	60	6347
2026-01-07 12:16:30.62	36.35	7.93	-41.4	-42.4	22.4	0.00e+00	0	34	101	1048576	60	6449
2026-01-07 12:16:31.63	36.49	7.98	-41.2	-42.2	22.6	0.00e+00	0	34	101	1048576	60	6314
2026-01-07 12:16:32.64	36.62	8.02	-41.2	-42.3	22.5	0.00e+00	0	34	101	1048576	60	6325
2026-01-07 12:16:33.65	36.76	8.07	-41.2	-42.3	22.5	0.00e+00	0	34	101	1048576	60	6320
2026-01-07 12:16:34.67	36.89	8.12	-41.4	-42.4	22.4	0.00e+00	20	34	101	1048576	60	6436
2026-01-07 12:16:35.68	37.03	8.17	-41.4	-42.5	22.3	0.00e+00	20	34	101	1048576	60	6483
2026-01-07 12:16:36.69	37.17	8.22	-41.6	-42.7	22.2	0.00e+00	92	34	101	1048576	60	6627
2026-01-07 12:16:37.70	37.30	8.27	-41.7	-42.8	22.2	0.00e+00	0	34	101	1048576	60	6694
2026-01-07 12:16:38.71	37.44	8.31	-41.6	-42.7	22.1	0.00e+00	0	34	101	1048576	60	6670
2026-01-07 12:16:39.72	37.58	8.36	-41.7	-42.8	22.0	0.00e+00	0	34	101	1048576	60	6706
2026-01-07 12:16:40.73	37.72	8.41	-41.8	-42.9	21.9	0.00e+00	0	34	101	1048576	60	6792
2026-01-07 12:16:41.74	37.86	8.46	-41.8	-42.9	22.1	0.00e+00	1	34	101	1048576	60	6774
2026-01-07 12:16:42.76	38.00	8.51	-41.7	-42.8	22.1	0.00e+00	0	34	101	1048576	60	6702
2026-01-07 12:16:43.77	38.14	8.56	-41.5	-42.6	22.3	0.00e+00	21	34	101	1048576	60	6566
2026-01-07 12:16:44.78	38.28	8.60	-41.6	-42.7	22.2	0.00e+00	0	34	101	1048576	60	6639
2026-01-07 12:16:45.79	38.42	8.65	-41.4	-42.4	22.5	0.00e+00	92	34	101	1048576	60	6463
2026-01-07 12:16:46.80	38.56	8.70	-41.5	-42.5	22.3	0.00e+00	0	34	101	1048576	60	6534
2026-01-07 12:16:47.81	38.70	8.75	-41.6	-42.6	22.2	0.00e+00	0	34	101	1048576	60	6608
2026-01-07 12:16:48.82	38.84	8.79	-41.5	-42.5	22.4	0.00e+00	0	34	101	1048576	60	6508
2026-01-07 12:16:49.83	38.98	8.84	-41.6	-42.6	22.3	0.00e+00	0	34	101	1048576	60	6598
2026-01-07 12:16:50.84	39.12	8.89	-41.7	-42.8	22.1	0.00e+00	92	34	101	1048576	60	6746
2026-01-07 12:16:51.85	39.27	8.94	-41.8	-42.8	22.2	0.00e+00	0	34	101	1048576	60	6759
2026-01-07 12:16:52.86	39.41	8.98	-41.9	-43.0	22.0	0.00e+00	50	34	101	1048576	60	6868
2026-01-07 12:16:53.88	39.56	9.03	-41.9	-42.9	22.0	0.00e+00	0	34	101	1048576	60	6843
2026-01-07 12:16:54.89	39.70	9.08	-41.8	-42.9	22.1	0.00e+00	0	34	101	1048576	60	6781
2026-01-07 12:16:55.90	39.85	9.13	-41.8	-42.8	22.2	0.00e+00	0	34	101	1048576	60	6765
2026-01-07 12:16:56.91	39.99	9.17	-42.1	-43.2	21.8	0.00e+00	0	34	101	1048576	60	7064
2026-01-07 12:16:57.92	40.14	9.22	-41.7	-42.8	22.2	0.00e+00	56	34	101	1048576	60	6693
2026-01-07 12:16:58.93	40.28	9.27	-41.8	-42.9	22.0	0.00e+00	0	34	101	1048576	60	6779
2026-01-07 12:16:59.94	40.43	9.32	-41.9	-43.0	22.0	0.00e+00	53	34	101	1048576	60	6858
2026-01-07 12:17:00.95	40.58	9.36	-41.9	-43.0	22.1	0.00e+00	0	34	101	1048576	60	6896
2026-01-07 12:17:01.96	40.73	9.41	-41.8	-42.8	22.0	0.00e+00	0	34	101	1048576	60	6769
2026-01-07 12:17:02.97	40.87	9.46	-41.7	-42.8	21.7	0.00e+00	0	34	101	1048576	60	6725
2026-01-07 12:17:03.99	41.02	9.50	-41.7	-42.8	22.0	0.00e+00	0	34	101	1048576	60	6750
2026-01-07 12:17:05.00	41.17	9.55	-41.8	-42.9	22.1	0.00e+00	0	34	101	1048576	60	6838
2026-01-07 12:17:06.01	41.32	9.60	-41.8	-42.9	22.2	0.00e+00	0	34	101	1048576	60	6784
2026-01-07 12:17:07.02	41.47	9.64	-41.7	-42.8	22.2	0.00e+00	90	34	101	1048576	60	6744
2026-01-07 12:17:08.03	41.62	9.69	-41.7	-42.8	22.1	0.00e+00	0	34	101	1048576	60	6728
2026-01-07 12:17:09.04	41.77	9.74	-41.9	-43.0	22.1	0.00e+00	0	34	101	1048576	60	6857
2026-01-07 12:17:10.05	41.92	9.78	-41.6	-42.6	22.3	0.00e+00	0	34	101	1048576	60	6611
2026-01-07 12:17:11.06	42.08	9.83	-41.8	-42.9	22.1	0.00e+00	0	34	101	1048576	60	6794
2026-01-07 12:17:12.07	42.23	9.87	-41.7	-42.8	22.1	0.00e+00	22	34	101	1048576	60	6719
2026-01-07 12:17:13.09	42.38	9.92	-41.7	-42.8	22.3	0.00e+00	0	34	101	1048576	60	6727
2026-01-07 12:17:14.10	42.54	9.97	-41.7	-42.8	22.1	0.00e+00	83	34	101	1048576	60	6742
2026-01-07 12:17:15.11	42.69	10.01	-41.9	-43.0	22.1	0.00e+00	0	34	101	1048576	60	6895
2026-01-07 12:17:16.12	42.84	10.06	-41.9	-43.0	22.1	0.00e+00	0	34	101	1048576	60	6915
2026-01-07 12:17:17.13	43.00	10.10	-42.0	-43.1	22.0	0.00e+00	9	34	101	1048576	60	6960
2026-01-07 12:17:18.14	43.15	10.15	-42.0	-43.2	21.9	0.00e+00	0	34	101	1048576	60	7032
2026-01-07 12:17:19.15	43.31	10.19	-42.1	-43.2	21.8	0.00e+00	29	34	101	1048576	60	7067
2026-01-07 12:17:20.16	43.47	10.24	-42.1	-43.2	21.9	0.00e+00	8	34	101	1048576	60	7039
2026-01-07 12:17:21.17	43.62	10.29	-41.9	-43.0	22.1	0.00e+00	41	34	101	1048576	60	6863
2026-01-07 12:17:22.18	43.78	10.33	-41.8	-42.8	22.2	0.00e+00	0	34	101	1048576	60	6759
2026-01-07 12:17:23.19	43.94	10.38	-41.8	-42.8	22.1	0.00e+00	0	34	101	1048576	60	6734
2026-01-07 12:17:24.20	44.09	10.42	-41.8	-42.8	22.1	0.00e+00	0	34	101	1048576	60	6748
2026-01-07 12:17:25.22	44.25	10.47	-41.9	-43.0	22.1	0.00e+00	0	34	101	1048576	60	6859
2026-01-07 12:17:26.23	44.41	10.51	-42.0	-43.1	22.1	0.00e+00	21	34	101	1048576	60	6990
2026-01-07 12:17:27.24	44.57	10.55	-42.1	-43.3	21.9	0.00e+00	0	34	101	1048576	60	7089
2026-01-07 12:17:28.25	44.73	10.60	-42.1	-43.3	21.8	0.00e+00	25	34	101	1048576	60	7093
2026-01-07 12:17:29.26	44.89	10.64	-42.2	-43.3	21.8	0.00e+00	0	34	101	1048576	60	7137
2026-01-07 12:17:30.27	45.05	10.69	-42.3	-43.4	21.8	0.00e+00	90	34	101	1048576	60	7190
2026-01-07 12:17:31.28	45.21	10.73	-42.4	-43.5	21.6	0.00e+00	0	34	101	1048576	60	7314
2026-01-07 12:17:32.29	45.38	10.78	-42.3	-43.5	21.7	0.00e+00	0	34	101	1048576	60	7277
2026-01-07 12:17:33.30	45.54	10.82	-42.2	-43.3	21.9	0.00e+00	0	34	101	1048576	60	7143
2026-01-07 12:17:34.31	45.70	10.86	-42.3	-43.5	21.7	0.00e+00	0	34	101	1048576	60	7269
2026-01-07 12:17:35.33	45.86	10.91	-42.2	-43.3	21.8	0.00e+00	92	34	101	1048576	60	7146
2026-01-07 12:17:36.34	46.03	10.95	-42.1	-43.1	22.1	0.00e+00	0	34	101	1048576	60	7004
2026-01-07 12:17:37.35	46.19	10.99	-42.2	-43.3	21.8	0.00e+00	92	34	101	1048576	60	7169
2026-01-07 12:17:38.36	46.36	11.04	-42.4	-43.5	21.6	0.00e+00	0	34	101	1048576	60	7331
2026-01-07 12:17:39.37	46.52	11.08	-42.0	-43.1	22.1	0.00e+00	0	34	101	1048576	60	6975
2026-01-07 12:17:40.38	46.69	11.12	-42.2	-43.3	21.9	0.00e+00	0	34	101	1048576	60	7096
2026-01-07 12:17:41.39	46.85	11.17	-42.3	-43.4	21.8	0.00e+00	0	34	101	1048576	60	7215
2026-01-07 12:17:42.40	47.02	11.21	-42.4	-43.5	21.6	0.00e+00	62	34	101	1048576	60	7307
2026-01-07 12:17:43.41	47.19	11.25	-42.4	-43.5	21.8	0.00e+00	0	34	101	1048576	60	7292
2026-01-07 12:17:44.42	47.35	11.29	-42.5	-43.7	21.5	0.00e+00	92	34	101	1048576	60	7443
2026-01-07 12:17:45.44	47.52	11.34	-42.6	-43.8	21.5	0.00e+00	0	34	101	1048576	60	7534
2026-01-07 12:17:46.45	47.69	11.38	-42.6	-43.8	21.5	0.00e+00	0	34	101	1048576	60	7519
2026-01-07 12:17:47.46	47.86	11.42	-42.7	-43.9	21.4	0.00e+00	0	34	101	1048576	60	7603
2026-01-07 12:17:48.47	48.03	11.46	-42.8	-44.0	21.3	0.00e+00	0	35	101	1048576	60	7729
2026-01-07 12:17:49.48	48.20	11.50	-43.2	-44.4	20.9	0.00e+00	20	34	101	1048576	60	8089
2026-01-07 12:17:50.49	48.37	11.55	-42.8	-44.0	21.4	0.00e+00	0	34	101	1048576	60	7700
2026-01-07 12:17:51.50	48.54	11.59	-43.2	-44.4	20.9	0.00e+00	45	34	101	1048576	60	8084
2026-01-07 12:17:52.51	48.71	11.63	-42.9	-44.1	21.2	0.00e+00	0	34	101	1048576	60	7773
2026-01-07 12:17:53.52	48.88	11.67	-42.8	-44.0	21.4	0.00e+00	0	34	101	1048576	60	7756
2026-01-07 12:17:54.53	49.05	11.71	-42.9	-44.1	21.2	0.00e+00	0	34	101	1048576	60	7858
2026-01-07 12:17:55.54	49.23	11.75	-42.9	-44.1	21.3	0.00e+00	0	35	101	1048576	60	7832
2026-01-07 12:17:56.55	49.40	11.79	-43.1	-44.4	21.1	0.00e+00	14	34	101	1048576	60	8054
2026-01-07 12:17:57.56	49.57	11.83	-43.4	-44.6	20.7	0.00e+00	0	34	101	1048576	60	8307
2026-01-07 12:17:58.57	49.75	11.87	-43.5	-44.8	20.6	0.00e+00	92	34	101	1048576	60	8487
2026-01-07 12:17:59.59	49.92	11.91	-43.3	-44.6	20.6	0.00e+00	0	34	101	1048576	60	8289
2026-01-07 12:18:00.60	50.10	11.95	-43.4	-44.7	20.6	0.00e+00	0	34	101	1048576	60	8353
2026-01-07 12:18:01.61	50.27	11.99	-43.3	-44.5	20.9	0.00e+00	0	34	101	1048576	60	8184
2026-01-07 12:18:02.62	50.45	12.03	-43.1	-44.3	21.0	0.00e+00	0	34	101	1048576	60	8020
2026-01-07 12:18:03.63	50.62	12.07	-43.2	-44.4	21.0	0.00e+00	23	34	101	1048576	60	8085
2026-01-07 12:18:04.64	50.80	12.11	-43.0	-44.2	21.1	0.00e+00	0	34	101	1048576	60	7920
2026-01-07 12:18:05.65	50.98	12.15	-43.1	-44.4	21.0	0.00e+00	37	34	101	1048576	60	8046
2026-01-07 12:18:06.66	51.16	12.19	-43.1	-44.4	21.0	0.00e+00	0	34	101	1048576	60	8083
2026-01-07 12:18:07.68	51.34	12.23	-43.2	-44.4	21.0	0.00e+00	64	34	101	1048576	60	8105
2026-01-07 12:18:08.69	51.51	12.27	-43.2	-44.4	20.8	0.00e+00	0	34	101	1048576	60	8125
2026-01-07 12:18:09.70	51.69	12.30	-43.5	-44.8	20.7	0.00e+00	0	34	101	1048576	60	8452
2026-01-07 12:18:10.71	51.87	12.34	-43.2	-44.4	21.0	0.00e+00	0	34	101	1048576	60	8098
2026-01-07 12:18:11.72	52.05	12.38	-43.2	-44.4	21.1	0.00e+00	0	35	101	1048576	60	8108
2026-01-07 12:18:12.73	52.23	12.42	-43.2	-44.4	20.9	0.00e+00	23	34	101	1048576	60	8128
2026-01-07 12:18:13.74	52.41	12.45	-43.0	-44.3	21.1	0.00e+00	0	34	101	1048576	60	7956
2026-01-07 12:18:14.75	52.59	12.49	-43.1	-44.3	21.1	0.00e+00	73	34	101	1048576	60	7982
2026-01-07 12:18:15.76	52.78	12.53	-43.1	-44.4	21.0	0.00e+00	0	34	101	1048576	60	8048
2026-01-07 12:18:16.77	52.96	12.57	-42.9	-44.1	21.1	0.00e+00	0	34	101	1048576	60	7834
2026-01-07 12:18:17.78	53.14	12.60	-43.2	-44.4	21.0	0.00e+00	0	34	101	1048576	60	8074
2026-01-07 12:18:18.79	53.32	12.64	-43.2	-44.4	20.9	0.00e+00	0	34	101	1048576	60	8129
2026-01-07 12:18:19.80	53.51	12.68	-43.1	-44.3	21.1	0.00e+00	23	34	101	1048576	60	8036
2026-01-07 12:18:20.82	53.69	12.71	-43.2	-44.4	21.0	0.00e+00	0	34	101	1048576	60	8100
2026-01-07 12:18:21.83	53.88	12.75	-43.3	-44.5	20.9	0.00e+00	91	34	101	1048576	60	8192
2026-01-07 12:18:22.84	54.06	12.78	-43.2	-44.4	21.0	0.00e+00	0	34	101	1048576	60	8129
2026-01-07 12:18:23.85	54.25	12.82	-43.2	-44.5	21.0	0.00e+00	0	34	101	1048576	60	8147
2026-01-07 12:18:24.86	54.43	12.85	-43.4	-44.6	20.9	0.00e+00	0	34	101	1048576	60	8302
2026-01-07 12:18:25.87	54.62	12.89	-43.5	-44.8	20.6	0.00e+00	0	34	101	1048576	60	8441
2026-01-07 12:18:26.88	54.80	12.92	-43.3	-44.5	20.9	0.00e+00	62	34	101	1048576	60	8188
2026-01-07 12:18:27.89	54.99	12.96	-43.3	-44.5	20.9	0.00e+00	0	35	101	1048576	60	8222
2026-01-07 12:18:28.90	55.18	12.99	-43.1	-44.3	21.1	0.00e+00	70	34	101	1048576	60	8036
2026-01-07 12:18:29.91	55.37	13.03	-43.1	-44.4	21.1	0.00e+00	0	35	101	1048576	60	8063
2026-01-07 12:18:30.92	55.55	13.06	-42.7	-43.8	21.6	0.00e+00	0	34	101	1048576	60	7561
2026-01-07 12:18:31.93	55.74	13.09	-42.4	-43.5	21.5	0.00e+00	0	34	101	1048576	60	7334
2026-01-07 12:18:32.95	55.93	13.13	-42.2	-43.3	21.9	0.00e+00	0	34	101	1048576	60	7138
2026-01-07 12:18:33.96	56.12	13.16	-42.2	-43.3	22.0	0.00e+00	26	34	101	1048576	60	7147
2026-01-07 12:18:34.97	56.31	13.19	-42.1	-43.1	22.1	0.00e+00	0	35	101	1048576	60	7004
2026-01-07 12:18:35.98	56.50	13.23	-41.7	-42.8	22.4	0.00e+00	12	34	101	1048576	60	6693
2026-01-07 12:18:36.99	56.69	13.26	-41.7	-42.7	22.5	0.00e+00	0	34	101	1048576	60	6664
2026-01-07 12:18:38.00	56.88	13.29	-41.5	-42.5	22.5	0.00e+00	0	35	101	1048576	60	6470
2026-01-07 12:18:39.01	57.08	13.32	-41.3	-42.3	22.7	0.00e+00	0	34	101	1048576	60	6371
2026-01-07 12:18:40.02	57.27	13.35	-41.4	-42.4	22.7	0.00e+00	0	34	101	1048576	60	6434
2026-01-07 12:18:41.03	57.46	13.39	-41.5	-42.4	22.6	0.00e+00	73	34	101	1048576	60	6462
2026-01-07 12:18:42.05	57.65	13.42	-41.5	-42.5	22.6	0.00e+00	0	34	101	1048576	60	6522
2026-01-07 12:18:43.05	57.85	13.45	-41.7	-42.7	22.4	0.00e+00	85	34	101	1048576	60	6686
2026-01-07 12:18:44.06	58.04	13.48	-41.8	-42.9	22.3	0.00e+00	0	34	101	1048576	60	6793
2026-01-07 12:18:45.08	58.23	13.51	-41.9	-42.9	22.3	0.00e+00	24	34	101	1048576	60	6817
2026-01-07 12:18:46.09	58.43	13.54	-41.9	-42.9	22.0	0.00e+00	0	34	101	1048576	60	6811
2026-01-07 12:18:47.10	58.62	13.57	-41.8	-42.8	21.8	0.00e+00	0	34	101	1048576	60	6727
2026-01-07 12:18:48.11	58.82	13.60	-41.6	-42.6	22.4	0.00e+00	20	34	101	1048576	60	6586
2026-01-07 12:18:49.12	59.01	13.63	-41.4	-42.4	22.7	0.00e+00	0	34	101	1048576	60	6408
2026-01-07 12:18:50.13	59.21	13.66	-41.1	-42.0	22.9	0.00e+00	92	34	101	1048576	60	6173
2026-01-07 12:18:51.14	59.41	13.69	-40.9	-41.8	23.2	0.00e+00	23	34	101	1048576	60	6000
2026-01-07 12:18:52.15	59.60	13.71	-41.0	-42.0	23.0	0.00e+00	78	34	101	1048576	60	6137
2026-01-07 12:18:53.16	59.80	13.74	-41.3	-42.3	22.9	0.00e+00	0	34	101	1048576	60	6352
2026-01-07 12:18:54.17	60.00	13.77	-41.5	-42.5	22.5	0.00e+00	0	34	101	1048576	60	6528
2026-01-07 12:18:55.19	60.20	13.80	-41.8	-42.9	22.4	0.00e+00	0	34	101	1048576	60	6776
2026-01-07 12:18:56.20	60.39	13.83	-41.9	-42.9	22.3	0.00e+00	0	34	101	1048576	60	6815
2026-01-07 12:18:57.21	60.59	13.85	-41.8	-42.9	22.2	0.00e+00	88	34	101	1048576	60	6796
2026-01-07 12:18:58.22	60.79	13.88	-41.5	-42.5	22.7	0.00e+00	0	34	101	1048576	60	6505
2026-01-07 12:18:59.23	60.99	13.91	-41.4	-42.4	22.7	0.00e+00	63	34	101	1048576	60	6412
2026-01-07 12:19:00.24	61.19	13.93	-41.1	-42.0	22.9	0.00e+00	0	34	101	1048576	60	6170
2026-01-07 12:19:01.25	61.39	13.96	-41.2	-42.1	22.7	0.00e+00	0	34	101	1048576	60	6218
2026-01-07 12:19:02.26	61.59	13.98	-41.5	-42.5	22.6	0.00e+00	27	34	101	1048576	60	6515
2026-01-07 12:19:03.27	61.79	14.01	-41.7	-42.8	22.3	0.00e+00	0	35	101	1048576	60	6703
2026-01-07 12:19:04.29	61.99	14.03	-42.2	-43.3	22.0	0.00e+00	25	34	101	1048576	60	7132
2026-01-07 12:19:05.30	62.19	14.06	-42.3	-43.4	21.7	0.00e+00	0	34	101	1048576	60	7248
2026-01-07 12:19:06.31	62.39	14.08	-42.3	-43.4	21.9	0.00e+00	60	35	101	1048576	60	7171
2026-01-07 12:19:07.32	62.60	14.11	-42.1	-43.1	22.1	0.00e+00	0	34	101	1048576	60	6991
2026-01-07 12:19:08.33	62.80	14.13	-42.0	-43.1	22.3	0.00e+00	0	35	101	1048576	60	6939
2026-01-07 12:19:09.34	63.00	14.16	-41.8	-42.9	22.3	0.00e+00	0	34	101	1048576	60	6792
2026-01-07 12:19:10.35	63.20	14.18	-42.0	-43.1	22.2	0.00e+00	0	35	101	1048576	60	6931
2026-01-07 12:19:11.36	63.40	14.20	-42.3	-43.4	21.8	0.00e+00	69	35	101	1048576	60	7210
2026-01-07 12:19:12.37	63.61	14.22	-43.0	-44.3	21.2	0.00e+00	0	34	101	1048576	60	7961
2026-01-07 12:19:13.38	63.81	14.25	-43.5	-44.8	20.7	0.00e+00	91	34	101	1048576	60	8449
2026-01-07 12:19:14.40	64.02	14.27	-43.8	-45.1	20.3	0.00e+00	0	34	101	1048576	60	8809
2026-01-07 12:19:15.41	64.22	14.29	-43.6	-44.8	20.6	0.00e+00	0	35	101	1048576	60	8510
2026-01-07 12:19:16.42	64.43	14.31	-43.2	-44.5	21.0	0.00e+00	0	34	101	1048576	60	8150
2026-01-07 12:19:17.43	64.63	14.33	-42.9	-44.0	21.5	0.00e+00	0	34	101	1048576	60	7771
2026-01-07 12:19:18.44	64.84	14.35	-42.2	-43.3	22.1	0.00e+00	21	34	101	1048576	60	7093
2026-01-07 12:19:19.45	65.04	14.37	-41.7	-42.7	22.5	0.00e+00	0	35	101	1048576	60	6657
2026-01-07 12:19:20.46	65.25	14.40	-41.8	-42.9	22.3	0.00e+00	92	35	101	1048576	60	6770
2026-01-07 12:19:21.47	65.45	14.41	-41.9	-43.0	22.3	0.00e+00	0	35	101	1048576	60	6855
2026-01-07 12:19:22.48	65.66	14.43	-42.3	-43.4	21.9	0.00e+00	0	35	101	1048576	60	7202
2026-01-07 12:19:23.50	65.87	14.45	-42.6	-43.7	21.6	0.00e+00	0	34	101	1048576	60	7508
2026-01-07 12:19:24.51	66.07	14.47	-42.4	-43.5	21.8	0.00e+00	0	34	101	1048576	60	7320
2026-01-07 12:19:25.52	66.28	14.49	-42.2	-43.3	22.0	0.00e+00	22	34	101	1048576	60	7098
2026-01-07 12:19:26.53	66.49	14.51	-41.9	-43.0	22.1	0.00e+00	0	34	101	1048576	60	6885
2026-01-07 12:19:27.54	66.70	14.53	-41.5	-42.5	22.6	0.00e+00	92	34	101	1048576	60	6509
2026-01-07 12:19:28.55	66.90	14.54	-41.4	-42.4	22.6	0.00e+00	0	34	101	1048576	60	6443
2026-01-07 12:19:29.56	67.11	14.56	-41.4	-42.4	22.7	0.00e+00	40	34	101	1048576	60	6409
2026-01-07 12:19:30.57	67.32	14.58	-41.3	-42.2	22.8	0.00e+00	0	34	101	1048576	60	6312
2026-01-07 12:19:31.58	67.53	14.59	-41.4	-42.5	22.7	0.00e+00	0	34	101	1048576	60	6471
2026-01-07 12:19:32.59	67.74	14.61	-41.6	-42.6	22.6	0.00e+00	25	34	101	1048576	60	6579
2026-01-07 12:19:33.61	67.95	14.63	-41.6	-42.7	22.6	0.00e+00	0	35	101	1048576	60	6617
2026-01-07 12:19:34.62	68.16	14.64	-41.3	-42.3	22.9	0.00e+00	90	34	101	1048576	60	6339
2026-01-07 12:19:35.63	68.37	14.66	-41.0	-42.0	23.1	0.00e+00	0	34	101	1048576	60	6145
2026-01-07 12:19:36.64	68.57	14.67	-41.1	-42.1	23.0	0.00e+00	0	34	101	1048576	60	6211
2026-01-07 12:19:37.65	68.78	14.69	-41.1	-42.1	23.0	0.00e+00	0	34	101	1048576	60	6181
2026-01-07 12:19:38.66	68.99	14.70	-41.3	-42.3	22.7	0.00e+00	0	34	101	1048576	60	6388
2026-01-07 12:19:39.67	69.20	14.71	-41.5	-42.5	22.7	0.00e+00	24	34	101	1048576	60	6513
2026-01-07 12:19:40.68	69.41	14.73	-41.8	-42.9	22.4	0.00e+00	0	35	101	1048576	60	6812
2026-01-07 12:19:41.69	69.62	14.74	-41.8	-42.9	22.3	0.00e+00	44	35	101	1048576	60	6821
2026-01-07 12:19:42.70	69.84	14.75	-41.9	-43.0	22.3	0.00e+00	0	35	101	1048576	60	6866
2026-01-07 12:19:43.72	70.05	14.77	-41.5	-42.6	22.6	0.00e+00	88	35	101	1048576	60	6548
2026-01-07 12:19:44.73	70.26	14.78	-41.3	-42.3	22.8	0.00e+00	0	34	101	1048576	60	6357
2026-01-07 12:19:45.74	70.47	14.79	-41.0	-42.0	23.1	0.00e+00	0	34	101	1048576	60	6130
2026-01-07 12:19:46.75	70.68	14.80	-40.9	-41.8	23.1	0.00e+00	0	34	101	1048576	60	6017
2026-01-07 12:19:47.76	70.89	14.81	-41.1	-42.1	23.0	0.00e+00	0	34	101	1048576	60	6210
2026-01-07 12:19:48.77	71.10	14.82	-41.4	-42.4	22.7	0.00e+00	90	34	101	1048576	60	6455
2026-01-07 12:19:49.78	71.32	14.83	-41.7	-42.8	22.5	0.00e+00	0	34	101	1048576	60	6694
2026-01-07 12:19:50.79	71.53	14.84	-42.1	-43.1	22.2	0.00e+00	92	34	101	1048576	60	6989
2026-01-07 12:19:51.80	71.74	14.85	-42.1	-43.1	22.1	0.00e+00	0	34	101	1048576	60	7001
2026-01-07 12:19:52.82	71.95	14.86	-42.1	-43.1	22.1	0.00e+00	0	35	101	1048576	60	7004
2026-01-07 12:19:53.83	72.17	14.87	-42.1	-43.2	22.1	0.00e+00	0	34	101	1048576	60	7035
2026-01-07 12:19:54.84	72.38	14.88	-42.0	-43.0	22.1	0.00e+00	0	35	101	1048576	60	6902
2026-01-07 12:19:55.85	72.59	14.89	-42.1	-43.2	22.0	0.00e+00	86	35	101	1048576	60	7035
2026-01-07 12:19:56.86	72.80	14.89	-42.0	-43.0	22.2	0.00e+00	0	34	101	1048576	60	6896
2026-01-07 12:19:57.87	73.02	14.90	-41.9	-42.9	22.3	0.00e+00	92	34	101	1048576	60	6835
2026-01-07 12:19:58.88	73.23	14.91	-41.8	-42.9	22.3	0.00e+00	0	34	101	1048576	60	6774
2026-01-07 12:19:59.89	73.44	14.91	-41.7	-42.8	22.4	0.00e+00	0	35	101	1048576	60	6704
2026-01-07 12:20:00.90	73.66	14.92	-41.5	-42.5	22.5	0.00e+00	0	35	101	1048576	60	6532
2026-01-07 12:20:01.92	73.87	14.93	-41.6	-42.6	22.6	0.00e+00	0	35	101	1048576	60	6555
2026-01-07 12:20:02.93	74.08	14.93	-41.6	-42.6	22.6	0.00e+00	26	35	101	1048576	60	6574
2026-01-07 12:20:03.94	74.30	14.94	-41.7	-42.7	22.5	0.00e+00	0	34	101	1048576	60	6655
2026-01-07 12:20:04.95	74.51	14.94	-41.9	-42.9	22.3	0.00e+00	91	34	101	1048576	60	6832
2026-01-07 12:20:05.96	74.72	14.95	-42.0	-43.1	22.1	0.00e+00	0	34	101	1048576	60	6981
2026-01-07 12:20:06.97	74.94	14.95	-42.0	-43.1	22.1	0.00e+00	0	34	101	1048576	60	6992
2026-01-07 12:20:07.98	75.15	14.95	-42.0	-43.1	22.2	0.00e+00	0	34	101	1048576	60	6955
2026-01-07 12:20:08.99	75.36	14.96	-41.8	-42.8	22.4	0.00e+00	0	34	101	1048576	60	6720
2026-01-07 12:20:10.00	75.58	14.96	-41.4	-42.4	22.7	0.00e+00	22	34	101	1048576	60	6395
2026-01-07 12:20:11.01	75.79	14.96	-41.2	-42.1	23.0	0.00e+00	0	34	101	1048576	60	6219
2026-01-07 12:20:12.02	76.01	14.96	-41.2	-42.2	22.8	0.00e+00	86	34	101	1048576	60	6264
2026-01-07 12:20:13.04	76.22	14.97	-41.2	-42.1	22.9	0.00e+00	0	34	101	1048576	60	6232
2026-01-07 12:20:14.04	76.43	14.97	-41.4	-42.4	22.7	0.00e+00	0	34	101	1048576	60	6431
2026-01-07 12:20:15.06	76.65	14.97	-41.4	-42.4	22.7	0.00e+00	0	35	101	1048576	60	6420
2026-01-07 12:20:16.07	76.86	14.97	-41.5	-42.5	22.7	0.00e+00	0	35	101	1048576	60	6473
2026-01-07 12:20:17.08	77.08	14.97	-41.3	-42.4	22.7	0.00e+00	25	35	101	1048576	60	6393
2026-01-07 12:20:18.09	77.29	14.97	-41.3	-42.3	22.9	0.00e+00	0	35	101	1048576	60	6359
2026-01-07 12:20:19.10	77.50	14.97	-41.1	-42.1	23.0	0.00e+00	86	35	101	1048576	60	6176
2026-01-07 12:20:20.11	77.72	14.97	-41.0	-41.9	23.0	0.00e+00	0	34	101	1048576	60	6101
2026-01-07 12:20:21.12	77.93	14.97	-41.0	-42.0	23.1	0.00e+00	92	35	101	1048576	60	6119
2026-01-07 12:20:22.13	78.15	14.97	-41.2	-42.2	22.9	0.00e+00	25	34	101	1048576	60	6312
2026-01-07 12:20:23.14	78.36	14.96	-41.2	-42.2	22.9	0.00e+00	0	34	101	1048576	60	6289
2026-01-07 12:20:24.15	78.57	14.96	-41.2	-42.2	23.0	0.00e+00	0	35	101	1048576	60	6268
2026-01-07 12:20:25.17	78.79	14.96	-41.1	-42.1	23.1	0.00e+00	7	35	101	1048576	60	6176
2026-01-07 12:20:26.18	79.00	14.96	-40.9	-41.8	23.2	0.00e+00	90	35	101	1048576	60	6017
2026-01-07 12:20:27.19	79.22	14.95	-40.7	-41.6	23.4	0.00e+00	0	35	101	1048576	60	5844
2026-01-07 12:20:28.20	79.43	14.95	-40.5	-41.4	23.6	0.00e+00	92	35	101	1048576	60	5740
2026-01-07 12:20:29.21	79.64	14.94	-40.3	-41.3	23.6	0.00e+00	0	35	101	1048576	60	5631
2026-01-07 12:20:30.22	79.86	14.94	-40.2	-41.1	23.7	0.00e+00	0	35	101	1048576	60	5552
2026-01-07 12:20:31.23	80.07	14.93	-40.4	-41.3	23.5	0.00e+00	0	34	101	1048576	60	5694
2026-01-07 12:20:32.24	80.28	14.93	-40.6	-41.5	23.2	0.00e+00	0	35	101	1048576	60	5809
2026-01-07 12:20:33.25	80.50	14.92	-40.9	-41.9	23.1	0.00e+00	92	34	101	1048576	60	6054
2026-01-07 12:20:34.26	80.71	14.92	-41.1	-42.1	22.9	0.00e+00	0	34	101	1048576	60	6224
2026-01-07 12:20:35.27	80.92	14.91	-41.3	-42.2	22.8	0.00e+00	90	34	101	1048576	60	6312
2026-01-07 12:20:36.29	81.14	14.90	-41.8	-42.9	22.1	0.00e+00	0	35	101	1048576	60	6771
2026-01-07 12:20:37.29	81.35	14.90	-41.3	-42.3	22.8	0.00e+00	0	35	101	1048576	60	6372
2026-01-07 12:20:38.30	81.56	14.89	-41.3	-42.3	22.7	0.00e+00	0	34	101	1048576	60	6379
2026-01-07 12:20:39.32	81.78	14.88	-41.4	-42.4	22.8	0.00e+00	0	35	101	1048576	60	6397
2026-01-07 12:20:40.33	81.99	14.87	-41.4	-42.4	22.7	0.00e+00	28	34	101	1048576	60	6439
2026-01-07 12:20:41.34	82.20	14.87	-41.2	-42.2	22.9	0.00e+00	0	35	101	1048576	60	6265
2026-01-07 12:20:42.35	82.41	14.86	-41.2	-42.2	22.9	0.00e+00	72	34	101	1048576	60	6276
2026-01-07 12:20:43.36	82.63	14.85	-41.2	-42.2	22.9	0.00e+00	0	34	101	1048576	60	6311
2026-01-07 12:20:44.37	82.84	14.84	-41.4	-42.4	22.7	0.00e+00	0	35	101	1048576	60	6422
2026-01-07 12:20:45.38	83.05	14.83	-41.5	-42.5	22.6	0.00e+00	0	35	101	1048576	60	6516
2026-01-07 12:20:46.39	83.26	14.82	-41.6	-42.7	22.5	0.00e+00	0	35	101	1048576	60	6627
2026-01-07 12:20:47.40	83.47	14.81	-41.6	-42.6	22.6	0.00e+00	21	35	101	1048576	60	6576
2026-01-07 12:20:48.41	83.69	14.80	-41.5	-42.5	22.6	0.00e+00	0	34	101	1048576	60	6535
2026-01-07 12:20:49.42	83.90	14.78	-41.4	-42.5	22.4	0.00e+00	92	35	101	1048576	60	6468
2026-01-07 12:20:50.44	84.11	14.77	-41.5	-42.6	22.6	0.00e+00	0	34	101	1048576	60	6570
2026-01-07 12:20:51.44	84.32	14.76	-41.6	-42.7	22.6	0.00e+00	0	35	101	1048576	60	6629
2026-01-07 12:20:52.46	84.53	14.75	-41.3	-42.3	22.8	0.00e+00	0	35	101	1048576	60	6371
2026-01-07 12:20:53.46	84.74	14.73	-41.4	-42.4	22.7	0.00e+00	0	35	101	1048576	60	6407
2026-01-07 12:20:54.48	84.95	14.72	-41.1	-42.1	22.9	0.00e+00	43	34	101	1048576	60	6223
2026-01-07 12:20:55.49	85.16	14.71	-41.1	-42.1	23.0	0.00e+00	0	35	101	1048576	60	6225
2026-01-07 12:20:56.50	85.37	14.69	-40.9	-41.9	23.1	0.00e+00	92	34	101	1048576	60	6039
2026-01-07 12:20:57.51	85.58	14.68	-40.9	-41.9	23.1	0.00e+00	0	34	101	1048576	60	6047
2026-01-07 12:20:58.52	85.79	14.66	-40.7	-41.6	23.3	0.00e+00	0	34	101	1048576	60	5862
2026-01-07 12:20:59.53	86.00	14.65	-40.6	-41.5	23.3	0.00e+00	0	35	101	1048576	60	5808
2026-01-07 12:21:00.54	86.21	14.63	-40.2	-41.2	23.7	0.00e+00	0	34	101	1048576	60	5568
2026-01-07 12:21:01.55	86.42	14.62	-40.0	-40.9	23.8	0.00e+00	21	34	101	1048576	58	6081
2026-01-07 12:21:02.57	86.63	14.60	-40.1	-41.0	23.6	0.00e+00	0	34	101	1048576	58	6112
2026-01-07 12:21:03.58	86.84	14.59	-40.0	-40.9	23.9	0.00e+00	92	35	101	1048576	58	6040
2026-01-07 12:21:04.59	87.05	14.57	-40.1	-41.0	23.8	0.00e+00	0	35	101	1048576	58	6132
2026-01-07 12:21:05.60	87.26	14.55	-40.0	-40.9	23.7	0.00e+00	71	34	101	1048576	58	6073
2026-01-07 12:21:06.61	87.47	14.54	-40.2	-41.1	23.7	0.00e+00	0	35	101	1048576	58	6186
2026-01-07 12:21:07.62	87.68	14.52	-40.1	-41.0	23.8	0.00e+00	0	35	101	1048576	58	6157
2026-01-07 12:21:08.63	87.88	14.50	-40.2	-41.0	23.7	0.00e+00	0	35	101	1048576	58	6161
2026-01-07 12:21:09.64	88.09	14.48	-39.9	-40.8	23.9	0.00e+00	0	34	101	1048576	58	5984
2026-01-07 12:21:10.65	88.30	14.46	-40.0	-40.9	23.9	0.00e+00	22	35	101	1048576	58	6034
2026-01-07 12:21:11.66	88.50	14.44	-40.0	-40.9	23.8	0.00e+00	0	35	101	1048576	58	6075
2026-01-07 12:21:12.68	88.71	14.42	-40.1	-41.0	23.7	0.00e+00	89	35	101	1048576	58	6135
2026-01-07 12:21:13.69	88.92	14.40	-40.5	-41.4	23.5	0.00e+00	0	34	101	1048576	58	6416
2026-01-07 12:21:14.70	89.13	14.38	-40.5	-41.4	23.4	0.00e+00	0	34	101	1048576	58	6442
2026-01-07 12:21:15.71	89.33	14.36	-40.8	-41.8	23.1	0.00e+00	0	34	101	1048576	58	6711
2026-01-07 12:21:16.72	89.54	14.34	-40.8	-41.7	23.2	0.00e+00	0	35	101	1048576	58	6661
2026-01-07 12:21:17.73	89.74	14.32	-40.9	-41.8	23.2	0.00e+00	24	34	101	1048576	58	6731
2026-01-07 12:21:18.74	89.95	14.30	-40.9	-41.9	23.1	0.00e+00	0	34	101	1048576	58	6773
2026-01-07 12:21:19.75	90.15	14.28	-40.8	-41.7	23.2	0.00e+00	92	34	101	1048576	58	6691
2026-01-07 12:21:20.76	90.36	14.26	-40.9	-41.9	23.1	0.00e+00	0	35	101	1048576	58	6772
2026-01-07 12:21:21.78	90.56	14.23	-40.8	-41.8	23.3	0.00e+00	0	34	101	1048576	58	6693
2026-01-07 12:21:22.79	90.77	14.21	-40.7	-41.7	23.2	0.00e+00	0	35	101	1048576	58	6620
2026-01-07 12:21:23.80	90.97	14.19	-40.7	-41.6	23.2	0.00e+00	0	35	101	1048576	58	6585
2026-01-07 12:21:24.81	91.17	14.17	-40.8	-41.8	23.1	0.00e+00	28	34	101	1048576	58	6698
2026-01-07 12:21:25.82	91.38	14.14	-40.6	-41.5	23.1	0.00e+00	0	34	101	1048576	58	6539
2026-01-07 12:21:26.83	91.58	14.12	-40.4	-41.3	23.4	0.00e+00	91	34	101	1048576	58	6363
2026-01-07 12:21:27.84	91.78	14.09	-40.0	-40.9	23.8	0.00e+00	0	34	101	1048576	58	6067
2026-01-07 12:21:28.85	91.98	14.07	-39.8	-40.7	24.0	0.00e+00	6	35	101	1048576	58	5903
2026-01-07 12:21:29.86	92.18	14.04	-39.7	-40.5	24.1	0.00e+00	0	35	101	1048576	58	5803
2026-01-07 12:21:30.87	92.39	14.02	-39.6	-40.4	24.1	0.00e+00	0	34	101	1048576	58	5751
2026-01-07 12:21:31.88	92.59	13.99	-39.5	-40.3	24.0	0.00e+00	63	35	101	1048576	58	5689
2026-01-07 12:21:32.89	92.79	13.97	-39.5	-40.3	24.2	0.00e+00	0	34	101	1048576	58	5694
2026-01-07 12:21:33.90	92.99	13.94	-39.3	-40.1	24.4	0.00e+00	90	34	101	1048576	58	5563
2026-01-07 12:21:34.91	93.19	13.92	-39.5	-40.3	24.3	0.00e+00	0	34	101	1048576	58	5672
2026-01-07 12:21:35.92	93.39	13.89	-39.8	-40.6	24.1	0.00e+00	0	34	101	1048576	58	5877
2026-01-07 12:21:36.93	93.59	13.86	-39.8	-40.7	24.0	0.00e+00	0	35	101	1048576	58	5906
2026-01-07 12:21:37.94	93.79	13.84	-39.9	-40.8	23.9	0.00e+00	0	35	101	1048576	58	5993
2026-01-07 12:21:38.96	93.99	13.81	-39.9	-40.8	23.9	0.00e+00	47	35	101	1048576	58	6002
2026-01-07 12:21:39.97	94.18	13.78	-40.0	-40.8	23.6	0.00e+00	0	35	101	1048576	58	6023
2026-01-07 12:21:40.98	94.38	13.75	-40.0	-40.8	23.8	0.00e+00	90	35	101	1048576	58	6028
2026-01-07 12:21:41.99	94.58	13.72	-39.9	-40.8	23.9	0.00e+00	0	35	101	1048576	58	6001
2026-01-07 12:21:43.00	94.78	13.70	-40.2	-41.1	23.6	0.00e+00	12	34	101	1048576	58	6212
2026-01-07 12:21:44.01	94.97	13.67	-40.4	-41.3	23.5	0.00e+00	0	34	101	1048576	58	6371
2026-01-07 12:21:45.02	95.17	13.64	-40.6	-41.5	23.4	0.00e+00	0	34	101	1048576	58	6495
2026-01-07 12:21:46.03	95.37	13.61	-40.7	-41.6	23.3	0.00e+00	54	35	101	1048576	58	6614
2026-01-07 12:21:47.04	95.56	13.58	-40.5	-41.4	23.4	0.00e+00	0	35	101	1048576	58	6432
2026-01-07 12:21:48.05	95.76	13.55	-40.3	-41.2	23.6	0.00e+00	12	35	101	1048576	58	6279
2026-01-07 12:21:49.06	95.95	13.52	-40.2	-41.0	23.6	0.00e+00	0	34	101	1048576	58	6161
2026-01-07 12:21:50.07	96.15	13.49	-40.2	-41.1	23.6	0.00e+00	92	34	101	1048576	58	6221
2026-01-07 12:21:51.08	96.34	13.46	-40.1	-41.0	23.7	0.00e+00	33	35	101	1048576	58	6112
2026-01-07 12:21:52.10	96.54	13.43	-40.2	-41.1	23.8	0.00e+00	0	34	101	1048576	58	6202
2026-01-07 12:21:53.11	96.73	13.40	-40.2	-41.1	23.6	0.00e+00	0	34	101	1048576	58	6200
2026-01-07 12:21:54.12	96.92	13.36	-40.3	-41.2	23.6	0.00e+00	0	34	101	1048576	58	6291
2026-01-07 12:21:55.13	97.12	13.33	-40.2	-41.2	23.6	0.00e+00	92	34	101	1048576	58	6248
2026-01-07 12:21:56.14	97.31	13.30	-40.2	-41.1	23.7	0.00e+00	21	34	101	1048576	58	6191
2026-01-07 12:21:57.15	97.50	13.27	-40.2	-41.1	23.6	0.00e+00	70	34	101	1048576	58	6175
2026-01-07 12:21:58.16	97.69	13.24	-40.0	-40.8	23.8	0.00e+00	0	34	101	1048576	58	6033
2026-01-07 12:21:59.17	97.88	13.20	-40.1	-40.9	23.8	0.00e+00	0	34	101	1048576	58	6095
2026-01-07 12:22:00.18	98.07	13.17	-40.2	-41.1	23.6	0.00e+00	0	34	101	1048576	58	6198
2026-01-07 12:22:01.19	98.26	13.14	-40.4	-41.3	23.5	0.00e+00	0	34	101	1048576	58	6387
2026-01-07 12:22:02.20	98.45	13.10	-40.5	-41.5	23.4	0.00e+00	25	34	101	1048576	58	6468
2026-01-07 12:22:03.22	98.64	13.07	-40.6	-41.5	23.3	0.00e+00	0	34	101	1048576	58	6517
2026-01-07 12:22:04.23	98.83	13.04	-40.7	-41.6	23.2	0.00e+00	81	34	101	1048576	58	6585
2026-01-07 12:22:05.24	99.02	13.00	-41.0	-42.0	22.9	0.00e+00	0	35	101	1048576	58	6853
2026-01-07 12:22:06.25	99.21	12.97	-41.3	-42.3	22.7	0.00e+00	0	35	101	1048576	60	6332
2026-01-07 12:22:07.26	99.40	12.93	-41.3	-42.3	22.8	0.00e+00	0	35	101	1048576	60	6331
2026-01-07 12:22:08.27	99.58	12.90	-41.3	-42.2	22.7	0.00e+00	0	34	101	1048576	60	6315
2026-01-07 12:22:09.28	99.77	12.86	-41.4	-42.4	22.6	0.00e+00	60	35	101	1048576	60	6422
2026-01-07 12:22:10.29	99.96	12.83	-41.5	-42.5	22.4	0.00e+00	0	34	101	1048576	60	6472
2026-01-07 12:22:11.30	100.14	12.79	-41.3	-42.3	22.6	0.00e+00	92	34	101	1048576	60	6350
2026-01-07 12:22:12.31	100.33	12.76	-41.5	-42.5	22.5	0.00e+00	0	34	101	1048576	60	6478
2026-01-07 12:22:13.32	100.51	12.72	-41.6	-42.6	22.2	0.00e+00	0	34	101	1048576	60	6596
2026-01-07 12:22:14.33	100.70	12.68	-41.5	-42.6	22.4	0.00e+00	0	35	101	1048576	60	6548
2026-01-07 12:22:15.34	100.88	12.65	-41.9	-42.9	22.1	0.00e+00	0	34	101	1048576	60	6816
2026-01-07 12:22:16.35	101.07	12.61	-42.2	-43.3	22.0	0.00e+00	63	34	101	1048576	60	7120
2026-01-07 12:22:17.37	101.25	12.57	-42.1	-43.2	21.9	0.00e+00	0	35	101	1048576	60	7040
2026-01-07 12:22:18.38	101.43	12.54	-42.0	-43.1	22.1	0.00e+00	92	35	101	1048576	60	6957
2026-01-07 12:22:19.39	101.62	12.50	-42.2	-43.3	22.0	0.00e+00	0	35	101	1048576	60	7162
2026-01-07 12:22:20.40	101.80	12.46	-42.2	-43.3	21.9	0.00e+00	85	35	101	1048576	60	7118
2026-01-07 12:22:21.41	101.98	12.42	-42.4	-43.6	21.8	0.00e+00	0	35	101	1048576	60	7345
2026-01-07 12:22:22.42	102.16	12.39	-42.4	-43.5	21.8	0.00e+00	0	35	101	1048576	60	7274
2026-01-07 12:22:23.43	102.34	12.35	-42.7	-43.8	21.5	0.00e+00	61	34	101	1048576	60	7571
2026-01-07 12:22:24.44	102.52	12.31	-42.9	-44.1	21.1	0.00e+00	0	34	101	1048576	60	7846
2026-01-07 12:22:25.45	102.70	12.27	-42.9	-44.1	21.3	0.00e+00	92	34	101	1048576	60	7774
2026-01-07 12:22:26.47	102.88	12.23	-42.8	-44.0	21.2	0.00e+00	0	35	101	1048576	60	7770
2026-01-07 12:22:27.48	103.06	12.19	-42.3	-43.5	21.7	0.00e+00	3	35	101	1048576	60	7264
2026-01-07 12:22:28.49	103.24	12.16	-42.2	-43.3	21.9	0.00e+00	0	35	101	1048576	60	7152
2026-01-07 12:22:29.50	103.42	12.12	-41.6	-42.6	22.2	0.00e+00	0	35	101	1048576	60	6599
2026-01-07 12:22:30.51	103.59	12.08	-41.6	-42.6	22.5	0.00e+00	0	35	101	1048576	60	6609
2026-01-07 12:22:31.52	103.77	12.04	-41.5	-42.5	22.5	0.00e+00	0	35	101	1048576	60	6479
2026-01-07 12:22:32.53	103.95	12.00	-41.6	-42.6	22.3	0.00e+00	28	34	101	1048576	60	6607
2026-01-07 12:22:33.54	104.12	11.96	-41.9	-43.0	22.1	0.00e+00	0	34	101	1048576	60	6874
2026-01-07 12:22:34.55	104.30	11.92	-42.2	-43.3	21.8	0.00e+00	92	35	101	1048576	60	7116
2026-01-07 12:22:35.56	104.47	11.88	-42.6	-43.7	21.5	0.00e+00	0	34	101	1048576	60	7504
2026-01-07 12:22:36.57	104.65	11.84	-42.8	-44.0	21.4	0.00e+00	0	34	101	1048576	60	7704
2026-01-07 12:22:37.58	104.82	11.80	-42.9	-44.0	21.3	0.00e+00	0	34	101	1048576	60	7762
2026-01-07 12:22:38.59	105.00	11.76	-42.9	-44.1	21.2	0.00e+00	0	34	101	1048576	60	7843
2026-01-07 12:22:39.60	105.17	11.71	-43.2	-44.5	20.9	0.00e+00	35	35	101	1048576	60	8154
2026-01-07 12:22:40.62	105.35	11.67	-43.4	-44.6	20.7	0.00e+00	0	35	101	1048576	60	8317
2026-01-07 12:22:41.63	105.52	11.63	-43.2	-44.4	20.8	0.00e+00	90	35	101	1048576	60	8091
2026-01-07 12:22:42.64	105.69	11.59	-43.6	-44.9	20.5	0.00e+00	0	35	101	1048576	60	8595
2026-01-07 12:22:43.65	105.86	11.55	-43.4	-44.6	20.8	0.00e+00	0	34	101	1048576	60	8325
2026-01-07 12:22:44.66	106.03	11.51	-43.1	-44.4	20.9	0.00e+00	0	35	101	1048576	60	8051
2026-01-07 12:22:45.67	106.20	11.47	-42.9	-44.1	21.2	0.00e+00	0	35	101	1048576	60	7860
2026-01-07 12:22:46.68	106.37	11.42	-42.5	-43.7	21.5	0.00e+00	22	35	101	1048576	60	7436
2026-01-07 12:22:47.69	106.54	11.38	-42.4	-43.6	21.6	0.00e+00	0	35	101	1048576	60	7341
2026-01-07 12:22:48.70	106.71	11.34	-41.9	-43.0	22.1	0.00e+00	92	35	101	1048576	60	6878
2026-01-07 12:22:49.71	106.88	11.30	-42.1	-43.1	21.9	0.00e+00	0	34	101	1048576	60	7004
2026-01-07 12:22:50.72	107.05	11.25	-42.2	-43.3	21.9	0.00e+00	0	34	101	1048576	60	7091
2026-01-07 12:22:51.74	107.22	11.21	-42.3	-43.4	21.8	0.00e+00	0	35	101	1048576	60	7219
2026-01-07 12:22:52.75	107.38	11.17	-42.4	-43.5	21.6	0.00e+00	0	34	101	1048576	60	7333
2026-01-07 12:22:53.76	107.55	11.12	-42.4	-43.6	21.7	0.00e+00	23	35	101	1048576	60	7339
2026-01-07 12:22:54.77	107.72	11.08	-42.7	-43.8	21.4	0.00e+00	0	35	101	1048576	60	7591
2026-01-07 12:22:55.78	107.88	11.04	-42.5	-43.7	21.6	0.00e+00	92	35	101	1048576	60	7427
2026-01-07 12:22:56.79	108.05	10.99	-42.3	-43.4	21.8	0.00e+00	0	35	101	1048576	60	7197
2026-01-07 12:22:57.80	108.21	10.95	-42.2	-43.4	21.9	0.00e+00	0	34	101	1048576	60	7179
2026-01-07 12:22:58.81	108.38	10.91	-42.1	-43.2	21.9	0.00e+00	0	35	101	1048576	60	7037
2026-01-07 12:22:59.82	108.54	10.86	-42.2	-43.4	21.8	0.00e+00	0	35	101	1048576	60	7177
2026-01-07 12:23:00.84	108.71	10.82	-42.4	-43.5	21.8	0.00e+00	26	35	101	1048576	60	7287
2026-01-07 12:23:01.85	108.87	10.77	-42.4	-43.5	21.7	0.00e+00	0	35	101	1048576	60	7283
2026-01-07 12:23:02.86	109.03	10.73	-42.3	-43.5	21.6	0.00e+00	92	35	101	1048576	60	7260
2026-01-07 12:23:03.87	109.19	10.69	-42.5	-43.7	21.5	0.00e+00	0	35	101	1048576	60	7448
2026-01-07 12:23:04.88	109.35	10.64	-42.9	-44.1	21.2	0.00e+00	0	35	101	1048576	60	7813
2026-01-07 12:23:05.89	109.52	10.60	-43.0	-44.3	20.9	0.00e+00	0	35	101	1048576	60	7972
2026-01-07 12:23:06.90	109.68	10.55	-43.3	-44.6	20.7	0.00e+00	0	35	101	1048576	60	8263
2026-01-07 12:23:07.91	109.84	10.51	-43.0	-44.3	21.0	0.00e+00	0	35	101	1048576	60	7958
2026-01-07 12:23:08.92	110.00	10.46	-42.8	-44.0	21.2	0.00e+00	0	35	101	1048576	60	7705
2026-01-07 12:23:09.93	110.15	10.42	-43.0	-44.2	20.9	0.00e+00	92	35	101	1048576	60	7930
2026-01-07 12:23:10.94	110.31	10.37	-42.7	-44.0	21.2	0.00e+00	0	35	101	1048576	60	7694
2026-01-07 12:23:11.95	110.47	10.33	-42.6	-43.8	21.3	0.00e+00	32	35	101	1048576	60	7580
2026-01-07 12:23:12.96	110.63	10.28	-42.4	-43.6	21.6	0.00e+00	0	35	101	1048576	60	7367
2026-01-07 12:23:13.97	110.79	10.24	-42.3	-43.4	21.7	0.00e+00	0	35	101	1048576	60	7220
2026-01-07 12:23:14.99	110.94	10.19	-42.4	-43.5	21.6	0.00e+00	0	35	101	1048576	60	7283
2026-01-07 12:23:16.00	111.10	10.14	-42.4	-43.6	21.7	0.00e+00	0	35	101	1048576	60	7338
2026-01-07 12:23:17.01	111.26	10.10	-42.1	-43.2	21.9	0.00e+00	43	35	101	1048576	60	7028
2026-01-07 12:23:18.02	111.41	10.05	-42.1	-43.2	21.8	0.00e+00	0	35	101	1048576	60	7078
2026-01-07 12:23:19.03	111.57	10.01	-41.9	-43.0	22.0	0.00e+00	67	35	101	1048576	60	6903
2026-01-07 12:23:20.04	111.72	9.96	-42.0	-43.1	21.8	0.00e+00	0	35	101	1048576	60	6965
2026-01-07 12:23:21.05	111.87	9.91	-41.8	-42.9	22.1	0.00e+00	0	35	101	1048576	60	6789
2026-01-07 12:23:22.06	112.03	9.87	-41.8	-42.9	22.1	0.00e+00	0	35	101	1048576	60	6825
2026-01-07 12:23:23.07	112.18	9.82	-42.0	-43.1	22.1	0.00e+00	0	35	101	1048576	60	6931
2026-01-07 12:23:24.08	112.33	9.78	-41.9	-43.0	22.0	0.00e+00	82	35	101	1048576	60	6878
2026-01-07 12:23:25.10	112.49	9.73	-41.9	-43.0	22.0	0.00e+00	0	35	101	1048576	60	6852
2026-01-07 12:23:26.11	112.64	9.68	-41.9	-43.0	22.1	0.00e+00	83	34	101	1048576	60	6855
2026-01-07 12:23:27.12	112.79	9.63	-41.9	-42.9	22.0	0.00e+00	23	35	101	1048576	60	6832
2026-01-07 12:23:28.13	112.94	9.59	-42.0	-43.1	22.0	0.00e+00	0	35	101	1048576	60	6944
2026-01-07 12:23:29.14	113.09	9.54	-41.9	-43.0	22.1	0.00e+00	0	35	101	1048576	60	6877
2026-01-07 12:23:30.15	113.24	9.49	-41.9	-43.0	22.0	0.00e+00	10	35	101	1048576	60	6888
2026-01-07 12:23:31.16	113.39	9.45	-41.7	-42.8	22.2	0.00e+00	90	35	101	1048576	60	6708
2026-01-07 12:23:32.17	113.54	9.40	-42.0	-43.1	22.0	0.00e+00	0	35	101	1048576	60	6948
2026-01-07 12:23:33.18	113.69	9.35	-41.5	-42.5	22.4	0.00e+00	90	35	101	1048576	60	6538
2026-01-07 12:23:34.19	113.83	9.31	-41.7	-42.8	22.2	0.00e+00	0	35	101	1048576	60	6723
2026-01-07 12:23:35.21	113.98	9.26	-41.8	-42.8	22.2	0.00e+00	0	34	101	1048576	60	6757
2026-01-07 12:23:36.22	114.13	9.21	-41.6	-42.6	22.3	0.00e+00	0	35	101	1048576	60	6613
2026-01-07 12:23:37.23	114.28	9.16	-41.8	-42.9	22.0	0.00e+00	0	35	101	1048576	60	6816
2026-01-07 12:23:38.24	114.42	9.12	-41.9	-43.0	22.0	0.00e+00	87	35	101	1048576	60	6886
2026-01-07 12:23:39.25	114.57	9.07	-42.0	-43.1	22.0	0.00e+00	0	35	101	1048576	60	6952
2026-01-07 12:23:40.26	114.71	9.02	-42.2	-43.3	21.6	0.00e+00	92	35	101	1048576	60	7124
2026-01-07 12:23:41.27	114.86	8.97	-41.9	-43.0	21.9	0.00e+00	0	35	101	1048576	60	6901
2026-01-07 12:23:42.28	115.00	8.92	-42.0	-43.1	21.8	0.00e+00	0	35	101	1048576	60	6978
2026-01-07 12:23:43.29	115.15	8.88	-41.8	-42.9	22.1	0.00e+00	0	35	101	1048576	60	6780
2026-01-07 12:23:44.30	115.29	8.83	-41.6	-42.7	22.3	0.00e+00	0	35	101	1048576	60	6683
2026-01-07 12:23:45.31	115.43	8.78	-41.5	-42.6	22.3	0.00e+00	23	35	101	1048576	60	6575
2026-01-07 12:23:46.32	115.57	8.73	-41.4	-42.5	22.4	0.00e+00	0	35	101	1048576	60	6480
2026-01-07 12:23:47.33	115.72	8.68	-41.4	-42.5	22.4	0.00e+00	92	35	101	1048576	60	6485
2026-01-07 12:23:48.34	115.86	8.64	-41.3	-42.3	22.4	0.00e+00	0	35	101	1048576	60	6378
2026-01-07 12:23:49.35	116.00	8.59	-41.3	-42.4	22.5	0.00e+00	0	35	101	1048576	60	6394
2026-01-07 12:23:50.37	116.14	8.54	-41.3	-42.4	22.5	0.00e+00	0	35	101	1048576	60	6396
2026-01-07 12:23:51.38	116.28	8.49	-41.5	-42.6	22.3	0.00e+00	0	35	101	1048576	60	6553
2026-01-07 12:23:52.39	116.42	8.44	-41.7	-42.7	22.2	0.00e+00	25	35	101	1048576	60	6688
2026-01-07 12:23:53.40	116.56	8.39	-41.7	-42.8	22.1	0.00e+00	0	35	101	1048576	60	6753
2026-01-07 12:23:54.41	116.70	8.34	-41.9	-43.0	21.8	0.00e+00	74	35	101	1048576	60	6912
2026-01-07 12:23:55.42	116.84	8.30	-41.8	-42.9	22.0	0.00e+00	0	35	101	1048576	60	6838
2026-01-07 12:23:56.43	116.97	8.25	-42.0	-43.1	21.9	0.00e+00	92	35	101	1048576	60	6972
2026-01-07 12:23:57.44	117.11	8.20	-42.0	-43.2	21.8	0.00e+00	0	35	101	1048576	60	7019
2026-01-07 12:23:58.45	117.25	8.15	-42.1	-43.2	21.7	0.00e+00	0	35	101	1048576	60	7047
2026-01-07 12:23:59.46	117.39	8.10	-42.2	-43.3	21.6	0.00e+00	0	35	101	1048576	60	7160
2026-01-07 12:24:00.47	117.52	8.05	-42.2	-43.4	21.6	0.00e+00	0	35	101	1048576	60	7222
2026-01-07 12:24:01.48	117.66	8.00	-42.0	-43.1	21.8	0.00e+00	91	35	101	1048576	60	6998
2026-01-07 12:24:02.50	117.79	7.95	-42.0	-43.1	21.8	0.00e+00	0	35	101	1048576	60	7007
2026-01-07 12:24:03.50	117.93	7.91	-42.0	-43.1	21.8	0.00e+00	90	35	101	1048576	60	6999
2026-01-07 12:24:04.52	118.06	7.86	-42.1	-43.2	21.6	0.00e+00	0	35	101	1048576	60	7049
2026-01-07 12:24:05.53	118.20	7.81	-42.1	-43.2	21.6	0.00e+00	0	35	101	1048576	60	7051
2026-01-07 12:24:06.54	118.33	7.76	-42.2	-43.3	21.6	0.00e+00	0	35	101	1048576	60	7109
2026-01-07 12:24:07.55	118.46	7.71	-42.2	-43.3	21.6	0.00e+00	0	35	101	1048576	60	7146
2026-01-07 12:24:08.56	118.60	7.66	-42.3	-43.4	21.5	0.00e+00	19	35	101	1048576	60	7237
2026-01-07 12:24:09.57	118.73	7.61	-42.2	-43.4	21.5	0.00e+00	0	35	101	1048576	60	7189
2026-01-07 12:24:10.58	118.86	7.56	-41.9	-43.0	21.8	0.00e+00	92	35	101	1048576	60	6911
2026-01-07 12:24:11.59	118.99	7.51	-41.8	-42.9	21.9	0.00e+00	0	35	101	1048576	60	6810
2026-01-07 12:24:12.61	119.12	7.46	-41.8	-42.9	22.0	0.00e+00	0	35	101	1048576	60	6781
2026-01-07 12:24:13.62	119.25	7.41	-41.8	-42.8	22.0	0.00e+00	0	35	101	1048576	60	6761
2026-01-07 12:24:14.63	119.38	7.36	-42.0	-43.1	21.9	0.00e+00	0	35	101	1048576	60	6928
2026-01-07 12:24:15.64	119.51	7.31	-42.0	-43.2	21.7	0.00e+00	92	35	101	1048576	60	7012
2026-01-07 12:24:16.95	119.68	7.25	-41.9	-43.0	21.8	0.00e+00	0	35	101	1048576	60	6892
2026-01-07 12:24:17.67	119.77	7.22	-42.1	-43.2	21.7	0.00e+00	92	35	101	1048576	60	7020
2026-01-07 12:24:18.97	119.94	7.15	-42.4	-43.6	21.3	0.00e+00	0	35	101	1048576	60	7374
2026-01-07 12:24:19.69	120.03	7.12	-42.5	-43.7	21.1	0.00e+00	36	35	101	1048576	60	7503
2026-01-07 12:24:20.99	120.19	7.05	-42.3	-43.4	21.5	0.00e+00	0	35	101	1048576	60	7228
2026-01-07 12:24:21.71	120.28	7.02	-42.5	-43.6	21.3	0.00e+00	0	35	101	1048576	60	7412
2026-01-07 12:24:23.01	120.45	6.95	-42.4	-43.5	21.4	0.00e+00	53	35	101	1048576	60	7326
2026-01-07 12:24:23.73	120.54	6.92	-42.4	-43.5	21.3	0.00e+00	0	35	101	1048576	60	7313
2026-01-07 12:24:25.03	120.70	6.85	-42.4	-43.6	21.3	0.00e+00	82	35	101	1048576	60	7359
2026-01-07 12:24:25.75	120.79	6.82	-42.3	-43.4	21.4	0.00e+00	0	35	101	1048576	60	7232
2026-01-07 12:24:27.05	120.95	6.76	-42.4	-43.5	21.4	0.00e+00	0	35	101	1048576	60	7335
2026-01-07 12:24:27.77	121.04	6.72	-42.4	-43.6	21.4	0.00e+00	0	35	101	1048576	60	7400
2026-01-07 12:24:29.07	121.20	6.66	-42.4	-43.5	21.3	0.00e+00	0	35	101	1048576	60	7335
2026-01-07 12:24:29.79	121.29	6.62	-42.5	-43.7	21.2	0.00e+00	0	35	101	1048576	60	7460
2026-01-07 12:24:31.09	121.45	6.56	-42.6	-43.8	21.1	0.00e+00	0	35	101	1048576	60	7541
2026-01-07 12:24:31.82	121.53	6.52	-42.8	-44.1	20.8	0.00e+00	50	35	101	1048576	60	7782
2026-01-07 12:24:33.12	121.69	6.46	-42.9	-44.2	20.7	0.00e+00	0	35	101	1048576	60	7876
2026-01-07 12:24:33.84	121.78	6.42	-43.0	-44.3	20.7	0.00e+00	90	35	101	1048576	60	7976
2026-01-07 12:24:35.14	121.94	6.36	-43.3	-44.7	20.3	0.00e+00	0	35	101	1048576	60	8407
2026-01-07 12:24:35.86	122.02	6.32	-43.1	-44.4	20.5	0.00e+00	86	35	101	1048576	60	8099
2026-01-07 12:24:37.16	122.18	6.26	-43.1	-44.4	20.5	0.00e+00	24	35	101	1048576	60	8114
2026-01-07 12:24:37.88	122.26	6.22	-43.2	-44.6	20.3	0.00e+00	0	35	101	1048576	60	8259
2026-01-07 12:24:39.18	122.42	6.16	-43.1	-44.4	20.5	0.00e+00	92	35	101	1048576	60	8075
2026-01-07 12:24:39.90	122.50	6.12	-43.1	-44.4	20.4	0.00e+00	0	35	101	1048576	60	8100
2026-01-07 12:24:41.20	122.66	6.06	-43.3	-44.7	20.2	0.00e+00	62	35	101	1048576	60	8392
2026-01-07 12:24:41.92	122.74	6.02	-43.2	-44.6	20.3	0.00e+00	0	35	101	1048576	60	8244
2026-01-07 12:24:43.22	122.90	5.96	-43.5	-44.9	20.1	0.00e+00	0	35	101	1048576	60	8582
2026-01-07 12:24:43.95	122.98	5.92	-43.5	-45.0	20.0	0.00e+00	0	35	101	1048576	60	8700
2026-01-07 12:24:45.25	123.13	5.86	-43.3	-44.8	20.2	0.00e+00	0	35	101	1048576	60	8448
2026-01-07 12:24:45.97	123.22	5.82	-43.5	-45.0	20.0	0.00e+00	20	35	101	1048576	60	8654
2026-01-07 12:24:47.27	123.37	5.76	-43.6	-45.1	19.9	0.00e+00	0	35	101	1048576	60	8723
2026-01-07 12:24:47.99	123.45	5.72	-43.6	-45.0	19.8	0.00e+00	33	35	101	1048576	60	8703
2026-01-07 12:24:49.29	123.60	5.66	-43.8	-45.3	19.6	0.00e+00	0	35	101	1048576	60	9016
2026-01-07 12:24:50.01	123.68	5.62	-43.9	-45.4	19.6	0.00e+00	92	35	101	1048576	60	9057
2026-01-07 12:24:51.31	123.83	5.56	-43.8	-45.3	19.6	0.00e+00	0	35	101	1048576	60	8983
2026-01-07 12:24:52.03	123.91	5.52	-43.8	-45.2	19.7	0.00e+00	0	35	101	1048576	60	8909
2026-01-07 12:24:53.33	124.06	5.46	-43.6	-45.1	19.7	0.00e+00	78	35	101	1048576	60	8730
2026-01-07 12:24:54.05	124.14	5.43	-43.5	-44.9	20.1	0.00e+00	0	35	101	1048576	60	8570
2026-01-07 12:24:55.35	124.29	5.36	-43.2	-44.6	20.2	0.00e+00	80	35	101	1048576	60	8277
2026-01-07 12:24:56.08	124.37	5.32	-43.2	-44.6	20.3	0.00e+00	0	35	101	1048576	60	8254
2026-01-07 12:24:57.37	124.52	5.26	-43.1	-44.5	20.3	0.00e+00	0	35	101	1048576	60	8162
2026-01-07 12:24:58.10	124.60	5.23	-43.0	-44.3	20.5	0.00e+00	0	35	101	1048576	60	8045
2026-01-07 12:24:59.40	124.74	5.16	-43.2	-44.6	20.2	0.00e+00	0	35	101	1048576	60	8260
2026-01-07 12:25:00.12	124.82	5.13	-43.3	-44.7	20.1	0.00e+00	0	35	101	1048576	60	8392
2026-01-07 12:25:01.42	124.97	5.06	-43.6	-45.1	19.8	0.00e+00	18	35	101	1048576	60	8748
2026-01-07 12:25:02.14	125.05	5.03	-43.8	-45.3	19.6	0.00e+00	51	35	101	1048576	60	8973
2026-01-07 12:25:03.44	125.19	4.96	-44.2	-45.8	19.0	0.00e+00	0	35	101	1048576	60	9502
2026-01-07 12:25:04.16	125.27	4.93	-44.5	-46.2	18.8	0.00e+00	92	34	101	1048576	60	9927
2026-01-07 12:25:05.46	125.41	4.86	-45.0	-46.9	18.0	0.00e+00	0	35	101	1048576	60	10740
2026-01-07 12:25:06.18	125.49	4.83	-45.1	-47.0	18.0	0.00e+00	0	35	101	1048576	60	10889
2026-01-07 12:25:07.48	125.63	4.76	-45.1	-47.0	17.8	0.00e+00	23	35	101	1048576	60	10934
2026-01-07 12:25:08.20	125.71	4.73	-45.2	-47.1	17.8	0.00e+00	0	35	101	1048576	60	11063
2026-01-07 12:25:09.50	125.85	4.66	-45.2	-47.1	17.8	0.00e+00	63	35	101	1048576	60	11053
2026-01-07 12:25:10.23	125.93	4.63	-45.1	-46.9	18.0	0.00e+00	0	34	101	1048576	60	10846
2026-01-07 12:25:11.53	126.07	4.56	-44.7	-46.4	18.3	0.00e+00	0	34	101	1048576	60	10220
2026-01-07 12:25:12.25	126.14	4.53	-44.8	-46.6	18.1	0.00e+00	0	35	101	1048576	60	10431
2026-01-07 12:25:13.55	126.28	4.46	-44.5	-46.3	18.3	0.00e+00	0	34	101	1048576	60	10070
2026-01-07 12:25:14.27	126.36	4.43	-44.3	-45.9	18.7	0.00e+00	0	35	101	1048576	60	9658
2026-01-07 12:25:15.57	126.49	4.36	-44.4	-46.1	18.6	0.00e+00	0	35	101	1048576	60	9857
2026-01-07 12:25:16.29	126.57	4.33	-44.3	-45.9	18.9	0.00e+00	0	35	101	1048576	60	9667
2026-01-07 12:25:17.59	126.71	4.26	-43.9	-45.5	19.2	0.00e+00	0	35	101	1048576	60	9182
2026-01-07 12:25:18.32	126.78	4.23	-44.1	-45.7	19.0	0.00e+00	51	35	101	1048576	60	9421
2026-01-07 12:25:19.62	126.92	4.17	-44.3	-46.0	18.7	0.00e+00	0	35	101	1048576	60	9768
2026-01-07 12:25:20.34	126.99	4.13	-44.1	-45.8	19.0	0.00e+00	70	34	101	1048576	60	9467
2026-01-07 12:25:21.64	127.13	4.07	-44.1	-45.7	19.0	0.00e+00	22	35	101	1048576	60	9429
2026-01-07 12:25:22.36	127.20	4.03	-44.2	-45.9	18.9	0.00e+00	0	35	101	1048576	60	9574
2026-01-07 12:25:23.66	127.34	3.97	-44.4	-46.1	18.5	0.00e+00	92	35	101	1048576	60	9878
2026-01-07 12:25:24.38	127.41	3.93	-44.3	-46.0	18.7	0.00e+00	23	35	101	1048576	60	9711
2026-01-07 12:25:25.68	127.54	3.87	-44.3	-45.9	18.7	0.00e+00	87	35	101	1048576	60	9666
2026-01-07 12:25:26.40	127.62	3.83	-44.0	-45.7	19.0	0.00e+00	0	35	101	1048576	60	9352
2026-01-07 12:25:27.70	127.75	3.77	-43.9	-45.5	19.0	0.00e+00	0	35	101	1048576	60	9219
2026-01-07 12:25:28.43	127.82	3.73	-44.0	-45.6	19.0	0.00e+00	0	35	101	1048576	60	9311
