passes_logs/2026/01/07/R4.6S_Anadyr_2ch/R4.6S_Anadyr_2ch__20260107_150459_NOAA_21_JPSS-2_rec.log

#Pass ID: 20260107_150459_NOAA 21 (JPSS-2)
#Satellite: NOAA 21 (JPSS-2)
#Configuration: NOAA-21
#almurnet v.1.7.20251203
#Start time: 2026-01-07 15:05:01

#Version: 2.2.20231116
#Station: R4.6S_Anadyr_2ch
#Location: 177.4865 lon 64.73178 lat
#TLE: 1 54234U 22150A   25350.97269056  .00000057  00000+0  47676-4 0  9992
#TLE: 2 54234  98.7466 287.2282 0002043  29.8355 330.2937 14.19525482160692

#Time	Az	El	Level	Level2	SNR	BER	BlckErr	Temp	State	Recorded	gain1	gain2
2026-01-07 15:05:01.85	21.30	0.15	-51.9	-66.9	3.5	1.51e+00	0	32	0	0	60	108174
2026-01-07 15:05:02.86	21.29	0.21	-51.9	-64.9	3.5	1.52e+00	0	33	104	0	60	83401
2026-01-07 15:05:03.87	21.28	0.27	-51.9	-64.9	3.5	1.52e+00	0	34	104	0	60	83491
2026-01-07 15:05:04.88	21.28	0.33	-51.9	-64.9	3.5	1.52e+00	0	34	104	0	60	83433
2026-01-07 15:05:05.89	21.27	0.39	-51.9	-64.9	3.5	1.52e+00	0	34	104	0	60	83548
2026-01-07 15:05:06.90	21.27	0.45	-51.8	-64.9	3.5	1.52e+00	0	34	104	0	60	83644
2026-01-07 15:05:07.91	21.26	0.51	-51.8	-64.8	3.5	1.52e+00	0	34	104	0	60	82523
2026-01-07 15:05:08.92	21.25	0.57	-51.7	-64.8	3.5	1.52e+00	0	34	104	0	60	82024
2026-01-07 15:05:09.93	21.25	0.63	-51.6	-64.7	3.5	1.52e+00	0	34	104	0	60	81127
2026-01-07 15:05:10.94	21.24	0.69	-51.4	-64.4	3.5	1.52e+00	0	34	104	0	60	78811
2026-01-07 15:05:11.95	21.24	0.76	-51.3	-64.3	3.5	1.52e+00	0	34	104	0	60	77743
2026-01-07 15:05:12.96	21.23	0.82	-51.1	-64.1	3.5	1.52e+00	0	34	104	0	60	75826
2026-01-07 15:05:13.97	21.22	0.88	-50.8	-63.8	3.5	1.52e+00	0	34	104	0	60	73466
2026-01-07 15:05:14.98	21.22	0.94	-50.5	-63.5	3.5	1.52e+00	0	34	104	0	60	70714
2026-01-07 15:05:15.99	21.21	1.00	-50.5	-63.5	3.5	1.52e+00	0	34	104	0	60	70694
2026-01-07 15:05:17.00	21.20	1.07	-50.4	-63.4	3.5	1.52e+00	0	34	104	0	60	69735
2026-01-07 15:05:18.02	21.20	1.13	-50.4	-63.3	3.5	1.51e+00	0	34	104	0	60	69317
2026-01-07 15:05:19.03	21.19	1.19	-50.4	-63.2	3.5	1.52e+00	0	34	104	0	60	68648
2026-01-07 15:05:20.04	21.18	1.25	-50.4	-63.2	3.5	1.51e+00	0	34	104	0	60	68046
2026-01-07 15:05:21.05	21.18	1.32	-50.4	-63.0	3.5	1.52e+00	0	34	104	0	60	66700
2026-01-07 15:05:22.06	21.17	1.38	-50.4	-62.8	3.5	1.52e+00	0	34	104	0	60	65612
2026-01-07 15:05:23.07	21.16	1.44	-50.4	-62.9	3.5	1.52e+00	0	34	104	0	60	66082
2026-01-07 15:05:24.08	21.16	1.51	-50.4	-62.9	3.5	1.52e+00	0	34	104	0	60	66271
2026-01-07 15:05:25.09	21.15	1.57	-50.4	-63.0	3.5	1.52e+00	0	34	104	0	60	67028
2026-01-07 15:05:26.10	21.14	1.63	-50.4	-63.2	3.5	1.52e+00	0	34	104	0	60	68119
2026-01-07 15:05:27.12	21.14	1.70	-50.4	-63.3	3.5	1.52e+00	0	34	104	0	60	69037
2026-01-07 15:05:28.13	21.13	1.76	-50.4	-63.4	3.5	1.52e+00	0	34	104	0	60	70098
2026-01-07 15:05:29.14	21.12	1.82	-50.4	-63.5	3.5	1.52e+00	0	34	104	0	60	70719
2026-01-07 15:05:30.15	21.12	1.89	-50.4	-63.4	3.5	1.52e+00	0	34	104	0	60	70112
2026-01-07 15:05:31.16	21.11	1.95	-50.4	-63.4	3.5	1.52e+00	0	34	104	0	60	70011
2026-01-07 15:05:32.17	21.10	2.02	-50.4	-63.3	3.5	1.51e+00	0	34	104	0	60	69129
2026-01-07 15:05:33.18	21.09	2.08	-50.4	-63.1	3.5	1.52e+00	0	34	104	0	60	67818
2026-01-07 15:05:34.19	21.09	2.15	-50.4	-63.0	3.5	1.52e+00	0	34	104	0	60	67253
2026-01-07 15:05:35.20	21.08	2.21	-50.4	-62.7	3.5	1.52e+00	0	34	104	0	60	64703
2026-01-07 15:05:36.21	21.07	2.28	-50.4	-62.3	3.5	1.51e+00	0	34	104	0	60	61767
2026-01-07 15:05:37.22	21.06	2.34	-50.3	-62.0	3.5	1.51e+00	0	34	104	0	60	59814
2026-01-07 15:05:38.23	21.06	2.41	-50.3	-61.6	3.5	1.51e+00	0	34	104	0	60	56718
2026-01-07 15:05:39.24	21.05	2.47	-50.3	-61.4	3.7	1.51e+00	0	35	104	0	60	55446
2026-01-07 15:05:40.26	21.04	2.54	-50.3	-61.5	3.7	1.50e+00	0	34	104	0	60	56487
2026-01-07 15:05:41.27	21.03	2.60	-50.3	-62.1	3.5	1.51e+00	0	34	104	0	60	60099
2026-01-07 15:05:42.28	21.03	2.67	-50.4	-62.4	3.5	1.51e+00	0	34	104	0	60	62207
2026-01-07 15:05:43.29	21.02	2.73	-50.3	-62.3	3.5	1.51e+00	0	34	104	0	60	61365
2026-01-07 15:05:44.30	21.01	2.80	-50.2	-61.2	3.6	1.51e+00	0	34	104	0	60	54154
2026-01-07 15:05:45.31	21.00	2.87	-50.0	-59.1	4.5	1.04e+00	123	34	104	0	60	42611
2026-01-07 15:05:46.32	21.00	2.93	-49.5	-56.7	6.2	8.02e-01	123	35	104	0	60	32507
2026-01-07 15:05:47.33	20.99	3.00	-49.0	-54.1	8.1	9.68e-02	120	34	0	0	60	24087
2026-01-07 15:05:48.34	20.98	3.07	-48.5	-52.8	9.5	1.92e-02	123	35	102	1048576	60	20742
2026-01-07 15:05:49.35	20.97	3.13	-47.9	-51.5	11.1	2.96e-03	120	34	102	1048576	60	17777
2026-01-07 15:05:50.36	20.96	3.20	-47.4	-50.7	12.0	5.77e-04	123	35	102	1048576	60	16190
2026-01-07 15:05:51.37	20.96	3.27	-47.2	-50.3	12.3	2.11e-04	120	35	102	1048576	60	15477
2026-01-07 15:05:52.38	20.95	3.33	-47.1	-50.1	12.5	1.56e-04	122	35	102	1048576	60	15060
2026-01-07 15:05:53.39	20.94	3.40	-47.2	-50.3	12.3	1.18e-04	121	35	102	1048576	60	15424
2026-01-07 15:05:54.40	20.93	3.47	-47.5	-50.8	11.8	3.33e-04	123	34	102	1048576	60	16346
2026-01-07 15:05:55.42	20.92	3.54	-47.8	-51.4	10.8	1.26e-03	123	35	102	1048576	60	17631
2026-01-07 15:05:56.43	20.91	3.61	-45.8	-48.0	16.2	2.12e-03	122	35	102	1048576	60	11887
2026-01-07 15:05:57.44	20.90	3.67	-42.1	-43.4	19.7	0.00e+00	120	35	102	1048576	60	7028
2026-01-07 15:05:58.45	20.90	3.74	-44.1	-45.8	15.3	0.00e+00	122	34	102	1048576	60	9267
2026-01-07 15:05:59.46	20.89	3.81	-50.3	-61.6	6.3	1.50e+00	0	35	104	1048576	60	56801
2026-01-07 15:06:00.47	20.88	3.88	-41.5	-42.8	19.9	7.00e-07	123	34	0	1048576	60	6539
2026-01-07 15:06:01.48	20.87	3.95	-49.8	-58.2	7.4	1.50e+00	122	35	104	1048576	60	38386
2026-01-07 15:06:02.49	20.86	4.02	-44.0	-45.7	17.1	0.00e+00	122	35	0	1048576	60	9168
2026-01-07 15:06:03.50	20.85	4.09	-44.1	-45.8	17.0	0.00e+00	122	35	0	1048576	60	9273
2026-01-07 15:06:04.51	20.84	4.16	-44.4	-46.2	16.8	0.00e+00	123	35	0	1048576	60	9672
2026-01-07 15:06:05.52	20.83	4.23	-44.7	-46.6	16.4	0.00e+00	123	35	0	1048576	60	10174
2026-01-07 15:06:06.53	20.83	4.30	-43.7	-45.3	17.8	0.00e+00	123	35	0	1048576	60	8694
2026-01-07 15:06:07.55	20.82	4.37	-44.0	-45.7	16.9	0.00e+00	122	35	0	1048576	60	9147
2026-01-07 15:06:08.56	20.81	4.44	-43.6	-45.2	17.7	0.00e+00	122	35	0	1048576	60	8613
2026-01-07 15:06:09.57	20.80	4.51	-43.6	-45.2	17.0	0.00e+00	122	35	0	1048576	60	8658
2026-01-07 15:06:10.58	20.79	4.58	-43.7	-45.3	18.1	0.00e+00	123	35	0	1048576	60	8728
2026-01-07 15:06:11.59	20.78	4.65	-43.4	-44.9	17.9	0.00e+00	123	35	0	1048576	60	8316
2026-01-07 15:06:12.60	20.77	4.72	-43.1	-44.6	18.6	0.00e+00	123	35	0	1048576	60	8050
2026-01-07 15:06:13.61	20.76	4.79	-43.0	-44.5	18.4	0.00e+00	122	35	101	1048576	60	7961
2026-01-07 15:06:14.62	20.75	4.86	-42.4	-43.8	19.5	0.00e+00	120	35	101	1048576	60	7292
2026-01-07 15:06:15.64	20.74	4.93	-42.0	-43.4	19.3	0.00e+00	122	35	101	1048576	60	6968
2026-01-07 15:06:16.65	20.73	5.00	-42.0	-43.3	20.1	0.00e+00	122	35	101	1048576	60	6942
2026-01-07 15:06:17.66	20.72	5.08	-41.8	-43.1	19.5	0.00e+00	123	35	101	1048576	60	6738
2026-01-07 15:06:18.67	20.71	5.15	-41.5	-42.7	20.2	0.00e+00	120	35	101	1048576	60	6490
2026-01-07 15:06:19.68	20.70	5.22	-41.5	-42.7	20.3	0.00e+00	122	35	101	1048576	60	6448
2026-01-07 15:06:20.69	20.69	5.29	-41.3	-42.5	20.4	0.00e+00	120	35	101	1048576	60	6314
2026-01-07 15:06:21.70	20.68	5.37	-41.3	-42.5	20.5	0.00e+00	123	35	101	1048576	60	6325
2026-01-07 15:06:22.71	20.67	5.44	-41.4	-42.6	20.4	0.00e+00	123	35	101	1048576	60	6375
2026-01-07 15:06:23.72	20.66	5.51	-40.6	-41.8	21.1	0.00e+00	122	35	101	1048576	60	5792
2026-01-07 15:06:24.73	20.65	5.58	-40.5	-41.6	21.2	0.00e+00	122	35	101	1048576	60	5701
2026-01-07 15:06:25.75	20.64	5.66	-40.5	-41.6	21.2	0.00e+00	122	35	101	1048576	60	5703
2026-01-07 15:06:26.76	20.63	5.73	-40.2	-41.3	21.4	0.00e+00	123	35	101	1048576	60	5526
2026-01-07 15:06:27.77	20.62	5.81	-40.4	-41.5	21.4	0.00e+00	122	35	101	1048576	60	5639
2026-01-07 15:06:28.78	20.61	5.88	-40.4	-41.5	21.3	0.00e+00	122	35	101	1048576	60	5636
2026-01-07 15:06:29.79	20.60	5.95	-40.4	-41.5	21.3	0.00e+00	122	35	101	1048576	60	5659
2026-01-07 15:06:30.80	20.59	6.03	-40.4	-41.5	21.3	0.00e+00	123	35	101	1048576	60	5657
2026-01-07 15:06:31.81	20.58	6.10	-40.5	-41.7	21.2	0.00e+00	122	35	101	1048576	60	5746
2026-01-07 15:06:32.82	20.56	6.18	-40.6	-41.7	21.1	0.00e+00	123	35	101	1048576	60	5765
2026-01-07 15:06:33.83	20.55	6.25	-40.6	-41.7	21.2	0.00e+00	123	35	101	1048576	60	5778
2026-01-07 15:06:34.84	20.54	6.33	-40.5	-41.6	21.3	0.00e+00	120	35	101	1048576	60	5708
2026-01-07 15:06:35.85	20.53	6.40	-40.3	-41.4	21.4	0.00e+00	123	35	101	1048576	60	5586
2026-01-07 15:06:36.87	20.52	6.48	-40.3	-41.4	21.6	0.00e+00	123	35	101	1048576	60	5560
2026-01-07 15:06:37.88	20.51	6.56	-40.2	-41.3	21.6	0.00e+00	123	35	101	1048576	60	5510
2026-01-07 15:06:38.89	20.50	6.63	-40.4	-41.5	21.4	0.00e+00	121	35	101	1048576	60	5631
2026-01-07 15:06:39.90	20.49	6.71	-40.2	-41.3	21.6	0.00e+00	123	35	101	1048576	60	5484
2026-01-07 15:06:40.91	20.47	6.78	-40.1	-41.2	21.7	0.00e+00	123	35	101	1048576	60	5437
2026-01-07 15:06:41.92	20.46	6.86	-40.1	-41.2	21.7	0.00e+00	122	35	101	1048576	58	6078
2026-01-07 15:06:42.93	20.45	6.94	-40.0	-41.0	21.9	0.00e+00	120	35	101	1048576	58	5980
2026-01-07 15:06:43.94	20.44	7.02	-39.8	-40.9	22.0	0.00e+00	122	35	101	1048576	58	5862
2026-01-07 15:06:44.96	20.43	7.09	-39.9	-41.0	21.9	0.00e+00	123	35	101	1048576	58	5966
2026-01-07 15:06:45.97	20.41	7.17	-39.8	-40.8	22.0	0.00e+00	122	35	101	1048576	58	5858
2026-01-07 15:06:46.98	20.40	7.25	-39.9	-40.9	22.0	0.00e+00	120	35	101	1048576	58	5912
2026-01-07 15:06:47.99	20.39	7.33	-39.7	-40.8	22.1	0.00e+00	122	35	101	1048576	58	5813
2026-01-07 15:06:49.00	20.38	7.41	-39.7	-40.8	22.0	0.00e+00	120	35	101	1048576	58	5821
2026-01-07 15:06:50.01	20.37	7.48	-39.7	-40.8	22.2	0.00e+00	123	35	101	1048576	58	5810
2026-01-07 15:06:51.02	20.35	7.56	-39.9	-40.9	22.0	0.00e+00	123	35	101	1048576	58	5911
2026-01-07 15:06:52.03	20.34	7.64	-39.6	-40.7	22.2	0.00e+00	123	35	101	1048576	58	5732
2026-01-07 15:06:53.04	20.33	7.72	-39.6	-40.6	22.2	0.00e+00	122	35	101	1048576	58	5705
2026-01-07 15:06:54.05	20.31	7.80	-39.6	-40.6	22.3	0.00e+00	122	35	101	1048576	58	5697
2026-01-07 15:06:55.06	20.30	7.88	-39.7	-40.7	22.2	0.00e+00	120	35	101	1048576	58	5769
2026-01-07 15:06:56.07	20.29	7.96	-39.5	-40.6	22.3	0.00e+00	123	35	101	1048576	58	5666
2026-01-07 15:06:57.08	20.28	8.04	-39.4	-40.4	22.4	0.00e+00	122	35	101	1048576	58	5582
2026-01-07 15:06:58.10	20.26	8.12	-39.4	-40.5	22.4	0.00e+00	123	35	101	1048576	58	5606
2026-01-07 15:06:59.11	20.25	8.20	-39.4	-40.5	22.4	0.00e+00	123	35	101	1048576	58	5614
2026-01-07 15:07:00.12	20.24	8.29	-39.4	-40.4	22.4	0.00e+00	122	35	101	1048576	58	5591
2026-01-07 15:07:01.13	20.22	8.37	-39.5	-40.5	22.5	0.00e+00	123	35	101	1048576	58	5637
2026-01-07 15:07:02.14	20.21	8.45	-39.3	-40.3	22.6	0.00e+00	123	35	101	1048576	58	5512
2026-01-07 15:07:03.15	20.20	8.53	-39.4	-40.4	22.5	0.00e+00	123	35	101	1048576	58	5555
2026-01-07 15:07:04.16	20.18	8.61	-39.2	-40.2	22.7	0.00e+00	120	35	101	1048576	58	5465
2026-01-07 15:07:05.17	20.17	8.70	-39.4	-40.4	22.6	0.00e+00	123	35	101	1048576	58	5558
2026-01-07 15:07:06.18	20.15	8.78	-39.3	-40.3	22.6	0.00e+00	123	35	101	1048576	58	5515
2026-01-07 15:07:07.19	20.14	8.86	-39.1	-40.1	22.9	0.00e+00	123	35	101	1048576	56	6032
2026-01-07 15:07:08.20	20.13	8.94	-39.2	-40.2	22.7	0.00e+00	122	35	101	1048576	56	6125
2026-01-07 15:07:09.21	20.11	9.03	-39.0	-40.0	22.9	0.00e+00	123	35	101	1048576	56	5973
2026-01-07 15:07:10.22	20.10	9.11	-39.2	-40.1	22.7	0.00e+00	120	35	101	1048576	56	6064
2026-01-07 15:07:11.23	20.08	9.20	-39.0	-40.0	22.9	0.00e+00	122	35	101	1048576	56	5957
2026-01-07 15:07:12.25	20.07	9.28	-39.0	-40.0	22.9	0.00e+00	120	35	101	1048576	56	5962
2026-01-07 15:07:13.26	20.05	9.37	-39.1	-40.0	22.8	0.00e+00	122	35	101	1048576	56	5994
2026-01-07 15:07:14.27	20.04	9.45	-39.0	-40.0	23.0	0.00e+00	122	35	101	1048576	56	5936
2026-01-07 15:07:15.28	20.02	9.54	-38.8	-39.8	23.1	0.00e+00	123	35	101	1048576	56	5821
2026-01-07 15:07:16.29	20.01	9.62	-38.9	-39.9	23.0	0.00e+00	123	35	101	1048576	56	5900
2026-01-07 15:07:17.30	19.99	9.71	-38.8	-39.8	23.1	0.00e+00	123	35	101	1048576	56	5821
2026-01-07 15:07:18.31	19.98	9.79	-38.7	-39.7	23.2	0.00e+00	121	35	101	1048576	56	5745
2026-01-07 15:07:19.32	19.96	9.88	-38.7	-39.7	23.2	0.00e+00	122	35	101	1048576	56	5770
2026-01-07 15:07:20.33	19.95	9.97	-38.8	-39.7	23.2	0.00e+00	122	35	101	1048576	56	5784
2026-01-07 15:07:21.34	19.93	10.05	-38.7	-39.7	23.2	0.00e+00	122	35	101	1048576	56	5759
2026-01-07 15:07:22.35	19.92	10.14	-38.6	-39.6	23.3	0.00e+00	122	35	101	1048576	56	5674
2026-01-07 15:07:23.36	19.90	10.23	-38.7	-39.6	23.3	0.00e+00	123	35	101	1048576	56	5723
2026-01-07 15:07:24.37	19.88	10.32	-38.6	-39.5	23.4	0.00e+00	123	35	101	1048576	56	5655
2026-01-07 15:07:25.38	19.87	10.40	-38.7	-39.6	23.3	0.00e+00	123	35	101	1048576	56	5721
2026-01-07 15:07:26.39	19.85	10.49	-38.5	-39.5	23.4	0.00e+00	122	35	101	1048576	56	5624
2026-01-07 15:07:27.40	19.84	10.58	-38.5	-39.5	23.4	0.00e+00	123	35	101	1048576	56	5618
2026-01-07 15:07:28.42	19.82	10.67	-38.5	-39.5	23.4	0.00e+00	122	35	101	1048576	56	5610
2026-01-07 15:07:29.43	19.80	10.76	-38.5	-39.4	23.5	0.00e+00	122	35	101	1048576	56	5565
2026-01-07 15:07:30.44	19.79	10.85	-38.4	-39.4	23.5	0.00e+00	120	35	101	1048576	56	5556
2026-01-07 15:07:31.45	19.77	10.94	-38.5	-39.5	23.4	0.00e+00	121	35	101	1048576	56	5608
2026-01-07 15:07:32.46	19.75	11.03	-38.7	-39.6	23.3	0.00e+00	123	35	101	1048576	56	5706
2026-01-07 15:07:33.47	19.74	11.12	-38.5	-39.4	23.4	0.00e+00	120	35	101	1048576	56	5569
2026-01-07 15:07:34.48	19.72	11.21	-38.6	-39.5	23.4	0.00e+00	120	35	101	1048576	56	5653
2026-01-07 15:07:35.49	19.70	11.31	-38.4	-39.3	23.6	0.00e+00	123	35	101	1048576	56	5517
2026-01-07 15:07:36.50	19.68	11.40	-38.3	-39.3	23.6	0.00e+00	123	35	101	1048576	56	5495
2026-01-07 15:07:37.51	19.67	11.49	-38.4	-39.3	23.6	0.00e+00	122	35	101	1048576	56	5500
2026-01-07 15:07:38.52	19.65	11.58	-38.3	-39.2	23.7	0.00e+00	122	35	101	1048576	56	5454
2026-01-07 15:07:39.53	19.63	11.68	-38.3	-39.3	23.6	0.00e+00	123	35	101	1048576	56	5487
2026-01-07 15:07:40.54	19.61	11.77	-38.3	-39.2	23.7	0.00e+00	123	35	101	1048576	56	5446
2026-01-07 15:07:41.56	19.59	11.86	-38.3	-39.3	23.6	0.00e+00	122	35	101	1048576	56	5470
2026-01-07 15:07:42.57	19.57	11.96	-38.3	-39.2	23.7	0.00e+00	123	35	101	1048576	56	5429
2026-01-07 15:07:43.58	19.56	12.05	-38.0	-39.0	23.8	0.00e+00	123	35	101	1048576	54	5940
2026-01-07 15:07:44.59	19.54	12.15	-38.1	-39.0	23.8	0.00e+00	122	35	101	1048576	54	5966
2026-01-07 15:07:45.60	19.52	12.24	-38.0	-38.9	23.9	0.00e+00	121	35	101	1048576	54	5896
2026-01-07 15:07:46.61	19.50	12.34	-38.0	-38.9	23.8	0.00e+00	123	35	101	1048576	54	5912
2026-01-07 15:07:47.62	19.48	12.43	-37.9	-38.9	23.9	0.00e+00	122	35	101	1048576	54	5875
2026-01-07 15:07:48.63	19.46	12.53	-38.0	-38.9	23.9	0.00e+00	122	35	101	1048576	54	5894
2026-01-07 15:07:49.64	19.44	12.63	-38.0	-38.9	23.8	0.00e+00	120	35	101	1048576	54	5926
2026-01-07 15:07:50.65	19.42	12.72	-37.9	-38.8	24.0	0.00e+00	123	35	101	1048576	54	5813
2026-01-07 15:07:51.67	19.40	12.82	-38.0	-38.9	23.8	0.00e+00	123	35	101	1048576	54	5908
2026-01-07 15:07:52.68	19.38	12.92	-37.8	-38.7	24.0	0.00e+00	122	35	101	1048576	54	5757
2026-01-07 15:07:53.69	19.36	13.02	-37.8	-38.7	23.9	0.00e+00	123	35	101	1048576	54	5776
2026-01-07 15:07:54.70	19.34	13.11	-37.8	-38.7	24.1	0.00e+00	123	35	101	1048576	54	5749
2026-01-07 15:07:55.71	19.32	13.21	-37.8	-38.7	24.0	0.00e+00	122	35	101	1048576	54	5775
2026-01-07 15:07:56.72	19.30	13.31	-37.7	-38.7	24.1	0.00e+00	123	35	101	1048576	54	5734
2026-01-07 15:07:57.73	19.28	13.41	-37.7	-38.6	24.2	0.00e+00	122	35	101	1048576	54	5676
2026-01-07 15:07:58.74	19.26	13.51	-37.6	-38.5	24.1	0.00e+00	123	35	101	1048576	54	5659
2026-01-07 15:07:59.75	19.24	13.61	-37.8	-38.7	24.0	0.00e+00	123	35	101	1048576	54	5768
2026-01-07 15:08:00.76	19.22	13.71	-37.7	-38.6	24.1	0.00e+00	123	35	101	1048576	54	5680
2026-01-07 15:08:01.77	19.20	13.82	-37.7	-38.6	24.1	0.00e+00	122	35	101	1048576	54	5706
2026-01-07 15:08:02.78	19.18	13.92	-37.7	-38.6	24.1	0.00e+00	123	35	101	1048576	54	5713
2026-01-07 15:08:03.80	19.15	14.02	-37.7	-38.6	24.1	0.00e+00	122	35	101	1048576	54	5688
2026-01-07 15:08:04.81	19.13	14.12	-37.6	-38.5	24.2	0.00e+00	123	35	101	1048576	54	5639
2026-01-07 15:08:05.82	19.11	14.23	-37.7	-38.6	24.1	0.00e+00	122	35	101	1048576	54	5703
2026-01-07 15:08:06.83	19.09	14.33	-37.7	-38.6	24.2	0.00e+00	120	35	101	1048576	54	5705
2026-01-07 15:08:07.84	19.07	14.43	-37.6	-38.5	24.2	0.00e+00	122	35	101	1048576	54	5617
2026-01-07 15:08:08.85	19.04	14.54	-37.6	-38.6	24.2	0.00e+00	120	35	101	1048576	54	5668
2026-01-07 15:08:09.86	19.02	14.64	-37.6	-38.5	24.2	0.00e+00	123	35	101	1048576	54	5623
2026-01-07 15:08:10.87	19.00	14.75	-37.6	-38.5	24.2	0.00e+00	123	35	101	1048576	54	5643
2026-01-07 15:08:11.88	18.97	14.85	-37.7	-38.6	24.2	0.00e+00	123	35	101	1048576	54	5698
2026-01-07 15:08:12.89	18.95	14.96	-37.6	-38.5	24.2	0.00e+00	121	35	101	1048576	54	5644
2026-01-07 15:08:13.90	18.93	15.07	-37.8	-38.7	24.1	0.00e+00	123	35	101	1048576	54	5747
2026-01-07 15:08:14.92	18.90	15.17	-37.7	-38.7	24.1	0.00e+00	122	35	101	1048576	54	5735
2026-01-07 15:08:15.93	18.88	15.28	-37.7	-38.6	24.2	0.00e+00	123	35	101	1048576	54	5682
2026-01-07 15:08:16.94	18.85	15.39	-37.8	-38.7	24.1	0.00e+00	120	35	101	1048576	54	5742
2026-01-07 15:08:17.95	18.83	15.50	-37.8	-38.8	24.0	0.00e+00	123	35	101	1048576	54	5794
2026-01-07 15:08:18.96	18.81	15.61	-37.8	-38.7	24.1	0.00e+00	123	35	101	1048576	54	5790
2026-01-07 15:08:19.97	18.78	15.72	-37.8	-38.8	24.0	0.00e+00	123	35	101	1048576	54	5799
2026-01-07 15:08:20.98	18.76	15.83	-37.9	-38.8	24.1	0.00e+00	123	35	101	1048576	54	5837
2026-01-07 15:08:21.99	18.73	15.94	-37.7	-38.7	24.1	0.00e+00	122	35	101	1048576	54	5739
2026-01-07 15:08:23.01	18.70	16.05	-37.9	-38.8	24.1	0.00e+00	121	35	101	1048576	54	5826
2026-01-07 15:08:24.02	18.68	16.16	-37.9	-38.8	24.0	0.00e+00	123	35	101	1048576	54	5849
2026-01-07 15:08:25.03	18.65	16.27	-38.0	-38.9	24.0	0.00e+00	122	35	101	1048576	54	5894
2026-01-07 15:08:26.04	18.63	16.38	-38.1	-39.1	23.8	0.00e+00	122	35	101	1048576	54	5997
2026-01-07 15:08:27.05	18.60	16.50	-38.2	-39.1	23.8	0.00e+00	120	35	101	1048576	54	6037
2026-01-07 15:08:28.06	18.57	16.61	-38.1	-39.0	23.9	0.00e+00	123	35	101	1048576	54	5959
2026-01-07 15:08:29.07	18.55	16.72	-38.1	-39.0	23.9	0.00e+00	123	35	101	1048576	54	5971
2026-01-07 15:08:30.08	18.52	16.84	-38.1	-39.1	23.9	0.00e+00	123	35	101	1048576	54	5998
2026-01-07 15:08:31.09	18.49	16.95	-38.0	-38.9	24.0	0.00e+00	123	35	101	1048576	54	5893
2026-01-07 15:08:32.10	18.47	17.07	-38.1	-39.0	23.8	0.00e+00	123	35	101	1048576	54	5984
2026-01-07 15:08:33.11	18.44	17.19	-38.0	-38.9	24.0	0.00e+00	120	35	101	1048576	54	5900
2026-01-07 15:08:34.12	18.41	17.30	-38.1	-39.0	23.9	0.00e+00	122	35	101	1048576	54	5985
2026-01-07 15:08:35.13	18.38	17.42	-38.2	-39.1	23.8	0.00e+00	120	35	101	1048576	54	6051
2026-01-07 15:08:36.14	18.35	17.54	-38.1	-39.0	23.9	0.00e+00	122	35	101	1048576	54	5958
2026-01-07 15:08:37.15	18.32	17.66	-38.1	-39.0	23.9	0.00e+00	120	35	101	1048576	54	5982
2026-01-07 15:08:38.16	18.30	17.77	-38.0	-39.0	23.9	0.00e+00	123	35	101	1048576	54	5934
2026-01-07 15:08:39.17	18.27	17.89	-38.2	-39.1	23.9	0.00e+00	120	35	101	1048576	54	6022
2026-01-07 15:08:40.18	18.24	18.01	-38.1	-39.1	23.9	0.00e+00	123	35	101	1048576	54	6001
2026-01-07 15:08:41.19	18.21	18.13	-38.0	-39.0	23.9	0.00e+00	122	35	101	1048576	54	5937
2026-01-07 15:08:42.20	18.18	18.26	-38.2	-39.1	23.8	0.00e+00	123	35	101	1048576	54	6040
2026-01-07 15:08:43.22	18.15	18.38	-38.1	-39.1	23.8	0.00e+00	123	35	101	1048576	54	6001
2026-01-07 15:08:44.23	18.12	18.50	-38.1	-39.0	23.9	0.00e+00	123	35	101	1048576	54	5970
2026-01-07 15:08:45.24	18.08	18.62	-38.1	-39.0	23.8	0.00e+00	122	35	101	1048576	54	5962
2026-01-07 15:08:46.25	18.05	18.75	-38.1	-39.0	23.9	0.00e+00	123	35	101	1048576	54	5946
2026-01-07 15:08:47.26	18.02	18.87	-38.1	-39.0	24.0	0.00e+00	123	35	101	1048576	54	5964
2026-01-07 15:08:48.27	17.99	19.00	-38.1	-39.0	23.9	0.00e+00	122	35	101	1048576	54	5979
2026-01-07 15:08:49.28	17.96	19.12	-37.9	-38.9	24.0	0.00e+00	121	35	101	1048576	54	5877
2026-01-07 15:08:50.29	17.93	19.25	-38.1	-39.0	24.0	0.00e+00	123	35	101	1048576	54	5962
2026-01-07 15:08:51.30	17.89	19.37	-38.0	-39.0	24.0	0.00e+00	122	35	101	1048576	54	5930
2026-01-07 15:08:52.31	17.86	19.50	-37.9	-38.9	24.0	0.00e+00	122	35	101	1048576	54	5859
2026-01-07 15:08:53.32	17.83	19.63	-38.0	-39.0	24.0	0.00e+00	123	35	101	1048576	54	5931
2026-01-07 15:08:54.34	17.79	19.76	-37.9	-38.9	24.0	0.00e+00	123	35	101	1048576	54	5861
2026-01-07 15:08:55.35	17.76	19.89	-37.8	-38.7	24.1	0.00e+00	122	35	101	1048576	54	5745
2026-01-07 15:08:56.36	17.72	20.02	-37.7	-38.6	24.2	0.00e+00	121	35	101	1048576	54	5695
2026-01-07 15:08:57.37	17.69	20.15	-37.7	-38.6	24.1	0.00e+00	122	35	101	1048576	54	5725
2026-01-07 15:08:58.38	17.65	20.28	-37.6	-38.5	24.4	0.00e+00	122	35	101	1048576	54	5635
2026-01-07 15:08:59.39	17.62	20.41	-37.6	-38.5	24.3	0.00e+00	123	35	101	1048576	54	5599
2026-01-07 15:09:00.40	17.58	20.54	-37.5	-38.5	24.3	0.00e+00	122	35	101	1048576	54	5600
2026-01-07 15:09:01.41	17.55	20.68	-37.7	-38.6	24.2	0.00e+00	121	35	101	1048576	54	5699
2026-01-07 15:09:02.42	17.51	20.81	-37.7	-38.6	24.2	0.00e+00	122	35	101	1048576	54	5700
2026-01-07 15:09:03.43	17.48	20.95	-37.4	-38.3	24.5	0.00e+00	123	35	101	1048576	54	5484
2026-01-07 15:09:04.44	17.44	21.08	-37.3	-38.2	24.5	0.00e+00	122	35	101	1048576	54	5465
2026-01-07 15:09:05.45	17.40	21.22	-37.2	-38.1	24.6	0.00e+00	123	35	101	1048576	54	5368
2026-01-07 15:09:06.47	17.36	21.36	-37.3	-38.2	24.6	0.00e+00	123	35	101	1048576	54	5434
2026-01-07 15:09:07.48	17.32	21.49	-37.1	-38.0	24.7	0.00e+00	123	35	101	1048576	54	5334
2026-01-07 15:09:08.49	17.29	21.63	-37.2	-38.1	24.7	0.00e+00	122	35	101	1048576	52	6043
2026-01-07 15:09:09.50	17.25	21.77	-37.0	-37.9	24.7	0.00e+00	122	35	101	1048576	52	5902
2026-01-07 15:09:10.51	17.21	21.91	-37.0	-37.9	24.9	0.00e+00	122	35	101	1048576	52	5903
2026-01-07 15:09:11.52	17.17	22.05	-36.9	-37.8	24.9	0.00e+00	123	35	101	1048576	52	5820
2026-01-07 15:09:12.53	17.13	22.19	-36.9	-37.8	24.9	0.00e+00	122	35	101	1048576	52	5839
2026-01-07 15:09:13.54	17.09	22.34	-36.8	-37.7	25.0	0.00e+00	123	35	101	1048576	52	5733
2026-01-07 15:09:14.55	17.05	22.48	-36.7	-37.6	25.1	0.00e+00	123	35	101	1048576	52	5666
2026-01-07 15:09:15.57	17.01	22.62	-36.8	-37.7	25.0	0.00e+00	123	35	101	1048576	52	5747
2026-01-07 15:09:16.58	16.96	22.77	-36.5	-37.4	25.2	0.00e+00	122	35	101	1048576	52	5562
2026-01-07 15:09:17.59	16.92	22.91	-36.5	-37.4	25.2	0.00e+00	123	35	101	1048576	52	5560
2026-01-07 15:09:18.60	16.88	23.06	-36.5	-37.4	25.2	0.00e+00	123	35	101	1048576	52	5553
2026-01-07 15:09:19.61	16.84	23.21	-36.5	-37.4	25.2	0.00e+00	120	35	101	1048576	52	5538
2026-01-07 15:09:20.62	16.79	23.35	-36.4	-37.3	25.3	0.00e+00	123	35	101	1048576	52	5483
2026-01-07 15:09:21.63	16.75	23.50	-36.6	-37.4	25.2	0.00e+00	123	35	101	1048576	52	5587
2026-01-07 15:09:22.64	16.70	23.65	-36.5	-37.4	25.2	0.00e+00	123	35	101	1048576	52	5557
2026-01-07 15:09:23.65	16.66	23.80	-36.5	-37.4	25.2	0.00e+00	122	35	101	1048576	52	5554
2026-01-07 15:09:24.66	16.61	23.95	-36.5	-37.4	25.1	0.00e+00	120	35	101	1048576	52	5544
2026-01-07 15:09:25.67	16.57	24.11	-36.5	-37.4	25.2	0.00e+00	123	35	101	1048576	52	5544
2026-01-07 15:09:26.68	16.52	24.26	-36.6	-37.5	25.1	0.00e+00	122	35	101	1048576	52	5619
2026-01-07 15:09:27.70	16.48	24.41	-36.6	-37.5	25.2	0.00e+00	122	35	101	1048576	52	5628
2026-01-07 15:09:28.71	16.43	24.57	-36.7	-37.5	25.1	0.00e+00	122	35	101	1048576	52	5656
2026-01-07 15:09:29.72	16.38	24.72	-36.7	-37.6	25.1	0.00e+00	122	35	101	1048576	52	5705
2026-01-07 15:09:30.73	16.33	24.88	-36.9	-37.8	25.0	0.00e+00	120	35	101	1048576	52	5814
2026-01-07 15:09:31.74	16.28	25.04	-36.9	-37.8	24.9	0.00e+00	123	35	101	1048576	52	5851
2026-01-07 15:09:32.75	16.23	25.20	-37.0	-37.9	24.9	0.00e+00	123	35	101	1048576	52	5884
2026-01-07 15:09:33.76	16.18	25.35	-37.1	-38.0	24.7	0.00e+00	122	35	101	1048576	52	5967
2026-01-07 15:09:34.77	16.13	25.52	-37.2	-38.1	24.8	0.00e+00	120	35	101	1048576	52	6062
2026-01-07 15:09:35.78	16.08	25.68	-37.3	-38.2	24.7	0.00e+00	122	35	101	1048576	52	6112
2026-01-07 15:09:36.79	16.03	25.84	-37.4	-38.3	24.7	0.00e+00	120	35	101	1048576	52	6163
2026-01-07 15:09:37.81	15.98	26.00	-37.6	-38.5	24.5	0.00e+00	123	35	101	1048576	52	6301
2026-01-07 15:09:38.82	15.93	26.17	-37.7	-38.6	24.5	0.00e+00	123	35	101	1048576	52	6364
2026-01-07 15:09:39.83	15.87	26.33	-37.7	-38.7	24.3	0.00e+00	123	35	101	1048576	52	6448
2026-01-07 15:09:40.84	15.82	26.50	-37.8	-38.7	24.4	0.00e+00	123	35	101	1048576	52	6457
2026-01-07 15:09:41.85	15.76	26.66	-37.8	-38.8	24.3	0.00e+00	123	35	101	1048576	52	6508
2026-01-07 15:09:42.86	15.71	26.83	-37.9	-38.8	24.3	0.00e+00	123	35	101	1048576	52	6554
2026-01-07 15:09:43.87	15.65	27.00	-37.9	-38.8	24.2	0.00e+00	122	35	101	1048576	52	6565
2026-01-07 15:09:44.88	15.60	27.17	-38.1	-39.0	24.2	0.00e+00	120	35	101	1048576	52	6695
2026-01-07 15:09:45.90	15.54	27.34	-38.0	-38.9	24.2	0.00e+00	123	35	101	1048576	52	6648
2026-01-07 15:09:46.91	15.48	27.52	-38.0	-39.0	24.2	0.00e+00	120	35	101	1048576	52	6658
2026-01-07 15:09:47.92	15.42	27.69	-38.2	-39.1	24.1	0.00e+00	122	35	101	1048576	54	6035
2026-01-07 15:09:48.93	15.37	27.86	-38.2	-39.1	24.0	0.00e+00	120	35	101	1048576	54	6062
2026-01-07 15:09:49.94	15.31	28.04	-38.3	-39.3	23.9	0.00e+00	122	35	101	1048576	54	6153
2026-01-07 15:09:50.95	15.25	28.21	-38.4	-39.3	23.9	0.00e+00	120	35	101	1048576	54	6199
2026-01-07 15:09:51.96	15.18	28.39	-38.3	-39.2	24.0	0.00e+00	123	35	101	1048576	54	6085
2026-01-07 15:09:52.97	15.12	28.57	-38.5	-39.4	23.9	0.00e+00	122	35	101	1048576	54	6253
2026-01-07 15:09:53.98	15.06	28.75	-38.3	-39.2	24.0	0.00e+00	123	35	101	1048576	54	6115
2026-01-07 15:09:55.00	15.00	28.93	-38.3	-39.2	23.9	0.00e+00	120	35	101	1048576	54	6094
2026-01-07 15:09:56.01	14.93	29.11	-38.1	-39.0	24.1	0.00e+00	123	35	101	1048576	54	5948
2026-01-07 15:09:57.02	14.87	29.30	-38.0	-38.9	24.2	0.00e+00	122	35	101	1048576	54	5912
2026-01-07 15:09:58.03	14.80	29.48	-37.9	-38.9	24.2	0.00e+00	123	35	101	1048576	54	5870
2026-01-07 15:09:59.04	14.74	29.67	-37.7	-38.6	24.4	0.00e+00	123	35	101	1048576	54	5667
2026-01-07 15:10:00.05	14.67	29.85	-37.7	-38.6	24.4	0.00e+00	123	35	101	1048576	54	5691
2026-01-07 15:10:01.06	14.60	30.04	-37.4	-38.3	24.6	0.00e+00	121	35	101	1048576	54	5468
2026-01-07 15:10:02.07	14.53	30.23	-37.3	-38.2	24.7	0.00e+00	122	35	101	1048576	54	5435
2026-01-07 15:10:03.08	14.46	30.42	-37.2	-38.1	24.7	0.00e+00	122	35	101	1048576	52	6048
2026-01-07 15:10:04.09	14.39	30.61	-37.2	-38.1	24.7	0.00e+00	122	35	101	1048576	52	6035
2026-01-07 15:10:05.10	14.32	30.80	-37.2	-38.1	24.8	0.00e+00	120	35	101	1048576	52	6009
2026-01-07 15:10:06.12	14.25	31.00	-37.2	-38.1	24.8	0.00e+00	123	35	101	1048576	52	6045
2026-01-07 15:10:07.13	14.17	31.19	-37.2	-38.1	24.9	0.00e+00	123	35	101	1048576	52	6051
2026-01-07 15:10:08.14	14.10	31.39	-37.2	-38.2	24.8	0.00e+00	123	35	101	1048576	52	6066
2026-01-07 15:10:09.15	14.02	31.59	-37.3	-38.2	24.7	0.00e+00	122	35	101	1048576	52	6078
2026-01-07 15:10:10.16	13.95	31.79	-37.4	-38.3	24.7	0.00e+00	122	35	101	1048576	52	6181
2026-01-07 15:10:11.17	13.87	31.99	-37.5	-38.4	24.7	0.00e+00	122	35	101	1048576	52	6211
2026-01-07 15:10:12.18	13.79	32.19	-37.6	-38.5	24.5	0.00e+00	122	35	101	1048576	52	6312
2026-01-07 15:10:13.19	13.71	32.39	-37.6	-38.5	24.6	0.00e+00	122	35	101	1048576	52	6288
2026-01-07 15:10:14.21	13.63	32.60	-37.6	-38.5	24.5	0.00e+00	123	35	101	1048576	52	6336
2026-01-07 15:10:15.22	13.55	32.80	-37.8	-38.7	24.4	0.00e+00	123	35	101	1048576	52	6442
2026-01-07 15:10:16.23	13.47	33.01	-37.9	-38.8	24.3	0.00e+00	123	35	101	1048576	52	6522
2026-01-07 15:10:17.24	13.38	33.22	-38.2	-39.1	24.2	0.00e+00	123	35	101	1048576	52	6762
2026-01-07 15:10:18.25	13.30	33.43	-38.1	-39.0	24.2	0.00e+00	123	35	101	1048576	54	5983
2026-01-07 15:10:19.26	13.21	33.64	-38.4	-39.3	23.9	0.00e+00	122	35	101	1048576	54	6190
2026-01-07 15:10:20.27	13.13	33.85	-38.5	-39.5	23.8	0.00e+00	122	35	101	1048576	54	6280
2026-01-07 15:10:21.28	13.04	34.06	-38.7	-39.6	23.7	0.00e+00	123	35	101	1048576	54	6398
2026-01-07 15:10:22.29	12.95	34.28	-38.5	-39.4	23.9	0.00e+00	123	35	101	1048576	54	6233
2026-01-07 15:10:23.30	12.86	34.49	-38.5	-39.4	23.9	0.00e+00	123	35	101	1048576	54	6261
2026-01-07 15:10:24.31	12.77	34.71	-38.5	-39.5	23.8	0.00e+00	120	35	101	1048576	54	6282
2026-01-07 15:10:25.32	12.67	34.93	-38.7	-39.7	23.7	0.00e+00	123	35	101	1048576	54	6455
2026-01-07 15:10:26.33	12.58	35.15	-39.0	-39.9	23.5	0.00e+00	123	35	101	1048576	54	6648
2026-01-07 15:10:27.34	12.48	35.37	-39.2	-40.2	23.4	0.00e+00	123	35	101	1048576	56	6098
2026-01-07 15:10:28.36	12.38	35.60	-39.2	-40.1	23.3	0.00e+00	123	35	101	1048576	56	6064
2026-01-07 15:10:29.37	12.29	35.82	-39.4	-40.3	23.2	0.00e+00	123	35	101	1048576	56	6203
2026-01-07 15:10:30.38	12.19	36.05	-39.5	-40.5	23.1	0.00e+00	121	35	101	1048576	56	6328
2026-01-07 15:10:31.39	12.08	36.28	-39.4	-40.4	23.2	0.00e+00	122	35	101	1048576	56	6230
2026-01-07 15:10:32.40	11.98	36.51	-39.5	-40.5	23.0	0.00e+00	123	35	101	1048576	56	6316
2026-01-07 15:10:33.41	11.88	36.74	-39.6	-40.5	23.1	0.00e+00	122	35	101	1048576	56	6341
2026-01-07 15:10:34.42	11.77	36.97	-39.5	-40.4	23.2	0.00e+00	122	35	101	1048576	56	6257
2026-01-07 15:10:35.43	11.66	37.21	-39.4	-40.4	23.1	0.00e+00	122	35	101	1048576	56	6233
2026-01-07 15:10:36.44	11.55	37.44	-39.5	-40.4	23.1	0.00e+00	123	35	101	1048576	56	6248
2026-01-07 15:10:37.45	11.44	37.68	-39.5	-40.5	23.1	0.00e+00	123	35	101	1048576	56	6279
2026-01-07 15:10:38.46	11.33	37.92	-39.3	-40.3	23.2	0.00e+00	122	35	101	1048576	56	6153
2026-01-07 15:10:39.47	11.22	38.16	-39.4	-40.3	23.2	0.00e+00	123	35	101	1048576	56	6193
2026-01-07 15:10:40.49	11.10	38.40	-39.3	-40.3	23.3	0.00e+00	123	35	101	1048576	56	6141
2026-01-07 15:10:41.49	10.98	38.64	-39.4	-40.4	23.2	0.00e+00	122	35	101	1048576	56	6207
2026-01-07 15:10:42.51	10.86	38.89	-39.3	-40.3	23.2	0.00e+00	120	35	101	1048576	56	6150
2026-01-07 15:10:43.52	10.74	39.14	-39.4	-40.4	23.2	0.00e+00	123	35	101	1048576	56	6258
2026-01-07 15:10:44.53	10.62	39.39	-39.6	-40.6	23.1	0.00e+00	120	35	101	1048576	56	6379
2026-01-07 15:10:45.54	10.49	39.64	-39.7	-40.7	22.9	0.00e+00	123	35	101	1048576	56	6493
2026-01-07 15:10:46.55	10.36	39.89	-39.9	-40.9	22.8	0.00e+00	120	35	101	1048576	56	6599
2026-01-07 15:10:47.56	10.23	40.14	-40.0	-41.1	22.6	0.00e+00	123	35	101	1048576	56	6735
2026-01-07 15:10:48.57	10.10	40.40	-40.1	-41.1	22.5	0.00e+00	120	35	101	1048576	58	6054
2026-01-07 15:10:49.58	9.97	40.65	-40.0	-41.0	22.6	0.00e+00	123	35	101	1048576	58	5950
2026-01-07 15:10:50.59	9.83	40.91	-40.0	-41.0	22.6	0.00e+00	120	35	101	1048576	58	5979
2026-01-07 15:10:51.60	9.69	41.17	-40.1	-41.2	22.5	0.00e+00	122	35	101	1048576	58	6085
2026-01-07 15:10:52.62	9.55	41.44	-40.1	-41.2	22.5	0.00e+00	120	35	101	1048576	58	6082
2026-01-07 15:10:53.63	9.41	41.70	-40.4	-41.4	22.2	0.00e+00	122	35	101	1048576	58	6239
2026-01-07 15:10:54.64	9.26	41.96	-40.4	-41.5	22.2	0.00e+00	120	35	101	1048576	58	6311
2026-01-07 15:10:55.65	9.11	42.23	-40.4	-41.4	22.3	0.00e+00	122	35	101	1048576	58	6277
2026-01-07 15:10:56.66	8.96	42.50	-40.5	-41.6	22.2	0.00e+00	123	35	101	1048576	58	6358
2026-01-07 15:10:57.67	8.81	42.77	-40.3	-41.3	22.4	0.00e+00	123	35	101	1048576	58	6159
2026-01-07 15:10:58.68	8.66	43.04	-40.2	-41.2	22.4	0.00e+00	121	35	101	1048576	58	6096
2026-01-07 15:10:59.69	8.50	43.32	-40.0	-41.0	22.6	0.00e+00	123	35	101	1048576	58	5977
2026-01-07 15:11:00.70	8.34	43.59	-40.1	-41.2	22.3	0.00e+00	120	35	101	1048576	58	6089
2026-01-07 15:11:01.71	8.17	43.87	-40.3	-41.4	22.3	0.00e+00	123	35	101	1048576	58	6209
2026-01-07 15:11:02.72	8.00	44.15	-40.5	-41.6	22.2	0.00e+00	123	35	101	1048576	58	6355
2026-01-07 15:11:03.74	7.83	44.43	-40.6	-41.6	22.1	0.00e+00	122	35	101	1048576	58	6413
2026-01-07 15:11:04.75	7.66	44.71	-40.3	-41.3	22.3	0.00e+00	122	35	101	1048576	58	6176
2026-01-07 15:11:05.76	7.48	45.00	-40.4	-41.4	22.4	0.00e+00	123	35	101	1048576	58	6245
2026-01-07 15:11:06.77	7.30	45.28	-40.3	-41.4	22.3	0.00e+00	123	35	101	1048576	58	6209
2026-01-07 15:11:07.78	7.12	45.57	-40.0	-41.0	22.6	0.00e+00	123	35	101	1048576	58	5948
2026-01-07 15:11:08.79	6.93	45.86	-39.7	-40.7	22.7	0.00e+00	123	35	101	1048576	58	5785
2026-01-07 15:11:09.80	6.74	46.15	-39.5	-40.5	23.1	0.00e+00	120	35	101	1048576	58	5636
2026-01-07 15:11:10.81	6.55	46.44	-39.5	-40.5	23.1	0.00e+00	122	35	101	1048576	58	5602
2026-01-07 15:11:11.82	6.35	46.74	-39.2	-40.1	23.4	0.00e+00	120	35	101	1048576	58	5392
2026-01-07 15:11:12.83	6.15	47.03	-39.0	-39.9	23.6	0.00e+00	123	35	101	1048576	56	5926
2026-01-07 15:11:13.85	5.94	47.33	-39.1	-40.1	23.4	0.00e+00	122	35	101	1048576	56	6011
2026-01-07 15:11:14.86	5.74	47.63	-39.3	-40.3	23.3	0.00e+00	123	35	101	1048576	56	6145
2026-01-07 15:11:15.87	5.52	47.94	-39.3	-40.3	23.3	0.00e+00	123	35	101	1048576	56	6167
2026-01-07 15:11:16.88	5.30	48.24	-39.1	-40.1	23.3	0.00e+00	122	35	101	1048576	56	6036
2026-01-07 15:11:17.89	5.08	48.54	-39.2	-40.2	23.4	0.00e+00	123	35	101	1048576	56	6066
2026-01-07 15:11:18.90	4.86	48.85	-38.9	-39.8	23.6	0.00e+00	123	35	101	1048576	56	5824
2026-01-07 15:11:19.91	4.62	49.16	-39.2	-40.1	23.4	0.00e+00	122	35	101	1048576	56	6044
2026-01-07 15:11:20.92	4.39	49.47	-39.2	-40.2	23.3	0.00e+00	123	35	101	1048576	56	6102
2026-01-07 15:11:21.93	4.15	49.78	-39.3	-40.2	23.3	0.00e+00	123	35	101	1048576	56	6134
2026-01-07 15:11:22.94	3.90	50.09	-39.2	-40.1	23.4	0.00e+00	123	35	101	1048576	56	6052
2026-01-07 15:11:23.96	3.65	50.41	-39.3	-40.3	23.2	0.00e+00	123	35	101	1048576	56	6161
2026-01-07 15:11:24.97	3.39	50.72	-39.1	-40.1	23.3	0.00e+00	120	35	101	1048576	56	6026
2026-01-07 15:11:25.98	3.13	51.04	-39.2	-40.2	23.2	0.00e+00	123	35	101	1048576	56	6111
2026-01-07 15:11:26.99	2.86	51.36	-39.1	-40.1	23.3	0.00e+00	123	35	101	1048576	56	6023
2026-01-07 15:11:28.00	2.59	51.68	-39.2	-40.2	23.4	0.00e+00	123	35	101	1048576	56	6078
2026-01-07 15:11:29.01	2.31	52.00	-38.9	-39.8	23.5	0.00e+00	122	35	101	1048576	56	5834
2026-01-07 15:11:30.02	2.02	52.33	-38.9	-39.9	23.4	0.00e+00	123	35	101	1048576	56	5861
2026-01-07 15:11:31.03	1.73	52.65	-38.7	-39.6	23.5	0.00e+00	120	35	101	1048576	56	5703
2026-01-07 15:11:32.04	1.43	52.98	-38.1	-39.0	23.8	0.00e+00	122	35	101	1048576	56	5308
2026-01-07 15:11:33.06	1.12	53.31	-37.8	-38.7	24.0	0.00e+00	120	35	101	1048576	54	5747
2026-01-07 15:11:34.07	0.81	53.64	-37.7	-38.6	24.4	0.00e+00	122	35	101	1048576	54	5661
2026-01-07 15:11:35.08	0.49	53.96	-37.5	-38.4	24.5	0.00e+00	120	35	101	1048576	54	5586
2026-01-07 15:11:36.09	0.16	54.30	-37.4	-38.3	24.6	0.00e+00	123	35	101	1048576	54	5509
2026-01-07 15:11:37.10	359.83	54.63	-37.6	-38.5	24.4	0.00e+00	122	35	101	1048576	54	5633
2026-01-07 15:11:38.11	359.48	54.96	-37.6	-38.5	24.5	0.00e+00	123	35	101	1048576	54	5626
2026-01-07 15:11:39.12	359.13	55.30	-37.6	-38.5	24.3	0.00e+00	123	35	101	1048576	54	5622
2026-01-07 15:11:40.13	358.77	55.63	-37.5	-38.4	24.4	0.00e+00	123	35	101	1048576	54	5552
2026-01-07 15:11:41.14	358.40	55.97	-37.4	-38.3	24.6	0.00e+00	122	35	101	1048576	54	5505
2026-01-07 15:11:42.15	358.02	56.30	-37.2	-38.1	24.9	0.00e+00	122	35	101	1048576	54	5367
2026-01-07 15:11:43.16	357.64	56.64	-37.0	-37.9	25.0	0.00e+00	120	35	101	1048576	52	5873
2026-01-07 15:11:44.18	357.23	56.98	-37.0	-37.9	24.8	0.00e+00	123	35	101	1048576	52	5906
2026-01-07 15:11:45.19	356.83	57.32	-37.1	-38.0	25.0	0.00e+00	122	35	101	1048576	52	5956
2026-01-07 15:11:46.20	356.41	57.66	-37.2	-38.1	24.9	0.00e+00	123	35	101	1048576	52	5995
2026-01-07 15:11:47.21	355.98	58.00	-37.2	-38.1	24.8	0.00e+00	120	35	101	1048576	52	6044
2026-01-07 15:11:48.22	355.54	58.35	-37.1	-38.0	24.9	0.00e+00	122	35	101	1048576	52	5985
2026-01-07 15:11:49.23	355.09	58.69	-37.1	-38.0	24.9	0.00e+00	123	35	101	1048576	52	5960
2026-01-07 15:11:50.24	354.63	59.03	-37.2	-38.1	24.8	0.00e+00	122	35	101	1048576	52	6053
2026-01-07 15:11:51.25	354.15	59.37	-37.2	-38.1	24.9	0.00e+00	120	35	101	1048576	52	6047
2026-01-07 15:11:52.26	353.66	59.71	-37.2	-38.1	24.8	0.00e+00	123	35	101	1048576	52	6019
2026-01-07 15:11:53.27	353.16	60.05	-37.1	-37.9	24.9	0.00e+00	123	35	101	1048576	52	5921
2026-01-07 15:11:54.28	352.65	60.39	-36.8	-37.7	25.0	0.00e+00	122	35	101	1048576	52	5761
2026-01-07 15:11:55.30	352.11	60.74	-36.7	-37.6	25.0	0.00e+00	121	35	101	1048576	52	5688
2026-01-07 15:11:56.31	351.57	61.08	-36.8	-37.7	25.1	0.00e+00	122	35	101	1048576	52	5755
2026-01-07 15:11:57.32	351.01	61.42	-36.7	-37.5	25.3	0.00e+00	122	35	101	1048576	52	5649
2026-01-07 15:11:58.33	350.44	61.76	-36.4	-37.3	25.4	0.00e+00	122	35	101	1048576	52	5496
2026-01-07 15:11:59.34	349.85	62.10	-36.3	-37.2	25.4	0.00e+00	122	35	101	1048576	52	5450
2026-01-07 15:12:00.35	349.24	62.43	-36.3	-37.1	25.3	0.00e+00	122	35	101	1048576	52	5390
2026-01-07 15:12:01.36	348.62	62.77	-36.4	-37.3	25.2	0.00e+00	123	35	101	1048576	52	5494
2026-01-07 15:12:02.37	347.97	63.11	-36.3	-37.2	25.4	0.00e+00	123	35	101	1048576	52	5417
2026-01-07 15:12:03.38	347.31	63.44	-36.1	-37.0	25.6	0.00e+00	122	35	101	1048576	50	5937
2026-01-07 15:12:04.39	346.63	63.77	-36.0	-36.8	25.7	0.00e+00	123	35	101	1048576	50	5825
2026-01-07 15:12:05.40	345.94	64.10	-35.9	-36.8	25.6	0.00e+00	123	35	101	1048576	50	5803
2026-01-07 15:12:06.42	345.21	64.43	-35.8	-36.7	25.5	0.00e+00	122	35	101	1048576	50	5754
2026-01-07 15:12:07.43	344.47	64.76	-36.0	-36.9	25.3	0.00e+00	123	35	101	1048576	50	5868
2026-01-07 15:12:08.44	343.71	65.08	-36.0	-36.9	25.5	0.00e+00	122	35	101	1048576	50	5884
2026-01-07 15:12:09.45	342.92	65.40	-35.9	-36.8	25.6	0.00e+00	123	35	101	1048576	50	5830
2026-01-07 15:12:10.46	342.11	65.72	-35.8	-36.6	25.8	0.00e+00	123	35	101	1048576	50	5696
2026-01-07 15:12:11.47	341.28	66.03	-35.9	-36.8	25.7	0.00e+00	123	35	101	1048576	50	5812
2026-01-07 15:12:12.48	340.43	66.34	-36.2	-37.1	25.4	0.00e+00	122	35	101	1048576	50	6035
2026-01-07 15:12:13.49	339.55	66.65	-36.4	-37.3	25.3	0.00e+00	123	35	101	1048576	50	6154
2026-01-07 15:12:14.50	338.64	66.95	-36.4	-37.2	25.4	0.00e+00	122	35	101	1048576	50	6106
2026-01-07 15:12:15.51	337.71	67.25	-36.2	-37.1	25.5	0.00e+00	120	35	101	1048576	50	6003
2026-01-07 15:12:16.53	336.74	67.55	-36.2	-37.0	25.5	0.00e+00	122	35	101	1048576	50	5979
2026-01-07 15:12:17.53	335.76	67.83	-36.0	-36.9	25.6	0.00e+00	123	35	101	1048576	50	5884
2026-01-07 15:12:18.55	334.74	68.12	-36.1	-37.0	25.5	0.00e+00	122	35	101	1048576	50	5937
2026-01-07 15:12:19.56	333.69	68.40	-36.0	-36.9	25.7	0.00e+00	122	35	101	1048576	50	5890
2026-01-07 15:12:20.57	332.62	68.67	-35.9	-36.8	25.7	0.00e+00	123	35	101	1048576	50	5795
2026-01-07 15:12:21.58	331.51	68.93	-36.1	-37.0	25.5	0.00e+00	122	35	101	1048576	50	5943
2026-01-07 15:12:22.59	330.38	69.19	-36.0	-36.9	25.4	0.00e+00	123	35	101	1048576	50	5878
2026-01-07 15:12:23.60	329.22	69.44	-36.2	-37.1	25.5	0.00e+00	120	35	101	1048576	50	6004
2026-01-07 15:12:24.61	328.02	69.69	-36.4	-37.3	25.3	0.00e+00	123	35	101	1048576	50	6198
2026-01-07 15:12:25.62	326.80	69.92	-36.4	-37.3	25.3	0.00e+00	122	35	101	1048576	50	6157
2026-01-07 15:12:26.63	325.54	70.15	-36.5	-37.4	25.2	0.00e+00	122	35	101	1048576	50	6206
2026-01-07 15:12:27.65	324.24	70.37	-36.6	-37.5	25.3	0.00e+00	120	35	101	1048576	50	6288
2026-01-07 15:12:28.66	322.92	70.58	-36.8	-37.7	25.1	0.00e+00	123	35	101	1048576	50	6441
2026-01-07 15:12:29.67	321.58	70.78	-36.4	-37.3	25.4	0.00e+00	123	35	101	1048576	50	6174
2026-01-07 15:12:30.68	320.20	70.97	-36.3	-37.2	25.4	0.00e+00	123	35	101	1048576	50	6115
2026-01-07 15:12:31.69	318.79	71.15	-36.6	-37.5	25.2	0.00e+00	120	35	101	1048576	50	6324
2026-01-07 15:12:32.70	317.36	71.32	-37.2	-38.1	24.7	0.00e+00	123	35	101	1048576	50	6757
2026-01-07 15:12:33.71	315.90	71.48	-37.0	-37.9	24.8	0.00e+00	123	35	101	1048576	52	5886
2026-01-07 15:12:34.72	314.41	71.63	-36.7	-37.5	25.2	0.00e+00	122	35	101	1048576	52	5648
2026-01-07 15:12:35.74	312.89	71.76	-36.3	-37.1	25.3	0.00e+00	122	35	101	1048576	52	5404
2026-01-07 15:12:36.74	311.37	71.89	-36.2	-37.1	25.1	0.00e+00	123	35	101	1048576	52	5374
2026-01-07 15:12:37.76	309.79	72.00	-36.1	-37.0	25.3	0.00e+00	120	35	101	1048576	50	5958
2026-01-07 15:12:38.77	308.22	72.10	-36.1	-37.0	25.6	0.00e+00	122	35	101	1048576	50	5942
2026-01-07 15:12:39.78	306.63	72.18	-36.4	-37.3	25.1	0.00e+00	123	35	101	1048576	50	6158
2026-01-07 15:12:40.79	305.02	72.25	-36.0	-36.8	25.4	0.00e+00	121	35	101	1048576	50	5841
2026-01-07 15:12:41.80	303.40	72.31	-35.9	-36.8	25.7	0.00e+00	122	35	101	1048576	50	5795
2026-01-07 15:12:42.81	301.77	72.36	-36.3	-37.1	25.5	0.00e+00	120	35	101	1048576	50	6052
2026-01-07 15:12:43.82	300.13	72.39	-36.9	-37.8	24.9	0.00e+00	122	35	101	1048576	50	6507
2026-01-07 15:12:44.83	298.49	72.41	-37.0	-37.9	24.7	0.00e+00	120	35	101	1048576	50	6645
2026-01-07 15:12:45.84	296.84	72.41	-36.6	-37.5	25.1	0.00e+00	122	35	101	1048576	50	6295
2026-01-07 15:12:46.85	295.20	72.40	-36.1	-36.9	25.4	0.00e+00	123	35	101	1048576	50	5925
2026-01-07 15:12:47.86	293.56	72.38	-36.1	-37.0	25.4	0.00e+00	122	35	101	1048576	50	5955
2026-01-07 15:12:48.87	291.92	72.34	-36.2	-37.1	25.4	0.00e+00	120	35	101	1048576	50	6009
2026-01-07 15:12:49.88	290.30	72.29	-36.6	-37.5	25.3	0.00e+00	123	35	101	1048576	50	6292
2026-01-07 15:12:50.90	288.67	72.22	-36.6	-37.5	25.2	0.00e+00	120	35	101	1048576	50	6307
2026-01-07 15:12:51.91	287.06	72.15	-36.3	-37.2	25.3	0.00e+00	122	35	101	1048576	50	6076
2026-01-07 15:12:52.92	285.48	72.06	-35.8	-36.7	25.5	0.00e+00	122	35	101	1048576	50	5753
2026-01-07 15:12:53.93	283.91	71.95	-36.1	-36.9	25.3	0.00e+00	123	35	101	1048576	50	5916
2026-01-07 15:12:54.94	282.36	71.84	-36.4	-37.3	24.8	0.00e+00	123	35	101	1048576	50	6190
2026-01-07 15:12:55.95	280.84	71.71	-36.8	-37.7	24.5	0.00e+00	120	36	101	1048576	50	6463
2026-01-07 15:12:56.96	279.33	71.57	-36.7	-37.7	24.8	0.00e+00	123	35	101	1048576	50	6435
2026-01-07 15:12:57.97	277.86	71.42	-36.7	-37.6	24.5	0.00e+00	123	35	101	1048576	50	6388
2026-01-07 15:12:58.98	276.41	71.25	-36.7	-37.7	24.9	0.00e+00	123	35	101	1048576	50	6426
2026-01-07 15:12:59.99	274.98	71.08	-36.2	-37.1	25.4	0.00e+00	122	35	101	1048576	50	6033
2026-01-07 15:13:01.00	273.59	70.89	-36.0	-36.9	25.6	0.00e+00	122	35	101	1048576	50	5886
2026-01-07 15:13:02.01	272.22	70.70	-36.2	-37.0	25.6	0.00e+00	123	35	101	1048576	50	5978
2026-01-07 15:13:03.02	270.89	70.49	-36.6	-37.5	25.2	0.00e+00	123	35	101	1048576	50	6291
2026-01-07 15:13:04.03	269.58	70.28	-35.8	-36.6	25.6	0.00e+00	123	35	101	1048576	50	5704
2026-01-07 15:13:05.04	268.30	70.06	-35.7	-36.5	25.6	0.00e+00	123	35	101	1048576	50	5654
2026-01-07 15:13:06.05	267.06	69.83	-35.6	-36.4	25.7	0.00e+00	123	35	101	1048576	50	5557
2026-01-07 15:13:07.07	265.83	69.58	-35.7	-36.5	25.7	0.00e+00	123	35	101	1048576	50	5652
2026-01-07 15:13:08.08	264.65	69.34	-36.0	-36.9	25.5	0.00e+00	122	35	101	1048576	50	5883
2026-01-07 15:13:09.09	263.50	69.08	-36.6	-37.5	25.0	0.00e+00	122	35	101	1048576	50	6300
2026-01-07 15:13:10.10	262.38	68.82	-36.8	-37.7	24.3	0.00e+00	122	35	101	1048576	50	6498
2026-01-07 15:13:11.11	261.29	68.55	-36.4	-37.3	24.5	0.00e+00	120	35	101	1048576	50	6155
2026-01-07 15:13:12.12	260.22	68.28	-35.8	-36.7	25.4	0.00e+00	123	35	101	1048576	50	5741
2026-01-07 15:13:13.13	259.19	68.00	-35.8	-36.6	25.7	0.00e+00	123	35	101	1048576	50	5715
2026-01-07 15:13:14.14	258.19	67.71	-36.6	-37.4	25.2	0.00e+00	123	35	101	1048576	50	6270
2026-01-07 15:13:15.15	257.21	67.42	-37.1	-38.0	24.5	0.00e+00	123	35	101	1048576	50	6707
2026-01-07 15:13:16.16	256.26	67.12	-36.9	-37.8	24.9	0.00e+00	123	35	101	1048576	50	6524
2026-01-07 15:13:17.17	255.34	66.82	-36.7	-37.6	25.1	0.00e+00	123	35	101	1048576	50	6380
2026-01-07 15:13:18.18	254.44	66.52	-36.6	-37.4	25.1	0.00e+00	123	35	101	1048576	50	6266
2026-01-07 15:13:19.19	253.57	66.21	-36.2	-37.1	25.5	0.00e+00	123	35	101	1048576	50	6003
2026-01-07 15:13:20.20	252.72	65.90	-36.5	-37.4	25.3	0.00e+00	120	35	101	1048576	50	6213
2026-01-07 15:13:21.22	251.89	65.58	-37.0	-37.9	24.9	0.00e+00	120	35	101	1048576	50	6646
2026-01-07 15:13:22.23	251.10	65.26	-37.7	-38.6	24.6	0.00e+00	122	35	101	1048576	52	6391
2026-01-07 15:13:23.24	250.32	64.94	-37.0	-37.9	24.9	0.00e+00	122	35	101	1048576	52	5865
2026-01-07 15:13:24.25	249.57	64.61	-36.4	-37.3	25.3	0.00e+00	122	35	101	1048576	52	5514
2026-01-07 15:13:25.26	248.83	64.29	-36.0	-36.9	25.6	0.00e+00	123	35	101	1048576	50	5868
2026-01-07 15:13:26.27	248.12	63.96	-36.5	-37.3	25.4	0.00e+00	123	35	101	1048576	50	6177
2026-01-07 15:13:27.28	247.43	63.63	-37.3	-38.2	24.7	0.00e+00	121	35	101	1048576	50	6836
2026-01-07 15:13:28.29	246.76	63.29	-38.2	-39.2	24.1	0.00e+00	122	35	101	1048576	52	6819
2026-01-07 15:13:29.31	246.10	62.95	-38.0	-38.9	24.1	0.00e+00	120	36	101	1048576	54	5901
2026-01-07 15:13:30.32	245.46	62.62	-36.6	-37.4	25.1	0.00e+00	123	35	101	1048576	52	5584
2026-01-07 15:13:31.33	244.84	62.28	-35.8	-36.6	25.7	0.00e+00	120	35	101	1048576	50	5705
2026-01-07 15:13:32.34	244.24	61.94	-35.9	-36.7	25.8	0.00e+00	123	35	101	1048576	50	5758
2026-01-07 15:13:33.35	243.66	61.60	-36.4	-37.2	25.3	0.00e+00	123	35	101	1048576	50	6130
2026-01-07 15:13:34.36	243.09	61.26	-37.0	-37.9	25.0	0.00e+00	122	35	101	1048576	50	6575
2026-01-07 15:13:35.37	242.54	60.92	-37.5	-38.4	24.6	0.00e+00	123	35	101	1048576	52	6263
2026-01-07 15:13:36.38	242.00	60.58	-37.4	-38.3	24.8	0.00e+00	122	35	101	1048576	52	6150
2026-01-07 15:13:37.39	241.48	60.24	-37.4	-38.3	24.7	0.00e+00	123	36	101	1048576	52	6148
2026-01-07 15:13:38.40	240.97	59.89	-36.9	-37.8	24.9	0.00e+00	122	35	101	1048576	52	5835
2026-01-07 15:13:39.41	240.47	59.55	-36.9	-37.7	25.2	0.00e+00	123	35	101	1048576	52	5754
2026-01-07 15:13:40.42	239.99	59.21	-36.4	-37.3	25.4	0.00e+00	123	35	101	1048576	52	5473
2026-01-07 15:13:41.43	239.52	58.87	-36.5	-37.3	25.3	0.00e+00	122	35	101	1048576	52	5507
2026-01-07 15:13:42.44	239.06	58.53	-37.3	-38.2	24.7	0.00e+00	123	35	101	1048576	52	6068
2026-01-07 15:13:43.46	238.61	58.18	-37.9	-38.8	24.3	0.00e+00	123	35	101	1048576	52	6554
2026-01-07 15:13:44.47	238.17	57.84	-37.8	-38.7	23.3	0.00e+00	123	35	101	1048576	52	6496
2026-01-07 15:13:45.48	237.75	57.50	-37.3	-38.3	23.7	0.00e+00	123	35	101	1048576	52	6142
2026-01-07 15:13:46.49	237.33	57.16	-37.1	-38.0	24.6	0.00e+00	123	35	101	1048576	52	5972
2026-01-07 15:13:47.50	236.93	56.82	-36.6	-37.4	25.2	0.00e+00	123	35	101	1048576	52	5567
2026-01-07 15:13:48.51	236.54	56.48	-36.8	-37.6	25.2	0.00e+00	123	35	101	1048576	52	5714
2026-01-07 15:13:49.52	236.15	56.14	-36.9	-37.7	25.0	0.00e+00	120	35	101	1048576	52	5779
2026-01-07 15:13:50.53	235.78	55.80	-37.6	-38.5	24.4	0.00e+00	123	35	101	1048576	52	6310
2026-01-07 15:13:51.54	235.41	55.46	-38.5	-39.4	23.8	0.00e+00	123	35	101	1048576	54	6259
2026-01-07 15:13:52.55	235.05	55.13	-39.4	-40.4	23.1	0.00e+00	123	35	101	1048576	56	6224
2026-01-07 15:13:53.56	234.71	54.79	-40.0	-41.0	22.6	0.00e+00	120	35	101	1048576	56	6703
2026-01-07 15:13:54.57	234.36	54.46	-39.5	-40.6	22.7	0.00e+00	123	35	101	1048576	56	6353
2026-01-07 15:13:55.58	234.03	54.13	-39.2	-40.3	22.8	0.00e+00	122	35	101	1048576	56	6149
2026-01-07 15:13:56.59	233.71	53.80	-38.6	-39.6	23.5	0.00e+00	123	35	101	1048576	56	5691
2026-01-07 15:13:57.60	233.39	53.47	-38.4	-39.3	24.0	0.00e+00	122	35	101	1048576	56	5514
2026-01-07 15:13:58.62	233.08	53.13	-38.2	-39.1	24.0	0.00e+00	122	35	101	1048576	56	5367
2026-01-07 15:13:59.62	232.78	52.81	-38.1	-39.0	23.9	0.00e+00	122	35	101	1048576	54	5965
2026-01-07 15:14:00.64	232.48	52.48	-38.2	-39.1	24.1	0.00e+00	122	35	101	1048576	54	6060
2026-01-07 15:14:01.65	232.19	52.16	-38.5	-39.4	23.9	0.00e+00	122	35	101	1048576	54	6246
2026-01-07 15:14:02.66	231.90	51.83	-39.0	-40.0	23.4	0.00e+00	123	35	101	1048576	54	6668
2026-01-07 15:14:03.67	231.62	51.51	-39.5	-40.4	22.9	0.00e+00	123	35	101	1048576	56	6271
2026-01-07 15:14:04.68	231.35	51.19	-39.9	-41.0	22.5	0.00e+00	122	35	101	1048576	56	6653
2026-01-07 15:14:05.69	231.09	50.87	-39.8	-40.9	22.5	0.00e+00	123	35	101	1048576	56	6576
2026-01-07 15:14:06.70	230.83	50.55	-39.5	-40.5	22.9	0.00e+00	123	35	101	1048576	56	6304
2026-01-07 15:14:07.71	230.57	50.24	-39.0	-39.9	23.6	0.00e+00	123	35	101	1048576	56	5894
2026-01-07 15:14:08.72	230.32	49.92	-38.4	-39.3	24.0	0.00e+00	123	35	101	1048576	56	5520
2026-01-07 15:14:09.73	230.08	49.61	-38.8	-39.7	23.7	0.00e+00	123	35	101	1048576	56	5777
2026-01-07 15:14:10.75	229.84	49.29	-39.4	-40.4	23.2	0.00e+00	123	35	101	1048576	56	6237
2026-01-07 15:14:11.75	229.61	48.99	-39.9	-40.9	22.7	0.00e+00	122	35	101	1048576	56	6620
2026-01-07 15:14:12.77	229.37	48.68	-40.3	-41.3	22.1	0.00e+00	122	35	101	1048576	58	6178
2026-01-07 15:14:13.78	229.15	48.37	-40.7	-41.8	21.6	0.00e+00	122	35	101	1048576	58	6533
2026-01-07 15:14:14.79	228.93	48.07	-41.1	-42.2	21.6	0.00e+00	122	35	101	1048576	58	6845
2026-01-07 15:14:15.80	228.71	47.76	-41.3	-42.5	21.4	0.00e+00	120	35	101	1048576	60	6302
2026-01-07 15:14:16.81	228.50	47.46	-41.3	-42.5	21.4	0.00e+00	123	36	101	1048576	60	6290
2026-01-07 15:14:17.82	228.29	47.16	-40.9	-42.0	21.8	0.00e+00	123	35	101	1048576	60	5945
2026-01-07 15:14:18.83	228.09	46.86	-40.4	-41.5	22.0	0.00e+00	123	35	101	1048576	60	5634
2026-01-07 15:14:19.84	227.89	46.57	-40.4	-41.4	21.9	0.00e+00	120	36	101	1048576	60	5579
2026-01-07 15:14:20.85	227.69	46.27	-39.3	-40.3	23.1	0.00e+00	122	35	101	1048576	58	5488
2026-01-07 15:14:21.86	227.50	45.98	-39.0	-39.9	23.5	0.00e+00	122	35	101	1048576	56	5867
2026-01-07 15:14:22.88	227.31	45.69	-38.5	-39.4	23.8	0.00e+00	120	35	101	1048576	56	5579
2026-01-07 15:14:23.89	227.12	45.40	-39.3	-40.3	23.3	0.00e+00	123	35	101	1048576	56	6144
2026-01-07 15:14:24.90	226.94	45.11	-40.3	-41.3	22.3	0.00e+00	123	35	101	1048576	58	6197
2026-01-07 15:14:25.91	226.76	44.82	-41.5	-42.7	21.3	0.00e+00	126	35	101	1048576	60	6426
2026-01-07 15:14:26.92	226.59	44.54	-42.0	-43.2	20.7	0.00e+00	123	35	101	1048576	60	6858
2026-01-07 15:14:27.93	226.41	44.26	-42.2	-43.4	20.6	0.00e+00	123	35	101	1048576	60	7019
2026-01-07 15:14:28.94	226.25	43.98	-41.8	-42.9	21.1	0.00e+00	123	35	101	1048576	60	6636
2026-01-07 15:14:29.95	226.08	43.70	-40.7	-41.8	22.0	0.00e+00	122	35	101	1048576	60	5817
2026-01-07 15:14:30.96	225.92	43.42	-40.4	-41.4	22.4	0.00e+00	122	35	101	1048576	60	5552
2026-01-07 15:14:31.98	225.75	43.14	-40.1	-41.1	22.6	0.00e+00	122	35	101	1048576	58	6027
2026-01-07 15:14:32.99	225.60	42.87	-40.0	-41.0	22.5	0.00e+00	123	36	101	1048576	58	5981
2026-01-07 15:14:34.00	225.44	42.60	-40.2	-41.3	22.2	0.00e+00	120	35	101	1048576	58	6147
2026-01-07 15:14:35.01	225.29	42.32	-40.2	-41.3	22.3	0.00e+00	123	35	101	1048576	58	6149
2026-01-07 15:14:36.02	225.14	42.06	-40.1	-41.2	22.4	0.00e+00	123	35	101	1048576	58	6085
2026-01-07 15:14:37.03	224.99	41.79	-39.3	-40.2	23.1	0.00e+00	123	36	101	1048576	58	5465
2026-01-07 15:14:38.04	224.85	41.52	-39.3	-40.2	23.2	0.00e+00	123	36	101	1048576	58	5454
2026-01-07 15:14:39.05	224.70	41.26	-39.1	-40.0	23.4	0.00e+00	123	35	101	1048576	56	5974
2026-01-07 15:14:40.06	224.56	41.00	-38.6	-39.5	23.9	0.00e+00	122	35	101	1048576	56	5658
2026-01-07 15:14:41.07	224.43	40.74	-38.7	-39.6	23.8	0.00e+00	123	35	101	1048576	56	5725
2026-01-07 15:14:42.08	224.29	40.48	-39.1	-40.1	23.4	0.00e+00	122	35	101	1048576	56	6005
2026-01-07 15:14:43.09	224.16	40.22	-39.9	-40.9	22.7	0.00e+00	122	35	101	1048576	56	6585
2026-01-07 15:14:44.10	224.03	39.97	-40.6	-41.6	22.1	0.00e+00	122	35	101	1048576	58	6414
2026-01-07 15:14:45.12	223.90	39.71	-40.7	-41.8	21.9	0.00e+00	120	35	101	1048576	58	6508
2026-01-07 15:14:46.13	223.77	39.46	-40.5	-41.6	22.2	0.00e+00	123	35	101	1048576	58	6390
2026-01-07 15:14:47.14	223.64	39.21	-40.4	-41.5	22.2	0.00e+00	123	35	101	1048576	58	6300
2026-01-07 15:14:48.15	223.52	38.96	-39.9	-41.0	22.7	0.00e+00	123	35	101	1048576	58	5952
2026-01-07 15:14:49.16	223.40	38.72	-39.3	-40.3	23.2	0.00e+00	123	35	101	1048576	58	5517
2026-01-07 15:14:50.17	223.28	38.47	-39.5	-40.5	23.1	0.00e+00	123	35	101	1048576	58	5596
2026-01-07 15:14:51.18	223.16	38.23	-39.0	-40.0	23.5	0.00e+00	122	35	101	1048576	56	5959
2026-01-07 15:14:52.19	223.05	37.98	-39.1	-40.1	23.4	0.00e+00	120	35	101	1048576	56	6014
2026-01-07 15:14:53.20	222.93	37.74	-39.0	-40.0	23.5	0.00e+00	123	35	101	1048576	56	5929
2026-01-07 15:14:54.22	222.82	37.50	-38.8	-39.8	23.7	0.00e+00	123	35	101	1048576	56	5813
2026-01-07 15:14:55.23	222.71	37.27	-38.7	-39.6	23.8	0.00e+00	123	35	101	1048576	56	5692
2026-01-07 15:14:56.24	222.60	37.03	-38.3	-39.2	24.1	0.00e+00	122	35	101	1048576	56	5413
2026-01-07 15:14:57.25	222.49	36.80	-38.0	-38.9	24.2	0.00e+00	123	35	101	1048576	54	5914
2026-01-07 15:14:58.26	222.39	36.56	-38.2	-39.1	24.0	0.00e+00	122	35	101	1048576	54	6016
2026-01-07 15:14:59.27	222.28	36.33	-38.1	-39.1	24.0	0.00e+00	123	35	101	1048576	54	6005
2026-01-07 15:15:00.28	222.18	36.10	-38.2	-39.2	24.1	0.00e+00	123	35	101	1048576	54	6083
2026-01-07 15:15:01.29	222.08	35.87	-38.2	-39.1	24.1	0.00e+00	123	35	101	1048576	54	6060
2026-01-07 15:15:02.31	221.98	35.65	-38.2	-39.1	24.1	0.00e+00	123	35	101	1048576	54	6033
2026-01-07 15:15:03.32	221.88	35.42	-38.1	-39.0	24.2	0.00e+00	123	35	101	1048576	54	5969
2026-01-07 15:15:04.33	221.78	35.20	-38.2	-39.1	24.1	0.00e+00	123	35	101	1048576	54	6041
2026-01-07 15:15:05.34	221.69	34.97	-37.9	-38.7	24.4	0.00e+00	123	35	101	1048576	54	5777
2026-01-07 15:15:06.35	221.59	34.75	-37.8	-38.7	24.4	0.00e+00	123	35	101	1048576	54	5742
2026-01-07 15:15:07.36	221.50	34.53	-37.8	-38.7	24.2	0.00e+00	120	36	101	1048576	54	5774
2026-01-07 15:15:08.37	221.41	34.32	-38.0	-38.9	24.1	0.00e+00	123	36	101	1048576	54	5890
2026-01-07 15:15:09.38	221.32	34.10	-38.0	-38.9	24.0	0.00e+00	123	35	101	1048576	54	5878
2026-01-07 15:15:10.39	221.23	33.89	-38.3	-39.2	23.9	0.00e+00	123	36	101	1048576	54	6107
2026-01-07 15:15:11.41	221.14	33.67	-38.5	-39.4	23.8	0.00e+00	123	35	101	1048576	54	6262
2026-01-07 15:15:12.42	221.05	33.46	-38.6	-39.5	23.8	0.00e+00	123	35	101	1048576	54	6348
2026-01-07 15:15:13.43	220.97	33.25	-38.3	-39.2	24.1	0.00e+00	123	35	101	1048576	54	6131
2026-01-07 15:15:14.44	220.88	33.04	-38.1	-39.0	24.2	0.00e+00	123	35	101	1048576	54	5983
2026-01-07 15:15:15.45	220.80	32.83	-37.8	-38.7	24.3	0.00e+00	122	35	101	1048576	54	5789
2026-01-07 15:15:16.46	220.72	32.62	-37.7	-38.6	24.4	0.00e+00	120	35	101	1048576	54	5688
2026-01-07 15:15:17.47	220.64	32.42	-37.4	-38.3	24.7	0.00e+00	123	35	101	1048576	54	5507
2026-01-07 15:15:18.48	220.56	32.21	-37.4	-38.2	24.7	0.00e+00	120	35	101	1048576	54	5449
2026-01-07 15:15:19.49	220.48	32.01	-37.5	-38.3	24.7	0.00e+00	123	35	101	1048576	54	5514
2026-01-07 15:15:20.50	220.40	31.81	-37.4	-38.3	24.8	0.00e+00	123	35	101	1048576	54	5497
2026-01-07 15:15:21.51	220.32	31.61	-37.5	-38.4	24.5	0.00e+00	122	35	101	1048576	54	5588
2026-01-07 15:15:22.52	220.24	31.41	-37.7	-38.6	24.4	0.00e+00	123	35	101	1048576	54	5723
2026-01-07 15:15:23.53	220.17	31.21	-37.8	-38.7	24.3	0.00e+00	123	35	101	1048576	54	5779
2026-01-07 15:15:24.54	220.10	31.02	-38.0	-38.9	24.2	0.00e+00	122	35	101	1048576	54	5900
2026-01-07 15:15:25.55	220.02	30.82	-38.2	-39.1	24.1	0.00e+00	123	35	101	1048576	54	6031
2026-01-07 15:15:26.56	219.95	30.63	-38.2	-39.1	24.0	0.00e+00	120	35	101	1048576	54	6056
2026-01-07 15:15:27.57	219.88	30.44	-38.3	-39.2	24.0	0.00e+00	123	35	101	1048576	54	6114
2026-01-07 15:15:28.59	219.81	30.24	-38.2	-39.2	24.0	0.00e+00	120	35	101	1048576	54	6083
2026-01-07 15:15:29.60	219.74	30.05	-38.2	-39.2	24.1	0.00e+00	123	35	101	1048576	54	6090
2026-01-07 15:15:30.61	219.67	29.86	-38.2	-39.1	24.0	0.00e+00	120	35	101	1048576	54	6025
2026-01-07 15:15:31.62	219.60	29.68	-38.0	-38.9	24.3	0.00e+00	122	35	101	1048576	54	5881
2026-01-07 15:15:32.63	219.53	29.49	-38.0	-38.9	24.2	0.00e+00	122	35	101	1048576	54	5874
2026-01-07 15:15:33.64	219.47	29.31	-37.5	-38.4	24.6	0.00e+00	122	35	101	1048576	54	5576
2026-01-07 15:15:34.65	219.40	29.12	-37.4	-38.3	24.6	0.00e+00	120	35	101	1048576	54	5520
2026-01-07 15:15:35.66	219.34	28.94	-37.3	-38.2	24.6	0.00e+00	123	35	101	1048576	54	5431
2026-01-07 15:15:36.67	219.27	28.76	-37.1	-37.9	24.8	0.00e+00	122	35	101	1048576	52	5910
2026-01-07 15:15:37.68	219.21	28.58	-36.8	-37.7	25.0	0.00e+00	122	35	101	1048576	52	5760
2026-01-07 15:15:38.70	219.14	28.39	-36.8	-37.7	24.9	0.00e+00	123	35	101	1048576	52	5728
2026-01-07 15:15:39.71	219.08	28.22	-36.8	-37.6	25.0	0.00e+00	123	35	101	1048576	52	5712
2026-01-07 15:15:40.72	219.02	28.04	-36.5	-37.4	25.3	0.00e+00	123	35	101	1048576	52	5541
2026-01-07 15:15:41.73	218.96	27.86	-36.5	-37.3	25.3	0.00e+00	122	35	101	1048576	52	5518
2026-01-07 15:15:42.74	218.90	27.69	-36.5	-37.3	25.3	0.00e+00	122	35	101	1048576	52	5502
2026-01-07 15:15:43.75	218.84	27.51	-36.2	-37.0	25.4	0.00e+00	122	35	101	1048576	52	5318
2026-01-07 15:15:44.76	218.78	27.34	-36.1	-36.9	25.6	0.00e+00	122	35	101	1048576	50	5912
2026-01-07 15:15:45.77	218.73	27.17	-35.9	-36.8	25.6	0.00e+00	120	35	101	1048576	50	5798
2026-01-07 15:15:46.78	218.67	27.00	-36.1	-36.9	25.6	0.00e+00	122	35	101	1048576	50	5874
2026-01-07 15:15:47.79	218.61	26.83	-36.2	-37.0	25.4	0.00e+00	123	35	101	1048576	50	5946
2026-01-07 15:15:48.81	218.56	26.66	-36.2	-37.1	25.4	0.00e+00	123	35	101	1048576	50	5998
2026-01-07 15:15:49.82	218.50	26.49	-36.4	-37.3	25.3	0.00e+00	120	35	101	1048576	50	6150
2026-01-07 15:15:50.83	218.45	26.32	-36.6	-37.5	25.2	0.00e+00	123	35	101	1048576	50	6290
2026-01-07 15:15:51.84	218.39	26.16	-36.8	-37.7	25.1	0.00e+00	120	35	101	1048576	50	6440
2026-01-07 15:15:52.85	218.34	25.99	-36.9	-37.8	24.9	0.00e+00	123	35	101	1048576	50	6537
2026-01-07 15:15:53.86	218.29	25.83	-37.0	-37.8	25.0	0.00e+00	120	35	101	1048576	50	6562
2026-01-07 15:15:54.87	218.23	25.66	-37.1	-37.9	24.9	0.00e+00	123	35	101	1048576	50	6631
2026-01-07 15:15:55.89	218.18	25.50	-37.2	-38.1	24.8	0.00e+00	121	35	101	1048576	50	6727
2026-01-07 15:15:56.89	218.13	25.34	-37.2	-38.1	24.7	0.00e+00	123	35	101	1048576	52	6023
2026-01-07 15:15:57.91	218.08	25.18	-37.3	-38.2	24.6	0.00e+00	122	35	101	1048576	52	6114
2026-01-07 15:15:58.92	218.03	25.02	-37.4	-38.3	24.5	0.00e+00	123	35	101	1048576	52	6198
2026-01-07 15:15:59.93	217.98	24.86	-37.4	-38.3	24.5	0.00e+00	120	35	101	1048576	52	6203
2026-01-07 15:16:00.94	217.93	24.70	-37.6	-38.6	24.4	0.00e+00	122	35	101	1048576	52	6351
2026-01-07 15:16:01.95	217.88	24.55	-37.7	-38.6	24.4	0.00e+00	123	35	101	1048576	52	6374
2026-01-07 15:16:02.96	217.83	24.39	-37.7	-38.6	24.4	0.00e+00	123	35	101	1048576	52	6406
2026-01-07 15:16:03.97	217.79	24.24	-37.7	-38.6	24.4	0.00e+00	123	35	101	1048576	52	6393
2026-01-07 15:16:04.98	217.74	24.08	-37.8	-38.8	24.3	0.00e+00	123	35	101	1048576	52	6502
2026-01-07 15:16:06.00	217.69	23.93	-37.8	-38.7	24.2	0.00e+00	120	35	101	1048576	52	6489
2026-01-07 15:16:07.01	217.65	23.78	-37.7	-38.7	24.4	0.00e+00	122	35	101	1048576	52	6430
2026-01-07 15:16:08.02	217.60	23.63	-37.9	-38.8	24.2	0.00e+00	122	35	101	1048576	52	6522
2026-01-07 15:16:09.03	217.56	23.48	-37.7	-38.6	24.5	0.00e+00	122	35	101	1048576	52	6366
2026-01-07 15:16:10.04	217.51	23.33	-37.7	-38.6	24.4	0.00e+00	123	35	101	1048576	52	6387
2026-01-07 15:16:11.05	217.47	23.18	-37.5	-38.4	24.5	0.00e+00	122	35	101	1048576	52	6272
2026-01-07 15:16:12.06	217.42	23.03	-37.6	-38.5	24.5	0.00e+00	123	35	101	1048576	52	6285
2026-01-07 15:16:13.07	217.38	22.88	-37.5	-38.4	24.6	0.00e+00	122	35	101	1048576	52	6225
2026-01-07 15:16:14.08	217.34	22.74	-37.5	-38.4	24.4	0.00e+00	122	35	101	1048576	52	6272
2026-01-07 15:16:15.09	217.30	22.59	-37.4	-38.3	24.6	0.00e+00	122	35	101	1048576	52	6192
2026-01-07 15:16:16.11	217.25	22.45	-37.4	-38.3	24.7	0.00e+00	123	35	101	1048576	52	6162
2026-01-07 15:16:17.12	217.21	22.30	-37.2	-38.1	24.8	0.00e+00	122	35	101	1048576	52	6025
2026-01-07 15:16:18.13	217.17	22.16	-37.3	-38.2	24.7	0.00e+00	122	35	101	1048576	52	6076
2026-01-07 15:16:19.14	217.13	22.02	-37.3	-38.2	24.7	0.00e+00	123	35	101	1048576	52	6086
2026-01-07 15:16:20.15	217.09	21.88	-37.3	-38.2	24.7	0.00e+00	123	36	101	1048576	52	6071
2026-01-07 15:16:21.16	217.05	21.74	-37.1	-38.0	24.8	0.00e+00	120	35	101	1048576	52	5955
2026-01-07 15:16:22.17	217.01	21.60	-37.2	-38.0	24.7	0.00e+00	123	35	101	1048576	52	5990
2026-01-07 15:16:23.18	216.97	21.46	-37.2	-38.1	24.7	0.00e+00	123	35	101	1048576	52	6002
2026-01-07 15:16:24.19	216.93	21.32	-37.3	-38.2	24.8	0.00e+00	123	35	101	1048576	52	6069
2026-01-07 15:16:25.20	216.89	21.18	-37.2	-38.1	24.6	0.00e+00	122	35	101	1048576	52	6027
2026-01-07 15:16:26.21	216.86	21.04	-37.2	-38.1	24.7	0.00e+00	123	35	101	1048576	52	6061
2026-01-07 15:16:27.23	216.82	20.91	-37.2	-38.1	24.6	0.00e+00	121	35	101	1048576	52	6010
