passes_logs/2026/01/07/R4.6S_Anadyr_2ch/R4.6S_Anadyr_2ch__20260107_114413_NOAA_21_JPSS-2_rec.log

#Pass ID: 20260107_114413_NOAA 21 (JPSS-2)
#Satellite: NOAA 21 (JPSS-2)
#Configuration: NOAA-21
#almurnet v.1.7.20251203
#Start time: 2026-01-07 11:44:17

#Version: 2.2.20231116
#Station: R4.6S_Anadyr_2ch
#Location: 177.4865 lon 64.73178 lat
#TLE: 1 54234U 22150A   25350.97269056  .00000057  00000+0  47676-4 0  9992
#TLE: 2 54234  98.7466 287.2282 0002043  29.8355 330.2937 14.19525482160692

#Time	Az	El	Level	Level2	SNR	BER	BlckErr	Temp	State	Recorded	gain1	gain2
2026-01-07 11:44:17.32	20.41	0.18	-52.0	-53.6	5.7	0.00e+00	0	31	0	0	60	79811
2026-01-07 11:44:18.32	20.50	0.22	-51.8	-64.9	3.5	1.52e+00	0	33	104	0	60	83191
2026-01-07 11:44:19.33	20.60	0.26	-51.9	-65.0	3.5	1.51e+00	0	33	104	0	60	83804
2026-01-07 11:44:20.35	20.69	0.31	-51.9	-64.9	3.5	1.52e+00	0	33	104	0	60	83648
2026-01-07 11:44:21.36	20.78	0.35	-51.9	-64.9	3.5	1.52e+00	0	33	104	0	60	83358
2026-01-07 11:44:22.37	20.88	0.39	-51.8	-64.9	3.5	1.51e+00	0	33	104	0	60	82797
2026-01-07 11:44:23.38	20.97	0.43	-51.8	-64.8	3.5	1.52e+00	0	33	104	0	60	82396
2026-01-07 11:44:24.39	21.07	0.48	-51.6	-64.7	3.5	1.52e+00	0	33	104	0	60	81107
2026-01-07 11:44:25.40	21.16	0.52	-51.6	-64.6	3.5	1.52e+00	0	33	104	0	60	80174
2026-01-07 11:44:26.41	21.25	0.56	-51.4	-64.5	3.5	1.51e+00	0	33	104	0	60	79258
2026-01-07 11:44:27.42	21.35	0.60	-51.3	-64.3	3.5	1.52e+00	0	33	104	0	60	77975
2026-01-07 11:44:28.43	21.44	0.64	-51.1	-64.1	3.5	1.52e+00	0	33	104	0	60	76121
2026-01-07 11:44:29.45	21.54	0.69	-50.7	-63.7	3.5	1.52e+00	0	33	104	0	60	72780
2026-01-07 11:44:30.46	21.64	0.73	-50.3	-63.3	3.5	1.52e+00	0	33	104	0	60	69134
2026-01-07 11:44:31.47	21.73	0.77	-50.3	-63.2	3.5	1.52e+00	0	33	104	0	60	68433
2026-01-07 11:44:32.48	21.83	0.81	-50.3	-63.2	3.5	1.52e+00	0	34	104	0	60	68787
2026-01-07 11:44:33.49	21.92	0.86	-50.3	-63.2	3.5	1.52e+00	0	34	104	0	60	68054
2026-01-07 11:44:34.50	22.02	0.90	-50.3	-63.2	3.5	1.52e+00	0	34	104	0	60	68583
2026-01-07 11:44:35.51	22.12	0.94	-50.3	-63.2	3.5	1.51e+00	0	33	104	0	60	68664
2026-01-07 11:44:36.52	22.21	0.98	-50.3	-63.3	3.5	1.52e+00	0	34	104	0	60	68962
2026-01-07 11:44:37.53	22.31	1.03	-50.3	-63.2	3.5	1.52e+00	0	34	104	0	60	68617
2026-01-07 11:44:38.54	22.41	1.07	-50.3	-63.3	3.5	1.52e+00	0	33	104	0	60	68865
2026-01-07 11:44:39.56	22.51	1.11	-50.3	-63.3	3.5	1.52e+00	0	34	104	0	60	69472
2026-01-07 11:44:40.56	22.61	1.15	-50.3	-63.2	3.5	1.52e+00	0	34	104	0	60	68717
2026-01-07 11:44:41.58	22.71	1.19	-50.2	-63.3	3.5	1.52e+00	0	34	104	0	60	68866
2026-01-07 11:44:42.59	22.80	1.24	-50.3	-63.2	3.5	1.52e+00	0	34	104	0	60	68535
2026-01-07 11:44:43.60	22.90	1.28	-50.3	-63.2	3.5	1.52e+00	0	33	104	0	60	68678
2026-01-07 11:44:44.61	23.00	1.32	-50.2	-63.2	3.5	1.52e+00	0	34	104	0	60	68567
2026-01-07 11:44:45.62	23.10	1.36	-50.2	-63.2	3.5	1.52e+00	0	34	104	0	60	68688
2026-01-07 11:44:46.63	23.20	1.41	-50.2	-63.2	3.5	1.52e+00	0	34	104	0	60	68586
2026-01-07 11:44:47.64	23.30	1.45	-50.3	-63.3	3.5	1.52e+00	0	34	104	0	60	69276
2026-01-07 11:44:48.65	23.40	1.49	-50.3	-63.3	3.5	1.52e+00	0	34	104	0	60	68971
2026-01-07 11:44:49.66	23.50	1.53	-50.2	-63.2	3.5	1.52e+00	0	34	104	0	60	68583
2026-01-07 11:44:50.67	23.60	1.58	-50.2	-63.2	3.5	1.51e+00	0	34	104	0	60	68313
2026-01-07 11:44:51.69	23.71	1.62	-50.2	-63.2	3.5	1.52e+00	0	34	104	0	60	68637
2026-01-07 11:44:52.70	23.81	1.66	-50.2	-63.3	3.5	1.52e+00	0	34	104	0	60	68903
2026-01-07 11:44:53.71	23.91	1.70	-50.2	-63.2	3.5	1.52e+00	0	34	104	0	60	68390
2026-01-07 11:44:54.72	24.01	1.74	-50.2	-63.2	3.5	1.52e+00	0	34	104	0	60	68526
2026-01-07 11:44:55.73	24.11	1.79	-50.2	-63.2	3.5	1.52e+00	0	34	104	0	60	68707
2026-01-07 11:44:56.74	24.21	1.83	-50.2	-63.2	3.5	1.52e+00	0	34	104	0	60	68781
2026-01-07 11:44:57.75	24.32	1.87	-50.2	-63.3	3.5	1.52e+00	0	34	104	0	60	69060
2026-01-07 11:44:58.76	24.42	1.91	-50.3	-63.3	3.5	1.52e+00	0	34	104	0	60	68860
2026-01-07 11:44:59.77	24.52	1.96	-50.3	-63.2	3.5	1.52e+00	0	34	104	0	60	68353
2026-01-07 11:45:00.78	24.63	2.00	-50.3	-63.3	3.5	1.52e+00	0	34	104	0	60	69165
2026-01-07 11:45:01.79	24.73	2.04	-50.2	-63.2	3.5	1.52e+00	0	34	104	0	60	68468
2026-01-07 11:45:02.80	24.84	2.08	-50.2	-63.1	3.5	1.51e+00	0	34	104	0	60	67900
2026-01-07 11:45:03.81	24.94	2.12	-50.2	-63.1	3.5	1.52e+00	0	34	104	0	60	67774
2026-01-07 11:45:04.83	25.05	2.17	-50.2	-63.2	3.5	1.52e+00	0	34	104	0	60	68218
2026-01-07 11:45:05.84	25.15	2.21	-50.2	-63.2	3.5	1.52e+00	0	34	104	0	60	68360
2026-01-07 11:45:06.85	25.26	2.25	-50.2	-63.2	3.5	1.52e+00	0	34	104	0	60	68437
2026-01-07 11:45:07.86	25.36	2.29	-50.2	-63.2	3.5	1.52e+00	0	34	104	0	60	68386
2026-01-07 11:45:08.87	25.47	2.33	-50.2	-63.3	3.5	1.52e+00	0	34	104	0	60	69043
2026-01-07 11:45:09.88	25.57	2.38	-50.2	-63.1	3.5	1.52e+00	0	34	104	0	60	67406
2026-01-07 11:45:10.89	25.68	2.42	-50.2	-62.4	3.5	1.52e+00	0	34	104	0	60	62632
2026-01-07 11:45:11.90	25.79	2.46	-50.1	-61.9	3.5	1.51e+00	0	34	104	0	60	59097
2026-01-07 11:45:12.91	25.89	2.50	-50.2	-62.4	3.5	1.51e+00	0	34	104	0	60	62432
2026-01-07 11:45:13.93	26.00	2.55	-50.1	-62.0	3.5	1.51e+00	0	34	104	0	60	59572
2026-01-07 11:45:14.94	26.11	2.59	-49.4	-56.8	5.9	1.45e+00	120	34	104	0	60	32924
2026-01-07 11:45:15.95	26.22	2.63	-47.9	-51.6	11.2	1.25e-02	122	34	0	0	60	17981
2026-01-07 11:45:16.96	26.33	2.67	-45.9	-48.3	14.6	7.60e-06	120	34	102	1048576	60	12261
2026-01-07 11:45:17.97	26.43	2.71	-44.1	-45.9	16.9	0.00e+00	123	34	102	1048576	60	9344
2026-01-07 11:45:18.98	26.54	2.75	-42.8	-44.4	18.2	0.00e+00	123	34	102	1048576	60	7817
2026-01-07 11:45:19.99	26.65	2.80	-42.7	-44.2	18.3	0.00e+00	121	34	102	1048576	60	7673
2026-01-07 11:45:21.00	26.76	2.84	-43.1	-44.7	17.8	0.00e+00	123	34	102	1048576	60	8166
2026-01-07 11:45:22.01	26.87	2.88	-44.4	-46.3	16.2	0.00e+00	123	34	102	1048576	60	9756
2026-01-07 11:45:23.02	26.98	2.92	-46.4	-49.1	13.3	1.50e-06	123	34	102	1048576	60	13505
2026-01-07 11:45:24.03	27.09	2.96	-48.5	-53.0	9.1	1.12e-02	122	34	102	1048576	60	21201
2026-01-07 11:45:25.04	27.20	3.01	-42.0	-43.4	19.2	0.00e+00	123	34	102	1048576	60	6993
2026-01-07 11:45:26.05	27.31	3.05	-42.7	-44.1	18.3	0.00e+00	120	34	102	1048576	60	7627
2026-01-07 11:45:27.06	27.42	3.09	-50.1	-61.5	3.5	1.49e+00	0	34	104	1048576	60	56311
2026-01-07 11:45:28.08	27.54	3.13	-50.0	-61.1	3.8	1.51e+00	0	34	104	1048576	60	53739
2026-01-07 11:45:29.09	27.65	3.17	-46.0	-48.4	14.4	0.00e+00	123	34	0	1048576	60	12435
2026-01-07 11:45:30.10	27.76	3.21	-42.4	-43.8	18.8	0.00e+00	121	34	0	1048576	60	7359
2026-01-07 11:45:31.11	27.87	3.26	-41.8	-43.1	19.6	0.00e+00	122	34	0	1048576	60	6760
2026-01-07 11:45:32.12	27.99	3.30	-41.9	-43.3	19.3	0.00e+00	120	34	0	1048576	60	6907
2026-01-07 11:45:33.13	28.10	3.34	-41.7	-43.0	19.5	0.00e+00	122	34	0	1048576	60	6715
2026-01-07 11:45:34.14	28.21	3.38	-41.9	-43.2	19.5	0.00e+00	120	34	0	1048576	60	6821
2026-01-07 11:45:35.15	28.32	3.42	-42.1	-43.4	19.2	0.00e+00	122	34	0	1048576	60	7039
2026-01-07 11:45:36.16	28.44	3.46	-41.8	-43.1	19.7	0.00e+00	120	34	0	1048576	60	6734
2026-01-07 11:45:37.17	28.55	3.51	-41.7	-43.0	19.6	0.00e+00	122	34	0	1048576	60	6652
2026-01-07 11:45:38.18	28.67	3.55	-41.5	-42.7	19.9	0.00e+00	120	34	0	1048576	60	6472
2026-01-07 11:45:39.19	28.78	3.59	-41.5	-42.8	19.8	0.00e+00	123	34	0	1048576	60	6547
2026-01-07 11:45:40.21	28.90	3.63	-41.6	-42.8	20.0	0.00e+00	120	34	101	1048576	60	6544
2026-01-07 11:45:41.22	29.01	3.67	-41.4	-42.6	20.0	0.00e+00	122	34	101	1048576	60	6390
2026-01-07 11:45:42.23	29.13	3.71	-41.4	-42.7	19.9	0.00e+00	123	34	101	1048576	60	6446
2026-01-07 11:45:43.24	29.25	3.75	-41.4	-42.7	20.0	0.00e+00	123	34	101	1048576	60	6455
2026-01-07 11:45:44.25	29.36	3.80	-41.3	-42.5	20.1	0.00e+00	123	34	101	1048576	60	6337
2026-01-07 11:45:45.26	29.48	3.84	-41.4	-42.7	20.0	0.00e+00	122	34	101	1048576	60	6454
2026-01-07 11:45:46.27	29.60	3.88	-41.3	-42.6	20.1	0.00e+00	123	34	101	1048576	60	6368
2026-01-07 11:45:47.28	29.71	3.92	-41.4	-42.7	20.0	0.00e+00	123	34	101	1048576	60	6462
2026-01-07 11:45:48.29	29.83	3.96	-41.4	-42.7	20.0	0.00e+00	121	34	101	1048576	60	6426
2026-01-07 11:45:49.30	29.95	4.00	-41.2	-42.5	20.2	0.00e+00	122	34	101	1048576	60	6279
2026-01-07 11:45:50.31	30.07	4.04	-41.3	-42.5	20.2	0.00e+00	120	34	101	1048576	60	6328
2026-01-07 11:45:51.32	30.19	4.08	-41.3	-42.5	20.2	0.00e+00	123	34	101	1048576	60	6328
2026-01-07 11:45:52.33	30.30	4.12	-41.2	-42.4	20.2	0.00e+00	120	34	101	1048576	60	6248
2026-01-07 11:45:53.34	30.42	4.17	-41.1	-42.3	20.4	0.00e+00	122	34	101	1048576	60	6166
2026-01-07 11:45:54.36	30.54	4.21	-41.1	-42.3	20.4	0.00e+00	123	34	101	1048576	60	6180
2026-01-07 11:45:55.37	30.66	4.25	-41.0	-42.2	20.4	0.00e+00	122	34	101	1048576	60	6109
2026-01-07 11:45:56.38	30.78	4.29	-41.2	-42.4	20.3	0.00e+00	122	34	101	1048576	60	6225
2026-01-07 11:45:57.39	30.90	4.33	-41.0	-42.2	20.4	0.00e+00	123	34	101	1048576	60	6076
2026-01-07 11:45:58.40	31.03	4.37	-41.1	-42.3	20.4	0.00e+00	123	34	101	1048576	60	6180
2026-01-07 11:45:59.41	31.15	4.41	-40.9	-42.1	20.6	0.00e+00	123	34	101	1048576	60	6045
2026-01-07 11:46:00.41	31.27	4.45	-41.1	-42.3	20.4	0.00e+00	120	34	101	1048576	60	6170
2026-01-07 11:46:01.42	31.39	4.49	-41.1	-42.3	20.4	0.00e+00	123	34	101	1048576	60	6178
2026-01-07 11:46:02.43	31.51	4.53	-40.9	-42.1	20.6	0.00e+00	120	34	101	1048576	60	6043
2026-01-07 11:46:03.44	31.63	4.57	-41.0	-42.2	20.5	0.00e+00	122	34	101	1048576	60	6067
2026-01-07 11:46:04.46	31.76	4.61	-41.0	-42.2	20.5	0.00e+00	123	34	101	1048576	60	6096
2026-01-07 11:46:05.47	31.88	4.65	-40.9	-42.1	20.6	0.00e+00	123	34	101	1048576	60	6040
2026-01-07 11:46:06.48	32.00	4.70	-41.0	-42.2	20.6	0.00e+00	120	34	101	1048576	60	6093
2026-01-07 11:46:07.49	32.13	4.74	-40.9	-42.0	20.7	0.00e+00	122	34	101	1048576	60	5988
2026-01-07 11:46:08.50	32.25	4.78	-40.8	-42.0	20.8	0.00e+00	120	34	101	1048576	60	5937
2026-01-07 11:46:09.51	32.38	4.82	-40.9	-42.1	20.7	0.00e+00	123	34	101	1048576	60	6035
2026-01-07 11:46:10.52	32.50	4.86	-40.9	-42.1	20.7	0.00e+00	122	34	101	1048576	60	5999
2026-01-07 11:46:11.53	32.63	4.90	-40.8	-42.0	20.8	0.00e+00	123	34	101	1048576	60	5964
2026-01-07 11:46:12.54	32.75	4.94	-40.8	-41.9	20.8	0.00e+00	123	34	101	1048576	60	5907
2026-01-07 11:46:13.55	32.88	4.98	-40.8	-41.9	20.9	0.00e+00	122	34	101	1048576	60	5904
2026-01-07 11:46:14.57	33.00	5.02	-40.7	-41.9	20.8	0.00e+00	122	34	101	1048576	60	5897
2026-01-07 11:46:15.58	33.13	5.06	-40.7	-41.9	20.8	0.00e+00	123	34	101	1048576	60	5878
2026-01-07 11:46:16.59	33.26	5.10	-40.6	-41.7	21.1	0.00e+00	123	34	101	1048576	60	5783
2026-01-07 11:46:17.60	33.38	5.14	-40.7	-41.8	20.9	0.00e+00	123	34	101	1048576	60	5825
2026-01-07 11:46:18.61	33.51	5.18	-40.7	-41.8	20.9	0.00e+00	123	34	101	1048576	60	5845
2026-01-07 11:46:19.62	33.64	5.22	-40.6	-41.7	21.0	0.00e+00	123	34	101	1048576	60	5764
2026-01-07 11:46:20.63	33.77	5.26	-40.6	-41.7	21.0	0.00e+00	122	34	101	1048576	60	5785
2026-01-07 11:46:21.64	33.90	5.30	-40.6	-41.7	21.1	0.00e+00	121	34	101	1048576	60	5746
2026-01-07 11:46:22.65	34.02	5.34	-40.7	-41.8	21.0	0.00e+00	123	34	101	1048576	60	5838
2026-01-07 11:46:23.66	34.15	5.38	-40.5	-41.6	21.1	0.00e+00	120	34	101	1048576	60	5725
2026-01-07 11:46:24.67	34.28	5.42	-40.7	-41.8	20.9	0.00e+00	123	34	101	1048576	60	5850
2026-01-07 11:46:25.69	34.41	5.46	-40.6	-41.8	21.0	0.00e+00	120	34	101	1048576	60	5808
2026-01-07 11:46:26.70	34.54	5.49	-40.6	-41.7	21.0	0.00e+00	122	34	101	1048576	60	5789
2026-01-07 11:46:27.71	34.67	5.53	-40.6	-41.8	21.0	0.00e+00	120	34	101	1048576	60	5796
2026-01-07 11:46:28.72	34.80	5.57	-40.6	-41.7	21.1	0.00e+00	122	34	101	1048576	60	5774
2026-01-07 11:46:29.73	34.94	5.61	-40.6	-41.7	21.1	0.00e+00	120	34	101	1048576	60	5764
2026-01-07 11:46:30.74	35.07	5.65	-40.7	-41.8	21.0	0.00e+00	123	34	101	1048576	60	5833
2026-01-07 11:46:31.75	35.20	5.69	-40.6	-41.8	21.0	0.00e+00	120	34	101	1048576	60	5819
2026-01-07 11:46:32.76	35.33	5.73	-40.6	-41.8	21.1	0.00e+00	123	34	101	1048576	60	5824
2026-01-07 11:46:33.77	35.46	5.77	-40.8	-42.0	20.9	0.00e+00	122	34	101	1048576	60	5937
2026-01-07 11:46:34.78	35.60	5.81	-40.5	-41.6	21.2	0.00e+00	123	34	101	1048576	60	5680
2026-01-07 11:46:35.79	35.73	5.85	-40.6	-41.7	21.1	0.00e+00	120	34	101	1048576	60	5786
2026-01-07 11:46:36.80	35.86	5.88	-40.5	-41.6	21.2	0.00e+00	122	34	101	1048576	60	5713
2026-01-07 11:46:37.82	36.00	5.92	-40.5	-41.6	21.3	0.00e+00	120	35	101	1048576	60	5681
2026-01-07 11:46:38.83	36.13	5.96	-40.5	-41.6	21.3	0.00e+00	123	34	101	1048576	60	5696
2026-01-07 11:46:39.84	36.27	6.00	-40.5	-41.6	21.3	0.00e+00	123	34	101	1048576	60	5696
2026-01-07 11:46:40.85	36.40	6.04	-40.5	-41.6	21.3	0.00e+00	122	34	101	1048576	60	5672
2026-01-07 11:46:41.86	36.54	6.08	-40.5	-41.7	21.2	0.00e+00	120	34	101	1048576	60	5729
2026-01-07 11:46:42.87	36.67	6.12	-40.5	-41.7	21.2	0.00e+00	123	34	101	1048576	60	5743
2026-01-07 11:46:43.88	36.81	6.15	-40.6	-41.8	21.2	0.00e+00	122	34	101	1048576	60	5798
2026-01-07 11:46:44.89	36.94	6.19	-40.5	-41.7	21.3	0.00e+00	120	34	101	1048576	60	5734
2026-01-07 11:46:45.90	37.08	6.23	-40.4	-41.5	21.3	0.00e+00	123	34	101	1048576	60	5645
2026-01-07 11:46:46.91	37.22	6.27	-40.5	-41.6	21.3	0.00e+00	120	34	101	1048576	60	5679
2026-01-07 11:46:47.92	37.35	6.31	-40.4	-41.5	21.4	0.00e+00	123	34	101	1048576	60	5641
2026-01-07 11:46:48.94	37.49	6.34	-40.2	-41.3	21.5	0.00e+00	123	35	101	1048576	60	5528
2026-01-07 11:46:49.95	37.63	6.38	-40.4	-41.5	21.4	0.00e+00	122	34	101	1048576	60	5615
2026-01-07 11:46:50.96	37.77	6.42	-40.4	-41.5	21.4	0.00e+00	120	34	101	1048576	60	5629
2026-01-07 11:46:51.97	37.91	6.46	-40.0	-41.1	21.7	0.00e+00	122	34	101	1048576	58	6048
2026-01-07 11:46:52.98	38.05	6.49	-40.1	-41.2	21.7	0.00e+00	123	34	101	1048576	58	6108
2026-01-07 11:46:53.99	38.19	6.53	-40.2	-41.3	21.6	0.00e+00	123	34	101	1048576	58	6160
2026-01-07 11:46:55.00	38.33	6.57	-40.1	-41.2	21.7	0.00e+00	123	35	101	1048576	58	6069
2026-01-07 11:46:56.01	38.47	6.61	-40.0	-41.0	21.8	0.00e+00	123	35	101	1048576	58	5983
2026-01-07 11:46:57.02	38.61	6.64	-40.0	-41.1	21.8	0.00e+00	123	35	101	1048576	58	6001
2026-01-07 11:46:58.03	38.75	6.68	-40.0	-41.1	21.7	0.00e+00	121	35	101	1048576	58	6013
2026-01-07 11:46:59.04	38.89	6.72	-40.0	-41.1	21.7	0.00e+00	123	35	101	1048576	58	6037
2026-01-07 11:47:00.06	39.03	6.76	-39.9	-40.9	21.8	0.00e+00	123	35	101	1048576	58	5922
2026-01-07 11:47:01.07	39.17	6.79	-39.9	-41.0	21.8	0.00e+00	123	35	101	1048576	58	5989
2026-01-07 11:47:02.08	39.31	6.83	-39.9	-40.9	21.9	0.00e+00	122	35	101	1048576	58	5920
2026-01-07 11:47:03.09	39.46	6.87	-39.9	-40.9	21.8	0.00e+00	123	35	101	1048576	58	5925
2026-01-07 11:47:04.10	39.60	6.90	-39.8	-40.9	21.9	0.00e+00	123	35	101	1048576	58	5885
2026-01-07 11:47:05.11	39.74	6.94	-39.9	-41.0	21.9	0.00e+00	122	35	101	1048576	58	5949
2026-01-07 11:47:06.12	39.89	6.97	-39.9	-41.0	21.8	0.00e+00	122	35	101	1048576	58	5943
2026-01-07 11:47:07.13	40.03	7.01	-39.9	-41.0	21.9	0.00e+00	120	34	101	1048576	58	5965
2026-01-07 11:47:08.14	40.17	7.05	-39.8	-40.9	21.9	0.00e+00	123	34	101	1048576	58	5894
2026-01-07 11:47:09.15	40.32	7.08	-39.8	-40.8	22.0	0.00e+00	120	35	101	1048576	58	5854
2026-01-07 11:47:10.17	40.46	7.12	-39.7	-40.7	22.1	0.00e+00	123	34	101	1048576	58	5760
2026-01-07 11:47:11.18	40.61	7.15	-39.7	-40.8	22.1	0.00e+00	123	35	101	1048576	58	5801
2026-01-07 11:47:12.19	40.75	7.19	-39.7	-40.7	22.1	0.00e+00	123	35	101	1048576	58	5773
2026-01-07 11:47:13.20	40.90	7.23	-39.8	-40.8	22.1	0.00e+00	120	35	101	1048576	58	5848
2026-01-07 11:47:14.21	41.05	7.26	-39.7	-40.8	22.1	0.00e+00	123	35	101	1048576	58	5805
2026-01-07 11:47:15.22	41.19	7.30	-39.7	-40.8	22.0	0.00e+00	120	35	101	1048576	58	5827
2026-01-07 11:47:16.23	41.34	7.33	-39.8	-40.9	22.0	0.00e+00	123	35	101	1048576	58	5882
2026-01-07 11:47:17.24	41.49	7.37	-40.0	-41.0	21.8	0.00e+00	123	35	101	1048576	58	5994
2026-01-07 11:47:18.25	41.63	7.40	-39.9	-40.9	22.0	0.00e+00	123	35	101	1048576	58	5909
2026-01-07 11:47:19.26	41.78	7.44	-39.9	-41.0	21.9	0.00e+00	123	34	101	1048576	58	5955
2026-01-07 11:47:20.27	41.93	7.47	-39.8	-40.8	22.0	0.00e+00	122	35	101	1048576	58	5852
2026-01-07 11:47:21.28	42.08	7.51	-39.9	-41.0	22.0	0.00e+00	123	35	101	1048576	58	5932
2026-01-07 11:47:22.30	42.23	7.54	-39.9	-41.0	21.9	0.00e+00	123	35	101	1048576	58	5932
2026-01-07 11:47:23.31	42.38	7.58	-39.9	-40.9	22.0	0.00e+00	122	35	101	1048576	58	5913
2026-01-07 11:47:24.32	42.53	7.61	-39.9	-40.9	22.0	0.00e+00	123	35	101	1048576	58	5913
2026-01-07 11:47:25.33	42.68	7.64	-39.8	-40.9	22.0	0.00e+00	123	35	101	1048576	58	5882
2026-01-07 11:47:26.34	42.83	7.68	-39.8	-40.9	22.0	0.00e+00	120	35	101	1048576	58	5876
2026-01-07 11:47:27.35	42.98	7.71	-39.8	-40.8	22.1	0.00e+00	122	35	101	1048576	58	5841
2026-01-07 11:47:28.36	43.13	7.75	-39.8	-40.8	22.2	0.00e+00	122	35	101	1048576	58	5856
2026-01-07 11:47:29.37	43.28	7.78	-39.7	-40.7	22.1	0.00e+00	123	35	101	1048576	58	5765
2026-01-07 11:47:30.39	43.43	7.81	-39.7	-40.7	22.2	0.00e+00	122	35	101	1048576	58	5770
2026-01-07 11:47:31.39	43.58	7.85	-39.7	-40.7	22.2	0.00e+00	122	35	101	1048576	58	5756
2026-01-07 11:47:32.41	43.74	7.88	-39.7	-40.7	22.2	0.00e+00	120	35	101	1048576	58	5784
2026-01-07 11:47:33.42	43.89	7.91	-39.6	-40.6	22.2	0.00e+00	122	35	101	1048576	58	5717
2026-01-07 11:47:34.43	44.04	7.95	-39.7	-40.7	22.2	0.00e+00	123	35	101	1048576	58	5761
2026-01-07 11:47:35.44	44.20	7.98	-39.7	-40.7	22.2	0.00e+00	123	35	101	1048576	58	5766
2026-01-07 11:47:36.45	44.35	8.01	-39.6	-40.6	22.2	0.00e+00	120	35	101	1048576	58	5710
2026-01-07 11:47:37.46	44.51	8.05	-39.7	-40.7	22.2	0.00e+00	122	35	101	1048576	58	5777
2026-01-07 11:47:38.47	44.66	8.08	-39.7	-40.7	22.1	0.00e+00	123	35	101	1048576	58	5779
2026-01-07 11:47:39.48	44.81	8.11	-39.7	-40.8	22.1	0.00e+00	123	35	101	1048576	58	5820
2026-01-07 11:47:40.50	44.97	8.14	-39.7	-40.8	22.1	0.00e+00	123	35	101	1048576	58	5827
2026-01-07 11:47:41.51	45.13	8.18	-39.7	-40.7	22.1	0.00e+00	120	35	101	1048576	58	5766
2026-01-07 11:47:42.52	45.28	8.21	-39.7	-40.8	22.2	0.00e+00	122	35	101	1048576	58	5795
2026-01-07 11:47:43.53	45.44	8.24	-39.5	-40.6	22.3	0.00e+00	123	35	101	1048576	58	5683
2026-01-07 11:47:44.54	45.59	8.27	-39.6	-40.6	22.2	0.00e+00	123	35	101	1048576	58	5725
2026-01-07 11:47:45.55	45.75	8.30	-39.6	-40.6	22.3	0.00e+00	122	35	101	1048576	58	5720
2026-01-07 11:47:46.56	45.91	8.33	-39.7	-40.8	22.2	0.00e+00	122	35	101	1048576	58	5795
2026-01-07 11:47:47.57	46.06	8.37	-39.8	-40.8	22.2	0.00e+00	123	35	101	1048576	58	5831
2026-01-07 11:47:48.58	46.22	8.40	-39.8	-40.8	22.1	0.00e+00	123	35	101	1048576	58	5822
2026-01-07 11:47:49.59	46.38	8.43	-39.7	-40.7	22.1	0.00e+00	120	35	101	1048576	58	5756
2026-01-07 11:47:50.60	46.54	8.46	-39.8	-40.9	22.0	0.00e+00	122	35	101	1048576	58	5875
2026-01-07 11:47:51.61	46.70	8.49	-39.8	-40.9	22.1	0.00e+00	120	35	101	1048576	58	5882
2026-01-07 11:47:52.63	46.86	8.52	-39.8	-40.9	22.1	0.00e+00	120	34	101	1048576	58	5883
2026-01-07 11:47:53.64	47.02	8.55	-39.8	-40.8	22.1	0.00e+00	123	35	101	1048576	58	5825
2026-01-07 11:47:54.65	47.18	8.58	-39.9	-40.9	22.0	0.00e+00	122	34	101	1048576	58	5917
2026-01-07 11:47:55.66	47.34	8.61	-39.8	-40.9	22.0	0.00e+00	122	35	101	1048576	58	5895
2026-01-07 11:47:56.67	47.50	8.64	-39.8	-40.9	22.1	0.00e+00	120	35	101	1048576	58	5865
2026-01-07 11:47:57.68	47.66	8.67	-39.7	-40.7	22.2	0.00e+00	122	35	101	1048576	58	5751
2026-01-07 11:47:58.69	47.82	8.70	-39.5	-40.6	22.4	0.00e+00	123	35	101	1048576	58	5660
2026-01-07 11:47:59.70	47.98	8.73	-39.5	-40.5	22.4	0.00e+00	123	35	101	1048576	58	5627
2026-01-07 11:48:00.71	48.14	8.76	-39.6	-40.6	22.4	0.00e+00	123	35	101	1048576	58	5681
2026-01-07 11:48:01.73	48.30	8.79	-39.4	-40.4	22.5	0.00e+00	123	35	101	1048576	58	5564
2026-01-07 11:48:02.74	48.47	8.82	-39.5	-40.5	22.4	0.00e+00	122	35	101	1048576	58	5635
2026-01-07 11:48:03.75	48.63	8.85	-39.4	-40.4	22.4	0.00e+00	120	35	101	1048576	58	5559
2026-01-07 11:48:04.76	48.79	8.88	-39.4	-40.5	22.4	0.00e+00	122	35	101	1048576	58	5599
2026-01-07 11:48:05.77	48.95	8.90	-39.4	-40.4	22.5	0.00e+00	123	35	101	1048576	58	5579
2026-01-07 11:48:06.78	49.12	8.93	-39.4	-40.4	22.5	0.00e+00	122	35	101	1048576	58	5566
2026-01-07 11:48:07.79	49.28	8.96	-39.3	-40.3	22.5	0.00e+00	123	35	101	1048576	58	5521
2026-01-07 11:48:08.80	49.45	8.99	-39.3	-40.3	22.6	0.00e+00	123	35	101	1048576	58	5526
2026-01-07 11:48:09.82	49.61	9.02	-39.4	-40.5	22.5	0.00e+00	121	35	101	1048576	58	5611
2026-01-07 11:48:10.83	49.78	9.04	-39.5	-40.5	22.5	0.00e+00	123	35	101	1048576	58	5622
2026-01-07 11:48:11.84	49.94	9.07	-39.4	-40.5	22.5	0.00e+00	123	35	101	1048576	58	5596
2026-01-07 11:48:12.85	50.11	9.10	-39.4	-40.5	22.4	0.00e+00	123	35	101	1048576	58	5597
2026-01-07 11:48:13.86	50.27	9.13	-39.4	-40.5	22.4	0.00e+00	123	35	101	1048576	58	5596
2026-01-07 11:48:14.87	50.44	9.15	-39.5	-40.5	22.4	0.00e+00	123	35	101	1048576	58	5645
2026-01-07 11:48:15.88	50.60	9.18	-39.4	-40.4	22.5	0.00e+00	122	35	101	1048576	58	5546
2026-01-07 11:48:16.89	50.77	9.21	-39.4	-40.4	22.5	0.00e+00	123	35	101	1048576	58	5544
2026-01-07 11:48:17.90	50.94	9.23	-39.4	-40.4	22.5	0.00e+00	123	35	101	1048576	58	5569
2026-01-07 11:48:18.91	51.10	9.26	-39.5	-40.5	22.4	0.00e+00	123	35	101	1048576	58	5623
2026-01-07 11:48:19.92	51.27	9.29	-39.4	-40.4	22.5	0.00e+00	122	35	101	1048576	58	5555
2026-01-07 11:48:20.94	51.44	9.31	-39.5	-40.6	22.4	0.00e+00	120	35	101	1048576	58	5667
2026-01-07 11:48:21.95	51.61	9.34	-39.4	-40.4	22.5	0.00e+00	122	35	101	1048576	58	5571
2026-01-07 11:48:22.96	51.78	9.36	-39.4	-40.5	22.5	0.00e+00	120	35	101	1048576	58	5605
2026-01-07 11:48:23.97	51.95	9.39	-39.4	-40.4	22.6	0.00e+00	122	35	101	1048576	58	5561
2026-01-07 11:48:24.98	52.11	9.41	-39.5	-40.5	22.5	0.00e+00	120	35	101	1048576	58	5613
2026-01-07 11:48:25.99	52.28	9.44	-39.3	-40.3	22.6	0.00e+00	122	35	101	1048576	58	5504
2026-01-07 11:48:27.00	52.45	9.46	-39.3	-40.3	22.7	0.00e+00	120	35	101	1048576	58	5517
2026-01-07 11:48:28.01	52.62	9.49	-39.3	-40.3	22.6	0.00e+00	123	35	101	1048576	58	5506
2026-01-07 11:48:29.02	52.79	9.51	-39.3	-40.3	22.6	0.00e+00	122	35	101	1048576	58	5527
2026-01-07 11:48:30.04	52.96	9.54	-39.4	-40.5	22.5	0.00e+00	122	35	101	1048576	58	5611
2026-01-07 11:48:31.05	53.13	9.56	-39.4	-40.4	22.5	0.00e+00	123	35	101	1048576	58	5555
2026-01-07 11:48:32.06	53.30	9.58	-39.5	-40.5	22.4	0.00e+00	122	35	101	1048576	58	5629
2026-01-07 11:48:33.07	53.48	9.61	-39.7	-40.7	22.3	0.00e+00	122	35	101	1048576	58	5761
2026-01-07 11:48:34.08	53.65	9.63	-39.7	-40.7	22.3	0.00e+00	123	35	101	1048576	58	5755
2026-01-07 11:48:35.09	53.82	9.65	-39.6	-40.7	22.3	0.00e+00	123	35	101	1048576	58	5743
2026-01-07 11:48:36.10	53.99	9.68	-39.6	-40.6	22.4	0.00e+00	123	35	101	1048576	58	5694
2026-01-07 11:48:37.11	54.16	9.70	-39.5	-40.5	22.4	0.00e+00	122	35	101	1048576	58	5651
2026-01-07 11:48:38.12	54.33	9.72	-39.4	-40.4	22.5	0.00e+00	122	35	101	1048576	58	5588
2026-01-07 11:48:39.13	54.51	9.75	-39.3	-40.3	22.6	0.00e+00	122	35	101	1048576	58	5488
2026-01-07 11:48:40.15	54.68	9.77	-39.4	-40.4	22.6	0.00e+00	123	35	101	1048576	58	5551
2026-01-07 11:48:41.16	54.85	9.79	-39.2	-40.2	22.7	0.00e+00	122	35	101	1048576	58	5457
2026-01-07 11:48:42.17	55.03	9.81	-39.2	-40.2	22.6	0.00e+00	122	35	101	1048576	58	5438
2026-01-07 11:48:43.18	55.20	9.83	-39.2	-40.2	22.7	0.00e+00	122	35	101	1048576	56	6124
2026-01-07 11:48:44.19	55.37	9.85	-39.3	-40.3	22.7	0.00e+00	123	35	101	1048576	56	6139
2026-01-07 11:48:45.20	55.55	9.88	-39.4	-40.4	22.6	0.00e+00	123	35	101	1048576	56	6247
2026-01-07 11:48:46.21	55.72	9.90	-39.5	-40.5	22.5	0.00e+00	123	35	101	1048576	56	6303
2026-01-07 11:48:47.22	55.90	9.92	-39.6	-40.7	22.5	0.00e+00	123	35	101	1048576	56	6431
2026-01-07 11:48:48.24	56.07	9.94	-39.5	-40.6	22.5	0.00e+00	123	35	101	1048576	56	6358
2026-01-07 11:48:49.25	56.25	9.96	-39.5	-40.6	22.5	0.00e+00	123	35	101	1048576	56	6355
2026-01-07 11:48:50.26	56.42	9.98	-39.5	-40.5	22.5	0.00e+00	122	35	101	1048576	56	6349
2026-01-07 11:48:51.27	56.60	10.00	-39.6	-40.6	22.5	0.00e+00	123	35	101	1048576	56	6372
2026-01-07 11:48:52.28	56.78	10.02	-39.6	-40.6	22.5	0.00e+00	123	35	101	1048576	56	6408
2026-01-07 11:48:53.29	56.95	10.04	-39.4	-40.4	22.6	0.00e+00	122	35	101	1048576	56	6274
2026-01-07 11:48:54.30	57.13	10.06	-39.4	-40.4	22.7	0.00e+00	123	35	101	1048576	56	6231
2026-01-07 11:48:55.31	57.30	10.08	-39.4	-40.4	22.7	0.00e+00	123	35	101	1048576	56	6250
2026-01-07 11:48:56.32	57.48	10.09	-39.4	-40.4	22.5	0.00e+00	123	35	101	1048576	56	6247
2026-01-07 11:48:57.33	57.66	10.11	-39.4	-40.5	22.4	0.00e+00	123	35	101	1048576	56	6282
2026-01-07 11:48:58.34	57.83	10.13	-39.4	-40.5	22.4	0.00e+00	120	35	101	1048576	56	6279
2026-01-07 11:48:59.35	58.01	10.15	-39.5	-40.5	22.4	0.00e+00	122	35	101	1048576	56	6321
2026-01-07 11:49:00.37	58.19	10.17	-39.5	-40.5	22.4	0.00e+00	120	35	101	1048576	56	6309
2026-01-07 11:49:01.38	58.37	10.18	-39.4	-40.4	22.5	0.00e+00	123	35	101	1048576	56	6237
2026-01-07 11:49:02.39	58.55	10.20	-39.3	-40.3	22.6	0.00e+00	122	35	101	1048576	56	6175
2026-01-07 11:49:03.40	58.72	10.22	-39.2	-40.3	22.7	0.00e+00	122	35	101	1048576	56	6136
2026-01-07 11:49:04.41	58.90	10.24	-39.3	-40.3	22.7	0.00e+00	120	35	101	1048576	56	6171
2026-01-07 11:49:05.42	59.08	10.25	-39.2	-40.1	22.8	0.00e+00	123	35	101	1048576	56	6061
2026-01-07 11:49:06.43	59.26	10.27	-39.1	-40.1	22.9	0.00e+00	121	35	101	1048576	56	6026
2026-01-07 11:49:07.44	59.44	10.28	-39.2	-40.3	22.7	0.00e+00	122	35	101	1048576	56	6135
2026-01-07 11:49:08.45	59.62	10.30	-39.1	-40.1	22.9	0.00e+00	120	35	101	1048576	56	6030
2026-01-07 11:49:09.46	59.80	10.32	-39.2	-40.2	22.7	0.00e+00	122	35	101	1048576	56	6087
2026-01-07 11:49:10.48	59.98	10.33	-39.2	-40.2	22.7	0.00e+00	122	35	101	1048576	56	6118
2026-01-07 11:49:11.49	60.16	10.35	-39.3	-40.3	22.7	0.00e+00	122	35	101	1048576	56	6198
2026-01-07 11:49:12.50	60.34	10.36	-39.5	-40.5	22.5	0.00e+00	120	35	101	1048576	56	6326
2026-01-07 11:49:13.51	60.52	10.38	-39.3	-40.4	22.6	0.00e+00	122	35	101	1048576	56	6213
2026-01-07 11:49:14.52	60.70	10.39	-39.3	-40.3	22.6	0.00e+00	123	35	101	1048576	56	6164
2026-01-07 11:49:15.53	60.88	10.41	-39.5	-40.5	22.6	0.00e+00	122	35	101	1048576	56	6296
2026-01-07 11:49:16.54	61.06	10.42	-39.2	-40.2	22.8	0.00e+00	122	35	101	1048576	56	6097
2026-01-07 11:49:17.55	61.24	10.43	-39.2	-40.2	22.7	0.00e+00	123	35	101	1048576	56	6084
2026-01-07 11:49:18.56	61.42	10.45	-39.2	-40.2	22.8	0.00e+00	123	35	101	1048576	56	6084
2026-01-07 11:49:19.58	61.60	10.46	-39.2	-40.2	22.7	0.00e+00	123	35	101	1048576	56	6079
2026-01-07 11:49:20.59	61.78	10.47	-39.2	-40.2	22.7	0.00e+00	123	35	101	1048576	56	6087
2026-01-07 11:49:21.60	61.97	10.49	-39.3	-40.3	22.7	0.00e+00	120	35	101	1048576	56	6152
2026-01-07 11:49:22.61	62.15	10.50	-39.3	-40.4	22.5	0.00e+00	123	35	101	1048576	56	6215
2026-01-07 11:49:23.62	62.33	10.51	-39.5	-40.5	22.5	0.00e+00	122	35	101	1048576	56	6343
2026-01-07 11:49:24.63	62.51	10.52	-39.5	-40.6	22.4	0.00e+00	122	35	101	1048576	56	6353
2026-01-07 11:49:25.64	62.69	10.54	-39.4	-40.5	22.6	0.00e+00	121	35	101	1048576	56	6284
2026-01-07 11:49:26.65	62.88	10.55	-39.5	-40.5	22.5	0.00e+00	123	35	101	1048576	56	6315
2026-01-07 11:49:27.66	63.06	10.56	-39.3	-40.3	22.7	0.00e+00	120	35	101	1048576	56	6189
2026-01-07 11:49:28.67	63.24	10.57	-39.2	-40.2	22.8	0.00e+00	123	35	101	1048576	56	6078
2026-01-07 11:49:29.69	63.42	10.58	-39.0	-40.0	23.0	0.00e+00	120	35	101	1048576	56	5944
2026-01-07 11:49:30.70	63.61	10.59	-39.0	-40.0	22.9	0.00e+00	122	35	101	1048576	56	5947
2026-01-07 11:49:31.71	63.79	10.60	-38.9	-39.9	23.0	0.00e+00	123	35	101	1048576	56	5891
2026-01-07 11:49:32.72	63.97	10.61	-38.9	-39.9	23.0	0.00e+00	122	35	101	1048576	56	5871
2026-01-07 11:49:33.73	64.16	10.62	-39.0	-40.0	22.9	0.00e+00	123	35	101	1048576	56	5967
2026-01-07 11:49:34.74	64.34	10.63	-38.9	-39.9	23.0	0.00e+00	123	35	101	1048576	56	5919
2026-01-07 11:49:35.75	64.52	10.64	-39.1	-40.1	22.8	0.00e+00	123	35	101	1048576	56	5995
2026-01-07 11:49:36.76	64.71	10.65	-39.0	-40.0	22.9	0.00e+00	123	35	101	1048576	56	5938
2026-01-07 11:49:37.77	64.89	10.66	-38.9	-39.9	23.0	0.00e+00	123	35	101	1048576	56	5914
2026-01-07 11:49:38.78	65.07	10.67	-39.0	-40.0	22.9	0.00e+00	122	35	101	1048576	56	5947
2026-01-07 11:49:39.79	65.26	10.68	-39.1	-40.1	22.9	0.00e+00	123	35	101	1048576	56	5998
2026-01-07 11:49:40.80	65.44	10.68	-38.8	-39.8	23.0	0.00e+00	123	35	101	1048576	56	5844
2026-01-07 11:49:41.81	65.62	10.69	-38.9	-39.9	22.9	0.00e+00	123	35	101	1048576	56	5893
2026-01-07 11:49:42.83	65.81	10.70	-39.0	-39.9	22.9	0.00e+00	123	35	101	1048576	56	5914
2026-01-07 11:49:43.84	65.99	10.71	-38.9	-39.9	22.9	0.00e+00	123	35	101	1048576	56	5912
2026-01-07 11:49:44.85	66.18	10.71	-39.0	-39.9	22.8	0.00e+00	123	35	101	1048576	56	5925
2026-01-07 11:49:45.86	66.36	10.72	-38.9	-39.9	22.9	0.00e+00	122	35	101	1048576	56	5924
2026-01-07 11:49:46.87	66.55	10.73	-39.0	-40.0	22.9	0.00e+00	123	35	101	1048576	56	5927
2026-01-07 11:49:47.88	66.73	10.73	-38.9	-39.9	22.9	0.00e+00	122	35	101	1048576	56	5893
2026-01-07 11:49:48.89	66.92	10.74	-39.0	-40.0	22.8	0.00e+00	120	35	101	1048576	56	5971
2026-01-07 11:49:49.90	67.10	10.74	-39.2	-40.2	22.7	0.00e+00	123	35	101	1048576	56	6082
2026-01-07 11:49:50.91	67.29	10.75	-39.0	-40.0	22.8	0.00e+00	123	35	101	1048576	56	5970
2026-01-07 11:49:51.92	67.47	10.76	-39.2	-40.2	22.7	0.00e+00	122	35	101	1048576	56	6119
2026-01-07 11:49:52.94	67.66	10.76	-39.1	-40.1	22.8	0.00e+00	123	35	101	1048576	56	6042
2026-01-07 11:49:53.95	67.84	10.76	-39.0	-39.9	22.9	0.00e+00	123	35	101	1048576	56	5925
2026-01-07 11:49:54.96	68.03	10.77	-39.0	-40.0	22.8	0.00e+00	122	35	101	1048576	56	5943
2026-01-07 11:49:55.97	68.21	10.77	-38.9	-39.9	22.9	0.00e+00	123	35	101	1048576	56	5910
2026-01-07 11:49:56.98	68.40	10.78	-38.9	-39.9	23.0	0.00e+00	122	35	101	1048576	56	5877
2026-01-07 11:49:57.99	68.58	10.78	-39.0	-40.0	22.9	0.00e+00	122	35	101	1048576	56	5967
2026-01-07 11:49:59.00	68.77	10.78	-39.0	-40.0	22.9	0.00e+00	122	35	101	1048576	56	5965
2026-01-07 11:50:00.01	68.95	10.79	-39.1	-40.1	22.8	0.00e+00	123	35	101	1048576	56	6000
2026-01-07 11:50:01.02	69.14	10.79	-38.9	-39.9	22.9	0.00e+00	122	35	101	1048576	56	5896
2026-01-07 11:50:02.04	69.32	10.79	-39.0	-40.0	22.9	0.00e+00	123	35	101	1048576	56	5928
2026-01-07 11:50:03.05	69.51	10.79	-39.0	-40.0	22.9	0.00e+00	123	35	101	1048576	56	5952
2026-01-07 11:50:04.06	69.69	10.80	-39.0	-40.0	22.9	0.00e+00	122	35	101	1048576	56	5958
2026-01-07 11:50:05.07	69.88	10.80	-39.1	-40.1	22.9	0.00e+00	123	35	101	1048576	56	6020
2026-01-07 11:50:06.08	70.07	10.80	-39.1	-40.1	22.9	0.00e+00	123	35	101	1048576	56	6008
2026-01-07 11:50:07.09	70.25	10.80	-39.0	-40.0	23.0	0.00e+00	122	35	101	1048576	56	5937
2026-01-07 11:50:08.10	70.44	10.80	-39.0	-40.0	22.9	0.00e+00	120	35	101	1048576	56	5957
2026-01-07 11:50:09.11	70.62	10.80	-39.2	-40.2	22.8	0.00e+00	123	35	101	1048576	56	6079
2026-01-07 11:50:10.12	70.81	10.80	-39.0	-40.0	22.9	0.00e+00	120	35	101	1048576	56	5956
2026-01-07 11:50:11.14	70.99	10.80	-39.1	-40.1	22.9	0.00e+00	122	35	101	1048576	56	6021
2026-01-07 11:50:12.15	71.18	10.80	-39.1	-40.1	22.8	0.00e+00	122	35	101	1048576	56	6010
2026-01-07 11:50:13.16	71.37	10.80	-39.1	-40.1	22.8	0.00e+00	123	35	101	1048576	56	6001
2026-01-07 11:50:14.17	71.55	10.80	-39.0	-40.0	22.9	0.00e+00	123	35	101	1048576	56	5977
2026-01-07 11:50:15.18	71.74	10.80	-39.0	-40.0	22.9	0.00e+00	122	35	101	1048576	56	5986
2026-01-07 11:50:16.19	71.92	10.80	-39.1	-40.0	22.9	0.00e+00	122	35	101	1048576	56	5993
2026-01-07 11:50:17.20	72.11	10.80	-39.0	-40.0	23.0	0.00e+00	123	35	101	1048576	56	5927
2026-01-07 11:50:18.21	72.29	10.80	-39.0	-40.0	23.0	0.00e+00	123	35	101	1048576	56	5953
2026-01-07 11:50:19.22	72.48	10.80	-38.9	-39.9	23.0	0.00e+00	123	35	101	1048576	56	5910
2026-01-07 11:50:20.24	72.67	10.79	-39.0	-39.9	23.0	0.00e+00	123	35	101	1048576	56	5911
2026-01-07 11:50:21.25	72.85	10.79	-39.0	-40.0	22.9	0.00e+00	122	35	101	1048576	56	5964
2026-01-07 11:50:22.26	73.04	10.79	-38.9	-39.9	23.0	0.00e+00	123	35	101	1048576	56	5915
2026-01-07 11:50:23.27	73.22	10.79	-39.0	-40.0	22.9	0.00e+00	123	35	101	1048576	56	5992
2026-01-07 11:50:24.28	73.41	10.78	-39.2	-40.2	22.8	0.00e+00	123	35	101	1048576	56	6086
2026-01-07 11:50:25.29	73.59	10.78	-39.2	-40.2	22.8	0.00e+00	123	35	101	1048576	56	6094
2026-01-07 11:50:26.30	73.78	10.77	-39.0	-40.0	23.0	0.00e+00	123	35	101	1048576	56	5958
2026-01-07 11:50:27.31	73.96	10.77	-39.0	-40.0	23.0	0.00e+00	123	35	101	1048576	56	5953
2026-01-07 11:50:28.32	74.15	10.77	-38.9	-39.9	23.1	0.00e+00	123	35	101	1048576	56	5892
2026-01-07 11:50:29.33	74.33	10.76	-38.8	-39.8	23.1	0.00e+00	122	35	101	1048576	56	5839
2026-01-07 11:50:30.34	74.52	10.76	-38.9	-39.8	23.1	0.00e+00	120	35	101	1048576	56	5849
2026-01-07 11:50:31.35	74.70	10.75	-38.9	-39.8	23.2	0.00e+00	122	35	101	1048576	56	5853
2026-01-07 11:50:32.36	74.89	10.75	-38.9	-39.9	23.1	0.00e+00	120	35	101	1048576	56	5862
2026-01-07 11:50:33.37	75.07	10.74	-38.8	-39.8	23.1	0.00e+00	122	35	101	1048576	56	5841
2026-01-07 11:50:34.39	75.26	10.73	-39.0	-40.0	23.0	0.00e+00	122	35	101	1048576	56	5932
2026-01-07 11:50:35.40	75.44	10.73	-39.0	-40.0	23.0	0.00e+00	123	35	101	1048576	56	5954
2026-01-07 11:50:36.41	75.63	10.72	-39.0	-40.0	23.0	0.00e+00	120	35	101	1048576	56	5980
2026-01-07 11:50:37.42	75.81	10.72	-39.2	-40.2	22.8	0.00e+00	123	35	101	1048576	56	6090
2026-01-07 11:50:38.43	76.00	10.71	-39.0	-40.0	22.9	0.00e+00	123	35	101	1048576	56	5966
2026-01-07 11:50:39.44	76.18	10.70	-39.1	-40.1	22.9	0.00e+00	123	35	101	1048576	56	6026
2026-01-07 11:50:40.45	76.36	10.69	-39.0	-40.1	23.0	0.00e+00	123	35	101	1048576	56	6002
2026-01-07 11:50:41.46	76.55	10.69	-39.0	-40.0	23.0	0.00e+00	122	35	101	1048576	56	5956
2026-01-07 11:50:42.47	76.73	10.68	-39.1	-40.1	22.9	0.00e+00	123	35	101	1048576	56	6011
2026-01-07 11:50:43.49	76.92	10.67	-39.0	-40.0	23.0	0.00e+00	121	35	101	1048576	56	5960
2026-01-07 11:50:44.50	77.10	10.66	-38.9	-39.9	23.1	0.00e+00	123	35	101	1048576	56	5920
2026-01-07 11:50:45.51	77.29	10.65	-38.9	-39.9	23.1	0.00e+00	120	35	101	1048576	56	5897
2026-01-07 11:50:46.52	77.47	10.64	-38.8	-39.8	23.2	0.00e+00	123	35	101	1048576	56	5823
2026-01-07 11:50:47.53	77.65	10.63	-38.9	-39.9	23.1	0.00e+00	120	35	101	1048576	56	5865
2026-01-07 11:50:48.54	77.84	10.62	-38.9	-39.9	23.1	0.00e+00	122	35	101	1048576	56	5895
2026-01-07 11:50:49.55	78.02	10.61	-38.9	-39.9	23.1	0.00e+00	123	35	101	1048576	56	5915
2026-01-07 11:50:50.56	78.20	10.60	-39.0	-40.0	23.0	0.00e+00	122	35	101	1048576	56	5929
2026-01-07 11:50:51.57	78.39	10.59	-39.0	-40.0	23.0	0.00e+00	123	35	101	1048576	56	5944
2026-01-07 11:50:52.59	78.57	10.58	-39.1	-40.1	23.0	0.00e+00	122	35	101	1048576	56	6009
2026-01-07 11:50:53.60	78.75	10.57	-39.2	-40.2	22.8	0.00e+00	122	35	101	1048576	56	6067
2026-01-07 11:50:54.61	78.94	10.56	-39.2	-40.2	22.8	0.00e+00	123	35	101	1048576	56	6103
2026-01-07 11:50:55.62	79.12	10.55	-39.2	-40.2	22.8	0.00e+00	123	35	101	1048576	56	6076
2026-01-07 11:50:56.63	79.30	10.54	-39.2	-40.2	22.9	0.00e+00	122	35	101	1048576	56	6073
2026-01-07 11:50:57.64	79.48	10.53	-39.2	-40.2	22.8	0.00e+00	123	35	101	1048576	56	6132
2026-01-07 11:50:58.65	79.67	10.51	-39.2	-40.2	22.8	0.00e+00	123	35	101	1048576	56	6072
2026-01-07 11:50:59.66	79.85	10.50	-39.3	-40.3	22.7	0.00e+00	123	35	101	1048576	56	6192
2026-01-07 11:51:00.68	80.03	10.49	-39.2	-40.2	22.7	0.00e+00	120	35	101	1048576	56	6079
2026-01-07 11:51:01.69	80.21	10.48	-39.3	-40.3	22.7	0.00e+00	123	35	101	1048576	56	6165
2026-01-07 11:51:02.70	80.40	10.46	-39.4	-40.4	22.7	0.00e+00	123	35	101	1048576	56	6214
2026-01-07 11:51:03.71	80.58	10.45	-39.3	-40.3	22.7	0.00e+00	121	35	101	1048576	56	6201
2026-01-07 11:51:04.72	80.76	10.44	-39.3	-40.4	22.6	0.00e+00	123	35	101	1048576	56	6214
2026-01-07 11:51:05.73	80.94	10.42	-39.3	-40.3	22.6	0.00e+00	120	35	101	1048576	56	6203
2026-01-07 11:51:06.74	81.12	10.41	-39.3	-40.3	22.7	0.00e+00	122	35	101	1048576	56	6169
2026-01-07 11:51:07.75	81.30	10.40	-39.3	-40.3	22.7	0.00e+00	123	35	101	1048576	56	6153
2026-01-07 11:51:08.76	81.48	10.38	-39.3	-40.3	22.7	0.00e+00	120	35	101	1048576	56	6158
2026-01-07 11:51:09.77	81.66	10.37	-39.2	-40.2	22.7	0.00e+00	122	35	101	1048576	56	6080
2026-01-07 11:51:10.79	81.84	10.35	-39.3	-40.3	22.7	0.00e+00	123	35	101	1048576	56	6147
2026-01-07 11:51:11.80	82.02	10.34	-39.1	-40.2	22.8	0.00e+00	121	35	101	1048576	56	6072
2026-01-07 11:51:12.81	82.20	10.32	-39.2	-40.3	22.7	0.00e+00	122	35	101	1048576	56	6146
2026-01-07 11:51:13.82	82.38	10.30	-39.2	-40.2	22.6	0.00e+00	122	35	101	1048576	56	6114
2026-01-07 11:51:14.83	82.56	10.29	-39.2	-40.2	22.8	0.00e+00	120	35	101	1048576	56	6081
2026-01-07 11:51:15.84	82.74	10.27	-39.2	-40.2	22.7	0.00e+00	123	35	101	1048576	56	6078
2026-01-07 11:51:16.85	82.92	10.26	-39.1	-40.2	22.7	0.00e+00	120	35	101	1048576	56	6067
2026-01-07 11:51:17.86	83.10	10.24	-39.1	-40.1	22.8	0.00e+00	123	35	101	1048576	56	6034
2026-01-07 11:51:18.87	83.28	10.22	-39.1	-40.2	22.8	0.00e+00	123	35	101	1048576	56	6071
2026-01-07 11:51:19.89	83.46	10.20	-39.2	-40.2	22.6	0.00e+00	120	35	101	1048576	56	6110
2026-01-07 11:51:20.90	83.64	10.19	-39.3	-40.3	22.6	0.00e+00	123	35	101	1048576	56	6204
2026-01-07 11:51:21.91	83.82	10.17	-39.3	-40.3	22.6	0.00e+00	123	35	101	1048576	56	6153
2026-01-07 11:51:22.92	83.99	10.15	-39.4	-40.5	22.6	0.00e+00	123	35	101	1048576	58	5604
2026-01-07 11:51:23.93	84.17	10.13	-39.4	-40.4	22.7	0.00e+00	120	35	101	1048576	58	5576
2026-01-07 11:51:24.94	84.35	10.12	-39.2	-40.2	22.7	0.00e+00	123	35	101	1048576	58	5407
2026-01-07 11:51:25.95	84.53	10.10	-39.1	-40.1	22.9	0.00e+00	120	35	101	1048576	56	6044
2026-01-07 11:51:26.96	84.70	10.08	-39.0	-40.0	22.7	0.00e+00	122	35	101	1048576	56	5963
2026-01-07 11:51:27.98	84.88	10.06	-39.2	-40.2	22.8	0.00e+00	123	35	101	1048576	56	6100
2026-01-07 11:51:28.99	85.06	10.04	-39.2	-40.2	22.7	0.00e+00	123	35	101	1048576	56	6132
2026-01-07 11:51:30.00	85.23	10.02	-39.0	-40.0	22.9	0.00e+00	122	35	101	1048576	56	5984
2026-01-07 11:51:31.01	85.41	10.00	-39.0	-40.0	22.9	0.00e+00	123	35	101	1048576	56	5988
2026-01-07 11:51:32.02	85.59	9.98	-39.1	-40.1	22.9	0.00e+00	123	35	101	1048576	56	6021
2026-01-07 11:51:33.03	85.76	9.96	-39.0	-40.0	22.9	0.00e+00	122	35	101	1048576	56	5984
2026-01-07 11:51:34.04	85.94	9.94	-39.1	-40.1	22.9	0.00e+00	123	35	101	1048576	56	6021
2026-01-07 11:51:35.05	86.11	9.92	-39.1	-40.1	22.9	0.00e+00	122	35	101	1048576	56	5999
2026-01-07 11:51:36.06	86.29	9.90	-39.0	-40.0	22.9	0.00e+00	123	35	101	1048576	56	5988
2026-01-07 11:51:37.08	86.47	9.88	-39.1	-40.1	22.9	0.00e+00	122	35	101	1048576	56	6043
2026-01-07 11:51:38.09	86.64	9.86	-39.0	-40.0	22.9	0.00e+00	123	35	101	1048576	56	5959
2026-01-07 11:51:39.10	86.81	9.84	-39.1	-40.1	22.8	0.00e+00	120	35	101	1048576	56	6027
2026-01-07 11:51:40.11	86.99	9.81	-39.1	-40.1	22.9	0.00e+00	123	35	101	1048576	56	6030
2026-01-07 11:51:41.12	87.16	9.79	-39.1	-40.1	22.9	0.00e+00	122	35	101	1048576	56	6002
2026-01-07 11:51:42.13	87.34	9.77	-39.2	-40.2	22.8	0.00e+00	120	35	101	1048576	56	6079
2026-01-07 11:51:43.14	87.51	9.75	-39.3	-40.3	22.7	0.00e+00	123	35	101	1048576	56	6141
2026-01-07 11:51:44.15	87.68	9.73	-39.0	-40.0	23.0	0.00e+00	120	35	101	1048576	56	5981
2026-01-07 11:51:45.16	87.85	9.70	-39.1	-40.1	22.8	0.00e+00	122	35	101	1048576	56	6047
2026-01-07 11:51:46.18	88.03	9.68	-39.0	-40.0	23.0	0.00e+00	122	35	101	1048576	56	5966
2026-01-07 11:51:47.19	88.20	9.66	-39.1	-40.1	22.9	0.00e+00	120	35	101	1048576	56	6003
2026-01-07 11:51:48.20	88.37	9.63	-39.0	-40.0	23.0	0.00e+00	123	35	101	1048576	56	5981
2026-01-07 11:51:49.21	88.54	9.61	-39.1	-40.1	22.8	0.00e+00	122	35	101	1048576	56	6044
2026-01-07 11:51:50.22	88.72	9.59	-39.1	-40.1	22.9	0.00e+00	122	35	101	1048576	56	6001
2026-01-07 11:51:51.23	88.89	9.56	-39.2	-40.1	22.8	0.00e+00	120	35	101	1048576	56	6060
2026-01-07 11:51:52.24	89.06	9.54	-39.2	-40.2	22.8	0.00e+00	123	35	101	1048576	56	6075
2026-01-07 11:51:53.25	89.23	9.51	-39.2	-40.1	22.7	0.00e+00	120	35	101	1048576	56	6064
2026-01-07 11:51:54.26	89.40	9.49	-39.2	-40.1	22.8	0.00e+00	123	35	101	1048576	56	6064
2026-01-07 11:51:55.28	89.57	9.46	-39.2	-40.2	22.7	0.00e+00	120	35	101	1048576	56	6117
2026-01-07 11:51:56.29	89.74	9.44	-39.2	-40.2	22.7	0.00e+00	123	35	101	1048576	56	6092
2026-01-07 11:51:57.30	89.91	9.42	-39.2	-40.3	22.7	0.00e+00	123	35	101	1048576	56	6148
2026-01-07 11:51:58.31	90.08	9.39	-39.1	-40.1	22.8	0.00e+00	122	35	101	1048576	56	6043
2026-01-07 11:51:59.32	90.25	9.36	-39.0	-40.1	22.9	0.00e+00	123	35	101	1048576	56	6000
2026-01-07 11:52:00.33	90.42	9.34	-39.1	-40.1	22.8	0.00e+00	120	35	101	1048576	56	6043
2026-01-07 11:52:01.34	90.59	9.31	-39.2	-40.3	22.6	0.00e+00	123	35	101	1048576	56	6158
2026-01-07 11:52:02.35	90.75	9.29	-39.2	-40.2	22.7	0.00e+00	123	35	101	1048576	56	6110
2026-01-07 11:52:03.36	90.92	9.26	-39.3	-40.3	22.7	0.00e+00	122	35	101	1048576	56	6187
2026-01-07 11:52:04.38	91.09	9.23	-39.2	-40.2	22.7	0.00e+00	123	35	101	1048576	56	6125
2026-01-07 11:52:05.39	91.26	9.21	-39.3	-40.3	22.7	0.00e+00	123	35	101	1048576	56	6182
2026-01-07 11:52:06.40	91.43	9.18	-39.3	-40.3	22.6	0.00e+00	120	35	101	1048576	56	6162
2026-01-07 11:52:07.41	91.59	9.15	-39.2	-40.2	22.7	0.00e+00	121	35	101	1048576	56	6129
2026-01-07 11:52:08.42	91.76	9.13	-39.4	-40.4	22.6	0.00e+00	123	35	101	1048576	56	6228
2026-01-07 11:52:09.43	91.93	9.10	-39.3	-40.3	22.6	0.00e+00	122	35	101	1048576	56	6185
2026-01-07 11:52:10.44	92.09	9.07	-39.3	-40.4	22.6	0.00e+00	122	35	101	1048576	56	6213
2026-01-07 11:52:11.45	92.26	9.04	-39.3	-40.3	22.6	0.00e+00	120	35	101	1048576	56	6188
2026-01-07 11:52:12.46	92.42	9.02	-39.4	-40.4	22.5	0.00e+00	123	35	101	1048576	56	6272
2026-01-07 11:52:13.48	92.59	8.99	-39.4	-40.4	22.5	0.00e+00	120	35	101	1048576	56	6260
2026-01-07 11:52:14.49	92.75	8.96	-39.4	-40.4	22.5	0.00e+00	123	35	101	1048576	56	6244
2026-01-07 11:52:15.50	92.92	8.93	-39.4	-40.4	22.4	0.00e+00	120	35	101	1048576	56	6249
2026-01-07 11:52:16.51	93.08	8.90	-39.3	-40.4	22.4	0.00e+00	122	35	101	1048576	56	6218
2026-01-07 11:52:17.52	93.25	8.87	-39.2	-40.3	22.6	0.00e+00	120	35	101	1048576	56	6145
2026-01-07 11:52:18.53	93.41	8.85	-39.3	-40.3	22.6	0.00e+00	123	35	101	1048576	56	6173
2026-01-07 11:52:19.54	93.57	8.82	-39.3	-40.3	22.6	0.00e+00	120	35	101	1048576	56	6181
2026-01-07 11:52:20.55	93.73	8.79	-39.2	-40.2	22.7	0.00e+00	123	35	101	1048576	56	6129
2026-01-07 11:52:21.56	93.90	8.76	-39.1	-40.1	22.7	0.00e+00	123	35	101	1048576	56	6049
2026-01-07 11:52:22.57	94.06	8.73	-39.1	-40.1	22.7	0.00e+00	123	35	101	1048576	56	6021
2026-01-07 11:52:23.58	94.22	8.70	-39.1	-40.1	22.7	0.00e+00	122	35	101	1048576	56	6036
2026-01-07 11:52:24.59	94.38	8.67	-39.2	-40.2	22.7	0.00e+00	123	35	101	1048576	56	6098
2026-01-07 11:52:25.60	94.54	8.64	-39.2	-40.2	22.7	0.00e+00	123	35	101	1048576	56	6091
2026-01-07 11:52:26.61	94.70	8.61	-39.4	-40.4	22.5	0.00e+00	122	35	101	1048576	56	6255
2026-01-07 11:52:27.62	94.86	8.58	-39.5	-40.5	22.5	0.00e+00	122	35	101	1048576	56	6301
2026-01-07 11:52:28.63	95.02	8.55	-39.5	-40.5	22.5	0.00e+00	123	35	101	1048576	56	6327
2026-01-07 11:52:29.65	95.19	8.52	-39.5	-40.5	22.4	0.00e+00	123	35	101	1048576	56	6315
2026-01-07 11:52:30.66	95.35	8.49	-39.5	-40.5	22.5	0.00e+00	123	35	101	1048576	56	6311
2026-01-07 11:52:31.67	95.51	8.46	-39.6	-40.6	22.3	0.00e+00	122	35	101	1048576	56	6393
2026-01-07 11:52:32.68	95.66	8.42	-39.6	-40.6	22.4	0.00e+00	123	35	101	1048576	56	6401
2026-01-07 11:52:33.69	95.82	8.39	-39.6	-40.6	22.3	0.00e+00	120	35	101	1048576	56	6413
2026-01-07 11:52:34.70	95.98	8.36	-39.6	-40.7	22.3	0.00e+00	123	35	101	1048576	56	6460
2026-01-07 11:52:35.71	96.14	8.33	-39.7	-40.7	22.2	0.00e+00	123	35	101	1048576	56	6450
2026-01-07 11:52:36.72	96.30	8.30	-39.7	-40.7	22.2	0.00e+00	122	35	101	1048576	56	6484
2026-01-07 11:52:37.73	96.45	8.27	-39.5	-40.6	22.4	0.00e+00	123	35	101	1048576	56	6369
2026-01-07 11:52:38.74	96.61	8.24	-39.5	-40.6	22.4	0.00e+00	122	35	101	1048576	56	6363
2026-01-07 11:52:39.75	96.77	8.20	-39.6	-40.6	22.3	0.00e+00	123	35	101	1048576	56	6396
2026-01-07 11:52:40.76	96.92	8.17	-39.6	-40.6	22.3	0.00e+00	123	35	101	1048576	56	6396
2026-01-07 11:52:41.77	97.08	8.14	-39.7	-40.7	22.3	0.00e+00	120	35	101	1048576	56	6473
2026-01-07 11:52:42.79	97.24	8.11	-39.7	-40.7	22.2	0.00e+00	123	35	101	1048576	56	6478
2026-01-07 11:52:43.80	97.39	8.07	-39.6	-40.7	22.3	0.00e+00	123	35	101	1048576	56	6440
2026-01-07 11:52:44.81	97.55	8.04	-39.6	-40.6	22.3	0.00e+00	123	35	101	1048576	56	6392
2026-01-07 11:52:45.82	97.70	8.01	-39.7	-40.7	22.2	0.00e+00	122	35	101	1048576	56	6495
2026-01-07 11:52:46.83	97.86	7.97	-39.7	-40.8	22.2	0.00e+00	123	35	101	1048576	56	6523
2026-01-07 11:52:47.84	98.01	7.94	-39.9	-41.0	22.0	0.00e+00	122	35	101	1048576	56	6654
2026-01-07 11:52:48.85	98.16	7.91	-39.9	-41.0	22.0	0.00e+00	123	35	101	1048576	56	6655
2026-01-07 11:52:49.86	98.32	7.87	-40.0	-41.1	21.9	0.00e+00	123	35	101	1048576	56	6776
2026-01-07 11:52:50.87	98.47	7.84	-40.0	-41.1	21.9	0.00e+00	122	35	101	1048576	56	6797
2026-01-07 11:52:51.88	98.62	7.81	-40.1	-41.2	21.8	0.00e+00	122	35	101	1048576	56	6868
2026-01-07 11:52:52.89	98.77	7.77	-39.9	-41.0	21.9	0.00e+00	123	35	101	1048576	56	6703
2026-01-07 11:52:53.91	98.93	7.74	-40.0	-41.1	21.9	0.00e+00	123	35	101	1048576	56	6768
2026-01-07 11:52:54.92	99.08	7.70	-39.8	-40.9	22.0	0.00e+00	122	35	101	1048576	56	6619
2026-01-07 11:52:55.93	99.23	7.67	-39.8	-40.9	22.1	0.00e+00	122	35	101	1048576	56	6608
2026-01-07 11:52:56.94	99.38	7.64	-40.0	-41.1	21.9	0.00e+00	122	35	101	1048576	56	6756
2026-01-07 11:52:57.95	99.53	7.60	-40.0	-41.0	21.9	0.00e+00	122	35	101	1048576	56	6712
2026-01-07 11:52:58.96	99.68	7.57	-40.0	-41.0	21.9	0.00e+00	120	35	101	1048576	56	6723
2026-01-07 11:52:59.97	99.83	7.53	-40.0	-41.1	21.9	0.00e+00	123	35	101	1048576	56	6766
2026-01-07 11:53:00.98	99.98	7.50	-39.9	-40.9	22.0	0.00e+00	123	35	101	1048576	56	6621
2026-01-07 11:53:01.99	100.13	7.46	-39.9	-41.0	22.0	0.00e+00	120	35	101	1048576	56	6682
2026-01-07 11:53:03.00	100.28	7.43	-40.0	-41.0	21.9	0.00e+00	123	35	101	1048576	56	6706
2026-01-07 11:53:04.01	100.43	7.39	-39.9	-41.0	22.0	0.00e+00	122	35	101	1048576	56	6654
2026-01-07 11:53:05.02	100.58	7.36	-40.0	-41.0	21.9	0.00e+00	122	35	101	1048576	56	6701
2026-01-07 11:53:06.03	100.72	7.32	-40.0	-41.1	21.9	0.00e+00	122	35	101	1048576	56	6760
2026-01-07 11:53:07.05	100.87	7.29	-40.0	-41.1	21.8	0.00e+00	120	35	101	1048576	56	6782
2026-01-07 11:53:08.06	101.02	7.25	-40.2	-41.3	21.6	0.00e+00	127	35	101	1048576	58	6158
2026-01-07 11:53:09.07	101.17	7.21	-40.1	-41.2	21.7	0.00e+00	123	35	101	1048576	58	6088
2026-01-07 11:53:10.08	101.31	7.18	-40.3	-41.4	21.5	0.00e+00	123	35	101	1048576	58	6247
2026-01-07 11:53:11.09	101.46	7.14	-40.1	-41.2	21.7	0.00e+00	120	35	101	1048576	58	6118
2026-01-07 11:53:12.10	101.61	7.11	-40.2	-41.3	21.5	0.00e+00	122	35	101	1048576	58	6170
2026-01-07 11:53:13.11	101.75	7.07	-40.3	-41.4	21.5	0.00e+00	120	35	101	1048576	58	6277
2026-01-07 11:53:14.12	101.90	7.03	-40.0	-41.1	21.7	0.00e+00	122	35	101	1048576	58	6041
2026-01-07 11:53:15.13	102.04	7.00	-39.9	-41.0	21.8	0.00e+00	122	35	101	1048576	58	5969
2026-01-07 11:53:16.14	102.19	6.96	-40.1	-41.1	21.8	0.00e+00	122	35	101	1048576	58	6056
2026-01-07 11:53:17.16	102.33	6.92	-40.1	-41.2	21.7	0.00e+00	122	35	101	1048576	58	6089
2026-01-07 11:53:18.17	102.47	6.89	-40.1	-41.3	21.6	0.00e+00	122	35	101	1048576	58	6140
2026-01-07 11:53:19.18	102.62	6.85	-40.0	-41.1	21.7	0.00e+00	122	35	101	1048576	58	6051
2026-01-07 11:53:20.19	102.76	6.81	-39.9	-41.0	21.8	0.00e+00	123	35	101	1048576	58	5964
2026-01-07 11:53:21.20	102.90	6.78	-40.0	-41.1	21.7	0.00e+00	123	35	101	1048576	58	6020
2026-01-07 11:53:22.21	103.05	6.74	-39.9	-41.0	21.8	0.00e+00	122	35	101	1048576	58	5969
2026-01-07 11:53:23.22	103.19	6.70	-40.0	-41.1	21.7	0.00e+00	122	35	101	1048576	58	6025
2026-01-07 11:53:24.23	103.33	6.67	-40.0	-41.1	21.7	0.00e+00	123	35	101	1048576	58	6039
2026-01-07 11:53:25.24	103.47	6.63	-40.1	-41.1	21.6	0.00e+00	123	35	101	1048576	58	6064
2026-01-07 11:53:26.25	103.61	6.59	-40.0	-41.1	21.6	0.00e+00	122	35	101	1048576	58	6047
2026-01-07 11:53:27.26	103.75	6.55	-40.0	-41.1	21.6	0.00e+00	123	35	101	1048576	58	6037
2026-01-07 11:53:28.28	103.89	6.51	-40.1	-41.2	21.6	0.00e+00	123	35	101	1048576	58	6085
2026-01-07 11:53:29.29	104.03	6.48	-40.2	-41.3	21.5	0.00e+00	120	35	101	1048576	58	6138
2026-01-07 11:53:30.30	104.17	6.44	-40.2	-41.2	21.5	0.00e+00	122	35	101	1048576	58	6131
2026-01-07 11:53:31.31	104.31	6.40	-40.1	-41.2	21.5	0.00e+00	120	35	101	1048576	58	6094
2026-01-07 11:53:32.32	104.45	6.36	-40.3	-41.4	21.4	0.00e+00	123	35	101	1048576	58	6218
2026-01-07 11:53:33.33	104.59	6.33	-40.4	-41.5	21.3	0.00e+00	122	35	101	1048576	58	6293
2026-01-07 11:53:34.34	104.73	6.29	-40.4	-41.5	21.3	0.00e+00	123	35	101	1048576	58	6299
2026-01-07 11:53:35.35	104.86	6.25	-40.2	-41.3	21.5	0.00e+00	123	35	101	1048576	58	6139
2026-01-07 11:53:36.36	105.00	6.21	-40.2	-41.3	21.5	0.00e+00	122	35	101	1048576	58	6200
2026-01-07 11:53:37.37	105.14	6.17	-40.0	-41.2	21.7	0.00e+00	123	35	101	1048576	58	6070
2026-01-07 11:53:38.38	105.28	6.13	-40.1	-41.3	21.5	0.00e+00	123	35	101	1048576	58	6148
2026-01-07 11:53:39.40	105.41	6.10	-40.1	-41.2	21.6	0.00e+00	122	35	101	1048576	58	6119
2026-01-07 11:53:40.41	105.55	6.06	-40.3	-41.4	21.4	0.00e+00	123	35	101	1048576	58	6236
2026-01-07 11:53:41.42	105.68	6.02	-40.1	-41.3	21.5	0.00e+00	123	35	101	1048576	58	6137
2026-01-07 11:53:42.43	105.82	5.98	-40.2	-41.3	21.5	0.00e+00	123	35	101	1048576	58	6159
2026-01-07 11:53:43.44	105.96	5.94	-40.3	-41.4	21.4	0.00e+00	122	35	101	1048576	58	6237
2026-01-07 11:53:44.45	106.09	5.90	-40.3	-41.5	21.4	0.00e+00	123	35	101	1048576	58	6279
2026-01-07 11:53:45.46	106.22	5.86	-40.4	-41.5	21.2	0.00e+00	122	35	101	1048576	58	6335
2026-01-07 11:53:46.47	106.36	5.82	-40.4	-41.6	21.2	0.00e+00	122	35	101	1048576	58	6415
2026-01-07 11:53:47.48	106.49	5.78	-40.3	-41.5	21.3	0.00e+00	120	35	101	1048576	58	6316
2026-01-07 11:53:48.49	106.62	5.74	-40.3	-41.5	21.3	0.00e+00	123	35	101	1048576	58	6278
2026-01-07 11:53:49.50	106.76	5.71	-40.4	-41.6	21.2	0.00e+00	123	35	101	1048576	58	6360
2026-01-07 11:53:50.51	106.89	5.67	-40.5	-41.7	21.1	0.00e+00	123	35	101	1048576	58	6451
2026-01-07 11:53:51.52	107.02	5.63	-40.5	-41.7	21.1	0.00e+00	120	35	101	1048576	58	6427
2026-01-07 11:53:52.53	107.15	5.59	-40.6	-41.7	21.0	0.00e+00	122	35	101	1048576	58	6486
2026-01-07 11:53:53.55	107.29	5.55	-40.4	-41.5	21.2	0.00e+00	123	35	101	1048576	58	6340
2026-01-07 11:53:54.56	107.42	5.51	-40.4	-41.6	21.1	0.00e+00	123	35	101	1048576	58	6393
2026-01-07 11:53:55.57	107.55	5.47	-40.4	-41.7	21.1	0.00e+00	122	35	101	1048576	58	6441
2026-01-07 11:53:56.58	107.68	5.43	-40.5	-41.8	21.0	0.00e+00	120	35	101	1048576	58	6500
2026-01-07 11:53:57.59	107.81	5.39	-40.5	-41.7	21.0	0.00e+00	123	35	101	1048576	58	6453
2026-01-07 11:53:58.60	107.94	5.35	-40.6	-41.8	20.9	0.00e+00	122	35	101	1048576	58	6500
2026-01-07 11:53:59.61	108.07	5.31	-40.6	-41.7	21.0	0.00e+00	123	35	101	1048576	58	6482
2026-01-07 11:54:00.62	108.20	5.27	-40.7	-41.9	20.8	0.00e+00	120	35	101	1048576	58	6625
2026-01-07 11:54:01.63	108.33	5.23	-40.7	-41.9	20.8	0.00e+00	122	35	101	1048576	58	6615
2026-01-07 11:54:02.64	108.46	5.19	-40.7	-41.9	20.8	0.00e+00	120	35	101	1048576	58	6588
2026-01-07 11:54:03.65	108.58	5.15	-40.7	-41.9	20.8	0.00e+00	123	35	101	1048576	58	6606
2026-01-07 11:54:04.66	108.71	5.11	-40.7	-42.0	20.8	0.00e+00	122	35	101	1048576	58	6666
2026-01-07 11:54:05.67	108.84	5.07	-40.7	-41.9	20.8	0.00e+00	122	35	101	1048576	58	6604
2026-01-07 11:54:06.68	108.97	5.03	-40.8	-42.0	20.7	0.00e+00	120	35	101	1048576	58	6699
2026-01-07 11:54:07.69	109.09	4.99	-40.8	-42.0	20.7	0.00e+00	122	35	101	1048576	58	6677
2026-01-07 11:54:08.71	109.22	4.95	-40.8	-42.1	20.6	0.00e+00	123	35	101	1048576	58	6729
2026-01-07 11:54:09.72	109.35	4.91	-40.8	-42.0	20.6	0.00e+00	123	35	101	1048576	58	6708
2026-01-07 11:54:10.73	109.47	4.87	-40.8	-42.1	20.6	0.00e+00	123	35	101	1048576	58	6732
2026-01-07 11:54:11.74	109.60	4.82	-40.8	-42.0	20.6	0.00e+00	122	35	101	1048576	58	6686
2026-01-07 11:54:12.75	109.72	4.78	-40.8	-42.0	20.6	0.00e+00	120	35	101	1048576	58	6660
2026-01-07 11:54:13.76	109.85	4.74	-40.7	-41.8	20.7	0.00e+00	122	35	101	1048576	58	6568
2026-01-07 11:54:14.77	109.97	4.70	-40.7	-41.9	20.8	0.00e+00	123	35	101	1048576	58	6602
2026-01-07 11:54:15.78	110.10	4.66	-40.8	-42.0	20.6	0.00e+00	122	35	101	1048576	58	6670
2026-01-07 11:54:16.80	110.22	4.62	-40.9	-42.1	20.5	0.00e+00	123	35	101	1048576	58	6797
2026-01-07 11:54:17.81	110.35	4.58	-40.8	-42.1	20.5	0.00e+00	122	35	101	1048576	58	6727
2026-01-07 11:54:18.82	110.47	4.54	-40.8	-42.0	20.6	0.00e+00	123	35	101	1048576	58	6689
2026-01-07 11:54:19.83	110.59	4.50	-40.8	-41.9	20.6	0.00e+00	122	35	101	1048576	58	6644
2026-01-07 11:54:20.84	110.71	4.46	-40.8	-42.0	20.6	0.00e+00	122	35	101	1048576	58	6658
2026-01-07 11:54:21.85	110.84	4.42	-40.7	-41.9	20.6	0.00e+00	123	35	101	1048576	58	6643
2026-01-07 11:54:22.86	110.96	4.37	-40.8	-42.0	20.6	0.00e+00	122	35	101	1048576	58	6678
2026-01-07 11:54:23.87	111.08	4.33	-40.7	-41.9	20.6	0.00e+00	122	35	101	1048576	58	6638
2026-01-07 11:54:24.88	111.20	4.29	-40.8	-42.0	20.5	0.00e+00	122	35	101	1048576	58	6682
2026-01-07 11:54:25.89	111.32	4.25	-40.9	-42.1	20.4	0.00e+00	123	35	101	1048576	58	6798
2026-01-07 11:54:26.90	111.44	4.21	-40.9	-42.1	20.3	0.00e+00	123	35	101	1048576	58	6763
2026-01-07 11:54:27.91	111.56	4.17	-40.9	-42.1	20.3	0.00e+00	122	35	101	1048576	58	6749
2026-01-07 11:54:28.92	111.68	4.13	-41.1	-42.3	20.2	0.00e+00	123	35	101	1048576	58	6913
2026-01-07 11:54:29.93	111.80	4.09	-40.9	-42.1	20.2	0.00e+00	123	35	101	1048576	58	6791
2026-01-07 11:54:30.94	111.92	4.04	-40.9	-42.2	20.2	0.00e+00	123	35	101	1048576	58	6814
2026-01-07 11:54:31.95	112.04	4.00	-41.1	-42.3	20.1	0.00e+00	123	35	101	1048576	58	6933
2026-01-07 11:54:32.97	112.16	3.96	-41.4	-42.7	19.7	0.00e+00	122	35	101	1048576	60	6452
2026-01-07 11:54:33.98	112.28	3.92	-41.4	-42.7	19.8	0.00e+00	122	35	101	1048576	60	6448
2026-01-07 11:54:34.99	112.40	3.88	-41.2	-42.5	19.9	0.00e+00	122	35	101	1048576	60	6310
2026-01-07 11:54:36.00	112.51	3.84	-41.2	-42.4	19.9	0.00e+00	122	35	101	1048576	60	6277
2026-01-07 11:54:37.01	112.63	3.79	-41.2	-42.5	19.8	0.00e+00	120	35	101	1048576	60	6292
2026-01-07 11:54:38.02	112.75	3.75	-41.3	-42.6	19.8	0.00e+00	123	35	101	1048576	60	6355
2026-01-07 11:54:39.03	112.86	3.71	-41.1	-42.4	19.9	0.00e+00	123	35	101	1048576	60	6277
2026-01-07 11:54:40.04	112.98	3.67	-41.3	-42.6	19.7	0.00e+00	123	35	101	1048576	60	6367
2026-01-07 11:54:41.05	113.10	3.63	-41.3	-42.6	19.7	0.00e+00	123	35	101	1048576	60	6397
2026-01-07 11:54:42.06	113.21	3.59	-41.3	-42.7	19.7	0.00e+00	123	35	101	1048576	60	6433
2026-01-07 11:54:43.08	113.33	3.54	-41.5	-42.8	19.5	0.00e+00	122	35	101	1048576	60	6542
2026-01-07 11:54:44.09	113.44	3.50	-41.6	-43.0	19.3	0.00e+00	123	35	101	1048576	60	6679
2026-01-07 11:54:45.10	113.56	3.46	-41.5	-43.0	19.3	0.00e+00	122	35	101	1048576	60	6656
2026-01-07 11:54:46.11	113.67	3.42	-41.5	-42.9	19.4	0.00e+00	122	35	101	1048576	60	6603
2026-01-07 11:54:47.12	113.79	3.38	-41.5	-42.8	19.4	0.00e+00	123	35	101	1048576	60	6572
2026-01-07 11:54:48.13	113.90	3.33	-41.6	-43.0	19.2	0.00e+00	123	35	101	1048576	60	6660
2026-01-07 11:54:49.14	114.01	3.29	-41.7	-43.1	19.2	0.00e+00	123	35	101	1048576	60	6730
2026-01-07 11:54:50.15	114.13	3.25	-41.7	-43.1	19.1	0.00e+00	122	35	101	1048576	60	6795
2026-01-07 11:54:51.16	114.24	3.21	-42.0	-43.4	18.8	0.00e+00	122	35	101	1048576	60	6997
2026-01-07 11:54:52.18	114.35	3.17	-41.8	-43.2	19.0	0.00e+00	123	35	101	1048576	60	6811
2026-01-07 11:54:53.19	114.47	3.12	-41.9	-43.3	18.8	0.00e+00	120	35	101	1048576	60	6912
2026-01-07 11:54:54.20	114.58	3.08	-41.8	-43.2	18.7	0.00e+00	122	35	101	1048576	60	6858
2026-01-07 11:54:55.21	114.69	3.04	-50.9	-64.1	3.5	1.52e+00	0	35	104	1048576	60	75504
2026-01-07 11:54:56.22	114.80	3.00	-51.4	-64.4	3.5	1.52e+00	0	35	104	1048576	60	78743
2026-01-07 11:54:57.23	114.91	2.95	-51.6	-64.6	3.5	1.52e+00	0	35	104	1048576	60	80710
2026-01-07 11:54:58.24	115.02	2.91	-51.7	-64.8	3.5	1.52e+00	0	35	104	1048576	60	82090
2026-01-07 11:54:59.25	115.13	2.87	-51.7	-64.9	3.5	1.52e+00	0	35	104	1048576	60	83328
2026-01-07 11:55:00.26	115.24	2.83	-51.9	-64.9	3.5	1.52e+00	0	35	104	1048576	60	83418
2026-01-07 11:55:01.27	115.35	2.79	-51.9	-65.0	3.5	1.52e+00	0	35	104	1048576	60	83720
2026-01-07 11:55:02.28	115.46	2.74	-52.0	-65.0	3.5	1.52e+00	0	35	104	1048576	60	84171
2026-01-07 11:55:03.29	115.57	2.70	-52.0	-65.0	3.5	1.52e+00	0	35	104	1048576	60	84553
2026-01-07 11:55:04.30	115.68	2.66	-52.0	-65.1	3.5	1.52e+00	0	35	104	1048576	60	84805
2026-01-07 11:55:05.32	115.79	2.62	-51.9	-65.0	3.5	1.52e+00	0	35	104	1048576	60	84264
2026-01-07 11:55:06.33	115.90	2.57	-51.8	-65.0	3.5	1.52e+00	0	35	104	1048576	60	84137
2026-01-07 11:55:07.34	116.01	2.53	-51.9	-65.0	3.5	1.52e+00	0	35	104	1048576	60	83726
2026-01-07 11:55:08.35	116.12	2.49	-51.9	-64.9	3.5	1.52e+00	0	35	104	1048576	60	83654
2026-01-07 11:55:09.36	116.22	2.45	-51.9	-64.9	3.5	1.52e+00	0	35	104	1048576	60	83630
2026-01-07 11:55:10.37	116.33	2.40	-51.9	-65.0	3.5	1.52e+00	0	35	104	1048576	60	84600
2026-01-07 11:55:11.38	116.44	2.36	-51.9	-65.0	3.5	1.52e+00	0	35	104	1048576	60	83948
2026-01-07 11:55:12.39	116.54	2.32	-51.9	-65.0	3.5	1.52e+00	0	35	104	1048576	60	83764
2026-01-07 11:55:13.40	116.65	2.28	-51.9	-64.9	3.5	1.52e+00	0	35	104	1048576	60	83023
2026-01-07 11:55:14.41	116.76	2.23	-51.9	-64.9	3.5	1.52e+00	0	35	104	1048576	60	83425
2026-01-07 11:55:15.42	116.86	2.19	-51.9	-64.9	3.5	1.52e+00	0	35	104	1048576	60	83484
2026-01-07 11:55:16.44	116.97	2.15	-51.9	-65.0	3.5	1.52e+00	0	35	104	1048576	60	83753
2026-01-07 11:55:17.45	117.07	2.11	-51.9	-64.9	3.5	1.51e+00	0	35	104	1048576	60	83047
2026-01-07 11:55:18.46	117.18	2.06	-51.9	-64.9	3.5	1.52e+00	0	35	104	1048576	60	83628
2026-01-07 11:55:19.47	117.28	2.02	-51.9	-64.9	3.5	1.52e+00	0	35	104	1048576	60	83239
2026-01-07 11:55:20.48	117.39	1.98	-51.9	-64.9	3.5	1.52e+00	0	35	104	1048576	60	83332
2026-01-07 11:55:21.49	117.49	1.94	-51.9	-64.9	3.5	1.51e+00	0	35	104	1048576	60	83195
2026-01-07 11:55:22.50	117.59	1.89	-51.9	-64.9	3.5	1.51e+00	0	35	104	1048576	60	83496
2026-01-07 11:55:23.51	117.70	1.85	-51.9	-64.9	3.5	1.52e+00	0	35	104	1048576	60	83247
2026-01-07 11:55:24.53	117.80	1.81	-51.9	-64.9	3.5	1.52e+00	0	35	104	1048576	60	83271
2026-01-07 11:55:25.54	117.90	1.77	-51.9	-64.9	3.5	1.52e+00	0	35	104	1048576	60	83199
2026-01-07 11:55:26.55	118.01	1.72	-51.9	-64.9	3.5	1.52e+00	0	35	104	1048576	60	83497
2026-01-07 11:55:27.56	118.11	1.68	-51.9	-64.9	3.5	1.52e+00	0	35	104	1048576	60	83155
2026-01-07 11:55:28.57	118.21	1.64	-51.9	-64.9	3.5	1.52e+00	0	35	104	1048576	60	83189
2026-01-07 11:55:29.58	118.31	1.59	-51.9	-64.9	3.5	1.52e+00	0	35	104	1048576	60	83316
2026-01-07 11:55:30.59	118.41	1.55	-51.9	-64.9	3.5	1.52e+00	0	35	104	1048576	60	83298
2026-01-07 11:55:31.60	118.52	1.51	-51.9	-64.9	3.5	1.52e+00	0	35	104	1048576	60	83338
2026-01-07 11:55:32.61	118.62	1.47	-51.9	-64.9	3.5	1.52e+00	0	35	104	1048576	60	83340
2026-01-07 11:55:33.62	118.72	1.42	-51.9	-64.9	3.5	1.52e+00	0	35	104	1048576	60	83404
2026-01-07 11:55:34.64	118.82	1.38	-51.9	-64.9	3.5	1.52e+00	0	35	104	1048576	60	83538
2026-01-07 11:55:35.65	118.92	1.34	-51.9	-64.9	3.5	1.51e+00	0	35	104	1048576	60	83670
2026-01-07 11:55:36.66	119.02	1.30	-51.9	-64.9	3.5	1.51e+00	0	35	104	1048576	60	83249
2026-01-07 11:55:37.67	119.12	1.25	-51.9	-64.9	3.5	1.52e+00	0	35	104	1048576	60	83209
2026-01-07 11:55:38.68	119.22	1.21	-51.9	-64.9	3.5	1.52e+00	0	35	104	1048576	60	83402
2026-01-07 11:55:39.69	119.32	1.17	-51.9	-64.9	3.5	1.51e+00	0	35	104	1048576	60	83386
2026-01-07 11:55:40.70	119.41	1.12	-51.9	-64.9	3.5	1.52e+00	0	35	104	1048576	60	83096
2026-01-07 11:55:41.71	119.51	1.08	-51.9	-64.9	3.5	1.52e+00	0	35	104	1048576	60	83390
2026-01-07 11:55:42.72	119.61	1.04	-51.9	-64.9	3.5	1.52e+00	0	35	104	1048576	60	83258
2026-01-07 11:55:43.73	119.71	1.00	-51.9	-64.9	3.5	1.52e+00	0	35	104	1048576	60	83143
2026-01-07 11:55:44.74	119.81	0.95	-51.9	-64.9	3.5	1.52e+00	0	35	104	1048576	60	83291
2026-01-07 11:55:45.75	119.90	0.91	-51.9	-64.9	3.5	1.52e+00	0	35	104	1048576	60	83322
2026-01-07 11:55:46.77	120.00	0.87	-51.9	-64.9	3.5	1.52e+00	0	35	104	1048576	60	83458
2026-01-07 11:55:47.78	120.10	0.82	-51.9	-64.9	3.5	1.52e+00	0	35	104	1048576	60	83334
2026-01-07 11:55:48.79	120.20	0.78	-51.9	-64.9	3.5	1.51e+00	0	35	104	1048576	60	83402
2026-01-07 11:55:49.80	120.29	0.74	-51.9	-64.9	3.5	1.52e+00	0	35	104	1048576	60	83418
2026-01-07 11:55:50.81	120.39	0.70	-51.9	-64.9	3.5	1.52e+00	0	35	104	1048576	60	83049
