passes_logs/2026/01/07/R4.6S_Anadyr_2ch/R4.6S_Anadyr_2ch__20260107_015440_AQUA_rec.log

#Pass ID: 20260107_015440_AQUA
#Satellite: AQUA
#Configuration: AQUA
#almurnet v.1.7.20251203
#Start time: 2026-01-07 01:54:41

#Version: 2.2.20231116
#Station: R4.6S_Anadyr_2ch
#Location: 177.4865 lon 64.73178 lat
#TLE: 1 27424U 02022A   25351.00450321  .00000925  00000+0  19503-3 0  9992
#TLE: 2 27424  98.4041 311.9529 0001248 113.7180 322.1616 14.61819266256652

#Time	Az	El	Level	Level2	SNR	BER	BlckErr	Temp	State	Recorded	gain1	gain2
2026-01-07 01:54:41.71	155.84	0.10	-51.5	-63.4	3.5	8.46e-01	0	29	0	0	60	71901
2026-01-07 01:54:42.72	155.84	0.16	-51.6	-69.4	3.5	3.02e+01	0	31	104	0	60	153275
2026-01-07 01:54:43.73	155.84	0.23	-51.6	-69.4	3.5	3.02e+01	0	31	104	0	60	153329
2026-01-07 01:54:44.75	155.84	0.29	-51.6	-69.4	3.5	3.02e+01	0	31	104	0	60	153462
2026-01-07 01:54:45.76	155.84	0.35	-51.6	-69.4	3.5	3.02e+01	0	31	104	0	60	153253
2026-01-07 01:54:46.77	155.84	0.42	-51.6	-69.4	3.5	3.02e+01	0	31	104	0	60	153948
2026-01-07 01:54:47.78	155.85	0.48	-51.6	-69.5	3.5	3.02e+01	0	31	104	0	60	154447
2026-01-07 01:54:48.79	155.85	0.54	-51.6	-69.4	3.5	3.02e+01	0	31	104	0	60	153475
2026-01-07 01:54:49.80	155.85	0.61	-51.6	-69.5	3.5	3.02e+01	0	31	104	0	60	154342
2026-01-07 01:54:50.81	155.85	0.67	-51.6	-69.5	3.5	3.02e+01	0	31	104	0	60	154521
2026-01-07 01:54:51.82	155.85	0.73	-51.6	-69.4	3.5	3.02e+01	0	31	104	0	60	153993
2026-01-07 01:54:52.83	155.85	0.80	-51.6	-69.5	3.5	3.02e+01	0	31	104	0	60	154105
2026-01-07 01:54:53.84	155.86	0.86	-51.6	-69.4	3.5	3.02e+01	0	31	104	0	60	154025
2026-01-07 01:54:54.85	155.86	0.93	-51.6	-69.4	3.5	3.02e+01	0	31	104	0	60	153630
2026-01-07 01:54:55.86	155.86	0.99	-51.6	-69.5	3.5	3.02e+01	0	31	104	0	60	154393
2026-01-07 01:54:56.88	155.86	1.06	-51.6	-69.4	3.5	3.02e+01	0	31	104	0	60	153637
2026-01-07 01:54:57.89	155.86	1.12	-51.6	-69.5	3.5	3.02e+01	0	31	104	0	60	154673
2026-01-07 01:54:58.90	155.86	1.19	-51.6	-69.5	3.5	3.02e+01	0	31	104	0	60	154295
2026-01-07 01:54:59.91	155.87	1.25	-51.6	-69.4	3.5	3.02e+01	0	31	104	0	60	153576
2026-01-07 01:55:00.92	155.87	1.32	-51.6	-69.4	3.5	3.02e+01	0	31	104	0	60	154072
2026-01-07 01:55:01.93	155.87	1.38	-51.6	-69.4	3.5	3.02e+01	0	31	104	0	60	153852
2026-01-07 01:55:02.94	155.87	1.45	-51.6	-69.4	3.5	3.02e+01	0	31	104	0	60	153377
2026-01-07 01:55:03.95	155.87	1.52	-51.6	-69.4	3.5	3.02e+01	0	31	104	0	60	153474
2026-01-07 01:55:04.96	155.87	1.58	-51.6	-69.4	3.5	3.02e+01	0	31	104	0	60	154016
2026-01-07 01:55:05.98	155.87	1.65	-51.6	-69.4	3.5	3.02e+01	0	31	104	0	60	153247
2026-01-07 01:55:06.99	155.88	1.72	-51.6	-69.5	3.5	3.02e+01	0	31	104	0	60	154522
2026-01-07 01:55:08.00	155.88	1.78	-51.6	-69.5	3.5	3.02e+01	0	31	104	0	60	154204
2026-01-07 01:55:09.01	155.88	1.85	-51.6	-69.4	3.5	3.02e+01	0	31	104	0	60	153639
2026-01-07 01:55:10.02	155.88	1.92	-51.6	-69.5	3.5	3.02e+01	0	31	104	0	60	154209
2026-01-07 01:55:11.03	155.88	1.98	-51.6	-69.5	3.5	3.02e+01	0	31	104	0	60	154292
2026-01-07 01:55:12.04	155.88	2.05	-51.6	-69.5	3.5	3.02e+01	0	31	104	0	60	154164
2026-01-07 01:55:13.05	155.88	2.12	-51.6	-69.4	3.5	3.02e+01	0	31	104	0	60	153480
2026-01-07 01:55:14.06	155.89	2.19	-51.6	-69.4	3.5	3.02e+01	0	31	104	0	60	153239
2026-01-07 01:55:15.08	155.89	2.25	-51.6	-69.5	3.5	3.02e+01	0	31	104	0	60	154158
2026-01-07 01:55:16.09	155.89	2.32	-51.6	-69.4	3.5	3.02e+01	0	31	104	0	60	153885
2026-01-07 01:55:17.10	155.89	2.39	-51.6	-69.5	3.5	3.02e+01	0	31	104	0	60	154530
2026-01-07 01:55:18.11	155.89	2.46	-51.6	-69.5	3.5	3.02e+01	0	31	104	0	60	154167
2026-01-07 01:55:19.12	155.89	2.53	-51.6	-69.4	3.5	3.02e+01	0	31	104	0	60	153506
2026-01-07 01:55:20.13	155.89	2.60	-51.6	-69.4	3.5	3.02e+01	0	31	104	0	60	153264
2026-01-07 01:55:21.14	155.90	2.67	-51.6	-69.5	3.5	3.02e+01	0	31	104	0	60	154729
2026-01-07 01:55:22.15	155.90	2.73	-51.6	-69.4	3.5	3.02e+01	0	31	104	0	60	152913
2026-01-07 01:55:23.16	155.90	2.80	-51.6	-69.4	3.5	3.02e+01	0	31	104	0	60	153648
2026-01-07 01:55:24.17	155.90	2.87	-51.6	-69.5	3.5	3.02e+01	0	31	104	0	60	154159
2026-01-07 01:55:25.18	155.90	2.94	-51.6	-69.4	3.5	3.02e+01	0	31	104	0	60	153772
2026-01-07 01:55:26.20	155.90	3.01	-51.6	-69.4	3.5	3.02e+01	0	31	104	0	60	153783
2026-01-07 01:55:27.21	155.90	3.08	-51.6	-69.4	3.5	3.02e+01	0	31	104	0	60	153890
2026-01-07 01:55:28.22	155.91	3.15	-51.6	-69.4	3.5	3.02e+01	0	31	104	0	60	153403
2026-01-07 01:55:29.23	155.91	3.22	-51.6	-69.4	3.5	3.02e+01	0	31	104	0	60	153563
2026-01-07 01:55:30.24	155.91	3.30	-51.6	-69.4	3.5	3.02e+01	0	31	104	0	60	154009
2026-01-07 01:55:31.25	155.91	3.37	-51.6	-69.5	3.5	3.02e+01	0	31	104	0	60	154643
2026-01-07 01:55:32.26	155.91	3.44	-51.6	-69.4	3.5	3.02e+01	0	31	104	0	60	153699
2026-01-07 01:55:33.27	155.91	3.51	-51.6	-69.4	3.5	3.02e+01	0	31	104	0	60	153168
2026-01-07 01:55:34.28	155.91	3.58	-51.6	-69.5	3.5	3.02e+01	0	31	104	0	60	154216
2026-01-07 01:55:35.29	155.91	3.65	-51.6	-69.4	3.5	3.02e+01	0	31	104	0	60	153820
2026-01-07 01:55:36.30	155.92	3.72	-51.6	-69.5	3.5	3.02e+01	0	31	104	0	60	154685
2026-01-07 01:55:37.31	155.92	3.80	-51.6	-69.5	3.5	3.02e+01	0	31	104	0	60	155549
2026-01-07 01:55:38.33	155.92	3.87	-51.8	-69.5	3.5	3.02e+01	0	31	104	0	60	155717
2026-01-07 01:55:39.34	155.92	3.94	-51.8	-69.6	3.5	3.02e+01	0	31	104	0	60	157176
2026-01-07 01:55:40.35	155.92	4.02	-51.8	-69.6	3.5	3.02e+01	0	31	104	0	60	157601
2026-01-07 01:55:41.36	155.92	4.09	-51.8	-69.6	3.5	3.02e+01	0	31	104	0	60	157124
2026-01-07 01:55:42.37	155.92	4.16	-51.9	-69.7	3.5	3.02e+01	0	31	104	0	60	158981
2026-01-07 01:55:43.38	155.92	4.24	-51.9	-69.8	3.5	3.02e+01	0	31	104	0	60	159761
2026-01-07 01:55:44.39	155.93	4.31	-51.8	-69.6	3.5	3.02e+01	0	31	104	0	60	157373
2026-01-07 01:55:45.40	155.93	4.38	-51.8	-69.6	3.5	3.02e+01	0	31	104	0	60	156604
2026-01-07 01:55:46.41	155.93	4.46	-51.7	-69.5	3.5	3.02e+01	0	31	104	0	60	155583
2026-01-07 01:55:47.42	155.93	4.53	-51.5	-69.4	3.5	3.02e+01	0	31	104	0	60	153118
2026-01-07 01:55:48.43	155.93	4.61	-51.4	-69.2	3.5	3.02e+01	0	31	104	0	60	150422
2026-01-07 01:55:49.45	155.93	4.68	-51.1	-69.0	3.5	3.02e+01	0	31	104	0	60	145483
2026-01-07 01:55:50.46	155.93	4.76	-50.3	-68.1	3.5	3.02e+01	0	31	104	0	60	132325
2026-01-07 01:55:51.46	155.93	4.83	-49.9	-67.7	3.6	3.02e+01	0	31	104	0	60	125309
2026-01-07 01:55:52.48	155.93	4.91	-49.8	-67.4	3.5	3.02e+01	0	31	104	0	60	122039
2026-01-07 01:55:53.49	155.94	4.98	-49.8	-67.6	3.5	3.02e+01	0	31	104	0	60	124061
2026-01-07 01:55:54.50	155.94	5.06	-49.8	-67.7	3.5	3.02e+01	0	31	104	0	60	125921
2026-01-07 01:55:55.51	155.94	5.14	-49.8	-67.7	3.5	3.02e+01	0	31	104	0	60	125653
2026-01-07 01:55:56.52	155.94	5.21	-49.8	-67.5	3.5	3.02e+01	0	31	104	0	60	123032
2026-01-07 01:55:57.53	155.94	5.29	-49.8	-67.7	3.5	3.02e+01	0	32	104	0	60	125752
2026-01-07 01:55:58.54	155.94	5.37	-49.8	-67.7	3.5	3.02e+01	0	31	104	0	60	125461
2026-01-07 01:55:59.55	155.94	5.44	-49.8	-67.6	3.5	3.02e+01	0	32	104	0	60	124819
2026-01-07 01:56:00.56	155.94	5.52	-49.8	-67.4	3.5	3.02e+01	0	32	104	0	60	121217
2026-01-07 01:56:01.57	155.94	5.60	-49.8	-67.2	3.5	3.02e+01	0	31	104	0	60	118526
2026-01-07 01:56:02.58	155.94	5.68	-49.8	-66.7	3.5	3.02e+01	0	32	104	0	60	112107
2026-01-07 01:56:03.59	155.95	5.76	-49.8	-66.3	3.5	3.02e+01	0	32	104	0	60	106915
2026-01-07 01:56:04.61	155.95	5.84	-49.8	-66.7	3.5	3.02e+01	0	32	104	0	60	112719
2026-01-07 01:56:05.62	155.95	5.91	-49.8	-66.9	3.5	3.02e+01	0	31	104	0	60	114747
2026-01-07 01:56:06.63	155.95	5.99	-49.8	-67.6	3.5	3.02e+01	0	32	104	0	60	124708
2026-01-07 01:56:07.64	155.95	6.07	-49.8	-67.5	3.5	3.02e+01	0	32	104	0	60	122910
2026-01-07 01:56:08.65	155.95	6.15	-49.8	-67.4	3.5	3.02e+01	0	32	104	0	60	121135
2026-01-07 01:56:09.66	155.95	6.23	-49.8	-67.3	3.5	3.02e+01	0	32	104	0	60	119708
2026-01-07 01:56:10.67	155.95	6.31	-49.8	-67.5	3.5	3.02e+01	0	32	104	0	60	122767
2026-01-07 01:56:11.68	155.95	6.39	-49.8	-67.6	3.5	3.02e+01	0	32	104	0	60	124195
2026-01-07 01:56:12.69	155.95	6.47	-49.8	-67.0	3.5	3.02e+01	0	32	104	0	60	116157
2026-01-07 01:56:13.71	155.95	6.56	-49.7	-65.9	3.5	3.02e+01	0	32	104	0	60	102164
2026-01-07 01:56:14.72	155.95	6.64	-49.7	-65.4	3.6	3.02e+01	0	32	104	0	60	96961
2026-01-07 01:56:15.73	155.96	6.72	-49.7	-65.7	3.5	3.02e+01	0	32	104	0	60	100449
2026-01-07 01:56:16.74	155.96	6.80	-49.8	-66.6	3.5	3.02e+01	0	32	104	0	60	110710
2026-01-07 01:56:17.75	155.96	6.88	-49.8	-67.1	3.5	3.02e+01	0	32	104	0	60	117874
2026-01-07 01:56:18.76	155.96	6.97	-49.8	-67.3	3.5	3.02e+01	0	32	104	0	60	119636
2026-01-07 01:56:19.77	155.96	7.05	-49.8	-66.5	3.5	3.02e+01	0	32	104	0	60	110226
2026-01-07 01:56:20.78	155.96	7.13	-49.8	-66.4	3.5	3.02e+01	0	32	104	0	60	108883
2026-01-07 01:56:21.79	155.96	7.21	-49.8	-67.1	3.5	3.02e+01	0	32	104	0	60	118027
2026-01-07 01:56:22.80	155.96	7.30	-49.8	-66.6	3.5	3.02e+01	0	32	104	0	60	110849
2026-01-07 01:56:23.82	155.96	7.38	-49.7	-64.4	3.6	3.02e+01	0	32	104	0	60	85728
2026-01-07 01:56:24.83	155.96	7.47	-49.5	-61.7	6.2	3.02e+01	86	32	104	0	60	63314
2026-01-07 01:56:25.84	155.96	7.55	-49.1	-57.3	9.0	3.02e+01	90	32	102	524288	60	38226
2026-01-07 01:56:26.85	155.96	7.64	-48.6	-55.1	11.8	3.02e+01	90	32	102	524288	60	29439
2026-01-07 01:56:27.86	155.96	7.72	-47.9	-53.1	13.9	3.02e+01	92	32	102	524288	60	23348
2026-01-07 01:56:28.87	155.96	7.81	-47.2	-51.6	15.4	3.02e+01	89	32	102	524288	60	19724
2026-01-07 01:56:29.88	155.96	7.89	-46.6	-50.4	16.8	3.02e+01	90	32	102	524288	60	17133
2026-01-07 01:56:30.89	155.97	7.98	-46.0	-49.3	17.5	3.02e+01	90	32	102	524288	60	15085
2026-01-07 01:56:31.90	155.97	8.07	-45.8	-49.0	18.5	3.02e+01	92	32	102	524288	60	14582
2026-01-07 01:56:32.91	155.97	8.15	-45.7	-48.8	18.5	3.02e+01	90	32	102	524288	60	14229
2026-01-07 01:56:33.92	155.97	8.24	-45.7	-48.8	18.3	3.02e+01	91	32	102	524288	60	14299
2026-01-07 01:56:34.93	155.97	8.33	-46.1	-49.4	17.7	3.02e+01	92	32	102	524288	60	15365
2026-01-07 01:56:35.94	155.97	8.42	-49.7	-66.9	3.5	3.02e+01	0	32	104	524288	60	114673
2026-01-07 01:56:36.95	155.97	8.51	-42.0	-44.0	21.6	3.02e+01	92	32	104	524288	60	8254
2026-01-07 01:56:37.96	155.97	8.59	-49.6	-66.5	3.5	3.02e+01	0	32	104	524288	60	109828
2026-01-07 01:56:38.97	155.97	8.68	-47.3	-51.7	14.7	3.02e+01	0	32	104	524288	60	19876
2026-01-07 01:56:39.98	155.97	8.77	-49.7	-64.5	3.6	3.02e+01	0	32	104	524288	60	87635
2026-01-07 01:56:41.00	155.97	8.86	-44.1	-46.6	20.9	3.02e+01	91	32	0	524288	60	11051
2026-01-07 01:56:42.01	155.97	8.95	-42.8	-44.8	22.6	3.02e+01	90	32	0	524288	60	9002
2026-01-07 01:56:43.02	155.97	9.04	-41.8	-43.4	23.8	3.02e+01	88	32	0	524288	60	7721
2026-01-07 01:56:44.03	155.97	9.13	-41.6	-43.3	24.1	3.02e+01	90	32	0	524288	60	7590
2026-01-07 01:56:45.04	155.97	9.23	-41.5	-43.1	24.2	3.02e+01	92	32	0	524288	60	7456
2026-01-07 01:56:46.05	155.97	9.32	-41.5	-43.1	24.0	3.02e+01	92	32	0	524288	60	7460
2026-01-07 01:56:47.06	155.97	9.41	-41.5	-43.2	24.2	3.02e+01	92	32	0	524288	60	7492
2026-01-07 01:56:48.07	155.97	9.50	-41.4	-43.1	24.3	3.02e+01	91	32	0	524288	60	7422
2026-01-07 01:56:49.08	155.97	9.59	-41.5	-43.1	24.2	3.02e+01	92	32	0	524288	60	7441
2026-01-07 01:56:50.09	155.97	9.69	-41.5	-43.1	24.2	3.02e+01	90	32	101	524288	60	7439
2026-01-07 01:56:51.10	155.97	9.78	-41.3	-42.9	24.5	3.02e+01	92	32	101	524288	60	7251
2026-01-07 01:56:52.11	155.97	9.87	-41.2	-42.8	24.6	3.02e+01	92	32	101	524288	60	7181
2026-01-07 01:56:53.12	155.97	9.97	-41.3	-42.9	24.4	3.02e+01	92	32	101	524288	60	7280
2026-01-07 01:56:54.13	155.97	10.06	-41.2	-42.8	24.8	3.02e+01	90	32	101	524288	60	7128
2026-01-07 01:56:55.14	155.97	10.16	-41.3	-42.9	24.7	3.02e+01	92	32	101	524288	60	7210
2026-01-07 01:56:56.16	155.97	10.25	-41.1	-42.6	24.9	3.02e+01	92	32	101	524288	60	7024
2026-01-07 01:56:57.17	155.97	10.35	-40.9	-42.5	25.1	3.02e+01	92	32	101	524288	60	6916
2026-01-07 01:56:58.18	155.97	10.45	-41.0	-42.6	24.9	3.02e+01	90	32	101	524288	60	6985
2026-01-07 01:56:59.19	155.97	10.54	-40.9	-42.5	25.0	3.02e+01	92	32	101	524288	60	6909
2026-01-07 01:57:00.20	155.97	10.64	-40.8	-42.3	25.2	3.02e+01	90	32	101	524288	60	6784
2026-01-07 01:57:01.21	155.97	10.74	-40.7	-42.2	25.3	3.02e+01	92	32	101	524288	60	6675
2026-01-07 01:57:02.22	155.97	10.84	-40.7	-42.2	25.3	3.02e+01	86	32	101	524288	60	6722
2026-01-07 01:57:03.23	155.97	10.94	-40.6	-42.1	25.5	3.02e+01	92	32	101	524288	60	6592
2026-01-07 01:57:04.24	155.97	11.03	-40.6	-42.1	25.5	3.02e+01	90	32	101	524288	60	6595
2026-01-07 01:57:05.25	155.97	11.13	-40.6	-42.1	25.6	3.02e+01	92	32	101	524288	60	6609
2026-01-07 01:57:06.26	155.97	11.23	-40.5	-41.9	25.6	3.02e+01	92	32	101	524288	60	6478
2026-01-07 01:57:07.27	155.97	11.33	-40.6	-42.1	25.6	3.02e+01	92	32	101	524288	60	6578
2026-01-07 01:57:08.28	155.97	11.43	-40.4	-41.9	25.8	3.02e+01	92	32	101	524288	60	6430
2026-01-07 01:57:09.29	155.97	11.54	-40.2	-41.7	25.9	3.02e+01	92	32	101	524288	60	6291
2026-01-07 01:57:10.31	155.97	11.64	-40.5	-41.9	25.6	3.02e+01	90	32	101	524288	60	6484
2026-01-07 01:57:11.31	155.97	11.74	-40.1	-41.6	26.1	3.02e+01	92	32	101	524288	60	6209
2026-01-07 01:57:12.33	155.97	11.84	-40.1	-41.5	26.0	3.02e+01	90	32	101	524288	60	6195
2026-01-07 01:57:13.34	155.97	11.95	-40.2	-41.6	25.9	3.02e+01	92	32	101	524288	60	6276
2026-01-07 01:57:14.35	155.97	12.05	-40.3	-41.7	25.9	3.02e+01	92	32	101	524288	60	6311
2026-01-07 01:57:15.36	155.97	12.15	-40.5	-41.9	25.8	3.02e+01	92	32	101	524288	60	6478
2026-01-07 01:57:16.37	155.97	12.26	-39.8	-41.2	26.4	3.02e+01	90	32	101	524288	60	5980
2026-01-07 01:57:17.38	155.97	12.36	-39.8	-41.1	26.5	3.02e+01	92	32	101	524288	60	5919
2026-01-07 01:57:18.39	155.97	12.47	-39.7	-41.1	26.5	3.02e+01	90	32	101	524288	60	5909
2026-01-07 01:57:19.40	155.97	12.57	-39.7	-41.1	26.6	3.02e+01	91	32	101	524288	60	5883
2026-01-07 01:57:20.41	155.97	12.68	-39.8	-41.2	26.5	3.02e+01	92	32	101	524288	60	5945
2026-01-07 01:57:21.42	155.96	12.79	-39.8	-41.2	26.4	3.02e+01	92	32	101	524288	60	5964
2026-01-07 01:57:22.43	155.96	12.90	-39.7	-41.1	26.6	3.02e+01	92	32	101	524288	60	5902
2026-01-07 01:57:23.44	155.96	13.00	-39.7	-41.1	26.7	3.02e+01	92	32	101	524288	60	5893
2026-01-07 01:57:24.46	155.96	13.11	-39.6	-40.9	26.8	3.02e+01	92	32	101	524288	60	5782
2026-01-07 01:57:25.47	155.96	13.22	-39.5	-40.9	26.8	3.02e+01	92	32	101	524288	60	5736
2026-01-07 01:57:26.48	155.96	13.33	-39.5	-40.9	26.8	3.02e+01	91	32	101	524288	60	5727
2026-01-07 01:57:27.49	155.96	13.44	-39.5	-40.8	26.9	3.02e+01	91	32	101	524288	60	5708
2026-01-07 01:57:28.50	155.96	13.55	-39.4	-40.7	27.0	3.02e+01	91	32	101	524288	60	5646
2026-01-07 01:57:29.51	155.96	13.67	-39.3	-40.7	27.0	3.02e+01	91	32	101	524288	58	6310
2026-01-07 01:57:30.52	155.96	13.78	-39.2	-40.6	27.1	3.02e+01	90	32	101	524288	58	6212
2026-01-07 01:57:31.53	155.96	13.89	-39.3	-40.6	27.1	3.02e+01	92	32	101	524288	58	6234
2026-01-07 01:57:32.54	155.96	14.00	-39.4	-40.7	26.9	3.02e+01	92	32	101	524288	58	6331
2026-01-07 01:57:33.55	155.95	14.12	-39.3	-40.7	27.0	3.02e+01	92	32	101	524288	58	6282
2026-01-07 01:57:34.56	155.95	14.23	-39.2	-40.6	27.1	3.02e+01	90	32	101	524288	58	6227
2026-01-07 01:57:35.57	155.95	14.35	-39.4	-40.8	26.9	3.02e+01	92	32	101	524288	58	6381
2026-01-07 01:57:36.58	155.95	14.46	-39.2	-40.5	27.2	3.02e+01	92	32	101	524288	58	6165
2026-01-07 01:57:37.59	155.95	14.58	-39.2	-40.5	27.2	3.02e+01	90	32	101	524288	58	6169
2026-01-07 01:57:38.61	155.95	14.70	-39.1	-40.5	27.2	3.02e+01	92	32	101	524288	58	6136
2026-01-07 01:57:39.61	155.95	14.81	-39.2	-40.5	27.2	3.02e+01	92	32	101	524288	58	6181
2026-01-07 01:57:40.63	155.95	14.93	-39.1	-40.4	27.3	3.02e+01	91	32	101	524288	58	6082
2026-01-07 01:57:41.64	155.94	15.05	-39.2	-40.6	27.1	3.02e+01	90	32	101	524288	58	6223
2026-01-07 01:57:42.65	155.94	15.17	-39.3	-40.6	27.1	3.02e+01	92	32	101	524288	58	6232
2026-01-07 01:57:43.66	155.94	15.29	-39.1	-40.4	27.3	3.02e+01	91	32	101	524288	58	6105
2026-01-07 01:57:44.67	155.94	15.41	-39.1	-40.4	27.4	3.02e+01	92	32	101	524288	58	6088
2026-01-07 01:57:45.68	155.94	15.53	-38.9	-40.2	27.5	3.02e+01	92	32	101	524288	58	5968
2026-01-07 01:57:46.69	155.94	15.65	-38.9	-40.2	27.6	3.02e+01	92	32	101	524288	58	5956
2026-01-07 01:57:47.70	155.94	15.78	-38.8	-40.1	27.6	3.02e+01	90	32	101	524288	58	5894
2026-01-07 01:57:48.71	155.93	15.90	-38.9	-40.2	27.6	3.02e+01	92	32	101	524288	58	5969
2026-01-07 01:57:49.72	155.93	16.02	-38.8	-40.1	27.7	3.02e+01	90	32	101	524288	58	5897
2026-01-07 01:57:50.73	155.93	16.15	-38.7	-40.1	27.7	3.02e+01	92	32	101	524288	58	5865
2026-01-07 01:57:51.75	155.93	16.28	-38.7	-40.0	27.7	3.02e+01	92	32	101	524288	58	5847
2026-01-07 01:57:52.76	155.93	16.40	-38.7	-40.0	27.8	3.02e+01	92	32	101	524288	58	5827
2026-01-07 01:57:53.77	155.92	16.53	-38.6	-39.9	27.9	3.02e+01	92	32	101	524288	58	5746
2026-01-07 01:57:54.78	155.92	16.66	-38.7	-40.0	27.9	3.02e+01	92	32	101	524288	58	5799
2026-01-07 01:57:55.79	155.92	16.78	-38.6	-39.8	27.9	3.02e+01	92	32	101	524288	58	5718
2026-01-07 01:57:56.80	155.92	16.91	-38.5	-39.8	28.1	3.02e+01	92	32	101	524288	58	5673
2026-01-07 01:57:57.81	155.92	17.04	-38.5	-39.8	28.1	3.02e+01	90	32	101	524288	58	5668
2026-01-07 01:57:58.82	155.91	17.17	-38.4	-39.7	28.1	3.02e+01	92	32	101	524288	58	5629
2026-01-07 01:57:59.83	155.91	17.31	-38.6	-39.9	28.0	3.02e+01	87	32	101	524288	56	6445
2026-01-07 01:58:00.84	155.91	17.44	-38.3	-39.6	28.3	3.02e+01	92	32	101	524288	56	6253
2026-01-07 01:58:01.85	155.91	17.57	-38.5	-39.8	28.2	3.02e+01	92	32	101	524288	56	6385
2026-01-07 01:58:02.86	155.91	17.70	-38.5	-39.8	28.2	3.02e+01	91	32	101	524288	56	6354
2026-01-07 01:58:03.87	155.90	17.84	-38.3	-39.6	28.3	3.02e+01	92	32	101	524288	56	6225
2026-01-07 01:58:04.88	155.90	17.97	-38.2	-39.5	28.4	3.02e+01	90	32	101	524288	56	6146
2026-01-07 01:58:05.89	155.90	18.11	-38.3	-39.5	28.4	3.02e+01	92	32	101	524288	56	6202
2026-01-07 01:58:06.90	155.90	18.25	-38.2	-39.4	28.4	3.02e+01	90	32	101	524288	56	6134
2026-01-07 01:58:07.92	155.89	18.39	-38.1	-39.4	28.5	3.02e+01	91	32	101	524288	56	6074
2026-01-07 01:58:08.93	155.89	18.53	-38.1	-39.4	28.5	3.02e+01	91	32	101	524288	56	6091
2026-01-07 01:58:09.94	155.89	18.67	-38.0	-39.2	28.6	3.02e+01	91	32	101	524288	56	5985
2026-01-07 01:58:10.95	155.89	18.81	-38.1	-39.3	28.5	3.02e+01	90	32	101	524288	56	6055
2026-01-07 01:58:11.96	155.88	18.95	-38.0	-39.3	28.7	3.02e+01	92	32	101	524288	56	6005
2026-01-07 01:58:12.97	155.88	19.09	-38.0	-39.2	28.7	3.02e+01	92	32	101	524288	56	5965
2026-01-07 01:58:13.98	155.88	19.23	-38.0	-39.3	28.7	3.02e+01	91	32	101	524288	56	6011
2026-01-07 01:58:14.99	155.87	19.38	-38.0	-39.2	28.6	3.02e+01	90	32	101	524288	56	5977
2026-01-07 01:58:16.00	155.87	19.52	-37.9	-39.1	28.8	3.02e+01	89	32	101	524288	56	5896
2026-01-07 01:58:17.01	155.87	19.67	-37.8	-39.0	28.8	3.02e+01	90	32	101	524288	56	5846
2026-01-07 01:58:18.02	155.86	19.82	-37.8	-39.0	28.8	3.02e+01	92	32	101	524288	56	5826
2026-01-07 01:58:19.03	155.86	19.96	-37.9	-39.1	28.8	3.02e+01	92	32	101	524288	56	5912
2026-01-07 01:58:20.04	155.86	20.11	-37.9	-39.1	28.8	3.02e+01	91	32	101	524288	56	5918
2026-01-07 01:58:21.05	155.85	20.26	-37.8	-39.0	28.9	3.02e+01	92	32	101	524288	56	5837
2026-01-07 01:58:22.06	155.85	20.41	-37.7	-39.0	29.0	3.02e+01	92	32	101	524288	56	5800
2026-01-07 01:58:23.06	155.85	20.56	-37.8	-39.0	29.0	3.02e+01	92	32	101	524288	56	5815
2026-01-07 01:58:24.07	155.84	20.72	-37.7	-38.9	29.0	3.02e+01	91	32	101	524288	56	5778
2026-01-07 01:58:25.08	155.84	20.87	-37.6	-38.9	29.0	3.02e+01	90	32	101	524288	56	5729
2026-01-07 01:58:26.09	155.84	21.02	-37.7	-38.9	29.1	3.02e+01	92	32	101	524288	56	5759
2026-01-07 01:58:27.10	155.83	21.18	-37.6	-38.8	29.1	3.02e+01	91	32	101	524288	56	5679
2026-01-07 01:58:28.11	155.83	21.34	-37.7	-38.9	29.0	3.02e+01	90	32	101	524288	56	5764
2026-01-07 01:58:29.12	155.82	21.50	-37.6	-38.8	29.1	3.02e+01	92	32	101	524288	56	5708
2026-01-07 01:58:30.13	155.82	21.65	-37.7	-38.9	29.0	3.02e+01	91	32	101	524288	56	5762
2026-01-07 01:58:31.13	155.82	21.81	-37.7	-38.9	29.0	3.02e+01	90	32	101	524288	56	5759
2026-01-07 01:58:32.14	155.81	21.97	-37.7	-38.9	29.0	3.02e+01	91	32	101	524288	56	5775
2026-01-07 01:58:33.15	155.81	22.14	-37.7	-39.0	28.9	3.02e+01	92	32	101	524288	56	5792
2026-01-07 01:58:34.16	155.80	22.30	-37.6	-38.9	29.1	3.02e+01	92	32	101	524288	56	5741
2026-01-07 01:58:35.17	155.80	22.47	-37.8	-39.0	28.9	3.02e+01	92	32	101	524288	56	5830
2026-01-07 01:58:36.19	155.79	22.63	-37.7	-38.9	29.0	3.02e+01	92	32	101	524288	56	5750
2026-01-07 01:58:37.19	155.79	22.80	-37.7	-39.0	29.0	3.02e+01	92	32	101	524288	56	5802
2026-01-07 01:58:38.20	155.78	22.97	-37.9	-39.1	28.8	3.02e+01	86	32	101	524288	56	5881
2026-01-07 01:58:39.21	155.78	23.14	-37.7	-39.0	28.9	3.02e+01	90	32	101	524288	56	5802
2026-01-07 01:58:40.22	155.77	23.31	-37.7	-39.0	28.9	3.02e+01	92	32	101	524288	56	5795
2026-01-07 01:58:41.23	155.77	23.48	-37.9	-39.1	28.8	3.02e+01	92	32	101	524288	56	5902
2026-01-07 01:58:42.24	155.76	23.65	-37.7	-38.9	28.9	3.02e+01	92	32	101	524288	56	5773
2026-01-07 01:58:43.25	155.76	23.83	-37.7	-39.0	29.0	3.02e+01	92	32	101	524288	56	5801
2026-01-07 01:58:44.26	155.75	24.00	-37.7	-38.9	29.0	3.02e+01	93	32	101	524288	56	5774
2026-01-07 01:58:45.27	155.75	24.18	-37.6	-38.9	28.9	3.02e+01	90	32	101	524288	56	5735
2026-01-07 01:58:46.28	155.74	24.36	-37.5	-38.7	29.2	3.02e+01	92	32	101	524288	56	5637
2026-01-07 01:58:47.28	155.74	24.53	-37.6	-38.8	29.1	3.02e+01	92	32	101	524288	56	5678
2026-01-07 01:58:48.29	155.73	24.72	-37.5	-38.8	29.1	3.02e+01	92	32	101	524288	56	5662
2026-01-07 01:58:49.30	155.72	24.90	-37.5	-38.7	29.2	3.02e+01	92	32	101	524288	56	5624
2026-01-07 01:58:50.31	155.72	25.08	-37.4	-38.6	29.2	3.02e+01	92	32	101	524288	56	5582
2026-01-07 01:58:51.32	155.71	25.27	-37.4	-38.6	29.4	3.02e+01	92	32	101	524288	56	5558
2026-01-07 01:58:52.33	155.71	25.45	-37.3	-38.5	29.3	3.02e+01	92	32	101	524288	54	6158
2026-01-07 01:58:53.34	155.70	25.64	-37.3	-38.5	29.3	3.02e+01	92	32	101	524288	54	6202
2026-01-07 01:58:54.35	155.69	25.83	-37.8	-48.0	3.4	3.02e+01	0	32	104	524288	54	18363
2026-01-07 01:58:55.36	155.69	26.02	-37.7	-47.9	3.4	3.02e+01	0	32	104	524288	54	18109
2026-01-07 01:58:56.37	155.68	26.21	-37.8	-48.0	3.6	3.02e+01	0	32	104	524288	54	18462
2026-01-07 01:58:57.38	155.67	26.41	-37.8	-47.9	3.6	3.02e+01	0	32	104	524288	54	18254
2026-01-07 01:58:58.39	155.67	26.60	-37.9	-48.0	3.6	3.02e+01	0	32	104	524288	54	18328
2026-01-07 01:58:59.40	155.66	26.80	-38.4	-48.5	3.6	3.02e+01	0	32	104	524288	56	17443
2026-01-07 01:59:00.41	155.65	27.00	-50.4	-65.9	3.5	3.02e+01	0	32	104	524288	60	102983
2026-01-07 01:59:01.42	155.64	27.20	-42.7	-53.3	3.5	3.02e+01	0	32	104	524288	60	24059
2026-01-07 01:59:02.43	155.64	27.40	-44.7	-55.7	3.5	3.02e+01	0	32	104	524288	60	31477
2026-01-07 01:59:03.44	155.63	27.60	-41.0	-51.4	3.6	3.02e+01	0	32	104	524288	60	19210
2026-01-07 01:59:04.45	155.62	27.81	-39.7	-49.9	3.6	3.02e+01	0	32	104	524288	60	16281
2026-01-07 01:59:05.46	155.61	28.01	-39.0	-49.3	3.6	3.02e+01	0	32	104	524288	58	16911
2026-01-07 01:59:06.46	155.60	28.22	-37.9	-48.1	3.4	3.02e+01	0	32	104	524288	58	14876
2026-01-07 01:59:07.47	155.60	28.43	-39.7	-50.0	3.6	3.02e+01	0	32	104	524288	56	20617
2026-01-07 01:59:08.48	155.59	28.64	-39.5	-49.7	3.6	3.02e+01	0	32	104	524288	60	15930
2026-01-07 01:59:09.49	155.58	28.85	-48.0	-60.3	3.4	3.02e+01	0	32	104	524288	60	53867
2026-01-07 01:59:10.50	155.57	29.07	-41.0	-51.3	3.4	3.02e+01	0	32	104	524288	60	19120
2026-01-07 01:59:11.51	155.56	29.29	-47.7	-59.7	3.4	3.02e+01	0	32	104	524288	60	49881
2026-01-07 01:59:12.52	155.55	29.50	-40.2	-50.5	4.1	3.02e+01	0	32	104	524288	60	17293
2026-01-07 01:59:13.53	155.54	29.72	-38.6	-48.7	4.1	3.02e+01	0	32	104	524288	58	15870
2026-01-07 01:59:14.54	155.53	29.95	-37.6	-47.7	4.1	3.02e+01	0	32	104	524288	56	15940
2026-01-07 01:59:15.55	155.52	30.17	-39.5	-49.7	4.1	3.02e+01	0	32	104	524288	56	20051
2026-01-07 01:59:16.56	155.51	30.40	-40.1	-50.4	3.4	3.02e+01	0	32	104	524288	60	17134
2026-01-07 01:59:17.57	155.50	30.62	-42.8	-53.3	3.7	3.02e+01	0	32	104	524288	56	30147
2026-01-07 01:59:18.58	155.49	30.85	-50.1	-64.2	3.4	3.02e+01	0	32	104	524288	60	84281
2026-01-07 01:59:19.59	155.48	31.09	-37.7	-48.0	3.5	3.02e+01	0	32	104	524288	56	16385
2026-01-07 01:59:20.60	155.47	31.32	-40.9	-51.4	3.5	3.02e+01	0	32	104	524288	60	19216
2026-01-07 01:59:21.61	155.46	31.55	-39.0	-49.4	3.5	3.02e+01	0	32	104	524288	58	17137
2026-01-07 01:59:22.62	155.45	31.79	-39.3	-49.6	3.5	3.02e+01	0	32	104	524288	58	17546
2026-01-07 01:59:23.63	155.44	32.03	-39.5	-49.8	3.5	3.02e+01	0	32	104	524288	58	18031
2026-01-07 01:59:24.64	155.43	32.27	-37.8	-48.1	3.5	3.02e+01	0	32	104	524288	56	16544
2026-01-07 01:59:25.65	155.41	32.52	-40.8	-51.2	3.5	3.02e+01	0	32	104	524288	56	23772
2026-01-07 01:59:26.65	155.40	32.76	-44.0	-54.7	3.5	3.02e+01	0	32	104	524288	60	28336
2026-01-07 01:59:27.67	155.39	33.01	-45.2	-56.3	3.5	3.02e+01	0	32	104	524288	60	33962
2026-01-07 01:59:28.68	155.38	33.26	-47.5	-59.2	3.5	3.02e+01	0	32	104	524288	60	47403
2026-01-07 01:59:29.69	155.36	33.52	-44.7	-55.5	3.5	3.02e+01	0	32	104	524288	60	30949
2026-01-07 01:59:30.70	155.35	33.77	-42.9	-53.4	3.5	3.02e+01	0	32	104	524288	60	24378
2026-01-07 01:59:31.70	155.34	34.03	-42.0	-52.5	3.5	3.02e+01	0	32	104	524288	60	21839
2026-01-07 01:59:32.71	155.32	34.28	-40.1	-50.4	3.5	3.02e+01	0	32	104	524288	60	17183
2026-01-07 01:59:33.72	155.31	34.55	-42.6	-53.1	3.5	3.02e+01	0	32	104	524288	60	23571
2026-01-07 01:59:34.73	155.30	34.81	-40.3	-50.7	3.5	3.02e+01	0	32	104	524288	60	17733
2026-01-07 01:59:35.74	155.28	35.08	-49.1	-61.8	3.5	3.02e+01	0	32	104	524288	60	63594
2026-01-07 01:59:36.75	155.27	35.35	-51.4	-69.2	3.5	3.02e+01	0	32	104	524288	60	149795
2026-01-07 01:59:37.76	155.25	35.62	-41.4	-51.8	3.5	3.02e+01	0	32	104	524288	58	22602
2026-01-07 01:59:38.77	155.24	35.89	-40.5	-50.8	3.5	3.02e+01	0	32	104	524288	60	17994
2026-01-07 01:59:39.78	155.22	36.17	-40.0	-50.3	3.5	3.02e+01	0	32	104	524288	60	17078
2026-01-07 01:59:40.79	155.20	36.45	-39.4	-49.7	3.5	3.02e+01	0	32	104	524288	60	15869
2026-01-07 01:59:41.80	155.19	36.73	-38.9	-49.2	3.5	3.02e+01	0	32	104	524288	58	16730
2026-01-07 01:59:42.81	155.17	37.01	-38.6	-48.8	3.5	3.02e+01	0	32	104	524288	56	18070
2026-01-07 01:59:43.82	155.15	37.30	-43.4	-54.1	3.5	3.02e+01	0	32	104	524288	60	26448
2026-01-07 01:59:44.83	155.14	37.59	-51.5	-69.3	3.5	3.02e+01	0	32	104	524288	60	151347
2026-01-07 01:59:45.84	155.12	37.88	-40.4	-50.7	3.5	3.02e+01	0	32	104	524288	60	17882
2026-01-07 01:59:46.85	155.10	38.17	-51.1	-67.3	3.5	3.02e+01	0	32	104	524288	60	120252
2026-01-07 01:59:47.86	155.08	38.47	-39.9	-50.2	3.5	3.02e+01	0	32	104	524288	60	16819
2026-01-07 01:59:48.87	155.06	38.77	-38.8	-49.0	3.5	3.02e+01	0	32	104	524288	58	16348
2026-01-07 01:59:49.88	155.04	39.07	-38.5	-48.7	3.5	3.02e+01	0	32	104	524288	58	15862
2026-01-07 01:59:50.89	155.02	39.38	-38.7	-48.9	3.6	3.02e+01	0	32	104	524288	58	16170
2026-01-07 01:59:51.90	155.00	39.69	-43.2	-53.9	3.5	3.02e+01	0	32	104	524288	60	25587
2026-01-07 01:59:52.91	154.98	40.00	-45.0	-56.0	3.5	3.02e+01	0	32	104	524288	60	32578
2026-01-07 01:59:53.92	154.96	40.31	-51.5	-69.0	3.5	3.02e+01	0	32	104	524288	60	146230
2026-01-07 01:59:54.93	154.94	40.63	-43.9	-54.7	3.5	3.02e+01	0	32	104	524288	60	28049
2026-01-07 01:59:55.93	154.91	40.95	-51.4	-68.8	3.5	3.02e+01	0	32	104	524288	60	143226
2026-01-07 01:59:56.94	154.89	41.27	-42.3	-52.9	3.5	3.02e+01	0	32	104	524288	60	22918
2026-01-07 01:59:57.95	154.87	41.60	-41.8	-52.3	3.5	3.02e+01	0	32	104	524288	60	21320
2026-01-07 01:59:58.96	154.84	41.93	-40.4	-50.8	3.5	3.02e+01	0	32	104	524288	60	18085
2026-01-07 01:59:59.97	154.82	42.26	-38.8	-49.1	3.6	3.02e+01	0	32	104	524288	58	16582
2026-01-07 02:00:00.98	154.79	42.60	-41.4	-51.8	3.5	3.02e+01	0	32	104	524288	60	20097
2026-01-07 02:00:01.99	154.77	42.93	-40.9	-51.2	3.5	3.02e+01	0	32	104	524288	60	18892
2026-01-07 02:00:03.00	154.74	43.28	-51.4	-68.5	3.5	3.02e+01	0	32	104	524288	60	137474
2026-01-07 02:00:04.01	154.71	43.62	-51.4	-68.5	3.5	3.02e+01	0	32	104	524288	60	137471
2026-01-07 02:00:05.02	154.69	43.97	-44.5	-55.4	3.5	3.02e+01	0	32	104	524288	60	30438
2026-01-07 02:00:06.03	154.66	44.32	-39.1	-49.4	3.5	3.02e+01	0	32	104	524288	58	17164
2026-01-07 02:00:07.04	154.63	44.68	-38.4	-48.7	3.5	3.02e+01	0	32	104	524288	58	15828
2026-01-07 02:00:08.05	154.60	45.04	-38.3	-48.6	3.5	3.02e+01	0	32	104	524288	56	17522
2026-01-07 02:00:09.06	154.57	45.40	-37.3	-47.6	3.5	3.02e+01	0	32	104	524288	56	15657
2026-01-07 02:00:10.07	154.53	45.76	-40.1	-50.4	3.5	3.02e+01	0	32	104	524288	60	17189
2026-01-07 02:00:11.08	154.50	46.13	-45.2	-56.3	3.6	3.02e+01	0	32	104	524288	60	34097
2026-01-07 02:00:12.09	154.47	46.50	-51.6	-69.0	3.5	3.02e+01	0	32	104	524288	60	146600
2026-01-07 02:00:13.10	154.43	46.88	-40.3	-50.6	3.5	3.02e+01	0	32	104	524288	60	17596
2026-01-07 02:00:14.11	154.40	47.26	-51.4	-68.4	3.5	3.02e+01	0	32	104	524288	60	136436
2026-01-07 02:00:15.12	154.36	47.64	-38.2	-48.4	3.5	3.02e+01	0	32	104	524288	56	17200
2026-01-07 02:00:16.13	154.32	48.03	-37.9	-48.1	3.5	3.02e+01	0	32	104	524288	56	16550
2026-01-07 02:00:17.14	154.29	48.42	-37.4	-47.6	3.5	3.02e+01	0	32	104	524288	56	15645
2026-01-07 02:00:18.15	154.25	48.81	-37.4	-47.6	3.5	3.02e+01	0	32	104	524288	54	17664
2026-01-07 02:00:19.16	154.21	49.21	-38.7	-48.9	3.5	3.02e+01	0	32	104	524288	58	16272
2026-01-07 02:00:20.16	154.16	49.61	-44.8	-55.8	3.5	3.02e+01	0	32	104	524288	60	31964
2026-01-07 02:00:21.17	154.12	50.01	-51.6	-69.1	3.5	3.02e+01	0	32	104	524288	60	147735
2026-01-07 02:00:22.18	154.08	50.42	-42.0	-52.5	3.5	3.02e+01	0	32	104	524288	60	21807
2026-01-07 02:00:23.19	154.03	50.84	-51.6	-68.9	3.5	3.02e+01	0	32	104	524288	60	145415
2026-01-07 02:00:24.20	153.98	51.25	-41.7	-52.2	3.5	3.02e+01	0	32	104	524288	60	21222
2026-01-07 02:00:25.21	153.94	51.67	-42.3	-52.9	3.5	3.02e+01	0	32	104	524288	60	22934
2026-01-07 02:00:26.22	153.89	52.10	-42.6	-53.1	3.5	3.02e+01	0	32	104	524288	60	23418
2026-01-07 02:00:27.23	153.83	52.52	-43.0	-53.5	3.5	3.02e+01	0	32	104	524288	60	24705
2026-01-07 02:00:28.24	153.78	52.96	-48.8	-61.4	3.5	3.02e+01	0	32	104	524288	60	61243
2026-01-07 02:00:29.24	153.73	53.39	-49.8	-63.6	3.5	3.02e+01	0	32	104	524288	60	78222
2026-01-07 02:00:30.25	153.67	53.83	-45.0	-56.0	3.5	3.02e+01	0	32	104	524288	60	32707
2026-01-07 02:00:31.26	153.61	54.27	-41.2	-51.6	3.5	3.02e+01	0	32	104	524288	60	19815
2026-01-07 02:00:32.27	153.55	54.72	-50.8	-65.9	3.5	3.02e+01	0	32	104	524288	60	102598
2026-01-07 02:00:33.28	153.49	55.17	-43.0	-53.5	3.5	3.02e+01	0	32	104	524288	60	24658
2026-01-07 02:00:34.28	153.42	55.62	-41.6	-52.1	3.5	3.02e+01	0	32	104	524288	60	20851
2026-01-07 02:00:35.29	153.36	56.08	-40.5	-51.0	3.5	3.02e+01	0	32	104	524288	60	18338
2026-01-07 02:00:36.30	153.29	56.54	-39.6	-49.9	3.5	3.02e+01	0	32	104	524288	60	16200
2026-01-07 02:00:37.31	153.22	57.01	-40.5	-50.9	3.5	3.02e+01	0	32	104	524288	60	18120
2026-01-07 02:00:38.32	153.14	57.48	-42.4	-52.9	3.6	3.02e+01	0	32	104	524288	60	23025
2026-01-07 02:00:39.33	153.06	57.96	-48.9	-61.6	3.5	3.02e+01	0	32	104	524288	60	62299
2026-01-07 02:00:40.34	152.98	58.44	-40.8	-51.2	3.5	3.02e+01	0	32	104	524288	60	18946
2026-01-07 02:00:41.35	152.90	58.92	-50.2	-64.1	3.5	3.02e+01	0	32	104	524288	60	83331
2026-01-07 02:00:42.36	152.81	59.41	-40.3	-50.6	3.5	3.02e+01	0	32	104	524288	60	17562
2026-01-07 02:00:43.37	152.72	59.90	-39.7	-50.1	3.5	3.02e+01	0	32	104	524288	60	16517
2026-01-07 02:00:44.38	152.63	60.39	-39.1	-49.4	3.5	3.02e+01	0	32	104	524288	58	17181
2026-01-07 02:00:45.39	152.53	60.89	-39.6	-50.0	3.5	3.02e+01	0	32	104	524288	58	18352
2026-01-07 02:00:46.40	152.43	61.39	-40.0	-50.3	3.5	3.02e+01	0	32	104	524288	60	16992
2026-01-07 02:00:47.41	152.32	61.90	-39.9	-50.3	3.5	3.02e+01	0	32	104	524288	60	16912
2026-01-07 02:00:48.41	152.21	62.41	-50.2	-64.5	3.5	3.02e+01	0	32	104	524288	60	86865
2026-01-07 02:00:49.42	152.10	62.92	-42.3	-52.8	3.5	3.02e+01	0	32	104	524288	60	22613
2026-01-07 02:00:50.43	151.97	63.44	-50.8	-65.9	3.5	3.02e+01	0	32	104	524288	60	101935
2026-01-07 02:00:51.44	151.85	63.96	-45.8	-56.9	3.5	3.02e+01	0	32	104	524288	60	36175
2026-01-07 02:00:52.45	151.71	64.49	-44.2	-55.1	3.5	3.02e+01	0	32	104	524288	60	29457
2026-01-07 02:00:53.46	151.57	65.02	-42.6	-53.2	3.5	3.02e+01	0	32	104	524288	60	23633
2026-01-07 02:00:54.47	151.43	65.55	-40.0	-50.4	3.6	3.02e+01	0	32	104	524288	60	17215
2026-01-07 02:00:55.48	151.27	66.09	-41.7	-52.1	3.5	3.02e+01	0	32	104	524288	58	23402
2026-01-07 02:00:56.49	151.11	66.63	-40.7	-51.1	3.5	3.02e+01	0	32	104	524288	60	18594
2026-01-07 02:00:57.50	150.94	67.17	-47.1	-58.6	3.5	3.02e+01	0	32	104	524288	60	44220
2026-01-07 02:00:58.51	150.76	67.72	-41.2	-51.6	3.5	3.02e+01	0	32	104	524288	60	19625
2026-01-07 02:00:59.52	150.57	68.27	-43.2	-53.9	3.5	3.02e+01	0	32	104	524288	60	25711
2026-01-07 02:01:00.53	150.37	68.82	-39.9	-50.2	3.5	3.02e+01	0	32	104	524288	60	16846
2026-01-07 02:01:01.54	150.16	69.38	-38.7	-48.9	3.6	3.02e+01	0	32	104	524288	58	16301
2026-01-07 02:01:02.55	149.93	69.94	-38.7	-48.9	3.5	3.02e+01	0	32	104	524288	58	16276
2026-01-07 02:01:03.56	149.69	70.50	-41.0	-51.4	3.6	3.02e+01	0	32	104	524288	58	21745
2026-01-07 02:01:04.56	149.44	71.06	-43.5	-54.2	3.5	3.02e+01	0	32	104	524288	60	26587
2026-01-07 02:01:05.57	149.16	71.63	-41.2	-51.6	3.4	3.02e+01	0	32	104	524288	56	24706
2026-01-07 02:01:06.58	148.87	72.21	-51.1	-67.0	3.5	3.02e+01	0	32	104	524288	60	115852
2026-01-07 02:01:07.59	148.56	72.78	-37.6	-47.8	3.5	3.02e+01	0	32	104	524288	56	16030
2026-01-07 02:01:08.60	148.22	73.36	-39.8	-50.1	3.6	3.02e+01	0	32	104	524288	60	16625
2026-01-07 02:01:09.61	147.86	73.94	-39.0	-49.3	3.5	3.02e+01	0	32	104	524288	58	16952
2026-01-07 02:01:10.62	147.47	74.52	-38.3	-48.5	3.5	3.02e+01	0	32	104	524288	56	17465
2026-01-07 02:01:11.63	147.05	75.10	-37.5	-47.6	3.5	3.02e+01	0	32	104	524288	56	15731
2026-01-07 02:01:12.64	146.59	75.69	-43.2	-53.8	3.5	3.02e+01	0	32	104	524288	60	25346
2026-01-07 02:01:13.65	146.09	76.27	-37.9	-48.2	3.5	3.02e+01	0	32	104	524288	54	18751
2026-01-07 02:01:14.66	145.55	76.86	-44.6	-55.4	3.5	3.02e+01	0	32	104	524288	58	34434
2026-01-07 02:01:15.67	144.95	77.45	-48.7	-61.3	3.5	3.02e+01	0	32	104	524288	60	60183
2026-01-07 02:01:16.68	144.29	78.04	-49.8	-63.3	3.5	3.02e+01	0	32	104	524288	60	76035
2026-01-07 02:01:17.69	143.56	78.63	-46.3	-57.7	3.5	3.02e+01	0	32	104	524288	60	39673
2026-01-07 02:01:18.70	142.74	79.22	-43.1	-53.8	3.5	3.02e+01	0	32	104	524288	60	25385
2026-01-07 02:01:19.71	141.84	79.81	-43.0	-53.5	3.5	3.02e+01	0	32	104	524288	60	24600
2026-01-07 02:01:20.72	140.81	80.40	-42.2	-52.8	3.5	3.02e+01	0	32	104	524288	60	22684
2026-01-07 02:01:21.73	139.65	80.99	-47.8	-59.9	3.5	3.02e+01	0	32	104	524288	60	51047
2026-01-07 02:01:22.74	138.32	81.57	-51.5	-68.6	3.5	3.02e+01	0	32	104	524288	60	140035
2026-01-07 02:01:23.75	136.80	82.16	-38.5	-48.9	3.5	3.02e+01	0	32	104	524288	54	20356
2026-01-07 02:01:24.76	135.03	82.73	-43.5	-54.0	3.5	3.02e+01	0	32	104	524288	60	26031
2026-01-07 02:01:25.76	132.97	83.29	-46.0	-57.0	3.5	3.02e+01	0	32	104	524288	60	36881
2026-01-07 02:01:26.77	130.51	83.85	-40.7	-51.1	3.5	3.02e+01	0	32	104	524288	60	18536
2026-01-07 02:01:27.78	127.56	84.40	-39.7	-50.0	3.5	3.02e+01	0	32	104	524288	60	16423
2026-01-07 02:01:28.79	123.97	84.93	-39.1	-49.3	3.5	3.02e+01	0	32	104	524288	58	17049
2026-01-07 02:01:29.80	119.57	85.44	-39.2	-49.5	3.5	3.02e+01	0	32	104	524288	58	17350
2026-01-07 02:01:30.81	114.10	85.91	-38.8	-49.1	3.5	3.02e+01	0	32	104	524288	56	18556
2026-01-07 02:01:31.82	107.27	86.34	-40.8	-51.2	3.5	3.02e+01	0	32	104	524288	58	21166
2026-01-07 02:01:32.83	98.79	86.70	-51.5	-69.0	3.5	3.02e+01	0	32	104	524288	60	145788
2026-01-07 02:01:33.84	88.50	86.98	-46.2	-57.3	3.6	3.02e+01	0	32	104	524288	60	37991
2026-01-07 02:01:34.85	76.62	87.14	-48.8	-61.4	3.5	3.02e+01	0	32	104	524288	60	60712
2026-01-07 02:01:35.86	63.95	87.16	-41.8	-52.2	3.5	3.02e+01	0	32	104	524288	60	21197
2026-01-07 02:01:36.87	51.65	87.05	-40.1	-50.4	3.5	3.02e+01	0	32	104	524288	60	17238
2026-01-07 02:01:37.88	40.69	86.82	-39.5	-49.6	3.5	3.02e+01	0	32	104	524288	60	15762
2026-01-07 02:01:38.89	31.53	86.49	-40.8	-51.3	3.5	3.02e+01	0	32	104	524288	60	19038
2026-01-07 02:01:39.90	24.10	86.08	-45.5	-56.5	3.5	3.02e+01	0	32	104	524288	60	34852
2026-01-07 02:01:40.91	18.15	85.63	-51.1	-67.4	3.5	3.02e+01	0	32	104	524288	60	121538
2026-01-07 02:01:41.92	13.37	85.13	-47.9	-59.8	3.5	3.02e+01	0	32	104	524288	60	50657
2026-01-07 02:01:42.93	9.49	84.61	-51.4	-68.7	3.5	3.02e+01	0	32	104	524288	60	140968
2026-01-07 02:01:43.94	6.32	84.07	-47.1	-58.8	3.5	3.02e+01	0	32	104	524288	60	44970
2026-01-07 02:01:44.95	3.68	83.51	-44.9	-55.9	3.5	3.02e+01	0	32	104	524288	60	32222
2026-01-07 02:01:45.96	1.47	82.95	-45.3	-56.4	3.5	3.02e+01	0	32	104	524288	60	34333
2026-01-07 02:01:46.97	359.59	82.37	-44.9	-55.7	3.5	3.02e+01	0	32	104	524288	60	31717
2026-01-07 02:01:47.98	357.98	81.79	-45.8	-57.0	3.6	3.02e+01	0	32	104	524288	60	36845
2026-01-07 02:01:48.99	356.59	81.21	-45.7	-56.9	3.5	3.02e+01	0	32	104	524288	60	36350
2026-01-07 02:01:50.00	355.37	80.62	-46.7	-58.3	3.5	3.02e+01	0	32	104	524288	60	42556
2026-01-07 02:01:51.01	354.30	80.04	-51.5	-69.1	3.5	3.02e+01	0	32	104	524288	60	148272
2026-01-07 02:01:52.01	353.36	79.45	-50.9	-66.5	3.5	3.02e+01	0	32	104	524288	60	110183
2026-01-07 02:01:53.02	352.51	78.86	-51.6	-69.4	3.5	3.02e+01	0	32	104	524288	60	153191
2026-01-07 02:01:54.03	351.75	78.27	-47.0	-58.4	3.5	3.02e+01	0	32	104	524288	60	43124
2026-01-07 02:01:55.04	351.06	77.68	-46.9	-58.5	3.5	3.02e+01	0	32	104	524288	60	43928
2026-01-07 02:01:56.05	350.44	77.09	-46.6	-58.0	3.5	3.02e+01	0	32	104	524288	60	41172
2026-01-07 02:01:57.06	349.88	76.51	-45.9	-57.2	3.5	3.02e+01	0	32	104	524288	60	37712
2026-01-07 02:01:58.07	349.36	75.92	-51.4	-68.7	3.5	3.02e+01	0	32	104	524288	60	140986
2026-01-07 02:01:59.08	348.89	75.34	-51.4	-68.2	3.6	3.02e+01	0	32	104	524288	60	133800
2026-01-07 02:02:00.09	348.45	74.75	-50.4	-64.9	3.5	3.02e+01	0	32	104	524288	60	91734
2026-01-07 02:02:01.10	348.05	74.17	-51.6	-69.4	3.5	3.02e+01	0	32	104	524288	60	152816
2026-01-07 02:02:02.11	347.68	73.59	-48.8	-61.5	3.5	3.02e+01	0	32	104	524288	60	61510
2026-01-07 02:02:03.12	347.33	73.01	-43.0	-53.5	3.5	3.02e+01	0	32	104	524288	60	24437
2026-01-07 02:02:04.13	347.01	72.44	-43.2	-53.9	3.5	3.02e+01	0	32	104	524288	60	25717
2026-01-07 02:02:05.14	346.71	71.87	-42.0	-52.4	3.5	3.02e+01	0	32	104	524288	60	21659
2026-01-07 02:02:06.15	346.43	71.30	-42.3	-52.7	3.5	3.02e+01	0	32	104	524288	60	22526
2026-01-07 02:02:07.16	346.17	70.73	-48.5	-60.8	3.5	3.02e+01	0	32	104	524288	60	57051
2026-01-07 02:02:08.17	345.92	70.17	-46.8	-58.4	3.5	3.02e+01	0	32	104	524288	60	42978
2026-01-07 02:02:09.18	345.69	69.61	-51.6	-69.4	3.5	3.02e+01	0	32	104	524288	60	152501
2026-01-07 02:02:10.19	345.47	69.05	-48.6	-60.9	3.5	3.02e+01	0	32	104	524288	60	57913
2026-01-07 02:02:11.20	345.27	68.50	-51.1	-67.0	3.5	3.02e+01	0	32	104	524288	60	116606
2026-01-07 02:02:12.21	345.08	67.95	-45.2	-56.2	3.5	3.02e+01	0	32	104	524288	60	33616
2026-01-07 02:02:13.22	344.89	67.40	-44.5	-55.3	3.5	3.02e+01	0	32	104	524288	60	30067
2026-01-07 02:02:14.23	344.72	66.86	-44.9	-56.0	3.5	3.02e+01	0	32	104	524288	60	32774
2026-01-07 02:02:15.24	344.55	66.32	-44.9	-55.8	3.5	3.02e+01	0	32	104	524288	60	32018
2026-01-07 02:02:16.25	344.40	65.78	-50.8	-66.2	3.5	3.02e+01	0	32	104	524288	60	106290
2026-01-07 02:02:17.26	344.25	65.24	-45.9	-57.2	3.5	3.02e+01	0	32	104	524288	60	37585
2026-01-07 02:02:18.28	344.10	64.71	-48.7	-60.9	3.5	3.02e+01	0	32	104	524288	60	57576
2026-01-07 02:02:19.29	343.97	64.18	-48.4	-60.9	3.6	3.02e+01	0	33	104	524288	60	57314
2026-01-07 02:02:20.30	343.84	63.66	-47.0	-58.7	3.5	3.02e+01	0	32	104	524288	60	44572
2026-01-07 02:02:21.31	343.72	63.14	-42.1	-52.4	3.5	3.02e+01	0	32	104	524288	60	21635
2026-01-07 02:02:22.32	343.60	62.63	-42.2	-52.8	3.6	3.02e+01	0	32	104	524288	60	22586
2026-01-07 02:02:23.33	343.49	62.12	-41.6	-51.9	3.5	3.02e+01	0	32	104	524288	60	20462
2026-01-07 02:02:24.34	343.38	61.61	-40.6	-51.0	3.5	3.02e+01	0	32	104	524288	60	18376
2026-01-07 02:02:25.35	343.27	61.11	-42.5	-53.0	3.5	3.02e+01	0	32	104	524288	60	23275
2026-01-07 02:02:26.37	343.17	60.60	-40.4	-50.6	3.6	3.02e+01	0	32	104	524288	60	17539
2026-01-07 02:02:27.38	343.08	60.11	-50.3	-64.7	3.5	3.02e+01	0	32	104	524288	60	89692
2026-01-07 02:02:28.39	342.99	59.62	-39.3	-49.4	3.5	3.02e+01	0	32	104	524288	60	15236
2026-01-07 02:02:29.40	342.90	59.13	-45.1	-56.1	3.5	3.02e+01	0	32	104	524288	60	33320
2026-01-07 02:02:30.41	342.82	58.65	-38.8	-49.2	3.6	3.02e+01	0	32	104	524288	56	18771
2026-01-07 02:02:31.42	342.73	58.17	-37.9	-48.1	3.5	3.02e+01	0	32	104	524288	56	16513
2026-01-07 02:02:32.43	342.66	57.69	-37.3	-47.4	3.5	3.02e+01	0	32	104	524288	54	17115
2026-01-07 02:02:33.44	342.58	57.22	-37.5	-47.7	3.5	3.02e+01	0	32	104	524288	54	17896
2026-01-07 02:02:34.45	342.51	56.75	-40.8	-50.9	3.5	3.02e+01	0	32	104	524288	60	18290
2026-01-07 02:02:35.46	342.44	56.29	-37.6	-47.8	3.5	3.02e+01	0	32	104	524288	58	14287
2026-01-07 02:02:36.47	342.37	55.83	-50.5	-65.4	3.5	3.02e+01	0	32	104	524288	60	96282
2026-01-07 02:02:37.48	342.30	55.38	-42.7	-53.3	3.6	3.02e+01	0	32	104	524288	60	24002
2026-01-07 02:02:38.49	342.24	54.92	-48.0	-60.2	3.5	3.02e+01	0	32	104	524288	60	53316
2026-01-07 02:02:39.51	342.18	54.47	-43.6	-54.3	3.5	3.02e+01	0	32	104	524288	60	26836
2026-01-07 02:02:40.52	342.12	54.03	-42.6	-53.0	3.5	3.02e+01	0	32	104	524288	60	23115
2026-01-07 02:02:41.53	342.06	53.59	-40.6	-51.0	3.5	3.02e+01	0	32	104	524288	60	18397
2026-01-07 02:02:42.54	342.01	53.15	-43.5	-54.2	3.5	3.02e+01	0	32	104	524288	60	26662
2026-01-07 02:02:43.55	341.95	52.72	-43.9	-54.4	3.5	3.02e+01	0	32	104	524288	60	27230
2026-01-07 02:02:44.56	341.90	52.29	-40.3	-50.9	3.6	3.02e+01	0	32	104	524288	60	18259
2026-01-07 02:02:45.57	341.85	51.87	-51.1	-67.2	3.5	3.02e+01	0	32	104	524288	60	119097
2026-01-07 02:02:46.58	341.80	51.45	-39.7	-49.6	3.5	3.02e+01	0	32	104	524288	60	15665
2026-01-07 02:02:47.59	341.76	51.03	-43.0	-53.7	3.5	3.02e+01	0	32	104	524288	60	25109
2026-01-07 02:02:48.60	341.71	50.62	-42.2	-53.0	3.5	3.02e+01	0	32	104	524288	60	23142
2026-01-07 02:02:49.61	341.66	50.21	-42.3	-52.3	3.6	3.02e+01	0	32	104	524288	60	21478
2026-01-07 02:02:50.62	341.62	49.81	-42.4	-53.1	3.5	3.02e+01	0	32	104	524288	60	23515
2026-01-07 02:02:51.64	341.58	49.40	-44.8	-55.8	3.5	3.02e+01	0	32	104	524288	60	32182
2026-01-07 02:02:52.65	341.54	49.00	-41.5	-51.5	3.5	3.02e+01	0	32	104	524288	60	19546
2026-01-07 02:02:53.66	341.50	48.61	-50.7	-65.9	3.5	3.02e+01	0	32	104	524288	60	102023
2026-01-07 02:02:54.67	341.46	48.22	-50.5	-65.4	3.5	3.02e+01	0	32	104	524288	60	96378
2026-01-07 02:02:55.68	341.42	47.83	-46.1	-57.0	3.5	3.02e+01	0	32	104	524288	60	36793
2026-01-07 02:02:56.69	341.39	47.45	-44.4	-55.1	3.5	3.02e+01	0	32	104	524288	60	29392
2026-01-07 02:02:57.70	341.35	47.07	-42.6	-53.5	3.5	3.02e+01	0	32	104	524288	60	24676
2026-01-07 02:02:58.71	341.32	46.69	-42.0	-52.5	3.5	3.02e+01	0	32	104	524288	60	21913
2026-01-07 02:02:59.72	341.28	46.32	-41.4	-51.6	3.5	3.02e+01	0	32	104	524288	60	19732
2026-01-07 02:03:00.73	341.25	45.95	-46.5	-57.7	3.5	3.02e+01	0	32	104	524288	60	40051
2026-01-07 02:03:01.75	341.22	45.58	-42.7	-53.2	3.5	3.02e+01	0	32	104	524288	60	23629
2026-01-07 02:03:02.76	341.19	45.22	-51.3	-68.4	3.5	3.02e+01	0	32	104	524288	60	136521
2026-01-07 02:03:03.77	341.16	44.86	-51.3	-68.3	3.5	3.02e+01	0	32	104	524288	60	134218
2026-01-07 02:03:04.78	341.13	44.51	-51.3	-68.2	3.5	3.02e+01	0	32	104	524288	60	134182
2026-01-07 02:03:05.79	341.10	44.16	-50.4	-65.0	3.5	3.02e+01	0	32	104	524288	60	92621
2026-01-07 02:03:06.80	341.07	43.81	-49.8	-63.5	3.5	3.02e+01	0	32	104	524288	60	77322
2026-01-07 02:03:07.81	341.04	43.46	-49.3	-62.4	3.5	3.02e+01	0	32	104	524288	60	68233
2026-01-07 02:03:08.82	341.02	43.12	-48.9	-61.5	3.5	3.02e+01	0	32	104	524288	60	61552
2026-01-07 02:03:09.83	340.99	42.78	-51.5	-69.3	3.5	3.02e+01	0	32	104	524288	60	150943
2026-01-07 02:03:10.84	340.97	42.45	-51.0	-67.2	3.5	3.02e+01	0	32	104	524288	60	119379
2026-01-07 02:03:11.85	340.94	42.12	-50.6	-65.5	3.5	3.02e+01	0	32	104	524288	60	97365
2026-01-07 02:03:12.86	340.92	41.79	-51.5	-68.8	3.5	3.02e+01	0	32	104	524288	60	142351
2026-01-07 02:03:13.88	340.89	41.46	-43.5	-54.3	3.5	3.02e+01	0	32	104	524288	60	26834
2026-01-07 02:03:14.89	340.87	41.13	-42.8	-53.9	3.5	3.02e+01	0	32	104	524288	60	25615
2026-01-07 02:03:15.90	340.85	40.81	-42.8	-53.4	3.5	3.02e+01	0	32	104	524288	60	24311
2026-01-07 02:03:16.91	340.83	40.50	-41.4	-51.6	3.5	3.02e+01	0	33	104	524288	60	19786
2026-01-07 02:03:17.92	340.80	40.18	-40.1	-50.4	3.5	3.02e+01	0	33	104	524288	60	17138
2026-01-07 02:03:18.93	340.78	39.87	-44.5	-55.3	3.5	3.02e+01	0	32	104	524288	60	30207
2026-01-07 02:03:19.94	340.76	39.56	-43.3	-54.3	3.5	3.02e+01	0	32	104	524288	60	26976
2026-01-07 02:03:20.95	340.74	39.26	-51.4	-68.7	3.5	3.02e+01	0	32	104	524288	60	141799
2026-01-07 02:03:21.96	340.72	38.95	-50.5	-64.8	3.5	3.02e+01	0	32	104	524288	60	89774
2026-01-07 02:03:22.97	340.70	38.65	-49.2	-62.1	3.5	3.02e+01	0	32	104	524288	60	65751
2026-01-07 02:03:23.98	340.68	38.36	-40.9	-51.5	3.5	3.02e+01	0	32	104	524288	60	19446
2026-01-07 02:03:25.00	340.67	38.06	-40.1	-50.5	3.5	3.02e+01	0	32	104	524288	60	17483
2026-01-07 02:03:26.01	340.65	37.77	-39.8	-50.0	3.5	3.02e+01	0	32	104	524288	60	16387
2026-01-07 02:03:27.02	340.63	37.48	-39.6	-49.7	3.5	3.02e+01	0	32	104	524288	60	15912
2026-01-07 02:03:28.03	340.61	37.19	-49.3	-62.5	3.5	3.02e+01	0	32	104	524288	60	69310
2026-01-07 02:03:29.04	340.60	36.91	-42.4	-53.3	3.5	3.02e+01	0	32	104	524288	60	23973
2026-01-07 02:03:30.05	340.58	36.63	-51.4	-68.5	3.5	3.02e+01	0	32	104	524288	60	138658
2026-01-07 02:03:31.06	340.57	36.35	-50.8	-65.7	3.5	3.02e+01	0	32	104	524288	60	100024
2026-01-07 02:03:32.07	340.55	36.07	-51.4	-68.5	3.5	3.02e+01	0	32	104	524288	60	138199
2026-01-07 02:03:33.08	340.53	35.80	-47.0	-58.7	3.5	3.02e+01	0	32	104	524288	60	44687
2026-01-07 02:03:34.09	340.52	35.53	-47.1	-58.6	3.5	3.02e+01	0	32	104	524288	60	44227
2026-01-07 02:03:35.10	340.50	35.26	-47.1	-58.6	3.5	3.02e+01	0	32	104	524288	60	44101
2026-01-07 02:03:36.12	340.49	34.99	-44.9	-56.0	3.5	3.02e+01	0	32	104	524288	60	32817
2026-01-07 02:03:37.13	340.48	34.73	-49.7	-63.4	3.5	3.02e+01	0	32	104	524288	60	77058
2026-01-07 02:03:38.14	340.46	34.46	-47.1	-58.6	3.5	3.02e+01	0	32	104	524288	60	44260
2026-01-07 02:03:39.15	340.45	34.21	-49.6	-62.7	3.5	3.02e+01	0	33	104	524288	60	70437
2026-01-07 02:03:40.16	340.44	33.95	-51.5	-68.9	3.5	3.02e+01	0	32	104	524288	60	144384
2026-01-07 02:03:41.17	340.42	33.69	-43.2	-54.0	3.5	3.02e+01	0	32	104	524288	60	25877
2026-01-07 02:03:42.18	340.41	33.44	-39.9	-50.4	3.5	3.02e+01	0	33	104	524288	60	17197
2026-01-07 02:03:43.19	340.40	33.19	-38.8	-48.8	3.5	3.02e+01	0	32	104	524288	58	16129
2026-01-07 02:03:44.20	340.39	32.94	-38.5	-48.6	3.5	3.02e+01	0	32	104	524288	56	17523
2026-01-07 02:03:45.22	340.37	32.70	-38.8	-49.4	3.5	3.02e+01	0	32	104	524288	56	19269
2026-01-07 02:03:46.23	340.36	32.45	-43.0	-54.1	3.5	3.02e+01	0	33	104	524288	60	26212
2026-01-07 02:03:47.24	340.35	32.21	-38.7	-49.0	3.3	3.02e+01	0	32	104	524288	60	14649
2026-01-07 02:03:48.25	340.34	31.97	-51.5	-69.2	3.5	3.02e+01	0	33	104	524288	60	149258
2026-01-07 02:03:49.26	340.33	31.73	-44.7	-55.5	3.5	3.02e+01	0	32	104	524288	60	30881
2026-01-07 02:03:50.27	340.32	31.50	-47.2	-58.8	3.5	3.02e+01	0	32	104	524288	60	45309
2026-01-07 02:03:51.28	340.31	31.26	-40.3	-50.6	3.5	3.02e+01	0	32	104	524288	60	17563
2026-01-07 02:03:52.29	340.30	31.03	-40.2	-50.5	3.6	3.02e+01	0	32	104	524288	60	17486
2026-01-07 02:03:53.30	340.29	30.80	-38.6	-48.9	3.5	3.02e+01	0	32	104	524288	58	16279
2026-01-07 02:03:54.31	340.28	30.57	-38.0	-48.3	3.5	3.02e+01	0	32	104	524288	56	17062
2026-01-07 02:03:55.33	340.27	30.35	-39.0	-49.0	3.5	3.02e+01	0	32	104	524288	60	14642
2026-01-07 02:03:56.34	340.26	30.12	-38.0	-48.1	3.5	3.02e+01	0	32	104	524288	60	13196
2026-01-07 02:03:57.35	340.25	29.90	-51.6	-69.2	3.5	3.02e+01	0	33	104	524288	60	149222
2026-01-07 02:03:58.36	340.24	29.68	-47.5	-59.4	3.5	3.02e+01	0	32	104	524288	60	48650
2026-01-07 02:03:59.37	340.23	29.46	-50.8	-66.3	3.5	3.02e+01	0	32	104	524288	60	107083
2026-01-07 02:04:00.38	340.22	29.25	-47.4	-59.2	3.6	3.02e+01	0	32	104	524288	60	47336
2026-01-07 02:04:01.39	340.21	29.03	-44.6	-55.4	3.5	3.02e+01	0	33	104	524288	60	30569
2026-01-07 02:04:02.40	340.21	28.82	-42.4	-52.7	3.5	3.02e+01	0	33	104	524288	60	22520
2026-01-07 02:04:03.41	340.20	28.61	-41.2	-51.5	3.5	3.02e+01	0	32	104	524288	60	19514
2026-01-07 02:04:04.42	340.19	28.40	-43.6	-54.1	3.5	3.02e+01	0	32	104	524288	60	26349
2026-01-07 02:04:05.43	340.18	28.19	-40.7	-50.9	3.5	3.02e+01	0	33	104	524288	60	18224
2026-01-07 02:04:06.44	340.17	27.98	-50.3	-64.6	3.5	3.02e+01	0	33	104	524288	60	88664
2026-01-07 02:04:07.45	340.17	27.78	-44.4	-55.5	3.6	3.02e+01	0	32	104	524288	60	30848
2026-01-07 02:04:08.46	340.16	27.58	-42.1	-52.9	3.6	3.02e+01	0	32	104	524288	60	22800
2026-01-07 02:04:09.47	340.15	27.37	-40.5	-51.1	3.5	3.02e+01	0	33	104	524288	60	18573
2026-01-07 02:04:10.49	340.14	27.17	-39.8	-50.3	3.5	3.02e+01	0	33	104	524288	60	17072
2026-01-07 02:04:11.50	340.14	26.98	-39.8	-50.3	3.5	3.02e+01	0	33	104	524288	60	17079
2026-01-07 02:04:12.51	340.13	26.78	-40.3	-50.8	3.5	3.02e+01	0	33	104	524288	60	18007
2026-01-07 02:04:13.52	340.12	26.58	-39.2	-49.6	3.5	3.02e+01	0	33	104	524288	60	15707
2026-01-07 02:04:14.53	340.12	26.39	-45.9	-57.0	3.5	3.02e+01	0	32	104	524288	60	36645
2026-01-07 02:04:15.54	340.11	26.20	-50.0	-63.8	3.5	3.02e+01	0	33	104	524288	60	80055
2026-01-07 02:04:16.55	340.10	26.01	-42.1	-52.4	3.5	3.02e+01	0	32	104	524288	60	21642
2026-01-07 02:04:17.56	340.10	25.82	-44.2	-54.7	3.5	3.02e+01	0	32	104	524288	60	28267
2026-01-07 02:04:18.57	340.09	25.63	-41.9	-52.2	3.5	3.02e+01	0	33	104	524288	60	21200
2026-01-07 02:04:19.58	340.09	25.44	-40.9	-51.3	3.5	3.02e+01	0	32	104	524288	60	18974
2026-01-07 02:04:20.60	340.08	25.26	-39.5	-50.0	3.5	3.02e+01	0	32	104	524288	60	16375
2026-01-07 02:04:21.61	340.07	25.07	-39.9	-50.5	3.5	3.02e+01	0	33	104	524288	58	19601
2026-01-07 02:04:22.62	340.07	24.89	-39.4	-49.9	3.5	3.02e+01	0	32	104	524288	58	18228
2026-01-07 02:04:23.63	340.06	24.71	-47.9	-60.0	3.5	3.02e+01	0	32	104	524288	60	51931
2026-01-07 02:04:24.64	340.06	24.53	-49.6	-63.0	3.5	3.02e+01	0	33	104	524288	60	73563
2026-01-07 02:04:25.65	340.05	24.35	-42.5	-52.9	3.5	3.02e+01	0	33	104	524288	60	22937
2026-01-07 02:04:26.66	340.05	24.18	-45.7	-56.7	3.5	3.02e+01	0	33	104	524288	60	35406
2026-01-07 02:04:27.67	340.04	24.00	-44.0	-54.6	3.5	3.02e+01	0	33	104	524288	60	27841
2026-01-07 02:04:28.68	340.04	23.83	-42.8	-53.2	3.5	3.02e+01	0	33	104	524288	60	23825
2026-01-07 02:04:29.69	340.03	23.65	-41.4	-51.8	3.5	3.02e+01	0	33	104	524288	60	20268
2026-01-07 02:04:30.70	340.03	23.48	-44.9	-55.9	3.5	3.02e+01	0	33	104	524288	60	32224
2026-01-07 02:04:31.71	340.02	23.31	-48.3	-60.7	3.5	3.02e+01	0	33	104	524288	60	56172
2026-01-07 02:04:32.73	340.02	23.14	-42.9	-53.8	3.5	3.02e+01	0	33	104	524288	60	25300
2026-01-07 02:04:33.74	340.02	22.97	-51.3	-67.9	3.5	3.02e+01	0	32	104	524288	60	129179
2026-01-07 02:04:34.75	340.01	22.81	-38.4	-48.8	3.5	3.02e+01	0	33	104	524288	56	18009
2026-01-07 02:04:35.76	340.01	22.64	-38.7	-48.9	3.5	3.02e+01	0	32	104	524288	58	16278
2026-01-07 02:04:36.77	340.00	22.48	-39.1	-49.2	3.5	3.02e+01	0	32	104	524288	58	16776
2026-01-07 02:04:37.78	340.00	22.31	-38.1	-48.1	3.5	3.02e+01	0	33	104	524288	56	16615
2026-01-07 02:04:38.79	339.99	22.15	-37.1	-47.0	3.5	3.02e+01	0	32	104	524288	54	16464
2026-01-07 02:04:39.80	339.99	21.99	-38.6	-48.6	3.5	3.02e+01	0	33	104	524288	54	19801
2026-01-07 02:04:40.81	339.99	21.83	-37.9	-47.9	3.5	3.02e+01	0	32	104	524288	54	18137
2026-01-07 02:04:41.83	339.98	21.67	-51.5	-69.1	3.5	3.02e+01	0	33	104	524288	60	147323
2026-01-07 02:04:42.84	339.98	21.51	-47.7	-59.4	3.5	3.02e+01	0	33	104	524288	60	48353
2026-01-07 02:04:43.85	339.98	21.35	-47.7	-59.5	3.5	3.02e+01	0	32	104	524288	60	49061
2026-01-07 02:04:44.86	339.97	21.20	-40.5	-51.0	3.5	3.02e+01	0	32	104	524288	60	18516
2026-01-07 02:04:45.87	339.97	21.04	-39.3	-49.8	3.4	3.02e+01	0	32	104	524288	60	16134
2026-01-07 02:04:46.88	339.97	20.89	-37.9	-48.4	3.5	3.02e+01	0	33	104	524288	56	17249
2026-01-07 02:04:47.89	339.96	20.74	-37.2	-47.7	3.5	3.02e+01	0	32	104	524288	54	17800
2026-01-07 02:04:48.90	339.96	20.59	-37.1	-47.5	3.5	3.02e+01	0	32	104	524288	54	17454
2026-01-07 02:04:49.91	339.96	20.44	-39.3	-49.7	3.5	3.02e+01	0	33	104	524288	56	20031
2026-01-07 02:04:50.93	339.95	20.28	-51.3	-68.1	3.5	3.02e+01	0	33	104	524288	60	131619
2026-01-07 02:04:51.94	339.95	20.14	-47.4	-59.1	3.5	3.02e+01	0	32	104	524288	60	46722
2026-01-07 02:04:52.95	339.95	19.99	-48.5	-60.7	3.5	3.02e+01	0	32	104	524288	60	56339
2026-01-07 02:04:53.96	339.95	19.84	-43.0	-53.6	3.6	3.02e+01	0	33	104	524288	60	24758
2026-01-07 02:04:54.97	339.94	19.70	-41.1	-51.5	3.5	3.02e+01	0	33	104	524288	60	19535
2026-01-07 02:04:55.98	339.94	19.55	-39.9	-50.2	3.5	3.02e+01	0	33	104	524288	60	16853
2026-01-07 02:04:56.99	339.94	19.41	-39.6	-49.7	3.5	3.02e+01	0	32	104	524288	60	15864
2026-01-07 02:04:58.00	339.94	19.26	-37.5	-47.6	3.5	3.02e+01	0	33	104	524288	56	15615
2026-01-07 02:04:59.01	339.93	19.12	-49.8	-63.1	3.5	3.02e+01	0	32	104	524288	60	73897
2026-01-07 02:05:00.02	339.93	18.98	-47.8	-59.3	3.5	3.02e+01	0	32	104	524288	60	48113
2026-01-07 02:05:01.04	339.93	18.84	-51.1	-67.1	3.5	3.02e+01	0	33	104	524288	60	117987
2026-01-07 02:05:02.05	339.93	18.70	-43.0	-53.4	3.5	3.02e+01	0	33	104	524288	60	24340
2026-01-07 02:05:03.06	339.92	18.56	-40.3	-50.6	3.5	3.02e+01	0	33	104	524288	60	17498
2026-01-07 02:05:04.07	339.92	18.42	-39.6	-49.9	3.5	3.02e+01	0	33	104	524288	60	16178
2026-01-07 02:05:05.08	339.92	18.29	-39.3	-49.6	3.5	3.02e+01	0	32	104	524288	60	15671
2026-01-07 02:05:06.09	339.92	18.15	-38.2	-48.5	3.5	3.02e+01	0	32	104	524288	56	17373
2026-01-07 02:05:07.10	339.92	18.02	-37.6	-47.9	3.5	3.02e+01	0	32	104	524288	56	16180
2026-01-07 02:05:08.11	339.91	17.88	-40.2	-50.7	3.5	3.02e+01	0	32	104	524288	58	19896
2026-01-07 02:05:09.12	339.91	17.75	-51.3	-68.1	3.5	3.02e+01	0	33	104	524288	60	131905
2026-01-07 02:05:10.14	339.91	17.61	-44.8	-55.7	3.5	3.02e+01	0	32	104	524288	60	31584
2026-01-07 02:05:11.15	339.91	17.48	-48.4	-60.8	3.5	3.02e+01	0	32	104	524288	60	56618
2026-01-07 02:05:12.16	339.91	17.35	-40.9	-51.3	3.5	3.02e+01	0	33	104	524288	60	19151
2026-01-07 02:05:13.17	339.91	17.22	-40.5	-51.0	3.5	3.02e+01	0	33	104	524288	60	18341
2026-01-07 02:05:14.18	339.90	17.09	-40.2	-50.8	3.5	3.02e+01	0	32	104	524288	60	17899
2026-01-07 02:05:15.19	339.90	16.96	-38.7	-49.2	3.5	3.02e+01	0	32	104	524288	58	16768
2026-01-07 02:05:16.20	339.90	16.83	-38.8	-49.2	3.5	3.02e+01	0	33	104	524288	58	16810
2026-01-07 02:05:17.21	339.90	16.71	-39.0	-49.5	3.5	3.02e+01	0	33	104	524288	60	15489
2026-01-07 02:05:18.22	339.90	16.58	-51.3	-68.4	3.5	3.02e+01	0	33	104	524288	60	137124
2026-01-07 02:05:19.23	339.90	16.45	-42.0	-52.6	3.5	3.02e+01	0	33	104	524288	60	22050
2026-01-07 02:05:20.24	339.90	16.33	-46.6	-58.0	3.5	3.02e+01	0	33	104	524288	60	41468
2026-01-07 02:05:21.25	339.89	16.20	-41.3	-51.8	3.5	3.02e+01	0	33	104	524288	60	20312
2026-01-07 02:05:22.26	339.89	16.08	-41.7	-52.3	3.5	3.02e+01	0	33	104	524288	60	21271
2026-01-07 02:05:23.28	339.89	15.95	-41.2	-51.7	3.5	3.02e+01	0	33	104	524288	60	19887
2026-01-07 02:05:24.29	339.89	15.83	-39.4	-49.7	3.5	3.02e+01	0	33	104	524288	60	15851
2026-01-07 02:05:25.30	339.89	15.71	-40.1	-50.4	3.5	3.02e+01	0	33	104	524288	58	19231
2026-01-07 02:05:26.31	339.89	15.59	-44.1	-54.9	3.6	3.02e+01	0	32	104	524288	60	29014
2026-01-07 02:05:27.32	339.89	15.47	-48.3	-60.6	3.5	3.02e+01	0	33	104	524288	60	55325
2026-01-07 02:05:28.33	339.89	15.35	-50.0	-64.3	3.6	3.02e+01	0	33	104	524288	60	85474
2026-01-07 02:05:29.34	339.89	15.23	-42.5	-53.0	3.5	3.02e+01	0	33	104	524288	60	23229
2026-01-07 02:05:30.35	339.89	15.11	-40.8	-51.1	3.5	3.02e+01	0	32	104	524288	60	18549
2026-01-07 02:05:31.36	339.88	14.99	-41.0	-51.2	3.4	3.02e+01	0	32	104	524288	60	18908
2026-01-07 02:05:32.37	339.88	14.88	-40.4	-50.6	3.4	3.02e+01	0	32	104	524288	60	17577
2026-01-07 02:05:33.39	339.88	14.76	-39.6	-49.7	3.6	3.02e+01	0	32	104	524288	60	15825
2026-01-07 02:05:34.40	339.88	14.64	-38.0	-39.5	24.6	3.02e+01	54	33	104	524288	58	5527
2026-01-07 02:05:35.41	339.88	14.53	-37.2	-38.4	28.9	3.02e+01	62	32	0	524288	56	5448
2026-01-07 02:05:36.42	339.88	14.41	-51.0	-62.3	11.3	3.02e+01	59	33	104	524288	60	67890
2026-01-07 02:05:37.43	339.88	14.30	-39.5	-40.8	27.4	3.02e+01	51	33	0	524288	60	5682
2026-01-07 02:05:38.44	339.88	14.18	-45.0	-47.0	22.1	3.02e+01	59	32	0	524288	60	11678
2026-01-07 02:05:39.45	339.88	14.07	-40.2	-41.6	26.9	3.02e+01	58	32	0	524288	60	6242
2026-01-07 02:05:40.46	339.88	13.96	-39.6	-40.9	27.4	3.02e+01	58	32	0	524288	60	5761
2026-01-07 02:05:41.47	339.88	13.85	-39.3	-40.6	27.7	3.02e+01	58	32	0	524288	58	6212
2026-01-07 02:05:42.48	339.88	13.73	-38.3	-39.5	28.7	3.02e+01	46	32	0	524288	58	5530
2026-01-07 02:05:43.49	339.88	13.62	-37.4	-38.6	29.5	3.02e+01	59	32	0	524288	56	5556
2026-01-07 02:05:44.50	339.88	13.51	-37.0	-38.2	29.8	3.02e+01	62	32	0	524288	54	5957
2026-01-07 02:05:45.51	339.88	13.40	-37.2	-38.4	29.6	3.02e+01	58	32	0	524288	54	6075
2026-01-07 02:05:46.52	339.88	13.30	-37.1	-38.3	29.7	3.02e+01	59	32	101	524288	54	6047
2026-01-07 02:05:47.54	339.88	13.19	-37.2	-38.4	29.5	3.02e+01	58	32	101	524288	54	6094
2026-01-07 02:05:48.54	339.88	13.08	-37.1	-38.3	29.6	3.02e+01	61	32	101	524288	54	6036
2026-01-07 02:05:49.55	339.88	12.97	-37.1	-38.3	29.7	3.02e+01	54	32	101	524288	54	6054
2026-01-07 02:05:50.56	339.88	12.86	-37.0	-38.2	29.7	3.02e+01	48	32	101	524288	54	5945
2026-01-07 02:05:51.57	339.88	12.76	-37.1	-38.3	29.6	3.02e+01	61	32	101	524288	54	6048
2026-01-07 02:05:52.58	339.88	12.65	-37.0	-38.2	29.7	3.02e+01	56	32	101	524288	54	5960
2026-01-07 02:05:53.59	339.88	12.55	-37.2	-38.4	29.7	3.02e+01	58	32	101	524288	54	6068
2026-01-07 02:05:54.59	339.88	12.44	-37.2	-38.4	29.6	3.02e+01	61	32	101	524288	54	6085
2026-01-07 02:05:55.60	339.88	12.34	-37.1	-38.3	29.6	3.02e+01	56	32	101	524288	54	6047
2026-01-07 02:05:56.61	339.88	12.23	-37.1	-38.3	29.7	3.02e+01	59	32	101	524288	54	6028
2026-01-07 02:05:57.62	339.88	12.13	-37.0	-38.2	29.7	3.02e+01	56	32	101	524288	54	5969
2026-01-07 02:05:58.63	339.88	12.03	-37.1	-38.3	29.6	3.02e+01	49	32	101	524288	54	6018
2026-01-07 02:05:59.64	339.88	11.93	-37.0	-38.2	29.7	3.02e+01	59	33	101	524288	54	5977
2026-01-07 02:06:00.65	339.88	11.82	-37.2	-38.4	29.6	3.02e+01	60	32	101	524288	54	6111
2026-01-07 02:06:01.66	339.88	11.72	-37.2	-38.4	29.5	3.02e+01	58	32	101	524288	54	6091
2026-01-07 02:06:02.67	339.88	11.62	-37.1	-38.3	29.6	3.02e+01	59	32	101	524288	54	6062
2026-01-07 02:06:03.68	339.88	11.52	-37.0	-38.2	29.6	3.02e+01	56	33	101	524288	54	5987
2026-01-07 02:06:04.69	339.88	11.42	-37.1	-38.3	29.6	3.02e+01	60	33	101	524288	54	5997
2026-01-07 02:06:05.69	339.88	11.32	-37.1	-38.3	29.6	3.02e+01	59	32	101	524288	54	6001
2026-01-07 02:06:06.71	339.88	11.22	-37.1	-38.3	29.5	3.02e+01	45	32	101	524288	54	6016
2026-01-07 02:06:07.71	339.88	11.12	-37.0	-38.2	29.6	3.02e+01	59	32	101	524288	54	5969
2026-01-07 02:06:08.72	339.88	11.02	-37.1	-38.3	29.6	3.02e+01	60	32	101	524288	54	6032
2026-01-07 02:06:09.73	339.88	10.93	-37.2	-38.4	29.5	3.02e+01	60	32	101	524288	54	6104
2026-01-07 02:06:10.74	339.88	10.83	-37.2	-38.4	29.5	3.02e+01	60	32	101	524288	54	6105
2026-01-07 02:06:11.74	339.88	10.73	-37.0	-38.2	29.7	3.02e+01	50	32	101	524288	54	5984
2026-01-07 02:06:12.76	339.88	10.64	-37.1	-38.2	29.6	3.02e+01	59	32	101	524288	54	5994
2026-01-07 02:06:13.77	339.89	10.54	-37.0	-38.2	29.6	3.02e+01	61	32	101	524288	54	5992
2026-01-07 02:06:14.78	339.89	10.44	-37.1	-38.3	29.6	3.02e+01	46	33	101	524288	54	5998
2026-01-07 02:06:15.79	339.89	10.35	-37.0	-38.2	29.6	3.02e+01	61	32	101	524288	54	5961
2026-01-07 02:06:16.80	339.89	10.25	-37.0	-38.2	29.7	3.02e+01	45	32	101	524288	54	5977
2026-01-07 02:06:17.81	339.89	10.16	-37.0	-38.2	29.6	3.02e+01	60	32	101	524288	54	5979
2026-01-07 02:06:18.82	339.89	10.06	-37.1	-38.3	29.5	3.02e+01	58	32	101	524288	54	6052
2026-01-07 02:06:19.83	339.89	9.97	-37.1	-38.3	29.6	3.02e+01	52	32	101	524288	54	6044
2026-01-07 02:06:20.84	339.89	9.88	-37.2	-38.4	29.5	3.02e+01	60	32	101	524288	54	6085
2026-01-07 02:06:21.85	339.89	9.78	-37.1	-38.3	29.5	3.02e+01	58	32	101	524288	54	6013
2026-01-07 02:06:22.86	339.89	9.69	-37.0	-38.2	29.6	3.02e+01	59	32	101	524288	54	5957
2026-01-07 02:06:23.86	339.89	9.60	-37.1	-38.3	29.6	3.02e+01	60	32	101	524288	54	6013
