passes_logs/2026/01/07/R4.6S_Anadyr_2ch/R4.6S_Anadyr_2ch__20260107_123429_NOAA_20_JPSS-1_rec.log

#Pass ID: 20260107_123429_NOAA 20 (JPSS-1)
#Satellite: NOAA 20 (JPSS-1)
#Configuration: NOAA 20
#almurnet v.1.7.20251203
#Start time: 2026-01-07 12:34:30

#Version: 2.2.20231116
#Station: R4.6S_Anadyr_2ch
#Location: 177.4865 lon 64.73178 lat
#TLE: 1 43013U 17073A   25350.93759711  .00000080  00000+0  58734-4 0  9994
#TLE: 2 43013  98.7603 287.1885 0002156  81.1496 278.9924 14.19526878418610

#Time	Az	El	Level	Level2	SNR	BER	BlckErr	Temp	State	Recorded	gain1	gain2
2026-01-07 12:34:30.47	18.88	0.04	-51.9	-66.9	3.5	1.51e+00	0	32	0	0	60	108273
2026-01-07 12:34:31.47	18.95	0.10	-51.9	-67.3	3.6	1.51e+00	0	33	104	0	60	112967
2026-01-07 12:34:32.49	19.02	0.15	-51.9	-67.3	3.6	1.51e+00	0	33	104	0	60	113590
2026-01-07 12:34:33.50	19.09	0.20	-51.9	-67.3	3.6	1.51e+00	0	33	104	0	60	113380
2026-01-07 12:34:34.51	19.16	0.25	-51.9	-67.3	3.6	1.51e+00	0	33	104	0	60	113606
2026-01-07 12:34:35.52	19.23	0.30	-52.0	-67.4	3.5	1.51e+00	0	33	104	0	60	113656
2026-01-07 12:34:36.53	19.30	0.35	-52.0	-67.3	3.6	1.51e+00	0	33	104	0	60	113463
2026-01-07 12:34:37.54	19.37	0.40	-52.0	-67.4	3.6	1.51e+00	0	33	104	0	60	113698
2026-01-07 12:34:38.55	19.44	0.45	-51.9	-67.3	3.6	1.51e+00	0	33	104	0	60	113322
2026-01-07 12:34:39.56	19.51	0.51	-51.8	-67.2	3.6	1.51e+00	0	34	104	0	60	111924
2026-01-07 12:34:40.57	19.58	0.56	-51.7	-67.1	3.6	1.51e+00	0	34	104	0	60	110816
2026-01-07 12:34:41.58	19.65	0.61	-51.6	-67.0	3.6	1.51e+00	0	34	104	0	60	108682
2026-01-07 12:34:42.59	19.72	0.66	-51.5	-66.8	3.6	1.51e+00	0	33	104	0	60	106834
2026-01-07 12:34:43.61	19.79	0.71	-51.3	-66.7	3.6	1.51e+00	0	33	104	0	60	105450
2026-01-07 12:34:44.62	19.86	0.77	-51.1	-66.5	3.6	1.51e+00	0	34	104	0	60	102633
2026-01-07 12:34:45.63	19.94	0.82	-50.7	-66.1	3.6	1.51e+00	0	34	104	0	60	98092
2026-01-07 12:34:46.64	20.01	0.87	-50.3	-65.6	3.6	1.51e+00	0	34	104	0	60	93430
2026-01-07 12:34:47.65	20.08	0.92	-50.3	-65.6	3.5	1.51e+00	0	34	104	0	60	93302
2026-01-07 12:34:48.66	20.15	0.97	-50.3	-65.6	3.6	1.51e+00	0	34	104	0	60	93112
2026-01-07 12:34:49.67	20.23	1.03	-50.3	-65.6	3.6	1.51e+00	0	34	104	0	60	92864
2026-01-07 12:34:50.68	20.30	1.08	-50.3	-65.6	3.6	1.51e+00	0	34	104	0	60	93019
2026-01-07 12:34:51.69	20.37	1.13	-50.3	-65.6	3.6	1.51e+00	0	34	104	0	60	93019
2026-01-07 12:34:52.70	20.44	1.18	-50.3	-65.6	3.6	1.51e+00	0	34	104	0	60	93026
2026-01-07 12:34:53.72	20.52	1.23	-50.3	-65.7	3.6	1.51e+00	0	34	104	0	60	93465
2026-01-07 12:34:54.73	20.59	1.29	-50.3	-65.6	3.6	1.51e+00	0	34	104	0	60	93085
2026-01-07 12:34:55.74	20.67	1.34	-50.3	-65.6	3.6	1.51e+00	0	34	104	0	60	93390
2026-01-07 12:34:56.75	20.74	1.39	-50.3	-65.7	3.6	1.51e+00	0	34	104	0	60	93775
2026-01-07 12:34:57.76	20.82	1.44	-50.3	-65.6	3.6	1.51e+00	0	34	104	0	60	93408
2026-01-07 12:34:58.77	20.89	1.50	-50.3	-65.6	3.6	1.51e+00	0	34	104	0	60	93427
2026-01-07 12:34:59.78	20.97	1.55	-50.3	-65.6	3.6	1.51e+00	0	34	104	0	60	92625
2026-01-07 12:35:00.79	21.04	1.60	-50.3	-65.6	3.6	1.51e+00	0	34	104	0	60	92532
2026-01-07 12:35:01.80	21.12	1.66	-50.3	-65.5	3.6	1.51e+00	0	34	104	0	60	91769
2026-01-07 12:35:02.82	21.19	1.71	-50.3	-65.5	3.6	1.51e+00	0	34	104	0	60	92361
2026-01-07 12:35:03.83	21.27	1.76	-50.3	-65.6	3.6	1.51e+00	0	34	104	0	60	92960
2026-01-07 12:35:04.84	21.35	1.82	-50.3	-65.6	3.6	1.51e+00	0	34	104	0	60	93044
2026-01-07 12:35:05.85	21.42	1.87	-50.3	-65.6	3.6	1.51e+00	0	34	104	0	60	92908
2026-01-07 12:35:06.86	21.50	1.92	-50.3	-65.6	3.6	1.51e+00	0	34	104	0	60	92993
2026-01-07 12:35:07.87	21.58	1.97	-50.3	-65.6	3.6	1.51e+00	0	34	104	0	60	93253
2026-01-07 12:35:08.88	21.65	2.03	-50.3	-65.6	3.6	1.51e+00	0	34	104	0	60	92501
2026-01-07 12:35:09.89	21.73	2.08	-50.3	-65.2	3.6	1.51e+00	0	34	104	0	60	88586
2026-01-07 12:35:10.90	21.81	2.13	-50.3	-64.6	3.6	1.51e+00	0	34	104	0	60	82922
2026-01-07 12:35:11.91	21.89	2.19	-50.2	-64.4	3.6	1.51e+00	0	34	104	0	60	80467
2026-01-07 12:35:12.93	21.97	2.24	-50.3	-64.6	3.6	1.51e+00	0	34	104	0	60	82648
2026-01-07 12:35:13.94	22.04	2.30	-50.3	-64.6	3.6	1.51e+00	0	34	104	0	60	83155
2026-01-07 12:35:14.95	22.12	2.35	-50.1	-62.1	3.7	1.50e+00	0	34	104	0	60	62226
2026-01-07 12:35:15.96	22.20	2.40	-49.7	-58.0	6.8	6.22e-01	92	34	104	0	60	38837
2026-01-07 12:35:16.97	22.28	2.46	-48.8	-53.8	10.8	5.81e-02	0	34	0	0	60	23779
2026-01-07 12:35:17.98	22.36	2.51	-47.5	-50.8	13.9	3.81e-05	63	34	102	1048576	60	16941
2026-01-07 12:35:18.99	22.44	2.56	-46.3	-48.8	15.9	0.00e+00	0	34	102	1048576	60	13450
2026-01-07 12:35:20.01	22.52	2.62	-45.3	-47.4	17.2	0.00e+00	0	34	102	1048576	60	11441
2026-01-07 12:35:21.02	22.60	2.67	-45.0	-46.9	17.9	0.00e+00	43	34	102	1048576	60	10753
2026-01-07 12:35:22.03	22.68	2.73	-44.7	-46.5	18.2	0.00e+00	67	34	102	1048576	60	10330
2026-01-07 12:35:23.04	22.76	2.78	-45.1	-47.0	17.7	0.00e+00	92	34	102	1048576	60	10979
2026-01-07 12:35:24.05	22.85	2.83	-45.7	-47.9	16.7	0.00e+00	67	34	102	1048576	60	12127
2026-01-07 12:35:25.06	22.93	2.89	-46.8	-49.7	14.9	0.00e+00	66	34	102	1048576	60	14911
2026-01-07 12:35:26.07	23.01	2.94	-48.2	-52.4	11.8	2.28e-05	62	34	102	1048576	60	20434
2026-01-07 12:35:27.08	23.09	3.00	-49.4	-56.1	7.8	5.44e-03	0	34	102	1048576	60	31004
2026-01-07 12:35:28.09	23.17	3.05	-47.4	-50.7	13.9	1.26e-02	57	34	102	1048576	60	16703
2026-01-07 12:35:29.10	23.26	3.11	-45.0	-47.0	17.9	0.00e+00	14	34	102	1048576	60	10871
2026-01-07 12:35:30.11	23.34	3.16	-50.3	-65.0	3.6	1.06e-05	0	34	104	1048576	60	86256
2026-01-07 12:35:31.12	23.42	3.22	-50.0	-61.0	4.3	1.49e+00	5	34	104	1048576	60	54990
2026-01-07 12:35:32.13	23.51	3.27	-48.1	-52.1	12.0	1.93e-02	0	34	0	1048576	60	19558
2026-01-07 12:35:33.15	23.59	3.33	-46.1	-48.4	16.5	1.75e-03	0	34	0	1048576	60	12866
2026-01-07 12:35:34.16	23.68	3.38	-46.1	-48.5	16.7	0.00e+00	0	34	0	1048576	60	12908
2026-01-07 12:35:35.17	23.76	3.43	-45.7	-47.8	17.1	0.00e+00	0	34	0	1048576	60	11997
2026-01-07 12:35:36.18	23.85	3.49	-45.9	-48.1	16.8	0.00e+00	0	34	0	1048576	60	12427
2026-01-07 12:35:37.19	23.93	3.54	-45.7	-47.8	17.3	0.00e+00	92	34	0	1048576	60	11932
2026-01-07 12:35:38.20	24.02	3.60	-45.9	-48.1	16.6	0.00e+00	0	34	0	1048576	60	12319
2026-01-07 12:35:39.21	24.10	3.65	-45.9	-48.1	17.0	0.00e+00	91	34	0	1048576	60	12412
2026-01-07 12:35:40.22	24.19	3.71	-46.0	-48.3	16.3	0.00e+00	66	34	0	1048576	60	12670
2026-01-07 12:35:41.23	24.27	3.76	-46.1	-48.4	16.8	0.00e+00	0	34	0	1048576	60	12867
2026-01-07 12:35:42.24	24.36	3.82	-46.1	-48.4	16.8	0.00e+00	22	34	0	1048576	60	12765
2026-01-07 12:35:43.25	24.45	3.88	-46.2	-48.5	16.6	0.00e+00	19	34	0	1048576	60	12914
2026-01-07 12:35:44.26	24.54	3.93	-45.8	-47.8	16.8	0.00e+00	88	34	0	1048576	60	12029
2026-01-07 12:35:45.27	24.62	3.99	-46.2	-48.5	16.8	0.00e+00	15	34	0	1048576	60	12998
2026-01-07 12:35:46.28	24.71	4.04	-45.4	-47.3	17.6	0.00e+00	92	34	0	1048576	60	11327
2026-01-07 12:35:47.30	24.80	4.10	-45.7	-47.8	17.3	0.00e+00	0	34	0	1048576	60	11927
2026-01-07 12:35:48.31	24.89	4.15	-45.0	-46.8	18.4	0.00e+00	0	34	0	1048576	60	10680
2026-01-07 12:35:49.32	24.98	4.21	-44.5	-46.2	18.9	0.00e+00	15	34	0	1048576	60	9907
2026-01-07 12:35:50.33	25.07	4.27	-44.5	-46.1	18.9	0.00e+00	0	34	101	1048576	60	9860
2026-01-07 12:35:51.34	25.16	4.32	-44.3	-45.9	19.1	0.00e+00	92	34	101	1048576	60	9671
2026-01-07 12:35:52.35	25.25	4.38	-44.5	-46.2	18.9	0.00e+00	0	34	101	1048576	60	9983
2026-01-07 12:35:53.36	25.34	4.43	-44.3	-45.9	19.2	0.00e+00	92	34	101	1048576	60	9576
2026-01-07 12:35:54.37	25.43	4.49	-44.4	-46.0	19.1	0.00e+00	0	34	101	1048576	60	9719
2026-01-07 12:35:55.38	25.52	4.54	-44.3	-45.9	19.2	0.00e+00	0	34	101	1048576	60	9590
2026-01-07 12:35:56.39	25.61	4.60	-44.3	-45.9	19.2	0.00e+00	67	34	101	1048576	60	9625
2026-01-07 12:35:57.40	25.70	4.66	-44.4	-46.0	19.1	0.00e+00	0	34	101	1048576	60	9732
2026-01-07 12:35:58.41	25.79	4.71	-44.2	-45.7	19.2	0.00e+00	0	34	101	1048576	60	9419
2026-01-07 12:35:59.42	25.88	4.77	-44.2	-45.7	19.4	0.00e+00	62	34	101	1048576	60	9389
2026-01-07 12:36:00.43	25.98	4.83	-44.2	-45.8	19.4	0.00e+00	92	34	101	1048576	60	9508
2026-01-07 12:36:01.44	26.07	4.88	-44.2	-45.7	19.3	0.00e+00	14	34	101	1048576	60	9420
2026-01-07 12:36:02.45	26.16	4.94	-44.4	-45.9	19.3	0.00e+00	91	34	101	1048576	60	9657
2026-01-07 12:36:03.46	26.26	5.00	-44.1	-45.6	19.6	0.00e+00	0	34	101	1048576	60	9243
2026-01-07 12:36:04.48	26.35	5.05	-44.2	-45.7	19.5	0.00e+00	12	34	101	1048576	60	9410
2026-01-07 12:36:05.49	26.44	5.11	-44.1	-45.6	19.5	0.00e+00	18	34	101	1048576	60	9323
2026-01-07 12:36:06.50	26.54	5.17	-44.1	-45.7	19.5	0.00e+00	17	34	101	1048576	60	9352
2026-01-07 12:36:07.51	26.63	5.22	-44.1	-45.6	19.7	0.00e+00	92	34	101	1048576	60	9244
2026-01-07 12:36:08.52	26.73	5.28	-44.3	-45.8	19.5	0.00e+00	12	34	101	1048576	60	9509
2026-01-07 12:36:09.53	26.82	5.34	-44.1	-45.6	19.7	0.00e+00	91	34	101	1048576	60	9256
2026-01-07 12:36:10.54	26.92	5.39	-44.1	-45.6	19.6	0.00e+00	2	34	101	1048576	60	9325
2026-01-07 12:36:11.55	27.02	5.45	-44.0	-45.4	19.8	0.00e+00	0	34	101	1048576	60	9107
2026-01-07 12:36:12.56	27.11	5.51	-44.0	-45.5	19.7	0.00e+00	0	34	101	1048576	60	9208
2026-01-07 12:36:13.58	27.21	5.57	-44.2	-45.7	19.6	0.00e+00	2	34	101	1048576	60	9404
2026-01-07 12:36:14.59	27.31	5.62	-44.2	-45.7	19.6	0.00e+00	92	34	101	1048576	60	9361
2026-01-07 12:36:15.60	27.41	5.68	-44.0	-45.5	19.8	0.00e+00	62	34	101	1048576	60	9173
2026-01-07 12:36:16.61	27.50	5.74	-43.9	-45.3	20.0	0.00e+00	92	34	101	1048576	60	8974
2026-01-07 12:36:17.62	27.60	5.79	-44.0	-45.5	19.8	0.00e+00	67	34	101	1048576	60	9176
2026-01-07 12:36:18.63	27.70	5.85	-43.9	-45.4	19.9	0.00e+00	0	34	101	1048576	60	9035
2026-01-07 12:36:19.64	27.80	5.91	-43.9	-45.3	20.0	0.00e+00	0	34	101	1048576	60	8959
2026-01-07 12:36:20.65	27.90	5.97	-44.0	-45.5	19.9	0.00e+00	67	34	101	1048576	60	9144
2026-01-07 12:36:21.66	28.00	6.02	-43.9	-45.3	20.0	0.00e+00	0	34	101	1048576	60	9006
2026-01-07 12:36:22.67	28.10	6.08	-43.9	-45.3	20.0	0.00e+00	22	34	101	1048576	60	8957
2026-01-07 12:36:23.68	28.20	6.14	-43.9	-45.3	20.0	0.00e+00	92	34	101	1048576	60	9007
2026-01-07 12:36:24.69	28.30	6.20	-43.9	-45.3	20.0	0.00e+00	5	34	101	1048576	60	8961
2026-01-07 12:36:25.71	28.40	6.26	-43.8	-45.2	20.1	0.00e+00	92	34	101	1048576	60	8888
2026-01-07 12:36:26.72	28.51	6.31	-43.8	-45.1	20.2	0.00e+00	6	34	101	1048576	60	8821
2026-01-07 12:36:27.73	28.61	6.37	-43.7	-45.1	20.3	0.00e+00	0	34	101	1048576	60	8739
2026-01-07 12:36:28.74	28.71	6.43	-43.6	-45.0	20.4	0.00e+00	6	34	101	1048576	60	8662
2026-01-07 12:36:29.75	28.81	6.49	-43.6	-45.0	20.3	0.00e+00	0	34	101	1048576	60	8693
2026-01-07 12:36:30.76	28.92	6.55	-43.8	-45.1	20.3	0.00e+00	92	34	101	1048576	60	8806
2026-01-07 12:36:31.77	29.02	6.60	-43.4	-44.8	20.6	0.00e+00	0	34	101	1048576	60	8431
2026-01-07 12:36:32.78	29.13	6.66	-43.5	-44.9	20.5	0.00e+00	92	34	101	1048576	60	8537
2026-01-07 12:36:33.79	29.23	6.72	-43.6	-45.0	20.4	0.00e+00	4	34	101	1048576	60	8641
2026-01-07 12:36:34.81	29.34	6.78	-43.2	-44.5	20.9	0.00e+00	0	34	101	1048576	60	8201
2026-01-07 12:36:35.82	29.44	6.84	-43.4	-44.7	20.7	0.00e+00	0	34	101	1048576	60	8362
2026-01-07 12:36:36.83	29.55	6.90	-43.5	-44.8	20.6	0.00e+00	0	34	101	1048576	60	8507
2026-01-07 12:36:37.84	29.65	6.95	-43.5	-44.8	20.6	0.00e+00	90	34	101	1048576	60	8519
2026-01-07 12:36:38.85	29.76	7.01	-43.4	-44.7	20.6	0.00e+00	62	34	101	1048576	60	8408
2026-01-07 12:36:39.86	29.87	7.07	-43.6	-44.9	20.5	0.00e+00	90	34	101	1048576	60	8605
2026-01-07 12:36:40.87	29.97	7.13	-43.5	-44.9	20.4	0.00e+00	17	34	101	1048576	60	8565
2026-01-07 12:36:41.88	30.08	7.19	-43.6	-44.9	20.4	0.00e+00	0	34	101	1048576	60	8592
2026-01-07 12:36:42.89	30.19	7.25	-43.4	-44.7	20.6	0.00e+00	5	34	101	1048576	60	8402
2026-01-07 12:36:43.91	30.30	7.31	-43.4	-44.7	20.6	0.00e+00	7	34	101	1048576	60	8420
2026-01-07 12:36:44.91	30.41	7.37	-43.4	-44.7	20.7	0.00e+00	89	34	101	1048576	60	8332
2026-01-07 12:36:45.93	30.52	7.43	-43.4	-44.7	20.8	0.00e+00	22	34	101	1048576	60	8373
2026-01-07 12:36:46.94	30.63	7.48	-43.4	-44.6	20.8	0.00e+00	92	34	101	1048576	60	8318
2026-01-07 12:36:47.95	30.74	7.54	-43.3	-44.5	20.9	0.00e+00	6	34	101	1048576	60	8219
2026-01-07 12:36:48.96	30.85	7.60	-43.2	-44.5	21.0	0.00e+00	92	34	101	1048576	60	8153
2026-01-07 12:36:49.97	30.96	7.66	-43.1	-44.4	21.0	0.00e+00	6	34	101	1048576	60	8089
2026-01-07 12:36:50.98	31.07	7.72	-43.2	-44.5	21.0	0.00e+00	5	34	101	1048576	60	8198
2026-01-07 12:36:51.99	31.18	7.78	-43.2	-44.5	21.0	0.00e+00	0	34	101	1048576	60	8166
2026-01-07 12:36:53.00	31.30	7.84	-43.1	-44.3	21.1	0.00e+00	0	34	101	1048576	60	7999
2026-01-07 12:36:54.01	31.41	7.90	-43.0	-44.3	21.2	0.00e+00	92	34	101	1048576	60	7969
2026-01-07 12:36:55.02	31.52	7.96	-43.0	-44.3	21.2	0.00e+00	64	34	101	1048576	60	7981
2026-01-07 12:36:56.03	31.64	8.02	-43.1	-44.3	21.2	0.00e+00	91	34	101	1048576	60	8006
2026-01-07 12:36:57.04	31.75	8.08	-43.0	-44.2	21.3	0.00e+00	70	34	101	1048576	60	7909
2026-01-07 12:36:58.06	31.87	8.14	-43.1	-44.3	21.2	0.00e+00	69	34	101	1048576	60	8014
2026-01-07 12:36:59.07	31.98	8.20	-43.1	-44.4	21.2	0.00e+00	70	34	101	1048576	60	8084
2026-01-07 12:37:00.08	32.10	8.26	-43.0	-44.2	21.3	0.00e+00	69	34	101	1048576	60	7885
2026-01-07 12:37:01.09	32.21	8.32	-42.9	-44.1	21.4	0.00e+00	91	34	101	1048576	60	7787
2026-01-07 12:37:02.10	32.33	8.37	-42.9	-44.1	21.4	0.00e+00	2	34	101	1048576	60	7808
2026-01-07 12:37:03.11	32.45	8.43	-42.8	-44.0	21.4	0.00e+00	90	34	101	1048576	60	7715
2026-01-07 12:37:04.12	32.56	8.49	-42.7	-43.9	21.6	0.00e+00	18	34	101	1048576	60	7618
2026-01-07 12:37:05.13	32.68	8.55	-42.5	-43.6	21.9	0.00e+00	0	34	101	1048576	60	7381
2026-01-07 12:37:06.14	32.80	8.61	-42.5	-43.6	21.9	0.00e+00	0	34	101	1048576	60	7367
2026-01-07 12:37:07.15	32.92	8.67	-42.3	-43.5	22.0	0.00e+00	0	34	101	1048576	60	7258
2026-01-07 12:37:08.17	33.04	8.73	-42.4	-43.5	21.9	0.00e+00	0	34	101	1048576	60	7330
2026-01-07 12:37:09.18	33.16	8.79	-42.3	-43.4	22.0	0.00e+00	0	34	101	1048576	60	7230
2026-01-07 12:37:10.19	33.28	8.85	-42.4	-43.5	22.0	0.00e+00	92	34	101	1048576	60	7306
2026-01-07 12:37:11.20	33.40	8.91	-42.3	-43.4	22.0	0.00e+00	64	34	101	1048576	60	7193
2026-01-07 12:37:12.21	33.52	8.97	-42.3	-43.4	22.0	0.00e+00	14	34	101	1048576	60	7221
2026-01-07 12:37:13.22	33.64	9.03	-42.4	-43.5	21.8	0.00e+00	0	34	101	1048576	60	7274
2026-01-07 12:37:14.23	33.77	9.09	-42.3	-43.4	21.4	0.00e+00	70	34	101	1048576	60	7219
2026-01-07 12:37:15.24	33.89	9.15	-42.3	-43.3	21.4	0.00e+00	3	34	101	1048576	60	7163
2026-01-07 12:37:16.25	34.01	9.21	-42.3	-43.4	21.8	0.00e+00	12	34	101	1048576	60	7242
2026-01-07 12:37:17.26	34.14	9.28	-42.3	-43.4	22.0	0.00e+00	90	34	101	1048576	60	7233
2026-01-07 12:37:18.28	34.26	9.34	-42.3	-43.4	22.1	0.00e+00	65	34	101	1048576	60	7188
2026-01-07 12:37:19.29	34.38	9.40	-42.2	-43.3	22.1	0.00e+00	86	34	101	1048576	60	7156
2026-01-07 12:37:20.30	34.51	9.46	-42.3	-43.3	22.2	0.00e+00	11	34	101	1048576	60	7158
2026-01-07 12:37:21.31	34.64	9.52	-42.4	-43.5	22.0	0.00e+00	2	34	101	1048576	60	7287
2026-01-07 12:37:22.32	34.76	9.58	-42.3	-43.4	22.1	0.00e+00	0	34	101	1048576	60	7239
2026-01-07 12:37:23.33	34.89	9.64	-42.4	-43.6	22.0	0.00e+00	0	34	101	1048576	60	7338
2026-01-07 12:37:24.34	35.02	9.70	-42.4	-43.5	22.0	0.00e+00	92	34	101	1048576	60	7327
2026-01-07 12:37:25.35	35.14	9.76	-42.5	-43.6	21.9	0.00e+00	0	34	101	1048576	60	7417
2026-01-07 12:37:26.36	35.27	9.82	-42.5	-43.7	21.8	0.00e+00	92	34	101	1048576	60	7439
2026-01-07 12:37:27.38	35.40	9.88	-42.5	-43.7	21.9	0.00e+00	0	34	101	1048576	60	7433
2026-01-07 12:37:28.39	35.53	9.94	-42.6	-43.8	21.8	0.00e+00	71	34	101	1048576	60	7526
2026-01-07 12:37:29.40	35.66	10.00	-42.5	-43.7	21.9	0.00e+00	69	34	101	1048576	60	7448
2026-01-07 12:37:30.41	35.79	10.06	-42.6	-43.7	21.9	0.00e+00	0	34	101	1048576	60	7491
2026-01-07 12:37:31.42	35.92	10.12	-42.6	-43.8	21.8	0.00e+00	49	34	101	1048576	60	7523
2026-01-07 12:37:32.43	36.05	10.18	-42.5	-43.6	21.9	0.00e+00	70	34	101	1048576	60	7397
2026-01-07 12:37:33.44	36.18	10.24	-42.5	-43.7	21.9	0.00e+00	92	34	101	1048576	60	7445
2026-01-07 12:37:34.45	36.32	10.30	-42.3	-43.4	22.1	0.00e+00	70	34	101	1048576	60	7246
2026-01-07 12:37:35.46	36.45	10.37	-42.4	-43.5	22.1	0.00e+00	12	34	101	1048576	60	7280
2026-01-07 12:37:36.48	36.58	10.43	-42.4	-43.5	22.1	0.00e+00	8	34	101	1048576	60	7273
2026-01-07 12:37:37.49	36.72	10.49	-42.4	-43.4	22.1	0.00e+00	10	34	101	1048576	60	7252
2026-01-07 12:37:38.50	36.85	10.55	-42.5	-43.6	22.0	0.00e+00	0	34	101	1048576	60	7344
2026-01-07 12:37:39.51	36.99	10.61	-42.3	-43.4	22.1	0.00e+00	0	34	101	1048576	60	7220
2026-01-07 12:37:40.52	37.12	10.67	-42.4	-43.5	22.1	0.00e+00	90	34	101	1048576	60	7254
2026-01-07 12:37:41.53	37.26	10.73	-42.4	-43.6	22.1	0.00e+00	2	34	101	1048576	60	7340
2026-01-07 12:37:42.54	37.39	10.79	-42.5	-43.7	22.0	0.00e+00	0	34	101	1048576	60	7441
2026-01-07 12:37:43.55	37.53	10.85	-42.5	-43.6	21.9	0.00e+00	0	34	101	1048576	60	7399
2026-01-07 12:37:44.57	37.67	10.91	-42.4	-43.5	22.0	0.00e+00	0	34	101	1048576	60	7294
2026-01-07 12:37:45.57	37.81	10.97	-42.6	-43.7	21.9	0.00e+00	2	34	101	1048576	60	7504
2026-01-07 12:37:46.59	37.95	11.04	-42.5	-43.6	22.0	0.00e+00	0	34	101	1048576	60	7345
2026-01-07 12:37:47.60	38.09	11.10	-42.3	-43.4	22.2	0.00e+00	92	34	101	1048576	60	7217
2026-01-07 12:37:48.61	38.23	11.16	-42.3	-43.4	22.2	0.00e+00	0	34	101	1048576	60	7186
2026-01-07 12:37:49.62	38.37	11.22	-42.2	-43.2	22.4	0.00e+00	92	34	101	1048576	60	7058
2026-01-07 12:37:50.63	38.51	11.28	-42.1	-43.1	22.4	0.00e+00	0	34	101	1048576	60	6975
2026-01-07 12:37:51.64	38.65	11.34	-42.0	-43.0	22.6	0.00e+00	10	34	101	1048576	60	6894
2026-01-07 12:37:52.65	38.79	11.40	-42.0	-43.0	22.6	0.00e+00	11	34	101	1048576	60	6880
2026-01-07 12:37:53.66	38.93	11.46	-42.0	-43.0	22.5	0.00e+00	70	34	101	1048576	60	6901
2026-01-07 12:37:54.68	39.08	11.52	-42.0	-43.1	22.5	0.00e+00	69	34	101	1048576	60	6940
2026-01-07 12:37:55.69	39.22	11.58	-42.1	-43.1	22.3	0.00e+00	0	34	101	1048576	60	6971
2026-01-07 12:37:56.70	39.37	11.64	-42.1	-43.2	22.5	0.00e+00	92	34	101	1048576	60	7019
2026-01-07 12:37:57.71	39.51	11.71	-42.1	-43.2	22.4	0.00e+00	6	34	101	1048576	60	7025
2026-01-07 12:37:58.72	39.66	11.77	-42.1	-43.2	22.4	0.00e+00	7	34	101	1048576	60	7042
2026-01-07 12:37:59.73	39.80	11.83	-42.2	-43.3	22.3	0.00e+00	0	34	101	1048576	60	7117
2026-01-07 12:38:00.74	39.95	11.89	-42.0	-43.0	22.5	0.00e+00	0	34	101	1048576	60	6917
2026-01-07 12:38:01.75	40.10	11.95	-42.1	-43.1	22.5	0.00e+00	90	34	101	1048576	60	7007
2026-01-07 12:38:02.76	40.25	12.01	-42.1	-43.1	22.5	0.00e+00	6	34	101	1048576	60	6995
2026-01-07 12:38:03.77	40.39	12.07	-41.9	-42.9	22.7	0.00e+00	92	34	101	1048576	60	6817
2026-01-07 12:38:04.78	40.54	12.13	-42.0	-43.0	22.6	0.00e+00	0	34	101	1048576	60	6882
2026-01-07 12:38:05.79	40.69	12.19	-41.9	-42.9	22.6	0.00e+00	69	34	101	1048576	60	6846
2026-01-07 12:38:06.81	40.85	12.25	-41.9	-42.9	22.8	0.00e+00	0	34	101	1048576	60	6810
2026-01-07 12:38:07.82	41.00	12.31	-41.9	-42.9	22.7	0.00e+00	0	34	101	1048576	60	6787
2026-01-07 12:38:08.83	41.15	12.37	-41.9	-42.9	22.7	0.00e+00	0	34	101	1048576	60	6794
2026-01-07 12:38:09.84	41.30	12.43	-41.8	-42.8	22.8	0.00e+00	0	34	101	1048576	60	6751
2026-01-07 12:38:10.85	41.45	12.49	-41.9	-42.9	22.7	0.00e+00	91	34	101	1048576	60	6807
2026-01-07 12:38:11.86	41.61	12.56	-41.8	-42.8	22.8	0.00e+00	65	34	101	1048576	60	6721
2026-01-07 12:38:12.87	41.76	12.62	-41.7	-42.7	22.9	0.00e+00	91	34	101	1048576	60	6662
2026-01-07 12:38:13.88	41.91	12.68	-41.7	-42.7	23.0	0.00e+00	19	34	101	1048576	60	6636
2026-01-07 12:38:14.89	42.07	12.74	-41.6	-42.6	23.0	0.00e+00	7	34	101	1048576	60	6587
2026-01-07 12:38:15.91	42.23	12.80	-41.8	-42.8	22.8	0.00e+00	0	34	101	1048576	60	6735
2026-01-07 12:38:16.92	42.38	12.86	-41.9	-42.9	22.7	0.00e+00	7	34	101	1048576	60	6807
2026-01-07 12:38:17.93	42.54	12.92	-41.8	-42.8	22.8	0.00e+00	90	35	101	1048576	60	6711
2026-01-07 12:38:18.94	42.70	12.98	-41.7	-42.7	23.0	0.00e+00	0	34	101	1048576	60	6625
2026-01-07 12:38:19.95	42.86	13.04	-41.6	-42.6	23.0	0.00e+00	92	34	101	1048576	60	6566
2026-01-07 12:38:20.96	43.01	13.10	-41.7	-42.7	23.0	0.00e+00	6	34	101	1048576	60	6620
2026-01-07 12:38:21.97	43.17	13.16	-41.6	-42.6	22.9	0.00e+00	0	34	101	1048576	60	6583
2026-01-07 12:38:22.98	43.33	13.22	-41.6	-42.6	22.9	0.00e+00	70	35	101	1048576	60	6558
2026-01-07 12:38:23.99	43.50	13.28	-41.5	-42.5	23.2	0.00e+00	0	34	101	1048576	60	6469
2026-01-07 12:38:25.00	43.66	13.34	-41.2	-42.2	23.4	0.00e+00	92	35	101	1048576	60	6251
2026-01-07 12:38:26.02	43.82	13.40	-41.2	-42.1	23.4	0.00e+00	71	35	101	1048576	60	6218
2026-01-07 12:38:27.03	43.98	13.46	-41.1	-42.0	23.5	0.00e+00	92	35	101	1048576	60	6140
2026-01-07 12:38:28.04	44.15	13.52	-41.0	-41.9	23.5	0.00e+00	71	35	101	1048576	60	6100
2026-01-07 12:38:29.05	44.31	13.58	-41.2	-42.1	23.4	0.00e+00	9	35	101	1048576	60	6216
2026-01-07 12:38:30.06	44.48	13.64	-41.1	-42.0	23.5	0.00e+00	72	35	101	1048576	60	6133
2026-01-07 12:38:31.07	44.64	13.70	-41.1	-42.1	23.5	0.00e+00	72	35	101	1048576	60	6181
2026-01-07 12:38:32.08	44.81	13.76	-41.1	-42.1	23.5	0.00e+00	76	34	101	1048576	60	6199
2026-01-07 12:38:33.09	44.97	13.82	-41.0	-41.9	23.6	0.00e+00	0	34	101	1048576	60	6088
2026-01-07 12:38:34.10	45.14	13.88	-41.1	-42.0	23.6	0.00e+00	92	34	101	1048576	60	6159
2026-01-07 12:38:35.11	45.31	13.94	-41.1	-42.0	23.5	0.00e+00	9	34	101	1048576	60	6159
2026-01-07 12:38:36.13	45.48	14.00	-40.9	-41.9	23.6	0.00e+00	92	34	101	1048576	60	6038
2026-01-07 12:38:37.14	45.65	14.05	-40.8	-41.8	23.8	0.00e+00	0	34	101	1048576	60	5972
2026-01-07 12:38:38.15	45.82	14.11	-40.9	-41.8	23.8	0.00e+00	0	34	101	1048576	60	5976
2026-01-07 12:38:39.16	45.99	14.17	-40.7	-41.6	23.9	0.00e+00	0	34	101	1048576	60	5854
2026-01-07 12:38:40.17	46.16	14.23	-40.6	-41.5	24.0	0.00e+00	0	34	101	1048576	60	5820
2026-01-07 12:38:41.18	46.33	14.29	-40.6	-41.5	23.9	0.00e+00	92	34	101	1048576	60	5800
2026-01-07 12:38:42.19	46.50	14.35	-40.7	-41.6	23.9	0.00e+00	0	34	101	1048576	60	5842
2026-01-07 12:38:43.20	46.68	14.41	-40.7	-41.6	23.9	0.00e+00	92	34	101	1048576	60	5880
2026-01-07 12:38:44.22	46.85	14.47	-40.6	-41.5	24.0	0.00e+00	0	34	101	1048576	60	5809
2026-01-07 12:38:45.23	47.03	14.52	-40.7	-41.6	23.8	0.00e+00	0	34	101	1048576	60	5888
2026-01-07 12:38:46.24	47.20	14.58	-40.8	-41.7	23.7	0.00e+00	9	35	101	1048576	60	5934
2026-01-07 12:38:47.25	47.38	14.64	-40.8	-41.7	23.8	0.00e+00	72	34	101	1048576	60	5938
2026-01-07 12:38:48.26	47.55	14.70	-40.8	-41.8	23.7	0.00e+00	71	35	101	1048576	60	5969
2026-01-07 12:38:49.27	47.73	14.76	-40.9	-41.9	23.6	0.00e+00	9	34	101	1048576	60	6035
2026-01-07 12:38:50.28	47.91	14.82	-41.0	-42.0	23.6	0.00e+00	91	34	101	1048576	60	6111
2026-01-07 12:38:51.29	48.09	14.87	-40.8	-41.7	23.9	0.00e+00	0	34	101	1048576	60	5946
2026-01-07 12:38:52.30	48.27	14.93	-40.7	-41.6	23.9	0.00e+00	46	35	101	1048576	60	5832
2026-01-07 12:38:53.32	48.45	14.99	-40.7	-41.6	23.9	0.00e+00	9	35	101	1048576	60	5868
2026-01-07 12:38:54.33	48.63	15.05	-40.7	-41.6	23.9	0.00e+00	0	34	101	1048576	60	5896
2026-01-07 12:38:55.34	48.81	15.10	-40.7	-41.7	23.9	0.00e+00	92	35	101	1048576	60	5898
2026-01-07 12:38:56.35	48.99	15.16	-41.0	-41.9	23.7	0.00e+00	0	34	101	1048576	60	6057
2026-01-07 12:38:57.36	49.17	15.22	-40.9	-41.8	23.7	0.00e+00	90	34	101	1048576	60	6024
2026-01-07 12:38:58.37	49.36	15.27	-40.9	-41.9	23.7	0.00e+00	0	34	101	1048576	60	6035
2026-01-07 12:38:59.38	49.54	15.33	-41.1	-42.0	23.6	0.00e+00	0	34	101	1048576	60	6157
2026-01-07 12:39:00.39	49.73	15.39	-41.1	-42.1	23.5	0.00e+00	0	34	101	1048576	60	6190
2026-01-07 12:39:01.40	49.91	15.44	-41.3	-42.2	23.4	0.00e+00	73	35	101	1048576	60	6311
2026-01-07 12:39:02.41	50.10	15.50	-41.1	-42.0	23.5	0.00e+00	0	34	101	1048576	60	6167
2026-01-07 12:39:03.42	50.28	15.56	-41.2	-42.1	23.4	0.00e+00	0	34	101	1048576	60	6231
2026-01-07 12:39:04.43	50.47	15.61	-41.2	-42.1	23.5	0.00e+00	90	35	101	1048576	60	6244
2026-01-07 12:39:05.44	50.66	15.67	-41.3	-42.2	23.4	0.00e+00	73	35	101	1048576	60	6282
2026-01-07 12:39:06.45	50.85	15.72	-41.3	-42.2	23.4	0.00e+00	92	35	101	1048576	60	6299
2026-01-07 12:39:07.47	51.04	15.78	-41.4	-42.3	23.3	0.00e+00	0	34	101	1048576	60	6365
2026-01-07 12:39:08.48	51.23	15.83	-41.4	-42.4	23.3	0.00e+00	68	34	101	1048576	60	6404
2026-01-07 12:39:09.49	51.42	15.89	-41.4	-42.4	23.3	0.00e+00	0	35	101	1048576	60	6421
2026-01-07 12:39:10.50	51.61	15.94	-41.5	-42.5	23.3	0.00e+00	13	34	101	1048576	60	6471
2026-01-07 12:39:11.51	51.80	16.00	-41.6	-42.6	23.1	0.00e+00	92	34	101	1048576	60	6584
2026-01-07 12:39:12.52	52.00	16.05	-41.5	-42.5	23.2	0.00e+00	12	34	101	1048576	60	6516
2026-01-07 12:39:13.53	52.19	16.11	-41.7	-42.7	23.0	0.00e+00	92	34	101	1048576	60	6648
2026-01-07 12:39:14.55	52.39	16.16	-41.8	-42.8	22.8	0.00e+00	0	35	101	1048576	60	6726
2026-01-07 12:39:15.56	52.58	16.22	-41.8	-42.8	22.9	0.00e+00	0	34	101	1048576	60	6718
2026-01-07 12:39:16.57	52.78	16.27	-41.8	-42.8	23.0	0.00e+00	2	34	101	1048576	60	6742
2026-01-07 12:39:17.58	52.97	16.33	-41.9	-42.9	22.7	0.00e+00	2	34	101	1048576	60	6781
2026-01-07 12:39:18.59	53.17	16.38	-41.8	-42.8	22.9	0.00e+00	92	34	101	1048576	60	6710
2026-01-07 12:39:19.60	53.37	16.43	-41.9	-42.9	22.7	0.00e+00	0	34	101	1048576	60	6790
2026-01-07 12:39:20.61	53.56	16.48	-41.9	-42.9	22.8	0.00e+00	92	34	101	1048576	60	6821
2026-01-07 12:39:21.62	53.76	16.54	-41.9	-42.9	22.9	0.00e+00	0	34	101	1048576	60	6791
2026-01-07 12:39:22.63	53.96	16.59	-42.0	-43.0	22.8	0.00e+00	0	34	101	1048576	60	6876
2026-01-07 12:39:23.64	54.16	16.64	-42.1	-43.1	22.7	0.00e+00	0	35	101	1048576	60	6973
2026-01-07 12:39:24.66	54.37	16.70	-42.1	-43.1	22.6	0.00e+00	71	35	101	1048576	60	6995
2026-01-07 12:39:25.67	54.57	16.75	-42.2	-43.2	22.6	0.00e+00	64	35	101	1048576	60	7036
2026-01-07 12:39:26.68	54.77	16.80	-42.1	-43.2	22.6	0.00e+00	70	35	101	1048576	60	7008
2026-01-07 12:39:27.69	54.97	16.85	-42.2	-43.2	22.6	0.00e+00	90	35	101	1048576	60	7043
2026-01-07 12:39:28.70	55.18	16.90	-42.2	-43.3	22.5	0.00e+00	10	35	101	1048576	60	7106
2026-01-07 12:39:29.71	55.38	16.95	-42.4	-43.4	22.4	0.00e+00	92	35	101	1048576	60	7228
2026-01-07 12:39:30.72	55.59	17.00	-42.3	-43.4	22.4	0.00e+00	0	35	101	1048576	60	7187
2026-01-07 12:39:31.73	55.79	17.05	-42.5	-43.5	22.3	0.00e+00	0	34	101	1048576	60	7315
2026-01-07 12:39:32.74	56.00	17.10	-42.5	-43.6	22.2	0.00e+00	0	34	101	1048576	60	7345
2026-01-07 12:39:33.75	56.21	17.15	-42.6	-43.7	22.0	0.00e+00	0	34	101	1048576	60	7424
2026-01-07 12:39:34.76	56.41	17.20	-42.7	-43.8	22.0	0.00e+00	92	34	101	1048576	60	7583
2026-01-07 12:39:35.78	56.62	17.25	-42.9	-44.0	21.8	0.00e+00	0	34	101	1048576	60	7724
2026-01-07 12:39:36.79	56.83	17.30	-42.9	-44.1	21.8	0.00e+00	92	35	101	1048576	60	7794
2026-01-07 12:39:37.80	57.04	17.35	-42.9	-44.1	21.7	0.00e+00	5	34	101	1048576	60	7794
2026-01-07 12:39:38.81	57.25	17.40	-42.7	-43.8	22.0	0.00e+00	0	34	101	1048576	60	7575
2026-01-07 12:39:39.82	57.46	17.45	-42.6	-43.6	22.2	0.00e+00	0	34	101	1048576	60	7410
2026-01-07 12:39:40.83	57.68	17.50	-42.6	-43.7	22.1	0.00e+00	67	35	101	1048576	60	7441
2026-01-07 12:39:41.84	57.89	17.55	-42.5	-43.6	22.2	0.00e+00	75	35	101	1048576	60	7392
2026-01-07 12:39:42.85	58.10	17.59	-42.6	-43.7	22.1	0.00e+00	21	34	101	1048576	60	7438
2026-01-07 12:39:43.86	58.32	17.64	-42.6	-43.7	22.2	0.00e+00	92	34	101	1048576	60	7474
2026-01-07 12:39:44.87	58.53	17.69	-42.5	-43.6	22.0	0.00e+00	67	35	101	1048576	60	7398
2026-01-07 12:39:45.88	58.75	17.74	-42.7	-43.8	22.1	0.00e+00	6	34	101	1048576	60	7520
2026-01-07 12:39:46.89	58.96	17.78	-42.5	-43.6	21.9	0.00e+00	13	34	101	1048576	60	7358
2026-01-07 12:39:47.91	59.18	17.83	-42.5	-43.6	22.3	0.00e+00	5	35	101	1048576	60	7381
2026-01-07 12:39:48.92	59.40	17.87	-42.4	-43.4	22.4	0.00e+00	66	34	101	1048576	60	7222
2026-01-07 12:39:49.93	59.61	17.92	-42.4	-43.5	22.4	0.00e+00	6	34	101	1048576	60	7279
2026-01-07 12:39:50.94	59.83	17.97	-42.5	-43.5	22.3	0.00e+00	92	35	101	1048576	60	7320
2026-01-07 12:39:51.95	60.05	18.01	-42.4	-43.5	22.3	0.00e+00	6	34	101	1048576	60	7292
2026-01-07 12:39:52.96	60.27	18.05	-42.4	-43.5	22.4	0.00e+00	92	35	101	1048576	60	7312
2026-01-07 12:39:53.97	60.49	18.10	-42.2	-43.3	22.5	0.00e+00	0	35	101	1048576	60	7124
2026-01-07 12:39:54.98	60.71	18.14	-42.1	-43.1	22.7	0.00e+00	73	35	101	1048576	60	7007
2026-01-07 12:39:55.99	60.93	18.19	-42.1	-43.2	22.7	0.00e+00	0	35	101	1048576	60	7020
2026-01-07 12:39:57.00	61.16	18.23	-41.8	-42.8	23.0	0.00e+00	74	34	101	1048576	60	6741
2026-01-07 12:39:58.01	61.38	18.27	-41.7	-42.7	23.1	0.00e+00	92	34	101	1048576	60	6632
2026-01-07 12:39:59.03	61.60	18.32	-41.7	-42.7	22.9	0.00e+00	74	34	101	1048576	60	6664
2026-01-07 12:40:00.04	61.83	18.36	-41.7	-42.6	23.0	0.00e+00	92	34	101	1048576	60	6610
2026-01-07 12:40:01.05	62.05	18.40	-41.7	-42.7	22.8	0.00e+00	74	34	101	1048576	60	6649
2026-01-07 12:40:02.06	62.28	18.44	-41.7	-42.7	23.0	0.00e+00	8	34	101	1048576	60	6661
2026-01-07 12:40:03.07	62.50	18.48	-41.7	-42.7	23.0	0.00e+00	7	34	101	1048576	60	6672
2026-01-07 12:40:04.08	62.73	18.52	-41.8	-42.8	23.0	0.00e+00	9	35	101	1048576	60	6716
2026-01-07 12:40:05.09	62.96	18.56	-42.0	-43.0	22.7	0.00e+00	91	34	101	1048576	60	6903
2026-01-07 12:40:06.10	63.18	18.60	-41.8	-42.8	22.9	0.00e+00	8	35	101	1048576	60	6756
2026-01-07 12:40:07.11	63.41	18.64	-41.9	-43.0	22.7	0.00e+00	90	34	101	1048576	60	6892
2026-01-07 12:40:08.12	63.64	18.68	-41.9	-43.0	22.8	0.00e+00	0	34	101	1048576	60	6874
2026-01-07 12:40:09.13	63.87	18.72	-42.0	-43.1	22.7	0.00e+00	0	34	101	1048576	60	6973
2026-01-07 12:40:10.14	64.10	18.76	-42.2	-43.3	22.6	0.00e+00	0	34	101	1048576	60	7095
2026-01-07 12:40:11.15	64.33	18.80	-42.2	-43.2	22.7	0.00e+00	0	35	101	1048576	60	7068
2026-01-07 12:40:12.17	64.56	18.84	-41.8	-42.9	22.9	0.00e+00	0	35	101	1048576	60	6772
2026-01-07 12:40:13.18	64.80	18.87	-41.8	-42.8	22.9	0.00e+00	0	35	101	1048576	60	6753
2026-01-07 12:40:14.19	65.03	18.91	-41.8	-42.7	23.0	0.00e+00	92	35	101	1048576	60	6692
2026-01-07 12:40:15.20	65.26	18.95	-41.8	-42.8	22.8	0.00e+00	0	34	101	1048576	60	6737
2026-01-07 12:40:16.21	65.49	18.98	-41.6	-42.6	23.1	0.00e+00	74	34	101	1048576	60	6587
2026-01-07 12:40:17.22	65.73	19.02	-41.7	-42.7	23.0	0.00e+00	72	34	101	1048576	60	6672
2026-01-07 12:40:18.23	65.96	19.06	-41.8	-42.8	23.0	0.00e+00	74	35	101	1048576	60	6713
2026-01-07 12:40:19.24	66.20	19.09	-41.6	-42.6	23.2	0.00e+00	4	34	101	1048576	60	6561
2026-01-07 12:40:20.25	66.43	19.12	-41.7	-42.7	23.1	0.00e+00	74	35	101	1048576	60	6655
2026-01-07 12:40:21.27	66.67	19.16	-41.7	-42.7	23.0	0.00e+00	92	35	101	1048576	60	6666
2026-01-07 12:40:22.28	66.91	19.19	-41.9	-42.9	22.9	0.00e+00	8	35	101	1048576	60	6784
2026-01-07 12:40:23.29	67.14	19.23	-41.8	-42.8	23.0	0.00e+00	91	35	101	1048576	60	6723
2026-01-07 12:40:24.30	67.38	19.26	-41.8	-42.8	22.8	0.00e+00	9	35	101	1048576	60	6739
2026-01-07 12:40:25.31	67.62	19.29	-41.7	-42.7	22.9	0.00e+00	8	34	101	1048576	60	6674
2026-01-07 12:40:26.32	67.86	19.32	-41.9	-42.9	22.9	0.00e+00	0	34	101	1048576	60	6783
2026-01-07 12:40:27.33	68.10	19.35	-41.7	-42.7	23.1	0.00e+00	0	34	101	1048576	60	6643
2026-01-07 12:40:28.34	68.34	19.39	-41.6	-42.6	23.2	0.00e+00	92	35	101	1048576	60	6588
2026-01-07 12:40:29.35	68.57	19.42	-41.6	-42.6	23.2	0.00e+00	0	34	101	1048576	60	6542
2026-01-07 12:40:30.36	68.82	19.45	-41.6	-42.5	23.1	0.00e+00	92	34	101	1048576	60	6530
2026-01-07 12:40:31.37	69.06	19.48	-41.4	-42.4	23.4	0.00e+00	0	35	101	1048576	60	6409
2026-01-07 12:40:32.38	69.30	19.51	-41.6	-42.6	23.3	0.00e+00	0	34	101	1048576	60	6550
2026-01-07 12:40:33.39	69.54	19.53	-41.5	-42.4	23.3	0.00e+00	0	35	101	1048576	60	6450
2026-01-07 12:40:34.41	69.78	19.56	-41.5	-42.5	23.3	0.00e+00	0	35	101	1048576	60	6495
2026-01-07 12:40:35.42	70.03	19.59	-41.5	-42.5	23.2	0.00e+00	75	35	101	1048576	60	6518
2026-01-07 12:40:36.43	70.27	19.62	-41.5	-42.5	23.1	0.00e+00	0	35	101	1048576	60	6532
2026-01-07 12:40:37.44	70.51	19.64	-41.7	-42.7	23.1	0.00e+00	92	34	101	1048576	60	6618
2026-01-07 12:40:38.45	70.76	19.67	-41.6	-42.5	23.2	0.00e+00	68	35	101	1048576	60	6537
2026-01-07 12:40:39.46	71.00	19.70	-41.4	-42.4	23.4	0.00e+00	92	35	101	1048576	60	6424
2026-01-07 12:40:40.47	71.25	19.72	-41.4	-42.4	23.5	0.00e+00	70	35	101	1048576	60	6419
2026-01-07 12:40:41.48	71.49	19.75	-41.3	-42.3	23.5	0.00e+00	0	35	101	1048576	60	6336
2026-01-07 12:40:42.49	71.74	19.77	-41.3	-42.2	23.5	0.00e+00	0	35	101	1048576	60	6308
2026-01-07 12:40:43.50	71.98	19.80	-41.5	-42.4	23.4	0.00e+00	0	35	101	1048576	60	6430
2026-01-07 12:40:44.52	72.23	19.82	-41.4	-42.4	23.3	0.00e+00	92	35	101	1048576	60	6418
2026-01-07 12:40:45.53	72.48	19.84	-41.6	-42.6	23.2	0.00e+00	12	35	101	1048576	60	6575
2026-01-07 12:40:46.54	72.72	19.86	-41.8	-42.8	23.0	0.00e+00	15	34	101	1048576	60	6716
2026-01-07 12:40:47.55	72.97	19.89	-42.1	-43.1	22.7	0.00e+00	2	34	101	1048576	60	6955
2026-01-07 12:40:48.56	73.22	19.91	-42.2	-43.3	22.6	0.00e+00	0	34	101	1048576	60	7116
2026-01-07 12:40:49.57	73.47	19.93	-42.3	-43.4	22.5	0.00e+00	0	35	101	1048576	60	7192
2026-01-07 12:40:50.58	73.72	19.95	-42.4	-43.5	22.3	0.00e+00	2	35	101	1048576	60	7275
2026-01-07 12:40:51.59	73.96	19.97	-42.4	-43.5	22.4	0.00e+00	91	34	101	1048576	60	7256
2026-01-07 12:40:52.60	74.21	19.99	-42.1	-43.1	22.8	0.00e+00	72	35	101	1048576	60	6954
2026-01-07 12:40:53.62	74.46	20.01	-42.0	-43.0	22.8	0.00e+00	92	35	101	1048576	60	6906
2026-01-07 12:40:54.63	74.71	20.03	-41.8	-42.8	23.0	0.00e+00	71	34	101	1048576	60	6713
2026-01-07 12:40:55.64	74.96	20.04	-41.7	-42.6	23.2	0.00e+00	9	35	101	1048576	60	6613
2026-01-07 12:40:56.65	75.21	20.06	-41.6	-42.6	23.2	0.00e+00	73	35	101	1048576	60	6568
2026-01-07 12:40:57.66	75.46	20.08	-41.7	-42.7	23.1	0.00e+00	72	34	101	1048576	60	6655
2026-01-07 12:40:58.67	75.72	20.09	-41.7	-42.7	23.1	0.00e+00	72	34	101	1048576	60	6641
2026-01-07 12:40:59.68	75.97	20.11	-41.9	-42.8	22.9	0.00e+00	0	35	101	1048576	60	6762
2026-01-07 12:41:00.69	76.22	20.13	-42.0	-43.0	22.9	0.00e+00	92	34	101	1048576	60	6866
2026-01-07 12:41:01.70	76.47	20.14	-42.2	-43.3	22.6	0.00e+00	5	35	101	1048576	60	7115
2026-01-07 12:41:02.72	76.72	20.15	-42.2	-43.2	22.7	0.00e+00	75	34	101	1048576	60	7039
2026-01-07 12:41:03.73	76.98	20.17	-42.2	-43.2	22.6	0.00e+00	9	35	101	1048576	60	7035
2026-01-07 12:41:04.74	77.23	20.18	-42.2	-43.2	22.6	0.00e+00	5	34	101	1048576	60	7054
2026-01-07 12:41:05.75	77.48	20.19	-42.1	-43.1	22.7	0.00e+00	59	34	101	1048576	60	6981
2026-01-07 12:41:06.76	77.73	20.20	-42.1	-43.1	22.7	0.00e+00	5	35	101	1048576	60	7005
2026-01-07 12:41:07.77	77.99	20.22	-42.1	-43.2	22.7	0.00e+00	92	35	101	1048576	60	7008
2026-01-07 12:41:08.78	78.24	20.23	-42.3	-43.3	22.5	0.00e+00	0	34	101	1048576	60	7147
2026-01-07 12:41:09.79	78.49	20.24	-42.4	-43.5	22.4	0.00e+00	90	35	101	1048576	60	7298
2026-01-07 12:41:10.80	78.74	20.25	-42.6	-43.7	22.2	0.00e+00	0	35	101	1048576	60	7456
2026-01-07 12:41:11.82	79.00	20.26	-42.6	-43.7	22.1	0.00e+00	0	35	101	1048576	60	7446
2026-01-07 12:41:12.83	79.25	20.27	-42.6	-43.7	22.1	0.00e+00	0	35	101	1048576	60	7479
2026-01-07 12:41:13.84	79.51	20.27	-42.7	-43.8	22.1	0.00e+00	5	35	101	1048576	60	7581
2026-01-07 12:41:14.85	79.76	20.28	-42.5	-43.6	22.3	0.00e+00	90	35	101	1048576	60	7409
2026-01-07 12:41:15.86	80.02	20.29	-42.5	-43.6	22.3	0.00e+00	66	35	101	1048576	60	7399
2026-01-07 12:41:16.87	80.27	20.29	-42.4	-43.5	22.4	0.00e+00	90	35	101	1048576	60	7331
2026-01-07 12:41:17.88	80.52	20.30	-42.5	-43.6	22.2	0.00e+00	12	35	101	1048576	60	7399
2026-01-07 12:41:18.89	80.78	20.31	-42.6	-43.7	22.3	0.00e+00	6	35	101	1048576	60	7481
2026-01-07 12:41:19.90	81.03	20.31	-42.3	-43.5	22.4	0.00e+00	13	35	101	1048576	60	7265
2026-01-07 12:41:20.92	81.29	20.31	-42.3	-43.4	22.3	0.00e+00	12	35	101	1048576	60	7242
2026-01-07 12:41:21.93	81.54	20.32	-42.1	-43.2	22.6	0.00e+00	92	35	101	1048576	60	7026
2026-01-07 12:41:22.94	81.80	20.32	-42.0	-43.0	22.8	0.00e+00	0	34	101	1048576	60	6891
2026-01-07 12:41:23.95	82.05	20.32	-42.0	-43.0	22.8	0.00e+00	92	34	101	1048576	60	6888
2026-01-07 12:41:24.96	82.31	20.33	-42.0	-43.0	22.9	0.00e+00	7	35	101	1048576	60	6875
2026-01-07 12:41:25.97	82.56	20.33	-41.7	-42.6	23.1	0.00e+00	37	34	101	1048576	60	6613
2026-01-07 12:41:26.98	82.82	20.33	-41.6	-42.6	23.2	0.00e+00	0	34	101	1048576	60	6595
2026-01-07 12:41:27.99	83.07	20.33	-41.6	-42.6	23.2	0.00e+00	0	34	101	1048576	60	6562
2026-01-07 12:41:29.00	83.33	20.33	-41.7	-42.7	23.0	0.00e+00	73	35	101	1048576	60	6658
2026-01-07 12:41:30.02	83.58	20.33	-41.9	-42.9	22.8	0.00e+00	0	35	101	1048576	60	6824
2026-01-07 12:41:31.03	83.84	20.33	-42.2	-43.2	22.6	0.00e+00	90	35	101	1048576	60	7070
2026-01-07 12:41:32.04	84.09	20.32	-42.3	-43.4	22.0	0.00e+00	8	35	101	1048576	60	7192
2026-01-07 12:41:33.05	84.35	20.32	-42.4	-43.4	22.4	0.00e+00	92	35	101	1048576	60	7221
2026-01-07 12:41:34.06	84.60	20.32	-42.3	-43.3	22.4	0.00e+00	73	35	101	1048576	60	7170
2026-01-07 12:41:35.07	84.86	20.31	-42.2	-43.2	22.5	0.00e+00	73	35	101	1048576	60	7084
2026-01-07 12:41:36.08	85.11	20.31	-42.2	-43.3	22.6	0.00e+00	73	35	101	1048576	60	7097
2026-01-07 12:41:37.09	85.37	20.31	-42.1	-43.1	22.7	0.00e+00	0	35	101	1048576	60	6939
2026-01-07 12:41:38.10	85.62	20.30	-42.2	-43.3	22.5	0.00e+00	92	35	101	1048576	60	7119
2026-01-07 12:41:39.11	85.87	20.29	-42.2	-43.2	22.6	0.00e+00	13	35	101	1048576	60	7065
2026-01-07 12:41:40.12	86.13	20.29	-42.3	-43.3	22.6	0.00e+00	90	35	101	1048576	60	7151
2026-01-07 12:41:41.14	86.39	20.28	-42.3	-43.4	22.5	0.00e+00	0	35	101	1048576	60	7191
2026-01-07 12:41:42.15	86.64	20.27	-42.3	-43.4	22.5	0.00e+00	0	35	101	1048576	60	7185
2026-01-07 12:41:43.16	86.89	20.26	-42.4	-43.5	22.4	0.00e+00	0	35	101	1048576	60	7311
2026-01-07 12:41:44.17	87.15	20.26	-42.3	-43.3	22.5	0.00e+00	0	35	101	1048576	60	7158
2026-01-07 12:41:45.18	87.40	20.25	-42.2	-43.3	22.5	0.00e+00	92	35	101	1048576	60	7098
2026-01-07 12:41:46.19	87.65	20.24	-42.3	-43.4	22.5	0.00e+00	0	35	101	1048576	60	7217
2026-01-07 12:41:47.20	87.91	20.23	-42.3	-43.4	22.5	0.00e+00	91	35	101	1048576	60	7174
2026-01-07 12:41:48.21	88.16	20.22	-42.2	-43.3	22.6	0.00e+00	0	35	101	1048576	60	7097
2026-01-07 12:41:49.22	88.41	20.20	-41.8	-42.8	23.1	0.00e+00	84	35	101	1048576	60	6752
2026-01-07 12:41:50.23	88.67	20.19	-41.6	-42.5	23.3	0.00e+00	74	35	101	1048576	60	6539
2026-01-07 12:41:51.24	88.92	20.18	-41.5	-42.5	23.3	0.00e+00	8	35	101	1048576	60	6476
2026-01-07 12:41:52.25	89.17	20.17	-41.5	-42.4	23.3	0.00e+00	90	35	101	1048576	60	6428
2026-01-07 12:41:53.27	89.43	20.15	-41.5	-42.4	23.2	0.00e+00	10	34	101	1048576	60	6433
2026-01-07 12:41:54.28	89.68	20.14	-41.7	-42.7	23.1	0.00e+00	91	34	101	1048576	60	6619
2026-01-07 12:41:55.29	89.93	20.12	-41.8	-42.8	22.9	0.00e+00	0	34	101	1048576	60	6720
2026-01-07 12:41:56.30	90.18	20.11	-41.9	-42.9	22.8	0.00e+00	78	34	101	1048576	60	6834
2026-01-07 12:41:57.31	90.43	20.09	-42.1	-43.1	22.7	0.00e+00	0	35	101	1048576	60	6976
2026-01-07 12:41:58.32	90.68	20.08	-41.9	-43.0	22.9	0.00e+00	6	35	101	1048576	60	6863
2026-01-07 12:41:59.33	90.93	20.06	-41.9	-43.0	22.9	0.00e+00	26	35	101	1048576	60	6855
2026-01-07 12:42:00.34	91.18	20.04	-41.7	-42.6	23.1	0.00e+00	0	35	101	1048576	60	6615
2026-01-07 12:42:01.35	91.43	20.03	-41.5	-42.5	23.3	0.00e+00	92	35	101	1048576	60	6518
2026-01-07 12:42:02.37	91.69	20.01	-41.4	-42.3	23.5	0.00e+00	0	35	101	1048576	60	6358
2026-01-07 12:42:03.38	91.94	19.99	-41.2	-42.2	23.6	0.00e+00	29	35	101	1048576	60	6248
2026-01-07 12:42:04.39	92.19	19.97	-41.1	-42.0	23.6	0.00e+00	73	35	101	1048576	60	6147
2026-01-07 12:42:05.40	92.44	19.95	-41.0	-41.9	23.7	0.00e+00	0	35	101	1048576	60	6047
2026-01-07 12:42:06.41	92.68	19.93	-41.0	-41.9	23.7	0.00e+00	0	35	101	1048576	60	6071
2026-01-07 12:42:07.42	92.93	19.91	-40.9	-41.8	23.8	0.00e+00	0	34	101	1048576	60	5996
2026-01-07 12:42:08.43	93.18	19.89	-40.9	-41.8	23.8	0.00e+00	91	35	101	1048576	60	5994
2026-01-07 12:42:09.44	93.43	19.86	-40.7	-41.6	24.0	0.00e+00	69	35	101	1048576	60	5864
2026-01-07 12:42:10.45	93.68	19.84	-40.7	-41.6	24.0	0.00e+00	92	35	101	1048576	60	5875
2026-01-07 12:42:11.46	93.92	19.82	-40.9	-41.8	23.9	0.00e+00	0	35	101	1048576	60	5997
2026-01-07 12:42:12.48	94.17	19.79	-41.2	-42.1	23.5	0.00e+00	89	34	101	1048576	60	6225
2026-01-07 12:42:13.49	94.42	19.77	-41.2	-42.2	23.6	0.00e+00	13	34	101	1048576	60	6267
2026-01-07 12:42:14.50	94.66	19.75	-41.3	-42.2	23.5	0.00e+00	13	35	101	1048576	60	6273
2026-01-07 12:42:15.51	94.91	19.72	-41.3	-42.2	23.5	0.00e+00	90	35	101	1048576	60	6279
2026-01-07 12:42:16.52	95.15	19.70	-41.0	-41.9	23.6	0.00e+00	0	35	101	1048576	60	6068
2026-01-07 12:42:17.53	95.40	19.67	-41.0	-41.9	23.7	0.00e+00	90	35	101	1048576	60	6093
2026-01-07 12:42:18.54	95.64	19.64	-40.9	-41.8	23.8	0.00e+00	0	35	101	1048576	60	6023
2026-01-07 12:42:19.55	95.89	19.62	-40.8	-41.8	23.8	0.00e+00	0	35	101	1048576	60	5968
2026-01-07 12:42:20.56	96.13	19.59	-40.8	-41.7	23.9	0.00e+00	0	34	101	1048576	60	5961
2026-01-07 12:42:21.57	96.37	19.56	-40.7	-41.7	24.1	0.00e+00	0	35	101	1048576	60	5901
2026-01-07 12:42:22.58	96.62	19.53	-40.3	-41.2	24.4	0.00e+00	13	34	101	1048576	60	5604
2026-01-07 12:42:23.59	96.86	19.50	-40.0	-40.8	24.6	0.00e+00	0	34	101	1048576	58	5999
2026-01-07 12:42:24.61	97.10	19.47	-40.1	-41.0	24.5	0.00e+00	92	34	101	1048576	58	6116
2026-01-07 12:42:25.61	97.34	19.44	-39.8	-40.6	24.8	0.00e+00	71	34	101	1048576	58	5849
2026-01-07 12:42:26.63	97.58	19.41	-40.0	-40.8	24.7	0.00e+00	92	34	101	1048576	58	5989
2026-01-07 12:42:27.64	97.82	19.38	-40.1	-40.9	24.4	0.00e+00	0	34	101	1048576	58	6073
2026-01-07 12:42:28.65	98.06	19.35	-40.1	-40.9	24.5	0.00e+00	9	35	101	1048576	58	6095
2026-01-07 12:42:29.66	98.30	19.32	-40.2	-41.0	24.5	0.00e+00	0	35	101	1048576	58	6150
2026-01-07 12:42:30.67	98.54	19.29	-40.3	-41.2	24.2	0.00e+00	9	34	101	1048576	58	6268
2026-01-07 12:42:31.68	98.78	19.26	-40.4	-41.2	24.3	0.00e+00	92	35	101	1048576	58	6316
2026-01-07 12:42:32.69	99.02	19.22	-40.4	-41.2	24.2	0.00e+00	5	34	101	1048576	58	6316
2026-01-07 12:42:33.70	99.26	19.19	-40.4	-41.3	24.2	0.00e+00	90	34	101	1048576	58	6342
2026-01-07 12:42:34.72	99.50	19.15	-40.6	-41.4	24.1	0.00e+00	0	34	101	1048576	58	6455
2026-01-07 12:42:35.73	99.73	19.12	-40.4	-41.3	24.3	0.00e+00	5	35	101	1048576	58	6345
2026-01-07 12:42:36.74	99.97	19.09	-40.5	-41.3	24.2	0.00e+00	0	34	101	1048576	58	6377
2026-01-07 12:42:37.75	100.20	19.05	-40.4	-41.3	24.3	0.00e+00	0	34	101	1048576	58	6336
2026-01-07 12:42:38.76	100.44	19.02	-40.0	-40.8	24.6	0.00e+00	92	35	101	1048576	58	6027
2026-01-07 12:42:39.77	100.67	18.98	-39.9	-40.7	24.7	0.00e+00	0	35	101	1048576	58	5949
2026-01-07 12:42:40.78	100.91	18.94	-39.9	-40.8	24.6	0.00e+00	92	34	101	1048576	58	5966
2026-01-07 12:42:41.79	101.14	18.91	-39.8	-40.6	24.8	0.00e+00	0	35	101	1048576	58	5851
2026-01-07 12:42:42.80	101.37	18.87	-39.6	-40.4	25.0	0.00e+00	69	35	101	1048576	58	5719
2026-01-07 12:42:43.81	101.60	18.83	-39.6	-40.5	24.9	0.00e+00	66	35	101	1048576	58	5764
2026-01-07 12:42:44.82	101.84	18.79	-39.5	-40.3	25.0	0.00e+00	67	34	101	1048576	58	5685
2026-01-07 12:42:45.83	102.07	18.76	-39.4	-40.2	25.1	0.00e+00	91	34	101	1048576	58	5617
2026-01-07 12:42:46.84	102.30	18.72	-39.4	-40.2	25.1	0.00e+00	74	34	101	1048576	58	5610
2026-01-07 12:42:47.85	102.53	18.68	-39.5	-40.3	25.0	0.00e+00	92	35	101	1048576	58	5648
2026-01-07 12:42:48.86	102.76	18.64	-39.6	-40.4	24.9	0.00e+00	12	34	101	1048576	58	5756
2026-01-07 12:42:49.88	102.99	18.60	-39.7	-40.5	24.8	0.00e+00	92	34	101	1048576	58	5796
2026-01-07 12:42:50.89	103.22	18.56	-39.9	-40.7	24.7	0.00e+00	6	34	101	1048576	58	5952
2026-01-07 12:42:51.90	103.44	18.52	-40.0	-40.9	24.2	0.00e+00	15	34	101	1048576	58	6048
2026-01-07 12:42:52.91	103.67	18.48	-40.2	-41.1	24.4	0.00e+00	0	35	101	1048576	58	6183
2026-01-07 12:42:53.92	103.90	18.43	-40.3	-41.1	24.3	0.00e+00	6	35	101	1048576	58	6243
2026-01-07 12:42:54.93	104.12	18.39	-40.3	-41.2	24.3	0.00e+00	92	35	101	1048576	58	6312
2026-01-07 12:42:55.94	104.35	18.35	-40.4	-41.3	24.0	0.00e+00	7	35	101	1048576	58	6380
2026-01-07 12:42:56.95	104.57	18.31	-40.2	-41.1	24.3	0.00e+00	90	35	101	1048576	58	6207
2026-01-07 12:42:57.96	104.80	18.26	-40.2	-41.1	24.3	0.00e+00	7	34	101	1048576	58	6207
2026-01-07 12:42:58.97	105.02	18.22	-40.3	-41.1	24.3	0.00e+00	7	35	101	1048576	58	6241
2026-01-07 12:42:59.98	105.24	18.18	-40.5	-41.4	24.1	0.00e+00	0	34	101	1048576	58	6401
2026-01-07 12:43:00.99	105.46	18.13	-40.6	-41.5	24.0	0.00e+00	71	35	101	1048576	58	6476
2026-01-07 12:43:02.00	105.69	18.09	-40.8	-41.7	23.9	0.00e+00	92	35	101	1048576	58	6629
2026-01-07 12:43:03.01	105.91	18.05	-40.8	-41.7	23.9	0.00e+00	73	34	101	1048576	58	6652
2026-01-07 12:43:04.03	106.13	18.00	-40.7	-41.6	23.9	0.00e+00	92	34	101	1048576	58	6579
2026-01-07 12:43:05.04	106.35	17.95	-40.6	-41.5	23.7	0.00e+00	74	35	101	1048576	58	6520
2026-01-07 12:43:06.05	106.57	17.91	-40.7	-41.6	23.9	0.00e+00	72	34	101	1048576	58	6568
2026-01-07 12:43:07.06	106.79	17.86	-40.8	-41.7	23.9	0.00e+00	72	34	101	1048576	58	6653
2026-01-07 12:43:08.07	107.00	17.82	-41.0	-41.9	23.4	0.00e+00	66	34	101	1048576	58	6815
2026-01-07 12:43:09.08	107.22	17.77	-41.1	-42.1	23.5	0.00e+00	89	35	101	1048576	58	6932
2026-01-07 12:43:10.09	107.44	17.72	-41.3	-42.2	23.4	0.00e+00	0	34	101	1048576	60	6316
2026-01-07 12:43:11.11	107.65	17.68	-41.4	-42.3	23.3	0.00e+00	90	34	101	1048576	60	6388
2026-01-07 12:43:12.12	107.87	17.63	-41.4	-42.4	23.4	0.00e+00	0	34	101	1048576	60	6392
2026-01-07 12:43:13.12	108.08	17.58	-41.4	-42.3	23.4	0.00e+00	92	35	101	1048576	60	6372
2026-01-07 12:43:14.13	108.30	17.53	-41.2	-42.1	23.5	0.00e+00	0	35	101	1048576	60	6245
2026-01-07 12:43:15.15	108.51	17.49	-41.3	-42.2	23.5	0.00e+00	0	35	101	1048576	60	6290
2026-01-07 12:43:16.15	108.72	17.44	-41.3	-42.3	23.4	0.00e+00	0	35	101	1048576	60	6326
2026-01-07 12:43:17.17	108.94	17.39	-41.4	-42.3	23.3	0.00e+00	0	35	101	1048576	60	6375
2026-01-07 12:43:18.18	109.15	17.34	-41.6	-42.6	23.1	0.00e+00	92	35	101	1048576	60	6594
2026-01-07 12:43:19.19	109.36	17.29	-41.9	-42.9	22.8	0.00e+00	0	34	101	1048576	60	6837
2026-01-07 12:43:20.20	109.57	17.24	-41.9	-43.0	22.7	0.00e+00	92	35	101	1048576	60	6872
2026-01-07 12:43:21.21	109.78	17.19	-42.0	-43.0	22.8	0.00e+00	71	35	101	1048576	60	6890
2026-01-07 12:43:22.22	109.98	17.14	-42.0	-43.0	22.7	0.00e+00	0	35	101	1048576	60	6899
2026-01-07 12:43:23.23	110.19	17.09	-41.7	-42.7	23.0	0.00e+00	0	34	101	1048576	60	6686
2026-01-07 12:43:24.24	110.40	17.04	-41.7	-42.6	23.1	0.00e+00	10	35	101	1048576	60	6611
2026-01-07 12:43:25.25	110.61	16.99	-41.7	-42.7	23.0	0.00e+00	92	35	101	1048576	60	6623
2026-01-07 12:43:26.26	110.81	16.94	-41.7	-42.7	23.1	0.00e+00	72	34	101	1048576	60	6619
2026-01-07 12:43:27.27	111.02	16.89	-41.5	-42.5	23.1	0.00e+00	92	34	101	1048576	60	6508
2026-01-07 12:43:28.29	111.22	16.83	-41.6	-42.6	23.1	0.00e+00	9	35	101	1048576	60	6583
2026-01-07 12:43:29.30	111.43	16.78	-41.5	-42.4	23.2	0.00e+00	24	34	101	1048576	60	6454
2026-01-07 12:43:30.31	111.63	16.73	-41.5	-42.5	23.2	0.00e+00	11	34	101	1048576	60	6477
2026-01-07 12:43:31.32	111.83	16.68	-41.6	-42.5	23.1	0.00e+00	0	34	101	1048576	60	6531
2026-01-07 12:43:32.33	112.03	16.62	-41.7	-42.7	22.9	0.00e+00	92	34	101	1048576	60	6676
2026-01-07 12:43:33.34	112.23	16.57	-41.8	-42.8	22.9	0.00e+00	0	34	101	1048576	60	6711
2026-01-07 12:43:34.35	112.43	16.52	-41.8	-42.8	22.8	0.00e+00	92	34	101	1048576	60	6720
2026-01-07 12:43:35.36	112.63	16.47	-41.9	-42.9	22.8	0.00e+00	0	35	101	1048576	60	6791
2026-01-07 12:43:36.38	112.83	16.41	-41.8	-42.8	22.8	0.00e+00	0	34	101	1048576	60	6732
2026-01-07 12:43:37.38	113.03	16.36	-41.8	-42.8	23.0	0.00e+00	66	34	101	1048576	60	6740
2026-01-07 12:43:38.40	113.23	16.30	-41.5	-42.5	23.2	0.00e+00	0	34	101	1048576	60	6511
2026-01-07 12:43:39.41	113.43	16.25	-41.5	-42.5	23.1	0.00e+00	69	34	101	1048576	60	6499
2026-01-07 12:43:40.42	113.62	16.20	-41.2	-42.1	23.5	0.00e+00	68	34	101	1048576	60	6222
2026-01-07 12:43:41.43	113.82	16.14	-41.0	-41.9	23.7	0.00e+00	92	34	101	1048576	60	6052
2026-01-07 12:43:42.44	114.01	16.09	-40.9	-41.8	23.7	0.00e+00	68	34	101	1048576	60	6016
2026-01-07 12:43:43.45	114.21	16.03	-40.8	-41.7	23.8	0.00e+00	92	34	101	1048576	60	5916
2026-01-07 12:43:44.46	114.40	15.98	-40.8	-41.7	23.8	0.00e+00	13	34	101	1048576	60	5934
2026-01-07 12:43:45.47	114.59	15.92	-40.8	-41.7	23.8	0.00e+00	15	34	101	1048576	60	5936
2026-01-07 12:43:46.48	114.79	15.87	-40.8	-41.7	23.8	0.00e+00	0	34	101	1048576	60	5963
2026-01-07 12:43:47.49	114.98	15.81	-40.9	-41.9	23.5	0.00e+00	0	34	101	1048576	60	6036
2026-01-07 12:43:48.50	115.17	15.76	-40.9	-41.8	23.8	0.00e+00	92	34	101	1048576	60	6022
2026-01-07 12:43:49.52	115.36	15.70	-41.1	-42.0	23.6	0.00e+00	0	34	101	1048576	60	6122
2026-01-07 12:43:50.53	115.55	15.64	-41.3	-42.2	23.3	0.00e+00	92	34	101	1048576	60	6315
2026-01-07 12:43:51.54	115.74	15.59	-41.5	-42.5	22.8	0.00e+00	0	35	101	1048576	60	6520
2026-01-07 12:43:52.55	115.93	15.53	-41.9	-42.9	22.6	0.00e+00	0	34	101	1048576	60	6844
2026-01-07 12:43:53.56	116.11	15.47	-42.1	-43.2	22.4	0.00e+00	0	34	101	1048576	60	7052
2026-01-07 12:43:54.57	116.30	15.42	-42.3	-43.4	22.3	0.00e+00	0	35	101	1048576	60	7199
2026-01-07 12:43:55.58	116.48	15.36	-42.2	-43.3	22.3	0.00e+00	73	34	101	1048576	60	7160
2026-01-07 12:43:56.59	116.67	15.30	-42.1	-43.2	22.4	0.00e+00	71	34	101	1048576	60	7041
2026-01-07 12:43:57.60	116.85	15.25	-42.0	-43.1	22.6	0.00e+00	91	34	101	1048576	60	6953
2026-01-07 12:43:58.61	117.04	15.19	-41.6	-42.6	23.1	0.00e+00	70	35	101	1048576	60	6544
2026-01-07 12:43:59.63	117.22	15.13	-41.4	-42.4	23.2	0.00e+00	43	34	101	1048576	60	6441
2026-01-07 12:44:00.63	117.40	15.07	-41.3	-42.2	23.3	0.00e+00	10	35	101	1048576	60	6303
2026-01-07 12:44:01.65	117.59	15.02	-41.1	-42.0	23.6	0.00e+00	70	34	101	1048576	60	6140
2026-01-07 12:44:02.66	117.77	14.96	-41.2	-42.1	23.4	0.00e+00	92	35	101	1048576	60	6223
2026-01-07 12:44:03.67	117.95	14.90	-41.3	-42.3	23.2	0.00e+00	0	35	101	1048576	60	6351
2026-01-07 12:44:04.68	118.13	14.84	-41.4	-42.4	23.2	0.00e+00	90	34	101	1048576	60	6393
2026-01-07 12:44:05.69	118.31	14.78	-41.3	-42.3	23.3	0.00e+00	11	35	101	1048576	60	6355
2026-01-07 12:44:06.70	118.49	14.73	-41.2	-42.2	23.4	0.00e+00	20	35	101	1048576	60	6269
2026-01-07 12:44:07.71	118.66	14.67	-41.1	-42.0	23.5	0.00e+00	6	35	101	1048576	60	6168
2026-01-07 12:44:08.73	118.84	14.61	-40.9	-41.9	23.4	0.00e+00	5	34	101	1048576	60	6075
2026-01-07 12:44:09.74	119.02	14.55	-40.9	-41.8	23.6	0.00e+00	17	34	101	1048576	60	6018
2026-01-07 12:44:10.75	119.19	14.49	-41.0	-41.9	23.6	0.00e+00	5	35	101	1048576	60	6084
2026-01-07 12:44:11.76	119.37	14.43	-41.1	-42.1	23.4	0.00e+00	92	34	101	1048576	60	6180
2026-01-07 12:44:12.77	119.54	14.37	-41.2	-42.2	23.3	0.00e+00	5	35	101	1048576	60	6278
2026-01-07 12:44:13.78	119.72	14.31	-41.3	-42.3	23.3	0.00e+00	92	35	101	1048576	60	6350
2026-01-07 12:44:14.79	119.89	14.26	-41.4	-42.4	23.2	0.00e+00	64	35	101	1048576	60	6451
2026-01-07 12:44:15.80	120.06	14.20	-41.3	-42.2	23.3	0.00e+00	66	35	101	1048576	60	6310
2026-01-07 12:44:16.81	120.23	14.14	-41.2	-42.1	23.4	0.00e+00	0	35	101	1048576	60	6236
2026-01-07 12:44:17.82	120.40	14.08	-41.3	-42.3	23.3	0.00e+00	0	34	101	1048576	60	6323
2026-01-07 12:44:18.83	120.57	14.02	-41.1	-42.0	23.5	0.00e+00	92	34	101	1048576	60	6141
2026-01-07 12:44:19.84	120.74	13.96	-40.7	-41.6	23.8	0.00e+00	70	34	101	1048576	60	5896
2026-01-07 12:44:20.85	120.91	13.90	-40.8	-41.7	23.7	0.00e+00	92	34	101	1048576	60	5953
2026-01-07 12:44:21.87	121.08	13.84	-40.9	-41.9	23.5	0.00e+00	71	35	101	1048576	60	6049
2026-01-07 12:44:22.88	121.25	13.78	-41.2	-42.1	23.2	0.00e+00	69	35	101	1048576	60	6237
2026-01-07 12:44:23.89	121.42	13.72	-41.3	-42.3	23.2	0.00e+00	16	35	101	1048576	60	6325
2026-01-07 12:44:24.90	121.58	13.66	-41.5	-42.5	22.9	0.00e+00	17	34	101	1048576	60	6500
2026-01-07 12:44:25.91	121.75	13.60	-41.5	-42.5	23.0	0.00e+00	40	35	101	1048576	60	6512
2026-01-07 12:44:26.92	121.92	13.54	-41.3	-42.3	23.2	0.00e+00	15	35	101	1048576	60	6344
2026-01-07 12:44:27.93	122.08	13.48	-41.2	-42.2	23.3	0.00e+00	90	35	101	1048576	60	6283
2026-01-07 12:44:28.94	122.24	13.42	-41.1	-42.0	23.4	0.00e+00	6	35	101	1048576	60	6172
2026-01-07 12:44:29.95	122.41	13.36	-41.0	-41.9	23.6	0.00e+00	40	35	101	1048576	60	6101
2026-01-07 12:44:30.96	122.57	13.30	-40.7	-41.7	23.7	0.00e+00	0	35	101	1048576	60	5900
2026-01-07 12:44:31.98	122.73	13.24	-40.7	-41.6	23.8	0.00e+00	7	34	101	1048576	60	5853
2026-01-07 12:44:32.99	122.89	13.18	-40.9	-41.8	23.6	0.00e+00	72	35	101	1048576	60	5983
2026-01-07 12:44:34.00	123.05	13.12	-41.1	-42.0	23.5	0.00e+00	0	34	101	1048576	60	6165
2026-01-07 12:44:35.01	123.21	13.06	-41.4	-42.3	23.2	0.00e+00	92	35	101	1048576	60	6367
2026-01-07 12:44:36.02	123.37	12.99	-41.6	-42.6	22.9	0.00e+00	0	34	101	1048576	60	6560
2026-01-07 12:44:37.03	123.53	12.93	-41.7	-42.7	22.9	0.00e+00	92	34	101	1048576	60	6650
2026-01-07 12:44:38.04	123.69	12.87	-41.7	-42.7	22.9	0.00e+00	17	34	101	1048576	60	6639
2026-01-07 12:44:39.05	123.85	12.81	-41.6	-42.6	23.0	0.00e+00	65	35	101	1048576	60	6605
2026-01-07 12:44:40.07	124.01	12.75	-41.5	-42.5	23.1	0.00e+00	32	35	101	1048576	60	6491
2026-01-07 12:44:41.08	124.16	12.69	-41.4	-42.4	23.1	0.00e+00	15	34	101	1048576	60	6404
2026-01-07 12:44:42.09	124.32	12.63	-41.3	-42.3	23.2	0.00e+00	90	34	101	1048576	60	6363
2026-01-07 12:44:43.10	124.47	12.57	-41.2	-42.2	23.3	0.00e+00	0	35	101	1048576	60	6291
2026-01-07 12:44:44.11	124.63	12.51	-41.3	-42.3	23.1	0.00e+00	90	34	101	1048576	60	6362
2026-01-07 12:44:45.12	124.78	12.45	-41.5	-42.5	23.0	0.00e+00	0	35	101	1048576	60	6536
2026-01-07 12:44:46.13	124.93	12.39	-41.7	-42.7	22.8	0.00e+00	0	34	101	1048576	60	6663
2026-01-07 12:44:47.14	125.09	12.32	-41.8	-42.9	22.6	0.00e+00	0	35	101	1048576	60	6797
2026-01-07 12:44:48.15	125.24	12.26	-41.9	-42.9	22.6	0.00e+00	0	34	101	1048576	60	6842
2026-01-07 12:44:49.17	125.39	12.20	-41.9	-43.0	22.5	0.00e+00	91	35	101	1048576	60	6876
2026-01-07 12:44:50.18	125.54	12.14	-41.8	-42.9	22.7	0.00e+00	0	35	101	1048576	60	6776
2026-01-07 12:44:51.19	125.69	12.08	-41.7	-42.7	22.8	0.00e+00	92	35	101	1048576	60	6689
2026-01-07 12:44:52.20	125.84	12.02	-41.5	-42.5	23.0	0.00e+00	0	35	101	1048576	60	6524
2026-01-07 12:44:53.21	125.99	11.96	-41.4	-42.4	23.1	0.00e+00	67	34	101	1048576	60	6425
2026-01-07 12:44:54.22	126.14	11.90	-41.4	-42.3	23.2	0.00e+00	0	35	101	1048576	60	6372
2026-01-07 12:44:55.23	126.29	11.83	-41.3	-42.3	23.2	0.00e+00	11	35	101	1048576	60	6354
2026-01-07 12:44:56.24	126.43	11.77	-41.5	-42.5	22.9	0.00e+00	91	35	101	1048576	60	6529
2026-01-07 12:44:57.25	126.58	11.71	-41.6	-42.6	22.9	0.00e+00	13	35	101	1048576	60	6587
2026-01-07 12:44:58.26	126.72	11.65	-41.9	-42.9	22.6	0.00e+00	92	34	101	1048576	60	6834
2026-01-07 12:44:59.28	126.87	11.59	-42.1	-43.2	22.3	0.00e+00	3	34	101	1048576	60	7038
2026-01-07 12:45:00.29	127.02	11.53	-42.3	-43.4	22.2	0.00e+00	91	34	101	1048576	60	7227
2026-01-07 12:45:01.30	127.16	11.47	-42.4	-43.5	22.1	0.00e+00	0	35	101	1048576	60	7299
2026-01-07 12:45:02.31	127.30	11.40	-42.4	-43.5	22.0	0.00e+00	0	34	101	1048576	60	7303
2026-01-07 12:45:03.32	127.45	11.34	-42.3	-43.4	22.1	0.00e+00	20	35	101	1048576	60	7236
2026-01-07 12:45:04.33	127.59	11.28	-42.2	-43.3	22.1	0.00e+00	2	35	101	1048576	60	7096
2026-01-07 12:45:05.34	127.73	11.22	-42.1	-43.2	22.3	0.00e+00	92	35	101	1048576	60	7052
2026-01-07 12:45:06.35	127.87	11.16	-42.0	-43.0	22.4	0.00e+00	0	35	101	1048576	60	6911
2026-01-07 12:45:07.36	128.01	11.10	-41.9	-43.0	22.5	0.00e+00	90	35	101	1048576	60	6849
2026-01-07 12:45:08.37	128.15	11.04	-42.0	-43.0	22.5	0.00e+00	0	35	101	1048576	60	6884
2026-01-07 12:45:09.39	128.29	10.97	-42.0	-43.1	22.4	0.00e+00	0	35	101	1048576	60	6929
2026-01-07 12:45:10.40	128.43	10.91	-42.0	-43.1	22.1	0.00e+00	0	34	101	1048576	60	6971
2026-01-07 12:45:11.41	128.57	10.85	-42.2	-43.2	22.2	0.00e+00	63	34	101	1048576	60	7063
2026-01-07 12:45:12.42	128.71	10.79	-42.2	-43.3	22.2	0.00e+00	92	34	101	1048576	60	7138
2026-01-07 12:45:13.43	128.85	10.73	-42.2	-43.2	22.2	0.00e+00	18	35	101	1048576	60	7073
2026-01-07 12:45:14.44	128.98	10.67	-42.2	-43.3	22.2	0.00e+00	92	35	101	1048576	60	7148
2026-01-07 12:45:15.45	129.12	10.61	-42.1	-43.2	22.3	0.00e+00	2	35	101	1048576	60	7029
2026-01-07 12:45:16.46	129.25	10.55	-42.1	-43.1	22.3	0.00e+00	91	35	101	1048576	60	6998
2026-01-07 12:45:17.47	129.39	10.48	-42.2	-43.2	22.1	0.00e+00	71	35	101	1048576	60	7083
2026-01-07 12:45:18.49	129.53	10.42	-42.1	-43.2	22.3	0.00e+00	11	35	101	1048576	60	7058
2026-01-07 12:45:19.50	129.66	10.36	-42.1	-43.1	22.3	0.00e+00	35	35	101	1048576	60	6990
2026-01-07 12:45:20.51	129.79	10.30	-42.3	-43.4	22.1	0.00e+00	0	35	101	1048576	60	7225
2026-01-07 12:45:21.52	129.93	10.24	-42.4	-43.5	22.1	0.00e+00	92	35	101	1048576	60	7273
2026-01-07 12:45:22.53	130.06	10.18	-42.5	-43.6	21.9	0.00e+00	0	35	101	1048576	60	7365
2026-01-07 12:45:23.54	130.19	10.12	-42.7	-43.8	21.7	0.00e+00	0	35	101	1048576	60	7594
2026-01-07 12:45:24.55	130.32	10.06	-42.8	-44.0	21.6	0.00e+00	0	35	101	1048576	60	7685
2026-01-07 12:45:25.56	130.45	9.99	-42.9	-44.1	21.5	0.00e+00	0	35	101	1048576	60	7780
2026-01-07 12:45:26.57	130.58	9.93	-42.9	-44.1	21.4	0.00e+00	0	35	101	1048576	60	7825
2026-01-07 12:45:27.58	130.71	9.87	-42.9	-44.1	21.4	0.00e+00	69	35	101	1048576	60	7799
2026-01-07 12:45:28.59	130.84	9.81	-43.0	-44.2	21.3	0.00e+00	91	35	101	1048576	60	7885
2026-01-07 12:45:29.60	130.97	9.75	-43.0	-44.2	21.3	0.00e+00	67	35	101	1048576	60	7896
2026-01-07 12:45:30.61	131.10	9.69	-42.5	-43.7	21.8	0.00e+00	92	35	101	1048576	60	7427
2026-01-07 12:45:31.63	131.23	9.63	-42.5	-43.7	21.7	0.00e+00	0	35	101	1048576	60	7425
2026-01-07 12:45:32.64	131.35	9.57	-42.4	-43.5	21.9	0.00e+00	67	35	101	1048576	60	7287
2026-01-07 12:45:33.65	131.48	9.51	-42.4	-43.5	22.0	0.00e+00	52	35	101	1048576	60	7283
2026-01-07 12:45:34.66	131.61	9.44	-42.2	-43.3	22.1	0.00e+00	15	35	101	1048576	60	7143
2026-01-07 12:45:35.67	131.73	9.38	-42.2	-43.3	22.2	0.00e+00	92	35	101	1048576	60	7095
2026-01-07 12:45:36.68	131.86	9.32	-42.2	-43.3	22.1	0.00e+00	67	35	101	1048576	60	7158
2026-01-07 12:45:37.69	131.98	9.26	-42.2	-43.3	22.2	0.00e+00	92	35	101	1048576	60	7123
2026-01-07 12:45:38.70	132.11	9.20	-42.4	-43.5	21.9	0.00e+00	6	35	101	1048576	60	7271
2026-01-07 12:45:39.71	132.23	9.14	-42.4	-43.5	21.9	0.00e+00	0	35	101	1048576	60	7324
2026-01-07 12:45:40.72	132.35	9.08	-42.5	-43.6	21.8	0.00e+00	19	35	101	1048576	60	7395
2026-01-07 12:45:41.73	132.48	9.02	-42.6	-43.7	21.8	0.00e+00	0	35	101	1048576	60	7463
2026-01-07 12:45:42.75	132.60	8.96	-42.7	-43.9	21.6	0.00e+00	92	35	101	1048576	60	7598
2026-01-07 12:45:43.76	132.72	8.90	-42.6	-43.8	21.6	0.00e+00	6	35	101	1048576	60	7541
2026-01-07 12:45:44.77	132.84	8.84	-42.6	-43.8	21.6	0.00e+00	90	35	101	1048576	60	7546
2026-01-07 12:45:45.78	132.96	8.78	-42.8	-43.9	21.5	0.00e+00	0	35	101	1048576	60	7660
2026-01-07 12:45:46.78	133.08	8.72	-42.8	-44.0	21.4	0.00e+00	68	35	101	1048576	60	7697
2026-01-07 12:45:47.80	133.20	8.66	-42.9	-44.1	21.3	0.00e+00	0	35	101	1048576	60	7787
2026-01-07 12:45:48.81	133.32	8.59	-42.9	-44.1	21.3	0.00e+00	0	35	101	1048576	60	7834
2026-01-07 12:45:49.82	133.44	8.53	-43.0	-44.2	21.1	0.00e+00	5	35	101	1048576	60	7924
2026-01-07 12:45:50.83	133.56	8.47	-43.1	-44.3	21.0	0.00e+00	67	35	101	1048576	60	8044
2026-01-07 12:45:51.84	133.68	8.41	-43.1	-44.3	21.1	0.00e+00	92	35	101	1048576	60	8009
2026-01-07 12:45:52.85	133.80	8.35	-43.2	-44.5	20.9	0.00e+00	18	35	101	1048576	60	8204
2026-01-07 12:45:53.86	133.91	8.29	-43.4	-44.7	20.7	0.00e+00	92	35	101	1048576	60	8372
2026-01-07 12:45:54.87	134.03	8.23	-43.2	-44.5	20.9	0.00e+00	19	35	101	1048576	60	8199
2026-01-07 12:45:55.88	134.14	8.17	-43.3	-44.7	20.8	0.00e+00	8	34	101	1048576	60	8341
2026-01-07 12:45:56.90	134.26	8.11	-43.4	-44.7	20.7	0.00e+00	23	35	101	1048576	60	8351
2026-01-07 12:45:57.91	134.38	8.05	-43.3	-44.7	20.8	0.00e+00	17	35	101	1048576	60	8360
2026-01-07 12:45:58.92	134.49	7.99	-43.2	-44.5	20.9	0.00e+00	92	35	101	1048576	60	8180
2026-01-07 12:45:59.93	134.61	7.93	-43.1	-44.4	20.9	0.00e+00	7	35	101	1048576	60	8107
2026-01-07 12:46:00.94	134.72	7.87	-43.1	-44.4	21.0	0.00e+00	92	35	101	1048576	60	8050
2026-01-07 12:46:01.95	134.83	7.81	-43.1	-44.4	20.9	0.00e+00	0	35	101	1048576	60	8107
2026-01-07 12:46:02.96	134.95	7.75	-43.0	-44.2	21.1	0.00e+00	6	35	101	1048576	60	7945
2026-01-07 12:46:03.97	135.06	7.69	-43.1	-44.4	21.0	0.00e+00	5	35	101	1048576	60	8062
2026-01-07 12:46:04.98	135.17	7.63	-43.1	-44.3	21.0	0.00e+00	69	35	101	1048576	60	8011
2026-01-07 12:46:06.00	135.28	7.57	-43.1	-44.4	20.9	0.00e+00	92	35	101	1048576	60	8102
2026-01-07 12:46:07.01	135.39	7.51	-43.3	-44.5	20.8	0.00e+00	68	35	101	1048576	60	8232
2026-01-07 12:46:08.02	135.50	7.45	-43.4	-44.8	20.5	0.00e+00	92	35	101	1048576	60	8445
