passes_logs/2026/01/07/R4.6S_Anadyr_2ch/R4.6S_Anadyr_2ch__20260107_070116_TY-40_rec.log

#Pass ID: 20260107_070116_TY-40
#Satellite: TY-40
#Configuration: TY-39_900M
#almurnet v.1.7.20251203
#Start time: 2026-01-07 07:01:46

#Version: 2.2.20231116
#Station: R4.6S_Anadyr_2ch
#Location: 177.4865 lon 64.73178 lat
#TLE: 1 56846U 23081A   25350.97536409  .00002626  00000-0  11966-3 0  9993
#TLE: 2 56846  97.3941  59.4076 0002022  98.6035 261.5430 15.21533877140291

#Time	Az	El	Level	Level2	SNR	BER	BlckErr	Temp	State	Recorded	gain1	gain2
2026-01-07 07:01:46.39	94.95	1.64	-51.2	-62.1	3.4	8.45e-01	0	31	0	0	60	63019
2026-01-07 07:01:47.40	94.84	1.70	-51.5	-54.0	6.0	0.00e+00	0	32	104	0	60	83652
2026-01-07 07:01:48.41	94.74	1.75	-51.5	-54.0	6.1	0.00e+00	0	32	104	0	60	83566
2026-01-07 07:01:49.42	94.63	1.81	-51.5	-54.0	6.1	0.00e+00	0	32	104	0	60	83839
2026-01-07 07:01:50.43	94.52	1.87	-51.5	-54.0	6.1	0.00e+00	0	33	104	0	60	83804
2026-01-07 07:01:51.44	94.42	1.93	-51.5	-54.0	6.1	0.00e+00	0	32	104	0	60	83597
2026-01-07 07:01:52.45	94.31	1.98	-51.5	-54.0	6.1	0.00e+00	0	32	104	0	60	83734
2026-01-07 07:01:53.46	94.20	2.04	-51.5	-54.0	6.1	0.00e+00	0	33	104	0	60	83418
2026-01-07 07:01:54.47	94.09	2.10	-51.5	-54.0	6.1	0.00e+00	0	33	104	0	60	83765
2026-01-07 07:01:55.48	93.98	2.16	-51.5	-54.0	6.1	0.00e+00	0	33	104	0	60	83550
2026-01-07 07:01:56.50	93.87	2.21	-51.5	-53.9	6.1	0.00e+00	0	33	104	0	60	83042
2026-01-07 07:01:57.51	93.76	2.27	-51.5	-54.0	6.1	0.00e+00	0	33	104	0	60	83392
2026-01-07 07:01:58.51	93.65	2.33	-51.5	-54.0	6.1	0.00e+00	0	33	104	0	60	83730
2026-01-07 07:01:59.52	93.54	2.39	-51.5	-54.0	6.0	0.00e+00	0	33	104	0	60	83662
2026-01-07 07:02:00.53	93.42	2.45	-51.5	-54.0	6.1	0.00e+00	0	33	104	0	60	83914
2026-01-07 07:02:01.54	93.31	2.50	-51.5	-54.0	6.1	0.00e+00	0	33	104	0	60	83776
2026-01-07 07:02:02.56	93.20	2.56	-51.5	-54.0	6.1	0.00e+00	0	33	104	0	60	83422
2026-01-07 07:02:03.57	93.08	2.62	-51.5	-54.0	6.1	0.00e+00	0	33	104	0	60	83601
2026-01-07 07:02:04.58	92.97	2.68	-51.5	-54.0	6.1	0.00e+00	0	33	104	0	60	83515
2026-01-07 07:02:05.59	92.85	2.74	-51.5	-54.0	6.1	0.00e+00	0	33	104	0	60	83614
2026-01-07 07:02:06.60	92.74	2.80	-51.5	-54.0	6.1	0.00e+00	0	33	104	0	60	83504
2026-01-07 07:02:07.61	92.62	2.86	-51.5	-54.0	6.1	0.00e+00	0	33	104	0	60	83750
2026-01-07 07:02:08.62	92.50	2.91	-51.5	-54.0	6.1	0.00e+00	0	33	104	0	60	83837
2026-01-07 07:02:09.63	92.38	2.97	-51.5	-54.0	6.1	0.00e+00	0	33	104	0	60	83777
2026-01-07 07:02:10.64	92.26	3.03	-51.5	-54.0	6.1	0.00e+00	0	33	104	0	60	83826
2026-01-07 07:02:11.65	92.15	3.09	-51.5	-54.0	6.1	0.00e+00	0	33	104	0	60	83936
2026-01-07 07:02:12.66	92.03	3.15	-51.5	-54.0	6.1	0.00e+00	0	33	104	0	60	83611
2026-01-07 07:02:13.67	91.90	3.21	-51.5	-54.0	6.1	0.00e+00	0	33	104	0	60	83616
2026-01-07 07:02:14.68	91.78	3.27	-51.5	-54.0	6.1	0.00e+00	0	33	104	0	60	83461
2026-01-07 07:02:15.69	91.66	3.33	-51.5	-54.0	6.1	0.00e+00	0	33	104	0	60	83503
2026-01-07 07:02:16.70	91.54	3.39	-51.5	-54.0	6.1	0.00e+00	0	33	104	0	60	83348
2026-01-07 07:02:17.71	91.42	3.45	-51.5	-54.0	6.1	0.00e+00	0	33	104	0	60	83847
2026-01-07 07:02:18.73	91.29	3.51	-51.5	-54.0	6.1	0.00e+00	0	33	104	0	60	83699
2026-01-07 07:02:19.74	91.17	3.57	-51.5	-54.0	6.1	0.00e+00	0	33	104	0	60	83615
2026-01-07 07:02:20.75	91.04	3.62	-51.5	-54.0	6.1	0.00e+00	0	33	104	0	60	83772
2026-01-07 07:02:21.76	90.92	3.68	-51.5	-54.0	6.1	0.00e+00	0	33	104	0	60	84061
2026-01-07 07:02:22.77	90.79	3.74	-51.5	-54.0	6.1	0.00e+00	0	33	104	0	60	83621
2026-01-07 07:02:23.78	90.66	3.80	-51.5	-54.0	6.1	0.00e+00	0	33	104	0	60	83862
2026-01-07 07:02:24.79	90.54	3.86	-51.5	-54.0	6.1	0.00e+00	0	33	104	0	60	83468
2026-01-07 07:02:25.80	90.41	3.92	-51.5	-54.0	6.1	0.00e+00	0	33	104	0	60	83590
2026-01-07 07:02:26.81	90.28	3.98	-51.5	-54.0	6.1	0.00e+00	0	33	104	0	60	83733
2026-01-07 07:02:27.82	90.15	4.04	-51.5	-54.0	6.1	0.00e+00	0	34	104	0	60	83298
2026-01-07 07:02:28.83	90.02	4.10	-51.5	-54.0	6.0	0.00e+00	0	33	104	0	60	83668
2026-01-07 07:02:29.84	89.89	4.16	-51.5	-54.0	6.1	0.00e+00	0	34	104	0	60	83758
2026-01-07 07:02:30.85	89.75	4.22	-51.5	-54.0	6.0	0.00e+00	0	34	104	0	60	83817
2026-01-07 07:02:31.86	89.62	4.28	-51.5	-54.0	6.1	0.00e+00	0	34	104	0	60	83765
2026-01-07 07:02:32.87	89.49	4.34	-51.5	-54.0	6.1	0.00e+00	0	34	104	0	60	83495
2026-01-07 07:02:33.89	89.35	4.41	-51.5	-54.0	6.1	0.00e+00	0	34	104	0	60	83421
2026-01-07 07:02:34.90	89.22	4.47	-51.5	-54.0	6.1	0.00e+00	0	34	104	0	60	83547
2026-01-07 07:02:35.91	89.08	4.53	-51.5	-54.0	6.1	0.00e+00	0	34	104	0	60	83888
2026-01-07 07:02:36.92	88.95	4.59	-51.5	-53.9	6.1	0.00e+00	0	34	104	0	60	83074
2026-01-07 07:02:37.93	88.81	4.65	-51.5	-54.0	6.0	0.00e+00	0	34	104	0	60	83606
2026-01-07 07:02:38.94	88.67	4.71	-51.5	-54.0	6.1	0.00e+00	0	34	104	0	60	83777
2026-01-07 07:02:39.95	88.53	4.77	-51.5	-54.0	6.1	0.00e+00	0	34	104	0	60	83784
2026-01-07 07:02:40.96	88.40	4.83	-51.5	-54.0	6.1	0.00e+00	0	34	104	0	60	83875
2026-01-07 07:02:41.97	88.26	4.89	-51.5	-54.0	6.1	0.00e+00	0	34	104	0	60	83319
2026-01-07 07:02:42.99	88.11	4.95	-51.5	-54.0	6.1	0.00e+00	0	34	104	0	60	83738
2026-01-07 07:02:44.00	87.97	5.01	-51.5	-54.0	6.1	0.00e+00	0	34	104	0	60	83489
2026-01-07 07:02:45.01	87.83	5.07	-51.5	-54.0	6.1	0.00e+00	0	34	104	0	60	83519
2026-01-07 07:02:46.02	87.69	5.14	-51.5	-54.0	6.1	0.00e+00	0	34	104	0	60	83992
2026-01-07 07:02:47.03	87.54	5.20	-51.5	-54.0	6.1	0.00e+00	0	34	104	0	60	83840
2026-01-07 07:02:48.04	87.40	5.26	-51.5	-54.0	6.1	0.00e+00	0	34	104	0	60	83614
2026-01-07 07:02:49.05	87.25	5.32	-51.5	-54.0	6.1	0.00e+00	0	34	104	0	60	83831
2026-01-07 07:02:50.06	87.11	5.38	-51.5	-54.0	6.1	0.00e+00	0	34	104	0	60	83972
2026-01-07 07:02:51.07	86.96	5.44	-51.5	-54.0	6.1	0.00e+00	0	34	104	0	60	83443
2026-01-07 07:02:52.08	86.81	5.50	-51.5	-54.0	6.1	0.00e+00	0	34	104	0	60	83594
2026-01-07 07:02:53.09	86.66	5.56	-51.5	-54.0	6.1	0.00e+00	0	34	104	0	60	83501
2026-01-07 07:02:54.11	86.51	5.63	-51.5	-54.0	6.1	0.00e+00	0	34	104	0	60	83408
2026-01-07 07:02:55.12	86.36	5.69	-51.5	-54.0	6.1	0.00e+00	0	34	104	0	60	83652
2026-01-07 07:02:56.13	86.21	5.75	-51.5	-54.0	6.1	0.00e+00	0	34	104	0	60	83599
2026-01-07 07:02:57.14	86.06	5.81	-51.5	-54.0	6.1	0.00e+00	0	34	104	0	60	83316
2026-01-07 07:02:58.15	85.91	5.87	-51.5	-54.0	6.0	0.00e+00	0	34	104	0	60	83640
2026-01-07 07:02:59.16	85.76	5.93	-51.5	-54.0	6.1	0.00e+00	0	34	104	0	60	84016
2026-01-07 07:03:00.17	85.60	6.00	-51.5	-54.0	6.1	0.00e+00	0	34	104	0	60	83528
2026-01-07 07:03:01.18	85.45	6.06	-51.5	-54.0	6.1	0.00e+00	0	34	104	0	60	83526
2026-01-07 07:03:02.19	85.29	6.12	-51.5	-54.0	6.1	0.00e+00	0	34	104	0	60	83521
2026-01-07 07:03:03.20	85.13	6.18	-51.5	-54.0	6.1	0.00e+00	0	34	104	0	60	83677
2026-01-07 07:03:04.21	84.98	6.24	-51.5	-54.0	6.1	0.00e+00	0	34	104	0	60	83447
2026-01-07 07:03:05.22	84.82	6.30	-51.5	-54.0	6.1	0.00e+00	0	34	104	0	60	83699
2026-01-07 07:03:06.24	84.66	6.37	-51.5	-54.0	6.1	0.00e+00	0	34	104	0	60	83533
2026-01-07 07:03:07.25	84.50	6.43	-51.5	-54.0	6.1	0.00e+00	0	34	104	0	60	83978
2026-01-07 07:03:08.26	84.34	6.49	-51.5	-54.0	6.1	0.00e+00	0	34	104	0	60	83945
2026-01-07 07:03:09.27	84.17	6.55	-51.5	-54.0	6.1	0.00e+00	0	34	104	0	60	83569
2026-01-07 07:03:10.28	84.01	6.61	-51.5	-54.0	6.1	0.00e+00	0	34	104	0	60	84027
2026-01-07 07:03:11.29	83.85	6.68	-51.5	-54.0	6.1	0.00e+00	0	34	104	0	60	83573
2026-01-07 07:03:12.30	83.68	6.74	-51.5	-54.0	6.1	0.00e+00	0	34	104	0	60	83643
2026-01-07 07:03:13.31	83.52	6.80	-51.5	-54.0	6.1	0.00e+00	0	34	104	0	60	83583
2026-01-07 07:03:14.32	83.35	6.86	-51.5	-54.0	6.1	0.00e+00	0	34	104	0	60	84005
2026-01-07 07:03:15.33	83.18	6.92	-51.5	-54.0	6.1	0.00e+00	0	34	104	0	60	83683
2026-01-07 07:03:16.35	83.01	6.99	-51.5	-54.0	6.1	0.00e+00	0	34	104	0	60	83927
2026-01-07 07:03:17.36	82.85	7.05	-51.5	-54.0	6.1	0.00e+00	0	34	104	0	60	83482
2026-01-07 07:03:18.37	82.68	7.11	-51.5	-54.0	6.1	0.00e+00	0	34	104	0	60	83576
2026-01-07 07:03:19.38	82.51	7.17	-51.5	-54.0	6.1	0.00e+00	0	34	104	0	60	83677
2026-01-07 07:03:20.39	82.33	7.23	-51.5	-54.0	6.1	0.00e+00	0	34	104	0	60	83520
2026-01-07 07:03:21.40	82.16	7.30	-51.5	-53.9	6.1	0.00e+00	0	34	104	0	60	83072
2026-01-07 07:03:22.41	81.99	7.36	-51.5	-54.0	6.1	0.00e+00	0	35	104	0	60	83536
2026-01-07 07:03:23.42	81.81	7.42	-51.5	-54.0	6.1	0.00e+00	0	35	104	0	60	83950
2026-01-07 07:03:24.43	81.64	7.48	-51.5	-54.0	6.1	0.00e+00	0	34	104	0	60	83503
2026-01-07 07:03:25.44	81.46	7.54	-51.5	-54.0	6.1	0.00e+00	0	34	104	0	60	83581
2026-01-07 07:03:26.45	81.28	7.61	-51.5	-54.0	6.1	0.00e+00	0	35	104	0	60	83497
2026-01-07 07:03:27.47	81.10	7.67	-51.5	-54.0	6.1	0.00e+00	0	35	104	0	60	83743
2026-01-07 07:03:28.48	80.92	7.73	-51.5	-54.0	6.1	0.00e+00	0	35	104	0	60	83468
2026-01-07 07:03:29.49	80.74	7.79	-51.5	-54.0	6.1	0.00e+00	0	35	104	0	60	83533
2026-01-07 07:03:30.50	80.56	7.85	-51.5	-54.0	6.1	0.00e+00	0	35	104	0	60	83445
2026-01-07 07:03:31.51	80.38	7.92	-51.5	-54.0	6.1	0.00e+00	0	35	104	0	60	83699
2026-01-07 07:03:32.52	80.20	7.98	-51.5	-54.0	6.1	0.00e+00	0	35	104	0	60	83803
2026-01-07 07:03:33.53	80.01	8.04	-51.5	-54.0	6.1	0.00e+00	0	35	104	0	60	83674
2026-01-07 07:03:34.54	79.83	8.10	-51.5	-54.0	6.1	0.00e+00	0	35	104	0	60	83698
2026-01-07 07:03:35.55	79.64	8.16	-51.5	-54.0	6.1	0.00e+00	0	35	104	0	60	83954
2026-01-07 07:03:36.56	79.45	8.22	-51.5	-54.0	6.1	0.00e+00	0	34	104	0	60	83337
2026-01-07 07:03:37.58	79.26	8.29	-51.5	-53.9	6.1	0.00e+00	0	35	104	0	60	83243
2026-01-07 07:03:38.59	79.07	8.35	-51.5	-54.0	6.1	0.00e+00	0	35	104	0	60	83920
2026-01-07 07:03:39.60	78.88	8.41	-51.5	-54.0	6.1	0.00e+00	0	35	104	0	60	83548
2026-01-07 07:03:40.61	78.69	8.47	-51.5	-54.0	6.1	0.00e+00	0	35	104	0	60	83698
2026-01-07 07:03:41.62	78.50	8.53	-51.5	-54.0	6.1	0.00e+00	0	35	104	0	60	83688
2026-01-07 07:03:42.63	78.31	8.59	-51.5	-53.9	6.0	0.00e+00	0	35	104	0	60	83220
2026-01-07 07:03:43.64	78.11	8.65	-51.5	-54.0	6.1	0.00e+00	0	35	104	0	60	83721
2026-01-07 07:03:44.65	77.92	8.72	-51.5	-54.0	6.1	0.00e+00	0	35	104	0	60	83483
2026-01-07 07:03:45.66	77.72	8.78	-51.5	-53.9	6.1	0.00e+00	0	35	104	0	60	83147
2026-01-07 07:03:46.67	77.53	8.84	-51.5	-54.0	6.1	0.00e+00	0	35	104	0	60	83342
2026-01-07 07:03:47.68	77.33	8.90	-51.5	-54.0	6.1	0.00e+00	0	35	104	0	60	83539
2026-01-07 07:03:48.70	77.13	8.96	-51.5	-54.0	6.1	0.00e+00	0	35	104	0	60	83709
2026-01-07 07:03:49.71	76.93	9.02	-51.5	-54.0	6.1	0.00e+00	0	35	104	0	60	83494
2026-01-07 07:03:50.72	76.72	9.08	-51.5	-54.0	6.1	0.00e+00	0	35	104	0	60	83579
2026-01-07 07:03:51.73	76.52	9.14	-51.5	-54.0	6.1	0.00e+00	0	35	104	0	60	83923
2026-01-07 07:03:52.74	76.32	9.20	-51.5	-54.0	6.1	0.00e+00	0	35	104	0	60	83695
2026-01-07 07:03:53.75	76.11	9.26	-51.5	-53.9	6.1	0.00e+00	0	35	104	0	60	83039
2026-01-07 07:03:54.76	75.91	9.32	-51.5	-53.9	6.1	0.00e+00	0	35	104	0	60	83046
2026-01-07 07:03:55.77	75.70	9.38	-51.5	-54.0	6.1	0.00e+00	0	35	104	0	60	83498
2026-01-07 07:03:56.78	75.49	9.44	-51.5	-54.0	6.1	0.00e+00	0	35	104	0	60	83698
2026-01-07 07:03:57.80	75.28	9.50	-51.5	-54.0	6.1	0.00e+00	0	35	104	0	60	83739
2026-01-07 07:03:58.81	75.07	9.56	-51.5	-54.0	6.1	0.00e+00	0	35	104	0	60	83304
2026-01-07 07:03:59.82	74.86	9.62	-51.5	-54.0	6.1	0.00e+00	0	35	104	0	60	83924
2026-01-07 07:04:00.83	74.65	9.68	-51.5	-54.0	6.1	0.00e+00	0	35	104	0	60	83437
2026-01-07 07:04:01.84	74.44	9.74	-51.5	-53.9	6.1	0.00e+00	0	35	104	0	60	83275
2026-01-07 07:04:02.85	74.22	9.80	-51.5	-54.0	6.1	0.00e+00	0	35	104	0	60	83304
2026-01-07 07:04:03.86	74.01	9.86	-51.5	-54.0	6.1	0.00e+00	0	35	104	0	60	83427
2026-01-07 07:04:04.87	73.79	9.92	-51.5	-53.9	6.1	0.00e+00	0	35	104	0	60	83207
2026-01-07 07:04:05.88	73.57	9.98	-51.5	-54.0	6.1	0.00e+00	0	35	104	0	60	83696
2026-01-07 07:04:06.89	73.35	10.04	-51.5	-54.0	6.1	0.00e+00	0	35	104	0	60	83733
2026-01-07 07:04:07.90	73.13	10.10	-51.5	-54.0	6.1	0.00e+00	0	35	104	0	60	83373
2026-01-07 07:04:08.92	72.91	10.16	-51.5	-54.0	6.1	0.00e+00	0	35	104	0	60	83633
2026-01-07 07:04:09.93	72.69	10.21	-51.5	-54.0	6.1	0.00e+00	0	35	104	0	60	83404
2026-01-07 07:04:10.94	72.47	10.27	-51.5	-54.0	6.1	0.00e+00	0	35	104	0	60	83594
2026-01-07 07:04:11.95	72.24	10.33	-51.5	-54.0	6.1	0.00e+00	0	35	104	0	60	83601
2026-01-07 07:04:12.96	72.02	10.39	-51.5	-54.0	6.1	0.00e+00	0	35	104	0	60	83372
2026-01-07 07:04:13.97	71.79	10.45	-51.5	-54.0	6.1	0.00e+00	0	35	104	0	60	83664
2026-01-07 07:04:14.98	71.56	10.50	-51.5	-54.0	6.1	0.00e+00	0	35	104	0	60	83376
2026-01-07 07:04:15.99	71.34	10.56	-51.5	-53.9	6.1	0.00e+00	0	35	104	0	60	83000
2026-01-07 07:04:17.01	71.10	10.62	-51.5	-53.9	6.1	0.00e+00	0	35	104	0	60	83240
2026-01-07 07:04:18.02	70.87	10.68	-51.5	-54.0	6.1	0.00e+00	0	35	104	0	60	83741
2026-01-07 07:04:19.03	70.64	10.73	-51.5	-54.0	6.1	0.00e+00	0	35	104	0	60	83677
2026-01-07 07:04:20.04	70.41	10.79	-51.5	-54.0	6.1	0.00e+00	0	35	104	0	60	83518
2026-01-07 07:04:21.05	70.17	10.84	-51.5	-54.0	6.1	0.00e+00	0	35	104	0	60	83376
2026-01-07 07:04:22.06	69.94	10.90	-51.5	-54.0	6.1	0.00e+00	0	35	104	0	60	83788
2026-01-07 07:04:23.07	69.70	10.96	-51.5	-54.0	6.1	0.00e+00	0	35	104	0	60	83416
2026-01-07 07:04:24.08	69.47	11.01	-51.5	-53.9	6.1	0.00e+00	0	35	104	0	60	83110
2026-01-07 07:04:25.09	69.23	11.07	-51.5	-54.0	6.1	0.00e+00	0	35	104	0	60	83587
2026-01-07 07:04:26.10	68.99	11.12	-51.5	-54.0	6.1	0.00e+00	0	35	104	0	60	83351
2026-01-07 07:04:27.11	68.75	11.18	-51.5	-54.0	6.1	0.00e+00	0	35	104	0	60	83631
2026-01-07 07:04:28.12	68.51	11.23	-51.5	-54.0	6.1	0.00e+00	0	35	104	0	60	83594
2026-01-07 07:04:29.13	68.26	11.29	-51.5	-54.0	6.1	0.00e+00	0	35	104	0	60	83384
2026-01-07 07:04:30.14	68.02	11.34	-51.5	-54.0	6.1	0.00e+00	0	35	104	0	60	83485
2026-01-07 07:04:31.15	67.77	11.39	-51.5	-54.0	6.0	0.00e+00	0	35	104	0	60	83400
2026-01-07 07:04:32.16	67.53	11.45	-51.5	-54.0	6.1	0.00e+00	0	35	104	0	60	83462
2026-01-07 07:04:33.18	67.28	11.50	-51.5	-54.0	6.1	0.00e+00	0	35	104	0	60	83528
2026-01-07 07:04:34.19	67.03	11.55	-51.5	-54.0	6.1	0.00e+00	0	35	104	0	60	83624
2026-01-07 07:04:35.20	66.78	11.61	-51.5	-54.0	6.1	0.00e+00	0	35	104	0	60	83588
2026-01-07 07:04:36.21	66.53	11.66	-51.5	-54.0	6.1	0.00e+00	0	35	104	0	60	83666
2026-01-07 07:04:37.22	66.28	11.71	-51.5	-54.0	6.1	0.00e+00	0	35	104	0	60	83617
2026-01-07 07:04:38.23	66.03	11.76	-51.5	-53.9	6.1	0.00e+00	0	35	104	0	60	83251
2026-01-07 07:04:39.24	65.77	11.81	-51.5	-53.9	6.1	0.00e+00	0	35	104	0	60	83264
2026-01-07 07:04:40.25	65.52	11.86	-51.5	-54.0	6.1	0.00e+00	0	35	104	0	60	83544
2026-01-07 07:04:41.26	65.26	11.91	-51.5	-54.0	6.1	0.00e+00	0	35	104	0	60	83661
2026-01-07 07:04:42.27	65.01	11.96	-51.5	-54.0	6.1	0.00e+00	0	35	104	0	60	83600
2026-01-07 07:04:43.29	64.75	12.01	-51.5	-54.0	6.1	0.00e+00	0	35	104	0	60	83774
2026-01-07 07:04:44.30	64.49	12.06	-51.5	-54.0	6.1	0.00e+00	0	35	104	0	60	83731
2026-01-07 07:04:45.31	64.23	12.11	-51.5	-54.0	6.1	0.00e+00	0	35	104	0	60	83624
2026-01-07 07:04:46.32	63.97	12.16	-51.5	-54.0	6.1	0.00e+00	0	35	104	0	60	83566
2026-01-07 07:04:47.33	63.70	12.21	-51.5	-53.9	6.1	0.00e+00	0	35	104	0	60	83278
2026-01-07 07:04:48.34	63.44	12.26	-51.5	-54.0	6.1	0.00e+00	0	35	104	0	60	83962
2026-01-07 07:04:49.35	63.18	12.31	-51.5	-54.0	6.1	0.00e+00	0	35	104	0	60	83871
2026-01-07 07:04:50.36	62.91	12.35	-51.5	-54.0	6.1	0.00e+00	0	35	104	0	60	83668
2026-01-07 07:04:51.37	62.64	12.40	-51.5	-54.0	6.1	0.00e+00	0	35	104	0	60	83592
2026-01-07 07:04:52.38	62.38	12.45	-51.5	-54.0	6.1	0.00e+00	0	35	104	0	60	83479
2026-01-07 07:04:53.39	62.11	12.49	-51.5	-54.0	6.1	0.00e+00	0	35	104	0	60	83659
2026-01-07 07:04:54.40	61.84	12.54	-51.5	-53.9	6.1	0.00e+00	0	35	104	0	60	83068
2026-01-07 07:04:55.42	61.57	12.58	-51.5	-53.9	6.1	0.00e+00	0	35	104	0	60	83153
2026-01-07 07:04:56.43	61.30	12.63	-51.5	-53.9	6.1	0.00e+00	0	35	104	0	60	83177
2026-01-07 07:04:57.44	61.02	12.67	-51.5	-54.0	6.1	0.00e+00	0	35	104	0	60	83880
2026-01-07 07:04:58.45	60.75	12.72	-51.5	-53.9	6.1	0.00e+00	0	35	104	0	60	83103
2026-01-07 07:04:59.46	60.48	12.76	-51.5	-54.0	6.1	0.00e+00	0	35	104	0	60	83860
2026-01-07 07:05:00.47	60.20	12.80	-51.5	-54.0	6.1	0.00e+00	0	35	104	0	60	83445
2026-01-07 07:05:01.48	59.92	12.85	-51.5	-54.0	6.1	0.00e+00	0	35	104	0	60	83335
2026-01-07 07:05:02.49	59.65	12.89	-51.5	-54.0	6.1	0.00e+00	0	35	104	0	60	83525
2026-01-07 07:05:03.50	59.37	12.93	-51.5	-54.0	6.1	0.00e+00	0	35	104	0	60	83515
2026-01-07 07:05:04.51	59.09	12.97	-51.5	-53.9	6.1	0.00e+00	0	35	104	0	60	83214
2026-01-07 07:05:05.52	58.81	13.01	-51.5	-53.9	6.1	0.00e+00	0	35	104	0	60	83212
2026-01-07 07:05:06.53	58.53	13.05	-51.5	-54.0	6.1	0.00e+00	0	35	104	0	60	83783
2026-01-07 07:05:07.54	58.25	13.09	-51.5	-53.9	6.1	0.00e+00	0	35	104	0	60	83223
2026-01-07 07:05:08.56	57.96	13.13	-51.5	-53.9	6.1	0.00e+00	0	36	104	0	60	82919
2026-01-07 07:05:09.57	57.68	13.17	-51.5	-54.0	6.1	0.00e+00	0	36	104	0	60	83494
2026-01-07 07:05:10.58	57.39	13.21	-51.5	-54.0	6.1	0.00e+00	0	35	104	0	60	83443
2026-01-07 07:05:11.59	57.11	13.25	-51.5	-53.9	6.1	0.00e+00	0	35	104	0	60	83236
2026-01-07 07:05:12.60	56.82	13.28	-51.5	-54.0	6.1	0.00e+00	0	35	104	0	60	83580
2026-01-07 07:05:13.61	56.53	13.32	-51.5	-54.0	6.1	0.00e+00	0	35	104	0	60	83996
2026-01-07 07:05:14.62	56.25	13.36	-51.5	-53.9	6.1	0.00e+00	0	35	104	0	60	83204
2026-01-07 07:05:15.63	55.96	13.39	-51.5	-54.0	6.1	0.00e+00	0	35	104	0	60	83578
2026-01-07 07:05:16.65	55.66	13.43	-51.5	-54.0	6.1	0.00e+00	0	36	104	0	60	83722
2026-01-07 07:05:17.66	55.37	13.46	-51.5	-54.0	6.1	0.00e+00	0	35	104	0	60	83496
2026-01-07 07:05:18.67	55.08	13.49	-51.5	-54.0	6.1	0.00e+00	0	35	104	0	60	83645
2026-01-07 07:05:19.68	54.79	13.53	-51.5	-54.0	6.1	0.00e+00	0	35	104	0	60	83578
2026-01-07 07:05:20.69	54.50	13.56	-51.5	-54.0	6.1	0.00e+00	0	35	104	0	60	83738
2026-01-07 07:05:21.70	54.20	13.59	-51.5	-54.0	6.1	0.00e+00	0	35	104	0	60	83877
2026-01-07 07:05:22.71	53.91	13.62	-51.5	-54.0	6.1	0.00e+00	0	35	104	0	60	83630
2026-01-07 07:05:23.72	53.62	13.65	-51.5	-54.0	6.1	0.00e+00	0	35	104	0	60	83686
2026-01-07 07:05:24.73	53.32	13.68	-51.5	-54.0	6.1	0.00e+00	0	36	104	0	60	83693
2026-01-07 07:05:25.74	53.02	13.71	-51.5	-54.0	6.1	0.00e+00	0	36	104	0	60	83671
2026-01-07 07:05:26.76	52.72	13.74	-51.5	-54.0	6.1	0.00e+00	0	35	104	0	60	83867
2026-01-07 07:05:27.77	52.42	13.77	-51.5	-54.0	6.0	0.00e+00	0	35	104	0	60	83368
2026-01-07 07:05:28.78	52.13	13.80	-51.5	-53.9	6.1	0.00e+00	0	36	104	0	60	83251
2026-01-07 07:05:29.79	51.83	13.83	-51.5	-54.0	6.1	0.00e+00	0	35	104	0	60	83708
2026-01-07 07:05:30.80	51.53	13.85	-51.5	-54.0	6.1	0.00e+00	0	36	104	0	60	83429
2026-01-07 07:05:31.81	51.23	13.88	-51.5	-54.0	6.1	0.00e+00	0	35	104	0	60	83481
2026-01-07 07:05:32.82	50.93	13.90	-51.5	-54.0	6.1	0.00e+00	0	35	104	0	60	83497
2026-01-07 07:05:33.83	50.62	13.93	-51.5	-54.0	6.1	0.00e+00	0	35	104	0	60	83479
2026-01-07 07:05:34.84	50.32	13.95	-51.5	-54.0	6.1	0.00e+00	0	35	104	0	60	83494
2026-01-07 07:05:35.85	50.02	13.98	-51.5	-53.9	6.1	0.00e+00	0	35	104	0	60	83221
2026-01-07 07:05:36.86	49.71	14.00	-51.5	-53.9	6.1	0.00e+00	0	35	104	0	60	83146
2026-01-07 07:05:37.87	49.41	14.02	-51.5	-54.0	6.1	0.00e+00	0	35	104	0	60	83841
2026-01-07 07:05:38.88	49.11	14.04	-51.5	-54.0	6.1	0.00e+00	0	35	104	0	60	83373
2026-01-07 07:05:39.89	48.80	14.06	-51.5	-54.0	6.1	0.00e+00	0	35	104	0	60	83799
2026-01-07 07:05:40.90	48.50	14.08	-51.5	-54.0	6.1	0.00e+00	0	35	104	0	60	84195
2026-01-07 07:05:41.92	48.19	14.10	-51.5	-54.0	6.1	0.00e+00	0	35	104	0	60	83750
2026-01-07 07:05:42.93	47.88	14.12	-51.5	-54.0	6.1	0.00e+00	0	35	104	0	60	83881
2026-01-07 07:05:43.94	47.57	14.14	-51.5	-54.0	6.1	0.00e+00	0	35	104	0	60	83531
2026-01-07 07:05:44.95	47.27	14.16	-51.5	-54.0	6.1	0.00e+00	0	35	104	0	60	83748
2026-01-07 07:05:45.96	46.96	14.17	-51.5	-53.9	6.1	0.00e+00	0	35	104	0	60	83277
2026-01-07 07:05:46.97	46.65	14.19	-51.5	-54.0	6.1	0.00e+00	0	36	104	0	60	83893
2026-01-07 07:05:47.98	46.34	14.20	-51.5	-54.0	6.1	0.00e+00	0	35	104	0	60	83676
2026-01-07 07:05:48.99	46.03	14.22	-51.5	-54.0	6.1	0.00e+00	0	36	104	0	60	83306
2026-01-07 07:05:50.00	45.72	14.23	-51.5	-54.0	6.1	0.00e+00	0	35	104	0	60	83781
2026-01-07 07:05:51.01	45.41	14.24	-51.5	-54.0	6.1	0.00e+00	0	36	104	0	60	83577
2026-01-07 07:05:52.02	45.10	14.26	-51.5	-54.0	6.1	0.00e+00	0	35	104	0	60	83880
2026-01-07 07:05:53.03	44.79	14.27	-51.5	-54.0	6.1	0.00e+00	0	35	104	0	60	83825
2026-01-07 07:05:54.04	44.48	14.28	-51.5	-54.0	6.1	0.00e+00	0	36	104	0	60	83761
2026-01-07 07:05:55.05	44.17	14.29	-51.5	-54.0	6.1	0.00e+00	0	36	104	0	60	83482
2026-01-07 07:05:56.06	43.86	14.30	-51.5	-54.0	6.1	0.00e+00	0	35	104	0	60	83696
2026-01-07 07:05:57.07	43.55	14.31	-51.5	-54.0	6.1	0.00e+00	0	36	104	0	60	83728
2026-01-07 07:05:58.08	43.24	14.32	-51.5	-54.0	6.1	0.00e+00	0	35	104	0	60	83509
2026-01-07 07:05:59.09	42.93	14.32	-51.5	-54.0	6.1	0.00e+00	0	35	104	0	60	83773
2026-01-07 07:06:00.10	42.62	14.33	-51.5	-54.0	6.1	0.00e+00	0	35	104	0	60	83801
2026-01-07 07:06:01.11	42.30	14.34	-51.5	-54.0	6.1	0.00e+00	0	36	104	0	60	83708
2026-01-07 07:06:02.12	41.99	14.34	-51.5	-54.0	6.1	0.00e+00	0	35	104	0	60	83904
2026-01-07 07:06:03.13	41.68	14.34	-51.5	-54.0	6.1	0.00e+00	0	36	104	0	60	84006
2026-01-07 07:06:04.14	41.37	14.35	-51.5	-54.0	6.1	0.00e+00	0	36	104	0	60	83941
2026-01-07 07:06:05.15	41.06	14.35	-51.5	-54.0	6.1	0.00e+00	0	36	104	0	60	83733
2026-01-07 07:06:06.16	40.74	14.35	-51.5	-54.0	6.1	0.00e+00	0	36	104	0	60	83642
2026-01-07 07:06:07.17	40.43	14.35	-51.5	-54.0	6.1	0.00e+00	0	36	104	0	60	83687
2026-01-07 07:06:08.18	40.12	14.36	-51.5	-54.0	6.1	0.00e+00	0	36	104	0	60	83296
2026-01-07 07:06:09.19	39.81	14.36	-51.5	-54.0	6.1	0.00e+00	0	36	104	0	60	83729
2026-01-07 07:06:10.20	39.49	14.35	-51.5	-54.0	6.1	0.00e+00	0	35	104	0	60	83397
2026-01-07 07:06:11.21	39.18	14.35	-51.5	-54.0	6.1	0.00e+00	0	36	104	0	60	83838
2026-01-07 07:06:12.22	38.87	14.35	-51.5	-54.0	6.1	0.00e+00	0	36	104	0	60	83682
2026-01-07 07:06:13.23	38.56	14.35	-51.5	-54.0	6.1	0.00e+00	0	36	104	0	60	83377
2026-01-07 07:06:14.24	38.25	14.34	-51.5	-54.0	6.1	0.00e+00	0	36	104	0	60	83523
2026-01-07 07:06:15.25	37.93	14.34	-51.5	-54.0	6.1	0.00e+00	0	36	104	0	60	84003
2026-01-07 07:06:16.26	37.62	14.33	-51.5	-54.0	6.1	0.00e+00	0	36	104	0	60	83542
2026-01-07 07:06:17.27	37.31	14.33	-51.5	-54.0	6.1	0.00e+00	0	36	104	0	60	83464
2026-01-07 07:06:18.28	37.00	14.32	-51.5	-54.0	6.1	0.00e+00	0	36	104	0	60	83606
2026-01-07 07:06:19.29	36.69	14.31	-51.5	-54.0	6.1	0.00e+00	0	36	104	0	60	83437
2026-01-07 07:06:20.29	36.38	14.31	-51.5	-54.0	6.1	0.00e+00	0	36	104	0	60	83845
2026-01-07 07:06:21.30	36.07	14.30	-51.5	-54.0	6.1	0.00e+00	0	36	104	0	60	83510
2026-01-07 07:06:22.32	35.76	14.29	-51.5	-54.0	6.1	0.00e+00	0	36	104	0	60	83811
2026-01-07 07:06:23.33	35.45	14.28	-51.5	-54.0	6.1	0.00e+00	0	36	104	0	60	83496
2026-01-07 07:06:24.34	35.13	14.27	-51.5	-54.0	6.1	0.00e+00	0	36	104	0	60	83563
2026-01-07 07:06:25.35	34.83	14.25	-51.5	-54.0	6.1	0.00e+00	0	36	104	0	60	83734
2026-01-07 07:06:26.35	34.52	14.24	-51.5	-54.0	6.1	0.00e+00	0	36	104	0	60	83994
2026-01-07 07:06:27.37	34.21	14.23	-51.5	-54.0	6.1	0.00e+00	0	36	104	0	60	83925
2026-01-07 07:06:28.37	33.90	14.22	-51.5	-54.0	6.1	0.00e+00	0	36	104	0	60	83881
2026-01-07 07:06:29.38	33.59	14.20	-51.5	-54.0	6.1	0.00e+00	0	36	104	0	60	83531
2026-01-07 07:06:30.39	33.28	14.19	-51.5	-54.0	6.1	0.00e+00	0	36	104	0	60	83664
2026-01-07 07:06:31.40	32.98	14.17	-51.5	-54.0	6.1	0.00e+00	0	36	104	0	60	83870
2026-01-07 07:06:32.41	32.67	14.15	-51.5	-54.0	6.1	0.00e+00	0	36	104	0	60	83602
2026-01-07 07:06:33.42	32.36	14.14	-51.5	-54.0	6.1	0.00e+00	0	36	104	0	60	83780
2026-01-07 07:06:34.43	32.06	14.12	-51.5	-54.0	6.1	0.00e+00	0	36	104	0	60	83717
2026-01-07 07:06:35.44	31.75	14.10	-51.5	-54.0	6.1	0.00e+00	0	36	104	0	60	83837
2026-01-07 07:06:36.45	31.44	14.08	-51.5	-54.0	6.1	0.00e+00	0	36	104	0	60	83814
2026-01-07 07:06:37.46	31.14	14.06	-51.5	-54.0	6.1	0.00e+00	0	36	104	0	60	83821
2026-01-07 07:06:38.47	30.84	14.04	-51.5	-54.0	6.1	0.00e+00	0	36	104	0	60	83733
2026-01-07 07:06:39.48	30.53	14.02	-51.5	-54.0	6.1	0.00e+00	0	36	104	0	60	84054
2026-01-07 07:06:40.49	30.23	14.00	-51.5	-54.0	6.1	0.00e+00	0	36	104	0	60	83526
2026-01-07 07:06:41.50	29.92	13.97	-51.5	-54.0	6.1	0.00e+00	0	36	104	0	60	84052
2026-01-07 07:06:42.51	29.62	13.95	-51.5	-54.0	6.1	0.00e+00	0	36	104	0	60	83870
2026-01-07 07:06:43.52	29.32	13.93	-51.5	-54.0	6.1	0.00e+00	0	36	104	0	60	83701
2026-01-07 07:06:44.53	29.02	13.90	-51.5	-54.0	6.1	0.00e+00	0	36	104	0	60	83764
2026-01-07 07:06:45.54	28.72	13.88	-51.5	-53.9	6.1	0.00e+00	0	36	104	0	60	83171
2026-01-07 07:06:46.56	28.42	13.85	-51.5	-54.0	6.1	0.00e+00	0	36	104	0	60	83767
2026-01-07 07:06:47.57	28.12	13.82	-51.5	-54.0	6.1	0.00e+00	0	36	104	0	60	83918
2026-01-07 07:06:48.58	27.82	13.80	-51.5	-54.0	6.1	0.00e+00	0	36	104	0	60	84055
2026-01-07 07:06:49.58	27.52	13.77	-51.5	-54.0	6.1	0.00e+00	0	36	104	0	60	83632
2026-01-07 07:06:50.59	27.23	13.74	-51.5	-54.0	6.1	0.00e+00	0	36	104	0	60	83408
2026-01-07 07:06:51.60	26.93	13.71	-51.5	-54.0	6.1	0.00e+00	0	36	104	0	60	83601
2026-01-07 07:06:52.62	26.63	13.68	-51.5	-54.0	6.1	0.00e+00	0	36	104	0	60	83745
2026-01-07 07:06:53.62	26.34	13.65	-51.5	-54.0	6.1	0.00e+00	0	36	104	0	60	83681
2026-01-07 07:06:54.63	26.05	13.62	-51.5	-54.0	6.1	0.00e+00	0	36	104	0	60	83746
2026-01-07 07:06:55.64	25.75	13.59	-51.5	-54.0	6.1	0.00e+00	0	36	104	0	60	83900
2026-01-07 07:06:56.65	25.46	13.56	-51.5	-54.0	6.1	0.00e+00	0	36	104	0	60	83430
2026-01-07 07:06:57.66	25.17	13.52	-51.5	-54.0	6.1	0.00e+00	0	36	104	0	60	83508
2026-01-07 07:06:58.67	24.88	13.49	-51.5	-54.0	6.1	0.00e+00	0	36	104	0	60	83362
2026-01-07 07:06:59.68	24.59	13.46	-51.5	-54.0	6.1	0.00e+00	0	36	104	0	60	83728
2026-01-07 07:07:00.69	24.30	13.42	-51.5	-54.0	6.1	0.00e+00	0	36	104	0	60	83530
2026-01-07 07:07:01.70	24.01	13.39	-51.5	-54.0	6.1	0.00e+00	0	36	104	0	60	83703
2026-01-07 07:07:02.72	23.72	13.35	-51.5	-54.0	6.1	0.00e+00	0	36	104	0	60	83432
2026-01-07 07:07:03.73	23.43	13.32	-51.5	-54.0	6.1	0.00e+00	0	36	104	0	60	83862
2026-01-07 07:07:04.74	23.14	13.28	-51.5	-54.0	6.1	0.00e+00	0	36	104	0	60	83701
2026-01-07 07:07:05.75	22.86	13.24	-51.5	-54.0	6.1	0.00e+00	0	36	104	0	60	83744
2026-01-07 07:07:06.76	22.57	13.21	-51.5	-54.0	6.1	0.00e+00	0	36	104	0	60	83743
2026-01-07 07:07:07.77	22.29	13.17	-51.5	-54.0	6.1	0.00e+00	0	36	104	0	60	83742
2026-01-07 07:07:08.78	22.01	13.13	-51.5	-54.0	6.1	0.00e+00	0	36	104	0	60	84053
2026-01-07 07:07:09.79	21.73	13.09	-51.5	-53.9	6.1	0.00e+00	0	36	104	0	60	83261
2026-01-07 07:07:10.80	21.44	13.05	-51.5	-54.0	6.1	0.00e+00	0	36	104	0	60	83986
2026-01-07 07:07:11.81	21.16	13.01	-51.5	-53.9	6.1	0.00e+00	0	36	104	0	60	83207
2026-01-07 07:07:12.82	20.89	12.97	-51.5	-53.9	6.1	0.00e+00	0	36	104	0	60	83215
2026-01-07 07:07:13.83	20.61	12.93	-51.5	-54.0	6.1	0.00e+00	0	36	104	0	60	83994
2026-01-07 07:07:14.84	20.33	12.89	-51.5	-54.0	6.1	0.00e+00	0	36	104	0	60	83937
2026-01-07 07:07:15.85	20.05	12.84	-51.5	-54.0	6.1	0.00e+00	0	36	104	0	60	83756
2026-01-07 07:07:16.86	19.78	12.80	-51.5	-54.0	6.1	0.00e+00	0	36	104	0	60	83350
2026-01-07 07:07:17.87	19.51	12.76	-51.5	-54.0	6.1	0.00e+00	0	36	104	0	60	83591
2026-01-07 07:07:18.88	19.23	12.72	-51.5	-54.0	6.1	0.00e+00	0	36	104	0	60	83827
2026-01-07 07:07:19.89	18.96	12.67	-51.5	-54.0	6.1	0.00e+00	0	36	104	0	60	83859
2026-01-07 07:07:20.90	18.69	12.63	-51.5	-54.1	6.1	0.00e+00	0	36	104	0	60	84260
2026-01-07 07:07:21.91	18.42	12.58	-51.5	-54.0	6.0	0.00e+00	0	36	104	0	60	83816
2026-01-07 07:07:22.92	18.15	12.54	-51.5	-54.0	6.1	0.00e+00	0	36	104	0	60	83878
2026-01-07 07:07:23.93	17.88	12.49	-51.5	-54.0	6.1	0.00e+00	0	36	104	0	60	83889
2026-01-07 07:07:24.94	17.61	12.45	-51.5	-54.0	6.1	0.00e+00	0	36	104	0	60	83757
2026-01-07 07:07:25.94	17.35	12.40	-51.5	-54.0	6.1	0.00e+00	0	36	104	0	60	83555
2026-01-07 07:07:26.95	17.09	12.35	-51.5	-54.0	6.1	0.00e+00	0	36	104	0	60	84100
2026-01-07 07:07:27.96	16.82	12.31	-51.5	-54.0	6.1	0.00e+00	0	36	104	0	60	83321
2026-01-07 07:07:28.97	16.56	12.26	-51.5	-54.0	6.1	0.00e+00	0	36	104	0	60	83676
2026-01-07 07:07:29.98	16.30	12.21	-51.5	-54.0	6.1	0.00e+00	0	36	104	0	60	83704
2026-01-07 07:07:30.99	16.03	12.16	-51.5	-54.0	6.1	0.00e+00	0	36	104	0	60	83342
2026-01-07 07:07:32.00	15.77	12.11	-51.5	-54.0	6.1	0.00e+00	0	36	104	0	60	83528
2026-01-07 07:07:33.01	15.52	12.07	-51.5	-54.0	6.1	0.00e+00	0	36	104	0	60	84007
2026-01-07 07:07:34.02	15.26	12.02	-51.5	-54.0	6.1	0.00e+00	0	36	104	0	60	83610
2026-01-07 07:07:35.03	15.00	11.97	-51.5	-54.0	6.1	0.00e+00	0	36	104	0	60	83384
2026-01-07 07:07:36.04	14.75	11.92	-51.5	-54.0	6.1	0.00e+00	0	36	104	0	60	83923
2026-01-07 07:07:37.05	14.49	11.87	-51.5	-54.0	6.1	0.00e+00	0	36	104	0	60	83733
2026-01-07 07:07:38.06	14.24	11.81	-51.5	-54.0	6.1	0.00e+00	0	36	104	0	60	83504
2026-01-07 07:07:39.07	13.99	11.76	-51.5	-54.0	6.1	0.00e+00	0	36	104	0	60	83664
2026-01-07 07:07:40.08	13.73	11.71	-51.5	-54.0	6.1	0.00e+00	0	36	104	0	60	83974
2026-01-07 07:07:41.09	13.48	11.66	-51.5	-54.0	6.1	0.00e+00	0	36	104	0	60	83644
2026-01-07 07:07:42.09	13.24	11.61	-51.5	-54.0	6.1	0.00e+00	0	36	104	0	60	84235
2026-01-07 07:07:43.10	12.99	11.56	-51.5	-54.0	6.1	0.00e+00	0	36	104	0	60	83456
2026-01-07 07:07:44.11	12.74	11.50	-51.5	-54.0	6.1	0.00e+00	0	36	104	0	60	83658
2026-01-07 07:07:45.12	12.50	11.45	-51.5	-54.0	6.1	0.00e+00	0	36	104	0	60	83700
2026-01-07 07:07:46.13	12.25	11.40	-51.5	-54.0	6.1	0.00e+00	0	36	104	0	60	83869
2026-01-07 07:07:47.14	12.01	11.34	-51.5	-54.0	6.0	0.00e+00	0	36	104	0	60	83649
2026-01-07 07:07:48.15	11.76	11.29	-51.5	-54.0	6.1	0.00e+00	0	36	104	0	60	83768
2026-01-07 07:07:49.16	11.52	11.24	-51.5	-54.0	6.1	0.00e+00	0	36	104	0	60	83988
2026-01-07 07:07:50.17	11.28	11.18	-51.5	-54.0	6.1	0.00e+00	0	36	104	0	60	83808
2026-01-07 07:07:51.18	11.04	11.13	-51.5	-54.0	6.1	0.00e+00	0	36	104	0	60	83754
2026-01-07 07:07:52.19	10.81	11.07	-51.5	-54.0	6.1	0.00e+00	0	36	104	0	60	83835
2026-01-07 07:07:53.20	10.57	11.02	-51.5	-54.0	6.1	0.00e+00	0	36	104	0	60	83388
2026-01-07 07:07:54.21	10.33	10.96	-51.5	-54.0	6.1	0.00e+00	0	36	104	0	60	83832
2026-01-07 07:07:55.22	10.10	10.91	-51.5	-54.0	6.1	0.00e+00	0	36	104	0	60	83458
2026-01-07 07:07:56.23	9.86	10.85	-51.5	-54.0	6.1	0.00e+00	0	36	104	0	60	83895
2026-01-07 07:07:57.24	9.63	10.80	-51.5	-54.0	6.1	0.00e+00	0	36	104	0	60	83865
2026-01-07 07:07:58.25	9.40	10.74	-51.5	-54.0	6.1	0.00e+00	0	36	104	0	60	83433
2026-01-07 07:07:59.25	9.17	10.68	-51.5	-54.0	6.1	0.00e+00	0	36	104	0	60	83661
2026-01-07 07:08:00.26	8.94	10.63	-51.5	-53.9	6.1	0.00e+00	0	36	104	0	60	83177
2026-01-07 07:08:01.27	8.71	10.57	-51.5	-54.0	6.1	0.00e+00	0	36	104	0	60	83955
2026-01-07 07:08:02.29	8.48	10.51	-51.5	-54.0	6.1	0.00e+00	0	36	104	0	60	83338
2026-01-07 07:08:03.29	8.26	10.46	-51.5	-54.0	6.1	0.00e+00	0	36	104	0	60	83810
2026-01-07 07:08:04.30	8.03	10.40	-51.5	-54.0	6.1	0.00e+00	0	36	104	0	60	83861
2026-01-07 07:08:05.31	7.81	10.34	-51.5	-54.0	6.1	0.00e+00	0	36	104	0	60	83571
2026-01-07 07:08:06.32	7.59	10.28	-51.5	-54.0	6.1	0.00e+00	0	36	104	0	60	83772
2026-01-07 07:08:07.33	7.37	10.23	-51.5	-54.0	6.1	0.00e+00	0	36	104	0	60	83884
2026-01-07 07:08:08.34	7.15	10.17	-51.5	-54.0	6.1	0.00e+00	0	36	104	0	60	83537
2026-01-07 07:08:09.35	6.93	10.11	-51.5	-54.0	6.1	0.00e+00	0	36	104	0	60	83337
2026-01-07 07:08:10.36	6.71	10.05	-51.5	-54.0	6.1	0.00e+00	0	36	104	0	60	83843
2026-01-07 07:08:11.37	6.49	9.99	-51.5	-54.0	6.1	0.00e+00	0	36	104	0	60	83709
2026-01-07 07:08:12.38	6.27	9.93	-51.5	-54.0	6.1	0.00e+00	0	36	104	0	60	83520
2026-01-07 07:08:13.38	6.06	9.88	-51.5	-54.0	6.1	0.00e+00	0	36	104	0	60	83440
2026-01-07 07:08:14.40	5.84	9.82	-51.5	-54.0	6.1	0.00e+00	0	36	104	0	60	83647
2026-01-07 07:08:15.40	5.63	9.76	-51.5	-54.0	6.1	0.00e+00	0	36	104	0	60	83934
2026-01-07 07:08:16.41	5.42	9.70	-51.5	-54.0	6.1	0.00e+00	0	36	104	0	60	84004
2026-01-07 07:08:17.42	5.21	9.64	-51.5	-54.0	6.1	0.00e+00	0	36	104	0	60	83689
2026-01-07 07:08:18.44	5.00	9.58	-51.5	-54.0	6.1	0.00e+00	0	36	104	0	60	83784
2026-01-07 07:08:19.44	4.79	9.52	-51.5	-54.0	6.1	0.00e+00	0	36	104	0	60	83833
2026-01-07 07:08:20.45	4.58	9.46	-51.5	-54.0	6.1	0.00e+00	0	36	104	0	60	83987
2026-01-07 07:08:21.47	4.38	9.40	-51.5	-54.0	6.1	0.00e+00	0	36	104	0	60	84178
2026-01-07 07:08:22.47	4.17	9.34	-51.5	-54.0	6.1	0.00e+00	0	36	104	0	60	83551
2026-01-07 07:08:23.48	3.97	9.28	-51.5	-54.0	6.1	0.00e+00	0	36	104	0	60	83769
2026-01-07 07:08:24.49	3.76	9.22	-51.5	-54.0	6.1	0.00e+00	0	36	104	0	60	83901
2026-01-07 07:08:25.51	3.56	9.16	-51.5	-54.0	6.1	0.00e+00	0	36	104	0	60	83931
2026-01-07 07:08:26.52	3.36	9.10	-51.5	-54.0	6.1	0.00e+00	0	36	104	0	60	83555
2026-01-07 07:08:27.53	3.16	9.04	-51.5	-54.0	6.1	0.00e+00	0	36	104	0	60	83559
2026-01-07 07:08:28.54	2.96	8.98	-51.5	-54.0	6.1	0.00e+00	0	36	104	0	60	83553
2026-01-07 07:08:29.55	2.76	8.92	-51.5	-54.0	6.1	0.00e+00	0	36	104	0	60	83467
2026-01-07 07:08:30.56	2.56	8.86	-51.5	-54.0	6.1	0.00e+00	0	36	104	0	60	84113
2026-01-07 07:08:31.57	2.37	8.80	-51.5	-54.0	6.1	0.00e+00	0	36	104	0	60	84188
2026-01-07 07:08:32.58	2.17	8.74	-51.5	-54.0	6.1	0.00e+00	0	36	104	0	60	83429
2026-01-07 07:08:33.59	1.98	8.67	-51.5	-54.0	6.1	0.00e+00	0	36	104	0	60	84239
2026-01-07 07:08:34.60	1.79	8.61	-51.5	-54.0	6.1	0.00e+00	0	36	104	0	60	83953
2026-01-07 07:08:35.60	1.60	8.55	-51.5	-54.0	6.1	0.00e+00	0	36	104	0	60	83717
2026-01-07 07:08:36.61	1.40	8.49	-51.5	-54.0	6.1	0.00e+00	0	36	104	0	60	83605
2026-01-07 07:08:37.62	1.21	8.43	-51.5	-54.0	6.1	0.00e+00	0	36	104	0	60	83515
2026-01-07 07:08:38.63	1.03	8.37	-51.5	-54.0	6.1	0.00e+00	0	36	104	0	60	83845
2026-01-07 07:08:39.64	0.84	8.31	-51.5	-54.0	6.1	0.00e+00	0	36	104	0	60	83692
2026-01-07 07:08:40.65	0.65	8.25	-51.5	-54.1	6.1	0.00e+00	0	36	104	0	60	84271
2026-01-07 07:08:41.66	0.46	8.19	-51.5	-54.0	6.1	0.00e+00	0	36	104	0	60	83920
2026-01-07 07:08:42.67	0.28	8.12	-51.5	-54.0	6.0	0.00e+00	0	36	104	0	60	83741
2026-01-07 07:08:43.68	0.10	8.06	-51.5	-54.0	6.1	0.00e+00	0	36	104	0	60	83808
2026-01-07 07:08:44.68	359.91	8.00	-51.5	-54.0	6.1	0.00e+00	0	36	104	0	60	83621
2026-01-07 07:08:45.69	359.73	7.94	-51.5	-54.0	6.1	0.00e+00	0	36	104	0	60	83995
2026-01-07 07:08:46.71	359.55	7.88	-51.5	-54.0	6.1	0.00e+00	0	36	104	0	60	83892
2026-01-07 07:08:47.71	359.37	7.82	-51.5	-54.0	6.1	0.00e+00	0	36	104	0	60	84194
2026-01-07 07:08:48.72	359.19	7.76	-51.5	-54.0	6.1	0.00e+00	0	36	104	0	60	83850
2026-01-07 07:08:49.73	359.01	7.70	-51.5	-54.0	6.1	0.00e+00	0	36	104	0	60	83838
2026-01-07 07:08:50.74	358.84	7.63	-51.5	-54.0	6.1	0.00e+00	0	36	104	0	60	83872
2026-01-07 07:08:51.75	358.66	7.57	-51.5	-54.1	6.1	0.00e+00	0	36	104	0	60	84377
2026-01-07 07:08:52.76	358.48	7.51	-51.5	-54.0	6.1	0.00e+00	0	36	104	0	60	83714
2026-01-07 07:08:53.77	358.31	7.45	-51.5	-54.0	6.1	0.00e+00	0	36	104	0	60	84223
2026-01-07 07:08:54.78	358.14	7.39	-51.5	-54.0	6.1	0.00e+00	0	36	104	0	60	83806
2026-01-07 07:08:55.79	357.96	7.33	-51.5	-54.0	6.1	0.00e+00	0	36	104	0	60	83671
2026-01-07 07:08:56.80	357.79	7.26	-51.5	-54.0	6.1	0.00e+00	0	36	104	0	60	83960
2026-01-07 07:08:57.81	357.62	7.20	-51.5	-54.0	6.1	0.00e+00	0	36	104	0	60	84007
2026-01-07 07:08:58.82	357.45	7.14	-51.5	-54.0	6.1	0.00e+00	0	36	104	0	60	83882
2026-01-07 07:08:59.83	357.28	7.08	-51.5	-54.0	6.1	0.00e+00	0	36	104	0	60	83553
2026-01-07 07:09:00.84	357.12	7.02	-51.5	-54.0	6.1	0.00e+00	0	36	104	0	60	83870
2026-01-07 07:09:01.85	356.95	6.96	-51.5	-54.0	6.1	0.00e+00	0	36	104	0	60	83454
2026-01-07 07:09:02.86	356.78	6.89	-51.5	-54.0	6.1	0.00e+00	0	36	104	0	60	83826
2026-01-07 07:09:03.87	356.62	6.83	-51.5	-54.0	6.1	0.00e+00	0	36	104	0	60	83660
2026-01-07 07:09:04.88	356.45	6.77	-51.5	-54.0	6.1	0.00e+00	0	36	104	0	60	84217
2026-01-07 07:09:05.89	356.29	6.71	-51.5	-54.0	6.1	0.00e+00	0	36	104	0	60	83690
2026-01-07 07:09:06.90	356.13	6.65	-51.5	-54.0	6.1	0.00e+00	0	36	104	0	60	83657
2026-01-07 07:09:07.91	355.97	6.59	-51.5	-54.0	6.1	0.00e+00	0	36	104	0	60	83568
2026-01-07 07:09:08.92	355.80	6.52	-51.5	-54.0	6.1	0.00e+00	0	36	104	0	60	84123
2026-01-07 07:09:09.93	355.64	6.46	-51.5	-54.0	6.1	0.00e+00	0	36	104	0	60	83438
2026-01-07 07:09:10.94	355.49	6.40	-51.5	-54.0	6.1	0.00e+00	0	36	104	0	60	83407
2026-01-07 07:09:11.95	355.33	6.34	-51.5	-54.0	6.1	0.00e+00	0	36	104	0	60	83971
2026-01-07 07:09:12.96	355.17	6.28	-51.5	-54.0	6.1	0.00e+00	0	36	104	0	60	84235
2026-01-07 07:09:13.97	355.01	6.22	-51.5	-54.0	6.1	0.00e+00	0	36	104	0	60	84000
2026-01-07 07:09:14.97	354.86	6.16	-51.5	-54.0	6.1	0.00e+00	0	36	104	0	60	83734
2026-01-07 07:09:15.98	354.70	6.09	-51.5	-54.0	6.1	0.00e+00	0	36	104	0	60	83622
2026-01-07 07:09:16.99	354.55	6.03	-51.5	-54.0	6.1	0.00e+00	0	36	104	0	60	83686
2026-01-07 07:09:18.00	354.40	5.97	-51.5	-54.0	6.1	0.00e+00	0	36	104	0	60	83753
2026-01-07 07:09:19.01	354.24	5.91	-51.5	-54.0	6.1	0.00e+00	0	36	104	0	60	83767
2026-01-07 07:09:20.02	354.09	5.85	-51.5	-54.0	6.1	0.00e+00	0	36	104	0	60	83544
2026-01-07 07:09:21.03	353.94	5.79	-51.5	-54.0	6.1	0.00e+00	0	36	104	0	60	83888
2026-01-07 07:09:22.04	353.79	5.73	-51.5	-54.0	6.1	0.00e+00	0	36	104	0	60	83775
2026-01-07 07:09:23.05	353.64	5.67	-51.5	-54.0	6.1	0.00e+00	0	36	104	0	60	83535
2026-01-07 07:09:24.06	353.50	5.60	-51.5	-54.0	6.1	0.00e+00	0	36	104	0	60	83829
2026-01-07 07:09:25.07	353.35	5.54	-51.5	-54.0	6.1	0.00e+00	0	36	104	0	60	83825
2026-01-07 07:09:26.08	353.20	5.48	-51.5	-54.0	6.1	0.00e+00	0	36	104	0	60	83632
2026-01-07 07:09:27.09	353.06	5.42	-51.5	-54.0	6.1	0.00e+00	0	36	104	0	60	83496
2026-01-07 07:09:28.10	352.91	5.36	-51.5	-54.0	6.1	0.00e+00	0	36	104	0	60	83774
2026-01-07 07:09:29.11	352.77	5.30	-51.5	-54.0	6.1	0.00e+00	0	36	104	0	60	84008
2026-01-07 07:09:30.12	352.62	5.24	-51.5	-54.0	6.1	0.00e+00	0	36	104	0	60	83364
2026-01-07 07:09:31.13	352.48	5.18	-51.5	-54.0	6.1	0.00e+00	0	36	104	0	60	83411
2026-01-07 07:09:32.14	352.34	5.12	-51.5	-54.0	6.1	0.00e+00	0	36	104	0	60	83603
2026-01-07 07:09:33.15	352.20	5.06	-51.5	-54.0	6.1	0.00e+00	0	36	104	0	60	83763
2026-01-07 07:09:34.16	352.06	5.00	-51.5	-54.0	6.1	0.00e+00	0	36	104	0	60	83886
2026-01-07 07:09:35.17	351.92	4.93	-51.5	-54.0	6.1	0.00e+00	0	36	104	0	60	83336
2026-01-07 07:09:36.18	351.78	4.87	-51.5	-54.0	6.1	0.00e+00	0	36	104	0	60	83606
2026-01-07 07:09:37.19	351.64	4.81	-51.5	-54.0	6.1	0.00e+00	0	36	104	0	60	83935
2026-01-07 07:09:38.19	351.50	4.75	-51.5	-54.0	6.1	0.00e+00	0	36	104	0	60	83835
2026-01-07 07:09:39.20	351.37	4.69	-51.5	-54.0	6.1	0.00e+00	0	36	104	0	60	83769
2026-01-07 07:09:40.21	351.23	4.63	-51.5	-54.0	6.1	0.00e+00	0	36	104	0	60	83481
2026-01-07 07:09:41.23	351.09	4.57	-51.5	-54.0	6.1	0.00e+00	0	36	104	0	60	83752
2026-01-07 07:09:42.24	350.96	4.51	-51.5	-54.0	6.1	0.00e+00	0	36	104	0	60	83917
2026-01-07 07:09:43.25	350.83	4.45	-51.5	-54.0	6.1	0.00e+00	0	36	104	0	60	83948
2026-01-07 07:09:44.26	350.69	4.39	-51.5	-54.0	6.1	0.00e+00	0	36	104	0	60	84011
2026-01-07 07:09:45.27	350.56	4.33	-51.5	-54.0	6.1	0.00e+00	0	36	104	0	60	83766
2026-01-07 07:09:46.28	350.43	4.27	-51.5	-54.0	6.1	0.00e+00	0	36	104	0	60	83912
2026-01-07 07:09:47.29	350.30	4.21	-51.5	-54.0	6.1	0.00e+00	0	36	104	0	60	83624
2026-01-07 07:09:48.30	350.17	4.15	-51.5	-54.0	6.1	0.00e+00	0	36	104	0	60	83564
2026-01-07 07:09:49.31	350.04	4.09	-51.5	-54.0	6.1	0.00e+00	0	36	104	0	60	83603
2026-01-07 07:09:50.31	349.91	4.03	-51.5	-54.0	6.1	0.00e+00	0	36	104	0	60	83981
2026-01-07 07:09:51.32	349.78	3.97	-51.5	-54.0	6.1	0.00e+00	0	36	104	0	60	83624
2026-01-07 07:09:52.33	349.66	3.91	-51.5	-54.0	6.1	0.00e+00	0	36	104	0	60	83548
2026-01-07 07:09:53.34	349.53	3.85	-51.5	-54.0	6.1	0.00e+00	0	36	104	0	60	83815
2026-01-07 07:09:54.35	349.40	3.79	-51.5	-54.0	6.0	0.00e+00	0	36	104	0	60	83677
2026-01-07 07:09:55.36	349.28	3.73	-51.5	-54.0	6.1	0.00e+00	0	36	104	0	60	83432
2026-01-07 07:09:56.37	349.15	3.67	-51.5	-54.0	6.1	0.00e+00	0	36	104	0	60	83873
2026-01-07 07:09:57.38	349.03	3.62	-51.5	-54.0	6.1	0.00e+00	0	36	104	0	60	83904
2026-01-07 07:09:58.39	348.91	3.56	-51.5	-54.0	6.1	0.00e+00	0	36	104	0	60	83542
2026-01-07 07:09:59.40	348.78	3.50	-51.5	-54.0	6.1	0.00e+00	0	36	104	0	60	83589
2026-01-07 07:10:00.41	348.66	3.44	-51.5	-54.0	6.1	0.00e+00	0	36	104	0	60	83362
2026-01-07 07:10:01.42	348.54	3.38	-51.5	-54.0	6.1	0.00e+00	0	36	104	0	60	83787
2026-01-07 07:10:02.43	348.42	3.32	-51.5	-54.0	6.1	0.00e+00	0	36	104	0	60	84013
2026-01-07 07:10:03.44	348.30	3.26	-51.5	-54.0	6.1	0.00e+00	0	36	104	0	60	83784
2026-01-07 07:10:04.46	348.18	3.20	-51.5	-54.0	6.1	0.00e+00	0	36	104	0	60	83787
2026-01-07 07:10:05.47	348.06	3.14	-51.5	-54.0	6.1	0.00e+00	0	36	104	0	60	83724
2026-01-07 07:10:06.48	347.94	3.08	-51.5	-54.0	6.1	0.00e+00	0	36	104	0	60	83582
2026-01-07 07:10:07.49	347.82	3.03	-51.5	-54.0	6.1	0.00e+00	0	36	104	0	60	83555
2026-01-07 07:10:08.50	347.70	2.97	-51.5	-54.0	6.1	0.00e+00	0	36	104	0	60	83365
2026-01-07 07:10:09.51	347.59	2.91	-51.5	-54.0	6.1	0.00e+00	0	36	104	0	60	83704
2026-01-07 07:10:10.52	347.47	2.85	-51.5	-54.0	6.1	0.00e+00	0	36	104	0	60	83734
2026-01-07 07:10:11.53	347.36	2.79	-51.5	-54.0	6.1	0.00e+00	0	36	104	0	60	83518
2026-01-07 07:10:12.54	347.24	2.73	-51.5	-54.0	6.1	0.00e+00	0	36	104	0	60	83696
2026-01-07 07:10:13.55	347.13	2.68	-51.5	-54.0	6.1	0.00e+00	0	36	104	0	60	84206
2026-01-07 07:10:14.56	347.01	2.62	-51.5	-54.0	6.1	0.00e+00	0	36	104	0	60	83791
2026-01-07 07:10:15.57	346.90	2.56	-51.5	-54.0	6.1	0.00e+00	0	36	104	0	60	83446
2026-01-07 07:10:16.58	346.79	2.50	-51.5	-54.0	6.1	0.00e+00	0	36	104	0	60	83564
2026-01-07 07:10:17.59	346.68	2.44	-51.5	-54.0	6.1	0.00e+00	0	36	104	0	60	83986
2026-01-07 07:10:18.60	346.57	2.39	-51.5	-54.0	6.1	0.00e+00	0	36	104	0	60	83302
2026-01-07 07:10:19.61	346.46	2.33	-51.5	-54.0	6.1	0.00e+00	0	36	104	0	60	83562
2026-01-07 07:10:20.62	346.35	2.27	-51.5	-54.0	6.0	0.00e+00	0	36	104	0	60	83681
2026-01-07 07:10:21.63	346.24	2.21	-51.5	-54.0	6.1	0.00e+00	0	36	104	0	60	83739
2026-01-07 07:10:22.65	346.13	2.15	-51.5	-54.0	6.1	0.00e+00	0	36	104	0	60	84079
2026-01-07 07:10:23.66	346.02	2.10	-51.5	-54.0	6.1	0.00e+00	0	36	104	0	60	83645
2026-01-07 07:10:24.67	345.91	2.04	-51.5	-54.0	6.1	0.00e+00	0	36	104	0	60	84012
2026-01-07 07:10:25.68	345.80	1.98	-51.5	-54.0	6.1	0.00e+00	0	36	104	0	60	83576
2026-01-07 07:10:26.69	345.70	1.92	-51.5	-54.0	6.1	0.00e+00	0	36	104	0	60	84194
2026-01-07 07:10:27.70	345.59	1.87	-51.5	-54.0	6.1	0.00e+00	0	36	104	0	60	83964
2026-01-07 07:10:28.71	345.49	1.81	-51.5	-54.0	6.1	0.00e+00	0	36	104	0	60	83417
2026-01-07 07:10:29.72	345.38	1.75	-51.5	-54.0	6.1	0.00e+00	0	36	104	0	60	83664
2026-01-07 07:10:30.73	345.28	1.70	-51.5	-54.0	6.1	0.00e+00	0	36	104	0	60	83803
2026-01-07 07:10:31.74	345.17	1.64	-51.5	-54.0	6.1	0.00e+00	0	36	104	0	60	83687
2026-01-07 07:10:32.75	345.07	1.58	-51.5	-54.0	6.1	0.00e+00	0	36	104	0	60	83379
2026-01-07 07:10:33.76	344.97	1.53	-51.5	-54.0	6.1	0.00e+00	0	36	104	0	60	84109
2026-01-07 07:10:34.78	344.86	1.47	-51.5	-54.0	6.1	0.00e+00	0	36	104	0	60	83329
2026-01-07 07:10:35.79	344.76	1.41	-51.5	-54.0	6.1	0.00e+00	0	36	104	0	60	83422
2026-01-07 07:10:36.80	344.66	1.36	-51.5	-54.0	6.1	0.00e+00	0	36	104	0	60	83689
2026-01-07 07:10:37.81	344.56	1.30	-51.5	-54.0	6.1	0.00e+00	0	36	104	0	60	83860
2026-01-07 07:10:38.82	344.46	1.24	-51.5	-54.0	6.1	0.00e+00	0	36	104	0	60	83857
2026-01-07 07:10:39.83	344.36	1.19	-51.5	-54.0	6.1	0.00e+00	0	36	104	0	60	83462
2026-01-07 07:10:40.84	344.26	1.13	-51.5	-54.0	6.1	0.00e+00	0	36	104	0	60	83648
2026-01-07 07:10:41.85	344.16	1.07	-51.5	-54.0	6.1	0.00e+00	0	36	104	0	60	83673
2026-01-07 07:10:42.86	344.06	1.02	-51.5	-54.0	6.1	0.00e+00	0	36	104	0	60	83746
2026-01-07 07:10:43.87	343.96	0.96	-51.5	-54.0	6.1	0.00e+00	0	36	104	0	60	84136
2026-01-07 07:10:44.89	343.87	0.91	-51.5	-54.0	6.1	0.00e+00	0	36	104	0	60	83686
2026-01-07 07:10:45.90	343.77	0.85	-51.5	-54.0	6.1	0.00e+00	0	36	104	0	60	83756
2026-01-07 07:10:46.91	343.67	0.79	-51.5	-54.0	6.1	0.00e+00	0	36	104	0	60	83691
2026-01-07 07:10:47.92	343.58	0.74	-51.5	-54.0	6.1	0.00e+00	0	36	104	0	60	83610
2026-01-07 07:10:48.93	343.48	0.68	-51.5	-54.1	6.1	0.00e+00	0	36	104	0	60	84341
2026-01-07 07:10:49.94	343.39	0.63	-51.5	-54.0	6.1	0.00e+00	0	36	104	0	60	83802
2026-01-07 07:10:50.95	343.29	0.57	-51.5	-54.0	6.1	0.00e+00	0	36	104	0	60	83590
2026-01-07 07:10:51.96	343.20	0.52	-51.5	-54.0	6.1	0.00e+00	0	36	104	0	60	83898
2026-01-07 07:10:52.97	343.11	0.46	-51.5	-54.0	6.1	0.00e+00	0	36	104	0	60	83734
2026-01-07 07:10:53.98	343.01	0.41	-51.5	-54.0	6.1	0.00e+00	0	36	104	0	60	83419
2026-01-07 07:10:55.00	342.92	0.35	-51.5	-54.0	6.1	0.00e+00	0	36	104	0	60	83671
2026-01-07 07:10:56.01	342.83	0.29	-51.5	-54.0	6.1	0.00e+00	0	36	104	0	60	83515
2026-01-07 07:10:57.02	342.74	0.24	-51.5	-54.0	6.1	0.00e+00	0	36	104	0	60	83753
2026-01-07 07:10:58.03	342.64	0.18	-51.5	-53.9	6.1	0.00e+00	0	36	104	0	60	83190
2026-01-07 07:10:59.03	342.55	0.13	-51.5	-54.0	6.1	0.00e+00	0	36	104	0	60	83666
2026-01-07 07:11:00.05	342.46	0.07	-51.5	-54.0	6.1	0.00e+00	0	36	104	0	60	83569
2026-01-07 07:11:01.06	342.37	0.02	-51.5	-54.0	6.1	0.00e+00	0	36	104	0	60	83841
2026-01-07 07:11:02.07	342.28	-0.03	-51.5	-54.0	6.1	0.00e+00	0	36	104	0	60	83887
2026-01-07 07:11:03.08	342.19	-0.09	-51.5	-54.0	6.1	0.00e+00	0	36	104	0	60	83485

#Closed at: 2026-01-07 07:11:03
#Recorded file [0 MB]: D:/lorett/data/35034_260107_100146.dat