passes_logs/2026/01/07/R4.6S_Anadyr_2ch/R4.6S_Anadyr_2ch__20260107_061648_FENGYUN_3E_rec.log

#Pass ID: 20260107_061648_FENGYUN 3E
#Satellite: FENGYUN 3E
#Configuration: FENGYUN 3E
#almurnet v.1.7.20251203
#Start time: 2026-01-07 06:16:51

#Version: 2.2.20231116
#Station: R4.6S_Anadyr_2ch
#Location: 177.4865 lon 64.73178 lat
#TLE: 1 49008U 21062A   25350.97288215  .00000176  00000+0  10353-3 0  9997
#TLE: 2 49008  98.7477 351.4440 0000638 234.3856 125.7261 14.19881381230726

#Time	Az	El	Level	Level2	SNR	BER	BlckErr	Temp	State	Recorded	gain1	gain2
2026-01-07 06:16:51.71	202.38	0.16	-51.1	-61.1	3.3	8.40e-01	0	31	0	0	60	56119
2026-01-07 06:16:52.71	202.44	0.22	-51.1	-62.6	3.6	8.45e-01	0	32	104	0	60	66255
2026-01-07 06:16:53.72	202.50	0.27	-51.1	-62.6	3.6	8.45e-01	0	32	104	0	60	66218
2026-01-07 06:16:54.73	202.55	0.33	-51.1	-62.6	3.6	8.46e-01	0	32	104	0	60	66453
2026-01-07 06:16:55.74	202.61	0.38	-51.1	-62.6	3.6	8.45e-01	0	32	104	0	60	66428
2026-01-07 06:16:56.75	202.67	0.44	-51.2	-62.7	3.6	8.45e-01	0	32	104	0	60	67024
2026-01-07 06:16:57.76	202.73	0.49	-50.7	-62.7	3.6	8.45e-01	0	32	104	0	60	67429
2026-01-07 06:16:58.76	202.79	0.55	-51.0	-62.9	3.6	8.45e-01	0	32	104	0	60	68741
2026-01-07 06:16:59.77	202.85	0.60	-51.2	-62.8	3.6	8.45e-01	0	32	104	0	60	68070
2026-01-07 06:17:00.78	202.91	0.66	-51.1	-62.7	3.6	8.46e-01	0	32	104	0	60	67507
2026-01-07 06:17:01.79	202.97	0.71	-51.1	-62.8	3.6	8.45e-01	0	32	104	0	60	67981
2026-01-07 06:17:02.80	203.03	0.77	-51.2	-62.8	3.6	8.46e-01	0	32	104	0	60	68136
2026-01-07 06:17:03.81	203.08	0.82	-51.3	-62.8	3.6	8.44e-01	0	32	104	0	60	68347
2026-01-07 06:17:04.82	203.14	0.88	-51.2	-62.8	3.6	8.46e-01	0	32	104	0	60	68224
2026-01-07 06:17:05.83	203.21	0.94	-51.2	-62.7	3.5	8.46e-01	0	32	104	0	60	67695
2026-01-07 06:17:06.84	203.27	0.99	-51.1	-62.7	3.6	8.45e-01	0	32	104	0	60	67445
2026-01-07 06:17:07.85	203.33	1.05	-50.9	-62.6	3.6	8.45e-01	0	32	104	0	60	66327
2026-01-07 06:17:08.86	203.39	1.10	-50.9	-62.5	3.6	8.46e-01	0	32	104	0	60	65913
2026-01-07 06:17:09.86	203.45	1.16	-50.9	-62.4	3.6	8.46e-01	0	32	104	0	60	65373
2026-01-07 06:17:10.87	203.51	1.22	-50.8	-62.3	3.6	8.46e-01	0	32	104	0	60	64454
2026-01-07 06:17:11.87	203.57	1.27	-50.6	-62.0	3.6	8.44e-01	0	32	104	0	60	62364
2026-01-07 06:17:12.88	203.63	1.33	-50.2	-61.5	3.6	8.45e-01	0	32	104	0	60	58600
2026-01-07 06:17:13.89	203.69	1.38	-50.0	-61.2	3.6	8.45e-01	0	32	104	0	60	56804
2026-01-07 06:17:14.90	203.76	1.44	-50.0	-61.3	3.6	8.45e-01	0	32	104	0	60	57293
2026-01-07 06:17:15.91	203.82	1.50	-50.0	-61.2	3.6	8.44e-01	0	32	104	0	60	56917
2026-01-07 06:17:16.92	203.88	1.55	-50.0	-61.3	3.6	8.44e-01	0	32	104	0	60	57239
2026-01-07 06:17:17.92	203.94	1.61	-49.9	-61.2	3.6	8.45e-01	0	32	104	0	60	56910
2026-01-07 06:17:18.93	204.01	1.67	-50.0	-61.2	3.6	8.47e-01	0	32	104	0	60	56410
2026-01-07 06:17:19.94	204.07	1.72	-49.9	-61.1	3.6	8.46e-01	0	32	104	0	60	56231
2026-01-07 06:17:20.95	204.13	1.78	-49.9	-61.2	3.6	8.46e-01	0	32	104	0	60	56476
2026-01-07 06:17:21.96	204.20	1.84	-50.0	-61.3	3.6	8.45e-01	0	32	104	0	60	57140
2026-01-07 06:17:22.97	204.26	1.90	-50.0	-61.4	3.6	8.46e-01	0	32	104	0	60	57635
2026-01-07 06:17:23.98	204.33	1.95	-50.0	-61.4	3.6	8.45e-01	0	32	104	0	60	57631
2026-01-07 06:17:24.99	204.39	2.01	-50.0	-61.4	3.6	8.46e-01	0	32	104	0	60	57648
2026-01-07 06:17:26.00	204.45	2.07	-50.0	-61.4	3.6	8.45e-01	0	32	104	0	60	57657
2026-01-07 06:17:27.01	204.52	2.13	-50.0	-61.4	3.6	8.45e-01	0	32	104	0	60	57799
2026-01-07 06:17:28.01	204.58	2.18	-50.0	-61.3	3.6	8.45e-01	0	32	104	0	60	57443
2026-01-07 06:17:29.02	204.65	2.24	-50.0	-61.3	3.6	8.45e-01	0	32	104	0	60	57192
2026-01-07 06:17:30.03	204.71	2.30	-49.9	-61.1	3.6	8.45e-01	0	32	104	0	60	56274
2026-01-07 06:17:31.04	204.78	2.36	-49.9	-60.9	3.6	8.45e-01	0	32	104	0	60	54832
2026-01-07 06:17:32.05	204.85	2.41	-49.9	-60.9	3.6	8.45e-01	0	32	104	0	60	54507
2026-01-07 06:17:33.06	204.91	2.47	-49.9	-60.9	3.6	8.45e-01	0	33	104	0	60	54677
2026-01-07 06:17:34.07	204.98	2.53	-49.9	-61.0	3.6	8.44e-01	0	32	104	0	60	55516
2026-01-07 06:17:35.08	205.05	2.59	-49.9	-61.0	3.6	8.45e-01	0	33	104	0	60	55585
2026-01-07 06:17:36.09	205.11	2.65	-49.9	-61.1	3.6	8.45e-01	0	32	104	0	60	55882
2026-01-07 06:17:37.10	205.18	2.71	-49.9	-61.0	3.6	8.45e-01	0	33	104	0	60	55130
2026-01-07 06:17:38.10	205.25	2.76	-49.9	-61.2	3.6	8.44e-01	0	33	104	0	60	56352
2026-01-07 06:17:39.11	205.32	2.82	-49.9	-61.3	3.6	8.45e-01	0	33	104	0	60	57337
2026-01-07 06:17:40.12	205.38	2.88	-50.0	-61.4	3.6	8.46e-01	0	33	104	0	60	57924
2026-01-07 06:17:41.13	205.45	2.94	-49.9	-60.6	3.6	8.45e-01	0	33	104	0	60	52916
2026-01-07 06:17:42.14	205.52	3.00	-49.7	-59.3	3.6	8.45e-01	0	33	104	0	60	45543
2026-01-07 06:17:43.15	205.59	3.06	-49.5	-56.7	3.9	8.39e-01	0	33	0	0	60	33733
2026-01-07 06:17:44.16	205.66	3.12	-49.5	-56.2	3.9	8.30e-01	0	33	0	0	60	32016
2026-01-07 06:17:45.17	205.73	3.18	-49.6	-58.4	3.9	8.43e-01	0	33	104	0	60	40961
2026-01-07 06:17:46.18	205.80	3.24	-49.8	-60.2	3.6	8.45e-01	0	33	104	0	60	50695
2026-01-07 06:17:47.19	205.87	3.30	-49.6	-58.3	3.7	8.46e-01	0	33	104	0	60	40461
2026-01-07 06:17:48.20	205.94	3.36	-48.3	-53.0	7.3	2.71e-01	0	33	104	0	60	22097
2026-01-07 06:17:49.21	206.01	3.42	-46.2	-48.4	11.8	4.75e-03	0	33	102	1048576	60	13028
2026-01-07 06:17:50.22	206.08	3.48	-44.2	-45.7	14.7	0.00e+00	0	33	102	1048576	60	9511
2026-01-07 06:17:51.22	206.15	3.53	-42.4	-43.5	17.0	0.00e+00	0	33	102	1048576	60	7384
2026-01-07 06:17:52.23	206.22	3.59	-41.3	-42.2	18.3	0.00e+00	0	33	102	1048576	60	6367
2026-01-07 06:17:53.24	206.29	3.65	-40.7	-41.5	18.9	0.00e+00	0	33	102	1048576	60	5872
2026-01-07 06:17:54.25	206.37	3.72	-40.5	-41.4	19.0	0.00e+00	0	33	102	1048576	60	5775
2026-01-07 06:17:55.25	206.44	3.77	-43.3	-44.6	15.9	0.00e+00	0	33	102	1048576	60	8346
2026-01-07 06:17:56.26	206.51	3.84	-49.7	-60.2	3.6	8.48e-01	0	33	104	1048576	60	50283
2026-01-07 06:17:57.27	206.58	3.90	-40.3	-41.1	18.2	7.77e-01	0	33	104	1048576	56	7081
2026-01-07 06:17:58.28	206.66	3.96	-47.6	-50.7	10.8	8.42e-04	0	33	0	1048576	60	16883
2026-01-07 06:17:59.28	206.73	4.02	-43.0	-44.2	16.2	0.00e+00	0	33	0	1048576	60	7978
2026-01-07 06:18:00.29	206.80	4.08	-39.6	-40.4	20.1	0.00e+00	0	33	0	1048576	58	5792
2026-01-07 06:18:01.30	206.88	4.14	-39.0	-39.8	20.8	0.00e+00	0	33	0	1048576	58	5384
2026-01-07 06:18:02.31	206.95	4.20	-38.7	-39.4	21.1	0.00e+00	0	33	0	1048576	56	5796
2026-01-07 06:18:03.32	207.03	4.26	-38.5	-39.1	21.4	0.00e+00	0	33	101	1048576	56	5619
2026-01-07 06:18:04.32	207.10	4.32	-38.5	-39.2	21.3	0.00e+00	0	33	101	1048576	56	5663
2026-01-07 06:18:05.33	207.17	4.38	-38.2	-38.9	21.6	0.00e+00	0	33	101	1048576	56	5481
2026-01-07 06:18:06.34	207.25	4.44	-38.0	-38.7	21.7	0.00e+00	0	33	101	1048576	54	5999
2026-01-07 06:18:07.35	207.33	4.50	-38.0	-38.6	21.8	0.00e+00	0	33	101	1048576	54	5960
2026-01-07 06:18:08.35	207.40	4.56	-37.9	-38.5	21.9	0.00e+00	0	33	101	1048576	54	5880
2026-01-07 06:18:09.36	207.48	4.63	-37.9	-38.6	22.0	0.00e+00	0	33	101	1048576	54	5906
2026-01-07 06:18:10.37	207.55	4.69	-38.0	-38.6	21.9	0.00e+00	0	33	101	1048576	54	5930
2026-01-07 06:18:11.38	207.63	4.75	-37.9	-38.5	22.0	0.00e+00	0	33	101	1048576	54	5869
2026-01-07 06:18:12.39	207.71	4.81	-37.7	-38.3	22.1	0.00e+00	0	33	101	1048576	54	5740
2026-01-07 06:18:13.40	207.79	4.87	-37.6	-38.2	22.3	0.00e+00	0	33	101	1048576	54	5691
2026-01-07 06:18:14.41	207.86	4.94	-37.4	-38.1	22.4	0.00e+00	0	33	101	1048576	54	5570
2026-01-07 06:18:15.42	207.94	5.00	-37.7	-38.3	22.2	0.00e+00	0	33	101	1048576	54	5751
2026-01-07 06:18:16.42	208.02	5.06	-37.5	-38.1	22.4	0.00e+00	0	33	101	1048576	54	5602
2026-01-07 06:18:17.43	208.10	5.12	-37.5	-38.1	22.4	0.00e+00	0	33	101	1048576	54	5610
2026-01-07 06:18:18.44	208.18	5.19	-37.3	-37.9	22.5	0.00e+00	0	33	101	1048576	54	5489
2026-01-07 06:18:19.45	208.26	5.25	-37.5	-38.1	22.5	0.00e+00	0	33	101	1048576	54	5580
2026-01-07 06:18:20.46	208.34	5.31	-37.2	-37.8	22.7	0.00e+00	0	33	101	1048576	54	5424
2026-01-07 06:18:21.46	208.42	5.37	-37.2	-37.8	22.7	0.00e+00	0	33	101	1048576	54	5405
2026-01-07 06:18:22.47	208.50	5.44	-37.2	-37.8	22.7	0.00e+00	0	33	101	1048576	54	5419
2026-01-07 06:18:23.48	208.58	5.50	-37.1	-37.7	22.8	0.00e+00	0	33	101	1048576	54	5317
2026-01-07 06:18:24.49	208.66	5.56	-37.2	-37.8	22.7	0.00e+00	0	33	101	1048576	54	5388
2026-01-07 06:18:25.50	208.74	5.63	-37.2	-37.8	22.9	0.00e+00	0	33	101	1048576	52	6053
2026-01-07 06:18:26.51	208.82	5.69	-37.2	-37.8	22.8	0.00e+00	0	33	101	1048576	52	6051
2026-01-07 06:18:27.52	208.90	5.75	-37.3	-37.9	22.8	0.00e+00	0	33	101	1048576	52	6128
2026-01-07 06:18:28.53	208.99	5.82	-37.1	-37.7	23.0	0.00e+00	0	33	101	1048576	52	5996
2026-01-07 06:18:29.54	209.07	5.88	-37.0	-37.6	23.0	0.00e+00	0	33	101	1048576	52	5940
2026-01-07 06:18:30.54	209.15	5.94	-37.0	-37.6	23.0	0.00e+00	0	33	101	1048576	52	5932
2026-01-07 06:18:31.55	209.23	6.01	-37.0	-37.6	23.1	0.00e+00	0	33	101	1048576	52	5920
2026-01-07 06:18:32.56	209.32	6.07	-36.9	-37.5	23.1	0.00e+00	0	33	101	1048576	52	5884
2026-01-07 06:18:33.56	209.40	6.13	-37.0	-37.5	23.1	0.00e+00	0	33	101	1048576	52	5896
2026-01-07 06:18:34.57	209.49	6.20	-36.8	-37.4	23.3	0.00e+00	0	33	101	1048576	52	5807
2026-01-07 06:18:35.58	209.57	6.26	-36.8	-37.4	23.3	0.00e+00	0	33	101	1048576	52	5817
2026-01-07 06:18:36.59	209.66	6.33	-36.9	-37.5	23.2	0.00e+00	0	33	101	1048576	52	5859
2026-01-07 06:18:37.60	209.74	6.39	-36.8	-37.3	23.3	0.00e+00	0	33	101	1048576	52	5759
2026-01-07 06:18:38.60	209.83	6.46	-36.6	-37.2	23.5	0.00e+00	0	33	101	1048576	52	5662
2026-01-07 06:18:39.61	209.91	6.52	-36.5	-37.0	23.6	0.00e+00	0	33	101	1048576	52	5562
2026-01-07 06:18:40.62	210.00	6.59	-36.4	-37.0	23.6	0.00e+00	0	33	101	1048576	52	5535
2026-01-07 06:18:41.63	210.09	6.65	-36.5	-37.1	23.5	0.00e+00	0	33	101	1048576	52	5589
2026-01-07 06:18:42.64	210.17	6.72	-36.4	-37.0	23.7	0.00e+00	0	33	101	1048576	52	5505
2026-01-07 06:18:43.65	210.26	6.78	-36.4	-36.9	23.7	0.00e+00	0	33	101	1048576	52	5496
2026-01-07 06:18:44.66	210.35	6.85	-36.4	-37.0	23.8	0.00e+00	0	33	101	1048576	52	5514
2026-01-07 06:18:45.67	210.44	6.91	-36.3	-36.9	23.6	0.00e+00	0	33	101	1048576	52	5451
2026-01-07 06:18:46.67	210.53	6.98	-36.5	-37.0	23.7	0.00e+00	0	33	101	1048576	52	5550
2026-01-07 06:18:47.68	210.62	7.04	-36.2	-36.8	23.9	0.00e+00	0	33	101	1048576	52	5413
2026-01-07 06:18:48.69	210.71	7.11	-36.3	-36.8	23.8	0.00e+00	0	33	101	1048576	52	5439
2026-01-07 06:18:49.70	210.80	7.17	-36.3	-36.8	23.8	0.00e+00	0	33	101	1048576	52	5420
2026-01-07 06:18:50.71	210.89	7.24	-36.3	-36.8	23.7	0.00e+00	0	33	101	1048576	52	5436
2026-01-07 06:18:51.71	210.98	7.31	-36.4	-37.0	23.7	0.00e+00	0	33	101	1048576	52	5521
2026-01-07 06:18:52.72	211.07	7.37	-36.5	-37.0	23.8	0.00e+00	0	33	101	1048576	52	5543
2026-01-07 06:18:53.73	211.16	7.44	-36.5	-37.0	23.7	0.00e+00	0	33	101	1048576	52	5550
2026-01-07 06:18:54.74	211.25	7.50	-36.4	-37.0	23.7	0.00e+00	0	33	101	1048576	52	5520
2026-01-07 06:18:55.75	211.34	7.57	-36.6	-37.1	23.6	0.00e+00	0	33	101	1048576	52	5615
2026-01-07 06:18:56.76	211.44	7.64	-36.7	-37.2	23.5	0.00e+00	0	33	101	1048576	52	5686
2026-01-07 06:18:57.77	211.53	7.70	-36.5	-37.1	23.7	0.00e+00	0	33	101	1048576	52	5574
2026-01-07 06:18:58.78	211.62	7.77	-36.6	-37.1	23.7	0.00e+00	0	33	101	1048576	52	5611
2026-01-07 06:18:59.79	211.72	7.84	-36.6	-37.1	23.7	0.00e+00	0	33	101	1048576	52	5624
2026-01-07 06:19:00.80	211.81	7.91	-36.4	-37.0	23.8	0.00e+00	0	33	101	1048576	52	5542
2026-01-07 06:19:01.81	211.91	7.97	-36.4	-37.0	23.8	0.00e+00	0	33	101	1048576	52	5519
2026-01-07 06:19:02.82	212.00	8.04	-36.4	-37.0	23.7	0.00e+00	0	33	101	1048576	52	5547
2026-01-07 06:19:03.83	212.10	8.11	-36.6	-37.1	23.7	0.00e+00	0	33	101	1048576	52	5622
2026-01-07 06:19:04.84	212.19	8.18	-36.5	-37.0	23.8	0.00e+00	0	33	101	1048576	52	5563
2026-01-07 06:19:05.85	212.29	8.24	-36.5	-37.1	23.8	0.00e+00	0	33	101	1048576	52	5588
2026-01-07 06:19:06.87	212.39	8.31	-36.2	-36.8	23.9	0.00e+00	0	33	101	1048576	52	5394
2026-01-07 06:19:07.88	212.49	8.38	-36.4	-37.0	23.8	0.00e+00	0	33	101	1048576	52	5509
2026-01-07 06:19:08.89	212.59	8.45	-36.3	-36.8	24.0	0.00e+00	0	33	101	1048576	52	5419
2026-01-07 06:19:09.90	212.68	8.52	-36.4	-36.9	23.8	0.00e+00	0	33	101	1048576	52	5488
2026-01-07 06:19:10.91	212.78	8.58	-36.1	-36.8	21.6	0.00e+00	0	33	101	1048576	50	6103
2026-01-07 06:19:11.92	212.88	8.65	-36.2	-36.9	21.7	0.00e+00	0	33	101	1048576	50	6151
2026-01-07 06:19:12.93	212.98	8.72	-36.0	-36.8	21.7	0.00e+00	0	33	101	1048576	50	6062
2026-01-07 06:19:13.94	213.08	8.79	-35.8	-36.5	21.9	0.00e+00	0	33	101	1048576	50	5855
2026-01-07 06:19:14.95	213.18	8.86	-35.9	-36.6	21.9	0.00e+00	0	33	101	1048576	50	5934
2026-01-07 06:19:15.96	213.28	8.93	-35.8	-36.5	22.0	0.00e+00	0	33	101	1048576	50	5886
2026-01-07 06:19:16.98	213.39	9.00	-35.7	-36.5	22.0	0.00e+00	0	33	101	1048576	50	5860
2026-01-07 06:19:17.99	213.49	9.07	-35.6	-36.4	22.0	0.00e+00	0	33	101	1048576	50	5770
2026-01-07 06:19:19.00	213.59	9.14	-35.8	-36.5	22.0	0.00e+00	0	33	101	1048576	50	5880
2026-01-07 06:19:20.01	213.69	9.20	-35.6	-36.3	22.1	0.00e+00	0	33	101	1048576	50	5745
2026-01-07 06:19:21.02	213.80	9.27	-35.5	-36.3	22.2	0.00e+00	0	33	101	1048576	50	5701
2026-01-07 06:19:22.03	213.90	9.34	-35.6	-36.3	22.2	0.00e+00	0	33	101	1048576	50	5756
2026-01-07 06:19:23.04	214.00	9.41	-35.7	-36.4	22.1	0.00e+00	0	33	101	1048576	50	5783
2026-01-07 06:19:24.05	214.11	9.48	-35.7	-36.4	22.2	0.00e+00	0	33	101	1048576	50	5789
2026-01-07 06:19:25.06	214.21	9.55	-35.8	-36.5	22.1	0.00e+00	0	33	101	1048576	50	5866
2026-01-07 06:19:26.07	214.32	9.62	-35.6	-36.3	22.4	0.00e+00	0	33	101	1048576	50	5719
2026-01-07 06:19:27.08	214.43	9.69	-35.5	-36.2	22.4	0.00e+00	0	33	101	1048576	50	5692
2026-01-07 06:19:28.09	214.53	9.76	-35.5	-36.2	22.4	0.00e+00	0	33	101	1048576	50	5695
2026-01-07 06:19:29.11	214.64	9.83	-35.6	-36.3	22.4	0.00e+00	0	33	101	1048576	50	5724
2026-01-07 06:19:30.12	214.75	9.90	-35.6	-36.3	22.3	0.00e+00	0	33	101	1048576	50	5756
2026-01-07 06:19:31.13	214.86	9.98	-35.6	-36.4	22.4	0.00e+00	0	33	101	1048576	50	5773
2026-01-07 06:19:32.14	214.97	10.05	-35.7	-36.5	22.3	0.00e+00	0	33	101	1048576	50	5847
2026-01-07 06:19:33.15	215.08	10.12	-35.8	-36.5	22.3	0.00e+00	0	33	101	1048576	50	5859
2026-01-07 06:19:34.16	215.19	10.19	-35.8	-36.6	22.2	0.00e+00	0	33	101	1048576	50	5906
2026-01-07 06:19:35.17	215.30	10.26	-35.6	-36.4	22.3	0.00e+00	0	33	101	1048576	50	5775
2026-01-07 06:19:36.18	215.41	10.33	-35.8	-36.5	22.3	0.00e+00	0	33	101	1048576	50	5896
2026-01-07 06:19:37.19	215.52	10.40	-35.8	-36.5	22.2	0.00e+00	0	33	101	1048576	50	5863
2026-01-07 06:19:38.20	215.63	10.47	-35.9	-36.7	22.1	0.00e+00	0	33	101	1048576	50	5992
2026-01-07 06:19:39.21	215.74	10.54	-35.8	-36.5	22.3	0.00e+00	0	33	101	1048576	50	5861
2026-01-07 06:19:40.22	215.86	10.62	-35.6	-36.3	22.4	0.00e+00	0	33	101	1048576	50	5757
2026-01-07 06:19:41.23	215.97	10.69	-35.4	-36.1	22.6	0.00e+00	0	33	101	1048576	50	5613
2026-01-07 06:19:42.24	216.08	10.76	-35.4	-36.2	22.6	0.00e+00	0	33	101	1048576	50	5646
2026-01-07 06:19:43.25	216.20	10.83	-35.4	-36.2	22.6	0.00e+00	0	33	101	1048576	50	5645
2026-01-07 06:19:44.26	216.31	10.90	-35.4	-36.1	22.6	0.00e+00	0	33	101	1048576	50	5605
2026-01-07 06:19:45.27	216.43	10.98	-35.2	-35.9	22.7	0.00e+00	0	33	101	1048576	50	5500
2026-01-07 06:19:46.28	216.54	11.05	-35.2	-35.9	22.7	0.00e+00	0	33	101	1048576	50	5468
2026-01-07 06:19:47.30	216.66	11.12	-35.2	-35.9	22.7	0.00e+00	0	33	101	1048576	50	5465
2026-01-07 06:19:48.31	216.78	11.19	-35.2	-35.9	22.7	0.00e+00	0	33	101	1048576	50	5452
2026-01-07 06:19:49.32	216.90	11.27	-35.4	-36.1	22.6	0.00e+00	0	33	101	1048576	50	5579
2026-01-07 06:19:50.33	217.02	11.34	-35.2	-35.9	22.6	0.00e+00	0	33	101	1048576	50	5483
2026-01-07 06:19:51.34	217.13	11.41	-35.2	-35.9	22.6	0.00e+00	0	33	101	1048576	50	5461
2026-01-07 06:19:52.35	217.25	11.48	-35.3	-36.0	22.5	0.00e+00	0	33	101	1048576	50	5533
2026-01-07 06:19:53.36	217.37	11.56	-35.2	-36.0	22.5	0.00e+00	0	33	101	1048576	50	5516
2026-01-07 06:19:54.37	217.50	11.63	-35.2	-36.0	22.5	0.00e+00	0	33	101	1048576	50	5509
2026-01-07 06:19:55.38	217.62	11.70	-35.2	-35.9	22.5	0.00e+00	0	33	101	1048576	50	5490
2026-01-07 06:19:56.39	217.74	11.78	-35.2	-35.9	22.5	0.00e+00	0	33	101	1048576	50	5468
2026-01-07 06:19:57.40	217.86	11.85	-35.2	-35.9	22.6	0.00e+00	0	33	101	1048576	50	5462
2026-01-07 06:19:58.41	217.98	11.92	-35.1	-35.8	22.6	0.00e+00	0	33	101	1048576	48	6075
2026-01-07 06:19:59.42	218.11	12.00	-35.0	-35.7	22.6	0.00e+00	0	33	101	1048576	48	6023
2026-01-07 06:20:00.43	218.23	12.07	-35.0	-35.7	22.7	0.00e+00	0	33	101	1048576	48	6019
2026-01-07 06:20:01.44	218.36	12.14	-35.0	-35.8	22.7	0.00e+00	0	33	101	1048576	48	6042
2026-01-07 06:20:02.45	218.48	12.22	-35.0	-35.7	22.7	0.00e+00	0	33	101	1048576	48	6016
2026-01-07 06:20:03.46	218.61	12.29	-34.9	-35.6	22.7	0.00e+00	0	33	101	1048576	48	5943
2026-01-07 06:20:04.47	218.73	12.37	-35.0	-35.8	22.6	0.00e+00	0	33	101	1048576	48	6039
2026-01-07 06:20:05.48	218.86	12.44	-35.2	-35.9	22.6	0.00e+00	0	33	101	1048576	48	6135
2026-01-07 06:20:06.49	218.99	12.52	-34.9	-35.6	22.5	0.00e+00	0	33	101	1048576	48	5936
2026-01-07 06:20:07.50	219.12	12.59	-35.0	-35.7	22.4	0.00e+00	0	33	101	1048576	48	6022
2026-01-07 06:20:08.52	219.25	12.67	-35.0	-35.7	22.5	0.00e+00	0	33	101	1048576	48	5988
2026-01-07 06:20:09.52	219.38	12.74	-34.9	-35.6	22.4	0.00e+00	0	33	101	1048576	48	5922
2026-01-07 06:20:10.54	219.51	12.81	-34.9	-35.6	22.4	0.00e+00	0	33	101	1048576	48	5962
2026-01-07 06:20:11.55	219.64	12.89	-34.9	-35.6	22.4	0.00e+00	0	33	101	1048576	48	5926
2026-01-07 06:20:12.56	219.77	12.96	-35.0	-35.7	22.4	0.00e+00	0	33	101	1048576	48	6021
2026-01-07 06:20:13.57	219.90	13.04	-34.7	-35.4	22.6	0.00e+00	0	33	101	1048576	48	5816
2026-01-07 06:20:14.58	220.04	13.11	-34.7	-35.5	22.5	0.00e+00	0	33	101	1048576	48	5854
2026-01-07 06:20:15.59	220.17	13.19	-34.7	-35.4	22.5	0.00e+00	0	33	101	1048576	48	5794
2026-01-07 06:20:16.60	220.30	13.27	-34.7	-35.4	22.6	0.00e+00	0	33	101	1048576	48	5780
2026-01-07 06:20:17.61	220.44	13.34	-34.7	-35.5	22.5	0.00e+00	0	33	101	1048576	48	5835
2026-01-07 06:20:18.62	220.58	13.42	-34.8	-35.5	22.5	0.00e+00	0	33	101	1048576	48	5892
2026-01-07 06:20:19.63	220.71	13.49	-35.0	-35.7	22.4	0.00e+00	0	33	101	1048576	48	6018
2026-01-07 06:20:20.64	220.85	13.57	-34.9	-35.6	22.4	0.00e+00	0	33	101	1048576	48	5924
2026-01-07 06:20:21.65	220.99	13.64	-34.9	-35.7	22.3	0.00e+00	0	33	101	1048576	48	5988
2026-01-07 06:20:22.67	221.13	13.72	-35.0	-35.7	22.3	0.00e+00	0	33	101	1048576	48	6000
2026-01-07 06:20:23.68	221.27	13.80	-34.8	-35.5	22.4	0.00e+00	0	33	101	1048576	48	5894
2026-01-07 06:20:24.69	221.40	13.87	-34.9	-35.6	22.3	0.00e+00	0	33	101	1048576	48	5946
2026-01-07 06:20:25.70	221.55	13.95	-34.7	-35.5	22.4	0.00e+00	0	33	101	1048576	48	5852
2026-01-07 06:20:26.71	221.69	14.02	-34.8	-35.6	22.3	0.00e+00	0	33	101	1048576	48	5906
2026-01-07 06:20:27.72	221.83	14.10	-34.8	-35.5	22.4	0.00e+00	0	34	101	1048576	48	5873
2026-01-07 06:20:28.73	221.97	14.18	-34.5	-35.3	22.6	0.00e+00	0	33	101	1048576	48	5700
2026-01-07 06:20:29.74	222.11	14.25	-34.6	-35.3	22.5	0.00e+00	0	33	101	1048576	48	5743
2026-01-07 06:20:30.75	222.26	14.33	-34.6	-35.3	22.7	0.00e+00	0	33	101	1048576	48	5752
2026-01-07 06:20:31.76	222.40	14.41	-34.5	-35.2	22.7	0.00e+00	0	33	101	1048576	48	5687
2026-01-07 06:20:32.77	222.55	14.48	-34.5	-35.3	22.7	0.00e+00	0	33	101	1048576	48	5697
2026-01-07 06:20:33.78	222.69	14.56	-34.4	-35.1	22.9	0.00e+00	0	33	101	1048576	48	5616
2026-01-07 06:20:34.79	222.84	14.64	-34.4	-35.1	22.9	0.00e+00	0	33	101	1048576	48	5626
2026-01-07 06:20:35.80	222.99	14.71	-34.5	-35.3	22.9	0.00e+00	0	33	101	1048576	48	5707
2026-01-07 06:20:36.81	223.14	14.79	-34.3	-35.0	23.1	0.00e+00	0	33	101	1048576	48	5544
2026-01-07 06:20:37.82	223.29	14.87	-34.5	-35.2	23.0	0.00e+00	0	33	101	1048576	48	5654
2026-01-07 06:20:38.84	223.44	14.94	-34.3	-35.0	23.1	0.00e+00	0	33	101	1048576	48	5553
2026-01-07 06:20:39.85	223.59	15.02	-34.2	-34.9	23.2	0.00e+00	0	33	101	1048576	48	5481
2026-01-07 06:20:40.86	223.74	15.10	-34.2	-34.9	23.2	0.00e+00	0	33	101	1048576	48	5446
2026-01-07 06:20:41.87	223.89	15.18	-34.2	-34.8	23.2	0.00e+00	0	33	101	1048576	48	5432
2026-01-07 06:20:42.88	224.04	15.25	-34.0	-34.7	23.3	0.00e+00	0	33	101	1048576	48	5360
2026-01-07 06:20:43.89	224.20	15.33	-34.1	-34.8	23.2	0.00e+00	0	33	101	1048576	46	6086
2026-01-07 06:20:44.90	224.35	15.41	-34.0	-34.7	23.3	0.00e+00	0	33	101	1048576	46	6014
2026-01-07 06:20:45.91	224.51	15.49	-34.1	-34.8	23.3	0.00e+00	0	33	101	1048576	46	6047
2026-01-07 06:20:46.92	224.66	15.56	-34.0	-34.7	23.3	0.00e+00	0	33	101	1048576	46	5983
2026-01-07 06:20:47.93	224.82	15.64	-34.1	-34.8	23.3	0.00e+00	0	33	101	1048576	46	6041
2026-01-07 06:20:48.94	224.98	15.72	-33.9	-34.5	23.4	0.00e+00	0	33	101	1048576	46	5883
2026-01-07 06:20:49.95	225.14	15.80	-33.8	-34.5	23.5	0.00e+00	0	33	101	1048576	46	5862
2026-01-07 06:20:50.97	225.30	15.87	-33.8	-34.4	23.6	0.00e+00	0	33	101	1048576	46	5814
2026-01-07 06:20:51.98	225.46	15.95	-33.8	-34.4	23.6	0.00e+00	0	33	101	1048576	46	5807
2026-01-07 06:20:52.99	225.62	16.03	-33.6	-34.3	23.7	0.00e+00	0	33	101	1048576	46	5716
2026-01-07 06:20:54.00	225.78	16.11	-33.6	-34.3	23.7	0.00e+00	0	33	101	1048576	46	5728
2026-01-07 06:20:55.01	225.94	16.19	-33.6	-34.2	23.7	0.00e+00	0	33	101	1048576	46	5687
2026-01-07 06:20:56.02	226.10	16.26	-33.5	-34.2	23.7	0.00e+00	0	33	101	1048576	46	5667
2026-01-07 06:20:57.03	226.27	16.34	-33.6	-34.3	23.6	0.00e+00	0	33	101	1048576	46	5710
2026-01-07 06:20:58.04	226.43	16.42	-33.6	-34.3	23.6	0.00e+00	0	34	101	1048576	46	5740
2026-01-07 06:20:59.05	226.60	16.50	-33.7	-34.4	23.5	0.00e+00	0	33	101	1048576	46	5793
2026-01-07 06:21:00.06	226.76	16.58	-33.9	-34.6	23.3	0.00e+00	0	33	101	1048576	46	5929
2026-01-07 06:21:01.07	226.93	16.65	-33.8	-34.6	23.3	0.00e+00	0	33	101	1048576	46	5899
2026-01-07 06:21:02.08	227.10	16.73	-33.9	-34.6	23.2	0.00e+00	0	33	101	1048576	46	5919
2026-01-07 06:21:03.09	227.27	16.81	-33.7	-34.4	23.3	0.00e+00	0	33	101	1048576	46	5787
2026-01-07 06:21:04.10	227.44	16.89	-33.8	-34.5	23.3	0.00e+00	0	33	101	1048576	46	5844
2026-01-07 06:21:05.11	227.61	16.97	-33.5	-34.1	23.5	0.00e+00	0	33	101	1048576	46	5627
2026-01-07 06:21:06.12	227.78	17.04	-33.5	-34.2	23.4	0.00e+00	0	33	101	1048576	46	5645
2026-01-07 06:21:07.13	227.95	17.12	-33.4	-34.1	23.5	0.00e+00	0	33	101	1048576	46	5583
2026-01-07 06:21:08.14	228.13	17.20	-33.3	-34.0	23.7	0.00e+00	0	33	101	1048576	46	5507
2026-01-07 06:21:09.15	228.30	17.28	-33.3	-34.0	23.4	0.00e+00	0	33	101	1048576	46	5528
2026-01-07 06:21:10.16	228.48	17.36	-33.2	-33.8	23.5	0.00e+00	0	34	101	1048576	46	5425
2026-01-07 06:21:11.17	228.65	17.43	-33.2	-33.8	23.5	0.00e+00	0	33	101	1048576	46	5436
2026-01-07 06:21:12.18	228.83	17.51	-33.2	-33.8	23.5	0.00e+00	0	33	101	1048576	46	5437
2026-01-07 06:21:13.19	229.01	17.59	-33.0	-33.7	23.4	0.00e+00	0	34	101	1048576	44	5966
2026-01-07 06:21:14.20	229.19	17.67	-33.2	-33.8	23.5	0.00e+00	0	33	101	1048576	44	6089
2026-01-07 06:21:15.22	229.37	17.75	-33.0	-33.6	23.4	0.00e+00	0	33	101	1048576	44	5948
2026-01-07 06:21:16.23	229.55	17.82	-32.9	-33.6	23.5	0.00e+00	0	33	101	1048576	44	5919
2026-01-07 06:21:17.24	229.73	17.90	-33.0	-33.6	23.5	0.00e+00	0	33	101	1048576	44	5948
2026-01-07 06:21:18.25	229.91	17.98	-32.9	-33.5	23.6	0.00e+00	0	33	101	1048576	44	5892
2026-01-07 06:21:19.26	230.09	18.06	-33.0	-33.7	23.7	0.00e+00	0	33	101	1048576	44	5980
2026-01-07 06:21:20.27	230.28	18.14	-33.0	-33.7	23.6	0.00e+00	0	33	101	1048576	44	5991
2026-01-07 06:21:21.28	230.46	18.21	-33.1	-33.8	23.7	0.00e+00	0	33	101	1048576	44	6034
2026-01-07 06:21:22.29	230.65	18.29	-33.1	-33.7	23.6	0.00e+00	0	33	101	1048576	44	6031
2026-01-07 06:21:23.30	230.83	18.37	-33.2	-33.9	23.5	0.00e+00	0	33	101	1048576	44	6117
2026-01-07 06:21:24.31	231.02	18.45	-33.2	-33.9	23.6	0.00e+00	0	33	101	1048576	44	6124
2026-01-07 06:21:25.32	231.21	18.52	-33.3	-33.9	23.6	0.00e+00	0	33	101	1048576	44	6164
2026-01-07 06:21:26.33	231.40	18.60	-33.1	-33.8	23.6	0.00e+00	0	33	101	1048576	44	6054
2026-01-07 06:21:27.34	231.59	18.68	-33.2	-33.9	23.7	0.00e+00	0	33	101	1048576	44	6151
2026-01-07 06:21:28.35	231.78	18.76	-33.1	-33.8	23.8	0.00e+00	0	33	101	1048576	44	6053
2026-01-07 06:21:29.36	231.98	18.83	-33.2	-33.9	23.8	0.00e+00	0	33	101	1048576	44	6105
2026-01-07 06:21:30.37	232.17	18.91	-33.1	-33.8	23.8	0.00e+00	0	33	101	1048576	44	6043
2026-01-07 06:21:31.38	232.36	18.99	-33.2	-33.8	23.9	0.00e+00	0	33	101	1048576	44	6090
2026-01-07 06:21:32.39	232.56	19.07	-33.1	-33.7	24.0	0.00e+00	0	33	101	1048576	44	6005
2026-01-07 06:21:33.40	232.75	19.14	-33.1	-33.8	24.0	0.00e+00	0	33	101	1048576	44	6055
2026-01-07 06:21:34.41	232.95	19.22	-33.0	-33.6	24.1	0.00e+00	0	33	101	1048576	44	5928
2026-01-07 06:21:35.42	233.15	19.30	-32.9	-33.5	24.0	0.00e+00	0	33	101	1048576	44	5868
2026-01-07 06:21:36.43	233.35	19.37	-32.9	-33.6	24.1	0.00e+00	0	33	101	1048576	44	5930
2026-01-07 06:21:37.45	233.55	19.45	-32.9	-33.5	23.9	0.00e+00	0	33	101	1048576	44	5884
2026-01-07 06:21:38.46	233.75	19.53	-32.8	-33.4	23.9	0.00e+00	0	33	101	1048576	44	5815
2026-01-07 06:21:39.47	233.95	19.60	-32.9	-33.6	23.9	0.00e+00	0	33	101	1048576	44	5919
2026-01-07 06:21:40.48	234.16	19.68	-32.9	-33.5	23.9	0.00e+00	0	33	101	1048576	44	5878
2026-01-07 06:21:41.49	234.36	19.76	-32.8	-33.4	23.8	0.00e+00	0	33	101	1048576	44	5820
2026-01-07 06:21:42.50	234.57	19.83	-32.8	-33.5	23.7	0.00e+00	0	33	101	1048576	44	5844
2026-01-07 06:21:43.51	234.77	19.91	-32.9	-33.6	23.6	0.00e+00	0	33	101	1048576	44	5920
2026-01-07 06:21:44.52	234.98	19.99	-32.9	-33.6	23.6	0.00e+00	0	33	101	1048576	44	5939
2026-01-07 06:21:45.53	235.19	20.06	-32.9	-33.6	23.5	0.00e+00	0	33	101	1048576	44	5907
2026-01-07 06:21:46.54	235.40	20.14	-32.8	-33.5	23.5	0.00e+00	0	33	101	1048576	44	5865
2026-01-07 06:21:47.56	235.61	20.21	-32.9	-33.6	23.4	0.00e+00	0	33	101	1048576	44	5938
2026-01-07 06:21:48.57	235.82	20.29	-32.9	-33.6	23.5	0.00e+00	0	33	101	1048576	44	5937
2026-01-07 06:21:49.58	236.03	20.36	-32.8	-33.5	23.4	0.00e+00	0	33	101	1048576	44	5850
2026-01-07 06:21:50.59	236.25	20.44	-32.7	-33.4	23.4	0.00e+00	0	33	101	1048576	44	5818
2026-01-07 06:21:51.60	236.46	20.51	-32.7	-33.4	23.4	0.00e+00	0	33	101	1048576	44	5827
2026-01-07 06:21:52.61	236.67	20.59	-32.8	-33.5	23.3	0.00e+00	0	33	101	1048576	44	5855
2026-01-07 06:21:53.62	236.89	20.66	-32.7	-33.4	23.3	0.00e+00	0	33	101	1048576	44	5813
2026-01-07 06:21:54.63	237.11	20.74	-32.7	-33.4	23.3	0.00e+00	0	33	101	1048576	44	5809
2026-01-07 06:21:55.64	237.33	20.81	-32.7	-33.4	23.4	0.00e+00	0	33	101	1048576	44	5819
2026-01-07 06:21:56.65	237.55	20.88	-32.6	-33.3	23.5	0.00e+00	0	33	101	1048576	44	5734
2026-01-07 06:21:57.66	237.77	20.96	-32.6	-33.3	23.5	0.00e+00	0	33	101	1048576	44	5734
2026-01-07 06:21:58.68	237.99	21.03	-32.7	-33.4	23.6	0.00e+00	0	33	101	1048576	44	5764
2026-01-07 06:21:59.69	238.21	21.10	-32.6	-33.3	23.7	0.00e+00	0	33	101	1048576	44	5719
2026-01-07 06:22:00.69	238.43	21.18	-32.6	-33.2	23.8	0.00e+00	0	33	101	1048576	44	5685
2026-01-07 06:22:01.70	238.66	21.25	-32.5	-33.2	23.9	0.00e+00	0	33	101	1048576	44	5671
2026-01-07 06:22:02.72	238.88	21.32	-32.5	-33.1	24.0	0.00e+00	0	34	101	1048576	44	5623
2026-01-07 06:22:03.73	239.11	21.40	-32.4	-33.0	24.2	0.00e+00	0	33	101	1048576	44	5532
2026-01-07 06:22:04.74	239.34	21.47	-32.4	-33.0	24.2	0.00e+00	0	34	101	1048576	44	5534
2026-01-07 06:22:05.75	239.57	21.54	-32.3	-33.0	24.3	0.00e+00	0	33	101	1048576	44	5506
2026-01-07 06:22:06.76	239.80	21.61	-32.5	-33.1	24.2	0.00e+00	0	33	101	1048576	44	5605
2026-01-07 06:22:07.77	240.03	21.68	-32.5	-33.2	24.1	0.00e+00	0	33	101	1048576	44	5659
2026-01-07 06:22:08.78	240.26	21.75	-32.4	-33.1	24.1	0.00e+00	0	34	101	1048576	44	5575
2026-01-07 06:22:09.79	240.49	21.82	-32.5	-33.1	23.9	0.00e+00	0	33	101	1048576	44	5607
2026-01-07 06:22:10.80	240.72	21.89	-32.5	-33.2	23.8	0.00e+00	0	33	101	1048576	44	5663
2026-01-07 06:22:11.81	240.96	21.96	-32.5	-33.2	23.8	0.00e+00	0	33	101	1048576	44	5633
2026-01-07 06:22:12.82	241.19	22.03	-32.6	-33.3	23.8	0.00e+00	0	33	101	1048576	44	5696
2026-01-07 06:22:13.83	241.43	22.10	-32.5	-33.1	23.7	0.00e+00	0	33	101	1048576	44	5618
2026-01-07 06:22:14.84	241.67	22.17	-32.6	-33.3	23.6	0.00e+00	0	33	101	1048576	44	5716
2026-01-07 06:22:15.85	241.91	22.24	-32.5	-33.2	23.7	0.00e+00	0	33	101	1048576	44	5656
2026-01-07 06:22:16.86	242.15	22.31	-32.5	-33.2	23.6	0.00e+00	0	34	101	1048576	44	5652
2026-01-07 06:22:17.87	242.39	22.38	-32.5	-33.2	23.6	0.00e+00	0	33	101	1048576	44	5666
2026-01-07 06:22:18.88	242.63	22.45	-32.4	-33.1	23.6	0.00e+00	0	33	101	1048576	44	5608
2026-01-07 06:22:19.89	242.87	22.51	-32.6	-33.3	23.6	0.00e+00	0	33	101	1048576	44	5710
2026-01-07 06:22:20.90	243.12	22.58	-32.5	-33.2	23.6	0.00e+00	0	33	101	1048576	44	5680
2026-01-07 06:22:21.92	243.36	22.65	-32.5	-33.2	23.6	0.00e+00	0	33	101	1048576	44	5657
2026-01-07 06:22:22.93	243.61	22.72	-32.6	-33.3	23.6	0.00e+00	0	33	101	1048576	44	5732
2026-01-07 06:22:23.94	243.86	22.78	-32.5	-33.2	23.6	0.00e+00	0	34	101	1048576	44	5674
2026-01-07 06:22:24.95	244.10	22.85	-32.4	-33.1	23.7	0.00e+00	0	34	101	1048576	44	5580
2026-01-07 06:22:25.96	244.35	22.91	-32.4	-33.1	23.7	0.00e+00	0	34	101	1048576	44	5589
2026-01-07 06:22:26.97	244.60	22.98	-32.2	-32.8	23.9	0.00e+00	0	34	101	1048576	44	5415
2026-01-07 06:22:27.98	244.85	23.04	-32.0	-32.7	24.0	0.00e+00	0	34	101	1048576	42	6005
2026-01-07 06:22:28.99	245.11	23.11	-32.1	-32.8	24.0	0.00e+00	0	34	101	1048576	42	6046
2026-01-07 06:22:30.00	245.36	23.17	-32.0	-32.6	24.2	0.00e+00	0	34	101	1048576	42	5962
2026-01-07 06:22:31.01	245.61	23.24	-32.1	-32.7	24.1	0.00e+00	0	34	101	1048576	42	6002
2026-01-07 06:22:32.02	245.87	23.30	-32.0	-32.7	24.2	0.00e+00	0	33	101	1048576	42	5990
2026-01-07 06:22:33.03	246.13	23.36	-32.1	-32.7	24.2	0.00e+00	0	34	101	1048576	42	6023
2026-01-07 06:22:34.04	246.38	23.42	-32.2	-32.9	24.0	0.00e+00	0	33	101	1048576	42	6125
2026-01-07 06:22:35.05	246.64	23.48	-32.3	-33.0	23.9	0.00e+00	0	34	101	1048576	42	6192
2026-01-07 06:22:36.07	246.90	23.55	-32.3	-32.9	24.0	0.00e+00	0	34	101	1048576	42	6152
2026-01-07 06:22:37.08	247.16	23.61	-32.3	-33.0	23.9	0.00e+00	0	34	101	1048576	42	6202
2026-01-07 06:22:38.09	247.42	23.67	-32.4	-33.1	23.9	0.00e+00	0	34	101	1048576	42	6247
2026-01-07 06:22:39.10	247.69	23.73	-32.3	-32.9	23.9	0.00e+00	0	34	101	1048576	42	6173
2026-01-07 06:22:40.11	247.95	23.79	-32.3	-33.0	23.9	0.00e+00	0	33	101	1048576	42	6180
2026-01-07 06:22:41.12	248.21	23.85	-32.2	-32.8	23.8	0.00e+00	0	34	101	1048576	42	6100
2026-01-07 06:22:42.13	248.48	23.90	-32.3	-33.0	23.7	0.00e+00	0	34	101	1048576	42	6193
2026-01-07 06:22:43.14	248.74	23.96	-32.3	-33.0	23.7	0.00e+00	0	34	101	1048576	42	6202
2026-01-07 06:22:44.15	249.01	24.02	-32.3	-33.0	23.6	0.00e+00	0	33	101	1048576	42	6222
2026-01-07 06:22:45.16	249.28	24.08	-32.3	-33.0	23.7	0.00e+00	0	33	101	1048576	42	6198
2026-01-07 06:22:46.17	249.55	24.13	-32.2	-32.9	23.8	0.00e+00	0	33	101	1048576	42	6155
2026-01-07 06:22:47.17	249.81	24.19	-32.3	-33.0	23.8	0.00e+00	0	34	101	1048576	42	6205
2026-01-07 06:22:48.18	250.08	24.24	-32.2	-32.9	23.7	0.00e+00	0	33	101	1048576	42	6109
2026-01-07 06:22:49.19	250.36	24.30	-32.1	-32.8	23.8	0.00e+00	0	34	101	1048576	42	6072
2026-01-07 06:22:50.19	250.63	24.35	-32.1	-32.8	23.8	0.00e+00	0	33	101	1048576	42	6098
2026-01-07 06:22:51.20	250.90	24.41	-32.1	-32.8	23.8	0.00e+00	0	34	101	1048576	42	6071
2026-01-07 06:22:52.21	251.17	24.46	-32.2	-32.9	23.8	0.00e+00	0	34	101	1048576	42	6127
2026-01-07 06:22:53.22	251.45	24.51	-32.1	-32.8	23.9	0.00e+00	0	34	101	1048576	42	6060
2026-01-07 06:22:54.23	251.72	24.56	-32.2	-32.9	23.9	0.00e+00	0	33	101	1048576	42	6106
2026-01-07 06:22:55.24	252.00	24.62	-31.9	-32.6	24.2	0.00e+00	0	34	101	1048576	42	5913
2026-01-07 06:22:56.24	252.28	24.67	-31.8	-32.5	24.4	0.00e+00	0	34	101	1048576	42	5830
2026-01-07 06:22:57.25	252.55	24.72	-31.8	-32.4	24.4	0.00e+00	0	34	101	1048576	42	5798
2026-01-07 06:22:58.26	252.83	24.77	-31.8	-32.5	24.4	0.00e+00	0	34	101	1048576	42	5836
2026-01-07 06:22:59.27	253.11	24.81	-31.7	-32.4	24.5	0.00e+00	0	34	101	1048576	42	5766
2026-01-07 06:23:00.27	253.39	24.86	-31.8	-32.4	24.5	0.00e+00	0	34	101	1048576	42	5799
2026-01-07 06:23:01.28	253.68	24.91	-31.8	-32.4	24.5	0.00e+00	0	33	101	1048576	42	5821
2026-01-07 06:23:02.29	253.96	24.96	-31.7	-32.3	24.5	0.00e+00	0	34	101	1048576	42	5756
2026-01-07 06:23:03.30	254.24	25.00	-31.8	-32.4	24.4	0.00e+00	0	33	101	1048576	42	5785
2026-01-07 06:23:04.31	254.53	25.05	-31.8	-32.4	24.4	0.00e+00	0	34	101	1048576	42	5796
2026-01-07 06:23:05.31	254.81	25.09	-31.6	-32.3	24.4	0.00e+00	0	34	101	1048576	42	5704
2026-01-07 06:23:06.32	255.09	25.14	-31.6	-32.2	24.4	0.00e+00	0	34	101	1048576	42	5664
2026-01-07 06:23:07.33	255.38	25.18	-31.6	-32.2	24.4	0.00e+00	0	34	101	1048576	42	5657
2026-01-07 06:23:08.34	255.67	25.23	-31.6	-32.2	24.2	0.00e+00	0	33	101	1048576	42	5673
2026-01-07 06:23:09.35	255.96	25.27	-31.6	-32.2	24.2	0.00e+00	0	34	101	1048576	42	5673
2026-01-07 06:23:10.36	256.25	25.31	-31.7	-32.4	24.0	0.00e+00	0	34	101	1048576	42	5789
2026-01-07 06:23:11.36	256.53	25.35	-31.8	-32.5	23.9	0.00e+00	0	34	101	1048576	42	5861
2026-01-07 06:23:12.37	256.82	25.39	-31.9	-32.6	23.8	0.00e+00	0	33	101	1048576	42	5943
2026-01-07 06:23:13.38	257.12	25.43	-32.0	-32.6	23.8	0.00e+00	0	33	101	1048576	42	5953
2026-01-07 06:23:14.39	257.41	25.47	-31.9	-32.6	23.9	0.00e+00	0	34	101	1048576	42	5909
2026-01-07 06:23:15.40	257.70	25.51	-31.9	-32.6	24.0	0.00e+00	0	34	101	1048576	42	5912
2026-01-07 06:23:16.41	257.99	25.55	-31.9	-32.6	24.0	0.00e+00	0	34	101	1048576	42	5911
2026-01-07 06:23:17.42	258.29	25.58	-31.8	-32.4	24.2	0.00e+00	0	33	101	1048576	42	5803
2026-01-07 06:23:18.43	258.58	25.62	-31.8	-32.4	24.1	0.00e+00	0	34	101	1048576	42	5806
2026-01-07 06:23:19.43	258.88	25.65	-31.9	-32.5	24.1	0.00e+00	0	33	101	1048576	42	5869
2026-01-07 06:23:20.44	259.17	25.69	-31.9	-32.6	24.1	0.00e+00	0	33	101	1048576	42	5924
2026-01-07 06:23:21.45	259.47	25.72	-32.0	-32.7	24.0	0.00e+00	0	34	101	1048576	42	5976
2026-01-07 06:23:22.46	259.77	25.76	-31.9	-32.6	24.0	0.00e+00	0	33	101	1048576	42	5926
2026-01-07 06:23:23.47	260.06	25.79	-31.9	-32.6	24.1	0.00e+00	0	34	101	1048576	42	5915
2026-01-07 06:23:24.48	260.36	25.82	-31.9	-32.5	24.2	0.00e+00	0	33	101	1048576	42	5883
2026-01-07 06:23:25.49	260.66	25.85	-31.9	-32.5	24.3	0.00e+00	0	33	101	1048576	42	5866
2026-01-07 06:23:26.50	260.96	25.88	-32.0	-32.7	24.4	0.00e+00	0	34	101	1048576	42	5983
2026-01-07 06:23:27.50	261.26	25.91	-32.0	-32.7	24.4	0.00e+00	0	33	101	1048576	42	5968
2026-01-07 06:23:28.51	261.56	25.94	-31.7	-32.4	24.5	0.00e+00	0	34	101	1048576	42	5773
2026-01-07 06:23:29.52	261.86	25.96	-31.8	-32.5	24.4	0.00e+00	0	34	101	1048576	42	5854
2026-01-07 06:23:30.53	262.16	25.99	-31.8	-32.5	24.2	0.00e+00	0	34	101	1048576	42	5851
2026-01-07 06:23:31.53	262.46	26.02	-31.8	-32.5	24.1	0.00e+00	0	34	101	1048576	42	5859
2026-01-07 06:23:32.54	262.76	26.04	-32.0	-32.6	23.9	0.00e+00	0	33	101	1048576	42	5959
2026-01-07 06:23:33.55	263.07	26.07	-32.0	-32.7	23.8	0.00e+00	0	33	101	1048576	42	6020
2026-01-07 06:23:34.56	263.37	26.09	-32.1	-32.8	23.6	0.00e+00	0	33	101	1048576	42	6044
2026-01-07 06:23:35.57	263.67	26.11	-32.0	-32.7	23.6	0.00e+00	0	33	101	1048576	42	6026
2026-01-07 06:23:36.57	263.97	26.14	-32.0	-32.7	23.6	0.00e+00	0	33	101	1048576	42	6010
2026-01-07 06:23:37.59	264.28	26.16	-31.9	-32.5	23.7	0.00e+00	0	33	101	1048576	42	5895
2026-01-07 06:23:38.60	264.59	26.18	-31.8	-32.5	23.8	0.00e+00	0	33	101	1048576	42	5882
2026-01-07 06:23:39.60	264.89	26.20	-31.7	-32.4	23.9	0.00e+00	0	34	101	1048576	42	5792
2026-01-07 06:23:40.61	265.20	26.21	-32.0	-32.6	23.7	0.00e+00	0	34	101	1048576	42	5957
2026-01-07 06:23:41.62	265.50	26.23	-31.8	-32.5	23.8	0.00e+00	0	33	101	1048576	42	5840
2026-01-07 06:23:42.63	265.81	26.25	-31.8	-32.5	23.9	0.00e+00	0	34	101	1048576	42	5841
2026-01-07 06:23:43.64	266.11	26.27	-31.7	-32.4	23.9	0.00e+00	0	33	101	1048576	42	5803
2026-01-07 06:23:44.65	266.42	26.28	-31.9	-32.6	23.8	0.00e+00	0	33	101	1048576	42	5927
2026-01-07 06:23:45.66	266.73	26.30	-31.9	-32.5	24.1	0.00e+00	0	33	101	1048576	42	5874
2026-01-07 06:23:46.67	267.04	26.31	-31.6	-32.2	24.2	0.00e+00	0	33	101	1048576	42	5689
2026-01-07 06:23:47.68	267.34	26.32	-31.5	-32.1	24.3	0.00e+00	0	34	101	1048576	42	5597
2026-01-07 06:23:48.68	267.65	26.33	-31.4	-32.0	24.3	0.00e+00	0	34	101	1048576	42	5553
2026-01-07 06:23:49.69	267.96	26.34	-31.4	-32.1	24.2	0.00e+00	0	33	101	1048576	42	5580
2026-01-07 06:23:50.70	268.27	26.35	-31.4	-32.1	24.2	0.00e+00	0	33	101	1048576	42	5589
2026-01-07 06:23:51.71	268.58	26.36	-31.5	-32.2	24.3	0.00e+00	0	33	101	1048576	42	5644
2026-01-07 06:23:52.72	268.88	26.37	-31.6	-32.2	24.2	0.00e+00	0	33	101	1048576	42	5677
2026-01-07 06:23:53.73	269.19	26.38	-31.7	-32.4	24.2	0.00e+00	0	33	101	1048576	42	5768
2026-01-07 06:23:54.74	269.50	26.39	-31.6	-32.3	24.2	0.00e+00	0	33	101	1048576	42	5715
2026-01-07 06:23:55.74	269.81	26.39	-31.6	-32.3	24.2	0.00e+00	0	33	101	1048576	42	5718
2026-01-07 06:23:56.75	270.12	26.40	-31.7	-32.4	24.2	0.00e+00	0	34	101	1048576	42	5801
2026-01-07 06:23:57.76	270.43	26.40	-31.6	-32.3	24.2	0.00e+00	0	34	101	1048576	42	5711
2026-01-07 06:23:58.77	270.74	26.40	-31.8	-32.4	24.1	0.00e+00	0	34	101	1048576	42	5807
2026-01-07 06:23:59.77	271.04	26.41	-31.5	-32.2	24.1	0.00e+00	0	33	101	1048576	42	5654
2026-01-07 06:24:00.78	271.35	26.41	-31.5	-32.1	24.0	0.00e+00	0	34	101	1048576	42	5612
2026-01-07 06:24:01.79	271.66	26.41	-31.5	-32.1	24.1	0.00e+00	0	33	101	1048576	42	5607
2026-01-07 06:24:02.80	271.97	26.41	-31.5	-32.2	24.1	0.00e+00	0	34	101	1048576	42	5638
2026-01-07 06:24:03.81	272.28	26.41	-31.6	-32.2	24.0	0.00e+00	0	33	101	1048576	42	5682
2026-01-07 06:24:04.82	272.59	26.40	-31.7	-32.4	24.0	0.00e+00	0	34	101	1048576	42	5768
2026-01-07 06:24:05.82	272.90	26.40	-31.7	-32.4	23.9	0.00e+00	0	34	101	1048576	42	5784
2026-01-07 06:24:06.83	273.21	26.40	-31.7	-32.4	23.9	0.00e+00	0	34	101	1048576	42	5802
2026-01-07 06:24:07.84	273.52	26.39	-31.8	-32.5	23.9	0.00e+00	0	33	101	1048576	42	5838
2026-01-07 06:24:08.85	273.82	26.39	-31.7	-32.4	23.8	0.00e+00	0	34	101	1048576	42	5772
2026-01-07 06:24:09.86	274.13	26.38	-31.8	-32.5	23.7	0.00e+00	0	34	101	1048576	42	5859
2026-01-07 06:24:10.86	274.44	26.37	-31.7	-32.4	23.8	0.00e+00	0	34	101	1048576	42	5800
2026-01-07 06:24:11.87	274.75	26.36	-31.7	-32.4	23.9	0.00e+00	0	34	101	1048576	42	5764
2026-01-07 06:24:12.88	275.06	26.36	-31.8	-32.4	23.9	0.00e+00	0	33	101	1048576	42	5812
2026-01-07 06:24:13.89	275.36	26.35	-31.7	-32.4	24.0	0.00e+00	0	34	101	1048576	42	5789
2026-01-07 06:24:14.71	275.61	26.34	-31.8	-32.4	24.0	0.00e+00	0	34	101	1048576	42	5828
2026-01-07 06:24:15.87	275.97	26.32	-31.8	-32.4	24.0	0.00e+00	0	33	101	1048576	42	5820
2026-01-07 06:24:16.73	276.23	26.31	-31.8	-32.4	24.1	0.00e+00	0	34	101	1048576	42	5825
2026-01-07 06:24:17.89	276.58	26.30	-31.6	-32.2	24.2	0.00e+00	0	33	101	1048576	42	5679
2026-01-07 06:24:18.75	276.85	26.29	-31.5	-32.2	24.3	0.00e+00	0	34	101	1048576	42	5650
2026-01-07 06:24:19.91	277.20	26.27	-31.6	-32.2	24.4	0.00e+00	0	34	101	1048576	42	5656
2026-01-07 06:24:20.77	277.46	26.26	-31.5	-32.1	24.6	0.00e+00	0	33	101	1048576	42	5577
2026-01-07 06:24:21.92	277.81	26.24	-31.4	-32.1	24.4	0.00e+00	0	33	101	1048576	42	5572
2026-01-07 06:24:22.79	278.07	26.22	-31.5	-32.1	24.2	0.00e+00	0	34	101	1048576	42	5614
2026-01-07 06:24:23.94	278.42	26.20	-31.7	-32.3	23.9	0.00e+00	0	34	101	1048576	42	5749
2026-01-07 06:24:24.80	278.68	26.18	-31.7	-32.4	24.0	0.00e+00	0	34	101	1048576	42	5775
2026-01-07 06:24:25.96	279.03	26.16	-31.6	-32.3	24.1	0.00e+00	0	34	101	1048576	42	5703
2026-01-07 06:24:26.82	279.29	26.14	-31.8	-32.4	24.1	0.00e+00	0	34	101	1048576	42	5793
2026-01-07 06:24:27.98	279.64	26.12	-31.9	-32.5	24.1	0.00e+00	0	34	101	1048576	42	5853
2026-01-07 06:24:28.84	279.90	26.10	-31.8	-32.4	24.1	0.00e+00	0	34	101	1048576	42	5826
2026-01-07 06:24:29.99	280.24	26.07	-31.7	-32.4	24.0	0.00e+00	0	33	101	1048576	42	5768
2026-01-07 06:24:30.86	280.50	26.05	-31.7	-32.4	23.9	0.00e+00	0	34	101	1048576	42	5770
2026-01-07 06:24:32.01	280.85	26.02	-31.7	-32.4	23.9	0.00e+00	0	34	101	1048576	42	5773
2026-01-07 06:24:32.87	281.10	26.00	-31.8	-32.5	23.7	0.00e+00	0	34	101	1048576	42	5866
2026-01-07 06:24:34.03	281.45	25.97	-31.8	-32.5	23.8	0.00e+00	0	34	101	1048576	42	5875
2026-01-07 06:24:34.89	281.71	25.95	-31.8	-32.5	23.7	0.00e+00	0	34	101	1048576	42	5872
2026-01-07 06:24:36.04	282.05	25.92	-31.8	-32.5	23.7	0.00e+00	0	33	101	1048576	42	5885
2026-01-07 06:24:36.91	282.31	25.89	-32.0	-32.7	23.8	0.00e+00	0	34	101	1048576	42	5969
2026-01-07 06:24:38.06	282.65	25.86	-31.7	-32.4	23.8	0.00e+00	0	34	101	1048576	42	5803
2026-01-07 06:24:38.92	282.90	25.83	-31.8	-32.5	23.8	0.00e+00	0	34	101	1048576	42	5829
2026-01-07 06:24:40.08	283.24	25.79	-31.6	-32.3	24.0	0.00e+00	0	34	101	1048576	42	5696
2026-01-07 06:24:40.95	283.50	25.77	-31.7	-32.4	24.0	0.00e+00	0	34	101	1048576	42	5766
2026-01-07 06:24:42.10	283.84	25.73	-31.7	-32.3	24.0	0.00e+00	0	34	101	1048576	42	5746
2026-01-07 06:24:42.96	284.09	25.70	-31.6	-32.3	24.0	0.00e+00	0	34	101	1048576	42	5705
2026-01-07 06:24:44.12	284.43	25.66	-31.6	-32.3	24.0	0.00e+00	0	34	101	1048576	42	5719
2026-01-07 06:24:44.98	284.68	25.63	-31.6	-32.3	23.9	0.00e+00	0	34	101	1048576	42	5735
2026-01-07 06:24:46.14	285.02	25.59	-31.6	-32.2	24.0	0.00e+00	0	34	101	1048576	42	5688
2026-01-07 06:24:47.00	285.27	25.56	-31.6	-32.2	24.1	0.00e+00	0	33	101	1048576	42	5680
2026-01-07 06:24:48.15	285.60	25.52	-31.6	-32.2	24.1	0.00e+00	0	34	101	1048576	42	5693
2026-01-07 06:24:49.02	285.85	25.48	-31.5	-32.2	24.2	0.00e+00	0	34	101	1048576	42	5647
2026-01-07 06:24:50.17	286.19	25.44	-31.7	-32.4	24.1	0.00e+00	0	34	101	1048576	42	5772
2026-01-07 06:24:51.04	286.44	25.41	-31.7	-32.3	23.9	0.00e+00	0	34	101	1048576	42	5758
2026-01-07 06:24:52.18	286.76	25.36	-31.9	-32.5	23.8	0.00e+00	0	34	101	1048576	42	5887
2026-01-07 06:24:53.05	287.01	25.33	-31.9	-32.6	23.7	0.00e+00	0	34	101	1048576	42	5937
2026-01-07 06:24:54.20	287.34	25.28	-31.9	-32.6	23.8	0.00e+00	0	33	101	1048576	42	5916
2026-01-07 06:24:55.07	287.59	25.24	-31.9	-32.5	23.9	0.00e+00	0	34	101	1048576	42	5888
2026-01-07 06:24:56.22	287.92	25.19	-32.0	-32.7	23.9	0.00e+00	0	34	101	1048576	42	5984
2026-01-07 06:24:57.09	288.16	25.16	-32.0	-32.6	24.0	0.00e+00	0	34	101	1048576	42	5958
2026-01-07 06:24:58.24	288.49	25.11	-32.0	-32.7	23.7	0.00e+00	0	34	101	1048576	42	5965
2026-01-07 06:24:59.11	288.73	25.07	-31.9	-32.6	24.0	0.00e+00	0	34	101	1048576	42	5913
2026-01-07 06:25:00.26	289.06	25.02	-32.1	-32.7	23.9	0.00e+00	0	34	101	1048576	42	6021
2026-01-07 06:25:01.13	289.30	24.98	-32.1	-32.7	23.7	0.00e+00	0	34	101	1048576	42	6023
2026-01-07 06:25:02.28	289.62	24.92	-32.3	-33.0	23.7	0.00e+00	0	34	101	1048576	42	6188
2026-01-07 06:25:03.14	289.86	24.88	-32.3	-32.9	23.7	0.00e+00	0	34	101	1048576	42	6171
2026-01-07 06:25:04.30	290.19	24.83	-32.2	-32.9	23.8	0.00e+00	0	34	101	1048576	42	6139
2026-01-07 06:25:05.16	290.42	24.79	-32.3	-33.0	23.9	0.00e+00	0	34	101	1048576	42	6182
2026-01-07 06:25:06.31	290.74	24.73	-32.0	-32.7	24.0	0.00e+00	0	34	101	1048576	42	5976
2026-01-07 06:25:07.18	290.98	24.69	-31.9	-32.6	24.0	0.00e+00	0	34	101	1048576	42	5943
2026-01-07 06:25:08.33	291.30	24.63	-32.1	-32.6	27.8	0.00e+00	0	34	101	1048576	42	5944
2026-01-07 06:25:09.20	291.54	24.59	-32.0	-32.4	28.0	0.00e+00	0	34	101	1048576	42	5828
2026-01-07 06:25:10.35	291.85	24.53	-32.1	-32.5	27.9	0.00e+00	0	34	101	1048576	42	5889
2026-01-07 06:25:11.21	292.08	24.48	-32.0	-32.5	28.0	0.00e+00	0	34	101	1048576	42	5873
2026-01-07 06:25:12.36	292.39	24.42	-32.1	-32.6	27.9	0.00e+00	0	33	101	1048576	42	5923
2026-01-07 06:25:13.23	292.63	24.38	-32.2	-32.7	27.8	0.00e+00	0	34	101	1048576	42	5979
2026-01-07 06:25:14.38	292.94	24.32	-32.2	-32.7	27.6	0.00e+00	0	34	101	1048576	42	5979
2026-01-07 06:25:15.24	293.17	24.27	-32.3	-32.8	27.7	0.00e+00	0	33	101	1048576	42	6083
2026-01-07 06:25:16.40	293.48	24.21	-32.3	-32.8	27.7	0.00e+00	0	33	101	1048576	42	6085
2026-01-07 06:25:17.26	293.71	24.16	-32.3	-32.8	27.7	0.00e+00	0	34	101	1048576	42	6066
2026-01-07 06:25:18.41	294.01	24.09	-32.4	-32.9	27.7	0.00e+00	0	34	101	1048576	42	6125
2026-01-07 06:25:19.28	294.24	24.05	-32.4	-32.8	27.3	0.00e+00	0	33	101	1048576	42	6097
2026-01-07 06:25:20.43	294.55	23.98	-32.6	-33.1	27.5	0.00e+00	0	33	101	1048576	42	6258
2026-01-07 06:25:21.30	294.78	23.93	-32.6	-33.1	27.5	0.00e+00	0	33	101	1048576	42	6300
2026-01-07 06:25:22.45	295.08	23.87	-32.7	-33.2	27.5	0.00e+00	0	34	101	1048576	42	6346
2026-01-07 06:25:23.31	295.30	23.82	-32.5	-33.0	27.6	0.00e+00	0	34	101	1048576	42	6207
2026-01-07 06:25:24.47	295.60	23.75	-32.5	-33.0	27.7	0.00e+00	0	33	101	1048576	42	6176
2026-01-07 06:25:25.33	295.83	23.70	-32.4	-32.9	27.7	0.00e+00	0	34	101	1048576	42	6108
2026-01-07 06:25:26.48	296.12	23.63	-32.4	-32.8	27.8	0.00e+00	0	33	101	1048576	42	6094
2026-01-07 06:25:27.34	296.34	23.58	-32.2	-32.6	27.9	0.00e+00	0	34	101	1048576	42	5958
2026-01-07 06:25:28.50	296.64	23.51	-32.2	-32.7	27.9	0.00e+00	0	34	101	1048576	42	5975
2026-01-07 06:25:29.37	296.86	23.45	-32.1	-32.6	27.8	0.00e+00	0	34	101	1048576	42	5953
2026-01-07 06:25:30.52	297.15	23.38	-32.3	-32.8	27.9	0.00e+00	0	33	101	1048576	42	6055
2026-01-07 06:25:31.38	297.37	23.33	-32.3	-32.8	27.8	0.00e+00	0	33	101	1048576	42	6044
2026-01-07 06:25:32.54	297.66	23.26	-32.4	-32.9	27.7	0.00e+00	0	34	101	1048576	42	6138
2026-01-07 06:25:33.40	297.88	23.21	-32.5	-33.0	27.7	0.00e+00	0	34	101	1048576	42	6184
2026-01-07 06:25:34.55	298.17	23.13	-32.4	-32.9	27.6	0.00e+00	0	34	101	1048576	42	6135
2026-01-07 06:25:35.42	298.38	23.08	-32.5	-33.0	27.7	0.00e+00	0	34	101	1048576	42	6182
2026-01-07 06:25:36.57	298.67	23.01	-32.7	-33.2	27.5	0.00e+00	0	34	101	1048576	42	6322
2026-01-07 06:25:37.44	298.88	22.95	-32.8	-33.3	27.4	0.00e+00	0	34	101	1048576	42	6426
2026-01-07 06:25:38.59	299.17	22.88	-32.8	-33.4	27.3	0.00e+00	0	33	101	1048576	42	6466
2026-01-07 06:25:39.45	299.38	22.82	-33.0	-33.5	27.3	0.00e+00	0	34	101	1048576	42	6560
2026-01-07 06:25:40.61	299.66	22.74	-32.9	-33.5	27.2	0.00e+00	0	34	101	1048576	44	5829
2026-01-07 06:25:41.47	299.87	22.69	-32.8	-33.3	27.2	0.00e+00	0	34	101	1048576	44	5752
2026-01-07 06:25:42.63	300.15	22.61	-32.9	-33.4	27.2	0.00e+00	0	34	101	1048576	44	5775
2026-01-07 06:25:43.49	300.36	22.56	-32.9	-33.4	27.3	0.00e+00	0	34	101	1048576	44	5765
2026-01-07 06:25:44.64	300.63	22.48	-33.0	-33.4	27.3	0.00e+00	0	34	101	1048576	44	5817
2026-01-07 06:25:45.51	300.84	22.42	-32.9	-33.3	27.4	0.00e+00	0	34	101	1048576	44	5748
2026-01-07 06:25:46.66	301.12	22.34	-32.7	-33.2	27.3	0.00e+00	0	34	101	1048576	44	5679
2026-01-07 06:25:47.53	301.32	22.28	-32.7	-33.2	27.5	0.00e+00	0	34	101	1048576	44	5651
2026-01-07 06:25:48.68	301.59	22.21	-32.6	-33.1	27.6	0.00e+00	0	34	101	1048576	44	5567
2026-01-07 06:25:49.54	301.80	22.15	-32.5	-33.0	27.6	0.00e+00	0	34	101	1048576	44	5510
2026-01-07 06:25:50.70	302.07	22.07	-32.5	-33.0	27.5	0.00e+00	0	34	101	1048576	44	5509
2026-01-07 06:25:51.56	302.27	22.01	-32.5	-33.0	27.5	0.00e+00	0	34	101	1048576	44	5537
2026-01-07 06:25:52.72	302.54	21.93	-32.7	-33.2	27.5	0.00e+00	0	34	101	1048576	44	5636
2026-01-07 06:25:53.58	302.73	21.87	-32.8	-33.3	27.3	0.00e+00	0	33	101	1048576	44	5712
2026-01-07 06:25:54.74	303.00	21.79	-32.8	-33.3	27.4	0.00e+00	0	34	101	1048576	44	5713
2026-01-07 06:25:55.60	303.20	21.73	-32.8	-33.3	27.3	0.00e+00	0	34	101	1048576	44	5716
2026-01-07 06:25:56.75	303.46	21.65	-32.8	-33.3	27.3	0.00e+00	0	34	101	1048576	44	5711
2026-01-07 06:25:57.62	303.66	21.59	-32.9	-33.3	27.3	0.00e+00	0	34	101	1048576	44	5758
2026-01-07 06:25:58.77	303.92	21.51	-32.8	-33.3	27.3	0.00e+00	0	34	101	1048576	44	5744
2026-01-07 06:25:59.64	304.11	21.45	-33.0	-33.5	27.2	0.00e+00	0	33	101	1048576	44	5864
2026-01-07 06:26:00.79	304.37	21.36	-33.0	-33.5	27.1	0.00e+00	0	34	101	1048576	44	5860
2026-01-07 06:26:01.65	304.56	21.30	-33.0	-33.5	27.0	0.00e+00	0	34	101	1048576	44	5863
2026-01-07 06:26:02.80	304.82	21.22	-33.1	-33.6	27.2	0.00e+00	0	34	101	1048576	44	5916
2026-01-07 06:26:03.67	305.01	21.16	-33.0	-33.5	27.1	0.00e+00	0	34	101	1048576	44	5863
2026-01-07 06:26:04.82	305.26	21.08	-33.2	-33.7	26.9	0.00e+00	0	34	101	1048576	44	5980
2026-01-07 06:26:05.69	305.45	21.01	-33.2	-33.7	27.0	0.00e+00	0	34	101	1048576	44	5974
2026-01-07 06:26:06.84	305.70	20.93	-33.3	-33.8	26.9	0.00e+00	0	34	101	1048576	44	6083
2026-01-07 06:26:07.71	305.89	20.87	-33.4	-33.9	26.8	0.00e+00	0	34	101	1048576	44	6136
2026-01-07 06:26:08.86	306.14	20.78	-33.3	-33.8	26.8	0.00e+00	0	34	101	1048576	44	6038
2026-01-07 06:26:09.73	306.32	20.72	-33.3	-33.8	26.8	0.00e+00	0	34	101	1048576	44	6071
2026-01-07 06:26:10.88	306.57	20.64	-33.2	-33.7	26.7	0.00e+00	0	34	101	1048576	44	5989
2026-01-07 06:26:11.74	306.75	20.57	-33.2	-33.7	26.6	0.00e+00	0	34	101	1048576	44	5996
2026-01-07 06:26:12.89	307.00	20.49	-33.5	-34.0	26.8	0.00e+00	0	34	101	1048576	44	6186
2026-01-07 06:26:13.76	307.18	20.42	-33.3	-33.8	26.9	0.00e+00	0	34	101	1048576	44	6067
2026-01-07 06:26:14.91	307.42	20.34	-33.1	-33.6	27.0	0.00e+00	0	33	101	1048576	44	5931
2026-01-07 06:26:15.77	307.60	20.28	-33.0	-33.5	27.1	0.00e+00	0	34	101	1048576	44	5840
2026-01-07 06:26:16.93	307.84	20.19	-33.2	-33.7	26.9	0.00e+00	0	34	101	1048576	44	6002
2026-01-07 06:26:17.79	308.02	20.13	-33.2	-33.7	27.0	0.00e+00	0	34	101	1048576	44	5967
2026-01-07 06:26:18.94	308.25	20.04	-33.5	-34.0	26.6	0.00e+00	0	34	101	1048576	44	6178
2026-01-07 06:26:19.81	308.43	19.98	-33.4	-33.9	26.7	0.00e+00	0	33	101	1048576	44	6165
2026-01-07 06:26:20.96	308.67	19.89	-33.8	-34.3	26.5	0.00e+00	0	33	101	1048576	44	6392
2026-01-07 06:26:21.82	308.84	19.83	-33.9	-34.4	26.5	0.00e+00	0	34	101	1048576	44	6517
2026-01-07 06:26:22.98	309.07	19.74	-34.1	-34.6	26.2	0.00e+00	0	33	101	1048576	46	5951
2026-01-07 06:26:23.84	309.25	19.67	-33.8	-34.3	26.5	0.00e+00	0	34	101	1048576	46	5720
2026-01-07 06:26:24.99	309.48	19.59	-33.4	-33.9	26.8	0.00e+00	0	34	101	1048576	46	5488
2026-01-07 06:26:25.86	309.65	19.52	-33.6	-34.1	26.7	0.00e+00	0	34	101	1048576	46	5578
2026-01-07 06:26:27.01	309.88	19.44	-33.5	-34.0	26.8	0.00e+00	0	34	101	1048576	46	5530
2026-01-07 06:26:27.87	310.05	19.37	-33.4	-33.9	26.8	0.00e+00	0	34	101	1048576	46	5497
2026-01-07 06:26:29.02	310.27	19.28	-33.5	-34.0	26.7	0.00e+00	0	34	101	1048576	46	5522
2026-01-07 06:26:29.89	310.44	19.22	-33.5	-34.0	26.6	0.00e+00	0	34	101	1048576	46	5555
2026-01-07 06:26:31.04	310.67	19.13	-33.5	-34.0	26.8	0.00e+00	0	34	101	1048576	46	5537
2026-01-07 06:26:31.91	310.83	19.06	-33.4	-33.9	26.9	0.00e+00	0	34	101	1048576	46	5471
2026-01-07 06:26:33.06	311.05	18.98	-33.4	-33.9	26.9	0.00e+00	0	34	101	1048576	46	5453
2026-01-07 06:26:33.93	311.22	18.91	-33.4	-33.9	26.9	0.00e+00	0	34	101	1048576	46	5441
2026-01-07 06:26:35.08	311.44	18.82	-33.3	-33.8	26.9	0.00e+00	0	34	101	1048576	46	5428
2026-01-07 06:26:35.94	311.60	18.76	-33.3	-33.8	26.8	0.00e+00	0	34	101	1048576	46	5391
2026-01-07 06:26:37.09	311.82	18.67	-33.4	-33.9	26.8	0.00e+00	0	34	101	1048576	46	5461
2026-01-07 06:26:37.96	311.98	18.60	-33.4	-33.9	26.8	0.00e+00	0	34	101	1048576	46	5449
2026-01-07 06:26:39.11	312.20	18.52	-33.4	-33.9	26.8	0.00e+00	0	34	101	1048576	46	5459
2026-01-07 06:26:39.98	312.36	18.45	-33.4	-33.9	26.8	0.00e+00	0	34	101	1048576	46	5444
2026-01-07 06:26:41.13	312.57	18.36	-33.5	-34.0	26.7	0.00e+00	0	34	101	1048576	46	5536
2026-01-07 06:26:42.00	312.73	18.30	-33.5	-34.0	26.7	0.00e+00	0	34	101	1048576	46	5564
2026-01-07 06:26:43.15	312.94	18.21	-33.8	-34.3	26.3	0.00e+00	0	34	101	1048576	46	5729
2026-01-07 06:26:44.02	313.10	18.14	-33.8	-34.3	26.4	0.00e+00	0	34	101	1048576	46	5725
2026-01-07 06:26:45.17	313.31	18.05	-33.9	-34.4	26.5	0.00e+00	0	34	101	1048576	46	5784
2026-01-07 06:26:46.04	313.46	17.99	-34.0	-34.5	26.3	0.00e+00	0	34	101	1048576	46	5868
2026-01-07 06:26:47.19	313.67	17.90	-34.0	-34.5	26.4	0.00e+00	0	34	101	1048576	46	5877
2026-01-07 06:26:48.06	313.83	17.83	-34.0	-34.5	26.4	0.00e+00	0	34	101	1048576	46	5852
2026-01-07 06:26:49.21	314.03	17.74	-34.0	-34.5	26.3	0.00e+00	0	34	101	1048576	46	5853
2026-01-07 06:26:50.08	314.18	17.68	-33.9	-34.4	26.4	0.00e+00	0	34	101	1048576	46	5773
2026-01-07 06:26:51.24	314.39	17.59	-33.7	-34.2	26.5	0.00e+00	0	34	101	1048576	46	5695
2026-01-07 06:26:52.10	314.54	17.52	-33.6	-34.0	26.7	0.00e+00	0	34	101	1048576	46	5564
2026-01-07 06:26:53.26	314.74	17.43	-33.5	-34.0	26.7	0.00e+00	0	34	101	1048576	46	5531
2026-01-07 06:26:54.12	314.89	17.37	-33.5	-34.0	26.7	0.00e+00	0	34	101	1048576	46	5523
2026-01-07 06:26:55.28	315.09	17.28	-33.4	-33.9	26.9	0.00e+00	0	34	101	1048576	46	5462
2026-01-07 06:26:56.14	315.24	17.21	-33.3	-33.8	26.8	0.00e+00	0	34	101	1048576	46	5417
2026-01-07 06:26:57.30	315.43	17.12	-33.4	-33.9	26.8	0.00e+00	0	34	101	1048576	46	5488
2026-01-07 06:26:58.17	315.58	17.06	-33.6	-34.1	26.7	0.00e+00	0	34	101	1048576	46	5578
2026-01-07 06:26:59.32	315.78	16.97	-33.5	-34.0	26.7	0.00e+00	0	34	101	1048576	46	5533
2026-01-07 06:27:00.19	315.92	16.90	-33.7	-34.2	26.6	0.00e+00	0	34	101	1048576	46	5634
2026-01-07 06:27:01.34	316.12	16.81	-33.8	-34.3	26.4	0.00e+00	0	34	101	1048576	46	5755
2026-01-07 06:27:02.21	316.26	16.75	-34.1	-34.6	26.1	0.00e+00	0	34	101	1048576	46	5898
2026-01-07 06:27:03.36	316.45	16.66	-34.2	-34.7	26.1	0.00e+00	0	34	101	1048576	46	5976
2026-01-07 06:27:04.23	316.59	16.59	-34.3	-34.8	25.9	0.00e+00	0	34	101	1048576	46	6103
2026-01-07 06:27:05.38	316.78	16.50	-34.5	-35.0	25.9	0.00e+00	0	34	101	1048576	46	6190
2026-01-07 06:27:06.25	316.92	16.44	-34.6	-35.1	25.8	0.00e+00	0	34	101	1048576	46	6286
2026-01-07 06:27:07.40	317.11	16.35	-34.6	-35.1	25.8	0.00e+00	0	34	101	1048576	46	6279
2026-01-07 06:27:08.27	317.25	16.28	-34.6	-35.1	25.7	0.00e+00	0	34	101	1048576	46	6292
2026-01-07 06:27:09.42	317.44	16.20	-34.4	-35.0	26.0	0.00e+00	0	34	101	1048576	46	6177
2026-01-07 06:27:10.29	317.57	16.13	-34.3	-34.8	25.9	0.00e+00	0	34	101	1048576	46	6095
2026-01-07 06:27:11.45	317.76	16.04	-34.3	-34.8	26.0	0.00e+00	0	34	101	1048576	46	6083
2026-01-07 06:27:12.31	317.90	15.97	-34.1	-34.6	26.2	0.00e+00	0	34	101	1048576	46	5935
2026-01-07 06:27:13.47	318.08	15.89	-34.2	-34.7	26.1	0.00e+00	0	34	101	1048576	46	5984
2026-01-07 06:27:14.33	318.21	15.82	-34.2	-34.7	26.1	0.00e+00	0	34	101	1048576	46	5972
2026-01-07 06:27:15.49	318.39	15.73	-33.9	-34.4	26.3	0.00e+00	0	34	101	1048576	46	5789
2026-01-07 06:27:16.36	318.53	15.67	-34.0	-34.5	26.2	0.00e+00	0	34	101	1048576	46	5834
2026-01-07 06:27:17.51	318.71	15.58	-33.7	-34.2	26.4	0.00e+00	0	34	101	1048576	46	5679
2026-01-07 06:27:18.38	318.84	15.51	-33.7	-34.2	26.5	0.00e+00	0	34	101	1048576	46	5680
2026-01-07 06:27:19.53	319.02	15.42	-33.8	-34.4	26.4	0.00e+00	0	34	101	1048576	46	5766
2026-01-07 06:27:20.40	319.15	15.36	-34.0	-34.5	26.4	0.00e+00	0	33	101	1048576	46	5839
2026-01-07 06:27:21.55	319.32	15.27	-34.0	-34.5	26.3	0.00e+00	0	34	101	1048576	46	5837
2026-01-07 06:27:22.42	319.45	15.20	-34.1	-34.6	26.1	0.00e+00	0	33	101	1048576	46	5912
2026-01-07 06:27:23.58	319.63	15.12	-34.2	-34.8	26.1	0.00e+00	0	34	101	1048576	46	6035
2026-01-07 06:27:24.44	319.76	15.05	-34.4	-34.9	25.9	0.00e+00	0	34	101	1048576	46	6126
2026-01-07 06:27:25.60	319.93	14.96	-34.7	-35.2	25.6	0.00e+00	0	34	101	1048576	46	6350
2026-01-07 06:27:26.46	320.05	14.90	-34.9	-35.4	25.6	0.00e+00	0	34	101	1048576	46	6496
2026-01-07 06:27:27.62	320.22	14.81	-34.8	-35.4	25.5	0.00e+00	0	34	101	1048576	46	6472
2026-01-07 06:27:28.49	320.35	14.75	-35.0	-35.6	25.4	0.00e+00	0	34	101	1048576	46	6625
2026-01-07 06:27:29.64	320.52	14.66	-35.0	-35.6	25.2	0.00e+00	0	34	101	1048576	48	5917
2026-01-07 06:27:30.51	320.65	14.59	-35.0	-35.6	25.2	0.00e+00	0	34	101	1048576	48	5915
2026-01-07 06:27:31.66	320.81	14.51	-35.3	-35.8	25.2	0.00e+00	0	34	101	1048576	48	6075
2026-01-07 06:27:32.53	320.94	14.44	-35.2	-35.8	25.1	0.00e+00	0	34	101	1048576	48	6042
2026-01-07 06:27:33.69	321.10	14.35	-35.1	-35.6	25.2	0.00e+00	0	34	101	1048576	48	5927
2026-01-07 06:27:34.55	321.22	14.29	-35.0	-35.5	25.3	0.00e+00	0	34	101	1048576	48	5880
2026-01-07 06:27:35.70	321.39	14.20	-34.9	-35.4	25.3	0.00e+00	0	34	101	1048576	48	5776
2026-01-07 06:27:36.57	321.51	14.14	-34.8	-35.3	25.4	0.00e+00	0	34	101	1048576	48	5735
2026-01-07 06:27:37.73	321.67	14.05	-34.6	-35.2	25.6	0.00e+00	0	34	101	1048576	48	5634
2026-01-07 06:27:38.59	321.79	13.99	-34.7	-35.2	25.5	0.00e+00	0	34	101	1048576	48	5651
2026-01-07 06:27:39.74	321.95	13.90	-34.6	-35.2	25.6	0.00e+00	0	34	101	1048576	48	5638
2026-01-07 06:27:40.61	322.07	13.84	-34.5	-35.0	25.8	0.00e+00	0	34	101	1048576	48	5522
2026-01-07 06:27:41.76	322.23	13.75	-34.5	-35.0	25.7	0.00e+00	0	34	101	1048576	48	5515
2026-01-07 06:27:42.63	322.34	13.68	-34.3	-34.9	25.7	0.00e+00	0	34	101	1048576	48	5440
2026-01-07 06:27:43.79	322.50	13.60	-34.3	-34.8	25.4	0.00e+00	0	34	101	1048576	48	5430
2026-01-07 06:27:44.65	322.62	13.53	-34.3	-34.8	25.5	0.00e+00	0	34	101	1048576	48	5434
2026-01-07 06:27:45.81	322.77	13.45	-34.5	-35.0	25.6	0.00e+00	0	34	101	1048576	48	5544
2026-01-07 06:27:46.68	322.89	13.38	-34.5	-35.1	25.6	0.00e+00	0	33	101	1048576	48	5568
2026-01-07 06:27:47.83	323.04	13.30	-34.7	-35.2	25.6	0.00e+00	0	34	101	1048576	48	5677
2026-01-07 06:27:48.70	323.16	13.23	-34.7	-35.2	25.3	0.00e+00	0	34	101	1048576	48	5692
2026-01-07 06:27:49.85	323.31	13.15	-34.9	-35.4	25.3	0.00e+00	0	34	101	1048576	48	5785
2026-01-07 06:27:50.72	323.42	13.09	-34.9	-35.4	25.0	0.00e+00	0	34	101	1048576	48	5805
2026-01-07 06:27:51.87	323.57	13.00	-34.9	-35.4	25.1	0.00e+00	0	33	101	1048576	48	5803
2026-01-07 06:27:52.74	323.69	12.94	-34.9	-35.4	24.4	0.00e+00	0	34	101	1048576	48	5820
2026-01-07 06:27:53.89	323.84	12.85	-35.0	-35.6	25.1	0.00e+00	0	34	101	1048576	48	5898
2026-01-07 06:27:54.76	323.95	12.79	-35.1	-35.6	24.8	0.00e+00	0	34	101	1048576	48	5962
2026-01-07 06:27:55.92	324.10	12.70	-35.1	-35.7	24.9	0.00e+00	0	34	101	1048576	48	5968
2026-01-07 06:27:56.78	324.21	12.64	-35.1	-35.7	24.9	0.00e+00	0	34	101	1048576	48	5966
2026-01-07 06:27:57.94	324.35	12.56	-35.1	-35.7	25.1	0.00e+00	0	34	101	1048576	48	5968
2026-01-07 06:27:58.80	324.46	12.49	-35.1	-35.6	25.1	0.00e+00	0	34	101	1048576	48	5962
2026-01-07 06:27:59.96	324.61	12.41	-35.2	-35.7	24.9	0.00e+00	0	34	101	1048576	48	6002
2026-01-07 06:28:00.82	324.72	12.35	-35.1	-35.7	25.0	0.00e+00	0	34	101	1048576	48	5979
2026-01-07 06:28:01.98	324.86	12.26	-35.2	-35.7	24.7	0.00e+00	0	34	101	1048576	48	6002
2026-01-07 06:28:02.85	324.97	12.20	-35.1	-35.6	25.1	0.00e+00	0	33	101	1048576	48	5949
2026-01-07 06:28:04.00	325.11	12.11	-35.1	-35.6	25.0	0.00e+00	0	34	101	1048576	48	5941
2026-01-07 06:28:04.87	325.22	12.05	-35.1	-35.7	25.1	0.00e+00	0	34	101	1048576	48	5987
2026-01-07 06:28:06.02	325.36	11.97	-35.1	-35.7	25.0	0.00e+00	0	34	101	1048576	48	5977
2026-01-07 06:28:06.89	325.46	11.91	-35.2	-35.7	25.0	0.00e+00	0	34	101	1048576	48	6009
2026-01-07 06:28:08.05	325.60	11.82	-35.2	-35.7	25.0	0.00e+00	0	34	101	1048576	48	6028
2026-01-07 06:28:08.91	325.71	11.76	-35.1	-35.6	25.1	0.00e+00	0	34	101	1048576	48	5942
2026-01-07 06:28:10.07	325.84	11.68	-35.1	-35.6	25.0	0.00e+00	0	34	101	1048576	48	5932
2026-01-07 06:28:10.93	325.95	11.62	-35.0	-35.6	25.1	0.00e+00	0	34	101	1048576	48	5916
2026-01-07 06:28:12.09	326.08	11.53	-35.1	-35.6	25.1	0.00e+00	0	34	101	1048576	48	5914
2026-01-07 06:28:12.95	326.19	11.47	-35.1	-35.7	25.0	0.00e+00	0	34	101	1048576	48	5967
2026-01-07 06:28:14.11	326.32	11.39	-35.2	-35.7	25.0	0.00e+00	0	34	101	1048576	48	6005
2026-01-07 06:28:14.97	326.42	11.33	-35.2	-35.7	25.0	0.00e+00	0	34	101	1048576	48	6011
2026-01-07 06:28:16.13	326.56	11.24	-35.1	-35.6	25.1	0.00e+00	0	34	101	1048576	48	5950
2026-01-07 06:28:17.00	326.66	11.18	-35.2	-35.7	25.1	0.00e+00	0	34	101	1048576	48	5985
2026-01-07 06:28:18.15	326.79	11.10	-35.2	-35.7	25.1	0.00e+00	0	34	101	1048576	48	6006
2026-01-07 06:28:19.02	326.89	11.04	-35.2	-35.7	25.1	0.00e+00	0	34	101	1048576	48	5990
2026-01-07 06:28:20.17	327.02	10.96	-35.1	-35.6	25.0	0.00e+00	0	34	101	1048576	48	5954
2026-01-07 06:28:21.04	327.12	10.90	-35.2	-35.7	24.9	0.00e+00	0	34	101	1048576	48	6017
2026-01-07 06:28:22.19	327.25	10.81	-35.2	-35.7	25.0	0.00e+00	0	34	101	1048576	48	6033
2026-01-07 06:28:23.06	327.35	10.75	-35.3	-35.9	24.9	0.00e+00	0	34	101	1048576	48	6120
2026-01-07 06:28:24.21	327.48	10.67	-35.3	-35.8	24.9	0.00e+00	0	34	101	1048576	48	6086
2026-01-07 06:28:25.08	327.58	10.61	-35.4	-35.9	24.9	0.00e+00	0	34	101	1048576	48	6139
2026-01-07 06:28:26.23	327.70	10.53	-35.4	-35.9	24.8	0.00e+00	0	34	101	1048576	48	6128
2026-01-07 06:28:27.10	327.80	10.47	-35.5	-36.1	24.5	0.00e+00	0	34	101	1048576	48	6275
