passes_logs/2026/01/07/R4.6S_Anadyr_2ch/R4.6S_Anadyr_2ch__20260107_132431_NOAA_21_JPSS-2_rec.log

#Pass ID: 20260107_132431_NOAA 21 (JPSS-2)
#Satellite: NOAA 21 (JPSS-2)
#Configuration: NOAA-21
#almurnet v.1.7.20251203
#Start time: 2026-01-07 13:24:32

#Version: 2.2.20231116
#Station: R4.6S_Anadyr_2ch
#Location: 177.4865 lon 64.73178 lat
#TLE: 1 54234U 22150A   25350.97269056  .00000057  00000+0  47676-4 0  9992
#TLE: 2 54234  98.7466 287.2282 0002043  29.8355 330.2937 14.19525482160692

#Time	Az	El	Level	Level2	SNR	BER	BlckErr	Temp	State	Recorded	gain1	gain2
2026-01-07 13:24:32.77	18.78	0.05	-51.9	-66.9	3.5	1.51e+00	0	32	0	0	60	108304
2026-01-07 13:24:33.78	18.83	0.10	-51.9	-65.0	3.5	1.52e+00	0	33	104	0	60	83851
2026-01-07 13:24:34.79	18.87	0.16	-51.9	-64.9	3.5	1.52e+00	0	33	104	0	60	83663
2026-01-07 13:24:35.80	18.91	0.22	-51.9	-64.9	3.5	1.52e+00	0	33	104	0	60	83664
2026-01-07 13:24:36.81	18.96	0.27	-51.9	-65.0	3.5	1.52e+00	0	34	104	0	60	83972
2026-01-07 13:24:37.82	19.00	0.33	-51.9	-64.9	3.5	1.52e+00	0	34	104	0	60	83595
2026-01-07 13:24:38.83	19.05	0.39	-51.9	-65.0	3.5	1.52e+00	0	34	104	0	60	84028
2026-01-07 13:24:39.84	19.09	0.45	-51.8	-64.9	3.5	1.51e+00	0	34	104	0	60	82880
2026-01-07 13:24:40.85	19.14	0.50	-51.8	-64.8	3.5	1.52e+00	0	34	104	0	60	82245
2026-01-07 13:24:41.87	19.18	0.56	-51.7	-64.8	3.5	1.52e+00	0	34	104	0	60	82175
2026-01-07 13:24:42.88	19.23	0.62	-51.7	-64.7	3.5	1.52e+00	0	34	104	0	60	81378
2026-01-07 13:24:43.89	19.27	0.68	-51.4	-64.4	3.5	1.52e+00	0	34	104	0	60	79011
2026-01-07 13:24:44.90	19.32	0.73	-51.3	-64.3	3.5	1.52e+00	0	34	104	0	60	77529
2026-01-07 13:24:45.91	19.36	0.79	-51.1	-64.1	3.5	1.52e+00	0	34	104	0	60	75780
2026-01-07 13:24:46.92	19.41	0.85	-50.8	-63.8	3.5	1.52e+00	0	34	104	0	60	73510
2026-01-07 13:24:47.93	19.45	0.91	-50.4	-63.4	3.5	1.52e+00	0	34	104	0	60	70022
2026-01-07 13:24:48.94	19.50	0.97	-50.4	-63.4	3.5	1.52e+00	0	34	104	0	60	69738
2026-01-07 13:24:49.95	19.54	1.03	-50.4	-63.4	3.5	1.52e+00	0	34	104	0	60	69769
2026-01-07 13:24:50.96	19.59	1.08	-50.4	-63.4	3.5	1.52e+00	0	34	104	0	60	69953
2026-01-07 13:24:51.97	19.64	1.14	-50.4	-63.4	3.5	1.52e+00	0	34	104	0	60	69836
2026-01-07 13:24:52.99	19.68	1.20	-50.4	-63.4	3.5	1.52e+00	0	34	104	0	60	69688
2026-01-07 13:24:54.00	19.73	1.26	-50.4	-63.3	3.5	1.52e+00	0	34	104	0	60	69473
2026-01-07 13:24:55.01	19.78	1.32	-50.4	-63.3	3.5	1.52e+00	0	34	104	0	60	69151
2026-01-07 13:24:56.02	19.82	1.38	-50.4	-63.2	3.5	1.52e+00	0	34	104	0	60	68162
2026-01-07 13:24:57.03	19.87	1.44	-50.4	-63.1	3.5	1.52e+00	0	34	104	0	60	68003
2026-01-07 13:24:58.04	19.92	1.50	-50.4	-63.2	3.5	1.52e+00	0	34	104	0	60	68474
2026-01-07 13:24:59.05	19.97	1.56	-50.4	-63.2	3.5	1.52e+00	0	34	104	0	60	68535
2026-01-07 13:25:00.06	20.01	1.62	-50.4	-63.2	3.5	1.52e+00	0	34	104	0	60	68819
2026-01-07 13:25:01.07	20.06	1.67	-50.4	-63.3	3.5	1.52e+00	0	34	104	0	60	69276
2026-01-07 13:25:02.08	20.11	1.73	-50.4	-63.3	3.5	1.52e+00	0	34	104	0	60	69610
2026-01-07 13:25:03.10	20.16	1.79	-50.4	-63.4	3.5	1.52e+00	0	34	104	0	60	69717
2026-01-07 13:25:04.11	20.21	1.85	-50.4	-63.3	3.5	1.52e+00	0	34	104	0	60	69551
2026-01-07 13:25:05.12	20.26	1.91	-50.4	-63.4	3.5	1.52e+00	0	34	104	0	60	69849
2026-01-07 13:25:06.13	20.30	1.97	-50.4	-63.3	3.5	1.52e+00	0	34	104	0	60	69482
2026-01-07 13:25:07.14	20.35	2.03	-50.4	-63.1	3.5	1.52e+00	0	34	104	0	60	67767
2026-01-07 13:25:08.15	20.40	2.09	-50.3	-62.6	3.5	1.52e+00	0	34	104	0	60	64078
2026-01-07 13:25:09.16	20.45	2.16	-50.3	-62.2	3.5	1.51e+00	0	34	104	0	60	60767
2026-01-07 13:25:10.17	20.50	2.22	-50.3	-62.1	3.5	1.51e+00	0	34	104	0	60	60235
2026-01-07 13:25:11.19	20.55	2.28	-50.3	-62.4	3.5	1.52e+00	0	34	104	0	60	62331
2026-01-07 13:25:12.20	20.60	2.34	-50.4	-63.1	3.5	1.51e+00	0	34	104	0	60	67930
2026-01-07 13:25:13.21	20.65	2.40	-50.3	-63.0	3.5	1.52e+00	0	34	104	0	60	67134
2026-01-07 13:25:14.22	20.70	2.46	-50.0	-59.9	4.3	1.50e+00	0	34	104	0	60	46627
2026-01-07 13:25:15.23	20.75	2.52	-49.2	-54.7	7.2	2.22e-01	0	34	0	0	60	25821
2026-01-07 13:25:16.24	20.80	2.58	-47.8	-51.4	11.1	6.33e-03	0	34	102	1048576	60	17497
2026-01-07 13:25:17.25	20.85	2.64	-46.1	-48.5	14.2	6.10e-06	0	34	102	1048576	60	12625
2026-01-07 13:25:18.26	20.90	2.70	-44.7	-46.6	16.2	0.00e+00	0	34	102	1048576	60	10168
2026-01-07 13:25:19.27	20.95	2.77	-43.5	-45.2	17.6	0.00e+00	0	34	102	1048576	60	8583
2026-01-07 13:25:20.28	21.01	2.83	-42.5	-44.0	18.6	0.00e+00	0	34	102	1048576	60	7472
2026-01-07 13:25:21.29	21.06	2.89	-41.9	-43.2	19.4	0.00e+00	0	34	102	1048576	60	6820
2026-01-07 13:25:22.30	21.11	2.95	-41.7	-43.0	19.6	0.00e+00	0	34	102	1048576	60	6662
2026-01-07 13:25:23.32	21.16	3.01	-41.9	-43.2	19.3	0.00e+00	0	34	102	1048576	60	6854
2026-01-07 13:25:24.33	21.21	3.08	-42.3	-43.7	18.9	0.00e+00	0	34	102	1048576	60	7236
2026-01-07 13:25:25.34	21.27	3.14	-43.0	-44.5	18.0	0.00e+00	0	34	102	1048576	60	7972
2026-01-07 13:25:26.35	21.32	3.20	-44.3	-46.1	16.4	0.00e+00	0	34	102	1048576	60	9567
2026-01-07 13:25:27.36	21.37	3.26	-45.9	-48.2	14.2	7.00e-07	0	34	102	1048576	60	12238
2026-01-07 13:25:28.37	21.42	3.33	-47.5	-50.9	11.2	3.21e-04	0	34	102	1048576	60	16700
2026-01-07 13:25:29.38	21.48	3.39	-47.8	-51.4	11.6	1.17e-02	0	34	102	1048576	60	17627
2026-01-07 13:25:30.40	21.53	3.45	-47.3	-50.6	11.6	0.00e+00	0	34	102	1048576	60	16100
2026-01-07 13:25:31.41	21.58	3.52	-49.2	-55.6	4.3	1.50e+00	0	34	104	1048576	60	28604
2026-01-07 13:25:32.42	21.64	3.58	-49.1	-55.0	11.1	1.31e+00	0	34	104	1048576	60	26632
2026-01-07 13:25:33.43	21.69	3.64	-44.1	-45.9	14.0	0.00e+00	0	35	0	1048576	60	9292
2026-01-07 13:25:34.44	21.75	3.71	-50.1	-60.0	7.3	1.50e+00	3	34	104	1048576	60	47546
2026-01-07 13:25:35.45	21.80	3.77	-42.8	-44.2	18.6	0.00e+00	0	34	0	1048576	60	7690
2026-01-07 13:25:36.46	21.86	3.83	-41.7	-43.0	19.6	0.00e+00	0	34	0	1048576	60	6699
2026-01-07 13:25:37.47	21.91	3.90	-41.7	-43.0	19.7	0.00e+00	0	34	0	1048576	60	6651
2026-01-07 13:25:38.48	21.97	3.96	-41.4	-42.7	20.0	0.00e+00	0	35	0	1048576	60	6452
2026-01-07 13:25:39.49	22.02	4.02	-41.4	-42.7	20.0	0.00e+00	0	34	0	1048576	60	6435
2026-01-07 13:25:40.51	22.08	4.09	-41.3	-42.5	20.1	0.00e+00	0	34	0	1048576	60	6332
2026-01-07 13:25:41.52	22.13	4.15	-41.1	-42.3	20.4	0.00e+00	0	34	0	1048576	60	6141
2026-01-07 13:25:42.53	22.19	4.22	-41.0	-42.2	20.4	0.00e+00	0	34	0	1048576	60	6099
2026-01-07 13:25:43.54	22.24	4.28	-41.2	-42.4	20.3	0.00e+00	0	34	0	1048576	60	6228
2026-01-07 13:25:44.55	22.30	4.35	-41.0	-42.2	20.6	0.00e+00	0	35	0	1048576	60	6101
2026-01-07 13:25:45.56	22.36	4.41	-40.9	-42.1	20.6	0.00e+00	0	35	101	1048576	60	6016
2026-01-07 13:25:46.57	22.41	4.48	-40.8	-41.9	20.8	0.00e+00	0	34	101	1048576	60	5910
2026-01-07 13:25:47.58	22.47	4.54	-40.7	-41.9	20.9	0.00e+00	0	34	101	1048576	60	5877
2026-01-07 13:25:48.59	22.53	4.61	-40.8	-41.9	20.8	0.00e+00	0	35	101	1048576	60	5915
2026-01-07 13:25:49.60	22.59	4.67	-40.7	-41.9	21.0	0.00e+00	0	34	101	1048576	60	5865
2026-01-07 13:25:50.61	22.64	4.74	-40.8	-41.9	20.9	0.00e+00	0	35	101	1048576	60	5913
2026-01-07 13:25:51.62	22.70	4.80	-40.7	-41.8	20.9	0.00e+00	0	35	101	1048576	60	5835
2026-01-07 13:25:52.64	22.76	4.87	-40.8	-41.9	21.0	0.00e+00	0	35	101	1048576	60	5910
2026-01-07 13:25:53.65	22.82	4.94	-40.6	-41.8	21.1	0.00e+00	0	35	101	1048576	60	5821
2026-01-07 13:25:54.66	22.88	5.00	-40.7	-41.8	21.0	0.00e+00	0	35	101	1048576	60	5817
2026-01-07 13:25:55.67	22.94	5.07	-40.6	-41.8	20.9	0.00e+00	0	35	101	1048576	60	5815
2026-01-07 13:25:56.68	23.00	5.14	-40.6	-41.7	21.0	0.00e+00	0	34	101	1048576	60	5788
2026-01-07 13:25:57.69	23.06	5.20	-40.4	-41.6	21.2	0.00e+00	0	35	101	1048576	60	5671
2026-01-07 13:25:58.70	23.12	5.27	-40.4	-41.5	21.3	0.00e+00	0	35	101	1048576	60	5612
2026-01-07 13:25:59.71	23.17	5.34	-40.4	-41.5	21.2	0.00e+00	0	35	101	1048576	60	5655
2026-01-07 13:26:00.72	23.24	5.40	-40.6	-41.7	21.1	0.00e+00	0	35	101	1048576	60	5747
2026-01-07 13:26:01.73	23.30	5.47	-40.8	-41.9	21.0	0.00e+00	0	35	101	1048576	60	5902
2026-01-07 13:26:02.74	23.36	5.54	-40.4	-41.5	21.3	0.00e+00	0	35	101	1048576	60	5624
2026-01-07 13:26:03.75	23.42	5.60	-40.5	-41.6	21.3	0.00e+00	0	35	101	1048576	60	5680
2026-01-07 13:26:04.77	23.48	5.67	-40.3	-41.5	21.4	0.00e+00	0	35	101	1048576	60	5603
2026-01-07 13:26:05.78	23.54	5.74	-40.2	-41.3	21.5	0.00e+00	0	35	101	1048576	60	5469
2026-01-07 13:26:06.79	23.60	5.81	-40.1	-41.1	21.6	0.00e+00	0	35	101	1048576	58	6052
2026-01-07 13:26:07.80	23.66	5.88	-40.2	-41.3	21.5	0.00e+00	0	34	101	1048576	58	6152
2026-01-07 13:26:08.81	23.73	5.94	-40.1	-41.2	21.6	0.00e+00	0	35	101	1048576	58	6083
2026-01-07 13:26:09.82	23.79	6.01	-40.1	-41.2	21.6	0.00e+00	0	35	101	1048576	58	6084
2026-01-07 13:26:10.83	23.85	6.08	-40.1	-41.2	21.6	0.00e+00	0	35	101	1048576	58	6105
2026-01-07 13:26:11.85	23.92	6.15	-40.2	-41.3	21.5	0.00e+00	0	35	101	1048576	58	6169
2026-01-07 13:26:12.86	23.98	6.22	-40.5	-41.6	21.2	0.00e+00	0	35	101	1048576	58	6394
2026-01-07 13:26:13.87	24.04	6.29	-40.3	-41.4	21.4	0.00e+00	0	35	101	1048576	58	6217
2026-01-07 13:26:14.88	24.11	6.36	-40.1	-41.2	21.6	0.00e+00	0	35	101	1048576	58	6065
2026-01-07 13:26:15.89	24.17	6.43	-40.2	-41.3	21.6	0.00e+00	0	35	101	1048576	58	6172
2026-01-07 13:26:16.90	24.24	6.50	-40.0	-41.1	21.8	0.00e+00	0	35	101	1048576	58	6003
2026-01-07 13:26:17.91	24.30	6.57	-40.1	-41.1	21.7	0.00e+00	0	35	101	1048576	58	6064
2026-01-07 13:26:18.92	24.37	6.64	-40.0	-41.1	21.8	0.00e+00	0	35	101	1048576	58	5996
2026-01-07 13:26:19.93	24.43	6.70	-40.0	-41.1	21.8	0.00e+00	0	35	101	1048576	58	6051
2026-01-07 13:26:20.94	24.50	6.78	-40.1	-41.1	21.7	0.00e+00	0	35	101	1048576	58	6064
2026-01-07 13:26:21.95	24.56	6.85	-40.0	-41.0	21.8	0.00e+00	0	35	101	1048576	58	5994
2026-01-07 13:26:22.96	24.63	6.92	-40.1	-41.2	21.7	0.00e+00	0	35	101	1048576	58	6066
2026-01-07 13:26:23.97	24.70	6.99	-39.9	-41.0	21.8	0.00e+00	0	35	101	1048576	58	5964
2026-01-07 13:26:24.98	24.76	7.06	-40.0	-41.0	21.8	0.00e+00	0	35	101	1048576	58	5977
2026-01-07 13:26:26.00	24.83	7.13	-40.0	-41.1	21.9	0.00e+00	0	35	101	1048576	58	6003
2026-01-07 13:26:27.01	24.90	7.20	-40.0	-41.1	21.8	0.00e+00	0	35	101	1048576	58	6009
2026-01-07 13:26:28.02	24.97	7.27	-40.0	-41.1	21.8	0.00e+00	0	35	101	1048576	58	6014
2026-01-07 13:26:29.03	25.03	7.34	-40.0	-41.1	21.8	0.00e+00	0	35	101	1048576	58	6037
2026-01-07 13:26:30.04	25.10	7.41	-39.9	-40.9	22.0	0.00e+00	0	35	101	1048576	58	5908
2026-01-07 13:26:31.05	25.17	7.49	-39.7	-40.8	22.1	0.00e+00	0	35	101	1048576	58	5819
2026-01-07 13:26:32.06	25.24	7.56	-39.8	-40.8	22.1	0.00e+00	0	35	101	1048576	58	5829
2026-01-07 13:26:33.08	25.31	7.63	-39.7	-40.8	22.1	0.00e+00	0	35	101	1048576	58	5792
2026-01-07 13:26:34.08	25.38	7.70	-39.8	-40.8	22.1	0.00e+00	0	35	101	1048576	58	5830
2026-01-07 13:26:35.09	25.45	7.77	-39.7	-40.8	22.1	0.00e+00	0	35	101	1048576	58	5815
2026-01-07 13:26:36.10	25.52	7.85	-39.8	-40.8	22.1	0.00e+00	0	35	101	1048576	58	5838
2026-01-07 13:26:37.11	25.59	7.92	-39.8	-40.9	22.1	0.00e+00	0	35	101	1048576	58	5884
2026-01-07 13:26:38.12	25.66	7.99	-39.6	-40.7	22.3	0.00e+00	0	35	101	1048576	58	5733
2026-01-07 13:26:39.13	25.73	8.07	-39.6	-40.7	22.2	0.00e+00	0	35	101	1048576	58	5731
2026-01-07 13:26:40.15	25.80	8.14	-39.5	-40.6	22.3	0.00e+00	0	35	101	1048576	58	5674
2026-01-07 13:26:41.16	25.88	8.21	-39.7	-40.7	22.2	0.00e+00	0	35	101	1048576	58	5762
2026-01-07 13:26:42.17	25.95	8.29	-39.7	-40.7	22.2	0.00e+00	0	35	101	1048576	58	5768
2026-01-07 13:26:43.18	26.02	8.36	-39.6	-40.6	22.3	0.00e+00	0	35	101	1048576	58	5697
2026-01-07 13:26:44.19	26.09	8.43	-39.5	-40.6	22.3	0.00e+00	0	35	101	1048576	58	5663
2026-01-07 13:26:45.20	26.17	8.51	-39.5	-40.6	22.3	0.00e+00	0	35	101	1048576	58	5675
2026-01-07 13:26:46.21	26.24	8.58	-39.5	-40.5	22.3	0.00e+00	0	35	101	1048576	58	5631
2026-01-07 13:26:47.22	26.31	8.66	-39.6	-40.6	22.3	0.00e+00	0	35	101	1048576	58	5711
2026-01-07 13:26:48.24	26.39	8.73	-39.6	-40.7	22.3	0.00e+00	0	35	101	1048576	58	5726
2026-01-07 13:26:49.25	26.46	8.81	-39.6	-40.7	22.3	0.00e+00	0	35	101	1048576	58	5742
2026-01-07 13:26:50.26	26.54	8.88	-39.4	-40.5	22.4	0.00e+00	0	35	101	1048576	58	5608
2026-01-07 13:26:51.27	26.61	8.96	-39.5	-40.5	22.4	0.00e+00	0	35	101	1048576	58	5657
2026-01-07 13:26:52.28	26.69	9.03	-39.4	-40.4	22.5	0.00e+00	0	35	101	1048576	58	5551
2026-01-07 13:26:53.29	26.77	9.11	-39.4	-40.4	22.5	0.00e+00	0	35	101	1048576	58	5553
2026-01-07 13:26:54.30	26.84	9.19	-39.3	-40.3	22.6	0.00e+00	0	35	101	1048576	58	5500
2026-01-07 13:26:55.31	26.92	9.26	-39.2	-40.3	22.7	0.00e+00	0	35	101	1048576	58	5477
2026-01-07 13:26:56.32	27.00	9.34	-39.3	-40.3	22.6	0.00e+00	0	35	101	1048576	58	5507
2026-01-07 13:26:57.34	27.08	9.41	-39.3	-40.3	22.6	0.00e+00	0	35	101	1048576	58	5507
2026-01-07 13:26:58.35	27.15	9.49	-39.3	-40.3	22.7	0.00e+00	0	35	101	1048576	58	5498
2026-01-07 13:26:59.36	27.23	9.57	-39.3	-40.3	22.6	0.00e+00	0	35	101	1048576	56	6153
2026-01-07 13:27:00.37	27.31	9.64	-39.2	-40.2	22.7	0.00e+00	0	35	101	1048576	56	6126
2026-01-07 13:27:01.38	27.39	9.72	-39.3	-40.3	22.7	0.00e+00	0	35	101	1048576	56	6148
2026-01-07 13:27:02.39	27.47	9.80	-39.3	-40.3	22.7	0.00e+00	0	35	101	1048576	56	6156
2026-01-07 13:27:03.40	27.55	9.88	-39.2	-40.2	22.7	0.00e+00	0	35	101	1048576	56	6095
2026-01-07 13:27:04.41	27.63	9.95	-39.3	-40.3	22.6	0.00e+00	0	35	101	1048576	56	6138
2026-01-07 13:27:05.42	27.71	10.03	-39.1	-40.1	22.9	0.00e+00	0	35	101	1048576	56	6047
2026-01-07 13:27:06.43	27.79	10.11	-38.9	-39.9	23.0	0.00e+00	0	35	101	1048576	56	5901
2026-01-07 13:27:07.44	27.87	10.19	-38.9	-39.9	23.0	0.00e+00	0	35	101	1048576	56	5907
2026-01-07 13:27:08.45	27.96	10.27	-38.9	-39.9	23.0	0.00e+00	0	35	101	1048576	56	5909
2026-01-07 13:27:09.47	28.04	10.35	-39.0	-39.9	23.0	0.00e+00	0	35	101	1048576	56	5926
2026-01-07 13:27:10.48	28.12	10.43	-38.9	-39.9	23.0	0.00e+00	0	35	101	1048576	56	5898
2026-01-07 13:27:11.49	28.21	10.51	-38.9	-39.9	23.0	0.00e+00	0	35	101	1048576	56	5899
2026-01-07 13:27:12.50	28.29	10.59	-38.9	-39.9	23.0	0.00e+00	0	35	101	1048576	56	5911
2026-01-07 13:27:13.51	28.37	10.66	-38.9	-39.9	23.0	0.00e+00	0	35	101	1048576	56	5900
2026-01-07 13:27:14.52	28.46	10.74	-38.9	-39.9	23.0	0.00e+00	0	35	101	1048576	56	5883
2026-01-07 13:27:15.53	28.54	10.82	-38.9	-39.9	23.1	0.00e+00	0	35	101	1048576	56	5862
2026-01-07 13:27:16.54	28.63	10.90	-39.0	-40.0	23.1	0.00e+00	0	35	101	1048576	56	5940
2026-01-07 13:27:17.55	28.71	10.99	-38.7	-39.7	23.2	0.00e+00	0	35	101	1048576	56	5757
2026-01-07 13:27:18.56	28.80	11.07	-38.8	-39.7	23.2	0.00e+00	0	35	101	1048576	56	5776
2026-01-07 13:27:19.57	28.89	11.15	-38.8	-39.8	23.2	0.00e+00	0	35	101	1048576	56	5794
2026-01-07 13:27:20.58	28.98	11.23	-38.6	-39.6	23.4	0.00e+00	0	35	101	1048576	56	5673
2026-01-07 13:27:21.60	29.06	11.31	-38.7	-39.6	23.3	0.00e+00	0	35	101	1048576	56	5717
2026-01-07 13:27:22.61	29.15	11.39	-38.5	-39.5	23.4	0.00e+00	0	35	101	1048576	56	5600
2026-01-07 13:27:23.62	29.24	11.47	-38.6	-39.6	23.4	0.00e+00	0	35	101	1048576	56	5667
2026-01-07 13:27:24.63	29.33	11.56	-38.6	-39.6	23.4	0.00e+00	0	35	101	1048576	56	5665
2026-01-07 13:27:25.64	29.42	11.64	-38.6	-39.6	23.4	0.00e+00	0	35	101	1048576	56	5676
2026-01-07 13:27:26.65	29.51	11.72	-38.5	-39.5	23.5	0.00e+00	0	35	101	1048576	56	5621
2026-01-07 13:27:27.66	29.60	11.80	-38.6	-39.6	23.4	0.00e+00	0	35	101	1048576	56	5662
2026-01-07 13:27:28.67	29.69	11.89	-38.5	-39.4	23.5	0.00e+00	0	35	101	1048576	56	5585
2026-01-07 13:27:29.68	29.78	11.97	-38.6	-39.5	23.4	0.00e+00	0	35	101	1048576	56	5658
2026-01-07 13:27:30.70	29.88	12.05	-38.5	-39.5	23.5	0.00e+00	0	35	101	1048576	56	5638
2026-01-07 13:27:31.71	29.97	12.14	-38.5	-39.5	23.5	0.00e+00	0	35	101	1048576	56	5609
2026-01-07 13:27:32.72	30.06	12.22	-38.6	-39.6	23.4	0.00e+00	0	35	101	1048576	56	5676
2026-01-07 13:27:33.73	30.15	12.30	-38.5	-39.4	23.5	0.00e+00	0	35	101	1048576	56	5589
2026-01-07 13:27:34.74	30.25	12.39	-38.4	-39.3	23.6	0.00e+00	0	35	101	1048576	56	5528
2026-01-07 13:27:35.75	30.34	12.47	-38.4	-39.3	23.6	0.00e+00	0	35	101	1048576	56	5519
2026-01-07 13:27:36.76	30.44	12.56	-38.3	-39.2	23.7	0.00e+00	0	35	101	1048576	56	5437
2026-01-07 13:27:37.77	30.53	12.64	-38.5	-39.4	23.5	0.00e+00	0	35	101	1048576	56	5571
2026-01-07 13:27:38.78	30.63	12.73	-38.3	-39.2	23.7	0.00e+00	0	35	101	1048576	56	5445
2026-01-07 13:27:39.79	30.73	12.81	-38.4	-39.4	23.5	0.00e+00	0	35	101	1048576	56	5549
2026-01-07 13:27:40.81	30.82	12.90	-38.4	-39.4	23.5	0.00e+00	0	35	101	1048576	56	5546
2026-01-07 13:27:41.82	30.92	12.98	-38.3	-39.2	23.7	0.00e+00	0	35	101	1048576	56	5442
2026-01-07 13:27:42.83	31.02	13.07	-38.3	-39.2	23.7	0.00e+00	0	35	101	1048576	56	5439
2026-01-07 13:27:43.84	31.12	13.16	-38.2	-39.2	23.7	0.00e+00	0	35	101	1048576	56	5413
2026-01-07 13:27:44.85	31.22	13.24	-38.3	-39.2	23.7	0.00e+00	0	35	101	1048576	56	5434
2026-01-07 13:27:45.86	31.32	13.33	-38.2	-39.1	23.7	0.00e+00	0	35	101	1048576	56	5385
2026-01-07 13:27:46.87	31.42	13.42	-38.1	-39.1	23.7	0.00e+00	0	35	101	1048576	54	6013
2026-01-07 13:27:47.88	31.52	13.50	-38.2	-39.2	23.7	0.00e+00	0	35	101	1048576	54	6070
2026-01-07 13:27:48.89	31.62	13.59	-38.1	-39.0	23.8	0.00e+00	0	35	101	1048576	54	5987
2026-01-07 13:27:49.90	31.72	13.68	-38.1	-39.0	23.8	0.00e+00	0	35	101	1048576	54	5987
2026-01-07 13:27:50.91	31.83	13.77	-38.1	-39.1	23.8	0.00e+00	0	35	101	1048576	54	5999
2026-01-07 13:27:51.93	31.93	13.85	-38.3	-39.2	23.6	0.00e+00	0	35	101	1048576	54	6125
2026-01-07 13:27:52.94	32.03	13.94	-38.1	-39.0	23.8	0.00e+00	0	35	101	1048576	54	5962
2026-01-07 13:27:53.95	32.14	14.03	-38.2	-39.1	23.7	0.00e+00	0	35	101	1048576	54	6046
2026-01-07 13:27:54.96	32.24	14.12	-38.1	-39.0	23.8	0.00e+00	0	35	101	1048576	54	5983
2026-01-07 13:27:55.97	32.35	14.21	-38.2	-39.1	23.7	0.00e+00	0	35	101	1048576	54	6032
2026-01-07 13:27:56.98	32.46	14.30	-38.1	-39.0	23.8	0.00e+00	0	35	101	1048576	54	5990
2026-01-07 13:27:57.99	32.56	14.39	-38.2	-39.1	23.8	0.00e+00	0	35	101	1048576	54	6024
2026-01-07 13:27:59.00	32.67	14.48	-38.3	-39.2	23.7	0.00e+00	0	35	101	1048576	54	6122
2026-01-07 13:28:00.01	32.78	14.57	-38.2	-39.1	23.8	0.00e+00	0	35	101	1048576	54	6015
2026-01-07 13:28:01.02	32.89	14.66	-38.0	-39.0	23.8	0.00e+00	0	35	101	1048576	54	5940
2026-01-07 13:28:02.04	33.00	14.75	-38.1	-39.0	23.7	0.00e+00	0	35	101	1048576	54	5990
2026-01-07 13:28:03.05	33.11	14.84	-38.0	-38.9	23.9	0.00e+00	0	35	101	1048576	54	5894
2026-01-07 13:28:04.06	33.22	14.93	-38.0	-38.9	23.9	0.00e+00	0	35	101	1048576	54	5925
2026-01-07 13:28:05.07	33.33	15.02	-38.1	-39.0	23.9	0.00e+00	0	35	101	1048576	54	5979
2026-01-07 13:28:06.08	33.44	15.11	-38.1	-39.0	23.8	0.00e+00	0	35	101	1048576	54	5977
2026-01-07 13:28:07.09	33.56	15.21	-38.2	-39.1	23.8	0.00e+00	0	35	101	1048576	54	6052
2026-01-07 13:28:08.10	33.67	15.30	-38.3	-39.2	23.7	0.00e+00	0	35	101	1048576	54	6129
2026-01-07 13:28:09.11	33.78	15.39	-38.2	-39.1	23.8	0.00e+00	0	35	101	1048576	54	6053
2026-01-07 13:28:10.12	33.90	15.48	-38.3	-39.3	23.8	0.00e+00	0	35	101	1048576	54	6143
2026-01-07 13:28:11.14	34.01	15.58	-38.2	-39.2	23.8	0.00e+00	0	35	101	1048576	54	6075
2026-01-07 13:28:12.15	34.13	15.67	-38.3	-39.2	23.8	0.00e+00	0	35	101	1048576	54	6114
2026-01-07 13:28:13.16	34.25	15.76	-38.3	-39.3	23.7	0.00e+00	0	35	101	1048576	54	6155
2026-01-07 13:28:14.17	34.36	15.86	-38.4	-39.3	23.7	0.00e+00	0	35	101	1048576	54	6170
2026-01-07 13:28:15.18	34.48	15.95	-38.4	-39.3	23.6	0.00e+00	0	35	101	1048576	54	6194
2026-01-07 13:28:16.19	34.60	16.04	-38.3	-39.2	23.8	0.00e+00	0	35	101	1048576	54	6117
2026-01-07 13:28:17.20	34.72	16.14	-38.2	-39.1	23.9	0.00e+00	0	35	101	1048576	54	6035
2026-01-07 13:28:18.21	34.84	16.23	-38.2	-39.1	23.8	0.00e+00	0	35	101	1048576	54	6028
2026-01-07 13:28:19.22	34.96	16.33	-38.3	-39.2	23.8	0.00e+00	0	35	101	1048576	54	6101
2026-01-07 13:28:20.23	35.08	16.42	-38.1	-39.1	23.9	0.00e+00	0	35	101	1048576	54	6010
2026-01-07 13:28:21.24	35.21	16.52	-38.3	-39.2	23.8	0.00e+00	0	35	101	1048576	54	6110
2026-01-07 13:28:22.26	35.33	16.61	-38.2	-39.2	23.8	0.00e+00	0	35	101	1048576	54	6097
2026-01-07 13:28:23.27	35.45	16.71	-38.3	-39.2	23.8	0.00e+00	0	35	101	1048576	54	6122
2026-01-07 13:28:24.28	35.58	16.81	-38.2	-39.2	23.8	0.00e+00	0	35	101	1048576	54	6093
2026-01-07 13:28:25.29	35.70	16.90	-38.3	-39.2	23.8	0.00e+00	0	35	101	1048576	54	6096
2026-01-07 13:28:26.30	35.83	17.00	-38.2	-39.2	23.8	0.00e+00	0	35	101	1048576	54	6072
2026-01-07 13:28:27.31	35.96	17.09	-38.2	-39.1	23.9	0.00e+00	0	35	101	1048576	54	6046
2026-01-07 13:28:28.32	36.09	17.19	-38.0	-38.9	24.0	0.00e+00	0	35	101	1048576	54	5921
2026-01-07 13:28:29.33	36.22	17.29	-38.1	-39.0	23.9	0.00e+00	0	35	101	1048576	54	5988
2026-01-07 13:28:30.34	36.34	17.39	-38.1	-39.0	24.0	0.00e+00	0	35	101	1048576	54	5961
2026-01-07 13:28:31.35	36.47	17.48	-38.2	-39.2	23.8	0.00e+00	0	35	101	1048576	54	6081
2026-01-07 13:28:32.36	36.61	17.58	-38.1	-39.0	23.9	0.00e+00	0	35	101	1048576	54	5987
2026-01-07 13:28:33.38	36.74	17.68	-38.0	-38.9	23.9	0.00e+00	0	35	101	1048576	54	5925
2026-01-07 13:28:34.38	36.87	17.78	-38.0	-38.9	24.0	0.00e+00	0	35	101	1048576	54	5900
2026-01-07 13:28:35.40	37.01	17.88	-37.9	-38.8	24.0	0.00e+00	0	35	101	1048576	54	5850
2026-01-07 13:28:36.41	37.14	17.98	-37.9	-38.8	24.1	0.00e+00	0	35	101	1048576	54	5820
2026-01-07 13:28:37.42	37.28	18.08	-37.8	-38.7	24.2	0.00e+00	0	35	101	1048576	54	5757
2026-01-07 13:28:38.43	37.41	18.18	-37.8	-38.8	24.1	0.00e+00	0	35	101	1048576	54	5798
2026-01-07 13:28:39.44	37.55	18.28	-38.0	-38.9	24.1	0.00e+00	0	35	101	1048576	54	5884
2026-01-07 13:28:40.45	37.69	18.38	-37.9	-38.9	24.0	0.00e+00	0	35	101	1048576	54	5873
2026-01-07 13:28:41.46	37.83	18.48	-37.9	-38.8	24.0	0.00e+00	0	35	101	1048576	54	5825
2026-01-07 13:28:42.47	37.96	18.58	-37.9	-38.8	24.1	0.00e+00	0	35	101	1048576	54	5823
2026-01-07 13:28:43.48	38.11	18.68	-37.9	-38.8	24.2	0.00e+00	0	35	101	1048576	54	5819
2026-01-07 13:28:44.49	38.25	18.78	-37.9	-38.8	24.1	0.00e+00	0	35	101	1048576	54	5830
2026-01-07 13:28:45.51	38.39	18.88	-37.8	-38.7	24.2	0.00e+00	0	35	101	1048576	54	5790
2026-01-07 13:28:46.51	38.53	18.98	-37.9	-38.8	24.1	0.00e+00	0	35	101	1048576	54	5827
2026-01-07 13:28:47.53	38.68	19.08	-37.7	-38.7	24.2	0.00e+00	0	35	101	1048576	54	5726
2026-01-07 13:28:48.53	38.82	19.19	-37.7	-38.6	24.3	0.00e+00	0	35	101	1048576	54	5705
2026-01-07 13:28:49.55	38.97	19.29	-37.8	-38.7	24.2	0.00e+00	0	35	101	1048576	54	5771
2026-01-07 13:28:50.56	39.12	19.39	-37.8	-38.7	24.2	0.00e+00	0	35	101	1048576	54	5739
2026-01-07 13:28:51.57	39.26	19.49	-37.9	-38.8	24.1	0.00e+00	0	35	101	1048576	54	5857
2026-01-07 13:28:52.58	39.41	19.60	-37.6	-38.5	24.3	0.00e+00	0	35	101	1048576	54	5630
2026-01-07 13:28:53.59	39.56	19.70	-37.6	-38.6	24.3	0.00e+00	0	35	101	1048576	54	5669
2026-01-07 13:28:54.60	39.71	19.80	-37.6	-38.5	24.3	0.00e+00	0	35	101	1048576	54	5631
2026-01-07 13:28:55.61	39.87	19.91	-37.6	-38.6	24.4	0.00e+00	0	35	101	1048576	54	5662
2026-01-07 13:28:56.62	40.02	20.01	-37.7	-38.6	24.2	0.00e+00	0	35	101	1048576	54	5687
2026-01-07 13:28:57.63	40.17	20.12	-37.6	-38.5	24.3	0.00e+00	0	35	101	1048576	54	5609
2026-01-07 13:28:58.64	40.33	20.22	-37.4	-38.3	24.5	0.00e+00	0	35	101	1048576	54	5496
2026-01-07 13:28:59.66	40.49	20.33	-37.4	-38.3	24.4	0.00e+00	0	35	101	1048576	54	5516
2026-01-07 13:29:00.67	40.64	20.43	-37.4	-38.3	24.4	0.00e+00	0	35	101	1048576	54	5484
2026-01-07 13:29:01.67	40.80	20.54	-37.1	-38.0	24.6	0.00e+00	0	35	101	1048576	54	5328
2026-01-07 13:29:02.69	40.96	20.64	-37.2	-38.1	24.5	0.00e+00	0	35	101	1048576	52	6060
2026-01-07 13:29:03.70	41.12	20.75	-37.2	-38.1	24.5	0.00e+00	0	35	101	1048576	52	6009
2026-01-07 13:29:04.71	41.28	20.85	-37.2	-38.0	24.6	0.00e+00	0	35	101	1048576	52	5991
2026-01-07 13:29:05.72	41.44	20.96	-37.1	-37.9	24.7	0.00e+00	0	35	101	1048576	52	5919
2026-01-07 13:29:06.73	41.61	21.07	-37.1	-38.0	24.7	0.00e+00	0	35	101	1048576	52	5940
2026-01-07 13:29:07.74	41.77	21.17	-37.0	-37.9	24.7	0.00e+00	0	35	101	1048576	52	5900
2026-01-07 13:29:08.75	41.94	21.28	-37.1	-38.0	24.7	0.00e+00	0	35	101	1048576	52	5945
2026-01-07 13:29:09.76	42.10	21.39	-37.0	-37.9	24.8	0.00e+00	0	35	101	1048576	52	5869
2026-01-07 13:29:10.77	42.27	21.49	-37.0	-37.9	24.8	0.00e+00	0	35	101	1048576	52	5886
2026-01-07 13:29:11.78	42.44	21.60	-36.8	-37.7	25.0	0.00e+00	0	35	101	1048576	52	5756
2026-01-07 13:29:12.79	42.61	21.71	-36.8	-37.7	25.0	0.00e+00	0	35	101	1048576	52	5763
2026-01-07 13:29:13.81	42.78	21.82	-36.9	-37.8	25.0	0.00e+00	0	35	101	1048576	52	5800
2026-01-07 13:29:14.81	42.95	21.92	-36.9	-37.8	24.9	0.00e+00	0	35	101	1048576	52	5822
2026-01-07 13:29:15.82	43.13	22.03	-36.7	-37.6	25.0	0.00e+00	0	35	101	1048576	52	5695
2026-01-07 13:29:16.84	43.30	22.14	-36.7	-37.6	25.0	0.00e+00	0	35	101	1048576	52	5703
2026-01-07 13:29:17.85	43.48	22.25	-36.7	-37.6	25.0	0.00e+00	0	35	101	1048576	52	5701
2026-01-07 13:29:18.86	43.66	22.36	-36.7	-37.6	25.2	0.00e+00	0	35	101	1048576	52	5686
2026-01-07 13:29:19.87	43.84	22.47	-36.7	-37.5	25.1	0.00e+00	0	35	101	1048576	52	5651
2026-01-07 13:29:20.88	44.02	22.58	-36.7	-37.6	25.1	0.00e+00	0	35	101	1048576	52	5665
2026-01-07 13:29:21.89	44.20	22.69	-36.8	-37.7	25.0	0.00e+00	0	35	101	1048576	52	5726
2026-01-07 13:29:22.90	44.38	22.80	-36.6	-37.5	25.1	0.00e+00	0	35	101	1048576	52	5595
2026-01-07 13:29:23.91	44.56	22.91	-36.4	-37.3	25.3	0.00e+00	0	35	101	1048576	52	5490
2026-01-07 13:29:24.92	44.75	23.02	-36.4	-37.3	25.3	0.00e+00	0	35	101	1048576	52	5499
2026-01-07 13:29:25.94	44.93	23.13	-36.4	-37.3	25.3	0.00e+00	0	35	101	1048576	52	5484
2026-01-07 13:29:26.95	45.12	23.24	-36.5	-37.3	25.3	0.00e+00	0	35	101	1048576	52	5520
2026-01-07 13:29:27.96	45.31	23.35	-36.6	-37.4	25.2	0.00e+00	0	35	101	1048576	52	5593
2026-01-07 13:29:28.97	45.50	23.46	-36.5	-37.3	25.2	0.00e+00	0	35	101	1048576	52	5523
2026-01-07 13:29:29.98	45.69	23.57	-36.5	-37.4	25.2	0.00e+00	0	35	101	1048576	52	5568
2026-01-07 13:29:30.99	45.88	23.68	-36.5	-37.4	25.1	0.00e+00	0	35	101	1048576	52	5549
2026-01-07 13:29:32.00	46.08	23.79	-36.5	-37.3	25.2	0.00e+00	0	35	101	1048576	52	5512
2026-01-07 13:29:33.01	46.27	23.90	-36.5	-37.3	25.2	0.00e+00	0	35	101	1048576	52	5525
2026-01-07 13:29:34.02	46.47	24.01	-36.3	-37.1	25.3	0.00e+00	0	35	101	1048576	52	5403
2026-01-07 13:29:35.03	46.67	24.12	-36.4	-37.3	25.3	0.00e+00	0	35	101	1048576	52	5473
2026-01-07 13:29:36.05	46.87	24.24	-36.4	-37.2	25.3	0.00e+00	0	35	101	1048576	52	5453
2026-01-07 13:29:37.06	47.07	24.35	-36.4	-37.3	25.2	0.00e+00	0	35	101	1048576	52	5501
2026-01-07 13:29:38.07	47.27	24.46	-36.5	-37.3	25.2	0.00e+00	0	35	101	1048576	52	5502
2026-01-07 13:29:39.08	47.47	24.57	-36.5	-37.4	25.1	0.00e+00	0	35	101	1048576	52	5548
2026-01-07 13:29:40.09	47.68	24.68	-36.6	-37.5	25.1	0.00e+00	0	35	101	1048576	52	5599
2026-01-07 13:29:41.10	47.88	24.80	-36.7	-37.5	25.0	0.00e+00	0	35	101	1048576	52	5649
2026-01-07 13:29:42.11	48.09	24.91	-36.7	-37.6	25.0	0.00e+00	0	35	101	1048576	52	5702
2026-01-07 13:29:43.12	48.30	25.02	-36.8	-37.7	24.9	0.00e+00	0	35	101	1048576	52	5779
2026-01-07 13:29:44.13	48.51	25.13	-36.9	-37.8	24.9	0.00e+00	0	35	101	1048576	52	5811
2026-01-07 13:29:45.14	48.72	25.25	-37.1	-38.0	24.8	0.00e+00	0	35	101	1048576	52	5951
2026-01-07 13:29:46.15	48.94	25.36	-37.2	-38.1	24.7	0.00e+00	0	35	101	1048576	52	6020
2026-01-07 13:29:47.16	49.15	25.47	-37.2	-38.1	24.8	0.00e+00	0	35	101	1048576	52	6019
2026-01-07 13:29:48.17	49.37	25.58	-37.2	-38.1	24.7	0.00e+00	0	35	101	1048576	52	6032
2026-01-07 13:29:49.19	49.59	25.70	-37.2	-38.1	24.8	0.00e+00	0	35	101	1048576	52	6027
2026-01-07 13:29:50.20	49.81	25.81	-37.3	-38.2	24.6	0.00e+00	0	35	101	1048576	52	6089
2026-01-07 13:29:51.21	50.03	25.92	-37.3	-38.2	24.7	0.00e+00	0	35	101	1048576	52	6077
2026-01-07 13:29:52.22	50.25	26.04	-37.3	-38.2	24.5	0.00e+00	0	35	101	1048576	52	6104
2026-01-07 13:29:53.23	50.48	26.15	-37.4	-38.3	24.5	0.00e+00	0	35	101	1048576	52	6174
2026-01-07 13:29:54.24	50.70	26.26	-37.5	-38.4	24.5	0.00e+00	0	35	101	1048576	52	6219
2026-01-07 13:29:55.25	50.93	26.38	-37.5	-38.4	24.5	0.00e+00	0	35	101	1048576	52	6251
2026-01-07 13:29:56.26	51.16	26.49	-37.5	-38.4	24.4	0.00e+00	0	35	101	1048576	52	6254
2026-01-07 13:29:57.27	51.39	26.60	-37.4	-38.3	24.5	0.00e+00	0	35	101	1048576	52	6156
2026-01-07 13:29:58.28	51.62	26.71	-37.5	-38.4	24.5	0.00e+00	0	35	101	1048576	52	6238
2026-01-07 13:29:59.29	51.86	26.83	-37.4	-38.3	24.6	0.00e+00	0	35	101	1048576	52	6180
2026-01-07 13:30:00.30	52.09	26.94	-37.5	-38.4	24.5	0.00e+00	0	35	101	1048576	52	6217
2026-01-07 13:30:01.31	52.33	27.05	-37.6	-38.5	24.5	0.00e+00	0	35	101	1048576	52	6293
2026-01-07 13:30:02.32	52.57	27.17	-37.5	-38.4	24.7	0.00e+00	0	35	101	1048576	52	6206
2026-01-07 13:30:03.33	52.81	27.28	-37.5	-38.4	24.5	0.00e+00	0	35	101	1048576	52	6257
2026-01-07 13:30:04.34	53.05	27.39	-37.5	-38.4	24.5	0.00e+00	0	35	101	1048576	52	6263
2026-01-07 13:30:05.35	53.29	27.50	-37.5	-38.3	24.5	0.00e+00	0	35	101	1048576	52	6194
2026-01-07 13:30:06.36	53.54	27.62	-37.7	-38.6	24.5	0.00e+00	0	35	101	1048576	52	6384
2026-01-07 13:30:07.37	53.78	27.73	-37.9	-38.9	24.3	0.00e+00	0	35	101	1048576	52	6585
2026-01-07 13:30:08.39	54.04	27.84	-38.1	-39.0	24.1	0.00e+00	0	35	101	1048576	52	6690
2026-01-07 13:30:09.40	54.29	27.95	-37.9	-38.8	24.2	0.00e+00	0	35	101	1048576	52	6558
2026-01-07 13:30:10.41	54.54	28.07	-38.0	-38.9	24.0	0.00e+00	0	35	101	1048576	52	6592
2026-01-07 13:30:11.42	54.79	28.18	-37.9	-38.8	24.1	0.00e+00	0	35	101	1048576	52	6570
2026-01-07 13:30:12.43	55.05	28.29	-37.7	-38.6	24.4	0.00e+00	0	35	101	1048576	52	6378
2026-01-07 13:30:13.44	55.31	28.40	-37.7	-38.6	24.4	0.00e+00	0	35	101	1048576	52	6399
2026-01-07 13:30:14.45	55.57	28.51	-37.7	-38.6	24.3	0.00e+00	0	35	101	1048576	52	6415
2026-01-07 13:30:15.46	55.83	28.62	-37.7	-38.7	24.4	0.00e+00	0	35	101	1048576	52	6427
2026-01-07 13:30:16.47	56.09	28.74	-37.7	-38.6	24.4	0.00e+00	0	35	101	1048576	52	6399
2026-01-07 13:30:17.48	56.35	28.85	-37.7	-38.6	24.4	0.00e+00	0	35	101	1048576	52	6364
2026-01-07 13:30:18.49	56.62	28.96	-37.7	-38.6	24.5	0.00e+00	0	35	101	1048576	52	6398
2026-01-07 13:30:19.50	56.89	29.07	-37.7	-38.6	24.4	0.00e+00	0	35	101	1048576	52	6390
2026-01-07 13:30:20.51	57.16	29.18	-37.6	-38.5	24.4	0.00e+00	0	35	101	1048576	52	6344
2026-01-07 13:30:21.52	57.43	29.29	-37.6	-38.5	24.4	0.00e+00	0	35	101	1048576	52	6292
2026-01-07 13:30:22.53	57.70	29.40	-37.7	-38.6	24.3	0.00e+00	0	35	101	1048576	52	6382
2026-01-07 13:30:23.54	57.98	29.51	-37.6	-38.5	24.4	0.00e+00	0	35	101	1048576	52	6320
2026-01-07 13:30:24.55	58.26	29.62	-37.8	-38.7	24.4	0.00e+00	0	35	101	1048576	52	6466
2026-01-07 13:30:25.56	58.54	29.73	-37.7	-38.6	24.4	0.00e+00	0	35	101	1048576	52	6364
2026-01-07 13:30:26.57	58.82	29.83	-37.5	-38.4	24.5	0.00e+00	0	35	101	1048576	52	6258
2026-01-07 13:30:27.59	59.10	29.94	-37.3	-38.2	24.7	0.00e+00	0	35	101	1048576	52	6087
2026-01-07 13:30:28.60	59.39	30.05	-37.4	-38.2	24.8	0.00e+00	0	35	101	1048576	52	6129
2026-01-07 13:30:29.61	59.67	30.16	-37.2	-38.1	24.7	0.00e+00	0	35	101	1048576	52	6031
2026-01-07 13:30:30.62	59.96	30.27	-37.1	-38.0	24.9	0.00e+00	0	35	101	1048576	52	5929
2026-01-07 13:30:31.63	60.25	30.37	-37.0	-37.8	24.9	0.00e+00	0	35	101	1048576	52	5853
2026-01-07 13:30:32.64	60.55	30.48	-37.1	-38.0	24.7	0.00e+00	0	35	101	1048576	52	5952
2026-01-07 13:30:33.65	60.84	30.59	-37.1	-38.0	24.7	0.00e+00	0	35	101	1048576	52	5975
2026-01-07 13:30:34.66	61.14	30.69	-37.3	-38.2	24.7	0.00e+00	0	35	101	1048576	52	6100
2026-01-07 13:30:35.67	61.43	30.80	-37.5	-38.4	24.5	0.00e+00	0	35	101	1048576	52	6221
2026-01-07 13:30:36.68	61.73	30.90	-37.6	-38.5	24.5	0.00e+00	0	35	101	1048576	52	6290
2026-01-07 13:30:37.70	62.04	31.01	-37.6	-38.5	24.5	0.00e+00	0	35	101	1048576	52	6334
2026-01-07 13:30:38.71	62.34	31.11	-37.6	-38.5	24.6	0.00e+00	0	35	101	1048576	52	6293
2026-01-07 13:30:39.72	62.65	31.21	-37.5	-38.4	24.6	0.00e+00	0	35	101	1048576	52	6256
2026-01-07 13:30:40.73	62.96	31.32	-37.6	-38.5	24.4	0.00e+00	0	35	101	1048576	52	6284
2026-01-07 13:30:41.74	63.27	31.42	-37.3	-38.2	24.7	0.00e+00	0	35	101	1048576	52	6124
2026-01-07 13:30:42.75	63.58	31.52	-37.5	-38.4	24.6	0.00e+00	0	35	101	1048576	52	6209
2026-01-07 13:30:43.76	63.89	31.62	-37.4	-38.3	24.6	0.00e+00	0	35	101	1048576	52	6198
2026-01-07 13:30:44.77	64.21	31.72	-37.6	-38.5	24.5	0.00e+00	0	35	101	1048576	52	6340
2026-01-07 13:30:45.78	64.52	31.82	-37.8	-38.7	24.5	0.00e+00	0	35	101	1048576	52	6438
2026-01-07 13:30:46.79	64.84	31.92	-37.6	-38.5	24.5	0.00e+00	0	35	101	1048576	52	6336
2026-01-07 13:30:47.80	65.16	32.02	-37.6	-38.5	24.5	0.00e+00	0	35	101	1048576	52	6324
2026-01-07 13:30:48.81	65.49	32.12	-37.7	-38.6	24.4	0.00e+00	0	35	101	1048576	52	6420
2026-01-07 13:30:49.82	65.81	32.22	-37.9	-38.8	24.3	0.00e+00	0	35	101	1048576	52	6572
2026-01-07 13:30:50.83	66.14	32.31	-38.0	-38.9	24.2	0.00e+00	0	35	101	1048576	52	6600
2026-01-07 13:30:51.85	66.47	32.41	-38.1	-39.0	24.2	0.00e+00	0	35	101	1048576	52	6672
2026-01-07 13:30:52.86	66.80	32.50	-38.0	-38.9	24.2	0.00e+00	0	35	101	1048576	52	6629
2026-01-07 13:30:53.87	67.13	32.60	-38.1	-39.0	24.2	0.00e+00	0	35	101	1048576	54	5943
2026-01-07 13:30:54.88	67.47	32.69	-38.2	-39.1	24.0	0.00e+00	0	35	101	1048576	54	6029
2026-01-07 13:30:55.89	67.81	32.78	-38.2	-39.1	24.0	0.00e+00	0	35	101	1048576	54	6059
2026-01-07 13:30:56.90	68.14	32.88	-38.2	-39.2	24.1	0.00e+00	0	35	101	1048576	54	6065
2026-01-07 13:30:57.91	68.48	32.97	-38.4	-39.4	23.7	0.00e+00	0	35	101	1048576	54	6209
2026-01-07 13:30:58.92	68.83	33.06	-38.7	-39.6	23.6	0.00e+00	0	35	101	1048576	54	6402
2026-01-07 13:30:59.93	69.17	33.15	-38.7	-39.7	23.6	0.00e+00	0	35	101	1048576	54	6430
2026-01-07 13:31:00.94	69.52	33.24	-38.5	-39.4	23.8	0.00e+00	0	35	101	1048576	54	6235
2026-01-07 13:31:01.95	69.86	33.33	-38.4	-39.3	23.8	0.00e+00	0	35	101	1048576	54	6187
2026-01-07 13:31:02.96	70.21	33.41	-38.1	-39.0	24.1	0.00e+00	0	35	101	1048576	54	5958
2026-01-07 13:31:03.97	70.57	33.50	-38.0	-38.9	24.1	0.00e+00	0	35	101	1048576	54	5922
2026-01-07 13:31:04.98	70.92	33.58	-38.1	-39.0	24.0	0.00e+00	0	35	101	1048576	54	5986
2026-01-07 13:31:05.99	71.27	33.67	-38.3	-39.2	23.9	0.00e+00	0	35	101	1048576	54	6084
2026-01-07 13:31:07.00	71.63	33.75	-38.3	-39.3	23.8	0.00e+00	0	35	101	1048576	54	6145
2026-01-07 13:31:08.02	71.99	33.83	-38.5	-39.4	23.7	0.00e+00	0	35	101	1048576	54	6245
2026-01-07 13:31:09.03	72.35	33.92	-38.4	-39.3	23.7	0.00e+00	0	35	101	1048576	54	6176
2026-01-07 13:31:10.04	72.72	34.00	-38.3	-39.2	23.9	0.00e+00	0	35	101	1048576	54	6118
2026-01-07 13:31:11.05	73.08	34.07	-38.3	-39.2	23.9	0.00e+00	0	35	101	1048576	54	6113
2026-01-07 13:31:12.06	73.45	34.15	-38.4	-39.3	23.6	0.00e+00	0	35	101	1048576	54	6201
2026-01-07 13:31:13.07	73.81	34.23	-38.4	-39.4	23.7	0.00e+00	0	35	101	1048576	54	6240
2026-01-07 13:31:14.08	74.18	34.31	-38.2	-39.1	23.8	0.00e+00	0	35	101	1048576	54	6028
2026-01-07 13:31:15.09	74.55	34.38	-38.3	-39.3	23.8	0.00e+00	0	35	101	1048576	54	6139
2026-01-07 13:31:16.10	74.93	34.45	-38.3	-39.2	23.9	0.00e+00	0	35	101	1048576	54	6091
2026-01-07 13:31:17.12	75.30	34.53	-38.2	-39.1	23.9	0.00e+00	0	35	101	1048576	54	6050
2026-01-07 13:31:18.13	75.68	34.60	-38.3	-39.2	23.9	0.00e+00	0	35	101	1048576	54	6091
2026-01-07 13:31:19.14	76.06	34.67	-38.2	-39.2	23.7	0.00e+00	0	35	101	1048576	54	6078
2026-01-07 13:31:20.15	76.44	34.74	-38.3	-39.3	23.6	0.00e+00	0	35	101	1048576	54	6155
2026-01-07 13:31:21.16	76.82	34.80	-38.3	-39.3	23.7	0.00e+00	0	35	101	1048576	54	6168
2026-01-07 13:31:22.17	77.20	34.87	-38.3	-39.3	23.8	0.00e+00	0	35	101	1048576	54	6154
2026-01-07 13:31:23.18	77.58	34.94	-38.3	-39.2	23.9	0.00e+00	0	35	101	1048576	54	6108
2026-01-07 13:31:24.19	77.97	35.00	-38.3	-39.3	23.9	0.00e+00	0	35	101	1048576	54	6157
2026-01-07 13:31:25.20	78.36	35.06	-38.5	-39.4	23.7	0.00e+00	0	35	101	1048576	54	6270
2026-01-07 13:31:26.21	78.74	35.12	-38.8	-39.7	23.5	0.00e+00	0	35	101	1048576	54	6488
2026-01-07 13:31:27.22	79.13	35.18	-38.7	-39.6	23.7	0.00e+00	0	35	101	1048576	54	6397
2026-01-07 13:31:28.23	79.53	35.24	-38.4	-39.3	24.0	0.00e+00	0	35	101	1048576	54	6181
2026-01-07 13:31:29.25	79.92	35.30	-38.1	-39.1	24.1	0.00e+00	0	35	101	1048576	54	6010
2026-01-07 13:31:30.26	80.32	35.36	-38.2	-39.1	24.0	0.00e+00	0	35	101	1048576	54	6041
2026-01-07 13:31:31.27	80.71	35.41	-38.4	-39.3	23.9	0.00e+00	0	35	101	1048576	54	6186
2026-01-07 13:31:32.28	81.11	35.46	-38.3	-39.3	23.8	0.00e+00	0	35	101	1048576	54	6156
2026-01-07 13:31:33.29	81.51	35.51	-38.5	-39.4	23.8	0.00e+00	0	35	101	1048576	54	6235
2026-01-07 13:31:34.30	81.90	35.56	-38.5	-39.4	23.7	0.00e+00	0	35	101	1048576	54	6261
2026-01-07 13:31:35.31	82.30	35.61	-38.4	-39.3	23.9	0.00e+00	0	35	101	1048576	54	6202
2026-01-07 13:31:36.32	82.71	35.66	-38.3	-39.2	23.9	0.00e+00	0	35	101	1048576	54	6099
2026-01-07 13:31:37.34	83.11	35.71	-38.5	-39.5	23.6	0.00e+00	0	35	101	1048576	54	6291
2026-01-07 13:31:38.34	83.51	35.75	-38.8	-39.8	23.5	0.00e+00	0	35	101	1048576	54	6535
2026-01-07 13:31:39.36	83.92	35.79	-38.9	-39.9	23.4	0.00e+00	0	35	101	1048576	54	6621
2026-01-07 13:31:40.37	84.33	35.83	-39.1	-40.1	23.3	0.00e+00	0	35	101	1048576	54	6734
2026-01-07 13:31:41.38	84.73	35.87	-39.2	-40.1	23.2	0.00e+00	0	35	101	1048576	54	6803
2026-01-07 13:31:42.39	85.14	35.91	-39.5	-40.5	23.0	0.00e+00	0	35	101	1048576	56	6321
2026-01-07 13:31:43.40	85.55	35.95	-39.5	-40.5	23.0	0.00e+00	0	35	101	1048576	56	6334
2026-01-07 13:31:44.41	85.96	35.98	-39.1	-40.0	23.3	0.00e+00	0	35	101	1048576	56	5993
2026-01-07 13:31:45.42	86.37	36.02	-39.0	-39.9	23.6	0.00e+00	0	35	101	1048576	56	5896
2026-01-07 13:31:46.44	86.78	36.05	-38.4	-39.4	23.9	0.00e+00	0	35	101	1048576	56	5541
2026-01-07 13:31:47.45	87.20	36.08	-38.5	-39.4	23.9	0.00e+00	0	35	101	1048576	56	5576
2026-01-07 13:31:48.46	87.61	36.11	-38.7	-39.6	23.7	0.00e+00	0	35	101	1048576	56	5717
2026-01-07 13:31:49.47	88.02	36.14	-38.8	-39.8	23.6	0.00e+00	0	35	101	1048576	56	5822
2026-01-07 13:31:50.48	88.44	36.16	-38.8	-39.8	23.5	0.00e+00	0	35	101	1048576	56	5828
2026-01-07 13:31:51.49	88.85	36.18	-38.8	-39.8	23.5	0.00e+00	0	35	101	1048576	56	5808
2026-01-07 13:31:52.50	89.27	36.21	-38.8	-39.8	23.5	0.00e+00	0	35	101	1048576	56	5803
2026-01-07 13:31:53.51	89.68	36.23	-38.7	-39.7	23.5	0.00e+00	0	35	101	1048576	56	5738
2026-01-07 13:31:54.52	90.10	36.25	-38.8	-39.7	23.6	0.00e+00	0	35	101	1048576	56	5782
2026-01-07 13:31:55.53	90.52	36.26	-38.6	-39.6	23.7	0.00e+00	0	35	101	1048576	56	5675
2026-01-07 13:31:56.55	90.94	36.28	-38.7	-39.6	23.7	0.00e+00	0	35	101	1048576	56	5698
2026-01-07 13:31:57.56	91.35	36.29	-38.6	-39.5	23.8	0.00e+00	0	35	101	1048576	56	5626
2026-01-07 13:31:58.57	91.77	36.31	-38.6	-39.6	23.7	0.00e+00	0	35	101	1048576	56	5663
2026-01-07 13:31:59.58	92.19	36.32	-38.3	-39.3	23.9	0.00e+00	0	35	101	1048576	56	5473
2026-01-07 13:32:00.59	92.61	36.32	-38.3	-39.2	24.1	0.00e+00	0	35	101	1048576	56	5428
2026-01-07 13:32:01.60	93.03	36.33	-38.0	-38.9	24.2	0.00e+00	0	35	101	1048576	54	5886
2026-01-07 13:32:02.61	93.45	36.34	-38.2	-39.1	24.2	0.00e+00	0	35	101	1048576	54	6032
2026-01-07 13:32:03.62	93.87	36.34	-38.2	-39.1	24.1	0.00e+00	0	35	101	1048576	54	6004
2026-01-07 13:32:04.63	94.29	36.34	-38.2	-39.1	24.1	0.00e+00	0	35	101	1048576	54	6046
2026-01-07 13:32:05.64	94.70	36.34	-38.2	-39.2	24.0	0.00e+00	0	35	101	1048576	54	6074
2026-01-07 13:32:06.65	95.12	36.34	-38.4	-39.3	24.0	0.00e+00	0	35	101	1048576	54	6191
2026-01-07 13:32:07.67	95.55	36.34	-38.6	-39.5	23.8	0.00e+00	0	35	101	1048576	54	6314
2026-01-07 13:32:08.68	95.97	36.33	-38.9	-39.9	23.4	0.00e+00	0	35	101	1048576	54	6586
2026-01-07 13:32:09.69	96.38	36.33	-39.1	-40.1	23.2	0.00e+00	0	35	101	1048576	54	6750
2026-01-07 13:32:10.70	96.80	36.32	-39.1	-40.0	23.4	0.00e+00	0	35	101	1048576	56	5987
2026-01-07 13:32:11.71	97.22	36.31	-38.9	-39.8	23.4	0.00e+00	0	35	101	1048576	56	5851
2026-01-07 13:32:12.72	97.64	36.30	-39.0	-40.0	23.3	0.00e+00	0	35	101	1048576	56	5973
2026-01-07 13:32:13.73	98.06	36.29	-39.0	-39.9	23.4	0.00e+00	0	35	101	1048576	56	5923
2026-01-07 13:32:14.74	98.48	36.27	-39.0	-39.9	23.5	0.00e+00	0	35	101	1048576	56	5923
2026-01-07 13:32:15.75	98.89	36.26	-38.9	-39.8	23.5	0.00e+00	0	35	101	1048576	56	5845
2026-01-07 13:32:16.76	99.31	36.24	-38.7	-39.6	23.8	0.00e+00	0	35	101	1048576	56	5721
2026-01-07 13:32:17.77	99.73	36.22	-38.8	-39.7	23.7	0.00e+00	0	35	101	1048576	56	5751
2026-01-07 13:32:18.78	100.14	36.20	-38.9	-39.9	23.5	0.00e+00	0	35	101	1048576	56	5866
2026-01-07 13:32:19.80	100.56	36.17	-39.1	-40.0	23.4	0.00e+00	0	35	101	1048576	56	5990
2026-01-07 13:32:20.81	100.98	36.15	-38.8	-39.8	23.6	0.00e+00	0	35	101	1048576	56	5817
2026-01-07 13:32:21.82	101.39	36.12	-38.8	-39.7	23.6	0.00e+00	0	35	101	1048576	56	5790
2026-01-07 13:32:22.83	101.80	36.09	-38.8	-39.8	23.7	0.00e+00	0	35	101	1048576	56	5793
2026-01-07 13:32:23.84	102.22	36.06	-39.1	-40.1	23.4	0.00e+00	0	35	101	1048576	56	6015
2026-01-07 13:32:24.85	102.63	36.03	-39.4	-40.4	23.2	0.00e+00	0	35	101	1048576	56	6223
2026-01-07 13:32:25.86	103.04	36.00	-39.5	-40.5	23.1	0.00e+00	0	35	101	1048576	56	6316
2026-01-07 13:32:26.87	103.45	35.97	-39.3	-40.3	23.3	0.00e+00	0	35	101	1048576	56	6143
2026-01-07 13:32:27.88	103.86	35.93	-39.2	-40.2	23.3	0.00e+00	0	35	101	1048576	56	6065
2026-01-07 13:32:28.89	104.27	35.89	-39.1	-40.1	23.4	0.00e+00	0	35	101	1048576	56	6013
2026-01-07 13:32:29.90	104.68	35.85	-38.9	-39.8	23.5	0.00e+00	0	35	101	1048576	56	5855
2026-01-07 13:32:30.92	105.09	35.81	-38.9	-39.8	23.6	0.00e+00	0	35	101	1048576	56	5817
2026-01-07 13:32:31.93	105.49	35.77	-38.8	-39.8	23.6	0.00e+00	0	35	101	1048576	56	5800
2026-01-07 13:32:32.94	105.90	35.73	-38.9	-39.8	23.5	0.00e+00	0	35	101	1048576	56	5848
2026-01-07 13:32:33.95	106.30	35.68	-38.9	-39.9	23.5	0.00e+00	0	35	101	1048576	56	5893
2026-01-07 13:32:34.96	106.70	35.64	-39.1	-40.1	23.3	0.00e+00	0	35	101	1048576	56	6021
2026-01-07 13:32:35.97	107.10	35.59	-39.2	-40.2	23.2	0.00e+00	0	35	101	1048576	56	6092
2026-01-07 13:32:36.98	107.50	35.54	-39.3	-40.3	23.2	0.00e+00	0	35	101	1048576	56	6177
2026-01-07 13:32:37.99	107.90	35.49	-39.2	-40.2	23.1	0.00e+00	0	35	101	1048576	56	6071
2026-01-07 13:32:39.00	108.30	35.44	-39.3	-40.2	23.1	0.00e+00	0	35	101	1048576	56	6120
2026-01-07 13:32:40.01	108.70	35.38	-39.0	-40.0	23.4	0.00e+00	0	35	101	1048576	56	5943
2026-01-07 13:32:41.02	109.09	35.33	-39.0	-40.0	23.5	0.00e+00	0	35	101	1048576	56	5944
2026-01-07 13:32:42.04	109.49	35.27	-39.0	-39.9	23.5	0.00e+00	0	35	101	1048576	56	5918
2026-01-07 13:32:43.05	109.88	35.21	-38.7	-39.7	23.6	0.00e+00	0	35	101	1048576	56	5735
2026-01-07 13:32:44.06	110.27	35.15	-39.0	-39.9	23.4	0.00e+00	0	35	101	1048576	56	5923
2026-01-07 13:32:45.07	110.66	35.09	-38.9	-39.9	23.5	0.00e+00	0	35	101	1048576	56	5877
2026-01-07 13:32:46.08	111.05	35.03	-38.8	-39.7	23.6	0.00e+00	0	35	101	1048576	56	5760
2026-01-07 13:32:47.09	111.44	34.97	-38.7	-39.7	23.7	0.00e+00	0	35	101	1048576	56	5742
2026-01-07 13:32:48.10	111.82	34.90	-38.5	-39.5	23.8	0.00e+00	0	35	101	1048576	56	5600
2026-01-07 13:32:49.11	112.21	34.83	-38.3	-39.2	24.1	0.00e+00	0	35	101	1048576	56	5438
2026-01-07 13:32:50.12	112.59	34.77	-38.3	-39.2	24.1	0.00e+00	0	35	101	1048576	56	5435
2026-01-07 13:32:51.13	112.97	34.70	-38.3	-39.3	24.1	0.00e+00	0	35	101	1048576	56	5475
2026-01-07 13:32:52.14	113.35	34.63	-38.0	-38.9	24.3	0.00e+00	0	35	101	1048576	54	5910
2026-01-07 13:32:53.15	113.73	34.56	-38.1	-39.0	24.1	0.00e+00	0	35	101	1048576	54	5934
2026-01-07 13:32:54.16	114.10	34.49	-38.3	-39.2	23.9	0.00e+00	0	35	101	1048576	54	6123
2026-01-07 13:32:55.17	114.48	34.41	-38.5	-39.5	23.7	0.00e+00	0	35	101	1048576	54	6306
2026-01-07 13:32:56.19	114.85	34.34	-38.3	-39.2	24.0	0.00e+00	0	35	101	1048576	54	6096
2026-01-07 13:32:57.20	115.22	34.26	-38.2	-39.1	24.0	0.00e+00	0	35	101	1048576	54	6015
2026-01-07 13:32:58.21	115.59	34.19	-38.0	-38.9	23.9	0.00e+00	0	35	101	1048576	54	5914
2026-01-07 13:32:59.22	115.96	34.11	-38.2	-39.1	23.9	0.00e+00	0	35	101	1048576	54	6023
2026-01-07 13:33:00.23	116.33	34.03	-38.2	-39.1	24.1	0.00e+00	0	35	101	1048576	54	6030
2026-01-07 13:33:01.24	116.69	33.95	-38.1	-39.1	24.2	0.00e+00	0	35	101	1048576	54	5998
2026-01-07 13:33:02.25	117.05	33.87	-38.2	-39.1	24.1	0.00e+00	0	35	101	1048576	54	6041
2026-01-07 13:33:03.26	117.41	33.79	-38.0	-38.9	24.1	0.00e+00	0	35	101	1048576	54	5909
2026-01-07 13:33:04.27	117.77	33.70	-38.2	-39.1	23.8	0.00e+00	0	35	101	1048576	54	6029
2026-01-07 13:33:05.29	118.13	33.62	-38.2	-39.2	24.0	0.00e+00	0	35	101	1048576	54	6092
2026-01-07 13:33:06.30	118.49	33.53	-38.0	-39.0	24.2	0.00e+00	0	35	101	1048576	54	5941
2026-01-07 13:33:07.31	118.84	33.45	-38.0	-38.9	24.3	0.00e+00	0	35	101	1048576	54	5879
2026-01-07 13:33:08.32	119.19	33.36	-38.1	-39.0	24.1	0.00e+00	0	35	101	1048576	54	5948
2026-01-07 13:33:09.33	119.54	33.27	-38.0	-38.9	24.3	0.00e+00	0	35	101	1048576	54	5883
2026-01-07 13:33:10.34	119.89	33.18	-37.8	-38.7	24.4	0.00e+00	0	35	101	1048576	54	5758
2026-01-07 13:33:11.35	120.24	33.09	-37.9	-38.8	24.1	0.00e+00	0	35	101	1048576	54	5824
2026-01-07 13:33:12.36	120.58	33.00	-37.9	-38.8	24.1	0.00e+00	0	35	101	1048576	54	5856
2026-01-07 13:33:13.37	120.92	32.91	-38.0	-38.9	24.1	0.00e+00	0	35	101	1048576	54	5911
2026-01-07 13:33:14.38	121.26	32.82	-37.9	-38.8	24.1	0.00e+00	0	35	101	1048576	54	5810
2026-01-07 13:33:15.39	121.60	32.73	-37.8	-38.7	24.0	0.00e+00	0	35	101	1048576	54	5780
2026-01-07 13:33:16.40	121.94	32.63	-37.7	-38.6	24.2	0.00e+00	0	35	101	1048576	54	5712
2026-01-07 13:33:17.41	122.27	32.54	-37.5	-38.5	24.4	0.00e+00	0	35	101	1048576	54	5601
2026-01-07 13:33:18.42	122.60	32.44	-37.6	-38.5	24.4	0.00e+00	0	35	101	1048576	54	5627
2026-01-07 13:33:19.44	122.94	32.35	-37.7	-38.6	24.4	0.00e+00	0	35	101	1048576	54	5694
2026-01-07 13:33:20.45	123.27	32.25	-37.8	-38.7	24.2	0.00e+00	0	35	101	1048576	54	5772
2026-01-07 13:33:21.46	123.59	32.15	-37.6	-38.5	24.3	0.00e+00	0	35	101	1048576	54	5659
2026-01-07 13:33:22.47	123.92	32.05	-37.6	-38.5	24.2	0.00e+00	0	35	101	1048576	54	5627
2026-01-07 13:33:23.48	124.24	31.96	-37.7	-38.6	24.1	0.00e+00	0	35	101	1048576	54	5724
2026-01-07 13:33:24.49	124.56	31.86	-37.7	-38.6	24.2	0.00e+00	0	35	101	1048576	54	5720
2026-01-07 13:33:25.50	124.88	31.76	-37.9	-38.8	24.1	0.00e+00	0	35	101	1048576	54	5850
2026-01-07 13:33:26.51	125.20	31.66	-37.6	-38.5	24.5	0.00e+00	0	35	101	1048576	54	5644
2026-01-07 13:33:27.52	125.51	31.55	-37.5	-38.4	24.6	0.00e+00	0	35	101	1048576	54	5541
2026-01-07 13:33:28.53	125.83	31.45	-37.3	-38.2	24.7	0.00e+00	0	35	101	1048576	54	5448
2026-01-07 13:33:29.54	126.14	31.35	-37.3	-38.2	24.7	0.00e+00	0	35	101	1048576	54	5457
2026-01-07 13:33:30.55	126.45	31.25	-37.3	-38.2	24.7	0.00e+00	0	35	101	1048576	54	5427
2026-01-07 13:33:31.57	126.76	31.14	-37.5	-38.4	24.6	0.00e+00	0	35	101	1048576	54	5556
2026-01-07 13:33:32.58	127.06	31.04	-37.7	-38.6	24.4	0.00e+00	0	35	101	1048576	54	5708
2026-01-07 13:33:33.59	127.37	30.93	-37.6	-38.5	24.5	0.00e+00	0	35	101	1048576	54	5659
2026-01-07 13:33:34.60	127.67	30.83	-37.6	-38.5	24.5	0.00e+00	0	35	101	1048576	54	5655
2026-01-07 13:33:35.61	127.97	30.72	-37.6	-38.5	24.5	0.00e+00	0	35	101	1048576	54	5644
2026-01-07 13:33:36.62	128.27	30.62	-37.5	-38.4	24.6	0.00e+00	0	35	101	1048576	54	5567
2026-01-07 13:33:37.63	128.56	30.51	-37.2	-38.1	24.8	0.00e+00	0	35	101	1048576	54	5366
2026-01-07 13:33:38.64	128.86	30.40	-37.1	-38.0	24.9	0.00e+00	0	35	101	1048576	52	5932
2026-01-07 13:33:39.65	129.15	30.30	-37.2	-38.1	24.6	0.00e+00	0	35	101	1048576	52	6059
2026-01-07 13:33:40.66	129.44	30.19	-36.9	-37.8	24.8	0.00e+00	0	35	101	1048576	52	5837
2026-01-07 13:33:41.67	129.73	30.08	-36.9	-37.8	24.7	0.00e+00	0	35	101	1048576	52	5813
2026-01-07 13:33:42.68	130.01	29.97	-36.9	-37.8	24.6	0.00e+00	0	35	101	1048576	52	5817
2026-01-07 13:33:43.69	130.30	29.86	-37.0	-37.9	24.8	0.00e+00	0	35	101	1048576	52	5894
2026-01-07 13:33:44.70	130.58	29.76	-37.0	-37.9	24.9	0.00e+00	0	35	101	1048576	52	5887
2026-01-07 13:33:45.71	130.86	29.65	-37.0	-37.8	24.9	0.00e+00	0	35	101	1048576	52	5840
2026-01-07 13:33:46.72	131.14	29.54	-37.0	-37.9	25.0	0.00e+00	0	35	101	1048576	52	5872
2026-01-07 13:33:47.74	131.42	29.43	-37.1	-38.0	24.9	0.00e+00	0	35	101	1048576	52	5943
2026-01-07 13:33:48.75	131.70	29.32	-37.2	-38.1	24.7	0.00e+00	0	35	101	1048576	52	6018
2026-01-07 13:33:49.76	131.97	29.20	-37.2	-38.1	24.7	0.00e+00	0	35	101	1048576	52	6038
2026-01-07 13:33:50.77	132.24	29.09	-37.5	-38.4	24.5	0.00e+00	0	35	101	1048576	52	6225
2026-01-07 13:33:51.78	132.51	28.98	-37.7	-38.6	24.2	0.00e+00	0	35	101	1048576	52	6417
2026-01-07 13:33:52.79	132.78	28.87	-37.9	-38.8	24.3	0.00e+00	0	35	101	1048576	52	6517
2026-01-07 13:33:53.80	133.05	28.76	-37.9	-38.8	24.3	0.00e+00	0	35	101	1048576	52	6512
2026-01-07 13:33:54.81	133.31	28.65	-37.6	-38.4	24.5	0.00e+00	0	35	101	1048576	52	6265
2026-01-07 13:33:55.82	133.57	28.54	-37.4	-38.3	24.7	0.00e+00	0	35	101	1048576	52	6139
2026-01-07 13:33:56.84	133.84	28.42	-37.2	-38.1	24.8	0.00e+00	0	35	101	1048576	52	6046
2026-01-07 13:33:57.85	134.10	28.31	-37.1	-38.0	24.9	0.00e+00	0	35	101	1048576	52	5953
2026-01-07 13:33:58.86	134.35	28.20	-37.1	-37.9	24.9	0.00e+00	0	35	101	1048576	52	5920
2026-01-07 13:33:59.87	134.61	28.09	-37.2	-38.1	24.7	0.00e+00	0	35	101	1048576	52	6049
2026-01-07 13:34:00.88	134.86	27.97	-37.0	-37.9	25.0	0.00e+00	0	35	101	1048576	52	5877
2026-01-07 13:34:01.89	135.11	27.86	-37.1	-38.0	24.8	0.00e+00	0	35	101	1048576	52	5972
2026-01-07 13:34:02.90	135.36	27.75	-37.2	-38.1	24.7	0.00e+00	0	35	101	1048576	52	6046
2026-01-07 13:34:03.91	135.61	27.63	-37.0	-37.9	25.0	0.00e+00	0	35	101	1048576	52	5889
2026-01-07 13:34:04.92	135.86	27.52	-37.1	-37.9	24.9	0.00e+00	0	35	101	1048576	52	5913
2026-01-07 13:34:05.93	136.11	27.41	-37.2	-38.0	24.8	0.00e+00	0	35	101	1048576	52	5992
2026-01-07 13:34:06.94	136.35	27.29	-37.0	-37.9	24.9	0.00e+00	0	35	101	1048576	52	5900
2026-01-07 13:34:07.95	136.59	27.18	-37.0	-37.9	25.0	0.00e+00	0	35	101	1048576	52	5860
2026-01-07 13:34:08.96	136.83	27.07	-37.0	-37.9	24.9	0.00e+00	0	35	101	1048576	52	5875
2026-01-07 13:34:09.97	137.07	26.95	-36.9	-37.8	25.0	0.00e+00	0	35	101	1048576	52	5792
2026-01-07 13:34:10.98	137.31	26.84	-37.0	-37.9	24.9	0.00e+00	0	35	101	1048576	52	5913
2026-01-07 13:34:11.99	137.54	26.73	-37.2	-38.1	24.8	0.00e+00	0	35	101	1048576	52	6035
2026-01-07 13:34:13.01	137.78	26.61	-37.2	-38.1	24.9	0.00e+00	0	35	101	1048576	52	6017
2026-01-07 13:34:14.02	138.01	26.50	-37.2	-38.0	24.8	0.00e+00	0	35	101	1048576	52	5985
2026-01-07 13:34:15.03	138.24	26.39	-37.3	-38.2	24.7	0.00e+00	0	35	101	1048576	52	6078
2026-01-07 13:34:16.04	138.47	26.27	-37.1	-38.0	24.9	0.00e+00	0	35	101	1048576	52	5932
2026-01-07 13:34:17.05	138.69	26.16	-36.7	-37.6	25.1	0.00e+00	0	35	101	1048576	52	5688
2026-01-07 13:34:18.06	138.92	26.04	-36.7	-37.6	25.1	0.00e+00	0	35	101	1048576	52	5678
2026-01-07 13:34:19.07	139.14	25.93	-36.6	-37.5	25.2	0.00e+00	0	35	101	1048576	52	5607
2026-01-07 13:34:20.08	139.37	25.82	-36.6	-37.4	25.3	0.00e+00	0	35	101	1048576	52	5585
2026-01-07 13:34:21.09	139.59	25.70	-36.5	-37.3	25.3	0.00e+00	0	35	101	1048576	52	5519
2026-01-07 13:34:22.11	139.81	25.59	-36.6	-37.4	25.3	0.00e+00	0	35	101	1048576	52	5592
2026-01-07 13:34:23.12	140.03	25.48	-36.9	-37.7	25.0	0.00e+00	0	35	101	1048576	52	5789
2026-01-07 13:34:24.13	140.24	25.36	-37.0	-37.8	24.9	0.00e+00	0	35	101	1048576	52	5847
2026-01-07 13:34:25.14	140.46	25.25	-36.9	-37.8	24.9	0.00e+00	0	35	101	1048576	52	5838
2026-01-07 13:34:26.15	140.67	25.14	-36.7	-37.6	25.1	0.00e+00	0	35	101	1048576	52	5683
2026-01-07 13:34:27.16	140.88	25.02	-36.8	-37.7	25.0	0.00e+00	0	35	101	1048576	52	5775
2026-01-07 13:34:28.17	141.09	24.91	-36.7	-37.6	25.1	0.00e+00	0	35	101	1048576	52	5697
2026-01-07 13:34:29.18	141.30	24.80	-36.8	-37.7	25.0	0.00e+00	0	35	101	1048576	52	5728
2026-01-07 13:34:30.19	141.51	24.68	-36.6	-37.5	25.0	0.00e+00	0	35	101	1048576	52	5623
2026-01-07 13:34:31.20	141.71	24.57	-36.7	-37.6	25.0	0.00e+00	0	35	101	1048576	52	5698
2026-01-07 13:34:32.21	141.92	24.46	-36.7	-37.6	25.0	0.00e+00	0	35	101	1048576	52	5695
2026-01-07 13:34:33.22	142.12	24.35	-36.7	-37.5	25.1	0.00e+00	0	35	101	1048576	52	5652
2026-01-07 13:34:34.23	142.32	24.23	-36.6	-37.5	25.1	0.00e+00	0	35	101	1048576	52	5627
2026-01-07 13:34:35.24	142.52	24.12	-36.8	-37.6	25.0	0.00e+00	0	35	101	1048576	52	5724
2026-01-07 13:34:36.26	142.72	24.01	-36.7	-37.6	25.1	0.00e+00	0	35	101	1048576	52	5668
2026-01-07 13:34:37.27	142.92	23.90	-36.7	-37.6	25.1	0.00e+00	0	35	101	1048576	52	5702
2026-01-07 13:34:38.28	143.12	23.78	-36.7	-37.6	25.1	0.00e+00	0	35	101	1048576	52	5666
2026-01-07 13:34:39.29	143.31	23.67	-36.8	-37.7	25.0	0.00e+00	0	35	101	1048576	52	5753
2026-01-07 13:34:40.30	143.51	23.56	-36.8	-37.7	25.0	0.00e+00	0	35	101	1048576	52	5768
2026-01-07 13:34:41.31	143.70	23.45	-36.9	-37.8	24.9	0.00e+00	0	35	101	1048576	52	5799
2026-01-07 13:34:42.32	143.89	23.34	-37.0	-37.9	24.9	0.00e+00	0	35	101	1048576	52	5866
2026-01-07 13:34:43.33	144.08	23.23	-37.1	-38.0	24.7	0.00e+00	0	35	101	1048576	52	5939
2026-01-07 13:34:44.34	144.27	23.11	-37.3	-38.2	24.6	0.00e+00	0	35	101	1048576	52	6093
2026-01-07 13:34:45.35	144.45	23.00	-37.2	-38.1	24.7	0.00e+00	0	35	101	1048576	52	6015
2026-01-07 13:34:46.37	144.64	22.89	-37.2	-38.1	24.6	0.00e+00	0	35	101	1048576	52	6029
2026-01-07 13:34:47.38	144.82	22.78	-37.1	-38.0	24.7	0.00e+00	0	35	101	1048576	52	5968
2026-01-07 13:34:48.39	145.01	22.67	-37.2	-38.1	24.6	0.00e+00	0	35	101	1048576	52	6011
2026-01-07 13:34:49.40	145.19	22.56	-37.1	-38.0	24.7	0.00e+00	0	35	101	1048576	52	5965
2026-01-07 13:34:50.41	145.37	22.45	-37.2	-38.1	24.7	0.00e+00	0	35	101	1048576	52	6001
2026-01-07 13:34:51.42	145.55	22.34	-37.2	-38.1	24.6	0.00e+00	0	35	101	1048576	52	6034
2026-01-07 13:34:52.43	145.73	22.23	-37.3	-38.1	24.5	0.00e+00	0	35	101	1048576	52	6064
2026-01-07 13:34:53.44	145.90	22.12	-37.4	-38.3	24.6	0.00e+00	0	35	101	1048576	52	6142
2026-01-07 13:34:54.45	146.08	22.01	-37.5	-38.4	24.5	0.00e+00	0	35	101	1048576	52	6245
2026-01-07 13:34:55.46	146.25	21.90	-37.3	-38.2	24.5	0.00e+00	0	35	101	1048576	52	6129
2026-01-07 13:34:56.48	146.43	21.79	-37.5	-38.4	24.4	0.00e+00	0	35	101	1048576	52	6240
2026-01-07 13:34:57.49	146.60	21.69	-37.5	-38.4	24.4	0.00e+00	0	35	101	1048576	52	6273
2026-01-07 13:34:58.50	146.77	21.58	-37.6	-38.5	24.4	0.00e+00	0	35	101	1048576	52	6299
2026-01-07 13:34:59.51	146.94	21.47	-37.6	-38.5	24.4	0.00e+00	0	35	101	1048576	52	6330
2026-01-07 13:35:00.52	147.11	21.36	-37.6	-38.5	24.4	0.00e+00	0	35	101	1048576	52	6346
2026-01-07 13:35:01.53	147.28	21.25	-37.8	-38.7	24.3	0.00e+00	0	35	101	1048576	52	6467
2026-01-07 13:35:02.54	147.44	21.15	-37.6	-38.5	24.4	0.00e+00	0	35	101	1048576	52	6339
2026-01-07 13:35:03.55	147.61	21.04	-37.4	-38.3	24.5	0.00e+00	0	35	101	1048576	52	6152
2026-01-07 13:35:04.56	147.77	20.93	-37.5	-38.4	24.5	0.00e+00	0	35	101	1048576	52	6209
2026-01-07 13:35:05.57	147.94	20.83	-37.5	-38.4	24.4	0.00e+00	0	35	101	1048576	52	6239
2026-01-07 13:35:06.58	148.10	20.72	-37.5	-38.4	24.4	0.00e+00	0	35	101	1048576	52	6275
2026-01-07 13:35:07.59	148.26	20.61	-37.6	-38.5	24.3	0.00e+00	0	35	101	1048576	52	6329
2026-01-07 13:35:08.60	148.42	20.51	-37.6	-38.5	24.4	0.00e+00	0	35	101	1048576	52	6310
2026-01-07 13:35:09.61	148.58	20.40	-37.5	-38.4	24.5	0.00e+00	0	35	101	1048576	52	6245
2026-01-07 13:35:10.62	148.73	20.29	-37.3	-38.2	24.6	0.00e+00	0	35	101	1048576	52	6125
2026-01-07 13:35:11.63	148.89	20.19	-37.3	-38.2	24.7	0.00e+00	0	35	101	1048576	52	6091
2026-01-07 13:35:12.64	149.05	20.08	-37.3	-38.2	24.7	0.00e+00	0	35	101	1048576	52	6092
2026-01-07 13:35:13.65	149.20	19.98	-37.1	-38.0	24.8	0.00e+00	0	35	101	1048576	52	5956
2026-01-07 13:35:14.66	149.36	19.87	-37.0	-37.8	24.9	0.00e+00	0	35	101	1048576	52	5853
2026-01-07 13:35:15.67	149.51	19.77	-37.1	-38.0	24.7	0.00e+00	0	35	101	1048576	52	5936
2026-01-07 13:35:16.68	149.66	19.67	-36.9	-37.8	24.9	0.00e+00	0	35	101	1048576	52	5800
2026-01-07 13:35:17.69	149.81	19.56	-36.9	-37.8	24.8	0.00e+00	0	35	101	1048576	52	5832
2026-01-07 13:35:18.70	149.96	19.46	-36.9	-37.8	24.9	0.00e+00	0	35	101	1048576	52	5800
2026-01-07 13:35:19.71	150.11	19.35	-37.1	-37.9	24.8	0.00e+00	0	35	101	1048576	52	5926
2026-01-07 13:35:20.73	150.26	19.25	-36.9	-37.7	24.9	0.00e+00	0	35	101	1048576	52	5778
2026-01-07 13:35:21.74	150.40	19.15	-36.9	-37.7	24.9	0.00e+00	0	35	101	1048576	52	5788
2026-01-07 13:35:22.75	150.55	19.04	-37.0	-37.9	24.8	0.00e+00	0	35	101	1048576	52	5886
2026-01-07 13:35:23.76	150.69	18.94	-36.9	-37.8	24.9	0.00e+00	0	35	101	1048576	52	5840
2026-01-07 13:35:24.77	150.84	18.84	-36.9	-37.8	24.8	0.00e+00	0	35	101	1048576	52	5805
2026-01-07 13:35:25.78	150.98	18.74	-37.0	-37.9	24.7	0.00e+00	0	35	101	1048576	52	5908
2026-01-07 13:35:26.79	151.12	18.64	-37.1	-37.9	24.7	0.00e+00	0	35	101	1048576	52	5916
2026-01-07 13:35:27.80	151.26	18.53	-37.2	-38.1	24.6	0.00e+00	0	35	101	1048576	52	6060
2026-01-07 13:35:28.81	151.40	18.43	-37.2	-38.1	24.7	0.00e+00	0	35	101	1048576	52	6025
2026-01-07 13:35:29.82	151.54	18.33	-37.3	-38.1	24.6	0.00e+00	0	35	101	1048576	52	6061
2026-01-07 13:35:30.83	151.68	18.23	-37.4	-38.3	24.5	0.00e+00	0	35	101	1048576	52	6146
2026-01-07 13:35:31.85	151.82	18.13	-37.3	-38.2	24.5	0.00e+00	0	35	101	1048576	52	6122
2026-01-07 13:35:32.86	151.96	18.03	-37.3	-38.2	24.6	0.00e+00	0	35	101	1048576	52	6095
2026-01-07 13:35:33.87	152.09	17.93	-37.4	-38.3	24.5	0.00e+00	0	35	101	1048576	52	6151
2026-01-07 13:35:34.88	152.23	17.83	-37.4	-38.2	24.5	0.00e+00	0	35	101	1048576	52	6130
2026-01-07 13:35:35.89	152.36	17.73	-37.3	-38.2	24.5	0.00e+00	0	35	101	1048576	52	6098
2026-01-07 13:35:36.90	152.49	17.63	-37.5	-38.4	24.3	0.00e+00	0	35	101	1048576	52	6242
2026-01-07 13:35:37.91	152.63	17.53	-37.5	-38.4	24.3	0.00e+00	0	35	101	1048576	52	6265
2026-01-07 13:35:38.92	152.76	17.43	-37.6	-38.6	24.3	0.00e+00	0	35	101	1048576	52	6359
2026-01-07 13:35:39.93	152.89	17.33	-37.7	-38.7	24.1	0.00e+00	0	35	101	1048576	52	6425
2026-01-07 13:35:40.94	153.02	17.24	-37.9	-38.8	23.9	0.00e+00	0	35	101	1048576	52	6571
2026-01-07 13:35:41.95	153.15	17.14	-38.2	-39.2	23.6	0.00e+00	0	35	101	1048576	54	6085
2026-01-07 13:35:42.96	153.27	17.04	-38.5	-39.5	23.3	0.00e+00	0	35	101	1048576	54	6348
2026-01-07 13:35:43.97	153.40	16.94	-38.9	-39.9	22.9	0.00e+00	0	35	101	1048576	54	6617
2026-01-07 13:35:44.98	153.53	16.85	-39.3	-40.4	22.5	0.00e+00	0	35	101	1048576	56	6235
2026-01-07 13:35:45.99	153.65	16.75	-39.7	-40.8	22.1	0.00e+00	0	35	101	1048576	56	6542
2026-01-07 13:35:47.01	153.78	16.65	-40.0	-41.2	21.6	0.00e+00	0	35	101	1048576	56	6857
2026-01-07 13:35:48.01	153.90	16.56	-40.4	-41.6	21.1	0.00e+00	0	35	101	1048576	58	6375
2026-01-07 13:35:49.03	154.03	16.46	-40.8	-42.0	20.7	0.00e+00	0	35	101	1048576	58	6715
2026-01-07 13:35:50.04	154.15	16.36	-41.1	-42.3	20.4	0.00e+00	0	35	101	1048576	58	6956
2026-01-07 13:35:51.05	154.27	16.27	-41.5	-42.8	20.0	0.00e+00	0	35	101	1048576	60	6538
2026-01-07 13:35:52.06	154.39	16.17	-41.9	-43.2	19.6	0.00e+00	0	35	101	1048576	60	6835
2026-01-07 13:35:53.07	154.52	16.08	-42.1	-43.5	19.3	0.00e+00	0	35	101	1048576	60	7065
2026-01-07 13:35:54.08	154.63	15.98	-42.3	-43.7	19.0	0.00e+00	0	35	101	1048576	60	7264
2026-01-07 13:35:55.09	154.75	15.89	-42.5	-43.9	18.8	0.00e+00	0	35	101	1048576	60	7449
2026-01-07 13:35:56.10	154.87	15.79	-42.4	-43.8	18.9	0.00e+00	0	35	101	1048576	60	7364
2026-01-07 13:35:57.11	154.99	15.70	-42.5	-44.0	18.8	0.00e+00	0	35	101	1048576	60	7464
2026-01-07 13:35:58.12	155.11	15.60	-42.4	-43.8	19.0	0.00e+00	0	35	101	1048576	60	7367
2026-01-07 13:35:59.14	155.22	15.51	-42.1	-43.4	19.3	0.00e+00	0	35	101	1048576	60	7033
2026-01-07 13:36:00.15	155.34	15.42	-42.0	-43.3	19.4	0.00e+00	0	35	101	1048576	60	6948
2026-01-07 13:36:01.16	155.45	15.32	-41.8	-43.1	19.7	0.00e+00	0	35	101	1048576	60	6771
2026-01-07 13:36:02.17	155.57	15.23	-41.1	-42.3	20.5	0.00e+00	0	35	101	1048576	60	6187
2026-01-07 13:36:03.18	155.68	15.14	-40.7	-41.9	21.1	0.00e+00	0	35	101	1048576	60	5864
2026-01-07 13:36:04.19	155.79	15.05	-40.6	-41.8	21.3	0.00e+00	0	35	101	1048576	60	5804
2026-01-07 13:36:05.20	155.91	14.95	-40.6	-41.7	21.4	0.00e+00	0	35	101	1048576	60	5784
2026-01-07 13:36:06.21	156.02	14.86	-40.0	-41.1	22.0	0.00e+00	0	35	101	1048576	58	6025
2026-01-07 13:36:07.23	156.13	14.77	-39.4	-40.4	22.6	0.00e+00	0	35	101	1048576	58	5581
2026-01-07 13:36:08.24	156.24	14.68	-39.1	-40.1	22.9	0.00e+00	0	35	101	1048576	56	6032
2026-01-07 13:36:09.25	156.35	14.59	-39.2	-40.1	22.9	0.00e+00	0	35	101	1048576	56	6060
2026-01-07 13:36:10.26	156.46	14.50	-39.1	-40.1	23.0	0.00e+00	0	36	101	1048576	56	6031
2026-01-07 13:36:11.27	156.57	14.40	-38.5	-39.4	23.5	0.00e+00	0	35	101	1048576	56	5591
2026-01-07 13:36:12.28	156.67	14.31	-38.3	-39.2	23.7	0.00e+00	0	35	101	1048576	56	5442
2026-01-07 13:36:13.29	156.78	14.22	-38.3	-39.2	23.8	0.00e+00	0	35	101	1048576	56	5432
