passes_logs/2026/01/07/R4.6S_Anadyr_2ch/R4.6S_Anadyr_2ch__20260107_000818_SUOMI_NPP_rec.log

#Pass ID: 20260107_000818_SUOMI NPP
#Satellite: SUOMI NPP
#Configuration: NPP
#almurnet v.1.7.20251203
#Start time: 2026-01-07 00:08:21

#Version: 2.2.20231116
#Station: R4.6S_Anadyr_2ch
#Location: 177.4865 lon 64.73178 lat
#TLE: 1 37849U 11061A   25350.92281687  .00000071  00000+0  54882-4 0  9996
#TLE: 2 37849  98.7777 288.2268 0002366 112.8570 247.2856 14.19515404732588

#Time	Az	El	Level	Level2	SNR	BER	BlckErr	Temp	State	Recorded	gain1	gain2
2026-01-07 00:08:21.02	152.53	0.17	-51.5	-64.2	3.5	1.52e+00	0	30	0	0	60	76765
2026-01-07 00:08:22.03	152.53	0.23	-51.5	-66.9	3.6	1.51e+00	0	31	104	0	60	107807
2026-01-07 00:08:23.04	152.53	0.29	-51.5	-66.9	3.6	1.51e+00	0	31	104	0	60	108407
2026-01-07 00:08:24.05	152.53	0.35	-51.6	-67.0	3.6	1.51e+00	0	31	104	0	60	108832
2026-01-07 00:08:25.06	152.53	0.41	-51.6	-67.0	3.6	1.51e+00	0	31	104	0	60	109060
2026-01-07 00:08:26.07	152.53	0.47	-51.5	-66.9	3.6	1.51e+00	0	31	104	0	60	108333
2026-01-07 00:08:27.08	152.53	0.53	-51.5	-66.8	3.6	1.51e+00	0	31	104	0	60	107250
2026-01-07 00:08:28.09	152.53	0.60	-51.4	-66.8	3.6	1.51e+00	0	31	104	0	60	106208
2026-01-07 00:08:29.11	152.52	0.66	-51.2	-66.7	3.6	1.51e+00	0	31	104	0	60	105021
2026-01-07 00:08:30.12	152.52	0.72	-51.1	-66.4	3.6	1.51e+00	0	31	104	0	60	102376
2026-01-07 00:08:31.13	152.52	0.78	-50.4	-65.8	3.6	1.51e+00	0	31	104	0	60	94556
2026-01-07 00:08:32.14	152.52	0.84	-50.3	-65.7	3.6	1.51e+00	0	31	104	0	60	93719
2026-01-07 00:08:33.15	152.52	0.91	-50.2	-65.6	3.6	1.51e+00	0	31	104	0	60	92427
2026-01-07 00:08:34.16	152.52	0.97	-50.1	-65.4	3.6	1.51e+00	0	31	104	0	60	91105
2026-01-07 00:08:35.17	152.52	1.03	-50.0	-65.4	3.6	1.51e+00	0	31	104	0	60	90567
2026-01-07 00:08:36.18	152.52	1.10	-50.0	-65.4	3.6	1.51e+00	0	31	104	0	60	90620
2026-01-07 00:08:37.19	152.52	1.16	-50.0	-65.3	3.6	1.51e+00	0	31	104	0	60	90181
2026-01-07 00:08:38.20	152.52	1.22	-50.0	-65.4	3.6	1.51e+00	0	31	104	0	60	90359
2026-01-07 00:08:39.22	152.52	1.29	-50.0	-65.3	3.6	1.51e+00	0	31	104	0	60	90241
2026-01-07 00:08:40.23	152.51	1.35	-50.0	-65.3	3.6	1.51e+00	0	31	104	0	60	89798
2026-01-07 00:08:41.24	152.51	1.41	-50.0	-65.3	3.6	1.51e+00	0	31	104	0	60	89504
2026-01-07 00:08:42.25	152.51	1.48	-50.0	-65.2	3.6	1.51e+00	0	31	104	0	60	88850
2026-01-07 00:08:43.26	152.51	1.54	-50.0	-65.2	3.6	1.51e+00	0	31	104	0	60	88777
2026-01-07 00:08:44.27	152.51	1.60	-50.0	-65.2	3.6	1.51e+00	0	31	104	0	60	89011
2026-01-07 00:08:45.28	152.51	1.67	-50.0	-65.3	3.6	1.51e+00	0	31	104	0	60	89263
2026-01-07 00:08:46.29	152.51	1.73	-50.0	-65.2	3.6	1.51e+00	0	31	104	0	60	89178
2026-01-07 00:08:47.30	152.51	1.80	-50.0	-65.3	3.6	1.51e+00	0	31	104	0	60	89406
2026-01-07 00:08:48.31	152.51	1.86	-50.0	-65.2	3.6	1.51e+00	0	31	104	0	60	89104
2026-01-07 00:08:49.32	152.50	1.93	-50.0	-65.3	3.6	1.51e+00	0	31	104	0	60	90048
2026-01-07 00:08:50.33	152.50	1.99	-50.0	-65.3	3.6	1.51e+00	0	31	104	0	60	89846
2026-01-07 00:08:51.34	152.50	2.06	-50.0	-65.4	3.6	1.51e+00	0	31	104	0	60	90449
2026-01-07 00:08:52.35	152.50	2.12	-50.0	-65.4	3.6	1.51e+00	0	31	104	0	60	90283
2026-01-07 00:08:53.36	152.50	2.19	-50.0	-65.3	3.6	1.51e+00	0	31	104	0	60	89970
2026-01-07 00:08:54.37	152.50	2.25	-50.0	-65.3	3.6	1.51e+00	0	31	104	0	60	89885
2026-01-07 00:08:55.38	152.50	2.32	-50.0	-65.3	3.6	1.51e+00	0	31	104	0	60	90046
2026-01-07 00:08:56.39	152.50	2.38	-50.0	-65.2	3.6	1.51e+00	0	31	104	0	60	88959
2026-01-07 00:08:57.40	152.49	2.45	-50.0	-65.1	3.6	1.51e+00	0	31	104	0	60	87757
2026-01-07 00:08:58.41	152.49	2.52	-50.0	-65.0	3.6	1.51e+00	0	31	104	0	60	86902
2026-01-07 00:08:59.42	152.49	2.58	-50.0	-65.0	3.6	1.51e+00	0	31	104	0	60	86345
2026-01-07 00:09:00.43	152.49	2.65	-50.0	-65.0	3.6	1.51e+00	0	31	104	0	60	86538
2026-01-07 00:09:01.44	152.49	2.71	-50.0	-65.1	3.6	1.51e+00	0	31	104	0	60	88170
2026-01-07 00:09:02.45	152.49	2.78	-50.0	-65.3	3.6	1.51e+00	0	31	104	0	60	89589
2026-01-07 00:09:03.46	152.49	2.85	-50.0	-65.3	3.6	1.51e+00	0	31	104	0	60	89826
2026-01-07 00:09:04.48	152.48	2.92	-50.0	-64.6	3.6	1.51e+00	0	31	104	0	60	83216
2026-01-07 00:09:05.49	152.48	2.98	-49.9	-63.1	3.7	1.51e+00	0	31	104	0	60	70035
2026-01-07 00:09:06.50	152.48	3.05	-49.8	-60.6	4.4	1.26e+00	87	31	0	0	60	52101
2026-01-07 00:09:07.51	152.48	3.12	-49.5	-57.6	5.8	5.38e-01	0	31	102	1048576	60	37044
2026-01-07 00:09:08.52	152.48	3.19	-49.2	-56.1	7.3	2.23e-01	92	31	102	1048576	60	31115
2026-01-07 00:09:09.53	152.48	3.25	-48.8	-54.5	9.4	2.87e-02	51	31	102	1048576	60	25799
2026-01-07 00:09:10.54	152.48	3.32	-48.4	-53.5	10.5	7.87e-03	90	31	102	1048576	60	22970
2026-01-07 00:09:11.55	152.47	3.39	-48.1	-52.7	11.4	2.15e-03	91	31	102	1048576	60	21023
2026-01-07 00:09:12.56	152.47	3.46	-47.9	-52.1	12.0	4.95e-04	0	31	102	1048576	60	19542
2026-01-07 00:09:13.57	152.47	3.53	-47.8	-51.8	12.4	1.85e-04	92	31	102	1048576	60	19062
2026-01-07 00:09:14.58	152.47	3.59	-47.8	-51.9	12.2	1.69e-04	0	32	102	1048576	60	19163
2026-01-07 00:09:15.59	152.47	3.66	-48.4	-53.6	9.4	2.12e-04	92	31	102	1048576	60	23207
2026-01-07 00:09:16.60	152.47	3.73	-50.2	-65.5	3.6	1.51e+00	0	32	104	1048576	60	91884
2026-01-07 00:09:17.61	152.46	3.80	-48.7	-54.5	10.6	1.40e+00	92	31	104	1048576	60	25809
2026-01-07 00:09:18.62	152.46	3.87	-49.9	-64.5	3.6	1.02e+00	0	32	104	1048576	60	81682
2026-01-07 00:09:19.63	152.46	3.94	-46.8	-50.1	13.4	3.40e-01	0	31	104	1048576	60	15604
2026-01-07 00:09:20.64	152.46	4.01	-50.0	-64.3	4.0	1.51e+00	0	32	104	1048576	60	79787
2026-01-07 00:09:21.65	152.46	4.08	-46.3	-49.2	14.7	9.90e-01	0	31	104	1048576	60	14070
2026-01-07 00:09:22.66	152.45	4.15	-45.6	-48.0	16.5	0.00e+00	92	32	0	1048576	60	12280
2026-01-07 00:09:23.67	152.45	4.22	-45.1	-47.3	17.1	0.00e+00	0	31	0	1048576	60	11263
2026-01-07 00:09:24.68	152.45	4.29	-45.0	-47.1	17.3	0.00e+00	92	31	0	1048576	60	11075
2026-01-07 00:09:25.69	152.45	4.36	-44.9	-47.0	17.4	0.00e+00	92	31	0	1048576	60	10888
2026-01-07 00:09:26.70	152.45	4.43	-45.0	-47.0	17.3	0.00e+00	0	32	0	1048576	60	10971
2026-01-07 00:09:27.71	152.44	4.50	-45.0	-47.1	17.3	0.00e+00	92	32	0	1048576	60	10983
2026-01-07 00:09:28.72	152.44	4.57	-44.9	-46.9	17.4	0.00e+00	0	32	0	1048576	60	10828
2026-01-07 00:09:29.74	152.44	4.65	-44.8	-46.8	17.6	0.00e+00	92	32	0	1048576	60	10680
2026-01-07 00:09:30.75	152.44	4.72	-44.7	-46.6	17.8	0.00e+00	0	32	0	1048576	60	10389
2026-01-07 00:09:31.76	152.44	4.79	-44.7	-46.7	17.7	0.00e+00	92	32	0	1048576	60	10527
2026-01-07 00:09:32.77	152.43	4.86	-44.7	-46.6	17.9	0.00e+00	51	32	0	1048576	60	10424
2026-01-07 00:09:33.78	152.43	4.93	-44.5	-46.4	18.0	0.00e+00	0	31	0	1048576	60	10163
2026-01-07 00:09:34.79	152.43	5.01	-44.6	-46.5	18.1	0.00e+00	66	32	0	1048576	60	10255
2026-01-07 00:09:35.80	152.43	5.08	-44.5	-46.4	18.0	0.00e+00	0	32	0	1048576	60	10155
2026-01-07 00:09:36.81	152.43	5.15	-44.5	-46.4	18.1	0.00e+00	92	32	0	1048576	60	10165
2026-01-07 00:09:37.82	152.42	5.23	-44.6	-46.4	18.0	0.00e+00	0	32	0	1048576	60	10214
2026-01-07 00:09:38.83	152.42	5.30	-44.5	-46.3	18.2	0.00e+00	92	32	0	1048576	60	10049
2026-01-07 00:09:39.84	152.42	5.37	-44.6	-46.4	18.0	0.00e+00	92	32	101	1048576	60	10179
2026-01-07 00:09:40.85	152.42	5.45	-44.5	-46.3	18.1	0.00e+00	0	32	101	1048576	60	10103
2026-01-07 00:09:41.86	152.41	5.52	-44.6	-46.4	18.0	0.00e+00	92	32	101	1048576	60	10191
2026-01-07 00:09:42.87	152.41	5.59	-44.6	-46.4	18.2	0.00e+00	0	32	101	1048576	60	10170
2026-01-07 00:09:43.88	152.41	5.67	-44.5	-46.3	18.1	0.00e+00	92	32	101	1048576	60	10108
2026-01-07 00:09:44.90	152.41	5.74	-44.4	-46.2	18.3	0.00e+00	0	32	101	1048576	60	9954
2026-01-07 00:09:45.91	152.40	5.82	-44.5	-46.3	18.3	0.00e+00	91	32	101	1048576	60	10113
2026-01-07 00:09:46.92	152.40	5.89	-44.3	-46.1	18.4	0.00e+00	46	32	101	1048576	60	9833
2026-01-07 00:09:47.93	152.40	5.97	-44.5	-46.3	18.3	0.00e+00	36	32	101	1048576	60	10037
2026-01-07 00:09:48.94	152.40	6.04	-44.5	-46.3	18.3	0.00e+00	92	32	101	1048576	60	10059
2026-01-07 00:09:49.95	152.39	6.12	-44.4	-46.2	18.4	0.00e+00	0	32	101	1048576	60	9961
2026-01-07 00:09:50.96	152.39	6.19	-44.4	-46.1	18.6	0.00e+00	68	32	101	1048576	60	9843
2026-01-07 00:09:51.97	152.39	6.27	-44.1	-45.8	18.8	0.00e+00	0	31	101	1048576	60	9532
2026-01-07 00:09:52.98	152.39	6.35	-44.1	-45.7	18.8	0.00e+00	90	32	101	1048576	60	9435
2026-01-07 00:09:54.00	152.38	6.42	-44.1	-45.7	18.8	0.00e+00	0	31	101	1048576	60	9449
2026-01-07 00:09:55.01	152.38	6.50	-44.0	-45.6	18.9	0.00e+00	91	32	101	1048576	60	9329
2026-01-07 00:09:56.02	152.38	6.58	-44.3	-46.0	18.6	0.00e+00	91	32	101	1048576	60	9706
2026-01-07 00:09:57.03	152.38	6.65	-44.2	-46.0	18.7	0.00e+00	0	32	101	1048576	60	9682
2026-01-07 00:09:58.04	152.37	6.73	-44.2	-45.9	18.8	0.00e+00	56	32	101	1048576	60	9592
2026-01-07 00:09:59.05	152.37	6.81	-44.2	-45.9	18.8	0.00e+00	0	32	101	1048576	60	9585
2026-01-07 00:10:00.06	152.37	6.89	-43.9	-45.4	19.2	0.00e+00	92	32	101	1048576	60	9124
2026-01-07 00:10:01.07	152.36	6.96	-44.0	-45.6	19.0	0.00e+00	0	32	101	1048576	60	9330
2026-01-07 00:10:02.08	152.36	7.04	-44.0	-45.6	19.1	0.00e+00	92	32	101	1048576	60	9277
2026-01-07 00:10:03.09	152.36	7.12	-43.8	-45.4	19.2	0.00e+00	92	32	101	1048576	60	9038
2026-01-07 00:10:04.10	152.36	7.20	-43.9	-45.5	19.1	0.00e+00	0	32	101	1048576	60	9221
2026-01-07 00:10:05.11	152.35	7.28	-44.0	-45.6	19.2	0.00e+00	57	32	101	1048576	60	9241
2026-01-07 00:10:06.12	152.35	7.36	-43.7	-45.3	19.4	0.00e+00	0	32	101	1048576	60	8935
2026-01-07 00:10:07.13	152.35	7.44	-43.8	-45.3	19.4	0.00e+00	92	32	101	1048576	60	8982
2026-01-07 00:10:08.14	152.34	7.52	-43.7	-45.2	19.6	0.00e+00	0	32	101	1048576	60	8850
2026-01-07 00:10:09.16	152.34	7.60	-43.9	-45.5	19.2	0.00e+00	92	32	101	1048576	60	9191
2026-01-07 00:10:10.17	152.34	7.68	-43.6	-45.0	19.6	0.00e+00	56	32	101	1048576	60	8720
2026-01-07 00:10:11.18	152.33	7.76	-43.6	-45.0	19.6	0.00e+00	0	32	101	1048576	60	8718
2026-01-07 00:10:12.19	152.33	7.84	-43.6	-45.1	19.6	0.00e+00	57	32	101	1048576	60	8748
2026-01-07 00:10:13.19	152.33	7.92	-43.5	-44.9	19.8	0.00e+00	0	32	101	1048576	60	8575
2026-01-07 00:10:14.20	152.32	8.00	-43.4	-44.9	19.8	0.00e+00	92	32	101	1048576	60	8550
2026-01-07 00:10:15.21	152.32	8.08	-43.5	-44.9	19.8	0.00e+00	0	32	101	1048576	60	8580
2026-01-07 00:10:16.23	152.32	8.16	-43.2	-44.6	20.0	0.00e+00	92	32	101	1048576	60	8288
2026-01-07 00:10:17.23	152.31	8.25	-43.4	-44.8	19.9	0.00e+00	64	32	101	1048576	60	8518
2026-01-07 00:10:18.24	152.31	8.33	-43.4	-44.8	20.0	0.00e+00	0	32	101	1048576	60	8501
2026-01-07 00:10:19.25	152.31	8.41	-43.2	-44.6	20.1	0.00e+00	83	32	101	1048576	60	8304
2026-01-07 00:10:20.26	152.30	8.49	-43.3	-44.7	20.2	0.00e+00	0	32	101	1048576	60	8337
2026-01-07 00:10:21.27	152.30	8.58	-43.3	-44.7	20.1	0.00e+00	92	32	101	1048576	60	8391
2026-01-07 00:10:22.28	152.29	8.66	-43.2	-44.6	20.1	0.00e+00	0	32	101	1048576	60	8314
2026-01-07 00:10:23.29	152.29	8.74	-43.3	-44.7	20.1	0.00e+00	92	32	101	1048576	60	8346
2026-01-07 00:10:24.30	152.29	8.83	-43.1	-44.4	20.4	0.00e+00	18	32	101	1048576	60	8120
2026-01-07 00:10:25.31	152.28	8.91	-43.2	-44.6	20.1	0.00e+00	0	32	101	1048576	60	8313
2026-01-07 00:10:26.32	152.28	9.00	-43.1	-44.5	20.3	0.00e+00	92	32	101	1048576	60	8150
2026-01-07 00:10:27.33	152.28	9.08	-43.1	-44.4	20.3	0.00e+00	0	32	101	1048576	60	8135
2026-01-07 00:10:28.34	152.27	9.17	-43.2	-44.6	20.3	0.00e+00	92	32	101	1048576	60	8253
2026-01-07 00:10:29.35	152.27	9.25	-43.1	-44.5	20.3	0.00e+00	0	32	101	1048576	60	8168
2026-01-07 00:10:30.36	152.26	9.34	-43.1	-44.4	20.3	0.00e+00	70	32	101	1048576	60	8118
2026-01-07 00:10:31.37	152.26	9.42	-42.8	-44.1	20.6	0.00e+00	21	32	101	1048576	60	7844
2026-01-07 00:10:32.39	152.26	9.51	-42.7	-44.0	20.8	0.00e+00	15	32	101	1048576	60	7734
2026-01-07 00:10:33.40	152.25	9.60	-42.9	-44.2	20.7	0.00e+00	92	32	101	1048576	60	7916
2026-01-07 00:10:34.41	152.25	9.68	-43.1	-44.4	20.4	0.00e+00	0	32	101	1048576	60	8082
2026-01-07 00:10:35.42	152.24	9.77	-42.9	-44.2	20.6	0.00e+00	92	32	101	1048576	60	7914
2026-01-07 00:10:36.43	152.24	9.86	-42.8	-44.0	20.7	0.00e+00	33	32	101	1048576	60	7745
2026-01-07 00:10:37.44	152.24	9.95	-42.5	-43.7	21.0	0.00e+00	92	32	101	1048576	60	7501
2026-01-07 00:10:38.45	152.23	10.03	-42.8	-44.0	20.7	0.00e+00	0	32	101	1048576	60	7747
2026-01-07 00:10:39.46	152.23	10.12	-42.6	-43.9	20.9	0.00e+00	15	32	101	1048576	60	7602
2026-01-07 00:10:40.47	152.22	10.21	-42.6	-43.9	20.8	0.00e+00	92	32	101	1048576	60	7627
2026-01-07 00:10:41.48	152.22	10.30	-42.7	-44.0	20.8	0.00e+00	0	32	101	1048576	60	7743
2026-01-07 00:10:42.49	152.21	10.39	-42.6	-43.9	20.9	0.00e+00	58	32	101	1048576	60	7624
2026-01-07 00:10:43.50	152.21	10.48	-42.8	-44.0	20.8	0.00e+00	0	32	101	1048576	60	7759
2026-01-07 00:10:44.52	152.20	10.57	-42.8	-44.1	20.7	0.00e+00	92	32	101	1048576	60	7810
2026-01-07 00:10:45.53	152.20	10.66	-43.0	-44.3	20.6	0.00e+00	0	32	101	1048576	60	7959
2026-01-07 00:10:46.54	152.19	10.75	-42.9	-44.2	20.6	0.00e+00	50	32	101	1048576	60	7938
2026-01-07 00:10:47.55	152.19	10.84	-42.8	-44.1	20.8	0.00e+00	91	32	101	1048576	60	7829
2026-01-07 00:10:48.56	152.18	10.93	-42.7	-43.9	20.7	0.00e+00	0	32	101	1048576	60	7640
2026-01-07 00:10:49.56	152.18	11.03	-42.6	-43.8	20.9	0.00e+00	91	32	101	1048576	60	7542
2026-01-07 00:10:50.57	152.17	11.12	-42.5	-43.8	21.1	0.00e+00	0	32	101	1048576	60	7514
2026-01-07 00:10:51.59	152.17	11.21	-42.2	-43.4	21.3	0.00e+00	92	32	101	1048576	60	7190
2026-01-07 00:10:52.60	152.16	11.30	-42.1	-43.2	21.5	0.00e+00	0	32	101	1048576	60	7045
2026-01-07 00:10:53.61	152.16	11.40	-41.9	-43.0	21.7	0.00e+00	92	32	101	1048576	60	6909
2026-01-07 00:10:54.62	152.15	11.49	-42.0	-43.1	21.6	0.00e+00	57	32	101	1048576	60	6991
2026-01-07 00:10:55.63	152.15	11.58	-42.0	-43.1	21.6	0.00e+00	0	32	101	1048576	60	6947
2026-01-07 00:10:56.64	152.14	11.68	-42.1	-43.2	21.6	0.00e+00	90	32	101	1048576	60	7047
2026-01-07 00:10:57.65	152.14	11.77	-41.9	-43.1	21.7	0.00e+00	0	32	101	1048576	60	6945
2026-01-07 00:10:58.66	152.13	11.87	-41.9	-43.0	21.8	0.00e+00	90	32	101	1048576	60	6926
2026-01-07 00:10:59.67	152.13	11.96	-42.3	-43.4	21.4	0.00e+00	0	32	101	1048576	60	7241
2026-01-07 00:11:00.68	152.12	12.06	-41.9	-43.0	21.7	0.00e+00	90	32	101	1048576	60	6888
2026-01-07 00:11:01.69	152.12	12.15	-41.9	-43.0	21.8	0.00e+00	54	32	101	1048576	60	6879
2026-01-07 00:11:02.70	152.11	12.25	-42.3	-43.5	21.4	0.00e+00	79	32	101	1048576	60	7296
2026-01-07 00:11:03.71	152.11	12.35	-41.8	-43.0	21.8	0.00e+00	92	32	101	1048576	60	6860
2026-01-07 00:11:04.72	152.10	12.45	-41.9	-43.1	21.7	0.00e+00	0	32	101	1048576	60	6933
2026-01-07 00:11:05.74	152.09	12.54	-41.7	-42.8	22.0	0.00e+00	92	32	101	1048576	60	6696
2026-01-07 00:11:06.75	152.09	12.64	-41.8	-42.9	21.8	0.00e+00	0	32	101	1048576	60	6816
2026-01-07 00:11:07.75	152.08	12.74	-41.8	-42.9	21.8	0.00e+00	90	32	101	1048576	60	6814
2026-01-07 00:11:08.77	152.08	12.84	-41.5	-42.6	22.1	0.00e+00	27	32	101	1048576	60	6566
2026-01-07 00:11:09.78	152.07	12.94	-41.6	-42.7	22.1	0.00e+00	92	32	101	1048576	60	6624
2026-01-07 00:11:10.79	152.07	13.04	-41.3	-42.4	22.3	0.00e+00	92	32	101	1048576	60	6400
2026-01-07 00:11:11.80	152.06	13.14	-41.4	-42.5	22.3	0.00e+00	0	32	101	1048576	60	6504
2026-01-07 00:11:12.81	152.05	13.24	-41.4	-42.4	22.3	0.00e+00	90	32	101	1048576	60	6441
2026-01-07 00:11:13.82	152.05	13.34	-41.3	-42.3	22.4	0.00e+00	0	32	101	1048576	60	6347
2026-01-07 00:11:14.83	152.04	13.44	-41.1	-42.2	22.6	0.00e+00	92	32	101	1048576	60	6258
2026-01-07 00:11:15.84	152.03	13.54	-41.3	-42.3	22.5	0.00e+00	0	32	101	1048576	60	6366
2026-01-07 00:11:16.85	152.03	13.64	-41.2	-42.2	22.5	0.00e+00	92	32	101	1048576	60	6269
2026-01-07 00:11:17.86	152.02	13.75	-41.2	-42.2	22.4	0.00e+00	90	32	101	1048576	60	6297
2026-01-07 00:11:18.87	152.01	13.85	-41.2	-42.3	22.4	0.00e+00	0	32	101	1048576	60	6345
2026-01-07 00:11:19.88	152.01	13.95	-41.2	-42.3	22.5	0.00e+00	91	32	101	1048576	60	6320
2026-01-07 00:11:20.89	152.00	14.06	-41.1	-42.1	22.6	0.00e+00	0	32	101	1048576	60	6212
2026-01-07 00:11:21.90	151.99	14.16	-41.3	-42.3	22.4	0.00e+00	92	32	101	1048576	60	6358
2026-01-07 00:11:22.91	151.99	14.27	-41.0	-42.0	22.6	0.00e+00	9	32	101	1048576	60	6153
2026-01-07 00:11:23.92	151.98	14.37	-41.0	-42.0	22.7	0.00e+00	92	32	101	1048576	60	6165
2026-01-07 00:11:24.93	151.97	14.48	-41.0	-41.9	22.8	0.00e+00	92	32	101	1048576	60	6102
2026-01-07 00:11:25.94	151.97	14.58	-41.1	-42.1	22.6	0.00e+00	0	32	101	1048576	60	6227
2026-01-07 00:11:26.95	151.96	14.69	-40.7	-41.7	23.0	0.00e+00	68	32	101	1048576	60	5914
2026-01-07 00:11:27.97	151.95	14.80	-40.7	-41.6	23.0	0.00e+00	0	32	101	1048576	60	5895
2026-01-07 00:11:28.98	151.94	14.90	-40.6	-41.5	23.0	0.00e+00	92	32	101	1048576	60	5810
2026-01-07 00:11:29.99	151.94	15.01	-40.5	-41.4	23.1	0.00e+00	0	32	101	1048576	60	5752
2026-01-07 00:11:31.00	151.93	15.12	-40.5	-41.4	23.1	0.00e+00	91	32	101	1048576	60	5742
2026-01-07 00:11:32.01	151.92	15.23	-40.6	-41.5	23.1	0.00e+00	90	32	101	1048576	60	5823
2026-01-07 00:11:33.02	151.91	15.34	-40.4	-41.4	23.1	0.00e+00	0	32	101	1048576	60	5696
2026-01-07 00:11:34.03	151.91	15.45	-40.4	-41.3	23.1	0.00e+00	92	32	101	1048576	60	5694
2026-01-07 00:11:35.04	151.90	15.56	-40.3	-41.3	23.2	0.00e+00	0	32	101	1048576	60	5631
2026-01-07 00:11:36.05	151.89	15.67	-40.3	-41.2	23.3	0.00e+00	91	32	101	1048576	60	5608
2026-01-07 00:11:37.06	151.88	15.78	-40.4	-41.4	23.0	0.00e+00	0	32	101	1048576	60	5708
2026-01-07 00:11:38.07	151.88	15.89	-40.4	-41.3	23.2	0.00e+00	92	32	101	1048576	60	5663
2026-01-07 00:11:39.09	151.87	16.01	-40.2	-41.2	23.3	0.00e+00	60	32	101	1048576	60	5572
2026-01-07 00:11:40.10	151.86	16.12	-40.2	-41.1	22.8	0.00e+00	0	32	101	1048576	60	5564
2026-01-07 00:11:41.11	151.85	16.23	-40.4	-41.3	23.2	0.00e+00	92	32	101	1048576	60	5684
2026-01-07 00:11:42.12	151.84	16.35	-40.4	-41.3	22.9	0.00e+00	0	32	101	1048576	60	5670
2026-01-07 00:11:43.13	151.83	16.46	-40.2	-41.2	23.4	0.00e+00	72	32	101	1048576	60	5567
2026-01-07 00:11:44.14	151.83	16.58	-40.0	-40.9	23.3	0.00e+00	0	32	101	1048576	58	6094
2026-01-07 00:11:45.15	151.82	16.69	-40.3	-41.2	23.4	0.00e+00	92	32	101	1048576	58	6300
2026-01-07 00:11:46.16	151.81	16.81	-40.2	-41.1	23.4	0.00e+00	92	32	101	1048576	58	6220
2026-01-07 00:11:47.17	151.80	16.93	-39.9	-40.7	23.5	0.00e+00	0	32	101	1048576	58	5959
2026-01-07 00:11:48.18	151.79	17.04	-39.8	-40.7	23.7	0.00e+00	91	32	101	1048576	58	5950
2026-01-07 00:11:49.19	151.78	17.16	-39.9	-40.8	23.5	0.00e+00	0	32	101	1048576	58	6019
2026-01-07 00:11:50.20	151.77	17.28	-40.1	-41.0	23.4	0.00e+00	91	32	101	1048576	58	6125
2026-01-07 00:11:51.21	151.76	17.40	-40.1	-41.0	23.4	0.00e+00	0	32	101	1048576	58	6144
2026-01-07 00:11:52.22	151.75	17.52	-40.2	-41.1	23.4	0.00e+00	92	32	101	1048576	58	6189
2026-01-07 00:11:53.23	151.74	17.64	-40.2	-41.1	23.4	0.00e+00	59	32	101	1048576	58	6176
2026-01-07 00:11:54.25	151.74	17.76	-40.2	-41.2	23.4	0.00e+00	0	32	101	1048576	58	6257
2026-01-07 00:11:55.26	151.73	17.88	-40.3	-41.2	23.5	0.00e+00	92	32	101	1048576	58	6263
2026-01-07 00:11:56.27	151.72	18.01	-40.0	-40.9	23.5	0.00e+00	0	32	101	1048576	58	6100
2026-01-07 00:11:57.28	151.71	18.13	-40.1	-41.1	23.5	0.00e+00	92	32	101	1048576	58	6184
2026-01-07 00:11:58.28	151.70	18.25	-40.1	-41.0	23.5	0.00e+00	0	32	101	1048576	58	6152
2026-01-07 00:11:59.29	151.69	18.37	-40.0	-40.9	23.6	0.00e+00	92	32	101	1048576	58	6100
2026-01-07 00:12:00.30	151.68	18.50	-39.8	-40.7	23.7	0.00e+00	0	32	101	1048576	58	5939
2026-01-07 00:12:01.30	151.67	18.62	-39.8	-40.7	23.8	0.00e+00	73	32	101	1048576	58	5903
2026-01-07 00:12:02.31	151.66	18.75	-39.8	-40.7	23.8	0.00e+00	90	32	101	1048576	58	5938
2026-01-07 00:12:03.32	151.65	18.88	-39.7	-40.6	23.8	0.00e+00	0	32	101	1048576	58	5849
2026-01-07 00:12:04.33	151.63	19.00	-39.7	-40.5	23.9	0.00e+00	68	32	101	1048576	58	5803
2026-01-07 00:12:05.34	151.62	19.13	-39.8	-40.6	23.8	0.00e+00	0	32	101	1048576	58	5873
2026-01-07 00:12:06.34	151.61	19.26	-39.7	-40.6	23.8	0.00e+00	92	32	101	1048576	58	5832
2026-01-07 00:12:07.35	151.60	19.39	-39.9	-40.8	23.7	0.00e+00	0	32	101	1048576	58	5965
2026-01-07 00:12:08.36	151.59	19.52	-39.9	-40.8	23.8	0.00e+00	92	32	101	1048576	58	5977
2026-01-07 00:12:09.37	151.58	19.65	-39.9	-40.7	23.7	0.00e+00	92	32	101	1048576	58	5959
2026-01-07 00:12:10.38	151.57	19.78	-40.0	-40.9	23.6	0.00e+00	0	32	101	1048576	58	6067
2026-01-07 00:12:11.38	151.56	19.91	-40.0	-40.9	23.5	0.00e+00	71	32	101	1048576	58	6059
2026-01-07 00:12:12.39	151.55	20.04	-40.1	-41.0	23.5	0.00e+00	0	32	101	1048576	58	6143
2026-01-07 00:12:13.40	151.53	20.17	-40.2	-41.1	23.5	0.00e+00	92	32	101	1048576	58	6230
2026-01-07 00:12:14.41	151.52	20.31	-40.3	-41.3	23.4	0.00e+00	0	32	101	1048576	58	6336
2026-01-07 00:12:15.42	151.51	20.44	-40.3	-41.2	23.5	0.00e+00	92	32	101	1048576	58	6280
2026-01-07 00:12:16.43	151.50	20.58	-40.3	-41.2	23.3	0.00e+00	60	32	101	1048576	58	6315
2026-01-07 00:12:17.44	151.49	20.71	-40.3	-41.2	23.4	0.00e+00	60	32	101	1048576	58	6267
2026-01-07 00:12:18.45	151.47	20.85	-40.5	-41.5	23.4	0.00e+00	92	32	101	1048576	58	6484
2026-01-07 00:12:19.47	151.46	20.99	-40.2	-41.1	23.5	0.00e+00	0	32	101	1048576	58	6238
2026-01-07 00:12:20.48	151.45	21.13	-40.2	-41.2	23.4	0.00e+00	92	32	101	1048576	58	6253
2026-01-07 00:12:21.49	151.44	21.27	-40.3	-41.2	23.3	0.00e+00	0	32	101	1048576	58	6316
2026-01-07 00:12:22.50	151.42	21.41	-40.3	-41.3	23.4	0.00e+00	90	32	101	1048576	58	6339
2026-01-07 00:12:23.51	151.41	21.55	-40.4	-41.3	23.3	0.00e+00	58	32	101	1048576	58	6354
2026-01-07 00:12:24.52	151.40	21.69	-40.3	-41.3	23.4	0.00e+00	0	32	101	1048576	58	6344
2026-01-07 00:12:25.53	151.38	21.83	-40.5	-41.4	23.1	0.00e+00	90	32	101	1048576	58	6454
2026-01-07 00:12:26.54	151.37	21.97	-40.6	-41.5	23.2	0.00e+00	0	32	101	1048576	58	6518
2026-01-07 00:12:27.55	151.36	22.12	-40.6	-41.5	23.2	0.00e+00	92	32	101	1048576	58	6519
2026-01-07 00:12:28.56	151.34	22.26	-40.5	-41.5	23.2	0.00e+00	0	32	101	1048576	58	6468
2026-01-07 00:12:29.57	151.33	22.41	-40.6	-41.6	23.2	0.00e+00	90	32	101	1048576	58	6586
2026-01-07 00:12:30.58	151.31	22.55	-40.6	-41.6	23.2	0.00e+00	0	32	101	1048576	58	6581
2026-01-07 00:12:31.59	151.30	22.70	-40.6	-41.5	23.1	0.00e+00	90	32	101	1048576	58	6527
2026-01-07 00:12:32.60	151.28	22.85	-40.4	-41.3	23.3	0.00e+00	92	32	101	1048576	58	6384
2026-01-07 00:12:33.61	151.27	23.00	-40.3	-41.3	23.4	0.00e+00	0	32	101	1048576	58	6319
2026-01-07 00:12:34.62	151.26	23.15	-40.2	-41.1	23.4	0.00e+00	59	32	101	1048576	58	6216
2026-01-07 00:12:35.63	151.24	23.30	-40.2	-41.1	23.5	0.00e+00	0	32	101	1048576	58	6237
2026-01-07 00:12:36.64	151.23	23.45	-40.1	-41.0	23.6	0.00e+00	92	32	101	1048576	58	6121
2026-01-07 00:12:37.65	151.21	23.60	-40.1	-41.0	23.6	0.00e+00	0	32	101	1048576	58	6156
2026-01-07 00:12:38.66	151.19	23.75	-40.0	-40.9	23.6	0.00e+00	92	32	101	1048576	58	6056
2026-01-07 00:12:39.67	151.18	23.91	-39.9	-40.8	23.8	0.00e+00	92	32	101	1048576	58	5995
2026-01-07 00:12:40.68	151.16	24.06	-39.8	-40.7	23.8	0.00e+00	0	32	101	1048576	58	5908
2026-01-07 00:12:41.70	151.15	24.22	-39.9	-40.8	23.6	0.00e+00	90	32	101	1048576	58	5992
2026-01-07 00:12:42.71	151.13	24.38	-40.2	-41.2	23.4	0.00e+00	0	32	101	1048576	58	6264
2026-01-07 00:12:43.72	151.11	24.54	-40.2	-41.1	23.5	0.00e+00	90	32	101	1048576	58	6183
2026-01-07 00:12:44.73	151.10	24.69	-40.1	-41.0	23.4	0.00e+00	0	32	101	1048576	58	6163
2026-01-07 00:12:45.74	151.08	24.85	-40.4	-41.3	23.5	0.00e+00	92	32	101	1048576	58	6366
2026-01-07 00:12:46.75	151.06	25.01	-40.3	-41.2	23.5	0.00e+00	59	32	101	1048576	58	6282
2026-01-07 00:12:47.76	151.05	25.18	-40.1	-41.0	23.6	0.00e+00	0	32	101	1048576	58	6137
2026-01-07 00:12:48.77	151.03	25.34	-40.1	-41.0	23.6	0.00e+00	92	32	101	1048576	58	6160
2026-01-07 00:12:49.78	151.01	25.50	-40.2	-41.1	23.6	0.00e+00	0	32	101	1048576	58	6217
2026-01-07 00:12:50.79	150.99	25.67	-40.6	-41.6	23.1	0.00e+00	88	32	101	1048576	58	6558
2026-01-07 00:12:51.80	150.97	25.83	-40.7	-41.6	23.1	0.00e+00	0	32	101	1048576	58	6611
2026-01-07 00:12:52.81	150.96	26.00	-40.1	-41.0	23.7	0.00e+00	92	32	101	1048576	58	6155
2026-01-07 00:12:53.82	150.94	26.17	-40.1	-41.0	23.8	0.00e+00	52	32	101	1048576	58	6151
2026-01-07 00:12:54.83	150.92	26.34	-40.1	-40.9	23.7	0.00e+00	12	32	101	1048576	58	6098
2026-01-07 00:12:55.84	150.90	26.51	-40.2	-41.1	23.6	0.00e+00	92	32	101	1048576	58	6227
2026-01-07 00:12:56.85	150.88	26.68	-40.4	-41.4	23.4	0.00e+00	0	32	101	1048576	58	6404
2026-01-07 00:12:57.86	150.86	26.85	-40.5	-41.4	23.2	0.00e+00	92	32	101	1048576	58	6426
2026-01-07 00:12:58.87	150.84	27.02	-40.9	-41.9	22.9	0.00e+00	0	32	101	1048576	58	6788
2026-01-07 00:12:59.88	150.82	27.20	-40.7	-41.6	22.9	0.00e+00	92	32	101	1048576	58	6612
2026-01-07 00:13:00.89	150.80	27.37	-41.1	-42.0	22.9	0.00e+00	22	32	101	1048576	60	6158
2026-01-07 00:13:01.90	150.78	27.55	-41.2	-42.1	22.8	0.00e+00	43	32	101	1048576	60	6226
2026-01-07 00:13:02.92	150.76	27.73	-41.3	-42.3	22.7	0.00e+00	91	32	101	1048576	60	6353
2026-01-07 00:13:03.93	150.74	27.91	-41.0	-41.9	22.9	0.00e+00	0	32	101	1048576	60	6096
2026-01-07 00:13:04.94	150.71	28.09	-41.1	-42.1	23.0	0.00e+00	90	32	101	1048576	60	6184
2026-01-07 00:13:05.95	150.69	28.27	-40.8	-41.8	23.0	0.00e+00	0	32	101	1048576	60	5996
2026-01-07 00:13:06.96	150.67	28.45	-41.0	-42.0	23.0	0.00e+00	92	32	101	1048576	60	6121
2026-01-07 00:13:07.97	150.65	28.63	-40.8	-41.7	23.0	0.00e+00	0	32	101	1048576	60	5948
2026-01-07 00:13:08.98	150.63	28.82	-40.7	-41.6	23.2	0.00e+00	92	32	101	1048576	60	5888
2026-01-07 00:13:09.99	150.60	29.00	-40.9	-41.9	23.0	0.00e+00	92	32	101	1048576	60	6067
2026-01-07 00:13:11.00	150.58	29.19	-41.4	-42.4	22.6	0.00e+00	0	32	101	1048576	60	6441
2026-01-07 00:13:12.01	150.56	29.38	-41.7	-42.7	22.5	0.00e+00	79	32	101	1048576	60	6671
2026-01-07 00:13:13.03	150.53	29.57	-41.6	-42.6	22.3	0.00e+00	0	32	101	1048576	60	6587
2026-01-07 00:13:14.04	150.51	29.76	-42.1	-43.1	22.0	0.00e+00	92	32	101	1048576	60	7002
2026-01-07 00:13:15.05	150.48	29.95	-42.2	-43.3	21.9	0.00e+00	17	32	101	1048576	60	7121
2026-01-07 00:13:16.06	150.46	30.15	-42.1	-43.2	21.9	0.00e+00	91	32	101	1048576	60	7042
2026-01-07 00:13:17.07	150.43	30.34	-42.3	-43.4	21.8	0.00e+00	92	32	101	1048576	60	7234
2026-01-07 00:13:18.08	150.41	30.54	-42.0	-43.1	22.2	0.00e+00	0	32	101	1048576	60	6946
2026-01-07 00:13:19.09	150.38	30.74	-42.1	-43.2	22.0	0.00e+00	92	32	101	1048576	60	7013
2026-01-07 00:13:20.10	150.36	30.93	-42.0	-43.1	22.2	0.00e+00	0	32	101	1048576	60	6935
2026-01-07 00:13:21.11	150.33	31.13	-42.5	-43.6	21.7	0.00e+00	80	32	101	1048576	60	7366
2026-01-07 00:13:22.12	150.30	31.34	-43.0	-44.2	21.2	0.00e+00	0	32	101	1048576	60	7865
2026-01-07 00:13:23.13	150.27	31.54	-43.1	-44.3	21.0	0.00e+00	90	32	101	1048576	60	7977
2026-01-07 00:13:24.15	150.25	31.75	-43.6	-45.0	20.5	0.00e+00	92	32	101	1048576	60	8624
2026-01-07 00:13:25.16	150.22	31.95	-44.1	-45.5	20.1	0.00e+00	0	32	101	1048576	60	9166
2026-01-07 00:13:26.17	150.19	32.16	-43.9	-45.2	20.3	0.00e+00	92	32	101	1048576	60	8894
2026-01-07 00:13:27.18	150.16	32.37	-44.1	-45.5	20.1	0.00e+00	0	32	101	1048576	60	9213
2026-01-07 00:13:28.19	150.13	32.58	-43.2	-44.4	20.9	0.00e+00	92	32	101	1048576	60	8110
2026-01-07 00:13:29.20	150.10	32.79	-43.3	-44.6	20.9	0.00e+00	0	32	101	1048576	60	8264
2026-01-07 00:13:30.21	150.07	33.00	-43.5	-44.8	20.7	0.00e+00	92	32	101	1048576	60	8446
2026-01-07 00:13:31.22	150.04	33.22	-43.5	-44.7	20.6	0.00e+00	92	32	101	1048576	60	8416
2026-01-07 00:13:32.23	150.01	33.43	-43.6	-44.9	20.6	0.00e+00	38	32	101	1048576	60	8535
2026-01-07 00:13:33.24	149.98	33.65	-43.5	-44.7	20.6	0.00e+00	92	32	101	1048576	60	8423
2026-01-07 00:13:34.25	149.95	33.87	-43.8	-45.2	20.5	0.00e+00	0	32	101	1048576	60	8828
2026-01-07 00:13:35.26	149.91	34.09	-43.6	-44.9	20.8	0.00e+00	76	32	101	1048576	60	8602
2026-01-07 00:13:36.27	149.88	34.31	-42.2	-43.3	21.9	0.00e+00	0	32	101	1048576	60	7127
2026-01-07 00:13:37.29	149.85	34.54	-42.1	-43.1	22.1	0.00e+00	92	32	101	1048576	60	7004
2026-01-07 00:13:38.29	149.81	34.76	-41.5	-42.5	22.6	0.00e+00	44	32	101	1048576	60	6500
2026-01-07 00:13:39.31	149.78	34.99	-41.6	-42.6	22.6	0.00e+00	9	32	101	1048576	60	6568
2026-01-07 00:13:40.32	149.74	35.22	-40.8	-41.7	23.1	0.00e+00	92	32	101	1048576	60	5925
2026-01-07 00:13:41.33	149.71	35.45	-40.1	-40.9	23.8	0.00e+00	0	32	101	1048576	60	5437
2026-01-07 00:13:42.34	149.67	35.68	-40.2	-41.1	23.6	0.00e+00	51	32	101	1048576	58	6176
2026-01-07 00:13:43.35	149.63	35.92	-40.0	-40.8	24.0	0.00e+00	0	32	101	1048576	58	6016
2026-01-07 00:13:44.36	149.60	36.15	-39.5	-40.3	24.2	0.00e+00	91	32	101	1048576	58	5661
2026-01-07 00:13:45.37	149.56	36.39	-39.7	-40.5	24.1	0.00e+00	31	32	101	1048576	58	5805
2026-01-07 00:13:46.38	149.52	36.63	-39.5	-40.3	24.2	0.00e+00	91	32	101	1048576	58	5675
2026-01-07 00:13:47.39	149.48	36.87	-39.1	-39.9	24.4	0.00e+00	92	32	101	1048576	56	6053
2026-01-07 00:13:48.40	149.44	37.11	-38.9	-39.7	24.6	0.00e+00	0	32	101	1048576	56	5907
2026-01-07 00:13:49.41	149.40	37.35	-38.8	-39.6	24.8	0.00e+00	92	32	101	1048576	56	5852
2026-01-07 00:13:50.42	149.36	37.60	-38.9	-39.7	24.7	0.00e+00	0	32	101	1048576	56	5915
2026-01-07 00:13:51.44	149.32	37.85	-39.0	-39.8	24.5	0.00e+00	92	32	101	1048576	56	6000
2026-01-07 00:13:52.45	149.27	38.10	-39.3	-40.2	24.4	0.00e+00	11	32	101	1048576	56	6249
2026-01-07 00:13:53.46	149.23	38.35	-39.8	-40.7	24.1	0.00e+00	92	32	101	1048576	56	6661
2026-01-07 00:13:54.47	149.19	38.60	-40.4	-41.3	23.4	0.00e+00	92	32	101	1048576	58	6367
2026-01-07 00:13:55.48	149.14	38.86	-40.5	-41.5	23.4	0.00e+00	0	32	101	1048576	58	6482
2026-01-07 00:13:56.49	149.10	39.12	-40.4	-41.3	23.5	0.00e+00	92	32	101	1048576	58	6341
2026-01-07 00:13:57.50	149.05	39.37	-40.9	-41.9	23.0	0.00e+00	0	32	101	1048576	58	6847
2026-01-07 00:13:58.51	149.00	39.64	-40.0	-40.9	23.8	0.00e+00	92	32	101	1048576	58	6036
2026-01-07 00:13:59.52	148.95	39.90	-40.1	-41.0	23.8	0.00e+00	0	32	101	1048576	58	6116
2026-01-07 00:14:00.53	148.90	40.16	-40.6	-41.6	23.1	0.00e+00	92	32	101	1048576	58	6561
2026-01-07 00:14:01.54	148.86	40.43	-41.0	-41.9	23.0	0.00e+00	91	32	101	1048576	58	6844
2026-01-07 00:14:02.55	148.80	40.70	-40.4	-41.3	23.3	0.00e+00	0	32	101	1048576	58	6342
2026-01-07 00:14:03.56	148.75	40.97	-40.8	-41.7	22.7	0.00e+00	65	32	101	1048576	58	6654
2026-01-07 00:14:04.58	148.70	41.24	-41.2	-42.2	23.0	0.00e+00	0	32	101	1048576	60	6298
2026-01-07 00:14:05.59	148.65	41.52	-41.1	-42.0	23.0	0.00e+00	92	32	101	1048576	60	6139
2026-01-07 00:14:06.60	148.59	41.80	-41.0	-41.9	23.1	0.00e+00	0	32	101	1048576	60	6080
2026-01-07 00:14:07.61	148.54	42.07	-40.9	-41.8	23.2	0.00e+00	91	32	101	1048576	60	6019
2026-01-07 00:14:08.62	148.48	42.36	-41.0	-42.0	23.1	0.00e+00	91	32	101	1048576	60	6112
2026-01-07 00:14:09.63	148.42	42.64	-41.1	-42.1	22.9	0.00e+00	0	32	101	1048576	60	6178
2026-01-07 00:14:10.64	148.37	42.92	-41.3	-42.2	22.9	0.00e+00	91	32	101	1048576	60	6313
2026-01-07 00:14:11.65	148.31	43.21	-41.8	-42.9	22.3	0.00e+00	0	32	101	1048576	60	6800
2026-01-07 00:14:12.66	148.25	43.50	-41.9	-42.9	22.3	0.00e+00	92	32	101	1048576	60	6836
2026-01-07 00:14:13.67	148.18	43.79	-41.8	-42.8	22.5	0.00e+00	0	32	101	1048576	60	6758
2026-01-07 00:14:14.68	148.12	44.09	-41.6	-42.6	22.6	0.00e+00	92	32	101	1048576	60	6595
2026-01-07 00:14:15.69	148.06	44.38	-41.5	-42.5	22.7	0.00e+00	92	32	101	1048576	60	6467
2026-01-07 00:14:16.70	147.99	44.68	-41.1	-42.0	22.9	0.00e+00	0	32	101	1048576	60	6164
2026-01-07 00:14:17.71	147.92	44.98	-40.7	-41.6	23.2	0.00e+00	92	32	101	1048576	60	5842
2026-01-07 00:14:18.72	147.85	45.28	-40.6	-41.4	23.5	0.00e+00	0	32	101	1048576	60	5726
2026-01-07 00:14:19.74	147.78	45.59	-41.0	-41.9	23.1	0.00e+00	92	32	101	1048576	60	6068
2026-01-07 00:14:20.75	147.71	45.90	-41.7	-42.8	22.4	0.00e+00	0	32	101	1048576	60	6704
2026-01-07 00:14:21.76	147.64	46.21	-42.3	-43.4	21.8	0.00e+00	92	32	101	1048576	60	7246
2026-01-07 00:14:22.77	147.57	46.52	-42.7	-43.9	21.4	0.00e+00	59	32	101	1048576	60	7640
2026-01-07 00:14:23.78	147.49	46.83	-43.0	-44.2	21.2	0.00e+00	92	32	101	1048576	60	7935
2026-01-07 00:14:24.79	147.41	47.15	-42.3	-43.4	21.9	0.00e+00	92	32	101	1048576	60	7203
2026-01-07 00:14:25.80	147.33	47.47	-42.0	-43.1	22.0	0.00e+00	0	32	101	1048576	60	6930
2026-01-07 00:14:26.81	147.25	47.79	-42.3	-43.4	21.8	0.00e+00	92	32	101	1048576	60	7188
2026-01-07 00:14:27.82	147.17	48.11	-42.3	-43.4	21.9	0.00e+00	0	32	101	1048576	60	7179
2026-01-07 00:14:28.83	147.09	48.44	-42.7	-43.9	21.4	0.00e+00	92	32	101	1048576	60	7615
2026-01-07 00:14:29.84	147.00	48.77	-42.9	-44.2	21.2	0.00e+00	90	32	101	1048576	60	7865
2026-01-07 00:14:30.85	146.91	49.10	-42.5	-43.6	21.7	0.00e+00	62	32	101	1048576	60	7409
2026-01-07 00:14:31.86	146.82	49.43	-42.7	-43.9	21.8	0.00e+00	92	32	101	1048576	60	7659
2026-01-07 00:14:32.87	146.73	49.76	-41.1	-42.1	23.1	0.00e+00	33	32	101	1048576	60	6220
2026-01-07 00:14:33.88	146.64	50.10	-41.5	-42.6	22.6	0.00e+00	92	32	101	1048576	60	6555
2026-01-07 00:14:34.89	146.54	50.44	-40.8	-41.7	23.3	0.00e+00	0	32	101	1048576	60	5950
2026-01-07 00:14:35.90	146.44	50.78	-40.4	-41.4	23.5	0.00e+00	91	32	101	1048576	60	5699
2026-01-07 00:14:36.91	146.34	51.13	-40.1	-41.0	23.8	0.00e+00	0	32	101	1048576	60	5487
2026-01-07 00:14:37.92	146.24	51.48	-39.7	-40.5	24.0	0.00e+00	92	32	101	1048576	58	5814
2026-01-07 00:14:38.93	146.13	51.83	-39.3	-40.1	24.4	0.00e+00	92	32	101	1048576	58	5531
2026-01-07 00:14:39.95	146.02	52.18	-39.0	-39.8	24.5	0.00e+00	0	32	101	1048576	56	5993
2026-01-07 00:14:40.96	145.91	52.54	-40.6	-41.5	23.3	0.00e+00	73	32	101	1048576	58	6529
2026-01-07 00:14:41.97	145.80	52.89	-41.0	-42.0	23.0	0.00e+00	0	32	101	1048576	58	6886
2026-01-07 00:14:42.98	145.68	53.25	-41.4	-42.4	22.7	0.00e+00	72	32	101	1048576	60	6445
2026-01-07 00:14:43.99	145.56	53.62	-41.3	-42.3	22.6	0.00e+00	0	32	101	1048576	60	6386
2026-01-07 00:14:45.00	145.44	53.98	-41.2	-42.2	23.3	0.00e+00	92	32	101	1048576	60	6294
2026-01-07 00:14:46.01	145.31	54.35	-40.2	-41.1	23.8	0.00e+00	92	32	101	1048576	60	5546
2026-01-07 00:14:47.02	145.18	54.72	-40.5	-41.4	23.5	0.00e+00	0	32	101	1048576	58	6428
2026-01-07 00:14:48.03	145.05	55.09	-40.3	-41.3	23.6	0.00e+00	74	32	101	1048576	58	6321
2026-01-07 00:14:49.04	144.91	55.46	-40.3	-41.2	23.6	0.00e+00	0	32	101	1048576	58	6300
2026-01-07 00:14:50.05	144.77	55.84	-40.2	-41.1	23.8	0.00e+00	92	32	101	1048576	58	6205
2026-01-07 00:14:51.06	144.62	56.22	-40.0	-40.9	23.5	0.00e+00	0	32	101	1048576	58	6047
2026-01-07 00:14:52.08	144.47	56.60	-40.6	-41.5	23.5	0.00e+00	92	32	101	1048576	58	6476
2026-01-07 00:14:53.09	144.32	56.99	-40.9	-41.8	22.9	0.00e+00	62	32	101	1048576	58	6769
2026-01-07 00:14:54.10	144.16	57.38	-41.3	-42.3	22.8	0.00e+00	0	32	101	1048576	60	6318
2026-01-07 00:14:55.11	144.00	57.76	-42.0	-43.1	22.1	0.00e+00	92	32	101	1048576	60	6931
2026-01-07 00:14:56.12	143.83	58.16	-42.8	-44.0	21.2	0.00e+00	0	32	101	1048576	60	7772
2026-01-07 00:14:57.13	143.66	58.55	-43.4	-44.7	20.8	0.00e+00	90	32	101	1048576	60	8371
2026-01-07 00:14:58.14	143.48	58.95	-43.3	-44.5	21.0	0.00e+00	0	32	101	1048576	60	8210
2026-01-07 00:14:59.15	143.30	59.34	-41.9	-43.0	22.2	0.00e+00	92	32	101	1048576	60	6887
2026-01-07 00:15:00.16	143.11	59.74	-41.0	-42.0	23.0	0.00e+00	67	32	101	1048576	60	6106
2026-01-07 00:15:01.17	142.92	60.15	-40.4	-41.3	23.4	0.00e+00	0	32	101	1048576	60	5672
2026-01-07 00:15:02.18	142.72	60.55	-40.6	-41.5	23.2	0.00e+00	92	32	101	1048576	60	5815
2026-01-07 00:15:03.19	142.51	60.96	-41.0	-42.0	23.0	0.00e+00	0	32	101	1048576	60	6142
2026-01-07 00:15:04.21	142.29	61.37	-39.6	-40.5	23.9	0.00e+00	92	32	101	1048576	58	5778
2026-01-07 00:15:05.22	142.07	61.79	-39.9	-40.7	23.5	0.00e+00	0	32	101	1048576	58	5964
2026-01-07 00:15:06.23	141.84	62.20	-39.7	-40.6	23.9	0.00e+00	92	32	101	1048576	58	5831
2026-01-07 00:15:07.24	141.60	62.62	-40.2	-41.1	23.5	0.00e+00	92	32	101	1048576	58	6242
2026-01-07 00:15:08.25	141.35	63.03	-40.6	-41.6	23.2	0.00e+00	0	32	101	1048576	58	6605
2026-01-07 00:15:09.26	141.10	63.45	-39.2	-40.0	24.3	0.00e+00	66	32	101	1048576	58	5491
2026-01-07 00:15:10.28	140.83	63.88	-40.1	-41.0	23.6	0.00e+00	0	32	101	1048576	56	6867
2026-01-07 00:15:11.29	140.55	64.30	-40.7	-41.7	23.1	0.00e+00	92	32	101	1048576	58	6617
2026-01-07 00:15:12.30	140.27	64.73	-41.0	-42.0	22.8	0.00e+00	0	32	101	1048576	60	6113
2026-01-07 00:15:13.31	139.97	65.16	-40.3	-41.2	23.6	0.00e+00	92	32	101	1048576	60	5600
2026-01-07 00:15:14.32	139.66	65.59	-40.2	-41.1	23.5	0.00e+00	0	32	101	1048576	58	6245
2026-01-07 00:15:15.33	139.34	66.02	-41.0	-42.0	22.8	0.00e+00	47	32	101	1048576	58	6862
2026-01-07 00:15:16.34	139.01	66.45	-42.2	-43.4	22.0	0.00e+00	92	32	101	1048576	60	7197
2026-01-07 00:15:17.35	138.66	66.89	-40.1	-41.0	23.3	0.00e+00	0	32	101	1048576	58	6139
2026-01-07 00:15:18.36	138.30	67.32	-40.6	-41.5	23.1	0.00e+00	90	32	101	1048576	58	6535
2026-01-07 00:15:19.37	137.92	67.76	-41.5	-42.6	22.7	0.00e+00	0	32	101	1048576	60	6556
2026-01-07 00:15:20.38	137.53	68.20	-42.0	-43.1	21.3	0.00e+00	79	32	101	1048576	60	6971
2026-01-07 00:15:21.39	137.11	68.64	-41.6	-42.6	22.6	7.00e-07	64	32	101	1048576	60	6576
2026-01-07 00:15:22.41	136.68	69.08	-41.6	-42.6	22.1	0.00e+00	60	32	101	1048576	60	6599
2026-01-07 00:15:23.42	136.23	69.52	-42.3	-43.4	21.9	0.00e+00	92	32	101	1048576	60	7217
2026-01-07 00:15:24.43	135.75	69.97	-42.7	-43.8	21.3	0.00e+00	0	32	101	1048576	60	7588
2026-01-07 00:15:25.44	135.25	70.41	-43.4	-44.7	20.8	0.00e+00	90	32	101	1048576	60	8373
2026-01-07 00:15:26.45	134.73	70.85	-42.6	-43.8	21.8	0.00e+00	0	32	101	1048576	60	7533
2026-01-07 00:15:27.46	134.18	71.30	-40.1	-41.0	23.9	0.00e+00	92	32	101	1048576	60	5457
2026-01-07 00:15:28.47	133.61	71.74	-38.6	-39.4	24.1	0.00e+00	0	32	101	1048576	56	5697
2026-01-07 00:15:29.48	133.00	72.18	-38.4	-39.1	25.0	0.00e+00	79	32	101	1048576	56	5554
2026-01-07 00:15:30.49	132.36	72.63	-39.3	-40.1	24.3	0.00e+00	90	32	101	1048576	56	6235
2026-01-07 00:15:31.50	131.69	73.07	-38.4	-39.2	25.0	0.00e+00	0	32	101	1048576	56	5594
2026-01-07 00:15:32.51	130.97	73.51	-37.9	-38.6	25.2	0.00e+00	89	32	101	1048576	54	5888
2026-01-07 00:15:33.52	130.22	73.95	-39.5	-40.3	23.7	0.00e+00	0	32	101	1048576	56	6376
2026-01-07 00:15:34.53	129.42	74.39	-40.6	-41.5	23.3	0.00e+00	92	32	101	1048576	58	6509
2026-01-07 00:15:35.54	128.57	74.83	-40.6	-41.5	23.4	0.00e+00	0	32	101	1048576	58	6527
2026-01-07 00:15:36.55	127.66	75.27	-40.7	-41.7	23.0	0.00e+00	92	32	101	1048576	58	6636
2026-01-07 00:15:37.56	126.71	75.71	-43.1	-44.4	21.0	0.00e+00	78	32	101	1048576	60	8088
2026-01-07 00:15:38.57	125.68	76.14	-45.0	-46.8	18.9	0.00e+00	0	32	101	1048576	60	10608
2026-01-07 00:15:39.58	124.60	76.57	-44.1	-45.5	19.8	0.00e+00	92	32	101	1048576	60	9214
2026-01-07 00:15:40.59	123.43	76.99	-43.5	-44.8	20.8	0.00e+00	0	32	101	1048576	60	8430
2026-01-07 00:15:41.60	122.19	77.41	-42.5	-43.6	21.7	0.00e+00	92	32	101	1048576	60	7408
2026-01-07 00:15:42.60	120.87	77.82	-43.4	-44.7	20.7	0.00e+00	0	32	101	1048576	60	8346
2026-01-07 00:15:43.61	119.44	78.23	-42.7	-43.9	21.3	0.00e+00	92	32	101	1048576	60	7673
2026-01-07 00:15:44.62	117.91	78.63	-41.5	-42.5	22.4	0.00e+00	69	32	101	1048576	60	6500
2026-01-07 00:15:45.63	116.27	79.03	-42.3	-43.4	21.7	0.00e+00	0	32	101	1048576	60	7236
2026-01-07 00:15:46.64	114.50	79.41	-42.6	-43.8	21.6	0.00e+00	52	32	101	1048576	60	7579
2026-01-07 00:15:47.65	112.59	79.79	-41.6	-42.7	22.7	0.00e+00	0	32	101	1048576	60	6677
2026-01-07 00:15:48.66	110.54	80.16	-40.7	-41.6	23.3	0.00e+00	70	32	101	1048576	60	5879
2026-01-07 00:15:49.67	108.33	80.51	-40.8	-41.7	23.1	0.00e+00	0	32	101	1048576	60	5933
2026-01-07 00:15:50.68	105.96	80.85	-40.3	-41.2	23.6	0.00e+00	92	32	101	1048576	60	5596
2026-01-07 00:15:51.69	103.40	81.17	-40.3	-41.2	23.3	0.00e+00	68	32	101	1048576	58	6295
2026-01-07 00:15:52.70	100.65	81.47	-40.5	-41.5	23.4	0.00e+00	0	32	101	1048576	58	6473
2026-01-07 00:15:53.71	97.70	81.75	-40.4	-41.4	23.4	0.00e+00	62	32	101	1048576	58	6394
2026-01-07 00:15:54.71	94.58	82.01	-41.9	-43.0	22.1	0.00e+00	0	32	101	1048576	60	6924
2026-01-07 00:15:55.72	91.23	82.24	-42.1	-43.2	22.1	0.00e+00	92	32	101	1048576	60	7037
2026-01-07 00:15:56.73	87.68	82.45	-42.1	-43.2	22.0	0.00e+00	0	32	101	1048576	60	7015
2026-01-07 00:15:57.74	83.95	82.63	-41.5	-42.6	22.5	0.00e+00	73	32	101	1048576	60	6553
2026-01-07 00:15:58.75	80.04	82.77	-41.3	-42.3	22.8	0.00e+00	60	32	101	1048576	60	6340
2026-01-07 00:15:59.76	76.00	82.88	-41.4	-42.5	22.3	0.00e+00	0	32	101	1048576	60	6483
2026-01-07 00:16:00.77	71.84	82.96	-40.9	-41.9	23.1	0.00e+00	90	32	101	1048576	60	6066
2026-01-07 00:16:01.78	67.63	82.99	-39.8	-40.6	24.1	0.00e+00	0	32	101	1048576	58	5894
2026-01-07 00:16:02.79	63.39	82.99	-39.5	-40.4	24.0	0.00e+00	92	32	101	1048576	56	6426
2026-01-07 00:16:03.80	59.17	82.95	-41.3	-42.3	22.9	0.00e+00	0	32	101	1048576	60	6351
2026-01-07 00:16:04.81	55.03	82.87	-38.7	-39.5	24.8	0.00e+00	90	32	101	1048576	56	5796
2026-01-07 00:16:05.82	51.00	82.76	-39.7	-40.6	24.0	0.00e+00	0	32	101	1048576	56	6555
2026-01-07 00:16:06.83	47.11	82.61	-41.2	-42.2	22.6	0.00e+00	27	32	101	1048576	58	7072
2026-01-07 00:16:07.84	43.39	82.43	-40.8	-41.7	23.2	0.00e+00	90	32	101	1048576	60	5924
2026-01-07 00:16:08.85	39.86	82.22	-41.3	-42.2	22.7	0.00e+00	0	32	101	1048576	60	6311
2026-01-07 00:16:09.85	36.56	81.99	-40.8	-41.8	23.1	0.00e+00	62	32	101	1048576	60	5979
2026-01-07 00:16:10.87	33.40	81.72	-40.9	-41.8	23.1	0.00e+00	0	32	101	1048576	60	5990
2026-01-07 00:16:11.88	30.47	81.44	-42.4	-43.5	21.5	0.00e+00	71	32	101	1048576	60	7330
2026-01-07 00:16:12.89	27.74	81.14	-43.7	-45.0	20.3	0.00e+00	25	32	101	1048576	60	8691
2026-01-07 00:16:13.90	25.21	80.81	-44.1	-45.6	20.1	0.00e+00	44	32	101	1048576	60	9250
2026-01-07 00:16:14.91	22.85	80.47	-44.5	-46.0	19.4	0.00e+00	90	32	101	1048576	60	9764
2026-01-07 00:16:15.92	20.66	80.12	-43.8	-45.2	20.4	0.00e+00	0	32	101	1048576	60	8864
2026-01-07 00:16:16.93	18.62	79.75	-43.7	-45.1	20.4	0.00e+00	26	32	101	1048576	60	8745
2026-01-07 00:16:17.94	16.73	79.38	-46.3	-48.4	17.4	0.00e+00	0	32	101	1048576	60	12886
2026-01-07 00:16:18.95	14.98	78.99	-43.8	-45.1	20.5	0.00e+00	92	32	101	1048576	60	8821
2026-01-07 00:16:19.96	13.34	78.59	-42.2	-43.2	22.0	0.00e+00	0	32	101	1048576	60	7067
2026-01-07 00:16:20.97	11.82	78.19	-40.9	-41.8	23.1	0.00e+00	72	32	101	1048576	60	6028
2026-01-07 00:16:21.98	10.41	77.78	-41.6	-42.6	22.4	0.00e+00	90	32	101	1048576	60	6607
2026-01-07 00:16:22.99	9.09	77.37	-42.1	-43.3	21.9	0.00e+00	0	32	101	1048576	60	7143
2026-01-07 00:16:24.01	7.84	76.94	-41.3	-42.3	22.7	0.00e+00	68	32	101	1048576	60	6384
2026-01-07 00:16:25.02	6.69	76.52	-41.8	-42.9	22.1	0.00e+00	0	32	101	1048576	60	6837
2026-01-07 00:16:26.03	5.61	76.09	-41.8	-42.9	22.2	0.00e+00	71	32	101	1048576	60	6814
2026-01-07 00:16:27.04	4.60	75.66	-41.9	-43.0	22.4	0.00e+00	0	32	101	1048576	60	6899
2026-01-07 00:16:28.05	3.65	75.22	-39.6	-40.5	24.1	0.00e+00	30	32	101	1048576	58	5771
2026-01-07 00:16:29.06	2.75	74.79	-39.6	-40.5	24.3	0.00e+00	64	32	101	1048576	58	5788
2026-01-07 00:16:30.07	1.91	74.35	-39.9	-40.7	23.9	0.00e+00	0	32	101	1048576	58	5945
2026-01-07 00:16:31.08	1.11	73.91	-40.8	-41.7	23.0	0.00e+00	90	32	101	1048576	58	6667
2026-01-07 00:16:32.09	0.36	73.47	-42.4	-43.6	21.9	0.00e+00	0	32	101	1048576	60	7359
2026-01-07 00:16:33.10	359.66	73.03	-43.0	-44.2	21.0	0.00e+00	90	32	101	1048576	60	7938
2026-01-07 00:16:34.12	358.98	72.58	-44.4	-46.1	19.5	0.00e+00	0	32	101	1048576	60	9839
2026-01-07 00:16:35.13	358.34	72.14	-41.9	-43.1	22.2	0.00e+00	90	32	101	1048576	60	6952
2026-01-07 00:16:36.14	357.74	71.69	-42.0	-43.1	22.0	0.00e+00	0	32	101	1048576	60	6978
2026-01-07 00:16:37.15	357.17	71.25	-41.9	-43.0	22.2	0.00e+00	0	32	101	1048576	60	6875
2026-01-07 00:16:38.16	356.62	70.81	-42.8	-43.9	21.3	0.00e+00	92	32	101	1048576	60	7665
2026-01-07 00:16:39.17	356.10	70.36	-42.3	-43.4	21.7	0.00e+00	0	32	101	1048576	60	7196
2026-01-07 00:16:40.18	355.61	69.92	-45.4	-47.4	18.5	0.00e+00	92	32	101	1048576	60	11381
2026-01-07 00:16:41.19	355.14	69.48	-43.5	-44.8	20.8	0.00e+00	0	32	101	1048576	60	8507
2026-01-07 00:16:42.20	354.69	69.04	-39.5	-40.3	24.2	0.00e+00	92	32	101	1048576	58	5665
2026-01-07 00:16:43.21	354.26	68.60	-40.2	-41.0	23.7	0.00e+00	0	32	101	1048576	56	6897
2026-01-07 00:16:44.22	353.85	68.16	-39.9	-40.8	23.6	0.00e+00	0	32	101	1048576	58	5980
2026-01-07 00:16:45.23	353.46	67.73	-40.0	-40.9	23.8	0.00e+00	92	32	101	1048576	58	6082
2026-01-07 00:16:46.24	353.08	67.29	-39.6	-40.4	24.1	0.00e+00	0	32	101	1048576	58	5736
2026-01-07 00:16:47.26	352.72	66.85	-39.7	-40.6	24.2	0.00e+00	66	32	101	1048576	58	5831
2026-01-07 00:16:48.27	352.37	66.42	-38.6	-39.3	24.6	0.00e+00	0	32	101	1048576	56	5686
2026-01-07 00:16:49.28	352.04	65.99	-37.6	-38.4	25.3	0.00e+00	92	32	101	1048576	54	5704
2026-01-07 00:16:50.29	351.72	65.56	-40.1	-41.0	23.6	0.00e+00	0	32	101	1048576	56	6915
2026-01-07 00:16:51.30	351.42	65.13	-40.1	-41.1	23.6	0.00e+00	0	32	101	1048576	58	6181
2026-01-07 00:16:52.31	351.12	64.70	-40.1	-41.0	23.7	0.00e+00	90	32	101	1048576	58	6142
2026-01-07 00:16:53.32	350.84	64.28	-40.3	-41.2	23.7	0.00e+00	0	32	101	1048576	58	6303
2026-01-07 00:16:54.33	350.56	63.85	-39.7	-40.6	23.8	0.00e+00	64	32	101	1048576	58	5853
2026-01-07 00:16:55.34	350.30	63.43	-41.0	-42.0	22.9	0.00e+00	0	32	101	1048576	58	6893
2026-01-07 00:16:56.35	350.05	63.01	-41.5	-42.6	22.6	0.00e+00	71	32	101	1048576	60	6554
2026-01-07 00:16:57.36	349.80	62.60	-40.9	-41.8	23.1	0.00e+00	0	32	101	1048576	60	6029
2026-01-07 00:16:58.37	349.56	62.18	-40.6	-41.6	23.2	0.00e+00	2	32	101	1048576	60	5838
2026-01-07 00:16:59.38	349.33	61.77	-40.7	-41.7	23.1	0.00e+00	40	32	101	1048576	60	5931
2026-01-07 00:17:00.39	349.11	61.36	-40.9	-41.9	23.2	0.00e+00	0	32	101	1048576	60	6080
2026-01-07 00:17:01.41	348.90	60.95	-40.7	-41.7	23.2	0.00e+00	75	32	101	1048576	60	5947
2026-01-07 00:17:02.42	348.69	60.54	-39.6	-40.4	24.0	0.00e+00	33	32	101	1048576	58	5760
2026-01-07 00:17:03.43	348.49	60.14	-39.4	-40.3	24.2	0.00e+00	92	32	101	1048576	56	6342
2026-01-07 00:17:04.44	348.30	59.73	-40.2	-41.1	23.6	0.00e+00	0	32	101	1048576	58	6192
2026-01-07 00:17:05.45	348.11	59.34	-40.4	-41.4	23.4	0.00e+00	61	32	101	1048576	58	6414
2026-01-07 00:17:06.46	347.93	58.94	-39.0	-39.8	24.4	0.00e+00	92	32	101	1048576	58	5376
2026-01-07 00:17:07.47	347.75	58.54	-38.7	-39.5	24.8	0.00e+00	0	32	101	1048576	56	5813
2026-01-07 00:17:08.48	347.58	58.15	-38.1	-38.9	25.2	0.00e+00	34	32	101	1048576	54	6048
2026-01-07 00:17:09.50	347.41	57.76	-39.0	-39.8	24.3	0.00e+00	0	32	101	1048576	54	6764
2026-01-07 00:17:10.51	347.25	57.37	-39.7	-40.6	23.9	0.00e+00	90	32	101	1048576	56	6607
2026-01-07 00:17:11.52	347.09	56.98	-39.5	-40.4	24.1	0.00e+00	0	32	101	1048576	56	6412
2026-01-07 00:17:12.53	346.94	56.60	-39.1	-40.0	24.5	0.00e+00	89	32	101	1048576	56	6114
2026-01-07 00:17:13.54	346.79	56.22	-39.0	-39.9	24.5	0.00e+00	91	32	101	1048576	56	6035
2026-01-07 00:17:14.55	346.65	55.84	-38.9	-39.7	24.5	0.00e+00	0	32	101	1048576	56	5943
2026-01-07 00:17:15.56	346.51	55.47	-40.4	-41.3	23.3	0.00e+00	31	32	101	1048576	58	6328
2026-01-07 00:17:16.57	346.37	55.10	-41.9	-43.0	22.3	0.00e+00	0	32	101	1048576	60	6890
2026-01-07 00:17:17.58	346.24	54.72	-41.6	-42.7	22.5	0.00e+00	92	32	101	1048576	60	6625
2026-01-07 00:17:18.59	346.11	54.36	-40.7	-41.7	23.3	0.00e+00	0	32	101	1048576	60	5908
2026-01-07 00:17:19.60	345.98	53.99	-41.1	-42.1	22.9	0.00e+00	92	32	101	1048576	60	6242
2026-01-07 00:17:20.61	345.86	53.63	-41.8	-42.9	22.3	0.00e+00	66	32	101	1048576	60	6813
2026-01-07 00:17:21.63	345.74	53.26	-40.2	-41.1	23.2	0.00e+00	0	32	101	1048576	60	5547
2026-01-07 00:17:22.64	345.62	52.91	-38.5	-39.3	24.8	0.00e+00	79	32	101	1048576	56	5647
2026-01-07 00:17:23.65	345.51	52.55	-38.9	-39.6	24.5	0.00e+00	0	32	101	1048576	56	5877
2026-01-07 00:17:24.66	345.40	52.20	-40.7	-41.7	23.1	0.00e+00	92	32	101	1048576	58	6632
2026-01-07 00:17:25.67	345.29	51.85	-41.6	-42.7	22.3	0.00e+00	0	32	101	1048576	60	6637
2026-01-07 00:17:26.68	345.18	51.50	-40.8	-41.7	23.3	0.00e+00	92	32	101	1048576	60	5963
2026-01-07 00:17:27.69	345.08	51.15	-41.2	-42.3	22.6	0.00e+00	0	32	101	1048576	60	6335
2026-01-07 00:17:28.70	344.98	50.81	-42.7	-44.0	21.5	0.00e+00	0	32	101	1048576	60	7753
2026-01-07 00:17:29.71	344.88	50.47	-42.3	-43.6	21.7	0.00e+00	92	32	101	1048576	60	7340
2026-01-07 00:17:30.72	344.79	50.13	-41.1	-42.1	23.2	0.00e+00	0	32	101	1048576	60	6223
2026-01-07 00:17:31.74	344.69	49.79	-40.3	-41.3	23.5	0.00e+00	91	32	101	1048576	60	5640
2026-01-07 00:17:32.74	344.60	49.46	-41.1	-42.1	22.9	0.00e+00	0	32	101	1048576	60	6202
2026-01-07 00:17:33.76	344.51	49.12	-42.0	-43.1	22.1	0.00e+00	92	32	101	1048576	60	6929
2026-01-07 00:17:34.77	344.42	48.79	-43.6	-45.0	20.5	0.00e+00	0	32	101	1048576	60	8662
2026-01-07 00:17:35.78	344.34	48.47	-43.7	-45.1	21.0	0.00e+00	0	32	101	1048576	60	8784
2026-01-07 00:17:36.79	344.25	48.14	-42.9	-44.2	21.3	0.00e+00	92	32	101	1048576	60	7870
2026-01-07 00:17:37.80	344.17	47.82	-41.8	-42.9	22.2	0.00e+00	0	32	101	1048576	60	6840
2026-01-07 00:17:38.81	344.09	47.50	-42.3	-43.5	21.8	0.00e+00	63	32	101	1048576	60	7293
2026-01-07 00:17:39.82	344.01	47.18	-41.9	-43.0	22.2	0.00e+00	0	32	101	1048576	60	6901
2026-01-07 00:17:40.83	343.94	46.87	-42.7	-43.9	21.4	0.00e+00	91	32	101	1048576	60	7666
2026-01-07 00:17:41.84	343.86	46.55	-42.3	-43.5	21.8	0.00e+00	0	32	101	1048576	60	7287
2026-01-07 00:17:42.85	343.79	46.24	-42.3	-43.5	21.7	0.00e+00	0	32	101	1048576	60	7262
2026-01-07 00:17:43.86	343.72	45.94	-42.2	-43.3	22.1	0.00e+00	76	32	101	1048576	60	7148
2026-01-07 00:17:44.87	343.65	45.63	-42.6	-43.7	21.3	0.00e+00	0	32	101	1048576	60	7491
2026-01-07 00:17:45.88	343.58	45.33	-43.3	-44.6	20.7	0.00e+00	86	32	101	1048576	60	8252
2026-01-07 00:17:46.90	343.51	45.02	-43.7	-45.1	20.5	0.00e+00	0	32	101	1048576	60	8777
2026-01-07 00:17:47.91	343.44	44.72	-43.0	-44.2	21.3	0.00e+00	90	32	101	1048576	60	7924
2026-01-07 00:17:48.92	343.38	44.43	-42.6	-43.8	21.5	0.00e+00	0	32	101	1048576	60	7592
2026-01-07 00:17:49.93	343.31	44.13	-44.0	-45.4	20.1	0.00e+00	0	32	101	1048576	60	9107
2026-01-07 00:17:50.94	343.25	43.84	-43.6	-44.9	20.6	0.00e+00	66	32	101	1048576	60	8579
2026-01-07 00:17:51.95	343.19	43.55	-42.8	-43.9	21.6	0.00e+00	0	32	101	1048576	60	7666
2026-01-07 00:17:52.96	343.13	43.26	-42.1	-43.2	22.1	0.00e+00	66	32	101	1048576	60	7028
2026-01-07 00:17:53.97	343.07	42.97	-42.2	-43.2	22.0	0.00e+00	0	32	101	1048576	60	7077
2026-01-07 00:17:54.98	343.01	42.69	-42.8	-44.0	21.3	0.00e+00	91	32	101	1048576	60	7741
2026-01-07 00:17:56.00	342.95	42.41	-43.3	-44.6	20.9	0.00e+00	0	32	101	1048576	60	8284
2026-01-07 00:17:57.01	342.90	42.13	-43.7	-45.2	20.4	0.00e+00	45	32	101	1048576	60	8838
2026-01-07 00:17:58.02	342.84	41.85	-44.4	-46.0	19.6	0.00e+00	65	32	101	1048576	60	9732
2026-01-07 00:17:59.03	342.79	41.57	-44.0	-45.5	20.2	0.00e+00	0	32	101	1048576	60	9160
2026-01-07 00:18:00.04	342.74	41.30	-44.0	-45.4	20.3	0.00e+00	54	32	101	1048576	60	9130
2026-01-07 00:18:01.05	342.68	41.03	-41.9	-43.0	22.2	0.00e+00	0	32	101	1048576	60	6895
2026-01-07 00:18:02.06	342.63	40.76	-41.4	-42.5	22.7	0.00e+00	65	32	101	1048576	60	6482
2026-01-07 00:18:03.07	342.58	40.49	-41.4	-42.5	22.6	0.00e+00	0	32	101	1048576	60	6507
2026-01-07 00:18:04.08	342.53	40.22	-42.6	-43.8	21.4	0.00e+00	58	32	101	1048576	60	7573
2026-01-07 00:18:05.10	342.48	39.96	-43.4	-44.7	21.2	0.00e+00	11	32	101	1048576	60	8344
2026-01-07 00:18:06.11	342.44	39.70	-43.5	-44.8	20.7	0.00e+00	0	32	101	1048576	60	8429
2026-01-07 00:18:07.12	342.39	39.44	-43.3	-44.6	20.8	0.00e+00	65	32	101	1048576	60	8284
2026-01-07 00:18:08.13	342.34	39.18	-43.0	-44.3	21.2	0.00e+00	0	32	101	1048576	60	7981
2026-01-07 00:18:09.14	342.30	38.92	-42.5	-43.6	21.6	0.00e+00	80	32	101	1048576	60	7405
2026-01-07 00:18:10.15	342.25	38.67	-42.6	-43.8	21.6	0.00e+00	0	32	101	1048576	60	7531
2026-01-07 00:18:11.16	342.21	38.42	-43.0	-44.2	21.1	0.00e+00	66	32	101	1048576	60	7880
2026-01-07 00:18:12.17	342.17	38.17	-42.8	-44.0	21.4	0.00e+00	0	32	101	1048576	60	7765
2026-01-07 00:18:13.18	342.13	37.92	-43.1	-44.3	20.8	0.00e+00	0	32	101	1048576	60	8025
2026-01-07 00:18:14.20	342.08	37.67	-43.4	-44.7	20.8	0.00e+00	58	32	101	1048576	60	8367
2026-01-07 00:18:15.21	342.04	37.42	-43.6	-44.9	20.7	0.00e+00	0	32	101	1048576	60	8595
2026-01-07 00:18:16.22	342.00	37.18	-43.4	-44.8	20.7	0.00e+00	69	32	101	1048576	60	8435
2026-01-07 00:18:17.23	341.96	36.94	-44.2	-45.7	19.9	0.00e+00	0	32	101	1048576	60	9425
2026-01-07 00:18:18.24	341.92	36.70	-44.7	-46.3	19.4	0.00e+00	89	32	101	1048576	60	10078
2026-01-07 00:18:19.25	341.89	36.46	-44.1	-45.5	20.2	0.00e+00	0	32	101	1048576	60	9200
2026-01-07 00:18:20.26	341.85	36.23	-43.2	-44.5	21.0	0.00e+00	0	32	101	1048576	60	8141
2026-01-07 00:18:21.27	341.81	35.99	-42.4	-43.5	21.7	0.00e+00	83	32	101	1048576	60	7322
2026-01-07 00:18:22.28	341.77	35.76	-41.2	-42.2	22.9	0.00e+00	0	32	101	1048576	60	6288
2026-01-07 00:18:23.30	341.74	35.52	-41.2	-42.2	22.8	0.00e+00	32	32	101	1048576	60	6251
2026-01-07 00:18:24.31	341.70	35.30	-41.9	-42.9	22.3	0.00e+00	0	32	101	1048576	60	6831
2026-01-07 00:18:25.32	341.67	35.07	-42.0	-43.0	22.1	0.00e+00	33	32	101	1048576	60	6927
2026-01-07 00:18:26.33	341.63	34.84	-43.3	-44.6	20.8	0.00e+00	0	32	101	1048576	60	8253
2026-01-07 00:18:27.34	341.60	34.62	-44.4	-45.9	19.7	0.00e+00	0	32	101	1048576	60	9634
2026-01-07 00:18:28.35	341.57	34.39	-45.5	-47.3	18.4	0.00e+00	29	32	101	1048576	60	11315
2026-01-07 00:18:29.36	341.53	34.17	-45.7	-47.5	18.1	0.00e+00	0	32	101	1048576	60	11605
2026-01-07 00:18:30.37	341.50	33.95	-46.3	-48.6	17.1	0.00e+00	29	32	101	1048576	60	13053
2026-01-07 00:18:31.39	341.47	33.73	-45.6	-47.5	18.2	0.00e+00	0	32	101	1048576	60	11541
2026-01-07 00:18:32.40	341.44	33.52	-45.2	-46.9	18.7	0.00e+00	0	32	101	1048576	60	10847
2026-01-07 00:18:33.41	341.41	33.30	-44.2	-45.8	19.8	0.00e+00	0	32	101	1048576	60	9471
2026-01-07 00:18:34.42	341.38	33.09	-43.0	-44.2	21.2	0.00e+00	0	32	101	1048576	60	7925
2026-01-07 00:18:35.43	341.35	32.87	-42.7	-43.9	21.2	0.00e+00	60	32	101	1048576	60	7622
2026-01-07 00:18:36.44	341.32	32.66	-42.8	-44.0	21.3	0.00e+00	0	32	101	1048576	60	7695
2026-01-07 00:18:37.45	341.29	32.45	-42.7	-43.9	21.2	0.00e+00	62	32	101	1048576	60	7628
2026-01-07 00:18:38.46	341.26	32.25	-43.0	-44.2	21.0	0.00e+00	0	32	101	1048576	60	7952
2026-01-07 00:18:39.47	341.23	32.04	-43.2	-44.5	20.8	0.00e+00	0	32	101	1048576	60	8159
2026-01-07 00:18:40.48	341.21	31.84	-43.4	-44.8	20.6	0.00e+00	33	32	101	1048576	60	8426
2026-01-07 00:18:41.49	341.18	31.63	-43.4	-44.8	20.7	0.00e+00	0	32	101	1048576	60	8430
2026-01-07 00:18:42.50	341.15	31.43	-43.1	-44.3	20.9	0.00e+00	64	32	101	1048576	60	8016
2026-01-07 00:18:43.51	341.12	31.23	-42.1	-43.2	21.9	0.00e+00	0	32	101	1048576	60	7078
2026-01-07 00:18:44.52	341.10	31.03	-41.5	-42.5	22.5	0.00e+00	64	32	101	1048576	60	6539
2026-01-07 00:18:45.53	341.07	30.83	-42.0	-43.1	21.9	0.00e+00	0	32	101	1048576	60	6956
2026-01-07 00:18:46.55	341.05	30.63	-42.4	-43.6	21.7	0.00e+00	0	32	101	1048576	60	7339
2026-01-07 00:18:47.56	341.02	30.44	-41.8	-42.9	22.1	0.00e+00	0	32	101	1048576	60	6776
2026-01-07 00:18:48.57	341.00	30.24	-42.3	-43.5	21.7	0.00e+00	0	32	101	1048576	60	7299
2026-01-07 00:18:49.58	340.97	30.05	-42.4	-43.6	21.5	0.00e+00	62	32	101	1048576	60	7368
2026-01-07 00:18:50.59	340.95	29.86	-43.5	-44.9	20.3	0.00e+00	0	32	101	1048576	60	8585
2026-01-07 00:18:51.60	340.92	29.67	-44.0	-45.5	19.9	0.00e+00	65	32	101	1048576	60	9156
2026-01-07 00:18:52.61	340.90	29.48	-44.4	-46.0	19.4	0.00e+00	0	32	101	1048576	60	9777
2026-01-07 00:18:53.62	340.88	29.29	-44.6	-46.3	19.3	0.00e+00	30	32	101	1048576	60	10015
2026-01-07 00:18:54.63	340.85	29.11	-44.6	-46.3	19.2	0.00e+00	0	32	101	1048576	60	10041
2026-01-07 00:18:55.64	340.83	28.92	-43.8	-45.3	20.1	0.00e+00	0	32	101	1048576	60	8958
2026-01-07 00:18:56.66	340.81	28.74	-43.0	-44.3	21.0	0.00e+00	62	32	101	1048576	60	7989
2026-01-07 00:18:57.67	340.79	28.55	-42.4	-43.6	21.6	0.00e+00	0	32	101	1048576	60	7367
2026-01-07 00:18:58.68	340.77	28.37	-42.3	-43.5	21.6	0.00e+00	60	32	101	1048576	60	7292
2026-01-07 00:18:59.69	340.75	28.19	-41.9	-43.0	22.0	0.00e+00	0	32	101	1048576	60	6905
2026-01-07 00:19:00.70	340.72	28.01	-40.8	-41.8	23.1	0.00e+00	0	32	101	1048576	60	5976
2026-01-07 00:19:01.71	340.70	27.83	-40.8	-41.8	23.1	0.00e+00	0	32	101	1048576	60	5972
2026-01-07 00:19:02.72	340.68	27.66	-40.9	-41.8	23.0	0.00e+00	0	32	101	1048576	60	6027
2026-01-07 00:19:03.73	340.66	27.48	-41.1	-42.1	22.8	0.00e+00	57	32	101	1048576	60	6198
2026-01-07 00:19:04.74	340.64	27.31	-40.7	-41.7	23.1	0.00e+00	0	32	101	1048576	60	5905
2026-01-07 00:19:05.75	340.62	27.13	-41.2	-42.2	22.5	0.00e+00	92	32	101	1048576	60	6297
2026-01-07 00:19:06.75	340.60	26.96	-41.4	-42.5	22.5	0.00e+00	0	32	101	1048576	60	6471
2026-01-07 00:19:07.76	340.58	26.79	-41.6	-42.7	22.3	0.00e+00	88	32	101	1048576	60	6653
2026-01-07 00:19:08.77	340.57	26.62	-41.8	-42.9	22.1	0.00e+00	0	32	101	1048576	60	6806
2026-01-07 00:19:09.78	340.55	26.45	-41.7	-42.9	22.2	7.00e-07	0	32	101	1048576	60	6778
2026-01-07 00:19:10.79	340.53	26.28	-41.7	-42.8	22.2	0.00e+00	0	32	101	1048576	60	6711
2026-01-07 00:19:11.80	340.51	26.11	-41.7	-42.8	22.2	0.00e+00	0	32	101	1048576	60	6713
2026-01-07 00:19:12.81	340.49	25.95	-41.5	-42.6	22.3	0.00e+00	55	32	101	1048576	60	6577
2026-01-07 00:19:13.82	340.47	25.78	-41.1	-42.2	22.7	0.00e+00	0	32	101	1048576	60	6263
2026-01-07 00:19:14.82	340.46	25.62	-40.7	-41.8	23.2	0.00e+00	84	32	101	1048576	60	5975
2026-01-07 00:19:15.83	340.44	25.46	-40.6	-41.6	23.0	0.00e+00	0	32	101	1048576	60	5893
2026-01-07 00:19:16.84	340.42	25.30	-40.5	-41.5	23.3	0.00e+00	0	32	101	1048576	60	5804
2026-01-07 00:19:17.85	340.41	25.13	-40.3	-41.3	23.4	0.00e+00	0	32	101	1048576	60	5634
2026-01-07 00:19:18.86	340.39	24.97	-40.3	-41.3	23.4	0.00e+00	0	32	101	1048576	60	5643
2026-01-07 00:19:19.86	340.37	24.82	-39.8	-40.7	23.7	0.00e+00	23	32	101	1048576	58	5948
2026-01-07 00:19:20.87	340.36	24.66	-39.6	-40.5	23.9	0.00e+00	0	32	101	1048576	58	5780
2026-01-07 00:19:21.88	340.34	24.50	-39.6	-40.5	23.8	0.00e+00	74	32	101	1048576	58	5786
2026-01-07 00:19:22.88	340.33	24.35	-39.7	-40.7	23.7	0.00e+00	0	32	101	1048576	58	5903
2026-01-07 00:19:23.89	340.31	24.19	-39.5	-40.5	23.9	0.00e+00	0	32	101	1048576	58	5779
2026-01-07 00:19:24.90	340.29	24.04	-39.7	-40.6	23.8	0.00e+00	0	32	101	1048576	58	5855
2026-01-07 00:19:25.91	340.28	23.88	-39.7	-40.6	23.8	0.00e+00	0	32	101	1048576	58	5851
2026-01-07 00:19:26.92	340.26	23.73	-39.7	-40.7	23.7	0.00e+00	0	32	101	1048576	58	5906
2026-01-07 00:19:27.93	340.25	23.58	-39.8	-40.8	23.6	0.00e+00	0	32	101	1048576	58	5979
2026-01-07 00:19:28.94	340.23	23.43	-40.1	-41.1	23.3	0.00e+00	89	32	101	1048576	58	6187
2026-01-07 00:19:29.94	340.22	23.28	-40.5	-41.5	23.1	0.00e+00	0	32	101	1048576	58	6482
2026-01-07 00:19:30.95	340.21	23.13	-40.5	-41.5	23.1	0.00e+00	0	32	101	1048576	58	6513
2026-01-07 00:19:31.96	340.19	22.98	-40.9	-41.9	22.8	0.00e+00	0	32	101	1048576	58	6832
2026-01-07 00:19:32.97	340.18	22.83	-41.2	-42.2	22.6	0.00e+00	0	32	101	1048576	58	7077
2026-01-07 00:19:33.98	340.16	22.69	-41.4	-42.4	22.4	0.00e+00	9	32	101	1048576	60	6449
2026-01-07 00:19:34.99	340.15	22.54	-41.4	-42.5	22.4	0.00e+00	0	32	101	1048576	60	6495
2026-01-07 00:19:35.99	340.14	22.40	-41.5	-42.6	22.2	0.00e+00	92	32	101	1048576	60	6582
2026-01-07 00:19:37.00	340.12	22.25	-41.2	-42.3	22.5	0.00e+00	0	32	101	1048576	60	6350
2026-01-07 00:19:38.01	340.11	22.11	-41.1	-42.2	22.7	0.00e+00	92	32	101	1048576	60	6256
2026-01-07 00:19:39.02	340.10	21.97	-41.2	-42.3	22.5	0.00e+00	0	32	101	1048576	60	6348
2026-01-07 00:19:40.02	340.08	21.83	-40.9	-42.0	22.8	0.00e+00	0	32	101	1048576	60	6108
2026-01-07 00:19:41.03	340.07	21.69	-41.1	-42.2	22.7	0.00e+00	0	32	101	1048576	60	6257
2026-01-07 00:19:42.04	340.06	21.55	-41.3	-42.4	22.4	0.00e+00	0	32	101	1048576	60	6445
2026-01-07 00:19:43.05	340.05	21.41	-40.9	-41.9	22.9	0.00e+00	59	32	101	1048576	60	6075
2026-01-07 00:19:44.05	340.03	21.27	-40.6	-41.6	23.1	0.00e+00	0	32	101	1048576	60	5843
2026-01-07 00:19:45.06	340.02	21.13	-40.9	-42.0	22.8	0.00e+00	91	32	101	1048576	60	6114
2026-01-07 00:19:46.07	340.01	20.99	-41.2	-42.3	22.4	0.00e+00	0	32	101	1048576	60	6376
2026-01-07 00:19:47.08	340.00	20.86	-41.3	-42.4	22.5	0.00e+00	0	32	101	1048576	60	6414
2026-01-07 00:19:48.09	339.99	20.72	-41.6	-42.7	22.2	0.00e+00	0	32	101	1048576	60	6690
2026-01-07 00:19:49.10	339.97	20.59	-41.3	-42.4	22.4	0.00e+00	0	32	101	1048576	60	6433
2026-01-07 00:19:50.10	339.96	20.45	-41.3	-42.4	22.5	0.00e+00	36	32	101	1048576	60	6420
2026-01-07 00:19:51.11	339.95	20.32	-41.2	-42.4	22.5	0.00e+00	0	32	101	1048576	60	6391
2026-01-07 00:19:52.12	339.94	20.19	-41.2	-42.3	22.5	0.00e+00	79	32	101	1048576	60	6322
