passes_logs/2026/01/07/R4.6S_Anadyr_2ch/R4.6S_Anadyr_2ch__20260107_163446_FENGYUN_3D_rec.log

#Pass ID: 20260107_163446_FENGYUN 3D
#Satellite: FENGYUN 3D
#Configuration: FENGYUN 3D
#almurnet v.1.7.20251203
#Start time: 2026-01-07 16:34:49

#Version: 2.2.20231116
#Station: R4.6S_Anadyr_2ch
#Location: 177.4865 lon 64.73178 lat
#TLE: 1 43010U 17072A   25350.96693137  .00000321  00000+0  17364-3 0  9993
#TLE: 2 43010  98.9888 317.3403 0001146 169.6565 190.4634 14.19686173419132

#Time	Az	El	Level	Level2	SNR	BER	BlckErr	Temp	State	Recorded	gain1	gain2
2026-01-07 16:34:49.83	20.65	0.19	-51.7	-62.6	3.3	8.41e-01	0	34	0	0	60	65549
2026-01-07 16:34:50.84	20.67	0.25	-51.7	-64.0	3.6	8.45e-01	0	34	104	0	60	77222
2026-01-07 16:34:51.85	20.68	0.31	-51.7	-64.0	3.6	8.46e-01	0	34	104	0	60	77130
2026-01-07 16:34:52.86	20.69	0.37	-51.7	-64.0	3.6	8.45e-01	0	34	104	0	60	77472
2026-01-07 16:34:53.87	20.70	0.43	-51.7	-64.0	3.6	8.45e-01	0	34	104	0	60	76978
2026-01-07 16:34:54.88	20.71	0.49	-51.8	-64.1	3.6	8.45e-01	0	34	104	0	60	78024
2026-01-07 16:34:55.89	20.72	0.55	-51.8	-64.2	3.6	8.46e-01	0	34	104	0	60	78718
2026-01-07 16:34:56.90	20.73	0.61	-51.8	-64.1	3.6	8.45e-01	0	34	104	0	60	78620
2026-01-07 16:34:57.91	20.74	0.67	-51.8	-64.2	3.6	8.46e-01	0	34	104	0	60	78691
2026-01-07 16:34:58.93	20.76	0.74	-51.8	-64.2	3.6	8.45e-01	0	34	104	0	60	79207
2026-01-07 16:34:59.94	20.77	0.80	-51.9	-64.2	3.6	8.46e-01	0	34	104	0	60	78980
2026-01-07 16:35:00.95	20.78	0.86	-51.9	-64.2	3.6	8.44e-01	0	34	104	0	60	79019
2026-01-07 16:35:01.96	20.79	0.92	-51.9	-64.2	3.6	8.44e-01	0	34	104	0	60	79027
2026-01-07 16:35:02.97	20.80	0.98	-51.7	-64.1	3.6	8.44e-01	0	34	104	0	60	78398
2026-01-07 16:35:03.98	20.81	1.04	-51.8	-64.1	3.6	8.46e-01	0	34	104	0	60	78408
2026-01-07 16:35:04.99	20.82	1.11	-51.7	-64.0	3.6	8.45e-01	0	34	104	0	60	77605
2026-01-07 16:35:06.00	20.84	1.17	-51.6	-63.9	3.6	8.45e-01	0	34	104	0	60	76018
2026-01-07 16:35:07.01	20.85	1.23	-51.4	-63.7	3.6	8.45e-01	0	34	104	0	60	74394
2026-01-07 16:35:08.02	20.86	1.29	-51.3	-63.6	3.6	8.44e-01	0	34	104	0	60	73410
2026-01-07 16:35:09.03	20.87	1.36	-51.0	-63.4	3.6	8.45e-01	0	34	104	0	60	71710
2026-01-07 16:35:10.04	20.88	1.42	-50.8	-62.9	3.6	8.44e-01	0	34	104	0	60	68471
2026-01-07 16:35:11.05	20.89	1.48	-50.4	-62.7	3.6	8.44e-01	0	34	104	0	60	66338
2026-01-07 16:35:12.07	20.91	1.55	-50.4	-62.7	3.6	8.45e-01	0	34	104	0	60	66159
2026-01-07 16:35:13.08	20.92	1.61	-50.4	-62.6	3.6	8.45e-01	0	34	104	0	60	65827
2026-01-07 16:35:14.09	20.93	1.67	-50.4	-62.6	3.6	8.46e-01	0	34	104	0	60	65455
2026-01-07 16:35:15.10	20.94	1.74	-50.4	-62.4	3.6	8.45e-01	0	34	104	0	60	64247
2026-01-07 16:35:16.11	20.95	1.80	-50.4	-62.3	3.6	8.44e-01	0	34	104	0	60	63899
2026-01-07 16:35:17.12	20.97	1.86	-50.4	-62.4	3.6	8.45e-01	0	34	104	0	60	64016
2026-01-07 16:35:18.13	20.98	1.93	-50.4	-62.4	3.6	8.45e-01	0	34	104	0	60	64369
2026-01-07 16:35:19.14	20.99	1.99	-50.4	-62.5	3.6	8.45e-01	0	34	104	0	60	64926
2026-01-07 16:35:20.15	21.00	2.06	-50.4	-62.6	3.6	8.45e-01	0	34	104	0	60	65744
2026-01-07 16:35:21.17	21.01	2.12	-50.4	-62.6	3.6	8.45e-01	0	34	104	0	60	65891
2026-01-07 16:35:22.18	21.03	2.19	-50.4	-62.7	3.6	8.46e-01	0	34	104	0	60	66247
2026-01-07 16:35:23.19	21.04	2.25	-50.4	-62.7	3.6	8.45e-01	0	34	104	0	60	66732
2026-01-07 16:35:24.20	21.05	2.31	-50.4	-62.7	3.6	8.45e-01	0	34	104	0	60	66338
2026-01-07 16:35:25.21	21.06	2.38	-50.4	-62.7	3.6	8.44e-01	0	34	104	0	60	66247
2026-01-07 16:35:26.22	21.07	2.44	-50.4	-62.7	3.6	8.45e-01	0	34	104	0	60	66291
2026-01-07 16:35:27.23	21.09	2.51	-50.4	-62.5	3.6	8.45e-01	0	34	104	0	60	65337
2026-01-07 16:35:28.24	21.10	2.58	-50.4	-62.2	3.6	8.45e-01	0	34	104	0	60	62646
2026-01-07 16:35:29.25	21.11	2.64	-50.4	-61.7	3.6	8.45e-01	0	34	104	0	60	59250
2026-01-07 16:35:30.26	21.12	2.71	-50.3	-60.8	3.6	8.46e-01	0	34	104	0	60	53545
2026-01-07 16:35:31.28	21.14	2.77	-50.2	-59.8	3.9	8.45e-01	0	34	104	0	60	47441
2026-01-07 16:35:32.29	21.15	2.84	-50.1	-59.6	3.7	8.40e-01	0	34	104	0	60	46724
2026-01-07 16:35:33.30	21.16	2.91	-50.0	-57.8	3.9	8.36e-01	0	34	0	0	60	37754
2026-01-07 16:35:34.31	21.17	2.97	-50.1	-59.1	3.7	8.32e-01	0	34	104	0	60	43943
2026-01-07 16:35:35.32	21.19	3.04	-50.1	-59.3	3.8	8.37e-01	0	34	0	0	60	44804
2026-01-07 16:35:36.33	21.20	3.11	-50.0	-58.9	4.2	8.35e-01	0	34	104	0	60	42973
2026-01-07 16:35:37.34	21.21	3.17	-49.9	-56.5	4.5	8.09e-01	0	35	0	0	60	32532
2026-01-07 16:35:38.35	21.22	3.24	-49.2	-54.0	6.9	2.61e-01	0	34	0	0	60	24367
2026-01-07 16:35:39.36	21.24	3.31	-48.3	-51.9	9.4	3.86e-02	0	34	102	1048576	60	19106
2026-01-07 16:35:40.38	21.25	3.37	-47.4	-50.3	11.3	5.02e-03	0	35	102	1048576	60	15939
2026-01-07 16:35:41.39	21.26	3.44	-46.2	-48.4	13.4	1.04e-04	0	35	102	1048576	60	12812
2026-01-07 16:35:42.40	21.27	3.51	-45.2	-47.0	15.0	2.20e-06	0	34	102	1048576	60	10870
2026-01-07 16:35:43.41	21.29	3.58	-44.4	-46.0	15.8	0.00e+00	0	34	102	1048576	60	9717
2026-01-07 16:35:44.42	21.30	3.64	-43.8	-45.3	16.5	0.00e+00	0	34	102	1048576	60	8975
2026-01-07 16:35:45.43	21.31	3.71	-43.5	-44.9	17.1	0.00e+00	0	34	102	1048576	60	8529
2026-01-07 16:35:46.44	21.33	3.78	-43.4	-44.8	17.0	0.00e+00	0	34	102	1048576	60	8455
2026-01-07 16:35:47.45	21.34	3.85	-43.8	-45.3	16.5	0.00e+00	0	35	102	1048576	60	8972
2026-01-07 16:35:48.46	21.35	3.92	-44.2	-45.7	16.0	0.00e+00	0	34	102	1048576	60	9447
2026-01-07 16:35:49.47	21.36	3.99	-44.8	-46.5	15.1	0.00e+00	0	34	102	1048576	60	10358
2026-01-07 16:35:50.48	21.38	4.06	-45.7	-47.8	13.7	0.00e+00	0	34	102	1048576	60	11969
2026-01-07 16:35:51.49	21.39	4.13	-47.1	-49.8	11.6	3.27e-04	0	35	102	1048576	60	15071
2026-01-07 16:35:52.51	21.40	4.20	-41.0	-42.0	20.6	1.10e-03	0	35	102	1048576	60	6106
2026-01-07 16:35:53.52	21.42	4.27	-40.5	-41.5	19.8	0.00e+00	0	34	102	1048576	56	7260
2026-01-07 16:35:54.53	21.43	4.33	-47.8	-51.1	8.4	4.50e-06	0	34	102	1048576	60	17600
2026-01-07 16:35:55.54	21.44	4.40	-43.2	-44.5	6.1	7.69e-01	0	35	104	1048576	60	8192
2026-01-07 16:35:56.55	21.46	4.47	-46.4	-48.9	5.0	0.00e+00	0	34	104	1048576	60	13635
2026-01-07 16:35:57.56	21.47	4.55	-48.7	-53.3	5.8	8.35e-01	0	35	104	1048576	60	22428
2026-01-07 16:35:58.57	21.48	4.62	-40.3	-41.2	20.7	0.00e+00	0	34	0	1048576	60	5624
2026-01-07 16:35:59.58	21.50	4.69	-39.7	-40.6	21.2	0.00e+00	0	34	0	1048576	58	5877
2026-01-07 16:36:00.59	21.51	4.76	-39.7	-40.6	21.3	0.00e+00	0	35	0	1048576	58	5861
2026-01-07 16:36:01.61	21.52	4.83	-39.7	-40.6	21.2	0.00e+00	0	35	0	1048576	58	5879
2026-01-07 16:36:02.62	21.54	4.90	-39.9	-40.7	21.1	0.00e+00	0	35	0	1048576	58	5964
2026-01-07 16:36:03.63	21.55	4.97	-39.9	-40.8	21.5	0.00e+00	0	35	0	1048576	58	6000
2026-01-07 16:36:04.64	21.56	5.04	-39.2	-40.1	21.8	0.00e+00	0	35	101	1048576	56	6188
2026-01-07 16:36:05.65	21.58	5.11	-39.3	-40.1	21.7	0.00e+00	0	35	101	1048576	56	6238
2026-01-07 16:36:06.66	21.59	5.19	-38.8	-39.6	22.4	0.00e+00	0	35	101	1048576	56	5855
2026-01-07 16:36:07.67	21.61	5.26	-38.9	-39.7	22.3	0.00e+00	0	35	101	1048576	56	5918
2026-01-07 16:36:08.68	21.62	5.33	-38.8	-39.6	22.4	0.00e+00	0	34	101	1048576	56	5839
2026-01-07 16:36:09.69	21.63	5.40	-38.8	-39.6	22.3	0.00e+00	0	35	101	1048576	56	5874
2026-01-07 16:36:10.70	21.65	5.48	-38.8	-39.6	22.7	0.00e+00	0	35	101	1048576	56	5853
2026-01-07 16:36:11.71	21.66	5.55	-38.6	-39.4	22.5	0.00e+00	0	34	101	1048576	56	5716
2026-01-07 16:36:12.73	21.68	5.62	-38.7	-39.5	22.5	0.00e+00	0	34	101	1048576	56	5822
2026-01-07 16:36:13.74	21.69	5.70	-38.4	-39.2	22.9	0.00e+00	0	35	101	1048576	56	5582
2026-01-07 16:36:14.75	21.70	5.77	-38.3	-39.1	22.9	0.00e+00	0	35	101	1048576	56	5537
2026-01-07 16:36:15.76	21.72	5.84	-38.3	-39.1	23.0	0.00e+00	0	35	101	1048576	56	5525
2026-01-07 16:36:16.77	21.73	5.92	-38.2	-39.0	23.0	0.00e+00	0	35	101	1048576	56	5470
2026-01-07 16:36:17.78	21.75	5.99	-38.3	-39.0	23.1	0.00e+00	0	35	101	1048576	56	5487
2026-01-07 16:36:18.79	21.76	6.07	-38.1	-38.9	23.1	0.00e+00	0	35	101	1048576	54	6036
2026-01-07 16:36:19.80	21.77	6.14	-38.1	-38.9	23.1	0.00e+00	0	35	101	1048576	54	6064
2026-01-07 16:36:20.81	21.79	6.22	-38.0	-38.8	23.1	0.00e+00	0	35	101	1048576	54	6005
2026-01-07 16:36:21.82	21.80	6.29	-38.1	-38.9	23.1	0.00e+00	0	35	101	1048576	54	6064
2026-01-07 16:36:22.83	21.82	6.37	-37.9	-38.7	23.3	0.00e+00	0	35	101	1048576	54	5911
2026-01-07 16:36:23.84	21.83	6.44	-38.0	-38.7	23.2	0.00e+00	0	35	101	1048576	54	5962
2026-01-07 16:36:24.85	21.85	6.52	-38.0	-38.8	23.3	0.00e+00	0	35	101	1048576	54	5970
2026-01-07 16:36:25.86	21.86	6.59	-37.8	-38.6	23.4	0.00e+00	0	35	101	1048576	54	5836
2026-01-07 16:36:26.87	21.88	6.67	-37.9	-38.6	23.4	0.00e+00	0	35	101	1048576	54	5887
2026-01-07 16:36:27.88	21.89	6.75	-38.1	-38.9	23.3	0.00e+00	0	35	101	1048576	54	6059
2026-01-07 16:36:28.89	21.91	6.82	-37.8	-38.5	23.5	0.00e+00	0	35	101	1048576	54	5793
2026-01-07 16:36:29.90	21.92	6.90	-37.9	-38.6	23.4	0.00e+00	0	35	101	1048576	54	5884
2026-01-07 16:36:30.92	21.94	6.98	-37.6	-38.3	23.7	0.00e+00	0	35	101	1048576	54	5679
2026-01-07 16:36:31.93	21.95	7.05	-37.7	-38.5	23.5	0.00e+00	0	35	101	1048576	54	5773
2026-01-07 16:36:32.94	21.97	7.13	-37.6	-38.4	23.7	0.00e+00	0	35	101	1048576	54	5710
2026-01-07 16:36:33.95	21.98	7.21	-37.5	-38.2	23.8	0.00e+00	0	35	101	1048576	54	5590
2026-01-07 16:36:34.96	22.00	7.29	-37.6	-38.3	23.8	0.00e+00	0	35	101	1048576	54	5647
2026-01-07 16:36:35.97	22.01	7.37	-37.4	-38.1	23.8	0.00e+00	0	35	101	1048576	54	5550
2026-01-07 16:36:36.98	22.03	7.44	-37.4	-38.1	23.9	0.00e+00	0	35	101	1048576	54	5564
2026-01-07 16:36:37.99	22.04	7.52	-37.5	-38.2	23.9	0.00e+00	0	35	101	1048576	54	5572
2026-01-07 16:36:39.00	22.06	7.60	-37.3	-38.1	24.0	0.00e+00	0	35	101	1048576	54	5519
2026-01-07 16:36:40.01	22.07	7.68	-37.4	-38.1	24.0	0.00e+00	0	35	101	1048576	54	5522
2026-01-07 16:36:41.02	22.09	7.76	-37.3	-38.0	24.0	0.00e+00	0	35	101	1048576	54	5458
2026-01-07 16:36:42.04	22.10	7.84	-37.3	-38.0	24.1	0.00e+00	0	35	101	1048576	54	5475
2026-01-07 16:36:43.05	22.12	7.92	-37.3	-38.0	24.1	0.00e+00	0	35	101	1048576	54	5499
2026-01-07 16:36:44.06	22.14	8.00	-37.3	-38.0	24.1	0.00e+00	0	35	101	1048576	54	5452
2026-01-07 16:36:45.07	22.15	8.08	-37.2	-37.9	24.2	0.00e+00	0	35	101	1048576	52	6054
2026-01-07 16:36:46.08	22.17	8.16	-37.2	-37.9	24.2	0.00e+00	0	35	101	1048576	52	6065
2026-01-07 16:36:47.09	22.18	8.24	-37.2	-37.9	24.3	0.00e+00	0	35	101	1048576	52	6080
2026-01-07 16:36:48.10	22.20	8.33	-37.3	-38.0	24.2	0.00e+00	0	35	101	1048576	52	6150
2026-01-07 16:36:49.11	22.21	8.41	-37.1	-37.8	24.3	0.00e+00	0	35	101	1048576	52	6030
2026-01-07 16:36:50.12	22.23	8.49	-37.2	-37.9	24.2	0.00e+00	0	35	101	1048576	52	6090
2026-01-07 16:36:51.13	22.25	8.57	-37.1	-37.8	24.3	0.00e+00	0	35	101	1048576	52	6030
2026-01-07 16:36:52.14	22.26	8.65	-37.1	-37.9	24.3	0.00e+00	0	35	101	1048576	52	6054
2026-01-07 16:36:53.15	22.28	8.74	-37.2	-37.9	24.3	0.00e+00	0	35	101	1048576	52	6064
2026-01-07 16:36:54.16	22.30	8.82	-37.3	-38.0	24.2	0.00e+00	0	35	101	1048576	52	6129
2026-01-07 16:36:55.17	22.31	8.90	-37.3	-38.0	24.1	0.00e+00	0	35	101	1048576	52	6134
2026-01-07 16:36:56.19	22.33	8.99	-37.3	-38.0	24.3	0.00e+00	0	35	101	1048576	52	6150
2026-01-07 16:36:57.20	22.34	9.07	-37.0	-37.8	24.4	0.00e+00	0	35	101	1048576	52	5980
2026-01-07 16:36:58.21	22.36	9.15	-37.1	-37.9	24.4	0.00e+00	0	35	101	1048576	52	6050
2026-01-07 16:36:59.22	22.38	9.24	-37.1	-37.8	24.4	0.00e+00	0	35	101	1048576	52	5997
2026-01-07 16:37:00.23	22.39	9.32	-37.1	-37.8	24.4	0.00e+00	0	35	101	1048576	52	5992
2026-01-07 16:37:01.24	22.41	9.41	-37.0	-37.7	24.5	0.00e+00	0	35	101	1048576	52	5950
2026-01-07 16:37:02.25	22.43	9.49	-37.0	-37.7	24.4	0.00e+00	0	35	101	1048576	52	5926
2026-01-07 16:37:03.26	22.45	9.58	-37.2	-37.9	24.3	0.00e+00	0	35	101	1048576	52	6079
2026-01-07 16:37:04.27	22.46	9.66	-37.2	-37.9	24.4	0.00e+00	0	35	101	1048576	52	6068
2026-01-07 16:37:05.29	22.48	9.75	-37.0	-37.7	24.6	0.00e+00	0	35	101	1048576	52	5914
2026-01-07 16:37:06.30	22.50	9.84	-37.1	-37.8	24.4	0.00e+00	0	35	101	1048576	52	6021
2026-01-07 16:37:07.31	22.51	9.92	-37.0	-37.7	24.4	0.00e+00	0	35	101	1048576	52	5921
2026-01-07 16:37:08.32	22.53	10.01	-37.2	-37.9	24.6	0.00e+00	0	35	101	1048576	52	6050
2026-01-07 16:37:09.33	22.55	10.10	-37.1	-37.8	24.3	0.00e+00	0	35	101	1048576	52	5988
2026-01-07 16:37:10.34	22.57	10.18	-37.2	-37.9	24.6	0.00e+00	0	35	101	1048576	52	6064
2026-01-07 16:37:11.35	22.58	10.27	-37.3	-38.0	24.3	0.00e+00	0	35	101	1048576	52	6141
2026-01-07 16:37:12.36	22.60	10.36	-36.9	-37.6	24.6	0.00e+00	0	35	101	1048576	52	5866
2026-01-07 16:37:13.38	22.62	10.45	-36.7	-37.4	24.7	0.00e+00	0	35	101	1048576	52	5750
2026-01-07 16:37:14.39	22.64	10.54	-36.8	-37.5	24.7	0.00e+00	0	35	101	1048576	52	5808
2026-01-07 16:37:15.40	22.65	10.63	-36.8	-37.5	24.6	0.00e+00	0	35	101	1048576	52	5789
2026-01-07 16:37:16.41	22.67	10.72	-37.0	-37.7	24.7	0.00e+00	0	35	101	1048576	52	5903
2026-01-07 16:37:17.42	22.69	10.81	-37.0	-37.7	24.6	0.00e+00	0	35	101	1048576	52	5906
2026-01-07 16:37:18.43	22.71	10.90	-36.8	-37.5	24.8	0.00e+00	0	35	101	1048576	52	5781
2026-01-07 16:37:19.44	22.73	10.99	-36.9	-37.6	24.7	0.00e+00	0	35	101	1048576	52	5863
2026-01-07 16:37:20.45	22.75	11.08	-36.9	-37.5	24.6	0.00e+00	0	35	101	1048576	52	5821
2026-01-07 16:37:21.46	22.76	11.17	-36.9	-37.6	24.7	0.00e+00	0	35	101	1048576	52	5829
2026-01-07 16:37:22.47	22.78	11.26	-37.0	-37.7	24.6	0.00e+00	0	35	101	1048576	52	5928
2026-01-07 16:37:23.48	22.80	11.35	-36.9	-37.6	24.6	0.00e+00	0	35	101	1048576	52	5853
2026-01-07 16:37:24.50	22.82	11.45	-36.9	-37.6	24.6	0.00e+00	0	35	101	1048576	52	5854
2026-01-07 16:37:25.51	22.84	11.54	-36.9	-37.6	24.7	0.00e+00	0	35	101	1048576	52	5829
2026-01-07 16:37:26.52	22.86	11.63	-36.6	-37.3	24.8	0.00e+00	0	35	101	1048576	52	5669
2026-01-07 16:37:27.53	22.88	11.72	-36.4	-37.1	25.1	0.00e+00	0	35	101	1048576	52	5508
2026-01-07 16:37:28.54	22.90	11.82	-36.4	-37.1	25.1	0.00e+00	0	35	101	1048576	52	5528
2026-01-07 16:37:29.55	22.91	11.91	-36.4	-37.1	25.1	0.00e+00	0	35	101	1048576	52	5525
2026-01-07 16:37:30.56	22.93	12.01	-36.6	-37.3	25.0	0.00e+00	0	35	101	1048576	52	5631
2026-01-07 16:37:31.57	22.95	12.10	-36.4	-37.1	25.1	0.00e+00	0	35	101	1048576	52	5509
2026-01-07 16:37:32.58	22.97	12.19	-36.5	-37.2	25.1	0.00e+00	0	35	101	1048576	52	5588
2026-01-07 16:37:33.59	22.99	12.29	-36.4	-37.1	25.2	0.00e+00	0	35	101	1048576	52	5518
2026-01-07 16:37:34.60	23.01	12.39	-36.5	-37.2	25.0	0.00e+00	0	35	101	1048576	52	5594
2026-01-07 16:37:35.61	23.03	12.48	-36.5	-37.2	25.1	0.00e+00	0	35	101	1048576	52	5609
2026-01-07 16:37:36.62	23.05	12.58	-36.5	-37.2	25.0	0.00e+00	0	35	101	1048576	52	5586
2026-01-07 16:37:37.63	23.07	12.68	-36.6	-37.2	25.0	0.00e+00	0	35	101	1048576	52	5625
2026-01-07 16:37:38.64	23.09	12.77	-36.4	-37.1	25.2	0.00e+00	0	35	101	1048576	52	5520
2026-01-07 16:37:39.65	23.11	12.87	-36.5	-37.2	25.1	0.00e+00	0	35	101	1048576	52	5572
2026-01-07 16:37:40.67	23.13	12.97	-36.4	-37.1	25.2	0.00e+00	0	35	101	1048576	52	5530
2026-01-07 16:37:41.68	23.15	13.07	-36.4	-37.1	25.2	0.00e+00	0	35	101	1048576	52	5522
2026-01-07 16:37:42.69	23.17	13.17	-36.4	-37.1	25.2	0.00e+00	0	35	101	1048576	52	5510
2026-01-07 16:37:43.70	23.19	13.27	-36.5	-37.2	25.1	0.00e+00	0	35	101	1048576	52	5587
2026-01-07 16:37:44.71	23.21	13.36	-36.6	-37.3	25.0	0.00e+00	0	35	101	1048576	52	5679
2026-01-07 16:37:45.72	23.23	13.46	-36.4	-37.1	25.2	0.00e+00	0	35	101	1048576	52	5527
2026-01-07 16:37:46.73	23.25	13.57	-36.4	-37.1	25.2	0.00e+00	0	35	101	1048576	52	5529
2026-01-07 16:37:47.74	23.28	13.67	-36.4	-37.1	25.2	0.00e+00	0	35	101	1048576	52	5533
2026-01-07 16:37:48.75	23.30	13.77	-36.4	-37.1	25.1	0.00e+00	0	35	101	1048576	52	5509
2026-01-07 16:37:49.76	23.32	13.87	-36.5	-37.2	25.1	0.00e+00	0	35	101	1048576	52	5621
2026-01-07 16:37:50.77	23.34	13.97	-36.3	-37.0	25.4	0.00e+00	0	35	101	1048576	52	5487
2026-01-07 16:37:51.79	23.36	14.07	-36.4	-37.1	25.2	0.00e+00	0	35	101	1048576	52	5519
2026-01-07 16:37:52.80	23.38	14.18	-36.3	-37.0	25.4	0.00e+00	0	35	101	1048576	52	5472
2026-01-07 16:37:53.81	23.40	14.28	-36.3	-37.0	25.3	0.00e+00	0	35	101	1048576	52	5459
2026-01-07 16:37:54.82	23.43	14.38	-36.2	-36.9	25.4	0.00e+00	0	35	101	1048576	52	5409
2026-01-07 16:37:55.83	23.45	14.49	-36.1	-36.8	25.5	0.00e+00	0	35	101	1048576	50	5990
2026-01-07 16:37:56.84	23.47	14.59	-36.1	-36.7	25.4	0.00e+00	0	35	101	1048576	50	5939
2026-01-07 16:37:57.85	23.49	14.70	-36.1	-36.8	25.4	0.00e+00	0	35	101	1048576	50	5986
2026-01-07 16:37:58.86	23.51	14.80	-36.0	-36.6	25.6	0.00e+00	0	35	101	1048576	50	5879
2026-01-07 16:37:59.87	23.54	14.91	-35.8	-36.5	25.7	0.00e+00	0	35	101	1048576	50	5807
2026-01-07 16:38:00.88	23.56	15.02	-35.8	-36.5	25.7	0.00e+00	0	35	101	1048576	50	5775
2026-01-07 16:38:01.89	23.58	15.12	-35.9	-36.5	25.7	0.00e+00	0	35	101	1048576	50	5810
2026-01-07 16:38:02.91	23.60	15.23	-35.9	-36.6	25.8	0.00e+00	0	35	101	1048576	50	5833
2026-01-07 16:38:03.92	23.63	15.34	-35.6	-36.3	25.9	0.00e+00	0	35	101	1048576	50	5638
2026-01-07 16:38:04.93	23.65	15.45	-35.6	-36.3	25.9	0.00e+00	0	35	101	1048576	50	5637
2026-01-07 16:38:05.94	23.67	15.56	-35.4	-36.0	26.1	0.00e+00	0	35	101	1048576	50	5495
2026-01-07 16:38:06.95	23.70	15.67	-35.5	-36.2	26.0	0.00e+00	0	35	101	1048576	50	5573
2026-01-07 16:38:07.96	23.72	15.78	-35.4	-36.0	26.1	0.00e+00	0	35	101	1048576	50	5496
2026-01-07 16:38:08.97	23.74	15.89	-35.2	-35.9	26.3	0.00e+00	0	35	101	1048576	50	5392
2026-01-07 16:38:09.98	23.77	16.00	-35.2	-35.8	26.3	0.00e+00	0	35	101	1048576	50	5346
2026-01-07 16:38:10.99	23.79	16.11	-35.2	-35.9	26.4	0.00e+00	0	35	101	1048576	48	6059
2026-01-07 16:38:12.01	23.82	16.22	-35.1	-35.7	26.4	0.00e+00	0	35	101	1048576	48	5943
2026-01-07 16:38:13.02	23.84	16.34	-35.0	-35.6	26.5	0.00e+00	0	35	101	1048576	48	5858
2026-01-07 16:38:14.03	23.86	16.45	-34.9	-35.5	26.6	0.00e+00	0	35	101	1048576	48	5824
2026-01-07 16:38:15.04	23.89	16.56	-34.9	-35.5	26.6	0.00e+00	0	35	101	1048576	48	5798
2026-01-07 16:38:16.05	23.91	16.68	-35.0	-35.6	26.6	0.00e+00	0	35	101	1048576	48	5858
2026-01-07 16:38:17.06	23.94	16.79	-34.9	-35.6	26.6	0.00e+00	0	35	101	1048576	48	5838
2026-01-07 16:38:18.07	23.96	16.91	-35.0	-35.6	26.4	0.00e+00	0	35	101	1048576	48	5888
2026-01-07 16:38:19.08	23.99	17.02	-34.7	-35.4	26.7	0.00e+00	0	35	101	1048576	48	5714
2026-01-07 16:38:20.09	24.01	17.14	-34.8	-35.4	26.6	0.00e+00	0	35	101	1048576	48	5750
2026-01-07 16:38:21.11	24.04	17.26	-34.6	-35.2	26.9	0.00e+00	0	35	101	1048576	48	5609
2026-01-07 16:38:22.12	24.06	17.37	-34.5	-35.1	26.9	0.00e+00	0	35	101	1048576	48	5524
2026-01-07 16:38:23.13	24.09	17.49	-34.6	-35.2	26.9	0.00e+00	0	35	101	1048576	48	5585
2026-01-07 16:38:24.14	24.12	17.61	-34.4	-35.1	26.9	0.00e+00	0	35	101	1048576	48	5515
2026-01-07 16:38:25.15	24.14	17.73	-34.6	-35.2	26.9	0.00e+00	0	35	101	1048576	48	5581
2026-01-07 16:38:26.16	24.17	17.85	-34.7	-35.3	26.8	0.00e+00	0	35	101	1048576	48	5641
2026-01-07 16:38:27.17	24.20	17.97	-34.5	-35.1	27.1	0.00e+00	0	35	101	1048576	48	5521
2026-01-07 16:38:28.18	24.22	18.09	-34.4	-35.0	27.0	0.00e+00	0	35	101	1048576	48	5502
2026-01-07 16:38:29.19	24.25	18.21	-34.5	-35.1	26.9	0.00e+00	0	35	101	1048576	48	5535
2026-01-07 16:38:30.20	24.28	18.33	-34.5	-35.1	26.9	0.00e+00	0	35	101	1048576	48	5560
2026-01-07 16:38:31.21	24.30	18.46	-34.4	-35.1	27.0	0.00e+00	0	35	101	1048576	48	5507
2026-01-07 16:38:32.22	24.33	18.58	-34.5	-35.2	26.9	0.00e+00	0	35	101	1048576	48	5575
2026-01-07 16:38:33.23	24.36	18.70	-34.4	-35.1	27.1	0.00e+00	0	35	101	1048576	48	5506
2026-01-07 16:38:34.24	24.39	18.83	-34.4	-35.1	27.0	0.00e+00	0	35	101	1048576	48	5504
2026-01-07 16:38:35.25	24.41	18.95	-34.5	-35.1	26.9	0.00e+00	0	35	101	1048576	48	5532
2026-01-07 16:38:36.27	24.44	19.08	-34.2	-34.9	27.2	0.00e+00	0	35	101	1048576	48	5391
2026-01-07 16:38:37.28	24.47	19.20	-34.3	-34.9	27.0	0.00e+00	0	35	101	1048576	48	5432
2026-01-07 16:38:38.29	24.50	19.33	-34.3	-34.9	27.1	0.00e+00	0	35	101	1048576	48	5407
2026-01-07 16:38:39.30	24.53	19.46	-34.2	-34.8	27.2	0.00e+00	0	35	101	1048576	48	5363
2026-01-07 16:38:40.31	24.56	19.59	-34.3	-34.9	27.1	0.00e+00	0	35	101	1048576	48	5431
2026-01-07 16:38:41.32	24.59	19.72	-34.3	-34.9	27.2	0.00e+00	0	35	101	1048576	48	5404
2026-01-07 16:38:42.33	24.61	19.85	-34.3	-34.9	27.2	0.00e+00	0	35	101	1048576	48	5415
2026-01-07 16:38:43.34	24.64	19.98	-34.4	-35.0	27.2	0.00e+00	0	35	101	1048576	48	5456
2026-01-07 16:38:44.35	24.67	20.11	-34.3	-35.0	27.1	0.00e+00	0	35	101	1048576	48	5459
2026-01-07 16:38:45.36	24.70	20.24	-34.3	-34.9	27.3	0.00e+00	0	35	101	1048576	48	5389
2026-01-07 16:38:46.37	24.73	20.37	-34.4	-35.0	27.1	0.00e+00	0	35	101	1048576	48	5482
2026-01-07 16:38:47.38	24.76	20.50	-34.2	-34.9	27.3	0.00e+00	0	35	101	1048576	46	6050
2026-01-07 16:38:48.39	24.80	20.64	-34.1	-34.8	27.3	0.00e+00	0	35	101	1048576	46	5976
2026-01-07 16:38:49.40	24.83	20.77	-34.3	-35.0	27.1	0.00e+00	0	35	101	1048576	46	6114
2026-01-07 16:38:50.41	24.86	20.91	-34.0	-34.7	27.4	0.00e+00	0	35	101	1048576	46	5908
2026-01-07 16:38:51.43	24.89	21.05	-33.8	-34.5	27.5	0.00e+00	0	35	101	1048576	46	5770
2026-01-07 16:38:52.44	24.92	21.18	-34.0	-34.6	27.4	0.00e+00	0	35	101	1048576	46	5842
2026-01-07 16:38:53.45	24.95	21.32	-33.8	-34.5	27.6	0.00e+00	0	35	101	1048576	46	5762
2026-01-07 16:38:54.46	24.98	21.46	-33.7	-34.3	27.7	0.00e+00	0	35	101	1048576	46	5664
2026-01-07 16:38:55.47	25.02	21.60	-33.7	-34.3	27.7	0.00e+00	0	35	101	1048576	46	5666
2026-01-07 16:38:56.48	25.05	21.74	-33.7	-34.3	27.6	0.00e+00	0	35	101	1048576	46	5668
2026-01-07 16:38:57.50	25.08	21.88	-33.8	-34.4	27.6	0.00e+00	0	35	101	1048576	46	5739
2026-01-07 16:38:58.50	25.12	22.02	-33.8	-34.4	27.6	0.00e+00	0	35	101	1048576	46	5714
2026-01-07 16:38:59.51	25.15	22.16	-33.7	-34.3	27.7	0.00e+00	0	35	101	1048576	46	5684
2026-01-07 16:39:00.53	25.18	22.30	-33.9	-34.5	27.6	0.00e+00	0	35	101	1048576	46	5762
2026-01-07 16:39:01.54	25.22	22.45	-33.7	-34.3	27.7	0.00e+00	0	35	101	1048576	46	5672
2026-01-07 16:39:02.55	25.25	22.59	-33.8	-34.4	27.7	0.00e+00	0	35	101	1048576	46	5705
2026-01-07 16:39:03.56	25.29	22.74	-33.8	-34.4	27.6	0.00e+00	0	35	101	1048576	46	5722
2026-01-07 16:39:04.57	25.32	22.88	-33.7	-34.3	27.8	0.00e+00	0	35	101	1048576	46	5647
2026-01-07 16:39:05.58	25.36	23.03	-33.5	-34.1	27.8	0.00e+00	0	35	101	1048576	46	5562
2026-01-07 16:39:06.59	25.39	23.18	-33.6	-34.2	27.8	0.00e+00	0	35	101	1048576	46	5580
2026-01-07 16:39:07.60	25.43	23.33	-33.5	-34.1	27.9	0.00e+00	0	35	101	1048576	46	5548
2026-01-07 16:39:08.61	25.46	23.47	-33.6	-34.2	27.7	0.00e+00	0	35	101	1048576	46	5612
2026-01-07 16:39:09.63	25.50	23.63	-33.6	-34.2	27.8	0.00e+00	0	35	101	1048576	46	5580
2026-01-07 16:39:10.64	25.54	23.78	-33.8	-34.4	27.6	0.00e+00	0	35	101	1048576	46	5713
2026-01-07 16:39:11.65	25.57	23.93	-33.5	-34.1	27.9	0.00e+00	0	35	101	1048576	46	5549
2026-01-07 16:39:12.66	25.61	24.08	-33.5	-34.2	27.9	0.00e+00	0	35	101	1048576	46	5581
2026-01-07 16:39:13.67	25.65	24.24	-33.6	-34.2	27.7	0.00e+00	0	35	101	1048576	46	5625
2026-01-07 16:39:14.68	25.68	24.39	-33.6	-34.2	27.8	0.00e+00	0	35	101	1048576	46	5622
2026-01-07 16:39:15.69	25.72	24.55	-33.7	-34.3	27.7	0.00e+00	0	35	101	1048576	46	5651
2026-01-07 16:39:16.70	25.76	24.70	-33.4	-34.0	27.9	0.00e+00	0	35	101	1048576	46	5482
2026-01-07 16:39:17.71	25.80	24.86	-33.6	-34.2	27.7	0.00e+00	0	35	101	1048576	46	5605
2026-01-07 16:39:18.72	25.84	25.02	-33.5	-34.1	27.8	0.00e+00	0	35	101	1048576	46	5558
2026-01-07 16:39:19.74	25.88	25.18	-33.3	-33.9	28.0	0.00e+00	0	35	101	1048576	46	5435
2026-01-07 16:39:20.75	25.92	25.34	-33.3	-33.9	28.0	0.00e+00	0	35	101	1048576	46	5437
2026-01-07 16:39:21.76	25.96	25.50	-33.2	-33.8	28.1	0.00e+00	0	35	101	1048576	46	5356
2026-01-07 16:39:22.77	26.00	25.66	-33.2	-33.8	28.1	0.00e+00	0	35	101	1048576	46	5350
2026-01-07 16:39:23.78	26.04	25.83	-33.3	-33.9	28.0	0.00e+00	0	35	101	1048576	46	5392
2026-01-07 16:39:24.79	26.08	25.99	-33.2	-33.8	28.1	0.00e+00	0	35	101	1048576	46	5345
2026-01-07 16:39:25.80	26.12	26.16	-33.1	-33.7	28.2	0.00e+00	0	35	101	1048576	44	5921
2026-01-07 16:39:26.81	26.17	26.32	-33.0	-33.6	28.2	0.00e+00	0	35	101	1048576	44	5866
2026-01-07 16:39:27.82	26.21	26.49	-33.1	-33.7	28.2	0.00e+00	0	35	101	1048576	44	5919
2026-01-07 16:39:28.83	26.25	26.66	-33.0	-33.7	28.3	0.00e+00	0	35	101	1048576	44	5906
2026-01-07 16:39:29.84	26.30	26.83	-33.1	-33.7	28.2	0.00e+00	0	35	101	1048576	44	5912
2026-01-07 16:39:30.85	26.34	27.00	-33.1	-33.7	28.2	0.00e+00	0	35	101	1048576	44	5924
2026-01-07 16:39:31.86	26.38	27.17	-33.2	-33.8	28.0	0.00e+00	0	35	101	1048576	44	5995
2026-01-07 16:39:32.88	26.43	27.34	-33.2	-33.8	28.1	0.00e+00	0	35	101	1048576	44	6032
2026-01-07 16:39:33.89	26.47	27.52	-33.2	-33.8	28.1	0.00e+00	0	35	101	1048576	44	6029
2026-01-07 16:39:34.90	26.52	27.69	-33.3	-33.9	28.0	0.00e+00	0	35	101	1048576	44	6048
2026-01-07 16:39:35.91	26.56	27.87	-33.4	-34.0	28.0	0.00e+00	0	35	101	1048576	44	6142
2026-01-07 16:39:36.92	26.61	28.04	-33.3	-33.9	28.0	0.00e+00	0	35	101	1048576	44	6101
2026-01-07 16:39:37.93	26.66	28.22	-33.5	-34.2	27.9	0.00e+00	0	35	101	1048576	44	6265
2026-01-07 16:39:38.94	26.71	28.40	-33.2	-33.8	28.1	0.00e+00	0	35	101	1048576	44	5993
2026-01-07 16:39:39.95	26.75	28.58	-33.4	-34.0	27.9	0.00e+00	0	35	101	1048576	44	6131
2026-01-07 16:39:40.96	26.80	28.76	-33.0	-33.6	28.2	0.00e+00	0	35	101	1048576	44	5895
2026-01-07 16:39:41.97	26.85	28.95	-33.0	-33.6	28.2	0.00e+00	0	35	101	1048576	44	5874
2026-01-07 16:39:42.99	26.90	29.13	-33.1	-33.8	28.2	0.00e+00	0	35	101	1048576	44	5966
2026-01-07 16:39:44.00	26.95	29.32	-33.1	-33.7	28.3	0.00e+00	0	35	101	1048576	44	5918
2026-01-07 16:39:45.01	27.00	29.50	-33.1	-33.7	28.2	0.00e+00	0	35	101	1048576	44	5917
2026-01-07 16:39:46.02	27.05	29.69	-32.9	-33.5	28.4	0.00e+00	0	35	101	1048576	44	5817
2026-01-07 16:39:47.03	27.10	29.88	-33.0	-33.7	28.2	0.00e+00	0	35	101	1048576	44	5900
2026-01-07 16:39:48.04	27.16	30.07	-32.9	-33.5	28.3	0.00e+00	0	35	101	1048576	44	5771
2026-01-07 16:39:49.05	27.21	30.26	-32.9	-33.6	28.3	0.00e+00	0	35	101	1048576	44	5832
2026-01-07 16:39:50.06	27.26	30.45	-33.0	-33.5	28.3	0.00e+00	0	35	101	1048576	44	5828
2026-01-07 16:39:51.07	27.32	30.65	-33.0	-33.6	28.2	0.00e+00	0	35	101	1048576	44	5879
2026-01-07 16:39:52.08	27.37	30.84	-33.1	-33.8	28.2	0.00e+00	0	35	101	1048576	44	5967
2026-01-07 16:39:53.10	27.43	31.04	-33.2	-33.8	28.1	0.00e+00	0	35	101	1048576	44	6031
2026-01-07 16:39:54.11	27.48	31.24	-33.2	-33.9	28.1	0.00e+00	0	35	101	1048576	44	6034
2026-01-07 16:39:55.12	27.54	31.44	-33.3	-33.9	28.1	0.00e+00	0	35	101	1048576	44	6068
2026-01-07 16:39:56.13	27.59	31.64	-33.3	-33.9	28.1	0.00e+00	0	35	101	1048576	44	6088
2026-01-07 16:39:57.14	27.65	31.84	-33.2	-33.9	28.1	0.00e+00	0	35	101	1048576	44	6048
2026-01-07 16:39:58.15	27.71	32.04	-33.2	-33.9	28.1	0.00e+00	0	35	101	1048576	44	6039
2026-01-07 16:39:59.16	27.77	32.24	-33.2	-33.9	28.1	0.00e+00	0	35	101	1048576	44	6040
2026-01-07 16:40:00.17	27.83	32.45	-33.0	-33.6	28.3	0.00e+00	0	35	101	1048576	44	5875
2026-01-07 16:40:01.18	27.89	32.66	-33.0	-33.6	28.3	0.00e+00	0	35	101	1048576	44	5875
2026-01-07 16:40:02.19	27.95	32.87	-32.9	-33.5	28.3	0.00e+00	0	35	101	1048576	44	5779
2026-01-07 16:40:03.20	28.01	33.08	-33.0	-33.6	28.3	0.00e+00	0	35	101	1048576	44	5847
2026-01-07 16:40:04.22	28.08	33.29	-33.0	-33.6	28.2	0.00e+00	0	35	101	1048576	44	5863
2026-01-07 16:40:05.23	28.14	33.50	-32.9	-33.5	28.3	0.00e+00	0	35	101	1048576	44	5813
2026-01-07 16:40:06.24	28.20	33.72	-33.0	-33.6	28.3	0.00e+00	0	35	101	1048576	44	5842
2026-01-07 16:40:07.25	28.27	33.93	-32.8	-33.4	28.3	0.00e+00	0	35	101	1048576	44	5745
2026-01-07 16:40:08.26	28.33	34.15	-33.0	-33.6	28.3	0.00e+00	0	35	101	1048576	44	5847
2026-01-07 16:40:09.27	28.40	34.37	-33.0	-33.7	28.3	0.00e+00	0	35	101	1048576	44	5898
2026-01-07 16:40:10.28	28.47	34.59	-33.2	-33.8	28.2	0.00e+00	0	35	101	1048576	44	6004
2026-01-07 16:40:11.29	28.54	34.81	-33.2	-33.8	28.2	0.00e+00	0	35	101	1048576	44	5995
2026-01-07 16:40:12.30	28.61	35.03	-33.1	-33.7	28.2	0.00e+00	0	35	101	1048576	44	5901
2026-01-07 16:40:13.31	28.68	35.26	-33.0	-33.7	28.3	0.00e+00	0	35	101	1048576	44	5910
2026-01-07 16:40:14.32	28.75	35.49	-32.9	-33.5	28.4	0.00e+00	0	35	101	1048576	44	5796
2026-01-07 16:40:15.33	28.82	35.71	-32.9	-33.5	28.2	0.00e+00	0	35	101	1048576	44	5801
2026-01-07 16:40:16.34	28.89	35.94	-32.7	-33.3	28.5	0.00e+00	0	35	101	1048576	44	5659
2026-01-07 16:40:17.35	28.97	36.18	-32.6	-33.2	28.6	0.00e+00	0	35	101	1048576	44	5582
2026-01-07 16:40:18.37	29.04	36.41	-32.3	-32.9	28.8	0.00e+00	0	35	101	1048576	44	5405
2026-01-07 16:40:19.38	29.12	36.65	-32.2	-32.8	28.9	0.00e+00	0	35	101	1048576	42	5971
2026-01-07 16:40:20.39	29.19	36.88	-32.2	-32.8	28.8	0.00e+00	0	35	101	1048576	42	5986
2026-01-07 16:40:21.40	29.27	37.12	-32.2	-32.8	28.9	0.00e+00	0	35	101	1048576	42	6019
2026-01-07 16:40:22.41	29.35	37.36	-32.4	-33.0	28.8	0.00e+00	0	35	101	1048576	42	6169
2026-01-07 16:40:23.42	29.43	37.60	-32.5	-33.1	28.7	0.00e+00	0	35	101	1048576	42	6190
2026-01-07 16:40:24.43	29.51	37.84	-32.6	-33.2	28.6	0.00e+00	0	35	101	1048576	42	6304
2026-01-07 16:40:25.44	29.60	38.09	-32.5	-33.2	28.6	0.00e+00	0	35	101	1048576	42	6259
2026-01-07 16:40:26.45	29.68	38.33	-32.6	-33.2	28.6	0.00e+00	0	35	101	1048576	42	6281
2026-01-07 16:40:27.46	29.76	38.58	-32.6	-33.2	28.7	0.00e+00	0	35	101	1048576	42	6248
2026-01-07 16:40:28.47	29.85	38.83	-32.3	-32.8	28.9	0.00e+00	0	35	101	1048576	42	6027
2026-01-07 16:40:29.48	29.94	39.08	-32.2	-32.9	28.9	0.00e+00	0	35	101	1048576	42	6037
2026-01-07 16:40:30.49	30.03	39.34	-32.2	-32.8	28.8	0.00e+00	0	35	101	1048576	42	5992
2026-01-07 16:40:31.50	30.12	39.59	-32.3	-32.9	28.8	0.00e+00	0	35	101	1048576	42	6067
2026-01-07 16:40:32.51	30.21	39.85	-32.2	-32.8	28.9	0.00e+00	0	35	101	1048576	42	6017
2026-01-07 16:40:33.52	30.30	40.11	-32.3	-32.9	28.8	0.00e+00	0	35	101	1048576	42	6073
2026-01-07 16:40:34.54	30.40	40.37	-32.4	-33.0	28.8	0.00e+00	0	35	101	1048576	42	6120
2026-01-07 16:40:35.55	30.49	40.64	-32.3	-32.9	28.9	0.00e+00	0	35	101	1048576	42	6059
2026-01-07 16:40:36.56	30.59	40.90	-32.3	-32.9	28.8	0.00e+00	0	35	101	1048576	42	6080
2026-01-07 16:40:37.57	30.69	41.17	-32.4	-33.0	28.7	0.00e+00	0	35	101	1048576	42	6121
2026-01-07 16:40:38.58	30.79	41.44	-32.3	-32.9	28.8	0.00e+00	0	35	101	1048576	42	6098
2026-01-07 16:40:39.59	30.89	41.71	-32.3	-32.9	28.9	0.00e+00	0	35	101	1048576	42	6071
2026-01-07 16:40:40.60	30.99	41.98	-32.2	-32.8	29.0	0.00e+00	0	35	101	1048576	42	6007
2026-01-07 16:40:41.61	31.10	42.25	-32.4	-32.9	28.8	0.00e+00	0	35	101	1048576	42	6095
2026-01-07 16:40:42.62	31.21	42.53	-32.5	-33.1	28.6	0.00e+00	0	35	101	1048576	42	6212
2026-01-07 16:40:43.63	31.32	42.81	-32.7	-33.3	28.6	0.00e+00	0	35	101	1048576	42	6366
2026-01-07 16:40:44.65	31.43	43.09	-32.7	-33.3	28.6	0.00e+00	0	35	101	1048576	42	6386
2026-01-07 16:40:45.66	31.54	43.37	-32.7	-33.3	28.6	0.00e+00	0	35	101	1048576	42	6325
2026-01-07 16:40:46.67	31.65	43.66	-32.7	-33.3	28.5	0.00e+00	0	35	101	1048576	42	6388
2026-01-07 16:40:47.68	31.77	43.94	-32.7	-33.4	28.6	0.00e+00	0	35	101	1048576	42	6409
2026-01-07 16:40:48.69	31.89	44.23	-32.7	-33.3	28.5	0.00e+00	0	35	101	1048576	42	6356
2026-01-07 16:40:49.70	32.01	44.52	-32.8	-33.4	28.4	0.00e+00	0	35	101	1048576	42	6406
2026-01-07 16:40:50.71	32.13	44.81	-32.7	-33.2	28.6	0.00e+00	0	35	101	1048576	42	6311
2026-01-07 16:40:51.72	32.26	45.11	-32.7	-33.3	28.6	0.00e+00	0	35	101	1048576	42	6364
2026-01-07 16:40:52.73	32.39	45.40	-32.8	-33.4	28.4	0.00e+00	0	35	101	1048576	42	6455
2026-01-07 16:40:53.74	32.52	45.70	-33.0	-33.6	28.4	0.00e+00	0	35	101	1048576	42	6564
2026-01-07 16:40:54.76	32.65	46.00	-33.2	-33.8	28.2	0.00e+00	0	35	101	1048576	44	6003
2026-01-07 16:40:55.77	32.78	46.31	-33.2	-33.8	28.2	0.00e+00	0	35	101	1048576	44	5980
2026-01-07 16:40:56.78	32.92	46.61	-33.1	-33.8	28.2	0.00e+00	0	35	101	1048576	44	5981
2026-01-07 16:40:57.79	33.06	46.92	-33.2	-33.9	28.2	0.00e+00	0	35	101	1048576	44	6036
2026-01-07 16:40:58.80	33.20	47.23	-33.1	-33.7	28.3	0.00e+00	0	35	101	1048576	44	5921
2026-01-07 16:40:59.81	33.35	47.54	-33.3	-33.9	28.2	0.00e+00	0	35	101	1048576	44	6053
2026-01-07 16:41:00.82	33.50	47.85	-33.0	-33.6	28.3	0.00e+00	0	35	101	1048576	44	5861
2026-01-07 16:41:01.83	33.65	48.16	-33.0	-33.6	28.3	0.00e+00	0	35	101	1048576	44	5890
2026-01-07 16:41:02.84	33.80	48.48	-32.9	-33.5	28.4	0.00e+00	0	35	101	1048576	44	5799
2026-01-07 16:41:03.85	33.96	48.80	-33.0	-33.6	28.4	0.00e+00	0	35	101	1048576	44	5886
2026-01-07 16:41:04.86	34.12	49.12	-33.1	-33.7	28.3	0.00e+00	0	35	101	1048576	44	5920
2026-01-07 16:41:05.87	34.28	49.45	-33.3	-33.9	28.1	0.00e+00	0	35	101	1048576	44	6074
2026-01-07 16:41:06.88	34.45	49.77	-33.2	-33.8	28.2	0.00e+00	0	35	101	1048576	44	5989
2026-01-07 16:41:07.89	34.62	50.10	-33.2	-33.9	28.2	0.00e+00	0	35	101	1048576	44	6048
2026-01-07 16:41:08.91	34.80	50.43	-33.1	-33.7	28.2	0.00e+00	0	35	101	1048576	44	5951
2026-01-07 16:41:09.92	34.97	50.76	-33.1	-33.6	28.3	0.00e+00	0	35	101	1048576	44	5883
2026-01-07 16:41:10.93	35.16	51.10	-32.9	-33.4	28.5	0.00e+00	0	35	101	1048576	44	5748
2026-01-07 16:41:11.94	35.34	51.43	-33.0	-33.6	28.4	0.00e+00	0	35	101	1048576	44	5847
2026-01-07 16:41:12.95	35.53	51.77	-33.3	-33.9	28.1	0.00e+00	0	35	101	1048576	44	6062
2026-01-07 16:41:13.96	35.73	52.11	-33.4	-34.0	28.1	0.00e+00	0	35	101	1048576	44	6144
2026-01-07 16:41:14.97	35.93	52.45	-33.4	-34.0	28.1	0.00e+00	0	35	101	1048576	44	6142
2026-01-07 16:41:15.98	36.13	52.80	-33.6	-34.2	28.0	0.00e+00	0	35	101	1048576	44	6246
2026-01-07 16:41:16.99	36.34	53.15	-33.6	-34.2	28.0	0.00e+00	0	35	101	1048576	44	6254
2026-01-07 16:41:18.00	36.55	53.49	-33.5	-34.1	28.0	0.00e+00	0	35	101	1048576	44	6211
2026-01-07 16:41:19.01	36.77	53.84	-33.5	-34.1	28.0	0.00e+00	0	35	101	1048576	44	6199
2026-01-07 16:41:20.02	36.99	54.20	-33.4	-34.0	28.1	0.00e+00	0	35	101	1048576	44	6112
2026-01-07 16:41:21.03	37.22	54.55	-33.4	-34.0	28.0	0.00e+00	0	35	101	1048576	44	6119
2026-01-07 16:41:22.04	37.46	54.91	-33.4	-34.0	28.1	0.00e+00	0	35	101	1048576	44	6164
2026-01-07 16:41:23.06	37.70	55.27	-34.0	-34.6	27.6	0.00e+00	0	35	101	1048576	44	6559
2026-01-07 16:41:24.06	37.94	55.63	-34.5	-35.2	27.1	0.00e+00	0	35	101	1048576	46	6282
2026-01-07 16:41:25.08	38.20	55.99	-34.4	-35.0	27.4	0.00e+00	0	35	101	1048576	46	6123
2026-01-07 16:41:26.09	38.46	56.36	-34.0	-34.6	27.6	0.00e+00	0	35	101	1048576	46	5889
2026-01-07 16:41:27.10	38.72	56.72	-33.9	-34.5	27.7	0.00e+00	0	35	101	1048576	46	5825
2026-01-07 16:41:28.11	39.00	57.09	-34.2	-34.8	27.4	0.00e+00	0	35	101	1048576	46	6010
2026-01-07 16:41:29.12	39.28	57.46	-34.5	-35.2	27.3	0.00e+00	0	35	101	1048576	46	6249
2026-01-07 16:41:30.13	39.57	57.83	-34.2	-34.9	27.4	0.00e+00	0	35	101	1048576	46	6046
2026-01-07 16:41:31.14	39.86	58.21	-34.3	-34.9	27.4	0.00e+00	0	35	101	1048576	46	6076
2026-01-07 16:41:32.15	40.17	58.58	-34.3	-34.9	27.3	0.00e+00	0	35	101	1048576	46	6082
2026-01-07 16:41:33.16	40.48	58.96	-34.3	-34.9	27.4	0.00e+00	0	35	101	1048576	46	6096
2026-01-07 16:41:34.17	40.80	59.34	-34.3	-34.9	27.3	0.00e+00	0	35	101	1048576	46	6098
2026-01-07 16:41:35.18	41.14	59.72	-33.9	-34.5	27.6	0.00e+00	0	35	101	1048576	46	5805
2026-01-07 16:41:36.19	41.48	60.10	-33.3	-33.9	28.0	0.00e+00	0	35	101	1048576	46	5411
2026-01-07 16:41:37.20	41.83	60.48	-33.8	-34.4	27.8	0.00e+00	0	35	101	1048576	46	5707
2026-01-07 16:41:38.21	42.19	60.86	-33.6	-34.2	27.9	0.00e+00	0	35	101	1048576	46	5579
2026-01-07 16:41:39.23	42.57	61.25	-33.0	-33.6	28.3	0.00e+00	0	35	101	1048576	44	5874
2026-01-07 16:41:40.24	42.96	61.64	-33.3	-33.9	28.1	0.00e+00	0	35	101	1048576	44	6088
2026-01-07 16:41:41.25	43.35	62.03	-33.4	-34.0	28.1	0.00e+00	0	35	101	1048576	44	6155
2026-01-07 16:41:42.26	43.76	62.42	-33.1	-33.7	28.2	0.00e+00	0	35	101	1048576	44	5923
2026-01-07 16:41:43.27	44.19	62.80	-32.8	-33.4	28.5	0.00e+00	0	35	101	1048576	44	5724
2026-01-07 16:41:44.28	44.62	63.20	-32.6	-33.2	28.6	0.00e+00	0	35	101	1048576	44	5580
2026-01-07 16:41:45.29	45.07	63.59	-32.8	-33.4	28.5	0.00e+00	0	35	101	1048576	44	5739
2026-01-07 16:41:46.30	45.54	63.98	-32.9	-33.5	28.4	0.00e+00	0	35	101	1048576	44	5817
2026-01-07 16:41:47.31	46.02	64.37	-32.7	-33.3	28.5	0.00e+00	0	35	101	1048576	44	5647
2026-01-07 16:41:48.32	46.52	64.76	-32.4	-33.0	28.8	0.00e+00	0	35	101	1048576	44	5491
2026-01-07 16:41:49.33	47.04	65.16	-32.5	-33.0	28.7	0.00e+00	0	35	101	1048576	44	5493
2026-01-07 16:41:50.35	47.58	65.55	-32.3	-32.9	28.8	0.00e+00	0	35	101	1048576	44	5419
2026-01-07 16:41:51.36	48.14	65.95	-32.4	-33.0	28.7	0.00e+00	0	35	101	1048576	44	5487
2026-01-07 16:41:52.37	48.71	66.34	-32.2	-32.8	28.8	0.00e+00	0	35	101	1048576	44	5354
2026-01-07 16:41:53.38	49.31	66.73	-32.2	-32.8	28.9	0.00e+00	0	35	101	1048576	42	5983
2026-01-07 16:41:54.39	49.93	67.12	-32.2	-32.8	28.9	0.00e+00	0	35	101	1048576	42	5968
2026-01-07 16:41:55.40	50.57	67.52	-32.0	-32.6	29.1	0.00e+00	0	35	101	1048576	42	5846
2026-01-07 16:41:56.41	51.24	67.91	-32.1	-32.7	29.0	0.00e+00	0	35	101	1048576	42	5925
2026-01-07 16:41:57.42	51.93	68.30	-32.1	-32.7	29.0	0.00e+00	0	35	101	1048576	42	5932
2026-01-07 16:41:58.44	52.66	68.69	-32.6	-33.2	28.6	0.00e+00	0	35	101	1048576	42	6280
2026-01-07 16:41:59.45	53.41	69.08	-32.4	-33.0	28.8	0.00e+00	0	35	101	1048576	42	6135
2026-01-07 16:42:00.46	54.19	69.46	-32.1	-32.8	28.9	0.00e+00	0	35	101	1048576	42	5967
2026-01-07 16:42:01.47	55.00	69.84	-32.3	-33.0	28.8	0.00e+00	0	35	101	1048576	42	6104
2026-01-07 16:42:02.48	55.84	70.23	-32.5	-33.1	28.8	0.00e+00	0	35	101	1048576	42	6182
2026-01-07 16:42:03.49	56.72	70.60	-32.0	-32.6	29.0	0.00e+00	0	35	101	1048576	42	5869
2026-01-07 16:42:04.50	57.64	70.98	-32.2	-32.9	28.9	0.00e+00	0	35	101	1048576	42	6040
2026-01-07 16:42:05.51	58.59	71.35	-32.0	-32.5	29.1	0.00e+00	0	35	101	1048576	42	5826
2026-01-07 16:42:06.52	59.59	71.72	-32.0	-32.6	29.1	0.00e+00	0	35	101	1048576	42	5859
2026-01-07 16:42:07.53	60.63	72.08	-32.0	-32.5	29.1	0.00e+00	0	35	101	1048576	42	5827
2026-01-07 16:42:08.54	61.72	72.44	-32.2	-32.8	28.9	0.00e+00	0	35	101	1048576	42	5982
2026-01-07 16:42:09.55	62.85	72.80	-31.9	-32.5	29.0	0.00e+00	0	35	101	1048576	42	5784
2026-01-07 16:42:10.56	64.03	73.14	-31.7	-32.3	29.2	0.00e+00	0	35	101	1048576	42	5666
2026-01-07 16:42:11.58	65.28	73.49	-32.1	-32.7	29.0	0.00e+00	0	35	101	1048576	42	5936
2026-01-07 16:42:12.59	66.56	73.83	-31.8	-32.3	29.2	0.00e+00	0	35	101	1048576	42	5687
2026-01-07 16:42:13.60	67.91	74.16	-31.6	-32.2	29.3	0.00e+00	0	35	101	1048576	42	5618
2026-01-07 16:42:14.61	69.31	74.48	-31.8	-32.4	29.2	0.00e+00	0	35	101	1048576	42	5754
2026-01-07 16:42:15.62	70.78	74.79	-31.2	-31.8	29.6	0.00e+00	0	35	101	1048576	42	5357
2026-01-07 16:42:16.63	72.30	75.09	-31.0	-31.6	29.7	0.00e+00	0	35	101	1048576	40	5845
2026-01-07 16:42:17.64	73.90	75.39	-31.3	-31.9	29.5	0.00e+00	0	35	101	1048576	40	6040
2026-01-07 16:42:18.65	75.55	75.67	-31.5	-32.1	29.3	0.00e+00	0	35	101	1048576	40	6227
2026-01-07 16:42:19.66	77.28	75.94	-31.4	-32.0	29.4	0.00e+00	0	35	101	1048576	40	6123
2026-01-07 16:42:20.67	79.07	76.20	-31.2	-31.8	29.5	0.00e+00	0	35	101	1048576	40	5986
2026-01-07 16:42:21.68	80.94	76.45	-31.2	-31.8	29.5	0.00e+00	0	35	101	1048576	40	6019
2026-01-07 16:42:22.69	82.87	76.68	-31.0	-31.6	29.6	0.00e+00	0	35	101	1048576	40	5849
2026-01-07 16:42:23.70	84.87	76.90	-30.8	-31.3	29.8	0.00e+00	0	35	101	1048576	40	5668
2026-01-07 16:42:24.72	86.96	77.10	-30.6	-31.1	30.0	0.00e+00	0	35	101	1048576	40	5556
2026-01-07 16:42:25.73	89.09	77.28	-31.0	-31.6	29.6	0.00e+00	0	35	101	1048576	40	5842
2026-01-07 16:42:26.74	91.29	77.45	-31.3	-31.9	29.6	0.00e+00	0	35	101	1048576	40	6054
2026-01-07 16:42:27.75	93.54	77.60	-31.0	-31.5	29.7	0.00e+00	0	35	101	1048576	40	5818
2026-01-07 16:42:28.76	95.84	77.73	-30.9	-31.6	29.7	0.00e+00	0	35	101	1048576	40	5846
2026-01-07 16:42:29.77	98.20	77.84	-31.0	-31.6	29.7	0.00e+00	0	35	101	1048576	40	5848
2026-01-07 16:42:30.78	100.59	77.93	-30.6	-31.2	29.9	0.00e+00	0	35	101	1048576	40	5579
2026-01-07 16:42:31.79	103.01	78.00	-30.5	-31.1	30.0	0.00e+00	0	35	101	1048576	40	5507
2026-01-07 16:42:32.80	105.46	78.05	-31.2	-31.7	29.6	0.00e+00	0	35	101	1048576	40	5941
2026-01-07 16:42:33.81	107.93	78.08	-30.7	-31.3	29.8	0.00e+00	0	35	101	1048576	40	5638
2026-01-07 16:42:34.82	110.40	78.09	-30.8	-31.5	29.7	0.00e+00	0	35	101	1048576	40	5763
2026-01-07 16:42:35.83	112.87	78.07	-31.2	-31.7	29.6	0.00e+00	0	35	101	1048576	40	5964
2026-01-07 16:42:36.84	115.33	78.03	-31.2	-31.9	29.5	0.00e+00	0	35	101	1048576	40	6034
2026-01-07 16:42:37.86	117.80	77.97	-31.0	-31.6	29.7	0.00e+00	0	35	101	1048576	40	5874
2026-01-07 16:42:38.87	120.21	77.90	-30.9	-31.5	29.7	0.00e+00	0	35	101	1048576	40	5825
2026-01-07 16:42:39.88	122.59	77.80	-31.0	-31.5	29.7	0.00e+00	0	35	101	1048576	40	5824
2026-01-07 16:42:40.89	124.92	77.68	-30.9	-31.5	29.6	0.00e+00	0	35	101	1048576	40	5782
2026-01-07 16:42:41.90	127.20	77.54	-31.0	-31.6	29.7	0.00e+00	0	35	101	1048576	40	5892
2026-01-07 16:42:42.91	129.43	77.38	-30.7	-31.3	29.8	0.00e+00	0	35	101	1048576	40	5670
2026-01-07 16:42:43.92	131.60	77.20	-30.8	-31.3	29.8	0.00e+00	0	35	101	1048576	40	5676
2026-01-07 16:42:44.93	133.70	77.01	-30.8	-31.4	29.7	0.00e+00	0	35	101	1048576	40	5704
2026-01-07 16:42:45.94	135.74	76.80	-30.7	-31.3	29.6	0.00e+00	0	35	101	1048576	40	5648
2026-01-07 16:42:46.95	137.71	76.58	-30.6	-31.2	29.3	0.00e+00	0	35	101	1048576	40	5583
2026-01-07 16:42:47.96	139.61	76.34	-30.8	-31.4	29.4	0.00e+00	0	35	101	1048576	40	5722
2026-01-07 16:42:48.97	141.45	76.09	-30.9	-31.4	29.5	0.00e+00	0	35	101	1048576	40	5754
2026-01-07 16:42:49.98	143.21	75.82	-30.8	-31.4	29.8	0.00e+00	0	35	101	1048576	40	5758
2026-01-07 16:42:51.00	144.93	75.54	-30.7	-31.2	29.8	0.00e+00	0	35	101	1048576	40	5623
2026-01-07 16:42:52.01	146.55	75.25	-30.7	-31.3	29.9	0.00e+00	0	35	101	1048576	40	5674
2026-01-07 16:42:53.02	148.12	74.95	-30.7	-31.2	29.8	0.00e+00	0	35	101	1048576	40	5609
2026-01-07 16:42:54.03	149.62	74.65	-30.6	-31.1	29.9	0.00e+00	0	35	101	1048576	40	5556
2026-01-07 16:42:55.04	151.05	74.33	-30.6	-31.2	29.8	0.00e+00	0	35	101	1048576	40	5606
2026-01-07 16:42:56.05	152.43	74.00	-30.8	-31.4	29.8	0.00e+00	0	35	101	1048576	40	5713
2026-01-07 16:42:57.06	153.75	73.67	-31.0	-31.7	29.6	0.00e+00	0	35	101	1048576	40	5918
2026-01-07 16:42:58.08	155.03	73.33	-30.8	-31.3	29.9	0.00e+00	0	35	101	1048576	40	5669
2026-01-07 16:42:59.08	156.23	72.99	-30.8	-31.4	29.9	0.00e+00	0	35	101	1048576	40	5704
2026-01-07 16:43:00.10	157.40	72.63	-31.2	-31.8	29.5	0.00e+00	0	35	101	1048576	40	5992
2026-01-07 16:43:01.11	158.51	72.27	-31.5	-32.1	29.4	0.00e+00	0	35	101	1048576	40	6212
2026-01-07 16:43:02.12	159.57	71.91	-31.1	-31.6	29.5	0.00e+00	0	35	101	1048576	40	5895
2026-01-07 16:43:03.13	160.59	71.54	-31.3	-31.8	29.4	0.00e+00	0	35	101	1048576	40	6015
2026-01-07 16:43:04.14	161.57	71.17	-31.4	-32.1	29.4	0.00e+00	0	35	101	1048576	40	6193
2026-01-07 16:43:05.15	162.51	70.80	-31.4	-31.9	29.4	0.00e+00	0	35	101	1048576	40	6080
2026-01-07 16:43:06.16	163.41	70.42	-31.6	-32.1	29.3	0.00e+00	0	35	101	1048576	40	6229
2026-01-07 16:43:07.17	164.28	70.04	-31.7	-32.3	29.2	0.00e+00	0	35	101	1048576	40	6341
2026-01-07 16:43:08.18	165.11	69.66	-31.6	-32.2	29.3	0.00e+00	0	35	101	1048576	40	6310
2026-01-07 16:43:09.19	165.90	69.27	-31.8	-32.4	29.0	0.00e+00	0	35	101	1048576	40	6444
2026-01-07 16:43:10.20	166.67	68.89	-31.7	-32.2	29.2	0.00e+00	0	35	101	1048576	40	6284
2026-01-07 16:43:11.21	167.40	68.50	-31.5	-32.2	29.3	0.00e+00	0	35	101	1048576	40	6252
2026-01-07 16:43:12.23	168.12	68.11	-31.7	-32.2	29.1	0.00e+00	0	35	101	1048576	40	6315
2026-01-07 16:43:13.24	168.80	67.71	-31.5	-32.2	29.2	0.00e+00	0	35	101	1048576	40	6259
2026-01-07 16:43:14.25	169.46	67.32	-31.4	-31.9	29.3	0.00e+00	0	35	101	1048576	40	6085
2026-01-07 16:43:15.26	170.09	66.93	-31.7	-32.3	29.1	0.00e+00	0	35	101	1048576	40	6379
2026-01-07 16:43:16.27	170.70	66.54	-32.1	-32.6	28.9	0.00e+00	0	35	101	1048576	40	6604
2026-01-07 16:43:17.28	171.28	66.14	-32.2	-32.9	28.7	0.00e+00	0	35	101	1048576	42	6058
2026-01-07 16:43:18.29	171.85	65.75	-32.2	-32.8	28.9	0.00e+00	0	35	101	1048576	42	6011
2026-01-07 16:43:19.30	172.40	65.35	-31.9	-32.5	29.1	0.00e+00	0	35	101	1048576	42	5796
2026-01-07 16:43:20.31	172.92	64.96	-32.0	-32.7	28.9	0.00e+00	0	35	101	1048576	42	5917
2026-01-07 16:43:21.32	173.43	64.57	-32.1	-32.7	28.9	0.00e+00	0	35	101	1048576	42	5953
2026-01-07 16:43:22.33	173.92	64.17	-32.0	-32.5	29.1	0.00e+00	0	35	101	1048576	42	5817
2026-01-07 16:43:23.34	174.40	63.78	-32.0	-32.5	29.0	0.00e+00	0	35	101	1048576	42	5779
2026-01-07 16:43:24.35	174.86	63.39	-32.2	-32.8	28.8	0.00e+00	0	35	101	1048576	42	5968
2026-01-07 16:43:25.36	175.31	63.00	-31.9	-32.4	29.1	0.00e+00	0	35	101	1048576	42	5745
2026-01-07 16:43:26.37	175.74	62.60	-31.7	-32.2	29.2	0.00e+00	0	35	101	1048576	42	5614
2026-01-07 16:43:27.38	176.15	62.21	-31.9	-32.4	29.1	0.00e+00	0	35	101	1048576	42	5759
2026-01-07 16:43:28.39	176.56	61.83	-32.1	-32.8	28.8	0.00e+00	0	35	101	1048576	42	5990
2026-01-07 16:43:29.41	176.96	61.43	-32.0	-32.5	28.9	0.00e+00	0	35	101	1048576	42	5811
2026-01-07 16:43:30.42	177.34	61.05	-32.0	-32.6	29.0	0.00e+00	0	35	101	1048576	42	5854
2026-01-07 16:43:31.43	177.70	60.66	-32.2	-32.9	28.8	0.00e+00	0	35	101	1048576	42	6036
2026-01-07 16:43:32.44	178.06	60.28	-32.4	-32.9	28.8	0.00e+00	0	35	101	1048576	42	6067
2026-01-07 16:43:33.45	178.41	59.89	-32.5	-33.0	28.7	0.00e+00	0	35	101	1048576	42	6160
2026-01-07 16:43:34.46	178.75	59.51	-32.4	-33.0	28.8	0.00e+00	0	35	101	1048576	42	6165
2026-01-07 16:43:35.47	179.07	59.13	-32.6	-33.2	28.6	0.00e+00	0	35	101	1048576	42	6252
2026-01-07 16:43:36.48	179.39	58.75	-33.0	-33.5	28.3	0.00e+00	0	35	101	1048576	42	6508
2026-01-07 16:43:37.49	179.70	58.38	-32.8	-33.3	28.4	0.00e+00	0	35	101	1048576	42	6383
2026-01-07 16:43:38.50	180.00	58.00	-33.0	-33.6	28.2	0.00e+00	0	35	101	1048576	42	6608
2026-01-07 16:43:39.51	180.30	57.63	-33.1	-33.6	28.3	0.00e+00	0	35	101	1048576	44	5888
2026-01-07 16:43:40.52	180.58	57.26	-33.0	-33.7	28.1	0.00e+00	0	35	101	1048576	44	5943
2026-01-07 16:43:41.53	180.86	56.89	-33.2	-33.7	28.1	0.00e+00	0	35	101	1048576	44	5929
2026-01-07 16:43:42.54	181.13	56.52	-33.4	-33.9	27.9	0.00e+00	0	35	101	1048576	44	6092
2026-01-07 16:43:43.56	181.39	56.15	-33.4	-33.9	28.0	0.00e+00	0	35	101	1048576	44	6077
2026-01-07 16:43:44.57	181.65	55.78	-33.2	-33.8	28.2	0.00e+00	0	35	101	1048576	44	5971
2026-01-07 16:43:45.58	181.90	55.42	-33.1	-33.6	28.3	0.00e+00	0	35	101	1048576	44	5860
2026-01-07 16:43:46.59	182.14	55.06	-33.1	-33.8	28.2	0.00e+00	0	35	101	1048576	44	5972
2026-01-07 16:43:47.60	182.38	54.70	-33.2	-33.8	28.1	0.00e+00	0	35	101	1048576	44	6020
2026-01-07 16:43:48.61	182.61	54.34	-33.6	-34.1	27.9	0.00e+00	0	35	101	1048576	44	6213
2026-01-07 16:43:49.62	182.84	53.99	-33.6	-34.3	27.8	0.00e+00	0	35	101	1048576	44	6336
2026-01-07 16:43:50.63	183.06	53.64	-33.5	-34.1	27.9	0.00e+00	0	35	101	1048576	44	6203
2026-01-07 16:43:51.64	183.28	53.29	-33.4	-34.0	28.0	0.00e+00	0	35	101	1048576	44	6172
2026-01-07 16:43:52.65	183.49	52.94	-33.3	-34.0	28.0	0.00e+00	0	35	101	1048576	44	6106
2026-01-07 16:43:53.66	183.69	52.59	-33.6	-34.2	27.8	0.00e+00	0	35	101	1048576	44	6307
2026-01-07 16:43:54.67	183.90	52.25	-33.7	-34.2	27.7	0.00e+00	0	35	101	1048576	44	6292
2026-01-07 16:43:55.68	184.09	51.90	-33.7	-34.4	27.6	0.00e+00	0	35	101	1048576	44	6445
2026-01-07 16:43:56.69	184.29	51.56	-33.5	-34.1	27.3	0.00e+00	0	35	101	1048576	44	6229
2026-01-07 16:43:57.70	184.47	51.22	-33.4	-33.9	27.7	0.00e+00	0	35	101	1048576	44	6059
2026-01-07 16:43:58.72	184.66	50.89	-33.6	-34.3	27.7	0.00e+00	0	35	101	1048576	44	6319
2026-01-07 16:43:59.73	184.84	50.55	-33.7	-34.3	27.7	0.00e+00	0	35	101	1048576	44	6341
2026-01-07 16:44:00.74	185.02	50.22	-33.8	-34.5	27.7	0.00e+00	0	35	101	1048576	44	6473
2026-01-07 16:44:01.75	185.19	49.89	-33.5	-34.0	28.0	0.00e+00	0	35	101	1048576	44	6136
2026-01-07 16:44:02.76	185.36	49.56	-33.2	-33.9	28.2	0.00e+00	0	35	101	1048576	44	6037
2026-01-07 16:44:03.77	185.52	49.24	-33.0	-33.7	28.3	0.00e+00	0	35	101	1048576	44	5899
2026-01-07 16:44:04.78	185.68	48.91	-33.1	-33.6	28.3	0.00e+00	0	35	101	1048576	44	5883
2026-01-07 16:44:05.79	185.84	48.59	-33.2	-33.9	28.1	0.00e+00	0	35	101	1048576	44	6076
2026-01-07 16:44:06.80	186.00	48.27	-33.4	-34.0	28.0	0.00e+00	0	35	101	1048576	44	6143
2026-01-07 16:44:07.81	186.15	47.95	-33.6	-34.2	27.8	0.00e+00	0	35	101	1048576	44	6299
2026-01-07 16:44:08.82	186.30	47.64	-33.6	-34.3	27.9	0.00e+00	0	35	101	1048576	44	6355
2026-01-07 16:44:09.83	186.45	47.33	-33.2	-33.7	28.2	0.00e+00	0	35	101	1048576	44	5941
2026-01-07 16:44:10.84	186.59	47.02	-33.0	-33.6	28.3	0.00e+00	0	35	101	1048576	44	5844
2026-01-07 16:44:11.86	186.73	46.70	-32.6	-33.1	28.6	0.00e+00	0	35	101	1048576	44	5520
2026-01-07 16:44:12.87	186.87	46.40	-32.5	-33.0	28.7	0.00e+00	0	35	101	1048576	44	5460
2026-01-07 16:44:13.88	187.01	46.09	-32.5	-33.0	28.7	0.00e+00	0	35	101	1048576	44	5455
2026-01-07 16:44:14.89	187.14	45.79	-32.6	-33.1	28.6	0.00e+00	0	35	101	1048576	44	5557
2026-01-07 16:44:15.90	187.27	45.49	-32.6	-33.3	28.6	0.00e+00	0	35	101	1048576	44	5655
2026-01-07 16:44:16.91	187.40	45.19	-32.5	-33.0	28.7	0.00e+00	0	35	101	1048576	44	5473
2026-01-07 16:44:17.92	187.53	44.90	-32.4	-32.9	28.7	0.00e+00	0	35	101	1048576	44	5429
2026-01-07 16:44:18.93	187.65	44.60	-32.4	-33.0	28.8	0.00e+00	0	35	101	1048576	44	5458
2026-01-07 16:44:19.94	187.77	44.31	-32.3	-33.0	28.7	0.00e+00	0	35	101	1048576	44	5450
2026-01-07 16:44:20.95	187.89	44.02	-32.3	-32.8	28.8	0.00e+00	0	35	101	1048576	44	5367
2026-01-07 16:44:21.96	188.01	43.73	-32.4	-33.0	28.8	0.00e+00	0	35	101	1048576	44	5481
2026-01-07 16:44:22.97	188.12	43.45	-32.5	-33.0	28.7	0.00e+00	0	35	101	1048576	44	5455
2026-01-07 16:44:23.98	188.24	43.16	-32.7	-33.2	28.6	0.00e+00	0	35	101	1048576	44	5581
2026-01-07 16:44:24.99	188.35	42.88	-32.7	-33.3	28.5	0.00e+00	0	35	101	1048576	44	5640
2026-01-07 16:44:26.01	188.46	42.60	-32.7	-33.2	28.5	0.00e+00	0	35	101	1048576	44	5607
2026-01-07 16:44:27.02	188.57	42.32	-32.6	-33.1	28.6	0.00e+00	0	35	101	1048576	44	5543
2026-01-07 16:44:28.03	188.67	42.04	-32.7	-33.3	28.6	0.00e+00	0	35	101	1048576	44	5633
2026-01-07 16:44:29.04	188.78	41.77	-32.5	-33.0	28.7	0.00e+00	0	35	101	1048576	44	5490
2026-01-07 16:44:30.05	188.88	41.50	-32.4	-32.9	28.7	0.00e+00	0	35	101	1048576	44	5430
2026-01-07 16:44:31.06	188.98	41.23	-32.3	-32.8	28.7	0.00e+00	0	35	101	1048576	44	5371
2026-01-07 16:44:32.07	189.08	40.96	-32.5	-33.0	28.7	0.00e+00	0	35	101	1048576	44	5480
2026-01-07 16:44:33.08	189.18	40.69	-32.7	-33.3	28.5	0.00e+00	0	35	101	1048576	44	5689
2026-01-07 16:44:34.09	189.28	40.43	-32.6	-33.3	28.5	0.00e+00	0	35	101	1048576	44	5670
2026-01-07 16:44:35.11	189.37	40.16	-32.4	-33.1	28.7	0.00e+00	0	35	101	1048576	44	5540
2026-01-07 16:44:36.12	189.46	39.90	-32.4	-33.1	28.7	0.00e+00	0	35	101	1048576	44	5511
2026-01-07 16:44:37.13	189.56	39.64	-32.5	-33.0	28.6	0.00e+00	0	35	101	1048576	44	5464
2026-01-07 16:44:38.14	189.65	39.38	-32.3	-33.0	28.6	0.00e+00	0	35	101	1048576	44	5472
2026-01-07 16:44:39.15	189.74	39.13	-32.3	-33.0	28.7	0.00e+00	0	35	101	1048576	44	5466
2026-01-07 16:44:40.16	189.82	38.87	-32.1	-32.8	28.9	0.00e+00	0	35	101	1048576	42	5992
2026-01-07 16:44:41.17	189.91	38.62	-32.3	-33.0	28.8	0.00e+00	0	35	101	1048576	42	6146
2026-01-07 16:44:42.18	190.00	38.37	-32.3	-33.0	28.7	0.00e+00	0	35	101	1048576	42	6143
2026-01-07 16:44:43.19	190.08	38.12	-32.3	-32.8	28.8	0.00e+00	0	35	101	1048576	42	6004
2026-01-07 16:44:44.20	190.16	37.88	-32.6	-33.2	28.6	0.00e+00	0	35	101	1048576	42	6315
2026-01-07 16:44:45.21	190.25	37.63	-32.6	-33.1	28.5	0.00e+00	0	35	101	1048576	42	6238
2026-01-07 16:44:46.23	190.33	37.39	-32.1	-32.6	28.9	0.00e+00	0	35	101	1048576	42	5889
2026-01-07 16:44:47.24	190.41	37.15	-32.1	-32.6	28.9	0.00e+00	0	35	101	1048576	42	5858
2026-01-07 16:44:48.25	190.48	36.91	-32.0	-32.6	29.0	0.00e+00	0	35	101	1048576	42	5878
2026-01-07 16:44:49.26	190.56	36.67	-32.0	-32.5	28.9	0.00e+00	0	35	101	1048576	42	5824
2026-01-07 16:44:50.27	190.64	36.43	-32.0	-32.5	29.0	0.00e+00	0	35	101	1048576	42	5788
2026-01-07 16:44:51.28	190.71	36.20	-32.1	-32.6	28.9	0.00e+00	0	35	101	1048576	42	5845
2026-01-07 16:44:52.29	190.79	35.96	-32.0	-32.5	28.9	0.00e+00	0	35	101	1048576	42	5824
2026-01-07 16:44:53.30	190.86	35.73	-32.0	-32.6	28.9	0.00e+00	0	35	101	1048576	42	5829
2026-01-07 16:44:54.31	190.93	35.50	-32.1	-32.6	28.9	0.00e+00	0	35	101	1048576	42	5860
2026-01-07 16:44:55.32	191.00	35.28	-31.9	-32.6	29.0	0.00e+00	0	35	101	1048576	42	5840
2026-01-07 16:44:56.33	191.07	35.05	-32.0	-32.6	28.9	0.00e+00	0	35	101	1048576	42	5835
2026-01-07 16:44:57.34	191.14	34.82	-32.0	-32.5	29.0	0.00e+00	0	35	101	1048576	42	5813
2026-01-07 16:44:58.35	191.21	34.60	-32.0	-32.6	29.0	0.00e+00	0	35	101	1048576	42	5831
2026-01-07 16:44:59.36	191.28	34.38	-32.1	-32.7	28.9	0.00e+00	0	35	101	1048576	42	5907
2026-01-07 16:45:00.37	191.35	34.16	-32.2	-32.8	28.8	0.00e+00	0	35	101	1048576	42	5971
2026-01-07 16:45:01.39	191.41	33.94	-32.4	-32.9	28.7	0.00e+00	0	35	101	1048576	42	6096
2026-01-07 16:45:02.40	191.48	33.72	-32.5	-33.1	28.5	0.00e+00	0	35	101	1048576	42	6206
2026-01-07 16:45:03.41	191.54	33.50	-32.5	-33.1	28.6	0.00e+00	0	35	101	1048576	42	6210
2026-01-07 16:45:04.42	191.61	33.29	-32.6	-33.2	28.4	0.00e+00	0	35	101	1048576	42	6282
2026-01-07 16:45:05.43	191.67	33.08	-32.8	-33.3	28.4	0.00e+00	0	35	101	1048576	42	6364
2026-01-07 16:45:06.44	191.73	32.87	-32.5	-33.0	28.6	0.00e+00	0	35	101	1048576	42	6149
2026-01-07 16:45:07.45	191.79	32.66	-32.6	-33.3	28.5	0.00e+00	0	35	101	1048576	42	6324
2026-01-07 16:45:08.46	191.85	32.45	-32.6	-33.1	28.5	0.00e+00	0	35	101	1048576	42	6235
2026-01-07 16:45:09.47	191.91	32.24	-32.4	-33.0	28.6	0.00e+00	0	35	101	1048576	42	6157
2026-01-07 16:45:10.48	191.97	32.03	-32.4	-33.1	28.7	0.00e+00	0	35	101	1048576	42	6178
2026-01-07 16:45:11.49	192.03	31.83	-32.4	-33.1	28.7	0.00e+00	0	35	101	1048576	42	6178
2026-01-07 16:45:12.51	192.09	31.62	-32.2	-32.8	28.8	0.00e+00	0	35	101	1048576	42	6015
2026-01-07 16:45:13.52	192.14	31.42	-32.3	-33.0	28.7	0.00e+00	0	35	101	1048576	42	6126
2026-01-07 16:45:14.53	192.20	31.22	-32.3	-33.0	28.7	0.00e+00	0	35	101	1048576	42	6106
2026-01-07 16:45:15.54	192.26	31.02	-32.3	-33.0	28.7	0.00e+00	0	35	101	1048576	42	6115
2026-01-07 16:45:16.55	192.31	30.83	-32.5	-33.2	28.6	0.00e+00	0	35	101	1048576	42	6249
2026-01-07 16:45:17.56	192.37	30.63	-32.5	-33.2	28.6	0.00e+00	0	35	101	1048576	42	6263
2026-01-07 16:45:18.57	192.42	30.44	-32.7	-33.4	28.5	0.00e+00	0	35	101	1048576	42	6413
2026-01-07 16:45:19.58	192.47	30.24	-32.6	-33.3	28.5	0.00e+00	0	35	101	1048576	42	6352
2026-01-07 16:45:20.59	192.52	30.05	-32.8	-33.4	28.4	0.00e+00	0	35	101	1048576	42	6459
2026-01-07 16:45:21.60	192.58	29.86	-32.8	-33.5	28.4	0.00e+00	0	35	101	1048576	42	6497
2026-01-07 16:45:22.62	192.63	29.67	-32.8	-33.5	28.4	0.00e+00	0	35	101	1048576	42	6484
2026-01-07 16:45:23.63	192.68	29.48	-32.8	-33.5	28.4	0.00e+00	0	35	101	1048576	42	6474
2026-01-07 16:45:24.64	192.73	29.29	-32.8	-33.3	28.4	0.00e+00	0	35	101	1048576	42	6359
2026-01-07 16:45:25.65	192.78	29.10	-32.8	-33.4	28.4	0.00e+00	0	35	101	1048576	42	6392
2026-01-07 16:45:26.66	192.83	28.92	-32.8	-33.3	28.3	0.00e+00	0	35	101	1048576	42	6382
2026-01-07 16:45:27.67	192.88	28.73	-32.9	-33.5	28.4	0.00e+00	0	35	101	1048576	42	6539
2026-01-07 16:45:28.68	192.93	28.55	-32.7	-33.4	28.4	0.00e+00	0	35	101	1048576	42	6433
2026-01-07 16:45:29.69	192.97	28.37	-32.8	-33.5	28.2	0.00e+00	0	35	101	1048576	42	6509
2026-01-07 16:45:30.70	193.02	28.19	-32.8	-33.4	28.4	0.00e+00	0	35	101	1048576	42	6454
2026-01-07 16:45:31.71	193.07	28.01	-32.9	-33.5	28.4	0.00e+00	0	35	101	1048576	42	6526
2026-01-07 16:45:32.72	193.11	27.83	-32.8	-33.5	28.3	0.00e+00	0	35	101	1048576	42	6514
2026-01-07 16:45:33.74	193.16	27.65	-32.8	-33.5	28.5	0.00e+00	0	35	101	1048576	42	6474
2026-01-07 16:45:34.75	193.21	27.48	-32.8	-33.4	28.4	0.00e+00	0	35	101	1048576	42	6456
2026-01-07 16:45:35.76	193.25	27.30	-32.7	-33.4	28.5	0.00e+00	0	35	101	1048576	42	6406
2026-01-07 16:45:36.77	193.30	27.13	-32.9	-33.5	28.4	0.00e+00	0	35	101	1048576	42	6531
2026-01-07 16:45:37.78	193.34	26.96	-32.8	-33.5	28.4	0.00e+00	0	35	101	1048576	42	6500
2026-01-07 16:45:38.79	193.38	26.79	-32.8	-33.5	28.4	0.00e+00	0	35	101	1048576	42	6473
2026-01-07 16:45:39.80	193.43	26.62	-32.9	-33.6	28.3	0.00e+00	0	35	101	1048576	42	6573
2026-01-07 16:45:40.81	193.47	26.45	-32.7	-33.4	28.4	0.00e+00	0	35	101	1048576	42	6451
2026-01-07 16:45:41.82	193.51	26.28	-32.9	-33.6	28.2	0.00e+00	0	35	101	1048576	42	6549
2026-01-07 16:45:42.83	193.55	26.11	-32.8	-33.4	28.4	0.00e+00	0	35	101	1048576	42	6395
2026-01-07 16:45:43.85	193.60	25.94	-32.8	-33.3	28.4	0.00e+00	0	35	101	1048576	42	6349
2026-01-07 16:45:44.86	193.64	25.78	-32.7	-33.2	28.5	0.00e+00	0	35	101	1048576	42	6296
2026-01-07 16:45:45.87	193.68	25.61	-32.6	-33.2	28.5	0.00e+00	0	35	101	1048576	42	6247
2026-01-07 16:45:46.88	193.72	25.45	-32.7	-33.2	28.5	0.00e+00	0	35	101	1048576	42	6281
2026-01-07 16:45:47.89	193.76	25.29	-32.6	-33.1	28.5	0.00e+00	0	35	101	1048576	42	6244
2026-01-07 16:45:48.90	193.80	25.13	-32.5	-33.1	28.5	0.00e+00	0	35	101	1048576	42	6178
2026-01-07 16:45:49.91	193.84	24.97	-32.6	-33.1	28.5	0.00e+00	0	35	101	1048576	42	6243
2026-01-07 16:45:50.92	193.88	24.81	-32.8	-33.3	28.5	0.00e+00	0	35	101	1048576	42	6337
2026-01-07 16:45:51.93	193.91	24.65	-32.8	-33.3	28.4	0.00e+00	0	35	101	1048576	42	6334
2026-01-07 16:45:52.94	193.95	24.49	-32.8	-33.3	28.3	0.00e+00	0	35	101	1048576	42	6377
2026-01-07 16:45:53.96	193.99	24.33	-32.8	-33.3	28.4	0.00e+00	0	35	101	1048576	42	6358
2026-01-07 16:45:54.97	194.03	24.18	-33.1	-33.6	28.2	0.00e+00	0	35	101	1048576	42	6555
2026-01-07 16:45:55.98	194.07	24.02	-32.9	-33.5	28.3	0.00e+00	0	35	101	1048576	42	6468
2026-01-07 16:45:56.99	194.10	23.87	-33.1	-33.7	28.2	0.00e+00	0	35	101	1048576	42	6628
2026-01-07 16:45:58.00	194.14	23.72	-33.1	-33.6	28.2	0.00e+00	0	35	101	1048576	44	5857
2026-01-07 16:45:59.01	194.18	23.57	-33.2	-33.7	28.1	0.00e+00	0	35	101	1048576	44	5942
2026-01-07 16:46:00.02	194.21	23.41	-33.1	-33.7	28.1	0.00e+00	0	35	101	1048576	44	5924
2026-01-07 16:46:01.03	194.25	23.26	-33.3	-33.8	28.0	0.00e+00	0	35	101	1048576	44	6015
2026-01-07 16:46:02.04	194.28	23.11	-33.3	-33.9	28.0	0.00e+00	0	35	101	1048576	44	6040
2026-01-07 16:46:03.05	194.32	22.97	-33.4	-34.0	27.9	0.00e+00	0	35	101	1048576	44	6116
2026-01-07 16:46:04.06	194.35	22.82	-33.4	-33.9	27.9	0.00e+00	0	35	101	1048576	44	6088
2026-01-07 16:46:05.08	194.39	22.67	-33.3	-33.9	27.9	0.00e+00	0	35	101	1048576	44	6068
2026-01-07 16:46:06.09	194.42	22.52	-33.5	-34.0	27.8	0.00e+00	0	35	101	1048576	44	6171
2026-01-07 16:46:07.10	194.45	22.38	-33.4	-34.0	27.8	0.00e+00	0	35	101	1048576	44	6137
2026-01-07 16:46:08.11	194.49	22.23	-33.5	-34.0	27.8	0.00e+00	0	35	101	1048576	44	6158
2026-01-07 16:46:09.12	194.52	22.09	-33.5	-34.0	27.9	0.00e+00	0	35	101	1048576	44	6140
2026-01-07 16:46:10.13	194.55	21.95	-33.5	-34.0	27.7	0.00e+00	0	35	101	1048576	44	6161
2026-01-07 16:46:11.14	194.59	21.81	-33.3	-33.9	27.9	0.00e+00	0	35	101	1048576	44	6051
2026-01-07 16:46:12.15	194.62	21.66	-33.5	-34.0	27.8	0.00e+00	0	35	101	1048576	44	6144
2026-01-07 16:46:13.16	194.65	21.52	-33.4	-34.0	27.8	0.00e+00	0	35	101	1048576	44	6108
2026-01-07 16:46:14.17	194.68	21.38	-33.5	-34.0	27.8	0.00e+00	0	35	101	1048576	44	6155
2026-01-07 16:46:15.18	194.72	21.25	-33.3	-33.9	27.9	0.00e+00	0	35	101	1048576	44	6049
2026-01-07 16:46:16.19	194.75	21.11	-33.5	-34.0	27.8	0.00e+00	0	35	101	1048576	44	6170
2026-01-07 16:46:17.20	194.78	20.97	-33.5	-34.0	27.7	0.00e+00	0	35	101	1048576	44	6147
2026-01-07 16:46:18.22	194.81	20.83	-33.5	-34.0	27.8	0.00e+00	0	35	101	1048576	44	6155
2026-01-07 16:46:19.23	194.84	20.70	-33.4	-34.0	27.8	0.00e+00	0	35	101	1048576	44	6119
2026-01-07 16:46:20.24	194.87	20.56	-33.6	-34.1	27.7	0.00e+00	0	35	101	1048576	44	6243
2026-01-07 16:46:21.25	194.90	20.43	-33.5	-34.0	27.8	0.00e+00	0	35	101	1048576	44	6172
2026-01-07 16:46:22.26	194.93	20.29	-33.5	-34.2	27.8	0.00e+00	0	35	101	1048576	44	6287
2026-01-07 16:46:23.27	194.96	20.16	-33.6	-34.2	27.8	0.00e+00	0	35	101	1048576	44	6313
2026-01-07 16:46:24.28	194.99	20.03	-33.6	-34.3	27.7	0.00e+00	0	35	101	1048576	44	6325
2026-01-07 16:46:25.29	195.02	19.90	-33.7	-34.3	27.7	0.00e+00	0	35	101	1048576	44	6384
2026-01-07 16:46:26.30	195.05	19.76	-33.6	-34.3	27.7	0.00e+00	0	35	101	1048576	44	6366
2026-01-07 16:46:27.31	195.08	19.63	-33.7	-34.4	27.6	0.00e+00	0	35	101	1048576	44	6430
2026-01-07 16:46:28.32	195.11	19.51	-33.8	-34.5	27.6	0.00e+00	0	35	101	1048576	44	6491
2026-01-07 16:46:29.33	195.13	19.38	-33.8	-34.4	27.6	0.00e+00	0	35	101	1048576	44	6462
2026-01-07 16:46:30.34	195.16	19.25	-33.8	-34.5	27.5	0.00e+00	0	35	101	1048576	44	6525
