passes_logs/2026/01/07/R4.6S_Anadyr_2ch/R4.6S_Anadyr_2ch__20260107_182100_FENGYUN_3E_rec.log

#Pass ID: 20260107_182100_FENGYUN 3E
#Satellite: FENGYUN 3E
#Configuration: FENGYUN 3E
#almurnet v.1.7.20251203
#Start time: 2026-01-07 18:21:01

#Version: 2.2.20231116
#Station: R4.6S_Anadyr_2ch
#Location: 177.4865 lon 64.73178 lat
#TLE: 1 49008U 21062A   25350.97288215  .00000176  00000+0  10353-3 0  9997
#TLE: 2 49008  98.7477 351.4440 0000638 234.3856 125.7261 14.19881381230726

#Time	Az	El	Level	Level2	SNR	BER	BlckErr	Temp	State	Recorded	gain1	gain2
2026-01-07 18:21:01.50	19.41	0.07	-51.9	-67.0	3.6	1.51e+00	0	32	0	0	60	109599
2026-01-07 18:21:02.51	19.43	0.13	-51.6	-63.1	3.6	8.44e-01	0	33	104	0	60	70511
2026-01-07 18:21:03.52	19.45	0.19	-51.6	-63.0	3.6	8.46e-01	0	34	104	0	60	70065
2026-01-07 18:21:04.53	19.48	0.25	-51.6	-63.1	3.6	8.45e-01	0	34	104	0	60	70150
2026-01-07 18:21:05.54	19.50	0.31	-51.6	-63.0	3.6	8.44e-01	0	34	104	0	60	70020
2026-01-07 18:21:06.55	19.53	0.37	-51.6	-63.1	3.6	8.46e-01	0	34	104	0	60	70141
2026-01-07 18:21:07.56	19.55	0.43	-51.6	-63.1	3.6	8.44e-01	0	34	104	0	60	70298
2026-01-07 18:21:08.58	19.57	0.49	-51.6	-63.0	3.6	8.44e-01	0	34	104	0	60	70001
2026-01-07 18:21:09.59	19.60	0.55	-51.6	-63.0	3.6	8.45e-01	0	34	104	0	60	69625
2026-01-07 18:21:10.60	19.62	0.61	-51.6	-63.1	3.6	8.46e-01	0	34	104	0	60	70125
2026-01-07 18:21:11.61	19.65	0.67	-51.6	-63.1	3.6	8.45e-01	0	34	104	0	60	70313
2026-01-07 18:21:12.62	19.67	0.73	-51.6	-63.0	3.6	8.45e-01	0	34	104	0	60	69984
2026-01-07 18:21:13.63	19.70	0.79	-51.5	-63.0	3.6	8.45e-01	0	34	104	0	60	69775
2026-01-07 18:21:14.64	19.72	0.85	-51.6	-63.1	3.6	8.44e-01	0	34	104	0	60	70104
2026-01-07 18:21:15.65	19.75	0.91	-51.6	-63.1	3.6	8.46e-01	0	34	104	0	60	70082
2026-01-07 18:21:16.66	19.77	0.98	-51.6	-63.1	3.6	8.46e-01	0	34	104	0	60	70222
2026-01-07 18:21:17.67	19.80	1.04	-51.6	-63.0	3.5	8.45e-01	0	34	104	0	60	69711
2026-01-07 18:21:18.69	19.82	1.10	-51.6	-63.1	3.6	8.45e-01	0	34	104	0	60	70281
2026-01-07 18:21:19.70	19.85	1.16	-51.6	-63.0	3.6	8.45e-01	0	34	104	0	60	70049
2026-01-07 18:21:20.71	19.87	1.22	-51.6	-63.1	3.6	8.45e-01	0	34	104	0	60	70276
2026-01-07 18:21:21.72	19.90	1.28	-51.6	-63.0	3.6	8.45e-01	0	34	104	0	60	69795
2026-01-07 18:21:22.73	19.92	1.34	-51.6	-63.0	3.6	8.46e-01	0	34	104	0	60	70046
2026-01-07 18:21:23.74	19.95	1.41	-51.6	-63.1	3.6	8.45e-01	0	34	104	0	60	70292
2026-01-07 18:21:24.75	19.97	1.47	-51.6	-63.1	3.6	8.45e-01	0	34	104	0	60	70246
2026-01-07 18:21:25.76	20.00	1.53	-51.6	-63.1	3.6	8.45e-01	0	34	104	0	60	70491
2026-01-07 18:21:26.78	20.03	1.59	-51.6	-63.1	3.6	8.46e-01	0	34	104	0	60	70427
2026-01-07 18:21:27.79	20.05	1.66	-51.6	-63.1	3.6	8.45e-01	0	34	104	0	60	70085
2026-01-07 18:21:28.80	20.08	1.72	-51.6	-63.1	3.6	8.46e-01	0	34	104	0	60	70144
2026-01-07 18:21:29.81	20.10	1.78	-51.6	-63.1	3.6	8.47e-01	0	34	104	0	60	70479
2026-01-07 18:21:30.82	20.13	1.84	-51.6	-63.1	3.6	8.46e-01	0	34	104	0	60	70399
2026-01-07 18:21:31.83	20.16	1.91	-51.6	-63.1	3.6	8.45e-01	0	34	104	0	60	70445
2026-01-07 18:21:32.84	20.18	1.97	-51.6	-63.0	3.6	8.45e-01	0	34	104	0	60	69889
2026-01-07 18:21:33.85	20.21	2.03	-51.6	-63.1	3.6	8.46e-01	0	34	104	0	60	70202
2026-01-07 18:21:34.86	20.24	2.10	-51.6	-63.1	3.6	8.45e-01	0	34	104	0	60	70577
2026-01-07 18:21:35.87	20.26	2.16	-51.6	-63.1	3.6	8.47e-01	0	34	104	0	60	70298
2026-01-07 18:21:36.89	20.29	2.22	-51.6	-63.0	3.6	8.45e-01	0	34	104	0	60	69914
2026-01-07 18:21:37.90	20.32	2.29	-51.6	-63.1	3.6	8.45e-01	0	35	104	0	60	70207
2026-01-07 18:21:38.91	20.34	2.35	-51.6	-63.1	3.6	8.45e-01	0	35	104	0	60	70190
2026-01-07 18:21:39.92	20.37	2.42	-51.6	-63.0	3.6	8.46e-01	0	34	104	0	60	70064
2026-01-07 18:21:40.93	20.40	2.48	-51.6	-63.1	3.6	8.46e-01	0	34	104	0	60	70239
2026-01-07 18:21:41.94	20.42	2.54	-51.6	-63.1	3.6	8.45e-01	0	34	104	0	60	70494
2026-01-07 18:21:42.95	20.45	2.61	-51.6	-63.0	3.6	8.47e-01	0	35	104	0	60	70020
2026-01-07 18:21:43.96	20.48	2.67	-51.6	-63.0	3.6	8.46e-01	0	34	104	0	60	69911
2026-01-07 18:21:44.97	20.51	2.74	-51.6	-63.0	3.6	8.46e-01	0	34	104	0	60	70028
2026-01-07 18:21:45.98	20.53	2.80	-51.6	-63.1	3.6	8.45e-01	0	34	104	0	60	70163
2026-01-07 18:21:46.99	20.56	2.87	-51.6	-63.1	3.6	8.46e-01	0	35	104	0	60	70561
2026-01-07 18:21:48.00	20.59	2.93	-51.6	-63.1	3.6	8.45e-01	0	35	104	0	60	70328
2026-01-07 18:21:49.02	20.62	3.00	-51.6	-63.1	3.6	8.45e-01	0	35	104	0	60	70532
2026-01-07 18:21:50.03	20.65	3.06	-51.6	-63.1	3.6	8.45e-01	0	35	104	0	60	70331
2026-01-07 18:21:51.04	20.67	3.13	-51.6	-63.1	3.6	8.45e-01	0	35	104	0	60	70470
2026-01-07 18:21:52.05	20.70	3.20	-51.6	-63.1	3.6	8.46e-01	0	35	104	0	60	70164
2026-01-07 18:21:53.06	20.73	3.26	-51.6	-63.1	3.6	8.46e-01	0	35	104	0	60	70268
2026-01-07 18:21:54.07	20.76	3.33	-51.6	-63.0	3.6	8.44e-01	0	35	104	0	60	70012
2026-01-07 18:21:55.08	20.79	3.39	-51.6	-63.1	3.6	8.46e-01	0	35	104	0	60	70269
2026-01-07 18:21:56.09	20.82	3.46	-51.6	-63.1	3.6	8.46e-01	0	35	104	0	60	70312
2026-01-07 18:21:57.10	20.84	3.53	-51.6	-63.1	3.6	8.45e-01	0	35	104	0	60	70254
2026-01-07 18:21:58.11	20.87	3.59	-51.6	-63.1	3.6	8.44e-01	0	35	104	0	60	70424
2026-01-07 18:21:59.13	20.90	3.66	-51.6	-63.1	3.6	8.46e-01	0	35	104	0	60	70432
2026-01-07 18:22:00.14	20.93	3.73	-51.6	-63.1	3.6	8.46e-01	0	35	104	0	60	70500
2026-01-07 18:22:01.15	20.96	3.80	-51.6	-63.1	3.6	8.45e-01	0	35	104	0	60	70379
2026-01-07 18:22:02.16	20.99	3.86	-51.6	-63.1	3.6	8.46e-01	0	35	104	0	60	70108
2026-01-07 18:22:03.17	21.02	3.93	-51.6	-63.1	3.6	8.44e-01	0	35	104	0	60	70304
2026-01-07 18:22:04.18	21.05	4.00	-51.6	-63.1	3.6	8.46e-01	0	35	104	0	60	70297
2026-01-07 18:22:05.19	21.08	4.07	-51.6	-63.1	3.5	8.45e-01	0	35	104	0	60	70236
2026-01-07 18:22:06.20	21.11	4.13	-51.6	-63.1	3.6	8.46e-01	0	35	104	0	60	70248
2026-01-07 18:22:07.21	21.14	4.20	-51.6	-63.0	3.6	8.45e-01	0	35	104	0	60	69993
2026-01-07 18:22:08.22	21.17	4.27	-51.6	-63.1	3.6	8.46e-01	0	35	104	0	60	70369
2026-01-07 18:22:09.24	21.20	4.34	-51.6	-63.1	3.6	8.46e-01	0	35	104	0	60	70413
2026-01-07 18:22:10.25	21.23	4.41	-51.6	-63.1	3.6	8.45e-01	0	35	104	0	60	70409
2026-01-07 18:22:11.26	21.26	4.48	-51.6	-63.1	3.6	8.46e-01	0	35	104	0	60	70464
2026-01-07 18:22:12.27	21.29	4.55	-51.6	-63.1	3.6	8.45e-01	0	35	104	0	60	70444
2026-01-07 18:22:13.28	21.32	4.62	-51.6	-63.1	3.6	8.45e-01	0	35	104	0	60	70284
2026-01-07 18:22:14.29	21.35	4.69	-51.6	-63.1	3.6	8.46e-01	0	35	104	0	60	70147
2026-01-07 18:22:15.30	21.38	4.75	-51.6	-63.1	3.6	8.45e-01	0	35	104	0	60	70171
2026-01-07 18:22:16.31	21.41	4.82	-51.6	-63.1	3.6	8.44e-01	0	35	104	0	60	70235
2026-01-07 18:22:17.32	21.44	4.89	-51.6	-63.1	3.6	8.45e-01	0	35	104	0	60	70157
2026-01-07 18:22:18.33	21.47	4.96	-51.6	-63.1	3.6	8.45e-01	0	35	104	0	60	70189
2026-01-07 18:22:19.34	21.51	5.03	-51.6	-63.1	3.6	8.45e-01	0	35	104	0	60	70083
2026-01-07 18:22:20.35	21.54	5.11	-51.6	-63.1	3.6	8.45e-01	0	35	104	0	60	70185
2026-01-07 18:22:21.36	21.57	5.18	-51.6	-63.1	3.6	8.44e-01	0	35	104	0	60	70282
2026-01-07 18:22:22.37	21.60	5.25	-51.6	-63.1	3.6	8.45e-01	0	35	104	0	60	70229
2026-01-07 18:22:23.39	21.63	5.32	-51.6	-63.1	3.6	8.45e-01	0	35	104	0	60	70420
2026-01-07 18:22:24.40	21.67	5.39	-51.6	-63.0	3.6	8.44e-01	0	35	104	0	60	70071
2026-01-07 18:22:25.41	21.70	5.46	-51.6	-63.1	3.6	8.44e-01	0	35	104	0	60	70107
2026-01-07 18:22:26.42	21.73	5.53	-51.6	-63.1	3.6	8.45e-01	0	35	104	0	60	70220
2026-01-07 18:22:27.43	21.76	5.60	-51.6	-63.1	3.6	8.45e-01	0	35	104	0	60	70199
2026-01-07 18:22:28.44	21.79	5.68	-51.6	-63.1	3.6	8.45e-01	0	35	104	0	60	70316
2026-01-07 18:22:29.45	21.83	5.75	-51.6	-63.1	3.6	8.46e-01	0	35	104	0	60	70480
2026-01-07 18:22:30.46	21.86	5.82	-51.6	-63.1	3.6	8.46e-01	0	35	104	0	60	70100
2026-01-07 18:22:31.47	21.89	5.89	-51.6	-63.0	3.6	8.45e-01	0	35	104	0	60	69690
2026-01-07 18:22:32.49	21.93	5.97	-51.6	-63.0	3.6	8.44e-01	0	35	104	0	60	70041
2026-01-07 18:22:33.50	21.96	6.04	-51.6	-63.1	3.6	8.45e-01	0	35	104	0	60	70218
2026-01-07 18:22:34.51	21.99	6.11	-51.6	-63.1	3.6	8.46e-01	0	35	104	0	60	70158
2026-01-07 18:22:35.52	22.03	6.19	-51.6	-63.1	3.6	8.45e-01	0	35	104	0	60	70317
2026-01-07 18:22:36.53	22.06	6.26	-51.6	-63.0	3.6	8.46e-01	0	35	104	0	60	69939
2026-01-07 18:22:37.54	22.09	6.33	-51.6	-63.1	3.6	8.45e-01	0	35	104	0	60	70596
2026-01-07 18:22:38.55	22.13	6.41	-51.6	-63.0	3.6	8.46e-01	0	35	104	0	60	69904
2026-01-07 18:22:39.56	22.16	6.48	-51.6	-63.1	3.6	8.46e-01	0	35	104	0	60	70442
2026-01-07 18:22:40.57	22.20	6.56	-51.6	-63.1	3.6	8.45e-01	0	35	104	0	60	70301
2026-01-07 18:22:41.58	22.23	6.63	-51.6	-63.1	3.6	8.46e-01	0	35	104	0	60	70444
2026-01-07 18:22:42.59	22.27	6.71	-51.6	-63.1	3.6	8.45e-01	0	35	104	0	60	70195
2026-01-07 18:22:43.60	22.30	6.78	-51.6	-63.1	3.6	8.46e-01	0	35	104	0	60	70218
2026-01-07 18:22:44.61	22.33	6.86	-51.6	-63.1	3.5	8.44e-01	0	35	104	0	60	70331
2026-01-07 18:22:45.62	22.37	6.93	-51.6	-63.1	3.6	8.46e-01	0	35	104	0	60	70220
2026-01-07 18:22:46.63	22.40	7.01	-51.6	-63.1	3.6	8.47e-01	0	35	104	0	60	70673
2026-01-07 18:22:47.64	22.44	7.08	-51.6	-63.1	3.6	8.45e-01	0	35	104	0	60	70301
2026-01-07 18:22:48.65	22.48	7.16	-51.6	-63.1	3.6	8.46e-01	0	35	104	0	60	70129
2026-01-07 18:22:49.67	22.51	7.24	-51.6	-63.0	3.6	8.45e-01	0	35	104	0	60	69991
2026-01-07 18:22:50.68	22.55	7.31	-51.6	-63.1	3.6	8.46e-01	0	35	104	0	60	70380
2026-01-07 18:22:51.69	22.58	7.39	-51.6	-63.1	3.5	8.46e-01	0	35	104	0	60	70186
2026-01-07 18:22:52.69	22.62	7.46	-51.6	-63.1	3.6	8.45e-01	0	35	104	0	60	70427
2026-01-07 18:22:53.71	22.66	7.54	-51.6	-63.1	3.6	8.46e-01	0	35	104	0	60	70438
2026-01-07 18:22:54.72	22.69	7.62	-51.6	-63.1	3.6	8.45e-01	0	35	104	0	60	70254
2026-01-07 18:22:55.73	22.73	7.70	-51.6	-63.1	3.6	8.46e-01	0	35	104	0	60	70324
2026-01-07 18:22:56.74	22.77	7.78	-51.6	-63.0	3.6	8.45e-01	0	35	104	0	60	69923
2026-01-07 18:22:57.75	22.80	7.85	-51.6	-63.0	3.6	8.46e-01	0	35	104	0	60	70039
2026-01-07 18:22:58.76	22.84	7.93	-51.6	-63.1	3.6	8.45e-01	0	35	104	0	60	70676
2026-01-07 18:22:59.77	22.88	8.01	-51.6	-63.1	3.6	8.46e-01	0	35	104	0	60	70208
2026-01-07 18:23:00.78	22.92	8.09	-51.6	-63.1	3.6	8.45e-01	0	35	104	0	60	70448
2026-01-07 18:23:01.79	22.95	8.17	-51.6	-63.1	3.5	8.47e-01	0	35	104	0	60	70448
2026-01-07 18:23:02.80	22.99	8.25	-51.6	-63.1	3.6	8.44e-01	0	35	104	0	60	70573
2026-01-07 18:23:03.81	23.03	8.33	-51.6	-63.1	3.6	8.45e-01	0	35	104	0	60	70632
2026-01-07 18:23:04.82	23.07	8.41	-51.6	-63.1	3.6	8.45e-01	0	35	104	0	60	70267
2026-01-07 18:23:05.83	23.11	8.49	-51.6	-63.1	3.6	8.45e-01	0	35	104	0	60	70123
2026-01-07 18:23:06.84	23.14	8.57	-51.6	-63.1	3.6	8.45e-01	0	35	104	0	60	70400
2026-01-07 18:23:07.86	23.18	8.65	-51.6	-63.1	3.6	8.46e-01	0	35	104	0	60	70231
2026-01-07 18:23:08.87	23.22	8.73	-51.6	-63.0	3.6	8.46e-01	0	35	104	0	60	70065
2026-01-07 18:23:09.88	23.26	8.81	-51.6	-63.1	3.6	8.44e-01	0	35	104	0	60	70337
2026-01-07 18:23:10.89	23.30	8.89	-51.6	-63.0	3.6	8.45e-01	0	35	104	0	60	69844
2026-01-07 18:23:11.90	23.34	8.97	-51.6	-63.0	3.6	8.47e-01	0	35	104	0	60	70057
2026-01-07 18:23:12.91	23.38	9.05	-51.6	-63.1	3.6	8.46e-01	0	35	104	0	60	70233
2026-01-07 18:23:13.92	23.42	9.14	-51.6	-63.0	3.6	8.45e-01	0	35	104	0	60	70006
2026-01-07 18:23:14.93	23.46	9.22	-51.6	-63.1	3.6	8.45e-01	0	35	104	0	60	70698
2026-01-07 18:23:15.94	23.50	9.30	-51.6	-63.1	3.6	8.45e-01	0	35	104	0	60	70298
2026-01-07 18:23:16.95	23.54	9.38	-51.6	-63.1	3.6	8.45e-01	0	35	104	0	60	70239
2026-01-07 18:23:17.96	23.58	9.47	-51.6	-63.1	3.6	8.45e-01	0	35	104	0	60	70208
2026-01-07 18:23:18.98	23.62	9.55	-51.6	-63.1	3.6	8.45e-01	0	35	104	0	60	70203
2026-01-07 18:23:19.98	23.66	9.63	-51.6	-63.1	3.6	8.46e-01	0	35	104	0	60	70244
2026-01-07 18:23:21.00	23.71	9.72	-51.6	-63.1	3.6	8.45e-01	0	35	104	0	60	70330
2026-01-07 18:23:22.01	23.75	9.80	-51.6	-63.1	3.6	8.46e-01	0	35	104	0	60	70504
2026-01-07 18:23:23.02	23.79	9.89	-51.6	-63.1	3.6	8.45e-01	0	35	104	0	60	70128
2026-01-07 18:23:24.03	23.83	9.97	-51.6	-63.1	3.6	8.46e-01	0	35	104	0	60	70089
2026-01-07 18:23:25.04	23.87	10.06	-51.6	-63.1	3.6	8.45e-01	0	35	104	0	60	70530
2026-01-07 18:23:26.05	23.92	10.14	-51.6	-63.1	3.6	8.45e-01	0	35	104	0	60	70355
2026-01-07 18:23:27.06	23.96	10.23	-51.6	-63.0	3.6	8.46e-01	0	35	104	0	60	69787
2026-01-07 18:23:28.07	24.00	10.31	-51.6	-63.1	3.6	8.44e-01	0	35	104	0	60	70201
2026-01-07 18:23:29.09	24.05	10.40	-51.6	-63.1	3.6	8.45e-01	0	35	104	0	60	70134
2026-01-07 18:23:30.10	24.09	10.49	-51.6	-63.1	3.6	8.44e-01	0	35	104	0	60	70421
2026-01-07 18:23:31.11	24.13	10.57	-51.6	-63.1	3.6	8.45e-01	0	35	104	0	60	70588
2026-01-07 18:23:32.12	24.18	10.66	-51.6	-63.0	3.6	8.45e-01	0	35	104	0	60	69981
2026-01-07 18:23:33.13	24.22	10.75	-51.6	-63.1	3.6	8.45e-01	0	35	104	0	60	70110
2026-01-07 18:23:34.14	24.27	10.84	-51.6	-63.1	3.6	8.46e-01	0	35	104	0	60	70550
2026-01-07 18:23:35.15	24.31	10.92	-51.6	-63.0	3.6	8.45e-01	0	35	104	0	60	70017
2026-01-07 18:23:36.17	24.35	11.01	-51.6	-63.0	3.6	8.45e-01	0	35	104	0	60	70050
2026-01-07 18:23:37.18	24.40	11.10	-51.6	-63.1	3.6	8.45e-01	0	35	104	0	60	70360
2026-01-07 18:23:38.19	24.45	11.19	-51.6	-63.1	3.6	8.45e-01	0	35	104	0	60	70425
2026-01-07 18:23:39.20	24.49	11.28	-51.6	-63.1	3.6	8.45e-01	0	35	104	0	60	70365
2026-01-07 18:23:40.21	24.54	11.37	-51.6	-63.1	3.6	8.45e-01	0	35	104	0	60	70431
2026-01-07 18:23:41.22	24.58	11.46	-51.6	-63.1	3.6	8.44e-01	0	35	104	0	60	70445
2026-01-07 18:23:42.23	24.63	11.55	-51.6	-63.1	3.6	8.45e-01	0	35	104	0	60	70735
2026-01-07 18:23:43.24	24.68	11.64	-51.6	-63.1	3.6	8.46e-01	0	35	104	0	60	70570
2026-01-07 18:23:44.25	24.72	11.73	-51.6	-63.1	3.6	8.46e-01	0	35	104	0	60	70384
2026-01-07 18:23:45.26	24.77	11.82	-51.6	-63.1	3.6	8.45e-01	0	35	104	0	60	70519
2026-01-07 18:23:46.27	24.82	11.91	-51.6	-63.1	3.6	8.43e-01	0	35	104	0	60	70189
2026-01-07 18:23:47.28	24.86	12.00	-51.6	-63.1	3.6	8.46e-01	0	35	104	0	60	70418
2026-01-07 18:23:48.29	24.91	12.10	-51.6	-63.1	3.6	8.46e-01	0	35	104	0	60	70718
2026-01-07 18:23:49.30	24.96	12.19	-51.6	-63.1	3.6	8.46e-01	0	35	104	0	60	70102
2026-01-07 18:23:50.31	25.01	12.28	-51.6	-63.1	3.6	8.46e-01	0	35	104	0	60	70196
2026-01-07 18:23:51.33	25.06	12.38	-51.6	-63.1	3.6	8.45e-01	0	35	104	0	60	70333
2026-01-07 18:23:52.34	25.11	12.47	-51.6	-63.1	3.6	8.45e-01	0	35	104	0	60	70274
2026-01-07 18:23:53.35	25.16	12.56	-51.6	-63.1	3.6	8.46e-01	0	35	104	0	60	70372
2026-01-07 18:23:54.36	25.21	12.66	-51.6	-63.0	3.6	8.45e-01	0	36	104	0	60	70010
2026-01-07 18:23:55.37	25.26	12.75	-51.6	-63.1	3.6	8.45e-01	0	36	104	0	60	70117
2026-01-07 18:23:56.38	25.31	12.85	-51.6	-63.0	3.6	8.45e-01	0	35	104	0	60	69689
2026-01-07 18:23:57.39	25.36	12.94	-51.6	-63.0	3.6	8.45e-01	0	36	104	0	60	69663
2026-01-07 18:23:58.40	25.41	13.04	-51.6	-63.0	3.6	8.46e-01	0	35	104	0	60	69906
2026-01-07 18:23:59.41	25.46	13.13	-51.6	-63.1	3.6	8.45e-01	0	36	104	0	60	70135
2026-01-07 18:24:00.42	25.51	13.23	-51.6	-63.1	3.6	8.45e-01	0	36	104	0	60	70132
2026-01-07 18:24:01.43	25.56	13.32	-51.6	-63.0	3.6	8.46e-01	0	36	104	0	60	70053
2026-01-07 18:24:02.44	25.61	13.42	-51.6	-63.1	3.6	8.45e-01	0	36	104	0	60	70242
2026-01-07 18:24:03.46	25.67	13.52	-51.6	-63.1	3.6	8.44e-01	0	35	104	0	60	70132
2026-01-07 18:24:04.47	25.72	13.62	-51.6	-63.1	3.6	8.46e-01	0	36	104	0	60	70106
2026-01-07 18:24:05.48	25.77	13.72	-51.6	-63.1	3.6	8.45e-01	0	35	104	0	60	70268
2026-01-07 18:24:06.49	25.82	13.81	-51.6	-63.1	3.6	8.46e-01	0	35	104	0	60	70380
2026-01-07 18:24:07.50	25.88	13.91	-51.6	-63.1	3.6	8.46e-01	0	36	104	0	60	70507
2026-01-07 18:24:08.51	25.93	14.01	-51.6	-63.1	3.6	8.46e-01	0	36	104	0	60	70337
2026-01-07 18:24:09.52	25.99	14.11	-51.6	-63.0	3.6	8.45e-01	0	35	104	0	60	70067
2026-01-07 18:24:10.53	26.04	14.21	-51.6	-63.1	3.5	8.45e-01	0	36	104	0	60	70392
2026-01-07 18:24:11.54	26.10	14.31	-51.6	-63.0	3.6	8.45e-01	0	36	104	0	60	69929
2026-01-07 18:24:12.55	26.15	14.41	-51.6	-63.1	3.6	8.45e-01	0	36	104	0	60	70249
2026-01-07 18:24:13.57	26.21	14.52	-51.6	-63.1	3.6	8.45e-01	0	36	104	0	60	70384
2026-01-07 18:24:14.58	26.26	14.62	-51.6	-63.1	3.6	8.45e-01	0	36	104	0	60	70268
2026-01-07 18:24:15.59	26.32	14.72	-51.6	-63.1	3.6	8.46e-01	0	36	104	0	60	70682
2026-01-07 18:24:16.60	26.38	14.82	-51.6	-63.1	3.6	8.46e-01	0	36	104	0	60	70491
2026-01-07 18:24:17.61	26.43	14.92	-51.6	-63.1	3.6	8.46e-01	0	36	104	0	60	70552
2026-01-07 18:24:18.62	26.49	15.03	-51.6	-63.1	3.6	8.45e-01	0	36	104	0	60	70420
2026-01-07 18:24:19.59	26.55	15.13	-51.6	-63.1	3.6	8.45e-01	0	36	104	0	60	70138
2026-01-07 18:24:20.60	26.60	15.23	-51.6	-63.1	3.6	8.46e-01	0	35	104	0	60	70232
2026-01-07 18:24:21.61	26.66	15.34	-51.6	-63.0	3.6	8.45e-01	0	36	104	0	60	69824
2026-01-07 18:24:22.62	26.72	15.44	-51.6	-63.1	3.6	8.45e-01	0	36	104	0	60	70300
2026-01-07 18:24:23.64	26.78	15.55	-51.6	-63.1	3.6	8.45e-01	0	36	104	0	60	70288
2026-01-07 18:24:24.65	26.84	15.65	-51.6	-63.1	3.6	8.44e-01	0	36	104	0	60	70595
2026-01-07 18:24:25.66	26.90	15.76	-51.6	-63.1	3.6	8.45e-01	0	36	104	0	60	70098
2026-01-07 18:24:26.67	26.96	15.87	-51.6	-63.1	3.6	8.45e-01	0	35	104	0	60	70580
2026-01-07 18:24:27.68	27.02	15.97	-51.6	-63.1	3.6	8.46e-01	0	36	104	0	60	70369
2026-01-07 18:24:28.69	27.08	16.08	-51.6	-63.1	3.6	8.46e-01	0	36	104	0	60	70267
2026-01-07 18:24:29.70	27.14	16.19	-51.6	-63.1	3.6	8.44e-01	0	35	104	0	60	70155
2026-01-07 18:24:30.71	27.21	16.30	-51.6	-63.0	3.6	8.45e-01	0	35	104	0	60	70067
2026-01-07 18:24:31.72	27.27	16.40	-51.6	-63.1	3.6	8.45e-01	0	36	104	0	60	70107
2026-01-07 18:24:32.73	27.33	16.51	-51.6	-63.1	3.6	8.46e-01	0	35	104	0	60	70528
2026-01-07 18:24:33.74	27.39	16.62	-51.6	-63.1	3.6	8.47e-01	0	36	104	0	60	70460
2026-01-07 18:24:34.75	27.46	16.73	-51.6	-63.1	3.6	8.46e-01	0	36	104	0	60	70514
2026-01-07 18:24:35.77	27.52	16.85	-51.6	-63.1	3.6	8.44e-01	0	36	104	0	60	70395
2026-01-07 18:24:36.78	27.59	16.96	-51.6	-63.1	3.6	8.45e-01	0	36	104	0	60	70278
2026-01-07 18:24:37.79	27.65	17.07	-51.6	-63.1	3.6	8.45e-01	0	36	104	0	60	70427
2026-01-07 18:24:38.80	27.72	17.18	-51.6	-63.1	3.6	8.46e-01	0	36	104	0	60	70174
2026-01-07 18:24:39.81	27.78	17.29	-51.6	-63.1	3.6	8.46e-01	0	36	104	0	60	70372
2026-01-07 18:24:40.82	27.85	17.41	-51.6	-63.1	3.6	8.45e-01	0	36	104	0	60	70204
2026-01-07 18:24:41.83	27.92	17.52	-51.6	-63.1	3.6	8.46e-01	0	36	104	0	60	70424
2026-01-07 18:24:42.84	27.98	17.64	-51.6	-63.0	3.6	8.46e-01	0	36	104	0	60	70036
2026-01-07 18:24:43.85	28.05	17.75	-51.6	-63.1	3.6	8.45e-01	0	36	104	0	60	70668
2026-01-07 18:24:44.86	28.12	17.86	-51.6	-63.1	3.6	8.46e-01	0	36	104	0	60	70225
2026-01-07 18:24:45.87	28.19	17.98	-51.6	-63.1	3.6	8.45e-01	0	36	104	0	60	70180
2026-01-07 18:24:46.88	28.26	18.10	-51.6	-63.1	3.6	8.47e-01	0	36	104	0	60	70104
2026-01-07 18:24:47.89	28.33	18.21	-51.6	-63.1	3.6	8.45e-01	0	36	104	0	60	70123
2026-01-07 18:24:48.91	28.40	18.33	-51.6	-63.1	3.6	8.45e-01	0	36	104	0	60	70543
2026-01-07 18:24:49.92	28.47	18.45	-51.6	-63.1	3.6	8.45e-01	0	36	104	0	60	70292
2026-01-07 18:24:50.93	28.54	18.57	-51.6	-63.2	3.6	8.45e-01	0	36	104	0	60	70888
2026-01-07 18:24:51.93	28.61	18.69	-51.6	-63.1	3.6	8.45e-01	0	36	104	0	60	70147
2026-01-07 18:24:52.94	28.69	18.80	-51.6	-63.1	3.6	8.46e-01	0	36	104	0	60	70518
2026-01-07 18:24:53.96	28.76	18.93	-51.6	-63.1	3.6	8.46e-01	0	36	104	0	60	70268
2026-01-07 18:24:54.97	28.83	19.05	-51.6	-63.1	3.6	8.46e-01	0	36	104	0	60	70226
2026-01-07 18:24:55.98	28.91	19.17	-51.6	-63.1	3.6	8.46e-01	0	36	104	0	60	70151
2026-01-07 18:24:56.98	28.98	19.29	-51.6	-63.1	3.6	8.46e-01	0	36	104	0	60	70335
2026-01-07 18:24:58.00	29.06	19.41	-51.6	-63.1	3.6	8.46e-01	0	36	104	0	60	70225
2026-01-07 18:24:59.01	29.13	19.53	-51.6	-63.1	3.6	8.46e-01	0	36	104	0	60	70497
2026-01-07 18:25:00.02	29.21	19.66	-51.6	-63.1	3.6	8.45e-01	0	36	104	0	60	70362
2026-01-07 18:25:01.03	29.29	19.78	-51.6	-63.0	3.6	8.45e-01	0	36	104	0	60	69958
2026-01-07 18:25:02.04	29.36	19.90	-51.6	-63.0	3.6	8.46e-01	0	36	104	0	60	69853
2026-01-07 18:25:03.05	29.44	20.03	-51.6	-63.0	3.6	8.46e-01	0	36	104	0	60	69922
2026-01-07 18:25:04.06	29.52	20.16	-51.6	-63.1	3.6	8.45e-01	0	36	104	0	60	70357
2026-01-07 18:25:05.07	29.60	20.28	-51.6	-63.0	3.6	8.46e-01	0	36	104	0	60	70022
2026-01-07 18:25:06.08	29.68	20.41	-51.6	-63.0	3.5	8.46e-01	0	36	104	0	60	70050
2026-01-07 18:25:07.09	29.76	20.54	-51.6	-63.1	3.6	8.46e-01	0	36	104	0	60	70464
2026-01-07 18:25:08.11	29.84	20.66	-51.6	-63.1	3.6	8.45e-01	0	36	104	0	60	70476
2026-01-07 18:25:09.12	29.92	20.79	-51.6	-63.1	3.6	8.45e-01	0	36	104	0	60	70400
2026-01-07 18:25:10.13	30.00	20.92	-51.6	-63.0	3.6	8.45e-01	0	36	104	0	60	69611
2026-01-07 18:25:11.14	30.09	21.05	-51.6	-63.1	3.6	8.46e-01	0	36	104	0	60	70169
2026-01-07 18:25:12.15	30.17	21.18	-51.6	-63.1	3.6	8.45e-01	0	36	104	0	60	70618
2026-01-07 18:25:13.16	30.26	21.31	-51.6	-63.0	3.6	8.45e-01	0	36	104	0	60	70031
2026-01-07 18:25:14.17	30.34	21.44	-51.6	-63.1	3.6	8.46e-01	0	36	104	0	60	70482
2026-01-07 18:25:15.18	30.43	21.58	-51.6	-63.0	3.6	8.46e-01	0	36	104	0	60	69581
2026-01-07 18:25:16.19	30.51	21.71	-51.6	-63.1	3.6	8.45e-01	0	36	104	0	60	70409
2026-01-07 18:25:17.20	30.60	21.84	-51.6	-63.1	3.6	8.45e-01	0	36	104	0	60	70214
2026-01-07 18:25:18.21	30.69	21.98	-51.6	-63.1	3.6	8.46e-01	0	36	104	0	60	70742
2026-01-07 18:25:19.22	30.78	22.11	-51.6	-63.1	3.6	8.44e-01	0	36	104	0	60	70216
2026-01-07 18:25:20.24	30.87	22.25	-51.6	-63.1	3.6	8.45e-01	0	36	104	0	60	70456
2026-01-07 18:25:21.25	30.96	22.39	-51.6	-63.1	3.6	8.44e-01	0	36	104	0	60	70194
2026-01-07 18:25:22.26	31.05	22.52	-51.6	-63.1	3.6	8.46e-01	0	36	104	0	60	70430
2026-01-07 18:25:23.27	31.14	22.66	-51.6	-63.1	3.6	8.45e-01	0	36	104	0	60	70725
2026-01-07 18:25:24.28	31.23	22.80	-51.6	-63.1	3.6	8.45e-01	0	36	104	0	60	70345
2026-01-07 18:25:25.29	31.33	22.94	-51.6	-63.1	3.6	8.45e-01	0	36	104	0	60	70514
2026-01-07 18:25:26.30	31.42	23.08	-51.6	-63.1	3.6	8.45e-01	0	36	104	0	60	70275
2026-01-07 18:25:27.31	31.51	23.22	-51.6	-63.0	3.6	8.45e-01	0	36	104	0	60	69951
2026-01-07 18:25:28.32	31.61	23.36	-51.6	-63.1	3.6	8.45e-01	0	36	104	0	60	70247
2026-01-07 18:25:29.34	31.71	23.50	-51.6	-63.1	3.6	8.44e-01	0	36	104	0	60	70823
2026-01-07 18:25:30.35	31.80	23.64	-51.6	-63.1	3.6	8.46e-01	0	36	104	0	60	70521
2026-01-07 18:25:31.36	31.90	23.78	-51.6	-63.1	3.6	8.46e-01	0	36	104	0	60	70495
2026-01-07 18:25:32.37	32.00	23.93	-51.6	-63.1	3.6	8.44e-01	0	36	104	0	60	70154
2026-01-07 18:25:33.38	32.10	24.07	-51.6	-63.1	3.6	8.46e-01	0	36	104	0	60	70473
2026-01-07 18:25:34.39	32.20	24.22	-51.6	-63.1	3.6	8.44e-01	0	36	104	0	60	70328
2026-01-07 18:25:35.40	32.30	24.36	-51.6	-63.1	3.6	8.46e-01	0	36	104	0	60	70509
2026-01-07 18:25:36.41	32.41	24.51	-51.6	-63.1	3.6	8.45e-01	0	36	104	0	60	70092
2026-01-07 18:25:37.42	32.51	24.66	-51.6	-63.1	3.6	8.45e-01	0	36	104	0	60	70359
2026-01-07 18:25:38.43	32.61	24.81	-51.6	-63.0	3.6	8.45e-01	0	36	104	0	60	69917
2026-01-07 18:25:39.44	32.72	24.95	-51.6	-63.1	3.6	8.45e-01	0	36	104	0	60	70325
2026-01-07 18:25:40.45	32.83	25.10	-51.6	-63.0	3.6	8.45e-01	0	36	104	0	60	70011
2026-01-07 18:25:41.47	32.93	25.26	-51.6	-63.1	3.6	8.46e-01	0	36	104	0	60	70295
2026-01-07 18:25:42.48	33.04	25.41	-51.6	-63.1	3.6	8.45e-01	0	36	104	0	60	70608
2026-01-07 18:25:43.49	33.15	25.56	-51.6	-63.1	3.6	8.44e-01	0	36	104	0	60	70293
2026-01-07 18:25:44.50	33.26	25.71	-51.6	-63.1	3.5	8.45e-01	0	36	104	0	60	70177
2026-01-07 18:25:45.51	33.37	25.86	-51.6	-63.1	3.6	8.45e-01	0	36	104	0	60	70416
2026-01-07 18:25:46.52	33.49	26.02	-51.6	-63.0	3.6	8.45e-01	0	36	104	0	60	70069
2026-01-07 18:25:47.53	33.60	26.17	-51.6	-63.0	3.6	8.45e-01	0	36	104	0	60	70012
2026-01-07 18:25:48.54	33.71	26.33	-51.6	-63.0	3.6	8.45e-01	0	36	104	0	60	69874
2026-01-07 18:25:49.55	33.83	26.49	-51.6	-63.0	3.6	8.45e-01	0	36	104	0	60	70075
2026-01-07 18:25:50.57	33.95	26.65	-51.6	-63.0	3.6	8.46e-01	0	36	104	0	60	70010
2026-01-07 18:25:51.58	34.06	26.80	-51.6	-63.1	3.6	8.45e-01	0	36	104	0	60	70491
2026-01-07 18:25:52.59	34.18	26.96	-51.6	-63.1	3.6	8.45e-01	0	36	104	0	60	70245
2026-01-07 18:25:53.60	34.30	27.12	-51.6	-63.1	3.6	8.44e-01	0	36	104	0	60	70426
2026-01-07 18:25:54.61	34.42	27.28	-51.6	-63.1	3.6	8.45e-01	0	36	104	0	60	70483
2026-01-07 18:25:55.62	34.55	27.44	-51.6	-63.0	3.6	8.45e-01	0	36	104	0	60	70036
2026-01-07 18:25:56.63	34.67	27.61	-51.6	-63.1	3.6	8.45e-01	0	36	104	0	60	70419
2026-01-07 18:25:57.64	34.79	27.77	-51.6	-63.1	3.6	8.45e-01	0	36	104	0	60	70251
2026-01-07 18:25:58.65	34.92	27.93	-51.6	-63.1	3.6	8.46e-01	0	36	104	0	60	70650
2026-01-07 18:25:59.67	35.05	28.10	-51.6	-63.1	3.6	8.46e-01	0	36	104	0	60	70303
2026-01-07 18:26:00.68	35.18	28.27	-51.6	-63.1	3.6	8.43e-01	0	36	104	0	60	70248
2026-01-07 18:26:01.69	35.31	28.43	-51.6	-63.1	3.6	8.45e-01	0	36	104	0	60	70342
2026-01-07 18:26:02.70	35.44	28.60	-51.6	-63.1	3.6	8.46e-01	0	36	104	0	60	70531
2026-01-07 18:26:03.71	35.57	28.77	-51.6	-63.1	3.6	8.45e-01	0	36	104	0	60	70303
2026-01-07 18:26:04.72	35.71	28.94	-51.6	-63.1	3.6	8.45e-01	0	36	104	0	60	70143
2026-01-07 18:26:05.73	35.84	29.11	-51.6	-63.1	3.6	8.45e-01	0	36	104	0	60	70626
2026-01-07 18:26:06.74	35.98	29.28	-51.6	-63.1	3.6	8.45e-01	0	36	104	0	60	70302
2026-01-07 18:26:07.75	36.12	29.45	-51.6	-63.1	3.6	8.45e-01	0	36	104	0	60	70148
2026-01-07 18:26:08.77	36.26	29.62	-51.6	-63.0	3.6	8.45e-01	0	36	104	0	60	69781
2026-01-07 18:26:09.78	36.40	29.80	-51.6	-63.0	3.6	8.45e-01	0	36	104	0	60	69736
2026-01-07 18:26:10.79	36.54	29.97	-51.6	-63.0	3.6	8.45e-01	0	36	104	0	60	69597
2026-01-07 18:26:11.80	36.68	30.15	-51.6	-63.0	3.6	8.45e-01	0	36	104	0	60	69687
2026-01-07 18:26:12.81	36.83	30.32	-51.6	-63.1	3.6	8.45e-01	0	36	104	0	60	70156
2026-01-07 18:26:13.82	36.98	30.50	-51.6	-63.1	3.6	8.44e-01	0	36	104	0	60	70124
2026-01-07 18:26:14.83	37.12	30.68	-51.6	-63.1	3.6	8.46e-01	0	36	104	0	60	70293
2026-01-07 18:26:15.84	37.27	30.85	-51.6	-63.1	3.6	8.45e-01	0	36	104	0	60	70416
2026-01-07 18:26:16.85	37.43	31.03	-51.6	-63.1	3.6	8.46e-01	0	36	104	0	60	70422
2026-01-07 18:26:17.87	37.58	31.22	-51.6	-63.1	3.6	8.46e-01	0	36	104	0	60	70628
2026-01-07 18:26:18.88	37.74	31.40	-51.6	-63.1	3.6	8.47e-01	0	36	104	0	60	70601
2026-01-07 18:26:19.89	37.89	31.58	-51.6	-63.1	3.6	8.45e-01	0	36	104	0	60	70108
2026-01-07 18:26:20.90	38.05	31.76	-51.6	-63.1	3.6	8.45e-01	0	36	104	0	60	70190
2026-01-07 18:26:21.91	38.21	31.95	-51.6	-63.1	3.6	8.46e-01	0	36	104	0	60	70351
2026-01-07 18:26:22.92	38.37	32.13	-51.6	-63.1	3.6	8.45e-01	0	36	104	0	60	70302
2026-01-07 18:26:23.93	38.54	32.32	-51.6	-63.1	3.6	8.46e-01	0	36	104	0	60	70416
2026-01-07 18:26:24.94	38.70	32.51	-51.6	-63.0	3.6	8.45e-01	0	36	104	0	60	70074
2026-01-07 18:26:25.95	38.87	32.69	-51.6	-63.1	3.6	8.46e-01	0	36	104	0	60	70332
2026-01-07 18:26:26.97	39.04	32.88	-51.6	-63.1	3.6	8.45e-01	0	36	104	0	60	70170
2026-01-07 18:26:27.98	39.21	33.07	-51.6	-63.1	3.6	8.45e-01	0	36	104	0	60	70553
2026-01-07 18:26:28.99	39.39	33.27	-51.6	-63.1	3.6	8.44e-01	0	36	104	0	60	70305
2026-01-07 18:26:30.00	39.56	33.46	-51.6	-63.1	3.6	8.46e-01	0	36	104	0	60	70702
2026-01-07 18:26:31.01	39.74	33.65	-51.6	-63.1	3.6	8.45e-01	0	36	104	0	60	70193
2026-01-07 18:26:32.02	39.92	33.84	-51.6	-63.1	3.6	8.46e-01	0	36	104	0	60	70422
2026-01-07 18:26:33.03	40.10	34.04	-51.6	-63.1	3.6	8.45e-01	0	36	104	0	60	70702
2026-01-07 18:26:34.04	40.29	34.23	-51.6	-63.1	3.6	8.45e-01	0	36	104	0	60	70243
2026-01-07 18:26:35.06	40.47	34.43	-51.6	-63.1	3.6	8.46e-01	0	36	104	0	60	70153
2026-01-07 18:26:36.07	40.66	34.63	-51.6	-63.1	3.6	8.45e-01	0	36	104	0	60	70676
2026-01-07 18:26:37.08	40.85	34.83	-51.6	-63.1	3.6	8.46e-01	0	36	104	0	60	70542
2026-01-07 18:26:38.09	41.05	35.02	-51.6	-63.1	3.6	8.47e-01	0	36	104	0	60	70355
2026-01-07 18:26:39.10	41.24	35.22	-51.6	-63.1	3.6	8.45e-01	0	36	104	0	60	70202
2026-01-07 18:26:40.11	41.44	35.43	-51.6	-63.1	3.6	8.46e-01	0	36	104	0	60	70388
2026-01-07 18:26:41.12	41.64	35.63	-51.6	-63.1	3.6	8.45e-01	0	36	104	0	60	70375
2026-01-07 18:26:42.13	41.84	35.83	-51.6	-63.1	3.6	8.45e-01	0	36	104	0	60	70404
2026-01-07 18:26:43.14	42.04	36.03	-51.6	-63.1	3.6	8.45e-01	0	36	104	0	60	70249
2026-01-07 18:26:44.16	42.25	36.24	-51.6	-63.1	3.6	8.46e-01	0	36	104	0	60	70473
2026-01-07 18:26:45.17	42.46	36.45	-51.6	-63.1	3.6	8.45e-01	0	36	104	0	60	70448
2026-01-07 18:26:46.18	42.68	36.65	-51.6	-63.0	3.6	8.44e-01	0	36	104	0	60	69963
2026-01-07 18:26:47.19	42.89	36.86	-51.6	-63.0	3.6	8.45e-01	0	36	104	0	60	69994
2026-01-07 18:26:48.20	43.11	37.07	-51.6	-63.0	3.6	8.45e-01	0	36	104	0	60	69937
2026-01-07 18:26:49.21	43.33	37.28	-51.6	-63.1	3.6	8.46e-01	0	36	104	0	60	70419
2026-01-07 18:26:50.22	43.55	37.48	-51.6	-63.1	3.6	8.46e-01	0	36	104	0	60	70448
2026-01-07 18:26:51.23	43.78	37.70	-51.6	-63.1	3.6	8.46e-01	0	36	104	0	60	70113
2026-01-07 18:26:52.24	44.01	37.91	-51.6	-63.1	3.6	8.45e-01	0	36	104	0	60	70317
2026-01-07 18:26:53.25	44.24	38.12	-51.6	-63.1	3.6	8.45e-01	0	36	104	0	60	70437
2026-01-07 18:26:54.26	44.47	38.33	-51.6	-63.1	3.6	8.46e-01	0	36	104	0	60	70312
2026-01-07 18:26:55.28	44.72	38.55	-51.6	-63.1	3.6	8.45e-01	0	36	104	0	60	70659
2026-01-07 18:26:56.29	44.96	38.76	-51.6	-63.0	3.6	8.45e-01	0	36	104	0	60	70059
2026-01-07 18:26:57.30	45.20	38.98	-51.6	-63.1	3.6	8.46e-01	0	36	104	0	60	70511
2026-01-07 18:26:58.31	45.45	39.20	-51.6	-63.1	3.6	8.46e-01	0	36	104	0	60	70513
2026-01-07 18:26:59.32	45.70	39.41	-51.6	-63.1	3.6	8.45e-01	0	36	104	0	60	70518
2026-01-07 18:27:00.33	45.95	39.63	-51.6	-63.1	3.6	8.45e-01	0	36	104	0	60	70352
2026-01-07 18:27:01.34	46.21	39.85	-51.6	-63.1	3.6	8.46e-01	0	36	104	0	60	70520
2026-01-07 18:27:02.35	46.47	40.07	-51.6	-63.1	3.6	8.46e-01	0	36	104	0	60	70336
2026-01-07 18:27:03.36	46.74	40.29	-51.6	-63.1	3.6	8.45e-01	0	36	104	0	60	70520
2026-01-07 18:27:04.37	47.00	40.51	-51.6	-63.1	3.6	8.46e-01	0	36	104	0	60	70420
2026-01-07 18:27:05.38	47.28	40.73	-51.6	-63.1	3.6	8.45e-01	0	36	104	0	60	70514
2026-01-07 18:27:06.40	47.55	40.95	-51.6	-63.1	3.6	8.46e-01	0	36	104	0	60	70537
2026-01-07 18:27:07.41	47.83	41.18	-51.6	-63.1	3.6	8.46e-01	0	36	104	0	60	70420
2026-01-07 18:27:08.42	48.12	41.40	-51.6	-63.1	3.6	8.46e-01	0	36	104	0	60	70389
2026-01-07 18:27:09.43	48.40	41.63	-51.6	-63.1	3.6	8.45e-01	0	36	104	0	60	70243
2026-01-07 18:27:10.44	48.69	41.85	-51.6	-63.1	3.6	8.46e-01	0	36	104	0	60	70305
2026-01-07 18:27:11.45	48.99	42.08	-51.6	-63.1	3.6	8.47e-01	0	36	104	0	60	70234
2026-01-07 18:27:12.46	49.29	42.30	-51.6	-63.1	3.6	8.46e-01	0	36	104	0	60	70753
2026-01-07 18:27:13.47	49.59	42.53	-51.6	-63.1	3.6	8.46e-01	0	36	104	0	60	70526
2026-01-07 18:27:14.48	49.90	42.75	-51.6	-63.1	3.6	8.46e-01	0	36	104	0	60	70284
2026-01-07 18:27:15.49	50.21	42.98	-51.6	-63.1	3.6	8.46e-01	0	36	104	0	60	70408
2026-01-07 18:27:16.50	50.52	43.21	-51.6	-63.1	3.6	8.45e-01	0	36	104	0	60	70170
2026-01-07 18:27:17.51	50.84	43.44	-51.6	-63.1	3.6	8.46e-01	0	36	104	0	60	70210
2026-01-07 18:27:18.52	51.17	43.67	-51.6	-63.1	3.6	8.45e-01	0	36	104	0	60	70387
2026-01-07 18:27:19.54	51.50	43.90	-51.6	-63.1	3.6	8.45e-01	0	36	104	0	60	70604
2026-01-07 18:27:20.55	51.84	44.13	-51.6	-63.1	3.6	8.46e-01	0	36	104	0	60	70304
2026-01-07 18:27:21.56	52.18	44.36	-51.6	-63.1	3.6	8.45e-01	0	36	104	0	60	70375
2026-01-07 18:27:22.57	52.52	44.59	-51.6	-63.1	3.5	8.46e-01	0	36	104	0	60	70402
2026-01-07 18:27:23.58	52.87	44.82	-51.6	-63.0	3.6	8.44e-01	0	36	104	0	60	70045
2026-01-07 18:27:24.59	53.22	45.05	-51.6	-63.1	3.6	8.45e-01	0	36	104	0	60	70478
2026-01-07 18:27:25.60	53.58	45.28	-51.6	-63.1	3.6	8.44e-01	0	36	104	0	60	70447
2026-01-07 18:27:26.61	53.95	45.51	-51.6	-63.1	3.6	8.46e-01	0	36	104	0	60	70420
2026-01-07 18:27:27.62	54.31	45.74	-51.6	-63.1	3.6	8.45e-01	0	36	104	0	60	70302
2026-01-07 18:27:28.63	54.69	45.97	-51.6	-63.1	3.6	8.45e-01	0	36	104	0	60	70247
2026-01-07 18:27:29.65	55.07	46.20	-51.6	-63.1	3.6	8.45e-01	0	36	104	0	60	70671
2026-01-07 18:27:30.66	55.46	46.43	-51.6	-63.1	3.6	8.45e-01	0	36	104	0	60	70367
2026-01-07 18:27:31.67	55.85	46.66	-51.6	-63.1	3.6	8.46e-01	0	36	104	0	60	70629
2026-01-07 18:27:32.68	56.25	46.89	-51.6	-63.1	3.6	8.45e-01	0	36	104	0	60	70560
2026-01-07 18:27:33.69	56.65	47.12	-51.6	-63.1	3.6	8.45e-01	0	36	104	0	60	70345
2026-01-07 18:27:34.70	57.06	47.35	-51.6	-63.1	3.6	8.46e-01	0	36	104	0	60	70599
2026-01-07 18:27:35.71	57.48	47.58	-51.6	-63.1	3.6	8.45e-01	0	36	104	0	60	70318
2026-01-07 18:27:36.72	57.90	47.81	-51.6	-63.1	3.6	8.45e-01	0	36	104	0	60	70362
2026-01-07 18:27:37.73	58.32	48.04	-51.6	-63.1	3.6	8.45e-01	0	36	104	0	60	70645
2026-01-07 18:27:38.74	58.76	48.27	-51.6	-63.1	3.6	8.46e-01	0	36	104	0	60	70223
2026-01-07 18:27:39.76	59.20	48.50	-51.6	-63.1	3.6	8.45e-01	0	36	104	0	60	70811
2026-01-07 18:27:40.77	59.65	48.72	-51.6	-63.1	3.6	8.45e-01	0	36	104	0	60	70172
2026-01-07 18:27:41.78	60.10	48.95	-51.6	-63.1	3.6	8.45e-01	0	36	104	0	60	70293
2026-01-07 18:27:42.79	60.56	49.18	-51.6	-63.1	3.6	8.44e-01	0	36	104	0	60	70736
2026-01-07 18:27:43.80	61.03	49.40	-51.6	-63.1	3.6	8.45e-01	0	36	104	0	60	70478
2026-01-07 18:27:44.81	61.50	49.63	-51.6	-63.0	3.6	8.45e-01	0	36	104	0	60	70040
2026-01-07 18:27:45.82	61.98	49.85	-51.6	-63.1	3.6	8.46e-01	0	36	104	0	60	70180
2026-01-07 18:27:46.83	62.47	50.07	-51.6	-63.1	3.6	8.44e-01	0	36	104	0	60	70437
2026-01-07 18:27:47.84	62.96	50.29	-51.6	-63.1	3.6	8.44e-01	0	36	104	0	60	70522
2026-01-07 18:27:48.85	63.47	50.51	-51.6	-63.1	3.6	8.45e-01	0	36	104	0	60	70342
2026-01-07 18:27:49.86	63.97	50.73	-51.6	-63.1	3.6	8.45e-01	0	36	104	0	60	70645
2026-01-07 18:27:50.87	64.49	50.95	-51.6	-63.1	3.6	8.45e-01	0	36	104	0	60	70122
2026-01-07 18:27:51.88	65.01	51.16	-51.6	-63.1	3.6	8.45e-01	0	36	104	0	60	70195
2026-01-07 18:27:52.89	65.55	51.38	-51.6	-63.1	3.6	8.45e-01	0	36	104	0	60	70355
2026-01-07 18:27:53.90	66.08	51.59	-51.6	-63.1	3.6	8.45e-01	0	36	104	0	60	70230
2026-01-07 18:27:54.91	66.63	51.80	-51.6	-63.1	3.6	8.46e-01	0	36	104	0	60	70500
2026-01-07 18:27:55.93	67.19	52.01	-51.6	-63.1	3.6	8.44e-01	0	36	104	0	60	70633
2026-01-07 18:27:56.94	67.75	52.22	-51.6	-63.1	3.6	8.45e-01	0	36	104	0	60	70560
2026-01-07 18:27:57.95	68.32	52.42	-51.6	-63.1	3.6	8.46e-01	0	36	104	0	60	70731
2026-01-07 18:27:58.96	68.90	52.63	-51.6	-63.1	3.6	8.45e-01	0	36	104	0	60	70386
2026-01-07 18:27:59.97	69.49	52.83	-51.6	-63.1	3.6	8.44e-01	0	36	104	0	60	70657
2026-01-07 18:28:00.98	70.08	53.03	-51.6	-63.1	3.6	8.45e-01	0	36	104	0	60	70472
2026-01-07 18:28:01.99	70.68	53.22	-51.6	-63.1	3.6	8.45e-01	0	36	104	0	60	70425
2026-01-07 18:28:03.00	71.29	53.42	-51.6	-63.1	3.6	8.45e-01	0	36	104	0	60	70291
2026-01-07 18:28:04.01	71.91	53.61	-51.6	-63.1	3.6	8.45e-01	0	36	104	0	60	70544
2026-01-07 18:28:05.02	72.53	53.80	-51.6	-63.1	3.6	8.45e-01	0	36	104	0	60	70279
2026-01-07 18:28:06.03	73.17	53.98	-51.6	-63.1	3.6	8.45e-01	0	36	104	0	60	70156
2026-01-07 18:28:07.04	73.81	54.17	-51.6	-63.1	3.6	8.46e-01	0	36	104	0	60	70257
2026-01-07 18:28:08.06	74.47	54.35	-51.6	-63.1	3.6	8.46e-01	0	36	104	0	60	70422
2026-01-07 18:28:09.07	75.13	54.53	-51.6	-63.1	3.6	8.46e-01	0	36	104	0	60	70715
2026-01-07 18:28:10.08	75.79	54.70	-51.6	-63.1	3.6	8.45e-01	0	36	104	0	60	70653
2026-01-07 18:28:11.09	76.47	54.87	-51.6	-63.1	3.6	8.45e-01	0	36	104	0	60	70254
2026-01-07 18:28:12.10	77.15	55.04	-51.6	-63.1	3.6	8.45e-01	0	36	104	0	60	70224
2026-01-07 18:28:13.11	77.84	55.20	-51.6	-63.1	3.6	8.44e-01	0	36	104	0	60	70535
2026-01-07 18:28:14.12	78.54	55.36	-51.6	-63.1	3.6	8.45e-01	0	36	104	0	60	70282
2026-01-07 18:28:15.13	79.25	55.52	-51.6	-63.1	3.6	8.45e-01	0	36	104	0	60	70313
2026-01-07 18:28:16.14	79.96	55.67	-51.6	-63.1	3.6	8.45e-01	0	36	104	0	60	70201
2026-01-07 18:28:17.16	80.69	55.82	-51.6	-63.1	3.6	8.44e-01	0	36	104	0	60	70430
2026-01-07 18:28:18.17	81.42	55.97	-51.6	-63.1	3.6	8.46e-01	0	36	104	0	60	70268
2026-01-07 18:28:19.18	82.16	56.11	-51.6	-63.1	3.5	8.45e-01	0	36	104	0	60	70396
2026-01-07 18:28:20.19	82.90	56.25	-51.6	-63.1	3.6	8.46e-01	0	36	104	0	60	70359
2026-01-07 18:28:21.20	83.65	56.38	-51.6	-63.1	3.6	8.46e-01	0	36	104	0	60	70350
2026-01-07 18:28:22.21	84.41	56.51	-51.6	-63.1	3.6	8.45e-01	0	36	104	0	60	70226
2026-01-07 18:28:23.22	85.18	56.63	-51.6	-63.1	3.6	8.46e-01	0	36	104	0	60	70156
2026-01-07 18:28:24.23	85.95	56.75	-51.6	-63.1	3.6	8.46e-01	0	36	104	0	60	70415
2026-01-07 18:28:25.24	86.73	56.86	-51.6	-63.1	3.6	8.47e-01	0	36	104	0	60	70191
2026-01-07 18:28:26.25	87.51	56.97	-51.6	-63.1	3.6	8.46e-01	0	36	104	0	60	70458
2026-01-07 18:28:27.27	88.31	57.08	-51.6	-63.1	3.6	8.45e-01	0	36	104	0	60	70490
2026-01-07 18:28:28.28	89.11	57.17	-51.6	-63.1	3.6	8.45e-01	0	36	104	0	60	70423
2026-01-07 18:28:29.29	89.91	57.27	-51.6	-63.1	3.6	8.45e-01	0	36	104	0	60	70228
2026-01-07 18:28:30.30	90.72	57.36	-51.6	-63.1	3.6	8.46e-01	0	36	104	0	60	70115
2026-01-07 18:28:31.31	91.54	57.44	-51.6	-63.1	3.6	8.45e-01	0	36	104	0	60	70426
2026-01-07 18:28:32.32	92.36	57.52	-51.6	-63.1	3.6	8.44e-01	0	36	104	0	60	70300
2026-01-07 18:28:33.33	93.18	57.59	-51.6	-63.1	3.6	8.44e-01	0	36	104	0	60	70733
2026-01-07 18:28:34.34	94.01	57.66	-51.6	-63.1	3.6	8.44e-01	0	36	104	0	60	70191
2026-01-07 18:28:35.35	94.84	57.72	-51.6	-63.1	3.5	8.45e-01	0	36	104	0	60	70325
2026-01-07 18:28:36.37	95.68	57.78	-51.6	-63.1	3.6	8.46e-01	0	36	104	0	60	70587
2026-01-07 18:28:37.38	96.52	57.83	-51.6	-63.1	3.6	8.44e-01	0	36	104	0	60	70209
2026-01-07 18:28:38.39	97.36	57.87	-51.6	-63.1	3.6	8.44e-01	0	36	104	0	60	70408
2026-01-07 18:28:39.40	98.20	57.91	-51.6	-63.1	3.6	8.46e-01	0	36	104	0	60	70327
2026-01-07 18:28:40.41	99.05	57.95	-51.6	-63.1	3.6	8.45e-01	0	36	104	0	60	70109
2026-01-07 18:28:41.42	99.90	57.97	-51.6	-63.1	3.6	8.44e-01	0	36	104	0	60	70115
2026-01-07 18:28:42.43	100.75	58.00	-51.6	-63.1	3.6	8.46e-01	0	36	104	0	60	70528
2026-01-07 18:28:43.44	101.60	58.01	-51.6	-63.1	3.6	8.45e-01	0	36	104	0	60	70379
2026-01-07 18:28:44.45	102.45	58.02	-51.6	-63.1	3.6	8.45e-01	0	36	104	0	60	70182
2026-01-07 18:28:45.46	103.30	58.03	-51.6	-63.1	3.6	8.44e-01	0	36	104	0	60	70785
2026-01-07 18:28:46.48	104.16	58.03	-51.6	-63.1	3.6	8.45e-01	0	36	104	0	60	70342
2026-01-07 18:28:47.48	105.01	58.02	-51.6	-63.1	3.6	8.46e-01	0	36	104	0	60	70398
2026-01-07 18:28:48.50	105.87	58.01	-51.6	-63.1	3.6	8.45e-01	0	36	104	0	60	70159
2026-01-07 18:28:49.51	106.72	57.99	-51.6	-63.1	3.6	8.45e-01	0	36	104	0	60	70661
2026-01-07 18:28:50.52	107.57	57.96	-51.6	-63.1	3.6	8.46e-01	0	36	104	0	60	70354
2026-01-07 18:28:51.53	108.41	57.93	-51.6	-63.1	3.6	8.45e-01	0	36	104	0	60	70365
2026-01-07 18:28:52.54	109.26	57.89	-51.6	-63.1	3.6	8.46e-01	0	36	104	0	60	70305
2026-01-07 18:28:53.55	110.10	57.85	-51.6	-63.1	3.6	8.46e-01	0	36	104	0	60	70548
2026-01-07 18:28:54.56	110.94	57.80	-51.6	-63.1	3.6	8.46e-01	0	36	104	0	60	70437
2026-01-07 18:28:55.57	111.78	57.75	-51.6	-63.1	3.6	8.47e-01	0	36	104	0	60	70506
2026-01-07 18:28:56.58	112.61	57.69	-51.6	-63.1	3.6	8.45e-01	0	36	104	0	60	70395
2026-01-07 18:28:57.60	113.45	57.63	-51.6	-63.1	3.6	8.43e-01	0	36	104	0	60	70300
2026-01-07 18:28:58.61	114.28	57.55	-51.6	-63.1	3.6	8.45e-01	0	36	104	0	60	70246
2026-01-07 18:28:59.62	115.10	57.48	-51.6	-63.1	3.6	8.46e-01	0	36	104	0	60	70437
2026-01-07 18:29:00.63	115.91	57.40	-51.6	-63.1	3.6	8.45e-01	0	36	104	0	60	70545
2026-01-07 18:29:01.64	116.73	57.31	-51.6	-63.1	3.6	8.46e-01	0	36	104	0	60	70558
2026-01-07 18:29:02.65	117.53	57.22	-51.6	-63.1	3.6	8.45e-01	0	36	104	0	60	70457
2026-01-07 18:29:03.66	118.33	57.12	-51.6	-63.1	3.6	8.45e-01	0	36	104	0	60	70596
2026-01-07 18:29:04.67	119.13	57.02	-51.6	-63.1	3.6	8.45e-01	0	36	104	0	60	70721
2026-01-07 18:29:05.68	119.92	56.91	-51.6	-63.0	3.6	8.45e-01	0	36	104	0	60	70072
2026-01-07 18:29:06.69	120.70	56.80	-51.6	-63.1	3.6	8.45e-01	0	36	104	0	60	70289
2026-01-07 18:29:07.70	121.48	56.69	-51.6	-63.1	3.6	8.46e-01	0	36	104	0	60	70501
2026-01-07 18:29:08.72	122.25	56.56	-51.6	-63.1	3.6	8.44e-01	0	36	104	0	60	70312
2026-01-07 18:29:09.73	123.02	56.44	-51.6	-63.1	3.6	8.46e-01	0	36	104	0	60	70641
2026-01-07 18:29:10.74	123.77	56.31	-51.6	-63.1	3.6	8.46e-01	0	36	104	0	60	70095
2026-01-07 18:29:11.75	124.52	56.17	-51.6	-63.1	3.6	8.46e-01	0	36	104	0	60	70307
2026-01-07 18:29:12.76	125.26	56.03	-51.6	-63.1	3.6	8.45e-01	0	36	104	0	60	70604
2026-01-07 18:29:13.77	126.00	55.89	-51.6	-63.1	3.6	8.45e-01	0	36	104	0	60	70243
2026-01-07 18:29:14.78	126.73	55.74	-51.6	-63.1	3.6	8.45e-01	0	36	104	0	60	70159
2026-01-07 18:29:15.79	127.44	55.59	-51.6	-63.2	3.6	8.46e-01	0	36	104	0	60	70894
2026-01-07 18:29:16.80	128.16	55.44	-51.6	-63.1	3.6	8.46e-01	0	36	104	0	60	70332
2026-01-07 18:29:17.82	128.87	55.28	-51.6	-63.1	3.6	8.45e-01	0	36	104	0	60	70630
2026-01-07 18:29:18.83	129.56	55.11	-51.6	-63.1	3.6	8.44e-01	0	36	104	0	60	70438
2026-01-07 18:29:19.84	130.25	54.95	-51.6	-63.1	3.6	8.46e-01	0	36	104	0	60	70202
2026-01-07 18:29:20.85	130.93	54.78	-51.6	-63.1	3.6	8.46e-01	0	36	104	0	60	70448
2026-01-07 18:29:21.86	131.60	54.60	-51.6	-63.2	3.6	8.45e-01	0	36	104	0	60	70988
2026-01-07 18:29:22.87	132.26	54.43	-51.6	-63.1	3.6	8.46e-01	0	36	104	0	60	70203
2026-01-07 18:29:23.88	132.92	54.25	-51.6	-63.1	3.6	8.45e-01	0	36	104	0	60	70413
2026-01-07 18:29:24.89	133.57	54.07	-51.6	-63.1	3.6	8.45e-01	0	36	104	0	60	70637
2026-01-07 18:29:25.90	134.21	53.88	-51.6	-63.1	3.6	8.47e-01	0	36	104	0	60	70289
2026-01-07 18:29:26.91	134.84	53.69	-51.6	-63.1	3.6	8.45e-01	0	36	104	0	60	70452
2026-01-07 18:29:27.93	135.47	53.50	-51.6	-63.1	3.6	8.44e-01	0	36	104	0	60	70529
2026-01-07 18:29:28.94	136.08	53.31	-51.6	-63.1	3.6	8.44e-01	0	36	104	0	60	70809
2026-01-07 18:29:29.95	136.69	53.11	-51.6	-63.1	3.6	8.47e-01	0	36	104	0	60	70347
2026-01-07 18:29:30.96	137.29	52.91	-51.6	-63.1	3.6	8.45e-01	0	36	104	0	60	70474
2026-01-07 18:29:31.97	137.88	52.71	-51.6	-63.1	3.6	8.46e-01	0	36	104	0	60	70247
2026-01-07 18:29:32.98	138.46	52.51	-51.6	-63.1	3.6	8.45e-01	0	36	104	0	60	70446
2026-01-07 18:29:33.99	139.03	52.30	-51.6	-63.1	3.6	8.44e-01	0	36	104	0	60	70275
2026-01-07 18:29:35.00	139.60	52.10	-51.6	-63.1	3.6	8.46e-01	0	36	104	0	60	70751
2026-01-07 18:29:36.02	140.16	51.88	-51.6	-63.1	3.6	8.46e-01	0	36	104	0	60	70602
2026-01-07 18:29:37.03	140.71	51.67	-51.6	-63.1	3.6	8.44e-01	0	36	104	0	60	70637
2026-01-07 18:29:38.04	141.26	51.46	-51.6	-63.1	3.6	8.46e-01	0	36	104	0	60	70387
2026-01-07 18:29:39.05	141.79	51.25	-51.6	-63.1	3.6	8.45e-01	0	36	104	0	60	70442
2026-01-07 18:29:40.06	142.32	51.03	-51.6	-63.1	3.6	8.45e-01	0	36	104	0	60	70600
2026-01-07 18:29:41.07	142.84	50.81	-51.6	-63.1	3.6	8.46e-01	0	36	104	0	60	70667
2026-01-07 18:29:42.08	143.36	50.60	-51.6	-63.2	3.5	8.45e-01	0	36	104	0	60	70918
2026-01-07 18:29:43.09	143.86	50.38	-51.6	-63.1	3.6	8.45e-01	0	36	104	0	60	70588
2026-01-07 18:29:44.10	144.36	50.15	-51.6	-63.1	3.6	8.45e-01	0	36	104	0	60	70451
2026-01-07 18:29:45.11	144.85	49.93	-51.6	-63.1	3.6	8.46e-01	0	36	104	0	60	70731
2026-01-07 18:29:46.12	145.34	49.71	-51.6	-63.1	3.6	8.45e-01	0	36	104	0	60	70787
2026-01-07 18:29:47.14	145.82	49.48	-51.6	-63.1	3.6	8.44e-01	0	36	104	0	60	70324
2026-01-07 18:29:48.15	146.29	49.26	-51.6	-63.1	3.6	8.46e-01	0	36	104	0	60	70560
2026-01-07 18:29:49.16	146.75	49.03	-51.6	-63.1	3.6	8.45e-01	0	36	104	0	60	70406
2026-01-07 18:29:50.17	147.21	48.80	-51.6	-63.1	3.6	8.46e-01	0	36	104	0	60	70702
2026-01-07 18:29:51.18	147.66	48.58	-51.6	-63.1	3.6	8.45e-01	0	36	104	0	60	70355
2026-01-07 18:29:52.19	148.10	48.35	-51.6	-63.1	3.5	8.45e-01	0	36	104	0	60	70228
2026-01-07 18:29:53.20	148.54	48.12	-51.6	-63.1	3.6	8.44e-01	0	36	104	0	60	70478
2026-01-07 18:29:54.21	148.97	47.89	-51.6	-63.1	3.6	8.44e-01	0	36	104	0	60	70443
2026-01-07 18:29:55.22	149.40	47.66	-51.6	-63.1	3.6	8.45e-01	0	36	104	0	60	70424
2026-01-07 18:29:56.24	149.82	47.43	-51.6	-63.1	3.6	8.46e-01	0	36	104	0	60	70393
2026-01-07 18:29:57.25	150.23	47.20	-51.6	-63.0	3.6	8.45e-01	0	36	104	0	60	70025
2026-01-07 18:29:58.26	150.64	46.97	-51.6	-63.1	3.6	8.45e-01	0	36	104	0	60	70522
2026-01-07 18:29:59.27	151.04	46.74	-51.6	-63.1	3.6	8.45e-01	0	36	104	0	60	70268
2026-01-07 18:30:00.28	151.43	46.50	-51.6	-63.1	3.6	8.46e-01	0	36	104	0	60	70261
2026-01-07 18:30:01.29	151.82	46.27	-51.6	-63.1	3.6	8.45e-01	0	36	104	0	60	70483
2026-01-07 18:30:02.30	152.21	46.04	-51.6	-63.1	3.6	8.45e-01	0	36	104	0	60	70433
2026-01-07 18:30:03.31	152.59	45.81	-51.6	-63.1	3.6	8.45e-01	0	36	104	0	60	70659
2026-01-07 18:30:04.32	152.96	45.58	-51.6	-63.1	3.6	8.46e-01	0	36	104	0	60	70340
2026-01-07 18:30:05.33	153.33	45.35	-51.6	-63.1	3.6	8.45e-01	0	36	104	0	60	70341
2026-01-07 18:30:06.34	153.69	45.12	-51.6	-63.1	3.6	8.47e-01	0	36	104	0	60	70524
2026-01-07 18:30:07.35	154.04	44.88	-51.6	-63.1	3.6	8.45e-01	0	36	104	0	60	70609
2026-01-07 18:30:08.37	154.40	44.65	-51.6	-63.1	3.6	8.45e-01	0	36	104	0	60	70438
2026-01-07 18:30:09.38	154.75	44.42	-51.6	-63.1	3.6	8.45e-01	0	36	104	0	60	70654
2026-01-07 18:30:10.39	155.09	44.19	-51.6	-63.1	3.6	8.44e-01	0	36	104	0	60	70691
2026-01-07 18:30:11.40	155.42	43.96	-51.6	-63.1	3.6	8.46e-01	0	36	104	0	60	70496
2026-01-07 18:30:12.41	155.76	43.73	-51.6	-63.1	3.6	8.46e-01	0	36	104	0	60	70438
2026-01-07 18:30:13.42	156.08	43.50	-51.6	-63.1	3.6	8.45e-01	0	36	104	0	60	70252
2026-01-07 18:30:14.43	156.41	43.27	-51.6	-63.1	3.6	8.45e-01	0	36	104	0	60	70378
2026-01-07 18:30:15.44	156.73	43.04	-51.6	-63.1	3.6	8.45e-01	0	36	104	0	60	70346
2026-01-07 18:30:16.45	157.04	42.81	-51.6	-63.1	3.6	8.47e-01	0	36	104	0	60	70594
2026-01-07 18:30:17.46	157.35	42.58	-51.6	-63.1	3.6	8.45e-01	0	36	104	0	60	70256
2026-01-07 18:30:18.47	157.66	42.36	-51.6	-63.1	3.6	8.45e-01	0	36	104	0	60	70638
2026-01-07 18:30:19.49	157.96	42.13	-51.6	-63.1	3.6	8.47e-01	0	36	104	0	60	70601
2026-01-07 18:30:20.50	158.26	41.90	-51.6	-63.1	3.6	8.45e-01	0	36	104	0	60	70491
2026-01-07 18:30:21.51	158.55	41.67	-51.6	-63.1	3.6	8.46e-01	0	36	104	0	60	70424
2026-01-07 18:30:22.52	158.84	41.45	-51.6	-63.1	3.6	8.45e-01	0	36	104	0	60	70373
2026-01-07 18:30:23.53	159.12	41.22	-51.6	-63.1	3.6	8.46e-01	0	36	104	0	60	70621
2026-01-07 18:30:24.54	159.40	41.00	-51.6	-63.1	3.6	8.45e-01	0	36	104	0	60	70078
2026-01-07 18:30:25.55	159.68	40.78	-51.6	-63.1	3.6	8.46e-01	0	36	104	0	60	70399
2026-01-07 18:30:26.56	159.95	40.55	-51.6	-63.1	3.6	8.45e-01	0	36	104	0	60	70448
2026-01-07 18:30:27.57	160.22	40.33	-51.6	-63.1	3.6	8.45e-01	0	36	104	0	60	70638
2026-01-07 18:30:28.58	160.49	40.11	-51.6	-63.1	3.6	8.45e-01	0	36	104	0	60	70442
2026-01-07 18:30:29.59	160.75	39.89	-51.6	-63.1	3.6	8.46e-01	0	36	104	0	60	70336
2026-01-07 18:30:30.61	161.02	39.67	-51.6	-63.1	3.6	8.45e-01	0	36	104	0	60	70296
2026-01-07 18:30:31.62	161.27	39.45	-51.6	-63.0	3.6	8.44e-01	0	36	104	0	60	69993
2026-01-07 18:30:32.63	161.52	39.23	-51.6	-63.1	3.6	8.45e-01	0	36	104	0	60	70606
2026-01-07 18:30:33.64	161.77	39.01	-51.6	-63.1	3.6	8.45e-01	0	36	104	0	60	70160
2026-01-07 18:30:34.65	162.02	38.79	-51.6	-63.1	3.6	8.46e-01	0	36	104	0	60	70331
2026-01-07 18:30:35.66	162.26	38.58	-51.6	-63.0	3.6	8.45e-01	0	36	104	0	60	69971
2026-01-07 18:30:36.67	162.50	38.36	-51.6	-63.1	3.6	8.45e-01	0	36	104	0	60	70523
2026-01-07 18:30:37.68	162.74	38.15	-51.6	-63.1	3.6	8.45e-01	0	36	104	0	60	70378
2026-01-07 18:30:38.69	162.97	37.93	-51.6	-63.1	3.6	8.46e-01	0	36	104	0	60	70655
2026-01-07 18:30:39.71	163.20	37.72	-51.6	-63.1	3.6	8.46e-01	0	36	104	0	60	70610
2026-01-07 18:30:40.72	163.43	37.51	-51.6	-63.1	3.6	8.45e-01	0	36	104	0	60	70871
2026-01-07 18:30:41.73	163.66	37.30	-51.6	-63.1	3.6	8.45e-01	0	36	104	0	60	70194
2026-01-07 18:30:42.74	163.88	37.09	-51.6	-63.1	3.6	8.46e-01	0	36	104	0	60	70582
2026-01-07 18:30:43.75	164.10	36.88	-51.6	-63.1	3.6	8.46e-01	0	36	104	0	60	70407
2026-01-07 18:30:44.76	164.31	36.67	-51.6	-63.1	3.6	8.46e-01	0	36	104	0	60	70610
2026-01-07 18:30:45.77	164.53	36.46	-51.6	-63.1	3.6	8.45e-01	0	36	104	0	60	70613
2026-01-07 18:30:46.78	164.74	36.25	-51.6	-63.1	3.6	8.46e-01	0	36	104	0	60	70348
2026-01-07 18:30:47.79	164.95	36.05	-51.6	-63.1	3.6	8.46e-01	0	36	104	0	60	70381
2026-01-07 18:30:48.80	165.15	35.84	-51.6	-63.1	3.6	8.46e-01	0	36	104	0	60	70363
2026-01-07 18:30:49.81	165.36	35.64	-51.6	-63.1	3.6	8.45e-01	0	36	104	0	60	70450
2026-01-07 18:30:50.83	165.56	35.43	-51.6	-63.1	3.6	8.46e-01	0	36	104	0	60	70283
2026-01-07 18:30:51.84	165.76	35.23	-51.6	-63.1	3.6	8.46e-01	0	36	104	0	60	70781
2026-01-07 18:30:52.85	165.95	35.03	-51.6	-63.1	3.6	8.45e-01	0	36	104	0	60	70125
2026-01-07 18:30:53.86	166.15	34.83	-51.6	-63.1	3.6	8.46e-01	0	36	104	0	60	70574
2026-01-07 18:30:54.87	166.34	34.63	-51.6	-63.1	3.6	8.46e-01	0	36	104	0	60	70456
2026-01-07 18:30:55.88	166.53	34.43	-51.6	-63.1	3.6	8.44e-01	0	36	104	0	60	70445
2026-01-07 18:30:56.89	166.72	34.24	-51.6	-63.1	3.6	8.45e-01	0	36	104	0	60	70585
2026-01-07 18:30:57.90	166.90	34.04	-51.6	-63.1	3.6	8.43e-01	0	36	104	0	60	70782
2026-01-07 18:30:58.91	167.08	33.84	-51.6	-63.1	3.6	8.45e-01	0	36	104	0	60	70235
2026-01-07 18:30:59.93	167.27	33.65	-51.6	-63.1	3.6	8.46e-01	0	36	104	0	60	70581
2026-01-07 18:31:00.94	167.44	33.45	-51.6	-63.1	3.6	8.46e-01	0	36	104	0	60	70477
2026-01-07 18:31:01.95	167.62	33.26	-51.6	-63.1	3.6	8.45e-01	0	36	104	0	60	70551
2026-01-07 18:31:02.96	167.80	33.07	-51.6	-63.1	3.6	8.45e-01	0	36	104	0	60	70535
2026-01-07 18:31:03.97	167.97	32.88	-51.6	-63.1	3.6	8.46e-01	0	36	104	0	60	70798
2026-01-07 18:31:04.98	168.14	32.69	-51.6	-63.1	3.6	8.46e-01	0	36	104	0	60	70395
2026-01-07 18:31:05.99	168.31	32.50	-51.6	-63.1	3.6	8.46e-01	0	36	104	0	60	70612
2026-01-07 18:31:07.00	168.47	32.31	-51.6	-63.1	3.6	8.45e-01	0	36	104	0	60	70344
2026-01-07 18:31:08.01	168.64	32.12	-51.6	-63.1	3.6	8.46e-01	0	36	104	0	60	70690
2026-01-07 18:31:09.02	168.80	31.94	-51.6	-63.1	3.6	8.45e-01	0	36	104	0	60	70485
2026-01-07 18:31:10.03	168.96	31.75	-51.6	-63.1	3.6	8.45e-01	0	36	104	0	60	70358
2026-01-07 18:31:11.04	169.12	31.57	-51.6	-63.1	3.6	8.45e-01	0	36	104	0	60	70824
2026-01-07 18:31:12.05	169.28	31.38	-51.6	-63.0	3.5	8.46e-01	0	36	104	0	60	70002
2026-01-07 18:31:13.06	169.43	31.20	-51.6	-63.1	3.6	8.45e-01	0	36	104	0	60	70525
2026-01-07 18:31:14.08	169.59	31.02	-51.6	-63.1	3.6	8.45e-01	0	36	104	0	60	70296
2026-01-07 18:31:15.09	169.74	30.84	-51.6	-63.1	3.6	8.46e-01	0	36	104	0	60	70341
2026-01-07 18:31:16.10	169.89	30.66	-51.6	-63.1	3.6	8.45e-01	0	36	104	0	60	70490
2026-01-07 18:31:17.11	170.04	30.48	-51.6	-63.1	3.6	8.45e-01	0	36	104	0	60	70519
2026-01-07 18:31:18.12	170.19	30.30	-51.6	-63.1	3.6	8.44e-01	0	36	104	0	60	70613
2026-01-07 18:31:19.13	170.34	30.12	-51.6	-63.1	3.6	8.45e-01	0	36	104	0	60	70251
2026-01-07 18:31:20.14	170.48	29.94	-51.6	-63.1	3.6	8.44e-01	0	36	104	0	60	70522
2026-01-07 18:31:21.15	170.62	29.77	-51.6	-63.1	3.6	8.44e-01	0	36	104	0	60	70572
2026-01-07 18:31:22.16	170.77	29.59	-51.6	-63.1	3.6	8.44e-01	0	36	104	0	60	70522
2026-01-07 18:31:23.17	170.91	29.42	-51.6	-63.1	3.6	8.46e-01	0	36	104	0	60	70617
2026-01-07 18:31:24.18	171.04	29.25	-51.6	-63.1	3.6	8.46e-01	0	36	104	0	60	70698
2026-01-07 18:31:25.20	171.18	29.07	-51.6	-63.1	3.6	8.44e-01	0	36	104	0	60	70466
2026-01-07 18:31:26.21	171.32	28.90	-51.6	-63.1	3.6	8.46e-01	0	36	104	0	60	70661
2026-01-07 18:31:27.22	171.45	28.73	-51.6	-63.1	3.6	8.46e-01	0	36	104	0	60	70380
2026-01-07 18:31:28.23	171.59	28.56	-51.6	-63.1	3.6	8.45e-01	0	36	104	0	60	70779
2026-01-07 18:31:29.24	171.72	28.40	-51.6	-63.1	3.6	8.44e-01	0	36	104	0	60	70425
2026-01-07 18:31:30.25	171.85	28.23	-51.6	-63.1	3.6	8.44e-01	0	36	104	0	60	70644
2026-01-07 18:31:31.26	171.98	28.06	-51.6	-63.1	3.6	8.45e-01	0	36	104	0	60	70212
2026-01-07 18:31:32.27	172.10	27.90	-51.6	-63.1	3.6	8.45e-01	0	36	104	0	60	70253
2026-01-07 18:31:33.28	172.23	27.73	-51.6	-63.1	3.6	8.46e-01	0	36	104	0	60	70306
2026-01-07 18:31:34.30	172.36	27.56	-51.6	-63.1	3.6	8.45e-01	0	36	104	0	60	70434
2026-01-07 18:31:35.31	172.48	27.40	-51.6	-63.1	3.6	8.46e-01	0	36	104	0	60	70390
2026-01-07 18:31:36.32	172.60	27.24	-51.6	-63.1	3.6	8.45e-01	0	36	104	0	60	70378
2026-01-07 18:31:37.33	172.72	27.08	-51.6	-63.1	3.6	8.45e-01	0	36	104	0	60	70350
2026-01-07 18:31:38.34	172.85	26.92	-51.6	-63.1	3.6	8.44e-01	0	36	104	0	60	70367
2026-01-07 18:31:39.35	172.96	26.76	-51.6	-63.1	3.6	8.44e-01	0	36	104	0	60	70433
2026-01-07 18:31:40.36	173.08	26.60	-51.6	-63.1	3.6	8.46e-01	0	36	104	0	60	70402
2026-01-07 18:31:41.37	173.20	26.44	-51.6	-63.1	3.6	8.46e-01	0	36	104	0	60	70237
2026-01-07 18:31:42.39	173.32	26.28	-51.6	-63.1	3.6	8.45e-01	0	36	104	0	60	70351
2026-01-07 18:31:43.40	173.43	26.12	-51.6	-63.1	3.6	8.45e-01	0	36	104	0	60	70494
2026-01-07 18:31:44.41	173.54	25.97	-51.6	-63.1	3.6	8.46e-01	0	36	104	0	60	70723
2026-01-07 18:31:45.42	173.66	25.81	-51.6	-63.1	3.6	8.46e-01	0	36	104	0	60	70572
2026-01-07 18:31:46.43	173.77	25.66	-51.6	-63.1	3.6	8.46e-01	0	36	104	0	60	70758
2026-01-07 18:31:47.44	173.88	25.50	-51.6	-63.1	3.6	8.45e-01	0	36	104	0	60	70338
2026-01-07 18:31:48.45	173.99	25.35	-51.6	-63.0	3.6	8.45e-01	0	36	104	0	60	70047
2026-01-07 18:31:49.46	174.10	25.20	-51.6	-63.1	3.6	8.44e-01	0	36	104	0	60	70766
2026-01-07 18:31:50.47	174.20	25.05	-51.6	-63.1	3.6	8.46e-01	0	36	104	0	60	70301
2026-01-07 18:31:51.48	174.31	24.90	-51.6	-63.1	3.6	8.45e-01	0	36	104	0	60	70484
2026-01-07 18:31:52.49	174.42	24.75	-51.6	-63.1	3.6	8.44e-01	0	36	104	0	60	70375
2026-01-07 18:31:53.51	174.52	24.60	-51.6	-63.1	3.6	8.46e-01	0	36	104	0	60	70246
2026-01-07 18:31:54.52	174.63	24.45	-51.6	-63.1	3.6	8.46e-01	0	36	104	0	60	70633
2026-01-07 18:31:55.53	174.73	24.30	-51.6	-63.1	3.6	8.45e-01	0	36	104	0	60	70503
2026-01-07 18:31:56.54	174.83	24.15	-51.6	-63.1	3.6	8.46e-01	0	36	104	0	60	70581
2026-01-07 18:31:57.55	174.93	24.01	-51.6	-63.1	3.6	8.45e-01	0	36	104	0	60	70467
2026-01-07 18:31:58.56	175.03	23.86	-51.6	-63.1	3.6	8.45e-01	0	36	104	0	60	70208
2026-01-07 18:31:59.57	175.13	23.72	-51.6	-63.1	3.6	8.45e-01	0	36	104	0	60	70412
2026-01-07 18:32:00.58	175.23	23.57	-51.6	-63.1	3.6	8.45e-01	0	36	104	0	60	70714
2026-01-07 18:32:01.59	175.32	23.43	-51.6	-63.1	3.6	8.47e-01	0	36	104	0	60	70337
2026-01-07 18:32:02.60	175.42	23.29	-51.6	-63.1	3.6	8.45e-01	0	36	104	0	60	70572
2026-01-07 18:32:03.62	175.52	23.14	-51.6	-63.1	3.6	8.45e-01	0	36	104	0	60	70741
2026-01-07 18:32:04.63	175.61	23.00	-51.6	-63.1	3.6	8.45e-01	0	36	104	0	60	70762
2026-01-07 18:32:05.64	175.71	22.86	-51.6	-63.2	3.6	8.47e-01	0	36	104	0	60	70925
2026-01-07 18:32:06.65	175.80	22.72	-51.6	-63.1	3.6	8.46e-01	0	36	104	0	60	70422
2026-01-07 18:32:07.66	175.89	22.58	-51.6	-63.1	3.6	8.47e-01	0	36	104	0	60	70528
2026-01-07 18:32:08.67	175.98	22.45	-51.6	-63.1	3.6	8.46e-01	0	36	104	0	60	70315
2026-01-07 18:32:09.68	176.07	22.31	-51.6	-63.1	3.6	8.45e-01	0	36	104	0	60	70534
2026-01-07 18:32:10.69	176.16	22.17	-51.6	-63.1	3.6	8.45e-01	0	36	104	0	60	70309
2026-01-07 18:32:11.70	176.25	22.04	-51.6	-63.1	3.6	8.44e-01	0	36	104	0	60	70298
2026-01-07 18:32:12.71	176.34	21.90	-51.6	-63.1	3.6	8.44e-01	0	36	104	0	60	70482
2026-01-07 18:32:13.73	176.43	21.76	-51.6	-63.1	3.6	8.45e-01	0	36	104	0	60	70477
2026-01-07 18:32:14.74	176.52	21.63	-51.6	-63.1	3.6	8.45e-01	0	36	104	0	60	70629
2026-01-07 18:32:15.75	176.60	21.50	-51.6	-63.1	3.6	8.46e-01	0	36	104	0	60	70201
2026-01-07 18:32:16.76	176.69	21.36	-51.6	-63.2	3.6	8.45e-01	0	36	104	0	60	70929
2026-01-07 18:32:17.77	176.78	21.23	-51.6	-63.1	3.6	8.45e-01	0	36	104	0	60	70569
2026-01-07 18:32:18.78	176.86	21.10	-51.6	-63.2	3.6	8.44e-01	0	36	104	0	60	71023
2026-01-07 18:32:19.79	176.94	20.97	-51.6	-63.1	3.6	8.45e-01	0	36	104	0	60	70301
2026-01-07 18:32:20.80	177.03	20.84	-51.6	-63.0	3.6	8.45e-01	0	36	104	0	60	70067
2026-01-07 18:32:21.81	177.11	20.71	-51.6	-63.1	3.6	8.45e-01	0	36	104	0	60	70192
2026-01-07 18:32:22.83	177.19	20.58	-51.6	-63.1	3.6	8.45e-01	0	36	104	0	60	70359
2026-01-07 18:32:23.84	177.27	20.45	-51.6	-63.1	3.6	8.45e-01	0	36	104	0	60	70278
2026-01-07 18:32:24.85	177.35	20.32	-51.6	-63.1	3.6	8.46e-01	0	36	104	0	60	70130
2026-01-07 18:32:25.86	177.43	20.19	-51.6	-63.1	3.6	8.46e-01	0	36	104	0	60	70625
2026-01-07 18:32:26.87	177.51	20.07	-51.6	-63.1	3.6	8.45e-01	0	36	104	0	60	70137
2026-01-07 18:32:27.88	177.59	19.94	-51.6	-63.1	3.6	8.46e-01	0	36	104	0	60	70323
2026-01-07 18:32:28.89	177.67	19.81	-51.6	-63.1	3.6	8.46e-01	0	36	104	0	60	70615
2026-01-07 18:32:29.90	177.74	19.69	-51.6	-63.1	3.6	8.46e-01	0	36	104	0	60	70250
2026-01-07 18:32:30.92	177.82	19.56	-51.6	-63.1	3.6	8.45e-01	0	36	104	0	60	70502
2026-01-07 18:32:31.93	177.90	19.44	-51.6	-63.1	3.6	8.45e-01	0	36	104	0	60	70653
2026-01-07 18:32:32.94	177.97	19.32	-51.6	-63.1	3.6	8.45e-01	0	36	104	0	60	70574
2026-01-07 18:32:33.95	178.05	19.19	-51.6	-63.1	3.6	8.43e-01	0	36	104	0	60	70570
2026-01-07 18:32:34.96	178.12	19.07	-51.6	-63.1	3.6	8.45e-01	0	36	104	0	60	70625
2026-01-07 18:32:35.97	178.20	18.95	-51.6	-63.1	3.6	8.44e-01	0	36	104	0	60	70523
2026-01-07 18:32:36.98	178.27	18.83	-51.6	-63.1	3.6	8.44e-01	0	36	104	0	60	70825
2026-01-07 18:32:37.99	178.34	18.71	-51.6	-63.1	3.6	8.46e-01	0	36	104	0	60	70193
2026-01-07 18:32:39.00	178.41	18.59	-51.6	-63.1	3.6	8.46e-01	0	36	104	0	60	70421
2026-01-07 18:32:40.01	178.49	18.47	-51.6	-63.1	3.5	8.46e-01	0	36	104	0	60	70825
2026-01-07 18:32:41.02	178.56	18.35	-51.6	-63.1	3.6	8.47e-01	0	36	104	0	60	70709
2026-01-07 18:32:42.03	178.63	18.23	-51.6	-63.1	3.6	8.45e-01	0	36	104	0	60	70685
2026-01-07 18:32:43.04	178.70	18.11	-51.6	-63.1	3.6	8.46e-01	0	36	104	0	60	70093
2026-01-07 18:32:44.06	178.77	17.99	-51.6	-63.1	3.6	8.46e-01	0	36	104	0	60	70628
2026-01-07 18:32:45.07	178.84	17.88	-51.6	-63.1	3.6	8.46e-01	0	36	104	0	60	70571
2026-01-07 18:32:46.08	178.91	17.76	-51.6	-63.0	3.6	8.45e-01	0	36	104	0	60	69997
2026-01-07 18:32:47.09	178.97	17.64	-51.6	-63.1	3.6	8.44e-01	0	36	104	0	60	70496
2026-01-07 18:32:48.10	179.04	17.53	-51.6	-63.1	3.6	8.46e-01	0	36	104	0	60	70491
2026-01-07 18:32:49.11	179.11	17.41	-51.6	-63.1	3.6	8.45e-01	0	36	104	0	60	70409
2026-01-07 18:32:50.12	179.17	17.30	-51.6	-63.1	3.6	8.45e-01	0	36	104	0	60	70297
2026-01-07 18:32:51.13	179.24	17.19	-51.6	-63.1	3.6	8.45e-01	0	36	104	0	60	70442
2026-01-07 18:32:52.14	179.31	17.07	-51.6	-63.1	3.6	8.45e-01	0	36	104	0	60	70441
2026-01-07 18:32:53.15	179.37	16.96	-51.6	-63.1	3.6	8.46e-01	0	36	104	0	60	70672
2026-01-07 18:32:54.16	179.44	16.85	-51.6	-63.1	3.6	8.45e-01	0	36	104	0	60	70648
2026-01-07 18:32:55.18	179.50	16.73	-51.6	-63.1	3.6	8.45e-01	0	36	104	0	60	70284
2026-01-07 18:32:56.19	179.56	16.62	-51.6	-63.1	3.6	8.44e-01	0	36	104	0	60	70611
2026-01-07 18:32:57.20	179.63	16.51	-51.6	-63.1	3.6	8.44e-01	0	36	104	0	60	70195
2026-01-07 18:32:58.21	179.69	16.40	-51.6	-63.1	3.6	8.45e-01	0	36	104	0	60	70299
2026-01-07 18:32:59.22	179.75	16.29	-51.6	-63.1	3.6	8.46e-01	0	36	104	0	60	70389
2026-01-07 18:33:00.23	179.82	16.18	-51.6	-63.1	3.6	8.45e-01	0	36	104	0	60	70833
2026-01-07 18:33:01.24	179.88	16.07	-51.6	-63.1	3.6	8.45e-01	0	36	104	0	60	70459
2026-01-07 18:33:02.25	179.94	15.96	-51.6	-63.1	3.6	8.46e-01	0	36	104	0	60	70282
2026-01-07 18:33:03.26	180.00	15.86	-51.6	-63.1	3.6	8.46e-01	0	36	104	0	60	70613
2026-01-07 18:33:04.27	180.06	15.75	-51.6	-63.1	3.6	8.45e-01	0	36	104	0	60	70537
2026-01-07 18:33:05.29	180.12	15.64	-51.6	-63.1	3.6	8.46e-01	0	36	104	0	60	70574
2026-01-07 18:33:06.30	180.18	15.53	-51.6	-63.1	3.6	8.44e-01	0	36	104	0	60	70079
2026-01-07 18:33:07.31	180.24	15.43	-51.6	-63.0	3.6	8.46e-01	0	36	104	0	60	70012
2026-01-07 18:33:08.32	180.30	15.32	-51.6	-63.1	3.5	8.46e-01	0	36	104	0	60	70263
2026-01-07 18:33:09.33	180.36	15.22	-51.6	-63.1	3.6	8.45e-01	0	36	104	0	60	70845
2026-01-07 18:33:10.34	180.41	15.11	-51.6	-63.0	3.6	8.44e-01	0	36	104	0	60	70036
2026-01-07 18:33:11.35	180.47	15.01	-51.6	-63.1	3.6	8.45e-01	0	36	104	0	60	70426
2026-01-07 18:33:12.36	180.53	14.90	-51.6	-63.1	3.6	8.45e-01	0	36	104	0	60	70468
2026-01-07 18:33:13.37	180.59	14.80	-51.6	-63.1	3.6	8.45e-01	0	36	104	0	60	70313
2026-01-07 18:33:14.38	180.64	14.70	-51.6	-63.1	3.6	8.44e-01	0	36	104	0	60	70488
2026-01-07 18:33:15.39	180.70	14.59	-51.6	-63.1	3.6	8.45e-01	0	36	104	0	60	70157
2026-01-07 18:33:16.40	180.75	14.49	-51.6	-63.1	3.6	8.45e-01	0	36	104	0	60	70286
2026-01-07 18:33:17.41	180.81	14.39	-51.6	-63.1	3.5	8.45e-01	0	36	104	0	60	70524
2026-01-07 18:33:18.42	180.87	14.29	-51.6	-63.1	3.6	8.45e-01	0	36	104	0	60	70401
2026-01-07 18:33:19.43	180.92	14.18	-51.6	-63.1	3.6	8.47e-01	0	36	104	0	60	70227
2026-01-07 18:33:20.44	180.97	14.08	-51.6	-63.1	3.6	8.45e-01	0	36	104	0	60	70409
2026-01-07 18:33:21.45	181.03	13.98	-51.6	-63.1	3.6	8.46e-01	0	36	104	0	60	70268
2026-01-07 18:33:22.47	181.08	13.88	-51.6	-63.1	3.6	8.45e-01	0	36	104	0	60	70375
2026-01-07 18:33:23.48	181.14	13.78	-51.6	-63.1	3.6	8.46e-01	0	36	104	0	60	70110
2026-01-07 18:33:24.49	181.19	13.68	-51.6	-63.1	3.6	8.45e-01	0	36	104	0	60	70748
2026-01-07 18:33:25.50	181.24	13.58	-51.6	-63.1	3.6	8.45e-01	0	36	104	0	60	70390
2026-01-07 18:33:26.51	181.29	13.49	-51.6	-63.1	3.6	8.45e-01	0	36	104	0	60	70511
2026-01-07 18:33:27.52	181.35	13.39	-51.6	-63.1	3.6	8.44e-01	0	36	104	0	60	70497
2026-01-07 18:33:28.53	181.40	13.29	-51.6	-63.1	3.6	8.46e-01	0	36	104	0	60	70412
2026-01-07 18:33:29.54	181.45	13.19	-51.6	-63.1	3.6	8.45e-01	0	36	104	0	60	70330
2026-01-07 18:33:30.55	181.50	13.10	-51.6	-63.1	3.6	8.45e-01	0	36	104	0	60	70600
