passes_logs/2026/01/07/R4.6S_Anadyr_2ch/R4.6S_Anadyr_2ch__20260107_010903_FENGYUN_3D_rec.log

#Pass ID: 20260107_010903_FENGYUN 3D
#Satellite: FENGYUN 3D
#Configuration: FENGYUN 3D
#almurnet v.1.7.20251203
#Start time: 2026-01-07 01:09:05

#Version: 2.2.20231116
#Station: R4.6S_Anadyr_2ch
#Location: 177.4865 lon 64.73178 lat
#TLE: 1 43010U 17072A   25350.96693137  .00000321  00000+0  17364-3 0  9993
#TLE: 2 43010  98.9888 317.3403 0001146 169.6565 190.4634 14.19686173419132

#Time	Az	El	Level	Level2	SNR	BER	BlckErr	Temp	State	Recorded	gain1	gain2
2026-01-07 01:09:05.39	129.40	0.13	-51.5	-66.6	3.5	1.51e+00	0	30	0	0	60	104582
2026-01-07 01:09:06.39	129.37	0.19	-51.4	-63.7	3.6	8.45e-01	0	31	104	0	60	74837
2026-01-07 01:09:07.40	129.34	0.25	-51.4	-63.7	3.6	8.46e-01	0	31	104	0	60	74504
2026-01-07 01:09:08.41	129.32	0.30	-51.4	-63.8	3.6	8.44e-01	0	31	104	0	60	75252
2026-01-07 01:09:09.42	129.29	0.37	-51.4	-63.8	3.6	8.46e-01	0	31	104	0	60	75366
2026-01-07 01:09:10.43	129.26	0.43	-51.5	-63.9	3.6	8.45e-01	0	31	104	0	60	76093
2026-01-07 01:09:11.43	129.24	0.48	-51.5	-63.9	3.6	8.46e-01	0	31	104	0	60	76218
2026-01-07 01:09:12.44	129.21	0.55	-51.5	-63.9	3.6	8.46e-01	0	31	104	0	60	76286
2026-01-07 01:09:13.44	129.19	0.61	-51.5	-63.9	3.6	8.45e-01	0	31	104	0	60	76578
2026-01-07 01:09:14.45	129.16	0.67	-51.5	-63.9	3.5	8.45e-01	0	31	104	0	60	76751
2026-01-07 01:09:15.46	129.13	0.73	-51.6	-64.0	3.6	8.45e-01	0	31	104	0	60	77177
2026-01-07 01:09:16.47	129.10	0.79	-51.6	-64.0	3.6	8.46e-01	0	31	104	0	60	77270
2026-01-07 01:09:17.48	129.08	0.85	-51.6	-64.0	3.5	8.46e-01	0	31	104	0	60	77106
2026-01-07 01:09:18.49	129.05	0.91	-51.5	-63.9	3.6	8.46e-01	0	31	104	0	60	76007
2026-01-07 01:09:19.49	129.02	0.97	-51.5	-63.8	3.6	8.45e-01	0	31	104	0	60	75797
2026-01-07 01:09:20.50	128.99	1.03	-51.4	-63.8	3.6	8.45e-01	0	31	104	0	60	75149
2026-01-07 01:09:21.51	128.97	1.09	-51.4	-63.7	3.6	8.44e-01	0	31	104	0	60	74765
2026-01-07 01:09:22.52	128.94	1.15	-51.0	-63.6	3.6	8.45e-01	0	31	104	0	60	73941
2026-01-07 01:09:23.53	128.91	1.22	-51.1	-63.5	3.6	8.46e-01	0	31	104	0	60	72990
2026-01-07 01:09:24.53	128.88	1.28	-50.9	-63.3	3.6	8.45e-01	0	31	104	0	60	71077
2026-01-07 01:09:25.54	128.85	1.34	-50.6	-62.9	3.6	8.45e-01	0	31	104	0	60	68457
2026-01-07 01:09:26.55	128.83	1.40	-49.9	-62.4	3.6	8.45e-01	0	31	104	0	60	63990
2026-01-07 01:09:27.56	128.80	1.46	-49.9	-62.4	3.6	8.45e-01	0	31	104	0	60	64190
2026-01-07 01:09:28.57	128.77	1.53	-49.9	-62.4	3.6	8.45e-01	0	31	104	0	60	64584
2026-01-07 01:09:29.58	128.74	1.59	-49.9	-62.4	3.6	8.44e-01	0	31	104	0	60	64315
2026-01-07 01:09:30.59	128.71	1.65	-49.9	-62.4	3.6	8.47e-01	0	31	104	0	60	64269
2026-01-07 01:09:31.60	128.68	1.71	-49.9	-62.3	3.6	8.46e-01	0	31	104	0	60	63764
2026-01-07 01:09:32.61	128.65	1.78	-49.9	-62.3	3.6	8.45e-01	0	31	104	0	60	63547
2026-01-07 01:09:33.61	128.62	1.84	-49.9	-62.3	3.6	8.45e-01	0	31	104	0	60	63638
2026-01-07 01:09:34.62	128.59	1.90	-49.9	-62.2	3.6	8.45e-01	0	31	104	0	60	63121
2026-01-07 01:09:35.63	128.56	1.97	-49.9	-62.3	3.6	8.46e-01	0	31	104	0	60	63529
2026-01-07 01:09:36.64	128.53	2.03	-49.9	-62.3	3.6	8.45e-01	0	31	104	0	60	63375
2026-01-07 01:09:37.65	128.50	2.09	-49.9	-62.3	3.6	8.45e-01	0	31	104	0	60	63729
2026-01-07 01:09:38.66	128.47	2.16	-49.9	-62.4	3.6	8.46e-01	0	31	104	0	60	63978
2026-01-07 01:09:39.66	128.44	2.22	-49.9	-62.3	3.6	8.45e-01	0	31	104	0	60	63713
2026-01-07 01:09:40.67	128.41	2.28	-49.9	-62.3	3.6	8.45e-01	0	31	104	0	60	63648
2026-01-07 01:09:41.67	128.38	2.35	-49.9	-62.2	3.6	8.46e-01	0	31	104	0	60	62872
2026-01-07 01:09:42.68	128.35	2.41	-49.9	-62.1	3.6	8.45e-01	0	31	104	0	60	62155
2026-01-07 01:09:43.69	128.32	2.47	-49.9	-62.1	3.6	8.46e-01	0	31	104	0	60	61924
2026-01-07 01:09:44.70	128.29	2.54	-49.9	-62.0	3.6	8.46e-01	0	31	104	0	60	61614
2026-01-07 01:09:45.71	128.26	2.60	-49.9	-62.1	3.6	8.46e-01	0	31	104	0	60	62334
2026-01-07 01:09:46.71	128.23	2.67	-49.9	-62.2	3.6	8.45e-01	0	31	104	0	60	62840
2026-01-07 01:09:47.72	128.20	2.73	-49.9	-62.3	3.6	8.45e-01	0	31	104	0	60	63384
2026-01-07 01:09:48.73	128.17	2.80	-49.9	-62.4	3.6	8.46e-01	0	31	104	0	60	63914
2026-01-07 01:09:49.74	128.13	2.86	-49.9	-62.4	3.6	8.46e-01	0	31	104	0	60	63986
2026-01-07 01:09:50.74	128.10	2.93	-49.9	-62.3	3.6	8.46e-01	0	31	104	0	60	63842
2026-01-07 01:09:51.75	128.07	2.99	-49.9	-62.4	3.6	8.45e-01	0	31	104	0	60	64237
2026-01-07 01:09:52.76	128.04	3.06	-49.9	-62.3	3.6	8.45e-01	0	31	104	0	60	63281
2026-01-07 01:09:53.77	128.01	3.12	-49.9	-62.1	3.6	8.45e-01	0	31	104	0	60	62168
2026-01-07 01:09:54.78	127.97	3.19	-49.9	-61.8	3.6	8.46e-01	0	31	104	0	60	60319
2026-01-07 01:09:55.79	127.94	3.26	-49.8	-61.6	3.6	8.45e-01	0	31	104	0	60	58286
2026-01-07 01:09:56.80	127.91	3.32	-49.8	-61.4	3.6	8.45e-01	0	31	104	0	60	56988
2026-01-07 01:09:57.80	127.88	3.39	-49.8	-61.5	3.6	8.45e-01	0	31	104	0	60	57875
2026-01-07 01:09:58.81	127.84	3.45	-49.9	-62.0	3.6	8.46e-01	0	32	104	0	60	61425
2026-01-07 01:09:59.82	127.81	3.52	-49.9	-62.3	3.6	8.45e-01	0	32	104	0	60	63744
2026-01-07 01:10:00.83	127.78	3.59	-49.8	-61.3	3.6	8.45e-01	0	32	104	0	60	56607
2026-01-07 01:10:01.84	127.74	3.65	-49.5	-58.4	3.8	8.42e-01	0	31	104	0	60	40398
2026-01-07 01:10:02.85	127.71	3.72	-48.8	-54.4	6.5	4.97e-01	0	32	0	0	60	25491
2026-01-07 01:10:03.85	127.68	3.79	-47.7	-51.4	9.4	3.44e-02	0	31	102	1048576	60	18148
2026-01-07 01:10:04.86	127.64	3.86	-46.7	-49.5	11.8	2.88e-03	0	32	102	1048576	60	14484
2026-01-07 01:10:05.87	127.61	3.92	-45.7	-47.9	13.4	4.92e-05	0	31	102	1048576	60	12139
2026-01-07 01:10:06.88	127.57	3.99	-44.9	-46.8	14.5	5.70e-06	0	32	102	1048576	60	10667
2026-01-07 01:10:07.89	127.54	4.06	-44.4	-46.1	15.4	0.00e+00	0	31	102	1048576	60	9888
2026-01-07 01:10:08.89	127.50	4.13	-50.2	-62.1	3.6	3.75e-01	0	32	104	1048576	60	62067
2026-01-07 01:10:09.90	127.47	4.19	-50.2	-62.3	3.6	8.45e-01	0	32	104	1048576	60	63819
2026-01-07 01:10:10.91	127.43	4.26	-47.8	-52.0	7.9	7.96e-01	0	31	104	1048576	60	19466
2026-01-07 01:10:11.92	127.40	4.33	-38.8	-39.6	21.8	0.00e+00	0	32	0	1048576	56	5872
2026-01-07 01:10:12.93	127.36	4.40	-49.9	-61.6	3.6	4.47e-01	0	31	104	1048576	60	58766
2026-01-07 01:10:13.94	127.33	4.47	-41.0	-42.0	6.1	8.14e-01	0	32	104	1048576	60	6158
2026-01-07 01:10:14.94	127.29	4.54	-40.4	-41.4	20.1	0.00e+00	0	32	0	1048576	60	5743
2026-01-07 01:10:15.95	127.25	4.61	-40.8	-41.8	19.8	0.00e+00	0	32	0	1048576	60	6007
2026-01-07 01:10:16.96	127.22	4.68	-40.8	-41.8	19.6	0.00e+00	0	32	0	1048576	60	6028
2026-01-07 01:10:17.97	127.18	4.75	-41.2	-42.3	19.2	0.00e+00	0	32	0	1048576	60	6334
2026-01-07 01:10:18.98	127.15	4.81	-41.4	-42.5	19.2	0.00e+00	0	31	0	1048576	60	6475
2026-01-07 01:10:19.99	127.11	4.88	-40.2	-41.2	20.5	0.00e+00	0	31	0	1048576	60	5602
2026-01-07 01:10:20.99	127.07	4.95	-39.5	-40.4	21.1	0.00e+00	0	32	101	1048576	58	5757
2026-01-07 01:10:22.00	127.03	5.02	-39.4	-40.3	21.3	0.00e+00	0	32	101	1048576	58	5646
2026-01-07 01:10:23.01	127.00	5.09	-39.4	-40.3	21.3	0.00e+00	0	32	101	1048576	58	5679
2026-01-07 01:10:24.01	126.96	5.16	-38.6	-39.4	22.2	0.00e+00	0	31	101	1048576	56	5734
2026-01-07 01:10:25.02	126.92	5.24	-38.3	-39.1	22.4	0.00e+00	0	32	101	1048576	56	5546
2026-01-07 01:10:26.03	126.88	5.31	-38.4	-39.2	22.4	0.00e+00	0	31	101	1048576	56	5579
2026-01-07 01:10:27.04	126.85	5.38	-38.4	-39.2	22.4	0.00e+00	0	32	101	1048576	56	5605
2026-01-07 01:10:28.04	126.81	5.45	-38.4	-39.3	22.4	0.00e+00	0	31	101	1048576	56	5641
2026-01-07 01:10:29.05	126.77	5.52	-38.2	-39.1	22.6	0.00e+00	0	32	101	1048576	56	5503
2026-01-07 01:10:30.06	126.73	5.59	-38.0	-38.8	22.8	0.00e+00	0	32	101	1048576	54	5967
2026-01-07 01:10:31.07	126.69	5.66	-38.0	-38.8	22.8	0.00e+00	0	31	101	1048576	54	5985
2026-01-07 01:10:32.08	126.65	5.73	-38.0	-38.8	22.7	0.00e+00	0	31	101	1048576	54	5979
2026-01-07 01:10:33.08	126.61	5.81	-38.1	-38.9	22.7	0.00e+00	0	32	101	1048576	54	6072
2026-01-07 01:10:34.09	126.57	5.88	-37.9	-38.7	22.9	0.00e+00	0	32	101	1048576	54	5935
2026-01-07 01:10:35.10	126.53	5.95	-38.0	-38.8	22.7	0.00e+00	0	32	101	1048576	54	6004
2026-01-07 01:10:36.10	126.49	6.02	-37.9	-38.7	22.9	0.00e+00	0	31	101	1048576	54	5917
2026-01-07 01:10:37.11	126.45	6.10	-38.1	-38.8	22.8	0.00e+00	0	31	101	1048576	54	6015
2026-01-07 01:10:38.12	126.41	6.17	-37.8	-38.6	22.9	0.00e+00	0	32	101	1048576	54	5860
2026-01-07 01:10:39.13	126.37	6.24	-37.7	-38.5	23.1	0.00e+00	0	32	101	1048576	54	5769
2026-01-07 01:10:40.14	126.33	6.32	-37.7	-38.4	23.1	0.00e+00	0	32	101	1048576	54	5761
2026-01-07 01:10:41.15	126.29	6.39	-37.7	-38.5	23.1	0.00e+00	0	32	101	1048576	54	5765
2026-01-07 01:10:42.16	126.25	6.46	-37.6	-38.3	23.2	0.00e+00	0	32	101	1048576	54	5687
2026-01-07 01:10:43.16	126.21	6.54	-37.7	-38.4	23.2	0.00e+00	0	32	101	1048576	54	5749
2026-01-07 01:10:44.17	126.17	6.61	-37.7	-38.5	23.1	0.00e+00	0	32	101	1048576	54	5784
2026-01-07 01:10:45.18	126.12	6.68	-37.5	-38.2	23.3	0.00e+00	0	32	101	1048576	54	5627
2026-01-07 01:10:46.19	126.08	6.76	-37.5	-38.2	23.3	0.00e+00	0	32	101	1048576	54	5623
2026-01-07 01:10:47.19	126.04	6.83	-37.5	-38.2	23.4	0.00e+00	0	32	101	1048576	54	5606
2026-01-07 01:10:48.20	126.00	6.91	-37.4	-38.2	23.4	0.00e+00	0	32	101	1048576	54	5569
2026-01-07 01:10:49.20	125.95	6.98	-37.5	-38.3	23.3	0.00e+00	0	32	101	1048576	54	5654
2026-01-07 01:10:50.21	125.91	7.06	-37.4	-38.1	23.5	0.00e+00	0	32	101	1048576	54	5543
2026-01-07 01:10:51.22	125.87	7.13	-37.5	-38.2	23.4	0.00e+00	0	32	101	1048576	54	5614
2026-01-07 01:10:52.23	125.82	7.21	-37.5	-38.3	23.4	0.00e+00	0	32	101	1048576	54	5642
2026-01-07 01:10:53.24	125.78	7.29	-37.4	-38.2	23.5	0.00e+00	0	32	101	1048576	54	5579
2026-01-07 01:10:54.25	125.74	7.36	-37.5	-38.2	23.4	0.00e+00	0	32	101	1048576	54	5627
2026-01-07 01:10:55.25	125.69	7.44	-37.5	-38.3	23.5	0.00e+00	0	32	101	1048576	54	5670
2026-01-07 01:10:56.26	125.65	7.52	-37.6	-38.3	23.3	0.00e+00	0	32	101	1048576	54	5668
2026-01-07 01:10:57.27	125.60	7.59	-37.6	-38.3	23.5	0.00e+00	0	32	101	1048576	54	5675
2026-01-07 01:10:58.27	125.56	7.67	-37.2	-38.0	23.6	0.00e+00	0	32	101	1048576	54	5466
2026-01-07 01:10:59.28	125.51	7.75	-37.4	-38.1	23.6	0.00e+00	0	32	101	1048576	54	5545
2026-01-07 01:11:00.29	125.47	7.82	-37.3	-38.0	23.7	0.00e+00	0	32	101	1048576	54	5500
2026-01-07 01:11:01.30	125.42	7.90	-37.4	-38.2	23.6	0.00e+00	0	32	101	1048576	54	5573
2026-01-07 01:11:02.31	125.37	7.98	-37.3	-38.1	23.6	0.00e+00	0	32	101	1048576	54	5509
2026-01-07 01:11:03.31	125.33	8.06	-37.4	-38.2	23.6	0.00e+00	0	32	101	1048576	54	5588
2026-01-07 01:11:04.32	125.28	8.14	-37.3	-38.0	23.7	0.00e+00	0	32	101	1048576	54	5497
2026-01-07 01:11:05.33	125.23	8.21	-37.3	-38.1	23.7	0.00e+00	0	32	101	1048576	54	5512
2026-01-07 01:11:06.34	125.19	8.29	-37.3	-38.1	23.7	0.00e+00	0	32	101	1048576	54	5507
2026-01-07 01:11:07.35	125.14	8.37	-37.3	-38.1	23.7	0.00e+00	0	32	101	1048576	54	5539
2026-01-07 01:11:08.35	125.09	8.45	-37.3	-38.1	23.7	0.00e+00	0	32	101	1048576	54	5522
2026-01-07 01:11:09.36	125.04	8.53	-37.3	-38.1	23.7	0.00e+00	0	32	101	1048576	54	5523
2026-01-07 01:11:10.37	125.00	8.61	-37.4	-38.2	23.6	0.00e+00	0	32	101	1048576	54	5577
2026-01-07 01:11:11.38	124.95	8.69	-37.3	-38.1	23.7	0.00e+00	0	32	101	1048576	54	5528
2026-01-07 01:11:12.38	124.90	8.77	-37.5	-38.2	23.6	0.00e+00	0	32	101	1048576	54	5626
2026-01-07 01:11:13.39	124.85	8.85	-37.2	-38.0	23.8	0.00e+00	0	32	101	1048576	54	5467
2026-01-07 01:11:14.40	124.80	8.93	-37.3	-38.0	23.8	0.00e+00	0	32	101	1048576	54	5488
2026-01-07 01:11:15.41	124.75	9.01	-37.4	-38.2	23.6	0.00e+00	0	32	101	1048576	54	5588
2026-01-07 01:11:16.41	124.70	9.09	-37.2	-38.0	23.8	0.00e+00	0	32	101	1048576	54	5457
2026-01-07 01:11:17.42	124.65	9.17	-37.4	-38.2	23.6	0.00e+00	0	32	101	1048576	54	5582
2026-01-07 01:11:18.42	124.60	9.25	-37.3	-38.0	23.8	0.00e+00	0	32	101	1048576	54	5479
2026-01-07 01:11:19.43	124.55	9.34	-37.1	-37.9	24.0	0.00e+00	0	32	101	1048576	52	6048
2026-01-07 01:11:20.44	124.50	9.42	-37.3	-38.0	23.8	0.00e+00	0	32	101	1048576	52	6124
2026-01-07 01:11:21.45	124.45	9.50	-37.2	-37.9	24.0	0.00e+00	0	32	101	1048576	52	6041
2026-01-07 01:11:22.46	124.39	9.58	-37.1	-37.8	24.0	0.00e+00	0	32	101	1048576	52	6030
2026-01-07 01:11:23.46	124.34	9.67	-37.1	-37.8	24.0	0.00e+00	0	32	101	1048576	52	5999
2026-01-07 01:11:24.47	124.29	9.75	-37.1	-37.8	24.0	0.00e+00	0	32	101	1048576	52	6032
2026-01-07 01:11:25.48	124.24	9.83	-37.1	-37.8	24.1	0.00e+00	0	32	101	1048576	52	6027
2026-01-07 01:11:26.49	124.18	9.92	-37.1	-37.8	24.1	0.00e+00	0	32	101	1048576	52	6017
2026-01-07 01:11:27.50	124.13	10.00	-37.0	-37.7	24.2	0.00e+00	0	32	101	1048576	52	5958
2026-01-07 01:11:28.50	124.08	10.08	-37.1	-37.8	24.1	0.00e+00	0	32	101	1048576	52	6000
2026-01-07 01:11:29.51	124.02	10.17	-37.1	-37.8	24.1	0.00e+00	0	32	101	1048576	52	5999
2026-01-07 01:11:30.51	123.97	10.25	-37.0	-37.8	24.1	0.00e+00	0	32	101	1048576	52	5965
2026-01-07 01:11:31.51	123.91	10.34	-37.0	-37.7	24.1	0.00e+00	0	32	101	1048576	52	5959
2026-01-07 01:11:32.52	123.86	10.42	-37.0	-37.8	24.1	0.00e+00	0	32	101	1048576	52	5986
2026-01-07 01:11:33.52	123.80	10.51	-37.0	-37.8	24.2	0.00e+00	0	32	101	1048576	52	5983
2026-01-07 01:11:34.53	123.75	10.59	-36.9	-37.6	24.3	0.00e+00	0	32	101	1048576	52	5868
2026-01-07 01:11:35.54	123.69	10.68	-37.0	-37.7	24.2	0.00e+00	0	32	101	1048576	52	5923
2026-01-07 01:11:36.55	123.64	10.77	-36.9	-37.5	24.4	0.00e+00	0	32	101	1048576	52	5826
2026-01-07 01:11:37.55	123.58	10.85	-36.8	-37.5	24.3	0.00e+00	0	32	101	1048576	52	5823
2026-01-07 01:11:38.56	123.52	10.94	-36.7	-37.4	24.5	0.00e+00	0	32	101	1048576	52	5726
2026-01-07 01:11:39.57	123.46	11.03	-36.8	-37.5	24.4	0.00e+00	0	32	101	1048576	52	5783
2026-01-07 01:11:40.58	123.41	11.11	-36.7	-37.4	24.6	0.00e+00	0	32	101	1048576	52	5728
2026-01-07 01:11:41.58	123.35	11.20	-36.6	-37.4	24.6	0.00e+00	0	32	101	1048576	52	5699
2026-01-07 01:11:42.59	123.29	11.29	-36.6	-37.3	24.6	0.00e+00	0	32	101	1048576	52	5642
2026-01-07 01:11:43.60	123.23	11.38	-36.6	-37.3	24.7	0.00e+00	0	32	101	1048576	52	5662
2026-01-07 01:11:44.61	123.17	11.47	-36.4	-37.1	24.7	0.00e+00	0	32	101	1048576	52	5536
2026-01-07 01:11:45.61	123.11	11.55	-36.4	-37.1	24.8	0.00e+00	0	32	101	1048576	52	5547
2026-01-07 01:11:46.62	123.05	11.64	-36.4	-37.1	24.8	0.00e+00	0	32	101	1048576	52	5559
2026-01-07 01:11:47.63	122.99	11.73	-36.5	-37.2	24.7	0.00e+00	0	32	101	1048576	52	5619
2026-01-07 01:11:48.63	122.93	11.82	-36.5	-37.2	24.7	0.00e+00	0	32	101	1048576	52	5578
2026-01-07 01:11:49.64	122.87	11.91	-36.6	-37.3	24.6	0.00e+00	0	32	101	1048576	52	5672
2026-01-07 01:11:50.65	122.81	12.00	-36.4	-37.1	24.8	0.00e+00	0	32	101	1048576	52	5517
2026-01-07 01:11:51.66	122.75	12.09	-36.3	-37.0	24.9	0.00e+00	0	32	101	1048576	52	5482
2026-01-07 01:11:52.66	122.68	12.18	-36.4	-37.1	24.8	0.00e+00	0	32	101	1048576	52	5545
2026-01-07 01:11:53.67	122.62	12.27	-36.4	-37.1	24.9	0.00e+00	0	32	101	1048576	52	5507
2026-01-07 01:11:54.68	122.56	12.37	-36.3	-37.0	25.0	0.00e+00	0	32	101	1048576	52	5456
2026-01-07 01:11:55.69	122.49	12.46	-36.4	-37.1	24.9	0.00e+00	0	32	101	1048576	52	5543
2026-01-07 01:11:56.69	122.43	12.55	-36.3	-37.0	24.9	0.00e+00	0	32	101	1048576	52	5484
2026-01-07 01:11:57.70	122.37	12.64	-36.3	-37.0	24.9	0.00e+00	0	32	101	1048576	52	5487
2026-01-07 01:11:58.71	122.30	12.73	-36.3	-37.0	25.0	0.00e+00	0	32	101	1048576	52	5451
2026-01-07 01:11:59.72	122.24	12.83	-36.3	-37.0	24.9	0.00e+00	0	32	101	1048576	52	5452
2026-01-07 01:12:00.73	122.17	12.92	-36.2	-36.9	25.0	0.00e+00	0	32	101	1048576	52	5416
2026-01-07 01:12:01.73	122.10	13.01	-36.3	-37.0	25.0	0.00e+00	0	32	101	1048576	52	5455
2026-01-07 01:12:02.74	122.04	13.11	-36.2	-36.9	25.1	0.00e+00	0	32	101	1048576	52	5423
2026-01-07 01:12:03.75	121.97	13.20	-36.1	-36.8	25.1	0.00e+00	0	32	101	1048576	50	6014
2026-01-07 01:12:04.76	121.90	13.30	-36.1	-36.8	25.1	0.00e+00	0	32	101	1048576	50	6028
2026-01-07 01:12:05.76	121.83	13.39	-36.1	-36.8	25.2	0.00e+00	0	32	101	1048576	50	6009
2026-01-07 01:12:06.77	121.77	13.49	-36.0	-36.6	25.3	0.00e+00	0	32	101	1048576	50	5884
2026-01-07 01:12:07.77	121.70	13.58	-35.9	-36.6	25.3	0.00e+00	0	32	101	1048576	50	5867
2026-01-07 01:12:08.78	121.63	13.68	-36.0	-36.7	25.2	0.00e+00	0	32	101	1048576	50	5928
2026-01-07 01:12:09.79	121.56	13.77	-35.9	-36.6	25.3	0.00e+00	0	32	101	1048576	50	5890
2026-01-07 01:12:10.79	121.49	13.87	-35.9	-36.5	25.3	0.00e+00	0	32	101	1048576	50	5824
2026-01-07 01:12:11.80	121.42	13.97	-35.9	-36.6	25.3	0.00e+00	0	32	101	1048576	50	5873
2026-01-07 01:12:12.80	121.35	14.06	-35.9	-36.6	25.3	0.00e+00	0	32	101	1048576	50	5866
2026-01-07 01:12:13.81	121.27	14.16	-35.8	-36.5	25.4	0.00e+00	0	32	101	1048576	50	5797
2026-01-07 01:12:14.82	121.20	14.26	-35.9	-36.6	25.4	0.00e+00	0	32	101	1048576	50	5866
2026-01-07 01:12:15.83	121.13	14.36	-35.9	-36.6	25.4	0.00e+00	0	32	101	1048576	50	5839
2026-01-07 01:12:16.84	121.06	14.46	-35.9	-36.6	25.3	0.00e+00	0	32	101	1048576	50	5860
2026-01-07 01:12:17.84	120.98	14.56	-35.7	-36.4	25.5	0.00e+00	0	32	101	1048576	50	5716
2026-01-07 01:12:18.85	120.91	14.66	-35.7	-36.4	25.5	0.00e+00	0	32	101	1048576	50	5739
2026-01-07 01:12:19.86	120.83	14.76	-35.8	-36.5	25.5	0.00e+00	0	32	101	1048576	50	5765
2026-01-07 01:12:20.87	120.76	14.86	-35.7	-36.4	25.5	0.00e+00	0	32	101	1048576	50	5708
2026-01-07 01:12:21.88	120.68	14.96	-35.6	-36.3	25.6	0.00e+00	0	32	101	1048576	50	5675
2026-01-07 01:12:22.88	120.61	15.06	-35.5	-36.2	25.7	0.00e+00	0	32	101	1048576	50	5604
2026-01-07 01:12:23.89	120.53	15.16	-35.5	-36.2	25.6	0.00e+00	0	32	101	1048576	50	5580
2026-01-07 01:12:24.90	120.45	15.26	-35.6	-36.3	25.6	0.00e+00	0	32	101	1048576	50	5653
2026-01-07 01:12:25.90	120.37	15.36	-35.5	-36.2	25.7	0.00e+00	0	32	101	1048576	50	5593
2026-01-07 01:12:26.91	120.30	15.46	-35.6	-36.3	25.5	0.00e+00	0	32	101	1048576	50	5670
2026-01-07 01:12:27.92	120.22	15.57	-35.5	-36.1	25.7	0.00e+00	0	32	101	1048576	50	5560
2026-01-07 01:12:28.93	120.14	15.67	-35.5	-36.2	25.6	0.00e+00	0	32	101	1048576	50	5618
2026-01-07 01:12:29.94	120.06	15.77	-35.5	-36.2	25.7	0.00e+00	0	32	101	1048576	50	5585
2026-01-07 01:12:30.94	119.98	15.88	-35.4	-36.1	25.7	0.00e+00	0	32	101	1048576	50	5534
2026-01-07 01:12:31.95	119.89	15.98	-35.4	-36.0	25.8	0.00e+00	0	32	101	1048576	50	5499
2026-01-07 01:12:32.96	119.81	16.08	-35.4	-36.1	25.8	0.00e+00	0	32	101	1048576	50	5523
2026-01-07 01:12:33.97	119.73	16.19	-35.3	-36.0	25.9	0.00e+00	0	32	101	1048576	50	5464
2026-01-07 01:12:34.97	119.65	16.29	-35.3	-35.9	25.8	0.00e+00	0	32	101	1048576	50	5436
2026-01-07 01:12:35.98	119.56	16.40	-35.2	-35.9	26.0	0.00e+00	0	32	101	1048576	48	6037
2026-01-07 01:12:36.98	119.48	16.51	-35.3	-35.9	26.0	0.00e+00	0	32	101	1048576	48	6091
2026-01-07 01:12:37.99	119.39	16.61	-35.0	-35.6	26.2	0.00e+00	0	32	101	1048576	48	5889
2026-01-07 01:12:39.00	119.31	16.72	-35.1	-35.7	26.1	0.00e+00	0	32	101	1048576	48	5964
2026-01-07 01:12:40.00	119.22	16.83	-34.8	-35.4	26.3	0.00e+00	0	32	101	1048576	48	5748
2026-01-07 01:12:41.01	119.13	16.93	-34.9	-35.6	26.3	0.00e+00	0	32	101	1048576	48	5841
2026-01-07 01:12:42.02	119.05	17.04	-34.8	-35.5	26.3	0.00e+00	0	32	101	1048576	48	5787
2026-01-07 01:12:43.02	118.96	17.15	-34.7	-35.4	26.4	0.00e+00	0	32	101	1048576	48	5701
2026-01-07 01:12:44.03	118.87	17.26	-34.7	-35.4	26.4	0.00e+00	0	32	101	1048576	48	5713
2026-01-07 01:12:45.03	118.78	17.37	-34.7	-35.3	26.4	0.00e+00	0	32	101	1048576	48	5682
2026-01-07 01:12:46.04	118.69	17.48	-34.9	-35.5	26.4	0.00e+00	0	32	101	1048576	48	5817
2026-01-07 01:12:47.04	118.60	17.59	-34.7	-35.3	26.5	0.00e+00	0	32	101	1048576	48	5684
2026-01-07 01:12:48.05	118.51	17.70	-34.7	-35.4	26.4	0.00e+00	0	32	101	1048576	48	5723
2026-01-07 01:12:49.06	118.42	17.81	-34.8	-35.5	26.3	0.00e+00	0	32	101	1048576	48	5768
2026-01-07 01:12:50.06	118.32	17.92	-34.7	-35.4	26.4	0.00e+00	0	32	101	1048576	48	5729
2026-01-07 01:12:51.07	118.23	18.03	-34.9	-35.6	26.3	0.00e+00	0	32	101	1048576	48	5844
2026-01-07 01:12:52.08	118.14	18.14	-34.7	-35.4	26.4	0.00e+00	0	32	101	1048576	48	5722
2026-01-07 01:12:53.09	118.04	18.26	-34.8	-35.5	26.4	0.00e+00	0	32	101	1048576	48	5777
2026-01-07 01:12:54.10	117.94	18.37	-34.9	-35.5	26.3	0.00e+00	0	32	101	1048576	48	5800
2026-01-07 01:12:55.10	117.85	18.48	-34.8	-35.4	26.4	0.00e+00	0	32	101	1048576	48	5743
2026-01-07 01:12:56.11	117.75	18.60	-34.8	-35.5	26.3	0.00e+00	0	32	101	1048576	48	5782
2026-01-07 01:12:57.11	117.65	18.71	-34.8	-35.5	26.4	0.00e+00	0	32	101	1048576	48	5776
2026-01-07 01:12:58.12	117.55	18.83	-34.6	-35.2	26.6	0.00e+00	0	32	101	1048576	48	5629
2026-01-07 01:12:59.13	117.46	18.94	-34.6	-35.3	26.6	0.00e+00	0	32	101	1048576	48	5639
2026-01-07 01:13:00.14	117.35	19.06	-34.7	-35.3	26.5	0.00e+00	0	32	101	1048576	48	5662
2026-01-07 01:13:01.14	117.25	19.17	-34.5	-35.1	26.7	0.00e+00	0	32	101	1048576	48	5530
2026-01-07 01:13:02.15	117.15	19.29	-34.3	-34.9	26.8	0.00e+00	0	32	101	1048576	48	5437
2026-01-07 01:13:03.16	117.05	19.41	-34.4	-35.1	26.7	0.00e+00	0	32	101	1048576	48	5512
2026-01-07 01:13:04.17	116.94	19.53	-34.3	-34.9	26.8	0.00e+00	0	32	101	1048576	48	5428
2026-01-07 01:13:05.17	116.84	19.64	-34.3	-35.0	26.8	0.00e+00	0	32	101	1048576	48	5446
2026-01-07 01:13:06.18	116.74	19.76	-34.2	-34.9	26.9	0.00e+00	0	32	101	1048576	48	5378
2026-01-07 01:13:07.18	116.63	19.88	-34.3	-34.9	26.9	0.00e+00	0	32	101	1048576	48	5408
2026-01-07 01:13:08.19	116.52	20.00	-34.2	-34.8	26.9	0.00e+00	0	32	101	1048576	48	5350
2026-01-07 01:13:09.20	116.42	20.12	-34.4	-35.0	26.8	0.00e+00	0	32	101	1048576	48	5488
2026-01-07 01:13:10.22	116.31	20.24	-34.3	-34.9	26.8	0.00e+00	0	32	101	1048576	48	5421
2026-01-07 01:13:11.23	116.20	20.36	-34.3	-34.9	26.9	0.00e+00	0	32	101	1048576	48	5400
2026-01-07 01:13:12.24	116.08	20.48	-34.2	-34.8	27.0	0.00e+00	0	32	101	1048576	46	5980
2026-01-07 01:13:13.25	115.97	20.61	-34.2	-34.8	26.9	0.00e+00	0	32	101	1048576	46	6023
2026-01-07 01:13:14.26	115.86	20.73	-34.2	-34.8	26.9	0.00e+00	0	32	101	1048576	46	6000
2026-01-07 01:13:15.27	115.75	20.85	-34.2	-34.8	27.0	0.00e+00	0	32	101	1048576	46	6015
2026-01-07 01:13:16.28	115.63	20.98	-34.2	-34.8	27.0	0.00e+00	0	32	101	1048576	46	5990
2026-01-07 01:13:17.29	115.52	21.10	-34.1	-34.8	27.0	0.00e+00	0	32	101	1048576	46	5969
2026-01-07 01:13:18.30	115.40	21.22	-33.9	-34.6	27.2	0.00e+00	0	32	101	1048576	46	5830
2026-01-07 01:13:19.31	115.28	21.35	-34.1	-34.7	27.1	0.00e+00	0	32	101	1048576	46	5950
2026-01-07 01:13:20.32	115.17	21.47	-33.9	-34.5	27.2	0.00e+00	0	32	101	1048576	46	5776
2026-01-07 01:13:21.34	115.05	21.60	-33.8	-34.5	27.3	0.00e+00	0	32	101	1048576	46	5768
2026-01-07 01:13:22.35	114.93	21.73	-33.8	-34.4	27.3	0.00e+00	0	32	101	1048576	46	5737
2026-01-07 01:13:23.36	114.80	21.86	-33.7	-34.3	27.4	0.00e+00	0	32	101	1048576	46	5648
2026-01-07 01:13:24.37	114.68	21.98	-33.7	-34.3	27.3	0.00e+00	0	32	101	1048576	46	5663
2026-01-07 01:13:25.38	114.56	22.11	-33.7	-34.3	27.3	0.00e+00	0	32	101	1048576	46	5689
2026-01-07 01:13:26.39	114.43	22.24	-33.8	-34.5	27.3	0.00e+00	0	32	101	1048576	46	5763
2026-01-07 01:13:27.40	114.31	22.37	-33.8	-34.4	27.3	0.00e+00	0	32	101	1048576	46	5744
2026-01-07 01:13:28.41	114.18	22.50	-33.8	-34.4	27.3	0.00e+00	0	32	101	1048576	46	5746
2026-01-07 01:13:29.42	114.06	22.63	-33.8	-34.4	27.3	0.00e+00	0	32	101	1048576	46	5746
2026-01-07 01:13:30.44	113.93	22.76	-33.8	-34.4	27.3	0.00e+00	0	32	101	1048576	46	5722
2026-01-07 01:13:31.45	113.80	22.89	-33.8	-34.4	27.3	0.00e+00	0	32	101	1048576	46	5755
2026-01-07 01:13:32.46	113.67	23.02	-33.8	-34.4	27.2	0.00e+00	0	32	101	1048576	46	5755
2026-01-07 01:13:33.47	113.53	23.15	-33.9	-34.5	27.3	0.00e+00	0	32	101	1048576	46	5816
2026-01-07 01:13:34.48	113.40	23.29	-33.7	-34.3	27.4	0.00e+00	0	32	101	1048576	46	5687
2026-01-07 01:13:35.49	113.27	23.42	-33.9	-34.5	27.1	0.00e+00	0	32	101	1048576	46	5770
2026-01-07 01:13:36.50	113.13	23.55	-33.7	-34.3	27.3	0.00e+00	0	32	101	1048576	46	5691
2026-01-07 01:13:37.51	112.99	23.69	-33.8	-34.5	27.3	0.00e+00	0	32	101	1048576	46	5765
2026-01-07 01:13:38.52	112.86	23.82	-33.5	-34.1	27.5	0.00e+00	0	32	101	1048576	46	5542
2026-01-07 01:13:39.53	112.72	23.96	-33.5	-34.1	27.5	0.00e+00	0	32	101	1048576	46	5536
2026-01-07 01:13:40.54	112.58	24.09	-33.5	-34.1	27.5	0.00e+00	0	32	101	1048576	46	5539
2026-01-07 01:13:41.55	112.44	24.23	-33.5	-34.1	27.5	0.00e+00	0	32	101	1048576	46	5527
2026-01-07 01:13:42.57	112.29	24.37	-33.6	-34.2	27.4	0.00e+00	0	32	101	1048576	46	5600
2026-01-07 01:13:43.58	112.15	24.50	-33.5	-34.1	27.6	0.00e+00	0	32	101	1048576	46	5565
2026-01-07 01:13:44.59	112.00	24.64	-33.4	-34.0	27.6	0.00e+00	0	32	101	1048576	46	5502
2026-01-07 01:13:45.60	111.86	24.78	-33.5	-34.1	27.5	0.00e+00	0	32	101	1048576	46	5542
2026-01-07 01:13:46.61	111.71	24.92	-33.5	-34.2	27.6	0.00e+00	0	32	101	1048576	46	5580
2026-01-07 01:13:47.62	111.56	25.06	-33.7	-34.3	27.3	0.00e+00	0	32	101	1048576	46	5691
2026-01-07 01:13:48.63	111.41	25.20	-33.4	-34.1	27.7	0.00e+00	0	32	101	1048576	46	5527
2026-01-07 01:13:49.64	111.26	25.34	-33.4	-34.0	27.7	0.00e+00	0	32	101	1048576	46	5498
2026-01-07 01:13:50.65	111.10	25.48	-33.3	-33.8	27.8	0.00e+00	0	32	101	1048576	46	5377
2026-01-07 01:13:51.66	110.95	25.62	-33.2	-33.8	27.8	0.00e+00	0	32	101	1048576	46	5360
2026-01-07 01:13:52.68	110.79	25.76	-33.0	-33.7	27.9	0.00e+00	0	32	101	1048576	44	5904
2026-01-07 01:13:53.69	110.63	25.90	-33.0	-33.7	27.8	0.00e+00	0	32	101	1048576	44	5912
2026-01-07 01:13:54.70	110.47	26.05	-33.1	-33.7	27.9	0.00e+00	0	32	101	1048576	44	5915
2026-01-07 01:13:55.71	110.31	26.19	-33.1	-33.7	27.9	0.00e+00	0	32	101	1048576	44	5930
2026-01-07 01:13:56.72	110.15	26.33	-32.9	-33.5	28.0	0.00e+00	0	32	101	1048576	44	5801
2026-01-07 01:13:57.73	109.99	26.48	-32.9	-33.5	28.0	0.00e+00	0	32	101	1048576	44	5794
2026-01-07 01:13:58.74	109.82	26.62	-32.9	-33.5	28.0	0.00e+00	0	32	101	1048576	44	5814
2026-01-07 01:13:59.75	109.66	26.77	-32.9	-33.6	28.0	0.00e+00	0	32	101	1048576	44	5851
2026-01-07 01:14:00.76	109.49	26.91	-32.9	-33.5	28.0	0.00e+00	0	32	101	1048576	44	5807
2026-01-07 01:14:01.77	109.32	27.06	-33.0	-33.6	28.0	0.00e+00	0	32	101	1048576	44	5852
2026-01-07 01:14:02.78	109.15	27.21	-33.1	-33.7	27.8	0.00e+00	0	32	101	1048576	44	5960
2026-01-07 01:14:03.79	108.97	27.35	-33.3	-33.9	27.7	0.00e+00	0	32	101	1048576	44	6088
2026-01-07 01:14:04.80	108.80	27.50	-33.0	-33.6	27.9	0.00e+00	0	32	101	1048576	44	5856
2026-01-07 01:14:05.81	108.62	27.65	-33.0	-33.6	27.9	0.00e+00	0	32	101	1048576	44	5852
2026-01-07 01:14:06.83	108.44	27.80	-32.9	-33.6	28.0	0.00e+00	0	32	101	1048576	44	5849
2026-01-07 01:14:07.84	108.27	27.95	-33.0	-33.6	27.9	0.00e+00	0	32	101	1048576	44	5859
2026-01-07 01:14:08.85	108.08	28.10	-33.0	-33.6	27.9	0.00e+00	0	32	101	1048576	44	5851
2026-01-07 01:14:09.86	107.90	28.25	-33.0	-33.6	27.9	0.00e+00	0	32	101	1048576	44	5889
2026-01-07 01:14:10.87	107.72	28.40	-33.1	-33.8	27.9	0.00e+00	0	32	101	1048576	44	5970
2026-01-07 01:14:11.88	107.53	28.55	-33.0	-33.6	28.0	0.00e+00	0	32	101	1048576	44	5892
2026-01-07 01:14:12.89	107.34	28.70	-33.0	-33.7	27.9	0.00e+00	0	32	101	1048576	44	5914
2026-01-07 01:14:13.90	107.15	28.86	-32.9	-33.6	27.9	0.00e+00	0	32	101	1048576	44	5836
2026-01-07 01:14:14.91	106.96	29.01	-33.1	-33.7	27.9	0.00e+00	0	32	101	1048576	44	5941
2026-01-07 01:14:15.92	106.77	29.16	-33.0	-33.6	27.9	0.00e+00	0	32	101	1048576	44	5843
2026-01-07 01:14:16.93	106.57	29.32	-33.0	-33.7	27.9	0.00e+00	0	32	101	1048576	44	5900
2026-01-07 01:14:17.94	106.37	29.47	-33.0	-33.6	28.0	0.00e+00	0	32	101	1048576	44	5849
2026-01-07 01:14:18.96	106.17	29.63	-33.1	-33.8	27.9	0.00e+00	0	32	101	1048576	44	5973
2026-01-07 01:14:19.97	105.97	29.78	-32.9	-33.5	28.0	0.00e+00	0	32	101	1048576	44	5784
2026-01-07 01:14:20.98	105.77	29.94	-32.7	-33.4	28.2	0.00e+00	0	32	101	1048576	44	5713
2026-01-07 01:14:21.99	105.56	30.09	-32.7	-33.3	28.2	0.00e+00	0	32	101	1048576	44	5681
2026-01-07 01:14:23.00	105.35	30.25	-32.8	-33.4	28.1	0.00e+00	0	32	101	1048576	44	5751
2026-01-07 01:14:24.01	105.15	30.40	-32.8	-33.4	28.1	0.00e+00	0	32	101	1048576	44	5740
2026-01-07 01:14:25.02	104.93	30.56	-32.9	-33.5	28.0	0.00e+00	0	32	101	1048576	44	5792
2026-01-07 01:14:26.03	104.72	30.72	-32.7	-33.3	28.2	0.00e+00	0	32	101	1048576	44	5691
2026-01-07 01:14:27.04	104.50	30.88	-32.8	-33.5	28.0	0.00e+00	0	32	101	1048576	44	5771
2026-01-07 01:14:28.05	104.29	31.04	-32.9	-33.5	28.0	0.00e+00	0	32	101	1048576	44	5827
2026-01-07 01:14:29.06	104.07	31.19	-32.7	-33.3	28.3	0.00e+00	0	32	101	1048576	44	5645
2026-01-07 01:14:30.08	103.84	31.36	-32.9	-33.5	28.1	0.00e+00	0	32	101	1048576	44	5774
2026-01-07 01:14:31.09	103.62	31.51	-32.4	-33.0	28.4	0.00e+00	0	32	101	1048576	44	5487
2026-01-07 01:14:32.10	103.39	31.67	-32.6	-33.1	28.3	0.00e+00	0	32	101	1048576	44	5548
2026-01-07 01:14:33.11	103.16	31.83	-32.5	-33.2	28.3	0.00e+00	0	32	101	1048576	44	5569
2026-01-07 01:14:34.12	102.93	31.99	-32.5	-33.2	28.4	0.00e+00	0	32	101	1048576	44	5581
2026-01-07 01:14:35.13	102.70	32.16	-32.7	-33.3	28.1	0.00e+00	0	32	101	1048576	44	5670
2026-01-07 01:14:36.14	102.46	32.32	-32.6	-33.2	28.3	0.00e+00	0	32	101	1048576	44	5569
2026-01-07 01:14:37.15	102.22	32.48	-32.6	-33.2	28.3	0.00e+00	0	32	101	1048576	44	5612
2026-01-07 01:14:38.16	101.98	32.64	-32.6	-33.2	28.3	0.00e+00	0	32	101	1048576	44	5609
2026-01-07 01:14:39.17	101.74	32.80	-32.6	-33.2	28.3	0.00e+00	0	32	101	1048576	44	5597
2026-01-07 01:14:40.18	101.49	32.96	-32.6	-33.2	28.1	0.00e+00	0	32	101	1048576	44	5623
2026-01-07 01:14:41.20	101.24	33.13	-32.5	-33.1	28.4	0.00e+00	0	32	101	1048576	44	5558
2026-01-07 01:14:42.21	100.99	33.29	-32.6	-33.1	28.3	0.00e+00	0	32	101	1048576	44	5562
2026-01-07 01:14:43.22	100.74	33.45	-32.5	-33.1	28.3	0.00e+00	0	32	101	1048576	44	5528
2026-01-07 01:14:44.23	100.48	33.62	-32.5	-33.2	28.3	0.00e+00	0	32	101	1048576	44	5570
2026-01-07 01:14:45.24	100.23	33.78	-32.5	-33.1	28.3	0.00e+00	0	32	101	1048576	44	5546
2026-01-07 01:14:46.25	99.97	33.94	-32.3	-32.9	28.4	0.00e+00	0	32	101	1048576	44	5437
2026-01-07 01:14:47.26	99.70	34.11	-32.4	-33.0	28.5	0.00e+00	0	32	101	1048576	44	5467
2026-01-07 01:14:48.27	99.44	34.27	-32.3	-32.9	28.5	0.00e+00	0	32	101	1048576	44	5416
2026-01-07 01:14:49.28	99.17	34.44	-32.5	-33.1	28.4	0.00e+00	0	32	101	1048576	44	5527
2026-01-07 01:14:50.29	98.89	34.60	-32.4	-33.0	28.4	0.00e+00	0	32	101	1048576	44	5491
2026-01-07 01:14:51.30	98.62	34.77	-32.6	-33.2	28.3	0.00e+00	0	32	101	1048576	44	5625
2026-01-07 01:14:52.32	98.34	34.93	-32.5	-33.1	28.3	0.00e+00	0	32	101	1048576	44	5546
2026-01-07 01:14:53.33	98.06	35.10	-32.5	-33.1	28.3	0.00e+00	0	32	101	1048576	44	5539
2026-01-07 01:14:54.34	97.78	35.26	-32.5	-33.1	28.4	0.00e+00	0	32	101	1048576	44	5540
2026-01-07 01:14:55.35	97.49	35.43	-32.5	-33.1	28.4	0.00e+00	0	32	101	1048576	44	5561
2026-01-07 01:14:56.36	97.20	35.59	-32.5	-33.1	28.4	0.00e+00	0	32	101	1048576	44	5529
2026-01-07 01:14:57.37	96.91	35.76	-32.3	-32.9	28.5	0.00e+00	0	32	101	1048576	44	5410
2026-01-07 01:14:58.38	96.62	35.92	-32.2	-32.8	28.6	0.00e+00	0	32	101	1048576	44	5344
2026-01-07 01:14:59.39	96.32	36.08	-32.3	-32.9	28.5	0.00e+00	0	32	101	1048576	44	5430
2026-01-07 01:15:00.40	96.02	36.25	-32.3	-32.9	28.5	0.00e+00	0	32	101	1048576	44	5424
2026-01-07 01:15:01.42	95.71	36.42	-32.5	-33.0	28.4	0.00e+00	0	32	101	1048576	44	5494
2026-01-07 01:15:02.43	95.40	36.58	-32.4	-33.1	28.4	0.00e+00	0	32	101	1048576	44	5503
2026-01-07 01:15:03.44	95.09	36.74	-32.3	-32.9	28.5	0.00e+00	0	32	101	1048576	44	5425
2026-01-07 01:15:04.45	94.78	36.91	-32.2	-32.8	28.6	0.00e+00	0	32	101	1048576	44	5352
2026-01-07 01:15:05.46	94.46	37.07	-32.2	-32.8	28.6	0.00e+00	0	32	101	1048576	42	6007
2026-01-07 01:15:06.47	94.14	37.24	-32.3	-32.9	28.6	0.00e+00	0	32	101	1048576	42	6055
2026-01-07 01:15:07.48	93.82	37.40	-32.4	-33.0	28.4	0.00e+00	0	32	101	1048576	42	6141
2026-01-07 01:15:08.49	93.49	37.56	-32.6	-33.2	28.4	0.00e+00	0	32	101	1048576	42	6256
2026-01-07 01:15:09.50	93.16	37.73	-32.3	-32.9	28.5	0.00e+00	0	32	101	1048576	42	6092
2026-01-07 01:15:10.51	92.83	37.89	-32.4	-33.0	28.5	0.00e+00	0	32	101	1048576	42	6114
2026-01-07 01:15:11.52	92.50	38.05	-32.4	-33.0	28.4	0.00e+00	0	32	101	1048576	42	6131
2026-01-07 01:15:12.54	92.15	38.21	-32.4	-33.0	28.4	0.00e+00	0	32	101	1048576	42	6147
2026-01-07 01:15:13.55	91.81	38.38	-32.6	-33.2	28.3	0.00e+00	0	32	101	1048576	42	6259
2026-01-07 01:15:14.56	91.46	38.54	-32.5	-33.1	28.4	0.00e+00	0	32	101	1048576	42	6232
2026-01-07 01:15:15.57	91.11	38.70	-32.5	-33.1	28.4	0.00e+00	0	32	101	1048576	42	6196
2026-01-07 01:15:16.58	90.76	38.86	-32.5	-33.1	28.4	0.00e+00	0	32	101	1048576	42	6218
2026-01-07 01:15:17.59	90.40	39.02	-32.6	-33.2	28.3	0.00e+00	0	32	101	1048576	42	6278
2026-01-07 01:15:18.60	90.04	39.18	-32.5	-33.1	28.3	0.00e+00	0	32	101	1048576	42	6222
2026-01-07 01:15:19.61	89.68	39.34	-32.6	-33.2	28.4	0.00e+00	0	32	101	1048576	42	6261
2026-01-07 01:15:20.62	89.31	39.49	-32.6	-33.2	28.4	0.00e+00	0	32	101	1048576	42	6263
2026-01-07 01:15:21.63	88.94	39.65	-32.6	-33.2	28.4	0.00e+00	0	32	101	1048576	42	6270
2026-01-07 01:15:22.64	88.56	39.81	-32.6	-33.2	28.2	0.00e+00	0	32	101	1048576	42	6247
2026-01-07 01:15:23.65	88.19	39.96	-32.6	-33.2	28.2	0.00e+00	0	32	101	1048576	42	6268
2026-01-07 01:15:24.66	87.80	40.12	-32.7	-33.3	28.2	0.00e+00	0	32	101	1048576	42	6353
2026-01-07 01:15:25.68	87.41	40.28	-32.6	-33.2	28.2	0.00e+00	0	32	101	1048576	42	6301
2026-01-07 01:15:26.69	87.02	40.43	-32.8	-33.4	28.1	0.00e+00	0	32	101	1048576	42	6418
2026-01-07 01:15:27.70	86.63	40.58	-32.6	-33.2	28.2	0.00e+00	0	32	101	1048576	42	6294
2026-01-07 01:15:28.71	86.23	40.73	-32.7	-33.2	28.1	0.00e+00	0	32	101	1048576	42	6312
2026-01-07 01:15:29.72	85.83	40.89	-32.6	-33.2	28.0	0.00e+00	0	32	101	1048576	42	6250
2026-01-07 01:15:30.73	85.43	41.04	-32.5	-33.2	28.2	0.00e+00	0	32	101	1048576	42	6261
2026-01-07 01:15:31.74	85.02	41.18	-32.6	-33.2	28.3	0.00e+00	0	32	101	1048576	42	6274
2026-01-07 01:15:32.75	84.61	41.33	-32.5	-33.1	28.4	0.00e+00	0	32	101	1048576	42	6233
2026-01-07 01:15:33.76	84.19	41.48	-32.4	-33.0	28.5	0.00e+00	0	32	101	1048576	42	6124
2026-01-07 01:15:34.78	83.77	41.63	-32.5	-33.1	28.4	0.00e+00	0	32	101	1048576	42	6210
2026-01-07 01:15:35.79	83.34	41.77	-32.4	-33.0	28.4	0.00e+00	0	32	101	1048576	42	6128
2026-01-07 01:15:36.80	82.92	41.91	-32.5	-33.1	28.4	0.00e+00	0	32	101	1048576	42	6230
2026-01-07 01:15:37.81	82.49	42.06	-32.5	-33.1	28.5	0.00e+00	0	32	101	1048576	42	6211
2026-01-07 01:15:38.82	82.05	42.20	-32.4	-33.0	28.5	0.00e+00	0	32	101	1048576	42	6150
2026-01-07 01:15:39.83	81.61	42.33	-32.3	-32.9	28.6	0.00e+00	0	32	101	1048576	42	6049
2026-01-07 01:15:40.84	81.17	42.47	-32.3	-32.9	28.5	0.00e+00	0	32	101	1048576	42	6056
2026-01-07 01:15:41.85	80.72	42.61	-32.2	-32.8	28.6	0.00e+00	0	32	101	1048576	42	5972
2026-01-07 01:15:42.86	80.27	42.74	-32.2	-32.8	28.6	0.00e+00	0	32	101	1048576	42	6003
2026-01-07 01:15:43.87	79.82	42.88	-32.3	-32.9	28.5	0.00e+00	0	32	101	1048576	42	6091
2026-01-07 01:15:44.88	79.36	43.01	-32.3	-32.9	28.5	0.00e+00	0	32	101	1048576	42	6088
2026-01-07 01:15:45.89	78.90	43.14	-32.2	-32.8	28.7	0.00e+00	0	32	101	1048576	42	5971
2026-01-07 01:15:46.90	78.43	43.27	-31.9	-32.5	28.8	0.00e+00	0	32	101	1048576	42	5786
2026-01-07 01:15:47.92	77.96	43.40	-32.0	-32.6	28.6	0.00e+00	0	32	101	1048576	42	5887
2026-01-07 01:15:48.93	77.49	43.52	-32.4	-33.0	28.6	0.00e+00	0	32	101	1048576	42	6113
2026-01-07 01:15:49.94	77.01	43.64	-32.2	-32.8	28.6	0.00e+00	0	32	101	1048576	42	6030
2026-01-07 01:15:50.95	76.53	43.77	-32.3	-32.9	28.7	0.00e+00	0	32	101	1048576	42	6055
2026-01-07 01:15:51.96	76.05	43.88	-32.4	-33.0	28.4	0.00e+00	0	32	101	1048576	42	6147
2026-01-07 01:15:52.97	75.56	44.00	-32.0	-32.6	28.7	0.00e+00	0	32	101	1048576	42	5847
2026-01-07 01:15:53.98	75.07	44.12	-32.0	-32.6	28.9	0.00e+00	0	32	101	1048576	42	5894
2026-01-07 01:15:54.99	74.58	44.23	-32.1	-32.7	28.7	0.00e+00	0	32	101	1048576	42	5948
2026-01-07 01:15:56.01	74.07	44.34	-32.1	-32.7	28.8	0.00e+00	0	32	101	1048576	42	5917
2026-01-07 01:15:57.01	73.58	44.45	-32.1	-32.7	28.8	0.00e+00	0	32	101	1048576	42	5918
2026-01-07 01:15:58.02	73.07	44.56	-32.2	-32.8	28.7	0.00e+00	0	32	101	1048576	42	6018
2026-01-07 01:15:59.03	72.56	44.66	-32.2	-32.8	28.6	0.00e+00	0	32	101	1048576	42	6027
2026-01-07 01:16:00.05	72.05	44.77	-32.4	-33.1	28.4	0.00e+00	0	32	101	1048576	42	6179
2026-01-07 01:16:01.06	71.53	44.87	-32.5	-33.1	28.4	0.00e+00	0	32	101	1048576	42	6201
2026-01-07 01:16:02.07	71.01	44.97	-32.5	-33.2	28.4	0.00e+00	0	32	101	1048576	42	6259
2026-01-07 01:16:03.08	70.49	45.06	-32.5	-33.1	28.5	0.00e+00	0	32	101	1048576	42	6209
2026-01-07 01:16:04.09	69.97	45.15	-32.2	-32.8	28.5	0.00e+00	0	32	101	1048576	42	5982
2026-01-07 01:16:05.10	69.44	45.24	-32.2	-32.8	28.6	0.00e+00	0	32	101	1048576	42	5965
2026-01-07 01:16:06.11	68.91	45.33	-32.3	-32.9	28.5	0.00e+00	0	32	101	1048576	42	6075
2026-01-07 01:16:07.12	68.38	45.42	-32.5	-33.1	28.4	0.00e+00	0	32	101	1048576	42	6230
2026-01-07 01:16:08.13	67.84	45.50	-32.6	-33.2	28.4	0.00e+00	0	32	101	1048576	42	6311
2026-01-07 01:16:09.14	67.30	45.58	-32.4	-33.0	28.4	0.00e+00	0	32	101	1048576	42	6137
2026-01-07 01:16:10.15	66.76	45.66	-32.4	-33.0	28.6	0.00e+00	0	32	101	1048576	42	6109
2026-01-07 01:16:11.16	66.22	45.73	-32.3	-32.9	28.6	0.00e+00	0	32	101	1048576	42	6082
2026-01-07 01:16:12.17	65.67	45.81	-32.3	-32.9	28.6	0.00e+00	0	32	101	1048576	42	6068
2026-01-07 01:16:13.19	65.11	45.88	-32.5	-33.1	28.5	0.00e+00	0	32	101	1048576	42	6197
2026-01-07 01:16:14.20	64.56	45.94	-32.5	-33.1	28.4	0.00e+00	0	32	101	1048576	42	6222
2026-01-07 01:16:15.21	64.01	46.01	-32.6	-33.2	28.4	0.00e+00	0	32	101	1048576	42	6253
2026-01-07 01:16:16.22	63.45	46.07	-32.6	-33.2	28.4	0.00e+00	0	32	101	1048576	42	6250
2026-01-07 01:16:17.23	62.89	46.13	-32.6	-33.3	28.2	0.00e+00	0	32	101	1048576	42	6324
2026-01-07 01:16:18.24	62.33	46.18	-32.3	-32.9	28.6	0.00e+00	0	32	101	1048576	42	6052
2026-01-07 01:16:19.25	61.77	46.23	-32.4	-33.0	28.6	0.00e+00	0	32	101	1048576	42	6119
2026-01-07 01:16:20.26	61.21	46.28	-32.6	-33.2	28.3	0.00e+00	0	32	101	1048576	42	6301
2026-01-07 01:16:21.27	60.64	46.33	-32.4	-33.0	28.5	0.00e+00	0	32	101	1048576	42	6149
2026-01-07 01:16:22.28	60.08	46.37	-32.2	-32.8	28.6	0.00e+00	0	32	101	1048576	42	6030
2026-01-07 01:16:23.29	59.51	46.41	-32.4	-33.0	28.6	0.00e+00	0	32	101	1048576	42	6128
2026-01-07 01:16:24.30	58.94	46.45	-32.4	-33.0	28.5	0.00e+00	0	32	101	1048576	42	6125
2026-01-07 01:16:25.31	58.37	46.48	-32.1	-32.7	28.6	0.00e+00	0	32	101	1048576	42	5950
2026-01-07 01:16:26.32	57.79	46.51	-32.3	-33.0	28.5	0.00e+00	0	32	101	1048576	42	6105
2026-01-07 01:16:27.33	57.22	46.54	-32.4	-33.0	28.5	0.00e+00	0	32	101	1048576	42	6169
2026-01-07 01:16:28.34	56.64	46.56	-32.4	-33.0	28.5	0.00e+00	0	32	101	1048576	42	6158
2026-01-07 01:16:29.35	56.07	46.58	-32.6	-33.2	28.4	0.00e+00	0	32	101	1048576	42	6272
2026-01-07 01:16:30.36	55.49	46.60	-32.4	-33.0	28.5	0.00e+00	0	32	101	1048576	42	6166
2026-01-07 01:16:31.37	54.92	46.62	-32.3	-32.9	28.6	0.00e+00	0	32	101	1048576	42	6040
2026-01-07 01:16:32.39	54.33	46.63	-32.2	-32.9	28.7	0.00e+00	0	32	101	1048576	42	6041
2026-01-07 01:16:33.40	53.76	46.64	-32.3	-33.0	28.5	0.00e+00	0	32	101	1048576	42	6106
2026-01-07 01:16:34.41	53.18	46.64	-32.4	-33.0	28.5	0.00e+00	0	32	101	1048576	42	6172
2026-01-07 01:16:35.42	52.60	46.64	-32.2	-32.8	28.7	0.00e+00	0	32	101	1048576	42	5975
2026-01-07 01:16:36.43	52.02	46.64	-32.3	-32.9	28.5	0.00e+00	0	32	101	1048576	42	6037
2026-01-07 01:16:37.44	51.44	46.64	-32.3	-32.9	28.5	0.00e+00	0	32	101	1048576	42	6080
2026-01-07 01:16:38.45	50.87	46.63	-32.3	-32.9	28.6	0.00e+00	0	32	101	1048576	42	6092
2026-01-07 01:16:39.46	50.29	46.62	-32.2	-32.7	28.5	0.00e+00	0	32	101	1048576	42	5943
2026-01-07 01:16:40.47	49.71	46.61	-32.2	-32.8	28.6	0.00e+00	0	32	101	1048576	42	5989
2026-01-07 01:16:41.48	49.14	46.59	-32.2	-32.8	28.6	0.00e+00	0	32	101	1048576	42	5978
2026-01-07 01:16:42.49	48.56	46.57	-32.3	-32.8	28.6	0.00e+00	0	32	101	1048576	42	6017
2026-01-07 01:16:43.50	47.99	46.55	-32.4	-32.9	28.4	0.00e+00	0	32	101	1048576	42	6102
2026-01-07 01:16:44.52	47.41	46.52	-32.4	-33.0	28.5	0.00e+00	0	32	101	1048576	42	6135
2026-01-07 01:16:45.53	46.83	46.49	-32.3	-32.9	28.6	0.00e+00	0	32	101	1048576	42	6036
2026-01-07 01:16:46.54	46.26	46.46	-32.2	-32.8	28.5	0.00e+00	0	32	101	1048576	42	5996
2026-01-07 01:16:47.55	45.69	46.42	-32.4	-33.1	28.2	0.00e+00	0	32	101	1048576	42	6179
2026-01-07 01:16:48.56	45.12	46.38	-32.4	-33.0	28.3	0.00e+00	0	32	101	1048576	42	6154
2026-01-07 01:16:49.57	44.56	46.34	-32.4	-33.0	28.2	0.00e+00	0	32	101	1048576	42	6139
2026-01-07 01:16:50.58	43.99	46.29	-32.6	-33.2	28.1	0.00e+00	0	32	101	1048576	42	6289
2026-01-07 01:16:51.59	43.43	46.24	-32.5	-33.1	28.4	0.00e+00	0	32	101	1048576	42	6232
2026-01-07 01:16:52.60	42.87	46.19	-32.3	-32.9	28.4	0.00e+00	0	32	101	1048576	42	6090
2026-01-07 01:16:53.61	42.31	46.14	-32.3	-33.0	28.5	0.00e+00	0	32	101	1048576	42	6104
2026-01-07 01:16:54.62	41.75	46.08	-32.5	-33.1	28.4	0.00e+00	0	32	101	1048576	42	6209
2026-01-07 01:16:55.63	41.19	46.02	-32.2	-32.8	28.5	0.00e+00	0	32	101	1048576	42	5980
2026-01-07 01:16:56.64	40.64	45.96	-32.3	-33.0	28.6	0.00e+00	0	32	101	1048576	42	6116
2026-01-07 01:16:57.66	40.08	45.89	-32.4	-33.0	28.4	0.00e+00	0	32	101	1048576	42	6164
2026-01-07 01:16:58.67	39.53	45.82	-32.3	-32.9	28.6	0.00e+00	0	32	101	1048576	42	6064
2026-01-07 01:16:59.68	38.98	45.75	-32.2	-32.8	28.6	0.00e+00	0	32	101	1048576	42	6019
2026-01-07 01:17:00.68	38.44	45.68	-32.5	-33.1	28.4	0.00e+00	0	32	101	1048576	42	6197
2026-01-07 01:17:01.69	37.90	45.60	-32.4	-33.0	28.5	0.00e+00	0	32	101	1048576	42	6166
2026-01-07 01:17:02.70	37.36	45.52	-32.4	-33.0	28.5	0.00e+00	0	32	101	1048576	42	6165
2026-01-07 01:17:03.71	36.83	45.44	-32.2	-32.8	28.7	0.00e+00	0	32	101	1048576	42	6012
2026-01-07 01:17:04.72	36.29	45.35	-31.9	-32.4	28.9	0.00e+00	0	32	101	1048576	42	5744
2026-01-07 01:17:05.72	35.77	45.27	-32.1	-32.7	28.7	0.00e+00	0	32	101	1048576	42	5906
2026-01-07 01:17:06.73	35.24	45.18	-32.0	-32.7	28.8	0.00e+00	0	32	101	1048576	42	5906
2026-01-07 01:17:07.74	34.72	45.09	-32.1	-32.7	28.7	0.00e+00	0	32	101	1048576	42	5926
2026-01-07 01:17:08.75	34.20	44.99	-32.1	-32.7	28.7	0.00e+00	0	32	101	1048576	42	5940
2026-01-07 01:17:09.75	33.68	44.89	-32.2	-32.7	28.7	0.00e+00	0	32	101	1048576	42	5957
2026-01-07 01:17:10.76	33.17	44.80	-32.1	-32.7	28.6	0.00e+00	0	32	101	1048576	42	5954
2026-01-07 01:17:11.77	32.66	44.69	-32.4	-33.0	28.5	0.00e+00	0	32	101	1048576	42	6147
2026-01-07 01:17:12.77	32.15	44.59	-32.3	-32.9	28.5	0.00e+00	0	32	101	1048576	42	6083
2026-01-07 01:17:13.78	31.65	44.48	-32.2	-32.8	28.7	0.00e+00	0	32	101	1048576	42	5971
2026-01-07 01:17:14.79	31.15	44.38	-32.2	-32.8	28.6	0.00e+00	0	32	101	1048576	42	6014
2026-01-07 01:17:15.80	30.65	44.27	-32.2	-32.8	28.6	0.00e+00	0	32	101	1048576	42	5973
2026-01-07 01:17:16.81	30.15	44.15	-32.2	-32.7	28.6	0.00e+00	0	32	101	1048576	42	5939
2026-01-07 01:17:17.81	29.67	44.04	-32.0	-32.6	28.7	0.00e+00	0	32	101	1048576	42	5850
2026-01-07 01:17:18.82	29.18	43.92	-32.0	-32.5	28.8	0.00e+00	0	32	101	1048576	42	5785
2026-01-07 01:17:19.82	28.70	43.80	-32.0	-32.5	28.7	0.00e+00	0	32	101	1048576	42	5807
2026-01-07 01:17:20.84	28.21	43.68	-31.9	-32.5	28.8	0.00e+00	0	32	101	1048576	42	5793
2026-01-07 01:17:21.85	27.74	43.56	-32.0	-32.6	28.7	0.00e+00	0	32	101	1048576	42	5888
2026-01-07 01:17:22.85	27.27	43.44	-31.9	-32.6	28.9	0.00e+00	0	32	101	1048576	42	5844
2026-01-07 01:17:23.86	26.80	43.31	-31.8	-32.3	28.8	0.00e+00	0	32	101	1048576	42	5695
2026-01-07 01:17:24.86	26.34	43.19	-31.8	-32.3	28.9	0.00e+00	0	32	101	1048576	42	5667
2026-01-07 01:17:25.87	25.88	43.06	-31.8	-32.4	28.8	0.00e+00	0	32	101	1048576	42	5754
2026-01-07 01:17:26.88	25.42	42.92	-31.8	-32.4	28.8	0.00e+00	0	32	101	1048576	42	5754
2026-01-07 01:17:27.88	24.97	42.79	-32.1	-32.8	28.7	0.00e+00	0	32	101	1048576	42	5978
2026-01-07 01:17:28.89	24.52	42.66	-32.3	-32.8	28.6	0.00e+00	0	32	101	1048576	42	6008
2026-01-07 01:17:29.90	24.07	42.52	-31.9	-32.5	28.8	0.00e+00	0	32	101	1048576	42	5773
2026-01-07 01:17:30.90	23.63	42.39	-32.0	-32.6	28.7	0.00e+00	0	32	101	1048576	42	5883
2026-01-07 01:17:31.91	23.19	42.25	-32.0	-32.6	28.7	0.00e+00	0	32	101	1048576	42	5858
2026-01-07 01:17:32.91	22.76	42.11	-32.0	-32.5	28.8	0.00e+00	0	32	101	1048576	42	5804
2026-01-07 01:17:33.92	22.33	41.97	-32.0	-32.5	28.8	0.00e+00	0	32	101	1048576	42	5825
2026-01-07 01:17:34.93	21.90	41.83	-31.7	-32.2	29.0	0.00e+00	0	32	101	1048576	42	5629
2026-01-07 01:17:35.93	21.48	41.69	-31.6	-32.2	29.0	0.00e+00	0	32	101	1048576	42	5574
2026-01-07 01:17:36.94	21.06	41.54	-31.6	-32.1	29.0	0.00e+00	0	32	101	1048576	42	5557
2026-01-07 01:17:37.94	20.65	41.40	-31.7	-32.3	28.9	0.00e+00	0	32	101	1048576	42	5690
2026-01-07 01:17:38.95	20.24	41.25	-31.7	-32.3	29.0	0.00e+00	0	32	101	1048576	42	5632
2026-01-07 01:17:39.96	19.83	41.10	-31.7	-32.3	29.0	0.00e+00	0	32	101	1048576	42	5632
2026-01-07 01:17:40.97	19.42	40.95	-31.7	-32.3	29.0	0.00e+00	0	32	101	1048576	42	5681
2026-01-07 01:17:41.98	19.02	40.80	-31.9	-32.5	28.9	0.00e+00	0	32	101	1048576	42	5794
2026-01-07 01:17:42.98	18.63	40.65	-32.0	-32.7	28.8	0.00e+00	0	32	101	1048576	42	5913
2026-01-07 01:17:43.99	18.24	40.50	-31.9	-32.4	28.9	0.00e+00	0	32	101	1048576	42	5734
2026-01-07 01:17:45.00	17.84	40.35	-31.8	-32.4	28.8	0.00e+00	0	32	101	1048576	42	5733
2026-01-07 01:17:46.00	17.46	40.20	-31.8	-32.3	28.9	0.00e+00	0	32	101	1048576	42	5654
2026-01-07 01:17:47.01	17.08	40.04	-31.9	-32.5	28.8	0.00e+00	0	32	101	1048576	42	5810
2026-01-07 01:17:48.02	16.70	39.89	-31.8	-32.4	28.8	0.00e+00	0	32	101	1048576	42	5732
2026-01-07 01:17:49.03	16.32	39.73	-31.8	-32.4	28.9	0.00e+00	0	32	101	1048576	42	5722
2026-01-07 01:17:50.04	15.95	39.57	-31.9	-32.6	29.0	0.00e+00	0	32	101	1048576	42	5832
2026-01-07 01:17:51.04	15.59	39.42	-32.1	-32.6	28.7	0.00e+00	0	32	101	1048576	42	5892
2026-01-07 01:17:52.05	15.22	39.26	-32.2	-32.7	28.6	0.00e+00	0	32	101	1048576	42	5936
2026-01-07 01:17:53.06	14.86	39.10	-32.2	-32.9	28.7	0.00e+00	0	32	101	1048576	42	6051
2026-01-07 01:17:54.06	14.51	38.94	-32.3	-33.0	28.6	0.00e+00	0	32	101	1048576	42	6136
2026-01-07 01:17:55.07	14.15	38.78	-32.3	-32.9	28.5	0.00e+00	0	32	101	1048576	42	6100
2026-01-07 01:17:56.08	13.80	38.62	-32.2	-32.8	28.7	0.00e+00	0	32	101	1048576	42	6030
2026-01-07 01:17:57.09	13.46	38.46	-32.0	-32.5	28.7	0.00e+00	0	32	101	1048576	42	5801
2026-01-07 01:17:58.10	13.11	38.30	-32.0	-32.6	28.8	0.00e+00	0	32	101	1048576	42	5831
2026-01-07 01:17:59.10	12.78	38.14	-32.0	-32.6	28.7	0.00e+00	0	32	101	1048576	42	5835
2026-01-07 01:18:00.11	12.44	37.98	-31.9	-32.5	28.7	0.00e+00	0	32	101	1048576	42	5806
2026-01-07 01:18:01.12	12.10	37.82	-32.0	-32.6	28.7	0.00e+00	0	32	101	1048576	42	5879
2026-01-07 01:18:02.13	11.77	37.66	-31.9	-32.4	28.8	0.00e+00	0	32	101	1048576	42	5755
2026-01-07 01:18:03.14	11.45	37.49	-31.9	-32.4	28.8	0.00e+00	0	32	101	1048576	42	5755
2026-01-07 01:18:04.15	11.12	37.33	-31.9	-32.5	28.7	0.00e+00	0	32	101	1048576	42	5771
2026-01-07 01:18:05.15	10.81	37.17	-32.0	-32.7	28.7	0.00e+00	0	32	101	1048576	42	5910
2026-01-07 01:18:06.16	10.49	37.01	-31.9	-32.4	28.8	0.00e+00	0	32	101	1048576	42	5706
2026-01-07 01:18:07.17	10.18	36.84	-31.8	-32.5	28.8	0.00e+00	0	32	101	1048576	42	5801
2026-01-07 01:18:08.18	9.86	36.68	-31.9	-32.6	28.7	0.00e+00	0	32	101	1048576	42	5853
2026-01-07 01:18:09.18	9.56	36.52	-31.8	-32.3	28.9	0.00e+00	0	32	101	1048576	42	5647
2026-01-07 01:18:10.19	9.25	36.35	-31.7	-32.3	28.8	0.00e+00	0	32	101	1048576	42	5686
2026-01-07 01:18:11.20	8.95	36.19	-31.7	-32.3	28.8	0.00e+00	0	32	101	1048576	42	5663
2026-01-07 01:18:12.21	8.65	36.02	-31.7	-32.2	28.8	0.00e+00	0	32	101	1048576	42	5588
2026-01-07 01:18:13.21	8.36	35.86	-31.9	-32.6	28.7	0.00e+00	0	32	101	1048576	42	5832
2026-01-07 01:18:14.22	8.07	35.70	-31.7	-32.3	28.8	0.00e+00	0	32	101	1048576	42	5640
2026-01-07 01:18:15.23	7.78	35.53	-31.8	-32.3	28.7	0.00e+00	0	32	101	1048576	42	5655
2026-01-07 01:18:16.23	7.50	35.37	-31.6	-32.1	28.8	0.00e+00	0	32	101	1048576	42	5553
2026-01-07 01:18:17.24	7.21	35.21	-31.7	-32.2	28.6	0.00e+00	0	32	101	1048576	42	5626
2026-01-07 01:18:18.25	6.93	35.04	-31.8	-32.3	28.4	0.00e+00	0	32	101	1048576	42	5665
2026-01-07 01:18:19.25	6.66	34.88	-31.6	-32.2	28.9	0.00e+00	0	32	101	1048576	42	5598
2026-01-07 01:18:20.26	6.38	34.72	-31.7	-32.3	28.7	0.00e+00	0	32	101	1048576	42	5647
2026-01-07 01:18:21.27	6.11	34.55	-31.8	-32.3	28.6	0.00e+00	0	32	101	1048576	42	5689
2026-01-07 01:18:22.28	5.84	34.39	-31.9	-32.4	28.7	0.00e+00	0	32	101	1048576	42	5728
2026-01-07 01:18:23.28	5.58	34.23	-31.9	-32.4	28.7	0.00e+00	0	32	101	1048576	42	5750
2026-01-07 01:18:24.30	5.31	34.06	-31.8	-32.5	28.9	0.00e+00	0	32	101	1048576	42	5775
2026-01-07 01:18:25.30	5.05	33.90	-31.9	-32.6	28.8	0.00e+00	0	32	101	1048576	42	5831
2026-01-07 01:18:26.31	4.79	33.74	-31.9	-32.4	28.8	0.00e+00	0	32	101	1048576	42	5736
2026-01-07 01:18:27.31	4.54	33.57	-32.0	-32.6	28.8	0.00e+00	0	32	101	1048576	42	5883
2026-01-07 01:18:28.32	4.28	33.41	-32.0	-32.7	28.7	0.00e+00	0	32	101	1048576	42	5911
2026-01-07 01:18:29.33	4.03	33.25	-32.1	-32.7	28.8	0.00e+00	0	32	101	1048576	42	5960
2026-01-07 01:18:30.34	3.78	33.09	-32.0	-32.5	28.6	0.00e+00	0	32	101	1048576	42	5811
2026-01-07 01:18:31.35	3.54	32.93	-32.0	-32.5	28.7	0.00e+00	0	32	101	1048576	42	5820
2026-01-07 01:18:32.35	3.30	32.77	-31.8	-32.3	28.8	0.00e+00	0	32	101	1048576	42	5658
2026-01-07 01:18:33.36	3.05	32.60	-31.9	-32.5	28.8	0.00e+00	0	32	101	1048576	42	5775
2026-01-07 01:18:34.37	2.81	32.44	-31.9	-32.4	28.8	0.00e+00	0	32	101	1048576	42	5720
2026-01-07 01:18:35.38	2.58	32.28	-31.9	-32.5	28.7	0.00e+00	0	32	101	1048576	42	5768
2026-01-07 01:18:36.38	2.35	32.12	-31.7	-32.2	28.7	0.00e+00	0	32	101	1048576	42	5623
2026-01-07 01:18:37.39	2.11	31.96	-31.8	-32.3	28.9	0.00e+00	0	32	101	1048576	42	5676
2026-01-07 01:18:38.40	1.89	31.80	-32.1	-32.8	28.6	0.00e+00	0	32	101	1048576	42	5994
2026-01-07 01:18:39.41	1.66	31.64	-31.9	-32.4	28.8	0.00e+00	0	32	101	1048576	42	5715
2026-01-07 01:18:40.42	1.43	31.49	-32.0	-32.6	28.7	0.00e+00	0	32	101	1048576	42	5892
2026-01-07 01:18:41.43	1.21	31.33	-31.9	-32.5	28.8	0.00e+00	0	32	101	1048576	42	5797
2026-01-07 01:18:42.44	0.99	31.17	-32.0	-32.6	28.7	0.00e+00	0	32	101	1048576	42	5840
2026-01-07 01:18:43.44	0.77	31.01	-31.9	-32.6	28.7	0.00e+00	0	32	101	1048576	42	5875
2026-01-07 01:18:44.44	0.56	30.86	-31.9	-32.4	28.7	0.00e+00	0	32	101	1048576	42	5731
2026-01-07 01:18:45.45	0.35	30.70	-31.8	-32.4	28.8	0.00e+00	0	32	101	1048576	42	5758
2026-01-07 01:18:46.46	0.13	30.54	-31.9	-32.4	28.8	0.00e+00	0	32	101	1048576	42	5723
2026-01-07 01:18:47.47	359.92	30.39	-31.9	-32.5	28.8	0.00e+00	0	32	101	1048576	42	5770
2026-01-07 01:18:48.48	359.72	30.23	-32.0	-32.5	28.7	0.00e+00	0	32	101	1048576	42	5774
2026-01-07 01:18:49.48	359.51	30.08	-32.0	-32.5	28.7	0.00e+00	0	32	101	1048576	42	5822
2026-01-07 01:18:50.49	359.31	29.92	-31.9	-32.6	28.8	0.00e+00	0	32	101	1048576	42	5863
2026-01-07 01:18:51.50	359.11	29.77	-31.9	-32.6	28.8	0.00e+00	0	32	101	1048576	42	5848
2026-01-07 01:18:52.51	358.91	29.61	-31.9	-32.6	28.8	0.00e+00	0	32	101	1048576	42	5831
2026-01-07 01:18:53.51	358.71	29.46	-32.0	-32.7	28.7	0.00e+00	0	32	101	1048576	42	5914
2026-01-07 01:18:54.52	358.51	29.31	-32.1	-32.8	28.6	0.00e+00	0	32	101	1048576	42	6000
2026-01-07 01:18:55.53	358.32	29.15	-32.3	-33.0	28.5	0.00e+00	0	32	101	1048576	42	6135
2026-01-07 01:18:56.54	358.13	29.00	-32.5	-33.0	28.4	0.00e+00	0	32	101	1048576	42	6140
2026-01-07 01:18:57.55	357.94	28.85	-32.6	-33.1	28.3	0.00e+00	0	32	101	1048576	42	6226
2026-01-07 01:18:58.55	357.75	28.70	-32.6	-33.3	28.3	0.00e+00	0	32	101	1048576	42	6327
2026-01-07 01:18:59.56	357.56	28.55	-32.5	-33.2	28.3	0.00e+00	0	32	101	1048576	42	6280
2026-01-07 01:19:00.57	357.38	28.40	-32.5	-33.1	28.4	0.00e+00	0	32	101	1048576	42	6234
2026-01-07 01:19:01.58	357.19	28.25	-32.4	-33.1	28.4	0.00e+00	0	32	101	1048576	42	6175
2026-01-07 01:19:02.59	357.01	28.10	-32.4	-33.1	28.4	0.00e+00	0	32	101	1048576	42	6203
2026-01-07 01:19:03.59	356.83	27.95	-32.5	-33.2	28.4	0.00e+00	0	32	101	1048576	42	6268
2026-01-07 01:19:04.60	356.66	27.80	-32.5	-33.2	28.4	0.00e+00	0	32	101	1048576	42	6255
2026-01-07 01:19:05.61	356.48	27.65	-32.6	-33.3	28.3	0.00e+00	0	32	101	1048576	42	6347
2026-01-07 01:19:06.62	356.30	27.50	-32.3	-33.0	28.3	0.00e+00	0	32	101	1048576	42	6150
2026-01-07 01:19:07.63	356.13	27.36	-32.3	-33.0	28.4	0.00e+00	0	32	101	1048576	42	6113
2026-01-07 01:19:08.63	355.96	27.21	-32.3	-32.8	28.3	0.00e+00	0	32	101	1048576	42	6033
2026-01-07 01:19:09.64	355.79	27.07	-32.2	-32.7	28.5	0.00e+00	0	32	101	1048576	42	5963
2026-01-07 01:19:10.65	355.62	26.92	-32.3	-32.8	28.5	0.00e+00	0	32	101	1048576	42	6011
2026-01-07 01:19:11.66	355.46	26.77	-32.4	-32.9	28.3	0.00e+00	0	32	101	1048576	42	6055
2026-01-07 01:19:12.66	355.29	26.63	-32.4	-33.0	28.3	0.00e+00	0	32	101	1048576	42	6113
2026-01-07 01:19:13.67	355.13	26.49	-32.6	-33.1	28.2	0.00e+00	0	32	101	1048576	42	6202
2026-01-07 01:19:14.68	354.97	26.34	-32.6	-33.1	28.2	0.00e+00	0	32	101	1048576	42	6240
2026-01-07 01:19:15.68	354.81	26.20	-32.7	-33.4	28.1	0.00e+00	0	32	101	1048576	42	6440
2026-01-07 01:19:16.68	354.65	26.06	-32.6	-33.3	28.2	0.00e+00	0	32	101	1048576	42	6377
2026-01-07 01:19:17.69	354.49	25.92	-32.7	-33.4	28.2	0.00e+00	0	32	101	1048576	42	6425
2026-01-07 01:19:18.70	354.33	25.78	-32.5	-33.2	28.3	0.00e+00	0	32	101	1048576	42	6262
2026-01-07 01:19:19.71	354.18	25.64	-32.5	-33.0	28.2	0.00e+00	0	32	101	1048576	42	6172
2026-01-07 01:19:20.72	354.03	25.49	-32.5	-33.1	28.2	0.00e+00	0	32	101	1048576	42	6192
2026-01-07 01:19:21.72	353.87	25.36	-32.6	-33.1	28.1	0.00e+00	0	32	101	1048576	42	6216
2026-01-07 01:19:22.73	353.72	25.22	-32.6	-33.2	28.2	0.00e+00	0	32	101	1048576	42	6306
2026-01-07 01:19:23.74	353.57	25.08	-32.4	-33.1	28.3	0.00e+00	0	32	101	1048576	42	6212
2026-01-07 01:19:24.74	353.43	24.94	-32.4	-33.1	28.2	0.00e+00	0	32	101	1048576	42	6194
2026-01-07 01:19:25.75	353.28	24.80	-32.4	-33.0	28.3	0.00e+00	0	32	101	1048576	42	6117
2026-01-07 01:19:26.76	353.13	24.66	-32.4	-33.0	28.3	0.00e+00	0	32	101	1048576	42	6105
2026-01-07 01:19:27.77	352.99	24.53	-32.6	-33.1	28.1	0.00e+00	0	32	101	1048576	42	6237
2026-01-07 01:19:28.78	352.85	24.39	-32.8	-33.4	28.0	0.00e+00	0	32	101	1048576	42	6401
2026-01-07 01:19:29.78	352.71	24.26	-32.7	-33.2	28.1	0.00e+00	0	32	101	1048576	42	6280
2026-01-07 01:19:30.79	352.57	24.12	-32.5	-33.2	28.2	0.00e+00	0	32	101	1048576	42	6253
2026-01-07 01:19:31.80	352.43	23.99	-32.4	-33.0	28.4	0.00e+00	0	32	101	1048576	42	6157
2026-01-07 01:19:32.81	352.29	23.85	-32.5	-33.2	28.3	0.00e+00	0	32	101	1048576	42	6246
2026-01-07 01:19:33.81	352.15	23.72	-32.4	-33.1	28.3	0.00e+00	0	32	101	1048576	42	6214
2026-01-07 01:19:34.82	352.02	23.59	-32.5	-33.2	28.2	0.00e+00	0	32	101	1048576	42	6287
2026-01-07 01:19:35.83	351.88	23.45	-32.5	-33.2	28.2	0.00e+00	0	32	101	1048576	42	6291
2026-01-07 01:19:36.84	351.75	23.32	-32.6	-33.3	28.2	0.00e+00	0	32	101	1048576	42	6332
2026-01-07 01:19:37.85	351.62	23.19	-32.7	-33.4	28.1	0.00e+00	0	32	101	1048576	42	6418
2026-01-07 01:19:38.86	351.49	23.06	-32.7	-33.3	28.1	0.00e+00	0	32	101	1048576	42	6388
2026-01-07 01:19:39.86	351.36	22.93	-32.8	-33.4	28.1	0.00e+00	0	32	101	1048576	42	6464
2026-01-07 01:19:40.87	351.23	22.80	-32.7	-33.3	28.1	0.00e+00	0	32	101	1048576	42	6389
2026-01-07 01:19:41.88	351.10	22.67	-32.8	-33.3	28.0	0.00e+00	0	32	101	1048576	42	6385
2026-01-07 01:19:42.89	350.97	22.54	-32.7	-33.2	28.1	0.00e+00	0	32	101	1048576	42	6298
2026-01-07 01:19:43.90	350.85	22.41	-32.9	-33.4	28.0	0.00e+00	0	32	101	1048576	42	6435
2026-01-07 01:19:44.90	350.73	22.28	-32.7	-33.2	28.1	0.00e+00	0	32	101	1048576	42	6304
2026-01-07 01:19:45.91	350.60	22.15	-32.8	-33.5	28.0	0.00e+00	0	32	101	1048576	42	6504
2026-01-07 01:19:46.92	350.48	22.03	-32.9	-33.4	28.0	0.00e+00	0	32	101	1048576	42	6449
2026-01-07 01:19:47.92	350.36	21.90	-32.9	-33.4	28.0	0.00e+00	0	32	101	1048576	42	6437
2026-01-07 01:19:48.93	350.24	21.77	-32.9	-33.5	28.0	0.00e+00	0	32	101	1048576	42	6478
2026-01-07 01:19:49.94	350.12	21.65	-33.1	-33.6	27.9	0.00e+00	0	32	101	1048576	42	6580
2026-01-07 01:19:50.95	350.00	21.52	-33.1	-33.6	27.8	0.00e+00	0	32	101	1048576	42	6598
2026-01-07 01:19:51.95	349.89	21.40	-33.0	-33.5	27.9	0.00e+00	0	32	101	1048576	44	5799
2026-01-07 01:19:52.96	349.77	21.27	-33.1	-33.8	27.8	0.00e+00	0	32	101	1048576	44	5979
2026-01-07 01:19:53.97	349.65	21.15	-33.2	-33.9	27.7	0.00e+00	0	32	101	1048576	44	6095
2026-01-07 01:19:54.97	349.54	21.03	-33.1	-33.8	27.8	0.00e+00	0	32	101	1048576	44	5982
2026-01-07 01:19:55.98	349.43	20.90	-33.3	-34.0	27.7	0.00e+00	0	32	101	1048576	44	6165
2026-01-07 01:19:56.99	349.31	20.78	-33.2	-33.9	27.7	0.00e+00	0	32	101	1048576	44	6087
2026-01-07 01:19:58.00	349.20	20.66	-33.2	-33.8	27.7	0.00e+00	0	32	101	1048576	44	5995
2026-01-07 01:19:59.00	349.09	20.54	-33.0	-33.6	27.8	0.00e+00	0	32	101	1048576	44	5848
2026-01-07 01:20:00.01	348.98	20.42	-33.2	-33.9	27.8	0.00e+00	0	32	101	1048576	44	6068
2026-01-07 01:20:01.02	348.87	20.30	-33.0	-33.6	27.9	0.00e+00	0	32	101	1048576	44	5884
2026-01-07 01:20:02.03	348.76	20.18	-33.0	-33.7	27.9	0.00e+00	0	32	101	1048576	44	5933
2026-01-07 01:20:03.03	348.66	20.06	-33.1	-33.8	27.8	0.00e+00	0	32	101	1048576	44	5975
2026-01-07 01:20:04.04	348.55	19.94	-33.1	-33.8	27.8	0.00e+00	0	32	101	1048576	44	5971
2026-01-07 01:20:05.05	348.45	19.82	-33.1	-33.8	27.8	0.00e+00	0	32	101	1048576	44	5974
2026-01-07 01:20:06.06	348.34	19.70	-33.2	-33.9	27.6	0.00e+00	0	32	101	1048576	44	6063
2026-01-07 01:20:07.07	348.24	19.58	-33.2	-33.8	27.6	0.00e+00	0	32	101	1048576	44	5980
2026-01-07 01:20:08.07	348.14	19.47	-33.2	-33.8	27.7	0.00e+00	0	32	101	1048576	44	5997
2026-01-07 01:20:09.08	348.03	19.35	-33.3	-33.8	27.6	0.00e+00	0	32	101	1048576	44	6024
2026-01-07 01:20:10.09	347.93	19.23	-33.4	-33.9	27.5	0.00e+00	0	32	101	1048576	44	6103
2026-01-07 01:20:11.10	347.83	19.12	-33.5	-34.0	27.5	0.00e+00	0	32	101	1048576	44	6138
2026-01-07 01:20:12.10	347.73	19.00	-33.4	-34.0	27.4	0.00e+00	0	32	101	1048576	44	6135
2026-01-07 01:20:13.11	347.63	18.89	-33.6	-34.1	27.4	0.00e+00	0	32	101	1048576	44	6217
2026-01-07 01:20:14.12	347.53	18.77	-33.6	-34.2	27.3	0.00e+00	0	32	101	1048576	44	6287
2026-01-07 01:20:15.12	347.44	18.66	-33.7	-34.3	27.3	0.00e+00	0	32	101	1048576	44	6335
2026-01-07 01:20:16.13	347.34	18.55	-33.9	-34.5	27.1	0.00e+00	0	32	101	1048576	44	6470
2026-01-07 01:20:17.14	347.25	18.43	-33.9	-34.4	27.1	0.00e+00	0	32	101	1048576	44	6456
2026-01-07 01:20:18.15	347.15	18.32	-34.0	-34.6	27.1	0.00e+00	0	32	101	1048576	44	6566
2026-01-07 01:20:19.16	347.06	18.21	-33.9	-34.5	27.1	0.00e+00	0	32	101	1048576	44	6506
2026-01-07 01:20:20.17	346.96	18.10	-34.1	-34.7	26.9	0.00e+00	0	32	101	1048576	44	6636
2026-01-07 01:20:21.17	346.87	17.98	-34.1	-34.8	27.0	0.00e+00	0	32	101	1048576	46	5997
2026-01-07 01:20:22.18	346.78	17.87	-34.1	-34.6	27.0	0.00e+00	0	32	101	1048576	46	5886
2026-01-07 01:20:23.18	346.69	17.76	-34.1	-34.8	26.8	0.00e+00	0	32	101	1048576	46	6029
2026-01-07 01:20:24.19	346.59	17.65	-34.1	-34.7	26.8	0.00e+00	0	32	101	1048576	46	5942
2026-01-07 01:20:25.20	346.50	17.54	-34.0	-34.6	26.9	0.00e+00	0	32	101	1048576	46	5867
2026-01-07 01:20:26.21	346.41	17.43	-34.0	-34.6	27.0	0.00e+00	0	32	101	1048576	46	5867
2026-01-07 01:20:27.22	346.33	17.32	-34.0	-34.7	27.1	0.00e+00	0	32	101	1048576	46	5925
2026-01-07 01:20:28.22	346.24	17.22	-34.1	-34.8	26.9	0.00e+00	0	32	101	1048576	46	6011
2026-01-07 01:20:29.23	346.15	17.11	-34.1	-34.7	26.9	0.00e+00	0	32	101	1048576	46	5924
2026-01-07 01:20:30.23	346.06	17.00	-34.4	-35.1	26.7	0.00e+00	0	32	101	1048576	46	6225
2026-01-07 01:20:31.24	345.98	16.89	-34.2	-34.9	26.8	0.00e+00	0	32	101	1048576	46	6065
2026-01-07 01:20:32.25	345.89	16.79	-34.5	-35.2	26.6	0.00e+00	0	32	101	1048576	46	6263
2026-01-07 01:20:33.26	345.81	16.68	-34.2	-34.7	26.9	0.00e+00	0	32	101	1048576	46	5951
2026-01-07 01:20:34.26	345.72	16.57	-34.5	-35.0	26.7	0.00e+00	0	32	101	1048576	46	6155
2026-01-07 01:20:35.27	345.64	16.47	-34.4	-34.9	26.7	0.00e+00	0	32	101	1048576	46	6098
2026-01-07 01:20:36.27	345.56	16.36	-34.3	-35.0	26.8	0.00e+00	0	32	101	1048576	46	6152
2026-01-07 01:20:37.28	345.47	16.26	-34.5	-35.2	26.6	0.00e+00	0	32	101	1048576	46	6305
2026-01-07 01:20:38.28	345.39	16.15	-34.6	-35.3	26.5	0.00e+00	0	32	101	1048576	46	6366
2026-01-07 01:20:39.29	345.31	16.05	-34.4	-35.1	26.7	0.00e+00	0	32	101	1048576	46	6174
2026-01-07 01:20:40.30	345.23	15.95	-34.4	-35.1	26.7	0.00e+00	0	32	101	1048576	46	6188
2026-01-07 01:20:41.30	345.15	15.84	-34.5	-35.2	26.5	0.00e+00	0	32	101	1048576	46	6300
2026-01-07 01:20:42.31	345.07	15.74	-34.4	-35.1	26.6	0.00e+00	0	32	101	1048576	46	6222
2026-01-07 01:20:43.31	344.99	15.64	-34.6	-35.3	26.4	0.00e+00	0	32	101	1048576	46	6345
