passes_logs/2026/01/07/R4.6S_Anadyr_2ch/R4.6S_Anadyr_2ch__20260107_205239_NOAA_20_JPSS-1_rec.log

#Pass ID: 20260107_205239_NOAA 20 (JPSS-1)
#Satellite: NOAA 20 (JPSS-1)
#Configuration: NOAA 20
#almurnet v.1.7.20251203
#Start time: 2026-01-07 20:52:41

#Version: 2.2.20231116
#Station: R4.6S_Anadyr_2ch
#Location: 177.4865 lon 64.73178 lat
#TLE: 1 43013U 17073A   25350.93759711  .00000080  00000+0  58734-4 0  9994
#TLE: 2 43013  98.7603 287.1885 0002156  81.1496 278.9924 14.19526878418610

#Time	Az	El	Level	Level2	SNR	BER	BlckErr	Temp	State	Recorded	gain1	gain2
2026-01-07 20:52:41.29	78.67	0.08	-52.0	-67.1	3.5	1.51e+00	0	33	0	0	60	109860
2026-01-07 20:52:42.30	78.60	0.13	-52.0	-67.4	3.6	1.51e+00	0	34	104	0	60	114606
2026-01-07 20:52:43.31	78.53	0.19	-52.0	-67.4	3.6	1.51e+00	0	34	104	0	60	114949
2026-01-07 20:52:44.32	78.46	0.24	-52.0	-67.4	3.6	1.51e+00	0	34	104	0	60	114219
2026-01-07 20:52:45.33	78.39	0.29	-52.0	-67.5	3.6	1.51e+00	0	34	104	0	60	115717
2026-01-07 20:52:46.34	78.32	0.34	-52.0	-67.4	3.6	1.51e+00	0	34	104	0	60	114217
2026-01-07 20:52:47.35	78.25	0.39	-52.1	-67.5	3.6	1.51e+00	0	34	104	0	60	115442
2026-01-07 20:52:48.36	78.18	0.44	-52.1	-67.5	3.6	1.51e+00	0	34	104	0	60	115464
2026-01-07 20:52:49.37	78.11	0.50	-52.1	-67.5	3.6	1.51e+00	0	34	104	0	60	115344
2026-01-07 20:52:50.38	78.04	0.55	-52.1	-67.5	3.6	1.51e+00	0	34	104	0	60	115938
2026-01-07 20:52:51.39	77.97	0.60	-52.1	-67.5	3.6	1.51e+00	0	34	104	0	60	115202
2026-01-07 20:52:52.40	77.90	0.65	-52.1	-67.5	3.6	1.51e+00	0	34	104	0	60	115385
2026-01-07 20:52:53.41	77.83	0.70	-51.9	-67.3	3.6	1.51e+00	0	34	104	0	60	113458
2026-01-07 20:52:54.43	77.75	0.76	-51.8	-67.2	3.6	1.51e+00	0	34	104	0	60	112038
2026-01-07 20:52:55.44	77.68	0.81	-51.7	-67.1	3.6	1.51e+00	0	34	104	0	60	110163
2026-01-07 20:52:56.45	77.61	0.86	-51.4	-66.8	3.6	1.51e+00	0	35	104	0	60	107181
2026-01-07 20:52:57.46	77.54	0.91	-50.8	-66.2	3.6	1.51e+00	0	34	104	0	60	99673
2026-01-07 20:52:58.47	77.46	0.97	-50.4	-65.8	3.6	1.51e+00	0	35	104	0	60	95376
2026-01-07 20:52:59.48	77.39	1.02	-50.4	-65.9	3.6	1.51e+00	0	35	104	0	60	95939
2026-01-07 20:53:00.49	77.32	1.07	-50.4	-65.8	3.6	1.51e+00	0	35	104	0	60	95587
2026-01-07 20:53:01.50	77.24	1.12	-50.4	-65.9	3.6	1.51e+00	0	35	104	0	60	95771
2026-01-07 20:53:02.51	77.17	1.17	-50.4	-65.9	3.6	1.51e+00	0	35	104	0	60	96011
2026-01-07 20:53:03.52	77.09	1.23	-50.4	-65.8	3.6	1.51e+00	0	35	104	0	60	95497
2026-01-07 20:53:04.53	77.02	1.28	-50.4	-65.9	3.6	1.51e+00	0	35	104	0	60	95838
2026-01-07 20:53:05.54	76.95	1.33	-50.4	-65.9	3.6	1.51e+00	0	35	104	0	60	95853
2026-01-07 20:53:06.55	76.87	1.38	-50.4	-65.8	3.6	1.51e+00	0	35	104	0	60	95468
2026-01-07 20:53:07.56	76.79	1.44	-50.4	-65.8	3.6	1.51e+00	0	35	104	0	60	95481
2026-01-07 20:53:08.58	76.72	1.49	-50.4	-65.8	3.6	1.51e+00	0	35	104	0	60	94925
2026-01-07 20:53:09.59	76.64	1.54	-50.4	-65.8	3.6	1.51e+00	0	35	104	0	60	95276
2026-01-07 20:53:10.60	76.57	1.60	-50.4	-65.8	3.6	1.51e+00	0	35	104	0	60	94864
2026-01-07 20:53:11.61	76.49	1.65	-50.4	-65.9	3.6	1.51e+00	0	35	104	0	60	96074
2026-01-07 20:53:12.62	76.41	1.70	-50.4	-65.8	3.6	1.51e+00	0	35	104	0	60	95605
2026-01-07 20:53:13.63	76.34	1.75	-50.4	-65.8	3.6	1.51e+00	0	35	104	0	60	95518
2026-01-07 20:53:14.64	76.26	1.81	-50.4	-65.8	3.6	1.51e+00	0	35	104	0	60	95278
2026-01-07 20:53:15.65	76.18	1.86	-50.4	-65.8	3.6	1.51e+00	0	35	104	0	60	94832
2026-01-07 20:53:16.66	76.10	1.91	-50.4	-65.7	3.6	1.51e+00	0	35	104	0	60	94104
2026-01-07 20:53:17.68	76.02	1.97	-50.4	-65.6	3.6	1.51e+00	0	35	104	0	60	93429
2026-01-07 20:53:18.69	75.94	2.02	-50.4	-65.6	3.6	1.51e+00	0	35	104	0	60	92568
2026-01-07 20:53:19.70	75.87	2.07	-50.4	-65.6	3.6	1.51e+00	0	35	104	0	60	92967
2026-01-07 20:53:20.71	75.79	2.13	-50.4	-65.6	3.5	1.51e+00	0	35	104	0	60	93373
2026-01-07 20:53:21.72	75.71	2.18	-50.4	-65.8	3.6	1.51e+00	0	35	104	0	60	95177
2026-01-07 20:53:22.73	75.63	2.23	-50.4	-65.9	3.6	1.51e+00	0	35	104	0	60	95927
2026-01-07 20:53:23.74	75.55	2.29	-50.4	-65.8	3.6	1.51e+00	0	35	104	0	60	94895
2026-01-07 20:53:24.75	75.47	2.34	-50.4	-65.7	3.6	1.51e+00	0	35	104	0	60	94409
2026-01-07 20:53:25.76	75.39	2.39	-50.4	-65.8	3.6	1.51e+00	0	35	104	0	60	95261
2026-01-07 20:53:26.78	75.30	2.45	-50.4	-65.9	3.6	1.51e+00	0	35	104	0	60	95627
2026-01-07 20:53:27.79	75.22	2.50	-50.4	-65.8	3.6	1.51e+00	0	35	104	0	60	94713
2026-01-07 20:53:28.80	75.14	2.56	-50.4	-65.4	3.6	1.51e+00	0	35	104	0	60	90428
2026-01-07 20:53:29.81	75.06	2.61	-50.4	-65.1	3.6	1.51e+00	0	35	104	0	60	87758
2026-01-07 20:53:30.82	74.98	2.66	-50.4	-65.4	3.6	1.51e+00	0	35	104	0	60	90390
2026-01-07 20:53:31.83	74.89	2.72	-50.4	-65.7	3.5	1.51e+00	0	35	104	0	60	93665
2026-01-07 20:53:32.84	74.81	2.77	-50.3	-63.7	3.6	1.51e+00	0	35	104	0	60	75020
2026-01-07 20:53:33.85	74.73	2.83	-50.0	-59.1	5.3	7.89e-01	0	35	0	0	60	43832
2026-01-07 20:53:34.86	74.65	2.88	-49.4	-55.5	8.9	1.09e-01	0	35	102	1048576	60	29204
2026-01-07 20:53:35.87	74.56	2.93	-48.5	-53.0	11.7	5.90e-03	0	35	102	1048576	60	21818
2026-01-07 20:53:36.88	74.48	2.99	-47.8	-51.5	13.5	2.39e-04	0	35	102	1048576	60	18230
2026-01-07 20:53:37.89	74.39	3.04	-47.2	-50.3	14.5	0.00e+00	0	35	102	1048576	60	16019
2026-01-07 20:53:38.90	74.31	3.10	-48.4	-52.7	11.5	2.20e-06	0	35	102	1048576	60	21134
2026-01-07 20:53:39.91	74.22	3.15	-47.7	-51.0	13.9	0.00e+00	0	35	102	1048576	60	17284
2026-01-07 20:53:40.92	74.14	3.20	-50.4	-65.0	3.6	1.77e-01	0	35	104	1048576	60	86945
2026-01-07 20:53:41.94	74.05	3.26	-50.1	-59.2	4.3	1.50e+00	47	35	104	1048576	60	44245
2026-01-07 20:53:42.95	73.97	3.31	-47.8	-51.4	12.4	6.78e-02	0	35	0	1048576	60	18044
2026-01-07 20:53:43.96	73.88	3.37	-47.0	-49.8	15.1	1.60e-05	0	35	0	1048576	60	15105
2026-01-07 20:53:44.97	73.79	3.42	-46.8	-49.5	15.5	0.00e+00	0	35	0	1048576	60	14627
2026-01-07 20:53:45.98	73.71	3.48	-45.8	-47.9	17.0	0.00e+00	0	35	0	1048576	60	12132
2026-01-07 20:53:46.99	73.62	3.53	-45.3	-47.2	17.8	0.00e+00	0	35	0	1048576	60	11202
2026-01-07 20:53:48.00	73.53	3.59	-45.1	-47.0	18.1	0.00e+00	0	35	0	1048576	60	10933
2026-01-07 20:53:49.01	73.44	3.64	-45.1	-46.9	18.1	0.00e+00	0	35	0	1048576	60	10831
2026-01-07 20:53:50.02	73.35	3.70	-45.1	-47.0	18.1	0.00e+00	0	35	0	1048576	60	10886
2026-01-07 20:53:51.03	73.26	3.75	-45.2	-47.1	18.0	0.00e+00	0	35	0	1048576	60	11018
2026-01-07 20:53:52.04	73.18	3.80	-45.0	-46.9	18.2	0.00e+00	0	35	0	1048576	60	10745
2026-01-07 20:53:53.05	73.09	3.86	-45.1	-46.9	18.2	0.00e+00	0	35	0	1048576	60	10814
2026-01-07 20:53:54.06	73.00	3.91	-45.3	-47.1	18.1	0.00e+00	0	35	0	1048576	60	11063
2026-01-07 20:53:55.07	72.91	3.97	-45.0	-46.8	18.2	0.00e+00	0	35	0	1048576	60	10681
2026-01-07 20:53:56.08	72.82	4.02	-45.1	-46.9	18.3	0.00e+00	0	35	0	1048576	60	10792
2026-01-07 20:53:57.10	72.72	4.08	-45.1	-47.0	18.2	0.00e+00	0	35	0	1048576	60	10866
2026-01-07 20:53:58.11	72.63	4.13	-45.4	-47.3	17.8	0.00e+00	0	35	0	1048576	60	11312
2026-01-07 20:53:59.12	72.54	4.19	-45.4	-47.3	18.0	0.00e+00	0	35	0	1048576	60	11273
2026-01-07 20:54:00.13	72.45	4.24	-45.4	-47.4	17.8	0.00e+00	0	35	0	1048576	60	11388
2026-01-07 20:54:01.14	72.36	4.30	-45.4	-47.3	18.0	0.00e+00	0	35	101	1048576	60	11354
2026-01-07 20:54:02.15	72.26	4.36	-45.1	-46.9	18.4	0.00e+00	0	35	101	1048576	60	10828
2026-01-07 20:54:03.16	72.17	4.41	-45.2	-47.1	18.2	0.00e+00	0	35	101	1048576	60	11000
2026-01-07 20:54:04.17	72.08	4.47	-45.1	-46.9	18.5	0.00e+00	0	35	101	1048576	60	10835
2026-01-07 20:54:05.18	71.98	4.52	-45.2	-47.0	18.1	0.00e+00	0	35	101	1048576	60	10951
2026-01-07 20:54:06.19	71.89	4.58	-45.1	-46.9	18.3	0.00e+00	0	35	101	1048576	60	10766
2026-01-07 20:54:07.20	71.80	4.63	-45.2	-47.0	18.1	0.00e+00	0	35	101	1048576	60	10971
2026-01-07 20:54:08.22	71.70	4.69	-45.1	-46.9	18.4	0.00e+00	0	35	101	1048576	60	10818
2026-01-07 20:54:09.23	71.61	4.74	-45.2	-47.0	18.3	0.00e+00	0	35	101	1048576	60	10975
2026-01-07 20:54:10.24	71.51	4.80	-45.2	-47.0	18.3	0.00e+00	0	35	101	1048576	60	10868
2026-01-07 20:54:11.25	71.41	4.85	-45.3	-47.1	18.3	0.00e+00	0	35	101	1048576	60	11064
2026-01-07 20:54:12.26	71.32	4.91	-45.1	-46.8	18.4	0.00e+00	0	35	101	1048576	60	10696
2026-01-07 20:54:13.27	71.22	4.97	-45.2	-46.9	18.4	0.00e+00	0	35	101	1048576	60	10814
2026-01-07 20:54:14.28	71.12	5.02	-45.1	-46.9	18.4	0.00e+00	0	35	101	1048576	60	10792
2026-01-07 20:54:15.29	71.03	5.08	-45.2	-46.9	18.4	0.00e+00	0	35	101	1048576	60	10846
2026-01-07 20:54:16.30	70.93	5.13	-45.3	-47.1	18.3	0.00e+00	0	35	101	1048576	60	11028
2026-01-07 20:54:17.32	70.83	5.19	-45.1	-46.9	18.5	0.00e+00	0	35	101	1048576	60	10789
2026-01-07 20:54:18.32	70.73	5.24	-45.3	-47.0	18.3	0.00e+00	0	35	101	1048576	60	10966
2026-01-07 20:54:19.34	70.63	5.30	-45.3	-47.1	18.2	0.00e+00	0	35	101	1048576	60	11042
2026-01-07 20:54:20.35	70.53	5.36	-45.4	-47.2	18.2	0.00e+00	0	35	101	1048576	60	11151
2026-01-07 20:54:21.36	70.43	5.41	-45.3	-47.1	18.3	0.00e+00	0	35	101	1048576	60	10986
2026-01-07 20:54:22.37	70.33	5.47	-45.2	-47.0	18.5	0.00e+00	0	35	101	1048576	60	10869
2026-01-07 20:54:23.38	70.23	5.53	-45.2	-46.9	18.5	0.00e+00	0	35	101	1048576	60	10846
2026-01-07 20:54:24.39	70.13	5.58	-45.3	-47.1	18.4	0.00e+00	0	35	101	1048576	60	10986
2026-01-07 20:54:25.40	70.03	5.64	-45.1	-46.8	18.6	0.00e+00	0	35	101	1048576	60	10635
2026-01-07 20:54:26.41	69.93	5.69	-45.1	-46.8	18.6	0.00e+00	0	35	101	1048576	60	10684
2026-01-07 20:54:27.43	69.82	5.75	-45.0	-46.7	18.7	0.00e+00	0	35	101	1048576	60	10535
2026-01-07 20:54:28.44	69.72	5.81	-45.0	-46.7	18.7	0.00e+00	0	35	101	1048576	60	10597
2026-01-07 20:54:29.45	69.62	5.86	-45.1	-46.8	18.7	0.00e+00	0	35	101	1048576	60	10681
2026-01-07 20:54:30.46	69.52	5.92	-45.2	-47.0	18.6	0.00e+00	0	35	101	1048576	60	10905
2026-01-07 20:54:31.47	69.41	5.98	-45.3	-47.0	18.6	0.00e+00	0	35	101	1048576	60	10955
2026-01-07 20:54:32.48	69.31	6.03	-45.0	-46.6	18.8	0.00e+00	0	35	101	1048576	60	10483
2026-01-07 20:54:33.49	69.20	6.09	-45.0	-46.6	18.8	0.00e+00	0	35	101	1048576	60	10479
2026-01-07 20:54:34.50	69.10	6.14	-45.0	-46.7	18.8	0.00e+00	0	35	101	1048576	60	10546
2026-01-07 20:54:35.51	68.99	6.20	-45.0	-46.7	18.8	0.00e+00	0	35	101	1048576	60	10527
2026-01-07 20:54:36.52	68.89	6.26	-45.2	-46.9	18.6	0.00e+00	0	35	101	1048576	60	10764
2026-01-07 20:54:37.53	68.78	6.31	-44.9	-46.6	18.9	0.00e+00	0	35	101	1048576	60	10383
2026-01-07 20:54:38.54	68.67	6.37	-45.1	-46.8	18.7	0.00e+00	0	35	101	1048576	60	10653
2026-01-07 20:54:39.56	68.56	6.43	-45.1	-46.8	18.8	0.00e+00	0	35	101	1048576	60	10659
2026-01-07 20:54:40.57	68.46	6.48	-45.1	-46.8	18.7	0.00e+00	0	35	101	1048576	60	10703
2026-01-07 20:54:41.58	68.35	6.54	-44.9	-46.6	18.9	0.00e+00	0	35	101	1048576	60	10428
2026-01-07 20:54:42.59	68.24	6.60	-44.8	-46.4	19.1	0.00e+00	0	35	101	1048576	60	10196
2026-01-07 20:54:43.60	68.13	6.65	-44.8	-46.4	19.2	0.00e+00	0	35	101	1048576	60	10149
2026-01-07 20:54:44.61	68.02	6.71	-44.6	-46.1	19.4	0.00e+00	0	35	101	1048576	60	9876
2026-01-07 20:54:45.62	67.91	6.77	-44.6	-46.1	19.4	0.00e+00	0	35	101	1048576	60	9836
2026-01-07 20:54:46.63	67.80	6.82	-44.4	-45.9	19.8	0.00e+00	0	35	101	1048576	60	9589
2026-01-07 20:54:47.64	67.69	6.88	-44.4	-45.9	19.7	0.00e+00	0	35	101	1048576	60	9608
2026-01-07 20:54:48.65	67.58	6.94	-44.4	-45.9	19.6	0.00e+00	0	35	101	1048576	60	9629
2026-01-07 20:54:49.66	67.47	6.99	-44.4	-45.8	19.7	0.00e+00	0	35	101	1048576	60	9561
2026-01-07 20:54:50.67	67.36	7.05	-44.2	-45.7	19.8	0.00e+00	0	35	101	1048576	60	9362
2026-01-07 20:54:51.68	67.24	7.11	-44.2	-45.7	19.9	0.00e+00	0	35	101	1048576	60	9355
2026-01-07 20:54:52.69	67.13	7.17	-44.2	-45.7	19.8	0.00e+00	0	35	101	1048576	60	9389
2026-01-07 20:54:53.70	67.02	7.22	-44.2	-45.6	19.9	0.00e+00	0	35	101	1048576	60	9339
2026-01-07 20:54:54.72	66.90	7.28	-44.1	-45.5	20.0	0.00e+00	0	35	101	1048576	60	9226
2026-01-07 20:54:55.73	66.79	7.34	-44.3	-45.7	19.9	0.00e+00	0	35	101	1048576	60	9401
2026-01-07 20:54:56.74	66.67	7.39	-44.1	-45.4	20.1	0.00e+00	0	35	101	1048576	60	9129
2026-01-07 20:54:57.75	66.56	7.45	-44.0	-45.4	20.1	0.00e+00	0	35	101	1048576	60	9121
2026-01-07 20:54:58.76	66.44	7.51	-44.1	-45.5	20.1	0.00e+00	0	35	101	1048576	60	9200
2026-01-07 20:54:59.77	66.33	7.56	-44.2	-45.6	20.0	0.00e+00	0	35	101	1048576	60	9340
2026-01-07 20:55:00.78	66.21	7.62	-44.1	-45.6	19.9	0.00e+00	0	35	101	1048576	60	9239
2026-01-07 20:55:01.79	66.09	7.68	-44.1	-45.5	20.1	0.00e+00	0	35	101	1048576	60	9200
2026-01-07 20:55:02.80	65.98	7.74	-44.0	-45.4	20.2	0.00e+00	0	35	101	1048576	60	9120
2026-01-07 20:55:03.81	65.86	7.79	-44.0	-45.4	20.2	0.00e+00	0	35	101	1048576	60	9070
2026-01-07 20:55:04.82	65.74	7.85	-43.9	-45.2	20.4	0.00e+00	0	35	101	1048576	60	8898
2026-01-07 20:55:05.83	65.62	7.91	-44.0	-45.3	20.2	0.00e+00	0	35	101	1048576	60	8996
2026-01-07 20:55:06.84	65.50	7.96	-43.8	-45.1	20.4	0.00e+00	0	35	101	1048576	60	8789
2026-01-07 20:55:07.85	65.38	8.02	-43.9	-45.2	20.5	0.00e+00	0	35	101	1048576	60	8893
2026-01-07 20:55:08.87	65.26	8.08	-43.9	-45.2	20.4	0.00e+00	0	35	101	1048576	60	8884
2026-01-07 20:55:09.87	65.14	8.14	-43.8	-45.2	20.5	0.00e+00	0	35	101	1048576	60	8834
2026-01-07 20:55:10.89	65.02	8.19	-43.6	-44.9	20.7	0.00e+00	0	35	101	1048576	60	8593
2026-01-07 20:55:11.90	64.90	8.25	-43.5	-44.8	20.9	0.00e+00	0	35	101	1048576	60	8425
2026-01-07 20:55:12.91	64.77	8.31	-43.6	-44.8	20.8	0.00e+00	0	35	101	1048576	60	8502
2026-01-07 20:55:13.92	64.65	8.36	-43.6	-44.9	20.7	0.00e+00	0	35	101	1048576	60	8524
2026-01-07 20:55:14.93	64.53	8.42	-43.7	-45.1	20.6	0.00e+00	0	35	101	1048576	60	8726
2026-01-07 20:55:15.94	64.40	8.48	-43.7	-45.0	20.7	0.00e+00	0	35	101	1048576	60	8636
2026-01-07 20:55:16.95	64.28	8.54	-43.7	-45.1	20.6	0.00e+00	0	35	101	1048576	60	8727
2026-01-07 20:55:17.97	64.15	8.59	-43.7	-45.1	20.6	0.00e+00	0	35	101	1048576	60	8738
2026-01-07 20:55:18.97	64.03	8.65	-43.9	-45.2	20.5	0.00e+00	0	35	101	1048576	60	8895
2026-01-07 20:55:19.99	63.90	8.71	-43.7	-45.1	20.6	0.00e+00	0	35	101	1048576	60	8724
2026-01-07 20:55:21.00	63.78	8.76	-43.8	-45.1	20.5	0.00e+00	0	35	101	1048576	60	8791
2026-01-07 20:55:22.01	63.65	8.82	-43.9	-45.3	20.4	0.00e+00	0	35	101	1048576	60	8932
2026-01-07 20:55:23.02	63.52	8.88	-44.0	-45.4	20.3	0.00e+00	0	35	101	1048576	60	9046
2026-01-07 20:55:24.03	63.39	8.94	-44.1	-45.6	20.2	0.00e+00	0	35	101	1048576	60	9242
2026-01-07 20:55:25.04	63.27	8.99	-44.1	-45.5	20.2	0.00e+00	0	35	101	1048576	60	9194
2026-01-07 20:55:26.05	63.14	9.05	-44.0	-45.4	20.3	0.00e+00	0	35	101	1048576	60	9078
2026-01-07 20:55:27.06	63.01	9.11	-44.1	-45.5	20.2	0.00e+00	0	35	101	1048576	60	9145
2026-01-07 20:55:28.08	62.88	9.16	-44.0	-45.4	20.4	0.00e+00	0	35	101	1048576	60	9094
2026-01-07 20:55:29.09	62.75	9.22	-44.0	-45.3	20.4	0.00e+00	0	35	101	1048576	60	9003
2026-01-07 20:55:30.10	62.62	9.28	-43.9	-45.2	20.5	0.00e+00	0	35	101	1048576	60	8887
2026-01-07 20:55:31.11	62.48	9.34	-43.8	-45.2	20.6	0.00e+00	0	35	101	1048576	60	8844
2026-01-07 20:55:32.12	62.35	9.39	-43.8	-45.1	20.7	0.00e+00	0	35	101	1048576	60	8778
2026-01-07 20:55:33.13	62.22	9.45	-43.8	-45.1	20.6	0.00e+00	0	35	101	1048576	60	8778
2026-01-07 20:55:34.14	62.09	9.51	-43.7	-45.0	20.7	0.00e+00	0	35	101	1048576	60	8625
2026-01-07 20:55:35.15	61.95	9.56	-43.6	-44.8	20.9	0.00e+00	0	35	101	1048576	60	8515
2026-01-07 20:55:36.16	61.82	9.62	-43.5	-44.7	21.0	0.00e+00	0	35	101	1048576	60	8411
2026-01-07 20:55:37.18	61.68	9.68	-43.5	-44.7	21.0	0.00e+00	0	35	101	1048576	60	8415
2026-01-07 20:55:38.19	61.55	9.74	-43.3	-44.5	21.2	0.00e+00	0	35	101	1048576	60	8208
2026-01-07 20:55:39.20	61.41	9.79	-43.4	-44.6	21.1	0.00e+00	0	35	101	1048576	60	8287
2026-01-07 20:55:40.21	61.28	9.85	-43.3	-44.5	21.1	0.00e+00	0	35	101	1048576	60	8186
2026-01-07 20:55:41.22	61.14	9.91	-43.4	-44.6	21.2	0.00e+00	0	35	101	1048576	60	8306
2026-01-07 20:55:42.23	61.00	9.96	-43.4	-44.6	21.1	0.00e+00	0	35	101	1048576	60	8305
2026-01-07 20:55:43.24	60.86	10.02	-43.2	-44.4	21.3	0.00e+00	0	35	101	1048576	60	8108
2026-01-07 20:55:44.25	60.72	10.08	-43.3	-44.5	21.1	0.00e+00	0	35	101	1048576	60	8193
2026-01-07 20:55:45.26	60.59	10.13	-43.2	-44.5	21.3	0.00e+00	0	35	101	1048576	60	8139
2026-01-07 20:55:46.27	60.45	10.19	-43.2	-44.4	21.3	0.00e+00	0	35	101	1048576	60	8051
2026-01-07 20:55:47.28	60.31	10.25	-43.3	-44.5	21.3	0.00e+00	0	35	101	1048576	60	8174
2026-01-07 20:55:48.30	60.16	10.30	-43.3	-44.6	21.2	0.00e+00	0	35	101	1048576	60	8235
2026-01-07 20:55:49.31	60.02	10.36	-43.4	-44.7	21.1	0.00e+00	0	35	101	1048576	60	8336
2026-01-07 20:55:50.32	59.88	10.42	-43.4	-44.7	21.1	0.00e+00	0	35	101	1048576	60	8347
2026-01-07 20:55:51.33	59.74	10.47	-43.4	-44.6	21.2	0.00e+00	0	35	101	1048576	60	8271
2026-01-07 20:55:52.34	59.60	10.53	-43.5	-44.7	21.1	0.00e+00	0	35	101	1048576	60	8385
2026-01-07 20:55:53.35	59.45	10.59	-43.5	-44.8	21.0	0.00e+00	0	35	101	1048576	60	8482
2026-01-07 20:55:54.36	59.31	10.64	-43.5	-44.8	21.0	0.00e+00	0	35	101	1048576	60	8459
2026-01-07 20:55:55.37	59.16	10.70	-43.4	-44.7	21.1	0.00e+00	0	35	101	1048576	60	8351
2026-01-07 20:55:56.39	59.02	10.76	-43.4	-44.6	21.1	0.00e+00	0	35	101	1048576	60	8320
2026-01-07 20:55:57.40	58.87	10.81	-43.4	-44.6	21.2	0.00e+00	0	35	101	1048576	60	8305
2026-01-07 20:55:58.41	58.73	10.87	-43.4	-44.7	21.1	0.00e+00	0	35	101	1048576	60	8352
2026-01-07 20:55:59.42	58.58	10.92	-43.5	-44.7	21.0	0.00e+00	0	35	101	1048576	60	8413
2026-01-07 20:56:00.43	58.43	10.98	-43.4	-44.6	21.2	0.00e+00	0	35	101	1048576	60	8315
2026-01-07 20:56:01.44	58.28	11.04	-43.3	-44.5	21.2	0.00e+00	0	35	101	1048576	60	8188
2026-01-07 20:56:02.45	58.13	11.09	-43.3	-44.6	21.2	0.00e+00	0	35	101	1048576	60	8251
2026-01-07 20:56:03.46	57.99	11.15	-43.3	-44.5	21.3	0.00e+00	0	35	101	1048576	60	8176
2026-01-07 20:56:04.47	57.84	11.20	-43.3	-44.6	21.2	0.00e+00	0	35	101	1048576	60	8238
2026-01-07 20:56:05.48	57.69	11.26	-43.3	-44.5	21.3	0.00e+00	0	35	101	1048576	60	8198
2026-01-07 20:56:06.49	57.54	11.31	-43.4	-44.6	21.2	0.00e+00	0	35	101	1048576	60	8244
2026-01-07 20:56:07.50	57.38	11.37	-43.5	-44.8	21.1	0.00e+00	0	35	101	1048576	60	8434
2026-01-07 20:56:08.51	57.23	11.43	-43.6	-44.8	21.0	0.00e+00	0	35	101	1048576	60	8496
2026-01-07 20:56:09.52	57.08	11.48	-43.6	-44.9	20.9	0.00e+00	0	35	101	1048576	60	8584
2026-01-07 20:56:10.53	56.93	11.54	-43.6	-44.8	20.9	0.00e+00	0	35	101	1048576	60	8488
2026-01-07 20:56:11.54	56.77	11.59	-43.5	-44.7	21.0	0.00e+00	0	35	101	1048576	60	8423
2026-01-07 20:56:12.55	56.62	11.65	-43.6	-44.8	21.0	0.00e+00	0	35	101	1048576	60	8490
2026-01-07 20:56:13.56	56.46	11.70	-43.5	-44.8	21.1	0.00e+00	0	35	101	1048576	60	8436
2026-01-07 20:56:14.57	56.31	11.76	-43.5	-44.7	21.1	0.00e+00	0	35	101	1048576	60	8372
2026-01-07 20:56:15.59	56.15	11.81	-43.5	-44.7	21.1	0.00e+00	0	35	101	1048576	60	8389
2026-01-07 20:56:16.60	55.99	11.87	-43.5	-44.7	21.1	0.00e+00	0	35	101	1048576	60	8390
2026-01-07 20:56:17.61	55.84	11.92	-43.2	-44.4	21.4	0.00e+00	0	35	101	1048576	60	8084
2026-01-07 20:56:18.62	55.68	11.98	-43.2	-44.4	21.5	0.00e+00	0	35	101	1048576	60	8073
2026-01-07 20:56:19.63	55.52	12.03	-43.1	-44.3	21.6	0.00e+00	0	35	101	1048576	60	7985
2026-01-07 20:56:20.64	55.36	12.09	-43.0	-44.2	21.6	0.00e+00	0	35	101	1048576	60	7887
2026-01-07 20:56:21.65	55.20	12.14	-43.0	-44.2	21.7	0.00e+00	0	35	101	1048576	60	7882
2026-01-07 20:56:22.66	55.04	12.19	-43.0	-44.1	21.6	0.00e+00	0	35	101	1048576	60	7860
2026-01-07 20:56:23.67	54.88	12.25	-42.9	-44.0	21.8	0.00e+00	0	35	101	1048576	60	7744
2026-01-07 20:56:24.69	54.72	12.30	-42.8	-43.9	21.9	0.00e+00	0	35	101	1048576	60	7648
2026-01-07 20:56:25.70	54.55	12.36	-42.8	-43.9	22.0	0.00e+00	0	35	101	1048576	60	7683
2026-01-07 20:56:26.71	54.39	12.41	-42.6	-43.7	22.1	0.00e+00	0	35	101	1048576	60	7499
2026-01-07 20:56:27.72	54.23	12.47	-42.4	-43.4	22.3	0.00e+00	0	35	101	1048576	60	7223
2026-01-07 20:56:28.73	54.06	12.52	-42.4	-43.4	22.3	0.00e+00	0	35	101	1048576	60	7226
2026-01-07 20:56:29.74	53.90	12.57	-42.3	-43.4	22.4	0.00e+00	0	35	101	1048576	60	7189
2026-01-07 20:56:30.75	53.73	12.63	-42.2	-43.2	22.5	0.00e+00	0	35	101	1048576	60	7067
2026-01-07 20:56:31.77	53.57	12.68	-42.2	-43.3	22.5	0.00e+00	0	35	101	1048576	60	7104
2026-01-07 20:56:32.78	53.40	12.73	-42.3	-43.4	22.4	0.00e+00	0	35	101	1048576	60	7176
2026-01-07 20:56:33.78	53.23	12.79	-42.2	-43.2	22.6	0.00e+00	0	35	101	1048576	60	7038
2026-01-07 20:56:34.80	53.07	12.84	-42.1	-43.2	22.6	0.00e+00	0	35	101	1048576	60	7030
2026-01-07 20:56:35.81	52.90	12.89	-42.0	-43.1	22.7	0.00e+00	0	35	101	1048576	60	6931
2026-01-07 20:56:36.82	52.73	12.94	-42.0	-43.0	22.8	0.00e+00	0	35	101	1048576	60	6894
2026-01-07 20:56:37.83	52.56	13.00	-42.0	-43.0	22.7	0.00e+00	0	35	101	1048576	60	6859
2026-01-07 20:56:38.84	52.39	13.05	-41.8	-42.8	23.0	0.00e+00	0	35	101	1048576	60	6727
2026-01-07 20:56:39.85	52.22	13.10	-41.9	-42.9	22.8	0.00e+00	0	35	101	1048576	60	6810
2026-01-07 20:56:40.86	52.05	13.15	-41.8	-42.8	22.9	0.00e+00	0	35	101	1048576	60	6745
2026-01-07 20:56:41.87	51.88	13.21	-41.8	-42.8	22.9	0.00e+00	0	35	101	1048576	60	6768
2026-01-07 20:56:42.89	51.70	13.26	-41.9	-42.9	22.8	0.00e+00	0	35	101	1048576	60	6822
2026-01-07 20:56:43.90	51.53	13.31	-42.0	-43.0	22.8	0.00e+00	0	35	101	1048576	60	6873
2026-01-07 20:56:44.91	51.35	13.36	-41.9	-42.9	22.7	0.00e+00	0	35	101	1048576	60	6820
2026-01-07 20:56:45.92	51.18	13.41	-41.9	-42.9	22.9	0.00e+00	0	35	101	1048576	60	6827
2026-01-07 20:56:46.93	51.00	13.46	-41.8	-42.8	22.9	0.00e+00	0	35	101	1048576	60	6741
2026-01-07 20:56:47.94	50.83	13.51	-41.9	-42.9	22.9	0.00e+00	0	35	101	1048576	60	6785
2026-01-07 20:56:48.95	50.65	13.57	-42.0	-43.0	22.8	0.00e+00	0	35	101	1048576	60	6879
2026-01-07 20:56:49.96	50.48	13.62	-41.7	-42.6	23.0	0.00e+00	0	35	101	1048576	60	6610
2026-01-07 20:56:50.97	50.30	13.67	-41.4	-42.4	23.3	0.00e+00	0	35	101	1048576	60	6403
2026-01-07 20:56:51.99	50.12	13.72	-41.2	-42.1	23.5	0.00e+00	0	35	101	1048576	60	6232
2026-01-07 20:56:53.00	49.94	13.77	-41.3	-42.2	23.5	0.00e+00	0	35	101	1048576	60	6308
2026-01-07 20:56:54.01	49.76	13.82	-41.1	-42.0	23.6	0.00e+00	0	35	101	1048576	60	6168
2026-01-07 20:56:55.02	49.58	13.87	-41.1	-42.0	23.7	0.00e+00	0	35	101	1048576	60	6145
2026-01-07 20:56:56.03	49.40	13.92	-41.1	-42.0	23.6	0.00e+00	0	35	101	1048576	60	6158
2026-01-07 20:56:57.04	49.22	13.97	-41.0	-42.0	23.7	0.00e+00	0	35	101	1048576	60	6113
2026-01-07 20:56:58.05	49.04	14.02	-41.0	-41.9	23.7	0.00e+00	0	35	101	1048576	60	6058
2026-01-07 20:56:59.06	48.86	14.07	-41.0	-42.0	23.7	0.00e+00	0	35	101	1048576	60	6106
2026-01-07 20:57:00.07	48.67	14.11	-41.0	-41.9	23.7	0.00e+00	0	35	101	1048576	60	6062
2026-01-07 20:57:01.09	48.49	14.16	-41.0	-41.9	23.5	0.00e+00	0	35	101	1048576	60	6090
2026-01-07 20:57:02.10	48.30	14.21	-40.9	-41.8	23.8	0.00e+00	0	35	101	1048576	60	5991
2026-01-07 20:57:03.11	48.12	14.26	-40.8	-41.7	23.9	0.00e+00	0	35	101	1048576	60	5945
2026-01-07 20:57:04.12	47.93	14.31	-40.9	-41.8	23.9	0.00e+00	0	35	101	1048576	60	5984
2026-01-07 20:57:05.13	47.75	14.36	-40.8	-41.7	23.9	0.00e+00	0	35	101	1048576	60	5935
2026-01-07 20:57:06.14	47.56	14.40	-40.9	-41.8	23.9	0.00e+00	0	35	101	1048576	60	6011
2026-01-07 20:57:07.15	47.37	14.45	-41.0	-42.0	23.7	0.00e+00	0	35	101	1048576	60	6112
2026-01-07 20:57:08.16	47.19	14.50	-41.1	-42.0	23.6	0.00e+00	0	35	101	1048576	60	6141
2026-01-07 20:57:09.17	47.00	14.55	-41.1	-42.1	23.7	0.00e+00	0	35	101	1048576	60	6182
2026-01-07 20:57:10.18	46.81	14.59	-41.2	-42.1	23.6	0.00e+00	0	35	101	1048576	60	6200
2026-01-07 20:57:11.19	46.62	14.64	-41.3	-42.2	23.5	0.00e+00	0	35	101	1048576	60	6296
2026-01-07 20:57:12.20	46.43	14.69	-41.5	-42.4	23.3	0.00e+00	0	35	101	1048576	60	6444
2026-01-07 20:57:13.22	46.24	14.73	-41.5	-42.5	23.3	0.00e+00	0	35	101	1048576	60	6480
2026-01-07 20:57:14.23	46.04	14.78	-41.5	-42.4	23.4	0.00e+00	0	35	101	1048576	60	6443
2026-01-07 20:57:15.24	45.85	14.82	-41.5	-42.5	23.1	0.00e+00	0	35	101	1048576	60	6515
2026-01-07 20:57:16.25	45.66	14.87	-41.4	-42.3	23.4	0.00e+00	0	35	101	1048576	60	6384
2026-01-07 20:57:17.26	45.47	14.91	-41.3	-42.3	23.4	0.00e+00	0	35	101	1048576	60	6354
2026-01-07 20:57:18.27	45.27	14.96	-41.4	-42.3	23.4	0.00e+00	0	35	101	1048576	60	6377
2026-01-07 20:57:19.28	45.08	15.00	-41.3	-42.3	23.5	0.00e+00	0	35	101	1048576	60	6344
2026-01-07 20:57:20.29	44.88	15.05	-41.3	-42.3	23.5	0.00e+00	0	35	101	1048576	60	6338
2026-01-07 20:57:21.30	44.69	15.09	-41.4	-42.3	23.5	0.00e+00	0	36	101	1048576	60	6360
2026-01-07 20:57:22.31	44.49	15.14	-41.2	-42.1	23.6	0.00e+00	0	35	101	1048576	60	6200
2026-01-07 20:57:23.33	44.29	15.18	-41.2	-42.2	23.6	0.00e+00	0	36	101	1048576	60	6263
2026-01-07 20:57:24.34	44.10	15.22	-41.3	-42.2	23.5	0.00e+00	0	35	101	1048576	60	6310
2026-01-07 20:57:25.35	43.90	15.27	-41.4	-42.3	23.5	0.00e+00	0	35	101	1048576	60	6381
2026-01-07 20:57:26.36	43.70	15.31	-41.4	-42.3	23.4	0.00e+00	0	35	101	1048576	60	6386
2026-01-07 20:57:27.37	43.50	15.35	-41.1	-42.0	23.7	0.00e+00	0	35	101	1048576	60	6127
2026-01-07 20:57:28.38	43.30	15.40	-41.1	-42.0	23.7	0.00e+00	0	35	101	1048576	60	6118
2026-01-07 20:57:29.39	43.10	15.44	-41.2	-42.1	23.6	0.00e+00	0	35	101	1048576	60	6194
2026-01-07 20:57:30.40	42.90	15.48	-41.0	-41.9	23.8	0.00e+00	0	35	101	1048576	60	6079
2026-01-07 20:57:31.41	42.70	15.52	-41.0	-41.9	23.9	0.00e+00	0	35	101	1048576	60	6063
2026-01-07 20:57:32.42	42.50	15.56	-40.9	-41.8	23.9	0.00e+00	0	35	101	1048576	60	6027
2026-01-07 20:57:33.44	42.29	15.60	-40.7	-41.6	24.1	0.00e+00	0	35	101	1048576	60	5830
2026-01-07 20:57:34.45	42.09	15.64	-40.8	-41.7	24.1	0.00e+00	0	35	101	1048576	60	5898
2026-01-07 20:57:35.46	41.89	15.68	-40.7	-41.6	24.1	0.00e+00	0	35	101	1048576	60	5843
2026-01-07 20:57:36.47	41.68	15.72	-40.8	-41.7	24.0	0.00e+00	0	35	101	1048576	60	5950
2026-01-07 20:57:37.48	41.48	15.76	-40.9	-41.8	23.9	0.00e+00	0	35	101	1048576	60	5996
2026-01-07 20:57:38.49	41.27	15.80	-40.8	-41.7	24.0	0.00e+00	0	35	101	1048576	60	5943
2026-01-07 20:57:39.50	41.07	15.84	-40.8	-41.7	24.0	0.00e+00	0	35	101	1048576	60	5928
2026-01-07 20:57:40.51	40.86	15.88	-40.8	-41.7	24.0	0.00e+00	0	35	101	1048576	60	5908
2026-01-07 20:57:41.53	40.65	15.92	-40.9	-41.8	22.8	0.00e+00	0	35	101	1048576	60	6018
2026-01-07 20:57:42.54	40.45	15.96	-40.8	-41.7	23.9	0.00e+00	0	35	101	1048576	60	5934
2026-01-07 20:57:43.55	40.24	16.00	-40.8	-41.7	24.0	0.00e+00	0	35	101	1048576	60	5908
2026-01-07 20:57:44.56	40.03	16.03	-40.9	-41.7	23.9	0.00e+00	0	35	101	1048576	60	5963
2026-01-07 20:57:45.57	39.82	16.07	-40.8	-41.7	24.0	0.00e+00	0	35	101	1048576	60	5916
2026-01-07 20:57:46.58	39.61	16.11	-40.5	-41.4	24.2	0.00e+00	0	35	101	1048576	60	5745
2026-01-07 20:57:47.59	39.40	16.14	-40.6	-41.5	24.1	0.00e+00	0	35	101	1048576	60	5790
2026-01-07 20:57:48.60	39.19	16.18	-40.5	-41.4	24.2	0.00e+00	0	35	101	1048576	60	5736
2026-01-07 20:57:49.61	38.98	16.22	-40.6	-41.4	24.2	0.00e+00	0	35	101	1048576	60	5750
2026-01-07 20:57:50.63	38.77	16.25	-40.6	-41.5	24.2	0.00e+00	0	35	101	1048576	60	5770
2026-01-07 20:57:51.64	38.55	16.29	-40.5	-41.4	24.3	0.00e+00	0	35	101	1048576	60	5719
2026-01-07 20:57:52.65	38.34	16.32	-40.6	-41.5	24.3	0.00e+00	0	35	101	1048576	60	5779
2026-01-07 20:57:53.66	38.13	16.36	-40.6	-41.5	24.2	0.00e+00	0	35	101	1048576	60	5794
2026-01-07 20:57:54.67	37.92	16.39	-40.8	-41.6	24.1	0.00e+00	0	36	101	1048576	60	5896
2026-01-07 20:57:55.68	37.70	16.42	-40.7	-41.6	24.1	0.00e+00	0	35	101	1048576	60	5851
2026-01-07 20:57:56.69	37.49	16.46	-40.9	-41.8	23.9	0.00e+00	0	35	101	1048576	60	5979
2026-01-07 20:57:57.70	37.27	16.49	-40.8	-41.7	24.0	0.00e+00	0	35	101	1048576	60	5942
2026-01-07 20:57:58.71	37.06	16.52	-40.8	-41.7	24.0	0.00e+00	0	35	101	1048576	60	5938
2026-01-07 20:57:59.72	36.84	16.56	-40.9	-41.8	23.9	0.00e+00	0	35	101	1048576	60	6025
2026-01-07 20:58:00.73	36.62	16.59	-40.9	-41.8	23.9	0.00e+00	0	35	101	1048576	60	5998
2026-01-07 20:58:01.75	36.41	16.62	-40.9	-41.8	23.9	0.00e+00	0	35	101	1048576	60	6032
2026-01-07 20:58:02.76	36.19	16.65	-41.0	-42.0	23.8	0.00e+00	0	35	101	1048576	60	6109
2026-01-07 20:58:03.76	35.97	16.68	-40.9	-41.8	23.9	0.00e+00	0	36	101	1048576	60	5975
2026-01-07 20:58:04.78	35.75	16.71	-40.7	-41.6	24.1	0.00e+00	0	35	101	1048576	60	5862
2026-01-07 20:58:05.79	35.53	16.74	-40.7	-41.6	24.1	0.00e+00	0	36	101	1048576	60	5831
2026-01-07 20:58:06.80	35.32	16.77	-40.8	-41.7	23.9	0.00e+00	0	35	101	1048576	60	5916
2026-01-07 20:58:07.81	35.10	16.80	-40.8	-41.7	24.0	0.00e+00	0	35	101	1048576	60	5931
2026-01-07 20:58:08.82	34.88	16.83	-40.9	-41.7	23.9	0.00e+00	0	35	101	1048576	60	5955
2026-01-07 20:58:09.83	34.66	16.86	-40.7	-41.6	24.1	0.00e+00	0	35	101	1048576	60	5844
2026-01-07 20:58:10.84	34.44	16.88	-40.8	-41.6	24.0	0.00e+00	0	35	101	1048576	60	5892
2026-01-07 20:58:11.85	34.21	16.91	-40.9	-41.8	23.9	0.00e+00	0	35	101	1048576	60	6027
2026-01-07 20:58:12.87	33.99	16.94	-40.9	-41.8	24.0	0.00e+00	0	35	101	1048576	60	5978
2026-01-07 20:58:13.87	33.77	16.97	-40.9	-41.8	24.0	0.00e+00	0	35	101	1048576	60	5979
2026-01-07 20:58:14.89	33.55	16.99	-41.1	-42.0	23.8	0.00e+00	0	35	101	1048576	60	6125
2026-01-07 20:58:15.90	33.32	17.02	-41.2	-42.1	23.7	0.00e+00	0	35	101	1048576	60	6208
2026-01-07 20:58:16.91	33.10	17.04	-41.4	-42.3	23.5	0.00e+00	0	35	101	1048576	60	6363
2026-01-07 20:58:17.92	32.88	17.07	-41.3	-42.2	23.4	0.00e+00	0	35	101	1048576	60	6298
2026-01-07 20:58:18.93	32.65	17.09	-41.3	-42.3	23.5	0.00e+00	0	35	101	1048576	60	6343
2026-01-07 20:58:19.94	32.43	17.12	-41.6	-42.6	23.3	0.00e+00	0	35	101	1048576	60	6540
2026-01-07 20:58:20.95	32.20	17.14	-41.6	-42.6	23.3	0.00e+00	0	35	101	1048576	60	6559
2026-01-07 20:58:21.96	31.98	17.17	-41.8	-42.8	23.0	0.00e+00	0	35	101	1048576	60	6756
2026-01-07 20:58:22.97	31.75	17.19	-41.8	-42.7	23.1	0.00e+00	0	35	101	1048576	60	6689
2026-01-07 20:58:23.98	31.53	17.21	-41.8	-42.8	23.0	0.00e+00	0	35	101	1048576	60	6739
2026-01-07 20:58:25.00	31.30	17.23	-41.6	-42.5	23.3	0.00e+00	0	35	101	1048576	60	6505
2026-01-07 20:58:26.01	31.07	17.25	-41.3	-42.2	23.6	0.00e+00	0	35	101	1048576	60	6274
2026-01-07 20:58:27.02	30.85	17.28	-41.3	-42.2	23.6	0.00e+00	0	35	101	1048576	60	6315
2026-01-07 20:58:28.03	30.62	17.30	-41.4	-42.3	23.5	0.00e+00	0	35	101	1048576	60	6375
2026-01-07 20:58:29.04	30.39	17.32	-41.5	-42.4	23.4	0.00e+00	0	35	101	1048576	60	6446
2026-01-07 20:58:30.05	30.17	17.34	-41.3	-42.3	23.6	0.00e+00	0	35	101	1048576	60	6322
2026-01-07 20:58:31.06	29.94	17.36	-41.0	-41.9	23.9	0.00e+00	0	35	101	1048576	60	6093
2026-01-07 20:58:32.07	29.71	17.38	-41.2	-42.1	23.6	0.00e+00	0	35	101	1048576	60	6213
2026-01-07 20:58:33.08	29.48	17.39	-41.3	-42.3	23.5	0.00e+00	0	35	101	1048576	60	6325
2026-01-07 20:58:34.09	29.25	17.41	-41.5	-42.4	23.4	0.00e+00	0	35	101	1048576	60	6453
2026-01-07 20:58:35.10	29.03	17.43	-41.7	-42.7	23.2	0.00e+00	0	35	101	1048576	60	6651
2026-01-07 20:58:36.11	28.80	17.45	-41.8	-42.8	23.0	0.00e+00	0	35	101	1048576	60	6704
2026-01-07 20:58:37.12	28.57	17.46	-41.8	-42.8	23.1	0.00e+00	0	35	101	1048576	60	6757
2026-01-07 20:58:38.14	28.33	17.48	-41.7	-42.7	23.2	0.00e+00	0	35	101	1048576	60	6674
2026-01-07 20:58:39.15	28.10	17.50	-41.7	-42.7	23.2	0.00e+00	0	35	101	1048576	60	6627
2026-01-07 20:58:40.16	27.87	17.51	-41.8	-42.7	23.0	0.00e+00	0	35	101	1048576	60	6689
2026-01-07 20:58:41.17	27.64	17.53	-41.9	-42.9	22.8	0.00e+00	0	35	101	1048576	60	6814
2026-01-07 20:58:42.18	27.41	17.54	-42.0	-43.0	23.0	0.00e+00	0	35	101	1048576	60	6870
2026-01-07 20:58:43.19	27.18	17.55	-41.9	-42.8	23.0	0.00e+00	0	35	101	1048576	60	6768
2026-01-07 20:58:44.20	26.95	17.57	-41.8	-42.7	23.2	0.00e+00	0	35	101	1048576	60	6685
2026-01-07 20:58:45.21	26.72	17.58	-41.7	-42.7	23.2	0.00e+00	0	35	101	1048576	60	6637
2026-01-07 20:58:46.22	26.49	17.59	-41.8	-42.8	23.1	0.00e+00	0	35	101	1048576	60	6716
2026-01-07 20:58:47.23	26.26	17.60	-41.9	-42.9	22.9	0.00e+00	0	35	101	1048576	60	6838
2026-01-07 20:58:48.24	26.03	17.62	-42.0	-43.0	22.9	0.00e+00	0	35	101	1048576	60	6907
2026-01-07 20:58:49.25	25.79	17.63	-42.1	-43.1	22.9	0.00e+00	0	35	101	1048576	60	6990
2026-01-07 20:58:50.26	25.56	17.64	-42.1	-43.2	22.8	0.00e+00	0	35	101	1048576	60	7014
2026-01-07 20:58:51.28	25.33	17.65	-42.2	-43.2	22.7	0.00e+00	0	35	101	1048576	60	7045
2026-01-07 20:58:52.29	25.10	17.66	-41.9	-42.9	23.0	0.00e+00	0	35	101	1048576	60	6820
2026-01-07 20:58:53.30	24.86	17.67	-41.8	-42.7	23.1	0.00e+00	0	35	101	1048576	60	6676
2026-01-07 20:58:54.31	24.63	17.67	-41.9	-42.9	23.1	0.00e+00	0	35	101	1048576	60	6841
2026-01-07 20:58:55.32	24.40	17.68	-41.9	-42.9	23.1	0.00e+00	0	35	101	1048576	60	6785
2026-01-07 20:58:56.33	24.16	17.69	-42.0	-43.0	23.0	0.00e+00	0	35	101	1048576	60	6857
2026-01-07 20:58:57.34	23.93	17.70	-41.9	-42.8	23.1	0.00e+00	0	35	101	1048576	60	6769
2026-01-07 20:58:58.35	23.70	17.70	-41.8	-42.8	23.1	0.00e+00	0	35	101	1048576	60	6733
2026-01-07 20:58:59.36	23.46	17.71	-41.8	-42.8	23.1	0.00e+00	0	35	101	1048576	60	6711
2026-01-07 20:59:00.38	23.23	17.72	-41.7	-42.7	23.2	0.00e+00	0	35	101	1048576	60	6627
2026-01-07 20:59:01.39	23.00	17.72	-41.7	-42.6	23.2	0.00e+00	0	35	101	1048576	60	6585
2026-01-07 20:59:02.40	22.76	17.73	-41.6	-42.6	23.2	0.00e+00	0	35	101	1048576	60	6543
2026-01-07 20:59:03.41	22.53	17.73	-41.7	-42.7	23.1	0.00e+00	0	35	101	1048576	60	6663
2026-01-07 20:59:04.42	22.30	17.73	-41.9	-42.9	23.0	0.00e+00	0	35	101	1048576	60	6814
2026-01-07 20:59:05.43	22.06	17.74	-41.9	-42.9	22.9	0.00e+00	0	35	101	1048576	60	6827
2026-01-07 20:59:06.44	21.83	17.74	-42.0	-43.0	22.9	0.00e+00	0	35	101	1048576	60	6899
2026-01-07 20:59:07.45	21.59	17.74	-41.9	-42.9	23.0	0.00e+00	0	35	101	1048576	60	6820
2026-01-07 20:59:08.46	21.36	17.74	-42.1	-43.1	22.9	0.00e+00	0	35	101	1048576	60	6965
2026-01-07 20:59:09.47	21.13	17.75	-42.0	-43.0	23.0	0.00e+00	0	35	101	1048576	60	6872
2026-01-07 20:59:10.49	20.89	17.75	-41.7	-42.7	23.1	0.00e+00	0	35	101	1048576	60	6645
2026-01-07 20:59:11.50	20.66	17.75	-41.8	-42.7	23.1	0.00e+00	0	35	101	1048576	60	6683
2026-01-07 20:59:12.51	20.42	17.75	-41.7	-42.7	23.2	0.00e+00	0	35	101	1048576	60	6643
2026-01-07 20:59:13.52	20.19	17.75	-41.8	-42.8	23.1	0.00e+00	0	35	101	1048576	60	6700
2026-01-07 20:59:14.53	19.95	17.74	-41.8	-42.8	22.9	0.00e+00	0	35	101	1048576	60	6707
2026-01-07 20:59:15.54	19.72	17.74	-41.8	-42.7	23.1	0.00e+00	0	35	101	1048576	60	6676
2026-01-07 20:59:16.55	19.49	17.74	-42.0	-43.1	22.7	0.00e+00	0	35	101	1048576	60	6928
2026-01-07 20:59:17.56	19.25	17.74	-41.7	-42.6	23.1	0.00e+00	0	35	101	1048576	60	6608
2026-01-07 20:59:18.57	19.02	17.74	-41.8	-42.8	23.1	0.00e+00	0	36	101	1048576	60	6730
2026-01-07 20:59:19.58	18.79	17.73	-41.7	-42.7	23.1	0.00e+00	0	35	101	1048576	60	6666
2026-01-07 20:59:20.59	18.55	17.73	-41.6	-42.5	23.3	0.00e+00	0	35	101	1048576	60	6509
2026-01-07 20:59:21.60	18.32	17.72	-41.7	-42.6	23.2	0.00e+00	0	35	101	1048576	60	6600
2026-01-07 20:59:22.61	18.09	17.72	-41.7	-42.7	23.2	0.00e+00	0	36	101	1048576	60	6623
2026-01-07 20:59:23.62	17.85	17.71	-41.6	-42.6	23.3	0.00e+00	0	35	101	1048576	60	6552
2026-01-07 20:59:24.63	17.62	17.71	-41.4	-42.3	23.5	0.00e+00	0	35	101	1048576	60	6381
2026-01-07 20:59:25.65	17.38	17.70	-41.3	-42.2	23.6	0.00e+00	0	35	101	1048576	60	6316
2026-01-07 20:59:26.66	17.15	17.69	-41.2	-42.1	23.7	0.00e+00	0	35	101	1048576	60	6212
2026-01-07 20:59:27.67	16.92	17.68	-41.1	-42.0	23.8	0.00e+00	0	35	101	1048576	60	6160
2026-01-07 20:59:28.68	16.69	17.68	-41.2	-42.1	23.8	0.00e+00	0	35	101	1048576	60	6183
2026-01-07 20:59:29.69	16.45	17.67	-41.1	-42.1	23.7	0.00e+00	0	35	101	1048576	60	6183
2026-01-07 20:59:30.70	16.22	17.66	-41.2	-42.1	23.7	0.00e+00	0	36	101	1048576	60	6230
2026-01-07 20:59:31.71	15.99	17.65	-41.2	-42.1	23.8	0.00e+00	0	35	101	1048576	60	6204
2026-01-07 20:59:32.72	15.76	17.64	-41.2	-42.1	23.7	0.00e+00	0	35	101	1048576	60	6191
2026-01-07 20:59:33.73	15.52	17.63	-41.2	-42.1	23.7	0.00e+00	0	36	101	1048576	60	6230
2026-01-07 20:59:34.74	15.29	17.62	-41.5	-42.4	23.5	0.00e+00	0	36	101	1048576	60	6440
2026-01-07 20:59:35.75	15.06	17.61	-41.0	-41.9	23.6	0.00e+00	0	36	101	1048576	60	6089
2026-01-07 20:59:36.76	14.83	17.60	-41.2	-42.1	23.7	0.00e+00	0	35	101	1048576	60	6195
2026-01-07 20:59:37.77	14.60	17.58	-40.9	-41.8	24.0	0.00e+00	0	35	101	1048576	60	5972
2026-01-07 20:59:38.78	14.37	17.57	-40.7	-41.6	24.1	0.00e+00	0	36	101	1048576	60	5876
2026-01-07 20:59:39.80	14.13	17.56	-40.9	-41.8	24.0	0.00e+00	0	36	101	1048576	60	5974
2026-01-07 20:59:40.81	13.90	17.54	-40.8	-41.7	24.1	0.00e+00	0	35	101	1048576	60	5916
2026-01-07 20:59:41.82	13.67	17.53	-40.9	-41.8	24.0	0.00e+00	0	35	101	1048576	60	6012
2026-01-07 20:59:42.83	13.44	17.51	-40.7	-41.6	24.2	0.00e+00	0	35	101	1048576	60	5853
2026-01-07 20:59:43.84	13.21	17.50	-40.7	-41.6	24.2	0.00e+00	0	35	101	1048576	60	5838
2026-01-07 20:59:44.85	12.98	17.48	-40.6	-41.5	24.3	0.00e+00	0	35	101	1048576	60	5803
2026-01-07 20:59:45.86	12.75	17.47	-40.5	-41.4	24.3	0.00e+00	0	35	101	1048576	60	5698
2026-01-07 20:59:46.87	12.52	17.45	-40.3	-41.2	24.3	0.00e+00	0	35	101	1048576	60	5570
2026-01-07 20:59:47.88	12.29	17.43	-40.3	-41.1	24.6	0.00e+00	0	35	101	1048576	60	5536
2026-01-07 20:59:48.89	12.07	17.42	-40.2	-41.1	24.6	0.00e+00	0	35	101	1048576	60	5514
2026-01-07 20:59:49.90	11.84	17.40	-40.4	-41.3	24.3	0.00e+00	0	35	101	1048576	60	5643
2026-01-07 20:59:50.91	11.61	17.38	-40.4	-41.3	24.4	0.00e+00	0	35	101	1048576	60	5635
2026-01-07 20:59:51.92	11.38	17.36	-40.6	-41.5	24.3	0.00e+00	0	35	101	1048576	60	5806
2026-01-07 20:59:52.94	11.15	17.34	-40.7	-41.5	24.1	0.00e+00	0	35	101	1048576	60	5828
2026-01-07 20:59:53.95	10.92	17.32	-40.8	-41.7	24.0	0.00e+00	0	35	101	1048576	60	5950
2026-01-07 20:59:54.96	10.70	17.30	-40.7	-41.6	24.1	0.00e+00	0	35	101	1048576	60	5880
2026-01-07 20:59:55.97	10.47	17.28	-40.8	-41.7	24.1	0.00e+00	0	36	101	1048576	60	5931
2026-01-07 20:59:56.98	10.24	17.26	-40.7	-41.5	24.2	0.00e+00	0	35	101	1048576	60	5825
2026-01-07 20:59:57.99	10.02	17.24	-40.7	-41.6	24.0	0.00e+00	0	35	101	1048576	60	5858
2026-01-07 20:59:59.00	9.79	17.22	-40.7	-41.6	24.1	0.00e+00	0	35	101	1048576	60	5840
2026-01-07 21:00:00.01	9.57	17.19	-40.8	-41.7	24.1	0.00e+00	0	35	101	1048576	60	5916
2026-01-07 21:00:01.02	9.34	17.17	-40.7	-41.6	24.0	0.00e+00	0	35	101	1048576	60	5893
2026-01-07 21:00:02.03	9.12	17.15	-41.0	-41.9	23.9	0.00e+00	0	35	101	1048576	60	6049
2026-01-07 21:00:03.05	8.89	17.12	-41.0	-41.9	23.9	0.00e+00	0	35	101	1048576	60	6050
2026-01-07 21:00:04.06	8.67	17.10	-41.0	-41.9	23.9	0.00e+00	0	35	101	1048576	60	6062
2026-01-07 21:00:05.07	8.44	17.07	-41.1	-42.0	23.8	0.00e+00	0	35	101	1048576	60	6166
2026-01-07 21:00:06.08	8.22	17.05	-41.0	-42.0	23.8	0.00e+00	0	35	101	1048576	60	6111
2026-01-07 21:00:07.09	8.00	17.02	-41.0	-41.9	23.8	0.00e+00	0	35	101	1048576	60	6087
2026-01-07 21:00:08.10	7.77	17.00	-41.0	-41.9	23.9	0.00e+00	0	35	101	1048576	60	6043
2026-01-07 21:00:09.11	7.55	16.97	-41.0	-41.9	23.8	0.00e+00	0	35	101	1048576	60	6071
2026-01-07 21:00:10.12	7.33	16.95	-41.1	-42.0	23.7	0.00e+00	0	35	101	1048576	60	6118
2026-01-07 21:00:11.14	7.11	16.92	-41.2	-42.1	23.7	0.00e+00	0	36	101	1048576	60	6242
2026-01-07 21:00:12.15	6.89	16.89	-41.3	-42.2	23.6	0.00e+00	0	35	101	1048576	60	6300
2026-01-07 21:00:13.16	6.67	16.86	-41.4	-42.4	23.4	0.00e+00	0	35	101	1048576	60	6403
2026-01-07 21:00:14.17	6.45	16.84	-41.5	-42.4	23.5	0.00e+00	0	35	101	1048576	60	6432
2026-01-07 21:00:15.18	6.23	16.81	-41.6	-42.5	23.3	0.00e+00	0	36	101	1048576	60	6518
2026-01-07 21:00:16.19	6.01	16.78	-41.5	-42.5	23.4	0.00e+00	0	36	101	1048576	60	6472
2026-01-07 21:00:17.20	5.79	16.75	-41.5	-42.5	23.4	0.00e+00	0	35	101	1048576	60	6486
2026-01-07 21:00:18.21	5.57	16.72	-41.5	-42.5	23.4	0.00e+00	0	35	101	1048576	60	6476
2026-01-07 21:00:19.22	5.35	16.69	-41.6	-42.6	23.3	0.00e+00	0	35	101	1048576	60	6555
2026-01-07 21:00:20.23	5.13	16.66	-41.7	-42.6	23.2	0.00e+00	0	35	101	1048576	60	6601
2026-01-07 21:00:21.25	4.91	16.63	-41.7	-42.6	23.3	0.00e+00	0	35	101	1048576	60	6608
2026-01-07 21:00:22.26	4.70	16.59	-41.8	-42.7	23.1	0.00e+00	0	35	101	1048576	60	6685
2026-01-07 21:00:23.27	4.48	16.56	-41.9	-42.9	23.0	0.00e+00	0	35	101	1048576	60	6809
2026-01-07 21:00:24.28	4.27	16.53	-41.6	-42.6	23.3	0.00e+00	0	36	101	1048576	60	6543
2026-01-07 21:00:25.29	4.05	16.50	-41.5	-42.4	23.4	0.00e+00	0	35	101	1048576	60	6459
2026-01-07 21:00:26.30	3.84	16.47	-41.5	-42.5	23.4	0.00e+00	0	35	101	1048576	60	6493
2026-01-07 21:00:27.31	3.62	16.43	-41.5	-42.5	23.4	0.00e+00	0	35	101	1048576	60	6482
2026-01-07 21:00:28.32	3.41	16.40	-41.5	-42.4	23.5	0.00e+00	0	35	101	1048576	60	6462
2026-01-07 21:00:29.34	3.19	16.36	-41.4	-42.4	23.5	0.00e+00	0	36	101	1048576	60	6394
2026-01-07 21:00:30.35	2.98	16.33	-41.1	-42.1	23.7	0.00e+00	0	35	101	1048576	60	6181
2026-01-07 21:00:31.36	2.77	16.30	-41.3	-42.2	23.6	0.00e+00	0	35	101	1048576	60	6307
2026-01-07 21:00:32.37	2.56	16.26	-41.1	-42.0	23.8	0.00e+00	0	35	101	1048576	60	6171
2026-01-07 21:00:33.38	2.35	16.23	-41.2	-42.1	23.7	0.00e+00	0	35	101	1048576	60	6200
2026-01-07 21:00:34.39	2.14	16.19	-41.4	-42.3	23.2	0.00e+00	0	35	101	1048576	60	6360
2026-01-07 21:00:35.40	1.93	16.15	-41.2	-42.1	23.6	0.00e+00	0	35	101	1048576	60	6245
2026-01-07 21:00:36.41	1.72	16.12	-41.3	-42.3	23.5	0.00e+00	0	36	101	1048576	60	6336
2026-01-07 21:00:37.42	1.51	16.08	-41.3	-42.2	23.6	0.00e+00	0	35	101	1048576	60	6281
2026-01-07 21:00:38.44	1.30	16.04	-41.3	-42.2	23.5	0.00e+00	0	35	101	1048576	60	6294
2026-01-07 21:00:39.45	1.09	16.01	-41.4	-42.3	23.5	0.00e+00	0	35	101	1048576	60	6367
2026-01-07 21:00:40.46	0.88	15.97	-41.5	-42.4	23.4	0.00e+00	0	35	101	1048576	60	6437
2026-01-07 21:00:41.47	0.67	15.93	-41.4	-42.4	23.4	0.00e+00	0	35	101	1048576	60	6429
2026-01-07 21:00:42.48	0.47	15.89	-41.6	-42.5	23.3	0.00e+00	0	35	101	1048576	60	6539
2026-01-07 21:00:43.49	0.26	15.85	-41.5	-42.4	23.4	0.00e+00	0	35	101	1048576	60	6438
2026-01-07 21:00:44.50	0.05	15.81	-41.4	-42.4	23.5	0.00e+00	0	35	101	1048576	60	6406
2026-01-07 21:00:45.51	359.85	15.77	-41.9	-42.9	23.3	0.00e+00	0	35	101	1048576	60	6776
2026-01-07 21:00:46.52	359.65	15.74	-41.8	-42.8	23.2	0.00e+00	0	35	101	1048576	60	6719
2026-01-07 21:00:47.53	359.44	15.70	-41.3	-42.3	23.4	0.00e+00	0	35	101	1048576	60	6342
2026-01-07 21:00:48.54	359.24	15.66	-41.5	-42.4	23.5	0.00e+00	0	35	101	1048576	60	6437
2026-01-07 21:00:49.55	359.04	15.61	-41.3	-42.2	23.5	0.00e+00	0	36	101	1048576	60	6273
2026-01-07 21:00:50.56	358.83	15.57	-41.3	-42.3	23.5	0.00e+00	0	35	101	1048576	60	6340
2026-01-07 21:00:51.58	358.63	15.53	-41.4	-42.3	23.5	0.00e+00	0	35	101	1048576	60	6371
2026-01-07 21:00:52.59	358.43	15.49	-41.6	-42.6	23.3	0.00e+00	0	35	101	1048576	60	6565
2026-01-07 21:00:53.60	358.23	15.45	-41.7	-42.7	23.2	0.00e+00	0	36	101	1048576	60	6638
2026-01-07 21:00:54.61	358.03	15.41	-41.9	-42.9	23.0	0.00e+00	0	36	101	1048576	60	6780
2026-01-07 21:00:55.62	357.83	15.37	-41.8	-42.8	23.0	0.00e+00	0	35	101	1048576	60	6767
2026-01-07 21:00:56.63	357.63	15.32	-41.9	-42.9	23.1	0.00e+00	0	36	101	1048576	60	6771
2026-01-07 21:00:57.64	357.43	15.28	-41.7	-42.7	23.1	0.00e+00	0	36	101	1048576	60	6673
2026-01-07 21:00:58.65	357.24	15.24	-41.8	-42.8	23.1	0.00e+00	0	35	101	1048576	60	6748
2026-01-07 21:00:59.66	357.04	15.19	-41.6	-42.6	23.3	0.00e+00	0	36	101	1048576	60	6573
2026-01-07 21:01:00.67	356.84	15.15	-41.7	-42.7	23.2	0.00e+00	0	35	101	1048576	60	6653
2026-01-07 21:01:01.68	356.65	15.11	-41.9	-42.9	22.9	0.00e+00	0	36	101	1048576	60	6803
2026-01-07 21:01:02.69	356.45	15.06	-41.8	-42.8	23.1	0.00e+00	0	36	101	1048576	60	6716
2026-01-07 21:01:03.70	356.26	15.02	-41.8	-42.8	23.0	0.00e+00	0	35	101	1048576	60	6731
2026-01-07 21:01:04.71	356.06	14.97	-42.0	-43.1	22.8	0.00e+00	0	35	101	1048576	60	6935
2026-01-07 21:01:05.72	355.87	14.93	-42.1	-43.1	22.8	0.00e+00	0	35	101	1048576	60	6965
2026-01-07 21:01:06.74	355.67	14.88	-42.0	-43.0	22.8	0.00e+00	0	35	101	1048576	60	6906
2026-01-07 21:01:07.75	355.48	14.84	-42.0	-43.0	22.8	0.00e+00	0	36	101	1048576	60	6919
2026-01-07 21:01:08.76	355.29	14.79	-42.0	-43.0	22.8	0.00e+00	0	35	101	1048576	60	6880
2026-01-07 21:01:09.77	355.10	14.75	-41.9	-42.9	22.8	0.00e+00	0	35	101	1048576	60	6840
2026-01-07 21:01:10.78	354.91	14.70	-41.9	-42.9	22.8	0.00e+00	0	36	101	1048576	60	6843
2026-01-07 21:01:11.79	354.72	14.65	-42.1	-43.1	22.7	0.00e+00	0	35	101	1048576	60	6954
2026-01-07 21:01:12.80	354.53	14.61	-42.1	-43.1	22.8	0.00e+00	0	35	101	1048576	60	6945
2026-01-07 21:01:13.81	354.34	14.56	-42.2	-43.2	22.6	0.00e+00	0	36	101	1048576	60	7084
2026-01-07 21:01:14.82	354.15	14.51	-42.3	-43.3	22.6	0.00e+00	0	36	101	1048576	60	7149
2026-01-07 21:01:15.83	353.97	14.47	-42.2	-43.2	22.7	0.00e+00	0	35	101	1048576	60	7076
2026-01-07 21:01:16.85	353.78	14.42	-42.2	-43.2	22.5	0.00e+00	0	36	101	1048576	60	7068
2026-01-07 21:01:17.86	353.59	14.37	-42.3	-43.4	22.5	0.00e+00	0	35	101	1048576	60	7195
2026-01-07 21:01:18.87	353.40	14.32	-42.4	-43.4	22.4	0.00e+00	0	35	101	1048576	60	7245
2026-01-07 21:01:19.88	353.22	14.28	-42.6	-43.6	22.3	0.00e+00	0	36	101	1048576	60	7407
2026-01-07 21:01:20.89	353.04	14.23	-42.5	-43.6	22.4	0.00e+00	0	36	101	1048576	60	7390
2026-01-07 21:01:21.90	352.85	14.18	-42.6	-43.7	22.1	0.00e+00	0	36	101	1048576	60	7490
2026-01-07 21:01:22.92	352.67	14.13	-42.7	-43.8	22.2	0.00e+00	0	35	101	1048576	60	7547
2026-01-07 21:01:23.93	352.48	14.08	-42.9	-44.0	21.9	0.00e+00	0	36	101	1048576	60	7700
2026-01-07 21:01:24.93	352.30	14.03	-42.9	-44.0	22.0	0.00e+00	0	36	101	1048576	60	7729
2026-01-07 21:01:25.94	352.12	13.98	-43.0	-44.1	21.8	0.00e+00	0	35	101	1048576	60	7857
2026-01-07 21:01:26.96	351.94	13.93	-43.1	-44.3	21.6	0.00e+00	0	35	101	1048576	60	7988
2026-01-07 21:01:27.97	351.76	13.88	-43.3	-44.4	21.6	0.00e+00	0	35	101	1048576	60	8111
2026-01-07 21:01:28.98	351.58	13.83	-43.0	-44.2	21.8	0.00e+00	0	36	101	1048576	60	7883
2026-01-07 21:01:29.99	351.40	13.78	-43.2	-44.4	21.6	0.00e+00	0	35	101	1048576	60	8100
2026-01-07 21:01:31.00	351.22	13.73	-43.0	-44.2	21.7	0.00e+00	0	36	101	1048576	60	7893
2026-01-07 21:01:32.01	351.05	13.68	-42.8	-43.9	22.0	0.00e+00	0	36	101	1048576	60	7642
2026-01-07 21:01:33.02	350.87	13.63	-42.8	-43.9	22.0	0.00e+00	0	35	101	1048576	60	7659
2026-01-07 21:01:34.03	350.69	13.58	-42.8	-43.9	21.8	0.00e+00	0	35	101	1048576	60	7648
2026-01-07 21:01:35.04	350.52	13.53	-43.1	-44.3	21.6	0.00e+00	0	35	101	1048576	60	7997
2026-01-07 21:01:36.05	350.34	13.48	-43.2	-44.4	21.4	0.00e+00	0	36	101	1048576	60	8060
2026-01-07 21:01:37.07	350.16	13.43	-43.4	-44.7	21.2	0.00e+00	0	36	101	1048576	60	8333
2026-01-07 21:01:38.08	349.99	13.38	-43.6	-44.8	21.0	0.00e+00	0	36	101	1048576	60	8487
2026-01-07 21:01:39.09	349.82	13.33	-43.6	-44.8	21.1	0.00e+00	0	35	101	1048576	60	8485
2026-01-07 21:01:40.10	349.64	13.28	-43.6	-44.9	21.1	0.00e+00	0	36	101	1048576	60	8541
2026-01-07 21:01:41.11	349.47	13.22	-43.6	-44.9	21.1	0.00e+00	0	36	101	1048576	60	8564
2026-01-07 21:01:42.12	349.30	13.17	-43.5	-44.8	21.1	0.00e+00	0	36	101	1048576	60	8431
2026-01-07 21:01:43.13	349.13	13.12	-43.4	-44.6	21.3	0.00e+00	0	36	101	1048576	60	8241
2026-01-07 21:01:44.14	348.96	13.07	-43.6	-44.8	21.1	0.00e+00	0	36	101	1048576	60	8503
2026-01-07 21:01:45.15	348.79	13.02	-43.4	-44.6	21.3	0.00e+00	0	36	101	1048576	60	8258
2026-01-07 21:01:46.16	348.62	12.96	-43.6	-44.8	21.0	0.00e+00	0	36	101	1048576	60	8501
2026-01-07 21:01:47.17	348.45	12.91	-43.4	-44.6	21.3	0.00e+00	0	36	101	1048576	60	8290
2026-01-07 21:01:48.18	348.28	12.86	-43.6	-44.8	21.1	0.00e+00	0	36	101	1048576	60	8492
2026-01-07 21:01:49.20	348.12	12.81	-43.6	-44.8	21.1	0.00e+00	0	36	101	1048576	60	8512
2026-01-07 21:01:50.21	347.95	12.75	-43.5	-44.7	21.1	0.00e+00	0	36	101	1048576	60	8408
2026-01-07 21:01:51.22	347.78	12.70	-43.4	-44.7	21.2	0.00e+00	0	36	101	1048576	60	8348
2026-01-07 21:01:52.23	347.62	12.65	-43.5	-44.7	21.2	0.00e+00	0	36	101	1048576	60	8412
2026-01-07 21:01:53.24	347.45	12.59	-43.6	-44.8	21.1	0.00e+00	0	36	101	1048576	60	8488
2026-01-07 21:01:54.25	347.29	12.54	-43.5	-44.7	21.1	0.00e+00	0	35	101	1048576	60	8382
2026-01-07 21:01:55.26	347.12	12.49	-43.5	-44.8	21.1	0.00e+00	0	35	101	1048576	60	8443
2026-01-07 21:01:56.27	346.96	12.43	-43.5	-44.7	21.1	0.00e+00	0	35	101	1048576	60	8391
2026-01-07 21:01:57.28	346.80	12.38	-43.5	-44.7	21.2	0.00e+00	0	36	101	1048576	60	8416
2026-01-07 21:01:58.30	346.64	12.32	-43.6	-44.8	21.1	0.00e+00	0	35	101	1048576	60	8493
2026-01-07 21:01:59.31	346.47	12.27	-43.7	-45.0	21.0	0.00e+00	0	36	101	1048576	60	8630
2026-01-07 21:02:00.32	346.31	12.22	-43.6	-44.9	21.0	0.00e+00	0	36	101	1048576	60	8546
2026-01-07 21:02:01.33	346.15	12.16	-43.7	-45.0	20.9	0.00e+00	0	35	101	1048576	60	8649
2026-01-07 21:02:02.34	345.99	12.11	-43.6	-44.8	21.0	0.00e+00	0	36	101	1048576	60	8486
2026-01-07 21:02:03.35	345.84	12.05	-43.7	-45.0	20.9	0.00e+00	0	36	101	1048576	60	8625
2026-01-07 21:02:04.36	345.68	12.00	-43.5	-44.7	21.1	0.00e+00	0	35	101	1048576	60	8380
2026-01-07 21:02:05.37	345.52	11.94	-43.5	-44.7	21.3	0.00e+00	0	36	101	1048576	60	8408
2026-01-07 21:02:06.38	345.36	11.89	-43.4	-44.6	21.2	0.00e+00	0	35	101	1048576	60	8295
2026-01-07 21:02:07.39	345.21	11.83	-43.1	-44.3	21.5	0.00e+00	0	36	101	1048576	60	8002
2026-01-07 21:02:08.40	345.05	11.78	-43.0	-44.1	21.6	0.00e+00	0	36	101	1048576	60	7852
2026-01-07 21:02:09.42	344.89	11.72	-43.0	-44.1	21.6	0.00e+00	0	35	101	1048576	60	7843
2026-01-07 21:02:10.43	344.74	11.67	-43.0	-44.1	21.7	0.00e+00	0	36	101	1048576	60	7824
2026-01-07 21:02:11.44	344.59	11.61	-42.8	-44.0	21.8	0.00e+00	0	36	101	1048576	60	7703
2026-01-07 21:02:12.45	344.43	11.56	-42.9	-44.1	21.7	0.00e+00	0	36	101	1048576	60	7774
2026-01-07 21:02:13.46	344.28	11.50	-42.9	-44.0	21.8	0.00e+00	0	36	101	1048576	60	7727
2026-01-07 21:02:14.47	344.13	11.45	-42.9	-44.0	21.8	0.00e+00	0	35	101	1048576	60	7720
2026-01-07 21:02:15.48	343.98	11.39	-42.8	-43.9	21.9	0.00e+00	0	36	101	1048576	60	7646
2026-01-07 21:02:16.49	343.82	11.34	-42.8	-43.9	21.9	0.00e+00	0	36	101	1048576	60	7663
2026-01-07 21:02:17.50	343.67	11.28	-42.6	-43.7	22.0	0.00e+00	0	35	101	1048576	60	7507
2026-01-07 21:02:18.51	343.52	11.23	-42.8	-43.9	21.8	0.00e+00	0	35	101	1048576	60	7661
2026-01-07 21:02:19.53	343.37	11.17	-43.0	-44.2	21.5	0.00e+00	0	36	101	1048576	60	7882
2026-01-07 21:02:20.54	343.22	11.12	-43.1	-44.3	21.5	0.00e+00	0	36	101	1048576	60	8002
2026-01-07 21:02:21.55	343.08	11.06	-42.6	-43.7	22.0	0.00e+00	0	36	101	1048576	60	7469
2026-01-07 21:02:22.56	342.93	11.00	-42.8	-43.9	21.8	0.00e+00	0	36	101	1048576	60	7631
2026-01-07 21:02:23.57	342.78	10.95	-42.6	-43.7	22.0	0.00e+00	0	36	101	1048576	60	7450
2026-01-07 21:02:24.58	342.63	10.89	-42.5	-43.6	22.0	0.00e+00	0	36	101	1048576	60	7407
2026-01-07 21:02:25.59	342.49	10.84	-42.6	-43.7	22.1	0.00e+00	0	36	101	1048576	60	7443
2026-01-07 21:02:26.60	342.34	10.78	-42.3	-43.4	22.4	0.00e+00	0	36	101	1048576	60	7192
2026-01-07 21:02:27.61	342.20	10.72	-42.4	-43.5	22.1	0.00e+00	0	35	101	1048576	60	7278
2026-01-07 21:02:28.62	342.05	10.67	-42.2	-43.2	22.5	0.00e+00	0	36	101	1048576	60	7075
2026-01-07 21:02:29.63	341.91	10.61	-42.1	-43.2	22.5	0.00e+00	0	36	101	1048576	60	7031
2026-01-07 21:02:30.64	341.77	10.56	-42.0	-43.0	22.7	0.00e+00	0	36	101	1048576	60	6912
2026-01-07 21:02:31.65	341.63	10.50	-42.0	-43.0	22.5	0.00e+00	0	36	101	1048576	60	6898
2026-01-07 21:02:32.66	341.48	10.44	-41.9	-43.0	22.7	0.00e+00	0	36	101	1048576	60	6876
2026-01-07 21:02:33.68	341.34	10.39	-41.9	-43.0	22.6	0.00e+00	0	36	101	1048576	60	6857
2026-01-07 21:02:34.69	341.20	10.33	-41.9	-42.9	22.8	0.00e+00	0	36	101	1048576	60	6807
2026-01-07 21:02:35.70	341.06	10.27	-41.9	-42.9	22.7	0.00e+00	0	36	101	1048576	60	6804
2026-01-07 21:02:36.71	340.92	10.22	-41.7	-42.8	22.9	0.00e+00	0	36	101	1048576	60	6695
2026-01-07 21:02:37.72	340.78	10.16	-41.8	-42.8	22.9	0.00e+00	0	35	101	1048576	60	6711
2026-01-07 21:02:38.73	340.64	10.10	-41.8	-42.8	22.8	0.00e+00	0	36	101	1048576	60	6714
2026-01-07 21:02:39.74	340.50	10.05	-41.8	-42.8	22.8	0.00e+00	0	36	101	1048576	60	6718
2026-01-07 21:02:40.75	340.37	9.99	-41.9	-42.9	22.8	0.00e+00	0	36	101	1048576	60	6819
2026-01-07 21:02:41.76	340.23	9.93	-41.7	-42.7	22.9	0.00e+00	0	36	101	1048576	60	6634
2026-01-07 21:02:42.77	340.09	9.88	-41.8	-42.9	22.6	0.00e+00	0	36	101	1048576	60	6777
2026-01-07 21:02:43.78	339.96	9.82	-41.6	-42.6	22.9	0.00e+00	0	36	101	1048576	60	6593
2026-01-07 21:02:44.79	339.82	9.76	-41.6	-42.6	22.7	0.00e+00	0	36	101	1048576	60	6615
2026-01-07 21:02:45.80	339.69	9.71	-41.6	-42.6	22.9	0.00e+00	0	36	101	1048576	60	6612
2026-01-07 21:02:46.82	339.55	9.65	-41.4	-42.4	23.0	0.00e+00	0	36	101	1048576	60	6426
2026-01-07 21:02:47.83	339.42	9.59	-41.3	-42.3	23.2	0.00e+00	0	36	101	1048576	60	6367
2026-01-07 21:02:48.84	339.28	9.54	-41.4	-42.4	23.0	0.00e+00	0	36	101	1048576	60	6455
2026-01-07 21:02:49.85	339.15	9.48	-41.4	-42.4	23.1	0.00e+00	0	36	101	1048576	60	6403
2026-01-07 21:02:50.86	339.02	9.42	-41.4	-42.4	22.6	0.00e+00	0	36	101	1048576	60	6427
2026-01-07 21:02:51.87	338.89	9.36	-41.5	-42.5	22.9	0.00e+00	0	36	101	1048576	60	6479
2026-01-07 21:02:52.88	338.76	9.31	-41.6	-42.6	22.9	0.00e+00	0	35	101	1048576	60	6580
2026-01-07 21:02:53.89	338.63	9.25	-41.6	-42.6	22.9	0.00e+00	0	36	101	1048576	60	6609
2026-01-07 21:02:54.90	338.50	9.19	-41.6	-42.6	22.9	0.00e+00	0	36	101	1048576	60	6569
2026-01-07 21:02:55.91	338.37	9.14	-41.6	-42.7	22.8	0.00e+00	0	35	101	1048576	60	6636
2026-01-07 21:02:56.92	338.24	9.08	-41.7	-42.8	22.9	0.00e+00	0	36	101	1048576	60	6694
2026-01-07 21:02:57.93	338.11	9.02	-41.7	-42.8	22.8	0.00e+00	0	35	101	1048576	60	6707
2026-01-07 21:02:58.94	337.98	8.97	-41.6	-42.7	22.9	0.00e+00	0	36	101	1048576	60	6623
2026-01-07 21:02:59.95	337.85	8.91	-41.8	-42.8	22.8	0.00e+00	0	36	101	1048576	60	6718
2026-01-07 21:03:00.96	337.73	8.85	-42.0	-43.0	22.6	0.00e+00	0	36	101	1048576	60	6913
2026-01-07 21:03:01.98	337.60	8.79	-41.9	-42.9	22.7	0.00e+00	0	35	101	1048576	60	6806
2026-01-07 21:03:02.99	337.47	8.74	-42.1	-43.1	22.4	0.00e+00	0	35	101	1048576	60	6989
2026-01-07 21:03:04.00	337.35	8.68	-42.0	-43.1	22.5	0.00e+00	0	36	101	1048576	60	6939
2026-01-07 21:03:05.01	337.22	8.62	-42.1	-43.1	22.4	0.00e+00	0	36	101	1048576	60	7005
2026-01-07 21:03:06.02	337.10	8.57	-42.1	-43.1	22.3	0.00e+00	0	36	101	1048576	60	6988
2026-01-07 21:03:07.03	336.97	8.51	-42.2	-43.3	22.2	0.00e+00	0	36	101	1048576	60	7163
2026-01-07 21:03:08.04	336.85	8.45	-42.2	-43.2	22.4	0.00e+00	0	36	101	1048576	60	7068
2026-01-07 21:03:09.05	336.73	8.40	-42.2	-43.3	22.2	0.00e+00	0	36	101	1048576	60	7148
2026-01-07 21:03:10.06	336.61	8.34	-42.2	-43.3	22.2	0.00e+00	0	35	101	1048576	60	7143
2026-01-07 21:03:11.07	336.48	8.28	-42.2	-43.3	22.3	0.00e+00	0	36	101	1048576	60	7101
2026-01-07 21:03:12.08	336.36	8.22	-42.2	-43.3	22.3	0.00e+00	0	36	101	1048576	60	7127
2026-01-07 21:03:13.09	336.24	8.17	-42.4	-43.5	22.1	0.00e+00	0	35	101	1048576	60	7264
2026-01-07 21:03:14.10	336.12	8.11	-42.3	-43.4	21.9	0.00e+00	0	36	101	1048576	60	7225
2026-01-07 21:03:15.11	336.00	8.05	-42.3	-43.5	22.0	0.00e+00	0	36	101	1048576	60	7261
2026-01-07 21:03:16.13	335.88	8.00	-42.3	-43.4	22.1	0.00e+00	0	36	101	1048576	60	7226
2026-01-07 21:03:17.14	335.76	7.94	-42.4	-43.5	22.2	0.00e+00	0	36	101	1048576	60	7262
2026-01-07 21:03:18.15	335.64	7.88	-42.3	-43.4	22.1	0.00e+00	0	36	101	1048576	60	7235
2026-01-07 21:03:19.16	335.52	7.82	-42.3	-43.4	22.1	0.00e+00	0	36	101	1048576	60	7209
2026-01-07 21:03:20.17	335.41	7.77	-42.1	-43.2	22.3	0.00e+00	0	35	101	1048576	60	7012
2026-01-07 21:03:21.18	335.29	7.71	-42.1	-43.2	22.3	0.00e+00	0	36	101	1048576	60	7019
2026-01-07 21:03:22.19	335.17	7.65	-42.2	-43.3	22.2	0.00e+00	0	35	101	1048576	60	7106
2026-01-07 21:03:23.20	335.06	7.60	-42.3	-43.4	22.1	0.00e+00	0	36	101	1048576	60	7191
2026-01-07 21:03:24.21	334.94	7.54	-42.3	-43.4	21.9	0.00e+00	0	35	101	1048576	60	7249
2026-01-07 21:03:25.22	334.83	7.48	-42.5	-43.7	21.8	0.00e+00	0	36	101	1048576	60	7432
2026-01-07 21:03:26.23	334.71	7.43	-42.6	-43.7	21.8	0.00e+00	0	36	101	1048576	60	7465
2026-01-07 21:03:27.24	334.60	7.37	-42.6	-43.8	21.7	0.00e+00	0	35	101	1048576	60	7509
2026-01-07 21:03:28.25	334.48	7.31	-42.7	-43.8	21.6	0.00e+00	0	36	101	1048576	60	7561
2026-01-07 21:03:29.26	334.37	7.26	-42.7	-43.9	21.5	0.00e+00	0	35	101	1048576	60	7628
2026-01-07 21:03:30.27	334.26	7.20	-42.7	-43.9	21.5	0.00e+00	0	35	101	1048576	60	7607
2026-01-07 21:03:31.28	334.14	7.14	-42.8	-44.0	21.6	0.00e+00	0	35	101	1048576	60	7734
2026-01-07 21:03:32.30	334.03	7.09	-42.9	-44.1	21.4	0.00e+00	0	35	101	1048576	60	7815
2026-01-07 21:03:33.31	333.92	7.03	-42.9	-44.1	21.4	0.00e+00	0	35	101	1048576	60	7813
2026-01-07 21:03:34.32	333.81	6.97	-42.8	-44.0	21.4	0.00e+00	0	35	101	1048576	60	7694
2026-01-07 21:03:35.33	333.70	6.92	-42.9	-44.1	21.4	0.00e+00	0	35	101	1048576	60	7793
2026-01-07 21:03:36.34	333.59	6.86	-42.9	-44.1	21.3	0.00e+00	0	36	101	1048576	60	7857
2026-01-07 21:03:37.35	333.48	6.80	-43.0	-44.1	21.2	0.00e+00	0	36	101	1048576	60	7859
2026-01-07 21:03:38.36	333.37	6.75	-43.0	-44.2	21.2	0.00e+00	0	36	101	1048576	60	7904
2026-01-07 21:03:39.37	333.26	6.69	-43.0	-44.2	21.2	0.00e+00	0	35	101	1048576	60	7887
2026-01-07 21:03:40.38	333.15	6.63	-43.1	-44.4	21.0	0.00e+00	0	35	101	1048576	60	8081
2026-01-07 21:03:41.39	333.04	6.58	-43.2	-44.4	21.0	0.00e+00	0	36	101	1048576	60	8102
2026-01-07 21:03:42.41	332.93	6.52	-43.3	-44.6	20.9	0.00e+00	0	35	101	1048576	60	8275
2026-01-07 21:03:43.42	332.83	6.46	-43.4	-44.7	20.8	0.00e+00	0	35	101	1048576	60	8362
2026-01-07 21:03:44.43	332.72	6.41	-43.5	-44.9	20.6	0.00e+00	0	36	101	1048576	60	8529
2026-01-07 21:03:45.44	332.61	6.35	-43.5	-44.8	20.6	0.00e+00	0	36	101	1048576	60	8498
2026-01-07 21:03:46.45	332.51	6.29	-43.5	-44.8	20.5	0.00e+00	0	35	101	1048576	60	8500
2026-01-07 21:03:47.46	332.40	6.24	-43.6	-45.0	20.4	0.00e+00	0	35	101	1048576	60	8655
2026-01-07 21:03:48.47	332.30	6.18	-43.7	-45.1	20.4	0.00e+00	0	35	101	1048576	60	8723
2026-01-07 21:03:49.48	332.19	6.12	-43.6	-44.9	20.4	0.00e+00	0	35	101	1048576	60	8618
2026-01-07 21:03:50.49	332.09	6.07	-43.8	-45.2	20.2	0.00e+00	0	35	101	1048576	60	8842
2026-01-07 21:03:51.50	331.98	6.01	-43.9	-45.2	20.2	1.50e-06	0	35	101	1048576	60	8919
2026-01-07 21:03:52.51	331.88	5.96	-43.8	-45.2	20.2	7.00e-07	0	35	101	1048576	60	8900
2026-01-07 21:03:53.53	331.78	5.90	-43.7	-45.1	20.4	0.00e+00	0	35	101	1048576	60	8732
2026-01-07 21:03:54.54	331.67	5.84	-43.7	-45.1	20.4	0.00e+00	0	35	101	1048576	60	8756
2026-01-07 21:03:55.55	331.57	5.79	-43.7	-45.0	20.4	0.00e+00	0	35	101	1048576	60	8685
2026-01-07 21:03:56.56	331.47	5.73	-43.8	-45.2	20.2	0.00e+00	0	35	101	1048576	60	8857
2026-01-07 21:03:57.57	331.37	5.67	-43.9	-45.3	20.1	0.00e+00	0	35	101	1048576	60	9010
2026-01-07 21:03:58.58	331.27	5.62	-44.0	-45.5	20.0	0.00e+00	0	36	101	1048576	60	9166
2026-01-07 21:03:59.59	331.17	5.56	-44.1	-45.5	19.9	0.00e+00	0	35	101	1048576	60	9234
2026-01-07 21:04:00.60	331.07	5.51	-44.1	-45.6	19.8	0.00e+00	0	35	101	1048576	60	9293
2026-01-07 21:04:01.61	330.97	5.45	-44.3	-45.8	19.7	0.00e+00	0	35	101	1048576	60	9454
2026-01-07 21:04:02.62	330.87	5.39	-44.2	-45.6	19.7	0.00e+00	0	35	101	1048576	60	9319
2026-01-07 21:04:03.64	330.77	5.34	-44.2	-45.7	19.7	0.00e+00	0	35	101	1048576	60	9391
2026-01-07 21:04:04.65	330.67	5.28	-44.2	-45.7	19.7	0.00e+00	0	35	101	1048576	60	9359
2026-01-07 21:04:05.66	330.57	5.23	-44.3	-45.8	19.6	0.00e+00	0	36	101	1048576	60	9462
2026-01-07 21:04:06.67	330.47	5.17	-44.3	-45.8	19.6	0.00e+00	0	35	101	1048576	60	9534
2026-01-07 21:04:07.68	330.37	5.12	-44.4	-45.9	19.4	0.00e+00	0	35	101	1048576	60	9661
2026-01-07 21:04:08.69	330.28	5.06	-44.4	-45.9	19.5	0.00e+00	0	35	101	1048576	60	9597
2026-01-07 21:04:09.70	330.18	5.00	-44.5	-46.0	19.4	0.00e+00	0	35	101	1048576	60	9750
2026-01-07 21:04:10.71	330.08	4.95	-44.3	-45.8	19.5	0.00e+00	0	35	101	1048576	60	9523
2026-01-07 21:04:11.72	329.99	4.89	-44.4	-45.9	19.4	0.00e+00	0	35	101	1048576	60	9577
2026-01-07 21:04:12.73	329.89	4.84	-44.3	-45.8	19.5	0.00e+00	0	35	101	1048576	60	9520
2026-01-07 21:04:13.74	329.80	4.78	-44.4	-46.0	19.4	0.00e+00	0	35	101	1048576	60	9690
2026-01-07 21:04:14.75	329.70	4.73	-44.5	-46.1	19.3	0.00e+00	0	35	101	1048576	60	9847
2026-01-07 21:04:15.76	329.61	4.67	-44.6	-46.3	19.1	0.00e+00	0	35	101	1048576	60	10039
2026-01-07 21:04:16.78	329.51	4.62	-44.7	-46.3	19.0	0.00e+00	0	36	101	1048576	60	10120
2026-01-07 21:04:17.78	329.42	4.56	-44.7	-46.3	19.0	0.00e+00	0	36	101	1048576	60	10094
2026-01-07 21:04:18.79	329.33	4.51	-44.8	-46.5	18.7	0.00e+00	0	35	101	1048576	60	10298
2026-01-07 21:04:19.81	329.23	4.45	-45.0	-46.7	18.6	0.00e+00	0	35	101	1048576	60	10528
2026-01-07 21:04:20.82	329.14	4.39	-45.0	-46.7	18.5	0.00e+00	0	35	101	1048576	60	10595
2026-01-07 21:04:21.82	329.05	4.34	-44.9	-46.6	18.6	0.00e+00	0	35	101	1048576	60	10415
2026-01-07 21:04:22.84	328.96	4.28	-45.0	-46.7	18.6	0.00e+00	0	36	101	1048576	60	10529
2026-01-07 21:04:23.85	328.87	4.23	-44.9	-46.7	18.6	0.00e+00	0	35	101	1048576	60	10500
