passes_logs/2026/01/07/R4.6S_Anadyr_2ch/R4.6S_Anadyr_2ch__20260107_171442_SUOMI_NPP_rec.log

#Pass ID: 20260107_171442_SUOMI NPP
#Satellite: SUOMI NPP
#Configuration: NPP
#almurnet v.1.7.20251203
#Start time: 2026-01-07 17:14:45

#Version: 2.2.20231116
#Station: R4.6S_Anadyr_2ch
#Location: 177.4865 lon 64.73178 lat
#TLE: 1 37849U 11061A   25350.92281687  .00000071  00000+0  54882-4 0  9996
#TLE: 2 37849  98.7777 288.2268 0002366 112.8570 247.2856 14.19515404732588

#Time	Az	El	Level	Level2	SNR	BER	BlckErr	Temp	State	Recorded	gain1	gain2
2026-01-07 17:14:45.42	30.04	0.18	-52.0	-65.9	3.3	1.54e+00	0	34	0	0	60	96129
2026-01-07 17:14:46.42	29.98	0.24	-52.0	-67.4	3.6	1.51e+00	0	34	104	0	60	113835
2026-01-07 17:14:47.44	29.92	0.29	-52.0	-67.4	3.6	1.51e+00	0	34	104	0	60	114397
2026-01-07 17:14:48.45	29.87	0.35	-52.0	-67.4	3.6	1.51e+00	0	34	104	0	60	113991
2026-01-07 17:14:49.46	29.81	0.40	-52.0	-67.3	3.6	1.51e+00	0	34	104	0	60	113492
2026-01-07 17:14:50.47	29.76	0.46	-51.9	-67.3	3.6	1.51e+00	0	34	104	0	60	112592
2026-01-07 17:14:51.48	29.70	0.51	-51.8	-67.2	3.6	1.51e+00	0	34	104	0	60	111825
2026-01-07 17:14:52.49	29.64	0.57	-51.7	-67.1	3.6	1.51e+00	0	34	104	0	60	109961
2026-01-07 17:14:53.50	29.59	0.62	-51.6	-67.0	3.6	1.51e+00	0	34	104	0	60	109215
2026-01-07 17:14:54.51	29.53	0.68	-51.5	-66.9	3.6	1.51e+00	0	34	104	0	60	107413
2026-01-07 17:14:55.52	29.47	0.74	-51.4	-66.7	3.6	1.51e+00	0	34	104	0	60	105516
2026-01-07 17:14:56.53	29.42	0.79	-51.1	-66.5	3.6	1.51e+00	0	34	104	0	60	103209
2026-01-07 17:14:57.54	29.36	0.85	-50.8	-66.1	3.6	1.51e+00	0	34	104	0	60	98270
2026-01-07 17:14:58.56	29.30	0.90	-50.4	-65.8	3.6	1.51e+00	0	34	104	0	60	94570
2026-01-07 17:14:59.57	29.24	0.96	-50.4	-65.7	3.6	1.51e+00	0	34	104	0	60	94141
2026-01-07 17:15:00.58	29.18	1.01	-50.4	-65.7	3.6	1.51e+00	0	34	104	0	60	93802
2026-01-07 17:15:01.59	29.13	1.07	-50.4	-65.8	3.6	1.51e+00	0	34	104	0	60	94633
2026-01-07 17:15:02.60	29.07	1.13	-50.4	-65.7	3.6	1.51e+00	0	34	104	0	60	94129
2026-01-07 17:15:03.61	29.01	1.18	-50.4	-65.7	3.6	1.51e+00	0	34	104	0	60	94375
2026-01-07 17:15:04.62	28.95	1.24	-50.4	-65.7	3.6	1.51e+00	0	34	104	0	60	93697
2026-01-07 17:15:05.63	28.89	1.30	-50.4	-65.7	3.6	1.51e+00	0	34	104	0	60	93890
2026-01-07 17:15:06.64	28.83	1.35	-50.4	-65.7	3.5	1.51e+00	0	34	104	0	60	93691
2026-01-07 17:15:07.65	28.77	1.41	-50.4	-65.7	3.6	1.51e+00	0	34	104	0	60	93797
2026-01-07 17:15:08.66	28.71	1.47	-50.4	-65.7	3.6	1.51e+00	0	34	104	0	60	94023
2026-01-07 17:15:09.67	28.65	1.52	-50.4	-65.7	3.6	1.51e+00	0	34	104	0	60	94212
2026-01-07 17:15:10.69	28.59	1.58	-50.4	-65.8	3.6	1.51e+00	0	34	104	0	60	94557
2026-01-07 17:15:11.70	28.53	1.64	-50.4	-65.8	3.6	1.51e+00	0	34	104	0	60	94844
2026-01-07 17:15:12.71	28.47	1.69	-50.4	-65.8	3.6	1.51e+00	0	34	104	0	60	94670
2026-01-07 17:15:13.72	28.40	1.75	-50.4	-65.8	3.6	1.51e+00	0	34	104	0	60	94808
2026-01-07 17:15:14.73	28.34	1.81	-50.4	-65.7	3.6	1.51e+00	0	34	104	0	60	94276
2026-01-07 17:15:15.74	28.28	1.86	-50.4	-65.7	3.6	1.51e+00	0	34	104	0	60	94520
2026-01-07 17:15:16.75	28.22	1.92	-50.4	-65.7	3.6	1.51e+00	0	34	104	0	60	94439
2026-01-07 17:15:17.76	28.16	1.98	-50.4	-65.7	3.6	1.51e+00	0	34	104	0	60	93713
2026-01-07 17:15:18.77	28.09	2.04	-50.4	-65.5	3.6	1.51e+00	0	34	104	0	60	92242
2026-01-07 17:15:19.78	28.03	2.09	-50.4	-65.5	3.6	1.51e+00	0	34	104	0	60	92065
2026-01-07 17:15:20.79	27.97	2.15	-50.4	-65.5	3.6	1.51e+00	0	34	104	0	60	92009
2026-01-07 17:15:21.80	27.90	2.21	-50.4	-65.6	3.6	1.51e+00	0	34	104	0	60	93258
2026-01-07 17:15:22.81	27.84	2.27	-50.4	-65.7	3.6	1.51e+00	0	34	104	0	60	94117
2026-01-07 17:15:23.82	27.78	2.33	-50.4	-65.8	3.6	1.51e+00	0	34	104	0	60	94785
2026-01-07 17:15:24.83	27.71	2.38	-50.4	-65.7	3.6	1.51e+00	0	34	104	0	60	94283
2026-01-07 17:15:25.85	27.65	2.44	-50.4	-65.7	3.6	1.51e+00	0	34	104	0	60	93884
2026-01-07 17:15:26.85	27.58	2.50	-50.4	-65.7	3.6	1.51e+00	0	34	104	0	60	93687
2026-01-07 17:15:27.86	27.52	2.56	-50.4	-65.8	3.6	1.51e+00	0	34	104	0	60	94823
2026-01-07 17:15:28.87	27.45	2.62	-50.4	-65.7	3.6	1.51e+00	0	34	104	0	60	93814
2026-01-07 17:15:29.89	27.39	2.67	-50.4	-65.5	3.6	1.51e+00	0	34	104	0	60	92229
2026-01-07 17:15:30.90	27.32	2.73	-50.4	-65.2	3.6	1.51e+00	0	34	104	0	60	88938
2026-01-07 17:15:31.91	27.25	2.79	-50.4	-64.9	3.6	1.51e+00	0	34	104	0	60	86003
2026-01-07 17:15:32.92	27.19	2.85	-50.4	-65.2	3.6	1.51e+00	0	35	104	0	60	88746
2026-01-07 17:15:33.93	27.12	2.91	-50.4	-65.5	3.6	1.51e+00	0	34	104	0	60	91845
2026-01-07 17:15:34.94	27.05	2.97	-50.4	-65.2	3.6	1.51e+00	0	35	104	0	60	88456
2026-01-07 17:15:35.95	26.99	3.03	-50.3	-63.4	3.6	1.51e+00	0	34	104	0	60	72245
2026-01-07 17:15:36.96	26.92	3.09	-50.1	-60.0	4.5	1.39e+00	0	34	0	0	60	48623
2026-01-07 17:15:37.97	26.85	3.14	-49.8	-57.2	6.5	3.45e-01	0	34	102	1048576	60	35331
2026-01-07 17:15:38.98	26.78	3.20	-49.6	-56.2	7.7	1.51e-01	0	35	102	1048576	60	31480
2026-01-07 17:15:39.99	26.71	3.26	-50.6	-65.9	3.6	1.51e+00	0	35	104	1048576	60	96680
2026-01-07 17:15:41.01	26.65	3.32	-50.5	-65.8	3.6	1.51e+00	0	35	104	1048576	60	94754
2026-01-07 17:15:42.02	26.58	3.38	-50.4	-65.8	3.6	1.51e+00	0	34	104	1048576	60	94703
2026-01-07 17:15:43.03	26.51	3.44	-50.4	-65.7	3.6	1.51e+00	0	34	104	1048576	60	93887
2026-01-07 17:15:44.04	26.44	3.50	-50.4	-65.7	3.6	1.51e+00	0	34	104	1048576	60	93903
2026-01-07 17:15:45.05	26.37	3.56	-50.3	-65.7	3.6	1.51e+00	0	35	104	1048576	60	93742
2026-01-07 17:15:46.06	26.30	3.62	-50.3	-65.6	3.6	1.51e+00	0	35	104	1048576	60	93200
2026-01-07 17:15:47.07	26.23	3.68	-50.3	-65.6	3.6	1.51e+00	0	35	104	1048576	60	92950
2026-01-07 17:15:48.08	26.16	3.74	-50.3	-65.6	3.6	1.51e+00	0	35	104	1048576	60	92998
2026-01-07 17:15:49.09	26.08	3.80	-50.3	-65.6	3.6	1.51e+00	0	35	104	1048576	60	93081
2026-01-07 17:15:50.10	26.01	3.86	-50.3	-65.7	3.6	1.51e+00	0	35	104	1048576	60	93645
2026-01-07 17:15:51.11	25.94	3.92	-50.3	-65.6	3.6	1.51e+00	0	35	104	1048576	60	93389
2026-01-07 17:15:52.12	25.87	3.98	-50.3	-65.7	3.6	1.51e+00	0	35	104	1048576	60	93907
2026-01-07 17:15:53.14	25.80	4.04	-50.3	-65.7	3.6	1.51e+00	0	35	104	1048576	60	94132
2026-01-07 17:15:54.15	25.72	4.10	-50.3	-65.6	3.6	1.51e+00	0	35	104	1048576	60	92601
2026-01-07 17:15:55.16	25.65	4.16	-50.3	-65.6	3.6	1.51e+00	0	35	104	1048576	60	92956
2026-01-07 17:15:56.17	25.58	4.22	-50.3	-65.6	3.6	1.51e+00	0	35	104	1048576	60	93163
2026-01-07 17:15:57.18	25.50	4.28	-50.3	-65.6	3.6	1.51e+00	0	35	104	1048576	60	92551
2026-01-07 17:15:58.19	25.43	4.35	-50.3	-65.6	3.6	1.51e+00	0	35	104	1048576	60	93190
2026-01-07 17:15:59.20	25.36	4.41	-50.3	-65.6	3.6	1.51e+00	0	35	104	1048576	60	93337
2026-01-07 17:16:00.21	25.28	4.47	-50.3	-65.6	3.6	1.51e+00	0	35	104	1048576	60	93321
2026-01-07 17:16:01.22	25.21	4.53	-50.3	-65.6	3.6	1.51e+00	0	35	104	1048576	60	92766
2026-01-07 17:16:02.23	25.13	4.59	-50.3	-65.6	3.6	1.51e+00	0	35	104	1048576	60	92526
2026-01-07 17:16:03.25	25.05	4.65	-50.3	-65.5	3.6	1.51e+00	0	35	104	1048576	60	92279
2026-01-07 17:16:04.25	24.98	4.71	-50.3	-65.5	3.6	1.51e+00	0	35	104	1048576	60	91715
2026-01-07 17:16:05.27	24.90	4.77	-50.3	-65.5	3.6	1.51e+00	0	35	104	1048576	60	91684
2026-01-07 17:16:06.28	24.82	4.84	-50.3	-65.5	3.6	1.51e+00	0	35	104	1048576	60	92247
2026-01-07 17:16:07.29	24.75	4.90	-50.3	-65.5	3.6	1.51e+00	0	35	104	1048576	60	91879
2026-01-07 17:16:08.30	24.67	4.96	-50.3	-65.5	3.6	1.51e+00	0	35	104	1048576	60	92360
2026-01-07 17:16:09.31	24.59	5.02	-50.3	-65.6	3.6	1.51e+00	0	35	104	1048576	60	92651
2026-01-07 17:16:10.32	24.51	5.08	-50.3	-65.6	3.6	1.51e+00	0	35	104	1048576	60	92925
2026-01-07 17:16:11.33	24.44	5.14	-50.3	-65.6	3.6	1.51e+00	0	35	104	1048576	60	92765
2026-01-07 17:16:12.34	24.36	5.21	-50.3	-65.6	3.6	1.51e+00	0	35	104	1048576	60	93274
2026-01-07 17:16:13.35	24.28	5.27	-50.3	-65.7	3.6	1.51e+00	0	35	104	1048576	60	93780
2026-01-07 17:16:14.36	24.20	5.33	-50.3	-65.6	3.6	1.51e+00	0	35	104	1048576	60	93024
2026-01-07 17:16:15.37	24.12	5.39	-50.3	-65.7	3.6	1.51e+00	0	35	104	1048576	60	93642
2026-01-07 17:16:16.38	24.04	5.46	-50.3	-65.6	3.6	1.51e+00	0	35	104	1048576	60	92666
2026-01-07 17:16:17.40	23.96	5.52	-50.3	-65.5	3.6	1.51e+00	0	35	104	1048576	60	92054
2026-01-07 17:16:18.41	23.88	5.58	-50.3	-65.6	3.6	1.51e+00	0	35	104	1048576	60	92668
2026-01-07 17:16:19.42	23.80	5.64	-50.3	-65.6	3.6	1.51e+00	0	35	104	1048576	60	93209
2026-01-07 17:16:20.43	23.71	5.71	-50.3	-65.6	3.6	1.51e+00	0	35	104	1048576	60	93392
2026-01-07 17:16:21.44	23.63	5.77	-50.3	-65.7	3.6	1.51e+00	0	35	104	1048576	60	93743
2026-01-07 17:16:22.45	23.55	5.83	-50.3	-65.6	3.6	1.51e+00	0	35	104	1048576	60	92558
2026-01-07 17:16:23.46	23.47	5.90	-50.3	-65.6	3.6	1.51e+00	0	35	104	1048576	60	92395
2026-01-07 17:16:24.47	23.38	5.96	-50.3	-65.5	3.6	1.51e+00	0	35	104	1048576	60	91783
2026-01-07 17:16:25.48	23.30	6.02	-50.3	-65.6	3.6	1.51e+00	0	35	104	1048576	60	93201
2026-01-07 17:16:26.49	23.22	6.09	-50.3	-65.6	3.6	1.51e+00	0	35	104	1048576	60	93370
2026-01-07 17:16:27.50	23.13	6.15	-50.3	-65.7	3.6	1.51e+00	0	35	104	1048576	60	93969
2026-01-07 17:16:28.52	23.05	6.21	-50.3	-65.7	3.6	1.51e+00	0	35	104	1048576	60	93492
2026-01-07 17:16:29.53	22.96	6.28	-50.3	-65.6	3.6	1.51e+00	0	35	104	1048576	60	92739
2026-01-07 17:16:30.54	22.88	6.34	-50.3	-65.6	3.6	1.51e+00	0	35	104	1048576	60	92634
2026-01-07 17:16:31.55	22.79	6.41	-50.3	-65.7	3.6	1.51e+00	0	35	104	1048576	60	93646
2026-01-07 17:16:32.56	22.71	6.47	-50.3	-65.7	3.6	1.51e+00	0	35	104	1048576	60	93914
2026-01-07 17:16:33.57	22.62	6.53	-50.3	-65.7	3.6	1.51e+00	0	35	104	1048576	60	93960
2026-01-07 17:16:34.58	22.53	6.60	-50.3	-65.6	3.6	1.51e+00	0	35	104	1048576	60	93404
2026-01-07 17:16:35.59	22.44	6.66	-50.3	-65.6	3.6	1.51e+00	0	35	104	1048576	60	93012
2026-01-07 17:16:36.60	22.36	6.73	-50.3	-65.5	3.6	1.51e+00	0	35	104	1048576	60	92283
2026-01-07 17:16:37.61	22.27	6.79	-50.3	-65.6	3.6	1.51e+00	0	35	104	1048576	60	93402
2026-01-07 17:16:38.63	22.18	6.86	-50.3	-65.7	3.6	1.51e+00	0	35	104	1048576	60	93709
2026-01-07 17:16:39.64	22.09	6.92	-50.4	-65.7	3.6	1.51e+00	0	35	104	1048576	60	93975
2026-01-07 17:16:40.65	22.00	6.99	-50.3	-65.7	3.6	1.51e+00	0	35	104	1048576	60	93724
2026-01-07 17:16:41.66	21.91	7.05	-50.3	-65.7	3.6	1.51e+00	0	35	104	1048576	60	93532
2026-01-07 17:16:42.67	21.82	7.12	-50.3	-65.6	3.6	1.51e+00	0	35	104	1048576	60	93076
2026-01-07 17:16:43.68	21.73	7.18	-50.3	-65.6	3.6	1.51e+00	0	35	104	1048576	60	93425
2026-01-07 17:16:44.69	21.64	7.25	-50.4	-65.7	3.6	1.51e+00	0	35	104	1048576	60	93576
2026-01-07 17:16:45.70	21.55	7.31	-50.3	-65.7	3.6	1.51e+00	0	35	104	1048576	60	93566
2026-01-07 17:16:46.71	21.46	7.38	-50.4	-65.7	3.6	1.51e+00	0	35	104	1048576	60	94273
2026-01-07 17:16:47.72	21.36	7.44	-50.4	-65.7	3.6	1.51e+00	0	35	104	1048576	60	93709
2026-01-07 17:16:48.73	21.27	7.51	-50.4	-65.7	3.6	1.51e+00	0	35	104	1048576	60	94095
2026-01-07 17:16:49.75	21.18	7.57	-50.4	-65.7	3.6	1.51e+00	0	35	104	1048576	60	93799
2026-01-07 17:16:50.76	21.08	7.64	-50.3	-65.7	3.6	1.51e+00	0	35	104	1048576	60	93718
2026-01-07 17:16:51.77	20.99	7.71	-50.3	-65.8	3.6	1.51e+00	0	35	104	1048576	60	94601
2026-01-07 17:16:52.78	20.89	7.77	-50.3	-65.7	3.6	1.51e+00	0	35	104	1048576	60	94456
2026-01-07 17:16:53.79	20.80	7.84	-50.3	-65.6	3.5	1.51e+00	0	35	104	1048576	60	93395
2026-01-07 17:16:54.80	20.70	7.90	-50.3	-65.6	3.6	1.51e+00	0	35	104	1048576	60	93376
2026-01-07 17:16:55.81	20.61	7.97	-50.4	-65.7	3.6	1.51e+00	0	35	104	1048576	60	93783
2026-01-07 17:16:56.82	20.51	8.04	-50.3	-65.7	3.6	1.51e+00	0	35	104	1048576	60	93921
2026-01-07 17:16:57.83	20.41	8.10	-50.4	-65.7	3.6	1.51e+00	0	35	104	1048576	60	93917
2026-01-07 17:16:58.85	20.32	8.17	-50.3	-65.7	3.6	1.51e+00	0	35	104	1048576	60	93717
2026-01-07 17:16:59.86	20.22	8.24	-50.4	-65.7	3.6	1.51e+00	0	35	104	1048576	60	93801
2026-01-07 17:17:00.87	20.12	8.30	-50.4	-65.7	3.6	1.51e+00	0	35	104	1048576	60	93479
2026-01-07 17:17:01.88	20.02	8.37	-50.4	-65.6	3.6	1.51e+00	0	35	104	1048576	60	93411
2026-01-07 17:17:02.89	19.92	8.44	-50.4	-65.6	3.6	1.51e+00	0	35	104	1048576	60	93446
2026-01-07 17:17:03.90	19.82	8.50	-50.4	-65.7	3.6	1.51e+00	0	35	104	1048576	60	94459
2026-01-07 17:17:04.91	19.72	8.57	-50.4	-65.7	3.6	1.51e+00	0	35	104	1048576	60	94120
2026-01-07 17:17:05.92	19.62	8.64	-50.3	-65.7	3.6	1.51e+00	0	35	104	1048576	60	94180
2026-01-07 17:17:06.94	19.52	8.71	-50.4	-65.7	3.6	1.51e+00	0	35	104	1048576	60	93534
2026-01-07 17:17:07.95	19.42	8.77	-50.4	-65.7	3.6	1.51e+00	0	35	104	1048576	60	93875
2026-01-07 17:17:08.96	19.32	8.84	-50.3	-65.7	3.6	1.51e+00	0	35	104	1048576	60	93944
2026-01-07 17:17:09.97	19.21	8.91	-50.3	-65.6	3.6	1.51e+00	0	35	104	1048576	60	93150
2026-01-07 17:17:10.98	19.11	8.98	-50.4	-65.7	3.6	1.51e+00	0	35	104	1048576	60	93467
2026-01-07 17:17:11.99	19.01	9.04	-50.4	-65.7	3.6	1.51e+00	0	35	104	1048576	60	94447
2026-01-07 17:17:13.00	18.90	9.11	-50.4	-65.7	3.6	1.51e+00	0	35	104	1048576	60	93907
2026-01-07 17:17:14.01	18.80	9.18	-50.3	-65.7	3.6	1.51e+00	0	35	104	1048576	60	93659
2026-01-07 17:17:15.02	18.69	9.25	-50.3	-65.7	3.6	1.51e+00	0	35	104	1048576	60	94141
2026-01-07 17:17:16.03	18.59	9.31	-50.3	-65.6	3.6	1.51e+00	0	35	104	1048576	60	93442
2026-01-07 17:17:17.05	18.48	9.38	-50.4	-65.7	3.5	1.51e+00	0	35	104	1048576	60	93741
2026-01-07 17:17:18.06	18.37	9.45	-50.3	-65.7	3.6	1.51e+00	0	35	104	1048576	60	93989
2026-01-07 17:17:19.07	18.27	9.52	-50.4	-65.7	3.6	1.51e+00	0	35	104	1048576	60	93913
2026-01-07 17:17:20.08	18.16	9.59	-50.4	-65.7	3.6	1.51e+00	0	35	104	1048576	60	94343
2026-01-07 17:17:21.09	18.05	9.66	-50.4	-65.7	3.6	1.51e+00	0	35	104	1048576	60	93940
2026-01-07 17:17:22.10	17.94	9.73	-50.3	-65.7	3.6	1.51e+00	0	35	104	1048576	60	94013
2026-01-07 17:17:23.11	17.83	9.79	-50.4	-65.7	3.6	1.51e+00	0	35	104	1048576	60	93748
2026-01-07 17:17:24.12	17.72	9.86	-50.4	-65.7	3.6	1.51e+00	0	35	104	1048576	60	94364
2026-01-07 17:17:25.13	17.61	9.93	-50.4	-65.7	3.6	1.51e+00	0	35	104	1048576	60	93955
2026-01-07 17:17:26.15	17.50	10.00	-50.4	-65.7	3.6	1.51e+00	0	35	104	1048576	60	94179
2026-01-07 17:17:27.16	17.39	10.07	-50.4	-65.7	3.6	1.51e+00	0	35	104	1048576	60	94156
2026-01-07 17:17:28.17	17.28	10.14	-50.4	-65.7	3.6	1.51e+00	0	35	104	1048576	60	94207
2026-01-07 17:17:29.18	17.17	10.21	-50.4	-65.7	3.6	1.51e+00	0	35	104	1048576	60	94468
2026-01-07 17:17:30.19	17.05	10.28	-50.4	-65.7	3.6	1.51e+00	0	35	104	1048576	60	94482
2026-01-07 17:17:31.20	16.94	10.35	-50.4	-65.7	3.6	1.51e+00	0	35	104	1048576	60	93800
2026-01-07 17:17:32.21	16.83	10.42	-50.4	-65.7	3.6	1.51e+00	0	35	104	1048576	60	94018
2026-01-07 17:17:33.22	16.71	10.49	-50.4	-65.8	3.6	1.51e+00	0	35	104	1048576	60	94559
2026-01-07 17:17:34.23	16.60	10.56	-50.4	-65.7	3.6	1.51e+00	0	35	104	1048576	60	93982
2026-01-07 17:17:35.24	16.48	10.63	-50.4	-65.7	3.6	1.51e+00	0	35	104	1048576	60	94257
2026-01-07 17:17:36.25	16.36	10.70	-50.4	-65.7	3.6	1.51e+00	0	35	104	1048576	60	93935
2026-01-07 17:17:37.27	16.25	10.77	-50.4	-65.7	3.6	1.51e+00	0	35	104	1048576	60	93744
2026-01-07 17:17:38.28	16.13	10.84	-50.4	-65.8	3.6	1.51e+00	0	35	104	1048576	60	94539
2026-01-07 17:17:39.29	16.01	10.91	-50.4	-65.7	3.6	1.51e+00	0	35	104	1048576	60	94001
2026-01-07 17:17:40.30	15.89	10.98	-50.4	-65.7	3.6	1.51e+00	0	35	104	1048576	60	93702
2026-01-07 17:17:41.31	15.77	11.05	-50.4	-65.7	3.6	1.51e+00	0	35	104	1048576	60	93941
2026-01-07 17:17:42.32	15.65	11.12	-50.4	-65.7	3.6	1.51e+00	0	35	104	1048576	60	93500
2026-01-07 17:17:43.33	15.53	11.19	-50.4	-65.7	3.6	1.51e+00	0	35	104	1048576	60	93842
2026-01-07 17:17:44.34	15.41	11.26	-50.4	-65.7	3.6	1.51e+00	0	35	104	1048576	60	93912
2026-01-07 17:17:45.35	15.29	11.33	-50.4	-65.7	3.6	1.51e+00	0	35	104	1048576	60	94109
2026-01-07 17:17:46.36	15.17	11.40	-50.4	-65.7	3.6	1.51e+00	0	35	104	1048576	60	93987
2026-01-07 17:17:47.37	15.05	11.47	-50.4	-65.7	3.6	1.51e+00	0	35	104	1048576	60	93960
2026-01-07 17:17:48.39	14.92	11.54	-50.4	-65.7	3.6	1.51e+00	0	35	104	1048576	60	94221
2026-01-07 17:17:49.40	14.80	11.61	-50.4	-65.7	3.6	1.51e+00	0	35	104	1048576	60	94387
2026-01-07 17:17:50.41	14.67	11.68	-50.4	-65.7	3.6	1.51e+00	0	35	104	1048576	60	94076
2026-01-07 17:17:51.42	14.55	11.75	-50.4	-65.7	3.6	1.51e+00	0	35	104	1048576	60	94295
2026-01-07 17:17:52.43	14.42	11.82	-50.4	-65.7	3.6	1.51e+00	0	35	104	1048576	60	93859
2026-01-07 17:17:53.44	14.29	11.89	-50.4	-65.7	3.6	1.51e+00	0	35	104	1048576	60	94474
2026-01-07 17:17:54.45	14.17	11.97	-50.4	-65.7	3.6	1.51e+00	0	35	104	1048576	60	94469
2026-01-07 17:17:55.46	14.04	12.04	-50.4	-65.7	3.6	1.51e+00	0	35	104	1048576	60	94029
2026-01-07 17:17:56.47	13.91	12.11	-50.4	-65.7	3.6	1.51e+00	0	35	104	1048576	60	94105
2026-01-07 17:17:57.48	13.78	12.18	-50.4	-65.7	3.6	1.51e+00	0	35	104	1048576	60	94334
2026-01-07 17:17:58.50	13.65	12.25	-50.4	-65.7	3.6	1.51e+00	0	35	104	1048576	60	94279
2026-01-07 17:17:59.51	13.52	12.32	-50.4	-65.7	3.6	1.51e+00	0	35	104	1048576	60	94320
2026-01-07 17:18:00.52	13.39	12.39	-50.4	-65.7	3.6	1.51e+00	0	35	104	1048576	60	94348
2026-01-07 17:18:01.53	13.26	12.47	-50.4	-65.7	3.6	1.51e+00	0	35	104	1048576	60	94227
2026-01-07 17:18:02.54	13.13	12.54	-50.4	-65.7	3.6	1.51e+00	0	35	104	1048576	60	94357
2026-01-07 17:18:03.55	12.99	12.61	-50.4	-65.7	3.6	1.51e+00	0	35	104	1048576	60	93793
2026-01-07 17:18:04.56	12.86	12.68	-50.4	-65.7	3.6	1.51e+00	0	35	104	1048576	60	94409
2026-01-07 17:18:05.57	12.73	12.75	-50.4	-65.7	3.6	1.51e+00	0	35	104	1048576	60	94451
2026-01-07 17:18:06.58	12.59	12.82	-50.4	-65.7	3.6	1.51e+00	0	35	104	1048576	60	94388
2026-01-07 17:18:07.60	12.45	12.90	-50.4	-65.7	3.6	1.51e+00	0	35	104	1048576	60	94352
2026-01-07 17:18:08.61	12.32	12.97	-50.4	-65.8	3.6	1.51e+00	0	35	104	1048576	60	94574
2026-01-07 17:18:09.62	12.18	13.04	-50.4	-65.7	3.6	1.51e+00	0	35	104	1048576	60	93743
2026-01-07 17:18:10.63	12.04	13.11	-50.4	-65.7	3.6	1.51e+00	0	35	104	1048576	60	94078
2026-01-07 17:18:11.64	11.90	13.19	-50.4	-65.7	3.6	1.51e+00	0	35	104	1048576	60	93682
2026-01-07 17:18:12.65	11.76	13.26	-50.4	-65.7	3.6	1.51e+00	0	35	104	1048576	60	94305
2026-01-07 17:18:13.66	11.62	13.33	-50.4	-65.7	3.6	1.51e+00	0	35	104	1048576	60	93736
2026-01-07 17:18:14.67	11.48	13.40	-50.4	-65.7	3.6	1.51e+00	0	35	104	1048576	60	94415
2026-01-07 17:18:15.68	11.34	13.47	-50.4	-65.7	3.6	1.51e+00	0	35	104	1048576	60	93823
2026-01-07 17:18:16.69	11.20	13.55	-50.4	-65.7	3.6	1.51e+00	0	35	104	1048576	60	93920
2026-01-07 17:18:17.70	11.06	13.62	-50.4	-65.7	3.6	1.51e+00	0	35	104	1048576	60	93927
2026-01-07 17:18:18.72	10.91	13.69	-50.4	-65.7	3.6	1.51e+00	0	35	104	1048576	60	93788
2026-01-07 17:18:19.73	10.77	13.76	-50.4	-65.7	3.6	1.51e+00	0	35	104	1048576	60	94143
2026-01-07 17:18:20.74	10.63	13.84	-50.4	-65.7	3.6	1.51e+00	0	35	104	1048576	60	94170
2026-01-07 17:18:21.75	10.48	13.91	-50.4	-65.7	3.6	1.51e+00	0	35	104	1048576	60	93942
2026-01-07 17:18:22.76	10.33	13.98	-50.4	-65.7	3.6	1.51e+00	0	35	104	1048576	60	93923
2026-01-07 17:18:23.77	10.19	14.05	-50.4	-65.7	3.6	1.51e+00	0	35	104	1048576	60	93971
2026-01-07 17:18:24.78	10.04	14.13	-50.4	-65.7	3.6	1.51e+00	0	35	104	1048576	60	94153
2026-01-07 17:18:25.79	9.89	14.20	-50.4	-65.7	3.6	1.51e+00	0	35	104	1048576	60	94255
2026-01-07 17:18:26.80	9.74	14.27	-50.4	-65.7	3.5	1.51e+00	0	35	104	1048576	60	93827
2026-01-07 17:18:27.81	9.59	14.34	-50.4	-65.7	3.6	1.51e+00	0	35	104	1048576	60	93564
2026-01-07 17:18:28.82	9.44	14.42	-50.4	-65.7	3.6	1.51e+00	0	35	104	1048576	60	93889
2026-01-07 17:18:29.84	9.29	14.49	-50.4	-65.7	3.6	1.51e+00	0	35	104	1048576	60	94166
2026-01-07 17:18:30.85	9.14	14.56	-50.4	-65.7	3.6	1.51e+00	0	35	104	1048576	60	93795
2026-01-07 17:18:31.86	8.98	14.64	-50.4	-65.7	3.6	1.51e+00	0	35	104	1048576	60	93571
2026-01-07 17:18:32.87	8.83	14.71	-50.4	-65.7	3.6	1.51e+00	0	35	104	1048576	60	94266
2026-01-07 17:18:33.88	8.67	14.78	-50.4	-65.8	3.6	1.51e+00	0	35	104	1048576	60	94652
2026-01-07 17:18:34.89	8.52	14.85	-50.4	-65.6	3.6	1.51e+00	0	35	104	1048576	60	93357
2026-01-07 17:18:35.90	8.36	14.93	-50.4	-65.7	3.6	1.51e+00	0	35	104	1048576	60	93708
2026-01-07 17:18:36.91	8.21	15.00	-50.4	-65.7	3.6	1.51e+00	0	35	104	1048576	60	94486
2026-01-07 17:18:37.92	8.05	15.07	-50.4	-65.7	3.6	1.51e+00	0	35	104	1048576	60	94337
2026-01-07 17:18:38.93	7.89	15.14	-50.4	-65.7	3.6	1.51e+00	0	35	104	1048576	60	93860
2026-01-07 17:18:39.94	7.73	15.22	-50.4	-65.8	3.6	1.51e+00	0	35	104	1048576	60	94592
2026-01-07 17:18:40.95	7.57	15.29	-50.4	-65.7	3.6	1.51e+00	0	35	104	1048576	60	93971
2026-01-07 17:18:41.96	7.41	15.36	-50.4	-65.7	3.6	1.51e+00	0	35	104	1048576	60	94467
2026-01-07 17:18:42.97	7.25	15.43	-50.4	-65.7	3.6	1.51e+00	0	35	104	1048576	60	93930
2026-01-07 17:18:43.98	7.09	15.51	-50.4	-65.8	3.6	1.51e+00	0	35	104	1048576	60	94656
2026-01-07 17:18:44.99	6.92	15.58	-50.4	-65.7	3.6	1.51e+00	0	35	104	1048576	60	93810
2026-01-07 17:18:46.01	6.76	15.65	-50.4	-65.7	3.5	1.51e+00	0	35	104	1048576	60	94094
2026-01-07 17:18:47.02	6.59	15.73	-50.4	-65.7	3.6	1.51e+00	0	35	104	1048576	60	94315
2026-01-07 17:18:48.03	6.43	15.80	-50.4	-65.7	3.6	1.51e+00	0	35	104	1048576	60	94277
2026-01-07 17:18:49.04	6.26	15.87	-50.4	-65.8	3.6	1.51e+00	0	35	104	1048576	60	94574
2026-01-07 17:18:50.05	6.09	15.94	-50.4	-65.7	3.6	1.51e+00	0	35	104	1048576	60	94049
2026-01-07 17:18:51.06	5.93	16.02	-50.4	-65.7	3.6	1.51e+00	0	35	104	1048576	60	94150
2026-01-07 17:18:52.07	5.76	16.09	-50.4	-65.7	3.6	1.51e+00	0	35	104	1048576	60	93961
2026-01-07 17:18:53.08	5.59	16.16	-50.4	-65.7	3.6	1.51e+00	0	35	104	1048576	60	93927
2026-01-07 17:18:54.09	5.42	16.23	-50.4	-65.8	3.6	1.51e+00	0	35	104	1048576	60	94618
2026-01-07 17:18:55.11	5.24	16.31	-50.4	-65.7	3.6	1.51e+00	0	35	104	1048576	60	94368
2026-01-07 17:18:56.12	5.07	16.38	-50.4	-65.7	3.6	1.51e+00	0	35	104	1048576	60	94381
2026-01-07 17:18:57.13	4.90	16.45	-50.4	-65.8	3.6	1.51e+00	0	35	104	1048576	60	94547
2026-01-07 17:18:58.14	4.72	16.52	-50.4	-65.7	3.6	1.51e+00	0	35	104	1048576	60	94391
2026-01-07 17:18:59.15	4.55	16.59	-50.4	-65.7	3.6	1.51e+00	0	35	104	1048576	60	94193
2026-01-07 17:19:00.16	4.37	16.67	-50.4	-65.7	3.6	1.51e+00	0	35	104	1048576	60	94372
2026-01-07 17:19:01.17	4.20	16.74	-50.4	-65.8	3.6	1.51e+00	0	35	104	1048576	60	94684
2026-01-07 17:19:02.18	4.02	16.81	-50.4	-65.7	3.6	1.51e+00	0	35	104	1048576	60	94168
2026-01-07 17:19:03.19	3.84	16.88	-50.4	-65.7	3.6	1.51e+00	0	35	104	1048576	60	94435
2026-01-07 17:19:04.20	3.66	16.95	-50.4	-65.8	3.6	1.51e+00	0	35	104	1048576	60	94580
2026-01-07 17:19:05.21	3.48	17.02	-50.4	-65.7	3.6	1.51e+00	0	35	104	1048576	60	93929
2026-01-07 17:19:06.22	3.30	17.10	-50.4	-65.7	3.6	1.51e+00	0	35	104	1048576	60	94144
2026-01-07 17:19:07.23	3.12	17.17	-50.4	-65.7	3.6	1.51e+00	0	35	104	1048576	60	94453
2026-01-07 17:19:08.25	2.94	17.24	-50.4	-65.7	3.6	1.51e+00	0	35	104	1048576	60	94056
2026-01-07 17:19:09.26	2.75	17.31	-50.4	-65.8	3.6	1.51e+00	0	35	104	1048576	60	94571
2026-01-07 17:19:10.27	2.57	17.38	-50.4	-65.7	3.6	1.51e+00	0	35	104	1048576	60	94437
2026-01-07 17:19:11.28	2.38	17.45	-50.4	-65.7	3.6	1.51e+00	0	35	104	1048576	60	94160
2026-01-07 17:19:12.29	2.20	17.52	-50.4	-65.7	3.6	1.51e+00	0	35	104	1048576	60	94311
2026-01-07 17:19:13.30	2.01	17.59	-50.4	-65.8	3.6	1.51e+00	0	35	104	1048576	60	94548
2026-01-07 17:19:14.31	1.82	17.66	-50.4	-65.7	3.6	1.51e+00	0	35	104	1048576	60	93829
2026-01-07 17:19:15.32	1.63	17.74	-50.4	-65.8	3.6	1.51e+00	0	35	104	1048576	60	94548
2026-01-07 17:19:16.33	1.44	17.81	-50.4	-65.7	3.6	1.51e+00	0	35	104	1048576	60	94462
2026-01-07 17:19:17.34	1.25	17.88	-50.4	-65.7	3.6	1.51e+00	0	35	104	1048576	60	94164
2026-01-07 17:19:18.35	1.06	17.95	-50.4	-65.8	3.6	1.51e+00	0	35	104	1048576	60	94810
2026-01-07 17:19:19.36	0.87	18.02	-50.4	-65.7	3.6	1.51e+00	0	35	104	1048576	60	94387
2026-01-07 17:19:20.37	0.68	18.09	-50.4	-65.7	3.6	1.51e+00	0	35	104	1048576	60	94391
2026-01-07 17:19:21.38	0.48	18.16	-50.4	-65.7	3.6	1.51e+00	0	35	104	1048576	60	93875
2026-01-07 17:19:22.40	0.28	18.23	-50.4	-65.7	3.6	1.51e+00	0	35	104	1048576	60	94349
2026-01-07 17:19:23.41	0.09	18.30	-50.4	-65.8	3.6	1.51e+00	0	35	104	1048576	60	94728
2026-01-07 17:19:24.42	359.89	18.37	-50.4	-65.8	3.6	1.51e+00	0	35	104	1048576	60	94787
2026-01-07 17:19:25.43	359.69	18.43	-50.4	-65.7	3.6	1.51e+00	0	35	104	1048576	60	94511
2026-01-07 17:19:26.44	359.49	18.50	-50.4	-65.7	3.6	1.51e+00	0	35	104	1048576	60	94288
2026-01-07 17:19:27.45	359.29	18.57	-50.4	-65.7	3.6	1.51e+00	0	35	104	1048576	60	94414
2026-01-07 17:19:28.46	359.09	18.64	-50.4	-65.8	3.6	1.51e+00	0	35	104	1048576	60	95036
2026-01-07 17:19:29.47	358.89	18.71	-50.4	-65.8	3.6	1.51e+00	0	35	104	1048576	60	94546
2026-01-07 17:19:30.48	358.69	18.78	-50.4	-65.7	3.6	1.51e+00	0	35	104	1048576	60	93968
2026-01-07 17:19:31.49	358.49	18.85	-50.4	-65.8	3.6	1.51e+00	0	35	104	1048576	60	94604
2026-01-07 17:19:32.50	358.28	18.91	-50.4	-65.7	3.6	1.51e+00	0	35	104	1048576	60	93952
2026-01-07 17:19:33.51	358.08	18.98	-50.4	-65.7	3.6	1.51e+00	0	35	104	1048576	60	93903
2026-01-07 17:19:34.52	357.87	19.05	-50.4	-65.7	3.6	1.51e+00	0	35	104	1048576	60	94174
2026-01-07 17:19:35.54	357.66	19.12	-50.4	-65.8	3.6	1.51e+00	0	35	104	1048576	60	94592
2026-01-07 17:19:36.55	357.45	19.18	-50.4	-65.7	3.6	1.51e+00	0	35	104	1048576	60	94226
2026-01-07 17:19:37.56	357.24	19.25	-50.4	-65.7	3.6	1.51e+00	0	35	104	1048576	60	94465
2026-01-07 17:19:38.57	357.04	19.32	-50.4	-65.8	3.6	1.51e+00	0	35	104	1048576	60	94563
2026-01-07 17:19:39.58	356.82	19.38	-50.4	-65.7	3.6	1.51e+00	0	35	104	1048576	60	94407
2026-01-07 17:19:40.59	356.61	19.45	-50.4	-65.8	3.6	1.51e+00	0	35	104	1048576	60	94854
2026-01-07 17:19:41.60	356.40	19.52	-50.4	-65.7	3.6	1.51e+00	0	35	104	1048576	60	94217
2026-01-07 17:19:42.61	356.19	19.58	-50.4	-65.7	3.6	1.51e+00	0	35	104	1048576	60	94209
2026-01-07 17:19:43.62	355.97	19.65	-50.4	-65.8	3.6	1.51e+00	0	35	104	1048576	60	94758
2026-01-07 17:19:44.63	355.76	19.71	-50.4	-65.7	3.6	1.51e+00	0	35	104	1048576	60	94278
2026-01-07 17:19:45.64	355.54	19.78	-50.4	-65.7	3.6	1.51e+00	0	35	104	1048576	60	94339
2026-01-07 17:19:46.65	355.32	19.84	-50.4	-65.7	3.6	1.51e+00	0	35	104	1048576	60	93873
2026-01-07 17:19:47.66	355.10	19.91	-50.4	-65.7	3.6	1.51e+00	0	35	104	1048576	60	94393
2026-01-07 17:19:48.67	354.88	19.97	-50.4	-65.7	3.6	1.51e+00	0	35	104	1048576	60	94201
2026-01-07 17:19:49.69	354.66	20.04	-50.4	-65.7	3.6	1.51e+00	0	35	104	1048576	60	94223
2026-01-07 17:19:50.70	354.44	20.10	-50.4	-65.7	3.6	1.51e+00	0	35	104	1048576	60	94280
2026-01-07 17:19:51.71	354.22	20.16	-50.4	-65.7	3.6	1.51e+00	0	35	104	1048576	60	94443
2026-01-07 17:19:52.72	354.00	20.22	-50.4	-65.7	3.6	1.51e+00	0	35	104	1048576	60	93827
2026-01-07 17:19:53.73	353.77	20.29	-50.4	-65.7	3.6	1.51e+00	0	35	104	1048576	60	94031
2026-01-07 17:19:54.74	353.55	20.35	-50.4	-65.7	3.6	1.51e+00	0	35	104	1048576	60	94422
2026-01-07 17:19:55.75	353.32	20.41	-50.4	-65.7	3.6	1.51e+00	0	35	104	1048576	60	94395
2026-01-07 17:19:56.76	353.10	20.47	-50.4	-65.7	3.6	1.51e+00	0	35	104	1048576	60	94025
2026-01-07 17:19:57.77	352.87	20.54	-50.4	-65.8	3.6	1.51e+00	0	35	104	1048576	60	94537
2026-01-07 17:19:58.78	352.64	20.60	-50.4	-65.8	3.6	1.51e+00	0	35	104	1048576	60	94616
2026-01-07 17:19:59.79	352.41	20.66	-50.4	-65.7	3.6	1.51e+00	0	35	104	1048576	60	94408
2026-01-07 17:20:00.80	352.18	20.72	-50.4	-65.7	3.6	1.51e+00	0	35	104	1048576	60	94407
2026-01-07 17:20:01.81	351.95	20.78	-50.4	-65.7	3.6	1.51e+00	0	35	104	1048576	60	94077
2026-01-07 17:20:02.82	351.72	20.84	-50.4	-65.7	3.6	1.51e+00	0	35	104	1048576	60	94046
2026-01-07 17:20:03.83	351.48	20.90	-50.4	-65.7	3.6	1.51e+00	0	35	104	1048576	60	94236
2026-01-07 17:20:04.85	351.25	20.96	-50.4	-65.8	3.6	1.51e+00	0	35	104	1048576	60	94701
2026-01-07 17:20:05.86	351.01	21.01	-50.4	-65.8	3.6	1.51e+00	0	35	104	1048576	60	94753
2026-01-07 17:20:06.87	350.78	21.07	-50.4	-65.7	3.6	1.51e+00	0	35	104	1048576	60	93929
2026-01-07 17:20:07.88	350.54	21.13	-50.4	-65.8	3.6	1.51e+00	0	35	104	1048576	60	94560
2026-01-07 17:20:08.89	350.30	21.19	-50.4	-65.8	3.6	1.51e+00	0	35	104	1048576	60	94624
2026-01-07 17:20:09.90	350.06	21.25	-50.4	-65.7	3.6	1.51e+00	0	35	104	1048576	60	93942
2026-01-07 17:20:10.91	349.82	21.30	-50.4	-65.7	3.6	1.51e+00	0	35	104	1048576	60	94419
2026-01-07 17:20:11.92	349.58	21.36	-50.4	-65.7	3.6	1.51e+00	0	35	104	1048576	60	93848
2026-01-07 17:20:12.94	349.34	21.41	-50.4	-65.8	3.6	1.51e+00	0	35	104	1048576	60	94630
2026-01-07 17:20:13.95	349.10	21.47	-50.4	-65.8	3.6	1.51e+00	0	35	104	1048576	60	94648
2026-01-07 17:20:14.96	348.86	21.53	-50.4	-65.7	3.6	1.51e+00	0	35	104	1048576	60	94298
2026-01-07 17:20:15.97	348.61	21.58	-50.4	-65.8	3.6	1.51e+00	0	35	104	1048576	60	94557
2026-01-07 17:20:16.98	348.37	21.63	-50.4	-65.7	3.6	1.51e+00	0	35	104	1048576	60	93984
2026-01-07 17:20:17.99	348.12	21.69	-50.4	-65.8	3.6	1.51e+00	0	35	104	1048576	60	94609
2026-01-07 17:20:19.00	347.88	21.74	-50.4	-65.7	3.6	1.51e+00	0	35	104	1048576	60	94390
2026-01-07 17:20:20.01	347.63	21.79	-50.4	-65.7	3.6	1.51e+00	0	35	104	1048576	60	94432
2026-01-07 17:20:21.02	347.38	21.85	-50.4	-65.7	3.6	1.51e+00	0	35	104	1048576	60	94093
2026-01-07 17:20:22.04	347.13	21.90	-50.4	-65.7	3.6	1.51e+00	0	35	104	1048576	60	94411
2026-01-07 17:20:23.05	346.88	21.95	-50.4	-65.7	3.6	1.51e+00	0	35	104	1048576	60	94345
2026-01-07 17:20:24.06	346.63	22.00	-50.4	-65.7	3.6	1.51e+00	0	35	104	1048576	60	94007
2026-01-07 17:20:25.07	346.38	22.05	-50.4	-65.7	3.6	1.51e+00	0	35	104	1048576	60	94252
2026-01-07 17:20:26.08	346.13	22.10	-50.4	-65.7	3.6	1.51e+00	0	35	104	1048576	60	94133
2026-01-07 17:20:27.09	345.87	22.15	-50.4	-65.7	3.6	1.51e+00	0	35	104	1048576	60	94032
2026-01-07 17:20:28.10	345.62	22.20	-50.4	-65.7	3.6	1.51e+00	0	35	104	1048576	60	94224
2026-01-07 17:20:29.11	345.36	22.25	-50.4	-65.7	3.6	1.51e+00	0	36	104	1048576	60	94132
2026-01-07 17:20:30.12	345.11	22.30	-50.4	-65.7	3.6	1.51e+00	0	35	104	1048576	60	94272
2026-01-07 17:20:31.13	344.85	22.34	-50.4	-65.7	3.6	1.51e+00	0	35	104	1048576	60	94229
2026-01-07 17:20:32.15	344.59	22.39	-50.4	-65.8	3.6	1.51e+00	0	35	104	1048576	60	94902
2026-01-07 17:20:33.16	344.33	22.44	-50.4	-65.7	3.6	1.51e+00	0	35	104	1048576	60	94508
2026-01-07 17:20:34.17	344.08	22.48	-50.4	-65.8	3.6	1.51e+00	0	35	104	1048576	60	94729
2026-01-07 17:20:35.18	343.82	22.53	-50.4	-65.8	3.6	1.51e+00	0	35	104	1048576	60	94778
2026-01-07 17:20:36.19	343.56	22.57	-50.4	-65.8	3.6	1.51e+00	0	35	104	1048576	60	94897
2026-01-07 17:20:37.20	343.30	22.62	-50.4	-65.7	3.6	1.51e+00	0	35	104	1048576	60	94444
2026-01-07 17:20:38.21	343.03	22.66	-50.4	-65.7	3.6	1.51e+00	0	35	104	1048576	60	94098
2026-01-07 17:20:39.22	342.77	22.70	-50.4	-65.7	3.6	1.51e+00	0	35	104	1048576	60	94311
2026-01-07 17:20:40.23	342.51	22.74	-50.4	-65.8	3.6	1.51e+00	0	35	104	1048576	60	95078
2026-01-07 17:20:41.24	342.25	22.79	-50.4	-65.7	3.6	1.51e+00	0	35	104	1048576	60	94410
2026-01-07 17:20:42.25	341.98	22.83	-50.4	-65.7	3.6	1.51e+00	0	35	104	1048576	60	94201
2026-01-07 17:20:43.26	341.72	22.87	-50.4	-65.8	3.6	1.51e+00	0	35	104	1048576	60	95068
2026-01-07 17:20:44.27	341.45	22.91	-50.4	-65.8	3.6	1.51e+00	0	35	104	1048576	60	94558
2026-01-07 17:20:45.29	341.18	22.95	-50.4	-65.8	3.6	1.51e+00	0	35	104	1048576	60	94757
2026-01-07 17:20:46.30	340.91	22.99	-50.4	-65.7	3.6	1.51e+00	0	35	104	1048576	60	94478
2026-01-07 17:20:47.31	340.64	23.02	-50.4	-65.7	3.6	1.51e+00	0	35	104	1048576	60	94127
2026-01-07 17:20:48.32	340.38	23.06	-50.4	-65.7	3.6	1.51e+00	0	35	104	1048576	60	94440
2026-01-07 17:20:49.33	340.11	23.10	-50.4	-65.8	3.5	1.51e+00	0	35	104	1048576	60	94684
2026-01-07 17:20:50.34	339.84	23.14	-50.4	-65.7	3.6	1.51e+00	0	35	104	1048576	60	94338
2026-01-07 17:20:51.35	339.57	23.17	-50.4	-65.7	3.6	1.51e+00	0	35	104	1048576	60	94030
2026-01-07 17:20:52.36	339.30	23.21	-50.4	-65.8	3.6	1.51e+00	0	35	104	1048576	60	94721
2026-01-07 17:20:53.37	339.02	23.24	-50.4	-65.8	3.6	1.51e+00	0	35	104	1048576	60	94723
2026-01-07 17:20:54.38	338.75	23.27	-50.4	-65.8	3.6	1.51e+00	0	35	104	1048576	60	95096
2026-01-07 17:20:55.40	338.48	23.31	-50.4	-65.7	3.6	1.51e+00	0	35	104	1048576	60	94335
2026-01-07 17:20:56.40	338.20	23.34	-50.4	-65.8	3.6	1.51e+00	0	35	104	1048576	60	94579
2026-01-07 17:20:57.41	337.93	23.37	-50.4	-65.7	3.6	1.51e+00	0	35	104	1048576	60	94168
2026-01-07 17:20:58.42	337.66	23.40	-50.4	-65.8	3.6	1.51e+00	0	35	104	1048576	60	94533
2026-01-07 17:20:59.44	337.38	23.43	-50.4	-65.7	3.6	1.51e+00	0	36	104	1048576	60	93922
2026-01-07 17:21:00.45	337.10	23.46	-50.4	-65.8	3.6	1.51e+00	0	35	104	1048576	60	94827
2026-01-07 17:21:01.46	336.83	23.49	-50.4	-65.8	3.6	1.51e+00	0	36	104	1048576	60	94873
2026-01-07 17:21:02.47	336.55	23.52	-50.4	-65.8	3.6	1.51e+00	0	36	104	1048576	60	94728
2026-01-07 17:21:03.48	336.27	23.55	-50.4	-65.7	3.6	1.51e+00	0	35	104	1048576	60	94330
2026-01-07 17:21:04.49	335.99	23.57	-50.4	-65.8	3.6	1.51e+00	0	35	104	1048576	60	94938
2026-01-07 17:21:05.50	335.72	23.60	-50.4	-65.7	3.6	1.51e+00	0	35	104	1048576	60	94080
2026-01-07 17:21:06.51	335.44	23.63	-50.4	-65.8	3.5	1.51e+00	0	35	104	1048576	60	94706
2026-01-07 17:21:07.52	335.16	23.65	-50.4	-65.8	3.6	1.51e+00	0	35	104	1048576	60	94646
2026-01-07 17:21:08.53	334.88	23.67	-50.4	-65.7	3.6	1.51e+00	0	35	104	1048576	60	94131
2026-01-07 17:21:09.54	334.60	23.70	-50.4	-65.8	3.6	1.51e+00	0	35	104	1048576	60	94624
2026-01-07 17:21:10.55	334.32	23.72	-50.4	-65.7	3.6	1.51e+00	0	35	104	1048576	60	94108
2026-01-07 17:21:11.56	334.04	23.74	-50.4	-65.7	3.6	1.51e+00	0	35	104	1048576	60	94430
2026-01-07 17:21:12.57	333.76	23.76	-50.4	-65.8	3.6	1.51e+00	0	35	104	1048576	60	94709
2026-01-07 17:21:13.59	333.47	23.78	-50.4	-65.8	3.6	1.51e+00	0	35	104	1048576	60	94616
2026-01-07 17:21:14.60	333.19	23.80	-50.4	-65.7	3.6	1.51e+00	0	35	104	1048576	60	94107
2026-01-07 17:21:15.61	332.91	23.82	-50.4	-65.7	3.6	1.51e+00	0	36	104	1048576	60	94418
2026-01-07 17:21:16.62	332.62	23.84	-50.4	-65.7	3.6	1.51e+00	0	35	104	1048576	60	94527
2026-01-07 17:21:17.63	332.34	23.86	-50.4	-65.8	3.6	1.51e+00	0	35	104	1048576	60	94738
2026-01-07 17:21:18.64	332.06	23.88	-50.4	-65.8	3.6	1.51e+00	0	35	104	1048576	60	94664
2026-01-07 17:21:19.65	331.77	23.89	-50.4	-65.7	3.6	1.51e+00	0	35	104	1048576	60	94499
2026-01-07 17:21:20.66	331.49	23.91	-50.4	-65.7	3.6	1.51e+00	0	35	104	1048576	60	94526
2026-01-07 17:21:21.67	331.21	23.92	-50.4	-65.7	3.6	1.51e+00	0	36	104	1048576	60	93894
2026-01-07 17:21:22.68	330.92	23.93	-50.4	-65.8	3.6	1.51e+00	0	35	104	1048576	60	94789
2026-01-07 17:21:23.69	330.64	23.95	-50.4	-65.7	3.6	1.51e+00	0	36	104	1048576	60	94162
2026-01-07 17:21:24.70	330.35	23.96	-50.4	-65.7	3.6	1.51e+00	0	35	104	1048576	60	94117
2026-01-07 17:21:25.71	330.07	23.97	-50.4	-65.8	3.6	1.51e+00	0	36	104	1048576	60	94595
2026-01-07 17:21:26.72	329.78	23.98	-50.4	-65.8	3.6	1.51e+00	0	36	104	1048576	60	94571
2026-01-07 17:21:27.73	329.50	23.99	-50.4	-65.7	3.6	1.51e+00	0	35	104	1048576	60	94470
2026-01-07 17:21:28.74	329.21	24.00	-50.4	-65.7	3.6	1.51e+00	0	35	104	1048576	60	94099
2026-01-07 17:21:29.75	328.92	24.01	-50.4	-65.7	3.6	1.51e+00	0	35	104	1048576	60	94112
2026-01-07 17:21:30.76	328.64	24.02	-50.4	-65.7	3.6	1.51e+00	0	35	104	1048576	60	94348
2026-01-07 17:21:31.77	328.35	24.02	-50.4	-65.8	3.6	1.51e+00	0	35	104	1048576	60	94666
2026-01-07 17:21:32.79	328.06	24.03	-50.4	-65.7	3.6	1.51e+00	0	35	104	1048576	60	94481
2026-01-07 17:21:33.80	327.78	24.04	-50.4	-65.7	3.6	1.51e+00	0	35	104	1048576	60	94334
2026-01-07 17:21:34.81	327.49	24.04	-50.4	-65.8	3.6	1.51e+00	0	35	104	1048576	60	94580
2026-01-07 17:21:35.82	327.20	24.04	-50.4	-65.8	3.6	1.51e+00	0	35	104	1048576	60	94872
2026-01-07 17:21:36.83	326.92	24.05	-50.4	-65.7	3.6	1.51e+00	0	35	104	1048576	60	94248
2026-01-07 17:21:37.84	326.63	24.05	-50.4	-65.7	3.6	1.51e+00	0	35	104	1048576	60	94490
2026-01-07 17:21:38.85	326.34	24.05	-50.4	-65.8	3.6	1.51e+00	0	35	104	1048576	60	94718
2026-01-07 17:21:39.86	326.06	24.05	-50.4	-65.8	3.6	1.51e+00	0	36	104	1048576	60	94784
2026-01-07 17:21:40.87	325.77	24.05	-50.4	-65.7	3.6	1.51e+00	0	36	104	1048576	60	94400
2026-01-07 17:21:41.89	325.48	24.05	-50.4	-65.7	3.6	1.51e+00	0	35	104	1048576	60	94460
2026-01-07 17:21:42.90	325.19	24.05	-50.4	-65.7	3.5	1.51e+00	0	35	104	1048576	60	94241
2026-01-07 17:21:43.91	324.91	24.04	-50.4	-65.7	3.6	1.51e+00	0	35	104	1048576	60	94272
2026-01-07 17:21:44.92	324.62	24.04	-50.4	-65.8	3.6	1.51e+00	0	35	104	1048576	60	94707
2026-01-07 17:21:45.93	324.33	24.04	-50.4	-65.8	3.6	1.51e+00	0	35	104	1048576	60	94807
2026-01-07 17:21:46.94	324.05	24.03	-50.4	-65.8	3.6	1.51e+00	0	36	104	1048576	60	94615
2026-01-07 17:21:47.95	323.76	24.03	-50.4	-65.8	3.6	1.51e+00	0	36	104	1048576	60	95242
2026-01-07 17:21:48.96	323.47	24.02	-50.4	-65.8	3.6	1.51e+00	0	35	104	1048576	60	94622
2026-01-07 17:21:49.97	323.19	24.01	-50.4	-65.8	3.6	1.51e+00	0	35	104	1048576	60	94752
2026-01-07 17:21:50.98	322.90	24.01	-50.4	-65.7	3.6	1.51e+00	0	35	104	1048576	60	94323
2026-01-07 17:21:52.00	322.61	24.00	-50.4	-65.7	3.6	1.51e+00	0	35	104	1048576	60	94338
2026-01-07 17:21:53.01	322.33	23.99	-50.4	-65.8	3.6	1.51e+00	0	35	104	1048576	60	94718
2026-01-07 17:21:54.02	322.04	23.98	-50.4	-65.8	3.6	1.51e+00	0	36	104	1048576	60	95133
2026-01-07 17:21:55.03	321.76	23.97	-50.4	-65.8	3.6	1.51e+00	0	36	104	1048576	60	95150
2026-01-07 17:21:56.04	321.47	23.95	-50.4	-65.8	3.6	1.51e+00	0	36	104	1048576	60	94680
2026-01-07 17:21:57.05	321.19	23.94	-50.4	-65.8	3.6	1.51e+00	0	36	104	1048576	60	94764
2026-01-07 17:21:58.06	320.90	23.93	-50.4	-65.7	3.6	1.51e+00	0	35	104	1048576	60	94266
2026-01-07 17:21:59.07	320.62	23.91	-50.4	-65.7	3.6	1.51e+00	0	35	104	1048576	60	94421
2026-01-07 17:22:00.08	320.33	23.90	-50.4	-65.8	3.6	1.51e+00	0	36	104	1048576	60	94943
2026-01-07 17:22:01.10	320.05	23.88	-50.4	-65.7	3.6	1.51e+00	0	36	104	1048576	60	94118
2026-01-07 17:22:02.11	319.76	23.87	-50.4	-65.7	3.6	1.51e+00	0	35	104	1048576	60	94512
2026-01-07 17:22:03.12	319.48	23.85	-50.4	-65.8	3.6	1.51e+00	0	35	104	1048576	60	94590
2026-01-07 17:22:04.13	319.20	23.83	-50.4	-65.8	3.6	1.51e+00	0	36	104	1048576	60	94578
2026-01-07 17:22:05.14	318.91	23.81	-50.4	-65.8	3.6	1.51e+00	0	36	104	1048576	60	94692
2026-01-07 17:22:06.15	318.63	23.79	-50.4	-65.8	3.6	1.51e+00	0	36	104	1048576	60	94808
2026-01-07 17:22:07.16	318.35	23.77	-50.4	-65.8	3.6	1.51e+00	0	36	104	1048576	60	94573
2026-01-07 17:22:08.17	318.07	23.75	-50.4	-65.7	3.5	1.51e+00	0	36	104	1048576	60	94523
2026-01-07 17:22:09.18	317.79	23.73	-50.4	-65.7	3.6	1.51e+00	0	36	104	1048576	60	94284
2026-01-07 17:22:10.19	317.51	23.71	-50.4	-65.8	3.6	1.51e+00	0	36	104	1048576	60	94609
2026-01-07 17:22:11.20	317.23	23.69	-50.4	-65.8	3.6	1.51e+00	0	36	104	1048576	60	94568
2026-01-07 17:22:12.21	316.95	23.66	-50.4	-65.8	3.5	1.51e+00	0	35	104	1048576	60	94997
2026-01-07 17:22:13.22	316.67	23.64	-50.4	-65.7	3.6	1.51e+00	0	36	104	1048576	60	94021
2026-01-07 17:22:14.24	316.38	23.61	-50.4	-65.8	3.6	1.51e+00	0	36	104	1048576	60	95038
2026-01-07 17:22:15.25	316.11	23.59	-50.4	-65.8	3.6	1.51e+00	0	35	104	1048576	60	94550
2026-01-07 17:22:16.26	315.83	23.56	-50.4	-65.8	3.6	1.51e+00	0	36	104	1048576	60	94599
2026-01-07 17:22:17.27	315.55	23.53	-50.4	-65.8	3.6	1.51e+00	0	36	104	1048576	60	94664
2026-01-07 17:22:18.28	315.27	23.50	-50.4	-65.8	3.6	1.51e+00	0	36	104	1048576	60	94772
2026-01-07 17:22:19.29	315.00	23.48	-50.4	-65.8	3.6	1.51e+00	0	36	104	1048576	60	94575
2026-01-07 17:22:20.30	314.72	23.45	-50.4	-65.7	3.6	1.51e+00	0	36	104	1048576	60	94292
2026-01-07 17:22:21.31	314.44	23.42	-50.4	-65.8	3.6	1.51e+00	0	36	104	1048576	60	94645
2026-01-07 17:22:22.33	314.17	23.39	-50.4	-65.7	3.6	1.51e+00	0	35	104	1048576	60	94378
2026-01-07 17:22:23.34	313.89	23.35	-50.4	-65.8	3.6	1.51e+00	0	36	104	1048576	60	94712
2026-01-07 17:22:24.35	313.62	23.32	-50.4	-65.7	3.6	1.51e+00	0	36	104	1048576	60	94469
2026-01-07 17:22:25.36	313.34	23.29	-50.4	-65.7	3.6	1.51e+00	0	36	104	1048576	60	94108
2026-01-07 17:22:26.37	313.07	23.26	-50.4	-65.8	3.6	1.51e+00	0	36	104	1048576	60	94608
2026-01-07 17:22:27.38	312.80	23.22	-50.4	-65.8	3.6	1.51e+00	0	36	104	1048576	60	94845
2026-01-07 17:22:28.39	312.53	23.19	-50.4	-65.8	3.6	1.51e+00	0	36	104	1048576	60	94531
2026-01-07 17:22:29.40	312.26	23.15	-50.4	-65.7	3.6	1.51e+00	0	36	104	1048576	60	94346
2026-01-07 17:22:30.41	311.99	23.12	-50.4	-65.8	3.6	1.51e+00	0	36	104	1048576	60	94630
2026-01-07 17:22:31.42	311.72	23.08	-50.4	-65.7	3.6	1.51e+00	0	36	104	1048576	60	93916
2026-01-07 17:22:32.43	311.45	23.04	-50.4	-65.8	3.6	1.51e+00	0	36	104	1048576	60	94733
2026-01-07 17:22:33.44	311.18	23.00	-50.4	-65.7	3.6	1.51e+00	0	35	104	1048576	60	94377
2026-01-07 17:22:34.46	310.91	22.97	-50.4	-65.8	3.6	1.51e+00	0	35	104	1048576	60	94725
2026-01-07 17:22:35.47	310.64	22.93	-50.4	-65.7	3.6	1.51e+00	0	35	104	1048576	60	94180
2026-01-07 17:22:36.48	310.37	22.89	-50.4	-65.8	3.6	1.51e+00	0	36	104	1048576	60	94698
2026-01-07 17:22:37.49	310.11	22.85	-50.4	-65.8	3.6	1.51e+00	0	36	104	1048576	60	95020
2026-01-07 17:22:38.50	309.84	22.81	-50.4	-65.8	3.6	1.51e+00	0	36	104	1048576	60	94846
2026-01-07 17:22:39.51	309.58	22.76	-50.4	-65.7	3.6	1.51e+00	0	35	104	1048576	60	94423
2026-01-07 17:22:40.52	309.31	22.72	-50.4	-65.7	3.6	1.51e+00	0	36	104	1048576	60	94321
2026-01-07 17:22:41.53	309.05	22.68	-50.4	-65.7	3.6	1.51e+00	0	36	104	1048576	60	94370
2026-01-07 17:22:42.54	308.79	22.64	-50.4	-65.7	3.6	1.51e+00	0	35	104	1048576	60	94414
2026-01-07 17:22:43.56	308.53	22.59	-50.4	-65.7	3.6	1.51e+00	0	35	104	1048576	60	94305
2026-01-07 17:22:44.57	308.26	22.55	-50.4	-65.8	3.6	1.51e+00	0	35	104	1048576	60	94840
2026-01-07 17:22:45.58	308.00	22.50	-50.4	-65.7	3.6	1.51e+00	0	35	104	1048576	60	94507
2026-01-07 17:22:46.59	307.75	22.46	-50.4	-65.8	3.6	1.51e+00	0	35	104	1048576	60	94817
2026-01-07 17:22:47.60	307.49	22.41	-50.4	-65.8	3.6	1.51e+00	0	36	104	1048576	60	94672
2026-01-07 17:22:48.61	307.23	22.36	-50.4	-65.7	3.6	1.51e+00	0	36	104	1048576	60	94245
2026-01-07 17:22:49.62	306.97	22.32	-50.4	-65.7	3.6	1.51e+00	0	35	104	1048576	60	94333
2026-01-07 17:22:50.63	306.72	22.27	-50.4	-65.8	3.6	1.51e+00	0	36	104	1048576	60	94613
2026-01-07 17:22:51.64	306.46	22.22	-50.4	-65.8	3.6	1.51e+00	0	35	104	1048576	60	94542
2026-01-07 17:22:52.65	306.21	22.17	-50.4	-65.8	3.6	1.51e+00	0	36	104	1048576	60	94533
2026-01-07 17:22:53.66	305.95	22.12	-50.4	-65.7	3.6	1.51e+00	0	36	104	1048576	60	94517
2026-01-07 17:22:54.68	305.70	22.07	-50.4	-65.8	3.6	1.51e+00	0	36	104	1048576	60	94752
2026-01-07 17:22:55.69	305.44	22.02	-50.4	-65.8	3.6	1.51e+00	0	35	104	1048576	60	94824
2026-01-07 17:22:56.70	305.19	21.97	-50.4	-65.7	3.6	1.51e+00	0	36	104	1048576	60	94409
2026-01-07 17:22:57.71	304.94	21.92	-50.4	-65.8	3.5	1.51e+00	0	36	104	1048576	60	95064
2026-01-07 17:22:58.72	304.69	21.87	-50.4	-65.8	3.6	1.51e+00	0	36	104	1048576	60	94913
2026-01-07 17:22:59.73	304.44	21.82	-50.4	-65.8	3.6	1.51e+00	0	35	104	1048576	60	94728
2026-01-07 17:23:00.74	304.20	21.76	-50.4	-65.8	3.5	1.51e+00	0	36	104	1048576	60	94715
2026-01-07 17:23:01.75	303.95	21.71	-50.4	-65.8	3.6	1.51e+00	0	36	104	1048576	60	95225
2026-01-07 17:23:02.76	303.70	21.66	-50.4	-65.8	3.6	1.51e+00	0	36	104	1048576	60	94788
2026-01-07 17:23:03.77	303.46	21.60	-50.4	-65.8	3.6	1.51e+00	0	36	104	1048576	60	95246
2026-01-07 17:23:04.78	303.21	21.55	-50.4	-65.7	3.6	1.51e+00	0	36	104	1048576	60	94035
2026-01-07 17:23:05.80	302.97	21.49	-50.4	-65.8	3.6	1.51e+00	0	36	104	1048576	60	95156
2026-01-07 17:23:06.81	302.72	21.44	-50.4	-65.8	3.6	1.51e+00	0	36	104	1048576	60	94748
2026-01-07 17:23:07.82	302.48	21.38	-50.4	-65.8	3.6	1.51e+00	0	36	104	1048576	60	94703
2026-01-07 17:23:08.83	302.24	21.33	-50.4	-65.8	3.6	1.51e+00	0	35	104	1048576	60	94566
2026-01-07 17:23:09.84	302.00	21.27	-50.4	-65.7	3.6	1.51e+00	0	35	104	1048576	60	94484
2026-01-07 17:23:10.85	301.76	21.21	-50.4	-65.7	3.6	1.51e+00	0	35	104	1048576	60	94481
2026-01-07 17:23:11.86	301.52	21.16	-50.4	-65.7	3.6	1.51e+00	0	35	104	1048576	60	94486
2026-01-07 17:23:12.87	301.28	21.10	-50.4	-65.7	3.6	1.51e+00	0	35	104	1048576	60	94416
2026-01-07 17:23:13.88	301.05	21.04	-50.4	-65.8	3.6	1.51e+00	0	36	104	1048576	60	94742
2026-01-07 17:23:14.90	300.81	20.98	-50.4	-65.8	3.6	1.51e+00	0	35	104	1048576	60	94714
2026-01-07 17:23:15.91	300.58	20.92	-50.4	-65.8	3.6	1.51e+00	0	35	104	1048576	60	94738
2026-01-07 17:23:16.92	300.34	20.86	-50.4	-65.8	3.6	1.51e+00	0	35	104	1048576	60	94660
2026-01-07 17:23:17.93	300.11	20.80	-50.4	-65.7	3.6	1.51e+00	0	36	104	1048576	60	94201
2026-01-07 17:23:18.94	299.88	20.74	-50.4	-65.8	3.6	1.51e+00	0	35	104	1048576	60	94619
2026-01-07 17:23:19.95	299.65	20.68	-50.4	-65.8	3.6	1.51e+00	0	35	104	1048576	60	94820
2026-01-07 17:23:20.96	299.42	20.62	-50.4	-65.7	3.6	1.51e+00	0	35	104	1048576	60	94305
2026-01-07 17:23:21.97	299.19	20.56	-50.4	-65.8	3.6	1.51e+00	0	36	104	1048576	60	94598
2026-01-07 17:23:22.98	298.96	20.50	-50.4	-65.8	3.6	1.51e+00	0	36	104	1048576	60	94666
2026-01-07 17:23:23.99	298.73	20.44	-50.4	-65.8	3.6	1.51e+00	0	35	104	1048576	60	94998
2026-01-07 17:23:25.01	298.50	20.38	-50.4	-65.8	3.6	1.51e+00	0	35	104	1048576	60	94615
2026-01-07 17:23:26.01	298.28	20.31	-50.4	-65.8	3.6	1.51e+00	0	36	104	1048576	60	94998
2026-01-07 17:23:27.03	298.05	20.25	-50.4	-65.8	3.6	1.51e+00	0	35	104	1048576	60	94893
2026-01-07 17:23:28.04	297.83	20.19	-50.4	-65.7	3.6	1.51e+00	0	35	104	1048576	60	94413
2026-01-07 17:23:29.05	297.60	20.12	-50.4	-65.8	3.6	1.51e+00	0	36	104	1048576	60	94846
2026-01-07 17:23:30.06	297.38	20.06	-50.4	-65.8	3.6	1.51e+00	0	35	104	1048576	60	94610
2026-01-07 17:23:31.07	297.16	20.00	-50.4	-65.8	3.6	1.51e+00	0	35	104	1048576	60	94960
2026-01-07 17:23:32.08	296.94	19.93	-50.4	-65.7	3.6	1.51e+00	0	36	104	1048576	60	94469
2026-01-07 17:23:33.09	296.72	19.87	-50.4	-65.8	3.6	1.51e+00	0	35	104	1048576	60	94770
2026-01-07 17:23:34.10	296.50	19.80	-50.4	-65.8	3.6	1.51e+00	0	36	104	1048576	60	94805
2026-01-07 17:23:35.11	296.29	19.74	-50.4	-65.8	3.6	1.51e+00	0	36	104	1048576	60	95186
2026-01-07 17:23:36.12	296.07	19.67	-50.4	-65.8	3.6	1.51e+00	0	36	104	1048576	60	94832
2026-01-07 17:23:37.14	295.85	19.61	-50.4	-65.8	3.6	1.51e+00	0	35	104	1048576	60	94598
2026-01-07 17:23:38.15	295.64	19.54	-50.4	-65.7	3.6	1.51e+00	0	36	104	1048576	60	94404
2026-01-07 17:23:39.16	295.42	19.48	-50.4	-65.8	3.6	1.51e+00	0	36	104	1048576	60	94772
2026-01-07 17:23:40.17	295.21	19.41	-50.4	-65.8	3.6	1.51e+00	0	36	104	1048576	60	95404
2026-01-07 17:23:41.18	295.00	19.34	-50.4	-65.8	3.6	1.51e+00	0	35	104	1048576	60	95023
2026-01-07 17:23:42.19	294.79	19.28	-50.4	-65.8	3.6	1.51e+00	0	36	104	1048576	60	94899
2026-01-07 17:23:43.20	294.58	19.21	-50.4	-65.8	3.6	1.51e+00	0	35	104	1048576	60	94529
2026-01-07 17:23:44.21	294.37	19.14	-50.4	-65.8	3.6	1.51e+00	0	35	104	1048576	60	94670
2026-01-07 17:23:45.22	294.16	19.07	-50.4	-65.7	3.6	1.51e+00	0	35	104	1048576	60	94226
2026-01-07 17:23:46.23	293.95	19.01	-50.4	-65.8	3.6	1.51e+00	0	35	104	1048576	60	94932
2026-01-07 17:23:47.24	293.75	18.94	-50.4	-65.8	3.6	1.51e+00	0	35	104	1048576	60	95190
2026-01-07 17:23:48.25	293.54	18.87	-50.4	-65.7	3.6	1.51e+00	0	36	104	1048576	60	94436
2026-01-07 17:23:49.26	293.34	18.80	-50.4	-65.8	3.6	1.51e+00	0	35	104	1048576	60	94815
2026-01-07 17:23:50.27	293.14	18.74	-50.4	-65.8	3.6	1.51e+00	0	36	104	1048576	60	94868
2026-01-07 17:23:51.29	292.93	18.67	-50.4	-65.8	3.6	1.51e+00	0	36	104	1048576	60	94705
2026-01-07 17:23:52.30	292.73	18.60	-50.4	-65.8	3.6	1.51e+00	0	36	104	1048576	60	94959
2026-01-07 17:23:53.31	292.53	18.53	-50.4	-65.7	3.6	1.51e+00	0	36	104	1048576	60	94293
2026-01-07 17:23:54.32	292.33	18.46	-50.4	-65.8	3.6	1.51e+00	0	36	104	1048576	60	94711
2026-01-07 17:23:55.33	292.13	18.39	-50.4	-65.8	3.5	1.51e+00	0	36	104	1048576	60	94844
2026-01-07 17:23:56.34	291.93	18.32	-50.4	-65.8	3.6	1.51e+00	0	35	104	1048576	60	94612
2026-01-07 17:23:57.35	291.74	18.25	-50.4	-65.8	3.6	1.51e+00	0	36	104	1048576	60	95061
2026-01-07 17:23:58.36	291.54	18.18	-50.4	-65.7	3.6	1.51e+00	0	36	104	1048576	60	94320
2026-01-07 17:23:59.37	291.34	18.11	-50.4	-65.8	3.6	1.51e+00	0	35	104	1048576	60	94733
2026-01-07 17:24:00.38	291.15	18.04	-50.4	-65.8	3.6	1.51e+00	0	35	104	1048576	60	94857
2026-01-07 17:24:01.39	290.96	17.97	-50.4	-65.7	3.6	1.51e+00	0	36	104	1048576	60	94022
2026-01-07 17:24:02.41	290.76	17.90	-50.4	-65.8	3.6	1.51e+00	0	35	104	1048576	60	94607
2026-01-07 17:24:03.42	290.57	17.83	-50.4	-65.8	3.6	1.51e+00	0	36	104	1048576	60	94788
2026-01-07 17:24:04.43	290.38	17.76	-50.4	-65.7	3.6	1.51e+00	0	36	104	1048576	60	94497
2026-01-07 17:24:05.44	290.19	17.69	-50.4	-65.8	3.6	1.51e+00	0	36	104	1048576	60	94556
2026-01-07 17:24:06.45	290.00	17.62	-50.4	-65.8	3.6	1.51e+00	0	35	104	1048576	60	94997
2026-01-07 17:24:07.46	289.81	17.55	-50.4	-65.8	3.6	1.51e+00	0	36	104	1048576	60	95083
2026-01-07 17:24:08.47	289.63	17.48	-50.4	-65.8	3.6	1.51e+00	0	36	104	1048576	60	94646
2026-01-07 17:24:09.48	289.44	17.41	-50.4	-65.8	3.6	1.51e+00	0	36	104	1048576	60	94539
2026-01-07 17:24:10.49	289.26	17.33	-50.4	-65.7	3.6	1.51e+00	0	36	104	1048576	60	94136
2026-01-07 17:24:11.50	289.07	17.26	-50.4	-65.8	3.6	1.51e+00	0	36	104	1048576	60	94871
2026-01-07 17:24:12.51	288.89	17.19	-50.4	-65.8	3.6	1.51e+00	0	35	104	1048576	60	95103
2026-01-07 17:24:13.52	288.70	17.12	-50.4	-65.8	3.6	1.51e+00	0	36	104	1048576	60	94659
2026-01-07 17:24:14.53	288.52	17.05	-50.4	-65.8	3.6	1.51e+00	0	36	104	1048576	60	94824
2026-01-07 17:24:15.55	288.34	16.98	-50.4	-65.8	3.6	1.51e+00	0	36	104	1048576	60	94756
2026-01-07 17:24:16.56	288.16	16.90	-50.4	-65.8	3.6	1.51e+00	0	36	104	1048576	60	95083
2026-01-07 17:24:17.57	287.98	16.83	-50.4	-65.8	3.6	1.51e+00	0	36	104	1048576	60	94925
2026-01-07 17:24:18.88	287.75	16.74	-50.4	-65.8	3.6	1.51e+00	0	36	104	1048576	60	94715
2026-01-07 17:24:19.60	287.62	16.69	-50.4	-65.8	3.6	1.51e+00	0	36	104	1048576	60	94633
2026-01-07 17:24:20.90	287.40	16.59	-50.4	-65.8	3.6	1.51e+00	0	36	104	1048576	60	94842
2026-01-07 17:24:21.62	287.27	16.54	-50.4	-65.8	3.6	1.51e+00	0	36	104	1048576	60	94681
2026-01-07 17:24:22.92	287.05	16.45	-50.4	-65.8	3.6	1.51e+00	0	36	104	1048576	60	94833
2026-01-07 17:24:23.64	286.92	16.40	-50.4	-65.8	3.6	1.51e+00	0	36	104	1048576	60	94550
2026-01-07 17:24:24.94	286.70	16.31	-50.4	-65.8	3.6	1.51e+00	0	36	104	1048576	60	94806
2026-01-07 17:24:25.66	286.58	16.25	-50.4	-65.8	3.6	1.51e+00	0	36	104	1048576	60	94909
2026-01-07 17:24:26.96	286.36	16.16	-50.4	-65.8	3.6	1.51e+00	0	35	104	1048576	60	95315
2026-01-07 17:24:27.69	286.23	16.11	-50.4	-65.7	3.6	1.51e+00	0	36	104	1048576	60	94414
2026-01-07 17:24:28.99	286.02	16.02	-50.4	-65.8	3.6	1.51e+00	0	36	104	1048576	60	94564
2026-01-07 17:24:29.71	285.89	15.96	-50.4	-65.8	3.6	1.51e+00	0	36	104	1048576	60	94829
2026-01-07 17:24:31.01	285.68	15.87	-50.4	-65.7	3.6	1.51e+00	0	36	104	1048576	60	94046
2026-01-07 17:24:31.73	285.56	15.82	-50.4	-65.8	3.6	1.51e+00	0	36	104	1048576	60	94985
2026-01-07 17:24:33.03	285.35	15.73	-50.4	-65.7	3.6	1.51e+00	0	36	104	1048576	60	94457
2026-01-07 17:24:33.75	285.23	15.67	-50.4	-65.7	3.6	1.51e+00	0	36	104	1048576	60	94438
2026-01-07 17:24:35.05	285.02	15.58	-50.4	-65.7	3.6	1.51e+00	0	36	104	1048576	60	94421
2026-01-07 17:24:35.77	284.90	15.53	-50.4	-65.7	3.6	1.51e+00	0	36	104	1048576	60	94490
2026-01-07 17:24:37.07	284.69	15.43	-50.4	-65.8	3.6	1.51e+00	0	36	104	1048576	60	94530
2026-01-07 17:24:37.80	284.57	15.38	-50.4	-65.8	3.6	1.51e+00	0	36	104	1048576	60	95162
2026-01-07 17:24:39.10	284.36	15.29	-50.4	-65.7	3.6	1.51e+00	0	36	104	1048576	60	94049
2026-01-07 17:24:39.82	284.25	15.24	-50.4	-65.8	3.6	1.51e+00	0	36	104	1048576	60	94712
2026-01-07 17:24:41.12	284.04	15.14	-50.4	-65.8	3.6	1.51e+00	0	36	104	1048576	60	94569
2026-01-07 17:24:41.84	283.93	15.09	-50.4	-65.7	3.6	1.51e+00	0	36	104	1048576	60	94399
2026-01-07 17:24:43.14	283.73	15.00	-50.4	-65.8	3.6	1.51e+00	0	36	104	1048576	60	94850
2026-01-07 17:24:43.86	283.61	14.95	-50.4	-65.7	3.6	1.51e+00	0	36	104	1048576	60	94279
2026-01-07 17:24:45.16	283.41	14.85	-50.4	-65.7	3.6	1.51e+00	0	36	104	1048576	60	94402
2026-01-07 17:24:45.89	283.30	14.80	-50.4	-65.7	3.6	1.51e+00	0	36	104	1048576	60	94517
2026-01-07 17:24:47.18	283.10	14.71	-50.4	-65.8	3.6	1.51e+00	0	36	104	1048576	60	95202
2026-01-07 17:24:47.91	282.99	14.65	-50.4	-65.7	3.6	1.51e+00	0	35	104	1048576	60	94380
2026-01-07 17:24:49.20	282.79	14.56	-50.4	-65.7	3.6	1.51e+00	0	36	104	1048576	60	94291
2026-01-07 17:24:49.93	282.68	14.51	-50.4	-65.8	3.6	1.51e+00	0	36	104	1048576	60	95049
2026-01-07 17:24:51.23	282.49	14.41	-50.4	-65.8	3.6	1.51e+00	0	36	104	1048576	60	94642
2026-01-07 17:24:51.95	282.38	14.36	-50.4	-65.8	3.6	1.51e+00	0	36	104	1048576	60	94543
2026-01-07 17:24:53.25	282.18	14.27	-50.4	-65.8	3.5	1.51e+00	0	36	104	1048576	60	95117
2026-01-07 17:24:53.97	282.08	14.22	-50.4	-65.8	3.6	1.51e+00	0	36	104	1048576	60	94724
2026-01-07 17:24:55.27	281.89	14.12	-50.4	-65.8	3.6	1.51e+00	0	36	104	1048576	60	94660
2026-01-07 17:24:55.99	281.78	14.07	-50.4	-65.8	3.6	1.51e+00	0	36	104	1048576	60	94870
2026-01-07 17:24:57.29	281.59	13.98	-50.4	-65.8	3.6	1.51e+00	0	36	104	1048576	60	95050
2026-01-07 17:24:58.02	281.48	13.93	-50.4	-65.8	3.6	1.51e+00	0	36	104	1048576	60	94653
2026-01-07 17:24:59.32	281.29	13.83	-50.4	-65.8	3.6	1.51e+00	0	36	104	1048576	60	94687
2026-01-07 17:25:00.04	281.19	13.78	-50.4	-65.8	3.6	1.51e+00	0	36	104	1048576	60	94649
2026-01-07 17:25:01.34	281.00	13.69	-50.4	-65.8	3.6	1.51e+00	0	36	104	1048576	60	94923
2026-01-07 17:25:02.06	280.90	13.64	-50.4	-65.8	3.5	1.51e+00	0	36	104	1048576	60	94764
2026-01-07 17:25:03.36	280.72	13.54	-50.4	-65.7	3.6	1.51e+00	0	36	104	1048576	60	94129
2026-01-07 17:25:04.08	280.62	13.49	-50.4	-65.7	3.6	1.51e+00	0	36	104	1048576	60	94413
2026-01-07 17:25:05.38	280.43	13.40	-50.4	-65.7	3.6	1.51e+00	0	36	104	1048576	60	94391
2026-01-07 17:25:06.11	280.33	13.34	-50.4	-65.7	3.6	1.51e+00	0	36	104	1048576	60	94500
2026-01-07 17:25:07.41	280.15	13.25	-50.4	-65.8	3.6	1.51e+00	0	36	104	1048576	60	94767
2026-01-07 17:25:08.13	280.05	13.20	-50.4	-65.8	3.6	1.51e+00	0	36	104	1048576	60	94648
2026-01-07 17:25:09.43	279.87	13.11	-50.4	-65.8	3.6	1.51e+00	0	36	104	1048576	60	94531
2026-01-07 17:25:10.15	279.77	13.06	-50.4	-65.7	3.6	1.51e+00	0	36	104	1048576	60	94243
2026-01-07 17:25:11.45	279.60	12.96	-50.4	-65.8	3.6	1.51e+00	0	36	104	1048576	60	94723
2026-01-07 17:25:12.17	279.50	12.91	-50.4	-65.7	3.6	1.51e+00	0	36	104	1048576	60	94404
2026-01-07 17:25:13.47	279.32	12.82	-50.4	-65.8	3.6	1.51e+00	0	36	104	1048576	60	94556
2026-01-07 17:25:14.19	279.23	12.77	-50.4	-65.8	3.6	1.51e+00	0	36	104	1048576	60	94617
2026-01-07 17:25:15.49	279.05	12.67	-50.4	-65.7	3.6	1.51e+00	0	36	104	1048576	60	94486
2026-01-07 17:25:16.22	278.95	12.62	-50.4	-65.8	3.6	1.51e+00	0	36	104	1048576	60	94948
2026-01-07 17:25:17.52	278.78	12.53	-50.4	-65.8	3.6	1.51e+00	0	36	104	1048576	60	94974
2026-01-07 17:25:18.24	278.69	12.48	-50.4	-65.7	3.6	1.51e+00	0	36	104	1048576	60	94245
2026-01-07 17:25:19.54	278.52	12.39	-50.4	-65.8	3.6	1.51e+00	0	36	104	1048576	60	95091
2026-01-07 17:25:20.26	278.42	12.34	-50.4	-65.7	3.6	1.51e+00	0	36	104	1048576	60	94494
2026-01-07 17:25:21.56	278.25	12.24	-50.4	-65.8	3.6	1.51e+00	0	36	104	1048576	60	95049
2026-01-07 17:25:22.28	278.16	12.19	-50.4	-65.8	3.6	1.51e+00	0	36	104	1048576	60	95044
2026-01-07 17:25:23.58	277.99	12.10	-50.4	-65.7	3.6	1.51e+00	0	36	104	1048576	60	94521
2026-01-07 17:25:24.31	277.90	12.05	-50.4	-65.8	3.6	1.51e+00	0	36	104	1048576	60	94990
2026-01-07 17:25:25.61	277.74	11.96	-50.4	-65.8	3.6	1.51e+00	0	36	104	1048576	60	94825
2026-01-07 17:25:26.33	277.64	11.91	-50.4	-65.8	3.6	1.51e+00	0	36	104	1048576	60	94927
2026-01-07 17:25:27.63	277.48	11.82	-50.4	-65.8	3.6	1.51e+00	0	36	104	1048576	60	95027
2026-01-07 17:25:28.35	277.39	11.76	-50.4	-65.8	3.6	1.51e+00	0	36	104	1048576	60	94829
2026-01-07 17:25:29.65	277.23	11.67	-50.4	-65.8	3.6	1.51e+00	0	36	104	1048576	60	94692
2026-01-07 17:25:30.37	277.14	11.62	-50.4	-65.8	3.6	1.51e+00	0	36	104	1048576	60	94672
2026-01-07 17:25:31.67	276.98	11.53	-50.4	-65.8	3.6	1.51e+00	0	36	104	1048576	60	94685
2026-01-07 17:25:32.39	276.89	11.48	-50.4	-65.8	3.6	1.51e+00	0	36	104	1048576	60	94887
2026-01-07 17:25:33.69	276.73	11.39	-50.4	-65.8	3.6	1.51e+00	0	36	104	1048576	60	94699
2026-01-07 17:25:34.42	276.64	11.34	-50.4	-65.7	3.6	1.51e+00	0	36	104	1048576	60	94485
2026-01-07 17:25:35.72	276.49	11.25	-50.4	-65.7	3.6	1.51e+00	0	36	104	1048576	60	94366
2026-01-07 17:25:36.44	276.40	11.20	-50.4	-65.7	3.6	1.51e+00	0	36	104	1048576	60	94513
2026-01-07 17:25:37.74	276.24	11.11	-50.4	-65.8	3.6	1.51e+00	0	36	104	1048576	60	95220
2026-01-07 17:25:38.46	276.16	11.06	-50.4	-65.8	3.6	1.51e+00	0	36	104	1048576	60	95000
2026-01-07 17:25:39.76	276.00	10.97	-50.4	-65.8	3.6	1.51e+00	0	36	104	1048576	60	94888
2026-01-07 17:25:40.49	275.92	10.92	-50.4	-65.7	3.6	1.51e+00	0	36	104	1048576	60	94403
2026-01-07 17:25:41.78	275.76	10.83	-50.4	-65.8	3.6	1.51e+00	0	36	104	1048576	60	94684
2026-01-07 17:25:42.50	275.68	10.78	-50.4	-65.7	3.6	1.51e+00	0	36	104	1048576	60	94374
2026-01-07 17:25:43.80	275.53	10.69	-50.4	-65.7	3.6	1.51e+00	0	36	104	1048576	60	94223
2026-01-07 17:25:44.52	275.45	10.64	-50.4	-65.7	3.6	1.51e+00	0	36	104	1048576	60	94262
2026-01-07 17:25:45.82	275.30	10.55	-50.4	-65.8	3.6	1.51e+00	0	36	104	1048576	60	95013
2026-01-07 17:25:46.55	275.21	10.50	-50.4	-65.7	3.6	1.51e+00	0	36	104	1048576	60	94215
2026-01-07 17:25:47.85	275.06	10.41	-50.4	-65.8	3.6	1.51e+00	0	35	104	1048576	60	95348
2026-01-07 17:25:48.57	274.98	10.36	-50.4	-65.8	3.6	1.51e+00	0	36	104	1048576	60	94830
2026-01-07 17:25:49.87	274.83	10.27	-50.4	-65.8	3.6	1.51e+00	0	36	104	1048576	60	94779
2026-01-07 17:25:50.59	274.75	10.22	-50.4	-65.8	3.6	1.51e+00	0	35	104	1048576	60	95263
2026-01-07 17:25:51.89	274.61	10.13	-50.4	-65.8	3.6	1.51e+00	0	36	104	1048576	60	94642
2026-01-07 17:25:52.61	274.53	10.08	-50.4	-65.8	3.6	1.51e+00	0	35	104	1048576	60	95209
2026-01-07 17:25:53.91	274.38	9.99	-50.4	-65.8	3.6	1.51e+00	0	36	104	1048576	60	94784
2026-01-07 17:25:54.63	274.30	9.94	-50.4	-65.7	3.6	1.51e+00	0	36	104	1048576	60	94412
2026-01-07 17:25:55.93	274.16	9.85	-50.4	-65.8	3.6	1.51e+00	0	36	104	1048576	60	94992
2026-01-07 17:25:56.65	274.08	9.80	-50.4	-65.7	3.6	1.51e+00	0	36	104	1048576	60	94485
2026-01-07 17:25:57.95	273.94	9.71	-50.4	-65.7	3.6	1.51e+00	0	36	104	1048576	60	94410
2026-01-07 17:25:58.67	273.86	9.66	-50.4	-65.8	3.6	1.51e+00	0	36	104	1048576	60	94589
2026-01-07 17:25:59.97	273.72	9.58	-50.4	-65.7	3.6	1.51e+00	0	35	104	1048576	60	94337
2026-01-07 17:26:00.70	273.64	9.53	-50.4	-65.8	3.6	1.51e+00	0	36	104	1048576	60	94754
2026-01-07 17:26:02.00	273.51	9.44	-50.4	-65.8	3.6	1.51e+00	0	36	104	1048576	60	95140
2026-01-07 17:26:02.72	273.43	9.39	-50.4	-65.7	3.6	1.51e+00	0	36	104	1048576	60	94448
2026-01-07 17:26:04.02	273.29	9.30	-50.4	-65.8	3.6	1.51e+00	0	35	104	1048576	60	94897
2026-01-07 17:26:04.74	273.22	9.25	-50.4	-65.8	3.6	1.51e+00	0	36	104	1048576	60	94873
2026-01-07 17:26:06.04	273.08	9.17	-50.4	-65.8	3.6	1.51e+00	0	35	104	1048576	60	94534
2026-01-07 17:26:06.76	273.01	9.12	-50.4	-65.7	3.6	1.51e+00	0	35	104	1048576	60	94349
2026-01-07 17:26:08.06	272.87	9.03	-50.4	-65.8	3.5	1.51e+00	0	36	104	1048576	60	94545
2026-01-07 17:26:08.78	272.80	8.98	-50.4	-65.8	3.6	1.51e+00	0	36	104	1048576	60	94681
2026-01-07 17:26:10.08	272.66	8.89	-50.4	-65.8	3.6	1.51e+00	0	36	104	1048576	60	94651
2026-01-07 17:26:10.81	272.59	8.85	-50.4	-65.8	3.6	1.51e+00	0	36	104	1048576	60	94966
2026-01-07 17:26:12.11	272.46	8.76	-50.4	-65.8	3.6	1.51e+00	0	35	104	1048576	60	95059
2026-01-07 17:26:12.83	272.38	8.71	-50.4	-65.8	3.6	1.51e+00	0	36	104	1048576	60	94633
2026-01-07 17:26:14.13	272.25	8.62	-50.4	-65.7	3.6	1.51e+00	0	36	104	1048576	60	94408
2026-01-07 17:26:14.85	272.18	8.58	-50.4	-65.8	3.6	1.51e+00	0	36	104	1048576	60	94955
2026-01-07 17:26:16.15	272.05	8.49	-50.4	-65.8	3.6	1.51e+00	0	36	104	1048576	60	94651
2026-01-07 17:26:16.87	271.98	8.44	-50.4	-65.8	3.6	1.51e+00	0	36	104	1048576	60	94606
2026-01-07 17:26:18.17	271.85	8.36	-50.4	-65.8	3.6	1.51e+00	0	36	104	1048576	60	94994
2026-01-07 17:26:18.89	271.78	8.31	-50.4	-65.8	3.6	1.51e+00	0	36	104	1048576	60	94995
2026-01-07 17:26:20.19	271.65	8.22	-50.4	-65.8	3.6	1.51e+00	0	36	104	1048576	60	94834
2026-01-07 17:26:20.92	271.58	8.17	-50.4	-65.8	3.6	1.51e+00	0	36	104	1048576	60	94742
2026-01-07 17:26:22.22	271.46	8.09	-50.4	-65.8	3.6	1.51e+00	0	36	104	1048576	60	95007
2026-01-07 17:26:22.94	271.39	8.04	-50.4	-65.8	3.6	1.51e+00	0	36	104	1048576	60	94670
2026-01-07 17:26:24.24	271.26	7.95	-50.4	-65.7	3.6	1.51e+00	0	36	104	1048576	60	94510
2026-01-07 17:26:24.96	271.19	7.91	-50.4	-65.8	3.6	1.51e+00	0	36	104	1048576	60	94627
2026-01-07 17:26:26.26	271.07	7.82	-50.4	-65.8	3.6	1.51e+00	0	36	104	1048576	60	94696
