passes_logs/2026/01/07/R4.6S_Anadyr_2ch/R4.6S_Anadyr_2ch__20260107_083332_TY-40_rec.log

#Pass ID: 20260107_083332_TY-40
#Satellite: TY-40
#Configuration: TY-39_900M
#almurnet v.1.7.20251203
#Start time: 2026-01-07 08:34:02

#Version: 2.2.20231116
#Station: R4.6S_Anadyr_2ch
#Location: 177.4865 lon 64.73178 lat
#TLE: 1 56846U 23081A   25350.97536409  .00002626  00000-0  11966-3 0  9993
#TLE: 2 56846  97.3941  59.4076 0002022  98.6035 261.5430 15.21533877140291

#Time	Az	El	Level	Level2	SNR	BER	BlckErr	Temp	State	Recorded	gain1	gain2
2026-01-07 08:34:02.30	139.37	1.99	-51.6	-53.2	5.7	0.00e+00	0	31	0	0	60	76257
2026-01-07 08:34:03.31	139.34	2.06	-51.6	-54.0	6.1	0.00e+00	0	33	104	0	60	84149
2026-01-07 08:34:04.32	139.30	2.13	-51.6	-54.1	6.0	0.00e+00	0	33	104	0	60	84615
2026-01-07 08:34:05.34	139.27	2.20	-51.6	-54.1	6.1	0.00e+00	0	33	104	0	60	84683
2026-01-07 08:34:06.35	139.23	2.27	-51.6	-54.1	6.1	0.00e+00	0	33	104	0	60	84459
2026-01-07 08:34:07.36	139.19	2.34	-51.6	-54.1	6.1	0.00e+00	0	33	104	0	60	84821
2026-01-07 08:34:08.37	139.16	2.41	-51.6	-54.1	6.1	0.00e+00	0	33	104	0	60	84330
2026-01-07 08:34:09.38	139.12	2.48	-51.6	-54.1	6.1	0.00e+00	0	33	104	0	60	84376
2026-01-07 08:34:10.39	139.08	2.56	-51.6	-54.1	6.1	0.00e+00	0	33	104	0	60	84552
2026-01-07 08:34:11.40	139.05	2.63	-51.6	-54.1	6.1	0.00e+00	0	33	104	0	60	84488
2026-01-07 08:34:12.41	139.01	2.70	-51.6	-54.1	6.1	0.00e+00	0	33	104	0	60	84361
2026-01-07 08:34:13.42	138.97	2.77	-51.6	-54.1	6.1	0.00e+00	0	33	104	0	60	84673
2026-01-07 08:34:14.43	138.93	2.84	-51.6	-54.1	6.1	0.00e+00	0	33	104	0	60	84577
2026-01-07 08:34:15.44	138.89	2.92	-51.6	-54.1	6.1	0.00e+00	0	33	104	0	60	85031
2026-01-07 08:34:16.45	138.86	2.99	-51.6	-54.1	6.1	0.00e+00	0	33	104	0	60	84887
2026-01-07 08:34:17.46	138.82	3.06	-51.6	-54.1	6.1	0.00e+00	0	33	104	0	60	84535
2026-01-07 08:34:18.47	138.78	3.13	-51.6	-54.1	6.1	0.00e+00	0	34	104	0	60	84718
2026-01-07 08:34:19.49	138.74	3.21	-51.6	-54.1	6.1	0.00e+00	0	34	104	0	60	84618
2026-01-07 08:34:20.50	138.70	3.28	-51.6	-54.1	6.1	0.00e+00	0	34	104	0	60	84625
2026-01-07 08:34:21.51	138.66	3.36	-51.6	-54.1	6.1	0.00e+00	0	34	104	0	60	84575
2026-01-07 08:34:22.52	138.62	3.43	-51.6	-54.1	6.1	0.00e+00	0	34	104	0	60	84692
2026-01-07 08:34:23.53	138.58	3.51	-51.6	-54.1	6.1	0.00e+00	0	34	104	0	60	84775
2026-01-07 08:34:24.54	138.54	3.58	-51.6	-54.1	6.1	0.00e+00	0	34	104	0	60	85054
2026-01-07 08:34:25.55	138.50	3.66	-51.6	-54.1	6.1	0.00e+00	0	34	104	0	60	84721
2026-01-07 08:34:26.56	138.46	3.73	-51.6	-54.1	6.0	0.00e+00	0	34	104	0	60	84885
2026-01-07 08:34:27.57	138.41	3.81	-51.6	-54.1	6.1	0.00e+00	0	34	104	0	60	85102
2026-01-07 08:34:28.58	138.37	3.88	-51.6	-54.1	6.1	0.00e+00	0	34	104	0	60	84711
2026-01-07 08:34:29.59	138.33	3.96	-51.6	-54.1	6.1	0.00e+00	0	34	104	0	60	84687
2026-01-07 08:34:30.60	138.29	4.03	-51.6	-54.1	6.1	0.00e+00	0	34	104	0	60	85035
2026-01-07 08:34:31.61	138.24	4.11	-51.6	-54.1	6.1	0.00e+00	0	34	104	0	60	84898
2026-01-07 08:34:32.62	138.20	4.19	-51.6	-54.1	6.1	0.00e+00	0	34	104	0	60	84521
2026-01-07 08:34:33.63	138.16	4.26	-51.6	-54.1	6.1	0.00e+00	0	34	104	0	60	84610
2026-01-07 08:34:34.64	138.11	4.34	-51.6	-54.1	6.1	0.00e+00	0	34	104	0	60	84759
2026-01-07 08:34:35.65	138.07	4.42	-51.6	-54.1	6.1	0.00e+00	0	34	104	0	60	84474
2026-01-07 08:34:36.67	138.03	4.50	-51.6	-54.1	6.1	0.00e+00	0	34	104	0	60	84817
2026-01-07 08:34:37.68	137.98	4.58	-51.6	-54.1	6.1	0.00e+00	0	34	104	0	60	84596
2026-01-07 08:34:38.69	137.94	4.66	-51.6	-54.1	6.1	0.00e+00	0	34	104	0	60	84782
2026-01-07 08:34:39.70	137.89	4.73	-51.6	-54.1	6.1	0.00e+00	0	34	104	0	60	84403
2026-01-07 08:34:40.71	137.84	4.81	-51.6	-54.1	6.1	0.00e+00	0	34	104	0	60	84601
2026-01-07 08:34:41.72	137.80	4.89	-51.6	-54.1	6.1	0.00e+00	0	34	104	0	60	84918
2026-01-07 08:34:42.73	137.75	4.97	-51.6	-54.1	6.1	0.00e+00	0	34	104	0	60	84548
2026-01-07 08:34:43.74	137.71	5.05	-51.6	-54.1	6.1	0.00e+00	0	34	104	0	60	84895
2026-01-07 08:34:44.75	137.66	5.13	-51.6	-54.1	6.1	0.00e+00	0	34	104	0	60	85040
2026-01-07 08:34:45.76	137.61	5.21	-51.6	-54.1	6.1	0.00e+00	0	34	104	0	60	84459
2026-01-07 08:34:46.78	137.56	5.30	-51.6	-54.1	6.1	0.00e+00	0	34	104	0	60	85089
2026-01-07 08:34:47.79	137.51	5.38	-51.6	-54.0	6.1	0.00e+00	0	34	104	0	60	84105
2026-01-07 08:34:48.80	137.47	5.46	-51.6	-54.1	6.1	0.00e+00	0	34	104	0	60	84613
2026-01-07 08:34:49.81	137.42	5.54	-51.6	-54.1	6.1	0.00e+00	0	34	104	0	60	84944
2026-01-07 08:34:50.82	137.37	5.62	-51.6	-54.1	6.1	0.00e+00	0	34	104	0	60	85043
2026-01-07 08:34:51.83	137.32	5.71	-51.6	-54.1	6.1	0.00e+00	0	35	104	0	60	84657
2026-01-07 08:34:52.84	137.27	5.79	-51.6	-54.1	6.1	0.00e+00	0	34	104	0	60	84778
2026-01-07 08:34:53.85	137.22	5.87	-51.6	-54.1	6.1	0.00e+00	0	34	104	0	60	84924
2026-01-07 08:34:54.86	137.17	5.96	-51.6	-54.1	6.1	0.00e+00	0	34	104	0	60	84265
2026-01-07 08:34:55.87	137.12	6.04	-51.6	-54.1	6.1	0.00e+00	0	34	104	0	60	84538
2026-01-07 08:34:56.89	137.06	6.13	-51.6	-54.1	6.1	0.00e+00	0	35	104	0	60	84958
2026-01-07 08:34:57.90	137.01	6.21	-51.6	-54.1	6.1	0.00e+00	0	34	104	0	60	85220
2026-01-07 08:34:58.91	136.96	6.30	-51.6	-54.1	6.1	0.00e+00	0	34	104	0	60	84705
2026-01-07 08:34:59.92	136.91	6.38	-51.6	-54.1	6.1	0.00e+00	0	34	104	0	60	84651
2026-01-07 08:35:00.93	136.85	6.47	-51.6	-54.1	6.1	0.00e+00	0	34	104	0	60	84556
2026-01-07 08:35:01.94	136.80	6.55	-51.6	-54.1	6.1	0.00e+00	0	35	104	0	60	84921
2026-01-07 08:35:02.95	136.75	6.64	-51.6	-54.1	6.1	0.00e+00	0	34	104	0	60	84791
2026-01-07 08:35:03.96	136.69	6.73	-51.6	-54.1	6.1	0.00e+00	0	35	104	0	60	84935
2026-01-07 08:35:04.97	136.64	6.81	-51.6	-54.1	6.1	0.00e+00	0	34	104	0	60	84673
2026-01-07 08:35:05.98	136.58	6.90	-51.6	-54.1	6.1	0.00e+00	0	34	104	0	60	85056
2026-01-07 08:35:07.00	136.53	6.99	-51.6	-54.1	6.0	0.00e+00	0	34	104	0	60	84730
2026-01-07 08:35:08.01	136.47	7.08	-51.6	-54.1	6.1	0.00e+00	0	35	104	0	60	85211
2026-01-07 08:35:09.02	136.41	7.17	-51.6	-54.1	6.1	0.00e+00	0	35	104	0	60	84842
2026-01-07 08:35:10.03	136.36	7.26	-51.6	-54.2	6.1	0.00e+00	0	34	104	0	60	85298
2026-01-07 08:35:11.04	136.30	7.35	-51.6	-54.1	6.1	0.00e+00	0	35	104	0	60	84707
2026-01-07 08:35:12.05	136.24	7.44	-51.6	-54.1	6.1	0.00e+00	0	35	104	0	60	85107
2026-01-07 08:35:13.06	136.18	7.53	-51.6	-54.1	6.1	0.00e+00	0	35	104	0	60	85009
2026-01-07 08:35:14.07	136.12	7.62	-51.6	-54.1	6.1	0.00e+00	0	35	104	0	60	84760
2026-01-07 08:35:15.08	136.06	7.71	-51.6	-54.1	6.1	0.00e+00	0	35	104	0	60	84650
2026-01-07 08:35:16.09	136.00	7.80	-51.6	-54.1	6.1	0.00e+00	0	35	104	0	60	84896
2026-01-07 08:35:17.10	135.94	7.89	-51.6	-54.1	6.1	0.00e+00	0	35	104	0	60	85014
2026-01-07 08:35:18.12	135.88	7.98	-51.6	-54.2	6.1	0.00e+00	0	35	104	0	60	85321
2026-01-07 08:35:19.13	135.82	8.08	-51.6	-54.1	6.1	0.00e+00	0	35	104	0	60	84705
2026-01-07 08:35:20.14	135.76	8.17	-51.6	-54.1	6.1	0.00e+00	0	35	104	0	60	84663
2026-01-07 08:35:21.15	135.69	8.26	-51.6	-54.1	6.0	0.00e+00	0	35	104	0	60	85151
2026-01-07 08:35:22.16	135.63	8.36	-51.6	-54.1	6.1	0.00e+00	0	35	104	0	60	84541
2026-01-07 08:35:23.17	135.57	8.45	-51.6	-54.1	6.1	0.00e+00	0	35	104	0	60	84596
2026-01-07 08:35:24.18	135.50	8.55	-51.6	-54.1	6.1	0.00e+00	0	35	104	0	60	85051
2026-01-07 08:35:25.19	135.44	8.64	-51.6	-54.1	6.1	0.00e+00	0	35	104	0	60	84596
2026-01-07 08:35:26.20	135.37	8.74	-51.6	-54.1	6.1	0.00e+00	0	35	104	0	60	85068
2026-01-07 08:35:27.21	135.31	8.84	-51.6	-54.1	6.1	0.00e+00	0	35	104	0	60	84761
2026-01-07 08:35:28.23	135.24	8.93	-51.6	-54.1	6.1	0.00e+00	0	35	104	0	60	84865
2026-01-07 08:35:29.24	135.17	9.03	-51.6	-54.1	6.1	0.00e+00	0	35	104	0	60	84632
2026-01-07 08:35:30.25	135.11	9.13	-51.6	-54.1	6.1	0.00e+00	0	35	104	0	60	84759
2026-01-07 08:35:31.26	135.04	9.23	-51.6	-54.1	6.1	0.00e+00	0	35	104	0	60	84493
2026-01-07 08:35:32.27	134.97	9.33	-51.6	-54.1	6.1	0.00e+00	0	35	104	0	60	85047
2026-01-07 08:35:33.28	134.90	9.43	-51.6	-54.1	6.1	0.00e+00	0	35	104	0	60	84910
2026-01-07 08:35:34.29	134.83	9.53	-51.6	-54.1	6.1	0.00e+00	0	35	104	0	60	84988
2026-01-07 08:35:35.30	134.76	9.63	-51.6	-54.1	6.1	0.00e+00	0	35	104	0	60	84385
2026-01-07 08:35:36.31	134.69	9.73	-51.6	-54.1	6.1	0.00e+00	0	35	104	0	60	84637
2026-01-07 08:35:37.33	134.62	9.83	-51.6	-54.1	6.1	0.00e+00	0	35	104	0	60	84687
2026-01-07 08:35:38.34	134.54	9.93	-51.6	-54.1	6.1	0.00e+00	0	35	104	0	60	85064
2026-01-07 08:35:39.35	134.47	10.03	-51.6	-54.1	6.1	0.00e+00	0	35	104	0	60	84697
2026-01-07 08:35:40.36	134.40	10.14	-51.6	-54.1	6.1	0.00e+00	0	35	104	0	60	85148
2026-01-07 08:35:41.37	134.32	10.24	-51.6	-54.1	6.1	0.00e+00	0	35	104	0	60	84727
2026-01-07 08:35:42.38	134.25	10.34	-51.6	-54.1	6.1	0.00e+00	0	35	104	0	60	84899
2026-01-07 08:35:43.39	134.17	10.45	-51.6	-54.1	6.1	0.00e+00	0	35	104	0	60	84658
2026-01-07 08:35:44.40	134.10	10.55	-51.6	-54.1	6.0	0.00e+00	0	35	104	0	60	84746
2026-01-07 08:35:45.41	134.02	10.66	-51.6	-54.1	6.1	0.00e+00	0	35	104	0	60	85148
2026-01-07 08:35:46.42	133.94	10.77	-51.6	-54.1	6.1	0.00e+00	0	35	104	0	60	84527
2026-01-07 08:35:47.43	133.86	10.87	-51.6	-54.1	6.0	0.00e+00	0	35	104	0	60	84574
2026-01-07 08:35:48.45	133.78	10.98	-51.6	-54.1	6.1	0.00e+00	0	35	104	0	60	85028
2026-01-07 08:35:49.46	133.70	11.09	-51.6	-54.1	6.1	0.00e+00	0	35	104	0	60	84719
2026-01-07 08:35:50.47	133.62	11.20	-51.6	-54.1	6.1	0.00e+00	0	35	104	0	60	84754
2026-01-07 08:35:51.48	133.54	11.31	-51.6	-54.1	6.1	0.00e+00	0	35	104	0	60	84499
2026-01-07 08:35:52.49	133.46	11.42	-51.6	-54.1	6.1	0.00e+00	0	35	104	0	60	85153
2026-01-07 08:35:53.50	133.37	11.53	-51.6	-54.1	6.1	0.00e+00	0	35	104	0	60	84907
2026-01-07 08:35:54.51	133.29	11.64	-51.6	-54.1	6.1	0.00e+00	0	35	104	0	60	84346
2026-01-07 08:35:55.52	133.21	11.75	-51.6	-54.1	6.1	0.00e+00	0	35	104	0	60	84909
2026-01-07 08:35:56.53	133.12	11.86	-51.6	-54.2	6.1	0.00e+00	0	35	104	0	60	85808
2026-01-07 08:35:57.55	133.03	11.97	-51.6	-54.1	6.1	0.00e+00	0	35	104	0	60	85191
2026-01-07 08:35:58.56	132.95	12.09	-51.6	-54.1	6.1	0.00e+00	0	35	104	0	60	85006
2026-01-07 08:35:59.57	132.86	12.20	-51.6	-54.1	6.1	0.00e+00	0	35	104	0	60	85222
2026-01-07 08:36:00.58	132.77	12.32	-51.6	-54.1	6.1	0.00e+00	0	35	104	0	60	84759
2026-01-07 08:36:01.59	132.68	12.43	-51.6	-54.1	6.1	0.00e+00	0	35	104	0	60	84971
2026-01-07 08:36:02.60	132.59	12.55	-51.6	-54.1	6.1	0.00e+00	0	35	104	0	60	84823
2026-01-07 08:36:03.61	132.50	12.66	-51.6	-54.1	6.1	0.00e+00	0	35	104	0	60	85116
2026-01-07 08:36:04.62	132.40	12.78	-51.6	-54.1	6.1	0.00e+00	0	35	104	0	60	84724
2026-01-07 08:36:05.63	132.31	12.90	-51.6	-54.1	6.1	0.00e+00	0	35	104	0	60	84608
2026-01-07 08:36:06.65	132.22	13.02	-51.6	-54.1	6.1	0.00e+00	0	35	104	0	60	84803
2026-01-07 08:36:07.66	132.12	13.14	-51.6	-54.1	6.1	0.00e+00	0	35	104	0	60	84971
2026-01-07 08:36:08.67	132.02	13.26	-51.6	-54.1	6.1	0.00e+00	0	35	104	0	60	84656
2026-01-07 08:36:09.68	131.93	13.38	-51.6	-54.1	6.1	0.00e+00	0	35	104	0	60	84306
2026-01-07 08:36:10.69	131.83	13.50	-51.6	-54.1	6.1	0.00e+00	0	35	104	0	60	84934
2026-01-07 08:36:11.70	131.73	13.62	-51.6	-54.1	6.1	0.00e+00	0	35	104	0	60	84433
2026-01-07 08:36:12.71	131.63	13.75	-51.6	-54.1	6.1	0.00e+00	0	35	104	0	60	84830
2026-01-07 08:36:13.72	131.53	13.87	-51.6	-54.1	6.1	0.00e+00	0	35	104	0	60	84993
2026-01-07 08:36:14.74	131.43	14.00	-51.6	-54.1	6.1	0.00e+00	0	35	104	0	60	84479
2026-01-07 08:36:15.75	131.32	14.12	-51.6	-54.1	6.1	0.00e+00	0	35	104	0	60	85214
2026-01-07 08:36:16.76	131.22	14.25	-51.6	-54.1	6.1	0.00e+00	0	35	104	0	60	84729
2026-01-07 08:36:17.77	131.11	14.37	-51.6	-54.1	6.1	0.00e+00	0	35	104	0	60	84932
2026-01-07 08:36:18.78	131.01	14.50	-51.6	-54.1	6.1	0.00e+00	0	35	104	0	60	85153
2026-01-07 08:36:19.79	130.90	14.63	-51.6	-54.2	6.1	0.00e+00	0	35	104	0	60	85407
2026-01-07 08:36:20.80	130.79	14.76	-51.6	-54.1	6.1	0.00e+00	0	35	104	0	60	85216
2026-01-07 08:36:21.81	130.68	14.89	-51.6	-54.1	6.1	0.00e+00	0	35	104	0	60	84660
2026-01-07 08:36:22.82	130.57	15.02	-51.6	-54.1	6.1	0.00e+00	0	35	104	0	60	84819
2026-01-07 08:36:23.83	130.46	15.15	-51.6	-54.1	6.1	0.00e+00	0	35	104	0	60	84997
2026-01-07 08:36:24.84	130.34	15.28	-51.6	-54.1	6.1	0.00e+00	0	35	104	0	60	84935
2026-01-07 08:36:25.85	130.23	15.42	-51.6	-54.1	6.1	0.00e+00	0	35	104	0	60	84731
2026-01-07 08:36:26.86	130.11	15.55	-51.6	-54.1	6.1	0.00e+00	0	35	104	0	60	84741
2026-01-07 08:36:27.88	129.99	15.69	-51.6	-54.1	6.1	0.00e+00	0	35	104	0	60	84888
2026-01-07 08:36:28.89	129.87	15.82	-51.6	-54.1	6.1	0.00e+00	0	35	104	0	60	85224
2026-01-07 08:36:29.90	129.75	15.96	-51.6	-54.1	6.1	0.00e+00	0	35	104	0	60	84353
2026-01-07 08:36:30.91	129.63	16.10	-51.6	-54.1	6.1	0.00e+00	0	35	104	0	60	84934
2026-01-07 08:36:31.92	129.51	16.24	-51.6	-54.1	6.1	0.00e+00	0	35	104	0	60	84848
2026-01-07 08:36:32.93	129.39	16.37	-51.6	-54.1	6.1	0.00e+00	0	35	104	0	60	84693
2026-01-07 08:36:33.94	129.26	16.51	-51.6	-54.1	6.1	0.00e+00	0	35	104	0	60	84803
2026-01-07 08:36:34.95	129.13	16.66	-51.6	-54.1	6.1	0.00e+00	0	35	104	0	60	85009
2026-01-07 08:36:35.96	129.01	16.80	-51.6	-54.1	6.1	0.00e+00	0	35	104	0	60	85030
2026-01-07 08:36:36.98	128.87	16.94	-51.6	-54.1	6.1	0.00e+00	0	35	104	0	60	84769
2026-01-07 08:36:37.98	128.74	17.08	-51.6	-54.1	6.1	0.00e+00	0	35	104	0	60	84825
2026-01-07 08:36:38.99	128.61	17.23	-51.6	-54.1	6.1	0.00e+00	0	36	104	0	60	84993
2026-01-07 08:36:40.01	128.48	17.38	-51.6	-54.1	6.1	0.00e+00	0	36	104	0	60	84927
2026-01-07 08:36:41.02	128.34	17.52	-51.6	-54.1	6.1	0.00e+00	0	35	104	0	60	84951
2026-01-07 08:36:42.03	128.20	17.67	-51.6	-54.1	6.1	0.00e+00	0	36	104	0	60	84632
2026-01-07 08:36:43.04	128.06	17.82	-51.6	-54.1	6.1	0.00e+00	0	36	104	0	60	84963
2026-01-07 08:36:44.05	127.92	17.97	-51.6	-54.1	6.1	0.00e+00	0	36	104	0	60	85173
2026-01-07 08:36:45.06	127.78	18.12	-51.6	-54.1	6.1	0.00e+00	0	36	104	0	60	84548
2026-01-07 08:36:46.07	127.64	18.27	-51.6	-54.1	6.1	0.00e+00	0	36	104	0	60	84944
2026-01-07 08:36:47.08	127.49	18.43	-51.6	-54.1	6.1	0.00e+00	0	36	104	0	60	84779
2026-01-07 08:36:48.09	127.34	18.58	-51.6	-54.1	6.1	0.00e+00	0	36	104	0	60	84830
2026-01-07 08:36:49.10	127.19	18.74	-51.6	-54.1	6.1	0.00e+00	0	35	104	0	60	85007
2026-01-07 08:36:50.12	127.04	18.89	-51.6	-54.1	6.1	0.00e+00	0	36	104	0	60	84863
2026-01-07 08:36:51.13	126.89	19.05	-51.6	-54.1	6.1	0.00e+00	0	35	104	0	60	84781
2026-01-07 08:36:52.14	126.73	19.21	-51.6	-54.1	6.1	0.00e+00	0	35	104	0	60	84982
2026-01-07 08:36:53.15	126.58	19.37	-51.6	-54.1	6.1	0.00e+00	0	35	104	0	60	84890
2026-01-07 08:36:54.16	126.42	19.53	-51.6	-54.1	6.1	0.00e+00	0	36	104	0	60	85015
2026-01-07 08:36:55.17	126.26	19.69	-51.6	-54.1	6.1	0.00e+00	0	36	104	0	60	85062
2026-01-07 08:36:56.18	126.10	19.85	-51.6	-54.1	6.1	0.00e+00	0	36	104	0	60	85068
2026-01-07 08:36:57.19	125.93	20.02	-51.6	-54.1	6.1	0.00e+00	0	36	104	0	60	85125
2026-01-07 08:36:58.20	125.77	20.18	-51.6	-54.1	6.1	0.00e+00	0	36	104	0	60	85029
2026-01-07 08:36:59.22	125.60	20.35	-51.6	-54.1	6.1	0.00e+00	0	36	104	0	60	84742
2026-01-07 08:37:00.23	125.43	20.52	-51.6	-54.1	6.1	0.00e+00	0	36	104	0	60	84784
2026-01-07 08:37:01.24	125.25	20.68	-51.6	-54.1	6.1	0.00e+00	0	36	104	0	60	85189
2026-01-07 08:37:02.25	125.08	20.85	-51.6	-54.1	6.1	0.00e+00	0	36	104	0	60	85021
2026-01-07 08:37:03.26	124.90	21.02	-51.6	-54.1	6.1	0.00e+00	0	36	104	0	60	84606
2026-01-07 08:37:04.27	124.72	21.20	-51.6	-54.1	6.1	0.00e+00	0	36	104	0	60	85152
2026-01-07 08:37:05.28	124.54	21.37	-51.6	-54.1	6.1	0.00e+00	0	36	104	0	60	85207
2026-01-07 08:37:06.29	124.35	21.54	-51.6	-54.1	6.1	0.00e+00	0	36	104	0	60	84789
2026-01-07 08:37:07.30	124.17	21.72	-51.6	-54.1	6.1	0.00e+00	0	36	104	0	60	84925
2026-01-07 08:37:08.31	123.98	21.90	-51.6	-54.1	6.1	0.00e+00	0	36	104	0	60	84605
2026-01-07 08:37:09.32	123.79	22.07	-51.6	-54.1	6.1	0.00e+00	0	36	104	0	60	84864
2026-01-07 08:37:10.33	123.59	22.25	-51.6	-54.1	6.1	0.00e+00	0	36	104	0	60	85197
2026-01-07 08:37:11.34	123.39	22.43	-51.6	-54.1	6.1	0.00e+00	0	36	104	0	60	84678
2026-01-07 08:37:12.35	123.20	22.61	-51.6	-54.1	6.1	0.00e+00	0	36	104	0	60	84898
2026-01-07 08:37:13.37	122.99	22.80	-51.6	-54.1	6.1	0.00e+00	0	36	104	0	60	84727
2026-01-07 08:37:14.38	122.79	22.98	-51.6	-54.1	6.1	0.00e+00	0	36	104	0	60	84558
2026-01-07 08:37:15.39	122.58	23.17	-51.6	-54.1	6.1	0.00e+00	0	36	104	0	60	84934
2026-01-07 08:37:16.40	122.37	23.36	-51.6	-54.1	6.1	0.00e+00	0	36	104	0	60	85177
2026-01-07 08:37:17.41	122.16	23.54	-51.6	-54.1	6.1	0.00e+00	0	36	104	0	60	84388
2026-01-07 08:37:18.42	121.94	23.73	-51.6	-54.1	6.1	0.00e+00	0	36	104	0	60	84978
2026-01-07 08:37:19.43	121.72	23.92	-51.6	-54.1	6.1	0.00e+00	0	36	104	0	60	84648
2026-01-07 08:37:20.44	121.50	24.12	-51.6	-54.1	6.1	0.00e+00	0	36	104	0	60	85019
2026-01-07 08:37:21.45	121.27	24.31	-51.6	-54.1	6.1	0.00e+00	0	36	104	0	60	85082
2026-01-07 08:37:22.47	121.04	24.50	-51.6	-54.1	6.1	0.00e+00	0	36	104	0	60	84675
2026-01-07 08:37:23.48	120.81	24.70	-51.6	-54.1	6.1	0.00e+00	0	36	104	0	60	85014
2026-01-07 08:37:24.49	120.57	24.90	-51.6	-54.1	6.1	0.00e+00	0	36	104	0	60	84746
2026-01-07 08:37:25.50	120.34	25.10	-51.6	-54.1	6.1	0.00e+00	0	36	104	0	60	85036
2026-01-07 08:37:26.51	120.09	25.30	-51.6	-54.1	6.1	0.00e+00	0	36	104	0	60	84778
2026-01-07 08:37:27.52	119.85	25.50	-51.6	-54.1	6.1	0.00e+00	0	36	104	0	60	85221
2026-01-07 08:37:28.53	119.60	25.70	-51.6	-54.1	6.1	0.00e+00	0	36	104	0	60	85178
2026-01-07 08:37:29.54	119.35	25.90	-51.6	-54.1	6.1	0.00e+00	0	36	104	0	60	85002
2026-01-07 08:37:30.55	119.09	26.11	-51.6	-54.1	6.1	0.00e+00	0	36	104	0	60	85077
2026-01-07 08:37:31.56	118.83	26.31	-51.6	-54.1	6.1	0.00e+00	0	36	104	0	60	84693
2026-01-07 08:37:32.58	118.57	26.52	-51.6	-54.1	6.1	0.00e+00	0	36	104	0	60	84938
2026-01-07 08:37:33.59	118.30	26.73	-51.6	-54.1	6.1	0.00e+00	0	36	104	0	60	85193
2026-01-07 08:37:34.60	118.03	26.94	-51.6	-54.1	6.1	0.00e+00	0	36	104	0	60	85178
2026-01-07 08:37:35.61	117.75	27.16	-51.6	-54.2	6.1	0.00e+00	0	36	104	0	60	85524
2026-01-07 08:37:36.62	117.47	27.37	-51.6	-54.1	6.1	0.00e+00	0	36	104	0	60	85080
2026-01-07 08:37:37.63	117.19	27.58	-51.6	-54.1	6.1	0.00e+00	0	36	104	0	60	84754
2026-01-07 08:37:38.64	116.90	27.80	-51.6	-54.1	6.1	0.00e+00	0	36	104	0	60	85186
2026-01-07 08:37:39.65	116.61	28.02	-51.6	-54.1	6.1	0.00e+00	0	36	104	0	60	84763
2026-01-07 08:37:40.66	116.31	28.23	-51.6	-54.1	6.1	0.00e+00	0	36	104	0	60	84835
2026-01-07 08:37:41.67	116.01	28.45	-51.6	-54.1	6.1	0.00e+00	0	36	104	0	60	85041
2026-01-07 08:37:42.69	115.70	28.68	-51.6	-54.1	6.1	0.00e+00	0	36	104	0	60	85009
2026-01-07 08:37:43.70	115.39	28.90	-51.6	-54.2	6.1	0.00e+00	0	36	104	0	60	85245
2026-01-07 08:37:44.71	115.08	29.12	-51.6	-54.1	6.1	0.00e+00	0	36	104	0	60	84963
2026-01-07 08:37:45.72	114.76	29.34	-51.6	-54.1	6.1	0.00e+00	0	36	104	0	60	84656
2026-01-07 08:37:46.73	114.43	29.57	-51.6	-54.1	6.1	0.00e+00	0	36	104	0	60	85151
2026-01-07 08:37:47.74	114.10	29.80	-51.6	-54.1	6.1	0.00e+00	0	36	104	0	60	85001
2026-01-07 08:37:48.75	113.77	30.02	-51.6	-54.1	6.1	0.00e+00	0	36	104	0	60	85105
2026-01-07 08:37:49.76	113.43	30.25	-51.6	-54.1	6.1	0.00e+00	0	36	104	0	60	84785
2026-01-07 08:37:50.78	113.08	30.48	-51.6	-54.1	6.1	0.00e+00	0	36	104	0	60	84976
2026-01-07 08:37:51.79	112.73	30.72	-51.6	-54.1	6.1	0.00e+00	0	36	104	0	60	84960
2026-01-07 08:37:52.80	112.37	30.95	-51.6	-54.1	6.1	0.00e+00	0	36	104	0	60	84744
2026-01-07 08:37:53.81	112.01	31.18	-51.6	-54.1	6.1	0.00e+00	0	36	104	0	60	85158
2026-01-07 08:37:54.82	111.64	31.41	-51.6	-54.1	6.1	0.00e+00	0	36	104	0	60	85024
2026-01-07 08:37:55.83	111.27	31.65	-51.6	-54.1	6.0	0.00e+00	0	36	104	0	60	85076
2026-01-07 08:37:56.84	110.89	31.89	-51.6	-54.1	6.1	0.00e+00	0	36	104	0	60	84557
2026-01-07 08:37:57.85	110.51	32.12	-51.6	-54.1	6.1	0.00e+00	0	36	104	0	60	84982
2026-01-07 08:37:58.87	110.11	32.36	-51.6	-54.1	6.1	0.00e+00	0	36	104	0	60	84516
2026-01-07 08:37:59.88	109.71	32.60	-51.6	-54.1	6.1	0.00e+00	0	36	104	0	60	84932
2026-01-07 08:38:00.89	109.31	32.84	-51.6	-54.1	6.1	0.00e+00	0	36	104	0	60	85166
2026-01-07 08:38:01.90	108.90	33.08	-51.6	-54.1	6.1	0.00e+00	0	36	104	0	60	84865
2026-01-07 08:38:02.91	108.48	33.32	-51.6	-54.1	6.1	0.00e+00	0	36	104	0	60	85079
2026-01-07 08:38:03.92	108.06	33.56	-51.6	-54.1	6.1	0.00e+00	0	36	104	0	60	84980
2026-01-07 08:38:04.93	107.63	33.80	-51.6	-54.1	6.1	0.00e+00	0	36	104	0	60	84931
2026-01-07 08:38:05.94	107.19	34.04	-51.6	-54.1	6.1	0.00e+00	0	36	104	0	60	85126
2026-01-07 08:38:06.95	106.75	34.28	-51.6	-54.1	6.1	0.00e+00	0	36	104	0	60	84677
2026-01-07 08:38:07.96	106.29	34.53	-51.6	-54.1	6.1	0.00e+00	0	36	104	0	60	84600
2026-01-07 08:38:08.98	105.83	34.77	-51.6	-54.1	6.1	0.00e+00	0	36	104	0	60	85019
2026-01-07 08:38:09.99	105.36	35.01	-51.6	-54.1	6.1	0.00e+00	0	36	104	0	60	84749
2026-01-07 08:38:11.00	104.89	35.26	-51.6	-54.1	6.1	0.00e+00	0	36	104	0	60	85081
2026-01-07 08:38:12.01	104.41	35.50	-51.6	-54.1	6.1	0.00e+00	0	36	104	0	60	85118
2026-01-07 08:38:13.02	103.92	35.74	-51.6	-54.1	6.1	0.00e+00	0	36	104	0	60	84717
2026-01-07 08:38:14.03	103.42	35.99	-51.6	-54.2	6.1	0.00e+00	0	36	104	0	60	85260
2026-01-07 08:38:15.04	102.92	36.23	-51.6	-54.1	6.1	0.00e+00	0	36	104	0	60	85204
2026-01-07 08:38:16.05	102.41	36.47	-51.6	-54.1	6.1	0.00e+00	0	36	104	0	60	84838
2026-01-07 08:38:17.06	101.89	36.71	-51.6	-54.1	6.1	0.00e+00	0	36	104	0	60	84986
2026-01-07 08:38:18.07	101.36	36.95	-51.6	-54.2	6.1	0.00e+00	0	36	104	0	60	85315
2026-01-07 08:38:19.08	100.82	37.19	-51.6	-54.1	6.1	0.00e+00	0	36	104	0	60	84869
2026-01-07 08:38:20.09	100.27	37.43	-51.6	-54.1	6.1	0.00e+00	0	36	104	0	60	84970
2026-01-07 08:38:21.10	99.72	37.67	-51.6	-54.2	6.1	0.00e+00	0	36	104	0	60	85231
2026-01-07 08:38:22.11	99.16	37.91	-51.6	-54.1	6.1	0.00e+00	0	36	104	0	60	85071
2026-01-07 08:38:23.12	98.59	38.14	-51.6	-54.1	6.1	0.00e+00	0	36	104	0	60	85017
2026-01-07 08:38:24.14	98.00	38.38	-51.6	-54.1	6.1	0.00e+00	0	36	104	0	60	85056
2026-01-07 08:38:25.14	97.42	38.61	-51.6	-54.1	6.1	0.00e+00	0	36	104	0	60	85191
2026-01-07 08:38:26.16	96.81	38.85	-51.6	-54.1	6.1	0.00e+00	0	36	104	0	60	84348
2026-01-07 08:38:27.17	96.21	39.08	-51.6	-54.1	6.0	0.00e+00	0	36	104	0	60	84903
2026-01-07 08:38:28.18	95.59	39.31	-51.6	-54.1	6.1	0.00e+00	0	36	104	0	60	85042
2026-01-07 08:38:29.19	94.96	39.53	-51.6	-54.1	6.1	0.00e+00	0	36	104	0	60	85201
2026-01-07 08:38:30.20	94.33	39.76	-51.6	-54.1	6.1	0.00e+00	0	36	104	0	60	84952
2026-01-07 08:38:31.21	93.68	39.98	-51.6	-54.1	6.1	0.00e+00	0	36	104	0	60	85076
2026-01-07 08:38:32.22	93.03	40.20	-51.6	-54.1	6.1	0.00e+00	0	36	104	0	60	84933
2026-01-07 08:38:33.23	92.37	40.42	-51.6	-54.2	6.1	0.00e+00	0	36	104	0	60	85387
2026-01-07 08:38:34.24	91.70	40.63	-51.6	-54.2	6.1	0.00e+00	0	36	104	0	60	85304
2026-01-07 08:38:35.25	91.02	40.84	-51.6	-54.1	6.1	0.00e+00	0	36	104	0	60	84965
2026-01-07 08:38:36.26	90.33	41.05	-51.6	-54.1	6.1	0.00e+00	0	36	104	0	60	84302
2026-01-07 08:38:37.28	89.62	41.26	-51.6	-54.2	6.1	0.00e+00	0	36	104	0	60	85227
2026-01-07 08:38:38.29	88.91	41.46	-51.6	-54.2	6.1	0.00e+00	0	36	104	0	60	85305
2026-01-07 08:38:39.30	88.19	41.66	-51.6	-54.1	6.1	0.00e+00	0	36	104	0	60	84839
2026-01-07 08:38:40.31	87.47	41.85	-51.6	-54.1	6.1	0.00e+00	0	36	104	0	60	84980
2026-01-07 08:38:41.32	86.73	42.05	-51.6	-54.2	6.1	0.00e+00	0	36	104	0	60	85505
2026-01-07 08:38:42.33	85.98	42.23	-51.6	-54.1	6.1	0.00e+00	0	36	104	0	60	84858
2026-01-07 08:38:43.34	85.23	42.41	-51.6	-54.2	6.1	0.00e+00	0	36	104	0	60	85225
2026-01-07 08:38:44.35	84.47	42.59	-51.6	-54.1	6.1	0.00e+00	0	36	104	0	60	84980
2026-01-07 08:38:45.37	83.69	42.77	-51.6	-54.2	6.1	0.00e+00	0	36	104	0	60	85358
2026-01-07 08:38:46.38	82.91	42.93	-51.6	-54.2	6.1	0.00e+00	0	36	104	0	60	85355
2026-01-07 08:38:47.39	82.12	43.10	-51.6	-54.1	6.0	0.00e+00	0	36	104	0	60	84995
2026-01-07 08:38:48.40	81.32	43.26	-51.6	-54.2	6.1	0.00e+00	0	36	104	0	60	85437
2026-01-07 08:38:49.41	80.51	43.41	-51.7	-54.1	6.1	0.00e+00	0	36	104	0	60	85032
2026-01-07 08:38:50.42	79.70	43.56	-51.7	-54.1	6.1	0.00e+00	0	36	104	0	60	84928
2026-01-07 08:38:51.43	78.88	43.70	-51.6	-54.1	6.1	0.00e+00	0	36	104	0	60	85010
2026-01-07 08:38:52.44	78.05	43.83	-51.6	-54.2	6.1	0.00e+00	0	36	104	0	60	85558
2026-01-07 08:38:53.45	77.22	43.96	-51.7	-54.1	6.1	0.00e+00	0	36	104	0	60	84795
2026-01-07 08:38:54.47	76.37	44.09	-51.6	-54.1	6.1	0.00e+00	0	36	104	0	60	85001
2026-01-07 08:38:55.48	75.52	44.20	-51.6	-54.1	6.1	0.00e+00	0	36	104	0	60	84917
2026-01-07 08:38:56.48	74.67	44.31	-51.6	-54.1	6.1	0.00e+00	0	36	104	0	60	84695
2026-01-07 08:38:57.50	73.80	44.42	-51.6	-54.1	6.1	0.00e+00	0	36	104	0	60	84905
2026-01-07 08:38:58.51	72.93	44.52	-51.6	-54.1	6.1	0.00e+00	0	36	104	0	60	84945
2026-01-07 08:38:59.52	72.06	44.61	-51.6	-54.2	6.1	0.00e+00	0	36	104	0	60	85312
2026-01-07 08:39:00.53	71.18	44.69	-51.6	-54.1	6.1	0.00e+00	0	36	104	0	60	84550
2026-01-07 08:39:01.54	70.30	44.76	-51.6	-54.1	6.1	0.00e+00	0	36	104	0	60	85102
2026-01-07 08:39:02.55	69.42	44.83	-51.6	-54.1	6.1	0.00e+00	0	36	104	0	60	84609
2026-01-07 08:39:03.56	68.53	44.90	-51.6	-54.2	6.1	0.00e+00	0	36	104	0	60	85276
2026-01-07 08:39:04.57	67.64	44.95	-51.7	-54.1	6.1	0.00e+00	0	36	104	0	60	85070
2026-01-07 08:39:05.58	66.74	45.00	-51.6	-54.1	6.1	0.00e+00	0	36	104	0	60	85066
2026-01-07 08:39:06.59	65.84	45.04	-51.6	-54.1	6.1	0.00e+00	0	36	104	0	60	84710
2026-01-07 08:39:07.60	64.94	45.07	-51.6	-54.1	6.1	0.00e+00	0	36	104	0	60	84874
2026-01-07 08:39:08.61	64.04	45.09	-51.6	-54.1	6.1	0.00e+00	0	36	104	0	60	84989
2026-01-07 08:39:09.62	63.14	45.11	-51.6	-54.1	6.1	0.00e+00	0	36	104	0	60	84904
2026-01-07 08:39:10.63	62.23	45.12	-51.6	-54.1	6.1	0.00e+00	0	36	104	0	60	85087
2026-01-07 08:39:11.64	61.33	45.12	-51.6	-54.1	6.0	0.00e+00	0	36	104	0	60	84841
2026-01-07 08:39:12.65	60.43	45.11	-51.7	-54.2	6.1	0.00e+00	0	36	104	0	60	85619
2026-01-07 08:39:13.66	59.52	45.10	-51.6	-54.1	6.1	0.00e+00	0	36	104	0	60	85123
2026-01-07 08:39:14.67	58.62	45.08	-51.7	-54.2	6.1	0.00e+00	0	36	104	0	60	85250
2026-01-07 08:39:15.69	57.71	45.05	-51.7	-54.1	6.1	0.00e+00	0	36	104	0	60	85095
2026-01-07 08:39:16.70	56.81	45.01	-51.6	-54.2	6.1	0.00e+00	0	36	104	0	60	85518
2026-01-07 08:39:17.71	55.92	44.97	-51.7	-54.1	6.1	0.00e+00	0	36	104	0	60	84874
2026-01-07 08:39:18.72	55.02	44.91	-51.7	-54.1	6.1	0.00e+00	0	36	104	0	60	85132
2026-01-07 08:39:19.73	54.13	44.86	-51.7	-54.1	6.1	0.00e+00	0	36	104	0	60	85154
2026-01-07 08:39:20.74	53.25	44.79	-51.6	-54.1	6.1	0.00e+00	0	36	104	0	60	84903
2026-01-07 08:39:21.75	52.36	44.72	-51.6	-54.1	6.1	0.00e+00	0	36	104	0	60	84532
2026-01-07 08:39:22.76	51.49	44.63	-51.6	-54.1	6.1	0.00e+00	0	36	104	0	60	84435
2026-01-07 08:39:23.77	50.61	44.55	-51.7	-54.1	6.1	0.00e+00	0	36	104	0	60	84950
2026-01-07 08:39:24.78	49.75	44.45	-51.6	-54.1	6.1	0.00e+00	0	36	104	0	60	85009
2026-01-07 08:39:25.79	48.88	44.35	-51.6	-54.2	6.1	0.00e+00	0	36	104	0	60	85239
2026-01-07 08:39:26.80	48.03	44.24	-51.6	-54.1	6.1	0.00e+00	0	36	104	0	60	85167
2026-01-07 08:39:27.81	47.18	44.13	-51.7	-54.1	6.1	0.00e+00	0	36	104	0	60	84902
2026-01-07 08:39:28.82	46.34	44.01	-51.7	-54.1	6.1	0.00e+00	0	36	104	0	60	84605
2026-01-07 08:39:29.83	45.50	43.88	-51.7	-54.1	6.1	0.00e+00	0	36	104	0	60	84839
2026-01-07 08:39:30.84	44.67	43.75	-51.6	-54.2	6.1	0.00e+00	0	36	104	0	60	85460
2026-01-07 08:39:31.86	43.84	43.61	-51.6	-54.1	6.1	0.00e+00	0	36	104	0	60	84878
2026-01-07 08:39:32.87	43.02	43.46	-51.7	-54.2	6.1	0.00e+00	0	36	104	0	60	85273
2026-01-07 08:39:33.88	42.22	43.31	-51.6	-54.2	6.1	0.00e+00	0	36	104	0	60	85396
2026-01-07 08:39:34.89	41.42	43.16	-51.6	-54.2	6.1	0.00e+00	0	36	104	0	60	85530
2026-01-07 08:39:35.90	40.63	42.99	-51.6	-54.2	6.1	0.00e+00	0	36	104	0	60	85350
2026-01-07 08:39:36.91	39.85	42.83	-51.6	-54.1	6.1	0.00e+00	0	36	104	0	60	85062
2026-01-07 08:39:37.92	39.07	42.66	-51.7	-54.1	6.1	0.00e+00	0	36	104	0	60	84709
2026-01-07 08:39:38.93	38.31	42.48	-51.6	-54.1	6.1	0.00e+00	0	36	104	0	60	85198
2026-01-07 08:39:39.94	37.55	42.30	-51.7	-54.1	6.1	0.00e+00	0	36	104	0	60	85104
2026-01-07 08:39:40.95	36.81	42.12	-51.6	-54.2	6.1	0.00e+00	0	36	104	0	60	85552
2026-01-07 08:39:41.97	36.06	41.93	-51.7	-54.2	6.1	0.00e+00	0	36	104	0	60	85440
2026-01-07 08:39:42.98	35.33	41.73	-51.6	-54.2	6.0	0.00e+00	0	36	104	0	60	85488
2026-01-07 08:39:43.99	34.61	41.54	-51.6	-54.1	6.1	0.00e+00	0	36	104	0	60	85055
2026-01-07 08:39:45.00	33.90	41.34	-51.6	-54.1	6.1	0.00e+00	0	36	104	0	60	85120
2026-01-07 08:39:46.01	33.20	41.13	-51.6	-54.1	6.1	0.00e+00	0	36	104	0	60	84980
2026-01-07 08:39:47.02	32.51	40.93	-51.7	-54.1	6.1	0.00e+00	0	36	104	0	60	85198
2026-01-07 08:39:48.03	31.83	40.72	-51.7	-54.1	6.1	0.00e+00	0	36	104	0	60	85113
2026-01-07 08:39:49.04	31.15	40.51	-51.6	-54.1	6.1	0.00e+00	0	36	104	0	60	85067
2026-01-07 08:39:50.05	30.49	40.29	-51.7	-54.2	6.1	0.00e+00	0	36	104	0	60	85425
2026-01-07 08:39:51.06	29.83	40.07	-51.7	-54.1	6.1	0.00e+00	0	36	104	0	60	84897
2026-01-07 08:39:52.07	29.19	39.85	-51.7	-54.1	6.1	0.00e+00	0	36	104	0	60	85192
2026-01-07 08:39:53.09	28.55	39.63	-51.6	-54.1	6.1	0.00e+00	0	36	104	0	60	85167
2026-01-07 08:39:54.10	27.92	39.40	-51.7	-54.2	6.1	0.00e+00	0	36	104	0	60	85446
2026-01-07 08:39:55.11	27.30	39.17	-51.7	-54.1	6.1	0.00e+00	0	36	104	0	60	84821
2026-01-07 08:39:56.12	26.69	38.94	-51.7	-54.1	6.1	0.00e+00	0	36	104	0	60	85176
2026-01-07 08:39:57.13	26.09	38.71	-51.6	-54.1	6.1	0.00e+00	0	36	104	0	60	84901
2026-01-07 08:39:58.14	25.50	38.48	-51.7	-54.1	6.1	0.00e+00	0	36	104	0	60	84763
2026-01-07 08:39:59.15	24.92	38.25	-51.7	-54.1	6.1	0.00e+00	0	36	104	0	60	85082
2026-01-07 08:40:00.16	24.35	38.01	-51.7	-54.2	6.1	0.00e+00	0	36	104	0	60	85410
2026-01-07 08:40:01.17	23.78	37.78	-51.7	-54.1	6.1	0.00e+00	0	36	104	0	60	84931
2026-01-07 08:40:02.19	23.22	37.54	-51.7	-54.1	6.1	0.00e+00	0	36	104	0	60	85138
2026-01-07 08:40:03.20	22.68	37.30	-51.6	-54.1	6.1	0.00e+00	0	36	104	0	60	85074
2026-01-07 08:40:04.21	22.14	37.06	-51.6	-54.1	6.1	0.00e+00	0	36	104	0	60	85200
2026-01-07 08:40:05.22	21.61	36.82	-51.7	-54.1	6.1	0.00e+00	0	36	104	0	60	84582
2026-01-07 08:40:06.23	21.09	36.58	-51.7	-54.2	6.1	0.00e+00	0	36	104	0	60	85250
2026-01-07 08:40:07.24	20.57	36.34	-51.6	-54.1	6.1	0.00e+00	0	36	104	0	60	85185
2026-01-07 08:40:08.25	20.07	36.10	-51.7	-54.1	6.1	0.00e+00	0	36	104	0	60	84909
2026-01-07 08:40:09.26	19.57	35.86	-51.7	-54.1	6.1	0.00e+00	0	36	104	0	60	85139
2026-01-07 08:40:10.27	19.08	35.62	-51.7	-54.2	6.1	0.00e+00	0	36	104	0	60	85475
2026-01-07 08:40:11.28	18.60	35.37	-51.7	-54.2	6.0	0.00e+00	0	36	104	0	60	85558
2026-01-07 08:40:12.29	18.12	35.13	-51.7	-54.1	6.1	0.00e+00	0	36	104	0	60	84617
2026-01-07 08:40:13.30	17.65	34.89	-51.7	-54.1	6.1	0.00e+00	0	36	104	0	60	85137
2026-01-07 08:40:14.31	17.19	34.65	-51.6	-54.2	6.1	0.00e+00	0	36	104	0	60	85326
2026-01-07 08:40:15.32	16.74	34.41	-51.7	-54.1	6.1	0.00e+00	0	36	104	0	60	85042
2026-01-07 08:40:16.34	16.29	34.17	-51.7	-54.1	6.1	0.00e+00	0	36	104	0	60	85210
2026-01-07 08:40:17.35	15.85	33.92	-51.7	-54.1	6.1	0.00e+00	0	36	104	0	60	84996
2026-01-07 08:40:18.36	15.42	33.68	-51.7	-54.1	6.1	0.00e+00	0	36	104	0	60	84969
2026-01-07 08:40:19.37	15.00	33.44	-51.6	-54.2	6.1	0.00e+00	0	36	104	0	60	85234
2026-01-07 08:40:20.38	14.58	33.21	-51.7	-54.2	6.1	0.00e+00	0	36	104	0	60	85310
2026-01-07 08:40:21.39	14.17	32.97	-51.6	-54.1	6.1	0.00e+00	0	36	104	0	60	85222
2026-01-07 08:40:22.40	13.76	32.73	-51.7	-54.2	6.1	0.00e+00	0	36	104	0	60	85229
2026-01-07 08:40:23.41	13.37	32.49	-51.7	-54.1	6.1	0.00e+00	0	36	104	0	60	85172
2026-01-07 08:40:24.43	12.97	32.25	-51.7	-54.1	6.1	0.00e+00	0	36	104	0	60	85095
2026-01-07 08:40:25.44	12.58	32.02	-51.7	-54.1	6.1	0.00e+00	0	36	104	0	60	85029
2026-01-07 08:40:26.45	12.20	31.78	-51.7	-54.1	6.1	0.00e+00	0	36	104	0	60	84824
2026-01-07 08:40:27.46	11.83	31.55	-51.7	-54.1	6.1	0.00e+00	0	36	104	0	60	85174
2026-01-07 08:40:28.47	11.46	31.32	-51.7	-54.2	6.1	0.00e+00	0	36	104	0	60	85260
2026-01-07 08:40:29.48	11.10	31.08	-51.6	-54.1	6.1	0.00e+00	0	36	104	0	60	84785
2026-01-07 08:40:30.49	10.74	30.85	-51.6	-54.1	6.1	0.00e+00	0	36	104	0	60	85082
2026-01-07 08:40:31.50	10.39	30.62	-51.7	-54.1	6.1	0.00e+00	0	36	104	0	60	84963
2026-01-07 08:40:32.51	10.04	30.39	-51.7	-54.1	6.1	0.00e+00	0	36	104	0	60	85203
2026-01-07 08:40:33.52	9.70	30.16	-51.7	-54.2	6.1	0.00e+00	0	36	104	0	60	85553
2026-01-07 08:40:34.54	9.36	29.94	-51.7	-54.1	6.1	0.00e+00	0	36	104	0	60	84817
2026-01-07 08:40:35.55	9.03	29.71	-51.7	-54.1	6.1	0.00e+00	0	36	104	0	60	84800
2026-01-07 08:40:36.56	8.71	29.49	-51.7	-54.1	6.1	0.00e+00	0	36	104	0	60	85161
2026-01-07 08:40:37.57	8.39	29.26	-51.7	-54.1	6.1	0.00e+00	0	36	104	0	60	85178
2026-01-07 08:40:38.58	8.07	29.04	-51.6	-54.1	6.1	0.00e+00	0	36	104	0	60	85150
2026-01-07 08:40:39.59	7.76	28.82	-51.7	-54.2	6.1	0.00e+00	0	36	104	0	60	85312
2026-01-07 08:40:40.60	7.45	28.60	-51.6	-54.1	6.1	0.00e+00	0	36	104	0	60	84845
2026-01-07 08:40:41.61	7.15	28.38	-51.7	-54.2	6.1	0.00e+00	0	36	104	0	60	85225
2026-01-07 08:40:42.62	6.86	28.16	-51.7	-54.2	6.1	0.00e+00	0	36	104	0	60	85225
2026-01-07 08:40:43.63	6.56	27.95	-51.7	-54.1	6.1	0.00e+00	0	36	104	0	60	85037
2026-01-07 08:40:44.64	6.28	27.73	-51.7	-54.2	6.1	0.00e+00	0	36	104	0	60	85289
2026-01-07 08:40:45.65	5.99	27.52	-51.7	-54.1	6.1	0.00e+00	0	36	104	0	60	85041
2026-01-07 08:40:46.66	5.71	27.31	-51.7	-54.2	6.1	0.00e+00	0	36	104	0	60	85290
2026-01-07 08:40:47.67	5.44	27.09	-51.7	-54.1	6.1	0.00e+00	0	36	104	0	60	84675
2026-01-07 08:40:48.69	5.16	26.88	-51.7	-54.1	6.1	0.00e+00	0	36	104	0	60	84809
2026-01-07 08:40:49.70	4.89	26.67	-51.7	-54.1	6.1	0.00e+00	0	36	104	0	60	85217
2026-01-07 08:40:50.71	4.63	26.47	-51.7	-54.2	6.1	0.00e+00	0	36	104	0	60	85280
2026-01-07 08:40:51.72	4.37	26.26	-51.7	-54.1	6.1	0.00e+00	0	36	104	0	60	84888
2026-01-07 08:40:52.73	4.11	26.06	-51.7	-54.2	6.1	0.00e+00	0	36	104	0	60	85477
2026-01-07 08:40:53.74	3.86	25.85	-51.7	-54.1	6.1	0.00e+00	0	36	104	0	60	85141
2026-01-07 08:40:54.75	3.61	25.65	-51.6	-54.2	6.1	0.00e+00	0	36	104	0	60	85260
2026-01-07 08:40:55.76	3.37	25.45	-51.6	-54.1	6.1	0.00e+00	0	36	104	0	60	85080
2026-01-07 08:40:56.77	3.12	25.25	-51.7	-54.2	6.1	0.00e+00	0	36	104	0	60	85346
2026-01-07 08:40:57.79	2.88	25.05	-51.7	-54.2	6.1	0.00e+00	0	36	104	0	60	85375
2026-01-07 08:40:58.80	2.65	24.85	-51.7	-54.1	6.1	0.00e+00	0	36	104	0	60	84797
2026-01-07 08:40:59.81	2.42	24.66	-51.6	-54.2	6.1	0.00e+00	0	36	104	0	60	85286
2026-01-07 08:41:00.82	2.19	24.47	-51.7	-54.2	6.1	0.00e+00	0	36	104	0	60	85225
2026-01-07 08:41:01.83	1.96	24.27	-51.7	-54.1	6.1	0.00e+00	0	36	104	0	60	85040
2026-01-07 08:41:02.84	1.74	24.08	-51.7	-54.1	6.1	0.00e+00	0	36	104	0	60	85191
2026-01-07 08:41:03.85	1.52	23.89	-51.7	-54.1	6.1	0.00e+00	0	36	104	0	60	85167
2026-01-07 08:41:04.86	1.30	23.70	-51.7	-54.2	6.1	0.00e+00	0	36	104	0	60	85453
2026-01-07 08:41:05.87	1.09	23.51	-51.7	-54.1	6.1	0.00e+00	0	36	104	0	60	84848
2026-01-07 08:41:06.88	0.88	23.33	-51.7	-54.2	6.1	0.00e+00	0	36	104	0	60	85293
2026-01-07 08:41:07.89	0.67	23.14	-51.7	-54.1	6.1	0.00e+00	0	36	104	0	60	84903
2026-01-07 08:41:08.90	0.47	22.96	-51.7	-54.1	6.1	0.00e+00	0	36	104	0	60	85169
2026-01-07 08:41:09.91	0.26	22.78	-51.7	-54.2	6.1	0.00e+00	0	36	104	0	60	85687
2026-01-07 08:41:10.92	0.06	22.60	-51.7	-54.1	6.1	0.00e+00	0	36	104	0	60	85166
2026-01-07 08:41:11.93	359.87	22.42	-51.7	-54.1	6.1	0.00e+00	0	36	104	0	60	85083
2026-01-07 08:41:12.94	359.67	22.24	-51.7	-54.1	6.1	0.00e+00	0	36	104	0	60	85134
2026-01-07 08:41:13.96	359.48	22.06	-51.7	-54.1	6.1	0.00e+00	0	36	104	0	60	84752
2026-01-07 08:41:14.96	359.29	21.88	-51.7	-54.2	6.1	0.00e+00	0	36	104	0	60	85463
2026-01-07 08:41:15.98	359.10	21.71	-51.7	-54.2	6.1	0.00e+00	0	36	104	0	60	85249
2026-01-07 08:41:16.99	358.92	21.53	-51.7	-54.1	6.1	0.00e+00	0	36	104	0	60	84961
2026-01-07 08:41:18.00	358.74	21.36	-51.7	-54.1	6.1	0.00e+00	0	36	104	0	60	84859
2026-01-07 08:41:19.01	358.56	21.19	-51.7	-54.2	6.1	0.00e+00	0	36	104	0	60	85377
2026-01-07 08:41:20.02	358.38	21.02	-51.7	-54.1	6.1	0.00e+00	0	36	104	0	60	85148
2026-01-07 08:41:21.03	358.20	20.85	-51.7	-54.2	6.1	0.00e+00	0	36	104	0	60	85228
2026-01-07 08:41:22.04	358.03	20.68	-51.7	-54.1	6.1	0.00e+00	0	36	104	0	60	85157
2026-01-07 08:41:23.05	357.86	20.51	-51.7	-54.1	6.1	0.00e+00	0	36	104	0	60	84745
2026-01-07 08:41:24.06	357.69	20.35	-51.7	-54.1	6.1	0.00e+00	0	36	104	0	60	84912
2026-01-07 08:41:25.07	357.52	20.18	-51.7	-54.1	6.1	0.00e+00	0	36	104	0	60	85062
2026-01-07 08:41:26.08	357.36	20.02	-51.7	-54.1	6.1	0.00e+00	0	36	104	0	60	85221
2026-01-07 08:41:27.09	357.20	19.86	-51.7	-54.1	6.1	0.00e+00	0	36	104	0	60	85147
2026-01-07 08:41:28.11	357.04	19.69	-51.7	-54.1	6.1	0.00e+00	0	36	104	0	60	84942
2026-01-07 08:41:29.12	356.88	19.53	-51.7	-54.1	6.1	0.00e+00	0	36	104	0	60	84989
2026-01-07 08:41:30.13	356.72	19.38	-51.7	-54.1	6.1	0.00e+00	0	36	104	0	60	85188
2026-01-07 08:41:31.14	356.57	19.22	-51.7	-54.2	6.1	0.00e+00	0	36	104	0	60	85521
2026-01-07 08:41:32.15	356.41	19.06	-51.7	-54.1	6.1	0.00e+00	0	36	104	0	60	84983
2026-01-07 08:41:33.16	356.26	18.90	-51.7	-54.2	6.1	0.00e+00	0	36	104	0	60	85275
2026-01-07 08:41:34.17	356.11	18.75	-51.7	-54.1	6.1	0.00e+00	0	36	104	0	60	84955
2026-01-07 08:41:35.18	355.97	18.60	-51.7	-54.2	6.1	0.00e+00	0	36	104	0	60	85249
2026-01-07 08:41:36.19	355.82	18.44	-51.7	-54.1	6.1	0.00e+00	0	36	104	0	60	85192
2026-01-07 08:41:37.20	355.68	18.29	-51.7	-54.2	6.1	0.00e+00	0	36	104	0	60	85507
2026-01-07 08:41:38.21	355.53	18.14	-51.7	-54.1	6.1	0.00e+00	0	36	104	0	60	85093
2026-01-07 08:41:39.22	355.39	17.99	-51.7	-54.2	6.1	0.00e+00	0	36	104	0	60	85274
2026-01-07 08:41:40.24	355.25	17.84	-51.7	-54.2	6.1	0.00e+00	0	36	104	0	60	85506
2026-01-07 08:41:41.25	355.12	17.69	-51.7	-54.1	6.1	0.00e+00	0	36	104	0	60	85055
2026-01-07 08:41:42.26	354.98	17.55	-51.7	-54.1	6.1	0.00e+00	0	36	104	0	60	84863
2026-01-07 08:41:43.27	354.85	17.40	-51.7	-54.1	6.1	0.00e+00	0	36	104	0	60	85133
2026-01-07 08:41:44.28	354.71	17.26	-51.7	-54.2	6.1	0.00e+00	0	36	104	0	60	85388
2026-01-07 08:41:45.29	354.58	17.11	-51.7	-54.1	6.1	0.00e+00	0	36	104	0	60	85036
2026-01-07 08:41:46.30	354.45	16.97	-51.7	-54.1	6.1	0.00e+00	0	36	104	0	60	85093
2026-01-07 08:41:47.31	354.32	16.83	-51.6	-54.2	6.1	0.00e+00	0	36	104	0	60	85483
2026-01-07 08:41:48.32	354.20	16.69	-51.7	-54.2	6.1	0.00e+00	0	36	104	0	60	85536
2026-01-07 08:41:49.34	354.07	16.55	-51.7	-54.2	6.1	0.00e+00	0	36	104	0	60	85239
2026-01-07 08:41:50.35	353.95	16.41	-51.7	-54.2	6.1	0.00e+00	0	36	104	0	60	85622
2026-01-07 08:41:51.36	353.82	16.27	-51.7	-54.1	6.1	0.00e+00	0	36	104	0	60	85013
2026-01-07 08:41:52.37	353.70	16.13	-51.7	-54.2	6.1	0.00e+00	0	36	104	0	60	85292
2026-01-07 08:41:53.38	353.58	16.00	-51.7	-54.2	6.1	0.00e+00	0	36	104	0	60	85338
2026-01-07 08:41:54.39	353.46	15.86	-51.7	-54.1	6.1	0.00e+00	0	36	104	0	60	85024
2026-01-07 08:41:55.40	353.35	15.72	-51.7	-54.2	6.1	0.00e+00	0	36	104	0	60	85277
2026-01-07 08:41:56.41	353.23	15.59	-51.7	-54.2	6.1	0.00e+00	0	36	104	0	60	85553
2026-01-07 08:41:57.42	353.12	15.46	-51.7	-54.1	6.1	0.00e+00	0	36	104	0	60	84648
2026-01-07 08:41:58.43	353.00	15.33	-51.7	-54.2	6.1	0.00e+00	0	36	104	0	60	85321
2026-01-07 08:41:59.45	352.89	15.19	-51.7	-54.2	6.1	0.00e+00	0	36	104	0	60	85369
2026-01-07 08:42:00.46	352.78	15.06	-51.7	-54.1	6.1	0.00e+00	0	37	104	0	60	85159
2026-01-07 08:42:01.47	352.67	14.93	-51.7	-54.1	6.1	0.00e+00	0	36	104	0	60	85037
2026-01-07 08:42:02.48	352.56	14.80	-51.7	-54.1	6.1	0.00e+00	0	36	104	0	60	85183
2026-01-07 08:42:03.49	352.45	14.68	-51.7	-54.2	6.1	0.00e+00	0	36	104	0	60	85322
2026-01-07 08:42:04.50	352.35	14.55	-51.7	-54.1	6.1	0.00e+00	0	36	104	0	60	84831
2026-01-07 08:42:05.51	352.24	14.42	-51.7	-54.1	6.1	0.00e+00	0	36	104	0	60	85208
2026-01-07 08:42:06.52	352.14	14.30	-51.7	-54.2	6.1	0.00e+00	0	36	104	0	60	85255
2026-01-07 08:42:07.53	352.03	14.17	-51.7	-54.1	6.1	0.00e+00	0	36	104	0	60	85024
2026-01-07 08:42:08.54	351.93	14.05	-51.7	-54.1	6.1	0.00e+00	0	37	104	0	60	84590
2026-01-07 08:42:09.56	351.83	13.92	-51.7	-54.1	6.1	0.00e+00	0	36	104	0	60	84777
2026-01-07 08:42:10.57	351.73	13.80	-51.7	-54.1	6.1	0.00e+00	0	36	104	0	60	84993
2026-01-07 08:42:11.58	351.63	13.68	-51.7	-54.1	6.1	0.00e+00	0	36	104	0	60	85173
2026-01-07 08:42:12.59	351.53	13.56	-51.7	-54.1	6.1	0.00e+00	0	36	104	0	60	85126
2026-01-07 08:42:13.60	351.44	13.43	-51.6	-54.1	6.1	0.00e+00	0	37	104	0	60	84928
2026-01-07 08:42:14.61	351.34	13.31	-51.7	-54.2	6.1	0.00e+00	0	36	104	0	60	85295
2026-01-07 08:42:15.62	351.25	13.20	-51.7	-54.1	6.1	0.00e+00	0	36	104	0	60	84940
2026-01-07 08:42:16.63	351.15	13.08	-51.7	-54.2	6.1	0.00e+00	0	36	104	0	60	85380
2026-01-07 08:42:17.64	351.06	12.96	-51.7	-54.2	6.1	0.00e+00	0	36	104	0	60	85772
2026-01-07 08:42:18.65	350.97	12.84	-51.7	-54.1	6.1	0.00e+00	0	37	104	0	60	85048
2026-01-07 08:42:19.66	350.88	12.73	-51.7	-54.1	6.1	0.00e+00	0	36	104	0	60	85155
2026-01-07 08:42:20.67	350.78	12.61	-51.7	-54.1	6.1	0.00e+00	0	36	104	0	60	85190
2026-01-07 08:42:21.69	350.69	12.49	-51.7	-54.2	6.1	0.00e+00	0	36	104	0	60	85253
2026-01-07 08:42:22.70	350.61	12.38	-51.7	-54.2	6.1	0.00e+00	0	37	104	0	60	85449
2026-01-07 08:42:23.71	350.52	12.27	-51.7	-54.1	6.1	0.00e+00	0	36	104	0	60	85092
2026-01-07 08:42:24.72	350.43	12.15	-51.7	-54.1	6.1	0.00e+00	0	36	104	0	60	84780
2026-01-07 08:42:25.73	350.35	12.04	-51.7	-54.2	6.1	0.00e+00	0	36	104	0	60	85250
2026-01-07 08:42:26.74	350.26	11.93	-51.7	-54.1	6.1	0.00e+00	0	36	104	0	60	85203
2026-01-07 08:42:27.75	350.18	11.82	-51.7	-54.1	6.1	0.00e+00	0	36	104	0	60	84932
2026-01-07 08:42:28.76	350.09	11.71	-51.7	-54.2	6.1	0.00e+00	0	36	104	0	60	85446
2026-01-07 08:42:29.78	350.01	11.59	-51.7	-54.2	6.1	0.00e+00	0	36	104	0	60	85414
2026-01-07 08:42:30.79	349.93	11.48	-51.7	-54.1	6.1	0.00e+00	0	36	104	0	60	85219
2026-01-07 08:42:31.80	349.85	11.38	-51.7	-54.2	6.1	0.00e+00	0	37	104	0	60	85233
2026-01-07 08:42:32.81	349.76	11.27	-51.7	-54.2	6.1	0.00e+00	0	36	104	0	60	85573
2026-01-07 08:42:33.82	349.68	11.16	-51.7	-54.1	6.1	0.00e+00	0	36	104	0	60	85131
2026-01-07 08:42:34.83	349.61	11.05	-51.7	-54.1	6.1	0.00e+00	0	36	104	0	60	84994
2026-01-07 08:42:35.84	349.53	10.95	-51.7	-54.2	6.1	0.00e+00	0	36	104	0	60	85582
2026-01-07 08:42:36.85	349.45	10.84	-51.7	-54.1	6.1	0.00e+00	0	36	104	0	60	85043
2026-01-07 08:42:37.86	349.37	10.73	-51.7	-54.1	6.1	0.00e+00	0	36	104	0	60	85206
2026-01-07 08:42:38.88	349.30	10.63	-51.7	-54.2	6.1	0.00e+00	0	36	104	0	60	85247
2026-01-07 08:42:39.89	349.22	10.52	-51.7	-54.1	6.1	0.00e+00	0	37	104	0	60	85119
2026-01-07 08:42:40.90	349.15	10.42	-51.7	-54.1	6.1	0.00e+00	0	36	104	0	60	85195
2026-01-07 08:42:41.91	349.07	10.32	-51.7	-54.1	6.1	0.00e+00	0	37	104	0	60	84960
2026-01-07 08:42:42.92	349.00	10.21	-51.7	-54.1	6.1	0.00e+00	0	36	104	0	60	85199
2026-01-07 08:42:43.93	348.93	10.11	-51.7	-54.2	6.1	0.00e+00	0	36	104	0	60	85599
2026-01-07 08:42:44.94	348.85	10.01	-51.7	-54.2	6.1	0.00e+00	0	36	104	0	60	85421
2026-01-07 08:42:45.95	348.78	9.91	-51.7	-54.1	6.1	0.00e+00	0	36	104	0	60	85117
2026-01-07 08:42:46.96	348.71	9.81	-51.7	-54.2	6.1	0.00e+00	0	36	104	0	60	85435
2026-01-07 08:42:47.97	348.64	9.71	-51.7	-54.2	6.1	0.00e+00	0	37	104	0	60	85303
2026-01-07 08:42:48.98	348.57	9.61	-51.7	-54.1	6.1	0.00e+00	0	36	104	0	60	84913
2026-01-07 08:42:49.99	348.50	9.51	-51.7	-54.2	6.1	0.00e+00	0	36	104	0	60	85420
2026-01-07 08:42:51.01	348.43	9.41	-51.7	-54.1	6.1	0.00e+00	0	36	104	0	60	85184
2026-01-07 08:42:52.02	348.37	9.31	-51.7	-54.2	6.1	0.00e+00	0	36	104	0	60	85566
2026-01-07 08:42:53.03	348.30	9.21	-51.7	-54.2	6.1	0.00e+00	0	36	104	0	60	85432
2026-01-07 08:42:54.04	348.23	9.12	-51.7	-54.2	6.1	0.00e+00	0	36	104	0	60	85241
2026-01-07 08:42:55.05	348.17	9.02	-51.7	-54.2	6.1	0.00e+00	0	36	104	0	60	85387
2026-01-07 08:42:56.06	348.10	8.92	-51.7	-54.2	6.1	0.00e+00	0	36	104	0	60	85262
2026-01-07 08:42:57.07	348.04	8.83	-51.7	-54.2	6.1	0.00e+00	0	36	104	0	60	85307
2026-01-07 08:42:58.08	347.97	8.73	-51.7	-54.2	6.1	0.00e+00	0	36	104	0	60	85510
2026-01-07 08:42:59.09	347.91	8.64	-51.7	-54.2	6.1	0.00e+00	0	36	104	0	60	85484
2026-01-07 08:43:00.10	347.85	8.54	-51.7	-54.2	6.1	0.00e+00	0	36	104	0	60	85248
2026-01-07 08:43:01.11	347.78	8.45	-51.7	-54.1	6.1	0.00e+00	0	36	104	0	60	85008
2026-01-07 08:43:02.12	347.72	8.35	-51.7	-54.1	6.1	0.00e+00	0	36	104	0	60	84850
2026-01-07 08:43:03.13	347.66	8.26	-51.7	-54.2	6.1	0.00e+00	0	37	104	0	60	85437
2026-01-07 08:43:04.15	347.60	8.17	-51.7	-54.2	6.1	0.00e+00	0	37	104	0	60	85311
2026-01-07 08:43:05.16	347.54	8.08	-51.7	-54.2	6.1	0.00e+00	0	37	104	0	60	85483
2026-01-07 08:43:06.17	347.48	7.98	-51.7	-54.2	6.1	0.00e+00	0	36	104	0	60	85704
2026-01-07 08:43:07.18	347.42	7.89	-51.7	-54.2	6.1	0.00e+00	0	37	104	0	60	85320
2026-01-07 08:43:08.19	347.36	7.80	-51.7	-54.1	6.1	0.00e+00	0	36	104	0	60	85049
2026-01-07 08:43:09.20	347.30	7.71	-51.7	-54.2	6.1	0.00e+00	0	37	104	0	60	85311
2026-01-07 08:43:10.21	347.24	7.62	-51.7	-54.2	6.1	0.00e+00	0	37	104	0	60	85467
2026-01-07 08:43:11.22	347.19	7.53	-51.7	-54.1	6.1	0.00e+00	0	36	104	0	60	85096
2026-01-07 08:43:12.23	347.13	7.44	-51.7	-54.1	6.1	0.00e+00	0	37	104	0	60	85174
2026-01-07 08:43:13.24	347.07	7.35	-51.7	-54.1	6.1	0.00e+00	0	37	104	0	60	84829
2026-01-07 08:43:14.25	347.02	7.26	-51.7	-54.1	6.1	0.00e+00	0	36	104	0	60	85070
2026-01-07 08:43:15.26	346.96	7.17	-51.7	-54.2	6.1	0.00e+00	0	36	104	0	60	85597
2026-01-07 08:43:16.28	346.90	7.09	-51.7	-54.2	6.1	0.00e+00	0	37	104	0	60	85237
2026-01-07 08:43:17.29	346.85	7.00	-51.7	-54.2	6.1	0.00e+00	0	37	104	0	60	85239
2026-01-07 08:43:18.30	346.79	6.91	-51.7	-54.2	6.1	0.00e+00	0	37	104	0	60	85283
2026-01-07 08:43:19.31	346.74	6.82	-51.7	-54.2	6.1	0.00e+00	0	37	104	0	60	85319
2026-01-07 08:43:20.32	346.69	6.74	-51.7	-54.1	6.1	0.00e+00	0	37	104	0	60	85170
2026-01-07 08:43:21.33	346.63	6.65	-51.7	-54.1	6.1	0.00e+00	0	37	104	0	60	85150
2026-01-07 08:43:22.34	346.58	6.57	-51.7	-54.2	6.1	0.00e+00	0	37	104	0	60	85308
2026-01-07 08:43:23.35	346.53	6.48	-51.7	-54.2	6.1	0.00e+00	0	37	104	0	60	85385
2026-01-07 08:43:24.36	346.48	6.40	-51.7	-54.2	6.1	0.00e+00	0	37	104	0	60	85809
2026-01-07 08:43:25.37	346.43	6.31	-51.7	-54.1	6.1	0.00e+00	0	37	104	0	60	85177
2026-01-07 08:43:26.38	346.38	6.23	-51.7	-54.1	6.1	0.00e+00	0	37	104	0	60	85177
2026-01-07 08:43:27.40	346.32	6.14	-51.7	-54.2	6.1	0.00e+00	0	36	104	0	60	85259
2026-01-07 08:43:28.41	346.27	6.06	-51.7	-54.2	6.1	0.00e+00	0	36	104	0	60	85344
2026-01-07 08:43:29.42	346.22	5.97	-51.7	-54.1	6.1	0.00e+00	0	36	104	0	60	85197
2026-01-07 08:43:30.43	346.17	5.89	-51.7	-54.1	6.1	0.00e+00	0	37	104	0	60	85178
2026-01-07 08:43:31.44	346.13	5.81	-51.7	-54.2	6.1	0.00e+00	0	37	104	0	60	85404
2026-01-07 08:43:32.45	346.08	5.73	-51.7	-54.1	6.1	0.00e+00	0	37	104	0	60	85131
2026-01-07 08:43:33.46	346.03	5.65	-51.7	-54.1	6.1	0.00e+00	0	37	104	0	60	85147
2026-01-07 08:43:34.47	345.98	5.56	-51.7	-54.1	6.1	0.00e+00	0	36	104	0	60	85190
2026-01-07 08:43:35.48	345.93	5.48	-51.7	-54.1	6.1	0.00e+00	0	37	104	0	60	85141
2026-01-07 08:43:36.49	345.89	5.40	-51.7	-54.2	6.1	0.00e+00	0	36	104	0	60	85441
2026-01-07 08:43:37.50	345.84	5.32	-51.7	-54.1	6.1	0.00e+00	0	37	104	0	60	85173
2026-01-07 08:43:38.51	345.79	5.24	-51.7	-54.1	6.1	0.00e+00	0	36	104	0	60	85201
2026-01-07 08:43:39.53	345.75	5.16	-51.7	-54.2	6.1	0.00e+00	0	36	104	0	60	85563
2026-01-07 08:43:40.54	345.70	5.08	-51.7	-54.1	6.1	0.00e+00	0	37	104	0	60	85098
2026-01-07 08:43:41.55	345.65	5.00	-51.7	-54.1	6.1	0.00e+00	0	37	104	0	60	84767
2026-01-07 08:43:42.56	345.61	4.92	-51.7	-54.2	6.1	0.00e+00	0	37	104	0	60	85392
2026-01-07 08:43:43.57	345.57	4.84	-51.7	-54.1	6.1	0.00e+00	0	36	104	0	60	85176
2026-01-07 08:43:44.58	345.52	4.76	-51.7	-54.1	6.1	0.00e+00	0	36	104	0	60	85069
2026-01-07 08:43:45.59	345.48	4.69	-51.7	-54.1	6.1	0.00e+00	0	37	104	0	60	85216
2026-01-07 08:43:46.60	345.43	4.61	-51.7	-54.2	6.1	0.00e+00	0	37	104	0	60	85326
2026-01-07 08:43:47.62	345.39	4.53	-51.7	-54.1	6.1	0.00e+00	0	37	104	0	60	85137
2026-01-07 08:43:48.63	345.35	4.45	-51.7	-54.1	6.1	0.00e+00	0	36	104	0	60	84716
2026-01-07 08:43:49.64	345.30	4.37	-51.7	-54.2	6.0	0.00e+00	0	37	104	0	60	85576
2026-01-07 08:43:50.65	345.26	4.30	-51.7	-54.2	6.1	0.00e+00	0	37	104	0	60	85421
2026-01-07 08:43:51.66	345.22	4.22	-51.7	-54.2	6.1	0.00e+00	0	37	104	0	60	85294
2026-01-07 08:43:52.67	345.18	4.15	-51.7	-54.2	6.1	0.00e+00	0	37	104	0	60	85558
2026-01-07 08:43:53.68	345.13	4.07	-51.7	-54.1	6.1	0.00e+00	0	37	104	0	60	84887
2026-01-07 08:43:54.69	345.09	3.99	-51.7	-54.2	6.1	0.00e+00	0	36	104	0	60	85365
2026-01-07 08:43:55.70	345.05	3.92	-51.7	-54.1	6.1	0.00e+00	0	36	104	0	60	84898
2026-01-07 08:43:56.71	345.01	3.84	-51.7	-54.1	6.1	0.00e+00	0	36	104	0	60	85217
2026-01-07 08:43:57.72	344.97	3.77	-51.7	-54.2	6.1	0.00e+00	0	36	104	0	60	85537
2026-01-07 08:43:58.73	344.93	3.69	-51.7	-54.2	6.1	0.00e+00	0	36	104	0	60	85459
2026-01-07 08:43:59.74	344.89	3.62	-51.7	-54.1	6.0	0.00e+00	0	37	104	0	60	84846
2026-01-07 08:44:00.75	344.85	3.54	-51.7	-54.2	6.1	0.00e+00	0	37	104	0	60	85472
2026-01-07 08:44:01.77	344.81	3.47	-51.7	-54.2	6.1	0.00e+00	0	36	104	0	60	85483
2026-01-07 08:44:02.78	344.77	3.40	-51.7	-54.2	6.1	0.00e+00	0	36	104	0	60	85587
2026-01-07 08:44:03.79	344.73	3.32	-51.7	-54.1	6.1	0.00e+00	0	36	104	0	60	85127
2026-01-07 08:44:04.80	344.70	3.25	-51.7	-54.1	6.1	0.00e+00	0	37	104	0	60	85052
2026-01-07 08:44:05.81	344.66	3.18	-51.7	-54.1	6.1	0.00e+00	0	37	104	0	60	85118
2026-01-07 08:44:06.82	344.62	3.10	-51.7	-54.2	6.1	0.00e+00	0	36	104	0	60	85470
2026-01-07 08:44:07.83	344.58	3.03	-51.7	-54.1	6.1	0.00e+00	0	36	104	0	60	85102
2026-01-07 08:44:08.84	344.55	2.96	-51.7	-54.2	6.1	0.00e+00	0	36	104	0	60	85521
2026-01-07 08:44:09.85	344.51	2.89	-51.7	-54.2	6.1	0.00e+00	0	37	104	0	60	85531
2026-01-07 08:44:10.86	344.47	2.82	-51.7	-54.1	6.1	0.00e+00	0	37	104	0	60	85019
2026-01-07 08:44:11.87	344.43	2.74	-51.7	-54.2	6.1	0.00e+00	0	37	104	0	60	85368
2026-01-07 08:44:12.89	344.40	2.67	-51.7	-54.2	6.1	0.00e+00	0	36	104	0	60	85692
2026-01-07 08:44:13.90	344.36	2.60	-51.7	-54.1	6.1	0.00e+00	0	36	104	0	60	85178
2026-01-07 08:44:14.91	344.33	2.53	-51.7	-54.1	6.1	0.00e+00	0	36	104	0	60	84817
2026-01-07 08:44:15.92	344.29	2.46	-51.7	-54.1	6.1	0.00e+00	0	36	104	0	60	85222
2026-01-07 08:44:16.93	344.26	2.39	-51.7	-54.2	6.1	0.00e+00	0	37	104	0	60	85416
2026-01-07 08:44:17.94	344.22	2.32	-51.7	-54.1	6.1	0.00e+00	0	37	104	0	60	85173
2026-01-07 08:44:18.95	344.19	2.25	-51.7	-54.2	6.1	0.00e+00	0	37	104	0	60	85308
2026-01-07 08:44:19.96	344.15	2.18	-51.7	-54.1	6.1	0.00e+00	0	37	104	0	60	84883
2026-01-07 08:44:20.97	344.12	2.11	-51.7	-54.2	6.1	0.00e+00	0	36	104	0	60	85276
2026-01-07 08:44:21.98	344.08	2.04	-51.7	-54.2	6.0	0.00e+00	0	37	104	0	60	85284
2026-01-07 08:44:23.00	344.05	1.97	-51.7	-54.1	6.1	0.00e+00	0	36	104	0	60	85149
2026-01-07 08:44:24.01	344.01	1.90	-51.7	-54.2	6.0	0.00e+00	0	37	104	0	60	85438
2026-01-07 08:44:25.02	343.98	1.83	-51.7	-54.2	6.1	0.00e+00	0	36	104	0	60	85311
2026-01-07 08:44:26.03	343.95	1.77	-51.7	-54.2	6.1	0.00e+00	0	36	104	0	60	85506
2026-01-07 08:44:27.04	343.91	1.70	-51.7	-54.2	6.1	0.00e+00	0	36	104	0	60	85482
2026-01-07 08:44:28.05	343.88	1.63	-51.7	-54.1	6.1	0.00e+00	0	37	104	0	60	85015
2026-01-07 08:44:29.06	343.85	1.56	-51.7	-54.1	6.1	0.00e+00	0	37	104	0	60	85052
2026-01-07 08:44:30.08	343.82	1.49	-51.7	-54.2	6.1	0.00e+00	0	37	104	0	60	85274
2026-01-07 08:44:31.09	343.78	1.43	-51.7	-54.2	6.1	0.00e+00	0	37	104	0	60	85561
2026-01-07 08:44:32.10	343.75	1.36	-51.7	-54.1	6.1	0.00e+00	0	36	104	0	60	85047
2026-01-07 08:44:33.11	343.72	1.29	-51.7	-54.2	6.1	0.00e+00	0	37	104	0	60	85522
2026-01-07 08:44:34.12	343.69	1.22	-51.7	-54.2	6.1	0.00e+00	0	37	104	0	60	85354
2026-01-07 08:44:35.13	343.66	1.16	-51.7	-54.2	6.1	0.00e+00	0	37	104	0	60	85357
2026-01-07 08:44:36.14	343.63	1.09	-51.7	-54.2	6.1	0.00e+00	0	37	104	0	60	85340
2026-01-07 08:44:37.15	343.60	1.03	-51.7	-54.2	6.1	0.00e+00	0	36	104	0	60	85257
2026-01-07 08:44:38.16	343.56	0.96	-51.7	-54.2	6.1	0.00e+00	0	37	104	0	60	85389
2026-01-07 08:44:39.17	343.53	0.89	-51.7	-54.2	6.1	0.00e+00	0	37	104	0	60	85718
2026-01-07 08:44:40.18	343.50	0.83	-51.7	-54.2	6.1	0.00e+00	0	37	104	0	60	85612
2026-01-07 08:44:41.19	343.47	0.76	-51.7	-54.2	6.1	0.00e+00	0	37	104	0	60	85625
2026-01-07 08:44:42.20	343.44	0.70	-51.7	-54.1	6.1	0.00e+00	0	37	104	0	60	85059
2026-01-07 08:44:43.22	343.41	0.63	-51.7	-54.2	6.1	0.00e+00	0	37	104	0	60	85536
2026-01-07 08:44:44.23	343.38	0.57	-51.7	-54.2	6.1	0.00e+00	0	37	104	0	60	85462
2026-01-07 08:44:45.24	343.35	0.50	-51.7	-54.2	6.1	0.00e+00	0	37	104	0	60	85284
2026-01-07 08:44:46.25	343.33	0.44	-51.7	-54.1	6.1	0.00e+00	0	37	104	0	60	84978
2026-01-07 08:44:47.26	343.30	0.37	-51.7	-54.2	6.1	0.00e+00	0	37	104	0	60	85679
2026-01-07 08:44:48.27	343.27	0.31	-51.7	-54.2	6.1	0.00e+00	0	37	104	0	60	85496
2026-01-07 08:44:49.28	343.24	0.24	-51.7	-54.2	6.1	0.00e+00	0	37	104	0	60	85474
2026-01-07 08:44:50.29	343.21	0.18	-51.7	-54.1	6.1	0.00e+00	0	37	104	0	60	85161
2026-01-07 08:44:51.30	343.18	0.12	-51.7	-54.1	6.1	0.00e+00	0	37	104	0	60	84860
2026-01-07 08:44:52.32	343.15	0.05	-51.7	-54.1	6.1	0.00e+00	0	37	104	0	60	85013
2026-01-07 08:44:53.33	343.13	-0.01	-51.7	-54.2	6.1	0.00e+00	0	37	104	0	60	86195

#Closed at: 2026-01-07 08:44:54
#Recorded file [0 MB]: D:/lorett/data/35034_260107_113402.dat