passes_logs/2026/01/07/R4.6S_Anadyr_2ch/R4.6S_Anadyr_2ch__20260107_232011_NOAA_21_JPSS-2_rec.log

#Pass ID: 20260107_232011_NOAA 21 (JPSS-2)
#Satellite: NOAA 21 (JPSS-2)
#Configuration: NOAA-21
#almurnet v.1.7.20251203
#Start time: 2026-01-07 23:20:15

#Version: 2.2.20231116
#Station: R4.6S_Anadyr_2ch
#Location: 177.4865 lon 64.73178 lat
#TLE: 1 54234U 22150A   25350.97269056  .00000057  00000+0  47676-4 0  9992
#TLE: 2 54234  98.7466 287.2282 0002043  29.8355 330.2937 14.19525482160692

#Time	Az	El	Level	Level2	SNR	BER	BlckErr	Temp	State	Recorded	gain1	gain2
2026-01-07 23:20:15.67	134.60	0.25	-51.9	-53.5	5.7	0.00e+00	0	33	0	0	60	79397
2026-01-07 23:20:16.68	134.58	0.31	-51.9	-64.9	3.5	1.52e+00	0	34	104	0	60	83652
2026-01-07 23:20:17.69	134.56	0.37	-51.9	-64.9	3.5	1.52e+00	0	35	104	0	60	83668
2026-01-07 23:20:18.70	134.54	0.43	-52.0	-65.0	3.5	1.51e+00	0	35	104	0	60	84129
2026-01-07 23:20:19.71	134.52	0.49	-52.0	-65.1	3.5	1.52e+00	0	34	104	0	60	84735
2026-01-07 23:20:20.72	134.49	0.55	-51.9	-65.0	3.5	1.52e+00	0	34	104	0	60	83837
2026-01-07 23:20:21.73	134.47	0.61	-51.8	-64.9	3.5	1.51e+00	0	34	104	0	60	82831
2026-01-07 23:20:22.74	134.45	0.67	-51.8	-64.8	3.5	1.52e+00	0	35	104	0	60	82343
2026-01-07 23:20:23.75	134.43	0.73	-51.8	-64.8	3.5	1.52e+00	0	35	104	0	60	82480
2026-01-07 23:20:24.76	134.41	0.79	-51.6	-64.6	3.5	1.52e+00	0	35	104	0	60	80555
2026-01-07 23:20:25.77	134.38	0.86	-51.5	-64.5	3.5	1.52e+00	0	35	104	0	60	79764
2026-01-07 23:20:26.78	134.36	0.92	-51.4	-64.4	3.5	1.52e+00	0	35	104	0	60	78775
2026-01-07 23:20:27.80	134.34	0.98	-51.1	-64.1	3.5	1.52e+00	0	35	104	0	60	76178
2026-01-07 23:20:28.81	134.32	1.04	-50.6	-63.6	3.5	1.52e+00	0	35	104	0	60	72055
2026-01-07 23:20:29.82	134.29	1.10	-50.2	-63.5	3.5	1.51e+00	0	35	104	0	60	70917
2026-01-07 23:20:30.83	134.27	1.17	-50.2	-63.5	3.5	1.52e+00	0	35	104	0	60	70783
2026-01-07 23:20:31.84	134.25	1.23	-50.2	-63.5	3.5	1.52e+00	0	35	104	0	60	70488
2026-01-07 23:20:32.85	134.23	1.29	-50.2	-63.4	3.5	1.52e+00	0	35	104	0	60	70392
2026-01-07 23:20:33.86	134.20	1.35	-50.2	-63.4	3.5	1.52e+00	0	35	104	0	60	70308
2026-01-07 23:20:34.87	134.18	1.42	-50.2	-63.4	3.5	1.51e+00	0	35	104	0	60	70366
2026-01-07 23:20:35.88	134.16	1.48	-50.2	-63.5	3.5	1.52e+00	0	35	104	0	60	70715
2026-01-07 23:20:36.90	134.13	1.54	-50.2	-63.5	3.5	1.51e+00	0	35	104	0	60	70903
2026-01-07 23:20:37.91	134.11	1.60	-50.2	-63.5	3.5	1.52e+00	0	35	104	0	60	70549
2026-01-07 23:20:38.92	134.09	1.67	-50.2	-63.4	3.5	1.52e+00	0	35	104	0	60	70275
2026-01-07 23:20:39.93	134.06	1.73	-50.2	-63.3	3.5	1.52e+00	0	35	104	0	60	69244
2026-01-07 23:20:40.94	134.04	1.79	-50.2	-63.3	3.5	1.51e+00	0	35	104	0	60	68926
2026-01-07 23:20:41.95	134.01	1.86	-50.2	-63.2	3.5	1.52e+00	0	35	104	0	60	68467
2026-01-07 23:20:42.96	133.99	1.92	-50.2	-63.1	3.5	1.52e+00	0	35	104	0	60	67742
2026-01-07 23:20:43.97	133.97	1.99	-50.2	-63.1	3.5	1.52e+00	0	35	104	0	60	67962
2026-01-07 23:20:44.98	133.94	2.05	-50.2	-63.3	3.5	1.52e+00	0	35	104	0	60	68940
2026-01-07 23:20:46.00	133.92	2.11	-50.2	-63.4	3.5	1.52e+00	0	35	104	0	60	69803
2026-01-07 23:20:47.01	133.89	2.18	-50.2	-63.5	3.5	1.52e+00	0	35	104	0	60	70485
2026-01-07 23:20:48.02	133.87	2.24	-50.2	-63.5	3.5	1.52e+00	0	35	104	0	60	70857
2026-01-07 23:20:49.03	133.84	2.31	-50.2	-63.4	3.5	1.52e+00	0	35	104	0	60	70227
2026-01-07 23:20:50.04	133.82	2.37	-50.2	-63.3	3.5	1.52e+00	0	35	104	0	60	69426
2026-01-07 23:20:51.05	133.79	2.44	-50.2	-63.3	3.5	1.52e+00	0	35	104	0	60	68946
2026-01-07 23:20:52.06	133.77	2.50	-50.2	-63.0	3.5	1.51e+00	0	35	104	0	60	66935
2026-01-07 23:20:53.07	133.74	2.57	-50.2	-62.7	3.5	1.52e+00	0	35	104	0	60	64312
2026-01-07 23:20:54.08	133.72	2.63	-50.1	-62.3	3.5	1.52e+00	0	35	104	0	60	62050
2026-01-07 23:20:55.09	133.69	2.70	-50.1	-62.2	3.5	1.51e+00	0	35	104	0	60	60654
2026-01-07 23:20:56.10	133.67	2.76	-50.1	-62.1	3.5	1.51e+00	0	35	104	0	60	60327
2026-01-07 23:20:57.11	133.64	2.83	-50.1	-62.3	3.5	1.51e+00	0	35	104	0	60	61648
2026-01-07 23:20:58.12	133.62	2.89	-50.2	-62.8	3.5	1.51e+00	0	35	104	0	60	65731
2026-01-07 23:20:59.14	133.59	2.96	-50.2	-63.1	3.5	1.52e+00	0	35	104	0	60	67912
2026-01-07 23:21:00.14	133.56	3.03	-50.1	-62.0	3.5	1.51e+00	0	35	104	0	60	59649
2026-01-07 23:21:01.16	133.54	3.09	-49.7	-58.9	3.8	1.12e+00	0	35	104	0	60	41850
2026-01-07 23:21:02.17	133.51	3.16	-49.0	-54.7	7.8	2.19e-01	123	35	0	0	60	25793
2026-01-07 23:21:03.18	133.48	3.23	-48.0	-51.9	10.8	9.57e-03	122	35	102	1048576	60	18701
2026-01-07 23:21:04.19	133.46	3.29	-46.6	-49.4	13.3	1.03e-04	123	35	102	1048576	60	14042
2026-01-07 23:21:05.20	133.43	3.36	-45.5	-47.7	15.2	7.00e-07	123	35	102	1048576	60	11525
2026-01-07 23:21:06.21	133.40	3.43	-44.3	-46.2	16.6	0.00e+00	123	35	102	1048576	60	9670
2026-01-07 23:21:07.22	133.38	3.49	-43.5	-45.1	17.7	0.00e+00	122	35	102	1048576	60	8549
2026-01-07 23:21:08.23	133.35	3.56	-42.8	-44.3	18.5	0.00e+00	123	35	102	1048576	60	7749
2026-01-07 23:21:09.24	133.32	3.63	-42.6	-44.0	18.7	0.00e+00	123	35	102	1048576	60	7526
2026-01-07 23:21:10.25	133.29	3.70	-43.0	-44.5	14.3	0.00e+00	120	35	102	1048576	60	7932
2026-01-07 23:21:11.26	133.27	3.76	-50.9	-64.0	3.5	1.52e+00	0	35	104	1048576	60	75387
2026-01-07 23:21:12.27	133.24	3.83	-46.7	-49.8	5.1	1.46e+00	0	35	104	1048576	60	14699
2026-01-07 23:21:13.28	133.21	3.90	-46.4	-49.0	14.0	8.39e-02	122	35	0	1048576	60	13343
2026-01-07 23:21:14.29	133.18	3.97	-41.3	-42.6	20.2	0.00e+00	123	35	0	1048576	60	6351
2026-01-07 23:21:15.31	133.16	4.04	-49.9	-60.3	4.1	1.54e+00	0	35	104	1048576	60	49258
2026-01-07 23:21:16.32	133.13	4.11	-42.4	-44.1	18.2	8.84e-01	123	35	104	1048576	60	7593
2026-01-07 23:21:17.33	133.10	4.18	-41.6	-42.8	19.9	0.00e+00	120	35	0	1048576	60	6545
2026-01-07 23:21:18.34	133.07	4.24	-41.0	-42.1	20.6	0.00e+00	123	35	0	1048576	60	6063
2026-01-07 23:21:19.35	133.04	4.31	-40.8	-42.0	20.6	0.00e+00	122	35	0	1048576	60	5973
2026-01-07 23:21:20.36	133.01	4.38	-40.9	-42.1	20.7	0.00e+00	122	35	0	1048576	60	6001
2026-01-07 23:21:21.37	132.98	4.45	-40.7	-41.9	20.8	0.00e+00	123	35	0	1048576	60	5861
2026-01-07 23:21:22.38	132.95	4.52	-40.7	-41.9	20.8	0.00e+00	123	35	0	1048576	60	5884
2026-01-07 23:21:23.39	132.92	4.59	-40.7	-41.8	20.8	0.00e+00	123	35	0	1048576	60	5842
2026-01-07 23:21:24.40	132.89	4.66	-40.5	-41.7	20.9	0.00e+00	122	35	0	1048576	60	5737
2026-01-07 23:21:25.41	132.87	4.73	-40.5	-41.6	21.0	0.00e+00	123	35	0	1048576	60	5688
2026-01-07 23:21:26.42	132.84	4.80	-40.5	-41.6	20.9	0.00e+00	120	35	0	1048576	60	5709
2026-01-07 23:21:27.44	132.80	4.87	-40.4	-41.5	21.1	0.00e+00	123	35	101	1048576	60	5632
2026-01-07 23:21:28.45	132.77	4.94	-40.4	-41.5	21.1	0.00e+00	122	35	101	1048576	60	5640
2026-01-07 23:21:29.46	132.74	5.02	-40.4	-41.6	21.1	0.00e+00	122	35	101	1048576	60	5669
2026-01-07 23:21:30.47	132.71	5.09	-40.4	-41.5	21.1	0.00e+00	123	35	101	1048576	60	5641
2026-01-07 23:21:31.48	132.68	5.16	-40.5	-41.6	21.1	0.00e+00	122	35	101	1048576	60	5681
2026-01-07 23:21:32.49	132.65	5.23	-40.4	-41.5	21.2	0.00e+00	123	35	101	1048576	60	5647
2026-01-07 23:21:33.50	132.62	5.30	-40.5	-41.6	21.1	0.00e+00	123	35	101	1048576	60	5682
2026-01-07 23:21:34.51	132.59	5.37	-40.5	-41.6	21.1	0.00e+00	123	35	101	1048576	60	5716
2026-01-07 23:21:35.52	132.56	5.44	-40.5	-41.6	21.1	0.00e+00	122	35	101	1048576	60	5691
2026-01-07 23:21:36.54	132.53	5.52	-40.3	-41.5	21.2	0.00e+00	122	35	101	1048576	60	5596
2026-01-07 23:21:37.55	132.50	5.59	-40.3	-41.4	21.3	0.00e+00	122	35	101	1048576	60	5538
2026-01-07 23:21:38.56	132.46	5.66	-40.3	-41.4	21.3	0.00e+00	122	35	101	1048576	60	5574
2026-01-07 23:21:39.57	132.43	5.74	-40.2	-41.4	21.3	0.00e+00	122	35	101	1048576	60	5533
2026-01-07 23:21:40.58	132.40	5.81	-40.3	-41.4	21.3	0.00e+00	123	35	101	1048576	60	5584
2026-01-07 23:21:41.59	132.37	5.88	-40.2	-41.3	21.4	0.00e+00	123	35	101	1048576	60	5526
2026-01-07 23:21:42.60	132.33	5.95	-40.2	-41.3	21.4	0.00e+00	123	35	101	1048576	58	6138
2026-01-07 23:21:43.61	132.30	6.03	-40.1	-41.2	21.4	0.00e+00	120	35	101	1048576	58	6101
2026-01-07 23:21:44.62	132.27	6.10	-40.1	-41.2	21.4	0.00e+00	123	35	101	1048576	58	6106
2026-01-07 23:21:45.63	132.24	6.18	-40.0	-41.1	21.5	0.00e+00	123	35	101	1048576	58	6049
2026-01-07 23:21:46.62	132.20	6.25	-40.1	-41.3	21.4	0.00e+00	123	35	101	1048576	58	6135
2026-01-07 23:21:47.62	132.17	6.32	-40.0	-41.1	21.5	0.00e+00	121	36	101	1048576	58	6062
2026-01-07 23:21:48.63	132.14	6.40	-40.1	-41.2	21.4	0.00e+00	123	35	101	1048576	58	6127
2026-01-07 23:21:49.64	132.10	6.47	-40.1	-41.2	21.5	0.00e+00	120	36	101	1048576	58	6101
2026-01-07 23:21:50.65	132.07	6.55	-39.9	-41.0	21.6	0.00e+00	122	35	101	1048576	58	5969
2026-01-07 23:21:51.66	132.03	6.62	-40.0	-41.1	21.6	0.00e+00	123	35	101	1048576	58	6007
2026-01-07 23:21:52.67	132.00	6.70	-39.9	-41.0	21.7	0.00e+00	122	35	101	1048576	58	5957
2026-01-07 23:21:53.68	131.97	6.77	-40.0	-41.1	21.6	0.00e+00	122	35	101	1048576	58	5999
2026-01-07 23:21:54.70	131.93	6.85	-40.1	-41.2	21.6	0.00e+00	122	36	101	1048576	58	6096
2026-01-07 23:21:55.71	131.90	6.93	-40.1	-41.2	21.6	0.00e+00	120	36	101	1048576	58	6075
2026-01-07 23:21:56.72	131.86	7.00	-39.9	-40.9	21.8	0.00e+00	123	35	101	1048576	58	5920
2026-01-07 23:21:57.73	131.82	7.08	-40.0	-41.0	21.7	0.00e+00	123	35	101	1048576	58	5990
2026-01-07 23:21:58.74	131.79	7.15	-39.8	-40.9	21.9	0.00e+00	123	36	101	1048576	58	5862
2026-01-07 23:21:59.75	131.75	7.23	-39.8	-40.9	21.9	0.00e+00	122	36	101	1048576	58	5913
2026-01-07 23:22:00.76	131.72	7.31	-39.8	-40.9	21.9	0.00e+00	122	35	101	1048576	58	5877
2026-01-07 23:22:01.77	131.68	7.39	-39.9	-41.0	21.9	0.00e+00	123	35	101	1048576	58	5932
2026-01-07 23:22:02.78	131.64	7.46	-39.8	-40.8	22.0	0.00e+00	123	35	101	1048576	58	5853
2026-01-07 23:22:03.79	131.61	7.54	-39.7	-40.8	22.0	0.00e+00	123	35	101	1048576	58	5831
2026-01-07 23:22:04.80	131.57	7.62	-39.8	-40.9	22.0	0.00e+00	123	35	101	1048576	58	5893
2026-01-07 23:22:05.82	131.53	7.70	-39.6	-40.6	22.2	0.00e+00	123	35	101	1048576	58	5701
2026-01-07 23:22:06.83	131.50	7.78	-39.4	-40.5	22.3	0.00e+00	122	36	101	1048576	58	5613
2026-01-07 23:22:07.84	131.46	7.86	-39.5	-40.5	22.3	0.00e+00	122	36	101	1048576	58	5618
2026-01-07 23:22:08.85	131.42	7.93	-39.4	-40.4	22.4	0.00e+00	123	35	101	1048576	58	5571
2026-01-07 23:22:09.86	131.38	8.01	-39.5	-40.6	22.3	0.00e+00	123	35	101	1048576	58	5676
2026-01-07 23:22:10.87	131.35	8.09	-39.6	-40.7	22.1	0.00e+00	123	35	101	1048576	58	5732
2026-01-07 23:22:11.88	131.31	8.17	-39.4	-40.5	22.4	0.00e+00	122	36	101	1048576	58	5605
2026-01-07 23:22:12.89	131.27	8.25	-39.3	-40.3	22.5	0.00e+00	123	36	101	1048576	58	5498
2026-01-07 23:22:13.90	131.23	8.33	-39.4	-40.4	22.4	0.00e+00	123	35	101	1048576	58	5593
2026-01-07 23:22:14.91	131.19	8.41	-39.4	-40.4	22.5	0.00e+00	122	36	101	1048576	58	5544
2026-01-07 23:22:15.92	131.15	8.49	-39.4	-40.4	22.4	0.00e+00	123	36	101	1048576	58	5565
2026-01-07 23:22:16.93	131.11	8.57	-39.3	-40.3	22.6	0.00e+00	123	36	101	1048576	58	5509
2026-01-07 23:22:17.95	131.07	8.66	-39.1	-40.1	22.7	0.00e+00	122	36	101	1048576	58	5394
2026-01-07 23:22:18.96	131.03	8.74	-39.1	-40.1	22.7	0.00e+00	120	36	101	1048576	56	6037
2026-01-07 23:22:19.97	130.99	8.82	-39.3	-40.3	22.6	0.00e+00	122	35	101	1048576	56	6150
2026-01-07 23:22:20.98	130.95	8.90	-39.4	-40.4	22.5	0.00e+00	120	36	101	1048576	56	6246
2026-01-07 23:22:21.99	130.91	8.98	-39.0	-40.0	22.9	0.00e+00	122	36	101	1048576	56	5939
2026-01-07 23:22:23.00	130.87	9.07	-39.1	-40.1	22.8	0.00e+00	122	35	101	1048576	56	6012
2026-01-07 23:22:24.01	130.83	9.15	-38.9	-39.9	22.9	0.00e+00	122	36	101	1048576	56	5898
2026-01-07 23:22:25.02	130.79	9.23	-38.9	-39.9	23.0	0.00e+00	122	36	101	1048576	56	5901
2026-01-07 23:22:26.03	130.74	9.31	-39.0	-40.0	22.9	0.00e+00	123	36	101	1048576	56	5949
2026-01-07 23:22:27.05	130.70	9.40	-39.0	-40.0	22.8	0.00e+00	120	36	101	1048576	56	5981
2026-01-07 23:22:28.06	130.66	9.48	-38.8	-39.8	23.1	0.00e+00	123	36	101	1048576	56	5795
2026-01-07 23:22:29.07	130.62	9.57	-38.8	-39.8	23.0	0.00e+00	123	36	101	1048576	56	5802
2026-01-07 23:22:30.08	130.57	9.65	-38.7	-39.7	23.2	0.00e+00	123	36	101	1048576	56	5763
2026-01-07 23:22:31.09	130.53	9.74	-38.8	-39.8	23.1	0.00e+00	123	36	101	1048576	56	5817
2026-01-07 23:22:32.10	130.49	9.82	-38.6	-39.5	23.3	0.00e+00	123	36	101	1048576	56	5651
2026-01-07 23:22:33.11	130.45	9.90	-38.6	-39.6	23.3	0.00e+00	122	36	101	1048576	56	5698
2026-01-07 23:22:34.12	130.40	9.99	-38.6	-39.6	23.3	0.00e+00	122	36	101	1048576	56	5688
2026-01-07 23:22:35.13	130.36	10.08	-38.5	-39.5	23.3	0.00e+00	123	36	101	1048576	56	5614
2026-01-07 23:22:36.15	130.31	10.16	-38.6	-39.5	23.4	0.00e+00	123	36	101	1048576	56	5656
2026-01-07 23:22:37.16	130.27	10.25	-38.4	-39.4	23.4	0.00e+00	123	36	101	1048576	56	5569
2026-01-07 23:22:38.17	130.22	10.33	-38.5	-39.4	23.4	0.00e+00	122	35	101	1048576	56	5585
2026-01-07 23:22:39.18	130.18	10.42	-38.5	-39.4	23.4	0.00e+00	123	36	101	1048576	56	5579
2026-01-07 23:22:40.19	130.13	10.51	-38.2	-39.2	23.6	0.00e+00	123	35	101	1048576	56	5410
2026-01-07 23:22:41.20	130.09	10.60	-38.3	-39.3	23.5	0.00e+00	123	36	101	1048576	56	5498
2026-01-07 23:22:42.21	130.04	10.68	-38.3	-39.2	23.6	0.00e+00	123	36	101	1048576	56	5461
2026-01-07 23:22:43.22	129.99	10.77	-38.3	-39.2	23.6	0.00e+00	123	36	101	1048576	56	5432
2026-01-07 23:22:44.23	129.95	10.86	-38.2	-39.2	23.6	0.00e+00	123	36	101	1048576	56	5422
2026-01-07 23:22:45.24	129.90	10.95	-38.3	-39.3	23.5	0.00e+00	120	36	101	1048576	56	5494
2026-01-07 23:22:46.25	129.85	11.04	-38.1	-39.0	23.7	0.00e+00	123	36	101	1048576	54	5957
2026-01-07 23:22:47.26	129.81	11.13	-38.1	-39.0	23.6	0.00e+00	120	36	101	1048576	54	5991
2026-01-07 23:22:48.27	129.76	11.22	-37.9	-38.8	23.9	0.00e+00	122	36	101	1048576	54	5825
2026-01-07 23:22:49.28	129.71	11.30	-37.9	-38.8	23.9	0.00e+00	123	36	101	1048576	54	5851
2026-01-07 23:22:50.29	129.66	11.39	-38.0	-38.9	23.8	0.00e+00	122	36	101	1048576	54	5899
2026-01-07 23:22:51.30	129.61	11.48	-38.1	-39.0	23.7	0.00e+00	122	36	101	1048576	54	5974
2026-01-07 23:22:52.31	129.56	11.58	-37.8	-38.7	24.0	0.00e+00	122	36	101	1048576	54	5784
2026-01-07 23:22:53.33	129.51	11.67	-37.8	-38.7	23.9	0.00e+00	122	36	101	1048576	54	5766
2026-01-07 23:22:54.34	129.46	11.76	-37.7	-38.6	24.1	0.00e+00	123	36	101	1048576	54	5682
2026-01-07 23:22:55.35	129.41	11.85	-37.7	-38.6	24.0	0.00e+00	120	36	101	1048576	54	5718
2026-01-07 23:22:56.36	129.36	11.94	-37.8	-38.7	24.0	0.00e+00	122	36	101	1048576	54	5754
2026-01-07 23:22:57.37	129.31	12.03	-37.7	-38.6	24.0	0.00e+00	120	36	101	1048576	54	5705
2026-01-07 23:22:58.38	129.26	12.13	-37.7	-38.6	24.0	0.00e+00	122	36	101	1048576	54	5707
2026-01-07 23:22:59.39	129.21	12.22	-37.8	-38.7	24.0	0.00e+00	123	36	101	1048576	54	5728
2026-01-07 23:23:00.40	129.16	12.31	-37.6	-38.5	24.1	0.00e+00	123	36	101	1048576	54	5643
2026-01-07 23:23:01.41	129.10	12.41	-37.7	-38.6	24.0	0.00e+00	123	36	101	1048576	54	5684
2026-01-07 23:23:02.42	129.05	12.50	-37.6	-38.5	24.1	0.00e+00	120	36	101	1048576	54	5631
2026-01-07 23:23:03.43	129.00	12.59	-37.6	-38.5	24.1	0.00e+00	122	36	101	1048576	54	5642
2026-01-07 23:23:04.45	128.95	12.69	-37.6	-38.5	24.1	0.00e+00	120	36	101	1048576	54	5648
2026-01-07 23:23:05.46	128.89	12.78	-37.6	-38.6	24.1	0.00e+00	122	36	101	1048576	54	5660
2026-01-07 23:23:06.47	128.84	12.88	-37.8	-38.7	24.0	0.00e+00	123	36	101	1048576	54	5765
2026-01-07 23:23:07.48	128.78	12.98	-37.8	-38.7	23.9	0.00e+00	122	36	101	1048576	54	5752
2026-01-07 23:23:08.49	128.73	13.07	-37.9	-38.8	23.9	0.00e+00	122	36	101	1048576	54	5823
2026-01-07 23:23:09.50	128.67	13.17	-37.7	-38.7	24.0	0.00e+00	123	36	101	1048576	54	5741
2026-01-07 23:23:10.51	128.62	13.26	-37.9	-38.8	23.8	0.00e+00	120	36	101	1048576	54	5801
2026-01-07 23:23:11.52	128.56	13.36	-38.0	-38.9	23.9	0.00e+00	122	36	101	1048576	54	5911
2026-01-07 23:23:12.53	128.51	13.46	-38.0	-38.9	23.8	0.00e+00	122	36	101	1048576	54	5893
2026-01-07 23:23:13.55	128.45	13.56	-37.8	-38.7	23.9	0.00e+00	122	36	101	1048576	54	5788
2026-01-07 23:23:14.56	128.39	13.65	-38.0	-38.9	23.8	0.00e+00	123	36	101	1048576	54	5893
2026-01-07 23:23:15.57	128.33	13.75	-37.7	-38.7	24.0	0.00e+00	122	36	101	1048576	54	5733
2026-01-07 23:23:16.58	128.28	13.85	-37.8	-38.8	24.0	0.00e+00	120	36	101	1048576	54	5797
2026-01-07 23:23:17.59	128.22	13.95	-37.7	-38.6	24.1	0.00e+00	123	36	101	1048576	54	5696
2026-01-07 23:23:18.60	128.16	14.05	-37.6	-38.6	24.1	0.00e+00	120	36	101	1048576	54	5676
2026-01-07 23:23:19.61	128.10	14.15	-37.8	-38.7	24.0	0.00e+00	122	36	101	1048576	54	5766
2026-01-07 23:23:20.62	128.04	14.25	-37.7	-38.6	24.1	0.00e+00	122	36	101	1048576	54	5724
2026-01-07 23:23:21.63	127.98	14.35	-37.9	-38.9	23.9	0.00e+00	123	36	101	1048576	54	5863
2026-01-07 23:23:22.64	127.92	14.45	-37.8	-38.7	24.1	0.00e+00	123	36	101	1048576	54	5774
2026-01-07 23:23:23.65	127.86	14.55	-37.8	-38.7	24.0	0.00e+00	122	36	101	1048576	54	5778
2026-01-07 23:23:24.66	127.80	14.66	-37.8	-38.7	24.0	0.00e+00	123	36	101	1048576	54	5750
2026-01-07 23:23:25.67	127.74	14.76	-37.7	-38.6	24.1	0.00e+00	123	36	101	1048576	54	5696
2026-01-07 23:23:26.69	127.67	14.86	-37.7	-38.6	24.1	0.00e+00	122	36	101	1048576	54	5713
2026-01-07 23:23:27.70	127.61	14.96	-37.7	-38.7	24.1	0.00e+00	123	36	101	1048576	54	5726
2026-01-07 23:23:28.71	127.55	15.07	-37.8	-38.7	24.0	0.00e+00	122	36	101	1048576	54	5746
2026-01-07 23:23:29.72	127.49	15.17	-37.7	-38.6	24.1	0.00e+00	122	36	101	1048576	54	5698
2026-01-07 23:23:30.73	127.42	15.28	-37.7	-38.7	24.1	0.00e+00	120	36	101	1048576	54	5740
2026-01-07 23:23:31.74	127.36	15.38	-37.8	-38.7	24.1	0.00e+00	120	36	101	1048576	54	5743
2026-01-07 23:23:32.75	127.29	15.49	-37.8	-38.7	24.1	0.00e+00	123	36	101	1048576	54	5777
2026-01-07 23:23:33.76	127.23	15.59	-37.7	-38.7	24.1	0.00e+00	120	36	101	1048576	54	5735
2026-01-07 23:23:34.77	127.16	15.70	-37.9	-38.9	24.0	0.00e+00	122	36	101	1048576	54	5859
2026-01-07 23:23:35.78	127.09	15.80	-37.8	-38.7	24.0	0.00e+00	123	36	101	1048576	54	5781
2026-01-07 23:23:36.79	127.03	15.91	-37.8	-38.8	24.0	0.00e+00	123	36	101	1048576	54	5792
2026-01-07 23:23:37.81	126.96	16.02	-37.9	-38.9	23.9	0.00e+00	122	36	101	1048576	54	5869
2026-01-07 23:23:38.82	126.89	16.13	-37.9	-38.8	24.0	0.00e+00	123	36	101	1048576	54	5846
2026-01-07 23:23:39.83	126.82	16.23	-37.8	-38.7	24.0	0.00e+00	123	36	101	1048576	54	5789
2026-01-07 23:23:40.84	126.75	16.34	-37.8	-38.7	24.0	0.00e+00	123	36	101	1048576	54	5773
2026-01-07 23:23:41.85	126.69	16.45	-37.8	-38.7	24.1	0.00e+00	120	36	101	1048576	54	5756
2026-01-07 23:23:42.86	126.62	16.56	-37.9	-38.8	24.0	0.00e+00	123	36	101	1048576	54	5848
2026-01-07 23:23:43.87	126.55	16.67	-37.9	-38.8	23.9	0.00e+00	123	36	101	1048576	54	5834
2026-01-07 23:23:44.88	126.47	16.78	-38.0	-39.0	23.8	0.00e+00	123	36	101	1048576	54	5929
2026-01-07 23:23:45.89	126.40	16.89	-38.0	-38.9	23.9	0.00e+00	123	36	101	1048576	54	5918
2026-01-07 23:23:46.90	126.33	17.00	-38.0	-38.9	23.9	0.00e+00	123	36	101	1048576	54	5912
2026-01-07 23:23:47.91	126.26	17.11	-38.0	-38.9	23.9	0.00e+00	121	36	101	1048576	54	5897
2026-01-07 23:23:48.93	126.18	17.23	-38.0	-39.0	23.9	0.00e+00	123	36	101	1048576	54	5947
2026-01-07 23:23:49.93	126.11	17.34	-38.2	-39.1	23.8	0.00e+00	120	36	101	1048576	54	6034
2026-01-07 23:23:50.95	126.04	17.45	-38.1	-39.0	23.9	0.00e+00	123	36	101	1048576	54	5991
2026-01-07 23:23:51.96	125.96	17.57	-38.1	-39.1	23.9	0.00e+00	122	36	101	1048576	54	6023
2026-01-07 23:23:52.97	125.89	17.68	-38.2	-39.2	23.8	0.00e+00	122	36	101	1048576	54	6066
2026-01-07 23:23:53.98	125.81	17.79	-38.3	-39.2	23.7	0.00e+00	123	36	101	1048576	54	6109
2026-01-07 23:23:54.99	125.73	17.91	-38.3	-39.2	23.6	0.00e+00	123	36	101	1048576	54	6120
2026-01-07 23:23:56.00	125.66	18.02	-38.4	-39.3	23.6	0.00e+00	122	36	101	1048576	54	6198
2026-01-07 23:23:57.01	125.58	18.14	-38.3	-39.3	23.7	0.00e+00	122	36	101	1048576	54	6160
2026-01-07 23:23:58.02	125.50	18.26	-38.3	-39.2	23.7	0.00e+00	123	36	101	1048576	54	6095
2026-01-07 23:23:59.03	125.42	18.37	-38.1	-39.0	23.9	0.00e+00	120	36	101	1048576	54	5980
2026-01-07 23:24:00.04	125.34	18.49	-38.2	-39.2	23.8	0.00e+00	123	36	101	1048576	54	6075
2026-01-07 23:24:01.05	125.26	18.61	-38.2	-39.1	23.8	0.00e+00	120	36	101	1048576	54	6062
2026-01-07 23:24:02.06	125.18	18.73	-38.1	-39.0	23.9	0.00e+00	123	36	101	1048576	54	5966
2026-01-07 23:24:03.08	125.10	18.85	-38.2	-39.2	23.8	0.00e+00	120	36	101	1048576	54	6077
2026-01-07 23:24:04.08	125.01	18.96	-37.9	-38.8	24.0	0.00e+00	123	36	101	1048576	54	5852
2026-01-07 23:24:05.09	124.93	19.08	-37.8	-38.7	24.1	0.00e+00	121	36	101	1048576	54	5771
2026-01-07 23:24:06.11	124.85	19.21	-37.7	-38.7	24.1	0.00e+00	123	36	101	1048576	54	5734
2026-01-07 23:24:07.12	124.76	19.33	-37.8	-38.7	24.1	0.00e+00	120	36	101	1048576	54	5783
2026-01-07 23:24:08.13	124.68	19.45	-37.8	-38.7	24.2	0.00e+00	123	36	101	1048576	54	5733
2026-01-07 23:24:09.14	124.59	19.57	-37.7	-38.7	24.1	0.00e+00	122	36	101	1048576	54	5726
2026-01-07 23:24:10.15	124.51	19.69	-37.8	-38.7	24.1	0.00e+00	123	36	101	1048576	54	5751
2026-01-07 23:24:11.16	124.42	19.82	-37.6	-38.5	24.3	0.00e+00	123	36	101	1048576	54	5597
2026-01-07 23:24:12.17	124.33	19.94	-37.7	-38.6	24.1	0.00e+00	122	36	101	1048576	54	5688
2026-01-07 23:24:13.18	124.24	20.06	-37.5	-38.4	24.3	0.00e+00	122	36	101	1048576	54	5593
2026-01-07 23:24:14.20	124.15	20.19	-37.5	-38.4	24.3	0.00e+00	123	36	101	1048576	54	5570
2026-01-07 23:24:15.21	124.06	20.31	-37.6	-38.5	24.2	0.00e+00	122	36	101	1048576	54	5619
2026-01-07 23:24:16.22	123.97	20.44	-37.3	-38.2	24.4	0.00e+00	122	36	101	1048576	54	5467
2026-01-07 23:24:17.23	123.88	20.57	-37.3	-38.2	24.5	0.00e+00	123	36	101	1048576	54	5415
2026-01-07 23:24:18.24	123.79	20.69	-37.3	-38.2	24.6	0.00e+00	123	36	101	1048576	54	5411
2026-01-07 23:24:19.25	123.69	20.82	-37.2	-38.1	24.6	0.00e+00	123	36	101	1048576	54	5396
2026-01-07 23:24:20.58	123.57	20.99	-37.2	-38.1	24.6	0.00e+00	121	36	101	1048576	52	6007
2026-01-07 23:24:21.31	123.50	21.08	-37.0	-37.9	24.7	0.00e+00	123	36	101	1048576	52	5900
2026-01-07 23:24:22.60	123.38	21.25	-37.1	-37.9	24.7	0.00e+00	123	36	101	1048576	52	5918
2026-01-07 23:24:23.33	123.31	21.34	-36.9	-37.8	24.9	0.00e+00	122	36	101	1048576	52	5832
2026-01-07 23:24:24.63	123.18	21.51	-36.7	-37.5	25.0	0.00e+00	120	36	101	1048576	52	5653
2026-01-07 23:24:25.35	123.11	21.60	-36.7	-37.5	25.0	0.00e+00	123	36	101	1048576	52	5647
2026-01-07 23:24:26.65	122.98	21.77	-36.5	-37.4	25.2	0.00e+00	120	36	101	1048576	52	5539
2026-01-07 23:24:27.37	122.91	21.87	-36.5	-37.3	25.1	0.00e+00	123	36	101	1048576	52	5524
2026-01-07 23:24:28.67	122.78	22.04	-36.4	-37.3	25.1	0.00e+00	123	36	101	1048576	52	5498
2026-01-07 23:24:29.39	122.71	22.13	-36.4	-37.2	25.2	0.00e+00	123	36	101	1048576	52	5461
2026-01-07 23:24:30.69	122.58	22.30	-36.3	-37.2	25.2	0.00e+00	120	36	101	1048576	52	5449
2026-01-07 23:24:31.42	122.50	22.40	-36.3	-37.2	25.2	0.00e+00	122	36	101	1048576	52	5425
2026-01-07 23:24:32.72	122.37	22.57	-36.5	-37.3	25.1	0.00e+00	122	36	101	1048576	52	5529
2026-01-07 23:24:33.44	122.29	22.67	-36.5	-37.4	25.2	0.00e+00	120	36	101	1048576	52	5548
2026-01-07 23:24:34.74	122.16	22.85	-36.5	-37.3	25.1	0.00e+00	123	36	101	1048576	52	5520
2026-01-07 23:24:35.46	122.08	22.94	-36.5	-37.4	25.1	0.00e+00	123	36	101	1048576	52	5562
2026-01-07 23:24:36.76	121.94	23.12	-36.6	-37.5	25.1	0.00e+00	122	36	101	1048576	52	5595
2026-01-07 23:24:37.48	121.86	23.22	-36.7	-37.6	25.1	0.00e+00	123	36	101	1048576	52	5671
2026-01-07 23:24:38.78	121.72	23.40	-36.7	-37.6	25.1	0.00e+00	122	36	101	1048576	52	5661
2026-01-07 23:24:39.50	121.64	23.50	-36.8	-37.7	25.0	0.00e+00	120	36	101	1048576	52	5757
2026-01-07 23:24:40.80	121.49	23.68	-36.6	-37.5	25.1	0.00e+00	123	36	101	1048576	52	5628
2026-01-07 23:24:41.52	121.41	23.78	-36.6	-37.5	25.1	0.00e+00	122	36	101	1048576	52	5595
2026-01-07 23:24:42.82	121.27	23.96	-36.7	-37.6	25.1	0.00e+00	123	36	101	1048576	52	5693
2026-01-07 23:24:43.55	121.18	24.06	-36.5	-37.4	25.2	0.00e+00	123	36	101	1048576	52	5542
2026-01-07 23:24:44.85	121.03	24.25	-36.6	-37.5	25.1	0.00e+00	123	36	101	1048576	52	5618
2026-01-07 23:24:45.57	120.95	24.35	-36.6	-37.5	25.0	0.00e+00	121	36	101	1048576	52	5625
2026-01-07 23:24:46.87	120.80	24.53	-36.8	-37.7	24.9	0.00e+00	123	36	101	1048576	52	5727
2026-01-07 23:24:47.59	120.71	24.64	-36.8	-37.7	24.9	0.00e+00	120	36	101	1048576	52	5758
2026-01-07 23:24:48.89	120.55	24.82	-37.0	-37.9	24.8	0.00e+00	123	36	101	1048576	52	5875
2026-01-07 23:24:49.61	120.47	24.93	-37.0	-37.9	24.8	0.00e+00	120	36	101	1048576	52	5865
2026-01-07 23:24:50.91	120.31	25.12	-37.1	-38.0	24.7	0.00e+00	122	36	101	1048576	52	5993
2026-01-07 23:24:51.64	120.22	25.22	-37.1	-38.0	24.7	0.00e+00	120	36	101	1048576	52	5952
2026-01-07 23:24:52.94	120.06	25.41	-37.2	-38.1	24.5	0.00e+00	122	36	101	1048576	52	6021
2026-01-07 23:24:53.66	119.97	25.52	-37.2	-38.1	24.5	0.00e+00	123	36	101	1048576	52	6052
2026-01-07 23:24:54.96	119.80	25.71	-37.3	-38.2	24.4	0.00e+00	123	36	101	1048576	52	6120
2026-01-07 23:24:55.68	119.71	25.82	-37.4	-38.3	24.4	0.00e+00	123	36	101	1048576	52	6195
2026-01-07 23:24:56.98	119.54	26.01	-37.4	-38.3	24.4	0.00e+00	122	36	101	1048576	52	6192
2026-01-07 23:24:57.70	119.45	26.12	-37.7	-38.6	24.3	0.00e+00	122	36	101	1048576	52	6361
2026-01-07 23:24:59.00	119.27	26.31	-37.7	-38.6	24.3	0.00e+00	123	36	101	1048576	52	6365
2026-01-07 23:24:59.72	119.18	26.42	-37.7	-38.7	24.3	0.00e+00	123	36	101	1048576	52	6424
2026-01-07 23:25:01.02	119.00	26.62	-37.7	-38.7	24.2	0.00e+00	123	36	101	1048576	52	6434
2026-01-07 23:25:01.74	118.90	26.73	-37.7	-38.6	24.3	0.00e+00	123	36	101	1048576	52	6384
2026-01-07 23:25:03.04	118.73	26.93	-37.8	-38.8	24.1	0.00e+00	120	36	101	1048576	52	6507
2026-01-07 23:25:03.76	118.63	27.04	-37.8	-38.7	24.1	0.00e+00	123	36	101	1048576	52	6473
2026-01-07 23:25:05.06	118.44	27.24	-37.7	-38.6	24.0	0.00e+00	121	36	101	1048576	52	6380
2026-01-07 23:25:05.78	118.34	27.35	-37.8	-38.7	23.9	0.00e+00	123	36	101	1048576	52	6467
2026-01-07 23:25:07.08	118.16	27.56	-37.9	-38.9	23.9	0.00e+00	122	36	101	1048576	52	6576
2026-01-07 23:25:07.81	118.05	27.67	-37.8	-38.7	23.9	0.00e+00	122	36	101	1048576	52	6476
2026-01-07 23:25:09.11	117.86	27.87	-38.0	-39.0	23.8	0.00e+00	123	36	101	1048576	52	6661
2026-01-07 23:25:09.83	117.76	27.99	-38.0	-39.0	23.9	0.00e+00	120	36	101	1048576	52	6656
2026-01-07 23:25:11.13	117.56	28.19	-38.0	-39.0	24.0	0.00e+00	123	36	101	1048576	52	6650
2026-01-07 23:25:11.85	117.45	28.31	-37.9	-38.9	24.0	0.00e+00	123	36	101	1048576	52	6600
2026-01-07 23:25:13.15	117.26	28.52	-38.0	-39.0	24.1	0.00e+00	123	36	101	1048576	52	6652
2026-01-07 23:25:13.87	117.15	28.63	-37.9	-38.8	24.2	0.00e+00	123	36	101	1048576	52	6527
2026-01-07 23:25:15.17	116.94	28.84	-37.8	-38.7	24.3	0.00e+00	123	36	101	1048576	52	6475
2026-01-07 23:25:15.90	116.83	28.96	-37.6	-38.6	24.4	0.00e+00	120	36	101	1048576	52	6351
2026-01-07 23:25:17.20	116.62	29.17	-37.7	-38.7	24.3	0.00e+00	123	36	101	1048576	52	6435
2026-01-07 23:25:17.92	116.51	29.29	-37.5	-38.4	24.4	0.00e+00	120	36	101	1048576	52	6236
2026-01-07 23:25:19.22	116.30	29.50	-37.5	-38.4	24.2	0.00e+00	122	36	101	1048576	52	6274
2026-01-07 23:25:19.94	116.18	29.62	-37.5	-38.4	24.2	0.00e+00	121	36	101	1048576	52	6222
2026-01-07 23:25:21.24	115.97	29.84	-37.7	-38.6	23.9	0.00e+00	122	36	101	1048576	52	6377
2026-01-07 23:25:21.96	115.85	29.96	-37.7	-38.6	23.9	0.00e+00	122	36	101	1048576	52	6419
2026-01-07 23:25:23.26	115.63	30.17	-37.7	-38.7	23.9	0.00e+00	122	36	101	1048576	52	6457
2026-01-07 23:25:23.98	115.51	30.29	-38.0	-38.9	23.7	0.00e+00	123	36	101	1048576	52	6628
2026-01-07 23:25:25.28	115.28	30.51	-38.1	-39.0	23.8	0.00e+00	123	36	101	1048576	52	6716
2026-01-07 23:25:26.01	115.15	30.64	-38.0	-39.0	24.0	0.00e+00	123	36	101	1048576	52	6693
2026-01-07 23:25:27.31	114.93	30.86	-38.1	-39.1	23.6	0.00e+00	122	36	101	1048576	52	6727
2026-01-07 23:25:28.03	114.80	30.98	-38.0	-38.9	24.1	0.00e+00	123	36	101	1048576	54	5914
2026-01-07 23:25:29.33	114.56	31.20	-37.7	-38.6	24.4	0.00e+00	123	36	101	1048576	54	5666
2026-01-07 23:25:30.05	114.43	31.33	-37.6	-38.5	24.4	0.00e+00	122	36	101	1048576	54	5614
2026-01-07 23:25:31.35	114.19	31.55	-37.4	-38.3	24.5	0.00e+00	123	36	101	1048576	54	5483
2026-01-07 23:25:32.07	114.06	31.68	-37.4	-38.3	24.4	0.00e+00	121	36	101	1048576	54	5499
2026-01-07 23:25:33.37	113.82	31.90	-37.3	-38.2	24.4	0.00e+00	123	36	101	1048576	54	5456
2026-01-07 23:25:34.09	113.68	32.03	-37.3	-38.2	24.4	0.00e+00	123	36	101	1048576	54	5440
2026-01-07 23:25:35.39	113.43	32.26	-37.5	-38.4	24.2	0.00e+00	122	36	101	1048576	54	5558
2026-01-07 23:25:36.12	113.29	32.38	-37.6	-38.5	24.1	0.00e+00	123	36	101	1048576	54	5608
2026-01-07 23:25:37.41	113.04	32.61	-37.7	-38.7	24.1	0.00e+00	120	36	101	1048576	54	5726
2026-01-07 23:25:38.14	112.89	32.74	-37.9	-38.8	24.1	0.00e+00	123	36	101	1048576	54	5842
2026-01-07 23:25:39.44	112.63	32.97	-38.0	-39.0	24.1	0.00e+00	122	36	101	1048576	54	5940
2026-01-07 23:25:40.16	112.48	33.10	-38.0	-39.0	24.2	0.00e+00	123	36	101	1048576	54	5949
2026-01-07 23:25:41.46	112.22	33.33	-38.2	-39.2	23.9	0.00e+00	122	36	101	1048576	54	6085
2026-01-07 23:25:42.18	112.07	33.46	-38.1	-39.0	24.1	0.00e+00	122	36	101	1048576	54	5952
2026-01-07 23:25:43.48	111.79	33.70	-38.1	-39.0	24.1	0.00e+00	120	36	101	1048576	54	5976
2026-01-07 23:25:44.20	111.64	33.83	-38.1	-39.0	24.0	0.00e+00	123	36	101	1048576	54	5987
2026-01-07 23:25:45.50	111.36	34.06	-38.4	-39.3	23.8	0.00e+00	120	36	101	1048576	54	6164
2026-01-07 23:25:46.22	111.21	34.19	-38.5	-39.4	23.7	0.00e+00	123	36	101	1048576	54	6277
2026-01-07 23:25:47.52	110.92	34.43	-38.7	-39.7	23.6	0.00e+00	122	36	101	1048576	54	6434
2026-01-07 23:25:48.24	110.76	34.56	-38.8	-39.8	23.5	0.00e+00	123	36	101	1048576	54	6532
2026-01-07 23:25:49.54	110.47	34.80	-39.0	-39.9	23.3	0.00e+00	120	36	101	1048576	54	6621
2026-01-07 23:25:50.27	110.30	34.94	-39.0	-39.9	23.3	0.00e+00	122	36	101	1048576	54	6612
2026-01-07 23:25:51.56	110.00	35.18	-39.0	-40.0	23.3	0.00e+00	122	36	101	1048576	54	6684
2026-01-07 23:25:52.29	109.84	35.31	-39.2	-40.1	23.2	0.00e+00	122	36	101	1048576	54	6798
2026-01-07 23:25:53.59	109.53	35.56	-39.3	-40.3	23.1	0.00e+00	123	36	101	1048576	56	6148
2026-01-07 23:25:54.31	109.36	35.69	-39.2	-40.2	23.3	0.00e+00	122	36	101	1048576	56	6065
2026-01-07 23:25:55.61	109.04	35.93	-39.2	-40.1	23.3	0.00e+00	122	36	101	1048576	56	6055
2026-01-07 23:25:56.33	108.87	36.07	-39.3	-40.3	23.2	0.00e+00	123	36	101	1048576	56	6147
2026-01-07 23:25:57.63	108.55	36.31	-39.4	-40.4	23.0	0.00e+00	123	36	101	1048576	56	6231
2026-01-07 23:25:58.35	108.37	36.45	-39.5	-40.4	23.0	0.00e+00	122	36	101	1048576	56	6256
2026-01-07 23:25:59.65	108.04	36.69	-39.8	-40.8	22.8	0.00e+00	120	36	101	1048576	56	6564
2026-01-07 23:26:00.37	107.86	36.83	-39.8	-40.8	22.7	0.00e+00	123	36	101	1048576	56	6523
2026-01-07 23:26:01.68	107.52	37.08	-39.9	-40.9	22.7	0.00e+00	120	36	101	1048576	56	6630
2026-01-07 23:26:02.40	107.33	37.22	-39.9	-40.9	22.7	0.00e+00	123	36	101	1048576	56	6598
2026-01-07 23:26:03.70	106.98	37.47	-39.9	-40.9	22.6	0.00e+00	120	36	101	1048576	56	6634
2026-01-07 23:26:04.42	106.79	37.60	-39.9	-40.9	22.7	0.00e+00	122	36	101	1048576	56	6621
2026-01-07 23:26:05.72	106.44	37.85	-39.6	-40.6	22.8	0.00e+00	123	36	101	1048576	56	6390
2026-01-07 23:26:06.44	106.24	37.99	-39.6	-40.6	22.7	0.00e+00	122	36	101	1048576	56	6381
2026-01-07 23:26:07.74	105.88	38.24	-39.4	-40.4	23.0	0.00e+00	123	36	101	1048576	56	6234
2026-01-07 23:26:08.46	105.68	38.38	-39.5	-40.5	22.8	0.00e+00	123	36	101	1048576	56	6322
2026-01-07 23:26:09.76	105.31	38.63	-39.4	-40.4	22.9	0.00e+00	123	36	101	1048576	56	6234
2026-01-07 23:26:10.48	105.10	38.77	-39.4	-40.4	22.9	0.00e+00	122	36	101	1048576	56	6251
2026-01-07 23:26:11.78	104.72	39.02	-39.4	-40.3	22.9	0.00e+00	122	36	101	1048576	56	6202
2026-01-07 23:26:12.50	104.51	39.16	-39.5	-40.5	22.7	0.00e+00	120	36	101	1048576	56	6313
2026-01-07 23:26:13.80	104.12	39.41	-39.8	-40.9	22.5	0.00e+00	122	36	101	1048576	56	6588
2026-01-07 23:26:14.53	103.90	39.55	-39.8	-40.9	22.6	0.00e+00	120	36	101	1048576	56	6586
2026-01-07 23:26:15.83	103.50	39.81	-39.6	-40.6	22.8	0.00e+00	122	36	101	1048576	56	6406
2026-01-07 23:26:16.55	103.28	39.95	-39.6	-40.6	22.8	0.00e+00	120	36	101	1048576	56	6393
2026-01-07 23:26:17.84	102.87	40.20	-39.8	-40.8	22.5	0.00e+00	123	36	101	1048576	56	6521
2026-01-07 23:26:18.57	102.64	40.34	-39.7	-40.7	22.8	0.00e+00	122	36	101	1048576	56	6433
2026-01-07 23:26:19.87	102.22	40.59	-40.0	-41.0	22.5	0.00e+00	122	36	101	1048576	56	6689
2026-01-07 23:26:20.59	101.99	40.73	-40.1	-41.2	22.2	0.00e+00	123	36	101	1048576	56	6823
2026-01-07 23:26:21.89	101.56	40.99	-40.6	-41.7	21.8	0.00e+00	123	36	101	1048576	58	6473
2026-01-07 23:26:22.61	101.32	41.13	-40.8	-41.9	21.7	0.00e+00	123	36	101	1048576	58	6615
2026-01-07 23:26:23.91	100.88	41.38	-40.6	-41.7	21.9	0.00e+00	120	36	101	1048576	58	6425
2026-01-07 23:26:24.63	100.63	41.52	-40.5	-41.6	22.0	0.00e+00	123	36	101	1048576	58	6392
2026-01-07 23:26:25.93	100.18	41.77	-40.5	-41.5	22.1	0.00e+00	123	36	101	1048576	58	6337
2026-01-07 23:26:26.66	99.93	41.91	-40.5	-41.5	21.9	0.00e+00	123	36	101	1048576	58	6345
2026-01-07 23:26:27.96	99.47	42.17	-40.6	-41.6	21.7	0.00e+00	122	36	101	1048576	58	6414
2026-01-07 23:26:28.68	99.21	42.30	-40.7	-41.7	21.8	0.00e+00	123	36	101	1048576	58	6480
2026-01-07 23:26:29.98	98.74	42.56	-40.4	-41.5	22.1	0.00e+00	122	36	101	1048576	58	6309
2026-01-07 23:26:30.70	98.47	42.69	-40.5	-41.6	22.0	0.00e+00	123	36	101	1048576	58	6396
2026-01-07 23:26:32.00	97.99	42.95	-40.5	-41.6	22.0	0.00e+00	120	36	101	1048576	58	6368
2026-01-07 23:26:32.72	97.72	43.08	-40.4	-41.4	22.3	0.00e+00	122	36	101	1048576	58	6241
2026-01-07 23:26:34.02	97.22	43.33	-40.0	-41.0	22.6	0.00e+00	122	36	101	1048576	58	5981
2026-01-07 23:26:34.74	96.94	43.47	-40.1	-41.1	22.4	0.00e+00	122	36	101	1048576	58	6014
2026-01-07 23:26:36.04	96.43	43.72	-40.1	-41.1	22.4	0.00e+00	122	36	101	1048576	58	6024
2026-01-07 23:26:36.76	96.15	43.86	-40.2	-41.3	22.2	0.00e+00	120	36	101	1048576	58	6137
2026-01-07 23:26:38.06	95.63	44.10	-40.4	-41.4	22.1	0.00e+00	122	36	101	1048576	58	6274
2026-01-07 23:26:38.79	95.33	44.24	-40.5	-41.6	22.1	0.00e+00	122	36	101	1048576	58	6371
2026-01-07 23:26:40.09	94.80	44.48	-40.4	-41.5	22.1	0.00e+00	120	36	101	1048576	58	6307
2026-01-07 23:26:40.81	94.50	44.62	-40.4	-41.5	22.0	0.00e+00	122	36	101	1048576	58	6308
2026-01-07 23:26:42.11	93.96	44.86	-40.4	-41.5	22.0	0.00e+00	120	36	101	1048576	58	6288
2026-01-07 23:26:42.83	93.65	44.99	-40.4	-41.5	21.9	0.00e+00	122	36	101	1048576	58	6313
2026-01-07 23:26:44.13	93.09	45.23	-40.5	-41.6	22.0	0.00e+00	122	36	101	1048576	58	6380
2026-01-07 23:26:44.85	92.78	45.37	-40.5	-41.6	22.0	0.00e+00	123	36	101	1048576	58	6356
2026-01-07 23:26:46.15	92.20	45.60	-40.7	-41.8	21.9	0.00e+00	123	36	101	1048576	58	6506
2026-01-07 23:26:46.87	91.88	45.73	-40.7	-41.8	21.8	0.00e+00	123	36	101	1048576	58	6542
2026-01-07 23:26:48.18	91.29	45.97	-40.7	-41.8	21.9	0.00e+00	122	36	101	1048576	58	6564
2026-01-07 23:26:48.90	90.96	46.10	-40.6	-41.6	22.1	0.00e+00	123	36	101	1048576	58	6395
2026-01-07 23:26:50.20	90.36	46.33	-40.1	-41.1	22.5	0.00e+00	123	36	101	1048576	58	6049
2026-01-07 23:26:50.92	90.03	46.46	-39.9	-40.9	22.6	0.00e+00	122	36	101	1048576	58	5915
2026-01-07 23:26:52.22	89.42	46.69	-39.9	-40.9	22.7	0.00e+00	122	36	101	1048576	58	5917
2026-01-07 23:26:52.94	89.07	46.81	-40.0	-41.0	22.5	0.00e+00	123	36	101	1048576	58	5993
2026-01-07 23:26:54.24	88.44	47.03	-40.1	-41.1	22.6	0.00e+00	120	36	101	1048576	58	6005
2026-01-07 23:26:54.96	88.09	47.16	-39.5	-40.5	23.0	0.00e+00	123	36	101	1048576	58	5633
2026-01-07 23:26:56.26	87.45	47.38	-39.4	-40.4	23.2	0.00e+00	122	36	101	1048576	58	5533
2026-01-07 23:26:56.98	87.09	47.50	-39.4	-40.4	23.1	0.00e+00	123	36	101	1048576	58	5558
2026-01-07 23:26:58.29	86.43	47.71	-39.9	-40.9	22.5	0.00e+00	123	36	101	1048576	58	5911
2026-01-07 23:26:59.01	86.07	47.83	-40.2	-41.2	22.2	0.00e+00	123	36	101	1048576	58	6083
2026-01-07 23:27:00.31	85.40	48.04	-40.4	-41.4	22.1	0.00e+00	123	36	101	1048576	58	6265
2026-01-07 23:27:01.03	85.02	48.16	-40.2	-41.3	22.3	0.00e+00	123	36	101	1048576	58	6158
2026-01-07 23:27:02.33	84.34	48.36	-39.8	-40.8	22.8	0.00e+00	123	36	101	1048576	58	5795
2026-01-07 23:27:03.05	83.95	48.47	-39.6	-40.5	22.7	0.00e+00	123	36	101	1048576	58	5655
2026-01-07 23:27:04.35	83.26	48.67	-39.9	-40.9	22.5	0.00e+00	123	36	101	1048576	58	5913
2026-01-07 23:27:05.07	82.87	48.78	-39.9	-40.9	22.5	0.00e+00	123	36	101	1048576	58	5917
2026-01-07 23:27:06.37	82.15	48.98	-39.8	-40.8	22.7	0.00e+00	123	36	101	1048576	58	5825
2026-01-07 23:27:07.09	81.76	49.08	-39.8	-40.9	22.6	0.00e+00	123	36	101	1048576	58	5874
2026-01-07 23:27:08.39	81.03	49.27	-40.0	-41.0	22.5	0.00e+00	123	36	101	1048576	58	5964
2026-01-07 23:27:09.12	80.62	49.37	-40.0	-41.1	22.4	0.00e+00	120	36	101	1048576	58	6024
2026-01-07 23:27:10.42	79.88	49.55	-39.9	-40.9	22.5	0.00e+00	123	36	101	1048576	58	5924
2026-01-07 23:27:11.14	79.47	49.65	-39.7	-40.7	22.8	0.00e+00	121	36	101	1048576	58	5761
2026-01-07 23:27:12.44	78.71	49.82	-39.6	-40.6	22.9	0.00e+00	122	36	101	1048576	58	5695
2026-01-07 23:27:13.16	78.29	49.92	-39.8	-40.8	22.5	0.00e+00	120	36	101	1048576	58	5849
2026-01-07 23:27:14.46	77.53	50.08	-40.0	-41.0	22.6	0.00e+00	123	36	101	1048576	58	5953
2026-01-07 23:27:15.18	77.10	50.17	-39.9	-40.9	22.4	0.00e+00	122	36	101	1048576	58	5923
2026-01-07 23:27:16.48	76.32	50.33	-39.9	-40.9	22.4	0.00e+00	123	36	101	1048576	58	5895
2026-01-07 23:27:17.20	75.88	50.42	-40.0	-41.0	22.3	0.00e+00	123	36	101	1048576	58	5974
2026-01-07 23:27:18.50	75.09	50.57	-40.0	-41.0	22.5	0.00e+00	123	36	101	1048576	58	5955
2026-01-07 23:27:19.22	74.65	50.65	-39.9	-41.0	22.5	0.00e+00	120	36	101	1048576	58	5949
2026-01-07 23:27:20.52	73.85	50.79	-39.9	-40.9	22.5	0.00e+00	123	36	101	1048576	58	5882
2026-01-07 23:27:21.25	73.39	50.87	-39.8	-40.8	22.6	0.00e+00	120	36	101	1048576	58	5851
2026-01-07 23:27:22.55	72.58	51.00	-39.9	-40.9	22.5	0.00e+00	122	36	101	1048576	58	5892
2026-01-07 23:27:23.27	72.12	51.07	-40.1	-41.2	22.3	0.00e+00	123	36	101	1048576	58	6101
2026-01-07 23:27:24.57	71.30	51.20	-39.8	-40.9	22.6	0.00e+00	122	36	101	1048576	58	5869
2026-01-07 23:27:25.29	70.84	51.26	-39.8	-40.8	22.7	0.00e+00	121	36	101	1048576	58	5802
2026-01-07 23:27:26.59	70.00	51.38	-39.7	-40.8	22.5	0.00e+00	122	36	101	1048576	58	5801
2026-01-07 23:27:27.31	69.53	51.44	-39.8	-40.8	22.5	0.00e+00	123	36	101	1048576	58	5808
2026-01-07 23:27:28.61	68.69	51.54	-39.8	-40.8	22.6	0.00e+00	123	36	101	1048576	58	5805
2026-01-07 23:27:29.33	68.22	51.60	-39.7	-40.7	22.7	0.00e+00	123	36	101	1048576	58	5767
2026-01-07 23:27:30.63	67.36	51.69	-39.7	-40.7	22.5	0.00e+00	123	36	101	1048576	58	5779
2026-01-07 23:27:31.36	66.88	51.74	-40.1	-41.2	22.1	0.00e+00	122	36	101	1048576	58	6071
2026-01-07 23:27:32.66	66.02	51.83	-39.9	-41.0	22.2	0.00e+00	123	36	101	1048576	58	5961
2026-01-07 23:27:33.38	65.54	51.87	-39.9	-41.0	22.3	0.00e+00	123	36	101	1048576	58	5955
2026-01-07 23:27:34.68	64.67	51.95	-39.6	-40.6	22.9	0.00e+00	123	36	101	1048576	58	5679
2026-01-07 23:27:35.40	64.18	51.98	-39.0	-40.0	23.3	0.00e+00	120	36	101	1048576	56	5974
2026-01-07 23:27:36.70	63.31	52.05	-39.3	-40.3	22.9	0.00e+00	123	36	101	1048576	56	6171
2026-01-07 23:27:37.42	62.82	52.08	-39.5	-40.5	22.8	0.00e+00	123	36	101	1048576	56	6308
2026-01-07 23:27:38.72	61.94	52.13	-39.4	-40.4	23.1	0.00e+00	123	36	101	1048576	56	6267
2026-01-07 23:27:39.44	61.45	52.16	-39.3	-40.3	23.2	0.00e+00	122	36	101	1048576	56	6187
2026-01-07 23:27:40.74	60.56	52.20	-38.7	-39.7	23.6	0.00e+00	122	36	101	1048576	56	5735
2026-01-07 23:27:41.46	60.07	52.22	-38.6	-39.6	23.6	0.00e+00	123	36	101	1048576	56	5679
2026-01-07 23:27:42.76	59.18	52.25	-38.7	-39.6	23.6	0.00e+00	123	36	101	1048576	56	5719
2026-01-07 23:27:43.48	58.69	52.27	-38.7	-39.6	23.6	0.00e+00	122	36	101	1048576	56	5724
2026-01-07 23:27:44.78	57.80	52.29	-38.7	-39.6	23.5	0.00e+00	123	36	101	1048576	56	5715
2026-01-07 23:27:45.50	57.30	52.29	-38.6	-39.5	23.5	0.00e+00	123	36	101	1048576	56	5623
2026-01-07 23:27:46.80	56.41	52.30	-38.5	-39.5	23.6	0.00e+00	123	36	101	1048576	56	5608
2026-01-07 23:27:47.52	55.91	52.30	-38.5	-39.4	23.8	0.00e+00	122	36	101	1048576	56	5553
2026-01-07 23:27:48.82	55.02	52.30	-38.3	-39.2	23.7	0.00e+00	120	36	101	1048576	54	6131
2026-01-07 23:27:49.55	54.52	52.30	-38.7	-39.7	23.4	0.00e+00	123	36	101	1048576	54	6444
2026-01-07 23:27:50.85	53.63	52.28	-38.9	-39.8	23.2	0.00e+00	123	36	101	1048576	54	6572
2026-01-07 23:27:51.57	53.13	52.27	-39.0	-39.9	22.9	0.00e+00	122	36	101	1048576	54	6637
2026-01-07 23:27:52.87	52.24	52.25	-38.9	-39.9	23.2	0.00e+00	120	36	101	1048576	54	6608
2026-01-07 23:27:53.59	51.75	52.23	-38.6	-39.6	23.5	0.00e+00	123	36	101	1048576	54	6380
2026-01-07 23:27:54.89	50.86	52.19	-38.5	-39.5	23.6	0.00e+00	122	36	101	1048576	54	6305
2026-01-07 23:27:55.61	50.37	52.17	-38.5	-39.4	23.6	0.00e+00	123	36	101	1048576	54	6236
2026-01-07 23:27:56.91	49.49	52.12	-38.7	-39.6	23.2	0.00e+00	120	36	101	1048576	54	6416
2026-01-07 23:27:57.63	49.00	52.09	-38.8	-39.8	23.1	0.00e+00	122	36	101	1048576	54	6542
2026-01-07 23:27:58.94	48.12	52.03	-39.2	-40.2	23.1	0.00e+00	122	36	101	1048576	56	6078
2026-01-07 23:27:59.66	47.63	52.00	-39.3	-40.2	23.2	0.00e+00	123	36	101	1048576	56	6119
2026-01-07 23:28:00.96	46.76	51.93	-39.1	-40.0	23.4	0.00e+00	120	36	101	1048576	56	5981
2026-01-07 23:28:01.68	46.28	51.89	-39.0	-40.0	23.4	0.00e+00	123	36	101	1048576	56	5932
2026-01-07 23:28:02.98	45.41	51.81	-39.2	-40.1	23.3	0.00e+00	123	36	101	1048576	56	6047
2026-01-07 23:28:03.70	44.93	51.76	-39.2	-40.1	23.3	0.00e+00	123	36	101	1048576	56	6037
2026-01-07 23:28:05.00	44.07	51.67	-39.2	-40.2	23.1	0.00e+00	122	36	101	1048576	56	6084
2026-01-07 23:28:05.72	43.60	51.62	-39.3	-40.3	23.1	0.00e+00	122	36	101	1048576	56	6159
2026-01-07 23:28:07.02	42.75	51.52	-39.3	-40.4	22.8	0.00e+00	123	36	101	1048576	56	6207
2026-01-07 23:28:07.74	42.28	51.46	-39.1	-40.1	23.0	0.00e+00	122	36	101	1048576	56	6062
2026-01-07 23:28:09.04	41.44	51.35	-39.1	-40.1	23.4	0.00e+00	123	36	101	1048576	56	6031
2026-01-07 23:28:09.76	40.98	51.29	-39.2	-40.2	23.2	0.00e+00	123	36	101	1048576	56	6087
2026-01-07 23:28:11.06	40.15	51.17	-40.1	-41.2	22.4	0.00e+00	120	36	101	1048576	56	6844
2026-01-07 23:28:11.78	39.69	51.10	-40.3	-41.4	22.0	0.00e+00	122	36	101	1048576	58	6227
2026-01-07 23:28:13.08	38.87	50.98	-40.3	-41.4	21.9	0.00e+00	120	36	101	1048576	58	6239
2026-01-07 23:28:13.81	38.42	50.90	-39.7	-40.7	22.5	0.00e+00	123	36	101	1048576	58	5740
2026-01-07 23:28:15.11	37.61	50.76	-39.0	-39.9	23.3	0.00e+00	122	36	101	1048576	56	5913
2026-01-07 23:28:15.83	37.16	50.69	-38.9	-39.9	23.5	0.00e+00	123	36	101	1048576	56	5865
2026-01-07 23:28:17.13	36.37	50.54	-39.7	-40.7	22.8	0.00e+00	123	36	101	1048576	56	6459
2026-01-07 23:28:17.85	35.93	50.46	-40.2	-41.3	22.2	0.00e+00	122	36	101	1048576	58	6183
2026-01-07 23:28:19.15	35.14	50.30	-40.7	-41.8	21.6	0.00e+00	123	36	101	1048576	58	6539
2026-01-07 23:28:19.87	34.71	50.22	-40.5	-41.6	21.7	0.00e+00	123	36	101	1048576	58	6392
2026-01-07 23:28:21.17	33.94	50.05	-39.5	-40.6	22.7	0.00e+00	123	36	101	1048576	58	5676
2026-01-07 23:28:21.89	33.52	49.96	-39.5	-40.5	23.0	0.00e+00	123	36	101	1048576	58	5612
2026-01-07 23:28:23.19	32.76	49.79	-39.6	-40.6	22.9	0.00e+00	120	36	101	1048576	58	5687
2026-01-07 23:28:23.92	32.34	49.70	-40.3	-41.3	22.2	0.00e+00	122	36	101	1048576	58	6192
2026-01-07 23:28:25.22	31.59	49.52	-40.4	-41.4	22.3	0.00e+00	123	36	101	1048576	58	6272
2026-01-07 23:28:25.94	31.18	49.42	-40.2	-41.2	22.4	0.00e+00	123	36	101	1048576	58	6124
2026-01-07 23:28:27.24	30.45	49.24	-39.8	-40.8	22.8	0.00e+00	123	36	101	1048576	58	5829
2026-01-07 23:28:27.96	30.05	49.13	-39.8	-40.8	22.8	0.00e+00	120	36	101	1048576	58	5827
2026-01-07 23:28:29.26	29.33	48.94	-38.6	-39.4	23.9	0.00e+00	123	36	101	1048576	56	5587
2026-01-07 23:28:29.98	28.94	48.84	-39.0	-39.9	23.5	0.00e+00	122	36	101	1048576	56	5902
2026-01-07 23:28:31.28	28.23	48.64	-40.4	-41.5	22.1	0.00e+00	122	36	101	1048576	58	6290
2026-01-07 23:28:32.00	27.85	48.53	-40.6	-41.7	21.7	0.00e+00	122	36	101	1048576	58	6434
2026-01-07 23:28:33.30	27.16	48.33	-39.5	-40.6	22.2	0.00e+00	122	36	101	1048576	58	5660
2026-01-07 23:28:34.03	26.77	48.21	-39.0	-40.0	23.0	0.00e+00	123	36	101	1048576	56	5968
2026-01-07 23:28:35.33	26.10	48.01	-38.8	-39.7	23.7	0.00e+00	123	36	101	1048576	56	5747
2026-01-07 23:28:36.05	25.73	47.89	-38.7	-39.6	23.7	0.00e+00	123	36	101	1048576	56	5710
2026-01-07 23:28:37.35	25.07	47.68	-40.1	-41.1	22.3	0.00e+00	123	36	101	1048576	56	6798
2026-01-07 23:28:38.07	24.70	47.56	-40.9	-42.1	21.5	0.00e+00	120	36	101	1048576	58	6742
2026-01-07 23:28:39.37	24.06	47.34	-41.0	-42.1	21.7	0.00e+00	123	36	101	1048576	60	6052
2026-01-07 23:28:40.09	23.70	47.22	-40.5	-41.6	21.8	0.00e+00	120	36	101	1048576	60	5698
2026-01-07 23:28:41.39	23.07	47.00	-39.6	-40.6	22.3	0.00e+00	122	36	101	1048576	58	5711
2026-01-07 23:28:42.11	22.72	46.88	-38.7	-39.7	23.2	0.00e+00	122	36	101	1048576	56	5743
2026-01-07 23:28:43.41	22.10	46.65	-38.4	-39.3	23.8	0.00e+00	122	36	101	1048576	56	5519
2026-01-07 23:28:44.14	21.76	46.53	-38.6	-39.6	23.7	0.00e+00	123	36	101	1048576	56	5663
2026-01-07 23:28:45.44	21.15	46.30	-40.2	-41.2	22.3	0.00e+00	123	36	101	1048576	56	6817
2026-01-07 23:28:46.16	20.82	46.17	-41.3	-42.4	21.4	0.00e+00	123	36	101	1048576	58	7016
2026-01-07 23:28:47.46	20.23	45.94	-41.5	-42.7	20.9	0.00e+00	122	36	101	1048576	60	6460
2026-01-07 23:28:48.18	19.91	45.81	-41.2	-42.4	20.9	0.00e+00	120	36	101	1048576	60	6245
2026-01-07 23:28:49.48	19.33	45.57	-40.9	-42.0	21.3	0.00e+00	123	36	101	1048576	60	5945
2026-01-07 23:28:50.20	19.01	45.44	-40.9	-42.0	21.6	0.00e+00	121	36	101	1048576	60	5951
2026-01-07 23:28:51.50	18.45	45.20	-41.2	-42.4	21.6	0.00e+00	122	36	101	1048576	60	6218
2026-01-07 23:28:52.23	18.13	45.07	-41.5	-42.6	21.5	0.00e+00	123	36	101	1048576	60	6389
2026-01-07 23:28:53.52	17.59	44.83	-42.4	-43.6	20.3	0.00e+00	122	36	101	1048576	60	7182
2026-01-07 23:28:54.25	17.28	44.70	-42.9	-44.2	19.8	0.00e+00	121	36	101	1048576	60	7701
2026-01-07 23:28:55.55	16.74	44.45	-43.0	-44.3	19.8	0.00e+00	123	36	101	1048576	60	7812
2026-01-07 23:28:56.27	16.45	44.32	-41.8	-43.0	20.8	0.00e+00	122	36	101	1048576	60	6720
2026-01-07 23:28:57.57	15.92	44.07	-40.1	-41.1	22.6	0.00e+00	122	36	101	1048576	60	5391
2026-01-07 23:28:58.29	15.64	43.94	-39.6	-40.5	23.0	0.00e+00	123	36	101	1048576	58	5651
2026-01-07 23:28:59.59	15.12	43.69	-39.4	-40.4	23.1	0.00e+00	123	36	101	1048576	58	5561
2026-01-07 23:29:00.31	14.84	43.55	-39.7	-40.7	22.7	0.00e+00	122	36	101	1048576	58	5757
2026-01-07 23:29:01.61	14.34	43.31	-40.8	-41.9	21.8	0.00e+00	123	36	101	1048576	58	6623
2026-01-07 23:29:02.33	14.07	43.17	-41.6	-42.8	21.1	0.00e+00	123	36	101	1048576	60	6552
2026-01-07 23:29:03.63	13.58	42.92	-42.3	-43.6	20.2	0.00e+00	123	36	101	1048576	60	7204
2026-01-07 23:29:04.35	13.31	42.78	-42.1	-43.4	20.2	0.00e+00	123	36	101	1048576	60	7012
2026-01-07 23:29:05.65	12.83	42.53	-41.7	-42.9	20.5	0.00e+00	123	36	101	1048576	60	6620
2026-01-07 23:29:06.38	12.57	42.39	-41.1	-42.2	21.1	0.00e+00	123	36	101	1048576	60	6118
2026-01-07 23:29:07.68	12.10	42.14	-40.6	-41.7	21.8	0.00e+00	123	36	101	1048576	60	5742
2026-01-07 23:29:08.40	11.85	42.00	-39.6	-40.6	22.9	0.00e+00	122	36	101	1048576	58	5715
2026-01-07 23:29:09.70	11.39	41.75	-39.3	-40.2	23.2	0.00e+00	123	36	101	1048576	58	5458
2026-01-07 23:29:10.42	11.15	41.61	-39.7	-40.7	22.7	0.00e+00	123	36	101	1048576	58	5738
2026-01-07 23:29:11.72	10.70	41.36	-40.6	-41.7	21.8	0.00e+00	123	36	101	1048576	58	6487
2026-01-07 23:29:12.44	10.46	41.22	-41.1	-42.3	21.1	0.00e+00	120	36	101	1048576	58	6903
2026-01-07 23:29:13.74	10.03	40.97	-41.0	-42.1	21.9	0.00e+00	123	36	101	1048576	60	6045
2026-01-07 23:29:14.46	9.79	40.83	-40.8	-41.9	21.9	0.00e+00	123	36	101	1048576	60	5866
2026-01-07 23:29:15.76	9.37	40.58	-40.4	-41.5	22.2	0.00e+00	123	36	101	1048576	60	5606
2026-01-07 23:29:16.48	9.14	40.44	-39.9	-40.9	22.6	0.00e+00	122	36	101	1048576	58	5920
2026-01-07 23:29:17.78	8.72	40.19	-39.1	-40.0	23.3	0.00e+00	122	36	101	1048576	58	5342
2026-01-07 23:29:18.50	8.50	40.05	-39.0	-39.9	23.4	0.00e+00	123	36	101	1048576	56	5916
2026-01-07 23:29:19.80	8.10	39.79	-39.0	-40.0	23.4	0.00e+00	123	36	101	1048576	56	5943
2026-01-07 23:29:20.52	7.88	39.65	-39.0	-40.0	23.4	0.00e+00	120	36	101	1048576	56	5950
2026-01-07 23:29:21.82	7.49	39.40	-39.3	-40.2	23.3	0.00e+00	123	36	101	1048576	56	6127
2026-01-07 23:29:22.55	7.27	39.26	-39.7	-40.7	22.9	0.00e+00	120	36	101	1048576	56	6439
2026-01-07 23:29:23.85	6.88	39.01	-40.5	-41.6	21.9	0.00e+00	123	36	101	1048576	58	6383
2026-01-07 23:29:24.57	6.67	38.87	-40.5	-41.7	21.7	0.00e+00	122	36	101	1048576	58	6426
2026-01-07 23:29:25.87	6.30	38.62	-39.8	-40.8	22.2	0.00e+00	122	36	101	1048576	58	5856
2026-01-07 23:29:26.59	6.10	38.48	-39.2	-40.3	22.7	0.00e+00	123	36	101	1048576	58	5473
2026-01-07 23:29:27.89	5.73	38.23	-39.1	-40.1	23.2	0.00e+00	123	36	101	1048576	56	6013
2026-01-07 23:29:28.61	5.53	38.10	-38.6	-39.6	23.7	0.00e+00	120	36	101	1048576	56	5670
2026-01-07 23:29:29.91	5.18	37.85	-39.0	-40.0	23.4	0.00e+00	122	36	101	1048576	56	5964
2026-01-07 23:29:30.63	4.98	37.71	-39.4	-40.4	23.1	0.00e+00	120	36	101	1048576	56	6246
2026-01-07 23:29:31.93	4.63	37.46	-39.6	-40.6	23.0	0.00e+00	123	36	101	1048576	56	6363
2026-01-07 23:29:32.66	4.44	37.32	-39.6	-40.6	22.9	0.00e+00	120	36	101	1048576	56	6361
2026-01-07 23:29:33.96	4.10	37.08	-39.4	-40.4	23.1	0.00e+00	123	36	101	1048576	56	6213
2026-01-07 23:29:34.68	3.92	36.94	-39.0	-39.9	23.4	0.00e+00	120	36	101	1048576	56	5901
2026-01-07 23:29:35.98	3.58	36.70	-38.9	-39.8	23.6	0.00e+00	123	36	101	1048576	56	5848
2026-01-07 23:29:36.70	3.40	36.56	-39.0	-39.9	23.4	0.00e+00	120	36	101	1048576	56	5926
2026-01-07 23:29:38.00	3.08	36.32	-39.1	-40.1	23.3	0.00e+00	122	36	101	1048576	56	6015
2026-01-07 23:29:38.72	2.90	36.18	-38.7	-39.7	23.4	0.00e+00	120	36	101	1048576	56	5742
2026-01-07 23:29:40.02	2.58	35.94	-38.4	-39.4	23.4	0.00e+00	122	36	101	1048576	56	5558
2026-01-07 23:29:40.74	2.41	35.80	-38.4	-39.3	23.6	0.00e+00	120	36	101	1048576	56	5504
2026-01-07 23:29:42.04	2.10	35.56	-38.7	-39.7	23.5	0.00e+00	122	36	101	1048576	56	5752
2026-01-07 23:29:42.76	1.93	35.43	-38.9	-39.8	23.5	0.00e+00	120	36	101	1048576	56	5846
2026-01-07 23:29:44.06	1.63	35.19	-39.3	-40.3	23.1	0.00e+00	123	36	101	1048576	56	6205
2026-01-07 23:29:44.79	1.46	35.05	-39.6	-40.6	22.9	0.00e+00	122	36	101	1048576	56	6380
2026-01-07 23:29:46.08	1.17	34.82	-39.7	-40.7	22.9	0.00e+00	122	36	101	1048576	56	6446
2026-01-07 23:29:46.81	1.01	34.68	-39.4	-40.5	23.0	0.00e+00	120	36	101	1048576	56	6286
2026-01-07 23:29:48.11	0.72	34.44	-39.1	-40.1	23.3	0.00e+00	123	36	101	1048576	56	6018
2026-01-07 23:29:48.83	0.56	34.31	-38.9	-39.9	23.4	0.00e+00	120	36	101	1048576	56	5898
2026-01-07 23:29:50.13	0.28	34.08	-37.9	-38.8	24.1	0.00e+00	122	36	101	1048576	54	5811
2026-01-07 23:29:50.85	0.13	33.95	-37.9	-38.9	24.1	0.00e+00	122	36	101	1048576	54	5860
2026-01-07 23:29:52.15	359.85	33.71	-37.9	-38.8	24.3	0.00e+00	123	36	101	1048576	54	5817
2026-01-07 23:29:52.87	359.70	33.58	-38.1	-39.0	24.1	0.00e+00	122	36	101	1048576	54	5974
2026-01-07 23:29:54.17	359.43	33.35	-38.3	-39.2	23.9	0.00e+00	122	36	101	1048576	54	6125
2026-01-07 23:29:54.90	359.28	33.22	-38.4	-39.3	23.9	0.00e+00	123	36	101	1048576	54	6180
2026-01-07 23:29:56.19	359.02	32.99	-38.4	-39.4	23.8	0.00e+00	123	36	101	1048576	54	6209
2026-01-07 23:29:56.92	358.87	32.86	-38.4	-39.4	23.8	0.00e+00	120	36	101	1048576	54	6235
2026-01-07 23:29:58.22	358.62	32.63	-38.1	-39.0	24.0	0.00e+00	122	36	101	1048576	54	5961
2026-01-07 23:29:58.94	358.48	32.51	-38.1	-39.0	24.0	0.00e+00	122	36	101	1048576	54	5962
2026-01-07 23:30:00.24	358.23	32.28	-37.8	-38.7	24.2	0.00e+00	122	36	101	1048576	54	5762
2026-01-07 23:30:00.96	358.09	32.15	-37.8	-38.6	24.1	0.00e+00	123	36	101	1048576	54	5723
2026-01-07 23:30:02.26	357.84	31.93	-37.8	-38.8	24.0	0.00e+00	122	36	101	1048576	54	5806
2026-01-07 23:30:02.98	357.71	31.80	-37.9	-38.8	24.0	0.00e+00	120	36	101	1048576	54	5822
2026-01-07 23:30:04.28	357.47	31.58	-38.1	-39.0	23.8	0.00e+00	122	36	101	1048576	54	5971
2026-01-07 23:30:05.00	357.33	31.45	-38.0	-38.9	24.0	0.00e+00	121	36	101	1048576	54	5919
2026-01-07 23:30:06.30	357.10	31.23	-38.0	-38.9	24.0	0.00e+00	123	36	101	1048576	54	5911
2026-01-07 23:30:07.02	356.97	31.11	-38.1	-39.0	24.1	0.00e+00	120	36	101	1048576	54	5973
2026-01-07 23:30:08.32	356.74	30.89	-38.0	-38.9	24.1	0.00e+00	123	36	101	1048576	54	5909
2026-01-07 23:30:09.04	356.61	30.77	-38.1	-39.1	24.0	0.00e+00	120	36	101	1048576	54	5997
2026-01-07 23:30:10.34	356.39	30.55	-38.2	-39.1	24.0	0.00e+00	123	36	101	1048576	54	6031
2026-01-07 23:30:11.07	356.26	30.42	-38.2	-39.2	24.0	0.00e+00	120	36	101	1048576	54	6084
2026-01-07 23:30:12.36	356.04	30.21	-38.2	-39.1	24.0	0.00e+00	122	36	101	1048576	54	6031
2026-01-07 23:30:13.09	355.92	30.09	-38.0	-38.9	24.2	0.00e+00	120	36	101	1048576	54	5882
2026-01-07 23:30:14.39	355.70	29.87	-38.1	-39.0	23.9	0.00e+00	122	36	101	1048576	54	5977
2026-01-07 23:30:15.11	355.59	29.75	-37.8	-38.8	24.0	0.00e+00	120	36	101	1048576	54	5796
2026-01-07 23:30:16.40	355.38	29.54	-37.8	-38.7	24.0	0.00e+00	123	36	101	1048576	54	5785
2026-01-07 23:30:17.13	355.26	29.42	-37.7	-38.6	24.0	0.00e+00	122	36	101	1048576	54	5707
2026-01-07 23:30:18.43	355.05	29.21	-37.4	-38.3	24.3	0.00e+00	123	36	101	1048576	54	5478
2026-01-07 23:30:19.15	354.94	29.09	-37.5	-38.4	24.2	0.00e+00	123	36	101	1048576	54	5587
2026-01-07 23:30:20.45	354.73	28.88	-37.4	-38.3	24.3	0.00e+00	123	36	101	1048576	54	5478
2026-01-07 23:30:21.17	354.62	28.77	-37.1	-38.0	24.6	0.00e+00	122	36	101	1048576	52	5950
2026-01-07 23:30:22.47	354.42	28.56	-37.0	-37.9	24.7	0.00e+00	122	36	101	1048576	52	5912
2026-01-07 23:30:23.19	354.32	28.44	-37.1	-38.0	24.7	0.00e+00	120	36	101	1048576	52	5930
2026-01-07 23:30:24.49	354.12	28.24	-37.2	-38.1	24.7	0.00e+00	123	36	101	1048576	52	6005
2026-01-07 23:30:25.21	354.01	28.12	-37.1	-38.0	24.8	0.00e+00	122	36	101	1048576	52	5936
2026-01-07 23:30:26.51	353.82	27.92	-37.2	-38.1	24.7	0.00e+00	120	36	101	1048576	52	5998
2026-01-07 23:30:27.23	353.72	27.81	-37.2	-38.1	24.8	0.00e+00	122	36	101	1048576	52	6006
2026-01-07 23:30:28.53	353.53	27.60	-37.2	-38.1	24.7	0.00e+00	120	36	101	1048576	52	6001
2026-01-07 23:30:29.25	353.43	27.49	-37.2	-38.1	24.7	0.00e+00	122	36	101	1048576	52	5996
2026-01-07 23:30:30.55	353.25	27.29	-37.2	-38.1	24.7	0.00e+00	121	36	101	1048576	52	6016
2026-01-07 23:30:31.28	353.14	27.18	-37.2	-38.1	24.5	0.00e+00	123	36	101	1048576	52	6050
2026-01-07 23:30:32.58	352.96	26.98	-37.1	-38.0	24.6	0.00e+00	121	36	101	1048576	52	5936
2026-01-07 23:30:33.30	352.87	26.87	-37.2	-38.1	24.5	0.00e+00	123	36	101	1048576	52	6041
2026-01-07 23:30:34.60	352.69	26.67	-37.2	-38.2	24.4	0.00e+00	120	36	101	1048576	52	6080
2026-01-07 23:30:35.32	352.59	26.56	-37.2	-38.1	24.4	0.00e+00	122	36	101	1048576	52	6006
2026-01-07 23:30:36.62	352.42	26.37	-37.1	-38.0	24.6	0.00e+00	120	36	101	1048576	52	5931
2026-01-07 23:30:37.34	352.33	26.26	-37.1	-38.0	24.6	0.00e+00	122	36	101	1048576	52	5940
2026-01-07 23:30:38.64	352.16	26.07	-37.0	-37.9	24.8	0.00e+00	120	36	101	1048576	52	5862
2026-01-07 23:30:39.36	352.06	25.96	-37.0	-37.8	24.8	0.00e+00	123	36	101	1048576	52	5842
2026-01-07 23:30:40.66	351.90	25.77	-37.0	-37.8	24.8	0.00e+00	122	36	101	1048576	52	5855
2026-01-07 23:30:41.38	351.81	25.66	-37.0	-37.9	24.9	0.00e+00	123	36	101	1048576	52	5865
2026-01-07 23:30:42.68	351.64	25.47	-37.1	-38.0	24.8	0.00e+00	122	36	101	1048576	52	5971
2026-01-07 23:30:43.40	351.55	25.37	-36.9	-37.8	24.9	0.00e+00	123	36	101	1048576	52	5843
2026-01-07 23:30:44.70	351.39	25.18	-37.1	-38.0	24.8	0.00e+00	120	36	101	1048576	52	5952
2026-01-07 23:30:45.42	351.31	25.07	-37.0	-37.9	24.8	0.00e+00	123	36	101	1048576	52	5864
2026-01-07 23:30:46.72	351.15	24.89	-37.0	-37.8	24.9	0.00e+00	123	36	101	1048576	52	5848
2026-01-07 23:30:47.45	351.06	24.78	-37.0	-37.8	25.0	0.00e+00	122	36	101	1048576	52	5854
2026-01-07 23:30:48.74	350.91	24.60	-37.0	-37.8	25.0	0.00e+00	123	36	101	1048576	52	5827
2026-01-07 23:30:49.47	350.82	24.49	-37.0	-37.9	24.9	0.00e+00	123	36	101	1048576	52	5889
2026-01-07 23:30:50.77	350.67	24.31	-36.9	-37.8	25.0	0.00e+00	122	36	101	1048576	52	5798
2026-01-07 23:30:51.49	350.59	24.21	-36.9	-37.8	25.0	0.00e+00	122	36	101	1048576	52	5828
2026-01-07 23:30:52.79	350.44	24.03	-36.9	-37.8	25.0	0.00e+00	122	36	101	1048576	52	5822
2026-01-07 23:30:53.51	350.36	23.93	-36.9	-37.7	25.0	0.00e+00	122	36	101	1048576	52	5782
2026-01-07 23:30:54.81	350.22	23.75	-37.1	-38.0	24.7	0.00e+00	123	36	101	1048576	52	5952
2026-01-07 23:30:55.53	350.14	23.65	-37.1	-38.0	24.8	0.00e+00	122	36	101	1048576	52	5935
2026-01-07 23:30:56.83	349.99	23.47	-37.3	-38.2	24.7	0.00e+00	122	36	101	1048576	52	6070
2026-01-07 23:30:57.55	349.91	23.37	-37.3	-38.2	24.7	0.00e+00	123	36	101	1048576	52	6079
2026-01-07 23:30:58.85	349.77	23.19	-37.7	-38.6	24.5	0.00e+00	123	36	101	1048576	52	6373
2026-01-07 23:30:59.57	349.70	23.09	-37.5	-38.5	24.4	0.00e+00	120	36	101	1048576	52	6281
2026-01-07 23:31:00.87	349.56	22.92	-37.7	-38.6	24.4	0.00e+00	123	36	101	1048576	52	6394
2026-01-07 23:31:01.59	349.48	22.82	-37.6	-38.6	24.3	0.00e+00	122	36	101	1048576	52	6355
2026-01-07 23:31:02.89	349.35	22.65	-37.7	-38.7	24.2	0.00e+00	122	36	101	1048576	52	6424
2026-01-07 23:31:03.61	349.27	22.55	-37.6	-38.5	24.2	0.00e+00	122	36	101	1048576	52	6343
2026-01-07 23:31:04.91	349.14	22.38	-37.7	-38.6	24.1	0.00e+00	123	36	101	1048576	52	6411
2026-01-07 23:31:05.64	349.07	22.28	-37.7	-38.7	24.0	0.00e+00	120	36	101	1048576	52	6441
2026-01-07 23:31:06.94	348.94	22.11	-37.5	-38.4	24.2	0.00e+00	123	36	101	1048576	52	6259
2026-01-07 23:31:07.66	348.87	22.02	-37.4	-38.3	24.2	0.00e+00	123	36	101	1048576	52	6199
2026-01-07 23:31:08.96	348.74	21.85	-37.4	-38.3	24.2	0.00e+00	123	36	101	1048576	52	6193
2026-01-07 23:31:09.68	348.67	21.75	-37.2	-38.1	24.4	0.00e+00	120	36	101	1048576	52	6063
2026-01-07 23:31:10.98	348.54	21.59	-37.1	-37.9	24.5	0.00e+00	123	36	101	1048576	52	5916
2026-01-07 23:31:11.70	348.47	21.49	-37.0	-37.9	24.6	0.00e+00	120	36	101	1048576	52	5886
2026-01-07 23:31:13.00	348.35	21.33	-36.9	-37.8	24.7	0.00e+00	123	36	101	1048576	52	5829
2026-01-07 23:31:13.72	348.28	21.24	-36.9	-37.8	24.7	0.00e+00	123	36	101	1048576	52	5810
2026-01-07 23:31:15.02	348.16	21.07	-36.5	-37.4	25.0	0.00e+00	123	36	101	1048576	52	5548
2026-01-07 23:31:15.75	348.09	20.98	-36.5	-37.4	25.0	0.00e+00	122	36	101	1048576	52	5559
2026-01-07 23:31:17.05	347.97	20.81	-36.4	-37.2	25.1	0.00e+00	122	36	101	1048576	52	5458
2026-01-07 23:31:17.77	347.91	20.72	-36.4	-37.3	25.2	0.00e+00	121	36	101	1048576	52	5486
2026-01-07 23:31:19.07	347.79	20.56	-36.4	-37.2	25.1	0.00e+00	123	36	101	1048576	52	5453
2026-01-07 23:31:19.79	347.72	20.47	-36.4	-37.2	25.0	0.00e+00	123	36	101	1048576	52	5462
2026-01-07 23:31:21.09	347.61	20.31	-36.2	-37.1	25.2	0.00e+00	123	36	101	1048576	52	5354
2026-01-07 23:31:21.81	347.54	20.22	-36.2	-37.0	25.2	0.00e+00	123	36	101	1048576	52	5341
2026-01-07 23:31:23.11	347.43	20.06	-36.4	-37.2	25.1	0.00e+00	123	36	101	1048576	52	5452
2026-01-07 23:31:23.83	347.37	19.98	-36.3	-37.2	25.2	0.00e+00	123	36	101	1048576	52	5411
2026-01-07 23:31:25.13	347.26	19.82	-36.5	-37.3	25.1	0.00e+00	120	36	101	1048576	52	5503
2026-01-07 23:31:25.85	347.20	19.73	-36.5	-37.4	25.1	0.00e+00	123	36	101	1048576	52	5569
2026-01-07 23:31:27.15	347.09	19.57	-36.5	-37.4	25.0	0.00e+00	123	36	101	1048576	52	5535
2026-01-07 23:31:27.87	347.02	19.49	-36.6	-37.4	25.0	0.00e+00	122	36	101	1048576	52	5593
2026-01-07 23:31:29.17	346.92	19.33	-36.7	-37.6	25.0	0.00e+00	123	36	101	1048576	52	5678
2026-01-07 23:31:29.90	346.86	19.25	-36.8	-37.6	24.9	0.00e+00	123	36	101	1048576	52	5721
2026-01-07 23:31:31.19	346.75	19.09	-36.8	-37.7	24.9	0.00e+00	123	36	101	1048576	52	5779
2026-01-07 23:31:31.92	346.69	19.01	-36.9	-37.7	24.8	0.00e+00	122	36	101	1048576	52	5791
2026-01-07 23:31:33.22	346.59	18.85	-37.0	-37.9	24.7	0.00e+00	123	36	101	1048576	52	5892
2026-01-07 23:31:33.94	346.53	18.77	-37.2	-38.1	24.6	0.00e+00	123	36	101	1048576	52	6032
2026-01-07 23:31:35.24	346.43	18.62	-37.3	-38.2	24.4	0.00e+00	123	36	101	1048576	52	6085
2026-01-07 23:31:35.96	346.37	18.54	-37.4	-38.3	24.4	0.00e+00	122	36	101	1048576	52	6155
2026-01-07 23:31:37.26	346.27	18.39	-37.4	-38.3	24.3	0.00e+00	123	36	101	1048576	52	6179
2026-01-07 23:31:37.99	346.21	18.30	-37.5	-38.4	24.3	0.00e+00	122	36	101	1048576	52	6230
2026-01-07 23:31:39.29	346.11	18.15	-37.6	-38.5	24.1	0.00e+00	122	36	101	1048576	52	6317
