passes_logs/2026/01/07/R4.6S_Anadyr_2ch/R4.6S_Anadyr_2ch__20260107_203229_SUOMI_NPP_rec.log

#Pass ID: 20260107_203229_SUOMI NPP
#Satellite: SUOMI NPP
#Configuration: NPP
#almurnet v.1.7.20251203
#Start time: 2026-01-07 20:32:32

#Version: 2.2.20231116
#Station: R4.6S_Anadyr_2ch
#Location: 177.4865 lon 64.73178 lat
#TLE: 1 37849U 11061A   25350.92281687  .00000071  00000+0  54882-4 0  9996
#TLE: 2 37849  98.7777 288.2268 0002366 112.8570 247.2856 14.19515404732588

#Time	Az	El	Level	Level2	SNR	BER	BlckErr	Temp	State	Recorded	gain1	gain2
2026-01-07 20:32:32.18	70.62	0.12	-51.8	-62.6	3.5	8.46e-01	0	33	0	0	60	66865
2026-01-07 20:32:33.19	70.55	0.17	-52.0	-67.4	3.6	1.51e+00	0	34	104	0	60	114508
2026-01-07 20:32:34.20	70.48	0.22	-52.1	-67.4	3.6	1.51e+00	0	34	104	0	60	114798
2026-01-07 20:32:35.21	70.40	0.27	-52.0	-67.4	3.6	1.51e+00	0	34	104	0	60	114688
2026-01-07 20:32:36.22	70.33	0.32	-52.0	-67.4	3.6	1.51e+00	0	34	104	0	60	114349
2026-01-07 20:32:37.23	70.26	0.37	-52.1	-67.4	3.6	1.51e+00	0	34	104	0	60	114917
2026-01-07 20:32:38.24	70.18	0.42	-52.1	-67.4	3.5	1.51e+00	0	34	104	0	60	114938
2026-01-07 20:32:39.25	70.11	0.47	-52.1	-67.5	3.6	1.51e+00	0	34	104	0	60	115240
2026-01-07 20:32:40.27	70.03	0.52	-52.1	-67.5	3.6	1.51e+00	0	34	104	0	60	115354
2026-01-07 20:32:41.28	69.96	0.57	-52.0	-67.5	3.6	1.51e+00	0	34	104	0	60	115380
2026-01-07 20:32:42.29	69.88	0.62	-52.0	-67.4	3.6	1.51e+00	0	34	104	0	60	114737
2026-01-07 20:32:43.30	69.81	0.67	-52.0	-67.3	3.6	1.51e+00	0	34	104	0	60	113559
2026-01-07 20:32:44.31	69.73	0.72	-51.8	-67.3	3.6	1.51e+00	0	34	104	0	60	112482
2026-01-07 20:32:45.32	69.65	0.77	-51.7	-67.1	3.6	1.51e+00	0	34	104	0	60	110356
2026-01-07 20:32:46.33	69.58	0.82	-51.5	-66.8	3.6	1.51e+00	0	34	104	0	60	106814
2026-01-07 20:32:47.34	69.50	0.87	-50.9	-66.3	3.6	1.51e+00	0	34	104	0	60	100413
2026-01-07 20:32:48.35	69.43	0.93	-50.5	-65.9	3.6	1.51e+00	0	35	104	0	60	95680
2026-01-07 20:32:49.36	69.35	0.98	-50.5	-65.8	3.6	1.51e+00	0	34	104	0	60	95353
2026-01-07 20:32:50.37	69.27	1.03	-50.5	-65.9	3.6	1.51e+00	0	34	104	0	60	95689
2026-01-07 20:32:51.38	69.19	1.08	-50.5	-65.8	3.6	1.51e+00	0	34	104	0	60	95602
2026-01-07 20:32:52.39	69.12	1.13	-50.5	-65.8	3.6	1.51e+00	0	34	104	0	60	95486
2026-01-07 20:32:53.41	69.04	1.18	-50.5	-65.8	3.6	1.51e+00	0	34	104	0	60	95390
2026-01-07 20:32:54.42	68.96	1.23	-50.5	-65.8	3.6	1.51e+00	0	35	104	0	60	95317
2026-01-07 20:32:55.43	68.88	1.28	-50.5	-65.8	3.6	1.51e+00	0	34	104	0	60	95177
2026-01-07 20:32:56.44	68.80	1.33	-50.5	-65.8	3.6	1.51e+00	0	34	104	0	60	94983
2026-01-07 20:32:57.45	68.72	1.39	-50.5	-65.8	3.6	1.51e+00	0	34	104	0	60	95052
2026-01-07 20:32:58.46	68.64	1.44	-50.5	-65.8	3.6	1.51e+00	0	34	104	0	60	94682
2026-01-07 20:32:59.47	68.56	1.49	-50.5	-65.8	3.6	1.51e+00	0	35	104	0	60	94661
2026-01-07 20:33:00.48	68.48	1.54	-50.5	-65.7	3.6	1.51e+00	0	35	104	0	60	94517
2026-01-07 20:33:01.49	68.40	1.59	-50.5	-65.8	3.6	1.51e+00	0	35	104	0	60	95137
2026-01-07 20:33:02.51	68.32	1.64	-50.5	-65.8	3.6	1.51e+00	0	35	104	0	60	95335
2026-01-07 20:33:03.52	68.24	1.69	-50.5	-65.8	3.6	1.51e+00	0	34	104	0	60	94954
2026-01-07 20:33:04.53	68.16	1.75	-50.5	-65.8	3.6	1.51e+00	0	35	104	0	60	95570
2026-01-07 20:33:05.54	68.07	1.80	-50.5	-65.7	3.6	1.51e+00	0	35	104	0	60	94241
2026-01-07 20:33:06.55	67.99	1.85	-50.5	-65.7	3.6	1.51e+00	0	35	104	0	60	94043
2026-01-07 20:33:07.56	67.91	1.90	-50.5	-65.6	3.6	1.51e+00	0	35	104	0	60	93170
2026-01-07 20:33:08.57	67.83	1.95	-50.4	-65.5	3.6	1.51e+00	0	35	104	0	60	92278
2026-01-07 20:33:09.58	67.75	2.00	-50.4	-65.5	3.6	1.51e+00	0	35	104	0	60	91388
2026-01-07 20:33:10.59	67.66	2.06	-50.4	-65.5	3.5	1.51e+00	0	35	104	0	60	92054
2026-01-07 20:33:11.61	67.58	2.11	-50.5	-65.6	3.6	1.51e+00	0	35	104	0	60	93039
2026-01-07 20:33:12.62	67.49	2.16	-50.5	-65.8	3.6	1.51e+00	0	35	104	0	60	95177
2026-01-07 20:33:13.63	67.41	2.21	-50.5	-65.8	3.6	1.51e+00	0	35	104	0	60	95459
2026-01-07 20:33:14.64	67.33	2.26	-50.4	-65.7	3.6	1.51e+00	0	35	104	0	60	94425
2026-01-07 20:33:15.65	67.24	2.31	-50.5	-65.7	3.6	1.51e+00	0	35	104	0	60	93712
2026-01-07 20:33:16.66	67.16	2.37	-50.5	-65.8	3.5	1.51e+00	0	35	104	0	60	94802
2026-01-07 20:33:17.67	67.07	2.42	-50.5	-65.8	3.6	1.51e+00	0	35	104	0	60	94863
2026-01-07 20:33:18.68	66.98	2.47	-50.4	-65.5	3.6	1.51e+00	0	35	104	0	60	92096
2026-01-07 20:33:19.69	66.90	2.52	-50.4	-65.0	3.6	1.51e+00	0	35	104	0	60	86940
2026-01-07 20:33:20.70	66.81	2.57	-50.4	-65.1	3.6	1.51e+00	0	35	104	0	60	87940
2026-01-07 20:33:21.71	66.73	2.63	-50.4	-65.6	3.6	1.51e+00	0	35	104	0	60	92382
2026-01-07 20:33:22.73	66.64	2.68	-50.4	-65.0	3.6	1.51e+00	0	35	104	0	60	86818
2026-01-07 20:33:23.73	66.55	2.73	-50.2	-61.4	4.4	1.47e+00	10	35	104	0	60	57115
2026-01-07 20:33:24.75	66.46	2.78	-49.7	-56.8	7.2	3.07e-01	0	35	0	0	60	33837
2026-01-07 20:33:25.76	66.38	2.84	-48.9	-54.0	10.5	2.99e-02	0	35	102	1048576	60	24325
2026-01-07 20:33:26.77	66.29	2.89	-48.2	-52.1	12.6	2.83e-04	0	35	102	1048576	60	19746
2026-01-07 20:33:27.78	66.20	2.94	-47.7	-51.3	13.5	1.14e-05	0	35	102	1048576	60	17814
2026-01-07 20:33:28.79	66.11	2.99	-50.6	-65.9	3.6	2.44e-05	0	35	104	1048576	60	96361
2026-01-07 20:33:29.80	66.02	3.05	-48.6	-53.0	5.6	1.31e+00	30	35	104	1048576	60	21772
2026-01-07 20:33:30.81	65.93	3.10	-50.1	-60.4	3.6	4.69e-03	43	35	104	1048576	60	50824
2026-01-07 20:33:31.82	65.84	3.15	-50.0	-59.0	4.3	1.51e+00	0	35	104	1048576	60	43451
2026-01-07 20:33:32.84	65.75	3.20	-47.0	-49.9	13.7	2.49e-01	0	35	0	1048576	60	15254
2026-01-07 20:33:33.85	65.66	3.26	-47.3	-50.3	14.7	9.61e-05	0	35	0	1048576	60	15994
2026-01-07 20:33:34.86	65.57	3.31	-46.7	-49.3	15.6	0.00e+00	0	35	0	1048576	60	14236
2026-01-07 20:33:35.87	65.48	3.36	-46.0	-48.3	16.4	0.00e+00	0	35	0	1048576	60	12642
2026-01-07 20:33:36.88	65.39	3.41	-46.1	-48.3	16.6	0.00e+00	0	35	0	1048576	60	12731
2026-01-07 20:33:37.89	65.30	3.47	-45.6	-47.6	17.3	0.00e+00	0	35	0	1048576	60	11715
2026-01-07 20:33:38.90	65.20	3.52	-45.4	-47.4	17.6	0.00e+00	0	35	0	1048576	60	11421
2026-01-07 20:33:39.91	65.11	3.57	-45.4	-47.4	17.5	0.00e+00	0	35	0	1048576	60	11368
2026-01-07 20:33:40.92	65.02	3.62	-45.1	-46.9	17.7	0.00e+00	0	35	0	1048576	60	10796
2026-01-07 20:33:41.93	64.92	3.68	-44.9	-46.6	18.2	0.00e+00	0	35	0	1048576	60	10473
2026-01-07 20:33:42.94	64.83	3.73	-44.9	-46.7	18.2	0.00e+00	0	35	0	1048576	60	10499
2026-01-07 20:33:43.95	64.74	3.78	-45.0	-46.8	18.2	0.00e+00	0	35	0	1048576	60	10616
2026-01-07 20:33:44.97	64.64	3.84	-45.1	-46.9	18.0	0.00e+00	0	35	0	1048576	60	10795
2026-01-07 20:33:45.98	64.55	3.89	-45.2	-47.1	18.0	0.00e+00	0	35	0	1048576	60	11023
2026-01-07 20:33:46.99	64.45	3.94	-45.4	-47.3	17.6	0.00e+00	0	35	0	1048576	60	11313
2026-01-07 20:33:48.00	64.36	4.00	-45.2	-47.1	17.9	0.00e+00	0	35	0	1048576	60	10981
2026-01-07 20:33:49.01	64.26	4.05	-45.3	-47.2	17.8	0.00e+00	0	35	0	1048576	60	11223
2026-01-07 20:33:50.02	64.17	4.10	-45.4	-47.4	17.7	0.00e+00	0	35	0	1048576	60	11370
2026-01-07 20:33:51.03	64.07	4.15	-45.4	-47.3	17.7	0.00e+00	0	35	101	1048576	60	11327
2026-01-07 20:33:52.04	63.97	4.21	-45.4	-47.3	17.7	0.00e+00	0	35	101	1048576	60	11315
2026-01-07 20:33:53.05	63.88	4.26	-45.5	-47.4	17.6	0.00e+00	0	35	101	1048576	60	11473
2026-01-07 20:33:54.07	63.78	4.31	-45.4	-47.3	17.5	0.00e+00	0	35	101	1048576	60	11256
2026-01-07 20:33:55.08	63.68	4.37	-45.4	-47.3	17.8	0.00e+00	0	35	101	1048576	60	11325
2026-01-07 20:33:56.09	63.58	4.42	-45.5	-47.4	17.6	0.00e+00	0	35	101	1048576	60	11468
2026-01-07 20:33:57.10	63.48	4.47	-45.6	-47.6	17.4	0.00e+00	0	35	101	1048576	60	11680
2026-01-07 20:33:58.11	63.38	4.53	-45.5	-47.4	17.7	0.00e+00	0	35	101	1048576	60	11493
2026-01-07 20:33:59.12	63.28	4.58	-45.5	-47.5	17.7	0.00e+00	0	35	101	1048576	60	11519
2026-01-07 20:34:00.13	63.18	4.63	-45.5	-47.5	17.6	0.00e+00	0	35	101	1048576	60	11544
2026-01-07 20:34:01.14	63.08	4.69	-45.4	-47.4	17.8	0.00e+00	0	35	101	1048576	60	11389
2026-01-07 20:34:02.15	62.98	4.74	-45.4	-47.3	18.0	0.00e+00	0	35	101	1048576	60	11274
2026-01-07 20:34:03.16	62.88	4.79	-45.3	-47.2	17.9	0.00e+00	0	35	101	1048576	60	11219
2026-01-07 20:34:04.17	62.78	4.85	-45.1	-46.9	18.2	0.00e+00	0	35	101	1048576	60	10749
2026-01-07 20:34:05.18	62.68	4.90	-45.1	-46.9	18.2	0.00e+00	0	35	101	1048576	60	10820
2026-01-07 20:34:06.19	62.58	4.95	-45.2	-47.0	18.1	0.00e+00	0	35	101	1048576	60	10873
2026-01-07 20:34:07.21	62.47	5.01	-44.9	-46.7	18.5	0.00e+00	0	35	101	1048576	60	10510
2026-01-07 20:34:08.22	62.37	5.06	-45.2	-47.0	18.1	0.00e+00	0	35	101	1048576	60	10913
2026-01-07 20:34:09.23	62.27	5.12	-45.0	-46.8	18.4	0.00e+00	0	35	101	1048576	60	10676
2026-01-07 20:34:10.24	62.17	5.17	-45.0	-46.8	18.3	0.00e+00	0	35	101	1048576	60	10639
2026-01-07 20:34:11.25	62.06	5.22	-44.9	-46.7	18.5	0.00e+00	0	35	101	1048576	60	10486
2026-01-07 20:34:12.26	61.96	5.28	-44.9	-46.7	18.5	0.00e+00	0	35	101	1048576	60	10534
2026-01-07 20:34:13.27	61.85	5.33	-45.2	-47.0	18.2	0.00e+00	0	35	101	1048576	60	10861
2026-01-07 20:34:14.28	61.75	5.38	-45.0	-46.8	18.5	0.00e+00	0	35	101	1048576	60	10613
2026-01-07 20:34:15.29	61.64	5.44	-45.1	-46.9	18.5	0.00e+00	0	35	101	1048576	60	10759
2026-01-07 20:34:16.30	61.54	5.49	-45.0	-46.7	18.5	0.00e+00	0	35	101	1048576	60	10546
2026-01-07 20:34:17.31	61.43	5.54	-45.1	-46.9	18.3	0.00e+00	0	35	101	1048576	60	10776
2026-01-07 20:34:18.33	61.32	5.60	-45.1	-46.9	18.3	0.00e+00	0	35	101	1048576	60	10736
2026-01-07 20:34:19.34	61.22	5.65	-45.1	-46.9	18.4	0.00e+00	0	35	101	1048576	60	10740
2026-01-07 20:34:20.35	61.11	5.71	-45.0	-46.8	18.5	0.00e+00	0	35	101	1048576	60	10641
2026-01-07 20:34:21.36	61.00	5.76	-45.4	-47.3	17.9	0.00e+00	0	35	101	1048576	60	11246
2026-01-07 20:34:22.37	60.89	5.81	-45.2	-47.1	18.2	0.00e+00	0	35	101	1048576	60	10998
2026-01-07 20:34:23.38	60.78	5.87	-45.3	-47.1	18.1	0.00e+00	0	35	101	1048576	60	11106
2026-01-07 20:34:24.39	60.67	5.92	-44.9	-46.6	18.6	0.00e+00	0	35	101	1048576	60	10484
2026-01-07 20:34:25.41	60.56	5.98	-44.8	-46.4	18.9	0.00e+00	0	35	101	1048576	60	10189
2026-01-07 20:34:26.42	60.45	6.03	-44.9	-46.6	18.6	0.00e+00	0	35	101	1048576	60	10461
2026-01-07 20:34:27.43	60.34	6.08	-44.7	-46.4	18.8	0.00e+00	0	35	101	1048576	60	10190
2026-01-07 20:34:28.44	60.23	6.14	-44.8	-46.5	18.7	0.00e+00	0	35	101	1048576	60	10317
2026-01-07 20:34:29.45	60.12	6.19	-45.0	-46.8	18.6	0.00e+00	0	35	101	1048576	60	10610
2026-01-07 20:34:30.46	60.01	6.24	-44.9	-46.6	18.7	0.00e+00	0	35	101	1048576	60	10410
2026-01-07 20:34:31.47	59.90	6.30	-45.0	-46.7	18.7	0.00e+00	0	35	101	1048576	60	10564
2026-01-07 20:34:32.48	59.78	6.35	-45.1	-46.9	18.4	0.00e+00	0	35	101	1048576	60	10799
2026-01-07 20:34:33.49	59.67	6.41	-45.1	-46.9	18.5	0.00e+00	0	35	101	1048576	60	10759
2026-01-07 20:34:34.50	59.56	6.46	-45.3	-47.1	18.3	0.00e+00	0	35	101	1048576	60	11093
2026-01-07 20:34:35.52	59.44	6.51	-44.6	-46.3	19.1	0.00e+00	0	35	101	1048576	60	10030
2026-01-07 20:34:36.53	59.33	6.57	-44.6	-46.3	19.1	0.00e+00	0	35	101	1048576	60	10032
2026-01-07 20:34:37.54	59.21	6.62	-44.4	-46.0	19.3	0.00e+00	0	35	101	1048576	60	9728
2026-01-07 20:34:38.55	59.10	6.68	-44.2	-45.7	19.6	0.00e+00	0	35	101	1048576	60	9361
2026-01-07 20:34:39.56	58.98	6.73	-44.2	-45.7	19.6	0.00e+00	0	35	101	1048576	60	9421
2026-01-07 20:34:40.57	58.87	6.78	-44.2	-45.7	19.6	0.00e+00	0	35	101	1048576	60	9406
2026-01-07 20:34:41.58	58.75	6.84	-44.0	-45.4	19.8	0.00e+00	0	35	101	1048576	60	9073
2026-01-07 20:34:42.59	58.63	6.89	-44.0	-45.5	19.8	0.00e+00	0	35	101	1048576	60	9167
2026-01-07 20:34:43.60	58.52	6.94	-44.1	-45.5	19.7	0.00e+00	0	35	101	1048576	60	9186
2026-01-07 20:34:44.61	58.40	7.00	-43.9	-45.2	20.0	0.00e+00	0	35	101	1048576	60	8922
2026-01-07 20:34:45.62	58.28	7.05	-43.8	-45.1	20.2	0.00e+00	0	35	101	1048576	60	8814
2026-01-07 20:34:46.63	58.16	7.11	-43.7	-45.1	20.1	0.00e+00	0	35	101	1048576	60	8784
2026-01-07 20:34:47.64	58.04	7.16	-43.7	-45.1	20.0	0.00e+00	0	35	101	1048576	60	8780
2026-01-07 20:34:48.65	57.92	7.21	-43.6	-44.9	20.3	0.00e+00	0	35	101	1048576	60	8581
2026-01-07 20:34:49.67	57.80	7.27	-43.4	-44.7	20.5	0.00e+00	0	35	101	1048576	60	8392
2026-01-07 20:34:50.68	57.68	7.32	-43.5	-44.8	20.4	0.00e+00	0	35	101	1048576	60	8455
2026-01-07 20:34:51.69	57.56	7.38	-43.5	-44.9	20.5	0.00e+00	0	35	101	1048576	60	8526
2026-01-07 20:34:52.70	57.44	7.43	-43.6	-45.0	20.3	0.00e+00	0	35	101	1048576	60	8631
2026-01-07 20:34:53.71	57.32	7.48	-43.8	-45.1	20.1	0.00e+00	0	35	101	1048576	60	8808
2026-01-07 20:34:54.72	57.20	7.54	-43.8	-45.2	19.8	0.00e+00	0	35	101	1048576	60	8872
2026-01-07 20:34:55.73	57.07	7.59	-43.7	-45.1	19.8	0.00e+00	0	35	101	1048576	60	8766
2026-01-07 20:34:56.74	56.95	7.65	-43.5	-44.8	20.3	0.00e+00	0	35	101	1048576	60	8500
2026-01-07 20:34:57.75	56.83	7.70	-43.6	-44.9	20.4	0.00e+00	0	35	101	1048576	60	8564
2026-01-07 20:34:58.77	56.70	7.75	-43.5	-44.8	20.4	0.00e+00	0	35	101	1048576	60	8515
2026-01-07 20:34:59.78	56.58	7.81	-43.4	-44.7	20.6	0.00e+00	0	35	101	1048576	60	8414
2026-01-07 20:35:00.79	56.45	7.86	-43.6	-44.9	20.4	0.00e+00	0	35	101	1048576	60	8561
2026-01-07 20:35:01.80	56.33	7.91	-43.7	-45.0	20.2	0.00e+00	0	35	101	1048576	60	8695
2026-01-07 20:35:02.81	56.20	7.97	-43.8	-45.1	20.2	0.00e+00	0	35	101	1048576	60	8808
2026-01-07 20:35:03.82	56.07	8.02	-44.1	-45.5	20.2	0.00e+00	0	35	101	1048576	60	9186
2026-01-07 20:35:04.83	55.95	8.08	-43.8	-45.2	20.1	0.00e+00	0	35	101	1048576	60	8891
2026-01-07 20:35:05.84	55.82	8.13	-44.0	-45.4	20.0	0.00e+00	0	35	101	1048576	60	9100
2026-01-07 20:35:06.85	55.69	8.18	-43.9	-45.3	20.1	0.00e+00	0	35	101	1048576	60	8942
2026-01-07 20:35:07.86	55.56	8.24	-44.2	-45.6	19.8	0.00e+00	0	35	101	1048576	60	9286
2026-01-07 20:35:08.88	55.43	8.29	-43.9	-45.2	20.1	0.00e+00	0	35	101	1048576	60	8915
2026-01-07 20:35:09.89	55.30	8.34	-44.1	-45.5	20.0	0.00e+00	0	35	101	1048576	60	9215
2026-01-07 20:35:10.90	55.17	8.40	-44.1	-45.5	20.0	0.00e+00	0	35	101	1048576	60	9175
2026-01-07 20:35:11.91	55.04	8.45	-44.2	-45.6	19.9	0.00e+00	0	35	101	1048576	60	9267
2026-01-07 20:35:12.92	54.91	8.50	-44.3	-45.8	19.7	0.00e+00	0	35	101	1048576	60	9510
2026-01-07 20:35:13.93	54.78	8.56	-44.0	-45.4	20.0	0.00e+00	0	35	101	1048576	60	9034
2026-01-07 20:35:14.94	54.65	8.61	-43.9	-45.3	20.1	0.00e+00	0	35	101	1048576	60	8935
2026-01-07 20:35:15.95	54.52	8.66	-44.1	-45.6	20.0	0.00e+00	0	35	101	1048576	60	9238
2026-01-07 20:35:16.96	54.38	8.72	-44.0	-45.4	20.0	0.00e+00	0	35	101	1048576	60	9109
2026-01-07 20:35:17.97	54.25	8.77	-43.8	-45.1	20.3	0.00e+00	0	35	101	1048576	60	8771
2026-01-07 20:35:18.99	54.11	8.83	-43.7	-45.0	20.4	0.00e+00	0	35	101	1048576	60	8664
2026-01-07 20:35:20.00	53.98	8.88	-43.6	-44.9	20.3	0.00e+00	0	35	101	1048576	60	8535
2026-01-07 20:35:21.01	53.84	8.93	-43.6	-44.9	20.4	0.00e+00	0	35	101	1048576	60	8611
2026-01-07 20:35:22.02	53.71	8.98	-43.5	-44.8	20.6	0.00e+00	0	35	101	1048576	60	8484
2026-01-07 20:35:23.03	53.57	9.04	-43.7	-45.0	20.4	0.00e+00	0	35	101	1048576	60	8711
2026-01-07 20:35:24.04	53.44	9.09	-43.8	-45.1	20.4	0.00e+00	0	35	101	1048576	60	8770
2026-01-07 20:35:25.05	53.30	9.14	-43.7	-45.1	20.5	0.00e+00	0	35	101	1048576	60	8747
2026-01-07 20:35:26.06	53.16	9.20	-43.7	-45.0	20.4	0.00e+00	0	35	101	1048576	60	8681
2026-01-07 20:35:27.07	53.02	9.25	-43.7	-45.0	20.4	0.00e+00	0	35	101	1048576	60	8701
2026-01-07 20:35:28.08	52.89	9.30	-43.5	-44.8	20.5	0.00e+00	0	35	101	1048576	60	8461
2026-01-07 20:35:29.10	52.75	9.36	-43.6	-44.9	20.5	0.00e+00	0	35	101	1048576	60	8527
2026-01-07 20:35:30.11	52.61	9.41	-43.4	-44.7	20.6	0.00e+00	0	35	101	1048576	60	8367
2026-01-07 20:35:31.12	52.47	9.46	-43.6	-44.9	20.5	0.00e+00	0	35	101	1048576	60	8572
2026-01-07 20:35:32.13	52.33	9.51	-43.6	-44.9	20.5	0.00e+00	0	35	101	1048576	60	8621
2026-01-07 20:35:33.14	52.19	9.57	-43.9	-45.3	20.2	0.00e+00	0	35	101	1048576	60	8941
2026-01-07 20:35:34.15	52.04	9.62	-44.0	-45.5	20.0	0.00e+00	0	35	101	1048576	60	9141
2026-01-07 20:35:35.16	51.90	9.67	-44.2	-45.7	19.9	0.00e+00	0	35	101	1048576	60	9354
2026-01-07 20:35:36.17	51.76	9.72	-44.2	-45.6	19.9	0.00e+00	0	35	101	1048576	60	9308
2026-01-07 20:35:37.18	51.62	9.78	-44.1	-45.5	20.0	0.00e+00	0	35	101	1048576	60	9179
2026-01-07 20:35:38.19	51.47	9.83	-44.0	-45.4	20.0	0.00e+00	0	35	101	1048576	60	9084
2026-01-07 20:35:39.21	51.33	9.88	-44.0	-45.4	20.0	0.00e+00	0	35	101	1048576	60	9121
2026-01-07 20:35:40.22	51.18	9.93	-44.1	-45.5	20.0	0.00e+00	0	35	101	1048576	60	9174
2026-01-07 20:35:41.23	51.04	9.99	-44.1	-45.5	20.0	0.00e+00	0	35	101	1048576	60	9155
2026-01-07 20:35:42.24	50.89	10.04	-43.9	-45.3	20.3	0.00e+00	0	35	101	1048576	60	8926
2026-01-07 20:35:43.25	50.75	10.09	-44.0	-45.3	20.4	0.00e+00	0	35	101	1048576	60	9023
2026-01-07 20:35:44.26	50.60	10.14	-43.6	-44.9	20.6	0.00e+00	0	35	101	1048576	60	8615
2026-01-07 20:35:45.27	50.45	10.19	-43.5	-44.8	20.6	0.00e+00	0	35	101	1048576	60	8459
2026-01-07 20:35:46.28	50.30	10.25	-43.4	-44.7	20.6	0.00e+00	0	35	101	1048576	60	8382
2026-01-07 20:35:47.29	50.16	10.30	-43.6	-44.9	20.6	0.00e+00	0	35	101	1048576	60	8589
2026-01-07 20:35:48.30	50.01	10.35	-43.5	-44.8	20.8	0.00e+00	0	35	101	1048576	60	8476
2026-01-07 20:35:49.32	49.86	10.40	-43.3	-44.6	20.9	0.00e+00	0	35	101	1048576	60	8238
2026-01-07 20:35:50.33	49.71	10.45	-43.3	-44.5	21.0	0.00e+00	0	35	101	1048576	60	8180
2026-01-07 20:35:51.34	49.56	10.50	-43.0	-44.2	21.2	0.00e+00	0	35	101	1048576	60	7929
2026-01-07 20:35:52.35	49.40	10.55	-42.6	-43.7	21.6	0.00e+00	0	35	101	1048576	60	7475
2026-01-07 20:35:53.36	49.25	10.61	-42.7	-43.8	21.4	0.00e+00	0	35	101	1048576	60	7589
2026-01-07 20:35:54.37	49.10	10.66	-42.4	-43.5	21.8	0.00e+00	0	35	101	1048576	60	7268
2026-01-07 20:35:55.38	48.95	10.71	-42.6	-43.8	21.6	0.00e+00	0	35	101	1048576	60	7553
2026-01-07 20:35:56.39	48.79	10.76	-42.6	-43.8	21.5	0.00e+00	0	35	101	1048576	60	7514
2026-01-07 20:35:57.40	48.64	10.81	-42.6	-43.8	21.7	0.00e+00	0	35	101	1048576	60	7515
2026-01-07 20:35:58.41	48.49	10.86	-42.5	-43.6	21.7	0.00e+00	0	35	101	1048576	60	7392
2026-01-07 20:35:59.43	48.33	10.91	-42.2	-43.3	21.8	0.00e+00	0	35	101	1048576	60	7132
2026-01-07 20:36:00.44	48.17	10.96	-41.9	-43.0	22.0	0.00e+00	0	35	101	1048576	60	6857
2026-01-07 20:36:01.45	48.02	11.01	-41.8	-42.9	22.3	0.00e+00	0	35	101	1048576	60	6775
2026-01-07 20:36:02.46	47.86	11.06	-41.8	-42.8	22.4	0.00e+00	0	35	101	1048576	60	6722
2026-01-07 20:36:03.47	47.71	11.11	-41.8	-42.7	22.4	0.00e+00	0	35	101	1048576	60	6692
2026-01-07 20:36:04.48	47.55	11.16	-41.7	-42.7	22.5	0.00e+00	0	35	101	1048576	60	6662
2026-01-07 20:36:05.49	47.39	11.21	-41.9	-42.9	22.3	0.00e+00	0	35	101	1048576	60	6842
2026-01-07 20:36:06.50	47.23	11.26	-41.7	-42.7	22.5	0.00e+00	0	35	101	1048576	60	6627
2026-01-07 20:36:07.51	47.07	11.31	-41.6	-42.6	22.5	0.00e+00	0	35	101	1048576	60	6581
2026-01-07 20:36:08.52	46.91	11.36	-41.7	-42.7	22.5	0.00e+00	0	35	101	1048576	60	6626
2026-01-07 20:36:09.53	46.75	11.41	-41.9	-42.9	22.3	0.00e+00	0	35	101	1048576	60	6846
2026-01-07 20:36:10.54	46.59	11.46	-42.1	-43.2	22.0	0.00e+00	0	35	101	1048576	60	7050
2026-01-07 20:36:11.55	46.43	11.51	-42.3	-43.4	22.1	0.00e+00	0	35	101	1048576	60	7176
2026-01-07 20:36:12.56	46.27	11.56	-42.1	-43.1	22.1	0.00e+00	0	35	101	1048576	60	6989
2026-01-07 20:36:13.57	46.11	11.61	-42.1	-43.1	22.2	0.00e+00	0	35	101	1048576	60	6984
2026-01-07 20:36:14.59	45.94	11.66	-42.0	-43.1	22.1	0.00e+00	0	35	101	1048576	60	6976
2026-01-07 20:36:15.60	45.78	11.71	-41.7	-42.7	22.5	0.00e+00	0	35	101	1048576	60	6656
2026-01-07 20:36:16.61	45.61	11.76	-41.8	-42.9	22.3	0.00e+00	0	35	101	1048576	60	6776
2026-01-07 20:36:17.62	45.45	11.80	-41.8	-42.8	22.4	0.00e+00	0	35	101	1048576	60	6753
2026-01-07 20:36:18.63	45.28	11.85	-41.7	-42.7	22.5	0.00e+00	0	35	101	1048576	60	6686
2026-01-07 20:36:19.64	45.12	11.90	-41.8	-42.8	22.5	0.00e+00	0	35	101	1048576	60	6708
2026-01-07 20:36:20.65	44.95	11.95	-41.7	-42.7	22.5	0.00e+00	0	35	101	1048576	60	6639
2026-01-07 20:36:21.66	44.78	12.00	-41.5	-42.4	22.7	0.00e+00	0	35	101	1048576	60	6451
2026-01-07 20:36:22.67	44.62	12.04	-41.2	-42.1	22.9	0.00e+00	0	35	101	1048576	60	6241
2026-01-07 20:36:23.68	44.45	12.09	-41.2	-42.2	23.0	0.00e+00	0	35	101	1048576	60	6268
2026-01-07 20:36:24.69	44.28	12.14	-41.2	-42.2	23.0	0.00e+00	0	35	101	1048576	60	6272
2026-01-07 20:36:25.70	44.11	12.19	-41.4	-42.4	22.8	0.00e+00	0	35	101	1048576	60	6391
2026-01-07 20:36:26.72	43.94	12.23	-41.6	-42.6	22.8	0.00e+00	0	35	101	1048576	60	6560
2026-01-07 20:36:27.73	43.77	12.28	-41.6	-42.6	22.6	0.00e+00	0	35	101	1048576	60	6576
2026-01-07 20:36:28.74	43.60	12.33	-41.5	-42.5	22.6	0.00e+00	0	35	101	1048576	60	6509
2026-01-07 20:36:29.75	43.43	12.37	-41.5	-42.5	22.6	0.00e+00	0	35	101	1048576	60	6532
2026-01-07 20:36:30.76	43.26	12.42	-41.6	-42.6	22.5	0.00e+00	0	35	101	1048576	60	6572
2026-01-07 20:36:31.77	43.08	12.47	-41.6	-42.6	22.4	0.00e+00	0	35	101	1048576	60	6612
2026-01-07 20:36:32.78	42.91	12.51	-41.5	-42.6	22.6	0.00e+00	0	35	101	1048576	60	6540
2026-01-07 20:36:33.79	42.74	12.56	-41.4	-42.4	22.7	0.00e+00	0	35	101	1048576	60	6403
2026-01-07 20:36:34.80	42.56	12.61	-41.1	-42.1	22.9	0.00e+00	0	35	101	1048576	60	6223
2026-01-07 20:36:35.82	42.39	12.65	-40.9	-41.9	23.1	0.00e+00	0	35	101	1048576	60	6047
2026-01-07 20:36:36.82	42.21	12.70	-40.7	-41.7	23.4	0.00e+00	0	35	101	1048576	60	5904
2026-01-07 20:36:37.83	42.04	12.74	-40.5	-41.4	23.5	0.00e+00	0	35	101	1048576	60	5716
2026-01-07 20:36:38.84	41.86	12.79	-40.6	-41.5	23.4	0.00e+00	0	35	101	1048576	60	5806
2026-01-07 20:36:39.86	41.68	12.83	-40.3	-41.2	23.6	0.00e+00	0	35	101	1048576	60	5611
2026-01-07 20:36:40.87	41.51	12.88	-40.6	-41.5	23.4	0.00e+00	0	35	101	1048576	60	5792
2026-01-07 20:36:41.88	41.33	12.92	-40.6	-41.6	23.3	0.00e+00	0	35	101	1048576	60	5847
2026-01-07 20:36:42.89	41.15	12.97	-40.7	-41.7	23.3	0.00e+00	0	35	101	1048576	60	5917
2026-01-07 20:36:43.90	40.97	13.01	-40.8	-41.8	23.2	0.00e+00	0	35	101	1048576	60	5977
2026-01-07 20:36:44.91	40.79	13.05	-40.9	-41.9	23.2	0.00e+00	0	35	101	1048576	60	6060
2026-01-07 20:36:45.92	40.61	13.10	-41.2	-42.2	22.9	0.00e+00	0	35	101	1048576	60	6253
2026-01-07 20:36:46.93	40.43	13.14	-41.4	-42.4	22.7	0.00e+00	0	35	101	1048576	60	6406
2026-01-07 20:36:47.94	40.25	13.19	-41.6	-42.7	22.6	0.00e+00	0	35	101	1048576	60	6652
2026-01-07 20:36:48.95	40.07	13.23	-41.6	-42.6	22.2	0.00e+00	0	35	101	1048576	60	6614
2026-01-07 20:36:49.96	39.88	13.27	-41.7	-42.7	22.2	0.00e+00	0	35	101	1048576	60	6690
2026-01-07 20:36:50.97	39.70	13.31	-41.8	-42.8	22.3	0.00e+00	0	35	101	1048576	60	6748
2026-01-07 20:36:51.98	39.52	13.36	-41.7	-42.7	22.5	0.00e+00	0	35	101	1048576	60	6665
2026-01-07 20:36:52.99	39.33	13.40	-41.7	-42.8	22.5	0.00e+00	0	35	101	1048576	60	6728
2026-01-07 20:36:54.00	39.15	13.44	-41.6	-42.6	22.6	0.00e+00	0	35	101	1048576	60	6557
2026-01-07 20:36:55.02	38.96	13.48	-41.6	-42.6	22.7	0.00e+00	0	35	101	1048576	60	6576
2026-01-07 20:36:56.03	38.78	13.52	-41.7	-42.7	22.6	0.00e+00	0	35	101	1048576	60	6690
2026-01-07 20:36:57.04	38.59	13.57	-41.6	-42.6	22.6	0.00e+00	0	35	101	1048576	60	6589
2026-01-07 20:36:58.05	38.41	13.61	-41.7	-42.8	22.4	0.00e+00	0	35	101	1048576	60	6724
2026-01-07 20:36:59.06	38.22	13.65	-41.9	-43.0	22.3	0.00e+00	0	35	101	1048576	60	6901
2026-01-07 20:37:00.07	38.03	13.69	-42.1	-43.2	22.1	0.00e+00	0	35	101	1048576	60	7040
2026-01-07 20:37:01.08	37.84	13.73	-41.8	-42.9	22.4	0.00e+00	0	35	101	1048576	60	6809
2026-01-07 20:37:02.09	37.65	13.77	-41.8	-42.9	22.5	0.00e+00	0	35	101	1048576	60	6790
2026-01-07 20:37:03.10	37.47	13.81	-41.4	-42.5	22.6	0.00e+00	0	35	101	1048576	60	6483
2026-01-07 20:37:04.11	37.28	13.85	-41.2	-42.2	22.8	0.00e+00	0	35	101	1048576	60	6275
2026-01-07 20:37:05.13	37.08	13.89	-41.2	-42.1	23.0	0.00e+00	0	35	101	1048576	60	6241
2026-01-07 20:37:06.14	36.89	13.93	-41.2	-42.2	22.9	0.00e+00	0	35	101	1048576	60	6299
2026-01-07 20:37:07.15	36.70	13.97	-41.0	-42.0	23.0	0.00e+00	0	35	101	1048576	60	6120
2026-01-07 20:37:08.16	36.51	14.01	-41.0	-41.9	23.1	0.00e+00	0	35	101	1048576	60	6082
2026-01-07 20:37:09.17	36.32	14.04	-41.0	-41.9	23.2	0.00e+00	0	35	101	1048576	60	6075
2026-01-07 20:37:10.18	36.13	14.08	-40.8	-41.8	23.3	0.00e+00	0	35	101	1048576	60	5992
2026-01-07 20:37:11.19	35.93	14.12	-41.0	-42.0	23.0	0.00e+00	0	35	101	1048576	60	6123
2026-01-07 20:37:12.20	35.74	14.16	-41.4	-42.4	22.8	0.00e+00	0	35	101	1048576	60	6409
2026-01-07 20:37:13.22	35.54	14.20	-41.2	-42.1	23.0	0.00e+00	0	35	101	1048576	60	6239
2026-01-07 20:37:14.23	35.35	14.23	-41.3	-42.3	22.8	0.00e+00	0	35	101	1048576	60	6382
2026-01-07 20:37:15.24	35.15	14.27	-41.2	-42.2	23.0	0.00e+00	0	35	101	1048576	60	6251
2026-01-07 20:37:16.25	34.96	14.31	-41.0	-42.0	23.0	0.00e+00	0	35	101	1048576	60	6147
2026-01-07 20:37:17.26	34.76	14.34	-41.2	-42.2	22.8	0.00e+00	0	35	101	1048576	60	6246
2026-01-07 20:37:18.27	34.57	14.38	-41.2	-42.2	22.8	0.00e+00	0	35	101	1048576	60	6300
2026-01-07 20:37:19.28	34.37	14.41	-41.4	-42.4	22.8	0.00e+00	0	35	101	1048576	60	6444
2026-01-07 20:37:20.29	34.17	14.45	-41.4	-42.4	22.7	0.00e+00	0	35	101	1048576	60	6456
2026-01-07 20:37:21.30	33.97	14.49	-41.3	-42.3	22.8	0.00e+00	0	35	101	1048576	60	6380
2026-01-07 20:37:22.31	33.77	14.52	-41.1	-42.1	22.9	0.00e+00	0	35	101	1048576	60	6224
2026-01-07 20:37:23.33	33.57	14.56	-41.5	-42.6	22.6	0.00e+00	0	35	101	1048576	60	6562
2026-01-07 20:37:24.34	33.37	14.59	-41.5	-42.6	22.7	0.00e+00	0	35	101	1048576	60	6541
2026-01-07 20:37:25.35	33.17	14.62	-41.4	-42.5	22.7	0.00e+00	0	35	101	1048576	60	6469
2026-01-07 20:37:26.36	32.97	14.66	-41.3	-42.3	22.9	0.00e+00	0	35	101	1048576	60	6328
2026-01-07 20:37:27.37	32.77	14.69	-41.2	-42.2	23.0	0.00e+00	0	35	101	1048576	60	6275
2026-01-07 20:37:28.38	32.57	14.72	-40.7	-41.6	23.4	0.00e+00	0	35	101	1048576	60	5851
2026-01-07 20:37:29.39	32.37	14.76	-40.2	-41.1	23.8	0.00e+00	0	35	101	1048576	60	5545
2026-01-07 20:37:30.40	32.17	14.79	-40.4	-41.2	23.6	0.00e+00	0	35	101	1048576	60	5623
2026-01-07 20:37:31.41	31.97	14.82	-40.3	-41.2	23.5	0.00e+00	0	35	101	1048576	60	5589
2026-01-07 20:37:32.43	31.76	14.85	-40.3	-41.1	23.7	0.00e+00	0	35	101	1048576	60	5562
2026-01-07 20:37:33.43	31.56	14.88	-40.4	-41.3	23.7	0.00e+00	0	35	101	1048576	60	5683
2026-01-07 20:37:34.45	31.35	14.92	-40.4	-41.3	23.7	0.00e+00	0	35	101	1048576	60	5635
2026-01-07 20:37:35.46	31.15	14.95	-40.4	-41.3	23.8	0.00e+00	0	35	101	1048576	60	5651
2026-01-07 20:37:36.47	30.94	14.98	-40.6	-41.5	23.5	0.00e+00	0	35	101	1048576	60	5817
2026-01-07 20:37:37.48	30.74	15.01	-40.8	-41.8	23.3	0.00e+00	0	35	101	1048576	60	5992
2026-01-07 20:37:38.49	30.53	15.04	-40.6	-41.5	23.4	0.00e+00	0	35	101	1048576	60	5821
2026-01-07 20:37:39.50	30.33	15.07	-40.8	-41.7	23.3	0.00e+00	0	35	101	1048576	60	5963
2026-01-07 20:37:40.51	30.12	15.10	-41.0	-41.9	23.2	0.00e+00	0	35	101	1048576	60	6082
2026-01-07 20:37:41.52	29.91	15.12	-40.7	-41.6	23.4	0.00e+00	0	35	101	1048576	60	5881
2026-01-07 20:37:42.53	29.71	15.15	-40.6	-41.6	23.4	0.00e+00	0	35	101	1048576	60	5833
2026-01-07 20:37:43.54	29.50	15.18	-40.7	-41.6	23.2	0.00e+00	0	35	101	1048576	60	5883
2026-01-07 20:37:44.55	29.29	15.21	-41.0	-41.9	23.1	0.00e+00	0	35	101	1048576	60	6092
2026-01-07 20:37:45.56	29.08	15.24	-41.4	-42.4	22.8	0.00e+00	0	35	101	1048576	60	6427
2026-01-07 20:37:46.58	28.87	15.26	-41.9	-43.0	22.4	0.00e+00	0	35	101	1048576	60	6867
2026-01-07 20:37:47.59	28.66	15.29	-41.9	-42.9	22.4	0.00e+00	0	35	101	1048576	60	6818
2026-01-07 20:37:48.60	28.45	15.32	-41.8	-42.8	22.6	0.00e+00	0	35	101	1048576	60	6737
2026-01-07 20:37:49.61	28.24	15.34	-41.6	-42.6	22.6	0.00e+00	0	35	101	1048576	60	6613
2026-01-07 20:37:50.62	28.03	15.37	-41.5	-42.6	22.6	0.00e+00	0	35	101	1048576	60	6543
2026-01-07 20:37:51.63	27.82	15.39	-41.6	-42.7	22.4	0.00e+00	0	35	101	1048576	60	6640
2026-01-07 20:37:52.64	27.61	15.42	-41.8	-42.9	22.6	0.00e+00	0	35	101	1048576	60	6783
2026-01-07 20:37:53.65	27.40	15.44	-41.7	-42.8	22.5	0.00e+00	0	35	101	1048576	60	6694
2026-01-07 20:37:54.66	27.19	15.47	-41.7	-42.7	22.5	0.00e+00	0	35	101	1048576	60	6648
2026-01-07 20:37:55.67	26.98	15.49	-41.6	-42.6	22.1	0.00e+00	0	35	101	1048576	60	6588
2026-01-07 20:37:56.68	26.76	15.51	-41.6	-42.6	22.6	0.00e+00	0	35	101	1048576	60	6579
2026-01-07 20:37:57.69	26.55	15.54	-41.3	-42.3	22.9	0.00e+00	0	35	101	1048576	60	6369
2026-01-07 20:37:58.71	26.34	15.56	-41.2	-42.2	22.9	0.00e+00	0	35	101	1048576	60	6298
2026-01-07 20:37:59.72	26.12	15.58	-41.3	-42.3	22.9	0.00e+00	0	35	101	1048576	60	6346
2026-01-07 20:38:00.73	25.91	15.60	-41.1	-42.1	23.0	0.00e+00	0	35	101	1048576	60	6208
2026-01-07 20:38:01.74	25.70	15.63	-41.2	-42.2	22.9	0.00e+00	0	35	101	1048576	60	6274
2026-01-07 20:38:02.75	25.48	15.65	-41.2	-42.2	23.0	0.00e+00	0	35	101	1048576	60	6259
2026-01-07 20:38:03.76	25.27	15.67	-40.9	-41.8	23.2	0.00e+00	0	35	101	1048576	60	6018
2026-01-07 20:38:04.77	25.05	15.69	-40.8	-41.7	23.4	0.00e+00	0	35	101	1048576	60	5956
2026-01-07 20:38:05.78	24.84	15.71	-40.7	-41.6	23.4	0.00e+00	0	35	101	1048576	60	5839
2026-01-07 20:38:06.79	24.62	15.73	-40.7	-41.6	23.5	0.00e+00	0	35	101	1048576	60	5840
2026-01-07 20:38:07.80	24.41	15.75	-40.6	-41.5	23.5	0.00e+00	0	35	101	1048576	60	5765
2026-01-07 20:38:08.82	24.19	15.76	-40.6	-41.5	23.5	0.00e+00	0	35	101	1048576	60	5784
2026-01-07 20:38:09.83	23.97	15.78	-40.7	-41.6	23.4	0.00e+00	0	35	101	1048576	60	5864
2026-01-07 20:38:10.84	23.75	15.80	-40.7	-41.6	23.4	0.00e+00	0	35	101	1048576	60	5853
2026-01-07 20:38:11.85	23.54	15.82	-41.0	-42.0	23.2	0.00e+00	0	35	101	1048576	60	6112
2026-01-07 20:38:12.86	23.32	15.84	-41.1	-42.0	22.9	0.00e+00	0	35	101	1048576	60	6171
2026-01-07 20:38:13.87	23.10	15.85	-41.3	-42.3	23.0	0.00e+00	0	35	101	1048576	60	6319
2026-01-07 20:38:14.88	22.89	15.87	-41.3	-42.3	22.8	0.00e+00	0	35	101	1048576	60	6352
2026-01-07 20:38:15.89	22.67	15.88	-41.7	-42.7	22.6	0.00e+00	0	35	101	1048576	60	6661
2026-01-07 20:38:16.90	22.45	15.90	-41.5	-42.6	22.7	0.00e+00	0	35	101	1048576	60	6548
2026-01-07 20:38:17.91	22.23	15.92	-41.6	-42.7	22.6	0.00e+00	0	35	101	1048576	60	6634
2026-01-07 20:38:18.92	22.01	15.93	-41.7	-42.7	22.3	0.00e+00	0	35	101	1048576	60	6675
2026-01-07 20:38:19.93	21.79	15.94	-41.6	-42.7	22.5	0.00e+00	0	35	101	1048576	60	6636
2026-01-07 20:38:20.94	21.58	15.96	-41.9	-43.0	22.5	0.00e+00	0	35	101	1048576	60	6895
2026-01-07 20:38:21.95	21.36	15.97	-42.1	-43.2	22.2	0.00e+00	0	35	101	1048576	60	7027
2026-01-07 20:38:22.96	21.14	15.98	-42.2	-43.3	22.1	0.00e+00	0	35	101	1048576	60	7131
2026-01-07 20:38:23.98	20.92	16.00	-42.2	-43.4	22.0	0.00e+00	0	35	101	1048576	60	7190
2026-01-07 20:38:24.99	20.70	16.01	-42.2	-43.3	22.0	0.00e+00	0	35	101	1048576	60	7161
2026-01-07 20:38:26.00	20.48	16.02	-41.9	-43.0	22.4	0.00e+00	0	35	101	1048576	60	6906
2026-01-07 20:38:27.01	20.26	16.03	-41.9	-43.0	22.3	0.00e+00	0	35	101	1048576	60	6887
2026-01-07 20:38:28.02	20.04	16.04	-41.8	-42.9	22.5	0.00e+00	0	35	101	1048576	60	6776
2026-01-07 20:38:29.03	19.82	16.05	-41.6	-42.6	22.7	0.00e+00	0	35	101	1048576	60	6607
2026-01-07 20:38:30.04	19.60	16.06	-41.5	-42.5	22.8	0.00e+00	0	35	101	1048576	60	6513
2026-01-07 20:38:31.05	19.38	16.07	-41.5	-42.6	22.7	0.00e+00	0	35	101	1048576	60	6540
2026-01-07 20:38:32.06	19.15	16.08	-41.6	-42.6	22.5	0.00e+00	0	35	101	1048576	60	6585
2026-01-07 20:38:33.07	18.93	16.09	-41.3	-42.3	23.0	0.00e+00	0	35	101	1048576	60	6332
2026-01-07 20:38:34.08	18.71	16.10	-41.3	-42.3	22.8	0.00e+00	0	35	101	1048576	60	6328
2026-01-07 20:38:35.09	18.49	16.11	-41.2	-42.2	23.0	0.00e+00	0	35	101	1048576	60	6269
2026-01-07 20:38:36.11	18.27	16.12	-41.4	-42.4	22.8	0.00e+00	0	35	101	1048576	60	6407
2026-01-07 20:38:37.11	18.05	16.12	-41.4	-42.5	22.8	0.00e+00	0	35	101	1048576	60	6478
2026-01-07 20:38:38.13	17.83	16.13	-41.3	-42.3	22.9	0.00e+00	0	35	101	1048576	60	6351
2026-01-07 20:38:39.14	17.60	16.14	-41.3	-42.2	22.9	0.00e+00	0	35	101	1048576	60	6315
2026-01-07 20:38:40.15	17.38	16.14	-41.1	-42.1	23.0	0.00e+00	0	35	101	1048576	60	6199
2026-01-07 20:38:41.16	17.16	16.15	-41.3	-42.3	22.9	0.00e+00	0	35	101	1048576	60	6363
2026-01-07 20:38:42.17	16.94	16.15	-41.1	-42.1	23.1	0.00e+00	0	35	101	1048576	60	6175
2026-01-07 20:38:43.18	16.72	16.16	-41.4	-42.4	22.9	0.00e+00	0	35	101	1048576	60	6404
2026-01-07 20:38:44.19	16.50	16.16	-41.6	-42.6	22.6	0.00e+00	0	35	101	1048576	60	6579
2026-01-07 20:38:45.21	16.27	16.16	-41.6	-42.7	22.5	0.00e+00	0	35	101	1048576	60	6626
2026-01-07 20:38:46.22	16.05	16.17	-41.7	-42.7	22.5	0.00e+00	0	35	101	1048576	60	6660
2026-01-07 20:38:47.23	15.83	16.17	-41.9	-42.9	22.4	0.00e+00	0	35	101	1048576	60	6829
2026-01-07 20:38:48.24	15.60	16.17	-41.7	-42.8	22.6	0.00e+00	0	35	101	1048576	60	6715
2026-01-07 20:38:49.25	15.38	16.17	-41.7	-42.7	22.7	0.00e+00	0	35	101	1048576	60	6639
2026-01-07 20:38:50.26	15.16	16.18	-41.5	-42.5	22.7	0.00e+00	0	35	101	1048576	60	6501
2026-01-07 20:38:51.27	14.94	16.18	-41.3	-42.2	22.9	0.00e+00	0	35	101	1048576	60	6314
2026-01-07 20:38:52.28	14.72	16.18	-41.0	-41.9	23.2	0.00e+00	0	35	101	1048576	60	6103
2026-01-07 20:38:53.29	14.49	16.18	-40.8	-41.7	23.3	0.00e+00	0	35	101	1048576	60	5960
2026-01-07 20:38:54.31	14.27	16.18	-40.8	-41.7	23.3	0.00e+00	0	35	101	1048576	60	5948
2026-01-07 20:38:55.31	14.05	16.18	-40.7	-41.6	23.4	0.00e+00	0	35	101	1048576	60	5876
2026-01-07 20:38:56.33	13.83	16.17	-41.1	-42.0	23.1	0.00e+00	0	35	101	1048576	60	6163
2026-01-07 20:38:57.34	13.60	16.17	-41.1	-42.1	23.1	0.00e+00	0	35	101	1048576	60	6187
2026-01-07 20:38:58.35	13.38	16.17	-41.3	-42.3	22.9	0.00e+00	0	36	101	1048576	60	6325
2026-01-07 20:38:59.36	13.16	16.17	-41.4	-42.4	22.8	0.00e+00	0	36	101	1048576	60	6407
2026-01-07 20:39:00.37	12.94	16.17	-41.4	-42.4	22.8	0.00e+00	0	36	101	1048576	60	6443
2026-01-07 20:39:01.38	12.72	16.16	-41.4	-42.4	22.7	0.00e+00	0	35	101	1048576	60	6455
2026-01-07 20:39:02.39	12.49	16.16	-41.6	-42.6	22.6	0.00e+00	0	35	101	1048576	60	6575
2026-01-07 20:39:03.40	12.27	16.15	-41.7	-42.8	22.4	0.00e+00	0	35	101	1048576	60	6702
2026-01-07 20:39:04.41	12.05	16.15	-41.9	-43.0	22.2	0.00e+00	0	35	101	1048576	60	6893
2026-01-07 20:39:05.43	11.83	16.14	-42.2	-43.3	21.5	0.00e+00	0	35	101	1048576	60	7098
2026-01-07 20:39:06.44	11.60	16.14	-42.2	-43.3	22.1	0.00e+00	0	35	101	1048576	60	7122
2026-01-07 20:39:07.45	11.38	16.13	-42.4	-43.6	21.8	0.00e+00	0	35	101	1048576	60	7359
2026-01-07 20:39:08.46	11.16	16.13	-42.3	-43.5	21.9	0.00e+00	0	35	101	1048576	60	7254
2026-01-07 20:39:09.47	10.94	16.12	-42.3	-43.4	22.0	0.00e+00	0	35	101	1048576	60	7210
2026-01-07 20:39:10.48	10.72	16.11	-42.1	-43.2	22.2	0.00e+00	0	35	101	1048576	60	7032
2026-01-07 20:39:11.49	10.50	16.10	-41.7	-42.8	22.4	0.00e+00	0	35	101	1048576	60	6708
2026-01-07 20:39:12.50	10.28	16.10	-41.5	-42.5	22.7	0.00e+00	0	35	101	1048576	60	6529
2026-01-07 20:39:13.51	10.06	16.09	-41.4	-42.4	22.7	0.00e+00	0	35	101	1048576	60	6461
2026-01-07 20:39:14.52	9.84	16.08	-41.3	-42.3	22.9	0.00e+00	0	35	101	1048576	60	6387
2026-01-07 20:39:15.53	9.61	16.07	-41.4	-42.4	22.8	0.00e+00	0	35	101	1048576	60	6400
2026-01-07 20:39:16.54	9.39	16.06	-41.3	-42.3	22.8	0.00e+00	0	35	101	1048576	60	6369
2026-01-07 20:39:17.56	9.17	16.05	-41.3	-42.3	22.9	0.00e+00	0	35	101	1048576	60	6322
2026-01-07 20:39:18.57	8.95	16.04	-41.4	-42.4	22.8	0.00e+00	0	35	101	1048576	60	6418
2026-01-07 20:39:19.58	8.73	16.03	-41.4	-42.4	22.9	0.00e+00	0	35	101	1048576	60	6444
2026-01-07 20:39:20.59	8.51	16.01	-41.5	-42.5	22.7	0.00e+00	0	35	101	1048576	60	6497
2026-01-07 20:39:21.60	8.29	16.00	-41.7	-42.7	22.5	0.00e+00	0	35	101	1048576	60	6663
2026-01-07 20:39:22.61	8.07	15.99	-41.6	-42.7	22.6	0.00e+00	0	35	101	1048576	60	6619
2026-01-07 20:39:23.62	7.85	15.98	-41.5	-42.5	22.7	0.00e+00	0	35	101	1048576	60	6498
2026-01-07 20:39:24.63	7.63	15.96	-41.3	-42.3	22.9	0.00e+00	0	35	101	1048576	60	6368
2026-01-07 20:39:25.64	7.42	15.95	-41.0	-41.9	23.2	0.00e+00	0	35	101	1048576	60	6103
2026-01-07 20:39:26.65	7.20	15.94	-40.7	-41.7	23.4	0.00e+00	0	35	101	1048576	60	5909
2026-01-07 20:39:27.66	6.98	15.92	-40.9	-41.8	23.3	0.00e+00	0	35	101	1048576	60	5997
2026-01-07 20:39:28.67	6.76	15.91	-40.6	-41.5	23.3	0.00e+00	0	35	101	1048576	60	5815
2026-01-07 20:39:29.68	6.54	15.89	-40.6	-41.5	23.4	0.00e+00	0	35	101	1048576	60	5807
2026-01-07 20:39:30.69	6.32	15.88	-40.8	-41.8	23.4	0.00e+00	0	35	101	1048576	60	5981
2026-01-07 20:39:31.71	6.11	15.86	-40.8	-41.8	23.1	0.00e+00	0	35	101	1048576	60	5976
2026-01-07 20:39:32.72	5.89	15.84	-40.9	-41.9	23.3	0.00e+00	0	35	101	1048576	60	6070
2026-01-07 20:39:33.73	5.67	15.83	-40.9	-41.8	23.2	0.00e+00	0	35	101	1048576	60	6030
2026-01-07 20:39:34.74	5.45	15.81	-41.0	-42.0	23.1	0.00e+00	0	35	101	1048576	60	6128
2026-01-07 20:39:35.75	5.24	15.79	-40.9	-41.9	23.2	0.00e+00	0	35	101	1048576	60	6083
2026-01-07 20:39:36.76	5.02	15.77	-41.1	-42.1	23.1	0.00e+00	0	35	101	1048576	60	6175
2026-01-07 20:39:37.77	4.81	15.75	-41.1	-42.0	23.0	0.00e+00	0	35	101	1048576	60	6170
2026-01-07 20:39:38.78	4.59	15.73	-41.2	-42.2	23.1	0.00e+00	0	35	101	1048576	60	6260
2026-01-07 20:39:39.79	4.37	15.72	-41.2	-42.2	23.1	0.00e+00	0	35	101	1048576	60	6259
2026-01-07 20:39:40.80	4.16	15.70	-41.2	-42.2	22.8	0.00e+00	0	35	101	1048576	60	6278
2026-01-07 20:39:41.82	3.94	15.68	-41.4	-42.5	22.8	0.00e+00	0	35	101	1048576	60	6487
2026-01-07 20:39:42.83	3.73	15.65	-41.5	-42.5	22.7	0.00e+00	0	35	101	1048576	60	6501
2026-01-07 20:39:43.84	3.51	15.63	-41.8	-42.9	22.4	0.00e+00	0	35	101	1048576	60	6775
2026-01-07 20:39:44.85	3.30	15.61	-41.7	-42.7	22.6	0.00e+00	0	35	101	1048576	60	6691
2026-01-07 20:39:45.86	3.09	15.59	-41.7	-42.7	22.5	0.00e+00	0	35	101	1048576	60	6680
2026-01-07 20:39:46.87	2.87	15.57	-41.3	-42.4	22.9	0.00e+00	0	35	101	1048576	60	6391
2026-01-07 20:39:47.88	2.66	15.55	-41.3	-42.3	23.0	0.00e+00	0	35	101	1048576	60	6329
2026-01-07 20:39:48.89	2.45	15.52	-40.9	-41.9	23.2	0.00e+00	0	35	101	1048576	60	6049
2026-01-07 20:39:49.90	2.23	15.50	-40.9	-41.8	23.4	0.00e+00	0	35	101	1048576	60	6031
2026-01-07 20:39:50.91	2.02	15.48	-40.5	-41.4	23.5	0.00e+00	0	35	101	1048576	60	5759
2026-01-07 20:39:51.92	1.81	15.45	-40.5	-41.4	23.5	0.00e+00	0	35	101	1048576	60	5738
2026-01-07 20:39:52.93	1.60	15.43	-40.6	-41.5	23.6	0.00e+00	0	35	101	1048576	60	5783
2026-01-07 20:39:53.94	1.39	15.40	-40.7	-41.6	23.4	0.00e+00	0	35	101	1048576	60	5882
2026-01-07 20:39:54.95	1.18	15.38	-40.6	-41.5	23.4	0.00e+00	0	35	101	1048576	60	5824
2026-01-07 20:39:55.97	0.97	15.35	-40.4	-41.3	23.6	0.00e+00	0	35	101	1048576	60	5642
2026-01-07 20:39:56.98	0.76	15.33	-40.5	-41.3	23.7	0.00e+00	0	35	101	1048576	60	5689
2026-01-07 20:39:57.99	0.55	15.30	-40.6	-41.5	23.4	0.00e+00	0	35	101	1048576	60	5814
2026-01-07 20:39:59.00	0.34	15.27	-40.9	-41.9	23.3	0.00e+00	0	35	101	1048576	60	6051
2026-01-07 20:40:00.01	0.13	15.25	-40.9	-41.8	23.2	0.00e+00	0	35	101	1048576	60	6025
2026-01-07 20:40:01.02	359.92	15.22	-41.1	-42.1	23.1	0.00e+00	0	35	101	1048576	60	6190
2026-01-07 20:40:02.03	359.71	15.19	-41.8	-42.8	22.9	0.00e+00	0	35	101	1048576	60	6711
2026-01-07 20:40:03.04	359.51	15.16	-41.5	-42.4	22.9	0.00e+00	0	35	101	1048576	60	6459
2026-01-07 20:40:04.05	359.30	15.14	-41.7	-42.7	22.6	0.00e+00	0	35	101	1048576	60	6664
2026-01-07 20:40:05.06	359.09	15.11	-41.8	-42.8	22.6	0.00e+00	0	35	101	1048576	60	6745
2026-01-07 20:40:06.08	358.88	15.08	-41.6	-42.7	22.5	0.00e+00	0	35	101	1048576	60	6633
2026-01-07 20:40:07.09	358.68	15.05	-41.8	-42.8	22.5	0.00e+00	0	35	101	1048576	60	6727
2026-01-07 20:40:08.09	358.47	15.02	-42.0	-43.1	22.4	0.00e+00	0	35	101	1048576	60	6962
2026-01-07 20:40:09.10	358.27	14.99	-42.3	-43.4	22.2	0.00e+00	0	35	101	1048576	60	7186
2026-01-07 20:40:10.12	358.06	14.96	-42.6	-43.8	21.8	0.00e+00	0	35	101	1048576	60	7520
2026-01-07 20:40:11.13	357.86	14.93	-42.6	-43.7	21.8	0.00e+00	0	35	101	1048576	60	7483
2026-01-07 20:40:12.14	357.65	14.90	-42.4	-43.5	21.9	0.00e+00	0	35	101	1048576	60	7317
2026-01-07 20:40:13.15	357.45	14.87	-42.2	-43.3	22.2	0.00e+00	0	35	101	1048576	60	7109
2026-01-07 20:40:14.16	357.25	14.83	-42.2	-43.2	22.1	0.00e+00	0	35	101	1048576	60	7080
2026-01-07 20:40:15.17	357.04	14.80	-41.9	-42.9	22.4	0.00e+00	0	35	101	1048576	60	6830
2026-01-07 20:40:16.18	356.84	14.77	-42.0	-43.0	22.3	0.00e+00	0	35	101	1048576	60	6924
2026-01-07 20:40:17.19	356.64	14.74	-41.7	-42.7	22.6	0.00e+00	0	35	101	1048576	60	6668
2026-01-07 20:40:18.20	356.44	14.70	-41.9	-43.0	22.4	0.00e+00	0	35	101	1048576	60	6906
2026-01-07 20:40:19.21	356.24	14.67	-41.7	-42.7	22.6	0.00e+00	0	35	101	1048576	60	6661
2026-01-07 20:40:20.22	356.04	14.64	-41.7	-42.7	22.6	0.00e+00	0	35	101	1048576	60	6678
2026-01-07 20:40:21.24	355.84	14.60	-41.5	-42.5	22.6	0.00e+00	0	35	101	1048576	60	6539
2026-01-07 20:40:22.25	355.64	14.57	-41.5	-42.5	22.8	0.00e+00	0	35	101	1048576	60	6507
2026-01-07 20:40:23.26	355.44	14.54	-41.5	-42.5	22.6	0.00e+00	0	35	101	1048576	60	6506
2026-01-07 20:40:24.27	355.24	14.50	-41.4	-42.4	22.8	0.00e+00	0	35	101	1048576	60	6436
2026-01-07 20:40:25.28	355.04	14.47	-41.5	-42.5	22.8	0.00e+00	0	35	101	1048576	60	6480
2026-01-07 20:40:26.29	354.85	14.43	-41.2	-42.2	22.9	0.00e+00	0	35	101	1048576	60	6251
2026-01-07 20:40:27.30	354.65	14.39	-41.1	-42.1	23.1	0.00e+00	0	35	101	1048576	60	6186
2026-01-07 20:40:28.31	354.45	14.36	-40.7	-41.6	23.4	0.00e+00	0	35	101	1048576	60	5867
2026-01-07 20:40:29.32	354.26	14.32	-40.8	-41.7	23.3	0.00e+00	0	35	101	1048576	60	5946
2026-01-07 20:40:30.33	354.06	14.29	-40.5	-41.4	23.5	0.00e+00	0	35	101	1048576	60	5757
2026-01-07 20:40:31.35	353.86	14.25	-40.6	-41.5	23.1	0.00e+00	0	35	101	1048576	60	5800
2026-01-07 20:40:32.36	353.67	14.21	-40.7	-41.6	23.3	0.00e+00	0	35	101	1048576	60	5895
2026-01-07 20:40:33.37	353.47	14.17	-40.8	-41.8	23.2	0.00e+00	0	35	101	1048576	60	5967
2026-01-07 20:40:34.38	353.28	14.14	-40.7	-41.6	23.4	0.00e+00	0	36	101	1048576	60	5875
2026-01-07 20:40:35.39	353.09	14.10	-41.0	-41.9	23.1	0.00e+00	0	35	101	1048576	60	6087
2026-01-07 20:40:36.40	352.90	14.06	-41.1	-42.1	23.1	0.00e+00	0	35	101	1048576	60	6222
2026-01-07 20:40:37.41	352.70	14.02	-41.5	-42.5	22.7	0.00e+00	0	35	101	1048576	60	6507
2026-01-07 20:40:38.42	352.51	13.98	-41.6	-42.6	22.5	0.00e+00	0	35	101	1048576	60	6606
2026-01-07 20:40:39.43	352.32	13.95	-41.9	-43.0	22.3	0.00e+00	0	35	101	1048576	60	6865
2026-01-07 20:40:40.45	352.13	13.91	-42.4	-43.5	21.9	0.00e+00	0	35	101	1048576	60	7321
2026-01-07 20:40:41.46	351.94	13.87	-42.8	-44.0	21.5	0.00e+00	0	35	101	1048576	60	7750
2026-01-07 20:40:42.47	351.75	13.83	-43.0	-44.2	21.2	0.00e+00	0	35	101	1048576	60	7938
2026-01-07 20:40:43.48	351.56	13.79	-42.9	-44.1	21.4	0.00e+00	0	35	101	1048576	60	7857
2026-01-07 20:40:44.49	351.37	13.75	-42.3	-43.5	21.9	0.00e+00	0	35	101	1048576	60	7272
2026-01-07 20:40:45.50	351.18	13.71	-42.0	-43.1	21.9	0.00e+00	0	35	101	1048576	60	6949
2026-01-07 20:40:46.51	351.00	13.67	-42.0	-43.1	22.1	0.00e+00	0	35	101	1048576	60	6999
2026-01-07 20:40:47.52	350.81	13.63	-42.0	-43.1	22.1	0.00e+00	0	35	101	1048576	60	6980
2026-01-07 20:40:48.53	350.62	13.58	-41.9	-43.0	22.1	0.00e+00	0	35	101	1048576	60	6901
2026-01-07 20:40:49.54	350.44	13.54	-42.0	-43.1	21.9	0.00e+00	0	35	101	1048576	60	6959
2026-01-07 20:40:50.55	350.25	13.50	-42.1	-43.2	22.2	0.00e+00	0	35	101	1048576	60	7054
2026-01-07 20:40:51.57	350.06	13.46	-42.2	-43.3	22.0	0.00e+00	0	35	101	1048576	60	7135
2026-01-07 20:40:52.58	349.88	13.42	-42.1	-43.2	22.1	0.00e+00	0	35	101	1048576	60	7072
2026-01-07 20:40:53.59	349.70	13.38	-42.4	-43.5	21.9	0.00e+00	0	35	101	1048576	60	7310
2026-01-07 20:40:54.60	349.51	13.33	-42.4	-43.6	21.8	0.00e+00	0	35	101	1048576	60	7356
2026-01-07 20:40:55.61	349.33	13.29	-42.4	-43.5	21.9	0.00e+00	0	35	101	1048576	60	7314
2026-01-07 20:40:56.62	349.15	13.25	-42.4	-43.5	21.9	0.00e+00	0	35	101	1048576	60	7293
2026-01-07 20:40:57.63	348.97	13.20	-42.4	-43.5	21.9	0.00e+00	0	35	101	1048576	60	7316
2026-01-07 20:40:58.64	348.79	13.16	-42.2	-43.3	22.0	0.00e+00	0	35	101	1048576	60	7167
2026-01-07 20:40:59.65	348.61	13.12	-42.1	-43.1	22.1	0.00e+00	0	35	101	1048576	60	6991
2026-01-07 20:41:00.66	348.43	13.07	-42.2	-43.3	22.1	0.00e+00	0	35	101	1048576	60	7137
2026-01-07 20:41:01.67	348.25	13.03	-42.1	-43.2	22.1	0.00e+00	0	35	101	1048576	60	7051
2026-01-07 20:41:02.68	348.07	12.99	-42.1	-43.2	22.1	0.00e+00	0	35	101	1048576	60	7043
2026-01-07 20:41:03.70	347.89	12.94	-41.9	-42.9	22.4	0.00e+00	0	35	101	1048576	60	6841
2026-01-07 20:41:04.71	347.71	12.90	-41.6	-42.5	22.8	0.00e+00	0	35	101	1048576	60	6535
2026-01-07 20:41:05.72	347.53	12.85	-41.3	-42.3	22.9	0.00e+00	0	35	101	1048576	60	6329
2026-01-07 20:41:06.73	347.36	12.81	-41.2	-42.2	23.0	0.00e+00	0	35	101	1048576	60	6264
2026-01-07 20:41:07.74	347.18	12.76	-41.1	-42.0	23.0	0.00e+00	0	35	101	1048576	60	6163
2026-01-07 20:41:08.75	347.00	12.72	-41.2	-42.1	23.0	0.00e+00	0	35	101	1048576	60	6230
2026-01-07 20:41:09.76	346.83	12.67	-41.2	-42.2	22.9	0.00e+00	0	35	101	1048576	60	6273
2026-01-07 20:41:10.77	346.65	12.63	-41.5	-42.5	22.7	0.00e+00	0	35	101	1048576	60	6479
2026-01-07 20:41:11.78	346.48	12.58	-41.7	-42.8	22.5	0.00e+00	0	35	101	1048576	60	6708
2026-01-07 20:41:12.79	346.31	12.54	-42.1	-43.2	22.1	0.00e+00	0	35	101	1048576	60	7034
2026-01-07 20:41:13.80	346.13	12.49	-42.2	-43.2	22.0	0.00e+00	0	35	101	1048576	60	7081
2026-01-07 20:41:14.82	345.96	12.44	-42.2	-43.3	22.0	0.00e+00	0	35	101	1048576	60	7132
2026-01-07 20:41:15.83	345.79	12.40	-42.3	-43.4	21.9	0.00e+00	0	35	101	1048576	60	7218
2026-01-07 20:41:16.84	345.62	12.35	-42.3	-43.5	22.0	0.00e+00	0	35	101	1048576	60	7255
2026-01-07 20:41:17.85	345.45	12.30	-42.3	-43.4	21.9	0.00e+00	0	35	101	1048576	60	7184
2026-01-07 20:41:18.86	345.28	12.26	-42.2	-43.3	22.0	0.00e+00	0	35	101	1048576	60	7119
2026-01-07 20:41:19.87	345.11	12.21	-42.3	-43.4	21.9	0.00e+00	0	35	101	1048576	60	7174
2026-01-07 20:41:20.88	344.94	12.16	-42.1	-43.2	22.0	0.00e+00	0	35	101	1048576	60	7055
2026-01-07 20:41:21.89	344.77	12.11	-42.3	-43.4	21.9	0.00e+00	0	35	101	1048576	60	7210
2026-01-07 20:41:22.90	344.60	12.07	-42.5	-43.7	21.7	0.00e+00	0	35	101	1048576	60	7457
2026-01-07 20:41:23.91	344.43	12.02	-42.8	-44.0	21.4	0.00e+00	0	35	101	1048576	60	7752
2026-01-07 20:41:24.93	344.27	11.97	-43.4	-44.7	20.9	0.00e+00	0	35	101	1048576	60	8386
2026-01-07 20:41:25.94	344.10	11.92	-44.0	-45.5	20.1	0.00e+00	0	35	101	1048576	60	9139
2026-01-07 20:41:26.95	343.93	11.88	-44.9	-46.5	19.1	0.00e+00	0	35	101	1048576	60	10351
2026-01-07 20:41:27.96	343.77	11.83	-45.2	-47.0	18.7	0.00e+00	0	35	101	1048576	60	10877
2026-01-07 20:41:28.97	343.60	11.78	-45.7	-47.7	17.9	0.00e+00	0	35	101	1048576	60	11862
2026-01-07 20:41:29.98	343.44	11.73	-45.6	-47.6	18.1	0.00e+00	0	35	101	1048576	60	11737
2026-01-07 20:41:30.99	343.28	11.68	-45.4	-47.3	18.4	0.00e+00	0	35	101	1048576	60	11346
2026-01-07 20:41:32.00	343.11	11.63	-45.3	-47.2	18.5	0.00e+00	0	35	101	1048576	60	11115
2026-01-07 20:41:33.01	342.95	11.58	-45.3	-47.1	18.7	0.00e+00	0	35	101	1048576	60	11092
2026-01-07 20:41:34.02	342.79	11.53	-44.7	-46.3	19.3	0.00e+00	0	35	101	1048576	60	10061
2026-01-07 20:41:35.04	342.63	11.49	-44.5	-46.0	19.5	0.00e+00	0	35	101	1048576	60	9752
2026-01-07 20:41:36.05	342.47	11.44	-44.5	-46.0	19.5	0.00e+00	0	35	101	1048576	60	9747
2026-01-07 20:41:37.06	342.31	11.39	-44.3	-45.8	19.7	0.00e+00	0	35	101	1048576	60	9485
2026-01-07 20:41:38.07	342.15	11.34	-44.4	-45.9	19.5	0.00e+00	0	35	101	1048576	60	9635
2026-01-07 20:41:39.08	341.99	11.29	-44.2	-45.7	19.8	0.00e+00	0	35	101	1048576	60	9384
2026-01-07 20:41:40.09	341.83	11.24	-43.9	-45.3	20.3	0.00e+00	0	35	101	1048576	60	8928
2026-01-07 20:41:41.10	341.67	11.19	-43.5	-44.8	20.7	0.00e+00	0	35	101	1048576	60	8512
2026-01-07 20:41:42.11	341.51	11.14	-43.3	-44.6	20.8	0.00e+00	0	35	101	1048576	60	8289
2026-01-07 20:41:43.12	341.36	11.09	-43.3	-44.5	20.9	0.00e+00	0	35	101	1048576	60	8222
2026-01-07 20:41:44.14	341.20	11.04	-43.1	-44.3	21.0	0.00e+00	0	36	101	1048576	60	8045
2026-01-07 20:41:45.15	341.04	10.99	-43.1	-44.3	21.1	0.00e+00	0	35	101	1048576	60	7998
2026-01-07 20:41:46.16	340.89	10.94	-43.1	-44.3	21.1	0.00e+00	0	35	101	1048576	60	7968
2026-01-07 20:41:47.17	340.73	10.89	-43.2	-44.5	21.1	0.00e+00	0	35	101	1048576	60	8154
2026-01-07 20:41:48.18	340.58	10.84	-43.3	-44.6	20.8	0.00e+00	0	35	101	1048576	60	8290
2026-01-07 20:41:49.19	340.43	10.78	-43.3	-44.6	20.7	0.00e+00	0	35	101	1048576	60	8302
2026-01-07 20:41:50.20	340.27	10.73	-43.3	-44.5	20.8	0.00e+00	0	35	101	1048576	60	8223
2026-01-07 20:41:51.21	340.12	10.68	-43.2	-44.5	20.9	0.00e+00	0	35	101	1048576	60	8145
2026-01-07 20:41:52.23	339.97	10.63	-43.1	-44.4	21.0	0.00e+00	0	35	101	1048576	60	8070
2026-01-07 20:41:53.24	339.81	10.58	-42.9	-44.1	21.2	0.00e+00	0	35	101	1048576	60	7840
2026-01-07 20:41:54.25	339.66	10.53	-42.8	-44.0	21.2	0.00e+00	0	35	101	1048576	60	7762
2026-01-07 20:41:55.26	339.51	10.48	-42.8	-44.0	21.3	0.00e+00	0	35	101	1048576	60	7764
2026-01-07 20:41:56.27	339.36	10.43	-42.7	-43.9	21.4	0.00e+00	0	35	101	1048576	60	7601
2026-01-07 20:41:57.28	339.21	10.38	-42.5	-43.7	21.6	0.00e+00	0	35	101	1048576	60	7459
2026-01-07 20:41:58.29	339.07	10.32	-42.5	-43.7	21.5	0.00e+00	0	35	101	1048576	60	7486
2026-01-07 20:41:59.30	338.92	10.27	-42.7	-43.9	21.4	0.00e+00	0	35	101	1048576	60	7601
2026-01-07 20:42:00.31	338.77	10.22	-42.7	-43.9	21.4	0.00e+00	0	35	101	1048576	60	7603
2026-01-07 20:42:01.33	338.62	10.17	-42.7	-43.9	21.5	0.00e+00	0	35	101	1048576	60	7643
2026-01-07 20:42:02.34	338.47	10.12	-42.7	-43.9	21.4	0.00e+00	0	35	101	1048576	60	7659
2026-01-07 20:42:03.35	338.33	10.06	-42.7	-43.9	21.3	0.00e+00	0	35	101	1048576	60	7669
2026-01-07 20:42:04.36	338.18	10.01	-42.9	-44.1	21.2	0.00e+00	0	35	101	1048576	60	7830
2026-01-07 20:42:05.37	338.04	9.96	-43.1	-44.3	21.0	0.00e+00	0	35	101	1048576	60	8026
2026-01-07 20:42:06.38	337.89	9.91	-43.0	-44.2	21.1	0.00e+00	0	36	101	1048576	60	7904
2026-01-07 20:42:07.39	337.75	9.86	-43.2	-44.5	20.8	0.00e+00	0	35	101	1048576	60	8181
2026-01-07 20:42:08.40	337.61	9.80	-43.1	-44.3	21.0	0.00e+00	0	35	101	1048576	60	8036
2026-01-07 20:42:09.41	337.46	9.75	-43.2	-44.4	20.9	0.00e+00	0	36	101	1048576	60	8123
2026-01-07 20:42:10.43	337.32	9.70	-43.1	-44.4	20.9	0.00e+00	0	35	101	1048576	60	8118
2026-01-07 20:42:11.44	337.18	9.65	-43.0	-44.2	20.9	0.00e+00	0	35	101	1048576	60	7948
2026-01-07 20:42:12.45	337.04	9.59	-42.8	-44.0	21.2	0.00e+00	0	35	101	1048576	60	7750
2026-01-07 20:42:13.46	336.90	9.54	-42.7	-43.9	21.3	0.00e+00	0	36	101	1048576	60	7675
2026-01-07 20:42:14.47	336.75	9.49	-42.8	-44.0	21.3	0.00e+00	0	35	101	1048576	60	7717
2026-01-07 20:42:15.48	336.62	9.44	-42.7	-43.9	21.3	0.00e+00	0	36	101	1048576	60	7635
2026-01-07 20:42:16.49	336.48	9.38	-42.7	-43.9	21.3	0.00e+00	0	36	101	1048576	60	7652
2026-01-07 20:42:17.50	336.34	9.33	-42.7	-43.9	21.3	0.00e+00	0	36	101	1048576	60	7625
2026-01-07 20:42:18.52	336.20	9.28	-42.5	-43.7	21.5	0.00e+00	0	36	101	1048576	60	7455
2026-01-07 20:42:19.53	336.06	9.23	-42.5	-43.7	21.4	0.00e+00	0	35	101	1048576	60	7460
2026-01-07 20:42:20.54	335.92	9.17	-42.4	-43.6	21.5	0.00e+00	0	35	101	1048576	60	7391
2026-01-07 20:42:21.55	335.79	9.12	-41.9	-43.0	22.1	0.00e+00	0	36	101	1048576	60	6877
2026-01-07 20:42:22.56	335.65	9.07	-41.8	-42.9	22.2	0.00e+00	0	35	101	1048576	60	6796
2026-01-07 20:42:23.57	335.51	9.01	-41.5	-42.6	22.4	0.00e+00	0	35	101	1048576	60	6569
2026-01-07 20:42:24.58	335.38	8.96	-41.3	-42.3	22.6	0.00e+00	0	35	101	1048576	60	6345
2026-01-07 20:42:25.59	335.24	8.91	-41.3	-42.3	22.6	7.00e-07	0	35	101	1048576	60	6376
2026-01-07 20:42:26.60	335.11	8.85	-41.3	-42.3	22.7	0.00e+00	0	36	101	1048576	60	6367
2026-01-07 20:42:27.61	334.98	8.80	-41.4	-42.4	22.6	0.00e+00	0	35	101	1048576	60	6412
2026-01-07 20:42:28.62	334.84	8.75	-41.4	-42.4	22.6	0.00e+00	0	35	101	1048576	60	6407
2026-01-07 20:42:29.63	334.71	8.69	-41.5	-42.5	22.4	0.00e+00	0	36	101	1048576	60	6528
2026-01-07 20:42:30.65	334.58	8.64	-41.5	-42.5	22.4	0.00e+00	0	36	101	1048576	60	6513
2026-01-07 20:42:31.66	334.44	8.59	-41.7	-42.8	22.2	0.00e+00	0	35	101	1048576	60	6712
2026-01-07 20:42:32.67	334.31	8.53	-41.8	-42.9	22.1	0.00e+00	0	35	101	1048576	60	6801
2026-01-07 20:42:33.68	334.18	8.48	-41.6	-42.7	22.2	0.00e+00	0	35	101	1048576	60	6662
2026-01-07 20:42:34.69	334.05	8.43	-41.6	-42.6	22.3	0.00e+00	0	36	101	1048576	60	6591
2026-01-07 20:42:35.70	333.92	8.37	-41.6	-42.6	22.2	0.00e+00	0	36	101	1048576	60	6607
2026-01-07 20:42:36.71	333.79	8.32	-41.6	-42.6	22.3	0.00e+00	0	35	101	1048576	60	6577
2026-01-07 20:42:37.72	333.66	8.27	-41.6	-42.7	22.3	0.00e+00	0	35	101	1048576	60	6632
2026-01-07 20:42:38.73	333.54	8.21	-41.3	-42.3	22.5	0.00e+00	0	35	101	1048576	60	6379
2026-01-07 20:42:39.75	333.41	8.16	-41.3	-42.3	22.6	0.00e+00	0	35	101	1048576	60	6363
2026-01-07 20:42:40.76	333.28	8.11	-41.3	-42.3	22.5	0.00e+00	0	35	101	1048576	60	6368
2026-01-07 20:42:41.77	333.15	8.05	-41.5	-42.5	22.4	0.00e+00	0	35	101	1048576	60	6519
2026-01-07 20:42:42.78	333.03	8.00	-41.6	-42.7	22.2	0.00e+00	0	35	101	1048576	60	6651
2026-01-07 20:42:43.79	332.90	7.95	-41.7	-42.8	22.3	0.00e+00	0	35	101	1048576	60	6726
2026-01-07 20:42:44.80	332.78	7.89	-41.7	-42.7	22.1	0.00e+00	0	35	101	1048576	60	6668
2026-01-07 20:42:45.81	332.65	7.84	-41.9	-43.0	22.0	0.00e+00	0	35	101	1048576	60	6918
2026-01-07 20:42:46.82	332.53	7.78	-42.0	-43.1	22.0	0.00e+00	0	35	101	1048576	60	6963
2026-01-07 20:42:47.83	332.40	7.73	-42.1	-43.3	21.8	0.00e+00	0	35	101	1048576	60	7093
2026-01-07 20:42:48.84	332.28	7.68	-42.0	-43.2	21.8	0.00e+00	0	35	101	1048576	60	7021
2026-01-07 20:42:49.85	332.16	7.62	-42.1	-43.2	21.8	0.00e+00	0	36	101	1048576	60	7078
2026-01-07 20:42:50.87	332.03	7.57	-42.3	-43.5	21.7	0.00e+00	0	35	101	1048576	60	7272
2026-01-07 20:42:51.88	331.91	7.52	-42.3	-43.5	21.7	0.00e+00	0	35	101	1048576	60	7254
2026-01-07 20:42:52.89	331.79	7.46	-42.4	-43.5	21.7	0.00e+00	0	36	101	1048576	60	7315
2026-01-07 20:42:53.90	331.67	7.41	-42.4	-43.6	21.5	0.00e+00	0	36	101	1048576	60	7342
2026-01-07 20:42:54.91	331.55	7.35	-42.4	-43.6	21.5	0.00e+00	0	36	101	1048576	60	7352
2026-01-07 20:42:55.92	331.43	7.30	-42.3	-43.5	21.6	0.00e+00	0	36	101	1048576	60	7288
2026-01-07 20:42:56.93	331.31	7.25	-42.5	-43.6	21.4	0.00e+00	0	35	101	1048576	60	7413
2026-01-07 20:42:57.94	331.19	7.19	-42.6	-43.8	21.4	0.00e+00	0	35	101	1048576	60	7530
2026-01-07 20:42:58.95	331.07	7.14	-42.4	-43.6	21.2	0.00e+00	0	35	101	1048576	60	7393
2026-01-07 20:42:59.96	330.95	7.09	-42.4	-43.5	21.2	0.00e+00	0	35	101	1048576	60	7328
2026-01-07 20:43:00.98	330.83	7.03	-42.3	-43.4	21.5	0.00e+00	0	36	101	1048576	60	7208
2026-01-07 20:43:01.99	330.71	6.98	-42.2	-43.3	21.7	0.00e+00	0	36	101	1048576	60	7128
2026-01-07 20:43:03.00	330.60	6.92	-42.1	-43.2	21.7	0.00e+00	0	36	101	1048576	60	7084
2026-01-07 20:43:04.01	330.48	6.87	-42.0	-43.1	21.8	0.00e+00	0	35	101	1048576	60	6973
2026-01-07 20:43:05.02	330.36	6.82	-41.9	-43.0	22.0	0.00e+00	0	35	101	1048576	60	6860
2026-01-07 20:43:06.03	330.25	6.76	-41.8	-42.9	21.7	0.00e+00	0	36	101	1048576	60	6810
2026-01-07 20:43:07.04	330.13	6.71	-41.8	-42.9	21.5	0.00e+00	0	35	101	1048576	60	6825
2026-01-07 20:43:08.05	330.02	6.65	-41.7	-42.7	22.0	0.00e+00	0	35	101	1048576	60	6664
2026-01-07 20:43:09.06	329.90	6.60	-41.7	-42.8	22.1	0.00e+00	0	35	101	1048576	60	6725
2026-01-07 20:43:10.08	329.79	6.55	-41.6	-42.6	22.2	0.00e+00	0	36	101	1048576	60	6587
2026-01-07 20:43:11.09	329.67	6.49	-41.6	-42.6	22.2	0.00e+00	0	35	101	1048576	60	6599
2026-01-07 20:43:12.10	329.56	6.44	-41.6	-42.7	22.2	0.00e+00	0	35	101	1048576	60	6630
2026-01-07 20:43:13.11	329.45	6.38	-41.8	-42.9	22.0	0.00e+00	0	35	101	1048576	60	6785
2026-01-07 20:43:14.12	329.33	6.33	-42.1	-43.3	21.6	0.00e+00	0	36	101	1048576	60	7094
2026-01-07 20:43:15.13	329.22	6.28	-42.2	-43.4	21.6	0.00e+00	0	35	101	1048576	60	7171
2026-01-07 20:43:16.14	329.11	6.22	-42.4	-43.6	21.5	0.00e+00	0	36	101	1048576	60	7365
2026-01-07 20:43:17.15	329.00	6.17	-42.5	-43.7	21.4	0.00e+00	0	35	101	1048576	60	7490
2026-01-07 20:43:18.16	328.89	6.12	-42.8	-44.0	20.9	0.00e+00	0	35	101	1048576	60	7751
2026-01-07 20:43:19.17	328.78	6.06	-43.1	-44.4	20.8	0.00e+00	0	36	101	1048576	60	8061
2026-01-07 20:43:20.18	328.67	6.01	-43.0	-44.2	20.8	0.00e+00	0	36	101	1048576	60	7920
2026-01-07 20:43:21.20	328.56	5.95	-43.0	-44.3	20.8	0.00e+00	0	36	101	1048576	60	7983
2026-01-07 20:43:22.21	328.45	5.90	-43.0	-44.2	20.8	0.00e+00	0	36	101	1048576	60	7946
2026-01-07 20:43:23.22	328.34	5.85	-43.0	-44.3	20.9	0.00e+00	0	36	101	1048576	60	7963
2026-01-07 20:43:24.23	328.23	5.79	-42.8	-44.1	20.9	0.00e+00	0	36	101	1048576	60	7803
2026-01-07 20:43:25.24	328.13	5.74	-42.8	-44.1	21.0	0.00e+00	0	35	101	1048576	60	7799
2026-01-07 20:43:26.25	328.02	5.69	-42.6	-43.8	21.2	0.00e+00	0	35	101	1048576	60	7550
2026-01-07 20:43:27.26	327.91	5.63	-42.7	-43.9	21.1	0.00e+00	0	36	101	1048576	60	7670
2026-01-07 20:43:28.27	327.81	5.58	-42.3	-43.5	21.4	0.00e+00	0	36	101	1048576	60	7305
2026-01-07 20:43:29.28	327.70	5.53	-42.4	-43.5	21.4	0.00e+00	0	36	101	1048576	60	7322
2026-01-07 20:43:30.29	327.59	5.47	-42.1	-43.3	21.6	0.00e+00	0	35	101	1048576	60	7107
2026-01-07 20:43:31.30	327.49	5.42	-42.2	-43.3	21.6	0.00e+00	0	35	101	1048576	60	7156
2026-01-07 20:43:32.32	327.38	5.36	-42.3	-43.4	21.5	0.00e+00	0	35	101	1048576	60	7236
2026-01-07 20:43:33.33	327.28	5.31	-42.3	-43.4	21.5	0.00e+00	0	36	101	1048576	60	7222
2026-01-07 20:43:34.34	327.17	5.26	-42.3	-43.5	21.4	0.00e+00	0	36	101	1048576	60	7299
2026-01-07 20:43:35.35	327.07	5.20	-42.5	-43.7	21.2	0.00e+00	0	36	101	1048576	60	7452
2026-01-07 20:43:36.36	326.97	5.15	-42.4	-43.6	21.3	0.00e+00	0	35	101	1048576	60	7355
2026-01-07 20:43:37.37	326.86	5.10	-42.6	-43.8	21.1	0.00e+00	0	36	101	1048576	60	7521
2026-01-07 20:43:38.38	326.76	5.04	-42.6	-43.8	21.1	0.00e+00	0	35	101	1048576	60	7542
2026-01-07 20:43:39.39	326.66	4.99	-42.8	-44.1	20.9	0.00e+00	0	35	101	1048576	60	7807
2026-01-07 20:43:40.41	326.56	4.94	-43.1	-44.4	20.6	0.00e+00	0	35	101	1048576	60	8072
2026-01-07 20:43:41.42	326.45	4.88	-43.3	-44.6	20.4	0.00e+00	0	35	101	1048576	60	8303
2026-01-07 20:43:42.43	326.35	4.83	-43.4	-44.7	20.3	0.00e+00	0	35	101	1048576	60	8379
2026-01-07 20:43:43.44	326.25	4.78	-43.6	-44.9	20.1	0.00e+00	0	35	101	1048576	60	8621
2026-01-07 20:43:44.45	326.15	4.72	-43.8	-45.3	19.9	0.00e+00	0	36	101	1048576	60	8953
2026-01-07 20:43:45.46	326.05	4.67	-43.9	-45.3	19.7	0.00e+00	0	36	101	1048576	60	8994
2026-01-07 20:43:46.47	325.95	4.62	-44.0	-45.5	19.5	0.00e+00	0	35	101	1048576	60	9194
2026-01-07 20:43:47.48	325.85	4.56	-44.0	-45.6	19.5	0.00e+00	0	35	101	1048576	60	9250
2026-01-07 20:43:48.49	325.76	4.51	-44.0	-45.6	19.4	0.00e+00	0	36	101	1048576	60	9249
2026-01-07 20:43:49.50	325.66	4.46	-44.2	-45.8	19.3	0.00e+00	0	35	101	1048576	60	9523
2026-01-07 20:43:50.52	325.56	4.40	-44.1	-45.6	19.4	0.00e+00	0	35	101	1048576	60	9324
2026-01-07 20:43:51.53	325.46	4.35	-44.0	-45.5	19.4	0.00e+00	0	36	101	1048576	60	9172
2026-01-07 20:43:52.54	325.36	4.30	-44.0	-45.6	19.5	0.00e+00	0	36	101	1048576	60	9244
2026-01-07 20:43:53.55	325.27	4.24	-44.2	-45.7	19.3	0.00e+00	0	35	101	1048576	60	9395
2026-01-07 20:43:54.56	325.17	4.19	-44.2	-45.7	19.3	0.00e+00	0	35	101	1048576	60	9420
2026-01-07 20:43:55.57	325.07	4.14	-43.9	-45.4	19.6	0.00e+00	0	36	101	1048576	60	9088
2026-01-07 20:43:56.58	324.98	4.08	-43.9	-45.4	19.6	0.00e+00	0	35	101	1048576	60	9040
2026-01-07 20:43:57.59	324.88	4.03	-43.7	-45.2	19.7	0.00e+00	0	35	101	1048576	60	8876
2026-01-07 20:43:58.60	324.79	3.98	-44.0	-45.5	19.4	0.00e+00	0	36	101	1048576	60	9181
2026-01-07 20:43:59.61	324.69	3.93	-43.9	-45.4	19.3	0.00e+00	0	36	101	1048576	60	9060
2026-01-07 20:44:00.63	324.60	3.87	-44.3	-45.9	19.1	0.00e+00	0	35	101	1048576	60	9609
2026-01-07 20:44:01.63	324.50	3.82	-44.4	-46.1	18.8	0.00e+00	0	35	101	1048576	60	9838
2026-01-07 20:44:02.65	324.41	3.77	-44.5	-46.1	18.8	0.00e+00	0	36	101	1048576	60	9861
2026-01-07 20:44:03.66	324.32	3.71	-44.8	-46.6	18.3	0.00e+00	0	36	101	1048576	60	10397
2026-01-07 20:44:04.67	324.22	3.66	-44.9	-46.7	18.3	0.00e+00	0	36	101	1048576	60	10549
2026-01-07 20:44:05.68	324.13	3.61	-45.1	-46.9	18.1	0.00e+00	0	36	101	1048576	60	10835
2026-01-07 20:44:06.69	324.04	3.56	-45.2	-47.2	17.7	0.00e+00	0	35	101	1048576	60	11129
2026-01-07 20:44:07.70	323.95	3.50	-45.2	-47.1	17.7	0.00e+00	0	36	101	1048576	60	11089
2026-01-07 20:44:08.71	323.86	3.45	-45.3	-47.3	17.6	0.00e+00	0	35	101	1048576	60	11336
2026-01-07 20:44:09.72	323.76	3.40	-45.2	-47.2	17.7	0.00e+00	0	36	101	1048576	60	11153
2026-01-07 20:44:10.73	323.67	3.35	-45.2	-47.2	17.7	0.00e+00	0	35	101	1048576	60	11183
2026-01-07 20:44:11.74	323.58	3.29	-44.8	-46.6	18.3	0.00e+00	0	35	101	1048576	60	10389
2026-01-07 20:44:12.75	323.49	3.24	-44.8	-46.7	18.3	0.00e+00	0	35	101	1048576	60	10490
2026-01-07 20:44:13.76	323.40	3.19	-44.7	-46.5	18.4	0.00e+00	0	35	101	1048576	60	10305
2026-01-07 20:44:14.77	323.31	3.14	-44.7	-46.4	18.4	0.00e+00	0	35	101	1048576	60	10231
