passes_logs/2026/01/07/R4.6S_Anadyr_2ch/R4.6S_Anadyr_2ch__20260107_141456_NOAA_20_JPSS-1_rec.log

#Pass ID: 20260107_141456_NOAA 20 (JPSS-1)
#Satellite: NOAA 20 (JPSS-1)
#Configuration: NOAA 20
#almurnet v.1.7.20251203
#Start time: 2026-01-07 14:14:57

#Version: 2.2.20231116
#Station: R4.6S_Anadyr_2ch
#Location: 177.4865 lon 64.73178 lat
#TLE: 1 43013U 17073A   25350.93759711  .00000080  00000+0  58734-4 0  9994
#TLE: 2 43013  98.7603 287.1885 0002156  81.1496 278.9924 14.19526878418610

#Time	Az	El	Level	Level2	SNR	BER	BlckErr	Temp	State	Recorded	gain1	gain2
2026-01-07 14:14:57.82	19.68	0.09	-51.9	-67.0	3.5	1.51e+00	0	32	0	0	60	108841
2026-01-07 14:14:58.82	19.70	0.15	-51.9	-67.3	3.6	1.51e+00	0	33	104	0	60	113575
2026-01-07 14:14:59.84	19.72	0.21	-51.9	-67.3	3.6	1.51e+00	0	33	104	0	60	113255
2026-01-07 14:15:00.85	19.74	0.27	-51.9	-67.3	3.6	1.51e+00	0	33	104	0	60	113471
2026-01-07 14:15:01.86	19.76	0.33	-52.0	-67.3	3.6	1.51e+00	0	33	104	0	60	113398
2026-01-07 14:15:02.87	19.77	0.39	-52.0	-67.4	3.6	1.51e+00	0	33	104	0	60	114039
2026-01-07 14:15:03.88	19.79	0.45	-52.0	-67.3	3.6	1.51e+00	0	34	104	0	60	113104
2026-01-07 14:15:04.89	19.81	0.52	-51.9	-67.3	3.6	1.51e+00	0	34	104	0	60	112741
2026-01-07 14:15:05.91	19.83	0.58	-51.9	-67.3	3.6	1.51e+00	0	34	104	0	60	112552
2026-01-07 14:15:06.92	19.85	0.64	-51.8	-67.1	3.6	1.51e+00	0	34	104	0	60	110935
2026-01-07 14:15:07.93	19.87	0.70	-51.7	-67.0	3.6	1.51e+00	0	34	104	0	60	109741
2026-01-07 14:15:08.94	19.89	0.76	-51.5	-66.8	3.6	1.51e+00	0	34	104	0	60	107211
2026-01-07 14:15:09.95	19.91	0.82	-51.3	-66.7	3.6	1.51e+00	0	34	104	0	60	105347
2026-01-07 14:15:10.96	19.93	0.88	-51.1	-66.4	3.6	1.51e+00	0	34	104	0	60	102261
2026-01-07 14:15:11.97	19.95	0.94	-50.8	-66.2	3.6	1.51e+00	0	34	104	0	60	99090
2026-01-07 14:15:12.98	19.97	1.00	-50.5	-65.8	3.6	1.51e+00	0	34	104	0	60	94982
2026-01-07 14:15:13.99	19.98	1.07	-50.5	-65.8	3.6	1.51e+00	0	34	104	0	60	94996
2026-01-07 14:15:15.00	20.00	1.13	-50.5	-65.8	3.6	1.51e+00	0	34	104	0	60	94771
2026-01-07 14:15:16.02	20.02	1.19	-50.5	-65.7	3.6	1.51e+00	0	34	104	0	60	94099
2026-01-07 14:15:17.03	20.04	1.25	-50.5	-65.7	3.6	1.51e+00	0	34	104	0	60	94422
2026-01-07 14:15:18.04	20.06	1.31	-50.5	-65.7	3.6	1.51e+00	0	34	104	0	60	94371
2026-01-07 14:15:19.05	20.08	1.38	-50.5	-65.7	3.6	1.51e+00	0	34	104	0	60	94041
2026-01-07 14:15:20.06	20.10	1.44	-50.5	-65.7	3.6	1.51e+00	0	34	104	0	60	94249
2026-01-07 14:15:21.07	20.12	1.50	-50.5	-65.8	3.6	1.51e+00	0	34	104	0	60	94934
2026-01-07 14:15:22.08	20.14	1.56	-50.5	-65.8	3.6	1.51e+00	0	34	104	0	60	94903
2026-01-07 14:15:23.09	20.16	1.63	-50.5	-65.8	3.6	1.51e+00	0	34	104	0	60	95238
2026-01-07 14:15:24.10	20.18	1.69	-50.5	-65.8	3.6	1.51e+00	0	34	104	0	60	94605
2026-01-07 14:15:25.11	20.20	1.75	-50.5	-65.9	3.6	1.51e+00	0	34	104	0	60	95884
2026-01-07 14:15:26.12	20.22	1.82	-50.5	-65.8	3.6	1.51e+00	0	34	104	0	60	95589
2026-01-07 14:15:27.13	20.24	1.88	-50.5	-65.9	3.6	1.51e+00	0	34	104	0	60	96270
2026-01-07 14:15:28.15	20.26	1.94	-50.5	-65.8	3.6	1.51e+00	0	34	104	0	60	95595
2026-01-07 14:15:29.16	20.28	2.01	-50.5	-65.8	3.6	1.51e+00	0	34	104	0	60	94922
2026-01-07 14:15:30.17	20.30	2.07	-50.5	-65.7	3.6	1.51e+00	0	34	104	0	60	93583
2026-01-07 14:15:31.18	20.32	2.14	-50.5	-65.3	3.6	1.51e+00	0	34	104	0	60	89585
2026-01-07 14:15:32.19	20.35	2.20	-50.4	-64.4	3.6	1.51e+00	0	34	104	0	60	80943
2026-01-07 14:15:33.20	20.37	2.26	-50.4	-63.8	3.7	1.51e+00	0	34	104	0	60	75476
2026-01-07 14:15:34.21	20.39	2.33	-50.4	-63.4	3.6	1.49e+00	0	34	104	0	60	71899
2026-01-07 14:15:35.22	20.41	2.39	-50.4	-63.3	3.6	1.49e+00	0	34	104	0	60	70995
2026-01-07 14:15:36.23	20.43	2.46	-50.4	-63.4	3.7	1.49e+00	0	34	104	0	60	71804
2026-01-07 14:15:37.24	20.45	2.52	-50.4	-63.5	3.6	1.49e+00	0	34	104	0	60	72925
2026-01-07 14:15:38.25	20.47	2.59	-50.3	-62.2	3.9	1.48e+00	0	34	0	0	60	63150
2026-01-07 14:15:39.26	20.49	2.65	-50.2	-59.4	4.7	9.15e-01	0	34	0	0	60	45577
2026-01-07 14:15:40.27	20.51	2.72	-49.8	-57.1	6.8	3.05e-01	0	34	102	1048576	60	34983
2026-01-07 14:15:41.29	20.53	2.78	-49.2	-54.7	9.5	6.22e-02	44	34	102	1048576	60	26545
2026-01-07 14:15:42.30	20.56	2.85	-48.6	-53.0	11.6	1.56e-03	0	34	102	1048576	60	21839
2026-01-07 14:15:43.31	20.58	2.91	-47.9	-51.6	13.4	1.23e-04	92	34	102	1048576	60	18460
2026-01-07 14:15:44.32	20.60	2.98	-47.2	-50.2	14.8	5.30e-06	0	34	102	1048576	60	15705
2026-01-07 14:15:45.33	20.62	3.05	-46.7	-49.3	15.6	0.00e+00	92	34	102	1048576	60	14278
2026-01-07 14:15:46.34	20.64	3.11	-46.4	-48.8	16.2	0.00e+00	0	34	102	1048576	60	13459
2026-01-07 14:15:47.35	20.66	3.18	-45.9	-48.2	16.8	0.00e+00	0	34	102	1048576	60	12477
2026-01-07 14:15:48.36	20.68	3.25	-46.0	-48.2	16.7	0.00e+00	66	34	102	1048576	60	12575
2026-01-07 14:15:49.37	20.71	3.31	-46.2	-48.5	16.4	0.00e+00	13	34	102	1048576	60	13033
2026-01-07 14:15:50.38	20.73	3.38	-46.5	-49.1	15.6	0.00e+00	92	34	102	1048576	60	13925
2026-01-07 14:15:51.39	20.75	3.45	-47.2	-50.3	14.5	0.00e+00	5	34	102	1048576	60	15970
2026-01-07 14:15:52.40	20.77	3.51	-48.0	-51.7	13.0	1.67e-05	92	34	102	1048576	60	18788
2026-01-07 14:15:53.41	20.79	3.58	-48.7	-53.3	11.1	3.34e-04	16	34	102	1048576	60	22613
2026-01-07 14:15:54.42	20.82	3.65	-46.8	-49.3	16.9	5.94e-03	20	34	102	1048576	60	14241
2026-01-07 14:15:55.44	20.84	3.72	-44.3	-46.0	18.9	0.00e+00	5	34	102	1048576	60	9703
2026-01-07 14:15:56.45	20.86	3.78	-49.0	-54.1	10.3	1.98e-02	6	34	102	1048576	60	24596
2026-01-07 14:15:57.46	20.88	3.85	-50.1	-59.7	5.4	1.51e+00	0	34	104	1048576	60	47334
2026-01-07 14:15:58.47	20.91	3.92	-46.5	-49.1	10.9	4.48e-02	0	34	104	1048576	60	13856
2026-01-07 14:15:59.48	20.93	3.99	-50.3	-62.6	4.4	1.51e+00	0	34	104	1048576	60	65943
2026-01-07 14:16:00.49	20.95	4.06	-46.2	-48.5	16.6	1.78e-01	0	34	104	1048576	60	12974
2026-01-07 14:16:01.50	20.97	4.13	-46.3	-48.7	16.5	0.00e+00	92	34	0	1048576	60	13202
2026-01-07 14:16:02.51	21.00	4.19	-45.9	-48.1	17.0	0.00e+00	68	34	0	1048576	60	12372
2026-01-07 14:16:03.52	21.02	4.26	-45.9	-48.0	17.0	0.00e+00	0	34	0	1048576	60	12234
2026-01-07 14:16:04.53	21.04	4.33	-46.0	-48.2	17.3	0.00e+00	22	34	0	1048576	60	12578
2026-01-07 14:16:05.55	21.07	4.40	-46.0	-48.1	16.8	0.00e+00	69	34	0	1048576	60	12437
2026-01-07 14:16:06.56	21.09	4.47	-46.1	-48.3	16.8	0.00e+00	91	34	0	1048576	60	12615
2026-01-07 14:16:07.57	21.11	4.54	-46.1	-48.3	17.1	0.00e+00	62	34	0	1048576	60	12628
2026-01-07 14:16:08.58	21.14	4.61	-45.8	-47.8	17.8	0.00e+00	92	34	0	1048576	60	12017
2026-01-07 14:16:09.59	21.16	4.68	-45.6	-47.6	17.5	0.00e+00	9	34	0	1048576	60	11694
2026-01-07 14:16:10.60	21.18	4.75	-45.4	-47.2	18.0	0.00e+00	18	34	0	1048576	60	11231
2026-01-07 14:16:11.61	21.21	4.82	-45.3	-47.1	17.9	0.00e+00	6	34	0	1048576	60	11073
2026-01-07 14:16:12.62	21.23	4.89	-45.3	-47.2	18.1	0.00e+00	7	34	0	1048576	60	11175
2026-01-07 14:16:13.63	21.25	4.96	-45.6	-47.6	17.9	0.00e+00	90	34	0	1048576	60	11689
2026-01-07 14:16:14.64	21.28	5.03	-45.5	-47.4	17.8	0.00e+00	7	34	0	1048576	60	11452
2026-01-07 14:16:15.65	21.30	5.10	-45.1	-46.9	18.2	0.00e+00	90	34	0	1048576	60	10794
2026-01-07 14:16:16.66	21.33	5.18	-44.9	-46.6	18.7	0.00e+00	0	34	0	1048576	60	10436
2026-01-07 14:16:17.68	21.35	5.25	-45.0	-46.8	18.4	0.00e+00	0	34	0	1048576	60	10611
2026-01-07 14:16:18.69	21.38	5.32	-44.7	-46.4	19.1	0.00e+00	68	35	101	1048576	60	10179
2026-01-07 14:16:19.70	21.40	5.39	-44.3	-45.8	19.6	0.00e+00	68	34	101	1048576	60	9517
2026-01-07 14:16:20.71	21.42	5.46	-43.5	-44.9	20.5	0.00e+00	0	34	101	1048576	60	8574
2026-01-07 14:16:21.72	21.45	5.54	-42.9	-44.2	21.1	0.00e+00	69	34	101	1048576	60	7897
2026-01-07 14:16:22.73	21.47	5.61	-42.8	-44.0	21.2	0.00e+00	92	34	101	1048576	60	7709
2026-01-07 14:16:23.74	21.50	5.68	-42.9	-44.1	21.2	0.00e+00	19	34	101	1048576	60	7807
2026-01-07 14:16:24.75	21.52	5.75	-42.8	-44.0	21.2	0.00e+00	92	34	101	1048576	60	7736
2026-01-07 14:16:25.76	21.55	5.83	-42.8	-44.0	21.3	0.00e+00	14	34	101	1048576	60	7710
2026-01-07 14:16:26.77	21.57	5.90	-42.7	-43.9	21.4	0.00e+00	12	34	101	1048576	60	7607
2026-01-07 14:16:27.78	21.60	5.97	-42.7	-43.9	21.4	0.00e+00	0	34	101	1048576	60	7650
2026-01-07 14:16:28.79	21.62	6.05	-42.7	-43.9	21.4	0.00e+00	0	34	101	1048576	60	7605
2026-01-07 14:16:29.80	21.65	6.12	-42.6	-43.8	21.4	0.00e+00	91	34	101	1048576	60	7560
2026-01-07 14:16:30.81	21.67	6.20	-42.8	-44.0	21.2	0.00e+00	2	34	101	1048576	60	7701
2026-01-07 14:16:31.83	21.70	6.27	-42.7	-43.9	21.4	0.00e+00	92	34	101	1048576	60	7604
2026-01-07 14:16:32.84	21.73	6.35	-42.8	-44.0	21.4	0.00e+00	0	34	101	1048576	60	7719
2026-01-07 14:16:33.85	21.75	6.42	-42.7	-43.9	21.4	0.00e+00	0	34	101	1048576	60	7620
2026-01-07 14:16:34.86	21.78	6.50	-42.7	-43.9	21.4	0.00e+00	0	34	101	1048576	60	7629
2026-01-07 14:16:35.87	21.80	6.57	-42.7	-43.9	21.4	0.00e+00	2	34	101	1048576	60	7639
2026-01-07 14:16:36.88	21.83	6.65	-42.7	-43.8	21.4	0.00e+00	92	35	101	1048576	60	7590
2026-01-07 14:16:37.89	21.86	6.72	-42.5	-43.6	21.7	0.00e+00	0	34	101	1048576	60	7377
2026-01-07 14:16:38.90	21.88	6.80	-42.6	-43.7	21.6	0.00e+00	92	34	101	1048576	60	7480
2026-01-07 14:16:39.91	21.91	6.87	-42.5	-43.6	21.7	0.00e+00	0	34	101	1048576	60	7370
2026-01-07 14:16:40.92	21.94	6.95	-42.5	-43.6	21.8	0.00e+00	65	34	101	1048576	60	7381
2026-01-07 14:16:41.93	21.96	7.03	-42.5	-43.6	21.7	0.00e+00	63	34	101	1048576	60	7416
2026-01-07 14:16:42.95	21.99	7.10	-42.4	-43.5	21.8	0.00e+00	0	34	101	1048576	60	7319
2026-01-07 14:16:43.96	22.02	7.18	-42.4	-43.5	21.8	0.00e+00	0	35	101	1048576	60	7317
2026-01-07 14:16:44.97	22.04	7.26	-42.5	-43.6	21.8	0.00e+00	11	34	101	1048576	60	7413
2026-01-07 14:16:45.98	22.07	7.33	-42.4	-43.5	21.9	0.00e+00	92	35	101	1048576	60	7277
2026-01-07 14:16:46.99	22.10	7.41	-42.4	-43.5	21.9	0.00e+00	18	34	101	1048576	60	7274
2026-01-07 14:16:48.00	22.13	7.49	-42.3	-43.4	21.9	0.00e+00	92	34	101	1048576	60	7244
2026-01-07 14:16:49.01	22.15	7.57	-42.4	-43.5	21.9	0.00e+00	17	35	101	1048576	60	7305
2026-01-07 14:16:50.02	22.18	7.65	-42.4	-43.5	21.9	0.00e+00	11	34	101	1048576	60	7281
2026-01-07 14:16:51.03	22.21	7.72	-42.3	-43.4	22.0	0.00e+00	0	35	101	1048576	60	7240
2026-01-07 14:16:52.04	22.24	7.80	-42.3	-43.4	22.0	0.00e+00	0	35	101	1048576	60	7209
2026-01-07 14:16:53.05	22.27	7.88	-42.3	-43.5	21.9	0.00e+00	92	34	101	1048576	60	7263
2026-01-07 14:16:54.06	22.29	7.96	-42.2	-43.3	22.0	0.00e+00	0	34	101	1048576	60	7149
2026-01-07 14:16:55.07	22.32	8.04	-42.4	-43.5	22.0	0.00e+00	92	34	101	1048576	60	7276
2026-01-07 14:16:56.08	22.35	8.12	-42.2	-43.3	22.1	0.00e+00	65	34	101	1048576	60	7112
2026-01-07 14:16:57.09	22.38	8.20	-42.2	-43.3	22.1	0.00e+00	65	34	101	1048576	60	7137
2026-01-07 14:16:58.11	22.41	8.28	-42.2	-43.3	22.1	0.00e+00	0	35	101	1048576	60	7118
2026-01-07 14:16:59.11	22.44	8.36	-42.1	-43.2	22.2	0.00e+00	0	35	101	1048576	60	7012
2026-01-07 14:17:00.13	22.47	8.44	-42.1	-43.2	22.2	0.00e+00	90	35	101	1048576	60	7042
2026-01-07 14:17:01.14	22.50	8.52	-42.2	-43.3	22.2	0.00e+00	72	34	101	1048576	60	7104
2026-01-07 14:17:02.15	22.52	8.61	-42.1	-43.1	22.3	0.00e+00	90	34	101	1048576	60	6980
2026-01-07 14:17:03.16	22.55	8.69	-42.2	-43.2	22.2	0.00e+00	12	35	101	1048576	60	7088
2026-01-07 14:17:04.17	22.58	8.77	-42.0	-43.1	22.4	0.00e+00	67	35	101	1048576	60	6948
2026-01-07 14:17:05.18	22.61	8.85	-42.1	-43.2	22.3	0.00e+00	17	35	101	1048576	60	7046
2026-01-07 14:17:06.19	22.64	8.93	-42.1	-43.1	22.4	0.00e+00	0	34	101	1048576	60	6995
2026-01-07 14:17:07.20	22.67	9.02	-42.1	-43.2	22.2	0.00e+00	0	35	101	1048576	60	7051
2026-01-07 14:17:08.21	22.70	9.10	-42.0	-43.1	22.4	0.00e+00	0	34	101	1048576	60	6949
2026-01-07 14:17:09.22	22.73	9.18	-42.0	-43.0	22.4	0.00e+00	92	34	101	1048576	60	6917
2026-01-07 14:17:10.23	22.76	9.27	-42.0	-43.1	22.4	0.00e+00	0	35	101	1048576	60	6942
2026-01-07 14:17:11.24	22.79	9.35	-42.0	-43.0	22.5	0.00e+00	0	35	101	1048576	60	6910
2026-01-07 14:17:12.25	22.82	9.43	-41.9	-43.0	22.5	0.00e+00	0	34	101	1048576	60	6864
2026-01-07 14:17:13.27	22.86	9.52	-41.9	-42.9	22.6	0.00e+00	0	35	101	1048576	60	6816
2026-01-07 14:17:14.28	22.89	9.60	-42.0	-43.0	22.5	0.00e+00	2	35	101	1048576	60	6923
2026-01-07 14:17:15.29	22.92	9.69	-41.7	-42.8	22.7	0.00e+00	0	35	101	1048576	60	6700
2026-01-07 14:17:16.30	22.95	9.77	-41.9	-42.9	22.6	0.00e+00	92	35	101	1048576	60	6820
2026-01-07 14:17:17.31	22.98	9.86	-41.8	-42.8	22.7	0.00e+00	0	35	101	1048576	60	6746
2026-01-07 14:17:18.32	23.01	9.94	-41.8	-42.8	22.6	0.00e+00	92	34	101	1048576	60	6717
2026-01-07 14:17:19.33	23.04	10.03	-41.7	-42.7	22.8	0.00e+00	0	34	101	1048576	60	6664
2026-01-07 14:17:20.34	23.08	10.12	-41.8	-42.8	22.7	0.00e+00	16	35	101	1048576	60	6726
2026-01-07 14:17:21.35	23.11	10.20	-41.7	-42.7	22.8	0.00e+00	65	35	101	1048576	60	6631
2026-01-07 14:17:22.36	23.14	10.29	-41.7	-42.7	22.8	0.00e+00	0	35	101	1048576	60	6623
2026-01-07 14:17:23.37	23.17	10.38	-41.6	-42.6	22.9	0.00e+00	71	35	101	1048576	60	6569
2026-01-07 14:17:24.38	23.21	10.46	-41.6	-42.6	23.0	0.00e+00	6	35	101	1048576	60	6559
2026-01-07 14:17:25.39	23.24	10.55	-41.7	-42.7	22.8	0.00e+00	92	35	101	1048576	60	6666
2026-01-07 14:17:26.40	23.27	10.64	-41.5	-42.5	23.0	0.00e+00	7	35	101	1048576	60	6472
2026-01-07 14:17:27.41	23.30	10.73	-41.5	-42.5	23.0	0.00e+00	6	35	101	1048576	60	6471
2026-01-07 14:17:28.42	23.34	10.82	-41.6	-42.6	23.0	0.00e+00	5	35	101	1048576	60	6544
2026-01-07 14:17:29.43	23.37	10.91	-41.7	-42.7	22.9	0.00e+00	5	35	101	1048576	60	6627
2026-01-07 14:17:30.44	23.41	11.00	-41.5	-42.5	23.1	0.00e+00	0	35	101	1048576	60	6472
2026-01-07 14:17:31.45	23.44	11.09	-41.5	-42.5	23.1	0.00e+00	0	35	101	1048576	60	6483
2026-01-07 14:17:32.46	23.47	11.18	-41.5	-42.5	23.1	0.00e+00	91	35	101	1048576	60	6489
2026-01-07 14:17:33.47	23.51	11.27	-41.5	-42.4	23.1	0.00e+00	5	35	101	1048576	60	6457
2026-01-07 14:17:34.49	23.54	11.36	-41.4	-42.4	23.1	0.00e+00	0	35	101	1048576	60	6423
2026-01-07 14:17:35.50	23.58	11.45	-41.5	-42.5	23.1	0.00e+00	63	35	101	1048576	60	6517
2026-01-07 14:17:36.51	23.61	11.54	-41.5	-42.5	23.0	0.00e+00	67	35	101	1048576	60	6466
2026-01-07 14:17:37.52	23.65	11.63	-41.6	-42.6	23.0	0.00e+00	0	35	101	1048576	60	6573
2026-01-07 14:17:38.53	23.68	11.72	-41.5	-42.5	23.1	0.00e+00	13	35	101	1048576	60	6495
2026-01-07 14:17:39.54	23.72	11.82	-41.5	-42.4	23.1	0.00e+00	92	35	101	1048576	60	6440
2026-01-07 14:17:40.55	23.75	11.91	-41.6	-42.6	23.0	0.00e+00	71	35	101	1048576	60	6542
2026-01-07 14:17:41.56	23.79	12.00	-41.5	-42.5	23.0	0.00e+00	92	35	101	1048576	60	6514
2026-01-07 14:17:42.57	23.82	12.09	-41.5	-42.5	23.2	0.00e+00	71	35	101	1048576	60	6466
2026-01-07 14:17:43.58	23.86	12.19	-41.4	-42.4	23.2	0.00e+00	7	35	101	1048576	60	6404
2026-01-07 14:17:44.60	23.90	12.28	-41.4	-42.4	23.2	0.00e+00	20	35	101	1048576	60	6414
2026-01-07 14:17:45.61	23.93	12.38	-41.5	-42.4	23.1	0.00e+00	7	35	101	1048576	60	6459
2026-01-07 14:17:46.62	23.97	12.47	-41.5	-42.5	23.1	0.00e+00	92	35	101	1048576	60	6466
2026-01-07 14:17:47.63	24.01	12.57	-41.4	-42.4	23.2	0.00e+00	6	35	101	1048576	60	6442
2026-01-07 14:17:48.64	24.04	12.66	-41.5	-42.4	23.1	0.00e+00	92	35	101	1048576	60	6456
2026-01-07 14:17:49.65	24.08	12.76	-41.4	-42.4	23.2	0.00e+00	0	35	101	1048576	60	6410
2026-01-07 14:17:50.66	24.12	12.85	-41.4	-42.3	23.2	0.00e+00	0	35	101	1048576	60	6366
2026-01-07 14:17:51.68	24.16	12.95	-41.4	-42.4	23.2	0.00e+00	6	35	101	1048576	60	6434
2026-01-07 14:17:52.69	24.19	13.05	-41.6	-42.5	23.1	0.00e+00	0	35	101	1048576	60	6531
2026-01-07 14:17:53.70	24.23	13.15	-41.5	-42.4	23.2	0.00e+00	45	35	101	1048576	60	6444
2026-01-07 14:17:54.71	24.27	13.24	-41.5	-42.5	23.2	0.00e+00	73	34	101	1048576	60	6485
2026-01-07 14:17:55.72	24.31	13.34	-41.5	-42.4	23.2	0.00e+00	92	35	101	1048576	60	6456
2026-01-07 14:17:56.73	24.35	13.44	-41.3	-42.3	23.4	0.00e+00	73	35	101	1048576	60	6323
2026-01-07 14:17:57.74	24.39	13.54	-41.4	-42.3	23.3	0.00e+00	72	35	101	1048576	60	6360
2026-01-07 14:17:58.75	24.43	13.64	-41.3	-42.2	23.4	0.00e+00	72	35	101	1048576	60	6315
2026-01-07 14:17:59.76	24.47	13.74	-41.3	-42.3	23.3	0.00e+00	66	35	101	1048576	60	6334
2026-01-07 14:18:00.78	24.51	13.84	-41.2	-42.2	23.4	0.00e+00	0	35	101	1048576	60	6267
2026-01-07 14:18:01.79	24.55	13.94	-41.4	-42.4	23.2	0.00e+00	16	35	101	1048576	60	6435
2026-01-07 14:18:02.80	24.59	14.04	-41.3	-42.2	23.4	0.00e+00	92	35	101	1048576	60	6283
2026-01-07 14:18:03.81	24.63	14.14	-41.3	-42.2	23.5	0.00e+00	2	35	101	1048576	60	6301
2026-01-07 14:18:04.82	24.67	14.24	-41.4	-42.4	23.3	0.00e+00	91	35	101	1048576	60	6417
2026-01-07 14:18:05.83	24.71	14.35	-41.3	-42.3	23.4	0.00e+00	2	35	101	1048576	60	6326
2026-01-07 14:18:06.84	24.75	14.45	-41.3	-42.3	23.3	0.00e+00	0	35	101	1048576	60	6341
2026-01-07 14:18:07.85	24.79	14.55	-41.4	-42.3	23.3	0.00e+00	0	35	101	1048576	60	6377
2026-01-07 14:18:08.86	24.84	14.66	-41.3	-42.3	23.3	0.00e+00	0	35	101	1048576	60	6348
2026-01-07 14:18:09.87	24.88	14.76	-41.5	-42.5	23.2	0.00e+00	92	35	101	1048576	60	6468
2026-01-07 14:18:10.88	24.92	14.86	-41.6	-42.5	23.3	0.00e+00	5	35	101	1048576	60	6526
2026-01-07 14:18:11.89	24.96	14.97	-41.4	-42.4	23.3	0.00e+00	92	35	101	1048576	60	6431
2026-01-07 14:18:12.90	25.00	15.07	-41.6	-42.5	23.2	0.00e+00	0	35	101	1048576	60	6522
2026-01-07 14:18:13.91	25.05	15.18	-41.4	-42.4	23.3	0.00e+00	74	35	101	1048576	60	6406
2026-01-07 14:18:14.92	25.09	15.28	-41.4	-42.4	23.2	0.00e+00	0	35	101	1048576	60	6423
2026-01-07 14:18:15.94	25.14	15.39	-41.4	-42.3	23.4	0.00e+00	11	35	101	1048576	60	6376
2026-01-07 14:18:16.95	25.18	15.50	-41.4	-42.3	23.3	0.00e+00	92	35	101	1048576	60	6390
2026-01-07 14:18:17.96	25.22	15.61	-41.4	-42.4	23.4	0.00e+00	11	35	101	1048576	60	6424
2026-01-07 14:18:18.97	25.27	15.71	-41.5	-42.4	23.2	0.00e+00	92	35	101	1048576	60	6443
2026-01-07 14:18:19.98	25.31	15.82	-41.5	-42.4	23.3	0.00e+00	8	35	101	1048576	60	6450
2026-01-07 14:18:20.99	25.36	15.93	-41.6	-42.6	23.2	0.00e+00	21	35	101	1048576	60	6550
2026-01-07 14:18:22.00	25.40	16.04	-41.5	-42.5	23.2	0.00e+00	8	35	101	1048576	60	6504
2026-01-07 14:18:23.01	25.45	16.15	-41.6	-42.5	23.2	0.00e+00	14	35	101	1048576	60	6525
2026-01-07 14:18:24.02	25.50	16.26	-41.5	-42.4	23.3	0.00e+00	63	35	101	1048576	60	6449
2026-01-07 14:18:25.04	25.54	16.37	-41.6	-42.6	23.2	0.00e+00	0	35	101	1048576	60	6548
2026-01-07 14:18:26.05	25.59	16.48	-41.6	-42.5	23.2	0.00e+00	92	35	101	1048576	60	6520
2026-01-07 14:18:27.06	25.64	16.60	-41.4	-42.4	23.3	0.00e+00	0	35	101	1048576	60	6432
2026-01-07 14:18:28.07	25.68	16.71	-41.4	-42.3	23.4	0.00e+00	4	35	101	1048576	60	6382
2026-01-07 14:18:29.08	25.73	16.82	-41.5	-42.4	23.3	0.00e+00	0	35	101	1048576	60	6442
2026-01-07 14:18:30.09	25.78	16.93	-41.4	-42.4	23.4	0.00e+00	0	35	101	1048576	60	6402
2026-01-07 14:18:31.10	25.83	17.05	-41.4	-42.3	23.4	0.00e+00	0	35	101	1048576	60	6377
2026-01-07 14:18:32.11	25.88	17.16	-41.4	-42.3	23.4	0.00e+00	69	35	101	1048576	60	6387
2026-01-07 14:18:33.12	25.92	17.28	-41.4	-42.3	23.4	0.00e+00	92	35	101	1048576	60	6378
2026-01-07 14:18:34.14	25.97	17.39	-41.5	-42.4	23.4	0.00e+00	2	35	101	1048576	60	6429
2026-01-07 14:18:35.15	26.02	17.51	-41.4	-42.3	23.4	0.00e+00	92	35	101	1048576	60	6383
2026-01-07 14:18:36.16	26.07	17.63	-41.5	-42.5	23.3	0.00e+00	74	35	101	1048576	60	6477
2026-01-07 14:18:37.17	26.12	17.74	-41.3	-42.3	23.5	0.00e+00	75	35	101	1048576	60	6333
2026-01-07 14:18:38.18	26.18	17.86	-41.4	-42.3	23.5	0.00e+00	76	35	101	1048576	60	6375
2026-01-07 14:18:39.19	26.23	17.98	-41.4	-42.3	23.5	0.00e+00	0	35	101	1048576	60	6383
2026-01-07 14:18:40.20	26.28	18.10	-41.4	-42.3	23.4	0.00e+00	90	35	101	1048576	60	6387
2026-01-07 14:18:41.21	26.33	18.22	-41.5	-42.4	23.4	0.00e+00	2	35	101	1048576	60	6426
2026-01-07 14:18:42.22	26.38	18.34	-41.3	-42.3	23.4	0.00e+00	90	35	101	1048576	60	6322
2026-01-07 14:18:43.24	26.43	18.46	-41.4	-42.4	23.4	0.00e+00	0	35	101	1048576	60	6413
2026-01-07 14:18:44.25	26.49	18.58	-41.4	-42.3	23.5	0.00e+00	0	35	101	1048576	60	6364
2026-01-07 14:18:45.26	26.54	18.70	-41.5	-42.4	23.3	0.00e+00	2	35	101	1048576	60	6435
2026-01-07 14:18:46.27	26.59	18.82	-41.5	-42.4	23.4	0.00e+00	2	35	101	1048576	60	6434
2026-01-07 14:18:47.28	26.65	18.94	-41.5	-42.4	23.3	0.00e+00	64	35	101	1048576	60	6431
2026-01-07 14:18:48.29	26.70	19.07	-41.4	-42.4	23.4	0.00e+00	69	35	101	1048576	60	6415
2026-01-07 14:18:49.30	26.76	19.19	-41.4	-42.3	23.4	0.00e+00	90	35	101	1048576	60	6383
2026-01-07 14:18:50.31	26.81	19.32	-41.5	-42.4	23.3	0.00e+00	2	35	101	1048576	60	6457
2026-01-07 14:18:51.32	26.87	19.44	-41.5	-42.5	23.3	0.00e+00	0	35	101	1048576	60	6486
2026-01-07 14:18:52.33	26.93	19.57	-41.5	-42.5	23.2	0.00e+00	74	35	101	1048576	60	6493
2026-01-07 14:18:53.34	26.98	19.69	-41.5	-42.5	23.2	0.00e+00	9	35	101	1048576	60	6485
2026-01-07 14:18:54.35	27.04	19.82	-41.6	-42.5	23.3	0.00e+00	56	35	101	1048576	60	6504
2026-01-07 14:18:55.36	27.10	19.95	-41.6	-42.6	23.2	0.00e+00	8	35	101	1048576	60	6552
2026-01-07 14:18:56.38	27.15	20.08	-41.5	-42.4	23.3	0.00e+00	91	35	101	1048576	60	6443
2026-01-07 14:18:57.38	27.21	20.20	-41.5	-42.5	23.3	0.00e+00	9	35	101	1048576	60	6483
2026-01-07 14:18:58.40	27.27	20.33	-41.6	-42.6	23.2	0.00e+00	24	35	101	1048576	60	6548
2026-01-07 14:18:59.41	27.33	20.46	-41.5	-42.5	23.4	0.00e+00	0	35	101	1048576	60	6488
2026-01-07 14:19:00.42	27.39	20.59	-41.5	-42.5	23.4	0.00e+00	8	35	101	1048576	60	6468
2026-01-07 14:19:01.43	27.45	20.73	-41.5	-42.4	23.5	0.00e+00	0	35	101	1048576	60	6426
2026-01-07 14:19:02.44	27.51	20.86	-41.5	-42.4	23.4	0.00e+00	0	35	101	1048576	60	6442
2026-01-07 14:19:03.45	27.57	20.99	-41.5	-42.5	23.3	0.00e+00	91	35	101	1048576	60	6500
2026-01-07 14:19:04.46	27.63	21.12	-41.3	-42.2	23.6	0.00e+00	6	35	101	1048576	60	6303
2026-01-07 14:19:05.47	27.70	21.26	-41.4	-42.3	23.5	0.00e+00	91	35	101	1048576	60	6367
2026-01-07 14:19:06.49	27.76	21.39	-41.5	-42.4	23.5	0.00e+00	75	35	101	1048576	60	6422
2026-01-07 14:19:07.49	27.82	21.53	-41.2	-42.1	23.7	0.00e+00	71	35	101	1048576	60	6202
2026-01-07 14:19:08.51	27.89	21.66	-41.2	-42.1	23.6	0.00e+00	74	35	101	1048576	60	6208
2026-01-07 14:19:09.52	27.95	21.80	-41.2	-42.1	23.8	0.00e+00	75	35	101	1048576	60	6221
2026-01-07 14:19:10.53	28.02	21.94	-41.4	-42.3	23.6	0.00e+00	16	35	101	1048576	60	6357
2026-01-07 14:19:11.54	28.08	22.08	-41.0	-41.9	23.9	0.00e+00	74	35	101	1048576	60	6071
2026-01-07 14:19:12.55	28.15	22.22	-40.9	-41.8	24.0	0.00e+00	90	35	101	1048576	60	5971
2026-01-07 14:19:13.56	28.21	22.36	-40.9	-41.8	24.0	0.00e+00	6	35	101	1048576	60	6019
2026-01-07 14:19:14.57	28.28	22.50	-41.0	-41.8	23.9	0.00e+00	14	35	101	1048576	60	6025
2026-01-07 14:19:15.58	28.35	22.64	-40.7	-41.6	24.2	0.00e+00	6	35	101	1048576	60	5851
2026-01-07 14:19:16.59	28.42	22.78	-40.8	-41.6	24.1	0.00e+00	6	35	101	1048576	60	5893
2026-01-07 14:19:17.60	28.48	22.92	-40.9	-41.7	23.9	0.00e+00	66	35	101	1048576	60	5962
2026-01-07 14:19:18.62	28.55	23.07	-40.7	-41.5	24.2	0.00e+00	12	35	101	1048576	60	5818
2026-01-07 14:19:19.63	28.62	23.21	-40.7	-41.6	24.1	0.00e+00	92	35	101	1048576	60	5854
2026-01-07 14:19:20.64	28.69	23.36	-40.7	-41.5	24.2	0.00e+00	0	35	101	1048576	60	5806
2026-01-07 14:19:21.65	28.77	23.50	-40.6	-41.5	24.2	0.00e+00	32	35	101	1048576	60	5811
2026-01-07 14:19:22.66	28.84	23.65	-40.5	-41.4	24.3	0.00e+00	6	35	101	1048576	60	5712
2026-01-07 14:19:23.67	28.91	23.80	-40.5	-41.3	24.4	0.00e+00	0	35	101	1048576	60	5683
2026-01-07 14:19:24.68	28.98	23.94	-40.5	-41.3	24.4	0.00e+00	0	35	101	1048576	60	5686
2026-01-07 14:19:25.69	29.06	24.09	-40.3	-41.2	24.5	0.00e+00	0	35	101	1048576	60	5596
2026-01-07 14:19:26.70	29.13	24.24	-40.3	-41.2	24.5	0.00e+00	92	35	101	1048576	60	5594
2026-01-07 14:19:27.71	29.21	24.39	-40.2	-41.1	24.6	0.00e+00	76	35	101	1048576	60	5520
2026-01-07 14:19:28.72	29.28	24.54	-40.4	-41.2	24.4	0.00e+00	92	35	101	1048576	60	5627
2026-01-07 14:19:29.73	29.36	24.70	-40.2	-41.0	24.5	0.00e+00	5	35	101	1048576	60	5499
2026-01-07 14:19:30.74	29.43	24.85	-40.1	-40.9	24.5	0.00e+00	75	35	101	1048576	58	6083
2026-01-07 14:19:31.76	29.51	25.00	-40.1	-41.0	24.3	0.00e+00	5	35	101	1048576	58	6104
2026-01-07 14:19:32.77	29.59	25.16	-40.1	-40.9	24.5	0.00e+00	6	35	101	1048576	58	6092
2026-01-07 14:19:33.78	29.67	25.31	-40.1	-40.9	24.7	0.00e+00	92	35	101	1048576	58	6075
2026-01-07 14:19:34.79	29.75	25.47	-40.1	-40.9	24.7	0.00e+00	6	35	101	1048576	58	6094
2026-01-07 14:19:35.80	29.83	25.63	-40.0	-40.8	24.8	0.00e+00	92	35	101	1048576	58	6003
2026-01-07 14:19:36.81	29.91	25.79	-39.9	-40.8	24.9	0.00e+00	6	35	101	1048576	58	5972
2026-01-07 14:19:37.82	29.99	25.95	-40.0	-40.8	24.8	0.00e+00	12	35	101	1048576	58	5996
2026-01-07 14:19:38.83	30.08	26.11	-39.8	-40.6	25.0	0.00e+00	2	35	101	1048576	58	5829
2026-01-07 14:19:39.84	30.16	26.27	-39.8	-40.6	25.0	0.00e+00	2	35	101	1048576	58	5849
2026-01-07 14:19:40.85	30.25	26.43	-39.8	-40.6	25.0	0.00e+00	49	35	101	1048576	58	5831
2026-01-07 14:19:41.87	30.33	26.59	-39.8	-40.7	24.9	0.00e+00	0	35	101	1048576	58	5901
2026-01-07 14:19:42.87	30.42	26.75	-39.9	-40.7	24.9	0.00e+00	92	35	101	1048576	58	5920
2026-01-07 14:19:43.89	30.51	26.92	-40.0	-40.8	24.8	0.00e+00	0	35	101	1048576	58	5998
2026-01-07 14:19:44.90	30.59	27.09	-40.0	-40.8	24.8	0.00e+00	18	35	101	1048576	58	6020
2026-01-07 14:19:45.91	30.68	27.25	-40.2	-41.0	24.6	0.00e+00	74	35	101	1048576	58	6141
2026-01-07 14:19:46.92	30.77	27.42	-40.2	-41.0	24.6	0.00e+00	4	35	101	1048576	58	6159
2026-01-07 14:19:47.93	30.86	27.59	-40.4	-41.2	24.5	0.00e+00	0	35	101	1048576	58	6307
2026-01-07 14:19:48.94	30.95	27.76	-40.5	-41.4	24.4	0.00e+00	5	35	101	1048576	58	6422
2026-01-07 14:19:49.95	31.05	27.93	-40.6	-41.5	24.1	0.00e+00	92	35	101	1048576	58	6507
2026-01-07 14:19:50.96	31.14	28.10	-40.9	-41.8	24.0	0.00e+00	76	35	101	1048576	58	6726
2026-01-07 14:19:51.97	31.24	28.27	-41.2	-42.1	23.8	0.00e+00	92	35	101	1048576	60	6182
2026-01-07 14:19:52.98	31.33	28.45	-41.3	-42.2	23.7	0.00e+00	6	35	101	1048576	60	6256
2026-01-07 14:19:54.00	31.43	28.62	-41.2	-42.1	23.8	0.00e+00	0	35	101	1048576	60	6244
2026-01-07 14:19:55.01	31.53	28.80	-41.3	-42.2	23.6	0.00e+00	0	35	101	1048576	60	6293
2026-01-07 14:19:56.02	31.62	28.97	-41.6	-42.5	23.3	0.00e+00	2	35	101	1048576	60	6521
2026-01-07 14:19:57.03	31.72	29.15	-41.6	-42.6	23.5	0.00e+00	92	35	101	1048576	60	6553
2026-01-07 14:19:58.04	31.82	29.33	-41.5	-42.4	23.2	0.00e+00	0	35	101	1048576	60	6432
2026-01-07 14:19:59.05	31.93	29.51	-41.7	-42.6	23.3	0.00e+00	92	35	101	1048576	60	6586
2026-01-07 14:20:00.06	32.03	29.69	-41.7	-42.7	23.3	0.00e+00	0	35	101	1048576	60	6619
2026-01-07 14:20:01.07	32.13	29.87	-41.9	-42.8	23.1	0.00e+00	5	35	101	1048576	60	6747
2026-01-07 14:20:02.08	32.24	30.05	-42.0	-42.9	23.0	0.00e+00	0	35	101	1048576	60	6833
2026-01-07 14:20:03.09	32.34	30.24	-42.0	-43.0	22.9	0.00e+00	0	35	101	1048576	60	6903
2026-01-07 14:20:04.10	32.45	30.42	-42.2	-43.2	22.8	0.00e+00	80	35	101	1048576	60	7040
2026-01-07 14:20:05.11	32.56	30.61	-42.3	-43.3	22.7	0.00e+00	78	35	101	1048576	60	7155
2026-01-07 14:20:06.12	32.67	30.79	-42.4	-43.4	22.6	0.00e+00	90	35	101	1048576	60	7200
2026-01-07 14:20:07.13	32.78	30.98	-42.6	-43.7	22.4	0.00e+00	11	35	101	1048576	60	7430
2026-01-07 14:20:08.14	32.89	31.17	-42.7	-43.7	22.3	0.00e+00	91	35	101	1048576	60	7499
2026-01-07 14:20:09.16	33.01	31.36	-42.8	-43.9	22.2	0.00e+00	72	35	101	1048576	60	7646
2026-01-07 14:20:10.16	33.12	31.55	-42.9	-44.0	22.2	0.00e+00	0	35	101	1048576	60	7711
2026-01-07 14:20:11.17	33.23	31.75	-42.8	-43.9	22.3	0.00e+00	0	35	101	1048576	60	7626
2026-01-07 14:20:12.19	33.35	31.94	-42.9	-44.0	22.2	0.00e+00	10	35	101	1048576	60	7694
2026-01-07 14:20:13.20	33.47	32.14	-43.0	-44.1	22.0	0.00e+00	90	35	101	1048576	60	7776
2026-01-07 14:20:14.21	33.59	32.33	-43.0	-44.1	22.1	0.00e+00	2	35	101	1048576	60	7792
2026-01-07 14:20:15.22	33.71	32.53	-43.2	-44.4	21.7	0.00e+00	90	35	101	1048576	60	8073
2026-01-07 14:20:16.23	33.84	32.73	-43.3	-44.4	21.7	0.00e+00	0	35	101	1048576	60	8126
2026-01-07 14:20:17.24	33.96	32.93	-43.4	-44.5	21.5	0.00e+00	0	35	101	1048576	60	8217
2026-01-07 14:20:18.25	34.09	33.13	-43.5	-44.7	21.2	0.00e+00	0	35	101	1048576	60	8360
2026-01-07 14:20:19.26	34.21	33.33	-43.5	-44.6	21.5	0.00e+00	0	35	101	1048576	60	8299
2026-01-07 14:20:20.27	34.34	33.54	-43.6	-44.8	21.4	0.00e+00	90	35	101	1048576	60	8432
2026-01-07 14:20:21.28	34.47	33.74	-43.5	-44.7	21.5	0.00e+00	78	35	101	1048576	60	8367
2026-01-07 14:20:22.29	34.60	33.95	-43.7	-44.9	21.3	0.00e+00	92	35	101	1048576	60	8536
2026-01-07 14:20:23.30	34.74	34.15	-43.5	-44.7	21.4	0.00e+00	0	35	101	1048576	60	8397
2026-01-07 14:20:24.31	34.87	34.36	-43.6	-44.8	21.4	0.00e+00	77	35	101	1048576	60	8510
2026-01-07 14:20:25.32	35.01	34.57	-43.8	-45.0	21.3	0.00e+00	76	35	101	1048576	60	8633
2026-01-07 14:20:26.33	35.15	34.78	-43.8	-45.0	21.2	0.00e+00	0	35	101	1048576	60	8651
2026-01-07 14:20:27.34	35.29	34.99	-43.8	-45.0	21.1	0.00e+00	91	35	101	1048576	60	8693
2026-01-07 14:20:28.35	35.43	35.21	-43.9	-45.1	21.1	0.00e+00	6	35	101	1048576	60	8764
2026-01-07 14:20:29.37	35.58	35.42	-43.8	-45.1	21.2	0.00e+00	92	35	101	1048576	60	8729
2026-01-07 14:20:30.38	35.72	35.64	-43.6	-44.8	21.3	0.00e+00	6	35	101	1048576	60	8471
2026-01-07 14:20:31.39	35.87	35.85	-43.5	-44.7	21.5	0.00e+00	73	35	101	1048576	60	8392
2026-01-07 14:20:32.40	36.02	36.07	-43.7	-44.9	21.4	0.00e+00	6	35	101	1048576	60	8525
2026-01-07 14:20:33.41	36.17	36.29	-43.6	-44.8	21.3	0.00e+00	6	35	101	1048576	60	8497
2026-01-07 14:20:34.42	36.33	36.51	-43.5	-44.7	21.3	0.00e+00	0	35	101	1048576	60	8399
2026-01-07 14:20:35.43	36.48	36.73	-43.5	-44.7	21.5	0.00e+00	5	35	101	1048576	60	8370
2026-01-07 14:20:36.44	36.64	36.96	-43.6	-44.8	21.4	0.00e+00	92	35	101	1048576	60	8451
2026-01-07 14:20:37.45	36.80	37.18	-43.7	-44.9	21.3	0.00e+00	0	35	101	1048576	60	8568
2026-01-07 14:20:38.46	36.96	37.41	-43.9	-45.1	21.2	0.00e+00	30	35	101	1048576	60	8779
2026-01-07 14:20:39.47	37.13	37.64	-43.6	-44.8	21.4	0.00e+00	0	35	101	1048576	60	8466
2026-01-07 14:20:40.48	37.29	37.86	-43.9	-45.1	21.1	0.00e+00	73	35	101	1048576	60	8782
2026-01-07 14:20:41.49	37.46	38.09	-44.0	-45.2	21.1	0.00e+00	0	35	101	1048576	60	8890
2026-01-07 14:20:42.50	37.63	38.33	-44.1	-45.3	20.9	0.00e+00	73	35	101	1048576	60	8993
2026-01-07 14:20:43.52	37.81	38.56	-44.1	-45.3	20.9	0.00e+00	90	35	101	1048576	60	9017
2026-01-07 14:20:44.53	37.99	38.79	-44.1	-45.4	20.8	0.00e+00	72	35	101	1048576	60	9043
2026-01-07 14:20:45.54	38.16	39.03	-43.9	-45.1	21.2	0.00e+00	92	35	101	1048576	60	8744
2026-01-07 14:20:46.55	38.35	39.27	-43.7	-44.9	21.3	0.00e+00	77	35	101	1048576	60	8523
2026-01-07 14:20:47.56	38.53	39.50	-43.5	-44.6	20.9	0.00e+00	11	35	101	1048576	60	8320
2026-01-07 14:20:48.57	38.72	39.74	-43.4	-44.5	21.6	0.00e+00	78	35	101	1048576	60	8179
2026-01-07 14:20:49.58	38.90	39.98	-43.5	-44.6	21.5	0.00e+00	7	35	101	1048576	60	8295
2026-01-07 14:20:50.60	39.10	40.23	-43.1	-44.2	21.9	0.00e+00	92	35	101	1048576	60	7932
2026-01-07 14:20:51.61	39.29	40.47	-43.1	-44.2	21.9	0.00e+00	9	35	101	1048576	60	7952
2026-01-07 14:20:52.62	39.49	40.71	-42.9	-44.0	22.2	0.00e+00	92	35	101	1048576	60	7721
2026-01-07 14:20:53.63	39.69	40.96	-42.9	-44.0	22.1	0.00e+00	10	35	101	1048576	60	7726
2026-01-07 14:20:54.64	39.90	41.21	-42.6	-43.7	22.6	0.00e+00	0	35	101	1048576	60	7435
2026-01-07 14:20:55.65	40.10	41.46	-42.4	-43.4	22.7	0.00e+00	5	35	101	1048576	60	7193
2026-01-07 14:20:56.66	40.31	41.71	-42.3	-43.3	22.6	0.00e+00	0	35	101	1048576	60	7163
2026-01-07 14:20:57.67	40.52	41.96	-42.0	-43.0	23.1	0.00e+00	0	35	101	1048576	60	6854
2026-01-07 14:20:58.68	40.74	42.21	-41.8	-42.7	23.3	0.00e+00	78	35	101	1048576	60	6677
2026-01-07 14:20:59.69	40.96	42.46	-41.8	-42.7	23.3	0.00e+00	92	35	101	1048576	60	6670
2026-01-07 14:21:00.70	41.18	42.72	-41.7	-42.6	23.4	0.00e+00	78	35	101	1048576	60	6613
2026-01-07 14:21:01.71	41.41	42.97	-41.8	-42.8	23.2	0.00e+00	92	35	101	1048576	60	6734
2026-01-07 14:21:02.72	41.64	43.23	-42.1	-43.0	23.0	0.00e+00	78	35	101	1048576	60	6926
2026-01-07 14:21:03.74	41.88	43.49	-42.4	-43.4	22.6	0.00e+00	79	35	101	1048576	60	7225
2026-01-07 14:21:04.75	42.11	43.75	-42.6	-43.7	22.3	0.00e+00	78	35	101	1048576	60	7477
2026-01-07 14:21:05.76	42.36	44.01	-42.8	-43.9	22.3	0.00e+00	79	35	101	1048576	60	7599
2026-01-07 14:21:06.77	42.60	44.27	-42.6	-43.6	22.5	0.00e+00	92	35	101	1048576	60	7403
2026-01-07 14:21:07.78	42.85	44.54	-42.3	-43.3	22.7	0.00e+00	8	35	101	1048576	60	7134
2026-01-07 14:21:08.79	43.10	44.80	-42.3	-43.3	22.8	0.00e+00	92	35	101	1048576	60	7100
2026-01-07 14:21:09.80	43.36	45.07	-42.3	-43.3	22.8	0.00e+00	0	35	101	1048576	60	7107
2026-01-07 14:21:10.81	43.62	45.33	-42.3	-43.3	22.8	0.00e+00	2	35	101	1048576	60	7162
2026-01-07 14:21:11.82	43.89	45.60	-42.7	-43.7	22.4	0.00e+00	0	35	101	1048576	60	7477
2026-01-07 14:21:12.83	44.16	45.87	-43.2	-44.3	21.9	0.00e+00	0	35	101	1048576	60	7996
2026-01-07 14:21:13.84	44.44	46.14	-43.8	-45.0	21.2	0.00e+00	92	35	101	1048576	60	8683
2026-01-07 14:21:14.85	44.72	46.41	-43.7	-44.9	21.4	0.00e+00	0	35	101	1048576	60	8573
2026-01-07 14:21:15.86	45.00	46.69	-43.8	-45.1	21.2	0.00e+00	92	35	101	1048576	60	8731
2026-01-07 14:21:16.87	45.29	46.96	-43.9	-45.2	21.0	0.00e+00	0	35	101	1048576	60	8830
2026-01-07 14:21:17.88	45.59	47.23	-43.7	-45.0	21.3	0.00e+00	0	35	101	1048576	60	8623
2026-01-07 14:21:18.90	45.89	47.51	-43.4	-44.6	21.2	0.00e+00	78	35	101	1048576	60	8311
2026-01-07 14:21:19.91	46.19	47.79	-42.8	-43.9	22.2	0.00e+00	80	35	101	1048576	60	7643
2026-01-07 14:21:20.92	46.50	48.07	-42.7	-43.8	22.4	0.00e+00	0	35	101	1048576	60	7525
2026-01-07 14:21:21.93	46.82	48.35	-42.5	-43.5	22.5	0.00e+00	4	35	101	1048576	60	7324
2026-01-07 14:21:22.94	47.14	48.62	-42.4	-43.5	22.6	0.00e+00	91	35	101	1048576	60	7260
2026-01-07 14:21:23.95	47.47	48.90	-42.7	-43.7	22.4	0.00e+00	3	35	101	1048576	60	7486
2026-01-07 14:21:24.96	47.81	49.19	-42.5	-43.5	22.6	0.00e+00	92	35	101	1048576	60	7334
2026-01-07 14:21:25.97	48.14	49.47	-42.1	-43.1	23.0	0.00e+00	3	35	101	1048576	60	7006
2026-01-07 14:21:26.98	48.49	49.75	-41.3	-42.2	23.7	0.00e+00	3	35	101	1048576	60	6303
2026-01-07 14:21:27.99	48.84	50.03	-41.0	-41.9	23.9	0.00e+00	0	35	101	1048576	60	6085
2026-01-07 14:21:29.00	49.20	50.32	-40.4	-41.3	24.6	0.00e+00	0	35	101	1048576	60	5652
2026-01-07 14:21:30.01	49.57	50.60	-39.8	-40.6	24.9	0.00e+00	92	35	101	1048576	58	5891
2026-01-07 14:21:31.03	49.95	50.89	-39.6	-40.4	25.2	0.00e+00	0	35	101	1048576	58	5696
2026-01-07 14:21:32.04	50.33	51.17	-39.4	-40.2	25.4	0.00e+00	33	35	101	1048576	58	5586
2026-01-07 14:21:33.05	50.71	51.46	-39.0	-39.7	25.8	0.00e+00	0	35	101	1048576	56	5964
2026-01-07 14:21:34.06	51.11	51.74	-38.4	-39.2	26.2	0.00e+00	0	35	101	1048576	56	5575
2026-01-07 14:21:35.07	51.51	52.03	-38.0	-38.7	26.3	0.00e+00	0	35	101	1048576	54	5953
2026-01-07 14:21:36.08	51.92	52.32	-38.0	-38.7	26.5	0.00e+00	0	35	101	1048576	54	5904
2026-01-07 14:21:37.09	52.34	52.60	-37.7	-38.3	26.7	0.00e+00	90	35	101	1048576	54	5692
2026-01-07 14:21:38.10	52.76	52.89	-38.0	-38.7	26.6	0.00e+00	0	35	101	1048576	54	5928
2026-01-07 14:21:39.11	53.20	53.18	-38.3	-39.1	26.1	0.00e+00	92	35	101	1048576	54	6183
2026-01-07 14:21:40.13	53.64	53.47	-38.8	-39.6	25.9	0.00e+00	0	35	101	1048576	54	6564
2026-01-07 14:21:41.14	54.10	53.75	-38.7	-39.5	25.9	0.00e+00	74	35	101	1048576	54	6482
2026-01-07 14:21:42.15	54.56	54.04	-38.3	-39.1	25.3	0.00e+00	74	35	101	1048576	54	6190
2026-01-07 14:21:43.16	55.03	54.33	-38.5	-39.2	26.1	0.00e+00	9	35	101	1048576	54	6280
2026-01-07 14:21:44.17	55.51	54.61	-38.7	-39.5	25.8	0.00e+00	92	35	101	1048576	54	6475
2026-01-07 14:21:45.18	55.99	54.90	-39.4	-40.1	25.5	0.00e+00	73	35	101	1048576	56	6237
2026-01-07 14:21:46.19	56.49	55.18	-40.0	-40.9	24.8	0.00e+00	92	35	101	1048576	56	6787
2026-01-07 14:21:47.20	57.00	55.47	-40.8	-41.7	24.1	0.00e+00	2	35	101	1048576	58	6628
2026-01-07 14:21:48.21	57.52	55.75	-40.9	-41.8	24.0	0.00e+00	92	35	101	1048576	58	6737
2026-01-07 14:21:49.22	58.05	56.03	-40.9	-41.8	23.7	0.00e+00	2	35	101	1048576	58	6763
2026-01-07 14:21:50.24	58.60	56.32	-40.9	-41.8	24.0	0.00e+00	0	35	101	1048576	58	6765
2026-01-07 14:21:51.25	59.15	56.60	-40.9	-41.8	24.0	0.00e+00	0	35	101	1048576	58	6736
2026-01-07 14:21:52.26	59.71	56.88	-41.4	-42.3	23.6	0.00e+00	0	35	101	1048576	60	6381
2026-01-07 14:21:53.27	60.28	57.16	-41.8	-42.7	23.1	0.00e+00	90	35	101	1048576	60	6689
2026-01-07 14:21:54.28	60.87	57.44	-42.0	-43.0	23.1	0.00e+00	2	35	101	1048576	60	6868
2026-01-07 14:21:55.29	61.47	57.71	-41.8	-42.8	23.0	0.00e+00	0	35	101	1048576	60	6737
2026-01-07 14:21:56.30	62.08	57.99	-41.9	-42.9	23.0	0.00e+00	0	35	101	1048576	60	6813
2026-01-07 14:21:57.31	62.70	58.26	-42.2	-43.2	22.8	0.00e+00	0	35	101	1048576	60	7087
2026-01-07 14:21:58.32	63.33	58.53	-42.5	-43.6	22.5	0.00e+00	0	35	101	1048576	60	7375
2026-01-07 14:21:59.33	63.98	58.80	-42.5	-43.6	22.5	0.00e+00	72	35	101	1048576	60	7344
2026-01-07 14:22:00.34	64.64	59.06	-41.7	-42.7	23.3	0.00e+00	92	35	101	1048576	60	6668
2026-01-07 14:22:01.35	65.32	59.33	-41.2	-42.1	23.4	0.00e+00	77	35	101	1048576	60	6223
2026-01-07 14:22:02.37	66.01	59.59	-40.4	-41.2	24.5	0.00e+00	92	35	101	1048576	60	5622
2026-01-07 14:22:03.38	66.72	59.85	-40.3	-41.1	24.7	0.00e+00	0	35	101	1048576	60	5521
2026-01-07 14:22:04.39	67.43	60.10	-40.5	-41.3	24.4	0.00e+00	4	35	101	1048576	60	5672
2026-01-07 14:22:05.40	68.16	60.36	-40.1	-40.9	24.8	0.00e+00	5	35	101	1048576	60	5415
2026-01-07 14:22:06.41	68.91	60.61	-39.7	-40.5	25.2	0.00e+00	6	35	101	1048576	58	5793
2026-01-07 14:22:07.42	69.67	60.85	-39.4	-40.2	25.3	0.00e+00	92	35	101	1048576	58	5612
2026-01-07 14:22:08.43	70.44	61.10	-39.2	-40.0	25.6	0.00e+00	0	35	101	1048576	58	5481
2026-01-07 14:22:09.44	71.23	61.33	-39.3	-40.1	25.4	0.00e+00	92	35	101	1048576	56	6210
2026-01-07 14:22:10.45	72.03	61.57	-39.6	-40.4	25.3	0.00e+00	6	35	101	1048576	56	6407
2026-01-07 14:22:11.46	72.85	61.80	-39.6	-40.4	25.2	0.00e+00	5	35	101	1048576	56	6414
2026-01-07 14:22:12.48	73.70	62.03	-39.7	-40.5	24.9	0.00e+00	0	35	101	1048576	56	6539
2026-01-07 14:22:13.49	74.55	62.25	-40.4	-41.2	24.5	0.00e+00	74	35	101	1048576	58	6298
2026-01-07 14:22:14.50	75.41	62.47	-40.5	-41.3	24.4	0.00e+00	71	35	101	1048576	58	6355
2026-01-07 14:22:15.51	76.30	62.68	-40.1	-40.9	24.8	0.00e+00	0	35	101	1048576	58	6051
2026-01-07 14:22:16.52	77.19	62.89	-39.7	-40.5	25.2	0.00e+00	92	35	101	1048576	58	5778
2026-01-07 14:22:17.53	78.10	63.09	-39.6	-40.4	25.3	0.00e+00	0	35	101	1048576	58	5711
2026-01-07 14:22:18.54	79.03	63.29	-39.6	-40.4	24.9	0.00e+00	5	35	101	1048576	58	5733
2026-01-07 14:22:19.55	79.97	63.48	-39.9	-40.7	25.0	0.00e+00	76	35	101	1048576	58	5931
2026-01-07 14:22:20.56	80.93	63.66	-40.6	-41.4	24.4	0.00e+00	5	35	101	1048576	58	6440
2026-01-07 14:22:21.57	81.91	63.84	-40.6	-41.5	24.4	0.00e+00	56	35	101	1048576	58	6471
2026-01-07 14:22:22.58	82.89	64.02	-40.3	-41.1	24.6	0.00e+00	9	35	101	1048576	58	6240
2026-01-07 14:22:23.59	83.90	64.18	-40.1	-41.0	24.6	0.00e+00	92	35	101	1048576	58	6110
2026-01-07 14:22:24.61	84.92	64.34	-40.2	-41.0	24.7	0.00e+00	6	35	101	1048576	58	6152
2026-01-07 14:22:25.62	85.95	64.49	-40.7	-41.6	24.3	0.00e+00	85	35	101	1048576	58	6541
2026-01-07 14:22:26.63	87.00	64.64	-41.4	-42.4	23.5	0.00e+00	6	35	101	1048576	60	6398
2026-01-07 14:22:27.64	88.05	64.78	-42.1	-43.1	22.9	0.00e+00	8	35	101	1048576	60	6982
2026-01-07 14:22:28.65	89.12	64.91	-42.2	-43.2	22.9	0.00e+00	0	35	101	1048576	60	7046
2026-01-07 14:22:29.66	90.20	65.03	-41.8	-42.8	23.3	0.00e+00	8	35	101	1048576	60	6704
2026-01-07 14:22:30.67	91.30	65.15	-41.5	-42.4	23.6	0.00e+00	91	35	101	1048576	60	6427
2026-01-07 14:22:31.69	92.41	65.25	-41.3	-42.2	23.8	0.00e+00	0	35	101	1048576	60	6309
2026-01-07 14:22:32.69	93.52	65.35	-41.9	-42.9	23.1	0.00e+00	91	35	101	1048576	60	6770
2026-01-07 14:22:33.70	94.64	65.44	-42.7	-43.7	22.4	0.00e+00	0	35	101	1048576	60	7502
2026-01-07 14:22:34.72	95.78	65.53	-43.0	-44.1	22.1	0.00e+00	79	35	101	1048576	60	7794
2026-01-07 14:22:35.73	96.92	65.60	-42.8	-43.9	22.2	0.00e+00	79	35	101	1048576	60	7663
2026-01-07 14:22:36.74	98.07	65.66	-42.4	-43.4	22.7	0.00e+00	3	35	101	1048576	60	7203
2026-01-07 14:22:37.75	99.23	65.72	-41.5	-42.4	23.4	0.00e+00	74	35	101	1048576	60	6449
2026-01-07 14:22:38.76	100.39	65.77	-41.3	-42.2	23.6	0.00e+00	7	35	101	1048576	60	6308
2026-01-07 14:22:39.77	101.55	65.81	-41.4	-42.3	23.7	0.00e+00	91	35	101	1048576	60	6372
2026-01-07 14:22:40.78	102.72	65.84	-41.1	-42.0	23.9	0.00e+00	7	35	101	1048576	60	6136
2026-01-07 14:22:41.79	103.89	65.86	-41.1	-42.0	23.9	0.00e+00	0	35	101	1048576	60	6126
2026-01-07 14:22:42.80	105.06	65.87	-41.0	-41.9	24.0	0.00e+00	0	35	101	1048576	60	6068
2026-01-07 14:22:43.81	106.23	65.87	-41.1	-42.0	23.9	0.00e+00	8	35	101	1048576	60	6122
2026-01-07 14:22:44.82	107.41	65.86	-41.4	-42.3	23.0	0.00e+00	10	35	101	1048576	60	6331
2026-01-07 14:22:45.84	108.59	65.85	-41.3	-42.2	23.5	0.00e+00	0	35	101	1048576	60	6300
2026-01-07 14:22:46.85	109.76	65.82	-41.2	-42.1	23.8	0.00e+00	92	35	101	1048576	60	6213
2026-01-07 14:22:47.86	110.92	65.79	-41.7	-42.7	23.3	0.00e+00	0	35	101	1048576	60	6631
2026-01-07 14:22:48.87	112.09	65.74	-42.6	-43.7	22.5	0.00e+00	92	35	101	1048576	60	7440
2026-01-07 14:22:49.88	113.24	65.69	-41.8	-42.8	23.1	0.00e+00	2	35	101	1048576	60	6756
2026-01-07 14:22:50.89	114.40	65.63	-40.6	-41.4	24.5	0.00e+00	3	35	101	1048576	60	5740
2026-01-07 14:22:51.90	115.54	65.56	-39.9	-40.7	24.9	0.00e+00	0	35	101	1048576	58	5920
2026-01-07 14:22:52.91	116.68	65.48	-40.2	-41.1	24.7	0.00e+00	0	35	101	1048576	58	6178
2026-01-07 14:22:53.92	117.81	65.40	-40.9	-41.8	23.9	0.00e+00	92	35	101	1048576	58	6744
2026-01-07 14:22:54.93	118.93	65.30	-41.5	-42.4	23.2	0.00e+00	2	35	101	1048576	60	6394
2026-01-07 14:22:55.94	120.03	65.20	-40.8	-41.7	24.2	0.00e+00	92	35	101	1048576	60	5924
2026-01-07 14:22:56.95	121.13	65.09	-40.5	-41.3	24.5	0.00e+00	77	35	101	1048576	60	5684
2026-01-07 14:22:57.97	122.23	64.97	-40.8	-41.7	24.1	0.00e+00	79	35	101	1048576	60	5942
2026-01-07 14:22:58.98	123.31	64.84	-40.8	-41.7	24.3	0.00e+00	0	35	101	1048576	60	5897
2026-01-07 14:22:59.99	124.37	64.71	-39.8	-40.6	24.9	0.00e+00	2	35	101	1048576	58	5894
2026-01-07 14:23:01.00	125.42	64.56	-39.9	-40.7	24.9	0.00e+00	92	35	101	1048576	58	5936
2026-01-07 14:23:02.01	126.46	64.42	-40.2	-41.0	24.6	0.00e+00	2	35	101	1048576	58	6134
2026-01-07 14:23:03.02	127.49	64.26	-39.9	-40.7	24.8	0.00e+00	92	35	101	1048576	58	5964
2026-01-07 14:23:04.03	128.50	64.10	-39.5	-40.3	25.3	0.00e+00	2	35	101	1048576	58	5646
2026-01-07 14:23:05.04	129.49	63.93	-38.8	-39.5	26.0	0.00e+00	44	35	101	1048576	56	5827
2026-01-07 14:23:06.05	130.47	63.75	-38.6	-39.3	25.9	0.00e+00	0	35	101	1048576	56	5666
2026-01-07 14:23:07.06	131.44	63.57	-39.3	-40.1	25.5	0.00e+00	0	35	101	1048576	56	6203
2026-01-07 14:23:08.08	132.40	63.38	-39.0	-39.8	26.0	0.00e+00	0	35	101	1048576	56	6011
2026-01-07 14:23:09.09	133.33	63.18	-36.6	-37.3	27.6	0.00e+00	0	35	101	1048576	52	5657
2026-01-07 14:23:10.10	134.26	62.98	-36.4	-37.0	27.6	0.00e+00	92	35	101	1048576	52	5496
2026-01-07 14:23:11.11	135.16	62.78	-37.0	-37.7	27.0	0.00e+00	0	35	101	1048576	52	5904
2026-01-07 14:23:12.12	136.05	62.57	-37.3	-38.0	27.1	0.00e+00	92	35	101	1048576	52	6157
2026-01-07 14:23:13.13	136.92	62.35	-36.9	-37.6	27.4	0.00e+00	75	35	101	1048576	52	5864
2026-01-07 14:23:14.14	137.78	62.13	-37.0	-37.7	27.2	0.00e+00	0	35	101	1048576	52	5920
2026-01-07 14:23:15.15	138.63	61.91	-37.3	-38.0	27.0	0.00e+00	0	35	101	1048576	52	6134
2026-01-07 14:23:16.16	139.45	61.68	-37.7	-38.4	26.8	0.00e+00	2	35	101	1048576	52	6432
2026-01-07 14:23:17.18	140.27	61.44	-38.3	-39.0	26.2	0.00e+00	92	35	101	1048576	54	6135
2026-01-07 14:23:18.18	141.06	61.21	-39.1	-39.8	25.7	0.00e+00	1	35	101	1048576	54	6762
2026-01-07 14:23:19.20	141.85	60.96	-39.0	-39.7	25.7	0.00e+00	91	35	101	1048576	54	6688
2026-01-07 14:23:20.21	142.62	60.72	-39.2	-39.9	25.4	0.00e+00	0	35	101	1048576	54	6846
2026-01-07 14:23:21.22	143.37	60.47	-40.5	-41.3	24.4	0.00e+00	0	35	101	1048576	58	6386
2026-01-07 14:23:22.23	144.11	60.22	-41.0	-41.9	23.7	0.00e+00	0	35	101	1048576	60	6093
2026-01-07 14:23:23.24	144.84	59.96	-40.8	-41.7	24.2	0.00e+00	0	35	101	1048576	60	5913
2026-01-07 14:23:24.25	145.55	59.71	-40.0	-40.8	24.9	0.00e+00	91	35	101	1048576	58	6014
2026-01-07 14:23:25.26	146.24	59.44	-40.2	-41.0	24.8	0.00e+00	0	35	101	1048576	58	6128
2026-01-07 14:23:26.27	146.92	59.18	-40.4	-41.3	24.4	0.00e+00	90	35	101	1048576	58	6346
2026-01-07 14:23:27.28	147.59	58.92	-40.5	-41.4	24.4	0.00e+00	79	35	101	1048576	58	6420
2026-01-07 14:23:28.29	148.25	58.65	-39.8	-40.6	24.6	0.00e+00	43	35	101	1048576	58	5884
2026-01-07 14:23:29.31	148.90	58.38	-39.1	-39.9	25.6	0.00e+00	0	35	101	1048576	56	6060
2026-01-07 14:23:30.31	149.52	58.11	-39.2	-40.0	25.5	0.00e+00	0	35	101	1048576	56	6123
2026-01-07 14:23:31.33	150.14	57.83	-39.1	-39.8	25.7	0.00e+00	79	35	101	1048576	56	6032
2026-01-07 14:23:32.34	150.75	57.55	-38.3	-39.1	26.4	0.00e+00	78	35	101	1048576	56	5518
2026-01-07 14:23:33.35	151.34	57.28	-38.1	-38.8	26.4	0.00e+00	92	35	101	1048576	54	6008
2026-01-07 14:23:34.36	151.92	57.00	-38.2	-38.9	26.4	0.00e+00	77	35	101	1048576	54	6085
2026-01-07 14:23:35.37	152.49	56.72	-38.1	-38.8	26.5	0.00e+00	92	35	101	1048576	54	6032
2026-01-07 14:23:36.38	153.04	56.44	-38.0	-38.7	26.5	0.00e+00	5	35	101	1048576	54	5955
2026-01-07 14:23:37.39	153.59	56.15	-38.3	-39.0	26.3	0.00e+00	8	35	101	1048576	54	6139
2026-01-07 14:23:38.40	154.13	55.87	-38.6	-39.4	26.1	0.00e+00	0	35	101	1048576	54	6403
2026-01-07 14:23:39.41	154.65	55.59	-38.4	-39.2	26.1	0.00e+00	5	35	101	1048576	54	6268
2026-01-07 14:23:40.42	155.16	55.30	-38.1	-38.9	26.5	0.00e+00	90	35	101	1048576	54	6047
2026-01-07 14:23:41.43	155.67	55.02	-38.2	-38.9	26.2	0.00e+00	0	35	101	1048576	54	6087
2026-01-07 14:23:42.44	156.16	54.73	-38.3	-39.1	26.3	0.00e+00	92	35	101	1048576	54	6184
2026-01-07 14:23:43.45	156.65	54.44	-38.3	-39.0	26.3	0.00e+00	6	35	101	1048576	54	6139
2026-01-07 14:23:44.47	157.13	54.15	-37.9	-38.6	26.5	0.00e+00	6	35	101	1048576	54	5881
2026-01-07 14:23:45.48	157.59	53.87	-38.5	-39.3	26.1	0.00e+00	0	35	101	1048576	54	6337
2026-01-07 14:23:46.49	158.05	53.58	-39.8	-40.6	25.0	0.00e+00	79	35	101	1048576	56	6587
2026-01-07 14:23:47.50	158.50	53.29	-39.8	-40.6	25.1	0.00e+00	90	35	101	1048576	56	6567
2026-01-07 14:23:48.51	158.93	53.00	-39.4	-40.2	25.3	0.00e+00	0	35	101	1048576	56	6294
2026-01-07 14:23:49.52	159.36	52.72	-38.9	-39.7	25.9	0.00e+00	90	35	101	1048576	56	5925
2026-01-07 14:23:50.53	159.79	52.43	-38.6	-39.3	26.0	0.00e+00	78	35	101	1048576	56	5674
2026-01-07 14:23:51.54	160.20	52.14	-38.9	-39.6	25.8	0.00e+00	15	35	101	1048576	56	5892
2026-01-07 14:23:52.55	160.61	51.85	-39.5	-40.2	25.4	0.00e+00	7	35	101	1048576	56	6305
2026-01-07 14:23:53.56	161.01	51.57	-40.1	-41.0	24.4	0.00e+00	5	35	101	1048576	56	6858
2026-01-07 14:23:54.57	161.40	51.28	-41.1	-42.0	23.4	0.00e+00	57	35	101	1048576	58	6885
2026-01-07 14:23:55.58	161.78	50.99	-41.0	-41.9	24.1	0.00e+00	12	35	101	1048576	60	6098
2026-01-07 14:23:56.60	162.16	50.70	-40.9	-41.8	24.1	0.00e+00	92	34	101	1048576	60	5996
2026-01-07 14:23:57.61	162.53	50.42	-40.5	-41.3	24.4	0.00e+00	8	35	101	1048576	60	5652
2026-01-07 14:23:58.62	162.89	50.13	-40.8	-41.7	24.2	0.00e+00	90	35	101	1048576	60	5921
2026-01-07 14:23:59.63	163.25	49.85	-42.1	-43.1	23.0	0.00e+00	8	35	101	1048576	60	6943
2026-01-07 14:24:00.64	163.60	49.57	-43.3	-44.4	21.6	0.00e+00	0	35	101	1048576	60	8131
2026-01-07 14:24:01.65	163.94	49.28	-44.3	-45.6	20.6	0.00e+00	0	35	101	1048576	60	9278
2026-01-07 14:24:02.66	164.28	49.00	-44.9	-46.3	19.9	0.00e+00	6	35	101	1048576	60	10075
2026-01-07 14:24:03.67	164.61	48.72	-44.8	-46.3	20.2	0.00e+00	92	35	101	1048576	60	10102
2026-01-07 14:24:04.68	164.93	48.44	-43.8	-45.0	21.2	0.00e+00	72	35	101	1048576	60	8720
2026-01-07 14:24:05.69	165.25	48.16	-43.3	-44.5	21.8	0.00e+00	91	35	101	1048576	60	8140
2026-01-07 14:24:06.70	165.57	47.88	-43.0	-44.1	22.0	0.00e+00	78	35	101	1048576	60	7859
2026-01-07 14:24:07.71	165.88	47.60	-44.5	-45.9	20.1	0.00e+00	0	35	101	1048576	60	9617
2026-01-07 14:24:08.73	166.18	47.32	-46.8	-49.1	16.9	0.00e+00	43	35	101	1048576	60	13936
2026-01-07 14:24:09.74	166.48	47.05	-45.9	-48.0	18.5	0.00e+00	71	35	101	1048576	60	12237
2026-01-07 14:24:10.75	166.77	46.77	-43.5	-44.8	21.6	0.00e+00	92	35	101	1048576	60	8479
2026-01-07 14:24:11.76	167.06	46.50	-42.7	-43.8	22.3	0.00e+00	72	35	101	1048576	60	7576
2026-01-07 14:24:12.77	167.34	46.23	-41.8	-42.7	23.4	0.00e+00	92	35	101	1048576	60	6664
2026-01-07 14:24:13.78	167.62	45.95	-41.1	-42.0	24.0	0.00e+00	73	35	101	1048576	60	6152
2026-01-07 14:24:14.79	167.89	45.68	-41.6	-42.5	23.4	0.00e+00	0	35	101	1048576	60	6518
2026-01-07 14:24:15.80	168.16	45.41	-42.2	-43.3	22.8	0.00e+00	0	35	101	1048576	60	7115
2026-01-07 14:24:16.81	168.42	45.15	-42.8	-43.9	22.2	0.00e+00	0	35	101	1048576	60	7607
2026-01-07 14:24:18.09	168.75	44.81	-43.2	-44.3	21.9	0.00e+00	39	35	101	1048576	60	8038
2026-01-07 14:24:18.81	168.93	44.62	-43.1	-44.2	22.0	0.00e+00	78	35	101	1048576	60	7948
2026-01-07 14:24:20.11	169.26	44.28	-41.1	-42.0	23.9	0.00e+00	92	35	101	1048576	60	6165
2026-01-07 14:24:20.83	169.43	44.09	-40.1	-40.9	24.8	0.00e+00	10	35	101	1048576	60	5431
2026-01-07 14:24:22.13	169.75	43.75	-39.7	-40.5	25.3	0.00e+00	38	35	101	1048576	58	5768
2026-01-07 14:24:22.85	169.92	43.57	-39.4	-40.2	24.9	0.00e+00	7	35	101	1048576	58	5586
2026-01-07 14:24:24.15	170.22	43.23	-39.8	-40.6	25.0	0.00e+00	0	35	101	1048576	58	5887
2026-01-07 14:24:24.88	170.39	43.04	-40.5	-41.3	24.3	0.00e+00	7	35	101	1048576	58	6379
2026-01-07 14:24:26.18	170.68	42.71	-41.8	-42.8	22.9	0.00e+00	0	35	101	1048576	60	6739
2026-01-07 14:24:26.90	170.84	42.53	-41.7	-42.6	23.4	0.00e+00	0	35	101	1048576	60	6604
2026-01-07 14:24:28.20	171.12	42.20	-40.6	-41.5	24.4	0.00e+00	77	35	101	1048576	60	5778
2026-01-07 14:24:28.92	171.28	42.02	-40.5	-41.4	24.5	0.00e+00	92	35	101	1048576	60	5704
2026-01-07 14:24:30.22	171.55	41.70	-40.1	-40.9	25.0	0.00e+00	3	35	101	1048576	60	5432
2026-01-07 14:24:30.94	171.70	41.52	-39.5	-40.3	25.2	0.00e+00	92	35	101	1048576	58	5648
2026-01-07 14:24:32.24	171.97	41.20	-39.5	-40.2	25.4	0.00e+00	68	35	101	1048576	58	5625
2026-01-07 14:24:32.96	172.12	41.02	-39.8	-40.6	25.1	0.00e+00	0	35	101	1048576	58	5883
2026-01-07 14:24:34.26	172.38	40.70	-40.7	-41.6	24.2	0.00e+00	92	35	101	1048576	58	6561
2026-01-07 14:24:34.99	172.52	40.52	-41.4	-42.3	23.6	0.00e+00	0	35	101	1048576	60	6383
2026-01-07 14:24:36.29	172.77	40.21	-42.1	-43.1	23.0	0.00e+00	92	35	101	1048576	60	6998
2026-01-07 14:24:37.01	172.91	40.04	-41.9	-42.9	23.1	0.00e+00	4	35	101	1048576	60	6822
2026-01-07 14:24:38.31	173.16	39.73	-41.3	-42.2	23.8	0.00e+00	0	35	101	1048576	60	6297
2026-01-07 14:24:39.03	173.29	39.55	-40.9	-41.7	24.2	0.00e+00	7	35	101	1048576	60	5964
2026-01-07 14:24:40.33	173.53	39.25	-40.1	-40.9	24.9	0.00e+00	0	35	101	1048576	60	5407
2026-01-07 14:24:41.05	173.66	39.08	-39.8	-40.6	25.0	0.00e+00	7	35	101	1048576	58	5847
2026-01-07 14:24:42.35	173.89	38.77	-38.8	-39.5	26.0	0.00e+00	0	35	101	1048576	56	5809
2026-01-07 14:24:43.07	174.01	38.61	-38.8	-39.5	25.9	0.00e+00	91	35	101	1048576	56	5787
2026-01-07 14:24:44.37	174.24	38.30	-39.5	-40.3	25.2	0.00e+00	0	35	101	1048576	56	6350
2026-01-07 14:24:45.09	174.36	38.14	-40.3	-41.2	24.4	0.00e+00	92	35	101	1048576	58	6286
2026-01-07 14:24:46.40	174.58	37.84	-41.5	-42.4	23.6	0.00e+00	79	35	101	1048576	60	6453
2026-01-07 14:24:47.12	174.70	37.68	-41.8	-42.8	23.2	0.00e+00	92	35	101	1048576	60	6700
2026-01-07 14:24:48.42	174.91	37.38	-41.3	-42.3	23.7	0.00e+00	0	35	101	1048576	60	6319
2026-01-07 14:24:49.14	175.03	37.22	-41.1	-42.0	23.9	0.00e+00	0	35	101	1048576	60	6157
2026-01-07 14:24:50.44	175.23	36.93	-40.8	-41.7	24.2	0.00e+00	92	35	101	1048576	60	5911
2026-01-07 14:24:51.16	175.35	36.77	-40.9	-41.7	24.2	0.00e+00	0	35	101	1048576	60	5956
2026-01-07 14:24:52.46	175.55	36.48	-39.9	-40.7	25.0	0.00e+00	92	35	101	1048576	58	5955
2026-01-07 14:24:53.18	175.66	36.32	-40.0	-40.8	24.9	0.00e+00	76	35	101	1048576	58	5966
2026-01-07 14:24:54.48	175.85	36.04	-39.8	-40.5	25.1	0.00e+00	0	35	101	1048576	58	5815
2026-01-07 14:24:55.20	175.96	35.88	-39.5	-40.3	25.3	0.00e+00	5	35	101	1048576	58	5637
2026-01-07 14:24:56.50	176.15	35.60	-39.8	-40.6	25.0	0.00e+00	0	35	101	1048576	58	5848
2026-01-07 14:24:57.23	176.26	35.44	-40.2	-41.0	24.7	0.00e+00	11	35	101	1048576	58	6138
2026-01-07 14:24:58.52	176.44	35.17	-40.8	-41.7	24.1	0.00e+00	0	35	101	1048576	58	6647
2026-01-07 14:24:59.25	176.55	35.01	-40.9	-41.8	23.9	0.00e+00	92	35	101	1048576	58	6727
2026-01-07 14:25:00.55	176.73	34.74	-41.3	-42.2	23.7	0.00e+00	76	35	101	1048576	60	6301
2026-01-07 14:25:01.27	176.83	34.59	-41.3	-42.2	23.7	0.00e+00	92	35	101	1048576	60	6269
2026-01-07 14:25:02.57	177.00	34.32	-41.2	-42.2	23.7	0.00e+00	0	35	101	1048576	60	6255
2026-01-07 14:25:03.29	177.10	34.17	-41.4	-42.3	23.7	0.00e+00	26	35	101	1048576	60	6359
2026-01-07 14:25:04.59	177.27	33.90	-41.2	-42.2	23.8	0.00e+00	92	35	101	1048576	60	6253
2026-01-07 14:25:05.31	177.37	33.75	-41.4	-42.3	23.7	0.00e+00	0	35	101	1048576	60	6364
2026-01-07 14:25:06.61	177.54	33.49	-41.5	-42.4	23.6	0.00e+00	90	35	101	1048576	60	6441
2026-01-07 14:25:07.33	177.63	33.34	-41.4	-42.4	23.6	0.00e+00	0	35	101	1048576	60	6402
2026-01-07 14:25:08.63	177.79	33.08	-41.6	-42.6	23.4	0.00e+00	73	35	101	1048576	60	6559
2026-01-07 14:25:09.36	177.88	32.94	-41.7	-42.6	23.4	0.00e+00	72	35	101	1048576	60	6588
2026-01-07 14:25:10.66	178.04	32.68	-41.4	-42.3	23.7	0.00e+00	11	35	101	1048576	60	6340
2026-01-07 14:25:11.38	178.13	32.54	-41.3	-42.2	23.7	0.00e+00	0	35	101	1048576	60	6306
2026-01-07 14:25:12.68	178.29	32.28	-41.4	-42.3	23.7	0.00e+00	11	35	101	1048576	60	6373
2026-01-07 14:25:13.40	178.37	32.14	-41.3	-42.2	23.7	0.00e+00	40	35	101	1048576	60	6260
2026-01-07 14:25:14.70	178.53	31.89	-41.4	-42.3	23.7	0.00e+00	0	35	101	1048576	60	6348
2026-01-07 14:25:15.42	178.61	31.75	-41.6	-42.6	23.4	0.00e+00	92	35	101	1048576	60	6542
2026-01-07 14:25:16.72	178.76	31.50	-41.8	-42.8	23.2	0.00e+00	0	35	101	1048576	60	6709
2026-01-07 14:25:17.44	178.84	31.36	-41.9	-42.9	23.0	0.00e+00	92	35	101	1048576	60	6811
2026-01-07 14:25:18.74	178.99	31.12	-42.2	-43.2	22.7	0.00e+00	0	35	101	1048576	60	7061
2026-01-07 14:25:19.46	179.07	30.98	-42.4	-43.4	22.6	0.00e+00	4	35	101	1048576	60	7192
2026-01-07 14:25:20.76	179.21	30.74	-42.5	-43.6	22.5	0.00e+00	92	35	101	1048576	60	7359
2026-01-07 14:25:21.49	179.29	30.60	-42.4	-43.5	22.5	0.00e+00	0	35	101	1048576	60	7272
2026-01-07 14:25:22.78	179.43	30.36	-42.4	-43.5	22.7	0.00e+00	90	35	101	1048576	60	7255
2026-01-07 14:25:23.51	179.51	30.23	-42.1	-43.1	23.0	0.00e+00	0	35	101	1048576	60	6967
2026-01-07 14:25:24.80	179.64	29.99	-41.7	-42.6	23.4	0.00e+00	13	35	101	1048576	60	6588
2026-01-07 14:25:25.53	179.72	29.86	-41.5	-42.4	23.5	0.00e+00	0	35	101	1048576	60	6461
2026-01-07 14:25:26.83	179.85	29.62	-41.2	-42.0	23.8	0.00e+00	74	35	101	1048576	60	6171
2026-01-07 14:25:27.55	179.93	29.49	-41.0	-41.9	23.9	0.00e+00	55	35	101	1048576	60	6054
2026-01-07 14:25:28.85	180.06	29.26	-41.2	-42.1	23.8	0.00e+00	6	35	101	1048576	60	6189
2026-01-07 14:25:29.57	180.13	29.13	-40.7	-41.6	24.2	0.00e+00	92	35	101	1048576	60	5855
2026-01-07 14:25:30.87	180.26	28.91	-40.9	-41.7	24.1	0.00e+00	7	35	101	1048576	60	5956
2026-01-07 14:25:31.60	180.33	28.78	-40.7	-41.5	24.3	0.00e+00	85	35	101	1048576	60	5825
2026-01-07 14:25:32.90	180.45	28.55	-40.7	-41.6	24.3	0.00e+00	7	35	101	1048576	60	5857
2026-01-07 14:25:33.62	180.52	28.43	-40.8	-41.7	24.2	0.00e+00	5	35	101	1048576	60	5903
2026-01-07 14:25:34.92	180.64	28.20	-41.0	-41.8	24.1	0.00e+00	92	35	101	1048576	60	6029
2026-01-07 14:25:35.64	180.71	28.08	-41.1	-42.0	23.9	0.00e+00	6	35	101	1048576	60	6148
2026-01-07 14:25:36.94	180.83	27.86	-41.2	-42.1	23.7	0.00e+00	92	35	101	1048576	60	6245
2026-01-07 14:25:37.66	180.90	27.73	-41.4	-42.3	23.6	0.00e+00	6	35	101	1048576	60	6376
2026-01-07 14:25:38.96	181.02	27.51	-41.5	-42.4	23.6	0.00e+00	70	35	101	1048576	60	6442
2026-01-07 14:25:39.69	181.08	27.39	-41.5	-42.4	23.4	0.00e+00	0	35	101	1048576	60	6454
2026-01-07 14:25:40.99	181.20	27.18	-41.2	-42.2	23.7	0.00e+00	69	35	101	1048576	60	6263
2026-01-07 14:25:41.71	181.26	27.06	-41.4	-42.3	23.7	0.00e+00	5	35	101	1048576	60	6353
2026-01-07 14:25:43.01	181.37	26.84	-40.9	-41.8	24.1	0.00e+00	11	35	101	1048576	60	5987
2026-01-07 14:25:43.73	181.43	26.72	-40.7	-41.6	24.2	0.00e+00	6	35	101	1048576	60	5871
2026-01-07 14:25:45.03	181.55	26.51	-40.5	-41.4	24.4	0.00e+00	70	35	101	1048576	60	5713
2026-01-07 14:25:45.75	181.61	26.40	-40.2	-41.0	24.6	0.00e+00	92	35	101	1048576	60	5479
2026-01-07 14:25:47.05	181.72	26.19	-39.9	-40.7	25.0	0.00e+00	2	35	101	1048576	58	5928
2026-01-07 14:25:47.77	181.77	26.07	-39.8	-40.6	25.0	0.00e+00	74	35	101	1048576	58	5873
2026-01-07 14:25:49.07	181.88	25.86	-39.5	-40.2	25.3	0.00e+00	0	35	101	1048576	58	5621
2026-01-07 14:25:49.79	181.94	25.75	-39.4	-40.2	25.4	0.00e+00	0	35	101	1048576	58	5576
2026-01-07 14:25:51.09	182.04	25.55	-39.3	-40.1	25.3	0.00e+00	92	35	101	1048576	58	5546
2026-01-07 14:25:51.82	182.10	25.43	-39.4	-40.1	25.2	0.00e+00	72	35	101	1048576	58	5554
2026-01-07 14:25:53.11	182.20	25.23	-39.4	-40.2	25.3	0.00e+00	90	35	101	1048576	58	5584
2026-01-07 14:25:53.84	182.26	25.12	-39.4	-40.2	25.2	0.00e+00	0	35	101	1048576	58	5613
2026-01-07 14:25:55.14	182.36	24.92	-39.5	-40.3	25.3	0.00e+00	0	35	101	1048576	58	5655
2026-01-07 14:25:55.86	182.42	24.81	-39.6	-40.4	25.1	0.00e+00	7	35	101	1048576	58	5755
2026-01-07 14:25:57.16	182.52	24.61	-39.7	-40.5	25.0	0.00e+00	67	35	101	1048576	58	5827
2026-01-07 14:25:57.88	182.57	24.50	-39.7	-40.5	25.1	0.00e+00	11	35	101	1048576	58	5806
2026-01-07 14:25:59.18	182.67	24.30	-39.8	-40.6	24.9	0.00e+00	74	35	101	1048576	58	5887
2026-01-07 14:25:59.90	182.72	24.20	-39.9	-40.7	24.8	0.00e+00	91	35	101	1048576	58	5955
2026-01-07 14:26:01.20	182.82	24.00	-39.8	-40.6	25.0	0.00e+00	6	35	101	1048576	58	5885
2026-01-07 14:26:01.93	182.87	23.90	-39.8	-40.6	25.0	0.00e+00	92	35	101	1048576	58	5866
2026-01-07 14:26:03.22	182.96	23.71	-39.6	-40.4	25.1	0.00e+00	0	35	101	1048576	58	5759
2026-01-07 14:26:03.95	183.01	23.60	-39.8	-40.6	25.0	0.00e+00	75	35	101	1048576	58	5888
2026-01-07 14:26:05.25	183.11	23.41	-39.7	-40.5	25.0	0.00e+00	92	35	101	1048576	58	5790
2026-01-07 14:26:05.97	183.16	23.30	-39.7	-40.5	25.0	0.00e+00	0	35	101	1048576	58	5814
2026-01-07 14:26:07.27	183.25	23.12	-39.5	-40.3	25.1	0.00e+00	90	35	101	1048576	58	5656
2026-01-07 14:26:07.99	183.30	23.01	-39.6	-40.4	25.2	0.00e+00	0	35	101	1048576	58	5699
2026-01-07 14:26:09.29	183.39	22.83	-39.4	-40.2	25.3	0.00e+00	92	35	101	1048576	58	5621
2026-01-07 14:26:10.01	183.43	22.73	-39.5	-40.2	25.3	0.00e+00	69	35	101	1048576	58	5627
2026-01-07 14:26:11.31	183.52	22.54	-39.4	-40.2	25.3	0.00e+00	0	35	101	1048576	58	5596
2026-01-07 14:26:12.04	183.57	22.44	-39.4	-40.1	25.3	0.00e+00	68	35	101	1048576	58	5563
2026-01-07 14:26:13.34	183.66	22.26	-39.4	-40.2	25.3	0.00e+00	0	35	101	1048576	58	5607
2026-01-07 14:26:14.06	183.70	22.16	-39.6	-40.4	25.1	0.00e+00	0	35	101	1048576	58	5697
2026-01-07 14:26:15.36	183.79	21.98	-39.4	-40.2	25.2	0.00e+00	0	35	101	1048576	58	5577
2026-01-07 14:26:16.08	183.83	21.88	-39.5	-40.3	25.1	0.00e+00	92	35	101	1048576	58	5662
2026-01-07 14:26:17.38	183.92	21.70	-39.3	-40.1	25.1	0.00e+00	74	35	101	1048576	58	5548
2026-01-07 14:26:18.10	183.96	21.60	-39.4	-40.2	25.2	0.00e+00	92	35	101	1048576	58	5569
2026-01-07 14:26:19.40	184.04	21.43	-39.4	-40.2	25.2	0.00e+00	0	35	101	1048576	58	5625
2026-01-07 14:26:20.12	184.09	21.33	-39.4	-40.2	25.2	0.00e+00	0	35	101	1048576	58	5600
2026-01-07 14:26:21.42	184.17	21.16	-39.5	-40.3	25.2	0.00e+00	90	35	101	1048576	58	5664
2026-01-07 14:26:22.15	184.21	21.06	-39.6	-40.4	25.0	0.00e+00	73	35	101	1048576	58	5742
2026-01-07 14:26:23.45	184.29	20.89	-39.6	-40.4	25.1	0.00e+00	92	35	101	1048576	58	5737
2026-01-07 14:26:24.17	184.34	20.79	-39.6	-40.4	25.0	0.00e+00	75	35	101	1048576	58	5742
2026-01-07 14:26:25.47	184.41	20.62	-39.6	-40.4	25.0	0.00e+00	0	35	101	1048576	58	5735
2026-01-07 14:26:26.19	184.46	20.53	-39.7	-40.5	24.8	0.00e+00	74	35	101	1048576	58	5806
2026-01-07 14:26:27.49	184.53	20.36	-39.7	-40.5	24.6	0.00e+00	0	35	101	1048576	58	5810
2026-01-07 14:26:28.21	184.58	20.27	-39.7	-40.5	24.6	0.00e+00	7	35	101	1048576	58	5803
2026-01-07 14:26:29.51	184.65	20.10	-39.6	-40.4	24.9	0.00e+00	0	35	101	1048576	58	5747
2026-01-07 14:26:30.24	184.69	20.01	-39.6	-40.5	24.9	0.00e+00	0	35	101	1048576	58	5769
2026-01-07 14:26:31.54	184.77	19.84	-39.7	-40.5	25.0	0.00e+00	0	35	101	1048576	58	5778
2026-01-07 14:26:32.26	184.81	19.75	-39.7	-40.5	24.9	0.00e+00	92	35	101	1048576	58	5777
2026-01-07 14:26:33.56	184.88	19.58	-39.7	-40.5	25.0	0.00e+00	70	35	101	1048576	58	5804
2026-01-07 14:26:34.28	184.92	19.49	-39.5	-40.3	25.0	0.00e+00	90	35	101	1048576	58	5677
