passes_logs/2026/01/07/R4.6S_Anadyr_2ch/R4.6S_Anadyr_2ch__20260107_043519_FENGYUN_3E_rec.log

#Pass ID: 20260107_043519_FENGYUN 3E
#Satellite: FENGYUN 3E
#Configuration: FENGYUN 3E
#almurnet v.1.7.20251203
#Start time: 2026-01-07 04:35:20

#Version: 2.2.20231116
#Station: R4.6S_Anadyr_2ch
#Location: 177.4865 lon 64.73178 lat
#TLE: 1 49008U 21062A   25350.97288215  .00000176  00000+0  10353-3 0  9997
#TLE: 2 49008  98.7477 351.4440 0000638 234.3856 125.7261 14.19881381230726

#Time	Az	El	Level	Level2	SNR	BER	BlckErr	Temp	State	Recorded	gain1	gain2
2026-01-07 04:35:20.71	158.54	0.10	-46.6	-64.4	3.5	3.04e+01	0	29	0	0	60	85812
2026-01-07 04:35:21.71	158.54	0.16	-51.0	-62.5	3.6	8.46e-01	0	30	104	0	60	65480
2026-01-07 04:35:22.72	158.55	0.22	-51.0	-62.5	3.6	8.46e-01	0	30	104	0	60	65983
2026-01-07 04:35:23.74	158.56	0.28	-51.0	-62.5	3.6	8.46e-01	0	31	104	0	60	65940
2026-01-07 04:35:24.75	158.56	0.34	-51.0	-62.5	3.6	8.46e-01	0	31	104	0	60	65568
2026-01-07 04:35:25.75	158.57	0.40	-51.1	-62.6	3.6	8.44e-01	0	30	104	0	60	66441
2026-01-07 04:35:26.76	158.57	0.46	-51.2	-62.6	3.6	8.45e-01	0	31	104	0	60	66784
2026-01-07 04:35:27.77	158.58	0.52	-51.1	-62.6	3.6	8.44e-01	0	31	104	0	60	66568
2026-01-07 04:35:28.78	158.59	0.59	-51.2	-62.7	3.6	8.46e-01	0	31	104	0	60	67068
2026-01-07 04:35:29.80	158.59	0.65	-51.2	-62.7	3.6	8.46e-01	0	31	104	0	60	67446
2026-01-07 04:35:30.80	158.60	0.71	-51.2	-62.7	3.6	8.44e-01	0	31	104	0	60	67515
2026-01-07 04:35:31.81	158.61	0.77	-51.3	-62.7	3.6	8.44e-01	0	31	104	0	60	67609
2026-01-07 04:35:32.82	158.61	0.83	-51.3	-62.8	3.6	8.46e-01	0	31	104	0	60	68168
2026-01-07 04:35:33.83	158.62	0.90	-51.2	-62.7	3.6	8.46e-01	0	31	104	0	60	67510
2026-01-07 04:35:34.84	158.63	0.96	-51.0	-62.5	3.6	8.45e-01	0	31	104	0	60	66014
2026-01-07 04:35:35.84	158.63	1.02	-51.0	-62.5	3.6	8.46e-01	0	31	104	0	60	65748
2026-01-07 04:35:36.86	158.64	1.08	-50.9	-62.4	3.6	8.45e-01	0	31	104	0	60	64803
2026-01-07 04:35:37.86	158.65	1.15	-50.7	-62.2	3.6	8.45e-01	0	31	104	0	60	63242
2026-01-07 04:35:38.87	158.65	1.21	-49.7	-61.1	3.6	8.47e-01	0	31	104	0	60	55798
2026-01-07 04:35:39.88	158.66	1.27	-50.0	-61.4	3.6	8.45e-01	0	31	104	0	60	57714
2026-01-07 04:35:40.89	158.66	1.34	-49.8	-61.2	3.6	8.45e-01	0	31	104	0	60	56618
2026-01-07 04:35:41.90	158.67	1.40	-49.8	-61.1	3.6	8.44e-01	0	31	104	0	60	56247
2026-01-07 04:35:42.91	158.68	1.46	-49.8	-61.2	3.6	8.45e-01	0	31	104	0	60	56369
2026-01-07 04:35:43.92	158.68	1.53	-49.8	-61.2	3.6	8.46e-01	0	31	104	0	60	56788
2026-01-07 04:35:44.92	158.69	1.59	-49.8	-61.2	3.6	8.46e-01	0	31	104	0	60	56886
2026-01-07 04:35:45.93	158.70	1.65	-49.8	-61.2	3.6	8.46e-01	0	31	104	0	60	56363
2026-01-07 04:35:46.94	158.70	1.72	-49.8	-61.2	3.6	8.45e-01	0	31	104	0	60	56351
2026-01-07 04:35:47.95	158.71	1.78	-49.8	-61.1	3.6	8.46e-01	0	31	104	0	60	56303
2026-01-07 04:35:48.96	158.72	1.85	-49.8	-61.1	3.6	8.47e-01	0	31	104	0	60	55875
2026-01-07 04:35:49.96	158.72	1.91	-49.8	-61.1	3.6	8.44e-01	0	31	104	0	60	55665
2026-01-07 04:35:50.97	158.73	1.97	-49.8	-60.9	3.6	8.46e-01	0	31	104	0	60	54472
2026-01-07 04:35:51.98	158.74	2.04	-49.8	-60.8	3.6	8.46e-01	0	31	104	0	60	54168
2026-01-07 04:35:52.99	158.74	2.10	-49.7	-60.7	3.6	8.46e-01	0	31	104	0	60	53311
2026-01-07 04:35:54.00	158.75	2.17	-49.7	-60.6	3.6	8.45e-01	0	31	104	0	60	52863
2026-01-07 04:35:55.01	158.76	2.24	-49.7	-60.6	3.6	8.46e-01	0	31	104	0	60	52904
2026-01-07 04:35:56.02	158.76	2.30	-49.7	-60.6	3.6	8.45e-01	0	31	104	0	60	52931
2026-01-07 04:35:57.03	158.77	2.37	-49.7	-60.8	3.6	8.45e-01	0	31	104	0	60	53995
2026-01-07 04:35:58.04	158.78	2.43	-49.8	-60.9	3.6	8.44e-01	0	31	104	0	60	54940
2026-01-07 04:35:59.05	158.78	2.50	-49.8	-61.0	3.6	8.46e-01	0	31	104	0	60	55357
2026-01-07 04:36:00.05	158.79	2.56	-49.8	-61.1	3.6	8.44e-01	0	31	104	0	60	55676
2026-01-07 04:36:01.07	158.80	2.63	-49.8	-61.0	3.6	8.45e-01	0	31	104	0	60	55504
2026-01-07 04:36:02.07	158.81	2.70	-49.8	-61.0	3.6	8.45e-01	0	31	104	0	60	55409
2026-01-07 04:36:03.08	158.81	2.76	-49.8	-60.8	3.6	8.45e-01	0	31	104	0	60	54293
2026-01-07 04:36:04.09	158.82	2.83	-49.7	-60.7	3.6	8.45e-01	0	31	104	0	60	53283
2026-01-07 04:36:05.10	158.83	2.90	-49.7	-60.2	3.6	8.46e-01	0	31	104	0	60	50198
2026-01-07 04:36:06.11	158.83	2.96	-49.6	-59.8	3.5	8.46e-01	0	31	104	0	60	48107
2026-01-07 04:36:07.12	158.84	3.03	-49.6	-59.3	3.6	8.46e-01	0	31	104	0	60	45501
2026-01-07 04:36:08.13	158.85	3.10	-49.6	-59.2	3.7	8.45e-01	0	31	104	0	60	45044
2026-01-07 04:36:09.13	158.85	3.16	-49.6	-59.3	3.6	8.45e-01	0	31	104	0	60	45500
2026-01-07 04:36:10.15	158.86	3.23	-49.7	-60.1	3.6	8.46e-01	0	31	104	0	60	50014
2026-01-07 04:36:11.15	158.87	3.30	-49.7	-60.7	3.6	8.44e-01	0	31	104	0	60	53686
2026-01-07 04:36:12.16	158.87	3.37	-49.6	-59.9	3.6	8.44e-01	0	31	104	0	60	48803
2026-01-07 04:36:13.17	158.88	3.44	-49.3	-57.2	3.9	8.42e-01	0	31	104	0	60	35602
2026-01-07 04:36:14.18	158.89	3.50	-48.4	-52.8	6.6	2.89e-01	0	31	0	0	60	21644
2026-01-07 04:36:15.19	158.90	3.57	-47.2	-50.2	9.6	3.23e-02	0	31	102	1048576	60	16032
2026-01-07 04:36:16.20	158.90	3.64	-45.8	-48.0	12.1	1.41e-03	0	31	102	1048576	60	12322
2026-01-07 04:36:17.21	158.91	3.71	-44.5	-46.2	14.1	3.40e-06	0	31	102	1048576	60	10064
2026-01-07 04:36:18.22	158.92	3.78	-43.3	-44.7	15.7	0.00e+00	0	31	102	1048576	60	8449
2026-01-07 04:36:19.23	158.92	3.85	-42.5	-43.7	16.7	0.00e+00	0	31	102	1048576	60	7552
2026-01-07 04:36:20.23	158.93	3.92	-41.8	-42.9	17.4	0.00e+00	0	31	102	1048576	60	6921
2026-01-07 04:36:21.24	158.94	3.99	-41.6	-42.6	17.7	0.00e+00	0	31	102	1048576	60	6684
2026-01-07 04:36:22.25	158.95	4.06	-41.6	-42.7	17.7	0.00e+00	0	31	102	1048576	60	6739
2026-01-07 04:36:23.26	158.95	4.13	-41.8	-42.9	17.4	0.00e+00	0	31	102	1048576	60	6873
2026-01-07 04:36:24.27	158.96	4.20	-42.9	-44.2	16.3	0.00e+00	0	31	102	1048576	60	8006
2026-01-07 04:36:25.27	158.97	4.27	-47.4	-51.0	5.4	8.45e-01	0	31	104	1048576	60	17440
2026-01-07 04:36:26.28	158.97	4.34	-38.3	-39.1	19.3	2.59e-01	0	31	104	1048576	54	6271
2026-01-07 04:36:27.29	158.98	4.41	-49.7	-59.2	4.8	8.46e-01	0	31	104	1048576	60	44985
2026-01-07 04:36:28.30	158.99	4.48	-39.7	-40.5	19.2	1.35e-01	0	31	104	1048576	60	5208
2026-01-07 04:36:29.31	159.00	4.55	-49.2	-55.5	4.7	8.24e-01	0	31	0	1048576	60	29472
2026-01-07 04:36:30.31	159.00	4.62	-40.7	-41.7	18.9	0.00e+00	0	31	0	1048576	60	5995
2026-01-07 04:36:31.32	159.01	4.69	-38.8	-39.6	20.9	0.00e+00	0	31	0	1048576	56	5962
2026-01-07 04:36:32.33	159.02	4.76	-37.3	-38.0	22.2	0.00e+00	0	31	0	1048576	54	5563
2026-01-07 04:36:33.34	159.03	4.84	-36.9	-37.6	22.7	0.00e+00	0	31	0	1048576	52	5923
2026-01-07 04:36:34.35	159.03	4.91	-37.0	-37.7	22.6	0.00e+00	0	31	101	1048576	52	6002
2026-01-07 04:36:35.36	159.04	4.98	-36.9	-37.6	22.7	0.00e+00	0	31	101	1048576	52	5936
2026-01-07 04:36:36.37	159.05	5.05	-36.8	-37.5	22.8	0.00e+00	0	31	101	1048576	52	5851
2026-01-07 04:36:37.37	159.06	5.12	-36.7	-37.4	22.8	0.00e+00	0	31	101	1048576	52	5815
2026-01-07 04:36:38.38	159.06	5.20	-36.8	-37.5	22.9	0.00e+00	0	31	101	1048576	52	5872
2026-01-07 04:36:39.39	159.07	5.27	-36.8	-37.5	22.8	0.00e+00	0	31	101	1048576	52	5842
2026-01-07 04:36:40.40	159.08	5.34	-36.8	-37.5	22.9	0.00e+00	0	31	101	1048576	52	5844
2026-01-07 04:36:41.41	159.09	5.42	-36.8	-37.5	22.9	0.00e+00	0	31	101	1048576	52	5880
2026-01-07 04:36:42.41	159.09	5.49	-36.6	-37.3	23.1	0.00e+00	0	31	101	1048576	52	5704
2026-01-07 04:36:43.43	159.10	5.56	-36.8	-37.5	22.9	0.00e+00	0	31	101	1048576	52	5857
2026-01-07 04:36:44.43	159.11	5.64	-36.7	-37.4	23.0	0.00e+00	0	31	101	1048576	52	5808
2026-01-07 04:36:45.44	159.12	5.71	-36.8	-37.5	23.0	0.00e+00	0	31	101	1048576	52	5850
2026-01-07 04:36:46.45	159.13	5.79	-36.9	-37.6	22.9	0.00e+00	0	31	101	1048576	52	5921
2026-01-07 04:36:47.46	159.13	5.86	-36.6	-37.3	23.1	0.00e+00	0	31	101	1048576	52	5752
2026-01-07 04:36:48.47	159.14	5.93	-36.3	-37.0	23.3	0.00e+00	0	31	101	1048576	52	5510
2026-01-07 04:36:49.47	159.15	6.01	-36.4	-37.1	23.3	0.00e+00	0	32	101	1048576	52	5609
2026-01-07 04:36:50.49	159.16	6.09	-36.5	-37.2	23.1	0.00e+00	0	31	101	1048576	52	5675
2026-01-07 04:36:51.49	159.16	6.16	-36.8	-37.5	22.9	0.00e+00	0	31	101	1048576	52	5877
2026-01-07 04:36:52.50	159.17	6.24	-36.8	-37.5	22.9	0.00e+00	0	31	101	1048576	52	5848
2026-01-07 04:36:53.51	159.18	6.31	-36.7	-37.4	22.9	0.00e+00	0	31	101	1048576	52	5810
2026-01-07 04:36:54.52	159.19	6.39	-36.6	-37.3	23.1	0.00e+00	0	31	101	1048576	52	5725
2026-01-07 04:36:55.53	159.20	6.46	-36.9	-37.6	22.9	0.00e+00	0	31	101	1048576	52	5927
2026-01-07 04:36:56.54	159.20	6.54	-36.6	-37.3	23.3	0.00e+00	0	31	101	1048576	52	5707
2026-01-07 04:36:57.54	159.21	6.62	-36.5	-37.2	23.3	0.00e+00	0	31	101	1048576	52	5675
2026-01-07 04:36:58.55	159.22	6.69	-36.3	-37.0	23.5	0.00e+00	0	31	101	1048576	52	5515
2026-01-07 04:36:59.56	159.23	6.77	-36.2	-36.9	23.6	0.00e+00	0	32	101	1048576	52	5486
2026-01-07 04:37:00.57	159.24	6.85	-36.3	-37.0	23.5	0.00e+00	0	31	101	1048576	52	5508
2026-01-07 04:37:01.58	159.24	6.93	-36.1	-36.8	23.7	0.00e+00	0	32	101	1048576	52	5412
2026-01-07 04:37:02.59	159.25	7.00	-36.1	-36.8	23.7	0.00e+00	0	31	101	1048576	52	5380
2026-01-07 04:37:03.59	159.26	7.08	-36.1	-36.8	23.7	0.00e+00	0	31	101	1048576	50	6072
2026-01-07 04:37:04.60	159.27	7.16	-35.9	-36.6	23.8	0.00e+00	0	31	101	1048576	50	5931
2026-01-07 04:37:05.61	159.28	7.24	-35.8	-36.5	24.0	0.00e+00	0	32	101	1048576	50	5872
2026-01-07 04:37:06.62	159.28	7.32	-35.9	-36.6	23.8	0.00e+00	0	32	101	1048576	50	5907
2026-01-07 04:37:07.63	159.29	7.40	-35.9	-36.6	24.0	0.00e+00	0	32	101	1048576	50	5915
2026-01-07 04:37:08.63	159.30	7.48	-35.9	-36.6	24.0	0.00e+00	0	32	101	1048576	50	5942
2026-01-07 04:37:09.64	159.31	7.56	-35.9	-36.5	24.0	0.00e+00	0	32	101	1048576	50	5885
2026-01-07 04:37:10.65	159.32	7.64	-35.8	-36.5	24.0	0.00e+00	0	32	101	1048576	50	5840
2026-01-07 04:37:11.66	159.33	7.72	-35.8	-36.5	24.0	0.00e+00	0	32	101	1048576	50	5831
2026-01-07 04:37:12.67	159.33	7.80	-35.8	-36.5	24.1	0.00e+00	0	32	101	1048576	50	5836
2026-01-07 04:37:13.68	159.34	7.88	-35.7	-36.4	24.1	0.00e+00	0	32	101	1048576	50	5802
2026-01-07 04:37:14.69	159.35	7.96	-35.7	-36.4	24.1	0.00e+00	0	31	101	1048576	50	5798
2026-01-07 04:37:15.70	159.36	8.04	-36.0	-36.7	23.8	0.00e+00	0	31	101	1048576	50	5996
2026-01-07 04:37:16.71	159.37	8.12	-36.0	-36.6	24.0	0.00e+00	0	32	101	1048576	50	5954
2026-01-07 04:37:17.72	159.38	8.20	-35.8	-36.4	24.2	0.00e+00	0	32	101	1048576	50	5825
2026-01-07 04:37:18.73	159.39	8.28	-35.6	-36.2	24.2	0.00e+00	0	32	101	1048576	50	5682
2026-01-07 04:37:19.74	159.39	8.37	-35.6	-36.3	24.3	0.00e+00	0	31	101	1048576	50	5723
2026-01-07 04:37:20.76	159.40	8.45	-35.7	-36.4	24.2	0.00e+00	0	32	101	1048576	50	5773
2026-01-07 04:37:21.77	159.41	8.53	-35.5	-36.2	24.3	0.00e+00	0	32	101	1048576	50	5651
2026-01-07 04:37:22.78	159.42	8.62	-35.5	-36.2	24.4	0.00e+00	0	32	101	1048576	50	5670
2026-01-07 04:37:23.79	159.43	8.70	-35.7	-36.3	24.2	0.00e+00	0	32	101	1048576	50	5737
2026-01-07 04:37:24.80	159.44	8.78	-35.8	-36.5	24.0	0.00e+00	0	32	101	1048576	50	5860
2026-01-07 04:37:25.81	159.45	8.87	-35.6	-36.3	24.3	0.00e+00	0	32	101	1048576	50	5741
2026-01-07 04:37:26.82	159.46	8.95	-35.3	-36.0	24.5	0.00e+00	0	32	101	1048576	50	5522
2026-01-07 04:37:27.83	159.46	9.04	-35.6	-36.2	24.4	0.00e+00	0	32	101	1048576	50	5691
2026-01-07 04:37:28.84	159.47	9.12	-35.4	-36.1	24.5	0.00e+00	0	32	101	1048576	50	5592
2026-01-07 04:37:29.85	159.48	9.21	-35.5	-36.2	24.4	0.00e+00	0	32	101	1048576	50	5631
2026-01-07 04:37:30.86	159.49	9.29	-35.5	-36.2	24.6	0.00e+00	0	32	101	1048576	50	5636
2026-01-07 04:37:31.88	159.50	9.38	-35.4	-36.0	24.6	0.00e+00	0	32	101	1048576	50	5544
2026-01-07 04:37:32.89	159.51	9.46	-35.4	-36.1	24.5	0.00e+00	0	32	101	1048576	50	5582
2026-01-07 04:37:33.90	159.52	9.55	-35.3	-36.0	24.6	0.00e+00	0	32	101	1048576	50	5538
2026-01-07 04:37:34.91	159.53	9.64	-35.2	-35.9	24.7	0.00e+00	0	32	101	1048576	50	5461
2026-01-07 04:37:35.92	159.54	9.72	-35.3	-36.0	24.6	0.00e+00	0	32	101	1048576	50	5524
2026-01-07 04:37:36.93	159.55	9.81	-35.4	-36.1	24.6	0.00e+00	0	32	101	1048576	50	5573
2026-01-07 04:37:37.94	159.56	9.90	-35.3	-36.0	24.7	0.00e+00	0	32	101	1048576	50	5515
2026-01-07 04:37:38.95	159.56	9.99	-35.2	-35.9	24.7	0.00e+00	0	32	101	1048576	48	6110
2026-01-07 04:37:39.96	159.57	10.08	-35.2	-35.9	24.8	0.00e+00	0	32	101	1048576	48	6142
2026-01-07 04:37:40.97	159.58	10.16	-35.2	-35.8	24.8	0.00e+00	0	32	101	1048576	48	6075
2026-01-07 04:37:41.99	159.59	10.25	-35.1	-35.7	24.9	0.00e+00	0	32	101	1048576	48	6009
2026-01-07 04:37:43.00	159.60	10.34	-35.1	-35.8	24.8	0.00e+00	0	32	101	1048576	48	6076
2026-01-07 04:37:44.01	159.61	10.43	-35.1	-35.7	24.9	0.00e+00	0	32	101	1048576	48	6013
2026-01-07 04:37:45.02	159.62	10.52	-35.1	-35.8	25.0	0.00e+00	0	32	101	1048576	48	6043
2026-01-07 04:37:46.03	159.63	10.61	-35.1	-35.8	24.8	0.00e+00	0	32	101	1048576	48	6043
2026-01-07 04:37:47.04	159.64	10.70	-35.1	-35.7	24.9	0.00e+00	0	32	101	1048576	48	6017
2026-01-07 04:37:48.05	159.65	10.79	-35.2	-35.8	24.8	0.00e+00	0	32	101	1048576	48	6076
2026-01-07 04:37:49.06	159.66	10.88	-35.4	-36.0	24.6	0.00e+00	0	32	101	1048576	48	6243
2026-01-07 04:37:50.07	159.67	10.98	-35.0	-35.7	25.0	0.00e+00	0	32	101	1048576	48	5983
2026-01-07 04:37:51.08	159.68	11.07	-34.9	-35.5	25.1	0.00e+00	0	32	101	1048576	48	5887
2026-01-07 04:37:52.09	159.69	11.16	-34.9	-35.6	25.1	0.00e+00	0	32	101	1048576	48	5915
2026-01-07 04:37:53.11	159.70	11.25	-34.9	-35.5	25.2	0.00e+00	0	32	101	1048576	48	5876
2026-01-07 04:37:54.12	159.71	11.35	-34.9	-35.5	25.1	0.00e+00	0	32	101	1048576	48	5880
2026-01-07 04:37:55.13	159.72	11.44	-34.9	-35.6	25.0	0.00e+00	0	32	101	1048576	48	5900
2026-01-07 04:37:56.14	159.73	11.53	-34.8	-35.5	25.3	0.00e+00	0	32	101	1048576	48	5852
2026-01-07 04:37:57.15	159.74	11.63	-34.8	-35.4	25.2	0.00e+00	0	32	101	1048576	48	5816
2026-01-07 04:37:58.16	159.75	11.72	-35.1	-35.7	25.0	0.00e+00	0	32	101	1048576	48	6012
2026-01-07 04:37:59.18	159.76	11.82	-34.8	-35.5	25.3	0.00e+00	0	32	101	1048576	48	5860
2026-01-07 04:38:00.19	159.77	11.91	-34.8	-35.4	25.3	0.00e+00	0	32	101	1048576	48	5797
2026-01-07 04:38:01.20	159.78	12.01	-34.7	-35.4	25.2	0.00e+00	0	32	101	1048576	48	5793
2026-01-07 04:38:02.21	159.79	12.10	-34.7	-35.3	25.3	0.00e+00	0	32	101	1048576	48	5750
2026-01-07 04:38:03.22	159.80	12.20	-34.9	-35.5	25.2	0.00e+00	0	32	101	1048576	48	5886
2026-01-07 04:38:04.23	159.81	12.29	-34.7	-35.4	25.3	0.00e+00	0	32	101	1048576	48	5769
2026-01-07 04:38:05.24	159.82	12.39	-34.7	-35.4	25.4	0.00e+00	0	32	101	1048576	48	5762
2026-01-07 04:38:06.25	159.83	12.49	-34.6	-35.2	25.4	0.00e+00	0	32	101	1048576	48	5692
2026-01-07 04:38:07.26	159.84	12.59	-34.4	-35.0	25.6	0.00e+00	0	32	101	1048576	48	5558
2026-01-07 04:38:08.27	159.85	12.68	-34.6	-35.3	25.4	0.00e+00	0	32	101	1048576	48	5699
2026-01-07 04:38:09.28	159.86	12.78	-34.5	-35.1	25.6	0.00e+00	0	32	101	1048576	48	5621
2026-01-07 04:38:10.29	159.87	12.88	-34.5	-35.2	25.5	0.00e+00	0	32	101	1048576	48	5647
2026-01-07 04:38:11.30	159.88	12.98	-34.4	-35.0	25.6	0.00e+00	0	32	101	1048576	48	5540
2026-01-07 04:38:12.31	159.89	13.08	-34.5	-35.1	25.6	0.00e+00	0	32	101	1048576	48	5588
2026-01-07 04:38:13.32	159.90	13.18	-34.2	-34.9	25.8	0.00e+00	0	32	101	1048576	48	5447
2026-01-07 04:38:14.33	159.91	13.28	-34.3	-34.9	25.8	0.00e+00	0	32	101	1048576	48	5493
2026-01-07 04:38:15.35	159.92	13.38	-34.5	-35.1	25.5	0.00e+00	0	32	101	1048576	48	5616
2026-01-07 04:38:16.36	159.94	13.48	-34.4	-35.0	25.6	0.00e+00	0	32	101	1048576	48	5536
2026-01-07 04:38:17.37	159.95	13.59	-34.2	-34.9	25.7	0.00e+00	0	32	101	1048576	48	5441
2026-01-07 04:38:18.38	159.96	13.69	-34.1	-34.7	26.0	0.00e+00	0	32	101	1048576	48	5363
2026-01-07 04:38:19.39	159.97	13.79	-34.1	-34.7	26.0	0.00e+00	0	32	101	1048576	48	5360
2026-01-07 04:38:20.40	159.98	13.89	-34.3	-35.0	25.6	0.00e+00	0	32	101	1048576	46	6196
2026-01-07 04:38:21.41	159.99	14.00	-34.1	-34.7	25.9	0.00e+00	0	32	101	1048576	46	6017
2026-01-07 04:38:22.42	160.00	14.10	-34.2	-34.9	25.9	0.00e+00	0	32	101	1048576	46	6123
2026-01-07 04:38:23.43	160.01	14.20	-33.9	-34.5	26.1	0.00e+00	0	32	101	1048576	46	5895
2026-01-07 04:38:24.44	160.02	14.31	-34.0	-34.7	26.0	0.00e+00	0	32	101	1048576	46	5982
2026-01-07 04:38:25.45	160.04	14.41	-34.0	-34.6	26.0	0.00e+00	0	32	101	1048576	46	5931
2026-01-07 04:38:26.46	160.05	14.52	-34.1	-34.8	26.0	0.00e+00	0	32	101	1048576	46	6056
2026-01-07 04:38:27.47	160.06	14.63	-33.8	-34.5	26.1	0.00e+00	0	32	101	1048576	46	5846
2026-01-07 04:38:28.48	160.07	14.73	-33.9	-34.6	26.1	0.00e+00	0	32	101	1048576	46	5897
2026-01-07 04:38:29.49	160.08	14.84	-33.9	-34.5	26.1	0.00e+00	0	32	101	1048576	46	5862
2026-01-07 04:38:30.50	160.09	14.95	-34.2	-34.8	25.9	0.00e+00	0	32	101	1048576	46	6063
2026-01-07 04:38:31.51	160.10	15.06	-33.8	-34.5	26.2	0.00e+00	0	32	101	1048576	46	5836
2026-01-07 04:38:32.52	160.12	15.16	-33.9	-34.5	26.2	0.00e+00	0	32	101	1048576	46	5861
2026-01-07 04:38:33.53	160.13	15.27	-34.0	-34.6	26.1	0.00e+00	0	32	101	1048576	46	5921
2026-01-07 04:38:34.55	160.14	15.38	-33.9	-34.6	26.1	0.00e+00	0	32	101	1048576	46	5916
2026-01-07 04:38:35.56	160.15	15.49	-33.9	-34.6	26.1	0.00e+00	0	32	101	1048576	46	5905
2026-01-07 04:38:36.57	160.16	15.60	-33.7	-34.4	26.3	0.00e+00	0	32	101	1048576	46	5771
2026-01-07 04:38:37.58	160.18	15.72	-33.7	-34.4	26.2	0.00e+00	0	32	101	1048576	46	5776
2026-01-07 04:38:38.59	160.19	15.83	-33.7	-34.3	26.4	0.00e+00	0	32	101	1048576	46	5716
2026-01-07 04:38:39.60	160.20	15.94	-33.8	-34.5	26.2	0.00e+00	0	32	101	1048576	46	5837
2026-01-07 04:38:40.61	160.21	16.05	-33.7	-34.4	26.4	0.00e+00	0	32	101	1048576	46	5764
2026-01-07 04:38:41.62	160.23	16.17	-33.6	-34.2	26.4	0.00e+00	0	32	101	1048576	46	5665
2026-01-07 04:38:42.63	160.24	16.28	-33.6	-34.2	26.4	0.00e+00	0	32	101	1048576	46	5688
2026-01-07 04:38:43.65	160.25	16.39	-33.6	-34.3	26.4	0.00e+00	0	32	101	1048576	46	5697
2026-01-07 04:38:44.66	160.26	16.51	-33.5	-34.1	26.5	0.00e+00	0	32	101	1048576	46	5628
2026-01-07 04:38:45.67	160.28	16.62	-33.7	-34.3	26.4	0.00e+00	0	32	101	1048576	46	5715
2026-01-07 04:38:46.68	160.29	16.74	-33.9	-34.5	26.2	0.00e+00	0	32	101	1048576	46	5853
2026-01-07 04:38:47.69	160.30	16.86	-33.8	-34.4	26.3	0.00e+00	0	32	101	1048576	46	5797
2026-01-07 04:38:48.70	160.31	16.97	-33.7	-34.3	26.4	0.00e+00	0	32	101	1048576	46	5753
2026-01-07 04:38:49.71	160.33	17.09	-33.4	-34.0	26.6	0.00e+00	0	32	101	1048576	46	5528
2026-01-07 04:38:50.72	160.34	17.21	-33.5	-34.2	26.5	0.00e+00	0	32	101	1048576	46	5642
2026-01-07 04:38:51.73	160.35	17.33	-33.4	-34.0	26.6	0.00e+00	0	32	101	1048576	46	5564
2026-01-07 04:38:52.74	160.37	17.45	-33.5	-34.1	26.6	0.00e+00	0	32	101	1048576	46	5591
2026-01-07 04:38:53.75	160.38	17.57	-33.5	-34.1	26.5	0.00e+00	0	32	101	1048576	46	5573
2026-01-07 04:38:54.76	160.39	17.69	-33.3	-33.9	26.6	0.00e+00	0	32	101	1048576	46	5465
2026-01-07 04:38:55.77	160.41	17.81	-33.4	-34.0	26.6	0.00e+00	0	32	101	1048576	46	5561
2026-01-07 04:38:56.78	160.42	17.93	-33.4	-34.0	26.7	0.00e+00	0	32	101	1048576	46	5524
2026-01-07 04:38:57.79	160.43	18.05	-33.3	-33.9	26.7	0.00e+00	0	32	101	1048576	46	5501
2026-01-07 04:38:58.80	160.45	18.17	-33.5	-34.1	26.6	0.00e+00	0	32	101	1048576	46	5587
2026-01-07 04:38:59.81	160.46	18.30	-33.3	-34.0	26.7	0.00e+00	0	32	101	1048576	46	5507
2026-01-07 04:39:00.82	160.47	18.42	-33.3	-33.9	26.7	0.00e+00	0	32	101	1048576	46	5501
2026-01-07 04:39:01.83	160.49	18.54	-33.1	-33.8	26.8	0.00e+00	0	32	101	1048576	46	5379
2026-01-07 04:39:02.85	160.50	18.67	-33.3	-33.9	26.8	0.00e+00	0	32	101	1048576	46	5477
2026-01-07 04:39:03.86	160.51	18.80	-33.3	-33.9	26.8	0.00e+00	0	32	101	1048576	46	5463
2026-01-07 04:39:04.87	160.53	18.92	-33.3	-34.0	26.7	0.00e+00	0	32	101	1048576	46	5508
2026-01-07 04:39:05.88	160.54	19.05	-33.3	-33.9	26.7	0.00e+00	0	32	101	1048576	46	5476
2026-01-07 04:39:06.89	160.56	19.18	-33.2	-33.8	26.8	0.00e+00	0	32	101	1048576	46	5432
2026-01-07 04:39:07.90	160.57	19.31	-33.2	-33.8	26.8	0.00e+00	0	32	101	1048576	46	5426
2026-01-07 04:39:08.91	160.59	19.44	-33.2	-33.9	26.7	0.00e+00	0	32	101	1048576	46	5442
2026-01-07 04:39:09.92	160.60	19.57	-33.2	-33.8	26.9	0.00e+00	0	32	101	1048576	46	5411
2026-01-07 04:39:10.94	160.62	19.70	-33.0	-33.6	27.0	0.00e+00	0	32	101	1048576	44	5916
2026-01-07 04:39:11.94	160.63	19.83	-33.0	-33.6	27.0	0.00e+00	0	32	101	1048576	44	5939
2026-01-07 04:39:12.96	160.65	19.96	-32.9	-33.5	27.1	0.00e+00	0	32	101	1048576	44	5872
2026-01-07 04:39:13.97	160.66	20.09	-33.0	-33.6	27.0	0.00e+00	0	32	101	1048576	44	5944
2026-01-07 04:39:14.98	160.67	20.23	-32.8	-33.4	27.1	0.00e+00	0	32	101	1048576	44	5824
2026-01-07 04:39:15.99	160.69	20.36	-32.9	-33.5	27.1	0.00e+00	0	32	101	1048576	44	5856
2026-01-07 04:39:17.00	160.71	20.50	-32.8	-33.4	27.1	0.00e+00	0	32	101	1048576	44	5795
2026-01-07 04:39:18.01	160.72	20.63	-32.8	-33.4	27.2	0.00e+00	0	32	101	1048576	44	5771
2026-01-07 04:39:19.02	160.74	20.77	-32.5	-33.1	27.3	0.00e+00	0	32	101	1048576	44	5625
2026-01-07 04:39:20.03	160.75	20.90	-32.4	-33.0	27.4	0.00e+00	0	32	101	1048576	44	5564
2026-01-07 04:39:21.04	160.77	21.04	-32.5	-33.1	27.5	0.00e+00	0	32	101	1048576	44	5580
2026-01-07 04:39:22.05	160.78	21.18	-32.4	-33.0	27.5	0.00e+00	0	32	101	1048576	44	5559
2026-01-07 04:39:23.06	160.80	21.32	-32.3	-32.9	27.5	0.00e+00	0	32	101	1048576	44	5477
2026-01-07 04:39:24.07	160.81	21.46	-32.3	-32.9	27.5	0.00e+00	0	32	101	1048576	44	5497
2026-01-07 04:39:25.08	160.83	21.60	-32.4	-33.0	27.5	0.00e+00	0	32	101	1048576	44	5516
2026-01-07 04:39:26.09	160.85	21.74	-32.1	-32.7	27.8	0.00e+00	0	32	101	1048576	44	5363
2026-01-07 04:39:27.10	160.86	21.88	-32.1	-32.7	27.7	0.00e+00	0	32	101	1048576	42	6022
2026-01-07 04:39:28.11	160.88	22.03	-32.0	-32.6	27.8	0.00e+00	0	32	101	1048576	42	5935
2026-01-07 04:39:29.12	160.90	22.17	-32.1	-32.7	27.7	0.00e+00	0	32	101	1048576	42	5996
2026-01-07 04:39:30.13	160.91	22.32	-32.0	-32.6	27.8	0.00e+00	0	32	101	1048576	42	5949
2026-01-07 04:39:31.14	160.93	22.46	-32.1	-32.7	27.9	0.00e+00	0	32	101	1048576	42	5992
2026-01-07 04:39:32.15	160.95	22.61	-32.1	-32.7	27.7	0.00e+00	0	32	101	1048576	42	6016
2026-01-07 04:39:33.16	160.96	22.75	-32.0	-32.6	27.8	0.00e+00	0	32	101	1048576	42	5923
2026-01-07 04:39:34.18	160.98	22.90	-32.2	-32.8	27.7	0.00e+00	0	32	101	1048576	42	6085
2026-01-07 04:39:35.19	161.00	23.05	-32.1	-32.7	27.8	0.00e+00	0	32	101	1048576	42	5970
2026-01-07 04:39:36.20	161.02	23.20	-32.2	-32.8	27.7	0.00e+00	0	32	101	1048576	42	6071
2026-01-07 04:39:37.21	161.03	23.35	-32.1	-32.7	27.7	0.00e+00	0	32	101	1048576	42	6006
2026-01-07 04:39:38.22	161.05	23.51	-32.3	-32.9	27.6	0.00e+00	0	32	101	1048576	42	6154
2026-01-07 04:39:39.23	161.07	23.66	-32.4	-33.0	27.5	0.00e+00	0	32	101	1048576	42	6215
2026-01-07 04:39:40.24	161.09	23.81	-32.1	-32.7	27.7	0.00e+00	0	32	101	1048576	42	6008
2026-01-07 04:39:41.25	161.11	23.97	-32.2	-32.8	27.7	0.00e+00	0	32	101	1048576	42	6052
2026-01-07 04:39:42.26	161.12	24.12	-32.1	-32.7	27.8	0.00e+00	0	32	101	1048576	42	6011
2026-01-07 04:39:43.27	161.14	24.28	-32.0	-32.6	27.8	0.00e+00	0	32	101	1048576	42	5943
2026-01-07 04:39:44.28	161.16	24.43	-32.0	-32.6	27.9	0.00e+00	0	32	101	1048576	42	5911
2026-01-07 04:39:45.30	161.18	24.59	-32.0	-32.5	27.8	0.00e+00	0	32	101	1048576	42	5894
2026-01-07 04:39:46.31	161.20	24.75	-32.0	-32.6	27.9	0.00e+00	0	32	101	1048576	42	5943
2026-01-07 04:39:47.32	161.22	24.91	-32.0	-32.6	27.8	0.00e+00	0	32	101	1048576	42	5953
2026-01-07 04:39:48.33	161.24	25.07	-32.1	-32.7	27.8	0.00e+00	0	32	101	1048576	42	6017
2026-01-07 04:39:49.34	161.26	25.23	-32.1	-32.7	27.8	0.00e+00	0	32	101	1048576	42	6004
2026-01-07 04:39:50.35	161.28	25.40	-32.1	-32.7	27.8	0.00e+00	0	32	101	1048576	42	6028
2026-01-07 04:39:51.36	161.30	25.56	-32.2	-32.8	27.8	0.00e+00	0	32	101	1048576	42	6065
2026-01-07 04:39:52.37	161.32	25.73	-32.1	-32.7	27.9	0.00e+00	0	32	101	1048576	42	6030
2026-01-07 04:39:53.38	161.34	25.89	-32.0	-32.6	27.8	0.00e+00	0	32	101	1048576	42	5954
2026-01-07 04:39:54.39	161.36	26.06	-32.1	-32.7	27.8	0.00e+00	0	32	101	1048576	42	5996
2026-01-07 04:39:55.40	161.38	26.23	-32.3	-32.9	27.6	0.00e+00	0	32	101	1048576	42	6164
2026-01-07 04:39:56.41	161.40	26.40	-32.0	-32.6	27.7	0.00e+00	0	32	101	1048576	42	5960
2026-01-07 04:39:57.42	161.42	26.57	-32.1	-32.7	27.9	0.00e+00	0	32	101	1048576	42	5990
2026-01-07 04:39:58.43	161.44	26.74	-31.9	-32.5	28.0	0.00e+00	0	32	101	1048576	42	5849
2026-01-07 04:39:59.44	161.46	26.91	-31.9	-32.5	27.9	0.00e+00	0	32	101	1048576	42	5871
2026-01-07 04:40:00.46	161.48	27.09	-31.8	-32.4	28.1	0.00e+00	0	32	101	1048576	42	5817
2026-01-07 04:40:01.46	161.50	27.26	-31.8	-32.4	28.0	0.00e+00	0	32	101	1048576	42	5814
2026-01-07 04:40:02.48	161.52	27.44	-31.7	-32.3	28.1	0.00e+00	0	32	101	1048576	42	5743
2026-01-07 04:40:03.49	161.55	27.61	-31.8	-32.4	28.1	0.00e+00	0	32	101	1048576	42	5823
2026-01-07 04:40:04.50	161.57	27.79	-31.4	-32.0	28.2	0.00e+00	0	32	101	1048576	42	5549
2026-01-07 04:40:05.51	161.59	27.97	-31.5	-32.1	28.2	0.00e+00	0	32	101	1048576	42	5617
2026-01-07 04:40:06.52	161.61	28.15	-31.6	-32.2	28.1	0.00e+00	0	32	101	1048576	42	5671
2026-01-07 04:40:07.53	161.64	28.33	-31.5	-32.1	28.3	0.00e+00	0	32	101	1048576	42	5583
2026-01-07 04:40:08.54	161.66	28.51	-31.5	-32.1	28.3	0.00e+00	0	32	101	1048576	42	5584
2026-01-07 04:40:09.55	161.68	28.70	-31.6	-32.2	28.3	0.00e+00	0	32	101	1048576	42	5631
2026-01-07 04:40:10.56	161.71	28.88	-31.5	-32.1	28.3	0.00e+00	0	32	101	1048576	42	5575
2026-01-07 04:40:11.57	161.73	29.07	-31.4	-32.0	28.3	0.00e+00	0	32	101	1048576	42	5530
2026-01-07 04:40:12.58	161.75	29.26	-31.4	-32.0	28.3	0.00e+00	0	32	101	1048576	42	5506
2026-01-07 04:40:13.59	161.78	29.44	-31.3	-31.9	28.4	0.00e+00	0	32	101	1048576	42	5497
2026-01-07 04:40:14.60	161.80	29.63	-31.3	-31.9	28.4	0.00e+00	0	32	101	1048576	42	5449
2026-01-07 04:40:15.61	161.83	29.82	-31.4	-32.0	28.3	0.00e+00	0	32	101	1048576	42	5553
2026-01-07 04:40:16.62	161.85	30.02	-31.4	-31.9	28.4	0.00e+00	0	32	101	1048576	42	5494
2026-01-07 04:40:17.63	161.88	30.21	-31.5	-32.0	28.4	0.00e+00	0	32	101	1048576	42	5561
2026-01-07 04:40:18.64	161.90	30.41	-31.5	-32.1	28.4	0.00e+00	0	32	101	1048576	42	5598
2026-01-07 04:40:19.65	161.93	30.60	-31.6	-32.2	28.2	0.00e+00	0	32	101	1048576	42	5667
2026-01-07 04:40:20.66	161.95	30.80	-31.8	-32.4	28.0	0.00e+00	0	32	101	1048576	42	5790
2026-01-07 04:40:21.67	161.98	31.00	-31.9	-32.5	28.0	0.00e+00	0	32	101	1048576	42	5873
2026-01-07 04:40:22.68	162.00	31.20	-31.8	-32.4	28.0	0.00e+00	0	32	101	1048576	42	5794
2026-01-07 04:40:23.70	162.03	31.40	-31.9	-32.5	28.0	0.00e+00	0	32	101	1048576	42	5877
2026-01-07 04:40:24.71	162.06	31.61	-31.7	-32.3	28.2	0.00e+00	0	32	101	1048576	42	5721
2026-01-07 04:40:25.72	162.09	31.81	-31.6	-32.2	28.1	0.00e+00	0	32	101	1048576	42	5663
2026-01-07 04:40:26.73	162.11	32.02	-31.9	-32.5	28.0	0.00e+00	0	32	101	1048576	42	5881
2026-01-07 04:40:27.74	162.14	32.23	-31.5	-32.1	28.2	0.00e+00	0	32	101	1048576	42	5580
2026-01-07 04:40:28.75	162.17	32.43	-31.4	-32.0	28.3	0.00e+00	0	32	101	1048576	42	5538
2026-01-07 04:40:29.76	162.20	32.64	-31.5	-32.1	28.3	0.00e+00	0	32	101	1048576	42	5584
2026-01-07 04:40:30.77	162.23	32.86	-31.4	-32.0	28.4	0.00e+00	0	32	101	1048576	42	5555
2026-01-07 04:40:31.78	162.26	33.07	-31.5	-32.1	28.3	0.00e+00	0	32	101	1048576	42	5596
2026-01-07 04:40:32.79	162.29	33.29	-31.4	-32.0	28.4	0.00e+00	0	32	101	1048576	42	5511
2026-01-07 04:40:33.80	162.32	33.50	-31.3	-31.9	28.4	0.00e+00	0	32	101	1048576	42	5490
2026-01-07 04:40:34.81	162.35	33.72	-31.3	-31.9	28.4	0.00e+00	0	32	101	1048576	42	5497
2026-01-07 04:40:35.82	162.38	33.94	-31.3	-31.9	28.5	0.00e+00	0	32	101	1048576	42	5477
2026-01-07 04:40:36.83	162.41	34.16	-31.5	-32.0	28.4	0.00e+00	0	32	101	1048576	42	5561
2026-01-07 04:40:37.84	162.44	34.38	-31.2	-31.8	28.5	0.00e+00	0	32	101	1048576	42	5415
2026-01-07 04:40:38.85	162.47	34.61	-31.3	-31.9	28.5	0.00e+00	0	32	101	1048576	42	5452
2026-01-07 04:40:39.86	162.50	34.83	-31.3	-31.9	28.5	0.00e+00	0	32	101	1048576	42	5486
2026-01-07 04:40:40.87	162.54	35.06	-31.3	-31.9	28.4	0.00e+00	0	32	101	1048576	42	5459
2026-01-07 04:40:41.88	162.57	35.29	-31.3	-31.9	28.4	0.00e+00	0	32	101	1048576	42	5471
2026-01-07 04:40:42.89	162.60	35.52	-31.4	-32.0	28.3	0.00e+00	0	32	101	1048576	42	5516
2026-01-07 04:40:43.90	162.64	35.75	-31.5	-32.1	28.4	0.00e+00	0	32	101	1048576	42	5582
2026-01-07 04:40:44.91	162.67	35.99	-31.5	-32.1	28.3	0.00e+00	0	32	101	1048576	42	5593
2026-01-07 04:40:45.92	162.70	36.22	-31.5	-32.1	28.2	0.00e+00	0	32	101	1048576	42	5625
2026-01-07 04:40:46.92	162.74	36.46	-31.6	-32.2	28.3	0.00e+00	0	32	101	1048576	42	5634
2026-01-07 04:40:47.93	162.78	36.70	-31.5	-32.1	28.3	0.00e+00	0	32	101	1048576	42	5606
2026-01-07 04:40:48.94	162.81	36.94	-31.5	-32.0	28.4	0.00e+00	0	32	101	1048576	42	5559
2026-01-07 04:40:49.95	162.85	37.18	-31.4	-31.9	28.5	0.00e+00	0	32	101	1048576	42	5498
2026-01-07 04:40:50.95	162.88	37.42	-31.3	-31.9	28.3	0.00e+00	0	32	101	1048576	42	5486
2026-01-07 04:40:51.96	162.92	37.67	-31.4	-32.0	28.4	0.00e+00	0	32	101	1048576	42	5505
2026-01-07 04:40:52.97	162.96	37.92	-31.2	-31.7	28.6	0.00e+00	0	32	101	1048576	42	5373
2026-01-07 04:40:53.98	163.00	38.17	-31.2	-31.8	28.5	0.00e+00	0	32	101	1048576	42	5389
2026-01-07 04:40:54.98	163.04	38.42	-31.2	-31.8	28.6	0.00e+00	0	32	101	1048576	42	5393
2026-01-07 04:40:56.00	163.08	38.67	-31.4	-32.0	28.5	0.00e+00	0	32	101	1048576	42	5516
2026-01-07 04:40:57.00	163.12	38.93	-31.6	-32.2	28.3	0.00e+00	0	32	101	1048576	42	5650
2026-01-07 04:40:58.01	163.16	39.18	-31.4	-32.0	28.2	0.00e+00	0	32	101	1048576	42	5558
2026-01-07 04:40:59.02	163.20	39.44	-31.5	-32.1	28.2	0.00e+00	0	32	101	1048576	42	5611
2026-01-07 04:41:00.03	163.24	39.71	-31.7	-32.3	28.2	0.00e+00	0	32	101	1048576	42	5714
2026-01-07 04:41:01.04	163.28	39.97	-31.7	-32.3	28.2	0.00e+00	0	32	101	1048576	42	5735
2026-01-07 04:41:02.05	163.33	40.23	-31.8	-32.5	28.0	0.00e+00	0	32	101	1048576	42	5835
2026-01-07 04:41:03.06	163.37	40.50	-31.9	-32.5	28.1	0.00e+00	0	32	101	1048576	42	5838
2026-01-07 04:41:04.06	163.41	40.77	-31.8	-32.4	28.2	0.00e+00	0	32	101	1048576	42	5793
2026-01-07 04:41:05.07	163.46	41.04	-31.8	-32.4	28.0	0.00e+00	0	32	101	1048576	42	5810
2026-01-07 04:41:06.08	163.51	41.31	-32.0	-32.6	27.9	0.00e+00	0	32	101	1048576	42	5909
2026-01-07 04:41:07.08	163.55	41.59	-32.1	-32.7	27.7	0.00e+00	0	32	101	1048576	42	6009
2026-01-07 04:41:08.09	163.60	41.86	-31.9	-32.5	28.0	0.00e+00	0	32	101	1048576	42	5835
2026-01-07 04:41:09.10	163.65	42.14	-31.9	-32.5	28.1	0.00e+00	0	32	101	1048576	42	5879
2026-01-07 04:41:10.11	163.70	42.42	-31.7	-32.3	28.2	0.00e+00	0	32	101	1048576	42	5742
2026-01-07 04:41:11.12	163.75	42.71	-31.7	-32.3	28.2	0.00e+00	0	32	101	1048576	42	5726
2026-01-07 04:41:12.12	163.80	42.99	-31.7	-32.3	28.0	0.00e+00	0	32	101	1048576	42	5727
2026-01-07 04:41:13.13	163.85	43.28	-31.9	-32.5	28.1	0.00e+00	0	32	101	1048576	42	5835
2026-01-07 04:41:14.13	163.90	43.57	-31.8	-32.4	28.1	0.00e+00	0	32	101	1048576	42	5781
2026-01-07 04:41:15.14	163.95	43.86	-31.9	-32.5	28.0	0.00e+00	0	32	101	1048576	42	5835
2026-01-07 04:41:16.15	164.01	44.15	-32.0	-32.6	28.0	0.00e+00	0	32	101	1048576	42	5931
2026-01-07 04:41:17.15	164.06	44.45	-31.9	-32.5	28.1	0.00e+00	0	32	101	1048576	42	5894
2026-01-07 04:41:18.16	164.12	44.75	-32.0	-32.6	28.0	0.00e+00	0	32	101	1048576	42	5932
2026-01-07 04:41:19.17	164.17	45.05	-32.0	-32.6	28.0	0.00e+00	0	32	101	1048576	42	5928
2026-01-07 04:41:20.18	164.23	45.35	-32.1	-32.6	28.0	0.00e+00	0	32	101	1048576	42	5959
2026-01-07 04:41:21.18	164.29	45.65	-31.7	-32.3	28.2	0.00e+00	0	32	101	1048576	42	5727
2026-01-07 04:41:22.19	164.35	45.96	-31.5	-32.1	28.2	0.00e+00	0	32	101	1048576	42	5601
2026-01-07 04:41:23.20	164.41	46.27	-31.8	-32.3	28.1	0.00e+00	0	32	101	1048576	42	5754
2026-01-07 04:41:24.20	164.47	46.58	-32.0	-32.6	27.9	0.00e+00	0	32	101	1048576	42	5940
2026-01-07 04:41:25.21	164.54	46.90	-32.2	-32.8	27.8	0.00e+00	0	32	101	1048576	42	6068
2026-01-07 04:41:26.21	164.60	47.21	-32.2	-32.8	27.7	0.00e+00	0	32	101	1048576	42	6071
2026-01-07 04:41:27.22	164.67	47.53	-32.4	-33.0	27.6	0.00e+00	0	32	101	1048576	42	6203
2026-01-07 04:41:28.23	164.73	47.85	-32.5	-33.1	27.5	0.00e+00	0	32	101	1048576	42	6292
2026-01-07 04:41:29.24	164.80	48.18	-32.5	-33.1	27.6	0.00e+00	0	32	101	1048576	42	6260
2026-01-07 04:41:30.25	164.87	48.51	-32.4	-33.0	27.8	0.00e+00	0	32	101	1048576	42	6199
2026-01-07 04:41:31.25	164.94	48.83	-32.4	-33.0	27.6	0.00e+00	0	32	101	1048576	42	6237
2026-01-07 04:41:32.26	165.02	49.16	-32.3	-32.9	27.6	0.00e+00	0	32	101	1048576	42	6122
2026-01-07 04:41:33.27	165.09	49.50	-32.5	-33.0	27.6	0.00e+00	0	32	101	1048576	42	6242
2026-01-07 04:41:34.28	165.17	49.83	-32.7	-33.3	27.5	0.00e+00	0	32	101	1048576	42	6392
2026-01-07 04:41:35.28	165.24	50.17	-32.7	-33.3	27.4	0.00e+00	0	32	101	1048576	42	6441
2026-01-07 04:41:36.29	165.32	50.51	-32.9	-33.5	27.4	0.00e+00	0	32	101	1048576	42	6583
2026-01-07 04:41:37.30	165.40	50.86	-33.0	-33.6	27.2	0.00e+00	0	32	101	1048576	42	6663
2026-01-07 04:41:38.31	165.49	51.20	-33.3	-34.0	26.9	0.00e+00	0	32	101	1048576	44	6191
2026-01-07 04:41:39.32	165.57	51.55	-33.4	-34.0	26.9	0.00e+00	0	32	101	1048576	44	6205
2026-01-07 04:41:40.32	165.66	51.90	-33.5	-34.1	26.8	0.00e+00	0	32	101	1048576	44	6294
2026-01-07 04:41:41.33	165.75	52.25	-33.1	-33.7	27.1	0.00e+00	0	32	101	1048576	44	6015
2026-01-07 04:41:42.34	165.84	52.61	-33.0	-33.6	27.2	0.00e+00	0	32	101	1048576	44	5947
2026-01-07 04:41:43.34	165.93	52.97	-32.9	-33.5	27.2	0.00e+00	0	32	101	1048576	44	5867
2026-01-07 04:41:44.35	166.02	53.33	-33.0	-33.6	27.1	0.00e+00	0	32	101	1048576	44	5909
2026-01-07 04:41:45.36	166.12	53.69	-33.1	-33.7	27.2	0.00e+00	0	32	101	1048576	44	6032
2026-01-07 04:41:46.37	166.22	54.06	-33.0	-33.6	27.2	0.00e+00	0	32	101	1048576	44	5918
2026-01-07 04:41:47.38	166.32	54.43	-33.0	-33.6	27.1	0.00e+00	0	32	101	1048576	44	5956
2026-01-07 04:41:48.39	166.43	54.80	-33.2	-33.8	27.0	0.00e+00	0	32	101	1048576	44	6064
2026-01-07 04:41:49.39	166.53	55.17	-33.5	-34.1	26.9	0.00e+00	0	32	101	1048576	44	6292
2026-01-07 04:41:50.40	166.64	55.55	-33.3	-33.9	26.8	0.00e+00	0	32	101	1048576	44	6173
2026-01-07 04:41:51.41	166.76	55.93	-33.2	-33.9	26.8	0.00e+00	0	32	101	1048576	44	6118
2026-01-07 04:41:52.41	166.87	56.30	-33.1	-33.7	27.0	0.00e+00	0	32	101	1048576	44	6000
2026-01-07 04:41:53.42	166.99	56.69	-33.1	-33.7	26.8	0.00e+00	0	32	101	1048576	44	6025
2026-01-07 04:41:54.43	167.11	57.07	-33.8	-34.5	26.9	0.00e+00	0	32	101	1048576	44	6592
2026-01-07 04:41:55.44	167.24	57.46	-33.5	-34.1	26.8	0.00e+00	0	32	101	1048576	44	6258
2026-01-07 04:41:56.44	167.37	57.85	-33.3	-33.9	26.8	0.00e+00	0	32	101	1048576	44	6135
2026-01-07 04:41:57.45	167.50	58.25	-33.7	-34.3	26.5	0.00e+00	0	32	101	1048576	44	6414
2026-01-07 04:41:58.46	167.64	58.64	-33.3	-33.9	26.9	0.00e+00	0	32	101	1048576	44	6158
2026-01-07 04:41:59.47	167.78	59.04	-33.3	-33.9	26.8	0.00e+00	0	32	101	1048576	44	6171
2026-01-07 04:42:00.48	167.92	59.45	-33.1	-33.7	27.0	0.00e+00	0	32	101	1048576	44	6030
2026-01-07 04:42:01.48	168.07	59.85	-33.0	-33.6	27.2	0.00e+00	0	32	101	1048576	44	5900
2026-01-07 04:42:02.49	168.22	60.25	-32.9	-33.4	27.3	0.00e+00	0	32	101	1048576	44	5828
2026-01-07 04:42:03.50	168.38	60.66	-32.9	-33.5	27.3	0.00e+00	0	32	101	1048576	44	5835
2026-01-07 04:42:04.51	168.55	61.07	-32.7	-33.3	27.4	0.00e+00	0	32	101	1048576	44	5726
2026-01-07 04:42:05.52	168.72	61.49	-33.1	-33.7	27.1	0.00e+00	0	32	101	1048576	44	5970
2026-01-07 04:42:06.53	168.89	61.90	-33.4	-34.0	26.9	0.00e+00	0	32	101	1048576	44	6199
2026-01-07 04:42:07.53	169.07	62.32	-33.3	-33.9	27.0	0.00e+00	0	32	101	1048576	44	6108
2026-01-07 04:42:08.54	169.26	62.74	-32.9	-33.5	27.1	0.00e+00	0	32	101	1048576	44	5870
2026-01-07 04:42:09.55	169.45	63.16	-32.3	-32.9	27.9	0.00e+00	0	32	101	1048576	44	5471
2026-01-07 04:42:10.55	169.65	63.59	-32.1	-32.7	27.7	0.00e+00	0	32	101	1048576	42	5974
2026-01-07 04:42:11.56	169.86	64.01	-32.5	-33.0	27.7	0.00e+00	0	32	101	1048576	42	6242
2026-01-07 04:42:12.57	170.07	64.44	-32.5	-33.1	27.4	0.00e+00	0	32	101	1048576	42	6315
2026-01-07 04:42:13.58	170.30	64.88	-32.6	-33.3	27.5	0.00e+00	0	32	101	1048576	42	6402
2026-01-07 04:42:14.59	170.53	65.31	-32.1	-32.7	27.5	0.00e+00	0	32	101	1048576	42	5971
2026-01-07 04:42:15.60	170.77	65.75	-31.8	-32.4	27.9	0.00e+00	0	32	101	1048576	42	5823
2026-01-07 04:42:16.61	171.02	66.19	-31.9	-32.5	28.0	0.00e+00	0	32	101	1048576	42	5895
2026-01-07 04:42:17.62	171.28	66.63	-31.7	-32.3	28.2	0.00e+00	0	32	101	1048576	42	5730
2026-01-07 04:42:18.62	171.55	67.06	-31.6	-32.2	28.0	0.00e+00	0	32	101	1048576	42	5664
2026-01-07 04:42:19.63	171.84	67.51	-31.7	-32.3	28.3	0.00e+00	0	32	101	1048576	42	5716
2026-01-07 04:42:20.64	172.13	67.95	-31.4	-31.9	27.0	0.00e+00	0	32	101	1048576	42	5476
2026-01-07 04:42:21.65	172.44	68.40	-32.2	-32.8	27.8	0.00e+00	0	32	101	1048576	42	6052
2026-01-07 04:42:22.65	172.76	68.85	-32.1	-32.8	27.9	0.00e+00	0	32	101	1048576	42	6037
2026-01-07 04:42:23.66	173.10	69.30	-32.1	-32.7	27.9	0.00e+00	0	32	101	1048576	42	5977
2026-01-07 04:42:24.66	173.45	69.75	-31.8	-32.4	28.0	0.00e+00	0	32	101	1048576	42	5812
2026-01-07 04:42:25.67	173.82	70.20	-31.8	-32.3	28.6	0.00e+00	0	32	101	1048576	42	5758
2026-01-07 04:42:26.68	174.21	70.66	-31.4	-32.0	28.4	0.00e+00	0	32	101	1048576	40	6197
2026-01-07 04:42:27.69	174.62	71.11	-31.5	-32.1	28.3	0.00e+00	0	32	101	1048576	40	6247
2026-01-07 04:42:28.70	175.05	71.57	-31.6	-32.2	28.1	0.00e+00	0	32	101	1048576	40	6380
2026-01-07 04:42:29.71	175.51	72.03	-31.5	-32.1	28.3	0.00e+00	0	32	101	1048576	40	6279
2026-01-07 04:42:30.72	175.99	72.49	-31.7	-32.2	28.3	0.00e+00	0	32	101	1048576	40	6372
2026-01-07 04:42:31.73	176.49	72.95	-31.4	-32.0	28.3	0.00e+00	0	32	101	1048576	40	6193
2026-01-07 04:42:32.73	177.02	73.40	-31.7	-32.2	28.1	0.00e+00	0	32	101	1048576	40	6385
2026-01-07 04:42:33.74	177.59	73.86	-32.0	-32.6	27.9	0.00e+00	0	32	101	1048576	40	6630
2026-01-07 04:42:34.75	178.19	74.33	-32.0	-32.6	28.0	0.00e+00	0	32	101	1048576	42	5946
2026-01-07 04:42:35.76	178.83	74.79	-32.1	-32.8	27.5	0.00e+00	0	32	101	1048576	42	6048
2026-01-07 04:42:36.76	179.51	75.24	-31.8	-32.4	27.9	0.00e+00	0	32	101	1048576	42	5791
2026-01-07 04:42:37.77	180.23	75.70	-31.9	-32.6	27.9	0.00e+00	0	32	101	1048576	42	5903
2026-01-07 04:42:38.77	181.00	76.16	-31.6	-32.2	28.0	0.00e+00	0	32	101	1048576	42	5641
2026-01-07 04:42:39.78	181.83	76.62	-31.5	-32.1	28.2	0.00e+00	0	32	101	1048576	42	5606
2026-01-07 04:42:40.79	182.72	77.07	-31.1	-31.7	28.4	0.00e+00	0	32	101	1048576	42	5372
2026-01-07 04:42:41.80	183.67	77.53	-31.3	-31.9	28.5	0.00e+00	0	32	101	1048576	42	5493
2026-01-07 04:42:42.81	184.70	77.98	-31.1	-31.7	28.6	0.00e+00	0	32	101	1048576	42	5340
2026-01-07 04:42:43.82	185.81	78.43	-31.1	-31.7	28.6	0.00e+00	0	32	101	1048576	42	5346
2026-01-07 04:42:44.82	187.01	78.87	-30.6	-31.2	28.9	0.00e+00	0	32	101	1048576	40	5663
2026-01-07 04:42:45.83	188.31	79.31	-30.3	-30.9	29.1	0.00e+00	0	32	101	1048576	40	5462
2026-01-07 04:42:46.84	189.73	79.75	-29.9	-30.5	29.1	0.00e+00	0	32	101	1048576	38	5851
2026-01-07 04:42:47.84	191.26	80.18	-30.2	-30.7	29.2	0.00e+00	0	32	101	1048576	38	6007
2026-01-07 04:42:48.85	192.95	80.61	-30.1	-30.7	29.2	0.00e+00	0	32	101	1048576	38	5996
2026-01-07 04:42:49.86	194.79	81.02	-30.1	-30.7	29.3	0.00e+00	0	32	101	1048576	38	5971
2026-01-07 04:42:50.86	196.80	81.43	-30.0	-30.6	29.1	0.00e+00	0	33	101	1048576	38	5914
2026-01-07 04:42:51.87	199.03	81.82	-30.4	-31.0	29.1	0.00e+00	0	32	101	1048576	38	6186
2026-01-07 04:42:52.88	201.48	82.21	-30.1	-30.7	29.3	0.00e+00	0	32	101	1048576	38	6006
2026-01-07 04:42:53.88	204.16	82.57	-30.1	-30.6	29.3	0.00e+00	0	32	101	1048576	38	5953
2026-01-07 04:42:54.89	207.14	82.93	-30.2	-30.8	29.2	0.00e+00	0	32	101	1048576	38	6072
2026-01-07 04:42:55.89	210.40	83.25	-30.5	-31.1	28.9	0.00e+00	0	32	101	1048576	38	6302
2026-01-07 04:42:56.90	214.01	83.56	-30.6	-31.2	29.0	0.00e+00	0	32	101	1048576	38	6372
2026-01-07 04:42:57.90	217.93	83.84	-30.3	-30.9	29.1	0.00e+00	0	32	101	1048576	38	6141
2026-01-07 04:42:58.91	222.24	84.09	-30.2	-30.8	29.1	0.00e+00	0	32	101	1048576	38	6094
2026-01-07 04:42:59.92	226.90	84.30	-30.3	-30.8	29.2	0.00e+00	0	32	101	1048576	38	6100
2026-01-07 04:43:00.93	231.90	84.47	-30.2	-30.7	29.1	0.00e+00	0	32	101	1048576	38	6022
2026-01-07 04:43:01.94	237.17	84.60	-30.3	-30.9	29.1	0.00e+00	0	32	101	1048576	38	6150
2026-01-07 04:43:02.94	242.60	84.68	-30.6	-31.2	28.8	0.00e+00	0	32	101	1048576	38	6373
2026-01-07 04:43:03.95	248.20	84.72	-30.7	-31.3	28.7	0.00e+00	0	32	101	1048576	38	6444
2026-01-07 04:43:04.95	253.77	84.70	-30.7	-31.3	28.6	0.00e+00	0	32	101	1048576	38	6453
2026-01-07 04:43:05.96	259.29	84.63	-30.6	-31.2	28.8	0.00e+00	0	32	101	1048576	38	6368
2026-01-07 04:43:06.96	264.58	84.52	-30.7	-31.3	28.9	0.00e+00	0	32	101	1048576	38	6423
2026-01-07 04:43:07.97	269.66	84.36	-30.6	-31.2	28.8	0.00e+00	0	32	101	1048576	38	6333
2026-01-07 04:43:08.98	274.43	84.15	-30.7	-31.3	28.7	0.00e+00	0	32	101	1048576	38	6395
2026-01-07 04:43:09.99	278.84	83.92	-30.7	-31.2	28.8	0.00e+00	0	32	101	1048576	38	6377
2026-01-07 04:43:10.99	282.86	83.65	-30.3	-30.8	29.2	0.00e+00	0	32	101	1048576	38	6097
2026-01-07 04:43:12.00	286.57	83.35	-30.2	-30.8	29.2	0.00e+00	0	32	101	1048576	38	6035
2026-01-07 04:43:13.01	289.95	83.02	-30.5	-31.1	28.9	0.00e+00	0	32	101	1048576	38	6269
2026-01-07 04:43:14.01	292.98	82.68	-30.9	-31.6	28.5	0.00e+00	0	32	101	1048576	38	6629
2026-01-07 04:43:15.02	295.76	82.31	-30.7	-31.3	28.7	0.00e+00	0	32	101	1048576	38	6460
2026-01-07 04:43:16.03	298.28	81.93	-30.7	-31.3	28.7	0.00e+00	0	32	101	1048576	38	6448
2026-01-07 04:43:17.03	300.55	81.54	-30.7	-31.3	28.8	0.00e+00	0	32	101	1048576	38	6427
2026-01-07 04:43:18.04	302.63	81.14	-30.3	-30.8	28.0	0.00e+00	0	32	101	1048576	38	6086
2026-01-07 04:43:19.05	304.53	80.73	-30.3	-30.9	28.9	0.00e+00	0	32	101	1048576	38	6139
2026-01-07 04:43:20.06	306.26	80.30	-30.7	-31.3	28.8	0.00e+00	0	32	101	1048576	38	6399
2026-01-07 04:43:21.07	307.84	79.87	-30.6	-31.2	28.8	0.00e+00	0	32	101	1048576	38	6387
2026-01-07 04:43:22.08	309.29	79.44	-30.5	-31.1	28.9	0.00e+00	0	32	101	1048576	38	6287
2026-01-07 04:43:23.08	310.61	79.00	-30.2	-30.8	29.0	0.00e+00	0	32	101	1048576	38	6086
2026-01-07 04:43:24.09	311.84	78.56	-30.1	-30.7	29.1	0.00e+00	0	32	101	1048576	38	6000
2026-01-07 04:43:25.10	312.98	78.11	-30.0	-30.6	29.2	0.00e+00	0	32	101	1048576	38	5907
2026-01-07 04:43:26.10	314.02	77.66	-30.1	-30.7	29.2	0.00e+00	0	32	101	1048576	38	5987
2026-01-07 04:43:27.11	315.00	77.21	-30.4	-31.0	29.0	0.00e+00	0	32	101	1048576	38	6191
2026-01-07 04:43:28.12	315.90	76.75	-30.3	-30.9	29.1	0.00e+00	0	32	101	1048576	38	6120
2026-01-07 04:43:29.12	316.74	76.30	-30.0	-30.6	29.3	0.00e+00	0	32	101	1048576	38	5904
2026-01-07 04:43:30.13	317.53	75.84	-29.9	-30.5	29.0	0.00e+00	0	32	101	1048576	38	5857
2026-01-07 04:43:31.14	318.27	75.38	-30.2	-30.8	28.9	0.00e+00	0	32	101	1048576	38	6043
2026-01-07 04:43:32.14	318.95	74.92	-30.6	-31.2	28.7	0.00e+00	0	32	101	1048576	38	6343
2026-01-07 04:43:33.15	319.61	74.46	-30.5	-31.1	29.0	0.00e+00	0	32	101	1048576	38	6282
2026-01-07 04:43:34.16	320.22	74.00	-30.6	-31.2	28.9	0.00e+00	0	32	101	1048576	38	6351
2026-01-07 04:43:35.16	320.79	73.55	-31.0	-31.6	28.6	0.00e+00	0	32	101	1048576	38	6628
2026-01-07 04:43:36.17	321.33	73.09	-31.2	-31.8	28.4	0.00e+00	0	32	101	1048576	40	6092
2026-01-07 04:43:37.18	321.85	72.63	-31.1	-31.7	28.5	0.00e+00	0	32	101	1048576	40	5986
2026-01-07 04:43:38.19	322.33	72.17	-31.3	-31.8	28.5	0.00e+00	0	32	101	1048576	40	6100
2026-01-07 04:43:39.19	322.79	71.72	-31.5	-32.1	28.0	0.00e+00	0	32	101	1048576	40	6274
2026-01-07 04:43:40.20	323.23	71.26	-31.9	-32.5	27.7	0.00e+00	0	32	101	1048576	40	6567
2026-01-07 04:43:41.21	323.64	70.80	-32.4	-33.0	27.6	0.00e+00	0	32	101	1048576	42	6185
2026-01-07 04:43:42.22	324.04	70.35	-32.2	-32.8	27.8	0.00e+00	0	32	101	1048576	42	6066
2026-01-07 04:43:43.22	324.41	69.90	-32.0	-32.6	27.8	0.00e+00	0	32	101	1048576	42	5944
2026-01-07 04:43:44.23	324.77	69.45	-32.1	-32.7	27.6	0.00e+00	0	32	101	1048576	42	6026
2026-01-07 04:43:45.24	325.11	69.00	-32.4	-33.0	27.5	0.00e+00	0	32	101	1048576	42	6235
2026-01-07 04:43:46.25	325.44	68.55	-32.4	-33.0	27.3	0.00e+00	0	32	101	1048576	42	6211
2026-01-07 04:43:47.26	325.75	68.10	-32.5	-33.1	27.7	0.00e+00	0	32	101	1048576	42	6260
2026-01-07 04:43:48.26	326.05	67.66	-32.1	-32.7	27.9	0.00e+00	0	32	101	1048576	42	6020
2026-01-07 04:43:49.27	326.34	67.22	-31.9	-32.5	27.8	0.00e+00	0	32	101	1048576	42	5881
2026-01-07 04:43:50.28	326.61	66.77	-31.8	-32.4	28.0	0.00e+00	0	32	101	1048576	42	5788
2026-01-07 04:43:51.28	326.87	66.34	-31.8	-32.4	28.0	0.00e+00	0	32	101	1048576	42	5828
2026-01-07 04:43:52.29	327.13	65.90	-31.6	-32.2	28.0	0.00e+00	0	32	101	1048576	42	5674
2026-01-07 04:43:53.30	327.37	65.46	-31.6	-32.2	28.1	0.00e+00	0	32	101	1048576	42	5633
2026-01-07 04:43:54.31	327.61	65.03	-31.7	-32.3	28.1	0.00e+00	0	32	101	1048576	42	5714
2026-01-07 04:43:55.32	327.83	64.60	-31.5	-32.1	28.4	0.00e+00	0	32	101	1048576	42	5597
2026-01-07 04:43:56.32	328.05	64.17	-31.7	-32.3	27.8	0.00e+00	0	32	101	1048576	42	5736
2026-01-07 04:43:57.33	328.26	63.74	-31.8	-32.4	28.0	0.00e+00	0	32	101	1048576	42	5772
2026-01-07 04:43:58.33	328.46	63.32	-32.0	-32.5	28.0	0.00e+00	0	32	101	1048576	42	5895
2026-01-07 04:43:59.34	328.66	62.90	-31.9	-32.5	28.1	0.00e+00	0	32	101	1048576	42	5884
2026-01-07 04:44:00.34	328.85	62.48	-32.3	-32.8	27.8	0.00e+00	0	32	101	1048576	42	6102
2026-01-07 04:44:01.34	329.03	62.07	-32.2	-32.8	27.7	0.00e+00	0	32	101	1048576	42	6068
2026-01-07 04:44:02.35	329.20	61.65	-32.2	-32.8	27.8	0.00e+00	0	32	101	1048576	42	6066
2026-01-07 04:44:03.36	329.38	61.24	-32.4	-33.0	27.4	0.00e+00	0	32	101	1048576	42	6219
2026-01-07 04:44:04.37	329.54	60.83	-32.3	-32.9	27.7	0.00e+00	0	32	101	1048576	42	6168
2026-01-07 04:44:05.38	329.70	60.42	-32.3	-32.9	27.3	0.00e+00	0	32	101	1048576	42	6138
2026-01-07 04:44:06.38	329.86	60.01	-32.6	-33.2	27.0	0.00e+00	0	32	101	1048576	42	6388
2026-01-07 04:44:07.39	330.01	59.61	-32.9	-33.5	27.2	0.00e+00	0	32	101	1048576	44	5829
2026-01-07 04:44:08.39	330.15	59.21	-33.2	-33.9	26.9	0.00e+00	0	33	101	1048576	44	6121
2026-01-07 04:44:09.40	330.29	58.81	-33.4	-34.0	26.8	0.00e+00	0	32	101	1048576	44	6245
2026-01-07 04:44:10.41	330.43	58.42	-33.6	-34.2	26.1	0.00e+00	0	32	101	1048576	44	6384
2026-01-07 04:44:11.41	330.57	58.03	-33.7	-34.3	26.7	0.00e+00	0	32	101	1048576	44	6423
2026-01-07 04:44:12.42	330.70	57.63	-33.7	-34.4	26.2	0.00e+00	0	32	101	1048576	44	6468
2026-01-07 04:44:13.43	330.82	57.24	-33.6	-34.2	26.7	0.00e+00	0	32	101	1048576	44	6365
2026-01-07 04:44:14.44	330.95	56.86	-33.2	-33.9	26.9	0.00e+00	0	32	101	1048576	44	6115
2026-01-07 04:44:15.45	331.07	56.47	-33.0	-33.6	27.0	0.00e+00	0	32	101	1048576	44	5960
2026-01-07 04:44:16.45	331.18	56.10	-33.2	-33.8	27.0	0.00e+00	0	32	101	1048576	44	6079
2026-01-07 04:44:17.46	331.30	55.72	-33.3	-33.9	26.8	0.00e+00	0	32	101	1048576	44	6114
2026-01-07 04:44:18.46	331.41	55.34	-33.3	-34.0	26.9	0.00e+00	0	32	101	1048576	44	6176
2026-01-07 04:44:19.47	331.52	54.97	-33.2	-33.9	26.9	0.00e+00	0	32	101	1048576	44	6113
2026-01-07 04:44:20.47	331.62	54.60	-33.2	-33.8	26.9	0.00e+00	0	32	101	1048576	44	6058
2026-01-07 04:44:21.48	331.72	54.23	-33.1	-33.7	27.1	0.00e+00	0	33	101	1048576	44	6031
2026-01-07 04:44:22.49	331.82	53.87	-33.2	-33.9	26.8	0.00e+00	0	32	101	1048576	44	6114
2026-01-07 04:44:23.50	331.92	53.50	-32.9	-33.5	27.1	0.00e+00	0	33	101	1048576	44	5896
2026-01-07 04:44:24.51	332.02	53.14	-33.0	-33.6	27.3	0.00e+00	0	33	101	1048576	44	5926
2026-01-07 04:44:25.52	332.11	52.78	-32.9	-33.5	26.7	0.00e+00	0	32	101	1048576	44	5868
2026-01-07 04:44:26.53	332.20	52.43	-33.1	-33.7	27.0	0.00e+00	0	33	101	1048576	44	5986
2026-01-07 04:44:27.54	332.29	52.07	-32.9	-33.5	27.2	0.00e+00	0	32	101	1048576	44	5856
2026-01-07 04:44:28.55	332.38	51.72	-33.0	-33.6	27.2	0.00e+00	0	33	101	1048576	44	5915
2026-01-07 04:44:29.56	332.47	51.37	-33.2	-33.8	26.6	0.00e+00	0	32	101	1048576	44	6038
2026-01-07 04:44:30.57	332.55	51.03	-33.3	-33.9	27.0	0.00e+00	0	33	101	1048576	44	6136
2026-01-07 04:44:31.58	332.63	50.68	-33.2	-33.8	26.8	0.00e+00	0	32	101	1048576	44	6049
2026-01-07 04:44:32.59	332.71	50.34	-33.1	-33.6	27.1	0.00e+00	0	33	101	1048576	44	5963
2026-01-07 04:44:33.60	332.79	50.00	-32.9	-33.5	27.2	0.00e+00	0	32	101	1048576	44	5860
2026-01-07 04:44:34.61	332.87	49.66	-33.0	-33.6	27.2	0.00e+00	0	32	101	1048576	44	5952
2026-01-07 04:44:35.62	332.94	49.33	-33.2	-33.8	27.0	0.00e+00	0	33	101	1048576	44	6048
2026-01-07 04:44:36.63	333.01	49.00	-33.1	-33.7	24.0	0.00e+00	0	33	101	1048576	44	5970
2026-01-07 04:44:37.64	333.09	48.67	-33.1	-33.8	27.0	0.00e+00	0	32	101	1048576	44	6040
2026-01-07 04:44:38.65	333.16	48.34	-33.1	-33.7	26.9	0.00e+00	0	33	101	1048576	44	5999
2026-01-07 04:44:39.66	333.23	48.02	-32.9	-33.5	27.0	0.00e+00	0	32	101	1048576	44	5886
2026-01-07 04:44:40.67	333.29	47.70	-32.8	-33.4	27.3	0.00e+00	0	32	101	1048576	44	5822
2026-01-07 04:44:41.68	333.36	47.38	-32.8	-33.4	27.0	0.00e+00	0	32	101	1048576	44	5794
2026-01-07 04:44:42.69	333.43	47.06	-32.7	-33.3	27.5	0.00e+00	0	32	101	1048576	44	5724
2026-01-07 04:44:43.70	333.49	46.75	-32.8	-33.4	27.3	0.00e+00	0	32	101	1048576	44	5793
2026-01-07 04:44:44.71	333.55	46.43	-32.6	-33.2	27.4	0.00e+00	0	33	101	1048576	44	5643
2026-01-07 04:44:45.72	333.61	46.12	-32.7	-33.3	27.3	0.00e+00	0	32	101	1048576	44	5746
2026-01-07 04:44:46.73	333.68	45.82	-32.9	-33.5	27.3	0.00e+00	0	33	101	1048576	44	5874
2026-01-07 04:44:47.74	333.73	45.51	-32.8	-33.4	27.2	0.00e+00	0	33	101	1048576	44	5776
2026-01-07 04:44:48.76	333.79	45.20	-32.5	-33.1	27.5	0.00e+00	0	32	101	1048576	44	5615
2026-01-07 04:44:49.77	333.85	44.90	-32.4	-33.0	27.4	0.00e+00	0	32	101	1048576	44	5546
2026-01-07 04:44:50.78	333.91	44.60	-32.2	-32.8	27.7	0.00e+00	0	32	101	1048576	44	5431
2026-01-07 04:44:51.79	333.96	44.31	-32.2	-32.8	27.7	0.00e+00	0	32	101	1048576	44	5430
2026-01-07 04:44:52.80	334.02	44.01	-32.1	-32.6	27.6	0.00e+00	0	32	101	1048576	42	5960
2026-01-07 04:44:53.81	334.07	43.72	-31.8	-32.4	28.0	0.00e+00	0	32	101	1048576	42	5806
2026-01-07 04:44:54.82	334.12	43.43	-31.7	-32.3	27.9	0.00e+00	0	32	101	1048576	42	5752
2026-01-07 04:44:55.83	334.18	43.14	-31.6	-32.2	28.0	0.00e+00	0	32	101	1048576	42	5654
2026-01-07 04:44:56.84	334.23	42.86	-31.8	-32.4	27.8	0.00e+00	0	32	101	1048576	42	5774
2026-01-07 04:44:57.85	334.28	42.57	-31.7	-32.3	26.2	0.00e+00	0	32	101	1048576	42	5740
2026-01-07 04:44:58.86	334.33	42.29	-31.9	-32.5	27.8	0.00e+00	0	33	101	1048576	42	5890
2026-01-07 04:44:59.87	334.37	42.01	-32.1	-32.7	27.8	0.00e+00	0	32	101	1048576	42	6000
2026-01-07 04:45:00.88	334.42	41.74	-31.9	-32.5	27.5	0.00e+00	0	32	101	1048576	42	5847
2026-01-07 04:45:01.90	334.47	41.46	-32.0	-32.6	26.7	0.00e+00	0	33	101	1048576	42	5947
2026-01-07 04:45:02.91	334.52	41.19	-32.0	-32.6	26.6	0.00e+00	0	32	101	1048576	42	5952
2026-01-07 04:45:03.92	334.56	40.91	-32.0	-32.6	27.8	0.00e+00	0	32	101	1048576	42	5928
2026-01-07 04:45:04.93	334.61	40.65	-32.0	-32.6	27.5	0.00e+00	0	33	101	1048576	42	5946
2026-01-07 04:45:05.94	334.65	40.38	-31.9	-32.5	27.4	0.00e+00	0	32	101	1048576	42	5875
2026-01-07 04:45:06.94	334.69	40.12	-31.8	-32.4	27.5	0.00e+00	0	32	101	1048576	42	5815
2026-01-07 04:45:07.95	334.74	39.85	-31.9	-32.5	28.0	0.00e+00	0	32	101	1048576	42	5842
2026-01-07 04:45:08.97	334.78	39.59	-31.8	-32.4	27.9	0.00e+00	0	32	101	1048576	42	5786
2026-01-07 04:45:09.98	334.82	39.33	-31.9	-32.5	27.5	0.00e+00	0	33	101	1048576	42	5883
2026-01-07 04:45:10.99	334.86	39.07	-32.0	-32.6	27.9	0.00e+00	0	33	101	1048576	42	5918
2026-01-07 04:45:12.00	334.90	38.82	-32.0	-32.6	27.9	0.00e+00	0	32	101	1048576	42	5957
2026-01-07 04:45:13.01	334.94	38.56	-32.2	-32.8	27.7	0.00e+00	0	32	101	1048576	42	6057
2026-01-07 04:45:14.02	334.98	38.31	-32.1	-32.7	27.6	0.00e+00	0	32	101	1048576	42	5985
2026-01-07 04:45:15.02	335.02	38.07	-32.1	-32.7	28.0	0.00e+00	0	32	101	1048576	42	5985
2026-01-07 04:45:16.04	335.06	37.82	-32.0	-32.6	28.0	0.00e+00	0	33	101	1048576	42	5926
2026-01-07 04:45:17.05	335.10	37.57	-31.9	-32.5	28.0	0.00e+00	0	32	101	1048576	42	5889
2026-01-07 04:45:18.06	335.14	37.33	-31.8	-32.4	28.0	0.00e+00	0	32	101	1048576	42	5783
2026-01-07 04:45:19.07	335.17	37.08	-31.7	-32.3	27.5	0.00e+00	0	33	101	1048576	42	5719
2026-01-07 04:45:20.08	335.21	36.84	-31.5	-32.1	28.3	0.00e+00	0	33	101	1048576	42	5603
2026-01-07 04:45:21.09	335.25	36.60	-31.4	-32.0	28.2	0.00e+00	0	32	101	1048576	42	5527
2026-01-07 04:45:22.10	335.28	36.37	-31.3	-31.9	28.4	0.00e+00	0	32	101	1048576	42	5489
2026-01-07 04:45:23.11	335.32	36.13	-31.3	-31.9	28.5	0.00e+00	0	32	101	1048576	42	5481
2026-01-07 04:45:24.12	335.35	35.90	-31.3	-31.9	28.4	0.00e+00	0	32	101	1048576	42	5486
2026-01-07 04:45:25.13	335.39	35.66	-31.3	-31.9	28.2	0.00e+00	0	32	101	1048576	42	5491
2026-01-07 04:45:26.15	335.42	35.43	-31.4	-32.0	28.3	0.00e+00	0	32	101	1048576	42	5550
2026-01-07 04:45:27.15	335.45	35.21	-31.4	-32.0	28.5	0.00e+00	0	33	101	1048576	42	5526
2026-01-07 04:45:28.16	335.49	34.98	-31.4	-32.0	28.1	0.00e+00	0	33	101	1048576	42	5535
2026-01-07 04:45:29.17	335.52	34.75	-31.5	-32.1	28.3	0.00e+00	0	32	101	1048576	42	5593
2026-01-07 04:45:30.19	335.55	34.53	-31.5	-32.1	28.3	0.00e+00	0	32	101	1048576	42	5572
2026-01-07 04:45:31.20	335.58	34.30	-31.5	-32.1	28.2	0.00e+00	0	33	101	1048576	42	5617
2026-01-07 04:45:32.21	335.61	34.08	-31.5	-32.1	28.3	0.00e+00	0	32	101	1048576	42	5611
2026-01-07 04:45:33.22	335.64	33.86	-31.4	-32.0	28.4	0.00e+00	0	32	101	1048576	42	5526
2026-01-07 04:45:34.23	335.67	33.65	-31.4	-32.0	28.5	0.00e+00	0	32	101	1048576	42	5505
2026-01-07 04:45:35.24	335.71	33.43	-31.5	-32.1	28.2	0.00e+00	0	32	101	1048576	42	5592
2026-01-07 04:45:36.25	335.74	33.22	-31.5	-32.1	28.3	0.00e+00	0	32	101	1048576	42	5620
2026-01-07 04:45:37.26	335.76	33.00	-31.3	-31.9	28.4	0.00e+00	0	32	101	1048576	42	5459
2026-01-07 04:45:38.27	335.79	32.79	-31.3	-31.9	28.5	0.00e+00	0	32	101	1048576	42	5455
2026-01-07 04:45:39.28	335.82	32.58	-31.2	-31.8	28.6	0.00e+00	0	32	101	1048576	42	5414
2026-01-07 04:45:40.29	335.85	32.37	-31.2	-31.8	28.5	0.00e+00	0	32	101	1048576	42	5422
2026-01-07 04:45:41.30	335.88	32.17	-31.3	-31.9	28.5	0.00e+00	0	33	101	1048576	42	5445
2026-01-07 04:45:42.31	335.91	31.96	-31.3	-31.9	28.4	0.00e+00	0	33	101	1048576	42	5463
2026-01-07 04:45:43.32	335.94	31.76	-31.3	-31.9	28.4	0.00e+00	0	32	101	1048576	42	5475
2026-01-07 04:45:44.33	335.96	31.55	-31.4	-32.0	28.3	0.00e+00	0	32	101	1048576	42	5532
2026-01-07 04:45:45.34	335.99	31.35	-31.2	-31.8	28.2	0.00e+00	0	32	101	1048576	42	5430
2026-01-07 04:45:46.35	336.02	31.15	-31.3	-31.9	28.5	0.00e+00	0	32	101	1048576	42	5467
2026-01-07 04:45:47.36	336.04	30.95	-31.4	-32.0	28.3	0.00e+00	0	32	101	1048576	42	5526
2026-01-07 04:45:48.37	336.07	30.76	-31.4	-32.0	28.4	0.00e+00	0	33	101	1048576	42	5542
2026-01-07 04:45:49.38	336.10	30.56	-31.5	-32.1	28.1	0.00e+00	0	33	101	1048576	42	5588
2026-01-07 04:45:50.39	336.12	30.36	-31.5	-32.1	28.3	0.00e+00	0	32	101	1048576	42	5622
2026-01-07 04:45:51.40	336.15	30.17	-31.8	-32.4	28.2	0.00e+00	0	32	101	1048576	42	5774
2026-01-07 04:45:52.41	336.17	29.98	-31.7	-32.3	28.0	0.00e+00	0	32	101	1048576	42	5716
2026-01-07 04:45:53.42	336.20	29.79	-31.8	-32.4	28.1	0.00e+00	0	32	101	1048576	42	5820
2026-01-07 04:45:54.43	336.22	29.60	-31.8	-32.4	28.1	0.00e+00	0	32	101	1048576	42	5800
2026-01-07 04:45:55.45	336.25	29.41	-31.9	-32.5	27.9	0.00e+00	0	32	101	1048576	42	5884
2026-01-07 04:45:56.45	336.27	29.22	-31.8	-32.4	28.1	0.00e+00	0	32	101	1048576	42	5794
2026-01-07 04:45:57.47	336.30	29.03	-32.0	-32.6	27.8	0.00e+00	0	32	101	1048576	42	5904
2026-01-07 04:45:58.48	336.32	28.85	-31.8	-32.4	28.1	0.00e+00	0	33	101	1048576	42	5814
2026-01-07 04:45:59.48	336.34	28.67	-32.0	-32.6	27.7	0.00e+00	0	32	101	1048576	42	5957
2026-01-07 04:46:00.49	336.37	28.49	-31.9	-32.5	27.9	0.00e+00	0	32	101	1048576	42	5891
2026-01-07 04:46:01.50	336.39	28.31	-32.0	-32.6	27.7	0.00e+00	0	32	101	1048576	42	5934
2026-01-07 04:46:02.51	336.41	28.13	-31.9	-32.5	28.0	0.00e+00	0	32	101	1048576	42	5887
2026-01-07 04:46:03.52	336.44	27.95	-32.1	-32.7	27.8	0.00e+00	0	33	101	1048576	42	6012
2026-01-07 04:46:04.53	336.46	27.77	-32.0	-32.6	27.9	0.00e+00	0	33	101	1048576	42	5964
2026-01-07 04:46:05.54	336.48	27.59	-32.0	-32.6	27.9	0.00e+00	0	33	101	1048576	42	5954
2026-01-07 04:46:06.55	336.50	27.42	-32.0	-32.6	27.9	0.00e+00	0	32	101	1048576	42	5952
2026-01-07 04:46:07.56	336.52	27.24	-32.1	-32.7	27.9	0.00e+00	0	32	101	1048576	42	6000
2026-01-07 04:46:08.57	336.55	27.07	-32.0	-32.6	28.0	0.00e+00	0	32	101	1048576	42	5947
2026-01-07 04:46:09.58	336.57	26.90	-32.1	-32.7	27.7	0.00e+00	0	33	101	1048576	42	6007
2026-01-07 04:46:10.59	336.59	26.73	-32.0	-32.6	27.9	0.00e+00	0	32	101	1048576	42	5930
2026-01-07 04:46:11.60	336.61	26.56	-32.1	-32.7	27.8	0.00e+00	0	32	101	1048576	42	6023
2026-01-07 04:46:12.61	336.63	26.39	-32.1	-32.7	27.8	0.00e+00	0	32	101	1048576	42	5982
2026-01-07 04:46:13.62	336.65	26.22	-32.0	-32.6	27.8	0.00e+00	0	32	101	1048576	42	5916
2026-01-07 04:46:14.63	336.67	26.05	-32.0	-32.7	27.9	0.00e+00	0	32	101	1048576	42	5965
2026-01-07 04:46:15.65	336.69	25.89	-32.1	-32.7	27.8	0.00e+00	0	32	101	1048576	42	5971
2026-01-07 04:46:16.65	336.71	25.72	-32.1	-32.7	27.8	0.00e+00	0	32	101	1048576	42	5977
2026-01-07 04:46:17.66	336.73	25.56	-32.1	-32.7	27.8	0.00e+00	0	32	101	1048576	42	5985
2026-01-07 04:46:18.67	336.75	25.40	-32.0	-32.6	27.9	0.00e+00	0	32	101	1048576	42	5925
2026-01-07 04:46:19.68	336.77	25.24	-32.0	-32.5	28.0	0.00e+00	0	32	101	1048576	42	5896
2026-01-07 04:46:20.70	336.79	25.07	-32.1	-32.7	27.6	0.00e+00	0	32	101	1048576	42	5998
2026-01-07 04:46:21.71	336.81	24.91	-32.0	-32.6	27.8	0.00e+00	0	32	101	1048576	42	5952
2026-01-07 04:46:22.72	336.83	24.76	-32.2	-32.8	27.6	0.00e+00	0	32	101	1048576	42	6047
2026-01-07 04:46:23.73	336.85	24.60	-32.0	-32.6	27.8	0.00e+00	0	33	101	1048576	42	5941
2026-01-07 04:46:24.74	336.87	24.44	-32.1	-32.7	27.8	0.00e+00	0	32	101	1048576	42	5984
2026-01-07 04:46:25.75	336.89	24.28	-32.1	-32.7	27.8	0.00e+00	0	32	101	1048576	42	5990
2026-01-07 04:46:26.75	336.91	24.13	-32.0	-32.6	27.9	0.00e+00	0	32	101	1048576	42	5936
2026-01-07 04:46:27.77	336.93	23.98	-32.2	-32.8	27.8	0.00e+00	0	32	101	1048576	42	6050
2026-01-07 04:46:28.78	336.95	23.82	-32.0	-32.6	27.9	0.00e+00	0	32	101	1048576	42	5926
2026-01-07 04:46:29.79	336.96	23.67	-32.1	-32.7	27.8	0.00e+00	0	32	101	1048576	42	6019
2026-01-07 04:46:30.80	336.98	23.52	-32.2	-32.8	27.5	0.00e+00	0	32	101	1048576	42	6059
2026-01-07 04:46:31.81	337.00	23.37	-32.1	-32.7	27.8	0.00e+00	0	32	101	1048576	42	5975
2026-01-07 04:46:32.82	337.02	23.22	-32.2	-32.8	27.6	0.00e+00	0	32	101	1048576	42	6057
2026-01-07 04:46:33.82	337.04	23.07	-32.1	-32.7	27.8	0.00e+00	0	32	101	1048576	42	5987
2026-01-07 04:46:34.83	337.05	22.92	-32.2	-32.8	27.8	0.00e+00	0	32	101	1048576	42	6046
2026-01-07 04:46:35.84	337.07	22.78	-32.1	-32.7	27.8	0.00e+00	0	32	101	1048576	42	5997
2026-01-07 04:46:36.85	337.09	22.63	-32.1	-32.7	27.5	0.00e+00	0	32	101	1048576	42	6029
2026-01-07 04:46:37.87	337.11	22.48	-32.1	-32.7	27.8	0.00e+00	0	32	101	1048576	42	6023
2026-01-07 04:46:38.87	337.12	22.34	-32.1	-32.7	27.8	0.00e+00	0	33	101	1048576	42	6010
2026-01-07 04:46:39.89	337.14	22.20	-32.1	-32.7	27.7	0.00e+00	0	32	101	1048576	42	6017
2026-01-07 04:46:40.90	337.16	22.05	-32.1	-32.7	27.7	0.00e+00	0	32	101	1048576	42	6021
2026-01-07 04:46:41.91	337.17	21.91	-32.2	-32.8	27.5	0.00e+00	0	32	101	1048576	42	6079
2026-01-07 04:46:42.92	337.19	21.77	-32.2	-32.8	27.8	0.00e+00	0	32	101	1048576	42	6036
2026-01-07 04:46:43.93	337.21	21.63	-32.3	-32.9	27.6	0.00e+00	0	32	101	1048576	42	6124
2026-01-07 04:46:44.94	337.22	21.49	-32.3	-32.8	27.7	0.00e+00	0	32	101	1048576	42	6089
2026-01-07 04:46:45.95	337.24	21.35	-32.3	-32.9	27.6	0.00e+00	0	32	101	1048576	42	6148
2026-01-07 04:46:46.96	337.26	21.21	-32.3	-32.9	27.6	0.00e+00	0	32	101	1048576	42	6149
2026-01-07 04:46:47.97	337.27	21.07	-32.3	-32.9	27.7	0.00e+00	0	32	101	1048576	42	6128
2026-01-07 04:46:48.97	337.29	20.94	-32.4	-33.0	27.6	0.00e+00	0	32	101	1048576	42	6232
2026-01-07 04:46:49.98	337.30	20.80	-32.4	-33.0	27.6	0.00e+00	0	32	101	1048576	42	6216
2026-01-07 04:46:50.99	337.32	20.67	-32.4	-33.0	27.5	0.00e+00	0	32	101	1048576	42	6203
2026-01-07 04:46:52.00	337.34	20.53	-32.4	-33.0	27.4	0.00e+00	0	32	101	1048576	42	6241
2026-01-07 04:46:53.01	337.35	20.40	-32.4	-33.0	27.5	0.00e+00	0	32	101	1048576	42	6224
2026-01-07 04:46:54.03	337.37	20.26	-32.5	-33.1	27.4	0.00e+00	0	32	101	1048576	42	6274
2026-01-07 04:46:55.04	337.38	20.13	-32.6	-33.2	27.3	0.00e+00	0	32	101	1048576	42	6343
