passes_logs/2026/01/07/R4.6S_Anadyr_2ch/R4.6S_Anadyr_2ch__20260107_225809_TY-40_rec.log

#Pass ID: 20260107_225809_TY-40
#Satellite: TY-40
#Configuration: TY-39_900M
#almurnet v.1.7.20251203
#Start time: 2026-01-07 22:58:38

#Version: 2.2.20231116
#Station: R4.6S_Anadyr_2ch
#Location: 177.4865 lon 64.73178 lat
#TLE: 1 56846U 23081A   25350.97536409  .00002626  00000-0  11966-3 0  9993
#TLE: 2 56846  97.3941  59.4076 0002022  98.6035 261.5430 15.21533877140291

#Time	Az	El	Level	Level2	SNR	BER	BlckErr	Temp	State	Recorded	gain1	gain2
2026-01-07 22:58:38.89	19.02	1.95	-52.1	-67.1	3.5	1.51e+00	0	33	0	0	60	110443
2026-01-07 22:58:39.90	19.05	2.02	-51.9	-54.3	6.1	0.00e+00	0	34	104	0	60	86968
2026-01-07 22:58:40.91	19.08	2.09	-51.9	-54.4	6.1	0.00e+00	0	34	104	0	60	87269
2026-01-07 22:58:41.92	19.10	2.16	-51.9	-54.4	6.1	0.00e+00	0	34	104	0	60	87627
2026-01-07 22:58:42.93	19.13	2.23	-51.9	-54.4	6.1	0.00e+00	0	34	104	0	60	87263
2026-01-07 22:58:43.94	19.16	2.30	-51.9	-54.4	6.1	0.00e+00	0	34	104	0	60	87251
2026-01-07 22:58:44.95	19.19	2.37	-51.9	-54.4	6.1	0.00e+00	0	34	104	0	60	87312
2026-01-07 22:58:45.96	19.21	2.44	-51.9	-54.4	6.1	0.00e+00	0	35	104	0	60	87530
2026-01-07 22:58:46.98	19.24	2.51	-51.9	-54.3	6.1	0.00e+00	0	35	104	0	60	87072
2026-01-07 22:58:47.99	19.27	2.58	-51.9	-54.3	6.1	0.00e+00	0	35	104	0	60	87106
2026-01-07 22:58:49.00	19.30	2.65	-51.9	-54.3	6.1	0.00e+00	0	35	104	0	60	87116
2026-01-07 22:58:50.01	19.32	2.73	-51.9	-54.4	6.1	0.00e+00	0	35	104	0	60	87407
2026-01-07 22:58:51.02	19.35	2.80	-51.9	-54.4	6.1	0.00e+00	0	35	104	0	60	87292
2026-01-07 22:58:52.03	19.38	2.87	-51.9	-54.4	6.1	0.00e+00	0	35	104	0	60	87618
2026-01-07 22:58:53.04	19.41	2.94	-51.9	-54.4	6.1	0.00e+00	0	35	104	0	60	87422
2026-01-07 22:58:54.05	19.44	3.01	-51.9	-54.3	6.1	0.00e+00	0	35	104	0	60	87134
2026-01-07 22:58:55.06	19.47	3.09	-51.9	-54.4	6.1	0.00e+00	0	35	104	0	60	87703
2026-01-07 22:58:56.08	19.50	3.16	-51.9	-54.4	6.1	0.00e+00	0	35	104	0	60	87441
2026-01-07 22:58:57.09	19.53	3.24	-51.9	-54.3	6.1	0.00e+00	0	35	104	0	60	87200
2026-01-07 22:58:58.09	19.55	3.31	-51.9	-54.4	6.1	0.00e+00	0	35	104	0	60	87619
2026-01-07 22:58:59.11	19.58	3.38	-51.9	-54.4	6.1	0.00e+00	0	35	104	0	60	87464
2026-01-07 22:59:00.12	19.61	3.46	-51.9	-54.4	6.1	0.00e+00	0	35	104	0	60	87714
2026-01-07 22:59:01.13	19.64	3.53	-51.9	-54.4	6.1	0.00e+00	0	35	104	0	60	87214
2026-01-07 22:59:02.14	19.67	3.61	-51.9	-54.4	6.1	0.00e+00	0	35	104	0	60	87772
2026-01-07 22:59:03.15	19.70	3.68	-51.9	-54.3	6.1	0.00e+00	0	35	104	0	60	87067
2026-01-07 22:59:04.16	19.73	3.76	-51.9	-54.4	6.1	0.00e+00	0	35	104	0	60	87585
2026-01-07 22:59:05.17	19.76	3.83	-51.9	-54.4	6.1	0.00e+00	0	35	104	0	60	87300
2026-01-07 22:59:06.18	19.80	3.91	-51.9	-54.4	6.1	0.00e+00	0	35	104	0	60	87324
2026-01-07 22:59:07.19	19.83	3.98	-51.9	-54.4	6.1	0.00e+00	0	35	104	0	60	87565
2026-01-07 22:59:08.20	19.86	4.06	-51.9	-54.4	6.1	0.00e+00	0	35	104	0	60	87547
2026-01-07 22:59:09.22	19.89	4.14	-51.9	-54.4	6.1	0.00e+00	0	35	104	0	60	87705
2026-01-07 22:59:10.23	19.92	4.22	-51.9	-54.4	6.1	0.00e+00	0	35	104	0	60	87330
2026-01-07 22:59:11.24	19.95	4.29	-51.9	-54.4	6.1	0.00e+00	0	35	104	0	60	87624
2026-01-07 22:59:12.25	19.98	4.37	-51.9	-54.4	6.1	0.00e+00	0	35	104	0	60	87450
2026-01-07 22:59:13.26	20.02	4.45	-51.9	-54.4	6.1	0.00e+00	0	35	104	0	60	87739
2026-01-07 22:59:14.27	20.05	4.53	-51.9	-54.4	6.1	0.00e+00	0	35	104	0	60	87549
2026-01-07 22:59:15.28	20.08	4.60	-51.9	-54.4	6.1	0.00e+00	0	35	104	0	60	87751
2026-01-07 22:59:16.29	20.11	4.68	-51.9	-54.4	6.1	0.00e+00	0	35	104	0	60	87738
2026-01-07 22:59:17.30	20.14	4.76	-51.9	-54.4	6.1	0.00e+00	0	35	104	0	60	87812
2026-01-07 22:59:18.31	20.18	4.84	-51.9	-54.4	6.1	0.00e+00	0	36	104	0	60	87860
2026-01-07 22:59:19.32	20.21	4.92	-51.9	-54.4	6.1	0.00e+00	0	35	104	0	60	87514
2026-01-07 22:59:20.34	20.24	5.00	-51.9	-54.4	6.1	0.00e+00	0	35	104	0	60	87922
2026-01-07 22:59:21.35	20.28	5.08	-51.9	-54.4	6.1	0.00e+00	0	36	104	0	60	87496
2026-01-07 22:59:22.36	20.31	5.16	-51.9	-54.4	6.1	0.00e+00	0	36	104	0	60	87321
2026-01-07 22:59:23.37	20.34	5.24	-51.9	-54.4	6.1	0.00e+00	0	36	104	0	60	87589
2026-01-07 22:59:24.38	20.38	5.33	-51.9	-54.4	6.1	0.00e+00	0	36	104	0	60	87742
2026-01-07 22:59:25.39	20.41	5.41	-51.9	-54.4	6.1	0.00e+00	0	36	104	0	60	87785
2026-01-07 22:59:26.40	20.45	5.49	-51.9	-54.4	6.1	0.00e+00	0	36	104	0	60	87671
2026-01-07 22:59:27.41	20.48	5.57	-51.9	-54.4	6.1	0.00e+00	0	36	104	0	60	87865
2026-01-07 22:59:28.42	20.52	5.65	-51.9	-54.4	6.1	0.00e+00	0	36	104	0	60	87639
2026-01-07 22:59:29.44	20.55	5.74	-51.9	-54.3	6.1	0.00e+00	0	36	104	0	60	86860
2026-01-07 22:59:30.45	20.59	5.82	-51.9	-54.4	6.1	0.00e+00	0	36	104	0	60	87476
2026-01-07 22:59:31.46	20.62	5.91	-51.9	-54.4	6.1	0.00e+00	0	36	104	0	60	87755
2026-01-07 22:59:32.47	20.66	5.99	-51.9	-54.4	6.1	0.00e+00	0	36	104	0	60	87596
2026-01-07 22:59:33.48	20.70	6.07	-51.9	-54.4	6.1	0.00e+00	0	36	104	0	60	87333
2026-01-07 22:59:34.49	20.73	6.16	-51.9	-54.4	6.1	0.00e+00	0	36	104	0	60	87214
2026-01-07 22:59:35.50	20.77	6.24	-51.9	-54.4	6.1	0.00e+00	0	36	104	0	60	87464
2026-01-07 22:59:36.51	20.80	6.33	-51.9	-54.4	6.1	0.00e+00	0	36	104	0	60	87579
2026-01-07 22:59:37.52	20.84	6.42	-51.9	-54.4	6.1	0.00e+00	0	36	104	0	60	87774
2026-01-07 22:59:38.53	20.88	6.50	-51.9	-54.4	6.1	0.00e+00	0	36	104	0	60	87645
2026-01-07 22:59:39.55	20.92	6.59	-51.9	-54.4	6.1	0.00e+00	0	36	104	0	60	87948
2026-01-07 22:59:40.55	20.95	6.68	-51.9	-54.4	6.1	0.00e+00	0	36	104	0	60	88006
2026-01-07 22:59:41.57	20.99	6.76	-51.9	-54.4	6.1	0.00e+00	0	36	104	0	60	87669
2026-01-07 22:59:42.58	21.03	6.85	-51.9	-54.4	6.1	0.00e+00	0	36	104	0	60	87616
2026-01-07 22:59:43.59	21.07	6.94	-51.9	-54.4	6.1	0.00e+00	0	36	104	0	60	87801
2026-01-07 22:59:44.60	21.11	7.03	-51.9	-54.4	6.1	0.00e+00	0	36	104	0	60	87616
2026-01-07 22:59:45.61	21.15	7.12	-51.9	-54.4	6.1	0.00e+00	0	36	104	0	60	87504
2026-01-07 22:59:46.62	21.19	7.21	-51.9	-54.4	6.1	0.00e+00	0	36	104	0	60	87252
2026-01-07 22:59:47.63	21.23	7.30	-51.9	-54.4	6.1	0.00e+00	0	36	104	0	60	87857
2026-01-07 22:59:48.64	21.27	7.39	-51.9	-54.4	6.1	0.00e+00	0	36	104	0	60	87396
2026-01-07 22:59:49.65	21.31	7.48	-51.9	-54.4	6.1	0.00e+00	0	36	104	0	60	87821
2026-01-07 22:59:50.66	21.35	7.57	-51.9	-54.4	6.1	0.00e+00	0	36	104	0	60	87833
2026-01-07 22:59:51.68	21.39	7.66	-51.9	-54.4	6.1	0.00e+00	0	36	104	0	60	87568
2026-01-07 22:59:52.69	21.43	7.75	-51.9	-54.4	6.1	0.00e+00	0	36	104	0	60	87435
2026-01-07 22:59:53.70	21.47	7.85	-51.9	-54.4	6.1	0.00e+00	0	36	104	0	60	87649
2026-01-07 22:59:54.71	21.51	7.94	-51.9	-54.4	6.1	0.00e+00	0	36	104	0	60	87452
2026-01-07 22:59:55.72	21.55	8.03	-51.9	-54.4	6.1	0.00e+00	0	36	104	0	60	87680
2026-01-07 22:59:56.73	21.59	8.13	-51.9	-54.4	6.1	0.00e+00	0	36	104	0	60	87715
2026-01-07 22:59:57.74	21.64	8.22	-51.9	-54.3	6.1	0.00e+00	0	36	104	0	60	87108
2026-01-07 22:59:58.75	21.68	8.31	-51.9	-54.4	6.1	0.00e+00	0	36	104	0	60	87517
2026-01-07 22:59:59.76	21.72	8.41	-51.9	-54.4	6.1	0.00e+00	0	36	104	0	60	87514
2026-01-07 23:00:00.78	21.77	8.51	-51.9	-54.4	6.1	0.00e+00	0	36	104	0	60	87637
2026-01-07 23:00:01.79	21.81	8.60	-51.9	-54.4	6.1	0.00e+00	0	36	104	0	60	87851
2026-01-07 23:00:02.80	21.85	8.70	-51.9	-54.4	6.1	0.00e+00	0	36	104	0	60	87514
2026-01-07 23:00:03.81	21.90	8.80	-51.9	-54.4	6.1	0.00e+00	0	36	104	0	60	87875
2026-01-07 23:00:04.82	21.94	8.89	-51.9	-54.4	6.1	0.00e+00	0	36	104	0	60	87836
2026-01-07 23:00:05.83	21.99	8.99	-51.9	-54.3	6.1	0.00e+00	0	36	104	0	60	87205
2026-01-07 23:00:06.84	22.03	9.09	-51.9	-54.4	6.1	0.00e+00	0	36	104	0	60	87510
2026-01-07 23:00:07.85	22.08	9.19	-51.9	-54.4	6.1	0.00e+00	0	36	104	0	60	87709
2026-01-07 23:00:08.86	22.12	9.29	-51.9	-54.4	6.1	0.00e+00	0	36	104	0	60	87523
2026-01-07 23:00:09.88	22.17	9.39	-51.9	-54.4	6.1	0.00e+00	0	37	104	0	60	87625
2026-01-07 23:00:10.89	22.22	9.49	-51.9	-54.4	6.1	0.00e+00	0	36	104	0	60	87635
2026-01-07 23:00:11.90	22.27	9.59	-51.9	-54.4	6.1	0.00e+00	0	36	104	0	60	87259
2026-01-07 23:00:12.91	22.31	9.69	-51.9	-54.4	6.1	0.00e+00	0	36	104	0	60	87747
2026-01-07 23:00:13.92	22.36	9.80	-51.9	-54.4	6.1	0.00e+00	0	36	104	0	60	87840
2026-01-07 23:00:14.93	22.41	9.90	-51.9	-54.4	6.1	0.00e+00	0	36	104	0	60	87844
2026-01-07 23:00:15.94	22.46	10.00	-51.9	-54.4	6.1	0.00e+00	0	36	104	0	60	87778
2026-01-07 23:00:16.95	22.51	10.11	-51.9	-54.3	6.1	0.00e+00	0	37	104	0	60	86992
2026-01-07 23:00:17.96	22.56	10.21	-51.9	-54.4	6.1	0.00e+00	0	36	104	0	60	87354
2026-01-07 23:00:18.97	22.61	10.31	-51.9	-54.4	6.1	0.00e+00	0	36	104	0	60	87835
2026-01-07 23:00:19.99	22.66	10.42	-51.9	-54.4	6.1	0.00e+00	0	37	104	0	60	87840
2026-01-07 23:00:21.00	22.71	10.53	-51.9	-54.4	6.1	0.00e+00	0	37	104	0	60	87724
2026-01-07 23:00:22.01	22.76	10.63	-51.9	-54.4	6.1	0.00e+00	0	37	104	0	60	87693
2026-01-07 23:00:23.02	22.81	10.74	-51.9	-54.4	6.1	0.00e+00	0	37	104	0	60	87548
2026-01-07 23:00:24.03	22.86	10.85	-51.9	-54.4	6.1	0.00e+00	0	37	104	0	60	87644
2026-01-07 23:00:25.04	22.91	10.96	-51.9	-54.4	6.1	0.00e+00	0	36	104	0	60	87574
2026-01-07 23:00:26.05	22.97	11.07	-51.9	-54.4	6.1	0.00e+00	0	37	104	0	60	87395
2026-01-07 23:00:27.06	23.02	11.18	-51.9	-54.4	6.1	0.00e+00	0	37	104	0	60	88066
2026-01-07 23:00:28.07	23.07	11.29	-51.9	-54.4	6.1	0.00e+00	0	37	104	0	60	88203
2026-01-07 23:00:29.08	23.13	11.40	-51.9	-54.3	6.1	0.00e+00	0	37	104	0	60	87009
2026-01-07 23:00:30.10	23.18	11.51	-51.9	-54.4	6.1	0.00e+00	0	37	104	0	60	87433
2026-01-07 23:00:31.11	23.24	11.63	-51.9	-54.4	6.1	0.00e+00	0	37	104	0	60	87776
2026-01-07 23:00:32.12	23.29	11.74	-51.9	-54.4	6.1	0.00e+00	0	37	104	0	60	87469
2026-01-07 23:00:33.13	23.35	11.85	-51.9	-54.4	6.1	0.00e+00	0	37	104	0	60	87436
2026-01-07 23:00:34.14	23.40	11.97	-51.9	-54.4	6.1	0.00e+00	0	37	104	0	60	87638
2026-01-07 23:00:35.15	23.46	12.08	-51.9	-54.4	6.1	0.00e+00	0	37	104	0	60	87757
2026-01-07 23:00:36.16	23.52	12.20	-51.9	-54.4	6.1	0.00e+00	0	37	104	0	60	87722
2026-01-07 23:00:37.17	23.58	12.32	-51.9	-54.4	6.1	0.00e+00	0	37	104	0	60	87710
2026-01-07 23:00:38.18	23.63	12.43	-51.9	-54.4	6.1	0.00e+00	0	37	104	0	60	88148
2026-01-07 23:00:39.19	23.69	12.55	-51.9	-54.4	6.1	0.00e+00	0	37	104	0	60	87666
2026-01-07 23:00:40.20	23.75	12.67	-51.9	-54.4	6.1	0.00e+00	0	37	104	0	60	87531
2026-01-07 23:00:41.22	23.81	12.79	-51.9	-54.4	6.1	0.00e+00	0	37	104	0	60	87709
2026-01-07 23:00:42.23	23.87	12.91	-51.9	-54.4	6.1	0.00e+00	0	37	104	0	60	87806
2026-01-07 23:00:43.24	23.94	13.03	-51.9	-54.4	6.1	0.00e+00	0	37	104	0	60	87533
2026-01-07 23:00:44.25	24.00	13.15	-51.9	-54.4	6.1	0.00e+00	0	37	104	0	60	87547
2026-01-07 23:00:45.26	24.06	13.28	-51.9	-54.4	6.1	0.00e+00	0	37	104	0	60	87738
2026-01-07 23:00:46.27	24.12	13.40	-51.9	-54.4	6.1	0.00e+00	0	37	104	0	60	87862
2026-01-07 23:00:47.28	24.19	13.53	-51.9	-54.4	6.1	0.00e+00	0	37	104	0	60	87990
2026-01-07 23:00:48.29	24.25	13.65	-51.9	-54.4	6.1	0.00e+00	0	37	104	0	60	87785
2026-01-07 23:00:49.30	24.31	13.78	-51.9	-54.4	6.1	0.00e+00	0	37	104	0	60	87394
2026-01-07 23:00:50.31	24.38	13.90	-51.9	-54.4	6.1	0.00e+00	0	37	104	0	60	88192
2026-01-07 23:00:51.32	24.45	14.03	-51.9	-54.4	6.1	0.00e+00	0	37	104	0	60	87998
2026-01-07 23:00:52.34	24.51	14.16	-51.9	-54.4	6.1	0.00e+00	0	37	104	0	60	87242
2026-01-07 23:00:53.35	24.58	14.29	-51.9	-54.4	6.1	0.00e+00	0	37	104	0	60	87300
2026-01-07 23:00:54.36	24.65	14.42	-51.9	-54.4	6.1	0.00e+00	0	37	104	0	60	87557
2026-01-07 23:00:55.37	24.72	14.55	-51.9	-54.4	6.1	0.00e+00	0	37	104	0	60	87724
2026-01-07 23:00:56.38	24.79	14.68	-51.9	-54.4	6.1	0.00e+00	0	37	104	0	60	87570
2026-01-07 23:00:57.39	24.85	14.82	-51.9	-54.4	6.1	0.00e+00	0	37	104	0	60	87281
2026-01-07 23:00:58.40	24.93	14.95	-51.9	-54.4	6.1	0.00e+00	0	37	104	0	60	87492
2026-01-07 23:00:59.41	25.00	15.09	-51.9	-54.4	6.1	0.00e+00	0	37	104	0	60	87864
2026-01-07 23:01:00.42	25.07	15.22	-51.9	-54.4	6.1	0.00e+00	0	37	104	0	60	87918
2026-01-07 23:01:01.43	25.14	15.36	-51.9	-54.4	6.1	0.00e+00	0	37	104	0	60	87536
2026-01-07 23:01:02.44	25.21	15.50	-51.9	-54.4	6.1	0.00e+00	0	37	104	0	60	87996
2026-01-07 23:01:03.45	25.29	15.63	-51.9	-54.4	6.1	0.00e+00	0	37	104	0	60	87372
2026-01-07 23:01:04.47	25.36	15.78	-51.9	-54.4	6.1	0.00e+00	0	37	104	0	60	87815
2026-01-07 23:01:05.48	25.44	15.92	-51.9	-54.4	6.1	0.00e+00	0	37	104	0	60	87851
2026-01-07 23:01:06.49	25.52	16.06	-51.9	-54.4	6.1	0.00e+00	0	37	104	0	60	87943
2026-01-07 23:01:07.50	25.59	16.20	-51.9	-54.4	6.1	0.00e+00	0	37	104	0	60	87816
2026-01-07 23:01:08.51	25.67	16.34	-51.9	-54.4	6.1	0.00e+00	0	37	104	0	60	87550
2026-01-07 23:01:09.52	25.75	16.49	-51.9	-54.4	6.0	0.00e+00	0	37	104	0	60	87616
2026-01-07 23:01:10.53	25.83	16.63	-51.9	-54.4	6.1	0.00e+00	0	37	104	0	60	87513
2026-01-07 23:01:11.54	25.91	16.78	-51.9	-54.4	6.0	0.00e+00	0	37	104	0	60	87788
2026-01-07 23:01:12.55	25.99	16.93	-51.9	-54.4	6.1	0.00e+00	0	37	104	0	60	87898
2026-01-07 23:01:13.56	26.08	17.08	-51.9	-54.4	6.1	0.00e+00	0	37	104	0	60	87749
2026-01-07 23:01:14.57	26.16	17.23	-51.9	-54.4	6.1	0.00e+00	0	37	104	0	60	87587
2026-01-07 23:01:15.58	26.24	17.38	-51.9	-54.4	6.1	0.00e+00	0	37	104	0	60	87835
2026-01-07 23:01:16.59	26.33	17.53	-51.9	-54.4	6.1	0.00e+00	0	37	104	0	60	87998
2026-01-07 23:01:17.60	26.42	17.69	-51.9	-54.4	6.1	0.00e+00	0	37	104	0	60	87759
2026-01-07 23:01:18.61	26.50	17.84	-51.9	-54.4	6.1	0.00e+00	0	37	104	0	60	87583
2026-01-07 23:01:19.62	26.59	18.00	-51.9	-54.4	6.1	0.00e+00	0	37	104	0	60	87729
2026-01-07 23:01:20.64	26.68	18.16	-51.9	-54.4	6.1	0.00e+00	0	37	104	0	60	87430
2026-01-07 23:01:21.65	26.77	18.32	-51.9	-54.4	6.1	0.00e+00	0	37	104	0	60	87978
2026-01-07 23:01:22.66	26.86	18.48	-51.9	-54.4	6.1	0.00e+00	0	37	104	0	60	88041
2026-01-07 23:01:23.67	26.96	18.64	-51.9	-54.4	6.1	0.00e+00	0	37	104	0	60	87761
2026-01-07 23:01:24.68	27.05	18.80	-51.9	-54.4	6.1	0.00e+00	0	37	104	0	60	87785
2026-01-07 23:01:25.69	27.14	18.96	-51.9	-54.4	6.1	0.00e+00	0	37	104	0	60	87718
2026-01-07 23:01:26.70	27.24	19.13	-51.9	-54.4	6.1	0.00e+00	0	37	104	0	60	88164
2026-01-07 23:01:27.71	27.34	19.30	-51.9	-54.4	6.1	0.00e+00	0	37	104	0	60	88012
2026-01-07 23:01:28.72	27.43	19.46	-51.9	-54.4	6.1	0.00e+00	0	37	104	0	60	87542
2026-01-07 23:01:29.74	27.54	19.63	-51.9	-54.4	6.1	0.00e+00	0	37	104	0	60	88191
2026-01-07 23:01:30.75	27.64	19.81	-51.9	-54.4	6.1	0.00e+00	0	37	104	0	60	87453
2026-01-07 23:01:31.76	27.74	19.98	-51.9	-54.4	6.1	0.00e+00	0	37	104	0	60	87911
2026-01-07 23:01:32.77	27.84	20.15	-51.9	-54.4	6.1	0.00e+00	0	37	104	0	60	87615
2026-01-07 23:01:33.78	27.94	20.33	-51.9	-54.4	6.1	0.00e+00	0	37	104	0	60	88047
2026-01-07 23:01:34.79	28.05	20.50	-51.9	-54.4	6.1	0.00e+00	0	37	104	0	60	87922
2026-01-07 23:01:35.80	28.16	20.68	-51.9	-54.4	6.1	0.00e+00	0	37	104	0	60	87641
2026-01-07 23:01:36.81	28.27	20.86	-51.9	-54.4	6.1	0.00e+00	0	37	104	0	60	87619
2026-01-07 23:01:37.83	28.38	21.04	-51.9	-54.4	6.1	0.00e+00	0	37	104	0	60	87857
2026-01-07 23:01:38.84	28.49	21.23	-51.9	-54.5	6.1	0.00e+00	0	37	104	0	60	88371
2026-01-07 23:01:39.85	28.60	21.41	-51.9	-54.4	6.1	0.00e+00	0	37	104	0	60	87711
2026-01-07 23:01:40.86	28.71	21.60	-51.9	-54.4	6.1	0.00e+00	0	37	104	0	60	87601
2026-01-07 23:01:41.87	28.83	21.78	-51.9	-54.4	6.1	0.00e+00	0	37	104	0	60	87717
2026-01-07 23:01:42.88	28.95	21.97	-51.9	-54.4	6.1	0.00e+00	0	37	104	0	60	87528
2026-01-07 23:01:43.89	29.07	22.16	-51.9	-54.4	6.1	0.00e+00	0	37	104	0	60	87900
2026-01-07 23:01:44.90	29.19	22.35	-51.9	-54.4	6.1	0.00e+00	0	37	104	0	60	87872
2026-01-07 23:01:45.91	29.31	22.55	-51.9	-54.4	6.1	0.00e+00	0	37	104	0	60	87620
2026-01-07 23:01:46.92	29.43	22.74	-51.9	-54.4	6.1	0.00e+00	0	37	104	0	60	87497
2026-01-07 23:01:47.93	29.56	22.94	-51.9	-54.4	6.1	0.00e+00	0	37	104	0	60	87441
2026-01-07 23:01:48.94	29.68	23.14	-51.9	-54.4	6.1	0.00e+00	0	37	104	0	60	87864
2026-01-07 23:01:49.95	29.81	23.34	-51.9	-54.4	6.1	0.00e+00	0	37	104	0	60	87612
2026-01-07 23:01:50.96	29.94	23.54	-51.9	-54.4	6.1	0.00e+00	0	37	104	0	60	87580
2026-01-07 23:01:51.98	30.08	23.75	-51.9	-54.4	6.1	0.00e+00	0	37	104	0	60	87542
2026-01-07 23:01:52.99	30.21	23.96	-51.9	-54.4	6.1	0.00e+00	0	37	104	0	60	87830
2026-01-07 23:01:54.00	30.35	24.17	-51.9	-54.4	6.1	0.00e+00	0	37	104	0	60	87733
2026-01-07 23:01:55.01	30.49	24.38	-51.9	-54.4	6.1	0.00e+00	0	37	104	0	60	87777
2026-01-07 23:01:56.02	30.63	24.59	-51.9	-54.4	6.1	0.00e+00	0	37	104	0	60	87719
2026-01-07 23:01:57.03	30.77	24.80	-51.9	-54.4	6.1	0.00e+00	0	37	104	0	60	87500
2026-01-07 23:01:58.04	30.91	25.02	-51.9	-54.4	6.1	0.00e+00	0	37	104	0	60	87359
2026-01-07 23:01:59.05	31.06	25.24	-51.9	-54.4	6.1	0.00e+00	0	37	104	0	60	87410
2026-01-07 23:02:00.06	31.21	25.46	-51.9	-54.4	6.1	0.00e+00	0	37	104	0	60	88131
2026-01-07 23:02:01.07	31.36	25.68	-51.9	-54.4	6.1	0.00e+00	0	37	104	0	60	87549
2026-01-07 23:02:02.08	31.51	25.91	-51.9	-54.4	6.1	0.00e+00	0	37	104	0	60	87626
2026-01-07 23:02:03.09	31.67	26.13	-51.9	-54.4	6.1	0.00e+00	0	37	104	0	60	87957
2026-01-07 23:02:04.10	31.83	26.36	-51.9	-54.4	6.1	0.00e+00	0	37	104	0	60	87820
2026-01-07 23:02:05.11	31.99	26.59	-51.9	-54.4	6.1	0.00e+00	0	37	104	0	60	87919
2026-01-07 23:02:06.13	32.15	26.83	-51.9	-54.4	6.1	0.00e+00	0	37	104	0	60	87904
2026-01-07 23:02:07.14	32.32	27.06	-51.9	-54.4	6.1	0.00e+00	0	37	104	0	60	87583
2026-01-07 23:02:08.15	32.49	27.30	-51.9	-54.4	6.1	0.00e+00	0	37	104	0	60	87759
2026-01-07 23:02:09.16	32.66	27.54	-51.9	-54.4	6.1	0.00e+00	0	37	104	0	60	88015
2026-01-07 23:02:10.17	32.83	27.78	-51.9	-54.4	6.1	0.00e+00	0	37	104	0	60	87631
2026-01-07 23:02:11.18	33.01	28.03	-51.9	-54.4	6.1	0.00e+00	0	37	104	0	60	87919
2026-01-07 23:02:12.19	33.19	28.27	-51.9	-54.4	6.1	0.00e+00	0	37	104	0	60	87789
2026-01-07 23:02:13.20	33.37	28.52	-51.9	-54.4	6.1	0.00e+00	0	37	104	0	60	87334
2026-01-07 23:02:14.21	33.56	28.78	-51.9	-54.4	6.1	0.00e+00	0	37	104	0	60	87562
2026-01-07 23:02:15.22	33.75	29.03	-51.9	-54.4	6.1	0.00e+00	0	37	104	0	60	87538
2026-01-07 23:02:16.23	33.94	29.29	-51.9	-54.4	6.1	0.00e+00	0	37	104	0	60	87375
2026-01-07 23:02:17.24	34.13	29.55	-51.9	-54.4	6.1	0.00e+00	0	37	104	0	60	87629
2026-01-07 23:02:18.25	34.33	29.81	-51.9	-54.4	6.1	0.00e+00	0	37	104	0	60	87843
2026-01-07 23:02:19.26	34.54	30.07	-51.9	-54.4	6.1	0.00e+00	0	37	104	0	60	87701
2026-01-07 23:02:20.27	34.74	30.34	-51.9	-54.4	6.1	0.00e+00	0	37	104	0	60	87558
2026-01-07 23:02:21.29	34.95	30.61	-51.9	-54.4	6.1	0.00e+00	0	38	104	0	60	87459
2026-01-07 23:02:22.30	35.17	30.88	-51.9	-54.4	6.0	0.00e+00	0	38	104	0	60	87535
2026-01-07 23:02:23.31	35.38	31.16	-51.9	-54.4	6.1	0.00e+00	0	37	104	0	60	87628
2026-01-07 23:02:24.32	35.61	31.43	-51.9	-54.4	6.1	0.00e+00	0	37	104	0	60	87413
2026-01-07 23:02:25.33	35.83	31.71	-51.9	-54.4	6.1	0.00e+00	0	38	104	0	60	87741
2026-01-07 23:02:26.34	36.06	32.00	-51.9	-54.4	6.1	0.00e+00	0	37	104	0	60	87707
2026-01-07 23:02:27.35	36.29	32.28	-51.9	-54.5	6.1	0.00e+00	0	37	104	0	60	88259
2026-01-07 23:02:28.36	36.53	32.57	-51.9	-54.4	6.1	0.00e+00	0	37	104	0	60	87606
2026-01-07 23:02:29.37	36.77	32.86	-51.9	-54.4	6.1	0.00e+00	0	37	104	0	60	87834
2026-01-07 23:02:30.39	37.02	33.16	-51.9	-54.4	6.1	0.00e+00	0	37	104	0	60	87921
2026-01-07 23:02:31.40	37.28	33.45	-51.9	-54.4	6.1	0.00e+00	0	37	104	0	60	87947
2026-01-07 23:02:32.41	37.53	33.75	-51.9	-54.4	6.1	0.00e+00	0	37	104	0	60	87954
2026-01-07 23:02:33.42	37.79	34.06	-51.9	-54.4	6.1	0.00e+00	0	37	104	0	60	87873
2026-01-07 23:02:34.43	38.06	34.36	-51.9	-54.4	6.1	0.00e+00	0	37	104	0	60	87850
2026-01-07 23:02:35.44	38.33	34.67	-51.9	-54.4	6.1	0.00e+00	0	38	104	0	60	87754
2026-01-07 23:02:36.45	38.61	34.98	-51.9	-54.4	6.1	0.00e+00	0	37	104	0	60	87968
2026-01-07 23:02:37.46	38.90	35.29	-51.9	-54.4	6.1	0.00e+00	0	38	104	0	60	87461
2026-01-07 23:02:38.47	39.19	35.61	-51.9	-54.4	6.1	0.00e+00	0	37	104	0	60	87925
2026-01-07 23:02:39.49	39.48	35.93	-51.9	-54.4	6.1	0.00e+00	0	37	104	0	60	87585
2026-01-07 23:02:40.50	39.78	36.26	-51.9	-54.4	6.1	0.00e+00	0	37	104	0	60	87593
2026-01-07 23:02:41.51	40.09	36.58	-51.9	-54.4	6.1	0.00e+00	0	37	104	0	60	87658
2026-01-07 23:02:42.52	40.41	36.91	-51.9	-54.4	6.1	0.00e+00	0	37	104	0	60	87534
2026-01-07 23:02:43.53	40.73	37.24	-51.9	-54.4	6.1	0.00e+00	0	37	104	0	60	87600
2026-01-07 23:02:44.54	41.06	37.58	-51.9	-54.4	6.1	0.00e+00	0	37	104	0	60	88177
2026-01-07 23:02:45.55	41.39	37.91	-51.9	-54.4	6.1	0.00e+00	0	38	104	0	60	87339
2026-01-07 23:02:46.56	41.73	38.25	-51.9	-54.4	6.1	0.00e+00	0	38	104	0	60	87568
2026-01-07 23:02:47.57	42.08	38.60	-51.9	-54.4	6.1	0.00e+00	0	37	104	0	60	88038
2026-01-07 23:02:48.58	42.44	38.94	-51.9	-54.4	6.1	0.00e+00	0	38	104	0	60	87718
2026-01-07 23:02:49.59	42.81	39.29	-51.9	-54.4	6.1	0.00e+00	0	37	104	0	60	87608
2026-01-07 23:02:50.60	43.18	39.64	-51.9	-54.4	6.1	0.00e+00	0	37	104	0	60	87607
2026-01-07 23:02:51.62	43.57	40.00	-51.9	-54.4	6.1	0.00e+00	0	37	104	0	60	87975
2026-01-07 23:02:52.63	43.96	40.35	-51.9	-54.4	6.1	0.00e+00	0	37	104	0	60	87674
2026-01-07 23:02:53.64	44.36	40.71	-51.9	-54.4	6.1	0.00e+00	0	38	104	0	60	87642
2026-01-07 23:02:54.65	44.77	41.08	-51.9	-54.4	6.1	0.00e+00	0	37	104	0	60	87650
2026-01-07 23:02:55.66	45.19	41.44	-51.9	-54.4	6.1	0.00e+00	0	38	104	0	60	87703
2026-01-07 23:02:56.67	45.62	41.81	-51.9	-54.4	6.1	0.00e+00	0	37	104	0	60	87796
2026-01-07 23:02:57.68	46.06	42.18	-51.9	-54.4	6.1	0.00e+00	0	37	104	0	60	87848
2026-01-07 23:02:58.69	46.51	42.55	-51.9	-54.4	6.1	0.00e+00	0	37	104	0	60	87856
2026-01-07 23:02:59.70	46.97	42.92	-51.9	-54.4	6.1	0.00e+00	0	37	104	0	60	87797
2026-01-07 23:03:00.71	47.44	43.30	-51.9	-54.4	6.1	0.00e+00	0	38	104	0	60	87853
2026-01-07 23:03:01.72	47.92	43.68	-51.9	-54.4	6.1	0.00e+00	0	37	104	0	60	87979
2026-01-07 23:03:02.74	48.42	44.06	-51.9	-54.4	6.1	0.00e+00	0	38	104	0	60	87592
2026-01-07 23:03:03.75	48.93	44.45	-51.9	-54.4	6.1	0.00e+00	0	37	104	0	60	88051
2026-01-07 23:03:04.76	49.45	44.83	-51.9	-54.4	6.1	0.00e+00	0	37	104	0	60	87963
2026-01-07 23:03:05.77	49.99	45.22	-51.9	-54.4	6.1	0.00e+00	0	38	104	0	60	87619
2026-01-07 23:03:06.78	50.54	45.60	-51.9	-54.4	6.1	0.00e+00	0	38	104	0	60	87839
2026-01-07 23:03:07.79	51.10	45.99	-51.9	-54.4	6.1	0.00e+00	0	38	104	0	60	88071
2026-01-07 23:03:08.80	51.67	46.38	-51.9	-54.4	6.1	0.00e+00	0	38	104	0	60	87533
2026-01-07 23:03:09.81	52.26	46.77	-51.9	-54.4	6.1	0.00e+00	0	38	104	0	60	87813
2026-01-07 23:03:10.82	52.87	47.17	-51.9	-54.4	6.1	0.00e+00	0	38	104	0	60	88151
2026-01-07 23:03:11.83	53.49	47.56	-51.9	-54.4	6.1	0.00e+00	0	38	104	0	60	87882
2026-01-07 23:03:12.84	54.13	47.95	-51.9	-54.4	6.1	0.00e+00	0	38	104	0	60	87702
2026-01-07 23:03:13.85	54.79	48.35	-51.9	-54.4	6.1	0.00e+00	0	38	104	0	60	87891
2026-01-07 23:03:14.86	55.46	48.74	-51.9	-54.5	6.1	0.00e+00	0	38	104	0	60	88242
2026-01-07 23:03:15.87	56.15	49.13	-51.9	-54.4	6.1	0.00e+00	0	38	104	0	60	87897
2026-01-07 23:03:16.89	56.87	49.53	-51.9	-54.4	6.1	0.00e+00	0	38	104	0	60	88085
2026-01-07 23:03:17.90	57.59	49.92	-51.9	-54.4	6.1	0.00e+00	0	38	104	0	60	87597
2026-01-07 23:03:18.91	58.34	50.31	-51.9	-54.4	6.1	0.00e+00	0	38	104	0	60	87811
2026-01-07 23:03:19.92	59.11	50.70	-51.9	-54.4	6.1	0.00e+00	0	38	104	0	60	87602
2026-01-07 23:03:20.93	59.89	51.09	-51.9	-54.4	6.1	0.00e+00	0	38	104	0	60	87586
2026-01-07 23:03:21.94	60.70	51.47	-51.9	-54.4	6.1	0.00e+00	0	38	104	0	60	87515
2026-01-07 23:03:22.95	61.53	51.86	-51.9	-54.4	6.1	0.00e+00	0	38	104	0	60	87695
2026-01-07 23:03:23.96	62.38	52.24	-51.9	-54.4	6.1	0.00e+00	0	38	104	0	60	87836
2026-01-07 23:03:24.97	63.26	52.61	-51.9	-54.4	6.1	0.00e+00	0	38	104	0	60	87280
2026-01-07 23:03:25.99	64.16	52.99	-51.9	-54.4	6.1	0.00e+00	0	38	104	0	60	87222
2026-01-07 23:03:27.00	65.09	53.36	-51.9	-54.4	6.1	0.00e+00	0	38	104	0	60	87673
2026-01-07 23:03:28.01	66.03	53.72	-51.9	-54.4	6.1	0.00e+00	0	38	104	0	60	87621
2026-01-07 23:03:29.02	67.00	54.08	-51.9	-54.4	6.1	0.00e+00	0	38	104	0	60	88129
2026-01-07 23:03:30.03	67.99	54.44	-51.9	-54.4	6.1	0.00e+00	0	38	104	0	60	87675
2026-01-07 23:03:31.04	69.01	54.79	-51.9	-54.4	6.1	0.00e+00	0	38	104	0	60	87595
2026-01-07 23:03:32.05	70.06	55.13	-51.9	-54.5	6.1	0.00e+00	0	38	104	0	60	88411
2026-01-07 23:03:33.06	71.13	55.46	-51.9	-54.4	6.1	0.00e+00	0	37	104	0	60	87875
2026-01-07 23:03:34.07	72.22	55.79	-51.9	-54.4	6.1	0.00e+00	0	38	104	0	60	87632
2026-01-07 23:03:35.08	73.35	56.11	-51.9	-54.4	6.1	0.00e+00	0	38	104	0	60	87641
2026-01-07 23:03:36.09	74.49	56.42	-51.9	-54.4	6.1	0.00e+00	0	38	104	0	60	87784
2026-01-07 23:03:37.11	75.68	56.72	-51.9	-54.4	6.1	0.00e+00	0	38	104	0	60	87641
2026-01-07 23:03:38.12	76.88	57.02	-51.9	-54.4	6.1	0.00e+00	0	38	104	0	60	87506
2026-01-07 23:03:39.13	78.11	57.30	-51.9	-54.4	6.1	0.00e+00	0	38	104	0	60	87597
2026-01-07 23:03:40.14	79.36	57.57	-51.9	-54.4	6.1	0.00e+00	0	38	104	0	60	87604
2026-01-07 23:03:41.15	80.63	57.82	-51.9	-54.4	6.1	0.00e+00	0	38	104	0	60	87962
2026-01-07 23:03:42.16	81.93	58.07	-51.9	-54.4	6.1	0.00e+00	0	38	104	0	60	87443
2026-01-07 23:03:43.17	83.26	58.30	-51.9	-54.4	6.1	0.00e+00	0	38	104	0	60	87600
2026-01-07 23:03:44.18	84.61	58.52	-51.9	-54.4	6.1	0.00e+00	0	38	104	0	60	87946
2026-01-07 23:03:45.19	85.98	58.73	-51.9	-54.4	6.1	0.00e+00	0	38	104	0	60	87557
2026-01-07 23:03:46.20	87.37	58.92	-51.9	-54.4	6.1	0.00e+00	0	38	104	0	60	87324
2026-01-07 23:03:47.21	88.78	59.10	-51.9	-54.4	6.1	0.00e+00	0	38	104	0	60	87849
2026-01-07 23:03:48.22	90.21	59.26	-51.9	-54.4	6.0	0.00e+00	0	38	104	0	60	87852
2026-01-07 23:03:49.24	91.67	59.41	-51.9	-54.4	6.1	0.00e+00	0	38	104	0	60	87584
2026-01-07 23:03:50.25	93.13	59.54	-51.9	-54.5	6.1	0.00e+00	0	38	104	0	60	88248
2026-01-07 23:03:51.26	94.61	59.65	-51.9	-54.4	6.1	0.00e+00	0	38	104	0	60	87863
2026-01-07 23:03:52.27	96.09	59.75	-51.9	-54.4	6.1	0.00e+00	0	38	104	0	60	87738
2026-01-07 23:03:53.28	97.59	59.83	-51.9	-54.4	6.1	0.00e+00	0	38	104	0	60	87493
2026-01-07 23:03:54.29	99.10	59.89	-51.9	-54.4	6.1	0.00e+00	0	38	104	0	60	87365
2026-01-07 23:03:55.30	100.61	59.94	-51.9	-54.4	6.1	0.00e+00	0	38	104	0	60	87769
2026-01-07 23:03:56.31	102.13	59.97	-51.9	-54.4	6.1	0.00e+00	0	38	104	0	60	87926
2026-01-07 23:03:57.33	103.67	59.97	-51.9	-54.4	6.1	0.00e+00	0	38	104	0	60	87744
2026-01-07 23:03:58.34	105.19	59.97	-51.9	-54.4	6.1	0.00e+00	0	38	104	0	60	87867
2026-01-07 23:03:59.35	106.71	59.94	-51.9	-54.4	6.1	0.00e+00	0	38	104	0	60	87864
2026-01-07 23:04:00.36	108.22	59.90	-51.9	-54.4	6.1	0.00e+00	0	38	104	0	60	87536
2026-01-07 23:04:01.37	109.73	59.83	-51.9	-54.4	6.1	0.00e+00	0	38	104	0	60	87631
2026-01-07 23:04:02.38	111.23	59.76	-51.9	-54.4	6.1	0.00e+00	0	38	104	0	60	87939
2026-01-07 23:04:03.39	112.72	59.66	-51.9	-54.4	6.1	0.00e+00	0	38	104	0	60	87803
2026-01-07 23:04:04.40	114.19	59.55	-51.9	-54.4	6.1	0.00e+00	0	38	104	0	60	87791
2026-01-07 23:04:05.41	115.66	59.42	-51.9	-54.4	6.1	0.00e+00	0	38	104	0	60	88089
2026-01-07 23:04:06.42	117.11	59.27	-51.9	-54.4	6.1	0.00e+00	0	38	104	0	60	87812
2026-01-07 23:04:07.44	118.55	59.11	-51.9	-54.4	6.1	0.00e+00	0	38	104	0	60	87854
2026-01-07 23:04:08.45	119.96	58.93	-51.9	-54.4	6.1	0.00e+00	0	38	104	0	60	87979
2026-01-07 23:04:09.46	121.36	58.74	-51.9	-54.4	6.1	0.00e+00	0	38	104	0	60	87764
2026-01-07 23:04:10.47	122.73	58.53	-51.9	-54.4	6.1	0.00e+00	0	38	104	0	60	87605
2026-01-07 23:04:11.48	124.08	58.31	-51.9	-54.4	6.1	0.00e+00	0	38	104	0	60	87681
2026-01-07 23:04:12.49	125.41	58.08	-51.9	-54.4	6.1	0.00e+00	0	38	104	0	60	87607
2026-01-07 23:04:13.50	126.71	57.83	-51.9	-54.4	6.1	0.00e+00	0	38	104	0	60	87514
2026-01-07 23:04:14.51	127.99	57.58	-51.9	-54.4	6.1	0.00e+00	0	38	104	0	60	87402
2026-01-07 23:04:15.52	129.24	57.31	-51.9	-54.4	6.1	0.00e+00	0	38	104	0	60	87673
2026-01-07 23:04:16.53	130.47	57.02	-51.9	-54.4	6.1	0.00e+00	0	38	104	0	60	87584
2026-01-07 23:04:17.54	131.67	56.73	-51.9	-54.4	6.1	0.00e+00	0	38	104	0	60	87527
2026-01-07 23:04:18.55	132.85	56.43	-51.9	-54.3	6.1	0.00e+00	0	38	104	0	60	87202
2026-01-07 23:04:19.56	134.00	56.12	-51.9	-54.4	6.1	0.00e+00	0	38	104	0	60	88165
2026-01-07 23:04:20.58	135.14	55.80	-51.9	-54.4	6.1	0.00e+00	0	38	104	0	60	87298
2026-01-07 23:04:21.59	136.24	55.47	-51.9	-54.4	6.1	0.00e+00	0	38	104	0	60	87897
2026-01-07 23:04:22.60	137.31	55.14	-51.9	-54.4	6.1	0.00e+00	0	38	104	0	60	87549
2026-01-07 23:04:23.61	138.36	54.79	-51.9	-54.4	6.1	0.00e+00	0	38	104	0	60	87672
2026-01-07 23:04:24.62	139.38	54.44	-51.9	-54.4	6.1	0.00e+00	0	38	104	0	60	87846
2026-01-07 23:04:25.63	140.37	54.09	-51.9	-54.4	6.1	0.00e+00	0	38	104	0	60	87868
2026-01-07 23:04:26.64	141.35	53.73	-51.9	-54.4	6.1	0.00e+00	0	38	104	0	60	87805
2026-01-07 23:04:27.65	142.29	53.36	-51.9	-54.4	6.1	0.00e+00	0	38	104	0	60	87579
2026-01-07 23:04:28.66	143.22	52.99	-51.9	-54.4	6.1	0.00e+00	0	38	104	0	60	87653
2026-01-07 23:04:29.68	144.13	52.62	-51.9	-54.5	6.1	0.00e+00	0	38	104	0	60	88278
2026-01-07 23:04:30.69	145.00	52.24	-51.9	-54.4	6.1	0.00e+00	0	38	104	0	60	87810
2026-01-07 23:04:31.70	145.86	51.86	-51.9	-54.4	6.1	0.00e+00	0	38	104	0	60	87575
2026-01-07 23:04:32.71	146.69	51.47	-51.9	-54.4	6.1	0.00e+00	0	38	104	0	60	87736
2026-01-07 23:04:33.72	147.50	51.09	-51.9	-54.4	6.1	0.00e+00	0	38	104	0	60	87760
2026-01-07 23:04:34.73	148.29	50.70	-51.9	-54.4	6.1	0.00e+00	0	38	104	0	60	87740
2026-01-07 23:04:35.74	149.06	50.31	-51.9	-54.4	6.1	0.00e+00	0	38	104	0	60	88140
2026-01-07 23:04:36.75	149.81	49.91	-51.9	-54.4	6.1	0.00e+00	0	38	104	0	60	87485
2026-01-07 23:04:37.76	150.54	49.52	-51.9	-54.4	6.1	0.00e+00	0	38	104	0	60	87596
2026-01-07 23:04:38.77	151.25	49.13	-51.9	-54.5	6.1	0.00e+00	0	38	104	0	60	88326
2026-01-07 23:04:39.79	151.95	48.73	-51.9	-54.4	6.1	0.00e+00	0	38	104	0	60	87883
2026-01-07 23:04:40.80	152.62	48.33	-51.9	-54.4	6.1	0.00e+00	0	38	104	0	60	87901
2026-01-07 23:04:41.81	153.28	47.94	-51.9	-54.4	6.1	0.00e+00	0	38	104	0	60	87872
2026-01-07 23:04:42.82	153.92	47.55	-51.9	-54.4	6.1	0.00e+00	0	38	104	0	60	88125
2026-01-07 23:04:43.83	154.54	47.15	-51.9	-54.4	6.1	0.00e+00	0	38	104	0	60	88193
2026-01-07 23:04:44.84	155.15	46.76	-51.9	-54.4	6.1	0.00e+00	0	38	104	0	60	87742
2026-01-07 23:04:45.85	155.74	46.37	-51.9	-54.4	6.1	0.00e+00	0	38	104	0	60	88070
2026-01-07 23:04:46.86	156.32	45.97	-51.9	-54.4	6.1	0.00e+00	0	38	104	0	60	87607
2026-01-07 23:04:47.87	156.88	45.58	-51.9	-54.4	6.1	0.00e+00	0	38	104	0	60	87816
2026-01-07 23:04:48.88	157.43	45.19	-51.9	-54.4	6.1	0.00e+00	0	38	104	0	60	87336
2026-01-07 23:04:49.89	157.97	44.81	-51.9	-54.4	6.1	0.00e+00	0	38	104	0	60	87645
2026-01-07 23:04:50.90	158.49	44.42	-51.9	-54.4	6.1	0.00e+00	0	38	104	0	60	87822
2026-01-07 23:04:51.91	159.00	44.04	-51.9	-54.4	6.1	0.00e+00	0	38	104	0	60	87956
2026-01-07 23:04:52.92	159.49	43.65	-51.9	-54.4	6.1	0.00e+00	0	38	104	0	60	87571
2026-01-07 23:04:53.93	159.98	43.27	-51.9	-54.4	6.1	0.00e+00	0	38	104	0	60	87994
2026-01-07 23:04:54.94	160.45	42.90	-51.9	-54.4	6.1	0.00e+00	0	38	104	0	60	87443
2026-01-07 23:04:55.95	160.92	42.52	-51.9	-54.4	6.1	0.00e+00	0	38	104	0	60	88079
2026-01-07 23:04:56.96	161.37	42.15	-51.9	-54.4	6.1	0.00e+00	0	38	104	0	60	87898
2026-01-07 23:04:57.98	161.81	41.77	-51.9	-54.4	6.1	0.00e+00	0	38	104	0	60	87576
2026-01-07 23:04:58.99	162.24	41.40	-51.9	-54.4	6.1	0.00e+00	0	38	104	0	60	87782
2026-01-07 23:05:00.00	162.66	41.04	-51.9	-54.4	6.1	0.00e+00	0	38	104	0	60	87581
2026-01-07 23:05:01.01	163.07	40.67	-51.9	-54.4	6.1	0.00e+00	0	38	104	0	60	87850
2026-01-07 23:05:02.02	163.47	40.31	-51.9	-54.4	6.1	0.00e+00	0	38	104	0	60	87827
2026-01-07 23:05:03.03	163.87	39.96	-51.9	-54.3	6.1	0.00e+00	0	38	104	0	60	87106
2026-01-07 23:05:04.04	164.25	39.60	-51.9	-54.4	6.1	0.00e+00	0	38	104	0	60	87211
2026-01-07 23:05:05.05	164.62	39.25	-51.9	-54.4	6.1	0.00e+00	0	38	104	0	60	87779
2026-01-07 23:05:06.06	164.99	38.90	-51.9	-54.4	6.1	0.00e+00	0	38	104	0	60	87887
2026-01-07 23:05:07.07	165.35	38.55	-51.9	-54.4	6.1	0.00e+00	0	38	104	0	60	87690
2026-01-07 23:05:08.09	165.70	38.20	-51.9	-54.4	6.1	0.00e+00	0	38	104	0	60	87514
2026-01-07 23:05:09.10	166.05	37.86	-51.9	-54.4	6.1	0.00e+00	0	38	104	0	60	87763
2026-01-07 23:05:10.11	166.38	37.52	-51.9	-54.4	6.0	0.00e+00	0	38	104	0	60	87890
2026-01-07 23:05:11.12	166.71	37.19	-51.9	-54.4	6.0	0.00e+00	0	38	104	0	60	87951
2026-01-07 23:05:12.13	167.03	36.85	-51.9	-54.4	6.1	0.00e+00	0	38	104	0	60	87463
2026-01-07 23:05:13.14	167.35	36.52	-51.9	-54.4	6.1	0.00e+00	0	38	104	0	60	87673
2026-01-07 23:05:14.15	167.65	36.20	-51.9	-54.4	6.1	0.00e+00	0	38	104	0	60	87657
2026-01-07 23:05:15.16	167.96	35.87	-51.9	-54.4	6.1	0.00e+00	0	38	104	0	60	87857
2026-01-07 23:05:16.17	168.25	35.55	-51.9	-54.4	6.1	0.00e+00	0	38	104	0	60	88044
2026-01-07 23:05:17.18	168.54	35.24	-51.9	-54.4	6.1	0.00e+00	0	38	104	0	60	87496
2026-01-07 23:05:18.20	168.83	34.92	-51.9	-54.4	6.1	0.00e+00	0	38	104	0	60	87898
2026-01-07 23:05:19.21	169.11	34.60	-51.9	-54.4	6.1	0.00e+00	0	38	104	0	60	87536
2026-01-07 23:05:20.22	169.38	34.30	-51.9	-54.4	6.1	0.00e+00	0	38	104	0	60	87377
2026-01-07 23:05:21.23	169.65	33.99	-51.9	-54.4	6.1	0.00e+00	0	38	104	0	60	87522
2026-01-07 23:05:22.24	169.91	33.69	-51.9	-54.4	6.1	0.00e+00	0	38	104	0	60	87814
2026-01-07 23:05:23.25	170.17	33.39	-51.9	-54.4	6.1	0.00e+00	0	38	104	0	60	87561
2026-01-07 23:05:24.26	170.42	33.09	-51.9	-54.4	6.1	0.00e+00	0	38	104	0	60	88145
2026-01-07 23:05:25.27	170.67	32.79	-51.9	-54.4	6.1	0.00e+00	0	38	104	0	60	87611
2026-01-07 23:05:26.28	170.91	32.50	-51.9	-54.4	6.1	0.00e+00	0	38	104	0	60	87971
2026-01-07 23:05:27.29	171.15	32.21	-51.9	-54.4	6.1	0.00e+00	0	38	104	0	60	87508
2026-01-07 23:05:28.31	171.38	31.92	-51.9	-54.4	6.1	0.00e+00	0	38	104	0	60	87648
2026-01-07 23:05:29.32	171.61	31.64	-51.9	-54.4	6.1	0.00e+00	0	38	104	0	60	87591
2026-01-07 23:05:30.33	171.84	31.36	-51.9	-54.4	6.1	0.00e+00	0	38	104	0	60	87722
2026-01-07 23:05:31.34	172.06	31.08	-51.9	-54.4	6.1	0.00e+00	0	38	104	0	60	87377
2026-01-07 23:05:32.35	172.28	30.80	-51.9	-54.4	6.1	0.00e+00	0	38	104	0	60	87748
2026-01-07 23:05:33.36	172.49	30.53	-51.9	-54.4	6.1	0.00e+00	0	38	104	0	60	87413
2026-01-07 23:05:34.37	172.70	30.26	-51.9	-54.4	6.1	0.00e+00	0	38	104	0	60	87548
2026-01-07 23:05:35.39	172.91	29.99	-51.9	-54.4	6.1	0.00e+00	0	38	104	0	60	87778
2026-01-07 23:05:36.40	173.11	29.72	-51.9	-54.4	6.1	0.00e+00	0	38	104	0	60	87852
2026-01-07 23:05:37.41	173.31	29.46	-51.9	-54.3	6.1	0.00e+00	0	38	104	0	60	87008
2026-01-07 23:05:38.42	173.51	29.20	-51.9	-54.4	6.1	0.00e+00	0	38	104	0	60	87792
2026-01-07 23:05:39.43	173.70	28.94	-51.9	-54.4	6.1	0.00e+00	0	38	104	0	60	87442
2026-01-07 23:05:40.44	173.89	28.69	-51.9	-54.4	6.0	0.00e+00	0	38	104	0	60	87762
2026-01-07 23:05:41.45	174.07	28.43	-51.9	-54.4	6.1	0.00e+00	0	38	104	0	60	87880
2026-01-07 23:05:42.46	174.26	28.18	-51.9	-54.4	6.1	0.00e+00	0	38	104	0	60	87895
2026-01-07 23:05:43.47	174.44	27.94	-51.9	-54.4	6.1	0.00e+00	0	38	104	0	60	87633
2026-01-07 23:05:44.48	174.61	27.69	-51.9	-54.4	6.1	0.00e+00	0	38	104	0	60	87640
2026-01-07 23:05:45.49	174.79	27.45	-51.9	-54.4	6.1	0.00e+00	0	38	104	0	60	87602
2026-01-07 23:05:46.50	174.96	27.21	-51.9	-54.4	6.1	0.00e+00	0	38	104	0	60	87802
2026-01-07 23:05:47.51	175.13	26.97	-51.9	-54.4	6.1	0.00e+00	0	38	104	0	60	87968
2026-01-07 23:05:48.53	175.29	26.73	-51.9	-54.4	6.1	0.00e+00	0	38	104	0	60	87231
2026-01-07 23:05:49.54	175.46	26.50	-51.9	-54.4	6.1	0.00e+00	0	38	104	0	60	87491
2026-01-07 23:05:50.55	175.62	26.26	-51.9	-54.4	6.1	0.00e+00	0	38	104	0	60	87984
2026-01-07 23:05:51.56	175.78	26.03	-51.9	-54.4	6.1	0.00e+00	0	38	104	0	60	88035
2026-01-07 23:05:52.57	175.93	25.81	-51.9	-54.4	6.1	0.00e+00	0	38	104	0	60	88136
2026-01-07 23:05:53.58	176.09	25.58	-51.9	-54.4	6.1	0.00e+00	0	38	104	0	60	88009
2026-01-07 23:05:54.59	176.24	25.36	-51.9	-54.4	6.1	0.00e+00	0	38	104	0	60	87715
2026-01-07 23:05:55.60	176.39	25.14	-51.9	-54.4	6.1	0.00e+00	0	38	104	0	60	87381
2026-01-07 23:05:56.61	176.53	24.92	-51.9	-54.4	6.1	0.00e+00	0	38	104	0	60	87539
2026-01-07 23:05:57.62	176.68	24.70	-51.9	-54.4	6.1	0.00e+00	0	38	104	0	60	88068
2026-01-07 23:05:58.63	176.82	24.49	-51.9	-54.4	6.1	0.00e+00	0	38	104	0	60	87317
2026-01-07 23:05:59.65	176.96	24.27	-51.9	-54.5	6.1	0.00e+00	0	38	104	0	60	88251
2026-01-07 23:06:00.66	177.10	24.06	-51.9	-54.4	6.1	0.00e+00	0	38	104	0	60	87638
2026-01-07 23:06:01.67	177.24	23.85	-51.9	-54.4	6.0	0.00e+00	0	38	104	0	60	88183
2026-01-07 23:06:02.68	177.37	23.64	-51.9	-54.4	6.1	0.00e+00	0	38	104	0	60	87878
2026-01-07 23:06:03.69	177.50	23.44	-51.9	-54.4	6.1	0.00e+00	0	38	104	0	60	88120
2026-01-07 23:06:04.70	177.63	23.23	-51.9	-54.4	6.1	0.00e+00	0	38	104	0	60	87487
2026-01-07 23:06:05.71	177.76	23.03	-51.9	-54.4	6.1	0.00e+00	0	38	104	0	60	87513
2026-01-07 23:06:06.72	177.89	22.83	-51.9	-54.4	6.1	0.00e+00	0	38	104	0	60	87727
2026-01-07 23:06:07.74	178.01	22.63	-51.9	-54.4	6.1	0.00e+00	0	38	104	0	60	87563
2026-01-07 23:06:08.75	178.14	22.44	-51.9	-54.4	6.1	0.00e+00	0	38	104	0	60	87690
2026-01-07 23:06:09.76	178.26	22.24	-51.9	-54.4	6.1	0.00e+00	0	38	104	0	60	87872
2026-01-07 23:06:10.77	178.38	22.05	-51.9	-54.4	6.1	0.00e+00	0	38	104	0	60	87691
2026-01-07 23:06:11.78	178.50	21.86	-51.9	-54.4	6.1	0.00e+00	0	38	104	0	60	87912
2026-01-07 23:06:12.79	178.61	21.67	-51.9	-54.4	6.0	0.00e+00	0	38	104	0	60	87743
2026-01-07 23:06:13.80	178.73	21.48	-51.9	-54.4	6.1	0.00e+00	0	38	104	0	60	87978
2026-01-07 23:06:14.81	178.84	21.29	-51.9	-54.4	6.1	0.00e+00	0	38	104	0	60	87711
2026-01-07 23:06:15.82	178.96	21.11	-51.9	-54.4	6.1	0.00e+00	0	38	104	0	60	87882
2026-01-07 23:06:16.83	179.07	20.93	-51.9	-54.4	6.1	0.00e+00	0	38	104	0	60	87889
2026-01-07 23:06:17.85	179.18	20.74	-51.9	-54.4	6.1	0.00e+00	0	38	104	0	60	87439
2026-01-07 23:06:18.86	179.29	20.56	-51.9	-54.4	6.1	0.00e+00	0	38	104	0	60	87752
2026-01-07 23:06:19.87	179.39	20.38	-51.9	-54.4	6.1	0.00e+00	0	38	104	0	60	87665
2026-01-07 23:06:20.88	179.50	20.21	-51.9	-54.4	6.1	0.00e+00	0	38	104	0	60	87994
2026-01-07 23:06:21.89	179.60	20.03	-51.9	-54.4	6.1	0.00e+00	0	38	104	0	60	87539
2026-01-07 23:06:22.90	179.70	19.86	-51.9	-54.4	6.1	0.00e+00	0	38	104	0	60	87961
2026-01-07 23:06:23.91	179.81	19.68	-51.9	-54.4	6.1	0.00e+00	0	38	104	0	60	87332
2026-01-07 23:06:24.92	179.91	19.51	-51.9	-54.4	6.1	0.00e+00	0	38	104	0	60	87898
2026-01-07 23:06:25.93	180.01	19.34	-51.9	-54.4	6.1	0.00e+00	0	38	104	0	60	87481
2026-01-07 23:06:26.94	180.10	19.17	-51.9	-54.4	6.1	0.00e+00	0	38	104	0	60	88099
2026-01-07 23:06:27.96	180.20	19.01	-51.9	-54.4	6.1	0.00e+00	0	38	104	0	60	87998
2026-01-07 23:06:28.97	180.30	18.84	-51.9	-54.4	6.1	0.00e+00	0	38	104	0	60	87803
2026-01-07 23:06:29.98	180.39	18.68	-51.9	-54.4	6.1	0.00e+00	0	38	104	0	60	87773
2026-01-07 23:06:30.99	180.48	18.51	-51.9	-54.4	6.1	0.00e+00	0	38	104	0	60	87656
2026-01-07 23:06:32.00	180.58	18.35	-51.9	-54.4	6.1	0.00e+00	0	38	104	0	60	87401
2026-01-07 23:06:33.01	180.67	18.19	-51.9	-54.4	6.1	0.00e+00	0	38	104	0	60	87595
2026-01-07 23:06:34.02	180.76	18.03	-51.9	-54.4	6.1	0.00e+00	0	38	104	0	60	87660
2026-01-07 23:06:35.03	180.85	17.87	-51.9	-54.4	6.1	0.00e+00	0	38	104	0	60	87752
2026-01-07 23:06:36.04	180.93	17.72	-51.9	-54.4	6.1	0.00e+00	0	38	104	0	60	87924
2026-01-07 23:06:37.05	181.02	17.56	-51.9	-54.4	6.1	0.00e+00	0	38	104	0	60	87445
2026-01-07 23:06:38.06	181.11	17.41	-51.9	-54.4	6.1	0.00e+00	0	38	104	0	60	88071
2026-01-07 23:06:39.07	181.19	17.25	-51.9	-54.4	6.1	0.00e+00	0	38	104	0	60	87835
2026-01-07 23:06:40.08	181.28	17.10	-51.9	-54.4	6.1	0.00e+00	0	38	104	0	60	87406
2026-01-07 23:06:41.09	181.36	16.95	-51.9	-54.4	6.1	0.00e+00	0	38	104	0	60	87970
2026-01-07 23:06:42.10	181.44	16.80	-51.9	-54.4	6.1	0.00e+00	0	38	104	0	60	87850
2026-01-07 23:06:43.11	181.52	16.65	-51.9	-54.4	6.1	0.00e+00	0	38	104	0	60	87762
2026-01-07 23:06:44.12	181.60	16.51	-51.9	-54.4	6.1	0.00e+00	0	38	104	0	60	87597
2026-01-07 23:06:45.14	181.68	16.36	-51.9	-54.4	6.1	0.00e+00	0	38	104	0	60	87754
2026-01-07 23:06:46.15	181.76	16.21	-51.9	-54.4	6.1	0.00e+00	0	38	104	0	60	87406
2026-01-07 23:06:47.16	181.84	16.07	-51.9	-54.4	6.1	0.00e+00	0	38	104	0	60	87647
2026-01-07 23:06:48.17	181.92	15.92	-51.9	-54.4	6.1	0.00e+00	0	38	104	0	60	87819
2026-01-07 23:06:49.18	181.99	15.78	-51.9	-54.4	6.1	0.00e+00	0	38	104	0	60	87833
2026-01-07 23:06:50.19	182.07	15.64	-51.9	-54.4	6.1	0.00e+00	0	38	104	0	60	87512
2026-01-07 23:06:51.20	182.14	15.50	-51.9	-54.4	6.1	0.00e+00	0	38	104	0	60	87692
2026-01-07 23:06:52.21	182.22	15.36	-51.9	-54.4	6.1	0.00e+00	0	38	104	0	60	87687
2026-01-07 23:06:53.23	182.29	15.22	-51.9	-54.4	6.1	0.00e+00	0	38	104	0	60	87517
2026-01-07 23:06:54.24	182.36	15.09	-51.9	-54.4	6.1	0.00e+00	0	38	104	0	60	87632
2026-01-07 23:06:55.25	182.44	14.95	-51.9	-54.4	6.1	0.00e+00	0	38	104	0	60	87843
2026-01-07 23:06:56.26	182.51	14.81	-51.9	-54.4	6.1	0.00e+00	0	38	104	0	60	87716
2026-01-07 23:06:57.27	182.58	14.68	-51.9	-54.4	6.1	0.00e+00	0	38	104	0	60	87712
2026-01-07 23:06:58.28	182.65	14.55	-51.9	-54.4	6.1	0.00e+00	0	38	104	0	60	87680
2026-01-07 23:06:59.29	182.71	14.41	-51.9	-54.4	6.1	0.00e+00	0	38	104	0	60	87504
2026-01-07 23:07:00.30	182.78	14.28	-51.9	-54.4	6.1	0.00e+00	0	38	104	0	60	88210
2026-01-07 23:07:01.31	182.85	14.15	-51.9	-54.4	6.1	0.00e+00	0	38	104	0	60	88002
2026-01-07 23:07:02.32	182.92	14.02	-51.9	-54.4	6.1	0.00e+00	0	38	104	0	60	87564
2026-01-07 23:07:03.34	182.98	13.89	-51.9	-54.4	6.1	0.00e+00	0	38	104	0	60	87951
2026-01-07 23:07:04.35	183.05	13.76	-51.9	-54.3	6.1	0.00e+00	0	38	104	0	60	87163
2026-01-07 23:07:05.36	183.11	13.64	-51.9	-54.4	6.1	0.00e+00	0	38	104	0	60	87886
2026-01-07 23:07:06.37	183.18	13.51	-51.9	-54.4	6.1	0.00e+00	0	38	104	0	60	87865
2026-01-07 23:07:07.38	183.24	13.39	-51.9	-54.4	6.0	0.00e+00	0	38	104	0	60	87670
2026-01-07 23:07:08.39	183.30	13.26	-51.9	-54.4	6.1	0.00e+00	0	38	104	0	60	87693
2026-01-07 23:07:09.40	183.37	13.14	-51.9	-54.4	6.1	0.00e+00	0	38	104	0	60	88161
2026-01-07 23:07:10.41	183.43	13.01	-51.9	-54.4	6.1	0.00e+00	0	38	104	0	60	87962
2026-01-07 23:07:11.42	183.49	12.89	-51.9	-54.4	6.1	0.00e+00	0	38	104	0	60	88058
2026-01-07 23:07:12.43	183.55	12.77	-51.9	-54.5	6.1	0.00e+00	0	38	104	0	60	88243
2026-01-07 23:07:13.44	183.61	12.65	-51.9	-54.4	6.1	0.00e+00	0	38	104	0	60	87789
2026-01-07 23:07:14.45	183.67	12.53	-51.9	-54.4	6.1	0.00e+00	0	38	104	0	60	87686
2026-01-07 23:07:15.46	183.73	12.41	-51.9	-54.4	6.1	0.00e+00	0	38	104	0	60	87771
2026-01-07 23:07:16.47	183.79	12.29	-51.9	-54.4	6.1	0.00e+00	0	38	104	0	60	87849
2026-01-07 23:07:17.49	183.85	12.17	-51.9	-54.4	6.1	0.00e+00	0	38	104	0	60	87669
2026-01-07 23:07:18.50	183.90	12.06	-51.9	-54.4	6.1	0.00e+00	0	38	104	0	60	87597
2026-01-07 23:07:19.51	183.96	11.94	-51.9	-54.4	6.1	0.00e+00	0	38	104	0	60	88054
2026-01-07 23:07:20.52	184.02	11.82	-51.9	-54.4	6.1	0.00e+00	0	38	104	0	60	87674
2026-01-07 23:07:21.53	184.07	11.71	-51.9	-54.4	6.1	0.00e+00	0	38	104	0	60	87426
2026-01-07 23:07:22.54	184.13	11.59	-51.9	-54.4	6.1	0.00e+00	0	38	104	0	60	87372
2026-01-07 23:07:23.55	184.18	11.48	-51.9	-54.4	6.1	0.00e+00	0	38	104	0	60	87795
2026-01-07 23:07:24.56	184.24	11.37	-51.9	-54.4	6.1	0.00e+00	0	38	104	0	60	87931
2026-01-07 23:07:25.58	184.29	11.26	-51.9	-54.4	6.1	0.00e+00	0	38	104	0	60	87474
2026-01-07 23:07:26.59	184.35	11.14	-51.9	-54.4	6.1	0.00e+00	0	38	104	0	60	87558
2026-01-07 23:07:27.60	184.40	11.03	-51.9	-54.4	6.1	0.00e+00	0	38	104	0	60	87649
2026-01-07 23:07:28.61	184.45	10.92	-51.9	-54.4	6.1	0.00e+00	0	38	104	0	60	87750
2026-01-07 23:07:29.62	184.50	10.81	-51.9	-54.4	6.1	0.00e+00	0	38	104	0	60	87366
2026-01-07 23:07:30.63	184.56	10.70	-51.9	-54.4	6.1	0.00e+00	0	38	104	0	60	87666
2026-01-07 23:07:31.64	184.61	10.60	-51.9	-54.4	6.1	0.00e+00	0	38	104	0	60	87431
2026-01-07 23:07:32.65	184.66	10.49	-51.9	-54.4	6.1	0.00e+00	0	38	104	0	60	87732
2026-01-07 23:07:33.66	184.71	10.38	-51.9	-54.4	6.1	0.00e+00	0	38	104	0	60	87821
2026-01-07 23:07:34.67	184.76	10.27	-51.9	-54.4	6.1	0.00e+00	0	38	104	0	60	87900
2026-01-07 23:07:35.68	184.81	10.17	-51.9	-54.4	6.1	0.00e+00	0	38	104	0	60	87886
2026-01-07 23:07:36.69	184.86	10.06	-51.9	-54.4	6.1	0.00e+00	0	38	104	0	60	87457
2026-01-07 23:07:37.70	184.91	9.96	-51.9	-54.4	6.1	0.00e+00	0	38	104	0	60	87826
2026-01-07 23:07:38.71	184.95	9.85	-51.9	-54.4	6.1	0.00e+00	0	38	104	0	60	88035
2026-01-07 23:07:39.72	185.00	9.75	-51.9	-54.4	6.1	0.00e+00	0	38	104	0	60	87504
2026-01-07 23:07:40.74	185.05	9.65	-51.9	-54.4	6.1	0.00e+00	0	38	104	0	60	87872
2026-01-07 23:07:41.75	185.10	9.54	-51.9	-54.4	6.1	0.00e+00	0	38	104	0	60	87967
2026-01-07 23:07:42.76	185.14	9.44	-51.9	-54.4	6.1	0.00e+00	0	38	104	0	60	88053
2026-01-07 23:07:43.77	185.19	9.34	-51.9	-54.4	6.1	0.00e+00	0	38	104	0	60	88081
2026-01-07 23:07:44.78	185.24	9.24	-51.9	-54.4	6.1	0.00e+00	0	38	104	0	60	87861
2026-01-07 23:07:45.79	185.28	9.14	-51.9	-54.4	6.0	0.00e+00	0	38	104	0	60	87712
2026-01-07 23:07:46.80	185.33	9.04	-51.9	-54.4	6.1	0.00e+00	0	38	104	0	60	87376
2026-01-07 23:07:47.81	185.37	8.94	-51.9	-54.4	6.1	0.00e+00	0	38	104	0	60	87866
2026-01-07 23:07:48.82	185.42	8.84	-51.9	-54.4	6.1	0.00e+00	0	38	104	0	60	87964
2026-01-07 23:07:49.83	185.46	8.74	-51.9	-54.4	6.1	0.00e+00	0	38	104	0	60	87636
2026-01-07 23:07:50.85	185.51	8.64	-51.9	-54.4	6.1	0.00e+00	0	38	104	0	60	87674
2026-01-07 23:07:51.86	185.55	8.55	-51.9	-54.4	6.1	0.00e+00	0	38	104	0	60	87558
2026-01-07 23:07:52.87	185.59	8.45	-51.9	-54.4	6.1	0.00e+00	0	38	104	0	60	87737
2026-01-07 23:07:53.88	185.64	8.35	-51.9	-54.4	6.1	0.00e+00	0	38	104	0	60	87796
2026-01-07 23:07:54.89	185.68	8.26	-51.9	-54.4	6.1	0.00e+00	0	38	104	0	60	87820
2026-01-07 23:07:55.90	185.72	8.16	-51.9	-54.4	6.1	0.00e+00	0	38	104	0	60	87601
2026-01-07 23:07:56.91	185.76	8.07	-51.9	-54.4	6.1	0.00e+00	0	38	104	0	60	87341
2026-01-07 23:07:57.92	185.81	7.97	-51.9	-54.4	6.1	0.00e+00	0	38	104	0	60	87629
2026-01-07 23:07:58.93	185.85	7.88	-51.9	-54.4	6.1	0.00e+00	0	38	104	0	60	87483
2026-01-07 23:07:59.94	185.89	7.79	-51.9	-54.4	6.1	0.00e+00	0	38	104	0	60	87601
2026-01-07 23:08:00.95	185.93	7.69	-51.9	-54.4	6.1	0.00e+00	0	38	104	0	60	87787
2026-01-07 23:08:01.96	185.97	7.60	-51.9	-54.4	6.1	0.00e+00	0	38	104	0	60	87511
2026-01-07 23:08:02.98	186.01	7.51	-51.9	-54.4	6.1	0.00e+00	0	38	104	0	60	87436
2026-01-07 23:08:03.99	186.05	7.42	-51.9	-54.4	6.1	0.00e+00	0	38	104	0	60	87773
2026-01-07 23:08:05.00	186.09	7.32	-51.9	-54.4	6.1	0.00e+00	0	38	104	0	60	87469
2026-01-07 23:08:06.01	186.13	7.23	-51.9	-54.4	6.1	0.00e+00	0	38	104	0	60	87767
2026-01-07 23:08:07.02	186.17	7.14	-51.9	-54.4	6.1	0.00e+00	0	38	104	0	60	87804
2026-01-07 23:08:08.03	186.21	7.05	-51.9	-54.4	6.1	0.00e+00	0	38	104	0	60	87938
2026-01-07 23:08:09.04	186.25	6.96	-51.9	-54.4	6.1	0.00e+00	0	38	104	0	60	87776
2026-01-07 23:08:10.06	186.29	6.87	-51.9	-54.4	6.1	0.00e+00	0	38	104	0	60	87305
2026-01-07 23:08:11.07	186.32	6.78	-51.9	-54.4	6.1	0.00e+00	0	38	104	0	60	87917
2026-01-07 23:08:12.08	186.36	6.70	-51.9	-54.4	6.1	0.00e+00	0	38	104	0	60	87801
2026-01-07 23:08:13.09	186.40	6.61	-51.9	-54.4	6.1	0.00e+00	0	38	104	0	60	87641
2026-01-07 23:08:14.10	186.44	6.52	-51.9	-54.4	6.1	0.00e+00	0	38	104	0	60	88024
2026-01-07 23:08:15.11	186.47	6.43	-51.9	-54.4	6.1	0.00e+00	0	38	104	0	60	87545
2026-01-07 23:08:16.12	186.51	6.35	-51.9	-54.4	6.1	0.00e+00	0	38	104	0	60	87375
2026-01-07 23:08:17.13	186.55	6.26	-51.9	-54.4	6.1	0.00e+00	0	38	104	0	60	87596
2026-01-07 23:08:18.15	186.58	6.17	-51.9	-54.4	6.1	0.00e+00	0	38	104	0	60	87770
2026-01-07 23:08:19.16	186.62	6.09	-51.9	-54.4	6.1	0.00e+00	0	38	104	0	60	87753
2026-01-07 23:08:20.17	186.66	6.00	-51.9	-54.4	6.1	0.00e+00	0	38	104	0	60	87601
2026-01-07 23:08:21.18	186.69	5.92	-51.9	-54.4	6.1	0.00e+00	0	38	104	0	60	87955
2026-01-07 23:08:22.19	186.73	5.83	-51.9	-54.4	6.1	0.00e+00	0	38	104	0	60	87975
2026-01-07 23:08:23.20	186.76	5.75	-51.9	-54.4	6.1	0.00e+00	0	38	104	0	60	87570
2026-01-07 23:08:24.21	186.80	5.66	-51.9	-54.4	6.1	0.00e+00	0	38	104	0	60	87899
2026-01-07 23:08:25.22	186.83	5.58	-51.9	-54.4	6.0	0.00e+00	0	38	104	0	60	87547
2026-01-07 23:08:26.23	186.87	5.50	-51.9	-54.4	6.1	0.00e+00	0	38	104	0	60	87673
2026-01-07 23:08:27.24	186.90	5.41	-51.9	-54.5	6.1	0.00e+00	0	38	104	0	60	88340
2026-01-07 23:08:28.26	186.93	5.33	-51.9	-54.4	6.1	0.00e+00	0	38	104	0	60	87454
2026-01-07 23:08:29.27	186.97	5.25	-51.9	-54.4	6.1	0.00e+00	0	38	104	0	60	87938
2026-01-07 23:08:30.28	187.00	5.17	-51.9	-54.4	6.1	0.00e+00	0	38	104	0	60	87921
2026-01-07 23:08:31.29	187.03	5.09	-51.9	-54.4	6.1	0.00e+00	0	38	104	0	60	87777
2026-01-07 23:08:32.30	187.07	5.00	-51.9	-54.5	6.1	0.00e+00	0	38	104	0	60	88292
2026-01-07 23:08:33.31	187.10	4.92	-51.9	-54.4	6.1	0.00e+00	0	38	104	0	60	87644
2026-01-07 23:08:34.32	187.13	4.84	-51.9	-54.4	6.1	0.00e+00	0	38	104	0	60	87510
2026-01-07 23:08:35.33	187.17	4.76	-51.9	-54.3	6.1	0.00e+00	0	38	104	0	60	87135
2026-01-07 23:08:36.35	187.20	4.68	-51.9	-54.4	6.1	0.00e+00	0	38	104	0	60	87839
2026-01-07 23:08:37.36	187.23	4.60	-51.9	-54.4	6.1	0.00e+00	0	38	104	0	60	87682
2026-01-07 23:08:38.37	187.26	4.52	-51.9	-54.4	6.1	0.00e+00	0	38	104	0	60	87765
2026-01-07 23:08:39.38	187.29	4.44	-51.9	-54.4	6.1	0.00e+00	0	38	104	0	60	87742
2026-01-07 23:08:40.39	187.33	4.37	-51.9	-54.4	6.1	0.00e+00	0	38	104	0	60	87378
2026-01-07 23:08:41.40	187.36	4.29	-51.9	-54.4	6.1	0.00e+00	0	38	104	0	60	87980
2026-01-07 23:08:42.41	187.39	4.21	-51.9	-54.4	6.1	0.00e+00	0	38	104	0	60	87746
2026-01-07 23:08:43.42	187.42	4.13	-51.9	-54.4	6.1	0.00e+00	0	38	104	0	60	87620
2026-01-07 23:08:44.43	187.45	4.05	-51.9	-54.4	6.1	0.00e+00	0	38	104	0	60	87654
2026-01-07 23:08:45.44	187.48	3.98	-51.9	-54.4	6.1	0.00e+00	0	38	104	0	60	87864
2026-01-07 23:08:46.45	187.51	3.90	-51.9	-54.4	6.1	0.00e+00	0	38	104	0	60	87939
2026-01-07 23:08:47.46	187.54	3.82	-51.9	-54.4	6.1	0.00e+00	0	38	104	0	60	88202
2026-01-07 23:08:48.47	187.57	3.75	-51.9	-54.4	6.1	0.00e+00	0	38	104	0	60	87751
2026-01-07 23:08:49.49	187.60	3.67	-51.9	-54.4	6.1	0.00e+00	0	38	104	0	60	87263
2026-01-07 23:08:50.50	187.63	3.60	-51.9	-54.4	6.1	0.00e+00	0	38	104	0	60	87678
2026-01-07 23:08:51.51	187.66	3.52	-51.9	-54.4	6.1	0.00e+00	0	38	104	0	60	87699
2026-01-07 23:08:52.52	187.69	3.44	-51.9	-54.4	6.1	0.00e+00	0	38	104	0	60	87629
2026-01-07 23:08:53.53	187.72	3.37	-51.9	-54.4	6.1	0.00e+00	0	38	104	0	60	87582
2026-01-07 23:08:54.54	187.75	3.29	-51.9	-54.5	6.1	0.00e+00	0	38	104	0	60	88266
2026-01-07 23:08:55.55	187.78	3.22	-51.9	-54.4	6.1	0.00e+00	0	38	104	0	60	88097
2026-01-07 23:08:56.56	187.81	3.15	-51.9	-54.4	6.1	0.00e+00	0	38	104	0	60	87680
2026-01-07 23:08:57.57	187.83	3.07	-51.9	-54.4	6.1	0.00e+00	0	38	104	0	60	87942
2026-01-07 23:08:58.58	187.86	3.00	-51.9	-54.4	6.1	0.00e+00	0	38	104	0	60	87316
2026-01-07 23:08:59.60	187.89	2.92	-51.9	-54.4	6.1	0.00e+00	0	38	104	0	60	87788
2026-01-07 23:09:00.61	187.92	2.85	-51.9	-54.4	6.1	0.00e+00	0	38	104	0	60	87504
2026-01-07 23:09:01.62	187.95	2.78	-51.9	-54.4	6.1	0.00e+00	0	38	104	0	60	87585
2026-01-07 23:09:02.63	187.98	2.71	-51.9	-54.4	6.1	0.00e+00	0	38	104	0	60	87627
2026-01-07 23:09:03.64	188.00	2.63	-51.9	-54.4	6.1	0.00e+00	0	38	104	0	60	87491
2026-01-07 23:09:04.65	188.03	2.56	-51.9	-54.4	6.1	0.00e+00	0	38	104	0	60	87823
2026-01-07 23:09:05.66	188.06	2.49	-51.9	-54.4	6.1	0.00e+00	0	38	104	0	60	87512
2026-01-07 23:09:06.67	188.08	2.42	-51.9	-54.4	6.1	0.00e+00	0	38	104	0	60	87608
2026-01-07 23:09:07.69	188.11	2.35	-51.9	-54.4	6.1	0.00e+00	0	38	104	0	60	87625
2026-01-07 23:09:08.70	188.14	2.27	-51.9	-54.4	6.1	0.00e+00	0	38	104	0	60	87835
2026-01-07 23:09:09.71	188.17	2.20	-51.9	-54.4	6.1	0.00e+00	0	38	104	0	60	87489
2026-01-07 23:09:10.72	188.19	2.13	-51.9	-54.4	6.1	0.00e+00	0	38	104	0	60	87824
2026-01-07 23:09:11.73	188.22	2.06	-51.9	-54.4	6.1	0.00e+00	0	38	104	0	60	87590
2026-01-07 23:09:12.74	188.24	1.99	-51.9	-54.4	6.1	0.00e+00	0	38	104	0	60	87362
2026-01-07 23:09:13.75	188.27	1.92	-51.9	-54.4	6.1	0.00e+00	0	38	104	0	60	87433
2026-01-07 23:09:14.76	188.30	1.85	-51.9	-54.4	6.1	0.00e+00	0	38	104	0	60	87977
2026-01-07 23:09:15.77	188.32	1.78	-51.9	-54.4	6.1	0.00e+00	0	38	104	0	60	88040
2026-01-07 23:09:16.78	188.35	1.71	-51.9	-54.4	6.1	0.00e+00	0	38	104	0	60	87660
2026-01-07 23:09:17.80	188.37	1.64	-51.9	-54.4	6.1	0.00e+00	0	38	104	0	60	87522
2026-01-07 23:09:18.81	188.40	1.57	-51.9	-54.3	6.1	0.00e+00	0	38	104	0	60	87143
2026-01-07 23:09:19.82	188.43	1.51	-51.9	-54.4	6.1	0.00e+00	0	38	104	0	60	87654
2026-01-07 23:09:20.83	188.45	1.44	-51.9	-54.4	6.0	0.00e+00	0	38	104	0	60	88092
2026-01-07 23:09:21.84	188.48	1.37	-51.9	-54.4	6.1	0.00e+00	0	38	104	0	60	87872
2026-01-07 23:09:22.85	188.50	1.30	-51.9	-54.4	6.1	0.00e+00	0	38	104	0	60	88024
2026-01-07 23:09:23.86	188.53	1.23	-51.9	-54.4	6.1	0.00e+00	0	38	104	0	60	87727
2026-01-07 23:09:24.87	188.55	1.16	-51.9	-54.4	6.1	0.00e+00	0	38	104	0	60	87276
2026-01-07 23:09:25.88	188.57	1.10	-51.9	-54.4	6.1	0.00e+00	0	38	104	0	60	87433
2026-01-07 23:09:26.89	188.60	1.03	-51.9	-54.4	6.1	0.00e+00	0	38	104	0	60	87682
2026-01-07 23:09:27.91	188.62	0.96	-51.9	-54.4	6.1	0.00e+00	0	38	104	0	60	87571
2026-01-07 23:09:28.92	188.65	0.89	-51.9	-54.4	6.1	0.00e+00	0	38	104	0	60	87822
2026-01-07 23:09:29.93	188.67	0.83	-51.9	-54.4	6.1	0.00e+00	0	38	104	0	60	87894
2026-01-07 23:09:30.94	188.70	0.76	-51.9	-54.4	6.1	0.00e+00	0	38	104	0	60	87557
2026-01-07 23:09:31.95	188.72	0.70	-51.9	-54.4	6.1	0.00e+00	0	38	104	0	60	87385
2026-01-07 23:09:32.96	188.74	0.63	-51.9	-54.4	6.1	0.00e+00	0	38	104	0	60	87429
2026-01-07 23:09:33.97	188.77	0.56	-51.9	-54.4	6.1	0.00e+00	0	38	104	0	60	87395
2026-01-07 23:09:34.98	188.79	0.50	-51.9	-54.4	6.1	0.00e+00	0	38	104	0	60	87626
2026-01-07 23:09:35.99	188.81	0.43	-51.9	-54.4	6.1	0.00e+00	0	38	104	0	60	87627
2026-01-07 23:09:37.00	188.84	0.37	-51.9	-54.4	6.1	0.00e+00	0	38	104	0	60	87759
2026-01-07 23:09:38.01	188.86	0.30	-51.9	-54.4	6.1	0.00e+00	0	38	104	0	60	87534
2026-01-07 23:09:39.02	188.88	0.24	-51.9	-54.4	6.1	0.00e+00	0	38	104	0	60	88016
2026-01-07 23:09:40.04	188.91	0.17	-51.9	-54.4	6.1	0.00e+00	0	38	104	0	60	87509
2026-01-07 23:09:41.05	188.93	0.11	-51.9	-54.4	6.1	0.00e+00	0	38	104	0	60	87353
2026-01-07 23:09:42.06	188.95	0.04	-51.9	-54.4	6.1	0.00e+00	0	38	104	0	60	87702
2026-01-07 23:09:43.07	188.97	-0.02	-51.9	-54.4	6.1	0.00e+00	0	38	104	0	60	87454

#Closed at: 2026-01-07 23:09:43
#Recorded file [0 MB]: D:/lorett/data/35034_260108_015838.dat