passes_logs/2026/01/07/R4.6S_Anadyr_2ch/R4.6S_Anadyr_2ch__20260107_135409_SUOMI_NPP_rec.log

#Pass ID: 20260107_135409_SUOMI NPP
#Satellite: SUOMI NPP
#Configuration: NPP
#almurnet v.1.7.20251203
#Start time: 2026-01-07 13:54:11

#Version: 2.2.20231116
#Station: R4.6S_Anadyr_2ch
#Location: 177.4865 lon 64.73178 lat
#TLE: 1 37849U 11061A   25350.92281687  .00000071  00000+0  54882-4 0  9996
#TLE: 2 37849  98.7777 288.2268 0002366 112.8570 247.2856 14.19515404732588

#Time	Az	El	Level	Level2	SNR	BER	BlckErr	Temp	State	Recorded	gain1	gain2
2026-01-07 13:54:11.00	19.20	0.07	-51.9	-64.6	3.5	1.52e+00	0	32	0	0	60	80166
2026-01-07 13:54:12.01	19.23	0.13	-51.9	-67.3	3.6	1.51e+00	0	33	104	0	60	113433
2026-01-07 13:54:13.02	19.26	0.19	-52.0	-67.4	3.6	1.51e+00	0	33	104	0	60	114620
2026-01-07 13:54:14.03	19.30	0.25	-51.9	-67.4	3.6	1.51e+00	0	33	104	0	60	113982
2026-01-07 13:54:15.05	19.33	0.31	-51.9	-67.4	3.6	1.51e+00	0	34	104	0	60	114821
2026-01-07 13:54:16.06	19.36	0.37	-52.0	-67.4	3.6	1.51e+00	0	33	104	0	60	113834
2026-01-07 13:54:17.05	19.39	0.42	-52.0	-67.4	3.6	1.51e+00	0	33	104	0	60	114160
2026-01-07 13:54:18.06	19.42	0.48	-52.0	-67.4	3.6	1.51e+00	0	34	104	0	60	114524
2026-01-07 13:54:19.07	19.45	0.54	-52.0	-67.4	3.6	1.51e+00	0	34	104	0	60	113733
2026-01-07 13:54:20.08	19.49	0.60	-51.9	-67.3	3.6	1.51e+00	0	34	104	0	60	112763
2026-01-07 13:54:21.09	19.52	0.66	-51.9	-67.2	3.6	1.51e+00	0	34	104	0	60	112282
2026-01-07 13:54:22.10	19.55	0.72	-51.8	-67.1	3.6	1.51e+00	0	34	104	0	60	110863
2026-01-07 13:54:23.11	19.58	0.78	-51.6	-67.1	3.6	1.51e+00	0	34	104	0	60	110094
2026-01-07 13:54:24.12	19.61	0.84	-51.4	-66.9	3.6	1.51e+00	0	34	104	0	60	107383
2026-01-07 13:54:25.13	19.65	0.90	-51.3	-66.7	3.6	1.51e+00	0	34	104	0	60	105282
2026-01-07 13:54:26.14	19.68	0.96	-51.1	-66.5	3.6	1.51e+00	0	34	104	0	60	102936
2026-01-07 13:54:27.16	19.71	1.02	-50.7	-66.1	3.6	1.51e+00	0	34	104	0	60	98701
2026-01-07 13:54:28.17	19.75	1.08	-50.5	-65.8	3.6	1.51e+00	0	34	104	0	60	95286
2026-01-07 13:54:29.18	19.78	1.14	-50.5	-65.8	3.6	1.51e+00	0	34	104	0	60	95480
2026-01-07 13:54:30.19	19.81	1.20	-50.5	-65.8	3.6	1.51e+00	0	34	104	0	60	95208
2026-01-07 13:54:31.20	19.85	1.26	-50.5	-65.8	3.6	1.51e+00	0	34	104	0	60	95273
2026-01-07 13:54:32.21	19.88	1.33	-50.5	-65.8	3.6	1.51e+00	0	34	104	0	60	94996
2026-01-07 13:54:33.22	19.91	1.39	-50.5	-65.8	3.6	1.51e+00	0	34	104	0	60	94871
2026-01-07 13:54:34.23	19.95	1.45	-50.5	-65.8	3.6	1.51e+00	0	34	104	0	60	95436
2026-01-07 13:54:35.24	19.98	1.51	-50.5	-65.8	3.6	1.51e+00	0	34	104	0	60	95209
2026-01-07 13:54:36.25	20.01	1.57	-50.5	-65.9	3.6	1.51e+00	0	34	104	0	60	95687
2026-01-07 13:54:37.27	20.05	1.63	-50.5	-65.8	3.6	1.51e+00	0	34	104	0	60	95536
2026-01-07 13:54:38.28	20.08	1.69	-50.5	-65.8	3.6	1.51e+00	0	34	104	0	60	95143
2026-01-07 13:54:39.29	20.12	1.76	-50.5	-65.8	3.6	1.51e+00	0	34	104	0	60	95188
2026-01-07 13:54:40.30	20.15	1.82	-50.5	-65.9	3.5	1.51e+00	0	34	104	0	60	95978
2026-01-07 13:54:41.31	20.19	1.88	-50.5	-65.9	3.6	1.51e+00	0	34	104	0	60	95735
2026-01-07 13:54:42.32	20.22	1.94	-50.5	-65.8	3.6	1.51e+00	0	34	104	0	60	94645
2026-01-07 13:54:43.33	20.25	2.00	-50.4	-65.5	3.6	1.51e+00	0	34	104	0	60	91852
2026-01-07 13:54:44.34	20.29	2.07	-50.4	-65.1	3.6	1.51e+00	0	34	104	0	60	88005
2026-01-07 13:54:45.35	20.32	2.13	-50.4	-64.6	3.6	1.51e+00	0	34	104	0	60	82836
2026-01-07 13:54:46.36	20.36	2.19	-50.4	-64.4	3.6	1.51e+00	0	34	104	0	60	80595
2026-01-07 13:54:47.38	20.40	2.26	-50.4	-64.6	3.6	1.51e+00	0	34	104	0	60	82863
2026-01-07 13:54:48.39	20.43	2.32	-50.4	-64.9	3.6	1.51e+00	0	34	104	0	60	86048
2026-01-07 13:54:49.40	20.47	2.38	-50.4	-65.0	3.6	1.51e+00	0	34	104	0	60	86968
2026-01-07 13:54:50.41	20.50	2.44	-50.4	-63.6	3.6	1.51e+00	0	34	104	0	60	73946
2026-01-07 13:54:51.42	20.54	2.51	-50.2	-60.3	4.6	1.19e+00	82	34	0	0	60	50696
2026-01-07 13:54:52.43	20.57	2.57	-49.8	-57.0	6.9	3.47e-01	0	34	102	1048576	60	34552
2026-01-07 13:54:53.44	20.61	2.63	-49.1	-54.6	9.7	6.76e-02	20	34	102	1048576	60	26323
2026-01-07 13:54:54.45	20.65	2.70	-48.1	-52.1	12.5	6.92e-04	0	34	102	1048576	60	19713
2026-01-07 13:54:55.46	20.68	2.76	-47.6	-50.9	13.8	4.04e-05	0	34	102	1048576	60	17201
2026-01-07 13:54:56.47	20.72	2.83	-46.8	-49.6	15.2	7.00e-07	0	34	102	1048576	60	14732
2026-01-07 13:54:57.48	20.75	2.89	-46.4	-49.0	15.8	0.00e+00	0	34	102	1048576	60	13715
2026-01-07 13:54:58.49	20.79	2.95	-46.0	-48.4	16.5	0.00e+00	79	34	102	1048576	60	12761
2026-01-07 13:54:59.50	20.83	3.02	-45.9	-48.2	16.6	0.00e+00	0	34	102	1048576	60	12537
2026-01-07 13:55:00.51	20.87	3.08	-45.9	-48.1	16.5	0.00e+00	42	34	102	1048576	60	12440
2026-01-07 13:55:01.52	20.90	3.15	-46.3	-48.8	15.8	0.00e+00	0	34	102	1048576	60	13502
2026-01-07 13:55:02.54	20.94	3.21	-46.9	-49.8	14.8	0.00e+00	0	34	102	1048576	60	15154
2026-01-07 13:55:03.55	20.98	3.28	-47.5	-50.9	13.7	1.50e-06	0	34	102	1048576	60	17168
2026-01-07 13:55:04.56	21.02	3.34	-48.4	-52.7	11.7	1.17e-04	0	34	102	1048576	60	21028
2026-01-07 13:55:05.57	21.05	3.41	-49.2	-55.0	9.1	4.96e-03	77	34	102	1048576	60	27273
2026-01-07 13:55:06.58	21.09	3.47	-48.1	-51.9	13.6	5.46e-02	0	34	102	1048576	60	19216
2026-01-07 13:55:07.59	21.13	3.54	-49.2	-55.2	7.4	3.36e-04	83	34	102	1048576	60	28148
2026-01-07 13:55:08.60	21.17	3.61	-50.0	-58.9	5.6	1.24e+00	0	34	104	1048576	60	43109
2026-01-07 13:55:09.61	21.21	3.67	-49.0	-54.1	5.7	1.51e+00	0	34	104	1048576	60	24779
2026-01-07 13:55:10.62	21.24	3.74	-50.3	-61.6	3.6	9.82e-02	25	34	104	1048576	60	58777
2026-01-07 13:55:11.63	21.28	3.80	-50.2	-60.8	5.1	1.51e+00	0	34	104	1048576	60	53374
2026-01-07 13:55:12.64	21.32	3.87	-47.8	-51.4	13.5	1.01e-04	0	34	0	1048576	60	18017
2026-01-07 13:55:13.65	21.36	3.94	-47.2	-50.2	14.6	1.50e-06	0	34	0	1048576	60	15722
2026-01-07 13:55:14.66	21.40	4.00	-47.2	-50.1	15.0	7.00e-07	86	34	0	1048576	60	15604
2026-01-07 13:55:15.67	21.44	4.07	-46.9	-49.6	15.1	0.00e+00	0	34	0	1048576	60	14795
2026-01-07 13:55:16.69	21.48	4.14	-46.6	-49.1	16.0	7.00e-07	0	34	0	1048576	60	13862
2026-01-07 13:55:17.70	21.52	4.21	-46.3	-48.7	16.3	0.00e+00	0	34	0	1048576	60	13328
2026-01-07 13:55:18.71	21.56	4.27	-46.1	-48.4	16.3	0.00e+00	0	34	0	1048576	60	12759
2026-01-07 13:55:19.72	21.60	4.34	-46.1	-48.3	16.8	0.00e+00	0	34	0	1048576	60	12660
2026-01-07 13:55:20.73	21.64	4.41	-45.8	-47.9	17.0	0.00e+00	0	34	0	1048576	60	12079
2026-01-07 13:55:21.74	21.68	4.48	-45.6	-47.7	17.3	0.00e+00	85	34	0	1048576	60	11790
2026-01-07 13:55:22.75	21.72	4.54	-45.4	-47.4	17.6	0.00e+00	0	34	0	1048576	60	11376
2026-01-07 13:55:23.76	21.76	4.61	-45.5	-47.4	17.7	0.00e+00	0	34	0	1048576	60	11453
2026-01-07 13:55:24.77	21.80	4.68	-45.2	-47.0	18.2	0.00e+00	0	34	0	1048576	60	10973
2026-01-07 13:55:25.78	21.84	4.75	-45.2	-47.1	17.9	0.00e+00	0	34	0	1048576	60	11086
2026-01-07 13:55:26.80	21.88	4.82	-44.9	-46.6	18.3	0.00e+00	0	34	0	1048576	60	10439
2026-01-07 13:55:27.81	21.92	4.89	-45.0	-46.8	18.1	0.00e+00	0	34	0	1048576	60	10698
2026-01-07 13:55:28.82	21.96	4.96	-45.2	-47.0	18.0	0.00e+00	82	34	0	1048576	60	10955
2026-01-07 13:55:29.83	22.01	5.02	-45.3	-47.3	17.7	0.00e+00	0	34	0	1048576	60	11256
2026-01-07 13:55:30.84	22.05	5.09	-45.3	-47.3	17.8	0.00e+00	0	34	101	1048576	60	11259
2026-01-07 13:55:31.85	22.09	5.16	-44.5	-46.1	18.8	0.00e+00	0	34	101	1048576	60	9890
2026-01-07 13:55:32.86	22.13	5.23	-44.8	-46.5	18.5	0.00e+00	0	34	101	1048576	60	10331
2026-01-07 13:55:33.87	22.17	5.30	-44.3	-45.9	19.1	0.00e+00	49	34	101	1048576	60	9603
2026-01-07 13:55:34.89	22.22	5.37	-44.0	-45.5	19.5	0.00e+00	0	34	101	1048576	60	9204
2026-01-07 13:55:35.90	22.26	5.44	-44.1	-45.7	19.4	0.00e+00	83	34	101	1048576	60	9380
2026-01-07 13:55:36.91	22.30	5.51	-44.1	-45.6	19.4	0.00e+00	0	34	101	1048576	60	9267
2026-01-07 13:55:37.92	22.34	5.58	-43.8	-45.3	19.7	0.00e+00	0	34	101	1048576	60	8994
2026-01-07 13:55:38.93	22.39	5.65	-44.0	-45.5	19.6	0.00e+00	0	34	101	1048576	60	9170
2026-01-07 13:55:39.94	22.43	5.73	-43.9	-45.4	19.6	0.00e+00	0	34	101	1048576	60	9067
2026-01-07 13:55:40.95	22.47	5.80	-43.8	-45.3	19.7	0.00e+00	0	35	101	1048576	60	8962
2026-01-07 13:55:41.96	22.52	5.87	-43.8	-45.3	19.8	0.00e+00	0	34	101	1048576	60	8950
2026-01-07 13:55:42.97	22.56	5.94	-43.7	-45.2	19.8	0.00e+00	65	34	101	1048576	60	8858
2026-01-07 13:55:43.98	22.61	6.01	-44.0	-45.5	19.6	0.00e+00	0	34	101	1048576	60	9193
2026-01-07 13:55:45.00	22.65	6.08	-43.7	-45.2	19.9	0.00e+00	76	34	101	1048576	60	8843
2026-01-07 13:55:46.00	22.69	6.15	-44.0	-45.5	19.5	0.00e+00	0	34	101	1048576	60	9179
2026-01-07 13:55:47.01	22.74	6.23	-43.8	-45.3	19.8	0.00e+00	0	34	101	1048576	60	8931
2026-01-07 13:55:48.02	22.78	6.30	-43.8	-45.2	19.9	0.00e+00	0	34	101	1048576	60	8912
2026-01-07 13:55:49.04	22.83	6.37	-44.0	-45.5	19.6	0.00e+00	0	34	101	1048576	60	9163
2026-01-07 13:55:50.05	22.88	6.44	-44.1	-45.6	19.5	0.00e+00	50	34	101	1048576	60	9300
2026-01-07 13:55:51.06	22.92	6.52	-43.8	-45.3	19.9	0.00e+00	0	34	101	1048576	60	8933
2026-01-07 13:55:52.07	22.97	6.59	-43.9	-45.4	19.8	0.00e+00	53	34	101	1048576	60	9109
2026-01-07 13:55:53.08	23.01	6.66	-43.8	-45.3	19.9	0.00e+00	0	34	101	1048576	60	8940
2026-01-07 13:55:54.09	23.06	6.74	-43.8	-45.3	19.7	0.00e+00	0	34	101	1048576	60	8982
2026-01-07 13:55:55.10	23.10	6.81	-44.1	-45.6	19.6	0.00e+00	0	34	101	1048576	60	9325
2026-01-07 13:55:56.11	23.15	6.88	-43.8	-45.3	19.9	0.00e+00	0	34	101	1048576	60	8927
2026-01-07 13:55:57.13	23.20	6.96	-43.9	-45.4	19.8	0.00e+00	79	34	101	1048576	60	9050
2026-01-07 13:55:58.14	23.25	7.03	-44.0	-45.5	19.7	0.00e+00	0	34	101	1048576	60	9227
2026-01-07 13:55:59.15	23.29	7.11	-43.9	-45.4	19.8	0.00e+00	92	34	101	1048576	60	9108
2026-01-07 13:56:00.16	23.34	7.18	-44.0	-45.5	19.7	0.00e+00	0	35	101	1048576	60	9167
2026-01-07 13:56:01.17	23.39	7.26	-43.9	-45.3	19.9	0.00e+00	0	35	101	1048576	60	8992
2026-01-07 13:56:02.18	23.44	7.33	-43.7	-45.1	20.0	0.00e+00	0	34	101	1048576	60	8791
2026-01-07 13:56:03.19	23.48	7.41	-43.7	-45.1	20.1	0.00e+00	33	34	101	1048576	60	8771
2026-01-07 13:56:04.20	23.53	7.48	-43.8	-45.2	20.0	0.00e+00	1	34	101	1048576	60	8898
2026-01-07 13:56:05.21	23.58	7.56	-43.8	-45.2	20.1	0.00e+00	0	34	101	1048576	60	8915
2026-01-07 13:56:06.22	23.63	7.64	-43.9	-45.3	19.9	0.00e+00	85	34	101	1048576	60	8973
2026-01-07 13:56:07.23	23.68	7.71	-43.7	-45.1	20.1	0.00e+00	0	34	101	1048576	60	8802
2026-01-07 13:56:08.24	23.73	7.79	-43.3	-44.7	20.4	0.00e+00	0	34	101	1048576	60	8331
2026-01-07 13:56:09.26	23.78	7.87	-43.6	-45.0	20.3	0.00e+00	0	34	101	1048576	60	8624
2026-01-07 13:56:10.27	23.83	7.94	-43.4	-44.7	20.5	0.00e+00	0	34	101	1048576	60	8420
2026-01-07 13:56:11.28	23.88	8.02	-43.3	-44.6	20.6	0.00e+00	0	34	101	1048576	60	8278
2026-01-07 13:56:12.29	23.93	8.10	-43.3	-44.7	20.5	0.00e+00	0	34	101	1048576	60	8348
2026-01-07 13:56:13.30	23.98	8.17	-43.3	-44.6	20.6	0.00e+00	87	34	101	1048576	60	8268
2026-01-07 13:56:14.31	24.03	8.25	-43.3	-44.6	20.6	0.00e+00	0	35	101	1048576	60	8291
2026-01-07 13:56:15.32	24.08	8.33	-43.3	-44.6	20.7	0.00e+00	7	34	101	1048576	60	8241
2026-01-07 13:56:16.33	24.13	8.41	-43.0	-44.2	20.9	0.00e+00	0	34	101	1048576	60	7937
2026-01-07 13:56:17.34	24.18	8.49	-43.1	-44.4	20.8	0.00e+00	0	35	101	1048576	60	8058
2026-01-07 13:56:18.35	24.23	8.56	-42.8	-44.1	21.0	0.00e+00	65	34	101	1048576	60	7801
2026-01-07 13:56:19.37	24.29	8.64	-43.1	-44.3	20.8	0.00e+00	0	34	101	1048576	60	8024
2026-01-07 13:56:20.38	24.34	8.72	-43.2	-44.4	20.8	0.00e+00	87	34	101	1048576	60	8123
2026-01-07 13:56:21.39	24.39	8.80	-43.0	-44.3	21.1	0.00e+00	0	34	101	1048576	60	7998
2026-01-07 13:56:22.40	24.44	8.88	-43.0	-44.2	21.0	0.00e+00	0	34	101	1048576	60	7924
2026-01-07 13:56:23.41	24.50	8.96	-42.6	-43.7	21.4	0.00e+00	0	34	101	1048576	60	7501
2026-01-07 13:56:24.42	24.55	9.04	-42.6	-43.7	21.4	0.00e+00	0	34	101	1048576	60	7504
2026-01-07 13:56:25.43	24.60	9.12	-42.6	-43.8	21.4	0.00e+00	0	34	101	1048576	60	7573
2026-01-07 13:56:26.44	24.66	9.20	-42.6	-43.7	21.5	0.00e+00	0	34	101	1048576	60	7505
2026-01-07 13:56:27.45	24.71	9.28	-42.5	-43.6	21.5	0.00e+00	87	34	101	1048576	60	7402
2026-01-07 13:56:28.47	24.77	9.36	-42.6	-43.7	21.5	0.00e+00	0	34	101	1048576	60	7506
2026-01-07 13:56:29.48	24.82	9.45	-42.5	-43.7	21.5	0.00e+00	61	34	101	1048576	60	7468
2026-01-07 13:56:30.49	24.87	9.53	-42.3	-43.4	21.7	0.00e+00	0	34	101	1048576	60	7250
2026-01-07 13:56:31.50	24.93	9.61	-42.3	-43.5	21.8	0.00e+00	0	34	101	1048576	60	7260
2026-01-07 13:56:32.51	24.98	9.69	-42.5	-43.7	21.6	0.00e+00	25	34	101	1048576	60	7425
2026-01-07 13:56:33.52	25.04	9.77	-42.7	-43.9	21.5	0.00e+00	0	35	101	1048576	60	7612
2026-01-07 13:56:34.53	25.10	9.85	-42.5	-43.6	21.6	0.00e+00	79	35	101	1048576	60	7407
2026-01-07 13:56:35.54	25.15	9.94	-42.7	-43.9	21.4	0.00e+00	0	34	101	1048576	60	7608
2026-01-07 13:56:36.55	25.21	10.02	-42.6	-43.7	21.5	0.00e+00	82	35	101	1048576	60	7480
2026-01-07 13:56:37.56	25.27	10.10	-42.8	-43.9	21.4	0.00e+00	0	34	101	1048576	60	7681
2026-01-07 13:56:38.57	25.32	10.19	-42.2	-43.3	21.9	0.00e+00	0	34	101	1048576	60	7164
2026-01-07 13:56:39.58	25.38	10.27	-42.3	-43.5	21.7	0.00e+00	0	34	101	1048576	60	7286
2026-01-07 13:56:40.59	25.44	10.35	-42.4	-43.5	21.7	0.00e+00	0	35	101	1048576	60	7309
2026-01-07 13:56:41.61	25.50	10.44	-42.3	-43.4	21.8	0.00e+00	9	35	101	1048576	60	7231
2026-01-07 13:56:42.62	25.56	10.52	-42.2	-43.4	21.8	0.00e+00	0	35	101	1048576	60	7182
2026-01-07 13:56:43.63	25.61	10.61	-42.3	-43.4	21.8	0.00e+00	83	34	101	1048576	60	7203
2026-01-07 13:56:44.64	25.67	10.69	-42.3	-43.4	21.8	0.00e+00	0	35	101	1048576	60	7220
2026-01-07 13:56:45.65	25.73	10.78	-42.2	-43.4	21.9	0.00e+00	0	35	101	1048576	60	7185
2026-01-07 13:56:46.66	25.79	10.87	-42.2	-43.3	21.9	0.00e+00	0	34	101	1048576	60	7129
2026-01-07 13:56:47.67	25.85	10.95	-42.3	-43.4	21.9	0.00e+00	0	34	101	1048576	60	7216
2026-01-07 13:56:48.68	25.91	11.04	-42.2	-43.3	22.0	0.00e+00	73	35	101	1048576	60	7118
2026-01-07 13:56:49.69	25.97	11.12	-42.1	-43.2	22.1	0.00e+00	0	34	101	1048576	60	7040
2026-01-07 13:56:50.70	26.03	11.21	-41.9	-43.0	22.2	0.00e+00	80	34	101	1048576	60	6876
2026-01-07 13:56:51.72	26.10	11.30	-42.0	-43.0	22.1	0.00e+00	0	35	101	1048576	60	6911
2026-01-07 13:56:52.73	26.16	11.39	-42.0	-43.1	22.0	0.00e+00	0	34	101	1048576	60	6980
2026-01-07 13:56:53.74	26.22	11.47	-41.9	-42.9	22.2	0.00e+00	0	35	101	1048576	60	6834
2026-01-07 13:56:54.75	26.28	11.56	-42.0	-43.1	22.2	0.00e+00	0	34	101	1048576	60	6936
2026-01-07 13:56:55.76	26.34	11.65	-41.9	-43.0	22.1	0.00e+00	0	34	101	1048576	60	6914
2026-01-07 13:56:56.77	26.41	11.74	-41.8	-42.9	22.3	0.00e+00	0	34	101	1048576	60	6810
2026-01-07 13:56:57.78	26.47	11.83	-41.7	-42.8	22.4	0.00e+00	84	35	101	1048576	60	6732
2026-01-07 13:56:58.79	26.53	11.91	-41.5	-42.5	22.7	0.00e+00	0	34	101	1048576	60	6488
2026-01-07 13:56:59.80	26.60	12.00	-41.5	-42.6	22.5	0.00e+00	0	35	101	1048576	60	6557
2026-01-07 13:57:00.82	26.66	12.09	-41.5	-42.6	22.5	0.00e+00	0	34	101	1048576	60	6552
2026-01-07 13:57:01.83	26.73	12.18	-41.4	-42.4	22.6	0.00e+00	0	35	101	1048576	60	6443
2026-01-07 13:57:02.84	26.79	12.27	-41.5	-42.5	22.6	0.00e+00	0	34	101	1048576	60	6504
2026-01-07 13:57:03.85	26.86	12.37	-41.3	-42.3	22.7	0.00e+00	0	34	101	1048576	60	6335
2026-01-07 13:57:04.86	26.92	12.46	-41.4	-42.5	22.6	0.00e+00	84	34	101	1048576	60	6472
2026-01-07 13:57:05.87	26.99	12.55	-41.3	-42.3	22.8	0.00e+00	0	34	101	1048576	60	6343
2026-01-07 13:57:06.88	27.06	12.64	-41.2	-42.2	22.9	0.00e+00	0	34	101	1048576	60	6275
2026-01-07 13:57:07.89	27.12	12.73	-41.2	-42.2	22.9	0.00e+00	0	34	101	1048576	60	6259
2026-01-07 13:57:08.91	27.19	12.82	-41.1	-42.1	22.9	0.00e+00	0	35	101	1048576	60	6198
2026-01-07 13:57:09.92	27.26	12.92	-41.3	-42.3	22.8	0.00e+00	0	35	101	1048576	60	6322
2026-01-07 13:57:10.93	27.33	13.01	-41.2	-42.2	22.9	0.00e+00	0	35	101	1048576	60	6285
2026-01-07 13:57:11.94	27.40	13.10	-41.2	-42.2	22.9	0.00e+00	84	34	101	1048576	60	6307
2026-01-07 13:57:12.95	27.47	13.20	-41.0	-42.0	23.0	0.00e+00	0	35	101	1048576	60	6145
2026-01-07 13:57:13.96	27.54	13.29	-40.9	-41.9	23.1	0.00e+00	8	34	101	1048576	60	6062
2026-01-07 13:57:14.97	27.61	13.38	-40.8	-41.7	23.2	0.00e+00	0	34	101	1048576	60	5949
2026-01-07 13:57:15.98	27.68	13.48	-40.9	-41.9	23.1	0.00e+00	0	34	101	1048576	60	6039
2026-01-07 13:57:16.99	27.75	13.57	-40.7	-41.7	23.3	0.00e+00	0	34	101	1048576	60	5921
2026-01-07 13:57:18.00	27.82	13.67	-40.7	-41.7	23.4	0.00e+00	0	34	101	1048576	60	5904
2026-01-07 13:57:19.01	27.89	13.76	-40.6	-41.6	23.4	0.00e+00	52	34	101	1048576	60	5832
2026-01-07 13:57:20.03	27.96	13.86	-40.7	-41.6	23.3	0.00e+00	0	34	101	1048576	60	5871
2026-01-07 13:57:21.04	28.03	13.95	-40.7	-41.6	23.4	0.00e+00	90	34	101	1048576	60	5863
2026-01-07 13:57:22.05	28.11	14.05	-40.6	-41.5	23.4	0.00e+00	0	35	101	1048576	60	5801
2026-01-07 13:57:23.06	28.18	14.15	-40.8	-41.7	23.4	0.00e+00	0	34	101	1048576	60	5932
2026-01-07 13:57:24.07	28.25	14.24	-40.5	-41.5	23.5	0.00e+00	0	34	101	1048576	60	5762
2026-01-07 13:57:25.08	28.33	14.34	-40.8	-41.8	23.3	0.00e+00	0	34	101	1048576	60	5972
2026-01-07 13:57:26.09	28.40	14.44	-40.7	-41.6	23.3	0.00e+00	14	34	101	1048576	60	5887
2026-01-07 13:57:27.10	28.48	14.54	-40.9	-41.9	23.2	0.00e+00	33	35	101	1048576	60	6054
2026-01-07 13:57:28.11	28.55	14.64	-40.7	-41.7	23.3	0.00e+00	91	34	101	1048576	60	5926
2026-01-07 13:57:29.12	28.63	14.74	-40.7	-41.6	23.4	0.00e+00	0	35	101	1048576	60	5866
2026-01-07 13:57:30.13	28.71	14.83	-40.5	-41.4	23.5	0.00e+00	33	34	101	1048576	60	5713
2026-01-07 13:57:31.14	28.78	14.93	-40.4	-41.3	23.6	0.00e+00	0	34	101	1048576	60	5644
2026-01-07 13:57:32.15	28.86	15.03	-40.5	-41.4	23.5	0.00e+00	0	35	101	1048576	60	5709
2026-01-07 13:57:33.16	28.94	15.13	-40.4	-41.3	23.6	0.00e+00	14	34	101	1048576	60	5694
2026-01-07 13:57:34.18	29.02	15.24	-40.3	-41.2	23.6	0.00e+00	33	34	101	1048576	58	6270
2026-01-07 13:57:35.19	29.10	15.34	-40.2	-41.1	23.7	0.00e+00	90	35	101	1048576	58	6218
2026-01-07 13:57:36.20	29.18	15.44	-40.2	-41.1	23.7	0.00e+00	0	35	101	1048576	58	6193
2026-01-07 13:57:37.21	29.26	15.54	-40.0	-40.8	24.0	0.00e+00	0	34	101	1048576	58	6007
2026-01-07 13:57:38.22	29.34	15.64	-40.1	-40.9	23.9	0.00e+00	0	34	101	1048576	58	6100
2026-01-07 13:57:39.23	29.42	15.74	-40.1	-41.0	23.8	0.00e+00	0	35	101	1048576	58	6122
2026-01-07 13:57:40.24	29.50	15.85	-40.3	-41.2	23.6	0.00e+00	73	34	101	1048576	58	6259
2026-01-07 13:57:41.25	29.58	15.95	-40.2	-41.1	23.8	0.00e+00	0	34	101	1048576	58	6200
2026-01-07 13:57:42.26	29.66	16.05	-40.2	-41.0	23.8	0.00e+00	86	34	101	1048576	58	6170
2026-01-07 13:57:43.27	29.75	16.16	-40.3	-41.2	23.7	0.00e+00	0	34	101	1048576	58	6250
2026-01-07 13:57:44.29	29.83	16.26	-40.0	-40.9	23.9	0.00e+00	0	34	101	1048576	58	6069
2026-01-07 13:57:45.30	29.92	16.37	-40.3	-41.2	23.6	0.00e+00	0	35	101	1048576	58	6306
2026-01-07 13:57:46.31	30.00	16.47	-40.3	-41.2	23.6	0.00e+00	0	34	101	1048576	58	6315
2026-01-07 13:57:47.32	30.09	16.58	-40.3	-41.2	23.6	0.00e+00	73	35	101	1048576	58	6308
2026-01-07 13:57:48.33	30.17	16.69	-40.6	-41.5	23.4	0.00e+00	0	34	101	1048576	58	6535
2026-01-07 13:57:49.34	30.26	16.79	-40.7	-41.6	23.4	0.00e+00	46	35	101	1048576	58	6586
2026-01-07 13:57:50.35	30.35	16.90	-40.7	-41.6	23.3	0.00e+00	0	35	101	1048576	58	6613
2026-01-07 13:57:51.36	30.43	17.01	-40.9	-41.9	23.1	0.00e+00	0	35	101	1048576	58	6807
2026-01-07 13:57:52.37	30.52	17.11	-40.9	-41.9	23.2	0.00e+00	0	34	101	1048576	58	6813
2026-01-07 13:57:53.38	30.61	17.22	-41.2	-42.2	23.1	0.00e+00	0	35	101	1048576	60	6314
2026-01-07 13:57:54.39	30.70	17.33	-40.9	-41.9	23.3	0.00e+00	0	35	101	1048576	60	6068
2026-01-07 13:57:55.40	30.79	17.44	-41.3	-42.3	22.8	0.00e+00	0	35	101	1048576	60	6377
2026-01-07 13:57:56.41	30.88	17.55	-41.2	-42.2	23.0	0.00e+00	79	34	101	1048576	60	6267
2026-01-07 13:57:57.42	30.97	17.66	-41.3	-42.3	22.9	0.00e+00	0	35	101	1048576	60	6382
2026-01-07 13:57:58.44	31.07	17.77	-41.2	-42.2	23.1	0.00e+00	72	35	101	1048576	60	6249
2026-01-07 13:57:59.45	31.16	17.88	-41.0	-42.0	23.1	0.00e+00	0	35	101	1048576	60	6119
2026-01-07 13:58:00.46	31.25	17.99	-41.2	-42.2	23.1	0.00e+00	0	35	101	1048576	60	6276
2026-01-07 13:58:01.47	31.35	18.10	-41.4	-42.4	22.9	0.00e+00	0	34	101	1048576	60	6403
2026-01-07 13:58:02.48	31.44	18.22	-41.3	-42.3	22.9	0.00e+00	0	35	101	1048576	60	6369
2026-01-07 13:58:03.49	31.54	18.33	-41.6	-42.6	22.6	0.00e+00	28	35	101	1048576	60	6587
2026-01-07 13:58:04.50	31.63	18.44	-41.7	-42.7	22.6	0.00e+00	0	35	101	1048576	60	6683
2026-01-07 13:58:05.51	31.73	18.56	-41.4	-42.5	22.9	0.00e+00	92	35	101	1048576	60	6468
2026-01-07 13:58:06.52	31.83	18.67	-41.4	-42.4	22.7	0.00e+00	0	35	101	1048576	60	6458
2026-01-07 13:58:07.53	31.92	18.78	-41.6	-42.6	22.7	0.00e+00	0	35	101	1048576	60	6596
2026-01-07 13:58:08.55	32.02	18.90	-41.4	-42.4	22.8	0.00e+00	0	35	101	1048576	60	6408
2026-01-07 13:58:09.56	32.12	19.01	-41.7	-42.7	22.6	0.00e+00	0	35	101	1048576	60	6638
2026-01-07 13:58:10.57	32.22	19.13	-41.8	-42.9	22.5	0.00e+00	84	34	101	1048576	60	6781
2026-01-07 13:58:11.58	32.32	19.25	-41.1	-42.1	23.2	0.00e+00	0	35	101	1048576	60	6193
2026-01-07 13:58:12.59	32.43	19.36	-41.0	-41.9	23.2	0.00e+00	68	34	101	1048576	60	6079
2026-01-07 13:58:13.60	32.53	19.48	-41.2	-42.1	23.1	0.00e+00	0	35	101	1048576	60	6238
2026-01-07 13:58:14.61	32.63	19.60	-40.8	-41.8	23.3	0.00e+00	0	35	101	1048576	60	5982
2026-01-07 13:58:15.62	32.74	19.71	-41.0	-41.9	23.2	0.00e+00	0	35	101	1048576	60	6084
2026-01-07 13:58:16.63	32.84	19.83	-41.2	-42.2	23.0	0.00e+00	0	35	101	1048576	60	6304
2026-01-07 13:58:17.64	32.95	19.95	-41.3	-42.3	23.0	0.00e+00	0	35	101	1048576	60	6359
2026-01-07 13:58:18.65	33.05	20.07	-41.3	-42.3	23.0	0.00e+00	0	35	101	1048576	60	6348
2026-01-07 13:58:19.67	33.16	20.19	-41.2	-42.2	23.1	0.00e+00	40	35	101	1048576	60	6292
2026-01-07 13:58:20.68	33.27	20.31	-41.2	-42.1	23.0	0.00e+00	0	35	101	1048576	60	6243
2026-01-07 13:58:21.69	33.38	20.43	-41.6	-42.6	22.7	0.00e+00	0	35	101	1048576	60	6595
2026-01-07 13:58:22.70	33.49	20.56	-41.3	-42.3	23.0	0.00e+00	0	35	101	1048576	60	6320
2026-01-07 13:58:23.71	33.60	20.68	-41.3	-42.3	22.9	0.00e+00	0	35	101	1048576	60	6387
2026-01-07 13:58:24.72	33.71	20.80	-41.5	-42.5	22.9	0.00e+00	0	35	101	1048576	60	6520
2026-01-07 13:58:25.73	33.82	20.92	-41.4	-42.4	22.9	0.00e+00	0	35	101	1048576	60	6424
2026-01-07 13:58:26.74	33.93	21.05	-41.2	-42.2	23.1	0.00e+00	92	35	101	1048576	60	6281
2026-01-07 13:58:27.75	34.05	21.17	-41.1	-42.1	23.1	0.00e+00	0	35	101	1048576	60	6191
2026-01-07 13:58:28.76	34.16	21.29	-41.4	-42.4	22.7	0.00e+00	0	35	101	1048576	60	6409
2026-01-07 13:58:29.77	34.28	21.42	-41.0	-41.9	23.0	0.00e+00	0	35	101	1048576	60	6095
2026-01-07 13:58:30.78	34.39	21.54	-41.3	-42.2	23.0	0.00e+00	0	35	101	1048576	60	6288
2026-01-07 13:58:31.79	34.51	21.67	-41.0	-41.9	23.3	0.00e+00	17	35	101	1048576	60	6101
2026-01-07 13:58:32.81	34.63	21.80	-41.0	-41.9	23.2	0.00e+00	0	35	101	1048576	60	6087
2026-01-07 13:58:33.82	34.75	21.92	-40.8	-41.7	23.5	0.00e+00	88	35	101	1048576	60	5956
2026-01-07 13:58:34.83	34.87	22.05	-40.9	-41.8	23.4	0.00e+00	0	35	101	1048576	60	5968
2026-01-07 13:58:35.84	34.99	22.18	-40.8	-41.7	23.5	0.00e+00	21	35	101	1048576	60	5920
2026-01-07 13:58:36.85	35.11	22.31	-40.6	-41.5	23.6	0.00e+00	0	35	101	1048576	60	5785
2026-01-07 13:58:37.86	35.24	22.44	-40.8	-41.6	23.5	0.00e+00	0	35	101	1048576	60	5896
2026-01-07 13:58:38.87	35.36	22.57	-41.0	-41.9	23.3	0.00e+00	0	35	101	1048576	60	6102
2026-01-07 13:58:39.88	35.48	22.70	-40.9	-41.8	23.3	0.00e+00	0	35	101	1048576	60	6011
2026-01-07 13:58:40.89	35.61	22.83	-41.2	-42.2	23.0	0.00e+00	47	35	101	1048576	60	6275
2026-01-07 13:58:41.91	35.74	22.96	-41.1	-42.1	23.2	0.00e+00	0	35	101	1048576	60	6176
2026-01-07 13:58:42.92	35.87	23.09	-41.3	-42.2	23.0	0.00e+00	65	35	101	1048576	60	6309
2026-01-07 13:58:43.93	36.00	23.22	-41.3	-42.2	23.1	0.00e+00	0	35	101	1048576	60	6272
2026-01-07 13:58:44.94	36.13	23.36	-41.1	-42.1	23.2	0.00e+00	0	35	101	1048576	60	6195
2026-01-07 13:58:45.95	36.26	23.49	-41.2	-42.2	23.1	0.00e+00	0	35	101	1048576	60	6270
2026-01-07 13:58:46.96	36.39	23.62	-41.3	-42.2	23.2	0.00e+00	0	35	101	1048576	60	6305
2026-01-07 13:58:47.97	36.52	23.76	-41.1	-42.0	23.3	0.00e+00	39	35	101	1048576	60	6148
2026-01-07 13:58:48.98	36.66	23.89	-41.3	-42.2	23.0	0.00e+00	0	35	101	1048576	60	6273
2026-01-07 13:58:49.99	36.79	24.03	-41.3	-42.3	23.1	0.00e+00	90	35	101	1048576	60	6333
2026-01-07 13:58:51.00	36.93	24.16	-41.1	-42.0	23.2	0.00e+00	0	35	101	1048576	60	6123
2026-01-07 13:58:52.01	37.07	24.30	-41.2	-42.1	23.2	0.00e+00	0	35	101	1048576	60	6226
2026-01-07 13:58:53.02	37.21	24.44	-41.5	-42.5	22.9	0.00e+00	0	35	101	1048576	60	6506
2026-01-07 13:58:54.03	37.35	24.57	-41.1	-42.1	23.2	0.00e+00	0	35	101	1048576	60	6190
2026-01-07 13:58:55.05	37.49	24.71	-41.3	-42.3	23.1	0.00e+00	0	35	101	1048576	60	6320
2026-01-07 13:58:56.06	37.63	24.85	-41.2	-42.1	23.0	0.00e+00	0	35	101	1048576	60	6245
2026-01-07 13:58:57.07	37.78	24.99	-41.5	-42.5	22.9	0.00e+00	59	35	101	1048576	60	6466
2026-01-07 13:58:58.08	37.92	25.13	-41.5	-42.4	23.0	0.00e+00	0	35	101	1048576	60	6442
2026-01-07 13:58:59.09	38.07	25.27	-41.8	-42.8	22.7	0.00e+00	0	35	101	1048576	60	6725
2026-01-07 13:59:00.10	38.22	25.41	-41.8	-42.8	22.7	0.00e+00	0	35	101	1048576	60	6732
2026-01-07 13:59:01.11	38.37	25.55	-41.8	-42.8	22.5	0.00e+00	32	35	101	1048576	60	6764
2026-01-07 13:59:02.12	38.52	25.70	-42.2	-43.2	22.3	0.00e+00	73	34	101	1048576	60	7076
2026-01-07 13:59:03.13	38.67	25.84	-42.2	-43.3	22.2	0.00e+00	0	35	101	1048576	60	7123
2026-01-07 13:59:04.14	38.82	25.98	-42.2	-43.3	22.2	0.00e+00	92	35	101	1048576	60	7098
2026-01-07 13:59:05.15	38.97	26.13	-42.3	-43.4	22.3	0.00e+00	0	35	101	1048576	60	7188
2026-01-07 13:59:06.17	39.13	26.27	-41.9	-42.9	22.6	0.00e+00	0	35	101	1048576	60	6822
2026-01-07 13:59:07.18	39.29	26.42	-42.1	-43.1	22.4	0.00e+00	0	35	101	1048576	60	6967
2026-01-07 13:59:08.19	39.45	26.56	-42.1	-43.2	22.5	0.00e+00	33	35	101	1048576	60	7014
2026-01-07 13:59:09.20	39.61	26.71	-41.9	-42.9	22.7	0.00e+00	0	35	101	1048576	60	6832
2026-01-07 13:59:10.21	39.77	26.86	-41.8	-42.8	22.8	0.00e+00	0	35	101	1048576	60	6708
2026-01-07 13:59:11.22	39.93	27.00	-41.7	-42.7	22.7	0.00e+00	92	35	101	1048576	60	6648
2026-01-07 13:59:12.23	40.09	27.15	-41.5	-42.5	22.9	0.00e+00	0	35	101	1048576	60	6498
2026-01-07 13:59:13.24	40.26	27.30	-41.8	-42.8	22.6	0.00e+00	92	35	101	1048576	60	6739
2026-01-07 13:59:14.26	40.43	27.45	-42.2	-43.2	22.2	0.00e+00	0	35	101	1048576	60	7061
2026-01-07 13:59:15.27	40.60	27.60	-42.4	-43.4	21.6	0.00e+00	0	35	101	1048576	60	7249
2026-01-07 13:59:16.28	40.77	27.75	-42.8	-43.9	21.9	0.00e+00	0	35	101	1048576	60	7640
2026-01-07 13:59:17.29	40.94	27.90	-42.4	-43.5	22.1	0.00e+00	0	35	101	1048576	60	7318
2026-01-07 13:59:18.30	41.11	28.05	-42.3	-43.4	22.2	0.00e+00	72	35	101	1048576	60	7200
2026-01-07 13:59:19.31	41.29	28.20	-42.0	-43.0	22.5	0.00e+00	0	35	101	1048576	60	6927
2026-01-07 13:59:20.32	41.47	28.35	-42.0	-43.1	22.5	0.00e+00	16	35	101	1048576	60	6930
2026-01-07 13:59:21.33	41.64	28.51	-41.9	-42.9	22.6	0.00e+00	0	35	101	1048576	60	6818
2026-01-07 13:59:22.34	41.82	28.66	-41.9	-42.9	22.7	0.00e+00	0	35	101	1048576	60	6797
2026-01-07 13:59:23.36	42.01	28.82	-41.8	-42.8	22.7	0.00e+00	0	35	101	1048576	60	6746
2026-01-07 13:59:24.37	42.19	28.97	-41.9	-42.9	22.7	0.00e+00	0	35	101	1048576	60	6776
2026-01-07 13:59:25.38	42.38	29.12	-41.8	-42.8	22.7	0.00e+00	70	35	101	1048576	60	6736
2026-01-07 13:59:26.39	42.56	29.28	-41.7	-42.7	22.8	0.00e+00	0	35	101	1048576	60	6636
2026-01-07 13:59:27.40	42.75	29.44	-41.7	-42.7	22.7	0.00e+00	68	35	101	1048576	60	6646
2026-01-07 13:59:28.41	42.94	29.59	-41.8	-42.8	22.7	0.00e+00	0	34	101	1048576	60	6699
2026-01-07 13:59:29.42	43.13	29.75	-41.9	-42.9	22.6	0.00e+00	0	35	101	1048576	60	6788
2026-01-07 13:59:30.43	43.33	29.91	-42.1	-43.1	22.5	0.00e+00	0	35	101	1048576	60	6939
2026-01-07 13:59:31.44	43.52	30.07	-42.1	-43.1	22.5	0.00e+00	0	35	101	1048576	60	6966
2026-01-07 13:59:32.45	43.72	30.22	-42.3	-43.3	22.2	0.00e+00	86	35	101	1048576	60	7152
2026-01-07 13:59:33.47	43.92	30.39	-42.3	-43.4	22.1	0.00e+00	0	35	101	1048576	60	7206
2026-01-07 13:59:34.48	44.12	30.54	-42.3	-43.4	22.2	0.00e+00	91	35	101	1048576	60	7187
2026-01-07 13:59:35.49	44.33	30.71	-42.6	-43.7	22.0	0.00e+00	0	35	101	1048576	60	7462
2026-01-07 13:59:36.50	44.53	30.87	-42.9	-44.0	21.6	0.00e+00	0	35	101	1048576	60	7762
2026-01-07 13:59:37.51	44.74	31.03	-42.8	-43.9	21.9	0.00e+00	0	35	101	1048576	60	7620
2026-01-07 13:59:38.52	44.95	31.19	-42.7	-43.8	22.0	0.00e+00	0	35	101	1048576	60	7519
2026-01-07 13:59:39.53	45.16	31.35	-42.7	-43.9	21.9	0.00e+00	90	35	101	1048576	60	7610
2026-01-07 13:59:40.54	45.38	31.51	-42.7	-43.8	21.9	0.00e+00	0	35	101	1048576	60	7588
2026-01-07 13:59:41.55	45.59	31.68	-42.5	-43.5	22.1	0.00e+00	88	35	101	1048576	60	7337
2026-01-07 13:59:42.56	45.81	31.84	-42.6	-43.7	22.1	0.00e+00	0	35	101	1048576	60	7473
2026-01-07 13:59:43.58	46.03	32.01	-42.1	-43.1	22.5	0.00e+00	0	35	101	1048576	60	6935
2026-01-07 13:59:44.59	46.26	32.17	-41.7	-42.6	22.8	0.00e+00	0	35	101	1048576	60	6602
2026-01-07 13:59:45.60	46.48	32.34	-41.5	-42.4	22.5	0.00e+00	0	35	101	1048576	60	6425
2026-01-07 13:59:46.61	46.71	32.50	-41.6	-42.6	22.8	0.00e+00	92	35	101	1048576	60	6541
2026-01-07 13:59:47.62	46.94	32.67	-41.6	-42.5	22.9	0.00e+00	0	35	101	1048576	60	6512
2026-01-07 13:59:48.63	47.17	32.83	-41.5	-42.5	22.9	0.00e+00	84	35	101	1048576	60	6478
2026-01-07 13:59:49.64	47.40	33.00	-41.9	-42.9	22.6	0.00e+00	0	35	101	1048576	60	6833
2026-01-07 13:59:50.65	47.64	33.17	-42.1	-43.1	22.4	0.00e+00	0	35	101	1048576	60	6984
2026-01-07 13:59:51.66	47.88	33.34	-42.2	-43.2	22.5	0.00e+00	0	35	101	1048576	60	7041
2026-01-07 13:59:52.67	48.12	33.50	-42.0	-43.0	22.6	0.00e+00	0	35	101	1048576	60	6880
2026-01-07 13:59:53.69	48.36	33.67	-42.5	-43.6	22.1	0.00e+00	64	35	101	1048576	60	7397
2026-01-07 13:59:54.70	48.61	33.84	-42.4	-43.5	22.2	0.00e+00	0	35	101	1048576	60	7309
2026-01-07 13:59:55.71	48.86	34.01	-42.2	-43.2	22.1	0.00e+00	92	35	101	1048576	60	7042
2026-01-07 13:59:56.72	49.11	34.18	-42.6	-43.7	22.1	0.00e+00	0	35	101	1048576	60	7453
2026-01-07 13:59:57.73	49.36	34.35	-42.5	-43.6	22.0	0.00e+00	0	35	101	1048576	60	7367
2026-01-07 13:59:58.74	49.62	34.52	-42.4	-43.5	22.1	0.00e+00	0	35	101	1048576	60	7277
2026-01-07 13:59:59.75	49.88	34.69	-42.2	-43.2	22.4	0.00e+00	0	35	101	1048576	60	7082
2026-01-07 14:00:00.76	50.14	34.86	-41.7	-42.7	22.8	0.00e+00	48	35	101	1048576	60	6635
2026-01-07 14:00:01.77	50.40	35.03	-41.5	-42.4	23.0	0.00e+00	0	35	101	1048576	60	6443
2026-01-07 14:00:02.78	50.67	35.20	-41.8	-42.7	22.8	0.00e+00	85	35	101	1048576	60	6674
2026-01-07 14:00:03.79	50.94	35.38	-41.3	-42.2	23.2	0.00e+00	0	35	101	1048576	60	6316
2026-01-07 14:00:04.81	51.22	35.55	-41.5	-42.4	23.1	0.00e+00	44	35	101	1048576	60	6423
2026-01-07 14:00:05.82	51.49	35.72	-41.5	-42.5	22.9	0.00e+00	0	35	101	1048576	60	6475
2026-01-07 14:00:06.83	51.77	35.89	-41.2	-42.2	23.2	0.00e+00	0	35	101	1048576	60	6256
2026-01-07 14:00:07.84	52.05	36.07	-41.7	-42.7	22.9	0.00e+00	0	35	101	1048576	60	6663
2026-01-07 14:00:08.85	52.34	36.24	-41.5	-42.4	22.9	0.00e+00	0	35	101	1048576	60	6451
2026-01-07 14:00:09.86	52.62	36.41	-41.1	-42.0	23.5	0.00e+00	92	35	101	1048576	60	6151
2026-01-07 14:00:10.87	52.91	36.58	-40.3	-41.1	24.0	0.00e+00	0	35	101	1048576	60	5536
2026-01-07 14:00:11.88	53.21	36.76	-40.1	-40.9	24.0	0.00e+00	79	35	101	1048576	58	6079
2026-01-07 14:00:12.89	53.50	36.93	-39.9	-40.7	24.4	0.00e+00	0	35	101	1048576	58	5935
2026-01-07 14:00:13.90	53.80	37.10	-40.5	-41.3	23.9	0.00e+00	0	35	101	1048576	58	6382
2026-01-07 14:00:14.91	54.10	37.27	-40.7	-41.6	23.6	0.00e+00	14	35	101	1048576	58	6545
2026-01-07 14:00:15.92	54.41	37.45	-40.7	-41.6	23.6	0.00e+00	0	35	101	1048576	58	6558
2026-01-07 14:00:16.93	54.72	37.62	-40.7	-41.6	23.5	0.00e+00	91	35	101	1048576	58	6611
2026-01-07 14:00:17.94	55.03	37.79	-41.1	-42.1	23.3	0.00e+00	0	35	101	1048576	58	6946
2026-01-07 14:00:18.95	55.35	37.97	-41.1	-42.0	23.2	0.00e+00	91	35	101	1048576	60	6149
2026-01-07 14:00:19.97	55.67	38.14	-41.5	-42.4	22.6	0.00e+00	0	35	101	1048576	60	6460
2026-01-07 14:00:20.98	55.99	38.31	-41.7	-42.6	22.9	0.00e+00	0	35	101	1048576	60	6607
2026-01-07 14:00:21.99	56.32	38.49	-41.8	-42.7	22.8	0.00e+00	0	35	101	1048576	60	6676
2026-01-07 14:00:23.00	56.65	38.66	-41.7	-42.7	23.0	0.00e+00	0	35	101	1048576	60	6641
2026-01-07 14:00:24.01	56.98	38.83	-41.4	-42.4	22.8	0.00e+00	0	35	101	1048576	60	6428
2026-01-07 14:00:25.02	57.31	39.01	-41.7	-42.7	22.9	0.00e+00	0	35	101	1048576	60	6637
2026-01-07 14:00:26.03	57.65	39.18	-41.5	-42.5	23.0	0.00e+00	64	35	101	1048576	60	6503
2026-01-07 14:00:27.04	58.00	39.35	-40.8	-41.7	23.6	0.00e+00	0	35	101	1048576	60	5915
2026-01-07 14:00:28.05	58.34	39.52	-40.4	-41.2	24.0	0.00e+00	0	35	101	1048576	60	5616
2026-01-07 14:00:29.07	58.70	39.69	-40.3	-41.2	24.0	0.00e+00	2	35	101	1048576	60	5595
2026-01-07 14:00:30.08	59.05	39.86	-41.1	-42.0	23.3	0.00e+00	0	35	101	1048576	60	6158
2026-01-07 14:00:31.09	59.41	40.03	-42.3	-43.3	22.3	0.00e+00	22	35	101	1048576	60	7169
2026-01-07 14:00:32.10	59.77	40.20	-42.7	-43.8	21.9	0.00e+00	0	35	101	1048576	60	7561
2026-01-07 14:00:33.11	60.14	40.37	-42.3	-43.4	22.3	0.00e+00	92	35	101	1048576	60	7183
2026-01-07 14:00:34.12	60.50	40.54	-42.0	-43.0	22.7	0.00e+00	0	35	101	1048576	60	6866
2026-01-07 14:00:35.13	60.88	40.71	-40.7	-41.6	23.8	0.00e+00	22	35	101	1048576	60	5844
2026-01-07 14:00:36.14	61.25	40.88	-40.6	-41.4	23.9	0.00e+00	0	35	101	1048576	60	5759
2026-01-07 14:00:37.15	61.63	41.05	-40.8	-41.8	23.3	0.00e+00	0	35	101	1048576	60	5981
2026-01-07 14:00:38.16	62.02	41.22	-41.0	-41.9	23.3	0.00e+00	65	35	101	1048576	60	6071
2026-01-07 14:00:39.18	62.41	41.38	-41.0	-42.0	23.5	0.00e+00	0	35	101	1048576	60	6105
2026-01-07 14:00:40.19	62.80	41.55	-40.5	-41.4	23.7	0.00e+00	87	35	101	1048576	60	5731
2026-01-07 14:00:41.20	63.20	41.71	-40.6	-41.5	23.7	0.00e+00	0	35	101	1048576	60	5800
2026-01-07 14:00:42.21	63.60	41.88	-41.1	-42.0	23.3	0.00e+00	46	35	101	1048576	60	6127
2026-01-07 14:00:43.22	64.00	42.04	-41.8	-42.8	22.8	0.00e+00	4	35	101	1048576	60	6707
2026-01-07 14:00:44.23	64.41	42.20	-41.6	-42.6	22.9	0.00e+00	0	35	101	1048576	60	6541
2026-01-07 14:00:45.24	64.83	42.36	-41.4	-42.3	23.1	0.00e+00	70	35	101	1048576	60	6377
2026-01-07 14:00:46.25	65.24	42.53	-41.4	-42.4	22.9	0.00e+00	0	35	101	1048576	60	6408
2026-01-07 14:00:47.26	65.66	42.69	-41.7	-42.6	22.8	0.00e+00	91	35	101	1048576	60	6613
2026-01-07 14:00:48.27	66.09	42.84	-41.8	-42.8	22.7	0.00e+00	0	35	101	1048576	60	6730
2026-01-07 14:00:49.29	66.52	43.00	-42.0	-43.1	22.5	0.00e+00	91	35	101	1048576	60	6931
2026-01-07 14:00:50.30	66.95	43.16	-42.6	-43.6	22.2	0.00e+00	0	35	101	1048576	60	7404
2026-01-07 14:00:51.31	67.39	43.31	-42.9	-44.0	21.5	0.00e+00	0	35	101	1048576	60	7727
2026-01-07 14:00:52.32	67.83	43.47	-43.0	-44.1	21.9	0.00e+00	1	35	101	1048576	60	7832
2026-01-07 14:00:53.33	68.28	43.62	-42.4	-43.4	22.2	0.00e+00	0	35	101	1048576	60	7241
2026-01-07 14:00:54.34	68.73	43.77	-41.8	-42.8	22.8	0.00e+00	4	35	101	1048576	60	6711
2026-01-07 14:00:55.35	69.18	43.92	-41.7	-42.7	22.9	0.00e+00	0	35	101	1048576	60	6638
2026-01-07 14:00:56.36	69.64	44.07	-42.5	-43.6	22.1	0.00e+00	51	35	101	1048576	60	7367
2026-01-07 14:00:57.37	70.11	44.22	-42.2	-43.2	22.5	0.00e+00	0	35	101	1048576	60	7032
2026-01-07 14:00:58.38	70.57	44.37	-42.2	-43.2	22.5	0.00e+00	0	35	101	1048576	60	7011
2026-01-07 14:00:59.39	71.04	44.51	-41.4	-42.3	23.2	0.00e+00	0	35	101	1048576	60	6344
2026-01-07 14:01:00.41	71.52	44.65	-41.6	-42.5	23.0	0.00e+00	0	35	101	1048576	60	6522
2026-01-07 14:01:01.42	72.00	44.79	-42.4	-43.4	22.2	0.00e+00	0	35	101	1048576	60	7233
2026-01-07 14:01:02.43	72.49	44.93	-42.9	-44.1	21.7	0.00e+00	0	35	101	1048576	60	7788
2026-01-07 14:01:03.44	72.98	45.07	-42.7	-43.7	21.9	0.00e+00	88	35	101	1048576	60	7498
2026-01-07 14:01:04.45	73.47	45.21	-42.0	-42.9	22.8	0.00e+00	0	35	101	1048576	60	6843
2026-01-07 14:01:05.46	73.97	45.34	-42.1	-43.1	22.5	0.00e+00	0	35	101	1048576	60	6993
2026-01-07 14:01:06.47	74.47	45.47	-43.2	-44.3	21.1	0.00e+00	0	35	101	1048576	60	8009
2026-01-07 14:01:07.48	74.97	45.60	-44.1	-45.4	20.4	0.00e+00	0	35	101	1048576	60	9071
2026-01-07 14:01:08.49	75.48	45.73	-44.2	-45.4	20.3	0.00e+00	0	35	101	1048576	60	9130
2026-01-07 14:01:09.50	75.99	45.86	-43.4	-44.6	21.2	0.00e+00	0	35	101	1048576	60	8301
2026-01-07 14:01:10.51	76.51	45.98	-43.5	-44.7	21.2	0.00e+00	50	35	101	1048576	60	8413
2026-01-07 14:01:11.53	77.04	46.11	-44.3	-45.7	20.3	0.00e+00	0	35	101	1048576	60	9388
2026-01-07 14:01:12.54	77.56	46.22	-45.4	-47.0	19.2	0.00e+00	0	35	101	1048576	60	10907
2026-01-07 14:01:13.55	78.09	46.34	-45.3	-46.9	19.2	0.00e+00	0	35	101	1048576	60	10756
2026-01-07 14:01:14.56	78.62	46.46	-43.6	-44.8	20.7	0.00e+00	0	35	101	1048576	60	8490
2026-01-07 14:01:15.57	79.16	46.57	-42.4	-43.4	22.2	0.00e+00	1	35	101	1048576	60	7214
2026-01-07 14:01:16.58	79.70	46.68	-43.3	-44.4	21.4	0.00e+00	0	35	101	1048576	60	8114
2026-01-07 14:01:17.59	80.25	46.79	-44.0	-45.3	20.6	0.00e+00	85	35	101	1048576	60	8947
2026-01-07 14:01:18.60	80.79	46.89	-44.3	-45.6	20.4	0.00e+00	0	35	101	1048576	60	9258
2026-01-07 14:01:19.61	81.35	47.00	-43.3	-44.4	21.4	0.00e+00	0	35	101	1048576	60	8116
2026-01-07 14:01:20.62	81.90	47.10	-43.3	-44.4	21.6	0.00e+00	0	35	101	1048576	60	8065
2026-01-07 14:01:21.63	82.46	47.19	-43.8	-45.1	20.8	0.00e+00	0	35	101	1048576	60	8736
2026-01-07 14:01:22.64	83.02	47.29	-44.7	-46.1	19.8	0.00e+00	73	35	101	1048576	60	9890
2026-01-07 14:01:23.66	83.59	47.38	-45.0	-46.5	19.2	0.00e+00	0	35	101	1048576	60	10319
2026-01-07 14:01:24.67	84.16	47.47	-44.8	-46.3	19.8	0.00e+00	88	35	101	1048576	60	10026
2026-01-07 14:01:25.68	84.74	47.56	-44.5	-45.9	20.1	0.00e+00	0	35	101	1048576	60	9575
2026-01-07 14:01:26.69	85.31	47.64	-44.7	-46.1	19.9	0.00e+00	77	35	101	1048576	60	9878
2026-01-07 14:01:27.70	85.89	47.72	-44.4	-45.7	20.1	0.00e+00	0	35	101	1048576	60	9437
2026-01-07 14:01:28.71	86.47	47.80	-43.5	-44.7	21.2	0.00e+00	0	35	101	1048576	60	8366
2026-01-07 14:01:29.72	87.05	47.87	-43.4	-44.5	21.5	0.00e+00	0	35	101	1048576	60	8185
2026-01-07 14:01:30.73	87.64	47.94	-43.3	-44.5	21.3	0.00e+00	0	35	101	1048576	60	8175
2026-01-07 14:01:31.74	88.23	48.01	-43.7	-44.9	20.8	0.00e+00	55	35	101	1048576	60	8586
2026-01-07 14:01:32.75	88.82	48.08	-44.7	-46.2	19.8	0.00e+00	0	35	101	1048576	60	9934
2026-01-07 14:01:33.77	89.42	48.14	-44.9	-46.3	19.5	0.00e+00	92	35	101	1048576	60	10103
2026-01-07 14:01:34.78	90.02	48.20	-44.4	-45.7	20.1	0.00e+00	0	35	101	1048576	60	9434
2026-01-07 14:01:35.79	90.62	48.26	-43.4	-44.6	21.2	0.00e+00	0	35	101	1048576	60	8321
2026-01-07 14:01:36.80	91.22	48.31	-43.6	-44.8	20.9	0.00e+00	0	35	101	1048576	60	8519
2026-01-07 14:01:37.81	91.82	48.36	-44.7	-46.3	19.8	0.00e+00	0	35	101	1048576	60	10015
2026-01-07 14:01:38.82	92.43	48.40	-44.4	-45.8	20.2	0.00e+00	92	35	101	1048576	60	9553
2026-01-07 14:01:39.83	93.04	48.45	-43.1	-44.2	21.5	0.00e+00	0	35	101	1048576	60	7930
2026-01-07 14:01:40.84	93.64	48.49	-42.7	-43.8	21.9	0.00e+00	92	35	101	1048576	60	7550
2026-01-07 14:01:41.85	94.25	48.52	-42.9	-44.1	21.6	0.00e+00	0	35	101	1048576	60	7834
2026-01-07 14:01:42.86	94.86	48.55	-43.2	-44.4	21.5	0.00e+00	0	35	101	1048576	60	8069
2026-01-07 14:01:43.87	95.48	48.58	-42.7	-43.8	21.9	0.00e+00	3	35	101	1048576	60	7535
2026-01-07 14:01:44.89	96.10	48.61	-42.3	-43.4	22.1	0.00e+00	0	35	101	1048576	60	7208
2026-01-07 14:01:45.90	96.71	48.63	-42.3	-43.5	22.1	0.00e+00	3	35	101	1048576	60	7258
2026-01-07 14:01:46.91	97.33	48.65	-42.8	-43.9	21.9	0.00e+00	0	35	101	1048576	60	7664
2026-01-07 14:01:47.92	97.94	48.66	-42.6	-43.8	22.1	0.00e+00	92	35	101	1048576	60	7521
2026-01-07 14:01:48.93	98.56	48.68	-41.7	-42.6	22.9	0.00e+00	0	35	101	1048576	60	6599
2026-01-07 14:01:49.94	99.18	48.68	-41.2	-42.2	23.3	0.00e+00	0	35	101	1048576	60	6248
2026-01-07 14:01:50.95	99.79	48.69	-40.7	-41.6	23.7	0.00e+00	0	35	101	1048576	60	5874
2026-01-07 14:01:51.96	100.41	48.69	-41.4	-42.3	23.0	0.00e+00	0	35	101	1048576	60	6381
2026-01-07 14:01:52.97	101.03	48.69	-41.7	-42.7	22.8	0.00e+00	0	35	101	1048576	60	6660
2026-01-07 14:01:53.98	101.64	48.68	-42.5	-43.5	22.1	0.00e+00	0	35	101	1048576	60	7330
2026-01-07 14:01:55.00	102.27	48.67	-43.7	-45.0	20.9	0.00e+00	47	35	101	1048576	60	8675
2026-01-07 14:01:56.00	102.88	48.66	-44.3	-45.7	20.4	0.00e+00	0	35	101	1048576	60	9361
2026-01-07 14:01:57.02	103.50	48.64	-43.3	-44.5	21.3	0.00e+00	0	35	101	1048576	60	8204
2026-01-07 14:01:58.03	104.11	48.62	-42.9	-44.1	21.5	0.00e+00	0	35	101	1048576	60	7777
2026-01-07 14:01:59.04	104.73	48.60	-43.5	-44.7	21.1	0.00e+00	0	35	101	1048576	60	8349
2026-01-07 14:02:00.05	105.34	48.57	-44.3	-45.6	20.1	0.00e+00	49	35	101	1048576	60	9329
2026-01-07 14:02:01.06	105.95	48.54	-45.5	-47.2	18.9	0.00e+00	0	35	101	1048576	60	11197
2026-01-07 14:02:02.07	106.57	48.51	-45.4	-47.0	19.3	0.00e+00	90	35	101	1048576	60	10939
2026-01-07 14:02:03.08	107.18	48.47	-42.8	-43.9	21.9	0.00e+00	0	35	101	1048576	60	7640
2026-01-07 14:02:04.09	107.78	48.43	-42.1	-43.1	22.6	0.00e+00	0	35	101	1048576	60	6973
2026-01-07 14:02:05.10	108.39	48.39	-42.0	-43.0	22.7	0.00e+00	0	35	101	1048576	60	6857
2026-01-07 14:02:06.11	108.99	48.34	-42.2	-43.2	22.5	0.00e+00	29	35	101	1048576	60	7078
2026-01-07 14:02:07.13	109.60	48.29	-41.5	-42.4	23.1	0.00e+00	0	35	101	1048576	60	6435
2026-01-07 14:02:08.14	110.20	48.23	-41.4	-42.3	23.2	0.00e+00	0	35	101	1048576	60	6351
2026-01-07 14:02:09.15	110.80	48.18	-42.4	-43.5	22.2	0.00e+00	92	35	101	1048576	60	7269
2026-01-07 14:02:10.16	111.40	48.12	-44.3	-45.7	20.5	0.00e+00	0	35	101	1048576	60	9379
2026-01-07 14:02:11.17	111.99	48.05	-44.6	-46.0	20.1	0.00e+00	12	35	101	1048576	60	9747
2026-01-07 14:02:12.18	112.58	47.99	-44.0	-45.3	20.2	0.00e+00	0	35	101	1048576	60	8940
2026-01-07 14:02:13.19	113.17	47.92	-44.9	-46.3	19.9	0.00e+00	0	35	101	1048576	60	10055
2026-01-07 14:02:14.20	113.76	47.84	-44.1	-45.3	20.7	0.00e+00	1	35	101	1048576	60	9016
2026-01-07 14:02:15.22	114.35	47.77	-43.6	-44.8	21.1	0.00e+00	0	35	101	1048576	60	8502
2026-01-07 14:02:16.22	114.92	47.69	-45.1	-46.5	19.1	0.00e+00	90	35	101	1048576	60	10351
2026-01-07 14:02:17.24	115.51	47.61	-46.6	-48.6	17.3	0.00e+00	0	35	101	1048576	60	13054
2026-01-07 14:02:18.25	116.08	47.52	-47.5	-50.0	16.3	0.00e+00	92	35	101	1048576	60	15334
2026-01-07 14:02:19.26	116.65	47.44	-46.5	-48.5	17.7	0.00e+00	0	35	101	1048576	60	12941
2026-01-07 14:02:20.27	117.22	47.34	-45.7	-47.3	18.7	0.00e+00	0	35	101	1048576	60	11348
2026-01-07 14:02:21.28	117.79	47.25	-45.6	-47.3	18.8	0.00e+00	3	35	101	1048576	60	11279
2026-01-07 14:02:22.29	118.35	47.16	-44.8	-46.3	19.8	0.00e+00	0	35	101	1048576	60	10045
2026-01-07 14:02:23.30	118.91	47.06	-43.5	-44.7	21.2	0.00e+00	35	35	101	1048576	60	8337
2026-01-07 14:02:24.31	119.46	46.96	-42.5	-43.6	21.9	0.00e+00	0	35	101	1048576	60	7379
2026-01-07 14:02:25.32	120.01	46.85	-42.5	-43.5	22.3	0.00e+00	92	35	101	1048576	60	7306
2026-01-07 14:02:26.33	120.56	46.74	-43.4	-44.7	21.2	0.00e+00	0	35	101	1048576	60	8334
2026-01-07 14:02:27.34	121.11	46.64	-44.5	-46.0	20.0	0.00e+00	0	35	101	1048576	60	9771
2026-01-07 14:02:28.36	121.65	46.52	-44.5	-46.0	20.1	0.00e+00	0	35	101	1048576	60	9684
2026-01-07 14:02:29.37	122.19	46.41	-43.3	-44.5	21.4	0.00e+00	0	35	101	1048576	60	8151
2026-01-07 14:02:30.38	122.72	46.29	-43.0	-44.1	22.0	0.00e+00	92	35	101	1048576	60	7825
2026-01-07 14:02:31.39	123.25	46.17	-42.7	-43.8	21.9	0.00e+00	0	35	101	1048576	60	7567
2026-01-07 14:02:32.40	123.77	46.05	-42.3	-43.4	22.3	0.00e+00	79	35	101	1048576	60	7191
2026-01-07 14:02:33.41	124.29	45.93	-41.9	-42.9	22.8	0.00e+00	0	35	101	1048576	60	6776
2026-01-07 14:02:34.42	124.81	45.81	-42.4	-43.4	22.2	0.00e+00	0	35	101	1048576	60	7249
2026-01-07 14:02:35.43	125.32	45.68	-42.2	-43.2	22.4	0.00e+00	0	35	101	1048576	60	7057
2026-01-07 14:02:36.44	125.83	45.55	-42.2	-43.2	22.5	0.00e+00	0	35	101	1048576	60	7084
2026-01-07 14:02:37.46	126.34	45.42	-42.7	-43.8	22.1	0.00e+00	78	35	101	1048576	60	7567
2026-01-07 14:02:38.47	126.84	45.28	-42.8	-43.9	21.8	0.00e+00	0	35	101	1048576	60	7668
2026-01-07 14:02:39.48	127.33	45.15	-43.0	-44.1	21.9	0.00e+00	87	35	101	1048576	60	7828
2026-01-07 14:02:40.49	127.83	45.01	-42.2	-43.2	22.4	0.00e+00	0	35	101	1048576	60	7063
2026-01-07 14:02:41.50	128.31	44.87	-42.0	-43.0	22.7	0.00e+00	0	35	101	1048576	60	6853
2026-01-07 14:02:42.51	128.80	44.73	-41.6	-42.6	23.1	0.00e+00	0	35	101	1048576	60	6574
2026-01-07 14:02:43.52	129.28	44.59	-40.7	-41.5	24.0	0.00e+00	0	35	101	1048576	60	5821
2026-01-07 14:02:44.53	129.75	44.45	-39.7	-40.5	24.4	0.00e+00	0	35	101	1048576	58	5827
2026-01-07 14:02:45.55	130.23	44.30	-39.4	-40.2	24.6	0.00e+00	0	35	101	1048576	58	5584
2026-01-07 14:02:46.56	130.69	44.15	-39.4	-40.1	24.6	0.00e+00	91	35	101	1048576	58	5566
2026-01-07 14:02:47.57	131.15	44.00	-39.4	-40.2	24.6	0.00e+00	0	35	101	1048576	58	5599
2026-01-07 14:02:48.58	131.61	43.85	-39.3	-40.1	24.8	0.00e+00	0	35	101	1048576	56	6195
2026-01-07 14:02:49.59	132.07	43.70	-40.0	-40.8	24.3	0.00e+00	0	35	101	1048576	56	6727
2026-01-07 14:02:50.60	132.51	43.55	-40.1	-41.0	24.2	0.00e+00	0	35	101	1048576	58	6146
2026-01-07 14:02:51.61	132.96	43.40	-40.0	-40.9	23.8	0.00e+00	65	35	101	1048576	58	6034
2026-01-07 14:02:52.62	133.40	43.24	-40.2	-41.0	24.1	0.00e+00	0	35	101	1048576	58	6172
2026-01-07 14:02:53.63	133.84	43.08	-39.8	-40.6	24.2	0.00e+00	90	35	101	1048576	58	5877
2026-01-07 14:02:54.64	134.27	42.93	-39.5	-40.3	24.6	0.00e+00	0	35	101	1048576	58	5665
2026-01-07 14:02:55.66	134.70	42.77	-39.1	-39.9	24.8	0.00e+00	5	35	101	1048576	56	6039
2026-01-07 14:02:56.67	135.13	42.61	-39.8	-40.6	24.6	0.00e+00	0	35	101	1048576	56	6596
2026-01-07 14:02:57.68	135.55	42.45	-40.0	-40.8	24.5	0.00e+00	0	35	101	1048576	56	6715
2026-01-07 14:02:58.69	135.96	42.29	-39.1	-39.9	25.0	0.00e+00	0	35	101	1048576	56	6069
2026-01-07 14:02:59.70	136.37	42.12	-38.2	-38.9	25.5	0.00e+00	0	35	101	1048576	56	5432
2026-01-07 14:03:00.71	136.78	41.96	-37.8	-38.5	25.7	0.00e+00	89	35	101	1048576	54	5768
2026-01-07 14:03:01.72	137.19	41.80	-37.3	-37.9	26.1	0.00e+00	0	35	101	1048576	54	5439
2026-01-07 14:03:02.73	137.58	41.63	-38.2	-38.9	25.5	0.00e+00	92	35	101	1048576	54	6060
2026-01-07 14:03:03.74	137.98	41.46	-38.3	-39.1	25.4	0.00e+00	0	35	101	1048576	54	6174
2026-01-07 14:03:04.75	138.37	41.30	-38.5	-39.3	25.3	0.00e+00	0	35	101	1048576	54	6334
2026-01-07 14:03:05.76	138.76	41.13	-38.9	-39.7	24.9	0.00e+00	0	35	101	1048576	54	6648
2026-01-07 14:03:06.78	139.15	40.96	-38.9	-39.7	25.0	0.00e+00	0	35	101	1048576	54	6639
2026-01-07 14:03:07.79	139.53	40.79	-38.8	-39.5	24.9	0.00e+00	91	35	101	1048576	54	6524
2026-01-07 14:03:08.79	139.90	40.63	-39.1	-39.9	24.8	0.00e+00	0	35	101	1048576	56	6040
2026-01-07 14:03:09.81	140.27	40.45	-39.9	-40.7	24.1	0.00e+00	92	35	101	1048576	56	6646
2026-01-07 14:03:10.82	140.64	40.28	-40.0	-40.9	24.0	0.00e+00	0	35	101	1048576	58	6040
2026-01-07 14:03:11.83	141.01	40.11	-40.6	-41.5	23.5	0.00e+00	0	35	101	1048576	58	6526
2026-01-07 14:03:12.84	141.37	39.94	-41.2	-42.1	23.4	0.00e+00	0	35	101	1048576	60	6204
2026-01-07 14:03:13.85	141.72	39.77	-41.6	-42.5	23.0	0.00e+00	0	35	101	1048576	60	6513
2026-01-07 14:03:14.86	142.08	39.60	-41.9	-42.8	22.7	0.00e+00	36	35	101	1048576	60	6763
2026-01-07 14:03:15.87	142.43	39.43	-42.0	-43.0	22.5	0.00e+00	0	35	101	1048576	60	6866
2026-01-07 14:03:16.88	142.77	39.26	-41.3	-42.2	23.2	0.00e+00	90	35	101	1048576	60	6287
2026-01-07 14:03:17.89	143.12	39.08	-41.4	-42.4	23.2	0.00e+00	0	35	101	1048576	60	6404
2026-01-07 14:03:18.90	143.45	38.91	-42.8	-43.9	21.7	0.00e+00	0	35	101	1048576	60	7652
2026-01-07 14:03:19.92	143.79	38.73	-43.6	-44.8	21.1	0.00e+00	0	35	101	1048576	60	8471
2026-01-07 14:03:20.93	144.12	38.56	-44.1	-45.4	20.5	0.00e+00	32	35	101	1048576	60	9127
2026-01-07 14:03:21.94	144.45	38.39	-43.9	-45.2	20.8	0.00e+00	92	35	101	1048576	60	8842
2026-01-07 14:03:22.95	144.78	38.21	-44.1	-45.4	20.5	0.00e+00	0	35	101	1048576	60	9077
2026-01-07 14:03:23.96	145.10	38.04	-44.0	-45.3	20.6	0.00e+00	85	35	101	1048576	60	8963
2026-01-07 14:03:24.97	145.42	37.87	-43.5	-44.7	21.0	0.00e+00	0	35	101	1048576	60	8347
2026-01-07 14:03:25.98	145.73	37.69	-43.3	-44.4	21.4	0.00e+00	0	35	101	1048576	60	8084
2026-01-07 14:03:26.99	146.04	37.52	-43.1	-44.2	21.6	0.00e+00	0	35	101	1048576	60	7927
2026-01-07 14:03:28.00	146.35	37.35	-43.7	-44.9	21.1	0.00e+00	0	35	101	1048576	60	8600
2026-01-07 14:03:29.01	146.66	37.17	-44.3	-45.6	20.4	0.00e+00	0	35	101	1048576	60	9300
2026-01-07 14:03:30.02	146.96	37.00	-44.0	-45.3	20.7	0.00e+00	0	35	101	1048576	60	8942
2026-01-07 14:03:31.03	147.26	36.82	-43.6	-44.8	21.0	0.00e+00	58	35	101	1048576	60	8468
2026-01-07 14:03:32.04	147.55	36.65	-43.2	-44.3	21.5	0.00e+00	0	35	101	1048576	60	8042
2026-01-07 14:03:33.06	147.85	36.47	-43.0	-44.1	21.7	0.00e+00	0	35	101	1048576	60	7807
2026-01-07 14:03:34.07	148.14	36.30	-43.7	-44.9	20.9	0.00e+00	0	35	101	1048576	60	8545
2026-01-07 14:03:35.08	148.42	36.13	-44.6	-46.0	20.0	0.00e+00	0	35	101	1048576	60	9714
2026-01-07 14:03:36.09	148.71	35.95	-45.3	-46.9	18.9	0.00e+00	52	35	101	1048576	60	10795
2026-01-07 14:03:37.10	148.99	35.78	-46.5	-48.5	17.3	0.00e+00	33	35	101	1048576	60	12959
2026-01-07 14:03:38.11	149.27	35.61	-47.3	-49.7	16.8	0.00e+00	90	35	101	1048576	60	14899
2026-01-07 14:03:39.12	149.54	35.44	-46.7	-48.8	17.9	0.00e+00	0	35	101	1048576	60	13354
2026-01-07 14:03:40.13	149.81	35.26	-44.4	-45.8	20.3	0.00e+00	51	35	101	1048576	60	9544
2026-01-07 14:03:41.14	150.08	35.09	-42.9	-44.1	21.9	0.00e+00	0	35	101	1048576	60	7811
2026-01-07 14:03:42.15	150.35	34.92	-41.4	-42.4	23.1	0.00e+00	0	35	101	1048576	60	6403
2026-01-07 14:03:43.16	150.61	34.75	-41.0	-41.9	23.4	0.00e+00	0	35	101	1048576	60	6055
2026-01-07 14:03:44.18	150.87	34.58	-41.2	-42.1	23.3	0.00e+00	33	35	101	1048576	60	6228
2026-01-07 14:03:45.19	151.13	34.40	-42.6	-43.7	22.0	0.00e+00	84	35	101	1048576	60	7432
2026-01-07 14:03:46.20	151.39	34.23	-43.8	-45.1	20.8	0.00e+00	0	35	101	1048576	60	8805
2026-01-07 14:03:47.21	151.64	34.06	-44.9	-46.4	19.8	0.00e+00	90	35	101	1048576	60	10153
2026-01-07 14:03:48.22	151.89	33.89	-44.5	-45.9	20.1	0.00e+00	0	35	101	1048576	60	9665
2026-01-07 14:03:49.23	152.14	33.72	-43.3	-44.5	21.4	0.00e+00	0	35	101	1048576	60	8153
2026-01-07 14:03:50.24	152.38	33.55	-43.0	-44.2	21.5	0.00e+00	9	35	101	1048576	60	7869
2026-01-07 14:03:51.25	152.63	33.39	-43.1	-44.3	21.7	0.00e+00	0	35	101	1048576	60	7970
2026-01-07 14:03:52.26	152.87	33.22	-43.1	-44.3	21.7	0.00e+00	84	35	101	1048576	60	7955
2026-01-07 14:03:53.27	153.11	33.05	-43.0	-44.0	21.7	0.00e+00	0	35	101	1048576	60	7772
2026-01-07 14:03:54.28	153.34	32.88	-43.4	-44.6	21.3	0.00e+00	84	35	101	1048576	60	8325
2026-01-07 14:03:55.29	153.57	32.71	-43.4	-44.6	21.3	0.00e+00	0	35	101	1048576	60	8280
2026-01-07 14:03:56.30	153.81	32.55	-42.9	-44.1	21.7	0.00e+00	0	35	101	1048576	60	7785
2026-01-07 14:03:57.31	154.03	32.38	-42.6	-43.7	22.0	0.00e+00	0	35	101	1048576	60	7455
2026-01-07 14:03:58.33	154.26	32.21	-42.0	-43.1	22.6	0.00e+00	0	35	101	1048576	60	6928
2026-01-07 14:03:59.34	154.49	32.05	-42.0	-42.9	22.7	0.00e+00	91	35	101	1048576	60	6847
2026-01-07 14:04:00.35	154.71	31.88	-41.5	-42.5	23.0	0.00e+00	0	35	101	1048576	60	6472
2026-01-07 14:04:01.36	154.93	31.72	-41.8	-42.8	22.7	0.00e+00	92	35	101	1048576	60	6743
2026-01-07 14:04:02.37	155.15	31.55	-41.8	-42.8	22.4	0.00e+00	0	35	101	1048576	60	6708
2026-01-07 14:04:03.38	155.36	31.39	-42.4	-43.5	22.0	0.00e+00	0	35	101	1048576	60	7266
2026-01-07 14:04:04.39	155.57	31.22	-43.0	-44.1	21.6	0.00e+00	0	35	101	1048576	60	7852
2026-01-07 14:04:05.40	155.79	31.06	-44.0	-45.4	20.4	0.00e+00	0	35	101	1048576	60	9064
2026-01-07 14:04:06.41	155.99	30.90	-44.0	-45.3	20.5	0.00e+00	85	35	101	1048576	60	8996
2026-01-07 14:04:07.42	156.20	30.74	-43.1	-44.3	21.6	0.00e+00	0	35	101	1048576	60	8007
2026-01-07 14:04:08.43	156.41	30.58	-42.5	-43.7	21.9	0.00e+00	85	35	101	1048576	60	7438
2026-01-07 14:04:09.45	156.61	30.41	-42.1	-43.1	22.5	0.00e+00	33	35	101	1048576	60	6962
2026-01-07 14:04:10.46	156.81	30.25	-41.6	-42.5	22.9	0.00e+00	0	35	101	1048576	60	6517
2026-01-07 14:04:11.47	157.01	30.09	-41.7	-42.7	22.8	0.00e+00	0	35	101	1048576	60	6648
2026-01-07 14:04:12.48	157.21	29.94	-42.1	-43.1	22.5	0.00e+00	0	35	101	1048576	60	6957
2026-01-07 14:04:13.49	157.40	29.78	-42.1	-43.1	22.5	0.00e+00	0	35	101	1048576	60	6957
2026-01-07 14:04:14.50	157.60	29.62	-42.2	-43.2	22.4	0.00e+00	0	35	101	1048576	60	7054
2026-01-07 14:04:15.51	157.79	29.46	-42.3	-43.4	22.3	0.00e+00	71	35	101	1048576	60	7208
2026-01-07 14:04:16.52	157.98	29.30	-41.9	-42.9	22.5	0.00e+00	0	35	101	1048576	60	6827
2026-01-07 14:04:17.53	158.17	29.15	-41.9	-42.9	22.7	0.00e+00	0	35	101	1048576	60	6839
2026-01-07 14:04:18.54	158.35	28.99	-41.6	-42.6	22.9	0.00e+00	0	35	101	1048576	60	6575
2026-01-07 14:04:19.55	158.54	28.84	-41.9	-42.9	22.6	0.00e+00	0	35	101	1048576	60	6790
2026-01-07 14:04:20.56	158.72	28.68	-42.0	-43.0	22.5	0.00e+00	65	35	101	1048576	60	6879
2026-01-07 14:04:21.57	158.90	28.53	-41.7	-42.7	22.8	0.00e+00	0	35	101	1048576	60	6633
2026-01-07 14:04:22.58	159.08	28.37	-41.6	-42.5	22.8	0.00e+00	92	35	101	1048576	60	6512
2026-01-07 14:04:23.59	159.26	28.22	-41.4	-42.3	22.9	0.00e+00	0	35	101	1048576	60	6371
2026-01-07 14:04:24.61	159.44	28.06	-41.4	-42.3	23.1	0.00e+00	39	35	101	1048576	60	6357
2026-01-07 14:04:25.62	159.61	27.91	-40.9	-41.9	23.4	0.00e+00	0	35	101	1048576	60	6037
2026-01-07 14:04:26.63	159.78	27.76	-40.6	-41.5	23.6	0.00e+00	0	35	101	1048576	60	5793
2026-01-07 14:04:27.64	159.95	27.61	-40.5	-41.3	23.9	0.00e+00	49	35	101	1048576	60	5673
2026-01-07 14:04:28.65	160.12	27.46	-40.3	-41.1	23.9	0.00e+00	0	35	101	1048576	60	5554
2026-01-07 14:04:29.66	160.29	27.31	-40.5	-41.4	23.7	0.00e+00	92	35	101	1048576	60	5750
2026-01-07 14:04:30.67	160.46	27.16	-40.3	-41.1	23.9	0.00e+00	0	35	101	1048576	60	5549
2026-01-07 14:04:31.68	160.62	27.01	-40.7	-41.6	23.6	0.00e+00	90	35	101	1048576	60	5869
2026-01-07 14:04:32.69	160.79	26.86	-40.8	-41.7	23.6	0.00e+00	0	35	101	1048576	60	5900
2026-01-07 14:04:33.70	160.95	26.72	-40.8	-41.7	23.5	0.00e+00	0	35	101	1048576	60	5928
2026-01-07 14:04:34.71	161.11	26.57	-40.9	-41.8	23.4	0.00e+00	49	35	101	1048576	60	6006
2026-01-07 14:04:35.73	161.27	26.42	-41.1	-42.0	23.3	0.00e+00	0	35	101	1048576	60	6128
2026-01-07 14:04:36.74	161.43	26.28	-41.0	-41.9	23.4	0.00e+00	84	35	101	1048576	60	6071
2026-01-07 14:04:37.75	161.58	26.13	-41.0	-41.9	23.4	0.00e+00	0	35	101	1048576	60	6048
2026-01-07 14:04:38.76	161.74	25.99	-40.5	-41.4	23.7	0.00e+00	81	35	101	1048576	60	5730
2026-01-07 14:04:39.77	161.89	25.84	-40.7	-41.5	23.7	0.00e+00	33	35	101	1048576	60	5827
2026-01-07 14:04:40.78	162.05	25.70	-40.6	-41.4	23.7	0.00e+00	0	35	101	1048576	60	5752
2026-01-07 14:04:41.79	162.20	25.55	-40.5	-41.3	23.8	0.00e+00	0	35	101	1048576	60	5676
2026-01-07 14:04:42.80	162.35	25.41	-40.7	-41.6	23.6	0.00e+00	0	35	101	1048576	60	5863
2026-01-07 14:04:43.81	162.49	25.27	-41.0	-42.0	23.4	0.00e+00	1	35	101	1048576	60	6108
2026-01-07 14:04:44.83	162.64	25.13	-41.0	-42.0	23.3	0.00e+00	0	35	101	1048576	60	6119
2026-01-07 14:04:45.84	162.79	24.99	-41.6	-42.6	22.7	0.00e+00	73	35	101	1048576	60	6596
2026-01-07 14:04:46.85	162.93	24.85	-41.2	-42.1	23.1	0.00e+00	0	35	101	1048576	60	6221
2026-01-07 14:04:47.86	163.08	24.71	-41.4	-42.4	23.0	0.00e+00	0	35	101	1048576	60	6424
2026-01-07 14:04:48.87	163.22	24.57	-41.2	-42.1	23.3	0.00e+00	0	35	101	1048576	60	6206
2026-01-07 14:04:49.88	163.36	24.43	-41.0	-41.9	23.3	0.00e+00	0	35	101	1048576	60	6060
2026-01-07 14:04:50.89	163.50	24.29	-41.0	-41.9	23.3	0.00e+00	0	35	101	1048576	60	6063
2026-01-07 14:04:51.90	163.64	24.15	-40.5	-41.3	23.8	0.00e+00	0	35	101	1048576	60	5690
2026-01-07 14:04:52.91	163.78	24.02	-40.4	-41.2	23.9	0.00e+00	88	35	101	1048576	60	5607
2026-01-07 14:04:53.93	163.91	23.88	-40.4	-41.3	23.9	0.00e+00	0	35	101	1048576	60	5639
2026-01-07 14:04:54.94	164.05	23.74	-40.7	-41.6	23.5	0.00e+00	0	35	101	1048576	60	5831
2026-01-07 14:04:55.95	164.18	23.61	-40.9	-41.8	23.3	0.00e+00	0	35	101	1048576	60	6025
2026-01-07 14:04:56.96	164.31	23.47	-41.1	-42.0	23.2	0.00e+00	0	35	101	1048576	60	6155
2026-01-07 14:04:57.97	164.45	23.34	-41.5	-42.5	22.8	0.00e+00	89	35	101	1048576	60	6506
2026-01-07 14:04:58.98	164.58	23.21	-41.5	-42.4	23.0	0.00e+00	0	35	101	1048576	60	6423
2026-01-07 14:04:59.99	164.71	23.07	-41.7	-42.7	22.7	0.00e+00	87	35	101	1048576	60	6683
2026-01-07 14:05:01.01	164.84	22.94	-41.5	-42.5	22.9	0.00e+00	0	35	101	1048576	60	6487
2026-01-07 14:05:02.02	164.96	22.81	-41.7	-42.7	22.6	0.00e+00	0	35	101	1048576	60	6668
2026-01-07 14:05:03.03	165.09	22.67	-42.0	-43.0	22.3	0.00e+00	0	35	101	1048576	60	6908
2026-01-07 14:05:04.04	165.22	22.54	-41.6	-42.6	22.6	0.00e+00	0	35	101	1048576	60	6591
2026-01-07 14:05:05.05	165.34	22.41	-41.8	-42.8	22.6	0.00e+00	56	35	101	1048576	60	6703
2026-01-07 14:05:06.06	165.46	22.28	-41.5	-42.5	22.8	0.00e+00	0	35	101	1048576	60	6513
2026-01-07 14:05:07.07	165.59	22.15	-41.0	-42.0	23.2	0.00e+00	53	35	101	1048576	60	6110
2026-01-07 14:05:08.08	165.71	22.03	-40.9	-41.9	23.4	0.00e+00	0	35	101	1048576	60	6050
2026-01-07 14:05:09.09	165.83	21.90	-40.8	-41.7	23.4	0.00e+00	39	35	101	1048576	60	5950
2026-01-07 14:05:10.10	165.95	21.77	-40.7	-41.6	23.5	0.00e+00	0	35	101	1048576	60	5875
2026-01-07 14:05:11.11	166.07	21.64	-40.4	-41.3	23.7	0.00e+00	33	35	101	1048576	60	5668
2026-01-07 14:05:12.12	166.18	21.52	-40.1	-41.0	23.9	0.00e+00	0	35	101	1048576	58	6135
2026-01-07 14:05:13.13	166.30	21.39	-40.4	-41.3	23.8	0.00e+00	0	35	101	1048576	58	6321
2026-01-07 14:05:14.14	166.42	21.26	-40.4	-41.3	23.8	0.00e+00	83	35	101	1048576	58	6379
2026-01-07 14:05:15.16	166.53	21.14	-40.6	-41.5	23.5	0.00e+00	0	35	101	1048576	58	6510
2026-01-07 14:05:16.17	166.65	21.01	-41.0	-42.0	23.1	0.00e+00	89	35	101	1048576	58	6855
2026-01-07 14:05:17.18	166.76	20.89	-41.5	-42.4	22.9	0.00e+00	0	35	101	1048576	60	6458
2026-01-07 14:05:18.19	166.87	20.76	-41.8	-42.8	22.5	0.00e+00	33	35	101	1048576	60	6761
2026-01-07 14:05:19.20	166.98	20.64	-42.3	-43.4	22.0	0.00e+00	65	35	101	1048576	60	7216
2026-01-07 14:05:20.21	167.09	20.52	-42.4	-43.5	21.9	0.00e+00	0	35	101	1048576	60	7263
2026-01-07 14:05:21.22	167.20	20.40	-42.6	-43.8	21.7	0.00e+00	85	35	101	1048576	60	7547
2026-01-07 14:05:22.23	167.31	20.28	-42.6	-43.7	21.8	0.00e+00	0	35	101	1048576	60	7499
2026-01-07 14:05:23.24	167.42	20.15	-42.7	-43.8	21.7	0.00e+00	92	35	101	1048576	60	7564
2026-01-07 14:05:24.26	167.53	20.03	-42.5	-43.6	22.0	0.00e+00	0	35	101	1048576	60	7408
2026-01-07 14:05:25.27	167.63	19.91	-42.2	-43.3	22.1	0.00e+00	0	35	101	1048576	60	7101
2026-01-07 14:05:26.28	167.74	19.79	-42.1	-43.2	22.2	0.00e+00	0	35	101	1048576	60	7054
2026-01-07 14:05:27.29	167.84	19.67	-42.0	-43.0	22.3	0.00e+00	0	35	101	1048576	60	6888
2026-01-07 14:05:28.30	167.95	19.55	-41.4	-42.4	23.0	0.00e+00	85	35	101	1048576	60	6400
2026-01-07 14:05:29.31	168.05	19.44	-41.1	-42.1	23.1	0.00e+00	0	35	101	1048576	60	6208
2026-01-07 14:05:30.32	168.15	19.32	-40.7	-41.6	23.4	0.00e+00	57	35	101	1048576	60	5893
2026-01-07 14:05:31.33	168.26	19.20	-40.7	-41.6	23.5	0.00e+00	0	35	101	1048576	60	5844
2026-01-07 14:05:32.34	168.36	19.08	-40.6	-41.5	23.6	0.00e+00	0	35	101	1048576	60	5813
2026-01-07 14:05:33.35	168.46	18.97	-40.3	-41.2	23.8	0.00e+00	0	35	101	1048576	60	5601
2026-01-07 14:05:34.36	168.56	18.85	-40.5	-41.4	23.6	0.00e+00	0	35	101	1048576	60	5735
2026-01-07 14:05:35.38	168.66	18.74	-40.7	-41.6	23.3	0.00e+00	0	35	101	1048576	60	5848
2026-01-07 14:05:36.39	168.75	18.62	-40.7	-41.5	23.4	0.00e+00	0	35	101	1048576	60	5828
2026-01-07 14:05:37.40	168.85	18.51	-40.9	-41.8	23.3	0.00e+00	88	35	101	1048576	60	6004
2026-01-07 14:05:38.41	168.95	18.39	-40.9	-41.8	23.2	0.00e+00	0	35	101	1048576	60	5990
2026-01-07 14:05:39.42	169.04	18.28	-41.2	-42.1	23.1	0.00e+00	0	35	101	1048576	60	6227
2026-01-07 14:05:40.43	169.14	18.17	-41.1	-42.0	23.1	0.00e+00	0	35	101	1048576	60	6137
2026-01-07 14:05:41.44	169.23	18.05	-41.1	-42.1	23.1	0.00e+00	0	35	101	1048576	60	6176
2026-01-07 14:05:42.45	169.33	17.94	-41.3	-42.3	22.8	0.00e+00	8	35	101	1048576	60	6336
2026-01-07 14:05:43.46	169.42	17.83	-41.4	-42.4	23.0	0.00e+00	0	35	101	1048576	60	6407
2026-01-07 14:05:44.47	169.51	17.72	-41.1	-42.1	23.1	0.00e+00	76	35	101	1048576	60	6209
2026-01-07 14:05:45.48	169.61	17.61	-41.1	-42.1	23.1	0.00e+00	0	35	101	1048576	60	6176
2026-01-07 14:05:46.49	169.70	17.50	-41.1	-42.0	23.1	0.00e+00	46	35	101	1048576	60	6146
2026-01-07 14:05:47.51	169.79	17.38	-41.0	-41.9	23.3	0.00e+00	0	35	101	1048576	60	6061
2026-01-07 14:05:48.52	169.88	17.27	-40.9	-41.8	23.3	0.00e+00	0	35	101	1048576	60	5997
