passes_logs/2026/01/07/R4.6S_Anadyr_2ch/R4.6S_Anadyr_2ch__20260107_173517_NOAA_20_JPSS-1_rec.log

#Pass ID: 20260107_173517_NOAA 20 (JPSS-1)
#Satellite: NOAA 20 (JPSS-1)
#Configuration: NOAA 20
#almurnet v.1.7.20251203
#Start time: 2026-01-07 17:35:19

#Version: 2.2.20231116
#Station: R4.6S_Anadyr_2ch
#Location: 177.4865 lon 64.73178 lat
#TLE: 1 43013U 17073A   25350.93759711  .00000080  00000+0  58734-4 0  9994
#TLE: 2 43013  98.7603 287.1885 0002156  81.1496 278.9924 14.19526878418610

#Time	Az	El	Level	Level2	SNR	BER	BlckErr	Temp	State	Recorded	gain1	gain2
2026-01-07 17:35:19.65	32.95	0.12	-50.4	-65.5	3.5	1.51e+00	0	33	0	0	60	91559
2026-01-07 17:35:20.66	32.89	0.18	-51.6	-67.0	3.6	1.51e+00	0	34	104	0	60	109028
2026-01-07 17:35:21.67	32.83	0.23	-51.7	-67.0	3.6	1.51e+00	0	34	104	0	60	109499
2026-01-07 17:35:22.68	32.76	0.28	-51.8	-67.2	3.6	1.51e+00	0	34	104	0	60	111265
2026-01-07 17:35:23.69	32.70	0.34	-51.9	-67.2	3.6	1.51e+00	0	34	104	0	60	112029
2026-01-07 17:35:24.70	32.64	0.39	-51.9	-67.2	3.6	1.51e+00	0	34	104	0	60	112265
2026-01-07 17:35:25.71	32.58	0.44	-51.9	-67.3	3.6	1.51e+00	0	34	104	0	60	112630
2026-01-07 17:35:26.72	32.51	0.50	-51.9	-67.3	3.6	1.51e+00	0	34	104	0	60	112408
2026-01-07 17:35:27.73	32.45	0.55	-51.9	-67.2	3.6	1.51e+00	0	34	104	0	60	112048
2026-01-07 17:35:28.74	32.39	0.60	-51.9	-67.3	3.6	1.51e+00	0	34	104	0	60	112832
2026-01-07 17:35:29.75	32.32	0.66	-52.0	-67.4	3.6	1.51e+00	0	34	104	0	60	113847
2026-01-07 17:35:30.76	32.26	0.71	-51.9	-67.3	3.6	1.51e+00	0	34	104	0	60	113438
2026-01-07 17:35:31.77	32.19	0.77	-52.0	-67.4	3.6	1.51e+00	0	34	104	0	60	114450
2026-01-07 17:35:32.78	32.13	0.82	-52.0	-67.4	3.6	1.51e+00	0	34	104	0	60	114070
2026-01-07 17:35:33.79	32.06	0.87	-52.0	-67.4	3.6	1.51e+00	0	34	104	0	60	114069
2026-01-07 17:35:34.80	32.00	0.93	-51.9	-67.4	3.6	1.51e+00	0	34	104	0	60	114293
2026-01-07 17:35:35.82	31.93	0.98	-51.9	-67.4	3.6	1.51e+00	0	34	104	0	60	113677
2026-01-07 17:35:36.83	31.87	1.04	-52.0	-67.4	3.6	1.51e+00	0	34	104	0	60	113935
2026-01-07 17:35:37.84	31.80	1.09	-52.0	-67.4	3.6	1.51e+00	0	34	104	0	60	114099
2026-01-07 17:35:38.85	31.74	1.14	-52.0	-67.4	3.6	1.51e+00	0	34	104	0	60	114226
2026-01-07 17:35:39.86	31.67	1.20	-52.0	-67.4	3.6	1.51e+00	0	34	104	0	60	114035
2026-01-07 17:35:40.87	31.60	1.25	-52.0	-67.4	3.6	1.51e+00	0	34	104	0	60	114112
2026-01-07 17:35:41.88	31.54	1.31	-52.0	-67.3	3.6	1.51e+00	0	34	104	0	60	113161
2026-01-07 17:35:42.89	31.47	1.36	-52.0	-67.4	3.6	1.51e+00	0	34	104	0	60	114121
2026-01-07 17:35:43.91	31.40	1.42	-52.0	-67.4	3.6	1.51e+00	0	34	104	0	60	113794
2026-01-07 17:35:44.92	31.33	1.47	-52.0	-67.3	3.6	1.51e+00	0	34	104	0	60	113625
2026-01-07 17:35:45.93	31.26	1.53	-52.0	-67.4	3.6	1.51e+00	0	34	104	0	60	114393
2026-01-07 17:35:46.94	31.20	1.58	-52.0	-67.4	3.6	1.51e+00	0	34	104	0	60	113707
2026-01-07 17:35:47.95	31.13	1.64	-52.0	-67.4	3.6	1.51e+00	0	34	104	0	60	113925
2026-01-07 17:35:48.96	31.06	1.69	-52.0	-67.3	3.6	1.51e+00	0	34	104	0	60	113594
2026-01-07 17:35:49.97	30.99	1.75	-52.0	-67.4	3.6	1.51e+00	0	34	104	0	60	114213
2026-01-07 17:35:50.98	30.92	1.80	-52.0	-67.4	3.6	1.51e+00	0	34	104	0	60	113763
2026-01-07 17:35:51.99	30.85	1.86	-52.0	-67.4	3.6	1.51e+00	0	34	104	0	60	113885
2026-01-07 17:35:53.00	30.78	1.91	-52.0	-67.4	3.6	1.51e+00	0	34	104	0	60	114774
2026-01-07 17:35:54.01	30.71	1.97	-52.0	-67.3	3.6	1.51e+00	0	34	104	0	60	113618
2026-01-07 17:35:55.03	30.64	2.02	-52.0	-67.3	3.6	1.51e+00	0	34	104	0	60	113022
2026-01-07 17:35:56.04	30.57	2.08	-52.0	-67.3	3.6	1.51e+00	0	34	104	0	60	113515
2026-01-07 17:35:57.05	30.50	2.14	-52.0	-67.3	3.6	1.51e+00	0	34	104	0	60	113548
2026-01-07 17:35:58.06	30.43	2.19	-52.0	-67.4	3.6	1.51e+00	0	34	104	0	60	113784
2026-01-07 17:35:59.07	30.36	2.25	-52.0	-67.3	3.6	1.51e+00	0	35	104	0	60	112861
2026-01-07 17:36:00.08	30.28	2.30	-52.0	-67.4	3.6	1.51e+00	0	35	104	0	60	113781
2026-01-07 17:36:01.09	30.21	2.36	-52.0	-67.4	3.6	1.51e+00	0	35	104	0	60	113980
2026-01-07 17:36:02.10	30.14	2.41	-52.0	-67.4	3.6	1.51e+00	0	34	104	0	60	113958
2026-01-07 17:36:03.11	30.07	2.47	-52.0	-67.4	3.6	1.51e+00	0	34	104	0	60	113692
2026-01-07 17:36:04.12	29.99	2.53	-52.0	-67.4	3.6	1.51e+00	0	34	104	0	60	113675
2026-01-07 17:36:05.13	29.92	2.58	-52.0	-67.4	3.6	1.51e+00	0	34	104	0	60	113711
2026-01-07 17:36:06.14	29.85	2.64	-52.0	-67.4	3.6	1.51e+00	0	35	104	0	60	113830
2026-01-07 17:36:07.16	29.77	2.70	-52.0	-67.4	3.6	1.51e+00	0	34	104	0	60	113852
2026-01-07 17:36:08.17	29.70	2.75	-52.0	-67.3	3.6	1.51e+00	0	35	104	0	60	113124
2026-01-07 17:36:09.18	29.62	2.81	-52.0	-67.4	3.6	1.51e+00	0	35	104	0	60	114000
2026-01-07 17:36:10.19	29.55	2.86	-52.0	-67.4	3.6	1.51e+00	0	35	104	0	60	113983
2026-01-07 17:36:11.20	29.47	2.92	-52.0	-67.4	3.6	1.51e+00	0	35	104	0	60	113973
2026-01-07 17:36:12.21	29.40	2.98	-52.0	-67.3	3.6	1.51e+00	0	34	104	0	60	112948
2026-01-07 17:36:13.22	29.32	3.03	-52.0	-67.3	3.6	1.51e+00	0	35	104	0	60	113599
2026-01-07 17:36:14.23	29.25	3.09	-52.0	-67.3	3.6	1.51e+00	0	35	104	0	60	113449
2026-01-07 17:36:15.24	29.17	3.15	-52.0	-67.4	3.6	1.51e+00	0	35	104	0	60	113746
2026-01-07 17:36:16.25	29.09	3.20	-52.0	-67.4	3.6	1.51e+00	0	35	104	0	60	114243
2026-01-07 17:36:17.26	29.02	3.26	-52.0	-67.4	3.6	1.51e+00	0	35	104	0	60	113893
2026-01-07 17:36:18.27	28.94	3.32	-52.0	-67.3	3.6	1.51e+00	0	35	104	0	60	113528
2026-01-07 17:36:19.28	28.86	3.38	-52.0	-67.4	3.6	1.51e+00	0	35	104	0	60	113831
2026-01-07 17:36:20.29	28.78	3.43	-52.0	-67.4	3.6	1.51e+00	0	35	104	0	60	113840
2026-01-07 17:36:21.30	28.71	3.49	-52.0	-67.3	3.6	1.51e+00	0	35	104	0	60	113516
2026-01-07 17:36:22.31	28.63	3.55	-52.0	-67.3	3.6	1.51e+00	0	35	104	0	60	113614
2026-01-07 17:36:23.32	28.55	3.60	-52.0	-67.4	3.6	1.51e+00	0	35	104	0	60	113814
2026-01-07 17:36:24.33	28.47	3.66	-52.0	-67.3	3.6	1.51e+00	0	35	104	0	60	113571
2026-01-07 17:36:25.35	28.39	3.72	-52.0	-67.3	3.5	1.51e+00	0	35	104	0	60	113612
2026-01-07 17:36:26.36	28.31	3.78	-52.0	-67.4	3.6	1.51e+00	0	35	104	0	60	113995
2026-01-07 17:36:27.37	28.23	3.83	-52.0	-67.4	3.6	1.51e+00	0	35	104	0	60	113701
2026-01-07 17:36:28.38	28.15	3.89	-52.0	-67.3	3.6	1.51e+00	0	35	104	0	60	113469
2026-01-07 17:36:29.39	28.07	3.95	-52.0	-67.4	3.6	1.51e+00	0	35	104	0	60	113687
2026-01-07 17:36:30.40	27.99	4.01	-52.0	-67.4	3.6	1.51e+00	0	35	104	0	60	113673
2026-01-07 17:36:31.41	27.91	4.07	-52.0	-67.4	3.6	1.51e+00	0	35	104	0	60	113860
2026-01-07 17:36:32.42	27.82	4.12	-52.0	-67.3	3.5	1.51e+00	0	35	104	0	60	113483
2026-01-07 17:36:33.43	27.74	4.18	-52.0	-67.4	3.6	1.51e+00	0	35	104	0	60	113897
2026-01-07 17:36:34.44	27.66	4.24	-52.0	-67.4	3.6	1.51e+00	0	35	104	0	60	114267
2026-01-07 17:36:35.46	27.58	4.30	-52.0	-67.4	3.6	1.51e+00	0	35	104	0	60	113935
2026-01-07 17:36:36.47	27.49	4.36	-52.0	-67.4	3.6	1.51e+00	0	35	104	0	60	113770
2026-01-07 17:36:37.48	27.41	4.41	-52.0	-67.4	3.6	1.51e+00	0	35	104	0	60	113738
2026-01-07 17:36:38.49	27.33	4.47	-52.0	-67.4	3.6	1.51e+00	0	35	104	0	60	113760
2026-01-07 17:36:39.50	27.24	4.53	-52.0	-67.3	3.6	1.51e+00	0	35	104	0	60	113344
2026-01-07 17:36:40.51	27.16	4.59	-52.0	-67.4	3.6	1.51e+00	0	35	104	0	60	113958
2026-01-07 17:36:41.52	27.07	4.65	-52.0	-67.3	3.6	1.51e+00	0	35	104	0	60	113622
2026-01-07 17:36:42.53	26.99	4.71	-52.0	-67.3	3.6	1.51e+00	0	35	104	0	60	112986
2026-01-07 17:36:43.54	26.90	4.77	-52.0	-67.4	3.6	1.51e+00	0	35	104	0	60	113671
2026-01-07 17:36:44.55	26.82	4.82	-52.0	-67.3	3.6	1.51e+00	0	35	104	0	60	113296
2026-01-07 17:36:45.56	26.73	4.88	-52.0	-67.3	3.5	1.51e+00	0	35	104	0	60	113285
2026-01-07 17:36:46.58	26.64	4.94	-52.0	-67.4	3.6	1.51e+00	0	35	104	0	60	114001
2026-01-07 17:36:47.59	26.55	5.00	-52.0	-67.3	3.6	1.51e+00	0	35	104	0	60	113449
2026-01-07 17:36:48.60	26.47	5.06	-52.0	-67.4	3.6	1.51e+00	0	35	104	0	60	113732
2026-01-07 17:36:49.61	26.38	5.12	-52.0	-67.4	3.6	1.51e+00	0	35	104	0	60	113724
2026-01-07 17:36:50.62	26.29	5.18	-52.0	-67.3	3.6	1.51e+00	0	35	104	0	60	113584
2026-01-07 17:36:51.63	26.20	5.24	-52.0	-67.4	3.6	1.51e+00	0	35	104	0	60	114211
2026-01-07 17:36:52.64	26.11	5.30	-52.0	-67.4	3.6	1.51e+00	0	35	104	0	60	113954
2026-01-07 17:36:53.65	26.02	5.36	-52.0	-67.3	3.6	1.51e+00	0	35	104	0	60	113322
2026-01-07 17:36:54.66	25.94	5.42	-52.0	-67.3	3.6	1.51e+00	0	35	104	0	60	113616
2026-01-07 17:36:55.67	25.85	5.47	-52.0	-67.4	3.6	1.51e+00	0	35	104	0	60	113860
2026-01-07 17:36:56.69	25.75	5.53	-52.0	-67.3	3.6	1.51e+00	0	35	104	0	60	113271
2026-01-07 17:36:57.70	25.66	5.59	-52.0	-67.4	3.6	1.51e+00	0	35	104	0	60	114086
2026-01-07 17:36:58.71	25.57	5.65	-52.0	-67.4	3.6	1.51e+00	0	35	104	0	60	113856
2026-01-07 17:36:59.72	25.48	5.71	-52.0	-67.3	3.6	1.51e+00	0	35	104	0	60	113397
2026-01-07 17:37:00.73	25.39	5.77	-52.0	-67.4	3.6	1.51e+00	0	35	104	0	60	113737
2026-01-07 17:37:01.74	25.30	5.83	-52.0	-67.4	3.6	1.51e+00	0	35	104	0	60	113651
2026-01-07 17:37:02.75	25.20	5.89	-52.0	-67.4	3.6	1.51e+00	0	35	104	0	60	114107
2026-01-07 17:37:03.76	25.11	5.95	-52.0	-67.4	3.6	1.51e+00	0	35	104	0	60	113793
2026-01-07 17:37:04.77	25.02	6.01	-52.0	-67.4	3.6	1.51e+00	0	35	104	0	60	113792
2026-01-07 17:37:05.78	24.92	6.07	-52.0	-67.4	3.6	1.51e+00	0	35	104	0	60	113853
2026-01-07 17:37:06.80	24.83	6.13	-52.0	-67.3	3.6	1.51e+00	0	35	104	0	60	113524
2026-01-07 17:37:07.81	24.73	6.19	-52.0	-67.4	3.6	1.51e+00	0	35	104	0	60	113682
2026-01-07 17:37:08.82	24.64	6.25	-52.0	-67.3	3.6	1.51e+00	0	35	104	0	60	113453
2026-01-07 17:37:09.83	24.54	6.31	-52.0	-67.3	3.6	1.51e+00	0	35	104	0	60	113244
2026-01-07 17:37:10.84	24.45	6.38	-52.0	-67.3	3.6	1.51e+00	0	35	104	0	60	113039
2026-01-07 17:37:11.85	24.35	6.44	-52.0	-67.3	3.6	1.51e+00	0	35	104	0	60	113575
2026-01-07 17:37:12.86	24.25	6.50	-52.0	-67.4	3.6	1.51e+00	0	35	104	0	60	113922
2026-01-07 17:37:13.87	24.16	6.56	-52.0	-67.3	3.6	1.51e+00	0	35	104	0	60	113545
2026-01-07 17:37:14.88	24.06	6.62	-52.0	-67.4	3.6	1.51e+00	0	35	104	0	60	114027
2026-01-07 17:37:15.89	23.96	6.68	-52.0	-67.3	3.6	1.51e+00	0	35	104	0	60	113411
2026-01-07 17:37:16.91	23.86	6.74	-52.0	-67.3	3.6	1.51e+00	0	35	104	0	60	113091
2026-01-07 17:37:17.92	23.76	6.80	-52.0	-67.4	3.6	1.51e+00	0	35	104	0	60	114123
2026-01-07 17:37:18.93	23.66	6.86	-52.0	-67.4	3.6	1.51e+00	0	35	104	0	60	113704
2026-01-07 17:37:19.94	23.56	6.92	-52.0	-67.4	3.6	1.51e+00	0	35	104	0	60	113682
2026-01-07 17:37:20.95	23.46	6.98	-52.0	-67.4	3.6	1.51e+00	0	35	104	0	60	113857
2026-01-07 17:37:21.96	23.36	7.04	-52.0	-67.4	3.6	1.51e+00	0	35	104	0	60	114292
2026-01-07 17:37:22.97	23.26	7.11	-52.0	-67.3	3.6	1.51e+00	0	35	104	0	60	113521
2026-01-07 17:37:23.98	23.16	7.17	-52.0	-67.4	3.6	1.51e+00	0	35	104	0	60	113994
2026-01-07 17:37:24.99	23.06	7.23	-52.0	-67.4	3.6	1.51e+00	0	35	104	0	60	113930
2026-01-07 17:37:26.01	22.95	7.29	-52.0	-67.3	3.6	1.51e+00	0	35	104	0	60	113523
2026-01-07 17:37:27.02	22.85	7.35	-52.0	-67.4	3.6	1.51e+00	0	35	104	0	60	113899
2026-01-07 17:37:28.03	22.75	7.41	-52.0	-67.4	3.6	1.51e+00	0	35	104	0	60	113972
2026-01-07 17:37:29.04	22.64	7.47	-52.0	-67.4	3.6	1.51e+00	0	35	104	0	60	113872
2026-01-07 17:37:30.05	22.54	7.54	-52.0	-67.3	3.6	1.51e+00	0	35	104	0	60	113474
2026-01-07 17:37:31.06	22.43	7.60	-52.0	-67.3	3.6	1.51e+00	0	35	104	0	60	113484
2026-01-07 17:37:32.07	22.33	7.66	-52.0	-67.4	3.6	1.51e+00	0	35	104	0	60	113823
2026-01-07 17:37:33.08	22.22	7.72	-52.0	-67.3	3.6	1.51e+00	0	35	104	0	60	113360
2026-01-07 17:37:34.09	22.12	7.78	-52.0	-67.3	3.6	1.51e+00	0	35	104	0	60	112844
2026-01-07 17:37:35.10	22.01	7.84	-52.0	-67.4	3.6	1.51e+00	0	35	104	0	60	113762
2026-01-07 17:37:36.11	21.90	7.91	-52.0	-67.4	3.6	1.51e+00	0	35	104	0	60	113680
2026-01-07 17:37:37.12	21.80	7.97	-52.0	-67.3	3.6	1.51e+00	0	35	104	0	60	113329
2026-01-07 17:37:38.13	21.69	8.03	-52.0	-67.4	3.6	1.51e+00	0	35	104	0	60	114082
2026-01-07 17:37:39.14	21.58	8.09	-52.0	-67.3	3.6	1.51e+00	0	35	104	0	60	113307
2026-01-07 17:37:40.15	21.47	8.15	-52.0	-67.4	3.6	1.51e+00	0	35	104	0	60	113828
2026-01-07 17:37:41.17	21.36	8.22	-52.0	-67.3	3.6	1.51e+00	0	35	104	0	60	113267
2026-01-07 17:37:42.18	21.25	8.28	-52.0	-67.3	3.6	1.51e+00	0	35	104	0	60	113221
2026-01-07 17:37:43.19	21.14	8.34	-52.0	-67.4	3.5	1.51e+00	0	35	104	0	60	113939
2026-01-07 17:37:44.20	21.03	8.40	-52.0	-67.3	3.6	1.51e+00	0	35	104	0	60	113502
2026-01-07 17:37:45.21	20.92	8.47	-52.0	-67.3	3.6	1.51e+00	0	35	104	0	60	113530
2026-01-07 17:37:46.22	20.81	8.53	-52.0	-67.4	3.6	1.51e+00	0	35	104	0	60	113741
2026-01-07 17:37:47.23	20.69	8.59	-52.0	-67.4	3.6	1.51e+00	0	35	104	0	60	113725
2026-01-07 17:37:48.25	20.58	8.65	-52.0	-67.3	3.6	1.51e+00	0	35	104	0	60	113504
2026-01-07 17:37:49.26	20.47	8.72	-52.0	-67.3	3.6	1.51e+00	0	35	104	0	60	113615
2026-01-07 17:37:50.27	20.35	8.78	-52.0	-67.3	3.6	1.51e+00	0	35	104	0	60	113590
2026-01-07 17:37:51.28	20.24	8.84	-52.0	-67.3	3.5	1.51e+00	0	35	104	0	60	112841
2026-01-07 17:37:52.29	20.12	8.91	-52.0	-67.4	3.6	1.51e+00	0	35	104	0	60	113788
2026-01-07 17:37:53.30	20.01	8.97	-52.0	-67.4	3.6	1.51e+00	0	35	104	0	60	113715
2026-01-07 17:37:54.31	19.89	9.03	-52.0	-67.4	3.6	1.51e+00	0	35	104	0	60	113696
2026-01-07 17:37:55.32	19.78	9.09	-52.0	-67.4	3.6	1.51e+00	0	35	104	0	60	114069
2026-01-07 17:37:56.33	19.66	9.16	-52.0	-67.4	3.6	1.51e+00	0	35	104	0	60	113687
2026-01-07 17:37:57.35	19.54	9.22	-52.0	-67.4	3.6	1.51e+00	0	35	104	0	60	114315
2026-01-07 17:37:58.36	19.42	9.28	-52.0	-67.3	3.6	1.51e+00	0	35	104	0	60	113598
2026-01-07 17:37:59.37	19.30	9.35	-52.0	-67.4	3.6	1.51e+00	0	35	104	0	60	113924
2026-01-07 17:38:00.38	19.19	9.41	-52.0	-67.3	3.6	1.51e+00	0	35	104	0	60	113321
2026-01-07 17:38:01.39	19.07	9.47	-52.0	-67.4	3.6	1.51e+00	0	35	104	0	60	113765
2026-01-07 17:38:02.40	18.95	9.54	-52.0	-67.3	3.6	1.51e+00	0	35	104	0	60	113027
2026-01-07 17:38:03.41	18.83	9.60	-52.0	-67.3	3.6	1.51e+00	0	35	104	0	60	113266
2026-01-07 17:38:04.42	18.70	9.66	-52.0	-67.3	3.6	1.51e+00	0	35	104	0	60	113204
2026-01-07 17:38:05.43	18.58	9.72	-52.0	-67.4	3.6	1.51e+00	0	35	104	0	60	113715
2026-01-07 17:38:06.44	18.46	9.79	-52.0	-67.4	3.6	1.51e+00	0	35	104	0	60	114520
2026-01-07 17:38:07.45	18.34	9.85	-52.0	-67.4	3.6	1.51e+00	0	35	104	0	60	113653
2026-01-07 17:38:08.47	18.21	9.92	-52.0	-67.3	3.6	1.51e+00	0	35	104	0	60	113111
2026-01-07 17:38:09.48	18.09	9.98	-52.0	-67.3	3.6	1.51e+00	0	35	104	0	60	112656
2026-01-07 17:38:10.49	17.96	10.04	-52.0	-67.3	3.6	1.51e+00	0	35	104	0	60	113576
2026-01-07 17:38:11.50	17.84	10.11	-52.0	-67.4	3.6	1.51e+00	0	35	104	0	60	113889
2026-01-07 17:38:12.51	17.71	10.17	-52.0	-67.3	3.6	1.51e+00	0	35	104	0	60	113407
2026-01-07 17:38:13.52	17.59	10.23	-52.0	-67.3	3.6	1.51e+00	0	35	104	0	60	113216
2026-01-07 17:38:14.53	17.46	10.30	-52.0	-67.4	3.6	1.51e+00	0	35	104	0	60	114149
2026-01-07 17:38:15.54	17.33	10.36	-52.0	-67.4	3.6	1.51e+00	0	35	104	0	60	113651
2026-01-07 17:38:16.55	17.21	10.42	-52.0	-67.4	3.6	1.51e+00	0	35	104	0	60	113888
2026-01-07 17:38:17.56	17.08	10.49	-52.0	-67.3	3.6	1.51e+00	0	35	104	0	60	113159
2026-01-07 17:38:18.57	16.95	10.55	-52.0	-67.3	3.6	1.51e+00	0	35	104	0	60	113608
2026-01-07 17:38:19.59	16.82	10.61	-52.0	-67.3	3.6	1.51e+00	0	35	104	0	60	113187
2026-01-07 17:38:20.60	16.69	10.68	-52.0	-67.4	3.6	1.51e+00	0	35	104	0	60	113672
2026-01-07 17:38:21.61	16.56	10.74	-52.0	-67.3	3.6	1.51e+00	0	35	104	0	60	113416
2026-01-07 17:38:22.62	16.43	10.80	-52.0	-67.3	3.6	1.51e+00	0	35	104	0	60	113477
2026-01-07 17:38:23.63	16.29	10.87	-52.0	-67.4	3.6	1.51e+00	0	35	104	0	60	113751
2026-01-07 17:38:24.64	16.16	10.93	-52.0	-67.3	3.6	1.51e+00	0	35	104	0	60	113368
2026-01-07 17:38:25.65	16.03	11.00	-52.0	-67.4	3.6	1.51e+00	0	35	104	0	60	114144
2026-01-07 17:38:26.66	15.90	11.06	-52.0	-67.3	3.6	1.51e+00	0	35	104	0	60	112749
2026-01-07 17:38:27.67	15.76	11.12	-52.0	-67.3	3.6	1.51e+00	0	35	104	0	60	113604
2026-01-07 17:38:28.68	15.63	11.19	-52.0	-67.4	3.6	1.51e+00	0	35	104	0	60	113739
2026-01-07 17:38:29.69	15.49	11.25	-52.0	-67.4	3.6	1.51e+00	0	35	104	0	60	114013
2026-01-07 17:38:30.70	15.36	11.31	-52.0	-67.4	3.6	1.51e+00	0	35	104	0	60	113672
2026-01-07 17:38:31.71	15.22	11.38	-52.0	-67.4	3.6	1.51e+00	0	35	104	0	60	113876
2026-01-07 17:38:32.72	15.08	11.44	-52.0	-67.4	3.6	1.51e+00	0	35	104	0	60	114019
2026-01-07 17:38:33.73	14.94	11.51	-52.0	-67.4	3.6	1.51e+00	0	35	104	0	60	113909
2026-01-07 17:38:34.75	14.80	11.57	-52.0	-67.3	3.6	1.51e+00	0	35	104	0	60	113237
2026-01-07 17:38:35.76	14.66	11.63	-52.0	-67.3	3.6	1.51e+00	0	35	104	0	60	113636
2026-01-07 17:38:36.77	14.52	11.70	-52.0	-67.4	3.6	1.51e+00	0	35	104	0	60	113864
2026-01-07 17:38:37.78	14.38	11.76	-52.0	-67.3	3.6	1.51e+00	0	35	104	0	60	113082
2026-01-07 17:38:38.79	14.24	11.83	-52.0	-67.4	3.6	1.51e+00	0	35	104	0	60	113977
2026-01-07 17:38:39.80	14.10	11.89	-52.0	-67.3	3.6	1.51e+00	0	35	104	0	60	113208
2026-01-07 17:38:40.81	13.96	11.95	-52.0	-67.3	3.6	1.51e+00	0	35	104	0	60	113458
2026-01-07 17:38:41.82	13.82	12.02	-52.0	-67.4	3.6	1.51e+00	0	35	104	0	60	113940
2026-01-07 17:38:42.83	13.67	12.08	-52.0	-67.4	3.6	1.51e+00	0	35	104	0	60	113760
2026-01-07 17:38:43.84	13.53	12.14	-52.0	-67.3	3.6	1.51e+00	0	35	104	0	60	112891
2026-01-07 17:38:44.86	13.38	12.21	-52.0	-67.3	3.6	1.51e+00	0	35	104	0	60	113508
2026-01-07 17:38:45.87	13.24	12.27	-52.0	-67.3	3.6	1.51e+00	0	35	104	0	60	113607
2026-01-07 17:38:46.88	13.09	12.34	-52.0	-67.3	3.6	1.51e+00	0	35	104	0	60	112917
2026-01-07 17:38:47.89	12.95	12.40	-52.0	-67.4	3.6	1.51e+00	0	35	104	0	60	113724
2026-01-07 17:38:48.90	12.80	12.46	-52.0	-67.3	3.6	1.51e+00	0	35	104	0	60	113458
2026-01-07 17:38:49.91	12.65	12.53	-52.0	-67.3	3.6	1.51e+00	0	35	104	0	60	113100
2026-01-07 17:38:50.92	12.50	12.59	-52.0	-67.3	3.6	1.51e+00	0	35	104	0	60	113465
2026-01-07 17:38:51.93	12.35	12.65	-52.0	-67.3	3.6	1.51e+00	0	35	104	0	60	113189
2026-01-07 17:38:52.94	12.20	12.72	-52.0	-67.3	3.6	1.51e+00	0	35	104	0	60	113328
2026-01-07 17:38:53.95	12.05	12.78	-52.0	-67.4	3.6	1.51e+00	0	35	104	0	60	113676
2026-01-07 17:38:54.96	11.90	12.84	-52.0	-67.3	3.6	1.51e+00	0	35	104	0	60	113445
2026-01-07 17:38:55.97	11.75	12.91	-52.0	-67.3	3.6	1.51e+00	0	35	104	0	60	112981
2026-01-07 17:38:56.98	11.60	12.97	-52.0	-67.3	3.6	1.51e+00	0	35	104	0	60	113431
2026-01-07 17:38:57.99	11.44	13.03	-52.0	-67.3	3.6	1.51e+00	0	35	104	0	60	113192
2026-01-07 17:38:59.00	11.29	13.10	-52.0	-67.4	3.6	1.51e+00	0	35	104	0	60	114087
2026-01-07 17:39:00.02	11.13	13.16	-52.0	-67.4	3.6	1.51e+00	0	35	104	0	60	113752
2026-01-07 17:39:01.03	10.98	13.22	-52.0	-67.3	3.6	1.51e+00	0	35	104	0	60	113437
2026-01-07 17:39:02.04	10.82	13.29	-52.0	-67.3	3.6	1.51e+00	0	35	104	0	60	113533
2026-01-07 17:39:03.05	10.66	13.35	-52.0	-67.3	3.6	1.51e+00	0	35	104	0	60	113202
2026-01-07 17:39:04.06	10.51	13.41	-52.0	-67.4	3.6	1.51e+00	0	35	104	0	60	113918
2026-01-07 17:39:05.07	10.35	13.48	-52.0	-67.3	3.6	1.51e+00	0	35	104	0	60	112791
2026-01-07 17:39:06.08	10.19	13.54	-52.0	-67.3	3.6	1.51e+00	0	35	104	0	60	113175
2026-01-07 17:39:07.09	10.03	13.60	-52.0	-67.3	3.6	1.51e+00	0	35	104	0	60	112993
2026-01-07 17:39:08.10	9.87	13.67	-52.0	-67.3	3.6	1.51e+00	0	35	104	0	60	113564
2026-01-07 17:39:09.11	9.71	13.73	-52.0	-67.4	3.6	1.51e+00	0	35	104	0	60	113674
2026-01-07 17:39:10.12	9.55	13.79	-52.0	-67.3	3.6	1.51e+00	0	35	104	0	60	112734
2026-01-07 17:39:11.13	9.39	13.85	-52.0	-67.3	3.6	1.51e+00	0	35	104	0	60	113513
2026-01-07 17:39:12.15	9.22	13.92	-52.0	-67.3	3.6	1.51e+00	0	35	104	0	60	113421
2026-01-07 17:39:13.15	9.06	13.98	-52.0	-67.4	3.6	1.51e+00	0	35	104	0	60	113786
2026-01-07 17:39:14.17	8.89	14.04	-52.0	-67.4	3.6	1.51e+00	0	35	104	0	60	113686
2026-01-07 17:39:15.18	8.73	14.10	-52.0	-67.3	3.6	1.51e+00	0	35	104	0	60	113426
2026-01-07 17:39:16.19	8.56	14.17	-52.0	-67.3	3.6	1.51e+00	0	35	104	0	60	113151
2026-01-07 17:39:17.20	8.40	14.23	-52.0	-67.3	3.6	1.51e+00	0	35	104	0	60	113345
2026-01-07 17:39:18.21	8.23	14.29	-52.0	-67.4	3.6	1.51e+00	0	35	104	0	60	114167
2026-01-07 17:39:19.22	8.06	14.35	-52.0	-67.3	3.6	1.51e+00	0	35	104	0	60	113094
2026-01-07 17:39:20.23	7.89	14.41	-52.0	-67.3	3.6	1.51e+00	0	35	104	0	60	112564
2026-01-07 17:39:21.24	7.72	14.48	-52.0	-67.3	3.6	1.51e+00	0	35	104	0	60	112860
2026-01-07 17:39:22.25	7.55	14.54	-52.0	-67.3	3.6	1.51e+00	0	35	104	0	60	113574
2026-01-07 17:39:23.27	7.38	14.60	-52.0	-67.3	3.6	1.51e+00	0	35	104	0	60	113610
2026-01-07 17:39:24.27	7.21	14.66	-52.0	-67.4	3.6	1.51e+00	0	35	104	0	60	113723
2026-01-07 17:39:25.29	7.04	14.72	-52.0	-67.3	3.6	1.51e+00	0	35	104	0	60	112799
2026-01-07 17:39:26.30	6.87	14.78	-52.0	-67.3	3.6	1.51e+00	0	35	104	0	60	112879
2026-01-07 17:39:27.31	6.69	14.85	-52.0	-67.3	3.6	1.51e+00	0	35	104	0	60	113431
2026-01-07 17:39:28.32	6.52	14.91	-52.0	-67.4	3.6	1.51e+00	0	35	104	0	60	113694
2026-01-07 17:39:29.33	6.34	14.97	-52.0	-67.3	3.6	1.51e+00	0	35	104	0	60	113616
2026-01-07 17:39:30.34	6.17	15.03	-52.0	-67.4	3.6	1.51e+00	0	35	104	0	60	113731
2026-01-07 17:39:31.35	5.99	15.09	-52.0	-67.3	3.6	1.51e+00	0	35	104	0	60	113157
2026-01-07 17:39:32.36	5.81	15.15	-52.0	-67.4	3.6	1.51e+00	0	35	104	0	60	113739
2026-01-07 17:39:33.37	5.64	15.21	-52.0	-67.4	3.6	1.51e+00	0	35	104	0	60	113841
2026-01-07 17:39:34.39	5.45	15.27	-52.0	-67.3	3.6	1.51e+00	0	35	104	0	60	113329
2026-01-07 17:39:35.40	5.28	15.33	-52.0	-67.3	3.6	1.51e+00	0	35	104	0	60	113643
2026-01-07 17:39:36.41	5.10	15.39	-52.0	-67.4	3.6	1.51e+00	0	35	104	0	60	114185
2026-01-07 17:39:37.42	4.91	15.45	-52.0	-67.4	3.6	1.51e+00	0	35	104	0	60	113683
2026-01-07 17:39:38.43	4.73	15.51	-52.0	-67.4	3.6	1.51e+00	0	35	104	0	60	113702
2026-01-07 17:39:39.44	4.55	15.57	-52.0	-67.3	3.6	1.51e+00	0	35	104	0	60	113342
2026-01-07 17:39:40.45	4.37	15.63	-52.0	-67.3	3.6	1.51e+00	0	35	104	0	60	113164
2026-01-07 17:39:41.46	4.18	15.69	-52.0	-67.3	3.6	1.51e+00	0	35	104	0	60	112942
2026-01-07 17:39:42.47	4.00	15.75	-52.0	-67.3	3.6	1.51e+00	0	35	104	0	60	113239
2026-01-07 17:39:43.48	3.81	15.81	-52.0	-67.3	3.6	1.51e+00	0	35	104	0	60	112708
2026-01-07 17:39:44.49	3.63	15.87	-52.0	-67.3	3.6	1.51e+00	0	35	104	0	60	113224
2026-01-07 17:39:45.51	3.44	15.93	-52.0	-67.3	3.6	1.51e+00	0	35	104	0	60	112720
2026-01-07 17:39:46.52	3.25	15.98	-52.0	-67.4	3.6	1.51e+00	0	35	104	0	60	114005
2026-01-07 17:39:47.53	3.06	16.04	-52.0	-67.3	3.6	1.51e+00	0	35	104	0	60	113293
2026-01-07 17:39:48.54	2.87	16.10	-51.9	-67.3	3.6	1.51e+00	0	35	104	0	60	113185
2026-01-07 17:39:49.55	2.68	16.16	-52.0	-67.3	3.6	1.51e+00	0	35	104	0	60	113462
2026-01-07 17:39:50.56	2.49	16.22	-51.9	-67.3	3.6	1.51e+00	0	35	104	0	60	112713
2026-01-07 17:39:51.57	2.30	16.27	-51.9	-67.3	3.6	1.51e+00	0	35	104	0	60	113045
2026-01-07 17:39:52.58	2.11	16.33	-51.9	-67.3	3.6	1.51e+00	0	35	104	0	60	113217
2026-01-07 17:39:53.59	1.92	16.39	-52.0	-67.3	3.6	1.51e+00	0	35	104	0	60	113583
2026-01-07 17:39:54.60	1.72	16.45	-51.9	-67.3	3.6	1.51e+00	0	35	104	0	60	113448
2026-01-07 17:39:55.62	1.53	16.50	-52.0	-67.3	3.6	1.51e+00	0	35	104	0	60	113007
2026-01-07 17:39:56.63	1.33	16.56	-51.9	-67.3	3.5	1.51e+00	0	35	104	0	60	113126
2026-01-07 17:39:57.64	1.14	16.62	-52.0	-67.3	3.6	1.51e+00	0	35	104	0	60	113587
2026-01-07 17:39:58.65	0.94	16.67	-52.0	-67.3	3.6	1.51e+00	0	35	104	0	60	113314
2026-01-07 17:39:59.66	0.74	16.73	-51.9	-67.3	3.6	1.51e+00	0	35	104	0	60	112453
2026-01-07 17:40:00.67	0.54	16.78	-52.0	-67.3	3.6	1.51e+00	0	35	104	0	60	113243
2026-01-07 17:40:01.68	0.35	16.84	-51.9	-67.4	3.6	1.51e+00	0	35	104	0	60	113908
2026-01-07 17:40:02.69	0.15	16.89	-51.9	-67.3	3.6	1.51e+00	0	35	104	0	60	113016
2026-01-07 17:40:03.71	359.94	16.95	-51.9	-67.3	3.6	1.51e+00	0	35	104	0	60	113128
2026-01-07 17:40:04.72	359.74	17.00	-51.9	-67.3	3.6	1.51e+00	0	35	104	0	60	113327
2026-01-07 17:40:05.73	359.54	17.06	-51.9	-67.4	3.6	1.51e+00	0	35	104	0	60	113700
2026-01-07 17:40:06.74	359.34	17.11	-51.9	-67.3	3.6	1.51e+00	0	35	104	0	60	113491
2026-01-07 17:40:07.75	359.14	17.17	-51.9	-67.3	3.6	1.51e+00	0	35	104	0	60	113155
2026-01-07 17:40:08.76	358.93	17.22	-51.9	-67.3	3.6	1.51e+00	0	35	104	0	60	113343
2026-01-07 17:40:09.77	358.73	17.28	-51.9	-67.3	3.6	1.51e+00	0	35	104	0	60	112876
2026-01-07 17:40:10.78	358.52	17.33	-52.0	-67.3	3.5	1.51e+00	0	35	104	0	60	112981
2026-01-07 17:40:11.79	358.32	17.38	-51.9	-67.3	3.6	1.51e+00	0	35	104	0	60	113110
2026-01-07 17:40:12.80	358.11	17.43	-51.9	-67.4	3.6	1.51e+00	0	35	104	0	60	114132
2026-01-07 17:40:13.81	357.90	17.49	-51.9	-67.4	3.6	1.51e+00	0	35	104	0	60	113698
2026-01-07 17:40:14.82	357.69	17.54	-51.9	-67.3	3.6	1.51e+00	0	35	104	0	60	113044
2026-01-07 17:40:15.83	357.48	17.59	-51.9	-67.3	3.6	1.51e+00	0	35	104	0	60	112764
2026-01-07 17:40:16.84	357.27	17.64	-51.9	-67.3	3.6	1.51e+00	0	35	104	0	60	112654
2026-01-07 17:40:17.86	357.06	17.69	-51.9	-67.3	3.6	1.51e+00	0	35	104	0	60	112616
2026-01-07 17:40:18.87	356.85	17.75	-51.9	-67.3	3.6	1.51e+00	0	35	104	0	60	112874
2026-01-07 17:40:19.88	356.64	17.80	-51.9	-67.3	3.6	1.51e+00	0	35	104	0	60	112942
2026-01-07 17:40:20.89	356.42	17.85	-51.9	-67.3	3.6	1.51e+00	0	35	104	0	60	113176
2026-01-07 17:40:21.90	356.21	17.90	-51.9	-67.3	3.6	1.51e+00	0	35	104	0	60	112868
2026-01-07 17:40:22.91	356.00	17.95	-51.9	-67.3	3.5	1.51e+00	0	35	104	0	60	113188
2026-01-07 17:40:23.92	355.78	18.00	-52.0	-67.3	3.6	1.51e+00	0	35	104	0	60	113573
2026-01-07 17:40:24.93	355.57	18.04	-51.9	-67.4	3.6	1.51e+00	0	35	104	0	60	114048
2026-01-07 17:40:25.94	355.35	18.09	-51.9	-67.4	3.6	1.51e+00	0	35	104	0	60	113655
2026-01-07 17:40:26.95	355.13	18.14	-51.9	-67.4	3.6	1.51e+00	0	35	104	0	60	113694
2026-01-07 17:40:27.96	354.92	18.19	-51.9	-67.4	3.6	1.51e+00	0	35	104	0	60	113845
2026-01-07 17:40:28.97	354.70	18.24	-51.9	-67.3	3.6	1.51e+00	0	35	104	0	60	112772
2026-01-07 17:40:29.98	354.48	18.29	-51.9	-67.3	3.6	1.51e+00	0	35	104	0	60	113067
2026-01-07 17:40:31.00	354.26	18.33	-51.9	-67.3	3.6	1.51e+00	0	35	104	0	60	113190
2026-01-07 17:40:32.01	354.04	18.38	-51.9	-67.3	3.6	1.51e+00	0	35	104	0	60	113231
2026-01-07 17:40:33.02	353.81	18.43	-51.9	-67.3	3.6	1.51e+00	0	35	104	0	60	112890
2026-01-07 17:40:34.03	353.59	18.47	-51.9	-67.3	3.6	1.51e+00	0	35	104	0	60	113039
2026-01-07 17:40:35.04	353.37	18.52	-51.9	-67.3	3.6	1.51e+00	0	35	104	0	60	113203
2026-01-07 17:40:36.05	353.15	18.56	-51.9	-67.3	3.6	1.51e+00	0	35	104	0	60	113291
2026-01-07 17:40:37.06	352.92	18.61	-51.9	-67.3	3.6	1.51e+00	0	35	104	0	60	112766
2026-01-07 17:40:38.07	352.70	18.65	-51.9	-67.3	3.6	1.51e+00	0	35	104	0	60	113025
2026-01-07 17:40:39.09	352.47	18.70	-51.9	-67.3	3.5	1.51e+00	0	35	104	0	60	112385
2026-01-07 17:40:40.10	352.24	18.74	-51.9	-67.3	3.6	1.51e+00	0	35	104	0	60	112971
2026-01-07 17:40:41.11	352.02	18.79	-51.9	-67.3	3.6	1.51e+00	0	35	104	0	60	112554
2026-01-07 17:40:42.12	351.79	18.83	-51.9	-67.3	3.6	1.51e+00	0	35	104	0	60	113388
2026-01-07 17:40:43.13	351.56	18.87	-51.9	-67.3	3.6	1.51e+00	0	35	104	0	60	113109
2026-01-07 17:40:44.14	351.33	18.91	-51.9	-67.3	3.6	1.51e+00	0	35	104	0	60	113348
2026-01-07 17:40:45.15	351.11	18.96	-51.9	-67.3	3.6	1.51e+00	0	35	104	0	60	112744
2026-01-07 17:40:46.16	350.88	19.00	-51.9	-67.3	3.6	1.51e+00	0	36	104	0	60	112619
2026-01-07 17:40:47.17	350.65	19.04	-51.9	-67.2	3.6	1.51e+00	0	35	104	0	60	112241
2026-01-07 17:40:48.18	350.41	19.08	-51.9	-67.2	3.6	1.51e+00	0	35	104	0	60	112309
2026-01-07 17:40:49.20	350.18	19.12	-51.9	-67.3	3.6	1.51e+00	0	35	104	0	60	112360
2026-01-07 17:40:50.21	349.95	19.16	-51.9	-67.3	3.6	1.51e+00	0	36	104	0	60	112779
2026-01-07 17:40:51.22	349.72	19.20	-51.9	-67.3	3.6	1.51e+00	0	35	104	0	60	113118
2026-01-07 17:40:52.23	349.48	19.24	-51.9	-67.3	3.6	1.51e+00	0	35	104	0	60	113561
2026-01-07 17:40:53.24	349.25	19.28	-51.9	-67.4	3.6	1.51e+00	0	35	104	0	60	113677
2026-01-07 17:40:54.25	349.01	19.31	-51.9	-67.3	3.6	1.51e+00	0	35	104	0	60	113101
2026-01-07 17:40:55.26	348.78	19.35	-51.9	-67.4	3.6	1.51e+00	0	35	104	0	60	113736
2026-01-07 17:40:56.27	348.54	19.39	-51.9	-67.3	3.6	1.51e+00	0	35	104	0	60	113209
2026-01-07 17:40:57.28	348.31	19.43	-51.9	-67.3	3.6	1.51e+00	0	35	104	0	60	112924
2026-01-07 17:40:58.29	348.07	19.46	-51.9	-67.3	3.6	1.51e+00	0	36	104	0	60	113605
2026-01-07 17:40:59.31	347.83	19.50	-51.9	-67.3	3.6	1.51e+00	0	36	104	0	60	113194
2026-01-07 17:41:00.32	347.59	19.53	-51.9	-67.3	3.6	1.51e+00	0	36	104	0	60	112811
2026-01-07 17:41:01.33	347.35	19.57	-51.9	-67.3	3.6	1.51e+00	0	35	104	0	60	113101
2026-01-07 17:41:02.34	347.11	19.60	-51.9	-67.3	3.6	1.51e+00	0	35	104	0	60	112930
2026-01-07 17:41:03.35	346.87	19.64	-51.9	-67.3	3.6	1.51e+00	0	35	104	0	60	113532
2026-01-07 17:41:04.36	346.63	19.67	-51.9	-67.3	3.6	1.51e+00	0	35	104	0	60	113091
2026-01-07 17:41:05.37	346.39	19.70	-51.9	-67.4	3.6	1.51e+00	0	35	104	0	60	113781
2026-01-07 17:41:06.38	346.15	19.73	-51.9	-67.3	3.6	1.51e+00	0	35	104	0	60	112766
2026-01-07 17:41:07.39	345.91	19.77	-51.9	-67.3	3.6	1.51e+00	0	35	104	0	60	112727
2026-01-07 17:41:08.40	345.67	19.80	-51.9	-67.3	3.6	1.51e+00	0	35	104	0	60	112407
2026-01-07 17:41:09.41	345.42	19.83	-51.9	-67.3	3.6	1.51e+00	0	35	104	0	60	112840
2026-01-07 17:41:10.42	345.18	19.86	-51.9	-67.3	3.5	1.51e+00	0	35	104	0	60	113097
2026-01-07 17:41:11.43	344.94	19.89	-51.9	-67.3	3.6	1.51e+00	0	35	104	0	60	112797
2026-01-07 17:41:12.44	344.69	19.92	-51.9	-67.3	3.6	1.51e+00	0	36	104	0	60	112371
2026-01-07 17:41:13.46	344.44	19.95	-51.9	-67.3	3.6	1.51e+00	0	35	104	0	60	112390
2026-01-07 17:41:14.46	344.20	19.98	-51.9	-67.2	3.6	1.51e+00	0	36	104	0	60	112194
2026-01-07 17:41:15.47	343.96	20.00	-51.9	-67.3	3.6	1.51e+00	0	35	104	0	60	113016
2026-01-07 17:41:16.48	343.71	20.03	-51.9	-67.3	3.6	1.51e+00	0	35	104	0	60	112818
2026-01-07 17:41:17.50	343.46	20.06	-51.9	-67.3	3.6	1.51e+00	0	35	104	0	60	113550
2026-01-07 17:41:18.51	343.21	20.08	-51.9	-67.3	3.6	1.51e+00	0	35	104	0	60	113215
2026-01-07 17:41:19.52	342.97	20.11	-51.9	-67.3	3.6	1.51e+00	0	35	104	0	60	113151
2026-01-07 17:41:20.53	342.72	20.13	-51.9	-67.3	3.6	1.51e+00	0	35	104	0	60	113032
2026-01-07 17:41:21.54	342.47	20.16	-51.9	-67.3	3.5	1.51e+00	0	35	104	0	60	112960
2026-01-07 17:41:22.55	342.22	20.18	-51.9	-67.3	3.6	1.51e+00	0	35	104	0	60	113052
2026-01-07 17:41:23.56	341.97	20.21	-51.9	-67.3	3.6	1.51e+00	0	35	104	0	60	113645
2026-01-07 17:41:24.57	341.72	20.23	-51.9	-67.3	3.6	1.51e+00	0	35	104	0	60	112490
2026-01-07 17:41:25.58	341.47	20.25	-51.9	-67.3	3.6	1.51e+00	0	35	104	0	60	112838
2026-01-07 17:41:26.59	341.22	20.27	-51.9	-67.3	3.6	1.51e+00	0	35	104	0	60	113007
2026-01-07 17:41:27.61	340.97	20.30	-51.9	-67.3	3.6	1.51e+00	0	35	104	0	60	113238
2026-01-07 17:41:28.62	340.72	20.32	-51.9	-67.3	3.6	1.51e+00	0	35	104	0	60	113542
2026-01-07 17:41:29.63	340.47	20.34	-51.9	-67.3	3.6	1.51e+00	0	35	104	0	60	113490
2026-01-07 17:41:30.64	340.22	20.36	-51.9	-67.3	3.6	1.51e+00	0	35	104	0	60	112456
2026-01-07 17:41:31.65	339.96	20.38	-51.9	-67.3	3.6	1.51e+00	0	35	104	0	60	113148
2026-01-07 17:41:32.66	339.71	20.39	-51.9	-67.4	3.5	1.51e+00	0	35	104	0	60	113788
2026-01-07 17:41:33.67	339.46	20.41	-51.9	-67.3	3.6	1.51e+00	0	35	104	0	60	113501
2026-01-07 17:41:34.68	339.21	20.43	-51.9	-67.3	3.6	1.51e+00	0	36	104	0	60	113024
2026-01-07 17:41:35.69	338.95	20.45	-51.9	-67.3	3.6	1.51e+00	0	35	104	0	60	113211
2026-01-07 17:41:36.71	338.70	20.46	-51.9	-67.2	3.6	1.51e+00	0	36	104	0	60	112224
2026-01-07 17:41:37.72	338.44	20.48	-51.9	-67.3	3.5	1.51e+00	0	36	104	0	60	113227
2026-01-07 17:41:38.73	338.19	20.49	-51.9	-67.3	3.6	1.51e+00	0	36	104	0	60	113045
2026-01-07 17:41:39.74	337.94	20.51	-51.9	-67.3	3.6	1.51e+00	0	36	104	0	60	112987
2026-01-07 17:41:40.75	337.68	20.52	-51.9	-67.3	3.6	1.51e+00	0	36	104	0	60	113501
2026-01-07 17:41:41.76	337.43	20.53	-51.9	-67.3	3.6	1.51e+00	0	36	104	0	60	113365
2026-01-07 17:41:42.77	337.17	20.55	-51.9	-67.3	3.6	1.51e+00	0	36	104	0	60	112819
2026-01-07 17:41:43.78	336.92	20.56	-51.9	-67.3	3.6	1.51e+00	0	35	104	0	60	113454
2026-01-07 17:41:44.79	336.66	20.57	-51.9	-67.3	3.6	1.51e+00	0	35	104	0	60	113107
2026-01-07 17:41:45.81	336.40	20.58	-51.9	-67.3	3.6	1.51e+00	0	35	104	0	60	113278
2026-01-07 17:41:46.82	336.15	20.59	-51.9	-67.3	3.6	1.51e+00	0	35	104	0	60	112840
2026-01-07 17:41:47.83	335.89	20.60	-51.9	-67.4	3.6	1.51e+00	0	36	104	0	60	113800
2026-01-07 17:41:48.84	335.64	20.61	-51.9	-67.3	3.6	1.51e+00	0	36	104	0	60	113532
2026-01-07 17:41:49.85	335.38	20.62	-51.9	-67.3	3.6	1.51e+00	0	36	104	0	60	112671
2026-01-07 17:41:50.86	335.12	20.63	-51.9	-67.3	3.6	1.51e+00	0	35	104	0	60	113203
2026-01-07 17:41:51.87	334.87	20.63	-51.9	-67.3	3.6	1.51e+00	0	35	104	0	60	112819
2026-01-07 17:41:52.88	334.61	20.64	-51.9	-67.3	3.6	1.51e+00	0	35	104	0	60	113350
2026-01-07 17:41:53.89	334.35	20.65	-51.9	-67.3	3.6	1.51e+00	0	35	104	0	60	112884
2026-01-07 17:41:54.91	334.10	20.65	-51.9	-67.3	3.6	1.51e+00	0	35	104	0	60	113221
2026-01-07 17:41:55.92	333.84	20.66	-51.9	-67.3	3.6	1.51e+00	0	35	104	0	60	113402
2026-01-07 17:41:56.93	333.58	20.66	-51.9	-67.3	3.6	1.51e+00	0	36	104	0	60	112962
2026-01-07 17:41:57.94	333.32	20.67	-51.9	-67.3	3.5	1.51e+00	0	36	104	0	60	113190
2026-01-07 17:41:58.95	333.07	20.67	-51.9	-67.3	3.6	1.51e+00	0	36	104	0	60	113464
2026-01-07 17:41:59.96	332.81	20.67	-51.9	-67.3	3.6	1.51e+00	0	35	104	0	60	112986
2026-01-07 17:42:00.97	332.55	20.67	-51.9	-67.4	3.6	1.51e+00	0	35	104	0	60	113850
2026-01-07 17:42:01.98	332.30	20.67	-51.9	-67.3	3.6	1.51e+00	0	35	104	0	60	113632
2026-01-07 17:42:03.00	332.04	20.67	-51.9	-67.3	3.6	1.51e+00	0	36	104	0	60	113618
2026-01-07 17:42:04.01	331.78	20.67	-51.9	-67.3	3.6	1.51e+00	0	36	104	0	60	112705
2026-01-07 17:42:05.02	331.52	20.67	-51.9	-67.3	3.6	1.51e+00	0	36	104	0	60	113449
2026-01-07 17:42:06.03	331.27	20.67	-51.9	-67.3	3.6	1.51e+00	0	36	104	0	60	113063
2026-01-07 17:42:07.04	331.01	20.67	-51.9	-67.3	3.6	1.51e+00	0	35	104	0	60	113215
2026-01-07 17:42:08.05	330.75	20.67	-51.9	-67.3	3.6	1.51e+00	0	35	104	0	60	112891
2026-01-07 17:42:09.06	330.49	20.66	-51.9	-67.3	3.6	1.51e+00	0	36	104	0	60	113433
2026-01-07 17:42:10.07	330.24	20.66	-51.9	-67.3	3.6	1.51e+00	0	35	104	0	60	113059
2026-01-07 17:42:11.08	329.98	20.66	-51.9	-67.3	3.6	1.51e+00	0	35	104	0	60	112694
2026-01-07 17:42:12.09	329.72	20.65	-51.9	-67.3	3.6	1.51e+00	0	36	104	0	60	113061
2026-01-07 17:42:13.10	329.47	20.65	-51.9	-67.3	3.6	1.51e+00	0	35	104	0	60	112894
2026-01-07 17:42:14.11	329.21	20.64	-51.9	-67.3	3.6	1.51e+00	0	35	104	0	60	113401
2026-01-07 17:42:15.12	328.95	20.63	-51.9	-67.3	3.6	1.51e+00	0	35	104	0	60	112835
2026-01-07 17:42:16.13	328.70	20.63	-51.9	-67.3	3.6	1.51e+00	0	36	104	0	60	113316
2026-01-07 17:42:17.15	328.44	20.62	-51.9	-67.3	3.6	1.51e+00	0	35	104	0	60	113547
2026-01-07 17:42:18.16	328.18	20.61	-51.9	-67.3	3.6	1.51e+00	0	35	104	0	60	112927
2026-01-07 17:42:19.17	327.93	20.60	-51.9	-67.3	3.6	1.51e+00	0	36	104	0	60	113171
2026-01-07 17:42:20.18	327.67	20.59	-51.9	-67.3	3.6	1.51e+00	0	35	104	0	60	112626
2026-01-07 17:42:21.19	327.42	20.58	-51.9	-67.3	3.6	1.51e+00	0	35	104	0	60	112760
2026-01-07 17:42:22.20	327.16	20.57	-51.9	-67.3	3.6	1.51e+00	0	36	104	0	60	113125
2026-01-07 17:42:23.21	326.90	20.56	-51.9	-67.3	3.6	1.51e+00	0	35	104	0	60	113064
2026-01-07 17:42:24.22	326.65	20.55	-51.9	-67.3	3.6	1.51e+00	0	35	104	0	60	113047
2026-01-07 17:42:25.23	326.39	20.53	-51.9	-67.3	3.6	1.51e+00	0	36	104	0	60	113456
2026-01-07 17:42:26.25	326.14	20.52	-51.9	-67.3	3.6	1.51e+00	0	35	104	0	60	113486
2026-01-07 17:42:27.26	325.88	20.51	-51.9	-67.3	3.6	1.51e+00	0	35	104	0	60	113509
2026-01-07 17:42:28.27	325.63	20.49	-51.9	-67.3	3.6	1.51e+00	0	35	104	0	60	112860
2026-01-07 17:42:29.27	325.38	20.48	-51.9	-67.3	3.6	1.51e+00	0	35	104	0	60	113373
2026-01-07 17:42:30.29	325.12	20.46	-51.9	-67.3	3.6	1.51e+00	0	35	104	0	60	112947
2026-01-07 17:42:31.30	324.87	20.44	-51.9	-67.3	3.6	1.51e+00	0	35	104	0	60	112915
2026-01-07 17:42:32.31	324.61	20.43	-51.9	-67.3	3.6	1.51e+00	0	35	104	0	60	113466
2026-01-07 17:42:33.32	324.36	20.41	-51.9	-67.3	3.6	1.51e+00	0	35	104	0	60	112769
2026-01-07 17:42:34.33	324.11	20.39	-51.9	-67.3	3.6	1.51e+00	0	35	104	0	60	113330
2026-01-07 17:42:35.34	323.86	20.37	-51.9	-67.3	3.6	1.51e+00	0	35	104	0	60	112741
2026-01-07 17:42:36.35	323.60	20.35	-51.9	-67.3	3.6	1.51e+00	0	35	104	0	60	112699
2026-01-07 17:42:37.36	323.35	20.33	-51.9	-67.3	3.6	1.51e+00	0	35	104	0	60	113259
2026-01-07 17:42:38.37	323.10	20.31	-51.9	-67.3	3.6	1.51e+00	0	35	104	0	60	112993
2026-01-07 17:42:39.38	322.85	20.29	-51.9	-67.3	3.6	1.51e+00	0	35	104	0	60	113165
2026-01-07 17:42:40.39	322.60	20.27	-51.9	-67.3	3.6	1.51e+00	0	35	104	0	60	113268
2026-01-07 17:42:41.41	322.35	20.25	-51.9	-67.3	3.6	1.51e+00	0	36	104	0	60	112683
2026-01-07 17:42:42.42	322.10	20.23	-51.9	-67.3	3.6	1.51e+00	0	35	104	0	60	113055
2026-01-07 17:42:43.43	321.85	20.20	-51.9	-67.3	3.6	1.51e+00	0	35	104	0	60	112784
2026-01-07 17:42:44.44	321.60	20.18	-51.9	-67.3	3.6	1.51e+00	0	36	104	0	60	113105
2026-01-07 17:42:45.45	321.35	20.16	-51.9	-67.3	3.6	1.51e+00	0	36	104	0	60	113441
2026-01-07 17:42:46.46	321.10	20.13	-51.9	-67.3	3.6	1.51e+00	0	35	104	0	60	112462
2026-01-07 17:42:47.47	320.85	20.11	-51.9	-67.3	3.6	1.51e+00	0	36	104	0	60	113192
2026-01-07 17:42:48.48	320.61	20.08	-51.9	-67.3	3.6	1.51e+00	0	35	104	0	60	113020
2026-01-07 17:42:49.49	320.36	20.05	-51.9	-67.3	3.6	1.51e+00	0	36	104	0	60	113079
2026-01-07 17:42:50.51	320.11	20.03	-51.9	-67.3	3.6	1.51e+00	0	36	104	0	60	113304
2026-01-07 17:42:51.52	319.86	20.00	-51.9	-67.3	3.6	1.51e+00	0	36	104	0	60	113291
2026-01-07 17:42:52.53	319.62	19.97	-51.9	-67.3	3.6	1.51e+00	0	36	104	0	60	112420
2026-01-07 17:42:53.54	319.37	19.94	-51.9	-67.3	3.6	1.51e+00	0	35	104	0	60	112767
2026-01-07 17:42:54.55	319.13	19.91	-51.9	-67.2	3.6	1.51e+00	0	36	104	0	60	112298
2026-01-07 17:42:55.56	318.88	19.88	-51.9	-67.3	3.6	1.51e+00	0	35	104	0	60	113421
2026-01-07 17:42:56.57	318.64	19.85	-51.9	-67.4	3.6	1.51e+00	0	35	104	0	60	113775
2026-01-07 17:42:57.58	318.39	19.82	-51.9	-67.4	3.6	1.51e+00	0	36	104	0	60	113741
2026-01-07 17:42:58.59	318.15	19.79	-51.9	-67.3	3.6	1.51e+00	0	35	104	0	60	113453
2026-01-07 17:42:59.61	317.91	19.76	-51.9	-67.3	3.6	1.51e+00	0	35	104	0	60	113343
2026-01-07 17:43:00.62	317.66	19.73	-51.9	-67.4	3.6	1.51e+00	0	35	104	0	60	113785
2026-01-07 17:43:01.63	317.42	19.70	-51.9	-67.3	3.6	1.51e+00	0	35	104	0	60	113357
2026-01-07 17:43:02.64	317.18	19.66	-51.9	-67.3	3.6	1.51e+00	0	35	104	0	60	113286
2026-01-07 17:43:03.65	316.94	19.63	-51.9	-67.3	3.6	1.51e+00	0	36	104	0	60	113177
2026-01-07 17:43:04.66	316.70	19.60	-51.9	-67.4	3.6	1.51e+00	0	35	104	0	60	113759
2026-01-07 17:43:05.67	316.46	19.56	-51.9	-67.3	3.6	1.51e+00	0	35	104	0	60	113222
2026-01-07 17:43:06.68	316.22	19.53	-51.9	-67.3	3.6	1.51e+00	0	35	104	0	60	113550
2026-01-07 17:43:07.70	315.98	19.49	-51.9	-67.3	3.6	1.51e+00	0	36	104	0	60	112887
2026-01-07 17:43:08.71	315.75	19.46	-51.9	-67.3	3.6	1.51e+00	0	36	104	0	60	113647
2026-01-07 17:43:09.72	315.51	19.42	-51.9	-67.3	3.6	1.51e+00	0	35	104	0	60	112715
2026-01-07 17:43:10.73	315.27	19.38	-51.9	-67.3	3.6	1.51e+00	0	36	104	0	60	112387
2026-01-07 17:43:11.74	315.04	19.35	-51.9	-67.3	3.6	1.51e+00	0	36	104	0	60	113233
2026-01-07 17:43:12.75	314.80	19.31	-51.9	-67.3	3.6	1.51e+00	0	35	104	0	60	113125
2026-01-07 17:43:13.76	314.57	19.27	-51.9	-67.3	3.6	1.51e+00	0	35	104	0	60	112825
2026-01-07 17:43:14.77	314.33	19.23	-51.9	-67.3	3.6	1.51e+00	0	35	104	0	60	113362
2026-01-07 17:43:15.78	314.10	19.19	-51.9	-67.3	3.6	1.51e+00	0	35	104	0	60	113223
2026-01-07 17:43:16.79	313.86	19.15	-51.9	-67.3	3.6	1.51e+00	0	36	104	0	60	112612
2026-01-07 17:43:17.80	313.63	19.11	-51.9	-67.3	3.6	1.51e+00	0	35	104	0	60	113141
2026-01-07 17:43:18.81	313.40	19.07	-51.9	-67.3	3.6	1.51e+00	0	35	104	0	60	113111
2026-01-07 17:43:19.82	313.17	19.03	-51.9	-67.3	3.6	1.51e+00	0	35	104	0	60	112899
2026-01-07 17:43:20.84	312.94	18.99	-51.9	-67.3	3.6	1.51e+00	0	35	104	0	60	112962
2026-01-07 17:43:21.85	312.71	18.95	-51.9	-67.3	3.6	1.51e+00	0	35	104	0	60	112959
2026-01-07 17:43:22.86	312.48	18.91	-51.9	-67.3	3.6	1.51e+00	0	36	104	0	60	113309
2026-01-07 17:43:23.87	312.25	18.86	-51.9	-67.3	3.6	1.51e+00	0	35	104	0	60	112910
2026-01-07 17:43:24.88	312.02	18.82	-51.9	-67.3	3.6	1.51e+00	0	35	104	0	60	113324
2026-01-07 17:43:25.89	311.79	18.78	-51.9	-67.3	3.6	1.51e+00	0	35	104	0	60	113115
2026-01-07 17:43:26.90	311.57	18.73	-51.9	-67.3	3.6	1.51e+00	0	35	104	0	60	112815
2026-01-07 17:43:27.91	311.34	18.69	-51.9	-67.3	3.6	1.51e+00	0	36	104	0	60	113536
2026-01-07 17:43:28.92	311.11	18.65	-51.9	-67.3	3.6	1.51e+00	0	36	104	0	60	113247
2026-01-07 17:43:29.94	310.89	18.60	-51.9	-67.3	3.6	1.51e+00	0	36	104	0	60	112455
2026-01-07 17:43:30.95	310.66	18.56	-51.9	-67.3	3.6	1.51e+00	0	36	104	0	60	112695
2026-01-07 17:43:31.96	310.44	18.51	-51.9	-67.3	3.6	1.51e+00	0	36	104	0	60	112988
2026-01-07 17:43:32.97	310.22	18.46	-51.9	-67.3	3.6	1.51e+00	0	35	104	0	60	112927
2026-01-07 17:43:33.98	310.00	18.42	-51.9	-67.3	3.6	1.51e+00	0	35	104	0	60	113368
2026-01-07 17:43:34.99	309.77	18.37	-51.9	-67.3	3.6	1.51e+00	0	36	104	0	60	112949
2026-01-07 17:43:36.00	309.55	18.33	-51.9	-67.3	3.6	1.51e+00	0	35	104	0	60	112807
2026-01-07 17:43:37.01	309.33	18.28	-51.9	-67.3	3.6	1.51e+00	0	36	104	0	60	113006
2026-01-07 17:43:38.02	309.11	18.23	-51.9	-67.3	3.6	1.51e+00	0	36	104	0	60	113098
2026-01-07 17:43:39.03	308.90	18.18	-51.9	-67.3	3.6	1.51e+00	0	35	104	0	60	112961
2026-01-07 17:43:40.05	308.68	18.13	-51.9	-67.3	3.6	1.51e+00	0	36	104	0	60	113081
2026-01-07 17:43:41.06	308.46	18.09	-51.9	-67.3	3.6	1.51e+00	0	35	104	0	60	112840
2026-01-07 17:43:42.07	308.24	18.04	-51.9	-67.3	3.6	1.51e+00	0	36	104	0	60	112776
2026-01-07 17:43:43.08	308.03	17.99	-51.9	-67.3	3.6	1.51e+00	0	35	104	0	60	113113
2026-01-07 17:43:44.09	307.81	17.94	-51.9	-67.3	3.6	1.51e+00	0	35	104	0	60	113008
2026-01-07 17:43:45.10	307.60	17.89	-51.9	-67.3	3.6	1.51e+00	0	36	104	0	60	113396
2026-01-07 17:43:46.11	307.38	17.84	-51.9	-67.3	3.6	1.51e+00	0	35	104	0	60	113148
2026-01-07 17:43:47.12	307.17	17.79	-51.9	-67.3	3.6	1.51e+00	0	35	104	0	60	112975
2026-01-07 17:43:48.13	306.96	17.74	-51.9	-67.3	3.6	1.51e+00	0	35	104	0	60	113201
2026-01-07 17:43:49.14	306.75	17.68	-51.9	-67.3	3.6	1.51e+00	0	35	104	0	60	113345
2026-01-07 17:43:50.16	306.53	17.63	-51.9	-67.3	3.6	1.51e+00	0	35	104	0	60	113005
2026-01-07 17:43:51.17	306.32	17.58	-51.9	-67.3	3.6	1.51e+00	0	35	104	0	60	112796
2026-01-07 17:43:52.18	306.11	17.53	-51.9	-67.3	3.6	1.51e+00	0	35	104	0	60	112799
2026-01-07 17:43:53.19	305.90	17.48	-51.9	-67.3	3.6	1.51e+00	0	35	104	0	60	112654
2026-01-07 17:43:54.20	305.70	17.42	-51.9	-67.3	3.6	1.51e+00	0	35	104	0	60	112530
2026-01-07 17:43:55.21	305.49	17.37	-51.9	-67.3	3.6	1.51e+00	0	35	104	0	60	113548
2026-01-07 17:43:56.22	305.28	17.32	-51.9	-67.3	3.6	1.51e+00	0	35	104	0	60	112879
2026-01-07 17:43:57.24	305.08	17.26	-51.9	-67.3	3.6	1.51e+00	0	35	104	0	60	112857
2026-01-07 17:43:58.24	304.87	17.21	-51.9	-67.3	3.6	1.51e+00	0	35	104	0	60	113042
2026-01-07 17:43:59.26	304.67	17.16	-51.9	-67.3	3.6	1.51e+00	0	35	104	0	60	113296
2026-01-07 17:44:00.27	304.46	17.10	-51.9	-67.3	3.6	1.51e+00	0	35	104	0	60	113006
2026-01-07 17:44:01.28	304.26	17.05	-51.9	-67.3	3.6	1.51e+00	0	35	104	0	60	112834
2026-01-07 17:44:02.29	304.06	16.99	-51.9	-67.3	3.6	1.51e+00	0	35	104	0	60	112635
2026-01-07 17:44:03.30	303.86	16.94	-51.9	-67.3	3.6	1.51e+00	0	35	104	0	60	113174
2026-01-07 17:44:04.31	303.66	16.88	-51.9	-67.4	3.6	1.51e+00	0	35	104	0	60	113686
2026-01-07 17:44:05.32	303.46	16.83	-51.9	-67.3	3.6	1.51e+00	0	35	104	0	60	113589
2026-01-07 17:44:06.33	303.26	16.77	-51.9	-67.3	3.6	1.51e+00	0	35	104	0	60	112638
2026-01-07 17:44:07.34	303.06	16.72	-51.9	-67.3	3.6	1.51e+00	0	36	104	0	60	113270
2026-01-07 17:44:08.36	302.86	16.66	-51.9	-67.3	3.6	1.51e+00	0	35	104	0	60	113233
2026-01-07 17:44:09.37	302.66	16.60	-51.9	-67.3	3.6	1.51e+00	0	35	104	0	60	113121
2026-01-07 17:44:10.38	302.47	16.55	-51.9	-67.3	3.5	1.51e+00	0	35	104	0	60	112631
2026-01-07 17:44:11.39	302.27	16.49	-51.9	-67.3	3.6	1.51e+00	0	35	104	0	60	113446
2026-01-07 17:44:12.40	302.08	16.43	-51.9	-67.3	3.6	1.51e+00	0	35	104	0	60	113365
2026-01-07 17:44:13.41	301.88	16.38	-51.9	-67.3	3.6	1.51e+00	0	35	104	0	60	113237
2026-01-07 17:44:14.42	301.69	16.32	-51.9	-67.3	3.6	1.51e+00	0	35	104	0	60	113396
2026-01-07 17:44:15.43	301.50	16.26	-51.9	-67.3	3.6	1.51e+00	0	36	104	0	60	113241
2026-01-07 17:44:16.44	301.31	16.20	-51.9	-67.3	3.6	1.51e+00	0	35	104	0	60	113299
2026-01-07 17:44:17.46	301.11	16.15	-51.9	-67.3	3.6	1.51e+00	0	35	104	0	60	112792
2026-01-07 17:44:18.47	300.92	16.09	-51.9	-67.3	3.6	1.51e+00	0	35	104	0	60	113168
2026-01-07 17:44:19.48	300.73	16.03	-51.9	-67.3	3.6	1.51e+00	0	35	104	0	60	113117
2026-01-07 17:44:20.49	300.55	15.97	-51.9	-67.3	3.6	1.51e+00	0	35	104	0	60	113237
2026-01-07 17:44:21.50	300.36	15.91	-51.9	-67.3	3.5	1.51e+00	0	35	104	0	60	113155
2026-01-07 17:44:22.51	300.17	15.85	-51.9	-67.3	3.6	1.51e+00	0	35	104	0	60	113555
2026-01-07 17:44:23.52	299.98	15.80	-51.9	-67.3	3.6	1.51e+00	0	36	104	0	60	113467
2026-01-07 17:44:24.53	299.80	15.74	-51.9	-67.3	3.6	1.51e+00	0	36	104	0	60	113287
2026-01-07 17:44:25.54	299.61	15.68	-51.9	-67.3	3.6	1.51e+00	0	35	104	0	60	113089
2026-01-07 17:44:26.55	299.43	15.62	-51.9	-67.3	3.5	1.51e+00	0	36	104	0	60	112999
2026-01-07 17:44:27.57	299.24	15.56	-51.9	-67.3	3.6	1.51e+00	0	36	104	0	60	113000
2026-01-07 17:44:28.58	299.06	15.50	-51.9	-67.3	3.6	1.51e+00	0	36	104	0	60	112569
2026-01-07 17:44:29.59	298.88	15.44	-51.9	-67.3	3.6	1.51e+00	0	36	104	0	60	113103
2026-01-07 17:44:30.60	298.70	15.38	-51.9	-67.3	3.6	1.51e+00	0	35	104	0	60	112749
2026-01-07 17:44:31.61	298.52	15.32	-51.9	-67.3	3.6	1.51e+00	0	35	104	0	60	113183
2026-01-07 17:44:32.62	298.34	15.26	-51.9	-67.3	3.6	1.51e+00	0	35	104	0	60	113377
2026-01-07 17:44:33.63	298.16	15.20	-51.9	-67.3	3.6	1.51e+00	0	35	104	0	60	113575
2026-01-07 17:44:34.64	297.98	15.14	-51.9	-67.3	3.6	1.51e+00	0	36	104	0	60	113111
2026-01-07 17:44:35.66	297.80	15.07	-51.9	-67.3	3.6	1.51e+00	0	35	104	0	60	112607
2026-01-07 17:44:36.67	297.63	15.01	-51.9	-67.3	3.6	1.51e+00	0	35	104	0	60	113017
2026-01-07 17:44:37.68	297.45	14.95	-51.9	-67.3	3.6	1.51e+00	0	36	104	0	60	113359
2026-01-07 17:44:38.69	297.27	14.89	-51.9	-67.3	3.6	1.51e+00	0	35	104	0	60	112870
2026-01-07 17:44:39.70	297.10	14.83	-51.9	-67.3	3.6	1.51e+00	0	36	104	0	60	113169
2026-01-07 17:44:40.71	296.93	14.77	-51.9	-67.3	3.6	1.51e+00	0	36	104	0	60	113436
2026-01-07 17:44:41.72	296.75	14.71	-51.9	-67.4	3.6	1.51e+00	0	36	104	0	60	113888
2026-01-07 17:44:42.73	296.58	14.65	-51.9	-67.3	3.6	1.51e+00	0	36	104	0	60	112967
2026-01-07 17:44:43.74	296.41	14.59	-51.9	-67.3	3.6	1.51e+00	0	36	104	0	60	113117
2026-01-07 17:44:44.75	296.24	14.52	-51.9	-67.3	3.6	1.51e+00	0	36	104	0	60	112986
2026-01-07 17:44:45.76	296.07	14.46	-51.9	-67.3	3.6	1.51e+00	0	36	104	0	60	112633
2026-01-07 17:44:46.77	295.90	14.40	-51.9	-67.4	3.6	1.51e+00	0	35	104	0	60	113910
2026-01-07 17:44:47.79	295.73	14.34	-51.9	-67.3	3.6	1.51e+00	0	36	104	0	60	113194
2026-01-07 17:44:48.80	295.56	14.27	-51.9	-67.3	3.5	1.51e+00	0	35	104	0	60	113315
2026-01-07 17:44:49.81	295.39	14.21	-51.9	-67.3	3.6	1.51e+00	0	35	104	0	60	113453
2026-01-07 17:44:50.82	295.22	14.15	-51.9	-67.3	3.6	1.51e+00	0	35	104	0	60	113369
2026-01-07 17:44:51.83	295.06	14.09	-51.9	-67.3	3.6	1.51e+00	0	36	104	0	60	112753
2026-01-07 17:44:52.84	294.89	14.03	-51.9	-67.4	3.6	1.51e+00	0	36	104	0	60	113727
2026-01-07 17:44:53.85	294.73	13.96	-51.9	-67.3	3.5	1.51e+00	0	35	104	0	60	113269
2026-01-07 17:44:54.86	294.57	13.90	-51.9	-67.3	3.6	1.51e+00	0	35	104	0	60	113112
2026-01-07 17:44:55.87	294.40	13.84	-51.9	-67.3	3.6	1.51e+00	0	35	104	0	60	113561
2026-01-07 17:44:56.88	294.24	13.78	-51.9	-67.3	3.6	1.51e+00	0	35	104	0	60	112710
2026-01-07 17:44:57.89	294.08	13.71	-51.9	-67.3	3.6	1.51e+00	0	36	104	0	60	113038
2026-01-07 17:44:58.90	293.92	13.65	-51.9	-67.3	3.6	1.51e+00	0	36	104	0	60	113092
2026-01-07 17:44:59.91	293.76	13.59	-51.9	-67.3	3.6	1.51e+00	0	36	104	0	60	113091
2026-01-07 17:45:00.93	293.60	13.52	-51.9	-67.3	3.6	1.51e+00	0	35	104	0	60	113273
2026-01-07 17:45:01.94	293.44	13.46	-51.9	-67.3	3.6	1.51e+00	0	36	104	0	60	113041
2026-01-07 17:45:02.95	293.28	13.40	-51.9	-67.3	3.6	1.51e+00	0	36	104	0	60	113311
2026-01-07 17:45:03.96	293.12	13.33	-51.9	-67.3	3.6	1.51e+00	0	36	104	0	60	112699
2026-01-07 17:45:04.97	292.96	13.27	-51.9	-67.3	3.6	1.51e+00	0	35	104	0	60	113105
2026-01-07 17:45:05.98	292.81	13.21	-51.9	-67.3	3.6	1.51e+00	0	36	104	0	60	112681
2026-01-07 17:45:06.99	292.65	13.14	-51.9	-67.3	3.6	1.51e+00	0	35	104	0	60	112886
2026-01-07 17:45:08.00	292.50	13.08	-51.9	-67.3	3.6	1.51e+00	0	35	104	0	60	113439
2026-01-07 17:45:09.01	292.34	13.02	-51.9	-67.3	3.6	1.51e+00	0	35	104	0	60	113224
2026-01-07 17:45:10.02	292.19	12.95	-51.9	-67.3	3.6	1.51e+00	0	35	104	0	60	113601
2026-01-07 17:45:11.03	292.04	12.89	-51.9	-67.3	3.6	1.51e+00	0	36	104	0	60	113025
2026-01-07 17:45:12.05	291.88	12.83	-51.9	-67.3	3.6	1.51e+00	0	36	104	0	60	113210
2026-01-07 17:45:13.06	291.73	12.76	-51.9	-67.3	3.6	1.51e+00	0	36	104	0	60	113088
2026-01-07 17:45:14.07	291.58	12.70	-51.9	-67.3	3.6	1.51e+00	0	36	104	0	60	113061
2026-01-07 17:45:15.08	291.43	12.64	-51.9	-67.3	3.6	1.51e+00	0	35	104	0	60	113526
2026-01-07 17:45:16.09	291.28	12.57	-51.9	-67.3	3.6	1.51e+00	0	36	104	0	60	112889
2026-01-07 17:45:17.10	291.13	12.51	-51.9	-67.3	3.6	1.51e+00	0	36	104	0	60	113060
2026-01-07 17:45:18.11	290.98	12.44	-51.9	-67.4	3.6	1.51e+00	0	36	104	0	60	113697
2026-01-07 17:45:19.12	290.83	12.38	-51.9	-67.3	3.6	1.51e+00	0	36	104	0	60	112825
2026-01-07 17:45:20.13	290.69	12.32	-51.9	-67.3	3.6	1.51e+00	0	36	104	0	60	113289
2026-01-07 17:45:21.15	290.54	12.25	-51.9	-67.3	3.6	1.51e+00	0	36	104	0	60	112801
2026-01-07 17:45:22.16	290.39	12.19	-51.9	-67.3	3.6	1.51e+00	0	36	104	0	60	113289
2026-01-07 17:45:23.17	290.25	12.13	-51.9	-67.3	3.6	1.51e+00	0	36	104	0	60	112862
2026-01-07 17:45:24.18	290.10	12.06	-51.9	-67.3	3.6	1.51e+00	0	36	104	0	60	113139
2026-01-07 17:45:25.19	289.96	12.00	-51.9	-67.3	3.6	1.51e+00	0	35	104	0	60	113489
2026-01-07 17:45:26.20	289.82	11.93	-51.9	-67.3	3.6	1.51e+00	0	36	104	0	60	112895
2026-01-07 17:45:27.21	289.68	11.87	-51.9	-67.3	3.6	1.51e+00	0	36	104	0	60	113307
2026-01-07 17:45:28.22	289.53	11.81	-51.9	-67.3	3.6	1.51e+00	0	36	104	0	60	113270
2026-01-07 17:45:29.23	289.39	11.74	-51.9	-67.3	3.6	1.51e+00	0	36	104	0	60	113128
2026-01-07 17:45:30.24	289.25	11.68	-51.9	-67.3	3.6	1.51e+00	0	36	104	0	60	112565
2026-01-07 17:45:31.25	289.11	11.61	-51.9	-67.3	3.6	1.51e+00	0	35	104	0	60	113178
2026-01-07 17:45:32.27	288.97	11.55	-51.9	-67.3	3.6	1.51e+00	0	36	104	0	60	112787
2026-01-07 17:45:33.28	288.83	11.49	-51.9	-67.3	3.6	1.51e+00	0	35	104	0	60	113054
2026-01-07 17:45:34.29	288.69	11.42	-51.9	-67.3	3.6	1.51e+00	0	36	104	0	60	112399
2026-01-07 17:45:35.30	288.56	11.36	-51.9	-67.3	3.6	1.51e+00	0	36	104	0	60	113242
2026-01-07 17:45:36.31	288.42	11.29	-51.9	-67.3	3.6	1.51e+00	0	35	104	0	60	113102
2026-01-07 17:45:37.32	288.28	11.23	-51.9	-67.3	3.6	1.51e+00	0	36	104	0	60	112660
2026-01-07 17:45:38.33	288.15	11.17	-51.9	-67.4	3.6	1.51e+00	0	36	104	0	60	113717
2026-01-07 17:45:39.34	288.01	11.10	-51.9	-67.3	3.6	1.51e+00	0	36	104	0	60	112860
2026-01-07 17:45:40.36	287.88	11.04	-51.9	-67.3	3.6	1.51e+00	0	35	104	0	60	113560
2026-01-07 17:45:41.37	287.74	10.98	-51.9	-67.3	3.6	1.51e+00	0	36	104	0	60	113303
2026-01-07 17:45:42.38	287.61	10.91	-51.9	-67.3	3.6	1.51e+00	0	35	104	0	60	113112
2026-01-07 17:45:43.39	287.48	10.85	-51.9	-67.3	3.6	1.51e+00	0	35	104	0	60	113291
2026-01-07 17:45:44.40	287.34	10.78	-51.9	-67.3	3.6	1.51e+00	0	36	104	0	60	113563
2026-01-07 17:45:45.41	287.21	10.72	-51.9	-67.3	3.6	1.51e+00	0	35	104	0	60	112880
2026-01-07 17:45:46.42	287.08	10.66	-51.9	-67.3	3.6	1.51e+00	0	36	104	0	60	112910
2026-01-07 17:45:47.43	286.95	10.59	-51.9	-67.4	3.6	1.51e+00	0	36	104	0	60	113954
2026-01-07 17:45:48.44	286.82	10.53	-51.9	-67.3	3.6	1.51e+00	0	35	104	0	60	113378
2026-01-07 17:45:49.46	286.69	10.46	-51.9	-67.3	3.6	1.51e+00	0	35	104	0	60	113471
2026-01-07 17:45:50.47	286.56	10.40	-51.9	-67.3	3.6	1.51e+00	0	36	104	0	60	112915
2026-01-07 17:45:51.48	286.43	10.34	-51.9	-67.3	3.6	1.51e+00	0	36	104	0	60	112753
2026-01-07 17:45:52.49	286.31	10.27	-51.9	-67.3	3.6	1.51e+00	0	35	104	0	60	113352
2026-01-07 17:45:53.50	286.18	10.21	-51.9	-67.3	3.6	1.51e+00	0	35	104	0	60	112839
2026-01-07 17:45:54.51	286.05	10.15	-51.9	-67.3	3.6	1.51e+00	0	35	104	0	60	113331
2026-01-07 17:45:55.52	285.93	10.08	-51.9	-67.3	3.6	1.51e+00	0	35	104	0	60	113235
2026-01-07 17:45:56.53	285.80	10.02	-51.9	-67.3	3.6	1.51e+00	0	36	104	0	60	113308
2026-01-07 17:45:57.54	285.68	9.96	-51.9	-67.3	3.6	1.51e+00	0	36	104	0	60	113610
2026-01-07 17:45:58.56	285.55	9.89	-51.9	-67.3	3.6	1.51e+00	0	36	104	0	60	112831
2026-01-07 17:45:59.57	285.43	9.83	-51.9	-67.3	3.6	1.51e+00	0	35	104	0	60	113062
2026-01-07 17:46:00.58	285.31	9.77	-51.9	-67.3	3.6	1.51e+00	0	35	104	0	60	113501
2026-01-07 17:46:01.59	285.18	9.70	-51.9	-67.3	3.6	1.51e+00	0	35	104	0	60	113181
2026-01-07 17:46:02.60	285.06	9.64	-51.9	-67.3	3.6	1.51e+00	0	35	104	0	60	113311
2026-01-07 17:46:03.61	284.94	9.58	-51.9	-67.3	3.6	1.51e+00	0	35	104	0	60	113154
2026-01-07 17:46:04.62	284.82	9.51	-51.9	-67.3	3.6	1.51e+00	0	36	104	0	60	113042
2026-01-07 17:46:05.63	284.70	9.45	-51.9	-67.3	3.6	1.51e+00	0	35	104	0	60	113163
2026-01-07 17:46:06.64	284.58	9.39	-51.9	-67.3	3.6	1.51e+00	0	35	104	0	60	113127
2026-01-07 17:46:07.65	284.46	9.32	-51.9	-67.3	3.6	1.51e+00	0	35	104	0	60	113071
2026-01-07 17:46:08.66	284.34	9.26	-51.9	-67.3	3.6	1.51e+00	0	35	104	0	60	113605
2026-01-07 17:46:09.67	284.22	9.20	-51.9	-67.4	3.6	1.51e+00	0	35	104	0	60	113709
2026-01-07 17:46:10.68	284.10	9.13	-51.9	-67.3	3.6	1.51e+00	0	35	104	0	60	113219
2026-01-07 17:46:11.69	283.99	9.07	-51.9	-67.3	3.6	1.51e+00	0	35	104	0	60	113247
2026-01-07 17:46:12.71	283.87	9.01	-51.9	-67.4	3.6	1.51e+00	0	35	104	0	60	113886
2026-01-07 17:46:13.72	283.75	8.94	-51.9	-67.3	3.6	1.51e+00	0	35	104	0	60	112898
2026-01-07 17:46:14.73	283.64	8.88	-51.9	-67.3	3.6	1.51e+00	0	36	104	0	60	112973
2026-01-07 17:46:15.74	283.52	8.82	-51.9	-67.3	3.6	1.51e+00	0	35	104	0	60	113277
2026-01-07 17:46:16.75	283.41	8.76	-51.9	-67.2	3.6	1.51e+00	0	35	104	0	60	112281
2026-01-07 17:46:17.76	283.29	8.69	-51.9	-67.3	3.6	1.51e+00	0	36	104	0	60	112816
2026-01-07 17:46:18.77	283.18	8.63	-51.9	-67.3	3.6	1.51e+00	0	35	104	0	60	113300
2026-01-07 17:46:19.78	283.07	8.57	-51.9	-67.3	3.6	1.51e+00	0	35	104	0	60	113081
2026-01-07 17:46:20.80	282.95	8.51	-51.9	-67.3	3.6	1.51e+00	0	36	104	0	60	112844
2026-01-07 17:46:21.81	282.84	8.44	-51.9	-67.3	3.6	1.51e+00	0	36	104	0	60	113080
2026-01-07 17:46:22.82	282.73	8.38	-51.9	-67.3	3.6	1.51e+00	0	35	104	0	60	113018
2026-01-07 17:46:23.83	282.62	8.32	-51.9	-67.3	3.6	1.51e+00	0	35	104	0	60	113597
2026-01-07 17:46:24.84	282.51	8.26	-51.9	-67.3	3.5	1.51e+00	0	36	104	0	60	112888
2026-01-07 17:46:25.85	282.40	8.19	-51.9	-67.3	3.6	1.51e+00	0	35	104	0	60	113247
2026-01-07 17:46:26.86	282.29	8.13	-51.9	-67.3	3.6	1.51e+00	0	36	104	0	60	112969
2026-01-07 17:46:27.87	282.18	8.07	-51.9	-67.3	3.6	1.51e+00	0	36	104	0	60	113521
2026-01-07 17:46:28.89	282.07	8.01	-51.9	-67.3	3.6	1.51e+00	0	36	104	0	60	112778
2026-01-07 17:46:29.90	281.96	7.94	-51.9	-67.3	3.6	1.51e+00	0	36	104	0	60	112797
2026-01-07 17:46:30.91	281.85	7.88	-51.9	-67.3	3.6	1.51e+00	0	35	104	0	60	113054
2026-01-07 17:46:31.92	281.74	7.82	-51.9	-67.3	3.6	1.51e+00	0	35	104	0	60	112856
2026-01-07 17:46:32.93	281.64	7.76	-51.9	-67.3	3.6	1.51e+00	0	35	104	0	60	112778
2026-01-07 17:46:33.94	281.53	7.70	-51.9	-67.3	3.6	1.51e+00	0	35	104	0	60	112971
2026-01-07 17:46:34.95	281.42	7.63	-51.9	-67.3	3.6	1.51e+00	0	35	104	0	60	113205
2026-01-07 17:46:35.96	281.32	7.57	-51.9	-67.3	3.6	1.51e+00	0	36	104	0	60	112900
2026-01-07 17:46:36.97	281.21	7.51	-51.9	-67.3	3.6	1.51e+00	0	36	104	0	60	113400
2026-01-07 17:46:37.98	281.11	7.45	-51.9	-67.3	3.6	1.51e+00	0	36	104	0	60	113365
2026-01-07 17:46:38.99	281.00	7.39	-51.9	-67.4	3.6	1.51e+00	0	36	104	0	60	114279
2026-01-07 17:46:40.01	280.90	7.33	-51.9	-67.3	3.6	1.51e+00	0	36	104	0	60	112966
2026-01-07 17:46:41.02	280.80	7.26	-51.9	-67.3	3.6	1.51e+00	0	36	104	0	60	112643
2026-01-07 17:46:42.03	280.69	7.20	-51.9	-67.3	3.6	1.51e+00	0	36	104	0	60	113372
2026-01-07 17:46:43.04	280.59	7.14	-51.9	-67.3	3.6	1.51e+00	0	36	104	0	60	112696
2026-01-07 17:46:44.05	280.49	7.08	-51.9	-67.3	3.6	1.51e+00	0	36	104	0	60	113545
2026-01-07 17:46:45.06	280.39	7.02	-51.9	-67.3	3.6	1.51e+00	0	36	104	0	60	112552
2026-01-07 17:46:46.07	280.29	6.96	-51.9	-67.3	3.6	1.51e+00	0	36	104	0	60	112872
2026-01-07 17:46:47.08	280.19	6.90	-51.9	-67.3	3.6	1.51e+00	0	36	104	0	60	113448
2026-01-07 17:46:48.09	280.09	6.84	-51.9	-67.3	3.6	1.51e+00	0	36	104	0	60	112762
2026-01-07 17:46:49.10	279.99	6.78	-51.9	-67.3	3.6	1.51e+00	0	36	104	0	60	113148
2026-01-07 17:46:50.11	279.89	6.71	-51.9	-67.3	3.6	1.51e+00	0	36	104	0	60	113446
2026-01-07 17:46:51.13	279.79	6.65	-51.9	-67.3	3.6	1.51e+00	0	35	104	0	60	113377
2026-01-07 17:46:52.14	279.69	6.59	-51.9	-67.3	3.6	1.51e+00	0	35	104	0	60	113417
2026-01-07 17:46:53.15	279.59	6.53	-51.9	-67.3	3.6	1.51e+00	0	35	104	0	60	113634
2026-01-07 17:46:54.16	279.49	6.47	-51.9	-67.3	3.6	1.51e+00	0	35	104	0	60	113373
2026-01-07 17:46:55.17	279.40	6.41	-51.9	-67.3	3.6	1.51e+00	0	35	104	0	60	113314
2026-01-07 17:46:56.18	279.30	6.35	-51.9	-67.3	3.6	1.51e+00	0	36	104	0	60	113330
2026-01-07 17:46:57.19	279.20	6.29	-51.9	-67.3	3.6	1.51e+00	0	35	104	0	60	113526
2026-01-07 17:46:58.21	279.11	6.23	-51.9	-67.3	3.6	1.51e+00	0	35	104	0	60	113409
2026-01-07 17:46:59.22	279.01	6.17	-51.9	-67.3	3.6	1.51e+00	0	35	104	0	60	112907
2026-01-07 17:47:00.23	278.92	6.11	-51.9	-67.3	3.6	1.51e+00	0	35	104	0	60	113106
2026-01-07 17:47:01.24	278.82	6.05	-51.9	-67.3	3.6	1.51e+00	0	36	104	0	60	113073
2026-01-07 17:47:02.25	278.73	5.99	-51.9	-67.3	3.6	1.51e+00	0	35	104	0	60	113175
2026-01-07 17:47:03.26	278.63	5.93	-51.9	-67.3	3.6	1.51e+00	0	35	104	0	60	112793
2026-01-07 17:47:04.27	278.54	5.87	-51.9	-67.3	3.6	1.51e+00	0	35	104	0	60	112849
2026-01-07 17:47:05.28	278.45	5.81	-51.9	-67.3	3.6	1.51e+00	0	35	104	0	60	113374
2026-01-07 17:47:06.29	278.35	5.75	-51.9	-67.3	3.6	1.51e+00	0	36	104	0	60	113452
2026-01-07 17:47:07.31	278.26	5.69	-51.9	-67.3	3.6	1.51e+00	0	36	104	0	60	113069
2026-01-07 17:47:08.32	278.17	5.63	-51.9	-67.3	3.6	1.51e+00	0	35	104	0	60	113275
2026-01-07 17:47:09.32	278.08	5.57	-51.9	-67.4	3.6	1.51e+00	0	35	104	0	60	113918
2026-01-07 17:47:10.34	277.98	5.51	-51.9	-67.3	3.6	1.51e+00	0	35	104	0	60	112815
2026-01-07 17:47:11.35	277.89	5.45	-51.9	-67.3	3.6	1.51e+00	0	36	104	0	60	112775
2026-01-07 17:47:12.36	277.80	5.39	-51.9	-67.4	3.6	1.51e+00	0	36	104	0	60	113799
2026-01-07 17:47:13.37	277.71	5.33	-51.9	-67.3	3.5	1.51e+00	0	35	104	0	60	112894
2026-01-07 17:47:14.38	277.62	5.27	-51.9	-67.4	3.6	1.51e+00	0	36	104	0	60	113805
2026-01-07 17:47:15.39	277.53	5.21	-51.9	-67.3	3.6	1.51e+00	0	36	104	0	60	112872
2026-01-07 17:47:16.40	277.45	5.15	-51.9	-67.3	3.6	1.51e+00	0	36	104	0	60	112381
2026-01-07 17:47:17.41	277.36	5.09	-51.9	-67.3	3.6	1.51e+00	0	36	104	0	60	113239
2026-01-07 17:47:18.42	277.27	5.03	-51.9	-67.3	3.6	1.51e+00	0	36	104	0	60	112923
2026-01-07 17:47:19.43	277.18	4.97	-51.9	-67.3	3.6	1.51e+00	0	36	104	0	60	113005
2026-01-07 17:47:20.44	277.09	4.92	-51.9	-67.3	3.6	1.51e+00	0	36	104	0	60	113471
2026-01-07 17:47:21.46	277.01	4.86	-51.9	-67.3	3.6	1.51e+00	0	35	104	0	60	113384
2026-01-07 17:47:22.47	276.92	4.80	-51.9	-67.3	3.6	1.51e+00	0	35	104	0	60	113260
2026-01-07 17:47:23.48	276.83	4.74	-51.9	-67.3	3.6	1.51e+00	0	36	104	0	60	113033
2026-01-07 17:47:24.49	276.75	4.68	-51.9	-67.3	3.6	1.51e+00	0	36	104	0	60	113570
2026-01-07 17:47:25.50	276.66	4.62	-51.9	-67.3	3.6	1.51e+00	0	35	104	0	60	113037
2026-01-07 17:47:26.51	276.58	4.56	-51.9	-67.3	3.6	1.51e+00	0	36	104	0	60	113351
2026-01-07 17:47:27.52	276.49	4.50	-51.9	-67.3	3.6	1.51e+00	0	35	104	0	60	113047
2026-01-07 17:47:28.54	276.40	4.45	-51.9	-67.4	3.6	1.51e+00	0	36	104	0	60	113716
2026-01-07 17:47:29.55	276.32	4.39	-51.9	-67.3	3.6	1.51e+00	0	35	104	0	60	112952
2026-01-07 17:47:30.56	276.24	4.33	-51.9	-67.3	3.5	1.51e+00	0	35	104	0	60	113382
2026-01-07 17:47:31.57	276.15	4.27	-51.9	-67.3	3.6	1.51e+00	0	36	104	0	60	113456
2026-01-07 17:47:32.58	276.07	4.21	-51.9	-67.3	3.6	1.51e+00	0	36	104	0	60	112979
2026-01-07 17:47:33.59	275.99	4.15	-51.9	-67.3	3.6	1.51e+00	0	36	104	0	60	113388
2026-01-07 17:47:34.60	275.90	4.10	-51.9	-67.3	3.6	1.51e+00	0	36	104	0	60	113620
2026-01-07 17:47:35.61	275.82	4.04	-51.9	-67.3	3.6	1.51e+00	0	36	104	0	60	113490
2026-01-07 17:47:36.62	275.74	3.98	-51.9	-67.3	3.6	1.51e+00	0	35	104	0	60	112600
2026-01-07 17:47:37.63	275.66	3.92	-51.9	-67.3	3.6	1.51e+00	0	35	104	0	60	113402
2026-01-07 17:47:38.65	275.58	3.86	-51.9	-67.3	3.6	1.51e+00	0	36	104	0	60	112681
2026-01-07 17:47:39.66	275.50	3.81	-51.9	-67.3	3.6	1.51e+00	0	35	104	0	60	113304
