passes_logs/2026/01/07/R4.6S_Anadyr_2ch/R4.6S_Anadyr_2ch__20260107_200123_FENGYUN_3E_rec.log

#Pass ID: 20260107_200123_FENGYUN 3E
#Satellite: FENGYUN 3E
#Configuration: FENGYUN 3E
#almurnet v.1.7.20251203
#Start time: 2026-01-07 20:01:26

#Version: 2.2.20231116
#Station: R4.6S_Anadyr_2ch
#Location: 177.4865 lon 64.73178 lat
#TLE: 1 49008U 21062A   25350.97288215  .00000176  00000+0  10353-3 0  9997
#TLE: 2 49008  98.7477 351.4440 0000638 234.3856 125.7261 14.19881381230726

#Time	Az	El	Level	Level2	SNR	BER	BlckErr	Temp	State	Recorded	gain1	gain2
2026-01-07 20:01:26.14	23.20	0.18	-51.6	-61.7	3.3	8.40e-01	0	34	0	0	60	59684
2026-01-07 20:01:27.15	23.18	0.24	-51.6	-63.1	3.6	8.46e-01	0	34	104	0	60	70197
2026-01-07 20:01:28.16	23.16	0.30	-51.6	-63.1	3.6	8.45e-01	0	34	104	0	60	70211
2026-01-07 20:01:29.17	23.13	0.36	-51.6	-63.1	3.6	8.44e-01	0	34	104	0	60	70484
2026-01-07 20:01:30.18	23.11	0.42	-51.6	-63.1	3.6	8.45e-01	0	34	104	0	60	70464
2026-01-07 20:01:31.19	23.08	0.48	-51.6	-63.2	3.6	8.46e-01	0	34	104	0	60	70929
2026-01-07 20:01:32.20	23.06	0.54	-51.7	-63.3	3.6	8.46e-01	0	34	104	0	60	71805
2026-01-07 20:01:33.21	23.04	0.60	-51.8	-63.3	3.6	8.44e-01	0	34	104	0	60	71810
2026-01-07 20:01:34.22	23.01	0.66	-51.7	-63.3	3.6	8.46e-01	0	34	104	0	60	72061
2026-01-07 20:01:35.23	22.99	0.72	-51.7	-63.3	3.6	8.45e-01	0	34	104	0	60	71992
2026-01-07 20:01:36.24	22.96	0.78	-51.8	-63.3	3.6	8.45e-01	0	34	104	0	60	72291
2026-01-07 20:01:37.25	22.94	0.84	-51.8	-63.3	3.6	8.44e-01	0	34	104	0	60	71847
2026-01-07 20:01:38.26	22.91	0.90	-51.8	-63.3	3.6	8.46e-01	0	34	104	0	60	71737
2026-01-07 20:01:39.27	22.89	0.96	-51.6	-63.2	3.6	8.45e-01	0	34	104	0	60	71121
2026-01-07 20:01:40.29	22.86	1.02	-51.7	-63.1	3.6	8.46e-01	0	34	104	0	60	70876
2026-01-07 20:01:41.30	22.84	1.09	-51.6	-63.1	3.6	8.46e-01	0	35	104	0	60	70259
2026-01-07 20:01:42.31	22.81	1.15	-51.4	-63.0	3.6	8.45e-01	0	35	104	0	60	69371
2026-01-07 20:01:43.32	22.79	1.21	-51.2	-62.7	3.6	8.46e-01	0	34	104	0	60	67664
2026-01-07 20:01:44.33	22.76	1.27	-51.0	-62.6	3.6	8.45e-01	0	35	104	0	60	66435
2026-01-07 20:01:45.34	22.73	1.33	-51.0	-62.4	3.6	8.45e-01	0	35	104	0	60	65237
2026-01-07 20:01:46.35	22.71	1.39	-50.5	-62.1	3.6	8.43e-01	0	35	104	0	60	62531
2026-01-07 20:01:47.36	22.68	1.46	-50.4	-61.8	3.6	8.47e-01	0	35	104	0	60	60357
2026-01-07 20:01:48.37	22.66	1.52	-50.4	-61.7	3.6	8.45e-01	0	35	104	0	60	60136
2026-01-07 20:01:49.39	22.63	1.58	-50.3	-61.7	3.6	8.47e-01	0	34	104	0	60	59667
2026-01-07 20:01:50.40	22.60	1.64	-50.3	-61.7	3.6	8.45e-01	0	34	104	0	60	60103
2026-01-07 20:01:51.41	22.58	1.71	-50.4	-61.7	3.6	8.45e-01	0	35	104	0	60	60083
2026-01-07 20:01:52.42	22.55	1.77	-50.3	-61.7	3.6	8.44e-01	0	35	104	0	60	60118
2026-01-07 20:01:53.43	22.52	1.83	-50.3	-61.7	3.6	8.45e-01	0	35	104	0	60	59817
2026-01-07 20:01:54.44	22.50	1.89	-50.3	-61.5	3.6	8.45e-01	0	35	104	0	60	58874
2026-01-07 20:01:55.45	22.47	1.96	-50.3	-61.4	3.6	8.45e-01	0	35	104	0	60	57959
2026-01-07 20:01:56.46	22.44	2.02	-50.3	-61.1	3.6	8.45e-01	0	35	104	0	60	56114
2026-01-07 20:01:57.47	22.41	2.08	-50.3	-61.0	3.6	8.45e-01	0	35	104	0	60	55501
2026-01-07 20:01:58.48	22.39	2.15	-50.3	-61.1	3.6	8.46e-01	0	35	104	0	60	55896
2026-01-07 20:01:59.50	22.36	2.21	-50.3	-61.1	3.6	8.45e-01	0	35	104	0	60	55925
2026-01-07 20:02:00.51	22.33	2.27	-50.3	-61.3	3.6	8.46e-01	0	35	104	0	60	57320
2026-01-07 20:02:01.52	22.30	2.34	-50.3	-61.5	3.6	8.45e-01	0	35	104	0	60	58673
2026-01-07 20:02:02.53	22.28	2.40	-50.3	-61.7	3.6	8.45e-01	0	35	104	0	60	60149
2026-01-07 20:02:03.54	22.25	2.47	-50.3	-61.7	3.6	8.45e-01	0	35	104	0	60	60278
2026-01-07 20:02:04.55	22.22	2.53	-50.3	-61.7	3.6	8.46e-01	0	35	104	0	60	60036
2026-01-07 20:02:05.56	22.19	2.59	-50.3	-61.6	3.6	8.45e-01	0	35	104	0	60	59133
2026-01-07 20:02:06.57	22.16	2.66	-50.3	-61.3	3.6	8.45e-01	0	35	104	0	60	57299
2026-01-07 20:02:07.58	22.13	2.72	-50.3	-61.0	3.6	8.46e-01	0	35	104	0	60	55580
2026-01-07 20:02:08.60	22.10	2.79	-50.3	-60.8	3.6	8.46e-01	0	35	104	0	60	54318
2026-01-07 20:02:09.61	22.08	2.85	-50.2	-60.3	3.6	8.46e-01	0	35	104	0	60	50882
2026-01-07 20:02:10.62	22.05	2.92	-50.1	-60.0	3.6	8.45e-01	0	35	104	0	60	49104
2026-01-07 20:02:11.63	22.02	2.98	-50.1	-59.6	3.6	8.44e-01	0	35	104	0	60	47122
2026-01-07 20:02:12.64	21.99	3.05	-50.1	-59.7	3.6	8.45e-01	0	35	104	0	60	47521
2026-01-07 20:02:13.65	21.96	3.12	-50.2	-60.2	3.6	8.46e-01	0	35	104	0	60	50531
2026-01-07 20:02:14.66	21.93	3.18	-50.3	-60.9	3.6	8.45e-01	0	35	104	0	60	54839
2026-01-07 20:02:15.67	21.90	3.25	-50.2	-60.1	3.6	8.47e-01	0	35	104	0	60	50053
2026-01-07 20:02:16.68	21.87	3.31	-49.8	-57.2	4.4	8.33e-01	0	35	104	0	60	35755
2026-01-07 20:02:17.69	21.84	3.38	-48.8	-52.8	7.0	3.12e-01	0	35	0	0	60	21581
2026-01-07 20:02:18.70	21.81	3.44	-47.5	-50.3	10.2	1.49e-02	0	35	102	1048576	60	16108
2026-01-07 20:02:19.71	21.78	3.51	-46.1	-48.2	12.5	4.55e-04	0	35	102	1048576	60	12629
2026-01-07 20:02:20.73	21.75	3.58	-44.7	-46.1	14.6	8.00e-06	0	35	102	1048576	60	10009
2026-01-07 20:02:21.74	21.72	3.65	-43.5	-44.8	16.0	0.00e+00	0	35	102	1048576	60	8550
2026-01-07 20:02:22.75	21.68	3.71	-42.5	-43.5	17.3	0.00e+00	0	35	102	1048576	60	7401
2026-01-07 20:02:23.76	21.65	3.78	-42.1	-43.0	17.7	0.00e+00	0	35	102	1048576	60	6989
2026-01-07 20:02:24.77	21.62	3.85	-41.8	-42.7	18.1	0.00e+00	0	35	102	1048576	60	6759
2026-01-07 20:02:25.78	21.59	3.91	-41.8	-42.7	18.1	0.00e+00	0	35	102	1048576	60	6736
2026-01-07 20:02:26.79	21.56	3.98	-42.1	-43.1	17.7	0.00e+00	0	35	102	1048576	60	7052
2026-01-07 20:02:27.80	21.53	4.05	-43.4	-44.6	15.9	0.00e+00	0	35	102	1048576	60	8351
2026-01-07 20:02:28.81	21.49	4.12	-43.4	-44.7	15.7	0.00e+00	0	35	102	1048576	60	8441
2026-01-07 20:02:29.82	21.46	4.18	-43.5	-44.8	14.1	0.00e+00	0	35	102	1048576	60	8562
2026-01-07 20:02:30.83	21.43	4.25	-41.6	-42.5	18.1	3.02e-01	0	35	104	1048576	60	6613
2026-01-07 20:02:31.84	21.40	4.32	-47.0	-49.8	7.8	0.00e+00	0	35	0	1048576	60	15215
2026-01-07 20:02:32.85	21.37	4.39	-42.5	-43.6	6.1	7.91e-01	0	35	104	1048576	60	7441
2026-01-07 20:02:33.86	21.33	4.46	-38.7	-39.4	21.5	0.00e+00	0	35	0	1048576	56	5815
2026-01-07 20:02:34.88	21.30	4.53	-37.8	-38.6	22.3	0.00e+00	0	35	0	1048576	56	5271
2026-01-07 20:02:35.89	21.27	4.60	-37.8	-38.5	22.3	0.00e+00	0	35	0	1048576	54	5872
2026-01-07 20:02:36.90	21.23	4.66	-37.6	-38.4	22.5	0.00e+00	0	35	0	1048576	54	5771
2026-01-07 20:02:37.91	21.20	4.73	-37.8	-38.5	22.3	0.00e+00	0	35	0	1048576	54	5886
2026-01-07 20:02:38.92	21.17	4.80	-37.9	-38.6	22.2	0.00e+00	0	35	101	1048576	54	5953
2026-01-07 20:02:39.93	21.13	4.87	-37.9	-38.7	22.3	0.00e+00	0	35	101	1048576	54	5991
2026-01-07 20:02:40.94	21.10	4.94	-37.7	-38.4	22.5	0.00e+00	0	35	101	1048576	54	5793
2026-01-07 20:02:41.95	21.06	5.01	-37.7	-38.5	22.4	0.00e+00	0	35	101	1048576	54	5859
2026-01-07 20:02:42.97	21.03	5.08	-37.5	-38.2	22.7	0.00e+00	0	35	101	1048576	54	5676
2026-01-07 20:02:43.98	20.99	5.15	-37.7	-38.5	22.5	0.00e+00	0	35	101	1048576	54	5836
2026-01-07 20:02:44.99	20.96	5.22	-37.7	-38.5	22.3	0.00e+00	0	35	101	1048576	54	5850
2026-01-07 20:02:46.00	20.92	5.29	-37.5	-38.2	22.7	0.00e+00	0	35	101	1048576	54	5670
2026-01-07 20:02:47.01	20.89	5.37	-37.5	-38.2	22.7	0.00e+00	0	35	101	1048576	54	5693
2026-01-07 20:02:48.02	20.85	5.44	-37.4	-38.1	22.9	0.00e+00	0	35	101	1048576	54	5610
2026-01-07 20:02:49.03	20.82	5.51	-37.3	-38.0	22.8	0.00e+00	0	35	101	1048576	54	5541
2026-01-07 20:02:50.04	20.78	5.58	-37.6	-38.3	22.6	0.00e+00	0	35	101	1048576	54	5761
2026-01-07 20:02:51.05	20.75	5.65	-37.4	-38.1	22.8	0.00e+00	0	35	101	1048576	54	5622
2026-01-07 20:02:52.06	20.71	5.72	-37.4	-38.1	22.8	0.00e+00	0	35	101	1048576	54	5619
2026-01-07 20:02:53.07	20.67	5.79	-37.3	-38.1	22.8	0.00e+00	0	35	101	1048576	54	5592
2026-01-07 20:02:54.08	20.64	5.87	-37.3	-38.1	22.9	0.00e+00	0	35	101	1048576	54	5581
2026-01-07 20:02:55.09	20.60	5.94	-37.2	-38.0	23.0	0.00e+00	0	35	101	1048576	54	5505
2026-01-07 20:02:56.11	20.56	6.01	-37.2	-37.9	23.0	0.00e+00	0	35	101	1048576	54	5473
2026-01-07 20:02:57.12	20.52	6.08	-37.2	-37.9	23.1	0.00e+00	0	35	101	1048576	54	5479
2026-01-07 20:02:58.13	20.49	6.16	-37.3	-38.0	23.0	0.00e+00	0	35	101	1048576	54	5548
2026-01-07 20:02:59.14	20.45	6.23	-37.1	-37.8	23.2	0.00e+00	0	35	101	1048576	52	6096
2026-01-07 20:03:00.15	20.41	6.30	-37.4	-38.1	23.0	0.00e+00	0	35	101	1048576	52	6262
2026-01-07 20:03:01.16	20.37	6.38	-37.2	-37.9	23.2	0.00e+00	0	35	101	1048576	52	6121
2026-01-07 20:03:02.17	20.34	6.45	-37.1	-37.9	23.2	0.00e+00	0	35	101	1048576	52	6108
2026-01-07 20:03:03.18	20.30	6.52	-37.1	-37.9	23.2	0.00e+00	0	35	101	1048576	52	6109
2026-01-07 20:03:04.19	20.26	6.60	-37.1	-37.8	23.2	0.00e+00	0	35	101	1048576	52	6092
2026-01-07 20:03:05.20	20.22	6.67	-37.0	-37.7	23.3	0.00e+00	0	35	101	1048576	52	6011
2026-01-07 20:03:06.22	20.18	6.75	-37.0	-37.7	23.3	0.00e+00	0	35	101	1048576	52	6025
2026-01-07 20:03:07.23	20.14	6.82	-37.0	-37.7	23.4	0.00e+00	0	35	101	1048576	52	6010
2026-01-07 20:03:08.24	20.10	6.90	-36.9	-37.6	23.4	0.00e+00	0	36	101	1048576	52	5923
2026-01-07 20:03:09.25	20.06	6.97	-36.9	-37.6	23.4	0.00e+00	0	35	101	1048576	52	5930
2026-01-07 20:03:10.26	20.02	7.05	-37.0	-37.7	23.4	0.00e+00	0	35	101	1048576	52	6010
2026-01-07 20:03:11.27	19.98	7.12	-37.0	-37.7	23.4	0.00e+00	0	36	101	1048576	52	6002
2026-01-07 20:03:12.28	19.94	7.20	-36.8	-37.5	23.7	0.00e+00	0	35	101	1048576	52	5849
2026-01-07 20:03:13.29	19.90	7.27	-36.9	-37.5	23.6	0.00e+00	0	35	101	1048576	52	5896
2026-01-07 20:03:14.30	19.86	7.35	-36.8	-37.5	23.5	0.00e+00	0	35	101	1048576	52	5858
2026-01-07 20:03:15.31	19.82	7.43	-37.0	-37.7	23.4	0.00e+00	0	35	101	1048576	52	6024
2026-01-07 20:03:16.32	19.78	7.50	-36.8	-37.5	23.7	0.00e+00	0	35	101	1048576	52	5829
2026-01-07 20:03:17.33	19.73	7.58	-36.8	-37.5	23.6	0.00e+00	0	35	101	1048576	52	5881
2026-01-07 20:03:18.34	19.69	7.66	-37.1	-37.8	23.3	0.00e+00	0	35	101	1048576	52	6037
2026-01-07 20:03:19.36	19.65	7.73	-36.8	-37.5	23.7	0.00e+00	0	35	101	1048576	52	5841
2026-01-07 20:03:20.37	19.61	7.81	-36.9	-37.6	23.6	0.00e+00	0	36	101	1048576	52	5956
2026-01-07 20:03:21.38	19.56	7.89	-36.5	-37.2	24.0	0.00e+00	0	36	101	1048576	52	5670
2026-01-07 20:03:22.39	19.52	7.97	-36.6	-37.3	23.9	0.00e+00	0	35	101	1048576	52	5751
2026-01-07 20:03:23.40	19.48	8.05	-36.6	-37.3	24.0	0.00e+00	0	36	101	1048576	52	5696
2026-01-07 20:03:24.41	19.43	8.12	-36.9	-37.5	23.8	0.00e+00	0	35	101	1048576	52	5889
2026-01-07 20:03:25.42	19.39	8.20	-36.5	-37.2	24.1	0.00e+00	0	35	101	1048576	52	5653
2026-01-07 20:03:26.43	19.35	8.28	-36.5	-37.2	23.9	0.00e+00	0	35	101	1048576	52	5667
2026-01-07 20:03:27.44	19.30	8.36	-36.6	-37.3	23.9	0.00e+00	0	35	101	1048576	52	5741
2026-01-07 20:03:28.45	19.26	8.44	-36.4	-37.1	24.1	0.00e+00	0	36	101	1048576	52	5609
2026-01-07 20:03:29.46	19.21	8.52	-36.4	-37.1	24.1	0.00e+00	0	36	101	1048576	52	5601
2026-01-07 20:03:30.47	19.17	8.60	-36.4	-37.1	24.2	0.00e+00	0	35	101	1048576	52	5606
2026-01-07 20:03:31.48	19.12	8.68	-36.3	-36.9	24.3	0.00e+00	0	36	101	1048576	52	5498
2026-01-07 20:03:32.49	19.08	8.76	-36.3	-37.0	24.2	0.00e+00	0	36	101	1048576	52	5537
2026-01-07 20:03:33.51	19.03	8.84	-36.3	-37.0	24.2	0.00e+00	0	36	101	1048576	52	5522
2026-01-07 20:03:34.52	18.99	8.92	-36.3	-37.0	24.2	0.00e+00	0	36	101	1048576	52	5524
2026-01-07 20:03:35.53	18.94	9.00	-36.4	-37.1	24.2	0.00e+00	0	36	101	1048576	52	5568
2026-01-07 20:03:36.54	18.89	9.08	-36.4	-37.1	24.1	0.00e+00	0	35	101	1048576	52	5596
2026-01-07 20:03:37.55	18.85	9.16	-36.4	-37.1	24.1	0.00e+00	0	35	101	1048576	52	5586
2026-01-07 20:03:38.56	18.80	9.24	-36.2	-36.9	24.4	0.00e+00	0	36	101	1048576	52	5463
2026-01-07 20:03:39.57	18.75	9.33	-36.2	-36.9	24.4	0.00e+00	0	35	101	1048576	52	5461
2026-01-07 20:03:40.58	18.70	9.41	-36.4	-37.1	24.2	0.00e+00	0	36	101	1048576	52	5596
2026-01-07 20:03:41.59	18.66	9.49	-36.1	-36.8	24.4	0.00e+00	0	35	101	1048576	50	6062
2026-01-07 20:03:42.61	18.61	9.57	-36.3	-37.0	24.2	0.00e+00	0	35	101	1048576	50	6180
2026-01-07 20:03:43.61	18.56	9.66	-36.2	-36.8	24.4	0.00e+00	0	36	101	1048576	50	6094
2026-01-07 20:03:44.62	18.51	9.74	-36.0	-36.7	24.4	0.00e+00	0	36	101	1048576	50	6003
2026-01-07 20:03:45.64	18.46	9.82	-36.2	-36.9	24.3	0.00e+00	0	36	101	1048576	50	6120
2026-01-07 20:03:46.65	18.41	9.91	-36.0	-36.7	24.5	0.00e+00	0	35	101	1048576	50	5995
2026-01-07 20:03:47.66	18.36	9.99	-35.9	-36.6	24.6	0.00e+00	0	35	101	1048576	50	5935
2026-01-07 20:03:48.67	18.31	10.07	-36.0	-36.7	24.5	0.00e+00	0	35	101	1048576	50	6012
2026-01-07 20:03:49.68	18.26	10.16	-36.0	-36.7	24.7	0.00e+00	0	36	101	1048576	50	5995
2026-01-07 20:03:50.69	18.21	10.24	-36.0	-36.7	24.5	0.00e+00	0	36	101	1048576	50	5997
2026-01-07 20:03:51.70	18.16	10.33	-36.3	-36.9	24.4	0.00e+00	0	35	101	1048576	50	6158
2026-01-07 20:03:52.71	18.11	10.41	-36.1	-36.8	24.5	0.00e+00	0	36	101	1048576	50	6036
2026-01-07 20:03:53.72	18.05	10.50	-35.9	-36.6	24.6	0.00e+00	0	35	101	1048576	50	5913
2026-01-07 20:03:54.74	18.00	10.58	-35.8	-36.5	24.8	0.00e+00	0	35	101	1048576	50	5836
2026-01-07 20:03:55.75	17.95	10.67	-35.9	-36.6	24.7	0.00e+00	0	35	101	1048576	50	5925
2026-01-07 20:03:56.76	17.90	10.76	-35.7	-36.4	24.8	0.00e+00	0	35	101	1048576	50	5782
2026-01-07 20:03:57.77	17.84	10.84	-35.6	-36.2	25.0	0.00e+00	0	35	101	1048576	50	5692
2026-01-07 20:03:58.78	17.79	10.93	-35.7	-36.4	24.8	0.00e+00	0	35	101	1048576	50	5764
2026-01-07 20:03:59.79	17.74	11.02	-35.7	-36.4	24.9	0.00e+00	0	36	101	1048576	50	5788
2026-01-07 20:04:00.80	17.68	11.10	-35.7	-36.3	24.9	0.00e+00	0	36	101	1048576	50	5749
2026-01-07 20:04:01.81	17.63	11.19	-35.6	-36.3	25.0	0.00e+00	0	35	101	1048576	50	5710
2026-01-07 20:04:02.82	17.57	11.28	-35.6	-36.2	25.0	0.00e+00	0	35	101	1048576	50	5694
2026-01-07 20:04:03.83	17.52	11.37	-35.6	-36.3	25.0	0.00e+00	0	35	101	1048576	50	5709
2026-01-07 20:04:04.84	17.46	11.46	-35.6	-36.2	25.0	0.00e+00	0	36	101	1048576	50	5695
2026-01-07 20:04:05.85	17.41	11.55	-35.5	-36.1	25.1	0.00e+00	0	36	101	1048576	50	5603
2026-01-07 20:04:06.86	17.35	11.63	-35.4	-36.1	25.2	0.00e+00	0	35	101	1048576	50	5602
2026-01-07 20:04:07.88	17.29	11.73	-35.4	-36.1	25.2	0.00e+00	0	36	101	1048576	50	5581
2026-01-07 20:04:08.89	17.23	11.81	-35.6	-36.2	25.1	0.00e+00	0	36	101	1048576	50	5662
2026-01-07 20:04:09.90	17.18	11.90	-35.4	-36.0	25.2	0.00e+00	0	36	101	1048576	50	5563
2026-01-07 20:04:10.91	17.12	12.00	-35.3	-36.0	25.3	0.00e+00	0	35	101	1048576	50	5510
2026-01-07 20:04:11.92	17.06	12.09	-35.2	-35.8	25.3	0.00e+00	0	36	101	1048576	50	5434
2026-01-07 20:04:12.93	17.00	12.18	-35.2	-35.9	25.2	0.00e+00	0	36	101	1048576	50	5465
2026-01-07 20:04:13.94	16.94	12.27	-35.3	-36.0	25.3	0.00e+00	0	36	101	1048576	50	5529
2026-01-07 20:04:14.95	16.88	12.36	-35.2	-35.9	25.4	0.00e+00	0	36	101	1048576	50	5467
2026-01-07 20:04:15.96	16.82	12.45	-35.3	-35.9	25.4	0.00e+00	0	36	101	1048576	50	5475
2026-01-07 20:04:16.98	16.76	12.54	-35.3	-36.0	25.3	0.00e+00	0	36	101	1048576	50	5518
2026-01-07 20:04:17.99	16.70	12.64	-35.3	-35.9	25.3	0.00e+00	0	36	101	1048576	50	5489
2026-01-07 20:04:19.00	16.64	12.73	-35.5	-36.2	25.2	0.00e+00	0	36	101	1048576	50	5642
2026-01-07 20:04:20.01	16.58	12.82	-35.5	-36.1	25.1	0.00e+00	0	36	101	1048576	50	5605
2026-01-07 20:04:21.02	16.52	12.92	-35.4	-36.0	25.1	0.00e+00	0	36	101	1048576	50	5560
2026-01-07 20:04:22.03	16.46	13.01	-35.5	-36.1	25.2	0.00e+00	0	36	101	1048576	50	5625
2026-01-07 20:04:23.04	16.39	13.10	-35.6	-36.3	25.0	0.00e+00	0	36	101	1048576	50	5711
2026-01-07 20:04:24.05	16.33	13.20	-35.4	-36.1	25.3	0.00e+00	0	36	101	1048576	50	5591
2026-01-07 20:04:25.06	16.27	13.29	-35.6	-36.2	25.2	0.00e+00	0	36	101	1048576	50	5670
2026-01-07 20:04:26.07	16.20	13.39	-35.6	-36.3	25.0	0.00e+00	0	36	101	1048576	50	5701
2026-01-07 20:04:27.08	16.14	13.48	-35.4	-36.1	25.2	0.00e+00	0	36	101	1048576	50	5573
2026-01-07 20:04:28.10	16.07	13.58	-35.0	-35.6	25.6	0.00e+00	0	36	101	1048576	48	5929
2026-01-07 20:04:29.11	16.01	13.68	-34.8	-35.5	25.8	0.00e+00	0	36	101	1048576	48	5841
2026-01-07 20:04:30.12	15.94	13.77	-34.9	-35.6	25.7	0.00e+00	0	36	101	1048576	48	5898
2026-01-07 20:04:31.13	15.88	13.87	-34.8	-35.5	25.8	0.00e+00	0	36	101	1048576	48	5847
2026-01-07 20:04:32.14	15.81	13.97	-34.9	-35.5	25.7	0.00e+00	0	36	101	1048576	48	5863
2026-01-07 20:04:33.15	15.74	14.06	-34.8	-35.5	25.7	0.00e+00	0	36	101	1048576	48	5848
2026-01-07 20:04:34.16	15.68	14.16	-34.8	-35.5	25.7	0.00e+00	0	36	101	1048576	48	5853
2026-01-07 20:04:35.17	15.61	14.26	-34.9	-35.6	25.7	0.00e+00	0	36	101	1048576	48	5909
2026-01-07 20:04:36.18	15.54	14.36	-34.9	-35.6	25.8	0.00e+00	0	36	101	1048576	48	5899
2026-01-07 20:04:37.19	15.47	14.46	-34.8	-35.4	25.8	0.00e+00	0	36	101	1048576	48	5822
2026-01-07 20:04:38.20	15.40	14.56	-34.8	-35.5	25.8	0.00e+00	0	36	101	1048576	48	5833
2026-01-07 20:04:39.21	15.33	14.66	-34.8	-35.4	25.9	0.00e+00	0	36	101	1048576	48	5786
2026-01-07 20:04:40.22	15.26	14.76	-34.8	-35.4	25.9	0.00e+00	0	36	101	1048576	48	5815
2026-01-07 20:04:41.24	15.19	14.86	-34.8	-35.4	25.8	0.00e+00	0	36	101	1048576	48	5800
2026-01-07 20:04:42.25	15.12	14.96	-34.6	-35.3	26.0	0.00e+00	0	36	101	1048576	48	5701
2026-01-07 20:04:43.26	15.05	15.06	-34.6	-35.2	26.0	0.00e+00	0	36	101	1048576	48	5682
2026-01-07 20:04:44.27	14.97	15.16	-34.6	-35.2	26.1	0.00e+00	0	36	101	1048576	48	5658
2026-01-07 20:04:45.28	14.90	15.26	-34.6	-35.3	26.0	0.00e+00	0	36	101	1048576	48	5696
2026-01-07 20:04:46.29	14.83	15.36	-34.5	-35.2	26.2	0.00e+00	0	36	101	1048576	48	5632
2026-01-07 20:04:47.30	14.75	15.47	-34.5	-35.1	26.2	0.00e+00	0	36	101	1048576	48	5593
2026-01-07 20:04:48.31	14.68	15.57	-34.4	-35.1	26.2	0.00e+00	0	36	101	1048576	48	5567
2026-01-07 20:04:49.32	14.60	15.67	-34.4	-35.0	26.2	0.00e+00	0	36	101	1048576	48	5528
2026-01-07 20:04:50.33	14.53	15.78	-34.1	-34.8	26.4	0.00e+00	0	36	101	1048576	48	5383
2026-01-07 20:04:51.35	14.45	15.88	-34.4	-35.0	26.2	0.00e+00	0	36	101	1048576	48	5531
2026-01-07 20:04:52.36	14.37	15.99	-34.2	-34.9	26.3	0.00e+00	0	36	101	1048576	48	5444
2026-01-07 20:04:53.37	14.30	16.09	-34.3	-34.9	26.3	0.00e+00	0	36	101	1048576	48	5485
2026-01-07 20:04:54.38	14.22	16.20	-34.1	-34.7	26.4	0.00e+00	0	36	101	1048576	48	5368
2026-01-07 20:04:55.39	14.14	16.30	-34.2	-34.8	26.4	0.00e+00	0	36	101	1048576	48	5434
2026-01-07 20:04:56.40	14.06	16.41	-34.0	-34.7	26.5	0.00e+00	0	36	101	1048576	48	5323
2026-01-07 20:04:57.41	13.98	16.51	-34.1	-34.7	26.5	0.00e+00	0	36	101	1048576	46	6020
2026-01-07 20:04:58.42	13.90	16.62	-34.2	-34.8	26.5	0.00e+00	0	36	101	1048576	46	6060
2026-01-07 20:04:59.43	13.82	16.73	-34.3	-34.9	26.4	0.00e+00	0	36	101	1048576	46	6143
2026-01-07 20:05:00.44	13.74	16.84	-34.0	-34.7	26.5	0.00e+00	0	36	101	1048576	46	5967
2026-01-07 20:05:01.46	13.66	16.95	-34.1	-34.8	26.5	0.00e+00	0	36	101	1048576	46	6043
2026-01-07 20:05:02.47	13.57	17.05	-34.1	-34.7	26.5	0.00e+00	0	36	101	1048576	46	6008
2026-01-07 20:05:03.48	13.49	17.16	-34.1	-34.7	26.6	0.00e+00	0	36	101	1048576	46	5987
2026-01-07 20:05:04.49	13.41	17.27	-34.0	-34.6	26.6	0.00e+00	0	36	101	1048576	46	5914
2026-01-07 20:05:05.50	13.32	17.38	-34.1	-34.7	26.5	0.00e+00	0	36	101	1048576	46	5983
2026-01-07 20:05:06.51	13.24	17.49	-34.0	-34.6	26.6	0.00e+00	0	36	101	1048576	46	5933
2026-01-07 20:05:07.52	13.15	17.60	-34.1	-34.7	26.6	0.00e+00	0	36	101	1048576	46	6003
2026-01-07 20:05:08.53	13.06	17.71	-34.0	-34.6	26.6	0.00e+00	0	36	101	1048576	46	5947
2026-01-07 20:05:09.54	12.98	17.83	-34.0	-34.6	26.6	0.00e+00	0	36	101	1048576	46	5949
2026-01-07 20:05:10.55	12.89	17.94	-34.0	-34.6	26.6	0.00e+00	0	36	101	1048576	46	5956
2026-01-07 20:05:11.57	12.80	18.05	-34.1	-34.7	26.6	0.00e+00	0	36	101	1048576	46	5996
2026-01-07 20:05:12.58	12.71	18.16	-34.0	-34.6	26.7	0.00e+00	0	36	101	1048576	46	5911
2026-01-07 20:05:13.59	12.62	18.28	-34.0	-34.6	26.6	0.00e+00	0	36	101	1048576	46	5940
2026-01-07 20:05:14.60	12.53	18.39	-33.9	-34.5	26.7	0.00e+00	0	36	101	1048576	46	5838
2026-01-07 20:05:15.61	12.44	18.51	-34.0	-34.6	26.7	0.00e+00	0	36	101	1048576	46	5960
2026-01-07 20:05:16.62	12.34	18.62	-34.0	-34.6	26.6	0.00e+00	0	36	101	1048576	46	5934
2026-01-07 20:05:17.63	12.25	18.74	-33.7	-34.3	26.9	0.00e+00	0	36	101	1048576	46	5717
2026-01-07 20:05:18.64	12.16	18.85	-33.5	-34.0	27.2	0.00e+00	0	36	101	1048576	46	5564
2026-01-07 20:05:19.65	12.06	18.97	-33.6	-34.2	27.0	0.00e+00	0	36	101	1048576	46	5649
2026-01-07 20:05:20.66	11.97	19.08	-33.5	-34.1	27.0	0.00e+00	0	36	101	1048576	46	5600
2026-01-07 20:05:21.67	11.87	19.20	-33.3	-33.9	27.2	0.00e+00	0	36	101	1048576	46	5476
2026-01-07 20:05:22.68	11.78	19.32	-33.4	-34.0	27.0	0.00e+00	0	36	101	1048576	46	5560
2026-01-07 20:05:23.69	11.68	19.44	-33.5	-34.2	27.0	0.00e+00	0	36	101	1048576	46	5638
2026-01-07 20:05:24.70	11.58	19.55	-33.3	-33.9	27.2	0.00e+00	0	36	101	1048576	46	5465
2026-01-07 20:05:25.71	11.48	19.67	-33.1	-33.7	27.3	0.00e+00	0	36	101	1048576	46	5370
2026-01-07 20:05:26.72	11.38	19.79	-33.1	-33.7	27.3	0.00e+00	0	36	101	1048576	46	5363
2026-01-07 20:05:27.74	11.28	19.91	-33.0	-33.6	27.2	0.00e+00	0	36	101	1048576	44	5929
2026-01-07 20:05:28.75	11.18	20.03	-33.1	-33.7	27.4	0.00e+00	0	36	101	1048576	44	6020
2026-01-07 20:05:29.76	11.08	20.15	-33.1	-33.7	27.3	0.00e+00	0	36	101	1048576	44	6007
2026-01-07 20:05:30.77	10.97	20.28	-32.9	-33.5	27.5	0.00e+00	0	36	101	1048576	44	5886
2026-01-07 20:05:31.78	10.87	20.40	-32.8	-33.4	27.5	0.00e+00	0	36	101	1048576	44	5807
2026-01-07 20:05:32.79	10.76	20.52	-32.8	-33.4	27.5	0.00e+00	0	36	101	1048576	44	5801
2026-01-07 20:05:33.80	10.66	20.64	-32.8	-33.5	27.5	0.00e+00	0	36	101	1048576	44	5829
2026-01-07 20:05:34.81	10.55	20.77	-33.0	-33.6	27.5	0.00e+00	0	36	101	1048576	44	5919
2026-01-07 20:05:35.82	10.45	20.89	-32.9	-33.6	27.4	0.00e+00	0	36	101	1048576	44	5910
2026-01-07 20:05:36.83	10.34	21.01	-33.0	-33.6	27.4	0.00e+00	0	36	101	1048576	44	5920
2026-01-07 20:05:37.85	10.23	21.14	-32.8	-33.4	27.5	0.00e+00	0	36	101	1048576	44	5820
2026-01-07 20:05:38.86	10.12	21.27	-32.9	-33.5	27.6	0.00e+00	0	36	101	1048576	44	5846
2026-01-07 20:05:39.87	10.01	21.39	-32.9	-33.6	27.5	0.00e+00	0	36	101	1048576	44	5905
2026-01-07 20:05:40.88	9.89	21.52	-32.8	-33.5	27.6	0.00e+00	0	36	101	1048576	44	5831
2026-01-07 20:05:41.89	9.78	21.64	-32.9	-33.5	27.6	0.00e+00	0	36	101	1048576	44	5885
2026-01-07 20:05:42.90	9.67	21.77	-32.7	-33.3	27.7	0.00e+00	0	36	101	1048576	44	5740
2026-01-07 20:05:43.91	9.55	21.90	-32.8	-33.4	27.6	0.00e+00	0	36	101	1048576	44	5794
2026-01-07 20:05:44.92	9.44	22.03	-32.7	-33.3	27.6	0.00e+00	0	36	101	1048576	44	5756
2026-01-07 20:05:45.93	9.32	22.16	-32.8	-33.4	27.6	0.00e+00	0	36	101	1048576	44	5813
2026-01-07 20:05:46.94	9.20	22.29	-32.8	-33.4	27.7	0.00e+00	0	36	101	1048576	44	5797
2026-01-07 20:05:47.96	9.08	22.42	-32.7	-33.3	27.6	0.00e+00	0	36	101	1048576	44	5738
2026-01-07 20:05:48.97	8.96	22.55	-32.9	-33.5	27.7	0.00e+00	0	36	101	1048576	44	5863
2026-01-07 20:05:49.98	8.84	22.68	-33.0	-33.6	27.5	0.00e+00	0	36	101	1048576	44	5897
2026-01-07 20:05:50.99	8.72	22.81	-32.8	-33.4	27.5	0.00e+00	0	36	101	1048576	44	5828
2026-01-07 20:05:52.00	8.59	22.94	-32.8	-33.4	27.6	0.00e+00	0	36	101	1048576	44	5816
2026-01-07 20:05:53.01	8.47	23.07	-32.9	-33.5	27.6	0.00e+00	0	36	101	1048576	44	5860
2026-01-07 20:05:54.02	8.35	23.21	-33.0	-33.6	27.6	0.00e+00	0	36	101	1048576	44	5911
2026-01-07 20:05:55.03	8.22	23.34	-32.9	-33.5	27.6	0.00e+00	0	36	101	1048576	44	5860
2026-01-07 20:05:56.04	8.09	23.48	-33.0	-33.6	27.6	0.00e+00	0	36	101	1048576	44	5903
2026-01-07 20:05:57.06	7.96	23.61	-33.0	-33.6	27.5	0.00e+00	0	36	101	1048576	44	5915
2026-01-07 20:05:58.07	7.83	23.75	-33.1	-33.7	27.5	0.00e+00	0	36	101	1048576	44	6006
2026-01-07 20:05:59.08	7.70	23.88	-32.8	-33.5	27.2	0.00e+00	0	36	101	1048576	44	5845
2026-01-07 20:06:00.09	7.57	24.02	-33.0	-33.6	27.5	0.00e+00	0	36	101	1048576	44	5948
2026-01-07 20:06:01.10	7.44	24.16	-33.1	-33.7	27.4	0.00e+00	0	36	101	1048576	44	6013
2026-01-07 20:06:02.11	7.30	24.29	-33.1	-33.7	27.4	0.00e+00	0	36	101	1048576	44	6032
2026-01-07 20:06:03.12	7.17	24.43	-33.1	-33.8	27.3	0.00e+00	0	36	101	1048576	44	6044
2026-01-07 20:06:04.13	7.03	24.57	-33.4	-34.0	27.5	0.00e+00	0	36	101	1048576	44	6189
2026-01-07 20:06:05.14	6.89	24.71	-33.1	-33.7	27.5	0.00e+00	0	36	101	1048576	44	5998
2026-01-07 20:06:06.15	6.75	24.85	-33.2	-33.8	27.4	0.00e+00	0	36	101	1048576	44	6068
2026-01-07 20:06:07.16	6.61	24.99	-33.2	-33.9	27.4	0.00e+00	0	36	101	1048576	44	6106
2026-01-07 20:06:08.17	6.47	25.13	-33.2	-33.8	27.4	0.00e+00	0	36	101	1048576	44	6100
2026-01-07 20:06:09.18	6.32	25.27	-33.2	-33.8	27.3	0.00e+00	0	36	101	1048576	44	6070
2026-01-07 20:06:10.19	6.18	25.41	-33.3	-33.9	27.4	0.00e+00	0	36	101	1048576	44	6120
2026-01-07 20:06:11.21	6.03	25.56	-33.2	-33.8	27.4	0.00e+00	0	36	101	1048576	44	6039
2026-01-07 20:06:12.22	5.89	25.70	-33.2	-33.8	27.4	0.00e+00	0	36	101	1048576	44	6047
2026-01-07 20:06:13.23	5.74	25.84	-33.1	-33.8	27.4	0.00e+00	0	36	101	1048576	44	6040
2026-01-07 20:06:14.24	5.59	25.99	-33.4	-34.1	27.2	0.00e+00	0	36	101	1048576	44	6251
2026-01-07 20:06:15.25	5.43	26.13	-33.3	-34.0	27.2	0.00e+00	0	36	101	1048576	44	6189
2026-01-07 20:06:16.26	5.28	26.28	-33.4	-34.0	27.2	0.00e+00	0	36	101	1048576	44	6227
2026-01-07 20:06:17.27	5.13	26.42	-33.3	-33.9	27.4	0.00e+00	0	36	101	1048576	44	6121
2026-01-07 20:06:18.28	4.97	26.57	-33.1	-33.7	27.4	0.00e+00	0	36	101	1048576	44	6032
2026-01-07 20:06:19.29	4.81	26.72	-33.1	-33.7	27.5	0.00e+00	0	36	101	1048576	44	5998
2026-01-07 20:06:20.30	4.66	26.86	-33.0	-33.6	27.5	0.00e+00	0	36	101	1048576	44	5940
2026-01-07 20:06:21.32	4.49	27.01	-33.0	-33.6	27.5	0.00e+00	0	36	101	1048576	44	5964
2026-01-07 20:06:22.33	4.33	27.16	-33.1	-33.8	27.5	0.00e+00	0	36	101	1048576	44	6038
2026-01-07 20:06:23.34	4.17	27.31	-32.9	-33.5	27.6	0.00e+00	0	36	101	1048576	44	5876
2026-01-07 20:06:24.35	4.00	27.46	-32.9	-33.5	27.5	0.00e+00	0	36	101	1048576	44	5845
2026-01-07 20:06:25.36	3.84	27.61	-32.7	-33.3	27.6	0.00e+00	0	36	101	1048576	44	5716
2026-01-07 20:06:26.37	3.67	27.76	-32.9	-33.5	27.8	0.00e+00	0	36	101	1048576	44	5864
2026-01-07 20:06:27.38	3.50	27.91	-32.5	-33.2	27.8	0.00e+00	0	36	101	1048576	44	5635
2026-01-07 20:06:28.39	3.33	28.06	-32.6	-33.2	27.8	0.00e+00	0	36	101	1048576	44	5685
2026-01-07 20:06:29.40	3.15	28.22	-32.4	-33.0	28.0	0.00e+00	0	36	101	1048576	44	5538
2026-01-07 20:06:30.41	2.98	28.37	-32.3	-32.9	28.5	0.00e+00	0	36	101	1048576	44	5468
2026-01-07 20:06:31.43	2.80	28.52	-32.0	-32.6	28.4	0.00e+00	0	36	101	1048576	42	5910
2026-01-07 20:06:32.44	2.62	28.68	-31.9	-32.5	28.4	0.00e+00	0	36	101	1048576	42	5862
2026-01-07 20:06:33.45	2.44	28.83	-31.7	-32.3	28.5	0.00e+00	0	36	101	1048576	42	5729
2026-01-07 20:06:34.46	2.26	28.99	-31.7	-32.3	28.5	0.00e+00	0	36	101	1048576	42	5718
2026-01-07 20:06:35.47	2.08	29.14	-31.9	-32.5	28.2	0.00e+00	0	36	101	1048576	42	5862
2026-01-07 20:06:36.48	1.89	29.30	-31.8	-32.4	28.4	0.00e+00	0	36	101	1048576	42	5797
2026-01-07 20:06:37.49	1.70	29.46	-31.8	-32.4	28.5	0.00e+00	0	36	101	1048576	42	5777
2026-01-07 20:06:38.50	1.52	29.61	-31.9	-32.5	28.4	0.00e+00	0	36	101	1048576	42	5836
2026-01-07 20:06:39.51	1.32	29.77	-31.9	-32.5	28.5	0.00e+00	0	36	101	1048576	42	5862
2026-01-07 20:06:40.52	1.13	29.93	-31.8	-32.4	28.4	0.00e+00	0	36	101	1048576	42	5772
2026-01-07 20:06:41.53	0.94	30.09	-32.0	-32.6	28.3	0.00e+00	0	36	101	1048576	42	5916
2026-01-07 20:06:42.54	0.74	30.25	-32.2	-32.7	28.3	0.00e+00	0	36	101	1048576	42	6030
2026-01-07 20:06:43.55	0.54	30.41	-32.0	-32.6	28.3	0.00e+00	0	36	101	1048576	42	5951
2026-01-07 20:06:44.57	0.34	30.57	-32.1	-32.7	28.4	0.00e+00	0	36	101	1048576	42	6003
2026-01-07 20:06:45.58	0.14	30.73	-32.2	-32.7	28.1	0.00e+00	0	36	101	1048576	42	6031
2026-01-07 20:06:46.59	359.93	30.89	-32.1	-32.7	28.2	0.00e+00	0	36	101	1048576	42	5997
2026-01-07 20:06:47.60	359.72	31.05	-32.2	-32.8	28.2	0.00e+00	0	36	101	1048576	42	6063
2026-01-07 20:06:48.61	359.51	31.21	-32.2	-32.8	28.1	0.00e+00	0	36	101	1048576	42	6087
2026-01-07 20:06:49.62	359.30	31.38	-32.3	-32.9	28.2	0.00e+00	0	36	101	1048576	42	6144
2026-01-07 20:06:50.63	359.09	31.54	-32.5	-33.1	27.9	0.00e+00	0	36	101	1048576	42	6298
2026-01-07 20:06:51.65	358.87	31.70	-32.6	-33.2	27.9	0.00e+00	0	36	101	1048576	42	6355
2026-01-07 20:06:52.66	358.65	31.87	-32.6	-33.2	27.9	0.00e+00	0	36	101	1048576	42	6352
2026-01-07 20:06:53.67	358.43	32.03	-32.6	-33.2	27.9	0.00e+00	0	36	101	1048576	42	6332
2026-01-07 20:06:54.68	358.21	32.20	-32.6	-33.2	28.0	0.00e+00	0	36	101	1048576	42	6318
2026-01-07 20:06:55.69	357.99	32.36	-32.7	-33.3	27.8	0.00e+00	0	36	101	1048576	42	6439
2026-01-07 20:06:56.70	357.76	32.53	-32.6	-33.2	28.0	0.00e+00	0	36	101	1048576	44	5670
2026-01-07 20:06:57.71	357.53	32.69	-32.6	-33.2	27.9	0.00e+00	0	36	101	1048576	44	5659
2026-01-07 20:06:58.72	357.30	32.86	-32.5	-33.1	28.0	0.00e+00	0	36	101	1048576	44	5584
2026-01-07 20:06:59.73	357.06	33.03	-32.4	-33.0	28.0	0.00e+00	0	36	101	1048576	44	5524
2026-01-07 20:07:00.74	356.83	33.19	-32.4	-33.0	28.0	0.00e+00	0	36	101	1048576	44	5512
2026-01-07 20:07:01.75	356.59	33.36	-32.4	-33.0	28.2	0.00e+00	0	36	101	1048576	44	5526
2026-01-07 20:07:02.77	356.34	33.53	-32.2	-32.8	28.3	0.00e+00	0	36	101	1048576	42	6037
2026-01-07 20:07:03.78	356.10	33.70	-31.9	-32.5	28.3	0.00e+00	0	36	101	1048576	42	5870
2026-01-07 20:07:04.79	355.85	33.87	-32.0	-32.6	28.3	0.00e+00	0	36	101	1048576	42	5923
2026-01-07 20:07:05.80	355.60	34.04	-32.0	-32.5	28.4	0.00e+00	0	36	101	1048576	42	5895
2026-01-07 20:07:06.81	355.35	34.21	-31.5	-32.1	28.6	0.00e+00	0	36	101	1048576	42	5593
2026-01-07 20:07:07.82	355.10	34.38	-31.8	-32.4	28.4	0.00e+00	0	36	101	1048576	42	5778
2026-01-07 20:07:08.83	354.84	34.55	-31.7	-32.3	28.6	0.00e+00	0	36	101	1048576	42	5736
2026-01-07 20:07:09.84	354.58	34.71	-31.7	-32.3	28.6	0.00e+00	0	36	101	1048576	42	5713
2026-01-07 20:07:10.85	354.31	34.89	-31.6	-32.2	28.5	0.00e+00	0	36	101	1048576	42	5687
2026-01-07 20:07:11.86	354.05	35.06	-32.0	-32.6	28.6	0.00e+00	0	36	101	1048576	42	5960
2026-01-07 20:07:12.87	353.78	35.23	-31.9	-32.4	28.3	0.00e+00	0	36	101	1048576	42	5818
2026-01-07 20:07:13.88	353.51	35.40	-31.9	-32.5	28.4	0.00e+00	0	36	101	1048576	42	5852
2026-01-07 20:07:14.89	353.23	35.57	-32.1	-32.7	28.4	0.00e+00	0	36	101	1048576	42	5970
2026-01-07 20:07:15.91	352.95	35.74	-32.4	-33.0	28.1	0.00e+00	0	36	101	1048576	42	6181
2026-01-07 20:07:16.92	352.67	35.91	-31.9	-32.5	28.4	0.00e+00	0	36	101	1048576	42	5875
2026-01-07 20:07:17.93	352.39	36.08	-31.9	-32.5	28.5	0.00e+00	0	36	101	1048576	42	5836
2026-01-07 20:07:18.94	352.10	36.25	-32.0	-32.6	28.3	0.00e+00	0	36	101	1048576	42	5905
2026-01-07 20:07:19.95	351.81	36.43	-32.2	-32.8	28.2	0.00e+00	0	36	101	1048576	42	6034
2026-01-07 20:07:20.96	351.52	36.60	-32.3	-32.9	28.1	0.00e+00	0	36	101	1048576	42	6119
2026-01-07 20:07:21.97	351.23	36.77	-32.3	-32.9	28.1	0.00e+00	0	36	101	1048576	42	6170
2026-01-07 20:07:22.98	350.93	36.94	-32.4	-33.0	28.0	0.00e+00	0	36	101	1048576	42	6182
2026-01-07 20:07:23.99	350.63	37.11	-32.3	-33.0	28.0	0.00e+00	0	36	101	1048576	42	6178
2026-01-07 20:07:25.01	350.32	37.29	-32.4	-33.0	27.9	0.00e+00	0	36	101	1048576	42	6223
2026-01-07 20:07:26.02	350.01	37.46	-32.4	-33.0	28.0	0.00e+00	0	36	101	1048576	42	6232
2026-01-07 20:07:27.03	349.70	37.63	-32.6	-33.2	27.9	0.00e+00	0	36	101	1048576	42	6327
2026-01-07 20:07:28.04	349.38	37.80	-32.6	-33.2	27.6	0.00e+00	0	36	101	1048576	42	6375
2026-01-07 20:07:29.05	349.06	37.97	-32.6	-33.2	27.9	0.00e+00	0	36	101	1048576	42	6342
2026-01-07 20:07:30.06	348.74	38.14	-32.4	-33.0	27.9	0.00e+00	0	36	101	1048576	42	6223
2026-01-07 20:07:31.07	348.42	38.31	-32.4	-33.0	28.1	0.00e+00	0	36	101	1048576	42	6212
2026-01-07 20:07:32.08	348.09	38.48	-32.3	-32.9	28.1	0.00e+00	0	36	101	1048576	42	6165
2026-01-07 20:07:33.10	347.75	38.66	-32.3	-32.8	28.2	0.00e+00	0	36	101	1048576	42	6103
2026-01-07 20:07:34.11	347.42	38.83	-32.3	-32.9	28.2	0.00e+00	0	36	101	1048576	42	6123
2026-01-07 20:07:35.12	347.08	39.00	-32.2	-32.8	28.3	0.00e+00	0	36	101	1048576	42	6045
2026-01-07 20:07:36.13	346.73	39.17	-32.1	-32.7	28.2	0.00e+00	0	36	101	1048576	42	5970
2026-01-07 20:07:37.14	346.39	39.34	-32.3	-32.9	28.2	0.00e+00	0	36	101	1048576	42	6155
2026-01-07 20:07:38.15	346.04	39.50	-32.3	-32.9	28.1	0.00e+00	0	36	101	1048576	42	6166
2026-01-07 20:07:39.16	345.68	39.67	-32.3	-32.9	28.2	0.00e+00	0	36	101	1048576	42	6122
2026-01-07 20:07:40.17	345.32	39.84	-32.2	-32.8	28.2	0.00e+00	0	36	101	1048576	42	6040
2026-01-07 20:07:41.18	344.96	40.01	-32.2	-32.8	28.2	0.00e+00	0	36	101	1048576	42	6095
2026-01-07 20:07:42.19	344.60	40.18	-32.3	-32.9	28.2	0.00e+00	0	36	101	1048576	42	6144
2026-01-07 20:07:43.21	344.22	40.34	-32.0	-32.5	28.3	0.00e+00	0	36	101	1048576	42	5893
2026-01-07 20:07:44.22	343.85	40.51	-32.3	-32.9	28.2	0.00e+00	0	36	101	1048576	42	6112
2026-01-07 20:07:45.23	343.47	40.67	-32.2	-32.8	28.2	0.00e+00	0	36	101	1048576	42	6058
2026-01-07 20:07:46.24	343.09	40.84	-32.1	-32.7	28.5	0.00e+00	0	36	101	1048576	42	5978
2026-01-07 20:07:47.25	342.71	41.00	-32.3	-32.9	28.3	0.00e+00	0	36	101	1048576	42	6116
2026-01-07 20:07:48.26	342.32	41.17	-32.2	-32.7	28.5	0.00e+00	0	36	101	1048576	42	6024
2026-01-07 20:07:49.27	341.93	41.33	-32.2	-32.8	28.2	0.00e+00	0	36	101	1048576	42	6065
2026-01-07 20:07:50.28	341.53	41.49	-32.4	-32.9	28.2	0.00e+00	0	36	101	1048576	42	6170
2026-01-07 20:07:51.30	341.13	41.65	-32.6	-33.2	28.0	0.00e+00	0	36	101	1048576	42	6376
2026-01-07 20:07:52.31	340.72	41.81	-33.0	-33.6	27.8	0.00e+00	0	36	101	1048576	42	6627
2026-01-07 20:07:53.32	340.31	41.97	-32.9	-33.5	27.6	0.00e+00	0	36	101	1048576	42	6609
2026-01-07 20:07:54.33	339.90	42.13	-33.0	-33.6	27.6	0.00e+00	0	36	101	1048576	44	5944
2026-01-07 20:07:55.34	339.48	42.29	-33.0	-33.6	27.6	0.00e+00	0	36	101	1048576	44	5932
2026-01-07 20:07:56.35	339.06	42.44	-32.8	-33.4	27.9	0.00e+00	0	36	101	1048576	44	5814
2026-01-07 20:07:57.36	338.64	42.60	-32.6	-33.2	28.0	0.00e+00	0	36	101	1048576	44	5642
2026-01-07 20:07:58.37	338.21	42.75	-32.6	-33.2	28.0	0.00e+00	0	36	101	1048576	44	5642
2026-01-07 20:07:59.38	337.77	42.90	-32.6	-33.2	28.0	0.00e+00	0	36	101	1048576	44	5634
2026-01-07 20:08:00.39	337.34	43.05	-32.2	-32.8	28.2	0.00e+00	0	36	101	1048576	44	5418
2026-01-07 20:08:01.41	336.89	43.20	-32.3	-32.9	28.3	0.00e+00	0	36	101	1048576	44	5471
2026-01-07 20:08:02.42	336.45	43.35	-32.5	-33.1	28.0	0.00e+00	0	36	101	1048576	44	5568
2026-01-07 20:08:03.43	336.00	43.50	-32.5	-33.1	27.9	0.00e+00	0	36	101	1048576	44	5621
2026-01-07 20:08:04.44	335.54	43.64	-32.8	-33.4	27.8	0.00e+00	0	36	101	1048576	44	5799
2026-01-07 20:08:05.45	335.08	43.79	-32.7	-33.3	27.8	0.00e+00	0	36	101	1048576	44	5746
2026-01-07 20:08:06.46	334.62	43.93	-32.9	-33.5	27.7	0.00e+00	0	36	101	1048576	44	5844
2026-01-07 20:08:07.47	334.15	44.07	-33.1	-33.7	27.7	0.00e+00	0	36	101	1048576	44	6004
2026-01-07 20:08:08.48	333.68	44.21	-33.1	-33.7	27.5	0.00e+00	0	36	101	1048576	44	6016
2026-01-07 20:08:09.49	333.21	44.35	-33.1	-33.7	27.6	0.00e+00	0	36	101	1048576	44	5967
2026-01-07 20:08:10.50	332.73	44.48	-33.1	-33.7	27.5	0.00e+00	0	36	101	1048576	44	5992
2026-01-07 20:08:11.52	332.24	44.62	-32.8	-33.4	27.8	0.00e+00	0	36	101	1048576	44	5818
2026-01-07 20:08:12.53	331.75	44.75	-32.6	-33.3	27.9	0.00e+00	0	36	101	1048576	44	5697
2026-01-07 20:08:13.54	331.26	44.88	-32.3	-32.9	28.0	0.00e+00	0	36	101	1048576	44	5483
2026-01-07 20:08:14.55	330.77	45.01	-32.2	-32.8	28.2	0.00e+00	0	36	101	1048576	44	5417
2026-01-07 20:08:15.56	330.27	45.14	-32.3	-32.9	28.2	0.00e+00	0	36	101	1048576	44	5490
2026-01-07 20:08:16.57	329.76	45.26	-32.3	-32.8	28.0	0.00e+00	0	36	101	1048576	44	5439
2026-01-07 20:08:17.58	329.26	45.38	-32.4	-33.0	28.1	0.00e+00	0	36	101	1048576	44	5526
2026-01-07 20:08:18.59	328.75	45.50	-32.3	-32.9	28.2	0.00e+00	0	36	101	1048576	44	5488
2026-01-07 20:08:19.60	328.23	45.62	-32.7	-33.3	28.0	0.00e+00	0	36	101	1048576	44	5736
2026-01-07 20:08:20.61	327.71	45.74	-33.0	-33.6	27.6	0.00e+00	0	36	101	1048576	44	5906
2026-01-07 20:08:21.62	327.19	45.85	-33.3	-33.9	27.6	0.00e+00	0	36	101	1048576	44	6130
2026-01-07 20:08:22.63	326.66	45.96	-33.3	-33.9	27.4	0.00e+00	0	36	101	1048576	44	6108
2026-01-07 20:08:23.65	326.13	46.07	-33.3	-33.9	27.5	0.00e+00	0	36	101	1048576	44	6139
2026-01-07 20:08:24.66	325.59	46.18	-33.2	-33.8	27.4	0.00e+00	0	36	101	1048576	44	6089
2026-01-07 20:08:25.67	325.05	46.28	-32.9	-33.5	27.6	0.00e+00	0	36	101	1048576	44	5856
2026-01-07 20:08:26.68	324.51	46.38	-32.9	-33.5	27.7	0.00e+00	0	36	101	1048576	44	5867
2026-01-07 20:08:27.69	323.97	46.48	-32.8	-33.4	27.8	0.00e+00	0	36	101	1048576	44	5762
2026-01-07 20:08:28.70	323.42	46.57	-32.6	-33.2	28.0	0.00e+00	0	36	101	1048576	44	5636
2026-01-07 20:08:29.71	322.87	46.67	-32.6	-33.2	27.9	0.00e+00	0	36	101	1048576	44	5669
2026-01-07 20:08:30.72	322.31	46.76	-32.5	-33.1	28.0	0.00e+00	0	36	101	1048576	44	5609
2026-01-07 20:08:31.73	321.76	46.84	-32.7	-33.3	27.9	0.00e+00	0	36	101	1048576	44	5703
2026-01-07 20:08:32.75	321.19	46.93	-32.8	-33.4	27.8	0.00e+00	0	36	101	1048576	44	5766
2026-01-07 20:08:33.76	320.63	47.01	-32.7	-33.3	27.8	0.00e+00	0	36	101	1048576	44	5744
2026-01-07 20:08:34.77	320.06	47.09	-33.0	-33.6	27.6	0.00e+00	0	36	101	1048576	44	5927
2026-01-07 20:08:35.78	319.49	47.17	-33.2	-33.9	27.4	0.00e+00	0	36	101	1048576	44	6106
2026-01-07 20:08:36.79	318.92	47.24	-33.3	-33.9	27.3	0.00e+00	0	36	101	1048576	44	6125
2026-01-07 20:08:37.80	318.34	47.31	-33.1	-33.7	27.5	0.00e+00	0	36	101	1048576	44	5984
2026-01-07 20:08:38.81	317.76	47.38	-32.9	-33.5	27.7	0.00e+00	0	36	101	1048576	44	5869
2026-01-07 20:08:39.82	317.18	47.44	-32.9	-33.5	27.6	0.00e+00	0	36	101	1048576	44	5831
2026-01-07 20:08:40.83	316.60	47.50	-33.1	-33.7	27.5	0.00e+00	0	36	101	1048576	44	6032
2026-01-07 20:08:41.85	316.01	47.56	-33.3	-33.9	27.4	0.00e+00	0	36	101	1048576	44	6162
2026-01-07 20:08:42.86	315.42	47.61	-33.6	-34.2	27.3	0.00e+00	0	36	101	1048576	44	6376
2026-01-07 20:08:43.87	314.84	47.66	-33.5	-34.1	27.3	0.00e+00	0	36	101	1048576	44	6298
2026-01-07 20:08:44.88	314.25	47.71	-33.4	-34.0	27.4	0.00e+00	0	36	101	1048576	44	6212
2026-01-07 20:08:45.89	313.65	47.76	-33.0	-33.7	27.6	0.00e+00	0	36	101	1048576	44	5973
2026-01-07 20:08:46.90	313.06	47.80	-32.7	-33.3	27.8	0.00e+00	0	36	101	1048576	44	5707
2026-01-07 20:08:47.91	312.46	47.83	-32.6	-33.2	28.0	0.00e+00	0	36	101	1048576	44	5671
2026-01-07 20:08:48.92	311.87	47.87	-32.5	-33.1	28.0	0.00e+00	0	36	101	1048576	44	5592
2026-01-07 20:08:49.93	311.27	47.90	-32.8	-33.4	27.7	0.00e+00	0	36	101	1048576	44	5809
2026-01-07 20:08:50.95	310.66	47.93	-33.0	-33.6	27.4	0.00e+00	0	36	101	1048576	44	5909
2026-01-07 20:08:51.96	310.06	47.95	-33.2	-33.8	27.4	0.00e+00	0	36	101	1048576	44	6054
2026-01-07 20:08:52.97	309.46	47.97	-33.4	-34.1	27.4	0.00e+00	0	36	101	1048576	44	6262
2026-01-07 20:08:53.98	308.86	47.99	-33.4	-34.0	27.3	0.00e+00	0	36	101	1048576	44	6234
2026-01-07 20:08:54.99	308.25	48.01	-33.3	-33.9	27.4	0.00e+00	0	36	101	1048576	44	6105
2026-01-07 20:08:56.00	307.65	48.02	-33.2	-33.8	27.6	0.00e+00	0	36	101	1048576	44	6071
2026-01-07 20:08:57.01	307.05	48.02	-33.1	-33.7	27.7	0.00e+00	0	36	101	1048576	44	6010
2026-01-07 20:08:58.02	306.44	48.03	-33.2	-33.8	27.4	0.00e+00	0	36	101	1048576	44	6088
2026-01-07 20:08:59.03	305.84	48.03	-33.5	-34.0	27.3	0.00e+00	0	36	101	1048576	44	6243
2026-01-07 20:09:00.04	305.24	48.02	-33.6	-34.2	27.2	0.00e+00	0	36	101	1048576	44	6372
2026-01-07 20:09:01.05	304.63	48.02	-33.4	-34.0	27.5	0.00e+00	0	36	101	1048576	44	6237
2026-01-07 20:09:02.07	304.02	48.01	-33.2	-33.7	27.6	0.00e+00	0	36	101	1048576	44	6023
2026-01-07 20:09:03.08	303.42	47.99	-33.1	-33.7	27.6	0.00e+00	0	36	101	1048576	44	6014
2026-01-07 20:09:04.09	302.82	47.98	-33.1	-33.7	27.5	0.00e+00	0	36	101	1048576	44	6018
2026-01-07 20:09:05.10	302.21	47.95	-33.3	-33.9	27.3	0.00e+00	0	36	101	1048576	44	6142
2026-01-07 20:09:06.11	301.61	47.93	-33.3	-33.9	27.4	0.00e+00	0	36	101	1048576	44	6130
2026-01-07 20:09:07.12	301.01	47.90	-33.3	-33.9	27.4	0.00e+00	0	36	101	1048576	44	6146
2026-01-07 20:09:08.13	300.42	47.87	-33.3	-33.9	27.5	0.00e+00	0	36	101	1048576	44	6165
2026-01-07 20:09:09.14	299.82	47.84	-33.3	-34.0	27.4	0.00e+00	0	36	101	1048576	44	6186
2026-01-07 20:09:10.16	299.22	47.80	-33.2	-33.8	27.5	0.00e+00	0	36	101	1048576	44	6055
2026-01-07 20:09:11.17	298.62	47.76	-33.2	-33.7	27.6	0.00e+00	0	36	101	1048576	44	6029
2026-01-07 20:09:12.18	298.03	47.72	-32.9	-33.5	27.4	0.00e+00	0	36	101	1048576	44	5831
2026-01-07 20:09:13.19	297.44	47.67	-33.1	-33.7	27.6	0.00e+00	0	36	101	1048576	44	5974
2026-01-07 20:09:14.20	296.85	47.62	-33.2	-33.8	27.3	0.00e+00	0	36	101	1048576	44	6102
2026-01-07 20:09:15.21	296.26	47.56	-33.5	-34.1	27.2	0.00e+00	0	36	101	1048576	44	6278
2026-01-07 20:09:16.22	295.67	47.51	-33.3	-33.9	27.3	0.00e+00	0	36	101	1048576	44	6151
2026-01-07 20:09:17.23	295.09	47.45	-33.2	-33.8	27.2	0.00e+00	0	36	101	1048576	44	6070
2026-01-07 20:09:18.25	294.50	47.38	-33.1	-33.7	27.5	0.00e+00	0	36	101	1048576	44	5975
2026-01-07 20:09:19.26	293.93	47.31	-33.3	-33.9	27.5	0.00e+00	0	36	101	1048576	44	6125
2026-01-07 20:09:20.27	293.35	47.25	-33.2	-33.8	27.5	0.00e+00	0	36	101	1048576	44	6048
2026-01-07 20:09:21.28	292.78	47.17	-33.4	-34.0	27.4	0.00e+00	0	36	101	1048576	44	6182
2026-01-07 20:09:22.29	292.21	47.10	-33.3	-34.0	27.3	0.00e+00	0	36	101	1048576	44	6177
2026-01-07 20:09:23.30	291.64	47.02	-33.4	-34.0	27.3	0.00e+00	0	36	101	1048576	44	6226
2026-01-07 20:09:24.31	291.07	46.94	-33.1	-33.7	27.4	0.00e+00	0	36	101	1048576	44	6004
2026-01-07 20:09:25.32	290.51	46.85	-33.1	-33.7	27.5	0.00e+00	0	36	101	1048576	44	5984
2026-01-07 20:09:26.33	289.95	46.76	-33.0	-33.7	27.7	0.00e+00	0	36	101	1048576	44	5965
2026-01-07 20:09:27.34	289.40	46.67	-33.1	-33.8	27.6	0.00e+00	0	36	101	1048576	44	6037
2026-01-07 20:09:28.36	288.84	46.58	-33.0	-33.7	27.6	0.00e+00	0	36	101	1048576	44	5972
2026-01-07 20:09:29.37	288.29	46.48	-32.9	-33.5	27.5	0.00e+00	0	36	101	1048576	44	5880
2026-01-07 20:09:30.38	287.75	46.39	-33.0	-33.6	27.6	0.00e+00	0	36	101	1048576	44	5954
2026-01-07 20:09:31.39	287.20	46.29	-33.2	-33.8	27.5	0.00e+00	0	36	101	1048576	44	6053
2026-01-07 20:09:32.40	286.66	46.18	-33.0	-33.6	27.7	0.00e+00	0	36	101	1048576	44	5950
2026-01-07 20:09:33.41	286.13	46.08	-33.1	-33.7	27.6	0.00e+00	0	36	101	1048576	44	6026
2026-01-07 20:09:34.42	285.60	45.97	-33.1	-33.7	27.6	0.00e+00	0	36	101	1048576	44	6003
2026-01-07 20:09:35.43	285.07	45.86	-33.1	-33.7	27.7	0.00e+00	0	36	101	1048576	44	5995
2026-01-07 20:09:36.44	284.55	45.74	-33.1	-33.8	27.6	0.00e+00	0	36	101	1048576	44	6036
2026-01-07 20:09:37.45	284.03	45.63	-32.9	-33.5	27.7	0.00e+00	0	36	101	1048576	44	5860
2026-01-07 20:09:38.46	283.51	45.51	-32.7	-33.3	27.9	0.00e+00	0	36	101	1048576	44	5751
2026-01-07 20:09:39.47	283.00	45.39	-32.7	-33.3	27.9	0.00e+00	0	36	101	1048576	44	5753
2026-01-07 20:09:40.48	282.49	45.27	-32.5	-33.1	28.0	0.00e+00	0	36	101	1048576	44	5607
2026-01-07 20:09:41.49	281.98	45.14	-32.7	-33.3	27.8	0.00e+00	0	36	101	1048576	44	5755
2026-01-07 20:09:42.50	281.48	45.02	-33.0	-33.6	27.7	0.00e+00	0	36	101	1048576	44	5909
2026-01-07 20:09:43.52	280.98	44.89	-33.1	-33.6	27.5	0.00e+00	0	36	101	1048576	44	5964
2026-01-07 20:09:44.53	280.49	44.76	-32.9	-33.5	27.8	0.00e+00	0	36	101	1048576	44	5872
2026-01-07 20:09:45.54	280.00	44.63	-32.9	-33.5	27.7	0.00e+00	0	36	101	1048576	44	5850
2026-01-07 20:09:46.55	279.52	44.49	-32.7	-33.3	27.9	0.00e+00	0	36	101	1048576	44	5748
2026-01-07 20:09:47.56	279.04	44.36	-32.8	-33.4	27.9	0.00e+00	0	36	101	1048576	44	5820
2026-01-07 20:09:48.57	278.56	44.22	-32.8	-33.4	27.7	0.00e+00	0	36	101	1048576	44	5815
2026-01-07 20:09:49.58	278.09	44.08	-32.8	-33.4	27.8	0.00e+00	0	36	101	1048576	44	5817
2026-01-07 20:09:50.59	277.62	43.94	-32.7	-33.3	27.8	0.00e+00	0	36	101	1048576	44	5725
2026-01-07 20:09:51.61	277.15	43.79	-32.5	-33.1	28.0	0.00e+00	0	36	101	1048576	44	5603
2026-01-07 20:09:52.62	276.69	43.65	-32.2	-32.8	28.3	0.00e+00	0	36	101	1048576	44	5396
2026-01-07 20:09:53.63	276.24	43.50	-32.3	-32.9	28.2	0.00e+00	0	36	101	1048576	44	5454
2026-01-07 20:09:54.64	275.78	43.36	-32.2	-32.8	28.2	0.00e+00	0	36	101	1048576	44	5378
2026-01-07 20:09:55.65	275.34	43.21	-32.1	-32.7	28.4	0.00e+00	0	36	101	1048576	42	5996
2026-01-07 20:09:56.66	274.89	43.06	-32.3	-32.9	28.3	0.00e+00	0	36	101	1048576	42	6112
2026-01-07 20:09:57.67	274.46	42.91	-32.3	-32.9	28.2	0.00e+00	0	36	101	1048576	42	6133
2026-01-07 20:09:58.68	274.02	42.75	-32.2	-32.8	28.3	0.00e+00	0	36	101	1048576	42	6075
2026-01-07 20:09:59.69	273.59	42.60	-32.1	-32.7	28.3	0.00e+00	0	36	101	1048576	42	5968
2026-01-07 20:10:00.70	273.16	42.44	-32.2	-32.8	28.4	0.00e+00	0	36	101	1048576	42	6042
2026-01-07 20:10:01.71	272.74	42.29	-32.3	-32.9	28.2	0.00e+00	0	36	101	1048576	42	6151
2026-01-07 20:10:02.72	272.32	42.13	-32.3	-32.9	28.3	0.00e+00	0	36	101	1048576	42	6114
2026-01-07 20:10:03.73	271.91	41.97	-32.2	-32.8	28.2	0.00e+00	0	36	101	1048576	42	6064
2026-01-07 20:10:04.75	271.50	41.81	-32.2	-32.8	28.2	0.00e+00	0	36	101	1048576	42	6078
2026-01-07 20:10:05.76	271.09	41.65	-32.0	-32.6	28.4	0.00e+00	0	36	101	1048576	42	5919
2026-01-07 20:10:06.77	270.69	41.49	-32.2	-32.7	28.3	0.00e+00	0	36	101	1048576	42	6028
2026-01-07 20:10:07.78	270.29	41.33	-32.0	-32.6	28.5	0.00e+00	0	36	101	1048576	42	5915
2026-01-07 20:10:08.79	269.90	41.17	-31.9	-32.5	28.5	0.00e+00	0	36	101	1048576	42	5881
2026-01-07 20:10:09.80	269.51	41.00	-32.1	-32.7	27.7	0.00e+00	0	36	101	1048576	42	6008
2026-01-07 20:10:10.81	269.12	40.84	-32.3	-32.9	28.2	0.00e+00	0	36	101	1048576	42	6158
2026-01-07 20:10:11.82	268.74	40.67	-32.4	-33.0	28.1	0.00e+00	0	36	101	1048576	42	6231
2026-01-07 20:10:12.83	268.36	40.51	-32.6	-33.2	28.0	0.00e+00	0	36	101	1048576	42	6348
2026-01-07 20:10:13.85	267.98	40.34	-32.5	-33.1	28.1	0.00e+00	0	36	101	1048576	42	6310
2026-01-07 20:10:14.86	267.61	40.17	-32.3	-32.9	28.0	0.00e+00	0	36	101	1048576	42	6144
2026-01-07 20:10:15.87	267.24	40.01	-32.4	-33.0	28.2	0.00e+00	0	36	101	1048576	42	6201
2026-01-07 20:10:16.88	266.88	39.84	-32.3	-32.9	28.4	0.00e+00	0	36	101	1048576	42	6121
2026-01-07 20:10:17.89	266.52	39.67	-32.4	-32.9	28.2	0.00e+00	0	36	101	1048576	42	6165
2026-01-07 20:10:18.90	266.17	39.50	-32.5	-33.1	28.1	0.00e+00	0	36	101	1048576	42	6251
2026-01-07 20:10:19.91	265.82	39.33	-32.5	-33.1	27.9	0.00e+00	0	36	101	1048576	42	6293
2026-01-07 20:10:20.92	265.47	39.16	-32.6	-33.2	28.0	0.00e+00	0	36	101	1048576	42	6363
2026-01-07 20:10:21.93	265.12	38.99	-32.8	-33.4	28.0	0.00e+00	0	36	101	1048576	42	6483
2026-01-07 20:10:22.94	264.78	38.82	-32.5	-33.1	28.1	0.00e+00	0	36	101	1048576	42	6308
2026-01-07 20:10:23.95	264.45	38.65	-32.4	-33.0	28.2	0.00e+00	0	36	101	1048576	42	6212
2026-01-07 20:10:24.96	264.11	38.48	-32.5	-33.1	28.1	0.00e+00	0	36	101	1048576	42	6252
2026-01-07 20:10:25.98	263.78	38.31	-32.5	-33.1	28.2	0.00e+00	0	36	101	1048576	42	6278
2026-01-07 20:10:26.99	263.45	38.13	-32.6	-33.2	28.0	0.00e+00	0	36	101	1048576	42	6327
2026-01-07 20:10:28.00	263.13	37.96	-32.6	-33.2	28.0	0.00e+00	0	36	101	1048576	42	6371
2026-01-07 20:10:29.01	262.81	37.79	-32.7	-33.3	27.9	0.00e+00	0	36	101	1048576	42	6447
2026-01-07 20:10:30.02	262.49	37.62	-32.7	-33.3	27.9	0.00e+00	0	36	101	1048576	42	6443
2026-01-07 20:10:31.03	262.18	37.45	-32.6	-33.2	27.9	0.00e+00	0	36	101	1048576	42	6355
2026-01-07 20:10:32.04	261.87	37.27	-32.6	-33.2	28.0	0.00e+00	0	36	101	1048576	42	6378
2026-01-07 20:10:33.06	261.56	37.10	-32.7	-33.3	28.0	0.00e+00	0	36	101	1048576	42	6419
2026-01-07 20:10:34.07	261.26	36.93	-32.7	-33.3	28.0	0.00e+00	0	36	101	1048576	42	6420
2026-01-07 20:10:35.08	260.96	36.76	-32.5	-33.1	28.1	0.00e+00	0	36	101	1048576	42	6315
2026-01-07 20:10:36.09	260.66	36.58	-32.5	-33.1	27.9	0.00e+00	0	36	101	1048576	42	6261
2026-01-07 20:10:37.10	260.37	36.41	-32.6	-33.2	28.0	0.00e+00	0	36	101	1048576	42	6342
2026-01-07 20:10:38.11	260.08	36.24	-32.4	-32.9	28.1	0.00e+00	0	36	101	1048576	42	6161
2026-01-07 20:10:39.12	259.79	36.07	-32.2	-32.8	28.3	0.00e+00	0	36	101	1048576	42	6095
2026-01-07 20:10:40.13	259.51	35.89	-32.1	-32.7	28.4	0.00e+00	0	36	101	1048576	42	5997
2026-01-07 20:10:41.14	259.22	35.72	-32.1	-32.7	27.0	0.00e+00	0	36	101	1048576	42	6007
2026-01-07 20:10:42.16	258.94	35.55	-32.3	-32.9	28.2	0.00e+00	0	36	101	1048576	42	6122
2026-01-07 20:10:43.17	258.67	35.38	-32.3	-32.8	28.2	0.00e+00	0	36	101	1048576	42	6102
2026-01-07 20:10:44.18	258.39	35.21	-32.4	-33.0	28.2	0.00e+00	0	36	101	1048576	42	6243
2026-01-07 20:10:45.19	258.13	35.04	-32.0	-32.6	28.5	0.00e+00	0	36	101	1048576	42	5925
2026-01-07 20:10:46.20	257.86	34.86	-32.0	-32.6	28.4	0.00e+00	0	36	101	1048576	42	5951
2026-01-07 20:10:47.21	257.59	34.69	-32.0	-32.6	28.4	0.00e+00	0	36	101	1048576	42	5952
2026-01-07 20:10:48.22	257.33	34.52	-32.1	-32.7	28.3	0.00e+00	0	36	101	1048576	42	5985
2026-01-07 20:10:49.23	257.07	34.35	-32.2	-32.8	28.3	0.00e+00	0	36	101	1048576	42	6090
2026-01-07 20:10:50.24	256.82	34.18	-32.4	-33.0	28.1	0.00e+00	0	36	101	1048576	42	6229
2026-01-07 20:10:51.26	256.56	34.01	-32.6	-33.2	27.6	0.00e+00	0	36	101	1048576	42	6331
2026-01-07 20:10:52.27	256.31	33.84	-32.5	-33.1	27.9	0.00e+00	0	36	101	1048576	42	6303
2026-01-07 20:10:53.28	256.06	33.67	-32.7	-33.3	28.0	0.00e+00	0	36	101	1048576	42	6425
2026-01-07 20:10:54.29	255.82	33.50	-32.6	-33.2	28.0	0.00e+00	0	36	101	1048576	42	6343
2026-01-07 20:10:55.30	255.58	33.34	-32.5	-33.1	28.0	0.00e+00	0	36	101	1048576	42	6279
2026-01-07 20:10:56.31	255.34	33.17	-32.7	-33.3	28.0	0.00e+00	0	36	101	1048576	42	6413
2026-01-07 20:10:57.32	255.10	33.00	-32.5	-33.1	28.0	0.00e+00	0	36	101	1048576	42	6309
2026-01-07 20:10:58.33	254.86	32.83	-32.5	-33.1	28.1	0.00e+00	0	36	101	1048576	42	6266
2026-01-07 20:10:59.34	254.63	32.66	-32.3	-32.9	28.1	0.00e+00	0	36	101	1048576	42	6162
2026-01-07 20:11:00.36	254.40	32.50	-32.4	-33.0	28.2	0.00e+00	0	36	101	1048576	42	6184
2026-01-07 20:11:01.37	254.17	32.33	-32.2	-32.8	28.0	0.00e+00	0	36	101	1048576	42	6048
2026-01-07 20:11:02.38	253.94	32.16	-32.2	-32.8	28.2	0.00e+00	0	36	101	1048576	42	6054
2026-01-07 20:11:03.39	253.72	32.00	-32.3	-32.9	28.2	0.00e+00	0	36	101	1048576	42	6116
2026-01-07 20:11:04.40	253.50	31.83	-32.3	-32.9	28.3	0.00e+00	0	36	101	1048576	42	6143
2026-01-07 20:11:05.41	253.28	31.67	-32.2	-32.8	28.2	0.00e+00	0	36	101	1048576	42	6099
2026-01-07 20:11:06.42	253.06	31.51	-32.5	-33.1	28.1	0.00e+00	0	36	101	1048576	42	6282
2026-01-07 20:11:07.43	252.85	31.34	-32.6	-33.1	27.7	0.00e+00	0	36	101	1048576	42	6317
2026-01-07 20:11:08.45	252.64	31.18	-32.8	-33.4	27.8	0.00e+00	0	36	101	1048576	42	6468
2026-01-07 20:11:09.46	252.43	31.01	-32.8	-33.4	27.8	0.00e+00	0	36	101	1048576	42	6519
2026-01-07 20:11:10.47	252.22	30.85	-32.8	-33.6	23.4	0.00e+00	0	36	101	1048576	42	6660
2026-01-07 20:11:11.48	252.01	30.69	-32.6	-33.4	23.4	0.00e+00	0	36	101	1048576	42	6534
2026-01-07 20:11:12.49	251.81	30.53	-32.2	-33.1	23.6	0.00e+00	0	36	101	1048576	42	6251
2026-01-07 20:11:13.50	251.61	30.37	-32.2	-33.0	23.7	0.00e+00	0	36	101	1048576	42	6235
2026-01-07 20:11:14.51	251.41	30.21	-32.3	-33.1	23.7	0.00e+00	0	36	101	1048576	42	6264
2026-01-07 20:11:15.52	251.21	30.05	-32.1	-32.9	23.6	0.00e+00	0	36	101	1048576	42	6134
2026-01-07 20:11:16.53	251.01	29.89	-32.2	-33.0	23.7	0.00e+00	0	36	101	1048576	42	6232
2026-01-07 20:11:17.55	250.82	29.73	-32.4	-33.3	23.7	0.00e+00	0	36	101	1048576	42	6404
2026-01-07 20:11:18.56	250.63	29.57	-32.3	-33.1	23.6	0.00e+00	0	36	101	1048576	42	6295
2026-01-07 20:11:19.57	250.44	29.41	-32.3	-33.2	23.7	0.00e+00	0	36	101	1048576	42	6328
2026-01-07 20:11:20.58	250.25	29.25	-32.2	-33.0	23.7	0.00e+00	0	36	101	1048576	42	6210
2026-01-07 20:11:21.59	250.06	29.10	-32.3	-33.1	23.7	0.00e+00	0	36	101	1048576	42	6274
2026-01-07 20:11:22.60	249.88	28.94	-32.0	-32.8	23.9	0.00e+00	0	36	101	1048576	42	6070
2026-01-07 20:11:23.61	249.69	28.79	-32.1	-32.9	24.0	0.00e+00	0	36	101	1048576	42	6108
2026-01-07 20:11:24.62	249.51	28.63	-32.0	-32.8	24.0	0.00e+00	0	36	101	1048576	42	6056
2026-01-07 20:11:25.63	249.33	28.48	-32.1	-32.9	24.0	0.00e+00	0	36	101	1048576	42	6151
2026-01-07 20:11:26.64	249.16	28.32	-32.1	-32.9	23.9	0.00e+00	0	36	101	1048576	42	6131
2026-01-07 20:11:27.65	248.98	28.17	-32.2	-33.1	23.6	0.00e+00	0	36	101	1048576	42	6251
2026-01-07 20:11:28.67	248.81	28.01	-32.2	-33.0	23.9	0.00e+00	0	36	101	1048576	42	6208
2026-01-07 20:11:29.68	248.63	27.86	-32.3	-33.0	23.9	0.00e+00	0	36	101	1048576	42	6244
2026-01-07 20:11:30.69	248.46	27.71	-32.2	-33.0	23.8	0.00e+00	0	36	101	1048576	42	6185
2026-01-07 20:11:31.70	248.29	27.56	-32.4	-33.2	24.0	0.00e+00	0	36	101	1048576	42	6322
2026-01-07 20:11:32.71	248.13	27.41	-32.3	-33.1	24.0	0.00e+00	0	36	101	1048576	42	6252
2026-01-07 20:11:33.72	247.96	27.26	-32.4	-33.2	23.9	0.00e+00	0	36	101	1048576	42	6356
2026-01-07 20:11:34.73	247.80	27.11	-32.5	-33.3	23.7	0.00e+00	0	36	101	1048576	42	6454
2026-01-07 20:11:35.75	247.63	26.96	-32.7	-33.5	23.6	0.00e+00	0	36	101	1048576	42	6569
2026-01-07 20:11:36.76	247.47	26.81	-32.7	-33.5	23.7	0.00e+00	0	36	101	1048576	42	6567
2026-01-07 20:11:37.77	247.31	26.66	-32.7	-33.5	23.7	0.00e+00	0	36	101	1048576	42	6580
2026-01-07 20:11:38.78	247.15	26.51	-32.6	-33.4	23.8	0.00e+00	0	36	101	1048576	42	6507
2026-01-07 20:11:39.79	247.00	26.37	-32.4	-33.2	23.8	0.00e+00	0	36	101	1048576	42	6386
2026-01-07 20:11:40.80	246.84	26.22	-32.4	-33.3	23.8	0.00e+00	0	36	101	1048576	42	6395
2026-01-07 20:11:41.81	246.69	26.07	-32.5	-33.3	23.7	0.00e+00	0	36	101	1048576	42	6436
2026-01-07 20:11:42.82	246.54	25.93	-32.6	-33.4	23.4	0.00e+00	0	36	101	1048576	42	6528
2026-01-07 20:11:43.83	246.39	25.78	-32.6	-33.4	23.5	0.00e+00	0	36	101	1048576	42	6533
2026-01-07 20:11:44.85	246.23	25.64	-32.9	-33.7	23.4	0.00e+00	0	36	101	1048576	42	6737
2026-01-07 20:11:45.86	246.09	25.50	-32.7	-33.6	23.4	0.00e+00	0	36	101	1048576	42	6635
2026-01-07 20:11:46.87	245.94	25.35	-32.8	-33.6	23.0	0.00e+00	0	36	101	1048576	42	6674
2026-01-07 20:11:47.88	245.79	25.21	-32.8	-33.7	23.3	0.00e+00	0	36	101	1048576	42	6722
2026-01-07 20:11:48.89	245.65	25.07	-32.8	-33.7	23.3	0.00e+00	0	36	101	1048576	42	6719
2026-01-07 20:11:49.90	245.51	24.93	-32.8	-33.7	23.3	0.00e+00	0	36	101	1048576	42	6710
2026-01-07 20:11:50.91	245.37	24.79	-32.8	-33.6	23.4	0.00e+00	0	36	101	1048576	42	6647
2026-01-07 20:11:51.92	245.23	24.65	-32.9	-33.7	23.4	0.00e+00	0	36	101	1048576	42	6766
2026-01-07 20:11:52.93	245.09	24.51	-32.9	-33.7	23.5	0.00e+00	0	36	101	1048576	42	6761
2026-01-07 20:11:53.94	244.95	24.37	-32.6	-33.5	23.5	0.00e+00	0	36	101	1048576	42	6544
2026-01-07 20:11:54.95	244.81	24.23	-32.5	-33.3	23.6	0.00e+00	0	36	101	1048576	42	6462
2026-01-07 20:11:55.96	244.68	24.09	-32.5	-33.4	23.6	0.00e+00	0	36	101	1048576	42	6476
2026-01-07 20:11:56.97	244.54	23.95	-32.6	-33.4	23.6	0.00e+00	0	36	101	1048576	42	6500
2026-01-07 20:11:57.98	244.41	23.82	-32.4	-33.2	23.7	0.00e+00	0	36	101	1048576	42	6321
2026-01-07 20:11:59.00	244.28	23.68	-32.4	-33.2	23.8	0.00e+00	0	36	101	1048576	42	6328
2026-01-07 20:12:00.01	244.15	23.54	-32.2	-33.0	23.9	0.00e+00	0	36	101	1048576	42	6219
2026-01-07 20:12:01.02	244.02	23.41	-32.3	-33.1	24.0	0.00e+00	0	36	101	1048576	42	6304
2026-01-07 20:12:02.03	243.89	23.27	-32.1	-32.9	24.0	0.00e+00	0	36	101	1048576	42	6130
2026-01-07 20:12:03.04	243.76	23.14	-32.2	-33.0	24.0	0.00e+00	0	36	101	1048576	42	6185
2026-01-07 20:12:04.05	243.64	23.01	-32.3	-33.1	24.0	0.00e+00	0	36	101	1048576	42	6270
2026-01-07 20:12:05.06	243.51	22.87	-32.2	-33.0	23.9	0.00e+00	0	36	101	1048576	42	6227
2026-01-07 20:12:06.07	243.39	22.74	-32.3	-33.1	24.0	0.00e+00	0	36	101	1048576	42	6278
2026-01-07 20:12:07.08	243.27	22.61	-32.3	-33.1	24.0	0.00e+00	0	36	101	1048576	42	6293
2026-01-07 20:12:08.09	243.14	22.48	-32.4	-33.2	23.9	0.00e+00	0	36	101	1048576	42	6387
2026-01-07 20:12:09.10	243.02	22.35	-32.5	-33.3	23.9	0.00e+00	0	36	101	1048576	42	6423
2026-01-07 20:12:10.11	242.90	22.21	-32.6	-33.4	23.9	0.00e+00	0	36	101	1048576	42	6495
2026-01-07 20:12:11.12	242.79	22.09	-32.6	-33.4	24.0	0.00e+00	0	36	101	1048576	42	6486
2026-01-07 20:12:12.13	242.67	21.96	-32.7	-33.5	23.9	0.00e+00	0	36	101	1048576	42	6595
2026-01-07 20:12:13.15	242.55	21.83	-32.8	-33.6	23.8	0.00e+00	0	36	101	1048576	42	6676
2026-01-07 20:12:14.16	242.43	21.70	-32.9	-33.7	23.2	0.00e+00	0	36	101	1048576	42	6744
2026-01-07 20:12:15.17	242.32	21.57	-33.0	-33.8	23.8	0.00e+00	0	36	101	1048576	42	6833
2026-01-07 20:12:16.18	242.21	21.44	-33.0	-33.8	23.7	0.00e+00	0	36	101	1048576	42	6813
2026-01-07 20:12:17.19	242.09	21.32	-32.9	-33.8	23.6	0.00e+00	0	36	101	1048576	44	6043
2026-01-07 20:12:18.20	241.98	21.19	-33.0	-33.8	23.6	0.00e+00	0	36	101	1048576	44	6097
2026-01-07 20:12:19.21	241.87	21.06	-33.0	-33.8	23.7	0.00e+00	0	36	101	1048576	44	6083
2026-01-07 20:12:20.22	241.76	20.94	-33.2	-34.0	23.4	0.00e+00	0	36	101	1048576	44	6210
2026-01-07 20:12:21.23	241.65	20.81	-32.9	-33.8	23.7	0.00e+00	0	36	101	1048576	44	6034
2026-01-07 20:12:22.24	241.54	20.69	-33.1	-33.9	23.6	0.00e+00	0	36	101	1048576	44	6108
2026-01-07 20:12:23.26	241.44	20.56	-33.1	-33.9	23.7	0.00e+00	0	36	101	1048576	44	6162
2026-01-07 20:12:24.27	241.33	20.44	-33.1	-33.9	23.7	0.00e+00	0	36	101	1048576	44	6152
2026-01-07 20:12:25.28	241.22	20.32	-32.8	-33.6	23.8	0.00e+00	0	36	101	1048576	44	5957
2026-01-07 20:12:26.29	241.12	20.20	-32.9	-33.7	23.9	0.00e+00	0	36	101	1048576	44	6021
2026-01-07 20:12:27.30	241.02	20.08	-32.8	-33.6	23.9	0.00e+00	0	36	101	1048576	44	5954
2026-01-07 20:12:28.31	240.91	19.95	-32.9	-33.7	23.8	0.00e+00	0	36	101	1048576	44	5996
2026-01-07 20:12:29.32	240.81	19.83	-33.0	-33.8	23.9	0.00e+00	0	36	101	1048576	44	6077
2026-01-07 20:12:30.33	240.71	19.71	-33.0	-33.8	23.8	0.00e+00	0	36	101	1048576	44	6071
2026-01-07 20:12:31.34	240.61	19.59	-33.0	-33.8	24.0	0.00e+00	0	36	101	1048576	44	6063
2026-01-07 20:12:32.35	240.51	19.47	-33.1	-33.9	23.9	0.00e+00	0	36	101	1048576	44	6125
2026-01-07 20:12:33.36	240.41	19.36	-33.1	-33.9	23.9	0.00e+00	0	36	101	1048576	44	6131
2026-01-07 20:12:34.37	240.31	19.24	-33.2	-33.9	23.9	0.00e+00	0	36	101	1048576	44	6168
2026-01-07 20:12:35.38	240.22	19.12	-33.3	-34.1	23.8	0.00e+00	0	36	101	1048576	44	6279
2026-01-07 20:12:36.40	240.12	19.00	-33.4	-34.2	23.7	0.00e+00	0	36	101	1048576	44	6343
2026-01-07 20:12:37.41	240.02	18.88	-33.5	-34.3	23.6	0.00e+00	0	36	101	1048576	44	6445
2026-01-07 20:12:38.42	239.93	18.77	-33.6	-34.4	23.5	0.00e+00	0	36	101	1048576	44	6510
2026-01-07 20:12:39.43	239.83	18.65	-33.6	-34.4	23.5	0.00e+00	0	36	101	1048576	44	6504
2026-01-07 20:12:40.44	239.74	18.54	-33.8	-34.6	23.5	0.00e+00	0	36	101	1048576	44	6641
2026-01-07 20:12:41.45	239.65	18.42	-33.6	-34.5	23.5	0.00e+00	0	36	101	1048576	44	6551
2026-01-07 20:12:42.46	239.55	18.31	-33.7	-34.5	23.4	0.00e+00	0	36	101	1048576	44	6565
2026-01-07 20:12:43.47	239.46	18.19	-33.7	-34.5	23.4	0.00e+00	0	36	101	1048576	44	6591
2026-01-07 20:12:44.48	239.37	18.08	-33.7	-34.5	23.4	0.00e+00	0	36	101	1048576	44	6574
2026-01-07 20:12:45.49	239.28	17.96	-33.8	-34.6	23.3	0.00e+00	0	36	101	1048576	44	6643
2026-01-07 20:12:46.51	239.19	17.85	-33.6	-34.4	23.4	0.00e+00	0	36	101	1048576	44	6498
2026-01-07 20:12:47.52	239.10	17.74	-33.7	-34.5	23.4	0.00e+00	0	36	101	1048576	44	6612
2026-01-07 20:12:48.53	239.02	17.63	-33.5	-34.3	23.4	0.00e+00	0	36	101	1048576	44	6446
2026-01-07 20:12:49.54	238.93	17.52	-33.5	-34.4	23.4	0.00e+00	0	36	101	1048576	44	6465
2026-01-07 20:12:50.55	238.84	17.40	-33.5	-34.3	23.5	0.00e+00	0	36	101	1048576	44	6462
2026-01-07 20:12:51.56	238.76	17.29	-33.7	-34.5	23.5	0.00e+00	0	36	101	1048576	44	6559
2026-01-07 20:12:52.57	238.67	17.18	-33.5	-34.3	23.5	0.00e+00	0	36	101	1048576	44	6424
2026-01-07 20:12:53.58	238.59	17.07	-33.5	-34.3	23.5	0.00e+00	0	36	101	1048576	44	6417
2026-01-07 20:12:54.59	238.50	16.96	-33.5	-34.3	23.5	0.00e+00	0	36	101	1048576	44	6457
2026-01-07 20:12:55.60	238.42	16.86	-33.6	-34.4	23.5	0.00e+00	0	36	101	1048576	44	6484
2026-01-07 20:12:56.62	238.34	16.75	-33.7	-34.5	23.4	0.00e+00	0	36	101	1048576	44	6571
2026-01-07 20:12:57.63	238.25	16.64	-33.8	-34.6	23.4	0.00e+00	0	36	101	1048576	44	6652
2026-01-07 20:12:58.64	238.17	16.53	-33.8	-34.6	23.4	0.00e+00	0	36	101	1048576	44	6672
2026-01-07 20:12:59.65	238.09	16.42	-34.0	-34.8	23.2	0.00e+00	0	36	101	1048576	44	6807
2026-01-07 20:13:00.66	238.01	16.32	-34.0	-34.8	23.3	0.00e+00	0	36	101	1048576	44	6834
2026-01-07 20:13:01.67	237.93	16.21	-34.1	-34.9	23.2	0.00e+00	0	36	101	1048576	46	6157
2026-01-07 20:13:02.68	237.85	16.10	-34.2	-35.0	23.2	0.00e+00	0	36	101	1048576	46	6219
2026-01-07 20:13:03.69	237.77	16.00	-34.3	-35.1	23.1	0.00e+00	0	36	101	1048576	46	6283
2026-01-07 20:13:04.70	237.69	15.89	-34.4	-35.2	23.1	0.00e+00	0	36	101	1048576	46	6381
2026-01-07 20:13:05.71	237.62	15.79	-34.4	-35.2	23.1	0.00e+00	0	36	101	1048576	46	6376
2026-01-07 20:13:06.73	237.54	15.68	-34.4	-35.3	23.1	0.00e+00	0	36	101	1048576	46	6397
