passes_logs/2026/01/07/R4.6S_Anadyr_2ch/R4.6S_Anadyr_2ch__20260107_100727_TY-40_rec.log

#Pass ID: 20260107_100727_TY-40
#Satellite: TY-40
#Configuration: TY-39_900M
#almurnet v.1.7.20251203
#Start time: 2026-01-07 10:07:58

#Version: 2.2.20231116
#Station: R4.6S_Anadyr_2ch
#Location: 177.4865 lon 64.73178 lat
#TLE: 1 56846U 23081A   25350.97536409  .00002626  00000-0  11966-3 0  9993
#TLE: 2 56846  97.3941  59.4076 0002022  98.6035 261.5430 15.21533877140291

#Time	Az	El	Level	Level2	SNR	BER	BlckErr	Temp	State	Recorded	gain1	gain2
2026-01-07 10:07:58.44	186.83	1.99	-51.6	-53.2	5.7	0.00e+00	0	31	0	0	60	76378
2026-01-07 10:07:59.45	186.89	2.05	-51.5	-54.0	6.1	0.00e+00	0	33	104	0	60	83372
2026-01-07 10:08:00.46	186.94	2.12	-51.5	-54.0	6.1	0.00e+00	0	33	104	0	60	83568
2026-01-07 10:08:01.47	187.00	2.19	-51.5	-54.0	6.1	0.00e+00	0	34	104	0	60	83328
2026-01-07 10:08:02.48	187.06	2.26	-51.5	-54.0	6.1	0.00e+00	0	34	104	0	60	83503
2026-01-07 10:08:03.49	187.11	2.33	-51.5	-54.0	6.0	0.00e+00	0	34	104	0	60	83684
2026-01-07 10:08:04.50	187.17	2.40	-51.5	-54.0	6.0	0.00e+00	0	34	104	0	60	83708
2026-01-07 10:08:05.51	187.23	2.47	-51.5	-54.0	6.1	0.00e+00	0	34	104	0	60	83888
2026-01-07 10:08:06.52	187.28	2.53	-51.5	-54.0	6.1	0.00e+00	0	34	104	0	60	83516
2026-01-07 10:08:07.53	187.34	2.60	-51.5	-54.0	6.1	0.00e+00	0	34	104	0	60	83699
2026-01-07 10:08:08.54	187.40	2.67	-51.5	-54.0	6.1	0.00e+00	0	34	104	0	60	84134
2026-01-07 10:08:09.56	187.46	2.74	-51.5	-54.0	6.1	0.00e+00	0	34	104	0	60	83821
2026-01-07 10:08:10.57	187.52	2.82	-51.5	-54.0	6.1	0.00e+00	0	34	104	0	60	83544
2026-01-07 10:08:11.58	187.57	2.89	-51.5	-54.0	6.1	0.00e+00	0	34	104	0	60	83623
2026-01-07 10:08:12.58	187.63	2.96	-51.5	-54.0	6.1	0.00e+00	0	34	104	0	60	83651
2026-01-07 10:08:13.60	187.69	3.03	-51.5	-54.0	6.1	0.00e+00	0	34	104	0	60	83371
2026-01-07 10:08:14.61	187.75	3.10	-51.5	-54.0	6.1	0.00e+00	0	34	104	0	60	83437
2026-01-07 10:08:15.62	187.81	3.17	-51.5	-54.0	6.1	0.00e+00	0	34	104	0	60	83605
2026-01-07 10:08:16.63	187.88	3.24	-51.5	-54.0	6.1	0.00e+00	0	34	104	0	60	83846
2026-01-07 10:08:17.64	187.94	3.31	-51.5	-54.0	6.1	0.00e+00	0	34	104	0	60	83442
2026-01-07 10:08:18.65	188.00	3.38	-51.5	-54.0	6.1	0.00e+00	0	34	104	0	60	83763
2026-01-07 10:08:19.66	188.06	3.46	-51.5	-54.0	6.1	0.00e+00	0	34	104	0	60	84007
2026-01-07 10:08:20.67	188.12	3.53	-51.5	-54.1	6.1	0.00e+00	0	34	104	0	60	84249
2026-01-07 10:08:21.68	188.18	3.60	-51.5	-54.0	6.1	0.00e+00	0	34	104	0	60	83575
2026-01-07 10:08:22.69	188.25	3.67	-51.5	-54.0	6.1	0.00e+00	0	34	104	0	60	83566
2026-01-07 10:08:23.70	188.31	3.75	-51.5	-54.0	6.0	0.00e+00	0	34	104	0	60	83743
2026-01-07 10:08:24.72	188.37	3.82	-51.5	-54.0	6.1	0.00e+00	0	34	104	0	60	83832
2026-01-07 10:08:25.73	188.44	3.90	-51.5	-54.0	6.1	0.00e+00	0	34	104	0	60	83736
2026-01-07 10:08:26.74	188.50	3.97	-51.5	-54.0	6.1	0.00e+00	0	34	104	0	60	83836
2026-01-07 10:08:27.75	188.57	4.04	-51.5	-54.0	6.1	0.00e+00	0	34	104	0	60	83948
2026-01-07 10:08:28.76	188.63	4.12	-51.5	-54.0	6.1	0.00e+00	0	34	104	0	60	83781
2026-01-07 10:08:29.77	188.70	4.19	-51.5	-54.0	6.1	0.00e+00	0	34	104	0	60	84121
2026-01-07 10:08:30.78	188.77	4.27	-51.5	-54.0	6.1	0.00e+00	0	34	104	0	60	83630
2026-01-07 10:08:31.79	188.83	4.34	-51.5	-54.0	6.1	0.00e+00	0	34	104	0	60	83982
2026-01-07 10:08:32.80	188.90	4.42	-51.5	-54.0	6.1	0.00e+00	0	34	104	0	60	83703
2026-01-07 10:08:33.81	188.97	4.49	-51.5	-54.0	6.1	0.00e+00	0	34	104	0	60	83843
2026-01-07 10:08:34.82	189.03	4.57	-51.5	-54.0	6.1	0.00e+00	0	34	104	0	60	83684
2026-01-07 10:08:35.84	189.10	4.65	-51.5	-54.0	6.1	0.00e+00	0	34	104	0	60	83880
2026-01-07 10:08:36.85	189.17	4.72	-51.5	-54.0	6.1	0.00e+00	0	34	104	0	60	83861
2026-01-07 10:08:37.85	189.24	4.80	-51.5	-54.0	6.1	0.00e+00	0	34	104	0	60	83792
2026-01-07 10:08:38.86	189.31	4.88	-51.5	-54.0	6.1	0.00e+00	0	34	104	0	60	83630
2026-01-07 10:08:39.87	189.38	4.95	-51.5	-54.0	6.1	0.00e+00	0	34	104	0	60	83598
2026-01-07 10:08:40.89	189.45	5.03	-51.5	-54.0	6.1	0.00e+00	0	35	104	0	60	83825
2026-01-07 10:08:41.90	189.52	5.11	-51.5	-54.0	6.1	0.00e+00	0	35	104	0	60	83511
2026-01-07 10:08:42.91	189.59	5.19	-51.5	-54.0	6.1	0.00e+00	0	35	104	0	60	84013
2026-01-07 10:08:43.92	189.66	5.27	-51.5	-54.0	6.1	0.00e+00	0	35	104	0	60	83864
2026-01-07 10:08:44.93	189.74	5.34	-51.5	-54.0	6.1	0.00e+00	0	34	104	0	60	83877
2026-01-07 10:08:45.94	189.81	5.42	-51.5	-54.0	6.1	0.00e+00	0	35	104	0	60	83936
2026-01-07 10:08:46.95	189.88	5.50	-51.5	-54.0	6.1	0.00e+00	0	35	104	0	60	83832
2026-01-07 10:08:47.96	189.96	5.58	-51.5	-54.0	6.1	0.00e+00	0	35	104	0	60	84018
2026-01-07 10:08:48.97	190.03	5.66	-51.5	-54.0	6.1	0.00e+00	0	35	104	0	60	83747
2026-01-07 10:08:49.98	190.10	5.74	-51.5	-54.0	6.1	0.00e+00	0	35	104	0	60	83525
2026-01-07 10:08:50.99	190.18	5.82	-51.5	-54.0	6.1	0.00e+00	0	35	104	0	60	83582
2026-01-07 10:08:52.00	190.25	5.90	-51.5	-54.0	6.1	0.00e+00	0	35	104	0	60	83790
2026-01-07 10:08:53.01	190.33	5.98	-51.5	-54.0	6.1	0.00e+00	0	35	104	0	60	84197
2026-01-07 10:08:54.03	190.41	6.07	-51.5	-54.0	6.1	0.00e+00	0	35	104	0	60	83805
2026-01-07 10:08:55.04	190.49	6.15	-51.5	-54.0	6.1	0.00e+00	0	35	104	0	60	83879
2026-01-07 10:08:56.05	190.56	6.23	-51.5	-54.0	6.1	0.00e+00	0	35	104	0	60	83453
2026-01-07 10:08:57.06	190.64	6.31	-51.5	-54.0	6.1	0.00e+00	0	35	104	0	60	84211
2026-01-07 10:08:58.07	190.72	6.39	-51.5	-54.0	6.1	0.00e+00	0	35	104	0	60	83753
2026-01-07 10:08:59.08	190.80	6.48	-51.5	-54.0	6.1	0.00e+00	0	35	104	0	60	83846
2026-01-07 10:09:00.09	190.88	6.56	-51.5	-54.1	6.1	0.00e+00	0	35	104	0	60	84294
2026-01-07 10:09:01.11	190.96	6.64	-51.5	-54.0	6.1	0.00e+00	0	35	104	0	60	83655
2026-01-07 10:09:02.12	191.04	6.73	-51.5	-54.0	6.1	0.00e+00	0	35	104	0	60	84016
2026-01-07 10:09:03.13	191.12	6.81	-51.5	-54.0	6.1	0.00e+00	0	35	104	0	60	83805
2026-01-07 10:09:04.14	191.20	6.90	-51.5	-54.0	6.1	0.00e+00	0	35	104	0	60	83382
2026-01-07 10:09:05.15	191.29	6.98	-51.5	-54.0	6.1	0.00e+00	0	35	104	0	60	84199
2026-01-07 10:09:06.16	191.37	7.07	-51.5	-54.0	6.1	0.00e+00	0	35	104	0	60	83293
2026-01-07 10:09:07.17	191.45	7.15	-51.5	-54.0	6.0	0.00e+00	0	35	104	0	60	84205
2026-01-07 10:09:08.18	191.54	7.24	-51.5	-54.0	6.1	0.00e+00	0	35	104	0	60	84012
2026-01-07 10:09:09.19	191.62	7.32	-51.5	-54.0	6.1	0.00e+00	0	35	104	0	60	83799
2026-01-07 10:09:10.20	191.71	7.41	-51.5	-54.0	6.1	0.00e+00	0	35	104	0	60	83758
2026-01-07 10:09:11.22	191.79	7.50	-51.5	-54.0	6.1	0.00e+00	0	35	104	0	60	83437
2026-01-07 10:09:12.23	191.88	7.58	-51.5	-54.0	6.1	0.00e+00	0	35	104	0	60	84010
2026-01-07 10:09:13.24	191.97	7.67	-51.5	-54.0	6.1	0.00e+00	0	35	104	0	60	83342
2026-01-07 10:09:14.25	192.06	7.76	-51.5	-54.0	6.1	0.00e+00	0	35	104	0	60	83892
2026-01-07 10:09:15.26	192.15	7.85	-51.5	-54.0	6.1	0.00e+00	0	35	104	0	60	84162
2026-01-07 10:09:16.27	192.23	7.94	-51.5	-54.0	6.1	0.00e+00	0	35	104	0	60	83680
2026-01-07 10:09:17.28	192.32	8.03	-51.5	-54.0	6.1	0.00e+00	0	35	104	0	60	84107
2026-01-07 10:09:18.29	192.42	8.12	-51.5	-54.0	6.1	0.00e+00	0	35	104	0	60	84165
2026-01-07 10:09:19.30	192.51	8.21	-51.5	-54.0	6.1	0.00e+00	0	35	104	0	60	84071
2026-01-07 10:09:20.32	192.60	8.30	-51.5	-54.0	6.1	0.00e+00	0	35	104	0	60	83870
2026-01-07 10:09:21.33	192.69	8.39	-51.5	-54.0	6.1	0.00e+00	0	35	104	0	60	84180
2026-01-07 10:09:22.34	192.79	8.48	-51.5	-54.0	6.1	0.00e+00	0	35	104	0	60	83991
2026-01-07 10:09:23.35	192.88	8.57	-51.5	-54.0	6.1	0.00e+00	0	35	104	0	60	83625
2026-01-07 10:09:24.36	192.97	8.66	-51.5	-54.0	6.1	0.00e+00	0	35	104	0	60	83839
2026-01-07 10:09:25.37	193.07	8.75	-51.5	-54.0	6.1	0.00e+00	0	35	104	0	60	83694
2026-01-07 10:09:26.38	193.17	8.85	-51.5	-54.0	6.1	0.00e+00	0	35	104	0	60	84006
2026-01-07 10:09:27.39	193.26	8.94	-51.5	-54.0	6.1	0.00e+00	0	35	104	0	60	83732
2026-01-07 10:09:28.40	193.36	9.03	-51.5	-54.0	6.1	0.00e+00	0	35	104	0	60	83976
2026-01-07 10:09:29.41	193.46	9.13	-51.5	-54.0	6.1	0.00e+00	0	35	104	0	60	83826
2026-01-07 10:09:30.42	193.56	9.22	-51.5	-54.0	6.1	0.00e+00	0	35	104	0	60	83963
2026-01-07 10:09:31.43	193.66	9.31	-51.5	-54.1	6.1	0.00e+00	0	35	104	0	60	84305
2026-01-07 10:09:32.45	193.76	9.41	-51.5	-54.0	6.1	0.00e+00	0	35	104	0	60	84242
2026-01-07 10:09:33.46	193.86	9.50	-51.5	-54.0	6.1	0.00e+00	0	35	104	0	60	83827
2026-01-07 10:09:34.47	193.96	9.60	-51.5	-54.0	6.1	0.00e+00	0	35	104	0	60	83797
2026-01-07 10:09:35.48	194.06	9.70	-51.5	-54.0	6.1	0.00e+00	0	35	104	0	60	84084
2026-01-07 10:09:36.49	194.17	9.79	-51.5	-54.0	6.1	0.00e+00	0	35	104	0	60	84123
2026-01-07 10:09:37.50	194.27	9.89	-51.5	-54.0	6.1	0.00e+00	0	35	104	0	60	84139
2026-01-07 10:09:38.51	194.38	9.99	-51.5	-54.1	6.1	0.00e+00	0	35	104	0	60	84308
2026-01-07 10:09:39.52	194.49	10.09	-51.5	-54.0	6.1	0.00e+00	0	35	104	0	60	84221
2026-01-07 10:09:40.53	194.59	10.18	-51.6	-54.0	6.1	0.00e+00	0	35	104	0	60	83973
2026-01-07 10:09:41.54	194.70	10.28	-51.5	-54.0	6.1	0.00e+00	0	35	104	0	60	84090
2026-01-07 10:09:42.56	194.81	10.38	-51.5	-54.0	6.1	0.00e+00	0	35	104	0	60	83851
2026-01-07 10:09:43.57	194.92	10.48	-51.5	-54.0	6.1	0.00e+00	0	35	104	0	60	83775
2026-01-07 10:09:44.58	195.03	10.58	-51.6	-54.0	6.1	0.00e+00	0	35	104	0	60	83891
2026-01-07 10:09:45.59	195.14	10.68	-51.5	-54.0	6.1	0.00e+00	0	35	104	0	60	84011
2026-01-07 10:09:46.60	195.25	10.79	-51.5	-54.0	6.1	0.00e+00	0	35	104	0	60	84066
2026-01-07 10:09:47.61	195.37	10.89	-51.5	-54.0	6.1	0.00e+00	0	35	104	0	60	84226
2026-01-07 10:09:48.62	195.48	10.99	-51.6	-54.0	6.1	0.00e+00	0	36	104	0	60	83630
2026-01-07 10:09:49.63	195.60	11.09	-51.5	-54.0	6.1	0.00e+00	0	36	104	0	60	84009
2026-01-07 10:09:50.64	195.71	11.19	-51.5	-54.0	6.1	0.00e+00	0	35	104	0	60	84210
2026-01-07 10:09:51.65	195.83	11.30	-51.6	-54.0	6.1	0.00e+00	0	35	104	0	60	83938
2026-01-07 10:09:52.66	195.95	11.40	-51.6	-54.0	6.1	0.00e+00	0	36	104	0	60	84148
2026-01-07 10:09:53.68	196.07	11.51	-51.6	-54.0	6.1	0.00e+00	0	35	104	0	60	83848
2026-01-07 10:09:54.69	196.19	11.61	-51.5	-54.0	6.1	0.00e+00	0	36	104	0	60	83600
2026-01-07 10:09:55.70	196.31	11.72	-51.6	-54.0	6.1	0.00e+00	0	35	104	0	60	84200
2026-01-07 10:09:56.71	196.43	11.82	-51.6	-54.1	6.1	0.00e+00	0	36	104	0	60	84435
2026-01-07 10:09:57.72	196.55	11.93	-51.6	-54.0	6.1	0.00e+00	0	35	104	0	60	84142
2026-01-07 10:09:58.73	196.68	12.04	-51.5	-54.0	6.1	0.00e+00	0	35	104	0	60	83806
2026-01-07 10:09:59.74	196.80	12.15	-51.5	-54.0	6.1	0.00e+00	0	36	104	0	60	83983
2026-01-07 10:10:00.75	196.93	12.25	-51.6	-54.0	6.1	0.00e+00	0	36	104	0	60	84125
2026-01-07 10:10:01.76	197.06	12.36	-51.5	-54.0	6.1	0.00e+00	0	36	104	0	60	84164
2026-01-07 10:10:02.78	197.19	12.47	-51.6	-54.0	6.1	0.00e+00	0	36	104	0	60	83995
2026-01-07 10:10:03.79	197.32	12.58	-51.6	-54.0	6.1	0.00e+00	0	36	104	0	60	83671
2026-01-07 10:10:04.80	197.45	12.69	-51.6	-54.0	6.1	0.00e+00	0	35	104	0	60	84242
2026-01-07 10:10:05.81	197.58	12.80	-51.6	-54.0	6.1	0.00e+00	0	36	104	0	60	83601
2026-01-07 10:10:06.82	197.71	12.92	-51.5	-54.0	6.1	0.00e+00	0	36	104	0	60	83782
2026-01-07 10:10:07.83	197.85	13.03	-51.6	-54.0	6.1	0.00e+00	0	36	104	0	60	83846
2026-01-07 10:10:08.84	197.98	13.14	-51.6	-54.0	6.1	0.00e+00	0	36	104	0	60	83992
2026-01-07 10:10:09.85	198.12	13.25	-51.6	-54.0	6.1	0.00e+00	0	36	104	0	60	83846
2026-01-07 10:10:10.86	198.26	13.37	-51.6	-54.0	6.1	0.00e+00	0	36	104	0	60	84233
2026-01-07 10:10:11.87	198.40	13.48	-51.6	-54.0	6.1	0.00e+00	0	36	104	0	60	84096
2026-01-07 10:10:12.88	198.54	13.60	-51.5	-54.0	6.1	0.00e+00	0	36	104	0	60	83989
2026-01-07 10:10:13.89	198.68	13.71	-51.6	-54.0	6.1	0.00e+00	0	36	104	0	60	83996
2026-01-07 10:10:14.91	198.82	13.83	-51.6	-54.0	6.1	0.00e+00	0	36	104	0	60	83913
2026-01-07 10:10:15.92	198.97	13.94	-51.6	-54.0	6.1	0.00e+00	0	36	104	0	60	84242
2026-01-07 10:10:16.93	199.11	14.06	-51.6	-54.0	6.1	0.00e+00	0	36	104	0	60	83753
2026-01-07 10:10:17.94	199.26	14.18	-51.6	-54.0	6.1	0.00e+00	0	36	104	0	60	83590
2026-01-07 10:10:18.95	199.41	14.30	-51.6	-54.0	6.1	0.00e+00	0	36	104	0	60	83781
2026-01-07 10:10:19.96	199.56	14.42	-51.6	-54.0	6.1	0.00e+00	0	36	104	0	60	84236
2026-01-07 10:10:20.97	199.71	14.54	-51.6	-54.0	6.1	0.00e+00	0	36	104	0	60	84228
2026-01-07 10:10:21.98	199.86	14.66	-51.6	-54.0	6.1	0.00e+00	0	36	104	0	60	83757
2026-01-07 10:10:22.99	200.02	14.78	-51.6	-54.0	6.1	0.00e+00	0	36	104	0	60	83867
2026-01-07 10:10:24.00	200.17	14.90	-51.6	-54.1	6.1	0.00e+00	0	36	104	0	60	84385
2026-01-07 10:10:25.01	200.33	15.02	-51.5	-54.0	6.1	0.00e+00	0	36	104	0	60	84041
2026-01-07 10:10:26.03	200.49	15.14	-51.6	-54.0	6.1	0.00e+00	0	36	104	0	60	84153
2026-01-07 10:10:27.04	200.65	15.27	-51.6	-54.0	6.1	0.00e+00	0	36	104	0	60	83932
2026-01-07 10:10:28.05	200.81	15.39	-51.6	-54.1	6.1	0.00e+00	0	36	104	0	60	84556
2026-01-07 10:10:29.06	200.97	15.51	-51.6	-54.0	6.1	0.00e+00	0	36	104	0	60	83920
2026-01-07 10:10:30.07	201.14	15.64	-51.6	-54.1	6.1	0.00e+00	0	36	104	0	60	84443
2026-01-07 10:10:31.08	201.30	15.77	-51.6	-54.1	6.1	0.00e+00	0	36	104	0	60	84347
2026-01-07 10:10:32.09	201.47	15.89	-51.6	-54.0	6.1	0.00e+00	0	36	104	0	60	84116
2026-01-07 10:10:33.10	201.64	16.02	-51.6	-54.0	6.1	0.00e+00	0	36	104	0	60	83882
2026-01-07 10:10:34.11	201.81	16.15	-51.6	-54.1	6.1	0.00e+00	0	36	104	0	60	84511
2026-01-07 10:10:35.12	201.98	16.27	-51.6	-54.0	6.1	0.00e+00	0	36	104	0	60	84137
2026-01-07 10:10:36.13	202.16	16.40	-51.6	-54.0	6.1	0.00e+00	0	36	104	0	60	84190
2026-01-07 10:10:37.14	202.33	16.53	-51.6	-54.0	6.1	0.00e+00	0	36	104	0	60	83932
2026-01-07 10:10:38.15	202.51	16.66	-51.6	-54.1	6.1	0.00e+00	0	36	104	0	60	84301
2026-01-07 10:10:39.16	202.69	16.79	-51.6	-54.0	6.1	0.00e+00	0	36	104	0	60	84000
2026-01-07 10:10:40.17	202.87	16.93	-51.6	-54.1	6.1	0.00e+00	0	36	104	0	60	84277
2026-01-07 10:10:41.19	203.06	17.06	-51.6	-54.0	6.1	0.00e+00	0	36	104	0	60	83995
2026-01-07 10:10:42.20	203.24	17.19	-51.6	-54.1	6.1	0.00e+00	0	36	104	0	60	84358
2026-01-07 10:10:43.21	203.43	17.33	-51.6	-54.0	6.1	0.00e+00	0	36	104	0	60	84146
2026-01-07 10:10:44.22	203.62	17.46	-51.6	-54.0	6.1	0.00e+00	0	36	104	0	60	84021
2026-01-07 10:10:45.23	203.81	17.60	-51.6	-54.1	6.1	0.00e+00	0	36	104	0	60	84533
2026-01-07 10:10:46.24	204.00	17.73	-51.6	-54.0	6.1	0.00e+00	0	36	104	0	60	83938
2026-01-07 10:10:47.25	204.19	17.87	-51.6	-54.1	6.1	0.00e+00	0	36	104	0	60	84272
2026-01-07 10:10:48.26	204.39	18.00	-51.6	-54.0	6.1	0.00e+00	0	36	104	0	60	84223
2026-01-07 10:10:49.27	204.59	18.14	-51.6	-54.0	6.1	0.00e+00	0	36	104	0	60	83949
2026-01-07 10:10:50.28	204.79	18.28	-51.6	-54.0	6.1	0.00e+00	0	36	104	0	60	83795
2026-01-07 10:10:51.29	204.99	18.42	-51.6	-54.0	6.1	0.00e+00	0	36	104	0	60	84196
2026-01-07 10:10:52.31	205.20	18.56	-51.6	-54.1	6.1	0.00e+00	0	36	104	0	60	84466
2026-01-07 10:10:53.32	205.41	18.70	-51.6	-54.0	6.1	0.00e+00	0	36	104	0	60	83646
2026-01-07 10:10:54.33	205.62	18.84	-51.6	-54.0	6.1	0.00e+00	0	36	104	0	60	84215
2026-01-07 10:10:55.34	205.83	18.98	-51.6	-54.0	6.1	0.00e+00	0	36	104	0	60	84235
2026-01-07 10:10:56.35	206.04	19.13	-51.6	-54.0	6.1	0.00e+00	0	36	104	0	60	84104
2026-01-07 10:10:57.36	206.26	19.27	-51.6	-54.0	6.1	0.00e+00	0	36	104	0	60	84096
2026-01-07 10:10:58.37	206.47	19.41	-51.6	-54.0	6.1	0.00e+00	0	36	104	0	60	84084
2026-01-07 10:10:59.38	206.69	19.56	-51.6	-54.1	6.1	0.00e+00	0	36	104	0	60	84351
2026-01-07 10:11:00.39	206.92	19.70	-51.6	-54.1	6.1	0.00e+00	0	36	104	0	60	84371
2026-01-07 10:11:01.41	207.15	19.85	-51.6	-54.1	6.1	0.00e+00	0	36	104	0	60	84758
2026-01-07 10:11:02.42	207.37	20.00	-51.6	-54.1	6.0	0.00e+00	0	36	104	0	60	84379
2026-01-07 10:11:03.43	207.60	20.15	-51.6	-54.0	6.1	0.00e+00	0	36	104	0	60	84118
2026-01-07 10:11:04.44	207.84	20.29	-51.6	-54.0	6.1	0.00e+00	0	36	104	0	60	84206
2026-01-07 10:11:05.45	208.07	20.44	-51.6	-54.1	6.1	0.00e+00	0	36	104	0	60	84413
2026-01-07 10:11:06.46	208.31	20.59	-51.6	-54.0	6.1	0.00e+00	0	36	104	0	60	84207
2026-01-07 10:11:07.47	208.55	20.74	-51.6	-54.0	6.1	0.00e+00	0	36	104	0	60	84049
2026-01-07 10:11:08.48	208.79	20.89	-51.6	-54.0	6.1	0.00e+00	0	36	104	0	60	84074
2026-01-07 10:11:09.49	209.04	21.05	-51.6	-54.1	6.1	0.00e+00	0	36	104	0	60	84448
2026-01-07 10:11:10.51	209.29	21.20	-51.6	-54.1	6.1	0.00e+00	0	36	104	0	60	84544
2026-01-07 10:11:11.52	209.54	21.35	-51.6	-54.0	6.1	0.00e+00	0	36	104	0	60	84151
2026-01-07 10:11:12.53	209.79	21.51	-51.6	-54.1	6.0	0.00e+00	0	36	104	0	60	84513
2026-01-07 10:11:13.54	210.05	21.66	-51.6	-54.0	6.1	0.00e+00	0	36	104	0	60	84071
2026-01-07 10:11:14.55	210.31	21.81	-51.6	-54.1	6.1	0.00e+00	0	36	104	0	60	84335
2026-01-07 10:11:15.56	210.57	21.97	-51.6	-54.1	6.1	0.00e+00	0	36	104	0	60	84466
2026-01-07 10:11:16.57	210.84	22.13	-51.6	-54.0	6.1	0.00e+00	0	36	104	0	60	84163
2026-01-07 10:11:17.58	211.10	22.28	-51.6	-54.0	6.1	0.00e+00	0	36	104	0	60	84203
2026-01-07 10:11:18.59	211.38	22.44	-51.6	-54.1	6.1	0.00e+00	0	36	104	0	60	84521
2026-01-07 10:11:19.60	211.65	22.60	-51.6	-54.0	6.1	0.00e+00	0	36	104	0	60	84218
2026-01-07 10:11:20.61	211.93	22.76	-51.6	-54.0	6.1	0.00e+00	0	36	104	0	60	83958
2026-01-07 10:11:21.62	212.21	22.92	-51.6	-54.0	6.1	0.00e+00	0	36	104	0	60	84133
2026-01-07 10:11:22.63	212.49	23.07	-51.6	-54.1	6.1	0.00e+00	0	36	104	0	60	84402
2026-01-07 10:11:23.64	212.78	23.23	-51.6	-54.1	6.1	0.00e+00	0	36	104	0	60	84452
2026-01-07 10:11:24.66	213.07	23.40	-51.6	-54.0	6.1	0.00e+00	0	36	104	0	60	83987
2026-01-07 10:11:25.67	213.36	23.56	-51.6	-54.0	6.1	0.00e+00	0	36	104	0	60	84145
2026-01-07 10:11:26.68	213.66	23.72	-51.6	-54.0	6.1	0.00e+00	0	36	104	0	60	83974
2026-01-07 10:11:27.69	213.96	23.88	-51.6	-54.1	6.1	0.00e+00	0	36	104	0	60	84581
2026-01-07 10:11:28.70	214.27	24.05	-51.6	-54.1	6.1	0.00e+00	0	36	104	0	60	84376
2026-01-07 10:11:29.71	214.57	24.21	-51.6	-54.0	6.1	0.00e+00	0	36	104	0	60	84020
2026-01-07 10:11:30.72	214.88	24.37	-51.6	-54.1	6.1	0.00e+00	0	36	104	0	60	84262
2026-01-07 10:11:31.73	215.20	24.54	-51.6	-54.0	6.1	0.00e+00	0	36	104	0	60	84079
2026-01-07 10:11:32.74	215.52	24.70	-51.6	-54.0	6.1	0.00e+00	0	36	104	0	60	84233
2026-01-07 10:11:33.76	215.84	24.87	-51.6	-54.0	6.1	0.00e+00	0	36	104	0	60	84196
2026-01-07 10:11:34.77	216.17	25.03	-51.6	-54.1	6.1	0.00e+00	0	36	104	0	60	84343
2026-01-07 10:11:35.78	216.49	25.20	-51.6	-54.1	6.1	0.00e+00	0	36	104	0	60	84301
2026-01-07 10:11:36.79	216.83	25.37	-51.6	-54.1	6.1	0.00e+00	0	36	104	0	60	84587
2026-01-07 10:11:37.80	217.16	25.53	-51.6	-54.1	6.1	0.00e+00	0	36	104	0	60	84490
2026-01-07 10:11:38.81	217.50	25.70	-51.6	-54.1	6.1	0.00e+00	0	36	104	0	60	84333
2026-01-07 10:11:39.82	217.85	25.87	-51.6	-54.0	6.1	0.00e+00	0	36	104	0	60	83841
2026-01-07 10:11:40.83	218.20	26.03	-51.6	-54.0	6.1	0.00e+00	0	36	104	0	60	83949
2026-01-07 10:11:41.84	218.55	26.20	-51.6	-54.0	6.1	0.00e+00	0	36	104	0	60	84239
2026-01-07 10:11:42.86	218.91	26.37	-51.6	-54.0	6.1	0.00e+00	0	36	104	0	60	84069
2026-01-07 10:11:43.86	219.27	26.54	-51.6	-54.0	6.1	0.00e+00	0	36	104	0	60	84053
2026-01-07 10:11:44.88	219.63	26.71	-51.6	-54.0	6.1	0.00e+00	0	36	104	0	60	83874
2026-01-07 10:11:45.89	220.00	26.87	-51.6	-54.0	6.1	0.00e+00	0	36	104	0	60	84200
2026-01-07 10:11:46.90	220.38	27.04	-51.6	-54.1	6.1	0.00e+00	0	36	104	0	60	84379
2026-01-07 10:11:47.91	220.75	27.21	-51.6	-54.0	6.1	0.00e+00	0	36	104	0	60	84210
2026-01-07 10:11:48.92	221.13	27.38	-51.6	-54.1	6.1	0.00e+00	0	36	104	0	60	84307
2026-01-07 10:11:49.93	221.52	27.55	-51.6	-54.1	6.1	0.00e+00	0	36	104	0	60	84422
2026-01-07 10:11:50.94	221.91	27.72	-51.6	-54.0	6.1	0.00e+00	0	36	104	0	60	84094
2026-01-07 10:11:51.95	222.31	27.88	-51.6	-54.0	6.1	0.00e+00	0	36	104	0	60	83969
2026-01-07 10:11:52.97	222.71	28.05	-51.6	-54.0	6.1	0.00e+00	0	36	104	0	60	84103
2026-01-07 10:11:53.98	223.11	28.22	-51.6	-54.1	6.1	0.00e+00	0	36	104	0	60	84475
2026-01-07 10:11:54.99	223.52	28.39	-51.6	-54.1	6.1	0.00e+00	0	36	104	0	60	84405
2026-01-07 10:11:56.00	223.94	28.56	-51.6	-54.0	6.1	0.00e+00	0	36	104	0	60	84215
2026-01-07 10:11:57.01	224.35	28.72	-51.6	-54.1	6.1	0.00e+00	0	36	104	0	60	84398
2026-01-07 10:11:58.02	224.78	28.89	-51.6	-54.1	6.1	0.00e+00	0	36	104	0	60	84544
2026-01-07 10:11:59.03	225.20	29.06	-51.6	-54.1	6.1	0.00e+00	0	36	104	0	60	84250
2026-01-07 10:12:00.04	225.64	29.22	-51.6	-54.1	6.1	0.00e+00	0	36	104	0	60	84299
2026-01-07 10:12:01.05	226.07	29.39	-51.6	-54.1	6.1	0.00e+00	0	36	104	0	60	84450
2026-01-07 10:12:02.06	226.51	29.55	-51.6	-54.0	6.1	0.00e+00	0	36	104	0	60	84244
2026-01-07 10:12:03.07	226.96	29.72	-51.6	-54.0	6.1	0.00e+00	0	36	104	0	60	83668
2026-01-07 10:12:04.08	227.41	29.88	-51.6	-54.1	6.1	0.00e+00	0	36	104	0	60	84846
2026-01-07 10:12:05.10	227.87	30.05	-51.6	-54.1	6.1	0.00e+00	0	36	104	0	60	84737
2026-01-07 10:12:06.11	228.33	30.21	-51.6	-54.1	6.0	0.00e+00	0	36	104	0	60	84401
2026-01-07 10:12:07.12	228.80	30.37	-51.6	-54.0	6.1	0.00e+00	0	36	104	0	60	84078
2026-01-07 10:12:08.13	229.27	30.53	-51.6	-54.1	6.1	0.00e+00	0	36	104	0	60	84564
2026-01-07 10:12:09.14	229.75	30.69	-51.6	-54.1	6.1	0.00e+00	0	36	104	0	60	84496
2026-01-07 10:12:10.15	230.23	30.85	-51.6	-54.1	6.1	0.00e+00	0	36	104	0	60	84521
2026-01-07 10:12:11.16	230.71	31.00	-51.6	-54.0	6.1	0.00e+00	0	36	104	0	60	84019
2026-01-07 10:12:12.17	231.21	31.16	-51.6	-54.1	6.1	0.00e+00	0	36	104	0	60	84401
2026-01-07 10:12:13.18	231.70	31.31	-51.6	-54.1	6.1	0.00e+00	0	36	104	0	60	84431
2026-01-07 10:12:14.19	232.20	31.47	-51.6	-54.1	6.1	0.00e+00	0	36	104	0	60	84525
2026-01-07 10:12:15.20	232.71	31.62	-51.6	-54.0	6.1	0.00e+00	0	36	104	0	60	83961
2026-01-07 10:12:16.22	233.23	31.77	-51.6	-54.1	6.1	0.00e+00	0	36	104	0	60	84362
2026-01-07 10:12:17.23	233.74	31.92	-51.6	-54.0	6.1	0.00e+00	0	36	104	0	60	84134
2026-01-07 10:12:18.24	234.26	32.07	-51.6	-54.1	6.1	0.00e+00	0	36	104	0	60	84367
2026-01-07 10:12:19.25	234.79	32.22	-51.6	-54.1	6.1	0.00e+00	0	36	104	0	60	84580
2026-01-07 10:12:20.26	235.32	32.36	-51.6	-54.1	6.1	0.00e+00	0	36	104	0	60	84516
2026-01-07 10:12:21.27	235.86	32.50	-51.6	-54.1	6.1	0.00e+00	0	36	104	0	60	84286
2026-01-07 10:12:22.28	236.40	32.65	-51.6	-54.1	6.1	0.00e+00	0	36	104	0	60	84676
2026-01-07 10:12:23.29	236.95	32.78	-51.6	-54.1	6.0	0.00e+00	0	36	104	0	60	84363
2026-01-07 10:12:24.30	237.50	32.92	-51.6	-54.1	6.1	0.00e+00	0	36	104	0	60	84589
2026-01-07 10:12:25.32	238.06	33.06	-51.6	-54.1	6.0	0.00e+00	0	36	104	0	60	84460
2026-01-07 10:12:26.33	238.62	33.19	-51.6	-54.1	6.1	0.00e+00	0	36	104	0	60	84653
2026-01-07 10:12:27.34	239.19	33.32	-51.6	-54.1	6.1	0.00e+00	0	36	104	0	60	84407
2026-01-07 10:12:28.35	239.76	33.45	-51.6	-54.1	6.1	0.00e+00	0	36	104	0	60	84405
2026-01-07 10:12:29.36	240.33	33.58	-51.6	-54.1	6.1	0.00e+00	0	36	104	0	60	84314
2026-01-07 10:12:30.37	240.91	33.70	-51.6	-54.1	6.1	0.00e+00	0	36	104	0	60	84568
2026-01-07 10:12:31.38	241.50	33.82	-51.6	-54.1	6.1	0.00e+00	0	36	104	0	60	84412
2026-01-07 10:12:32.39	242.09	33.94	-51.6	-54.1	6.1	0.00e+00	0	36	104	0	60	84624
2026-01-07 10:12:33.40	242.68	34.06	-51.6	-54.0	6.1	0.00e+00	0	36	104	0	60	84214
2026-01-07 10:12:34.41	243.28	34.17	-51.6	-54.1	6.1	0.00e+00	0	36	104	0	60	85171
2026-01-07 10:12:35.43	243.89	34.28	-51.6	-54.0	6.1	0.00e+00	0	36	104	0	60	83927
2026-01-07 10:12:36.44	244.50	34.39	-51.6	-54.1	6.1	0.00e+00	0	36	104	0	60	84539
2026-01-07 10:12:37.45	245.11	34.49	-51.6	-54.1	6.1	0.00e+00	0	36	104	0	60	84812
2026-01-07 10:12:38.46	245.72	34.59	-51.6	-54.1	6.1	0.00e+00	0	36	104	0	60	84383
2026-01-07 10:12:39.47	246.34	34.69	-51.6	-54.1	6.1	0.00e+00	0	36	104	0	60	84393
2026-01-07 10:12:40.48	246.96	34.79	-51.6	-54.1	6.1	0.00e+00	0	36	104	0	60	84428
2026-01-07 10:12:41.49	247.59	34.88	-51.6	-54.1	6.1	0.00e+00	0	36	104	0	60	84582
2026-01-07 10:12:42.50	248.22	34.97	-51.6	-54.1	6.1	0.00e+00	0	37	104	0	60	84512
2026-01-07 10:12:43.51	248.85	35.05	-51.6	-54.1	6.1	0.00e+00	0	36	104	0	60	84439
2026-01-07 10:12:44.53	249.50	35.13	-51.6	-54.1	6.1	0.00e+00	0	36	104	0	60	84599
2026-01-07 10:12:45.54	250.14	35.21	-51.6	-54.1	6.1	0.00e+00	0	36	104	0	60	84454
2026-01-07 10:12:46.55	250.78	35.29	-51.6	-54.1	6.1	0.00e+00	0	37	104	0	60	84310
2026-01-07 10:12:47.56	251.43	35.36	-51.6	-54.1	6.1	0.00e+00	0	37	104	0	60	84379
2026-01-07 10:12:48.57	252.08	35.42	-51.6	-54.1	6.1	0.00e+00	0	37	104	0	60	84550
2026-01-07 10:12:49.58	252.73	35.49	-51.6	-54.0	6.1	0.00e+00	0	37	104	0	60	84217
2026-01-07 10:12:50.59	253.38	35.55	-51.6	-54.0	6.1	0.00e+00	0	37	104	0	60	84234
2026-01-07 10:12:51.60	254.04	35.60	-51.6	-54.1	6.1	0.00e+00	0	37	104	0	60	84328
2026-01-07 10:12:52.61	254.70	35.65	-51.6	-54.1	6.1	0.00e+00	0	37	104	0	60	84267
2026-01-07 10:12:53.62	255.36	35.70	-51.6	-54.1	6.1	0.00e+00	0	36	104	0	60	84550
2026-01-07 10:12:54.63	256.02	35.75	-51.6	-54.1	6.1	0.00e+00	0	37	104	0	60	84385
2026-01-07 10:12:55.64	256.69	35.79	-51.6	-54.1	6.1	0.00e+00	0	37	104	0	60	84754
2026-01-07 10:12:56.66	257.36	35.82	-51.6	-54.1	6.1	0.00e+00	0	37	104	0	60	84793
2026-01-07 10:12:57.67	258.03	35.85	-51.6	-54.0	6.1	0.00e+00	0	37	104	0	60	84179
2026-01-07 10:12:58.68	258.70	35.88	-51.6	-54.1	6.1	0.00e+00	0	36	104	0	60	84323
2026-01-07 10:12:59.69	259.37	35.91	-51.6	-54.1	6.1	0.00e+00	0	37	104	0	60	85013
2026-01-07 10:13:00.70	260.04	35.93	-51.6	-54.0	6.1	0.00e+00	0	37	104	0	60	84245
2026-01-07 10:13:01.71	260.71	35.94	-51.6	-54.1	6.1	0.00e+00	0	36	104	0	60	84269
2026-01-07 10:13:02.72	261.39	35.95	-51.6	-54.1	6.1	0.00e+00	0	36	104	0	60	84260
2026-01-07 10:13:03.73	262.06	35.96	-51.6	-54.1	6.1	0.00e+00	0	36	104	0	60	84461
2026-01-07 10:13:04.75	262.74	35.96	-51.6	-54.0	6.1	0.00e+00	0	37	104	0	60	83953
2026-01-07 10:13:05.76	263.41	35.96	-51.6	-54.1	6.1	0.00e+00	0	37	104	0	60	84520
2026-01-07 10:13:06.77	264.09	35.96	-51.6	-54.0	6.1	0.00e+00	0	36	104	0	60	84219
2026-01-07 10:13:07.78	264.76	35.95	-51.6	-54.1	6.1	0.00e+00	0	37	104	0	60	84255
2026-01-07 10:13:08.79	265.43	35.93	-51.6	-54.1	6.1	0.00e+00	0	37	104	0	60	84500
2026-01-07 10:13:09.80	266.10	35.91	-51.6	-54.1	6.1	0.00e+00	0	36	104	0	60	84546
2026-01-07 10:13:10.81	266.77	35.89	-51.6	-54.1	6.1	0.00e+00	0	37	104	0	60	84721
2026-01-07 10:13:11.82	267.44	35.87	-51.6	-54.1	6.1	0.00e+00	0	37	104	0	60	84346
2026-01-07 10:13:12.83	268.11	35.84	-51.6	-54.1	6.1	0.00e+00	0	37	104	0	60	84489
2026-01-07 10:13:13.84	268.78	35.80	-51.6	-54.0	6.1	0.00e+00	0	37	104	0	60	84172
2026-01-07 10:13:14.86	269.45	35.76	-51.6	-54.1	6.1	0.00e+00	0	37	104	0	60	84405
2026-01-07 10:13:15.87	270.11	35.72	-51.6	-54.0	6.1	0.00e+00	0	37	104	0	60	84233
2026-01-07 10:13:16.88	270.77	35.67	-51.6	-54.1	6.1	0.00e+00	0	37	104	0	60	84278
2026-01-07 10:13:17.89	271.43	35.62	-51.6	-54.1	6.1	0.00e+00	0	37	104	0	60	84515
2026-01-07 10:13:18.90	272.09	35.57	-51.6	-54.1	6.1	0.00e+00	0	36	104	0	60	84433
2026-01-07 10:13:19.91	272.75	35.51	-51.6	-54.0	6.1	0.00e+00	0	36	104	0	60	84245
2026-01-07 10:13:20.92	273.40	35.45	-51.6	-54.1	6.1	0.00e+00	0	37	104	0	60	84599
2026-01-07 10:13:21.93	274.05	35.38	-51.6	-54.1	6.1	0.00e+00	0	36	104	0	60	84506
2026-01-07 10:13:22.94	274.69	35.32	-51.6	-54.0	6.1	0.00e+00	0	37	104	0	60	84127
2026-01-07 10:13:23.95	275.34	35.24	-51.6	-54.1	6.1	0.00e+00	0	36	104	0	60	84610
2026-01-07 10:13:24.97	275.98	35.17	-51.6	-54.1	6.1	0.00e+00	0	36	104	0	60	84391
2026-01-07 10:13:25.98	276.62	35.09	-51.6	-54.1	6.1	0.00e+00	0	37	104	0	60	84259
2026-01-07 10:13:26.99	277.26	35.00	-51.6	-54.1	6.1	0.00e+00	0	36	104	0	60	84729
2026-01-07 10:13:28.00	277.89	34.92	-51.6	-54.1	6.1	0.00e+00	0	37	104	0	60	84919
2026-01-07 10:13:29.01	278.51	34.83	-51.6	-54.1	6.1	0.00e+00	0	37	104	0	60	84260
2026-01-07 10:13:30.02	279.14	34.73	-51.6	-54.0	6.1	0.00e+00	0	37	104	0	60	84137
2026-01-07 10:13:31.03	279.76	34.64	-51.6	-54.1	6.1	0.00e+00	0	37	104	0	60	84251
2026-01-07 10:13:32.04	280.37	34.54	-51.6	-54.1	6.1	0.00e+00	0	37	104	0	60	84588
2026-01-07 10:13:33.05	280.98	34.43	-51.6	-54.1	6.1	0.00e+00	0	37	104	0	60	84584
2026-01-07 10:13:34.06	281.59	34.33	-51.6	-54.1	6.1	0.00e+00	0	37	104	0	60	84622
2026-01-07 10:13:35.08	282.20	34.22	-51.6	-54.1	6.1	0.00e+00	0	37	104	0	60	84437
2026-01-07 10:13:36.09	282.80	34.11	-51.6	-54.0	6.1	0.00e+00	0	37	104	0	60	83964
2026-01-07 10:13:37.10	283.39	33.99	-51.6	-54.1	6.1	0.00e+00	0	37	104	0	60	84390
2026-01-07 10:13:38.11	283.98	33.87	-51.6	-54.0	6.1	0.00e+00	0	36	104	0	60	84168
2026-01-07 10:13:39.12	284.56	33.76	-51.6	-54.1	6.1	0.00e+00	0	37	104	0	60	84364
2026-01-07 10:13:40.13	285.14	33.63	-51.6	-54.1	6.1	0.00e+00	0	37	104	0	60	84691
2026-01-07 10:13:41.14	285.72	33.51	-51.6	-54.0	6.1	0.00e+00	0	36	104	0	60	83945
2026-01-07 10:13:42.15	286.29	33.38	-51.6	-54.0	6.1	0.00e+00	0	37	104	0	60	84155
2026-01-07 10:13:43.16	286.86	33.25	-51.6	-54.1	6.1	0.00e+00	0	36	104	0	60	84579
2026-01-07 10:13:44.18	287.42	33.12	-51.6	-54.0	6.1	0.00e+00	0	36	104	0	60	84200
2026-01-07 10:13:45.18	287.98	32.99	-51.6	-54.1	6.1	0.00e+00	0	36	104	0	60	84736
2026-01-07 10:13:46.20	288.53	32.85	-51.6	-54.1	6.1	0.00e+00	0	37	104	0	60	84809
2026-01-07 10:13:47.21	289.08	32.71	-51.6	-54.1	6.1	0.00e+00	0	37	104	0	60	84497
2026-01-07 10:13:48.22	289.62	32.57	-51.6	-54.1	6.1	0.00e+00	0	37	104	0	60	84486
2026-01-07 10:13:49.23	290.16	32.43	-51.6	-54.1	6.1	0.00e+00	0	37	104	0	60	84888
2026-01-07 10:13:50.24	290.69	32.29	-51.6	-54.1	6.1	0.00e+00	0	37	104	0	60	84411
2026-01-07 10:13:51.25	291.22	32.14	-51.6	-54.1	6.1	0.00e+00	0	37	104	0	60	84489
2026-01-07 10:13:52.26	291.74	32.00	-51.6	-54.1	6.1	0.00e+00	0	36	104	0	60	84395
2026-01-07 10:13:53.27	292.25	31.85	-51.6	-54.1	6.1	0.00e+00	0	37	104	0	60	84587
2026-01-07 10:13:54.28	292.77	31.70	-51.6	-54.0	6.1	0.00e+00	0	37	104	0	60	84226
2026-01-07 10:13:55.29	293.27	31.55	-51.6	-54.1	6.1	0.00e+00	0	37	104	0	60	84484
2026-01-07 10:13:56.31	293.78	31.40	-51.6	-54.1	6.1	0.00e+00	0	37	104	0	60	84437
2026-01-07 10:13:57.32	294.28	31.24	-51.6	-54.1	6.1	0.00e+00	0	37	104	0	60	84477
2026-01-07 10:13:58.33	294.77	31.09	-51.6	-54.1	6.1	0.00e+00	0	37	104	0	60	84567
2026-01-07 10:13:59.34	295.25	30.93	-51.6	-54.1	6.1	0.00e+00	0	37	104	0	60	84462
2026-01-07 10:14:00.35	295.74	30.77	-51.6	-54.1	6.1	0.00e+00	0	37	104	0	60	84339
2026-01-07 10:14:01.36	296.21	30.62	-51.6	-54.1	6.1	0.00e+00	0	37	104	0	60	84578
2026-01-07 10:14:02.37	296.68	30.46	-51.6	-54.1	6.1	0.00e+00	0	37	104	0	60	84606
2026-01-07 10:14:03.38	297.15	30.30	-51.6	-54.1	6.1	0.00e+00	0	36	104	0	60	84687
2026-01-07 10:14:04.39	297.61	30.14	-51.6	-54.1	6.1	0.00e+00	0	37	104	0	60	84677
2026-01-07 10:14:05.40	298.07	29.98	-51.6	-54.1	6.1	0.00e+00	0	36	104	0	60	84825
2026-01-07 10:14:06.42	298.52	29.81	-51.6	-54.1	6.1	0.00e+00	0	36	104	0	60	84596
2026-01-07 10:14:07.43	298.97	29.65	-51.6	-54.1	6.1	0.00e+00	0	37	104	0	60	84385
2026-01-07 10:14:08.44	299.41	29.48	-51.6	-54.1	6.1	0.00e+00	0	36	104	0	60	84908
2026-01-07 10:14:09.45	299.85	29.32	-51.6	-54.1	6.1	0.00e+00	0	37	104	0	60	84560
2026-01-07 10:14:10.46	300.28	29.16	-51.6	-54.0	6.1	0.00e+00	0	37	104	0	60	84146
2026-01-07 10:14:11.47	300.71	28.99	-51.6	-54.1	6.1	0.00e+00	0	37	104	0	60	84830
2026-01-07 10:14:12.48	301.13	28.83	-51.6	-54.1	6.1	0.00e+00	0	37	104	0	60	84451
2026-01-07 10:14:13.49	301.55	28.66	-51.6	-54.1	6.1	0.00e+00	0	36	104	0	60	84526
2026-01-07 10:14:14.50	301.96	28.49	-51.6	-54.1	6.1	0.00e+00	0	37	104	0	60	84553
2026-01-07 10:14:15.52	302.38	28.33	-51.6	-54.1	6.1	0.00e+00	0	36	104	0	60	84368
2026-01-07 10:14:16.53	302.78	28.16	-51.6	-54.1	6.1	0.00e+00	0	37	104	0	60	84822
2026-01-07 10:14:17.54	303.18	27.99	-51.6	-54.1	6.1	0.00e+00	0	37	104	0	60	84627
2026-01-07 10:14:18.55	303.58	27.83	-51.6	-54.1	6.1	0.00e+00	0	37	104	0	60	84449
2026-01-07 10:14:19.56	303.97	27.66	-51.6	-54.1	6.1	0.00e+00	0	37	104	0	60	84663
2026-01-07 10:14:20.57	304.35	27.49	-51.6	-54.1	6.1	0.00e+00	0	37	104	0	60	84494
2026-01-07 10:14:21.58	304.73	27.32	-51.6	-54.1	6.1	0.00e+00	0	37	104	0	60	84573
2026-01-07 10:14:22.59	305.11	27.16	-51.6	-54.1	6.1	0.00e+00	0	36	104	0	60	84584
2026-01-07 10:14:23.60	305.49	26.99	-51.6	-54.1	6.1	0.00e+00	0	37	104	0	60	84445
2026-01-07 10:14:24.61	305.86	26.82	-51.6	-54.1	6.1	0.00e+00	0	37	104	0	60	84811
2026-01-07 10:14:25.63	306.22	26.65	-51.6	-54.1	6.1	0.00e+00	0	36	104	0	60	84493
2026-01-07 10:14:26.64	306.58	26.49	-51.6	-54.1	6.1	0.00e+00	0	36	104	0	60	84487
2026-01-07 10:14:27.65	306.94	26.32	-51.6	-54.1	6.1	0.00e+00	0	36	104	0	60	84778
2026-01-07 10:14:28.66	307.29	26.15	-51.6	-54.1	6.1	0.00e+00	0	36	104	0	60	84748
2026-01-07 10:14:29.67	307.64	25.99	-51.6	-54.1	6.1	0.00e+00	0	37	104	0	60	84397
2026-01-07 10:14:30.68	307.99	25.82	-51.6	-54.1	6.1	0.00e+00	0	36	104	0	60	84603
2026-01-07 10:14:31.69	308.33	25.66	-51.6	-54.1	6.1	0.00e+00	0	37	104	0	60	84438
2026-01-07 10:14:32.70	308.66	25.49	-51.6	-54.1	6.1	0.00e+00	0	36	104	0	60	84732
2026-01-07 10:14:33.71	309.00	25.33	-51.6	-54.1	6.1	0.00e+00	0	36	104	0	60	84768
2026-01-07 10:14:34.72	309.33	25.16	-51.6	-54.1	6.1	0.00e+00	0	36	104	0	60	84627
2026-01-07 10:14:35.73	309.65	25.00	-51.6	-54.1	6.1	0.00e+00	0	36	104	0	60	84286
2026-01-07 10:14:36.75	309.98	24.83	-51.6	-54.1	6.1	0.00e+00	0	37	104	0	60	84511
2026-01-07 10:14:37.76	310.30	24.67	-51.6	-54.1	6.1	0.00e+00	0	36	104	0	60	84520
2026-01-07 10:14:38.77	310.61	24.50	-51.6	-54.1	6.1	0.00e+00	0	37	104	0	60	84598
2026-01-07 10:14:39.78	310.92	24.34	-51.6	-54.0	6.1	0.00e+00	0	37	104	0	60	84162
2026-01-07 10:14:40.79	311.23	24.18	-51.6	-54.1	6.1	0.00e+00	0	36	104	0	60	84536
2026-01-07 10:14:41.80	311.53	24.02	-51.6	-54.1	6.1	0.00e+00	0	37	104	0	60	84475
2026-01-07 10:14:42.81	311.83	23.85	-51.6	-54.1	6.1	0.00e+00	0	37	104	0	60	84295
2026-01-07 10:14:43.82	312.13	23.69	-51.6	-54.1	6.1	0.00e+00	0	37	104	0	60	84371
2026-01-07 10:14:44.83	312.42	23.53	-51.6	-54.1	6.1	0.00e+00	0	36	104	0	60	84400
2026-01-07 10:14:45.84	312.71	23.37	-51.6	-54.1	6.1	0.00e+00	0	36	104	0	60	84515
2026-01-07 10:14:46.86	313.00	23.21	-51.6	-54.1	6.1	0.00e+00	0	37	104	0	60	84455
2026-01-07 10:14:47.87	313.29	23.05	-51.6	-54.1	6.1	0.00e+00	0	37	104	0	60	84928
2026-01-07 10:14:48.88	313.57	22.90	-51.6	-54.1	6.1	0.00e+00	0	37	104	0	60	84775
2026-01-07 10:14:49.89	313.85	22.74	-51.6	-54.1	6.1	0.00e+00	0	36	104	0	60	84520
2026-01-07 10:14:50.90	314.12	22.58	-51.6	-54.1	6.1	0.00e+00	0	37	104	0	60	84466
2026-01-07 10:14:51.91	314.39	22.43	-51.6	-54.1	6.1	0.00e+00	0	37	104	0	60	84653
2026-01-07 10:14:52.92	314.66	22.27	-51.6	-54.1	6.1	0.00e+00	0	37	104	0	60	85023
2026-01-07 10:14:53.93	314.93	22.11	-51.6	-54.1	6.1	0.00e+00	0	37	104	0	60	84645
2026-01-07 10:14:54.94	315.19	21.96	-51.6	-54.1	6.1	0.00e+00	0	37	104	0	60	84672
2026-01-07 10:14:55.95	315.45	21.81	-51.6	-54.1	6.1	0.00e+00	0	37	104	0	60	84611
2026-01-07 10:14:56.97	315.71	21.65	-51.6	-54.1	6.1	0.00e+00	0	37	104	0	60	84658
2026-01-07 10:14:57.98	315.96	21.50	-51.6	-54.1	6.1	0.00e+00	0	37	104	0	60	84458
2026-01-07 10:14:58.99	316.22	21.35	-51.6	-54.1	6.1	0.00e+00	0	37	104	0	60	84557
2026-01-07 10:15:00.00	316.46	21.19	-51.6	-54.1	6.1	0.00e+00	0	37	104	0	60	84559
2026-01-07 10:15:01.01	316.71	21.04	-51.6	-54.1	6.1	0.00e+00	0	36	104	0	60	84625
2026-01-07 10:15:02.02	316.95	20.89	-51.6	-54.1	6.1	0.00e+00	0	37	104	0	60	84841
2026-01-07 10:15:03.03	317.19	20.74	-51.6	-54.1	6.1	0.00e+00	0	37	104	0	60	84426
2026-01-07 10:15:04.04	317.43	20.60	-51.6	-54.1	6.1	0.00e+00	0	36	104	0	60	84570
2026-01-07 10:15:05.06	317.67	20.45	-51.6	-54.1	6.1	0.00e+00	0	37	104	0	60	84362
2026-01-07 10:15:06.07	317.90	20.30	-51.6	-54.0	6.0	0.00e+00	0	37	104	0	60	84220
2026-01-07 10:15:07.08	318.13	20.15	-51.6	-54.1	6.1	0.00e+00	0	37	104	0	60	84717
2026-01-07 10:15:08.09	318.36	20.01	-51.6	-54.1	6.1	0.00e+00	0	37	104	0	60	84631
2026-01-07 10:15:09.10	318.59	19.86	-51.6	-54.1	6.1	0.00e+00	0	37	104	0	60	84425
2026-01-07 10:15:10.11	318.81	19.72	-51.6	-54.1	6.1	0.00e+00	0	37	104	0	60	84616
2026-01-07 10:15:11.12	319.03	19.57	-51.6	-54.1	6.1	0.00e+00	0	37	104	0	60	84891
2026-01-07 10:15:12.13	319.25	19.43	-51.6	-54.0	6.1	0.00e+00	0	37	104	0	60	84124
2026-01-07 10:15:13.14	319.46	19.29	-51.6	-54.1	6.1	0.00e+00	0	37	104	0	60	84295
2026-01-07 10:15:14.15	319.68	19.14	-51.6	-54.1	6.1	0.00e+00	0	37	104	0	60	84900
2026-01-07 10:15:15.16	319.89	19.00	-51.6	-54.1	6.1	0.00e+00	0	37	104	0	60	84536
2026-01-07 10:15:16.18	320.10	18.86	-51.6	-54.1	6.1	0.00e+00	0	37	104	0	60	84674
2026-01-07 10:15:17.19	320.31	18.72	-51.6	-54.1	6.1	0.00e+00	0	37	104	0	60	84696
2026-01-07 10:15:18.20	320.51	18.58	-51.6	-54.1	6.1	0.00e+00	0	37	104	0	60	85004
2026-01-07 10:15:19.21	320.72	18.44	-51.6	-54.1	6.1	0.00e+00	0	37	104	0	60	84617
2026-01-07 10:15:20.22	320.92	18.31	-51.6	-54.1	6.1	0.00e+00	0	37	104	0	60	84764
2026-01-07 10:15:21.23	321.12	18.17	-51.6	-54.1	6.1	0.00e+00	0	37	104	0	60	84779
2026-01-07 10:15:22.24	321.31	18.03	-51.6	-54.1	6.1	0.00e+00	0	36	104	0	60	84543
2026-01-07 10:15:23.25	321.51	17.90	-51.6	-54.1	6.1	0.00e+00	0	37	104	0	60	84507
2026-01-07 10:15:24.27	321.70	17.76	-51.6	-54.1	6.1	0.00e+00	0	37	104	0	60	84800
2026-01-07 10:15:25.28	321.90	17.63	-51.6	-54.1	6.1	0.00e+00	0	37	104	0	60	84533
2026-01-07 10:15:26.29	322.08	17.49	-51.6	-54.1	6.1	0.00e+00	0	37	104	0	60	84654
2026-01-07 10:15:27.30	322.27	17.36	-51.6	-54.1	6.1	0.00e+00	0	37	104	0	60	84418
2026-01-07 10:15:28.31	322.46	17.23	-51.6	-54.1	6.1	0.00e+00	0	37	104	0	60	84748
2026-01-07 10:15:29.32	322.64	17.09	-51.6	-54.1	6.1	0.00e+00	0	37	104	0	60	84379
2026-01-07 10:15:30.33	322.82	16.96	-51.6	-54.1	6.1	0.00e+00	0	37	104	0	60	84592
2026-01-07 10:15:31.34	323.00	16.83	-51.6	-54.1	6.1	0.00e+00	0	37	104	0	60	84634
2026-01-07 10:15:32.35	323.18	16.70	-51.6	-54.1	6.1	0.00e+00	0	37	104	0	60	84591
2026-01-07 10:15:33.36	323.36	16.57	-51.6	-54.1	6.1	0.00e+00	0	37	104	0	60	84530
2026-01-07 10:15:34.37	323.53	16.45	-51.6	-54.1	6.1	0.00e+00	0	37	104	0	60	84459
2026-01-07 10:15:35.38	323.70	16.32	-51.6	-54.1	6.1	0.00e+00	0	37	104	0	60	84742
2026-01-07 10:15:36.39	323.88	16.19	-51.6	-54.1	6.0	0.00e+00	0	37	104	0	60	84446
2026-01-07 10:15:37.40	324.05	16.06	-51.6	-54.1	6.1	0.00e+00	0	37	104	0	60	84855
2026-01-07 10:15:38.41	324.21	15.94	-51.6	-54.1	6.1	0.00e+00	0	37	104	0	60	84794
2026-01-07 10:15:39.43	324.38	15.81	-51.6	-54.1	6.1	0.00e+00	0	37	104	0	60	84638
2026-01-07 10:15:40.44	324.55	15.69	-51.6	-54.1	6.1	0.00e+00	0	37	104	0	60	84518
2026-01-07 10:15:41.45	324.71	15.56	-51.6	-54.1	6.1	0.00e+00	0	37	104	0	60	84569
2026-01-07 10:15:42.46	324.87	15.44	-51.6	-54.1	6.1	0.00e+00	0	37	104	0	60	84584
2026-01-07 10:15:43.47	325.03	15.32	-51.6	-54.1	6.1	0.00e+00	0	37	104	0	60	84831
2026-01-07 10:15:44.48	325.19	15.20	-51.6	-54.1	6.1	0.00e+00	0	37	104	0	60	84656
2026-01-07 10:15:45.49	325.35	15.07	-51.6	-54.1	6.1	0.00e+00	0	37	104	0	60	84309
2026-01-07 10:15:46.50	325.50	14.95	-51.6	-54.1	6.1	0.00e+00	0	37	104	0	60	84504
2026-01-07 10:15:47.51	325.66	14.83	-51.6	-54.1	6.1	0.00e+00	0	37	104	0	60	84459
2026-01-07 10:15:48.52	325.81	14.71	-51.6	-54.1	6.1	0.00e+00	0	37	104	0	60	84638
2026-01-07 10:15:49.53	325.96	14.59	-51.6	-54.1	6.1	0.00e+00	0	37	104	0	60	84936
2026-01-07 10:15:50.54	326.11	14.48	-51.6	-54.1	6.1	0.00e+00	0	37	104	0	60	84484
2026-01-07 10:15:51.55	326.26	14.36	-51.6	-54.1	6.1	0.00e+00	0	37	104	0	60	84902
2026-01-07 10:15:52.57	326.41	14.24	-51.6	-54.1	6.1	0.00e+00	0	37	104	0	60	84458
2026-01-07 10:15:53.58	326.56	14.12	-51.6	-54.1	6.1	0.00e+00	0	37	104	0	60	84521
2026-01-07 10:15:54.59	326.70	14.01	-51.6	-54.1	6.1	0.00e+00	0	37	104	0	60	84607
2026-01-07 10:15:55.60	326.84	13.89	-51.6	-54.1	6.1	0.00e+00	0	37	104	0	60	84730
2026-01-07 10:15:56.61	326.99	13.78	-51.6	-54.1	6.1	0.00e+00	0	37	104	0	60	85116
2026-01-07 10:15:57.62	327.13	13.66	-51.6	-54.1	6.1	0.00e+00	0	37	104	0	60	84535
2026-01-07 10:15:58.63	327.27	13.55	-51.6	-54.1	6.1	0.00e+00	0	37	104	0	60	84426
2026-01-07 10:15:59.64	327.41	13.44	-51.6	-54.1	6.1	0.00e+00	0	37	104	0	60	84783
2026-01-07 10:16:00.65	327.54	13.32	-51.6	-54.1	6.1	0.00e+00	0	37	104	0	60	84600
2026-01-07 10:16:01.66	327.68	13.21	-51.6	-54.1	6.1	0.00e+00	0	37	104	0	60	84879
2026-01-07 10:16:02.67	327.81	13.10	-51.6	-54.1	6.1	0.00e+00	0	37	104	0	60	84573
2026-01-07 10:16:03.68	327.95	12.99	-51.6	-54.1	6.1	0.00e+00	0	37	104	0	60	84602
2026-01-07 10:16:04.69	328.08	12.88	-51.6	-54.1	6.1	0.00e+00	0	37	104	0	60	84689
2026-01-07 10:16:05.70	328.21	12.77	-51.6	-54.1	6.1	0.00e+00	0	37	104	0	60	84323
2026-01-07 10:16:06.71	328.34	12.66	-51.6	-54.0	6.1	0.00e+00	0	37	104	0	60	84087
2026-01-07 10:16:07.73	328.47	12.55	-51.6	-54.1	6.1	0.00e+00	0	37	104	0	60	85149
2026-01-07 10:16:08.74	328.60	12.44	-51.6	-54.1	6.1	0.00e+00	0	37	104	0	60	84737
2026-01-07 10:16:09.75	328.73	12.33	-51.6	-54.1	6.1	0.00e+00	0	37	104	0	60	85008
2026-01-07 10:16:10.76	328.85	12.23	-51.6	-54.1	6.1	0.00e+00	0	37	104	0	60	84826
2026-01-07 10:16:11.77	328.98	12.12	-51.6	-54.1	6.1	0.00e+00	0	37	104	0	60	84308
2026-01-07 10:16:12.78	329.10	12.01	-51.6	-54.1	6.1	0.00e+00	0	37	104	0	60	84412
2026-01-07 10:16:13.79	329.22	11.91	-51.6	-54.1	6.1	0.00e+00	0	37	104	0	60	84444
2026-01-07 10:16:14.80	329.34	11.80	-51.6	-54.1	6.1	0.00e+00	0	37	104	0	60	84781
2026-01-07 10:16:15.81	329.47	11.70	-51.6	-54.1	6.1	0.00e+00	0	37	104	0	60	84576
2026-01-07 10:16:16.82	329.58	11.59	-51.6	-54.1	6.1	0.00e+00	0	37	104	0	60	84822
2026-01-07 10:16:17.83	329.70	11.49	-51.6	-54.1	6.1	0.00e+00	0	37	104	0	60	84848
2026-01-07 10:16:18.84	329.82	11.39	-51.6	-54.1	6.1	0.00e+00	0	37	104	0	60	84264
2026-01-07 10:16:19.86	329.94	11.28	-51.6	-54.1	6.1	0.00e+00	0	37	104	0	60	84893
2026-01-07 10:16:20.87	330.05	11.18	-51.6	-54.1	6.1	0.00e+00	0	37	104	0	60	84707
2026-01-07 10:16:21.88	330.17	11.08	-51.6	-54.1	6.1	0.00e+00	0	37	104	0	60	84909
2026-01-07 10:16:22.89	330.28	10.98	-51.6	-54.1	6.1	0.00e+00	0	37	104	0	60	84682
2026-01-07 10:16:23.90	330.40	10.88	-51.6	-54.1	6.1	0.00e+00	0	37	104	0	60	84555
2026-01-07 10:16:24.91	330.51	10.78	-51.6	-54.1	6.1	0.00e+00	0	37	104	0	60	84572
2026-01-07 10:16:25.92	330.62	10.68	-51.6	-54.1	6.1	0.00e+00	0	37	104	0	60	85002
2026-01-07 10:16:26.93	330.73	10.58	-51.6	-54.1	6.1	0.00e+00	0	37	104	0	60	84585
2026-01-07 10:16:27.94	330.84	10.48	-51.6	-54.1	6.1	0.00e+00	0	37	104	0	60	84939
2026-01-07 10:16:28.96	330.95	10.38	-51.6	-54.1	6.0	0.00e+00	0	37	104	0	60	84715
2026-01-07 10:16:29.97	331.06	10.28	-51.6	-54.1	6.1	0.00e+00	0	37	104	0	60	84632
2026-01-07 10:16:30.98	331.16	10.18	-51.6	-54.1	6.1	0.00e+00	0	37	104	0	60	84777
2026-01-07 10:16:31.99	331.27	10.09	-51.6	-54.1	6.1	0.00e+00	0	37	104	0	60	85006
2026-01-07 10:16:33.00	331.37	9.99	-51.6	-54.1	6.1	0.00e+00	0	37	104	0	60	84653
2026-01-07 10:16:34.01	331.48	9.89	-51.6	-54.1	6.1	0.00e+00	0	37	104	0	60	84849
2026-01-07 10:16:35.02	331.58	9.80	-51.6	-54.1	6.1	0.00e+00	0	37	104	0	60	84769
2026-01-07 10:16:36.03	331.69	9.70	-51.6	-54.1	6.1	0.00e+00	0	37	104	0	60	84762
2026-01-07 10:16:37.04	331.79	9.61	-51.6	-54.1	6.1	0.00e+00	0	37	104	0	60	84610
2026-01-07 10:16:38.05	331.89	9.51	-51.6	-54.1	6.1	0.00e+00	0	37	104	0	60	84671
2026-01-07 10:16:39.06	331.99	9.42	-51.6	-54.1	6.1	0.00e+00	0	37	104	0	60	84783
2026-01-07 10:16:40.08	332.09	9.32	-51.6	-54.1	6.1	0.00e+00	0	37	104	0	60	85017
2026-01-07 10:16:41.09	332.19	9.23	-51.6	-54.0	6.1	0.00e+00	0	37	104	0	60	84216
2026-01-07 10:16:42.10	332.29	9.14	-51.6	-54.1	6.1	0.00e+00	0	37	104	0	60	84708
2026-01-07 10:16:43.11	332.38	9.04	-51.6	-54.1	6.1	0.00e+00	0	37	104	0	60	84970
2026-01-07 10:16:44.12	332.48	8.95	-51.6	-54.1	6.1	0.00e+00	0	37	104	0	60	84677
2026-01-07 10:16:45.13	332.58	8.86	-51.6	-54.1	6.1	0.00e+00	0	37	104	0	60	84470
2026-01-07 10:16:46.14	332.67	8.77	-51.6	-54.1	6.1	0.00e+00	0	37	104	0	60	84735
2026-01-07 10:16:47.15	332.77	8.68	-51.6	-54.1	6.1	0.00e+00	0	37	104	0	60	84871
2026-01-07 10:16:48.16	332.86	8.59	-51.6	-54.1	6.1	0.00e+00	0	37	104	0	60	84856
2026-01-07 10:16:49.17	332.95	8.50	-51.6	-54.1	6.1	0.00e+00	0	37	104	0	60	84637
2026-01-07 10:16:50.18	333.05	8.41	-51.6	-54.1	6.1	0.00e+00	0	37	104	0	60	84827
2026-01-07 10:16:51.19	333.14	8.32	-51.6	-54.1	6.1	0.00e+00	0	37	104	0	60	84457
2026-01-07 10:16:52.21	333.23	8.23	-51.6	-54.1	6.1	0.00e+00	0	37	104	0	60	85110
2026-01-07 10:16:53.22	333.32	8.14	-51.6	-54.1	6.1	0.00e+00	0	37	104	0	60	84819
2026-01-07 10:16:54.23	333.41	8.05	-51.6	-54.1	6.1	0.00e+00	0	37	104	0	60	84755
2026-01-07 10:16:55.24	333.50	7.96	-51.6	-54.1	6.0	0.00e+00	0	37	104	0	60	84963
2026-01-07 10:16:56.25	333.59	7.88	-51.6	-54.1	6.1	0.00e+00	0	37	104	0	60	84847
2026-01-07 10:16:57.26	333.68	7.79	-51.6	-54.1	6.1	0.00e+00	0	37	104	0	60	84959
2026-01-07 10:16:58.27	333.76	7.70	-51.6	-54.1	6.1	0.00e+00	0	37	104	0	60	84689
2026-01-07 10:16:59.28	333.85	7.61	-51.6	-54.1	6.1	0.00e+00	0	37	104	0	60	84944
2026-01-07 10:17:00.29	333.94	7.53	-51.6	-54.1	6.1	0.00e+00	0	37	104	0	60	84974
2026-01-07 10:17:01.31	334.02	7.44	-51.6	-54.1	6.1	0.00e+00	0	37	104	0	60	84972
2026-01-07 10:17:02.32	334.11	7.36	-51.6	-54.1	6.1	0.00e+00	0	37	104	0	60	85080
2026-01-07 10:17:03.33	334.19	7.27	-51.6	-54.1	6.1	0.00e+00	0	37	104	0	60	84562
2026-01-07 10:17:04.34	334.28	7.19	-51.6	-54.1	6.1	0.00e+00	0	37	104	0	60	84675
2026-01-07 10:17:05.35	334.36	7.10	-51.6	-54.1	6.1	0.00e+00	0	37	104	0	60	84692
2026-01-07 10:17:06.36	334.44	7.02	-51.6	-54.1	6.1	0.00e+00	0	37	104	0	60	84875
2026-01-07 10:17:07.37	334.52	6.93	-51.6	-54.1	6.1	0.00e+00	0	37	104	0	60	84727
2026-01-07 10:17:08.38	334.61	6.85	-51.6	-54.1	6.1	0.00e+00	0	37	104	0	60	84683
2026-01-07 10:17:09.39	334.69	6.77	-51.6	-54.1	6.1	0.00e+00	0	37	104	0	60	84708
2026-01-07 10:17:10.40	334.77	6.68	-51.6	-54.1	6.1	0.00e+00	0	37	104	0	60	84656
2026-01-07 10:17:11.41	334.85	6.60	-51.6	-54.1	6.1	0.00e+00	0	37	104	0	60	84681
2026-01-07 10:17:12.43	334.93	6.52	-51.6	-54.1	6.1	0.00e+00	0	37	104	0	60	84817
2026-01-07 10:17:13.44	335.01	6.44	-51.6	-54.1	6.1	0.00e+00	0	37	104	0	60	84510
2026-01-07 10:17:14.45	335.08	6.35	-51.6	-54.1	6.1	0.00e+00	0	37	104	0	60	84815
2026-01-07 10:17:15.46	335.16	6.27	-51.6	-54.0	6.1	0.00e+00	0	37	104	0	60	84232
2026-01-07 10:17:16.47	335.24	6.19	-51.6	-54.1	6.1	0.00e+00	0	37	104	0	60	85196
2026-01-07 10:17:17.48	335.32	6.11	-51.6	-54.1	6.1	0.00e+00	0	37	104	0	60	84525
2026-01-07 10:17:18.49	335.39	6.03	-51.6	-54.1	6.1	0.00e+00	0	37	104	0	60	84661
2026-01-07 10:17:19.50	335.47	5.95	-51.6	-54.1	6.1	0.00e+00	0	37	104	0	60	84808
2026-01-07 10:17:20.51	335.54	5.87	-51.6	-54.1	6.1	0.00e+00	0	37	104	0	60	84647
2026-01-07 10:17:21.52	335.62	5.79	-51.6	-54.1	6.0	0.00e+00	0	37	104	0	60	85148
2026-01-07 10:17:22.53	335.69	5.71	-51.6	-54.1	6.0	0.00e+00	0	37	104	0	60	84336
2026-01-07 10:17:23.54	335.77	5.63	-51.6	-54.1	6.1	0.00e+00	0	37	104	0	60	84817
2026-01-07 10:17:24.56	335.84	5.55	-51.6	-54.1	6.1	0.00e+00	0	37	104	0	60	84621
2026-01-07 10:17:25.57	335.91	5.48	-51.6	-54.1	6.1	0.00e+00	0	37	104	0	60	84573
2026-01-07 10:17:26.58	335.99	5.40	-51.6	-54.1	6.1	0.00e+00	0	37	104	0	60	84433
2026-01-07 10:17:27.59	336.06	5.32	-51.6	-54.1	6.1	0.00e+00	0	37	104	0	60	84653
2026-01-07 10:17:28.60	336.13	5.24	-51.6	-54.1	6.1	0.00e+00	0	37	104	0	60	84889
2026-01-07 10:17:29.61	336.20	5.16	-51.6	-54.1	6.1	0.00e+00	0	37	104	0	60	84813
2026-01-07 10:17:30.62	336.27	5.09	-51.6	-54.1	6.1	0.00e+00	0	37	104	0	60	85123
2026-01-07 10:17:31.63	336.34	5.01	-51.6	-54.1	6.1	0.00e+00	0	37	104	0	60	84946
2026-01-07 10:17:32.64	336.41	4.93	-51.6	-54.1	6.1	0.00e+00	0	37	104	0	60	84559
2026-01-07 10:17:33.65	336.48	4.86	-51.6	-54.1	6.1	0.00e+00	0	37	104	0	60	84589
2026-01-07 10:17:34.67	336.55	4.78	-51.6	-54.1	6.1	0.00e+00	0	37	104	0	60	84590
2026-01-07 10:17:35.68	336.62	4.71	-51.6	-54.1	6.1	0.00e+00	0	37	104	0	60	84669
2026-01-07 10:17:36.69	336.69	4.63	-51.6	-54.1	6.1	0.00e+00	0	37	104	0	60	84781
2026-01-07 10:17:37.70	336.75	4.56	-51.6	-54.1	6.1	0.00e+00	0	37	104	0	60	84966
2026-01-07 10:17:38.71	336.82	4.48	-51.6	-54.1	6.1	0.00e+00	0	37	104	0	60	85118
2026-01-07 10:17:39.72	336.89	4.41	-51.6	-54.1	6.1	0.00e+00	0	37	104	0	60	84652
2026-01-07 10:17:40.73	336.95	4.33	-51.6	-54.1	6.1	0.00e+00	0	37	104	0	60	84993
2026-01-07 10:17:41.74	337.02	4.26	-51.6	-54.1	6.1	0.00e+00	0	37	104	0	60	84776
2026-01-07 10:17:42.75	337.09	4.18	-51.6	-54.1	6.1	0.00e+00	0	37	104	0	60	84418
2026-01-07 10:17:43.76	337.15	4.11	-51.6	-54.1	6.1	0.00e+00	0	37	104	0	60	84630
2026-01-07 10:17:44.78	337.22	4.04	-51.6	-54.1	6.1	0.00e+00	0	37	104	0	60	84781
2026-01-07 10:17:45.79	337.28	3.96	-51.6	-54.1	6.1	0.00e+00	0	37	104	0	60	84749
2026-01-07 10:17:46.80	337.34	3.89	-51.6	-54.1	6.1	0.00e+00	0	37	104	0	60	84753
2026-01-07 10:17:47.81	337.41	3.82	-51.6	-54.1	6.1	0.00e+00	0	37	104	0	60	84464
2026-01-07 10:17:48.82	337.47	3.74	-51.6	-54.1	6.1	0.00e+00	0	37	104	0	60	84512
2026-01-07 10:17:49.83	337.53	3.67	-51.6	-54.1	6.1	0.00e+00	0	37	104	0	60	84306
2026-01-07 10:17:50.84	337.60	3.60	-51.6	-54.1	6.1	0.00e+00	0	37	104	0	60	84577
2026-01-07 10:17:51.85	337.66	3.53	-51.6	-54.1	6.1	0.00e+00	0	37	104	0	60	84360
2026-01-07 10:17:52.86	337.72	3.46	-51.6	-54.1	6.1	0.00e+00	0	37	104	0	60	84796
2026-01-07 10:17:53.87	337.78	3.39	-51.6	-54.1	6.1	0.00e+00	0	37	104	0	60	84975
2026-01-07 10:17:54.88	337.84	3.31	-51.6	-54.1	6.1	0.00e+00	0	37	104	0	60	84480
2026-01-07 10:17:55.90	337.91	3.24	-51.6	-54.1	6.1	0.00e+00	0	37	104	0	60	84405
2026-01-07 10:17:56.91	337.97	3.17	-51.6	-54.1	6.1	0.00e+00	0	37	104	0	60	84676
2026-01-07 10:17:57.92	338.03	3.10	-51.6	-54.0	6.1	0.00e+00	0	37	104	0	60	84219
2026-01-07 10:17:58.93	338.09	3.03	-51.6	-54.1	6.1	0.00e+00	0	37	104	0	60	84322
2026-01-07 10:17:59.94	338.15	2.96	-51.6	-54.1	6.1	0.00e+00	0	37	104	0	60	84608
2026-01-07 10:18:00.95	338.20	2.89	-51.6	-54.1	6.1	0.00e+00	0	37	104	0	60	84483
2026-01-07 10:18:01.96	338.26	2.82	-51.6	-54.1	6.1	0.00e+00	0	37	104	0	60	84774
2026-01-07 10:18:02.97	338.32	2.75	-51.6	-54.1	6.1	0.00e+00	0	37	104	0	60	85079
2026-01-07 10:18:03.98	338.38	2.68	-51.6	-54.1	6.1	0.00e+00	0	37	104	0	60	84819
2026-01-07 10:18:04.99	338.44	2.62	-51.6	-54.1	6.1	0.00e+00	0	37	104	0	60	84874
2026-01-07 10:18:06.01	338.50	2.55	-51.6	-54.1	6.1	0.00e+00	0	37	104	0	60	85042
2026-01-07 10:18:07.02	338.55	2.48	-51.6	-54.1	6.1	0.00e+00	0	37	104	0	60	84860
2026-01-07 10:18:08.03	338.61	2.41	-51.6	-54.1	6.0	0.00e+00	0	37	104	0	60	84531
2026-01-07 10:18:09.03	338.67	2.34	-51.6	-54.1	6.1	0.00e+00	0	37	104	0	60	84375
2026-01-07 10:18:10.04	338.72	2.27	-51.6	-54.1	6.1	0.00e+00	0	37	104	0	60	85153
2026-01-07 10:18:11.06	338.78	2.21	-51.6	-54.1	6.1	0.00e+00	0	37	104	0	60	84679
2026-01-07 10:18:12.07	338.83	2.14	-51.6	-54.1	6.1	0.00e+00	0	37	104	0	60	85113
2026-01-07 10:18:13.08	338.89	2.07	-51.6	-54.1	6.1	0.00e+00	0	37	104	0	60	84430
2026-01-07 10:18:14.09	338.94	2.00	-51.6	-54.1	6.1	0.00e+00	0	37	104	0	60	84972
2026-01-07 10:18:15.10	339.00	1.94	-51.6	-54.1	6.1	0.00e+00	0	37	104	0	60	84786
2026-01-07 10:18:16.11	339.05	1.87	-51.6	-54.1	6.1	0.00e+00	0	37	104	0	60	84488
2026-01-07 10:18:17.12	339.11	1.80	-51.6	-54.1	6.1	0.00e+00	0	37	104	0	60	84738
2026-01-07 10:18:18.13	339.16	1.74	-51.6	-54.1	6.1	0.00e+00	0	37	104	0	60	84312
2026-01-07 10:18:19.14	339.22	1.67	-51.6	-54.1	6.1	0.00e+00	0	37	104	0	60	84303
2026-01-07 10:18:20.15	339.27	1.60	-51.6	-54.1	6.1	0.00e+00	0	37	104	0	60	84574
2026-01-07 10:18:21.17	339.32	1.54	-51.6	-54.1	6.1	0.00e+00	0	37	104	0	60	84723
2026-01-07 10:18:22.18	339.38	1.47	-51.6	-54.1	6.1	0.00e+00	0	37	104	0	60	84420
2026-01-07 10:18:23.19	339.43	1.41	-51.6	-54.1	6.1	0.00e+00	0	37	104	0	60	85150
2026-01-07 10:18:24.20	339.48	1.34	-51.6	-54.1	6.1	0.00e+00	0	37	104	0	60	84660
2026-01-07 10:18:25.21	339.53	1.28	-51.6	-54.1	6.1	0.00e+00	0	37	104	0	60	84541
2026-01-07 10:18:26.22	339.58	1.21	-51.6	-54.1	6.1	0.00e+00	0	37	104	0	60	84359
2026-01-07 10:18:27.23	339.64	1.15	-51.6	-54.1	6.1	0.00e+00	0	37	104	0	60	84457
2026-01-07 10:18:28.24	339.69	1.08	-51.6	-54.1	6.1	0.00e+00	0	37	104	0	60	84683
2026-01-07 10:18:29.25	339.74	1.02	-51.6	-54.1	6.1	0.00e+00	0	37	104	0	60	84899
2026-01-07 10:18:30.26	339.79	0.95	-51.6	-54.1	6.1	0.00e+00	0	37	104	0	60	84463
2026-01-07 10:18:31.27	339.84	0.89	-51.6	-54.1	6.1	0.00e+00	0	37	104	0	60	84766
2026-01-07 10:18:32.28	339.89	0.83	-51.6	-54.1	6.1	0.00e+00	0	37	104	0	60	84318
2026-01-07 10:18:33.29	339.94	0.76	-51.6	-54.1	6.1	0.00e+00	0	37	104	0	60	84525
2026-01-07 10:18:34.31	339.99	0.70	-51.6	-54.1	6.1	0.00e+00	0	37	104	0	60	84562
2026-01-07 10:18:35.32	340.04	0.63	-51.6	-54.1	6.1	0.00e+00	0	37	104	0	60	84570
2026-01-07 10:18:36.33	340.09	0.57	-51.6	-54.1	6.1	0.00e+00	0	37	104	0	60	84649
2026-01-07 10:18:37.34	340.14	0.51	-51.6	-54.1	6.1	0.00e+00	0	37	104	0	60	84665
2026-01-07 10:18:38.35	340.19	0.44	-51.6	-54.0	6.1	0.00e+00	0	37	104	0	60	84206
2026-01-07 10:18:39.36	340.23	0.38	-51.6	-54.1	6.1	0.00e+00	0	37	104	0	60	84666
2026-01-07 10:18:40.37	340.28	0.32	-51.6	-54.1	6.1	0.00e+00	0	37	104	0	60	84469
2026-01-07 10:18:41.38	340.33	0.26	-51.6	-54.1	6.1	0.00e+00	0	37	104	0	60	84829
2026-01-07 10:18:42.39	340.38	0.19	-51.6	-54.1	6.1	0.00e+00	0	37	104	0	60	84804
2026-01-07 10:18:43.41	340.43	0.13	-51.6	-54.1	6.1	0.00e+00	0	37	104	0	60	84593
2026-01-07 10:18:44.42	340.47	0.07	-51.6	-54.1	6.1	0.00e+00	0	37	104	0	60	84798
2026-01-07 10:18:45.43	340.52	0.01	-51.6	-54.1	6.1	0.00e+00	0	37	104	0	60	84884
2026-01-07 10:18:46.44	340.57	-0.05	-51.6	-54.1	6.1	0.00e+00	0	37	104	0	60	84354
2026-01-07 10:18:47.45	340.61	-0.12	-51.6	-54.1	6.1	0.00e+00	0	37	104	0	60	84314

#Closed at: 2026-01-07 10:18:47
#Recorded file [0 MB]: D:/lorett/data/35034_260107_130758.dat