passes_logs/2026/01/07/R4.6S_Anadyr_2ch/R4.6S_Anadyr_2ch__20260107_091403_TY-41_rec.log

#Pass ID: 20260107_091403_TY-41
#Satellite: TY-41
#Configuration: TY-39_900M
#almurnet v.1.7.20251203
#Start time: 2026-01-07 09:14:34

#Version: 2.2.20231116
#Station: R4.6S_Anadyr_2ch
#Location: 177.4865 lon 64.73178 lat
#TLE: 1 61231U 24173E   25350.69767361  .00008010  00000-0  38191-3 0 09994
#TLE: 2 61231 097.4116 061.2842 0001674 094.3615 204.6766 15.19171214 68043

#Time	Az	El	Level	Level2	SNR	BER	BlckErr	Temp	State	Recorded	gain1	gain2
2026-01-07 09:14:34.85	155.32	2.12	-51.7	-53.3	5.7	0.00e+00	0	31	0	0	60	76914
2026-01-07 09:14:35.85	155.31	2.19	-51.6	-54.1	6.1	0.00e+00	0	33	104	0	60	84658
2026-01-07 09:14:36.86	155.31	2.27	-51.6	-54.1	6.1	0.00e+00	0	33	104	0	60	84902
2026-01-07 09:14:37.87	155.30	2.34	-51.6	-54.1	6.1	0.00e+00	0	33	104	0	60	84724
2026-01-07 09:14:38.89	155.30	2.41	-51.6	-54.1	6.1	0.00e+00	0	33	104	0	60	84648
2026-01-07 09:14:39.90	155.29	2.48	-51.6	-54.1	6.1	0.00e+00	0	33	104	0	60	85114
2026-01-07 09:14:40.91	155.29	2.56	-51.6	-54.1	6.1	0.00e+00	0	33	104	0	60	84597
2026-01-07 09:14:41.92	155.28	2.63	-51.6	-54.1	6.1	0.00e+00	0	33	104	0	60	84856
2026-01-07 09:14:42.93	155.27	2.70	-51.6	-54.1	6.1	0.00e+00	0	33	104	0	60	84605
2026-01-07 09:14:43.94	155.27	2.77	-51.6	-54.1	6.1	0.00e+00	0	33	104	0	60	84405
2026-01-07 09:14:44.95	155.26	2.85	-51.6	-54.1	6.1	0.00e+00	0	34	104	0	60	84742
2026-01-07 09:14:45.96	155.26	2.92	-51.6	-54.0	6.1	0.00e+00	0	34	104	0	60	84243
2026-01-07 09:14:46.97	155.25	3.00	-51.6	-54.1	6.1	0.00e+00	0	34	104	0	60	84927
2026-01-07 09:14:47.98	155.25	3.07	-51.6	-54.1	6.1	0.00e+00	0	34	104	0	60	85016
2026-01-07 09:14:49.00	155.24	3.15	-51.6	-54.1	6.1	0.00e+00	0	34	104	0	60	84825
2026-01-07 09:14:50.01	155.23	3.22	-51.6	-54.1	6.1	0.00e+00	0	34	104	0	60	84865
2026-01-07 09:14:51.02	155.23	3.30	-51.6	-54.1	6.1	0.00e+00	0	34	104	0	60	84686
2026-01-07 09:14:52.03	155.22	3.37	-51.6	-54.1	6.1	0.00e+00	0	34	104	0	60	84828
2026-01-07 09:14:53.04	155.22	3.45	-51.6	-54.1	6.1	0.00e+00	0	34	104	0	60	84691
2026-01-07 09:14:54.05	155.21	3.52	-51.6	-54.1	6.1	0.00e+00	0	34	104	0	60	84752
2026-01-07 09:14:55.06	155.20	3.60	-51.6	-54.0	6.1	0.00e+00	0	34	104	0	60	84099
2026-01-07 09:14:56.07	155.20	3.68	-51.6	-54.1	6.1	0.00e+00	0	34	104	0	60	84788
2026-01-07 09:14:57.08	155.19	3.75	-51.6	-54.1	6.1	0.00e+00	0	34	104	0	60	84920
2026-01-07 09:14:58.09	155.18	3.83	-51.6	-54.1	6.1	0.00e+00	0	34	104	0	60	84729
2026-01-07 09:14:59.11	155.18	3.91	-51.6	-54.1	6.1	0.00e+00	0	34	104	0	60	84827
2026-01-07 09:15:00.12	155.17	3.98	-51.6	-54.1	6.1	0.00e+00	0	34	104	0	60	84868
2026-01-07 09:15:01.13	155.16	4.06	-51.6	-54.1	6.1	0.00e+00	0	34	104	0	60	84924
2026-01-07 09:15:02.14	155.16	4.14	-51.6	-54.1	6.1	0.00e+00	0	34	104	0	60	85018
2026-01-07 09:15:03.15	155.15	4.22	-51.6	-54.1	6.1	0.00e+00	0	34	104	0	60	84709
2026-01-07 09:15:04.16	155.14	4.30	-51.6	-54.1	6.1	0.00e+00	0	34	104	0	60	84769
2026-01-07 09:15:05.17	155.14	4.38	-51.6	-54.1	6.1	0.00e+00	0	34	104	0	60	84732
2026-01-07 09:15:06.18	155.13	4.46	-51.6	-54.1	6.1	0.00e+00	0	34	104	0	60	84618
2026-01-07 09:15:07.20	155.12	4.54	-51.6	-54.1	6.1	0.00e+00	0	34	104	0	60	84904
2026-01-07 09:15:08.21	155.11	4.62	-51.6	-54.1	6.1	0.00e+00	0	34	104	0	60	84332
2026-01-07 09:15:09.22	155.11	4.70	-51.6	-54.1	6.1	0.00e+00	0	34	104	0	60	84401
2026-01-07 09:15:10.23	155.10	4.78	-51.6	-54.1	6.1	0.00e+00	0	34	104	0	60	84801
2026-01-07 09:15:11.24	155.09	4.86	-51.6	-54.1	6.1	0.00e+00	0	34	104	0	60	84547
2026-01-07 09:15:12.25	155.08	4.94	-51.6	-54.1	6.1	0.00e+00	0	34	104	0	60	84654
2026-01-07 09:15:13.26	155.08	5.02	-51.6	-54.1	6.1	0.00e+00	0	34	104	0	60	84658
2026-01-07 09:15:14.27	155.07	5.10	-51.6	-54.1	6.0	0.00e+00	0	34	104	0	60	84876
2026-01-07 09:15:15.28	155.06	5.19	-51.6	-54.1	6.0	0.00e+00	0	34	104	0	60	85032
2026-01-07 09:15:16.29	155.05	5.27	-51.6	-54.1	6.1	0.00e+00	0	34	104	0	60	84750
2026-01-07 09:15:17.30	155.05	5.35	-51.6	-54.1	6.1	0.00e+00	0	34	104	0	60	84491
2026-01-07 09:15:18.31	155.04	5.44	-51.6	-54.1	6.1	0.00e+00	0	34	104	0	60	85036
2026-01-07 09:15:19.33	155.03	5.52	-51.6	-54.1	6.1	0.00e+00	0	34	104	0	60	85168
2026-01-07 09:15:20.34	155.02	5.61	-51.6	-54.1	6.1	0.00e+00	0	34	104	0	60	85063
2026-01-07 09:15:21.35	155.01	5.69	-51.6	-54.1	6.1	0.00e+00	0	34	104	0	60	84718
2026-01-07 09:15:22.36	155.01	5.77	-51.6	-54.1	6.1	0.00e+00	0	34	104	0	60	84519
2026-01-07 09:15:23.37	155.00	5.86	-51.6	-54.1	6.1	0.00e+00	0	35	104	0	60	84778
2026-01-07 09:15:24.38	154.99	5.95	-51.6	-54.1	6.1	0.00e+00	0	34	104	0	60	84565
2026-01-07 09:15:25.39	154.98	6.03	-51.6	-54.1	6.1	0.00e+00	0	34	104	0	60	84947
2026-01-07 09:15:26.40	154.97	6.12	-51.6	-54.1	6.1	0.00e+00	0	35	104	0	60	84527
2026-01-07 09:15:27.42	154.96	6.21	-51.6	-54.1	6.1	0.00e+00	0	35	104	0	60	84817
2026-01-07 09:15:28.43	154.95	6.29	-51.6	-54.0	6.1	0.00e+00	0	35	104	0	60	84243
2026-01-07 09:15:29.44	154.95	6.38	-51.6	-54.1	6.1	0.00e+00	0	35	104	0	60	84729
2026-01-07 09:15:30.45	154.94	6.47	-51.6	-54.1	6.1	0.00e+00	0	35	104	0	60	84884
2026-01-07 09:15:31.46	154.93	6.56	-51.6	-54.1	6.1	0.00e+00	0	35	104	0	60	84674
2026-01-07 09:15:32.47	154.92	6.64	-51.6	-54.1	6.1	0.00e+00	0	35	104	0	60	84943
2026-01-07 09:15:33.48	154.91	6.73	-51.6	-54.1	6.1	0.00e+00	0	35	104	0	60	84404
2026-01-07 09:15:34.49	154.90	6.82	-51.6	-54.1	6.1	0.00e+00	0	35	104	0	60	84496
2026-01-07 09:15:35.50	154.89	6.91	-51.6	-54.1	6.1	0.00e+00	0	35	104	0	60	84714
2026-01-07 09:15:36.51	154.88	7.00	-51.6	-54.1	6.1	0.00e+00	0	35	104	0	60	84400
2026-01-07 09:15:37.53	154.87	7.10	-51.6	-54.1	6.1	0.00e+00	0	35	104	0	60	84569
2026-01-07 09:15:38.54	154.86	7.19	-51.6	-54.1	6.1	0.00e+00	0	35	104	0	60	84859
2026-01-07 09:15:39.55	154.85	7.28	-51.6	-54.1	6.1	0.00e+00	0	35	104	0	60	84793
2026-01-07 09:15:40.56	154.84	7.37	-51.6	-54.1	6.1	0.00e+00	0	35	104	0	60	84766
2026-01-07 09:15:41.57	154.83	7.46	-51.6	-54.1	6.1	0.00e+00	0	35	104	0	60	84992
2026-01-07 09:15:42.58	154.82	7.56	-51.6	-54.1	6.1	0.00e+00	0	35	104	0	60	84834
2026-01-07 09:15:43.59	154.81	7.65	-51.6	-54.1	6.1	0.00e+00	0	35	104	0	60	84816
2026-01-07 09:15:44.61	154.80	7.74	-51.6	-54.1	6.1	0.00e+00	0	35	104	0	60	84684
2026-01-07 09:15:45.62	154.79	7.84	-51.6	-54.1	6.1	0.00e+00	0	35	104	0	60	85168
2026-01-07 09:15:46.63	154.78	7.93	-51.6	-54.1	6.1	0.00e+00	0	35	104	0	60	84728
2026-01-07 09:15:47.64	154.77	8.03	-51.6	-54.1	6.1	0.00e+00	0	35	104	0	60	84655
2026-01-07 09:15:48.65	154.76	8.12	-51.6	-54.1	6.1	0.00e+00	0	35	104	0	60	84290
2026-01-07 09:15:49.66	154.75	8.22	-51.6	-54.2	6.1	0.00e+00	0	35	104	0	60	85307
2026-01-07 09:15:50.67	154.74	8.32	-51.6	-54.1	6.1	0.00e+00	0	35	104	0	60	84710
2026-01-07 09:15:51.69	154.72	8.42	-51.6	-54.1	6.1	0.00e+00	0	35	104	0	60	85138
2026-01-07 09:15:52.70	154.71	8.51	-51.6	-54.1	6.1	0.00e+00	0	35	104	0	60	84729
2026-01-07 09:15:53.71	154.70	8.61	-51.6	-54.1	6.0	0.00e+00	0	35	104	0	60	84934
2026-01-07 09:15:54.72	154.69	8.71	-51.6	-54.1	6.1	0.00e+00	0	35	104	0	60	85151
2026-01-07 09:15:55.73	154.68	8.81	-51.6	-54.1	6.1	0.00e+00	0	35	104	0	60	85002
2026-01-07 09:15:56.74	154.67	8.91	-51.6	-54.1	6.1	0.00e+00	0	35	104	0	60	84958
2026-01-07 09:15:57.75	154.65	9.01	-51.6	-54.1	6.1	0.00e+00	0	35	104	0	60	84652
2026-01-07 09:15:58.76	154.64	9.11	-51.6	-54.1	6.1	0.00e+00	0	35	104	0	60	84787
2026-01-07 09:15:59.77	154.63	9.21	-51.6	-54.1	6.1	0.00e+00	0	35	104	0	60	85005
2026-01-07 09:16:00.78	154.62	9.31	-51.6	-54.1	6.1	0.00e+00	0	35	104	0	60	84970
2026-01-07 09:16:01.79	154.61	9.42	-51.6	-54.1	6.1	0.00e+00	0	35	104	0	60	85042
2026-01-07 09:16:02.80	154.59	9.52	-51.6	-54.1	6.1	0.00e+00	0	35	104	0	60	84822
2026-01-07 09:16:03.81	154.58	9.62	-51.6	-54.1	6.1	0.00e+00	0	35	104	0	60	84672
2026-01-07 09:16:04.82	154.57	9.73	-51.6	-54.1	6.1	0.00e+00	0	35	104	0	60	84628
2026-01-07 09:16:05.84	154.55	9.83	-51.6	-54.1	6.1	0.00e+00	0	35	104	0	60	85190
2026-01-07 09:16:06.85	154.54	9.94	-51.6	-54.1	6.1	0.00e+00	0	35	104	0	60	85114
2026-01-07 09:16:07.86	154.53	10.04	-51.6	-54.1	6.1	0.00e+00	0	35	104	0	60	84681
2026-01-07 09:16:08.87	154.51	10.15	-51.6	-54.1	6.0	0.00e+00	0	35	104	0	60	84665
2026-01-07 09:16:09.88	154.50	10.26	-51.6	-54.1	6.1	0.00e+00	0	35	104	0	60	85109
2026-01-07 09:16:10.89	154.49	10.37	-51.6	-54.2	6.1	0.00e+00	0	35	104	0	60	85382
2026-01-07 09:16:11.90	154.47	10.47	-51.6	-54.1	6.1	0.00e+00	0	35	104	0	60	84930
2026-01-07 09:16:12.91	154.46	10.58	-51.6	-54.1	6.1	0.00e+00	0	35	104	0	60	84970
2026-01-07 09:16:13.92	154.44	10.69	-51.6	-54.1	6.1	0.00e+00	0	35	104	0	60	84677
2026-01-07 09:16:14.93	154.43	10.80	-51.6	-54.1	6.1	0.00e+00	0	35	104	0	60	85018
2026-01-07 09:16:15.95	154.42	10.92	-51.6	-54.1	6.1	0.00e+00	0	35	104	0	60	85139
2026-01-07 09:16:16.96	154.40	11.03	-51.6	-54.1	6.1	0.00e+00	0	35	104	0	60	84333
2026-01-07 09:16:17.97	154.39	11.14	-51.6	-54.1	6.1	0.00e+00	0	35	104	0	60	84623
2026-01-07 09:16:18.98	154.37	11.25	-51.6	-54.1	6.1	0.00e+00	0	35	104	0	60	84876
2026-01-07 09:16:19.99	154.36	11.37	-51.6	-54.1	6.1	0.00e+00	0	35	104	0	60	85109
2026-01-07 09:16:21.00	154.34	11.48	-51.6	-54.1	6.1	0.00e+00	0	35	104	0	60	84655
2026-01-07 09:16:22.01	154.32	11.60	-51.6	-54.1	6.1	0.00e+00	0	35	104	0	60	85068
2026-01-07 09:16:23.02	154.31	11.71	-51.6	-54.1	6.1	0.00e+00	0	35	104	0	60	85130
2026-01-07 09:16:24.03	154.29	11.83	-51.6	-54.1	6.1	0.00e+00	0	35	104	0	60	85036
2026-01-07 09:16:25.05	154.28	11.95	-51.6	-54.1	6.1	0.00e+00	0	35	104	0	60	85111
2026-01-07 09:16:26.06	154.26	12.06	-51.6	-54.1	6.1	0.00e+00	0	35	104	0	60	85166
2026-01-07 09:16:27.07	154.24	12.18	-51.6	-54.2	6.1	0.00e+00	0	35	104	0	60	85342
2026-01-07 09:16:28.08	154.23	12.30	-51.6	-54.2	6.1	0.00e+00	0	35	104	0	60	85317
2026-01-07 09:16:29.09	154.21	12.42	-51.6	-54.1	6.1	0.00e+00	0	36	104	0	60	85063
2026-01-07 09:16:30.10	154.19	12.54	-51.6	-54.1	6.1	0.00e+00	0	36	104	0	60	85124
2026-01-07 09:16:31.11	154.18	12.67	-51.6	-54.1	6.1	0.00e+00	0	36	104	0	60	85112
2026-01-07 09:16:32.12	154.16	12.79	-51.6	-54.1	6.1	0.00e+00	0	35	104	0	60	84924
2026-01-07 09:16:33.13	154.14	12.91	-51.6	-54.1	6.1	0.00e+00	0	36	104	0	60	84639
2026-01-07 09:16:34.14	154.12	13.04	-51.6	-54.1	6.1	0.00e+00	0	35	104	0	60	84575
2026-01-07 09:16:35.16	154.10	13.16	-51.6	-54.1	6.0	0.00e+00	0	35	104	0	60	84843
2026-01-07 09:16:36.17	154.09	13.29	-51.6	-54.1	6.1	0.00e+00	0	35	104	0	60	84713
2026-01-07 09:16:37.18	154.07	13.42	-51.6	-54.1	6.1	0.00e+00	0	35	104	0	60	84635
2026-01-07 09:16:38.19	154.05	13.54	-51.6	-54.1	6.1	0.00e+00	0	36	104	0	60	84723
2026-01-07 09:16:39.20	154.03	13.67	-51.6	-54.1	6.1	0.00e+00	0	35	104	0	60	84803
2026-01-07 09:16:40.21	154.01	13.80	-51.6	-54.1	6.1	0.00e+00	0	36	104	0	60	85047
2026-01-07 09:16:41.22	153.99	13.93	-51.6	-54.1	6.1	0.00e+00	0	36	104	0	60	85005
2026-01-07 09:16:42.23	153.97	14.06	-51.6	-54.2	6.1	0.00e+00	0	35	104	0	60	85312
2026-01-07 09:16:43.25	153.95	14.20	-51.6	-54.2	6.1	0.00e+00	0	36	104	0	60	85245
2026-01-07 09:16:44.26	153.93	14.33	-51.6	-54.2	6.1	0.00e+00	0	36	104	0	60	85242
2026-01-07 09:16:45.27	153.91	14.46	-51.6	-54.2	6.1	0.00e+00	0	36	104	0	60	85453
2026-01-07 09:16:46.28	153.89	14.60	-51.6	-54.2	6.1	0.00e+00	0	36	104	0	60	85250
2026-01-07 09:16:47.29	153.87	14.74	-51.6	-54.1	6.1	0.00e+00	0	36	104	0	60	84999
2026-01-07 09:16:48.30	153.85	14.87	-51.6	-54.1	6.1	0.00e+00	0	36	104	0	60	84933
2026-01-07 09:16:49.31	153.82	15.01	-51.6	-54.1	6.1	0.00e+00	0	36	104	0	60	84933
2026-01-07 09:16:50.32	153.80	15.15	-51.6	-54.1	6.1	0.00e+00	0	36	104	0	60	85073
2026-01-07 09:16:51.33	153.78	15.29	-51.6	-54.2	6.1	0.00e+00	0	36	104	0	60	85229
2026-01-07 09:16:52.34	153.76	15.43	-51.6	-54.1	6.1	0.00e+00	0	36	104	0	60	84715
2026-01-07 09:16:53.36	153.74	15.57	-51.6	-54.2	6.1	0.00e+00	0	36	104	0	60	85402
2026-01-07 09:16:54.37	153.71	15.72	-51.6	-54.1	6.1	0.00e+00	0	36	104	0	60	84988
2026-01-07 09:16:55.38	153.69	15.86	-51.7	-54.2	6.1	0.00e+00	0	36	104	0	60	85247
2026-01-07 09:16:56.39	153.67	16.01	-51.6	-54.2	6.1	0.00e+00	0	36	104	0	60	85514
2026-01-07 09:16:57.40	153.64	16.15	-51.6	-54.1	6.1	0.00e+00	0	36	104	0	60	85005
2026-01-07 09:16:58.41	153.62	16.30	-51.7	-54.1	6.1	0.00e+00	0	36	104	0	60	84869
2026-01-07 09:16:59.42	153.59	16.45	-51.6	-54.1	6.1	0.00e+00	0	36	104	0	60	85038
2026-01-07 09:17:00.43	153.57	16.60	-51.6	-54.1	6.1	0.00e+00	0	36	104	0	60	84937
2026-01-07 09:17:01.44	153.54	16.75	-51.6	-54.1	6.1	0.00e+00	0	36	104	0	60	84883
2026-01-07 09:17:02.45	153.52	16.90	-51.6	-54.1	6.1	0.00e+00	0	36	104	0	60	85026
2026-01-07 09:17:03.46	153.49	17.06	-51.6	-54.2	6.1	0.00e+00	0	36	104	0	60	85335
2026-01-07 09:17:04.47	153.47	17.21	-51.6	-54.1	6.1	0.00e+00	0	36	104	0	60	84964
2026-01-07 09:17:05.48	153.44	17.37	-51.6	-54.1	6.1	0.00e+00	0	36	104	0	60	85058
2026-01-07 09:17:06.49	153.41	17.53	-51.6	-54.1	6.1	0.00e+00	0	36	104	0	60	84998
2026-01-07 09:17:07.51	153.38	17.69	-51.6	-54.1	6.1	0.00e+00	0	36	104	0	60	84757
2026-01-07 09:17:08.52	153.36	17.85	-51.6	-54.1	6.1	0.00e+00	0	36	104	0	60	85074
2026-01-07 09:17:09.53	153.33	18.01	-51.6	-54.1	6.1	0.00e+00	0	36	104	0	60	84676
2026-01-07 09:17:10.54	153.30	18.17	-51.6	-54.1	6.1	0.00e+00	0	36	104	0	60	84977
2026-01-07 09:17:11.55	153.27	18.33	-51.6	-54.1	6.1	0.00e+00	0	36	104	0	60	84969
2026-01-07 09:17:12.56	153.24	18.50	-51.6	-54.1	6.0	0.00e+00	0	36	104	0	60	84693
2026-01-07 09:17:13.57	153.21	18.67	-51.6	-54.1	6.1	0.00e+00	0	36	104	0	60	85020
2026-01-07 09:17:14.58	153.18	18.84	-51.6	-54.1	6.1	0.00e+00	0	36	104	0	60	84713
2026-01-07 09:17:15.59	153.15	19.01	-51.6	-54.1	6.1	0.00e+00	0	36	104	0	60	85135
2026-01-07 09:17:16.60	153.12	19.18	-51.6	-54.1	6.1	0.00e+00	0	36	104	0	60	85116
2026-01-07 09:17:17.61	153.09	19.35	-51.6	-54.1	6.1	0.00e+00	0	36	104	0	60	85162
2026-01-07 09:17:18.62	153.06	19.52	-51.6	-54.1	6.1	0.00e+00	0	36	104	0	60	84887
2026-01-07 09:17:19.63	153.03	19.70	-51.6	-54.1	6.1	0.00e+00	0	36	104	0	60	84944
2026-01-07 09:17:20.65	152.99	19.88	-51.6	-54.1	6.1	0.00e+00	0	36	104	0	60	84808
2026-01-07 09:17:21.66	152.96	20.06	-51.6	-54.1	6.1	0.00e+00	0	36	104	0	60	84757
2026-01-07 09:17:22.67	152.93	20.24	-51.6	-54.1	6.1	0.00e+00	0	36	104	0	60	84924
2026-01-07 09:17:23.68	152.89	20.42	-51.6	-54.1	6.1	0.00e+00	0	36	104	0	60	84879
2026-01-07 09:17:24.69	152.86	20.60	-51.6	-54.2	6.1	0.00e+00	0	36	104	0	60	85349
2026-01-07 09:17:25.70	152.82	20.79	-51.6	-54.1	6.1	0.00e+00	0	36	104	0	60	84434
2026-01-07 09:17:26.71	152.79	20.98	-51.6	-54.1	6.1	0.00e+00	0	36	104	0	60	85043
2026-01-07 09:17:27.72	152.75	21.16	-51.6	-54.2	6.1	0.00e+00	0	36	104	0	60	85303
2026-01-07 09:17:28.73	152.71	21.36	-51.6	-54.1	6.1	0.00e+00	0	36	104	0	60	85191
2026-01-07 09:17:29.75	152.67	21.55	-51.6	-54.1	6.1	0.00e+00	0	36	104	0	60	84722
2026-01-07 09:17:30.76	152.64	21.74	-51.6	-54.1	6.1	0.00e+00	0	36	104	0	60	85122
2026-01-07 09:17:31.77	152.60	21.94	-51.6	-54.1	6.1	0.00e+00	0	36	104	0	60	84752
2026-01-07 09:17:32.78	152.56	22.14	-51.6	-54.1	6.1	0.00e+00	0	36	104	0	60	84842
2026-01-07 09:17:33.79	152.52	22.34	-51.6	-54.1	6.1	0.00e+00	0	36	104	0	60	84737
2026-01-07 09:17:34.80	152.48	22.54	-51.6	-54.1	6.1	0.00e+00	0	36	104	0	60	84749
2026-01-07 09:17:35.81	152.44	22.74	-51.6	-54.1	6.1	0.00e+00	0	36	104	0	60	84999
2026-01-07 09:17:36.82	152.39	22.95	-51.6	-54.1	6.1	0.00e+00	0	36	104	0	60	84904
2026-01-07 09:17:37.83	152.35	23.16	-51.6	-54.1	6.1	0.00e+00	0	36	104	0	60	84934
2026-01-07 09:17:38.84	152.31	23.37	-51.6	-54.2	6.1	0.00e+00	0	36	104	0	60	85266
2026-01-07 09:17:39.85	152.26	23.58	-51.6	-54.1	6.1	0.00e+00	0	36	104	0	60	85107
2026-01-07 09:17:40.86	152.22	23.79	-51.6	-54.2	6.1	0.00e+00	0	36	104	0	60	85327
2026-01-07 09:17:41.87	152.17	24.01	-51.6	-54.1	6.1	0.00e+00	0	36	104	0	60	84799
2026-01-07 09:17:42.89	152.13	24.23	-51.6	-54.1	6.1	0.00e+00	0	36	104	0	60	84872
2026-01-07 09:17:43.90	152.08	24.45	-51.6	-54.1	6.1	0.00e+00	0	36	104	0	60	85079
2026-01-07 09:17:44.91	152.03	24.67	-51.6	-54.1	6.1	0.00e+00	0	36	104	0	60	84836
2026-01-07 09:17:45.92	151.99	24.90	-51.6	-54.1	6.1	0.00e+00	0	36	104	0	60	84391
2026-01-07 09:17:46.93	151.94	25.13	-51.6	-54.1	6.1	0.00e+00	0	36	104	0	60	84738
2026-01-07 09:17:47.94	151.89	25.36	-51.6	-54.1	6.1	0.00e+00	0	36	104	0	60	84929
2026-01-07 09:17:48.95	151.83	25.59	-51.6	-54.1	6.1	0.00e+00	0	36	104	0	60	85036
2026-01-07 09:17:49.96	151.78	25.82	-51.6	-54.1	6.1	0.00e+00	0	36	104	0	60	84422
2026-01-07 09:17:50.97	151.73	26.06	-51.6	-54.2	6.1	0.00e+00	0	36	104	0	60	85330
2026-01-07 09:17:51.98	151.68	26.30	-51.6	-54.2	6.1	0.00e+00	0	36	104	0	60	85227
2026-01-07 09:17:53.00	151.62	26.55	-51.6	-54.2	6.1	0.00e+00	0	36	104	0	60	85255
2026-01-07 09:17:54.01	151.56	26.79	-51.6	-54.2	6.0	0.00e+00	0	36	104	0	60	85270
2026-01-07 09:17:55.02	151.51	27.04	-51.6	-54.1	6.1	0.00e+00	0	36	104	0	60	85069
2026-01-07 09:17:56.03	151.45	27.29	-51.6	-54.2	6.1	0.00e+00	0	36	104	0	60	85304
2026-01-07 09:17:57.04	151.39	27.54	-51.6	-54.1	6.1	0.00e+00	0	36	104	0	60	84821
2026-01-07 09:17:58.05	151.33	27.80	-51.6	-54.1	6.1	0.00e+00	0	36	104	0	60	84955
2026-01-07 09:17:59.06	151.27	28.06	-51.6	-54.1	6.1	0.00e+00	0	36	104	0	60	84677
2026-01-07 09:18:00.07	151.21	28.32	-51.6	-54.2	6.1	0.00e+00	0	36	104	0	60	85347
2026-01-07 09:18:01.08	151.14	28.58	-51.6	-54.1	6.1	0.00e+00	0	36	104	0	60	84872
2026-01-07 09:18:02.09	151.08	28.85	-51.6	-54.1	6.1	0.00e+00	0	36	104	0	60	84939
2026-01-07 09:18:03.11	151.01	29.12	-51.6	-54.1	6.1	0.00e+00	0	36	104	0	60	85020
2026-01-07 09:18:04.12	150.95	29.40	-51.6	-54.2	6.1	0.00e+00	0	36	104	0	60	85368
2026-01-07 09:18:05.13	150.88	29.67	-51.6	-54.2	6.1	0.00e+00	0	36	104	0	60	85426
2026-01-07 09:18:06.14	150.81	29.95	-51.6	-54.2	6.1	0.00e+00	0	36	104	0	60	85324
2026-01-07 09:18:07.15	150.74	30.24	-51.6	-54.1	6.1	0.00e+00	0	36	104	0	60	84955
2026-01-07 09:18:08.16	150.66	30.52	-51.6	-54.1	6.1	0.00e+00	0	36	104	0	60	85025
2026-01-07 09:18:09.17	150.59	30.81	-51.6	-54.1	6.1	0.00e+00	0	36	104	0	60	84790
2026-01-07 09:18:10.18	150.51	31.11	-51.6	-54.1	6.1	0.00e+00	0	36	104	0	60	85143
2026-01-07 09:18:11.19	150.44	31.40	-51.6	-54.1	6.1	0.00e+00	0	36	104	0	60	85032
2026-01-07 09:18:12.20	150.36	31.70	-51.6	-54.1	6.1	0.00e+00	0	36	104	0	60	85062
2026-01-07 09:18:13.21	150.28	32.01	-51.6	-54.1	6.1	0.00e+00	0	36	104	0	60	84738
2026-01-07 09:18:14.22	150.20	32.31	-51.6	-54.1	6.1	0.00e+00	0	36	104	0	60	84851
2026-01-07 09:18:15.23	150.11	32.63	-51.7	-54.1	6.1	0.00e+00	0	36	104	0	60	84703
2026-01-07 09:18:16.24	150.03	32.94	-51.6	-54.1	6.1	0.00e+00	0	36	104	0	60	84954
2026-01-07 09:18:17.26	149.94	33.26	-51.6	-54.2	6.1	0.00e+00	0	36	104	0	60	85373
2026-01-07 09:18:18.27	149.85	33.58	-51.6	-54.1	6.1	0.00e+00	0	36	104	0	60	84958
2026-01-07 09:18:19.28	149.76	33.91	-51.6	-54.1	6.1	0.00e+00	0	36	104	0	60	84775
2026-01-07 09:18:20.29	149.66	34.24	-51.6	-54.1	6.1	0.00e+00	0	36	104	0	60	85066
2026-01-07 09:18:21.30	149.57	34.58	-51.6	-54.2	6.1	0.00e+00	0	36	104	0	60	85261
2026-01-07 09:18:22.31	149.47	34.91	-51.6	-54.1	6.1	0.00e+00	0	36	104	0	60	84895
2026-01-07 09:18:23.32	149.37	35.26	-51.6	-54.1	6.1	0.00e+00	0	36	104	0	60	84968
2026-01-07 09:18:24.33	149.27	35.60	-51.6	-54.1	6.1	0.00e+00	0	36	104	0	60	84799
2026-01-07 09:18:25.35	149.16	35.96	-51.6	-54.1	6.1	0.00e+00	0	36	104	0	60	84682
2026-01-07 09:18:26.36	149.05	36.31	-51.6	-54.2	6.1	0.00e+00	0	36	104	0	60	85255
2026-01-07 09:18:27.37	148.94	36.67	-51.6	-54.1	6.1	0.00e+00	0	36	104	0	60	84733
2026-01-07 09:18:28.38	148.83	37.04	-51.6	-54.1	6.1	0.00e+00	0	36	104	0	60	84910
2026-01-07 09:18:29.39	148.71	37.41	-51.6	-54.1	6.1	0.00e+00	0	36	104	0	60	84965
2026-01-07 09:18:30.40	148.59	37.78	-51.6	-54.1	6.1	0.00e+00	0	36	104	0	60	85060
2026-01-07 09:18:31.41	148.47	38.16	-51.6	-54.1	6.1	0.00e+00	0	36	104	0	60	85123
2026-01-07 09:18:32.42	148.35	38.54	-51.6	-54.1	6.1	0.00e+00	0	36	104	0	60	85021
2026-01-07 09:18:33.43	148.22	38.93	-51.6	-54.1	6.1	0.00e+00	0	36	104	0	60	84588
2026-01-07 09:18:34.45	148.09	39.33	-51.6	-54.1	6.1	0.00e+00	0	36	104	0	60	84953
2026-01-07 09:18:35.46	147.95	39.72	-51.6	-54.1	6.1	0.00e+00	0	36	104	0	60	84749
2026-01-07 09:18:36.47	147.82	40.13	-51.6	-54.1	6.1	0.00e+00	0	36	104	0	60	84656
2026-01-07 09:18:37.48	147.67	40.53	-51.6	-54.1	6.1	0.00e+00	0	36	104	0	60	85207
2026-01-07 09:18:38.49	147.53	40.95	-51.6	-54.1	6.1	0.00e+00	0	36	104	0	60	84965
2026-01-07 09:18:39.50	147.38	41.36	-51.6	-54.1	6.1	0.00e+00	0	36	104	0	60	84773
2026-01-07 09:18:40.51	147.22	41.79	-51.6	-54.1	6.1	0.00e+00	0	36	104	0	60	84804
2026-01-07 09:18:41.52	147.06	42.22	-51.6	-54.1	6.1	0.00e+00	0	36	104	0	60	84674
2026-01-07 09:18:42.53	146.90	42.65	-51.6	-54.1	6.1	0.00e+00	0	36	104	0	60	84907
2026-01-07 09:18:43.54	146.73	43.09	-51.6	-54.1	6.1	0.00e+00	0	36	104	0	60	85137
2026-01-07 09:18:44.56	146.56	43.54	-51.6	-54.2	6.1	0.00e+00	0	36	104	0	60	85457
2026-01-07 09:18:45.57	146.38	43.99	-51.6	-54.1	6.1	0.00e+00	0	36	104	0	60	85038
2026-01-07 09:18:46.58	146.20	44.45	-51.6	-54.2	6.1	0.00e+00	0	36	104	0	60	85611
2026-01-07 09:18:47.59	146.01	44.91	-51.6	-54.1	6.1	0.00e+00	0	36	104	0	60	85007
2026-01-07 09:18:48.60	145.81	45.38	-51.6	-54.2	6.1	0.00e+00	0	36	104	0	60	85341
2026-01-07 09:18:49.61	145.61	45.85	-51.6	-54.2	6.1	0.00e+00	0	36	104	0	60	85339
2026-01-07 09:18:50.62	145.40	46.33	-51.6	-54.1	6.1	0.00e+00	0	36	104	0	60	85023
2026-01-07 09:18:51.63	145.19	46.81	-51.6	-54.1	6.1	0.00e+00	0	36	104	0	60	84889
2026-01-07 09:18:52.64	144.97	47.30	-51.6	-54.1	6.1	0.00e+00	0	36	104	0	60	84671
2026-01-07 09:18:53.66	144.74	47.81	-51.6	-54.1	6.1	0.00e+00	0	36	104	0	60	84842
2026-01-07 09:18:54.67	144.50	48.31	-51.6	-54.1	6.1	0.00e+00	0	36	104	0	60	84711
2026-01-07 09:18:55.68	144.25	48.82	-51.6	-54.1	6.0	0.00e+00	0	36	104	0	60	85054
2026-01-07 09:18:56.69	144.00	49.33	-51.6	-54.1	6.1	0.00e+00	0	36	104	0	60	84658
2026-01-07 09:18:57.70	143.74	49.85	-51.6	-54.1	6.1	0.00e+00	0	36	104	0	60	85144
2026-01-07 09:18:58.71	143.47	50.38	-51.6	-54.1	6.1	0.00e+00	0	36	104	0	60	84857
2026-01-07 09:18:59.72	143.18	50.91	-51.6	-54.1	6.1	0.00e+00	0	36	104	0	60	85183
2026-01-07 09:19:00.73	142.89	51.45	-51.6	-54.1	6.1	0.00e+00	0	36	104	0	60	85053
2026-01-07 09:19:01.74	142.59	51.99	-51.6	-54.1	6.1	0.00e+00	0	36	104	0	60	85212
2026-01-07 09:19:02.75	142.27	52.55	-51.6	-54.1	6.1	0.00e+00	0	36	104	0	60	84882
2026-01-07 09:19:03.76	141.94	53.10	-51.6	-54.1	6.1	0.00e+00	0	36	104	0	60	84856
2026-01-07 09:19:04.77	141.60	53.66	-51.6	-54.1	6.1	0.00e+00	0	36	104	0	60	85002
2026-01-07 09:19:05.78	141.24	54.23	-51.6	-54.1	6.1	0.00e+00	0	36	104	0	60	85131
2026-01-07 09:19:06.79	140.87	54.81	-51.6	-54.2	6.1	0.00e+00	0	36	104	0	60	85309
2026-01-07 09:19:07.81	140.48	55.39	-51.6	-54.1	6.1	0.00e+00	0	36	104	0	60	84620
2026-01-07 09:19:08.82	140.08	55.98	-51.6	-54.1	6.1	0.00e+00	0	36	104	0	60	84549
2026-01-07 09:19:09.83	139.66	56.57	-51.6	-54.1	6.1	0.00e+00	0	36	104	0	60	84861
2026-01-07 09:19:10.84	139.22	57.16	-51.6	-54.1	6.0	0.00e+00	0	36	104	0	60	84599
2026-01-07 09:19:11.85	138.76	57.76	-51.6	-54.1	6.1	0.00e+00	0	36	104	0	60	85172
2026-01-07 09:19:12.86	138.28	58.37	-51.6	-54.1	6.1	0.00e+00	0	36	104	0	60	84817
2026-01-07 09:19:13.87	137.77	58.98	-51.6	-54.1	6.1	0.00e+00	0	36	104	0	60	85068
2026-01-07 09:19:14.88	137.24	59.60	-51.6	-54.1	6.1	0.00e+00	0	36	104	0	60	84664
2026-01-07 09:19:15.89	136.69	60.22	-51.6	-54.1	6.1	0.00e+00	0	36	104	0	60	85071
2026-01-07 09:19:16.90	136.10	60.84	-51.6	-54.1	6.1	0.00e+00	0	36	104	0	60	85052
2026-01-07 09:19:17.92	135.48	61.48	-51.6	-54.1	6.1	0.00e+00	0	36	104	0	60	84785
2026-01-07 09:19:18.93	134.83	62.11	-51.6	-54.1	6.1	0.00e+00	0	36	104	0	60	84911
2026-01-07 09:19:19.94	134.15	62.74	-51.6	-54.2	6.1	0.00e+00	0	36	104	0	60	85309
2026-01-07 09:19:20.95	133.43	63.38	-51.6	-54.1	6.1	0.00e+00	0	36	104	0	60	84916
2026-01-07 09:19:21.96	132.67	64.02	-51.6	-54.1	6.1	0.00e+00	0	36	104	0	60	84846
2026-01-07 09:19:22.97	131.87	64.66	-51.6	-54.1	6.1	0.00e+00	0	36	104	0	60	85114
2026-01-07 09:19:23.98	131.02	65.30	-51.6	-54.1	6.1	0.00e+00	0	36	104	0	60	84835
2026-01-07 09:19:24.99	130.12	65.94	-51.6	-54.1	6.1	0.00e+00	0	36	104	0	60	84925
2026-01-07 09:19:26.00	129.16	66.59	-51.6	-54.2	6.1	0.00e+00	0	36	104	0	60	85252
2026-01-07 09:19:27.01	128.14	67.23	-51.6	-54.2	6.1	0.00e+00	0	36	104	0	60	85229
2026-01-07 09:19:28.03	127.05	67.87	-51.6	-54.1	6.1	0.00e+00	0	36	104	0	60	84807
2026-01-07 09:19:29.04	125.90	68.51	-51.6	-54.1	6.1	0.00e+00	0	36	104	0	60	84901
2026-01-07 09:19:30.05	124.66	69.14	-51.6	-54.1	6.1	0.00e+00	0	37	104	0	60	84844
2026-01-07 09:19:31.06	123.35	69.77	-51.6	-54.1	6.1	0.00e+00	0	36	104	0	60	84892
2026-01-07 09:19:32.07	121.95	70.39	-51.6	-54.1	6.1	0.00e+00	0	36	104	0	60	84833
2026-01-07 09:19:33.08	120.44	71.01	-51.6	-54.1	6.1	0.00e+00	0	36	104	0	60	84888
2026-01-07 09:19:34.09	118.83	71.61	-51.6	-54.1	6.1	0.00e+00	0	36	104	0	60	84836
2026-01-07 09:19:35.10	117.10	72.21	-51.6	-54.1	6.1	0.00e+00	0	36	104	0	60	84771
2026-01-07 09:19:36.11	115.25	72.79	-51.6	-54.1	6.1	0.00e+00	0	36	104	0	60	84734
2026-01-07 09:19:37.12	113.27	73.36	-51.6	-54.1	6.1	0.00e+00	0	36	104	0	60	84384
2026-01-07 09:19:38.13	111.13	73.90	-51.6	-54.1	6.1	0.00e+00	0	36	104	0	60	84980
2026-01-07 09:19:39.14	108.85	74.43	-51.6	-54.2	6.1	0.00e+00	0	36	104	0	60	85300
2026-01-07 09:19:40.15	106.40	74.94	-51.6	-54.1	6.1	0.00e+00	0	36	104	0	60	84640
2026-01-07 09:19:41.16	103.77	75.41	-51.6	-54.2	6.1	0.00e+00	0	36	104	0	60	85420
2026-01-07 09:19:42.18	100.94	75.87	-51.6	-54.2	6.1	0.00e+00	0	36	104	0	60	85284
2026-01-07 09:19:43.19	97.95	76.28	-51.6	-54.1	6.1	0.00e+00	0	36	104	0	60	85132
2026-01-07 09:19:44.20	94.78	76.66	-51.6	-54.1	6.1	0.00e+00	0	36	104	0	60	85100
2026-01-07 09:19:45.21	91.43	76.99	-51.6	-54.1	6.1	0.00e+00	0	36	104	0	60	84764
2026-01-07 09:19:46.22	87.90	77.29	-51.6	-54.1	6.1	0.00e+00	0	36	104	0	60	84789
2026-01-07 09:19:47.23	84.22	77.53	-51.6	-54.2	6.0	0.00e+00	0	36	104	0	60	85310
2026-01-07 09:19:48.24	80.41	77.72	-51.6	-54.1	6.1	0.00e+00	0	36	104	0	60	84706
2026-01-07 09:19:49.25	76.49	77.86	-51.6	-54.2	6.1	0.00e+00	0	36	104	0	60	85240
2026-01-07 09:19:50.27	72.46	77.94	-51.6	-54.2	6.1	0.00e+00	0	36	104	0	60	85239
2026-01-07 09:19:51.28	68.43	77.96	-51.6	-54.1	6.1	0.00e+00	0	36	104	0	60	84829
2026-01-07 09:19:52.29	64.41	77.92	-51.6	-54.1	6.1	0.00e+00	0	36	104	0	60	84772
2026-01-07 09:19:53.30	60.43	77.83	-51.6	-54.1	6.1	0.00e+00	0	36	104	0	60	85103
2026-01-07 09:19:54.31	56.54	77.68	-51.6	-54.1	6.1	0.00e+00	0	36	104	0	60	84590
2026-01-07 09:19:55.32	52.76	77.48	-51.6	-54.1	6.1	0.00e+00	0	36	104	0	60	84646
2026-01-07 09:19:56.33	49.11	77.22	-51.6	-54.1	6.1	0.00e+00	0	36	104	0	60	84899
2026-01-07 09:19:57.34	45.63	76.92	-51.6	-54.1	6.1	0.00e+00	0	36	104	0	60	84984
2026-01-07 09:19:58.35	42.32	76.58	-51.6	-54.1	6.1	0.00e+00	0	36	104	0	60	85220
2026-01-07 09:19:59.36	39.19	76.19	-51.6	-54.1	6.1	0.00e+00	0	36	104	0	60	84937
2026-01-07 09:20:00.37	36.25	75.77	-51.6	-54.1	6.1	0.00e+00	0	37	104	0	60	84818
2026-01-07 09:20:01.38	33.49	75.31	-51.6	-54.1	6.1	0.00e+00	0	36	104	0	60	84814
2026-01-07 09:20:02.39	30.90	74.83	-51.6	-54.1	6.1	0.00e+00	0	36	104	0	60	84471
2026-01-07 09:20:03.41	28.47	74.32	-51.6	-54.1	6.1	0.00e+00	0	36	104	0	60	84931
2026-01-07 09:20:04.41	26.24	73.79	-51.6	-54.1	6.1	0.00e+00	0	36	104	0	60	84826
2026-01-07 09:20:05.43	24.12	73.23	-51.6	-54.1	6.1	0.00e+00	0	36	104	0	60	84856
2026-01-07 09:20:06.44	22.17	72.66	-51.6	-54.2	6.1	0.00e+00	0	36	104	0	60	85241
2026-01-07 09:20:07.45	20.35	72.08	-51.6	-54.1	6.1	0.00e+00	0	36	104	0	60	84674
2026-01-07 09:20:08.46	18.65	71.48	-51.6	-54.1	6.1	0.00e+00	0	36	104	0	60	84774
2026-01-07 09:20:09.47	17.07	70.88	-51.6	-54.1	6.1	0.00e+00	0	36	104	0	60	85172
2026-01-07 09:20:10.48	15.59	70.26	-51.6	-54.1	6.1	0.00e+00	0	36	104	0	60	85052
2026-01-07 09:20:11.49	14.21	69.64	-51.6	-54.1	6.1	0.00e+00	0	36	104	0	60	84909
2026-01-07 09:20:12.50	12.91	69.01	-51.6	-54.1	6.1	0.00e+00	0	36	104	0	60	85143
2026-01-07 09:20:13.51	11.70	68.38	-51.6	-54.2	6.1	0.00e+00	0	36	104	0	60	85401
2026-01-07 09:20:14.52	10.56	67.74	-51.6	-54.1	6.1	0.00e+00	0	36	104	0	60	84899
2026-01-07 09:20:15.53	9.50	67.10	-51.6	-54.1	6.1	0.00e+00	0	36	104	0	60	84903
2026-01-07 09:20:16.54	8.49	66.46	-51.6	-54.2	6.1	0.00e+00	0	36	104	0	60	85338
2026-01-07 09:20:17.55	7.55	65.82	-51.6	-54.1	6.1	0.00e+00	0	36	104	0	60	85212
2026-01-07 09:20:18.56	6.66	65.18	-51.6	-54.1	6.1	0.00e+00	0	36	104	0	60	84654
2026-01-07 09:20:19.57	5.82	64.54	-51.6	-54.1	6.1	0.00e+00	0	36	104	0	60	84975
2026-01-07 09:20:20.59	5.02	63.90	-51.6	-54.1	6.1	0.00e+00	0	36	104	0	60	85176
2026-01-07 09:20:21.60	4.27	63.26	-51.6	-54.1	6.0	0.00e+00	0	36	104	0	60	85046
2026-01-07 09:20:22.61	3.56	62.62	-51.6	-54.1	6.1	0.00e+00	0	36	104	0	60	85202
2026-01-07 09:20:23.62	2.89	61.99	-51.6	-54.1	6.1	0.00e+00	0	37	104	0	60	85053
2026-01-07 09:20:24.63	2.25	61.36	-51.6	-54.1	6.1	0.00e+00	0	37	104	0	60	84320
2026-01-07 09:20:25.64	1.64	60.74	-51.6	-54.1	6.1	0.00e+00	0	36	104	0	60	84890
2026-01-07 09:20:26.65	1.07	60.12	-51.6	-54.1	6.1	0.00e+00	0	36	104	0	60	84314
2026-01-07 09:20:27.66	0.52	59.50	-51.6	-54.1	6.1	0.00e+00	0	37	104	0	60	85099
2026-01-07 09:20:28.67	359.99	58.89	-51.6	-54.2	6.1	0.00e+00	0	36	104	0	60	85263
2026-01-07 09:20:29.68	359.49	58.28	-51.6	-54.1	6.1	0.00e+00	0	36	104	0	60	84991
2026-01-07 09:20:30.69	359.02	57.67	-51.6	-54.1	6.1	0.00e+00	0	36	104	0	60	85054
2026-01-07 09:20:31.70	358.56	57.08	-51.6	-54.1	6.1	0.00e+00	0	37	104	0	60	85027
2026-01-07 09:20:32.72	358.12	56.48	-51.6	-54.1	6.1	0.00e+00	0	36	104	0	60	85193
2026-01-07 09:20:33.73	357.71	55.89	-51.6	-54.1	6.1	0.00e+00	0	36	104	0	60	85063
2026-01-07 09:20:34.74	357.31	55.31	-51.6	-54.1	6.1	0.00e+00	0	37	104	0	60	84906
2026-01-07 09:20:35.75	356.92	54.73	-51.6	-54.1	6.1	0.00e+00	0	36	104	0	60	85086
2026-01-07 09:20:36.76	356.56	54.16	-51.6	-54.1	6.1	0.00e+00	0	36	104	0	60	85023
2026-01-07 09:20:37.77	356.20	53.60	-51.6	-54.1	6.1	0.00e+00	0	36	104	0	60	84998
2026-01-07 09:20:38.78	355.87	53.04	-51.6	-54.1	6.1	0.00e+00	0	36	104	0	60	85209
2026-01-07 09:20:39.79	355.54	52.48	-51.6	-54.1	6.1	0.00e+00	0	36	104	0	60	85128
2026-01-07 09:20:40.81	355.22	51.93	-51.6	-54.1	6.1	0.00e+00	0	36	104	0	60	85141
2026-01-07 09:20:41.82	354.92	51.39	-51.6	-54.1	6.1	0.00e+00	0	36	104	0	60	84703
2026-01-07 09:20:42.83	354.63	50.85	-51.6	-54.1	6.1	0.00e+00	0	36	104	0	60	84837
2026-01-07 09:20:43.84	354.35	50.32	-51.6	-54.1	6.1	0.00e+00	0	36	104	0	60	84926
2026-01-07 09:20:44.85	354.08	49.80	-51.6	-54.1	6.1	0.00e+00	0	36	104	0	60	84791
2026-01-07 09:20:45.86	353.82	49.28	-51.6	-54.1	6.1	0.00e+00	0	36	104	0	60	84904
2026-01-07 09:20:46.87	353.57	48.77	-51.6	-54.2	6.1	0.00e+00	0	36	104	0	60	85536
2026-01-07 09:20:47.88	353.33	48.26	-51.6	-54.1	6.1	0.00e+00	0	36	104	0	60	84549
2026-01-07 09:20:48.89	353.09	47.77	-51.6	-54.2	6.1	0.00e+00	0	37	104	0	60	85257
2026-01-07 09:20:49.90	352.87	47.27	-51.6	-54.1	6.1	0.00e+00	0	36	104	0	60	84835
2026-01-07 09:20:50.91	352.65	46.78	-51.6	-54.1	6.1	0.00e+00	0	36	104	0	60	85060
2026-01-07 09:20:51.93	352.43	46.30	-51.6	-54.1	6.1	0.00e+00	0	36	104	0	60	84929
2026-01-07 09:20:52.94	352.22	45.82	-51.6	-54.1	6.1	0.00e+00	0	36	104	0	60	84926
2026-01-07 09:20:53.95	352.02	45.35	-51.6	-54.1	6.1	0.00e+00	0	36	104	0	60	84882
2026-01-07 09:20:54.96	351.83	44.89	-51.6	-54.1	6.1	0.00e+00	0	36	104	0	60	85162
2026-01-07 09:20:55.97	351.64	44.43	-51.6	-54.1	6.1	0.00e+00	0	37	104	0	60	85090
2026-01-07 09:20:56.98	351.46	43.97	-51.6	-54.1	6.1	0.00e+00	0	36	104	0	60	84503
2026-01-07 09:20:57.99	351.28	43.53	-51.6	-54.1	6.1	0.00e+00	0	37	104	0	60	84778
2026-01-07 09:20:59.00	351.11	43.08	-51.6	-54.1	6.1	0.00e+00	0	36	104	0	60	84669
2026-01-07 09:21:00.01	350.95	42.65	-51.6	-54.1	6.1	0.00e+00	0	36	104	0	60	84645
2026-01-07 09:21:01.02	350.78	42.22	-51.6	-54.1	6.1	0.00e+00	0	36	104	0	60	84716
2026-01-07 09:21:02.03	350.63	41.79	-51.6	-54.2	6.1	0.00e+00	0	37	104	0	60	85299
2026-01-07 09:21:03.04	350.47	41.37	-51.6	-54.1	6.1	0.00e+00	0	36	104	0	60	84738
2026-01-07 09:21:04.05	350.33	40.95	-51.6	-54.1	6.1	0.00e+00	0	37	104	0	60	84748
2026-01-07 09:21:05.06	350.18	40.54	-51.6	-54.1	6.1	0.00e+00	0	37	104	0	60	84671
2026-01-07 09:21:06.08	350.04	40.13	-51.6	-54.1	6.1	0.00e+00	0	36	104	0	60	84946
2026-01-07 09:21:07.09	349.90	39.73	-51.6	-54.1	6.1	0.00e+00	0	36	104	0	60	85040
2026-01-07 09:21:08.10	349.77	39.34	-51.6	-54.1	6.1	0.00e+00	0	37	104	0	60	85038
2026-01-07 09:21:09.11	349.64	38.95	-51.6	-54.1	6.1	0.00e+00	0	37	104	0	60	84964
2026-01-07 09:21:10.12	349.51	38.56	-51.6	-54.1	6.1	0.00e+00	0	37	104	0	60	85206
2026-01-07 09:21:11.13	349.39	38.18	-51.6	-54.2	6.1	0.00e+00	0	37	104	0	60	85344
2026-01-07 09:21:12.14	349.27	37.81	-51.6	-54.1	6.1	0.00e+00	0	36	104	0	60	84880
2026-01-07 09:21:13.15	349.15	37.44	-51.6	-54.1	6.1	0.00e+00	0	37	104	0	60	84850
2026-01-07 09:21:14.16	349.03	37.07	-51.6	-54.1	6.1	0.00e+00	0	36	104	0	60	85122
2026-01-07 09:21:15.17	348.92	36.71	-51.6	-54.1	6.1	0.00e+00	0	37	104	0	60	85045
2026-01-07 09:21:16.18	348.81	36.35	-51.6	-54.1	6.1	0.00e+00	0	37	104	0	60	85122
2026-01-07 09:21:17.19	348.71	36.00	-51.6	-54.1	6.1	0.00e+00	0	37	104	0	60	85142
2026-01-07 09:21:18.20	348.60	35.65	-51.6	-54.1	6.1	0.00e+00	0	37	104	0	60	84768
2026-01-07 09:21:19.21	348.50	35.30	-51.6	-54.1	6.1	0.00e+00	0	36	104	0	60	84636
2026-01-07 09:21:20.22	348.40	34.96	-51.6	-54.1	6.1	0.00e+00	0	36	104	0	60	85075
2026-01-07 09:21:21.24	348.30	34.62	-51.6	-54.2	6.1	0.00e+00	0	37	104	0	60	85247
2026-01-07 09:21:22.25	348.21	34.29	-51.6	-54.1	6.1	0.00e+00	0	36	104	0	60	84921
2026-01-07 09:21:23.26	348.11	33.96	-51.6	-54.1	6.1	0.00e+00	0	37	104	0	60	84605
2026-01-07 09:21:24.27	348.02	33.64	-51.6	-54.1	6.1	0.00e+00	0	36	104	0	60	84927
2026-01-07 09:21:25.28	347.93	33.32	-51.6	-54.1	6.1	0.00e+00	0	36	104	0	60	84931
2026-01-07 09:21:26.29	347.85	33.00	-51.6	-54.1	6.1	0.00e+00	0	36	104	0	60	85168
2026-01-07 09:21:27.30	347.76	32.69	-51.6	-54.1	6.1	0.00e+00	0	36	104	0	60	84946
2026-01-07 09:21:28.31	347.68	32.38	-51.6	-54.1	6.1	0.00e+00	0	36	104	0	60	85126
2026-01-07 09:21:29.32	347.60	32.07	-51.6	-54.1	6.1	0.00e+00	0	37	104	0	60	84496
2026-01-07 09:21:30.33	347.52	31.77	-51.6	-54.1	6.1	0.00e+00	0	36	104	0	60	84900
2026-01-07 09:21:31.34	347.44	31.47	-51.6	-54.2	6.1	0.00e+00	0	37	104	0	60	85301
2026-01-07 09:21:32.36	347.36	31.17	-51.6	-54.1	6.1	0.00e+00	0	36	104	0	60	84735
2026-01-07 09:21:33.37	347.29	30.88	-51.6	-54.2	6.1	0.00e+00	0	36	104	0	60	85226
2026-01-07 09:21:34.38	347.21	30.59	-51.6	-54.1	6.1	0.00e+00	0	36	104	0	60	85030
2026-01-07 09:21:35.39	347.14	30.31	-51.6	-54.1	6.1	0.00e+00	0	37	104	0	60	84682
2026-01-07 09:21:36.40	347.07	30.03	-51.6	-54.1	6.1	0.00e+00	0	37	104	0	60	84847
2026-01-07 09:21:37.41	347.00	29.75	-51.6	-54.1	6.1	0.00e+00	0	37	104	0	60	84523
2026-01-07 09:21:38.42	346.93	29.47	-51.6	-54.1	6.1	0.00e+00	0	36	104	0	60	85152
2026-01-07 09:21:39.43	346.87	29.20	-51.6	-54.2	6.1	0.00e+00	0	36	104	0	60	85526
2026-01-07 09:21:40.44	346.80	28.93	-51.6	-54.1	6.1	0.00e+00	0	37	104	0	60	84583
2026-01-07 09:21:41.45	346.74	28.66	-51.6	-54.1	6.1	0.00e+00	0	37	104	0	60	85055
2026-01-07 09:21:42.47	346.67	28.40	-51.6	-54.1	6.1	0.00e+00	0	37	104	0	60	85188
2026-01-07 09:21:43.48	346.61	28.14	-51.6	-54.1	6.1	0.00e+00	0	37	104	0	60	84679
2026-01-07 09:21:44.49	346.55	27.88	-51.6	-54.1	6.1	0.00e+00	0	36	104	0	60	84892
2026-01-07 09:21:45.50	346.49	27.63	-51.6	-54.1	6.1	0.00e+00	0	36	104	0	60	84710
2026-01-07 09:21:46.51	346.43	27.38	-51.6	-54.1	6.1	0.00e+00	0	36	104	0	60	85047
2026-01-07 09:21:47.52	346.38	27.13	-51.6	-54.2	6.1	0.00e+00	0	36	104	0	60	85297
2026-01-07 09:21:48.53	346.32	26.88	-51.6	-54.1	6.1	0.00e+00	0	36	104	0	60	84917
2026-01-07 09:21:49.54	346.26	26.64	-51.6	-54.1	6.0	0.00e+00	0	37	104	0	60	84520
2026-01-07 09:21:50.56	346.21	26.39	-51.6	-54.1	6.1	0.00e+00	0	37	104	0	60	85008
2026-01-07 09:21:51.57	346.16	26.15	-51.6	-54.1	6.1	0.00e+00	0	37	104	0	60	84663
2026-01-07 09:21:52.58	346.10	25.92	-51.6	-54.1	6.1	0.00e+00	0	37	104	0	60	84643
2026-01-07 09:21:53.59	346.05	25.68	-51.6	-54.1	6.1	0.00e+00	0	37	104	0	60	84760
2026-01-07 09:21:54.60	346.00	25.45	-51.6	-54.1	6.1	0.00e+00	0	37	104	0	60	84664
2026-01-07 09:21:55.61	345.95	25.22	-51.6	-54.1	6.1	0.00e+00	0	37	104	0	60	84732
2026-01-07 09:21:56.62	345.90	25.00	-51.6	-54.1	6.1	0.00e+00	0	37	104	0	60	84846
2026-01-07 09:21:57.63	345.86	24.77	-51.6	-54.1	6.1	0.00e+00	0	37	104	0	60	85131
2026-01-07 09:21:58.64	345.81	24.55	-51.6	-54.1	6.1	0.00e+00	0	37	104	0	60	85103
2026-01-07 09:21:59.65	345.76	24.33	-51.6	-54.2	6.1	0.00e+00	0	37	104	0	60	85402
2026-01-07 09:22:00.66	345.72	24.11	-51.6	-54.1	6.1	0.00e+00	0	37	104	0	60	84721
2026-01-07 09:22:01.68	345.67	23.90	-51.6	-54.1	6.1	0.00e+00	0	36	104	0	60	84942
2026-01-07 09:22:02.69	345.63	23.68	-51.6	-54.1	6.1	0.00e+00	0	37	104	0	60	84849
2026-01-07 09:22:03.70	345.58	23.47	-51.6	-54.1	6.1	0.00e+00	0	37	104	0	60	85071
2026-01-07 09:22:04.71	345.54	23.26	-51.6	-54.1	6.1	0.00e+00	0	37	104	0	60	84697
2026-01-07 09:22:05.72	345.50	23.06	-51.6	-54.1	6.0	0.00e+00	0	36	104	0	60	84988
2026-01-07 09:22:06.73	345.46	22.85	-51.6	-54.1	6.1	0.00e+00	0	37	104	0	60	84800
2026-01-07 09:22:07.74	345.42	22.65	-51.6	-54.1	6.1	0.00e+00	0	37	104	0	60	84718
2026-01-07 09:22:08.75	345.38	22.45	-51.6	-54.1	6.1	0.00e+00	0	37	104	0	60	85031
2026-01-07 09:22:09.76	345.34	22.25	-51.6	-54.1	6.1	0.00e+00	0	36	104	0	60	84855
2026-01-07 09:22:10.77	345.30	22.05	-51.6	-54.1	6.1	0.00e+00	0	36	104	0	60	85079
2026-01-07 09:22:11.78	345.26	21.86	-51.6	-54.1	6.1	0.00e+00	0	36	104	0	60	84935
2026-01-07 09:22:12.80	345.22	21.66	-51.6	-54.1	6.1	0.00e+00	0	36	104	0	60	84916
2026-01-07 09:22:13.81	345.19	21.47	-51.6	-54.1	6.1	0.00e+00	0	36	104	0	60	84776
2026-01-07 09:22:14.82	345.15	21.28	-51.6	-54.1	6.1	0.00e+00	0	37	104	0	60	84920
2026-01-07 09:22:15.83	345.11	21.09	-51.6	-54.1	6.1	0.00e+00	0	37	104	0	60	84854
2026-01-07 09:22:16.84	345.08	20.91	-51.6	-54.1	6.1	0.00e+00	0	36	104	0	60	84758
2026-01-07 09:22:17.85	345.04	20.72	-51.6	-54.1	6.1	0.00e+00	0	36	104	0	60	84767
2026-01-07 09:22:18.86	345.01	20.54	-51.6	-54.1	6.1	0.00e+00	0	36	104	0	60	84824
2026-01-07 09:22:19.87	344.97	20.36	-51.6	-54.1	6.1	0.00e+00	0	37	104	0	60	84629
2026-01-07 09:22:20.88	344.94	20.18	-51.6	-54.1	6.1	0.00e+00	0	37	104	0	60	84885
2026-01-07 09:22:21.89	344.91	20.00	-51.6	-54.1	6.1	0.00e+00	0	37	104	0	60	84999
2026-01-07 09:22:22.91	344.88	19.82	-51.6	-54.1	6.1	0.00e+00	0	37	104	0	60	84837
2026-01-07 09:22:23.92	344.84	19.65	-51.6	-54.1	6.1	0.00e+00	0	37	104	0	60	84981
2026-01-07 09:22:24.93	344.81	19.47	-51.6	-54.1	6.1	0.00e+00	0	37	104	0	60	84638
2026-01-07 09:22:25.94	344.78	19.30	-51.6	-54.1	6.1	0.00e+00	0	37	104	0	60	84748
2026-01-07 09:22:26.95	344.75	19.13	-51.6	-54.1	6.1	0.00e+00	0	36	104	0	60	85037
2026-01-07 09:22:27.96	344.72	18.96	-51.6	-54.1	6.1	0.00e+00	0	36	104	0	60	84578
2026-01-07 09:22:28.97	344.69	18.79	-51.6	-54.1	6.1	0.00e+00	0	36	104	0	60	84910
2026-01-07 09:22:29.98	344.66	18.63	-51.6	-54.1	6.1	0.00e+00	0	37	104	0	60	84564
2026-01-07 09:22:30.99	344.63	18.46	-51.6	-54.1	6.1	0.00e+00	0	37	104	0	60	84651
2026-01-07 09:22:32.00	344.61	18.30	-51.6	-54.1	6.1	0.00e+00	0	37	104	0	60	84942
2026-01-07 09:22:33.02	344.58	18.14	-51.6	-54.1	6.1	0.00e+00	0	37	104	0	60	84715
2026-01-07 09:22:34.03	344.55	17.98	-51.6	-54.1	6.1	0.00e+00	0	36	104	0	60	84423
2026-01-07 09:22:35.04	344.52	17.82	-51.6	-54.2	6.1	0.00e+00	0	36	104	0	60	85238
2026-01-07 09:22:36.05	344.50	17.66	-51.6	-54.1	6.1	0.00e+00	0	37	104	0	60	84645
2026-01-07 09:22:37.06	344.47	17.50	-51.6	-54.1	6.1	0.00e+00	0	37	104	0	60	84706
2026-01-07 09:22:38.07	344.44	17.35	-51.6	-54.1	6.1	0.00e+00	0	37	104	0	60	84796
2026-01-07 09:22:39.08	344.42	17.19	-51.6	-54.1	6.1	0.00e+00	0	37	104	0	60	85224
2026-01-07 09:22:40.09	344.39	17.04	-51.6	-54.1	6.1	0.00e+00	0	37	104	0	60	84702
2026-01-07 09:22:41.10	344.37	16.89	-51.6	-54.1	6.1	0.00e+00	0	37	104	0	60	85040
2026-01-07 09:22:42.12	344.34	16.74	-51.6	-54.2	6.1	0.00e+00	0	37	104	0	60	85304
2026-01-07 09:22:43.13	344.32	16.59	-51.6	-54.1	6.1	0.00e+00	0	37	104	0	60	84458
2026-01-07 09:22:44.14	344.29	16.44	-51.6	-54.1	6.1	0.00e+00	0	37	104	0	60	84885
2026-01-07 09:22:45.15	344.27	16.29	-51.6	-54.1	6.1	0.00e+00	0	37	104	0	60	84635
2026-01-07 09:22:46.16	344.25	16.14	-51.6	-54.1	6.1	0.00e+00	0	37	104	0	60	84450
2026-01-07 09:22:47.17	344.22	16.00	-51.6	-54.1	6.1	0.00e+00	0	37	104	0	60	84433
2026-01-07 09:22:48.18	344.20	15.86	-51.6	-54.1	6.1	0.00e+00	0	37	104	0	60	85166
2026-01-07 09:22:49.19	344.18	15.71	-51.6	-54.1	6.1	0.00e+00	0	37	104	0	60	84602
2026-01-07 09:22:50.20	344.16	15.57	-51.6	-54.1	6.1	0.00e+00	0	37	104	0	60	84624
2026-01-07 09:22:51.21	344.13	15.43	-51.6	-54.1	6.1	0.00e+00	0	37	104	0	60	84664
2026-01-07 09:22:52.23	344.11	15.29	-51.6	-54.1	6.0	0.00e+00	0	37	104	0	60	84772
2026-01-07 09:22:53.24	344.09	15.15	-51.6	-54.1	6.1	0.00e+00	0	37	104	0	60	84986
2026-01-07 09:22:54.25	344.07	15.01	-51.6	-54.1	6.1	0.00e+00	0	37	104	0	60	85044
2026-01-07 09:22:55.26	344.05	14.88	-51.6	-54.1	6.1	0.00e+00	0	37	104	0	60	84901
2026-01-07 09:22:56.27	344.03	14.74	-51.6	-54.1	6.1	0.00e+00	0	37	104	0	60	84676
2026-01-07 09:22:57.28	344.01	14.61	-51.6	-54.1	6.1	0.00e+00	0	37	104	0	60	85122
2026-01-07 09:22:58.30	343.99	14.47	-51.6	-54.1	6.1	0.00e+00	0	37	104	0	60	85057
2026-01-07 09:22:59.30	343.97	14.34	-51.6	-54.1	6.1	0.00e+00	0	36	104	0	60	84996
2026-01-07 09:23:00.31	343.95	14.21	-51.6	-54.1	6.1	0.00e+00	0	37	104	0	60	84724
2026-01-07 09:23:01.32	343.93	14.08	-51.6	-54.1	6.1	0.00e+00	0	37	104	0	60	84938
2026-01-07 09:23:02.34	343.91	13.95	-51.6	-54.1	6.1	0.00e+00	0	37	104	0	60	84881
2026-01-07 09:23:03.35	343.89	13.82	-51.6	-54.1	6.1	0.00e+00	0	37	104	0	60	84672
2026-01-07 09:23:04.36	343.87	13.69	-51.6	-54.1	6.1	0.00e+00	0	37	104	0	60	84936
2026-01-07 09:23:05.37	343.86	13.56	-51.6	-54.1	6.1	0.00e+00	0	37	104	0	60	84906
2026-01-07 09:23:06.38	343.84	13.44	-51.6	-54.1	6.1	0.00e+00	0	37	104	0	60	84786
2026-01-07 09:23:07.39	343.82	13.31	-51.6	-54.1	6.1	0.00e+00	0	37	104	0	60	84788
2026-01-07 09:23:08.40	343.80	13.19	-51.6	-54.1	6.1	0.00e+00	0	37	104	0	60	84444
2026-01-07 09:23:09.42	343.78	13.06	-51.6	-54.2	6.1	0.00e+00	0	37	104	0	60	85279
2026-01-07 09:23:10.43	343.77	12.94	-51.6	-54.1	6.1	0.00e+00	0	37	104	0	60	84527
2026-01-07 09:23:11.44	343.75	12.82	-51.6	-54.1	6.1	0.00e+00	0	37	104	0	60	84826
2026-01-07 09:23:12.45	343.73	12.69	-51.6	-54.1	6.1	0.00e+00	0	37	104	0	60	84797
2026-01-07 09:23:13.46	343.72	12.57	-51.6	-54.1	6.1	0.00e+00	0	37	104	0	60	84945
2026-01-07 09:23:14.47	343.70	12.45	-51.6	-54.1	6.1	0.00e+00	0	37	104	0	60	85155
2026-01-07 09:23:15.48	343.68	12.33	-51.6	-54.1	6.1	0.00e+00	0	37	104	0	60	84778
2026-01-07 09:23:16.49	343.67	12.22	-51.6	-54.1	6.1	0.00e+00	0	37	104	0	60	84713
2026-01-07 09:23:17.50	343.65	12.10	-51.6	-54.0	6.1	0.00e+00	0	37	104	0	60	84107
2026-01-07 09:23:18.51	343.64	11.98	-51.6	-54.1	6.1	0.00e+00	0	37	104	0	60	84576
2026-01-07 09:23:19.52	343.62	11.87	-51.6	-54.1	6.1	0.00e+00	0	37	104	0	60	85052
2026-01-07 09:23:20.53	343.61	11.75	-51.6	-54.1	6.1	0.00e+00	0	37	104	0	60	84355
2026-01-07 09:23:21.54	343.59	11.63	-51.6	-54.1	6.1	0.00e+00	0	37	104	0	60	84970
2026-01-07 09:23:22.56	343.58	11.52	-51.6	-54.1	6.1	0.00e+00	0	37	104	0	60	84661
2026-01-07 09:23:23.57	343.56	11.41	-51.6	-54.1	6.1	0.00e+00	0	37	104	0	60	85100
2026-01-07 09:23:24.58	343.55	11.29	-51.6	-54.1	6.1	0.00e+00	0	37	104	0	60	84948
2026-01-07 09:23:25.59	343.53	11.18	-51.6	-54.2	6.1	0.00e+00	0	37	104	0	60	85312
2026-01-07 09:23:26.60	343.52	11.07	-51.6	-54.1	6.1	0.00e+00	0	37	104	0	60	84790
2026-01-07 09:23:27.61	343.50	10.96	-51.6	-54.1	6.1	0.00e+00	0	37	104	0	60	84692
2026-01-07 09:23:28.62	343.49	10.85	-51.6	-54.1	6.1	0.00e+00	0	37	104	0	60	84813
2026-01-07 09:23:29.63	343.48	10.74	-51.6	-54.1	6.1	0.00e+00	0	37	104	0	60	84944
2026-01-07 09:23:30.64	343.46	10.63	-51.6	-54.1	6.1	0.00e+00	0	37	104	0	60	84927
2026-01-07 09:23:31.65	343.45	10.52	-51.6	-54.1	6.1	0.00e+00	0	37	104	0	60	84692
2026-01-07 09:23:32.66	343.44	10.42	-51.6	-54.1	6.1	0.00e+00	0	37	104	0	60	84768
2026-01-07 09:23:33.67	343.42	10.31	-51.6	-54.1	6.1	0.00e+00	0	37	104	0	60	85173
2026-01-07 09:23:34.68	343.41	10.20	-51.6	-54.1	6.1	0.00e+00	0	37	104	0	60	84667
2026-01-07 09:23:35.69	343.40	10.10	-51.6	-54.1	6.1	0.00e+00	0	37	104	0	60	84837
2026-01-07 09:23:36.71	343.39	9.99	-51.6	-54.1	6.1	0.00e+00	0	37	104	0	60	84717
2026-01-07 09:23:37.72	343.37	9.89	-51.6	-54.1	6.1	0.00e+00	0	37	104	0	60	85196
2026-01-07 09:23:38.73	343.36	9.78	-51.6	-54.1	6.1	0.00e+00	0	37	104	0	60	84867
2026-01-07 09:23:39.74	343.35	9.68	-51.6	-54.1	6.1	0.00e+00	0	37	104	0	60	84741
2026-01-07 09:23:40.75	343.34	9.58	-51.6	-54.1	6.1	0.00e+00	0	37	104	0	60	85021
2026-01-07 09:23:41.76	343.33	9.47	-51.6	-54.1	6.0	0.00e+00	0	37	104	0	60	84747
2026-01-07 09:23:42.77	343.31	9.37	-51.6	-54.1	6.1	0.00e+00	0	37	104	0	60	85158
2026-01-07 09:23:43.78	343.30	9.27	-51.6	-54.1	6.1	0.00e+00	0	37	104	0	60	84795
2026-01-07 09:23:44.79	343.29	9.17	-51.6	-54.1	6.1	0.00e+00	0	37	104	0	60	84787
2026-01-07 09:23:45.80	343.28	9.07	-51.6	-54.1	6.1	0.00e+00	0	37	104	0	60	84686
2026-01-07 09:23:46.82	343.27	8.97	-51.6	-54.1	6.1	0.00e+00	0	36	104	0	60	84545
2026-01-07 09:23:47.83	343.26	8.87	-51.6	-54.1	6.1	0.00e+00	0	37	104	0	60	84749
2026-01-07 09:23:48.84	343.25	8.77	-51.6	-54.1	6.1	0.00e+00	0	37	104	0	60	84665
2026-01-07 09:23:49.85	343.24	8.68	-51.6	-54.1	6.1	0.00e+00	0	37	104	0	60	84468
2026-01-07 09:23:50.86	343.22	8.58	-51.6	-54.1	6.1	0.00e+00	0	37	104	0	60	85112
2026-01-07 09:23:51.87	343.21	8.48	-51.6	-54.1	6.1	0.00e+00	0	37	104	0	60	84533
2026-01-07 09:23:52.88	343.20	8.38	-51.6	-54.1	6.1	0.00e+00	0	37	104	0	60	84444
2026-01-07 09:23:53.89	343.19	8.29	-51.6	-54.1	6.1	0.00e+00	0	37	104	0	60	84615
2026-01-07 09:23:54.90	343.18	8.19	-51.6	-54.1	6.1	0.00e+00	0	37	104	0	60	84670
2026-01-07 09:23:55.91	343.17	8.10	-51.6	-54.1	6.1	0.00e+00	0	37	104	0	60	85033
2026-01-07 09:23:56.92	343.16	8.00	-51.6	-54.1	6.1	0.00e+00	0	37	104	0	60	84732
2026-01-07 09:23:57.93	343.15	7.91	-51.6	-54.0	6.1	0.00e+00	0	37	104	0	60	84192
2026-01-07 09:23:58.95	343.14	7.81	-51.6	-54.1	6.1	0.00e+00	0	37	104	0	60	84480
2026-01-07 09:23:59.95	343.13	7.72	-51.6	-54.1	6.1	0.00e+00	0	37	104	0	60	84626
2026-01-07 09:24:00.97	343.12	7.63	-51.6	-54.1	6.1	0.00e+00	0	37	104	0	60	84725
2026-01-07 09:24:01.98	343.11	7.54	-51.6	-54.1	6.1	0.00e+00	0	37	104	0	60	85003
2026-01-07 09:24:02.99	343.11	7.44	-51.6	-54.1	6.1	0.00e+00	0	37	104	0	60	84606
2026-01-07 09:24:04.00	343.10	7.35	-51.6	-54.1	6.1	0.00e+00	0	37	104	0	60	84559
2026-01-07 09:24:05.01	343.09	7.26	-51.6	-54.1	6.1	0.00e+00	0	37	104	0	60	84928
2026-01-07 09:24:06.02	343.08	7.17	-51.6	-54.1	6.1	0.00e+00	0	37	104	0	60	85131
2026-01-07 09:24:07.03	343.07	7.08	-51.6	-54.1	6.1	0.00e+00	0	37	104	0	60	84404
2026-01-07 09:24:08.04	343.06	6.99	-51.6	-54.1	6.1	0.00e+00	0	37	104	0	60	84912
2026-01-07 09:24:09.05	343.05	6.90	-51.6	-54.1	6.1	0.00e+00	0	37	104	0	60	85167
2026-01-07 09:24:10.06	343.04	6.81	-51.6	-54.1	6.1	0.00e+00	0	37	104	0	60	84454
2026-01-07 09:24:11.07	343.03	6.73	-51.6	-54.1	6.0	0.00e+00	0	37	104	0	60	85094
2026-01-07 09:24:12.08	343.03	6.64	-51.6	-54.1	6.1	0.00e+00	0	37	104	0	60	84863
2026-01-07 09:24:13.10	343.02	6.55	-51.6	-54.1	6.1	0.00e+00	0	37	104	0	60	84948
2026-01-07 09:24:14.11	343.01	6.46	-51.6	-54.1	6.1	0.00e+00	0	37	104	0	60	84490
2026-01-07 09:24:15.12	343.00	6.37	-51.6	-54.1	6.1	0.00e+00	0	37	104	0	60	84881
2026-01-07 09:24:16.45	342.99	6.26	-51.6	-54.1	6.1	0.00e+00	0	37	104	0	60	85061
2026-01-07 09:24:17.17	342.99	6.20	-51.6	-54.1	6.1	0.00e+00	0	37	104	0	60	84967
2026-01-07 09:24:18.47	342.98	6.09	-51.6	-54.1	6.1	0.00e+00	0	37	104	0	60	85045
2026-01-07 09:24:19.19	342.97	6.03	-51.6	-54.0	6.1	0.00e+00	0	37	104	0	60	84111
2026-01-07 09:24:20.49	342.96	5.92	-51.6	-54.1	6.1	0.00e+00	0	37	104	0	60	84451
2026-01-07 09:24:21.21	342.95	5.86	-51.6	-54.1	6.1	0.00e+00	0	37	104	0	60	84847
2026-01-07 09:24:22.51	342.94	5.75	-51.6	-54.1	6.1	0.00e+00	0	37	104	0	60	84584
2026-01-07 09:24:23.23	342.94	5.69	-51.6	-54.1	6.1	0.00e+00	0	37	104	0	60	84506
2026-01-07 09:24:24.53	342.93	5.58	-51.6	-54.1	6.1	0.00e+00	0	37	104	0	60	84783
2026-01-07 09:24:25.25	342.92	5.52	-51.6	-54.1	6.1	0.00e+00	0	37	104	0	60	84562
2026-01-07 09:24:26.55	342.92	5.42	-51.6	-54.1	6.1	0.00e+00	0	36	104	0	60	84879
2026-01-07 09:24:27.27	342.91	5.36	-51.6	-54.1	6.1	0.00e+00	0	37	104	0	60	84489
2026-01-07 09:24:28.57	342.90	5.25	-51.6	-54.1	6.1	0.00e+00	0	37	104	0	60	84558
2026-01-07 09:24:29.30	342.90	5.19	-51.6	-54.1	6.1	0.00e+00	0	37	104	0	60	84588
2026-01-07 09:24:30.60	342.89	5.09	-51.6	-54.1	6.1	0.00e+00	0	37	104	0	60	84492
2026-01-07 09:24:31.32	342.88	5.03	-51.6	-54.1	6.1	0.00e+00	0	36	104	0	60	84637
2026-01-07 09:24:32.62	342.87	4.93	-51.6	-54.1	6.1	0.00e+00	0	37	104	0	60	84821
2026-01-07 09:24:33.34	342.87	4.87	-51.6	-54.1	6.1	0.00e+00	0	37	104	0	60	84391
2026-01-07 09:24:34.64	342.86	4.77	-51.6	-54.1	6.1	0.00e+00	0	37	104	0	60	84748
2026-01-07 09:24:35.36	342.86	4.71	-51.6	-54.1	6.1	0.00e+00	0	37	104	0	60	85014
2026-01-07 09:24:36.66	342.85	4.61	-51.6	-54.1	6.1	0.00e+00	0	37	104	0	60	84481
2026-01-07 09:24:37.38	342.84	4.55	-51.6	-54.1	6.1	0.00e+00	0	37	104	0	60	84778
2026-01-07 09:24:38.68	342.84	4.45	-51.6	-54.1	6.1	0.00e+00	0	37	104	0	60	84936
2026-01-07 09:24:39.41	342.83	4.39	-51.6	-54.1	6.1	0.00e+00	0	37	104	0	60	84758
2026-01-07 09:24:40.71	342.82	4.29	-51.6	-54.1	6.1	0.00e+00	0	37	104	0	60	85013
2026-01-07 09:24:41.43	342.82	4.24	-51.6	-54.1	6.1	0.00e+00	0	37	104	0	60	84721
2026-01-07 09:24:42.73	342.81	4.14	-51.6	-54.1	6.1	0.00e+00	0	37	104	0	60	84742
2026-01-07 09:24:43.45	342.81	4.08	-51.6	-54.1	6.1	0.00e+00	0	37	104	0	60	84407
2026-01-07 09:24:44.75	342.80	3.98	-51.6	-54.1	6.1	0.00e+00	0	37	104	0	60	84826
2026-01-07 09:24:45.47	342.80	3.93	-51.6	-54.1	6.1	0.00e+00	0	37	104	0	60	84608
2026-01-07 09:24:46.77	342.79	3.83	-51.6	-54.1	6.1	0.00e+00	0	37	104	0	60	84447
2026-01-07 09:24:47.50	342.78	3.77	-51.6	-54.1	6.1	0.00e+00	0	37	104	0	60	84733
2026-01-07 09:24:48.80	342.78	3.68	-51.6	-54.1	6.1	0.00e+00	0	37	104	0	60	84527
2026-01-07 09:24:49.52	342.77	3.62	-51.6	-54.1	6.1	0.00e+00	0	37	104	0	60	84750
2026-01-07 09:24:50.82	342.77	3.52	-51.6	-54.1	6.1	0.00e+00	0	37	104	0	60	84814
2026-01-07 09:24:51.54	342.76	3.47	-51.6	-54.1	6.1	0.00e+00	0	37	104	0	60	84941
2026-01-07 09:24:52.84	342.76	3.37	-51.6	-54.1	6.1	0.00e+00	0	37	104	0	60	84651
2026-01-07 09:24:53.56	342.75	3.32	-51.6	-54.2	6.1	0.00e+00	0	37	104	0	60	85227
2026-01-07 09:24:54.86	342.75	3.23	-51.6	-54.1	6.1	0.00e+00	0	37	104	0	60	84654
2026-01-07 09:24:55.58	342.74	3.17	-51.6	-54.1	6.1	0.00e+00	0	37	104	0	60	84598
2026-01-07 09:24:56.88	342.74	3.08	-51.6	-54.1	6.1	0.00e+00	0	37	104	0	60	84584
2026-01-07 09:24:57.61	342.73	3.02	-51.6	-54.1	6.1	0.00e+00	0	37	104	0	60	84708
2026-01-07 09:24:58.91	342.73	2.93	-51.6	-54.1	6.1	0.00e+00	0	37	104	0	60	84713
2026-01-07 09:24:59.63	342.72	2.88	-51.6	-54.1	6.1	0.00e+00	0	37	104	0	60	84891
2026-01-07 09:25:00.93	342.72	2.78	-51.6	-54.1	6.1	0.00e+00	0	37	104	0	60	85034
2026-01-07 09:25:01.65	342.71	2.73	-51.6	-54.1	6.1	0.00e+00	0	37	104	0	60	84924
2026-01-07 09:25:02.95	342.71	2.64	-51.6	-54.1	6.1	0.00e+00	0	37	104	0	60	84951
2026-01-07 09:25:03.67	342.70	2.59	-51.6	-54.1	6.1	0.00e+00	0	37	104	0	60	84728
2026-01-07 09:25:04.97	342.70	2.50	-51.6	-54.1	6.1	0.00e+00	0	37	104	0	60	84879
2026-01-07 09:25:05.69	342.69	2.44	-51.6	-54.1	6.1	0.00e+00	0	37	104	0	60	84400
2026-01-07 09:25:06.99	342.69	2.35	-51.6	-54.1	6.1	0.00e+00	0	37	104	0	60	84846
2026-01-07 09:25:07.72	342.69	2.30	-51.6	-54.1	6.1	0.00e+00	0	37	104	0	60	84835
2026-01-07 09:25:09.02	342.68	2.21	-51.6	-54.1	6.1	0.00e+00	0	37	104	0	60	84659
2026-01-07 09:25:09.74	342.68	2.16	-51.6	-54.1	6.1	0.00e+00	0	37	104	0	60	84485
2026-01-07 09:25:11.04	342.67	2.07	-51.6	-54.1	6.0	0.00e+00	0	37	104	0	60	84534
2026-01-07 09:25:11.76	342.67	2.02	-51.6	-54.1	6.1	0.00e+00	0	37	104	0	60	84588
2026-01-07 09:25:13.06	342.66	1.93	-51.6	-54.1	6.1	0.00e+00	0	37	104	0	60	84589
2026-01-07 09:25:13.78	342.66	1.88	-51.6	-54.1	6.1	0.00e+00	0	37	104	0	60	85154
2026-01-07 09:25:15.08	342.65	1.79	-51.6	-54.1	6.1	0.00e+00	0	37	104	0	60	84767
2026-01-07 09:25:15.80	342.65	1.74	-51.6	-54.1	6.1	0.00e+00	0	37	104	0	60	84773
2026-01-07 09:25:17.10	342.65	1.65	-51.6	-54.1	6.1	0.00e+00	0	37	104	0	60	84849
2026-01-07 09:25:17.83	342.64	1.60	-51.6	-54.1	6.1	0.00e+00	0	37	104	0	60	84605
2026-01-07 09:25:19.13	342.64	1.51	-51.6	-54.1	6.1	0.00e+00	0	37	104	0	60	84915
2026-01-07 09:25:19.85	342.64	1.46	-51.6	-54.1	6.1	0.00e+00	0	37	104	0	60	84653
2026-01-07 09:25:21.14	342.63	1.38	-51.6	-54.1	6.1	0.00e+00	0	37	104	0	60	84835
2026-01-07 09:25:21.87	342.63	1.33	-51.6	-54.1	6.1	0.00e+00	0	37	104	0	60	84688
2026-01-07 09:25:23.17	342.62	1.24	-51.6	-54.1	6.1	0.00e+00	0	37	104	0	60	84297
2026-01-07 09:25:23.89	342.62	1.19	-51.6	-54.1	6.1	0.00e+00	0	37	104	0	60	84888
2026-01-07 09:25:25.19	342.62	1.11	-51.6	-54.1	6.1	0.00e+00	0	37	104	0	60	84778
2026-01-07 09:25:25.91	342.61	1.06	-51.6	-54.1	6.1	0.00e+00	0	37	104	0	60	84508
2026-01-07 09:25:27.21	342.61	0.97	-51.6	-54.1	6.1	0.00e+00	0	37	104	0	60	84705
2026-01-07 09:25:27.94	342.61	0.92	-51.6	-54.1	6.1	0.00e+00	0	37	104	0	60	84849
2026-01-07 09:25:29.24	342.60	0.84	-51.6	-54.1	6.1	0.00e+00	0	37	104	0	60	84548
2026-01-07 09:25:29.96	342.60	0.79	-51.6	-54.1	6.1	0.00e+00	0	37	104	0	60	84798
2026-01-07 09:25:31.26	342.60	0.70	-51.6	-54.1	6.1	0.00e+00	0	36	104	0	60	84590
2026-01-07 09:25:31.98	342.59	0.66	-51.6	-54.1	6.1	0.00e+00	0	37	104	0	60	84577
2026-01-07 09:25:33.28	342.59	0.57	-51.6	-54.1	6.1	0.00e+00	0	37	104	0	60	84662
2026-01-07 09:25:34.00	342.59	0.53	-51.6	-54.1	6.1	0.00e+00	0	37	104	0	60	84852
2026-01-07 09:25:35.30	342.58	0.44	-51.6	-54.1	6.1	0.00e+00	0	37	104	0	60	84877
2026-01-07 09:25:36.02	342.58	0.40	-51.6	-54.1	6.1	0.00e+00	0	36	104	0	60	84911
2026-01-07 09:25:37.32	342.58	0.31	-51.6	-54.1	6.1	0.00e+00	0	37	104	0	60	84839
2026-01-07 09:25:38.05	342.58	0.26	-51.6	-54.1	6.1	0.00e+00	0	37	104	0	60	84591
2026-01-07 09:25:39.35	342.57	0.18	-51.6	-54.1	6.1	0.00e+00	0	37	104	0	60	84724
2026-01-07 09:25:40.07	342.57	0.13	-51.6	-54.1	6.1	0.00e+00	0	37	104	0	60	84343
2026-01-07 09:25:41.37	342.57	0.05	-51.6	-54.1	6.1	0.00e+00	0	37	104	0	60	85005
2026-01-07 09:25:42.09	342.56	0.01	-51.6	-54.1	6.1	0.00e+00	0	37	104	0	60	85102
2026-01-07 09:25:43.39	342.56	-0.08	-51.6	-54.1	6.1	0.00e+00	0	37	104	0	60	85112
2026-01-07 09:25:44.11	342.56	-0.12	-51.6	-54.1	6.1	0.00e+00	0	37	104	0	60	84758

#Closed at: 2026-01-07 09:25:45
#Recorded file [0 MB]: D:/lorett/data/35034_260107_121434.dat