passes_logs/2026/01/07/R4.6S_Anadyr_2ch/R4.6S_Anadyr_2ch__20260107_024902_FENGYUN_3D_rec.log

#Pass ID: 20260107_024902_FENGYUN 3D
#Satellite: FENGYUN 3D
#Configuration: FENGYUN 3D
#almurnet v.1.7.20251203
#Start time: 2026-01-07 02:49:05

#Version: 2.2.20231116
#Station: R4.6S_Anadyr_2ch
#Location: 177.4865 lon 64.73178 lat
#TLE: 1 43010U 17072A   25350.96693137  .00000321  00000+0  17364-3 0  9993
#TLE: 2 43010  98.9888 317.3403 0001146 169.6565 190.4634 14.19686173419132

#Time	Az	El	Level	Level2	SNR	BER	BlckErr	Temp	State	Recorded	gain1	gain2
2026-01-07 02:49:05.20	170.56	0.14	-51.2	-66.3	3.5	1.51e+00	0	29	0	0	60	100553
2026-01-07 02:49:06.20	170.58	0.20	-51.1	-63.5	3.6	8.45e-01	0	30	104	0	60	73152
2026-01-07 02:49:07.21	170.60	0.26	-51.1	-63.4	3.6	8.45e-01	0	30	104	0	60	72273
2026-01-07 02:49:08.22	170.62	0.32	-51.1	-63.4	3.6	8.45e-01	0	30	104	0	60	72453
2026-01-07 02:49:09.22	170.65	0.38	-51.1	-63.5	3.6	8.45e-01	0	30	104	0	60	72615
2026-01-07 02:49:10.24	170.67	0.44	-51.1	-63.5	3.6	8.46e-01	0	30	104	0	60	72798
2026-01-07 02:49:11.24	170.69	0.50	-51.1	-63.5	3.6	8.44e-01	0	30	104	0	60	72782
2026-01-07 02:49:12.25	170.71	0.56	-51.2	-63.5	3.6	8.45e-01	0	30	104	0	60	73023
2026-01-07 02:49:13.26	170.73	0.62	-51.2	-63.6	3.6	8.47e-01	0	31	104	0	60	73505
2026-01-07 02:49:14.26	170.75	0.68	-51.3	-63.6	3.6	8.46e-01	0	30	104	0	60	73962
2026-01-07 02:49:15.27	170.78	0.74	-51.3	-63.6	3.6	8.45e-01	0	31	104	0	60	73985
2026-01-07 02:49:16.28	170.80	0.80	-51.3	-63.7	3.6	8.45e-01	0	31	104	0	60	74356
2026-01-07 02:49:17.28	170.82	0.87	-51.3	-63.7	3.6	8.45e-01	0	30	104	0	60	74532
2026-01-07 02:49:18.29	170.84	0.93	-51.4	-63.8	3.6	8.46e-01	0	31	104	0	60	75244
2026-01-07 02:49:19.29	170.86	0.99	-51.4	-63.7	3.6	8.46e-01	0	31	104	0	60	75064
2026-01-07 02:49:20.30	170.89	1.05	-51.4	-63.8	3.6	8.45e-01	0	31	104	0	60	75204
2026-01-07 02:49:21.31	170.91	1.11	-51.3	-63.7	3.6	8.45e-01	0	31	104	0	60	74815
2026-01-07 02:49:22.31	170.93	1.17	-51.3	-63.7	3.6	8.45e-01	0	31	104	0	60	74386
2026-01-07 02:49:23.32	170.95	1.24	-51.3	-63.6	3.6	8.46e-01	0	31	104	0	60	73963
2026-01-07 02:49:24.33	170.98	1.30	-51.2	-63.5	3.6	8.45e-01	0	31	104	0	60	73255
2026-01-07 02:49:25.34	171.00	1.36	-51.1	-63.4	3.6	8.45e-01	0	31	104	0	60	72256
2026-01-07 02:49:26.34	171.02	1.42	-51.0	-63.3	3.6	8.46e-01	0	31	104	0	60	71518
2026-01-07 02:49:27.35	171.04	1.49	-50.8	-63.1	3.6	8.46e-01	0	31	104	0	60	69655
2026-01-07 02:49:28.35	171.07	1.55	-50.5	-62.8	3.6	8.46e-01	0	31	104	0	60	67672
2026-01-07 02:49:29.36	171.09	1.61	-50.0	-62.2	3.6	8.46e-01	0	31	104	0	60	63142
2026-01-07 02:49:30.37	171.11	1.67	-49.9	-62.1	3.6	8.46e-01	0	31	104	0	60	62242
2026-01-07 02:49:31.37	171.14	1.74	-49.9	-62.2	3.6	8.44e-01	0	31	104	0	60	63002
2026-01-07 02:49:32.38	171.16	1.80	-49.9	-62.2	3.6	8.45e-01	0	31	104	0	60	63077
2026-01-07 02:49:33.39	171.18	1.86	-50.0	-62.2	3.6	8.45e-01	0	31	104	0	60	63123
2026-01-07 02:49:34.40	171.21	1.93	-49.9	-62.3	3.6	8.45e-01	0	31	104	0	60	63209
2026-01-07 02:49:35.40	171.23	1.99	-49.9	-62.2	3.6	8.44e-01	0	31	104	0	60	62487
2026-01-07 02:49:36.41	171.25	2.06	-49.9	-62.0	3.6	8.46e-01	0	31	104	0	60	61487
2026-01-07 02:49:37.42	171.28	2.12	-49.9	-61.9	3.6	8.45e-01	0	31	104	0	60	60365
2026-01-07 02:49:38.42	171.30	2.18	-49.9	-61.8	3.6	8.45e-01	0	31	104	0	60	59895
2026-01-07 02:49:39.43	171.32	2.25	-49.9	-61.8	3.6	8.47e-01	0	31	104	0	60	59832
2026-01-07 02:49:40.44	171.35	2.31	-49.9	-61.7	3.6	8.45e-01	0	31	104	0	60	59536
2026-01-07 02:49:41.44	171.37	2.38	-49.9	-62.0	3.6	8.46e-01	0	31	104	0	60	61237
2026-01-07 02:49:42.45	171.40	2.44	-49.9	-62.1	3.6	8.45e-01	0	31	104	0	60	61877
2026-01-07 02:49:43.46	171.42	2.51	-49.9	-62.3	3.6	8.45e-01	0	31	104	0	60	63306
2026-01-07 02:49:44.47	171.45	2.57	-49.9	-62.2	3.6	8.45e-01	0	31	104	0	60	63137
2026-01-07 02:49:45.48	171.47	2.64	-49.9	-62.2	3.6	8.46e-01	0	31	104	0	60	63047
2026-01-07 02:49:46.49	171.49	2.70	-49.9	-62.1	3.6	8.45e-01	0	31	104	0	60	62088
2026-01-07 02:49:47.49	171.52	2.77	-49.9	-61.9	3.6	8.46e-01	0	31	104	0	60	60719
2026-01-07 02:49:48.50	171.54	2.83	-49.9	-61.7	3.6	8.45e-01	0	31	104	0	60	59362
2026-01-07 02:49:49.51	171.57	2.90	-49.8	-61.4	3.6	8.45e-01	0	31	104	0	60	57021
2026-01-07 02:49:50.51	171.59	2.96	-49.8	-60.7	3.6	8.45e-01	0	31	104	0	60	52879
2026-01-07 02:49:51.52	171.62	3.03	-49.7	-60.3	3.6	8.45e-01	0	31	104	0	60	50200
2026-01-07 02:49:52.53	171.64	3.10	-49.7	-60.1	3.6	8.45e-01	0	31	104	0	60	49234
2026-01-07 02:49:53.54	171.67	3.16	-49.7	-60.1	3.7	8.43e-01	0	31	104	0	60	49607
2026-01-07 02:49:54.54	171.69	3.23	-49.8	-60.9	3.6	8.45e-01	0	31	104	0	60	54049
2026-01-07 02:49:55.55	171.72	3.30	-49.9	-61.9	3.6	8.46e-01	0	31	104	0	60	61006
2026-01-07 02:49:56.56	171.74	3.36	-49.9	-61.8	3.6	8.45e-01	0	31	104	0	60	60075
2026-01-07 02:49:57.57	171.77	3.43	-49.5	-58.2	3.8	8.43e-01	0	31	104	0	60	39732
2026-01-07 02:49:58.57	171.80	3.50	-48.5	-53.4	7.3	2.26e-01	0	31	0	0	60	22718
2026-01-07 02:49:59.58	171.82	3.57	-47.2	-50.3	10.6	1.38e-02	0	31	102	1048576	60	15952
2026-01-07 02:50:00.58	171.85	3.63	-45.4	-47.5	13.7	2.60e-04	0	31	102	1048576	60	11535
2026-01-07 02:50:01.59	171.87	3.70	-44.0	-45.6	15.8	0.00e+00	0	31	102	1048576	60	9279
2026-01-07 02:50:02.59	171.90	3.77	-42.4	-43.7	17.6	0.00e+00	0	31	102	1048576	60	7464
2026-01-07 02:50:03.60	171.93	3.84	-41.5	-42.6	18.7	0.00e+00	0	31	102	1048576	60	6571
2026-01-07 02:50:04.61	171.95	3.90	-40.6	-41.6	19.7	0.00e+00	0	31	102	1048576	60	5858
2026-01-07 02:50:05.61	171.98	3.97	-40.2	-41.2	20.1	0.00e+00	0	31	102	1048576	60	5612
2026-01-07 02:50:06.62	172.01	4.04	-40.0	-41.0	20.3	0.00e+00	0	31	102	1048576	58	6127
2026-01-07 02:50:07.62	172.03	4.11	-40.1	-41.0	20.2	0.00e+00	0	31	102	1048576	58	6155
2026-01-07 02:50:08.63	172.06	4.18	-40.5	-41.5	19.7	0.00e+00	0	31	102	1048576	58	6498
2026-01-07 02:50:09.64	172.09	4.25	-42.9	-44.2	16.8	0.00e+00	0	31	102	1048576	60	7916
2026-01-07 02:50:10.64	172.11	4.32	-39.5	-40.4	20.6	0.00e+00	0	31	102	1048576	56	6459
2026-01-07 02:50:11.65	172.14	4.39	-43.6	-45.2	15.0	0.00e+00	0	31	102	1048576	58	10008
2026-01-07 02:50:12.66	172.17	4.46	-44.7	-46.4	14.7	9.35e-03	0	31	102	1048576	60	10207
2026-01-07 02:50:13.67	172.19	4.53	-45.4	-47.6	10.5	0.00e+00	0	31	102	1048576	60	11641
2026-01-07 02:50:14.68	172.22	4.60	-41.5	-42.6	18.3	4.79e-01	0	31	104	1048576	60	6567
2026-01-07 02:50:15.68	172.25	4.67	-39.7	-40.7	21.2	0.00e+00	0	31	0	1048576	58	5906
2026-01-07 02:50:16.69	172.28	4.74	-39.1	-40.0	21.1	0.00e+00	0	31	0	1048576	58	5445
2026-01-07 02:50:17.70	172.30	4.81	-39.1	-39.9	21.5	0.00e+00	0	31	0	1048576	56	6095
2026-01-07 02:50:18.71	172.33	4.88	-38.9	-39.7	21.6	0.00e+00	0	31	0	1048576	56	5947
2026-01-07 02:50:19.71	172.36	4.95	-38.4	-39.2	22.1	0.00e+00	0	31	0	1048576	56	5590
2026-01-07 02:50:20.72	172.39	5.02	-38.0	-38.8	22.6	0.00e+00	0	31	0	1048576	54	6025
2026-01-07 02:50:21.73	172.42	5.09	-37.9	-38.7	22.5	0.00e+00	0	31	101	1048576	54	5920
2026-01-07 02:50:22.74	172.45	5.16	-37.7	-38.5	22.7	0.00e+00	0	31	101	1048576	54	5784
2026-01-07 02:50:23.75	172.47	5.23	-37.7	-38.5	22.8	0.00e+00	0	31	101	1048576	54	5794
2026-01-07 02:50:24.76	172.50	5.31	-37.7	-38.5	22.8	0.00e+00	0	31	101	1048576	54	5791
2026-01-07 02:50:25.77	172.53	5.38	-37.6	-38.4	22.9	0.00e+00	0	31	101	1048576	54	5723
2026-01-07 02:50:26.77	172.56	5.45	-37.8	-38.5	22.8	0.00e+00	0	31	101	1048576	54	5822
2026-01-07 02:50:27.77	172.59	5.52	-37.5	-38.3	23.0	0.00e+00	0	31	101	1048576	54	5661
2026-01-07 02:50:28.78	172.62	5.59	-37.5	-38.3	23.1	0.00e+00	0	31	101	1048576	54	5647
2026-01-07 02:50:29.79	172.65	5.67	-37.5	-38.3	23.0	0.00e+00	0	31	101	1048576	54	5650
2026-01-07 02:50:30.79	172.68	5.74	-37.5	-38.3	23.0	0.00e+00	0	31	101	1048576	54	5635
2026-01-07 02:50:31.80	172.71	5.81	-37.5	-38.3	23.0	0.00e+00	0	31	101	1048576	54	5655
2026-01-07 02:50:32.81	172.74	5.89	-37.5	-38.3	23.0	0.00e+00	0	31	101	1048576	54	5667
2026-01-07 02:50:33.82	172.77	5.96	-37.5	-38.3	23.1	0.00e+00	0	31	101	1048576	54	5680
2026-01-07 02:50:34.82	172.80	6.03	-37.3	-38.0	23.3	0.00e+00	0	31	101	1048576	54	5483
2026-01-07 02:50:35.83	172.83	6.11	-37.3	-38.0	23.3	0.00e+00	0	31	101	1048576	54	5488
2026-01-07 02:50:36.84	172.86	6.18	-37.4	-38.2	23.1	0.00e+00	0	31	101	1048576	54	5598
2026-01-07 02:50:37.84	172.89	6.25	-37.3	-38.0	23.4	0.00e+00	0	31	101	1048576	54	5487
2026-01-07 02:50:38.85	172.92	6.33	-37.0	-37.8	23.6	0.00e+00	0	31	101	1048576	52	5978
2026-01-07 02:50:39.86	172.95	6.40	-37.3	-38.0	23.5	0.00e+00	0	31	101	1048576	52	6155
2026-01-07 02:50:40.86	172.98	6.48	-37.0	-37.8	23.6	0.00e+00	0	31	101	1048576	52	5976
2026-01-07 02:50:41.87	173.01	6.55	-37.2	-38.0	23.5	0.00e+00	0	31	101	1048576	52	6116
2026-01-07 02:50:42.88	173.04	6.63	-37.0	-37.8	23.7	0.00e+00	0	31	101	1048576	52	5978
2026-01-07 02:50:43.89	173.07	6.71	-37.0	-37.7	23.7	0.00e+00	0	31	101	1048576	52	5932
2026-01-07 02:50:44.89	173.10	6.78	-37.0	-37.8	23.7	0.00e+00	0	31	101	1048576	52	5965
2026-01-07 02:50:45.90	173.13	6.86	-37.0	-37.7	23.7	0.00e+00	0	31	101	1048576	52	5954
2026-01-07 02:50:46.91	173.17	6.93	-37.1	-37.8	23.6	0.00e+00	0	31	101	1048576	52	6004
2026-01-07 02:50:47.91	173.20	7.01	-37.1	-37.8	23.6	0.00e+00	0	31	101	1048576	52	5997
2026-01-07 02:50:48.92	173.23	7.09	-37.1	-37.8	23.8	0.00e+00	0	31	101	1048576	52	5987
2026-01-07 02:50:49.92	173.26	7.16	-36.7	-37.4	24.0	0.00e+00	0	31	101	1048576	52	5739
2026-01-07 02:50:50.93	173.29	7.24	-36.7	-37.4	24.0	0.00e+00	0	31	101	1048576	52	5721
2026-01-07 02:50:51.94	173.33	7.32	-36.7	-37.4	24.1	0.00e+00	0	31	101	1048576	52	5713
2026-01-07 02:50:52.94	173.36	7.39	-36.7	-37.4	24.0	0.00e+00	0	31	101	1048576	52	5711
2026-01-07 02:50:53.95	173.39	7.47	-36.6	-37.3	24.2	0.00e+00	0	31	101	1048576	52	5637
2026-01-07 02:50:54.96	173.42	7.55	-36.6	-37.3	24.1	0.00e+00	0	31	101	1048576	52	5682
2026-01-07 02:50:55.97	173.46	7.63	-36.5	-37.2	24.2	0.00e+00	0	31	101	1048576	52	5579
2026-01-07 02:50:56.98	173.49	7.71	-36.7	-37.4	24.0	0.00e+00	0	31	101	1048576	52	5717
2026-01-07 02:50:57.99	173.52	7.79	-36.5	-37.2	24.2	0.00e+00	0	31	101	1048576	52	5625
2026-01-07 02:50:59.00	173.56	7.87	-36.5	-37.2	24.3	0.00e+00	0	31	101	1048576	52	5602
2026-01-07 02:51:00.01	173.59	7.95	-36.4	-37.1	24.4	0.00e+00	0	31	101	1048576	52	5548
2026-01-07 02:51:01.02	173.63	8.03	-36.5	-37.2	24.3	0.00e+00	0	31	101	1048576	52	5585
2026-01-07 02:51:02.03	173.66	8.11	-36.6	-37.3	24.2	0.00e+00	0	31	101	1048576	52	5661
2026-01-07 02:51:03.04	173.69	8.19	-36.6	-37.4	24.2	0.00e+00	0	31	101	1048576	52	5700
2026-01-07 02:51:04.05	173.73	8.27	-36.3	-37.1	24.4	0.00e+00	0	31	101	1048576	52	5505
2026-01-07 02:51:05.06	173.76	8.35	-36.3	-37.0	24.5	0.00e+00	0	31	101	1048576	52	5475
2026-01-07 02:51:06.07	173.80	8.43	-36.4	-37.2	24.3	0.00e+00	0	31	101	1048576	52	5576
2026-01-07 02:51:07.08	173.83	8.51	-36.2	-36.9	24.6	0.00e+00	0	31	101	1048576	52	5409
2026-01-07 02:51:08.09	173.87	8.59	-36.2	-36.9	24.6	0.00e+00	0	31	101	1048576	52	5430
2026-01-07 02:51:09.10	173.90	8.67	-36.2	-36.8	24.7	0.00e+00	0	31	101	1048576	52	5374
2026-01-07 02:51:10.11	173.94	8.75	-36.2	-36.9	24.6	0.00e+00	0	31	101	1048576	50	6035
2026-01-07 02:51:11.12	173.97	8.84	-36.1	-36.8	24.7	0.00e+00	0	31	101	1048576	50	5992
2026-01-07 02:51:12.13	174.01	8.92	-36.2	-36.9	24.6	0.00e+00	0	31	101	1048576	50	6040
2026-01-07 02:51:13.14	174.05	9.00	-36.1	-36.8	24.7	0.00e+00	0	31	101	1048576	50	5966
2026-01-07 02:51:14.15	174.08	9.08	-36.1	-36.8	24.7	0.00e+00	0	31	101	1048576	50	5987
2026-01-07 02:51:15.16	174.12	9.17	-36.1	-36.8	24.6	0.00e+00	0	31	101	1048576	50	6002
2026-01-07 02:51:16.17	174.16	9.25	-36.0	-36.7	24.8	0.00e+00	0	31	101	1048576	50	5950
2026-01-07 02:51:17.18	174.19	9.34	-36.1	-36.8	24.6	0.00e+00	0	31	101	1048576	50	5985
2026-01-07 02:51:18.19	174.23	9.42	-36.1	-36.7	24.7	0.00e+00	0	31	101	1048576	50	5964
2026-01-07 02:51:19.20	174.27	9.50	-36.1	-36.8	24.7	0.00e+00	0	31	101	1048576	50	6019
2026-01-07 02:51:20.22	174.30	9.59	-36.0	-36.7	24.8	0.00e+00	0	31	101	1048576	50	5942
2026-01-07 02:51:21.23	174.34	9.67	-36.2	-36.9	24.7	0.00e+00	0	31	101	1048576	50	6049
2026-01-07 02:51:22.24	174.38	9.76	-36.0	-36.7	24.8	0.00e+00	0	31	101	1048576	50	5925
2026-01-07 02:51:23.25	174.42	9.85	-36.0	-36.7	24.8	0.00e+00	0	31	101	1048576	50	5963
2026-01-07 02:51:24.26	174.46	9.93	-36.1	-36.8	24.7	0.00e+00	0	31	101	1048576	50	5989
2026-01-07 02:51:25.27	174.49	10.02	-36.0	-36.7	24.8	0.00e+00	0	31	101	1048576	50	5949
2026-01-07 02:51:26.28	174.53	10.10	-36.2	-36.9	24.8	0.00e+00	0	31	101	1048576	50	6039
2026-01-07 02:51:27.29	174.57	10.19	-36.1	-36.8	24.8	0.00e+00	0	31	101	1048576	50	5999
2026-01-07 02:51:28.30	174.61	10.28	-36.1	-36.8	24.8	0.00e+00	0	31	101	1048576	50	6032
2026-01-07 02:51:29.31	174.65	10.36	-36.1	-36.7	24.8	0.00e+00	0	31	101	1048576	50	5959
2026-01-07 02:51:30.32	174.69	10.45	-36.2	-36.9	24.8	0.00e+00	0	31	101	1048576	50	6090
2026-01-07 02:51:31.33	174.73	10.54	-36.0	-36.7	24.9	0.00e+00	0	31	101	1048576	50	5954
2026-01-07 02:51:32.34	174.77	10.63	-36.2	-36.9	24.6	0.00e+00	0	31	101	1048576	50	6056
2026-01-07 02:51:33.35	174.81	10.72	-36.2	-36.9	24.7	0.00e+00	0	31	101	1048576	50	6045
2026-01-07 02:51:34.37	174.85	10.81	-36.0	-36.7	24.9	0.00e+00	0	31	101	1048576	50	5963
2026-01-07 02:51:35.38	174.89	10.90	-36.2	-36.9	24.7	0.00e+00	0	31	101	1048576	50	6064
2026-01-07 02:51:36.39	174.93	10.99	-36.1	-36.7	24.8	0.00e+00	0	31	101	1048576	50	5962
2026-01-07 02:51:37.40	174.97	11.07	-36.1	-36.8	24.7	0.00e+00	0	31	101	1048576	50	5987
2026-01-07 02:51:38.41	175.01	11.16	-36.2	-36.9	24.8	0.00e+00	0	31	101	1048576	50	6076
2026-01-07 02:51:39.42	175.05	11.26	-36.0	-36.8	24.8	0.00e+00	0	31	101	1048576	50	5965
2026-01-07 02:51:40.43	175.10	11.35	-36.1	-36.8	24.8	0.00e+00	0	31	101	1048576	50	6000
2026-01-07 02:51:41.44	175.14	11.44	-36.0	-36.8	24.9	0.00e+00	0	31	101	1048576	50	5966
2026-01-07 02:51:42.45	175.18	11.53	-36.0	-36.7	24.9	0.00e+00	0	31	101	1048576	50	5952
2026-01-07 02:51:43.46	175.22	11.62	-36.0	-36.7	24.9	0.00e+00	0	31	101	1048576	50	5923
2026-01-07 02:51:44.47	175.26	11.71	-36.0	-36.7	24.9	0.00e+00	0	31	101	1048576	50	5959
2026-01-07 02:51:45.48	175.31	11.80	-35.9	-36.6	25.1	0.00e+00	0	31	101	1048576	50	5843
2026-01-07 02:51:46.49	175.35	11.90	-36.0	-36.7	24.9	0.00e+00	0	31	101	1048576	50	5911
2026-01-07 02:51:47.50	175.39	11.99	-35.8	-36.5	25.1	0.00e+00	0	31	101	1048576	50	5786
2026-01-07 02:51:48.51	175.44	12.08	-35.9	-36.6	25.1	0.00e+00	0	32	101	1048576	50	5831
2026-01-07 02:51:49.52	175.48	12.18	-35.8	-36.5	25.1	0.00e+00	0	31	101	1048576	50	5790
2026-01-07 02:51:50.54	175.53	12.27	-35.9	-36.5	25.1	0.00e+00	0	31	101	1048576	50	5825
2026-01-07 02:51:51.55	175.57	12.37	-35.8	-36.5	25.2	0.00e+00	0	31	101	1048576	50	5809
2026-01-07 02:51:52.56	175.62	12.46	-35.7	-36.4	25.3	0.00e+00	0	31	101	1048576	50	5699
2026-01-07 02:51:53.57	175.66	12.56	-35.7	-36.4	25.3	0.00e+00	0	31	101	1048576	50	5717
2026-01-07 02:51:54.58	175.71	12.65	-35.7	-36.4	25.3	0.00e+00	0	31	101	1048576	50	5731
2026-01-07 02:51:55.59	175.75	12.75	-35.6	-36.3	25.4	0.00e+00	0	31	101	1048576	50	5666
2026-01-07 02:51:56.60	175.80	12.84	-35.6	-36.2	25.4	0.00e+00	0	31	101	1048576	50	5630
2026-01-07 02:51:57.62	175.84	12.94	-35.7	-36.3	25.3	0.00e+00	0	31	101	1048576	50	5692
2026-01-07 02:51:58.63	175.89	13.04	-35.7	-36.3	25.2	0.00e+00	0	31	101	1048576	50	5688
2026-01-07 02:51:59.64	175.94	13.14	-35.8	-36.5	25.2	0.00e+00	0	31	101	1048576	50	5762
2026-01-07 02:52:00.65	175.98	13.23	-35.5	-36.2	25.5	0.00e+00	0	31	101	1048576	50	5602
2026-01-07 02:52:01.66	176.03	13.33	-35.6	-36.3	25.4	0.00e+00	0	31	101	1048576	50	5655
2026-01-07 02:52:02.67	176.08	13.43	-35.7	-36.4	25.3	0.00e+00	0	31	101	1048576	50	5711
2026-01-07 02:52:03.68	176.13	13.53	-35.5	-36.2	25.5	0.00e+00	0	31	101	1048576	50	5570
2026-01-07 02:52:04.69	176.17	13.63	-35.6	-36.3	25.3	0.00e+00	0	31	101	1048576	50	5677
2026-01-07 02:52:05.70	176.22	13.73	-35.5	-36.2	25.5	0.00e+00	0	31	101	1048576	50	5597
2026-01-07 02:52:06.71	176.27	13.83	-35.5	-36.2	25.5	0.00e+00	0	31	101	1048576	50	5600
2026-01-07 02:52:07.72	176.32	13.93	-35.4	-36.1	25.6	0.00e+00	0	31	101	1048576	50	5536
2026-01-07 02:52:08.73	176.37	14.03	-35.5	-36.2	25.6	0.00e+00	0	31	101	1048576	50	5590
2026-01-07 02:52:09.74	176.42	14.13	-35.4	-36.1	25.5	0.00e+00	0	31	101	1048576	50	5539
2026-01-07 02:52:10.75	176.47	14.23	-35.4	-36.1	25.6	0.00e+00	0	31	101	1048576	50	5521
2026-01-07 02:52:11.76	176.52	14.33	-35.3	-36.0	25.7	0.00e+00	0	31	101	1048576	50	5442
2026-01-07 02:52:12.77	176.57	14.44	-35.3	-36.0	25.7	0.00e+00	0	31	101	1048576	50	5456
2026-01-07 02:52:13.78	176.62	14.54	-35.2	-35.9	25.7	0.00e+00	0	31	101	1048576	50	5429
2026-01-07 02:52:14.79	176.67	14.64	-35.2	-35.9	25.7	0.00e+00	0	31	101	1048576	50	5417
2026-01-07 02:52:15.80	176.72	14.75	-35.1	-35.8	25.8	0.00e+00	0	31	101	1048576	48	6014
2026-01-07 02:52:16.82	176.77	14.85	-35.1	-35.8	25.9	0.00e+00	0	31	101	1048576	48	5986
2026-01-07 02:52:17.83	176.83	14.96	-35.2	-35.9	25.8	0.00e+00	0	31	101	1048576	48	6042
2026-01-07 02:52:18.84	176.88	15.06	-35.1	-35.8	25.9	0.00e+00	0	31	101	1048576	48	6010
2026-01-07 02:52:19.85	176.93	15.17	-35.1	-35.7	25.9	0.00e+00	0	31	101	1048576	48	5951
2026-01-07 02:52:20.86	176.99	15.27	-34.9	-35.6	26.1	0.00e+00	0	31	101	1048576	48	5831
2026-01-07 02:52:21.87	177.04	15.38	-34.8	-35.5	26.1	0.00e+00	0	31	101	1048576	48	5824
2026-01-07 02:52:22.88	177.09	15.49	-34.8	-35.5	26.2	0.00e+00	0	31	101	1048576	48	5772
2026-01-07 02:52:23.89	177.15	15.59	-34.8	-35.4	26.2	0.00e+00	0	31	101	1048576	48	5758
2026-01-07 02:52:24.90	177.20	15.70	-34.7	-35.4	26.2	0.00e+00	0	31	101	1048576	48	5737
2026-01-07 02:52:25.91	177.26	15.81	-34.6	-35.2	26.3	0.00e+00	0	31	101	1048576	48	5617
2026-01-07 02:52:26.92	177.31	15.92	-34.6	-35.3	26.3	0.00e+00	0	31	101	1048576	48	5663
2026-01-07 02:52:27.94	177.37	16.03	-34.5	-35.2	26.5	0.00e+00	0	31	101	1048576	48	5582
2026-01-07 02:52:28.95	177.42	16.14	-34.5	-35.2	26.5	0.00e+00	0	31	101	1048576	48	5608
2026-01-07 02:52:29.96	177.48	16.25	-34.4	-35.1	26.5	0.00e+00	0	31	101	1048576	48	5532
2026-01-07 02:52:30.97	177.54	16.36	-34.4	-35.0	26.6	0.00e+00	0	31	101	1048576	48	5459
2026-01-07 02:52:31.98	177.60	16.47	-34.4	-35.1	26.5	0.00e+00	0	31	101	1048576	48	5509
2026-01-07 02:52:32.99	177.65	16.58	-34.3	-34.9	26.7	0.00e+00	0	31	101	1048576	48	5425
2026-01-07 02:52:34.00	177.71	16.69	-34.3	-35.0	26.7	0.00e+00	0	31	101	1048576	48	5441
2026-01-07 02:52:35.01	177.77	16.81	-34.3	-34.9	26.7	0.00e+00	0	31	101	1048576	48	5436
2026-01-07 02:52:36.02	177.83	16.92	-34.4	-35.0	26.6	0.00e+00	0	31	101	1048576	48	5473
2026-01-07 02:52:37.03	177.89	17.03	-34.2	-34.8	26.8	0.00e+00	0	31	101	1048576	48	5374
2026-01-07 02:52:38.05	177.95	17.15	-34.4	-35.0	26.6	0.00e+00	0	31	101	1048576	48	5501
2026-01-07 02:52:39.06	178.01	17.26	-34.1	-34.8	26.8	0.00e+00	0	31	101	1048576	48	5341
2026-01-07 02:52:40.07	178.07	17.38	-34.1	-34.8	26.8	0.00e+00	0	31	101	1048576	46	5988
2026-01-07 02:52:41.08	178.13	17.49	-34.1	-34.7	26.9	0.00e+00	0	31	101	1048576	46	5949
2026-01-07 02:52:42.09	178.19	17.61	-34.0	-34.7	26.9	0.00e+00	0	31	101	1048576	46	5904
2026-01-07 02:52:43.10	178.25	17.72	-34.1	-34.7	26.9	0.00e+00	0	31	101	1048576	46	5958
2026-01-07 02:52:44.11	178.32	17.84	-34.1	-34.7	26.8	0.00e+00	0	31	101	1048576	46	5958
2026-01-07 02:52:45.12	178.38	17.96	-34.0	-34.6	26.9	0.00e+00	0	31	101	1048576	46	5866
2026-01-07 02:52:46.13	178.44	18.08	-34.0	-34.6	26.9	0.00e+00	0	31	101	1048576	46	5883
2026-01-07 02:52:47.14	178.51	18.20	-34.0	-34.6	26.9	0.00e+00	0	31	101	1048576	46	5895
2026-01-07 02:52:48.15	178.57	18.31	-34.0	-34.6	27.0	0.00e+00	0	31	101	1048576	46	5868
2026-01-07 02:52:49.16	178.64	18.43	-34.1	-34.8	26.8	0.00e+00	0	31	101	1048576	46	5977
2026-01-07 02:52:50.17	178.70	18.55	-33.9	-34.6	27.0	0.00e+00	0	31	101	1048576	46	5855
2026-01-07 02:52:51.18	178.77	18.68	-33.8	-34.4	27.1	0.00e+00	0	31	101	1048576	46	5720
2026-01-07 02:52:52.20	178.83	18.80	-33.8	-34.5	27.1	0.00e+00	0	31	101	1048576	46	5768
2026-01-07 02:52:53.20	178.90	18.92	-33.7	-34.4	27.1	0.00e+00	0	31	101	1048576	46	5710
2026-01-07 02:52:54.22	178.97	19.04	-33.7	-34.3	27.2	0.00e+00	0	31	101	1048576	46	5678
2026-01-07 02:52:55.22	179.03	19.16	-33.6	-34.3	27.2	0.00e+00	0	31	101	1048576	46	5643
2026-01-07 02:52:56.24	179.10	19.29	-33.7	-34.3	27.2	0.00e+00	0	31	101	1048576	46	5695
2026-01-07 02:52:57.25	179.17	19.41	-33.5	-34.1	27.4	0.00e+00	0	31	101	1048576	46	5541
2026-01-07 02:52:58.26	179.24	19.54	-33.6	-34.2	27.3	0.00e+00	0	31	101	1048576	46	5597
2026-01-07 02:52:59.27	179.31	19.66	-33.5	-34.1	27.4	0.00e+00	0	31	101	1048576	46	5559
2026-01-07 02:53:00.28	179.38	19.79	-33.5	-34.1	27.3	0.00e+00	0	31	101	1048576	46	5561
2026-01-07 02:53:01.29	179.45	19.92	-33.6	-34.2	27.3	0.00e+00	0	31	101	1048576	46	5600
2026-01-07 02:53:02.30	179.52	20.04	-33.4	-34.0	27.4	0.00e+00	0	31	101	1048576	46	5486
2026-01-07 02:53:03.31	179.60	20.17	-33.5	-34.1	27.4	0.00e+00	0	31	101	1048576	46	5562
2026-01-07 02:53:04.32	179.67	20.30	-33.5	-34.2	27.4	0.00e+00	0	31	101	1048576	46	5588
2026-01-07 02:53:05.33	179.74	20.43	-33.5	-34.2	27.3	0.00e+00	0	31	101	1048576	46	5586
2026-01-07 02:53:06.34	179.82	20.56	-33.3	-33.9	27.5	0.00e+00	0	31	101	1048576	46	5408
2026-01-07 02:53:07.35	179.89	20.69	-33.3	-33.9	27.5	0.00e+00	0	31	101	1048576	46	5411
2026-01-07 02:53:08.36	179.97	20.82	-33.2	-33.9	27.6	0.00e+00	0	32	101	1048576	46	5379
2026-01-07 02:53:09.37	180.04	20.95	-33.2	-33.8	27.6	0.00e+00	0	31	101	1048576	46	5362
2026-01-07 02:53:10.38	180.12	21.08	-33.1	-33.8	27.6	0.00e+00	0	31	101	1048576	46	5321
2026-01-07 02:53:11.39	180.19	21.22	-33.3	-33.9	27.5	0.00e+00	0	31	101	1048576	44	6085
2026-01-07 02:53:12.40	180.27	21.35	-33.2	-33.8	27.6	0.00e+00	0	32	101	1048576	44	6021
2026-01-07 02:53:13.42	180.35	21.49	-33.3	-34.0	27.6	0.00e+00	0	31	101	1048576	44	6109
2026-01-07 02:53:14.42	180.43	21.62	-33.1	-33.7	27.7	0.00e+00	0	31	101	1048576	44	5929
2026-01-07 02:53:15.44	180.51	21.76	-33.2	-33.9	27.6	0.00e+00	0	31	101	1048576	44	6040
2026-01-07 02:53:16.45	180.59	21.89	-33.1	-33.7	27.7	0.00e+00	0	31	101	1048576	44	5958
2026-01-07 02:53:17.46	180.67	22.03	-33.2	-33.8	27.6	0.00e+00	0	31	101	1048576	44	6017
2026-01-07 02:53:18.47	180.75	22.17	-33.2	-33.9	27.5	0.00e+00	0	31	101	1048576	44	6053
2026-01-07 02:53:19.48	180.83	22.31	-33.1	-33.7	27.8	0.00e+00	0	31	101	1048576	44	5919
2026-01-07 02:53:20.49	180.92	22.44	-33.0	-33.6	27.8	0.00e+00	0	31	101	1048576	44	5881
2026-01-07 02:53:21.50	181.00	22.58	-33.0	-33.6	27.8	0.00e+00	0	31	101	1048576	44	5885
2026-01-07 02:53:22.51	181.08	22.72	-32.9	-33.5	27.8	0.00e+00	0	31	101	1048576	44	5789
2026-01-07 02:53:23.52	181.17	22.87	-32.9	-33.6	27.8	0.00e+00	0	31	101	1048576	44	5840
2026-01-07 02:53:24.53	181.25	23.01	-32.8	-33.4	28.0	0.00e+00	0	31	101	1048576	44	5729
2026-01-07 02:53:25.55	181.34	23.15	-32.8	-33.4	28.0	0.00e+00	0	31	101	1048576	44	5730
2026-01-07 02:53:26.56	181.43	23.29	-32.7	-33.3	28.0	0.00e+00	0	31	101	1048576	44	5662
2026-01-07 02:53:27.57	181.52	23.44	-32.7	-33.3	28.0	0.00e+00	0	31	101	1048576	44	5672
2026-01-07 02:53:28.58	181.61	23.58	-32.7	-33.3	28.0	0.00e+00	0	31	101	1048576	44	5666
2026-01-07 02:53:29.59	181.70	23.73	-32.7	-33.3	28.0	0.00e+00	0	31	101	1048576	44	5691
2026-01-07 02:53:30.60	181.79	23.87	-32.7	-33.4	28.0	0.00e+00	0	31	101	1048576	44	5712
2026-01-07 02:53:31.61	181.88	24.02	-32.7	-33.3	28.0	0.00e+00	0	31	101	1048576	44	5683
2026-01-07 02:53:32.62	181.97	24.17	-32.8	-33.5	27.9	0.00e+00	0	31	101	1048576	44	5786
2026-01-07 02:53:33.63	182.06	24.32	-32.7	-33.3	28.0	0.00e+00	0	32	101	1048576	44	5694
2026-01-07 02:53:34.64	182.16	24.47	-32.7	-33.4	28.0	0.00e+00	0	31	101	1048576	44	5707
2026-01-07 02:53:35.65	182.25	24.62	-32.8	-33.4	27.9	0.00e+00	0	31	101	1048576	44	5741
2026-01-07 02:53:36.66	182.35	24.77	-32.7	-33.4	28.0	0.00e+00	0	31	101	1048576	44	5698
2026-01-07 02:53:37.67	182.44	24.92	-32.8	-33.4	28.0	0.00e+00	0	31	101	1048576	44	5733
2026-01-07 02:53:38.68	182.54	25.07	-32.9	-33.6	27.8	0.00e+00	0	31	101	1048576	44	5848
2026-01-07 02:53:39.70	182.64	25.23	-32.7	-33.4	28.0	0.00e+00	0	31	101	1048576	44	5698
2026-01-07 02:53:40.71	182.74	25.38	-32.9	-33.6	28.0	0.00e+00	0	31	101	1048576	44	5834
2026-01-07 02:53:41.72	182.84	25.54	-32.5	-33.2	28.2	0.00e+00	0	31	101	1048576	44	5580
2026-01-07 02:53:42.73	182.94	25.69	-32.6	-33.2	28.1	0.00e+00	0	31	101	1048576	44	5579
2026-01-07 02:53:43.74	183.04	25.85	-32.5	-33.1	28.2	0.00e+00	0	31	101	1048576	44	5533
2026-01-07 02:53:44.75	183.14	26.01	-32.5	-33.1	28.3	0.00e+00	0	32	101	1048576	44	5546
2026-01-07 02:53:45.76	183.25	26.16	-32.5	-33.1	28.2	0.00e+00	0	31	101	1048576	44	5561
2026-01-07 02:53:46.77	183.35	26.32	-32.6	-33.2	28.0	0.00e+00	0	32	101	1048576	44	5620
2026-01-07 02:53:47.78	183.46	26.48	-32.6	-33.2	28.0	0.00e+00	0	31	101	1048576	44	5629
2026-01-07 02:53:48.79	183.56	26.64	-32.7	-33.4	28.0	0.00e+00	0	32	101	1048576	44	5704
2026-01-07 02:53:49.81	183.67	26.81	-32.4	-33.0	28.2	0.00e+00	0	31	101	1048576	44	5494
2026-01-07 02:53:50.82	183.78	26.97	-32.3	-32.9	28.3	0.00e+00	0	31	101	1048576	44	5432
2026-01-07 02:53:51.83	183.89	27.13	-32.2	-32.9	28.4	0.00e+00	0	31	101	1048576	44	5381
2026-01-07 02:53:52.84	184.00	27.30	-32.2	-32.8	26.9	0.00e+00	0	31	101	1048576	44	5342
2026-01-07 02:53:53.85	184.11	27.46	-32.1	-32.7	28.6	0.00e+00	0	31	101	1048576	42	5940
2026-01-07 02:53:54.86	184.23	27.63	-32.3	-32.9	28.4	0.00e+00	0	32	101	1048576	42	6057
2026-01-07 02:53:55.87	184.34	27.80	-32.2	-32.9	28.5	0.00e+00	0	31	101	1048576	42	6059
2026-01-07 02:53:56.88	184.46	27.96	-32.0	-32.7	28.5	0.00e+00	0	32	101	1048576	42	5905
2026-01-07 02:53:57.89	184.57	28.13	-32.2	-32.8	28.5	0.00e+00	0	31	101	1048576	42	5999
2026-01-07 02:53:58.90	184.69	28.30	-32.3	-32.9	28.4	0.00e+00	0	31	101	1048576	42	6048
2026-01-07 02:53:59.91	184.81	28.47	-32.3	-32.9	28.4	0.00e+00	0	32	101	1048576	42	6102
2026-01-07 02:54:00.92	184.93	28.64	-32.3	-32.9	28.4	0.00e+00	0	32	101	1048576	42	6056
2026-01-07 02:54:01.93	185.05	28.82	-32.4	-33.0	28.4	0.00e+00	0	32	101	1048576	42	6135
2026-01-07 02:54:02.94	185.18	28.99	-32.4	-33.0	28.4	0.00e+00	0	32	101	1048576	42	6151
2026-01-07 02:54:03.96	185.30	29.17	-32.3	-32.9	28.3	0.00e+00	0	32	101	1048576	42	6103
2026-01-07 02:54:04.97	185.43	29.34	-32.6	-33.2	28.1	0.00e+00	0	32	101	1048576	42	6272
2026-01-07 02:54:05.98	185.56	29.52	-32.3	-32.9	28.4	0.00e+00	0	32	101	1048576	42	6077
2026-01-07 02:54:06.99	185.68	29.69	-32.3	-33.0	28.4	0.00e+00	0	31	101	1048576	42	6121
2026-01-07 02:54:08.00	185.81	29.87	-32.3	-32.9	28.4	0.00e+00	0	31	101	1048576	42	6057
2026-01-07 02:54:09.01	185.94	30.05	-32.3	-32.9	28.3	0.00e+00	0	31	101	1048576	42	6096
2026-01-07 02:54:10.02	186.08	30.23	-32.4	-33.1	28.3	0.00e+00	0	31	101	1048576	42	6177
2026-01-07 02:54:11.03	186.21	30.41	-32.4	-33.0	28.3	0.00e+00	0	31	101	1048576	42	6153
2026-01-07 02:54:12.04	186.35	30.59	-32.4	-33.1	28.2	0.00e+00	0	32	101	1048576	42	6189
2026-01-07 02:54:13.33	186.52	30.83	-32.2	-32.8	28.5	0.00e+00	0	31	101	1048576	42	6026
2026-01-07 02:54:14.05	186.62	30.96	-32.1	-32.8	28.5	0.00e+00	0	31	101	1048576	42	5974
2026-01-07 02:54:15.35	186.80	31.20	-31.9	-32.5	28.7	0.00e+00	0	31	101	1048576	42	5804
2026-01-07 02:54:16.07	186.90	31.33	-32.0	-32.6	28.6	0.00e+00	0	31	101	1048576	42	5879
2026-01-07 02:54:17.37	187.09	31.57	-32.0	-32.6	28.6	0.00e+00	0	31	101	1048576	42	5838
2026-01-07 02:54:18.09	187.19	31.70	-32.0	-32.7	28.6	0.00e+00	0	32	101	1048576	42	5910
2026-01-07 02:54:19.39	187.38	31.95	-32.2	-32.8	28.4	0.00e+00	0	31	101	1048576	42	6028
2026-01-07 02:54:20.12	187.49	32.09	-32.4	-33.0	28.4	0.00e+00	0	31	101	1048576	42	6173
2026-01-07 02:54:21.42	187.68	32.33	-32.3	-32.9	28.4	0.00e+00	0	32	101	1048576	42	6097
2026-01-07 02:54:22.14	187.79	32.47	-32.3	-32.9	28.4	0.00e+00	0	32	101	1048576	42	6083
2026-01-07 02:54:23.44	187.98	32.72	-32.2	-32.9	28.5	0.00e+00	0	32	101	1048576	42	6051
2026-01-07 02:54:24.16	188.09	32.85	-32.2	-32.8	28.5	0.00e+00	0	31	101	1048576	42	6030
2026-01-07 02:54:25.46	188.30	33.11	-32.2	-32.8	28.5	0.00e+00	0	31	101	1048576	42	6023
2026-01-07 02:54:26.18	188.41	33.25	-32.2	-32.8	28.4	0.00e+00	0	32	101	1048576	42	6013
2026-01-07 02:54:27.48	188.62	33.50	-32.3	-32.9	28.3	0.00e+00	0	31	101	1048576	42	6088
2026-01-07 02:54:28.20	188.73	33.64	-32.3	-32.9	28.4	0.00e+00	0	31	101	1048576	42	6092
2026-01-07 02:54:29.50	188.94	33.90	-32.2	-32.9	28.5	0.00e+00	0	32	101	1048576	42	6057
2026-01-07 02:54:30.22	189.06	34.04	-32.2	-32.9	28.3	0.00e+00	0	32	101	1048576	42	6044
2026-01-07 02:54:31.51	189.28	34.30	-32.0	-32.6	28.7	0.00e+00	0	32	101	1048576	42	5842
2026-01-07 02:54:32.23	189.40	34.44	-31.9	-32.6	28.7	0.00e+00	0	32	101	1048576	42	5845
2026-01-07 02:54:33.53	189.62	34.70	-32.0	-32.7	28.6	0.00e+00	0	32	101	1048576	42	5907
2026-01-07 02:54:34.25	189.75	34.85	-31.9	-32.5	28.7	0.00e+00	0	31	101	1048576	42	5792
2026-01-07 02:54:35.54	189.97	35.11	-32.0	-32.6	28.7	0.00e+00	0	32	101	1048576	42	5847
2026-01-07 02:54:36.26	190.10	35.26	-31.8	-32.5	28.7	0.00e+00	0	32	101	1048576	42	5785
2026-01-07 02:54:37.55	190.33	35.52	-31.9	-32.5	28.7	0.00e+00	0	31	101	1048576	42	5799
2026-01-07 02:54:38.27	190.46	35.67	-32.0	-32.6	28.7	0.00e+00	0	32	101	1048576	42	5849
2026-01-07 02:54:39.56	190.70	35.94	-31.9	-32.5	28.7	0.00e+00	0	31	101	1048576	42	5778
2026-01-07 02:54:40.28	190.83	36.09	-31.8	-32.5	28.8	0.00e+00	0	31	101	1048576	42	5767
2026-01-07 02:54:41.58	191.08	36.36	-31.8	-32.4	28.8	0.00e+00	0	31	101	1048576	42	5736
2026-01-07 02:54:42.29	191.22	36.51	-31.9	-32.5	28.7	0.00e+00	0	31	101	1048576	42	5806
2026-01-07 02:54:43.59	191.47	36.79	-31.9	-32.5	28.7	0.00e+00	0	32	101	1048576	42	5816
2026-01-07 02:54:44.31	191.61	36.94	-31.9	-32.6	28.7	0.00e+00	0	31	101	1048576	42	5838
2026-01-07 02:54:45.61	191.87	37.22	-31.8	-32.4	28.8	0.00e+00	0	31	101	1048576	42	5758
2026-01-07 02:54:46.33	192.01	37.38	-31.8	-32.5	28.8	0.00e+00	0	31	101	1048576	42	5776
2026-01-07 02:54:47.62	192.27	37.65	-31.7	-32.3	28.9	0.00e+00	0	31	101	1048576	42	5662
2026-01-07 02:54:48.34	192.42	37.81	-31.7	-32.3	28.7	0.00e+00	0	32	101	1048576	42	5679
2026-01-07 02:54:49.64	192.70	38.09	-31.7	-32.3	28.9	0.00e+00	0	32	101	1048576	42	5637
2026-01-07 02:54:50.36	192.85	38.25	-31.8	-32.5	28.7	0.00e+00	0	32	101	1048576	42	5770
2026-01-07 02:54:51.66	193.13	38.54	-31.6	-32.2	28.9	0.00e+00	0	32	101	1048576	42	5589
2026-01-07 02:54:52.38	193.28	38.70	-31.7	-32.3	28.9	0.00e+00	0	31	101	1048576	42	5659
2026-01-07 02:54:53.68	193.57	38.98	-31.6	-32.2	28.9	0.00e+00	0	31	101	1048576	42	5627
2026-01-07 02:54:54.40	193.73	39.14	-31.5	-32.1	29.0	0.00e+00	0	32	101	1048576	42	5540
2026-01-07 02:54:55.69	194.03	39.43	-31.7	-32.3	28.9	0.00e+00	0	32	101	1048576	42	5667
2026-01-07 02:54:56.41	194.19	39.60	-31.7	-32.3	28.8	0.00e+00	0	31	101	1048576	42	5657
2026-01-07 02:54:57.70	194.49	39.89	-31.7	-32.3	28.9	0.00e+00	0	32	101	1048576	42	5680
2026-01-07 02:54:58.42	194.66	40.05	-31.8	-32.4	28.8	0.00e+00	0	32	101	1048576	42	5725
2026-01-07 02:54:59.72	194.97	40.35	-31.8	-32.4	28.8	0.00e+00	0	32	101	1048576	42	5744
2026-01-07 02:55:00.44	195.15	40.51	-31.9	-32.5	28.7	0.00e+00	0	32	101	1048576	42	5784
2026-01-07 02:55:01.73	195.47	40.81	-32.0	-32.6	28.6	0.00e+00	0	32	101	1048576	42	5892
2026-01-07 02:55:02.45	195.65	40.97	-31.9	-32.5	28.6	0.00e+00	0	32	101	1048576	42	5813
2026-01-07 02:55:03.75	195.98	41.27	-31.9	-32.5	28.7	0.00e+00	0	32	101	1048576	42	5764
2026-01-07 02:55:04.47	196.16	41.44	-31.8	-32.4	28.7	0.00e+00	0	32	101	1048576	42	5728
2026-01-07 02:55:05.76	196.50	41.74	-31.6	-32.2	28.9	0.00e+00	0	31	101	1048576	42	5609
2026-01-07 02:55:06.48	196.69	41.91	-31.8	-32.4	28.8	0.00e+00	0	31	101	1048576	42	5718
2026-01-07 02:55:07.78	197.04	42.21	-32.0	-32.6	28.7	0.00e+00	0	32	101	1048576	42	5855
2026-01-07 02:55:08.49	197.23	42.38	-32.0	-32.6	28.6	0.00e+00	0	31	101	1048576	42	5889
2026-01-07 02:55:09.79	197.59	42.69	-32.0	-32.6	28.6	0.00e+00	0	31	101	1048576	42	5871
2026-01-07 02:55:10.51	197.79	42.86	-32.0	-32.7	28.7	0.00e+00	0	31	101	1048576	42	5906
2026-01-07 02:55:11.80	198.16	43.16	-32.0	-32.6	28.7	0.00e+00	0	32	101	1048576	42	5868
2026-01-07 02:55:12.52	198.36	43.34	-32.0	-32.6	28.6	0.00e+00	0	31	101	1048576	42	5852
2026-01-07 02:55:13.82	198.75	43.65	-32.2	-32.8	28.5	0.00e+00	0	32	101	1048576	42	5965
2026-01-07 02:55:14.54	198.96	43.82	-32.1	-32.7	28.6	0.00e+00	0	31	101	1048576	42	5936
2026-01-07 02:55:15.83	199.35	44.13	-32.2	-32.8	28.5	0.00e+00	0	32	101	1048576	42	5985
2026-01-07 02:55:16.55	199.57	44.30	-32.1	-32.7	28.4	0.00e+00	0	31	101	1048576	42	5933
2026-01-07 02:55:17.85	199.97	44.62	-32.0	-32.7	28.6	0.00e+00	0	31	101	1048576	42	5913
2026-01-07 02:55:18.57	200.20	44.79	-31.9	-32.6	28.7	0.00e+00	0	31	101	1048576	42	5829
2026-01-07 02:55:19.86	200.61	45.11	-32.0	-32.6	28.6	0.00e+00	0	32	101	1048576	42	5857
2026-01-07 02:55:20.58	200.85	45.28	-32.2	-32.8	28.5	0.00e+00	0	31	101	1048576	42	6018
2026-01-07 02:55:21.88	201.28	45.60	-32.5	-33.1	28.2	0.00e+00	0	32	101	1048576	42	6207
2026-01-07 02:55:22.60	201.52	45.77	-32.4	-33.0	28.3	0.00e+00	0	32	101	1048576	42	6119
2026-01-07 02:55:23.89	201.96	46.09	-32.3	-32.9	28.4	0.00e+00	0	31	101	1048576	42	6043
2026-01-07 02:55:24.61	202.21	46.27	-32.2	-32.8	28.5	0.00e+00	0	31	101	1048576	42	5996
2026-01-07 02:55:25.91	202.66	46.58	-32.2	-32.8	28.5	0.00e+00	0	32	101	1048576	42	6012
2026-01-07 02:55:26.63	202.92	46.76	-32.1	-32.7	28.5	0.00e+00	0	32	101	1048576	42	5953
2026-01-07 02:55:27.92	203.39	47.08	-32.2	-32.8	28.5	0.00e+00	0	32	101	1048576	42	5998
2026-01-07 02:55:28.64	203.65	47.26	-32.2	-32.8	28.6	0.00e+00	0	31	101	1048576	42	6009
2026-01-07 02:55:29.94	204.14	47.58	-32.2	-32.8	28.5	0.00e+00	0	31	101	1048576	42	5997
2026-01-07 02:55:30.66	204.41	47.75	-32.3	-32.9	28.3	0.00e+00	0	32	101	1048576	42	6102
2026-01-07 02:55:31.95	204.91	48.07	-32.3	-33.0	28.5	0.00e+00	0	31	101	1048576	42	6109
2026-01-07 02:55:32.67	205.19	48.25	-32.0	-32.7	28.6	0.00e+00	0	31	101	1048576	42	5915
2026-01-07 02:55:33.97	205.71	48.57	-32.1	-32.7	28.5	0.00e+00	0	32	101	1048576	42	5920
2026-01-07 02:55:34.69	206.00	48.75	-32.1	-32.7	28.6	0.00e+00	0	31	101	1048576	42	5953
2026-01-07 02:55:35.98	206.53	49.06	-32.1	-32.7	28.6	0.00e+00	0	31	101	1048576	42	5951
2026-01-07 02:55:36.70	206.83	49.24	-32.2	-32.8	28.5	0.00e+00	0	31	101	1048576	42	5999
2026-01-07 02:55:37.99	207.38	49.56	-32.2	-32.9	28.5	0.00e+00	0	31	101	1048576	42	6042
2026-01-07 02:55:38.71	207.69	49.73	-32.4	-33.0	28.3	0.00e+00	0	32	101	1048576	42	6146
2026-01-07 02:55:40.01	208.26	50.05	-32.7	-33.3	28.1	0.00e+00	0	32	101	1048576	42	6372
2026-01-07 02:55:40.73	208.58	50.23	-32.8	-33.4	28.1	0.00e+00	0	32	101	1048576	42	6434
2026-01-07 02:55:42.03	209.17	50.54	-32.6	-33.2	28.1	0.00e+00	0	31	101	1048576	42	6308
2026-01-07 02:55:42.75	209.50	50.72	-32.6	-33.2	28.2	0.00e+00	0	32	101	1048576	42	6299
2026-01-07 02:55:44.04	210.10	51.03	-32.8	-33.4	27.9	0.00e+00	0	31	101	1048576	42	6435
2026-01-07 02:55:44.76	210.45	51.21	-32.8	-33.5	28.0	0.00e+00	0	32	101	1048576	42	6502
2026-01-07 02:55:46.06	211.07	51.52	-32.8	-33.4	28.0	0.00e+00	0	31	101	1048576	42	6443
2026-01-07 02:55:46.78	211.43	51.69	-32.7	-33.3	28.1	0.00e+00	0	31	101	1048576	42	6359
2026-01-07 02:55:48.08	212.08	52.00	-32.6	-33.2	28.1	0.00e+00	0	31	101	1048576	42	6299
2026-01-07 02:55:48.80	212.44	52.18	-32.7	-33.3	28.0	0.00e+00	0	31	101	1048576	42	6373
2026-01-07 02:55:50.09	213.10	52.48	-32.6	-33.2	28.2	0.00e+00	0	32	101	1048576	42	6281
2026-01-07 02:55:50.81	213.48	52.65	-32.6	-33.3	28.1	0.00e+00	0	32	101	1048576	42	6364
2026-01-07 02:55:52.11	214.17	52.96	-32.4	-33.0	28.3	0.00e+00	0	32	101	1048576	42	6158
2026-01-07 02:55:52.83	214.56	53.12	-32.4	-33.1	28.2	0.00e+00	0	32	101	1048576	42	6182
2026-01-07 02:55:54.12	215.27	53.42	-32.7	-33.3	28.1	0.00e+00	0	32	101	1048576	42	6366
2026-01-07 02:55:54.84	215.67	53.59	-32.9	-33.5	27.9	0.00e+00	0	32	101	1048576	42	6519
2026-01-07 02:55:56.13	216.40	53.88	-33.0	-33.7	27.9	0.00e+00	0	32	101	1048576	42	6622
2026-01-07 02:55:56.85	216.81	54.04	-32.8	-33.4	28.0	0.00e+00	0	32	101	1048576	42	6460
2026-01-07 02:55:58.14	217.57	54.33	-32.9	-33.5	28.1	0.00e+00	0	32	101	1048576	42	6483
2026-01-07 02:55:58.86	217.99	54.49	-32.5	-33.1	28.3	0.00e+00	0	32	101	1048576	42	6232
2026-01-07 02:56:00.15	218.77	54.78	-33.1	-33.7	27.8	0.00e+00	0	32	101	1048576	42	6651
2026-01-07 02:56:00.87	219.21	54.94	-33.1	-33.7	27.8	0.00e+00	0	32	101	1048576	44	5948
2026-01-07 02:56:02.17	220.02	55.22	-32.8	-33.4	28.0	0.00e+00	0	32	101	1048576	44	5755
2026-01-07 02:56:02.88	220.47	55.37	-33.0	-33.6	27.9	0.00e+00	0	31	101	1048576	44	5859
2026-01-07 02:56:04.18	221.30	55.64	-33.4	-34.0	27.6	0.00e+00	0	32	101	1048576	44	6169
2026-01-07 02:56:04.90	221.77	55.79	-33.2	-33.9	27.8	0.00e+00	0	31	101	1048576	44	6053
2026-01-07 02:56:06.20	222.62	56.06	-33.0	-33.6	27.8	0.00e+00	0	32	101	1048576	44	5895
2026-01-07 02:56:06.91	223.10	56.20	-33.1	-33.8	27.8	0.00e+00	0	31	101	1048576	44	5994
2026-01-07 02:56:08.21	223.98	56.46	-32.9	-33.6	27.9	0.00e+00	0	31	101	1048576	44	5854
2026-01-07 02:56:08.93	224.48	56.60	-32.9	-33.6	27.9	0.00e+00	0	31	101	1048576	44	5852
2026-01-07 02:56:10.22	225.38	56.85	-32.9	-33.5	28.0	0.00e+00	0	31	101	1048576	44	5795
2026-01-07 02:56:10.94	225.89	56.98	-32.9	-33.5	27.9	0.00e+00	0	31	101	1048576	44	5817
2026-01-07 02:56:12.23	226.81	57.22	-33.5	-34.1	27.5	0.00e+00	0	32	101	1048576	44	6210
2026-01-07 02:56:12.95	227.34	57.35	-33.5	-34.2	27.3	0.00e+00	0	32	101	1048576	44	6286
2026-01-07 02:56:14.25	228.30	57.58	-33.0	-33.7	27.9	0.00e+00	0	31	101	1048576	44	5903
2026-01-07 02:56:14.97	228.83	57.71	-33.0	-33.6	27.8	0.00e+00	0	32	101	1048576	44	5842
2026-01-07 02:56:16.27	229.82	57.93	-32.6	-33.2	28.1	0.00e+00	0	32	101	1048576	44	5604
2026-01-07 02:56:16.99	230.37	58.05	-32.9	-33.5	28.0	0.00e+00	0	32	101	1048576	44	5807
2026-01-07 02:56:18.28	231.37	58.26	-33.0	-33.6	27.8	0.00e+00	0	31	101	1048576	44	5875
2026-01-07 02:56:19.00	231.93	58.37	-33.0	-33.6	27.8	0.00e+00	0	31	101	1048576	44	5853
2026-01-07 02:56:20.30	232.96	58.57	-32.9	-33.6	27.8	0.00e+00	0	31	101	1048576	44	5847
2026-01-07 02:56:21.02	233.54	58.67	-32.8	-33.4	28.0	0.00e+00	0	32	101	1048576	44	5758
2026-01-07 02:56:22.31	234.59	58.86	-32.7	-33.3	28.2	0.00e+00	0	32	101	1048576	44	5644
2026-01-07 02:56:23.04	235.19	58.96	-32.8	-33.5	28.0	0.00e+00	0	32	101	1048576	44	5771
2026-01-07 02:56:24.33	236.26	59.13	-33.0	-33.7	27.7	0.00e+00	0	32	101	1048576	44	5939
2026-01-07 02:56:25.05	236.86	59.22	-33.1	-33.8	27.7	0.00e+00	0	32	101	1048576	44	5967
2026-01-07 02:56:26.34	237.95	59.38	-33.0	-33.6	28.0	0.00e+00	0	32	101	1048576	44	5896
2026-01-07 02:56:27.06	238.56	59.46	-32.4	-33.0	28.3	0.00e+00	0	32	101	1048576	44	5488
2026-01-07 02:56:28.35	239.67	59.60	-32.5	-33.1	28.2	0.00e+00	0	31	101	1048576	44	5560
2026-01-07 02:56:29.07	240.30	59.68	-32.5	-33.1	28.2	0.00e+00	0	32	101	1048576	44	5539
2026-01-07 02:56:30.37	241.43	59.81	-32.3	-33.0	28.3	0.00e+00	0	32	101	1048576	44	5445
2026-01-07 02:56:31.09	242.06	59.87	-32.5	-33.1	28.2	0.00e+00	0	32	101	1048576	44	5527
2026-01-07 02:56:32.38	243.21	59.99	-32.5	-33.1	28.2	0.00e+00	0	32	101	1048576	44	5565
2026-01-07 02:56:33.10	243.85	60.04	-32.6	-33.3	28.1	0.00e+00	0	31	101	1048576	44	5631
2026-01-07 02:56:34.40	245.02	60.14	-33.0	-33.6	27.8	0.00e+00	0	32	101	1048576	44	5858
2026-01-07 02:56:35.12	245.67	60.19	-32.4	-33.1	28.2	0.00e+00	0	32	101	1048576	44	5547
2026-01-07 02:56:36.41	246.84	60.27	-32.2	-32.8	28.4	0.00e+00	0	32	101	1048576	44	5350
2026-01-07 02:56:37.13	247.49	60.31	-32.2	-32.9	28.4	0.00e+00	0	31	101	1048576	44	5396
2026-01-07 02:56:38.43	248.68	60.38	-32.2	-32.9	28.5	0.00e+00	0	32	101	1048576	44	5389
2026-01-07 02:56:39.15	249.35	60.41	-32.4	-33.0	28.3	0.00e+00	0	32	101	1048576	44	5464
2026-01-07 02:56:40.44	250.53	60.46	-32.1	-32.7	28.5	0.00e+00	0	32	101	1048576	42	5946
2026-01-07 02:56:41.16	251.20	60.48	-32.0	-32.6	28.6	0.00e+00	0	32	101	1048576	42	5885
2026-01-07 02:56:42.46	252.40	60.51	-32.5	-33.2	28.3	0.00e+00	0	32	101	1048576	42	6259
2026-01-07 02:56:43.18	253.07	60.52	-32.7	-33.4	28.0	0.00e+00	0	32	101	1048576	42	6430
2026-01-07 02:56:44.47	254.27	60.53	-32.7	-33.3	28.1	0.00e+00	0	32	101	1048576	42	6341
2026-01-07 02:56:45.19	254.94	60.54	-32.5	-33.2	28.2	0.00e+00	0	32	101	1048576	42	6250
2026-01-07 02:56:46.48	256.14	60.53	-32.3	-33.0	28.3	0.00e+00	0	32	101	1048576	42	6143
2026-01-07 02:56:47.20	256.80	60.53	-32.2	-32.7	28.4	0.00e+00	0	32	101	1048576	42	5948
2026-01-07 02:56:48.50	258.01	60.51	-32.3	-32.9	28.4	0.00e+00	0	31	101	1048576	42	6086
2026-01-07 02:56:49.22	258.68	60.49	-32.5	-33.1	28.1	0.00e+00	0	32	101	1048576	42	6245
2026-01-07 02:56:50.52	259.88	60.45	-32.5	-33.1	28.2	0.00e+00	0	32	101	1048576	42	6243
2026-01-07 02:56:51.23	260.53	60.42	-32.4	-33.0	28.3	0.00e+00	0	32	101	1048576	42	6146
2026-01-07 02:56:52.53	261.73	60.37	-32.2	-32.8	28.4	0.00e+00	0	32	101	1048576	42	5993
2026-01-07 02:56:53.25	262.38	60.33	-32.4	-33.0	28.4	0.00e+00	0	32	101	1048576	42	6130
2026-01-07 02:56:54.54	263.56	60.26	-32.5	-33.1	28.2	0.00e+00	0	32	101	1048576	42	6207
2026-01-07 02:56:55.26	264.21	60.22	-32.4	-33.0	28.3	0.00e+00	0	31	101	1048576	42	6153
2026-01-07 02:56:56.56	265.39	60.13	-32.2	-32.8	28.4	0.00e+00	0	32	101	1048576	42	5970
2026-01-07 02:56:57.27	266.03	60.08	-32.0	-32.6	28.1	0.00e+00	0	32	101	1048576	42	5860
2026-01-07 02:56:58.57	267.19	59.97	-32.4	-33.1	27.9	0.00e+00	0	32	101	1048576	42	6179
2026-01-07 02:56:59.29	267.82	59.91	-32.5	-33.2	27.9	0.00e+00	0	32	101	1048576	42	6261
2026-01-07 02:57:00.59	268.97	59.79	-32.5	-33.2	28.1	0.00e+00	0	31	101	1048576	42	6282
2026-01-07 02:57:01.31	269.60	59.72	-32.6	-33.3	28.0	0.00e+00	0	32	101	1048576	42	6323
2026-01-07 02:57:02.61	270.72	59.58	-32.6	-33.3	28.1	0.00e+00	0	32	101	1048576	42	6341
2026-01-07 02:57:03.33	271.34	59.50	-32.4	-33.1	28.2	0.00e+00	0	32	101	1048576	42	6180
2026-01-07 02:57:04.62	272.44	59.36	-32.4	-33.0	28.4	0.00e+00	0	32	101	1048576	42	6106
2026-01-07 02:57:05.34	273.05	59.27	-32.3	-32.9	28.4	0.00e+00	0	31	101	1048576	42	6043
2026-01-07 02:57:06.64	274.14	59.10	-32.3	-33.0	28.3	0.00e+00	0	32	101	1048576	42	6131
2026-01-07 02:57:07.36	274.74	59.01	-32.4	-33.1	28.2	0.00e+00	0	32	101	1048576	42	6199
2026-01-07 02:57:08.65	275.79	58.83	-32.2	-32.8	28.4	0.00e+00	0	32	101	1048576	42	6009
2026-01-07 02:57:09.37	276.38	58.73	-32.3	-32.9	28.4	0.00e+00	0	31	101	1048576	42	6059
2026-01-07 02:57:10.67	277.42	58.54	-32.8	-33.5	28.0	0.00e+00	0	32	101	1048576	42	6489
2026-01-07 02:57:11.39	277.99	58.43	-33.0	-33.7	27.8	0.00e+00	0	32	101	1048576	42	6671
2026-01-07 02:57:12.68	279.00	58.23	-32.6	-33.3	28.2	0.00e+00	0	31	101	1048576	42	6347
2026-01-07 02:57:13.40	279.56	58.12	-32.5	-33.0	28.2	0.00e+00	0	31	101	1048576	42	6170
2026-01-07 02:57:14.69	280.55	57.90	-32.7	-33.3	28.0	0.00e+00	0	31	101	1048576	42	6367
2026-01-07 02:57:15.41	281.10	57.78	-32.9	-33.6	27.9	0.00e+00	0	32	101	1048576	42	6569
2026-01-07 02:57:16.71	282.07	57.56	-32.5	-33.1	28.2	0.00e+00	0	32	101	1048576	42	6184
2026-01-07 02:57:17.44	282.60	57.43	-32.6	-33.2	28.2	0.00e+00	0	32	101	1048576	42	6248
2026-01-07 02:57:18.73	283.54	57.20	-33.0	-33.5	27.8	0.00e+00	0	32	101	1048576	42	6538
2026-01-07 02:57:19.45	284.06	57.06	-33.1	-33.8	27.7	0.00e+00	0	31	101	1048576	42	6705
2026-01-07 02:57:20.75	284.98	56.82	-32.8	-33.5	28.0	0.00e+00	0	32	101	1048576	42	6465
2026-01-07 02:57:21.47	285.48	56.68	-32.7	-33.3	28.0	0.00e+00	0	32	101	1048576	42	6384
2026-01-07 02:57:22.77	286.38	56.43	-32.7	-33.3	28.0	0.00e+00	0	32	101	1048576	42	6337
2026-01-07 02:57:23.49	286.87	56.28	-33.0	-33.5	27.8	0.00e+00	0	31	101	1048576	42	6529
2026-01-07 02:57:24.78	287.73	56.02	-33.1	-33.8	27.8	0.00e+00	0	31	101	1048576	44	5984
2026-01-07 02:57:25.50	288.20	55.88	-32.8	-33.3	28.0	0.00e+00	0	31	101	1048576	44	5687
2026-01-07 02:57:26.80	289.05	55.61	-33.0	-33.5	27.7	0.00e+00	0	31	101	1048576	44	5821
2026-01-07 02:57:27.52	289.51	55.46	-33.3	-34.0	27.5	0.00e+00	0	31	101	1048576	44	6138
2026-01-07 02:57:28.81	290.32	55.18	-33.8	-34.5	27.2	0.00e+00	0	32	101	1048576	44	6519
2026-01-07 02:57:29.53	290.77	55.03	-33.5	-34.2	27.5	0.00e+00	0	31	101	1048576	44	6295
2026-01-07 02:57:30.83	291.57	54.75	-33.0	-33.6	27.8	0.00e+00	0	32	101	1048576	44	5860
2026-01-07 02:57:31.55	292.00	54.59	-33.0	-33.7	27.8	0.00e+00	0	32	101	1048576	44	5928
2026-01-07 02:57:32.85	292.77	54.30	-33.0	-33.6	27.7	0.00e+00	0	32	101	1048576	44	5891
2026-01-07 02:57:33.56	293.19	54.14	-33.0	-33.6	27.8	0.00e+00	0	32	101	1048576	44	5894
2026-01-07 02:57:34.86	293.93	53.85	-32.8	-33.5	27.9	0.00e+00	0	32	101	1048576	44	5811
2026-01-07 02:57:35.58	294.34	53.69	-32.9	-33.6	27.9	0.00e+00	0	32	101	1048576	44	5829
2026-01-07 02:57:36.87	295.06	53.39	-33.1	-33.8	27.7	0.00e+00	0	31	101	1048576	44	5980
2026-01-07 02:57:37.59	295.45	53.22	-33.2	-33.9	27.6	0.00e+00	0	31	101	1048576	44	6060
2026-01-07 02:57:38.89	296.16	52.92	-33.1	-33.8	27.7	0.00e+00	0	32	101	1048576	44	6011
2026-01-07 02:57:39.61	296.54	52.75	-33.0	-33.6	27.8	0.00e+00	0	31	101	1048576	44	5875
2026-01-07 02:57:40.91	297.22	52.45	-33.1	-33.7	27.7	0.00e+00	0	31	101	1048576	44	5944
2026-01-07 02:57:41.63	297.59	52.28	-33.1	-33.8	27.7	0.00e+00	0	31	101	1048576	44	5997
2026-01-07 02:57:42.92	298.24	51.97	-33.3	-33.9	27.5	0.00e+00	0	31	101	1048576	44	6052
2026-01-07 02:57:43.64	298.60	51.80	-33.3	-34.0	27.5	0.00e+00	0	32	101	1048576	44	6127
2026-01-07 02:57:44.94	299.24	51.49	-33.2	-33.7	27.7	0.00e+00	0	32	101	1048576	44	5952
2026-01-07 02:57:45.66	299.59	51.32	-33.1	-33.8	27.8	0.00e+00	0	32	101	1048576	44	5997
2026-01-07 02:57:46.95	300.20	51.01	-33.0	-33.7	27.7	0.00e+00	0	31	101	1048576	44	5947
2026-01-07 02:57:47.67	300.54	50.83	-33.1	-33.8	27.7	0.00e+00	0	31	101	1048576	44	6004
2026-01-07 02:57:48.97	301.13	50.52	-33.0	-33.7	27.8	0.00e+00	0	32	101	1048576	44	5947
2026-01-07 02:57:49.69	301.46	50.34	-32.9	-33.5	27.9	0.00e+00	0	32	101	1048576	44	5770
2026-01-07 02:57:50.99	302.04	50.03	-32.6	-33.1	28.2	0.00e+00	0	31	101	1048576	44	5546
2026-01-07 02:57:51.71	302.35	49.85	-32.5	-33.1	28.2	0.00e+00	0	31	101	1048576	44	5563
2026-01-07 02:57:53.00	302.91	49.53	-32.6	-33.2	28.1	0.00e+00	0	32	101	1048576	44	5630
2026-01-07 02:57:53.72	303.22	49.36	-32.6	-33.2	28.1	0.00e+00	0	32	101	1048576	44	5622
2026-01-07 02:57:55.02	303.76	49.04	-32.7	-33.2	28.0	0.00e+00	0	32	101	1048576	44	5616
2026-01-07 02:57:55.74	304.06	48.86	-32.6	-33.3	28.1	0.00e+00	0	32	101	1048576	44	5691
2026-01-07 02:57:57.04	304.58	48.54	-32.6	-33.2	28.2	0.00e+00	0	32	101	1048576	44	5603
2026-01-07 02:57:57.76	304.87	48.37	-32.4	-33.0	28.2	0.00e+00	0	32	101	1048576	44	5487
2026-01-07 02:57:59.05	305.37	48.05	-32.4	-33.0	28.2	0.00e+00	0	32	101	1048576	44	5444
2026-01-07 02:57:59.77	305.65	47.87	-32.5	-33.2	28.2	0.00e+00	0	32	101	1048576	44	5593
2026-01-07 02:58:01.07	306.15	47.56	-32.3	-33.0	28.3	0.00e+00	0	32	101	1048576	44	5461
2026-01-07 02:58:01.79	306.41	47.38	-32.4	-33.1	28.2	0.00e+00	0	32	101	1048576	44	5542
2026-01-07 02:58:03.08	306.89	47.06	-32.5	-33.2	28.2	0.00e+00	0	32	101	1048576	44	5625
2026-01-07 02:58:03.80	307.15	46.89	-32.4	-33.0	28.2	0.00e+00	0	31	101	1048576	44	5460
2026-01-07 02:58:05.10	307.61	46.57	-32.3	-32.9	28.3	0.00e+00	0	32	101	1048576	44	5411
2026-01-07 02:58:05.82	307.87	46.39	-32.4	-33.0	28.2	0.00e+00	0	31	101	1048576	44	5449
2026-01-07 02:58:07.11	308.31	46.08	-31.9	-32.5	28.6	0.00e+00	0	31	101	1048576	42	5785
2026-01-07 02:58:07.83	308.56	45.90	-31.9	-32.6	28.6	0.00e+00	0	32	101	1048576	42	5877
2026-01-07 02:58:09.12	308.99	45.59	-32.1	-32.8	28.5	0.00e+00	0	32	101	1048576	42	5997
2026-01-07 02:58:09.85	309.23	45.41	-32.1	-32.6	28.5	0.00e+00	0	32	101	1048576	42	5872
2026-01-07 02:58:11.15	309.66	45.10	-32.0	-32.7	28.5	0.00e+00	0	32	101	1048576	42	5956
2026-01-07 02:58:11.87	309.89	44.92	-32.1	-32.8	28.3	0.00e+00	0	31	101	1048576	42	6020
2026-01-07 02:58:13.17	310.30	44.61	-32.3	-32.9	28.2	0.00e+00	0	32	101	1048576	42	6067
2026-01-07 02:58:13.89	310.52	44.43	-32.5	-33.0	28.0	0.00e+00	0	32	101	1048576	42	6171
2026-01-07 02:58:15.19	310.92	44.12	-32.5	-33.0	28.1	0.00e+00	0	32	101	1048576	42	6172
2026-01-07 02:58:15.91	311.14	43.95	-32.3	-32.8	28.3	0.00e+00	0	31	101	1048576	42	6001
2026-01-07 02:58:17.21	311.52	43.64	-32.3	-33.0	27.9	0.00e+00	0	32	101	1048576	42	6133
2026-01-07 02:58:17.93	311.73	43.47	-32.4	-33.1	28.1	0.00e+00	0	32	101	1048576	42	6241
2026-01-07 02:58:19.23	312.11	43.16	-32.4	-33.1	28.2	0.00e+00	0	31	101	1048576	42	6179
2026-01-07 02:58:19.95	312.31	42.99	-32.3	-32.9	28.1	0.00e+00	0	31	101	1048576	42	6069
2026-01-07 02:58:21.25	312.68	42.68	-32.5	-33.2	28.1	0.00e+00	0	31	101	1048576	42	6280
2026-01-07 02:58:21.98	312.88	42.51	-32.2	-32.7	28.4	0.00e+00	0	32	101	1048576	42	5924
2026-01-07 02:58:23.27	313.23	42.21	-32.4	-33.1	28.2	0.00e+00	0	32	101	1048576	42	6231
2026-01-07 02:58:24.00	313.42	42.04	-32.2	-32.7	28.4	0.00e+00	0	31	101	1048576	42	5963
2026-01-07 02:58:25.30	313.77	41.73	-32.1	-32.7	28.5	0.00e+00	0	31	101	1048576	42	5899
2026-01-07 02:58:26.02	313.96	41.57	-32.1	-32.7	28.5	0.00e+00	0	31	101	1048576	42	5924
2026-01-07 02:58:27.31	314.29	41.27	-32.3	-32.8	28.3	0.00e+00	0	31	101	1048576	42	6028
2026-01-07 02:58:28.04	314.47	41.10	-32.4	-32.9	28.2	0.00e+00	0	32	101	1048576	42	6098
2026-01-07 02:58:29.34	314.80	40.80	-32.1	-32.8	28.5	0.00e+00	0	32	101	1048576	42	5988
2026-01-07 02:58:30.06	314.97	40.64	-32.1	-32.7	28.5	0.00e+00	0	31	101	1048576	42	5912
2026-01-07 02:58:31.35	315.29	40.34	-32.0	-32.5	28.6	0.00e+00	0	32	101	1048576	42	5825
2026-01-07 02:58:32.08	315.46	40.18	-32.0	-32.6	28.6	0.00e+00	0	31	101	1048576	42	5839
2026-01-07 02:58:33.38	315.77	39.89	-32.2	-32.7	28.5	0.00e+00	0	31	101	1048576	42	5938
2026-01-07 02:58:34.10	315.94	39.72	-32.1	-32.7	28.5	0.00e+00	0	32	101	1048576	42	5908
2026-01-07 02:58:35.40	316.24	39.43	-32.2	-33.0	28.3	0.00e+00	0	32	101	1048576	42	6111
2026-01-07 02:58:36.12	316.40	39.27	-32.1	-32.8	28.3	0.00e+00	0	32	101	1048576	42	6029
2026-01-07 02:58:37.42	316.69	38.98	-32.0	-32.6	28.6	0.00e+00	0	32	101	1048576	42	5883
2026-01-07 02:58:38.14	316.85	38.82	-31.8	-32.5	28.7	0.00e+00	0	32	101	1048576	42	5809
2026-01-07 02:58:39.44	317.13	38.54	-31.8	-32.5	28.6	0.00e+00	0	32	101	1048576	42	5804
2026-01-07 02:58:40.16	317.29	38.38	-31.8	-32.3	28.6	0.00e+00	0	31	101	1048576	42	5672
2026-01-07 02:58:41.46	317.56	38.10	-31.7	-32.4	28.8	0.00e+00	0	31	101	1048576	42	5741
2026-01-07 02:58:42.19	317.71	37.94	-31.8	-32.5	28.7	0.00e+00	0	31	101	1048576	42	5806
2026-01-07 02:58:43.48	317.98	37.66	-32.1	-32.8	28.5	0.00e+00	0	32	101	1048576	42	5971
2026-01-07 02:58:44.21	318.13	37.50	-32.0	-32.7	28.6	0.00e+00	0	32	101	1048576	42	5915
2026-01-07 02:58:45.51	318.39	37.23	-31.9	-32.5	28.7	0.00e+00	0	32	101	1048576	42	5771
2026-01-07 02:58:46.23	318.53	37.07	-31.8	-32.5	28.7	0.00e+00	0	32	101	1048576	42	5818
2026-01-07 02:58:47.53	318.79	36.80	-31.7	-32.4	28.8	0.00e+00	0	32	101	1048576	42	5738
2026-01-07 02:58:48.25	318.93	36.64	-31.8	-32.4	28.7	0.00e+00	0	31	101	1048576	42	5702
2026-01-07 02:58:49.55	319.18	36.37	-31.6	-32.1	28.9	0.00e+00	0	31	101	1048576	42	5560
2026-01-07 02:58:50.27	319.31	36.22	-31.8	-32.3	28.7	0.00e+00	0	32	101	1048576	42	5676
2026-01-07 02:58:51.57	319.55	35.95	-31.6	-32.1	28.8	0.00e+00	0	32	101	1048576	42	5563
2026-01-07 02:58:52.29	319.69	35.80	-31.7	-32.4	28.7	0.00e+00	0	32	101	1048576	42	5720
2026-01-07 02:58:53.59	319.92	35.53	-31.6	-32.2	28.8	0.00e+00	0	31	101	1048576	42	5571
2026-01-07 02:58:54.32	320.05	35.39	-31.7	-32.2	28.8	0.00e+00	0	32	101	1048576	42	5616
2026-01-07 02:58:55.61	320.28	35.12	-31.6	-32.2	28.8	0.00e+00	0	31	101	1048576	42	5592
2026-01-07 02:58:56.34	320.41	34.97	-31.8	-32.3	28.7	0.00e+00	0	31	101	1048576	42	5668
2026-01-07 02:58:57.64	320.64	34.71	-31.8	-32.3	28.7	0.00e+00	0	31	101	1048576	42	5671
2026-01-07 02:58:58.36	320.76	34.57	-31.8	-32.4	28.7	0.00e+00	0	32	101	1048576	42	5707
2026-01-07 02:58:59.66	320.98	34.31	-31.9	-32.6	28.5	0.00e+00	0	32	101	1048576	42	5887
2026-01-07 02:59:00.38	321.10	34.17	-31.9	-32.7	28.5	0.00e+00	0	32	101	1048576	42	5899
2026-01-07 02:59:01.68	321.31	33.91	-32.0	-32.5	28.6	0.00e+00	0	32	101	1048576	42	5810
2026-01-07 02:59:02.40	321.43	33.77	-32.0	-32.6	28.5	0.00e+00	0	32	101	1048576	42	5853
2026-01-07 02:59:03.70	321.64	33.51	-32.1	-32.8	28.4	0.00e+00	0	32	101	1048576	42	5985
2026-01-07 02:59:04.42	321.75	33.37	-32.1	-32.8	28.6	0.00e+00	0	32	101	1048576	42	5972
2026-01-07 02:59:05.72	321.96	33.12	-32.0	-32.7	28.4	0.00e+00	0	32	101	1048576	42	5946
2026-01-07 02:59:06.45	322.07	32.98	-32.0	-32.6	28.6	0.00e+00	0	32	101	1048576	42	5891
2026-01-07 02:59:07.75	322.27	32.73	-32.0	-32.7	28.6	0.00e+00	0	32	101	1048576	42	5913
2026-01-07 02:59:08.47	322.38	32.60	-31.9	-32.6	28.6	0.00e+00	0	32	101	1048576	42	5883
2026-01-07 02:59:09.76	322.57	32.35	-32.0	-32.5	28.6	0.00e+00	0	32	101	1048576	42	5799
2026-01-07 02:59:10.49	322.68	32.21	-32.0	-32.7	28.5	0.00e+00	0	32	101	1048576	42	5908
2026-01-07 02:59:11.79	322.87	31.97	-31.9	-32.5	28.5	0.00e+00	0	31	101	1048576	42	5828
2026-01-07 02:59:12.51	322.98	31.84	-31.8	-32.5	28.5	0.00e+00	0	31	101	1048576	42	5805
2026-01-07 02:59:13.81	323.16	31.60	-31.7	-32.4	28.7	0.00e+00	0	32	101	1048576	42	5712
2026-01-07 02:59:14.53	323.27	31.46	-31.7	-32.3	28.7	0.00e+00	0	32	101	1048576	42	5652
2026-01-07 02:59:15.83	323.45	31.22	-31.8	-32.3	28.7	0.00e+00	0	32	101	1048576	42	5669
2026-01-07 02:59:16.55	323.55	31.09	-31.9	-32.4	28.6	0.00e+00	0	31	101	1048576	42	5756
2026-01-07 02:59:17.85	323.73	30.86	-31.9	-32.5	28.6	0.00e+00	0	32	101	1048576	42	5772
2026-01-07 02:59:18.57	323.83	30.73	-31.9	-32.5	28.6	0.00e+00	0	32	101	1048576	42	5771
2026-01-07 02:59:19.87	324.00	30.49	-31.9	-32.4	28.6	0.00e+00	0	31	101	1048576	42	5720
2026-01-07 02:59:20.59	324.10	30.37	-32.0	-32.5	28.5	0.00e+00	0	32	101	1048576	42	5825
2026-01-07 02:59:21.89	324.27	30.13	-32.0	-32.6	28.5	0.00e+00	0	32	101	1048576	42	5843
2026-01-07 02:59:22.61	324.36	30.01	-32.2	-32.7	28.4	0.00e+00	0	32	101	1048576	42	5949
2026-01-07 02:59:23.91	324.53	29.78	-32.2	-32.7	28.3	0.00e+00	0	31	101	1048576	42	5933
2026-01-07 02:59:24.63	324.62	29.65	-32.3	-32.8	28.4	0.00e+00	0	32	101	1048576	42	6023
2026-01-07 02:59:25.93	324.78	29.43	-32.4	-32.9	28.2	0.00e+00	0	32	101	1048576	42	6077
2026-01-07 02:59:26.65	324.87	29.30	-32.3	-32.9	28.3	0.00e+00	0	32	101	1048576	42	6053
2026-01-07 02:59:27.95	325.03	29.08	-32.3	-32.8	28.2	0.00e+00	0	32	101	1048576	42	6023
2026-01-07 02:59:28.67	325.12	28.96	-32.3	-32.9	28.3	0.00e+00	0	32	101	1048576	42	6045
2026-01-07 02:59:29.98	325.28	28.73	-32.4	-32.9	28.2	0.00e+00	0	32	101	1048576	42	6077
2026-01-07 02:59:30.70	325.37	28.61	-32.3	-32.8	28.3	0.00e+00	0	32	101	1048576	42	6020
2026-01-07 02:59:32.00	325.52	28.39	-32.3	-32.8	28.4	0.00e+00	0	31	101	1048576	42	6015
2026-01-07 02:59:32.72	325.60	28.27	-32.2	-32.9	28.4	0.00e+00	0	32	101	1048576	42	6066
2026-01-07 02:59:34.02	325.75	28.06	-32.2	-32.7	28.4	0.00e+00	0	31	101	1048576	42	5957
2026-01-07 02:59:34.74	325.84	27.94	-32.2	-32.7	28.4	0.00e+00	0	31	101	1048576	42	5936
2026-01-07 02:59:36.04	325.98	27.72	-32.1	-32.7	28.3	0.00e+00	0	32	101	1048576	42	5901
2026-01-07 02:59:36.76	326.07	27.61	-32.1	-32.7	28.4	0.00e+00	0	31	101	1048576	42	5902
2026-01-07 02:59:38.06	326.21	27.39	-32.1	-32.6	28.4	0.00e+00	0	32	101	1048576	42	5894
2026-01-07 02:59:38.78	326.29	27.28	-32.0	-32.6	28.5	0.00e+00	0	31	101	1048576	42	5837
2026-01-07 02:59:40.08	326.43	27.07	-32.0	-32.7	28.4	0.00e+00	0	31	101	1048576	42	5930
2026-01-07 02:59:40.80	326.51	26.95	-32.0	-32.7	28.5	0.00e+00	0	32	101	1048576	42	5936
2026-01-07 02:59:42.10	326.65	26.74	-32.1	-32.8	28.4	0.00e+00	0	32	101	1048576	42	6005
2026-01-07 02:59:42.82	326.73	26.63	-32.2	-32.8	28.3	0.00e+00	0	32	101	1048576	42	6031
2026-01-07 02:59:44.12	326.86	26.43	-32.1	-32.8	28.4	0.00e+00	0	32	101	1048576	42	6005
2026-01-07 02:59:44.84	326.94	26.31	-32.3	-33.0	28.3	0.00e+00	0	32	101	1048576	42	6109
2026-01-07 02:59:46.14	327.07	26.11	-32.3	-33.0	28.3	0.00e+00	0	32	101	1048576	42	6150
2026-01-07 02:59:46.87	327.15	26.00	-32.4	-33.1	28.2	0.00e+00	0	32	101	1048576	42	6233
2026-01-07 02:59:48.17	327.28	25.80	-32.4	-33.1	28.2	0.00e+00	0	32	101	1048576	42	6204
2026-01-07 02:59:48.89	327.35	25.68	-32.4	-33.1	28.2	0.00e+00	0	31	101	1048576	42	6196
2026-01-07 02:59:50.19	327.48	25.49	-32.5	-33.0	28.1	0.00e+00	0	32	101	1048576	42	6167
2026-01-07 02:59:50.91	327.55	25.38	-32.4	-32.9	28.2	0.00e+00	0	32	101	1048576	42	6092
2026-01-07 02:59:52.21	327.68	25.18	-32.4	-33.0	28.2	0.00e+00	0	31	101	1048576	42	6114
2026-01-07 02:59:52.93	327.75	25.07	-32.3	-32.9	28.2	0.00e+00	0	32	101	1048576	42	6068
2026-01-07 02:59:54.23	327.87	24.88	-32.4	-33.1	28.2	0.00e+00	0	31	101	1048576	42	6202
2026-01-07 02:59:54.95	327.94	24.77	-32.4	-33.1	28.2	0.00e+00	0	32	101	1048576	42	6180
2026-01-07 02:59:56.25	328.06	24.58	-32.3	-32.9	28.2	0.00e+00	0	32	101	1048576	42	6046
2026-01-07 02:59:56.98	328.13	24.47	-32.3	-32.9	28.2	0.00e+00	0	32	101	1048576	42	6036
2026-01-07 02:59:58.28	328.25	24.28	-32.4	-33.1	28.1	0.00e+00	0	32	101	1048576	42	6220
2026-01-07 02:59:59.00	328.31	24.17	-32.4	-33.1	28.1	0.00e+00	0	32	101	1048576	42	6228
2026-01-07 03:00:00.30	328.43	23.99	-32.5	-33.2	28.1	0.00e+00	0	32	101	1048576	42	6252
2026-01-07 03:00:01.02	328.50	23.88	-32.5	-33.2	28.1	0.00e+00	0	32	101	1048576	42	6253
2026-01-07 03:00:02.32	328.61	23.69	-32.6	-33.3	28.0	0.00e+00	0	32	101	1048576	42	6325
2026-01-07 03:00:03.04	328.68	23.59	-32.7	-33.4	27.9	0.00e+00	0	32	101	1048576	42	6434
2026-01-07 03:00:04.34	328.79	23.41	-32.7	-33.4	27.9	0.00e+00	0	32	101	1048576	42	6423
2026-01-07 03:00:05.06	328.85	23.31	-32.9	-33.6	27.9	0.00e+00	0	32	101	1048576	42	6561
2026-01-07 03:00:06.36	328.97	23.12	-32.8	-33.5	27.9	0.00e+00	0	32	101	1048576	42	6529
2026-01-07 03:00:07.08	329.03	23.02	-32.8	-33.5	27.8	0.00e+00	0	32	101	1048576	42	6536
2026-01-07 03:00:08.38	329.14	22.84	-32.9	-33.6	27.8	0.00e+00	0	32	101	1048576	42	6578
2026-01-07 03:00:09.10	329.20	22.74	-32.9	-33.6	27.8	0.00e+00	0	32	101	1048576	42	6559
2026-01-07 03:00:10.40	329.30	22.56	-32.9	-33.6	27.7	0.00e+00	0	31	101	1048576	42	6596
2026-01-07 03:00:11.12	329.36	22.46	-33.1	-33.8	27.6	0.00e+00	0	31	101	1048576	42	6752
2026-01-07 03:00:12.42	329.47	22.29	-33.0	-33.7	27.7	0.00e+00	0	32	101	1048576	42	6673
2026-01-07 03:00:13.14	329.53	22.19	-33.0	-33.6	27.7	0.00e+00	0	32	101	1048576	44	5839
2026-01-07 03:00:14.44	329.63	22.01	-32.9	-33.5	27.7	0.00e+00	0	32	101	1048576	44	5773
2026-01-07 03:00:15.16	329.69	21.92	-33.1	-33.6	27.6	0.00e+00	0	32	101	1048576	44	5876
2026-01-07 03:00:16.46	329.79	21.74	-33.0	-33.5	27.7	0.00e+00	0	32	101	1048576	44	5819
2026-01-07 03:00:17.19	329.85	21.64	-33.0	-33.5	27.7	0.00e+00	0	32	101	1048576	44	5823
2026-01-07 03:00:18.49	329.95	21.47	-33.2	-33.8	27.5	0.00e+00	0	32	101	1048576	44	5984
2026-01-07 03:00:19.20	330.01	21.38	-33.1	-33.8	27.6	0.00e+00	0	32	101	1048576	44	5998
2026-01-07 03:00:20.50	330.11	21.21	-33.1	-33.8	27.6	0.00e+00	0	32	101	1048576	44	5985
2026-01-07 03:00:21.23	330.16	21.11	-33.0	-33.8	27.7	0.00e+00	0	32	101	1048576	44	5974
2026-01-07 03:00:22.52	330.26	20.95	-33.1	-33.8	27.6	0.00e+00	0	32	101	1048576	44	5994
2026-01-07 03:00:23.25	330.31	20.85	-33.1	-33.7	27.6	0.00e+00	0	32	101	1048576	44	5922
2026-01-07 03:00:24.55	330.41	20.68	-33.2	-33.9	27.4	0.00e+00	0	32	101	1048576	44	6088
2026-01-07 03:00:25.27	330.46	20.59	-33.3	-34.0	27.3	0.00e+00	0	32	101	1048576	44	6155
2026-01-07 03:00:26.57	330.56	20.43	-33.3	-34.0	27.4	0.00e+00	0	32	101	1048576	44	6159
2026-01-07 03:00:27.29	330.61	20.33	-33.4	-34.0	27.4	0.00e+00	0	32	101	1048576	44	6137
2026-01-07 03:00:28.59	330.70	20.17	-33.3	-33.9	27.4	0.00e+00	0	32	101	1048576	44	6062
2026-01-07 03:00:29.31	330.75	20.08	-33.4	-34.0	27.4	0.00e+00	0	32	101	1048576	44	6111
2026-01-07 03:00:30.61	330.85	19.92	-33.4	-34.0	27.3	0.00e+00	0	32	101	1048576	44	6159
2026-01-07 03:00:31.33	330.90	19.83	-33.5	-34.0	27.3	0.00e+00	0	32	101	1048576	44	6162
2026-01-07 03:00:32.63	330.99	19.67	-33.5	-34.1	27.2	0.00e+00	0	32	101	1048576	44	6200
2026-01-07 03:00:33.35	331.04	19.58	-33.5	-34.1	27.2	0.00e+00	0	32	101	1048576	44	6187
2026-01-07 03:00:34.65	331.13	19.42	-33.5	-34.2	27.2	0.00e+00	0	32	101	1048576	44	6252
2026-01-07 03:00:35.37	331.18	19.33	-33.7	-34.4	27.0	0.00e+00	0	32	101	1048576	44	6455
2026-01-07 03:00:36.67	331.26	19.17	-33.7	-34.4	27.1	0.00e+00	0	32	101	1048576	44	6403
2026-01-07 03:00:37.40	331.31	19.08	-33.7	-34.2	27.1	0.00e+00	0	32	101	1048576	44	6317
2026-01-07 03:00:38.70	331.40	18.93	-33.7	-34.2	27.1	0.00e+00	0	32	101	1048576	44	6300
2026-01-07 03:00:39.42	331.45	18.84	-33.8	-34.4	27.0	0.00e+00	0	32	101	1048576	44	6428
