passes_logs/2026/01/07/R4.6S_Anadyr_2ch/R4.6S_Anadyr_2ch__20260107_191425_NOAA_20_JPSS-1_rec.log

#Pass ID: 20260107_191425_NOAA 20 (JPSS-1)
#Satellite: NOAA 20 (JPSS-1)
#Configuration: NOAA 20
#almurnet v.1.7.20251203
#Start time: 2026-01-07 19:14:27

#Version: 2.2.20231116
#Station: R4.6S_Anadyr_2ch
#Location: 177.4865 lon 64.73178 lat
#TLE: 1 43013U 17073A   25350.93759711  .00000080  00000+0  58734-4 0  9994
#TLE: 2 43013  98.7603 287.1885 0002156  81.1496 278.9924 14.19526878418610

#Time	Az	El	Level	Level2	SNR	BER	BlckErr	Temp	State	Recorded	gain1	gain2
2026-01-07 19:14:27.24	50.40	0.08	-51.6	-67.0	3.5	1.51e+00	0	33	0	0	60	109135
2026-01-07 19:14:28.25	50.32	0.13	-51.6	-67.3	3.6	1.51e+00	0	34	104	0	60	112926
2026-01-07 19:14:29.26	50.24	0.18	-51.6	-67.3	3.6	1.51e+00	0	34	104	0	60	112935
2026-01-07 19:14:30.27	50.17	0.23	-51.6	-67.3	3.6	1.51e+00	0	34	104	0	60	112427
2026-01-07 19:14:31.28	50.09	0.28	-51.6	-67.3	3.6	1.51e+00	0	34	104	0	60	113348
2026-01-07 19:14:32.29	50.01	0.33	-51.6	-67.3	3.6	1.51e+00	0	34	104	0	60	112587
2026-01-07 19:14:33.30	49.94	0.38	-51.6	-67.3	3.6	1.51e+00	0	34	104	0	60	113205
2026-01-07 19:14:34.31	49.86	0.42	-51.6	-67.3	3.6	1.51e+00	0	34	104	0	60	112654
2026-01-07 19:14:35.33	49.78	0.47	-51.6	-67.3	3.6	1.51e+00	0	34	104	0	60	112605
2026-01-07 19:14:36.34	49.70	0.52	-51.6	-67.3	3.6	1.51e+00	0	34	104	0	60	112475
2026-01-07 19:14:37.35	49.62	0.57	-51.6	-67.3	3.6	1.51e+00	0	34	104	0	60	112940
2026-01-07 19:14:38.36	49.54	0.62	-51.6	-67.3	3.6	1.51e+00	0	34	104	0	60	113346
2026-01-07 19:14:39.37	49.47	0.67	-51.6	-67.3	3.6	1.51e+00	0	34	104	0	60	113272
2026-01-07 19:14:40.38	49.39	0.72	-51.6	-67.3	3.6	1.51e+00	0	34	104	0	60	112587
2026-01-07 19:14:41.39	49.31	0.77	-51.6	-67.3	3.6	1.51e+00	0	34	104	0	60	112865
2026-01-07 19:14:42.40	49.23	0.82	-51.6	-67.3	3.6	1.51e+00	0	34	104	0	60	113133
2026-01-07 19:14:43.41	49.15	0.87	-51.6	-67.3	3.6	1.51e+00	0	34	104	0	60	112747
2026-01-07 19:14:44.42	49.07	0.92	-51.6	-67.3	3.6	1.51e+00	0	34	104	0	60	112688
2026-01-07 19:14:45.43	48.99	0.97	-51.6	-67.3	3.6	1.51e+00	0	34	104	0	60	112923
2026-01-07 19:14:46.45	48.90	1.02	-51.6	-67.3	3.6	1.51e+00	0	34	104	0	60	112941
2026-01-07 19:14:47.46	48.82	1.07	-51.6	-67.3	3.6	1.51e+00	0	34	104	0	60	112853
2026-01-07 19:14:48.47	48.74	1.12	-51.6	-67.3	3.6	1.51e+00	0	34	104	0	60	112593
2026-01-07 19:14:49.48	48.66	1.17	-51.6	-67.3	3.6	1.51e+00	0	34	104	0	60	113067
2026-01-07 19:14:50.49	48.58	1.22	-51.6	-67.3	3.6	1.51e+00	0	34	104	0	60	112848
2026-01-07 19:14:51.50	48.49	1.27	-51.6	-67.3	3.6	1.51e+00	0	34	104	0	60	113076
2026-01-07 19:14:52.51	48.41	1.32	-51.6	-67.3	3.6	1.51e+00	0	34	104	0	60	113252
2026-01-07 19:14:53.52	48.33	1.37	-51.6	-67.3	3.6	1.51e+00	0	34	104	0	60	112803
2026-01-07 19:14:54.53	48.25	1.42	-51.6	-67.3	3.6	1.51e+00	0	34	104	0	60	112690
2026-01-07 19:14:55.54	48.16	1.47	-51.6	-67.3	3.6	1.51e+00	0	34	104	0	60	112691
2026-01-07 19:14:56.55	48.08	1.52	-51.6	-67.3	3.6	1.51e+00	0	35	104	0	60	113211
2026-01-07 19:14:57.56	47.99	1.56	-51.6	-67.3	3.6	1.51e+00	0	34	104	0	60	112518
2026-01-07 19:14:58.58	47.91	1.62	-51.6	-67.3	3.6	1.51e+00	0	34	104	0	60	112931
2026-01-07 19:14:59.59	47.82	1.67	-51.6	-67.3	3.6	1.51e+00	0	34	104	0	60	112628
2026-01-07 19:15:00.60	47.74	1.72	-51.6	-67.3	3.6	1.51e+00	0	35	104	0	60	112595
2026-01-07 19:15:01.61	47.65	1.77	-51.6	-67.3	3.6	1.51e+00	0	35	104	0	60	113060
2026-01-07 19:15:02.62	47.57	1.82	-51.6	-67.3	3.6	1.51e+00	0	35	104	0	60	112562
2026-01-07 19:15:03.63	47.48	1.87	-51.6	-67.3	3.6	1.51e+00	0	35	104	0	60	112461
2026-01-07 19:15:04.64	47.40	1.92	-51.6	-67.3	3.6	1.51e+00	0	35	104	0	60	113109
2026-01-07 19:15:05.65	47.31	1.97	-51.6	-67.3	3.6	1.51e+00	0	35	104	0	60	112910
2026-01-07 19:15:06.66	47.22	2.02	-51.6	-67.2	3.6	1.51e+00	0	35	104	0	60	112132
2026-01-07 19:15:07.67	47.14	2.07	-51.6	-67.3	3.6	1.51e+00	0	34	104	0	60	113489
2026-01-07 19:15:08.68	47.05	2.12	-51.6	-67.3	3.6	1.51e+00	0	34	104	0	60	113512
2026-01-07 19:15:09.69	46.96	2.17	-51.6	-67.3	3.6	1.51e+00	0	34	104	0	60	112756
2026-01-07 19:15:10.71	46.87	2.22	-51.6	-67.3	3.6	1.51e+00	0	34	104	0	60	113039
2026-01-07 19:15:11.72	46.78	2.27	-51.6	-67.3	3.6	1.51e+00	0	35	104	0	60	113270
2026-01-07 19:15:12.73	46.69	2.32	-51.6	-67.3	3.6	1.51e+00	0	35	104	0	60	112913
2026-01-07 19:15:13.74	46.61	2.37	-51.6	-67.3	3.6	1.51e+00	0	35	104	0	60	112760
2026-01-07 19:15:14.75	46.52	2.42	-51.6	-67.2	3.6	1.51e+00	0	35	104	0	60	112150
2026-01-07 19:15:15.76	46.43	2.47	-51.6	-67.3	3.6	1.51e+00	0	35	104	0	60	113060
2026-01-07 19:15:16.77	46.34	2.52	-51.6	-67.3	3.6	1.51e+00	0	35	104	0	60	112516
2026-01-07 19:15:17.78	46.25	2.57	-51.6	-67.3	3.6	1.51e+00	0	35	104	0	60	113130
2026-01-07 19:15:18.79	46.16	2.62	-51.6	-67.3	3.6	1.51e+00	0	35	104	0	60	112775
2026-01-07 19:15:19.80	46.06	2.67	-51.6	-67.3	3.6	1.51e+00	0	35	104	0	60	112891
2026-01-07 19:15:20.82	45.97	2.72	-51.6	-67.3	3.6	1.51e+00	0	35	104	0	60	112778
2026-01-07 19:15:21.83	45.88	2.77	-51.6	-67.3	3.6	1.51e+00	0	35	104	0	60	113000
2026-01-07 19:15:22.84	45.79	2.82	-51.6	-67.3	3.6	1.51e+00	0	35	104	0	60	113511
2026-01-07 19:15:23.85	45.70	2.87	-51.6	-67.2	3.6	1.51e+00	0	35	104	0	60	112336
2026-01-07 19:15:24.86	45.60	2.92	-51.6	-67.3	3.6	1.51e+00	0	35	104	0	60	112969
2026-01-07 19:15:25.87	45.51	2.97	-51.6	-67.3	3.6	1.51e+00	0	35	104	0	60	113087
2026-01-07 19:15:26.88	45.42	3.02	-51.6	-67.3	3.6	1.51e+00	0	35	104	0	60	113018
2026-01-07 19:15:27.89	45.32	3.07	-51.6	-67.3	3.6	1.51e+00	0	35	104	0	60	113175
2026-01-07 19:15:28.91	45.23	3.13	-51.6	-67.3	3.6	1.51e+00	0	35	104	0	60	113173
2026-01-07 19:15:29.92	45.14	3.18	-51.6	-67.3	3.6	1.51e+00	0	35	104	0	60	112881
2026-01-07 19:15:30.93	45.04	3.23	-51.6	-67.3	3.6	1.51e+00	0	35	104	0	60	113124
2026-01-07 19:15:31.94	44.95	3.28	-51.6	-67.3	3.6	1.51e+00	0	35	104	0	60	112510
2026-01-07 19:15:32.95	44.85	3.33	-51.6	-67.3	3.6	1.51e+00	0	35	104	0	60	113049
2026-01-07 19:15:33.96	44.76	3.38	-51.5	-67.3	3.6	1.51e+00	0	35	104	0	60	113436
2026-01-07 19:15:34.97	44.66	3.43	-51.5	-67.3	3.6	1.51e+00	0	35	104	0	60	112463
2026-01-07 19:15:35.98	44.56	3.48	-51.6	-67.3	3.6	1.51e+00	0	35	104	0	60	112649
2026-01-07 19:15:36.99	44.47	3.53	-51.6	-67.3	3.6	1.51e+00	0	35	104	0	60	112994
2026-01-07 19:15:38.00	44.37	3.58	-51.5	-67.3	3.6	1.51e+00	0	35	104	0	60	113365
2026-01-07 19:15:39.01	44.27	3.63	-51.5	-67.3	3.6	1.51e+00	0	35	104	0	60	112912
2026-01-07 19:15:40.02	44.17	3.68	-51.5	-67.3	3.6	1.51e+00	0	35	104	0	60	112820
2026-01-07 19:15:41.03	44.08	3.73	-51.6	-67.3	3.6	1.51e+00	0	35	104	0	60	113642
2026-01-07 19:15:42.05	43.98	3.79	-51.5	-67.3	3.6	1.51e+00	0	35	104	0	60	112824
2026-01-07 19:15:43.06	43.88	3.84	-51.6	-67.3	3.6	1.51e+00	0	35	104	0	60	112718
2026-01-07 19:15:44.07	43.78	3.89	-51.6	-67.3	3.6	1.51e+00	0	35	104	0	60	112846
2026-01-07 19:15:45.08	43.68	3.94	-51.6	-67.3	3.6	1.51e+00	0	35	104	0	60	113021
2026-01-07 19:15:46.09	43.58	3.99	-51.5	-67.3	3.6	1.51e+00	0	35	104	0	60	112471
2026-01-07 19:15:47.10	43.48	4.04	-51.6	-67.3	3.6	1.51e+00	0	35	104	0	60	112765
2026-01-07 19:15:48.11	43.38	4.09	-51.6	-67.3	3.6	1.51e+00	0	35	104	0	60	113198
2026-01-07 19:15:49.12	43.28	4.14	-51.6	-67.3	3.6	1.51e+00	0	35	104	0	60	112604
2026-01-07 19:15:50.13	43.18	4.19	-51.6	-67.3	3.6	1.51e+00	0	35	104	0	60	112970
2026-01-07 19:15:51.14	43.08	4.24	-51.6	-67.4	3.6	1.51e+00	0	35	104	0	60	113774
2026-01-07 19:15:52.16	42.97	4.30	-51.6	-67.4	3.6	1.51e+00	0	35	104	0	60	113691
2026-01-07 19:15:53.17	42.87	4.35	-51.6	-67.3	3.6	1.51e+00	0	35	104	0	60	113619
2026-01-07 19:15:54.18	42.77	4.40	-51.6	-67.3	3.6	1.51e+00	0	35	104	0	60	113398
2026-01-07 19:15:55.19	42.66	4.45	-51.6	-67.3	3.6	1.51e+00	0	35	104	0	60	112960
2026-01-07 19:15:56.20	42.56	4.50	-51.6	-67.3	3.6	1.51e+00	0	35	104	0	60	113238
2026-01-07 19:15:57.21	42.46	4.55	-51.6	-67.3	3.6	1.51e+00	0	35	104	0	60	112558
2026-01-07 19:15:58.22	42.35	4.60	-51.6	-67.3	3.6	1.51e+00	0	35	104	0	60	112948
2026-01-07 19:15:59.23	42.25	4.65	-51.6	-67.3	3.6	1.51e+00	0	35	104	0	60	113082
2026-01-07 19:16:00.25	42.14	4.71	-51.6	-67.2	3.6	1.51e+00	0	35	104	0	60	112273
2026-01-07 19:16:01.26	42.04	4.76	-51.6	-67.3	3.6	1.51e+00	0	35	104	0	60	113263
2026-01-07 19:16:02.27	41.93	4.81	-51.6	-67.3	3.6	1.51e+00	0	35	104	0	60	112760
2026-01-07 19:16:03.28	41.83	4.86	-51.6	-67.3	3.6	1.51e+00	0	35	104	0	60	112506
2026-01-07 19:16:04.29	41.72	4.91	-51.6	-67.3	3.6	1.51e+00	0	35	104	0	60	112832
2026-01-07 19:16:05.30	41.61	4.96	-51.6	-67.3	3.6	1.51e+00	0	35	104	0	60	112880
2026-01-07 19:16:06.31	41.51	5.01	-51.6	-67.3	3.6	1.51e+00	0	35	104	0	60	113165
2026-01-07 19:16:07.33	41.40	5.06	-51.6	-67.4	3.6	1.51e+00	0	35	104	0	60	113664
2026-01-07 19:16:08.34	41.29	5.11	-51.6	-67.3	3.6	1.51e+00	0	35	104	0	60	112841
2026-01-07 19:16:09.35	41.18	5.17	-51.6	-67.3	3.6	1.51e+00	0	35	104	0	60	112442
2026-01-07 19:16:10.36	41.07	5.22	-51.6	-67.3	3.6	1.51e+00	0	35	104	0	60	112786
2026-01-07 19:16:11.37	40.96	5.27	-51.6	-67.3	3.6	1.51e+00	0	35	104	0	60	113106
2026-01-07 19:16:12.38	40.85	5.32	-51.6	-67.3	3.6	1.51e+00	0	35	104	0	60	112947
2026-01-07 19:16:13.39	40.74	5.37	-51.6	-67.3	3.6	1.51e+00	0	35	104	0	60	112861
2026-01-07 19:16:14.40	40.63	5.42	-51.6	-67.3	3.6	1.51e+00	0	35	104	0	60	112534
2026-01-07 19:16:15.41	40.52	5.47	-51.6	-67.3	3.6	1.51e+00	0	35	104	0	60	113306
2026-01-07 19:16:16.42	40.41	5.52	-51.6	-67.3	3.6	1.51e+00	0	35	104	0	60	112962
2026-01-07 19:16:17.44	40.30	5.58	-51.6	-67.3	3.6	1.51e+00	0	35	104	0	60	112733
2026-01-07 19:16:18.45	40.19	5.63	-51.6	-67.3	3.5	1.51e+00	0	35	104	0	60	112622
2026-01-07 19:16:19.46	40.07	5.68	-51.6	-67.3	3.6	1.51e+00	0	35	104	0	60	113170
2026-01-07 19:16:20.47	39.96	5.73	-51.6	-67.3	3.6	1.51e+00	0	35	104	0	60	113290
2026-01-07 19:16:21.48	39.85	5.78	-51.6	-67.3	3.6	1.51e+00	0	35	104	0	60	113103
2026-01-07 19:16:22.49	39.73	5.83	-51.6	-67.3	3.6	1.51e+00	0	35	104	0	60	113426
2026-01-07 19:16:23.50	39.62	5.88	-51.6	-67.3	3.6	1.51e+00	0	35	104	0	60	113073
2026-01-07 19:16:24.51	39.51	5.93	-51.6	-67.3	3.6	1.51e+00	0	35	104	0	60	112811
2026-01-07 19:16:25.52	39.39	5.98	-51.6	-67.3	3.6	1.51e+00	0	35	104	0	60	112905
2026-01-07 19:16:26.53	39.28	6.04	-51.6	-67.3	3.6	1.51e+00	0	35	104	0	60	112988
2026-01-07 19:16:27.54	39.16	6.09	-51.6	-67.3	3.6	1.51e+00	0	35	104	0	60	112958
2026-01-07 19:16:28.55	39.04	6.14	-51.6	-67.3	3.6	1.51e+00	0	35	104	0	60	112524
2026-01-07 19:16:29.57	38.93	6.19	-51.6	-67.3	3.6	1.51e+00	0	35	104	0	60	113082
2026-01-07 19:16:30.58	38.81	6.24	-51.6	-67.3	3.6	1.51e+00	0	35	104	0	60	112617
2026-01-07 19:16:31.59	38.69	6.29	-51.6	-67.3	3.6	1.51e+00	0	35	104	0	60	112982
2026-01-07 19:16:32.60	38.57	6.34	-51.6	-67.3	3.6	1.51e+00	0	35	104	0	60	112764
2026-01-07 19:16:33.61	38.46	6.39	-51.6	-67.3	3.6	1.51e+00	0	35	104	0	60	113362
2026-01-07 19:16:34.62	38.34	6.44	-51.6	-67.3	3.6	1.51e+00	0	35	104	0	60	112962
2026-01-07 19:16:35.63	38.22	6.49	-51.6	-67.3	3.6	1.51e+00	0	35	104	0	60	112878
2026-01-07 19:16:36.64	38.10	6.55	-51.6	-67.3	3.6	1.51e+00	0	35	104	0	60	113162
2026-01-07 19:16:37.65	37.98	6.60	-51.6	-67.3	3.6	1.51e+00	0	35	104	0	60	113616
2026-01-07 19:16:38.66	37.86	6.65	-51.6	-67.3	3.6	1.51e+00	0	35	104	0	60	113624
2026-01-07 19:16:39.68	37.74	6.70	-51.6	-67.3	3.6	1.51e+00	0	35	104	0	60	113448
2026-01-07 19:16:40.69	37.62	6.75	-51.6	-67.3	3.6	1.51e+00	0	35	104	0	60	112626
2026-01-07 19:16:41.70	37.49	6.80	-51.6	-67.3	3.6	1.51e+00	0	35	104	0	60	113037
2026-01-07 19:16:42.71	37.37	6.85	-51.6	-67.3	3.6	1.51e+00	0	35	104	0	60	113270
2026-01-07 19:16:43.72	37.25	6.90	-51.6	-67.3	3.6	1.51e+00	0	35	104	0	60	113151
2026-01-07 19:16:44.73	37.13	6.95	-51.6	-67.3	3.6	1.51e+00	0	35	104	0	60	112800
2026-01-07 19:16:45.74	37.00	7.00	-51.6	-67.3	3.6	1.51e+00	0	35	104	0	60	113219
2026-01-07 19:16:46.75	36.88	7.05	-51.6	-67.3	3.6	1.51e+00	0	35	104	0	60	113130
2026-01-07 19:16:47.77	36.75	7.11	-51.6	-67.2	3.6	1.51e+00	0	35	104	0	60	112296
2026-01-07 19:16:48.78	36.63	7.16	-51.6	-67.3	3.6	1.51e+00	0	35	104	0	60	112792
2026-01-07 19:16:49.79	36.50	7.21	-51.6	-67.3	3.6	1.51e+00	0	35	104	0	60	112693
2026-01-07 19:16:50.79	36.38	7.26	-51.6	-67.3	3.5	1.51e+00	0	35	104	0	60	112839
2026-01-07 19:16:51.81	36.25	7.31	-51.6	-67.3	3.6	1.51e+00	0	35	104	0	60	112834
2026-01-07 19:16:52.82	36.13	7.36	-51.6	-67.3	3.6	1.51e+00	0	35	104	0	60	112984
2026-01-07 19:16:53.83	36.00	7.41	-51.6	-67.3	3.6	1.51e+00	0	35	104	0	60	113270
2026-01-07 19:16:54.84	35.87	7.46	-51.6	-67.3	3.6	1.51e+00	0	35	104	0	60	112728
2026-01-07 19:16:55.85	35.74	7.51	-51.6	-67.3	3.6	1.51e+00	0	35	104	0	60	113033
2026-01-07 19:16:56.86	35.62	7.56	-51.6	-67.3	3.6	1.51e+00	0	35	104	0	60	113092
2026-01-07 19:16:57.87	35.49	7.61	-51.6	-67.3	3.6	1.51e+00	0	35	104	0	60	112975
2026-01-07 19:16:58.88	35.36	7.66	-51.6	-67.3	3.6	1.51e+00	0	35	104	0	60	113077
2026-01-07 19:16:59.89	35.23	7.71	-51.6	-67.3	3.6	1.51e+00	0	35	104	0	60	112873
2026-01-07 19:17:00.90	35.10	7.76	-51.6	-67.3	3.6	1.51e+00	0	35	104	0	60	112836
2026-01-07 19:17:01.92	34.97	7.81	-51.6	-67.3	3.6	1.51e+00	0	35	104	0	60	112628
2026-01-07 19:17:02.93	34.83	7.86	-51.6	-67.3	3.6	1.51e+00	0	35	104	0	60	113147
2026-01-07 19:17:03.94	34.70	7.91	-51.6	-67.3	3.6	1.51e+00	0	35	104	0	60	113088
2026-01-07 19:17:04.95	34.57	7.96	-51.6	-67.3	3.6	1.51e+00	0	35	104	0	60	112791
2026-01-07 19:17:05.96	34.44	8.01	-51.6	-67.3	3.6	1.51e+00	0	35	104	0	60	112783
2026-01-07 19:17:06.97	34.31	8.06	-51.6	-67.3	3.6	1.51e+00	0	35	104	0	60	113145
2026-01-07 19:17:07.98	34.17	8.11	-51.6	-67.3	3.6	1.51e+00	0	35	104	0	60	113050
2026-01-07 19:17:08.99	34.04	8.16	-51.6	-67.3	3.6	1.51e+00	0	35	104	0	60	112750
2026-01-07 19:17:10.00	33.90	8.21	-51.6	-67.3	3.6	1.51e+00	0	35	104	0	60	112483
2026-01-07 19:17:11.01	33.77	8.26	-51.6	-67.3	3.6	1.51e+00	0	35	104	0	60	113391
2026-01-07 19:17:12.03	33.63	8.31	-51.6	-67.3	3.6	1.51e+00	0	35	104	0	60	112675
2026-01-07 19:17:13.04	33.50	8.36	-51.6	-67.3	3.5	1.51e+00	0	35	104	0	60	113166
2026-01-07 19:17:14.05	33.36	8.41	-51.6	-67.3	3.6	1.51e+00	0	35	104	0	60	112980
2026-01-07 19:17:15.06	33.22	8.46	-51.6	-67.3	3.6	1.51e+00	0	35	104	0	60	113176
2026-01-07 19:17:16.07	33.09	8.51	-51.6	-67.3	3.6	1.51e+00	0	35	104	0	60	112839
2026-01-07 19:17:17.08	32.95	8.56	-51.6	-67.3	3.6	1.51e+00	0	35	104	0	60	113490
2026-01-07 19:17:18.09	32.81	8.61	-51.6	-67.3	3.6	1.51e+00	0	35	104	0	60	112526
2026-01-07 19:17:19.10	32.67	8.66	-51.6	-67.3	3.6	1.51e+00	0	35	104	0	60	112979
2026-01-07 19:17:20.11	32.53	8.71	-51.6	-67.3	3.6	1.51e+00	0	35	104	0	60	113264
2026-01-07 19:17:21.12	32.39	8.76	-51.6	-67.3	3.6	1.51e+00	0	35	104	0	60	112881
2026-01-07 19:17:22.13	32.25	8.81	-51.6	-67.3	3.6	1.51e+00	0	35	104	0	60	113412
2026-01-07 19:17:23.14	32.11	8.85	-51.6	-67.3	3.6	1.51e+00	0	35	104	0	60	112878
2026-01-07 19:17:24.15	31.97	8.90	-51.6	-67.3	3.5	1.51e+00	0	35	104	0	60	113609
2026-01-07 19:17:25.16	31.83	8.95	-51.6	-67.3	3.6	1.51e+00	0	35	104	0	60	113138
2026-01-07 19:17:26.18	31.69	9.00	-51.6	-67.3	3.6	1.51e+00	0	35	104	0	60	112914
2026-01-07 19:17:27.19	31.55	9.05	-51.6	-67.3	3.6	1.51e+00	0	35	104	0	60	113061
2026-01-07 19:17:28.20	31.40	9.10	-51.6	-67.2	3.6	1.51e+00	0	35	104	0	60	111952
2026-01-07 19:17:29.21	31.26	9.15	-51.6	-67.3	3.6	1.51e+00	0	35	104	0	60	112592
2026-01-07 19:17:30.22	31.11	9.20	-51.6	-67.3	3.6	1.51e+00	0	35	104	0	60	112482
2026-01-07 19:17:31.23	30.97	9.24	-51.6	-67.3	3.6	1.51e+00	0	35	104	0	60	113350
2026-01-07 19:17:32.24	30.83	9.29	-51.6	-67.3	3.6	1.51e+00	0	35	104	0	60	112773
2026-01-07 19:17:33.25	30.68	9.34	-51.6	-67.3	3.6	1.51e+00	0	35	104	0	60	113097
2026-01-07 19:17:34.26	30.53	9.39	-51.6	-67.4	3.6	1.51e+00	0	35	104	0	60	113965
2026-01-07 19:17:35.28	30.39	9.44	-51.6	-67.3	3.6	1.51e+00	0	35	104	0	60	113102
2026-01-07 19:17:36.28	30.24	9.49	-51.6	-67.3	3.6	1.51e+00	0	35	104	0	60	113289
2026-01-07 19:17:37.29	30.09	9.53	-51.6	-67.3	3.6	1.51e+00	0	35	104	0	60	112641
2026-01-07 19:17:38.31	29.94	9.58	-51.6	-67.3	3.6	1.51e+00	0	35	104	0	60	113493
2026-01-07 19:17:39.32	29.80	9.63	-51.6	-67.3	3.6	1.51e+00	0	35	104	0	60	112661
2026-01-07 19:17:40.33	29.65	9.68	-51.6	-67.3	3.6	1.51e+00	0	35	104	0	60	113080
2026-01-07 19:17:41.34	29.50	9.72	-51.6	-67.3	3.6	1.51e+00	0	35	104	0	60	113590
2026-01-07 19:17:42.35	29.35	9.77	-51.6	-67.3	3.6	1.51e+00	0	35	104	0	60	112754
2026-01-07 19:17:43.36	29.20	9.82	-51.6	-67.3	3.6	1.51e+00	0	36	104	0	60	112554
2026-01-07 19:17:44.37	29.05	9.87	-51.6	-67.3	3.6	1.51e+00	0	35	104	0	60	113034
2026-01-07 19:17:45.39	28.89	9.91	-51.6	-67.3	3.6	1.51e+00	0	35	104	0	60	112651
2026-01-07 19:17:46.40	28.74	9.96	-51.6	-67.2	3.6	1.51e+00	0	35	104	0	60	112343
2026-01-07 19:17:47.41	28.59	10.01	-51.6	-67.3	3.6	1.51e+00	0	35	104	0	60	112895
2026-01-07 19:17:48.42	28.44	10.05	-51.6	-67.3	3.6	1.51e+00	0	35	104	0	60	113057
2026-01-07 19:17:49.43	28.28	10.10	-51.6	-67.3	3.6	1.51e+00	0	35	104	0	60	112787
2026-01-07 19:17:50.44	28.13	10.15	-51.6	-67.3	3.6	1.51e+00	0	35	104	0	60	113025
2026-01-07 19:17:51.45	27.98	10.19	-51.6	-67.3	3.6	1.51e+00	0	35	104	0	60	113251
2026-01-07 19:17:52.46	27.82	10.24	-51.6	-67.3	3.6	1.51e+00	0	35	104	0	60	113356
2026-01-07 19:17:53.47	27.67	10.29	-51.6	-67.3	3.6	1.51e+00	0	35	104	0	60	113065
2026-01-07 19:17:54.48	27.51	10.33	-51.6	-67.3	3.6	1.51e+00	0	35	104	0	60	112767
2026-01-07 19:17:55.49	27.35	10.38	-51.6	-67.3	3.6	1.51e+00	0	35	104	0	60	112777
2026-01-07 19:17:56.50	27.20	10.42	-51.6	-67.3	3.6	1.51e+00	0	35	104	0	60	112613
2026-01-07 19:17:57.51	27.04	10.47	-51.6	-67.3	3.6	1.51e+00	0	35	104	0	60	112952
2026-01-07 19:17:58.52	26.88	10.52	-51.6	-67.3	3.6	1.51e+00	0	35	104	0	60	112671
2026-01-07 19:17:59.54	26.72	10.56	-51.6	-67.3	3.6	1.51e+00	0	35	104	0	60	113159
2026-01-07 19:18:00.55	26.56	10.61	-51.6	-67.3	3.6	1.51e+00	0	36	104	0	60	112555
2026-01-07 19:18:01.56	26.40	10.65	-51.6	-67.3	3.6	1.51e+00	0	35	104	0	60	112707
2026-01-07 19:18:02.57	26.24	10.70	-51.6	-67.2	3.6	1.51e+00	0	35	104	0	60	112119
2026-01-07 19:18:03.58	26.08	10.74	-51.6	-67.3	3.6	1.51e+00	0	35	104	0	60	112528
2026-01-07 19:18:04.59	25.92	10.79	-51.6	-67.2	3.6	1.51e+00	0	35	104	0	60	112091
2026-01-07 19:18:05.60	25.76	10.83	-51.6	-67.3	3.6	1.51e+00	0	35	104	0	60	112829
2026-01-07 19:18:06.61	25.60	10.88	-51.6	-67.3	3.6	1.51e+00	0	35	104	0	60	112768
2026-01-07 19:18:07.62	25.44	10.92	-51.6	-67.3	3.6	1.51e+00	0	35	104	0	60	113343
2026-01-07 19:18:08.64	25.27	10.97	-51.6	-67.3	3.6	1.51e+00	0	35	104	0	60	112547
2026-01-07 19:18:09.65	25.11	11.01	-51.6	-67.3	3.6	1.51e+00	0	36	104	0	60	112855
2026-01-07 19:18:10.65	24.95	11.05	-51.6	-67.3	3.6	1.51e+00	0	36	104	0	60	112583
2026-01-07 19:18:11.67	24.78	11.10	-51.6	-67.3	3.6	1.51e+00	0	36	104	0	60	113350
2026-01-07 19:18:12.68	24.62	11.14	-51.6	-67.3	3.6	1.51e+00	0	36	104	0	60	113010
2026-01-07 19:18:13.69	24.45	11.18	-51.6	-67.3	3.6	1.51e+00	0	35	104	0	60	112758
2026-01-07 19:18:14.70	24.29	11.23	-51.6	-67.3	3.6	1.51e+00	0	35	104	0	60	113208
2026-01-07 19:18:15.71	24.12	11.27	-51.6	-67.3	3.6	1.51e+00	0	35	104	0	60	112761
2026-01-07 19:18:16.72	23.95	11.31	-51.6	-67.3	3.6	1.51e+00	0	35	104	0	60	113012
2026-01-07 19:18:17.73	23.79	11.36	-51.6	-67.3	3.6	1.51e+00	0	35	104	0	60	112870
2026-01-07 19:18:18.74	23.62	11.40	-51.6	-67.3	3.6	1.51e+00	0	35	104	0	60	112604
2026-01-07 19:18:19.76	23.45	11.44	-51.6	-67.3	3.6	1.51e+00	0	36	104	0	60	112675
2026-01-07 19:18:20.77	23.28	11.49	-51.6	-67.3	3.6	1.51e+00	0	35	104	0	60	112486
2026-01-07 19:18:21.78	23.11	11.53	-51.6	-67.3	3.6	1.51e+00	0	35	104	0	60	112802
2026-01-07 19:18:22.79	22.94	11.57	-51.6	-67.3	3.6	1.51e+00	0	35	104	0	60	113240
2026-01-07 19:18:23.80	22.77	11.61	-51.6	-67.3	3.6	1.51e+00	0	36	104	0	60	112417
2026-01-07 19:18:24.81	22.60	11.65	-51.6	-67.3	3.6	1.51e+00	0	35	104	0	60	112841
2026-01-07 19:18:25.82	22.43	11.69	-51.6	-67.3	3.6	1.51e+00	0	35	104	0	60	113306
2026-01-07 19:18:26.83	22.26	11.74	-51.6	-67.2	3.6	1.51e+00	0	36	104	0	60	112099
2026-01-07 19:18:27.84	22.08	11.78	-51.6	-67.2	3.6	1.51e+00	0	35	104	0	60	112347
2026-01-07 19:18:28.86	21.91	11.82	-51.6	-67.3	3.6	1.51e+00	0	35	104	0	60	112762
2026-01-07 19:18:29.87	21.74	11.86	-51.6	-67.4	3.6	1.51e+00	0	36	104	0	60	113772
2026-01-07 19:18:30.88	21.56	11.90	-51.6	-67.3	3.6	1.51e+00	0	36	104	0	60	112871
2026-01-07 19:18:31.89	21.39	11.94	-51.6	-67.3	3.6	1.51e+00	0	35	104	0	60	113137
2026-01-07 19:18:32.90	21.21	11.98	-51.6	-67.3	3.6	1.51e+00	0	35	104	0	60	113010
2026-01-07 19:18:33.91	21.04	12.02	-51.6	-67.3	3.6	1.51e+00	0	35	104	0	60	112593
2026-01-07 19:18:34.92	20.86	12.06	-51.6	-67.3	3.6	1.51e+00	0	35	104	0	60	112807
2026-01-07 19:18:35.93	20.69	12.10	-51.6	-67.3	3.6	1.51e+00	0	35	104	0	60	112859
2026-01-07 19:18:36.94	20.51	12.14	-51.6	-67.3	3.6	1.51e+00	0	36	104	0	60	112693
2026-01-07 19:18:37.95	20.33	12.18	-51.6	-67.3	3.6	1.51e+00	0	35	104	0	60	113056
2026-01-07 19:18:38.96	20.16	12.22	-51.6	-67.3	3.6	1.51e+00	0	35	104	0	60	112605
2026-01-07 19:18:39.97	19.98	12.26	-51.6	-67.3	3.6	1.51e+00	0	35	104	0	60	112824
2026-01-07 19:18:40.99	19.80	12.29	-51.6	-67.3	3.6	1.51e+00	0	35	104	0	60	112499
2026-01-07 19:18:42.00	19.62	12.33	-51.6	-67.3	3.6	1.51e+00	0	35	104	0	60	113375
2026-01-07 19:18:43.01	19.44	12.37	-51.6	-67.3	3.5	1.51e+00	0	35	104	0	60	112617
2026-01-07 19:18:44.02	19.26	12.41	-51.6	-67.3	3.6	1.51e+00	0	35	104	0	60	112825
2026-01-07 19:18:45.03	19.08	12.45	-51.6	-67.3	3.5	1.51e+00	0	36	104	0	60	112516
2026-01-07 19:18:46.04	18.90	12.48	-51.6	-67.3	3.6	1.51e+00	0	35	104	0	60	112867
2026-01-07 19:18:47.05	18.72	12.52	-51.6	-67.3	3.6	1.51e+00	0	35	104	0	60	112485
2026-01-07 19:18:48.06	18.54	12.56	-51.6	-67.3	3.6	1.51e+00	0	35	104	0	60	113315
2026-01-07 19:18:49.07	18.35	12.59	-51.6	-67.3	3.6	1.51e+00	0	35	104	0	60	113043
2026-01-07 19:18:50.09	18.17	12.63	-51.6	-67.3	3.6	1.51e+00	0	35	104	0	60	112795
2026-01-07 19:18:51.10	17.99	12.67	-51.6	-67.3	3.6	1.51e+00	0	35	104	0	60	112926
2026-01-07 19:18:52.11	17.80	12.70	-51.6	-67.3	3.6	1.51e+00	0	35	104	0	60	112504
2026-01-07 19:18:53.12	17.62	12.74	-51.6	-67.3	3.6	1.51e+00	0	35	104	0	60	113093
2026-01-07 19:18:54.13	17.43	12.78	-51.6	-67.3	3.6	1.51e+00	0	35	104	0	60	113110
2026-01-07 19:18:55.14	17.25	12.81	-51.6	-67.3	3.6	1.51e+00	0	35	104	0	60	113611
2026-01-07 19:18:56.15	17.06	12.85	-51.6	-67.3	3.6	1.51e+00	0	35	104	0	60	112549
2026-01-07 19:18:57.16	16.88	12.88	-51.6	-67.3	3.6	1.51e+00	0	35	104	0	60	112353
2026-01-07 19:18:58.17	16.69	12.92	-51.6	-67.3	3.6	1.51e+00	0	36	104	0	60	112967
2026-01-07 19:18:59.18	16.50	12.95	-51.6	-67.3	3.6	1.51e+00	0	36	104	0	60	112381
2026-01-07 19:19:00.20	16.32	12.98	-51.6	-67.3	3.6	1.51e+00	0	35	104	0	60	113233
2026-01-07 19:19:01.21	16.13	13.02	-51.6	-67.3	3.6	1.51e+00	0	35	104	0	60	112565
2026-01-07 19:19:02.22	15.94	13.05	-51.6	-67.3	3.6	1.51e+00	0	35	104	0	60	112902
2026-01-07 19:19:03.23	15.75	13.08	-51.6	-67.3	3.6	1.51e+00	0	36	104	0	60	113084
2026-01-07 19:19:04.24	15.56	13.12	-51.6	-67.3	3.6	1.51e+00	0	36	104	0	60	112910
2026-01-07 19:19:05.25	15.37	13.15	-51.6	-67.3	3.6	1.51e+00	0	35	104	0	60	112507
2026-01-07 19:19:06.26	15.18	13.18	-51.6	-67.3	3.6	1.51e+00	0	36	104	0	60	112853
2026-01-07 19:19:07.27	14.99	13.22	-51.6	-67.3	3.6	1.51e+00	0	36	104	0	60	113120
2026-01-07 19:19:08.28	14.80	13.25	-51.6	-67.3	3.6	1.51e+00	0	35	104	0	60	112955
2026-01-07 19:19:09.29	14.61	13.28	-51.6	-67.3	3.6	1.51e+00	0	35	104	0	60	112710
2026-01-07 19:19:10.30	14.42	13.31	-51.6	-67.3	3.6	1.51e+00	0	35	104	0	60	113463
2026-01-07 19:19:11.31	14.23	13.34	-51.6	-67.3	3.6	1.51e+00	0	35	104	0	60	113081
2026-01-07 19:19:12.32	14.04	13.37	-51.6	-67.3	3.5	1.51e+00	0	35	104	0	60	112975
2026-01-07 19:19:13.34	13.84	13.40	-51.6	-67.3	3.6	1.51e+00	0	35	104	0	60	113107
2026-01-07 19:19:14.35	13.65	13.43	-51.6	-67.3	3.6	1.51e+00	0	35	104	0	60	113364
2026-01-07 19:19:15.36	13.45	13.46	-51.6	-67.3	3.6	1.51e+00	0	35	104	0	60	112693
2026-01-07 19:19:16.37	13.26	13.49	-51.6	-67.3	3.6	1.51e+00	0	35	104	0	60	112699
2026-01-07 19:19:17.38	13.07	13.52	-51.6	-67.3	3.6	1.51e+00	0	35	104	0	60	113053
2026-01-07 19:19:18.39	12.87	13.55	-51.6	-67.3	3.6	1.51e+00	0	35	104	0	60	112666
2026-01-07 19:19:19.40	12.68	13.58	-51.6	-67.3	3.6	1.51e+00	0	36	104	0	60	113022
2026-01-07 19:19:20.41	12.48	13.61	-51.6	-67.3	3.5	1.51e+00	0	36	104	0	60	113214
2026-01-07 19:19:21.42	12.29	13.64	-51.6	-67.3	3.6	1.51e+00	0	36	104	0	60	112702
2026-01-07 19:19:22.43	12.09	13.67	-51.6	-67.2	3.6	1.51e+00	0	36	104	0	60	111734
2026-01-07 19:19:23.44	11.89	13.69	-51.6	-67.3	3.6	1.51e+00	0	36	104	0	60	112599
2026-01-07 19:19:24.45	11.70	13.72	-51.6	-67.3	3.6	1.51e+00	0	36	104	0	60	113013
2026-01-07 19:19:25.46	11.50	13.75	-51.6	-67.3	3.6	1.51e+00	0	36	104	0	60	113242
2026-01-07 19:19:26.47	11.30	13.77	-51.6	-67.3	3.6	1.51e+00	0	36	104	0	60	112724
2026-01-07 19:19:27.49	11.10	13.80	-51.6	-67.3	3.6	1.51e+00	0	36	104	0	60	112655
2026-01-07 19:19:28.50	10.90	13.83	-51.6	-67.3	3.6	1.51e+00	0	36	104	0	60	112999
2026-01-07 19:19:29.51	10.70	13.85	-51.6	-67.3	3.6	1.51e+00	0	35	104	0	60	113043
2026-01-07 19:19:30.52	10.50	13.88	-51.6	-67.3	3.6	1.51e+00	0	36	104	0	60	112521
2026-01-07 19:19:31.53	10.31	13.90	-51.6	-67.3	3.6	1.51e+00	0	36	104	0	60	112556
2026-01-07 19:19:32.54	10.11	13.93	-51.6	-67.3	3.6	1.51e+00	0	35	104	0	60	112949
2026-01-07 19:19:33.55	9.91	13.95	-51.6	-67.3	3.6	1.51e+00	0	36	104	0	60	112539
2026-01-07 19:19:34.56	9.70	13.98	-51.6	-67.2	3.6	1.51e+00	0	35	104	0	60	112244
2026-01-07 19:19:35.57	9.50	14.00	-51.6	-67.3	3.6	1.51e+00	0	36	104	0	60	113283
2026-01-07 19:19:36.58	9.30	14.02	-51.6	-67.3	3.6	1.51e+00	0	35	104	0	60	113554
2026-01-07 19:19:37.60	9.10	14.05	-51.6	-67.3	3.6	1.51e+00	0	36	104	0	60	113276
2026-01-07 19:19:38.61	8.90	14.07	-51.6	-67.2	3.5	1.51e+00	0	35	104	0	60	112325
2026-01-07 19:19:39.62	8.70	14.09	-51.6	-67.3	3.6	1.51e+00	0	36	104	0	60	112735
2026-01-07 19:19:40.63	8.49	14.12	-51.6	-67.3	3.6	1.51e+00	0	36	104	0	60	112461
2026-01-07 19:19:41.64	8.29	14.14	-51.6	-67.3	3.6	1.51e+00	0	35	104	0	60	112715
2026-01-07 19:19:42.65	8.09	14.16	-51.6	-67.3	3.6	1.51e+00	0	36	104	0	60	112773
2026-01-07 19:19:43.66	7.88	14.18	-51.6	-67.3	3.6	1.51e+00	0	36	104	0	60	112487
2026-01-07 19:19:44.67	7.68	14.20	-51.6	-67.3	3.6	1.51e+00	0	36	104	0	60	113132
2026-01-07 19:19:45.69	7.48	14.22	-51.6	-67.3	3.6	1.51e+00	0	36	104	0	60	113066
2026-01-07 19:19:46.70	7.27	14.24	-51.6	-67.3	3.6	1.51e+00	0	36	104	0	60	112706
2026-01-07 19:19:47.71	7.07	14.26	-51.6	-67.3	3.6	1.51e+00	0	36	104	0	60	112551
2026-01-07 19:19:48.72	6.86	14.28	-51.6	-67.3	3.6	1.51e+00	0	36	104	0	60	112409
2026-01-07 19:19:49.73	6.66	14.30	-51.6	-67.3	3.6	1.51e+00	0	36	104	0	60	113310
2026-01-07 19:19:50.74	6.45	14.32	-51.6	-67.3	3.6	1.51e+00	0	36	104	0	60	112928
2026-01-07 19:19:51.75	6.25	14.34	-51.6	-67.3	3.6	1.51e+00	0	36	104	0	60	112900
2026-01-07 19:19:52.76	6.04	14.36	-51.6	-67.3	3.6	1.51e+00	0	36	104	0	60	112797
2026-01-07 19:19:53.78	5.83	14.37	-51.6	-67.3	3.6	1.51e+00	0	36	104	0	60	112487
2026-01-07 19:19:54.79	5.63	14.39	-51.6	-67.3	3.6	1.51e+00	0	36	104	0	60	112452
2026-01-07 19:19:55.80	5.42	14.41	-51.6	-67.3	3.5	1.51e+00	0	36	104	0	60	113104
2026-01-07 19:19:56.81	5.21	14.42	-51.6	-67.3	3.6	1.51e+00	0	36	104	0	60	112429
2026-01-07 19:19:57.82	5.01	14.44	-51.6	-67.3	3.6	1.51e+00	0	36	104	0	60	113456
2026-01-07 19:19:58.83	4.80	14.46	-51.6	-67.3	3.6	1.51e+00	0	36	104	0	60	112633
2026-01-07 19:19:59.84	4.59	14.47	-51.6	-67.3	3.6	1.51e+00	0	36	104	0	60	112789
2026-01-07 19:20:00.85	4.39	14.49	-51.6	-67.2	3.6	1.51e+00	0	36	104	0	60	111869
2026-01-07 19:20:01.86	4.18	14.50	-51.6	-67.3	3.6	1.51e+00	0	36	104	0	60	112950
2026-01-07 19:20:02.87	3.97	14.52	-51.6	-67.2	3.6	1.51e+00	0	36	104	0	60	111963
2026-01-07 19:20:03.89	3.76	14.53	-51.6	-67.2	3.6	1.51e+00	0	36	104	0	60	112250
2026-01-07 19:20:04.90	3.55	14.54	-51.6	-67.3	3.5	1.51e+00	0	36	104	0	60	112477
2026-01-07 19:20:05.91	3.34	14.56	-51.6	-67.2	3.6	1.51e+00	0	36	104	0	60	112308
2026-01-07 19:20:06.92	3.13	14.57	-51.6	-67.3	3.6	1.51e+00	0	36	104	0	60	112792
2026-01-07 19:20:07.93	2.92	14.58	-51.6	-67.3	3.6	1.51e+00	0	36	104	0	60	112898
2026-01-07 19:20:08.94	2.72	14.59	-51.6	-67.3	3.6	1.51e+00	0	35	104	0	60	113130
2026-01-07 19:20:09.95	2.51	14.61	-51.6	-67.4	3.6	1.51e+00	0	36	104	0	60	113678
2026-01-07 19:20:10.96	2.30	14.62	-51.6	-67.3	3.6	1.51e+00	0	36	104	0	60	113010
2026-01-07 19:20:11.97	2.09	14.63	-51.6	-67.3	3.6	1.51e+00	0	36	104	0	60	112778
2026-01-07 19:20:12.98	1.88	14.64	-51.6	-67.3	3.6	1.51e+00	0	36	104	0	60	112642
2026-01-07 19:20:13.99	1.67	14.65	-51.6	-67.3	3.6	1.51e+00	0	36	104	0	60	112585
2026-01-07 19:20:15.00	1.46	14.66	-51.6	-67.2	3.6	1.51e+00	0	36	104	0	60	112121
2026-01-07 19:20:16.01	1.25	14.67	-51.6	-67.3	3.6	1.51e+00	0	36	104	0	60	112471
2026-01-07 19:20:17.02	1.04	14.68	-51.6	-67.3	3.5	1.51e+00	0	36	104	0	60	112869
2026-01-07 19:20:18.04	0.82	14.69	-51.6	-67.3	3.6	1.51e+00	0	36	104	0	60	112420
2026-01-07 19:20:19.05	0.61	14.70	-51.6	-67.3	3.5	1.51e+00	0	36	104	0	60	112976
2026-01-07 19:20:20.06	0.40	14.70	-51.6	-67.3	3.6	1.51e+00	0	36	104	0	60	112992
2026-01-07 19:20:21.07	0.19	14.71	-51.6	-67.3	3.6	1.51e+00	0	36	104	0	60	112889
2026-01-07 19:20:22.08	359.98	14.72	-51.6	-67.2	3.6	1.51e+00	0	36	104	0	60	112205
2026-01-07 19:20:23.09	359.77	14.72	-51.6	-67.3	3.6	1.51e+00	0	36	104	0	60	112609
2026-01-07 19:20:24.10	359.56	14.73	-51.6	-67.2	3.6	1.51e+00	0	36	104	0	60	112344
2026-01-07 19:20:25.11	359.35	14.74	-51.6	-67.3	3.6	1.51e+00	0	36	104	0	60	112619
2026-01-07 19:20:26.12	359.14	14.74	-51.6	-67.3	3.6	1.51e+00	0	36	104	0	60	112429
2026-01-07 19:20:27.13	358.93	14.75	-51.6	-67.3	3.6	1.51e+00	0	36	104	0	60	112942
2026-01-07 19:20:28.14	358.71	14.75	-51.6	-67.2	3.6	1.51e+00	0	36	104	0	60	111964
2026-01-07 19:20:29.16	358.50	14.76	-51.6	-67.3	3.6	1.51e+00	0	36	104	0	60	112897
2026-01-07 19:20:30.17	358.29	14.76	-51.6	-67.3	3.6	1.51e+00	0	36	104	0	60	112597
2026-01-07 19:20:31.18	358.08	14.77	-51.6	-67.3	3.6	1.51e+00	0	36	104	0	60	112927
2026-01-07 19:20:32.19	357.87	14.77	-51.6	-67.2	3.6	1.51e+00	0	36	104	0	60	112250
2026-01-07 19:20:33.20	357.65	14.77	-51.6	-67.3	3.6	1.51e+00	0	36	104	0	60	112748
2026-01-07 19:20:34.21	357.44	14.77	-51.6	-67.3	3.6	1.51e+00	0	36	104	0	60	112550
2026-01-07 19:20:35.22	357.23	14.78	-51.6	-67.2	3.6	1.51e+00	0	36	104	0	60	112325
2026-01-07 19:20:36.23	357.02	14.78	-51.6	-67.3	3.6	1.51e+00	0	36	104	0	60	112936
2026-01-07 19:20:37.25	356.81	14.78	-51.6	-67.2	3.6	1.51e+00	0	36	104	0	60	112331
2026-01-07 19:20:38.26	356.59	14.78	-51.6	-67.3	3.6	1.51e+00	0	36	104	0	60	112616
2026-01-07 19:20:39.27	356.38	14.78	-51.6	-67.3	3.6	1.51e+00	0	36	104	0	60	113091
2026-01-07 19:20:40.28	356.17	14.78	-51.6	-67.3	3.6	1.51e+00	0	36	104	0	60	113286
2026-01-07 19:20:41.29	355.96	14.78	-51.6	-67.3	3.6	1.51e+00	0	36	104	0	60	113218
2026-01-07 19:20:42.30	355.75	14.78	-51.6	-67.3	3.6	1.51e+00	0	36	104	0	60	113015
2026-01-07 19:20:43.31	355.53	14.78	-51.6	-67.3	3.6	1.51e+00	0	36	104	0	60	112756
2026-01-07 19:20:44.32	355.32	14.78	-51.6	-67.3	3.6	1.51e+00	0	36	104	0	60	112407
2026-01-07 19:20:45.33	355.11	14.78	-51.6	-67.3	3.6	1.51e+00	0	36	104	0	60	112539
2026-01-07 19:20:46.34	354.90	14.77	-51.6	-67.3	3.6	1.51e+00	0	36	104	0	60	113040
2026-01-07 19:20:47.36	354.68	14.77	-51.6	-67.3	3.6	1.51e+00	0	36	104	0	60	113000
2026-01-07 19:20:48.37	354.47	14.77	-51.6	-67.3	3.6	1.51e+00	0	36	104	0	60	112613
2026-01-07 19:20:49.38	354.26	14.76	-51.6	-67.2	3.6	1.51e+00	0	36	104	0	60	112222
2026-01-07 19:20:50.39	354.05	14.76	-51.6	-67.3	3.6	1.51e+00	0	36	104	0	60	112653
2026-01-07 19:20:51.40	353.84	14.76	-51.6	-67.3	3.6	1.51e+00	0	36	104	0	60	112652
2026-01-07 19:20:52.41	353.63	14.75	-51.6	-67.3	3.6	1.51e+00	0	36	104	0	60	112868
2026-01-07 19:20:53.42	353.42	14.75	-51.6	-67.3	3.6	1.51e+00	0	36	104	0	60	112884
2026-01-07 19:20:54.43	353.20	14.74	-51.6	-67.3	3.6	1.51e+00	0	36	104	0	60	112355
2026-01-07 19:20:55.44	352.99	14.74	-51.6	-67.3	3.6	1.51e+00	0	36	104	0	60	112756
2026-01-07 19:20:56.45	352.78	14.73	-51.6	-67.2	3.6	1.51e+00	0	36	104	0	60	112148
2026-01-07 19:20:57.46	352.57	14.72	-51.6	-67.3	3.6	1.51e+00	0	36	104	0	60	112399
2026-01-07 19:20:58.47	352.36	14.72	-51.6	-67.3	3.6	1.51e+00	0	36	104	0	60	112827
2026-01-07 19:20:59.49	352.15	14.71	-51.6	-67.2	3.6	1.51e+00	0	36	104	0	60	112026
2026-01-07 19:21:00.50	351.94	14.70	-51.6	-67.3	3.6	1.51e+00	0	36	104	0	60	112901
2026-01-07 19:21:01.51	351.73	14.69	-51.6	-67.3	3.6	1.51e+00	0	36	104	0	60	112420
2026-01-07 19:21:02.52	351.52	14.68	-51.6	-67.3	3.6	1.51e+00	0	35	104	0	60	112748
2026-01-07 19:21:03.53	351.30	14.68	-51.6	-67.3	3.6	1.51e+00	0	36	104	0	60	113123
2026-01-07 19:21:04.54	351.09	14.67	-51.6	-67.2	3.6	1.51e+00	0	36	104	0	60	111968
2026-01-07 19:21:05.55	350.88	14.66	-51.6	-67.3	3.6	1.51e+00	0	36	104	0	60	112933
2026-01-07 19:21:06.56	350.67	14.65	-51.6	-67.3	3.6	1.51e+00	0	36	104	0	60	112640
2026-01-07 19:21:07.57	350.46	14.64	-51.6	-67.2	3.6	1.51e+00	0	36	104	0	60	112241
2026-01-07 19:21:08.58	350.25	14.63	-51.6	-67.3	3.6	1.51e+00	0	36	104	0	60	112897
2026-01-07 19:21:09.60	350.04	14.61	-51.6	-67.3	3.6	1.51e+00	0	36	104	0	60	112432
2026-01-07 19:21:10.61	349.83	14.60	-51.6	-67.3	3.6	1.51e+00	0	36	104	0	60	112890
2026-01-07 19:21:11.62	349.62	14.59	-51.6	-67.3	3.6	1.51e+00	0	36	104	0	60	112564
2026-01-07 19:21:12.63	349.42	14.58	-51.6	-67.2	3.6	1.51e+00	0	36	104	0	60	112154
2026-01-07 19:21:13.64	349.21	14.57	-51.6	-67.3	3.6	1.51e+00	0	36	104	0	60	112370
2026-01-07 19:21:14.65	349.00	14.55	-51.6	-67.3	3.6	1.51e+00	0	36	104	0	60	113126
2026-01-07 19:21:15.66	348.79	14.54	-51.6	-67.2	3.6	1.51e+00	0	36	104	0	60	112315
2026-01-07 19:21:16.67	348.58	14.53	-51.6	-67.3	3.6	1.51e+00	0	36	104	0	60	112868
2026-01-07 19:21:17.68	348.37	14.51	-51.6	-67.3	3.6	1.51e+00	0	36	104	0	60	112396
2026-01-07 19:21:18.69	348.17	14.50	-51.6	-67.3	3.6	1.51e+00	0	36	104	0	60	112392
2026-01-07 19:21:19.70	347.96	14.48	-51.6	-67.3	3.6	1.51e+00	0	36	104	0	60	113048
2026-01-07 19:21:20.72	347.75	14.47	-51.6	-67.2	3.6	1.51e+00	0	36	104	0	60	112096
2026-01-07 19:21:21.73	347.54	14.45	-51.6	-67.3	3.6	1.51e+00	0	36	104	0	60	112458
2026-01-07 19:21:22.74	347.33	14.44	-51.6	-67.3	3.6	1.51e+00	0	36	104	0	60	113164
2026-01-07 19:21:23.75	347.13	14.42	-51.6	-67.3	3.6	1.51e+00	0	36	104	0	60	113115
2026-01-07 19:21:24.76	346.92	14.40	-51.6	-67.3	3.6	1.51e+00	0	36	104	0	60	112526
2026-01-07 19:21:25.77	346.71	14.39	-51.6	-67.3	3.6	1.51e+00	0	36	104	0	60	112794
2026-01-07 19:21:26.78	346.51	14.37	-51.6	-67.3	3.6	1.51e+00	0	36	104	0	60	112976
2026-01-07 19:21:27.79	346.30	14.35	-51.6	-67.3	3.6	1.51e+00	0	36	104	0	60	113582
2026-01-07 19:21:28.80	346.10	14.33	-51.6	-67.3	3.6	1.51e+00	0	36	104	0	60	112591
2026-01-07 19:21:29.81	345.89	14.31	-51.6	-67.3	3.6	1.51e+00	0	36	104	0	60	112554
2026-01-07 19:21:30.82	345.69	14.29	-51.6	-67.3	3.6	1.51e+00	0	36	104	0	60	113052
2026-01-07 19:21:31.84	345.48	14.28	-51.6	-67.3	3.6	1.51e+00	0	36	104	0	60	112638
2026-01-07 19:21:32.85	345.27	14.26	-51.6	-67.3	3.6	1.51e+00	0	36	104	0	60	113224
2026-01-07 19:21:33.86	345.07	14.24	-51.6	-67.3	3.6	1.51e+00	0	36	104	0	60	113067
2026-01-07 19:21:34.87	344.87	14.22	-51.6	-67.3	3.6	1.51e+00	0	36	104	0	60	112547
2026-01-07 19:21:35.88	344.66	14.20	-51.6	-67.3	3.6	1.51e+00	0	36	104	0	60	112444
2026-01-07 19:21:36.89	344.46	14.17	-51.6	-67.3	3.6	1.51e+00	0	36	104	0	60	113034
2026-01-07 19:21:37.90	344.26	14.15	-51.6	-67.3	3.6	1.51e+00	0	36	104	0	60	112643
2026-01-07 19:21:38.91	344.05	14.13	-51.6	-67.3	3.6	1.51e+00	0	36	104	0	60	112671
2026-01-07 19:21:39.92	343.85	14.11	-51.6	-67.3	3.6	1.51e+00	0	36	104	0	60	112973
2026-01-07 19:21:40.93	343.65	14.09	-51.6	-67.3	3.6	1.51e+00	0	36	104	0	60	112532
2026-01-07 19:21:41.94	343.45	14.06	-51.6	-67.3	3.6	1.51e+00	0	36	104	0	60	112642
2026-01-07 19:21:42.96	343.24	14.04	-51.6	-67.3	3.6	1.51e+00	0	36	104	0	60	112769
2026-01-07 19:21:43.97	343.04	14.02	-51.6	-67.3	3.6	1.51e+00	0	36	104	0	60	113064
2026-01-07 19:21:44.98	342.84	13.99	-51.6	-67.3	3.6	1.51e+00	0	36	104	0	60	113052
2026-01-07 19:21:45.99	342.64	13.97	-51.6	-67.3	3.6	1.51e+00	0	36	104	0	60	112484
2026-01-07 19:21:47.00	342.44	13.95	-51.6	-67.3	3.6	1.51e+00	0	36	104	0	60	112984
2026-01-07 19:21:48.01	342.24	13.92	-51.5	-67.2	3.6	1.51e+00	0	36	104	0	60	111961
2026-01-07 19:21:49.02	342.04	13.90	-51.6	-67.2	3.6	1.51e+00	0	36	104	0	60	112318
2026-01-07 19:21:50.03	341.84	13.87	-51.6	-67.2	3.6	1.51e+00	0	36	104	0	60	111975
2026-01-07 19:21:51.04	341.64	13.85	-51.6	-67.3	3.6	1.51e+00	0	36	104	0	60	112489
2026-01-07 19:21:52.05	341.44	13.82	-51.6	-67.3	3.6	1.51e+00	0	36	104	0	60	112902
2026-01-07 19:21:53.07	341.24	13.79	-51.6	-67.3	3.6	1.51e+00	0	36	104	0	60	112612
2026-01-07 19:21:54.08	341.05	13.77	-51.6	-67.3	3.6	1.51e+00	0	36	104	0	60	113020
2026-01-07 19:21:55.09	340.85	13.74	-51.6	-67.3	3.6	1.51e+00	0	36	104	0	60	113317
2026-01-07 19:21:56.10	340.65	13.71	-51.6	-67.3	3.6	1.51e+00	0	36	104	0	60	112871
2026-01-07 19:21:57.11	340.45	13.69	-51.6	-67.3	3.6	1.51e+00	0	36	104	0	60	112885
2026-01-07 19:21:58.12	340.26	13.66	-51.6	-67.2	3.6	1.51e+00	0	36	104	0	60	112059
2026-01-07 19:21:59.13	340.06	13.63	-51.6	-67.3	3.6	1.51e+00	0	36	104	0	60	112366
2026-01-07 19:22:00.15	339.86	13.60	-51.6	-67.3	3.6	1.51e+00	0	36	104	0	60	112852
2026-01-07 19:22:01.16	339.67	13.57	-51.6	-67.3	3.6	1.51e+00	0	36	104	0	60	112788
2026-01-07 19:22:02.17	339.47	13.54	-51.6	-67.2	3.6	1.51e+00	0	36	104	0	60	112161
2026-01-07 19:22:03.18	339.28	13.51	-51.6	-67.3	3.6	1.51e+00	0	36	104	0	60	112858
2026-01-07 19:22:04.19	339.09	13.49	-51.6	-67.3	3.6	1.51e+00	0	36	104	0	60	112771
2026-01-07 19:22:05.20	338.89	13.46	-51.6	-67.2	3.6	1.51e+00	0	36	104	0	60	111983
2026-01-07 19:22:06.21	338.70	13.43	-51.6	-67.3	3.6	1.51e+00	0	36	104	0	60	112603
2026-01-07 19:22:07.22	338.51	13.39	-51.6	-67.3	3.6	1.51e+00	0	36	104	0	60	112825
2026-01-07 19:22:08.23	338.31	13.36	-51.6	-67.4	3.6	1.51e+00	0	36	104	0	60	113676
2026-01-07 19:22:09.24	338.12	13.33	-51.6	-67.3	3.6	1.51e+00	0	36	104	0	60	113326
2026-01-07 19:22:10.26	337.93	13.30	-51.6	-67.2	3.6	1.51e+00	0	36	104	0	60	112182
2026-01-07 19:22:11.27	337.74	13.27	-51.5	-67.3	3.6	1.51e+00	0	36	104	0	60	112396
2026-01-07 19:22:12.28	337.55	13.24	-51.5	-67.3	3.6	1.51e+00	0	36	104	0	60	112462
2026-01-07 19:22:13.29	337.36	13.21	-51.6	-67.3	3.6	1.51e+00	0	36	104	0	60	112743
2026-01-07 19:22:14.30	337.17	13.17	-51.5	-67.3	3.6	1.51e+00	0	36	104	0	60	112920
2026-01-07 19:22:15.31	336.98	13.14	-51.6	-67.3	3.6	1.51e+00	0	36	104	0	60	112531
2026-01-07 19:22:16.32	336.79	13.11	-51.6	-67.2	3.6	1.51e+00	0	36	104	0	60	112343
2026-01-07 19:22:17.33	336.60	13.08	-51.6	-67.3	3.6	1.51e+00	0	36	104	0	60	112520
2026-01-07 19:22:18.34	336.41	13.04	-51.6	-67.3	3.6	1.51e+00	0	36	104	0	60	112958
2026-01-07 19:22:19.35	336.22	13.01	-51.6	-67.3	3.6	1.51e+00	0	36	104	0	60	112731
2026-01-07 19:22:20.36	336.03	12.97	-51.6	-67.3	3.5	1.51e+00	0	36	104	0	60	112814
2026-01-07 19:22:21.37	335.85	12.94	-51.6	-67.3	3.6	1.51e+00	0	36	104	0	60	113160
2026-01-07 19:22:22.39	335.66	12.91	-51.5	-67.3	3.6	1.51e+00	0	36	104	0	60	112921
2026-01-07 19:22:23.40	335.47	12.87	-51.6	-67.3	3.6	1.51e+00	0	36	104	0	60	112659
2026-01-07 19:22:24.41	335.29	12.84	-51.6	-67.3	3.6	1.51e+00	0	36	104	0	60	112960
2026-01-07 19:22:25.42	335.10	12.80	-51.6	-67.3	3.6	1.51e+00	0	36	104	0	60	112536
2026-01-07 19:22:26.43	334.92	12.77	-51.6	-67.3	3.6	1.51e+00	0	36	104	0	60	112470
2026-01-07 19:22:27.44	334.73	12.73	-51.6	-67.3	3.6	1.51e+00	0	36	104	0	60	112771
2026-01-07 19:22:28.45	334.55	12.69	-51.6	-67.3	3.6	1.51e+00	0	36	104	0	60	113060
2026-01-07 19:22:29.46	334.36	12.66	-51.6	-67.3	3.6	1.51e+00	0	36	104	0	60	112801
2026-01-07 19:22:30.47	334.18	12.62	-51.6	-67.3	3.6	1.51e+00	0	36	104	0	60	112979
2026-01-07 19:22:31.48	334.00	12.59	-51.5	-67.3	3.6	1.51e+00	0	36	104	0	60	113065
2026-01-07 19:22:32.49	333.82	12.55	-51.5	-67.2	3.6	1.51e+00	0	36	104	0	60	112253
2026-01-07 19:22:33.50	333.64	12.51	-51.5	-67.3	3.6	1.51e+00	0	36	104	0	60	112383
2026-01-07 19:22:34.52	333.45	12.47	-51.6	-67.3	3.6	1.51e+00	0	36	104	0	60	112749
2026-01-07 19:22:35.53	333.27	12.44	-51.6	-67.3	3.6	1.51e+00	0	36	104	0	60	112839
2026-01-07 19:22:36.54	333.09	12.40	-51.6	-67.3	3.6	1.51e+00	0	36	104	0	60	112870
2026-01-07 19:22:37.55	332.91	12.36	-51.5	-67.2	3.6	1.51e+00	0	36	104	0	60	112245
2026-01-07 19:22:38.56	332.73	12.32	-51.5	-67.3	3.6	1.51e+00	0	36	104	0	60	112689
2026-01-07 19:22:39.57	332.55	12.28	-51.5	-67.3	3.6	1.51e+00	0	36	104	0	60	112567
2026-01-07 19:22:40.58	332.38	12.25	-51.5	-67.3	3.6	1.51e+00	0	36	104	0	60	112740
2026-01-07 19:22:41.59	332.20	12.21	-51.5	-67.3	3.6	1.51e+00	0	36	104	0	60	113138
2026-01-07 19:22:42.60	332.02	12.17	-51.5	-67.3	3.6	1.51e+00	0	36	104	0	60	112348
2026-01-07 19:22:43.61	331.84	12.13	-51.6	-67.3	3.6	1.51e+00	0	36	104	0	60	112581
2026-01-07 19:22:44.62	331.67	12.09	-51.6	-67.3	3.6	1.51e+00	0	36	104	0	60	112688
2026-01-07 19:22:45.63	331.49	12.05	-51.5	-67.3	3.6	1.51e+00	0	36	104	0	60	112902
2026-01-07 19:22:46.64	331.32	12.01	-51.6	-67.3	3.6	1.51e+00	0	36	104	0	60	113215
2026-01-07 19:22:47.66	331.14	11.97	-51.6	-67.3	3.6	1.51e+00	0	36	104	0	60	113091
2026-01-07 19:22:48.67	330.96	11.93	-51.5	-67.3	3.6	1.51e+00	0	36	104	0	60	113052
2026-01-07 19:22:49.68	330.79	11.89	-51.5	-67.3	3.6	1.51e+00	0	36	104	0	60	112749
2026-01-07 19:22:50.69	330.62	11.85	-51.5	-67.3	3.5	1.51e+00	0	36	104	0	60	113196
2026-01-07 19:22:51.70	330.44	11.81	-51.5	-67.3	3.6	1.51e+00	0	36	104	0	60	113032
2026-01-07 19:22:52.71	330.27	11.77	-51.6	-67.3	3.6	1.51e+00	0	36	104	0	60	112557
2026-01-07 19:22:53.72	330.10	11.72	-51.5	-67.3	3.6	1.51e+00	0	36	104	0	60	113219
2026-01-07 19:22:54.73	329.93	11.68	-51.6	-67.3	3.6	1.51e+00	0	36	104	0	60	113015
2026-01-07 19:22:55.74	329.76	11.64	-51.5	-67.2	3.6	1.51e+00	0	36	104	0	60	112242
2026-01-07 19:22:56.75	329.59	11.60	-51.5	-67.3	3.6	1.51e+00	0	36	104	0	60	112446
2026-01-07 19:22:57.76	329.42	11.56	-51.6	-67.3	3.6	1.51e+00	0	36	104	0	60	112573
2026-01-07 19:22:58.77	329.25	11.52	-51.5	-67.3	3.6	1.51e+00	0	36	104	0	60	113232
2026-01-07 19:22:59.79	329.08	11.47	-51.5	-67.3	3.6	1.51e+00	0	36	104	0	60	113221
2026-01-07 19:23:00.80	328.91	11.43	-51.5	-67.3	3.6	1.51e+00	0	36	104	0	60	113617
2026-01-07 19:23:01.81	328.74	11.39	-51.5	-67.3	3.6	1.51e+00	0	36	104	0	60	112781
2026-01-07 19:23:02.82	328.57	11.35	-51.5	-67.3	3.6	1.51e+00	0	36	104	0	60	112564
2026-01-07 19:23:03.83	328.40	11.30	-51.5	-67.2	3.6	1.51e+00	0	36	104	0	60	112330
2026-01-07 19:23:04.84	328.24	11.26	-51.5	-67.3	3.6	1.51e+00	0	36	104	0	60	113036
2026-01-07 19:23:05.85	328.07	11.22	-51.5	-67.3	3.6	1.51e+00	0	36	104	0	60	113210
2026-01-07 19:23:06.86	327.91	11.17	-51.5	-67.3	3.6	1.51e+00	0	36	104	0	60	112718
2026-01-07 19:23:07.87	327.74	11.13	-51.5	-67.3	3.6	1.51e+00	0	36	104	0	60	112436
2026-01-07 19:23:08.89	327.58	11.09	-51.5	-67.3	3.6	1.51e+00	0	36	104	0	60	113097
2026-01-07 19:23:09.90	327.41	11.04	-51.5	-67.3	3.6	1.51e+00	0	36	104	0	60	112641
2026-01-07 19:23:10.91	327.25	11.00	-51.5	-67.3	3.6	1.51e+00	0	36	104	0	60	112786
2026-01-07 19:23:11.92	327.08	10.95	-51.5	-67.3	3.6	1.51e+00	0	36	104	0	60	112439
2026-01-07 19:23:12.93	326.92	10.91	-51.5	-67.3	3.6	1.51e+00	0	36	104	0	60	113126
2026-01-07 19:23:13.94	326.76	10.87	-51.5	-67.3	3.6	1.51e+00	0	36	104	0	60	112829
2026-01-07 19:23:14.95	326.60	10.82	-51.5	-67.2	3.6	1.51e+00	0	36	104	0	60	112246
2026-01-07 19:23:15.96	326.44	10.78	-51.5	-67.3	3.6	1.51e+00	0	36	104	0	60	113167
2026-01-07 19:23:16.97	326.28	10.73	-51.5	-67.3	3.6	1.51e+00	0	36	104	0	60	112793
2026-01-07 19:23:17.99	326.11	10.69	-51.5	-67.3	3.6	1.51e+00	0	36	104	0	60	112615
2026-01-07 19:23:19.00	325.96	10.64	-51.5	-67.3	3.6	1.51e+00	0	36	104	0	60	112876
2026-01-07 19:23:20.01	325.80	10.60	-51.5	-67.3	3.6	1.51e+00	0	36	104	0	60	112937
2026-01-07 19:23:21.02	325.64	10.55	-51.5	-67.3	3.6	1.51e+00	0	36	104	0	60	113233
2026-01-07 19:23:22.03	325.48	10.50	-51.5	-67.3	3.6	1.51e+00	0	36	104	0	60	113004
2026-01-07 19:23:23.04	325.32	10.46	-51.5	-67.3	3.6	1.51e+00	0	36	104	0	60	113309
2026-01-07 19:23:24.05	325.16	10.41	-51.5	-67.3	3.6	1.51e+00	0	36	104	0	60	112926
2026-01-07 19:23:25.06	325.01	10.37	-51.5	-67.3	3.6	1.51e+00	0	36	104	0	60	113116
2026-01-07 19:23:26.07	324.85	10.32	-51.5	-67.3	3.6	1.51e+00	0	36	104	0	60	112677
2026-01-07 19:23:27.08	324.70	10.28	-51.5	-67.3	3.6	1.51e+00	0	36	104	0	60	113007
2026-01-07 19:23:28.10	324.54	10.23	-51.5	-67.2	3.6	1.51e+00	0	36	104	0	60	112061
2026-01-07 19:23:29.11	324.39	10.18	-51.5	-67.3	3.6	1.51e+00	0	36	104	0	60	113367
2026-01-07 19:23:30.12	324.23	10.14	-51.5	-67.3	3.6	1.51e+00	0	36	104	0	60	112665
2026-01-07 19:23:31.13	324.08	10.09	-51.5	-67.3	3.6	1.51e+00	0	36	104	0	60	113043
2026-01-07 19:23:32.14	323.92	10.04	-51.5	-67.3	3.6	1.51e+00	0	36	104	0	60	112749
2026-01-07 19:23:33.15	323.77	10.00	-51.5	-67.3	3.6	1.51e+00	0	36	104	0	60	112804
2026-01-07 19:23:34.16	323.62	9.95	-51.5	-67.2	3.6	1.51e+00	0	36	104	0	60	112253
2026-01-07 19:23:35.17	323.47	9.90	-51.5	-67.3	3.6	1.51e+00	0	36	104	0	60	112746
2026-01-07 19:23:36.18	323.32	9.85	-51.5	-67.3	3.6	1.51e+00	0	36	104	0	60	113084
2026-01-07 19:23:37.20	323.16	9.81	-51.5	-67.3	3.6	1.51e+00	0	36	104	0	60	113177
2026-01-07 19:23:38.21	323.01	9.76	-51.5	-67.3	3.6	1.51e+00	0	36	104	0	60	112476
2026-01-07 19:23:39.22	322.87	9.71	-51.5	-67.2	3.6	1.51e+00	0	36	104	0	60	112300
2026-01-07 19:23:40.23	322.72	9.66	-51.5	-67.3	3.6	1.51e+00	0	36	104	0	60	113461
2026-01-07 19:23:41.24	322.57	9.62	-51.5	-67.3	3.6	1.51e+00	0	36	104	0	60	112749
2026-01-07 19:23:42.25	322.42	9.57	-51.5	-67.3	3.6	1.51e+00	0	36	104	0	60	112996
2026-01-07 19:23:43.26	322.27	9.52	-51.5	-67.2	3.6	1.51e+00	0	36	104	0	60	112334
2026-01-07 19:23:44.27	322.12	9.47	-51.5	-67.3	3.6	1.51e+00	0	36	104	0	60	113377
2026-01-07 19:23:45.28	321.98	9.43	-51.5	-67.3	3.6	1.51e+00	0	36	104	0	60	112697
2026-01-07 19:23:46.29	321.83	9.38	-51.5	-67.3	3.6	1.51e+00	0	36	104	0	60	112452
2026-01-07 19:23:47.31	321.68	9.33	-51.5	-67.3	3.6	1.51e+00	0	36	104	0	60	112644
2026-01-07 19:23:48.32	321.54	9.28	-51.5	-67.3	3.6	1.51e+00	0	36	104	0	60	113043
2026-01-07 19:23:49.33	321.39	9.23	-51.5	-67.3	3.6	1.51e+00	0	36	104	0	60	112507
2026-01-07 19:23:50.34	321.25	9.18	-51.5	-67.3	3.6	1.51e+00	0	36	104	0	60	113246
2026-01-07 19:23:51.35	321.11	9.14	-51.5	-67.3	3.6	1.51e+00	0	36	104	0	60	113485
2026-01-07 19:23:52.36	320.96	9.09	-51.5	-67.3	3.6	1.51e+00	0	36	104	0	60	113022
2026-01-07 19:23:53.37	320.82	9.04	-51.5	-67.3	3.6	1.51e+00	0	36	104	0	60	112935
2026-01-07 19:23:54.38	320.68	8.99	-51.5	-67.3	3.6	1.51e+00	0	36	104	0	60	112818
2026-01-07 19:23:55.40	320.54	8.94	-51.5	-67.3	3.6	1.51e+00	0	36	104	0	60	113312
2026-01-07 19:23:56.41	320.39	8.89	-51.5	-67.3	3.6	1.51e+00	0	36	104	0	60	112690
2026-01-07 19:23:57.42	320.25	8.84	-51.5	-67.3	3.6	1.51e+00	0	36	104	0	60	112660
2026-01-07 19:23:58.43	320.11	8.79	-51.5	-67.3	3.6	1.51e+00	0	36	104	0	60	113088
2026-01-07 19:23:59.44	319.97	8.74	-51.5	-67.3	3.6	1.51e+00	0	36	104	0	60	112616
2026-01-07 19:24:00.45	319.83	8.70	-51.5	-67.3	3.6	1.51e+00	0	36	104	0	60	113393
2026-01-07 19:24:01.46	319.69	8.65	-51.5	-67.3	3.6	1.51e+00	0	36	104	0	60	113007
2026-01-07 19:24:02.47	319.56	8.60	-51.5	-67.3	3.6	1.51e+00	0	36	104	0	60	112658
2026-01-07 19:24:03.48	319.42	8.55	-51.5	-67.3	3.6	1.51e+00	0	36	104	0	60	112702
2026-01-07 19:24:04.49	319.28	8.50	-51.5	-67.3	3.6	1.51e+00	0	36	104	0	60	112887
2026-01-07 19:24:05.50	319.14	8.45	-51.5	-67.3	3.6	1.51e+00	0	36	104	0	60	112514
2026-01-07 19:24:06.51	319.01	8.40	-51.5	-67.3	3.6	1.51e+00	0	36	104	0	60	112799
2026-01-07 19:24:07.52	318.87	8.35	-51.5	-67.3	3.6	1.51e+00	0	36	104	0	60	112941
2026-01-07 19:24:08.54	318.73	8.30	-51.5	-67.3	3.6	1.51e+00	0	36	104	0	60	113256
2026-01-07 19:24:09.55	318.60	8.25	-51.5	-67.3	3.6	1.51e+00	0	36	104	0	60	113367
2026-01-07 19:24:10.56	318.47	8.20	-51.5	-67.3	3.6	1.51e+00	0	36	104	0	60	112758
2026-01-07 19:24:11.57	318.33	8.15	-51.5	-67.3	3.6	1.51e+00	0	36	104	0	60	112870
2026-01-07 19:24:12.58	318.20	8.10	-51.5	-67.3	3.6	1.51e+00	0	36	104	0	60	112734
2026-01-07 19:24:13.59	318.06	8.05	-51.5	-67.3	3.6	1.51e+00	0	36	104	0	60	113205
2026-01-07 19:24:14.60	317.93	8.00	-51.5	-67.3	3.6	1.51e+00	0	36	104	0	60	112625
2026-01-07 19:24:15.61	317.80	7.95	-51.5	-67.3	3.6	1.51e+00	0	36	104	0	60	112451
2026-01-07 19:24:16.62	317.67	7.90	-51.5	-67.3	3.6	1.51e+00	0	36	104	0	60	113075
2026-01-07 19:24:17.64	317.53	7.85	-51.5	-67.3	3.6	1.51e+00	0	36	104	0	60	113277
2026-01-07 19:24:18.65	317.40	7.80	-51.5	-67.2	3.6	1.51e+00	0	36	104	0	60	112219
2026-01-07 19:24:19.66	317.27	7.75	-51.5	-67.3	3.6	1.51e+00	0	36	104	0	60	113423
2026-01-07 19:24:20.67	317.14	7.70	-51.5	-67.3	3.6	1.51e+00	0	36	104	0	60	112387
2026-01-07 19:24:21.68	317.01	7.65	-51.5	-67.3	3.6	1.51e+00	0	36	104	0	60	112794
2026-01-07 19:24:22.69	316.88	7.60	-51.5	-67.3	3.6	1.51e+00	0	36	104	0	60	112729
2026-01-07 19:24:23.70	316.76	7.55	-51.5	-67.3	3.5	1.51e+00	0	36	104	0	60	113124
2026-01-07 19:24:24.71	316.63	7.50	-51.5	-67.3	3.6	1.51e+00	0	36	104	0	60	113074
2026-01-07 19:24:25.72	316.50	7.45	-51.5	-67.3	3.6	1.51e+00	0	36	104	0	60	113030
2026-01-07 19:24:26.73	316.37	7.40	-51.5	-67.2	3.6	1.51e+00	0	36	104	0	60	112317
2026-01-07 19:24:27.74	316.25	7.35	-51.5	-67.3	3.6	1.51e+00	0	36	104	0	60	112765
2026-01-07 19:24:28.75	316.12	7.30	-51.5	-67.3	3.6	1.51e+00	0	36	104	0	60	112694
2026-01-07 19:24:29.77	315.99	7.25	-51.5	-67.3	3.6	1.51e+00	0	36	104	0	60	112663
2026-01-07 19:24:30.78	315.87	7.19	-51.5	-67.3	3.6	1.51e+00	0	36	104	0	60	112756
2026-01-07 19:24:31.79	315.74	7.14	-51.5	-67.2	3.6	1.51e+00	0	36	104	0	60	112288
2026-01-07 19:24:32.80	315.62	7.09	-51.5	-67.3	3.6	1.51e+00	0	36	104	0	60	112864
2026-01-07 19:24:33.81	315.49	7.04	-51.5	-67.3	3.6	1.51e+00	0	36	104	0	60	112679
2026-01-07 19:24:34.82	315.37	6.99	-51.5	-67.3	3.6	1.51e+00	0	36	104	0	60	112640
2026-01-07 19:24:35.83	315.25	6.94	-51.5	-67.3	3.6	1.51e+00	0	36	104	0	60	112713
2026-01-07 19:24:36.84	315.12	6.89	-51.5	-67.3	3.6	1.51e+00	0	36	104	0	60	112527
2026-01-07 19:24:37.85	315.00	6.84	-51.5	-67.3	3.6	1.51e+00	0	36	104	0	60	112948
2026-01-07 19:24:38.86	314.88	6.79	-51.5	-67.3	3.6	1.51e+00	0	36	104	0	60	112677
2026-01-07 19:24:39.88	314.76	6.74	-51.5	-67.3	3.6	1.51e+00	0	36	104	0	60	112834
2026-01-07 19:24:40.89	314.64	6.69	-51.5	-67.3	3.6	1.51e+00	0	36	104	0	60	112809
2026-01-07 19:24:41.90	314.52	6.64	-51.5	-67.3	3.6	1.51e+00	0	36	104	0	60	113106
2026-01-07 19:24:42.91	314.40	6.59	-51.5	-67.3	3.6	1.51e+00	0	36	104	0	60	113510
2026-01-07 19:24:43.92	314.28	6.53	-51.5	-67.3	3.6	1.51e+00	0	36	104	0	60	112734
2026-01-07 19:24:44.93	314.16	6.48	-51.5	-67.3	3.5	1.51e+00	0	36	104	0	60	113051
2026-01-07 19:24:45.94	314.04	6.43	-51.5	-67.3	3.6	1.51e+00	0	36	104	0	60	113409
2026-01-07 19:24:46.95	313.92	6.38	-51.5	-67.3	3.6	1.51e+00	0	36	104	0	60	112843
2026-01-07 19:24:47.96	313.80	6.33	-51.5	-67.3	3.6	1.51e+00	0	36	104	0	60	112840
2026-01-07 19:24:48.98	313.68	6.28	-51.5	-67.3	3.6	1.51e+00	0	36	104	0	60	113099
2026-01-07 19:24:49.99	313.56	6.23	-51.5	-67.3	3.6	1.51e+00	0	36	104	0	60	112706
2026-01-07 19:24:51.00	313.45	6.18	-51.5	-67.3	3.6	1.51e+00	0	36	104	0	60	112606
2026-01-07 19:24:52.01	313.33	6.13	-51.5	-67.3	3.6	1.51e+00	0	36	104	0	60	112529
2026-01-07 19:24:53.02	313.22	6.08	-51.5	-67.3	3.6	1.51e+00	0	36	104	0	60	113026
2026-01-07 19:24:54.03	313.10	6.02	-51.5	-67.3	3.6	1.51e+00	0	36	104	0	60	112401
2026-01-07 19:24:55.04	312.99	5.97	-51.5	-67.3	3.6	1.51e+00	0	36	104	0	60	113099
2026-01-07 19:24:56.05	312.87	5.92	-51.5	-67.3	3.6	1.51e+00	0	36	104	0	60	112922
2026-01-07 19:24:57.06	312.76	5.87	-51.5	-67.2	3.6	1.51e+00	0	36	104	0	60	112266
2026-01-07 19:24:58.07	312.64	5.82	-51.5	-67.3	3.6	1.51e+00	0	36	104	0	60	113384
2026-01-07 19:24:59.08	312.53	5.77	-51.5	-67.3	3.6	1.51e+00	0	36	104	0	60	113027
2026-01-07 19:25:00.10	312.41	5.72	-51.5	-67.3	3.6	1.51e+00	0	36	104	0	60	113216
2026-01-07 19:25:01.11	312.30	5.67	-51.5	-67.3	3.6	1.51e+00	0	36	104	0	60	113045
2026-01-07 19:25:02.12	312.19	5.62	-51.5	-67.3	3.6	1.51e+00	0	36	104	0	60	112717
2026-01-07 19:25:03.13	312.08	5.56	-51.5	-67.3	3.6	1.51e+00	0	36	104	0	60	112906
2026-01-07 19:25:04.14	311.97	5.51	-51.5	-67.3	3.6	1.51e+00	0	36	104	0	60	112980
2026-01-07 19:25:05.15	311.86	5.46	-51.5	-67.3	3.6	1.51e+00	0	36	104	0	60	112944
2026-01-07 19:25:06.16	311.74	5.41	-51.5	-67.3	3.6	1.51e+00	0	36	104	0	60	112603
2026-01-07 19:25:07.17	311.63	5.36	-51.5	-67.3	3.6	1.51e+00	0	36	104	0	60	112972
2026-01-07 19:25:08.18	311.52	5.31	-51.5	-67.3	3.6	1.51e+00	0	36	104	0	60	112624
2026-01-07 19:25:09.19	311.42	5.26	-78.4	-86.7	2.4	1.57e+00	0	36	104	0	60	1048574
2026-01-07 19:25:10.20	311.31	5.21	-78.4	-86.7	2.3	1.57e+00	0	36	104	0	60	1048574
2026-01-07 19:25:11.21	311.20	5.16	-78.4	-86.7	2.4	1.57e+00	0	36	104	0	60	1048573
2026-01-07 19:25:12.23	311.09	5.10	-78.4	-86.7	2.4	1.57e+00	0	36	104	0	60	1048575
2026-01-07 19:25:13.24	310.98	5.05	-51.5	-67.2	3.6	1.51e+00	0	36	104	0	60	112073
2026-01-07 19:25:14.25	310.87	5.00	-51.5	-67.3	3.6	1.51e+00	0	36	104	0	60	112487
2026-01-07 19:25:15.26	310.77	4.95	-51.5	-67.3	3.6	1.51e+00	0	36	104	0	60	112838
2026-01-07 19:25:16.27	310.66	4.90	-51.5	-67.3	3.5	1.51e+00	0	36	104	0	60	112497
2026-01-07 19:25:17.28	310.55	4.85	-51.5	-67.3	3.6	1.51e+00	0	36	104	0	60	113015
2026-01-07 19:25:18.29	310.45	4.80	-51.5	-67.3	3.6	1.51e+00	0	36	104	0	60	113001
2026-01-07 19:25:19.30	310.34	4.75	-51.5	-67.3	3.6	1.51e+00	0	36	104	0	60	112626
2026-01-07 19:25:20.31	310.24	4.70	-51.5	-67.3	3.6	1.51e+00	0	36	104	0	60	112907
2026-01-07 19:25:21.32	310.13	4.64	-51.5	-67.3	3.6	1.51e+00	0	36	104	0	60	112838
2026-01-07 19:25:22.34	310.03	4.59	-51.5	-67.3	3.6	1.51e+00	0	36	104	0	60	112959
2026-01-07 19:25:23.35	309.92	4.54	-51.5	-67.3	3.6	1.51e+00	0	36	104	0	60	112467
2026-01-07 19:25:24.36	309.82	4.49	-51.5	-67.3	3.6	1.51e+00	0	36	104	0	60	112475
2026-01-07 19:25:25.37	309.71	4.44	-51.5	-67.3	3.6	1.51e+00	0	36	104	0	60	112420
2026-01-07 19:25:26.38	309.61	4.39	-51.5	-67.3	3.6	1.51e+00	0	36	104	0	60	112800
2026-01-07 19:25:27.39	309.51	4.34	-51.5	-67.3	3.6	1.51e+00	0	36	104	0	60	112877
2026-01-07 19:25:28.40	309.41	4.29	-51.5	-67.2	3.6	1.51e+00	0	36	104	0	60	112307
2026-01-07 19:25:29.41	309.30	4.24	-51.5	-67.3	3.6	1.51e+00	0	36	104	0	60	113059
2026-01-07 19:25:30.42	309.20	4.18	-51.5	-67.2	3.6	1.51e+00	0	36	104	0	60	112027
2026-01-07 19:25:31.43	309.10	4.13	-51.5	-67.3	3.6	1.51e+00	0	36	104	0	60	112636
2026-01-07 19:25:32.44	309.00	4.08	-51.9	-67.4	3.6	1.51e+00	0	36	104	0	60	114254
2026-01-07 19:25:33.46	308.90	4.03	-51.8	-67.4	3.6	1.51e+00	0	36	104	0	60	113882
2026-01-07 19:25:34.47	308.80	3.98	-51.8	-67.4	3.6	1.51e+00	0	36	104	0	60	113881
2026-01-07 19:25:35.48	308.70	3.93	-52.0	-67.4	3.6	1.51e+00	0	36	104	0	60	113920
2026-01-07 19:25:36.49	308.60	3.88	-52.0	-67.4	3.6	1.51e+00	0	36	104	0	60	113796
2026-01-07 19:25:37.50	308.50	3.83	-51.9	-67.3	3.6	1.51e+00	0	36	104	0	60	113257
2026-01-07 19:25:38.51	308.40	3.78	-51.9	-67.4	3.6	1.51e+00	0	36	104	0	60	113697
2026-01-07 19:25:39.52	308.31	3.73	-51.9	-67.4	3.6	1.51e+00	0	36	104	0	60	113913
2026-01-07 19:25:40.53	308.21	3.68	-51.9	-67.3	3.6	1.51e+00	0	36	104	0	60	113006
2026-01-07 19:25:41.54	308.11	3.62	-52.0	-67.3	3.6	1.51e+00	0	36	104	0	60	113056
2026-01-07 19:25:42.55	308.01	3.57	-51.9	-67.3	3.6	1.51e+00	0	36	104	0	60	113209
2026-01-07 19:25:43.57	307.91	3.52	-52.0	-67.3	3.6	1.51e+00	0	36	104	0	60	113001
2026-01-07 19:25:44.58	307.82	3.47	-51.9	-67.4	3.6	1.51e+00	0	36	104	0	60	113904
2026-01-07 19:25:45.59	307.72	3.42	-51.9	-67.3	3.6	1.51e+00	0	36	104	0	60	113195
2026-01-07 19:25:46.60	307.63	3.37	-51.9	-67.3	3.6	1.51e+00	0	36	104	0	60	113021
2026-01-07 19:25:47.61	307.53	3.32	-51.9	-67.3	3.6	1.51e+00	0	36	104	0	60	113316
2026-01-07 19:25:48.62	307.44	3.27	-51.9	-67.3	3.6	1.51e+00	0	36	104	0	60	113204
2026-01-07 19:25:49.63	307.34	3.22	-51.9	-67.3	3.6	1.51e+00	0	36	104	0	60	113580
2026-01-07 19:25:50.64	307.25	3.17	-51.9	-67.3	3.6	1.51e+00	0	36	104	0	60	112458
2026-01-07 19:25:51.65	307.15	3.12	-51.9	-67.3	3.6	1.51e+00	0	36	104	0	60	113001
2026-01-07 19:25:52.66	307.06	3.07	-51.9	-67.3	3.6	1.51e+00	0	36	104	0	60	113088
2026-01-07 19:25:53.67	306.97	3.02	-51.9	-67.3	3.6	1.51e+00	0	36	104	0	60	113006
2026-01-07 19:25:54.68	306.87	2.96	-51.9	-67.3	3.6	1.51e+00	0	36	104	0	60	112841
2026-01-07 19:25:55.70	306.78	2.91	-51.9	-67.3	3.6	1.51e+00	0	36	104	0	60	113150
2026-01-07 19:25:56.71	306.69	2.86	-51.9	-67.3	3.6	1.51e+00	0	36	104	0	60	113234
2026-01-07 19:25:57.72	306.59	2.81	-51.9	-67.3	3.6	1.51e+00	0	36	104	0	60	113394
2026-01-07 19:25:58.73	306.50	2.76	-51.9	-67.3	3.6	1.51e+00	0	36	104	0	60	113237
2026-01-07 19:25:59.74	306.41	2.71	-51.9	-67.3	3.6	1.51e+00	0	36	104	0	60	113169
2026-01-07 19:26:00.75	306.32	2.66	-51.9	-67.3	3.6	1.51e+00	0	36	104	0	60	113403
2026-01-07 19:26:01.76	306.23	2.61	-51.9	-67.3	3.6	1.51e+00	0	36	104	0	60	112817
2026-01-07 19:26:02.77	306.14	2.56	-51.9	-67.3	3.6	1.51e+00	0	36	104	0	60	113592
2026-01-07 19:26:03.78	306.05	2.51	-51.9	-67.3	3.6	1.51e+00	0	36	104	0	60	113379
2026-01-07 19:26:04.79	305.96	2.46	-51.9	-67.3	3.6	1.51e+00	0	36	104	0	60	113139
2026-01-07 19:26:05.80	305.87	2.41	-51.9	-67.3	3.6	1.51e+00	0	36	104	0	60	113362
2026-01-07 19:26:06.81	305.78	2.36	-51.9	-67.3	3.6	1.51e+00	0	36	104	0	60	112624
2026-01-07 19:26:07.83	305.69	2.31	-51.9	-67.3	3.6	1.51e+00	0	36	104	0	60	113049
2026-01-07 19:26:08.84	305.60	2.26	-51.9	-67.3	3.6	1.51e+00	0	36	104	0	60	112541
2026-01-07 19:26:09.85	305.51	2.21	-51.9	-67.3	3.6	1.51e+00	0	36	104	0	60	112618
2026-01-07 19:26:10.86	305.42	2.16	-51.9	-67.3	3.6	1.51e+00	0	36	104	0	60	113135
2026-01-07 19:26:11.87	305.34	2.11	-51.9	-67.3	3.6	1.51e+00	0	36	104	0	60	113025
2026-01-07 19:26:12.88	305.25	2.06	-51.9	-67.3	3.6	1.51e+00	0	36	104	0	60	112358
2026-01-07 19:26:13.89	305.16	2.01	-51.9	-67.3	3.6	1.51e+00	0	36	104	0	60	112933
2026-01-07 19:26:14.90	305.08	1.96	-51.9	-67.3	3.6	1.51e+00	0	36	104	0	60	112934
2026-01-07 19:26:15.91	304.99	1.91	-51.9	-67.3	3.6	1.51e+00	0	36	104	0	60	112934
2026-01-07 19:26:16.92	304.90	1.86	-51.9	-67.3	3.6	1.51e+00	0	36	104	0	60	112801
2026-01-07 19:26:17.94	304.82	1.81	-51.9	-67.3	3.6	1.51e+00	0	36	104	0	60	112789
2026-01-07 19:26:18.95	304.73	1.76	-51.9	-67.3	3.6	1.51e+00	0	36	104	0	60	113348
2026-01-07 19:26:19.96	304.65	1.71	-51.9	-67.3	3.6	1.51e+00	0	36	104	0	60	113198
2026-01-07 19:26:20.97	304.56	1.66	-51.9	-67.3	3.6	1.51e+00	0	36	104	0	60	113489
2026-01-07 19:26:21.98	304.48	1.61	-51.9	-67.3	3.6	1.51e+00	0	36	104	0	60	112931
2026-01-07 19:26:22.99	304.39	1.56	-51.9	-67.3	3.6	1.51e+00	0	36	104	0	60	113321
2026-01-07 19:26:24.00	304.31	1.51	-51.9	-67.3	3.6	1.51e+00	0	36	104	0	60	112676
2026-01-07 19:26:25.01	304.22	1.46	-51.9	-67.4	3.6	1.51e+00	0	36	104	0	60	113788
2026-01-07 19:26:26.02	304.14	1.41	-51.9	-67.3	3.6	1.51e+00	0	36	104	0	60	113110
2026-01-07 19:26:27.03	304.06	1.36	-51.9	-67.2	3.6	1.51e+00	0	36	104	0	60	112176
2026-01-07 19:26:28.04	303.97	1.31	-51.9	-67.3	3.6	1.51e+00	0	36	104	0	60	113586
2026-01-07 19:26:29.06	303.89	1.26	-51.9	-67.3	3.6	1.51e+00	0	36	104	0	60	113475
2026-01-07 19:26:30.07	303.81	1.21	-51.9	-67.3	3.6	1.51e+00	0	36	104	0	60	113195
2026-01-07 19:26:31.08	303.73	1.16	-51.9	-67.3	3.6	1.51e+00	0	36	104	0	60	113415
2026-01-07 19:26:32.09	303.64	1.11	-51.9	-67.3	3.6	1.51e+00	0	36	104	0	60	113162
2026-01-07 19:26:33.10	303.56	1.06	-51.9	-67.3	3.6	1.51e+00	0	36	104	0	60	112860
2026-01-07 19:26:34.11	303.48	1.01	-51.9	-67.3	3.6	1.51e+00	0	36	104	0	60	113050
2026-01-07 19:26:35.12	303.40	0.96	-51.9	-67.3	3.6	1.51e+00	0	36	104	0	60	113189
2026-01-07 19:26:36.14	303.32	0.91	-51.9	-67.3	3.6	1.51e+00	0	36	104	0	60	112801
2026-01-07 19:26:37.15	303.24	0.86	-51.9	-67.3	3.6	1.51e+00	0	36	104	0	60	113391
2026-01-07 19:26:38.16	303.16	0.81	-51.9	-67.3	3.6	1.51e+00	0	36	104	0	60	113037
2026-01-07 19:26:39.17	303.08	0.76	-51.9	-67.3	3.6	1.51e+00	0	36	104	0	60	112868
2026-01-07 19:26:40.18	303.00	0.71	-51.9	-67.3	3.6	1.51e+00	0	36	104	0	60	113112
2026-01-07 19:26:41.19	302.92	0.66	-51.9	-67.3	3.6	1.51e+00	0	36	104	0	60	113214
2026-01-07 19:26:42.20	302.84	0.61	-51.9	-67.3	3.6	1.51e+00	0	36	104	0	60	113207
2026-01-07 19:26:43.21	302.76	0.57	-51.9	-67.3	3.6	1.51e+00	0	36	104	0	60	112923
2026-01-07 19:26:44.22	302.68	0.52	-51.9	-67.3	3.6	1.51e+00	0	36	104	0	60	113310
2026-01-07 19:26:45.23	302.61	0.47	-51.9	-67.3	3.6	1.51e+00	0	36	104	0	60	112753
2026-01-07 19:26:46.25	302.53	0.42	-51.9	-67.3	3.6	1.51e+00	0	36	104	0	60	113166
2026-01-07 19:26:47.26	302.45	0.37	-51.9	-67.3	3.6	1.51e+00	0	36	104	0	60	112627
2026-01-07 19:26:48.27	302.37	0.32	-51.9	-67.3	3.6	1.51e+00	0	36	104	0	60	113598
2026-01-07 19:26:49.28	302.30	0.27	-51.9	-67.3	3.6	1.51e+00	0	36	104	0	60	113522
