passes_logs/2026/01/07/R4.6S_Anadyr_2ch/R4.6S_Anadyr_2ch__20260107_235906_TY-42_rec.log

#Pass ID: 20260107_235906_TY-42
#Satellite: TY-42
#Configuration: TY-42_900M
#almurnet v.1.7.20251203
#Start time: 2026-01-07 23:59:36

#Version: 2.2.20231116
#Station: R4.6S_Anadyr_2ch
#Location: 177.4865 lon 64.73178 lat
#TLE: 1 64048U 25103A   25351.20653935  .00008008  00000-0  38191-3 0 09993
#TLE: 2 64048 097.4116 062.1676 0001744 093.8066 035.1511 15.19160500 32445

#Time	Az	El	Level	Level2	SNR	BER	BlckErr	Temp	State	Recorded	gain1	gain2
2026-01-07 23:59:36.84	16.56	2.03	-51.9	-64.6	3.5	1.52e+00	0	33	0	0	60	80096
2026-01-07 23:59:37.84	16.54	2.10	-52.1	-54.6	6.1	0.00e+00	0	34	104	0	60	89888
2026-01-07 23:59:38.86	16.52	2.17	-52.1	-54.6	6.1	0.00e+00	0	34	104	0	60	89996
2026-01-07 23:59:39.87	16.49	2.24	-52.1	-54.6	6.1	0.00e+00	0	34	104	0	60	89819
2026-01-07 23:59:40.88	16.47	2.31	-52.1	-54.6	6.1	0.00e+00	0	34	104	0	60	90033
2026-01-07 23:59:41.89	16.45	2.38	-52.1	-54.6	6.1	0.00e+00	0	34	104	0	60	89645
2026-01-07 23:59:42.90	16.43	2.46	-52.1	-54.6	6.1	0.00e+00	0	34	104	0	60	89891
2026-01-07 23:59:43.91	16.41	2.53	-52.1	-54.6	6.1	0.00e+00	0	35	104	0	60	89779
2026-01-07 23:59:44.92	16.39	2.60	-52.1	-54.6	6.1	0.00e+00	0	35	104	0	60	90191
2026-01-07 23:59:45.93	16.36	2.67	-52.1	-54.6	6.1	0.00e+00	0	35	104	0	60	89959
2026-01-07 23:59:46.94	16.34	2.74	-52.1	-54.6	6.1	0.00e+00	0	35	104	0	60	89523
2026-01-07 23:59:47.95	16.32	2.81	-52.1	-54.6	6.1	0.00e+00	0	35	104	0	60	89539
2026-01-07 23:59:48.96	16.30	2.89	-52.1	-54.6	6.1	0.00e+00	0	35	104	0	60	89679
2026-01-07 23:59:49.97	16.27	2.96	-52.1	-54.6	6.1	0.00e+00	0	35	104	0	60	90076
2026-01-07 23:59:50.98	16.25	3.03	-52.1	-54.6	6.1	0.00e+00	0	35	104	0	60	89680
2026-01-07 23:59:51.99	16.23	3.10	-52.1	-54.6	6.1	0.00e+00	0	35	104	0	60	90031
2026-01-07 23:59:53.00	16.20	3.18	-52.1	-54.6	6.1	0.00e+00	0	35	104	0	60	89662
2026-01-07 23:59:54.01	16.18	3.25	-52.1	-54.6	6.1	0.00e+00	0	35	104	0	60	90094
2026-01-07 23:59:55.02	16.16	3.33	-52.1	-54.6	6.1	0.00e+00	0	35	104	0	60	89642
2026-01-07 23:59:56.03	16.13	3.40	-52.1	-54.6	6.1	0.00e+00	0	35	104	0	60	89905
2026-01-07 23:59:57.04	16.11	3.47	-52.1	-54.6	6.1	0.00e+00	0	35	104	0	60	89986
2026-01-07 23:59:58.05	16.08	3.55	-52.2	-54.6	6.1	0.00e+00	0	35	104	0	60	89907
2026-01-07 23:59:59.07	16.06	3.63	-52.1	-54.6	6.1	0.00e+00	0	35	104	0	60	89906
2026-01-08 00:00:00.08	16.03	3.70	-52.1	-54.5	6.1	0.00e+00	0	35	104	0	60	89185
2026-01-08 00:00:01.09	16.01	3.78	-52.1	-54.6	6.1	0.00e+00	0	35	104	0	60	89597
2026-01-08 00:00:02.10	15.98	3.85	-52.1	-54.6	6.1	0.00e+00	0	35	104	0	60	89360
2026-01-08 00:00:03.11	15.96	3.93	-52.1	-54.6	6.1	0.00e+00	0	35	104	0	60	89921
2026-01-08 00:00:04.12	15.93	4.00	-52.1	-54.6	6.1	0.00e+00	0	35	104	0	60	89840
2026-01-08 00:00:05.13	15.91	4.08	-52.1	-54.6	6.1	0.00e+00	0	35	104	0	60	89326
2026-01-08 00:00:06.14	15.88	4.16	-52.1	-54.6	6.1	0.00e+00	0	35	104	0	60	90222
2026-01-08 00:00:07.15	15.86	4.23	-52.1	-54.7	6.1	0.00e+00	0	35	104	0	60	90335
2026-01-08 00:00:08.16	15.83	4.31	-52.1	-54.6	6.1	0.00e+00	0	35	104	0	60	89828
2026-01-08 00:00:09.17	15.80	4.39	-52.1	-54.6	6.1	0.00e+00	0	35	104	0	60	89824
2026-01-08 00:00:10.18	15.78	4.47	-52.1	-54.6	6.1	0.00e+00	0	35	104	0	60	89531
2026-01-08 00:00:11.19	15.75	4.55	-52.1	-54.7	6.1	0.00e+00	0	35	104	0	60	90600
2026-01-08 00:00:12.20	15.72	4.62	-52.1	-54.6	6.1	0.00e+00	0	35	104	0	60	89909
2026-01-08 00:00:13.21	15.70	4.70	-52.1	-54.6	6.1	0.00e+00	0	35	104	0	60	89862
2026-01-08 00:00:14.22	15.67	4.78	-52.2	-54.6	6.1	0.00e+00	0	35	104	0	60	90044
2026-01-08 00:00:15.24	15.64	4.86	-52.1	-54.6	6.1	0.00e+00	0	35	104	0	60	89983
2026-01-08 00:00:16.25	15.61	4.94	-52.1	-54.6	6.1	0.00e+00	0	35	104	0	60	89893
2026-01-08 00:00:17.26	15.58	5.02	-52.1	-54.7	6.1	0.00e+00	0	35	104	0	60	90311
2026-01-08 00:00:18.27	15.55	5.10	-52.2	-54.6	6.1	0.00e+00	0	35	104	0	60	90207
2026-01-08 00:00:19.28	15.53	5.18	-52.1	-54.6	6.1	0.00e+00	0	35	104	0	60	90095
2026-01-08 00:00:20.29	15.50	5.27	-52.1	-54.6	6.1	0.00e+00	0	35	104	0	60	89675
2026-01-08 00:00:21.30	15.47	5.35	-52.1	-54.6	6.1	0.00e+00	0	36	104	0	60	89709
2026-01-08 00:00:22.31	15.44	5.43	-52.2	-54.6	6.1	0.00e+00	0	36	104	0	60	89786
2026-01-08 00:00:23.32	15.41	5.51	-52.1	-54.6	6.1	0.00e+00	0	36	104	0	60	89841
2026-01-08 00:00:24.33	15.38	5.59	-52.1	-54.6	6.1	0.00e+00	0	36	104	0	60	89770
2026-01-08 00:00:25.34	15.35	5.68	-52.2	-54.6	6.1	0.00e+00	0	36	104	0	60	89560
2026-01-08 00:00:26.35	15.32	5.76	-52.1	-54.6	6.1	0.00e+00	0	36	104	0	60	89919
2026-01-08 00:00:27.36	15.29	5.84	-52.2	-54.6	6.1	0.00e+00	0	36	104	0	60	89825
2026-01-08 00:00:28.37	15.26	5.93	-52.2	-54.6	6.1	0.00e+00	0	36	104	0	60	89998
2026-01-08 00:00:29.39	15.23	6.01	-52.1	-54.6	6.1	0.00e+00	0	36	104	0	60	89853
2026-01-08 00:00:30.40	15.20	6.10	-52.2	-54.7	6.1	0.00e+00	0	36	104	0	60	90468
2026-01-08 00:00:31.41	15.16	6.18	-52.2	-54.6	6.1	0.00e+00	0	36	104	0	60	90039
2026-01-08 00:00:32.42	15.13	6.27	-52.2	-54.7	6.1	0.00e+00	0	36	104	0	60	90365
2026-01-08 00:00:33.43	15.10	6.35	-52.2	-54.6	6.1	0.00e+00	0	36	104	0	60	90081
2026-01-08 00:00:34.44	15.07	6.44	-52.2	-54.7	6.1	0.00e+00	0	36	104	0	60	90416
2026-01-08 00:00:35.45	15.04	6.52	-52.1	-54.7	6.0	0.00e+00	0	36	104	0	60	90311
2026-01-08 00:00:36.46	15.00	6.61	-52.2	-54.6	6.1	0.00e+00	0	36	104	0	60	90036
2026-01-08 00:00:37.48	14.97	6.70	-52.2	-54.6	6.1	0.00e+00	0	36	104	0	60	90132
2026-01-08 00:00:38.49	14.94	6.79	-52.2	-54.6	6.1	0.00e+00	0	36	104	0	60	90059
2026-01-08 00:00:39.50	14.90	6.87	-52.2	-54.6	6.0	0.00e+00	0	36	104	0	60	90201
2026-01-08 00:00:40.51	14.87	6.96	-52.2	-54.6	6.1	0.00e+00	0	36	104	0	60	89612
2026-01-08 00:00:41.52	14.83	7.05	-52.2	-54.6	6.1	0.00e+00	0	36	104	0	60	90099
2026-01-08 00:00:42.53	14.80	7.14	-52.2	-54.6	6.0	0.00e+00	0	36	104	0	60	89664
2026-01-08 00:00:43.54	14.76	7.23	-52.2	-54.6	6.1	0.00e+00	0	36	104	0	60	89813
2026-01-08 00:00:44.55	14.73	7.32	-52.2	-54.6	6.1	0.00e+00	0	36	104	0	60	89669
2026-01-08 00:00:45.56	14.69	7.41	-52.2	-54.7	6.1	0.00e+00	0	36	104	0	60	90283
2026-01-08 00:00:46.58	14.66	7.50	-52.2	-54.6	6.1	0.00e+00	0	36	104	0	60	90119
2026-01-08 00:00:47.59	14.62	7.59	-52.2	-54.6	6.1	0.00e+00	0	36	104	0	60	90179
2026-01-08 00:00:48.60	14.58	7.68	-52.2	-54.6	6.1	0.00e+00	0	36	104	0	60	90052
2026-01-08 00:00:49.61	14.55	7.78	-52.2	-54.7	6.1	0.00e+00	0	36	104	0	60	90336
2026-01-08 00:00:50.62	14.51	7.87	-52.2	-54.7	6.1	0.00e+00	0	36	104	0	60	90659
2026-01-08 00:00:51.63	14.47	7.96	-52.2	-54.6	6.0	0.00e+00	0	36	104	0	60	90037
2026-01-08 00:00:52.64	14.44	8.05	-52.2	-54.7	6.1	0.00e+00	0	36	104	0	60	90497
2026-01-08 00:00:53.65	14.40	8.15	-52.2	-54.7	6.1	0.00e+00	0	36	104	0	60	90423
2026-01-08 00:00:54.66	14.36	8.24	-52.2	-54.6	6.1	0.00e+00	0	36	104	0	60	89775
2026-01-08 00:00:55.68	14.32	8.34	-52.2	-54.6	6.1	0.00e+00	0	36	104	0	60	89940
2026-01-08 00:00:56.69	14.28	8.43	-52.2	-54.6	6.1	0.00e+00	0	36	104	0	60	89985
2026-01-08 00:00:57.70	14.24	8.53	-52.2	-54.6	6.1	0.00e+00	0	36	104	0	60	90064
2026-01-08 00:00:58.71	14.20	8.62	-52.2	-54.7	6.1	0.00e+00	0	36	104	0	60	90308
2026-01-08 00:00:59.72	14.16	8.72	-52.1	-54.6	6.1	0.00e+00	0	36	104	0	60	89811
2026-01-08 00:01:00.73	14.12	8.82	-52.2	-54.6	6.1	0.00e+00	0	36	104	0	60	90011
2026-01-08 00:01:01.74	14.08	8.92	-52.2	-54.7	6.1	0.00e+00	0	36	104	0	60	90379
2026-01-08 00:01:02.75	14.04	9.01	-52.2	-54.6	6.1	0.00e+00	0	36	104	0	60	90096
2026-01-08 00:01:03.76	14.00	9.11	-52.2	-54.6	6.1	0.00e+00	0	36	104	0	60	90168
2026-01-08 00:01:04.77	13.95	9.21	-52.2	-54.6	6.1	0.00e+00	0	36	104	0	60	89776
2026-01-08 00:01:05.79	13.91	9.31	-52.2	-54.6	6.1	0.00e+00	0	36	104	0	60	90149
2026-01-08 00:01:06.80	13.87	9.41	-52.2	-54.6	6.1	0.00e+00	0	36	104	0	60	90266
2026-01-08 00:01:07.81	13.83	9.51	-52.2	-54.6	6.1	0.00e+00	0	36	104	0	60	90149
2026-01-08 00:01:08.82	13.78	9.61	-52.2	-54.6	6.1	0.00e+00	0	36	104	0	60	90076
2026-01-08 00:01:09.83	13.74	9.71	-52.2	-54.7	6.1	0.00e+00	0	36	104	0	60	90289
2026-01-08 00:01:10.84	13.69	9.82	-52.2	-54.6	6.1	0.00e+00	0	36	104	0	60	89784
2026-01-08 00:01:11.85	13.65	9.92	-52.2	-54.6	6.1	0.00e+00	0	36	104	0	60	89998
2026-01-08 00:01:12.86	13.60	10.02	-52.2	-54.6	6.1	0.00e+00	0	36	104	0	60	90109
2026-01-08 00:01:13.87	13.56	10.13	-52.2	-54.6	6.1	0.00e+00	0	36	104	0	60	90157
2026-01-08 00:01:14.89	13.51	10.23	-52.2	-54.6	6.1	0.00e+00	0	36	104	0	60	89946
2026-01-08 00:01:15.90	13.46	10.34	-52.2	-54.7	6.1	0.00e+00	0	36	104	0	60	90368
2026-01-08 00:01:16.91	13.42	10.44	-52.2	-54.7	6.1	0.00e+00	0	36	104	0	60	90619
2026-01-08 00:01:17.92	13.37	10.55	-52.2	-54.6	6.1	0.00e+00	0	36	104	0	60	90191
2026-01-08 00:01:18.93	13.32	10.65	-52.2	-54.7	6.1	0.00e+00	0	37	104	0	60	90440
2026-01-08 00:01:19.94	13.27	10.76	-52.2	-54.6	6.1	0.00e+00	0	37	104	0	60	90142
2026-01-08 00:01:20.95	13.23	10.87	-52.2	-54.6	6.1	0.00e+00	0	36	104	0	60	90142
2026-01-08 00:01:21.96	13.18	10.98	-52.2	-54.6	6.1	0.00e+00	0	36	104	0	60	90029
2026-01-08 00:01:22.97	13.13	11.09	-52.2	-54.6	6.1	0.00e+00	0	37	104	0	60	89621
2026-01-08 00:01:23.99	13.08	11.20	-52.2	-54.6	6.1	0.00e+00	0	37	104	0	60	89769
2026-01-08 00:01:25.00	13.02	11.31	-52.2	-54.6	6.1	0.00e+00	0	37	104	0	60	90022
2026-01-08 00:01:26.01	12.97	11.42	-52.2	-54.7	6.1	0.00e+00	0	37	104	0	60	90972
2026-01-08 00:01:27.02	12.92	11.53	-52.2	-54.6	6.1	0.00e+00	0	37	104	0	60	90181
2026-01-08 00:01:28.03	12.87	11.64	-52.2	-54.6	6.0	0.00e+00	0	37	104	0	60	90167
2026-01-08 00:01:29.04	12.82	11.76	-52.2	-54.6	6.1	0.00e+00	0	36	104	0	60	89932
2026-01-08 00:01:30.05	12.76	11.87	-52.2	-54.6	6.1	0.00e+00	0	37	104	0	60	90090
2026-01-08 00:01:31.06	12.71	11.98	-52.2	-54.6	6.1	0.00e+00	0	37	104	0	60	89849
2026-01-08 00:01:32.07	12.65	12.10	-52.2	-54.6	6.1	0.00e+00	0	37	104	0	60	90072
2026-01-08 00:01:33.08	12.60	12.21	-52.2	-54.7	6.1	0.00e+00	0	37	104	0	60	90451
2026-01-08 00:01:34.10	12.54	12.33	-52.2	-54.6	6.1	0.00e+00	0	37	104	0	60	90169
2026-01-08 00:01:35.11	12.49	12.45	-52.2	-54.6	6.1	0.00e+00	0	37	104	0	60	89657
2026-01-08 00:01:36.12	12.43	12.57	-52.2	-54.6	6.0	0.00e+00	0	37	104	0	60	89722
2026-01-08 00:01:37.13	12.37	12.68	-52.2	-54.6	6.1	0.00e+00	0	37	104	0	60	90209
2026-01-08 00:01:38.14	12.32	12.80	-52.2	-54.6	6.1	0.00e+00	0	37	104	0	60	89976
2026-01-08 00:01:39.15	12.26	12.92	-52.2	-54.6	6.1	0.00e+00	0	37	104	0	60	90232
2026-01-08 00:01:40.16	12.20	13.04	-52.2	-54.6	6.1	0.00e+00	0	37	104	0	60	90166
2026-01-08 00:01:41.17	12.14	13.17	-52.2	-54.6	6.1	0.00e+00	0	37	104	0	60	90164
2026-01-08 00:01:42.18	12.08	13.29	-52.2	-54.7	6.1	0.00e+00	0	37	104	0	60	90285
2026-01-08 00:01:43.19	12.02	13.41	-52.2	-54.6	6.1	0.00e+00	0	37	104	0	60	90018
2026-01-08 00:01:44.20	11.95	13.53	-52.2	-54.7	6.1	0.00e+00	0	37	104	0	60	90457
2026-01-08 00:01:45.21	11.89	13.66	-52.2	-54.6	6.1	0.00e+00	0	37	104	0	60	90150
2026-01-08 00:01:46.23	11.83	13.79	-52.2	-54.6	6.1	0.00e+00	0	37	104	0	60	89958
2026-01-08 00:01:47.24	11.77	13.91	-52.2	-54.6	6.1	0.00e+00	0	37	104	0	60	90061
2026-01-08 00:01:48.25	11.70	14.04	-52.2	-54.6	6.1	0.00e+00	0	37	104	0	60	90190
2026-01-08 00:01:49.26	11.64	14.17	-52.2	-54.7	6.1	0.00e+00	0	37	104	0	60	90392
2026-01-08 00:01:50.27	11.57	14.30	-52.2	-54.7	6.0	0.00e+00	0	37	104	0	60	90724
2026-01-08 00:01:51.28	11.50	14.43	-52.2	-54.6	6.1	0.00e+00	0	37	104	0	60	90043
2026-01-08 00:01:52.29	11.44	14.56	-52.2	-54.6	6.1	0.00e+00	0	37	104	0	60	90208
2026-01-08 00:01:53.30	11.37	14.69	-52.2	-54.6	6.1	0.00e+00	0	37	104	0	60	90112
2026-01-08 00:01:54.31	11.30	14.82	-52.2	-54.6	6.1	0.00e+00	0	37	104	0	60	89540
2026-01-08 00:01:55.32	11.23	14.95	-52.2	-54.6	6.1	0.00e+00	0	37	104	0	60	90036
2026-01-08 00:01:56.34	11.16	15.09	-52.2	-54.6	6.1	0.00e+00	0	37	104	0	60	90148
2026-01-08 00:01:57.35	11.09	15.22	-52.2	-54.6	6.1	0.00e+00	0	37	104	0	60	89795
2026-01-08 00:01:58.36	11.02	15.36	-52.2	-54.6	6.1	0.00e+00	0	37	104	0	60	90081
2026-01-08 00:01:59.37	10.94	15.49	-52.2	-54.6	6.1	0.00e+00	0	37	104	0	60	90231
2026-01-08 00:02:00.38	10.87	15.63	-52.2	-54.6	6.1	0.00e+00	0	37	104	0	60	89637
2026-01-08 00:02:01.39	10.80	15.77	-52.2	-54.7	6.1	0.00e+00	0	37	104	0	60	90506
2026-01-08 00:02:02.40	10.72	15.91	-52.2	-54.7	6.1	0.00e+00	0	37	104	0	60	90388
2026-01-08 00:02:03.41	10.64	16.05	-52.2	-54.7	6.1	0.00e+00	0	37	104	0	60	90780
2026-01-08 00:02:04.42	10.57	16.19	-52.2	-54.7	6.1	0.00e+00	0	37	104	0	60	90340
2026-01-08 00:02:05.43	10.49	16.34	-52.2	-54.6	6.1	0.00e+00	0	37	104	0	60	89984
2026-01-08 00:02:06.44	10.41	16.48	-52.2	-54.6	6.1	0.00e+00	0	37	104	0	60	90058
2026-01-08 00:02:07.45	10.33	16.62	-52.2	-54.6	6.1	0.00e+00	0	37	104	0	60	90251
2026-01-08 00:02:08.46	10.25	16.77	-52.2	-54.6	6.1	0.00e+00	0	37	104	0	60	90075
2026-01-08 00:02:09.47	10.17	16.92	-52.2	-54.6	6.1	0.00e+00	0	37	104	0	60	90086
2026-01-08 00:02:10.49	10.08	17.07	-52.2	-54.6	6.1	0.00e+00	0	37	104	0	60	89888
2026-01-08 00:02:11.50	10.00	17.21	-52.2	-54.7	6.1	0.00e+00	0	37	104	0	60	90403
2026-01-08 00:02:12.51	9.92	17.36	-52.2	-54.6	6.1	0.00e+00	0	37	104	0	60	90021
2026-01-08 00:02:13.52	9.83	17.52	-52.2	-54.6	6.1	0.00e+00	0	37	104	0	60	89844
2026-01-08 00:02:14.53	9.74	17.67	-52.2	-54.6	6.1	0.00e+00	0	37	104	0	60	90169
2026-01-08 00:02:15.54	9.66	17.82	-52.2	-54.7	6.1	0.00e+00	0	37	104	0	60	90438
2026-01-08 00:02:16.55	9.57	17.98	-52.2	-54.6	6.1	0.00e+00	0	37	104	0	60	89809
2026-01-08 00:02:17.56	9.48	18.13	-52.2	-54.6	6.1	0.00e+00	0	37	104	0	60	90173
2026-01-08 00:02:18.57	9.39	18.29	-52.2	-54.7	6.1	0.00e+00	0	37	104	0	60	90349
2026-01-08 00:02:19.58	9.29	18.45	-52.2	-54.6	6.1	0.00e+00	0	37	104	0	60	90184
2026-01-08 00:02:20.60	9.20	18.61	-52.2	-54.6	6.1	0.00e+00	0	37	104	0	60	90002
2026-01-08 00:02:21.61	9.10	18.77	-52.2	-54.7	6.1	0.00e+00	0	37	104	0	60	90588
2026-01-08 00:02:22.62	9.01	18.93	-52.2	-54.6	6.1	0.00e+00	0	37	104	0	60	90249
2026-01-08 00:02:23.63	8.91	19.09	-52.2	-54.6	6.1	0.00e+00	0	37	104	0	60	90139
2026-01-08 00:02:24.64	8.81	19.26	-52.2	-54.6	6.1	0.00e+00	0	37	104	0	60	90207
2026-01-08 00:02:25.65	8.71	19.43	-52.2	-54.6	6.1	0.00e+00	0	37	104	0	60	90023
2026-01-08 00:02:26.66	8.61	19.59	-52.2	-54.6	6.1	0.00e+00	0	37	104	0	60	89897
2026-01-08 00:02:27.67	8.51	19.76	-52.2	-54.7	6.1	0.00e+00	0	37	104	0	60	90827
2026-01-08 00:02:28.68	8.41	19.93	-52.3	-54.8	6.1	0.00e+00	0	37	104	0	60	91464
2026-01-08 00:02:29.69	8.30	20.10	-52.3	-54.8	6.1	0.00e+00	0	37	104	0	60	91798
2026-01-08 00:02:30.70	8.20	20.27	-52.2	-54.7	6.1	0.00e+00	0	37	104	0	60	90604
2026-01-08 00:02:31.71	8.09	20.45	-52.3	-54.8	6.1	0.00e+00	0	37	104	0	60	91575
2026-01-08 00:02:32.73	7.98	20.63	-52.3	-54.8	6.1	0.00e+00	0	37	104	0	60	91612
2026-01-08 00:02:33.74	7.87	20.80	-52.3	-54.8	6.1	0.00e+00	0	37	104	0	60	92344
2026-01-08 00:02:34.75	7.75	20.98	-52.2	-54.7	6.1	0.00e+00	0	37	104	0	60	90359
2026-01-08 00:02:35.76	7.64	21.16	-52.2	-54.7	6.1	0.00e+00	0	37	104	0	60	90364
2026-01-08 00:02:36.77	7.53	21.34	-52.2	-54.7	6.1	0.00e+00	0	37	104	0	60	90376
2026-01-08 00:02:37.78	7.41	21.53	-52.1	-54.6	6.1	0.00e+00	0	37	104	0	60	89722
2026-01-08 00:02:38.79	7.29	21.71	-52.1	-54.6	6.1	0.00e+00	0	37	104	0	60	90158
2026-01-08 00:02:39.80	7.17	21.90	-51.8	-54.3	6.1	0.00e+00	0	37	104	0	60	86952
2026-01-08 00:02:40.81	7.05	22.08	-51.5	-54.0	6.1	0.00e+00	0	37	104	0	60	84030
2026-01-08 00:02:41.82	6.92	22.27	-51.3	-53.8	6.1	0.00e+00	0	37	104	0	60	82092
2026-01-08 00:02:42.83	6.80	22.46	-51.1	-53.6	6.1	0.00e+00	0	37	104	0	60	80223
2026-01-08 00:02:43.85	6.67	22.66	-51.0	-53.5	6.1	0.00e+00	0	37	104	0	60	79373
2026-01-08 00:02:44.86	6.54	22.85	-51.0	-53.5	6.1	0.00e+00	0	37	104	0	60	78776
2026-01-08 00:02:45.87	6.41	23.05	-51.0	-53.5	6.1	0.00e+00	0	37	104	0	60	78878
2026-01-08 00:02:46.88	6.28	23.24	-51.0	-53.5	6.1	0.00e+00	0	37	104	0	60	78920
2026-01-08 00:02:47.89	6.14	23.44	-51.0	-53.5	6.1	0.00e+00	0	37	104	0	60	79117
2026-01-08 00:02:48.90	6.01	23.64	-51.0	-53.5	6.1	0.00e+00	0	37	104	0	60	79272
2026-01-08 00:02:49.91	5.87	23.85	-51.0	-53.5	6.1	0.00e+00	0	37	104	0	60	78820
2026-01-08 00:02:50.92	5.73	24.05	-51.0	-53.5	6.1	0.00e+00	0	37	104	0	60	78797
2026-01-08 00:02:51.93	5.58	24.26	-51.0	-53.5	6.1	0.00e+00	0	37	104	0	60	79181
2026-01-08 00:02:52.94	5.44	24.47	-51.0	-53.5	6.1	0.00e+00	0	37	104	0	60	78675
2026-01-08 00:02:53.95	5.29	24.67	-51.0	-53.5	6.1	0.00e+00	0	37	104	0	60	78914
2026-01-08 00:02:54.96	5.14	24.89	-51.0	-53.5	6.1	0.00e+00	0	37	104	0	60	78663
2026-01-08 00:02:55.98	4.99	25.10	-51.0	-53.5	6.1	0.00e+00	0	37	104	0	60	78772
2026-01-08 00:02:56.99	4.83	25.32	-51.0	-53.5	6.1	0.00e+00	0	37	104	0	60	78660
2026-01-08 00:02:58.00	4.68	25.54	-51.0	-53.5	6.0	0.00e+00	0	37	104	0	60	78876
2026-01-08 00:02:59.01	4.52	25.75	-51.0	-53.5	6.1	0.00e+00	0	37	104	0	60	78701
2026-01-08 00:03:00.02	4.36	25.98	-51.0	-53.5	6.1	0.00e+00	0	37	104	0	60	79065
2026-01-08 00:03:01.03	4.19	26.20	-51.0	-53.5	6.1	0.00e+00	0	37	104	0	60	78727
2026-01-08 00:03:02.04	4.03	26.42	-51.0	-53.5	6.1	0.00e+00	0	37	104	0	60	79026
2026-01-08 00:03:03.05	3.86	26.65	-51.0	-53.5	6.1	0.00e+00	0	37	104	0	60	79168
2026-01-08 00:03:04.06	3.68	26.88	-51.0	-53.5	6.1	0.00e+00	0	37	104	0	60	78941
2026-01-08 00:03:05.07	3.51	27.11	-51.0	-53.4	6.1	0.00e+00	0	37	104	0	60	78607
2026-01-08 00:03:06.08	3.33	27.35	-51.0	-53.5	6.1	0.00e+00	0	37	104	0	60	78993
2026-01-08 00:03:07.09	3.15	27.58	-51.0	-53.5	6.1	0.00e+00	0	37	104	0	60	79182
2026-01-08 00:03:08.11	2.96	27.82	-51.0	-53.4	6.1	0.00e+00	0	37	104	0	60	78353
2026-01-08 00:03:09.12	2.78	28.06	-51.0	-53.5	6.1	0.00e+00	0	37	104	0	60	78814
2026-01-08 00:03:10.13	2.59	28.31	-51.0	-53.5	6.1	0.00e+00	0	37	104	0	60	78832
2026-01-08 00:03:11.14	2.39	28.55	-51.0	-53.5	6.1	0.00e+00	0	37	104	0	60	78774
2026-01-08 00:03:12.15	2.20	28.80	-51.0	-53.5	6.1	0.00e+00	0	37	104	0	60	78878
2026-01-08 00:03:13.16	2.00	29.05	-51.0	-53.5	6.1	0.00e+00	0	37	104	0	60	78894
2026-01-08 00:03:14.17	1.79	29.30	-51.0	-53.5	6.1	0.00e+00	0	37	104	0	60	78741
2026-01-08 00:03:15.18	1.59	29.55	-51.0	-53.5	6.1	0.00e+00	0	37	104	0	60	79039
2026-01-08 00:03:16.20	1.37	29.81	-51.0	-53.5	6.1	0.00e+00	0	37	104	0	60	78898
2026-01-08 00:03:17.21	1.16	30.07	-51.0	-53.5	6.1	0.00e+00	0	37	104	0	60	79108
2026-01-08 00:03:18.22	0.94	30.33	-51.0	-53.5	6.1	0.00e+00	0	37	104	0	60	79004
2026-01-08 00:03:19.23	0.72	30.59	-51.0	-53.5	6.1	0.00e+00	0	37	104	0	60	78928
2026-01-08 00:03:20.24	0.49	30.86	-51.0	-53.5	6.1	0.00e+00	0	37	104	0	60	78652
2026-01-08 00:03:21.25	0.26	31.12	-51.0	-53.5	6.1	0.00e+00	0	37	104	0	60	78891
2026-01-08 00:03:22.26	0.02	31.39	-51.0	-53.5	6.1	0.00e+00	0	37	104	0	60	78763
2026-01-08 00:03:23.27	359.79	31.67	-51.0	-53.5	6.1	0.00e+00	0	37	104	0	60	78978
2026-01-08 00:03:24.28	359.54	31.94	-51.0	-53.5	6.1	0.00e+00	0	37	104	0	60	78679
2026-01-08 00:03:25.30	359.29	32.22	-51.0	-53.4	6.1	0.00e+00	0	37	104	0	60	78601
2026-01-08 00:03:26.31	359.04	32.50	-51.0	-53.5	6.1	0.00e+00	0	37	104	0	60	79027
2026-01-08 00:03:27.32	358.78	32.78	-51.1	-53.5	6.1	0.00e+00	0	37	104	0	60	79365
2026-01-08 00:03:28.33	358.52	33.07	-51.1	-53.5	6.1	0.00e+00	0	38	104	0	60	79215
2026-01-08 00:03:29.34	358.25	33.36	-51.0	-53.5	6.1	0.00e+00	0	37	104	0	60	79170
2026-01-08 00:03:30.35	357.98	33.65	-51.1	-53.6	6.1	0.00e+00	0	37	104	0	60	80019
2026-01-08 00:03:31.36	357.70	33.94	-51.0	-53.5	6.1	0.00e+00	0	38	104	0	60	79121
2026-01-08 00:03:32.37	357.42	34.23	-51.1	-53.6	6.1	0.00e+00	0	37	104	0	60	80217
2026-01-08 00:03:33.38	357.13	34.53	-51.1	-53.6	6.1	0.00e+00	0	37	104	0	60	79642
2026-01-08 00:03:34.39	356.83	34.83	-51.2	-53.6	6.1	0.00e+00	0	37	104	0	60	80237
2026-01-08 00:03:35.41	356.53	35.14	-51.1	-53.6	6.1	0.00e+00	0	37	104	0	60	80045
2026-01-08 00:03:36.42	356.22	35.44	-51.1	-53.7	6.1	0.00e+00	0	37	104	0	60	80585
2026-01-08 00:03:37.43	355.91	35.75	-51.2	-53.6	6.1	0.00e+00	0	37	104	0	60	80123
2026-01-08 00:03:38.44	355.59	36.06	-51.2	-53.7	6.1	0.00e+00	0	37	104	0	60	81036
2026-01-08 00:03:39.45	355.26	36.37	-51.1	-53.6	6.1	0.00e+00	0	37	104	0	60	79850
2026-01-08 00:03:40.46	354.93	36.68	-51.2	-53.7	6.1	0.00e+00	0	37	104	0	60	80657
2026-01-08 00:03:41.47	354.59	37.00	-51.2	-53.7	6.1	0.00e+00	0	37	104	0	60	80507
2026-01-08 00:03:42.48	354.24	37.32	-51.2	-53.7	6.1	0.00e+00	0	37	104	0	60	80900
2026-01-08 00:03:43.49	353.89	37.64	-51.2	-53.6	6.1	0.00e+00	0	37	104	0	60	80320
2026-01-08 00:03:44.50	353.52	37.97	-51.3	-53.7	6.1	0.00e+00	0	37	104	0	60	80992
2026-01-08 00:03:45.52	353.15	38.30	-51.2	-53.7	6.1	0.00e+00	0	37	104	0	60	81171
2026-01-08 00:03:46.53	352.77	38.63	-51.2	-53.8	6.1	0.00e+00	0	37	104	0	60	81404
2026-01-08 00:03:47.54	352.39	38.96	-51.3	-53.7	6.1	0.00e+00	0	37	104	0	60	81123
2026-01-08 00:03:48.55	351.99	39.29	-51.2	-53.7	6.1	0.00e+00	0	37	104	0	60	80696
2026-01-08 00:03:49.56	351.59	39.63	-51.3	-53.8	6.1	0.00e+00	0	37	104	0	60	82082
2026-01-08 00:03:50.57	351.18	39.97	-51.2	-53.7	6.1	0.00e+00	0	37	104	0	60	81066
2026-01-08 00:03:51.58	350.76	40.31	-51.3	-53.8	6.1	0.00e+00	0	37	104	0	60	81684
2026-01-08 00:03:52.59	350.32	40.65	-51.3	-53.8	6.1	0.00e+00	0	37	104	0	60	81766
2026-01-08 00:03:53.60	349.88	40.99	-51.3	-53.8	6.1	0.00e+00	0	38	104	0	60	81424
2026-01-08 00:03:54.61	349.43	41.34	-51.3	-53.8	6.1	0.00e+00	0	37	104	0	60	82102
2026-01-08 00:03:55.62	348.97	41.68	-51.4	-53.8	6.1	0.00e+00	0	37	104	0	60	82128
2026-01-08 00:03:56.63	348.50	42.03	-51.3	-53.8	6.1	0.00e+00	0	37	104	0	60	81748
2026-01-08 00:03:57.64	348.02	42.38	-51.4	-53.9	6.1	0.00e+00	0	37	104	0	60	82665
2026-01-08 00:03:58.65	347.53	42.74	-51.4	-53.8	6.1	0.00e+00	0	37	104	0	60	82129
2026-01-08 00:03:59.66	347.02	43.09	-51.4	-53.9	6.1	0.00e+00	0	37	104	0	60	82986
2026-01-08 00:04:00.67	346.50	43.44	-51.4	-53.9	6.1	0.00e+00	0	37	104	0	60	82777
2026-01-08 00:04:01.69	345.97	43.80	-51.4	-53.9	6.1	0.00e+00	0	37	104	0	60	83080
2026-01-08 00:04:02.70	345.43	44.16	-35.0	-35.3	11.3	0.00e+00	240	37	104	0	60	9774
2026-01-08 00:04:03.71	344.87	44.52	-36.5	-36.8	12.1	0.00e+00	5496	37	104	0	54	16324
2026-01-08 00:04:04.72	344.31	44.88	-35.1	-35.5	14.4	0.00e+00	0	38	102	8388608	52	15822
2026-01-08 00:04:05.73	343.73	45.24	-34.7	-35.1	14.6	6.21e-02	0	38	102	8388608	50	16864
2026-01-08 00:04:06.74	343.13	45.60	-34.7	-35.1	14.6	6.21e-02	0	38	102	8388608	50	16953
2026-01-08 00:04:07.75	342.52	45.95	-34.0	-34.5	14.9	1.12e-02	0	38	102	8388608	50	15711
2026-01-08 00:04:08.76	341.90	46.31	-34.1	-34.5	14.8	1.12e-02	0	38	102	8388608	48	17677
2026-01-08 00:04:09.77	341.26	46.67	-34.2	-34.7	14.8	8.53e-03	0	38	102	8388608	48	18073
2026-01-08 00:04:10.78	340.61	47.03	-33.4	-33.9	15.2	8.53e-03	0	38	102	8388608	48	16478
2026-01-08 00:04:11.80	339.93	47.39	-33.3	-33.8	15.1	5.16e-03	0	38	102	8388608	46	18296
2026-01-08 00:04:12.81	339.24	47.75	-33.2	-33.6	15.2	5.16e-03	0	38	102	8388608	46	17979
2026-01-08 00:04:13.82	338.54	48.11	-33.0	-33.4	15.4	3.31e-03	0	38	102	8388608	46	17558
2026-01-08 00:04:14.83	337.82	48.46	-32.5	-33.0	15.5	3.31e-03	0	38	102	8388608	46	16644
2026-01-08 00:04:15.84	337.09	48.81	-32.3	-32.8	15.5	1.64e-03	0	38	102	8388608	46	16249
2026-01-08 00:04:16.85	336.33	49.17	-32.1	-32.5	15.7	1.64e-03	0	38	102	8388608	46	15864
2026-01-08 00:04:17.86	335.56	49.51	-31.3	-31.7	15.9	1.64e-03	0	38	102	8388608	44	16227
2026-01-08 00:04:18.87	334.77	49.86	-31.0	-31.4	16.1	7.03e-04	0	38	102	8388608	42	17586
2026-01-08 00:04:19.88	333.96	50.20	-31.1	-31.6	16.0	7.03e-04	0	38	102	8388608	42	17900
2026-01-08 00:04:20.90	333.12	50.55	-31.0	-31.5	16.0	2.62e-04	0	38	102	8388608	42	17648
2026-01-08 00:04:21.91	332.28	50.88	-30.8	-31.3	16.1	2.62e-04	0	38	102	8388608	42	17296
2026-01-08 00:04:22.92	331.41	51.22	-30.8	-31.3	16.1	2.83e-04	0	38	102	8388608	42	17229
2026-01-08 00:04:23.93	330.52	51.54	-30.8	-31.3	16.1	2.83e-04	0	38	102	8388608	42	17283
2026-01-08 00:04:24.94	329.62	51.87	-30.7	-31.1	16.2	1.80e-04	0	38	102	8388608	42	16932
2026-01-08 00:04:25.95	328.69	52.18	-30.6	-31.0	16.2	1.80e-04	0	38	102	8388608	42	16786
2026-01-08 00:04:26.96	327.74	52.50	-30.5	-31.0	16.2	1.80e-04	0	38	102	8388608	42	16708
2026-01-08 00:04:27.97	326.77	52.80	-30.5	-30.9	16.2	8.71e-05	0	38	102	8388608	42	16611
2026-01-08 00:04:28.98	325.78	53.10	-30.4	-30.8	16.3	8.71e-05	0	38	102	8388608	42	16417
2026-01-08 00:04:30.00	324.76	53.40	-30.5	-31.0	16.3	9.26e-05	0	38	102	8388608	42	16704
2026-01-08 00:04:31.01	323.73	53.69	-30.3	-30.8	16.3	1.42e-04	0	38	102	8388608	42	16255
2026-01-08 00:04:32.02	322.68	53.96	-30.2	-30.7	16.3	1.42e-04	0	38	102	8388608	42	16162
2026-01-08 00:04:33.03	321.61	54.24	-30.2	-30.7	16.3	1.42e-04	0	38	102	8388608	42	16134
2026-01-08 00:04:34.04	320.51	54.50	-30.2	-30.7	16.3	8.71e-05	0	38	102	8388608	42	16167
2026-01-08 00:04:35.05	319.40	54.75	-30.2	-30.6	16.3	8.71e-05	0	38	102	8388608	42	16013
2026-01-08 00:04:36.06	318.26	54.99	-30.2	-30.7	16.2	1.20e-04	0	38	102	8388608	42	16171
2026-01-08 00:04:37.07	317.11	55.23	-30.1	-30.6	16.2	1.20e-04	0	38	102	8388608	40	17840
2026-01-08 00:04:38.08	315.94	55.45	-30.2	-30.7	16.2	1.31e-04	0	38	102	8388608	40	18091
2026-01-08 00:04:39.09	314.75	55.66	-30.0	-30.5	16.3	1.31e-04	0	38	102	8388608	40	17752
2026-01-08 00:04:40.10	313.54	55.86	-29.8	-30.3	16.4	1.31e-04	0	38	102	8388608	40	17371
2026-01-08 00:04:41.11	312.31	56.05	-29.7	-30.2	16.5	9.26e-05	0	38	102	8388608	40	17155
2026-01-08 00:04:42.12	311.07	56.23	-29.9	-30.3	16.4	9.26e-05	0	38	102	8388608	40	17362
2026-01-08 00:04:43.13	309.81	56.39	-29.7	-30.2	16.4	5.44e-05	0	38	102	8388608	40	17092
2026-01-08 00:04:44.15	308.52	56.54	-29.7	-30.2	16.5	5.44e-05	0	38	102	8388608	40	17081
2026-01-08 00:04:45.16	307.24	56.68	-29.4	-29.9	16.5	2.17e-05	0	38	102	8388608	40	16443
2026-01-08 00:04:46.17	305.94	56.80	-29.5	-30.0	16.5	2.17e-05	0	38	102	8388608	40	16760
2026-01-08 00:04:47.18	304.63	56.91	-29.4	-29.9	16.5	1.63e-05	0	38	102	8388608	40	16534
2026-01-08 00:04:48.19	303.31	57.01	-29.2	-29.7	16.6	1.63e-05	0	38	102	8388608	40	16122
2026-01-08 00:04:49.20	301.97	57.09	-29.0	-29.5	16.6	1.08e-05	0	38	102	8388608	40	15844
2026-01-08 00:04:50.21	300.64	57.16	-29.0	-29.5	16.6	1.08e-05	0	38	102	8388608	38	17758
2026-01-08 00:04:51.22	299.29	57.21	-29.0	-29.5	16.6	1.08e-05	0	38	102	8388608	38	17717
2026-01-08 00:04:52.23	297.95	57.25	-29.1	-29.6	16.6	0.00e+00	0	38	102	8388608	38	17911
2026-01-08 00:04:53.25	296.58	57.27	-28.9	-29.4	16.7	0.00e+00	0	38	102	8388608	38	17499
2026-01-08 00:04:54.26	295.23	57.28	-29.0	-29.5	16.6	0.00e+00	0	38	102	8388608	38	17659
2026-01-08 00:04:55.27	293.87	57.28	-28.9	-29.4	16.7	0.00e+00	0	38	102	8388608	38	17445
2026-01-08 00:04:56.28	292.52	57.25	-28.7	-29.2	16.8	1.63e-05	0	38	102	8388608	38	17102
2026-01-08 00:04:57.29	291.17	57.22	-28.7	-29.2	16.7	1.63e-05	0	38	102	8388608	38	17137
2026-01-08 00:04:58.30	289.83	57.16	-28.5	-29.0	16.8	1.08e-05	0	38	102	8388608	38	16758
2026-01-08 00:04:59.31	288.49	57.10	-28.5	-29.0	16.8	1.08e-05	0	38	102	8388608	38	16788
2026-01-08 00:05:00.33	287.15	57.01	-28.4	-28.9	16.8	1.08e-05	0	38	102	8388608	38	16503
2026-01-08 00:05:01.34	285.82	56.92	-28.5	-29.0	16.8	1.08e-05	0	38	102	8388608	38	16673
2026-01-08 00:05:02.35	284.51	56.81	-28.3	-28.8	16.8	0.00e+00	0	38	102	8388608	38	16316
2026-01-08 00:05:03.36	283.21	56.68	-28.2	-28.6	16.9	0.00e+00	0	38	102	8388608	38	16039
2026-01-08 00:05:04.37	281.92	56.55	-28.1	-28.6	16.9	1.08e-05	0	38	102	8388608	38	15978
2026-01-08 00:05:05.38	280.65	56.40	-28.2	-28.7	16.9	1.08e-05	0	38	102	8388608	38	16105
2026-01-08 00:05:06.39	279.39	56.23	-27.9	-28.4	16.9	0.00e+00	0	38	102	8388608	36	17527
2026-01-08 00:05:07.40	278.14	56.06	-28.0	-28.5	16.9	0.00e+00	0	38	102	8388608	36	17787
2026-01-08 00:05:08.41	276.91	55.87	-28.0	-28.5	17.0	0.00e+00	0	38	102	8388608	36	17747
2026-01-08 00:05:09.42	275.70	55.67	-27.8	-28.3	17.0	0.00e+00	0	38	102	8388608	36	17311
2026-01-08 00:05:10.44	274.50	55.45	-27.8	-28.3	17.0	0.00e+00	0	38	102	8388608	36	17353
2026-01-08 00:05:11.45	273.32	55.23	-27.8	-28.4	17.0	0.00e+00	0	38	102	8388608	36	17465
2026-01-08 00:05:12.46	272.17	55.00	-27.8	-28.3	16.9	0.00e+00	0	38	102	8388608	36	17331
2026-01-08 00:05:13.47	271.03	54.76	-27.5	-28.0	17.0	0.00e+00	0	38	102	8388608	36	16750
2026-01-08 00:05:14.48	269.92	54.50	-27.4	-28.0	17.0	0.00e+00	0	38	102	8388608	36	16634
2026-01-08 00:05:15.49	268.82	54.24	-27.4	-27.9	17.0	0.00e+00	0	38	102	8388608	36	16469
2026-01-08 00:05:16.50	267.75	53.97	-27.4	-27.9	17.0	0.00e+00	0	38	102	8388608	36	16596
2026-01-08 00:05:17.51	266.69	53.69	-27.4	-27.9	17.0	0.00e+00	0	38	102	8388608	36	16612
2026-01-08 00:05:18.52	265.66	53.41	-27.1	-27.7	17.1	0.00e+00	0	38	102	8388608	36	16077
2026-01-08 00:05:19.53	264.65	53.11	-27.2	-27.7	17.1	0.00e+00	0	38	102	8388608	36	16185
2026-01-08 00:05:20.54	263.65	52.81	-27.2	-27.7	17.1	0.00e+00	0	38	102	8388608	36	16080
2026-01-08 00:05:21.55	262.68	52.50	-27.1	-27.6	17.1	0.00e+00	0	39	102	8388608	36	16042
2026-01-08 00:05:22.56	261.73	52.19	-27.2	-27.7	17.1	0.00e+00	0	39	102	8388608	36	16142
2026-01-08 00:05:23.58	260.79	51.87	-26.8	-27.3	17.2	0.00e+00	0	38	102	8388608	34	17388
2026-01-08 00:05:24.59	259.88	51.55	-27.0	-27.5	17.1	0.00e+00	0	38	102	8388608	34	17759
2026-01-08 00:05:25.60	258.99	51.22	-26.7	-27.2	17.1	0.00e+00	0	38	102	8388608	34	17082
2026-01-08 00:05:26.61	258.12	50.88	-26.6	-27.1	17.2	0.00e+00	0	38	102	8388608	34	16942
2026-01-08 00:05:27.62	257.28	50.55	-26.6	-27.2	17.1	0.00e+00	0	38	102	8388608	34	17012
2026-01-08 00:05:28.63	256.44	50.21	-26.5	-27.0	17.1	0.00e+00	0	38	102	8388608	34	16744
2026-01-08 00:05:29.64	255.63	49.86	-26.5	-27.0	17.1	0.00e+00	0	38	102	8388608	34	16715
2026-01-08 00:05:30.65	254.84	49.52	-26.4	-26.9	17.1	0.00e+00	0	38	102	8388608	34	16550
2026-01-08 00:05:31.66	254.07	49.17	-26.4	-26.9	17.2	0.00e+00	0	38	102	8388608	34	16616
2026-01-08 00:05:32.67	253.31	48.81	-26.4	-27.0	17.2	0.00e+00	0	38	102	8388608	34	16650
2026-01-08 00:05:33.68	252.57	48.46	-26.3	-26.8	17.2	0.00e+00	0	38	102	8388608	34	16267
2026-01-08 00:05:34.70	251.84	48.10	-26.2	-26.7	17.2	0.00e+00	0	38	102	8388608	34	16223
2026-01-08 00:05:35.71	251.14	47.74	-26.4	-26.9	17.2	0.00e+00	0	38	102	8388608	34	16478
2026-01-08 00:05:36.72	250.45	47.39	-26.1	-26.6	17.2	0.00e+00	0	38	102	8388608	34	15929
2026-01-08 00:05:37.73	249.78	47.03	-26.1	-26.7	17.2	0.00e+00	0	38	102	8388608	34	16106
2026-01-08 00:05:38.74	249.12	46.67	-25.9	-26.4	17.3	0.00e+00	0	38	102	8388608	32	17598
2026-01-08 00:05:39.75	248.48	46.31	-25.9	-26.4	17.3	0.00e+00	0	39	102	8388608	32	17542
2026-01-08 00:05:40.76	247.86	45.95	-25.9	-26.4	17.3	0.00e+00	0	38	102	8388608	32	17532
2026-01-08 00:05:41.77	247.25	45.58	-25.8	-26.4	17.3	0.00e+00	0	38	102	8388608	32	17416
2026-01-08 00:05:42.78	246.65	45.22	-25.9	-26.4	17.3	0.00e+00	0	38	102	8388608	32	17566
2026-01-08 00:05:43.79	246.07	44.86	-25.8	-26.3	17.4	0.00e+00	0	38	102	8388608	32	17252
2026-01-08 00:05:44.80	245.50	44.50	-25.6	-26.1	17.3	0.00e+00	0	39	102	8388608	32	16897
2026-01-08 00:05:45.81	244.94	44.15	-25.8	-26.3	17.4	0.00e+00	0	38	102	8388608	32	17221
2026-01-08 00:05:46.82	244.40	43.79	-25.5	-26.0	17.4	0.00e+00	0	38	102	8388608	32	16759
2026-01-08 00:05:47.84	243.87	43.43	-25.5	-25.9	17.4	0.00e+00	0	38	102	8388608	32	16604
2026-01-08 00:05:48.85	243.35	43.07	-25.6	-26.1	17.4	0.00e+00	0	38	102	8388608	32	16822
2026-01-08 00:05:49.86	242.84	42.72	-25.3	-25.8	17.4	0.00e+00	0	38	102	8388608	32	16426
2026-01-08 00:05:50.87	242.35	42.36	-25.3	-25.8	17.4	0.00e+00	0	38	102	8388608	32	16355
2026-01-08 00:05:51.88	241.86	42.01	-25.1	-25.6	17.4	0.00e+00	0	38	102	8388608	32	16007
2026-01-08 00:05:52.89	241.39	41.66	-25.1	-25.6	17.4	0.00e+00	0	38	102	8388608	30	17954
2026-01-08 00:05:53.90	240.93	41.31	-25.0	-25.5	17.5	0.00e+00	0	38	102	8388608	30	17680
2026-01-08 00:05:54.91	240.48	40.97	-25.0	-25.5	17.4	0.00e+00	0	38	102	8388608	30	17796
2026-01-08 00:05:55.92	240.03	40.62	-24.9	-25.4	17.5	0.00e+00	0	38	102	8388608	30	17567
2026-01-08 00:05:56.93	239.60	40.28	-24.5	-25.0	17.5	0.00e+00	0	38	102	8388608	30	16765
2026-01-08 00:05:57.94	239.18	39.94	-24.6	-25.1	17.5	0.00e+00	0	39	102	8388608	30	16902
2026-01-08 00:05:58.95	238.77	39.60	-24.5	-25.0	17.5	0.00e+00	0	38	102	8388608	30	16736
2026-01-08 00:05:59.96	238.36	39.26	-24.2	-24.8	17.5	0.00e+00	0	38	102	8388608	30	16285
2026-01-08 00:06:00.97	237.97	38.92	-24.2	-24.7	17.5	0.00e+00	0	38	102	8388608	30	16220
2026-01-08 00:06:01.98	237.58	38.59	-24.1	-24.7	17.5	0.00e+00	0	38	102	8388608	30	16077
2026-01-08 00:06:02.99	237.20	38.26	-24.0	-24.5	17.6	0.00e+00	0	39	102	8388608	28	17632
2026-01-08 00:06:04.00	236.83	37.93	-24.0	-24.5	17.5	0.00e+00	0	38	102	8388608	28	17668
2026-01-08 00:06:05.02	236.46	37.60	-23.9	-24.4	17.5	0.00e+00	0	38	102	8388608	28	17558
2026-01-08 00:06:06.03	236.11	37.28	-23.9	-24.4	17.5	0.00e+00	0	39	102	8388608	28	17516
2026-01-08 00:06:07.04	235.76	36.96	-23.9	-24.4	17.5	0.00e+00	0	39	102	8388608	28	17401
2026-01-08 00:06:08.05	235.42	36.64	-23.9	-24.3	17.5	0.00e+00	0	39	102	8388608	28	17396
2026-01-08 00:06:09.06	235.08	36.33	-23.8	-24.3	17.6	0.00e+00	0	38	102	8388608	28	17299
2026-01-08 00:06:10.07	234.76	36.01	-24.0	-24.4	17.6	0.00e+00	0	39	102	8388608	28	17579
2026-01-08 00:06:11.08	234.44	35.70	-23.8	-24.3	17.6	0.00e+00	0	38	102	8388608	28	17270
2026-01-08 00:06:12.09	234.12	35.39	-23.9	-24.4	17.6	0.00e+00	0	39	102	8388608	28	17416
2026-01-08 00:06:13.10	233.81	35.09	-23.8	-24.2	17.6	0.00e+00	0	39	102	8388608	28	17167
2026-01-08 00:06:14.11	233.51	34.78	-23.8	-24.3	17.7	0.00e+00	0	39	102	8388608	28	17204
2026-01-08 00:06:15.12	233.22	34.48	-23.6	-24.1	17.6	0.00e+00	0	39	102	8388608	28	16898
2026-01-08 00:06:16.14	232.92	34.18	-23.7	-24.1	17.6	0.00e+00	0	39	102	8388608	28	17004
2026-01-08 00:06:17.15	232.64	33.88	-23.4	-24.0	17.7	0.00e+00	0	39	102	8388608	28	16620
2026-01-08 00:06:18.16	232.36	33.59	-23.4	-23.9	17.6	0.00e+00	0	38	102	8388608	28	16565
2026-01-08 00:06:19.17	232.09	33.30	-23.6	-24.1	17.6	0.00e+00	0	39	102	8388608	28	16906
2026-01-08 00:06:20.18	231.82	33.01	-23.1	-23.6	17.6	0.00e+00	0	39	102	8388608	28	15980
2026-01-08 00:06:21.19	231.55	32.73	-22.9	-23.5	17.6	0.00e+00	0	39	102	8388608	26	17658
2026-01-08 00:06:22.20	231.30	32.44	-22.9	-23.5	17.6	0.00e+00	0	39	102	8388608	26	17617
2026-01-08 00:06:23.21	231.04	32.16	-22.8	-23.3	17.6	0.00e+00	0	39	102	8388608	26	17316
2026-01-08 00:06:24.22	230.79	31.88	-22.7	-23.2	17.6	0.00e+00	0	39	102	8388608	26	17084
2026-01-08 00:06:25.23	230.55	31.61	-22.6	-23.1	17.6	0.00e+00	0	39	102	8388608	26	16919
2026-01-08 00:06:26.24	230.31	31.33	-22.4	-22.9	17.6	0.00e+00	0	39	102	8388608	26	16498
2026-01-08 00:06:27.26	230.07	31.06	-22.3	-22.8	17.6	0.00e+00	0	39	102	8388608	26	16342
2026-01-08 00:06:28.27	229.84	30.79	-22.4	-22.8	17.6	0.00e+00	0	39	102	8388608	26	16406
2026-01-08 00:06:29.28	229.61	30.52	-22.2	-22.7	17.7	0.00e+00	0	39	102	8388608	26	16126
2026-01-08 00:06:30.29	229.39	30.26	-22.1	-22.6	17.7	0.00e+00	0	39	102	8388608	26	15911
2026-01-08 00:06:31.30	229.17	30.00	-22.0	-22.5	17.6	0.00e+00	0	38	102	8388608	24	17641
2026-01-08 00:06:32.31	228.95	29.74	-21.9	-22.3	17.7	0.00e+00	0	39	102	8388608	24	17390
2026-01-08 00:06:33.32	228.74	29.48	-21.7	-22.2	17.6	0.00e+00	0	38	102	8388608	24	17023
2026-01-08 00:06:34.33	228.54	29.23	-21.8	-22.2	17.7	0.00e+00	0	38	102	8388608	24	17192
2026-01-08 00:06:35.34	228.33	28.98	-21.7	-22.1	17.6	0.00e+00	0	39	102	8388608	24	16947
2026-01-08 00:06:36.35	228.13	28.73	-21.4	-21.9	17.6	0.00e+00	0	39	102	8388608	24	16451
2026-01-08 00:06:37.36	227.93	28.48	-21.3	-21.8	17.7	0.00e+00	0	39	102	8388608	24	16241
2026-01-08 00:06:38.37	227.74	28.23	-21.2	-21.7	17.6	0.00e+00	0	39	102	8388608	24	16128
2026-01-08 00:06:39.39	227.55	27.99	-21.1	-21.5	17.6	0.00e+00	0	39	102	8388608	24	15836
2026-01-08 00:06:40.40	227.36	27.75	-21.1	-21.6	17.6	0.00e+00	0	39	102	8388608	22	17846
2026-01-08 00:06:41.41	227.17	27.51	-21.0	-21.4	17.6	0.00e+00	0	39	102	8388608	22	17540
2026-01-08 00:06:42.42	226.99	27.27	-20.8	-21.3	17.6	0.00e+00	0	39	102	8388608	22	17217
2026-01-08 00:06:43.43	226.81	27.04	-20.8	-21.3	17.6	0.00e+00	0	39	102	8388608	22	17272
2026-01-08 00:06:44.44	226.64	26.81	-20.6	-21.1	17.6	0.00e+00	0	39	102	8388608	22	16811
2026-01-08 00:06:45.45	226.46	26.57	-20.7	-21.1	17.6	0.00e+00	0	39	102	8388608	22	16953
2026-01-08 00:06:46.46	226.29	26.35	-20.3	-20.8	17.6	0.00e+00	0	38	102	8388608	22	16312
2026-01-08 00:06:47.47	226.13	26.12	-20.4	-20.8	17.6	0.00e+00	0	39	102	8388608	22	16388
2026-01-08 00:06:48.48	225.96	25.90	-20.2	-20.7	17.7	0.00e+00	0	39	102	8388608	22	16109
2026-01-08 00:06:49.50	225.80	25.67	-20.4	-20.8	17.6	0.00e+00	0	39	102	8388608	22	16413
2026-01-08 00:06:50.51	225.64	25.45	-20.1	-20.6	17.7	0.00e+00	0	39	102	8388608	22	15872
2026-01-08 00:06:51.52	225.48	25.23	-20.1	-20.5	17.7	0.00e+00	0	39	102	8388608	22	15798
2026-01-08 00:06:52.53	225.33	25.02	-20.0	-20.4	17.7	0.00e+00	0	39	102	8388608	22	15676
2026-01-08 00:06:53.54	225.17	24.80	-20.0	-20.5	17.7	0.00e+00	0	38	102	8388608	20	17641
2026-01-08 00:06:54.55	225.02	24.59	-20.0	-20.4	17.7	0.00e+00	0	39	102	8388608	20	17593
2026-01-08 00:06:55.56	224.88	24.38	-19.8	-20.2	17.7	0.00e+00	0	39	102	8388608	20	17070
2026-01-08 00:06:56.57	224.73	24.17	-19.7	-20.1	17.8	0.00e+00	0	39	102	8388608	20	16935
2026-01-08 00:06:57.58	224.59	23.96	-19.6	-20.0	17.8	0.00e+00	0	39	102	8388608	20	16808
2026-01-08 00:06:58.59	224.44	23.76	-19.7	-20.1	17.7	0.00e+00	0	39	102	8388608	20	16873
2026-01-08 00:06:59.60	224.31	23.56	-19.7	-20.1	17.8	0.00e+00	0	39	102	8388608	20	16988
2026-01-08 00:07:00.61	224.17	23.35	-19.4	-19.9	17.8	0.00e+00	0	39	102	8388608	20	16451
2026-01-08 00:07:01.63	224.03	23.15	-19.4	-19.9	17.8	0.00e+00	0	39	102	8388608	20	16436
2026-01-08 00:07:02.64	223.90	22.95	-19.3	-19.7	17.8	0.00e+00	0	39	102	8388608	20	16098
2026-01-08 00:07:03.65	223.77	22.76	-19.3	-19.7	17.8	0.00e+00	0	39	102	8388608	20	16163
2026-01-08 00:07:04.66	223.64	22.56	-19.3	-19.7	17.9	0.00e+00	0	39	102	8388608	20	16125
2026-01-08 00:07:05.67	223.51	22.37	-19.1	-19.5	17.8	0.00e+00	0	39	102	8388608	20	15820
2026-01-08 00:07:06.68	223.38	22.18	-19.1	-19.5	17.8	0.00e+00	0	39	102	8388608	20	15747
2026-01-08 00:07:07.69	223.26	21.99	-19.1	-19.5	17.8	0.00e+00	0	39	102	8388608	20	15751
2026-01-08 00:07:08.70	223.14	21.80	-18.9	-19.3	17.8	0.00e+00	0	39	102	8388608	18	17369
2026-01-08 00:07:09.71	223.02	21.62	-18.9	-19.3	17.8	0.00e+00	0	39	102	8388608	18	17364
2026-01-08 00:07:10.72	222.90	21.43	-18.9	-19.3	17.8	0.00e+00	0	38	102	8388608	18	17311
2026-01-08 00:07:11.73	222.78	21.25	-18.7	-19.1	17.8	0.00e+00	0	39	102	8388608	18	16854
2026-01-08 00:07:12.75	222.66	21.06	-18.5	-18.9	17.8	0.00e+00	0	39	102	8388608	18	16598
2026-01-08 00:07:13.76	222.55	20.88	-18.7	-19.1	17.8	0.00e+00	0	39	102	8388608	18	16894
2026-01-08 00:07:14.77	222.44	20.70	-18.4	-18.8	17.8	0.00e+00	0	39	102	8388608	18	16413
2026-01-08 00:07:15.78	222.32	20.53	-18.4	-18.8	17.8	0.00e+00	0	39	102	8388608	18	16422
2026-01-08 00:07:16.79	222.22	20.35	-18.3	-18.7	17.7	0.00e+00	0	39	102	8388608	18	16228
2026-01-08 00:07:17.80	222.11	20.18	-18.2	-18.6	17.8	0.00e+00	0	39	102	8388608	18	15933
2026-01-08 00:07:18.81	222.00	20.00	-18.4	-18.8	17.8	0.00e+00	0	39	102	8388608	18	16274
2026-01-08 00:07:19.83	221.89	19.83	-18.2	-18.7	17.8	0.00e+00	0	39	102	8388608	18	16066
2026-01-08 00:07:20.84	221.79	19.66	-18.1	-18.5	17.7	0.00e+00	0	39	102	8388608	18	15742
2026-01-08 00:07:21.85	221.69	19.49	-18.2	-18.6	17.7	0.00e+00	0	39	102	8388608	16	17904
2026-01-08 00:07:22.86	221.59	19.32	-18.7	-19.1	17.7	0.00e+00	0	39	102	8388608	16	18979
2026-01-08 00:07:23.87	221.49	19.16	-18.3	-18.7	17.7	0.00e+00	0	39	102	8388608	16	18052
2026-01-08 00:07:24.88	221.39	18.99	-18.0	-18.4	17.7	0.00e+00	0	39	102	8388608	16	17586
2026-01-08 00:07:25.89	221.29	18.83	-18.2	-18.6	17.7	0.00e+00	0	39	102	8388608	16	17926
2026-01-08 00:07:26.90	221.19	18.66	-18.0	-18.4	17.7	0.00e+00	0	39	102	8388608	16	17545
2026-01-08 00:07:27.91	221.10	18.50	-18.2	-18.6	17.6	0.00e+00	0	39	102	8388608	16	17964
2026-01-08 00:07:28.92	221.00	18.34	-18.4	-18.8	17.7	0.00e+00	0	39	102	8388608	16	18283
2026-01-08 00:07:29.93	220.91	18.18	-18.4	-18.8	17.7	0.00e+00	0	39	102	8388608	16	18286
2026-01-08 00:07:30.94	220.82	18.03	-18.7	-19.1	17.6	0.00e+00	0	39	102	8388608	16	18976
2026-01-08 00:07:31.95	220.73	17.87	-18.6	-19.0	17.7	0.00e+00	0	39	102	8388608	16	18743
2026-01-08 00:07:32.97	220.64	17.71	-18.7	-19.1	17.6	0.00e+00	0	39	102	8388608	16	18961
2026-01-08 00:07:33.98	220.55	17.56	-19.0	-19.4	17.7	0.00e+00	0	39	102	8388608	18	17460
2026-01-08 00:07:34.99	220.46	17.41	-19.6	-20.0	17.6	0.00e+00	0	39	102	8388608	18	18671
2026-01-08 00:07:36.00	220.38	17.26	-19.5	-19.9	17.7	0.00e+00	0	39	102	8388608	18	18457
2026-01-08 00:07:37.01	220.29	17.11	-19.6	-20.0	17.6	0.00e+00	0	39	102	8388608	18	18686
2026-01-08 00:07:38.02	220.21	16.96	-20.1	-20.5	17.6	0.00e+00	0	39	102	8388608	20	17784
2026-01-08 00:07:39.03	220.12	16.81	-21.1	-21.5	17.5	0.00e+00	0	39	102	8388608	22	17682
2026-01-08 00:07:40.04	220.04	16.66	-20.9	-21.3	17.6	0.00e+00	0	39	102	8388608	22	17254
2026-01-08 00:07:41.05	219.96	16.51	-21.7	-22.1	17.5	0.00e+00	0	39	102	8388608	22	18889
2026-01-08 00:07:42.06	219.88	16.37	-22.5	-22.8	17.5	0.00e+00	0	39	102	8388608	24	18419
2026-01-08 00:07:43.07	219.80	16.23	-21.9	-22.3	17.5	0.00e+00	0	39	102	8388608	24	17280
2026-01-08 00:07:44.08	219.72	16.08	-22.1	-22.5	17.4	0.00e+00	0	39	102	8388608	24	17720
2026-01-08 00:07:45.10	219.64	15.94	-22.2	-22.6	17.4	0.00e+00	0	39	102	8388608	24	17848
2026-01-08 00:07:46.11	219.57	15.80	-23.2	-23.5	17.4	0.00e+00	0	39	102	8388608	26	17775
2026-01-08 00:07:47.12	219.49	15.66	-24.1	-24.4	17.3	0.00e+00	0	39	102	8388608	28	17592
2026-01-08 00:07:48.13	219.42	15.52	-23.6	-24.0	17.4	0.00e+00	0	39	102	8388608	28	16647
2026-01-08 00:07:49.14	219.34	15.38	-24.2	-24.5	17.3	0.00e+00	0	39	102	8388608	28	17705
2026-01-08 00:07:50.15	219.27	15.24	-24.6	-25.0	17.3	0.00e+00	0	39	102	8388608	30	16676
2026-01-08 00:07:51.16	219.20	15.11	-25.3	-25.6	17.3	0.00e+00	0	39	102	8388608	30	17868
2026-01-08 00:07:52.17	219.13	14.97	-27.2	-27.6	17.0	0.00e+00	0	39	102	8388608	32	20151
2026-01-08 00:07:53.18	219.05	14.84	-27.5	-27.9	17.0	0.00e+00	0	39	102	8388608	38	14678
2026-01-08 00:07:54.19	218.98	14.70	-28.2	-28.5	17.0	0.00e+00	0	39	102	8388608	36	17791
2026-01-08 00:07:55.20	218.92	14.57	-27.4	-27.7	16.8	5.40e-06	0	39	102	8388608	34	18170
2026-01-08 00:07:56.22	218.85	14.44	-27.9	-28.2	16.8	5.40e-06	0	39	102	8388608	38	15298
2026-01-08 00:07:57.23	218.78	14.31	-29.3	-29.7	16.6	5.40e-06	0	39	102	8388608	40	16225
2026-01-08 00:07:58.24	218.71	14.18	-29.8	-30.1	16.7	0.00e+00	0	39	102	8388608	40	16902
2026-01-08 00:07:59.25	218.64	14.05	-29.0	-29.4	16.4	0.00e+00	0	39	102	8388608	40	15510
2026-01-08 00:08:00.26	218.58	13.92	-30.7	-31.1	16.2	4.90e-05	0	39	102	8388608	40	18991
2026-01-08 00:08:01.27	218.51	13.79	-32.3	-32.7	15.8	4.90e-05	0	39	102	8388608	40	22687
2026-01-08 00:08:02.28	218.45	13.67	-31.3	-31.6	16.2	2.45e-04	0	39	102	8388608	42	17990
2026-01-08 00:08:03.29	218.39	13.54	-31.8	-32.2	16.0	2.45e-04	0	39	102	8388608	42	19134
2026-01-08 00:08:04.30	218.32	13.42	-32.3	-32.6	16.0	3.60e-04	0	39	102	8388608	42	20198
2026-01-08 00:08:05.32	218.26	13.29	-33.3	-33.6	15.6	3.60e-04	0	39	102	8388608	44	20139
2026-01-08 00:08:06.33	218.20	13.17	-34.7	-35.0	15.4	3.60e-04	0	39	102	8388608	48	18805
2026-01-08 00:08:07.34	218.14	13.05	-33.6	-34.0	15.5	1.23e-03	0	39	102	8388608	48	16631
2026-01-08 00:08:08.35	218.08	12.92	-34.3	-34.7	15.3	1.23e-03	0	39	102	8388608	48	18031
2026-01-08 00:08:09.36	218.02	12.80	-34.6	-35.0	15.2	3.42e-03	0	39	102	8388608	50	16631
2026-01-08 00:08:10.37	217.96	12.68	-35.2	-35.5	14.3	3.42e-03	0	39	102	8388608	50	17663
2026-01-08 00:08:11.38	217.90	12.56	-35.4	-35.8	14.4	7.08e-03	0	39	102	8388608	52	16326
2026-01-08 00:08:12.39	217.84	12.45	-36.7	-37.1	14.7	7.08e-03	0	39	102	8388608	50	21328
2026-01-08 00:08:13.40	217.79	12.33	-34.7	-35.1	14.6	1.32e-02	0	39	102	8388608	54	13366
2026-01-08 00:08:14.41	217.73	12.21	-37.4	-37.7	13.5	1.32e-02	0	39	102	8388608	54	18177
2026-01-08 00:08:15.43	217.67	12.09	-36.2	-36.6	14.4	1.58e-02	0	39	102	8388608	52	17848
2026-01-08 00:08:16.44	217.62	11.98	-37.3	-37.6	13.8	1.58e-02	0	39	102	8388608	50	22674
2026-01-08 00:08:17.45	217.56	11.86	-37.0	-37.3	14.2	1.58e-02	0	39	102	8388608	52	19337
2026-01-08 00:08:18.46	217.51	11.75	-36.5	-36.9	13.6	1.82e-02	0	39	102	8388608	54	16447
2026-01-08 00:08:19.47	217.45	11.63	-36.2	-36.6	14.3	1.82e-02	0	39	102	8388608	54	15929
2026-01-08 00:08:20.48	217.40	11.52	-37.7	-38.0	13.7	1.47e-02	0	39	102	8388608	56	16719
2026-01-08 00:08:21.49	217.35	11.41	-36.9	-37.2	14.4	1.47e-02	0	39	102	8388608	52	19289
2026-01-08 00:08:22.50	217.29	11.30	-36.3	-36.7	15.2	1.51e-02	0	39	102	8388608	50	20255
2026-01-08 00:08:23.51	217.24	11.18	-34.8	-35.2	14.7	1.51e-02	0	39	102	8388608	50	17127
2026-01-08 00:08:24.52	217.19	11.07	-34.7	-35.1	15.5	7.08e-03	0	39	102	8388608	50	16822
2026-01-08 00:08:25.54	217.14	10.96	-34.7	-35.1	14.6	7.08e-03	0	39	102	8388608	48	19039
2026-01-08 00:08:26.55	217.09	10.85	-33.7	-34.1	15.9	5.65e-03	0	39	102	8388608	48	16841
2026-01-08 00:08:27.55	217.04	10.75	-32.9	-33.2	16.1	5.65e-03	0	39	102	8388608	48	15325
2026-01-08 00:08:28.57	216.99	10.64	-33.8	-34.2	15.7	5.65e-03	0	39	102	8388608	46	19106
2026-01-08 00:08:29.58	216.94	10.53	-31.8	-32.2	16.4	2.03e-03	0	39	102	8388608	46	15229
2026-01-08 00:08:30.59	216.89	10.42	-31.5	-31.8	16.5	2.03e-03	0	39	102	8388608	44	16402
2026-01-08 00:08:31.60	216.84	10.32	-32.6	-33.0	16.2	7.52e-04	0	39	102	8388608	42	20960
2026-01-08 00:08:32.61	216.80	10.21	-31.3	-31.7	16.6	7.52e-04	0	39	102	8388608	42	18038
2026-01-08 00:08:33.62	216.75	10.11	-31.0	-31.3	16.9	1.52e-04	0	39	102	8388608	42	17374
2026-01-08 00:08:34.63	216.70	10.00	-29.2	-29.6	16.9	1.52e-04	0	39	102	8388608	40	15895
2026-01-08 00:08:35.64	216.66	9.90	-30.7	-31.0	16.9	2.72e-05	0	39	102	8388608	40	18756
2026-01-08 00:08:36.65	216.61	9.79	-29.2	-29.5	16.9	2.72e-05	0	39	102	8388608	40	15842
2026-01-08 00:08:37.66	216.57	9.69	-28.0	-28.4	17.0	1.63e-05	0	39	102	8388608	36	17440
2026-01-08 00:08:38.67	216.52	9.59	-28.6	-29.0	17.1	1.63e-05	0	39	102	8388608	36	18715
2026-01-08 00:08:39.69	216.48	9.49	-28.1	-28.5	17.1	5.40e-06	0	39	102	8388608	36	17684
2026-01-08 00:08:40.70	216.43	9.38	-27.1	-27.4	17.3	5.40e-06	0	39	102	8388608	36	15660
2026-01-08 00:08:41.71	216.39	9.28	-27.3	-27.7	17.2	0.00e+00	0	39	102	8388608	34	18190
2026-01-08 00:08:42.72	216.34	9.18	-26.4	-26.8	17.3	0.00e+00	0	39	102	8388608	32	18317
2026-01-08 00:08:43.73	216.30	9.08	-25.2	-25.6	17.4	0.00e+00	0	39	102	8388608	32	15956
2026-01-08 00:08:44.74	216.26	8.98	-25.8	-26.2	17.4	0.00e+00	0	39	102	8388608	30	19229
2026-01-08 00:08:45.75	216.22	8.89	-25.2	-25.5	17.5	0.00e+00	0	39	102	8388608	30	17799
2026-01-08 00:08:46.76	216.17	8.79	-24.8	-25.2	17.5	0.00e+00	0	39	102	8388608	30	17143
2026-01-08 00:08:47.77	216.13	8.69	-24.0	-24.4	17.6	0.00e+00	0	39	102	8388608	28	17454
2026-01-08 00:08:48.78	216.09	8.59	-23.4	-23.8	17.6	0.00e+00	0	39	102	8388608	28	16255
2026-01-08 00:08:49.79	216.05	8.50	-23.5	-23.9	17.6	0.00e+00	0	39	102	8388608	26	18605
2026-01-08 00:08:50.80	216.01	8.40	-22.5	-22.9	17.6	0.00e+00	0	39	102	8388608	26	16504
2026-01-08 00:08:51.81	215.97	8.30	-22.2	-22.6	17.6	0.00e+00	0	39	102	8388608	26	16032
2026-01-08 00:08:52.82	215.93	8.21	-22.4	-22.8	17.7	0.00e+00	0	39	102	8388608	24	18257
2026-01-08 00:08:53.83	215.89	8.11	-22.2	-22.6	17.7	0.00e+00	0	39	102	8388608	24	17828
2026-01-08 00:08:54.84	215.85	8.02	-21.0	-21.4	17.7	0.00e+00	0	39	102	8388608	22	17536
2026-01-08 00:08:55.86	215.81	7.93	-20.8	-21.1	17.8	0.00e+00	0	39	102	8388608	22	16933
2026-01-08 00:08:56.87	215.78	7.83	-20.9	-21.2	17.7	0.00e+00	0	39	102	8388608	22	17187
2026-01-08 00:08:57.88	215.74	7.74	-20.8	-21.2	17.8	0.00e+00	0	39	102	8388608	22	17089
2026-01-08 00:08:58.89	215.70	7.65	-20.4	-20.8	17.8	0.00e+00	0	39	102	8388608	22	16274
2026-01-08 00:08:59.90	215.66	7.55	-19.9	-20.3	17.8	0.00e+00	0	39	102	8388608	20	17273
2026-01-08 00:09:00.91	215.63	7.46	-19.7	-20.0	17.8	0.00e+00	0	39	102	8388608	20	16721
2026-01-08 00:09:01.92	215.59	7.37	-19.5	-19.9	17.8	0.00e+00	0	39	102	8388608	20	16461
2026-01-08 00:09:02.93	215.55	7.28	-19.1	-19.5	17.8	0.00e+00	0	39	102	8388608	20	15797
2026-01-08 00:09:03.94	215.52	7.19	-19.2	-19.6	17.8	0.00e+00	0	39	102	8388608	18	17955
2026-01-08 00:09:04.96	215.48	7.10	-18.9	-19.3	17.8	0.00e+00	0	39	102	8388608	18	17330
2026-01-08 00:09:05.97	215.44	7.01	-19.1	-19.5	17.9	0.00e+00	0	39	102	8388608	18	17657
2026-01-08 00:09:06.98	215.41	6.92	-18.9	-19.3	17.9	0.00e+00	0	39	102	8388608	18	17267
2026-01-08 00:09:07.99	215.37	6.83	-18.5	-18.9	17.8	0.00e+00	0	39	102	8388608	18	16562
2026-01-08 00:09:09.00	215.34	6.74	-18.6	-18.9	17.9	0.00e+00	0	39	102	8388608	18	16605
2026-01-08 00:09:10.01	215.30	6.65	-18.3	-18.7	17.9	0.00e+00	0	39	102	8388608	18	16076
2026-01-08 00:09:11.02	215.27	6.57	-18.3	-18.7	17.9	0.00e+00	0	39	102	8388608	18	16079
2026-01-08 00:09:12.03	215.24	6.48	-18.2	-18.6	17.9	0.00e+00	0	39	102	8388608	18	15914
2026-01-08 00:09:13.04	215.20	6.39	-18.5	-18.8	17.9	0.00e+00	0	39	102	8388608	18	16422
2026-01-08 00:09:14.05	215.17	6.31	-18.4	-18.8	17.9	0.00e+00	0	39	102	8388608	18	16361
2026-01-08 00:09:15.06	215.14	6.22	-18.6	-19.0	17.9	0.00e+00	0	39	102	8388608	18	16713
2026-01-08 00:09:16.08	215.10	6.13	-18.3	-18.6	17.9	0.00e+00	0	39	102	8388608	18	16038
2026-01-08 00:09:17.09	215.07	6.05	-18.3	-18.7	17.9	0.00e+00	0	39	102	8388608	18	16162
2026-01-08 00:09:18.10	215.04	5.96	-18.3	-18.7	17.9	0.00e+00	0	39	102	8388608	18	16200
2026-01-08 00:09:19.11	215.01	5.88	-18.4	-18.8	17.9	0.00e+00	0	39	102	8388608	18	16253
2026-01-08 00:09:20.12	214.98	5.79	-18.4	-18.8	17.9	0.00e+00	0	39	102	8388608	18	16350
2026-01-08 00:09:21.13	214.94	5.71	-18.6	-19.0	18.0	0.00e+00	0	39	102	8388608	18	16629
2026-01-08 00:09:22.14	214.91	5.63	-18.7	-19.0	17.9	0.00e+00	0	39	102	8388608	18	16792
2026-01-08 00:09:23.15	214.88	5.54	-18.7	-19.1	18.0	0.00e+00	0	39	102	8388608	18	16934
2026-01-08 00:09:24.16	214.85	5.46	-18.9	-19.2	17.9	0.00e+00	0	39	102	8388608	18	17187
2026-01-08 00:09:25.17	214.82	5.38	-19.0	-19.4	17.9	0.00e+00	0	39	102	8388608	18	17437
2026-01-08 00:09:26.19	214.79	5.29	-19.2	-19.6	17.9	0.00e+00	0	39	102	8388608	18	17883
2026-01-08 00:09:27.20	214.76	5.21	-19.1	-19.5	17.9	0.00e+00	0	39	102	8388608	18	17683
2026-01-08 00:09:28.21	214.73	5.13	-19.2	-19.6	17.9	0.00e+00	0	39	102	8388608	18	17838
2026-01-08 00:09:29.22	214.70	5.05	-19.3	-19.7	17.9	0.00e+00	0	39	102	8388608	18	18125
2026-01-08 00:09:30.23	214.67	4.97	-19.4	-19.8	17.8	0.00e+00	0	39	102	8388608	18	18326
2026-01-08 00:09:31.24	214.64	4.89	-19.6	-20.0	17.9	0.00e+00	0	39	102	8388608	18	18753
2026-01-08 00:09:32.25	214.61	4.81	-19.7	-20.1	17.8	0.00e+00	0	39	102	8388608	18	18893
2026-01-08 00:09:33.26	214.58	4.73	-19.7	-20.1	17.8	0.00e+00	0	39	102	8388608	18	18885
2026-01-08 00:09:34.27	214.56	4.65	-19.8	-20.2	17.8	0.00e+00	0	39	102	8388608	18	19229
2026-01-08 00:09:35.28	214.53	4.57	-19.9	-20.3	17.8	0.00e+00	0	39	102	8388608	18	19453
2026-01-08 00:09:36.29	214.50	4.49	-19.9	-20.3	17.8	0.00e+00	0	39	102	8388608	18	19477
2026-01-08 00:09:37.31	214.47	4.41	-20.1	-20.5	17.8	0.00e+00	0	39	102	8388608	20	17777
2026-01-08 00:09:38.32	214.44	4.33	-20.1	-20.5	17.8	0.00e+00	0	39	102	8388608	20	17697
2026-01-08 00:09:39.33	214.42	4.25	-20.2	-20.6	17.7	0.00e+00	0	39	102	8388608	20	17953
2026-01-08 00:09:40.34	214.39	4.18	-20.4	-20.8	17.8	0.00e+00	0	39	102	8388608	20	18280
2026-01-08 00:09:41.35	214.36	4.10	-20.4	-20.7	17.7	0.00e+00	0	39	102	8388608	20	18207
2026-01-08 00:09:42.36	214.34	4.02	-20.5	-20.9	17.7	0.00e+00	0	39	102	8388608	20	18571
2026-01-08 00:09:43.37	214.31	3.94	-20.5	-20.9	17.7	0.00e+00	0	39	102	8388608	20	18538
2026-01-08 00:09:44.38	214.28	3.87	-20.6	-21.0	17.7	0.00e+00	0	39	102	8388608	20	18685
2026-01-08 00:09:45.39	214.26	3.79	-20.7	-21.1	17.7	0.00e+00	0	39	102	8388608	20	18951
2026-01-08 00:09:46.40	214.23	3.71	-20.8	-21.2	17.6	0.00e+00	0	39	102	8388608	20	19132
2026-01-08 00:09:47.41	214.21	3.64	-21.0	-21.4	17.6	0.00e+00	0	39	102	8388608	20	19562
2026-01-08 00:09:48.42	214.18	3.56	-21.0	-21.4	17.6	0.00e+00	0	39	102	8388608	20	19653
2026-01-08 00:09:49.43	214.15	3.49	-52.4	-54.9	6.1	0.00e+00	0	39	104	8388608	60	92535
2026-01-08 00:09:50.45	214.13	3.41	-52.4	-54.8	6.1	0.00e+00	0	38	104	8388608	60	92176
2026-01-08 00:09:51.46	214.10	3.34	-52.3	-54.8	6.1	0.00e+00	0	38	104	8388608	60	92239
2026-01-08 00:09:52.47	214.08	3.26	-52.3	-54.8	6.0	0.00e+00	0	38	104	8388608	60	91629
2026-01-08 00:09:53.48	214.05	3.19	-52.3	-54.8	6.1	0.00e+00	0	38	104	8388608	60	91623
2026-01-08 00:09:54.49	214.03	3.11	-52.3	-54.8	6.1	0.00e+00	0	38	104	8388608	60	91934
2026-01-08 00:09:55.50	214.01	3.04	-52.4	-54.8	6.1	0.00e+00	0	38	104	8388608	60	92082
2026-01-08 00:09:56.51	213.98	2.97	-52.3	-54.8	6.1	0.00e+00	0	38	104	8388608	60	91718
2026-01-08 00:09:57.52	213.96	2.89	-52.4	-54.8	6.1	0.00e+00	0	39	104	8388608	60	92083
2026-01-08 00:09:58.53	213.93	2.82	-52.4	-54.8	6.1	0.00e+00	0	38	104	8388608	60	92178
2026-01-08 00:09:59.54	213.91	2.75	-52.3	-54.8	6.1	0.00e+00	0	38	104	8388608	60	91589
2026-01-08 00:10:00.55	213.89	2.68	-52.3	-54.8	6.1	0.00e+00	0	38	104	8388608	60	92041
2026-01-08 00:10:01.56	213.86	2.60	-52.3	-54.8	6.1	0.00e+00	0	38	104	8388608	60	91939
2026-01-08 00:10:02.57	213.84	2.53	-52.3	-54.8	6.1	0.00e+00	0	38	104	8388608	60	92169
2026-01-08 00:10:03.58	213.82	2.46	-52.3	-54.7	6.1	0.00e+00	0	38	104	8388608	60	91268
2026-01-08 00:10:04.59	213.79	2.39	-52.4	-54.8	6.1	0.00e+00	0	38	104	8388608	60	92201
2026-01-08 00:10:05.60	213.77	2.32	-52.3	-54.8	6.1	0.00e+00	0	38	104	8388608	60	92078
2026-01-08 00:10:06.61	213.75	2.25	-52.3	-54.8	6.1	0.00e+00	0	38	104	8388608	60	91954
2026-01-08 00:10:07.63	213.73	2.17	-52.4	-54.8	6.1	0.00e+00	0	38	104	8388608	60	91928
2026-01-08 00:10:08.64	213.70	2.10	-52.4	-54.8	6.1	0.00e+00	0	38	104	8388608	60	91493
2026-01-08 00:10:09.65	213.68	2.03	-52.3	-54.8	6.1	0.00e+00	0	38	104	8388608	60	92215
2026-01-08 00:10:10.66	213.66	1.96	-52.3	-54.8	6.1	0.00e+00	0	38	104	8388608	60	92303
2026-01-08 00:10:11.67	213.64	1.89	-52.4	-54.8	6.1	0.00e+00	0	38	104	8388608	60	91980
2026-01-08 00:10:12.68	213.62	1.82	-52.3	-54.8	6.1	0.00e+00	0	38	104	8388608	60	91568
2026-01-08 00:10:13.69	213.59	1.75	-52.3	-54.8	6.1	0.00e+00	0	38	104	8388608	60	92100
2026-01-08 00:10:14.70	213.57	1.68	-52.3	-54.8	6.1	0.00e+00	0	38	104	8388608	60	91870
2026-01-08 00:10:15.71	213.55	1.61	-52.3	-54.8	6.1	0.00e+00	0	38	104	8388608	60	91937
2026-01-08 00:10:16.72	213.53	1.55	-52.3	-54.7	6.1	0.00e+00	0	38	104	8388608	60	91094
2026-01-08 00:10:17.74	213.51	1.48	-52.3	-54.7	6.1	0.00e+00	0	38	104	8388608	60	91087
2026-01-08 00:10:18.75	213.49	1.41	-52.2	-54.7	6.1	0.00e+00	0	38	104	8388608	60	90964
2026-01-08 00:10:19.76	213.47	1.34	-52.3	-54.7	6.1	0.00e+00	0	38	104	8388608	60	91172
2026-01-08 00:10:20.77	213.45	1.27	-52.2	-54.8	6.1	0.00e+00	0	38	104	8388608	60	91389
2026-01-08 00:10:21.78	213.43	1.20	-52.3	-54.8	6.1	0.00e+00	0	38	104	8388608	60	91792
2026-01-08 00:10:22.79	213.41	1.14	-52.3	-54.8	6.1	0.00e+00	0	38	104	8388608	60	91848
2026-01-08 00:10:23.80	213.39	1.07	-52.3	-54.8	6.1	0.00e+00	0	38	104	8388608	60	91629
2026-01-08 00:10:24.81	213.37	1.00	-52.2	-54.7	6.1	0.00e+00	0	38	104	8388608	60	90609
2026-01-08 00:10:25.82	213.35	0.93	-52.2	-54.8	6.1	0.00e+00	0	39	104	8388608	60	91574
2026-01-08 00:10:26.83	213.33	0.87	-52.3	-54.8	6.1	0.00e+00	0	38	104	8388608	60	91502
2026-01-08 00:10:27.85	213.31	0.80	-52.2	-54.7	6.1	0.00e+00	0	38	104	8388608	60	91148
2026-01-08 00:10:28.86	213.29	0.73	-52.2	-54.7	6.1	0.00e+00	0	38	104	8388608	60	91076
2026-01-08 00:10:29.87	213.27	0.67	-52.1	-54.6	6.1	0.00e+00	0	38	104	8388608	60	89710
2026-01-08 00:10:30.88	213.25	0.60	-52.3	-54.7	6.1	0.00e+00	0	38	104	8388608	60	90856
2026-01-08 00:10:31.89	213.23	0.53	-52.1	-54.6	6.1	0.00e+00	0	38	104	8388608	60	89624
2026-01-08 00:10:32.90	213.21	0.47	-52.2	-54.7	6.1	0.00e+00	0	38	104	8388608	60	90679
2026-01-08 00:10:33.91	213.19	0.40	-52.2	-54.7	6.1	0.00e+00	0	38	104	8388608	60	90487
2026-01-08 00:10:34.92	213.18	0.34	-52.1	-54.6	6.1	0.00e+00	0	38	104	8388608	60	90033
2026-01-08 00:10:35.93	213.16	0.27	-52.2	-54.7	6.1	0.00e+00	0	39	104	8388608	60	91060
2026-01-08 00:10:36.94	213.14	0.21	-52.1	-54.6	6.1	0.00e+00	0	38	104	8388608	60	90007
2026-01-08 00:10:37.95	213.12	0.14	-52.2	-54.7	6.1	0.00e+00	0	38	104	8388608	60	90878
2026-01-08 00:10:38.96	213.10	0.08	-52.2	-54.7	6.1	0.00e+00	0	38	104	8388608	60	90774
2026-01-08 00:10:39.98	213.08	0.01	-52.2	-54.7	6.1	0.00e+00	0	38	104	8388608	60	90769
2026-01-08 00:10:40.99	213.07	-0.05	-52.2	-54.7	6.1	0.00e+00	0	38	104	8388608	60	90599

#Closed at: 2026-01-08 00:10:41
#Recorded file [8 MB]: D:/lorett/data/35034_260108_025936.dat