passes_logs/2026/01/07/R4.6S_Anadyr_2ch/R4.6S_Anadyr_2ch__20260107_165428_AQUA_rec.log

#Pass ID: 20260107_165428_AQUA
#Satellite: AQUA
#Configuration: AQUA
#almurnet v.1.7.20251203
#Start time: 2026-01-07 16:54:29

#Version: 2.2.20231116
#Station: R4.6S_Anadyr_2ch
#Location: 177.4865 lon 64.73178 lat
#TLE: 1 27424U 02022A   25351.00450321  .00000925  00000+0  19503-3 0  9992
#TLE: 2 27424  98.4041 311.9529 0001248 113.7180 322.1616 14.61819266256652

#Time	Az	El	Level	Level2	SNR	BER	BlckErr	Temp	State	Recorded	gain1	gain2
2026-01-07 16:54:29.66	20.45	0.08	-51.8	-63.7	3.5	8.46e-01	0	33	0	0	60	74668
2026-01-07 16:54:30.66	20.44	0.14	-52.2	-69.9	3.5	3.02e+01	0	34	104	0	60	163185
2026-01-07 16:54:31.67	20.42	0.20	-52.1	-70.0	3.5	3.02e+01	0	34	104	0	60	163607
2026-01-07 16:54:32.68	20.41	0.26	-52.1	-70.0	3.5	3.02e+01	0	34	104	0	60	163530
2026-01-07 16:54:33.69	20.39	0.32	-52.2	-69.9	3.5	3.02e+01	0	34	104	0	60	162895
2026-01-07 16:54:34.71	20.38	0.39	-52.2	-70.0	3.5	3.02e+01	0	34	104	0	60	164052
2026-01-07 16:54:35.72	20.37	0.45	-52.2	-70.0	3.5	3.02e+01	0	34	104	0	60	163447
2026-01-07 16:54:36.73	20.35	0.51	-52.2	-70.0	3.5	3.02e+01	0	34	104	0	60	163312
2026-01-07 16:54:37.74	20.34	0.58	-52.2	-70.0	3.5	3.02e+01	0	34	104	0	60	163580
2026-01-07 16:54:38.75	20.32	0.64	-52.2	-70.0	3.5	3.02e+01	0	34	104	0	60	163960
2026-01-07 16:54:39.76	20.31	0.70	-52.2	-69.9	3.5	3.02e+01	0	34	104	0	60	162849
2026-01-07 16:54:40.77	20.29	0.77	-52.2	-70.0	3.5	3.02e+01	0	34	104	0	60	163750
2026-01-07 16:54:41.79	20.28	0.83	-52.2	-70.0	3.5	3.02e+01	0	34	104	0	60	164194
2026-01-07 16:54:42.80	20.26	0.89	-52.2	-70.0	3.5	3.02e+01	0	34	104	0	60	163265
2026-01-07 16:54:43.81	20.25	0.96	-52.2	-70.0	3.5	3.02e+01	0	34	104	0	60	164386
2026-01-07 16:54:44.82	20.23	1.02	-52.2	-70.0	3.5	3.02e+01	0	34	104	0	60	164226
2026-01-07 16:54:45.83	20.22	1.08	-52.2	-69.9	3.5	3.02e+01	0	34	104	0	60	163214
2026-01-07 16:54:46.84	20.20	1.15	-52.2	-70.0	3.5	3.02e+01	0	34	104	0	60	163560
2026-01-07 16:54:47.85	20.19	1.21	-52.2	-70.0	3.5	3.02e+01	0	34	104	0	60	163449
2026-01-07 16:54:48.86	20.17	1.28	-52.2	-69.9	3.5	3.02e+01	0	34	104	0	60	162982
2026-01-07 16:54:49.87	20.16	1.34	-52.2	-70.0	3.5	3.02e+01	0	34	104	0	60	163838
2026-01-07 16:54:50.88	20.14	1.41	-52.2	-70.0	3.5	3.02e+01	0	34	104	0	60	163894
2026-01-07 16:54:51.90	20.13	1.47	-52.2	-69.9	3.5	3.02e+01	0	34	104	0	60	162626
2026-01-07 16:54:52.91	20.11	1.54	-52.2	-69.9	3.5	3.02e+01	0	34	104	0	60	162733
2026-01-07 16:54:53.92	20.09	1.60	-52.2	-70.0	3.5	3.02e+01	0	34	104	0	60	164077
2026-01-07 16:54:54.93	20.08	1.67	-52.2	-70.0	3.5	3.02e+01	0	34	104	0	60	164004
2026-01-07 16:54:55.94	20.06	1.73	-52.2	-70.0	3.5	3.02e+01	0	34	104	0	60	164695
2026-01-07 16:54:56.95	20.05	1.80	-52.2	-70.0	3.5	3.02e+01	0	34	104	0	60	164159
2026-01-07 16:54:57.96	20.03	1.87	-52.2	-70.0	3.5	3.02e+01	0	34	104	0	60	164167
2026-01-07 16:54:58.97	20.01	1.93	-52.2	-70.0	3.5	3.02e+01	0	34	104	0	60	164177
2026-01-07 16:54:59.98	20.00	2.00	-52.2	-70.0	3.5	3.02e+01	0	34	104	0	60	164431
2026-01-07 16:55:00.99	19.98	2.07	-52.2	-70.0	3.5	3.02e+01	0	34	104	0	60	163923
2026-01-07 16:55:02.00	19.96	2.13	-52.2	-70.0	3.5	3.02e+01	0	34	104	0	60	163594
2026-01-07 16:55:03.01	19.95	2.20	-52.2	-69.9	3.5	3.02e+01	0	34	104	0	60	163097
2026-01-07 16:55:04.03	19.93	2.27	-52.2	-70.0	3.5	3.02e+01	0	34	104	0	60	164219
2026-01-07 16:55:05.04	19.91	2.33	-52.2	-70.0	3.5	3.02e+01	0	34	104	0	60	164330
2026-01-07 16:55:06.05	19.90	2.40	-52.2	-70.0	3.5	3.02e+01	0	34	104	0	60	164088
2026-01-07 16:55:07.06	19.88	2.47	-52.2	-70.0	3.5	3.02e+01	0	34	104	0	60	164224
2026-01-07 16:55:08.07	19.86	2.54	-52.2	-70.0	3.5	3.02e+01	0	34	104	0	60	164497
2026-01-07 16:55:09.08	19.84	2.60	-52.2	-70.0	3.5	3.02e+01	0	34	104	0	60	163286
2026-01-07 16:55:10.09	19.83	2.67	-52.2	-70.0	3.5	3.02e+01	0	34	104	0	60	163866
2026-01-07 16:55:11.10	19.81	2.74	-52.2	-70.0	3.5	3.02e+01	0	34	104	0	60	163728
2026-01-07 16:55:12.11	19.79	2.81	-52.2	-70.0	3.5	3.02e+01	0	34	104	0	60	163704
2026-01-07 16:55:13.12	19.77	2.88	-52.2	-70.0	3.5	3.02e+01	0	34	104	0	60	164105
2026-01-07 16:55:14.14	19.75	2.95	-52.2	-69.9	3.5	3.02e+01	0	34	104	0	60	163055
2026-01-07 16:55:15.14	19.74	3.01	-52.2	-70.0	3.5	3.02e+01	0	34	104	0	60	163532
2026-01-07 16:55:16.16	19.72	3.08	-52.2	-70.0	3.5	3.02e+01	0	34	104	0	60	163868
2026-01-07 16:55:17.17	19.70	3.15	-52.2	-70.0	3.5	3.02e+01	0	34	104	0	60	163554
2026-01-07 16:55:18.18	19.68	3.22	-52.2	-70.0	3.5	3.02e+01	0	34	104	0	60	163483
2026-01-07 16:55:19.19	19.66	3.29	-52.2	-70.0	3.5	3.02e+01	0	35	104	0	60	163652
2026-01-07 16:55:20.20	19.64	3.36	-52.2	-70.0	3.5	3.02e+01	0	34	104	0	60	163922
2026-01-07 16:55:21.21	19.63	3.43	-52.2	-70.0	3.5	3.02e+01	0	35	104	0	60	163718
2026-01-07 16:55:22.22	19.61	3.50	-52.2	-70.0	3.5	3.02e+01	0	34	104	0	60	163642
2026-01-07 16:55:23.23	19.59	3.57	-52.2	-70.0	3.5	3.02e+01	0	34	104	0	60	164594
2026-01-07 16:55:24.25	19.57	3.64	-52.2	-70.0	3.5	3.02e+01	0	34	104	0	60	164498
2026-01-07 16:55:25.26	19.55	3.72	-52.2	-70.0	3.5	3.02e+01	0	34	104	0	60	163753
2026-01-07 16:55:26.27	19.53	3.79	-52.2	-70.0	3.5	3.02e+01	0	35	104	0	60	164184
2026-01-07 16:55:27.28	19.51	3.86	-52.2	-70.0	3.5	3.02e+01	0	34	104	0	60	164692
2026-01-07 16:55:28.29	19.49	3.93	-52.1	-70.1	3.5	3.02e+01	0	35	104	0	60	165189
2026-01-07 16:55:29.30	19.47	4.00	-52.2	-70.1	3.5	3.02e+01	0	34	104	0	60	165870
2026-01-07 16:55:30.31	19.45	4.07	-52.3	-70.1	3.5	3.02e+01	0	35	104	0	60	166062
2026-01-07 16:55:31.32	19.43	4.14	-52.3	-70.1	3.5	3.02e+01	0	34	104	0	60	166366
2026-01-07 16:55:32.34	19.41	4.22	-52.2	-70.1	3.5	3.02e+01	0	34	104	0	60	166414
2026-01-07 16:55:33.35	19.39	4.29	-52.2	-70.1	3.5	3.02e+01	0	35	104	0	60	165637
2026-01-07 16:55:34.36	19.37	4.36	-52.3	-70.1	3.5	3.02e+01	0	35	104	0	60	166967
2026-01-07 16:55:35.37	19.35	4.44	-52.1	-70.1	3.5	3.02e+01	0	35	104	0	60	166698
2026-01-07 16:55:36.38	19.33	4.51	-52.3	-70.1	3.5	3.02e+01	0	35	104	0	60	166757
2026-01-07 16:55:37.39	19.31	4.58	-51.9	-70.1	3.5	3.02e+01	0	35	104	0	60	165133
2026-01-07 16:55:38.40	19.29	4.66	-52.1	-70.0	3.5	3.02e+01	0	35	104	0	60	164136
2026-01-07 16:55:39.41	19.26	4.73	-52.0	-69.9	3.5	3.02e+01	0	35	104	0	60	162227
2026-01-07 16:55:40.42	19.24	4.80	-51.8	-69.7	3.5	3.02e+01	0	35	104	0	60	159376
2026-01-07 16:55:41.43	19.22	4.88	-51.5	-69.5	3.5	3.02e+01	0	35	104	0	60	155176
2026-01-07 16:55:42.44	19.20	4.95	-51.4	-69.4	3.5	3.02e+01	0	35	104	0	60	152562
2026-01-07 16:55:43.45	19.18	5.03	-51.2	-69.1	3.5	3.02e+01	0	35	104	0	60	148840
2026-01-07 16:55:44.46	19.16	5.10	-51.0	-68.9	3.5	3.02e+01	0	35	104	0	60	143995
2026-01-07 16:55:45.47	19.13	5.18	-51.0	-68.8	3.5	3.02e+01	0	35	104	0	60	142954
2026-01-07 16:55:46.48	19.11	5.25	-50.9	-68.8	3.5	3.02e+01	0	35	104	0	60	143270
2026-01-07 16:55:47.50	19.09	5.33	-51.0	-68.8	3.5	3.02e+01	0	35	104	0	60	142889
2026-01-07 16:55:48.51	19.07	5.40	-50.9	-68.8	3.5	3.02e+01	0	35	104	0	60	143006
2026-01-07 16:55:49.52	19.05	5.48	-51.0	-68.8	3.5	3.02e+01	0	35	104	0	60	143239
2026-01-07 16:55:50.53	19.02	5.56	-50.9	-68.8	3.5	3.02e+01	0	35	104	0	60	142276
2026-01-07 16:55:51.54	19.00	5.63	-51.0	-68.8	3.5	3.02e+01	0	35	104	0	60	143254
2026-01-07 16:55:52.55	18.98	5.71	-50.9	-68.8	3.5	3.02e+01	0	35	104	0	60	143042
2026-01-07 16:55:53.56	18.95	5.79	-50.9	-68.8	3.5	3.02e+01	0	35	104	0	60	142470
2026-01-07 16:55:54.57	18.93	5.86	-50.9	-68.7	3.5	3.02e+01	0	35	104	0	60	141597
2026-01-07 16:55:55.58	18.91	5.94	-50.9	-68.6	3.5	3.02e+01	0	35	104	0	60	139903
2026-01-07 16:55:56.59	18.88	6.02	-50.9	-68.6	3.5	3.02e+01	0	35	104	0	60	139365
2026-01-07 16:55:57.60	18.86	6.10	-50.9	-68.6	3.5	3.02e+01	0	35	104	0	60	139463
2026-01-07 16:55:58.61	18.83	6.18	-50.9	-68.5	3.5	3.02e+01	0	35	104	0	60	137827
2026-01-07 16:55:59.62	18.81	6.26	-50.9	-68.5	3.5	3.02e+01	0	35	104	0	60	138656
2026-01-07 16:56:00.64	18.79	6.33	-50.9	-68.6	3.5	3.02e+01	0	35	104	0	60	139487
2026-01-07 16:56:01.65	18.76	6.41	-50.9	-68.7	3.5	3.02e+01	0	35	104	0	60	140644
2026-01-07 16:56:02.66	18.74	6.49	-50.9	-68.7	3.5	3.02e+01	0	35	104	0	60	141057
2026-01-07 16:56:03.67	18.71	6.57	-50.9	-68.8	3.5	3.02e+01	0	35	104	0	60	142314
2026-01-07 16:56:04.68	18.69	6.65	-50.9	-68.8	3.5	3.02e+01	0	35	104	0	60	142817
2026-01-07 16:56:05.69	18.66	6.73	-50.9	-68.8	3.5	3.02e+01	0	35	104	0	60	142662
2026-01-07 16:56:06.70	18.64	6.81	-50.9	-68.7	3.5	3.02e+01	0	35	104	0	60	140783
2026-01-07 16:56:07.71	18.61	6.89	-50.9	-68.7	3.5	3.02e+01	0	35	104	0	60	140657
2026-01-07 16:56:08.72	18.58	6.98	-50.9	-68.5	3.5	3.02e+01	0	35	104	0	60	138058
2026-01-07 16:56:09.73	18.56	7.06	-50.9	-68.4	3.5	3.02e+01	0	35	104	0	60	135978
2026-01-07 16:56:10.74	18.53	7.14	-50.8	-68.2	3.5	3.02e+01	0	35	104	0	60	133234
2026-01-07 16:56:11.75	18.51	7.22	-50.8	-68.1	3.5	3.02e+01	0	35	104	0	60	131216
2026-01-07 16:56:12.77	18.48	7.30	-50.8	-67.9	3.5	3.02e+01	0	35	104	0	60	128355
2026-01-07 16:56:13.78	18.45	7.39	-50.8	-67.8	3.6	3.02e+01	0	35	104	0	60	127907
2026-01-07 16:56:14.79	18.43	7.47	-50.8	-68.0	3.5	3.02e+01	0	35	104	0	60	130742
2026-01-07 16:56:15.80	18.40	7.55	-50.9	-68.3	3.5	3.02e+01	0	35	104	0	60	135491
2026-01-07 16:56:16.81	18.37	7.63	-50.9	-68.6	3.5	3.02e+01	0	35	104	0	60	139934
2026-01-07 16:56:17.82	18.34	7.72	-50.9	-68.4	3.5	3.02e+01	0	35	104	0	60	137220
2026-01-07 16:56:18.83	18.32	7.80	-50.7	-67.5	3.5	3.02e+01	0	35	104	0	60	123483
2026-01-07 16:56:19.84	18.29	7.89	-50.3	-66.0	3.5	3.02e+01	0	35	104	0	60	103604
2026-01-07 16:56:20.85	18.26	7.97	-49.8	-64.2	3.5	3.02e+01	0	35	104	0	60	84319
2026-01-07 16:56:21.86	18.23	8.06	-49.3	-62.9	3.5	3.02e+01	0	35	104	0	60	72884
2026-01-07 16:56:22.88	18.20	8.14	-48.7	-61.8	3.5	3.02e+01	0	35	104	0	60	63866
2026-01-07 16:56:23.89	18.17	8.23	-48.5	-61.3	3.5	3.02e+01	0	35	104	0	60	60543
2026-01-07 16:56:24.90	18.14	8.31	-48.4	-61.2	3.5	3.02e+01	0	35	104	0	60	59324
2026-01-07 16:56:25.91	18.12	8.40	-48.5	-61.2	3.5	3.02e+01	0	35	104	0	60	59667
2026-01-07 16:56:26.92	18.09	8.49	-48.9	-62.0	3.5	3.02e+01	0	35	104	0	60	65048
2026-01-07 16:56:27.93	18.06	8.57	-50.9	-68.4	3.5	3.02e+01	0	35	104	0	60	136178
2026-01-07 16:56:28.94	18.03	8.66	-40.9	-51.3	3.5	3.02e+01	0	35	104	0	60	19110
2026-01-07 16:56:29.95	18.00	8.75	-50.7	-67.6	3.5	3.02e+01	0	35	104	0	60	124036
2026-01-07 16:56:30.96	17.97	8.83	-48.8	-61.7	3.5	3.02e+01	0	35	104	0	60	63359
2026-01-07 16:56:31.97	17.94	8.92	-50.0	-65.1	3.5	3.02e+01	0	35	104	0	60	92923
2026-01-07 16:56:32.99	17.91	9.01	-42.8	-53.5	3.5	3.02e+01	0	35	104	0	60	24496
2026-01-07 16:56:34.00	17.87	9.10	-42.0	-52.6	3.5	3.02e+01	0	35	104	0	60	22150
2026-01-07 16:56:35.01	17.84	9.19	-42.0	-52.5	3.5	3.02e+01	0	35	104	0	60	21965
2026-01-07 16:56:36.02	17.81	9.28	-41.2	-51.7	3.5	3.02e+01	0	35	104	0	60	19936
2026-01-07 16:56:37.03	17.78	9.37	-43.9	-54.7	3.5	3.02e+01	0	35	104	0	60	28177
2026-01-07 16:56:38.04	17.75	9.46	-40.7	-51.1	3.5	3.02e+01	0	35	104	0	60	18738
2026-01-07 16:56:39.05	17.72	9.55	-50.8	-67.6	3.5	3.02e+01	0	35	104	0	60	125002
2026-01-07 16:56:40.06	17.68	9.64	-49.1	-62.4	3.5	3.02e+01	0	35	104	0	60	68427
2026-01-07 16:56:41.07	17.65	9.73	-49.7	-64.0	3.5	3.02e+01	0	35	104	0	60	82186
2026-01-07 16:56:42.08	17.62	9.82	-41.6	-52.1	3.5	3.02e+01	0	35	104	0	60	20903
2026-01-07 16:56:43.10	17.58	9.92	-41.0	-51.5	3.5	3.02e+01	0	35	104	0	60	19527
2026-01-07 16:56:44.11	17.55	10.01	-41.0	-51.4	3.5	3.02e+01	0	35	104	0	60	19355
2026-01-07 16:56:45.12	17.52	10.10	-40.9	-51.3	3.5	3.02e+01	0	35	104	0	60	19071
2026-01-07 16:56:46.13	17.48	10.19	-41.4	-51.9	3.6	3.02e+01	0	35	104	0	60	20542
2026-01-07 16:56:47.14	17.45	10.29	-40.5	-50.9	3.5	3.02e+01	0	35	104	0	60	18168
2026-01-07 16:56:48.15	17.42	10.38	-50.9	-67.4	3.5	3.02e+01	0	35	104	0	60	121433
2026-01-07 16:56:49.16	17.38	10.48	-48.3	-60.8	3.5	3.02e+01	0	35	104	0	60	56624
2026-01-07 16:56:50.17	17.35	10.57	-48.9	-61.9	3.5	3.02e+01	0	35	104	0	60	64662
2026-01-07 16:56:51.18	17.31	10.67	-41.1	-51.5	3.6	3.02e+01	0	35	104	0	60	19444
2026-01-07 16:56:52.19	17.27	10.76	-41.5	-51.9	3.5	3.02e+01	0	35	104	0	60	20541
2026-01-07 16:56:53.21	17.24	10.86	-41.4	-51.9	3.5	3.02e+01	0	35	104	0	60	20323
2026-01-07 16:56:54.22	17.20	10.95	-40.8	-51.2	3.5	3.02e+01	0	35	104	0	60	18769
2026-01-07 16:56:55.23	17.17	11.05	-41.4	-51.9	3.5	3.02e+01	0	35	104	0	60	20343
2026-01-07 16:56:56.24	17.13	11.15	-40.9	-51.3	3.5	3.02e+01	0	35	104	0	60	18986
2026-01-07 16:56:57.25	17.09	11.24	-50.8	-67.5	3.5	3.02e+01	0	35	104	0	60	122847
2026-01-07 16:56:58.26	17.06	11.34	-45.8	-57.1	3.5	3.02e+01	0	35	104	0	60	37013
2026-01-07 16:56:59.27	17.02	11.44	-49.4	-63.0	3.5	3.02e+01	0	35	104	0	60	73432
2026-01-07 16:57:00.28	16.98	11.54	-43.5	-54.2	3.5	3.02e+01	0	35	104	0	60	26710
2026-01-07 16:57:01.29	16.94	11.64	-43.6	-54.3	3.5	3.02e+01	0	35	104	0	60	26964
2026-01-07 16:57:02.31	16.90	11.74	-44.3	-55.1	3.5	3.02e+01	0	35	104	0	60	29685
2026-01-07 16:57:03.32	16.86	11.84	-42.6	-53.2	3.5	3.02e+01	0	35	104	0	60	23751
2026-01-07 16:57:04.33	16.83	11.94	-39.8	-50.1	3.5	3.02e+01	0	35	104	0	60	16632
2026-01-07 16:57:05.34	16.79	12.04	-42.9	-53.5	3.5	3.02e+01	0	35	104	0	60	24573
2026-01-07 16:57:06.35	16.75	12.14	-51.2	-68.4	3.5	3.02e+01	0	35	104	0	60	136992
2026-01-07 16:57:07.36	16.71	12.24	-44.7	-55.7	3.6	3.02e+01	0	35	104	0	60	31773
2026-01-07 16:57:08.37	16.67	12.35	-46.5	-58.0	3.5	3.02e+01	0	35	104	0	60	41230
2026-01-07 16:57:09.38	16.63	12.45	-40.8	-51.2	3.5	3.02e+01	0	35	104	0	60	18903
2026-01-07 16:57:10.39	16.58	12.55	-40.1	-50.5	3.5	3.02e+01	0	35	104	0	60	17334
2026-01-07 16:57:11.41	16.54	12.66	-40.1	-50.4	3.5	3.02e+01	0	35	104	0	60	17159
2026-01-07 16:57:12.42	16.50	12.76	-40.4	-50.8	3.5	3.02e+01	0	35	104	0	60	17910
2026-01-07 16:57:13.43	16.46	12.87	-41.9	-52.4	3.5	3.02e+01	0	35	104	0	60	21737
2026-01-07 16:57:14.44	16.42	12.97	-43.7	-54.4	3.5	3.02e+01	0	35	104	0	60	27143
2026-01-07 16:57:15.45	16.37	13.08	-51.2	-67.9	3.6	3.02e+01	0	35	104	0	60	129216
2026-01-07 16:57:16.46	16.33	13.18	-40.8	-51.1	3.5	3.02e+01	0	35	104	0	60	18708
2026-01-07 16:57:17.47	16.29	13.29	-45.7	-56.8	3.6	3.02e+01	0	35	104	0	60	36073
2026-01-07 16:57:18.48	16.24	13.40	-40.2	-50.6	3.5	3.02e+01	0	35	104	0	60	17551
2026-01-07 16:57:19.49	16.20	13.50	-39.7	-50.1	3.5	3.02e+01	0	35	104	0	60	16525
2026-01-07 16:57:20.50	16.15	13.61	-39.3	-49.5	3.5	3.02e+01	0	35	104	0	58	17473
2026-01-07 16:57:21.51	16.11	13.72	-39.6	-49.9	3.5	3.02e+01	0	35	104	0	58	18172
2026-01-07 16:57:22.52	16.06	13.83	-40.4	-50.7	3.5	3.02e+01	0	35	104	0	60	17812
2026-01-07 16:57:23.53	16.02	13.94	-49.1	-61.9	3.5	3.02e+01	0	35	104	0	60	64758
2026-01-07 16:57:24.54	15.97	14.05	-47.9	-59.8	3.5	3.02e+01	0	35	104	0	60	50794
2026-01-07 16:57:25.56	15.92	14.16	-39.3	-49.6	3.5	3.02e+01	0	35	104	0	60	15633
2026-01-07 16:57:26.57	15.88	14.27	-49.3	-62.7	3.5	3.02e+01	0	35	104	0	60	70504
2026-01-07 16:57:27.58	15.83	14.39	-50.6	-66.0	3.5	3.02e+01	0	35	104	0	60	103958
2026-01-07 16:57:28.59	15.78	14.50	-51.0	-67.2	3.5	3.02e+01	0	35	104	0	60	118842
2026-01-07 16:57:29.60	15.73	14.61	-51.0	-67.5	3.5	3.02e+01	0	35	104	0	60	122627
2026-01-07 16:57:30.61	15.69	14.73	-51.1	-67.9	3.5	3.02e+01	0	35	104	0	60	129123
2026-01-07 16:57:31.62	15.64	14.84	-51.3	-68.7	3.5	3.02e+01	0	35	104	0	60	142065
2026-01-07 16:57:32.63	15.59	14.95	-51.4	-69.3	3.5	3.02e+01	0	35	104	0	60	150744
2026-01-07 16:57:33.65	15.54	15.07	-51.4	-69.3	3.5	3.02e+01	0	35	104	0	60	152120
2026-01-07 16:57:34.66	15.49	15.19	-51.4	-69.3	3.5	3.02e+01	0	35	104	0	60	151259
2026-01-07 16:57:35.67	15.43	15.30	-51.4	-69.2	3.5	3.02e+01	0	35	104	0	60	150322
2026-01-07 16:57:36.68	15.38	15.42	-51.4	-69.2	3.5	3.02e+01	0	35	104	0	60	150079
2026-01-07 16:57:37.69	15.33	15.54	-51.3	-69.2	3.5	3.02e+01	0	35	104	0	60	149921
2026-01-07 16:57:38.70	15.28	15.66	-51.3	-69.1	3.5	3.02e+01	0	35	104	0	60	147965
2026-01-07 16:57:39.71	15.23	15.77	-51.4	-69.1	3.5	3.02e+01	0	35	104	0	60	148073
2026-01-07 16:57:40.72	15.17	15.89	-51.4	-69.2	3.5	3.02e+01	0	35	104	0	60	149622
2026-01-07 16:57:41.73	15.12	16.01	-51.4	-69.2	3.5	3.02e+01	0	35	104	0	60	150545
2026-01-07 16:57:42.74	15.07	16.14	-51.4	-69.3	3.5	3.02e+01	0	35	104	0	60	151271
2026-01-07 16:57:43.75	15.01	16.26	-51.4	-69.3	3.5	3.02e+01	0	35	104	0	60	150896
2026-01-07 16:57:44.76	14.96	16.38	-51.4	-69.3	3.5	3.02e+01	0	35	104	0	60	150954
2026-01-07 16:57:45.77	14.90	16.50	-51.4	-69.2	3.5	3.02e+01	0	35	104	0	60	150529
2026-01-07 16:57:46.78	14.84	16.62	-51.4	-69.2	3.5	3.02e+01	0	35	104	0	60	149390
2026-01-07 16:57:47.80	14.79	16.75	-51.4	-69.2	3.5	3.02e+01	0	35	104	0	60	149451
2026-01-07 16:57:48.81	14.73	16.87	-51.4	-69.2	3.5	3.02e+01	0	35	104	0	60	149908
2026-01-07 16:57:49.82	14.67	17.00	-51.4	-69.2	3.5	3.02e+01	0	35	104	0	60	150516
2026-01-07 16:57:50.83	14.61	17.13	-51.4	-69.3	3.5	3.02e+01	0	35	104	0	60	151950
2026-01-07 16:57:51.84	14.55	17.25	-51.4	-69.3	3.5	3.02e+01	0	35	104	0	60	151735
2026-01-07 16:57:52.85	14.49	17.38	-51.4	-69.3	3.5	3.02e+01	0	35	104	0	60	151490
2026-01-07 16:57:53.86	14.43	17.51	-51.4	-69.2	3.5	3.02e+01	0	35	104	0	60	150410
2026-01-07 16:57:54.87	14.37	17.64	-51.4	-69.3	3.5	3.02e+01	0	35	104	0	60	151036
2026-01-07 16:57:55.88	14.31	17.77	-51.4	-69.3	3.5	3.02e+01	0	35	104	0	60	151985
2026-01-07 16:57:56.89	14.25	17.90	-51.4	-69.3	3.5	3.02e+01	0	35	104	0	60	151446
2026-01-07 16:57:57.91	14.19	18.03	-51.4	-69.3	3.5	3.02e+01	0	35	104	0	60	151187
2026-01-07 16:57:58.92	14.12	18.16	-51.4	-69.3	3.5	3.02e+01	0	35	104	0	60	150751
2026-01-07 16:57:59.93	14.06	18.29	-51.4	-69.3	3.5	3.02e+01	0	35	104	0	60	151555
2026-01-07 16:58:00.94	13.99	18.43	-51.4	-69.3	3.5	3.02e+01	0	35	104	0	60	151347
2026-01-07 16:58:01.95	13.93	18.56	-51.4	-69.3	3.5	3.02e+01	0	35	104	0	60	152057
2026-01-07 16:58:02.96	13.86	18.70	-51.4	-69.3	3.5	3.02e+01	0	35	104	0	60	151272
2026-01-07 16:58:03.97	13.80	18.83	-51.4	-69.3	3.5	3.02e+01	0	35	104	0	60	151829
2026-01-07 16:58:04.98	13.73	18.97	-51.4	-69.4	3.5	3.02e+01	0	35	104	0	60	152500
2026-01-07 16:58:06.00	13.66	19.11	-51.4	-69.3	3.5	3.02e+01	0	35	104	0	60	152268
2026-01-07 16:58:07.01	13.59	19.24	-51.4	-69.3	3.5	3.02e+01	0	35	104	0	60	152147
2026-01-07 16:58:08.02	13.53	19.38	-51.4	-69.3	3.5	3.02e+01	0	35	104	0	60	152119
2026-01-07 16:58:09.03	13.46	19.52	-51.4	-69.3	3.5	3.02e+01	0	35	104	0	60	152216
2026-01-07 16:58:10.04	13.38	19.66	-51.4	-69.4	3.5	3.02e+01	0	35	104	0	60	152396
2026-01-07 16:58:11.05	13.31	19.80	-51.4	-69.3	3.5	3.02e+01	0	35	104	0	60	151513
2026-01-07 16:58:12.06	13.24	19.95	-51.4	-69.3	3.5	3.02e+01	0	35	104	0	60	151453
2026-01-07 16:58:13.07	13.17	20.09	-51.4	-69.3	3.5	3.02e+01	0	35	104	0	60	151574
2026-01-07 16:58:14.08	13.10	20.23	-51.4	-69.4	3.5	3.02e+01	0	35	104	0	60	152410
2026-01-07 16:58:15.09	13.02	20.38	-51.4	-69.3	3.5	3.02e+01	0	35	104	0	60	152026
2026-01-07 16:58:16.10	12.95	20.52	-51.4	-69.3	3.5	3.02e+01	0	35	104	0	60	152046
2026-01-07 16:58:17.11	12.87	20.67	-51.4	-69.3	3.5	3.02e+01	0	35	104	0	60	151574
2026-01-07 16:58:18.13	12.79	20.82	-51.4	-69.3	3.5	3.02e+01	0	35	104	0	60	151454
2026-01-07 16:58:19.14	12.72	20.96	-51.4	-69.4	3.5	3.02e+01	0	35	104	0	60	152448
2026-01-07 16:58:20.15	12.64	21.11	-51.4	-69.3	3.5	3.02e+01	0	35	104	0	60	151764
2026-01-07 16:58:21.16	12.56	21.26	-51.4	-69.4	3.5	3.02e+01	0	35	104	0	60	152904
2026-01-07 16:58:22.17	12.48	21.41	-51.4	-69.3	3.5	3.02e+01	0	35	104	0	60	151957
2026-01-07 16:58:23.18	12.40	21.57	-51.4	-69.3	3.5	3.02e+01	0	35	104	0	60	151945
2026-01-07 16:58:24.19	12.32	21.72	-51.4	-69.4	3.5	3.02e+01	0	35	104	0	60	152387
2026-01-07 16:58:25.20	12.23	21.87	-51.4	-69.3	3.5	3.02e+01	0	35	104	0	60	151385
2026-01-07 16:58:26.21	12.15	22.03	-51.4	-69.3	3.5	3.02e+01	0	35	104	0	60	152205
2026-01-07 16:58:27.22	12.07	22.18	-51.4	-69.4	3.5	3.02e+01	0	35	104	0	60	152338
2026-01-07 16:58:28.23	11.98	22.34	-51.4	-69.3	3.5	3.02e+01	0	35	104	0	60	152094
2026-01-07 16:58:29.24	11.89	22.50	-51.4	-69.4	3.5	3.02e+01	0	35	104	0	60	152826
2026-01-07 16:58:30.25	11.81	22.65	-51.4	-69.3	3.5	3.02e+01	0	35	104	0	60	151618
2026-01-07 16:58:31.26	11.72	22.81	-51.4	-69.3	3.5	3.02e+01	0	35	104	0	60	152207
2026-01-07 16:58:32.27	11.63	22.97	-51.4	-69.3	3.5	3.02e+01	0	35	104	0	60	151543
2026-01-07 16:58:33.28	11.54	23.14	-51.4	-69.3	3.5	3.02e+01	0	35	104	0	60	151158
2026-01-07 16:58:34.30	11.45	23.30	-51.4	-69.3	3.5	3.02e+01	0	35	104	0	60	151878
2026-01-07 16:58:35.31	11.36	23.46	-51.4	-69.4	3.5	3.02e+01	0	35	104	0	60	152358
2026-01-07 16:58:36.32	11.26	23.63	-51.4	-69.4	3.5	3.02e+01	0	35	104	0	60	152814
2026-01-07 16:58:37.33	11.17	23.79	-51.4	-69.4	3.5	3.02e+01	0	35	104	0	60	152413
2026-01-07 16:58:38.34	11.07	23.96	-51.4	-69.3	3.5	3.02e+01	0	35	104	0	60	151987
2026-01-07 16:58:39.35	10.98	24.13	-51.4	-69.3	3.5	3.02e+01	0	35	104	0	60	151592
2026-01-07 16:58:40.36	10.88	24.30	-51.4	-69.4	3.5	3.02e+01	0	35	104	0	60	152817
2026-01-07 16:58:41.37	10.78	24.47	-51.4	-69.3	3.5	3.02e+01	0	35	104	0	60	152282
2026-01-07 16:58:42.38	10.68	24.64	-51.4	-69.3	3.5	3.02e+01	0	35	104	0	60	151713
2026-01-07 16:58:43.39	10.58	24.81	-51.4	-69.3	3.5	3.02e+01	0	35	104	0	60	152137
2026-01-07 16:58:44.41	10.47	24.99	-51.4	-69.4	3.5	3.02e+01	0	35	104	0	60	152558
2026-01-07 16:58:45.42	10.37	25.16	-51.4	-69.3	3.5	3.02e+01	0	35	104	0	60	152275
2026-01-07 16:58:46.43	10.27	25.34	-51.4	-69.3	3.5	3.02e+01	0	35	104	0	60	151109
2026-01-07 16:58:47.44	10.16	25.51	-51.4	-69.3	3.5	3.02e+01	0	35	104	0	60	151981
2026-01-07 16:58:48.45	10.05	25.69	-51.4	-69.3	3.5	3.02e+01	0	35	104	0	60	152065
2026-01-07 16:58:49.46	9.94	25.87	-51.4	-69.3	3.5	3.02e+01	0	35	104	0	60	151902
2026-01-07 16:58:50.47	9.83	26.05	-51.4	-69.4	3.5	3.02e+01	0	35	104	0	60	152701
2026-01-07 16:58:51.48	9.72	26.23	-51.4	-69.3	3.5	3.02e+01	0	35	104	0	60	151867
2026-01-07 16:58:52.49	9.61	26.42	-51.4	-69.3	3.5	3.02e+01	0	35	104	0	60	151855
2026-01-07 16:58:53.51	9.49	26.60	-51.4	-69.4	3.5	3.02e+01	0	35	104	0	60	152385
2026-01-07 16:58:54.52	9.38	26.79	-51.4	-69.3	3.5	3.02e+01	0	35	104	0	60	151914
2026-01-07 16:58:55.53	9.26	26.97	-51.4	-69.4	3.5	3.02e+01	0	35	104	0	60	152432
2026-01-07 16:58:56.54	9.14	27.16	-51.4	-69.3	3.5	3.02e+01	0	35	104	0	60	152134
2026-01-07 16:58:57.55	9.02	27.35	-51.4	-69.3	3.5	3.02e+01	0	35	104	0	60	151511
2026-01-07 16:58:58.56	8.90	27.54	-51.4	-69.3	3.5	3.02e+01	0	35	104	0	60	152053
2026-01-07 16:58:59.57	8.78	27.73	-51.4	-69.3	3.5	3.02e+01	0	35	104	0	60	152028
2026-01-07 16:59:00.58	8.65	27.93	-51.4	-69.4	3.5	3.02e+01	0	35	104	0	60	152408
2026-01-07 16:59:01.59	8.53	28.12	-51.4	-69.3	3.5	3.02e+01	0	35	104	0	60	152152
2026-01-07 16:59:02.60	8.40	28.31	-51.4	-69.3	3.5	3.02e+01	0	35	104	0	60	151676
2026-01-07 16:59:03.61	8.27	28.51	-51.4	-69.4	3.5	3.02e+01	0	35	104	0	60	152528
2026-01-07 16:59:04.62	8.14	28.71	-51.4	-69.4	3.5	3.02e+01	0	35	104	0	60	152996
2026-01-07 16:59:05.64	8.00	28.91	-51.4	-69.3	3.5	3.02e+01	0	35	104	0	60	152154
2026-01-07 16:59:06.65	7.87	29.11	-51.4	-69.4	3.5	3.02e+01	0	35	104	0	60	152613
2026-01-07 16:59:07.66	7.73	29.31	-51.4	-69.3	3.5	3.02e+01	0	35	104	0	60	152303
2026-01-07 16:59:08.67	7.59	29.52	-51.4	-69.4	3.5	3.02e+01	0	35	104	0	60	152394
2026-01-07 16:59:09.68	7.45	29.72	-51.4	-69.3	3.5	3.02e+01	0	35	104	0	60	151714
2026-01-07 16:59:10.69	7.31	29.93	-51.4	-69.3	3.5	3.02e+01	0	35	104	0	60	151989
2026-01-07 16:59:11.70	7.16	30.14	-51.4	-69.4	3.5	3.02e+01	0	35	104	0	60	152455
2026-01-07 16:59:12.71	7.02	30.35	-51.4	-69.3	3.5	3.02e+01	0	35	104	0	60	151581
2026-01-07 16:59:13.72	6.87	30.56	-51.4	-69.3	3.5	3.02e+01	0	35	104	0	60	151866
2026-01-07 16:59:14.73	6.72	30.77	-51.4	-69.3	3.5	3.02e+01	0	35	104	0	60	152160
2026-01-07 16:59:15.74	6.56	30.98	-51.4	-69.3	3.5	3.02e+01	0	35	104	0	60	151824
2026-01-07 16:59:16.75	6.41	31.20	-51.4	-69.3	3.5	3.02e+01	0	35	104	0	60	151942
2026-01-07 16:59:17.76	6.25	31.42	-51.4	-69.3	3.5	3.02e+01	0	35	104	0	60	151741
2026-01-07 16:59:18.77	6.09	31.63	-51.4	-69.3	3.5	3.02e+01	0	35	104	0	60	151526
2026-01-07 16:59:19.78	5.93	31.85	-51.4	-69.3	3.5	3.02e+01	0	35	104	0	60	152254
2026-01-07 16:59:20.79	5.77	32.07	-51.4	-69.3	3.5	3.02e+01	0	35	104	0	60	152157
2026-01-07 16:59:21.81	5.60	32.30	-51.4	-69.4	3.5	3.02e+01	0	35	104	0	60	152370
2026-01-07 16:59:22.82	5.43	32.52	-51.4	-69.3	3.5	3.02e+01	0	35	104	0	60	151865
2026-01-07 16:59:23.83	5.26	32.75	-51.4	-69.3	3.5	3.02e+01	0	35	104	0	60	151121
2026-01-07 16:59:24.84	5.09	32.98	-51.4	-69.3	3.5	3.02e+01	0	35	104	0	60	152066
2026-01-07 16:59:25.85	4.91	33.20	-51.4	-69.3	3.6	3.02e+01	0	35	104	0	60	152236
2026-01-07 16:59:26.86	4.73	33.43	-51.4	-69.3	3.5	3.02e+01	0	35	104	0	60	152172
2026-01-07 16:59:27.87	4.55	33.67	-51.4	-69.3	3.5	3.02e+01	0	35	104	0	60	151983
2026-01-07 16:59:28.88	4.37	33.90	-51.4	-69.4	3.5	3.02e+01	0	35	104	0	60	152545
2026-01-07 16:59:29.89	4.18	34.13	-51.4	-69.3	3.5	3.02e+01	0	35	104	0	60	151743
2026-01-07 16:59:30.91	3.99	34.37	-51.4	-69.3	3.5	3.02e+01	0	35	104	0	60	151707
2026-01-07 16:59:31.92	3.79	34.61	-51.4	-69.3	3.5	3.02e+01	0	35	104	0	60	152075
2026-01-07 16:59:32.93	3.60	34.85	-51.4	-69.4	3.5	3.02e+01	0	35	104	0	60	152931
2026-01-07 16:59:33.94	3.40	35.09	-51.4	-69.3	3.5	3.02e+01	0	35	104	0	60	152174
2026-01-07 16:59:34.95	3.20	35.33	-51.4	-69.3	3.5	3.02e+01	0	35	104	0	60	152130
2026-01-07 16:59:35.96	2.99	35.58	-51.4	-69.4	3.5	3.02e+01	0	35	104	0	60	152358
2026-01-07 16:59:36.97	2.78	35.82	-51.4	-69.3	3.5	3.02e+01	0	35	104	0	60	152106
2026-01-07 16:59:37.98	2.57	36.07	-51.4	-69.3	3.5	3.02e+01	0	35	104	0	60	152250
2026-01-07 16:59:38.99	2.36	36.32	-51.4	-69.4	3.5	3.02e+01	0	35	104	0	60	152730
2026-01-07 16:59:40.01	2.14	36.57	-51.4	-69.4	3.5	3.02e+01	0	35	104	0	60	152700
2026-01-07 16:59:41.02	1.91	36.83	-51.4	-69.3	3.5	3.02e+01	0	35	104	0	60	151898
2026-01-07 16:59:42.03	1.69	37.08	-51.4	-69.3	3.5	3.02e+01	0	35	104	0	60	152121
2026-01-07 16:59:43.04	1.46	37.34	-51.4	-69.3	3.5	3.02e+01	0	35	104	0	60	151599
2026-01-07 16:59:44.05	1.22	37.59	-51.4	-69.3	3.5	3.02e+01	0	35	104	0	60	151898
2026-01-07 16:59:45.06	0.99	37.85	-51.4	-69.3	3.5	3.02e+01	0	35	104	0	60	151592
2026-01-07 16:59:46.07	0.75	38.11	-51.4	-69.3	3.5	3.02e+01	0	35	104	0	60	151652
2026-01-07 16:59:47.08	0.50	38.37	-51.4	-69.3	3.5	3.02e+01	0	35	104	0	60	151236
2026-01-07 16:59:48.09	0.25	38.64	-51.4	-69.3	3.5	3.02e+01	0	35	104	0	60	151598
2026-01-07 16:59:49.11	360.00	38.90	-51.4	-69.3	3.5	3.02e+01	0	35	104	0	60	151622
2026-01-07 16:59:50.11	359.74	39.17	-51.4	-69.3	3.5	3.02e+01	0	35	104	0	60	151940
2026-01-07 16:59:51.13	359.48	39.44	-51.4	-69.3	3.5	3.02e+01	0	35	104	0	60	151450
2026-01-07 16:59:52.14	359.21	39.71	-51.4	-69.3	3.5	3.02e+01	0	35	104	0	60	152058
2026-01-07 16:59:53.15	358.94	39.98	-51.4	-69.3	3.5	3.02e+01	0	35	104	0	60	151969
2026-01-07 16:59:54.16	358.66	40.25	-51.4	-69.3	3.5	3.02e+01	0	35	104	0	60	152091
2026-01-07 16:59:55.17	358.38	40.52	-51.4	-69.4	3.5	3.02e+01	0	35	104	0	60	152345
2026-01-07 16:59:56.18	358.10	40.80	-51.4	-69.3	3.5	3.02e+01	0	35	104	0	60	152070
2026-01-07 16:59:57.19	357.81	41.07	-51.4	-69.4	3.5	3.02e+01	0	35	104	0	60	152485
2026-01-07 16:59:58.20	357.51	41.35	-51.4	-69.3	3.5	3.02e+01	0	35	104	0	60	151577
2026-01-07 16:59:59.21	357.21	41.63	-51.4	-69.3	3.5	3.02e+01	0	35	104	0	60	152029
2026-01-07 17:00:00.22	356.90	41.91	-51.4	-69.3	3.5	3.02e+01	0	35	104	0	60	151869
2026-01-07 17:00:01.24	356.59	42.20	-51.4	-69.4	3.5	3.02e+01	0	35	104	0	60	152815
2026-01-07 17:00:02.25	356.27	42.48	-51.4	-69.3	3.5	3.02e+01	0	35	104	0	60	151752
2026-01-07 17:00:03.26	355.94	42.77	-51.4	-69.3	3.5	3.02e+01	0	35	104	0	60	152073
2026-01-07 17:00:04.27	355.61	43.05	-51.4	-69.3	3.5	3.02e+01	0	35	104	0	60	152223
2026-01-07 17:00:05.28	355.28	43.34	-51.4	-69.3	3.5	3.02e+01	0	35	104	0	60	151875
2026-01-07 17:00:06.29	354.94	43.63	-51.4	-69.3	3.5	3.02e+01	0	35	104	0	60	152067
2026-01-07 17:00:07.30	354.59	43.92	-51.4	-69.4	3.5	3.02e+01	0	35	104	0	60	152640
2026-01-07 17:00:08.31	354.23	44.21	-51.4	-69.4	3.5	3.02e+01	0	35	104	0	60	152817
2026-01-07 17:00:09.32	353.87	44.50	-51.4	-69.3	3.5	3.02e+01	0	35	104	0	60	151561
2026-01-07 17:00:10.33	353.50	44.79	-51.4	-69.3	3.5	3.02e+01	0	35	104	0	60	152169
2026-01-07 17:00:11.35	353.12	45.09	-51.4	-69.3	3.5	3.02e+01	0	35	104	0	60	151713
2026-01-07 17:00:12.36	352.74	45.38	-51.4	-69.3	3.5	3.02e+01	0	35	104	0	60	151814
2026-01-07 17:00:13.37	352.35	45.68	-51.4	-69.4	3.5	3.02e+01	0	35	104	0	60	152485
2026-01-07 17:00:14.38	351.95	45.97	-51.4	-69.3	3.5	3.02e+01	0	35	104	0	60	152052
2026-01-07 17:00:15.39	351.55	46.27	-51.4	-69.3	3.5	3.02e+01	0	35	104	0	60	151521
2026-01-07 17:00:16.40	351.13	46.56	-51.4	-69.3	3.5	3.02e+01	0	35	104	0	60	152204
2026-01-07 17:00:17.41	350.71	46.86	-51.4	-69.3	3.5	3.02e+01	0	35	104	0	60	152025
2026-01-07 17:00:18.42	350.28	47.16	-51.4	-69.4	3.5	3.02e+01	0	35	104	0	60	152819
2026-01-07 17:00:19.43	349.84	47.46	-51.4	-69.4	3.5	3.02e+01	0	35	104	0	60	152575
2026-01-07 17:00:20.44	349.40	47.76	-51.4	-69.4	3.5	3.02e+01	0	35	104	0	60	152432
2026-01-07 17:00:21.45	348.94	48.06	-51.4	-69.3	3.5	3.02e+01	0	35	104	0	60	151677
2026-01-07 17:00:22.46	348.47	48.36	-51.4	-69.4	3.5	3.02e+01	0	35	104	0	60	152580
2026-01-07 17:00:23.47	348.00	48.66	-51.4	-69.4	3.5	3.02e+01	0	35	104	0	60	152405
2026-01-07 17:00:24.49	347.51	48.96	-51.4	-69.4	3.5	3.02e+01	0	35	104	0	60	152777
2026-01-07 17:00:25.50	347.02	49.26	-51.4	-69.3	3.5	3.02e+01	0	35	104	0	60	152024
2026-01-07 17:00:26.51	346.51	49.56	-51.4	-69.3	3.5	3.02e+01	0	35	104	0	60	152269
2026-01-07 17:00:27.52	346.00	49.86	-51.4	-69.4	3.5	3.02e+01	0	35	104	0	60	152540
2026-01-07 17:00:28.53	345.48	50.16	-51.4	-69.4	3.5	3.02e+01	0	35	104	0	60	152602
2026-01-07 17:00:29.54	344.94	50.45	-51.4	-69.3	3.5	3.02e+01	0	35	104	0	60	151878
2026-01-07 17:00:30.55	344.40	50.75	-51.4	-69.4	3.5	3.02e+01	0	35	104	0	60	152740
2026-01-07 17:00:31.56	343.84	51.05	-51.4	-69.4	3.5	3.02e+01	0	35	104	0	60	152572
2026-01-07 17:00:32.58	343.27	51.35	-51.4	-69.3	3.5	3.02e+01	0	35	104	0	60	152296
2026-01-07 17:00:33.59	342.69	51.64	-51.4	-69.4	3.5	3.02e+01	0	35	104	0	60	152774
2026-01-07 17:00:34.60	342.10	51.93	-51.4	-69.4	3.5	3.02e+01	0	35	104	0	60	152564
2026-01-07 17:00:35.61	341.49	52.23	-51.4	-69.4	3.5	3.02e+01	0	35	104	0	60	152783
2026-01-07 17:00:36.62	340.88	52.52	-51.4	-69.3	3.5	3.02e+01	0	35	104	0	60	152010
2026-01-07 17:00:37.63	340.25	52.80	-51.4	-69.4	3.5	3.02e+01	0	35	104	0	60	152558
2026-01-07 17:00:38.64	339.61	53.09	-51.4	-69.4	3.5	3.02e+01	0	35	104	0	60	152479
2026-01-07 17:00:39.65	338.96	53.38	-51.4	-69.3	3.5	3.02e+01	0	35	104	0	60	152038
2026-01-07 17:00:40.66	338.29	53.66	-51.4	-69.3	3.5	3.02e+01	0	35	104	0	60	152303
2026-01-07 17:00:41.67	337.61	53.94	-51.4	-69.4	3.5	3.02e+01	0	35	104	0	60	152350
2026-01-07 17:00:42.69	336.91	54.22	-51.4	-69.3	3.5	3.02e+01	0	35	104	0	60	152180
2026-01-07 17:00:43.70	336.21	54.49	-51.4	-69.3	3.5	3.02e+01	0	35	104	0	60	152262
2026-01-07 17:00:44.71	335.49	54.77	-51.4	-69.4	3.5	3.02e+01	0	35	104	0	60	152678
2026-01-07 17:00:45.72	334.75	55.04	-51.4	-69.3	3.5	3.02e+01	0	35	104	0	60	151726
2026-01-07 17:00:46.73	334.00	55.30	-51.4	-69.4	3.6	3.02e+01	0	35	104	0	60	153117
2026-01-07 17:00:47.74	333.24	55.56	-51.4	-69.4	3.5	3.02e+01	0	35	104	0	60	152394
2026-01-07 17:00:48.75	332.46	55.82	-51.4	-69.3	3.5	3.02e+01	0	35	104	0	60	151880
2026-01-07 17:00:49.76	331.67	56.08	-51.4	-69.3	3.5	3.02e+01	0	35	104	0	60	151520
2026-01-07 17:00:50.77	330.86	56.33	-51.4	-69.3	3.5	3.02e+01	0	35	104	0	60	152166
2026-01-07 17:00:51.78	330.04	56.57	-51.4	-69.4	3.5	3.02e+01	0	35	104	0	60	152356
2026-01-07 17:00:52.80	329.20	56.81	-51.4	-69.4	3.5	3.02e+01	0	35	104	0	60	153208
2026-01-07 17:00:53.81	328.35	57.05	-51.4	-69.4	3.5	3.02e+01	0	35	104	0	60	152363
2026-01-07 17:00:54.82	327.48	57.28	-51.4	-69.4	3.5	3.02e+01	0	35	104	0	60	152605
2026-01-07 17:00:55.83	326.60	57.51	-51.4	-69.3	3.5	3.02e+01	0	35	104	0	60	152025
2026-01-07 17:00:56.84	325.71	57.73	-51.4	-69.4	3.5	3.02e+01	0	35	104	0	60	152612
2026-01-07 17:00:57.85	324.80	57.94	-51.4	-69.3	3.5	3.02e+01	0	35	104	0	60	151938
2026-01-07 17:00:58.86	323.87	58.15	-51.4	-69.4	3.5	3.02e+01	0	35	104	0	60	153037
2026-01-07 17:00:59.87	322.93	58.35	-51.4	-69.4	3.5	3.02e+01	0	35	104	0	60	152336
2026-01-07 17:01:00.88	321.98	58.55	-51.4	-69.4	3.5	3.02e+01	0	35	104	0	60	152357
2026-01-07 17:01:01.89	321.01	58.73	-51.4	-69.3	3.5	3.02e+01	0	35	104	0	60	152258
2026-01-07 17:01:02.91	320.02	58.92	-51.4	-69.4	3.5	3.02e+01	0	35	104	0	60	152784
2026-01-07 17:01:03.92	319.03	59.09	-51.4	-69.3	3.5	3.02e+01	0	35	104	0	60	152254
2026-01-07 17:01:04.93	318.02	59.26	-51.4	-69.3	3.5	3.02e+01	0	35	104	0	60	152120
2026-01-07 17:01:05.94	317.00	59.41	-51.4	-69.3	3.5	3.02e+01	0	35	104	0	60	151864
2026-01-07 17:01:06.95	315.97	59.57	-51.4	-69.4	3.5	3.02e+01	0	35	104	0	60	152507
2026-01-07 17:01:07.96	314.92	59.71	-51.4	-69.4	3.5	3.02e+01	0	35	104	0	60	152532
2026-01-07 17:01:08.97	313.87	59.84	-51.4	-69.3	3.5	3.02e+01	0	35	104	0	60	152284
2026-01-07 17:01:09.98	312.80	59.97	-51.4	-69.4	3.5	3.02e+01	0	35	104	0	60	152381
2026-01-07 17:01:10.99	311.72	60.08	-51.4	-69.4	3.5	3.02e+01	0	35	104	0	60	152980
2026-01-07 17:01:12.00	310.64	60.19	-51.4	-69.4	3.5	3.02e+01	0	35	104	0	60	152547
2026-01-07 17:01:13.01	309.54	60.29	-51.4	-69.4	3.5	3.02e+01	0	35	104	0	60	152459
2026-01-07 17:01:14.03	308.43	60.38	-51.4	-69.3	3.5	3.02e+01	0	35	104	0	60	151535
2026-01-07 17:01:15.03	307.33	60.46	-51.4	-69.4	3.5	3.02e+01	0	35	104	0	60	152931
2026-01-07 17:01:16.05	306.20	60.53	-51.4	-69.3	3.5	3.02e+01	0	35	104	0	60	152071
2026-01-07 17:01:17.06	305.07	60.59	-51.4	-69.4	3.5	3.02e+01	0	35	104	0	60	152740
2026-01-07 17:01:18.07	303.95	60.64	-51.4	-69.3	3.5	3.02e+01	0	35	104	0	60	151963
2026-01-07 17:01:19.08	302.81	60.68	-51.4	-69.3	3.5	3.02e+01	0	35	104	0	60	151721
2026-01-07 17:01:20.09	301.68	60.72	-51.4	-69.4	3.5	3.02e+01	0	35	104	0	60	152542
2026-01-07 17:01:21.10	300.54	60.74	-51.4	-69.3	3.5	3.02e+01	0	35	104	0	60	152049
2026-01-07 17:01:22.11	299.40	60.75	-51.4	-69.4	3.5	3.02e+01	0	35	104	0	60	152683
2026-01-07 17:01:23.12	298.26	60.75	-51.4	-69.4	3.5	3.02e+01	0	35	104	0	60	152365
2026-01-07 17:01:24.13	297.12	60.74	-51.4	-69.3	3.5	3.02e+01	0	35	104	0	60	152114
2026-01-07 17:01:25.14	295.98	60.72	-51.4	-69.3	3.5	3.02e+01	0	35	104	0	60	152158
2026-01-07 17:01:26.15	294.84	60.69	-51.4	-69.4	3.5	3.02e+01	0	35	104	0	60	152820
2026-01-07 17:01:27.17	293.70	60.65	-51.4	-69.3	3.5	3.02e+01	0	35	104	0	60	152069
2026-01-07 17:01:28.18	292.57	60.61	-51.4	-69.4	3.5	3.02e+01	0	35	104	0	60	153173
2026-01-07 17:01:29.19	291.44	60.55	-51.4	-69.4	3.5	3.02e+01	0	35	104	0	60	153081
2026-01-07 17:01:30.20	290.32	60.48	-51.4	-69.4	3.5	3.02e+01	0	35	104	0	60	152859
2026-01-07 17:01:31.21	289.21	60.40	-51.4	-69.3	3.5	3.02e+01	0	35	104	0	60	151889
2026-01-07 17:01:32.22	288.10	60.32	-51.4	-69.4	3.5	3.02e+01	0	35	104	0	60	152371
2026-01-07 17:01:33.23	287.00	60.22	-51.4	-69.4	3.5	3.02e+01	0	35	104	0	60	153204
2026-01-07 17:01:34.24	285.92	60.11	-51.4	-69.4	3.5	3.02e+01	0	35	104	0	60	152755
2026-01-07 17:01:35.25	284.84	60.00	-51.4	-69.3	3.5	3.02e+01	0	35	104	0	60	151851
2026-01-07 17:01:36.26	283.77	59.88	-51.4	-69.3	3.5	3.02e+01	0	35	104	0	60	151481
2026-01-07 17:01:37.27	282.71	59.74	-51.4	-69.3	3.5	3.02e+01	0	35	104	0	60	152265
2026-01-07 17:01:38.29	281.65	59.60	-51.4	-69.4	3.5	3.02e+01	0	35	104	0	60	152649
2026-01-07 17:01:39.30	280.61	59.45	-51.4	-69.3	3.5	3.02e+01	0	35	104	0	60	152320
2026-01-07 17:01:40.31	279.59	59.30	-51.4	-69.4	3.5	3.02e+01	0	35	104	0	60	152530
2026-01-07 17:01:41.32	278.57	59.13	-51.4	-69.3	3.5	3.02e+01	0	35	104	0	60	151387
2026-01-07 17:01:42.33	277.58	58.96	-51.4	-69.3	3.5	3.02e+01	0	35	104	0	60	152307
2026-01-07 17:01:43.34	276.59	58.78	-51.4	-69.4	3.5	3.02e+01	0	35	104	0	60	152501
2026-01-07 17:01:44.35	275.62	58.59	-51.4	-69.4	3.5	3.02e+01	0	35	104	0	60	152907
2026-01-07 17:01:45.36	274.66	58.40	-51.4	-69.4	3.5	3.02e+01	0	35	104	0	60	152469
2026-01-07 17:01:46.37	273.72	58.20	-51.4	-69.3	3.5	3.02e+01	0	35	104	0	60	152118
2026-01-07 17:01:47.38	272.79	57.99	-51.4	-69.3	3.5	3.02e+01	0	35	104	0	60	152167
2026-01-07 17:01:48.39	271.87	57.78	-51.4	-69.4	3.5	3.02e+01	0	35	104	0	60	152846
2026-01-07 17:01:49.40	270.97	57.56	-51.4	-69.4	3.5	3.02e+01	0	35	104	0	60	152977
2026-01-07 17:01:50.42	270.08	57.33	-51.4	-69.4	3.5	3.02e+01	0	35	104	0	60	152689
2026-01-07 17:01:51.43	269.21	57.11	-51.4	-69.3	3.5	3.02e+01	0	35	104	0	60	151823
2026-01-07 17:01:52.44	268.35	56.87	-51.4	-69.4	3.5	3.02e+01	0	35	104	0	60	152834
2026-01-07 17:01:53.45	267.51	56.63	-51.4	-69.4	3.5	3.02e+01	0	35	104	0	60	152778
2026-01-07 17:01:54.46	266.68	56.38	-51.4	-69.4	3.5	3.02e+01	0	35	104	0	60	152566
2026-01-07 17:01:55.47	265.87	56.14	-51.4	-69.4	3.5	3.02e+01	0	35	104	0	60	152416
2026-01-07 17:01:56.48	265.08	55.88	-51.4	-69.4	3.5	3.02e+01	0	35	104	0	60	152947
2026-01-07 17:01:57.49	264.29	55.62	-51.4	-69.3	3.5	3.02e+01	0	35	104	0	60	152234
2026-01-07 17:01:58.50	263.53	55.36	-51.4	-69.3	3.5	3.02e+01	0	35	104	0	60	152177
2026-01-07 17:01:59.51	262.77	55.10	-51.4	-69.4	3.5	3.02e+01	0	36	104	0	60	153437
2026-01-07 17:02:00.52	262.03	54.83	-51.4	-69.3	3.5	3.02e+01	0	35	104	0	60	152157
2026-01-07 17:02:01.53	261.31	54.56	-51.4	-69.4	3.5	3.02e+01	0	35	104	0	60	152495
2026-01-07 17:02:02.54	260.60	54.28	-51.4	-69.4	3.5	3.02e+01	0	35	104	0	60	152473
2026-01-07 17:02:03.56	259.89	54.00	-51.4	-69.4	3.5	3.02e+01	0	35	104	0	60	153049
2026-01-07 17:02:04.57	259.21	53.72	-51.4	-69.3	3.5	3.02e+01	0	35	104	0	60	152092
2026-01-07 17:02:05.58	258.54	53.44	-51.4	-69.3	3.5	3.02e+01	0	35	104	0	60	152328
2026-01-07 17:02:06.59	257.88	53.15	-51.4	-69.4	3.5	3.02e+01	0	35	104	0	60	152618
2026-01-07 17:02:07.60	257.24	52.87	-51.4	-69.4	3.5	3.02e+01	0	35	104	0	60	152979
2026-01-07 17:02:08.61	256.60	52.58	-51.4	-69.4	3.5	3.02e+01	0	35	104	0	60	152695
2026-01-07 17:02:09.62	255.98	52.29	-51.4	-69.4	3.5	3.02e+01	0	35	104	0	60	152631
2026-01-07 17:02:10.63	255.38	51.99	-51.4	-69.4	3.5	3.02e+01	0	35	104	0	60	152583
2026-01-07 17:02:11.65	254.78	51.70	-51.4	-69.3	3.5	3.02e+01	0	35	104	0	60	152103
2026-01-07 17:02:12.66	254.19	51.40	-51.4	-69.4	3.5	3.02e+01	0	35	104	0	60	152663
2026-01-07 17:02:13.67	253.62	51.11	-51.4	-69.4	3.5	3.02e+01	0	35	104	0	60	152579
2026-01-07 17:02:14.68	253.06	50.81	-51.4	-69.4	3.5	3.02e+01	0	35	104	0	60	152581
2026-01-07 17:02:15.69	252.51	50.51	-51.4	-69.3	3.5	3.02e+01	0	35	104	0	60	152305
2026-01-07 17:02:16.70	251.97	50.21	-51.4	-69.3	3.5	3.02e+01	0	35	104	0	60	152173
2026-01-07 17:02:17.71	251.45	49.91	-51.4	-69.4	3.5	3.02e+01	0	35	104	0	60	153472
2026-01-07 17:02:18.72	250.93	49.61	-51.4	-69.4	3.5	3.02e+01	0	35	104	0	60	152665
2026-01-07 17:02:19.73	250.42	49.31	-51.4	-69.4	3.5	3.02e+01	0	35	104	0	60	152469
2026-01-07 17:02:20.74	249.93	49.01	-51.4	-69.3	3.5	3.02e+01	0	35	104	0	60	151808
2026-01-07 17:02:21.75	249.44	48.71	-51.4	-69.4	3.5	3.02e+01	0	35	104	0	60	152633
2026-01-07 17:02:22.77	248.96	48.41	-51.4	-69.4	3.5	3.02e+01	0	35	104	0	60	152764
2026-01-07 17:02:23.78	248.49	48.11	-51.4	-69.4	3.5	3.02e+01	0	35	104	0	60	153486
2026-01-07 17:02:24.79	248.03	47.81	-51.4	-69.3	3.5	3.02e+01	0	35	104	0	60	151622
2026-01-07 17:02:25.80	247.58	47.51	-51.4	-69.4	3.5	3.02e+01	0	35	104	0	60	152527
2026-01-07 17:02:26.81	247.14	47.21	-51.4	-69.4	3.5	3.02e+01	0	35	104	0	60	152914
2026-01-07 17:02:27.82	246.70	46.91	-51.4	-69.4	3.5	3.02e+01	0	35	104	0	60	153012
2026-01-07 17:02:28.83	246.28	46.61	-51.4	-69.4	3.5	3.02e+01	0	35	104	0	60	153286
2026-01-07 17:02:29.84	245.86	46.31	-51.4	-69.3	3.5	3.02e+01	0	35	104	0	60	152140
2026-01-07 17:02:30.85	245.46	46.02	-51.4	-69.3	3.5	3.02e+01	0	35	104	0	60	152124
2026-01-07 17:02:31.86	245.05	45.72	-51.4	-69.3	3.5	3.02e+01	0	35	104	0	60	152096
2026-01-07 17:02:32.87	244.66	45.42	-51.4	-69.4	3.5	3.02e+01	0	35	104	0	60	152737
2026-01-07 17:02:33.89	244.27	45.12	-51.4	-69.4	3.5	3.02e+01	0	35	104	0	60	152803
2026-01-07 17:02:34.90	243.89	44.83	-51.4	-69.4	3.5	3.02e+01	0	35	104	0	60	153119
2026-01-07 17:02:35.91	243.52	44.54	-51.4	-69.4	3.5	3.02e+01	0	35	104	0	60	152431
2026-01-07 17:02:36.92	243.16	44.24	-51.4	-69.4	3.5	3.02e+01	0	35	104	0	60	152452
2026-01-07 17:02:37.93	242.80	43.95	-51.4	-69.4	3.5	3.02e+01	0	35	104	0	60	152596
2026-01-07 17:02:38.94	242.45	43.66	-51.4	-69.4	3.5	3.02e+01	0	35	104	0	60	152622
2026-01-07 17:02:39.95	242.11	43.37	-51.4	-69.3	3.5	3.02e+01	0	35	104	0	60	152221
2026-01-07 17:02:40.96	241.77	43.08	-51.4	-69.3	3.5	3.02e+01	0	35	104	0	60	152238
2026-01-07 17:02:41.97	241.44	42.80	-51.4	-69.3	3.5	3.02e+01	0	35	104	0	60	152124
2026-01-07 17:02:42.98	241.11	42.51	-51.4	-69.3	3.5	3.02e+01	0	35	104	0	60	152276
2026-01-07 17:02:43.99	240.79	42.23	-51.4	-69.4	3.5	3.02e+01	0	35	104	0	60	152900
2026-01-07 17:02:45.00	240.47	41.94	-51.4	-69.4	3.5	3.02e+01	0	35	104	0	60	152528
2026-01-07 17:02:46.01	240.17	41.66	-51.4	-69.4	3.5	3.02e+01	0	35	104	0	60	152562
2026-01-07 17:02:47.02	239.86	41.38	-51.4	-69.4	3.5	3.02e+01	0	35	104	0	60	152584
2026-01-07 17:02:48.03	239.56	41.10	-51.4	-69.4	3.5	3.02e+01	0	35	104	0	60	152411
2026-01-07 17:02:49.04	239.27	40.82	-51.4	-69.4	3.5	3.02e+01	0	35	104	0	60	152493
2026-01-07 17:02:50.05	238.98	40.55	-51.4	-69.3	3.5	3.02e+01	0	35	104	0	60	152262
2026-01-07 17:02:51.06	238.70	40.27	-51.4	-69.4	3.5	3.02e+01	0	35	104	0	60	153375
2026-01-07 17:02:52.07	238.42	40.00	-51.4	-69.3	3.5	3.02e+01	0	35	104	0	60	151860
2026-01-07 17:02:53.09	238.15	39.72	-51.4	-69.4	3.5	3.02e+01	0	35	104	0	60	153375
2026-01-07 17:02:54.10	237.88	39.45	-51.4	-69.3	3.5	3.02e+01	0	36	104	0	60	151729
2026-01-07 17:02:55.11	237.62	39.18	-51.4	-69.4	3.5	3.02e+01	0	35	104	0	60	152635
2026-01-07 17:02:56.12	237.36	38.92	-51.4	-69.4	3.5	3.02e+01	0	35	104	0	60	153434
2026-01-07 17:02:57.13	237.10	38.65	-51.4	-69.4	3.5	3.02e+01	0	35	104	0	60	153141
2026-01-07 17:02:58.14	236.85	38.39	-51.4	-69.4	3.5	3.02e+01	0	35	104	0	60	152897
2026-01-07 17:02:59.15	236.60	38.12	-51.4	-69.3	3.5	3.02e+01	0	35	104	0	60	152011
2026-01-07 17:03:00.16	236.36	37.86	-51.4	-69.4	3.5	3.02e+01	0	35	104	0	60	152496
2026-01-07 17:03:01.17	236.12	37.60	-51.4	-69.3	3.5	3.02e+01	0	35	104	0	60	151836
2026-01-07 17:03:02.19	235.89	37.34	-51.4	-69.4	3.5	3.02e+01	0	36	104	0	60	152753
2026-01-07 17:03:03.20	235.65	37.09	-51.4	-69.3	3.5	3.02e+01	0	35	104	0	60	152275
2026-01-07 17:03:04.21	235.43	36.83	-51.4	-69.4	3.5	3.02e+01	0	35	104	0	60	152693
2026-01-07 17:03:05.22	235.20	36.58	-51.4	-69.4	3.5	3.02e+01	0	35	104	0	60	153093
2026-01-07 17:03:06.23	234.98	36.33	-51.4	-69.4	3.5	3.02e+01	0	35	104	0	60	152762
2026-01-07 17:03:07.24	234.77	36.08	-51.4	-69.4	3.5	3.02e+01	0	35	104	0	60	152884
2026-01-07 17:03:08.25	234.55	35.83	-51.4	-69.3	3.5	3.02e+01	0	35	104	0	60	152165
2026-01-07 17:03:09.26	234.34	35.58	-51.4	-69.3	3.5	3.02e+01	0	35	104	0	60	152049
2026-01-07 17:03:10.27	234.14	35.33	-51.4	-69.4	3.5	3.02e+01	0	35	104	0	60	152780
2026-01-07 17:03:11.28	233.93	35.09	-51.4	-69.4	3.5	3.02e+01	0	35	104	0	60	152849
2026-01-07 17:03:12.29	233.73	34.85	-51.4	-69.4	3.5	3.02e+01	0	35	104	0	60	152584
2026-01-07 17:03:13.31	233.54	34.60	-51.4	-69.4	3.5	3.02e+01	0	35	104	0	60	152366
2026-01-07 17:03:14.32	233.34	34.37	-51.4	-69.4	3.5	3.02e+01	0	35	104	0	60	152454
2026-01-07 17:03:15.33	233.15	34.13	-51.4	-69.4	3.5	3.02e+01	0	35	104	0	60	152525
2026-01-07 17:03:16.34	232.96	33.89	-51.4	-69.3	3.5	3.02e+01	0	35	104	0	60	151433
2026-01-07 17:03:17.35	232.78	33.66	-51.4	-69.3	3.5	3.02e+01	0	35	104	0	60	152035
2026-01-07 17:03:18.36	232.59	33.42	-51.4	-69.4	3.5	3.02e+01	0	35	104	0	60	153137
2026-01-07 17:03:19.37	232.41	33.19	-51.4	-69.3	3.5	3.02e+01	0	35	104	0	60	152181
2026-01-07 17:03:20.38	232.24	32.96	-51.4	-69.4	3.5	3.02e+01	0	35	104	0	60	152819
2026-01-07 17:03:21.40	232.06	32.73	-51.4	-69.4	3.5	3.02e+01	0	35	104	0	60	152858
2026-01-07 17:03:22.41	231.89	32.51	-51.4	-69.3	3.5	3.02e+01	0	35	104	0	60	151803
2026-01-07 17:03:23.42	231.72	32.28	-51.4	-69.4	3.5	3.02e+01	0	35	104	0	60	152492
2026-01-07 17:03:24.43	231.55	32.06	-51.4	-69.4	3.5	3.02e+01	0	35	104	0	60	152503
2026-01-07 17:03:25.44	231.39	31.84	-51.4	-69.4	3.5	3.02e+01	0	35	104	0	60	152692
2026-01-07 17:03:26.45	231.22	31.61	-51.4	-69.3	3.5	3.02e+01	0	35	104	0	60	152091
2026-01-07 17:03:27.46	231.06	31.40	-51.4	-69.3	3.5	3.02e+01	0	35	104	0	60	152247
2026-01-07 17:03:28.47	230.90	31.18	-51.4	-69.4	3.5	3.02e+01	0	35	104	0	60	152474
2026-01-07 17:03:29.49	230.75	30.96	-51.4	-69.3	3.5	3.02e+01	0	35	104	0	60	152315
2026-01-07 17:03:30.50	230.59	30.74	-51.4	-69.4	3.5	3.02e+01	0	35	104	0	60	152494
2026-01-07 17:03:31.51	230.44	30.53	-51.4	-69.4	3.5	3.02e+01	0	36	104	0	60	152377
2026-01-07 17:03:32.52	230.29	30.32	-51.4	-69.4	3.5	3.02e+01	0	35	104	0	60	152743
2026-01-07 17:03:33.53	230.14	30.11	-51.4	-69.3	3.5	3.02e+01	0	35	104	0	60	152306
2026-01-07 17:03:34.54	230.00	29.90	-51.4	-69.4	3.5	3.02e+01	0	35	104	0	60	153125
2026-01-07 17:03:35.55	229.86	29.69	-51.4	-69.4	3.5	3.02e+01	0	35	104	0	60	152359
2026-01-07 17:03:36.56	229.71	29.49	-51.4	-69.3	3.5	3.02e+01	0	35	104	0	60	152058
2026-01-07 17:03:37.57	229.57	29.28	-51.4	-69.4	3.5	3.02e+01	0	35	104	0	60	152400
2026-01-07 17:03:38.58	229.44	29.08	-51.4	-69.3	3.5	3.02e+01	0	35	104	0	60	152043
2026-01-07 17:03:39.60	229.30	28.88	-51.4	-69.4	3.5	3.02e+01	0	35	104	0	60	152838
2026-01-07 17:03:40.61	229.17	28.67	-51.4	-69.3	3.5	3.02e+01	0	35	104	0	60	152049
2026-01-07 17:03:41.62	229.03	28.48	-51.4	-69.3	3.5	3.02e+01	0	35	104	0	60	152109
2026-01-07 17:03:42.63	228.90	28.28	-51.4	-69.4	3.5	3.02e+01	0	35	104	0	60	152710
2026-01-07 17:03:43.64	228.77	28.08	-51.4	-69.3	3.5	3.02e+01	0	35	104	0	60	152182
2026-01-07 17:03:44.65	228.65	27.89	-51.4	-69.4	3.5	3.02e+01	0	35	104	0	60	152756
2026-01-07 17:03:45.66	228.52	27.69	-51.4	-69.4	3.5	3.02e+01	0	35	104	0	60	152744
2026-01-07 17:03:46.67	228.40	27.50	-51.4	-69.3	3.5	3.02e+01	0	36	104	0	60	152236
2026-01-07 17:03:47.69	228.27	27.31	-51.4	-69.3	3.5	3.02e+01	0	35	104	0	60	152273
2026-01-07 17:03:48.70	228.15	27.12	-51.4	-69.3	3.5	3.02e+01	0	36	104	0	60	151990
2026-01-07 17:03:49.71	228.03	26.93	-51.4	-69.3	3.5	3.02e+01	0	35	104	0	60	152283
2026-01-07 17:03:50.72	227.91	26.74	-51.4	-69.4	3.5	3.02e+01	0	36	104	0	60	152547
2026-01-07 17:03:51.73	227.80	26.55	-51.4	-69.4	3.5	3.02e+01	0	35	104	0	60	152342
2026-01-07 17:03:52.74	227.68	26.37	-51.4	-69.4	3.5	3.02e+01	0	35	104	0	60	152873
2026-01-07 17:03:53.75	227.57	26.19	-51.4	-69.4	3.5	3.02e+01	0	35	104	0	60	152778
2026-01-07 17:03:54.76	227.46	26.00	-51.4	-69.3	3.5	3.02e+01	0	36	104	0	60	151942
2026-01-07 17:03:55.77	227.34	25.82	-51.4	-69.4	3.5	3.02e+01	0	35	104	0	60	152638
2026-01-07 17:03:56.78	227.24	25.64	-51.4	-69.3	3.5	3.02e+01	0	35	104	0	60	151977
2026-01-07 17:03:57.79	227.13	25.46	-51.4	-69.4	3.5	3.02e+01	0	35	104	0	60	153617
2026-01-07 17:03:58.81	227.02	25.28	-51.4	-69.4	3.5	3.02e+01	0	35	104	0	60	152452
2026-01-07 17:03:59.82	226.91	25.11	-51.4	-69.4	3.5	3.02e+01	0	35	104	0	60	152706
2026-01-07 17:04:00.83	226.81	24.93	-51.4	-69.4	3.5	3.02e+01	0	35	104	0	60	152363
2026-01-07 17:04:01.84	226.71	24.76	-51.4	-69.4	3.5	3.02e+01	0	35	104	0	60	153022
2026-01-07 17:04:02.85	226.60	24.58	-51.4	-69.3	3.5	3.02e+01	0	35	104	0	60	151863
2026-01-07 17:04:03.86	226.50	24.41	-51.4	-69.4	3.5	3.02e+01	0	35	104	0	60	152679
2026-01-07 17:04:04.87	226.40	24.24	-51.4	-69.4	3.5	3.02e+01	0	35	104	0	60	152711
2026-01-07 17:04:05.88	226.30	24.07	-51.4	-69.3	3.5	3.02e+01	0	35	104	0	60	152253
2026-01-07 17:04:06.89	226.21	23.90	-51.4	-69.4	3.5	3.02e+01	0	35	104	0	60	153022
2026-01-07 17:04:07.91	226.11	23.73	-51.4	-69.4	3.5	3.02e+01	0	35	104	0	60	152785
2026-01-07 17:04:08.92	226.02	23.57	-51.4	-69.4	3.5	3.02e+01	0	35	104	0	60	152649
2026-01-07 17:04:09.93	225.92	23.40	-51.4	-69.4	3.5	3.02e+01	0	35	104	0	60	152443
2026-01-07 17:04:10.94	225.83	23.24	-51.4	-69.4	3.5	3.02e+01	0	35	104	0	60	152427
2026-01-07 17:04:11.95	225.74	23.08	-51.4	-69.4	3.5	3.02e+01	0	35	104	0	60	152632
2026-01-07 17:04:12.96	225.65	22.91	-51.4	-69.4	3.5	3.02e+01	0	35	104	0	60	153168
2026-01-07 17:04:13.97	225.56	22.75	-51.4	-69.4	3.5	3.02e+01	0	35	104	0	60	152538
2026-01-07 17:04:14.98	225.47	22.59	-51.4	-69.4	3.5	3.02e+01	0	35	104	0	60	152623
2026-01-07 17:04:15.99	225.38	22.43	-51.4	-69.4	3.5	3.02e+01	0	35	104	0	60	152441
2026-01-07 17:04:17.00	225.29	22.27	-51.4	-69.4	3.5	3.02e+01	0	35	104	0	60	152847
2026-01-07 17:04:18.01	225.21	22.12	-51.4	-69.4	3.5	3.02e+01	0	35	104	0	60	152718
2026-01-07 17:04:19.02	225.12	21.96	-51.4	-69.3	3.5	3.02e+01	0	35	104	0	60	151913
2026-01-07 17:04:20.03	225.04	21.81	-51.4	-69.3	3.5	3.02e+01	0	35	104	0	60	151940
2026-01-07 17:04:21.05	224.95	21.65	-51.4	-69.4	3.5	3.02e+01	0	36	104	0	60	153242
2026-01-07 17:04:22.06	224.87	21.50	-51.4	-69.4	3.5	3.02e+01	0	36	104	0	60	152407
2026-01-07 17:04:23.07	224.79	21.34	-51.4	-69.4	3.5	3.02e+01	0	36	104	0	60	152575
2026-01-07 17:04:24.08	224.71	21.19	-51.4	-69.4	3.5	3.02e+01	0	35	104	0	60	152886
2026-01-07 17:04:25.09	224.63	21.04	-51.4	-69.4	3.5	3.02e+01	0	35	104	0	60	152835
2026-01-07 17:04:26.10	224.55	20.89	-51.4	-69.3	3.5	3.02e+01	0	35	104	0	60	151889
2026-01-07 17:04:27.11	224.47	20.74	-51.4	-69.4	3.5	3.02e+01	0	35	104	0	60	153144
2026-01-07 17:04:28.12	224.39	20.60	-51.4	-69.4	3.5	3.02e+01	0	35	104	0	60	152509
2026-01-07 17:04:29.13	224.32	20.45	-51.4	-69.3	3.5	3.02e+01	0	35	104	0	60	152189
2026-01-07 17:04:30.14	224.24	20.30	-51.4	-69.4	3.5	3.02e+01	0	35	104	0	60	152732
2026-01-07 17:04:31.15	224.17	20.16	-51.4	-69.4	3.5	3.02e+01	0	35	104	0	60	152820
2026-01-07 17:04:32.16	224.09	20.01	-51.4	-69.3	3.5	3.02e+01	0	35	104	0	60	152242
2026-01-07 17:04:33.17	224.02	19.87	-51.4	-69.4	3.5	3.02e+01	0	35	104	0	60	152411
2026-01-07 17:04:34.18	223.95	19.73	-51.4	-69.3	3.5	3.02e+01	0	35	104	0	60	152232
2026-01-07 17:04:35.19	223.87	19.59	-51.4	-69.4	3.5	3.02e+01	0	35	104	0	60	152996
2026-01-07 17:04:36.20	223.80	19.45	-51.4	-69.4	3.5	3.02e+01	0	35	104	0	60	153232
2026-01-07 17:04:37.21	223.73	19.31	-51.4	-69.3	3.5	3.02e+01	0	35	104	0	60	152299
2026-01-07 17:04:38.22	223.66	19.17	-51.4	-69.4	3.5	3.02e+01	0	35	104	0	60	152426
2026-01-07 17:04:39.24	223.59	19.03	-51.4	-69.4	3.5	3.02e+01	0	35	104	0	60	153216
2026-01-07 17:04:40.25	223.53	18.89	-51.4	-69.4	3.5	3.02e+01	0	35	104	0	60	152542
2026-01-07 17:04:41.26	223.46	18.75	-51.4	-69.4	3.5	3.02e+01	0	35	104	0	60	152944
2026-01-07 17:04:42.27	223.39	18.62	-51.4	-69.4	3.5	3.02e+01	0	35	104	0	60	153143
2026-01-07 17:04:43.28	223.32	18.48	-51.4	-69.4	3.5	3.02e+01	0	35	104	0	60	152523
2026-01-07 17:04:44.29	223.26	18.35	-51.4	-69.3	3.5	3.02e+01	0	35	104	0	60	152125
2026-01-07 17:04:45.30	223.19	18.21	-51.4	-69.4	3.5	3.02e+01	0	35	104	0	60	152763
2026-01-07 17:04:46.31	223.13	18.08	-51.4	-69.4	3.5	3.02e+01	0	35	104	0	60	152512
2026-01-07 17:04:47.32	223.07	17.95	-51.4	-69.3	3.5	3.02e+01	0	35	104	0	60	152286
2026-01-07 17:04:48.33	223.00	17.82	-51.4	-69.3	3.5	3.02e+01	0	35	104	0	60	151977
2026-01-07 17:04:49.35	222.94	17.68	-51.4	-69.4	3.5	3.02e+01	0	35	104	0	60	152669
2026-01-07 17:04:50.36	222.88	17.55	-51.4	-69.4	3.5	3.02e+01	0	35	104	0	60	152693
2026-01-07 17:04:51.37	222.82	17.42	-51.4	-69.4	3.5	3.02e+01	0	35	104	0	60	153063
2026-01-07 17:04:52.38	222.76	17.30	-51.4	-69.4	3.5	3.02e+01	0	35	104	0	60	153343
2026-01-07 17:04:53.39	222.69	17.17	-51.4	-69.4	3.5	3.02e+01	0	35	104	0	60	153017
2026-01-07 17:04:54.40	222.64	17.04	-51.4	-69.4	3.5	3.02e+01	0	35	104	0	60	152411
2026-01-07 17:04:55.41	222.58	16.91	-51.4	-69.3	3.5	3.02e+01	0	36	104	0	60	151948
2026-01-07 17:04:56.42	222.52	16.79	-51.4	-69.4	3.5	3.02e+01	0	36	104	0	60	152752
2026-01-07 17:04:57.43	222.46	16.66	-51.4	-69.4	3.5	3.02e+01	0	36	104	0	60	152866
2026-01-07 17:04:58.44	222.40	16.54	-51.4	-69.4	3.5	3.02e+01	0	36	104	0	60	153226
2026-01-07 17:04:59.45	222.35	16.42	-51.4	-69.4	3.5	3.02e+01	0	35	104	0	60	152935
2026-01-07 17:05:00.46	222.29	16.29	-51.4	-69.4	3.5	3.02e+01	0	36	104	0	60	152445
2026-01-07 17:05:01.47	222.23	16.17	-51.4	-69.4	3.5	3.02e+01	0	35	104	0	60	152482
2026-01-07 17:05:02.49	222.18	16.05	-51.4	-69.4	3.5	3.02e+01	0	35	104	0	60	153095
2026-01-07 17:05:03.50	222.12	15.93	-51.4	-69.4	3.5	3.02e+01	0	35	104	0	60	152976
2026-01-07 17:05:04.51	222.07	15.80	-51.4	-69.3	3.5	3.02e+01	0	35	104	0	60	152295
2026-01-07 17:05:05.52	222.01	15.68	-51.4	-69.3	3.5	3.02e+01	0	35	104	0	60	151972
2026-01-07 17:05:06.53	221.96	15.57	-51.4	-69.4	3.5	3.02e+01	0	35	104	0	60	152684
2026-01-07 17:05:07.54	221.91	15.45	-51.4	-69.4	3.5	3.02e+01	0	35	104	0	60	152985
2026-01-07 17:05:08.55	221.85	15.33	-51.4	-69.3	3.5	3.02e+01	0	35	104	0	60	152182
2026-01-07 17:05:09.56	221.80	15.21	-51.4	-69.4	3.5	3.02e+01	0	35	104	0	60	152904
2026-01-07 17:05:10.57	221.75	15.09	-51.4	-69.3	3.5	3.02e+01	0	35	104	0	60	152083
2026-01-07 17:05:11.58	221.70	14.98	-51.4	-69.4	3.5	3.02e+01	0	35	104	0	60	152830
2026-01-07 17:05:12.59	221.65	14.86	-51.4	-69.3	3.5	3.02e+01	0	35	104	0	60	152117
2026-01-07 17:05:13.61	221.60	14.75	-51.4	-69.4	3.5	3.02e+01	0	35	104	0	60	153076
2026-01-07 17:05:14.62	221.55	14.63	-51.4	-69.4	3.5	3.02e+01	0	35	104	0	60	152608
2026-01-07 17:05:15.63	221.50	14.52	-51.4	-69.3	3.5	3.02e+01	0	35	104	0	60	152160
2026-01-07 17:05:16.64	221.45	14.40	-51.4	-69.4	3.5	3.02e+01	0	35	104	0	60	153311
2026-01-07 17:05:17.65	221.40	14.29	-51.4	-69.4	3.5	3.02e+01	0	35	104	0	60	153367
2026-01-07 17:05:18.66	221.35	14.18	-51.4	-69.3	3.5	3.02e+01	0	35	104	0	60	152236
2026-01-07 17:05:19.67	221.31	14.07	-51.4	-69.4	3.5	3.02e+01	0	35	104	0	60	152425
2026-01-07 17:05:20.68	221.26	13.96	-51.4	-69.4	3.5	3.02e+01	0	35	104	0	60	152498
2026-01-07 17:05:21.69	221.21	13.85	-51.4	-69.4	3.5	3.02e+01	0	36	104	0	60	152680
2026-01-07 17:05:22.70	221.17	13.74	-51.4	-69.4	3.5	3.02e+01	0	35	104	0	60	152561
2026-01-07 17:05:23.72	221.12	13.62	-51.4	-69.4	3.5	3.02e+01	0	36	104	0	60	152761
2026-01-07 17:05:24.73	221.07	13.52	-51.4	-69.4	3.5	3.02e+01	0	35	104	0	60	152813
2026-01-07 17:05:25.74	221.03	13.41	-51.4	-69.3	3.5	3.02e+01	0	35	104	0	60	151935
2026-01-07 17:05:26.75	220.98	13.30	-51.4	-69.4	3.5	3.02e+01	0	36	104	0	60	152373
2026-01-07 17:05:27.76	220.94	13.19	-51.4	-69.4	3.5	3.02e+01	0	36	104	0	60	153389
2026-01-07 17:05:28.77	220.89	13.08	-51.4	-69.3	3.5	3.02e+01	0	36	104	0	60	152257
2026-01-07 17:05:29.78	220.85	12.98	-51.4	-69.4	3.5	3.02e+01	0	35	104	0	60	152948
2026-01-07 17:05:30.79	220.81	12.87	-51.4	-69.4	3.5	3.02e+01	0	36	104	0	60	152478
2026-01-07 17:05:31.80	220.76	12.77	-51.4	-69.3	3.5	3.02e+01	0	36	104	0	60	152293
2026-01-07 17:05:32.81	220.72	12.66	-51.4	-69.4	3.5	3.02e+01	0	35	104	0	60	152825
2026-01-07 17:05:33.82	220.68	12.56	-51.4	-69.3	3.5	3.02e+01	0	35	104	0	60	152128
2026-01-07 17:05:34.83	220.64	12.45	-51.4	-69.3	3.5	3.02e+01	0	36	104	0	60	152326
2026-01-07 17:05:35.84	220.59	12.35	-51.4	-69.3	3.5	3.02e+01	0	35	104	0	60	152212
2026-01-07 17:05:36.85	220.55	12.25	-51.4	-69.4	3.5	3.02e+01	0	35	104	0	60	153566
2026-01-07 17:05:37.87	220.51	12.14	-51.4	-69.4	3.5	3.02e+01	0	35	104	0	60	152583
2026-01-07 17:05:38.88	220.47	12.04	-51.4	-69.4	3.5	3.02e+01	0	35	104	0	60	152564
2026-01-07 17:05:39.89	220.43	11.94	-51.4	-69.4	3.5	3.02e+01	0	35	104	0	60	152905
2026-01-07 17:05:40.90	220.39	11.84	-51.4	-69.4	3.5	3.02e+01	0	36	104	0	60	152673
2026-01-07 17:05:41.91	220.35	11.74	-51.4	-69.4	3.5	3.02e+01	0	36	104	0	60	152362
2026-01-07 17:05:42.92	220.31	11.64	-51.4	-69.4	3.5	3.02e+01	0	36	104	0	60	152446
2026-01-07 17:05:43.93	220.27	11.54	-51.4	-69.4	3.6	3.02e+01	0	35	104	0	60	153275
2026-01-07 17:05:44.94	220.23	11.44	-51.4	-69.3	3.5	3.02e+01	0	35	104	0	60	151998
2026-01-07 17:05:45.95	220.20	11.34	-51.4	-69.4	3.5	3.02e+01	0	35	104	0	60	152566
2026-01-07 17:05:46.96	220.16	11.24	-51.4	-69.4	3.5	3.02e+01	0	35	104	0	60	152932
2026-01-07 17:05:47.97	220.12	11.14	-51.4	-69.4	3.5	3.02e+01	0	35	104	0	60	153029
2026-01-07 17:05:48.98	220.08	11.04	-51.4	-69.4	3.5	3.02e+01	0	36	104	0	60	152370
2026-01-07 17:05:49.99	220.04	10.95	-51.4	-69.3	3.5	3.02e+01	0	35	104	0	60	151809
2026-01-07 17:05:51.01	220.01	10.85	-51.4	-69.4	3.5	3.02e+01	0	35	104	0	60	152600
2026-01-07 17:05:52.01	219.97	10.75	-51.4	-69.4	3.5	3.02e+01	0	35	104	0	60	152835
2026-01-07 17:05:53.03	219.93	10.66	-51.4	-69.4	3.5	3.02e+01	0	36	104	0	60	152395
2026-01-07 17:05:54.04	219.90	10.56	-51.4	-69.3	3.5	3.02e+01	0	36	104	0	60	152238
2026-01-07 17:05:55.05	219.86	10.46	-51.4	-69.4	3.5	3.02e+01	0	36	104	0	60	152399
2026-01-07 17:05:56.06	219.83	10.37	-51.4	-69.4	3.5	3.02e+01	0	36	104	0	60	152915
2026-01-07 17:05:57.07	219.79	10.28	-51.4	-69.4	3.5	3.02e+01	0	36	104	0	60	153362
2026-01-07 17:05:58.08	219.75	10.18	-51.4	-69.4	3.5	3.02e+01	0	36	104	0	60	152401
2026-01-07 17:05:59.09	219.72	10.09	-51.4	-69.4	3.5	3.02e+01	0	36	104	0	60	152646
2026-01-07 17:06:00.10	219.69	9.99	-51.4	-69.4	3.5	3.02e+01	0	35	104	0	60	152627
2026-01-07 17:06:01.11	219.65	9.90	-51.4	-69.4	3.5	3.02e+01	0	36	104	0	60	152709
2026-01-07 17:06:02.12	219.62	9.81	-51.4	-69.3	3.5	3.02e+01	0	36	104	0	60	151713
2026-01-07 17:06:03.13	219.58	9.72	-51.4	-69.4	3.5	3.02e+01	0	36	104	0	60	153493
2026-01-07 17:06:04.14	219.55	9.62	-51.4	-69.4	3.5	3.02e+01	0	35	104	0	60	152510
2026-01-07 17:06:05.16	219.52	9.53	-51.4	-69.3	3.6	3.02e+01	0	35	104	0	60	152132
2026-01-07 17:06:06.16	219.48	9.44	-51.4	-69.3	3.5	3.02e+01	0	36	104	0	60	151935
2026-01-07 17:06:07.18	219.45	9.35	-51.4	-69.4	3.5	3.02e+01	0	35	104	0	60	152394
2026-01-07 17:06:08.19	219.42	9.26	-51.4	-69.3	3.5	3.02e+01	0	36	104	0	60	152057
2026-01-07 17:06:09.20	219.39	9.17	-51.4	-69.4	3.5	3.02e+01	0	36	104	0	60	153278
2026-01-07 17:06:10.21	219.35	9.08	-51.4	-69.4	3.5	3.02e+01	0	35	104	0	60	152595
2026-01-07 17:06:11.22	219.32	8.99	-51.4	-69.3	3.5	3.02e+01	0	35	104	0	60	152168
2026-01-07 17:06:12.23	219.29	8.90	-51.4	-69.4	3.5	3.02e+01	0	35	104	0	60	153132
2026-01-07 17:06:13.24	219.26	8.81	-51.4	-69.4	3.5	3.02e+01	0	35	104	0	60	152637
2026-01-07 17:06:14.25	219.23	8.72	-51.4	-69.3	3.5	3.02e+01	0	36	104	0	60	152125
2026-01-07 17:06:15.26	219.20	8.64	-51.4	-69.4	3.5	3.02e+01	0	35	104	0	60	152983
2026-01-07 17:06:16.27	219.16	8.55	-51.4	-69.4	3.5	3.02e+01	0	36	104	0	60	152838
2026-01-07 17:06:17.28	219.13	8.46	-51.4	-69.3	3.5	3.02e+01	0	36	104	0	60	151719
2026-01-07 17:06:18.30	219.10	8.37	-51.4	-69.3	3.5	3.02e+01	0	36	104	0	60	152249
2026-01-07 17:06:19.31	219.07	8.29	-51.4	-69.3	3.5	3.02e+01	0	35	104	0	60	152212
2026-01-07 17:06:20.32	219.04	8.20	-51.4	-69.4	3.5	3.02e+01	0	36	104	0	60	153078
2026-01-07 17:06:21.33	219.01	8.12	-51.4	-69.4	3.5	3.02e+01	0	35	104	0	60	153090
2026-01-07 17:06:22.34	218.98	8.03	-51.4	-69.4	3.5	3.02e+01	0	36	104	0	60	152951
2026-01-07 17:06:23.35	218.96	7.94	-51.4	-69.4	3.5	3.02e+01	0	36	104	0	60	153049
2026-01-07 17:06:24.36	218.93	7.86	-51.4	-69.4	3.5	3.02e+01	0	36	104	0	60	153263
2026-01-07 17:06:25.37	218.90	7.77	-51.4	-69.3	3.5	3.02e+01	0	36	104	0	60	152212
2026-01-07 17:06:26.38	218.87	7.69	-51.4	-69.3	3.5	3.02e+01	0	36	104	0	60	152052
2026-01-07 17:06:27.40	218.84	7.60	-51.4	-69.4	3.5	3.02e+01	0	36	104	0	60	152527
2026-01-07 17:06:28.41	218.81	7.52	-51.4	-69.4	3.5	3.02e+01	0	36	104	0	60	153302
2026-01-07 17:06:29.42	218.78	7.44	-51.4	-69.4	3.5	3.02e+01	0	36	104	0	60	153860
2026-01-07 17:06:30.43	218.76	7.35	-51.4	-69.4	3.5	3.02e+01	0	35	104	0	60	152504
2026-01-07 17:06:31.44	218.73	7.27	-51.4	-69.4	3.5	3.02e+01	0	35	104	0	60	152621
2026-01-07 17:06:32.45	218.70	7.19	-51.4	-69.3	3.5	3.02e+01	0	35	104	0	60	152138
2026-01-07 17:06:33.46	218.67	7.11	-51.4	-69.4	3.5	3.02e+01	0	36	104	0	60	152780
2026-01-07 17:06:34.47	218.65	7.02	-51.4	-69.4	3.5	3.02e+01	0	36	104	0	60	153090
2026-01-07 17:06:35.48	218.62	6.94	-51.4	-69.4	3.5	3.02e+01	0	35	104	0	60	152445
2026-01-07 17:06:36.49	218.59	6.86	-51.4	-69.4	3.5	3.02e+01	0	35	104	0	60	153102
2026-01-07 17:06:37.50	218.57	6.78	-51.4	-69.4	3.5	3.02e+01	0	36	104	0	60	152335
2026-01-07 17:06:38.52	218.54	6.70	-51.4	-69.4	3.5	3.02e+01	0	36	104	0	60	153184
2026-01-07 17:06:39.53	218.51	6.62	-51.4	-69.3	3.5	3.02e+01	0	36	104	0	60	152318
2026-01-07 17:06:40.54	218.49	6.54	-51.4	-69.3	3.5	3.02e+01	0	36	104	0	60	151926
2026-01-07 17:06:41.55	218.46	6.46	-51.4	-69.4	3.5	3.02e+01	0	36	104	0	60	153028
2026-01-07 17:06:42.56	218.44	6.38	-51.4	-69.4	3.5	3.02e+01	0	35	104	0	60	152628
2026-01-07 17:06:43.57	218.41	6.30	-51.4	-69.4	3.5	3.02e+01	0	36	104	0	60	152380
2026-01-07 17:06:44.58	218.38	6.22	-51.4	-69.3	3.5	3.02e+01	0	36	104	0	60	152154
2026-01-07 17:06:45.59	218.36	6.14	-51.4	-69.4	3.5	3.02e+01	0	36	104	0	60	152975
2026-01-07 17:06:46.60	218.33	6.06	-51.4	-69.3	3.5	3.02e+01	0	35	104	0	60	152238
2026-01-07 17:06:47.61	218.31	5.98	-51.4	-69.4	3.5	3.02e+01	0	36	104	0	60	153561
2026-01-07 17:06:48.62	218.28	5.90	-51.4	-69.4	3.5	3.02e+01	0	36	104	0	60	152431
2026-01-07 17:06:49.64	218.26	5.82	-51.4	-69.4	3.5	3.02e+01	0	36	104	0	60	152990
