passes_logs/2026/01/07/R4.6S_Anadyr_2ch/R4.6S_Anadyr_2ch__20260107_033307_AQUA_rec.log

#Pass ID: 20260107_033307_AQUA
#Satellite: AQUA
#Configuration: AQUA
#almurnet v.1.7.20251203
#Start time: 2026-01-07 03:33:09

#Version: 2.2.20231116
#Station: R4.6S_Anadyr_2ch
#Location: 177.4865 lon 64.73178 lat
#TLE: 1 27424U 02022A   25351.00450321  .00000925  00000+0  19503-3 0  9992
#TLE: 2 27424  98.4041 311.9529 0001248 113.7180 322.1616 14.61819266256652

#Time	Az	El	Level	Level2	SNR	BER	BlckErr	Temp	State	Recorded	gain1	gain2
2026-01-07 03:33:09.14	200.15	0.08	-51.2	-63.1	3.5	8.46e-01	0	29	0	0	60	69332
2026-01-07 03:33:10.14	200.21	0.14	-51.4	-69.3	3.5	3.04e+01	0	30	104	0	60	151241
2026-01-07 03:33:11.15	200.28	0.20	-51.4	-69.3	3.5	3.04e+01	0	30	104	0	60	151200
2026-01-07 03:33:12.16	200.34	0.25	-51.4	-69.3	3.5	3.04e+01	0	30	104	0	60	150613
2026-01-07 03:33:13.17	200.40	0.31	-51.4	-69.3	3.5	3.04e+01	0	30	104	0	60	151518
2026-01-07 03:33:14.18	200.46	0.37	-51.4	-69.3	3.5	3.04e+01	0	30	104	0	60	151085
2026-01-07 03:33:15.18	200.52	0.42	-51.4	-69.3	3.5	3.04e+01	0	30	104	0	60	150842
2026-01-07 03:33:16.19	200.59	0.48	-51.4	-69.3	3.5	3.04e+01	0	30	104	0	60	151441
2026-01-07 03:33:17.21	200.65	0.54	-51.4	-69.3	3.5	3.04e+01	0	30	104	0	60	151047
2026-01-07 03:33:18.21	200.71	0.60	-51.4	-69.3	3.5	3.04e+01	0	30	104	0	60	151056
2026-01-07 03:33:19.22	200.78	0.65	-51.4	-69.3	3.5	3.04e+01	0	30	104	0	60	151252
2026-01-07 03:33:20.23	200.84	0.71	-51.4	-69.2	3.5	3.04e+01	0	30	104	0	60	150349
2026-01-07 03:33:21.24	200.90	0.77	-51.4	-69.3	3.5	3.04e+01	0	30	104	0	60	150832
2026-01-07 03:33:22.24	200.97	0.83	-51.4	-69.3	3.5	3.04e+01	0	30	104	0	60	151844
2026-01-07 03:33:23.25	201.03	0.88	-51.4	-69.3	3.5	3.04e+01	0	30	104	0	60	151472
2026-01-07 03:33:24.26	201.10	0.94	-51.4	-69.3	3.5	3.04e+01	0	30	104	0	60	151246
2026-01-07 03:33:25.27	201.16	1.00	-51.4	-69.3	3.5	3.04e+01	0	30	104	0	60	151518
2026-01-07 03:33:26.27	201.23	1.06	-51.4	-69.3	3.5	3.04e+01	0	30	104	0	60	151235
2026-01-07 03:33:27.28	201.29	1.12	-51.4	-69.3	3.5	3.04e+01	0	30	104	0	60	151589
2026-01-07 03:33:28.28	201.36	1.18	-51.4	-69.3	3.5	3.04e+01	0	30	104	0	60	151122
2026-01-07 03:33:29.29	201.42	1.23	-51.4	-69.3	3.5	3.04e+01	0	30	104	0	60	150635
2026-01-07 03:33:30.29	201.49	1.29	-51.4	-69.3	3.5	3.04e+01	0	30	104	0	60	151064
2026-01-07 03:33:31.30	201.55	1.35	-51.4	-69.3	3.5	3.04e+01	0	30	104	0	60	150880
2026-01-07 03:33:32.31	201.62	1.41	-51.4	-69.3	3.5	3.04e+01	0	30	104	0	60	150706
2026-01-07 03:33:33.32	201.69	1.47	-51.4	-69.3	3.5	3.04e+01	0	30	104	0	60	151124
2026-01-07 03:33:34.32	201.75	1.53	-51.4	-69.3	3.5	3.04e+01	0	30	104	0	60	151252
2026-01-07 03:33:35.33	201.82	1.59	-51.4	-69.3	3.5	3.04e+01	0	30	104	0	60	151337
2026-01-07 03:33:36.34	201.89	1.65	-51.4	-69.3	3.5	3.04e+01	0	30	104	0	60	151193
2026-01-07 03:33:37.35	201.96	1.71	-51.4	-69.3	3.5	3.04e+01	0	30	104	0	60	151275
2026-01-07 03:33:38.36	202.03	1.77	-51.4	-69.3	3.5	3.04e+01	0	30	104	0	60	151565
2026-01-07 03:33:39.36	202.10	1.83	-51.4	-69.3	3.5	3.04e+01	0	31	104	0	60	151186
2026-01-07 03:33:40.37	202.16	1.89	-51.4	-69.3	3.5	3.04e+01	0	31	104	0	60	151501
2026-01-07 03:33:41.38	202.23	1.95	-51.4	-69.3	3.5	3.04e+01	0	30	104	0	60	151339
2026-01-07 03:33:42.39	202.30	2.01	-51.4	-69.3	3.5	3.04e+01	0	31	104	0	60	150689
2026-01-07 03:33:43.40	202.37	2.07	-51.4	-69.3	3.5	3.04e+01	0	31	104	0	60	150789
2026-01-07 03:33:44.40	202.44	2.13	-51.4	-69.3	3.5	3.04e+01	0	31	104	0	60	151645
2026-01-07 03:33:45.41	202.51	2.19	-51.4	-69.3	3.5	3.04e+01	0	31	104	0	60	151910
2026-01-07 03:33:46.42	202.58	2.25	-51.4	-69.3	3.5	3.04e+01	0	31	104	0	60	151685
2026-01-07 03:33:47.43	202.66	2.31	-51.4	-69.2	3.5	3.04e+01	0	31	104	0	60	150083
2026-01-07 03:33:48.44	202.73	2.37	-51.4	-69.3	3.5	3.04e+01	0	31	104	0	60	150766
2026-01-07 03:33:49.44	202.80	2.43	-51.4	-69.3	3.5	3.04e+01	0	31	104	0	60	151096
2026-01-07 03:33:50.45	202.87	2.49	-51.5	-69.3	3.5	3.04e+01	0	31	104	0	60	151734
2026-01-07 03:33:51.46	202.94	2.55	-51.4	-69.3	3.5	3.04e+01	0	31	104	0	60	151102
2026-01-07 03:33:52.47	203.02	2.61	-51.4	-69.3	3.5	3.04e+01	0	31	104	0	60	150995
2026-01-07 03:33:53.48	203.09	2.67	-51.4	-69.3	3.5	3.04e+01	0	31	104	0	60	151101
2026-01-07 03:33:54.48	203.16	2.73	-51.4	-69.2	3.5	3.04e+01	0	31	104	0	60	150414
2026-01-07 03:33:55.49	203.24	2.80	-51.4	-69.3	3.5	3.04e+01	0	31	104	0	60	151388
2026-01-07 03:33:56.50	203.31	2.86	-51.4	-69.3	3.5	3.04e+01	0	31	104	0	60	150942
2026-01-07 03:33:57.51	203.38	2.92	-51.4	-69.3	3.5	3.04e+01	0	31	104	0	60	151364
2026-01-07 03:33:58.52	203.46	2.98	-51.4	-69.2	3.5	3.04e+01	0	31	104	0	60	150107
2026-01-07 03:33:59.53	203.53	3.04	-51.4	-69.3	3.5	3.04e+01	0	31	104	0	60	150813
2026-01-07 03:34:00.54	203.61	3.10	-51.4	-69.2	3.5	3.04e+01	0	31	104	0	60	150458
2026-01-07 03:34:01.54	203.68	3.17	-51.4	-69.2	3.5	3.04e+01	0	31	104	0	60	150538
2026-01-07 03:34:02.55	203.76	3.23	-51.4	-69.3	3.5	3.04e+01	0	31	104	0	60	151289
2026-01-07 03:34:03.56	203.84	3.29	-51.4	-69.3	3.5	3.04e+01	0	31	104	0	60	150755
2026-01-07 03:34:04.56	203.91	3.35	-51.4	-69.3	3.5	3.04e+01	0	31	104	0	60	151168
2026-01-07 03:34:05.57	203.99	3.42	-51.4	-69.3	3.5	3.04e+01	0	31	104	0	60	151265
2026-01-07 03:34:06.58	204.07	3.48	-51.4	-69.3	3.5	3.04e+01	0	31	104	0	60	151077
2026-01-07 03:34:07.59	204.14	3.54	-51.5	-69.4	3.5	3.04e+01	0	31	104	0	60	152674
2026-01-07 03:34:08.60	204.22	3.61	-51.4	-69.5	3.5	3.04e+01	0	31	104	0	60	154704
2026-01-07 03:34:09.61	204.30	3.67	-51.5	-69.5	3.5	3.04e+01	0	31	104	0	60	155282
2026-01-07 03:34:10.62	204.38	3.73	-51.6	-69.5	3.5	3.04e+01	0	31	104	0	60	154844
2026-01-07 03:34:11.63	204.46	3.80	-51.6	-69.5	3.5	3.04e+01	0	31	104	0	60	154458
2026-01-07 03:34:12.64	204.54	3.86	-51.6	-69.5	3.5	3.04e+01	0	31	104	0	60	155155
2026-01-07 03:34:13.65	204.62	3.92	-51.6	-69.5	3.5	3.04e+01	0	31	104	0	60	155272
2026-01-07 03:34:14.65	204.70	3.99	-51.7	-69.5	3.5	3.04e+01	0	31	104	0	60	155453
2026-01-07 03:34:15.66	204.78	4.05	-51.6	-69.5	3.5	3.04e+01	0	31	104	0	60	154891
2026-01-07 03:34:16.67	204.86	4.11	-51.6	-69.5	3.5	3.04e+01	0	31	104	0	60	154165
2026-01-07 03:34:17.68	204.94	4.18	-51.6	-69.5	3.5	3.04e+01	0	31	104	0	60	154503
2026-01-07 03:34:18.69	205.02	4.24	-51.5	-69.3	3.5	3.04e+01	0	31	104	0	60	151287
2026-01-07 03:34:19.69	205.10	4.31	-51.4	-69.2	3.5	3.04e+01	0	31	104	0	60	150271
2026-01-07 03:34:20.70	205.19	4.37	-51.3	-69.1	3.5	3.04e+01	0	31	104	0	60	148590
2026-01-07 03:34:21.71	205.27	4.44	-51.2	-69.0	3.5	3.04e+01	0	31	104	0	60	146440
2026-01-07 03:34:22.72	205.35	4.50	-50.9	-68.7	3.5	3.04e+01	0	31	104	0	60	141776
2026-01-07 03:34:23.73	205.43	4.57	-50.5	-68.0	3.5	3.04e+01	0	31	104	0	60	129697
2026-01-07 03:34:24.74	205.52	4.63	-50.4	-68.1	3.5	3.04e+01	0	31	104	0	60	131873
2026-01-07 03:34:25.74	205.60	4.70	-50.4	-68.1	3.5	3.04e+01	0	31	104	0	60	132077
2026-01-07 03:34:26.75	205.69	4.76	-50.3	-67.9	3.5	3.04e+01	0	31	104	0	60	129325
2026-01-07 03:34:27.76	205.77	4.83	-50.4	-67.9	3.5	3.04e+01	0	31	104	0	60	129230
2026-01-07 03:34:28.77	205.86	4.89	-50.4	-67.9	3.5	3.04e+01	0	31	104	0	60	129063
2026-01-07 03:34:29.77	205.94	4.96	-50.4	-68.0	3.5	3.04e+01	0	31	104	0	60	131052
2026-01-07 03:34:30.78	206.03	5.02	-50.4	-68.1	3.5	3.04e+01	0	31	104	0	60	132005
2026-01-07 03:34:31.79	206.12	5.09	-50.4	-67.9	3.5	3.04e+01	0	31	104	0	60	128234
2026-01-07 03:34:32.80	206.20	5.15	-50.4	-67.8	3.5	3.04e+01	0	31	104	0	60	127777
2026-01-07 03:34:33.81	206.29	5.22	-50.4	-67.8	3.5	3.04e+01	0	31	104	0	60	126885
2026-01-07 03:34:34.82	206.38	5.29	-50.4	-67.8	3.5	3.04e+01	0	31	104	0	60	127901
2026-01-07 03:34:35.83	206.47	5.35	-50.4	-68.0	3.5	3.04e+01	0	31	104	0	60	130298
2026-01-07 03:34:36.84	206.56	5.42	-50.4	-68.1	3.5	3.04e+01	0	31	104	0	60	132485
2026-01-07 03:34:37.85	206.64	5.49	-50.4	-68.2	3.5	3.04e+01	0	31	104	0	60	133763
2026-01-07 03:34:38.85	206.73	5.55	-50.4	-68.2	3.5	3.04e+01	0	31	104	0	60	132946
2026-01-07 03:34:39.86	206.82	5.62	-50.4	-68.2	3.5	3.04e+01	0	31	104	0	60	133403
2026-01-07 03:34:40.87	206.91	5.69	-50.4	-68.2	3.5	3.04e+01	0	31	104	0	60	133318
2026-01-07 03:34:41.88	207.01	5.76	-50.4	-68.2	3.5	3.04e+01	0	31	104	0	60	133814
2026-01-07 03:34:42.89	207.10	5.82	-50.4	-68.1	3.5	3.04e+01	0	31	104	0	60	132542
2026-01-07 03:34:43.90	207.19	5.89	-50.4	-68.0	3.5	3.04e+01	0	31	104	0	60	130143
2026-01-07 03:34:44.91	207.28	5.96	-50.4	-67.9	3.5	3.04e+01	0	31	104	0	60	129467
2026-01-07 03:34:45.92	207.37	6.03	-50.4	-67.8	3.5	3.04e+01	0	31	104	0	60	128098
2026-01-07 03:34:46.92	207.47	6.09	-50.4	-68.0	3.5	3.04e+01	0	31	104	0	60	130413
2026-01-07 03:34:47.93	207.56	6.16	-50.4	-67.9	3.5	3.04e+01	0	31	104	0	60	128914
2026-01-07 03:34:48.94	207.65	6.23	-50.4	-67.7	3.5	3.04e+01	0	31	104	0	60	126081
2026-01-07 03:34:49.95	207.75	6.30	-50.4	-67.6	3.6	3.04e+01	0	31	104	0	60	124457
2026-01-07 03:34:50.96	207.84	6.37	-50.4	-67.9	3.5	3.04e+01	0	31	104	0	60	129357
2026-01-07 03:34:51.96	207.94	6.44	-50.4	-68.2	3.5	3.04e+01	0	31	104	0	60	133767
2026-01-07 03:34:52.97	208.03	6.51	-50.3	-67.1	3.5	3.04e+01	0	31	104	0	60	117663
2026-01-07 03:34:53.98	208.13	6.57	-50.2	-64.6	3.7	3.04e+01	0	31	104	0	60	87995
2026-01-07 03:34:54.99	208.23	6.64	-50.1	-62.3	5.4	3.04e+01	7	31	0	0	60	67820
2026-01-07 03:34:56.00	208.32	6.71	-50.1	-61.1	5.6	3.04e+01	44	31	102	524288	60	58924
2026-01-07 03:34:57.00	208.42	6.78	-50.2	-64.4	4.2	3.04e+01	0	31	104	524288	60	86522
2026-01-07 03:34:58.01	208.52	6.85	-50.3	-66.4	3.5	3.04e+01	0	31	104	524288	60	108031
2026-01-07 03:34:59.02	208.62	6.92	-49.8	-59.3	8.3	3.04e+01	0	31	104	524288	60	48131
2026-01-07 03:35:00.03	208.72	6.99	-48.4	-53.5	14.6	3.04e+01	90	31	0	524288	60	24595
2026-01-07 03:35:01.04	208.82	7.06	-46.5	-49.7	18.4	3.04e+01	90	31	0	524288	60	15909
2026-01-07 03:35:02.05	208.92	7.13	-44.8	-47.1	20.8	3.04e+01	91	31	0	524288	60	11782
2026-01-07 03:35:03.06	209.02	7.20	-43.6	-45.6	22.2	3.04e+01	91	31	0	524288	60	9930
2026-01-07 03:35:04.06	209.12	7.27	-42.9	-44.7	23.0	3.04e+01	86	31	0	524288	60	8934
2026-01-07 03:35:05.07	209.22	7.34	-43.3	-45.2	22.5	3.04e+01	92	31	0	524288	60	9403
2026-01-07 03:35:06.08	209.32	7.41	-45.1	-47.5	20.5	3.04e+01	92	31	0	524288	60	12320
2026-01-07 03:35:07.09	209.43	7.48	-50.0	-62.4	3.8	3.04e+01	0	31	104	524288	60	68630
2026-01-07 03:35:08.09	209.53	7.55	-43.3	-45.2	22.7	3.04e+01	92	31	0	524288	60	9415
2026-01-07 03:35:09.10	209.63	7.63	-48.8	-54.0	15.2	3.04e+01	92	31	0	524288	60	26061
2026-01-07 03:35:10.11	209.74	7.70	-46.5	-49.6	18.3	3.04e+01	86	31	0	524288	60	15599
2026-01-07 03:35:11.12	209.84	7.77	-42.7	-44.5	23.4	3.04e+01	92	31	0	524288	60	8698
2026-01-07 03:35:12.13	209.95	7.84	-43.1	-44.9	22.8	3.04e+01	92	31	0	524288	60	9167
2026-01-07 03:35:13.14	210.05	7.91	-42.9	-44.7	23.2	3.04e+01	91	31	0	524288	60	8894
2026-01-07 03:35:14.15	210.16	7.98	-42.5	-44.2	23.7	3.04e+01	92	31	0	524288	60	8380
2026-01-07 03:35:15.16	210.27	8.06	-41.7	-43.2	24.5	3.04e+01	92	31	0	524288	60	7538
2026-01-07 03:35:16.17	210.38	8.13	-41.6	-43.2	24.5	3.04e+01	92	31	0	524288	60	7516
2026-01-07 03:35:17.18	210.48	8.20	-41.7	-43.3	24.6	3.04e+01	90	31	101	524288	60	7579
2026-01-07 03:35:18.19	210.59	8.27	-42.0	-43.7	24.5	3.04e+01	92	31	101	524288	60	7903
2026-01-07 03:35:19.20	210.70	8.35	-42.0	-43.6	24.4	3.04e+01	90	31	101	524288	60	7837
2026-01-07 03:35:20.21	210.81	8.42	-41.2	-42.7	25.2	3.04e+01	92	31	101	524288	60	7109
2026-01-07 03:35:21.23	210.92	8.49	-40.9	-42.4	25.5	3.04e+01	90	31	101	524288	60	6833
2026-01-07 03:35:22.24	211.04	8.57	-40.9	-42.3	25.5	3.04e+01	92	31	101	524288	60	6803
2026-01-07 03:35:23.25	211.15	8.64	-40.3	-41.7	26.1	3.04e+01	92	31	101	524288	60	6333
2026-01-07 03:35:24.26	211.26	8.71	-40.4	-41.9	26.0	3.04e+01	92	31	101	524288	60	6455
2026-01-07 03:35:25.27	211.37	8.79	-40.5	-41.9	25.9	3.04e+01	90	31	101	524288	60	6491
2026-01-07 03:35:26.28	211.49	8.86	-40.5	-42.0	25.9	3.04e+01	90	31	101	524288	60	6520
2026-01-07 03:35:27.29	211.60	8.94	-40.5	-41.9	26.0	3.04e+01	92	31	101	524288	60	6458
2026-01-07 03:35:28.30	211.72	9.01	-40.4	-41.9	26.1	3.04e+01	90	31	101	524288	60	6443
2026-01-07 03:35:29.31	211.83	9.08	-40.4	-41.8	26.1	3.04e+01	86	31	101	524288	60	6385
2026-01-07 03:35:30.32	211.95	9.16	-40.4	-41.8	26.0	3.04e+01	92	31	101	524288	60	6395
2026-01-07 03:35:31.33	212.06	9.23	-40.3	-41.7	26.2	3.04e+01	92	31	101	524288	60	6300
2026-01-07 03:35:32.35	212.18	9.31	-40.4	-41.8	26.1	3.04e+01	90	31	101	524288	60	6370
2026-01-07 03:35:33.36	212.30	9.38	-40.3	-41.7	26.1	3.04e+01	90	31	101	524288	60	6348
2026-01-07 03:35:34.37	212.42	9.46	-40.3	-41.7	26.2	3.04e+01	92	31	101	524288	60	6286
2026-01-07 03:35:35.38	212.54	9.53	-40.2	-41.6	26.4	3.04e+01	92	31	101	524288	60	6216
2026-01-07 03:35:36.39	212.66	9.61	-40.2	-41.6	26.3	3.04e+01	92	31	101	524288	60	6215
2026-01-07 03:35:37.40	212.78	9.68	-40.2	-41.6	26.3	3.04e+01	92	31	101	524288	60	6257
2026-01-07 03:35:38.41	212.90	9.76	-40.2	-41.6	26.4	3.04e+01	92	31	101	524288	60	6229
2026-01-07 03:35:39.42	213.02	9.84	-39.9	-41.2	26.7	3.04e+01	91	31	101	524288	60	5984
2026-01-07 03:35:40.43	213.14	9.91	-39.8	-41.2	26.7	3.04e+01	92	31	101	524288	60	5966
2026-01-07 03:35:41.44	213.27	9.99	-39.8	-41.2	26.7	3.04e+01	92	31	101	524288	60	5951
2026-01-07 03:35:42.45	213.39	10.06	-39.9	-41.2	26.7	3.04e+01	91	31	101	524288	60	5971
2026-01-07 03:35:43.46	213.51	10.14	-39.9	-41.3	26.7	3.04e+01	92	31	101	524288	60	6032
2026-01-07 03:35:44.47	213.64	10.22	-40.0	-41.4	26.6	3.04e+01	92	31	101	524288	60	6078
2026-01-07 03:35:45.48	213.77	10.29	-39.8	-41.2	26.8	3.04e+01	90	31	101	524288	60	5952
2026-01-07 03:35:46.49	213.89	10.37	-39.9	-41.3	26.6	3.04e+01	92	31	101	524288	60	6020
2026-01-07 03:35:47.50	214.02	10.45	-39.8	-41.2	26.9	3.04e+01	92	31	101	524288	60	5932
2026-01-07 03:35:48.51	214.15	10.53	-39.9	-41.2	26.7	3.04e+01	92	31	101	524288	60	5990
2026-01-07 03:35:49.52	214.28	10.60	-39.8	-41.2	26.8	3.04e+01	92	31	101	524288	60	5952
2026-01-07 03:35:50.53	214.40	10.68	-39.6	-40.9	27.0	3.04e+01	92	31	101	524288	60	5772
2026-01-07 03:35:51.54	214.53	10.76	-39.7	-41.0	26.9	3.04e+01	92	31	101	524288	60	5835
2026-01-07 03:35:52.55	214.67	10.84	-39.6	-41.0	27.0	3.04e+01	93	31	101	524288	60	5794
2026-01-07 03:35:53.56	214.80	10.91	-39.6	-40.9	27.1	3.04e+01	88	31	101	524288	60	5763
2026-01-07 03:35:54.58	214.93	10.99	-39.5	-40.9	27.2	3.04e+01	92	31	101	524288	60	5726
2026-01-07 03:35:55.59	215.06	11.07	-39.5	-40.9	27.1	3.04e+01	91	31	101	524288	60	5753
2026-01-07 03:35:56.60	215.20	11.15	-39.5	-40.8	27.1	3.04e+01	91	31	101	524288	60	5724
2026-01-07 03:35:57.61	215.33	11.23	-39.5	-40.9	27.1	3.04e+01	91	31	101	524288	60	5740
2026-01-07 03:35:58.62	215.47	11.31	-39.6	-40.9	27.1	3.04e+01	90	31	101	524288	60	5762
2026-01-07 03:35:59.63	215.60	11.39	-39.5	-40.8	27.2	3.04e+01	91	31	101	524288	60	5710
2026-01-07 03:36:00.64	215.74	11.46	-39.5	-40.9	27.2	3.04e+01	92	31	101	524288	60	5735
2026-01-07 03:36:01.65	215.88	11.54	-39.5	-40.8	27.1	3.04e+01	95	31	101	524288	60	5717
2026-01-07 03:36:02.66	216.01	11.62	-39.4	-40.8	27.3	3.04e+01	92	31	101	524288	60	5681
2026-01-07 03:36:03.67	216.15	11.70	-39.5	-40.8	27.3	3.04e+01	92	31	101	524288	60	5707
2026-01-07 03:36:04.68	216.29	11.78	-39.5	-40.8	27.2	3.04e+01	90	31	101	524288	60	5686
2026-01-07 03:36:05.69	216.43	11.86	-39.4	-40.7	27.4	3.04e+01	92	31	101	524288	60	5627
2026-01-07 03:36:06.70	216.58	11.94	-39.3	-40.6	27.4	3.04e+01	90	31	101	524288	58	6235
2026-01-07 03:36:07.71	216.72	12.02	-39.4	-40.7	27.2	3.04e+01	88	31	101	524288	58	6318
2026-01-07 03:36:08.73	216.86	12.10	-39.3	-40.6	27.4	3.04e+01	90	31	101	524288	58	6247
2026-01-07 03:36:09.73	217.00	12.18	-39.2	-40.5	27.5	3.04e+01	90	31	101	524288	58	6196
2026-01-07 03:36:10.75	217.15	12.26	-39.3	-40.7	27.4	3.04e+01	92	31	101	524288	58	6288
2026-01-07 03:36:11.76	217.30	12.34	-39.3	-40.6	27.4	3.04e+01	92	31	101	524288	58	6265
2026-01-07 03:36:12.77	217.44	12.42	-39.3	-40.6	27.4	3.04e+01	92	31	101	524288	58	6234
2026-01-07 03:36:13.78	217.59	12.51	-39.3	-40.6	27.5	3.04e+01	92	31	101	524288	58	6239
2026-01-07 03:36:14.79	217.74	12.59	-39.0	-40.3	27.7	3.04e+01	91	31	101	524288	58	6055
2026-01-07 03:36:15.80	217.89	12.67	-39.1	-40.4	27.6	3.04e+01	92	31	101	524288	58	6086
2026-01-07 03:36:16.81	218.04	12.75	-38.9	-40.2	27.8	3.04e+01	92	31	101	524288	58	5956
2026-01-07 03:36:17.82	218.19	12.83	-38.9	-40.2	27.8	3.04e+01	90	31	101	524288	58	5986
2026-01-07 03:36:18.83	218.34	12.91	-39.0	-40.3	27.7	3.04e+01	92	31	101	524288	58	6028
2026-01-07 03:36:19.84	218.49	12.99	-39.0	-40.3	27.7	3.04e+01	92	31	101	524288	58	6032
2026-01-07 03:36:20.85	218.64	13.07	-39.0	-40.3	27.7	3.04e+01	92	31	101	524288	58	6057
2026-01-07 03:36:21.86	218.80	13.16	-39.0	-40.3	27.7	3.04e+01	92	31	101	524288	58	6046
2026-01-07 03:36:22.87	218.95	13.24	-39.0	-40.3	27.8	3.04e+01	92	31	101	524288	58	6031
2026-01-07 03:36:23.88	219.11	13.32	-38.9	-40.2	27.8	3.04e+01	92	31	101	524288	58	5972
2026-01-07 03:36:24.89	219.26	13.40	-38.9	-40.2	27.8	3.04e+01	92	31	101	524288	58	5985
2026-01-07 03:36:25.90	219.42	13.49	-39.0	-40.3	27.7	3.04e+01	92	31	101	524288	58	6005
2026-01-07 03:36:26.91	219.58	13.57	-38.8	-40.1	27.9	3.04e+01	91	31	101	524288	58	5887
2026-01-07 03:36:27.92	219.74	13.65	-38.9	-40.2	27.9	3.04e+01	92	31	101	524288	58	5937
2026-01-07 03:36:28.93	219.90	13.73	-39.0	-40.3	27.8	3.04e+01	92	31	101	524288	58	6006
2026-01-07 03:36:29.94	220.06	13.82	-38.8	-40.1	27.9	3.04e+01	91	31	101	524288	58	5886
2026-01-07 03:36:30.95	220.22	13.90	-38.8	-40.1	28.0	3.04e+01	91	31	101	524288	58	5912
2026-01-07 03:36:31.96	220.39	13.98	-38.8	-40.1	27.9	3.04e+01	90	31	101	524288	58	5921
2026-01-07 03:36:32.98	220.55	14.07	-38.9	-40.2	28.0	3.04e+01	88	31	101	524288	58	5933
2026-01-07 03:36:33.99	220.72	14.15	-38.9	-40.2	27.9	3.04e+01	92	31	101	524288	58	5942
2026-01-07 03:36:35.00	220.88	14.23	-38.6	-39.9	28.1	3.04e+01	89	31	101	524288	58	5761
2026-01-07 03:36:36.01	221.05	14.32	-38.6	-39.9	28.1	3.04e+01	90	31	101	524288	58	5749
2026-01-07 03:36:37.02	221.22	14.40	-38.6	-39.9	28.2	3.04e+01	91	31	101	524288	58	5733
2026-01-07 03:36:38.03	221.39	14.48	-38.6	-39.9	28.2	3.04e+01	91	31	101	524288	58	5760
2026-01-07 03:36:39.04	221.56	14.57	-38.6	-39.9	28.2	3.04e+01	91	31	101	524288	58	5727
2026-01-07 03:36:40.05	221.73	14.65	-38.7	-40.0	28.1	3.04e+01	88	31	101	524288	58	5821
2026-01-07 03:36:41.06	221.90	14.74	-38.6	-39.9	28.2	3.04e+01	91	31	101	524288	58	5736
2026-01-07 03:36:42.07	222.07	14.82	-38.6	-39.9	28.2	3.04e+01	91	31	101	524288	58	5773
2026-01-07 03:36:43.08	222.25	14.90	-38.7	-39.9	28.2	3.04e+01	92	31	101	524288	58	5769
2026-01-07 03:36:44.09	222.42	14.99	-38.6	-39.9	28.1	3.04e+01	92	31	101	524288	58	5762
2026-01-07 03:36:45.11	222.60	15.07	-38.6	-39.9	28.2	3.04e+01	91	31	101	524288	58	5765
2026-01-07 03:36:46.12	222.78	15.16	-38.5	-39.7	28.3	3.04e+01	87	31	101	524288	58	5636
2026-01-07 03:36:47.13	222.96	15.24	-38.6	-39.8	28.2	3.04e+01	91	31	101	524288	58	5709
2026-01-07 03:36:48.14	223.14	15.33	-38.4	-39.6	28.4	3.04e+01	91	31	101	524288	58	5588
2026-01-07 03:36:49.15	223.32	15.41	-38.4	-39.7	28.4	3.04e+01	94	31	101	524288	58	5612
2026-01-07 03:36:50.16	223.50	15.50	-38.5	-39.7	28.3	3.04e+01	92	31	101	524288	58	5636
2026-01-07 03:36:51.17	223.68	15.58	-38.4	-39.7	28.4	3.04e+01	92	31	101	524288	56	6284
2026-01-07 03:36:52.18	223.86	15.67	-38.4	-39.7	28.5	3.04e+01	92	31	101	524288	56	6303
2026-01-07 03:36:53.19	224.05	15.75	-38.4	-39.7	28.4	3.04e+01	90	31	101	524288	56	6303
2026-01-07 03:36:54.20	224.23	15.84	-38.4	-39.7	28.4	3.04e+01	92	31	101	524288	56	6303
2026-01-07 03:36:55.22	224.42	15.92	-38.5	-39.8	28.3	3.04e+01	90	31	101	524288	56	6364
2026-01-07 03:36:56.23	224.61	16.01	-38.5	-39.8	28.3	3.04e+01	92	31	101	524288	56	6394
2026-01-07 03:36:57.24	224.80	16.09	-38.5	-39.7	28.4	3.04e+01	90	31	101	524288	56	6303
2026-01-07 03:36:58.25	224.99	16.18	-38.5	-39.7	28.4	3.04e+01	92	31	101	524288	56	6327
2026-01-07 03:36:59.26	225.18	16.26	-38.5	-39.7	28.4	3.04e+01	90	31	101	524288	56	6335
2026-01-07 03:37:00.27	225.37	16.35	-38.4	-39.6	28.5	3.04e+01	92	31	101	524288	56	6249
2026-01-07 03:37:01.28	225.57	16.44	-38.3	-39.6	28.5	3.04e+01	92	31	101	524288	56	6221
2026-01-07 03:37:02.29	225.76	16.52	-38.2	-39.5	28.6	3.04e+01	92	31	101	524288	56	6137
2026-01-07 03:37:03.30	225.96	16.61	-38.4	-39.6	28.5	3.04e+01	90	31	101	524288	56	6276
2026-01-07 03:37:04.31	226.15	16.69	-38.3	-39.5	28.6	3.04e+01	90	31	101	524288	56	6174
2026-01-07 03:37:05.32	226.35	16.78	-38.3	-39.5	28.6	3.04e+01	92	31	101	524288	56	6193
2026-01-07 03:37:06.33	226.55	16.86	-38.2	-39.4	28.7	3.04e+01	92	31	101	524288	56	6118
2026-01-07 03:37:07.34	226.75	16.95	-38.3	-39.5	28.6	3.04e+01	92	31	101	524288	56	6179
2026-01-07 03:37:08.35	226.95	17.03	-38.4	-39.6	28.5	3.04e+01	92	31	101	524288	56	6261
2026-01-07 03:37:09.36	227.16	17.12	-38.3	-39.5	28.6	3.04e+01	90	31	101	524288	56	6204
2026-01-07 03:37:10.37	227.36	17.20	-38.3	-39.6	28.5	3.04e+01	92	31	101	524288	56	6218
2026-01-07 03:37:11.38	227.56	17.29	-38.4	-39.7	28.6	3.04e+01	92	31	101	524288	56	6304
2026-01-07 03:37:12.39	227.77	17.38	-38.2	-39.5	28.6	3.04e+01	92	31	101	524288	56	6157
2026-01-07 03:37:13.40	227.98	17.46	-38.2	-39.5	28.7	3.04e+01	91	31	101	524288	56	6150
2026-01-07 03:37:14.42	228.19	17.55	-38.2	-39.4	28.7	3.04e+01	90	31	101	524288	56	6104
2026-01-07 03:37:15.43	228.40	17.63	-38.2	-39.4	28.7	3.04e+01	92	31	101	524288	56	6095
2026-01-07 03:37:16.44	228.61	17.72	-38.1	-39.4	28.8	3.04e+01	92	31	101	524288	56	6082
2026-01-07 03:37:17.44	228.82	17.80	-38.2	-39.5	28.6	3.04e+01	91	31	101	524288	56	6157
2026-01-07 03:37:18.46	229.04	17.89	-38.1	-39.4	28.8	3.04e+01	89	31	101	524288	56	6072
2026-01-07 03:37:19.47	229.25	17.97	-38.2	-39.4	28.7	3.04e+01	91	31	101	524288	56	6121
2026-01-07 03:37:20.48	229.47	18.06	-38.2	-39.4	28.8	3.04e+01	92	31	101	524288	56	6110
2026-01-07 03:37:21.49	229.69	18.15	-38.3	-39.5	28.6	3.04e+01	92	31	101	524288	56	6157
2026-01-07 03:37:22.50	229.90	18.23	-38.1	-39.4	28.8	3.04e+01	91	31	101	524288	56	6089
2026-01-07 03:37:23.51	230.12	18.32	-38.0	-39.2	28.9	3.04e+01	92	31	101	524288	56	5992
2026-01-07 03:37:24.52	230.35	18.40	-38.0	-39.2	28.9	3.04e+01	89	31	101	524288	56	5973
2026-01-07 03:37:25.53	230.57	18.49	-38.0	-39.2	28.9	3.04e+01	92	31	101	524288	56	5951
2026-01-07 03:37:26.54	230.79	18.57	-38.0	-39.3	28.9	3.04e+01	91	31	101	524288	56	6001
2026-01-07 03:37:27.55	231.02	18.65	-38.0	-39.2	28.9	3.04e+01	90	31	101	524288	56	5976
2026-01-07 03:37:28.57	231.25	18.74	-38.0	-39.2	29.0	3.04e+01	91	31	101	524288	56	5956
2026-01-07 03:37:29.58	231.47	18.83	-37.9	-39.1	29.1	3.04e+01	89	31	101	524288	56	5886
2026-01-07 03:37:30.59	231.70	18.91	-37.9	-39.1	29.0	3.04e+01	91	31	101	524288	56	5891
2026-01-07 03:37:31.60	231.93	18.99	-37.9	-39.1	29.0	3.04e+01	92	31	101	524288	56	5923
2026-01-07 03:37:32.61	232.16	19.08	-37.9	-39.1	29.0	3.04e+01	92	31	101	524288	56	5922
2026-01-07 03:37:33.62	232.40	19.16	-38.0	-39.2	28.9	3.04e+01	92	31	101	524288	56	5974
2026-01-07 03:37:34.63	232.63	19.25	-38.0	-39.3	28.9	3.04e+01	91	31	101	524288	56	6009
2026-01-07 03:37:35.64	232.87	19.33	-37.8	-39.0	29.1	3.04e+01	91	31	101	524288	56	5855
2026-01-07 03:37:36.65	233.10	19.41	-37.9	-39.1	29.1	3.04e+01	90	31	101	524288	56	5893
2026-01-07 03:37:37.66	233.34	19.50	-37.9	-39.1	29.1	3.04e+01	91	31	101	524288	56	5881
2026-01-07 03:37:38.67	233.58	19.58	-37.7	-39.0	29.2	3.04e+01	92	31	101	524288	56	5794
2026-01-07 03:37:39.68	233.82	19.66	-37.9	-39.1	29.1	3.04e+01	91	31	101	524288	56	5892
2026-01-07 03:37:40.69	234.07	19.75	-37.7	-39.0	29.2	3.04e+01	92	31	101	524288	56	5799
2026-01-07 03:37:41.70	234.31	19.83	-37.9	-39.1	29.1	3.04e+01	92	31	101	524288	56	5886
2026-01-07 03:37:42.71	234.55	19.91	-37.6	-38.8	29.3	3.04e+01	92	31	101	524288	56	5704
2026-01-07 03:37:43.72	234.80	19.99	-37.7	-38.9	29.3	3.04e+01	92	31	101	524288	56	5745
2026-01-07 03:37:44.73	235.05	20.08	-37.6	-38.8	29.3	3.04e+01	91	31	101	524288	56	5691
2026-01-07 03:37:45.74	235.30	20.16	-37.6	-38.8	29.3	3.04e+01	92	31	101	524288	56	5725
2026-01-07 03:37:46.75	235.55	20.24	-37.6	-38.8	29.3	3.04e+01	92	31	101	524288	56	5705
2026-01-07 03:37:47.76	235.80	20.32	-37.7	-38.9	29.2	3.04e+01	92	31	101	524288	56	5764
2026-01-07 03:37:48.77	236.05	20.40	-37.7	-38.9	29.2	3.04e+01	92	31	101	524288	56	5770
2026-01-07 03:37:49.78	236.31	20.48	-37.8	-39.0	29.2	3.04e+01	92	31	101	524288	56	5810
2026-01-07 03:37:50.79	236.56	20.57	-37.7	-38.9	29.3	3.04e+01	92	31	101	524288	56	5729
2026-01-07 03:37:51.80	236.82	20.65	-37.7	-38.9	29.2	3.04e+01	92	31	101	524288	56	5765
2026-01-07 03:37:52.82	237.08	20.73	-37.7	-38.9	29.4	3.04e+01	92	31	101	524288	56	5736
2026-01-07 03:37:53.83	237.34	20.81	-37.6	-38.8	29.3	3.04e+01	91	31	101	524288	56	5674
2026-01-07 03:37:54.84	237.60	20.89	-37.7	-38.9	29.2	3.04e+01	90	31	101	524288	56	5762
2026-01-07 03:37:55.85	237.87	20.97	-37.6	-38.8	29.3	3.04e+01	91	31	101	524288	56	5662
2026-01-07 03:37:56.86	238.13	21.04	-37.5	-38.7	29.4	3.04e+01	92	31	101	524288	56	5640
2026-01-07 03:37:57.87	238.40	21.12	-37.5	-38.7	29.4	3.04e+01	92	31	101	524288	56	5640
2026-01-07 03:37:58.88	238.66	21.20	-37.6	-38.8	29.4	3.04e+01	92	31	101	524288	56	5689
2026-01-07 03:37:59.89	238.93	21.28	-37.5	-38.7	29.4	3.04e+01	90	31	101	524288	56	5652
2026-01-07 03:38:00.90	239.20	21.36	-37.6	-38.8	29.3	3.04e+01	92	31	101	524288	56	5720
2026-01-07 03:38:01.91	239.47	21.43	-37.8	-39.0	29.2	3.04e+01	90	31	101	524288	56	5828
2026-01-07 03:38:02.92	239.75	21.51	-37.8	-39.0	29.2	3.04e+01	88	31	101	524288	56	5793
2026-01-07 03:38:03.93	240.02	21.59	-37.6	-38.8	29.4	3.04e+01	92	31	101	524288	56	5666
2026-01-07 03:38:04.94	240.30	21.66	-37.7	-38.9	29.3	3.04e+01	89	31	101	524288	56	5733
2026-01-07 03:38:05.95	240.57	21.74	-37.6	-38.8	29.3	3.04e+01	91	31	101	524288	56	5697
2026-01-07 03:38:06.96	240.85	21.82	-37.5	-38.7	29.4	3.04e+01	92	31	101	524288	56	5635
2026-01-07 03:38:07.98	241.13	21.89	-37.5	-38.6	29.5	3.04e+01	92	31	101	524288	56	5589
2026-01-07 03:38:08.99	241.41	21.97	-37.6	-38.8	29.3	3.04e+01	89	31	101	524288	56	5696
2026-01-07 03:38:09.99	241.69	22.04	-37.6	-38.8	29.4	3.04e+01	91	31	101	524288	56	5688
2026-01-07 03:38:11.01	241.98	22.11	-37.6	-38.8	29.3	3.04e+01	92	31	101	524288	56	5721
2026-01-07 03:38:12.02	242.27	22.19	-37.6	-38.8	29.4	3.04e+01	92	31	101	524288	56	5710
2026-01-07 03:38:13.03	242.55	22.26	-37.6	-38.8	29.4	3.04e+01	90	31	101	524288	56	5690
2026-01-07 03:38:14.04	242.84	22.33	-37.6	-38.8	29.4	3.04e+01	92	31	101	524288	56	5687
2026-01-07 03:38:15.05	243.13	22.40	-37.6	-38.8	29.3	3.04e+01	90	31	101	524288	56	5715
2026-01-07 03:38:16.06	243.42	22.48	-37.6	-38.8	29.4	3.04e+01	92	31	101	524288	56	5714
2026-01-07 03:38:17.07	243.71	22.55	-37.5	-38.7	29.5	3.04e+01	91	31	101	524288	56	5625
2026-01-07 03:38:18.08	244.01	22.62	-37.5	-38.7	29.4	3.04e+01	92	31	101	524288	56	5653
2026-01-07 03:38:19.09	244.30	22.69	-37.5	-38.7	29.5	3.04e+01	92	31	101	524288	56	5595
2026-01-07 03:38:20.10	244.60	22.76	-37.5	-38.7	29.5	3.04e+01	92	31	101	524288	56	5627
2026-01-07 03:38:21.11	244.89	22.82	-37.5	-38.7	29.4	3.04e+01	89	31	101	524288	56	5653
2026-01-07 03:38:22.12	245.19	22.89	-37.7	-38.9	29.3	3.04e+01	90	31	101	524288	56	5760
2026-01-07 03:38:23.13	245.49	22.96	-37.6	-38.8	29.3	3.04e+01	92	31	101	524288	56	5685
2026-01-07 03:38:24.14	245.79	23.03	-37.7	-38.9	29.3	3.04e+01	91	31	101	524288	56	5790
2026-01-07 03:38:25.15	246.10	23.09	-37.7	-38.9	29.3	3.04e+01	92	31	101	524288	56	5727
2026-01-07 03:38:26.16	246.40	23.16	-37.5	-38.7	29.4	3.04e+01	90	31	101	524288	56	5645
2026-01-07 03:38:27.17	246.71	23.22	-37.6	-38.8	29.4	3.04e+01	92	31	101	524288	56	5708
2026-01-07 03:38:28.18	247.01	23.29	-37.4	-38.6	29.6	3.04e+01	92	31	101	524288	56	5551
2026-01-07 03:38:29.19	247.32	23.35	-37.4	-38.6	29.6	3.04e+01	92	31	101	524288	56	5576
2026-01-07 03:38:30.21	247.63	23.42	-37.6	-38.8	29.4	3.04e+01	92	31	101	524288	56	5698
2026-01-07 03:38:31.22	247.94	23.48	-37.6	-38.8	29.4	3.04e+01	90	31	101	524288	56	5708
2026-01-07 03:38:32.23	248.26	23.54	-37.5	-38.7	29.5	3.04e+01	92	31	101	524288	56	5621
2026-01-07 03:38:33.24	248.57	23.60	-37.6	-38.8	29.5	3.04e+01	92	31	101	524288	56	5662
2026-01-07 03:38:34.25	248.88	23.66	-37.6	-38.8	29.4	3.04e+01	92	31	101	524288	56	5672
2026-01-07 03:38:35.26	249.20	23.72	-37.7	-38.9	29.3	3.04e+01	92	31	101	524288	56	5747
2026-01-07 03:38:36.27	249.51	23.78	-37.6	-38.8	29.4	3.04e+01	92	31	101	524288	56	5705
2026-01-07 03:38:37.28	249.83	23.84	-37.7	-38.9	29.4	3.04e+01	92	31	101	524288	56	5744
2026-01-07 03:38:38.29	250.15	23.90	-37.6	-38.8	29.4	3.04e+01	92	31	101	524288	56	5678
2026-01-07 03:38:39.30	250.47	23.95	-37.7	-38.9	29.4	3.04e+01	93	31	101	524288	56	5729
2026-01-07 03:38:40.31	250.79	24.01	-37.8	-39.0	29.2	3.04e+01	92	31	101	524288	56	5794
2026-01-07 03:38:41.32	251.12	24.06	-37.7	-38.9	29.3	3.04e+01	87	31	101	524288	56	5748
2026-01-07 03:38:42.34	251.44	24.12	-37.7	-38.9	29.3	3.04e+01	92	31	101	524288	56	5788
2026-01-07 03:38:43.35	251.77	24.17	-37.7	-38.9	29.3	3.04e+01	92	31	101	524288	56	5727
2026-01-07 03:38:44.36	252.09	24.23	-37.8	-39.0	29.2	3.04e+01	92	31	101	524288	56	5823
2026-01-07 03:38:45.37	252.42	24.28	-37.6	-38.8	29.4	3.04e+01	92	31	101	524288	56	5708
2026-01-07 03:38:46.38	252.75	24.33	-37.7	-38.9	29.4	3.04e+01	92	31	101	524288	56	5734
2026-01-07 03:38:47.39	253.08	24.38	-37.7	-38.9	29.3	3.04e+01	92	31	101	524288	56	5766
2026-01-07 03:38:48.40	253.41	24.43	-37.6	-38.8	29.4	3.04e+01	92	31	101	524288	56	5688
2026-01-07 03:38:49.41	253.74	24.48	-37.7	-38.9	29.3	3.04e+01	89	31	101	524288	56	5748
2026-01-07 03:38:50.42	254.07	24.52	-37.7	-38.9	29.4	3.04e+01	91	31	101	524288	56	5741
2026-01-07 03:38:51.44	254.41	24.57	-37.8	-39.0	29.3	3.04e+01	90	31	101	524288	56	5821
2026-01-07 03:38:52.45	254.74	24.62	-37.8	-39.0	29.2	3.04e+01	91	31	101	524288	56	5847
2026-01-07 03:38:53.46	255.08	24.66	-37.9	-39.0	29.2	3.04e+01	90	31	101	524288	56	5857
2026-01-07 03:38:54.47	255.42	24.71	-37.8	-39.0	29.3	3.04e+01	91	31	101	524288	56	5818
2026-01-07 03:38:55.48	255.75	24.75	-37.9	-39.1	29.2	3.04e+01	89	31	101	524288	56	5868
2026-01-07 03:38:56.49	256.09	24.79	-37.8	-39.0	29.3	3.04e+01	92	31	101	524288	56	5831
2026-01-07 03:38:57.50	256.43	24.83	-37.8	-39.0	29.3	3.04e+01	92	31	101	524288	56	5801
2026-01-07 03:38:58.51	256.77	24.87	-37.8	-39.0	29.3	3.04e+01	92	31	101	524288	56	5830
2026-01-07 03:38:59.52	257.11	24.91	-37.8	-39.0	29.3	3.04e+01	92	31	101	524288	56	5819
2026-01-07 03:39:00.53	257.45	24.95	-37.8	-39.0	29.3	3.04e+01	86	31	101	524288	56	5813
2026-01-07 03:39:01.54	257.80	24.99	-37.9	-39.1	29.3	3.04e+01	92	31	101	524288	56	5864
2026-01-07 03:39:02.55	258.14	25.03	-38.0	-39.2	29.1	3.04e+01	92	31	101	524288	56	5950
2026-01-07 03:39:03.56	258.48	25.06	-37.9	-39.1	29.2	3.04e+01	92	31	101	524288	56	5879
2026-01-07 03:39:04.57	258.83	25.10	-37.9	-39.1	29.2	3.04e+01	92	31	101	524288	56	5865
2026-01-07 03:39:05.58	259.17	25.13	-37.9	-39.2	29.2	3.04e+01	92	31	101	524288	56	5934
2026-01-07 03:39:06.58	259.52	25.16	-38.0	-39.2	29.1	3.04e+01	91	31	101	524288	56	5994
2026-01-07 03:39:07.59	259.87	25.20	-37.9	-39.1	29.2	3.04e+01	90	31	101	524288	56	5887
2026-01-07 03:39:08.60	260.21	25.23	-37.9	-39.1	29.2	3.04e+01	91	31	101	524288	56	5911
2026-01-07 03:39:09.61	260.56	25.26	-37.8	-39.1	29.2	3.04e+01	92	31	101	524288	56	5860
2026-01-07 03:39:10.61	260.91	25.28	-37.9	-39.1	29.2	3.04e+01	90	31	101	524288	56	5880
2026-01-07 03:39:11.62	261.26	25.31	-38.0	-39.2	29.1	3.04e+01	89	31	101	524288	56	5976
2026-01-07 03:39:12.63	261.61	25.34	-37.8	-39.0	29.3	3.04e+01	90	31	101	524288	56	5830
2026-01-07 03:39:13.64	261.96	25.36	-37.9	-39.1	29.2	3.04e+01	90	31	101	524288	56	5881
2026-01-07 03:39:14.64	262.31	25.39	-38.0	-39.2	29.1	3.04e+01	91	31	101	524288	56	5952
2026-01-07 03:39:15.65	262.66	25.41	-38.2	-39.4	29.0	3.04e+01	92	31	101	524288	56	6077
2026-01-07 03:39:16.66	263.01	25.43	-37.7	-38.9	29.4	3.04e+01	92	31	101	524288	56	5778
2026-01-07 03:39:17.66	263.36	25.45	-37.8	-39.0	29.3	3.04e+01	92	31	101	524288	56	5841
2026-01-07 03:39:18.67	263.72	25.47	-38.0	-39.2	29.2	3.04e+01	91	31	101	524288	56	5975
2026-01-07 03:39:19.68	264.07	25.49	-38.0	-39.2	29.2	3.04e+01	92	31	101	524288	56	5951
2026-01-07 03:39:20.69	264.42	25.51	-38.0	-39.2	29.0	3.04e+01	92	31	101	524288	56	5955
2026-01-07 03:39:21.70	264.78	25.53	-38.1	-39.3	29.0	3.04e+01	91	31	101	524288	56	6019
2026-01-07 03:39:22.70	265.13	25.54	-37.9	-39.2	29.2	3.04e+01	90	31	101	524288	56	5933
2026-01-07 03:39:23.71	265.49	25.56	-38.0	-39.2	29.1	3.04e+01	91	31	101	524288	56	5965
2026-01-07 03:39:24.72	265.84	25.57	-38.1	-39.3	29.0	3.04e+01	93	31	101	524288	56	6019
2026-01-07 03:39:25.72	266.19	25.58	-38.1	-39.3	29.1	3.04e+01	92	31	101	524288	56	6029
2026-01-07 03:39:26.73	266.55	25.59	-38.0	-39.3	29.1	3.04e+01	90	31	101	524288	56	5997
2026-01-07 03:39:27.74	266.91	25.60	-38.2	-39.4	29.0	3.04e+01	92	31	101	524288	56	6086
2026-01-07 03:39:28.74	267.26	25.61	-38.3	-39.6	28.8	3.04e+01	92	31	101	524288	56	6210
2026-01-07 03:39:29.75	267.62	25.62	-38.2	-39.4	28.9	3.04e+01	90	31	101	524288	56	6115
2026-01-07 03:39:30.76	267.97	25.63	-38.3	-39.5	28.9	3.04e+01	90	31	101	524288	56	6163
2026-01-07 03:39:31.77	268.33	25.63	-38.3	-39.5	28.9	3.04e+01	92	31	101	524288	56	6160
2026-01-07 03:39:32.77	268.69	25.64	-38.1	-39.3	29.0	3.04e+01	93	31	101	524288	56	6058
2026-01-07 03:39:33.78	269.04	25.64	-38.1	-39.3	29.1	3.04e+01	90	31	101	524288	56	6028
2026-01-07 03:39:34.79	269.40	25.64	-38.1	-39.3	29.1	3.04e+01	92	31	101	524288	56	6011
2026-01-07 03:39:35.80	269.76	25.64	-38.1	-39.3	29.1	3.04e+01	90	31	101	524288	56	6046
2026-01-07 03:39:36.81	270.12	25.64	-37.8	-39.0	29.4	3.04e+01	92	31	101	524288	56	5849
2026-01-07 03:39:37.82	270.47	25.64	-38.2	-39.4	28.9	3.04e+01	92	31	101	524288	56	6101
2026-01-07 03:39:38.83	270.83	25.64	-38.1	-39.3	29.0	3.04e+01	92	31	101	524288	56	6031
2026-01-07 03:39:39.83	271.19	25.64	-38.0	-39.2	29.2	3.04e+01	92	31	101	524288	56	5967
2026-01-07 03:39:40.84	271.54	25.63	-38.1	-39.3	29.1	3.04e+01	91	31	101	524288	56	6036
2026-01-07 03:39:41.85	271.90	25.63	-38.1	-39.3	29.1	3.04e+01	90	31	101	524288	56	6020
2026-01-07 03:39:42.85	272.25	25.62	-38.2	-39.4	29.0	3.04e+01	92	31	101	524288	56	6080
2026-01-07 03:39:43.86	272.61	25.61	-38.1	-39.3	29.1	3.04e+01	92	31	101	524288	56	6035
2026-01-07 03:39:44.86	272.96	25.60	-38.1	-39.3	29.1	3.04e+01	92	31	101	524288	56	6028
2026-01-07 03:39:45.87	273.32	25.59	-38.1	-39.3	29.0	3.04e+01	92	31	101	524288	56	6033
2026-01-07 03:39:46.88	273.68	25.58	-38.0	-39.2	29.3	3.04e+01	92	31	101	524288	56	5933
2026-01-07 03:39:47.89	274.03	25.57	-38.1	-39.4	29.0	3.04e+01	92	31	101	524288	56	6074
2026-01-07 03:39:48.90	274.39	25.56	-38.2	-39.4	29.1	3.04e+01	90	31	101	524288	56	6076
2026-01-07 03:39:49.90	274.74	25.54	-37.9	-39.1	29.3	3.04e+01	90	31	101	524288	56	5868
2026-01-07 03:39:50.91	275.09	25.53	-38.0	-39.2	29.2	3.04e+01	92	31	101	524288	56	5984
2026-01-07 03:39:51.92	275.45	25.51	-38.0	-39.2	29.2	3.04e+01	91	31	101	524288	56	5977
2026-01-07 03:39:52.92	275.80	25.49	-38.0	-39.2	29.1	3.04e+01	91	31	101	524288	56	5982
2026-01-07 03:39:53.93	276.15	25.47	-38.0	-39.2	29.2	3.04e+01	90	31	101	524288	56	5966
2026-01-07 03:39:54.93	276.50	25.45	-38.0	-39.2	29.2	3.04e+01	90	31	101	524288	56	5950
2026-01-07 03:39:55.94	276.86	25.43	-38.1	-39.3	29.1	3.04e+01	90	31	101	524288	56	6026
2026-01-07 03:39:56.94	277.20	25.41	-38.0	-39.2	29.2	3.04e+01	91	31	101	524288	56	5964
2026-01-07 03:39:57.95	277.56	25.39	-38.2	-39.4	29.1	3.04e+01	90	31	101	524288	56	6081
2026-01-07 03:39:58.96	277.91	25.36	-38.0	-39.2	29.2	3.04e+01	91	31	101	524288	56	5966
2026-01-07 03:39:59.97	278.26	25.34	-38.0	-39.2	29.1	3.04e+01	90	31	101	524288	56	5932
2026-01-07 03:40:00.97	278.60	25.31	-38.0	-39.2	29.2	3.04e+01	92	31	101	524288	56	5983
2026-01-07 03:40:01.98	278.95	25.28	-38.1	-39.3	29.1	3.04e+01	90	31	101	524288	56	6024
2026-01-07 03:40:02.98	279.30	25.26	-38.2	-39.4	29.0	3.04e+01	93	31	101	524288	56	6128
2026-01-07 03:40:03.99	279.65	25.23	-38.2	-39.4	29.0	3.04e+01	86	31	101	524288	56	6103
2026-01-07 03:40:05.00	279.99	25.20	-37.9	-39.0	29.3	3.04e+01	92	31	101	524288	56	5849
2026-01-07 03:40:06.01	280.34	25.16	-37.9	-39.2	29.2	3.04e+01	92	31	101	524288	56	5930
2026-01-07 03:40:07.02	280.69	25.13	-37.8	-39.0	29.3	3.04e+01	92	31	101	524288	56	5825
2026-01-07 03:40:08.02	281.03	25.10	-37.9	-39.1	29.3	3.04e+01	90	31	101	524288	56	5919
2026-01-07 03:40:09.03	281.37	25.06	-37.9	-39.2	29.1	3.04e+01	92	31	101	524288	56	5928
2026-01-07 03:40:10.04	281.72	25.03	-38.1	-39.3	29.1	3.04e+01	92	31	101	524288	56	6015
2026-01-07 03:40:11.05	282.06	24.99	-37.9	-39.1	29.3	3.04e+01	92	31	101	524288	56	5920
2026-01-07 03:40:12.06	282.40	24.95	-37.9	-39.1	29.2	3.04e+01	91	31	101	524288	56	5892
2026-01-07 03:40:13.07	282.74	24.92	-37.9	-39.1	29.2	3.04e+01	92	31	101	524288	56	5884
2026-01-07 03:40:14.07	283.08	24.88	-37.9	-39.1	29.3	3.04e+01	92	31	101	524288	56	5899
2026-01-07 03:40:15.08	283.42	24.84	-38.1	-39.3	29.1	3.04e+01	92	31	101	524288	56	6017
2026-01-07 03:40:16.09	283.76	24.80	-37.9	-39.1	29.3	3.04e+01	90	31	101	524288	56	5871
2026-01-07 03:40:17.10	284.09	24.75	-37.8	-39.0	29.4	3.04e+01	92	31	101	524288	56	5821
2026-01-07 03:40:18.11	284.43	24.71	-37.8	-39.1	29.3	3.04e+01	90	31	101	524288	56	5866
2026-01-07 03:40:19.11	284.76	24.67	-38.0	-39.2	29.1	3.04e+01	92	31	101	524288	56	5935
2026-01-07 03:40:20.12	285.10	24.62	-38.1	-39.3	29.0	3.04e+01	91	31	101	524288	56	6021
2026-01-07 03:40:21.13	285.43	24.58	-37.9	-39.1	29.3	3.04e+01	91	31	101	524288	56	5875
2026-01-07 03:40:22.13	285.76	24.53	-37.8	-39.0	29.3	3.04e+01	89	31	101	524288	56	5847
2026-01-07 03:40:23.14	286.09	24.48	-37.7	-38.9	29.4	3.04e+01	90	31	101	524288	56	5769
2026-01-07 03:40:24.15	286.42	24.43	-37.7	-39.0	29.4	3.04e+01	91	31	101	524288	56	5794
2026-01-07 03:40:25.16	286.75	24.38	-37.9	-39.0	29.3	3.04e+01	92	31	101	524288	56	5857
2026-01-07 03:40:26.16	287.08	24.33	-37.9	-39.1	29.3	3.04e+01	86	31	101	524288	56	5865
2026-01-07 03:40:27.17	287.41	24.28	-37.9	-39.1	29.2	3.04e+01	92	31	101	524288	56	5876
2026-01-07 03:40:28.18	287.73	24.23	-37.9	-39.1	29.1	3.04e+01	90	31	101	524288	56	5892
2026-01-07 03:40:29.19	288.06	24.18	-37.9	-39.1	29.2	3.04e+01	86	31	101	524288	56	5871
2026-01-07 03:40:30.19	288.38	24.13	-37.7	-38.9	29.4	3.04e+01	90	31	101	524288	56	5775
2026-01-07 03:40:31.20	288.70	24.07	-37.8	-39.0	29.4	3.04e+01	93	31	101	524288	56	5812
2026-01-07 03:40:32.20	289.02	24.02	-37.8	-39.1	29.3	3.04e+01	92	31	101	524288	56	5864
2026-01-07 03:40:33.21	289.34	23.96	-37.8	-39.0	29.4	3.04e+01	92	31	101	524288	56	5822
2026-01-07 03:40:34.22	289.66	23.91	-37.7	-38.9	29.3	3.04e+01	91	31	101	524288	56	5778
2026-01-07 03:40:35.22	289.97	23.85	-37.6	-38.7	29.6	3.04e+01	92	31	101	524288	56	5651
2026-01-07 03:40:36.23	290.29	23.79	-37.6	-38.8	29.6	3.04e+01	92	31	101	524288	56	5695
2026-01-07 03:40:37.24	290.61	23.73	-37.7	-38.9	29.4	3.04e+01	92	31	101	524288	56	5755
2026-01-07 03:40:38.25	290.92	23.67	-37.7	-38.9	29.4	3.04e+01	90	31	101	524288	56	5785
2026-01-07 03:40:39.25	291.23	23.61	-37.7	-38.9	29.4	3.04e+01	92	31	101	524288	56	5729
2026-01-07 03:40:40.26	291.54	23.55	-37.6	-38.8	29.5	3.04e+01	90	31	101	524288	56	5694
2026-01-07 03:40:41.27	291.85	23.49	-37.6	-38.8	29.5	3.04e+01	93	31	101	524288	56	5672
2026-01-07 03:40:42.28	292.16	23.43	-37.6	-38.8	29.5	3.04e+01	92	31	101	524288	56	5707
2026-01-07 03:40:43.28	292.47	23.37	-37.6	-38.8	29.6	3.04e+01	92	31	101	524288	56	5674
2026-01-07 03:40:44.29	292.78	23.30	-37.6	-38.8	29.5	3.04e+01	92	31	101	524288	56	5723
2026-01-07 03:40:45.30	293.08	23.24	-37.5	-38.7	29.6	3.04e+01	92	31	101	524288	56	5615
2026-01-07 03:40:46.31	293.39	23.18	-37.6	-38.8	29.5	3.04e+01	92	31	101	524288	56	5716
2026-01-07 03:40:47.31	293.69	23.11	-37.5	-38.7	29.5	3.04e+01	92	31	101	524288	56	5611
2026-01-07 03:40:48.31	293.99	23.05	-37.7	-38.9	29.3	3.04e+01	91	31	101	524288	56	5753
2026-01-07 03:40:49.32	294.29	22.98	-37.9	-39.1	29.2	3.04e+01	92	31	101	524288	56	5879
2026-01-07 03:40:50.33	294.59	22.91	-37.4	-38.6	29.6	3.04e+01	92	31	101	524288	56	5581
2026-01-07 03:40:51.34	294.88	22.84	-37.5	-38.7	29.6	3.04e+01	90	31	101	524288	56	5619
2026-01-07 03:40:52.34	295.18	22.78	-37.6	-38.8	29.5	3.04e+01	93	31	101	524288	56	5661
2026-01-07 03:40:53.35	295.47	22.71	-37.6	-38.8	29.5	3.04e+01	92	31	101	524288	56	5691
2026-01-07 03:40:54.36	295.77	22.64	-37.4	-38.6	29.6	3.04e+01	92	31	101	524288	56	5565
2026-01-07 03:40:55.37	296.06	22.57	-37.5	-38.7	29.6	3.04e+01	92	31	101	524288	56	5617
2026-01-07 03:40:56.37	296.35	22.50	-37.5	-38.7	29.6	3.04e+01	91	31	101	524288	56	5621
2026-01-07 03:40:57.38	296.64	22.43	-37.4	-38.6	29.6	3.04e+01	92	31	101	524288	56	5563
2026-01-07 03:40:58.39	296.92	22.36	-37.5	-38.7	29.5	3.04e+01	92	31	101	524288	56	5653
2026-01-07 03:40:59.40	297.21	22.29	-37.5	-38.7	29.5	3.04e+01	91	31	101	524288	56	5632
2026-01-07 03:41:00.41	297.50	22.21	-37.4	-38.6	29.6	3.04e+01	92	31	101	524288	56	5563
2026-01-07 03:41:01.42	297.78	22.14	-37.4	-38.6	29.6	3.04e+01	92	31	101	524288	56	5573
2026-01-07 03:41:02.43	298.06	22.07	-37.5	-38.7	29.6	3.04e+01	92	31	101	524288	56	5649
2026-01-07 03:41:03.44	298.35	21.99	-37.5	-38.7	29.5	3.04e+01	92	31	101	524288	56	5646
2026-01-07 03:41:04.45	298.63	21.92	-37.3	-38.5	29.7	3.04e+01	92	31	101	524288	54	6139
2026-01-07 03:41:05.45	298.90	21.85	-37.3	-38.5	29.7	3.04e+01	90	31	101	524288	54	6168
2026-01-07 03:41:06.46	299.18	21.77	-37.5	-38.7	29.4	3.04e+01	89	31	101	524288	54	6282
2026-01-07 03:41:07.47	299.46	21.70	-37.4	-38.6	29.5	3.04e+01	92	31	101	524288	54	6271
2026-01-07 03:41:08.47	299.73	21.62	-37.5	-38.7	29.6	3.04e+01	89	31	101	524288	54	6278
2026-01-07 03:41:09.48	300.00	21.55	-37.5	-38.7	29.5	3.04e+01	91	31	101	524288	54	6332
2026-01-07 03:41:10.49	300.27	21.47	-37.5	-38.7	29.5	3.04e+01	89	31	101	524288	54	6325
2026-01-07 03:41:11.49	300.54	21.39	-37.6	-38.8	29.5	3.04e+01	92	31	101	524288	54	6368
2026-01-07 03:41:12.51	300.81	21.32	-37.7	-38.9	29.3	3.04e+01	92	31	101	524288	54	6462
2026-01-07 03:41:13.51	301.08	21.24	-37.4	-38.6	29.6	3.04e+01	91	31	101	524288	54	6216
2026-01-07 03:41:14.52	301.34	21.16	-37.3	-38.5	29.7	3.04e+01	92	31	101	524288	54	6138
2026-01-07 03:41:15.53	301.61	21.08	-37.2	-38.4	29.7	3.04e+01	92	31	101	524288	54	6119
2026-01-07 03:41:16.53	301.87	21.01	-37.2	-38.3	29.8	3.04e+01	91	31	101	524288	54	6062
2026-01-07 03:41:17.54	302.13	20.93	-37.3	-38.5	29.7	3.04e+01	92	31	101	524288	54	6158
2026-01-07 03:41:18.55	302.39	20.85	-37.3	-38.5	29.6	3.04e+01	92	31	101	524288	54	6173
2026-01-07 03:41:19.56	302.65	20.77	-37.4	-38.6	29.6	3.04e+01	58	31	101	524288	54	6210
2026-01-07 03:41:20.57	302.91	20.69	-37.4	-38.6	29.7	3.04e+01	62	31	101	524288	54	6206
2026-01-07 03:41:21.57	303.16	20.61	-37.2	-38.4	29.6	3.04e+01	57	31	101	524288	54	6126
2026-01-07 03:41:22.58	303.42	20.53	-37.3	-38.5	29.6	3.04e+01	60	31	101	524288	54	6152
2026-01-07 03:41:23.59	303.67	20.45	-37.2	-38.3	29.9	3.04e+01	46	31	101	524288	54	6043
2026-01-07 03:41:24.59	303.92	20.37	-37.2	-38.4	29.7	3.04e+01	59	31	101	524288	54	6115
2026-01-07 03:41:25.60	304.17	20.29	-37.2	-38.4	29.8	3.04e+01	59	31	101	524288	54	6082
2026-01-07 03:41:26.61	304.42	20.21	-37.3	-38.5	29.7	3.04e+01	46	31	101	524288	54	6137
2026-01-07 03:41:27.61	304.67	20.13	-37.3	-38.5	29.7	3.04e+01	60	31	101	524288	54	6152
2026-01-07 03:41:28.62	304.92	20.05	-37.4	-38.6	29.5	3.04e+01	58	31	101	524288	54	6262
2026-01-07 03:41:29.63	305.16	19.96	-37.4	-38.6	29.5	3.04e+01	62	31	101	524288	54	6211
2026-01-07 03:41:30.63	305.41	19.88	-37.3	-38.5	29.7	3.04e+01	60	31	101	524288	54	6182
2026-01-07 03:41:31.64	305.65	19.80	-37.3	-38.5	29.7	3.04e+01	56	31	101	524288	54	6135
2026-01-07 03:41:32.65	305.89	19.72	-37.5	-38.7	29.4	3.04e+01	60	31	101	524288	54	6318
2026-01-07 03:41:33.66	306.13	19.64	-37.7	-38.9	29.3	3.04e+01	59	32	101	524288	54	6479
2026-01-07 03:41:34.66	306.37	19.55	-37.7	-38.9	29.4	3.04e+01	44	31	101	524288	54	6486
2026-01-07 03:41:35.67	306.60	19.47	-37.6	-38.8	29.4	3.04e+01	61	31	101	524288	54	6416
2026-01-07 03:41:36.68	306.84	19.39	-37.8	-39.0	29.3	3.04e+01	57	31	101	524288	54	6542
2026-01-07 03:41:37.69	307.08	19.30	-37.5	-38.7	29.4	3.04e+01	60	31	101	524288	54	6296
2026-01-07 03:41:38.69	307.31	19.22	-37.3	-38.4	29.6	3.04e+01	60	31	101	524288	54	6126
2026-01-07 03:41:39.70	307.54	19.14	-37.1	-38.3	29.8	3.04e+01	57	31	101	524288	54	6048
2026-01-07 03:41:40.71	307.77	19.06	-37.3	-38.5	29.7	3.04e+01	56	31	101	524288	54	6199
2026-01-07 03:41:41.71	308.00	18.97	-37.2	-38.4	29.8	3.04e+01	60	31	101	524288	54	6080
2026-01-07 03:41:42.72	308.23	18.89	-37.0	-38.2	29.8	3.04e+01	49	31	101	524288	54	5978
2026-01-07 03:41:43.73	308.45	18.80	-37.2	-38.3	29.8	3.04e+01	61	31	101	524288	54	6051
2026-01-07 03:41:44.74	308.68	18.72	-37.1	-38.3	29.8	3.04e+01	60	31	101	524288	54	6029
2026-01-07 03:41:45.75	308.90	18.64	-37.1	-38.2	29.8	3.04e+01	56	31	101	524288	54	5985
2026-01-07 03:41:46.75	309.13	18.55	-37.2	-38.4	29.8	3.04e+01	61	31	101	524288	54	6079
2026-01-07 03:41:47.76	309.35	18.47	-37.0	-38.2	29.9	3.04e+01	61	31	101	524288	54	5941
2026-01-07 03:41:48.77	309.57	18.38	-37.0	-38.1	30.0	3.04e+01	59	31	101	524288	54	5925
2026-01-07 03:41:49.78	309.79	18.30	-37.0	-38.2	29.9	3.04e+01	61	31	101	524288	54	5970
2026-01-07 03:41:50.79	310.01	18.22	-37.1	-38.3	29.8	3.04e+01	46	31	101	524288	54	6032
2026-01-07 03:41:51.80	310.22	18.13	-37.3	-38.4	29.7	3.04e+01	58	31	101	524288	54	6128
2026-01-07 03:41:52.80	310.44	18.05	-37.2	-38.4	29.8	3.04e+01	53	31	101	524288	54	6084
2026-01-07 03:41:53.81	310.65	17.96	-37.1	-38.3	29.8	3.04e+01	61	31	101	524288	54	6025
2026-01-07 03:41:54.82	310.87	17.88	-37.1	-38.3	29.8	3.04e+01	50	31	101	524288	54	6015
2026-01-07 03:41:55.82	311.08	17.79	-36.9	-38.1	30.0	3.04e+01	57	31	101	524288	54	5874
2026-01-07 03:41:56.83	311.29	17.71	-37.0	-38.2	30.0	3.04e+01	61	31	101	524288	54	5964
2026-01-07 03:41:57.84	311.50	17.62	-37.0	-38.1	29.9	3.04e+01	61	31	101	524288	54	5907
2026-01-07 03:41:58.84	311.70	17.54	-37.1	-38.3	29.9	3.04e+01	58	31	101	524288	54	6010
2026-01-07 03:41:59.85	311.91	17.46	-37.1	-38.3	29.8	3.04e+01	61	31	101	524288	54	6029
2026-01-07 03:42:00.86	312.12	17.37	-37.3	-38.5	29.7	3.04e+01	44	31	101	524288	54	6150
2026-01-07 03:42:01.87	312.32	17.29	-37.1	-38.3	29.6	3.04e+01	62	31	101	524288	54	5999
2026-01-07 03:42:02.88	312.52	17.20	-37.1	-38.3	29.9	3.04e+01	58	31	101	524288	54	6010
2026-01-07 03:42:03.88	312.72	17.12	-37.0	-38.2	29.8	3.04e+01	44	31	101	524288	54	5961
2026-01-07 03:42:04.89	312.93	17.03	-37.0	-38.2	29.9	3.04e+01	60	31	101	524288	54	5942
2026-01-07 03:42:05.90	313.13	16.95	-37.1	-38.3	29.8	3.04e+01	59	31	101	524288	54	6035
2026-01-07 03:42:06.90	313.32	16.86	-36.9	-38.1	29.9	3.04e+01	57	31	101	524288	54	5888
2026-01-07 03:42:07.91	313.52	16.78	-36.9	-38.1	30.0	3.04e+01	60	31	101	524288	54	5863
2026-01-07 03:42:08.91	313.71	16.69	-36.9	-38.1	30.0	3.04e+01	48	31	101	524288	54	5891
2026-01-07 03:42:09.92	313.91	16.61	-36.9	-38.1	30.0	3.04e+01	59	31	101	524288	54	5896
2026-01-07 03:42:10.93	314.10	16.53	-37.0	-38.2	29.9	3.04e+01	62	31	101	524288	54	5933
2026-01-07 03:42:11.94	314.30	16.44	-37.1	-38.3	29.7	3.04e+01	44	31	101	524288	54	6062
2026-01-07 03:42:12.95	314.49	16.36	-37.1	-38.3	29.8	3.04e+01	60	31	101	524288	54	5995
2026-01-07 03:42:13.96	314.68	16.27	-36.9	-38.1	30.0	3.04e+01	54	31	101	524288	54	5863
2026-01-07 03:42:14.96	314.87	16.19	-36.8	-38.0	30.0	3.04e+01	58	31	101	524288	54	5833
2026-01-07 03:42:15.97	315.06	16.10	-36.8	-38.0	30.1	3.04e+01	61	31	101	524288	54	5819
2026-01-07 03:42:16.98	315.25	16.02	-36.8	-38.0	30.0	3.04e+01	59	31	101	524288	54	5823
2026-01-07 03:42:17.99	315.43	15.93	-36.9	-38.0	30.0	3.04e+01	57	31	101	524288	54	5856
2026-01-07 03:42:18.99	315.62	15.85	-36.9	-38.1	30.0	3.04e+01	59	31	101	524288	54	5871
2026-01-07 03:42:20.00	315.80	15.77	-36.8	-37.9	30.1	3.04e+01	48	31	101	524288	54	5782
2026-01-07 03:42:21.01	315.98	15.68	-36.8	-38.0	30.1	3.04e+01	58	31	101	524288	54	5819
2026-01-07 03:42:22.02	316.17	15.60	-36.7	-37.9	30.1	3.04e+01	58	31	101	524288	54	5731
2026-01-07 03:42:23.02	316.35	15.51	-36.9	-38.0	30.0	3.04e+01	59	31	101	524288	54	5854
2026-01-07 03:42:24.03	316.53	15.43	-36.8	-37.9	30.0	3.04e+01	60	31	101	524288	54	5783
2026-01-07 03:42:25.04	316.70	15.35	-36.9	-38.1	29.9	3.04e+01	60	31	101	524288	54	5873
2026-01-07 03:42:26.05	316.88	15.26	-36.7	-37.9	30.2	3.04e+01	60	31	101	524288	54	5741
2026-01-07 03:42:27.06	317.06	15.18	-36.8	-37.9	30.1	3.04e+01	62	31	101	524288	54	5779
2026-01-07 03:42:28.07	317.24	15.09	-36.9	-38.1	29.9	3.04e+01	49	31	101	524288	54	5896
2026-01-07 03:42:29.07	317.41	15.01	-36.9	-38.1	29.9	3.04e+01	59	31	101	524288	54	5866
2026-01-07 03:42:30.08	317.58	14.93	-36.9	-38.1	29.9	3.04e+01	58	31	101	524288	54	5877
2026-01-07 03:42:31.09	317.76	14.84	-36.7	-37.9	30.2	3.04e+01	57	31	101	524288	54	5735
2026-01-07 03:42:32.10	317.93	14.76	-36.7	-37.9	30.1	3.04e+01	59	31	101	524288	54	5726
2026-01-07 03:42:33.10	318.10	14.68	-36.8	-38.0	30.0	3.04e+01	46	31	101	524288	54	5812
2026-01-07 03:42:34.11	318.27	14.60	-36.6	-37.8	30.2	3.04e+01	60	31	101	524288	54	5670
2026-01-07 03:42:35.12	318.44	14.51	-36.7	-37.8	30.1	3.04e+01	58	31	101	524288	54	5720
2026-01-07 03:42:36.12	318.60	14.43	-36.7	-37.9	30.1	3.04e+01	45	31	101	524288	54	5750
2026-01-07 03:42:37.13	318.77	14.35	-36.8	-37.9	30.1	3.04e+01	59	31	101	524288	54	5786
2026-01-07 03:42:38.14	318.94	14.26	-36.7	-37.9	30.0	3.04e+01	58	31	101	524288	54	5775
2026-01-07 03:42:39.15	319.10	14.18	-36.8	-37.9	30.1	3.04e+01	57	31	101	524288	54	5791
2026-01-07 03:42:40.15	319.26	14.10	-36.6	-37.8	30.1	3.04e+01	59	31	101	524288	54	5697
2026-01-07 03:42:41.16	319.43	14.02	-36.6	-37.8	30.1	3.04e+01	51	31	101	524288	54	5682
2026-01-07 03:42:42.17	319.59	13.93	-36.7	-37.8	30.1	3.04e+01	59	31	101	524288	54	5707
2026-01-07 03:42:43.18	319.75	13.85	-36.8	-38.0	30.0	3.04e+01	59	31	101	524288	54	5798
2026-01-07 03:42:44.19	319.91	13.77	-36.7	-37.9	30.0	3.04e+01	44	31	101	524288	54	5768
2026-01-07 03:42:45.19	320.07	13.69	-36.8	-38.0	30.0	3.04e+01	59	31	101	524288	54	5805
2026-01-07 03:42:46.20	320.23	13.61	-36.7	-37.8	30.1	3.04e+01	48	31	101	524288	54	5715
2026-01-07 03:42:47.21	320.38	13.53	-36.9	-38.1	29.9	3.04e+01	59	31	101	524288	54	5876
2026-01-07 03:42:48.22	320.54	13.44	-36.7	-37.9	30.1	3.04e+01	60	31	101	524288	54	5754
2026-01-07 03:42:49.23	320.70	13.36	-36.6	-37.7	30.2	3.04e+01	48	31	101	524288	54	5657
2026-01-07 03:42:50.23	320.85	13.28	-36.7	-37.9	30.1	3.04e+01	59	31	101	524288	54	5761
2026-01-07 03:42:51.24	321.00	13.20	-36.7	-37.9	30.0	3.04e+01	59	31	101	524288	54	5766
2026-01-07 03:42:52.25	321.16	13.12	-36.6	-37.8	30.1	3.04e+01	60	31	101	524288	54	5699
2026-01-07 03:42:53.25	321.31	13.04	-36.8	-38.0	30.0	3.04e+01	58	31	101	524288	54	5833
2026-01-07 03:42:54.26	321.46	12.96	-36.8	-38.0	29.9	3.04e+01	51	31	101	524288	54	5806
2026-01-07 03:42:55.27	321.61	12.88	-36.8	-38.0	30.0	3.04e+01	59	31	101	524288	54	5798
2026-01-07 03:42:56.28	321.76	12.80	-36.6	-37.8	30.2	3.04e+01	58	31	101	524288	54	5671
2026-01-07 03:42:57.28	321.91	12.72	-36.6	-37.7	30.2	3.04e+01	43	32	101	524288	54	5659
2026-01-07 03:42:58.29	322.06	12.64	-36.6	-37.7	30.2	3.04e+01	57	31	101	524288	54	5656
2026-01-07 03:42:59.30	322.20	12.56	-36.6	-37.8	30.1	3.04e+01	62	31	101	524288	54	5678
2026-01-07 03:43:00.31	322.35	12.48	-36.6	-37.7	30.2	3.04e+01	58	31	101	524288	54	5639
2026-01-07 03:43:01.32	322.50	12.40	-36.7	-37.8	30.1	3.04e+01	58	31	101	524288	54	5722
2026-01-07 03:43:02.32	322.64	12.32	-36.7	-37.9	30.1	3.04e+01	53	31	101	524288	54	5734
2026-01-07 03:43:03.33	322.78	12.24	-36.8	-37.9	30.1	3.04e+01	59	31	101	524288	54	5773
2026-01-07 03:43:04.34	322.93	12.16	-36.8	-38.0	30.0	3.04e+01	60	31	101	524288	54	5797
2026-01-07 03:43:05.35	323.07	12.08	-36.7	-37.9	30.0	3.04e+01	50	31	101	524288	54	5774
2026-01-07 03:43:06.36	323.21	12.00	-36.9	-38.1	29.8	3.04e+01	58	31	101	524288	54	5872
2026-01-07 03:43:07.38	323.35	11.92	-36.7	-37.9	29.9	3.04e+01	59	31	101	524288	54	5764
2026-01-07 03:43:08.39	323.49	11.84	-36.9	-38.1	29.9	3.04e+01	57	31	101	524288	54	5869
2026-01-07 03:43:09.40	323.63	11.76	-36.9	-38.0	29.9	3.04e+01	59	31	101	524288	54	5845
2026-01-07 03:43:10.41	323.77	11.68	-37.0	-38.2	29.9	3.04e+01	53	31	101	524288	54	5959
2026-01-07 03:43:11.42	323.91	11.60	-36.9	-38.0	29.9	3.04e+01	57	31	101	524288	54	5852
2026-01-07 03:43:12.43	324.04	11.52	-36.8	-37.9	30.0	3.04e+01	57	31	101	524288	54	5786
2026-01-07 03:43:13.44	324.18	11.45	-36.9	-38.1	29.9	3.04e+01	46	31	101	524288	54	5873
2026-01-07 03:43:14.45	324.32	11.37	-36.9	-38.0	29.9	3.04e+01	59	31	101	524288	54	5847
2026-01-07 03:43:15.46	324.45	11.29	-36.7	-37.9	29.9	3.04e+01	57	31	101	524288	54	5745
2026-01-07 03:43:16.47	324.59	11.21	-36.8	-37.9	30.0	3.04e+01	58	31	101	524288	54	5779
2026-01-07 03:43:17.48	324.72	11.13	-36.8	-37.9	29.9	3.04e+01	53	31	101	524288	54	5778
2026-01-07 03:43:18.49	324.85	11.06	-36.7	-37.8	30.1	3.04e+01	55	31	101	524288	54	5701
2026-01-07 03:43:19.50	324.98	10.98	-36.6	-37.8	30.2	3.04e+01	60	31	101	524288	54	5665
2026-01-07 03:43:20.51	325.11	10.90	-36.7	-37.9	30.0	3.04e+01	61	31	101	524288	54	5755
2026-01-07 03:43:21.52	325.24	10.83	-36.7	-37.9	30.0	3.04e+01	51	31	101	524288	54	5746
2026-01-07 03:43:22.53	325.37	10.75	-36.7	-37.9	30.0	3.04e+01	60	31	101	524288	54	5755
2026-01-07 03:43:23.54	325.50	10.67	-36.7	-37.8	30.0	3.04e+01	59	31	101	524288	54	5716
2026-01-07 03:43:24.55	325.63	10.59	-36.7	-37.9	30.0	3.04e+01	59	31	101	524288	54	5752
2026-01-07 03:43:25.56	325.76	10.52	-36.8	-37.9	30.0	3.04e+01	58	31	101	524288	54	5788
2026-01-07 03:43:26.57	325.88	10.44	-36.8	-38.0	29.9	3.04e+01	45	31	101	524288	54	5833
2026-01-07 03:43:27.58	326.01	10.37	-36.9	-38.1	29.9	3.04e+01	58	31	101	524288	54	5866
2026-01-07 03:43:28.59	326.14	10.29	-36.9	-38.1	29.9	3.04e+01	61	31	101	524288	54	5877
2026-01-07 03:43:29.60	326.26	10.21	-36.9	-38.1	29.8	3.04e+01	62	31	101	524288	54	5888
2026-01-07 03:43:30.61	326.39	10.14	-37.0	-38.2	29.7	3.04e+01	59	31	101	524288	54	5982
2026-01-07 03:43:31.62	326.51	10.06	-37.0	-38.2	29.8	3.04e+01	56	31	101	524288	54	5964
2026-01-07 03:43:32.63	326.63	9.99	-36.9	-38.1	29.7	3.04e+01	59	31	101	524288	54	5862
2026-01-07 03:43:33.64	326.75	9.91	-37.0	-38.1	29.7	3.04e+01	58	31	101	524288	54	5924
2026-01-07 03:43:34.65	326.87	9.84	-37.0	-38.2	29.7	3.04e+01	45	31	101	524288	54	5927
2026-01-07 03:43:35.66	327.00	9.76	-37.0	-38.1	29.7	3.04e+01	58	31	101	524288	54	5926
2026-01-07 03:43:36.67	327.12	9.69	-36.9	-38.1	29.8	3.04e+01	52	31	101	524288	54	5894
2026-01-07 03:43:37.68	327.24	9.61	-36.9	-38.1	29.7	3.04e+01	58	31	101	524288	54	5903
2026-01-07 03:43:38.69	327.35	9.54	-36.9	-38.0	29.8	3.04e+01	60	31	101	524288	54	5852
2026-01-07 03:43:39.70	327.47	9.46	-37.0	-38.2	29.7	3.04e+01	43	31	101	524288	54	5931
2026-01-07 03:43:40.71	327.59	9.39	-36.9	-38.1	29.7	3.04e+01	58	31	101	524288	54	5909
2026-01-07 03:43:41.72	327.71	9.31	-36.9	-38.1	29.8	3.04e+01	59	31	101	524288	54	5885
2026-01-07 03:43:42.73	327.82	9.24	-36.9	-38.1	29.8	3.04e+01	45	31	101	524288	54	5890
2026-01-07 03:43:43.75	327.94	9.17	-36.9	-38.1	29.8	3.04e+01	61	31	101	524288	54	5894
2026-01-07 03:43:44.76	328.06	9.09	-36.9	-38.1	29.7	3.04e+01	58	31	101	524288	54	5893
2026-01-07 03:43:45.77	328.17	9.02	-36.9	-38.0	29.8	3.04e+01	55	31	101	524288	54	5852
2026-01-07 03:43:46.78	328.28	8.94	-37.0	-38.2	29.7	3.04e+01	59	31	101	524288	54	5954
2026-01-07 03:43:47.79	328.40	8.87	-37.1	-38.3	29.6	3.04e+01	56	31	101	524288	54	5999
2026-01-07 03:43:48.80	328.51	8.80	-37.1	-38.3	29.6	3.04e+01	60	31	101	524288	54	6015
2026-01-07 03:43:49.81	328.62	8.73	-37.0	-38.2	29.7	3.04e+01	62	31	101	524288	54	5961
2026-01-07 03:43:50.82	328.73	8.65	-37.1	-38.3	29.6	3.04e+01	56	31	101	524288	54	6049
2026-01-07 03:43:51.83	328.85	8.58	-37.1	-38.3	29.5	3.04e+01	59	31	101	524288	54	6045
2026-01-07 03:43:52.84	328.96	8.51	-37.1	-38.3	29.6	3.04e+01	54	31	101	524288	54	6000
2026-01-07 03:43:53.85	329.07	8.44	-37.1	-38.3	29.6	3.04e+01	62	31	101	524288	54	6017
2026-01-07 03:43:54.86	329.18	8.36	-37.1	-38.3	29.6	3.04e+01	59	31	101	524288	54	6034
2026-01-07 03:43:55.88	329.28	8.29	-37.2	-38.4	29.5	3.04e+01	54	31	101	524288	54	6100
2026-01-07 03:43:56.89	329.39	8.22	-37.3	-38.5	29.5	3.04e+01	58	31	101	524288	54	6142
2026-01-07 03:43:57.89	329.50	8.15	-37.4	-38.6	29.3	3.04e+01	57	31	101	524288	54	6270
2026-01-07 03:43:58.91	329.61	8.08	-37.3	-38.5	29.4	3.04e+01	50	31	101	524288	54	6187
2026-01-07 03:43:59.91	329.71	8.00	-37.4	-38.6	29.3	3.04e+01	58	31	101	524288	54	6266
2026-01-07 03:44:00.91	329.82	7.93	-37.3	-38.5	29.4	3.04e+01	44	31	101	524288	54	6181
2026-01-07 03:44:01.92	329.92	7.86	-37.5	-38.7	29.3	3.04e+01	56	31	101	524288	54	6308
2026-01-07 03:44:02.93	330.03	7.79	-37.2	-38.4	29.4	3.04e+01	59	31	101	524288	54	6112
2026-01-07 03:44:03.94	330.13	7.72	-37.3	-38.5	29.3	3.04e+01	46	31	101	524288	54	6198
2026-01-07 03:44:04.95	330.24	7.65	-37.4	-38.6	29.3	3.04e+01	59	31	101	524288	54	6263
2026-01-07 03:44:05.96	330.34	7.58	-37.3	-38.5	29.3	3.04e+01	61	31	101	524288	54	6203
2026-01-07 03:44:06.97	330.44	7.51	-37.4	-38.6	29.2	3.04e+01	57	31	101	524288	54	6271
2026-01-07 03:44:07.98	330.55	7.44	-37.3	-38.5	29.3	3.04e+01	60	31	101	524288	54	6205
2026-01-07 03:44:08.99	330.65	7.37	-37.4	-38.6	29.3	3.04e+01	48	31	101	524288	54	6253
2026-01-07 03:44:10.00	330.75	7.30	-37.5	-38.7	29.2	3.04e+01	61	31	101	524288	54	6287
2026-01-07 03:44:11.01	330.85	7.23	-37.3	-38.5	29.3	3.04e+01	60	31	101	524288	54	6202
2026-01-07 03:44:12.02	330.95	7.16	-37.4	-38.6	29.2	3.04e+01	48	31	101	524288	54	6256
2026-01-07 03:44:13.03	331.05	7.09	-37.4	-38.6	29.2	3.04e+01	60	31	101	524288	54	6252
2026-01-07 03:44:14.04	331.15	7.02	-37.6	-38.8	29.1	3.04e+01	58	31	101	524288	54	6365
2026-01-07 03:44:15.05	331.25	6.95	-37.5	-38.7	29.1	3.04e+01	59	31	101	524288	54	6289
2026-01-07 03:44:16.06	331.35	6.88	-37.6	-38.8	29.1	3.04e+01	59	31	101	524288	54	6404
2026-01-07 03:44:17.08	331.45	6.81	-37.5	-38.8	28.9	3.04e+01	45	31	101	524288	54	6359
2026-01-07 03:44:18.09	331.54	6.74	-37.8	-39.0	29.0	3.04e+01	54	31	101	524288	54	6542
2026-01-07 03:44:19.09	331.64	6.68	-37.6	-38.8	29.1	3.04e+01	60	31	101	524288	54	6370
2026-01-07 03:44:20.11	331.74	6.61	-37.5	-38.7	29.2	3.04e+01	45	31	101	524288	54	6308
2026-01-07 03:44:21.12	331.83	6.54	-37.6	-38.8	29.1	3.04e+01	58	31	101	524288	54	6381
2026-01-07 03:44:22.13	331.93	6.47	-37.7	-38.9	29.0	3.04e+01	58	31	101	524288	54	6470
2026-01-07 03:44:23.14	332.02	6.40	-37.8	-39.1	28.9	3.04e+01	58	31	101	524288	54	6598
2026-01-07 03:44:24.15	332.12	6.33	-37.8	-39.1	28.8	3.04e+01	58	31	101	524288	54	6598
2026-01-07 03:44:25.16	332.21	6.27	-37.8	-39.1	28.8	3.04e+01	57	31	101	524288	54	6581
2026-01-07 03:44:26.17	332.31	6.20	-37.8	-39.1	28.8	3.04e+01	54	31	101	524288	54	6593
2026-01-07 03:44:27.18	332.40	6.13	-37.8	-39.1	28.8	3.04e+01	58	31	101	524288	54	6598
2026-01-07 03:44:28.19	332.49	6.06	-37.9	-39.2	28.7	3.04e+01	45	31	101	524288	54	6650
2026-01-07 03:44:29.20	332.59	6.00	-37.9	-39.2	28.7	3.04e+01	57	31	101	524288	54	6666
2026-01-07 03:44:30.21	332.68	5.93	-37.8	-39.1	28.8	3.04e+01	48	31	101	524288	54	6575
2026-01-07 03:44:31.22	332.77	5.86	-37.9	-39.1	28.7	3.04e+01	60	31	101	524288	54	6624
2026-01-07 03:44:32.23	332.86	5.80	-37.9	-39.1	28.7	3.04e+01	58	31	101	524288	54	6606
2026-01-07 03:44:33.24	332.95	5.73	-37.9	-39.1	28.7	3.04e+01	51	31	101	524288	54	6621
2026-01-07 03:44:34.25	333.04	5.66	-37.9	-39.2	28.7	3.04e+01	60	31	101	524288	54	6665
2026-01-07 03:44:35.26	333.13	5.60	-37.9	-39.1	28.7	3.04e+01	60	31	101	524288	54	6619
2026-01-07 03:44:36.27	333.22	5.53	-38.0	-39.2	28.7	3.04e+01	60	31	101	524288	54	6691
2026-01-07 03:44:37.28	333.31	5.46	-37.9	-39.2	28.6	3.04e+01	56	31	101	524288	54	6659
2026-01-07 03:44:38.29	333.40	5.40	-38.0	-39.2	28.6	3.04e+01	48	31	101	524288	54	6712
2026-01-07 03:44:39.31	333.49	5.33	-38.0	-39.3	28.6	3.04e+01	59	31	101	524288	54	6744
2026-01-07 03:44:40.32	333.57	5.26	-38.1	-39.4	28.4	3.04e+01	64	31	101	524288	54	6821
2026-01-07 03:44:41.33	333.66	5.20	-38.0	-39.2	28.6	3.04e+01	44	31	101	524288	54	6726
2026-01-07 03:44:42.34	333.75	5.13	-38.2	-39.4	28.4	3.04e+01	60	31	101	524288	54	6866
2026-01-07 03:44:43.35	333.84	5.07	-38.1	-39.4	28.5	3.04e+01	58	31	101	524288	54	6807
2026-01-07 03:44:44.36	333.92	5.00	-38.3	-39.6	28.3	3.04e+01	56	31	101	524288	54	6996
2026-01-07 03:44:45.37	334.01	4.94	-38.1	-39.4	28.4	3.04e+01	59	31	101	524288	54	6838
2026-01-07 03:44:46.38	334.09	4.87	-38.4	-39.7	28.3	3.04e+01	52	31	101	524288	56	6297
2026-01-07 03:44:47.39	334.18	4.81	-38.1	-39.4	28.5	3.04e+01	58	31	101	524288	56	6090
