passes_logs/2026/01/07/R4.6S_Anadyr_2ch/R4.6S_Anadyr_2ch__20260107_153435_SUOMI_NPP_rec.log

#Pass ID: 20260107_153435_SUOMI NPP
#Satellite: SUOMI NPP
#Configuration: NPP
#almurnet v.1.7.20251203
#Start time: 2026-01-07 15:34:37

#Version: 2.2.20231116
#Station: R4.6S_Anadyr_2ch
#Location: 177.4865 lon 64.73178 lat
#TLE: 1 37849U 11061A   25350.92281687  .00000071  00000+0  54882-4 0  9996
#TLE: 2 37849  98.7777 288.2268 0002366 112.8570 247.2856 14.19515404732588

#Time	Az	El	Level	Level2	SNR	BER	BlckErr	Temp	State	Recorded	gain1	gain2
2026-01-07 15:34:37.36	22.52	0.11	-51.9	-64.6	3.5	1.52e+00	0	32	0	0	60	80375
2026-01-07 15:34:38.37	22.50	0.17	-51.9	-67.4	3.6	1.51e+00	0	33	104	0	60	113873
2026-01-07 15:34:39.38	22.48	0.23	-52.0	-67.4	3.6	1.51e+00	0	34	104	0	60	113767
2026-01-07 15:34:40.39	22.47	0.29	-52.0	-67.3	3.6	1.51e+00	0	34	104	0	60	113493
2026-01-07 15:34:41.40	22.45	0.35	-52.0	-67.4	3.6	1.51e+00	0	34	104	0	60	114407
2026-01-07 15:34:42.41	22.43	0.41	-52.0	-67.3	3.5	1.51e+00	0	33	104	0	60	113211
2026-01-07 15:34:43.42	22.41	0.47	-51.9	-67.3	3.6	1.51e+00	0	34	104	0	60	112472
2026-01-07 15:34:44.43	22.40	0.53	-51.8	-67.2	3.6	1.51e+00	0	34	104	0	60	112204
2026-01-07 15:34:45.45	22.38	0.60	-51.7	-67.1	3.6	1.51e+00	0	34	104	0	60	110337
2026-01-07 15:34:46.46	22.36	0.66	-51.6	-67.0	3.6	1.51e+00	0	34	104	0	60	108826
2026-01-07 15:34:47.47	22.34	0.72	-51.4	-66.8	3.6	1.51e+00	0	34	104	0	60	106979
2026-01-07 15:34:48.48	22.33	0.78	-51.3	-66.6	3.6	1.51e+00	0	34	104	0	60	104832
2026-01-07 15:34:49.49	22.31	0.84	-51.0	-66.4	3.6	1.51e+00	0	34	104	0	60	101788
2026-01-07 15:34:50.50	22.29	0.90	-50.7	-66.0	3.6	1.51e+00	0	34	104	0	60	97187
2026-01-07 15:34:51.51	22.27	0.96	-50.5	-65.9	3.6	1.51e+00	0	34	104	0	60	96316
2026-01-07 15:34:52.52	22.25	1.02	-50.5	-65.9	3.6	1.51e+00	0	34	104	0	60	95942
2026-01-07 15:34:53.53	22.23	1.09	-50.5	-65.9	3.6	1.51e+00	0	34	104	0	60	95762
2026-01-07 15:34:54.54	22.21	1.15	-50.5	-65.9	3.6	1.51e+00	0	34	104	0	60	95630
2026-01-07 15:34:55.55	22.20	1.21	-50.5	-65.9	3.6	1.51e+00	0	34	104	0	60	95892
2026-01-07 15:34:56.57	22.18	1.27	-50.5	-65.9	3.6	1.51e+00	0	34	104	0	60	96429
2026-01-07 15:34:57.58	22.16	1.34	-50.5	-65.9	3.6	1.51e+00	0	34	104	0	60	95834
2026-01-07 15:34:58.59	22.14	1.40	-50.5	-65.8	3.6	1.51e+00	0	34	104	0	60	95379
2026-01-07 15:34:59.60	22.12	1.46	-50.5	-65.7	3.6	1.51e+00	0	34	104	0	60	94128
2026-01-07 15:35:00.61	22.10	1.52	-50.5	-65.6	3.6	1.51e+00	0	34	104	0	60	93355
2026-01-07 15:35:01.62	22.08	1.59	-50.5	-65.5	3.6	1.51e+00	0	34	104	0	60	91734
2026-01-07 15:35:02.63	22.06	1.65	-50.5	-65.5	3.6	1.51e+00	0	34	104	0	60	92376
2026-01-07 15:35:03.64	22.04	1.71	-50.5	-65.4	3.6	1.51e+00	0	34	104	0	60	90321
2026-01-07 15:35:04.65	22.02	1.77	-50.5	-65.4	3.6	1.51e+00	0	34	104	0	60	91062
2026-01-07 15:35:05.66	22.00	1.84	-50.5	-65.6	3.6	1.51e+00	0	34	104	0	60	92784
2026-01-07 15:35:06.67	21.98	1.90	-50.5	-65.7	3.6	1.51e+00	0	34	104	0	60	93792
2026-01-07 15:35:07.69	21.96	1.97	-50.5	-65.8	3.6	1.51e+00	0	34	104	0	60	95000
2026-01-07 15:35:08.70	21.94	2.03	-50.5	-65.9	3.6	1.51e+00	0	34	104	0	60	96214
2026-01-07 15:35:09.71	21.92	2.09	-50.5	-65.9	3.6	1.51e+00	0	34	104	0	60	95744
2026-01-07 15:35:10.72	21.90	2.16	-50.5	-65.9	3.6	1.51e+00	0	34	104	0	60	95789
2026-01-07 15:35:11.73	21.88	2.22	-50.5	-65.7	3.6	1.51e+00	0	34	104	0	60	94509
2026-01-07 15:35:12.74	21.86	2.29	-50.5	-65.6	3.6	1.51e+00	0	34	104	0	60	92588
2026-01-07 15:35:13.75	21.84	2.35	-50.5	-65.3	3.6	1.51e+00	0	34	104	0	60	90019
2026-01-07 15:35:14.76	21.82	2.42	-50.5	-65.1	3.6	1.51e+00	0	34	104	0	60	88170
2026-01-07 15:35:15.77	21.80	2.48	-50.5	-65.0	3.6	1.51e+00	0	34	104	0	60	86420
2026-01-07 15:35:16.79	21.78	2.55	-50.5	-64.5	3.6	1.51e+00	0	34	104	0	60	81573
2026-01-07 15:35:17.80	21.76	2.61	-50.4	-64.2	3.6	1.51e+00	0	34	104	0	60	78959
2026-01-07 15:35:18.81	21.74	2.68	-50.5	-64.4	3.6	1.51e+00	0	34	104	0	60	80606
2026-01-07 15:35:19.82	21.72	2.74	-50.5	-64.5	3.6	1.51e+00	0	34	104	0	60	82026
2026-01-07 15:35:20.83	21.70	2.81	-50.5	-65.1	3.6	1.51e+00	0	34	104	0	60	87253
2026-01-07 15:35:21.84	21.67	2.87	-50.5	-65.6	3.6	1.51e+00	0	34	104	0	60	93220
2026-01-07 15:35:22.85	21.65	2.94	-50.5	-65.6	3.6	1.51e+00	0	34	104	0	60	93250
2026-01-07 15:35:23.86	21.63	3.00	-50.5	-64.3	3.6	1.51e+00	0	34	104	0	60	79970
2026-01-07 15:35:24.87	21.61	3.07	-50.3	-61.8	4.3	1.45e+00	33	34	104	0	60	59794
2026-01-07 15:35:25.88	21.59	3.14	-50.0	-58.2	5.8	6.54e-01	0	34	0	0	60	39413
2026-01-07 15:35:26.89	21.57	3.20	-49.7	-56.7	7.4	2.57e-01	58	34	102	1048576	60	33305
2026-01-07 15:35:27.90	21.54	3.27	-49.4	-55.4	8.8	4.63e-02	0	34	102	1048576	60	28671
2026-01-07 15:35:28.91	21.52	3.34	-49.1	-54.4	10.1	1.39e-02	0	34	102	1048576	60	25457
2026-01-07 15:35:29.93	21.50	3.40	-48.9	-53.8	10.7	3.77e-03	0	34	102	1048576	60	23971
2026-01-07 15:35:30.94	21.48	3.47	-48.7	-53.4	11.2	2.74e-03	0	34	102	1048576	60	22917
2026-01-07 15:35:31.95	21.45	3.54	-48.8	-53.7	10.7	1.55e-03	73	34	102	1048576	60	23680
2026-01-07 15:35:32.96	21.43	3.60	-48.9	-54.0	10.5	2.12e-03	0	34	102	1048576	60	24414
2026-01-07 15:35:33.97	21.41	3.67	-49.7	-56.3	7.6	2.11e-02	87	34	102	1048576	60	31674
2026-01-07 15:35:34.98	21.38	3.74	-50.5	-60.6	4.0	4.18e-01	53	34	102	1048576	60	52270
2026-01-07 15:35:35.99	21.36	3.81	-50.4	-65.1	3.6	4.09e-02	0	34	104	1048576	60	88114
2026-01-07 15:35:37.00	21.34	3.88	-43.7	-45.2	6.1	1.40e+00	0	34	104	1048576	60	8911
2026-01-07 15:35:38.01	21.32	3.94	-50.4	-64.0	3.6	8.69e-01	0	34	104	1048576	60	77328
2026-01-07 15:35:39.02	21.29	4.01	-44.5	-46.3	17.9	1.42e+00	0	34	104	1048576	60	10021
2026-01-07 15:35:40.04	21.27	4.08	-43.4	-44.8	20.1	0.00e+00	0	34	0	1048576	60	8465
2026-01-07 15:35:41.05	21.24	4.15	-43.1	-44.5	20.3	0.00e+00	86	34	0	1048576	60	8154
2026-01-07 15:35:42.06	21.22	4.22	-43.0	-44.3	20.4	0.00e+00	0	34	0	1048576	60	8032
2026-01-07 15:35:43.07	21.20	4.29	-42.7	-44.0	20.6	0.00e+00	0	34	0	1048576	60	7721
2026-01-07 15:35:44.08	21.17	4.36	-43.2	-44.5	20.3	0.00e+00	0	34	0	1048576	60	8222
2026-01-07 15:35:45.09	21.15	4.43	-43.0	-44.3	20.6	0.00e+00	0	34	0	1048576	60	8016
2026-01-07 15:35:46.10	21.12	4.50	-42.9	-44.2	20.7	0.00e+00	0	34	0	1048576	60	7889
2026-01-07 15:35:47.11	21.10	4.57	-42.8	-44.1	20.7	0.00e+00	0	34	0	1048576	60	7837
2026-01-07 15:35:48.12	21.07	4.64	-42.9	-44.1	20.7	0.00e+00	60	34	0	1048576	60	7861
2026-01-07 15:35:49.13	21.05	4.71	-42.9	-44.3	20.5	0.00e+00	0	34	0	1048576	60	7960
2026-01-07 15:35:50.15	21.02	4.78	-42.7	-44.0	20.8	0.00e+00	67	34	0	1048576	60	7728
2026-01-07 15:35:51.16	21.00	4.85	-43.0	-44.3	20.5	0.00e+00	0	34	0	1048576	60	7957
2026-01-07 15:35:52.17	20.97	4.92	-43.0	-44.4	20.6	0.00e+00	0	34	0	1048576	60	8054
2026-01-07 15:35:53.18	20.95	4.99	-42.4	-43.6	21.2	0.00e+00	86	34	0	1048576	60	7356
2026-01-07 15:35:54.19	20.92	5.06	-42.3	-43.5	21.2	0.00e+00	0	34	0	1048576	60	7285
2026-01-07 15:35:55.20	20.90	5.13	-42.4	-43.6	21.2	0.00e+00	84	34	0	1048576	60	7349
2026-01-07 15:35:56.21	20.87	5.20	-42.3	-43.5	21.3	0.00e+00	0	34	0	1048576	60	7262
2026-01-07 15:35:57.22	20.85	5.27	-42.4	-43.6	21.2	0.00e+00	92	34	0	1048576	60	7372
2026-01-07 15:35:58.23	20.82	5.34	-42.2	-43.4	21.4	0.00e+00	0	34	101	1048576	60	7179
2026-01-07 15:35:59.24	20.79	5.42	-42.2	-43.4	21.4	0.00e+00	0	34	101	1048576	60	7228
2026-01-07 15:36:00.25	20.77	5.49	-42.2	-43.4	21.4	0.00e+00	0	34	101	1048576	60	7183
2026-01-07 15:36:01.27	20.74	5.56	-42.3	-43.4	21.4	0.00e+00	0	34	101	1048576	60	7249
2026-01-07 15:36:02.28	20.71	5.63	-42.2	-43.4	21.5	0.00e+00	2	34	101	1048576	60	7204
2026-01-07 15:36:03.29	20.69	5.71	-42.2	-43.3	21.5	0.00e+00	0	34	101	1048576	60	7168
2026-01-07 15:36:04.30	20.66	5.78	-42.3	-43.4	21.4	0.00e+00	84	34	101	1048576	60	7249
2026-01-07 15:36:05.31	20.63	5.85	-42.4	-43.6	21.4	0.00e+00	0	34	101	1048576	60	7369
2026-01-07 15:36:06.32	20.60	5.92	-42.3	-43.5	21.4	0.00e+00	0	34	101	1048576	60	7282
2026-01-07 15:36:07.33	20.58	6.00	-42.4	-43.6	21.3	0.00e+00	0	34	101	1048576	60	7400
2026-01-07 15:36:08.34	20.55	6.07	-42.2	-43.4	21.5	0.00e+00	0	34	101	1048576	60	7172
2026-01-07 15:36:09.35	20.52	6.15	-42.2	-43.4	21.4	0.00e+00	0	34	101	1048576	60	7215
2026-01-07 15:36:10.36	20.49	6.22	-42.4	-43.5	21.5	0.00e+00	0	34	101	1048576	60	7329
2026-01-07 15:36:11.38	20.46	6.29	-42.3	-43.5	21.4	0.00e+00	90	34	101	1048576	60	7264
2026-01-07 15:36:12.39	20.44	6.37	-42.4	-43.6	21.5	0.00e+00	0	34	101	1048576	60	7420
2026-01-07 15:36:13.40	20.41	6.44	-42.1	-43.2	21.7	0.00e+00	0	34	101	1048576	60	7070
2026-01-07 15:36:14.41	20.38	6.52	-42.3	-43.5	21.4	0.00e+00	0	35	101	1048576	60	7284
2026-01-07 15:36:15.42	20.35	6.59	-42.2	-43.4	21.6	0.00e+00	0	35	101	1048576	60	7206
2026-01-07 15:36:16.43	20.32	6.67	-41.9	-43.0	21.9	0.00e+00	0	34	101	1048576	60	6871
2026-01-07 15:36:17.44	20.29	6.74	-41.8	-42.9	22.0	0.00e+00	0	34	101	1048576	60	6820
2026-01-07 15:36:18.45	20.26	6.82	-42.0	-43.1	21.9	0.00e+00	47	34	101	1048576	60	6984
2026-01-07 15:36:19.46	20.23	6.90	-42.0	-43.2	21.7	0.00e+00	0	35	101	1048576	60	7038
2026-01-07 15:36:20.48	20.20	6.97	-42.0	-43.1	21.7	0.00e+00	0	34	101	1048576	60	6954
2026-01-07 15:36:21.49	20.17	7.05	-41.9	-43.0	22.0	0.00e+00	0	34	101	1048576	60	6866
2026-01-07 15:36:22.50	20.14	7.13	-41.7	-42.8	22.1	0.00e+00	0	34	101	1048576	60	6705
2026-01-07 15:36:23.51	20.11	7.20	-41.9	-43.0	22.0	0.00e+00	0	34	101	1048576	60	6872
2026-01-07 15:36:24.52	20.08	7.28	-41.6	-42.7	22.2	0.00e+00	0	34	101	1048576	60	6668
2026-01-07 15:36:25.53	20.05	7.36	-41.7	-42.7	22.2	0.00e+00	47	35	101	1048576	60	6681
2026-01-07 15:36:26.54	20.02	7.43	-41.5	-42.6	22.2	0.00e+00	0	35	101	1048576	60	6572
2026-01-07 15:36:27.55	19.99	7.51	-41.7	-42.8	22.1	0.00e+00	0	35	101	1048576	60	6735
2026-01-07 15:36:28.56	19.96	7.59	-41.5	-42.6	22.2	0.00e+00	0	34	101	1048576	60	6569
2026-01-07 15:36:29.57	19.93	7.67	-41.6	-42.7	22.3	0.00e+00	0	34	101	1048576	60	6644
2026-01-07 15:36:30.58	19.90	7.75	-41.5	-42.5	22.3	0.00e+00	0	34	101	1048576	60	6520
2026-01-07 15:36:31.60	19.86	7.83	-41.4	-42.5	22.4	0.00e+00	0	35	101	1048576	60	6495
2026-01-07 15:36:32.61	19.83	7.90	-39.6	-42.4	19.2	7.51e-03	83	34	101	1048576	56	8107
2026-01-07 15:36:33.62	19.80	7.98	-39.2	-42.3	19.0	1.22e-02	0	35	101	1048576	56	8044
2026-01-07 15:36:34.63	19.77	8.06	-39.4	-42.3	19.1	1.75e-02	26	35	101	1048576	56	8004
2026-01-07 15:36:35.64	19.73	8.14	-39.5	-42.5	19.1	1.47e-02	0	34	101	1048576	56	8163
2026-01-07 15:36:36.65	19.70	8.22	-39.3	-42.3	18.9	1.37e-02	0	34	101	1048576	56	7955
2026-01-07 15:36:37.66	19.67	8.30	-39.3	-42.4	18.5	1.86e-02	0	35	101	1048576	56	8073
2026-01-07 15:36:38.67	19.64	8.38	-39.2	-42.4	18.8	1.76e-02	0	34	101	1048576	56	8060
2026-01-07 15:36:39.68	19.60	8.46	-39.3	-42.2	18.8	1.71e-02	59	34	101	1048576	56	7877
2026-01-07 15:36:40.69	19.57	8.54	-39.1	-42.2	18.2	1.84e-02	0	35	101	1048576	56	7917
2026-01-07 15:36:41.70	19.54	8.62	-39.1	-42.1	18.6	1.87e-02	75	34	101	1048576	56	7854
2026-01-07 15:36:42.71	19.50	8.71	-38.9	-42.2	18.7	1.59e-02	0	35	101	1048576	56	7875
2026-01-07 15:36:43.72	19.47	8.79	-38.9	-42.0	17.8	2.13e-02	0	34	101	1048576	56	7737
2026-01-07 15:36:44.73	19.43	8.87	-38.8	-42.0	18.0	2.47e-02	0	34	101	1048576	56	7736
2026-01-07 15:36:45.75	19.40	8.95	-38.9	-42.2	18.0	2.32e-02	0	35	101	1048576	56	7902
2026-01-07 15:36:46.76	19.36	9.03	-38.8	-42.0	18.6	1.44e-02	92	34	101	1048576	56	7707
2026-01-07 15:36:47.77	19.33	9.12	-38.8	-42.0	19.4	1.74e-02	0	34	101	1048576	56	7713
2026-01-07 15:36:48.78	19.29	9.20	-41.0	-42.0	22.8	0.00e+00	78	35	101	1048576	60	6141
2026-01-07 15:36:49.79	19.26	9.28	-40.8	-41.8	23.1	0.00e+00	0	34	101	1048576	60	5976
2026-01-07 15:36:50.80	19.22	9.37	-40.8	-41.8	23.1	0.00e+00	0	35	101	1048576	60	5965
2026-01-07 15:36:51.81	19.18	9.45	-40.9	-41.9	23.0	0.00e+00	0	34	101	1048576	60	6043
2026-01-07 15:36:52.82	19.15	9.53	-40.7	-41.7	23.1	0.00e+00	0	35	101	1048576	60	5915
2026-01-07 15:36:53.83	19.11	9.62	-40.6	-41.6	23.2	0.00e+00	90	34	101	1048576	60	5858
2026-01-07 15:36:54.84	19.08	9.70	-40.7	-41.7	23.1	0.00e+00	0	35	101	1048576	60	5926
2026-01-07 15:36:55.85	19.04	9.79	-40.5	-41.4	23.4	0.00e+00	87	34	101	1048576	60	5743
2026-01-07 15:36:56.86	19.00	9.87	-40.6	-41.5	23.2	0.00e+00	0	34	101	1048576	60	5803
2026-01-07 15:36:57.88	18.96	9.96	-40.6	-41.5	23.2	0.00e+00	0	34	101	1048576	60	5802
2026-01-07 15:36:58.89	18.93	10.04	-40.6	-41.5	23.0	0.00e+00	32	34	101	1048576	60	5815
2026-01-07 15:36:59.90	18.89	10.13	-40.4	-41.4	23.1	0.00e+00	0	35	101	1048576	60	5711
2026-01-07 15:37:00.91	18.85	10.21	-40.4	-41.4	22.9	0.00e+00	80	35	101	1048576	60	5699
2026-01-07 15:37:01.92	18.81	10.30	-40.4	-41.3	23.0	0.00e+00	0	35	101	1048576	60	5660
2026-01-07 15:37:02.93	18.77	10.39	-40.4	-41.3	23.5	0.00e+00	76	35	101	1048576	60	5695
2026-01-07 15:37:03.94	18.73	10.47	-40.4	-41.3	23.1	0.00e+00	0	35	101	1048576	60	5642
2026-01-07 15:37:04.95	18.69	10.56	-40.3	-41.2	23.2	0.00e+00	0	35	101	1048576	60	5616
2026-01-07 15:37:05.96	18.66	10.65	-40.4	-41.3	23.3	0.00e+00	0	35	101	1048576	60	5678
2026-01-07 15:37:06.97	18.62	10.74	-40.3	-41.2	23.4	0.00e+00	0	35	101	1048576	60	5591
2026-01-07 15:37:07.98	18.58	10.83	-40.3	-41.2	23.4	0.00e+00	1	35	101	1048576	60	5619
2026-01-07 15:37:08.99	18.54	10.91	-40.5	-41.5	23.4	0.00e+00	0	35	101	1048576	60	5784
2026-01-07 15:37:10.00	18.50	11.00	-40.5	-41.4	23.3	0.00e+00	92	35	101	1048576	60	5720
2026-01-07 15:37:11.01	18.45	11.09	-40.4	-41.3	23.5	0.00e+00	0	34	101	1048576	60	5644
2026-01-07 15:37:12.02	18.41	11.18	-40.4	-41.3	23.4	0.00e+00	44	35	101	1048576	60	5661
2026-01-07 15:37:13.03	18.37	11.27	-40.3	-41.2	23.6	0.00e+00	0	35	101	1048576	60	5603
2026-01-07 15:37:14.05	18.33	11.36	-40.0	-40.8	23.8	0.00e+00	0	35	101	1048576	58	6032
2026-01-07 15:37:15.06	18.29	11.45	-40.1	-41.0	23.8	0.00e+00	0	35	101	1048576	58	6112
2026-01-07 15:37:16.07	18.25	11.54	-40.0	-40.9	23.8	0.00e+00	0	35	101	1048576	58	6089
2026-01-07 15:37:17.08	18.20	11.63	-40.1	-41.0	23.7	0.00e+00	61	35	101	1048576	58	6152
2026-01-07 15:37:18.09	18.16	11.72	-40.1	-41.1	23.7	0.00e+00	0	35	101	1048576	58	6175
2026-01-07 15:37:19.10	18.12	11.82	-40.2	-41.1	23.8	0.00e+00	70	35	101	1048576	58	6207
2026-01-07 15:37:20.11	18.07	11.91	-40.1	-41.0	23.7	0.00e+00	0	35	101	1048576	58	6148
2026-01-07 15:37:21.12	18.03	12.00	-40.1	-41.0	23.7	0.00e+00	0	35	101	1048576	58	6159
2026-01-07 15:37:22.13	17.99	12.09	-40.2	-41.1	23.6	0.00e+00	0	35	101	1048576	58	6224
2026-01-07 15:37:23.14	17.94	12.19	-40.2	-41.1	23.6	0.00e+00	0	35	101	1048576	58	6207
2026-01-07 15:37:24.15	17.90	12.28	-40.1	-41.1	23.7	0.00e+00	65	34	101	1048576	58	6175
2026-01-07 15:37:25.16	17.85	12.37	-40.2	-41.1	23.6	0.00e+00	0	35	101	1048576	58	6227
2026-01-07 15:37:26.17	17.81	12.47	-40.1	-41.0	23.8	0.00e+00	60	35	101	1048576	58	6131
2026-01-07 15:37:27.19	17.76	12.56	-40.1	-41.0	23.8	0.00e+00	33	35	101	1048576	58	6108
2026-01-07 15:37:28.20	17.72	12.66	-40.2	-41.1	23.7	0.00e+00	0	35	101	1048576	58	6229
2026-01-07 15:37:29.21	17.67	12.75	-40.1	-41.1	23.7	0.00e+00	0	35	101	1048576	58	6177
2026-01-07 15:37:30.22	17.62	12.85	-40.1	-41.0	23.7	0.00e+00	0	35	101	1048576	58	6158
2026-01-07 15:37:31.23	17.58	12.94	-40.2	-41.1	23.6	0.00e+00	80	35	101	1048576	58	6231
2026-01-07 15:37:32.24	17.53	13.04	-40.3	-41.2	23.6	0.00e+00	0	35	101	1048576	58	6302
2026-01-07 15:37:33.25	17.48	13.13	-40.2	-41.1	23.7	0.00e+00	90	35	101	1048576	58	6244
2026-01-07 15:37:34.26	17.44	13.23	-40.1	-41.0	23.8	0.00e+00	32	35	101	1048576	58	6105
2026-01-07 15:37:35.27	17.39	13.33	-40.2	-41.1	23.7	0.00e+00	0	35	101	1048576	58	6192
2026-01-07 15:37:36.28	17.34	13.43	-40.0	-40.9	23.9	0.00e+00	0	35	101	1048576	58	6092
2026-01-07 15:37:37.29	17.29	13.52	-40.1	-41.0	23.8	0.00e+00	0	35	101	1048576	58	6123
2026-01-07 15:37:38.30	17.24	13.62	-40.2	-41.1	23.6	0.00e+00	92	35	101	1048576	58	6233
2026-01-07 15:37:39.31	17.19	13.72	-40.1	-41.0	23.7	0.00e+00	0	35	101	1048576	58	6170
2026-01-07 15:37:40.32	17.14	13.82	-40.1	-41.0	23.8	0.00e+00	92	35	101	1048576	58	6139
2026-01-07 15:37:41.33	17.09	13.92	-40.3	-41.2	23.7	0.00e+00	0	35	101	1048576	58	6270
2026-01-07 15:37:42.34	17.04	14.02	-40.2	-41.1	23.7	0.00e+00	0	35	101	1048576	58	6240
2026-01-07 15:37:43.35	16.99	14.12	-40.1	-41.0	23.8	0.00e+00	0	35	101	1048576	58	6139
2026-01-07 15:37:44.36	16.94	14.22	-40.2	-41.1	23.7	0.00e+00	0	35	101	1048576	58	6199
2026-01-07 15:37:45.38	16.89	14.32	-40.2	-41.1	23.8	0.00e+00	64	35	101	1048576	58	6200
2026-01-07 15:37:46.39	16.83	14.42	-40.2	-41.1	23.6	0.00e+00	0	35	101	1048576	58	6235
2026-01-07 15:37:47.40	16.78	14.52	-40.2	-41.1	23.8	0.00e+00	92	35	101	1048576	58	6174
2026-01-07 15:37:48.41	16.73	14.63	-40.3	-41.2	23.7	0.00e+00	0	35	101	1048576	58	6293
2026-01-07 15:37:49.42	16.68	14.73	-40.2	-41.1	23.8	0.00e+00	0	35	101	1048576	58	6218
2026-01-07 15:37:50.43	16.62	14.83	-40.4	-41.3	23.6	0.00e+00	0	34	101	1048576	58	6349
2026-01-07 15:37:51.44	16.57	14.93	-40.2	-41.1	23.7	0.00e+00	0	35	101	1048576	58	6175
2026-01-07 15:37:52.45	16.51	15.04	-40.1	-41.0	23.7	0.00e+00	63	35	101	1048576	58	6167
2026-01-07 15:37:53.46	16.46	15.14	-40.2	-41.1	23.8	0.00e+00	0	35	101	1048576	58	6210
2026-01-07 15:37:54.47	16.40	15.25	-40.3	-41.2	23.6	0.00e+00	78	35	101	1048576	58	6270
2026-01-07 15:37:55.49	16.35	15.35	-40.3	-41.2	23.7	0.00e+00	0	35	101	1048576	58	6262
2026-01-07 15:37:56.50	16.29	15.46	-40.1	-41.0	23.7	0.00e+00	0	35	101	1048576	58	6160
2026-01-07 15:37:57.51	16.23	15.56	-40.3	-41.2	23.8	0.00e+00	0	35	101	1048576	58	6264
2026-01-07 15:37:58.52	16.18	15.67	-40.2	-41.1	23.8	0.00e+00	0	35	101	1048576	58	6211
2026-01-07 15:37:59.53	16.12	15.78	-40.2	-41.1	23.6	0.00e+00	1	35	101	1048576	58	6231
2026-01-07 15:38:00.54	16.06	15.88	-40.1	-41.0	23.9	0.00e+00	0	35	101	1048576	58	6123
2026-01-07 15:38:01.55	16.00	15.99	-40.0	-40.9	23.9	0.00e+00	87	35	101	1048576	58	6076
2026-01-07 15:38:02.56	15.95	16.10	-40.0	-40.9	23.9	0.00e+00	0	35	101	1048576	58	6073
2026-01-07 15:38:03.57	15.89	16.21	-40.0	-40.9	23.9	0.00e+00	89	35	101	1048576	58	6079
2026-01-07 15:38:04.58	15.83	16.32	-39.9	-40.7	24.0	0.00e+00	0	35	101	1048576	58	5939
2026-01-07 15:38:05.60	15.77	16.43	-39.8	-40.7	24.1	0.00e+00	0	35	101	1048576	58	5947
2026-01-07 15:38:06.61	15.71	16.54	-39.8	-40.7	24.0	0.00e+00	0	35	101	1048576	58	5924
2026-01-07 15:38:07.62	15.64	16.65	-39.8	-40.6	24.1	0.00e+00	0	35	101	1048576	58	5859
2026-01-07 15:38:08.63	15.58	16.76	-39.9	-40.8	23.9	0.00e+00	84	35	101	1048576	58	5994
2026-01-07 15:38:09.64	15.52	16.87	-39.9	-40.8	24.0	0.00e+00	33	35	101	1048576	58	5993
2026-01-07 15:38:10.65	15.46	16.98	-40.0	-40.9	24.0	0.00e+00	90	35	101	1048576	58	6036
2026-01-07 15:38:11.66	15.40	17.09	-39.9	-40.8	24.1	0.00e+00	0	35	101	1048576	58	5968
2026-01-07 15:38:12.67	15.33	17.21	-40.0	-40.9	24.1	0.00e+00	0	35	101	1048576	58	6045
2026-01-07 15:38:13.68	15.27	17.32	-39.8	-40.7	24.1	0.00e+00	0	35	101	1048576	58	5931
2026-01-07 15:38:14.69	15.20	17.43	-39.7	-40.5	24.2	0.00e+00	0	35	101	1048576	58	5816
2026-01-07 15:38:15.70	15.14	17.55	-39.8	-40.7	24.2	0.00e+00	90	35	101	1048576	58	5897
2026-01-07 15:38:16.71	15.07	17.66	-39.8	-40.6	24.2	0.00e+00	0	35	101	1048576	58	5876
2026-01-07 15:38:17.73	15.01	17.78	-39.7	-40.5	24.2	0.00e+00	91	35	101	1048576	58	5827
2026-01-07 15:38:18.74	14.94	17.89	-39.6	-40.5	24.3	0.00e+00	0	35	101	1048576	58	5769
2026-01-07 15:38:19.75	14.87	18.01	-39.7	-40.6	24.2	0.00e+00	0	35	101	1048576	58	5835
2026-01-07 15:38:20.76	14.80	18.13	-39.7	-40.6	24.2	0.00e+00	0	35	101	1048576	58	5842
2026-01-07 15:38:21.77	14.74	18.24	-39.7	-40.6	24.2	0.00e+00	0	35	101	1048576	58	5843
2026-01-07 15:38:22.78	14.67	18.36	-39.8	-40.7	24.1	0.00e+00	2	35	101	1048576	58	5929
2026-01-07 15:38:23.79	14.60	18.48	-39.8	-40.7	24.2	0.00e+00	0	35	101	1048576	58	5921
2026-01-07 15:38:24.80	14.53	18.60	-39.7	-40.5	24.3	0.00e+00	66	35	101	1048576	58	5787
2026-01-07 15:38:25.81	14.46	18.72	-40.0	-40.8	24.1	0.00e+00	0	35	101	1048576	58	6007
2026-01-07 15:38:26.83	14.39	18.84	-39.7	-40.5	24.3	0.00e+00	0	35	101	1048576	58	5827
2026-01-07 15:38:27.84	14.31	18.96	-39.7	-40.5	24.3	0.00e+00	0	35	101	1048576	58	5789
2026-01-07 15:38:28.85	14.24	19.08	-40.0	-40.9	24.0	0.00e+00	0	35	101	1048576	58	6035
2026-01-07 15:38:29.86	14.17	19.20	-40.0	-40.9	24.0	0.00e+00	65	35	101	1048576	58	6060
2026-01-07 15:38:30.87	14.10	19.32	-40.0	-40.9	23.9	0.00e+00	0	35	101	1048576	58	6047
2026-01-07 15:38:31.88	14.02	19.45	-39.8	-40.7	24.1	0.00e+00	92	35	101	1048576	58	5923
2026-01-07 15:38:32.89	13.95	19.57	-40.2	-41.1	23.8	0.00e+00	0	35	101	1048576	58	6216
2026-01-07 15:38:33.90	13.87	19.69	-40.2	-41.1	23.9	0.00e+00	0	35	101	1048576	58	6175
2026-01-07 15:38:34.91	13.80	19.82	-40.0	-40.8	24.1	0.00e+00	0	35	101	1048576	58	6031
2026-01-07 15:38:35.92	13.72	19.94	-39.9	-40.8	24.1	0.00e+00	0	35	101	1048576	58	5999
2026-01-07 15:38:36.93	13.64	20.07	-40.0	-40.9	24.0	0.00e+00	5	35	101	1048576	58	6063
2026-01-07 15:38:37.95	13.56	20.19	-39.9	-40.8	24.0	0.00e+00	0	35	101	1048576	58	6004
2026-01-07 15:38:38.96	13.48	20.32	-40.1	-41.0	23.8	0.00e+00	90	35	101	1048576	58	6153
2026-01-07 15:38:39.97	13.40	20.45	-40.1	-41.0	24.0	0.00e+00	0	35	101	1048576	58	6130
2026-01-07 15:38:40.98	13.32	20.57	-40.2	-41.1	23.8	0.00e+00	0	35	101	1048576	58	6210
2026-01-07 15:38:41.99	13.24	20.70	-40.5	-41.4	23.6	0.00e+00	0	35	101	1048576	58	6443
2026-01-07 15:38:43.00	13.16	20.83	-40.6	-41.6	23.6	0.00e+00	0	35	101	1048576	58	6547
2026-01-07 15:38:44.01	13.08	20.96	-40.5	-41.4	23.7	0.00e+00	68	35	101	1048576	58	6457
2026-01-07 15:38:45.02	13.00	21.09	-40.7	-41.7	23.5	0.00e+00	0	35	101	1048576	58	6620
2026-01-07 15:38:46.03	12.91	21.22	-40.6	-41.5	23.5	0.00e+00	91	35	101	1048576	58	6511
2026-01-07 15:38:47.05	12.83	21.35	-40.7	-41.6	23.6	0.00e+00	0	35	101	1048576	58	6559
2026-01-07 15:38:48.06	12.74	21.49	-40.2	-41.1	23.8	0.00e+00	92	35	101	1048576	58	6234
2026-01-07 15:38:49.07	12.66	21.62	-40.3	-41.2	23.8	0.00e+00	0	35	101	1048576	58	6297
2026-01-07 15:38:50.08	12.57	21.75	-40.4	-41.2	23.7	0.00e+00	0	35	101	1048576	58	6316
2026-01-07 15:38:51.09	12.48	21.89	-40.4	-41.2	23.8	0.00e+00	41	35	101	1048576	58	6314
2026-01-07 15:38:52.10	12.39	22.02	-40.2	-41.1	23.9	0.00e+00	0	35	101	1048576	58	6223
2026-01-07 15:38:53.11	12.30	22.15	-40.2	-41.1	24.0	0.00e+00	61	35	101	1048576	58	6219
2026-01-07 15:38:54.12	12.21	22.29	-40.4	-41.3	23.9	0.00e+00	0	35	101	1048576	58	6318
2026-01-07 15:38:55.13	12.12	22.43	-40.3	-41.1	23.9	0.00e+00	83	35	101	1048576	58	6231
2026-01-07 15:38:56.14	12.03	22.56	-40.0	-40.8	24.1	0.00e+00	0	35	101	1048576	58	6003
2026-01-07 15:38:57.15	11.94	22.70	-40.3	-41.2	23.9	0.00e+00	0	35	101	1048576	58	6256
2026-01-07 15:38:58.17	11.85	22.84	-40.3	-41.1	23.9	0.00e+00	7	35	101	1048576	58	6238
2026-01-07 15:38:59.18	11.75	22.98	-40.3	-41.1	24.0	0.00e+00	0	35	101	1048576	58	6224
2026-01-07 15:39:00.19	11.66	23.12	-40.3	-41.2	23.8	0.00e+00	19	35	101	1048576	58	6274
2026-01-07 15:39:01.20	11.56	23.26	-40.4	-41.3	23.8	0.00e+00	0	35	101	1048576	58	6333
2026-01-07 15:39:02.21	11.46	23.40	-40.6	-41.5	23.6	0.00e+00	92	35	101	1048576	58	6535
2026-01-07 15:39:03.22	11.37	23.54	-40.7	-41.7	23.6	0.00e+00	0	35	101	1048576	58	6618
2026-01-07 15:39:04.23	11.27	23.68	-41.1	-42.1	23.2	0.00e+00	0	35	101	1048576	58	6928
2026-01-07 15:39:05.24	11.17	23.83	-41.1	-42.1	23.2	0.00e+00	27	35	101	1048576	60	6192
2026-01-07 15:39:06.25	11.07	23.97	-41.2	-42.1	23.2	0.00e+00	0	35	101	1048576	60	6231
2026-01-07 15:39:07.26	10.97	24.11	-41.3	-42.3	23.0	0.00e+00	0	35	101	1048576	60	6341
2026-01-07 15:39:08.28	10.86	24.26	-41.4	-42.4	23.2	0.00e+00	28	35	101	1048576	60	6416
2026-01-07 15:39:09.29	10.76	24.41	-41.0	-41.9	23.3	0.00e+00	49	35	101	1048576	60	6099
2026-01-07 15:39:10.30	10.65	24.55	-41.3	-42.3	23.2	0.00e+00	0	35	101	1048576	60	6346
2026-01-07 15:39:11.31	10.55	24.70	-41.4	-42.4	23.0	0.00e+00	0	35	101	1048576	60	6413
2026-01-07 15:39:12.32	10.44	24.85	-41.6	-42.7	22.8	0.00e+00	0	35	101	1048576	60	6619
2026-01-07 15:39:13.33	10.34	25.00	-41.5	-42.5	22.9	0.00e+00	0	35	101	1048576	60	6519
2026-01-07 15:39:14.34	10.23	25.15	-41.5	-42.5	23.0	0.00e+00	84	35	101	1048576	60	6473
2026-01-07 15:39:15.35	10.12	25.30	-41.7	-42.7	22.8	0.00e+00	0	35	101	1048576	60	6633
2026-01-07 15:39:16.36	10.01	25.45	-41.4	-42.4	23.0	0.00e+00	50	35	101	1048576	60	6436
2026-01-07 15:39:17.37	9.89	25.60	-41.3	-42.3	22.8	0.00e+00	0	35	101	1048576	60	6335
2026-01-07 15:39:18.38	9.78	25.75	-41.8	-42.8	22.5	0.00e+00	0	35	101	1048576	60	6736
2026-01-07 15:39:19.39	9.67	25.90	-41.8	-42.8	22.6	0.00e+00	0	35	101	1048576	60	6748
2026-01-07 15:39:20.40	9.55	26.06	-42.0	-43.0	22.8	0.00e+00	0	35	101	1048576	60	6887
2026-01-07 15:39:21.42	9.43	26.21	-42.1	-43.2	22.5	0.00e+00	77	35	101	1048576	60	7056
2026-01-07 15:39:22.43	9.32	26.37	-42.1	-43.2	22.4	0.00e+00	0	35	101	1048576	60	7036
2026-01-07 15:39:23.44	9.20	26.53	-42.5	-43.6	22.0	0.00e+00	67	35	101	1048576	60	7342
2026-01-07 15:39:24.45	9.08	26.68	-42.4	-43.5	22.2	0.00e+00	0	35	101	1048576	60	7305
2026-01-07 15:39:25.46	8.96	26.84	-42.7	-43.8	22.0	0.00e+00	0	35	101	1048576	60	7534
2026-01-07 15:39:26.47	8.83	27.00	-42.6	-43.8	22.0	0.00e+00	0	35	101	1048576	60	7517
2026-01-07 15:39:27.48	8.71	27.16	-42.5	-43.6	22.3	0.00e+00	0	35	101	1048576	60	7400
2026-01-07 15:39:28.49	8.59	27.32	-42.4	-43.4	22.2	0.00e+00	65	35	101	1048576	60	7244
2026-01-07 15:39:29.50	8.46	27.48	-42.3	-43.3	22.4	0.00e+00	0	35	101	1048576	60	7145
2026-01-07 15:39:30.51	8.33	27.64	-41.8	-42.8	22.6	0.00e+00	90	35	101	1048576	60	6735
2026-01-07 15:39:31.52	8.20	27.80	-42.0	-43.0	22.8	0.00e+00	0	35	101	1048576	60	6885
2026-01-07 15:39:32.54	8.07	27.97	-42.2	-43.2	22.4	0.00e+00	87	35	101	1048576	60	7036
2026-01-07 15:39:33.55	7.94	28.13	-42.1	-43.1	22.5	0.00e+00	0	35	101	1048576	60	6953
2026-01-07 15:39:34.56	7.81	28.29	-42.1	-43.1	22.4	0.00e+00	0	35	101	1048576	60	6993
2026-01-07 15:39:35.57	7.67	28.46	-42.3	-43.3	22.3	0.00e+00	4	35	101	1048576	60	7160
2026-01-07 15:39:36.58	7.54	28.63	-42.7	-43.8	21.8	0.00e+00	0	35	101	1048576	60	7541
2026-01-07 15:39:37.59	7.40	28.79	-43.1	-44.3	21.5	0.00e+00	15	35	101	1048576	60	7986
2026-01-07 15:39:38.60	7.26	28.96	-43.1	-44.3	21.5	0.00e+00	0	35	101	1048576	60	7966
2026-01-07 15:39:39.61	7.12	29.13	-43.3	-44.5	21.3	0.00e+00	89	35	101	1048576	60	8159
2026-01-07 15:39:40.62	6.98	29.30	-43.3	-44.5	21.4	0.00e+00	0	35	101	1048576	60	8162
2026-01-07 15:39:41.63	6.83	29.47	-42.9	-44.1	21.9	0.00e+00	0	35	101	1048576	60	7775
2026-01-07 15:39:42.64	6.69	29.64	-42.9	-44.1	21.6	0.00e+00	0	35	101	1048576	60	7775
2026-01-07 15:39:43.65	6.54	29.81	-42.5	-43.5	22.5	0.00e+00	0	35	101	1048576	60	7310
2026-01-07 15:39:44.66	6.39	29.99	-42.4	-43.5	22.1	0.00e+00	4	35	101	1048576	60	7258
2026-01-07 15:39:45.67	6.24	30.16	-42.1	-43.2	22.4	0.00e+00	0	35	101	1048576	60	7020
2026-01-07 15:39:46.69	6.09	30.34	-41.9	-42.9	22.6	0.00e+00	90	35	101	1048576	60	6845
2026-01-07 15:39:47.70	5.94	30.51	-42.1	-43.1	22.5	0.00e+00	0	35	101	1048576	60	6956
2026-01-07 15:39:48.71	5.78	30.69	-41.9	-42.9	22.8	0.00e+00	0	35	101	1048576	60	6787
2026-01-07 15:39:49.72	5.63	30.87	-41.9	-43.0	22.7	0.00e+00	0	35	101	1048576	60	6859
2026-01-07 15:39:50.73	5.47	31.04	-41.9	-42.9	22.8	0.00e+00	0	35	101	1048576	60	6787
2026-01-07 15:39:51.74	5.31	31.22	-41.2	-42.1	23.4	0.00e+00	82	35	101	1048576	60	6200
2026-01-07 15:39:52.75	5.15	31.40	-41.9	-43.0	22.6	0.00e+00	0	35	101	1048576	60	6856
2026-01-07 15:39:53.76	4.98	31.58	-41.8	-42.8	22.7	0.00e+00	78	35	101	1048576	60	6719
2026-01-07 15:39:54.78	4.82	31.76	-41.5	-42.5	22.8	0.00e+00	0	35	101	1048576	60	6497
2026-01-07 15:39:55.79	4.65	31.95	-42.1	-43.1	22.2	0.00e+00	0	35	101	1048576	60	6982
2026-01-07 15:39:56.80	4.48	32.13	-42.2	-43.3	22.2	0.00e+00	0	35	101	1048576	60	7131
2026-01-07 15:39:57.81	4.31	32.31	-42.6	-43.6	22.0	0.00e+00	0	35	101	1048576	60	7422
2026-01-07 15:39:58.82	4.13	32.50	-43.1	-44.3	21.5	0.00e+00	4	35	101	1048576	60	7977
2026-01-07 15:39:59.83	3.96	32.68	-42.4	-43.5	22.2	0.00e+00	0	35	101	1048576	60	7280
2026-01-07 15:40:00.84	3.78	32.87	-43.1	-44.2	21.6	0.00e+00	91	35	101	1048576	60	7912
2026-01-07 15:40:01.85	3.60	33.06	-43.5	-44.6	21.3	0.00e+00	0	35	101	1048576	60	8315
2026-01-07 15:40:02.86	3.42	33.24	-43.4	-44.5	21.3	0.00e+00	0	35	101	1048576	60	8216
2026-01-07 15:40:03.87	3.23	33.43	-43.0	-44.1	21.6	0.00e+00	0	35	101	1048576	60	7818
2026-01-07 15:40:04.88	3.05	33.62	-43.3	-44.5	21.4	0.00e+00	0	35	101	1048576	60	8141
2026-01-07 15:40:05.89	2.86	33.81	-42.8	-43.9	21.9	0.00e+00	5	35	101	1048576	60	7605
2026-01-07 15:40:06.90	2.67	34.00	-42.6	-43.7	22.0	0.00e+00	0	35	101	1048576	60	7437
2026-01-07 15:40:07.92	2.47	34.20	-42.6	-43.7	22.0	0.00e+00	61	35	101	1048576	60	7425
2026-01-07 15:40:08.93	2.28	34.39	-43.3	-44.5	21.2	0.00e+00	0	35	101	1048576	60	8183
2026-01-07 15:40:09.94	2.08	34.58	-43.8	-45.0	20.9	0.00e+00	0	35	101	1048576	60	8664
2026-01-07 15:40:10.95	1.88	34.78	-43.9	-45.2	20.7	0.00e+00	0	35	101	1048576	60	8924
2026-01-07 15:40:11.96	1.68	34.97	-43.8	-45.0	20.9	0.00e+00	0	35	101	1048576	60	8720
2026-01-07 15:40:12.97	1.47	35.17	-44.2	-45.6	20.4	0.00e+00	7	35	101	1048576	60	9322
2026-01-07 15:40:13.98	1.26	35.37	-44.4	-45.8	20.2	0.00e+00	0	35	101	1048576	60	9552
2026-01-07 15:40:14.99	1.05	35.57	-44.7	-46.2	19.9	0.00e+00	92	35	101	1048576	60	9903
2026-01-07 15:40:16.00	0.84	35.76	-45.0	-46.6	19.4	0.00e+00	0	35	101	1048576	60	10431
2026-01-07 15:40:17.02	0.62	35.96	-45.9	-47.8	18.1	0.00e+00	82	35	101	1048576	60	11908
2026-01-07 15:40:18.03	0.41	36.16	-45.8	-47.6	18.6	0.00e+00	0	35	101	1048576	60	11717
2026-01-07 15:40:19.04	0.18	36.37	-46.0	-47.9	18.2	0.00e+00	0	35	101	1048576	60	12162
2026-01-07 15:40:20.05	359.96	36.57	-45.7	-47.5	18.8	0.00e+00	0	35	101	1048576	60	11609
2026-01-07 15:40:21.06	359.73	36.77	-44.5	-45.9	20.2	0.00e+00	0	35	101	1048576	60	9668
2026-01-07 15:40:22.07	359.50	36.97	-44.4	-45.7	20.1	0.00e+00	92	35	101	1048576	60	9448
2026-01-07 15:40:23.08	359.27	37.18	-43.9	-45.1	20.6	0.00e+00	0	35	101	1048576	60	8811
2026-01-07 15:40:24.09	359.04	37.38	-43.5	-44.7	21.2	0.00e+00	61	35	101	1048576	60	8352
2026-01-07 15:40:25.10	358.80	37.59	-43.2	-44.3	21.4	0.00e+00	0	35	101	1048576	60	8010
2026-01-07 15:40:26.11	358.56	37.79	-43.1	-44.2	21.7	0.00e+00	0	35	101	1048576	60	7895
2026-01-07 15:40:27.12	358.31	38.00	-43.3	-44.4	21.5	0.00e+00	0	35	101	1048576	60	8088
2026-01-07 15:40:28.13	358.06	38.21	-43.0	-44.1	21.6	0.00e+00	0	35	101	1048576	60	7812
2026-01-07 15:40:29.14	357.81	38.41	-43.3	-44.5	21.3	0.00e+00	72	35	101	1048576	60	8158
2026-01-07 15:40:30.15	357.56	38.62	-42.7	-43.8	21.9	0.00e+00	0	35	101	1048576	60	7562
2026-01-07 15:40:31.17	357.30	38.83	-42.5	-43.6	22.2	0.00e+00	73	35	101	1048576	60	7382
2026-01-07 15:40:32.18	357.04	39.04	-42.9	-44.0	21.7	0.00e+00	6	35	101	1048576	60	7729
2026-01-07 15:40:33.19	356.77	39.25	-43.4	-44.6	21.3	0.00e+00	0	35	101	1048576	60	8249
2026-01-07 15:40:34.20	356.51	39.46	-44.0	-45.3	20.6	0.00e+00	0	35	101	1048576	60	8927
2026-01-07 15:40:35.21	356.24	39.67	-44.2	-45.6	20.3	0.00e+00	0	35	101	1048576	60	9274
2026-01-07 15:40:36.22	355.96	39.89	-44.7	-46.1	19.9	0.00e+00	91	35	101	1048576	60	9877
2026-01-07 15:40:37.23	355.68	40.10	-45.4	-47.1	19.1	0.00e+00	0	35	101	1048576	60	10997
2026-01-07 15:40:38.24	355.40	40.31	-45.3	-46.9	19.0	0.00e+00	91	35	101	1048576	60	10845
2026-01-07 15:40:39.25	355.11	40.53	-46.2	-48.1	17.9	0.00e+00	0	35	101	1048576	60	12319
2026-01-07 15:40:40.27	354.82	40.74	-46.5	-48.5	17.6	0.00e+00	0	35	101	1048576	60	12966
2026-01-07 15:40:41.28	354.53	40.96	-47.2	-49.6	16.6	0.00e+00	0	35	101	1048576	60	14769
2026-01-07 15:40:42.29	354.23	41.17	-46.7	-48.9	17.3	0.00e+00	0	35	101	1048576	60	13512
2026-01-07 15:40:43.30	353.93	41.39	-45.2	-46.7	19.4	0.00e+00	5	35	101	1048576	60	10524
2026-01-07 15:40:44.31	353.62	41.60	-45.4	-47.0	18.9	0.00e+00	0	35	101	1048576	60	10968
2026-01-07 15:40:45.32	353.31	41.82	-44.8	-46.3	19.6	0.00e+00	92	35	101	1048576	60	10081
2026-01-07 15:40:46.33	353.00	42.03	-45.0	-46.5	19.6	0.00e+00	0	35	101	1048576	60	10327
2026-01-07 15:40:47.34	352.68	42.25	-44.6	-46.1	20.0	0.00e+00	0	35	101	1048576	60	9787
2026-01-07 15:40:48.35	352.35	42.47	-44.6	-46.1	20.2	0.00e+00	0	35	101	1048576	60	9825
2026-01-07 15:40:49.37	352.02	42.68	-43.7	-44.9	21.0	0.00e+00	0	35	101	1048576	60	8594
2026-01-07 15:40:50.38	351.69	42.90	-43.4	-44.6	21.2	0.00e+00	8	35	101	1048576	60	8319
2026-01-07 15:40:51.39	351.35	43.12	-43.2	-44.3	21.4	0.00e+00	0	35	101	1048576	60	8023
2026-01-07 15:40:52.40	351.01	43.34	-43.1	-44.3	21.6	0.00e+00	90	35	101	1048576	60	7956
2026-01-07 15:40:53.41	350.67	43.55	-42.9	-44.1	21.6	0.00e+00	0	35	101	1048576	60	7788
2026-01-07 15:40:54.42	350.32	43.77	-42.3	-43.4	22.4	0.00e+00	92	35	101	1048576	60	7206
2026-01-07 15:40:55.43	349.96	43.99	-42.4	-43.4	22.1	0.00e+00	0	35	101	1048576	60	7242
2026-01-07 15:40:56.44	349.60	44.21	-42.5	-43.5	22.2	0.00e+00	0	35	101	1048576	60	7293
2026-01-07 15:40:57.45	349.23	44.42	-43.0	-44.1	21.7	0.00e+00	0	35	101	1048576	60	7843
2026-01-07 15:40:58.46	348.86	44.64	-43.9	-45.2	20.9	0.00e+00	0	35	101	1048576	60	8884
2026-01-07 15:40:59.47	348.49	44.86	-44.2	-45.5	20.6	0.00e+00	60	35	101	1048576	60	9144
2026-01-07 15:41:00.48	348.11	45.07	-44.1	-45.3	20.8	0.00e+00	0	35	101	1048576	60	8999
2026-01-07 15:41:01.49	347.72	45.29	-43.6	-44.8	21.0	0.00e+00	65	35	101	1048576	60	8442
2026-01-07 15:41:02.50	347.33	45.51	-43.0	-44.1	21.8	0.00e+00	0	35	101	1048576	60	7780
2026-01-07 15:41:03.51	346.93	45.72	-42.4	-43.4	22.3	0.00e+00	0	35	101	1048576	60	7250
2026-01-07 15:41:04.52	346.53	45.94	-41.9	-42.9	22.8	0.00e+00	0	35	101	1048576	60	6780
2026-01-07 15:41:05.53	346.12	46.15	-41.8	-42.8	22.7	0.00e+00	0	35	101	1048576	60	6699
2026-01-07 15:41:06.55	345.70	46.37	-42.0	-43.0	22.7	0.00e+00	92	35	101	1048576	60	6862
2026-01-07 15:41:07.56	345.28	46.58	-42.3	-43.3	22.2	0.00e+00	0	35	101	1048576	60	7118
2026-01-07 15:41:08.57	344.86	46.80	-43.2	-44.3	21.6	0.00e+00	92	35	101	1048576	60	8043
2026-01-07 15:41:09.58	344.43	47.01	-42.9	-43.9	21.9	0.00e+00	0	35	101	1048576	60	7681
2026-01-07 15:41:10.59	343.99	47.22	-42.7	-43.7	22.1	0.00e+00	0	35	101	1048576	60	7489
2026-01-07 15:41:11.60	343.55	47.43	-42.1	-43.1	22.5	0.00e+00	0	35	101	1048576	60	6991
2026-01-07 15:41:12.61	343.10	47.64	-41.7	-42.7	22.9	0.00e+00	0	35	101	1048576	60	6629
2026-01-07 15:41:13.62	342.64	47.85	-42.3	-43.4	22.5	0.00e+00	6	35	101	1048576	60	7200
2026-01-07 15:41:14.63	342.18	48.06	-42.8	-44.0	21.8	0.00e+00	26	35	101	1048576	60	7693
2026-01-07 15:41:15.64	341.71	48.27	-42.8	-44.0	21.9	0.00e+00	80	35	101	1048576	60	7756
2026-01-07 15:41:16.65	341.24	48.47	-42.8	-44.0	21.8	0.00e+00	0	35	101	1048576	60	7733
2026-01-07 15:41:17.67	340.75	48.68	-42.8	-44.0	21.9	0.00e+00	0	35	101	1048576	60	7727
2026-01-07 15:41:18.68	340.27	48.88	-42.7	-43.8	22.1	0.00e+00	0	35	101	1048576	60	7562
2026-01-07 15:41:19.69	339.77	49.09	-42.9	-44.0	21.8	0.00e+00	0	35	101	1048576	60	7759
2026-01-07 15:41:20.70	339.27	49.29	-43.1	-44.2	21.6	0.00e+00	9	35	101	1048576	60	7934
2026-01-07 15:41:21.71	338.77	49.49	-43.3	-44.5	21.5	0.00e+00	0	35	101	1048576	60	8219
2026-01-07 15:41:22.72	338.25	49.68	-42.2	-43.2	22.9	0.00e+00	92	35	101	1048576	60	7073
2026-01-07 15:41:23.73	337.73	49.88	-40.7	-41.6	23.7	0.00e+00	0	35	101	1048576	60	5866
2026-01-07 15:41:24.74	337.20	50.08	-40.1	-40.9	24.1	0.00e+00	0	35	101	1048576	58	6076
2026-01-07 15:41:25.75	336.67	50.27	-39.8	-40.6	24.4	0.00e+00	0	35	101	1048576	58	5891
2026-01-07 15:41:26.76	336.13	50.46	-40.3	-41.2	24.0	0.00e+00	0	35	101	1048576	58	6264
2026-01-07 15:41:27.78	335.58	50.65	-40.4	-41.3	23.8	0.00e+00	8	35	101	1048576	58	6330
2026-01-07 15:41:28.79	335.02	50.84	-40.2	-41.1	24.0	0.00e+00	0	35	101	1048576	58	6176
2026-01-07 15:41:29.80	334.46	51.02	-39.7	-40.6	24.5	0.00e+00	92	35	101	1048576	58	5835
2026-01-07 15:41:30.81	333.89	51.20	-39.6	-40.4	24.4	0.00e+00	0	35	101	1048576	58	5761
2026-01-07 15:41:31.82	333.32	51.38	-39.9	-40.7	24.3	0.00e+00	1	35	101	1048576	58	5930
2026-01-07 15:41:32.83	332.73	51.56	-40.4	-41.3	23.7	0.00e+00	0	35	101	1048576	58	6326
2026-01-07 15:41:33.84	332.14	51.74	-40.9	-41.9	23.4	0.00e+00	0	35	101	1048576	58	6803
2026-01-07 15:41:34.85	331.55	51.91	-41.0	-41.9	23.2	0.00e+00	25	35	101	1048576	58	6821
2026-01-07 15:41:35.87	330.94	52.08	-41.2	-42.2	22.8	0.00e+00	0	35	101	1048576	60	6296
2026-01-07 15:41:36.88	330.33	52.25	-41.7	-42.7	22.9	0.00e+00	92	35	101	1048576	60	6680
2026-01-07 15:41:37.89	329.71	52.41	-41.2	-42.2	23.2	0.00e+00	0	35	101	1048576	60	6301
2026-01-07 15:41:38.90	329.09	52.57	-41.2	-42.2	23.2	0.00e+00	61	35	101	1048576	60	6264
2026-01-07 15:41:39.91	328.45	52.73	-41.4	-42.5	23.0	0.00e+00	0	35	101	1048576	60	6528
2026-01-07 15:41:40.92	327.82	52.89	-41.2	-42.2	23.4	0.00e+00	0	35	101	1048576	60	6301
2026-01-07 15:41:41.93	327.17	53.04	-40.6	-41.6	23.7	0.00e+00	10	35	101	1048576	60	5847
2026-01-07 15:41:42.94	326.52	53.19	-40.7	-41.6	23.7	0.00e+00	0	35	101	1048576	60	5842
2026-01-07 15:41:43.95	325.86	53.33	-40.5	-41.4	23.9	0.00e+00	64	35	101	1048576	60	5718
2026-01-07 15:41:44.96	325.20	53.48	-39.6	-40.4	24.5	0.00e+00	0	35	101	1048576	58	5698
2026-01-07 15:41:45.97	324.53	53.61	-39.4	-40.1	24.7	0.00e+00	92	35	101	1048576	58	5564
2026-01-07 15:41:46.99	323.84	53.75	-39.7	-40.5	24.4	0.00e+00	0	35	101	1048576	58	5788
2026-01-07 15:41:48.00	323.16	53.88	-40.6	-41.5	23.6	0.00e+00	0	35	101	1048576	58	6524
2026-01-07 15:41:49.01	322.47	54.01	-40.7	-41.7	23.6	0.00e+00	0	35	101	1048576	58	6621
2026-01-07 15:41:50.02	321.77	54.13	-40.7	-41.6	23.8	0.00e+00	0	35	101	1048576	58	6567
2026-01-07 15:41:51.03	321.07	54.25	-41.3	-42.3	23.3	0.00e+00	92	35	101	1048576	60	6388
2026-01-07 15:41:52.04	320.36	54.36	-40.8	-41.7	23.7	0.00e+00	0	35	101	1048576	60	5947
2026-01-07 15:41:53.05	319.65	54.48	-39.8	-40.7	24.2	0.00e+00	92	35	101	1048576	58	5931
2026-01-07 15:41:54.06	318.93	54.58	-39.6	-40.5	24.5	0.00e+00	0	35	101	1048576	58	5775
2026-01-07 15:41:55.07	318.21	54.68	-40.1	-40.9	24.1	0.00e+00	0	35	101	1048576	58	6099
2026-01-07 15:41:56.08	317.48	54.78	-40.0	-40.9	23.9	0.00e+00	0	35	101	1048576	58	6080
2026-01-07 15:41:57.09	316.74	54.88	-40.5	-41.5	23.7	0.00e+00	0	35	101	1048576	58	6481
2026-01-07 15:41:58.10	316.00	54.96	-40.9	-41.9	23.4	0.00e+00	0	35	101	1048576	58	6788
2026-01-07 15:41:59.11	315.26	55.05	-40.4	-41.4	23.6	0.00e+00	0	35	101	1048576	58	6419
2026-01-07 15:42:00.12	314.51	55.13	-39.2	-40.0	24.8	0.00e+00	67	35	101	1048576	58	5450
2026-01-07 15:42:01.14	313.75	55.20	-38.6	-39.3	25.3	0.00e+00	0	35	101	1048576	56	5677
2026-01-07 15:42:02.15	313.00	55.27	-38.3	-39.1	25.2	0.00e+00	0	35	101	1048576	56	5549
2026-01-07 15:42:03.16	312.24	55.34	-38.3	-39.1	25.4	0.00e+00	10	35	101	1048576	56	5540
2026-01-07 15:42:04.17	311.47	55.40	-38.3	-39.1	25.4	0.00e+00	0	35	101	1048576	56	5546
2026-01-07 15:42:05.18	310.71	55.45	-39.2	-40.1	24.6	0.00e+00	92	35	101	1048576	56	6217
2026-01-07 15:42:06.19	309.94	55.50	-39.5	-40.4	24.5	0.00e+00	11	35	101	1048576	56	6451
2026-01-07 15:42:07.20	309.17	55.55	-38.8	-39.6	24.9	0.00e+00	92	35	101	1048576	56	5887
2026-01-07 15:42:08.21	308.39	55.59	-38.6	-39.4	25.2	0.00e+00	0	35	101	1048576	56	5705
2026-01-07 15:42:09.22	307.62	55.62	-37.9	-38.6	25.7	0.00e+00	0	35	101	1048576	54	5891
2026-01-07 15:42:10.24	306.83	55.65	-37.4	-38.1	26.1	0.00e+00	22	35	101	1048576	52	6186
2026-01-07 15:42:11.25	306.05	55.67	-37.8	-38.6	25.6	0.00e+00	0	35	101	1048576	52	6581
2026-01-07 15:42:12.26	305.27	55.69	-38.5	-39.3	25.2	0.00e+00	9	35	101	1048576	54	6334
2026-01-07 15:42:13.27	304.49	55.71	-38.5	-39.3	25.3	0.00e+00	0	35	101	1048576	54	6373
2026-01-07 15:42:14.28	303.71	55.71	-38.5	-39.3	25.3	0.00e+00	91	35	101	1048576	54	6328
2026-01-07 15:42:15.29	302.93	55.72	-38.1	-38.8	25.5	0.00e+00	0	35	101	1048576	54	6019
2026-01-07 15:42:16.30	302.15	55.72	-37.5	-38.2	26.0	0.00e+00	0	35	101	1048576	54	5575
2026-01-07 15:42:17.31	301.36	55.71	-37.5	-38.2	25.8	0.00e+00	0	35	101	1048576	54	5593
2026-01-07 15:42:18.32	300.58	55.70	-38.6	-39.4	25.2	0.00e+00	0	35	101	1048576	54	6399
2026-01-07 15:42:19.33	299.80	55.68	-38.6	-39.3	25.1	0.00e+00	9	35	101	1048576	54	6387
2026-01-07 15:42:20.35	299.01	55.65	-38.4	-39.1	25.3	0.00e+00	0	35	101	1048576	54	6237
2026-01-07 15:42:21.36	298.24	55.63	-38.2	-39.0	25.4	0.00e+00	90	35	101	1048576	54	6126
2026-01-07 15:42:22.37	297.46	55.59	-38.1	-38.8	25.2	0.00e+00	0	35	101	1048576	54	5997
2026-01-07 15:42:23.38	296.68	55.55	-38.1	-38.9	25.3	0.00e+00	75	35	101	1048576	54	6046
2026-01-07 15:42:24.39	295.91	55.51	-39.0	-39.8	24.9	0.00e+00	0	35	101	1048576	54	6723
2026-01-07 15:42:25.40	295.14	55.46	-39.3	-40.2	24.7	0.00e+00	0	35	101	1048576	56	6274
2026-01-07 15:42:26.41	294.38	55.41	-38.9	-39.7	25.0	0.00e+00	57	35	101	1048576	56	5943
2026-01-07 15:42:27.42	293.61	55.35	-38.4	-39.1	25.3	0.00e+00	0	35	101	1048576	56	5561
2026-01-07 15:42:28.43	292.85	55.28	-37.9	-38.6	25.6	0.00e+00	90	35	101	1048576	54	5883
2026-01-07 15:42:29.44	292.09	55.22	-37.2	-37.9	26.1	0.00e+00	0	35	101	1048576	54	5431
2026-01-07 15:42:30.45	291.34	55.14	-37.0	-37.7	26.2	0.00e+00	39	35	101	1048576	52	5916
2026-01-07 15:42:31.46	290.59	55.06	-37.5	-38.3	25.9	0.00e+00	0	35	101	1048576	52	6323
2026-01-07 15:42:32.47	289.85	54.98	-37.7	-38.5	25.6	0.00e+00	0	35	101	1048576	52	6496
2026-01-07 15:42:33.48	289.11	54.89	-37.6	-38.3	25.6	0.00e+00	2	35	101	1048576	52	6386
2026-01-07 15:42:34.49	288.37	54.80	-37.8	-38.5	25.8	0.00e+00	0	35	101	1048576	52	6534
2026-01-07 15:42:35.51	287.63	54.70	-37.3	-38.0	26.1	0.00e+00	0	35	101	1048576	52	6122
2026-01-07 15:42:36.52	286.91	54.60	-36.9	-37.6	26.2	0.00e+00	0	35	101	1048576	52	5832
2026-01-07 15:42:37.53	286.19	54.50	-37.2	-37.9	26.1	0.00e+00	86	35	101	1048576	52	6101
2026-01-07 15:42:38.54	285.47	54.39	-37.6	-38.3	25.9	0.00e+00	0	35	101	1048576	52	6376
2026-01-07 15:42:39.55	284.76	54.27	-37.4	-38.1	25.9	0.00e+00	0	35	101	1048576	52	6214
2026-01-07 15:42:40.56	284.06	54.15	-38.2	-38.9	25.5	0.00e+00	4	35	101	1048576	52	6841
2026-01-07 15:42:41.57	283.36	54.03	-38.4	-39.2	25.3	0.00e+00	0	35	101	1048576	54	6261
2026-01-07 15:42:42.58	282.67	53.90	-38.7	-39.5	25.1	0.00e+00	90	35	101	1048576	54	6499
2026-01-07 15:42:43.59	281.98	53.77	-38.2	-38.9	25.2	0.00e+00	0	35	101	1048576	54	6100
2026-01-07 15:42:44.60	281.30	53.64	-38.4	-39.2	25.2	0.00e+00	92	35	101	1048576	54	6260
2026-01-07 15:42:45.61	280.63	53.50	-38.9	-39.7	24.9	0.00e+00	0	35	101	1048576	54	6676
2026-01-07 15:42:46.62	279.96	53.36	-40.0	-40.9	24.2	0.00e+00	0	35	101	1048576	56	6831
2026-01-07 15:42:47.63	279.30	53.22	-40.4	-41.3	23.9	0.00e+00	0	35	101	1048576	58	6323
2026-01-07 15:42:48.65	278.64	53.07	-40.3	-41.1	24.0	0.00e+00	0	35	101	1048576	58	6225
2026-01-07 15:42:49.66	278.00	52.91	-40.9	-41.8	23.5	0.00e+00	92	35	101	1048576	58	6724
2026-01-07 15:42:50.67	277.36	52.76	-41.1	-42.0	23.7	0.00e+00	0	35	101	1048576	60	6110
2026-01-07 15:42:51.68	276.72	52.60	-40.3	-41.1	24.0	0.00e+00	91	35	101	1048576	60	5529
2026-01-07 15:42:52.69	276.10	52.44	-40.9	-41.8	23.6	0.00e+00	0	35	101	1048576	60	5971
2026-01-07 15:42:53.70	275.48	52.28	-41.2	-42.1	23.2	0.00e+00	0	35	101	1048576	60	6227
2026-01-07 15:42:54.71	274.87	52.11	-41.7	-42.7	22.9	0.00e+00	0	35	101	1048576	60	6646
2026-01-07 15:42:55.72	274.26	51.94	-42.2	-43.2	22.5	0.00e+00	0	35	101	1048576	60	7059
2026-01-07 15:42:56.73	273.66	51.77	-41.9	-42.9	22.8	0.00e+00	6	35	101	1048576	60	6811
2026-01-07 15:42:57.74	273.07	51.59	-41.2	-42.1	23.4	0.00e+00	0	35	101	1048576	60	6237
2026-01-07 15:42:58.75	272.48	51.41	-40.4	-41.3	23.8	0.00e+00	67	35	101	1048576	60	5661
2026-01-07 15:42:59.76	271.91	51.23	-41.1	-42.1	23.4	0.00e+00	0	35	101	1048576	60	6185
2026-01-07 15:43:00.77	271.34	51.05	-41.5	-42.5	23.0	0.00e+00	0	35	101	1048576	60	6489
2026-01-07 15:43:01.78	270.77	50.87	-42.2	-43.2	22.5	0.00e+00	0	35	101	1048576	60	7083
2026-01-07 15:43:02.80	270.21	50.68	-42.3	-43.3	22.3	0.00e+00	0	35	101	1048576	60	7168
2026-01-07 15:43:03.81	269.66	50.49	-41.0	-41.9	23.4	0.00e+00	6	35	101	1048576	60	6051
2026-01-07 15:43:04.82	269.12	50.30	-40.6	-41.5	23.9	0.00e+00	0	35	101	1048576	60	5792
2026-01-07 15:43:05.83	268.58	50.11	-41.1	-42.0	23.3	0.00e+00	91	35	101	1048576	60	6169
2026-01-07 15:43:06.84	268.05	49.91	-41.4	-42.3	23.2	0.00e+00	0	35	101	1048576	60	6363
2026-01-07 15:43:07.85	267.53	49.71	-41.3	-42.2	23.4	0.00e+00	0	35	101	1048576	60	6269
2026-01-07 15:43:08.86	267.01	49.52	-40.9	-41.8	23.6	0.00e+00	0	35	101	1048576	60	6011
2026-01-07 15:43:09.87	266.50	49.32	-41.3	-42.2	23.1	0.00e+00	0	35	101	1048576	60	6282
2026-01-07 15:43:10.88	266.00	49.12	-41.5	-42.4	23.0	0.00e+00	58	35	101	1048576	60	6435
2026-01-07 15:43:11.89	265.51	48.91	-42.0	-43.0	22.5	0.00e+00	0	35	101	1048576	60	6896
2026-01-07 15:43:12.90	265.02	48.71	-42.3	-43.4	22.6	0.00e+00	20	35	101	1048576	60	7184
2026-01-07 15:43:13.92	264.53	48.50	-42.1	-43.0	22.6	0.00e+00	0	35	101	1048576	60	6925
2026-01-07 15:43:14.93	264.05	48.30	-41.2	-42.1	23.4	0.00e+00	92	35	101	1048576	60	6187
2026-01-07 15:43:15.94	263.58	48.09	-42.1	-43.1	22.5	0.00e+00	0	35	101	1048576	60	6996
2026-01-07 15:43:16.95	263.12	47.88	-43.0	-44.2	21.7	0.00e+00	0	35	101	1048576	60	7889
2026-01-07 15:43:17.96	262.66	47.67	-44.5	-46.0	20.1	0.00e+00	7	35	101	1048576	60	9695
2026-01-07 15:43:18.97	262.21	47.46	-46.2	-48.1	18.0	0.00e+00	0	35	101	1048576	60	12404
2026-01-07 15:43:19.98	261.77	47.25	-47.7	-50.3	16.1	0.00e+00	5	35	101	1048576	60	15935
2026-01-07 15:43:20.99	261.33	47.04	-46.9	-48.9	17.5	0.00e+00	0	35	101	1048576	60	13638
2026-01-07 15:43:22.00	260.89	46.82	-46.7	-48.8	17.3	0.00e+00	92	35	101	1048576	60	13419
2026-01-07 15:43:23.01	260.47	46.61	-46.3	-48.1	18.3	0.00e+00	0	35	101	1048576	60	12439
2026-01-07 15:43:24.03	260.04	46.39	-45.3	-46.9	19.5	0.00e+00	0	35	101	1048576	60	10748
2026-01-07 15:43:25.04	259.63	46.18	-44.5	-45.9	20.2	0.00e+00	0	35	101	1048576	60	9577
2026-01-07 15:43:26.05	259.22	45.96	-43.4	-44.5	21.3	0.00e+00	0	35	101	1048576	60	8227
2026-01-07 15:43:27.06	258.81	45.75	-43.5	-44.7	21.3	0.00e+00	66	35	101	1048576	60	8368
2026-01-07 15:43:28.07	258.41	45.53	-42.8	-43.9	22.0	0.00e+00	0	35	101	1048576	60	7623
2026-01-07 15:43:29.08	258.02	45.31	-42.6	-43.6	22.2	0.00e+00	30	35	101	1048576	60	7372
2026-01-07 15:43:30.09	257.63	45.10	-41.6	-42.5	23.1	0.00e+00	0	35	101	1048576	60	6515
2026-01-07 15:43:31.10	257.25	44.88	-40.7	-41.5	23.8	0.00e+00	0	35	101	1048576	60	5826
2026-01-07 15:43:32.12	256.87	44.66	-40.9	-41.7	23.7	0.00e+00	0	35	101	1048576	60	5939
2026-01-07 15:43:33.13	256.50	44.44	-41.5	-42.4	23.0	0.00e+00	0	35	101	1048576	60	6413
2026-01-07 15:43:34.14	256.13	44.22	-42.7	-43.7	22.1	0.00e+00	65	35	101	1048576	60	7460
2026-01-07 15:43:35.15	255.77	44.01	-43.6	-44.7	21.0	0.00e+00	0	35	101	1048576	60	8422
2026-01-07 15:43:36.16	255.41	43.79	-43.6	-44.7	21.2	0.00e+00	66	35	101	1048576	60	8410
2026-01-07 15:43:37.17	255.06	43.57	-43.2	-44.3	21.6	0.00e+00	5	35	101	1048576	60	8024
2026-01-07 15:43:38.18	254.71	43.35	-43.7	-44.9	21.3	0.00e+00	0	35	101	1048576	60	8548
2026-01-07 15:43:39.19	254.37	43.13	-44.4	-45.8	20.2	0.00e+00	0	35	101	1048576	60	9479
2026-01-07 15:43:40.20	254.03	42.92	-45.3	-46.9	19.2	0.00e+00	0	35	101	1048576	60	10786
2026-01-07 15:43:41.22	253.69	42.70	-45.2	-46.6	20.0	0.00e+00	85	35	101	1048576	60	10477
2026-01-07 15:43:42.23	253.36	42.48	-44.6	-45.9	20.0	0.00e+00	0	35	101	1048576	60	9653
2026-01-07 15:43:43.24	253.04	42.26	-44.2	-45.5	20.5	0.00e+00	50	35	101	1048576	60	9230
2026-01-07 15:43:44.25	252.72	42.04	-44.1	-45.3	20.7	0.00e+00	0	35	101	1048576	60	8996
2026-01-07 15:43:45.26	252.40	41.83	-43.5	-44.6	21.3	0.00e+00	51	35	101	1048576	60	8303
2026-01-07 15:43:46.27	252.09	41.61	-43.0	-44.0	21.8	0.00e+00	0	35	101	1048576	60	7769
2026-01-07 15:43:47.28	251.78	41.40	-43.4	-44.6	21.5	0.00e+00	0	35	101	1048576	60	8239
2026-01-07 15:43:48.29	251.48	41.18	-44.1	-45.3	20.9	0.00e+00	77	35	101	1048576	60	9018
2026-01-07 15:43:49.30	251.18	40.96	-44.3	-45.6	20.2	0.00e+00	0	35	101	1048576	60	9242
2026-01-07 15:43:50.31	250.88	40.75	-44.9	-46.4	19.8	0.00e+00	92	35	101	1048576	60	10161
2026-01-07 15:43:51.33	250.59	40.53	-44.9	-46.4	19.8	0.00e+00	0	35	101	1048576	60	10137
2026-01-07 15:43:52.34	250.30	40.32	-44.8	-46.3	19.8	0.00e+00	71	35	101	1048576	60	10080
2026-01-07 15:43:53.35	250.02	40.11	-44.8	-46.3	19.9	0.00e+00	0	35	101	1048576	60	10068
2026-01-07 15:43:54.36	249.74	39.89	-44.3	-45.7	20.4	0.00e+00	0	35	101	1048576	60	9422
2026-01-07 15:43:55.37	249.46	39.68	-43.7	-45.0	21.0	0.00e+00	6	35	101	1048576	60	8631
2026-01-07 15:43:56.38	249.19	39.47	-43.0	-44.2	21.7	0.00e+00	0	35	101	1048576	60	7887
2026-01-07 15:43:57.39	248.92	39.26	-43.0	-44.1	21.8	0.00e+00	92	35	101	1048576	60	7856
2026-01-07 15:43:58.40	248.66	39.04	-43.3	-44.5	21.4	0.00e+00	0	35	101	1048576	60	8168
2026-01-07 15:43:59.41	248.39	38.83	-43.1	-44.3	21.5	0.00e+00	84	35	101	1048576	60	7982
2026-01-07 15:44:00.42	248.14	38.62	-42.8	-43.9	21.9	0.00e+00	0	35	101	1048576	60	7622
2026-01-07 15:44:01.43	247.88	38.42	-42.6	-43.7	22.0	0.00e+00	0	35	101	1048576	60	7423
2026-01-07 15:44:02.44	247.63	38.21	-43.0	-44.1	21.5	0.00e+00	0	35	101	1048576	60	7796
2026-01-07 15:44:03.45	247.38	38.00	-43.4	-44.6	21.4	0.00e+00	0	35	101	1048576	60	8299
2026-01-07 15:44:04.46	247.13	37.79	-43.8	-45.0	21.0	0.00e+00	91	35	101	1048576	60	8716
2026-01-07 15:44:05.47	246.89	37.59	-43.6	-44.8	21.2	0.00e+00	0	35	101	1048576	60	8519
2026-01-07 15:44:06.48	246.65	37.38	-44.1	-45.4	20.4	0.00e+00	87	35	101	1048576	60	9121
2026-01-07 15:44:07.49	246.41	37.17	-44.5	-45.8	20.2	0.00e+00	0	35	101	1048576	60	9498
2026-01-07 15:44:08.50	246.18	36.97	-44.8	-46.2	19.8	0.00e+00	0	35	101	1048576	60	10006
2026-01-07 15:44:09.51	245.95	36.77	-44.5	-45.9	20.4	0.00e+00	0	35	101	1048576	60	9584
2026-01-07 15:44:10.52	245.72	36.56	-44.2	-45.5	20.6	0.00e+00	0	35	101	1048576	60	9162
2026-01-07 15:44:11.53	245.50	36.36	-42.9	-44.0	21.9	0.00e+00	12	35	101	1048576	60	7716
2026-01-07 15:44:12.55	245.27	36.16	-43.1	-44.3	21.6	0.00e+00	0	35	101	1048576	60	7975
2026-01-07 15:44:13.56	245.05	35.96	-43.1	-44.2	21.6	0.00e+00	84	35	101	1048576	60	7947
2026-01-07 15:44:14.57	244.84	35.76	-43.6	-44.8	20.8	0.00e+00	0	35	101	1048576	60	8463
2026-01-07 15:44:15.58	244.62	35.56	-43.5	-44.7	21.2	0.00e+00	0	35	101	1048576	60	8394
2026-01-07 15:44:16.59	244.41	35.36	-44.2	-45.5	20.4	0.00e+00	0	35	101	1048576	60	9186
2026-01-07 15:44:17.60	244.20	35.16	-45.2	-46.8	19.3	0.00e+00	1	35	101	1048576	60	10629
2026-01-07 15:44:18.61	244.00	34.96	-44.8	-46.2	19.9	0.00e+00	2	35	101	1048576	60	10002
2026-01-07 15:44:19.62	243.79	34.77	-44.1	-45.3	20.7	0.00e+00	31	35	101	1048576	60	9021
2026-01-07 15:44:20.63	243.59	34.57	-43.1	-44.2	21.7	0.00e+00	91	35	101	1048576	60	7945
2026-01-07 15:44:21.64	243.39	34.38	-42.5	-43.5	22.4	0.00e+00	0	35	101	1048576	60	7301
2026-01-07 15:44:22.65	243.20	34.19	-41.7	-42.6	23.0	0.00e+00	0	35	101	1048576	60	6590
2026-01-07 15:44:23.67	243.00	33.99	-41.9	-42.9	22.8	0.00e+00	0	35	101	1048576	60	6774
2026-01-07 15:44:24.68	242.81	33.80	-42.1	-43.0	22.5	0.00e+00	0	35	101	1048576	60	6915
2026-01-07 15:44:25.69	242.62	33.61	-42.8	-43.9	21.9	0.00e+00	78	35	101	1048576	60	7616
2026-01-07 15:44:26.70	242.43	33.42	-42.7	-43.7	22.0	0.00e+00	0	35	101	1048576	60	7484
2026-01-07 15:44:27.71	242.25	33.23	-43.0	-44.0	21.7	0.00e+00	91	35	101	1048576	60	7765
2026-01-07 15:44:28.72	242.07	33.04	-42.9	-44.0	21.8	0.00e+00	0	35	101	1048576	60	7747
2026-01-07 15:44:29.73	241.89	32.85	-43.2	-44.3	21.6	0.00e+00	0	35	101	1048576	60	7973
2026-01-07 15:44:30.74	241.71	32.66	-43.1	-44.2	21.6	0.00e+00	0	35	101	1048576	60	7935
2026-01-07 15:44:31.75	241.53	32.48	-43.6	-44.8	21.2	0.00e+00	0	35	101	1048576	60	8453
2026-01-07 15:44:32.77	241.35	32.29	-43.7	-45.0	21.0	0.00e+00	15	35	101	1048576	60	8702
2026-01-07 15:44:33.78	241.18	32.11	-43.5	-44.8	21.2	0.00e+00	0	35	101	1048576	60	8459
2026-01-07 15:44:34.79	241.01	31.92	-44.0	-45.3	20.8	0.00e+00	92	35	101	1048576	60	8998
2026-01-07 15:44:35.80	240.84	31.74	-44.6	-46.1	20.0	0.00e+00	0	35	101	1048576	60	9831
2026-01-07 15:44:36.81	240.68	31.56	-44.8	-46.4	19.6	0.00e+00	92	35	101	1048576	60	10147
2026-01-07 15:44:37.82	240.51	31.38	-45.0	-46.6	19.4	0.00e+00	0	35	101	1048576	60	10410
2026-01-07 15:44:38.83	240.35	31.20	-45.1	-46.8	19.3	0.00e+00	0	35	101	1048576	60	10640
2026-01-07 15:44:39.84	240.19	31.02	-44.3	-45.7	20.3	0.00e+00	5	35	101	1048576	60	9427
2026-01-07 15:44:40.85	240.03	30.84	-43.7	-45.0	20.9	0.00e+00	0	35	101	1048576	60	8693
2026-01-07 15:44:41.86	239.87	30.66	-43.3	-44.5	21.4	0.00e+00	62	35	101	1048576	60	8143
2026-01-07 15:44:42.88	239.71	30.48	-42.5	-43.6	22.0	0.00e+00	0	35	101	1048576	60	7365
2026-01-07 15:44:43.89	239.56	30.31	-42.0	-43.0	22.6	0.00e+00	91	35	101	1048576	60	6892
2026-01-07 15:44:44.90	239.41	30.13	-42.0	-43.0	22.4	0.00e+00	0	35	101	1048576	60	6916
2026-01-07 15:44:45.91	239.26	29.96	-41.7	-42.7	22.8	0.00e+00	0	35	101	1048576	60	6670
2026-01-07 15:44:46.92	239.11	29.78	-42.0	-43.0	22.7	0.00e+00	0	35	101	1048576	60	6884
2026-01-07 15:44:47.93	238.96	29.61	-42.2	-43.3	22.4	0.00e+00	0	35	101	1048576	60	7119
2026-01-07 15:44:48.94	238.81	29.44	-42.3	-43.3	22.3	0.00e+00	44	35	101	1048576	60	7145
2026-01-07 15:44:49.95	238.67	29.27	-42.4	-43.5	22.2	0.00e+00	0	35	101	1048576	60	7299
2026-01-07 15:44:50.97	238.53	29.10	-42.4	-43.4	22.2	0.00e+00	91	35	101	1048576	60	7245
2026-01-07 15:44:51.98	238.38	28.93	-43.0	-44.1	21.7	0.00e+00	0	35	101	1048576	60	7831
2026-01-07 15:44:52.99	238.25	28.76	-43.0	-44.1	21.8	0.00e+00	0	35	101	1048576	60	7820
2026-01-07 15:44:54.00	238.11	28.59	-43.1	-44.2	21.7	0.00e+00	0	35	101	1048576	60	7885
2026-01-07 15:44:55.01	237.97	28.42	-42.8	-43.9	21.9	0.00e+00	0	35	101	1048576	60	7621
2026-01-07 15:44:56.02	237.84	28.26	-42.3	-43.3	22.4	0.00e+00	92	35	101	1048576	60	7148
2026-01-07 15:44:57.03	237.70	28.09	-41.9	-42.9	22.7	0.00e+00	0	35	101	1048576	60	6786
2026-01-07 15:44:58.04	237.57	27.93	-41.8	-42.7	22.9	0.00e+00	61	35	101	1048576	60	6649
2026-01-07 15:44:59.05	237.44	27.77	-41.3	-42.2	23.4	0.00e+00	0	35	101	1048576	60	6254
2026-01-07 15:45:00.07	237.31	27.60	-41.3	-42.2	23.2	0.00e+00	0	35	101	1048576	60	6248
2026-01-07 15:45:01.08	237.18	27.44	-41.1	-42.0	23.2	0.00e+00	0	35	101	1048576	60	6136
2026-01-07 15:45:02.09	237.05	27.28	-41.4	-42.3	23.0	0.00e+00	0	35	101	1048576	60	6359
2026-01-07 15:45:03.10	236.93	27.12	-41.7	-42.6	22.9	0.00e+00	63	35	101	1048576	60	6589
2026-01-07 15:45:04.11	236.80	26.96	-41.4	-42.4	23.1	0.00e+00	0	35	101	1048576	60	6411
2026-01-07 15:45:05.12	236.68	26.80	-41.4	-42.4	23.0	0.00e+00	91	35	101	1048576	60	6411
2026-01-07 15:45:06.13	236.56	26.64	-41.5	-42.4	22.9	0.00e+00	0	35	101	1048576	60	6442
2026-01-07 15:45:07.14	236.44	26.48	-41.6	-42.5	22.9	0.00e+00	0	35	101	1048576	60	6538
2026-01-07 15:45:08.15	236.32	26.33	-41.7	-42.7	22.8	0.00e+00	0	35	101	1048576	60	6655
2026-01-07 15:45:09.16	236.20	26.17	-41.8	-42.8	22.7	0.00e+00	0	35	101	1048576	60	6729
2026-01-07 15:45:10.18	236.08	26.01	-42.1	-43.1	22.5	0.00e+00	1	35	101	1048576	60	6953
2026-01-07 15:45:11.19	235.96	25.86	-42.2	-43.2	22.5	0.00e+00	3	35	101	1048576	60	7073
2026-01-07 15:45:12.20	235.85	25.71	-42.2	-43.2	22.5	0.00e+00	92	35	101	1048576	60	7035
2026-01-07 15:45:13.21	235.74	25.55	-42.0	-43.0	22.6	0.00e+00	0	35	101	1048576	60	6852
2026-01-07 15:45:14.22	235.62	25.40	-41.7	-42.7	22.7	0.00e+00	91	35	101	1048576	60	6665
2026-01-07 15:45:15.23	235.51	25.25	-41.5	-42.5	22.9	0.00e+00	0	35	101	1048576	60	6491
2026-01-07 15:45:16.24	235.40	25.10	-40.9	-41.8	23.5	0.00e+00	0	35	101	1048576	60	6015
2026-01-07 15:45:17.25	235.29	24.95	-40.6	-41.5	23.7	0.00e+00	3	35	101	1048576	60	5774
2026-01-07 15:45:18.26	235.18	24.80	-40.9	-41.8	23.6	0.00e+00	0	35	101	1048576	60	5994
2026-01-07 15:45:19.28	235.08	24.65	-41.0	-41.9	23.4	0.00e+00	91	35	101	1048576	60	6087
2026-01-07 15:45:20.28	234.97	24.50	-41.3	-42.2	23.3	0.00e+00	0	35	101	1048576	60	6291
2026-01-07 15:45:21.29	234.87	24.36	-41.4	-42.3	23.1	0.00e+00	72	35	101	1048576	60	6357
2026-01-07 15:45:22.31	234.76	24.21	-41.6	-42.5	23.0	0.00e+00	0	35	101	1048576	60	6505
2026-01-07 15:45:23.32	234.66	24.06	-41.4	-42.4	23.0	0.00e+00	0	35	101	1048576	60	6399
2026-01-07 15:45:24.33	234.55	23.92	-41.5	-42.4	23.0	0.00e+00	0	35	101	1048576	60	6437
2026-01-07 15:45:25.34	234.45	23.77	-41.3	-42.2	23.1	0.00e+00	0	35	101	1048576	60	6264
2026-01-07 15:45:26.35	234.35	23.63	-41.2	-42.1	23.2	0.00e+00	73	35	101	1048576	60	6215
2026-01-07 15:45:27.36	234.25	23.49	-41.5	-42.5	22.9	0.00e+00	0	35	101	1048576	60	6466
2026-01-07 15:45:28.37	234.16	23.35	-41.7	-42.6	22.9	0.00e+00	92	35	101	1048576	60	6607
2026-01-07 15:45:29.38	234.06	23.21	-42.1	-43.1	22.4	0.00e+00	0	35	101	1048576	60	6960
2026-01-07 15:45:30.39	233.96	23.06	-42.5	-43.6	21.9	0.00e+00	0	35	101	1048576	60	7393
2026-01-07 15:45:31.40	233.87	22.92	-42.9	-44.0	21.6	0.00e+00	0	35	101	1048576	60	7736
2026-01-07 15:45:32.41	233.77	22.79	-43.1	-44.3	21.4	0.00e+00	0	35	101	1048576	60	7955
2026-01-07 15:45:33.43	233.68	22.65	-43.4	-44.6	21.3	0.00e+00	3	35	101	1048576	60	8306
2026-01-07 15:45:34.44	233.58	22.51	-43.2	-44.4	21.4	0.00e+00	0	35	101	1048576	60	8114
2026-01-07 15:45:35.45	233.49	22.37	-43.2	-44.3	21.4	0.00e+00	92	35	101	1048576	60	8018
2026-01-07 15:45:36.46	233.40	22.23	-43.0	-44.1	21.7	0.00e+00	0	35	101	1048576	60	7828
2026-01-07 15:45:37.47	233.31	22.10	-42.9	-44.0	21.7	0.00e+00	0	35	101	1048576	60	7760
2026-01-07 15:45:38.48	233.22	21.96	-42.3	-43.4	22.2	0.00e+00	0	35	101	1048576	60	7188
2026-01-07 15:45:39.49	233.13	21.83	-42.4	-43.5	22.2	0.00e+00	0	35	101	1048576	60	7287
2026-01-07 15:45:40.50	233.04	21.69	-42.4	-43.4	22.2	0.00e+00	0	35	101	1048576	60	7253
2026-01-07 15:45:41.52	232.95	21.56	-42.5	-43.6	22.0	0.00e+00	0	35	101	1048576	60	7355
2026-01-07 15:45:42.53	232.87	21.42	-42.9	-44.0	21.8	0.00e+00	89	35	101	1048576	60	7684
2026-01-07 15:45:43.54	232.78	21.29	-43.0	-44.1	21.7	0.00e+00	0	35	101	1048576	60	7815
2026-01-07 15:45:44.55	232.70	21.16	-43.1	-44.3	21.4	0.00e+00	0	35	101	1048576	60	7984
2026-01-07 15:45:45.56	232.61	21.03	-43.5	-44.7	20.9	0.00e+00	0	35	101	1048576	60	8363
2026-01-07 15:45:46.57	232.53	20.90	-43.4	-44.6	21.3	0.00e+00	0	35	101	1048576	60	8296
2026-01-07 15:45:47.58	232.45	20.77	-43.3	-44.4	21.3	0.00e+00	89	35	101	1048576	60	8119
2026-01-07 15:45:48.59	232.36	20.64	-43.0	-44.2	21.5	0.00e+00	0	35	101	1048576	60	7878
2026-01-07 15:45:49.60	232.28	20.51	-42.8	-43.8	21.8	0.00e+00	92	35	101	1048576	60	7582
2026-01-07 15:45:50.61	232.20	20.38	-42.4	-43.4	22.2	0.00e+00	0	35	101	1048576	60	7240
2026-01-07 15:45:51.62	232.12	20.26	-42.3	-43.4	22.2	0.00e+00	0	35	101	1048576	60	7184
2026-01-07 15:45:52.63	232.04	20.13	-42.2	-43.2	22.3	0.00e+00	0	35	101	1048576	60	7064
2026-01-07 15:45:53.64	231.96	20.00	-41.9	-42.9	22.6	0.00e+00	0	35	101	1048576	60	6811
2026-01-07 15:45:54.65	231.88	19.88	-41.8	-42.8	22.7	0.00e+00	0	35	101	1048576	60	6739
2026-01-07 15:45:55.66	231.81	19.75	-41.4	-42.4	23.0	0.00e+00	0	35	101	1048576	60	6416
2026-01-07 15:45:56.68	231.73	19.63	-41.2	-42.2	23.2	0.00e+00	85	35	101	1048576	60	6255
2026-01-07 15:45:57.69	231.65	19.50	-41.2	-42.1	23.1	0.00e+00	0	35	101	1048576	60	6206
2026-01-07 15:45:58.70	231.58	19.38	-41.3	-42.2	23.2	0.00e+00	0	35	101	1048576	60	6314
2026-01-07 15:45:59.71	231.50	19.26	-41.4	-42.3	23.1	0.00e+00	0	35	101	1048576	60	6385
2026-01-07 15:46:00.72	231.43	19.13	-41.4	-42.3	23.1	0.00e+00	0	35	101	1048576	60	6379
2026-01-07 15:46:01.73	231.36	19.01	-41.6	-42.6	22.8	0.00e+00	65	35	101	1048576	60	6581
2026-01-07 15:46:02.74	231.28	18.89	-41.9	-42.9	22.6	0.00e+00	0	35	101	1048576	60	6843
2026-01-07 15:46:03.75	231.21	18.77	-41.8	-42.8	22.7	0.00e+00	75	35	101	1048576	60	6699
2026-01-07 15:46:04.76	231.14	18.65	-42.1	-43.1	22.4	0.00e+00	0	35	101	1048576	60	6956
2026-01-07 15:46:05.77	231.07	18.53	-42.3	-43.3	22.3	0.00e+00	92	35	101	1048576	60	7131
2026-01-07 15:46:06.78	231.00	18.41	-42.5	-43.6	22.0	0.00e+00	0	35	101	1048576	60	7387
2026-01-07 15:46:07.79	230.93	18.29	-42.6	-43.7	21.7	0.00e+00	0	35	101	1048576	60	7446
2026-01-07 15:46:08.80	230.86	18.18	-42.8	-43.9	21.7	0.00e+00	1	35	101	1048576	60	7630
2026-01-07 15:46:09.82	230.79	18.06	-42.9	-44.0	21.7	0.00e+00	0	35	101	1048576	60	7699
2026-01-07 15:46:10.83	230.72	17.94	-42.7	-43.8	21.8	0.00e+00	92	35	101	1048576	60	7526
2026-01-07 15:46:11.84	230.65	17.82	-42.9	-44.0	21.7	0.00e+00	0	35	101	1048576	60	7750
2026-01-07 15:46:12.85	230.58	17.71	-42.7	-43.8	21.8	0.00e+00	90	35	101	1048576	60	7587
2026-01-07 15:46:13.86	230.52	17.59	-42.7	-43.8	21.7	0.00e+00	0	35	101	1048576	60	7592
2026-01-07 15:46:14.87	230.45	17.48	-42.9	-44.0	21.5	0.00e+00	0	35	101	1048576	60	7744
