passes_logs/2026/01/07/R4.6S_Anadyr_2ch/R4.6S_Anadyr_2ch__20260107_104848_TY-41_rec.log

#Pass ID: 20260107_104848_TY-41
#Satellite: TY-41
#Configuration: TY-39_900M
#almurnet v.1.7.20251203
#Start time: 2026-01-07 10:49:19

#Version: 2.2.20231116
#Station: R4.6S_Anadyr_2ch
#Location: 177.4865 lon 64.73178 lat
#TLE: 1 61231U 24173E   25350.69767361  .00008010  00000-0  38191-3 0 09994
#TLE: 2 61231 097.4116 061.2842 0001674 094.3615 204.6766 15.19171214 68043

#Time	Az	El	Level	Level2	SNR	BER	BlckErr	Temp	State	Recorded	gain1	gain2
2026-01-07 10:49:19.30	204.09	1.82	-51.6	-53.1	5.7	0.00e+00	0	31	0	0	60	75714
2026-01-07 10:49:20.31	204.18	1.88	-51.9	-54.4	6.1	0.00e+00	0	33	104	0	60	87846
2026-01-07 10:49:21.32	204.26	1.94	-51.9	-54.4	6.1	0.00e+00	0	34	104	0	60	87446
2026-01-07 10:49:22.33	204.35	2.00	-51.9	-54.4	6.1	0.00e+00	0	33	104	0	60	87819
2026-01-07 10:49:23.34	204.44	2.07	-51.9	-54.4	6.1	0.00e+00	0	34	104	0	60	87907
2026-01-07 10:49:24.35	204.52	2.13	-51.9	-54.4	6.1	0.00e+00	0	34	104	0	60	87812
2026-01-07 10:49:25.37	204.61	2.19	-51.9	-54.4	6.1	0.00e+00	0	34	104	0	60	87572
2026-01-07 10:49:26.37	204.70	2.26	-51.9	-54.4	6.1	0.00e+00	0	34	104	0	60	87665
2026-01-07 10:49:27.39	204.79	2.32	-51.9	-54.4	6.1	0.00e+00	0	34	104	0	60	87674
2026-01-07 10:49:28.40	204.88	2.38	-51.9	-54.4	6.0	0.00e+00	0	34	104	0	60	87731
2026-01-07 10:49:29.41	204.97	2.45	-51.9	-54.4	6.1	0.00e+00	0	34	104	0	60	87740
2026-01-07 10:49:30.42	205.06	2.51	-51.9	-54.4	6.1	0.00e+00	0	34	104	0	60	88053
2026-01-07 10:49:31.43	205.15	2.58	-51.9	-54.4	6.1	0.00e+00	0	34	104	0	60	87873
2026-01-07 10:49:32.44	205.24	2.64	-51.9	-54.5	6.0	0.00e+00	0	34	104	0	60	88292
2026-01-07 10:49:33.45	205.33	2.70	-51.9	-54.4	6.1	0.00e+00	0	34	104	0	60	87490
2026-01-07 10:49:34.46	205.42	2.77	-51.9	-54.4	6.1	0.00e+00	0	34	104	0	60	87636
2026-01-07 10:49:35.47	205.51	2.83	-51.9	-54.4	6.1	0.00e+00	0	34	104	0	60	87571
2026-01-07 10:49:36.48	205.60	2.90	-51.9	-54.4	6.1	0.00e+00	0	34	104	0	60	87743
2026-01-07 10:49:37.49	205.70	2.96	-51.9	-54.4	6.1	0.00e+00	0	34	104	0	60	87703
2026-01-07 10:49:38.50	205.79	3.03	-51.9	-54.4	6.1	0.00e+00	0	34	104	0	60	87544
2026-01-07 10:49:39.51	205.89	3.09	-51.9	-54.4	6.1	0.00e+00	0	34	104	0	60	87775
2026-01-07 10:49:40.53	205.98	3.16	-51.9	-54.4	6.1	0.00e+00	0	34	104	0	60	88026
2026-01-07 10:49:41.54	206.08	3.22	-51.9	-54.4	6.1	0.00e+00	0	34	104	0	60	87954
2026-01-07 10:49:42.55	206.17	3.29	-51.9	-54.4	6.1	0.00e+00	0	34	104	0	60	87642
2026-01-07 10:49:43.56	206.27	3.36	-51.9	-54.4	6.1	0.00e+00	0	34	104	0	60	87830
2026-01-07 10:49:44.57	206.36	3.42	-51.9	-54.4	6.1	0.00e+00	0	34	104	0	60	87811
2026-01-07 10:49:45.58	206.46	3.49	-51.9	-54.4	6.1	0.00e+00	0	34	104	0	60	87959
2026-01-07 10:49:46.59	206.56	3.55	-51.9	-54.4	6.1	0.00e+00	0	34	104	0	60	87749
2026-01-07 10:49:47.60	206.66	3.62	-51.9	-54.4	6.1	0.00e+00	0	34	104	0	60	87708
2026-01-07 10:49:48.61	206.76	3.69	-51.9	-54.3	6.1	0.00e+00	0	34	104	0	60	87199
2026-01-07 10:49:49.62	206.86	3.75	-51.9	-54.4	6.1	0.00e+00	0	34	104	0	60	88014
2026-01-07 10:49:50.64	206.96	3.82	-51.9	-54.4	6.1	0.00e+00	0	34	104	0	60	87874
2026-01-07 10:49:51.65	207.06	3.89	-51.9	-54.4	6.1	0.00e+00	0	34	104	0	60	88155
2026-01-07 10:49:52.66	207.16	3.96	-51.9	-54.4	6.1	0.00e+00	0	34	104	0	60	88128
2026-01-07 10:49:53.67	207.26	4.02	-51.9	-54.4	6.1	0.00e+00	0	34	104	0	60	87782
2026-01-07 10:49:54.68	207.36	4.09	-51.9	-54.4	6.1	0.00e+00	0	34	104	0	60	87796
2026-01-07 10:49:55.69	207.47	4.16	-51.9	-54.4	6.1	0.00e+00	0	35	104	0	60	87915
2026-01-07 10:49:56.70	207.57	4.23	-51.9	-54.4	6.1	0.00e+00	0	34	104	0	60	87960
2026-01-07 10:49:57.71	207.67	4.29	-51.9	-54.4	6.1	0.00e+00	0	34	104	0	60	87619
2026-01-07 10:49:58.72	207.78	4.36	-51.9	-54.4	6.1	0.00e+00	0	34	104	0	60	87825
2026-01-07 10:49:59.73	207.88	4.43	-51.9	-54.4	6.1	0.00e+00	0	34	104	0	60	87901
2026-01-07 10:50:00.74	207.99	4.50	-51.9	-54.4	6.1	0.00e+00	0	35	104	0	60	87824
2026-01-07 10:50:01.75	208.10	4.57	-51.9	-54.4	6.1	0.00e+00	0	35	104	0	60	87851
2026-01-07 10:50:02.76	208.20	4.64	-51.9	-54.4	6.1	0.00e+00	0	35	104	0	60	88100
2026-01-07 10:50:03.78	208.31	4.71	-51.9	-54.4	6.1	0.00e+00	0	35	104	0	60	87544
2026-01-07 10:50:04.79	208.42	4.78	-51.9	-54.4	6.1	0.00e+00	0	35	104	0	60	87596
2026-01-07 10:50:05.80	208.53	4.84	-51.9	-54.4	6.1	0.00e+00	0	35	104	0	60	87796
2026-01-07 10:50:06.81	208.64	4.91	-51.9	-54.4	6.1	0.00e+00	0	35	104	0	60	87296
2026-01-07 10:50:07.82	208.75	4.98	-51.9	-54.5	6.1	0.00e+00	0	35	104	0	60	88361
2026-01-07 10:50:08.83	208.86	5.05	-51.9	-54.4	6.1	0.00e+00	0	35	104	0	60	88079
2026-01-07 10:50:09.84	208.97	5.12	-51.9	-54.4	6.1	0.00e+00	0	35	104	0	60	87967
2026-01-07 10:50:10.85	209.08	5.19	-51.9	-54.4	6.1	0.00e+00	0	35	104	0	60	87891
2026-01-07 10:50:11.86	209.19	5.26	-51.9	-54.4	6.1	0.00e+00	0	35	104	0	60	87979
2026-01-07 10:50:12.87	209.31	5.33	-51.9	-54.4	6.1	0.00e+00	0	35	104	0	60	87495
2026-01-07 10:50:13.89	209.42	5.41	-51.9	-54.5	6.1	0.00e+00	0	35	104	0	60	88341
2026-01-07 10:50:14.90	209.54	5.48	-51.9	-54.4	6.1	0.00e+00	0	35	104	0	60	88169
2026-01-07 10:50:15.91	209.65	5.55	-51.9	-54.4	6.1	0.00e+00	0	35	104	0	60	87713
2026-01-07 10:50:16.92	209.77	5.62	-51.9	-54.4	6.1	0.00e+00	0	35	104	0	60	87907
2026-01-07 10:50:17.93	209.89	5.69	-51.9	-54.4	6.1	0.00e+00	0	35	104	0	60	87914
2026-01-07 10:50:18.94	210.00	5.76	-51.9	-54.4	6.1	0.00e+00	0	35	104	0	60	87998
2026-01-07 10:50:19.96	210.12	5.83	-51.9	-54.4	6.1	0.00e+00	0	35	104	0	60	88038
2026-01-07 10:50:20.97	210.24	5.91	-51.9	-54.4	6.1	0.00e+00	0	35	104	0	60	87840
2026-01-07 10:50:21.98	210.36	5.98	-51.9	-54.4	6.0	0.00e+00	0	35	104	0	60	87568
2026-01-07 10:50:22.99	210.48	6.05	-51.9	-54.4	6.1	0.00e+00	0	35	104	0	60	88050
2026-01-07 10:50:24.00	210.60	6.12	-51.9	-54.4	6.1	0.00e+00	0	35	104	0	60	87794
2026-01-07 10:50:25.01	210.72	6.20	-51.9	-54.4	6.1	0.00e+00	0	35	104	0	60	88006
2026-01-07 10:50:26.02	210.85	6.27	-51.9	-54.4	6.1	0.00e+00	0	35	104	0	60	87904
2026-01-07 10:50:27.03	210.97	6.34	-51.9	-54.4	6.1	0.00e+00	0	35	104	0	60	88009
2026-01-07 10:50:28.04	211.09	6.41	-51.9	-54.5	6.1	0.00e+00	0	35	104	0	60	88276
2026-01-07 10:50:29.05	211.22	6.49	-51.9	-54.4	6.1	0.00e+00	0	35	104	0	60	87539
2026-01-07 10:50:30.07	211.35	6.56	-51.9	-54.5	6.1	0.00e+00	0	35	104	0	60	88249
2026-01-07 10:50:31.08	211.47	6.64	-51.9	-54.4	6.1	0.00e+00	0	35	104	0	60	88081
2026-01-07 10:50:32.09	211.60	6.71	-51.9	-54.5	6.1	0.00e+00	0	35	104	0	60	88342
2026-01-07 10:50:33.10	211.73	6.78	-51.9	-54.5	6.1	0.00e+00	0	35	104	0	60	88324
2026-01-07 10:50:34.11	211.86	6.86	-51.9	-54.4	6.1	0.00e+00	0	35	104	0	60	88056
2026-01-07 10:50:35.12	211.99	6.93	-51.9	-54.4	6.1	0.00e+00	0	35	104	0	60	88085
2026-01-07 10:50:36.13	212.12	7.01	-51.9	-54.4	6.1	0.00e+00	0	35	104	0	60	87876
2026-01-07 10:50:37.14	212.25	7.08	-51.9	-54.4	6.0	0.00e+00	0	35	104	0	60	87944
2026-01-07 10:50:38.15	212.38	7.16	-51.9	-54.4	6.1	0.00e+00	0	35	104	0	60	88106
2026-01-07 10:50:39.16	212.51	7.23	-51.9	-54.4	6.1	0.00e+00	0	35	104	0	60	88159
2026-01-07 10:50:40.18	212.65	7.31	-51.9	-54.4	6.1	0.00e+00	0	35	104	0	60	88107
2026-01-07 10:50:41.19	212.78	7.38	-51.9	-54.4	6.1	0.00e+00	0	35	104	0	60	87986
2026-01-07 10:50:42.20	212.92	7.46	-51.9	-54.4	6.0	0.00e+00	0	35	104	0	60	87804
2026-01-07 10:50:43.21	213.05	7.53	-51.9	-54.4	6.1	0.00e+00	0	35	104	0	60	87993
2026-01-07 10:50:44.22	213.19	7.61	-51.9	-54.5	6.1	0.00e+00	0	35	104	0	60	88419
2026-01-07 10:50:45.23	213.33	7.69	-51.9	-54.5	6.1	0.00e+00	0	35	104	0	60	88389
2026-01-07 10:50:46.24	213.46	7.76	-51.9	-54.5	6.1	0.00e+00	0	35	104	0	60	88509
2026-01-07 10:50:47.25	213.60	7.84	-51.9	-54.4	6.1	0.00e+00	0	35	104	0	60	87859
2026-01-07 10:50:48.26	213.74	7.92	-51.9	-54.4	6.1	0.00e+00	0	35	104	0	60	87799
2026-01-07 10:50:49.27	213.89	7.99	-51.9	-54.4	6.1	0.00e+00	0	35	104	0	60	88063
2026-01-07 10:50:50.29	214.03	8.07	-51.9	-54.4	6.1	0.00e+00	0	35	104	0	60	87831
2026-01-07 10:50:51.30	214.17	8.15	-52.0	-54.4	6.1	0.00e+00	0	35	104	0	60	88185
2026-01-07 10:50:52.31	214.32	8.23	-52.0	-54.4	6.1	0.00e+00	0	35	104	0	60	88085
2026-01-07 10:50:53.32	214.46	8.30	-51.9	-54.4	6.1	0.00e+00	0	35	104	0	60	88156
2026-01-07 10:50:54.33	214.61	8.38	-51.9	-54.4	6.1	0.00e+00	0	35	104	0	60	88044
2026-01-07 10:50:55.34	214.75	8.46	-51.9	-54.4	6.1	0.00e+00	0	35	104	0	60	87944
2026-01-07 10:50:56.35	214.90	8.54	-51.9	-54.4	6.1	0.00e+00	0	35	104	0	60	87916
2026-01-07 10:50:57.36	215.05	8.62	-52.0	-54.4	6.1	0.00e+00	0	35	104	0	60	87962
2026-01-07 10:50:58.37	215.20	8.70	-51.9	-54.5	6.0	0.00e+00	0	35	104	0	60	88359
2026-01-07 10:50:59.38	215.35	8.77	-51.9	-54.4	6.1	0.00e+00	0	35	104	0	60	87710
2026-01-07 10:51:00.39	215.50	8.85	-51.9	-54.4	6.1	0.00e+00	0	35	104	0	60	87765
2026-01-07 10:51:01.40	215.65	8.93	-51.9	-54.4	6.1	0.00e+00	0	35	104	0	60	88036
2026-01-07 10:51:02.41	215.81	9.01	-52.0	-54.4	6.1	0.00e+00	0	35	104	0	60	87955
2026-01-07 10:51:03.42	215.96	9.09	-51.9	-54.4	6.1	0.00e+00	0	35	104	0	60	87802
2026-01-07 10:51:04.43	216.12	9.17	-51.9	-54.4	6.1	0.00e+00	0	35	104	0	60	87899
2026-01-07 10:51:05.45	216.28	9.25	-51.9	-54.5	6.1	0.00e+00	0	35	104	0	60	88339
2026-01-07 10:51:06.45	216.43	9.33	-51.9	-54.4	6.1	0.00e+00	0	35	104	0	60	87926
2026-01-07 10:51:07.47	216.59	9.41	-51.9	-54.4	6.1	0.00e+00	0	36	104	0	60	88189
2026-01-07 10:51:08.48	216.75	9.49	-52.0	-54.4	6.1	0.00e+00	0	35	104	0	60	87856
2026-01-07 10:51:09.49	216.91	9.57	-51.9	-54.4	6.1	0.00e+00	0	35	104	0	60	87954
2026-01-07 10:51:10.50	217.07	9.65	-52.0	-54.4	6.1	0.00e+00	0	36	104	0	60	88001
2026-01-07 10:51:11.51	217.24	9.73	-51.9	-54.4	6.1	0.00e+00	0	36	104	0	60	87429
2026-01-07 10:51:12.52	217.40	9.82	-51.9	-54.4	6.1	0.00e+00	0	36	104	0	60	88021
2026-01-07 10:51:13.53	217.57	9.90	-52.0	-54.4	6.1	0.00e+00	0	36	104	0	60	88083
2026-01-07 10:51:14.54	217.73	9.98	-52.0	-54.5	6.1	0.00e+00	0	36	104	0	60	88223
2026-01-07 10:51:15.55	217.90	10.06	-52.0	-54.4	6.1	0.00e+00	0	36	104	0	60	88054
2026-01-07 10:51:16.56	218.07	10.14	-51.9	-54.5	6.1	0.00e+00	0	36	104	0	60	88421
2026-01-07 10:51:17.57	218.24	10.22	-51.9	-54.4	6.1	0.00e+00	0	36	104	0	60	87954
2026-01-07 10:51:18.58	218.41	10.31	-52.0	-54.4	6.1	0.00e+00	0	36	104	0	60	87833
2026-01-07 10:51:19.59	218.58	10.39	-52.0	-54.4	6.1	0.00e+00	0	36	104	0	60	87830
2026-01-07 10:51:20.60	218.75	10.47	-51.9	-54.4	6.1	0.00e+00	0	36	104	0	60	88184
2026-01-07 10:51:21.61	218.93	10.55	-51.9	-54.4	6.1	0.00e+00	0	36	104	0	60	88074
2026-01-07 10:51:22.63	219.10	10.64	-52.0	-54.4	6.0	0.00e+00	0	36	104	0	60	87693
2026-01-07 10:51:23.64	219.28	10.72	-51.9	-54.4	6.1	0.00e+00	0	36	104	0	60	87713
2026-01-07 10:51:24.65	219.46	10.80	-52.0	-54.4	6.1	0.00e+00	0	36	104	0	60	88183
2026-01-07 10:51:25.66	219.64	10.89	-51.9	-54.4	6.1	0.00e+00	0	36	104	0	60	88074
2026-01-07 10:51:26.67	219.82	10.97	-51.9	-54.4	6.1	0.00e+00	0	36	104	0	60	87812
2026-01-07 10:51:27.68	220.00	11.05	-51.9	-54.4	6.1	0.00e+00	0	36	104	0	60	88127
2026-01-07 10:51:28.69	220.18	11.14	-51.9	-54.4	6.1	0.00e+00	0	36	104	0	60	88006
2026-01-07 10:51:29.70	220.36	11.22	-51.9	-54.4	6.1	0.00e+00	0	36	104	0	60	88004
2026-01-07 10:51:30.71	220.55	11.31	-51.9	-54.4	6.0	0.00e+00	0	36	104	0	60	87967
2026-01-07 10:51:31.72	220.73	11.39	-51.9	-54.4	6.1	0.00e+00	0	36	104	0	60	88142
2026-01-07 10:51:32.73	220.92	11.47	-51.9	-54.4	6.1	0.00e+00	0	36	104	0	60	87896
2026-01-07 10:51:33.75	221.11	11.56	-51.9	-54.4	6.1	0.00e+00	0	36	104	0	60	88045
2026-01-07 10:51:34.76	221.30	11.64	-51.9	-54.5	6.1	0.00e+00	0	36	104	0	60	88596
2026-01-07 10:51:35.77	221.49	11.73	-51.9	-54.5	6.1	0.00e+00	0	36	104	0	60	88274
2026-01-07 10:51:36.78	221.69	11.81	-51.9	-54.4	6.1	0.00e+00	0	36	104	0	60	88211
2026-01-07 10:51:37.79	221.88	11.90	-51.9	-54.5	6.1	0.00e+00	0	36	104	0	60	88340
2026-01-07 10:51:38.80	222.07	11.98	-52.0	-54.4	6.1	0.00e+00	0	36	104	0	60	88195
2026-01-07 10:51:39.81	222.27	12.07	-51.9	-54.4	6.1	0.00e+00	0	36	104	0	60	87937
2026-01-07 10:51:40.82	222.47	12.16	-51.9	-54.4	6.1	0.00e+00	0	36	104	0	60	87937
2026-01-07 10:51:41.83	222.67	12.24	-51.9	-54.5	6.1	0.00e+00	0	36	104	0	60	88222
2026-01-07 10:51:42.84	222.87	12.33	-51.9	-54.4	6.1	0.00e+00	0	36	104	0	60	87595
2026-01-07 10:51:43.86	223.07	12.41	-51.9	-54.4	6.1	0.00e+00	0	36	104	0	60	87835
2026-01-07 10:51:44.87	223.28	12.50	-51.9	-54.5	6.1	0.00e+00	0	36	104	0	60	88397
2026-01-07 10:51:45.88	223.48	12.59	-51.9	-54.5	6.1	0.00e+00	0	36	104	0	60	88288
2026-01-07 10:51:46.89	223.69	12.67	-52.0	-54.4	6.1	0.00e+00	0	36	104	0	60	87986
2026-01-07 10:51:47.90	223.89	12.76	-51.9	-54.5	6.1	0.00e+00	0	36	104	0	60	88566
2026-01-07 10:51:48.91	224.10	12.84	-52.0	-54.5	6.1	0.00e+00	0	36	104	0	60	88236
2026-01-07 10:51:49.92	224.31	12.93	-51.9	-54.4	6.1	0.00e+00	0	36	104	0	60	88192
2026-01-07 10:51:50.93	224.53	13.02	-51.9	-54.4	6.0	0.00e+00	0	36	104	0	60	87962
2026-01-07 10:51:51.94	224.74	13.10	-52.0	-54.4	6.1	0.00e+00	0	36	104	0	60	87820
2026-01-07 10:51:52.95	224.95	13.19	-51.9	-54.5	6.1	0.00e+00	0	36	104	0	60	88410
2026-01-07 10:51:53.96	225.17	13.28	-52.0	-54.5	6.1	0.00e+00	0	36	104	0	60	88281
2026-01-07 10:51:54.97	225.39	13.36	-51.9	-54.4	6.1	0.00e+00	0	36	104	0	60	87820
2026-01-07 10:51:55.99	225.61	13.45	-52.0	-54.4	6.1	0.00e+00	0	36	104	0	60	87920
2026-01-07 10:51:57.00	225.83	13.54	-52.0	-54.4	6.1	0.00e+00	0	36	104	0	60	88066
2026-01-07 10:51:58.01	226.05	13.63	-52.0	-54.4	6.1	0.00e+00	0	36	104	0	60	88064
2026-01-07 10:51:59.02	226.28	13.71	-51.9	-54.4	6.1	0.00e+00	0	36	104	0	60	88090
2026-01-07 10:52:00.03	226.50	13.80	-51.9	-54.4	6.1	0.00e+00	0	36	104	0	60	87592
2026-01-07 10:52:01.04	226.73	13.89	-52.0	-54.4	6.1	0.00e+00	0	36	104	0	60	88051
2026-01-07 10:52:02.05	226.96	13.98	-51.9	-54.4	6.1	0.00e+00	0	36	104	0	60	88140
2026-01-07 10:52:03.06	227.19	14.06	-51.9	-54.4	6.1	0.00e+00	0	36	104	0	60	88044
2026-01-07 10:52:04.07	227.42	14.15	-52.0	-54.4	6.1	0.00e+00	0	36	104	0	60	88100
2026-01-07 10:52:05.08	227.65	14.24	-51.9	-54.4	6.1	0.00e+00	0	36	104	0	60	87888
2026-01-07 10:52:06.09	227.89	14.32	-51.9	-54.5	6.1	0.00e+00	0	36	104	0	60	88683
2026-01-07 10:52:07.10	228.12	14.41	-51.9	-54.4	6.1	0.00e+00	0	36	104	0	60	87679
2026-01-07 10:52:08.12	228.36	14.50	-52.0	-54.5	6.1	0.00e+00	0	36	104	0	60	88395
2026-01-07 10:52:09.13	228.60	14.59	-51.9	-54.5	6.1	0.00e+00	0	36	104	0	60	88235
2026-01-07 10:52:10.14	228.84	14.67	-51.9	-54.4	6.1	0.00e+00	0	36	104	0	60	87930
2026-01-07 10:52:11.15	229.09	14.76	-52.0	-54.5	6.1	0.00e+00	0	36	104	0	60	88265
2026-01-07 10:52:12.16	229.33	14.85	-51.9	-54.4	6.1	0.00e+00	0	36	104	0	60	87875
2026-01-07 10:52:13.17	229.58	14.94	-51.9	-54.5	6.1	0.00e+00	0	36	104	0	60	88241
2026-01-07 10:52:14.18	229.82	15.02	-51.9	-54.4	6.1	0.00e+00	0	36	104	0	60	87869
2026-01-07 10:52:15.19	230.07	15.11	-51.9	-54.4	6.1	0.00e+00	0	36	104	0	60	88167
2026-01-07 10:52:16.21	230.33	15.20	-51.9	-54.5	6.1	0.00e+00	0	36	104	0	60	88400
2026-01-07 10:52:17.22	230.58	15.29	-51.9	-54.4	6.1	0.00e+00	0	36	104	0	60	88090
2026-01-07 10:52:18.23	230.84	15.37	-51.9	-54.5	6.1	0.00e+00	0	36	104	0	60	88245
2026-01-07 10:52:19.24	231.09	15.46	-51.9	-54.4	6.1	0.00e+00	0	36	104	0	60	87774
2026-01-07 10:52:20.25	231.35	15.55	-51.9	-54.5	6.1	0.00e+00	0	36	104	0	60	88304
2026-01-07 10:52:21.26	231.61	15.63	-51.9	-54.4	6.1	0.00e+00	0	36	104	0	60	87823
2026-01-07 10:52:22.27	231.87	15.72	-51.9	-54.5	6.1	0.00e+00	0	36	104	0	60	88371
2026-01-07 10:52:23.28	232.13	15.81	-51.9	-54.4	6.1	0.00e+00	0	36	104	0	60	88131
2026-01-07 10:52:24.29	232.40	15.89	-51.9	-54.4	6.1	0.00e+00	0	36	104	0	60	87517
2026-01-07 10:52:25.30	232.67	15.98	-51.9	-54.4	6.1	0.00e+00	0	36	104	0	60	88156
2026-01-07 10:52:26.31	232.93	16.07	-51.9	-54.4	6.1	0.00e+00	0	36	104	0	60	87788
2026-01-07 10:52:27.33	233.21	16.15	-51.9	-54.4	6.1	0.00e+00	0	36	104	0	60	87651
2026-01-07 10:52:28.34	233.48	16.24	-51.9	-54.4	6.0	0.00e+00	0	36	104	0	60	87964
2026-01-07 10:52:29.35	233.75	16.33	-51.9	-54.4	6.1	0.00e+00	0	36	104	0	60	88123
2026-01-07 10:52:30.36	234.03	16.41	-52.0	-54.4	6.1	0.00e+00	0	36	104	0	60	87931
2026-01-07 10:52:31.37	234.31	16.50	-51.9	-54.4	6.0	0.00e+00	0	36	104	0	60	88044
2026-01-07 10:52:32.38	234.59	16.58	-51.9	-54.4	6.1	0.00e+00	0	36	104	0	60	87638
2026-01-07 10:52:33.39	234.87	16.67	-52.0	-54.4	6.1	0.00e+00	0	36	104	0	60	87932
2026-01-07 10:52:34.40	235.15	16.75	-51.9	-54.4	6.1	0.00e+00	0	36	104	0	60	88126
2026-01-07 10:52:35.41	235.43	16.84	-51.9	-54.5	6.1	0.00e+00	0	36	104	0	60	88250
2026-01-07 10:52:36.42	235.72	16.92	-51.9	-54.4	6.1	0.00e+00	0	36	104	0	60	87790
2026-01-07 10:52:37.43	236.01	17.00	-51.9	-54.4	6.1	0.00e+00	0	36	104	0	60	88139
2026-01-07 10:52:38.44	236.30	17.09	-51.9	-54.4	6.1	0.00e+00	0	36	104	0	60	87659
2026-01-07 10:52:39.46	236.59	17.17	-51.9	-54.4	6.1	0.00e+00	0	36	104	0	60	88164
2026-01-07 10:52:40.47	236.89	17.26	-51.9	-54.4	6.1	0.00e+00	0	36	104	0	60	87925
2026-01-07 10:52:41.48	237.18	17.34	-51.9	-54.4	6.1	0.00e+00	0	36	104	0	60	87693
2026-01-07 10:52:42.49	237.48	17.42	-51.9	-54.4	6.1	0.00e+00	0	36	104	0	60	88131
2026-01-07 10:52:43.50	237.78	17.50	-51.9	-54.5	6.1	0.00e+00	0	36	104	0	60	88675
2026-01-07 10:52:44.51	238.08	17.59	-51.9	-54.4	6.1	0.00e+00	0	36	104	0	60	87989
2026-01-07 10:52:45.52	238.38	17.67	-51.9	-54.4	6.1	0.00e+00	0	36	104	0	60	88084
2026-01-07 10:52:46.53	238.69	17.75	-51.9	-54.4	6.0	0.00e+00	0	36	104	0	60	87584
2026-01-07 10:52:47.54	239.00	17.83	-51.9	-54.4	6.1	0.00e+00	0	36	104	0	60	87879
2026-01-07 10:52:48.55	239.30	17.91	-51.9	-54.4	6.1	0.00e+00	0	36	104	0	60	88103
2026-01-07 10:52:49.57	239.62	17.99	-51.9	-54.4	6.1	0.00e+00	0	36	104	0	60	88061
2026-01-07 10:52:50.58	239.93	18.07	-51.9	-54.5	6.1	0.00e+00	0	36	104	0	60	88352
2026-01-07 10:52:51.59	240.24	18.15	-51.9	-54.5	6.1	0.00e+00	0	36	104	0	60	88570
2026-01-07 10:52:52.60	240.56	18.23	-51.9	-54.5	6.1	0.00e+00	0	36	104	0	60	88336
2026-01-07 10:52:53.61	240.88	18.31	-51.9	-54.4	6.1	0.00e+00	0	36	104	0	60	87987
2026-01-07 10:52:54.62	241.20	18.39	-51.9	-54.4	6.1	0.00e+00	0	36	104	0	60	87990
2026-01-07 10:52:55.63	241.52	18.46	-51.9	-54.4	6.1	0.00e+00	0	36	104	0	60	88196
2026-01-07 10:52:56.64	241.84	18.54	-51.9	-54.4	6.1	0.00e+00	0	36	104	0	60	88100
2026-01-07 10:52:57.65	242.17	18.62	-51.9	-54.4	6.1	0.00e+00	0	36	104	0	60	87735
2026-01-07 10:52:58.66	242.50	18.69	-51.9	-54.4	6.1	0.00e+00	0	36	104	0	60	87514
2026-01-07 10:52:59.67	242.83	18.77	-51.9	-54.4	6.1	0.00e+00	0	36	104	0	60	87892
2026-01-07 10:53:00.68	243.16	18.85	-51.9	-54.4	6.1	0.00e+00	0	36	104	0	60	88085
2026-01-07 10:53:01.69	243.49	18.92	-51.9	-54.4	6.1	0.00e+00	0	36	104	0	60	88184
2026-01-07 10:53:02.70	243.82	18.99	-51.9	-54.4	6.1	0.00e+00	0	36	104	0	60	87756
2026-01-07 10:53:03.71	244.16	19.07	-51.9	-54.4	6.1	0.00e+00	0	36	104	0	60	87492
2026-01-07 10:53:04.73	244.50	19.14	-51.9	-54.4	6.1	0.00e+00	0	36	104	0	60	87771
2026-01-07 10:53:05.74	244.84	19.21	-51.9	-54.4	6.1	0.00e+00	0	36	104	0	60	87928
2026-01-07 10:53:06.75	245.18	19.28	-51.9	-54.4	6.1	0.00e+00	0	36	104	0	60	88104
2026-01-07 10:53:07.76	245.53	19.35	-51.9	-54.4	6.1	0.00e+00	0	36	104	0	60	87719
2026-01-07 10:53:08.77	245.87	19.42	-51.9	-54.4	6.1	0.00e+00	0	36	104	0	60	87965
2026-01-07 10:53:09.78	246.22	19.49	-51.9	-54.4	6.1	0.00e+00	0	36	104	0	60	87576
2026-01-07 10:53:10.79	246.57	19.56	-51.9	-54.4	6.1	0.00e+00	0	36	104	0	60	87559
2026-01-07 10:53:11.80	246.92	19.63	-51.9	-54.5	6.1	0.00e+00	0	36	104	0	60	88222
2026-01-07 10:53:12.81	247.27	19.70	-51.9	-54.5	6.1	0.00e+00	0	36	104	0	60	88319
2026-01-07 10:53:13.83	247.63	19.76	-51.9	-54.4	6.1	0.00e+00	0	36	104	0	60	87791
2026-01-07 10:53:14.84	247.98	19.83	-51.9	-54.4	6.1	0.00e+00	0	36	104	0	60	87983
2026-01-07 10:53:15.85	248.34	19.90	-51.9	-54.4	6.1	0.00e+00	0	36	104	0	60	87888
2026-01-07 10:53:16.86	248.70	19.96	-51.9	-54.4	6.1	0.00e+00	0	36	104	0	60	87901
2026-01-07 10:53:17.87	249.06	20.02	-51.9	-54.4	6.1	0.00e+00	0	36	104	0	60	87384
2026-01-07 10:53:18.88	249.42	20.09	-51.9	-54.4	6.1	0.00e+00	0	36	104	0	60	87582
2026-01-07 10:53:19.89	249.79	20.15	-51.9	-54.4	6.1	0.00e+00	0	36	104	0	60	87475
2026-01-07 10:53:20.90	250.15	20.21	-51.9	-54.4	6.1	0.00e+00	0	36	104	0	60	88055
2026-01-07 10:53:21.91	250.52	20.27	-51.9	-54.4	6.1	0.00e+00	0	36	104	0	60	88068
2026-01-07 10:53:22.92	250.89	20.33	-51.9	-54.4	6.1	0.00e+00	0	36	104	0	60	87609
2026-01-07 10:53:23.93	251.26	20.38	-51.9	-54.4	6.1	0.00e+00	0	37	104	0	60	87993
2026-01-07 10:53:24.94	251.63	20.44	-51.9	-54.4	6.1	0.00e+00	0	36	104	0	60	87898
2026-01-07 10:53:25.95	252.01	20.50	-51.9	-54.4	6.1	0.00e+00	0	36	104	0	60	87887
2026-01-07 10:53:26.96	252.38	20.55	-51.9	-54.4	6.1	0.00e+00	0	37	104	0	60	87429
2026-01-07 10:53:27.97	252.76	20.61	-51.9	-54.4	6.1	0.00e+00	0	36	104	0	60	87816
2026-01-07 10:53:28.98	253.13	20.66	-51.9	-54.4	6.1	0.00e+00	0	36	104	0	60	87696
2026-01-07 10:53:30.00	253.52	20.71	-51.9	-54.4	6.1	0.00e+00	0	37	104	0	60	87422
2026-01-07 10:53:31.01	253.90	20.77	-51.9	-54.4	6.0	0.00e+00	0	36	104	0	60	87530
2026-01-07 10:53:32.02	254.28	20.82	-51.9	-54.4	6.1	0.00e+00	0	37	104	0	60	87810
2026-01-07 10:53:33.03	254.66	20.87	-51.9	-54.4	6.1	0.00e+00	0	36	104	0	60	87651
2026-01-07 10:53:34.04	255.05	20.91	-51.9	-54.4	6.1	0.00e+00	0	37	104	0	60	87884
2026-01-07 10:53:35.05	255.44	20.96	-51.9	-54.4	6.1	0.00e+00	0	36	104	0	60	88044
2026-01-07 10:53:36.06	255.82	21.01	-51.9	-54.4	6.1	0.00e+00	0	36	104	0	60	88174
2026-01-07 10:53:37.07	256.21	21.05	-51.9	-54.4	6.1	0.00e+00	0	36	104	0	60	87937
2026-01-07 10:53:38.08	256.60	21.10	-51.9	-54.4	6.1	0.00e+00	0	36	104	0	60	87977
2026-01-07 10:53:39.09	256.99	21.14	-51.9	-54.4	6.1	0.00e+00	0	36	104	0	60	87674
2026-01-07 10:53:40.10	257.39	21.18	-51.9	-54.4	6.1	0.00e+00	0	36	104	0	60	87898
2026-01-07 10:53:41.11	257.78	21.22	-51.9	-54.4	6.1	0.00e+00	0	36	104	0	60	87819
2026-01-07 10:53:42.12	258.17	21.26	-51.9	-54.4	6.1	0.00e+00	0	36	104	0	60	87979
2026-01-07 10:53:43.14	258.57	21.30	-51.9	-54.4	6.1	0.00e+00	0	36	104	0	60	87635
2026-01-07 10:53:44.15	258.97	21.33	-51.9	-54.4	6.1	0.00e+00	0	36	104	0	60	87717
2026-01-07 10:53:45.16	259.37	21.37	-51.9	-54.4	6.1	0.00e+00	0	36	104	0	60	87949
2026-01-07 10:53:46.17	259.77	21.40	-51.9	-54.4	6.1	0.00e+00	0	36	104	0	60	87755
2026-01-07 10:53:47.18	260.17	21.44	-51.9	-54.4	6.1	0.00e+00	0	36	104	0	60	87639
2026-01-07 10:53:48.19	260.57	21.47	-51.9	-54.4	6.1	0.00e+00	0	37	104	0	60	88017
2026-01-07 10:53:49.20	260.97	21.50	-51.9	-54.4	6.1	0.00e+00	0	36	104	0	60	87974
2026-01-07 10:53:50.21	261.37	21.53	-51.9	-54.4	6.1	0.00e+00	0	37	104	0	60	87617
2026-01-07 10:53:51.22	261.78	21.56	-51.9	-54.4	6.1	0.00e+00	0	37	104	0	60	88045
2026-01-07 10:53:52.23	262.18	21.59	-51.9	-54.4	6.1	0.00e+00	0	37	104	0	60	88123
2026-01-07 10:53:53.24	262.58	21.61	-51.9	-54.4	6.1	0.00e+00	0	37	104	0	60	87798
2026-01-07 10:53:54.25	262.99	21.64	-51.9	-54.4	6.1	0.00e+00	0	37	104	0	60	87827
2026-01-07 10:53:55.26	263.40	21.66	-51.9	-54.4	6.1	0.00e+00	0	37	104	0	60	87823
2026-01-07 10:53:56.28	263.81	21.68	-51.9	-54.5	6.1	0.00e+00	0	37	104	0	60	88225
2026-01-07 10:53:57.29	264.22	21.70	-51.9	-54.4	6.1	0.00e+00	0	37	104	0	60	87897
2026-01-07 10:53:58.30	264.62	21.72	-51.9	-54.4	6.1	0.00e+00	0	37	104	0	60	87843
2026-01-07 10:53:59.31	265.03	21.74	-51.9	-54.4	6.1	0.00e+00	0	37	104	0	60	88092
2026-01-07 10:54:00.32	265.44	21.76	-51.9	-54.4	6.1	0.00e+00	0	37	104	0	60	87714
2026-01-07 10:54:01.33	265.85	21.77	-51.9	-54.4	6.1	0.00e+00	0	36	104	0	60	87968
2026-01-07 10:54:02.34	266.26	21.78	-51.9	-54.4	6.1	0.00e+00	0	37	104	0	60	87898
2026-01-07 10:54:03.35	266.67	21.80	-51.9	-54.4	6.1	0.00e+00	0	37	104	0	60	87799
2026-01-07 10:54:04.36	267.08	21.81	-51.9	-54.4	6.1	0.00e+00	0	37	104	0	60	88196
2026-01-07 10:54:05.37	267.49	21.82	-51.9	-54.4	6.1	0.00e+00	0	37	104	0	60	88042
2026-01-07 10:54:06.38	267.90	21.83	-51.9	-54.4	6.1	0.00e+00	0	36	104	0	60	88018
2026-01-07 10:54:07.39	268.31	21.83	-51.9	-54.4	6.1	0.00e+00	0	37	104	0	60	87859
2026-01-07 10:54:08.40	268.73	21.84	-51.9	-54.4	6.1	0.00e+00	0	37	104	0	60	88128
2026-01-07 10:54:09.42	269.14	21.84	-51.9	-54.4	6.1	0.00e+00	0	37	104	0	60	87574
2026-01-07 10:54:10.43	269.55	21.85	-51.9	-54.4	6.1	0.00e+00	0	37	104	0	60	87929
2026-01-07 10:54:11.44	269.97	21.85	-51.9	-54.4	6.1	0.00e+00	0	37	104	0	60	88020
2026-01-07 10:54:12.45	270.38	21.85	-51.9	-54.4	6.1	0.00e+00	0	36	104	0	60	88002
2026-01-07 10:54:13.46	270.79	21.85	-51.9	-54.4	6.1	0.00e+00	0	36	104	0	60	87739
2026-01-07 10:54:14.47	271.20	21.85	-51.9	-54.4	6.1	0.00e+00	0	37	104	0	60	88110
2026-01-07 10:54:15.48	271.61	21.84	-51.9	-54.5	6.1	0.00e+00	0	37	104	0	60	88386
2026-01-07 10:54:16.42	272.00	21.84	-51.9	-54.4	6.1	0.00e+00	0	36	104	0	60	88125
2026-01-07 10:54:17.43	272.41	21.83	-51.9	-54.4	6.1	0.00e+00	0	37	104	0	60	88129
2026-01-07 10:54:18.44	272.82	21.82	-51.9	-54.4	6.1	0.00e+00	0	37	104	0	60	88164
2026-01-07 10:54:19.45	273.23	21.81	-51.9	-54.4	6.1	0.00e+00	0	37	104	0	60	87878
2026-01-07 10:54:20.46	273.64	21.80	-51.9	-54.4	6.1	0.00e+00	0	37	104	0	60	87719
2026-01-07 10:54:21.47	274.05	21.79	-51.9	-54.4	6.1	0.00e+00	0	37	104	0	60	87981
2026-01-07 10:54:22.49	274.46	21.78	-51.9	-54.4	6.1	0.00e+00	0	37	104	0	60	87489
2026-01-07 10:54:23.50	274.87	21.76	-51.9	-54.4	6.1	0.00e+00	0	37	104	0	60	87673
2026-01-07 10:54:24.51	275.28	21.75	-51.9	-54.4	6.1	0.00e+00	0	37	104	0	60	87943
2026-01-07 10:54:25.52	275.69	21.73	-51.9	-54.4	6.1	0.00e+00	0	37	104	0	60	88026
2026-01-07 10:54:26.53	276.10	21.71	-51.9	-54.4	6.1	0.00e+00	0	37	104	0	60	87514
2026-01-07 10:54:27.54	276.50	21.69	-51.9	-54.4	6.1	0.00e+00	0	37	104	0	60	87743
2026-01-07 10:54:28.55	276.91	21.67	-51.9	-54.4	6.1	0.00e+00	0	37	104	0	60	87891
2026-01-07 10:54:29.56	277.32	21.65	-51.9	-54.4	6.1	0.00e+00	0	37	104	0	60	88172
2026-01-07 10:54:30.57	277.72	21.62	-51.9	-54.4	6.1	0.00e+00	0	37	104	0	60	87518
2026-01-07 10:54:31.58	278.13	21.60	-51.9	-54.4	6.1	0.00e+00	0	37	104	0	60	88096
2026-01-07 10:54:32.59	278.53	21.57	-51.9	-54.4	6.1	0.00e+00	0	37	104	0	60	87878
2026-01-07 10:54:33.60	278.93	21.54	-51.9	-54.4	6.1	0.00e+00	0	37	104	0	60	87559
2026-01-07 10:54:34.62	279.34	21.52	-51.9	-54.4	6.1	0.00e+00	0	37	104	0	60	87738
2026-01-07 10:54:35.63	279.74	21.49	-51.9	-54.4	6.1	0.00e+00	0	37	104	0	60	87565
2026-01-07 10:54:36.64	280.14	21.45	-51.9	-54.4	6.1	0.00e+00	0	37	104	0	60	87608
2026-01-07 10:54:37.65	280.54	21.42	-51.9	-54.5	6.1	0.00e+00	0	37	104	0	60	88344
2026-01-07 10:54:38.66	280.94	21.39	-51.9	-54.5	6.1	0.00e+00	0	37	104	0	60	88454
2026-01-07 10:54:39.67	281.34	21.35	-51.9	-54.4	6.1	0.00e+00	0	36	104	0	60	87842
2026-01-07 10:54:40.68	281.73	21.32	-51.9	-54.4	6.1	0.00e+00	0	37	104	0	60	87625
2026-01-07 10:54:41.69	282.13	21.28	-51.9	-54.4	6.1	0.00e+00	0	37	104	0	60	87748
2026-01-07 10:54:42.70	282.52	21.24	-51.9	-54.4	6.1	0.00e+00	0	36	104	0	60	88060
2026-01-07 10:54:43.71	282.92	21.20	-51.9	-54.5	6.1	0.00e+00	0	37	104	0	60	88222
2026-01-07 10:54:44.73	283.31	21.16	-51.9	-54.4	6.1	0.00e+00	0	36	104	0	60	87609
2026-01-07 10:54:45.74	283.70	21.12	-51.9	-54.4	6.1	0.00e+00	0	37	104	0	60	88175
2026-01-07 10:54:46.75	284.09	21.07	-51.9	-54.4	6.1	0.00e+00	0	37	104	0	60	87829
2026-01-07 10:54:47.76	284.48	21.03	-51.9	-54.4	6.1	0.00e+00	0	36	104	0	60	87941
2026-01-07 10:54:48.77	284.87	20.98	-51.9	-54.4	6.1	0.00e+00	0	37	104	0	60	88014
2026-01-07 10:54:49.78	285.25	20.94	-51.9	-54.4	6.1	0.00e+00	0	36	104	0	60	88057
2026-01-07 10:54:50.79	285.64	20.89	-51.9	-54.4	6.1	0.00e+00	0	37	104	0	60	88149
2026-01-07 10:54:51.80	286.02	20.84	-51.9	-54.4	6.1	0.00e+00	0	37	104	0	60	87826
2026-01-07 10:54:52.81	286.40	20.79	-51.9	-54.4	6.1	0.00e+00	0	37	104	0	60	88185
2026-01-07 10:54:53.83	286.79	20.74	-51.9	-54.5	6.0	0.00e+00	0	36	104	0	60	88435
2026-01-07 10:54:54.84	287.17	20.69	-51.9	-54.4	6.1	0.00e+00	0	36	104	0	60	87817
2026-01-07 10:54:55.85	287.54	20.64	-51.9	-54.4	6.1	0.00e+00	0	36	104	0	60	87596
2026-01-07 10:54:56.86	287.92	20.58	-51.9	-54.4	6.1	0.00e+00	0	37	104	0	60	87907
2026-01-07 10:54:57.87	288.29	20.53	-51.9	-54.4	6.1	0.00e+00	0	36	104	0	60	87689
2026-01-07 10:54:58.88	288.67	20.47	-51.9	-54.4	6.1	0.00e+00	0	36	104	0	60	87748
2026-01-07 10:54:59.89	289.04	20.42	-51.9	-54.4	6.1	0.00e+00	0	36	104	0	60	87975
2026-01-07 10:55:00.90	289.41	20.36	-51.9	-54.4	6.1	0.00e+00	0	36	104	0	60	88020
2026-01-07 10:55:01.91	289.77	20.30	-51.9	-54.4	6.1	0.00e+00	0	37	104	0	60	88074
2026-01-07 10:55:02.92	290.14	20.24	-51.9	-54.4	6.1	0.00e+00	0	37	104	0	60	87675
2026-01-07 10:55:03.93	290.51	20.18	-51.9	-54.4	6.1	0.00e+00	0	36	104	0	60	87692
2026-01-07 10:55:04.95	290.87	20.12	-51.9	-54.4	6.1	0.00e+00	0	36	104	0	60	87851
2026-01-07 10:55:05.96	291.24	20.06	-51.9	-54.4	6.1	0.00e+00	0	36	104	0	60	88159
2026-01-07 10:55:06.97	291.60	20.00	-52.0	-54.5	6.1	0.00e+00	0	37	104	0	60	88312
2026-01-07 10:55:07.98	291.95	19.93	-51.9	-54.5	6.1	0.00e+00	0	37	104	0	60	88244
2026-01-07 10:55:08.99	292.31	19.87	-51.9	-54.4	6.1	0.00e+00	0	37	104	0	60	87836
2026-01-07 10:55:10.00	292.67	19.80	-51.9	-54.4	6.1	0.00e+00	0	37	104	0	60	87954
2026-01-07 10:55:11.01	293.02	19.74	-51.9	-54.4	6.1	0.00e+00	0	37	104	0	60	87682
2026-01-07 10:55:12.02	293.37	19.67	-51.9	-54.4	6.1	0.00e+00	0	37	104	0	60	87799
2026-01-07 10:55:13.03	293.72	19.60	-51.9	-54.4	6.1	0.00e+00	0	37	104	0	60	87995
2026-01-07 10:55:14.04	294.07	19.54	-51.9	-54.4	6.0	0.00e+00	0	37	104	0	60	87824
2026-01-07 10:55:15.06	294.42	19.47	-51.9	-54.4	6.1	0.00e+00	0	37	104	0	60	87750
2026-01-07 10:55:16.07	294.76	19.40	-51.9	-54.4	6.1	0.00e+00	0	37	104	0	60	87926
2026-01-07 10:55:17.07	295.10	19.33	-51.9	-54.4	6.1	0.00e+00	0	36	104	0	60	88144
2026-01-07 10:55:18.09	295.45	19.26	-51.9	-54.4	6.1	0.00e+00	0	36	104	0	60	87981
2026-01-07 10:55:19.10	295.79	19.19	-51.9	-54.4	6.1	0.00e+00	0	37	104	0	60	87813
2026-01-07 10:55:20.11	296.12	19.11	-51.9	-54.4	6.1	0.00e+00	0	37	104	0	60	87751
2026-01-07 10:55:21.12	296.46	19.04	-51.9	-54.4	6.1	0.00e+00	0	37	104	0	60	88025
2026-01-07 10:55:22.13	296.79	18.97	-51.9	-54.4	6.1	0.00e+00	0	37	104	0	60	88153
2026-01-07 10:55:23.14	297.12	18.90	-51.9	-54.4	6.1	0.00e+00	0	37	104	0	60	87622
2026-01-07 10:55:24.15	297.45	18.82	-51.9	-54.4	6.1	0.00e+00	0	37	104	0	60	87724
2026-01-07 10:55:25.17	297.79	18.75	-51.9	-54.4	6.1	0.00e+00	0	37	104	0	60	88051
2026-01-07 10:55:26.18	298.11	18.67	-51.9	-54.5	6.1	0.00e+00	0	37	104	0	60	88289
2026-01-07 10:55:27.19	298.44	18.59	-51.9	-54.4	6.1	0.00e+00	0	37	104	0	60	88033
2026-01-07 10:55:28.20	298.76	18.52	-51.9	-54.4	6.1	0.00e+00	0	37	104	0	60	87645
2026-01-07 10:55:29.21	299.08	18.44	-52.0	-54.4	6.1	0.00e+00	0	37	104	0	60	87818
2026-01-07 10:55:30.22	299.40	18.36	-51.9	-54.4	6.1	0.00e+00	0	37	104	0	60	87923
2026-01-07 10:55:31.23	299.72	18.29	-51.9	-54.4	6.1	0.00e+00	0	37	104	0	60	87587
2026-01-07 10:55:32.24	300.03	18.21	-51.9	-54.4	6.1	0.00e+00	0	37	104	0	60	87761
2026-01-07 10:55:33.25	300.35	18.13	-51.9	-54.4	6.1	0.00e+00	0	37	104	0	60	87923
2026-01-07 10:55:34.27	300.66	18.05	-51.9	-54.4	6.1	0.00e+00	0	37	104	0	60	87629
2026-01-07 10:55:35.28	300.97	17.97	-51.9	-54.4	6.1	0.00e+00	0	37	104	0	60	87963
2026-01-07 10:55:36.28	301.28	17.89	-51.9	-54.4	6.1	0.00e+00	0	37	104	0	60	87840
2026-01-07 10:55:37.30	301.58	17.81	-51.9	-54.4	6.1	0.00e+00	0	37	104	0	60	87935
2026-01-07 10:55:38.31	301.89	17.73	-51.9	-54.4	6.1	0.00e+00	0	37	104	0	60	87485
2026-01-07 10:55:39.32	302.19	17.65	-52.0	-54.4	6.1	0.00e+00	0	37	104	0	60	88117
2026-01-07 10:55:40.33	302.49	17.57	-51.9	-54.5	6.1	0.00e+00	0	37	104	0	60	88411
2026-01-07 10:55:41.34	302.79	17.49	-51.9	-54.4	6.1	0.00e+00	0	37	104	0	60	88103
2026-01-07 10:55:42.35	303.09	17.40	-51.9	-54.4	6.0	0.00e+00	0	37	104	0	60	88090
2026-01-07 10:55:43.36	303.38	17.32	-51.9	-54.5	6.1	0.00e+00	0	37	104	0	60	88268
2026-01-07 10:55:44.37	303.67	17.24	-51.9	-54.4	6.1	0.00e+00	0	37	104	0	60	88175
2026-01-07 10:55:45.38	303.97	17.16	-51.9	-54.5	6.1	0.00e+00	0	37	104	0	60	88289
2026-01-07 10:55:46.40	304.26	17.07	-51.9	-54.4	6.1	0.00e+00	0	37	104	0	60	88117
2026-01-07 10:55:47.41	304.55	16.99	-51.9	-54.4	6.1	0.00e+00	0	37	104	0	60	87874
2026-01-07 10:55:48.42	304.83	16.91	-52.0	-54.4	6.1	0.00e+00	0	37	104	0	60	87959
2026-01-07 10:55:49.43	305.12	16.82	-52.0	-54.5	6.1	0.00e+00	0	37	104	0	60	88334
2026-01-07 10:55:50.44	305.40	16.74	-51.9	-54.5	6.1	0.00e+00	0	37	104	0	60	88272
2026-01-07 10:55:51.45	305.68	16.65	-51.9	-54.4	6.1	0.00e+00	0	37	104	0	60	88115
2026-01-07 10:55:52.46	305.96	16.57	-52.0	-54.4	6.1	0.00e+00	0	37	104	0	60	87675
2026-01-07 10:55:53.47	306.23	16.48	-51.9	-54.4	6.1	0.00e+00	0	36	104	0	60	87408
2026-01-07 10:55:54.48	306.51	16.40	-51.9	-54.4	6.1	0.00e+00	0	37	104	0	60	87874
2026-01-07 10:55:55.49	306.78	16.31	-51.9	-54.4	6.1	0.00e+00	0	37	104	0	60	87757
2026-01-07 10:55:56.50	307.05	16.23	-51.9	-54.4	6.1	0.00e+00	0	37	104	0	60	88054
2026-01-07 10:55:57.51	307.32	16.14	-51.9	-54.4	6.1	0.00e+00	0	37	104	0	60	87878
2026-01-07 10:55:58.52	307.59	16.06	-51.9	-54.5	6.1	0.00e+00	0	37	104	0	60	88226
2026-01-07 10:55:59.54	307.86	15.97	-51.9	-54.4	6.1	0.00e+00	0	37	104	0	60	87734
2026-01-07 10:56:00.55	308.12	15.89	-51.9	-54.4	6.1	0.00e+00	0	37	104	0	60	88118
2026-01-07 10:56:01.56	308.39	15.80	-51.9	-54.5	6.1	0.00e+00	0	37	104	0	60	88400
2026-01-07 10:56:02.57	308.65	15.72	-51.9	-54.4	6.1	0.00e+00	0	37	104	0	60	88199
2026-01-07 10:56:03.58	308.91	15.63	-51.9	-54.4	6.0	0.00e+00	0	37	104	0	60	87532
2026-01-07 10:56:04.59	309.16	15.54	-52.0	-54.5	6.1	0.00e+00	0	37	104	0	60	88310
2026-01-07 10:56:05.60	309.42	15.46	-51.9	-54.5	6.1	0.00e+00	0	37	104	0	60	88313
2026-01-07 10:56:06.61	309.67	15.37	-51.9	-54.4	6.1	0.00e+00	0	37	104	0	60	88049
2026-01-07 10:56:07.62	309.93	15.28	-51.9	-54.5	6.1	0.00e+00	0	37	104	0	60	88487
2026-01-07 10:56:08.63	310.18	15.20	-51.9	-54.4	6.1	0.00e+00	0	37	104	0	60	88052
2026-01-07 10:56:09.64	310.43	15.11	-51.9	-54.4	6.1	0.00e+00	0	37	104	0	60	87920
2026-01-07 10:56:10.65	310.67	15.02	-51.9	-54.4	6.1	0.00e+00	0	37	104	0	60	88006
2026-01-07 10:56:11.66	310.92	14.94	-51.9	-54.4	6.1	0.00e+00	0	37	104	0	60	87714
2026-01-07 10:56:12.67	311.16	14.85	-51.9	-54.4	6.1	0.00e+00	0	37	104	0	60	88054
2026-01-07 10:56:13.69	311.41	14.76	-51.9	-54.5	6.1	0.00e+00	0	37	104	0	60	88316
2026-01-07 10:56:14.69	311.65	14.68	-51.9	-54.4	6.1	0.00e+00	0	37	104	0	60	87855
2026-01-07 10:56:15.71	311.89	14.59	-51.9	-54.4	6.0	0.00e+00	0	37	104	0	60	88163
2026-01-07 10:56:16.72	312.12	14.50	-51.9	-54.4	6.1	0.00e+00	0	37	104	0	60	87807
2026-01-07 10:56:17.73	312.36	14.42	-52.0	-54.4	6.1	0.00e+00	0	37	104	0	60	88041
2026-01-07 10:56:18.74	312.59	14.33	-51.9	-54.4	6.1	0.00e+00	0	37	104	0	60	88163
2026-01-07 10:56:19.75	312.83	14.24	-51.9	-54.4	6.1	0.00e+00	0	37	104	0	60	88157
2026-01-07 10:56:20.76	313.06	14.16	-51.9	-54.5	6.1	0.00e+00	0	37	104	0	60	88255
2026-01-07 10:56:21.77	313.29	14.07	-52.0	-54.5	6.1	0.00e+00	0	37	104	0	60	88288
2026-01-07 10:56:22.78	313.52	13.99	-52.0	-54.5	6.1	0.00e+00	0	37	104	0	60	88529
2026-01-07 10:56:23.80	313.74	13.90	-51.9	-54.4	6.1	0.00e+00	0	37	104	0	60	87925
2026-01-07 10:56:24.81	313.97	13.81	-51.9	-54.5	6.1	0.00e+00	0	37	104	0	60	88274
2026-01-07 10:56:25.82	314.19	13.72	-52.0	-54.5	6.1	0.00e+00	0	37	104	0	60	88253
2026-01-07 10:56:26.83	314.41	13.64	-51.9	-54.4	6.1	0.00e+00	0	37	104	0	60	88017
2026-01-07 10:56:27.84	314.63	13.55	-51.9	-54.4	6.1	0.00e+00	0	37	104	0	60	88071
2026-01-07 10:56:28.85	314.85	13.47	-51.9	-54.4	6.1	0.00e+00	0	37	104	0	60	87784
2026-01-07 10:56:29.86	315.07	13.38	-51.9	-54.4	6.1	0.00e+00	0	37	104	0	60	88133
2026-01-07 10:56:30.87	315.29	13.29	-51.9	-54.5	6.1	0.00e+00	0	37	104	0	60	88369
2026-01-07 10:56:31.88	315.50	13.21	-52.0	-54.4	6.1	0.00e+00	0	37	104	0	60	87989
2026-01-07 10:56:32.89	315.71	13.12	-51.9	-54.4	6.1	0.00e+00	0	37	104	0	60	87756
2026-01-07 10:56:33.90	315.93	13.04	-52.0	-54.4	6.1	0.00e+00	0	37	104	0	60	87671
2026-01-07 10:56:34.91	316.14	12.95	-51.9	-54.4	6.1	0.00e+00	0	37	104	0	60	88034
2026-01-07 10:56:35.93	316.35	12.86	-52.0	-54.5	6.1	0.00e+00	0	37	104	0	60	88229
2026-01-07 10:56:36.94	316.55	12.78	-51.9	-54.4	6.1	0.00e+00	0	37	104	0	60	87782
2026-01-07 10:56:37.95	316.76	12.69	-51.9	-54.5	6.1	0.00e+00	0	37	104	0	60	88231
2026-01-07 10:56:38.96	316.96	12.61	-52.0	-54.4	6.1	0.00e+00	0	37	104	0	60	88147
2026-01-07 10:56:39.97	317.17	12.52	-51.9	-54.4	6.1	0.00e+00	0	37	104	0	60	88168
2026-01-07 10:56:40.98	317.37	12.44	-51.9	-54.4	6.1	0.00e+00	0	37	104	0	60	87941
2026-01-07 10:56:41.99	317.57	12.35	-51.9	-54.4	6.1	0.00e+00	0	37	104	0	60	87915
2026-01-07 10:56:43.00	317.77	12.27	-51.9	-54.5	6.1	0.00e+00	0	37	104	0	60	88320
2026-01-07 10:56:44.01	317.96	12.18	-51.9	-54.4	6.1	0.00e+00	0	37	104	0	60	87849
2026-01-07 10:56:45.02	318.16	12.10	-52.0	-54.4	6.1	0.00e+00	0	37	104	0	60	88007
2026-01-07 10:56:46.04	318.36	12.01	-52.0	-54.4	6.1	0.00e+00	0	37	104	0	60	87641
2026-01-07 10:56:47.05	318.55	11.93	-52.0	-54.4	6.1	0.00e+00	0	37	104	0	60	88060
2026-01-07 10:56:48.06	318.74	11.84	-52.0	-54.4	6.1	0.00e+00	0	37	104	0	60	88111
2026-01-07 10:56:49.07	318.93	11.76	-51.9	-54.4	6.1	0.00e+00	0	37	104	0	60	87987
2026-01-07 10:56:50.08	319.12	11.68	-52.0	-54.4	6.1	0.00e+00	0	37	104	0	60	88138
2026-01-07 10:56:51.09	319.31	11.59	-51.9	-54.4	6.1	0.00e+00	0	37	104	0	60	87999
2026-01-07 10:56:52.10	319.50	11.51	-52.0	-54.5	6.1	0.00e+00	0	37	104	0	60	88263
2026-01-07 10:56:53.11	319.69	11.42	-51.9	-54.5	6.1	0.00e+00	0	37	104	0	60	88261
2026-01-07 10:56:54.12	319.87	11.34	-52.0	-54.5	6.1	0.00e+00	0	37	104	0	60	88363
2026-01-07 10:56:55.13	320.05	11.26	-52.0	-54.5	6.1	0.00e+00	0	37	104	0	60	88398
2026-01-07 10:56:56.14	320.24	11.17	-52.0	-54.4	6.1	0.00e+00	0	37	104	0	60	87957
2026-01-07 10:56:57.16	320.42	11.09	-52.0	-54.5	6.1	0.00e+00	0	37	104	0	60	88283
2026-01-07 10:56:58.16	320.60	11.01	-52.0	-54.4	6.1	0.00e+00	0	37	104	0	60	88096
2026-01-07 10:56:59.18	320.78	10.93	-52.0	-54.4	6.1	0.00e+00	0	37	104	0	60	88134
2026-01-07 10:57:00.19	320.96	10.84	-51.9	-54.4	6.1	0.00e+00	0	37	104	0	60	88197
2026-01-07 10:57:01.20	321.13	10.76	-51.9	-54.4	6.1	0.00e+00	0	37	104	0	60	88212
2026-01-07 10:57:02.21	321.31	10.68	-52.0	-54.4	6.1	0.00e+00	0	37	104	0	60	87331
2026-01-07 10:57:03.22	321.48	10.60	-51.9	-54.4	6.1	0.00e+00	0	37	104	0	60	87894
2026-01-07 10:57:04.23	321.65	10.51	-52.0	-54.4	6.1	0.00e+00	0	37	104	0	60	87870
2026-01-07 10:57:05.24	321.82	10.43	-52.0	-54.4	6.1	0.00e+00	0	37	104	0	60	88128
2026-01-07 10:57:06.25	322.00	10.35	-52.0	-54.5	6.1	0.00e+00	0	37	104	0	60	88385
2026-01-07 10:57:07.26	322.16	10.27	-51.9	-54.4	6.1	0.00e+00	0	37	104	0	60	87804
2026-01-07 10:57:08.27	322.33	10.19	-51.9	-54.4	6.1	0.00e+00	0	37	104	0	60	87668
2026-01-07 10:57:09.29	322.50	10.11	-52.0	-54.4	6.1	0.00e+00	0	37	104	0	60	88103
2026-01-07 10:57:10.30	322.67	10.03	-51.9	-54.4	6.0	0.00e+00	0	37	104	0	60	87852
2026-01-07 10:57:11.31	322.83	9.95	-52.0	-54.4	6.1	0.00e+00	0	37	104	0	60	87827
2026-01-07 10:57:12.32	323.00	9.86	-51.9	-54.4	6.1	0.00e+00	0	37	104	0	60	87921
2026-01-07 10:57:13.33	323.16	9.78	-52.0	-54.5	6.1	0.00e+00	0	37	104	0	60	88349
2026-01-07 10:57:14.34	323.32	9.70	-52.0	-54.4	6.1	0.00e+00	0	37	104	0	60	88004
2026-01-07 10:57:15.35	323.48	9.62	-51.9	-54.4	6.0	0.00e+00	0	37	104	0	60	87804
2026-01-07 10:57:16.36	323.64	9.54	-52.0	-54.4	6.1	0.00e+00	0	37	104	0	60	88115
2026-01-07 10:57:17.37	323.80	9.46	-52.0	-54.4	6.1	0.00e+00	0	37	104	0	60	87825
2026-01-07 10:57:18.38	323.96	9.39	-52.0	-54.4	6.1	0.00e+00	0	37	104	0	60	87886
2026-01-07 10:57:19.39	324.11	9.31	-52.0	-54.4	6.1	0.00e+00	0	37	104	0	60	87997
2026-01-07 10:57:20.40	324.27	9.23	-52.0	-54.4	6.1	0.00e+00	0	37	104	0	60	88142
2026-01-07 10:57:21.42	324.43	9.15	-52.0	-54.5	6.1	0.00e+00	0	37	104	0	60	88384
2026-01-07 10:57:22.43	324.58	9.07	-51.9	-54.4	6.1	0.00e+00	0	37	104	0	60	87906
2026-01-07 10:57:23.44	324.73	8.99	-52.0	-54.4	6.0	0.00e+00	0	37	104	0	60	87993
2026-01-07 10:57:24.45	324.88	8.91	-51.9	-54.4	6.1	0.00e+00	0	37	104	0	60	87988
2026-01-07 10:57:25.46	325.03	8.83	-52.0	-54.4	6.1	0.00e+00	0	37	104	0	60	88094
2026-01-07 10:57:26.47	325.18	8.76	-51.9	-54.4	6.1	0.00e+00	0	37	104	0	60	87950
2026-01-07 10:57:27.48	325.33	8.68	-52.0	-54.4	6.1	0.00e+00	0	37	104	0	60	88195
2026-01-07 10:57:28.49	325.48	8.60	-52.0	-54.4	6.1	0.00e+00	0	37	104	0	60	88070
2026-01-07 10:57:29.50	325.63	8.52	-52.0	-54.4	6.1	0.00e+00	0	37	104	0	60	87628
2026-01-07 10:57:30.51	325.77	8.44	-52.0	-54.5	6.1	0.00e+00	0	37	104	0	60	88261
2026-01-07 10:57:31.53	325.92	8.37	-51.9	-54.4	6.1	0.00e+00	0	37	104	0	60	88044
2026-01-07 10:57:32.54	326.06	8.29	-52.0	-54.5	6.1	0.00e+00	0	37	104	0	60	88332
2026-01-07 10:57:33.55	326.21	8.21	-51.9	-54.4	6.1	0.00e+00	0	37	104	0	60	88194
2026-01-07 10:57:34.56	326.35	8.14	-52.0	-54.4	6.1	0.00e+00	0	37	104	0	60	87590
2026-01-07 10:57:35.57	326.49	8.06	-52.0	-54.4	6.1	0.00e+00	0	37	104	0	60	88143
2026-01-07 10:57:36.58	326.63	7.98	-51.9	-54.4	6.1	0.00e+00	0	37	104	0	60	88010
2026-01-07 10:57:37.59	326.77	7.91	-52.0	-54.4	6.1	0.00e+00	0	37	104	0	60	88119
2026-01-07 10:57:38.60	326.91	7.83	-52.0	-54.4	6.1	0.00e+00	0	37	104	0	60	88008
2026-01-07 10:57:39.61	327.05	7.76	-52.0	-54.4	6.1	0.00e+00	0	37	104	0	60	87906
2026-01-07 10:57:40.62	327.18	7.68	-52.0	-54.5	6.1	0.00e+00	0	37	104	0	60	88486
2026-01-07 10:57:41.63	327.32	7.61	-52.0	-54.4	6.1	0.00e+00	0	37	104	0	60	87873
2026-01-07 10:57:42.64	327.45	7.53	-52.0	-54.5	6.1	0.00e+00	0	37	104	0	60	88309
2026-01-07 10:57:43.65	327.59	7.46	-52.0	-54.4	6.1	0.00e+00	0	37	104	0	60	88087
2026-01-07 10:57:44.67	327.72	7.38	-52.0	-54.4	6.1	0.00e+00	0	37	104	0	60	88055
2026-01-07 10:57:45.68	327.86	7.31	-52.0	-54.4	6.1	0.00e+00	0	37	104	0	60	88137
2026-01-07 10:57:46.69	327.99	7.23	-51.9	-54.4	6.1	0.00e+00	0	37	104	0	60	88026
2026-01-07 10:57:47.70	328.12	7.16	-52.0	-54.5	6.1	0.00e+00	0	37	104	0	60	88293
2026-01-07 10:57:48.71	328.25	7.08	-52.0	-54.4	6.1	0.00e+00	0	37	104	0	60	88026
2026-01-07 10:57:49.72	328.38	7.01	-52.0	-54.4	6.1	0.00e+00	0	37	104	0	60	87754
2026-01-07 10:57:50.73	328.51	6.93	-52.0	-54.4	6.1	0.00e+00	0	37	104	0	60	87888
2026-01-07 10:57:51.74	328.64	6.86	-52.0	-54.4	6.1	0.00e+00	0	37	104	0	60	87955
2026-01-07 10:57:52.75	328.76	6.79	-52.0	-54.5	6.1	0.00e+00	0	37	104	0	60	88411
2026-01-07 10:57:53.76	328.89	6.71	-52.0	-54.5	6.1	0.00e+00	0	37	104	0	60	88251
2026-01-07 10:57:54.77	329.02	6.64	-52.0	-54.4	6.1	0.00e+00	0	37	104	0	60	88005
2026-01-07 10:57:55.79	329.14	6.57	-52.0	-54.4	6.1	0.00e+00	0	37	104	0	60	87987
2026-01-07 10:57:56.80	329.27	6.50	-51.9	-54.5	6.1	0.00e+00	0	37	104	0	60	88367
2026-01-07 10:57:57.81	329.39	6.42	-52.0	-54.4	6.1	0.00e+00	0	37	104	0	60	87733
2026-01-07 10:57:58.82	329.51	6.35	-52.0	-54.4	6.1	0.00e+00	0	37	104	0	60	88121
2026-01-07 10:57:59.83	329.63	6.28	-52.0	-54.4	6.1	0.00e+00	0	37	104	0	60	88100
2026-01-07 10:58:00.84	329.76	6.21	-52.0	-54.4	6.1	0.00e+00	0	37	104	0	60	88143
2026-01-07 10:58:01.85	329.88	6.13	-52.0	-54.4	6.1	0.00e+00	0	37	104	0	60	88179
2026-01-07 10:58:02.86	330.00	6.06	-52.0	-54.4	6.1	0.00e+00	0	37	104	0	60	88155
2026-01-07 10:58:03.87	330.12	5.99	-52.0	-54.4	6.1	0.00e+00	0	37	104	0	60	88186
2026-01-07 10:58:04.88	330.23	5.92	-52.0	-54.4	6.1	0.00e+00	0	37	104	0	60	88146
2026-01-07 10:58:05.90	330.35	5.85	-52.0	-54.5	6.1	0.00e+00	0	37	104	0	60	88326
2026-01-07 10:58:06.91	330.47	5.78	-52.0	-54.5	6.1	0.00e+00	0	37	104	0	60	88282
2026-01-07 10:58:07.92	330.59	5.71	-51.9	-54.4	6.1	0.00e+00	0	37	104	0	60	88128
2026-01-07 10:58:08.93	330.70	5.64	-52.0	-54.4	6.1	0.00e+00	0	37	104	0	60	88134
2026-01-07 10:58:09.94	330.82	5.57	-52.0	-54.4	6.1	0.00e+00	0	37	104	0	60	88030
2026-01-07 10:58:10.95	330.93	5.50	-52.0	-54.5	6.1	0.00e+00	0	37	104	0	60	88450
2026-01-07 10:58:11.96	331.04	5.43	-52.0	-54.5	6.1	0.00e+00	0	37	104	0	60	88294
2026-01-07 10:58:12.97	331.16	5.36	-52.0	-54.5	6.1	0.00e+00	0	37	104	0	60	88227
2026-01-07 10:58:13.98	331.27	5.29	-52.0	-54.4	6.1	0.00e+00	0	37	104	0	60	87975
2026-01-07 10:58:14.99	331.38	5.22	-52.0	-54.4	6.1	0.00e+00	0	37	104	0	60	88079
2026-01-07 10:58:16.01	331.49	5.15	-52.0	-54.5	6.0	0.00e+00	0	37	104	0	60	88407
2026-01-07 10:58:17.02	331.60	5.08	-52.0	-54.4	6.1	0.00e+00	0	37	104	0	60	88041
2026-01-07 10:58:18.03	331.71	5.01	-52.0	-54.4	6.1	0.00e+00	0	37	104	0	60	88165
2026-01-07 10:58:19.04	331.82	4.94	-52.0	-54.5	6.1	0.00e+00	0	37	104	0	60	88294
2026-01-07 10:58:20.05	331.93	4.87	-52.0	-54.4	6.1	0.00e+00	0	37	104	0	60	87666
2026-01-07 10:58:21.06	332.04	4.80	-52.0	-54.4	6.1	0.00e+00	0	37	104	0	60	87823
2026-01-07 10:58:22.07	332.15	4.73	-52.0	-54.4	6.1	0.00e+00	0	37	104	0	60	87957
2026-01-07 10:58:23.08	332.25	4.67	-52.0	-54.4	6.1	0.00e+00	0	37	104	0	60	87693
2026-01-07 10:58:24.09	332.36	4.60	-52.0	-54.4	6.1	0.00e+00	0	37	104	0	60	87751
2026-01-07 10:58:25.10	332.47	4.53	-52.0	-54.5	6.1	0.00e+00	0	37	104	0	60	88246
2026-01-07 10:58:26.12	332.57	4.46	-52.0	-54.4	6.1	0.00e+00	0	37	104	0	60	88171
2026-01-07 10:58:27.13	332.68	4.39	-52.0	-54.5	6.1	0.00e+00	0	37	104	0	60	88311
2026-01-07 10:58:28.14	332.78	4.33	-52.0	-54.4	6.1	0.00e+00	0	37	104	0	60	87773
2026-01-07 10:58:29.15	332.88	4.26	-52.0	-54.5	6.1	0.00e+00	0	37	104	0	60	88307
2026-01-07 10:58:30.16	332.99	4.19	-52.0	-54.5	6.1	0.00e+00	0	37	104	0	60	88251
2026-01-07 10:58:31.17	333.09	4.13	-52.0	-54.5	6.1	0.00e+00	0	37	104	0	60	88643
2026-01-07 10:58:32.18	333.19	4.06	-52.0	-54.4	6.0	0.00e+00	0	37	104	0	60	87599
2026-01-07 10:58:33.19	333.29	3.99	-52.0	-54.4	6.1	0.00e+00	0	37	104	0	60	87871
2026-01-07 10:58:34.20	333.39	3.93	-51.9	-54.4	6.1	0.00e+00	0	37	104	0	60	87823
2026-01-07 10:58:35.21	333.49	3.86	-52.0	-54.5	6.1	0.00e+00	0	37	104	0	60	88261
2026-01-07 10:58:36.22	333.59	3.79	-52.0	-54.4	6.1	0.00e+00	0	37	104	0	60	88110
2026-01-07 10:58:37.23	333.69	3.73	-52.0	-54.5	6.1	0.00e+00	0	37	104	0	60	88385
2026-01-07 10:58:38.24	333.79	3.66	-52.0	-54.5	6.1	0.00e+00	0	37	104	0	60	88337
2026-01-07 10:58:39.26	333.89	3.60	-52.0	-54.4	6.1	0.00e+00	0	37	104	0	60	87957
2026-01-07 10:58:40.27	333.98	3.53	-52.0	-54.5	6.1	0.00e+00	0	37	104	0	60	88343
2026-01-07 10:58:41.28	334.08	3.46	-52.0	-54.4	6.1	0.00e+00	0	37	104	0	60	88125
2026-01-07 10:58:42.29	334.18	3.40	-52.0	-54.4	6.1	0.00e+00	0	37	104	0	60	87708
2026-01-07 10:58:43.30	334.27	3.33	-51.9	-54.5	6.1	0.00e+00	0	37	104	0	60	88524
2026-01-07 10:58:44.31	334.37	3.27	-52.0	-54.4	6.1	0.00e+00	0	37	104	0	60	87942
2026-01-07 10:58:45.32	334.46	3.20	-52.0	-54.4	6.1	0.00e+00	0	37	104	0	60	88127
2026-01-07 10:58:46.33	334.56	3.14	-52.0	-54.4	6.1	0.00e+00	0	37	104	0	60	87869
2026-01-07 10:58:47.34	334.65	3.08	-52.0	-54.5	6.1	0.00e+00	0	37	104	0	60	88247
2026-01-07 10:58:48.35	334.74	3.01	-52.0	-54.5	6.1	0.00e+00	0	37	104	0	60	88246
2026-01-07 10:58:49.37	334.84	2.95	-52.0	-54.4	6.1	0.00e+00	0	37	104	0	60	87963
2026-01-07 10:58:50.38	334.93	2.88	-52.0	-54.5	6.1	0.00e+00	0	37	104	0	60	88341
2026-01-07 10:58:51.39	335.02	2.82	-51.9	-54.4	6.1	0.00e+00	0	37	104	0	60	87950
2026-01-07 10:58:52.40	335.11	2.75	-52.0	-54.4	6.1	0.00e+00	0	37	104	0	60	88128
2026-01-07 10:58:53.41	335.20	2.69	-52.0	-54.4	6.1	0.00e+00	0	37	104	0	60	87891
2026-01-07 10:58:54.42	335.29	2.63	-52.0	-54.4	6.1	0.00e+00	0	37	104	0	60	88203
2026-01-07 10:58:55.43	335.38	2.56	-52.0	-54.4	6.1	0.00e+00	0	37	104	0	60	88035
2026-01-07 10:58:56.44	335.47	2.50	-51.9	-54.4	6.1	0.00e+00	0	37	104	0	60	88095
2026-01-07 10:58:57.45	335.56	2.44	-52.0	-54.5	6.1	0.00e+00	0	37	104	0	60	88304
2026-01-07 10:58:58.46	335.65	2.38	-52.0	-54.5	6.1	0.00e+00	0	37	104	0	60	88550
2026-01-07 10:58:59.47	335.74	2.31	-52.0	-54.4	6.1	0.00e+00	0	37	104	0	60	87959
2026-01-07 10:59:00.48	335.82	2.25	-51.9	-54.5	6.1	0.00e+00	0	37	104	0	60	88300
2026-01-07 10:59:01.49	335.91	2.19	-52.0	-54.5	6.1	0.00e+00	0	37	104	0	60	88322
2026-01-07 10:59:02.50	336.00	2.13	-52.0	-54.4	6.1	0.00e+00	0	37	104	0	60	88168
2026-01-07 10:59:03.51	336.08	2.06	-52.0	-54.4	6.1	0.00e+00	0	37	104	0	60	88137
2026-01-07 10:59:04.52	336.17	2.00	-52.0	-54.5	6.1	0.00e+00	0	37	104	0	60	88236
2026-01-07 10:59:05.53	336.26	1.94	-51.9	-54.4	6.1	0.00e+00	0	37	104	0	60	88133
2026-01-07 10:59:06.54	336.34	1.88	-52.0	-54.4	6.1	0.00e+00	0	37	104	0	60	87937
2026-01-07 10:59:07.55	336.42	1.82	-52.0	-54.4	6.1	0.00e+00	0	37	104	0	60	88137
2026-01-07 10:59:08.56	336.51	1.75	-52.0	-54.5	6.1	0.00e+00	0	37	104	0	60	88227
2026-01-07 10:59:09.58	336.59	1.69	-52.0	-54.5	6.1	0.00e+00	0	37	104	0	60	88766
2026-01-07 10:59:10.59	336.68	1.63	-52.0	-54.4	6.1	0.00e+00	0	37	104	0	60	88050
2026-01-07 10:59:11.60	336.76	1.57	-52.0	-54.5	6.1	0.00e+00	0	37	104	0	60	88397
2026-01-07 10:59:12.61	336.84	1.51	-52.0	-54.4	6.1	0.00e+00	0	37	104	0	60	88156
2026-01-07 10:59:13.62	336.92	1.45	-52.0	-54.4	6.1	0.00e+00	0	37	104	0	60	88027
2026-01-07 10:59:14.63	337.00	1.39	-52.0	-54.5	6.1	0.00e+00	0	37	104	0	60	88483
2026-01-07 10:59:15.64	337.09	1.33	-52.0	-54.5	6.1	0.00e+00	0	37	104	0	60	88317
2026-01-07 10:59:16.65	337.17	1.27	-52.0	-54.5	6.1	0.00e+00	0	37	104	0	60	88658
2026-01-07 10:59:17.66	337.25	1.21	-52.0	-54.4	6.1	0.00e+00	0	37	104	0	60	88211
2026-01-07 10:59:18.67	337.33	1.15	-52.0	-54.4	6.1	0.00e+00	0	37	104	0	60	87980
2026-01-07 10:59:19.68	337.41	1.09	-52.0	-54.4	6.1	0.00e+00	0	37	104	0	60	87901
2026-01-07 10:59:20.69	337.49	1.03	-52.0	-54.4	6.1	0.00e+00	0	37	104	0	60	87950
2026-01-07 10:59:21.70	337.56	0.97	-52.0	-54.4	6.1	0.00e+00	0	37	104	0	60	87879
2026-01-07 10:59:22.71	337.64	0.91	-52.0	-54.5	6.1	0.00e+00	0	37	104	0	60	88296
2026-01-07 10:59:23.72	337.72	0.85	-52.0	-54.5	6.1	0.00e+00	0	37	104	0	60	88384
2026-01-07 10:59:24.73	337.80	0.79	-52.0	-54.4	6.1	0.00e+00	0	37	104	0	60	88122
2026-01-07 10:59:25.75	337.88	0.73	-52.0	-54.5	6.1	0.00e+00	0	37	104	0	60	88466
2026-01-07 10:59:26.76	337.95	0.67	-52.0	-54.4	6.1	0.00e+00	0	37	104	0	60	87828
2026-01-07 10:59:27.77	338.03	0.61	-52.0	-54.5	6.1	0.00e+00	0	37	104	0	60	88247
2026-01-07 10:59:28.78	338.11	0.55	-52.0	-54.4	6.1	0.00e+00	0	37	104	0	60	88001
2026-01-07 10:59:29.79	338.18	0.49	-52.0	-54.4	6.1	0.00e+00	0	37	104	0	60	88135
2026-01-07 10:59:30.80	338.26	0.43	-52.0	-54.5	6.1	0.00e+00	0	37	104	0	60	88239
2026-01-07 10:59:31.81	338.33	0.37	-52.0	-54.5	6.1	0.00e+00	0	37	104	0	60	88376
2026-01-07 10:59:32.82	338.41	0.31	-52.0	-54.4	6.1	0.00e+00	0	37	104	0	60	88211
2026-01-07 10:59:33.83	338.48	0.26	-52.0	-54.5	6.1	0.00e+00	0	37	104	0	60	88380
2026-01-07 10:59:34.84	338.56	0.20	-52.0	-54.4	6.1	0.00e+00	0	37	104	0	60	87881
2026-01-07 10:59:35.85	338.63	0.14	-52.0	-54.5	6.1	0.00e+00	0	37	104	0	60	88318
2026-01-07 10:59:36.86	338.70	0.08	-52.0	-54.4	6.1	0.00e+00	0	37	104	0	60	88176
2026-01-07 10:59:37.87	338.78	0.02	-52.0	-54.4	6.1	0.00e+00	0	37	104	0	60	88194

#Closed at: 2026-01-07 10:59:38
#Recorded file [0 MB]: D:/lorett/data/35034_260107_134919.dat