passes_logs/2026/01/19/R2.0S_Raduga/R2.0S_Raduga__20260119_231344_NOAA_21_JPSS-2_rec.log

#Pass ID: 20260119_231344_NOAA 21 (JPSS-2)
#Satellite: NOAA 21 (JPSS-2)
#Configuration: NOAA 21 (JPSS-2)
#Start time: 2026-01-19 23:13:49.107756

#LorettStation: 1.0.0 05.05.2024
#Station: R2.0S_Raduga
#Location: 37.601861 lon 55.688408 lat
#TLE: 1 54234U 22150A   26018.88939962  .00000052  00000+0  45304-4 0  9995
#TLE: 2 54234  98.7504 319.7421 0000606 261.7569  98.3539 14.19535520165361

#Time	Az	El	Level	SNR
2026-01-19 23:13:53.272611	24.9	15.4	-93.3	0.0
2026-01-19 23:13:54.410296	24.9	15.5	-93.3	0.0
2026-01-19 23:13:55.554149	25.0	15.7	-93.3	0.0
2026-01-19 23:13:56.695074	25.1	15.8	-93.3	0.0
2026-01-19 23:13:57.830460	25.1	15.9	-93.4	0.0
2026-01-19 23:13:58.966854	25.2	16.0	-93.3	0.0
2026-01-19 23:14:00.110401	25.3	16.2	-93.3	0.0
2026-01-19 23:14:01.246859	25.3	16.3	-93.3	0.0
2026-01-19 23:14:02.384738	25.4	16.4	-93.3	0.0
2026-01-19 23:14:03.522123	25.5	16.5	-93.2	0.0
2026-01-19 23:14:04.661581	25.6	16.6	-93.2	0.0
2026-01-19 23:14:05.802189	25.6	16.8	-93.4	0.0
2026-01-19 23:14:06.950551	25.7	16.9	-93.2	0.0
2026-01-19 23:14:08.089910	25.8	17.0	-93.3	0.0
2026-01-19 23:14:09.227007	25.8	17.1	-93.2	0.0
2026-01-19 23:14:10.366880	25.9	17.3	-93.2	0.0
2026-01-19 23:14:11.514746	26.0	17.4	-93.4	0.0
2026-01-19 23:14:12.658836	26.1	17.5	-93.3	0.0
2026-01-19 23:14:13.801931	26.1	17.7	-93.3	0.0
2026-01-19 23:14:14.946064	26.2	17.8	-93.2	0.0
2026-01-19 23:14:16.082523	26.3	17.9	-93.3	0.0
2026-01-19 23:14:17.221878	26.4	18.1	-93.3	0.0
2026-01-19 23:14:18.357499	26.4	18.2	-93.3	0.0
2026-01-19 23:14:19.495983	26.5	18.3	-93.4	0.0
2026-01-19 23:14:20.631430	26.6	18.4	-93.2	0.0
2026-01-19 23:14:21.772150	26.7	18.6	-93.2	0.0
2026-01-19 23:14:22.917950	26.8	18.7	-93.2	0.0
2026-01-19 23:14:24.054415	26.8	18.9	-93.3	0.0
2026-01-19 23:14:25.189894	26.9	19.0	-93.3	0.0
2026-01-19 23:14:26.336278	27.0	19.1	-93.4	0.0
2026-01-19 23:14:27.473651	27.1	19.3	-93.1	0.0
2026-01-19 23:14:28.616819	27.2	19.4	-93.3	0.0
2026-01-19 23:14:29.750712	27.3	19.5	-93.3	0.0
2026-01-19 23:14:30.891074	27.3	19.7	-93.4	0.0
2026-01-19 23:14:32.030409	27.4	19.8	-93.4	0.0
2026-01-19 23:14:33.166962	27.5	20.0	-93.3	0.0
2026-01-19 23:14:34.302949	27.6	20.1	-93.3	0.0
2026-01-19 23:14:35.438488	27.7	20.2	-93.2	0.0
2026-01-19 23:14:36.585136	27.8	20.4	-93.2	0.0
2026-01-19 23:14:37.727397	27.9	20.5	-93.2	0.0
2026-01-19 23:14:38.869504	27.9	20.7	-93.3	0.0
2026-01-19 23:14:40.019187	28.0	20.8	-93.2	0.0
2026-01-19 23:14:41.155225	28.1	21.0	-93.5	0.0
2026-01-19 23:14:42.295554	28.2	21.1	-93.2	0.0
2026-01-19 23:14:43.435495	28.3	21.3	-93.1	0.0
2026-01-19 23:14:44.578062	28.4	21.4	-93.4	0.0
2026-01-19 23:14:45.715037	28.5	21.6	-93.2	0.0
2026-01-19 23:14:46.852844	28.6	21.7	-93.3	0.0
2026-01-19 23:14:47.993046	28.7	21.9	-93.1	0.0
2026-01-19 23:14:49.131862	28.8	22.0	-93.2	0.0
2026-01-19 23:14:50.273769	28.9	22.2	-93.4	0.0
2026-01-19 23:14:51.410443	29.0	22.3	-93.4	0.0
2026-01-19 23:14:52.555834	29.1	22.5	-93.4	0.0
2026-01-19 23:14:53.689580	29.2	22.6	-93.4	0.0
2026-01-19 23:14:54.825798	29.3	22.8	-93.3	0.0
2026-01-19 23:14:55.957730	29.4	22.9	-93.2	0.0
2026-01-19 23:14:57.099383	29.5	23.1	-93.2	0.0
2026-01-19 23:14:58.245040	29.6	23.3	-93.3	0.0
2026-01-19 23:14:59.388539	29.7	23.4	-93.3	0.0
2026-01-19 23:15:00.538387	29.8	23.6	-93.3	0.0
2026-01-19 23:15:01.675256	29.9	23.7	-93.3	0.0
2026-01-19 23:15:02.811614	30.0	23.9	-93.2	0.0
2026-01-19 23:15:03.946975	30.2	24.1	-93.3	0.0
2026-01-19 23:15:05.082033	30.3	24.2	-93.4	0.0
2026-01-19 23:15:06.217392	30.4	24.4	-93.3	0.0
2026-01-19 23:15:07.358339	30.5	24.6	-93.3	0.0
2026-01-19 23:15:08.492922	30.6	24.7	-93.1	0.0
2026-01-19 23:15:09.622877	30.7	24.9	-93.4	0.0
2026-01-19 23:15:10.763025	30.8	25.1	-93.4	0.0
2026-01-19 23:15:11.899410	31.0	25.2	-93.4	0.0
2026-01-19 23:15:13.038964	31.1	25.4	-93.4	0.0
2026-01-19 23:15:14.175382	31.2	25.6	-93.2	0.0
2026-01-19 23:15:15.314167	31.3	25.7	-93.3	0.0
2026-01-19 23:15:16.447120	31.4	25.9	-93.3	0.0
2026-01-19 23:15:17.586975	31.6	26.1	-93.3	0.0
2026-01-19 23:15:18.723874	31.7	26.3	-93.4	0.0
2026-01-19 23:15:19.865390	31.8	26.4	-93.2	0.0
2026-01-19 23:15:21.002576	31.9	26.6	-93.4	0.0
2026-01-19 23:15:22.137544	32.1	26.8	-93.3	0.0
2026-01-19 23:15:23.281902	32.2	27.0	-93.3	0.0
2026-01-19 23:15:24.425764	32.3	27.2	-93.2	0.0
2026-01-19 23:15:25.566743	32.5	27.3	-93.3	0.0
2026-01-19 23:15:26.704646	32.6	27.5	-93.1	0.0
2026-01-19 23:15:27.848491	32.8	27.7	-93.3	0.0
2026-01-19 23:15:28.991342	32.9	27.9	-93.3	0.0
2026-01-19 23:15:30.129990	33.0	28.1	-93.3	0.0
2026-01-19 23:15:31.277349	33.2	28.3	-93.3	0.0
2026-01-19 23:15:32.417709	33.3	28.5	-93.1	0.0
2026-01-19 23:15:33.552782	33.5	28.6	-93.2	0.0
2026-01-19 23:15:34.690534	33.6	28.8	-93.3	0.0
2026-01-19 23:15:35.828708	33.8	29.0	-93.3	0.0
2026-01-19 23:15:36.968066	33.9	29.2	-93.3	0.0
2026-01-19 23:15:38.103949	34.1	29.4	-93.2	0.0
2026-01-19 23:15:39.241334	34.2	29.6	-93.3	0.0
2026-01-19 23:15:40.377369	34.4	29.8	-93.2	0.0
2026-01-19 23:15:41.513546	34.5	30.0	-93.3	0.0
2026-01-19 23:15:42.653398	34.7	30.2	-93.3	0.0
2026-01-19 23:15:43.791172	34.9	30.4	-93.4	0.0
2026-01-19 23:15:44.935051	35.0	30.6	-93.2	0.0
2026-01-19 23:15:46.072194	35.2	30.8	-93.4	0.0
2026-01-19 23:15:47.210570	35.4	31.0	-93.3	0.0
2026-01-19 23:15:48.357420	35.5	31.2	-93.4	0.0
2026-01-19 23:15:49.494297	35.7	31.4	-93.4	0.0
2026-01-19 23:15:50.644262	35.9	31.6	-93.4	0.0
2026-01-19 23:15:51.787305	36.0	31.8	-93.2	0.0
2026-01-19 23:15:52.922081	36.2	32.0	-93.2	0.0
2026-01-19 23:15:54.061578	36.4	32.3	-93.3	0.0
2026-01-19 23:15:55.215139	36.6	32.5	-93.3	0.0
2026-01-19 23:15:56.354433	36.8	32.7	-93.3	0.0
2026-01-19 23:15:57.489272	37.0	32.9	-93.3	0.0
2026-01-19 23:15:58.622075	37.2	33.1	-93.3	0.0
2026-01-19 23:15:59.758467	37.3	33.3	-93.3	0.0
2026-01-19 23:16:00.908836	37.5	33.5	-93.3	0.0
2026-01-19 23:16:02.047730	37.7	33.8	-93.4	0.0
2026-01-19 23:16:03.191103	37.9	34.0	-93.2	0.0
2026-01-19 23:16:04.329509	38.1	34.2	-93.2	0.0
2026-01-19 23:16:05.467399	38.4	34.4	-93.0	0.0
2026-01-19 23:16:06.609790	38.6	34.6	-93.2	0.0
2026-01-19 23:16:07.748395	38.8	34.9	-93.1	0.0
2026-01-19 23:16:08.891561	39.0	35.1	-93.3	0.0
2026-01-19 23:16:10.033939	39.2	35.3	-93.4	0.0
2026-01-19 23:16:11.176213	39.4	35.6	-93.2	0.0
2026-01-19 23:16:12.317746	39.7	35.8	-93.3	0.0
2026-01-19 23:16:13.462933	39.9	36.0	-93.2	0.0
2026-01-19 23:16:14.602291	40.1	36.2	-93.3	0.0
2026-01-19 23:16:15.737387	40.3	36.5	-93.3	0.0
2026-01-19 23:16:16.879173	40.6	36.7	-93.3	0.0
2026-01-19 23:16:18.019264	40.8	36.9	-93.3	0.0
2026-01-19 23:16:19.152119	41.1	37.2	-93.2	0.0
2026-01-19 23:16:20.285862	41.3	37.4	-93.3	0.0
2026-01-19 23:16:21.422734	41.6	37.7	-93.2	0.0
2026-01-19 23:16:22.565090	41.8	37.9	-93.3	0.0
2026-01-19 23:16:23.705365	42.1	38.1	-93.1	0.0
2026-01-19 23:16:24.851122	42.3	38.4	-93.2	0.0
2026-01-19 23:16:25.985881	42.6	38.6	-93.4	0.0
2026-01-19 23:16:27.126829	42.9	38.9	-93.2	0.0
2026-01-19 23:16:28.271182	43.1	39.1	-93.5	0.0
2026-01-19 23:16:29.406197	43.4	39.4	-93.2	0.0
2026-01-19 23:16:30.542448	43.7	39.6	-93.2	0.0
2026-01-19 23:16:31.682155	44.0	39.9	-93.3	0.0
2026-01-19 23:16:32.831301	44.3	40.1	-93.4	0.0
2026-01-19 23:16:33.966454	44.6	40.4	-93.1	0.0
2026-01-19 23:16:35.118297	44.9	40.6	-93.3	0.0
2026-01-19 23:16:36.261898	45.2	40.9	-93.3	0.0
2026-01-19 23:16:37.400407	45.5	41.1	-93.1	0.0
2026-01-19 23:16:38.535266	45.8	41.4	-93.2	0.0
2026-01-19 23:16:39.671123	46.1	41.6	-93.3	0.0
2026-01-19 23:16:40.813567	46.4	41.9	-93.1	0.0
2026-01-19 23:16:41.962427	46.8	42.1	-93.2	0.0
2026-01-19 23:16:43.099791	47.1	42.4	-93.3	0.0
2026-01-19 23:16:44.232129	47.4	42.7	-93.4	0.0
2026-01-19 23:16:45.379394	47.8	42.9	-93.2	0.0
2026-01-19 23:16:46.525097	48.1	43.2	-93.1	0.0
2026-01-19 23:16:47.671463	48.5	43.4	-93.2	0.0
2026-01-19 23:16:48.812213	48.9	43.7	-93.2	0.0
2026-01-19 23:16:49.946079	49.2	44.0	-93.3	0.0
2026-01-19 23:16:51.077213	49.6	44.2	-93.3	0.0
2026-01-19 23:16:52.221064	50.0	44.5	-93.3	0.0
2026-01-19 23:16:53.356933	50.4	44.7	-93.2	0.0
2026-01-19 23:16:54.497705	50.7	45.0	-93.3	0.0
2026-01-19 23:16:55.636063	51.1	45.3	-93.3	0.0
2026-01-19 23:16:56.780493	51.5	45.5	-93.2	0.0
2026-01-19 23:16:57.913868	52.0	45.8	-93.2	0.0
2026-01-19 23:16:59.047839	52.4	46.1	-93.4	0.0
2026-01-19 23:17:00.183576	52.8	46.3	-93.3	0.0
2026-01-19 23:17:01.318254	53.2	46.6	-93.2	0.0
2026-01-19 23:17:02.461224	53.7	46.8	-93.5	0.0
2026-01-19 23:17:03.598523	54.1	47.1	-93.2	0.0
2026-01-19 23:17:04.742835	54.6	47.4	-93.2	0.0
2026-01-19 23:17:05.882729	55.0	47.6	-93.3	0.0
2026-01-19 23:17:07.018173	55.5	47.9	-93.2	0.0
2026-01-19 23:17:08.153192	56.0	48.2	-93.3	0.0
2026-01-19 23:17:09.285578	56.5	48.4	-93.2	0.0
2026-01-19 23:17:10.427857	57.0	48.7	-93.3	0.0
2026-01-19 23:17:11.562040	57.5	48.9	-93.4	0.0
2026-01-19 23:17:12.703005	58.0	49.2	-93.3	0.0
2026-01-19 23:17:13.843425	58.5	49.5	-93.2	0.0
2026-01-19 23:17:14.981344	59.0	49.7	-93.3	0.0
2026-01-19 23:17:16.120210	59.6	50.0	-93.4	0.0
2026-01-19 23:17:17.258259	60.1	50.2	-93.3	0.0
2026-01-19 23:17:18.394618	60.6	50.5	-93.4	0.0
2026-01-19 23:17:19.535879	61.2	50.7	-93.2	0.0
2026-01-19 23:17:20.685619	61.8	51.0	-93.2	0.0
2026-01-19 23:17:21.818120	62.4	51.2	-93.3	0.0
2026-01-19 23:17:22.955417	63.0	51.5	-93.1	0.0
2026-01-19 23:17:24.096231	63.6	51.7	-93.4	0.0
2026-01-19 23:17:25.232413	64.2	52.0	-93.3	0.0
2026-01-19 23:17:26.365957	64.8	52.2	-93.2	0.0
2026-01-19 23:17:27.507747	65.4	52.4	-93.3	0.0
2026-01-19 23:17:28.643036	66.1	52.7	-93.4	0.0
2026-01-19 23:17:29.785558	66.7	52.9	-93.2	0.0
2026-01-19 23:17:30.928237	67.4	53.1	-93.1	0.0
2026-01-19 23:17:32.061830	68.1	53.4	-93.4	0.0
2026-01-19 23:17:33.198500	68.8	53.6	-93.2	0.0
2026-01-19 23:17:34.331458	69.4	53.8	-93.2	0.0
2026-01-19 23:17:35.465585	70.1	54.0	-93.4	0.0
2026-01-19 23:17:36.607911	70.9	54.3	-93.4	0.0
2026-01-19 23:17:37.746111	71.6	54.5	-93.2	0.0
2026-01-19 23:17:38.881480	72.3	54.7	-93.2	0.0
2026-01-19 23:17:40.024185	73.1	54.9	-93.4	0.0
2026-01-19 23:17:41.162037	73.8	55.1	-93.2	0.0
2026-01-19 23:17:42.298913	74.6	55.3	-93.3	0.0
2026-01-19 23:17:43.445149	75.4	55.5	-93.3	0.0
2026-01-19 23:17:44.591042	76.2	55.7	-93.2	0.0
2026-01-19 23:17:45.731739	77.0	55.8	-93.2	0.0
2026-01-19 23:17:46.866302	77.8	56.0	-93.2	0.0
2026-01-19 23:17:48.002774	78.6	56.2	-93.2	0.0
2026-01-19 23:17:49.146504	79.5	56.4	-93.3	0.0
2026-01-19 23:17:50.282902	80.3	56.5	-93.4	0.0
2026-01-19 23:17:51.423863	81.1	56.7	-93.3	0.0
2026-01-19 23:17:52.556696	82.0	56.8	-93.2	0.0
2026-01-19 23:17:53.699252	82.9	57.0	-93.3	0.0
2026-01-19 23:17:54.836796	83.8	57.1	-93.3	0.0
2026-01-19 23:17:55.984688	84.7	57.2	-93.1	0.0
2026-01-19 23:17:57.122328	85.5	57.4	-93.4	0.0
2026-01-19 23:17:58.260346	86.5	57.5	-93.2	0.0
2026-01-19 23:17:59.402776	87.4	57.6	-93.3	0.0
2026-01-19 23:18:00.554372	88.3	57.7	-93.4	0.0
2026-01-19 23:18:01.697079	89.2	57.8	-93.3	0.0
2026-01-19 23:18:02.830766	90.2	57.9	-93.1	0.0
2026-01-19 23:18:03.969066	91.1	58.0	-93.3	0.0
2026-01-19 23:18:05.116956	92.1	58.1	-93.3	0.0
2026-01-19 23:18:06.259057	93.0	58.1	-93.3	0.0
2026-01-19 23:18:07.394063	94.0	58.2	-93.2	0.0
2026-01-19 23:18:08.535900	94.9	58.3	-93.4	0.0
2026-01-19 23:18:09.665656	95.9	58.3	-93.2	0.0
2026-01-19 23:18:10.806249	96.9	58.4	-93.4	0.0
2026-01-19 23:18:11.941001	97.8	58.4	-93.3	0.0
2026-01-19 23:18:13.078213	98.8	58.4	-93.3	0.0
2026-01-19 23:18:14.218065	99.8	58.4	-93.2	0.0
2026-01-19 23:18:15.356912	100.7	58.4	-93.4	0.0
2026-01-19 23:18:16.495883	101.7	58.5	-93.1	0.0
2026-01-19 23:18:17.644252	102.7	58.5	-93.3	0.0
2026-01-19 23:18:18.790414	103.7	58.4	-93.2	0.0
2026-01-19 23:18:19.932265	104.7	58.4	-93.3	0.0
2026-01-19 23:18:21.069119	105.6	58.4	-93.3	0.0
2026-01-19 23:18:22.203199	106.6	58.4	-93.4	0.0
2026-01-19 23:18:23.338793	107.6	58.3	-93.2	0.0
2026-01-19 23:18:24.475187	108.5	58.3	-93.3	0.0
2026-01-19 23:18:25.621885	109.5	58.2	-93.3	0.0
2026-01-19 23:18:26.764836	110.5	58.2	-93.2	0.0
2026-01-19 23:18:27.902735	111.4	58.1	-93.3	0.0
2026-01-19 23:18:29.052072	112.4	58.0	-93.4	0.0
2026-01-19 23:18:30.195583	113.3	57.9	-93.2	0.0
2026-01-19 23:18:31.339737	114.3	57.8	-93.3	0.0
2026-01-19 23:18:32.480956	115.2	57.7	-93.3	0.0
2026-01-19 23:18:33.623056	116.1	57.6	-93.3	0.0
2026-01-19 23:18:34.761057	117.0	57.5	-93.3	0.0
2026-01-19 23:18:35.901427	117.9	57.4	-93.3	0.0
2026-01-19 23:18:37.039174	118.8	57.3	-93.2	0.0
2026-01-19 23:18:38.171675	119.7	57.1	-93.3	0.0
2026-01-19 23:18:39.307973	120.6	57.0	-93.3	0.0
2026-01-19 23:18:40.449084	121.5	56.9	-93.4	0.0
2026-01-19 23:18:41.586300	122.4	56.7	-93.3	0.0
2026-01-19 23:18:42.728265	123.2	56.5	-93.2	0.0
2026-01-19 23:18:43.864641	124.1	56.4	-93.3	0.0
2026-01-19 23:18:45.008261	124.9	56.2	-93.2	0.0
2026-01-19 23:18:46.147705	125.7	56.0	-93.2	0.0
2026-01-19 23:18:47.284452	126.5	55.9	-93.3	0.0
2026-01-19 23:18:48.420177	127.3	55.7	-93.2	0.0
2026-01-19 23:18:49.563692	128.1	55.5	-93.3	0.0
2026-01-19 23:18:50.700289	128.9	55.3	-93.4	0.0
2026-01-19 23:18:51.840452	129.7	55.1	-93.1	0.0
2026-01-19 23:18:52.978473	130.5	54.9	-93.3	0.0
2026-01-19 23:18:54.115624	131.2	54.7	-93.3	0.0
2026-01-19 23:18:55.249229	131.9	54.5	-93.2	0.0
2026-01-19 23:18:56.381598	132.7	54.3	-93.1	0.0
2026-01-19 23:18:57.528062	133.4	54.1	-93.2	0.0
2026-01-19 23:18:58.665947	134.1	53.9	-93.3	0.0
2026-01-19 23:18:59.805498	134.8	53.6	-93.2	0.0
2026-01-19 23:19:00.949344	135.5	53.4	-93.2	0.0
2026-01-19 23:19:02.093522	136.2	53.2	-93.2	0.0
2026-01-19 23:19:03.233529	136.8	52.9	-93.2	0.0
2026-01-19 23:19:04.372036	137.5	52.7	-93.3	0.0
2026-01-19 23:19:05.514885	138.1	52.5	-93.3	0.0
2026-01-19 23:19:06.650450	138.8	52.2	-93.2	0.0
2026-01-19 23:19:07.792426	139.4	52.0	-93.3	0.0
2026-01-19 23:19:08.938525	140.0	51.7	-93.2	0.0
2026-01-19 23:19:10.080220	140.6	51.5	-93.3	0.0
2026-01-19 23:19:11.217355	141.2	51.3	-93.3	0.0
2026-01-19 23:19:12.351720	141.8	51.0	-93.1	0.0
2026-01-19 23:19:13.493643	142.4	50.8	-93.4	0.0
2026-01-19 23:19:14.631968	143.0	50.5	-93.2	0.0
2026-01-19 23:19:15.776336	143.5	50.2	-93.4	0.0
2026-01-19 23:19:16.915971	144.1	50.0	-93.2	0.0
2026-01-19 23:19:18.051486	144.6	49.7	-93.3	0.0
2026-01-19 23:19:19.184323	145.1	49.5	-93.2	0.0
2026-01-19 23:19:20.321178	145.7	49.2	-93.2	0.0
2026-01-19 23:19:21.470532	146.2	49.0	-93.2	0.0
2026-01-19 23:19:22.606842	146.7	48.7	-93.1	0.0
2026-01-19 23:19:23.744361	147.2	48.4	-93.3	0.0
2026-01-19 23:19:24.881393	147.7	48.2	-93.1	0.0
2026-01-19 23:19:26.019255	148.1	47.9	-93.3	0.0
2026-01-19 23:19:27.159529	148.6	47.6	-93.5	0.0
2026-01-19 23:19:28.298137	149.1	47.4	-93.4	0.0
2026-01-19 23:19:29.443940	149.5	47.1	-93.3	0.0
2026-01-19 23:19:30.576355	150.0	46.9	-93.4	0.0
2026-01-19 23:19:31.714922	150.4	46.6	-93.4	0.0
2026-01-19 23:19:32.854960	150.9	46.3	-93.4	0.0
2026-01-19 23:19:33.995311	151.3	46.1	-93.3	0.0
2026-01-19 23:19:35.133864	151.7	45.8	-93.3	0.0
2026-01-19 23:19:36.277322	152.1	45.5	-93.3	0.0
2026-01-19 23:19:37.413053	152.5	45.3	-93.3	0.0
2026-01-19 23:19:38.546607	152.9	45.0	-93.2	0.0
2026-01-19 23:19:39.689558	153.3	44.7	-93.3	0.0
2026-01-19 23:19:40.833942	153.7	44.5	-93.5	0.0
2026-01-19 23:19:41.971620	154.1	44.2	-93.4	0.0
2026-01-19 23:19:43.106955	154.5	43.9	-93.2	0.0
2026-01-19 23:19:44.247862	154.8	43.7	-93.2	0.0
2026-01-19 23:19:45.388156	155.2	43.4	-93.2	0.0
2026-01-19 23:19:46.529408	155.5	43.2	-93.3	0.0
2026-01-19 23:19:47.667202	155.9	42.9	-93.2	0.0
2026-01-19 23:19:48.809032	156.2	42.6	-93.2	0.0
2026-01-19 23:19:49.941874	156.6	42.4	-93.3	0.0
2026-01-19 23:19:51.084975	156.9	42.1	-93.3	0.0
2026-01-19 23:19:52.223045	157.2	41.9	-93.3	0.0
2026-01-19 23:19:53.372608	157.6	41.6	-93.1	0.0
2026-01-19 23:19:54.519238	157.9	41.3	-93.2	0.0
2026-01-19 23:19:55.662982	158.2	41.1	-93.2	0.0
2026-01-19 23:19:56.799397	158.5	40.8	-93.4	0.0
2026-01-19 23:19:57.950759	158.8	40.6	-93.2	0.0
2026-01-19 23:19:59.083388	159.1	40.3	-93.3	0.0
2026-01-19 23:20:00.228167	159.4	40.1	-93.5	0.0
2026-01-19 23:20:01.365587	159.7	39.8	-93.4	0.0
2026-01-19 23:20:02.505454	160.0	39.6	-93.3	0.0
2026-01-19 23:20:03.640049	160.3	39.3	-93.2	0.0
2026-01-19 23:20:04.782924	160.6	39.1	-93.3	0.0
2026-01-19 23:20:05.921414	160.8	38.8	-93.4	0.0
2026-01-19 23:20:07.056543	161.1	38.6	-93.4	0.0
2026-01-19 23:20:08.192221	161.4	38.3	-93.3	0.0
2026-01-19 23:20:09.331500	161.6	38.1	-93.4	0.0
2026-01-19 23:20:10.476543	161.9	37.9	-93.3	0.0
2026-01-19 23:20:11.616910	162.1	37.6	-93.3	0.0
2026-01-19 23:20:12.755307	162.4	37.4	-93.1	0.0
2026-01-19 23:20:13.899958	162.6	37.1	-93.4	0.0
2026-01-19 23:20:15.032907	162.9	36.9	-93.2	0.0
2026-01-19 23:20:16.177660	163.1	36.7	-93.3	0.0
2026-01-19 23:20:17.317028	163.4	36.4	-93.2	0.0
2026-01-19 23:20:18.455888	163.6	36.2	-93.2	0.0
2026-01-19 23:20:19.591948	163.8	36.0	-93.2	0.0
2026-01-19 23:20:20.728807	164.0	35.7	-93.2	0.0
2026-01-19 23:20:21.878438	164.3	35.5	-93.3	0.0
2026-01-19 23:20:23.009356	164.5	35.3	-93.3	0.0
2026-01-19 23:20:24.143970	164.7	35.0	-93.2	0.0
2026-01-19 23:20:25.283825	164.9	34.8	-93.4	0.0
2026-01-19 23:20:26.422457	165.1	34.6	-93.3	0.0
2026-01-19 23:20:27.573311	165.4	34.4	-93.4	0.0
2026-01-19 23:20:28.709157	165.6	34.1	-93.3	0.0
2026-01-19 23:20:29.860554	165.8	33.9	-93.3	0.0
2026-01-19 23:20:31.002016	166.0	33.7	-93.3	0.0
2026-01-19 23:20:32.151013	166.2	33.5	-93.2	0.0
2026-01-19 23:20:33.293430	166.4	33.2	-93.2	0.0
2026-01-19 23:20:34.431132	166.6	33.0	-93.1	0.0
2026-01-19 23:20:35.571782	166.7	32.8	-93.3	0.0
2026-01-19 23:20:36.711937	166.9	32.6	-93.4	0.0
2026-01-19 23:20:37.856325	167.1	32.4	-93.2	0.0
2026-01-19 23:20:38.999082	167.3	32.2	-93.2	0.0
2026-01-19 23:20:40.137552	167.5	32.0	-93.1	0.0
2026-01-19 23:20:41.280786	167.7	31.7	-93.2	0.0
2026-01-19 23:20:42.414662	167.8	31.5	-93.4	0.0
2026-01-19 23:20:43.555850	168.0	31.3	-93.3	0.0
2026-01-19 23:20:44.693975	168.2	31.1	-93.3	0.0
2026-01-19 23:20:45.833804	168.4	30.9	-93.4	0.0
2026-01-19 23:20:46.971870	168.5	30.7	-93.3	0.0
2026-01-19 23:20:48.108905	168.7	30.5	-93.3	0.0
2026-01-19 23:20:49.254730	168.9	30.3	-93.1	0.0
2026-01-19 23:20:50.385489	169.0	30.1	-93.3	0.0
2026-01-19 23:20:51.521681	169.2	29.9	-93.3	0.0
2026-01-19 23:20:52.665425	169.3	29.7	-93.1	0.0
2026-01-19 23:20:53.801514	169.5	29.5	-93.3	0.0
2026-01-19 23:20:54.936460	169.6	29.3	-93.2	0.0
2026-01-19 23:20:56.073414	169.8	29.1	-93.1	0.0
2026-01-19 23:20:57.215247	169.9	28.9	-93.3	0.0
2026-01-19 23:20:58.353478	170.1	28.7	-93.3	0.0
2026-01-19 23:20:59.493775	170.2	28.5	-93.2	0.0
2026-01-19 23:21:00.640413	170.4	28.4	-93.1	0.0
2026-01-19 23:21:01.777462	170.5	28.2	-93.2	0.0
2026-01-19 23:21:02.913668	170.7	28.0	-93.2	0.0
2026-01-19 23:21:04.052890	170.8	27.8	-93.3	0.0
2026-01-19 23:21:05.207223	171.0	27.6	-93.4	0.0
2026-01-19 23:21:06.338082	171.1	27.4	-93.2	0.0
2026-01-19 23:21:07.482427	171.2	27.2	-93.2	0.0
2026-01-19 23:21:08.620494	171.4	27.0	-93.3	0.0
2026-01-19 23:21:09.761914	171.5	26.9	-93.2	0.0
2026-01-19 23:21:10.900643	171.6	26.7	-93.4	0.0
2026-01-19 23:21:12.043247	171.8	26.5	-93.2	0.0
2026-01-19 23:21:13.194540	171.9	26.3	-93.2	0.0
2026-01-19 23:21:14.334469	172.0	26.1	-93.2	0.0
2026-01-19 23:21:15.468911	172.1	26.0	-93.3	0.0
2026-01-19 23:21:16.608109	172.3	25.8	-93.3	0.0
2026-01-19 23:21:17.749100	172.4	25.6	-93.2	0.0
2026-01-19 23:21:18.885247	172.5	25.4	-93.4	0.0
2026-01-19 23:21:20.031613	172.6	25.3	-93.3	0.0
2026-01-19 23:21:21.171322	172.8	25.1	-93.2	0.0
2026-01-19 23:21:22.305808	172.9	24.9	-93.4	0.0
2026-01-19 23:21:23.441212	173.0	24.8	-93.4	0.0
2026-01-19 23:21:24.576213	173.1	24.6	-93.3	0.0
2026-01-19 23:21:25.724361	173.2	24.4	-93.4	0.0
2026-01-19 23:21:26.860255	173.3	24.3	-93.2	0.0
2026-01-19 23:21:27.998889	173.4	24.1	-93.3	0.0
2026-01-19 23:21:29.141723	173.6	23.9	-93.4	0.0
2026-01-19 23:21:30.275964	173.7	23.8	-93.1	0.0
2026-01-19 23:21:31.413337	173.8	23.6	-93.3	0.0
2026-01-19 23:21:32.553449	173.9	23.4	-93.2	0.0
2026-01-19 23:21:33.688174	174.0	23.3	-93.2	0.0
2026-01-19 23:21:34.836233	174.1	23.1	-93.1	0.0
2026-01-19 23:21:35.971965	174.2	23.0	-93.2	0.0
2026-01-19 23:21:37.110137	174.3	22.8	-93.2	0.0
2026-01-19 23:21:38.249624	174.4	22.6	-93.5	0.0
2026-01-19 23:21:39.387503	174.5	22.5	-93.2	0.0
2026-01-19 23:21:40.529193	174.6	22.3	-93.2	0.0
2026-01-19 23:21:41.665101	174.7	22.2	-93.4	0.0
2026-01-19 23:21:42.799198	174.8	22.0	-93.3	0.0
2026-01-19 23:21:43.941426	174.9	21.9	-93.3	0.0
2026-01-19 23:21:45.075949	175.0	21.7	-93.2	0.0
2026-01-19 23:21:46.208627	175.1	21.6	-93.2	0.0
2026-01-19 23:21:47.357828	175.2	21.4	-93.3	0.0
2026-01-19 23:21:48.493477	175.3	21.3	-93.3	0.0
2026-01-19 23:21:49.633849	175.4	21.1	-93.3	0.0
2026-01-19 23:21:50.772720	175.5	21.0	-93.2	0.0
2026-01-19 23:21:51.912270	175.6	20.8	-93.3	0.0
2026-01-19 23:21:53.052861	175.7	20.7	-93.2	0.0
2026-01-19 23:21:54.185291	175.7	20.5	-93.4	0.0
2026-01-19 23:21:55.322826	175.8	20.4	-93.2	0.0
2026-01-19 23:21:56.461265	175.9	20.2	-93.3	0.0
2026-01-19 23:21:57.593815	176.0	20.1	-93.2	0.0
2026-01-19 23:21:58.728892	176.1	19.9	-93.3	0.0
2026-01-19 23:21:59.867748	176.2	19.8	-93.3	0.0
2026-01-19 23:22:01.008871	176.3	19.7	-93.3	0.0
2026-01-19 23:22:02.150296	176.4	19.5	-93.2	0.0
2026-01-19 23:22:03.286169	176.4	19.4	-93.3	0.0
2026-01-19 23:22:04.418167	176.5	19.2	-93.1	0.0
2026-01-19 23:22:05.556861	176.6	19.1	-93.3	0.0
2026-01-19 23:22:06.703200	176.7	19.0	-93.1	0.0
2026-01-19 23:22:07.854759	176.8	18.8	-93.3	0.0
2026-01-19 23:22:08.993025	176.8	18.7	-93.2	0.0
2026-01-19 23:22:10.127246	176.9	18.6	-93.4	0.0
2026-01-19 23:22:11.281295	177.0	18.4	-93.3	0.0
2026-01-19 23:22:12.416201	177.1	18.3	-93.4	0.0
2026-01-19 23:22:13.548925	177.2	18.2	-93.2	0.0
2026-01-19 23:22:14.680896	177.2	18.0	-93.3	0.0
2026-01-19 23:22:15.822854	177.3	17.9	-93.2	0.0
2026-01-19 23:22:16.964671	177.4	17.8	-93.3	0.0
2026-01-19 23:22:18.097548	177.5	17.6	-93.2	0.0
2026-01-19 23:22:19.241815	177.5	17.5	-93.1	0.0
2026-01-19 23:22:20.384987	177.6	17.4	-93.3	0.0
2026-01-19 23:22:21.533114	177.7	17.2	-93.3	0.0
2026-01-19 23:22:22.667327	177.8	17.1	-93.3	0.0
2026-01-19 23:22:23.804959	177.8	17.0	-93.2	0.0
2026-01-19 23:22:24.935682	177.9	16.9	-93.2	0.0
2026-01-19 23:22:26.078822	178.0	16.7	-93.2	0.0
2026-01-19 23:22:27.212078	178.0	16.6	-93.3	0.0
2026-01-19 23:22:28.350877	178.1	16.5	-93.2	0.0
2026-01-19 23:22:29.501045	178.2	16.4	-93.2	0.0
2026-01-19 23:22:30.649778	178.3	16.2	-93.1	0.0
2026-01-19 23:22:31.795301	178.3	16.1	-93.3	0.0
2026-01-19 23:22:32.941731	178.4	16.0	-93.2	0.0
2026-01-19 23:22:34.085351	178.5	15.9	-93.3	0.0
2026-01-19 23:22:35.225260	178.5	15.7	-93.1	0.0
2026-01-19 23:22:36.369080	178.6	15.6	-93.3	0.0
2026-01-19 23:22:37.512368	178.7	15.5	-93.1	0.0
2026-01-19 23:22:38.644778	178.7	15.4	-93.3	0.0
2026-01-19 23:22:39.785084	178.8	15.3	-93.3	0.0
2026-01-19 23:22:40.920399	178.9	15.1	-93.2	0.0
2026-01-19 23:22:42.057358	178.9	15.0	-93.4	0.0
#Closed at: 2026-01-19 23:13:44.108941