passes_logs/2026/01/19/R2.0S_Raduga/R2.0S_Raduga__20260119_141518_FENGYUN_3E_rec.log

#Pass ID: 20260119_141518_FENGYUN 3E
#Satellite: FENGYUN 3E
#Configuration: FENGYUN 3E
#Start time: 2026-01-19 14:15:23.600226

#LorettStation: 1.0.0 05.05.2024
#Station: R2.0S_Raduga
#Location: 37.601861 lon 55.688408 lat
#TLE: 1 49008U 21062A   26018.95190407 -.00000301  00000+0 -12097-3 0  9991
#TLE: 2 49008  98.7482  24.0337 0002210 129.7386 230.3985 14.19884646235406

#Time	Az	El	Level	SNR
2026-01-19 14:15:40.385254	161.0	16.9	-92.0	0.0
2026-01-19 14:15:41.517496	161.0	17.0	-92.5	0.0
2026-01-19 14:15:42.646448	161.0	17.1	-92.4	0.0
2026-01-19 14:15:43.788501	161.0	17.3	-92.4	0.0
2026-01-19 14:15:44.920782	161.0	17.4	-92.5	0.0
2026-01-19 14:15:46.055030	161.0	17.5	-92.4	0.0
2026-01-19 14:15:47.187044	161.0	17.7	-92.6	0.0
2026-01-19 14:15:48.314578	161.0	17.8	-92.5	0.0
2026-01-19 14:15:49.445552	161.0	17.9	-92.4	0.0
2026-01-19 14:15:50.580706	161.0	18.1	-92.4	0.0
2026-01-19 14:15:51.711510	161.0	18.2	-92.4	0.0
2026-01-19 14:15:52.845855	161.0	18.4	-92.4	0.0
2026-01-19 14:15:53.975746	161.0	18.5	-92.6	0.0
2026-01-19 14:15:55.117491	161.1	18.6	-92.5	0.0
2026-01-19 14:15:56.250859	161.1	18.8	-92.5	0.0
2026-01-19 14:15:57.385727	161.1	18.9	-92.5	0.0
2026-01-19 14:15:58.517618	161.1	19.1	-92.5	0.0
2026-01-19 14:15:59.648993	161.1	19.2	-92.4	0.0
2026-01-19 14:16:00.782587	161.1	19.4	-92.5	0.0
2026-01-19 14:16:01.914902	161.1	19.5	-92.3	0.0
2026-01-19 14:16:03.050645	161.1	19.7	-92.4	0.0
2026-01-19 14:16:04.181509	161.1	19.8	-92.6	0.0
2026-01-19 14:16:05.309853	161.1	19.9	-92.4	0.0
2026-01-19 14:16:06.441912	161.1	20.1	-92.6	0.0
2026-01-19 14:16:07.573267	161.1	20.2	-92.4	0.0
2026-01-19 14:16:08.707420	161.1	20.4	-92.5	0.0
2026-01-19 14:16:09.839306	161.1	20.5	-92.4	0.0
2026-01-19 14:16:10.975072	161.1	20.7	-92.5	0.0
2026-01-19 14:16:12.109133	161.1	20.9	-92.5	0.0
2026-01-19 14:16:13.241434	161.1	21.0	-92.4	0.0
2026-01-19 14:16:14.375813	161.1	21.2	-92.5	0.0
2026-01-19 14:16:15.510359	161.1	21.3	-92.4	0.0
2026-01-19 14:16:16.639230	161.1	21.5	-92.4	0.0
2026-01-19 14:16:17.770610	161.1	21.6	-92.3	0.0
2026-01-19 14:16:18.900683	161.1	21.8	-92.5	0.0
2026-01-19 14:16:20.035344	161.1	22.0	-92.4	0.0
2026-01-19 14:16:21.171679	161.1	22.1	-92.6	0.0
2026-01-19 14:16:22.301612	161.1	22.3	-92.5	0.0
2026-01-19 14:16:23.439303	161.1	22.5	-92.3	0.0
2026-01-19 14:16:24.566982	161.1	22.6	-92.4	0.0
2026-01-19 14:16:25.697511	161.1	22.8	-92.4	0.0
2026-01-19 14:16:26.829147	161.1	22.9	-92.4	0.0
2026-01-19 14:16:27.966966	161.1	23.1	-92.5	0.0
2026-01-19 14:16:29.101566	161.1	23.3	-92.5	0.0
2026-01-19 14:16:30.234663	161.1	23.5	-92.4	0.0
2026-01-19 14:16:31.371791	161.1	23.6	-92.4	0.0
2026-01-19 14:16:32.507535	161.1	23.8	-92.4	0.0
2026-01-19 14:16:33.647294	161.1	24.0	-92.4	0.0
2026-01-19 14:16:34.776345	161.1	24.2	-92.5	0.0
2026-01-19 14:16:35.910046	161.1	24.3	-92.5	0.0
2026-01-19 14:16:37.046414	161.1	24.5	-92.5	0.0
2026-01-19 14:16:38.179558	161.1	24.7	-92.5	0.0
2026-01-19 14:16:39.312932	161.1	24.9	-92.4	0.0
2026-01-19 14:16:40.449800	161.1	25.0	-92.4	0.0
2026-01-19 14:16:41.581748	161.1	25.2	-92.5	0.0
2026-01-19 14:16:42.711927	161.1	25.4	-92.6	0.0
2026-01-19 14:16:43.856433	161.1	25.6	-92.3	0.0
2026-01-19 14:16:44.986817	161.1	25.8	-92.5	0.0
2026-01-19 14:16:46.120068	161.1	26.0	-92.3	0.0
2026-01-19 14:16:47.255672	161.1	26.2	-92.5	0.0
2026-01-19 14:16:48.388774	161.1	26.4	-92.6	0.0
2026-01-19 14:16:49.517137	161.1	26.5	-92.5	0.0
2026-01-19 14:16:50.649505	161.1	26.7	-92.4	0.0
2026-01-19 14:16:51.788359	161.1	26.9	-92.4	0.0
2026-01-19 14:16:52.923943	161.1	27.1	-92.5	0.0
2026-01-19 14:16:54.056293	161.1	27.3	-92.3	0.0
2026-01-19 14:16:55.187659	161.1	27.5	-92.5	0.0
2026-01-19 14:16:56.316768	161.1	27.7	-92.5	0.0
2026-01-19 14:16:57.451798	161.1	27.9	-92.5	0.0
2026-01-19 14:16:58.582876	161.1	28.1	-92.6	0.0
2026-01-19 14:16:59.711850	161.1	28.3	-92.5	0.0
2026-01-19 14:17:00.848731	161.1	28.5	-92.4	0.0
2026-01-19 14:17:01.988131	161.1	28.7	-92.3	0.0
2026-01-19 14:17:03.121387	161.1	29.0	-92.3	0.0
2026-01-19 14:17:04.262693	161.1	29.2	-92.5	0.0
2026-01-19 14:17:05.396055	161.1	29.4	-92.5	0.0
2026-01-19 14:17:06.535318	161.1	29.6	-92.4	0.0
2026-01-19 14:17:07.674070	161.1	29.8	-92.6	0.0
2026-01-19 14:17:08.809260	161.2	30.0	-92.4	0.0
2026-01-19 14:17:09.942014	161.2	30.2	-92.3	0.0
2026-01-19 14:17:11.080928	161.2	30.5	-92.5	0.0
2026-01-19 14:17:12.211616	161.2	30.7	-92.3	0.0
2026-01-19 14:17:13.346493	161.2	30.9	-92.4	0.0
2026-01-19 14:17:14.482346	161.2	31.1	-92.4	0.0
2026-01-19 14:17:15.610739	161.2	31.4	-92.4	0.0
2026-01-19 14:17:16.743845	161.2	31.6	-92.5	0.0
2026-01-19 14:17:17.874722	161.2	31.8	-92.4	0.0
2026-01-19 14:17:19.010460	161.2	32.1	-92.5	0.0
2026-01-19 14:17:20.138717	161.2	32.3	-92.4	0.0
2026-01-19 14:17:21.268097	161.2	32.5	-92.5	0.0
2026-01-19 14:17:22.398897	161.2	32.8	-92.3	0.0
2026-01-19 14:17:23.532749	161.2	33.0	-92.6	0.0
2026-01-19 14:17:24.664582	161.2	33.2	-92.6	0.0
2026-01-19 14:17:25.794008	161.2	33.5	-92.4	0.0
2026-01-19 14:17:26.925892	161.2	33.7	-92.4	0.0
2026-01-19 14:17:28.055432	161.2	34.0	-92.4	0.0
2026-01-19 14:17:29.191456	161.2	34.2	-92.4	0.0
2026-01-19 14:17:30.325002	161.2	34.5	-92.4	0.0
2026-01-19 14:17:31.456846	161.2	34.7	-92.5	0.0
2026-01-19 14:17:32.588226	161.2	35.0	-92.4	0.0
2026-01-19 14:17:33.726605	161.2	35.3	-92.4	0.0
2026-01-19 14:17:34.857461	161.2	35.5	-92.4	0.0
2026-01-19 14:17:35.989992	161.2	35.8	-92.5	0.0
2026-01-19 14:17:37.126602	161.2	36.0	-92.3	0.0
2026-01-19 14:17:38.256183	161.2	36.3	-92.5	0.0
2026-01-19 14:17:39.390731	161.2	36.6	-92.5	0.0
2026-01-19 14:17:40.526870	161.2	36.9	-92.3	0.0
2026-01-19 14:17:41.659560	161.2	37.1	-92.4	0.0
2026-01-19 14:17:42.791558	161.2	37.4	-92.5	0.0
2026-01-19 14:17:43.929985	161.2	37.7	-92.6	0.0
2026-01-19 14:17:45.062366	161.1	38.0	-92.6	0.0
2026-01-19 14:17:46.196907	161.1	38.2	-92.2	0.0
2026-01-19 14:17:47.331765	161.1	38.5	-92.4	0.0
2026-01-19 14:17:48.470461	161.1	38.8	-92.4	0.0
2026-01-19 14:17:49.604900	161.1	39.1	-92.4	0.0
2026-01-19 14:17:50.739883	161.1	39.4	-92.6	0.0
2026-01-19 14:17:51.874543	161.1	39.7	-92.4	0.0
2026-01-19 14:17:53.007913	161.1	40.0	-92.5	0.0
2026-01-19 14:17:54.146774	161.1	40.3	-92.6	0.0
2026-01-19 14:17:55.280162	161.1	40.6	-92.6	0.0
2026-01-19 14:17:56.410729	161.1	40.9	-92.6	0.0
2026-01-19 14:17:57.543883	161.1	41.2	-92.3	0.0
2026-01-19 14:17:58.675899	161.1	41.5	-92.3	0.0
2026-01-19 14:17:59.806550	161.1	41.8	-92.5	0.0
2026-01-19 14:18:00.935416	161.1	42.2	-92.3	0.0
2026-01-19 14:18:02.073757	161.1	42.5	-92.4	0.0
2026-01-19 14:18:03.205592	161.1	42.8	-92.4	0.0
2026-01-19 14:18:04.337599	161.1	43.1	-92.6	0.0
2026-01-19 14:18:05.474961	161.1	43.4	-92.3	0.0
2026-01-19 14:18:06.605854	161.1	43.8	-92.5	0.0
2026-01-19 14:18:07.739227	161.1	44.1	-92.5	0.0
2026-01-19 14:18:08.875131	161.1	44.4	-92.5	0.0
2026-01-19 14:18:10.004252	161.1	44.8	-92.6	0.0
2026-01-19 14:18:11.135737	161.1	45.1	-92.4	0.0
2026-01-19 14:18:12.265027	161.1	45.5	-92.5	0.0
2026-01-19 14:18:13.396770	161.1	45.8	-92.4	0.0
2026-01-19 14:18:14.531679	161.1	46.2	-92.3	0.0
2026-01-19 14:18:15.661516	161.1	46.5	-92.5	0.0
2026-01-19 14:18:16.792429	161.1	46.9	-92.4	0.0
2026-01-19 14:18:17.924182	161.1	47.2	-92.7	0.0
2026-01-19 14:18:19.055814	161.1	47.6	-92.7	0.0
2026-01-19 14:18:20.187721	161.1	48.0	-92.5	0.0
2026-01-19 14:18:21.320555	161.1	48.3	-92.4	0.0
2026-01-19 14:18:22.453426	161.1	48.7	-92.3	0.0
2026-01-19 14:18:23.589209	161.1	49.1	-92.5	0.0
2026-01-19 14:18:24.724897	161.0	49.5	-92.6	0.0
2026-01-19 14:18:25.864262	161.0	49.8	-92.7	0.0
2026-01-19 14:18:26.994230	161.0	50.2	-92.4	0.0
2026-01-19 14:18:28.123662	161.0	50.6	-92.6	0.0
2026-01-19 14:18:29.258519	161.0	51.0	-92.4	0.0
2026-01-19 14:18:30.391899	161.0	51.4	-92.5	0.0
2026-01-19 14:18:31.528597	161.0	51.8	-92.4	0.0
2026-01-19 14:18:32.661358	161.0	52.2	-92.4	0.0
2026-01-19 14:18:33.793227	161.0	52.6	-92.2	0.0
2026-01-19 14:18:34.930093	161.0	53.0	-92.4	0.0
2026-01-19 14:18:36.054665	161.0	53.4	-92.5	0.0
2026-01-19 14:18:37.188376	161.0	53.8	-92.5	0.0
2026-01-19 14:18:38.316844	161.0	54.3	-92.4	0.0
2026-01-19 14:18:39.449314	160.9	54.7	-92.5	0.0
2026-01-19 14:18:40.581273	160.9	55.1	-92.4	0.0
2026-01-19 14:18:41.718349	160.9	55.5	-92.6	0.0
2026-01-19 14:18:42.847230	160.9	56.0	-92.4	0.0
2026-01-19 14:18:43.982097	160.9	56.4	-92.5	0.0
2026-01-19 14:18:45.113845	160.9	56.8	-92.4	0.0
2026-01-19 14:18:46.245573	160.9	57.3	-92.5	0.0
2026-01-19 14:18:47.383893	160.9	57.7	-92.4	0.0
2026-01-19 14:18:48.519048	160.9	58.2	-92.4	0.0
2026-01-19 14:18:49.649823	160.8	58.6	-92.5	0.0
2026-01-19 14:18:50.787009	160.8	59.1	-92.4	0.0
2026-01-19 14:18:51.933673	160.8	59.5	-92.5	0.0
2026-01-19 14:18:53.065067	160.8	60.0	-92.4	0.0
2026-01-19 14:18:54.198938	160.8	60.5	-92.3	0.0
2026-01-19 14:18:55.334207	160.8	60.9	-92.4	0.0
2026-01-19 14:18:56.465915	160.7	61.4	-92.3	0.0
2026-01-19 14:18:57.601347	160.7	61.9	-92.5	0.0
2026-01-19 14:18:58.730276	160.7	62.4	-92.6	0.0
2026-01-19 14:18:59.865287	160.7	62.9	-92.5	0.0
2026-01-19 14:19:00.996351	160.7	63.3	-92.2	0.0
2026-01-19 14:19:02.128089	160.6	63.8	-92.4	0.0
2026-01-19 14:19:03.262514	160.6	64.3	-92.3	0.0
2026-01-19 14:19:04.395410	160.6	64.8	-92.7	0.0
2026-01-19 14:19:05.528760	160.6	65.3	-92.3	0.0
2026-01-19 14:19:06.657261	160.5	65.8	-92.5	0.0
2026-01-19 14:19:07.793615	160.5	66.3	-92.2	0.0
2026-01-19 14:19:08.926484	160.5	66.8	-92.4	0.0
2026-01-19 14:19:10.059730	160.4	67.3	-92.6	0.0
2026-01-19 14:19:11.199869	160.4	67.9	-92.6	0.0
2026-01-19 14:19:12.335195	160.4	68.4	-92.5	0.0
2026-01-19 14:19:13.471578	160.3	68.9	-92.6	0.0
2026-01-19 14:19:14.609298	160.3	69.4	-92.5	0.0
2026-01-19 14:19:15.749120	160.2	70.0	-92.4	0.0
2026-01-19 14:19:16.883740	160.2	70.5	-92.5	0.0
2026-01-19 14:19:18.013636	160.1	71.0	-92.4	0.0
2026-01-19 14:19:19.151791	160.1	71.6	-92.5	0.0
2026-01-19 14:19:20.285153	160.0	72.1	-92.2	0.0
2026-01-19 14:19:21.416659	160.0	72.6	-92.5	0.0
2026-01-19 14:19:22.548134	159.9	73.2	-92.4	0.0
2026-01-19 14:19:23.680680	159.8	73.7	-92.4	0.0
2026-01-19 14:19:24.813307	159.8	74.3	-92.5	0.0
2026-01-19 14:19:25.947350	159.7	74.8	-92.5	0.0
2026-01-19 14:19:27.077541	159.6	75.4	-92.5	0.0
2026-01-19 14:19:28.206411	159.5	75.9	-92.6	0.0
2026-01-19 14:19:29.343045	159.4	76.5	-92.5	0.0
2026-01-19 14:19:30.473424	159.3	77.1	-92.5	0.0
2026-01-19 14:19:31.603281	159.1	77.6	-92.2	0.0
2026-01-19 14:19:32.735203	159.0	78.2	-92.4	0.0
2026-01-19 14:19:33.870185	158.9	78.7	-92.2	0.0
2026-01-19 14:19:35.004556	158.7	79.3	-92.4	0.0
2026-01-19 14:19:36.138371	158.5	79.9	-92.3	0.0
2026-01-19 14:19:37.268228	158.3	80.5	-92.5	0.0
2026-01-19 14:19:38.401207	158.0	81.0	-92.4	0.0
2026-01-19 14:19:39.539032	157.8	81.6	-92.5	0.0
2026-01-19 14:19:40.671540	157.5	82.2	-92.3	0.0
2026-01-19 14:19:41.802920	157.1	82.7	-92.5	0.0
2026-01-19 14:19:42.937309	156.7	83.3	-92.4	0.0
2026-01-19 14:19:44.074242	156.1	83.9	-92.4	0.0
2026-01-19 14:19:45.209514	155.5	84.5	-92.5	0.0
2026-01-19 14:19:46.347389	154.7	85.1	-92.5	0.0
2026-01-19 14:19:47.483808	153.8	85.6	-92.5	0.0
2026-01-19 14:19:48.615517	152.5	86.2	-92.4	0.0
2026-01-19 14:19:49.748420	150.7	86.8	-92.5	0.0
2026-01-19 14:19:50.885340	148.2	87.4	-92.4	0.0
2026-01-19 14:19:52.021951	144.3	87.9	-92.5	0.0
2026-01-19 14:19:53.154826	137.6	88.5	-92.5	0.0
2026-01-19 14:19:54.288248	123.8	89.0	-92.6	0.0
2026-01-19 14:19:55.422527	90.9	89.3	-92.6	0.0
2026-01-19 14:19:56.561437	41.5	89.3	-92.4	0.0
2026-01-19 14:19:57.697307	15.5	88.8	-92.5	0.0
2026-01-19 14:19:58.834220	4.3	88.3	-92.4	0.0
2026-01-19 14:19:59.962445	358.7	87.8	-92.3	0.0
2026-01-19 14:20:01.095303	355.2	87.2	-92.6	0.0
2026-01-19 14:20:02.230453	353.0	86.6	-92.4	0.0
2026-01-19 14:20:03.365114	351.4	86.1	-92.5	0.0
2026-01-19 14:20:04.496884	350.2	85.5	-92.5	0.0
2026-01-19 14:20:05.626765	349.3	84.9	-92.6	0.0
2026-01-19 14:20:06.757005	348.5	84.3	-92.3	0.0
2026-01-19 14:20:07.894627	348.0	83.8	-92.3	0.0
2026-01-19 14:20:09.030002	347.5	83.2	-92.5	0.0
2026-01-19 14:20:10.161277	347.1	82.6	-92.6	0.0
2026-01-19 14:20:11.291100	346.7	82.0	-92.6	0.0
2026-01-19 14:20:12.428462	346.4	81.5	-92.6	0.0
2026-01-19 14:20:13.561351	346.1	80.9	-92.5	0.0
2026-01-19 14:20:14.698658	345.9	80.3	-92.5	0.0
2026-01-19 14:20:15.834047	345.7	79.7	-92.3	0.0
2026-01-19 14:20:16.968831	345.5	79.2	-92.4	0.0
2026-01-19 14:20:18.103195	345.3	78.6	-92.3	0.0
2026-01-19 14:20:19.237085	345.2	78.0	-92.6	0.0
2026-01-19 14:20:20.371185	345.1	77.5	-92.3	0.0
2026-01-19 14:20:21.502715	344.9	76.9	-92.3	0.0
2026-01-19 14:20:22.644154	344.8	76.4	-92.4	0.0
2026-01-19 14:20:23.773147	344.7	75.8	-92.6	0.0
2026-01-19 14:20:24.910970	344.6	75.2	-92.6	0.0
2026-01-19 14:20:26.046844	344.5	74.7	-92.4	0.0
2026-01-19 14:20:27.178206	344.5	74.1	-92.4	0.0
2026-01-19 14:20:28.313069	344.4	73.6	-92.4	0.0
2026-01-19 14:20:29.454430	344.3	73.0	-92.5	0.0
2026-01-19 14:20:30.584527	344.3	72.5	-92.4	0.0
2026-01-19 14:20:31.716505	344.2	72.0	-92.6	0.0
2026-01-19 14:20:32.847365	344.1	71.4	-92.6	0.0
2026-01-19 14:20:33.988231	344.1	70.9	-92.3	0.0
2026-01-19 14:20:35.116693	344.0	70.4	-92.5	0.0
2026-01-19 14:20:36.248577	344.0	69.8	-92.5	0.0
2026-01-19 14:20:37.379723	343.9	69.3	-92.4	0.0
2026-01-19 14:20:38.518069	343.9	68.8	-92.5	0.0
2026-01-19 14:20:39.658267	343.9	68.3	-92.4	0.0
2026-01-19 14:20:40.788166	343.8	67.7	-92.5	0.0
2026-01-19 14:20:41.924044	343.8	67.2	-92.5	0.0
2026-01-19 14:20:43.059663	343.8	66.7	-92.4	0.0
2026-01-19 14:20:44.191531	343.7	66.2	-92.5	0.0
2026-01-19 14:20:45.326569	343.7	65.7	-92.6	0.0
2026-01-19 14:20:46.464432	343.7	65.2	-92.4	0.0
2026-01-19 14:20:47.591377	343.7	64.7	-92.5	0.0
2026-01-19 14:20:48.729440	343.6	64.2	-92.5	0.0
2026-01-19 14:20:49.864797	343.6	63.7	-92.4	0.0
2026-01-19 14:20:50.996174	343.6	63.2	-92.3	0.0
2026-01-19 14:20:52.130557	343.6	62.8	-92.3	0.0
2026-01-19 14:20:53.264068	343.5	62.3	-92.4	0.0
2026-01-19 14:20:54.401442	343.5	61.8	-92.4	0.0
2026-01-19 14:20:55.535506	343.5	61.3	-92.5	0.0
2026-01-19 14:20:56.670775	343.5	60.8	-92.3	0.0
2026-01-19 14:20:57.802417	343.5	60.4	-92.4	0.0
2026-01-19 14:20:58.934487	343.4	59.9	-92.3	0.0
2026-01-19 14:21:00.068230	343.4	59.5	-92.5	0.0
2026-01-19 14:21:01.203686	343.4	59.0	-92.6	0.0
2026-01-19 14:21:02.338285	343.4	58.5	-92.4	0.0
2026-01-19 14:21:03.467929	343.4	58.1	-92.6	0.0
2026-01-19 14:21:04.607165	343.4	57.6	-92.5	0.0
2026-01-19 14:21:05.741686	343.4	57.2	-92.5	0.0
2026-01-19 14:21:06.871122	343.4	56.8	-92.5	0.0
2026-01-19 14:21:08.004365	343.3	56.3	-92.5	0.0
2026-01-19 14:21:09.134577	343.3	55.9	-92.6	0.0
2026-01-19 14:21:10.271668	343.3	55.5	-92.3	0.0
2026-01-19 14:21:11.401055	343.3	55.0	-92.6	0.0
2026-01-19 14:21:12.532917	343.3	54.6	-92.4	0.0
2026-01-19 14:21:13.667116	343.3	54.2	-92.4	0.0
2026-01-19 14:21:14.813092	343.3	53.8	-92.4	0.0
2026-01-19 14:21:15.951963	343.3	53.4	-92.4	0.0
2026-01-19 14:21:17.090375	343.3	53.0	-92.5	0.0
2026-01-19 14:21:18.222260	343.3	52.5	-92.5	0.0
2026-01-19 14:21:19.357118	343.2	52.1	-92.6	0.0
2026-01-19 14:21:20.487516	343.2	51.7	-92.4	0.0
2026-01-19 14:21:21.622165	343.2	51.3	-92.4	0.0
2026-01-19 14:21:22.755021	343.2	51.0	-92.4	0.0
2026-01-19 14:21:23.891112	343.2	50.6	-92.7	0.0
2026-01-19 14:21:25.023662	343.2	50.2	-92.6	0.0
2026-01-19 14:21:26.155660	343.2	49.8	-92.5	0.0
2026-01-19 14:21:27.290414	343.2	49.4	-92.5	0.0
2026-01-19 14:21:28.422079	343.2	49.0	-92.4	0.0
2026-01-19 14:21:29.558434	343.2	48.7	-92.5	0.0
2026-01-19 14:21:30.693325	343.2	48.3	-92.5	0.0
2026-01-19 14:21:31.827496	343.2	47.9	-92.4	0.0
2026-01-19 14:21:32.956708	343.2	47.6	-92.4	0.0
2026-01-19 14:21:34.088595	343.2	47.2	-92.3	0.0
2026-01-19 14:21:35.220485	343.2	46.9	-92.4	0.0
2026-01-19 14:21:36.351834	343.2	46.5	-92.5	0.0
2026-01-19 14:21:37.485220	343.2	46.1	-92.5	0.0
2026-01-19 14:21:38.619364	343.2	45.8	-92.6	0.0
2026-01-19 14:21:39.753069	343.2	45.5	-92.3	0.0
2026-01-19 14:21:40.889378	343.2	45.1	-92.5	0.0
2026-01-19 14:21:42.018474	343.2	44.8	-92.4	0.0
2026-01-19 14:21:43.154639	343.1	44.4	-92.6	0.0
2026-01-19 14:21:44.284063	343.1	44.1	-92.4	0.0
2026-01-19 14:21:45.413474	343.1	43.8	-92.6	0.0
2026-01-19 14:21:46.547657	343.1	43.4	-92.4	0.0
2026-01-19 14:21:47.683035	343.1	43.1	-92.3	0.0
2026-01-19 14:21:48.815125	343.1	42.8	-92.5	0.0
2026-01-19 14:21:49.948471	343.1	42.5	-92.5	0.0
2026-01-19 14:21:51.085081	343.1	42.2	-92.5	0.0
2026-01-19 14:21:52.218823	343.1	41.8	-92.4	0.0
2026-01-19 14:21:53.346567	343.1	41.5	-92.4	0.0
2026-01-19 14:21:54.480940	343.1	41.2	-92.5	0.0
2026-01-19 14:21:55.612809	343.1	40.9	-92.6	0.0
2026-01-19 14:21:56.743995	343.1	40.6	-92.5	0.0
2026-01-19 14:21:57.879457	343.1	40.3	-92.6	0.0
2026-01-19 14:21:59.014043	343.1	40.0	-92.4	0.0
2026-01-19 14:22:00.144425	343.1	39.7	-92.4	0.0
2026-01-19 14:22:01.276907	343.1	39.4	-92.5	0.0
2026-01-19 14:22:02.414873	343.1	39.1	-92.3	0.0
2026-01-19 14:22:03.546062	343.1	38.8	-92.4	0.0
2026-01-19 14:22:04.680430	343.1	38.6	-92.4	0.0
2026-01-19 14:22:05.812042	343.1	38.3	-92.4	0.0
2026-01-19 14:22:06.945952	343.1	38.0	-92.5	0.0
2026-01-19 14:22:08.077846	343.1	37.7	-92.5	0.0
2026-01-19 14:22:09.212420	343.1	37.4	-92.5	0.0
2026-01-19 14:22:10.344059	343.1	37.2	-92.5	0.0
2026-01-19 14:22:11.474306	343.1	36.9	-92.5	0.0
2026-01-19 14:22:12.609532	343.1	36.6	-92.6	0.0
2026-01-19 14:22:13.742018	343.1	36.3	-92.5	0.0
2026-01-19 14:22:14.876514	343.1	36.1	-92.3	0.0
2026-01-19 14:22:16.005046	343.1	35.8	-92.6	0.0
2026-01-19 14:22:17.132783	343.1	35.6	-92.5	0.0
2026-01-19 14:22:18.274878	343.1	35.3	-92.5	0.0
2026-01-19 14:22:19.416319	343.1	35.0	-92.4	0.0
2026-01-19 14:22:20.544862	343.1	34.8	-92.4	0.0
2026-01-19 14:22:21.676723	343.1	34.5	-92.5	0.0
2026-01-19 14:22:22.811260	343.1	34.3	-92.3	0.0
2026-01-19 14:22:23.947133	343.1	34.0	-92.5	0.0
2026-01-19 14:22:25.078466	343.1	33.8	-92.4	0.0
2026-01-19 14:22:26.209564	343.1	33.5	-92.3	0.0
2026-01-19 14:22:27.344186	343.1	33.3	-92.4	0.0
2026-01-19 14:22:28.474832	343.1	33.1	-92.5	0.0
2026-01-19 14:22:29.608110	343.1	32.8	-92.6	0.0
2026-01-19 14:22:30.745424	343.1	32.6	-92.5	0.0
2026-01-19 14:22:31.877295	343.1	32.3	-92.4	0.0
2026-01-19 14:22:33.013962	343.1	32.1	-92.5	0.0
2026-01-19 14:22:34.149213	343.1	31.9	-92.6	0.0
2026-01-19 14:22:35.283536	343.1	31.7	-92.6	0.0
2026-01-19 14:22:36.417344	343.1	31.4	-92.3	0.0
2026-01-19 14:22:37.554278	343.1	31.2	-92.6	0.0
2026-01-19 14:22:38.687315	343.1	31.0	-92.5	0.0
2026-01-19 14:22:39.822059	343.1	30.7	-92.5	0.0
2026-01-19 14:22:40.958219	343.1	30.5	-92.4	0.0
2026-01-19 14:22:42.086029	343.1	30.3	-92.3	0.0
2026-01-19 14:22:43.217772	343.1	30.1	-92.2	0.0
2026-01-19 14:22:44.352134	343.1	29.9	-92.3	0.0
2026-01-19 14:22:45.492983	343.1	29.7	-92.5	0.0
2026-01-19 14:22:46.630853	343.1	29.4	-92.4	0.0
2026-01-19 14:22:47.761237	343.1	29.2	-92.4	0.0
2026-01-19 14:22:48.891919	343.1	29.0	-92.5	0.0
2026-01-19 14:22:50.021048	343.1	28.8	-92.5	0.0
2026-01-19 14:22:51.162627	343.1	28.6	-92.6	0.0
2026-01-19 14:22:52.301507	343.1	28.4	-92.4	0.0
2026-01-19 14:22:53.436875	343.1	28.2	-92.3	0.0
2026-01-19 14:22:54.565704	343.1	28.0	-92.3	0.0
2026-01-19 14:22:55.698795	343.1	27.8	-92.6	0.0
2026-01-19 14:22:56.830166	343.2	27.6	-92.5	0.0
2026-01-19 14:22:57.970916	343.2	27.4	-92.5	0.0
2026-01-19 14:22:59.102577	343.2	27.2	-92.5	0.0
2026-01-19 14:23:00.234436	343.2	27.0	-92.5	0.0
2026-01-19 14:23:01.366299	343.2	26.8	-92.3	0.0
2026-01-19 14:23:02.495833	343.2	26.6	-92.4	0.0
2026-01-19 14:23:03.626919	343.2	26.4	-92.3	0.0
2026-01-19 14:23:04.758362	343.2	26.2	-92.4	0.0
2026-01-19 14:23:05.888249	343.2	26.1	-92.3	0.0
2026-01-19 14:23:07.020245	343.2	25.9	-92.5	0.0
2026-01-19 14:23:08.159398	343.2	25.7	-92.5	0.0
2026-01-19 14:23:09.292099	343.2	25.5	-92.4	0.0
2026-01-19 14:23:10.426455	343.2	25.3	-92.4	0.0
2026-01-19 14:23:11.558338	343.2	25.1	-92.5	0.0
2026-01-19 14:23:12.692578	343.2	25.0	-92.4	0.0
2026-01-19 14:23:13.825344	343.2	24.8	-92.3	0.0
2026-01-19 14:23:14.956261	343.2	24.6	-92.6	0.0
2026-01-19 14:23:16.087104	343.2	24.4	-92.5	0.0
2026-01-19 14:23:17.217813	343.2	24.3	-92.5	0.0
2026-01-19 14:23:18.348699	343.2	24.1	-92.3	0.0
2026-01-19 14:23:19.481186	343.2	23.9	-92.5	0.0
2026-01-19 14:23:20.616042	343.2	23.7	-92.4	0.0
2026-01-19 14:23:21.749392	343.2	23.6	-92.6	0.0
2026-01-19 14:23:22.881118	343.2	23.4	-92.5	0.0
2026-01-19 14:23:24.012418	343.2	23.2	-92.3	0.0
2026-01-19 14:23:25.154324	343.2	23.1	-92.6	0.0
2026-01-19 14:23:26.283671	343.2	22.9	-92.4	0.0
2026-01-19 14:23:27.420543	343.2	22.7	-92.5	0.0
2026-01-19 14:23:28.553264	343.2	22.6	-92.5	0.0
2026-01-19 14:23:29.686517	343.2	22.4	-92.4	0.0
2026-01-19 14:23:30.815889	343.2	22.2	-92.5	0.0
2026-01-19 14:23:31.952971	343.2	22.1	-92.5	0.0
2026-01-19 14:23:33.091838	343.2	21.9	-92.4	0.0
2026-01-19 14:23:34.231212	343.2	21.8	-92.5	0.0
2026-01-19 14:23:35.362082	343.2	21.6	-92.5	0.0
2026-01-19 14:23:36.495943	343.2	21.4	-92.4	0.0
2026-01-19 14:23:37.625805	343.2	21.3	-92.4	0.0
2026-01-19 14:23:38.756119	343.2	21.1	-92.4	0.0
2026-01-19 14:23:39.884502	343.2	21.0	-92.5	0.0
2026-01-19 14:23:41.014897	343.2	20.8	-92.4	0.0
2026-01-19 14:23:42.151050	343.2	20.7	-92.4	0.0
2026-01-19 14:23:43.282791	343.2	20.5	-92.5	0.0
2026-01-19 14:23:44.412082	343.2	20.4	-92.4	0.0
2026-01-19 14:23:45.543899	343.3	20.2	-92.5	0.0
2026-01-19 14:23:46.672902	343.3	20.1	-92.5	0.0
2026-01-19 14:23:47.801844	343.3	19.9	-92.7	0.0
2026-01-19 14:23:48.933722	343.3	19.8	-92.4	0.0
2026-01-19 14:23:50.067100	343.3	19.6	-92.4	0.0
2026-01-19 14:23:51.201095	343.3	19.5	-92.5	0.0
2026-01-19 14:23:52.334390	343.3	19.3	-92.6	0.0
2026-01-19 14:23:53.464269	343.3	19.2	-92.5	0.0
2026-01-19 14:23:54.600136	343.3	19.1	-92.5	0.0
2026-01-19 14:23:55.734440	343.3	18.9	-92.5	0.0
2026-01-19 14:23:56.863335	343.3	18.8	-92.5	0.0
2026-01-19 14:23:57.995238	343.3	18.6	-92.3	0.0
2026-01-19 14:23:59.125128	343.3	18.5	-92.4	0.0
2026-01-19 14:24:00.261359	343.3	18.4	-92.3	0.0
2026-01-19 14:24:01.392543	343.3	18.2	-92.4	0.0
2026-01-19 14:24:02.528417	343.3	18.1	-92.5	0.0
2026-01-19 14:24:03.655826	343.3	17.9	-92.4	0.0
2026-01-19 14:24:04.793022	343.3	17.8	-92.5	0.0
2026-01-19 14:24:05.926455	343.3	17.7	-92.4	0.0
2026-01-19 14:24:07.057847	343.3	17.5	-92.5	0.0
2026-01-19 14:24:08.189235	343.3	17.4	-92.3	0.0
2026-01-19 14:24:09.319348	343.3	17.3	-92.4	0.0
2026-01-19 14:24:10.449709	343.3	17.1	-92.5	0.0
2026-01-19 14:24:11.582672	343.3	17.0	-92.5	0.0
2026-01-19 14:24:12.717180	343.3	16.9	-92.6	0.0
2026-01-19 14:24:13.857549	343.3	16.7	-92.4	0.0
2026-01-19 14:24:14.994799	343.3	16.6	-92.4	0.0
2026-01-19 14:24:16.125487	343.3	16.5	-92.4	0.0
2026-01-19 14:24:17.257057	343.3	16.4	-92.4	0.0
2026-01-19 14:24:18.391370	343.3	16.2	-92.4	0.0
2026-01-19 14:24:19.532071	343.3	16.1	-92.5	0.0
2026-01-19 14:24:20.675994	343.3	16.0	-92.4	0.0
2026-01-19 14:24:21.807355	343.3	15.9	-92.4	0.0
2026-01-19 14:24:22.941686	343.3	15.7	-92.5	0.0
2026-01-19 14:24:24.073669	343.4	15.6	-92.4	0.0
2026-01-19 14:24:25.208508	343.4	15.5	-92.4	0.0
2026-01-19 14:24:26.342892	343.4	15.4	-92.6	0.0
2026-01-19 14:24:27.474778	343.4	15.2	-92.4	0.0
2026-01-19 14:24:28.603822	343.4	15.1	-92.5	0.0
2026-01-19 14:24:29.739801	343.4	15.0	-92.2	0.0
#Closed at: 2026-01-19 14:15:18.602971