passes_logs/2025/01/25/planumMaritime01/planumMaritime01__20250125_005411_METEOR-M2_4_rec.log

#Pass ID: 20250125_005411_METEOR-M2 4
#Satellite: METEOR-M2 4
#Configuration: METEOR-M2 4
#Start time: 2025-01-25 00:54:16.426559

#LorettStation: 1.0.0 05.05.2024
#Station: planumMaritime01
#Location: 37.49445 lon 55.92918 lat
#TLE: 1 59051U 24039A   25024.80620376  .00000158  00000+0  90320-4 0  9994
#TLE: 2 59051  98.6306 347.6099 0006657 193.6447 166.4552 14.22328660 46991

#Time	Az	El	Level	SNR
2025-01-25 00:54:18.591608	19.3	10.2	-77.7	0.0
2025-01-25 00:54:19.714949	19.3	10.3	-78.0	0.0
2025-01-25 00:54:20.835181	19.3	10.4	-77.9	0.0
2025-01-25 00:54:21.960603	19.3	10.5	-78.2	0.0
2025-01-25 00:54:23.083837	19.4	10.6	-78.3	0.0
2025-01-25 00:54:24.206180	19.4	10.7	-78.1	0.0
2025-01-25 00:54:25.329576	19.4	10.8	-78.2	0.0
2025-01-25 00:54:26.451985	19.4	10.9	-78.3	0.0
2025-01-25 00:54:27.574115	19.5	11.0	-78.3	0.0
2025-01-25 00:54:28.697643	19.5	11.1	-77.8	0.0
2025-01-25 00:54:29.820521	19.5	11.2	-78.2	0.0
2025-01-25 00:54:30.943345	19.6	11.3	-78.4	0.0
2025-01-25 00:54:32.067091	19.6	11.4	-78.4	0.0
2025-01-25 00:54:33.191100	19.6	11.5	-78.5	0.0
2025-01-25 00:54:34.314497	19.6	11.6	-78.0	0.0
2025-01-25 00:54:35.435485	19.7	11.7	-78.0	0.0
2025-01-25 00:54:36.557996	19.7	11.8	-78.4	0.0
2025-01-25 00:54:37.681375	19.7	11.9	-78.1	0.0
2025-01-25 00:54:38.803880	19.8	12.0	-78.2	0.0
2025-01-25 00:54:39.927781	19.8	12.1	-78.1	0.0
2025-01-25 00:54:41.050273	19.8	12.2	-78.2	0.0
2025-01-25 00:54:42.173282	19.8	12.3	-78.4	0.0
2025-01-25 00:54:43.296763	19.9	12.4	-78.5	0.0
2025-01-25 00:54:44.419041	19.9	12.5	-78.2	0.0
2025-01-25 00:54:45.544575	19.9	12.6	-78.6	0.0
2025-01-25 00:54:46.668166	20.0	12.8	-78.3	0.0
2025-01-25 00:54:47.790408	20.0	12.9	-78.3	0.0
2025-01-25 00:54:48.913263	20.0	13.0	-77.7	0.0
2025-01-25 00:54:50.038248	20.1	13.1	-78.2	0.0
2025-01-25 00:54:51.161190	20.1	13.2	-78.4	0.0
2025-01-25 00:54:52.285182	20.1	13.3	-78.6	0.0
2025-01-25 00:54:53.406089	20.1	13.4	-78.5	0.0
2025-01-25 00:54:54.529269	20.2	13.5	-78.3	0.0
2025-01-25 00:54:55.652172	20.2	13.6	-78.4	0.0
2025-01-25 00:54:56.772328	20.2	13.7	-78.6	0.0
2025-01-25 00:54:57.896612	20.3	13.9	-78.4	0.0
2025-01-25 00:54:59.019565	20.3	14.0	-78.6	0.0
2025-01-25 00:55:00.141950	20.3	14.1	-78.5	0.0
2025-01-25 00:55:01.266802	20.4	14.2	-78.5	0.0
2025-01-25 00:55:02.391652	20.4	14.3	-78.5	0.0
2025-01-25 00:55:03.513280	20.4	14.4	-78.8	0.0
2025-01-25 00:55:04.637091	20.5	14.5	-78.9	0.0
2025-01-25 00:55:05.762066	20.5	14.7	-78.8	0.0
2025-01-25 00:55:06.885003	20.5	14.8	-78.6	0.0
2025-01-25 00:55:08.010029	20.6	14.9	-78.4	0.0
2025-01-25 00:55:09.133727	20.6	15.0	-78.3	0.0
2025-01-25 00:55:10.256489	20.6	15.1	-78.8	0.0
2025-01-25 00:55:11.379892	20.7	15.3	-78.9	0.0
2025-01-25 00:55:12.502664	20.7	15.4	-78.8	0.0
2025-01-25 00:55:13.625384	20.8	15.5	-78.8	0.0
2025-01-25 00:55:14.746925	20.8	15.6	-78.8	0.0
2025-01-25 00:55:15.869384	20.8	15.7	-79.0	0.0
2025-01-25 00:55:16.989701	20.9	15.9	-78.4	0.0
2025-01-25 00:55:18.111349	20.9	16.0	-78.5	0.0
2025-01-25 00:55:19.234256	20.9	16.1	-78.4	0.0
2025-01-25 00:55:20.357287	21.0	16.2	-78.5	0.0
2025-01-25 00:55:21.481555	21.0	16.4	-78.6	0.0
2025-01-25 00:55:22.603056	21.0	16.5	-78.5	0.0
2025-01-25 00:55:23.725319	21.1	16.6	-78.8	0.0
2025-01-25 00:55:24.850972	21.1	16.7	-78.7	0.0
2025-01-25 00:55:25.971583	21.2	16.9	-78.9	0.0
2025-01-25 00:55:27.095068	21.2	17.0	-78.7	0.0
2025-01-25 00:55:28.219606	21.2	17.1	-78.1	0.0
2025-01-25 00:55:29.340594	21.3	17.2	-78.1	0.0
2025-01-25 00:55:30.463286	21.3	17.4	-78.7	0.0
2025-01-25 00:55:31.586139	21.4	17.5	-78.5	0.0
2025-01-25 00:55:32.710945	21.4	17.6	-78.5	0.0
2025-01-25 00:55:33.833660	21.4	17.8	-78.6	0.0
2025-01-25 00:55:34.955950	21.5	17.9	-78.6	0.0
2025-01-25 00:55:36.078289	21.5	18.0	-78.9	0.0
2025-01-25 00:55:37.200302	21.6	18.2	-78.5	0.0
2025-01-25 00:55:38.323374	21.6	18.3	-78.9	0.0
2025-01-25 00:55:39.446177	21.6	18.4	-78.8	0.0
2025-01-25 00:55:40.569602	21.7	18.6	-79.0	0.0
2025-01-25 00:55:41.693750	21.7	18.7	-78.7	0.0
2025-01-25 00:55:42.816005	21.8	18.9	-78.5	0.0
2025-01-25 00:55:43.938122	21.8	19.0	-78.6	0.0
2025-01-25 00:55:45.063738	21.9	19.1	-78.7	0.0
2025-01-25 00:55:46.187768	21.9	19.3	-78.4	0.0
2025-01-25 00:55:47.309603	22.0	19.4	-78.5	0.0
2025-01-25 00:55:48.431740	22.0	19.6	-78.1	0.0
2025-01-25 00:55:49.554520	22.0	19.7	-78.2	0.0
2025-01-25 00:55:50.675994	22.1	19.9	-78.6	0.0
2025-01-25 00:55:51.798486	22.1	20.0	-78.7	0.0
2025-01-25 00:55:52.922074	22.2	20.1	-78.6	0.0
2025-01-25 00:55:54.046257	22.2	20.3	-78.4	0.0
2025-01-25 00:55:55.168645	22.3	20.4	-78.8	0.0
2025-01-25 00:55:56.289666	22.3	20.6	-78.8	0.0
2025-01-25 00:55:57.413407	22.4	20.7	-78.6	0.0
2025-01-25 00:55:58.535458	22.4	20.9	-78.6	0.0
2025-01-25 00:55:59.658858	22.5	21.0	-78.9	0.0
2025-01-25 00:56:00.782348	22.5	21.2	-78.9	0.0
2025-01-25 00:56:01.906144	22.6	21.3	-78.8	0.0
2025-01-25 00:56:03.027071	22.6	21.5	-78.9	0.0
2025-01-25 00:56:04.150965	22.7	21.6	-78.7	0.0
2025-01-25 00:56:05.273293	22.7	21.8	-78.6	0.0
2025-01-25 00:56:06.397785	22.8	22.0	-78.8	0.0
2025-01-25 00:56:07.520069	22.8	22.1	-78.6	0.0
2025-01-25 00:56:08.643608	22.9	22.3	-78.1	0.0
2025-01-25 00:56:09.767248	22.9	22.4	-78.3	0.0
2025-01-25 00:56:10.890696	23.0	22.6	-78.6	0.0
2025-01-25 00:56:12.012704	23.0	22.8	-78.4	0.0
2025-01-25 00:56:13.133981	23.1	22.9	-79.0	0.0
2025-01-25 00:56:14.257284	23.2	23.1	-79.0	0.0
2025-01-25 00:56:15.378816	23.2	23.2	-78.8	0.0
2025-01-25 00:56:16.503033	23.3	23.4	-78.9	0.0
2025-01-25 00:56:17.627698	23.3	23.6	-79.1	0.0
2025-01-25 00:56:18.750597	23.4	23.7	-79.0	0.0
2025-01-25 00:56:19.871558	23.4	23.9	-79.0	0.0
2025-01-25 00:56:20.994675	23.5	24.1	-78.8	0.0
2025-01-25 00:56:22.118600	23.6	24.3	-79.2	0.0
2025-01-25 00:56:23.242988	23.6	24.4	-79.1	0.0
2025-01-25 00:56:24.367859	23.7	24.6	-79.0	0.0
2025-01-25 00:56:25.491441	23.7	24.8	-78.8	0.0
2025-01-25 00:56:26.614314	23.8	24.9	-78.8	0.0
2025-01-25 00:56:27.737010	23.9	25.1	-78.7	0.0
2025-01-25 00:56:28.859638	23.9	25.3	-78.3	0.0
2025-01-25 00:56:29.983003	24.0	25.5	-78.9	0.0
2025-01-25 00:56:31.104963	24.1	25.7	-79.0	0.0
2025-01-25 00:56:32.230355	24.1	25.8	-78.7	0.0
2025-01-25 00:56:33.353485	24.2	26.0	-79.0	0.0
2025-01-25 00:56:34.477876	24.3	26.2	-78.9	0.0
2025-01-25 00:56:35.599564	24.3	26.4	-78.5	0.0
2025-01-25 00:56:36.720480	24.4	26.6	-78.9	0.0
2025-01-25 00:56:37.842581	24.5	26.8	-79.0	0.0
2025-01-25 00:56:38.965065	24.5	27.0	-78.9	0.0
2025-01-25 00:56:40.088151	24.6	27.1	-78.7	0.0
2025-01-25 00:56:41.208348	24.7	27.3	-79.0	0.0
2025-01-25 00:56:42.330808	24.7	27.5	-78.5	0.0
2025-01-25 00:56:43.454624	24.8	27.7	-79.0	0.0
2025-01-25 00:56:44.577611	24.9	27.9	-79.0	0.0
2025-01-25 00:56:45.701711	25.0	28.1	-79.0	0.0
2025-01-25 00:56:46.825072	25.0	28.3	-78.8	0.0
2025-01-25 00:56:47.947045	25.1	28.5	-78.5	0.0
2025-01-25 00:56:49.069263	25.2	28.7	-78.0	0.0
2025-01-25 00:56:50.192156	25.3	28.9	-78.6	0.0
2025-01-25 00:56:51.316320	25.3	29.1	-78.8	0.0
2025-01-25 00:56:52.437510	25.4	29.3	-78.9	0.0
2025-01-25 00:56:53.561918	25.5	29.5	-78.8	0.0
2025-01-25 00:56:54.686757	25.6	29.7	-78.5	0.0
2025-01-25 00:56:55.808820	25.7	29.9	-78.7	0.0
2025-01-25 00:56:56.932252	25.8	30.2	-78.6	0.0
2025-01-25 00:56:58.054580	25.8	30.4	-79.0	0.0
2025-01-25 00:56:59.175676	25.9	30.6	-79.0	0.0
2025-01-25 00:57:00.296702	26.0	30.8	-79.2	0.0
2025-01-25 00:57:01.420056	26.1	31.0	-79.0	0.0
2025-01-25 00:57:02.544784	26.2	31.2	-79.1	0.0
2025-01-25 00:57:03.665972	26.3	31.5	-78.9	0.0
2025-01-25 00:57:04.788744	26.4	31.7	-79.0	0.0
2025-01-25 00:57:05.912032	26.5	31.9	-79.0	0.0
2025-01-25 00:57:07.036494	26.6	32.1	-78.9	0.0
2025-01-25 00:57:08.161198	26.7	32.3	-78.5	0.0
2025-01-25 00:57:09.282647	26.8	32.6	-78.6	0.0
2025-01-25 00:57:10.402970	26.9	32.8	-78.8	0.0
2025-01-25 00:57:11.527324	27.0	33.0	-78.7	0.0
2025-01-25 00:57:12.650467	27.1	33.3	-79.1	0.0
2025-01-25 00:57:13.772890	27.2	33.5	-78.9	0.0
2025-01-25 00:57:14.897832	27.3	33.7	-78.7	0.0
2025-01-25 00:57:16.021996	27.4	34.0	-78.8	0.0
2025-01-25 00:57:17.144027	27.5	34.2	-79.1	0.0
2025-01-25 00:57:18.267304	27.6	34.5	-78.9	0.0
2025-01-25 00:57:19.391685	27.7	34.7	-78.7	0.0
2025-01-25 00:57:20.513795	27.8	35.0	-79.1	0.0
2025-01-25 00:57:21.636960	27.9	35.2	-79.1	0.0
2025-01-25 00:57:22.759776	28.0	35.5	-78.9	0.0
2025-01-25 00:57:23.884996	28.2	35.7	-79.2	0.0
2025-01-25 00:57:25.010166	28.3	36.0	-79.1	0.0
2025-01-25 00:57:26.132625	28.4	36.2	-78.9	0.0
2025-01-25 00:57:27.256073	28.5	36.5	-79.2	0.0
2025-01-25 00:57:28.377549	28.6	36.7	-78.9	0.0
2025-01-25 00:57:29.501469	28.8	37.0	-78.4	0.0
2025-01-25 00:57:30.622675	28.9	37.3	-79.3	0.0
2025-01-25 00:57:31.743217	29.0	37.5	-79.0	0.0
2025-01-25 00:57:32.868363	29.2	37.8	-79.3	0.0
2025-01-25 00:57:33.990880	29.3	38.1	-79.1	0.0
2025-01-25 00:57:35.112427	29.4	38.3	-79.2	0.0
2025-01-25 00:57:36.236916	29.6	38.6	-79.0	0.0
2025-01-25 00:57:37.359121	29.7	38.9	-79.3	0.0
2025-01-25 00:57:38.484059	29.8	39.2	-79.2	0.0
2025-01-25 00:57:39.607605	30.0	39.4	-79.2	0.0
2025-01-25 00:57:40.732231	30.1	39.7	-79.4	0.0
2025-01-25 00:57:41.854787	30.3	40.0	-79.4	0.0
2025-01-25 00:57:42.974799	30.4	40.3	-79.4	0.0
2025-01-25 00:57:44.099026	30.6	40.6	-79.1	0.0
2025-01-25 00:57:45.221887	30.8	40.9	-79.2	0.0
2025-01-25 00:57:46.346994	30.9	41.2	-79.1	0.0
2025-01-25 00:57:47.469607	31.1	41.5	-79.1	0.0
2025-01-25 00:57:48.593684	31.2	41.7	-79.0	0.0
2025-01-25 00:57:49.717551	31.4	42.0	-78.5	0.0
2025-01-25 00:57:50.840614	31.6	42.3	-79.3	0.0
2025-01-25 00:57:51.966489	31.8	42.7	-79.3	0.0
2025-01-25 00:57:53.089575	31.9	43.0	-79.4	0.0
2025-01-25 00:57:54.210749	32.1	43.3	-79.4	0.0
2025-01-25 00:57:55.331309	32.3	43.6	-79.4	0.0
2025-01-25 00:57:56.456971	32.5	43.9	-79.0	0.0
2025-01-25 00:57:57.580725	32.7	44.2	-79.2	0.0
2025-01-25 00:57:58.702576	32.9	44.5	-79.2	0.0
2025-01-25 00:57:59.827071	33.1	44.8	-79.3	0.0
2025-01-25 00:58:00.948818	33.3	45.2	-79.2	0.0
2025-01-25 00:58:02.070846	33.5	45.5	-79.1	0.0
2025-01-25 00:58:03.194430	33.7	45.8	-79.2	0.0
2025-01-25 00:58:04.318326	33.9	46.1	-79.3	0.0
2025-01-25 00:58:05.440834	34.2	46.5	-79.1	0.0
2025-01-25 00:58:06.563449	34.4	46.8	-79.3	0.0
2025-01-25 00:58:07.686168	34.6	47.1	-79.4	0.0
2025-01-25 00:58:08.810089	34.9	47.5	-79.0	0.0
2025-01-25 00:58:09.931752	35.1	47.8	-78.3	0.0
2025-01-25 00:58:11.055188	35.4	48.1	-79.1	0.0
2025-01-25 00:58:12.179898	35.6	48.5	-79.3	0.0
2025-01-25 00:58:13.303122	35.9	48.8	-79.4	0.0
2025-01-25 00:58:14.426017	36.1	49.2	-79.2	0.0
2025-01-25 00:58:15.549637	36.4	49.5	-79.4	0.0
2025-01-25 00:58:16.670931	36.7	49.9	-79.4	0.0
2025-01-25 00:58:17.794212	37.0	50.2	-79.3	0.0
2025-01-25 00:58:18.915619	37.3	50.6	-79.3	0.0
2025-01-25 00:58:20.036593	37.5	50.9	-79.0	0.0
2025-01-25 00:58:21.159172	37.9	51.3	-79.0	0.0
2025-01-25 00:58:22.282545	38.2	51.7	-79.2	0.0
2025-01-25 00:58:23.404760	38.5	52.0	-79.4	0.0
2025-01-25 00:58:24.525897	38.8	52.4	-79.2	0.0
2025-01-25 00:58:25.650080	39.1	52.8	-79.2	0.0
2025-01-25 00:58:26.772496	39.5	53.1	-79.4	0.0
2025-01-25 00:58:27.894028	39.8	53.5	-78.9	0.0
2025-01-25 00:58:29.018124	40.2	53.9	-78.9	0.0
2025-01-25 00:58:30.139767	40.6	54.2	-78.3	0.0
2025-01-25 00:58:31.263125	40.9	54.6	-79.0	0.0
2025-01-25 00:58:32.386276	41.3	55.0	-79.0	0.0
2025-01-25 00:58:33.507618	41.7	55.4	-79.2	0.0
2025-01-25 00:58:34.630881	42.1	55.7	-79.1	0.0
2025-01-25 00:58:35.754806	42.6	56.1	-79.1	0.0
2025-01-25 00:58:36.877556	43.0	56.5	-79.3	0.0
2025-01-25 00:58:37.999697	43.4	56.9	-79.3	0.0
2025-01-25 00:58:39.122935	43.9	57.3	-79.3	0.0
2025-01-25 00:58:40.246309	44.4	57.7	-79.1	0.0
2025-01-25 00:58:41.370162	44.9	58.0	-79.3	0.0
2025-01-25 00:58:42.493025	45.4	58.4	-79.5	0.0
2025-01-25 00:58:43.614949	45.9	58.8	-79.1	0.0
2025-01-25 00:58:44.736805	46.4	59.2	-79.2	0.0
2025-01-25 00:58:45.861760	46.9	59.6	-79.3	0.0
2025-01-25 00:58:46.986093	47.5	60.0	-79.1	0.0
2025-01-25 00:58:48.109724	48.1	60.4	-79.4	0.0
2025-01-25 00:58:49.231968	48.7	60.8	-79.0	0.0
2025-01-25 00:58:50.353290	49.3	61.1	-78.5	0.0
2025-01-25 00:58:51.473771	49.9	61.5	-78.8	0.0
2025-01-25 00:58:52.596951	50.6	61.9	-79.2	0.0
2025-01-25 00:58:53.721016	51.2	62.3	-79.3	0.0
2025-01-25 00:58:54.845643	51.9	62.7	-78.9	0.0
2025-01-25 00:58:55.968956	52.6	63.1	-79.1	0.0
2025-01-25 00:58:57.091288	53.4	63.4	-79.1	0.0
2025-01-25 00:58:58.213721	54.2	63.8	-79.1	0.0
2025-01-25 00:58:59.334189	54.9	64.2	-79.1	0.0
2025-01-25 00:59:00.456114	55.8	64.6	-78.9	0.0
2025-01-25 00:59:01.579174	56.6	64.9	-79.2	0.0
2025-01-25 00:59:02.701886	57.5	65.3	-79.3	0.0
2025-01-25 00:59:03.823965	58.4	65.7	-79.3	0.0
2025-01-25 00:59:04.945616	59.3	66.0	-79.1	0.0
2025-01-25 00:59:06.069244	60.2	66.4	-79.1	0.0
2025-01-25 00:59:07.193191	61.2	66.7	-78.9	0.0
2025-01-25 00:59:08.316028	62.3	67.1	-79.2	0.0
2025-01-25 00:59:09.436712	63.3	67.4	-78.8	0.0
2025-01-25 00:59:10.559437	64.4	67.8	-78.1	0.0
2025-01-25 00:59:11.683413	65.5	68.1	-78.8	0.0
2025-01-25 00:59:12.805015	66.7	68.4	-79.1	0.0
2025-01-25 00:59:13.928704	67.9	68.7	-79.1	0.0
2025-01-25 00:59:15.052291	69.2	69.0	-79.1	0.0
2025-01-25 00:59:16.175090	70.4	69.3	-79.3	0.0
2025-01-25 00:59:17.297405	71.8	69.6	-79.2	0.0
2025-01-25 00:59:18.419553	73.1	69.9	-79.3	0.0
2025-01-25 00:59:19.542657	74.5	70.2	-79.3	0.0
2025-01-25 00:59:20.665624	76.0	70.4	-79.3	0.0
2025-01-25 00:59:21.787364	77.4	70.7	-79.4	0.0
2025-01-25 00:59:22.912301	79.0	70.9	-79.3	0.0
2025-01-25 00:59:24.034893	80.5	71.1	-79.4	0.0
2025-01-25 00:59:25.158390	82.1	71.3	-79.3	0.0
2025-01-25 00:59:26.280994	83.8	71.5	-79.4	0.0
2025-01-25 00:59:27.403590	85.4	71.7	-78.8	0.0
2025-01-25 00:59:28.526647	87.1	71.9	-79.3	0.0
2025-01-25 00:59:29.648428	88.9	72.0	-79.0	0.0
2025-01-25 00:59:30.771654	90.6	72.2	-78.5	0.0
2025-01-25 00:59:31.896159	92.4	72.3	-79.3	0.0
2025-01-25 00:59:33.019529	94.3	72.4	-79.2	0.0
2025-01-25 00:59:34.143083	96.1	72.5	-79.3	0.0
2025-01-25 00:59:35.265100	98.0	72.6	-79.3	0.0
2025-01-25 00:59:36.387065	99.8	72.6	-79.3	0.0
2025-01-25 00:59:37.509312	101.7	72.6	-79.4	0.0
2025-01-25 00:59:38.630738	103.6	72.7	-79.4	0.0
2025-01-25 00:59:39.756322	105.5	72.7	-79.2	0.0
2025-01-25 00:59:40.880112	107.4	72.6	-79.5	0.0
2025-01-25 00:59:42.002110	109.3	72.6	-79.3	0.0
2025-01-25 00:59:43.125702	111.2	72.6	-79.2	0.0
2025-01-25 00:59:44.248303	113.0	72.5	-79.3	0.0
2025-01-25 00:59:45.371728	114.9	72.4	-79.1	0.0
2025-01-25 00:59:46.496300	116.7	72.3	-79.3	0.0
2025-01-25 00:59:47.620117	118.5	72.2	-79.2	0.0
2025-01-25 00:59:48.742814	120.3	72.0	-79.1	0.0
2025-01-25 00:59:49.867091	122.0	71.9	-79.0	0.0
2025-01-25 00:59:50.992003	123.7	71.7	-78.3	0.0
2025-01-25 00:59:52.114700	125.4	71.5	-79.2	0.0
2025-01-25 00:59:53.236112	127.0	71.3	-79.2	0.0
2025-01-25 00:59:54.358409	128.6	71.1	-79.2	0.0
2025-01-25 00:59:55.480964	130.2	70.9	-79.3	0.0
2025-01-25 00:59:56.604306	131.7	70.7	-79.3	0.0
2025-01-25 00:59:57.727068	133.2	70.4	-79.1	0.0
2025-01-25 00:59:58.851412	134.6	70.2	-79.4	0.0
2025-01-25 00:59:59.972839	136.0	69.9	-79.0	0.0
2025-01-25 01:00:01.095263	137.4	69.6	-79.1	0.0
2025-01-25 01:00:02.218604	138.7	69.3	-79.1	0.0
2025-01-25 01:00:03.343362	140.0	69.0	-79.3	0.0
2025-01-25 01:00:04.465237	141.2	68.7	-79.2	0.0
2025-01-25 01:00:05.587155	142.4	68.4	-79.2	0.0
2025-01-25 01:00:06.713005	143.6	68.1	-79.3	0.0
2025-01-25 01:00:07.835536	144.7	67.7	-79.2	0.0
2025-01-25 01:00:08.957890	145.8	67.4	-79.0	0.0
2025-01-25 01:00:10.081864	146.9	67.1	-78.7	0.0
2025-01-25 01:00:11.203084	147.9	66.7	-78.4	0.0
2025-01-25 01:00:12.325709	148.9	66.4	-79.2	0.0
2025-01-25 01:00:13.449258	149.9	66.0	-79.4	0.0
2025-01-25 01:00:14.571507	150.8	65.6	-79.3	0.0
2025-01-25 01:00:15.694769	151.7	65.3	-79.3	0.0
2025-01-25 01:00:16.818707	152.6	64.9	-79.3	0.0
2025-01-25 01:00:17.943504	153.4	64.5	-79.3	0.0
2025-01-25 01:00:19.066502	154.2	64.2	-79.4	0.0
2025-01-25 01:00:20.188015	155.0	63.8	-79.4	0.0
2025-01-25 01:00:21.310396	155.8	63.4	-79.1	0.0
2025-01-25 01:00:22.431471	156.5	63.0	-79.3	0.0
2025-01-25 01:00:23.553885	157.2	62.6	-78.8	0.0
2025-01-25 01:00:24.677822	157.9	62.3	-79.5	0.0
2025-01-25 01:00:25.800634	158.6	61.9	-79.4	0.0
2025-01-25 01:00:26.924116	159.3	61.5	-79.5	0.0
2025-01-25 01:00:28.047286	159.9	61.1	-79.5	0.0
2025-01-25 01:00:29.169575	160.5	60.7	-79.2	0.0
2025-01-25 01:00:30.293346	161.1	60.3	-78.8	0.0
2025-01-25 01:00:31.416372	161.7	59.9	-78.7	0.0
2025-01-25 01:00:32.539482	162.2	59.5	-79.5	0.0
2025-01-25 01:00:33.662583	162.8	59.2	-79.4	0.0
2025-01-25 01:00:34.786632	163.3	58.8	-79.5	0.0
2025-01-25 01:00:35.911280	163.8	58.4	-79.5	0.0
2025-01-25 01:00:37.031175	164.3	58.0	-79.2	0.0
2025-01-25 01:00:38.155310	164.8	57.6	-79.0	0.0
2025-01-25 01:00:39.276685	165.3	57.2	-79.4	0.0
2025-01-25 01:00:40.399947	165.7	56.8	-79.1	0.0
2025-01-25 01:00:41.523938	166.2	56.4	-79.3	0.0
2025-01-25 01:00:42.646428	166.6	56.1	-79.3	0.0
2025-01-25 01:00:43.767525	167.0	55.7	-79.5	0.0
2025-01-25 01:00:44.889519	167.4	55.3	-79.3	0.0
2025-01-25 01:00:46.014193	167.8	54.9	-79.1	0.0
2025-01-25 01:00:47.136110	168.2	54.5	-79.0	0.0
2025-01-25 01:00:48.259509	168.6	54.2	-79.1	0.0
2025-01-25 01:00:49.382502	169.0	53.8	-79.1	0.0
2025-01-25 01:00:50.501680	169.3	53.4	-79.3	0.0
2025-01-25 01:00:51.625685	169.7	53.0	-79.2	0.0
2025-01-25 01:00:52.747813	170.0	52.7	-79.1	0.0
2025-01-25 01:00:53.869786	170.4	52.3	-79.5	0.0
2025-01-25 01:00:54.994865	170.7	51.9	-79.3	0.0
2025-01-25 01:00:56.118095	171.0	51.6	-79.4	0.0
2025-01-25 01:00:57.240885	171.3	51.2	-79.6	0.0
2025-01-25 01:00:58.364672	171.6	50.8	-79.3	0.0
2025-01-25 01:00:59.489348	171.9	50.5	-79.3	0.0
2025-01-25 01:01:00.613182	172.2	50.1	-79.4	0.0
2025-01-25 01:01:01.735922	172.5	49.8	-79.1	0.0
2025-01-25 01:01:02.858009	172.8	49.4	-79.4	0.0
2025-01-25 01:01:03.979774	173.0	49.1	-79.2	0.0
2025-01-25 01:01:05.101496	173.3	48.7	-79.4	0.0
2025-01-25 01:01:06.227520	173.6	48.4	-79.6	0.0
2025-01-25 01:01:07.351109	173.8	48.0	-79.3	0.0
2025-01-25 01:01:08.474947	174.1	47.7	-79.3	0.0
2025-01-25 01:01:09.595727	174.3	47.3	-79.4	0.0
2025-01-25 01:01:10.718199	174.5	47.0	-79.6	0.0
2025-01-25 01:01:11.840283	174.8	46.7	-79.5	0.0
2025-01-25 01:01:12.963375	175.0	46.3	-79.8	0.0
2025-01-25 01:01:14.084964	175.2	46.0	-79.4	0.0
2025-01-25 01:01:15.208344	175.4	45.7	-79.2	0.0
2025-01-25 01:01:16.330950	175.7	45.4	-79.3	0.0
2025-01-25 01:01:17.454735	175.9	45.0	-78.8	0.0
2025-01-25 01:01:18.578606	176.1	44.7	-79.0	0.0
2025-01-25 01:01:19.699550	176.3	44.4	-79.1	0.0
2025-01-25 01:01:20.823148	176.5	44.1	-78.5	0.0
2025-01-25 01:01:21.945416	176.7	43.8	-79.2	0.0
2025-01-25 01:01:23.068720	176.9	43.4	-79.0	0.0
2025-01-25 01:01:24.190050	177.0	43.1	-79.3	0.0
2025-01-25 01:01:25.310100	177.2	42.8	-79.2	0.0
2025-01-25 01:01:26.433475	177.4	42.5	-79.3	0.0
2025-01-25 01:01:27.555238	177.6	42.2	-78.9	0.0
2025-01-25 01:01:28.677832	177.7	41.9	-79.3	0.0
2025-01-25 01:01:29.800395	177.9	41.6	-79.1	0.0
2025-01-25 01:01:30.924415	178.1	41.3	-79.2	0.0
2025-01-25 01:01:32.046826	178.2	41.0	-78.9	0.0
2025-01-25 01:01:33.168062	178.4	40.7	-78.7	0.0
2025-01-25 01:01:34.292185	178.6	40.4	-78.9	0.0
2025-01-25 01:01:35.416049	178.7	40.1	-78.7	0.0
2025-01-25 01:01:36.537375	178.9	39.9	-78.8	0.0
2025-01-25 01:01:37.660428	179.0	39.6	-78.7	0.0
2025-01-25 01:01:38.783202	179.2	39.3	-78.7	0.0
2025-01-25 01:01:39.905388	179.3	39.0	-79.0	0.0
2025-01-25 01:01:41.026527	179.5	38.7	-79.0	0.0
2025-01-25 01:01:42.148735	179.6	38.4	-79.1	0.0
2025-01-25 01:01:43.271522	179.7	38.2	-79.1	0.0
2025-01-25 01:01:44.394113	179.9	37.9	-79.0	0.0
2025-01-25 01:01:45.518631	180.0	37.6	-79.0	0.0
2025-01-25 01:01:46.640979	180.1	37.4	-79.1	0.0
2025-01-25 01:01:47.764109	180.3	37.1	-79.2	0.0
2025-01-25 01:01:48.886729	180.4	36.8	-79.2	0.0
2025-01-25 01:01:50.010040	180.5	36.6	-78.8	0.0
2025-01-25 01:01:51.133080	180.6	36.3	-79.0	0.0
2025-01-25 01:01:52.255026	180.8	36.0	-79.0	0.0
2025-01-25 01:01:53.380048	180.9	35.8	-78.8	0.0
2025-01-25 01:01:54.501590	181.0	35.5	-78.9	0.0
2025-01-25 01:01:55.623742	181.1	35.3	-79.0	0.0
2025-01-25 01:01:56.746793	181.2	35.0	-79.2	0.0
2025-01-25 01:01:57.868549	181.3	34.8	-79.0	0.0
2025-01-25 01:01:58.991266	181.5	34.5	-78.9	0.0
2025-01-25 01:02:00.113423	181.6	34.3	-79.0	0.0
2025-01-25 01:02:01.237297	181.7	34.0	-79.2	0.0
2025-01-25 01:02:02.359762	181.8	33.8	-79.2	0.0
2025-01-25 01:02:03.482091	181.9	33.6	-79.3	0.0
2025-01-25 01:02:04.603095	182.0	33.3	-79.2	0.0
2025-01-25 01:02:05.726776	182.1	33.1	-79.4	0.0
2025-01-25 01:02:06.849615	182.2	32.9	-79.1	0.0
2025-01-25 01:02:07.973836	182.3	32.6	-79.1	0.0
2025-01-25 01:02:09.098218	182.4	32.4	-79.2	0.0
2025-01-25 01:02:10.220937	182.5	32.2	-79.4	0.0
2025-01-25 01:02:11.343718	182.6	31.9	-79.3	0.0
2025-01-25 01:02:12.467011	182.7	31.7	-79.3	0.0
2025-01-25 01:02:13.590884	182.8	31.5	-79.2	0.0
2025-01-25 01:02:14.715131	182.9	31.3	-79.1	0.0
2025-01-25 01:02:15.839724	183.0	31.0	-78.9	0.0
2025-01-25 01:02:16.962627	183.0	30.8	-78.4	0.0
2025-01-25 01:02:18.084159	183.1	30.6	-78.9	0.0
2025-01-25 01:02:19.206693	183.2	30.4	-79.5	0.0
2025-01-25 01:02:20.328787	183.3	30.2	-79.3	0.0
2025-01-25 01:02:21.452897	183.4	30.0	-79.4	0.0
2025-01-25 01:02:22.575119	183.5	29.7	-79.3	0.0
2025-01-25 01:02:23.698679	183.6	29.5	-79.2	0.0
2025-01-25 01:02:24.821193	183.6	29.3	-79.1	0.0
2025-01-25 01:02:25.942708	183.7	29.1	-79.6	0.0
2025-01-25 01:02:27.065616	183.8	28.9	-79.5	0.0
2025-01-25 01:02:28.190010	183.9	28.7	-79.7	0.0
2025-01-25 01:02:29.314249	183.9	28.5	-79.0	0.0
2025-01-25 01:02:30.436299	184.0	28.3	-79.4	0.0
2025-01-25 01:02:31.559524	184.1	28.1	-79.5	0.0
2025-01-25 01:02:32.682156	184.2	27.9	-79.5	0.0
2025-01-25 01:02:33.804942	184.3	27.7	-79.6	0.0
2025-01-25 01:02:34.930143	184.3	27.5	-79.5	0.0
2025-01-25 01:02:36.051841	184.4	27.3	-79.5	0.0
2025-01-25 01:02:37.174791	184.5	27.1	-79.3	0.0
2025-01-25 01:02:38.298558	184.5	26.9	-79.2	0.0
2025-01-25 01:02:39.423118	184.6	26.7	-79.5	0.0
2025-01-25 01:02:40.548008	184.7	26.5	-79.3	0.0
2025-01-25 01:02:41.671032	184.7	26.4	-79.2	0.0
2025-01-25 01:02:42.792249	184.8	26.2	-79.3	0.0
2025-01-25 01:02:43.918485	184.9	26.0	-79.4	0.0
2025-01-25 01:02:45.040423	184.9	25.8	-79.4	0.0
2025-01-25 01:02:46.164732	185.0	25.6	-79.4	0.0
2025-01-25 01:02:47.286840	185.1	25.4	-79.1	0.0
2025-01-25 01:02:48.410589	185.1	25.3	-79.5	0.0
2025-01-25 01:02:49.532223	185.2	25.1	-79.3	0.0
2025-01-25 01:02:50.657269	185.3	24.9	-79.3	0.0
2025-01-25 01:02:51.781222	185.3	24.7	-79.1	0.0
2025-01-25 01:02:52.904362	185.4	24.5	-78.9	0.0
2025-01-25 01:02:54.029702	185.5	24.4	-79.1	0.0
2025-01-25 01:02:55.151806	185.5	24.2	-79.1	0.0
2025-01-25 01:02:56.275919	185.6	24.0	-78.9	0.0
2025-01-25 01:02:57.402311	185.6	23.8	-78.9	0.0
2025-01-25 01:02:58.525964	185.7	23.7	-79.0	0.0
2025-01-25 01:02:59.647561	185.7	23.5	-78.7	0.0
2025-01-25 01:03:00.770989	185.8	23.3	-79.0	0.0
2025-01-25 01:03:01.894971	185.9	23.2	-78.9	0.0
2025-01-25 01:03:03.016890	185.9	23.0	-78.9	0.0
2025-01-25 01:03:04.141865	186.0	22.8	-78.7	0.0
2025-01-25 01:03:05.265752	186.0	22.7	-79.0	0.0
2025-01-25 01:03:06.390280	186.1	22.5	-79.4	0.0
2025-01-25 01:03:07.513208	186.1	22.4	-79.2	0.0
2025-01-25 01:03:08.635252	186.2	22.2	-79.0	0.0
2025-01-25 01:03:09.758169	186.2	22.0	-79.2	0.0
2025-01-25 01:03:10.880952	186.3	21.9	-79.1	0.0
2025-01-25 01:03:12.003884	186.3	21.7	-79.1	0.0
2025-01-25 01:03:13.127262	186.4	21.6	-79.0	0.0
2025-01-25 01:03:14.249993	186.4	21.4	-79.1	0.0
2025-01-25 01:03:15.371932	186.5	21.2	-79.2	0.0
2025-01-25 01:03:16.496502	186.5	21.1	-78.9	0.0
2025-01-25 01:03:17.619429	186.6	20.9	-78.8	0.0
2025-01-25 01:03:18.741984	186.6	20.8	-79.2	0.0
2025-01-25 01:03:19.865658	186.7	20.6	-79.2	0.0
2025-01-25 01:03:20.989889	186.7	20.5	-79.1	0.0
2025-01-25 01:03:22.111958	186.8	20.3	-79.4	0.0
2025-01-25 01:03:23.232565	186.8	20.2	-79.2	0.0
2025-01-25 01:03:24.355409	186.9	20.0	-79.1	0.0
2025-01-25 01:03:25.479797	186.9	19.9	-79.1	0.0
2025-01-25 01:03:26.602493	187.0	19.7	-79.0	0.0
2025-01-25 01:03:27.723952	187.0	19.6	-79.1	0.0
2025-01-25 01:03:28.846982	187.1	19.5	-79.1	0.0
2025-01-25 01:03:29.969117	187.1	19.3	-79.3	0.0
2025-01-25 01:03:31.091715	187.2	19.2	-79.3	0.0
2025-01-25 01:03:32.214450	187.2	19.0	-79.2	0.0
2025-01-25 01:03:33.337802	187.2	18.9	-79.3	0.0
2025-01-25 01:03:34.462133	187.3	18.7	-79.3	0.0
2025-01-25 01:03:35.585580	187.3	18.6	-79.4	0.0
2025-01-25 01:03:36.708178	187.4	18.5	-79.4	0.0
2025-01-25 01:03:37.830410	187.4	18.3	-79.1	0.0
2025-01-25 01:03:38.953596	187.5	18.2	-78.8	0.0
2025-01-25 01:03:40.078114	187.5	18.1	-79.3	0.0
2025-01-25 01:03:41.201880	187.5	17.9	-78.9	0.0
2025-01-25 01:03:42.325052	187.6	17.8	-79.0	0.0
2025-01-25 01:03:43.449793	187.6	17.6	-79.1	0.0
2025-01-25 01:03:44.572358	187.7	17.5	-78.8	0.0
2025-01-25 01:03:45.694137	187.7	17.4	-78.7	0.0
2025-01-25 01:03:46.819477	187.7	17.2	-79.3	0.0
2025-01-25 01:03:47.944524	187.8	17.1	-79.0	0.0
2025-01-25 01:03:49.066460	187.8	17.0	-79.0	0.0
2025-01-25 01:03:50.190848	187.9	16.9	-78.8	0.0
2025-01-25 01:03:51.317180	187.9	16.7	-79.3	0.0
2025-01-25 01:03:52.438604	187.9	16.6	-79.2	0.0
2025-01-25 01:03:53.563848	188.0	16.5	-79.5	0.0
2025-01-25 01:03:54.686167	188.0	16.3	-79.4	0.0
2025-01-25 01:03:55.809282	188.0	16.2	-79.2	0.0
2025-01-25 01:03:56.932111	188.1	16.1	-79.1	0.0
2025-01-25 01:03:58.057616	188.1	16.0	-79.5	0.0
2025-01-25 01:03:59.177997	188.2	15.8	-79.1	0.0
2025-01-25 01:04:00.299857	188.2	15.7	-79.2	0.0
2025-01-25 01:04:01.422339	188.2	15.6	-79.2	0.0
2025-01-25 01:04:02.547345	188.3	15.5	-79.1	0.0
2025-01-25 01:04:03.670276	188.3	15.3	-79.0	0.0
2025-01-25 01:04:04.795566	188.3	15.2	-79.2	0.0
2025-01-25 01:04:05.916817	188.4	15.1	-79.4	0.0
2025-01-25 01:04:07.037084	188.4	15.0	-79.2	0.0
2025-01-25 01:04:08.160085	188.4	14.9	-79.2	0.0
2025-01-25 01:04:09.283642	188.5	14.7	-79.6	0.0
2025-01-25 01:04:10.406641	188.5	14.6	-79.5	0.0
2025-01-25 01:04:11.530847	188.5	14.5	-79.3	0.0
2025-01-25 01:04:12.655323	188.6	14.4	-79.2	0.0
2025-01-25 01:04:13.780039	188.6	14.3	-79.1	0.0
2025-01-25 01:04:14.903060	188.6	14.2	-79.4	0.0
2025-01-25 01:04:16.025489	188.7	14.0	-79.3	0.0
2025-01-25 01:04:17.147357	188.7	13.9	-79.1	0.0
2025-01-25 01:04:18.269268	188.7	13.8	-79.2	0.0
2025-01-25 01:04:19.394096	188.8	13.7	-79.3	0.0
2025-01-25 01:04:20.520353	188.8	13.6	-79.3	0.0
2025-01-25 01:04:21.643231	188.8	13.5	-79.4	0.0
2025-01-25 01:04:22.765991	188.9	13.4	-79.4	0.0
2025-01-25 01:04:23.888534	188.9	13.2	-79.3	0.0
2025-01-25 01:04:25.010137	188.9	13.1	-79.4	0.0
2025-01-25 01:04:26.134123	188.9	13.0	-79.5	0.0
2025-01-25 01:04:27.258334	189.0	12.9	-79.4	0.0
2025-01-25 01:04:28.380094	189.0	12.8	-79.5	0.0
2025-01-25 01:04:29.502880	189.0	12.7	-79.2	0.0
2025-01-25 01:04:30.626848	189.1	12.6	-79.1	0.0
2025-01-25 01:04:31.746552	189.1	12.5	-79.6	0.0
2025-01-25 01:04:32.868247	189.1	12.4	-79.0	0.0
2025-01-25 01:04:33.991591	189.2	12.3	-79.4	0.0
2025-01-25 01:04:35.114771	189.2	12.1	-79.3	0.0
2025-01-25 01:04:36.237967	189.2	12.0	-79.3	0.0
2025-01-25 01:04:37.362515	189.2	11.9	-78.7	0.0
2025-01-25 01:04:38.485896	189.3	11.8	-79.4	0.0
2025-01-25 01:04:39.607789	189.3	11.7	-79.4	0.0
2025-01-25 01:04:40.731012	189.3	11.6	-79.4	0.0
2025-01-25 01:04:41.854714	189.4	11.5	-79.5	0.0
2025-01-25 01:04:42.977674	189.4	11.4	-79.3	0.0
2025-01-25 01:04:44.100819	189.4	11.3	-79.3	0.0
2025-01-25 01:04:45.223747	189.4	11.2	-79.5	0.0
2025-01-25 01:04:46.346100	189.5	11.1	-79.5	0.0
2025-01-25 01:04:47.466375	189.5	11.0	-79.5	0.0
2025-01-25 01:04:48.588613	189.5	10.9	-79.4	0.0
2025-01-25 01:04:49.713032	189.5	10.8	-79.4	0.0
2025-01-25 01:04:50.834624	189.6	10.7	-79.3	0.0
2025-01-25 01:04:51.958623	189.6	10.6	-79.4	0.0
2025-01-25 01:04:53.082749	189.6	10.5	-79.3	0.0
2025-01-25 01:04:54.204014	189.6	10.4	-79.3	0.0
2025-01-25 01:04:55.326383	189.7	10.3	-79.1	0.0
2025-01-25 01:04:56.447404	189.7	10.2	-79.5	0.0
2025-01-25 01:04:57.570404	189.7	10.1	-79.4	0.0
2025-01-25 01:04:58.692454	189.8	10.0	-79.3	0.0
#Closed at: 2025-01-25 00:54:11.429781