passes_logs/2025/01/25/planumMaritime01/planumMaritime01__20250125_072350_METOP-C_rec.log

#Pass ID: 20250125_072350_METOP-C
#Satellite: METOP-C
#Configuration: METOP-C
#Start time: 2025-01-25 07:23:55.891748

#LorettStation: 1.0.0 05.05.2024
#Station: planumMaritime01
#Location: 37.49445 lon 55.92918 lat
#TLE: 1 43689U 18087A   25024.72465994  .00000378  00000+0  19278-3 0  9990
#TLE: 2 43689  98.6950  87.0713 0001843 146.4011 213.7283 14.21488564322598

#Time	Az	El	Level	SNR
2025-01-25 07:23:58.064019	21.1	10.2	-76.3	0.0
2025-01-25 07:23:59.186033	21.1	10.3	-76.2	0.0
2025-01-25 07:24:00.308048	21.2	10.4	-76.5	0.0
2025-01-25 07:24:01.431556	21.2	10.5	-76.6	0.0
2025-01-25 07:24:02.554877	21.3	10.6	-76.5	0.0
2025-01-25 07:24:03.679999	21.3	10.7	-76.1	0.0
2025-01-25 07:24:04.803395	21.3	10.8	-76.7	0.0
2025-01-25 07:24:05.927735	21.4	10.9	-76.5	0.0
2025-01-25 07:24:07.047905	21.4	11.0	-76.6	0.0
2025-01-25 07:24:08.169947	21.5	11.1	-77.0	0.0
2025-01-25 07:24:09.294540	21.5	11.2	-76.8	0.0
2025-01-25 07:24:10.417451	21.5	11.3	-76.3	0.0
2025-01-25 07:24:11.540457	21.6	11.4	-76.4	0.0
2025-01-25 07:24:12.663807	21.6	11.5	-76.6	0.0
2025-01-25 07:24:13.788684	21.7	11.6	-77.1	0.0
2025-01-25 07:24:14.911917	21.7	11.7	-77.1	0.0
2025-01-25 07:24:16.034255	21.8	11.8	-76.6	0.0
2025-01-25 07:24:17.157603	21.8	11.9	-77.1	0.0
2025-01-25 07:24:18.280588	21.8	12.0	-76.5	0.0
2025-01-25 07:24:19.404618	21.9	12.1	-76.9	0.0
2025-01-25 07:24:20.526616	21.9	12.2	-76.7	0.0
2025-01-25 07:24:21.649348	22.0	12.3	-75.4	0.0
2025-01-25 07:24:22.772750	22.0	12.4	-76.8	0.0
2025-01-25 07:24:23.897312	22.1	12.5	-77.1	0.0
2025-01-25 07:24:25.019816	22.1	12.6	-76.6	0.0
2025-01-25 07:24:26.142726	22.2	12.7	-76.8	0.0
2025-01-25 07:24:27.267840	22.2	12.8	-76.1	0.0
2025-01-25 07:24:28.392968	22.3	12.9	-76.9	0.0
2025-01-25 07:24:29.516227	22.3	13.0	-76.8	0.0
2025-01-25 07:24:30.637177	22.3	13.1	-76.7	0.0
2025-01-25 07:24:31.760766	22.4	13.3	-77.3	0.0
2025-01-25 07:24:32.883550	22.4	13.4	-77.2	0.0
2025-01-25 07:24:34.008027	22.5	13.5	-77.3	0.0
2025-01-25 07:24:35.130173	22.5	13.6	-77.2	0.0
2025-01-25 07:24:36.253327	22.6	13.7	-77.2	0.0
2025-01-25 07:24:37.375576	22.6	13.8	-77.0	0.0
2025-01-25 07:24:38.499196	22.7	13.9	-77.1	0.0
2025-01-25 07:24:39.622227	22.7	14.0	-77.1	0.0
2025-01-25 07:24:40.745948	22.8	14.1	-76.9	0.0
2025-01-25 07:24:41.868972	22.8	14.3	-77.2	0.0
2025-01-25 07:24:42.991739	22.9	14.4	-77.4	0.0
2025-01-25 07:24:44.116454	22.9	14.5	-77.4	0.0
2025-01-25 07:24:45.240609	23.0	14.6	-77.1	0.0
2025-01-25 07:24:46.363472	23.0	14.7	-76.7	0.0
2025-01-25 07:24:47.485952	23.1	14.8	-76.9	0.0
2025-01-25 07:24:48.608141	23.1	14.9	-77.4	0.0
2025-01-25 07:24:49.730497	23.2	15.1	-77.3	0.0
2025-01-25 07:24:50.854347	23.3	15.2	-77.3	0.0
2025-01-25 07:24:51.976013	23.3	15.3	-77.5	0.0
2025-01-25 07:24:53.100449	23.4	15.4	-77.5	0.0
2025-01-25 07:24:54.224070	23.4	15.5	-77.0	0.0
2025-01-25 07:24:55.347324	23.5	15.7	-77.2	0.0
2025-01-25 07:24:56.470056	23.5	15.8	-77.0	0.0
2025-01-25 07:24:57.593472	23.6	15.9	-77.4	0.0
2025-01-25 07:24:58.716428	23.6	16.0	-77.1	0.0
2025-01-25 07:24:59.839483	23.7	16.1	-77.2	0.0
2025-01-25 07:25:00.962912	23.7	16.3	-76.8	0.0
2025-01-25 07:25:02.086143	23.8	16.4	-77.3	0.0
2025-01-25 07:25:03.211643	23.9	16.5	-77.2	0.0
2025-01-25 07:25:04.333777	23.9	16.6	-77.1	0.0
2025-01-25 07:25:05.457967	24.0	16.8	-76.4	0.0
2025-01-25 07:25:06.579699	24.0	16.9	-76.3	0.0
2025-01-25 07:25:07.705256	24.1	17.0	-76.4	0.0
2025-01-25 07:25:08.829705	24.2	17.1	-76.3	0.0
2025-01-25 07:25:09.952372	24.2	17.3	-76.2	0.0
2025-01-25 07:25:11.074524	24.3	17.4	-76.4	0.0
2025-01-25 07:25:12.199588	24.3	17.5	-76.3	0.0
2025-01-25 07:25:13.322402	24.4	17.7	-76.4	0.0
2025-01-25 07:25:14.443630	24.5	17.8	-76.6	0.0
2025-01-25 07:25:15.566763	24.5	17.9	-76.3	0.0
2025-01-25 07:25:16.689285	24.6	18.0	-76.6	0.0
2025-01-25 07:25:17.811625	24.7	18.2	-77.1	0.0
2025-01-25 07:25:18.934887	24.7	18.3	-76.9	0.0
2025-01-25 07:25:20.056425	24.8	18.4	-77.1	0.0
2025-01-25 07:25:21.180585	24.8	18.6	-77.0	0.0
2025-01-25 07:25:22.305369	24.9	18.7	-76.9	0.0
2025-01-25 07:25:23.427113	25.0	18.9	-77.1	0.0
2025-01-25 07:25:24.548474	25.0	19.0	-76.6	0.0
2025-01-25 07:25:25.672751	25.1	19.1	-76.8	0.0
2025-01-25 07:25:26.796287	25.2	19.3	-76.7	0.0
2025-01-25 07:25:27.919097	25.3	19.4	-76.9	0.0
2025-01-25 07:25:29.041643	25.3	19.5	-76.9	0.0
2025-01-25 07:25:30.163567	25.4	19.7	-76.6	0.0
2025-01-25 07:25:31.287013	25.5	19.8	-77.0	0.0
2025-01-25 07:25:32.409308	25.5	20.0	-76.9	0.0
2025-01-25 07:25:33.533687	25.6	20.1	-76.7	0.0
2025-01-25 07:25:34.657888	25.7	20.2	-76.5	0.0
2025-01-25 07:25:35.783466	25.8	20.4	-76.9	0.0
2025-01-25 07:25:36.906400	25.8	20.5	-77.3	0.0
2025-01-25 07:25:38.029112	25.9	20.7	-76.5	0.0
2025-01-25 07:25:39.151593	26.0	20.8	-76.9	0.0
2025-01-25 07:25:40.274180	26.1	21.0	-76.9	0.0
2025-01-25 07:25:41.398667	26.1	21.1	-77.2	0.0
2025-01-25 07:25:42.520932	26.2	21.3	-76.4	0.0
2025-01-25 07:25:43.644341	26.3	21.4	-76.6	0.0
2025-01-25 07:25:44.765450	26.4	21.6	-77.2	0.0
2025-01-25 07:25:45.889507	26.4	21.7	-77.1	0.0
2025-01-25 07:25:47.015703	26.5	21.9	-77.2	0.0
2025-01-25 07:25:48.140662	26.6	22.0	-77.2	0.0
2025-01-25 07:25:49.263961	26.7	22.2	-77.2	0.0
2025-01-25 07:25:50.388761	26.8	22.3	-77.1	0.0
2025-01-25 07:25:51.512198	26.8	22.5	-77.2	0.0
2025-01-25 07:25:52.636446	26.9	22.7	-77.3	0.0
2025-01-25 07:25:53.760498	27.0	22.8	-76.9	0.0
2025-01-25 07:25:54.883785	27.1	23.0	-77.2	0.0
2025-01-25 07:25:56.006755	27.2	23.1	-77.1	0.0
2025-01-25 07:25:57.130290	27.3	23.3	-77.1	0.0
2025-01-25 07:25:58.253719	27.4	23.5	-77.0	0.0
2025-01-25 07:25:59.377423	27.5	23.6	-76.8	0.0
2025-01-25 07:26:00.503150	27.5	23.8	-77.5	0.0
2025-01-25 07:26:01.626439	27.6	23.9	-77.4	0.0
2025-01-25 07:26:02.749990	27.7	24.1	-76.9	0.0
2025-01-25 07:26:03.874771	27.8	24.3	-77.2	0.0
2025-01-25 07:26:04.999142	27.9	24.4	-77.1	0.0
2025-01-25 07:26:06.119688	28.0	24.6	-77.1	0.0
2025-01-25 07:26:07.243919	28.1	24.8	-77.1	0.0
2025-01-25 07:26:08.364857	28.2	25.0	-76.8	0.0
2025-01-25 07:26:09.487786	28.3	25.1	-77.0	0.0
2025-01-25 07:26:10.610217	28.4	25.3	-77.0	0.0
2025-01-25 07:26:11.734030	28.5	25.5	-76.6	0.0
2025-01-25 07:26:12.856925	28.6	25.6	-77.0	0.0
2025-01-25 07:26:13.980926	28.7	25.8	-76.8	0.0
2025-01-25 07:26:15.106171	28.8	26.0	-77.2	0.0
2025-01-25 07:26:16.228844	28.9	26.2	-77.5	0.0
2025-01-25 07:26:17.349918	29.0	26.4	-77.4	0.0
2025-01-25 07:26:18.472535	29.1	26.5	-77.0	0.0
2025-01-25 07:26:19.596996	29.2	26.7	-77.0	0.0
2025-01-25 07:26:20.716690	29.3	26.9	-77.0	0.0
2025-01-25 07:26:21.840422	29.4	27.1	-77.4	0.0
2025-01-25 07:26:22.962699	29.5	27.3	-77.3	0.0
2025-01-25 07:26:24.085620	29.7	27.5	-77.2	0.0
2025-01-25 07:26:25.208233	29.8	27.6	-77.1	0.0
2025-01-25 07:26:26.331996	29.9	27.8	-76.8	0.0
2025-01-25 07:26:27.455760	30.0	28.0	-77.0	0.0
2025-01-25 07:26:28.576914	30.1	28.2	-77.3	0.0
2025-01-25 07:26:29.700305	30.2	28.4	-77.1	0.0
2025-01-25 07:26:30.825533	30.4	28.6	-76.8	0.0
2025-01-25 07:26:31.948926	30.5	28.8	-77.2	0.0
2025-01-25 07:26:33.072004	30.6	29.0	-77.4	0.0
2025-01-25 07:26:34.194450	30.7	29.2	-77.2	0.0
2025-01-25 07:26:35.317687	30.9	29.4	-77.3	0.0
2025-01-25 07:26:36.442112	31.0	29.6	-77.0	0.0
2025-01-25 07:26:37.564900	31.1	29.8	-77.3	0.0
2025-01-25 07:26:38.684334	31.2	30.0	-77.0	0.0
2025-01-25 07:26:39.804859	31.4	30.2	-77.5	0.0
2025-01-25 07:26:40.928833	31.5	30.4	-77.6	0.0
2025-01-25 07:26:42.051828	31.6	30.6	-77.5	0.0
2025-01-25 07:26:43.175149	31.8	30.8	-77.2	0.0
2025-01-25 07:26:44.299744	31.9	31.0	-77.1	0.0
2025-01-25 07:26:45.423668	32.1	31.2	-77.4	0.0
2025-01-25 07:26:46.547636	32.2	31.4	-77.4	0.0
2025-01-25 07:26:47.670592	32.3	31.6	-77.2	0.0
2025-01-25 07:26:48.795154	32.5	31.9	-77.5	0.0
2025-01-25 07:26:49.919424	32.6	32.1	-77.5	0.0
2025-01-25 07:26:51.043399	32.8	32.3	-77.7	0.0
2025-01-25 07:26:52.166597	32.9	32.5	-77.5	0.0
2025-01-25 07:26:53.290075	33.1	32.7	-77.1	0.0
2025-01-25 07:26:54.413245	33.2	32.9	-77.3	0.0
2025-01-25 07:26:55.539817	33.4	33.2	-77.2	0.0
2025-01-25 07:26:56.665844	33.6	33.4	-77.0	0.0
2025-01-25 07:26:57.788410	33.7	33.6	-77.3	0.0
2025-01-25 07:26:58.912390	33.9	33.8	-76.9	0.0
2025-01-25 07:27:00.037098	34.1	34.1	-77.3	0.0
2025-01-25 07:27:01.160497	34.2	34.3	-77.1	0.0
2025-01-25 07:27:02.283039	34.4	34.5	-77.3	0.0
2025-01-25 07:27:03.406746	34.6	34.8	-77.3	0.0
2025-01-25 07:27:04.529199	34.7	35.0	-77.6	0.0
2025-01-25 07:27:05.651589	34.9	35.2	-77.7	0.0
2025-01-25 07:27:06.775260	35.1	35.5	-77.4	0.0
2025-01-25 07:27:07.898251	35.3	35.7	-77.5	0.0
2025-01-25 07:27:09.019771	35.5	35.9	-77.6	0.0
2025-01-25 07:27:10.141122	35.7	36.2	-77.2	0.0
2025-01-25 07:27:11.265257	35.8	36.4	-77.4	0.0
2025-01-25 07:27:12.386658	36.0	36.7	-77.4	0.0
2025-01-25 07:27:13.507424	36.2	36.9	-77.3	0.0
2025-01-25 07:27:14.630269	36.4	37.2	-77.0	0.0
2025-01-25 07:27:15.753341	36.6	37.4	-77.8	0.0
2025-01-25 07:27:16.874318	36.8	37.7	-77.3	0.0
2025-01-25 07:27:17.997120	37.1	37.9	-77.0	0.0
2025-01-25 07:27:19.119682	37.3	38.2	-77.3	0.0
2025-01-25 07:27:20.241893	37.5	38.4	-77.2	0.0
2025-01-25 07:27:21.364197	37.7	38.7	-77.2	0.0
2025-01-25 07:27:22.486991	37.9	38.9	-77.1	0.0
2025-01-25 07:27:23.611905	38.2	39.2	-77.3	0.0
2025-01-25 07:27:24.737702	38.4	39.5	-77.5	0.0
2025-01-25 07:27:25.859372	38.6	39.7	-77.4	0.0
2025-01-25 07:27:26.979955	38.8	40.0	-77.3	0.0
2025-01-25 07:27:28.103421	39.1	40.2	-77.5	0.0
2025-01-25 07:27:29.228225	39.3	40.5	-77.3	0.0
2025-01-25 07:27:30.350535	39.6	40.8	-77.2	0.0
2025-01-25 07:27:31.474318	39.8	41.1	-77.5	0.0
2025-01-25 07:27:32.598688	40.1	41.3	-77.3	0.0
2025-01-25 07:27:33.724000	40.4	41.6	-76.9	0.0
2025-01-25 07:27:34.845734	40.6	41.9	-77.1	0.0
2025-01-25 07:27:35.967918	40.9	42.1	-77.5	0.0
2025-01-25 07:27:37.091655	41.2	42.4	-77.4	0.0
2025-01-25 07:27:38.215333	41.4	42.7	-76.8	0.0
2025-01-25 07:27:39.339867	41.7	43.0	-77.6	0.0
2025-01-25 07:27:40.464737	42.0	43.3	-77.5	0.0
2025-01-25 07:27:41.585310	42.3	43.5	-77.2	0.0
2025-01-25 07:27:42.709107	42.6	43.8	-77.2	0.0
2025-01-25 07:27:43.833417	42.9	44.1	-77.3	0.0
2025-01-25 07:27:44.956427	43.2	44.4	-77.3	0.0
2025-01-25 07:27:46.079259	43.5	44.7	-77.5	0.0
2025-01-25 07:27:47.201822	43.9	45.0	-77.4	0.0
2025-01-25 07:27:48.326417	44.2	45.3	-77.2	0.0
2025-01-25 07:27:49.448802	44.5	45.5	-77.4	0.0
2025-01-25 07:27:50.572031	44.9	45.8	-77.2	0.0
2025-01-25 07:27:51.696645	45.2	46.1	-77.5	0.0
2025-01-25 07:27:52.819325	45.6	46.4	-77.3	0.0
2025-01-25 07:27:53.941407	45.9	46.7	-77.3	0.0
2025-01-25 07:27:55.063548	46.3	47.0	-77.7	0.0
2025-01-25 07:27:56.185839	46.7	47.3	-77.4	0.0
2025-01-25 07:27:57.309396	47.0	47.6	-77.8	0.0
2025-01-25 07:27:58.432873	47.4	47.9	-77.4	0.0
2025-01-25 07:27:59.558533	47.8	48.2	-77.7	0.0
2025-01-25 07:28:00.681506	48.2	48.5	-77.5	0.0
2025-01-25 07:28:01.806856	48.6	48.8	-77.6	0.0
2025-01-25 07:28:02.929236	49.0	49.1	-77.4	0.0
2025-01-25 07:28:04.052946	49.5	49.4	-77.1	0.0
2025-01-25 07:28:05.174039	49.9	49.7	-77.7	0.0
2025-01-25 07:28:06.296297	50.3	50.0	-77.5	0.0
2025-01-25 07:28:07.419110	50.8	50.3	-77.8	0.0
2025-01-25 07:28:08.540963	51.2	50.6	-77.6	0.0
2025-01-25 07:28:09.665359	51.7	50.9	-77.5	0.0
2025-01-25 07:28:10.787702	52.2	51.2	-77.5	0.0
2025-01-25 07:28:11.910446	52.7	51.5	-77.3	0.0
2025-01-25 07:28:13.033562	53.2	51.8	-77.6	0.0
2025-01-25 07:28:14.154688	53.7	52.1	-77.3	0.0
2025-01-25 07:28:15.278290	54.2	52.4	-77.6	0.0
2025-01-25 07:28:16.401935	54.7	52.7	-77.5	0.0
2025-01-25 07:28:17.524746	55.3	53.0	-77.6	0.0
2025-01-25 07:28:18.647886	55.8	53.3	-77.5	0.0
2025-01-25 07:28:19.770118	56.4	53.6	-77.6	0.0
2025-01-25 07:28:20.893151	57.0	53.9	-77.1	0.0
2025-01-25 07:28:22.015536	57.5	54.2	-77.2	0.0
2025-01-25 07:28:23.140113	58.1	54.5	-77.4	0.0
2025-01-25 07:28:24.263637	58.7	54.8	-77.2	0.0
2025-01-25 07:28:25.386002	59.4	55.1	-77.5	0.0
2025-01-25 07:28:26.509027	60.0	55.3	-77.1	0.0
2025-01-25 07:28:27.631442	60.6	55.6	-77.4	0.0
2025-01-25 07:28:28.752932	61.3	55.9	-77.6	0.0
2025-01-25 07:28:29.877285	62.0	56.2	-77.3	0.0
2025-01-25 07:28:30.999377	62.7	56.5	-77.2	0.0
2025-01-25 07:28:32.123620	63.4	56.8	-77.1	0.0
2025-01-25 07:28:33.246702	64.1	57.0	-77.6	0.0
2025-01-25 07:28:34.369608	64.8	57.3	-76.9	0.0
2025-01-25 07:28:35.491425	65.6	57.6	-77.9	0.0
2025-01-25 07:28:36.612962	66.3	57.8	-77.4	0.0
2025-01-25 07:28:37.736648	67.1	58.1	-77.3	0.0
2025-01-25 07:28:38.858779	67.9	58.4	-77.1	0.0
2025-01-25 07:28:39.980717	68.7	58.6	-77.1	0.0
2025-01-25 07:28:41.104358	69.5	58.9	-77.0	0.0
2025-01-25 07:28:42.226546	70.3	59.1	-77.3	0.0
2025-01-25 07:28:43.350604	71.2	59.3	-77.2	0.0
2025-01-25 07:28:44.475307	72.1	59.6	-77.5	0.0
2025-01-25 07:28:45.600710	72.9	59.8	-77.7	0.0
2025-01-25 07:28:46.721561	73.8	60.0	-77.5	0.0
2025-01-25 07:28:47.845476	74.8	60.3	-77.4	0.0
2025-01-25 07:28:48.967563	75.7	60.5	-77.1	0.0
2025-01-25 07:28:50.090518	76.6	60.7	-77.5	0.0
2025-01-25 07:28:51.211611	77.6	60.9	-77.6	0.0
2025-01-25 07:28:52.334779	78.6	61.1	-77.5	0.0
2025-01-25 07:28:53.459778	79.6	61.3	-77.5	0.0
2025-01-25 07:28:54.582243	80.6	61.4	-77.9	0.0
2025-01-25 07:28:55.706586	81.6	61.6	-77.6	0.0
2025-01-25 07:28:56.828970	82.6	61.8	-77.5	0.0
2025-01-25 07:28:57.949795	83.7	61.9	-77.5	0.0
2025-01-25 07:28:59.073165	84.7	62.1	-77.1	0.0
2025-01-25 07:29:00.196551	85.8	62.2	-77.6	0.0
2025-01-25 07:29:01.319299	86.9	62.4	-77.4	0.0
2025-01-25 07:29:02.439524	88.0	62.5	-76.9	0.0
2025-01-25 07:29:03.562535	89.1	62.6	-77.5	0.0
2025-01-25 07:29:04.689016	90.2	62.7	-77.6	0.0
2025-01-25 07:29:05.813765	91.3	62.8	-77.3	0.0
2025-01-25 07:29:06.938691	92.5	62.9	-77.2	0.0
2025-01-25 07:29:08.060540	93.6	63.0	-77.2	0.0
2025-01-25 07:29:09.181224	94.8	63.1	-77.4	0.0
2025-01-25 07:29:10.301991	95.9	63.1	-77.4	0.0
2025-01-25 07:29:11.426585	97.1	63.2	-77.2	0.0
2025-01-25 07:29:12.548597	98.3	63.2	-76.8	0.0
2025-01-25 07:29:13.671139	99.4	63.3	-77.3	0.0
2025-01-25 07:29:14.794870	100.6	63.3	-77.1	0.0
2025-01-25 07:29:15.918947	101.8	63.3	-77.1	0.0
2025-01-25 07:29:17.042015	103.0	63.3	-77.4	0.0
2025-01-25 07:29:18.167135	104.2	63.3	-77.6	0.0
2025-01-25 07:29:19.292529	105.3	63.3	-77.4	0.0
2025-01-25 07:29:20.413364	106.5	63.3	-77.6	0.0
2025-01-25 07:29:21.536223	107.7	63.2	-77.4	0.0
2025-01-25 07:29:22.657283	108.9	63.2	-77.7	0.0
2025-01-25 07:29:23.779174	110.0	63.1	-77.6	0.0
2025-01-25 07:29:24.900589	111.2	63.1	-77.2	0.0
2025-01-25 07:29:26.023179	112.3	63.0	-77.5	0.0
2025-01-25 07:29:27.145956	113.5	62.9	-77.5	0.0
2025-01-25 07:29:28.269628	114.6	62.8	-77.7	0.0
2025-01-25 07:29:29.392130	115.7	62.7	-76.9	0.0
2025-01-25 07:29:30.517639	116.9	62.6	-77.6	0.0
2025-01-25 07:29:31.639788	118.0	62.5	-77.7	0.0
2025-01-25 07:29:32.763997	119.1	62.3	-77.4	0.0
2025-01-25 07:29:33.886397	120.1	62.2	-77.6	0.0
2025-01-25 07:29:35.008374	121.2	62.1	-77.6	0.0
2025-01-25 07:29:36.130528	122.3	61.9	-77.2	0.0
2025-01-25 07:29:37.254320	123.3	61.7	-77.4	0.0
2025-01-25 07:29:38.376881	124.3	61.6	-77.4	0.0
2025-01-25 07:29:39.500387	125.4	61.4	-77.6	0.0
2025-01-25 07:29:40.622366	126.4	61.2	-77.5	0.0
2025-01-25 07:29:41.745037	127.4	61.0	-77.4	0.0
2025-01-25 07:29:42.866041	128.3	60.8	-77.4	0.0
2025-01-25 07:29:43.990914	129.3	60.6	-77.6	0.0
2025-01-25 07:29:45.115184	130.2	60.4	-77.4	0.0
2025-01-25 07:29:46.236918	131.2	60.2	-77.4	0.0
2025-01-25 07:29:47.359820	132.1	60.0	-77.7	0.0
2025-01-25 07:29:48.481167	133.0	59.7	-77.6	0.0
2025-01-25 07:29:49.604281	133.8	59.5	-77.6	0.0
2025-01-25 07:29:50.728911	134.7	59.3	-77.3	0.0
2025-01-25 07:29:51.850353	135.6	59.0	-77.7	0.0
2025-01-25 07:29:52.973739	136.4	58.8	-77.3	0.0
2025-01-25 07:29:54.098336	137.2	58.5	-77.3	0.0
2025-01-25 07:29:55.220262	138.0	58.3	-77.5	0.0
2025-01-25 07:29:56.342796	138.8	58.0	-77.6	0.0
2025-01-25 07:29:57.465797	139.6	57.8	-77.5	0.0
2025-01-25 07:29:58.589265	140.3	57.5	-77.5	0.0
2025-01-25 07:29:59.713169	141.1	57.2	-77.3	0.0
2025-01-25 07:30:00.836613	141.8	57.0	-77.7	0.0
2025-01-25 07:30:01.958971	142.5	56.7	-77.4	0.0
2025-01-25 07:30:03.081161	143.2	56.4	-77.6	0.0
2025-01-25 07:30:04.203788	143.9	56.1	-77.4	0.0
2025-01-25 07:30:05.328599	144.6	55.8	-77.4	0.0
2025-01-25 07:30:06.451490	145.2	55.5	-77.4	0.0
2025-01-25 07:30:07.574247	145.9	55.3	-77.4	0.0
2025-01-25 07:30:08.698120	146.5	55.0	-77.3	0.0
2025-01-25 07:30:09.822231	147.1	54.7	-77.4	0.0
2025-01-25 07:30:10.944430	147.7	54.4	-77.4	0.0
2025-01-25 07:30:12.068921	148.3	54.1	-77.5	0.0
2025-01-25 07:30:13.193336	148.9	53.8	-77.6	0.0
2025-01-25 07:30:14.313739	149.5	53.5	-77.1	0.0
2025-01-25 07:30:15.436243	150.0	53.2	-77.5	0.0
2025-01-25 07:30:16.559703	150.6	52.9	-77.7	0.0
2025-01-25 07:30:17.680411	151.1	52.6	-77.3	0.0
2025-01-25 07:30:18.805214	151.7	52.3	-77.4	0.0
2025-01-25 07:30:19.929893	152.2	52.0	-77.3	0.0
2025-01-25 07:30:21.052502	152.7	51.7	-77.1	0.0
2025-01-25 07:30:22.175688	153.2	51.4	-77.5	0.0
2025-01-25 07:30:23.300279	153.7	51.1	-77.5	0.0
2025-01-25 07:30:24.423574	154.1	50.8	-77.2	0.0
2025-01-25 07:30:25.545958	154.6	50.5	-77.3	0.0
2025-01-25 07:30:26.671690	155.1	50.2	-77.8	0.0
2025-01-25 07:30:27.792904	155.5	49.9	-77.4	0.0
2025-01-25 07:30:28.914402	155.9	49.6	-77.4	0.0
2025-01-25 07:30:30.037273	156.4	49.3	-77.5	0.0
2025-01-25 07:30:31.161837	156.8	49.0	-77.7	0.0
2025-01-25 07:30:32.287034	157.2	48.7	-77.4	0.0
2025-01-25 07:30:33.411149	157.6	48.4	-77.5	0.0
2025-01-25 07:30:34.535025	158.0	48.1	-76.8	0.0
2025-01-25 07:30:35.658697	158.4	47.8	-77.3	0.0
2025-01-25 07:30:36.781530	158.8	47.5	-77.4	0.0
2025-01-25 07:30:37.904859	159.2	47.2	-77.2	0.0
2025-01-25 07:30:39.027433	159.6	46.9	-77.4	0.0
2025-01-25 07:30:40.149434	159.9	46.6	-77.9	0.0
2025-01-25 07:30:41.272601	160.3	46.3	-77.0	0.0
2025-01-25 07:30:42.396701	160.6	46.0	-77.1	0.0
2025-01-25 07:30:43.519591	161.0	45.7	-77.3	0.0
2025-01-25 07:30:44.641684	161.3	45.4	-77.2	0.0
2025-01-25 07:30:45.761996	161.6	45.1	-77.0	0.0
2025-01-25 07:30:46.885254	162.0	44.8	-77.2	0.0
2025-01-25 07:30:48.009618	162.3	44.5	-76.9	0.0
2025-01-25 07:30:49.132624	162.6	44.3	-77.2	0.0
2025-01-25 07:30:50.254392	162.9	44.0	-76.9	0.0
2025-01-25 07:30:51.376859	163.2	43.7	-77.1	0.0
2025-01-25 07:30:52.500271	163.5	43.4	-77.2	0.0
2025-01-25 07:30:53.624909	163.8	43.1	-77.6	0.0
2025-01-25 07:30:54.748055	164.1	42.8	-77.2	0.0
2025-01-25 07:30:55.872414	164.4	42.6	-77.2	0.0
2025-01-25 07:30:56.997133	164.6	42.3	-77.2	0.0
2025-01-25 07:30:58.120292	164.9	42.0	-77.0	0.0
2025-01-25 07:30:59.245656	165.2	41.7	-76.9	0.0
2025-01-25 07:31:00.367584	165.5	41.4	-77.0	0.0
2025-01-25 07:31:01.492430	165.7	41.2	-76.6	0.0
2025-01-25 07:31:02.616951	166.0	40.9	-76.9	0.0
2025-01-25 07:31:03.740821	166.2	40.6	-76.7	0.0
2025-01-25 07:31:04.861596	166.5	40.4	-76.2	0.0
2025-01-25 07:31:05.984897	166.7	40.1	-76.5	0.0
2025-01-25 07:31:07.108670	167.0	39.8	-76.6	0.0
2025-01-25 07:31:08.231668	167.2	39.6	-76.6	0.0
2025-01-25 07:31:09.355009	167.4	39.3	-76.8	0.0
2025-01-25 07:31:10.481516	167.7	39.0	-76.7	0.0
2025-01-25 07:31:11.603588	167.9	38.8	-76.8	0.0
2025-01-25 07:31:12.726999	168.1	38.5	-76.9	0.0
2025-01-25 07:31:13.847538	168.3	38.3	-76.6	0.0
2025-01-25 07:31:14.972458	168.5	38.0	-76.8	0.0
2025-01-25 07:31:16.095794	168.7	37.8	-76.9	0.0
2025-01-25 07:31:17.217090	169.0	37.5	-77.3	0.0
2025-01-25 07:31:18.339005	169.2	37.3	-76.9	0.0
2025-01-25 07:31:19.461911	169.4	37.0	-76.5	0.0
2025-01-25 07:31:20.585393	169.6	36.8	-76.7	0.0
2025-01-25 07:31:21.707614	169.8	36.5	-76.9	0.0
2025-01-25 07:31:22.832521	169.9	36.3	-77.0	0.0
2025-01-25 07:31:23.954920	170.1	36.0	-77.1	0.0
2025-01-25 07:31:25.074676	170.3	35.8	-76.4	0.0
2025-01-25 07:31:26.198532	170.5	35.5	-76.1	0.0
2025-01-25 07:31:27.323020	170.7	35.3	-76.9	0.0
2025-01-25 07:31:28.445429	170.9	35.1	-76.5	0.0
2025-01-25 07:31:29.569025	171.0	34.8	-76.5	0.0
2025-01-25 07:31:30.692183	171.2	34.6	-77.0	0.0
2025-01-25 07:31:31.817224	171.4	34.4	-77.0	0.0
2025-01-25 07:31:32.939585	171.6	34.1	-77.1	0.0
2025-01-25 07:31:34.063082	171.7	33.9	-76.9	0.0
2025-01-25 07:31:35.186092	171.9	33.7	-76.7	0.0
2025-01-25 07:31:36.309960	172.1	33.4	-77.0	0.0
2025-01-25 07:31:37.432801	172.2	33.2	-77.0	0.0
2025-01-25 07:31:38.553013	172.4	33.0	-77.4	0.0
2025-01-25 07:31:39.674961	172.5	32.8	-76.8	0.0
2025-01-25 07:31:40.798070	172.7	32.5	-76.9	0.0
2025-01-25 07:31:41.921342	172.8	32.3	-77.3	0.0
2025-01-25 07:31:43.041140	173.0	32.1	-77.0	0.0
2025-01-25 07:31:44.162944	173.1	31.9	-76.9	0.0
2025-01-25 07:31:45.288258	173.3	31.7	-76.5	0.0
2025-01-25 07:31:46.409954	173.4	31.5	-77.1	0.0
2025-01-25 07:31:47.534069	173.6	31.2	-77.1	0.0
2025-01-25 07:31:48.656823	173.7	31.0	-77.4	0.0
2025-01-25 07:31:49.780052	173.9	30.8	-77.7	0.0
2025-01-25 07:31:50.903427	174.0	30.6	-77.5	0.0
2025-01-25 07:31:52.027824	174.1	30.4	-77.1	0.0
2025-01-25 07:31:53.148967	174.3	30.2	-77.4	0.0
2025-01-25 07:31:54.272277	174.4	30.0	-77.5	0.0
2025-01-25 07:31:55.395360	174.5	29.8	-77.6	0.0
2025-01-25 07:31:56.518780	174.7	29.6	-77.3	0.0
2025-01-25 07:31:57.642600	174.8	29.4	-77.5	0.0
2025-01-25 07:31:58.766162	174.9	29.2	-77.3	0.0
2025-01-25 07:31:59.887398	175.0	29.0	-77.4	0.0
2025-01-25 07:32:01.008959	175.2	28.8	-77.6	0.0
2025-01-25 07:32:02.132208	175.3	28.6	-77.7	0.0
2025-01-25 07:32:03.253542	175.4	28.4	-77.3	0.0
2025-01-25 07:32:04.375540	175.5	28.2	-77.7	0.0
2025-01-25 07:32:05.498794	175.6	28.0	-77.7	0.0
2025-01-25 07:32:06.621024	175.8	27.8	-77.6	0.0
2025-01-25 07:32:07.744360	175.9	27.6	-77.8	0.0
2025-01-25 07:32:08.867673	176.0	27.4	-77.7	0.0
2025-01-25 07:32:09.992392	176.1	27.3	-77.4	0.0
2025-01-25 07:32:11.114963	176.2	27.1	-77.5	0.0
2025-01-25 07:32:12.237326	176.3	26.9	-77.3	0.0
2025-01-25 07:32:13.360569	176.4	26.7	-77.5	0.0
2025-01-25 07:32:14.482235	176.5	26.5	-77.6	0.0
2025-01-25 07:32:15.606775	176.6	26.3	-77.7	0.0
2025-01-25 07:32:16.728798	176.7	26.2	-77.3	0.0
2025-01-25 07:32:17.848667	176.9	26.0	-76.8	0.0
2025-01-25 07:32:18.970758	177.0	25.8	-77.5	0.0
2025-01-25 07:32:20.096643	177.1	25.6	-77.6	0.0
2025-01-25 07:32:21.218409	177.2	25.4	-77.6	0.0
2025-01-25 07:32:22.341863	177.3	25.3	-76.9	0.0
2025-01-25 07:32:23.465007	177.4	25.1	-77.4	0.0
2025-01-25 07:32:24.588126	177.5	24.9	-77.7	0.0
2025-01-25 07:32:25.712237	177.6	24.7	-77.8	0.0
2025-01-25 07:32:26.837105	177.6	24.6	-77.7	0.0
2025-01-25 07:32:27.961312	177.7	24.4	-76.5	0.0
2025-01-25 07:32:29.086537	177.8	24.2	-77.4	0.0
2025-01-25 07:32:30.211105	177.9	24.1	-77.5	0.0
2025-01-25 07:32:31.334362	178.0	23.9	-77.5	0.0
2025-01-25 07:32:32.456340	178.1	23.7	-77.4	0.0
2025-01-25 07:32:33.579089	178.2	23.6	-77.4	0.0
2025-01-25 07:32:34.702341	178.3	23.4	-77.3	0.0
2025-01-25 07:32:35.825294	178.4	23.2	-77.2	0.0
2025-01-25 07:32:36.945848	178.5	23.1	-77.7	0.0
2025-01-25 07:32:38.067792	178.5	22.9	-76.8	0.0
2025-01-25 07:32:39.189927	178.6	22.8	-77.5	0.0
2025-01-25 07:32:40.313797	178.7	22.6	-77.1	0.0
2025-01-25 07:32:41.438949	178.8	22.4	-77.3	0.0
2025-01-25 07:32:42.561460	178.9	22.3	-77.3	0.0
2025-01-25 07:32:43.683293	179.0	22.1	-76.7	0.0
2025-01-25 07:32:44.807625	179.1	22.0	-77.4	0.0
2025-01-25 07:32:45.931263	179.1	21.8	-77.0	0.0
2025-01-25 07:32:47.056550	179.2	21.7	-77.0	0.0
2025-01-25 07:32:48.180928	179.3	21.5	-76.9	0.0
2025-01-25 07:32:49.304466	179.4	21.4	-77.3	0.0
2025-01-25 07:32:50.427416	179.4	21.2	-77.1	0.0
2025-01-25 07:32:51.549548	179.5	21.1	-77.5	0.0
2025-01-25 07:32:52.672005	179.6	20.9	-77.3	0.0
2025-01-25 07:32:53.798483	179.7	20.8	-77.1	0.0
2025-01-25 07:32:54.922309	179.8	20.6	-77.7	0.0
2025-01-25 07:32:56.044790	179.8	20.5	-76.9	0.0
2025-01-25 07:32:57.169269	179.9	20.3	-77.6	0.0
2025-01-25 07:32:58.291377	180.0	20.2	-77.2	0.0
2025-01-25 07:32:59.414027	180.0	20.0	-77.4	0.0
2025-01-25 07:33:00.538172	180.1	19.9	-77.4	0.0
2025-01-25 07:33:01.660171	180.2	19.7	-77.4	0.0
2025-01-25 07:33:02.781654	180.3	19.6	-77.1	0.0
2025-01-25 07:33:03.906886	180.3	19.5	-77.3	0.0
2025-01-25 07:33:05.030459	180.4	19.3	-77.2	0.0
2025-01-25 07:33:06.154411	180.5	19.2	-77.3	0.0
2025-01-25 07:33:07.277961	180.5	19.0	-77.6	0.0
2025-01-25 07:33:08.402173	180.6	18.9	-77.4	0.0
2025-01-25 07:33:09.525571	180.7	18.8	-77.5	0.0
2025-01-25 07:33:10.647743	180.7	18.6	-77.4	0.0
2025-01-25 07:33:11.772790	180.8	18.5	-77.3	0.0
2025-01-25 07:33:12.896155	180.9	18.4	-77.5	0.0
2025-01-25 07:33:14.018173	180.9	18.2	-77.2	0.0
2025-01-25 07:33:15.141468	181.0	18.1	-77.7	0.0
2025-01-25 07:33:16.264067	181.1	18.0	-77.2	0.0
2025-01-25 07:33:17.387778	181.1	17.8	-77.5	0.0
2025-01-25 07:33:18.510582	181.2	17.7	-77.1	0.0
2025-01-25 07:33:19.633022	181.2	17.6	-77.4	0.0
2025-01-25 07:33:20.756874	181.3	17.4	-77.5	0.0
2025-01-25 07:33:21.881260	181.4	17.3	-77.3	0.0
2025-01-25 07:33:23.005009	181.4	17.2	-76.8	0.0
2025-01-25 07:33:24.127232	181.5	17.0	-77.1	0.0
2025-01-25 07:33:25.247858	181.5	16.9	-76.5	0.0
2025-01-25 07:33:26.372022	181.6	16.8	-77.0	0.0
2025-01-25 07:33:27.497261	181.7	16.7	-77.0	0.0
2025-01-25 07:33:28.621320	181.7	16.5	-76.3	0.0
2025-01-25 07:33:29.742863	181.8	16.4	-76.3	0.0
2025-01-25 07:33:30.867520	181.8	16.3	-77.7	0.0
2025-01-25 07:33:31.989824	181.9	16.2	-77.3	0.0
2025-01-25 07:33:33.112765	181.9	16.0	-77.6	0.0
2025-01-25 07:33:34.235469	182.0	15.9	-77.4	0.0
2025-01-25 07:33:35.357559	182.1	15.8	-77.2	0.0
2025-01-25 07:33:36.479955	182.1	15.7	-77.2	0.0
2025-01-25 07:33:37.601892	182.2	15.5	-76.7	0.0
2025-01-25 07:33:38.724826	182.2	15.4	-77.2	0.0
2025-01-25 07:33:39.849190	182.3	15.3	-77.3	0.0
2025-01-25 07:33:40.970839	182.3	15.2	-76.3	0.0
2025-01-25 07:33:42.094097	182.4	15.1	-76.2	0.0
2025-01-25 07:33:43.215747	182.4	15.0	-76.9	0.0
2025-01-25 07:33:44.338669	182.5	14.8	-76.6	0.0
2025-01-25 07:33:45.462525	182.5	14.7	-77.2	0.0
2025-01-25 07:33:46.584090	182.6	14.6	-76.4	0.0
2025-01-25 07:33:47.708108	182.6	14.5	-77.2	0.0
2025-01-25 07:33:48.832107	182.7	14.4	-77.7	0.0
2025-01-25 07:33:49.954709	182.7	14.3	-77.5	0.0
2025-01-25 07:33:51.078218	182.8	14.1	-77.5	0.0
2025-01-25 07:33:52.202467	182.8	14.0	-77.7	0.0
2025-01-25 07:33:53.325609	182.9	13.9	-77.7	0.0
2025-01-25 07:33:54.447346	182.9	13.8	-77.4	0.0
2025-01-25 07:33:55.569854	183.0	13.7	-77.7	0.0
2025-01-25 07:33:56.693736	183.0	13.6	-77.6	0.0
2025-01-25 07:33:57.817743	183.1	13.5	-77.2	0.0
2025-01-25 07:33:58.941234	183.1	13.4	-77.0	0.0
2025-01-25 07:34:00.063546	183.2	13.2	-77.3	0.0
2025-01-25 07:34:01.186053	183.2	13.1	-77.5	0.0
2025-01-25 07:34:02.308686	183.3	13.0	-77.3	0.0
2025-01-25 07:34:03.433968	183.3	12.9	-76.9	0.0
2025-01-25 07:34:04.557389	183.4	12.8	-77.2	0.0
2025-01-25 07:34:05.679949	183.4	12.7	-77.2	0.0
2025-01-25 07:34:06.802604	183.5	12.6	-77.1	0.0
2025-01-25 07:34:07.925984	183.5	12.5	-77.1	0.0
2025-01-25 07:34:09.046912	183.5	12.4	-77.4	0.0
2025-01-25 07:34:10.169469	183.6	12.3	-77.3	0.0
2025-01-25 07:34:11.294282	183.6	12.2	-77.7	0.0
2025-01-25 07:34:12.418913	183.7	12.1	-77.1	0.0
2025-01-25 07:34:13.540096	183.7	12.0	-77.1	0.0
2025-01-25 07:34:14.661305	183.8	11.8	-76.9	0.0
2025-01-25 07:34:15.786767	183.8	11.7	-76.4	0.0
2025-01-25 07:34:16.909894	183.8	11.6	-77.4	0.0
2025-01-25 07:34:18.033291	183.9	11.5	-77.1	0.0
2025-01-25 07:34:19.158145	183.9	11.4	-77.3	0.0
2025-01-25 07:34:20.280388	184.0	11.3	-76.4	0.0
2025-01-25 07:34:21.403776	184.0	11.2	-77.3	0.0
2025-01-25 07:34:22.528346	184.1	11.1	-77.1	0.0
2025-01-25 07:34:23.649602	184.1	11.0	-77.4	0.0
2025-01-25 07:34:24.773624	184.1	10.9	-77.2	0.0
2025-01-25 07:34:25.898615	184.2	10.8	-77.4	0.0
2025-01-25 07:34:27.023776	184.2	10.7	-77.5	0.0
2025-01-25 07:34:28.146188	184.3	10.6	-76.8	0.0
2025-01-25 07:34:29.269580	184.3	10.5	-77.2	0.0
2025-01-25 07:34:30.393041	184.3	10.4	-76.7	0.0
2025-01-25 07:34:31.517791	184.4	10.3	-76.7	0.0
2025-01-25 07:34:32.639447	184.4	10.2	-76.9	0.0
2025-01-25 07:34:33.761511	184.5	10.1	-77.7	0.0
2025-01-25 07:34:34.884632	184.5	10.0	-77.0	0.0
#Closed at: 2025-01-25 07:23:50.896134