passes_logs/2025/01/25/planumMaritime01/planumMaritime01__20250125_185507_NOAA_18_rec.log

#Pass ID: 20250125_185507_NOAA 18
#Satellite: NOAA 18
#Configuration: NOAA 18
#Start time: 2025-01-25 18:55:12.200712

#LorettStation: 1.0.0 05.05.2024
#Station: planumMaritime01
#Location: 37.49445 lon 55.92918 lat
#TLE: 1 28654U 05018A   25024.71894748  .00000533  00000+0  30607-3 0  9999
#TLE: 2 28654  98.8552 105.6762 0014784 152.2729 207.9234 14.13496616 14556

#Time	Az	El	Level	SNR
2025-01-25 18:55:14.357244	148.1	10.2	-75.6	3.9
2025-01-25 18:55:15.480878	148.1	10.3	-75.4	3.2
2025-01-25 18:55:16.602252	148.0	10.4	-75.3	3.6
2025-01-25 18:55:17.725718	148.0	10.5	-75.6	2.4
2025-01-25 18:55:18.850122	148.0	10.6	-75.7	3.0
2025-01-25 18:55:19.973329	148.0	10.7	-75.8	3.0
2025-01-25 18:55:21.098511	147.9	10.8	-75.5	3.5
2025-01-25 18:55:22.222021	147.9	10.9	-75.5	2.6
2025-01-25 18:55:23.343698	147.9	11.0	-75.3	2.2
2025-01-25 18:55:24.468242	147.8	11.1	-75.3	3.8
2025-01-25 18:55:25.591138	147.8	11.2	-75.1	3.0
2025-01-25 18:55:26.717260	147.8	11.3	-75.1	3.9
2025-01-25 18:55:27.840349	147.8	11.4	-75.7	4.2
2025-01-25 18:55:28.965812	147.7	11.5	-76.2	3.7
2025-01-25 18:55:30.091418	147.7	11.6	-75.5	2.6
2025-01-25 18:55:31.214998	147.7	11.7	-75.5	3.3
2025-01-25 18:55:32.338256	147.6	11.8	-75.7	3.4
2025-01-25 18:55:33.460082	147.6	11.9	-75.7	2.7
2025-01-25 18:55:34.584951	147.6	12.0	-75.7	2.9
2025-01-25 18:55:35.708196	147.5	12.1	-75.7	4.2
2025-01-25 18:55:36.831713	147.5	12.2	-76.2	2.7
2025-01-25 18:55:37.955343	147.5	12.3	-75.6	3.6
2025-01-25 18:55:39.076828	147.5	12.4	-75.6	3.0
2025-01-25 18:55:40.200433	147.4	12.5	-75.9	3.3
2025-01-25 18:55:41.322849	147.4	12.6	-75.5	4.2
2025-01-25 18:55:42.445123	147.4	12.7	-75.8	3.1
2025-01-25 18:55:43.567851	147.3	12.8	-75.9	2.9
2025-01-25 18:55:44.691409	147.3	12.9	-75.6	3.2
2025-01-25 18:55:45.813222	147.3	13.0	-75.9	2.7
2025-01-25 18:55:46.936873	147.2	13.2	-76.1	3.3
2025-01-25 18:55:48.059109	147.2	13.3	-76.1	4.7
2025-01-25 18:55:49.181501	147.2	13.4	-76.2	3.5
2025-01-25 18:55:50.303265	147.1	13.5	-75.7	3.2
2025-01-25 18:55:51.425951	147.1	13.6	-75.9	3.6
2025-01-25 18:55:52.550098	147.1	13.7	-75.8	3.0
2025-01-25 18:55:53.670401	147.0	13.8	-75.8	2.6
2025-01-25 18:55:54.792883	147.0	13.9	-76.0	2.2
2025-01-25 18:55:55.917580	146.9	14.0	-75.9	3.7
2025-01-25 18:55:57.041958	146.9	14.2	-75.9	2.7
2025-01-25 18:55:58.166430	146.9	14.3	-75.8	3.3
2025-01-25 18:55:59.292048	146.8	14.4	-75.9	1.8
2025-01-25 18:56:00.415605	146.8	14.5	-75.5	2.8
2025-01-25 18:56:01.534809	146.8	14.6	-76.1	3.4
2025-01-25 18:56:02.658030	146.7	14.7	-75.9	2.5
2025-01-25 18:56:03.782600	146.7	14.8	-76.0	3.7
2025-01-25 18:56:04.906806	146.6	15.0	-75.6	3.8
2025-01-25 18:56:06.031174	146.6	15.1	-76.0	1.9
2025-01-25 18:56:07.153632	146.6	15.2	-75.8	3.8
2025-01-25 18:56:08.276711	146.5	15.3	-75.9	2.4
2025-01-25 18:56:09.397861	146.5	15.4	-76.0	3.0
2025-01-25 18:56:10.522059	146.5	15.5	-75.8	3.8
2025-01-25 18:56:11.644038	146.4	15.7	-75.6	2.8
2025-01-25 18:56:12.766715	146.4	15.8	-76.0	2.9
2025-01-25 18:56:13.888105	146.3	15.9	-76.3	2.2
2025-01-25 18:56:15.012400	146.3	16.0	-76.0	2.2
2025-01-25 18:56:16.135403	146.2	16.2	-76.1	1.9
2025-01-25 18:56:17.258677	146.2	16.3	-75.3	2.1
2025-01-25 18:56:18.383464	146.2	16.4	-76.2	1.4
2025-01-25 18:56:19.506405	146.1	16.5	-76.4	1.7
2025-01-25 18:56:20.629981	146.1	16.6	-76.1	2.6
2025-01-25 18:56:21.754132	146.0	16.8	-76.3	2.5
2025-01-25 18:56:22.877433	146.0	16.9	-76.1	2.5
2025-01-25 18:56:24.000959	145.9	17.0	-76.2	0.9
2025-01-25 18:56:25.124298	145.9	17.1	-76.4	1.2
2025-01-25 18:56:26.247758	145.9	17.3	-76.3	1.4
2025-01-25 18:56:27.369958	145.8	17.4	-76.5	1.2
2025-01-25 18:56:28.492252	145.8	17.5	-76.5	1.4
2025-01-25 18:56:29.614617	145.7	17.7	-76.5	0.3
2025-01-25 18:56:30.736949	145.7	17.8	-76.1	0.0
2025-01-25 18:56:31.859570	145.6	17.9	-76.8	0.3
2025-01-25 18:56:32.981834	145.6	18.1	-76.6	0.6
2025-01-25 18:56:34.106770	145.5	18.2	-76.8	1.1
2025-01-25 18:56:35.230012	145.5	18.3	-76.7	1.9
2025-01-25 18:56:36.352089	145.4	18.5	-76.8	0.0
2025-01-25 18:56:37.474117	145.4	18.6	-76.2	0.0
2025-01-25 18:56:38.595418	145.3	18.7	-76.4	0.5
2025-01-25 18:56:39.717577	145.3	18.9	-76.6	0.2
2025-01-25 18:56:40.839931	145.2	19.0	-76.6	0.0
2025-01-25 18:56:41.962756	145.2	19.1	-76.8	0.0
2025-01-25 18:56:43.088158	145.1	19.3	-76.9	0.0
2025-01-25 18:56:44.211460	145.1	19.4	-77.1	0.0
2025-01-25 18:56:45.334003	145.0	19.5	-77.0	0.0
2025-01-25 18:56:46.456172	145.0	19.7	-76.8	0.0
2025-01-25 18:56:47.579497	144.9	19.8	-77.2	0.0
2025-01-25 18:56:48.704446	144.9	20.0	-76.9	0.0
2025-01-25 18:56:49.826094	144.8	20.1	-76.5	0.0
2025-01-25 18:56:50.948128	144.8	20.3	-76.7	0.0
2025-01-25 18:56:52.072876	144.7	20.4	-76.4	0.0
2025-01-25 18:56:53.195867	144.6	20.5	-77.0	0.0
2025-01-25 18:56:54.317115	144.6	20.7	-76.6	0.0
2025-01-25 18:56:55.440518	144.5	20.8	-76.9	0.0
2025-01-25 18:56:56.563733	144.5	21.0	-77.0	0.0
2025-01-25 18:56:57.686994	144.4	21.1	-76.7	0.0
2025-01-25 18:56:58.809392	144.4	21.3	-76.6	0.0
2025-01-25 18:56:59.931964	144.3	21.4	-76.3	0.0
2025-01-25 18:57:01.054839	144.2	21.6	-76.7	0.0
2025-01-25 18:57:02.178273	144.2	21.7	-77.2	0.0
2025-01-25 18:57:03.299745	144.1	21.9	-76.7	0.0
2025-01-25 18:57:04.421832	144.0	22.0	-76.8	0.0
2025-01-25 18:57:05.546312	144.0	22.2	-76.4	0.0
2025-01-25 18:57:06.671082	143.9	22.3	-76.6	0.0
2025-01-25 18:57:07.794870	143.9	22.5	-76.7	0.0
2025-01-25 18:57:08.917619	143.8	22.7	-77.0	0.0
2025-01-25 18:57:10.039981	143.7	22.8	-77.0	0.0
2025-01-25 18:57:11.163160	143.7	23.0	-77.4	0.0
2025-01-25 18:57:12.285502	143.6	23.1	-77.3	0.0
2025-01-25 18:57:13.410666	143.5	23.3	-76.9	0.0
2025-01-25 18:57:14.532561	143.5	23.4	-76.9	0.0
2025-01-25 18:57:15.655181	143.4	23.6	-77.5	0.0
2025-01-25 18:57:16.779236	143.3	23.8	-77.3	0.0
2025-01-25 18:57:17.902105	143.2	23.9	-77.2	0.0
2025-01-25 18:57:19.024867	143.2	24.1	-77.0	0.0
2025-01-25 18:57:20.146668	143.1	24.3	-77.4	0.0
2025-01-25 18:57:21.266576	143.0	24.4	-77.8	0.0
2025-01-25 18:57:22.390391	143.0	24.6	-77.6	0.0
2025-01-25 18:57:23.512832	142.9	24.8	-77.7	0.0
2025-01-25 18:57:24.635613	142.8	24.9	-77.5	0.0
2025-01-25 18:57:25.759508	142.7	25.1	-77.4	0.0
2025-01-25 18:57:26.883484	142.7	25.3	-77.2	0.0
2025-01-25 18:57:28.006608	142.6	25.5	-77.5	0.0
2025-01-25 18:57:29.129301	142.5	25.6	-77.7	0.0
2025-01-25 18:57:30.251631	142.4	25.8	-77.1	0.0
2025-01-25 18:57:31.376164	142.3	26.0	-76.9	0.0
2025-01-25 18:57:32.498680	142.3	26.2	-77.4	0.0
2025-01-25 18:57:33.621529	142.2	26.3	-77.5	0.0
2025-01-25 18:57:34.743589	142.1	26.5	-77.8	0.0
2025-01-25 18:57:35.865843	142.0	26.7	-77.6	0.0
2025-01-25 18:57:36.988989	141.9	26.9	-76.9	0.0
2025-01-25 18:57:38.111738	141.8	27.1	-77.7	0.0
2025-01-25 18:57:39.234877	141.7	27.2	-77.3	0.0
2025-01-25 18:57:40.358089	141.7	27.4	-77.4	0.0
2025-01-25 18:57:41.481887	141.6	27.6	-76.8	0.0
2025-01-25 18:57:42.605113	141.5	27.8	-76.9	0.0
2025-01-25 18:57:43.727724	141.4	28.0	-76.9	0.0
2025-01-25 18:57:44.850425	141.3	28.2	-77.3	0.0
2025-01-25 18:57:45.973839	141.2	28.4	-77.2	0.0
2025-01-25 18:57:47.097866	141.1	28.6	-77.5	0.0
2025-01-25 18:57:48.219964	141.0	28.8	-77.4	0.0
2025-01-25 18:57:49.343369	140.9	29.0	-77.4	0.0
2025-01-25 18:57:50.464925	140.8	29.2	-77.1	0.0
2025-01-25 18:57:51.588598	140.7	29.4	-77.3	0.0
2025-01-25 18:57:52.711507	140.6	29.6	-77.0	0.0
2025-01-25 18:57:53.833563	140.5	29.8	-77.3	0.0
2025-01-25 18:57:54.957550	140.4	30.0	-77.2	0.0
2025-01-25 18:57:56.080535	140.3	30.2	-77.3	0.0
2025-01-25 18:57:57.202254	140.2	30.4	-77.4	0.0
2025-01-25 18:57:58.324965	140.1	30.6	-76.9	0.0
2025-01-25 18:57:59.448734	140.0	30.8	-77.3	0.0
2025-01-25 18:58:00.570034	139.9	31.0	-77.2	0.0
2025-01-25 18:58:01.694241	139.7	31.2	-77.2	0.0
2025-01-25 18:58:02.816568	139.6	31.4	-77.2	0.0
2025-01-25 18:58:03.939754	139.5	31.6	-77.2	0.0
2025-01-25 18:58:05.061858	139.4	31.8	-77.4	0.0
2025-01-25 18:58:06.186158	139.3	32.0	-77.5	0.0
2025-01-25 18:58:07.309683	139.2	32.3	-77.7	0.0
2025-01-25 18:58:08.431706	139.0	32.5	-77.5	0.0
2025-01-25 18:58:09.554455	138.9	32.7	-77.6	0.0
2025-01-25 18:58:10.677064	138.8	32.9	-77.3	0.0
2025-01-25 18:58:11.801803	138.7	33.1	-77.6	0.0
2025-01-25 18:58:12.925522	138.5	33.4	-77.4	0.0
2025-01-25 18:58:14.048314	138.4	33.6	-77.0	0.0
2025-01-25 18:58:15.170353	138.3	33.8	-77.5	0.0
2025-01-25 18:58:16.295538	138.1	34.0	-77.9	0.0
2025-01-25 18:58:17.419798	138.0	34.3	-77.7	0.0
2025-01-25 18:58:18.540789	137.9	34.5	-77.7	0.0
2025-01-25 18:58:19.664648	137.7	34.7	-77.6	0.0
2025-01-25 18:58:20.789092	137.6	35.0	-77.6	0.0
2025-01-25 18:58:21.910867	137.4	35.2	-77.4	0.0
2025-01-25 18:58:23.034791	137.3	35.4	-77.3	0.0
2025-01-25 18:58:24.159602	137.1	35.7	-76.8	0.0
2025-01-25 18:58:25.281478	137.0	35.9	-77.1	0.0
2025-01-25 18:58:26.405621	136.8	36.2	-77.5	0.0
2025-01-25 18:58:27.527706	136.7	36.4	-77.3	0.0
2025-01-25 18:58:28.652944	136.5	36.6	-77.2	0.0
2025-01-25 18:58:29.776273	136.4	36.9	-76.6	0.0
2025-01-25 18:58:30.899398	136.2	37.1	-77.3	0.0
2025-01-25 18:58:32.021652	136.0	37.4	-77.0	0.0
2025-01-25 18:58:33.144011	135.9	37.6	-77.2	0.0
2025-01-25 18:58:34.267959	135.7	37.9	-77.6	0.0
2025-01-25 18:58:35.389078	135.5	38.1	-77.5	0.0
2025-01-25 18:58:36.509663	135.3	38.4	-77.6	0.0
2025-01-25 18:58:37.631621	135.2	38.7	-77.6	0.0
2025-01-25 18:58:38.753617	135.0	38.9	-77.2	0.0
2025-01-25 18:58:39.876626	134.8	39.2	-77.2	0.0
2025-01-25 18:58:40.999958	134.6	39.4	-77.4	0.0
2025-01-25 18:58:42.125920	134.4	39.7	-77.0	0.0
2025-01-25 18:58:43.249866	134.2	40.0	-77.5	0.0
2025-01-25 18:58:44.371666	134.0	40.2	-77.0	0.0
2025-01-25 18:58:45.494083	133.8	40.5	-77.3	0.0
2025-01-25 18:58:46.619642	133.6	40.8	-77.3	0.0
2025-01-25 18:58:47.743609	133.4	41.0	-77.2	0.0
2025-01-25 18:58:48.866994	133.2	41.3	-77.2	0.0
2025-01-25 18:58:49.988940	133.0	41.6	-77.0	0.0
2025-01-25 18:58:51.113174	132.8	41.9	-76.6	0.0
2025-01-25 18:58:52.235685	132.5	42.2	-76.7	0.0
2025-01-25 18:58:53.358889	132.3	42.4	-77.4	0.0
2025-01-25 18:58:54.480178	132.1	42.7	-76.7	0.0
2025-01-25 18:58:55.602494	131.8	43.0	-77.0	0.0
2025-01-25 18:58:56.725908	131.6	43.3	-77.0	0.0
2025-01-25 18:58:57.850036	131.4	43.6	-76.9	0.0
2025-01-25 18:58:58.973107	131.1	43.9	-76.9	0.0
2025-01-25 18:59:00.095177	130.9	44.1	-77.3	0.0
2025-01-25 18:59:01.218248	130.6	44.4	-77.2	0.0
2025-01-25 18:59:02.341711	130.3	44.7	-77.2	0.0
2025-01-25 18:59:03.463137	130.1	45.0	-77.4	0.0
2025-01-25 18:59:04.586921	129.8	45.3	-77.0	0.0
2025-01-25 18:59:05.709034	129.5	45.6	-76.9	0.0
2025-01-25 18:59:06.830712	129.2	45.9	-77.1	0.0
2025-01-25 18:59:07.955340	128.9	46.2	-77.5	0.0
2025-01-25 18:59:09.078726	128.7	46.5	-77.0	0.0
2025-01-25 18:59:10.201254	128.4	46.8	-77.7	0.0
2025-01-25 18:59:11.323423	128.1	47.1	-77.3	0.0
2025-01-25 18:59:12.447949	127.7	47.4	-77.3	0.0
2025-01-25 18:59:13.571603	127.4	47.7	-77.5	0.0
2025-01-25 18:59:14.694230	127.1	48.0	-76.7	0.0
2025-01-25 18:59:15.817482	126.8	48.3	-77.6	0.0
2025-01-25 18:59:16.940948	126.4	48.6	-77.8	0.0
2025-01-25 18:59:18.064112	126.1	49.0	-77.9	0.0
2025-01-25 18:59:19.186789	125.7	49.3	-77.8	0.0
2025-01-25 18:59:20.308821	125.4	49.6	-77.5	0.0
2025-01-25 18:59:21.430076	125.0	49.9	-77.4	0.0
2025-01-25 18:59:22.554166	124.6	50.2	-77.6	0.0
2025-01-25 18:59:23.676493	124.3	50.5	-77.6	0.0
2025-01-25 18:59:24.798802	123.9	50.8	-77.5	0.0
2025-01-25 18:59:25.921046	123.5	51.2	-77.6	0.0
2025-01-25 18:59:27.046804	123.1	51.5	-77.7	0.0
2025-01-25 18:59:28.169993	122.7	51.8	-77.9	0.0
2025-01-25 18:59:29.293391	122.2	52.1	-77.3	0.0
2025-01-25 18:59:30.416521	121.8	52.4	-77.5	0.0
2025-01-25 18:59:31.536888	121.4	52.7	-77.1	0.0
2025-01-25 18:59:32.660040	120.9	53.1	-77.6	0.0
2025-01-25 18:59:33.784313	120.4	53.4	-78.1	0.0
2025-01-25 18:59:34.907680	120.0	53.7	-77.5	0.0
2025-01-25 18:59:36.031384	119.5	54.0	-78.2	0.0
2025-01-25 18:59:37.156242	119.0	54.3	-77.9	0.0
2025-01-25 18:59:38.279942	118.5	54.7	-78.1	0.0
2025-01-25 18:59:39.404513	118.0	55.0	-77.6	0.0
2025-01-25 18:59:40.528721	117.4	55.3	-77.6	0.0
2025-01-25 18:59:41.652981	116.9	55.6	-77.8	0.0
2025-01-25 18:59:42.775163	116.3	55.9	-77.4	0.0
2025-01-25 18:59:43.898840	115.8	56.2	-77.8	0.0
2025-01-25 18:59:45.021177	115.2	56.6	-77.5	0.0
2025-01-25 18:59:46.144275	114.6	56.9	-77.5	0.0
2025-01-25 18:59:47.267775	114.0	57.2	-77.6	0.0
2025-01-25 18:59:48.393692	113.4	57.5	-77.9	0.0
2025-01-25 18:59:49.517548	112.7	57.8	-77.6	0.0
2025-01-25 18:59:50.640948	112.1	58.1	-77.6	0.0
2025-01-25 18:59:51.765153	111.4	58.4	-77.7	0.0
2025-01-25 18:59:52.888570	110.7	58.7	-77.9	0.0
2025-01-25 18:59:54.011791	110.0	59.0	-77.5	0.0
2025-01-25 18:59:55.134957	109.3	59.3	-78.1	0.0
2025-01-25 18:59:56.259777	108.6	59.6	-77.8	0.0
2025-01-25 18:59:57.383109	107.9	59.9	-77.7	0.0
2025-01-25 18:59:58.506275	107.1	60.2	-77.5	0.0
2025-01-25 18:59:59.629303	106.3	60.5	-77.8	0.0
2025-01-25 19:00:00.752667	105.5	60.8	-77.5	0.0
2025-01-25 19:00:01.878588	104.7	61.0	-77.0	0.0
2025-01-25 19:00:03.002642	103.9	61.3	-77.4	0.0
2025-01-25 19:00:04.124749	103.0	61.6	-77.9	0.0
2025-01-25 19:00:05.249370	102.2	61.9	-77.0	0.0
2025-01-25 19:00:06.372384	101.3	62.1	-77.0	0.0
2025-01-25 19:00:07.495844	100.4	62.4	-77.5	0.0
2025-01-25 19:00:08.620875	99.4	62.6	-76.9	0.0
2025-01-25 19:00:09.742607	98.5	62.9	-77.6	0.0
2025-01-25 19:00:10.865424	97.5	63.1	-77.6	0.0
2025-01-25 19:00:11.990443	96.5	63.3	-77.3	0.0
2025-01-25 19:00:13.115367	95.5	63.6	-77.3	0.0
2025-01-25 19:00:14.236277	94.5	63.8	-77.5	0.0
2025-01-25 19:00:15.361363	93.5	64.0	-77.6	0.0
2025-01-25 19:00:16.484295	92.4	64.2	-77.4	0.0
2025-01-25 19:00:17.607504	91.3	64.4	-77.4	0.0
2025-01-25 19:00:18.729828	90.2	64.6	-77.9	0.0
2025-01-25 19:00:19.853082	89.1	64.8	-77.5	0.0
2025-01-25 19:00:20.975291	88.0	65.0	-77.5	0.0
2025-01-25 19:00:22.098415	86.8	65.1	-77.8	0.0
2025-01-25 19:00:23.220532	85.6	65.3	-77.7	0.0
2025-01-25 19:00:24.341793	84.4	65.4	-77.5	0.0
2025-01-25 19:00:25.466224	83.2	65.6	-77.8	0.0
2025-01-25 19:00:26.590926	82.0	65.7	-77.8	0.0
2025-01-25 19:00:27.712442	80.8	65.8	-77.9	0.0
2025-01-25 19:00:28.833394	79.6	65.9	-77.7	0.0
2025-01-25 19:00:29.957341	78.3	66.0	-77.7	0.0
2025-01-25 19:00:31.079626	77.0	66.1	-78.0	0.0
2025-01-25 19:00:32.203259	75.8	66.2	-77.9	0.0
2025-01-25 19:00:33.325242	74.5	66.2	-77.8	0.0
2025-01-25 19:00:34.446709	73.2	66.3	-77.0	0.0
2025-01-25 19:00:35.568755	71.9	66.3	-77.3	0.0
2025-01-25 19:00:36.691882	70.6	66.4	-77.4	0.0
2025-01-25 19:00:37.814771	69.3	66.4	-77.3	0.0
2025-01-25 19:00:38.939844	68.0	66.4	-77.5	0.0
2025-01-25 19:00:40.062586	66.7	66.4	-78.1	0.0
2025-01-25 19:00:41.186468	65.4	66.4	-77.9	0.0
2025-01-25 19:00:42.309225	64.1	66.4	-77.6	0.0
2025-01-25 19:00:43.429978	62.8	66.3	-77.9	0.0
2025-01-25 19:00:44.553279	61.5	66.3	-77.8	0.0
2025-01-25 19:00:45.676597	60.2	66.2	-77.7	0.0
2025-01-25 19:00:46.800907	58.9	66.2	-77.8	0.0
2025-01-25 19:00:47.925554	57.6	66.1	-77.8	0.0
2025-01-25 19:00:49.048869	56.4	66.0	-77.7	0.0
2025-01-25 19:00:50.173192	55.1	65.9	-77.6	0.0
2025-01-25 19:00:51.296248	53.9	65.8	-77.2	0.0
2025-01-25 19:00:52.417552	52.7	65.7	-77.8	0.0
2025-01-25 19:00:53.539556	51.4	65.5	-77.5	0.0
2025-01-25 19:00:54.662432	50.2	65.4	-77.6	0.0
2025-01-25 19:00:55.786531	49.1	65.3	-77.7	0.0
2025-01-25 19:00:56.909139	47.9	65.1	-77.6	0.0
2025-01-25 19:00:58.033682	46.7	64.9	-78.2	0.0
2025-01-25 19:00:59.158638	45.6	64.8	-78.3	0.0
2025-01-25 19:01:00.283447	44.5	64.6	-77.7	0.0
2025-01-25 19:01:01.406539	43.4	64.4	-77.4	0.0
2025-01-25 19:01:02.528199	42.3	64.2	-77.9	0.0
2025-01-25 19:01:03.650842	41.3	64.0	-77.9	0.0
2025-01-25 19:01:04.772867	40.2	63.8	-78.1	0.0
2025-01-25 19:01:05.894465	39.2	63.5	-77.7	0.0
2025-01-25 19:01:07.018094	38.2	63.3	-78.1	0.0
2025-01-25 19:01:08.139707	37.2	63.1	-77.8	0.0
2025-01-25 19:01:09.262395	36.2	62.8	-78.1	0.0
2025-01-25 19:01:10.385180	35.3	62.6	-77.8	0.0
2025-01-25 19:01:11.507772	34.4	62.3	-77.7	0.0
2025-01-25 19:01:12.631833	33.5	62.1	-77.9	0.0
2025-01-25 19:01:13.755533	32.6	61.8	-78.0	0.0
2025-01-25 19:01:14.879252	31.7	61.6	-77.6	0.0
2025-01-25 19:01:16.001272	30.9	61.3	-77.8	0.0
2025-01-25 19:01:17.123254	30.0	61.0	-78.1	0.0
2025-01-25 19:01:18.247530	29.2	60.7	-77.5	0.0
2025-01-25 19:01:19.369587	28.4	60.5	-77.6	0.0
2025-01-25 19:01:20.493681	27.7	60.2	-77.4	0.0
2025-01-25 19:01:21.617278	26.9	59.9	-77.2	0.0
2025-01-25 19:01:22.741455	26.1	59.6	-77.4	0.0
2025-01-25 19:01:23.865978	25.4	59.3	-77.4	0.0
2025-01-25 19:01:24.987863	24.7	59.0	-77.7	0.0
2025-01-25 19:01:26.109721	24.0	58.7	-78.0	0.0
2025-01-25 19:01:27.232151	23.3	58.4	-77.1	0.0
2025-01-25 19:01:28.355722	22.7	58.1	-77.1	0.0
2025-01-25 19:01:29.480215	22.0	57.8	-77.4	0.0
2025-01-25 19:01:30.602794	21.4	57.5	-77.7	0.0
2025-01-25 19:01:31.725871	20.8	57.2	-77.7	0.0
2025-01-25 19:01:32.847461	20.2	56.8	-77.5	0.0
2025-01-25 19:01:33.970641	19.6	56.5	-77.9	0.0
2025-01-25 19:01:35.094465	19.0	56.2	-77.6	0.0
2025-01-25 19:01:36.217819	18.4	55.9	-78.2	0.0
2025-01-25 19:01:37.340182	17.9	55.6	-77.9	0.0
2025-01-25 19:01:38.463254	17.4	55.3	-77.8	0.0
2025-01-25 19:01:39.585567	16.8	54.9	-78.2	0.0
2025-01-25 19:01:40.708556	16.3	54.6	-77.9	0.0
2025-01-25 19:01:41.830983	15.8	54.3	-77.7	0.0
2025-01-25 19:01:42.954489	15.3	54.0	-77.7	0.0
2025-01-25 19:01:44.077418	14.8	53.7	-77.5	0.0
2025-01-25 19:01:45.202387	14.4	53.4	-77.7	0.0
2025-01-25 19:01:46.324709	13.9	53.0	-77.8	0.0
2025-01-25 19:01:47.448831	13.4	52.7	-77.7	0.0
2025-01-25 19:01:48.572601	13.0	52.4	-77.4	0.0
2025-01-25 19:01:49.695122	12.6	52.1	-78.2	0.0
2025-01-25 19:01:50.818868	12.2	51.8	-77.8	0.0
2025-01-25 19:01:51.940060	11.7	51.4	-78.3	0.0
2025-01-25 19:01:53.062851	11.3	51.1	-78.0	0.0
2025-01-25 19:01:54.185443	10.9	50.8	-78.0	0.0
2025-01-25 19:01:55.310384	10.5	50.5	-78.2	0.0
2025-01-25 19:01:56.434741	10.2	50.2	-77.9	0.0
2025-01-25 19:01:57.559630	9.8	49.9	-78.2	0.0
2025-01-25 19:01:58.682752	9.4	49.6	-77.7	0.0
2025-01-25 19:01:59.808879	9.1	49.2	-77.2	0.0
2025-01-25 19:02:00.930118	8.7	48.9	-78.1	0.0
2025-01-25 19:02:02.055055	8.4	48.6	-77.7	0.0
2025-01-25 19:02:03.178530	8.0	48.3	-77.7	0.0
2025-01-25 19:02:04.301120	7.7	48.0	-77.8	0.0
2025-01-25 19:02:05.424183	7.4	47.7	-77.9	0.0
2025-01-25 19:02:06.548847	7.1	47.4	-78.0	0.0
2025-01-25 19:02:07.672283	6.8	47.1	-77.9	0.0
2025-01-25 19:02:08.796852	6.5	46.8	-78.2	0.0
2025-01-25 19:02:09.920492	6.2	46.5	-77.7	0.0
2025-01-25 19:02:11.045170	5.9	46.2	-77.4	0.0
2025-01-25 19:02:12.167582	5.6	45.9	-77.8	0.0
2025-01-25 19:02:13.291241	5.3	45.6	-77.8	0.0
2025-01-25 19:02:14.414597	5.0	45.3	-77.7	0.0
2025-01-25 19:02:15.534756	4.8	45.0	-77.4	0.0
2025-01-25 19:02:16.659274	4.5	44.7	-77.9	0.0
2025-01-25 19:02:17.782193	4.2	44.4	-77.9	0.0
2025-01-25 19:02:18.903858	4.0	44.1	-77.8	0.0
2025-01-25 19:02:20.029421	3.7	43.8	-78.3	0.0
2025-01-25 19:02:21.154216	3.5	43.5	-77.8	0.0
2025-01-25 19:02:22.275668	3.2	43.3	-78.0	0.0
2025-01-25 19:02:23.398860	3.0	43.0	-77.3	0.0
2025-01-25 19:02:24.521707	2.8	42.7	-77.7	0.0
2025-01-25 19:02:25.642819	2.5	42.4	-77.6	0.0
2025-01-25 19:02:26.766640	2.3	42.1	-77.8	0.0
2025-01-25 19:02:27.890287	2.1	41.8	-78.2	0.0
2025-01-25 19:02:29.015050	1.9	41.6	-78.3	0.0
2025-01-25 19:02:30.136668	1.6	41.3	-77.8	0.0
2025-01-25 19:02:31.259896	1.4	41.0	-78.0	0.0
2025-01-25 19:02:32.383636	1.2	40.8	-77.9	0.0
2025-01-25 19:02:33.507010	1.0	40.5	-78.0	0.0
2025-01-25 19:02:34.629957	0.8	40.2	-78.2	0.0
2025-01-25 19:02:35.753733	0.6	39.9	-78.0	0.0
2025-01-25 19:02:36.876422	0.4	39.7	-78.1	0.0
2025-01-25 19:02:38.000704	0.2	39.4	-77.8	0.0
2025-01-25 19:02:39.123912	0.1	39.2	-78.0	0.0
2025-01-25 19:02:40.245838	359.9	38.9	-78.3	0.0
2025-01-25 19:02:41.367031	359.7	38.6	-78.5	0.0
2025-01-25 19:02:42.489830	359.5	38.4	-78.0	0.0
2025-01-25 19:02:43.610420	359.3	38.1	-77.8	0.0
2025-01-25 19:02:44.733489	359.2	37.9	-78.6	0.0
2025-01-25 19:02:45.856634	359.0	37.6	-78.2	0.0
2025-01-25 19:02:46.980341	358.8	37.4	-78.3	0.0
2025-01-25 19:02:48.101940	358.7	37.1	-78.6	0.0
2025-01-25 19:02:49.225455	358.5	36.9	-78.3	0.0
2025-01-25 19:02:50.348836	358.3	36.6	-78.3	0.0
2025-01-25 19:02:51.469863	358.2	36.4	-78.1	0.0
2025-01-25 19:02:52.592688	358.0	36.1	-77.8	0.0
2025-01-25 19:02:53.715335	357.9	35.9	-78.1	0.0
2025-01-25 19:02:54.836660	357.7	35.7	-78.3	0.0
2025-01-25 19:02:55.959056	357.6	35.4	-78.2	0.0
2025-01-25 19:02:57.080405	357.4	35.2	-78.5	0.0
2025-01-25 19:02:58.202939	357.3	34.9	-77.9	0.0
2025-01-25 19:02:59.325261	357.1	34.7	-77.8	0.0
2025-01-25 19:03:00.448239	357.0	34.5	-78.2	0.0
2025-01-25 19:03:01.570473	356.9	34.3	-78.1	0.0
2025-01-25 19:03:02.693182	356.7	34.0	-77.8	0.0
2025-01-25 19:03:03.816149	356.6	33.8	-78.0	0.0
2025-01-25 19:03:04.938388	356.5	33.6	-78.3	0.0
2025-01-25 19:03:06.062343	356.3	33.3	-78.3	0.0
2025-01-25 19:03:07.185479	356.2	33.1	-78.3	0.0
2025-01-25 19:03:08.307508	356.1	32.9	-78.4	0.0
2025-01-25 19:03:09.429962	356.0	32.7	-78.3	0.0
2025-01-25 19:03:10.553535	355.8	32.5	-77.7	0.0
2025-01-25 19:03:11.677966	355.7	32.2	-77.9	0.0
2025-01-25 19:03:12.801390	355.6	32.0	-78.0	0.0
2025-01-25 19:03:13.925171	355.5	31.8	-78.7	0.0
2025-01-25 19:03:15.050855	355.4	31.6	-78.2	0.0
2025-01-25 19:03:16.172427	355.2	31.4	-77.8	0.0
2025-01-25 19:03:17.294824	355.1	31.2	-78.2	0.0
2025-01-25 19:03:18.417188	355.0	31.0	-78.3	0.0
2025-01-25 19:03:19.541738	354.9	30.8	-77.7	0.0
2025-01-25 19:03:20.666758	354.8	30.6	-77.7	0.0
2025-01-25 19:03:21.789171	354.7	30.3	-77.9	0.0
2025-01-25 19:03:22.912987	354.6	30.1	-77.7	0.0
2025-01-25 19:03:24.035827	354.5	29.9	-78.0	0.0
2025-01-25 19:03:25.157592	354.4	29.7	-77.8	0.0
2025-01-25 19:03:26.281522	354.3	29.5	-78.0	0.0
2025-01-25 19:03:27.402761	354.2	29.3	-77.9	0.0
2025-01-25 19:03:28.525809	354.1	29.1	-77.8	0.0
2025-01-25 19:03:29.649637	354.0	29.0	-78.1	0.0
2025-01-25 19:03:30.773612	353.9	28.8	-77.8	0.0
2025-01-25 19:03:31.898049	353.8	28.6	-77.9	0.0
2025-01-25 19:03:33.023222	353.7	28.4	-78.0	0.0
2025-01-25 19:03:34.147654	353.6	28.2	-78.0	0.0
2025-01-25 19:03:35.269427	353.5	28.0	-77.9	0.0
2025-01-25 19:03:36.394525	353.4	27.8	-78.0	0.0
2025-01-25 19:03:37.519073	353.3	27.6	-77.6	0.0
2025-01-25 19:03:38.640529	353.2	27.4	-77.7	0.0
2025-01-25 19:03:39.762908	353.1	27.2	-78.0	0.0
2025-01-25 19:03:40.885214	353.1	27.1	-78.3	0.0
2025-01-25 19:03:42.009518	353.0	26.9	-78.2	0.0
2025-01-25 19:03:43.133573	352.9	26.7	-78.3	0.0
2025-01-25 19:03:44.256612	352.8	26.5	-78.0	0.0
2025-01-25 19:03:45.379533	352.7	26.3	-78.4	0.0
2025-01-25 19:03:46.502920	352.6	26.2	-78.5	0.0
2025-01-25 19:03:47.628182	352.6	26.0	-78.5	0.0
2025-01-25 19:03:48.750694	352.5	25.8	-78.3	0.0
2025-01-25 19:03:49.872580	352.4	25.6	-78.5	0.0
2025-01-25 19:03:50.994824	352.3	25.5	-78.1	0.0
2025-01-25 19:03:52.117890	352.2	25.3	-78.2	0.0
2025-01-25 19:03:53.243351	352.2	25.1	-77.9	0.0
2025-01-25 19:03:54.363806	352.1	24.9	-78.2	0.0
2025-01-25 19:03:55.486343	352.0	24.8	-77.7	0.0
2025-01-25 19:03:56.608545	351.9	24.6	-77.9	0.0
2025-01-25 19:03:57.730978	351.9	24.4	-78.2	0.0
2025-01-25 19:03:58.854047	351.8	24.3	-78.2	0.0
2025-01-25 19:03:59.975189	351.7	24.1	-78.1	0.0
2025-01-25 19:04:01.098998	351.7	23.9	-77.9	0.0
2025-01-25 19:04:02.221827	351.6	23.8	-77.9	0.0
2025-01-25 19:04:03.343232	351.5	23.6	-78.2	0.0
2025-01-25 19:04:04.465904	351.4	23.4	-78.1	0.0
2025-01-25 19:04:05.588574	351.4	23.3	-78.1	0.0
2025-01-25 19:04:06.713333	351.3	23.1	-78.1	0.0
2025-01-25 19:04:07.835074	351.2	23.0	-77.8	0.0
2025-01-25 19:04:08.957340	351.2	22.8	-77.8	0.0
2025-01-25 19:04:10.080720	351.1	22.6	-78.5	0.0
2025-01-25 19:04:11.206020	351.0	22.5	-78.2	0.0
2025-01-25 19:04:12.327148	351.0	22.3	-78.8	0.0
2025-01-25 19:04:13.449998	350.9	22.2	-77.9	0.0
2025-01-25 19:04:14.571637	350.9	22.0	-78.4	0.0
2025-01-25 19:04:15.695824	350.8	21.9	-77.6	0.0
2025-01-25 19:04:16.816977	350.7	21.7	-77.9	0.0
2025-01-25 19:04:17.941445	350.7	21.6	-77.9	0.0
2025-01-25 19:04:19.063635	350.6	21.4	-77.8	0.0
2025-01-25 19:04:20.187100	350.6	21.3	-77.7	0.0
2025-01-25 19:04:21.309368	350.5	21.1	-78.4	0.0
2025-01-25 19:04:22.433369	350.4	21.0	-78.1	0.0
2025-01-25 19:04:23.555668	350.4	20.8	-77.8	0.0
2025-01-25 19:04:24.678683	350.3	20.7	-77.7	0.0
2025-01-25 19:04:25.799761	350.3	20.5	-77.8	0.0
2025-01-25 19:04:26.923619	350.2	20.4	-77.9	0.0
2025-01-25 19:04:28.046148	350.2	20.3	-78.1	0.0
2025-01-25 19:04:29.168563	350.1	20.1	-77.7	0.0
2025-01-25 19:04:30.291688	350.1	20.0	-78.0	0.0
2025-01-25 19:04:31.414428	350.0	19.8	-77.8	0.0
2025-01-25 19:04:32.539501	349.9	19.7	-77.7	0.0
2025-01-25 19:04:33.663948	349.9	19.5	-77.8	0.0
2025-01-25 19:04:34.788072	349.8	19.4	-77.7	0.0
2025-01-25 19:04:35.911451	349.8	19.3	-77.8	0.0
2025-01-25 19:04:37.032995	349.7	19.1	-78.3	0.0
2025-01-25 19:04:38.154849	349.7	19.0	-77.9	0.0
2025-01-25 19:04:39.278329	349.6	18.9	-78.4	0.0
2025-01-25 19:04:40.400076	349.6	18.7	-78.0	0.0
2025-01-25 19:04:41.522894	349.5	18.6	-78.1	0.0
2025-01-25 19:04:42.646287	349.5	18.5	-78.1	0.0
2025-01-25 19:04:43.766297	349.4	18.3	-78.0	0.0
2025-01-25 19:04:44.890124	349.4	18.2	-77.9	0.0
2025-01-25 19:04:46.012544	349.4	18.1	-78.3	0.0
2025-01-25 19:04:47.136363	349.3	17.9	-78.1	0.0
2025-01-25 19:04:48.259185	349.3	17.8	-78.4	0.0
2025-01-25 19:04:49.380911	349.2	17.7	-78.2	0.0
2025-01-25 19:04:50.504058	349.2	17.5	-78.0	0.0
2025-01-25 19:04:51.626675	349.1	17.4	-78.2	0.0
2025-01-25 19:04:52.748486	349.1	17.3	-77.9	0.0
2025-01-25 19:04:53.870389	349.0	17.1	-77.8	0.0
2025-01-25 19:04:54.993132	349.0	17.0	-78.0	0.0
2025-01-25 19:04:56.116095	348.9	16.9	-77.9	0.0
2025-01-25 19:04:57.239660	348.9	16.8	-78.0	0.0
2025-01-25 19:04:58.361827	348.9	16.6	-78.3	0.0
2025-01-25 19:04:59.484942	348.8	16.5	-78.0	0.0
2025-01-25 19:05:00.609463	348.8	16.4	-77.8	0.0
2025-01-25 19:05:01.730779	348.7	16.3	-78.0	0.0
2025-01-25 19:05:02.853584	348.7	16.2	-78.2	0.0
2025-01-25 19:05:03.977210	348.7	16.0	-78.4	0.0
2025-01-25 19:05:05.099218	348.6	15.9	-77.8	0.0
2025-01-25 19:05:06.223778	348.6	15.8	-78.4	0.0
2025-01-25 19:05:07.344559	348.5	15.7	-77.9	0.0
2025-01-25 19:05:08.466353	348.5	15.5	-78.1	0.0
2025-01-25 19:05:09.588755	348.5	15.4	-78.2	0.0
2025-01-25 19:05:10.711609	348.4	15.3	-78.0	0.0
2025-01-25 19:05:11.832790	348.4	15.2	-78.2	0.0
2025-01-25 19:05:12.957722	348.3	15.1	-78.3	0.0
2025-01-25 19:05:14.079156	348.3	15.0	-78.1	0.0
2025-01-25 19:05:15.204941	348.3	14.8	-78.4	0.0
2025-01-25 19:05:16.329789	348.2	14.7	-78.5	0.0
2025-01-25 19:05:17.451359	348.2	14.6	-78.5	0.0
2025-01-25 19:05:18.572985	348.2	14.5	-78.2	0.0
2025-01-25 19:05:19.695651	348.1	14.4	-78.1	0.0
2025-01-25 19:05:20.818692	348.1	14.3	-77.8	0.0
2025-01-25 19:05:21.942204	348.1	14.2	-78.3	0.0
2025-01-25 19:05:23.063861	348.0	14.0	-78.3	0.0
2025-01-25 19:05:24.187804	348.0	13.9	-78.1	0.0
2025-01-25 19:05:25.311470	347.9	13.8	-78.3	0.0
2025-01-25 19:05:26.434175	347.9	13.7	-78.1	0.0
2025-01-25 19:05:27.557467	347.9	13.6	-77.7	0.0
2025-01-25 19:05:28.679569	347.8	13.5	-78.0	0.0
2025-01-25 19:05:29.802854	347.8	13.4	-77.8	0.0
2025-01-25 19:05:30.925605	347.8	13.3	-78.4	0.0
2025-01-25 19:05:32.048938	347.7	13.2	-78.3	0.0
2025-01-25 19:05:33.170625	347.7	13.1	-77.9	0.0
2025-01-25 19:05:34.294436	347.7	12.9	-78.1	0.0
2025-01-25 19:05:35.416383	347.6	12.8	-78.0	0.0
2025-01-25 19:05:36.537812	347.6	12.7	-77.7	0.0
2025-01-25 19:05:37.660457	347.6	12.6	-78.0	0.0
2025-01-25 19:05:38.783047	347.6	12.5	-78.3	0.0
2025-01-25 19:05:39.903777	347.5	12.4	-77.8	0.0
2025-01-25 19:05:41.026618	347.5	12.3	-77.9	0.0
2025-01-25 19:05:42.149771	347.5	12.2	-77.8	0.0
2025-01-25 19:05:43.273713	347.4	12.1	-77.8	0.0
2025-01-25 19:05:44.395843	347.4	12.0	-78.0	0.0
2025-01-25 19:05:45.518499	347.4	11.9	-78.0	0.0
2025-01-25 19:05:46.643319	347.3	11.8	-77.9	0.0
2025-01-25 19:05:47.767294	347.3	11.7	-77.8	0.0
2025-01-25 19:05:48.888301	347.3	11.6	-77.9	0.0
2025-01-25 19:05:50.012231	347.3	11.5	-78.0	0.0
2025-01-25 19:05:51.136551	347.2	11.4	-78.1	0.0
2025-01-25 19:05:52.258703	347.2	11.3	-77.5	0.0
2025-01-25 19:05:53.384743	347.2	11.2	-77.4	0.0
2025-01-25 19:05:54.508555	347.1	11.1	-77.9	0.0
2025-01-25 19:05:55.631963	347.1	11.0	-77.4	0.0
2025-01-25 19:05:56.754724	347.1	10.9	-77.8	0.0
2025-01-25 19:05:57.878641	347.1	10.8	-77.9	0.0
2025-01-25 19:05:59.001436	347.0	10.7	-77.8	0.0
2025-01-25 19:06:00.124411	347.0	10.6	-77.6	0.0
2025-01-25 19:06:01.247336	347.0	10.5	-77.7	0.0
2025-01-25 19:06:02.368141	347.0	10.4	-77.6	0.0
2025-01-25 19:06:03.491451	346.9	10.3	-77.6	0.0
2025-01-25 19:06:04.616923	346.9	10.2	-77.8	0.0
2025-01-25 19:06:05.739858	346.9	10.1	-77.9	0.0
2025-01-25 19:06:06.863906	346.8	10.0	-77.8	0.0
#Closed at: 2025-01-25 18:55:07.202527