passes_logs/2025/01/25/planumMaritime01/planumMaritime01__20250125_130256_METEOR-M2_2_rec.log

#Pass ID: 20250125_130256_METEOR-M2 2
#Satellite: METEOR-M2 2
#Configuration: METEOR-M2 2
#Start time: 2025-01-25 13:03:01.997202

#LorettStation: 1.0.0 05.05.2024
#Station: planumMaritime01
#Location: 37.49445 lon 55.92918 lat
#TLE: 1 44387U 19038A   25024.76368027  .00000427  00000+0  20528-3 0  9991
#TLE: 2 44387  98.8579   1.2349 0002158  64.0416 296.0984 14.24124981288923

#Time	Az	El	Level	SNR
2025-01-25 13:03:04.151829	187.5	10.2	-78.1	0.0
2025-01-25 13:03:05.274471	187.5	10.3	-78.2	0.0
2025-01-25 13:03:06.397367	187.6	10.4	-77.9	0.0
2025-01-25 13:03:07.519653	187.7	10.5	-78.3	0.0
2025-01-25 13:03:08.641400	187.7	10.6	-78.4	0.0
2025-01-25 13:03:09.762948	187.8	10.7	-78.1	0.0
2025-01-25 13:03:10.885574	187.9	10.7	-78.2	0.0
2025-01-25 13:03:12.007936	188.0	10.8	-78.0	0.0
2025-01-25 13:03:13.128964	188.0	10.9	-78.1	0.0
2025-01-25 13:03:14.251601	188.1	11.0	-78.3	0.0
2025-01-25 13:03:15.375590	188.2	11.1	-78.0	0.0
2025-01-25 13:03:16.497646	188.2	11.2	-78.2	0.0
2025-01-25 13:03:17.619687	188.3	11.3	-78.3	0.0
2025-01-25 13:03:18.740626	188.4	11.4	-78.2	0.0
2025-01-25 13:03:19.864518	188.5	11.5	-77.7	0.0
2025-01-25 13:03:20.988420	188.5	11.6	-77.9	0.0
2025-01-25 13:03:22.110943	188.6	11.7	-78.0	0.0
2025-01-25 13:03:23.235626	188.7	11.8	-78.1	0.0
2025-01-25 13:03:24.359878	188.8	11.9	-78.2	0.0
2025-01-25 13:03:25.484473	188.9	12.0	-78.3	0.0
2025-01-25 13:03:26.608913	188.9	12.1	-77.9	0.0
2025-01-25 13:03:27.733041	189.0	12.2	-77.6	0.0
2025-01-25 13:03:28.857841	189.1	12.3	-77.6	0.0
2025-01-25 13:03:29.979824	189.2	12.4	-77.7	0.0
2025-01-25 13:03:31.103813	189.2	12.5	-78.6	0.0
2025-01-25 13:03:32.227904	189.3	12.6	-78.5	0.0
2025-01-25 13:03:33.352265	189.4	12.7	-78.5	0.0
2025-01-25 13:03:34.476758	189.5	12.8	-78.4	0.0
2025-01-25 13:03:35.598111	189.6	13.0	-78.5	0.0
2025-01-25 13:03:36.719196	189.7	13.1	-78.5	0.0
2025-01-25 13:03:37.844139	189.7	13.2	-78.6	0.0
2025-01-25 13:03:38.968493	189.8	13.3	-79.1	0.0
2025-01-25 13:03:40.091287	189.9	13.4	-77.6	0.0
2025-01-25 13:03:41.214285	190.0	13.5	-76.9	0.0
2025-01-25 13:03:42.340867	190.1	13.6	-78.4	0.0
2025-01-25 13:03:43.463330	190.2	13.7	-78.4	0.0
2025-01-25 13:03:44.586997	190.3	13.8	-78.4	0.0
2025-01-25 13:03:45.710546	190.3	13.9	-78.4	0.0
2025-01-25 13:03:46.833234	190.4	14.0	-77.7	0.0
2025-01-25 13:03:47.956721	190.5	14.1	-78.5	0.0
2025-01-25 13:03:49.078449	190.6	14.2	-78.2	0.0
2025-01-25 13:03:50.201636	190.7	14.3	-77.8	0.0
2025-01-25 13:03:51.324219	190.8	14.5	-77.9	0.0
2025-01-25 13:03:52.446969	190.9	14.6	-78.3	0.0
2025-01-25 13:03:53.568344	191.0	14.7	-78.4	0.0
2025-01-25 13:03:54.690095	191.1	14.8	-78.6	0.0
2025-01-25 13:03:55.812627	191.2	14.9	-78.8	0.0
2025-01-25 13:03:56.935256	191.2	15.0	-78.7	0.0
2025-01-25 13:03:58.059512	191.3	15.1	-78.5	0.0
2025-01-25 13:03:59.181861	191.4	15.2	-78.5	0.0
2025-01-25 13:04:00.304113	191.5	15.3	-77.7	0.0
2025-01-25 13:04:01.427091	191.6	15.5	-78.4	0.0
2025-01-25 13:04:02.550933	191.7	15.6	-78.3	0.0
2025-01-25 13:04:03.671285	191.8	15.7	-78.6	0.0
2025-01-25 13:04:04.794117	191.9	15.8	-78.1	0.0
2025-01-25 13:04:05.916808	192.0	15.9	-78.8	0.0
2025-01-25 13:04:07.040583	192.1	16.0	-79.0	0.0
2025-01-25 13:04:08.162418	192.2	16.2	-78.7	0.0
2025-01-25 13:04:09.285732	192.3	16.3	-78.9	0.0
2025-01-25 13:04:10.408361	192.4	16.4	-78.5	0.0
2025-01-25 13:04:11.533274	192.5	16.5	-78.9	0.0
2025-01-25 13:04:12.655805	192.6	16.6	-78.0	0.0
2025-01-25 13:04:13.779357	192.7	16.7	-78.3	0.0
2025-01-25 13:04:14.901764	192.9	16.9	-79.1	0.0
2025-01-25 13:04:16.023354	193.0	17.0	-78.6	0.0
2025-01-25 13:04:17.144843	193.1	17.1	-78.9	0.0
2025-01-25 13:04:18.267364	193.2	17.2	-78.5	0.0
2025-01-25 13:04:19.391488	193.3	17.3	-78.4	0.0
2025-01-25 13:04:20.512651	193.4	17.5	-77.9	0.0
2025-01-25 13:04:21.634857	193.5	17.6	-77.3	0.0
2025-01-25 13:04:22.755782	193.6	17.7	-78.6	0.0
2025-01-25 13:04:23.878236	193.7	17.8	-79.0	0.0
2025-01-25 13:04:24.999739	193.8	18.0	-78.4	0.0
2025-01-25 13:04:26.121924	194.0	18.1	-79.0	0.0
2025-01-25 13:04:27.245800	194.1	18.2	-78.3	0.0
2025-01-25 13:04:28.367266	194.2	18.3	-78.5	0.0
2025-01-25 13:04:29.489528	194.3	18.5	-78.4	0.0
2025-01-25 13:04:30.613239	194.4	18.6	-78.7	0.0
2025-01-25 13:04:31.735913	194.5	18.7	-78.6	0.0
2025-01-25 13:04:32.857962	194.7	18.9	-78.1	0.0
2025-01-25 13:04:33.982093	194.8	19.0	-78.0	0.0
2025-01-25 13:04:35.106931	194.9	19.1	-78.1	0.0
2025-01-25 13:04:36.229239	195.0	19.2	-78.9	0.0
2025-01-25 13:04:37.351846	195.2	19.4	-79.0	0.0
2025-01-25 13:04:38.474542	195.3	19.5	-79.1	0.0
2025-01-25 13:04:39.595771	195.4	19.6	-78.9	0.0
2025-01-25 13:04:40.719203	195.5	19.8	-78.9	0.0
2025-01-25 13:04:41.843263	195.7	19.9	-79.4	0.0
2025-01-25 13:04:42.963427	195.8	20.0	-78.9	0.0
2025-01-25 13:04:44.087754	195.9	20.2	-78.8	0.0
2025-01-25 13:04:45.211185	196.1	20.3	-79.0	0.0
2025-01-25 13:04:46.333630	196.2	20.4	-78.8	0.0
2025-01-25 13:04:47.455326	196.3	20.6	-78.9	0.0
2025-01-25 13:04:48.577068	196.5	20.7	-78.7	0.0
2025-01-25 13:04:49.696815	196.6	20.8	-78.6	0.0
2025-01-25 13:04:50.820015	196.7	21.0	-78.6	0.0
2025-01-25 13:04:51.941345	196.9	21.1	-78.9	0.0
2025-01-25 13:04:53.065916	197.0	21.3	-79.0	0.0
2025-01-25 13:04:54.187118	197.1	21.4	-78.6	0.0
2025-01-25 13:04:55.310414	197.3	21.5	-78.7	0.0
2025-01-25 13:04:56.431082	197.4	21.7	-78.6	0.0
2025-01-25 13:04:57.555524	197.6	21.8	-78.7	0.0
2025-01-25 13:04:58.678408	197.7	22.0	-78.0	0.0
2025-01-25 13:04:59.800767	197.9	22.1	-78.6	0.0
2025-01-25 13:05:00.922196	198.0	22.2	-78.1	0.0
2025-01-25 13:05:02.043488	198.2	22.4	-78.2	0.0
2025-01-25 13:05:03.166431	198.3	22.5	-79.0	0.0
2025-01-25 13:05:04.287268	198.5	22.7	-78.4	0.0
2025-01-25 13:05:05.410258	198.6	22.8	-78.4	0.0
2025-01-25 13:05:06.531301	198.8	23.0	-78.8	0.0
2025-01-25 13:05:07.655952	198.9	23.1	-79.2	0.0
2025-01-25 13:05:08.777744	199.1	23.3	-78.1	0.0
2025-01-25 13:05:09.900725	199.3	23.4	-79.0	0.0
2025-01-25 13:05:11.024165	199.4	23.6	-78.7	0.0
2025-01-25 13:05:12.147288	199.6	23.7	-78.7	0.0
2025-01-25 13:05:13.268888	199.8	23.9	-78.8	0.0
2025-01-25 13:05:14.394528	199.9	24.0	-78.6	0.0
2025-01-25 13:05:15.515606	200.1	24.2	-79.0	0.0
2025-01-25 13:05:16.637304	200.3	24.3	-78.9	0.0
2025-01-25 13:05:17.759469	200.4	24.5	-78.4	0.0
2025-01-25 13:05:18.881839	200.6	24.6	-79.1	0.0
2025-01-25 13:05:20.004079	200.8	24.8	-78.2	0.0
2025-01-25 13:05:21.127923	201.0	24.9	-79.1	0.0
2025-01-25 13:05:22.251331	201.1	25.1	-78.6	0.0
2025-01-25 13:05:23.375594	201.3	25.2	-78.9	0.0
2025-01-25 13:05:24.496646	201.5	25.4	-78.3	0.0
2025-01-25 13:05:25.619666	201.7	25.5	-78.4	0.0
2025-01-25 13:05:26.741514	201.9	25.7	-78.7	0.0
2025-01-25 13:05:27.864832	202.0	25.9	-78.9	0.0
2025-01-25 13:05:28.988823	202.2	26.0	-78.2	0.0
2025-01-25 13:05:30.110068	202.4	26.2	-78.6	0.0
2025-01-25 13:05:31.233055	202.6	26.3	-78.6	0.0
2025-01-25 13:05:32.356511	202.8	26.5	-78.0	0.0
2025-01-25 13:05:33.479979	203.0	26.7	-78.7	0.0
2025-01-25 13:05:34.603265	203.2	26.8	-78.0	0.0
2025-01-25 13:05:35.726143	203.4	27.0	-78.6	0.0
2025-01-25 13:05:36.847464	203.6	27.2	-77.9	0.0
2025-01-25 13:05:37.970224	203.8	27.3	-78.5	0.0
2025-01-25 13:05:39.091630	204.0	27.5	-78.3	0.0
2025-01-25 13:05:40.215832	204.2	27.6	-78.3	0.0
2025-01-25 13:05:41.336469	204.4	27.8	-78.7	0.0
2025-01-25 13:05:42.460106	204.6	28.0	-78.8	0.0
2025-01-25 13:05:43.581958	204.9	28.1	-78.9	0.0
2025-01-25 13:05:44.704009	205.1	28.3	-78.5	0.0
2025-01-25 13:05:45.827629	205.3	28.5	-78.7	0.0
2025-01-25 13:05:46.951279	205.5	28.6	-78.4	0.0
2025-01-25 13:05:48.074547	205.7	28.8	-78.2	0.0
2025-01-25 13:05:49.197921	206.0	29.0	-78.6	0.0
2025-01-25 13:05:50.319065	206.2	29.2	-78.8	0.0
2025-01-25 13:05:51.443867	206.4	29.3	-79.1	0.0
2025-01-25 13:05:52.566465	206.7	29.5	-79.1	0.0
2025-01-25 13:05:53.688324	206.9	29.7	-79.4	0.0
2025-01-25 13:05:54.811074	207.1	29.8	-79.0	0.0
2025-01-25 13:05:55.934900	207.4	30.0	-78.7	0.0
2025-01-25 13:05:57.057857	207.6	30.2	-78.5	0.0
2025-01-25 13:05:58.179485	207.9	30.4	-78.8	0.0
2025-01-25 13:05:59.299996	208.1	30.5	-78.5	0.0
2025-01-25 13:06:00.421881	208.4	30.7	-78.7	0.0
2025-01-25 13:06:01.544532	208.6	30.9	-79.1	0.0
2025-01-25 13:06:02.667635	208.9	31.1	-78.9	0.0
2025-01-25 13:06:03.790500	209.1	31.2	-79.1	0.0
2025-01-25 13:06:04.915522	209.4	31.4	-78.9	0.0
2025-01-25 13:06:06.036358	209.7	31.6	-79.3	0.0
2025-01-25 13:06:07.158786	209.9	31.8	-78.5	0.0
2025-01-25 13:06:08.282556	210.2	32.0	-78.8	0.0
2025-01-25 13:06:09.408262	210.5	32.1	-78.7	0.0
2025-01-25 13:06:10.528943	210.7	32.3	-79.0	0.0
2025-01-25 13:06:11.652372	211.0	32.5	-79.4	0.0
2025-01-25 13:06:12.774491	211.3	32.7	-78.9	0.0
2025-01-25 13:06:13.897167	211.6	32.8	-79.0	0.0
2025-01-25 13:06:15.018706	211.9	33.0	-78.8	0.0
2025-01-25 13:06:16.139844	212.2	33.2	-79.0	0.0
2025-01-25 13:06:17.262780	212.5	33.4	-78.9	0.0
2025-01-25 13:06:18.387098	212.8	33.6	-79.0	0.0
2025-01-25 13:06:19.512031	213.1	33.7	-78.7	0.0
2025-01-25 13:06:20.636759	213.4	33.9	-78.5	0.0
2025-01-25 13:06:21.756989	213.7	34.1	-78.8	0.0
2025-01-25 13:06:22.881798	214.0	34.3	-79.3	0.0
2025-01-25 13:06:24.005367	214.3	34.5	-79.1	0.0
2025-01-25 13:06:25.129964	214.6	34.7	-79.5	0.0
2025-01-25 13:06:26.251455	214.9	34.8	-78.9	0.0
2025-01-25 13:06:27.376809	215.3	35.0	-78.9	0.0
2025-01-25 13:06:28.499067	215.6	35.2	-79.2	0.0
2025-01-25 13:06:29.622188	215.9	35.4	-78.9	0.0
2025-01-25 13:06:30.743879	216.3	35.6	-78.7	0.0
2025-01-25 13:06:31.868483	216.6	35.8	-78.8	0.0
2025-01-25 13:06:32.989796	217.0	35.9	-79.4	0.0
2025-01-25 13:06:34.113337	217.3	36.1	-79.0	0.0
2025-01-25 13:06:35.234738	217.7	36.3	-79.5	0.0
2025-01-25 13:06:36.359293	218.0	36.5	-79.3	0.0
2025-01-25 13:06:37.483049	218.4	36.7	-78.9	0.0
2025-01-25 13:06:38.606013	218.7	36.8	-78.5	0.0
2025-01-25 13:06:39.727831	219.1	37.0	-79.0	0.0
2025-01-25 13:06:40.850875	219.5	37.2	-78.7	0.0
2025-01-25 13:06:41.973489	219.9	37.4	-79.1	0.0
2025-01-25 13:06:43.094464	220.2	37.6	-79.3	0.0
2025-01-25 13:06:44.219194	220.6	37.7	-78.9	0.0
2025-01-25 13:06:45.340933	221.0	37.9	-78.9	0.0
2025-01-25 13:06:46.462303	221.4	38.1	-79.1	0.0
2025-01-25 13:06:47.585166	221.8	38.3	-79.3	0.0
2025-01-25 13:06:48.707854	222.2	38.5	-79.1	0.0
2025-01-25 13:06:49.831397	222.6	38.6	-78.4	0.0
2025-01-25 13:06:50.955547	223.0	38.8	-78.8	0.0
2025-01-25 13:06:52.076149	223.4	39.0	-78.6	0.0
2025-01-25 13:06:53.198378	223.8	39.2	-79.1	0.0
2025-01-25 13:06:54.319694	224.3	39.3	-78.3	0.0
2025-01-25 13:06:55.440699	224.7	39.5	-79.0	0.0
2025-01-25 13:06:56.561461	225.1	39.7	-79.1	0.0
2025-01-25 13:06:57.684499	225.6	39.8	-78.9	0.0
2025-01-25 13:06:58.807130	226.0	40.0	-79.6	0.0
2025-01-25 13:06:59.928965	226.4	40.2	-77.9	0.0
2025-01-25 13:07:01.052996	226.9	40.3	-78.8	0.0
2025-01-25 13:07:02.176528	227.3	40.5	-78.4	0.0
2025-01-25 13:07:03.297323	227.8	40.7	-79.0	0.0
2025-01-25 13:07:04.420079	228.3	40.8	-78.9	0.0
2025-01-25 13:07:05.542083	228.7	41.0	-79.2	0.0
2025-01-25 13:07:06.662940	229.2	41.2	-79.4	0.0
2025-01-25 13:07:07.786627	229.7	41.3	-79.4	0.0
2025-01-25 13:07:08.908519	230.2	41.5	-78.5	0.0
2025-01-25 13:07:10.029819	230.7	41.6	-79.1	0.0
2025-01-25 13:07:11.152910	231.1	41.8	-79.1	0.0
2025-01-25 13:07:12.276964	231.6	42.0	-79.4	0.0
2025-01-25 13:07:13.401166	232.1	42.1	-79.3	0.0
2025-01-25 13:07:14.524023	232.7	42.3	-79.2	0.0
2025-01-25 13:07:15.648961	233.2	42.4	-79.2	0.0
2025-01-25 13:07:16.773584	233.7	42.5	-79.1	0.0
2025-01-25 13:07:17.896523	234.2	42.7	-79.3	0.0
2025-01-25 13:07:19.018805	234.7	42.8	-79.2	0.0
2025-01-25 13:07:20.140858	235.3	43.0	-78.6	0.0
2025-01-25 13:07:21.261279	235.8	43.1	-79.3	0.0
2025-01-25 13:07:22.384649	236.3	43.2	-78.8	0.0
2025-01-25 13:07:23.508871	236.9	43.4	-79.4	0.0
2025-01-25 13:07:24.630426	237.4	43.5	-79.1	0.0
2025-01-25 13:07:25.753255	238.0	43.6	-79.5	0.0
2025-01-25 13:07:26.876532	238.5	43.8	-79.6	0.0
2025-01-25 13:07:27.997862	239.1	43.9	-79.5	0.0
2025-01-25 13:07:29.120556	239.6	44.0	-78.9	0.0
2025-01-25 13:07:30.244345	240.2	44.1	-78.9	0.0
2025-01-25 13:07:31.368434	240.8	44.2	-79.2	0.0
2025-01-25 13:07:32.490324	241.4	44.4	-79.1	0.0
2025-01-25 13:07:33.613524	241.9	44.5	-79.1	0.0
2025-01-25 13:07:34.733863	242.5	44.6	-78.9	0.0
2025-01-25 13:07:35.856233	243.1	44.7	-79.3	0.0
2025-01-25 13:07:36.978594	243.7	44.8	-79.4	0.0
2025-01-25 13:07:38.101047	244.3	44.9	-79.5	0.0
2025-01-25 13:07:39.223668	244.9	45.0	-79.3	0.0
2025-01-25 13:07:40.346869	245.5	45.1	-79.4	0.0
2025-01-25 13:07:41.470591	246.1	45.1	-79.6	0.0
2025-01-25 13:07:42.594435	246.7	45.2	-79.3	0.0
2025-01-25 13:07:43.715919	247.3	45.3	-78.9	0.0
2025-01-25 13:07:44.839452	247.9	45.4	-79.4	0.0
2025-01-25 13:07:45.962678	248.6	45.5	-79.6	0.0
2025-01-25 13:07:47.086538	249.2	45.5	-79.5	0.0
2025-01-25 13:07:48.208154	249.8	45.6	-79.3	0.0
2025-01-25 13:07:49.330261	250.4	45.7	-79.0	0.0
2025-01-25 13:07:50.452129	251.1	45.7	-79.2	0.0
2025-01-25 13:07:51.577925	251.7	45.8	-78.9	0.0
2025-01-25 13:07:52.702389	252.3	45.8	-79.1	0.0
2025-01-25 13:07:53.827589	253.0	45.9	-79.2	0.0
2025-01-25 13:07:54.951100	253.6	45.9	-79.0	0.0
2025-01-25 13:07:56.074305	254.2	46.0	-79.3	0.0
2025-01-25 13:07:57.194283	254.9	46.0	-79.3	0.0
2025-01-25 13:07:58.317045	255.5	46.1	-79.3	0.0
2025-01-25 13:07:59.440942	256.2	46.1	-79.0	0.0
2025-01-25 13:08:00.563697	256.8	46.1	-79.1	0.0
2025-01-25 13:08:01.687135	257.5	46.1	-79.3	0.0
2025-01-25 13:08:02.809059	258.1	46.2	-79.5	0.0
2025-01-25 13:08:03.929908	258.7	46.2	-79.5	0.0
2025-01-25 13:08:05.053815	259.4	46.2	-79.1	0.0
2025-01-25 13:08:06.177494	260.0	46.2	-79.0	0.0
2025-01-25 13:08:07.299026	260.7	46.2	-78.9	0.0
2025-01-25 13:08:08.420851	261.3	46.2	-79.6	0.0
2025-01-25 13:08:09.542914	262.0	46.2	-79.2	0.0
2025-01-25 13:08:10.666632	262.6	46.2	-78.6	0.0
2025-01-25 13:08:11.788706	263.3	46.2	-79.3	0.0
2025-01-25 13:08:12.913184	263.9	46.1	-78.8	0.0
2025-01-25 13:08:14.036225	264.6	46.1	-78.6	0.0
2025-01-25 13:08:15.156592	265.2	46.1	-79.1	0.0
2025-01-25 13:08:16.281188	265.9	46.1	-79.1	0.0
2025-01-25 13:08:17.402218	266.5	46.0	-79.3	0.0
2025-01-25 13:08:18.525148	267.1	46.0	-79.1	0.0
2025-01-25 13:08:19.649109	267.8	46.0	-78.9	0.0
2025-01-25 13:08:20.772470	268.4	45.9	-78.8	0.0
2025-01-25 13:08:21.893716	269.1	45.9	-78.5	0.0
2025-01-25 13:08:23.018393	269.7	45.8	-79.0	0.0
2025-01-25 13:08:24.140102	270.3	45.8	-79.2	0.0
2025-01-25 13:08:25.261641	271.0	45.7	-78.7	0.0
2025-01-25 13:08:26.384132	271.6	45.6	-78.7	0.0
2025-01-25 13:08:27.508355	272.2	45.6	-79.2	0.0
2025-01-25 13:08:28.631227	272.8	45.5	-78.5	0.0
2025-01-25 13:08:29.753788	273.4	45.4	-78.7	0.0
2025-01-25 13:08:30.875852	274.1	45.4	-78.7	0.0
2025-01-25 13:08:31.996436	274.7	45.3	-78.8	0.0
2025-01-25 13:08:33.118644	275.3	45.2	-79.2	0.0
2025-01-25 13:08:34.241861	275.9	45.1	-79.2	0.0
2025-01-25 13:08:35.365805	276.5	45.0	-79.2	0.0
2025-01-25 13:08:36.486463	277.1	44.9	-78.6	0.0
2025-01-25 13:08:37.608539	277.7	44.8	-79.2	0.0
2025-01-25 13:08:38.730034	278.3	44.7	-79.0	0.0
2025-01-25 13:08:39.853335	278.9	44.6	-78.6	0.0
2025-01-25 13:08:40.974629	279.5	44.5	-79.1	0.0
2025-01-25 13:08:42.096238	280.0	44.4	-78.9	0.0
2025-01-25 13:08:43.218643	280.6	44.3	-79.2	0.0
2025-01-25 13:08:44.341289	281.2	44.2	-79.4	0.0
2025-01-25 13:08:45.463121	281.8	44.1	-79.2	0.0
2025-01-25 13:08:46.584831	282.3	44.0	-79.1	0.0
2025-01-25 13:08:47.706125	282.9	43.8	-79.5	0.0
2025-01-25 13:08:48.829925	283.4	43.7	-79.1	0.0
2025-01-25 13:08:49.950707	284.0	43.6	-78.5	0.0
2025-01-25 13:08:51.076375	284.5	43.5	-79.0	0.0
2025-01-25 13:08:52.197974	285.1	43.3	-79.3	0.0
2025-01-25 13:08:53.319970	285.6	43.2	-79.3	0.0
2025-01-25 13:08:54.441665	286.2	43.1	-78.9	0.0
2025-01-25 13:08:55.562678	286.7	42.9	-79.3	0.0
2025-01-25 13:08:56.685323	287.2	42.8	-79.1	0.0
2025-01-25 13:08:57.808801	287.7	42.6	-79.6	0.0
2025-01-25 13:08:58.930279	288.2	42.5	-79.4	0.0
2025-01-25 13:09:00.054170	288.8	42.3	-78.5	0.0
2025-01-25 13:09:01.177082	289.3	42.2	-78.8	0.0
2025-01-25 13:09:02.298859	289.8	42.1	-79.2	0.0
2025-01-25 13:09:03.422160	290.3	41.9	-79.4	0.0
2025-01-25 13:09:04.543969	290.8	41.7	-79.1	0.0
2025-01-25 13:09:05.667655	291.2	41.6	-79.3	0.0
2025-01-25 13:09:06.790215	291.7	41.4	-80.0	0.0
2025-01-25 13:09:07.914677	292.2	41.3	-79.2	0.0
2025-01-25 13:09:09.037930	292.7	41.1	-79.2	0.0
2025-01-25 13:09:10.160679	293.2	41.0	-78.8	0.0
2025-01-25 13:09:11.284027	293.6	40.8	-79.4	0.0
2025-01-25 13:09:12.407241	294.1	40.6	-79.3	0.0
2025-01-25 13:09:13.530908	294.5	40.5	-79.5	0.0
2025-01-25 13:09:14.653367	295.0	40.3	-79.6	0.0
2025-01-25 13:09:15.774143	295.4	40.1	-79.5	0.0
2025-01-25 13:09:16.896493	295.9	40.0	-79.7	0.0
2025-01-25 13:09:18.017678	296.3	39.8	-79.6	0.0
2025-01-25 13:09:19.142962	296.8	39.6	-80.0	0.0
2025-01-25 13:09:20.266911	297.2	39.4	-78.8	0.0
2025-01-25 13:09:21.389290	297.6	39.3	-78.9	0.0
2025-01-25 13:09:22.514394	298.0	39.1	-78.8	0.0
2025-01-25 13:09:23.638295	298.4	38.9	-79.5	0.0
2025-01-25 13:09:24.761421	298.9	38.8	-79.9	0.0
2025-01-25 13:09:25.884068	299.3	38.6	-79.4	0.0
2025-01-25 13:09:27.007841	299.7	38.4	-79.2	0.0
2025-01-25 13:09:28.129758	300.1	38.2	-79.6	0.0
2025-01-25 13:09:29.251908	300.5	38.1	-79.5	0.0
2025-01-25 13:09:30.374850	300.8	37.9	-78.9	0.0
2025-01-25 13:09:31.499334	301.2	37.7	-79.2	0.0
2025-01-25 13:09:32.623294	301.6	37.5	-79.1	0.0
2025-01-25 13:09:33.745510	302.0	37.3	-79.4	0.0
2025-01-25 13:09:34.869033	302.4	37.2	-79.2	0.0
2025-01-25 13:09:35.991565	302.7	37.0	-79.3	0.0
2025-01-25 13:09:37.114853	303.1	36.8	-79.5	0.0
2025-01-25 13:09:38.238332	303.5	36.6	-79.1	0.0
2025-01-25 13:09:39.361436	303.8	36.4	-79.0	0.0
2025-01-25 13:09:40.486223	304.2	36.3	-78.7	0.0
2025-01-25 13:09:41.607870	304.5	36.1	-78.5	0.0
2025-01-25 13:09:42.731303	304.9	35.9	-78.6	0.0
2025-01-25 13:09:43.854650	305.2	35.7	-79.5	0.0
2025-01-25 13:09:44.979603	305.5	35.5	-79.4	0.0
2025-01-25 13:09:46.101320	305.9	35.4	-79.3	0.0
2025-01-25 13:09:47.222701	306.2	35.2	-79.5	0.0
2025-01-25 13:09:48.348921	306.5	35.0	-79.6	0.0
2025-01-25 13:09:49.471219	306.9	34.8	-79.3	0.0
2025-01-25 13:09:50.593114	307.2	34.6	-78.8	0.0
2025-01-25 13:09:51.717285	307.5	34.4	-79.4	0.0
2025-01-25 13:09:52.838454	307.8	34.3	-78.9	0.0
2025-01-25 13:09:53.961588	308.1	34.1	-78.8	0.0
2025-01-25 13:09:55.085943	308.4	33.9	-79.1	0.0
2025-01-25 13:09:56.208070	308.7	33.7	-79.1	0.0
2025-01-25 13:09:57.330407	309.0	33.5	-79.8	0.0
2025-01-25 13:09:58.452527	309.3	33.4	-78.7	0.0
2025-01-25 13:09:59.575634	309.6	33.2	-78.9	0.0
2025-01-25 13:10:00.701363	309.9	33.0	-79.0	0.0
2025-01-25 13:10:01.824157	310.2	32.8	-79.5	0.0
2025-01-25 13:10:02.946637	310.5	32.7	-79.4	0.0
2025-01-25 13:10:04.071298	310.7	32.5	-78.8	0.0
2025-01-25 13:10:05.192977	311.0	32.3	-79.8	0.0
2025-01-25 13:10:06.315979	311.3	32.1	-79.1	0.0
2025-01-25 13:10:07.440196	311.6	31.9	-79.3	0.0
2025-01-25 13:10:08.562682	311.8	31.8	-79.7	0.0
2025-01-25 13:10:09.684990	312.1	31.6	-79.0	0.0
2025-01-25 13:10:10.809875	312.4	31.4	-78.5	0.0
2025-01-25 13:10:11.933502	312.6	31.2	-78.8	0.0
2025-01-25 13:10:13.054270	312.9	31.1	-78.9	0.0
2025-01-25 13:10:14.178038	313.1	30.9	-79.2	0.0
2025-01-25 13:10:15.300940	313.4	30.7	-79.7	0.0
2025-01-25 13:10:16.424381	313.6	30.5	-79.1	0.0
2025-01-25 13:10:17.546978	313.9	30.4	-79.4	0.0
2025-01-25 13:10:18.670005	314.1	30.2	-79.6	0.0
2025-01-25 13:10:19.793427	314.4	30.0	-79.5	0.0
2025-01-25 13:10:20.916543	314.6	29.8	-79.6	0.0
2025-01-25 13:10:22.040850	314.9	29.7	-79.4	0.0
2025-01-25 13:10:23.162520	315.1	29.5	-79.5	0.0
2025-01-25 13:10:24.287280	315.3	29.3	-79.9	0.0
2025-01-25 13:10:25.411401	315.5	29.2	-79.3	0.0
2025-01-25 13:10:26.534485	315.8	29.0	-79.2	0.0
2025-01-25 13:10:27.656625	316.0	28.8	-79.9	0.0
2025-01-25 13:10:28.779447	316.2	28.7	-79.9	0.0
2025-01-25 13:10:29.901239	316.4	28.5	-79.5	0.0
2025-01-25 13:10:31.026105	316.7	28.3	-79.9	0.0
2025-01-25 13:10:32.150412	316.9	28.2	-79.8	0.0
2025-01-25 13:10:33.272532	317.1	28.0	-80.1	0.0
2025-01-25 13:10:34.394769	317.3	27.8	-79.8	0.0
2025-01-25 13:10:35.518876	317.5	27.7	-79.9	0.0
2025-01-25 13:10:36.645133	317.7	27.5	-79.5	0.0
2025-01-25 13:10:37.766584	317.9	27.3	-79.6	0.0
2025-01-25 13:10:38.887853	318.1	27.2	-79.6	0.0
2025-01-25 13:10:40.009180	318.3	27.0	-79.4	0.0
2025-01-25 13:10:41.131919	318.5	26.9	-79.3	0.0
2025-01-25 13:10:42.255602	318.7	26.7	-78.9	0.0
2025-01-25 13:10:43.379954	318.9	26.5	-79.0	0.0
2025-01-25 13:10:44.503042	319.1	26.4	-78.2	0.0
2025-01-25 13:10:45.625697	319.3	26.2	-78.8	0.0
2025-01-25 13:10:46.747042	319.5	26.1	-78.5	0.0
2025-01-25 13:10:47.870889	319.7	25.9	-78.9	0.0
2025-01-25 13:10:48.992176	319.9	25.7	-79.3	0.0
2025-01-25 13:10:50.114435	320.0	25.6	-79.2	0.0
2025-01-25 13:10:51.237378	320.2	25.4	-78.7	0.0
2025-01-25 13:10:52.359933	320.4	25.3	-78.6	0.0
2025-01-25 13:10:53.483252	320.6	25.1	-78.6	0.0
2025-01-25 13:10:54.605122	320.8	25.0	-78.8	0.0
2025-01-25 13:10:55.728020	320.9	24.8	-78.6	0.0
2025-01-25 13:10:56.849863	321.1	24.7	-79.4	0.0
2025-01-25 13:10:57.971266	321.3	24.5	-78.6	0.0
2025-01-25 13:10:59.094424	321.5	24.4	-79.5	0.0
2025-01-25 13:11:00.218399	321.6	24.2	-79.7	0.0
2025-01-25 13:11:01.342536	321.8	24.1	-79.6	0.0
2025-01-25 13:11:02.463001	322.0	23.9	-79.2	0.0
2025-01-25 13:11:03.584697	322.1	23.8	-79.6	0.0
2025-01-25 13:11:04.706480	322.3	23.6	-78.9	0.0
2025-01-25 13:11:05.828218	322.4	23.5	-79.0	0.0
2025-01-25 13:11:06.950821	322.6	23.3	-79.0	0.0
2025-01-25 13:11:08.073827	322.8	23.2	-78.6	0.0
2025-01-25 13:11:09.194765	322.9	23.0	-79.4	0.0
2025-01-25 13:11:10.318172	323.1	22.9	-78.3	0.0
2025-01-25 13:11:11.440976	323.2	22.7	-78.2	0.0
2025-01-25 13:11:12.563134	323.4	22.6	-78.1	0.0
2025-01-25 13:11:13.685625	323.5	22.5	-77.8	0.0
2025-01-25 13:11:14.808818	323.7	22.3	-78.6	0.0
2025-01-25 13:11:15.931547	323.8	22.2	-78.8	0.0
2025-01-25 13:11:17.055510	324.0	22.0	-79.2	0.0
2025-01-25 13:11:18.177356	324.1	21.9	-78.4	0.0
2025-01-25 13:11:19.302192	324.3	21.7	-79.1	0.0
2025-01-25 13:11:20.425594	324.4	21.6	-77.9	0.0
2025-01-25 13:11:21.546862	324.6	21.5	-79.0	0.0
2025-01-25 13:11:22.670556	324.7	21.3	-78.7	0.0
2025-01-25 13:11:23.792555	324.8	21.2	-78.6	0.0
2025-01-25 13:11:24.915268	325.0	21.1	-78.9	0.0
2025-01-25 13:11:26.038641	325.1	20.9	-78.6	0.0
2025-01-25 13:11:27.160687	325.2	20.8	-78.8	0.0
2025-01-25 13:11:28.283690	325.4	20.6	-78.2	0.0
2025-01-25 13:11:29.407360	325.5	20.5	-78.6	0.0
2025-01-25 13:11:30.530543	325.7	20.4	-78.5	0.0
2025-01-25 13:11:31.654107	325.8	20.2	-78.9	0.0
2025-01-25 13:11:32.776000	325.9	20.1	-78.6	0.0
2025-01-25 13:11:33.900812	326.0	20.0	-78.3	0.0
2025-01-25 13:11:35.025323	326.2	19.8	-78.9	0.0
2025-01-25 13:11:36.149716	326.3	19.7	-79.1	0.0
2025-01-25 13:11:37.272509	326.4	19.6	-78.4	0.0
2025-01-25 13:11:38.392993	326.6	19.5	-78.3	0.0
2025-01-25 13:11:39.517142	326.7	19.3	-78.8	0.0
2025-01-25 13:11:40.638367	326.8	19.2	-78.2	0.0
2025-01-25 13:11:41.762119	326.9	19.1	-78.5	0.0
2025-01-25 13:11:42.885406	327.0	18.9	-78.5	0.0
2025-01-25 13:11:44.008919	327.2	18.8	-78.8	0.0
2025-01-25 13:11:45.129993	327.3	18.7	-78.8	0.0
2025-01-25 13:11:46.254335	327.4	18.6	-79.3	0.0
2025-01-25 13:11:47.376132	327.5	18.4	-79.2	0.0
2025-01-25 13:11:48.500035	327.6	18.3	-79.0	0.0
2025-01-25 13:11:49.623645	327.8	18.2	-78.2	0.0
2025-01-25 13:11:50.745212	327.9	18.1	-78.8	0.0
2025-01-25 13:11:51.868839	328.0	17.9	-78.9	0.0
2025-01-25 13:11:52.990108	328.1	17.8	-78.8	0.0
2025-01-25 13:11:54.113436	328.2	17.7	-79.3	0.0
2025-01-25 13:11:55.236112	328.3	17.6	-79.3	0.0
2025-01-25 13:11:56.358257	328.4	17.5	-78.5	0.0
2025-01-25 13:11:57.481055	328.5	17.3	-79.4	0.0
2025-01-25 13:11:58.603549	328.6	17.2	-79.0	0.0
2025-01-25 13:11:59.724208	328.8	17.1	-78.9	0.0
2025-01-25 13:12:00.845600	328.9	17.0	-78.8	0.0
2025-01-25 13:12:01.969261	329.0	16.9	-79.1	0.0
2025-01-25 13:12:03.091122	329.1	16.7	-79.6	0.0
2025-01-25 13:12:04.213591	329.2	16.6	-79.0	0.0
2025-01-25 13:12:05.336414	329.3	16.5	-79.1	0.0
2025-01-25 13:12:06.460016	329.4	16.4	-78.5	0.0
2025-01-25 13:12:07.582956	329.5	16.3	-78.9	0.0
2025-01-25 13:12:08.707008	329.6	16.1	-78.9	0.0
2025-01-25 13:12:09.827808	329.7	16.0	-79.5	0.0
2025-01-25 13:12:10.949422	329.8	15.9	-78.7	0.0
2025-01-25 13:12:12.074906	329.9	15.8	-78.6	0.0
2025-01-25 13:12:13.198774	330.0	15.7	-78.8	0.0
2025-01-25 13:12:14.322597	330.1	15.6	-79.0	0.0
2025-01-25 13:12:15.443389	330.2	15.5	-78.5	0.0
2025-01-25 13:12:16.563873	330.3	15.4	-78.9	0.0
2025-01-25 13:12:17.686881	330.4	15.2	-79.0	0.0
2025-01-25 13:12:18.809274	330.5	15.1	-78.5	0.0
2025-01-25 13:12:19.932461	330.6	15.0	-79.3	0.0
2025-01-25 13:12:21.054284	330.7	14.9	-78.9	0.0
2025-01-25 13:12:22.178848	330.7	14.8	-78.7	0.0
2025-01-25 13:12:23.300922	330.8	14.7	-79.3	0.0
2025-01-25 13:12:24.423383	330.9	14.6	-79.4	0.0
2025-01-25 13:12:25.548110	331.0	14.5	-79.0	0.0
2025-01-25 13:12:26.669532	331.1	14.4	-78.7	0.0
2025-01-25 13:12:27.794729	331.2	14.2	-79.1	0.0
2025-01-25 13:12:28.919629	331.3	14.1	-78.9	0.0
2025-01-25 13:12:30.042643	331.4	14.0	-78.7	0.0
2025-01-25 13:12:31.165516	331.5	13.9	-78.9	0.0
2025-01-25 13:12:32.287591	331.6	13.8	-78.8	0.0
2025-01-25 13:12:33.407532	331.6	13.7	-79.2	0.0
2025-01-25 13:12:34.529512	331.7	13.6	-78.7	0.0
2025-01-25 13:12:35.652466	331.8	13.5	-78.6	0.0
2025-01-25 13:12:36.776243	331.9	13.4	-78.9	0.0
2025-01-25 13:12:37.899661	332.0	13.3	-78.1	0.0
2025-01-25 13:12:39.021685	332.1	13.2	-79.5	0.0
2025-01-25 13:12:40.144770	332.1	13.1	-79.4	0.0
2025-01-25 13:12:41.266565	332.2	13.0	-78.8	0.0
2025-01-25 13:12:42.389776	332.3	12.9	-79.2	0.0
2025-01-25 13:12:43.512034	332.4	12.8	-79.2	0.0
2025-01-25 13:12:44.635619	332.5	12.7	-79.0	0.0
2025-01-25 13:12:45.760395	332.6	12.6	-79.4	0.0
2025-01-25 13:12:46.884349	332.6	12.5	-79.4	0.0
2025-01-25 13:12:48.009608	332.7	12.4	-78.9	0.0
2025-01-25 13:12:49.133490	332.8	12.3	-79.1	0.0
2025-01-25 13:12:50.258105	332.9	12.2	-79.3	0.0
2025-01-25 13:12:51.379050	333.0	12.1	-79.4	0.0
2025-01-25 13:12:52.500208	333.0	12.0	-79.2	0.0
2025-01-25 13:12:53.622582	333.1	11.9	-79.1	0.0
2025-01-25 13:12:54.744074	333.2	11.8	-79.5	0.0
2025-01-25 13:12:55.866711	333.3	11.7	-79.1	0.0
2025-01-25 13:12:56.989106	333.3	11.6	-79.5	0.0
2025-01-25 13:12:58.113408	333.4	11.5	-78.7	0.0
2025-01-25 13:12:59.236613	333.5	11.4	-79.3	0.0
2025-01-25 13:13:00.357174	333.6	11.3	-79.1	0.0
2025-01-25 13:13:01.480162	333.6	11.2	-79.4	0.0
2025-01-25 13:13:02.602029	333.7	11.1	-79.4	0.0
2025-01-25 13:13:03.724573	333.8	11.0	-79.0	0.0
2025-01-25 13:13:04.849190	333.9	10.9	-78.7	0.0
2025-01-25 13:13:05.970466	333.9	10.8	-79.1	0.0
2025-01-25 13:13:07.093810	334.0	10.7	-79.2	0.0
2025-01-25 13:13:08.218164	334.1	10.6	-79.6	0.0
2025-01-25 13:13:09.342276	334.1	10.5	-79.0	0.0
2025-01-25 13:13:10.464650	334.2	10.4	-79.0	0.0
2025-01-25 13:13:11.589548	334.3	10.3	-79.3	0.0
2025-01-25 13:13:12.710615	334.3	10.2	-79.2	0.0
2025-01-25 13:13:13.831352	334.4	10.1	-78.8	0.0
2025-01-25 13:13:14.955604	334.5	10.1	-79.1	0.0
#Closed at: 2025-01-25 13:02:57.001359