passes_logs/2025/01/25/planumMaritime01/planumMaritime01__20250125_175811_METOP-B_rec.log

#Pass ID: 20250125_175811_METOP-B
#Satellite: METOP-B
#Configuration: METOP-B
#Start time: 2025-01-25 17:58:16.855524

#LorettStation: 1.0.0 05.05.2024
#Station: planumMaritime01
#Location: 37.49445 lon 55.92918 lat
#TLE: 1 38771U 12049A   25024.75604810  .00000390  00000+0  19820-3 0  9990
#TLE: 2 38771  98.5996  82.6623 0001581  70.5177 289.6171 14.21417781641026

#Time	Az	El	Level	SNR
2025-01-25 17:58:19.019104	168.4	10.2	-76.0	2.4
2025-01-25 17:58:20.142239	168.4	10.3	-75.6	2.5
2025-01-25 17:58:21.265622	168.4	10.4	-76.0	1.8
2025-01-25 17:58:22.388980	168.4	10.5	-76.0	2.2
2025-01-25 17:58:23.514847	168.4	10.6	-75.8	3.9
2025-01-25 17:58:24.636767	168.5	10.7	-76.4	2.2
2025-01-25 17:58:25.761533	168.5	10.8	-76.2	3.0
2025-01-25 17:58:26.883407	168.5	10.9	-75.4	2.9
2025-01-25 17:58:28.005806	168.5	11.0	-76.6	1.6
2025-01-25 17:58:29.126928	168.6	11.1	-75.7	4.0
2025-01-25 17:58:30.250624	168.6	11.2	-76.0	3.0
2025-01-25 17:58:31.375074	168.6	11.3	-76.2	4.0
2025-01-25 17:58:32.497841	168.6	11.4	-76.1	3.0
2025-01-25 17:58:33.624024	168.6	11.5	-75.7	4.6
2025-01-25 17:58:34.747219	168.7	11.6	-76.4	2.9
2025-01-25 17:58:35.871762	168.7	11.7	-75.8	4.8
2025-01-25 17:58:36.997570	168.7	11.8	-75.7	4.2
2025-01-25 17:58:38.119610	168.7	11.9	-76.3	3.3
2025-01-25 17:58:39.244830	168.8	12.0	-75.4	4.5
2025-01-25 17:58:40.365965	168.8	12.1	-76.2	3.4
2025-01-25 17:58:41.487801	168.8	12.2	-75.8	3.8
2025-01-25 17:58:42.613234	168.8	12.4	-75.6	4.9
2025-01-25 17:58:43.735492	168.8	12.5	-76.5	2.3
2025-01-25 17:58:44.858645	168.9	12.6	-76.0	3.7
2025-01-25 17:58:45.982232	168.9	12.7	-75.9	3.7
2025-01-25 17:58:47.104720	168.9	12.8	-76.2	3.1
2025-01-25 17:58:48.228648	168.9	12.9	-75.8	3.6
2025-01-25 17:58:49.354588	169.0	13.0	-76.1	2.8
2025-01-25 17:58:50.477955	169.0	13.1	-75.9	3.5
2025-01-25 17:58:51.601883	169.0	13.2	-76.1	4.2
2025-01-25 17:58:52.724733	169.0	13.3	-76.0	3.3
2025-01-25 17:58:53.849612	169.1	13.5	-75.8	4.7
2025-01-25 17:58:54.972362	169.1	13.6	-76.1	2.6
2025-01-25 17:58:56.094042	169.1	13.7	-76.0	4.3
2025-01-25 17:58:57.217002	169.1	13.8	-75.7	4.5
2025-01-25 17:58:58.338242	169.2	13.9	-76.3	3.6
2025-01-25 17:58:59.461697	169.2	14.0	-76.1	4.1
2025-01-25 17:59:00.583510	169.2	14.1	-76.0	4.5
2025-01-25 17:59:01.705709	169.2	14.3	-76.2	3.8
2025-01-25 17:59:02.830144	169.3	14.4	-76.0	4.2
2025-01-25 17:59:03.954208	169.3	14.5	-76.6	3.0
2025-01-25 17:59:05.075668	169.3	14.6	-76.2	3.4
2025-01-25 17:59:06.199092	169.4	14.7	-76.2	3.2
2025-01-25 17:59:07.322456	169.4	14.9	-76.4	3.1
2025-01-25 17:59:08.445734	169.4	15.0	-76.0	2.7
2025-01-25 17:59:09.567387	169.4	15.1	-76.5	3.8
2025-01-25 17:59:10.689824	169.5	15.2	-76.1	4.0
2025-01-25 17:59:11.814473	169.5	15.3	-76.0	3.8
2025-01-25 17:59:12.938976	169.5	15.5	-76.1	4.3
2025-01-25 17:59:14.059953	169.5	15.6	-76.3	3.5
2025-01-25 17:59:15.182714	169.6	15.7	-76.2	3.8
2025-01-25 17:59:16.305550	169.6	15.8	-76.2	3.7
2025-01-25 17:59:17.427858	169.6	16.0	-76.3	4.1
2025-01-25 17:59:18.550853	169.7	16.1	-76.5	3.4
2025-01-25 17:59:19.674544	169.7	16.2	-76.5	3.8
2025-01-25 17:59:20.796168	169.7	16.3	-76.8	3.2
2025-01-25 17:59:21.919636	169.7	16.5	-76.5	3.2
2025-01-25 17:59:23.044388	169.8	16.6	-75.9	3.8
2025-01-25 17:59:24.167530	169.8	16.7	-76.5	3.3
2025-01-25 17:59:25.290023	169.8	16.8	-76.1	4.3
2025-01-25 17:59:26.414739	169.9	17.0	-76.2	3.8
2025-01-25 17:59:27.536138	169.9	17.1	-76.5	3.8
2025-01-25 17:59:28.658165	169.9	17.2	-76.3	3.7
2025-01-25 17:59:29.780401	170.0	17.4	-76.3	3.8
2025-01-25 17:59:30.903647	170.0	17.5	-76.4	3.1
2025-01-25 17:59:32.028207	170.0	17.6	-76.5	3.3
2025-01-25 17:59:33.150855	170.1	17.8	-76.8	3.7
2025-01-25 17:59:34.272426	170.1	17.9	-76.8	2.7
2025-01-25 17:59:35.394041	170.1	18.0	-76.5	3.0
2025-01-25 17:59:36.516416	170.2	18.2	-76.5	3.2
2025-01-25 17:59:37.640837	170.2	18.3	-76.7	2.8
2025-01-25 17:59:38.764768	170.2	18.5	-76.4	3.8
2025-01-25 17:59:39.888223	170.3	18.6	-76.6	3.5
2025-01-25 17:59:41.012443	170.3	18.7	-76.6	4.0
2025-01-25 17:59:42.136639	170.3	18.9	-76.8	2.8
2025-01-25 17:59:43.258846	170.4	19.0	-77.0	2.6
2025-01-25 17:59:44.380743	170.4	19.2	-77.0	2.5
2025-01-25 17:59:45.503956	170.4	19.3	-77.1	0.5
2025-01-25 17:59:46.626350	170.5	19.4	-77.4	0.0
2025-01-25 17:59:47.749777	170.5	19.6	-77.0	0.0
2025-01-25 17:59:48.872837	170.5	19.7	-77.3	0.8
2025-01-25 17:59:49.996858	170.6	19.9	-77.3	0.7
2025-01-25 17:59:51.119704	170.6	20.0	-77.3	0.6
2025-01-25 17:59:52.242306	170.6	20.2	-77.0	1.0
2025-01-25 17:59:53.365623	170.7	20.3	-77.1	1.3
2025-01-25 17:59:54.490963	170.7	20.5	-77.4	0.0
2025-01-25 17:59:55.614317	170.8	20.6	-77.1	0.0
2025-01-25 17:59:56.738890	170.8	20.8	-77.2	0.1
2025-01-25 17:59:57.861878	170.8	20.9	-77.6	0.1
2025-01-25 17:59:58.986413	170.9	21.1	-77.1	0.0
2025-01-25 18:00:00.111232	170.9	21.2	-77.3	0.0
2025-01-25 18:00:01.235676	171.0	21.4	-77.2	0.0
2025-01-25 18:00:02.358459	171.0	21.5	-77.2	0.0
2025-01-25 18:00:03.480522	171.0	21.7	-77.0	1.5
2025-01-25 18:00:04.604462	171.1	21.9	-76.8	0.1
2025-01-25 18:00:05.726727	171.1	22.0	-77.1	0.0
2025-01-25 18:00:06.850429	171.2	22.2	-76.5	0.0
2025-01-25 18:00:07.974599	171.2	22.3	-77.0	1.1
2025-01-25 18:00:09.096023	171.2	22.5	-77.1	0.5
2025-01-25 18:00:10.219337	171.3	22.7	-77.0	2.6
2025-01-25 18:00:11.342453	171.3	22.8	-76.5	2.8
2025-01-25 18:00:12.465832	171.4	23.0	-76.9	4.0
2025-01-25 18:00:13.587070	171.4	23.2	-77.4	3.1
2025-01-25 18:00:14.710963	171.5	23.3	-77.2	2.8
2025-01-25 18:00:15.834348	171.5	23.5	-77.3	2.4
2025-01-25 18:00:16.959503	171.5	23.7	-77.4	1.3
2025-01-25 18:00:18.081531	171.6	23.8	-77.6	2.4
2025-01-25 18:00:19.205178	171.6	24.0	-76.9	0.0
2025-01-25 18:00:20.328817	171.7	24.2	-77.0	2.4
2025-01-25 18:00:21.453944	171.7	24.4	-76.9	3.1
2025-01-25 18:00:22.576982	171.8	24.5	-77.0	2.1
2025-01-25 18:00:23.702048	171.8	24.7	-77.1	1.5
2025-01-25 18:00:24.826201	171.9	24.9	-77.6	0.0
2025-01-25 18:00:25.951256	171.9	25.1	-77.9	0.0
2025-01-25 18:00:27.074319	172.0	25.2	-77.8	0.0
2025-01-25 18:00:28.197296	172.0	25.4	-77.7	0.0
2025-01-25 18:00:29.320224	172.1	25.6	-77.6	0.0
2025-01-25 18:00:30.445911	172.1	25.8	-77.8	0.0
2025-01-25 18:00:31.567338	172.2	26.0	-77.7	0.0
2025-01-25 18:00:32.691123	172.2	26.2	-78.3	0.0
2025-01-25 18:00:33.815479	172.3	26.4	-78.2	0.0
2025-01-25 18:00:34.938470	172.3	26.5	-78.0	0.0
2025-01-25 18:00:36.061403	172.4	26.7	-78.2	0.0
2025-01-25 18:00:37.185135	172.5	26.9	-78.7	0.0
2025-01-25 18:00:38.307257	172.5	27.1	-78.6	0.0
2025-01-25 18:00:39.431116	172.6	27.3	-79.2	0.0
2025-01-25 18:00:40.554251	172.6	27.5	-79.0	0.0
2025-01-25 18:00:41.676925	172.7	27.7	-79.0	0.0
2025-01-25 18:00:42.799331	172.7	27.9	-78.4	0.0
2025-01-25 18:00:43.922109	172.8	28.1	-78.6	0.0
2025-01-25 18:00:45.044341	172.9	28.3	-78.7	0.0
2025-01-25 18:00:46.167173	172.9	28.5	-78.6	0.0
2025-01-25 18:00:47.288116	173.0	28.7	-78.5	0.0
2025-01-25 18:00:48.412324	173.0	28.9	-78.9	0.0
2025-01-25 18:00:49.535690	173.1	29.1	-78.9	0.0
2025-01-25 18:00:50.658371	173.2	29.3	-79.0	0.0
2025-01-25 18:00:51.782649	173.2	29.5	-78.9	0.0
2025-01-25 18:00:52.905414	173.3	29.7	-78.6	0.0
2025-01-25 18:00:54.028328	173.4	30.0	-78.8	0.0
2025-01-25 18:00:55.151618	173.4	30.2	-79.0	0.0
2025-01-25 18:00:56.275404	173.5	30.4	-78.8	0.0
2025-01-25 18:00:57.397338	173.6	30.6	-79.0	0.0
2025-01-25 18:00:58.520198	173.6	30.8	-79.0	0.0
2025-01-25 18:00:59.642320	173.7	31.0	-79.0	0.0
2025-01-25 18:01:00.763169	173.8	31.3	-77.8	0.0
2025-01-25 18:01:01.886175	173.8	31.5	-78.6	0.0
2025-01-25 18:01:03.006880	173.9	31.7	-79.1	0.0
2025-01-25 18:01:04.129928	174.0	31.9	-79.0	0.0
2025-01-25 18:01:05.252367	174.1	32.2	-79.3	0.0
2025-01-25 18:01:06.377427	174.1	32.4	-78.9	0.0
2025-01-25 18:01:07.501818	174.2	32.6	-79.1	0.0
2025-01-25 18:01:08.625427	174.3	32.9	-79.1	0.0
2025-01-25 18:01:09.748552	174.4	33.1	-78.9	0.0
2025-01-25 18:01:10.872893	174.4	33.4	-78.9	0.0
2025-01-25 18:01:11.995057	174.5	33.6	-78.6	0.0
2025-01-25 18:01:13.121182	174.6	33.8	-78.9	0.0
2025-01-25 18:01:14.244870	174.7	34.1	-79.0	0.0
2025-01-25 18:01:15.368374	174.8	34.3	-78.6	0.0
2025-01-25 18:01:16.491244	174.9	34.6	-78.5	0.0
2025-01-25 18:01:17.614337	175.0	34.8	-78.0	0.0
2025-01-25 18:01:18.738641	175.0	35.1	-78.5	0.0
2025-01-25 18:01:19.862007	175.1	35.3	-77.9	0.0
2025-01-25 18:01:20.986135	175.2	35.6	-78.0	0.0
2025-01-25 18:01:22.107713	175.3	35.8	-77.9	0.0
2025-01-25 18:01:23.226351	175.4	36.1	-77.9	0.0
2025-01-25 18:01:24.349348	175.5	36.4	-78.5	0.0
2025-01-25 18:01:25.473675	175.6	36.6	-78.4	0.0
2025-01-25 18:01:26.598005	175.7	36.9	-78.3	0.0
2025-01-25 18:01:27.721786	175.8	37.2	-78.3	0.0
2025-01-25 18:01:28.845429	175.9	37.4	-78.9	0.0
2025-01-25 18:01:29.967813	176.0	37.7	-78.5	0.0
2025-01-25 18:01:31.089974	176.1	38.0	-78.7	0.0
2025-01-25 18:01:32.214226	176.2	38.2	-78.7	0.0
2025-01-25 18:01:33.338899	176.3	38.5	-78.8	0.0
2025-01-25 18:01:34.460878	176.4	38.8	-78.9	0.0
2025-01-25 18:01:35.586346	176.5	39.1	-78.7	0.0
2025-01-25 18:01:36.709987	176.7	39.4	-78.6	0.0
2025-01-25 18:01:37.832937	176.8	39.7	-78.5	0.0
2025-01-25 18:01:38.956344	176.9	39.9	-78.1	0.0
2025-01-25 18:01:40.080218	177.0	40.2	-78.1	0.0
2025-01-25 18:01:41.203667	177.1	40.5	-78.4	0.0
2025-01-25 18:01:42.326364	177.3	40.8	-78.0	0.0
2025-01-25 18:01:43.451397	177.4	41.1	-78.5	0.0
2025-01-25 18:01:44.573466	177.5	41.4	-78.7	0.0
2025-01-25 18:01:45.696486	177.6	41.7	-78.3	0.0
2025-01-25 18:01:46.819391	177.8	42.0	-78.2	0.0
2025-01-25 18:01:47.942591	177.9	42.3	-78.1	0.0
2025-01-25 18:01:49.065834	178.0	42.7	-78.1	0.0
2025-01-25 18:01:50.188136	178.2	43.0	-78.3	0.0
2025-01-25 18:01:51.311219	178.3	43.3	-78.2	0.0
2025-01-25 18:01:52.433377	178.5	43.6	-78.2	0.0
2025-01-25 18:01:53.555767	178.6	43.9	-77.4	0.0
2025-01-25 18:01:54.682402	178.8	44.2	-78.2	0.0
2025-01-25 18:01:55.804990	178.9	44.6	-77.9	0.0
2025-01-25 18:01:56.928571	179.1	44.9	-77.7	0.0
2025-01-25 18:01:58.051589	179.3	45.2	-78.5	0.0
2025-01-25 18:01:59.174186	179.4	45.6	-78.6	0.0
2025-01-25 18:02:00.296340	179.6	45.9	-78.7	0.0
2025-01-25 18:02:01.420493	179.8	46.2	-79.0	0.0
2025-01-25 18:02:02.543039	179.9	46.6	-78.7	0.0
2025-01-25 18:02:03.665783	180.1	46.9	-78.8	0.0
2025-01-25 18:02:04.788875	180.3	47.3	-78.8	0.0
2025-01-25 18:02:05.911540	180.5	47.6	-78.2	0.0
2025-01-25 18:02:07.032274	180.7	48.0	-78.5	0.0
2025-01-25 18:02:08.154260	180.9	48.3	-77.8	0.0
2025-01-25 18:02:09.277411	181.1	48.7	-78.0	0.0
2025-01-25 18:02:10.399149	181.3	49.0	-78.4	0.0
2025-01-25 18:02:11.522537	181.5	49.4	-78.1	0.0
2025-01-25 18:02:12.645916	181.7	49.7	-78.4	0.0
2025-01-25 18:02:13.767056	181.9	50.1	-78.5	0.0
2025-01-25 18:02:14.889297	182.1	50.5	-78.7	0.0
2025-01-25 18:02:16.014504	182.4	50.8	-78.7	0.0
2025-01-25 18:02:17.138787	182.6	51.2	-78.8	0.0
2025-01-25 18:02:18.261341	182.8	51.6	-78.5	0.0
2025-01-25 18:02:19.385309	183.1	52.0	-79.1	0.0
2025-01-25 18:02:20.507058	183.4	52.3	-79.2	0.0
2025-01-25 18:02:21.630707	183.6	52.7	-78.8	0.0
2025-01-25 18:02:22.751839	183.9	53.1	-78.6	0.0
2025-01-25 18:02:23.875651	184.2	53.5	-79.1	0.0
2025-01-25 18:02:24.998148	184.4	53.9	-79.0	0.0
2025-01-25 18:02:26.123536	184.7	54.3	-78.9	0.0
2025-01-25 18:02:27.247232	185.0	54.7	-78.3	0.0
2025-01-25 18:02:28.369794	185.3	55.1	-78.0	0.0
2025-01-25 18:02:29.493384	185.6	55.5	-78.1	0.0
2025-01-25 18:02:30.619229	186.0	55.9	-78.7	0.0
2025-01-25 18:02:31.743676	186.3	56.3	-78.9	0.0
2025-01-25 18:02:32.865654	186.6	56.7	-79.0	0.0
2025-01-25 18:02:33.989791	187.0	57.1	-78.9	0.0
2025-01-25 18:02:35.114053	187.3	57.5	-78.0	0.0
2025-01-25 18:02:36.237560	187.7	57.9	-79.4	0.0
2025-01-25 18:02:37.362488	188.1	58.3	-78.9	0.0
2025-01-25 18:02:38.484493	188.5	58.7	-79.6	0.0
2025-01-25 18:02:39.605032	188.9	59.1	-79.3	0.0
2025-01-25 18:02:40.727693	189.3	59.6	-78.8	0.0
2025-01-25 18:02:41.852428	189.8	60.0	-78.5	0.0
2025-01-25 18:02:42.975829	190.2	60.4	-78.6	0.0
2025-01-25 18:02:44.098254	190.7	60.8	-78.9	0.0
2025-01-25 18:02:45.223027	191.2	61.2	-78.8	0.0
2025-01-25 18:02:46.347289	191.7	61.7	-78.7	0.0
2025-01-25 18:02:47.471373	192.2	62.1	-79.1	0.0
2025-01-25 18:02:48.593173	192.7	62.5	-78.9	0.0
2025-01-25 18:02:49.716624	193.3	62.9	-79.0	0.0
2025-01-25 18:02:50.839411	193.8	63.4	-79.1	0.0
2025-01-25 18:02:51.963296	194.4	63.8	-78.7	0.0
2025-01-25 18:02:53.085702	195.0	64.2	-78.7	0.0
2025-01-25 18:02:54.210823	195.7	64.6	-78.6	0.0
2025-01-25 18:02:55.335540	196.3	65.1	-78.9	0.0
2025-01-25 18:02:56.460833	197.0	65.5	-78.9	0.0
2025-01-25 18:02:57.583535	197.7	65.9	-78.6	0.0
2025-01-25 18:02:58.707703	198.5	66.3	-78.9	0.0
2025-01-25 18:02:59.829517	199.2	66.7	-78.8	0.0
2025-01-25 18:03:00.952821	200.0	67.2	-78.7	0.0
2025-01-25 18:03:02.077004	200.9	67.6	-79.0	0.0
2025-01-25 18:03:03.198435	201.7	68.0	-78.7	0.0
2025-01-25 18:03:04.321360	202.6	68.4	-78.9	0.0
2025-01-25 18:03:05.443757	203.6	68.8	-78.9	0.0
2025-01-25 18:03:06.565382	204.6	69.2	-78.5	0.0
2025-01-25 18:03:07.688471	205.6	69.6	-78.7	0.0
2025-01-25 18:03:08.812303	206.6	70.0	-79.1	0.0
2025-01-25 18:03:09.934468	207.7	70.4	-79.1	0.0
2025-01-25 18:03:11.057087	208.9	70.8	-79.3	0.0
2025-01-25 18:03:12.182468	210.1	71.2	-78.8	0.0
2025-01-25 18:03:13.302920	211.4	71.5	-79.0	0.0
2025-01-25 18:03:14.427271	212.7	71.9	-79.1	0.0
2025-01-25 18:03:15.550047	214.0	72.2	-79.1	0.0
2025-01-25 18:03:16.674313	215.5	72.6	-79.0	0.0
2025-01-25 18:03:17.795791	216.9	72.9	-78.8	0.0
2025-01-25 18:03:18.918439	218.5	73.3	-78.9	0.0
2025-01-25 18:03:20.041467	220.1	73.6	-79.2	0.0
2025-01-25 18:03:21.163276	221.8	73.9	-78.9	0.0
2025-01-25 18:03:22.287867	223.5	74.2	-78.8	0.0
2025-01-25 18:03:23.412172	225.3	74.4	-78.8	0.0
2025-01-25 18:03:24.535388	227.2	74.7	-78.9	0.0
2025-01-25 18:03:25.659525	229.1	75.0	-78.8	0.0
2025-01-25 18:03:26.783178	231.1	75.2	-79.1	0.0
2025-01-25 18:03:27.907303	233.2	75.4	-79.3	0.0
2025-01-25 18:03:29.029987	235.3	75.6	-79.2	0.0
2025-01-25 18:03:30.153196	237.5	75.8	-79.3	0.0
2025-01-25 18:03:31.276366	239.8	75.9	-78.9	0.0
2025-01-25 18:03:32.400666	242.0	76.1	-79.0	0.0
2025-01-25 18:03:33.523825	244.4	76.2	-78.9	0.0
2025-01-25 18:03:34.645560	246.7	76.3	-79.2	0.0
2025-01-25 18:03:35.769646	249.1	76.3	-79.1	0.0
2025-01-25 18:03:36.894096	251.5	76.4	-79.1	0.0
2025-01-25 18:03:38.016415	253.9	76.4	-79.5	0.0
2025-01-25 18:03:39.139247	256.4	76.4	-79.3	0.0
2025-01-25 18:03:40.262973	258.8	76.4	-79.4	0.0
2025-01-25 18:03:41.386558	261.2	76.3	-79.2	0.0
2025-01-25 18:03:42.509567	263.6	76.2	-79.5	0.0
2025-01-25 18:03:43.632528	265.9	76.1	-79.4	0.0
2025-01-25 18:03:44.754828	268.2	76.0	-79.6	0.0
2025-01-25 18:03:45.877458	270.5	75.9	-79.3	0.0
2025-01-25 18:03:47.002860	272.7	75.7	-78.9	0.0
2025-01-25 18:03:48.127603	274.9	75.5	-78.5	0.0
2025-01-25 18:03:49.249827	277.0	75.3	-79.5	0.0
2025-01-25 18:03:50.373841	279.0	75.1	-79.2	0.0
2025-01-25 18:03:51.496752	281.0	74.9	-78.6	0.0
2025-01-25 18:03:52.621040	283.0	74.6	-79.0	0.0
2025-01-25 18:03:53.744863	284.8	74.4	-79.0	0.0
2025-01-25 18:03:54.867773	286.6	74.1	-78.9	0.0
2025-01-25 18:03:55.991121	288.3	73.8	-79.4	0.0
2025-01-25 18:03:57.116076	290.0	73.5	-79.2	0.0
2025-01-25 18:03:58.237404	291.6	73.2	-79.1	0.0
2025-01-25 18:03:59.359936	293.1	72.8	-78.9	0.0
2025-01-25 18:04:00.483674	294.6	72.5	-79.2	0.0
2025-01-25 18:04:01.606055	296.0	72.2	-79.1	0.0
2025-01-25 18:04:02.727404	297.3	71.8	-79.2	0.0
2025-01-25 18:04:03.851278	298.6	71.4	-79.1	0.0
2025-01-25 18:04:04.975895	299.9	71.1	-79.1	0.0
2025-01-25 18:04:06.096556	301.0	70.7	-79.5	0.0
2025-01-25 18:04:07.220426	302.2	70.3	-79.3	0.0
2025-01-25 18:04:08.342783	303.3	69.9	-79.1	0.0
2025-01-25 18:04:09.464773	304.3	69.5	-79.4	0.0
2025-01-25 18:04:10.589227	305.3	69.1	-78.8	0.0
2025-01-25 18:04:11.712189	306.3	68.7	-79.2	0.0
2025-01-25 18:04:12.835307	307.2	68.3	-79.0	0.0
2025-01-25 18:04:13.955287	308.1	67.9	-78.5	0.0
2025-01-25 18:04:15.076135	309.0	67.5	-79.4	0.0
2025-01-25 18:04:16.197945	309.8	67.1	-79.3	0.0
2025-01-25 18:04:17.321929	310.6	66.6	-79.1	0.0
2025-01-25 18:04:18.445573	311.3	66.2	-78.9	0.0
2025-01-25 18:04:19.570523	312.1	65.8	-78.8	0.0
2025-01-25 18:04:20.693792	312.8	65.4	-79.3	0.0
2025-01-25 18:04:21.817991	313.5	65.0	-78.5	0.0
2025-01-25 18:04:22.941489	314.1	64.5	-79.1	0.0
2025-01-25 18:04:24.064187	314.7	64.1	-79.0	0.0
2025-01-25 18:04:25.187120	315.3	63.7	-78.9	0.0
2025-01-25 18:04:26.311225	315.9	63.3	-79.2	0.0
2025-01-25 18:04:27.432663	316.5	62.8	-79.2	0.0
2025-01-25 18:04:28.556093	317.0	62.4	-79.1	0.0
2025-01-25 18:04:29.679262	317.6	62.0	-79.3	0.0
2025-01-25 18:04:30.801773	318.1	61.6	-79.6	0.0
2025-01-25 18:04:31.925302	318.6	61.2	-79.3	0.0
2025-01-25 18:04:33.047298	319.0	60.7	-79.6	0.0
2025-01-25 18:04:34.168922	319.5	60.3	-79.3	0.0
2025-01-25 18:04:35.291753	320.0	59.9	-79.2	0.0
2025-01-25 18:04:36.413524	320.4	59.5	-79.4	0.0
2025-01-25 18:04:37.535270	320.8	59.1	-79.3	0.0
2025-01-25 18:04:38.658106	321.2	58.7	-79.0	0.0
2025-01-25 18:04:39.781146	321.6	58.3	-78.9	0.0
2025-01-25 18:04:40.903225	322.0	57.8	-79.2	0.0
2025-01-25 18:04:42.025298	322.4	57.4	-79.2	0.0
2025-01-25 18:04:43.148498	322.7	57.0	-79.4	0.0
2025-01-25 18:04:44.272316	323.1	56.6	-79.3	0.0
2025-01-25 18:04:45.396063	323.4	56.2	-79.2	0.0
2025-01-25 18:04:46.518865	323.7	55.8	-79.2	0.0
2025-01-25 18:04:47.642661	324.1	55.4	-79.2	0.0
2025-01-25 18:04:48.767087	324.4	55.0	-79.1	0.0
2025-01-25 18:04:49.891703	324.7	54.6	-79.0	0.0
2025-01-25 18:04:51.014417	325.0	54.2	-78.6	0.0
2025-01-25 18:04:52.136887	325.2	53.8	-79.2	0.0
2025-01-25 18:04:53.260959	325.5	53.5	-78.7	0.0
2025-01-25 18:04:54.385650	325.8	53.1	-78.7	0.0
2025-01-25 18:04:55.510379	326.1	52.7	-79.0	0.0
2025-01-25 18:04:56.632404	326.3	52.3	-79.0	0.0
2025-01-25 18:04:57.756800	326.6	51.9	-79.4	0.0
2025-01-25 18:04:58.878849	326.8	51.6	-79.2	0.0
2025-01-25 18:05:00.001232	327.1	51.2	-79.1	0.0
2025-01-25 18:05:01.123523	327.3	50.8	-79.2	0.0
2025-01-25 18:05:02.244879	327.5	50.4	-79.1	0.0
2025-01-25 18:05:03.367893	327.7	50.1	-79.3	0.0
2025-01-25 18:05:04.491647	328.0	49.7	-79.4	0.0
2025-01-25 18:05:05.614230	328.2	49.4	-79.0	0.0
2025-01-25 18:05:06.737464	328.4	49.0	-79.1	0.0
2025-01-25 18:05:07.860458	328.6	48.6	-79.1	0.0
2025-01-25 18:05:08.981819	328.8	48.3	-78.9	0.0
2025-01-25 18:05:10.105771	329.0	47.9	-79.3	0.0
2025-01-25 18:05:11.226526	329.2	47.6	-78.8	0.0
2025-01-25 18:05:12.348271	329.4	47.2	-78.6	0.0
2025-01-25 18:05:13.471677	329.5	46.9	-79.0	0.0
2025-01-25 18:05:14.593937	329.7	46.6	-79.0	0.0
2025-01-25 18:05:15.717345	329.9	46.2	-79.0	0.0
2025-01-25 18:05:16.840650	330.1	45.9	-79.0	0.0
2025-01-25 18:05:17.962836	330.2	45.6	-79.2	0.0
2025-01-25 18:05:19.086232	330.4	45.2	-79.2	0.0
2025-01-25 18:05:20.209634	330.6	44.9	-79.3	0.0
2025-01-25 18:05:21.333643	330.7	44.6	-79.3	0.0
2025-01-25 18:05:22.456777	330.9	44.3	-79.4	0.0
2025-01-25 18:05:23.579923	331.0	43.9	-79.4	0.0
2025-01-25 18:05:24.704371	331.2	43.6	-79.1	0.0
2025-01-25 18:05:25.827186	331.3	43.3	-79.2	0.0
2025-01-25 18:05:26.950701	331.5	43.0	-79.0	0.0
2025-01-25 18:05:28.073636	331.6	42.7	-79.3	0.0
2025-01-25 18:05:29.197720	331.7	42.4	-78.9	0.0
2025-01-25 18:05:30.323100	331.9	42.1	-79.2	0.0
2025-01-25 18:05:31.446394	332.0	41.8	-79.2	0.0
2025-01-25 18:05:32.569707	332.1	41.5	-79.3	0.0
2025-01-25 18:05:33.693077	332.3	41.2	-79.3	0.0
2025-01-25 18:05:34.817923	332.4	40.9	-79.3	0.0
2025-01-25 18:05:35.942046	332.5	40.6	-78.9	0.0
2025-01-25 18:05:37.064621	332.6	40.3	-78.9	0.0
2025-01-25 18:05:38.185656	332.8	40.0	-79.1	0.0
2025-01-25 18:05:39.307823	332.9	39.7	-79.0	0.0
2025-01-25 18:05:40.430602	333.0	39.4	-79.1	0.0
2025-01-25 18:05:41.555704	333.1	39.1	-79.2	0.0
2025-01-25 18:05:42.679020	333.2	38.8	-79.1	0.0
2025-01-25 18:05:43.800728	333.3	38.6	-79.3	0.0
2025-01-25 18:05:44.924002	333.4	38.3	-79.4	0.0
2025-01-25 18:05:46.047831	333.5	38.0	-79.1	0.0
2025-01-25 18:05:47.173584	333.6	37.7	-79.5	0.0
2025-01-25 18:05:48.297475	333.7	37.5	-79.1	0.0
2025-01-25 18:05:49.420882	333.9	37.2	-79.2	0.0
2025-01-25 18:05:50.542520	334.0	36.9	-77.8	0.0
2025-01-25 18:05:51.666436	334.0	36.7	-79.3	0.0
2025-01-25 18:05:52.789996	334.1	36.4	-78.7	0.0
2025-01-25 18:05:53.913287	334.2	36.2	-79.2	0.0
2025-01-25 18:05:55.035759	334.3	35.9	-79.5	0.0
2025-01-25 18:05:56.158916	334.4	35.6	-79.4	0.0
2025-01-25 18:05:57.281186	334.5	35.4	-78.9	0.0
2025-01-25 18:05:58.404493	334.6	35.1	-79.3	0.0
2025-01-25 18:05:59.527053	334.7	34.9	-79.5	0.0
2025-01-25 18:06:00.649659	334.8	34.6	-79.4	0.0
2025-01-25 18:06:01.769810	334.9	34.4	-79.3	0.0
2025-01-25 18:06:02.891321	335.0	34.1	-79.5	0.0
2025-01-25 18:06:04.014527	335.0	33.9	-79.8	0.0
2025-01-25 18:06:05.136540	335.1	33.7	-79.3	0.0
2025-01-25 18:06:06.257982	335.2	33.4	-79.3	0.0
2025-01-25 18:06:07.379825	335.3	33.2	-79.3	0.0
2025-01-25 18:06:08.502313	335.4	33.0	-79.2	0.0
2025-01-25 18:06:09.624026	335.4	32.7	-79.3	0.0
2025-01-25 18:06:10.747506	335.5	32.5	-79.3	0.0
2025-01-25 18:06:11.868648	335.6	32.3	-79.2	0.0
2025-01-25 18:06:12.991520	335.7	32.0	-79.4	0.0
2025-01-25 18:06:14.116196	335.7	31.8	-79.5	0.0
2025-01-25 18:06:15.238594	335.8	31.6	-79.3	0.0
2025-01-25 18:06:16.360085	335.9	31.4	-79.0	0.0
2025-01-25 18:06:17.481414	336.0	31.1	-79.3	0.0
2025-01-25 18:06:18.602693	336.0	30.9	-79.3	0.0
2025-01-25 18:06:19.724598	336.1	30.7	-79.3	0.0
2025-01-25 18:06:20.848996	336.2	30.5	-79.4	0.0
2025-01-25 18:06:21.969113	336.2	30.3	-79.1	0.0
2025-01-25 18:06:23.090375	336.3	30.1	-79.5	0.0
2025-01-25 18:06:24.214681	336.4	29.8	-79.1	0.0
2025-01-25 18:06:25.338096	336.4	29.6	-79.4	0.0
2025-01-25 18:06:26.459298	336.5	29.4	-79.5	0.0
2025-01-25 18:06:27.583044	336.6	29.2	-79.5	0.0
2025-01-25 18:06:28.705701	336.6	29.0	-79.7	0.0
2025-01-25 18:06:29.827775	336.7	28.8	-79.6	0.0
2025-01-25 18:06:30.951171	336.7	28.6	-79.4	0.0
2025-01-25 18:06:32.073547	336.8	28.4	-79.6	0.0
2025-01-25 18:06:33.195981	336.9	28.2	-79.3	0.0
2025-01-25 18:06:34.317983	336.9	28.0	-79.5	0.0
2025-01-25 18:06:35.439377	337.0	27.8	-79.4	0.0
2025-01-25 18:06:36.562245	337.0	27.6	-79.6	0.0
2025-01-25 18:06:37.685573	337.1	27.4	-79.4	0.0
2025-01-25 18:06:38.809579	337.2	27.2	-79.3	0.0
2025-01-25 18:06:39.930214	337.2	27.0	-79.3	0.0
2025-01-25 18:06:41.054067	337.3	26.8	-79.5	0.0
2025-01-25 18:06:42.177151	337.3	26.7	-79.5	0.0
2025-01-25 18:06:43.300230	337.4	26.5	-79.5	0.0
2025-01-25 18:06:44.424286	337.4	26.3	-79.3	0.0
2025-01-25 18:06:45.547495	337.5	26.1	-79.3	0.0
2025-01-25 18:06:46.671117	337.5	25.9	-79.3	0.0
2025-01-25 18:06:47.793354	337.6	25.7	-79.5	0.0
2025-01-25 18:06:48.916212	337.6	25.5	-79.5	0.0
2025-01-25 18:06:50.039609	337.7	25.4	-78.1	0.0
2025-01-25 18:06:51.163066	337.7	25.2	-79.6	0.0
2025-01-25 18:06:52.285030	337.8	25.0	-78.9	0.0
2025-01-25 18:06:53.407556	337.8	24.8	-79.4	0.0
2025-01-25 18:06:54.529843	337.9	24.7	-79.2	0.0
2025-01-25 18:06:55.653278	337.9	24.5	-79.4	0.0
2025-01-25 18:06:56.776955	338.0	24.3	-79.6	0.0
2025-01-25 18:06:57.898876	338.0	24.1	-79.3	0.0
2025-01-25 18:06:59.022359	338.1	24.0	-79.4	0.0
2025-01-25 18:07:00.145682	338.1	23.8	-79.4	0.0
2025-01-25 18:07:01.267637	338.2	23.6	-79.7	0.0
2025-01-25 18:07:02.392006	338.2	23.5	-79.4	0.0
2025-01-25 18:07:03.514161	338.3	23.3	-79.5	0.0
2025-01-25 18:07:04.636440	338.3	23.1	-79.4	0.0
2025-01-25 18:07:05.760645	338.3	23.0	-79.5	0.0
2025-01-25 18:07:06.883311	338.4	22.8	-78.7	0.0
2025-01-25 18:07:08.006097	338.4	22.6	-79.6	0.0
2025-01-25 18:07:09.129640	338.5	22.5	-79.9	0.0
2025-01-25 18:07:10.253833	338.5	22.3	-79.0	0.0
2025-01-25 18:07:11.376946	338.6	22.2	-79.5	0.0
2025-01-25 18:07:12.500551	338.6	22.0	-78.9	0.0
2025-01-25 18:07:13.622939	338.6	21.8	-79.5	0.0
2025-01-25 18:07:14.748223	338.7	21.7	-80.1	0.0
2025-01-25 18:07:15.871312	338.7	21.5	-79.7	0.0
2025-01-25 18:07:16.994165	338.8	21.4	-79.5	0.0
2025-01-25 18:07:18.114831	338.8	21.2	-79.6	0.0
2025-01-25 18:07:19.236917	338.8	21.1	-79.4	0.0
2025-01-25 18:07:20.360402	338.9	20.9	-79.6	0.0
2025-01-25 18:07:21.485380	338.9	20.8	-79.5	0.0
2025-01-25 18:07:22.610231	339.0	20.6	-79.8	0.0
2025-01-25 18:07:23.733566	339.0	20.5	-80.0	0.0
2025-01-25 18:07:24.856814	339.0	20.3	-79.3	0.0
2025-01-25 18:07:25.979696	339.1	20.2	-79.7	0.0
2025-01-25 18:07:27.102395	339.1	20.0	-79.4	0.0
2025-01-25 18:07:28.226810	339.2	19.9	-79.5	0.0
2025-01-25 18:07:29.349824	339.2	19.7	-79.6	0.0
2025-01-25 18:07:30.471409	339.2	19.6	-79.7	0.0
2025-01-25 18:07:31.595198	339.3	19.5	-79.5	0.0
2025-01-25 18:07:32.718109	339.3	19.3	-79.4	0.0
2025-01-25 18:07:33.840530	339.3	19.2	-79.7	0.0
2025-01-25 18:07:34.963566	339.4	19.0	-79.4	0.0
2025-01-25 18:07:36.085708	339.4	18.9	-79.5	0.0
2025-01-25 18:07:37.207165	339.4	18.7	-79.3	0.0
2025-01-25 18:07:38.330638	339.5	18.6	-79.4	0.0
2025-01-25 18:07:39.453314	339.5	18.5	-79.2	0.0
2025-01-25 18:07:40.575741	339.5	18.3	-79.3	0.0
2025-01-25 18:07:41.701167	339.6	18.2	-79.2	0.0
2025-01-25 18:07:42.825068	339.6	18.1	-79.3	0.0
2025-01-25 18:07:43.948339	339.6	17.9	-79.5	0.0
2025-01-25 18:07:45.075819	339.7	17.8	-79.3	0.0
2025-01-25 18:07:46.198774	339.7	17.7	-79.3	0.0
2025-01-25 18:07:47.321557	339.7	17.5	-79.0	0.0
2025-01-25 18:07:48.443829	339.8	17.4	-78.7	0.0
2025-01-25 18:07:49.566542	339.8	17.3	-79.3	0.0
2025-01-25 18:07:50.689451	339.8	17.1	-78.5	0.0
2025-01-25 18:07:51.813306	339.9	17.0	-78.9	0.0
2025-01-25 18:07:52.939300	339.9	16.9	-78.9	0.0
2025-01-25 18:07:54.062034	339.9	16.8	-79.3	0.0
2025-01-25 18:07:55.185472	340.0	16.6	-79.0	0.0
2025-01-25 18:07:56.309630	340.0	16.5	-78.5	0.0
2025-01-25 18:07:57.433827	340.0	16.4	-79.4	0.0
2025-01-25 18:07:58.557792	340.0	16.2	-78.9	0.0
2025-01-25 18:07:59.680036	340.1	16.1	-79.4	0.0
2025-01-25 18:08:00.803979	340.1	16.0	-79.0	0.0
2025-01-25 18:08:01.927852	340.1	15.9	-79.2	0.0
2025-01-25 18:08:03.051834	340.2	15.7	-79.3	0.0
2025-01-25 18:08:04.175523	340.2	15.6	-79.6	0.0
2025-01-25 18:08:05.299168	340.2	15.5	-79.6	0.0
2025-01-25 18:08:06.420512	340.3	15.4	-79.3	0.0
2025-01-25 18:08:07.543196	340.3	15.3	-79.2	0.0
2025-01-25 18:08:08.665665	340.3	15.1	-79.7	0.0
2025-01-25 18:08:09.789537	340.3	15.0	-79.4	0.0
2025-01-25 18:08:10.912895	340.4	14.9	-79.0	0.0
2025-01-25 18:08:12.033093	340.4	14.8	-79.2	0.0
2025-01-25 18:08:13.155013	340.4	14.7	-78.9	0.0
2025-01-25 18:08:14.277446	340.4	14.6	-79.7	0.0
2025-01-25 18:08:15.399614	340.5	14.4	-79.1	0.0
2025-01-25 18:08:16.521698	340.5	14.3	-79.2	0.0
2025-01-25 18:08:17.644333	340.5	14.2	-79.1	0.0
2025-01-25 18:08:18.768736	340.6	14.1	-79.7	0.0
2025-01-25 18:08:19.892806	340.6	14.0	-78.5	0.0
2025-01-25 18:08:21.017799	340.6	13.9	-79.4	0.0
2025-01-25 18:08:22.144107	340.6	13.7	-79.7	0.0
2025-01-25 18:08:23.267369	340.7	13.6	-79.3	0.0
2025-01-25 18:08:24.390984	340.7	13.5	-79.7	0.0
2025-01-25 18:08:25.513787	340.7	13.4	-79.9	0.0
2025-01-25 18:08:26.637497	340.7	13.3	-79.6	0.0
2025-01-25 18:08:27.762146	340.8	13.2	-78.7	0.0
2025-01-25 18:08:28.884563	340.8	13.1	-78.9	0.0
2025-01-25 18:08:30.005982	340.8	13.0	-79.1	0.0
2025-01-25 18:08:31.128806	340.8	12.9	-79.6	0.0
2025-01-25 18:08:32.252889	340.9	12.8	-79.0	0.0
2025-01-25 18:08:33.375063	340.9	12.6	-79.4	0.0
2025-01-25 18:08:34.497038	340.9	12.5	-79.7	0.0
2025-01-25 18:08:35.619672	340.9	12.4	-78.7	0.0
2025-01-25 18:08:36.742100	341.0	12.3	-78.8	0.0
2025-01-25 18:08:37.866529	341.0	12.2	-79.3	0.0
2025-01-25 18:08:38.988785	341.0	12.1	-79.3	0.0
2025-01-25 18:08:40.112285	341.0	12.0	-79.9	0.0
2025-01-25 18:08:41.235167	341.1	11.9	-80.1	0.0
2025-01-25 18:08:42.358742	341.1	11.8	-79.3	0.0
2025-01-25 18:08:43.479659	341.1	11.7	-78.7	0.0
2025-01-25 18:08:44.601602	341.1	11.6	-78.8	0.0
2025-01-25 18:08:45.724833	341.1	11.5	-79.1	0.0
2025-01-25 18:08:46.847562	341.2	11.4	-79.6	0.0
2025-01-25 18:08:47.970766	341.2	11.3	-79.2	0.0
2025-01-25 18:08:49.092665	341.2	11.2	-79.5	0.0
2025-01-25 18:08:50.218879	341.2	11.1	-79.7	0.0
2025-01-25 18:08:51.342767	341.3	11.0	-79.3	0.0
2025-01-25 18:08:52.463213	341.3	10.9	-79.4	0.0
2025-01-25 18:08:53.588551	341.3	10.8	-79.4	0.0
2025-01-25 18:08:54.714768	341.3	10.7	-79.7	0.0
2025-01-25 18:08:55.837787	341.4	10.6	-79.0	0.0
2025-01-25 18:08:56.961451	341.4	10.5	-78.6	0.0
2025-01-25 18:08:58.085409	341.4	10.4	-78.6	0.0
2025-01-25 18:08:59.209213	341.4	10.3	-78.7	0.0
2025-01-25 18:09:00.332892	341.4	10.2	-78.6	0.0
2025-01-25 18:09:01.455533	341.5	10.1	-79.8	0.0
#Closed at: 2025-01-25 17:58:11.858258