passes_logs/2025/01/25/planumMaritime01/planumMaritime01__20250125_023445_METEOR-M2_4_rec.log

#Pass ID: 20250125_023445_METEOR-M2 4
#Satellite: METEOR-M2 4
#Configuration: METEOR-M2 4
#Start time: 2025-01-25 02:34:50.628833

#LorettStation: 1.0.0 05.05.2024
#Station: planumMaritime01
#Location: 37.49445 lon 55.92918 lat
#TLE: 1 59051U 24039A   25024.80620376  .00000158  00000+0  90320-4 0  9994
#TLE: 2 59051  98.6306 347.6099 0006657 193.6447 166.4552 14.22328660 46991

#Time	Az	El	Level	SNR
2025-01-25 02:34:52.801704	1.4	10.2	-77.6	0.0
2025-01-25 02:34:53.928312	1.3	10.2	-77.5	0.0
2025-01-25 02:34:55.049787	1.2	10.3	-77.6	0.0
2025-01-25 02:34:56.174258	1.1	10.4	-77.5	0.0
2025-01-25 02:34:57.296287	0.9	10.5	-77.3	0.0
2025-01-25 02:34:58.419576	0.8	10.6	-77.4	0.0
2025-01-25 02:34:59.540677	0.7	10.7	-77.8	0.0
2025-01-25 02:35:00.662336	0.6	10.7	-77.7	0.0
2025-01-25 02:35:01.784531	0.5	10.8	-77.6	0.0
2025-01-25 02:35:02.906112	0.4	10.9	-77.7	0.0
2025-01-25 02:35:04.030752	0.2	11.0	-77.6	0.0
2025-01-25 02:35:05.152461	0.1	11.1	-77.5	0.0
2025-01-25 02:35:06.272852	360.0	11.2	-77.7	0.0
2025-01-25 02:35:07.397017	359.9	11.2	-77.6	0.0
2025-01-25 02:35:08.519107	359.8	11.3	-77.4	0.0
2025-01-25 02:35:09.641208	359.6	11.4	-77.4	0.0
2025-01-25 02:35:10.763498	359.5	11.5	-77.5	0.0
2025-01-25 02:35:11.886370	359.4	11.6	-77.7	0.0
2025-01-25 02:35:13.011580	359.3	11.7	-77.4	0.0
2025-01-25 02:35:14.133655	359.1	11.7	-77.5	0.0
2025-01-25 02:35:15.257109	359.0	11.8	-77.3	0.0
2025-01-25 02:35:16.380834	358.9	11.9	-77.6	0.0
2025-01-25 02:35:17.502305	358.8	12.0	-77.6	0.0
2025-01-25 02:35:18.626760	358.6	12.1	-77.2	0.0
2025-01-25 02:35:19.748883	358.5	12.2	-77.3	0.0
2025-01-25 02:35:20.871632	358.4	12.3	-77.5	0.0
2025-01-25 02:35:21.994769	358.2	12.3	-77.4	0.0
2025-01-25 02:35:23.119272	358.1	12.4	-77.5	0.0
2025-01-25 02:35:24.242369	358.0	12.5	-77.1	0.0
2025-01-25 02:35:25.365292	357.8	12.6	-77.2	0.0
2025-01-25 02:35:26.489015	357.7	12.7	-77.3	0.0
2025-01-25 02:35:27.611646	357.6	12.8	-77.5	0.0
2025-01-25 02:35:28.733609	357.4	12.9	-77.2	0.0
2025-01-25 02:35:29.858248	357.3	12.9	-77.3	0.0
2025-01-25 02:35:30.982349	357.2	13.0	-77.1	0.0
2025-01-25 02:35:32.106367	357.0	13.1	-77.4	0.0
2025-01-25 02:35:33.229513	356.9	13.2	-77.6	0.0
2025-01-25 02:35:34.351016	356.7	13.3	-77.1	0.0
2025-01-25 02:35:35.474822	356.6	13.4	-77.2	0.0
2025-01-25 02:35:36.599375	356.5	13.5	-77.5	0.0
2025-01-25 02:35:37.721393	356.3	13.6	-77.3	0.0
2025-01-25 02:35:38.841957	356.2	13.6	-77.7	0.0
2025-01-25 02:35:39.961901	356.0	13.7	-77.4	0.0
2025-01-25 02:35:41.085736	355.9	13.8	-77.2	0.0
2025-01-25 02:35:42.208127	355.7	13.9	-77.3	0.0
2025-01-25 02:35:43.331480	355.6	14.0	-77.4	0.0
2025-01-25 02:35:44.453567	355.5	14.1	-77.5	0.0
2025-01-25 02:35:45.575102	355.3	14.2	-77.5	0.0
2025-01-25 02:35:46.697354	355.2	14.3	-77.5	0.0
2025-01-25 02:35:47.820299	355.0	14.4	-77.4	0.0
2025-01-25 02:35:48.942819	354.9	14.4	-77.2	0.0
2025-01-25 02:35:50.068152	354.7	14.5	-77.3	0.0
2025-01-25 02:35:51.193555	354.5	14.6	-77.2	0.0
2025-01-25 02:35:52.316262	354.4	14.7	-77.2	0.0
2025-01-25 02:35:53.438298	354.2	14.8	-77.3	0.0
2025-01-25 02:35:54.562390	354.1	14.9	-77.2	0.0
2025-01-25 02:35:55.682816	353.9	15.0	-77.6	0.0
2025-01-25 02:35:56.805745	353.8	15.1	-77.4	0.0
2025-01-25 02:35:57.928606	353.6	15.2	-77.2	0.0
2025-01-25 02:35:59.052679	353.4	15.3	-77.1	0.0
2025-01-25 02:36:00.174625	353.3	15.3	-76.7	0.0
2025-01-25 02:36:01.296288	353.1	15.4	-77.4	0.0
2025-01-25 02:36:02.417655	353.0	15.5	-77.1	0.0
2025-01-25 02:36:03.542989	352.8	15.6	-77.3	0.0
2025-01-25 02:36:04.665803	352.6	15.7	-77.4	0.0
2025-01-25 02:36:05.789243	352.5	15.8	-77.2	0.0
2025-01-25 02:36:06.914053	352.3	15.9	-77.5	0.0
2025-01-25 02:36:08.035738	352.1	16.0	-77.5	0.0
2025-01-25 02:36:09.159327	352.0	16.1	-77.4	0.0
2025-01-25 02:36:10.284748	351.8	16.2	-77.4	0.0
2025-01-25 02:36:11.406034	351.6	16.3	-77.4	0.0
2025-01-25 02:36:12.527442	351.4	16.3	-77.5	0.0
2025-01-25 02:36:13.651001	351.3	16.4	-77.2	0.0
2025-01-25 02:36:14.772647	351.1	16.5	-77.2	0.0
2025-01-25 02:36:15.897143	350.9	16.6	-77.4	0.0
2025-01-25 02:36:17.020057	350.7	16.7	-77.4	0.0
2025-01-25 02:36:18.141844	350.6	16.8	-77.3	0.0
2025-01-25 02:36:19.265254	350.4	16.9	-77.6	0.0
2025-01-25 02:36:20.387035	350.2	17.0	-77.5	0.0
2025-01-25 02:36:21.509286	350.0	17.1	-77.4	0.0
2025-01-25 02:36:22.631653	349.8	17.2	-77.4	0.0
2025-01-25 02:36:23.754015	349.7	17.3	-77.4	0.0
2025-01-25 02:36:24.875217	349.5	17.4	-77.5	0.0
2025-01-25 02:36:25.999241	349.3	17.5	-77.1	0.0
2025-01-25 02:36:27.122856	349.1	17.5	-77.5	0.0
2025-01-25 02:36:28.246515	348.9	17.6	-77.5	0.0
2025-01-25 02:36:29.369532	348.7	17.7	-77.6	0.0
2025-01-25 02:36:30.492674	348.5	17.8	-77.9	0.0
2025-01-25 02:36:31.616402	348.3	17.9	-77.4	0.0
2025-01-25 02:36:32.736889	348.2	18.0	-77.6	0.0
2025-01-25 02:36:33.858956	348.0	18.1	-77.6	0.0
2025-01-25 02:36:34.981314	347.8	18.2	-77.9	0.0
2025-01-25 02:36:36.105075	347.6	18.3	-77.4	0.0
2025-01-25 02:36:37.229348	347.4	18.4	-77.7	0.0
2025-01-25 02:36:38.352388	347.2	18.5	-77.8	0.0
2025-01-25 02:36:39.476797	347.0	18.6	-77.5	0.0
2025-01-25 02:36:40.601749	346.8	18.7	-77.9	0.0
2025-01-25 02:36:41.723414	346.6	18.7	-77.8	0.0
2025-01-25 02:36:42.845785	346.4	18.8	-77.5	0.0
2025-01-25 02:36:43.969700	346.2	18.9	-77.7	0.0
2025-01-25 02:36:45.092811	345.9	19.0	-77.8	0.0
2025-01-25 02:36:46.216623	345.7	19.1	-77.7	0.0
2025-01-25 02:36:47.338866	345.5	19.2	-77.7	0.0
2025-01-25 02:36:48.460359	345.3	19.3	-77.7	0.0
2025-01-25 02:36:49.583756	345.1	19.4	-77.9	0.0
2025-01-25 02:36:50.709194	344.9	19.5	-77.8	0.0
2025-01-25 02:36:51.831853	344.7	19.6	-77.7	0.0
2025-01-25 02:36:52.956753	344.5	19.7	-78.0	0.0
2025-01-25 02:36:54.079512	344.2	19.8	-77.6	0.0
2025-01-25 02:36:55.205155	344.0	19.9	-77.8	0.0
2025-01-25 02:36:56.328845	343.8	19.9	-77.8	0.0
2025-01-25 02:36:57.451878	343.6	20.0	-78.0	0.0
2025-01-25 02:36:58.574105	343.4	20.1	-77.7	0.0
2025-01-25 02:36:59.696770	343.1	20.2	-77.6	0.0
2025-01-25 02:37:00.820254	342.9	20.3	-77.8	0.0
2025-01-25 02:37:01.943936	342.7	20.4	-78.0	0.0
2025-01-25 02:37:03.065382	342.5	20.5	-77.8	0.0
2025-01-25 02:37:04.187688	342.2	20.6	-77.7	0.0
2025-01-25 02:37:05.310285	342.0	20.7	-77.9	0.0
2025-01-25 02:37:06.431868	341.8	20.8	-77.9	0.0
2025-01-25 02:37:07.555853	341.5	20.9	-77.4	0.0
2025-01-25 02:37:08.678885	341.3	20.9	-77.7	0.0
2025-01-25 02:37:09.800200	341.1	21.0	-78.0	0.0
2025-01-25 02:37:10.923140	340.8	21.1	-77.7	0.0
2025-01-25 02:37:12.043223	340.6	21.2	-77.9	0.0
2025-01-25 02:37:13.168230	340.3	21.3	-77.9	0.0
2025-01-25 02:37:14.290855	340.1	21.4	-77.9	0.0
2025-01-25 02:37:15.412999	339.9	21.5	-77.9	0.0
2025-01-25 02:37:16.534256	339.6	21.6	-77.9	0.0
2025-01-25 02:37:17.657370	339.4	21.7	-78.2	0.0
2025-01-25 02:37:18.779537	339.1	21.7	-77.9	0.0
2025-01-25 02:37:19.902379	338.9	21.8	-78.0	0.0
2025-01-25 02:37:21.024825	338.6	21.9	-78.1	0.0
2025-01-25 02:37:22.147896	338.4	22.0	-78.2	0.0
2025-01-25 02:37:23.268835	338.1	22.1	-78.2	0.0
2025-01-25 02:37:24.392399	337.9	22.2	-78.1	0.0
2025-01-25 02:37:25.514011	337.6	22.3	-78.3	0.0
2025-01-25 02:37:26.637494	337.3	22.4	-78.1	0.0
2025-01-25 02:37:27.761151	337.1	22.4	-78.3	0.0
2025-01-25 02:37:28.884000	336.8	22.5	-78.3	0.0
2025-01-25 02:37:30.007333	336.6	22.6	-78.2	0.0
2025-01-25 02:37:31.129186	336.3	22.7	-78.4	0.0
2025-01-25 02:37:32.251394	336.0	22.8	-78.2	0.0
2025-01-25 02:37:33.374980	335.8	22.9	-78.3	0.0
2025-01-25 02:37:34.497398	335.5	22.9	-78.3	0.0
2025-01-25 02:37:35.619306	335.2	23.0	-78.4	0.0
2025-01-25 02:37:36.741016	335.0	23.1	-78.5	0.0
2025-01-25 02:37:37.864585	334.7	23.2	-78.1	0.0
2025-01-25 02:37:38.986182	334.4	23.3	-78.3	0.0
2025-01-25 02:37:40.107222	334.1	23.4	-78.4	0.0
2025-01-25 02:37:41.229181	333.9	23.4	-78.4	0.0
2025-01-25 02:37:42.353715	333.6	23.5	-78.4	0.0
2025-01-25 02:37:43.477291	333.3	23.6	-78.4	0.0
2025-01-25 02:37:44.601164	333.0	23.7	-78.1	0.0
2025-01-25 02:37:45.723438	332.7	23.8	-78.5	0.0
2025-01-25 02:37:46.846895	332.5	23.8	-78.4	0.0
2025-01-25 02:37:47.968354	332.2	23.9	-78.5	0.0
2025-01-25 02:37:49.092023	331.9	24.0	-78.4	0.0
2025-01-25 02:37:50.213733	331.6	24.1	-78.5	0.0
2025-01-25 02:37:51.336742	331.3	24.1	-78.4	0.0
2025-01-25 02:37:52.459796	331.0	24.2	-78.3	0.0
2025-01-25 02:37:53.583002	330.7	24.3	-78.5	0.0
2025-01-25 02:37:54.706028	330.4	24.4	-78.5	0.0
2025-01-25 02:37:55.827892	330.1	24.4	-78.4	0.0
2025-01-25 02:37:56.953234	329.8	24.5	-78.4	0.0
2025-01-25 02:37:58.076785	329.5	24.6	-78.8	0.0
2025-01-25 02:37:59.197439	329.2	24.7	-78.7	0.0
2025-01-25 02:38:00.319770	328.9	24.7	-78.9	0.0
2025-01-25 02:38:01.442161	328.6	24.8	-78.7	0.0
2025-01-25 02:38:02.565948	328.3	24.9	-78.7	0.0
2025-01-25 02:38:03.687773	328.0	24.9	-78.6	0.0
2025-01-25 02:38:04.808547	327.7	25.0	-78.7	0.0
2025-01-25 02:38:05.930537	327.4	25.1	-78.8	0.0
2025-01-25 02:38:07.053600	327.1	25.1	-78.8	0.0
2025-01-25 02:38:08.174752	326.8	25.2	-78.6	0.0
2025-01-25 02:38:09.298541	326.5	25.3	-78.6	0.0
2025-01-25 02:38:10.424576	326.2	25.3	-78.7	0.0
2025-01-25 02:38:11.547830	325.8	25.4	-78.5	0.0
2025-01-25 02:38:12.671401	325.5	25.5	-78.6	0.0
2025-01-25 02:38:13.795845	325.2	25.5	-78.6	0.0
2025-01-25 02:38:14.917674	324.9	25.6	-78.8	0.0
2025-01-25 02:38:16.040987	324.6	25.7	-78.8	0.0
2025-01-25 02:38:17.162897	324.2	25.7	-78.8	0.0
2025-01-25 02:38:18.285724	323.9	25.8	-78.8	0.0
2025-01-25 02:38:19.407940	323.6	25.8	-78.9	0.0
2025-01-25 02:38:20.531216	323.3	25.9	-78.7	0.0
2025-01-25 02:38:21.653912	323.0	25.9	-78.7	0.0
2025-01-25 02:38:22.774540	322.6	26.0	-78.8	0.0
2025-01-25 02:38:23.900256	322.3	26.1	-78.8	0.0
2025-01-25 02:38:25.022344	322.0	26.1	-79.1	0.0
2025-01-25 02:38:26.145378	321.6	26.2	-78.7	0.0
2025-01-25 02:38:27.268757	321.3	26.2	-78.8	0.0
2025-01-25 02:38:28.393120	321.0	26.3	-78.8	0.0
2025-01-25 02:38:29.514847	320.6	26.3	-78.6	0.0
2025-01-25 02:38:30.637196	320.3	26.4	-78.9	0.0
2025-01-25 02:38:31.760095	320.0	26.4	-78.8	0.0
2025-01-25 02:38:32.882863	319.6	26.5	-79.0	0.0
2025-01-25 02:38:34.005673	319.3	26.5	-78.8	0.0
2025-01-25 02:38:35.130153	319.0	26.5	-79.0	0.0
2025-01-25 02:38:36.252406	318.6	26.6	-78.9	0.0
2025-01-25 02:38:37.376318	318.3	26.6	-79.0	0.0
2025-01-25 02:38:38.498934	317.9	26.7	-79.1	0.0
2025-01-25 02:38:39.622789	317.6	26.7	-78.9	0.0
2025-01-25 02:38:40.747033	317.2	26.8	-79.3	0.0
2025-01-25 02:38:41.870512	316.9	26.8	-79.1	0.0
2025-01-25 02:38:42.992805	316.6	26.8	-79.0	0.0
2025-01-25 02:38:44.116700	316.2	26.9	-79.0	0.0
2025-01-25 02:38:45.240309	315.9	26.9	-78.9	0.0
2025-01-25 02:38:46.363818	315.5	26.9	-79.1	0.0
2025-01-25 02:38:47.486804	315.2	27.0	-79.3	0.0
2025-01-25 02:38:48.609076	314.8	27.0	-79.3	0.0
2025-01-25 02:38:49.732356	314.5	27.0	-79.0	0.0
2025-01-25 02:38:50.855671	314.1	27.1	-79.0	0.0
2025-01-25 02:38:51.976409	313.8	27.1	-79.0	0.0
2025-01-25 02:38:53.101690	313.4	27.1	-79.3	0.0
2025-01-25 02:38:54.226261	313.1	27.1	-79.2	0.0
2025-01-25 02:38:55.349777	312.7	27.2	-79.1	0.0
2025-01-25 02:38:56.473596	312.3	27.2	-79.1	0.0
2025-01-25 02:38:57.598570	312.0	27.2	-79.0	0.0
2025-01-25 02:38:58.722308	311.6	27.2	-79.0	0.0
2025-01-25 02:38:59.845244	311.3	27.3	-79.1	0.0
2025-01-25 02:39:00.968050	310.9	27.3	-79.0	0.0
2025-01-25 02:39:02.090139	310.6	27.3	-79.0	0.0
2025-01-25 02:39:03.215062	310.2	27.3	-79.2	0.0
2025-01-25 02:39:04.338617	309.9	27.3	-79.3	0.0
2025-01-25 02:39:05.460593	309.5	27.3	-79.0	0.0
2025-01-25 02:39:06.584366	309.1	27.4	-79.2	0.0
2025-01-25 02:39:07.705622	308.8	27.4	-79.1	0.0
2025-01-25 02:39:08.829169	308.4	27.4	-79.4	0.0
2025-01-25 02:39:09.952089	308.1	27.4	-79.0	0.0
2025-01-25 02:39:11.074132	307.7	27.4	-79.2	0.0
2025-01-25 02:39:12.196680	307.4	27.4	-78.8	0.0
2025-01-25 02:39:13.319042	307.0	27.4	-79.1	0.0
2025-01-25 02:39:14.441741	306.6	27.4	-79.1	0.0
2025-01-25 02:39:15.564003	306.3	27.4	-79.1	0.0
2025-01-25 02:39:16.688637	305.9	27.4	-79.2	0.0
2025-01-25 02:39:17.811801	305.6	27.4	-79.3	0.0
2025-01-25 02:39:18.934973	305.2	27.4	-79.3	0.0
2025-01-25 02:39:20.060474	304.8	27.4	-79.4	0.0
2025-01-25 02:39:21.183264	304.5	27.4	-79.3	0.0
2025-01-25 02:39:22.305962	304.1	27.4	-78.9	0.0
2025-01-25 02:39:23.431154	303.8	27.4	-79.2	0.0
2025-01-25 02:39:24.553561	303.4	27.4	-79.2	0.0
2025-01-25 02:39:25.676299	303.0	27.4	-78.8	0.0
2025-01-25 02:39:26.800364	302.7	27.4	-78.9	0.0
2025-01-25 02:39:27.924089	302.3	27.4	-78.9	0.0
2025-01-25 02:39:29.047338	302.0	27.4	-79.0	0.0
2025-01-25 02:39:30.170708	301.6	27.3	-79.0	0.0
2025-01-25 02:39:31.295654	301.2	27.3	-79.2	0.0
2025-01-25 02:39:32.419714	300.9	27.3	-78.8	0.0
2025-01-25 02:39:33.541920	300.5	27.3	-79.2	0.0
2025-01-25 02:39:34.664588	300.2	27.3	-79.1	0.0
2025-01-25 02:39:35.787738	299.8	27.3	-78.8	0.0
2025-01-25 02:39:36.911410	299.5	27.2	-78.7	0.0
2025-01-25 02:39:38.034387	299.1	27.2	-79.0	0.0
2025-01-25 02:39:39.154854	298.8	27.2	-79.0	0.0
2025-01-25 02:39:40.278094	298.4	27.2	-79.2	0.0
2025-01-25 02:39:41.401861	298.0	27.1	-79.4	0.0
2025-01-25 02:39:42.524535	297.7	27.1	-79.2	0.0
2025-01-25 02:39:43.647366	297.3	27.1	-79.4	0.0
2025-01-25 02:39:44.772419	297.0	27.1	-79.4	0.0
2025-01-25 02:39:45.894890	296.6	27.0	-79.3	0.0
2025-01-25 02:39:47.016798	296.3	27.0	-79.1	0.0
2025-01-25 02:39:48.142771	295.9	27.0	-79.2	0.0
2025-01-25 02:39:49.265869	295.6	26.9	-79.3	0.0
2025-01-25 02:39:50.388986	295.2	26.9	-79.2	0.0
2025-01-25 02:39:51.511228	294.9	26.9	-79.4	0.0
2025-01-25 02:39:52.632777	294.5	26.8	-79.3	0.0
2025-01-25 02:39:53.755161	294.2	26.8	-79.1	0.0
2025-01-25 02:39:54.875436	293.9	26.7	-79.2	0.0
2025-01-25 02:39:55.997898	293.5	26.7	-79.2	0.0
2025-01-25 02:39:57.120573	293.2	26.7	-79.4	0.0
2025-01-25 02:39:58.242175	292.8	26.6	-79.1	0.0
2025-01-25 02:39:59.365554	292.5	26.6	-79.3	0.0
2025-01-25 02:40:00.489760	292.1	26.5	-79.2	0.0
2025-01-25 02:40:01.611223	291.8	26.5	-79.2	0.0
2025-01-25 02:40:02.735069	291.5	26.4	-79.3	0.0
2025-01-25 02:40:03.856690	291.1	26.4	-79.3	0.0
2025-01-25 02:40:04.980529	290.8	26.4	-79.2	0.0
2025-01-25 02:40:06.102125	290.5	26.3	-79.3	0.0
2025-01-25 02:40:07.225112	290.1	26.3	-79.3	0.0
2025-01-25 02:40:08.346921	289.8	26.2	-79.0	0.0
2025-01-25 02:40:09.469075	289.5	26.2	-79.2	0.0
2025-01-25 02:40:10.593205	289.1	26.1	-79.3	0.0
2025-01-25 02:40:11.714786	288.8	26.0	-79.1	0.0
2025-01-25 02:40:12.836964	288.5	26.0	-79.2	0.0
2025-01-25 02:40:13.958642	288.1	25.9	-79.4	0.0
2025-01-25 02:40:15.081935	287.8	25.9	-79.3	0.0
2025-01-25 02:40:16.205403	287.5	25.8	-79.3	0.0
2025-01-25 02:40:17.328927	287.2	25.8	-79.1	0.0
2025-01-25 02:40:18.454075	286.8	25.7	-79.4	0.0
2025-01-25 02:40:19.575204	286.5	25.6	-79.4	0.0
2025-01-25 02:40:20.698780	286.2	25.6	-79.3	0.0
2025-01-25 02:40:21.822396	285.9	25.5	-79.2	0.0
2025-01-25 02:40:22.943890	285.6	25.5	-79.4	0.0
2025-01-25 02:40:24.066681	285.2	25.4	-79.6	0.0
2025-01-25 02:40:25.189348	284.9	25.3	-79.0	0.0
2025-01-25 02:40:26.313278	284.6	25.3	-79.1	0.0
2025-01-25 02:40:27.437129	284.3	25.2	-79.2	0.0
2025-01-25 02:40:28.559266	284.0	25.1	-79.2	0.0
2025-01-25 02:40:29.682762	283.7	25.1	-79.1	0.0
2025-01-25 02:40:30.805894	283.4	25.0	-79.2	0.0
2025-01-25 02:40:31.927679	283.0	24.9	-79.1	0.0
2025-01-25 02:40:33.049449	282.7	24.9	-79.3	0.0
2025-01-25 02:40:34.172222	282.4	24.8	-79.2	0.0
2025-01-25 02:40:35.296304	282.1	24.7	-79.3	0.0
2025-01-25 02:40:36.419493	281.8	24.6	-79.3	0.0
2025-01-25 02:40:37.541380	281.5	24.6	-79.4	0.0
2025-01-25 02:40:38.666640	281.2	24.5	-79.2	0.0
2025-01-25 02:40:39.787903	280.9	24.4	-79.3	0.0
2025-01-25 02:40:40.909782	280.6	24.3	-79.3	0.0
2025-01-25 02:40:42.036786	280.3	24.3	-79.3	0.0
2025-01-25 02:40:43.157867	280.0	24.2	-79.1	0.0
2025-01-25 02:40:44.282500	279.8	24.1	-79.1	0.0
2025-01-25 02:40:45.404000	279.5	24.0	-79.4	0.0
2025-01-25 02:40:46.527798	279.2	24.0	-79.2	0.0
2025-01-25 02:40:47.650909	278.9	23.9	-79.1	0.0
2025-01-25 02:40:48.773257	278.6	23.8	-79.2	0.0
2025-01-25 02:40:49.897680	278.3	23.7	-79.2	0.0
2025-01-25 02:40:51.018916	278.0	23.7	-79.5	0.0
2025-01-25 02:40:52.142141	277.7	23.6	-79.1	0.0
2025-01-25 02:40:53.265854	277.5	23.5	-79.2	0.0
2025-01-25 02:40:54.387646	277.2	23.4	-79.0	0.0
2025-01-25 02:40:55.511039	276.9	23.3	-79.3	0.0
2025-01-25 02:40:56.634085	276.6	23.2	-79.3	0.0
2025-01-25 02:40:57.756953	276.3	23.2	-79.2	0.0
2025-01-25 02:40:58.879298	276.1	23.1	-79.5	0.0
2025-01-25 02:40:59.998958	275.8	23.0	-79.3	0.0
2025-01-25 02:41:01.123233	275.5	22.9	-79.3	0.0
2025-01-25 02:41:02.244549	275.3	22.8	-79.4	0.0
2025-01-25 02:41:03.369398	275.0	22.7	-79.4	0.0
2025-01-25 02:41:04.492811	274.7	22.7	-79.3	0.0
2025-01-25 02:41:05.616525	274.5	22.6	-79.5	0.0
2025-01-25 02:41:06.737065	274.2	22.5	-79.4	0.0
2025-01-25 02:41:07.860209	273.9	22.4	-79.0	0.0
2025-01-25 02:41:08.982043	273.7	22.3	-79.4	0.0
2025-01-25 02:41:10.106782	273.4	22.2	-79.5	0.0
2025-01-25 02:41:11.230244	273.2	22.1	-79.6	0.0
2025-01-25 02:41:12.352893	272.9	22.1	-79.7	0.0
2025-01-25 02:41:13.476131	272.6	22.0	-79.7	0.0
2025-01-25 02:41:14.600824	272.4	21.9	-79.6	0.0
2025-01-25 02:41:15.724946	272.1	21.8	-79.7	0.0
2025-01-25 02:41:16.845652	271.9	21.7	-79.4	0.0
2025-01-25 02:41:17.969079	271.6	21.6	-79.5	0.0
2025-01-25 02:41:19.093637	271.4	21.5	-79.4	0.0
2025-01-25 02:41:20.216866	271.1	21.4	-79.4	0.0
2025-01-25 02:41:21.338755	270.9	21.4	-79.4	0.0
2025-01-25 02:41:22.462504	270.7	21.3	-79.5	0.0
2025-01-25 02:41:23.585640	270.4	21.2	-79.4	0.0
2025-01-25 02:41:24.709919	270.2	21.1	-79.5	0.0
2025-01-25 02:41:25.830391	269.9	21.0	-79.3	0.0
2025-01-25 02:41:26.952171	269.7	20.9	-79.5	0.0
2025-01-25 02:41:28.073341	269.5	20.8	-79.4	0.0
2025-01-25 02:41:29.196972	269.2	20.7	-79.5	0.0
2025-01-25 02:41:30.317218	269.0	20.6	-79.3	0.0
2025-01-25 02:41:31.438584	268.8	20.5	-79.5	0.0
2025-01-25 02:41:32.560361	268.5	20.4	-79.4	0.0
2025-01-25 02:41:33.684335	268.3	20.4	-79.2	0.0
2025-01-25 02:41:34.808370	268.1	20.3	-79.5	0.0
2025-01-25 02:41:35.931898	267.8	20.2	-79.3	0.0
2025-01-25 02:41:37.055420	267.6	20.1	-79.7	0.0
2025-01-25 02:41:38.178575	267.4	20.0	-79.5	0.0
2025-01-25 02:41:39.301007	267.2	19.9	-79.6	0.0
2025-01-25 02:41:40.424592	267.0	19.8	-79.7	0.0
2025-01-25 02:41:41.548945	266.7	19.7	-79.7	0.0
2025-01-25 02:41:42.669239	266.5	19.6	-79.5	0.0
2025-01-25 02:41:43.793798	266.3	19.5	-79.6	0.0
2025-01-25 02:41:44.917247	266.1	19.4	-79.6	0.0
2025-01-25 02:41:46.041786	265.9	19.3	-79.8	0.0
2025-01-25 02:41:47.163293	265.7	19.2	-79.8	0.0
2025-01-25 02:41:48.285605	265.4	19.2	-79.5	0.0
2025-01-25 02:41:49.408057	265.2	19.1	-79.7	0.0
2025-01-25 02:41:50.531248	265.0	19.0	-79.5	0.0
2025-01-25 02:41:51.654129	264.8	18.9	-79.4	0.0
2025-01-25 02:41:52.776508	264.6	18.8	-79.3	0.0
2025-01-25 02:41:53.899132	264.4	18.7	-79.5	0.0
2025-01-25 02:41:55.022696	264.2	18.6	-79.4	0.0
2025-01-25 02:41:56.144802	264.0	18.5	-79.1	0.0
2025-01-25 02:41:57.266722	263.8	18.4	-79.1	0.0
2025-01-25 02:41:58.390434	263.6	18.3	-79.6	0.0
2025-01-25 02:41:59.513167	263.4	18.2	-79.5	0.0
2025-01-25 02:42:00.635552	263.2	18.1	-79.5	0.0
2025-01-25 02:42:01.758064	263.0	18.0	-79.3	0.0
2025-01-25 02:42:02.882196	262.8	17.9	-79.1	0.0
2025-01-25 02:42:04.002689	262.6	17.8	-79.0	0.0
2025-01-25 02:42:05.124752	262.4	17.8	-79.4	0.0
2025-01-25 02:42:06.246264	262.2	17.7	-79.2	0.0
2025-01-25 02:42:07.367857	262.0	17.6	-79.3	0.0
2025-01-25 02:42:08.493358	261.8	17.5	-79.3	0.0
2025-01-25 02:42:09.617098	261.7	17.4	-79.3	0.0
2025-01-25 02:42:10.740412	261.5	17.3	-79.4	0.0
2025-01-25 02:42:11.863173	261.3	17.2	-79.3	0.0
2025-01-25 02:42:12.987837	261.1	17.1	-79.5	0.0
2025-01-25 02:42:14.111784	260.9	17.0	-79.5	0.0
2025-01-25 02:42:15.234607	260.7	16.9	-79.3	0.0
2025-01-25 02:42:16.359072	260.5	16.8	-79.0	0.0
2025-01-25 02:42:17.480687	260.4	16.7	-79.0	0.0
2025-01-25 02:42:18.606045	260.2	16.6	-79.2	0.0
2025-01-25 02:42:19.728289	260.0	16.5	-78.9	0.0
2025-01-25 02:42:20.852488	259.8	16.5	-79.5	0.0
2025-01-25 02:42:21.973682	259.7	16.4	-79.4	0.0
2025-01-25 02:42:23.096354	259.5	16.3	-79.3	0.0
2025-01-25 02:42:24.221242	259.3	16.2	-79.6	0.0
2025-01-25 02:42:25.344489	259.1	16.1	-79.1	0.0
2025-01-25 02:42:26.467406	259.0	16.0	-78.8	0.0
2025-01-25 02:42:27.588935	258.8	15.9	-79.2	0.0
2025-01-25 02:42:28.712074	258.6	15.8	-79.2	0.0
2025-01-25 02:42:29.836317	258.4	15.7	-79.1	0.0
2025-01-25 02:42:30.957369	258.3	15.6	-79.3	0.0
2025-01-25 02:42:32.080762	258.1	15.5	-79.2	0.0
2025-01-25 02:42:33.202479	258.0	15.4	-79.6	0.0
2025-01-25 02:42:34.328271	257.8	15.4	-79.3	0.0
2025-01-25 02:42:35.449286	257.6	15.3	-79.4	0.0
2025-01-25 02:42:36.571936	257.5	15.2	-79.5	0.0
2025-01-25 02:42:37.696566	257.3	15.1	-79.3	0.0
2025-01-25 02:42:38.820988	257.1	15.0	-79.5	0.0
2025-01-25 02:42:39.943074	257.0	14.9	-79.3	0.0
2025-01-25 02:42:41.065073	256.8	14.8	-79.5	0.0
2025-01-25 02:42:42.188837	256.7	14.7	-79.2	0.0
2025-01-25 02:42:43.310276	256.5	14.6	-79.1	0.0
2025-01-25 02:42:44.432339	256.4	14.5	-79.2	0.0
2025-01-25 02:42:45.556105	256.2	14.4	-79.4	0.0
2025-01-25 02:42:46.682777	256.0	14.4	-79.4	0.0
2025-01-25 02:42:47.805851	255.9	14.3	-79.5	0.0
2025-01-25 02:42:48.928145	255.7	14.2	-79.5	0.0
2025-01-25 02:42:50.049532	255.6	14.1	-79.3	0.0
2025-01-25 02:42:51.172987	255.4	14.0	-79.5	0.0
2025-01-25 02:42:52.295783	255.3	13.9	-79.5	0.0
2025-01-25 02:42:53.417603	255.1	13.8	-79.3	0.0
2025-01-25 02:42:54.540303	255.0	13.7	-79.5	0.0
2025-01-25 02:42:55.667160	254.8	13.6	-79.3	0.0
2025-01-25 02:42:56.789816	254.7	13.6	-78.9	0.0
2025-01-25 02:42:57.912881	254.6	13.5	-79.5	0.0
2025-01-25 02:42:59.036663	254.4	13.4	-79.3	0.0
2025-01-25 02:43:00.158361	254.3	13.3	-79.0	0.0
2025-01-25 02:43:01.282809	254.1	13.2	-79.4	0.0
2025-01-25 02:43:02.404948	254.0	13.1	-79.3	0.0
2025-01-25 02:43:03.526201	253.9	13.0	-79.2	0.0
2025-01-25 02:43:04.649052	253.7	12.9	-79.3	0.0
2025-01-25 02:43:05.769877	253.6	12.8	-79.4	0.0
2025-01-25 02:43:06.892542	253.4	12.8	-79.1	0.0
2025-01-25 02:43:08.016125	253.3	12.7	-79.3	0.0
2025-01-25 02:43:09.140551	253.2	12.6	-79.2	0.0
2025-01-25 02:43:10.261567	253.0	12.5	-79.4	0.0
2025-01-25 02:43:11.384828	252.9	12.4	-79.2	0.0
2025-01-25 02:43:12.507958	252.8	12.3	-79.2	0.0
2025-01-25 02:43:13.632715	252.6	12.2	-79.4	0.0
2025-01-25 02:43:14.754794	252.5	12.2	-79.5	0.0
2025-01-25 02:43:15.877182	252.4	12.1	-79.4	0.0
2025-01-25 02:43:17.001075	252.2	12.0	-79.5	0.0
2025-01-25 02:43:18.123126	252.1	11.9	-79.3	0.0
2025-01-25 02:43:19.245800	252.0	11.8	-79.3	0.0
2025-01-25 02:43:20.368826	251.8	11.7	-79.6	0.0
2025-01-25 02:43:21.493010	251.7	11.6	-79.3	0.0
2025-01-25 02:43:22.617147	251.6	11.5	-79.5	0.0
2025-01-25 02:43:23.738488	251.5	11.5	-79.6	0.0
2025-01-25 02:43:24.861948	251.3	11.4	-79.5	0.0
2025-01-25 02:43:25.985046	251.2	11.3	-79.3	0.0
2025-01-25 02:43:27.108154	251.1	11.2	-79.4	0.0
2025-01-25 02:43:28.230082	251.0	11.1	-79.2	0.0
2025-01-25 02:43:29.353712	250.9	11.0	-79.6	0.0
2025-01-25 02:43:30.475752	250.7	11.0	-79.4	0.0
2025-01-25 02:43:31.597794	250.6	10.9	-79.5	0.0
2025-01-25 02:43:32.723262	250.5	10.8	-79.5	0.0
2025-01-25 02:43:33.843675	250.4	10.7	-79.3	0.0
2025-01-25 02:43:34.967851	250.3	10.6	-79.2	0.0
2025-01-25 02:43:36.091017	250.1	10.5	-79.4	0.0
2025-01-25 02:43:37.212663	250.0	10.5	-79.4	0.0
2025-01-25 02:43:38.338162	249.9	10.4	-79.2	0.0
2025-01-25 02:43:39.461180	249.8	10.3	-79.2	0.0
2025-01-25 02:43:40.584380	249.7	10.2	-79.4	0.0
2025-01-25 02:43:41.705266	249.6	10.1	-79.5	0.0
2025-01-25 02:43:42.828167	249.4	10.0	-79.5	0.0
#Closed at: 2025-01-25 02:34:45.632530