passes_logs/2025/01/25/planumMaritime01/planumMaritime01__20250125_090155_NOAA_18_rec.log

#Pass ID: 20250125_090155_NOAA 18
#Satellite: NOAA 18
#Configuration: NOAA 18
#Start time: 2025-01-25 09:02:00.537468

#LorettStation: 1.0.0 05.05.2024
#Station: planumMaritime01
#Location: 37.49445 lon 55.92918 lat
#TLE: 1 28654U 05018A   25024.71894748  .00000533  00000+0  30607-3 0  9999
#TLE: 2 28654  98.8552 105.6762 0014784 152.2729 207.9234 14.13496616 14556

#Time	Az	El	Level	SNR
2025-01-25 09:02:02.683276	17.0	10.2	-75.2	0.0
2025-01-25 09:02:03.806512	17.0	10.3	-74.7	0.0
2025-01-25 09:02:04.930412	17.0	10.4	-75.7	0.0
2025-01-25 09:02:06.053234	17.0	10.5	-75.4	0.0
2025-01-25 09:02:07.176093	17.1	10.6	-75.5	0.0
2025-01-25 09:02:08.298941	17.1	10.7	-75.5	0.0
2025-01-25 09:02:09.420229	17.1	10.8	-75.4	0.0
2025-01-25 09:02:10.543933	17.1	10.9	-75.8	0.0
2025-01-25 09:02:11.667249	17.1	11.0	-75.6	0.0
2025-01-25 09:02:12.789089	17.1	11.1	-75.2	0.0
2025-01-25 09:02:13.909755	17.1	11.2	-75.5	0.0
2025-01-25 09:02:15.033058	17.1	11.3	-75.5	0.0
2025-01-25 09:02:16.156470	17.1	11.4	-75.8	0.0
2025-01-25 09:02:17.280425	17.1	11.5	-75.4	0.0
2025-01-25 09:02:18.403969	17.1	11.6	-75.7	0.0
2025-01-25 09:02:19.526513	17.1	11.7	-75.5	0.0
2025-01-25 09:02:20.651446	17.1	11.8	-75.6	0.0
2025-01-25 09:02:21.774887	17.1	11.9	-75.8	0.0
2025-01-25 09:02:22.897805	17.1	12.0	-75.6	0.0
2025-01-25 09:02:24.020590	17.1	12.1	-75.7	0.0
2025-01-25 09:02:25.143839	17.2	12.2	-76.0	0.0
2025-01-25 09:02:26.268168	17.2	12.3	-76.0	0.0
2025-01-25 09:02:27.392601	17.2	12.4	-75.9	0.0
2025-01-25 09:02:28.515121	17.2	12.5	-75.8	0.0
2025-01-25 09:02:29.638044	17.2	12.6	-75.9	0.0
2025-01-25 09:02:30.762593	17.2	12.7	-75.7	0.0
2025-01-25 09:02:31.884734	17.2	12.8	-75.3	0.0
2025-01-25 09:02:33.009265	17.2	13.0	-75.4	0.0
2025-01-25 09:02:34.134098	17.2	13.1	-75.5	0.0
2025-01-25 09:02:35.257561	17.2	13.2	-75.5	0.0
2025-01-25 09:02:36.381857	17.2	13.3	-75.7	0.0
2025-01-25 09:02:37.506492	17.2	13.4	-75.5	0.0
2025-01-25 09:02:38.630875	17.2	13.5	-75.7	0.0
2025-01-25 09:02:39.752330	17.2	13.6	-75.8	0.0
2025-01-25 09:02:40.876361	17.2	13.7	-75.8	0.0
2025-01-25 09:02:41.998170	17.2	13.8	-76.0	0.0
2025-01-25 09:02:43.122336	17.3	14.0	-75.5	0.0
2025-01-25 09:02:44.245829	17.3	14.1	-75.7	0.0
2025-01-25 09:02:45.369153	17.3	14.2	-76.0	0.0
2025-01-25 09:02:46.493298	17.3	14.3	-75.9	0.0
2025-01-25 09:02:47.616587	17.3	14.4	-75.5	0.0
2025-01-25 09:02:48.738830	17.3	14.5	-75.5	0.0
2025-01-25 09:02:49.865393	17.3	14.6	-75.4	0.0
2025-01-25 09:02:50.987541	17.3	14.8	-75.5	0.0
2025-01-25 09:02:52.110029	17.3	14.9	-75.5	0.0
2025-01-25 09:02:53.232979	17.3	15.0	-75.4	0.0
2025-01-25 09:02:54.358576	17.3	15.1	-75.7	0.0
2025-01-25 09:02:55.481234	17.3	15.2	-75.3	0.0
2025-01-25 09:02:56.605617	17.3	15.4	-75.4	0.0
2025-01-25 09:02:57.732593	17.3	15.5	-75.6	0.0
2025-01-25 09:02:58.854428	17.3	15.6	-75.6	0.0
2025-01-25 09:02:59.979234	17.3	15.7	-75.7	0.0
2025-01-25 09:03:01.103603	17.4	15.8	-75.7	0.0
2025-01-25 09:03:02.226177	17.4	16.0	-75.8	0.0
2025-01-25 09:03:03.349520	17.4	16.1	-75.7	0.0
2025-01-25 09:03:04.473225	17.4	16.2	-75.4	0.0
2025-01-25 09:03:05.592721	17.4	16.3	-75.2	0.0
2025-01-25 09:03:06.715321	17.4	16.5	-75.5	0.0
2025-01-25 09:03:07.840300	17.4	16.6	-75.8	0.0
2025-01-25 09:03:08.964449	17.4	16.7	-75.8	0.0
2025-01-25 09:03:10.087014	17.4	16.8	-75.7	0.0
2025-01-25 09:03:11.212060	17.4	17.0	-75.9	0.0
2025-01-25 09:03:12.333382	17.4	17.1	-75.8	0.0
2025-01-25 09:03:13.456598	17.4	17.2	-75.5	0.0
2025-01-25 09:03:14.577757	17.4	17.4	-75.6	0.0
2025-01-25 09:03:15.701856	17.4	17.5	-75.4	0.0
2025-01-25 09:03:16.824870	17.4	17.6	-75.5	0.0
2025-01-25 09:03:17.947119	17.5	17.7	-76.0	0.0
2025-01-25 09:03:19.068382	17.5	17.9	-75.7	0.0
2025-01-25 09:03:20.191362	17.5	18.0	-75.6	0.0
2025-01-25 09:03:21.314633	17.5	18.1	-76.0	0.0
2025-01-25 09:03:22.436311	17.5	18.3	-75.9	0.0
2025-01-25 09:03:23.559271	17.5	18.4	-75.6	0.0
2025-01-25 09:03:24.681106	17.5	18.6	-75.6	0.0
2025-01-25 09:03:25.804328	17.5	18.7	-75.7	0.0
2025-01-25 09:03:26.928794	17.5	18.8	-75.6	0.0
2025-01-25 09:03:28.050135	17.5	19.0	-75.5	0.0
2025-01-25 09:03:29.173339	17.5	19.1	-75.4	0.0
2025-01-25 09:03:30.296947	17.5	19.2	-75.5	0.0
2025-01-25 09:03:31.417921	17.5	19.4	-75.4	0.0
2025-01-25 09:03:32.541482	17.5	19.5	-75.9	0.0
2025-01-25 09:03:33.662881	17.6	19.7	-75.6	0.0
2025-01-25 09:03:34.784743	17.6	19.8	-75.6	0.0
2025-01-25 09:03:35.906975	17.6	20.0	-75.8	0.0
2025-01-25 09:03:37.029116	17.6	20.1	-75.8	0.0
2025-01-25 09:03:38.152804	17.6	20.2	-75.5	0.0
2025-01-25 09:03:39.274428	17.6	20.4	-75.6	0.0
2025-01-25 09:03:40.395974	17.6	20.5	-75.7	0.0
2025-01-25 09:03:41.519616	17.6	20.7	-75.6	0.0
2025-01-25 09:03:42.641498	17.6	20.8	-76.0	0.0
2025-01-25 09:03:43.765256	17.6	21.0	-75.7	0.0
2025-01-25 09:03:44.887109	17.6	21.1	-75.6	0.0
2025-01-25 09:03:46.012341	17.6	21.3	-76.3	0.0
2025-01-25 09:03:47.135836	17.6	21.4	-75.6	0.0
2025-01-25 09:03:48.259802	17.7	21.6	-75.3	0.0
2025-01-25 09:03:49.381432	17.7	21.8	-75.7	0.0
2025-01-25 09:03:50.505883	17.7	21.9	-76.0	0.0
2025-01-25 09:03:51.629552	17.7	22.1	-75.4	0.0
2025-01-25 09:03:52.753504	17.7	22.2	-75.3	0.0
2025-01-25 09:03:53.878048	17.7	22.4	-75.6	0.0
2025-01-25 09:03:55.001165	17.7	22.5	-76.1	0.0
2025-01-25 09:03:56.125645	17.7	22.7	-76.1	0.0
2025-01-25 09:03:57.249397	17.7	22.9	-75.9	0.0
2025-01-25 09:03:58.372817	17.7	23.0	-75.8	0.0
2025-01-25 09:03:59.495305	17.7	23.2	-75.5	0.0
2025-01-25 09:04:00.615765	17.7	23.4	-75.6	0.0
2025-01-25 09:04:01.737853	17.7	23.5	-75.7	0.0
2025-01-25 09:04:02.863044	17.8	23.7	-76.0	0.0
2025-01-25 09:04:03.987805	17.8	23.9	-75.6	0.0
2025-01-25 09:04:05.108692	17.8	24.0	-75.9	0.0
2025-01-25 09:04:06.229388	17.8	24.2	-76.0	0.0
2025-01-25 09:04:07.352309	17.8	24.4	-76.1	0.0
2025-01-25 09:04:08.475821	17.8	24.5	-75.7	0.0
2025-01-25 09:04:09.598061	17.8	24.7	-75.9	0.0
2025-01-25 09:04:10.723188	17.8	24.9	-75.8	0.0
2025-01-25 09:04:11.846695	17.8	25.1	-75.0	0.0
2025-01-25 09:04:12.968693	17.8	25.2	-75.7	0.0
2025-01-25 09:04:14.090154	17.8	25.4	-75.5	0.0
2025-01-25 09:04:15.213033	17.8	25.6	-75.9	0.0
2025-01-25 09:04:16.335720	17.8	25.8	-75.7	0.0
2025-01-25 09:04:17.459986	17.9	26.0	-76.3	0.0
2025-01-25 09:04:18.581511	17.9	26.1	-76.4	0.0
2025-01-25 09:04:19.704856	17.9	26.3	-75.4	0.0
2025-01-25 09:04:20.827093	17.9	26.5	-75.8	0.0
2025-01-25 09:04:21.950509	17.9	26.7	-76.0	0.0
2025-01-25 09:04:23.073333	17.9	26.9	-75.0	0.0
2025-01-25 09:04:24.194323	17.9	27.1	-75.4	0.0
2025-01-25 09:04:25.318287	17.9	27.3	-75.7	0.0
2025-01-25 09:04:26.442993	17.9	27.5	-76.0	0.0
2025-01-25 09:04:27.567561	17.9	27.7	-76.0	0.0
2025-01-25 09:04:28.689693	17.9	27.9	-75.8	0.0
2025-01-25 09:04:29.813963	18.0	28.0	-75.8	0.0
2025-01-25 09:04:30.937062	18.0	28.2	-76.1	0.0
2025-01-25 09:04:32.061234	18.0	28.4	-76.1	0.0
2025-01-25 09:04:33.181425	18.0	28.6	-76.0	0.0
2025-01-25 09:04:34.305191	18.0	28.8	-76.1	0.0
2025-01-25 09:04:35.427880	18.0	29.1	-75.9	0.0
2025-01-25 09:04:36.549874	18.0	29.3	-75.7	0.0
2025-01-25 09:04:37.674003	18.0	29.5	-75.9	0.0
2025-01-25 09:04:38.796800	18.0	29.7	-75.3	0.0
2025-01-25 09:04:39.920537	18.0	29.9	-75.5	0.0
2025-01-25 09:04:41.043968	18.0	30.1	-75.9	0.0
2025-01-25 09:04:42.164875	18.1	30.3	-75.6	0.0
2025-01-25 09:04:43.289690	18.1	30.5	-76.0	0.0
2025-01-25 09:04:44.413339	18.1	30.7	-76.3	0.0
2025-01-25 09:04:45.535425	18.1	31.0	-76.2	0.0
2025-01-25 09:04:46.658716	18.1	31.2	-75.7	0.0
2025-01-25 09:04:47.781719	18.1	31.4	-75.4	0.0
2025-01-25 09:04:48.906895	18.1	31.6	-75.4	0.0
2025-01-25 09:04:50.030480	18.1	31.8	-75.9	0.0
2025-01-25 09:04:51.151924	18.1	32.1	-76.2	0.0
2025-01-25 09:04:52.274382	18.2	32.3	-76.1	0.0
2025-01-25 09:04:53.398514	18.2	32.5	-75.7	0.0
2025-01-25 09:04:54.523521	18.2	32.8	-75.3	0.0
2025-01-25 09:04:55.645303	18.2	33.0	-75.8	0.0
2025-01-25 09:04:56.770589	18.2	33.2	-75.7	0.0
2025-01-25 09:04:57.892147	18.2	33.5	-76.1	0.0
2025-01-25 09:04:59.014177	18.2	33.7	-76.3	0.0
2025-01-25 09:05:00.138016	18.2	33.9	-75.5	0.0
2025-01-25 09:05:01.261118	18.2	34.2	-75.9	0.0
2025-01-25 09:05:02.382270	18.2	34.4	-75.8	0.0
2025-01-25 09:05:03.504671	18.3	34.7	-75.5	0.0
2025-01-25 09:05:04.626339	18.3	34.9	-76.0	0.0
2025-01-25 09:05:05.748197	18.3	35.2	-75.9	0.0
2025-01-25 09:05:06.870599	18.3	35.4	-75.5	0.0
2025-01-25 09:05:07.994796	18.3	35.7	-76.1	0.0
2025-01-25 09:05:09.119273	18.3	35.9	-76.0	0.0
2025-01-25 09:05:10.242338	18.3	36.2	-76.1	0.0
2025-01-25 09:05:11.366712	18.3	36.4	-75.9	0.0
2025-01-25 09:05:12.487904	18.4	36.7	-75.6	0.0
2025-01-25 09:05:13.613755	18.4	37.0	-76.1	0.0
2025-01-25 09:05:14.736368	18.4	37.2	-75.8	0.0
2025-01-25 09:05:15.858242	18.4	37.5	-75.9	0.0
2025-01-25 09:05:16.979033	18.4	37.8	-75.9	0.0
2025-01-25 09:05:18.102118	18.4	38.1	-76.0	0.0
2025-01-25 09:05:19.224248	18.4	38.3	-75.8	0.0
2025-01-25 09:05:20.345300	18.4	38.6	-75.8	0.0
2025-01-25 09:05:21.467777	18.5	38.9	-75.6	0.0
2025-01-25 09:05:22.590175	18.5	39.2	-75.9	0.0
2025-01-25 09:05:23.712251	18.5	39.4	-75.9	0.0
2025-01-25 09:05:24.837191	18.5	39.7	-75.5	0.0
2025-01-25 09:05:25.961350	18.5	40.0	-75.8	0.0
2025-01-25 09:05:27.084078	18.5	40.3	-75.6	0.0
2025-01-25 09:05:28.207195	18.5	40.6	-75.7	0.0
2025-01-25 09:05:29.330360	18.6	40.9	-75.7	0.0
2025-01-25 09:05:30.453117	18.6	41.2	-75.8	0.0
2025-01-25 09:05:31.575861	18.6	41.5	-75.7	0.0
2025-01-25 09:05:32.701608	18.6	41.8	-75.8	0.0
2025-01-25 09:05:33.825015	18.6	42.1	-76.1	0.0
2025-01-25 09:05:34.948543	18.6	42.4	-76.2	0.0
2025-01-25 09:05:36.072791	18.7	42.7	-76.2	0.0
2025-01-25 09:05:37.195243	18.7	43.1	-76.0	0.0
2025-01-25 09:05:38.318031	18.7	43.4	-76.2	0.0
2025-01-25 09:05:39.442350	18.7	43.7	-76.1	0.0
2025-01-25 09:05:40.565526	18.7	44.0	-75.8	0.0
2025-01-25 09:05:41.689909	18.7	44.3	-76.6	0.0
2025-01-25 09:05:42.815294	18.8	44.7	-76.2	0.0
2025-01-25 09:05:43.939380	18.8	45.0	-76.1	0.0
2025-01-25 09:05:45.061715	18.8	45.3	-76.3	0.0
2025-01-25 09:05:46.183059	18.8	45.7	-76.0	0.0
2025-01-25 09:05:47.305983	18.8	46.0	-76.2	0.0
2025-01-25 09:05:48.428571	18.8	46.3	-76.2	0.0
2025-01-25 09:05:49.549757	18.9	46.7	-76.2	0.0
2025-01-25 09:05:50.671143	18.9	47.0	-75.8	0.0
2025-01-25 09:05:51.794403	18.9	47.4	-75.8	0.0
2025-01-25 09:05:52.918007	18.9	47.7	-76.0	0.0
2025-01-25 09:05:54.039738	18.9	48.1	-75.6	0.0
2025-01-25 09:05:55.163453	19.0	48.5	-75.9	0.0
2025-01-25 09:05:56.285285	19.0	48.8	-76.1	0.0
2025-01-25 09:05:57.408858	19.0	49.2	-76.3	0.0
2025-01-25 09:05:58.532503	19.0	49.6	-75.9	0.0
2025-01-25 09:05:59.656395	19.1	49.9	-75.9	0.0
2025-01-25 09:06:00.778059	19.1	50.3	-75.9	0.0
2025-01-25 09:06:01.901999	19.1	50.7	-76.1	0.0
2025-01-25 09:06:03.023954	19.1	51.1	-75.7	0.0
2025-01-25 09:06:04.145641	19.2	51.4	-75.7	0.0
2025-01-25 09:06:05.269489	19.2	51.8	-75.3	0.0
2025-01-25 09:06:06.392856	19.2	52.2	-76.0	0.0
2025-01-25 09:06:07.514348	19.2	52.6	-76.1	0.0
2025-01-25 09:06:08.637251	19.3	53.0	-75.8	0.0
2025-01-25 09:06:09.759868	19.3	53.4	-76.4	0.0
2025-01-25 09:06:10.883536	19.3	53.8	-76.3	0.0
2025-01-25 09:06:12.006577	19.3	54.2	-76.2	0.0
2025-01-25 09:06:13.130931	19.4	54.6	-76.5	0.0
2025-01-25 09:06:14.250999	19.4	55.0	-76.4	0.0
2025-01-25 09:06:15.374530	19.4	55.4	-76.5	0.0
2025-01-25 09:06:16.498100	19.5	55.9	-76.3	0.0
2025-01-25 09:06:17.623593	19.5	56.3	-76.4	0.0
2025-01-25 09:06:18.746253	19.5	56.7	-76.2	0.0
2025-01-25 09:06:19.868909	19.6	57.1	-76.0	0.0
2025-01-25 09:06:20.993130	19.6	57.6	-76.4	0.0
2025-01-25 09:06:22.116158	19.6	58.0	-76.0	0.0
2025-01-25 09:06:23.239864	19.7	58.4	-76.5	0.0
2025-01-25 09:06:24.363607	19.7	58.9	-76.4	0.0
2025-01-25 09:06:25.486959	19.8	59.3	-76.0	0.0
2025-01-25 09:06:26.609997	19.8	59.8	-76.4	0.0
2025-01-25 09:06:27.735103	19.9	60.2	-76.5	0.0
2025-01-25 09:06:28.859454	19.9	60.7	-75.9	0.0
2025-01-25 09:06:29.982399	19.9	61.1	-75.9	0.0
2025-01-25 09:06:31.104270	20.0	61.6	-75.8	0.0
2025-01-25 09:06:32.228186	20.0	62.1	-76.0	0.0
2025-01-25 09:06:33.351131	20.1	62.5	-76.3	0.0
2025-01-25 09:06:34.476421	20.1	63.0	-76.1	0.0
2025-01-25 09:06:35.598801	20.2	63.5	-76.2	0.0
2025-01-25 09:06:36.722527	20.3	64.0	-76.0	0.0
2025-01-25 09:06:37.845652	20.3	64.4	-75.4	0.0
2025-01-25 09:06:38.969186	20.4	64.9	-76.0	0.0
2025-01-25 09:06:40.091572	20.4	65.4	-76.5	0.0
2025-01-25 09:06:41.215567	20.5	65.9	-75.8	0.0
2025-01-25 09:06:42.338498	20.6	66.4	-75.7	0.0
2025-01-25 09:06:43.463050	20.6	66.9	-75.9	0.0
2025-01-25 09:06:44.586818	20.7	67.4	-75.9	0.0
2025-01-25 09:06:45.712145	20.8	67.9	-76.1	0.0
2025-01-25 09:06:46.835303	20.9	68.4	-76.1	0.0
2025-01-25 09:06:47.959519	21.0	68.9	-76.1	0.0
2025-01-25 09:06:49.083286	21.1	69.4	-76.2	0.0
2025-01-25 09:06:50.206440	21.2	69.9	-75.7	0.0
2025-01-25 09:06:51.329501	21.3	70.4	-75.9	0.0
2025-01-25 09:06:52.454014	21.4	71.0	-75.9	0.0
2025-01-25 09:06:53.577041	21.5	71.5	-75.9	0.0
2025-01-25 09:06:54.698714	21.6	72.0	-75.9	0.0
2025-01-25 09:06:55.819981	21.7	72.5	-75.7	0.0
2025-01-25 09:06:56.944602	21.9	73.1	-74.9	0.0
2025-01-25 09:06:58.071706	22.0	73.6	-74.5	0.0
2025-01-25 09:06:59.191178	22.2	74.1	-75.1	0.0
2025-01-25 09:07:00.317696	22.3	74.7	-75.0	0.0
2025-01-25 09:07:01.439313	22.5	75.2	-74.9	0.0
2025-01-25 09:07:02.559808	22.7	75.7	-75.0	0.0
2025-01-25 09:07:03.681104	22.9	76.3	-75.5	0.0
2025-01-25 09:07:04.803797	23.1	76.8	-75.1	0.0
2025-01-25 09:07:05.925523	23.4	77.4	-75.2	0.0
2025-01-25 09:07:07.047945	23.7	77.9	-75.5	0.0
2025-01-25 09:07:08.171544	24.0	78.4	-75.4	0.0
2025-01-25 09:07:09.295080	24.3	79.0	-75.5	0.0
2025-01-25 09:07:10.418981	24.6	79.5	-75.3	0.0
2025-01-25 09:07:11.541854	25.0	80.1	-75.9	0.0
2025-01-25 09:07:12.664255	25.5	80.7	-75.9	0.0
2025-01-25 09:07:13.787678	26.0	81.2	-75.7	0.0
2025-01-25 09:07:14.911242	26.5	81.8	-76.7	0.0
2025-01-25 09:07:16.033933	27.2	82.3	-76.4	0.0
2025-01-25 09:07:17.155514	27.9	82.9	-76.1	0.0
2025-01-25 09:07:18.278228	28.8	83.4	-75.9	0.0
2025-01-25 09:07:19.402420	29.9	84.0	-76.2	0.0
2025-01-25 09:07:20.525194	31.1	84.5	-76.1	0.0
2025-01-25 09:07:21.646436	32.7	85.1	-75.6	0.0
2025-01-25 09:07:22.769857	34.6	85.6	-76.0	0.0
2025-01-25 09:07:23.892960	37.0	86.2	-76.0	0.0
2025-01-25 09:07:25.015220	40.3	86.7	-76.2	0.0
2025-01-25 09:07:26.138472	44.8	87.2	-76.2	0.0
2025-01-25 09:07:27.259406	51.4	87.7	-76.7	0.0
2025-01-25 09:07:28.380979	61.3	88.2	-76.6	0.0
2025-01-25 09:07:29.503817	76.7	88.5	-76.3	0.0
2025-01-25 09:07:30.628763	99.3	88.7	-76.4	0.0
2025-01-25 09:07:31.752216	124.7	88.7	-76.3	0.0
2025-01-25 09:07:32.876773	144.9	88.4	-76.1	0.0
2025-01-25 09:07:33.999795	158.2	88.0	-76.4	0.0
2025-01-25 09:07:35.122426	166.8	87.6	-76.1	0.0
2025-01-25 09:07:36.246340	172.5	87.0	-75.9	0.0
2025-01-25 09:07:37.368926	176.6	86.5	-76.3	0.0
2025-01-25 09:07:38.493627	179.5	86.0	-75.9	0.0
2025-01-25 09:07:39.616180	181.8	85.4	-75.9	0.0
2025-01-25 09:07:40.738453	183.6	84.9	-75.7	0.0
2025-01-25 09:07:41.861775	185.0	84.3	-76.0	0.0
2025-01-25 09:07:42.983753	186.2	83.8	-76.2	0.0
2025-01-25 09:07:44.109640	187.2	83.2	-76.0	0.0
2025-01-25 09:07:45.232109	188.0	82.7	-76.3	0.0
2025-01-25 09:07:46.357066	188.7	82.1	-76.2	0.0
2025-01-25 09:07:47.477553	189.3	81.6	-76.0	0.0
2025-01-25 09:07:48.600870	189.9	81.0	-76.0	0.0
2025-01-25 09:07:49.724062	190.3	80.5	-75.9	0.0
2025-01-25 09:07:50.846819	190.8	79.9	-76.0	0.0
2025-01-25 09:07:51.972457	191.2	79.3	-76.0	0.0
2025-01-25 09:07:53.095385	191.5	78.8	-76.1	0.0
2025-01-25 09:07:54.217471	191.8	78.2	-76.3	0.0
2025-01-25 09:07:55.339524	192.1	77.7	-75.9	0.0
2025-01-25 09:07:56.461903	192.4	77.2	-76.0	0.0
2025-01-25 09:07:57.584878	192.6	76.6	-76.5	0.0
2025-01-25 09:07:58.708926	192.8	76.1	-76.4	0.0
2025-01-25 09:07:59.831235	193.0	75.5	-76.4	0.0
2025-01-25 09:08:00.955593	193.2	75.0	-76.3	0.0
2025-01-25 09:08:02.078360	193.4	74.4	-75.8	0.0
2025-01-25 09:08:03.201432	193.5	73.9	-75.9	0.0
2025-01-25 09:08:04.324313	193.7	73.4	-76.2	0.0
2025-01-25 09:08:05.448021	193.8	72.8	-76.1	0.0
2025-01-25 09:08:06.571243	194.0	72.3	-76.5	0.0
2025-01-25 09:08:07.692959	194.1	71.8	-76.4	0.0
2025-01-25 09:08:08.815217	194.2	71.3	-76.2	0.0
2025-01-25 09:08:09.939685	194.3	70.7	-76.7	0.0
2025-01-25 09:08:11.064337	194.4	70.2	-76.1	0.0
2025-01-25 09:08:12.184876	194.5	69.7	-76.3	0.0
2025-01-25 09:08:13.308951	194.6	69.2	-76.4	0.0
2025-01-25 09:08:14.434201	194.7	68.7	-76.0	0.0
2025-01-25 09:08:15.556509	194.8	68.2	-76.0	0.0
2025-01-25 09:08:16.679707	194.9	67.7	-76.2	0.0
2025-01-25 09:08:17.801348	195.0	67.2	-76.1	0.0
2025-01-25 09:08:18.924808	195.0	66.7	-76.3	0.0
2025-01-25 09:08:20.045479	195.1	66.2	-76.3	0.0
2025-01-25 09:08:21.168608	195.2	65.7	-75.9	0.0
2025-01-25 09:08:22.292057	195.2	65.2	-76.4	0.0
2025-01-25 09:08:23.416020	195.3	64.7	-76.8	0.0
2025-01-25 09:08:24.539310	195.4	64.2	-76.2	0.0
2025-01-25 09:08:25.663548	195.4	63.7	-76.3	0.0
2025-01-25 09:08:26.784190	195.5	63.3	-76.5	0.0
2025-01-25 09:08:27.907640	195.5	62.8	-76.5	0.0
2025-01-25 09:08:29.030263	195.6	62.3	-76.5	0.0
2025-01-25 09:08:30.154575	195.6	61.9	-76.5	0.0
2025-01-25 09:08:31.277361	195.7	61.4	-76.4	0.0
2025-01-25 09:08:32.400910	195.7	60.9	-76.3	0.0
2025-01-25 09:08:33.523711	195.8	60.5	-75.5	0.0
2025-01-25 09:08:34.645717	195.8	60.0	-76.2	0.0
2025-01-25 09:08:35.769597	195.9	59.6	-76.4	0.0
2025-01-25 09:08:36.892850	195.9	59.1	-76.2	0.0
2025-01-25 09:08:38.017962	195.9	58.7	-76.4	0.0
2025-01-25 09:08:39.143025	196.0	58.2	-76.0	0.0
2025-01-25 09:08:40.265991	196.0	57.8	-75.6	0.0
2025-01-25 09:08:41.388508	196.1	57.3	-76.1	0.0
2025-01-25 09:08:42.510022	196.1	56.9	-75.7	0.0
2025-01-25 09:08:43.632018	196.1	56.5	-75.2	0.0
2025-01-25 09:08:44.754878	196.2	56.1	-74.7	0.0
2025-01-25 09:08:45.877445	196.2	55.6	-76.1	0.0
2025-01-25 09:08:47.001539	196.2	55.2	-75.1	0.0
2025-01-25 09:08:48.124386	196.3	54.8	-75.9	0.0
2025-01-25 09:08:49.247473	196.3	54.4	-75.9	0.0
2025-01-25 09:08:50.369815	196.3	54.0	-76.3	0.0
2025-01-25 09:08:51.496125	196.3	53.6	-76.4	0.0
2025-01-25 09:08:52.619190	196.4	53.2	-76.3	0.0
2025-01-25 09:08:53.745924	196.4	52.8	-76.1	0.0
2025-01-25 09:08:54.869356	196.4	52.4	-75.7	0.0
2025-01-25 09:08:55.993053	196.4	52.0	-76.4	0.0
2025-01-25 09:08:57.115134	196.5	51.6	-76.2	0.0
2025-01-25 09:08:58.237204	196.5	51.2	-75.9	0.0
2025-01-25 09:08:59.358913	196.5	50.8	-76.1	0.0
2025-01-25 09:09:00.481563	196.5	50.4	-76.1	0.0
2025-01-25 09:09:01.606730	196.6	50.1	-76.2	0.0
2025-01-25 09:09:02.729557	196.6	49.7	-76.1	0.0
2025-01-25 09:09:03.850559	196.6	49.3	-76.1	0.0
2025-01-25 09:09:04.973024	196.6	48.9	-76.3	0.0
2025-01-25 09:09:06.094047	196.7	48.6	-76.5	0.0
2025-01-25 09:09:07.215982	196.7	48.2	-76.3	0.0
2025-01-25 09:09:08.339522	196.7	47.9	-76.5	0.0
2025-01-25 09:09:09.465342	196.7	47.5	-76.6	0.0
2025-01-25 09:09:10.590512	196.7	47.1	-76.2	0.0
2025-01-25 09:09:11.712436	196.8	46.8	-76.2	0.0
2025-01-25 09:09:12.833175	196.8	46.4	-76.1	0.0
2025-01-25 09:09:13.956581	196.8	46.1	-76.2	0.0
2025-01-25 09:09:15.080641	196.8	45.8	-76.3	0.0
2025-01-25 09:09:16.203053	196.8	45.4	-76.2	0.0
2025-01-25 09:09:17.325793	196.9	45.1	-76.3	0.0
2025-01-25 09:09:18.445522	196.9	44.7	-76.1	0.0
2025-01-25 09:09:19.568827	196.9	44.4	-75.6	0.0
2025-01-25 09:09:20.691217	196.9	44.1	-75.7	0.0
2025-01-25 09:09:21.814565	196.9	43.8	-76.3	0.0
2025-01-25 09:09:22.938001	196.9	43.4	-76.4	0.0
2025-01-25 09:09:24.063628	197.0	43.1	-76.0	0.0
2025-01-25 09:09:25.185602	197.0	42.8	-76.2	0.0
2025-01-25 09:09:26.308595	197.0	42.5	-75.7	0.0
2025-01-25 09:09:27.433840	197.0	42.2	-76.0	0.0
2025-01-25 09:09:28.557751	197.0	41.9	-75.8	0.0
2025-01-25 09:09:29.681803	197.0	41.6	-75.6	0.0
2025-01-25 09:09:30.803353	197.1	41.2	-76.3	0.0
2025-01-25 09:09:31.927212	197.1	40.9	-76.5	0.0
2025-01-25 09:09:33.048897	197.1	40.6	-76.2	0.0
2025-01-25 09:09:34.171087	197.1	40.4	-76.1	0.0
2025-01-25 09:09:35.294322	197.1	40.1	-76.2	0.0
2025-01-25 09:09:36.417980	197.1	39.8	-76.5	0.0
2025-01-25 09:09:37.540411	197.1	39.5	-76.2	0.0
2025-01-25 09:09:38.664400	197.2	39.2	-76.5	0.0
2025-01-25 09:09:39.788103	197.2	38.9	-76.9	0.0
2025-01-25 09:09:40.911162	197.2	38.6	-76.8	0.0
2025-01-25 09:09:42.036632	197.2	38.3	-76.4	0.0
2025-01-25 09:09:43.160121	197.2	38.1	-76.7	0.0
2025-01-25 09:09:44.281489	197.2	37.8	-76.4	0.0
2025-01-25 09:09:45.402463	197.2	37.5	-76.4	0.0
2025-01-25 09:09:46.524950	197.2	37.2	-76.7	0.0
2025-01-25 09:09:47.647531	197.3	37.0	-76.5	0.0
2025-01-25 09:09:48.771686	197.3	36.7	-76.1	0.0
2025-01-25 09:09:49.893591	197.3	36.4	-76.0	0.0
2025-01-25 09:09:51.016372	197.3	36.2	-76.3	0.0
2025-01-25 09:09:52.137507	197.3	35.9	-76.3	0.0
2025-01-25 09:09:53.261290	197.3	35.7	-76.2	0.0
2025-01-25 09:09:54.383123	197.3	35.4	-76.5	0.0
2025-01-25 09:09:55.505264	197.3	35.1	-76.5	0.0
2025-01-25 09:09:56.627727	197.3	34.9	-76.1	0.0
2025-01-25 09:09:57.749568	197.4	34.6	-76.1	0.0
2025-01-25 09:09:58.872170	197.4	34.4	-76.4	0.0
2025-01-25 09:09:59.996319	197.4	34.1	-76.4	0.0
2025-01-25 09:10:01.118642	197.4	33.9	-76.5	0.0
2025-01-25 09:10:02.241645	197.4	33.7	-76.3	0.0
2025-01-25 09:10:03.365419	197.4	33.4	-76.4	0.0
2025-01-25 09:10:04.488576	197.4	33.2	-76.1	0.0
2025-01-25 09:10:05.614382	197.4	32.9	-76.3	0.0
2025-01-25 09:10:06.736351	197.4	32.7	-76.2	0.0
2025-01-25 09:10:07.861078	197.5	32.5	-76.3	0.0
2025-01-25 09:10:08.984504	197.5	32.2	-76.4	0.0
2025-01-25 09:10:10.104894	197.5	32.0	-76.3	0.0
2025-01-25 09:10:11.225076	197.5	31.8	-76.5	0.0
2025-01-25 09:10:12.347142	197.5	31.6	-75.9	0.0
2025-01-25 09:10:13.470511	197.5	31.3	-76.2	0.0
2025-01-25 09:10:14.593370	197.5	31.1	-76.3	0.0
2025-01-25 09:10:15.716201	197.5	30.9	-76.6	0.0
2025-01-25 09:10:16.838903	197.5	30.7	-76.0	0.0
2025-01-25 09:10:17.961049	197.5	30.5	-76.2	0.0
2025-01-25 09:10:19.083866	197.6	30.2	-76.4	0.0
2025-01-25 09:10:20.208328	197.6	30.0	-75.6	0.0
2025-01-25 09:10:21.330489	197.6	29.8	-76.1	0.0
2025-01-25 09:10:22.456457	197.6	29.6	-76.6	0.0
2025-01-25 09:10:23.579865	197.6	29.4	-76.4	0.0
2025-01-25 09:10:24.704440	197.6	29.2	-75.7	0.0
2025-01-25 09:10:25.826722	197.6	29.0	-76.3	0.0
2025-01-25 09:10:26.950385	197.6	28.8	-76.5	0.0
2025-01-25 09:10:28.072316	197.6	28.6	-76.1	0.0
2025-01-25 09:10:29.193430	197.6	28.4	-76.0	0.0
2025-01-25 09:10:30.315742	197.6	28.2	-76.5	0.0
2025-01-25 09:10:31.439206	197.6	28.0	-76.4	0.0
2025-01-25 09:10:32.562755	197.7	27.8	-76.5	0.0
2025-01-25 09:10:33.684352	197.7	27.6	-76.2	0.0
2025-01-25 09:10:34.807244	197.7	27.4	-76.5	0.0
2025-01-25 09:10:35.929406	197.7	27.2	-76.4	0.0
2025-01-25 09:10:37.050501	197.7	27.0	-76.6	0.0
2025-01-25 09:10:38.175125	197.7	26.8	-76.5	0.0
2025-01-25 09:10:39.297258	197.7	26.6	-76.4	0.0
2025-01-25 09:10:40.419510	197.7	26.4	-76.0	0.0
2025-01-25 09:10:41.543100	197.7	26.2	-76.1	0.0
2025-01-25 09:10:42.663825	197.7	26.0	-76.1	0.0
2025-01-25 09:10:43.786185	197.7	25.9	-75.7	0.0
2025-01-25 09:10:44.910265	197.7	25.7	-76.3	0.0
2025-01-25 09:10:46.030862	197.8	25.5	-76.2	0.0
2025-01-25 09:10:47.155046	197.8	25.3	-76.1	0.0
2025-01-25 09:10:48.278706	197.8	25.1	-76.2	0.0
2025-01-25 09:10:49.403293	197.8	25.0	-75.9	0.0
2025-01-25 09:10:50.525254	197.8	24.8	-76.2	0.0
2025-01-25 09:10:51.646526	197.8	24.6	-75.5	0.0
2025-01-25 09:10:52.769393	197.8	24.4	-76.2	0.0
2025-01-25 09:10:53.893373	197.8	24.2	-76.3	0.0
2025-01-25 09:10:55.015959	197.8	24.1	-76.2	0.0
2025-01-25 09:10:56.141230	197.8	23.9	-76.3	0.0
2025-01-25 09:10:57.265427	197.8	23.7	-75.9	0.0
2025-01-25 09:10:58.387970	197.8	23.6	-75.9	0.0
2025-01-25 09:10:59.509789	197.8	23.4	-76.0	0.0
2025-01-25 09:11:00.633108	197.9	23.2	-76.2	0.0
2025-01-25 09:11:01.755360	197.9	23.1	-76.5	0.0
2025-01-25 09:11:02.877232	197.9	22.9	-76.7	0.0
2025-01-25 09:11:04.002036	197.9	22.7	-76.2	0.0
2025-01-25 09:11:05.124475	197.9	22.6	-76.3	0.0
2025-01-25 09:11:06.244289	197.9	22.4	-76.6	0.0
2025-01-25 09:11:07.367641	197.9	22.2	-76.5	0.0
2025-01-25 09:11:08.490170	197.9	22.1	-76.0	0.0
2025-01-25 09:11:09.611725	197.9	21.9	-76.2	0.0
2025-01-25 09:11:10.732912	197.9	21.8	-76.4	0.0
2025-01-25 09:11:11.854730	197.9	21.6	-76.3	0.0
2025-01-25 09:11:12.979155	197.9	21.5	-76.3	0.0
2025-01-25 09:11:14.102099	197.9	21.3	-76.6	0.0
2025-01-25 09:11:15.223649	197.9	21.2	-76.1	0.0
2025-01-25 09:11:16.345003	197.9	21.0	-76.1	0.0
2025-01-25 09:11:17.466441	198.0	20.8	-76.1	0.0
2025-01-25 09:11:18.590155	198.0	20.7	-76.1	0.0
2025-01-25 09:11:19.711149	198.0	20.5	-76.2	0.0
2025-01-25 09:11:20.835494	198.0	20.4	-76.3	0.0
2025-01-25 09:11:21.956715	198.0	20.2	-76.3	0.0
2025-01-25 09:11:23.081058	198.0	20.1	-75.8	0.0
2025-01-25 09:11:24.207108	198.0	19.9	-76.3	0.0
2025-01-25 09:11:25.330322	198.0	19.8	-76.4	0.0
2025-01-25 09:11:26.454486	198.0	19.7	-76.6	0.0
2025-01-25 09:11:27.576630	198.0	19.5	-76.6	0.0
2025-01-25 09:11:28.697716	198.0	19.4	-76.5	0.0
2025-01-25 09:11:29.818762	198.0	19.2	-75.9	0.0
2025-01-25 09:11:30.942332	198.0	19.1	-76.5	0.0
2025-01-25 09:11:32.063038	198.0	18.9	-76.6	0.0
2025-01-25 09:11:33.185899	198.0	18.8	-76.5	0.0
2025-01-25 09:11:34.309328	198.1	18.7	-76.6	0.0
2025-01-25 09:11:35.432088	198.1	18.5	-76.2	0.0
2025-01-25 09:11:36.553338	198.1	18.4	-76.2	0.0
2025-01-25 09:11:37.676672	198.1	18.3	-76.7	0.0
2025-01-25 09:11:38.799949	198.1	18.1	-76.2	0.0
2025-01-25 09:11:39.925458	198.1	18.0	-76.4	0.0
2025-01-25 09:11:41.046539	198.1	17.8	-76.1	0.0
2025-01-25 09:11:42.170033	198.1	17.7	-76.8	0.0
2025-01-25 09:11:43.293971	198.1	17.6	-76.6	0.0
2025-01-25 09:11:44.418758	198.1	17.4	-76.0	0.0
2025-01-25 09:11:45.541069	198.1	17.3	-76.7	0.0
2025-01-25 09:11:46.664755	198.1	17.2	-76.4	0.0
2025-01-25 09:11:47.786145	198.1	17.0	-76.3	0.0
2025-01-25 09:11:48.907933	198.1	16.9	-75.6	0.0
2025-01-25 09:11:50.033458	198.1	16.8	-76.2	0.0
2025-01-25 09:11:51.156443	198.1	16.7	-76.1	0.0
2025-01-25 09:11:52.280961	198.1	16.5	-76.5	0.0
2025-01-25 09:11:53.403483	198.2	16.4	-76.5	0.0
2025-01-25 09:11:54.526445	198.2	16.3	-76.2	0.0
2025-01-25 09:11:55.648932	198.2	16.2	-75.8	0.0
2025-01-25 09:11:56.771758	198.2	16.0	-75.9	0.0
2025-01-25 09:11:57.894672	198.2	15.9	-75.9	0.0
2025-01-25 09:11:59.016014	198.2	15.8	-76.1	0.0
2025-01-25 09:12:00.138328	198.2	15.7	-76.8	0.0
2025-01-25 09:12:01.260124	198.2	15.5	-76.3	0.0
2025-01-25 09:12:02.382759	198.2	15.4	-76.4	0.0
2025-01-25 09:12:03.505399	198.2	15.3	-76.4	0.0
2025-01-25 09:12:04.628087	198.2	15.2	-76.2	0.0
2025-01-25 09:12:05.749845	198.2	15.0	-75.3	0.0
2025-01-25 09:12:06.872095	198.2	14.9	-76.2	0.0
2025-01-25 09:12:07.995906	198.2	14.8	-76.2	0.0
2025-01-25 09:12:09.115791	198.2	14.7	-76.0	0.0
2025-01-25 09:12:10.237830	198.2	14.6	-76.4	0.0
2025-01-25 09:12:11.359455	198.2	14.5	-76.4	0.0
2025-01-25 09:12:12.483335	198.2	14.3	-76.3	0.0
2025-01-25 09:12:13.605018	198.3	14.2	-75.9	0.0
2025-01-25 09:12:14.728813	198.3	14.1	-76.4	0.0
2025-01-25 09:12:15.850623	198.3	14.0	-76.4	0.0
2025-01-25 09:12:16.973030	198.3	13.9	-75.8	0.0
2025-01-25 09:12:18.095111	198.3	13.8	-76.5	0.0
2025-01-25 09:12:19.219045	198.3	13.6	-76.2	0.0
2025-01-25 09:12:20.342230	198.3	13.5	-76.2	0.0
2025-01-25 09:12:21.465033	198.3	13.4	-76.3	0.0
2025-01-25 09:12:22.589937	198.3	13.3	-76.0	0.0
2025-01-25 09:12:23.712497	198.3	13.2	-76.4	0.0
2025-01-25 09:12:24.837224	198.3	13.1	-76.2	0.0
2025-01-25 09:12:25.960221	198.3	13.0	-76.3	0.0
2025-01-25 09:12:27.080919	198.3	12.9	-76.1	0.0
2025-01-25 09:12:28.205408	198.3	12.8	-76.4	0.0
2025-01-25 09:12:29.325973	198.3	12.6	-76.5	0.0
2025-01-25 09:12:30.447615	198.3	12.5	-76.5	0.0
2025-01-25 09:12:31.571348	198.3	12.4	-77.2	0.0
2025-01-25 09:12:32.693882	198.3	12.3	-76.6	0.0
2025-01-25 09:12:33.816600	198.3	12.2	-76.5	0.0
2025-01-25 09:12:34.937971	198.4	12.1	-76.4	0.0
2025-01-25 09:12:36.062056	198.4	12.0	-76.4	0.0
2025-01-25 09:12:37.182874	198.4	11.9	-76.7	0.0
2025-01-25 09:12:38.305829	198.4	11.8	-76.4	0.0
2025-01-25 09:12:39.429305	198.4	11.7	-76.2	0.0
2025-01-25 09:12:40.548437	198.4	11.6	-76.0	0.0
2025-01-25 09:12:41.672034	198.4	11.5	-76.3	0.0
2025-01-25 09:12:42.794357	198.4	11.4	-76.2	0.0
2025-01-25 09:12:43.917636	198.4	11.3	-76.0	0.0
2025-01-25 09:12:45.040353	198.4	11.2	-76.1	0.0
2025-01-25 09:12:46.164076	198.4	11.1	-76.0	0.0
2025-01-25 09:12:47.287829	198.4	11.0	-76.5	0.0
2025-01-25 09:12:48.412913	198.4	10.9	-76.4	0.0
2025-01-25 09:12:49.535842	198.4	10.8	-76.3	0.0
2025-01-25 09:12:50.657632	198.4	10.7	-76.2	0.0
2025-01-25 09:12:51.779938	198.4	10.6	-76.2	0.0
2025-01-25 09:12:52.903227	198.4	10.5	-76.0	0.0
2025-01-25 09:12:54.025439	198.4	10.4	-76.5	0.0
2025-01-25 09:12:55.148029	198.4	10.3	-76.1	0.0
2025-01-25 09:12:56.271842	198.4	10.2	-76.4	0.0
2025-01-25 09:12:57.394106	198.5	10.1	-76.4	0.0
#Closed at: 2025-01-25 09:01:55.538836