passes_logs/2025/01/25/planumMaritime01/planumMaritime01__20250125_165238_NOAA_19_rec.log

#Pass ID: 20250125_165238_NOAA 19
#Satellite: NOAA 19
#Configuration: NOAA 19
#Start time: 2025-01-25 16:52:43.626535

#LorettStation: 1.0.0 05.05.2024
#Station: planumMaritime01
#Location: 37.49445 lon 55.92918 lat
#TLE: 1 33591U 09005A   25024.77415192  .00000451  00000+0  26462-3 0  9996
#TLE: 2 33591  99.0180  88.6113 0014109  31.0080 329.1922 14.13268355822923

#Time	Az	El	Level	SNR
2025-01-25 16:52:45.790628	116.0	10.2	-78.1	0.0
2025-01-25 16:52:46.914671	115.9	10.3	-78.2	0.0
2025-01-25 16:52:48.039898	115.8	10.3	-77.8	0.0
2025-01-25 16:52:49.164530	115.7	10.4	-77.9	0.0
2025-01-25 16:52:50.288431	115.6	10.5	-78.2	0.0
2025-01-25 16:52:51.411719	115.5	10.6	-78.1	0.0
2025-01-25 16:52:52.536530	115.4	10.7	-78.2	0.0
2025-01-25 16:52:53.658404	115.3	10.8	-77.6	0.0
2025-01-25 16:52:54.780375	115.2	10.9	-78.1	0.0
2025-01-25 16:52:55.903605	115.1	10.9	-78.0	0.0
2025-01-25 16:52:57.026368	115.0	11.0	-78.3	0.0
2025-01-25 16:52:58.150134	114.9	11.1	-78.1	0.0
2025-01-25 16:52:59.274697	114.8	11.2	-78.2	0.0
2025-01-25 16:53:00.397907	114.7	11.3	-78.1	0.0
2025-01-25 16:53:01.521211	114.6	11.4	-77.9	0.0
2025-01-25 16:53:02.643311	114.5	11.5	-78.3	0.0
2025-01-25 16:53:03.763380	114.4	11.6	-78.5	0.0
2025-01-25 16:53:04.887121	114.2	11.7	-78.4	0.0
2025-01-25 16:53:06.011279	114.1	11.7	-78.3	0.0
2025-01-25 16:53:07.137549	114.0	11.8	-78.0	0.0
2025-01-25 16:53:08.259280	113.9	11.9	-78.3	0.0
2025-01-25 16:53:09.381625	113.8	12.0	-77.5	0.0
2025-01-25 16:53:10.504986	113.7	12.1	-78.4	0.0
2025-01-25 16:53:11.626454	113.6	12.2	-78.2	0.0
2025-01-25 16:53:12.752192	113.5	12.3	-78.2	0.0
2025-01-25 16:53:13.874535	113.3	12.4	-78.2	0.0
2025-01-25 16:53:14.995948	113.2	12.5	-78.5	0.0
2025-01-25 16:53:16.120721	113.1	12.6	-78.3	0.0
2025-01-25 16:53:17.242327	113.0	12.7	-78.2	0.0
2025-01-25 16:53:18.367154	112.9	12.7	-78.4	0.0
2025-01-25 16:53:19.490886	112.8	12.8	-78.5	0.0
2025-01-25 16:53:20.613170	112.6	12.9	-78.1	0.0
2025-01-25 16:53:21.736190	112.5	13.0	-77.9	0.0
2025-01-25 16:53:22.859589	112.4	13.1	-78.3	0.0
2025-01-25 16:53:23.982390	112.3	13.2	-78.5	0.0
2025-01-25 16:53:25.106217	112.2	13.3	-78.2	0.0
2025-01-25 16:53:26.228239	112.0	13.4	-78.5	0.0
2025-01-25 16:53:27.352074	111.9	13.5	-78.6	0.0
2025-01-25 16:53:28.476494	111.8	13.6	-78.4	0.0
2025-01-25 16:53:29.598406	111.7	13.7	-78.3	0.0
2025-01-25 16:53:30.721708	111.5	13.8	-78.4	0.0
2025-01-25 16:53:31.845808	111.4	13.9	-78.4	0.0
2025-01-25 16:53:32.967068	111.3	14.0	-78.3	0.0
2025-01-25 16:53:34.088773	111.2	14.1	-78.3	0.0
2025-01-25 16:53:35.212389	111.0	14.1	-78.5	0.0
2025-01-25 16:53:36.336822	110.9	14.2	-78.6	0.0
2025-01-25 16:53:37.459030	110.8	14.3	-78.7	0.0
2025-01-25 16:53:38.581216	110.6	14.4	-78.5	0.0
2025-01-25 16:53:39.703099	110.5	14.5	-78.5	0.0
2025-01-25 16:53:40.826151	110.4	14.6	-78.5	0.0
2025-01-25 16:53:41.951685	110.2	14.7	-78.6	0.0
2025-01-25 16:53:43.075701	110.1	14.8	-78.5	0.0
2025-01-25 16:53:44.198757	110.0	14.9	-78.5	0.0
2025-01-25 16:53:45.322749	109.8	15.0	-78.6	0.0
2025-01-25 16:53:46.447073	109.7	15.1	-78.7	0.0
2025-01-25 16:53:47.569676	109.5	15.2	-78.6	0.0
2025-01-25 16:53:48.691210	109.4	15.3	-78.7	0.0
2025-01-25 16:53:49.813651	109.3	15.4	-78.6	0.0
2025-01-25 16:53:50.937641	109.1	15.5	-78.8	0.0
2025-01-25 16:53:52.059787	109.0	15.6	-78.6	0.0
2025-01-25 16:53:53.182759	108.8	15.7	-78.9	0.0
2025-01-25 16:53:54.306632	108.7	15.8	-78.4	0.0
2025-01-25 16:53:55.428718	108.5	15.9	-78.3	0.0
2025-01-25 16:53:56.551099	108.4	16.0	-78.8	0.0
2025-01-25 16:53:57.670883	108.3	16.1	-78.5	0.0
2025-01-25 16:53:58.795377	108.1	16.2	-78.5	0.0
2025-01-25 16:53:59.918185	108.0	16.3	-78.8	0.0
2025-01-25 16:54:01.040622	107.8	16.4	-78.6	0.0
2025-01-25 16:54:02.165610	107.7	16.5	-78.6	0.0
2025-01-25 16:54:03.290071	107.5	16.6	-78.7	0.0
2025-01-25 16:54:04.411307	107.3	16.7	-78.6	0.0
2025-01-25 16:54:05.534700	107.2	16.8	-78.4	0.0
2025-01-25 16:54:06.659960	107.0	16.9	-78.1	0.0
2025-01-25 16:54:07.783073	106.9	17.0	-78.1	0.0
2025-01-25 16:54:08.906658	106.7	17.1	-78.3	0.0
2025-01-25 16:54:10.030788	106.6	17.2	-78.0	0.0
2025-01-25 16:54:11.153377	106.4	17.3	-78.4	0.0
2025-01-25 16:54:12.277821	106.2	17.4	-78.1	0.0
2025-01-25 16:54:13.401287	106.1	17.5	-77.8	0.0
2025-01-25 16:54:14.524555	105.9	17.6	-78.2	0.0
2025-01-25 16:54:15.649837	105.7	17.7	-77.9	0.0
2025-01-25 16:54:16.771984	105.6	17.8	-77.9	0.0
2025-01-25 16:54:17.895797	105.4	17.9	-78.3	0.0
2025-01-25 16:54:19.020487	105.2	18.0	-78.3	0.0
2025-01-25 16:54:20.143477	105.1	18.1	-78.1	0.0
2025-01-25 16:54:21.265622	104.9	18.2	-78.4	0.0
2025-01-25 16:54:22.386619	104.7	18.3	-77.8	0.0
2025-01-25 16:54:23.509020	104.6	18.4	-78.7	0.0
2025-01-25 16:54:24.632740	104.4	18.6	-78.0	0.0
2025-01-25 16:54:25.758705	104.2	18.7	-78.3	0.0
2025-01-25 16:54:26.881798	104.0	18.8	-78.3	0.0
2025-01-25 16:54:28.003619	103.9	18.9	-78.2	0.0
2025-01-25 16:54:29.128509	103.7	19.0	-78.7	0.0
2025-01-25 16:54:30.251664	103.5	19.1	-78.2	0.0
2025-01-25 16:54:31.372221	103.3	19.2	-78.2	0.0
2025-01-25 16:54:32.496774	103.1	19.3	-78.1	0.0
2025-01-25 16:54:33.618866	103.0	19.4	-78.5	0.0
2025-01-25 16:54:34.744583	102.8	19.5	-78.5	0.0
2025-01-25 16:54:35.865551	102.6	19.6	-78.3	0.0
2025-01-25 16:54:36.987922	102.4	19.7	-78.3	0.0
2025-01-25 16:54:38.113051	102.2	19.8	-77.9	0.0
2025-01-25 16:54:39.234443	102.0	19.9	-78.5	0.0
2025-01-25 16:54:40.358145	101.8	20.0	-78.7	0.0
2025-01-25 16:54:41.479105	101.6	20.1	-78.4	0.0
2025-01-25 16:54:42.601376	101.4	20.2	-78.4	0.0
2025-01-25 16:54:43.724768	101.2	20.3	-78.6	0.0
2025-01-25 16:54:44.848910	101.0	20.5	-78.6	0.0
2025-01-25 16:54:45.969941	100.9	20.6	-78.8	0.0
2025-01-25 16:54:47.094111	100.7	20.7	-78.7	0.0
2025-01-25 16:54:48.218268	100.4	20.8	-78.9	0.0
2025-01-25 16:54:49.341651	100.2	20.9	-79.1	0.0
2025-01-25 16:54:50.465631	100.0	21.0	-79.0	0.0
2025-01-25 16:54:51.588430	99.8	21.1	-78.9	0.0
2025-01-25 16:54:52.711955	99.6	21.2	-79.1	0.0
2025-01-25 16:54:53.834708	99.4	21.3	-79.0	0.0
2025-01-25 16:54:54.959535	99.2	21.4	-79.1	0.0
2025-01-25 16:54:56.081791	99.0	21.5	-79.3	0.0
2025-01-25 16:54:57.203984	98.8	21.6	-79.3	0.0
2025-01-25 16:54:58.326702	98.6	21.7	-79.0	0.0
2025-01-25 16:54:59.448362	98.4	21.8	-79.3	0.0
2025-01-25 16:55:00.571154	98.1	21.9	-79.2	0.0
2025-01-25 16:55:01.695238	97.9	22.1	-78.6	0.0
2025-01-25 16:55:02.819344	97.7	22.2	-79.1	0.0
2025-01-25 16:55:03.943244	97.5	22.3	-79.0	0.0
2025-01-25 16:55:05.067154	97.3	22.4	-78.7	0.0
2025-01-25 16:55:06.191459	97.0	22.5	-78.6	0.0
2025-01-25 16:55:07.314593	96.8	22.6	-78.7	0.0
2025-01-25 16:55:08.438469	96.6	22.7	-79.0	0.0
2025-01-25 16:55:09.563466	96.3	22.8	-78.5	0.0
2025-01-25 16:55:10.688745	96.1	22.9	-78.7	0.0
2025-01-25 16:55:11.811876	95.9	23.0	-78.6	0.0
2025-01-25 16:55:12.936847	95.7	23.1	-78.2	0.0
2025-01-25 16:55:14.063031	95.4	23.2	-79.0	0.0
2025-01-25 16:55:15.184991	95.2	23.3	-79.0	0.0
2025-01-25 16:55:16.308308	94.9	23.4	-78.5	0.0
2025-01-25 16:55:17.434663	94.7	23.6	-78.2	0.0
2025-01-25 16:55:18.557614	94.5	23.7	-78.4	0.0
2025-01-25 16:55:19.680061	94.2	23.8	-78.5	0.0
2025-01-25 16:55:20.802390	94.0	23.9	-78.2	0.0
2025-01-25 16:55:21.924379	93.7	24.0	-78.1	0.0
2025-01-25 16:55:23.047349	93.5	24.1	-78.7	0.0
2025-01-25 16:55:24.168884	93.2	24.2	-78.6	0.0
2025-01-25 16:55:25.291955	93.0	24.3	-78.8	0.0
2025-01-25 16:55:26.416547	92.7	24.4	-78.9	0.0
2025-01-25 16:55:27.539530	92.5	24.5	-78.9	0.0
2025-01-25 16:55:28.665094	92.2	24.6	-78.5	0.0
2025-01-25 16:55:29.787534	91.9	24.7	-79.1	0.0
2025-01-25 16:55:30.909879	91.7	24.8	-79.0	0.0
2025-01-25 16:55:32.031691	91.4	24.9	-78.8	0.0
2025-01-25 16:55:33.155371	91.2	25.0	-79.0	0.0
2025-01-25 16:55:34.279700	90.9	25.1	-79.1	0.0
2025-01-25 16:55:35.404081	90.6	25.2	-78.6	0.0
2025-01-25 16:55:36.528117	90.3	25.3	-78.8	0.0
2025-01-25 16:55:37.654101	90.1	25.4	-78.7	0.0
2025-01-25 16:55:38.774403	89.8	25.5	-78.8	0.0
2025-01-25 16:55:39.895554	89.5	25.6	-78.6	0.0
2025-01-25 16:55:41.019998	89.3	25.7	-78.6	0.0
2025-01-25 16:55:42.141824	89.0	25.8	-78.9	0.0
2025-01-25 16:55:43.266413	88.7	25.9	-78.6	0.0
2025-01-25 16:55:44.389722	88.4	26.0	-78.6	0.0
2025-01-25 16:55:45.513640	88.1	26.1	-78.9	0.0
2025-01-25 16:55:46.636790	87.8	26.2	-78.8	0.0
2025-01-25 16:55:47.759646	87.6	26.3	-79.2	0.0
2025-01-25 16:55:48.883460	87.3	26.4	-79.1	0.0
2025-01-25 16:55:50.005825	87.0	26.5	-79.1	0.0
2025-01-25 16:55:51.129030	86.7	26.6	-78.9	0.0
2025-01-25 16:55:52.253294	86.4	26.7	-78.9	0.0
2025-01-25 16:55:53.375913	86.1	26.8	-79.1	0.0
2025-01-25 16:55:54.496870	85.8	26.9	-79.2	0.0
2025-01-25 16:55:55.620790	85.5	27.0	-79.0	0.0
2025-01-25 16:55:56.743213	85.2	27.1	-79.0	0.0
2025-01-25 16:55:57.863880	84.9	27.2	-78.9	0.0
2025-01-25 16:55:58.987414	84.6	27.3	-78.9	0.0
2025-01-25 16:56:00.111019	84.3	27.4	-78.7	0.0
2025-01-25 16:56:01.232497	84.0	27.5	-78.6	0.0
2025-01-25 16:56:02.356167	83.7	27.6	-78.5	0.0
2025-01-25 16:56:03.479552	83.3	27.7	-78.8	0.0
2025-01-25 16:56:04.602096	83.0	27.8	-79.1	0.0
2025-01-25 16:56:05.726912	82.7	27.9	-79.1	0.0
2025-01-25 16:56:06.849989	82.4	28.0	-79.0	0.0
2025-01-25 16:56:07.973113	82.1	28.0	-79.0	0.0
2025-01-25 16:56:09.094108	81.8	28.1	-79.3	0.0
2025-01-25 16:56:10.216595	81.4	28.2	-78.9	0.0
2025-01-25 16:56:11.338444	81.1	28.3	-79.2	0.0
2025-01-25 16:56:12.463851	80.8	28.4	-79.3	0.0
2025-01-25 16:56:13.587602	80.5	28.5	-79.4	0.0
2025-01-25 16:56:14.709221	80.1	28.6	-79.0	0.0
2025-01-25 16:56:15.831330	79.8	28.6	-78.9	0.0
2025-01-25 16:56:16.956591	79.5	28.7	-78.8	0.0
2025-01-25 16:56:18.079480	79.1	28.8	-78.9	0.0
2025-01-25 16:56:19.202091	78.8	28.9	-79.4	0.0
2025-01-25 16:56:20.325295	78.4	29.0	-79.0	0.0
2025-01-25 16:56:21.447941	78.1	29.1	-79.1	0.0
2025-01-25 16:56:22.572068	77.8	29.1	-79.1	0.0
2025-01-25 16:56:23.694224	77.4	29.2	-79.1	0.0
2025-01-25 16:56:24.816864	77.1	29.3	-78.9	0.0
2025-01-25 16:56:25.937625	76.7	29.4	-79.0	0.0
2025-01-25 16:56:27.061059	76.4	29.4	-78.7	0.0
2025-01-25 16:56:28.182927	76.0	29.5	-79.0	0.0
2025-01-25 16:56:29.305228	75.7	29.6	-78.9	0.0
2025-01-25 16:56:30.428828	75.3	29.7	-79.0	0.0
2025-01-25 16:56:31.552568	75.0	29.7	-79.0	0.0
2025-01-25 16:56:32.675334	74.6	29.8	-78.8	0.0
2025-01-25 16:56:33.799174	74.3	29.9	-78.2	0.0
2025-01-25 16:56:34.921982	73.9	29.9	-79.0	0.0
2025-01-25 16:56:36.044336	73.5	30.0	-79.1	0.0
2025-01-25 16:56:37.167356	73.2	30.1	-78.7	0.0
2025-01-25 16:56:38.289707	72.8	30.1	-79.2	0.0
2025-01-25 16:56:39.414091	72.4	30.2	-78.9	0.0
2025-01-25 16:56:40.537836	72.1	30.2	-79.3	0.0
2025-01-25 16:56:41.661714	71.7	30.3	-78.5	0.0
2025-01-25 16:56:42.782534	71.3	30.4	-79.0	0.0
2025-01-25 16:56:43.905448	71.0	30.4	-78.9	0.0
2025-01-25 16:56:45.028328	70.6	30.5	-78.8	0.0
2025-01-25 16:56:46.153153	70.2	30.5	-78.6	0.0
2025-01-25 16:56:47.277610	69.8	30.6	-79.1	0.0
2025-01-25 16:56:48.399036	69.5	30.6	-78.6	0.0
2025-01-25 16:56:49.524317	69.1	30.7	-79.4	0.0
2025-01-25 16:56:50.645054	68.7	30.7	-79.2	0.0
2025-01-25 16:56:51.766764	68.3	30.8	-78.8	0.0
2025-01-25 16:56:52.887513	68.0	30.8	-78.6	0.0
2025-01-25 16:56:54.010212	67.6	30.9	-78.4	0.0
2025-01-25 16:56:55.134473	67.2	30.9	-78.6	0.0
2025-01-25 16:56:56.258125	66.8	31.0	-78.5	0.0
2025-01-25 16:56:57.383206	66.4	31.0	-78.4	0.0
2025-01-25 16:56:58.505455	66.0	31.1	-78.1	0.0
2025-01-25 16:56:59.628498	65.7	31.1	-78.9	0.0
2025-01-25 16:57:00.750231	65.3	31.1	-79.1	0.0
2025-01-25 16:57:01.873615	64.9	31.2	-79.2	0.0
2025-01-25 16:57:02.997169	64.5	31.2	-78.8	0.0
2025-01-25 16:57:04.119257	64.1	31.2	-78.6	0.0
2025-01-25 16:57:05.241050	63.7	31.3	-78.5	0.0
2025-01-25 16:57:06.365151	63.3	31.3	-78.9	0.0
2025-01-25 16:57:07.490154	62.9	31.3	-79.0	0.0
2025-01-25 16:57:08.614212	62.5	31.4	-78.8	0.0
2025-01-25 16:57:09.736747	62.1	31.4	-78.3	0.0
2025-01-25 16:57:10.861097	61.7	31.4	-78.8	0.0
2025-01-25 16:57:11.983996	61.4	31.4	-78.8	0.0
2025-01-25 16:57:13.106915	61.0	31.5	-78.8	0.0
2025-01-25 16:57:14.230533	60.6	31.5	-79.0	0.0
2025-01-25 16:57:15.353131	60.2	31.5	-78.7	0.0
2025-01-25 16:57:16.475582	59.8	31.5	-78.7	0.0
2025-01-25 16:57:17.599864	59.4	31.5	-78.2	0.0
2025-01-25 16:57:18.721057	59.0	31.5	-78.6	0.0
2025-01-25 16:57:19.842093	58.6	31.6	-78.3	0.0
2025-01-25 16:57:20.965746	58.2	31.6	-78.5	0.0
2025-01-25 16:57:22.088555	57.8	31.6	-78.6	0.0
2025-01-25 16:57:23.211660	57.4	31.6	-77.9	0.0
2025-01-25 16:57:24.334760	57.0	31.6	-78.5	0.0
2025-01-25 16:57:25.457101	56.6	31.6	-78.9	0.0
2025-01-25 16:57:26.579494	56.2	31.6	-78.8	0.0
2025-01-25 16:57:27.705372	55.8	31.6	-79.0	0.0
2025-01-25 16:57:28.827841	55.4	31.6	-78.8	0.0
2025-01-25 16:57:29.952956	55.0	31.6	-79.0	0.0
2025-01-25 16:57:31.074637	54.6	31.6	-78.7	0.0
2025-01-25 16:57:32.198644	54.2	31.6	-78.7	0.0
2025-01-25 16:57:33.322096	53.8	31.6	-78.4	0.0
2025-01-25 16:57:34.443785	53.4	31.6	-78.5	0.0
2025-01-25 16:57:35.566607	53.0	31.6	-78.7	0.0
2025-01-25 16:57:36.689006	52.6	31.5	-78.8	0.0
2025-01-25 16:57:37.813420	52.2	31.5	-78.5	0.0
2025-01-25 16:57:38.932538	51.8	31.5	-78.6	0.0
2025-01-25 16:57:40.055084	51.4	31.5	-79.1	0.0
2025-01-25 16:57:41.177060	51.0	31.5	-79.1	0.0
2025-01-25 16:57:42.298555	50.6	31.5	-79.1	0.0
2025-01-25 16:57:43.422585	50.2	31.4	-79.1	0.0
2025-01-25 16:57:44.546011	49.8	31.4	-79.1	0.0
2025-01-25 16:57:45.669012	49.4	31.4	-79.1	0.0
2025-01-25 16:57:46.791590	49.0	31.4	-79.2	0.0
2025-01-25 16:57:47.915189	48.7	31.4	-78.9	0.0
2025-01-25 16:57:49.038714	48.3	31.3	-79.0	0.0
2025-01-25 16:57:50.162102	47.9	31.3	-78.9	0.0
2025-01-25 16:57:51.285437	47.5	31.3	-79.4	0.0
2025-01-25 16:57:52.408196	47.1	31.2	-79.4	0.0
2025-01-25 16:57:53.531453	46.7	31.2	-79.1	0.0
2025-01-25 16:57:54.654829	46.3	31.2	-79.2	0.0
2025-01-25 16:57:55.778265	45.9	31.1	-79.0	0.0
2025-01-25 16:57:56.900307	45.5	31.1	-79.0	0.0
2025-01-25 16:57:58.024412	45.2	31.0	-78.9	0.0
2025-01-25 16:57:59.148264	44.8	31.0	-79.3	0.0
2025-01-25 16:58:00.267207	44.4	31.0	-79.2	0.0
2025-01-25 16:58:01.392165	44.0	30.9	-79.2	0.0
2025-01-25 16:58:02.513781	43.6	30.9	-79.3	0.0
2025-01-25 16:58:03.637365	43.2	30.8	-79.1	0.0
2025-01-25 16:58:04.760552	42.9	30.8	-79.2	0.0
2025-01-25 16:58:05.883568	42.5	30.7	-79.6	0.0
2025-01-25 16:58:07.005856	42.1	30.7	-78.4	0.0
2025-01-25 16:58:08.126692	41.7	30.6	-79.4	0.0
2025-01-25 16:58:09.249155	41.4	30.6	-79.1	0.0
2025-01-25 16:58:10.371943	41.0	30.5	-78.9	0.0
2025-01-25 16:58:11.495213	40.6	30.5	-79.1	0.0
2025-01-25 16:58:12.619094	40.2	30.4	-79.2	0.0
2025-01-25 16:58:13.741566	39.9	30.4	-79.0	0.0
2025-01-25 16:58:14.865737	39.5	30.3	-79.4	0.0
2025-01-25 16:58:15.989707	39.1	30.2	-79.2	0.0
2025-01-25 16:58:17.112534	38.8	30.2	-78.8	0.0
2025-01-25 16:58:18.237697	38.4	30.1	-78.8	0.0
2025-01-25 16:58:19.359464	38.1	30.0	-79.4	0.0
2025-01-25 16:58:20.481847	37.7	30.0	-79.2	0.0
2025-01-25 16:58:21.603290	37.3	29.9	-79.2	0.0
2025-01-25 16:58:22.725662	37.0	29.8	-79.1	0.0
2025-01-25 16:58:23.848535	36.6	29.8	-78.9	0.0
2025-01-25 16:58:24.972044	36.3	29.7	-79.3	0.0
2025-01-25 16:58:26.094478	35.9	29.6	-79.1	0.0
2025-01-25 16:58:27.217983	35.6	29.6	-79.3	0.0
2025-01-25 16:58:28.340666	35.2	29.5	-79.3	0.0
2025-01-25 16:58:29.463537	34.9	29.4	-79.1	0.0
2025-01-25 16:58:30.585809	34.5	29.3	-79.0	0.0
2025-01-25 16:58:31.710158	34.2	29.3	-79.2	0.0
2025-01-25 16:58:32.834893	33.8	29.2	-79.1	0.0
2025-01-25 16:58:33.958124	33.5	29.1	-79.2	0.0
2025-01-25 16:58:35.080516	33.1	29.0	-79.6	0.0
2025-01-25 16:58:36.204898	32.8	29.0	-78.8	0.0
2025-01-25 16:58:37.329047	32.5	28.9	-78.3	0.0
2025-01-25 16:58:38.451347	32.1	28.8	-78.9	0.0
2025-01-25 16:58:39.574854	31.8	28.7	-78.7	0.0
2025-01-25 16:58:40.698913	31.5	28.6	-79.2	0.0
2025-01-25 16:58:41.820964	31.1	28.5	-79.1	0.0
2025-01-25 16:58:42.943856	30.8	28.5	-79.1	0.0
2025-01-25 16:58:44.065668	30.5	28.4	-79.5	0.0
2025-01-25 16:58:45.189105	30.2	28.3	-79.0	0.0
2025-01-25 16:58:46.312772	29.8	28.2	-79.2	0.0
2025-01-25 16:58:47.436553	29.5	28.1	-79.2	0.0
2025-01-25 16:58:48.558973	29.2	28.0	-79.4	0.0
2025-01-25 16:58:49.680664	28.9	27.9	-79.3	0.0
2025-01-25 16:58:50.805304	28.6	27.9	-78.9	0.0
2025-01-25 16:58:51.928214	28.3	27.8	-79.1	0.0
2025-01-25 16:58:53.051981	27.9	27.7	-79.1	0.0
2025-01-25 16:58:54.173397	27.6	27.6	-79.3	0.0
2025-01-25 16:58:55.297136	27.3	27.5	-78.4	0.0
2025-01-25 16:58:56.419533	27.0	27.4	-79.1	0.0
2025-01-25 16:58:57.543255	26.7	27.3	-79.7	0.0
2025-01-25 16:58:58.667188	26.4	27.2	-79.2	0.0
2025-01-25 16:58:59.789501	26.1	27.1	-79.3	0.0
2025-01-25 16:59:00.911108	25.8	27.0	-79.3	0.0
2025-01-25 16:59:02.032774	25.5	26.9	-79.2	0.0
2025-01-25 16:59:03.156348	25.2	26.8	-79.1	0.0
2025-01-25 16:59:04.279998	24.9	26.7	-79.4	0.0
2025-01-25 16:59:05.404008	24.6	26.6	-79.5	0.0
2025-01-25 16:59:06.527820	24.3	26.5	-79.1	0.0
2025-01-25 16:59:07.650686	24.0	26.4	-79.4	0.0
2025-01-25 16:59:08.774932	23.8	26.3	-79.4	0.0
2025-01-25 16:59:09.899332	23.5	26.2	-79.3	0.0
2025-01-25 16:59:11.021579	23.2	26.1	-79.4	0.0
2025-01-25 16:59:12.143196	22.9	26.0	-79.5	0.0
2025-01-25 16:59:13.265445	22.6	25.9	-79.3	0.0
2025-01-25 16:59:14.388754	22.4	25.8	-79.4	0.0
2025-01-25 16:59:15.513519	22.1	25.7	-79.6	0.0
2025-01-25 16:59:16.636482	21.8	25.6	-79.7	0.0
2025-01-25 16:59:17.759685	21.5	25.5	-79.4	0.0
2025-01-25 16:59:18.881403	21.3	25.4	-79.6	0.0
2025-01-25 16:59:20.007365	21.0	25.3	-78.2	0.0
2025-01-25 16:59:21.130544	20.7	25.2	-78.8	0.0
2025-01-25 16:59:22.253530	20.5	25.1	-78.9	0.0
2025-01-25 16:59:23.376904	20.2	25.0	-79.1	0.0
2025-01-25 16:59:24.499867	19.9	24.9	-79.3	0.0
2025-01-25 16:59:25.622622	19.7	24.8	-79.4	0.0
2025-01-25 16:59:26.743539	19.4	24.7	-79.3	0.0
2025-01-25 16:59:27.865473	19.2	24.6	-79.3	0.0
2025-01-25 16:59:28.987507	18.9	24.5	-78.3	0.0
2025-01-25 16:59:30.109534	18.6	24.4	-78.1	0.0
2025-01-25 16:59:31.231385	18.4	24.3	-78.1	0.0
2025-01-25 16:59:32.357504	18.1	24.2	-78.3	0.0
2025-01-25 16:59:33.480728	17.9	24.1	-78.4	0.0
2025-01-25 16:59:34.602683	17.7	24.0	-78.5	0.0
2025-01-25 16:59:35.727465	17.4	23.9	-78.3	0.0
2025-01-25 16:59:36.849925	17.2	23.8	-78.4	0.0
2025-01-25 16:59:37.971927	16.9	23.7	-78.5	0.0
2025-01-25 16:59:39.094059	16.7	23.6	-78.3	0.0
2025-01-25 16:59:40.215098	16.4	23.5	-78.4	0.0
2025-01-25 16:59:41.336697	16.2	23.4	-78.3	0.0
2025-01-25 16:59:42.459605	16.0	23.2	-78.3	0.0
2025-01-25 16:59:43.582791	15.7	23.1	-78.4	0.0
2025-01-25 16:59:44.705910	15.5	23.0	-78.7	0.0
2025-01-25 16:59:45.829086	15.3	22.9	-78.6	0.0
2025-01-25 16:59:46.950672	15.0	22.8	-78.5	0.0
2025-01-25 16:59:48.075309	14.8	22.7	-78.7	0.0
2025-01-25 16:59:49.199782	14.6	22.6	-78.5	0.0
2025-01-25 16:59:50.322907	14.4	22.5	-78.3	0.0
2025-01-25 16:59:51.447748	14.1	22.4	-78.3	0.0
2025-01-25 16:59:52.570055	13.9	22.3	-78.4	0.0
2025-01-25 16:59:53.692179	13.7	22.2	-78.7	0.0
2025-01-25 16:59:54.815941	13.5	22.1	-78.7	0.0
2025-01-25 16:59:55.941280	13.3	22.0	-78.6	0.0
2025-01-25 16:59:57.064049	13.1	21.9	-78.6	0.0
2025-01-25 16:59:58.186612	12.8	21.8	-78.3	0.0
2025-01-25 16:59:59.310510	12.6	21.7	-79.1	0.0
2025-01-25 17:00:00.432851	12.4	21.5	-78.9	0.0
2025-01-25 17:00:01.555877	12.2	21.4	-78.0	0.0
2025-01-25 17:00:02.679232	12.0	21.3	-78.7	0.0
2025-01-25 17:00:03.801335	11.8	21.2	-78.9	0.0
2025-01-25 17:00:04.925333	11.6	21.1	-79.1	0.0
2025-01-25 17:00:06.051009	11.4	21.0	-78.9	0.0
2025-01-25 17:00:07.172972	11.2	20.9	-79.2	0.0
2025-01-25 17:00:08.296457	11.0	20.8	-79.1	0.0
2025-01-25 17:00:09.420581	10.8	20.7	-78.5	0.0
2025-01-25 17:00:10.542612	10.6	20.6	-78.7	0.0
2025-01-25 17:00:11.666258	10.4	20.5	-79.0	0.0
2025-01-25 17:00:12.791076	10.2	20.4	-78.8	0.0
2025-01-25 17:00:13.914920	10.0	20.3	-78.7	0.0
2025-01-25 17:00:15.038119	9.8	20.2	-78.6	0.0
2025-01-25 17:00:16.160073	9.6	20.1	-79.1	0.0
2025-01-25 17:00:17.285848	9.4	20.0	-78.9	0.0
2025-01-25 17:00:18.408881	9.2	19.9	-78.5	0.0
2025-01-25 17:00:19.533173	9.1	19.7	-79.0	0.0
2025-01-25 17:00:20.655814	8.9	19.6	-78.7	0.0
2025-01-25 17:00:21.778709	8.7	19.5	-79.2	0.0
2025-01-25 17:00:22.903369	8.5	19.4	-79.4	0.0
2025-01-25 17:00:24.025366	8.3	19.3	-79.3	0.0
2025-01-25 17:00:25.148668	8.1	19.2	-78.9	0.0
2025-01-25 17:00:26.274356	8.0	19.1	-78.9	0.0
2025-01-25 17:00:27.395726	7.8	19.0	-79.2	0.0
2025-01-25 17:00:28.521161	7.6	18.9	-79.1	0.0
2025-01-25 17:00:29.644975	7.4	18.8	-79.2	0.0
2025-01-25 17:00:30.769150	7.3	18.7	-79.1	0.0
2025-01-25 17:00:31.892019	7.1	18.6	-79.4	0.0
2025-01-25 17:00:33.014848	6.9	18.5	-79.0	0.0
2025-01-25 17:00:34.137763	6.7	18.4	-79.1	0.0
2025-01-25 17:00:35.262041	6.6	18.3	-79.2	0.0
2025-01-25 17:00:36.383813	6.4	18.2	-79.3	0.0
2025-01-25 17:00:37.506155	6.2	18.1	-79.4	0.0
2025-01-25 17:00:38.627401	6.1	18.0	-78.3	0.0
2025-01-25 17:00:39.752002	5.9	17.9	-78.8	0.0
2025-01-25 17:00:40.874534	5.7	17.8	-79.1	0.0
2025-01-25 17:00:41.996431	5.6	17.7	-78.9	0.0
2025-01-25 17:00:43.118947	5.4	17.6	-78.7	0.0
2025-01-25 17:00:44.240156	5.3	17.5	-78.5	0.0
2025-01-25 17:00:45.361016	5.1	17.4	-79.0	0.0
2025-01-25 17:00:46.483455	4.9	17.3	-79.0	0.0
2025-01-25 17:00:47.605455	4.8	17.2	-78.5	0.0
2025-01-25 17:00:48.726228	4.6	17.1	-78.8	0.0
2025-01-25 17:00:49.850556	4.5	17.0	-78.9	0.0
2025-01-25 17:00:50.973920	4.3	16.9	-78.8	0.0
2025-01-25 17:00:52.097854	4.2	16.8	-79.0	0.0
2025-01-25 17:00:53.220957	4.0	16.7	-78.6	0.0
2025-01-25 17:00:54.344439	3.9	16.6	-79.3	0.0
2025-01-25 17:00:55.468087	3.7	16.5	-78.9	0.0
2025-01-25 17:00:56.589729	3.6	16.4	-78.7	0.0
2025-01-25 17:00:57.712058	3.4	16.3	-78.4	0.0
2025-01-25 17:00:58.833384	3.3	16.2	-79.4	0.0
2025-01-25 17:00:59.957943	3.1	16.1	-79.3	0.0
2025-01-25 17:01:01.078897	3.0	16.0	-79.0	0.0
2025-01-25 17:01:02.201413	2.8	15.9	-79.0	0.0
2025-01-25 17:01:03.325963	2.7	15.8	-78.3	0.0
2025-01-25 17:01:04.450850	2.5	15.7	-78.9	0.0
2025-01-25 17:01:05.575099	2.4	15.6	-79.1	0.0
2025-01-25 17:01:06.698262	2.3	15.5	-79.2	0.0
2025-01-25 17:01:07.822331	2.1	15.4	-79.0	0.0
2025-01-25 17:01:08.943840	2.0	15.3	-78.4	0.0
2025-01-25 17:01:10.065292	1.9	15.2	-78.8	0.0
2025-01-25 17:01:11.187682	1.7	15.1	-79.0	0.0
2025-01-25 17:01:12.309950	1.6	15.0	-79.0	0.0
2025-01-25 17:01:13.433370	1.4	14.9	-79.2	0.0
2025-01-25 17:01:14.555869	1.3	14.8	-79.3	0.0
2025-01-25 17:01:15.681430	1.2	14.7	-79.5	0.0
2025-01-25 17:01:16.804270	1.0	14.6	-79.2	0.0
2025-01-25 17:01:17.926775	0.9	14.5	-78.6	0.0
2025-01-25 17:01:19.050121	0.8	14.4	-78.9	0.0
2025-01-25 17:01:20.174682	0.7	14.3	-79.1	0.0
2025-01-25 17:01:21.297981	0.5	14.2	-79.1	0.0
2025-01-25 17:01:22.421249	0.4	14.1	-79.2	0.0
2025-01-25 17:01:23.543760	0.3	14.0	-79.4	0.0
2025-01-25 17:01:24.665549	0.1	13.9	-79.3	0.0
2025-01-25 17:01:25.787506	0.0	13.9	-79.1	0.0
2025-01-25 17:01:26.910373	359.9	13.8	-79.1	0.0
2025-01-25 17:01:28.033419	359.8	13.7	-79.0	0.0
2025-01-25 17:01:29.155508	359.7	13.6	-79.0	0.0
2025-01-25 17:01:30.280394	359.5	13.5	-79.7	0.0
2025-01-25 17:01:31.401161	359.4	13.4	-79.2	0.0
2025-01-25 17:01:32.523182	359.3	13.3	-79.0	0.0
2025-01-25 17:01:33.648006	359.2	13.2	-79.2	0.0
2025-01-25 17:01:34.771009	359.0	13.1	-79.2	0.0
2025-01-25 17:01:35.893047	358.9	13.0	-79.3	0.0
2025-01-25 17:01:37.018156	358.8	12.9	-79.4	0.0
2025-01-25 17:01:38.140259	358.7	12.8	-79.0	0.0
2025-01-25 17:01:39.261729	358.6	12.7	-79.1	0.0
2025-01-25 17:01:40.385602	358.5	12.7	-79.3	0.0
2025-01-25 17:01:41.507077	358.4	12.6	-78.7	0.0
2025-01-25 17:01:42.629984	358.2	12.5	-78.5	0.0
2025-01-25 17:01:43.752544	358.1	12.4	-78.6	0.0
2025-01-25 17:01:44.874805	358.0	12.3	-79.1	0.0
2025-01-25 17:01:45.997647	357.9	12.2	-79.4	0.0
2025-01-25 17:01:47.121687	357.8	12.1	-79.0	0.0
2025-01-25 17:01:48.244763	357.7	12.0	-78.8	0.0
2025-01-25 17:01:49.366547	357.6	11.9	-79.1	0.0
2025-01-25 17:01:50.487404	357.5	11.8	-79.0	0.0
2025-01-25 17:01:51.608455	357.4	11.8	-79.5	0.0
2025-01-25 17:01:52.730736	357.2	11.7	-78.8	0.0
2025-01-25 17:01:53.851594	357.1	11.6	-79.1	0.0
2025-01-25 17:01:54.973008	357.0	11.5	-79.3	0.0
2025-01-25 17:01:56.094374	356.9	11.4	-79.7	0.0
2025-01-25 17:01:57.216405	356.8	11.3	-78.9	0.0
2025-01-25 17:01:58.340263	356.7	11.2	-78.9	0.0
2025-01-25 17:01:59.462776	356.6	11.1	-79.2	0.0
2025-01-25 17:02:00.586930	356.5	11.1	-79.2	0.0
2025-01-25 17:02:01.709139	356.4	11.0	-79.4	0.0
2025-01-25 17:02:02.830514	356.3	10.9	-79.1	0.0
2025-01-25 17:02:03.951777	356.2	10.8	-79.2	0.0
2025-01-25 17:02:05.073495	356.1	10.7	-79.2	0.0
2025-01-25 17:02:06.196476	356.0	10.6	-78.9	0.0
2025-01-25 17:02:07.318374	355.9	10.5	-79.0	0.0
2025-01-25 17:02:08.443542	355.8	10.4	-78.6	0.0
2025-01-25 17:02:09.566531	355.7	10.4	-79.2	0.0
2025-01-25 17:02:10.688582	355.6	10.3	-79.4	0.0
2025-01-25 17:02:11.809372	355.5	10.2	-79.2	0.0
2025-01-25 17:02:12.930714	355.4	10.1	-79.2	0.0
2025-01-25 17:02:14.054857	355.3	10.0	-79.1	0.0
#Closed at: 2025-01-25 16:52:38.628428