passes_logs/2025/01/25/planumMaritime01/planumMaritime01__20250125_083905_NOAA_19_rec.log

#Pass ID: 20250125_083905_NOAA 19
#Satellite: NOAA 19
#Configuration: NOAA 19
#Start time: 2025-01-25 08:39:10.474333

#LorettStation: 1.0.0 05.05.2024
#Station: planumMaritime01
#Location: 37.49445 lon 55.92918 lat
#TLE: 1 33591U 09005A   25024.77415192  .00000451  00000+0  26462-3 0  9996
#TLE: 2 33591  99.0180  88.6113 0014109  31.0080 329.1922 14.13268355822923

#Time	Az	El	Level	SNR
2025-01-25 08:39:12.624212	9.9	10.2	-75.4	0.0
2025-01-25 08:39:13.749296	9.9	10.3	-75.9	0.0
2025-01-25 08:39:14.874025	9.8	10.4	-75.7	0.0
2025-01-25 08:39:15.999832	9.8	10.5	-76.1	0.0
2025-01-25 08:39:17.124339	9.7	10.6	-76.0	0.0
2025-01-25 08:39:18.247863	9.7	10.7	-76.1	0.0
2025-01-25 08:39:19.370956	9.6	10.7	-76.0	0.0
2025-01-25 08:39:20.493960	9.5	10.8	-76.0	0.0
2025-01-25 08:39:21.618097	9.5	10.9	-76.2	0.0
2025-01-25 08:39:22.742333	9.4	11.0	-75.9	0.0
2025-01-25 08:39:23.866153	9.4	11.1	-75.5	0.0
2025-01-25 08:39:24.989408	9.3	11.2	-75.8	0.0
2025-01-25 08:39:26.113945	9.3	11.3	-76.3	0.0
2025-01-25 08:39:27.237491	9.2	11.4	-76.2	0.0
2025-01-25 08:39:28.361600	9.1	11.5	-76.0	0.0
2025-01-25 08:39:29.483675	9.1	11.6	-75.9	0.0
2025-01-25 08:39:30.606397	9.0	11.7	-76.4	0.0
2025-01-25 08:39:31.729833	9.0	11.8	-76.1	0.0
2025-01-25 08:39:32.852522	8.9	11.9	-76.2	0.0
2025-01-25 08:39:33.978295	8.8	12.0	-76.4	0.0
2025-01-25 08:39:35.099015	8.8	12.1	-76.6	0.0
2025-01-25 08:39:36.220120	8.7	12.2	-76.4	0.0
2025-01-25 08:39:37.343018	8.6	12.3	-76.1	0.0
2025-01-25 08:39:38.466332	8.6	12.4	-76.3	0.0
2025-01-25 08:39:39.590362	8.5	12.5	-76.2	0.0
2025-01-25 08:39:40.713431	8.5	12.6	-76.1	0.0
2025-01-25 08:39:41.838318	8.4	12.7	-76.4	0.0
2025-01-25 08:39:42.959720	8.3	12.8	-76.4	0.0
2025-01-25 08:39:44.083691	8.3	12.9	-76.2	0.0
2025-01-25 08:39:45.207245	8.2	13.0	-76.8	0.0
2025-01-25 08:39:46.331724	8.1	13.1	-76.2	0.0
2025-01-25 08:39:47.456721	8.1	13.2	-76.6	0.0
2025-01-25 08:39:48.580531	8.0	13.4	-76.6	0.0
2025-01-25 08:39:49.705626	7.9	13.5	-76.2	0.0
2025-01-25 08:39:50.829877	7.8	13.6	-76.3	0.0
2025-01-25 08:39:51.952514	7.8	13.7	-76.7	0.0
2025-01-25 08:39:53.074867	7.7	13.8	-76.4	0.0
2025-01-25 08:39:54.199679	7.6	13.9	-76.1	0.0
2025-01-25 08:39:55.321318	7.6	14.0	-76.3	0.0
2025-01-25 08:39:56.444595	7.5	14.1	-76.3	0.0
2025-01-25 08:39:57.569248	7.4	14.2	-76.5	0.0
2025-01-25 08:39:58.692162	7.4	14.3	-76.6	0.0
2025-01-25 08:39:59.812725	7.3	14.4	-76.0	0.0
2025-01-25 08:40:00.934782	7.2	14.5	-76.6	0.0
2025-01-25 08:40:02.057101	7.1	14.6	-76.5	0.0
2025-01-25 08:40:03.178667	7.1	14.8	-76.4	0.0
2025-01-25 08:40:04.303484	7.0	14.9	-76.7	0.0
2025-01-25 08:40:05.426683	6.9	15.0	-76.6	0.0
2025-01-25 08:40:06.547956	6.8	15.1	-76.7	0.0
2025-01-25 08:40:07.671976	6.7	15.2	-76.8	0.0
2025-01-25 08:40:08.795323	6.7	15.3	-76.4	0.0
2025-01-25 08:40:09.918742	6.6	15.4	-76.6	0.0
2025-01-25 08:40:11.041824	6.5	15.5	-76.6	0.0
2025-01-25 08:40:12.166864	6.4	15.7	-76.9	0.0
2025-01-25 08:40:13.289318	6.4	15.8	-76.7	0.0
2025-01-25 08:40:14.413223	6.3	15.9	-76.7	0.0
2025-01-25 08:40:15.534758	6.2	16.0	-76.5	0.0
2025-01-25 08:40:16.656521	6.1	16.1	-76.5	0.0
2025-01-25 08:40:17.781491	6.0	16.2	-76.5	0.0
2025-01-25 08:40:18.902957	5.9	16.4	-76.6	0.0
2025-01-25 08:40:20.026253	5.9	16.5	-76.6	0.0
2025-01-25 08:40:21.149643	5.8	16.6	-76.6	0.0
2025-01-25 08:40:22.272540	5.7	16.7	-76.2	0.0
2025-01-25 08:40:23.393290	5.6	16.8	-76.4	0.0
2025-01-25 08:40:24.518345	5.5	16.9	-76.5	0.0
2025-01-25 08:40:25.641315	5.4	17.1	-76.5	0.0
2025-01-25 08:40:26.765383	5.3	17.2	-75.9	0.0
2025-01-25 08:40:27.888012	5.2	17.3	-76.0	0.0
2025-01-25 08:40:29.009385	5.2	17.4	-76.0	0.0
2025-01-25 08:40:30.133871	5.1	17.5	-76.5	0.0
2025-01-25 08:40:31.256444	5.0	17.7	-76.8	0.0
2025-01-25 08:40:32.380050	4.9	17.8	-76.7	0.0
2025-01-25 08:40:33.503009	4.8	17.9	-76.8	0.0
2025-01-25 08:40:34.626610	4.7	18.0	-76.9	0.0
2025-01-25 08:40:35.746120	4.6	18.2	-76.3	0.0
2025-01-25 08:40:36.871347	4.5	18.3	-76.4	0.0
2025-01-25 08:40:37.995600	4.4	18.4	-76.4	0.0
2025-01-25 08:40:39.119912	4.3	18.5	-76.8	0.0
2025-01-25 08:40:40.243243	4.2	18.7	-76.0	0.0
2025-01-25 08:40:41.368160	4.1	18.8	-76.0	0.0
2025-01-25 08:40:42.491550	4.0	18.9	-77.0	0.0
2025-01-25 08:40:43.615433	3.9	19.1	-76.7	0.0
2025-01-25 08:40:44.738657	3.8	19.2	-76.4	0.0
2025-01-25 08:40:45.862352	3.7	19.3	-76.7	0.0
2025-01-25 08:40:46.987710	3.6	19.4	-76.8	0.0
2025-01-25 08:40:48.109777	3.5	19.6	-76.6	0.0
2025-01-25 08:40:49.234427	3.4	19.7	-76.4	0.0
2025-01-25 08:40:50.357933	3.3	19.8	-76.6	0.0
2025-01-25 08:40:51.480392	3.2	20.0	-76.6	0.0
2025-01-25 08:40:52.603962	3.1	20.1	-76.7	0.0
2025-01-25 08:40:53.727513	3.0	20.2	-76.6	0.0
2025-01-25 08:40:54.852403	2.8	20.4	-76.5	0.0
2025-01-25 08:40:55.972958	2.7	20.5	-76.8	0.0
2025-01-25 08:40:57.095449	2.6	20.6	-76.5	0.0
2025-01-25 08:40:58.217465	2.5	20.8	-76.6	0.0
2025-01-25 08:40:59.340095	2.4	20.9	-76.8	0.0
2025-01-25 08:41:00.463410	2.3	21.1	-76.6	0.0
2025-01-25 08:41:01.586071	2.2	21.2	-76.7	0.0
2025-01-25 08:41:02.708983	2.0	21.3	-76.8	0.0
2025-01-25 08:41:03.830720	1.9	21.5	-76.2	0.0
2025-01-25 08:41:04.953835	1.8	21.6	-76.7	0.0
2025-01-25 08:41:06.077851	1.7	21.7	-76.2	0.0
2025-01-25 08:41:07.200453	1.6	21.9	-76.6	0.0
2025-01-25 08:41:08.324217	1.4	22.0	-76.7	0.0
2025-01-25 08:41:09.447392	1.3	22.2	-76.6	0.0
2025-01-25 08:41:10.572378	1.2	22.3	-76.5	0.0
2025-01-25 08:41:11.695632	1.1	22.5	-77.0	0.0
2025-01-25 08:41:12.820342	0.9	22.6	-75.8	0.0
2025-01-25 08:41:13.942589	0.8	22.7	-76.5	0.0
2025-01-25 08:41:15.065455	0.7	22.9	-76.2	0.0
2025-01-25 08:41:16.190763	0.5	23.0	-76.8	0.0
2025-01-25 08:41:17.313115	0.4	23.2	-76.7	0.0
2025-01-25 08:41:18.436947	0.3	23.3	-76.9	0.0
2025-01-25 08:41:19.560691	0.1	23.5	-76.9	0.0
2025-01-25 08:41:20.683643	0.0	23.6	-77.0	0.0
2025-01-25 08:41:21.807508	359.9	23.8	-76.7	0.0
2025-01-25 08:41:22.930851	359.7	23.9	-76.7	0.0
2025-01-25 08:41:24.054865	359.6	24.1	-76.8	0.0
2025-01-25 08:41:25.176328	359.4	24.2	-76.7	0.0
2025-01-25 08:41:26.300000	359.3	24.4	-76.9	0.0
2025-01-25 08:41:27.422545	359.2	24.5	-77.0	0.0
2025-01-25 08:41:28.544031	359.0	24.7	-77.0	0.0
2025-01-25 08:41:29.666973	358.9	24.8	-76.7	0.0
2025-01-25 08:41:30.788540	358.7	25.0	-76.7	0.0
2025-01-25 08:41:31.910933	358.6	25.2	-76.5	0.0
2025-01-25 08:41:33.031184	358.4	25.3	-76.6	0.0
2025-01-25 08:41:34.154988	358.3	25.5	-76.5	0.0
2025-01-25 08:41:35.278200	358.1	25.6	-76.9	0.0
2025-01-25 08:41:36.401103	357.9	25.8	-76.6	0.0
2025-01-25 08:41:37.525036	357.8	25.9	-76.9	0.0
2025-01-25 08:41:38.648339	357.6	26.1	-76.7	0.0
2025-01-25 08:41:39.771232	357.5	26.3	-76.9	0.0
2025-01-25 08:41:40.892636	357.3	26.4	-76.7	0.0
2025-01-25 08:41:42.015188	357.1	26.6	-77.0	0.0
2025-01-25 08:41:43.138981	357.0	26.8	-76.8	0.0
2025-01-25 08:41:44.261780	356.8	26.9	-76.8	0.0
2025-01-25 08:41:45.382343	356.6	27.1	-76.8	0.0
2025-01-25 08:41:46.504509	356.5	27.2	-76.6	0.0
2025-01-25 08:41:47.628608	356.3	27.4	-76.8	0.0
2025-01-25 08:41:48.750793	356.1	27.6	-76.5	0.0
2025-01-25 08:41:49.874703	355.9	27.7	-77.1	0.0
2025-01-25 08:41:50.997866	355.7	27.9	-76.8	0.0
2025-01-25 08:41:52.120608	355.6	28.1	-77.1	0.0
2025-01-25 08:41:53.245387	355.4	28.2	-77.0	0.0
2025-01-25 08:41:54.368074	355.2	28.4	-77.1	0.0
2025-01-25 08:41:55.490594	355.0	28.6	-76.8	0.0
2025-01-25 08:41:56.613614	354.8	28.8	-76.7	0.0
2025-01-25 08:41:57.737825	354.6	28.9	-77.0	0.0
2025-01-25 08:41:58.861695	354.4	29.1	-76.8	0.0
2025-01-25 08:41:59.984001	354.2	29.3	-76.7	0.0
2025-01-25 08:42:01.107207	354.0	29.4	-77.0	0.0
2025-01-25 08:42:02.231401	353.8	29.6	-76.8	0.0
2025-01-25 08:42:03.354105	353.6	29.8	-76.9	0.0
2025-01-25 08:42:04.476392	353.4	30.0	-76.9	0.0
2025-01-25 08:42:05.598798	353.2	30.1	-76.9	0.0
2025-01-25 08:42:06.721829	353.0	30.3	-76.9	0.0
2025-01-25 08:42:07.846703	352.8	30.5	-76.8	0.0
2025-01-25 08:42:08.971244	352.6	30.7	-76.5	0.0
2025-01-25 08:42:10.094727	352.4	30.9	-76.9	0.0
2025-01-25 08:42:11.216710	352.2	31.0	-77.1	0.0
2025-01-25 08:42:12.339559	351.9	31.2	-77.1	0.0
2025-01-25 08:42:13.460974	351.7	31.4	-76.6	0.0
2025-01-25 08:42:14.583091	351.5	31.6	-76.9	0.0
2025-01-25 08:42:15.707008	351.3	31.8	-77.0	0.0
2025-01-25 08:42:16.828016	351.0	31.9	-76.4	0.0
2025-01-25 08:42:17.951068	350.8	32.1	-76.7	0.0
2025-01-25 08:42:19.074027	350.6	32.3	-76.8	0.0
2025-01-25 08:42:20.198845	350.3	32.5	-76.6	0.0
2025-01-25 08:42:21.323127	350.1	32.7	-76.6	0.0
2025-01-25 08:42:22.446903	349.8	32.9	-76.7	0.0
2025-01-25 08:42:23.570860	349.6	33.0	-76.6	0.0
2025-01-25 08:42:24.694836	349.3	33.2	-76.8	0.0
2025-01-25 08:42:25.816460	349.1	33.4	-76.7	0.0
2025-01-25 08:42:26.940746	348.8	33.6	-76.4	0.0
2025-01-25 08:42:28.065071	348.6	33.8	-76.8	0.0
2025-01-25 08:42:29.189164	348.3	34.0	-76.7	0.0
2025-01-25 08:42:30.312279	348.0	34.2	-77.0	0.0
2025-01-25 08:42:31.437027	347.8	34.4	-76.7	0.0
2025-01-25 08:42:32.559984	347.5	34.5	-76.8	0.0
2025-01-25 08:42:33.683002	347.2	34.7	-76.8	0.0
2025-01-25 08:42:34.804943	346.9	34.9	-76.9	0.0
2025-01-25 08:42:35.929581	346.7	35.1	-76.7	0.0
2025-01-25 08:42:37.050286	346.4	35.3	-76.5	0.0
2025-01-25 08:42:38.174556	346.1	35.5	-76.9	0.0
2025-01-25 08:42:39.295047	345.8	35.7	-76.9	0.0
2025-01-25 08:42:40.416848	345.5	35.9	-76.8	0.0
2025-01-25 08:42:41.539283	345.2	36.1	-76.7	0.0
2025-01-25 08:42:42.663496	344.9	36.3	-76.7	0.0
2025-01-25 08:42:43.787018	344.6	36.5	-76.8	0.0
2025-01-25 08:42:44.909263	344.3	36.6	-76.9	0.0
2025-01-25 08:42:46.034342	344.0	36.8	-76.7	0.0
2025-01-25 08:42:47.157751	343.6	37.0	-76.8	0.0
2025-01-25 08:42:48.282253	343.3	37.2	-76.8	0.0
2025-01-25 08:42:49.406918	343.0	37.4	-76.7	0.0
2025-01-25 08:42:50.531939	342.7	37.6	-76.7	0.0
2025-01-25 08:42:51.653411	342.3	37.8	-76.9	0.0
2025-01-25 08:42:52.775960	342.0	38.0	-76.8	0.0
2025-01-25 08:42:53.898107	341.7	38.2	-76.9	0.0
2025-01-25 08:42:55.022583	341.3	38.4	-76.8	0.0
2025-01-25 08:42:56.145169	341.0	38.6	-76.8	0.0
2025-01-25 08:42:57.269050	340.6	38.8	-76.7	0.0
2025-01-25 08:42:58.392293	340.3	39.0	-76.4	0.0
2025-01-25 08:42:59.515080	339.9	39.1	-76.9	0.0
2025-01-25 08:43:00.639628	339.5	39.3	-76.7	0.0
2025-01-25 08:43:01.763468	339.2	39.5	-77.2	0.0
2025-01-25 08:43:02.885722	338.8	39.7	-76.9	0.0
2025-01-25 08:43:04.009893	338.4	39.9	-77.2	0.0
2025-01-25 08:43:05.133241	338.0	40.1	-77.4	0.0
2025-01-25 08:43:06.256645	337.6	40.3	-77.0	0.0
2025-01-25 08:43:07.381011	337.2	40.5	-76.9	0.0
2025-01-25 08:43:08.504924	336.8	40.7	-76.7	0.0
2025-01-25 08:43:09.627518	336.4	40.9	-77.3	0.0
2025-01-25 08:43:10.748458	336.0	41.0	-77.2	0.0
2025-01-25 08:43:11.872183	335.6	41.2	-77.2	0.0
2025-01-25 08:43:12.996334	335.2	41.4	-77.1	0.0
2025-01-25 08:43:14.118643	334.8	41.6	-77.0	0.0
2025-01-25 08:43:15.240004	334.4	41.8	-77.1	0.0
2025-01-25 08:43:16.362016	333.9	42.0	-77.0	0.0
2025-01-25 08:43:17.487038	333.5	42.1	-77.1	0.0
2025-01-25 08:43:18.608387	333.1	42.3	-76.9	0.0
2025-01-25 08:43:19.731523	332.6	42.5	-77.3	0.0
2025-01-25 08:43:20.855443	332.2	42.7	-77.5	0.0
2025-01-25 08:43:21.976614	331.7	42.9	-76.9	0.0
2025-01-25 08:43:23.100593	331.2	43.0	-77.3	0.0
2025-01-25 08:43:24.226790	330.8	43.2	-77.1	0.0
2025-01-25 08:43:25.348843	330.3	43.4	-77.0	0.0
2025-01-25 08:43:26.473797	329.8	43.6	-77.3	0.0
2025-01-25 08:43:27.599096	329.4	43.7	-76.5	0.0
2025-01-25 08:43:28.721037	328.9	43.9	-76.7	0.0
2025-01-25 08:43:29.845185	328.4	44.1	-76.3	0.0
2025-01-25 08:43:30.968953	327.9	44.2	-77.2	0.0
2025-01-25 08:43:32.091962	327.4	44.4	-76.8	0.0
2025-01-25 08:43:33.215558	326.9	44.6	-76.5	0.0
2025-01-25 08:43:34.339663	326.4	44.7	-77.1	0.0
2025-01-25 08:43:35.463515	325.8	44.9	-77.2	0.0
2025-01-25 08:43:36.586512	325.3	45.0	-77.0	0.0
2025-01-25 08:43:37.707974	324.8	45.2	-77.2	0.0
2025-01-25 08:43:38.832714	324.3	45.4	-76.9	0.0
2025-01-25 08:43:39.956100	323.7	45.5	-77.2	0.0
2025-01-25 08:43:41.079452	323.2	45.7	-77.2	0.0
2025-01-25 08:43:42.201001	322.6	45.8	-77.3	0.0
2025-01-25 08:43:43.323874	322.1	45.9	-77.1	0.0
2025-01-25 08:43:44.447219	321.5	46.1	-77.3	0.0
2025-01-25 08:43:45.568863	320.9	46.2	-77.3	0.0
2025-01-25 08:43:46.692003	320.4	46.4	-77.2	0.0
2025-01-25 08:43:47.813843	319.8	46.5	-77.2	0.0
2025-01-25 08:43:48.938099	319.2	46.6	-77.0	0.0
2025-01-25 08:43:50.062394	318.6	46.7	-77.3	0.0
2025-01-25 08:43:51.184551	318.1	46.9	-76.7	0.0
2025-01-25 08:43:52.305732	317.5	47.0	-77.1	0.0
2025-01-25 08:43:53.426327	316.9	47.1	-77.1	0.0
2025-01-25 08:43:54.548341	316.3	47.2	-77.2	0.0
2025-01-25 08:43:55.668574	315.7	47.3	-77.0	0.0
2025-01-25 08:43:56.791807	315.1	47.4	-76.9	0.0
2025-01-25 08:43:57.914113	314.4	47.6	-77.1	0.0
2025-01-25 08:43:59.039208	313.8	47.7	-76.9	0.0
2025-01-25 08:44:00.162976	313.2	47.8	-76.6	0.0
2025-01-25 08:44:01.286280	312.6	47.8	-76.7	0.0
2025-01-25 08:44:02.410217	311.9	47.9	-77.0	0.0
2025-01-25 08:44:03.535294	311.3	48.0	-77.0	0.0
2025-01-25 08:44:04.657958	310.7	48.1	-77.0	0.0
2025-01-25 08:44:05.780581	310.0	48.2	-77.1	0.0
2025-01-25 08:44:06.906172	309.4	48.3	-76.8	0.0
2025-01-25 08:44:08.029857	308.7	48.3	-76.4	0.0
2025-01-25 08:44:09.152540	308.1	48.4	-76.5	0.0
2025-01-25 08:44:10.274507	307.4	48.5	-76.8	0.0
2025-01-25 08:44:11.398489	306.8	48.5	-76.9	0.0
2025-01-25 08:44:12.521050	306.1	48.6	-76.9	0.0
2025-01-25 08:44:13.643204	305.5	48.7	-76.9	0.0
2025-01-25 08:44:14.765431	304.8	48.7	-76.9	0.0
2025-01-25 08:44:15.886883	304.1	48.7	-76.9	0.0
2025-01-25 08:44:17.008415	303.5	48.8	-76.6	0.0
2025-01-25 08:44:18.131302	302.8	48.8	-76.9	0.0
2025-01-25 08:44:19.253302	302.1	48.9	-76.3	0.0
2025-01-25 08:44:20.374625	301.5	48.9	-77.1	0.0
2025-01-25 08:44:21.498120	300.8	48.9	-76.9	0.0
2025-01-25 08:44:22.620192	300.1	48.9	-77.1	0.0
2025-01-25 08:44:23.741682	299.4	48.9	-77.0	0.0
2025-01-25 08:44:24.863169	298.8	49.0	-77.2	0.0
2025-01-25 08:44:25.988165	298.1	49.0	-77.3	0.0
2025-01-25 08:44:27.111146	297.4	49.0	-77.1	0.0
2025-01-25 08:44:28.235075	296.7	49.0	-77.1	0.0
2025-01-25 08:44:29.357412	296.1	49.0	-76.6	0.0
2025-01-25 08:44:30.481299	295.4	48.9	-77.2	0.0
2025-01-25 08:44:31.604930	294.7	48.9	-77.0	0.0
2025-01-25 08:44:32.725770	294.0	48.9	-77.0	0.0
2025-01-25 08:44:33.847220	293.4	48.9	-76.9	0.0
2025-01-25 08:44:34.969669	292.7	48.9	-76.9	0.0
2025-01-25 08:44:36.091388	292.0	48.8	-77.2	0.0
2025-01-25 08:44:37.213333	291.4	48.8	-77.0	0.0
2025-01-25 08:44:38.337319	290.7	48.8	-77.1	0.0
2025-01-25 08:44:39.461187	290.0	48.7	-77.1	0.0
2025-01-25 08:44:40.581275	289.4	48.7	-77.1	0.0
2025-01-25 08:44:41.707404	288.7	48.6	-77.1	0.0
2025-01-25 08:44:42.828398	288.0	48.6	-77.2	0.0
2025-01-25 08:44:43.950455	287.4	48.5	-76.9	0.0
2025-01-25 08:44:45.071203	286.7	48.4	-76.8	0.0
2025-01-25 08:44:46.193694	286.1	48.4	-77.1	0.0
2025-01-25 08:44:47.317325	285.4	48.3	-77.1	0.0
2025-01-25 08:44:48.439533	284.8	48.2	-77.0	0.0
2025-01-25 08:44:49.562906	284.1	48.1	-77.0	0.0
2025-01-25 08:44:50.688602	283.5	48.1	-77.2	0.0
2025-01-25 08:44:51.811771	282.9	48.0	-76.8	0.0
2025-01-25 08:44:52.934804	282.2	47.9	-76.9	0.0
2025-01-25 08:44:54.056379	281.6	47.8	-77.2	0.0
2025-01-25 08:44:55.178613	281.0	47.7	-77.0	0.0
2025-01-25 08:44:56.300806	280.4	47.6	-77.1	0.0
2025-01-25 08:44:57.425627	279.8	47.5	-76.9	0.0
2025-01-25 08:44:58.547278	279.1	47.4	-77.2	0.0
2025-01-25 08:44:59.670376	278.5	47.3	-76.4	0.0
2025-01-25 08:45:00.793370	277.9	47.1	-76.6	0.0
2025-01-25 08:45:01.915342	277.3	47.0	-76.9	0.0
2025-01-25 08:45:03.039698	276.7	46.9	-76.7	0.0
2025-01-25 08:45:04.162486	276.2	46.8	-76.9	0.0
2025-01-25 08:45:05.284955	275.6	46.7	-76.9	0.0
2025-01-25 08:45:06.408563	275.0	46.5	-76.9	0.0
2025-01-25 08:45:07.530430	274.4	46.4	-77.1	0.0
2025-01-25 08:45:08.653222	273.8	46.3	-77.2	0.0
2025-01-25 08:45:09.775761	273.3	46.1	-77.1	0.0
2025-01-25 08:45:10.899219	272.7	46.0	-77.1	0.0
2025-01-25 08:45:12.021639	272.2	45.8	-77.1	0.0
2025-01-25 08:45:13.145526	271.6	45.7	-77.2	0.0
2025-01-25 08:45:14.269824	271.1	45.6	-77.2	0.0
2025-01-25 08:45:15.394536	270.5	45.4	-77.2	0.0
2025-01-25 08:45:16.518750	270.0	45.3	-77.0	0.0
2025-01-25 08:45:17.641254	269.5	45.1	-76.8	0.0
2025-01-25 08:45:18.761856	268.9	44.9	-76.8	0.0
2025-01-25 08:45:19.886338	268.4	44.8	-77.0	0.0
2025-01-25 08:45:21.008479	267.9	44.6	-77.2	0.0
2025-01-25 08:45:22.133773	267.4	44.5	-76.9	0.0
2025-01-25 08:45:23.257485	266.9	44.3	-77.0	0.0
2025-01-25 08:45:24.380385	266.4	44.1	-76.9	0.0
2025-01-25 08:45:25.503971	265.9	44.0	-76.8	0.0
2025-01-25 08:45:26.627730	265.4	43.8	-76.9	0.0
2025-01-25 08:45:27.750473	264.9	43.6	-76.9	0.0
2025-01-25 08:45:28.873586	264.4	43.4	-76.7	0.0
2025-01-25 08:45:29.996145	264.0	43.3	-77.0	0.0
2025-01-25 08:45:31.119820	263.5	43.1	-77.0	0.0
2025-01-25 08:45:32.243389	263.0	42.9	-77.1	0.0
2025-01-25 08:45:33.367578	262.6	42.7	-77.2	0.0
2025-01-25 08:45:34.492537	262.1	42.6	-76.9	0.0
2025-01-25 08:45:35.615215	261.7	42.4	-77.1	0.0
2025-01-25 08:45:36.739087	261.2	42.2	-76.8	0.0
2025-01-25 08:45:37.860884	260.8	42.0	-77.1	0.0
2025-01-25 08:45:38.983144	260.4	41.8	-77.0	0.0
2025-01-25 08:45:40.108130	259.9	41.7	-76.9	0.0
2025-01-25 08:45:41.231248	259.5	41.5	-77.0	0.0
2025-01-25 08:45:42.353142	259.1	41.3	-77.0	0.0
2025-01-25 08:45:43.477411	258.7	41.1	-76.7	0.0
2025-01-25 08:45:44.600746	258.3	40.9	-76.5	0.0
2025-01-25 08:45:45.722312	257.9	40.7	-76.7	0.0
2025-01-25 08:45:46.846590	257.5	40.5	-76.7	0.0
2025-01-25 08:45:47.969708	257.1	40.3	-77.1	0.0
2025-01-25 08:45:49.091616	256.7	40.2	-77.1	0.0
2025-01-25 08:45:50.215486	256.3	40.0	-77.0	0.0
2025-01-25 08:45:51.339368	255.9	39.8	-77.1	0.0
2025-01-25 08:45:52.464750	255.6	39.6	-76.9	0.0
2025-01-25 08:45:53.587910	255.2	39.4	-77.2	0.0
2025-01-25 08:45:54.709481	254.8	39.2	-77.2	0.0
2025-01-25 08:45:55.832088	254.5	39.0	-77.0	0.0
2025-01-25 08:45:56.953871	254.1	38.8	-77.3	0.0
2025-01-25 08:45:58.076411	253.7	38.6	-77.4	0.0
2025-01-25 08:45:59.199477	253.4	38.4	-77.2	0.0
2025-01-25 08:46:00.324528	253.0	38.2	-77.4	0.0
2025-01-25 08:46:01.447499	252.7	38.1	-77.4	0.0
2025-01-25 08:46:02.571019	252.4	37.9	-77.5	0.0
2025-01-25 08:46:03.696501	252.0	37.7	-77.4	0.0
2025-01-25 08:46:04.819847	251.7	37.5	-77.7	0.0
2025-01-25 08:46:05.944997	251.4	37.3	-76.9	0.0
2025-01-25 08:46:07.067965	251.1	37.1	-76.3	0.0
2025-01-25 08:46:08.191253	250.7	36.9	-76.9	0.0
2025-01-25 08:46:09.315177	250.4	36.7	-77.3	0.0
2025-01-25 08:46:10.438605	250.1	36.5	-77.3	0.0
2025-01-25 08:46:11.563969	249.8	36.3	-77.3	0.0
2025-01-25 08:46:12.686040	249.5	36.1	-77.1	0.0
2025-01-25 08:46:13.808117	249.2	35.9	-77.2	0.0
2025-01-25 08:46:14.931594	248.9	35.7	-77.0	0.0
2025-01-25 08:46:16.053987	248.6	35.6	-77.0	0.0
2025-01-25 08:46:17.177400	248.3	35.4	-76.8	0.0
2025-01-25 08:46:18.302365	248.0	35.2	-77.0	0.0
2025-01-25 08:46:19.423125	247.7	35.0	-76.9	0.0
2025-01-25 08:46:20.544870	247.5	34.8	-77.2	0.0
2025-01-25 08:46:21.669063	247.2	34.6	-76.7	0.0
2025-01-25 08:46:22.792049	246.9	34.4	-77.1	0.0
2025-01-25 08:46:23.913871	246.6	34.2	-77.2	0.0
2025-01-25 08:46:25.038118	246.4	34.0	-77.1	0.0
2025-01-25 08:46:26.162071	246.1	33.8	-77.1	0.0
2025-01-25 08:46:27.285196	245.9	33.7	-77.0	0.0
2025-01-25 08:46:28.407552	245.6	33.5	-77.2	0.0
2025-01-25 08:46:29.528710	245.3	33.3	-76.8	0.0
2025-01-25 08:46:30.650210	245.1	33.1	-77.2	0.0
2025-01-25 08:46:31.774218	244.8	32.9	-77.2	0.0
2025-01-25 08:46:32.897965	244.6	32.7	-77.2	0.0
2025-01-25 08:46:34.019274	244.3	32.5	-77.2	0.0
2025-01-25 08:46:35.143472	244.1	32.4	-77.2	0.0
2025-01-25 08:46:36.268814	243.9	32.2	-77.1	0.0
2025-01-25 08:46:37.388410	243.6	32.0	-77.5	0.0
2025-01-25 08:46:38.511741	243.4	31.8	-77.1	0.0
2025-01-25 08:46:39.634557	243.2	31.6	-77.2	0.0
2025-01-25 08:46:40.758512	242.9	31.4	-77.1	0.0
2025-01-25 08:46:41.880289	242.7	31.3	-76.8	0.0
2025-01-25 08:46:43.004427	242.5	31.1	-77.2	0.0
2025-01-25 08:46:44.127061	242.3	30.9	-77.3	0.0
2025-01-25 08:46:45.249797	242.1	30.7	-77.1	0.0
2025-01-25 08:46:46.371632	241.8	30.6	-77.2	0.0
2025-01-25 08:46:47.496678	241.6	30.4	-77.0	0.0
2025-01-25 08:46:48.620117	241.4	30.2	-77.0	0.0
2025-01-25 08:46:49.742223	241.2	30.0	-76.6	0.0
2025-01-25 08:46:50.865287	241.0	29.8	-77.0	0.0
2025-01-25 08:46:51.985993	240.8	29.7	-77.1	0.0
2025-01-25 08:46:53.108149	240.6	29.5	-77.1	0.0
2025-01-25 08:46:54.230849	240.4	29.3	-77.0	0.0
2025-01-25 08:46:55.354489	240.2	29.2	-77.2	0.0
2025-01-25 08:46:56.478453	240.0	29.0	-77.2	0.0
2025-01-25 08:46:57.602550	239.8	28.8	-77.1	0.0
2025-01-25 08:46:58.726527	239.6	28.6	-76.8	0.0
2025-01-25 08:46:59.851170	239.4	28.5	-76.2	0.0
2025-01-25 08:47:00.974610	239.3	28.3	-76.7	0.0
2025-01-25 08:47:02.098585	239.1	28.1	-76.9	0.0
2025-01-25 08:47:03.221095	238.9	28.0	-76.7	0.0
2025-01-25 08:47:04.341799	238.7	27.8	-77.2	0.0
2025-01-25 08:47:05.464456	238.5	27.6	-76.3	0.0
2025-01-25 08:47:06.588593	238.3	27.5	-76.8	0.0
2025-01-25 08:47:07.712301	238.2	27.3	-76.6	0.0
2025-01-25 08:47:08.835870	238.0	27.1	-76.8	0.0
2025-01-25 08:47:09.958401	237.8	27.0	-77.3	0.0
2025-01-25 08:47:11.080229	237.7	26.8	-77.4	0.0
2025-01-25 08:47:12.204724	237.5	26.6	-77.4	0.0
2025-01-25 08:47:13.329365	237.3	26.5	-77.2	0.0
2025-01-25 08:47:14.452702	237.2	26.3	-77.0	0.0
2025-01-25 08:47:15.577523	237.0	26.2	-77.2	0.0
2025-01-25 08:47:16.699862	236.8	26.0	-77.2	0.0
2025-01-25 08:47:17.823096	236.7	25.8	-77.1	0.0
2025-01-25 08:47:18.947107	236.5	25.7	-76.9	0.0
2025-01-25 08:47:20.070190	236.4	25.5	-77.0	0.0
2025-01-25 08:47:21.194772	236.2	25.4	-77.0	0.0
2025-01-25 08:47:22.316732	236.0	25.2	-77.4	0.0
2025-01-25 08:47:23.439334	235.9	25.0	-77.3	0.0
2025-01-25 08:47:24.562921	235.7	24.9	-77.4	0.0
2025-01-25 08:47:25.683874	235.6	24.7	-77.5	0.0
2025-01-25 08:47:26.807094	235.5	24.6	-77.5	0.0
2025-01-25 08:47:27.930628	235.3	24.4	-77.5	0.0
2025-01-25 08:47:29.054504	235.2	24.3	-77.5	0.0
2025-01-25 08:47:30.177603	235.0	24.1	-77.4	0.0
2025-01-25 08:47:31.300013	234.9	24.0	-77.2	0.0
2025-01-25 08:47:32.422060	234.7	23.8	-77.4	0.0
2025-01-25 08:47:33.543856	234.6	23.7	-77.5	0.0
2025-01-25 08:47:34.667438	234.5	23.5	-77.4	0.0
2025-01-25 08:47:35.790713	234.3	23.4	-77.3	0.0
2025-01-25 08:47:36.913417	234.2	23.2	-77.4	0.0
2025-01-25 08:47:38.034909	234.1	23.1	-77.2	0.0
2025-01-25 08:47:39.156000	233.9	22.9	-77.5	0.0
2025-01-25 08:47:40.277197	233.8	22.8	-77.6	0.0
2025-01-25 08:47:41.400660	233.7	22.6	-77.2	0.0
2025-01-25 08:47:42.523324	233.5	22.5	-76.9	0.0
2025-01-25 08:47:43.643645	233.4	22.4	-77.2	0.0
2025-01-25 08:47:44.768313	233.3	22.2	-76.9	0.0
2025-01-25 08:47:45.891956	233.2	22.1	-76.8	0.0
2025-01-25 08:47:47.014238	233.0	21.9	-77.3	0.0
2025-01-25 08:47:48.139686	232.9	21.8	-77.1	0.0
2025-01-25 08:47:49.265240	232.8	21.6	-77.3	0.0
2025-01-25 08:47:50.388761	232.7	21.5	-76.8	0.0
2025-01-25 08:47:51.511084	232.5	21.4	-77.3	0.0
2025-01-25 08:47:52.634041	232.4	21.2	-77.4	0.0
2025-01-25 08:47:53.757659	232.3	21.1	-77.2	0.0
2025-01-25 08:47:54.880148	232.2	21.0	-77.4	0.0
2025-01-25 08:47:56.004031	232.1	20.8	-77.2	0.0
2025-01-25 08:47:57.128390	232.0	20.7	-77.1	0.0
2025-01-25 08:47:58.251918	231.8	20.5	-77.3	0.0
2025-01-25 08:47:59.377355	231.7	20.4	-77.2	0.0
2025-01-25 08:48:00.498294	231.6	20.3	-77.4	0.0
2025-01-25 08:48:01.619839	231.5	20.1	-77.3	0.0
2025-01-25 08:48:02.742171	231.4	20.0	-77.2	0.0
2025-01-25 08:48:03.866356	231.3	19.9	-77.2	0.0
2025-01-25 08:48:04.990397	231.2	19.7	-77.4	0.0
2025-01-25 08:48:06.113904	231.1	19.6	-77.3	0.0
2025-01-25 08:48:07.238042	231.0	19.5	-77.3	0.0
2025-01-25 08:48:08.361308	230.9	19.3	-77.1	0.0
2025-01-25 08:48:09.485051	230.8	19.2	-77.3	0.0
2025-01-25 08:48:10.607929	230.7	19.1	-77.1	0.0
2025-01-25 08:48:11.732827	230.6	19.0	-77.2	0.0
2025-01-25 08:48:12.856256	230.5	18.8	-77.0	0.0
2025-01-25 08:48:13.980726	230.4	18.7	-77.0	0.0
2025-01-25 08:48:15.103971	230.3	18.6	-77.2	0.0
2025-01-25 08:48:16.226228	230.2	18.5	-77.1	0.0
2025-01-25 08:48:17.350741	230.1	18.3	-76.9	0.0
2025-01-25 08:48:18.474265	230.0	18.2	-77.1	0.0
2025-01-25 08:48:19.598069	229.9	18.1	-76.9	0.0
2025-01-25 08:48:20.721322	229.8	18.0	-77.2	0.0
2025-01-25 08:48:21.842827	229.7	17.8	-77.0	0.0
2025-01-25 08:48:22.964685	229.6	17.7	-77.1	0.0
2025-01-25 08:48:24.087132	229.5	17.6	-77.1	0.0
2025-01-25 08:48:25.211488	229.4	17.5	-77.1	0.0
2025-01-25 08:48:26.334568	229.3	17.3	-76.8	0.0
2025-01-25 08:48:27.458353	229.2	17.2	-76.8	0.0
2025-01-25 08:48:28.581810	229.1	17.1	-77.0	0.0
2025-01-25 08:48:29.704858	229.0	17.0	-77.0	0.0
2025-01-25 08:48:30.826816	229.0	16.9	-76.6	0.0
2025-01-25 08:48:31.950798	228.9	16.7	-77.1	0.0
2025-01-25 08:48:33.075806	228.8	16.6	-77.2	0.0
2025-01-25 08:48:34.199782	228.7	16.5	-77.1	0.0
2025-01-25 08:48:35.321371	228.6	16.4	-76.8	0.0
2025-01-25 08:48:36.443863	228.5	16.3	-77.0	0.0
2025-01-25 08:48:37.567095	228.4	16.1	-77.0	0.0
2025-01-25 08:48:38.691113	228.4	16.0	-76.9	0.0
2025-01-25 08:48:39.813736	228.3	15.9	-76.6	0.0
2025-01-25 08:48:40.936604	228.2	15.8	-76.8	0.0
2025-01-25 08:48:42.061800	228.1	15.7	-76.8	0.0
2025-01-25 08:48:43.184110	228.0	15.6	-76.8	0.0
2025-01-25 08:48:44.306503	227.9	15.5	-77.0	0.0
2025-01-25 08:48:45.429174	227.9	15.3	-76.6	0.0
2025-01-25 08:48:46.551926	227.8	15.2	-76.8	0.0
2025-01-25 08:48:47.675286	227.7	15.1	-76.3	0.0
2025-01-25 08:48:48.799040	227.6	15.0	-76.7	0.0
2025-01-25 08:48:49.923324	227.6	14.9	-76.6	0.0
2025-01-25 08:48:51.047118	227.5	14.8	-77.1	0.0
2025-01-25 08:48:52.171776	227.4	14.7	-77.1	0.0
2025-01-25 08:48:53.294616	227.3	14.6	-77.2	0.0
2025-01-25 08:48:54.418076	227.2	14.5	-77.1	0.0
2025-01-25 08:48:55.540562	227.2	14.3	-76.9	0.0
2025-01-25 08:48:56.663894	227.1	14.2	-77.1	0.0
2025-01-25 08:48:57.785514	227.0	14.1	-77.3	0.0
2025-01-25 08:48:58.908634	227.0	14.0	-77.3	0.0
2025-01-25 08:49:00.030801	226.9	13.9	-77.3	0.0
2025-01-25 08:49:01.154287	226.8	13.8	-77.0	0.0
2025-01-25 08:49:02.276716	226.7	13.7	-77.9	0.0
2025-01-25 08:49:03.400068	226.7	13.6	-77.6	0.0
2025-01-25 08:49:04.522525	226.6	13.5	-77.4	0.0
2025-01-25 08:49:05.644202	226.5	13.4	-77.2	0.0
2025-01-25 08:49:06.766972	226.5	13.3	-76.9	0.0
2025-01-25 08:49:07.888159	226.4	13.2	-77.4	0.0
2025-01-25 08:49:09.012018	226.3	13.1	-77.2	0.0
2025-01-25 08:49:10.136531	226.3	13.0	-77.3	0.0
2025-01-25 08:49:11.259048	226.2	12.9	-77.3	0.0
2025-01-25 08:49:12.381880	226.1	12.8	-77.4	0.0
2025-01-25 08:49:13.504708	226.1	12.7	-77.4	0.0
2025-01-25 08:49:14.627899	226.0	12.6	-77.2	0.0
2025-01-25 08:49:15.751765	225.9	12.4	-77.2	0.0
2025-01-25 08:49:16.876139	225.9	12.3	-77.4	0.0
2025-01-25 08:49:17.997084	225.8	12.2	-77.1	0.0
2025-01-25 08:49:19.120649	225.7	12.1	-76.9	0.0
2025-01-25 08:49:20.245430	225.7	12.0	-76.9	0.0
2025-01-25 08:49:21.369599	225.6	11.9	-77.1	0.0
2025-01-25 08:49:22.492111	225.5	11.8	-77.1	0.0
2025-01-25 08:49:23.614288	225.5	11.7	-76.9	0.0
2025-01-25 08:49:24.738015	225.4	11.6	-77.1	0.0
2025-01-25 08:49:25.860932	225.4	11.5	-77.3	0.0
2025-01-25 08:49:26.984271	225.3	11.5	-76.9	0.0
2025-01-25 08:49:28.106460	225.2	11.4	-76.8	0.0
2025-01-25 08:49:29.229795	225.2	11.3	-77.1	0.0
2025-01-25 08:49:30.350594	225.1	11.2	-77.2	0.0
2025-01-25 08:49:31.475919	225.1	11.1	-77.4	0.0
2025-01-25 08:49:32.597654	225.0	11.0	-77.6	0.0
2025-01-25 08:49:33.720473	224.9	10.9	-77.6	0.0
2025-01-25 08:49:34.843496	224.9	10.8	-77.2	0.0
2025-01-25 08:49:35.969433	224.8	10.7	-77.5	0.0
2025-01-25 08:49:37.094358	224.8	10.6	-77.4	0.0
2025-01-25 08:49:38.217080	224.7	10.5	-77.5	0.0
2025-01-25 08:49:39.341645	224.7	10.4	-77.7	0.0
2025-01-25 08:49:40.466510	224.6	10.3	-77.3	0.0
2025-01-25 08:49:41.590646	224.5	10.2	-77.6	0.0
2025-01-25 08:49:42.711727	224.5	10.1	-77.4	0.0
2025-01-25 08:49:43.832526	224.4	10.0	-77.8	0.0
#Closed at: 2025-01-25 08:39:05.475835