passes_logs/2025/01/25/planumMaritime01/planumMaritime01__20250125_065827_NOAA_19_rec.log

#Pass ID: 20250125_065827_NOAA 19
#Satellite: NOAA 19
#Configuration: NOAA 19
#Start time: 2025-01-25 06:58:32.160822

#LorettStation: 1.0.0 05.05.2024
#Station: planumMaritime01
#Location: 37.49445 lon 55.92918 lat
#TLE: 1 33591U 09005A   25024.77415192  .00000451  00000+0  26462-3 0  9996
#TLE: 2 33591  99.0180  88.6113 0014109  31.0080 329.1922 14.13268355822923

#Time	Az	El	Level	SNR
2025-01-25 06:58:34.326789	28.5	10.2	-77.1	0.0
2025-01-25 06:58:35.448392	28.6	10.3	-76.9	0.0
2025-01-25 06:58:36.569590	28.7	10.3	-77.0	0.0
2025-01-25 06:58:37.692332	28.7	10.4	-76.9	0.0
2025-01-25 06:58:38.814213	28.8	10.5	-76.5	0.0
2025-01-25 06:58:39.936465	28.9	10.6	-76.8	0.0
2025-01-25 06:58:41.060004	29.0	10.7	-76.9	0.0
2025-01-25 06:58:42.184627	29.1	10.8	-77.0	0.0
2025-01-25 06:58:43.307750	29.2	10.9	-77.2	0.0
2025-01-25 06:58:44.430411	29.3	11.0	-77.0	0.0
2025-01-25 06:58:45.551728	29.4	11.1	-77.1	0.0
2025-01-25 06:58:46.676347	29.5	11.2	-77.5	0.0
2025-01-25 06:58:47.799526	29.5	11.2	-77.0	0.0
2025-01-25 06:58:48.923096	29.6	11.3	-77.1	0.0
2025-01-25 06:58:50.045958	29.7	11.4	-77.2	0.0
2025-01-25 06:58:51.168649	29.8	11.5	-77.1	0.0
2025-01-25 06:58:52.291549	29.9	11.6	-77.2	0.0
2025-01-25 06:58:53.413864	30.0	11.7	-77.0	0.0
2025-01-25 06:58:54.534883	30.1	11.8	-77.4	0.0
2025-01-25 06:58:55.661109	30.2	11.9	-77.2	0.0
2025-01-25 06:58:56.788770	30.3	12.0	-76.9	0.0
2025-01-25 06:58:57.909430	30.4	12.1	-77.0	0.0
2025-01-25 06:58:59.033025	30.5	12.2	-76.5	0.0
2025-01-25 06:59:00.156683	30.6	12.3	-77.2	0.0
2025-01-25 06:59:01.277643	30.7	12.4	-77.6	0.0
2025-01-25 06:59:02.404153	30.8	12.4	-77.2	0.0
2025-01-25 06:59:03.527865	30.9	12.5	-77.6	0.0
2025-01-25 06:59:04.649733	31.0	12.6	-77.3	0.0
2025-01-25 06:59:05.773682	31.1	12.7	-77.3	0.0
2025-01-25 06:59:06.896329	31.2	12.8	-76.1	0.0
2025-01-25 06:59:08.020404	31.3	12.9	-76.5	0.0
2025-01-25 06:59:09.143187	31.4	13.0	-77.5	0.0
2025-01-25 06:59:10.265926	31.5	13.1	-76.7	0.0
2025-01-25 06:59:11.386845	31.6	13.2	-76.9	0.0
2025-01-25 06:59:12.509004	31.7	13.3	-77.2	0.0
2025-01-25 06:59:13.633263	31.8	13.4	-77.4	0.0
2025-01-25 06:59:14.754638	31.9	13.5	-76.9	0.0
2025-01-25 06:59:15.876875	32.0	13.6	-77.1	0.0
2025-01-25 06:59:17.001270	32.1	13.7	-77.2	0.0
2025-01-25 06:59:18.126966	32.2	13.8	-77.0	0.0
2025-01-25 06:59:19.250421	32.3	13.9	-77.0	0.0
2025-01-25 06:59:20.373413	32.4	14.0	-77.2	0.0
2025-01-25 06:59:21.499664	32.5	14.1	-76.8	0.0
2025-01-25 06:59:22.623571	32.6	14.2	-77.0	0.0
2025-01-25 06:59:23.747435	32.8	14.3	-77.2	0.0
2025-01-25 06:59:24.870219	32.9	14.4	-77.3	0.0
2025-01-25 06:59:25.994068	33.0	14.5	-76.8	0.0
2025-01-25 06:59:27.116755	33.1	14.6	-77.3	0.0
2025-01-25 06:59:28.238925	33.2	14.7	-77.1	0.0
2025-01-25 06:59:29.362390	33.3	14.8	-77.4	0.0
2025-01-25 06:59:30.485816	33.4	14.9	-77.7	0.0
2025-01-25 06:59:31.611437	33.5	15.0	-77.1	0.0
2025-01-25 06:59:32.733134	33.7	15.1	-77.1	0.0
2025-01-25 06:59:33.856417	33.8	15.2	-77.9	0.0
2025-01-25 06:59:34.978922	33.9	15.3	-77.3	0.0
2025-01-25 06:59:36.101983	34.0	15.4	-77.1	0.0
2025-01-25 06:59:37.225121	34.1	15.5	-76.6	0.0
2025-01-25 06:59:38.346531	34.3	15.6	-76.4	0.0
2025-01-25 06:59:39.470556	34.4	15.7	-76.2	0.0
2025-01-25 06:59:40.594940	34.5	15.8	-76.5	0.0
2025-01-25 06:59:41.717218	34.6	15.9	-76.9	0.0
2025-01-25 06:59:42.840283	34.7	16.1	-73.9	0.0
2025-01-25 06:59:43.964540	34.9	16.2	-77.5	0.0
2025-01-25 06:59:45.089647	35.0	16.3	-77.7	0.0
2025-01-25 06:59:46.212040	35.1	16.4	-77.3	0.0
2025-01-25 06:59:47.335802	35.2	16.5	-77.8	0.0
2025-01-25 06:59:48.458901	35.4	16.6	-77.6	0.0
2025-01-25 06:59:49.580357	35.5	16.7	-77.6	0.0
2025-01-25 06:59:50.704428	35.6	16.8	-77.9	0.0
2025-01-25 06:59:51.827166	35.8	16.9	-77.5	0.0
2025-01-25 06:59:52.948935	35.9	17.0	-77.7	0.0
2025-01-25 06:59:54.072373	36.0	17.1	-77.7	0.0
2025-01-25 06:59:55.197132	36.2	17.2	-77.7	0.0
2025-01-25 06:59:56.320099	36.3	17.4	-77.5	0.0
2025-01-25 06:59:57.442048	36.4	17.5	-77.5	0.0
2025-01-25 06:59:58.567632	36.6	17.6	-77.3	0.0
2025-01-25 06:59:59.690057	36.7	17.7	-77.6	0.0
2025-01-25 07:00:00.812425	36.8	17.8	-77.6	0.0
2025-01-25 07:00:01.933650	37.0	17.9	-77.6	0.0
2025-01-25 07:00:03.055648	37.1	18.0	-77.4	0.0
2025-01-25 07:00:04.179413	37.3	18.1	-77.2	0.0
2025-01-25 07:00:05.300799	37.4	18.2	-77.2	0.0
2025-01-25 07:00:06.422189	37.5	18.4	-77.4	0.0
2025-01-25 07:00:07.546557	37.7	18.5	-77.5	0.0
2025-01-25 07:00:08.668937	37.8	18.6	-77.5	0.0
2025-01-25 07:00:09.793517	38.0	18.7	-77.4	0.0
2025-01-25 07:00:10.916813	38.1	18.8	-77.0	0.0
2025-01-25 07:00:12.040470	38.3	18.9	-76.9	0.0
2025-01-25 07:00:13.162493	38.4	19.0	-77.4	0.0
2025-01-25 07:00:14.287301	38.6	19.2	-77.3	0.0
2025-01-25 07:00:15.410166	38.7	19.3	-77.2	0.0
2025-01-25 07:00:16.531647	38.9	19.4	-77.4	0.0
2025-01-25 07:00:17.653811	39.0	19.5	-77.6	0.0
2025-01-25 07:00:18.777049	39.2	19.6	-77.2	0.0
2025-01-25 07:00:19.899958	39.3	19.7	-77.3	0.0
2025-01-25 07:00:21.024975	39.5	19.9	-77.3	0.0
2025-01-25 07:00:22.148847	39.6	20.0	-76.9	0.0
2025-01-25 07:00:23.271117	39.8	20.1	-77.1	0.0
2025-01-25 07:00:24.392826	40.0	20.2	-77.1	0.0
2025-01-25 07:00:25.516694	40.1	20.3	-77.2	0.0
2025-01-25 07:00:26.640001	40.3	20.4	-77.3	0.0
2025-01-25 07:00:27.763885	40.5	20.6	-77.4	0.0
2025-01-25 07:00:28.886431	40.6	20.7	-77.3	0.0
2025-01-25 07:00:30.010645	40.8	20.8	-77.4	0.0
2025-01-25 07:00:31.132553	41.0	20.9	-77.5	0.0
2025-01-25 07:00:32.256053	41.1	21.0	-77.7	0.0
2025-01-25 07:00:33.375845	41.3	21.2	-77.5	0.0
2025-01-25 07:00:34.498955	41.5	21.3	-77.3	0.0
2025-01-25 07:00:35.622105	41.6	21.4	-77.3	0.0
2025-01-25 07:00:36.744288	41.8	21.5	-77.5	0.0
2025-01-25 07:00:37.866587	42.0	21.7	-77.3	0.0
2025-01-25 07:00:38.988634	42.2	21.8	-77.6	0.0
2025-01-25 07:00:40.111175	42.3	21.9	-77.4	0.0
2025-01-25 07:00:41.234952	42.5	22.0	-77.5	0.0
2025-01-25 07:00:42.358178	42.7	22.1	-77.5	0.0
2025-01-25 07:00:43.481845	42.9	22.3	-77.4	0.0
2025-01-25 07:00:44.605925	43.1	22.4	-77.5	0.0
2025-01-25 07:00:45.730263	43.3	22.5	-77.7	0.0
2025-01-25 07:00:46.852873	43.4	22.6	-77.7	0.0
2025-01-25 07:00:47.977637	43.6	22.8	-77.6	0.0
2025-01-25 07:00:49.101521	43.8	22.9	-77.8	0.0
2025-01-25 07:00:50.225523	44.0	23.0	-77.6	0.0
2025-01-25 07:00:51.347589	44.2	23.2	-77.5	0.0
2025-01-25 07:00:52.470671	44.4	23.3	-77.7	0.0
2025-01-25 07:00:53.596864	44.6	23.4	-77.1	0.0
2025-01-25 07:00:54.719101	44.8	23.5	-77.4	0.0
2025-01-25 07:00:55.842990	45.0	23.7	-77.1	0.0
2025-01-25 07:00:56.965757	45.2	23.8	-77.3	0.0
2025-01-25 07:00:58.089580	45.4	23.9	-77.4	0.0
2025-01-25 07:00:59.211365	45.6	24.0	-77.7	0.0
2025-01-25 07:01:00.333270	45.8	24.2	-77.3	0.0
2025-01-25 07:01:01.457356	46.0	24.3	-77.8	0.0
2025-01-25 07:01:02.579282	46.2	24.4	-77.5	0.0
2025-01-25 07:01:03.702826	46.4	24.6	-77.5	0.0
2025-01-25 07:01:04.826747	46.6	24.7	-77.4	0.0
2025-01-25 07:01:05.951006	46.8	24.8	-77.1	0.0
2025-01-25 07:01:07.073760	47.1	24.9	-77.2	0.0
2025-01-25 07:01:08.196336	47.3	25.1	-77.5	0.0
2025-01-25 07:01:09.321573	47.5	25.2	-77.6	0.0
2025-01-25 07:01:10.442671	47.7	25.3	-77.6	0.0
2025-01-25 07:01:11.566643	47.9	25.5	-77.7	0.0
2025-01-25 07:01:12.689710	48.2	25.6	-77.7	0.0
2025-01-25 07:01:13.813024	48.4	25.7	-77.8	0.0
2025-01-25 07:01:14.936257	48.6	25.9	-77.8	0.0
2025-01-25 07:01:16.060842	48.8	26.0	-77.7	0.0
2025-01-25 07:01:17.182850	49.1	26.1	-77.6	0.0
2025-01-25 07:01:18.306690	49.3	26.3	-77.9	0.0
2025-01-25 07:01:19.426933	49.5	26.4	-77.4	0.0
2025-01-25 07:01:20.549876	49.8	26.5	-77.8	0.0
2025-01-25 07:01:21.673198	50.0	26.6	-77.5	0.0
2025-01-25 07:01:22.797737	50.2	26.8	-77.6	0.0
2025-01-25 07:01:23.920879	50.5	26.9	-77.4	0.0
2025-01-25 07:01:25.041829	50.7	27.0	-77.9	0.0
2025-01-25 07:01:26.165172	51.0	27.2	-78.0	0.0
2025-01-25 07:01:27.287760	51.2	27.3	-77.6	0.0
2025-01-25 07:01:28.414076	51.5	27.4	-78.1	0.0
2025-01-25 07:01:29.536391	51.7	27.6	-78.2	0.0
2025-01-25 07:01:30.659388	52.0	27.7	-78.0	0.0
2025-01-25 07:01:31.782682	52.2	27.8	-78.0	0.0
2025-01-25 07:01:32.907083	52.5	28.0	-77.9	0.0
2025-01-25 07:01:34.031273	52.8	28.1	-78.0	0.0
2025-01-25 07:01:35.154257	53.0	28.2	-78.1	0.0
2025-01-25 07:01:36.278534	53.3	28.4	-77.9	0.0
2025-01-25 07:01:37.402413	53.6	28.5	-77.7	0.0
2025-01-25 07:01:38.523923	53.8	28.6	-77.5	0.0
2025-01-25 07:01:39.647223	54.1	28.8	-77.4	0.0
2025-01-25 07:01:40.771554	54.4	28.9	-77.9	0.0
2025-01-25 07:01:41.895460	54.6	29.0	-77.7	0.0
2025-01-25 07:01:43.019988	54.9	29.2	-77.8	0.0
2025-01-25 07:01:44.142880	55.2	29.3	-77.4	0.0
2025-01-25 07:01:45.265136	55.5	29.4	-77.7	0.0
2025-01-25 07:01:46.388536	55.8	29.6	-78.0	0.0
2025-01-25 07:01:47.511431	56.1	29.7	-77.0	0.0
2025-01-25 07:01:48.633416	56.3	29.8	-77.8	0.0
2025-01-25 07:01:49.757162	56.6	30.0	-77.6	0.0
2025-01-25 07:01:50.878041	56.9	30.1	-78.0	0.0
2025-01-25 07:01:52.000962	57.2	30.2	-77.4	0.0
2025-01-25 07:01:53.124214	57.5	30.4	-77.9	0.0
2025-01-25 07:01:54.247248	57.8	30.5	-76.8	0.0
2025-01-25 07:01:55.368203	58.1	30.6	-77.6	0.0
2025-01-25 07:01:56.493162	58.4	30.7	-77.0	0.0
2025-01-25 07:01:57.615980	58.7	30.9	-77.4	0.0
2025-01-25 07:01:58.738532	59.1	31.0	-77.9	0.0
2025-01-25 07:01:59.861531	59.4	31.1	-77.9	0.0
2025-01-25 07:02:00.986300	59.7	31.3	-77.7	0.0
2025-01-25 07:02:02.111591	60.0	31.4	-78.0	0.0
2025-01-25 07:02:03.235313	60.3	31.5	-77.9	0.0
2025-01-25 07:02:04.359917	60.6	31.6	-77.6	0.0
2025-01-25 07:02:05.483660	61.0	31.8	-77.8	0.0
2025-01-25 07:02:06.606824	61.3	31.9	-78.1	0.0
2025-01-25 07:02:07.731299	61.6	32.0	-77.6	0.0
2025-01-25 07:02:08.854215	62.0	32.2	-77.5	0.0
2025-01-25 07:02:09.977812	62.3	32.3	-77.5	0.0
2025-01-25 07:02:11.101465	62.6	32.4	-77.3	0.0
2025-01-25 07:02:12.226093	63.0	32.5	-77.7	0.0
2025-01-25 07:02:13.345890	63.3	32.6	-77.7	0.0
2025-01-25 07:02:14.468760	63.7	32.8	-77.5	0.0
2025-01-25 07:02:15.592405	64.0	32.9	-77.5	0.0
2025-01-25 07:02:16.714993	64.4	33.0	-77.7	0.0
2025-01-25 07:02:17.836363	64.7	33.1	-77.8	0.0
2025-01-25 07:02:18.958824	65.1	33.3	-77.8	0.0
2025-01-25 07:02:20.083756	65.4	33.4	-77.2	0.0
2025-01-25 07:02:21.207310	65.8	33.5	-77.3	0.0
2025-01-25 07:02:22.330582	66.2	33.6	-77.6	0.0
2025-01-25 07:02:23.452288	66.5	33.7	-77.3	0.0
2025-01-25 07:02:24.573986	66.9	33.8	-77.5	0.0
2025-01-25 07:02:25.697296	67.3	34.0	-77.6	0.0
2025-01-25 07:02:26.819876	67.6	34.1	-77.7	0.0
2025-01-25 07:02:27.943356	68.0	34.2	-76.7	0.0
2025-01-25 07:02:29.066532	68.4	34.3	-77.0	0.0
2025-01-25 07:02:30.189185	68.8	34.4	-77.4	0.0
2025-01-25 07:02:31.311762	69.2	34.5	-76.9	0.0
2025-01-25 07:02:32.433505	69.5	34.6	-76.8	0.0
2025-01-25 07:02:33.556136	69.9	34.7	-76.9	0.0
2025-01-25 07:02:34.680014	70.3	34.8	-77.3	0.0
2025-01-25 07:02:35.805700	70.7	35.0	-76.9	0.0
2025-01-25 07:02:36.928697	71.1	35.1	-77.1	0.0
2025-01-25 07:02:38.051109	71.5	35.2	-77.3	0.0
2025-01-25 07:02:39.173119	71.9	35.3	-77.2	0.0
2025-01-25 07:02:40.297832	72.3	35.4	-76.9	0.0
2025-01-25 07:02:41.418130	72.7	35.5	-76.9	0.0
2025-01-25 07:02:42.542195	73.1	35.6	-76.5	0.0
2025-01-25 07:02:43.665380	73.5	35.7	-77.0	0.0
2025-01-25 07:02:44.789047	74.0	35.8	-76.8	0.0
2025-01-25 07:02:45.911720	74.4	35.9	-76.6	0.0
2025-01-25 07:02:47.035334	74.8	35.9	-76.6	0.0
2025-01-25 07:02:48.157134	75.2	36.0	-77.1	0.0
2025-01-25 07:02:49.278848	75.6	36.1	-76.9	0.0
2025-01-25 07:02:50.401623	76.1	36.2	-77.2	0.0
2025-01-25 07:02:51.522943	76.5	36.3	-77.0	0.0
2025-01-25 07:02:52.645400	76.9	36.4	-77.3	0.0
2025-01-25 07:02:53.768300	77.4	36.5	-77.3	0.0
2025-01-25 07:02:54.891507	77.8	36.6	-77.5	0.0
2025-01-25 07:02:56.015184	78.2	36.6	-76.8	0.0
2025-01-25 07:02:57.138601	78.7	36.7	-76.9	0.0
2025-01-25 07:02:58.263385	79.1	36.8	-77.0	0.0
2025-01-25 07:02:59.384761	79.5	36.9	-76.7	0.0
2025-01-25 07:03:00.508316	80.0	36.9	-76.7	0.0
2025-01-25 07:03:01.630982	80.4	37.0	-76.8	0.0
2025-01-25 07:03:02.754927	80.9	37.1	-77.0	0.0
2025-01-25 07:03:03.876283	81.3	37.2	-76.9	0.0
2025-01-25 07:03:04.999810	81.8	37.2	-77.1	0.0
2025-01-25 07:03:06.122949	82.2	37.3	-77.5	0.0
2025-01-25 07:03:07.246099	82.7	37.4	-76.1	0.0
2025-01-25 07:03:08.369857	83.2	37.4	-77.7	0.0
2025-01-25 07:03:09.493974	83.6	37.5	-76.8	0.0
2025-01-25 07:03:10.617549	84.1	37.5	-77.2	0.0
2025-01-25 07:03:11.740612	84.5	37.6	-77.0	0.0
2025-01-25 07:03:12.864543	85.0	37.6	-76.8	0.0
2025-01-25 07:03:13.988173	85.5	37.7	-77.1	0.0
2025-01-25 07:03:15.112578	85.9	37.7	-77.1	0.0
2025-01-25 07:03:16.236221	86.4	37.8	-76.9	0.0
2025-01-25 07:03:17.358965	86.9	37.8	-77.2	0.0
2025-01-25 07:03:18.483077	87.4	37.9	-76.8	0.0
2025-01-25 07:03:19.607615	87.8	37.9	-76.9	0.0
2025-01-25 07:03:20.730971	88.3	38.0	-77.6	0.0
2025-01-25 07:03:21.857126	88.8	38.0	-77.4	0.0
2025-01-25 07:03:22.979574	89.3	38.0	-77.3	0.0
2025-01-25 07:03:24.103276	89.7	38.1	-77.3	0.0
2025-01-25 07:03:25.228162	90.2	38.1	-77.3	0.0
2025-01-25 07:03:26.350829	90.7	38.1	-77.6	0.0
2025-01-25 07:03:27.472098	91.2	38.2	-77.6	0.0
2025-01-25 07:03:28.596170	91.7	38.2	-77.5	0.0
2025-01-25 07:03:29.720231	92.1	38.2	-77.6	0.0
2025-01-25 07:03:30.843152	92.6	38.2	-77.8	0.0
2025-01-25 07:03:31.964419	93.1	38.2	-77.7	0.0
2025-01-25 07:03:33.088405	93.6	38.3	-77.9	0.0
2025-01-25 07:03:34.210224	94.1	38.3	-77.8	0.0
2025-01-25 07:03:35.333666	94.5	38.3	-78.1	0.0
2025-01-25 07:03:36.457845	95.0	38.3	-77.7	0.0
2025-01-25 07:03:37.580944	95.5	38.3	-77.7	0.0
2025-01-25 07:03:38.706245	96.0	38.3	-77.6	0.0
2025-01-25 07:03:39.831105	96.5	38.3	-77.2	0.0
2025-01-25 07:03:40.952923	97.0	38.3	-77.7	0.0
2025-01-25 07:03:42.076667	97.5	38.3	-77.7	0.0
2025-01-25 07:03:43.200662	97.9	38.3	-78.1	0.0
2025-01-25 07:03:44.323718	98.4	38.3	-78.0	0.0
2025-01-25 07:03:45.449040	98.9	38.3	-78.0	0.0
2025-01-25 07:03:46.572623	99.4	38.3	-77.9	0.0
2025-01-25 07:03:47.694871	99.9	38.2	-78.0	0.0
2025-01-25 07:03:48.819796	100.4	38.2	-77.7	0.0
2025-01-25 07:03:49.942094	100.8	38.2	-77.7	0.0
2025-01-25 07:03:51.064594	101.3	38.2	-77.9	0.0
2025-01-25 07:03:52.189648	101.8	38.2	-78.3	0.0
2025-01-25 07:03:53.312489	102.3	38.1	-77.8	0.0
2025-01-25 07:03:54.438473	102.8	38.1	-77.9	0.0
2025-01-25 07:03:55.561712	103.2	38.1	-78.2	0.0
2025-01-25 07:03:56.684627	103.7	38.1	-77.4	0.0
2025-01-25 07:03:57.807179	104.2	38.0	-78.3	0.0
2025-01-25 07:03:58.930280	104.7	38.0	-77.7	0.0
2025-01-25 07:04:00.052713	105.1	37.9	-78.3	0.0
2025-01-25 07:04:01.178031	105.6	37.9	-78.2	0.0
2025-01-25 07:04:02.300410	106.1	37.9	-78.0	0.0
2025-01-25 07:04:03.422954	106.6	37.8	-77.5	0.0
2025-01-25 07:04:04.544714	107.0	37.8	-77.9	0.0
2025-01-25 07:04:05.668246	107.5	37.7	-78.1	0.0
2025-01-25 07:04:06.791517	108.0	37.7	-78.4	0.0
2025-01-25 07:04:07.914080	108.4	37.6	-78.0	0.0
2025-01-25 07:04:09.036192	108.9	37.6	-77.7	0.0
2025-01-25 07:04:10.159398	109.4	37.5	-77.5	0.0
2025-01-25 07:04:11.279990	109.8	37.5	-77.8	0.0
2025-01-25 07:04:12.403150	110.3	37.4	-77.8	0.0
2025-01-25 07:04:13.528202	110.7	37.3	-77.7	0.0
2025-01-25 07:04:14.648664	111.2	37.3	-77.7	0.0
2025-01-25 07:04:15.771006	111.6	37.2	-77.7	0.0
2025-01-25 07:04:16.894720	112.1	37.1	-77.4	0.0
2025-01-25 07:04:18.018100	112.5	37.1	-77.5	0.0
2025-01-25 07:04:19.141012	113.0	37.0	-77.7	0.0
2025-01-25 07:04:20.263590	113.4	36.9	-77.7	0.0
2025-01-25 07:04:21.385726	113.9	36.8	-77.7	0.0
2025-01-25 07:04:22.509523	114.3	36.8	-77.2	0.0
2025-01-25 07:04:23.632447	114.8	36.7	-77.6	0.0
2025-01-25 07:04:24.754390	115.2	36.6	-77.6	0.0
2025-01-25 07:04:25.879202	115.6	36.5	-77.8	0.0
2025-01-25 07:04:27.002606	116.1	36.4	-77.4	0.0
2025-01-25 07:04:28.127914	116.5	36.4	-77.7	0.0
2025-01-25 07:04:29.248907	116.9	36.3	-77.3	0.0
2025-01-25 07:04:30.371098	117.4	36.2	-77.7	0.0
2025-01-25 07:04:31.494155	117.8	36.1	-77.7	0.0
2025-01-25 07:04:32.616404	118.2	36.0	-77.9	0.0
2025-01-25 07:04:33.740045	118.6	35.9	-77.9	0.0
2025-01-25 07:04:34.862601	119.1	35.8	-77.5	0.0
2025-01-25 07:04:35.984048	119.5	35.7	-77.6	0.0
2025-01-25 07:04:37.104503	119.9	35.6	-77.7	0.0
2025-01-25 07:04:38.225011	120.3	35.5	-77.4	0.0
2025-01-25 07:04:39.347985	120.7	35.4	-77.1	0.0
2025-01-25 07:04:40.473147	121.1	35.3	-77.4	0.0
2025-01-25 07:04:41.597529	121.5	35.2	-77.0	0.0
2025-01-25 07:04:42.720151	121.9	35.1	-77.3	0.0
2025-01-25 07:04:43.842688	122.3	35.0	-77.4	0.0
2025-01-25 07:04:44.965430	122.7	34.9	-77.1	0.0
2025-01-25 07:04:46.088612	123.1	34.8	-77.2	0.0
2025-01-25 07:04:47.212141	123.5	34.7	-77.5	0.0
2025-01-25 07:04:48.335757	123.9	34.6	-77.7	0.0
2025-01-25 07:04:49.460297	124.3	34.5	-77.5	0.0
2025-01-25 07:04:50.584312	124.6	34.4	-77.3	0.0
2025-01-25 07:04:51.708066	125.0	34.2	-76.9	0.6
2025-01-25 07:04:52.830279	125.4	34.1	-77.5	0.0
2025-01-25 07:04:53.951821	125.8	34.0	-76.5	0.0
2025-01-25 07:04:55.072561	126.2	33.9	-77.1	0.0
2025-01-25 07:04:56.194360	126.5	33.8	-77.1	0.0
2025-01-25 07:04:57.316822	126.9	33.7	-77.0	0.0
2025-01-25 07:04:58.439651	127.3	33.6	-77.1	0.9
2025-01-25 07:04:59.563210	127.6	33.4	-77.4	0.0
2025-01-25 07:05:00.687752	128.0	33.3	-77.2	0.0
2025-01-25 07:05:01.808907	128.3	33.2	-77.2	0.0
2025-01-25 07:05:02.931886	128.7	33.1	-77.4	0.0
2025-01-25 07:05:04.054914	129.0	33.0	-77.1	0.2
2025-01-25 07:05:05.178148	129.4	32.8	-77.3	0.0
2025-01-25 07:05:06.302382	129.7	32.7	-76.7	0.0
2025-01-25 07:05:07.425698	130.1	32.6	-77.0	0.0
2025-01-25 07:05:08.548246	130.4	32.5	-77.3	0.0
2025-01-25 07:05:09.671636	130.8	32.3	-77.4	0.0
2025-01-25 07:05:10.794434	131.1	32.2	-77.6	0.0
2025-01-25 07:05:11.919791	131.4	32.1	-77.4	0.0
2025-01-25 07:05:13.043936	131.8	32.0	-77.5	0.0
2025-01-25 07:05:14.169762	132.1	31.8	-77.3	0.0
2025-01-25 07:05:15.292149	132.4	31.7	-77.4	0.0
2025-01-25 07:05:16.415039	132.8	31.6	-77.6	0.0
2025-01-25 07:05:17.538357	133.1	31.5	-78.0	0.0
2025-01-25 07:05:18.660208	133.4	31.3	-77.6	0.0
2025-01-25 07:05:19.782768	133.7	31.2	-77.3	0.0
2025-01-25 07:05:20.905199	134.0	31.1	-77.2	0.0
2025-01-25 07:05:22.027300	134.3	30.9	-77.5	0.0
2025-01-25 07:05:23.151075	134.6	30.8	-77.5	0.0
2025-01-25 07:05:24.274975	135.0	30.7	-77.1	0.0
2025-01-25 07:05:25.396297	135.3	30.5	-77.1	0.0
2025-01-25 07:05:26.519541	135.6	30.4	-77.5	0.0
2025-01-25 07:05:27.640818	135.9	30.3	-77.4	0.0
2025-01-25 07:05:28.763768	136.2	30.2	-77.2	0.0
2025-01-25 07:05:29.885407	136.5	30.0	-77.3	0.3
2025-01-25 07:05:31.008513	136.7	29.9	-77.4	0.0
2025-01-25 07:05:32.131789	137.0	29.8	-77.5	0.0
2025-01-25 07:05:33.253794	137.3	29.6	-77.5	0.0
2025-01-25 07:05:34.378110	137.6	29.5	-77.2	0.0
2025-01-25 07:05:35.501771	137.9	29.4	-77.9	0.0
2025-01-25 07:05:36.624104	138.2	29.2	-77.5	0.0
2025-01-25 07:05:37.746296	138.5	29.1	-77.9	0.0
2025-01-25 07:05:38.869204	138.7	29.0	-77.6	0.0
2025-01-25 07:05:39.992570	139.0	28.8	-78.0	0.0
2025-01-25 07:05:41.115100	139.3	28.7	-78.1	0.0
2025-01-25 07:05:42.240239	139.5	28.6	-77.9	0.0
2025-01-25 07:05:43.366426	139.8	28.4	-77.9	0.0
2025-01-25 07:05:44.491525	140.1	28.3	-77.8	0.0
2025-01-25 07:05:45.614974	140.3	28.2	-77.5	0.0
2025-01-25 07:05:46.736896	140.6	28.0	-77.9	0.0
2025-01-25 07:05:47.860985	140.9	27.9	-77.8	0.0
2025-01-25 07:05:48.984551	141.1	27.8	-77.9	0.0
2025-01-25 07:05:50.107867	141.4	27.6	-77.9	0.0
2025-01-25 07:05:51.230201	141.6	27.5	-77.8	0.0
2025-01-25 07:05:52.353845	141.9	27.4	-77.9	0.0
2025-01-25 07:05:53.476168	142.1	27.2	-77.9	0.0
2025-01-25 07:05:54.598907	142.4	27.1	-77.6	0.0
2025-01-25 07:05:55.721115	142.6	27.0	-77.5	0.0
2025-01-25 07:05:56.844375	142.9	26.8	-77.6	0.0
2025-01-25 07:05:57.967555	143.1	26.7	-77.4	0.0
2025-01-25 07:05:59.089961	143.4	26.6	-77.6	0.0
2025-01-25 07:06:00.213672	143.6	26.4	-78.2	0.0
2025-01-25 07:06:01.337408	143.8	26.3	-77.8	0.0
2025-01-25 07:06:02.459193	144.1	26.2	-77.8	0.0
2025-01-25 07:06:03.580266	144.3	26.0	-77.5	0.0
2025-01-25 07:06:04.702322	144.5	25.9	-77.8	0.0
2025-01-25 07:06:05.825390	144.7	25.8	-77.3	0.0
2025-01-25 07:06:06.949984	145.0	25.7	-77.5	0.0
2025-01-25 07:06:08.073090	145.2	25.5	-77.4	0.0
2025-01-25 07:06:09.195760	145.4	25.4	-77.4	0.0
2025-01-25 07:06:10.318100	145.6	25.3	-77.3	0.0
2025-01-25 07:06:11.438080	145.9	25.1	-77.3	0.0
2025-01-25 07:06:12.562501	146.1	25.0	-77.4	0.0
2025-01-25 07:06:13.686236	146.3	24.9	-77.1	0.0
2025-01-25 07:06:14.809158	146.5	24.7	-77.4	0.0
2025-01-25 07:06:15.934697	146.7	24.6	-77.1	0.0
2025-01-25 07:06:17.057966	146.9	24.5	-76.9	1.3
2025-01-25 07:06:18.182088	147.1	24.3	-77.1	0.0
2025-01-25 07:06:19.307614	147.3	24.2	-77.0	3.8
2025-01-25 07:06:20.430055	147.6	24.1	-76.9	4.0
2025-01-25 07:06:21.551637	147.8	24.0	-77.1	4.6
2025-01-25 07:06:22.674522	148.0	23.8	-77.0	4.0
2025-01-25 07:06:23.797643	148.2	23.7	-76.6	5.3
2025-01-25 07:06:24.918015	148.4	23.6	-76.5	5.8
2025-01-25 07:06:26.039528	148.6	23.5	-76.4	6.0
2025-01-25 07:06:27.161815	148.7	23.3	-76.0	5.5
2025-01-25 07:06:28.284852	148.9	23.2	-76.2	6.6
2025-01-25 07:06:29.410217	149.1	23.1	-76.1	6.1
2025-01-25 07:06:30.532360	149.3	22.9	-74.7	0.0
2025-01-25 07:06:31.655558	149.5	22.8	-76.2	6.0
2025-01-25 07:06:32.778277	149.7	22.7	-75.8	6.6
2025-01-25 07:06:33.901320	149.9	22.6	-75.7	6.3
2025-01-25 07:06:35.023549	150.1	22.4	-76.1	6.7
2025-01-25 07:06:36.145495	150.3	22.3	-76.0	6.0
2025-01-25 07:06:37.271037	150.4	22.2	-75.9	6.9
2025-01-25 07:06:38.393263	150.6	22.1	-76.1	7.4
2025-01-25 07:06:39.517095	150.8	21.9	-75.5	7.8
2025-01-25 07:06:40.638474	151.0	21.8	-75.8	8.2
2025-01-25 07:06:41.761229	151.2	21.7	-75.7	8.9
2025-01-25 07:06:42.883666	151.3	21.6	-75.6	9.0
2025-01-25 07:06:44.006243	151.5	21.5	-75.6	8.8
2025-01-25 07:06:45.131381	151.7	21.3	-75.7	8.9
2025-01-25 07:06:46.254461	151.9	21.2	-75.5	8.7
2025-01-25 07:06:47.378746	152.0	21.1	-75.5	8.3
2025-01-25 07:06:48.502010	152.2	21.0	-75.9	8.8
2025-01-25 07:06:49.625157	152.4	20.8	-75.4	9.0
2025-01-25 07:06:50.747936	152.5	20.7	-75.3	8.6
2025-01-25 07:06:51.872141	152.7	20.6	-75.5	8.3
2025-01-25 07:06:52.993634	152.9	20.5	-75.6	8.6
2025-01-25 07:06:54.114100	153.0	20.4	-75.4	9.1
2025-01-25 07:06:55.238887	153.2	20.2	-75.3	9.3
2025-01-25 07:06:56.360309	153.3	20.1	-75.2	9.5
2025-01-25 07:06:57.481819	153.5	20.0	-75.2	9.8
2025-01-25 07:06:58.606762	153.7	19.9	-75.2	9.0
2025-01-25 07:06:59.728855	153.8	19.8	-75.3	8.9
2025-01-25 07:07:00.852279	154.0	19.7	-75.3	9.1
2025-01-25 07:07:01.975633	154.1	19.5	-75.3	8.4
2025-01-25 07:07:03.099168	154.3	19.4	-75.4	9.1
2025-01-25 07:07:04.222381	154.4	19.3	-75.5	10.0
2025-01-25 07:07:05.345207	154.6	19.2	-75.6	9.7
2025-01-25 07:07:06.468636	154.7	19.1	-75.8	9.6
2025-01-25 07:07:07.592870	154.9	19.0	-75.4	8.8
2025-01-25 07:07:08.714692	155.0	18.8	-75.6	9.4
2025-01-25 07:07:09.839159	155.2	18.7	-75.7	9.0
2025-01-25 07:07:10.962519	155.3	18.6	-75.3	7.9
2025-01-25 07:07:12.087306	155.5	18.5	-75.4	8.8
2025-01-25 07:07:13.211227	155.6	18.4	-75.6	9.5
2025-01-25 07:07:14.334358	155.8	18.3	-75.6	9.3
2025-01-25 07:07:15.455566	155.9	18.2	-75.5	8.6
2025-01-25 07:07:16.578003	156.0	18.0	-75.3	9.0
2025-01-25 07:07:17.701430	156.2	17.9	-75.6	8.5
2025-01-25 07:07:18.823990	156.3	17.8	-75.9	8.7
2025-01-25 07:07:19.945426	156.4	17.7	-75.9	9.2
2025-01-25 07:07:21.071184	156.6	17.6	-75.7	8.8
2025-01-25 07:07:22.194217	156.7	17.5	-75.7	8.3
2025-01-25 07:07:23.319621	156.9	17.4	-75.9	9.1
2025-01-25 07:07:24.441656	157.0	17.3	-75.1	7.7
2025-01-25 07:07:25.565761	157.1	17.2	-75.5	9.2
2025-01-25 07:07:26.690569	157.3	17.0	-75.9	8.5
2025-01-25 07:07:27.813539	157.4	16.9	-75.7	9.5
2025-01-25 07:07:28.936264	157.5	16.8	-75.7	9.1
2025-01-25 07:07:30.058449	157.6	16.7	-75.7	9.1
2025-01-25 07:07:31.184593	157.8	16.6	-76.0	7.8
2025-01-25 07:07:32.308634	157.9	16.5	-75.9	8.5
2025-01-25 07:07:33.432535	158.0	16.4	-76.1	8.1
2025-01-25 07:07:34.558162	158.2	16.3	-75.8	7.7
2025-01-25 07:07:35.680826	158.3	16.2	-75.9	7.9
2025-01-25 07:07:36.801847	158.4	16.1	-75.9	8.0
2025-01-25 07:07:37.925998	158.5	16.0	-75.8	8.3
2025-01-25 07:07:39.047552	158.6	15.9	-76.0	6.8
2025-01-25 07:07:40.170830	158.8	15.8	-76.3	8.0
2025-01-25 07:07:41.293590	158.9	15.6	-75.9	8.0
2025-01-25 07:07:42.415120	159.0	15.5	-76.2	7.3
2025-01-25 07:07:43.538926	159.1	15.4	-75.5	6.8
2025-01-25 07:07:44.660075	159.2	15.3	-76.1	7.2
2025-01-25 07:07:45.781351	159.4	15.2	-75.7	7.8
2025-01-25 07:07:46.905753	159.5	15.1	-75.6	6.7
2025-01-25 07:07:48.029720	159.6	15.0	-75.9	7.3
2025-01-25 07:07:49.152019	159.7	14.9	-75.9	7.4
2025-01-25 07:07:50.276274	159.8	14.8	-76.2	7.8
2025-01-25 07:07:51.400845	159.9	14.7	-76.3	7.0
2025-01-25 07:07:52.524085	160.1	14.6	-76.1	7.8
2025-01-25 07:07:53.646312	160.2	14.5	-76.2	7.4
2025-01-25 07:07:54.770243	160.3	14.4	-76.2	7.7
2025-01-25 07:07:55.893748	160.4	14.3	-76.3	7.7
2025-01-25 07:07:57.016343	160.5	14.2	-76.4	7.0
2025-01-25 07:07:58.139813	160.6	14.1	-76.3	8.7
2025-01-25 07:07:59.264897	160.7	14.0	-76.1	7.2
2025-01-25 07:08:00.385878	160.8	13.9	-76.1	7.2
2025-01-25 07:08:01.507107	160.9	13.8	-75.8	7.8
2025-01-25 07:08:02.629827	161.0	13.7	-76.4	6.7
2025-01-25 07:08:03.752504	161.1	13.6	-76.2	7.3
2025-01-25 07:08:04.877666	161.2	13.5	-76.0	7.6
2025-01-25 07:08:06.000940	161.4	13.4	-76.1	7.5
2025-01-25 07:08:07.126479	161.5	13.3	-76.0	7.3
2025-01-25 07:08:08.249315	161.6	13.2	-76.0	7.4
2025-01-25 07:08:09.372501	161.7	13.1	-76.2	6.7
2025-01-25 07:08:10.493392	161.8	13.0	-76.1	5.1
2025-01-25 07:08:11.614357	161.9	12.9	-75.9	7.0
2025-01-25 07:08:12.737806	162.0	12.8	-76.4	6.9
2025-01-25 07:08:13.861392	162.1	12.7	-76.3	6.4
2025-01-25 07:08:14.983480	162.2	12.6	-76.3	6.3
2025-01-25 07:08:16.106169	162.3	12.5	-76.2	6.7
2025-01-25 07:08:17.227854	162.4	12.4	-76.2	6.2
2025-01-25 07:08:18.351545	162.5	12.4	-76.5	6.3
2025-01-25 07:08:19.473778	162.6	12.3	-76.6	5.7
2025-01-25 07:08:20.599043	162.7	12.2	-76.2	7.9
2025-01-25 07:08:21.722248	162.7	12.1	-76.7	5.7
2025-01-25 07:08:22.845390	162.8	12.0	-76.4	6.8
2025-01-25 07:08:23.969061	162.9	11.9	-76.1	7.2
2025-01-25 07:08:25.093400	163.0	11.8	-76.4	5.9
2025-01-25 07:08:26.217105	163.1	11.7	-76.6	5.9
2025-01-25 07:08:27.340578	163.2	11.6	-76.4	4.5
2025-01-25 07:08:28.463947	163.3	11.5	-76.6	5.4
2025-01-25 07:08:29.590172	163.4	11.4	-76.6	6.5
2025-01-25 07:08:30.712031	163.5	11.3	-76.7	5.5
2025-01-25 07:08:31.836517	163.6	11.2	-76.4	5.3
2025-01-25 07:08:32.959719	163.7	11.1	-76.2	5.0
2025-01-25 07:08:34.082517	163.8	11.1	-76.1	4.8
2025-01-25 07:08:35.207885	163.9	11.0	-76.7	3.8
2025-01-25 07:08:36.331373	163.9	10.9	-75.7	4.1
2025-01-25 07:08:37.455631	164.0	10.8	-75.9	4.3
2025-01-25 07:08:38.578043	164.1	10.7	-76.0	2.5
2025-01-25 07:08:39.701036	164.2	10.6	-75.6	3.0
2025-01-25 07:08:40.825935	164.3	10.5	-75.8	4.0
2025-01-25 07:08:41.946541	164.4	10.4	-76.0	4.2
2025-01-25 07:08:43.071143	164.5	10.3	-75.8	3.1
2025-01-25 07:08:44.193139	164.6	10.2	-75.5	3.3
2025-01-25 07:08:45.315641	164.6	10.2	-75.7	4.9
2025-01-25 07:08:46.437165	164.7	10.1	-76.1	3.0
2025-01-25 07:08:47.562940	164.8	10.0	-76.0	2.1
#Closed at: 2025-01-25 06:58:27.164153