passes_logs/2026/01/03/R3.2S_Murmansk/R3.2S_Murmansk__20260103_121235_ZKG05_rec.log

#Pass ID: 20260103_121235_ZKG05
#Satellite: ZKG05
#Configuration: ZKG05
#almurnet v.1.7.20251203
#Start time: 2026-01-03 12:12:37

#Version: 2.2.20231116
#Station: R3.2S_Murmansk
#Location: 33.079688 lon 68.888172 lat
#TLE: 1 65263U 25180E   25363.54303023  .00006586  00000-0  34273-3 0  9994
#TLE: 2 65263  97.4772 128.0191 0001674  87.3453 272.7971 15.16366041 20011

#Time	Az	El	Level	Level2	SNR	BER	BlckErr	Temp	State	Recorded	gain1	gain2
2026-01-03 12:12:37.04	21.17	2.11	-59.5	-62.2	6.1	0.00e+00	0	35	0	0	85	19629
2026-01-03 12:12:38.03	21.21	2.17	-59.5	-62.2	6.2	0.00e+00	0	35	104	0	85	19698
2026-01-03 12:12:39.03	21.25	2.24	-59.5	-62.2	6.2	0.00e+00	0	35	104	0	85	19620
2026-01-03 12:12:40.02	21.29	2.31	-59.5	-62.2	6.2	0.00e+00	0	35	104	0	85	19692
2026-01-03 12:12:41.02	21.34	2.38	-59.5	-62.2	6.1	0.00e+00	0	35	104	0	85	19666
2026-01-03 12:12:42.01	21.38	2.45	-59.5	-62.2	6.2	0.00e+00	0	35	104	0	85	19623
2026-01-03 12:12:43.02	21.42	2.51	-59.5	-62.2	6.2	0.00e+00	0	35	104	0	85	19645
2026-01-03 12:12:44.02	21.46	2.58	-59.5	-62.2	6.2	0.00e+00	0	35	104	0	85	19605
2026-01-03 12:12:45.02	21.51	2.65	-59.5	-62.2	6.2	0.00e+00	0	35	104	0	85	19661
2026-01-03 12:12:46.01	21.55	2.72	-59.5	-62.2	6.2	0.00e+00	0	35	104	0	85	19659
2026-01-03 12:12:47.01	21.59	2.79	-59.5	-62.2	6.2	0.00e+00	0	36	104	0	85	19668
2026-01-03 12:12:48.00	21.64	2.86	-59.5	-62.2	6.2	0.00e+00	0	36	104	0	85	19659
2026-01-03 12:12:48.99	21.68	2.93	-59.5	-62.2	6.2	0.00e+00	0	36	104	0	85	19680
2026-01-03 12:12:50.00	21.73	3.00	-59.5	-62.2	6.2	0.00e+00	0	36	104	0	85	19702
2026-01-03 12:12:50.99	21.77	3.07	-59.5	-62.2	6.2	0.00e+00	0	36	104	0	85	19677
2026-01-03 12:12:51.99	21.81	3.14	-59.5	-62.3	6.2	0.00e+00	0	36	104	0	85	19716
2026-01-03 12:12:52.98	21.86	3.21	-59.5	-62.2	6.2	0.00e+00	0	36	104	0	85	19602
2026-01-03 12:12:53.98	21.90	3.28	-59.5	-62.3	6.2	0.00e+00	0	36	104	0	85	19733
2026-01-03 12:12:54.97	21.95	3.35	-59.5	-62.2	6.2	0.00e+00	0	36	104	0	85	19660
2026-01-03 12:12:55.97	21.99	3.43	-59.5	-62.3	6.2	0.00e+00	0	36	104	0	85	19707
2026-01-03 12:12:56.96	22.04	3.50	-59.5	-62.3	6.2	0.00e+00	0	36	104	0	85	19725
2026-01-03 12:12:57.96	22.09	3.57	-59.6	-62.3	6.2	0.00e+00	0	36	104	0	85	19760
2026-01-03 12:12:58.95	22.13	3.64	-59.6	-62.3	6.2	0.00e+00	0	36	104	0	85	19764
2026-01-03 12:12:59.94	22.18	3.71	-59.6	-62.3	6.2	0.00e+00	0	36	104	0	85	19760
2026-01-03 12:13:00.94	22.23	3.79	-59.6	-62.3	6.2	0.00e+00	0	36	104	0	85	19792
2026-01-03 12:13:01.94	22.27	3.86	-59.6	-62.3	6.2	0.00e+00	0	36	104	0	85	19737
2026-01-03 12:13:02.93	22.32	3.93	-59.6	-62.2	6.2	0.00e+00	0	36	104	0	85	19674
2026-01-03 12:13:03.94	22.37	4.01	-59.6	-62.3	6.2	0.00e+00	0	36	104	0	85	19726
2026-01-03 12:13:04.93	22.42	4.08	-59.6	-62.3	6.2	0.00e+00	0	36	104	0	85	19792
2026-01-03 12:13:05.92	22.46	4.15	-59.6	-62.3	6.2	0.00e+00	0	36	104	0	85	19759
2026-01-03 12:13:06.92	22.51	4.23	-59.6	-62.3	6.2	0.00e+00	0	36	104	0	85	19757
2026-01-03 12:13:07.91	22.56	4.30	-59.6	-62.3	6.2	0.00e+00	0	36	104	0	85	19836
2026-01-03 12:13:08.91	22.61	4.38	-59.6	-62.3	6.2	0.00e+00	0	37	104	0	85	19758
2026-01-03 12:13:09.91	22.66	4.45	-59.6	-62.3	6.2	0.00e+00	0	37	104	0	85	19815
2026-01-03 12:13:10.91	22.71	4.53	-59.6	-62.3	6.2	0.00e+00	0	36	104	0	85	19746
2026-01-03 12:13:11.90	22.76	4.60	-59.6	-62.3	6.2	0.00e+00	0	37	104	0	85	19755
2026-01-03 12:13:12.91	22.81	4.68	-59.6	-62.3	6.2	0.00e+00	0	37	104	0	85	19767
2026-01-03 12:13:13.90	22.86	4.75	-59.6	-62.3	6.2	0.00e+00	0	36	104	0	85	19720
2026-01-03 12:13:14.91	22.91	4.83	-59.6	-62.3	6.2	0.00e+00	0	37	104	0	85	19799
2026-01-03 12:13:15.90	22.96	4.91	-59.6	-62.3	6.2	0.00e+00	0	37	104	0	85	19806
2026-01-03 12:13:16.89	23.01	4.98	-59.6	-62.3	6.2	0.00e+00	0	37	104	0	85	19830
2026-01-03 12:13:17.88	23.06	5.06	-59.6	-62.3	6.2	0.00e+00	0	37	104	0	85	19726
2026-01-03 12:13:18.87	23.12	5.14	-59.6	-62.3	6.2	0.00e+00	0	37	104	0	85	19888
2026-01-03 12:13:19.86	23.17	5.21	-59.5	-62.2	6.2	0.00e+00	0	37	104	0	85	19693
2026-01-03 12:13:20.87	23.22	5.29	-59.7	-62.4	6.2	0.00e+00	0	37	104	0	85	20077
2026-01-03 12:13:21.86	23.27	5.37	-59.7	-62.5	6.2	0.00e+00	0	37	104	0	85	20164
2026-01-03 12:13:22.86	23.33	5.45	-59.6	-62.3	6.2	0.00e+00	0	37	104	0	85	19828
2026-01-03 12:13:23.86	23.38	5.53	-59.5	-62.3	6.2	0.00e+00	0	37	104	0	85	19709
2026-01-03 12:13:24.86	23.43	5.61	-59.8	-62.5	6.2	0.00e+00	0	37	104	0	85	20201
2026-01-03 12:13:25.86	23.49	5.69	-59.8	-62.5	6.2	0.00e+00	0	37	104	0	85	20250
2026-01-03 12:13:26.86	23.54	5.77	-59.6	-62.4	6.2	0.00e+00	0	37	104	0	85	19963
2026-01-03 12:13:27.85	23.60	5.85	-59.6	-62.3	6.2	0.00e+00	0	37	104	0	85	19855
2026-01-03 12:13:28.85	23.65	5.93	-59.8	-62.5	6.2	0.00e+00	0	37	104	0	85	20312
2026-01-03 12:13:29.85	23.71	6.01	-59.8	-62.5	6.2	0.00e+00	0	37	104	0	85	20255
2026-01-03 12:13:30.85	23.77	6.09	-59.7	-62.4	6.2	0.00e+00	0	37	104	0	85	20043
2026-01-03 12:13:31.86	23.82	6.17	-59.7	-62.4	6.2	0.00e+00	0	37	104	0	85	19939
2026-01-03 12:13:32.86	23.88	6.25	-59.8	-62.5	6.2	0.00e+00	0	37	104	0	85	20353
2026-01-03 12:13:33.85	23.94	6.34	-59.9	-62.6	6.2	0.00e+00	0	37	104	0	85	20450
2026-01-03 12:13:34.86	23.99	6.42	-59.7	-62.4	6.2	0.00e+00	0	37	104	0	85	20080
2026-01-03 12:13:35.86	24.05	6.50	-59.7	-62.4	6.2	0.00e+00	0	37	104	0	85	20034
2026-01-03 12:13:36.86	24.11	6.58	-59.9	-62.6	6.2	0.00e+00	0	37	104	0	85	20435
2026-01-03 12:13:37.86	24.17	6.67	-59.9	-62.6	6.2	0.00e+00	0	37	104	0	85	20485
2026-01-03 12:13:38.86	24.23	6.75	-59.7	-62.4	6.2	0.00e+00	0	37	104	0	85	20145
2026-01-03 12:13:39.85	24.29	6.84	-59.8	-62.5	6.2	0.00e+00	0	37	104	0	85	20224
2026-01-03 12:13:40.85	24.35	6.92	-59.9	-62.6	6.2	0.00e+00	0	37	104	0	85	20584
2026-01-03 12:13:41.86	24.41	7.01	-59.9	-62.7	6.2	0.00e+00	0	37	104	0	85	20643
2026-01-03 12:13:42.86	24.47	7.09	-59.8	-62.5	6.2	0.00e+00	0	37	104	0	85	20348
2026-01-03 12:13:43.85	24.53	7.18	-59.8	-62.5	6.2	0.00e+00	0	37	104	0	85	20290
2026-01-03 12:13:44.85	24.59	7.26	-60.0	-62.7	6.2	0.00e+00	0	37	104	0	85	20674
2026-01-03 12:13:45.85	24.65	7.35	-60.0	-62.7	6.2	0.00e+00	0	37	104	0	85	20700
2026-01-03 12:13:46.85	24.72	7.43	-59.8	-62.5	6.2	0.00e+00	0	37	104	0	85	20385
2026-01-03 12:13:47.85	24.78	7.52	-59.8	-62.6	6.2	0.00e+00	0	37	104	0	85	20426
2026-01-03 12:13:48.86	24.84	7.61	-60.0	-62.7	6.2	0.00e+00	0	37	104	0	85	20741
2026-01-03 12:13:49.85	24.91	7.70	-60.0	-62.7	6.2	0.00e+00	0	38	104	0	85	20770
2026-01-03 12:13:50.85	24.97	7.78	-59.9	-62.6	6.2	0.00e+00	0	38	104	0	85	20533
2026-01-03 12:13:51.85	25.03	7.87	-59.9	-62.6	6.2	0.00e+00	0	38	104	0	85	20473
2026-01-03 12:13:52.86	25.10	7.96	-60.0	-62.7	6.2	0.00e+00	0	38	104	0	85	20815
2026-01-03 12:13:53.86	25.17	8.05	-60.0	-62.7	6.2	0.00e+00	0	38	104	0	85	20846
2026-01-03 12:13:54.85	25.23	8.14	-59.9	-62.6	6.2	0.00e+00	0	38	104	0	85	20615
2026-01-03 12:13:55.85	25.30	8.23	-59.9	-62.6	6.2	0.00e+00	0	38	104	0	85	20603
2026-01-03 12:13:56.85	25.36	8.32	-60.1	-62.8	6.2	0.00e+00	0	38	104	0	85	20929
2026-01-03 12:13:57.85	25.43	8.41	-60.1	-62.8	6.2	0.00e+00	0	38	104	0	85	20985
2026-01-03 12:13:58.85	25.50	8.50	-60.0	-62.6	6.2	0.00e+00	0	38	104	0	85	20627
2026-01-03 12:13:59.85	25.57	8.59	-60.0	-62.7	6.2	0.00e+00	0	38	104	0	85	20745
2026-01-03 12:14:00.85	25.64	8.69	-60.1	-62.8	6.2	0.00e+00	0	38	104	0	85	21015
2026-01-03 12:14:01.84	25.71	8.78	-60.1	-62.8	6.2	0.00e+00	0	38	104	0	85	21068
2026-01-03 12:14:02.83	25.78	8.87	-60.0	-62.7	6.2	0.00e+00	0	38	104	0	85	20860
2026-01-03 12:14:03.83	25.85	8.96	-60.0	-62.7	6.2	0.00e+00	0	38	104	0	85	20793
2026-01-03 12:14:04.83	25.92	9.06	-60.1	-62.8	6.2	0.00e+00	0	38	104	0	85	21005
2026-01-03 12:14:05.83	25.99	9.15	-60.1	-62.8	6.2	0.00e+00	0	38	104	0	85	21085
2026-01-03 12:14:06.84	26.06	9.25	-60.1	-62.8	6.2	0.00e+00	0	38	104	0	85	20877
2026-01-03 12:14:07.84	26.13	9.34	-60.0	-62.8	6.2	0.00e+00	0	38	104	0	85	20889
2026-01-03 12:14:08.84	26.21	9.44	-60.2	-62.9	6.2	0.00e+00	0	38	104	0	85	21155
2026-01-03 12:14:09.84	26.28	9.53	-60.2	-62.9	6.2	0.00e+00	0	38	104	0	85	21128
2026-01-03 12:14:10.84	26.35	9.63	-60.1	-62.8	6.2	0.00e+00	0	38	104	0	85	20956
2026-01-03 12:14:11.84	26.43	9.73	-60.1	-62.8	6.2	0.00e+00	0	38	104	0	85	20886
2026-01-03 12:14:12.84	26.50	9.82	-60.2	-62.9	6.2	0.00e+00	0	38	104	0	85	21227
2026-01-03 12:14:13.83	26.58	9.92	-60.2	-62.9	6.2	0.00e+00	0	38	104	0	85	21258
2026-01-03 12:14:14.84	26.66	10.02	-60.1	-62.8	6.2	0.00e+00	0	38	104	0	85	21020
2026-01-03 12:14:15.84	26.73	10.12	-60.1	-62.8	6.2	0.00e+00	0	38	104	0	85	20994
2026-01-03 12:14:16.83	26.81	10.22	-60.2	-62.9	6.2	0.00e+00	0	38	104	0	85	21347
2026-01-03 12:14:17.83	26.89	10.32	-60.2	-62.9	6.2	0.00e+00	0	38	104	0	85	21293
2026-01-03 12:14:18.82	26.97	10.42	-60.1	-62.9	6.2	0.00e+00	0	38	104	0	85	21127
2026-01-03 12:14:19.81	27.04	10.52	-60.1	-62.9	6.2	0.00e+00	0	38	104	0	85	21150
2026-01-03 12:14:20.81	27.12	10.62	-60.2	-63.0	6.2	0.00e+00	0	38	104	0	85	21399
2026-01-03 12:14:21.80	27.20	10.72	-60.2	-62.9	6.2	0.00e+00	0	38	104	0	85	21346
2026-01-03 12:14:22.80	27.29	10.82	-60.2	-62.9	6.2	0.00e+00	0	38	104	0	85	21214
2026-01-03 12:14:23.79	27.37	10.92	-60.2	-62.9	6.2	0.00e+00	0	38	104	0	85	21206
2026-01-03 12:14:24.79	27.45	11.02	-60.2	-63.0	6.2	0.00e+00	0	38	104	0	85	21423
2026-01-03 12:14:25.79	27.53	11.13	-60.3	-63.0	6.2	0.00e+00	0	38	104	0	85	21434
2026-01-03 12:14:26.79	27.62	11.23	-60.2	-62.9	6.2	0.00e+00	0	38	104	0	85	21223
2026-01-03 12:14:27.79	27.70	11.34	-60.2	-62.9	6.2	0.00e+00	0	38	104	0	85	21205
2026-01-03 12:14:28.80	27.79	11.44	-60.3	-63.0	6.2	0.00e+00	0	38	104	0	85	21397
2026-01-03 12:14:29.79	27.87	11.55	-60.3	-63.0	6.2	0.00e+00	0	38	104	0	86	20367
2026-01-03 12:14:30.78	27.96	11.65	-60.3	-63.0	6.2	0.00e+00	0	38	104	0	86	20234
2026-01-03 12:14:31.79	28.05	11.76	-60.3	-63.0	6.2	0.00e+00	0	38	104	0	86	20203
2026-01-03 12:14:32.79	28.13	11.87	-60.3	-63.1	6.2	0.00e+00	0	38	104	0	86	20423
2026-01-03 12:14:33.80	28.22	11.98	-60.4	-63.0	6.2	0.00e+00	0	38	104	0	86	20350
2026-01-03 12:14:34.79	28.31	12.09	-60.3	-63.0	6.2	0.00e+00	0	38	104	0	86	20245
2026-01-03 12:14:35.79	28.40	12.20	-60.3	-63.0	6.2	0.00e+00	0	38	104	0	86	20258
2026-01-03 12:14:36.79	28.50	12.31	-60.4	-63.1	6.2	0.00e+00	0	38	104	0	86	20439
2026-01-03 12:14:37.78	28.59	12.42	-60.4	-63.1	6.2	0.00e+00	0	38	104	0	86	20532
2026-01-03 12:14:38.78	28.68	12.53	-60.3	-63.0	6.2	0.00e+00	0	38	104	0	86	20391
2026-01-03 12:14:39.78	28.77	12.64	-60.3	-63.0	6.2	0.00e+00	0	38	104	0	86	20342
2026-01-03 12:14:40.78	28.87	12.75	-60.4	-63.1	6.2	0.00e+00	0	38	104	0	86	20483
2026-01-03 12:14:41.78	28.96	12.86	-60.4	-63.1	6.2	0.00e+00	0	38	104	0	86	20566
2026-01-03 12:14:42.77	29.06	12.98	-60.3	-63.1	6.2	0.00e+00	0	38	104	0	86	20442
2026-01-03 12:14:43.77	29.15	13.09	-60.3	-63.1	6.2	0.00e+00	0	38	104	0	86	20418
2026-01-03 12:14:44.76	29.25	13.20	-60.4	-63.1	6.2	0.00e+00	0	38	104	0	86	20599
2026-01-03 12:14:45.77	29.35	13.32	-60.4	-63.1	6.2	0.00e+00	0	38	104	0	86	20609
2026-01-03 12:14:46.76	29.45	13.44	-60.4	-63.1	6.2	0.00e+00	0	38	104	0	86	20525
2026-01-03 12:14:47.75	29.55	13.55	-60.4	-63.0	6.2	0.00e+00	0	38	104	0	86	20364
2026-01-03 12:14:48.74	29.65	13.67	-60.4	-63.1	6.2	0.00e+00	0	38	104	0	86	20624
2026-01-03 12:14:49.73	29.75	13.78	-60.5	-63.2	6.2	0.00e+00	0	38	104	0	86	20680
2026-01-03 12:14:50.73	29.85	13.90	-60.4	-63.1	6.2	0.00e+00	0	38	104	0	86	20603
2026-01-03 12:14:51.73	29.96	14.02	-60.4	-63.1	6.2	0.00e+00	0	38	104	0	86	20474
2026-01-03 12:14:52.73	30.06	14.14	-60.5	-63.2	6.2	0.00e+00	0	38	104	0	86	20733
2026-01-03 12:14:53.72	30.17	14.26	-60.5	-63.2	6.2	0.00e+00	0	38	104	0	86	20692
2026-01-03 12:14:54.72	30.27	14.38	-60.4	-63.1	6.2	0.00e+00	0	38	104	0	86	20597
2026-01-03 12:14:55.72	30.38	14.51	-60.4	-63.1	6.2	0.00e+00	0	38	104	0	86	20615
2026-01-03 12:14:56.72	30.49	14.63	-60.5	-63.2	6.2	0.00e+00	0	38	104	0	86	20749
2026-01-03 12:14:57.71	30.60	14.75	-60.5	-63.2	6.2	0.00e+00	0	38	104	0	86	20780
2026-01-03 12:14:58.71	30.71	14.88	-60.5	-63.2	6.2	0.00e+00	0	38	104	0	86	20721
2026-01-03 12:14:59.70	30.82	15.00	-60.4	-63.1	6.2	0.00e+00	0	38	104	0	86	20555
2026-01-03 12:15:00.69	30.93	15.12	-60.5	-63.2	6.2	0.00e+00	0	38	104	0	86	20784
2026-01-03 12:15:01.69	31.05	15.25	-60.5	-63.2	6.2	0.00e+00	0	38	104	0	86	20837
2026-01-03 12:15:02.69	31.16	15.38	-60.5	-63.2	6.2	0.00e+00	0	38	104	0	86	20791
2026-01-03 12:15:03.69	31.28	15.51	-60.5	-63.2	6.2	0.00e+00	0	38	104	0	86	20690
2026-01-03 12:15:04.69	31.40	15.63	-60.5	-63.2	6.2	0.00e+00	0	38	104	0	86	20843
2026-01-03 12:15:05.69	31.51	15.76	-60.6	-63.3	6.2	0.00e+00	0	38	104	0	86	20977
2026-01-03 12:15:06.69	31.63	15.89	-60.5	-63.3	6.2	0.00e+00	0	38	104	0	86	20883
2026-01-03 12:15:07.68	31.75	16.02	-60.5	-63.2	6.2	0.00e+00	0	38	104	0	86	20774
2026-01-03 12:15:08.69	31.88	16.16	-60.6	-63.3	6.2	0.00e+00	0	38	104	0	86	20888
2026-01-03 12:15:09.69	32.00	16.29	-60.6	-63.3	6.2	0.00e+00	0	39	104	0	86	20961
2026-01-03 12:15:10.68	32.12	16.42	-60.6	-63.2	6.2	0.00e+00	0	38	104	0	86	20871
2026-01-03 12:15:11.68	32.25	16.56	-60.5	-63.2	6.2	0.00e+00	0	38	104	0	86	20832
2026-01-03 12:15:12.68	32.38	16.69	-60.6	-63.3	6.2	0.00e+00	0	38	104	0	86	20974
2026-01-03 12:15:13.68	32.50	16.83	-60.6	-63.3	6.2	0.00e+00	0	38	104	0	86	21016
2026-01-03 12:15:14.68	32.63	16.97	-60.6	-63.3	6.2	0.00e+00	0	38	104	0	86	21021
2026-01-03 12:15:15.67	32.76	17.10	-60.5	-63.3	6.2	0.00e+00	0	38	104	0	86	20953
2026-01-03 12:15:16.67	32.90	17.24	-60.6	-63.3	6.2	0.00e+00	0	38	104	0	86	21039
2026-01-03 12:15:17.67	33.03	17.38	-60.6	-63.3	6.2	0.00e+00	0	38	104	0	86	21034
2026-01-03 12:15:18.67	33.17	17.52	-60.6	-63.3	6.2	0.00e+00	0	38	104	0	86	20967
2026-01-03 12:15:19.67	33.30	17.66	-60.6	-63.3	6.2	0.00e+00	0	38	104	0	86	20885
2026-01-03 12:15:20.67	33.44	17.80	-60.6	-63.3	6.2	0.00e+00	0	38	104	0	86	21099
2026-01-03 12:15:21.67	33.58	17.95	-60.7	-63.4	6.2	0.00e+00	0	38	104	0	86	21188
2026-01-03 12:15:22.67	33.72	18.09	-60.6	-63.3	6.2	0.00e+00	0	38	104	0	86	21014
2026-01-03 12:15:23.67	33.86	18.24	-60.6	-63.3	6.2	0.00e+00	0	38	104	0	86	20970
2026-01-03 12:15:24.66	34.01	18.38	-60.7	-63.3	6.2	0.00e+00	0	39	104	0	86	21110
2026-01-03 12:15:25.65	34.15	18.53	-60.7	-63.4	6.2	0.00e+00	0	38	104	0	86	21218
2026-01-03 12:15:26.66	34.30	18.68	-60.6	-63.3	6.2	0.00e+00	0	38	104	0	86	21070
2026-01-03 12:15:27.65	34.44	18.82	-60.6	-63.3	6.2	0.00e+00	0	39	104	0	86	21002
2026-01-03 12:15:28.65	34.59	18.97	-60.7	-63.4	6.2	0.00e+00	0	39	104	0	86	21215
2026-01-03 12:15:29.65	34.75	19.12	-60.7	-63.4	6.2	0.00e+00	0	38	104	0	86	21241
2026-01-03 12:15:30.65	34.90	19.27	-60.7	-63.4	6.2	0.00e+00	0	38	104	0	86	21194
2026-01-03 12:15:31.65	35.06	19.43	-60.6	-63.4	6.2	0.00e+00	0	39	104	0	86	21159
2026-01-03 12:15:32.65	35.21	19.58	-60.7	-63.4	6.2	0.00e+00	0	38	104	0	86	21305
2026-01-03 12:15:33.65	35.37	19.74	-60.7	-63.4	6.2	0.00e+00	0	38	104	0	86	21277
2026-01-03 12:15:34.65	35.53	19.89	-60.7	-63.4	6.2	0.00e+00	0	39	104	0	86	21236
2026-01-03 12:15:35.65	35.69	20.05	-60.7	-63.4	6.2	0.00e+00	0	38	104	0	86	21159
2026-01-03 12:15:36.66	35.86	20.21	-60.7	-63.4	6.2	0.00e+00	0	38	104	0	86	21335
2026-01-03 12:15:37.65	36.02	20.36	-60.7	-63.5	6.2	0.00e+00	0	38	104	0	86	21367
2026-01-03 12:15:38.65	36.19	20.52	-60.7	-63.4	6.2	0.00e+00	0	38	104	0	86	21349
2026-01-03 12:15:39.65	36.36	20.68	-60.7	-63.4	6.2	0.00e+00	0	38	104	0	86	21156
2026-01-03 12:15:40.65	36.53	20.85	-60.8	-63.4	6.2	0.00e+00	0	39	104	0	86	21337
2026-01-03 12:15:41.65	36.71	21.01	-60.8	-63.5	6.2	0.00e+00	0	38	104	0	86	21415
2026-01-03 12:15:42.64	36.88	21.17	-60.7	-63.5	6.2	0.00e+00	0	38	104	0	86	21392
2026-01-03 12:15:43.64	37.06	21.34	-60.7	-63.4	6.2	0.00e+00	0	38	104	0	86	21216
2026-01-03 12:15:44.63	37.24	21.50	-60.8	-63.5	6.2	0.00e+00	0	38	104	0	86	21393
2026-01-03 12:15:45.62	37.42	21.67	-60.8	-63.5	6.2	0.00e+00	0	39	104	0	86	21422
2026-01-03 12:15:46.62	37.60	21.84	-60.7	-63.5	6.2	0.00e+00	0	39	104	0	86	21383
2026-01-03 12:15:47.62	37.79	22.00	-60.7	-63.4	6.2	0.00e+00	0	38	104	0	86	21346
2026-01-03 12:15:48.62	37.98	22.18	-60.8	-63.5	6.2	0.00e+00	0	39	104	0	86	21451
2026-01-03 12:15:49.61	38.17	22.35	-60.8	-63.5	6.2	0.00e+00	0	39	104	0	87	20381
2026-01-03 12:15:50.61	38.36	22.52	-60.8	-63.5	6.2	0.00e+00	0	39	104	0	87	20283
2026-01-03 12:15:51.61	38.56	22.69	-60.7	-63.4	6.2	0.00e+00	0	39	104	0	87	20152
2026-01-03 12:15:52.61	38.75	22.87	-60.8	-63.5	6.2	0.00e+00	0	39	104	0	87	20349
2026-01-03 12:15:53.60	38.95	23.04	-60.8	-63.5	6.2	0.00e+00	0	38	104	0	87	20350
2026-01-03 12:15:54.60	39.16	23.22	-60.8	-63.5	6.2	0.00e+00	0	38	104	0	87	20286
2026-01-03 12:15:55.60	39.36	23.40	-60.8	-63.5	6.2	0.00e+00	0	39	104	0	87	20309
2026-01-03 12:15:56.60	39.57	23.58	-60.8	-63.5	6.2	0.00e+00	0	39	104	0	87	20376
2026-01-03 12:15:57.60	39.78	23.76	-60.8	-63.6	6.2	0.00e+00	0	39	104	0	87	20433
2026-01-03 12:15:58.60	39.99	23.94	-60.8	-63.5	6.2	0.00e+00	0	39	104	0	87	20299
2026-01-03 12:15:59.60	40.21	24.12	-60.8	-63.5	6.2	0.00e+00	0	39	104	0	87	20275
2026-01-03 12:16:00.59	40.43	24.31	-60.9	-63.6	6.2	0.00e+00	0	39	104	0	87	20403
2026-01-03 12:16:01.59	40.65	24.49	-60.9	-63.6	6.2	0.00e+00	0	39	104	0	87	20487
2026-01-03 12:16:02.59	40.87	24.68	-60.8	-63.5	6.2	0.00e+00	0	39	104	0	87	20372
2026-01-03 12:16:03.58	41.10	24.87	-60.8	-63.5	6.2	0.00e+00	0	39	104	0	87	20305
2026-01-03 12:16:04.57	41.33	25.05	-60.9	-63.6	6.2	0.00e+00	0	38	104	0	87	20428
2026-01-03 12:16:05.57	41.56	25.24	-60.9	-63.6	6.2	0.00e+00	0	39	104	0	87	20465
2026-01-03 12:16:06.57	41.80	25.44	-60.9	-63.6	6.2	0.00e+00	0	39	104	0	87	20456
2026-01-03 12:16:07.56	42.03	25.63	-60.8	-63.5	6.2	0.00e+00	0	39	104	0	87	20248
2026-01-03 12:16:08.56	42.28	25.82	-60.9	-63.6	6.2	0.00e+00	0	39	104	0	87	20487
2026-01-03 12:16:09.57	42.53	26.02	-60.9	-63.6	6.2	0.00e+00	0	39	104	0	87	20601
2026-01-03 12:16:10.57	42.78	26.21	-60.9	-63.6	6.2	0.00e+00	0	39	104	0	87	20504
2026-01-03 12:16:11.56	43.03	26.41	-60.8	-63.5	6.2	0.00e+00	0	39	104	0	87	20364
2026-01-03 12:16:12.56	43.28	26.61	-60.9	-63.6	6.2	0.00e+00	0	38	104	0	87	20540
2026-01-03 12:16:13.56	43.54	26.81	-60.9	-63.6	6.2	0.00e+00	0	39	104	0	87	20593
2026-01-03 12:16:14.55	43.80	27.01	-60.9	-63.6	6.2	0.00e+00	0	39	104	0	87	20561
2026-01-03 12:16:15.54	44.07	27.21	-60.9	-63.5	6.2	0.00e+00	0	39	104	0	87	20381
2026-01-03 12:16:16.54	44.34	27.41	-60.9	-63.6	6.2	0.00e+00	0	39	104	0	87	20618
2026-01-03 12:16:17.55	44.61	27.62	-61.0	-63.7	6.2	0.00e+00	0	39	104	0	87	20690
2026-01-03 12:16:18.55	44.89	27.83	-60.9	-63.6	6.2	0.00e+00	0	39	104	0	87	20572
2026-01-03 12:16:19.56	45.18	28.04	-60.9	-63.6	6.2	0.00e+00	0	39	104	0	87	20499
2026-01-03 12:16:20.56	45.46	28.24	-61.0	-63.7	6.2	0.00e+00	0	39	104	0	87	20694
2026-01-03 12:16:21.56	45.75	28.45	-61.0	-63.7	6.2	0.00e+00	0	39	104	0	87	20700
2026-01-03 12:16:22.56	46.05	28.66	-60.9	-63.7	6.2	0.00e+00	0	39	104	0	87	20691
2026-01-03 12:16:23.56	46.34	28.88	-60.9	-63.6	6.2	0.00e+00	0	39	104	0	87	20533
2026-01-03 12:16:24.55	46.64	29.09	-61.0	-63.7	6.2	0.00e+00	0	39	104	0	87	20710
2026-01-03 12:16:25.55	46.95	29.30	-61.0	-63.7	6.2	0.00e+00	0	39	104	0	87	20750
2026-01-03 12:16:26.54	47.26	29.51	-61.0	-63.7	6.2	0.00e+00	0	39	104	0	87	20721
2026-01-03 12:16:27.54	47.57	29.73	-60.9	-63.6	6.2	0.00e+00	0	38	104	0	87	20610
2026-01-03 12:16:28.54	47.89	29.95	-61.0	-63.7	6.2	0.00e+00	0	39	104	0	87	20794
2026-01-03 12:16:29.53	48.22	30.16	-61.0	-63.7	6.2	0.00e+00	0	39	104	0	87	20788
2026-01-03 12:16:30.53	48.54	30.38	-61.0	-63.7	6.2	0.00e+00	0	39	104	0	87	20773
2026-01-03 12:16:31.53	48.88	30.60	-61.0	-63.7	6.2	0.00e+00	0	39	104	0	87	20653
2026-01-03 12:16:32.53	49.22	30.83	-61.0	-63.7	6.2	0.00e+00	0	39	104	0	87	20791
2026-01-03 12:16:33.53	49.56	31.05	-61.0	-63.7	6.2	0.00e+00	0	39	104	0	87	20819
2026-01-03 12:16:34.53	49.91	31.27	-61.0	-63.7	6.2	0.00e+00	0	39	104	0	87	20788
2026-01-03 12:16:35.53	50.26	31.50	-61.0	-63.7	6.2	0.00e+00	0	38	104	0	87	20685
2026-01-03 12:16:36.53	50.62	31.72	-61.0	-63.7	6.2	0.00e+00	0	39	104	0	87	20852
2026-01-03 12:16:37.53	50.99	31.95	-61.0	-63.8	6.2	0.00e+00	0	39	104	0	87	20906
2026-01-03 12:16:38.52	51.36	32.17	-61.0	-63.7	6.2	0.00e+00	0	39	104	0	87	20851
2026-01-03 12:16:39.53	51.74	32.40	-61.0	-63.7	6.2	0.00e+00	0	38	104	0	87	20711
2026-01-03 12:16:40.52	52.11	32.63	-61.1	-63.7	6.2	0.00e+00	0	39	104	0	87	20866
2026-01-03 12:16:41.52	52.50	32.86	-61.1	-63.8	6.2	0.00e+00	0	39	104	0	87	20941
2026-01-03 12:16:42.52	52.89	33.09	-61.0	-63.8	6.2	0.00e+00	0	39	104	0	87	20923
2026-01-03 12:16:43.53	53.30	33.32	-61.0	-63.7	6.2	0.00e+00	0	39	104	0	87	20783
2026-01-03 12:16:44.52	53.70	33.55	-61.1	-63.8	6.2	0.00e+00	0	39	104	0	87	20897
2026-01-03 12:16:45.53	54.11	33.78	-61.1	-63.8	6.2	0.00e+00	0	39	104	0	87	21001
2026-01-03 12:16:46.52	54.52	34.01	-61.1	-63.8	6.2	0.00e+00	0	39	104	0	87	20889
2026-01-03 12:16:47.52	54.95	34.24	-61.0	-63.7	6.2	0.00e+00	0	39	104	0	87	20793
2026-01-03 12:16:48.52	55.38	34.47	-61.1	-63.8	6.2	0.00e+00	0	39	104	0	87	20946
2026-01-03 12:16:49.52	55.81	34.71	-61.1	-63.8	6.2	0.00e+00	0	39	104	0	87	20990
2026-01-03 12:16:50.51	56.25	34.94	-61.1	-63.8	6.2	0.00e+00	0	38	104	0	87	20941
2026-01-03 12:16:51.51	56.70	35.17	-61.0	-63.7	6.2	0.00e+00	0	39	104	0	87	20842
2026-01-03 12:16:52.51	57.16	35.41	-61.1	-63.8	6.2	0.00e+00	0	39	104	0	87	21028
2026-01-03 12:16:53.51	57.62	35.64	-61.1	-63.8	6.2	0.00e+00	0	39	104	0	87	21050
2026-01-03 12:16:54.50	58.09	35.87	-61.1	-63.8	6.2	0.00e+00	0	39	104	0	87	20994
2026-01-03 12:16:55.49	58.56	36.10	-61.1	-63.8	6.2	0.00e+00	0	39	104	0	87	20905
2026-01-03 12:16:56.49	59.04	36.33	-61.1	-63.8	6.2	0.00e+00	0	39	104	0	87	21014
2026-01-03 12:16:57.48	59.53	36.56	-61.1	-63.9	6.2	0.00e+00	0	39	104	0	87	21193
2026-01-03 12:16:58.48	60.03	36.80	-61.1	-63.8	6.2	0.00e+00	0	39	104	0	87	21004
2026-01-03 12:16:59.48	60.53	37.03	-61.1	-63.8	6.2	0.00e+00	0	39	104	0	87	20950
2026-01-03 12:17:00.49	61.05	37.26	-61.1	-63.8	6.2	0.00e+00	0	39	104	0	87	21033
2026-01-03 12:17:01.48	61.57	37.49	-61.1	-63.9	6.2	0.00e+00	0	39	104	0	87	21145
2026-01-03 12:17:02.49	62.10	37.72	-61.1	-63.8	6.2	0.00e+00	0	39	104	0	87	21053
2026-01-03 12:17:03.49	62.64	37.95	-61.1	-63.8	6.2	0.00e+00	0	39	104	0	87	20997
2026-01-03 12:17:04.50	63.19	38.19	-61.1	-63.9	6.2	0.00e+00	0	39	104	0	87	21127
2026-01-03 12:17:05.49	63.74	38.41	-61.2	-63.9	6.2	0.00e+00	0	39	104	0	87	21205
2026-01-03 12:17:06.48	64.30	38.63	-61.1	-63.8	6.2	0.00e+00	0	39	104	0	87	21026
2026-01-03 12:17:07.48	64.87	38.86	-61.1	-63.8	6.2	0.00e+00	0	39	104	0	87	20975
2026-01-03 12:17:08.48	65.44	39.08	-61.2	-63.9	6.2	0.00e+00	0	39	104	0	87	21150
2026-01-03 12:17:09.47	66.02	39.30	-61.2	-63.9	6.2	0.00e+00	0	39	104	0	87	21159
2026-01-03 12:17:10.47	66.62	39.52	-61.1	-63.9	6.2	0.00e+00	0	39	104	0	87	21118
2026-01-03 12:17:11.47	67.22	39.74	-61.1	-63.8	6.2	0.00e+00	0	39	104	0	87	21017
2026-01-03 12:17:12.47	67.83	39.96	-61.2	-63.9	6.2	0.00e+00	0	39	104	0	87	21195
2026-01-03 12:17:13.48	68.46	40.18	-61.2	-63.9	6.2	0.00e+00	0	39	104	0	87	21194
2026-01-03 12:17:14.48	69.09	40.39	-61.2	-63.9	6.2	0.00e+00	0	39	104	0	87	21156
2026-01-03 12:17:15.48	69.72	40.60	-61.1	-63.8	6.2	0.00e+00	0	39	104	0	87	21031
2026-01-03 12:17:16.49	70.38	40.81	-61.2	-63.9	6.2	0.00e+00	0	39	104	0	87	21254
2026-01-03 12:17:17.48	71.02	41.01	-61.2	-63.9	6.2	0.00e+00	0	39	104	0	87	21297
2026-01-03 12:17:18.48	71.69	41.22	-61.2	-63.9	6.2	0.00e+00	0	39	104	0	87	21221
2026-01-03 12:17:19.48	72.36	41.42	-61.1	-63.9	6.2	0.00e+00	0	39	104	0	87	21125
2026-01-03 12:17:20.48	73.04	41.61	-61.2	-63.9	6.2	0.00e+00	0	39	104	0	87	21148
2026-01-03 12:17:21.48	73.73	41.81	-61.2	-63.9	6.2	0.00e+00	0	39	104	0	87	21243
2026-01-03 12:17:22.49	74.43	42.00	-61.2	-63.9	6.2	0.00e+00	0	39	104	0	87	21206
2026-01-03 12:17:23.49	75.13	42.19	-61.1	-63.8	6.2	0.00e+00	0	39	104	0	87	21072
2026-01-03 12:17:24.49	75.85	42.37	-61.2	-63.9	6.2	0.00e+00	0	39	104	0	87	21269
2026-01-03 12:17:25.49	76.57	42.55	-61.2	-63.9	6.2	0.00e+00	0	39	104	0	87	21349
2026-01-03 12:17:26.48	77.29	42.72	-61.2	-63.9	6.2	0.00e+00	0	39	104	0	87	21246
2026-01-03 12:17:27.48	78.03	42.89	-61.2	-63.9	6.2	0.00e+00	0	39	104	0	87	21165
2026-01-03 12:17:28.48	78.78	43.06	-61.2	-63.9	6.2	0.00e+00	0	39	104	0	87	21317
2026-01-03 12:17:29.49	79.54	43.23	-61.2	-63.9	6.2	0.00e+00	0	39	104	0	87	21308
2026-01-03 12:17:30.48	80.30	43.38	-61.2	-63.9	6.2	0.00e+00	0	39	104	0	87	21218
2026-01-03 12:17:31.48	81.07	43.54	-61.2	-63.9	6.2	0.00e+00	0	39	104	0	87	21146
2026-01-03 12:17:32.48	81.85	43.68	-61.2	-63.9	6.2	0.00e+00	0	39	104	0	87	21288
2026-01-03 12:17:33.48	82.63	43.83	-61.2	-64.0	6.2	0.00e+00	0	39	104	0	87	21360
2026-01-03 12:17:34.48	83.42	43.97	-61.2	-63.9	6.2	0.00e+00	0	39	104	0	87	21271
2026-01-03 12:17:35.47	84.22	44.10	-61.2	-63.9	6.2	0.00e+00	0	39	104	0	87	21256
2026-01-03 12:17:36.47	85.02	44.23	-61.2	-63.9	6.2	0.00e+00	0	39	104	0	87	21239
2026-01-03 12:17:37.47	85.83	44.35	-61.2	-63.9	6.2	0.00e+00	0	39	104	0	87	21348
2026-01-03 12:17:38.47	86.65	44.46	-61.2	-63.9	6.2	0.00e+00	0	39	104	0	87	21233
2026-01-03 12:17:39.46	87.47	44.57	-61.2	-63.9	6.2	0.00e+00	0	39	104	0	87	21139
2026-01-03 12:17:40.46	88.30	44.68	-61.2	-63.9	6.2	0.00e+00	0	39	104	0	87	21323
2026-01-03 12:17:41.46	89.14	44.78	-61.2	-64.0	6.2	0.00e+00	0	39	104	0	87	21367
2026-01-03 12:17:42.46	89.98	44.87	-61.2	-63.9	6.2	0.00e+00	0	39	104	0	87	21330
2026-01-03 12:17:43.45	90.82	44.95	-61.2	-63.9	6.2	0.00e+00	0	39	104	0	87	21310
2026-01-03 12:17:44.45	91.67	45.03	-61.2	-63.9	6.2	0.00e+00	0	39	104	0	87	21292
2026-01-03 12:17:45.46	92.53	45.10	-61.2	-64.0	6.2	0.00e+00	0	39	104	0	87	21366
2026-01-03 12:17:46.45	93.38	45.17	-61.2	-63.9	6.2	0.00e+00	0	39	104	0	87	21319
2026-01-03 12:17:47.45	94.24	45.23	-61.2	-63.9	6.2	0.00e+00	0	39	104	0	87	21279
2026-01-03 12:17:48.45	95.11	45.28	-61.2	-64.0	6.2	0.00e+00	0	39	104	0	87	21411
2026-01-03 12:17:49.45	95.98	45.33	-61.3	-64.0	6.2	0.00e+00	0	39	104	0	87	21381
2026-01-03 12:17:50.45	96.85	45.37	-61.2	-64.0	6.2	0.00e+00	0	39	104	0	87	21393
2026-01-03 12:17:51.45	97.72	45.40	-61.2	-63.9	6.2	0.00e+00	0	39	104	0	87	21326
2026-01-03 12:17:52.45	98.60	45.42	-61.2	-64.0	6.2	0.00e+00	0	39	104	0	87	21378
2026-01-03 12:17:53.44	99.46	45.44	-61.2	-64.0	6.2	0.00e+00	0	39	104	0	87	21416
2026-01-03 12:17:54.43	100.33	45.45	-61.2	-63.9	6.2	0.00e+00	0	39	104	0	87	21284
2026-01-03 12:17:55.44	101.22	45.45	-61.2	-63.9	6.2	0.00e+00	0	39	104	0	87	21291
2026-01-03 12:17:56.44	102.09	45.45	-61.2	-64.0	6.2	0.00e+00	0	39	104	0	87	21387
2026-01-03 12:17:57.43	102.96	45.44	-61.2	-63.9	6.2	0.00e+00	0	39	104	0	87	21312
2026-01-03 12:17:58.43	103.84	45.42	-61.2	-63.9	6.2	0.00e+00	0	39	104	0	87	21217
2026-01-03 12:17:59.42	104.70	45.40	-61.2	-63.9	6.2	0.00e+00	0	39	104	0	87	21221
2026-01-03 12:18:00.42	105.58	45.37	-61.2	-63.9	6.2	0.00e+00	0	39	104	0	87	21297
2026-01-03 12:18:01.41	106.44	45.33	-61.2	-63.9	6.2	0.00e+00	0	39	104	0	87	21318
2026-01-03 12:18:02.40	107.30	45.28	-61.2	-63.9	6.2	0.00e+00	0	39	104	0	87	21279
2026-01-03 12:18:03.39	108.16	45.23	-61.2	-63.9	6.2	0.00e+00	0	39	104	0	87	21293
2026-01-03 12:18:04.39	109.02	45.17	-61.2	-64.0	6.2	0.00e+00	0	39	104	0	87	21369
2026-01-03 12:18:05.38	109.87	45.11	-61.2	-63.9	6.2	0.00e+00	0	39	104	0	87	21314
2026-01-03 12:18:06.39	110.74	45.04	-61.2	-63.9	6.2	0.00e+00	0	39	104	0	87	21233
2026-01-03 12:18:07.38	111.58	44.96	-61.2	-63.9	6.2	0.00e+00	0	39	104	0	87	21257
2026-01-03 12:18:08.39	112.43	44.87	-61.2	-63.9	6.2	0.00e+00	0	39	104	0	87	21293
2026-01-03 12:18:09.39	113.28	44.78	-61.2	-63.9	6.2	0.00e+00	0	38	104	0	87	21307
2026-01-03 12:18:10.39	114.11	44.68	-61.2	-63.9	6.2	0.00e+00	0	39	104	0	87	21185
2026-01-03 12:18:11.39	114.95	44.58	-61.2	-63.9	6.2	0.00e+00	0	39	104	0	87	21245
2026-01-03 12:18:12.38	115.76	44.47	-61.2	-63.9	6.2	0.00e+00	0	39	104	0	87	21217
2026-01-03 12:18:13.38	116.58	44.35	-61.2	-63.9	6.2	0.00e+00	0	39	104	0	87	21174
2026-01-03 12:18:14.37	117.39	44.23	-61.2	-63.9	6.2	0.00e+00	0	39	104	0	87	21145
2026-01-03 12:18:15.37	118.20	44.10	-61.1	-63.8	6.2	0.00e+00	0	39	104	0	87	21107
2026-01-03 12:18:16.37	119.00	43.97	-61.2	-63.9	6.2	0.00e+00	0	39	104	0	87	21170
2026-01-03 12:18:17.36	119.78	43.83	-61.2	-63.9	6.2	0.00e+00	0	39	104	0	87	21263
2026-01-03 12:18:18.37	120.58	43.69	-61.1	-63.9	6.2	0.00e+00	0	39	104	0	87	21200
2026-01-03 12:18:19.37	121.36	43.54	-61.1	-63.8	6.2	0.00e+00	0	39	104	0	87	21086
2026-01-03 12:18:20.36	122.12	43.39	-61.2	-63.9	6.2	0.00e+00	0	39	104	0	87	21204
2026-01-03 12:18:21.36	122.89	43.23	-61.2	-63.9	6.2	0.00e+00	0	39	104	0	87	21236
2026-01-03 12:18:22.35	123.64	43.07	-61.2	-63.9	6.2	0.00e+00	0	39	104	0	87	21168
2026-01-03 12:18:23.34	124.38	42.90	-61.1	-63.8	6.2	0.00e+00	0	39	104	0	87	21087
2026-01-03 12:18:24.34	125.12	42.73	-61.2	-63.9	6.2	0.00e+00	0	39	104	0	87	21259
2026-01-03 12:18:25.34	125.85	42.55	-61.2	-63.9	6.2	0.00e+00	0	39	104	0	87	21243
2026-01-03 12:18:26.34	126.57	42.37	-61.1	-63.9	6.2	0.00e+00	0	39	104	0	87	21170
2026-01-03 12:18:27.34	127.29	42.19	-61.1	-63.8	6.2	0.00e+00	0	39	104	0	87	20979
2026-01-03 12:18:28.34	128.00	42.00	-61.1	-63.8	6.2	0.00e+00	0	39	104	0	87	21075
2026-01-03 12:18:29.34	128.70	41.81	-61.1	-63.9	6.2	0.00e+00	0	39	104	0	87	21166
2026-01-03 12:18:30.33	129.38	41.62	-61.1	-63.8	6.2	0.00e+00	0	39	104	0	87	21063
2026-01-03 12:18:31.33	130.06	41.42	-61.1	-63.8	6.2	0.00e+00	0	39	104	0	87	21031
2026-01-03 12:18:32.33	130.73	41.22	-61.1	-63.8	6.2	0.00e+00	0	39	104	0	87	21070
2026-01-03 12:18:33.33	131.40	41.02	-61.1	-63.9	6.2	0.00e+00	0	39	104	0	87	21182
2026-01-03 12:18:34.34	132.06	40.81	-61.1	-63.8	6.2	0.00e+00	0	39	104	0	87	21071
2026-01-03 12:18:35.33	132.70	40.61	-61.1	-63.8	6.2	0.00e+00	0	39	104	0	87	21016
2026-01-03 12:18:36.33	133.34	40.39	-61.1	-63.8	6.2	0.00e+00	0	39	104	0	87	21002
2026-01-03 12:18:37.33	133.97	40.18	-61.1	-63.8	6.2	0.00e+00	0	39	104	0	87	21095
2026-01-03 12:18:38.34	134.60	39.96	-61.1	-63.8	6.2	0.00e+00	0	39	104	0	87	20983
2026-01-03 12:18:39.34	135.21	39.75	-61.1	-63.8	6.2	0.00e+00	0	39	104	0	87	20892
2026-01-03 12:18:40.34	135.82	39.53	-61.1	-63.8	6.2	0.00e+00	0	39	104	0	87	20974
2026-01-03 12:18:41.34	136.41	39.30	-61.1	-63.8	6.2	0.00e+00	0	39	104	0	87	21037
2026-01-03 12:18:42.34	137.00	39.08	-61.1	-63.7	6.2	0.00e+00	0	39	104	0	87	20871
2026-01-03 12:18:43.35	137.59	38.85	-61.0	-63.8	6.2	0.00e+00	0	39	104	0	87	20882
2026-01-03 12:18:44.35	138.16	38.63	-61.1	-63.8	6.2	0.00e+00	0	39	104	0	87	21080
2026-01-03 12:18:45.34	138.72	38.40	-61.1	-63.8	6.2	0.00e+00	0	39	104	0	87	21030
2026-01-03 12:18:46.35	139.28	38.17	-61.1	-63.8	6.2	0.00e+00	0	39	104	0	87	21005
2026-01-03 12:18:47.35	139.82	37.94	-61.1	-63.8	6.2	0.00e+00	0	39	104	0	87	20986
2026-01-03 12:18:48.35	140.36	37.71	-61.1	-63.8	6.2	0.00e+00	0	39	104	0	87	20977
2026-01-03 12:18:49.35	140.89	37.48	-61.1	-63.8	6.2	0.00e+00	0	39	104	0	87	20952
2026-01-03 12:18:50.35	141.42	37.25	-61.1	-63.7	6.2	0.00e+00	0	39	104	0	87	20871
2026-01-03 12:18:51.35	141.93	37.02	-61.0	-63.7	6.2	0.00e+00	0	39	104	0	87	20832
2026-01-03 12:18:52.35	142.44	36.79	-61.0	-63.7	6.2	0.00e+00	0	39	104	0	87	20858
2026-01-03 12:18:53.35	142.94	36.55	-61.0	-63.8	6.2	0.00e+00	0	39	104	0	87	20880
2026-01-03 12:18:54.36	143.44	36.32	-61.0	-63.7	6.2	0.00e+00	0	39	104	0	87	20857
2026-01-03 12:18:55.36	143.92	36.08	-61.0	-63.7	6.2	0.00e+00	0	39	104	0	87	20760
2026-01-03 12:18:56.36	144.40	35.85	-61.0	-63.7	6.2	0.00e+00	0	39	104	0	87	20829
2026-01-03 12:18:57.35	144.87	35.61	-61.0	-63.8	6.2	0.00e+00	0	39	104	0	87	20925
2026-01-03 12:18:58.35	145.33	35.38	-61.0	-63.7	6.2	0.00e+00	0	39	104	0	87	20761
2026-01-03 12:18:59.35	145.79	35.15	-61.0	-63.7	6.2	0.00e+00	0	39	104	0	87	20702
2026-01-03 12:19:00.33	146.23	34.92	-61.0	-63.7	6.2	0.00e+00	0	39	104	0	87	20806
2026-01-03 12:19:01.33	146.68	34.68	-61.0	-63.7	6.2	0.00e+00	0	39	104	0	87	20703
2026-01-03 12:19:02.33	147.11	34.45	-61.0	-63.7	6.2	0.00e+00	0	39	104	0	87	20753
2026-01-03 12:19:03.33	147.54	34.21	-61.0	-63.7	6.2	0.00e+00	0	39	104	0	87	20708
2026-01-03 12:19:04.33	147.97	33.98	-61.0	-63.7	6.2	0.00e+00	0	39	104	0	87	20787
2026-01-03 12:19:05.33	148.39	33.75	-61.0	-63.7	6.2	0.00e+00	0	39	104	0	87	20747
2026-01-03 12:19:06.33	148.80	33.52	-61.0	-63.7	6.2	0.00e+00	0	39	104	0	87	20751
2026-01-03 12:19:07.34	149.21	33.28	-60.9	-63.7	6.2	0.00e+00	0	39	104	0	87	20635
2026-01-03 12:19:08.34	149.61	33.05	-61.0	-63.7	6.2	0.00e+00	0	39	104	0	87	20657
2026-01-03 12:19:09.34	150.00	32.82	-61.0	-63.7	6.2	0.00e+00	0	39	104	0	87	20648
2026-01-03 12:19:10.34	150.39	32.59	-61.0	-63.7	6.2	0.00e+00	0	39	104	0	87	20687
2026-01-03 12:19:11.35	150.78	32.36	-60.9	-63.6	6.2	0.00e+00	0	39	104	0	87	20615
2026-01-03 12:19:12.34	151.15	32.13	-60.9	-63.6	6.2	0.00e+00	0	39	104	0	87	20576
2026-01-03 12:19:13.34	151.52	31.90	-60.9	-63.7	6.2	0.00e+00	0	39	104	0	87	20693
2026-01-03 12:19:14.35	151.89	31.67	-60.9	-63.6	6.2	0.00e+00	0	39	104	0	87	20587
2026-01-03 12:19:15.35	152.25	31.45	-60.9	-63.6	6.2	0.00e+00	0	39	104	0	87	20558
2026-01-03 12:19:16.34	152.60	31.23	-60.9	-63.6	6.2	0.00e+00	0	39	104	0	87	20512
2026-01-03 12:19:17.34	152.95	31.00	-60.9	-63.6	6.2	0.00e+00	0	39	104	0	87	20513
2026-01-03 12:19:18.33	153.29	30.78	-60.9	-63.6	6.2	0.00e+00	0	39	104	0	87	20603
2026-01-03 12:19:19.34	153.63	30.56	-60.9	-63.6	6.2	0.00e+00	0	39	104	0	87	20550
2026-01-03 12:19:20.34	153.97	30.33	-60.9	-63.6	6.2	0.00e+00	0	39	104	0	87	20601
2026-01-03 12:19:21.35	154.30	30.11	-60.9	-63.6	6.2	0.00e+00	0	39	104	0	87	20527
2026-01-03 12:19:22.35	154.63	29.89	-60.9	-63.6	6.2	0.00e+00	0	39	104	0	87	20498
2026-01-03 12:19:23.35	154.95	29.67	-60.9	-63.6	6.2	0.00e+00	0	39	104	0	87	20517
2026-01-03 12:19:24.35	155.26	29.46	-60.9	-63.6	6.2	0.00e+00	0	39	104	0	87	20482
2026-01-03 12:19:25.35	155.58	29.24	-60.9	-63.6	6.2	0.00e+00	0	39	104	0	87	20448
2026-01-03 12:19:26.35	155.88	29.02	-60.9	-63.6	6.2	0.00e+00	0	39	104	0	87	20497
2026-01-03 12:19:27.35	156.19	28.81	-60.8	-63.6	6.2	0.00e+00	0	39	104	0	87	20410
2026-01-03 12:19:28.35	156.48	28.60	-60.9	-63.6	6.2	0.00e+00	0	39	104	0	87	20406
2026-01-03 12:19:29.35	156.78	28.39	-60.8	-63.6	6.2	0.00e+00	0	39	104	0	87	20475
2026-01-03 12:19:30.35	157.07	28.18	-60.9	-63.6	6.2	0.00e+00	0	39	104	0	87	20445
2026-01-03 12:19:31.36	157.36	27.96	-60.8	-63.5	6.2	0.00e+00	0	39	104	0	87	20317
2026-01-03 12:19:32.36	157.64	27.76	-60.8	-63.5	6.2	0.00e+00	0	39	104	0	87	20364
2026-01-03 12:19:33.36	157.92	27.55	-60.8	-63.6	6.2	0.00e+00	0	39	104	0	87	20404
2026-01-03 12:19:34.36	158.19	27.34	-60.8	-63.6	6.2	0.00e+00	0	39	104	0	87	20417
2026-01-03 12:19:35.35	158.46	27.14	-60.8	-63.5	6.2	0.00e+00	0	39	104	0	87	20295
2026-01-03 12:19:36.34	158.73	26.94	-60.8	-63.5	6.2	0.00e+00	0	39	104	0	87	20364
2026-01-03 12:19:37.34	158.99	26.74	-60.8	-63.5	6.2	0.00e+00	0	39	104	0	87	20312
2026-01-03 12:19:38.35	159.25	26.53	-60.8	-63.5	6.2	0.00e+00	0	39	104	0	87	20327
2026-01-03 12:19:39.35	159.51	26.33	-60.8	-63.5	6.2	0.00e+00	0	39	104	0	87	20278
2026-01-03 12:19:40.35	159.76	26.14	-60.8	-63.5	6.2	0.00e+00	0	39	104	0	87	20298
2026-01-03 12:19:41.34	160.01	25.94	-60.8	-63.5	6.2	0.00e+00	0	39	104	0	87	20346
2026-01-03 12:19:42.34	160.25	25.74	-60.8	-63.5	6.2	0.00e+00	0	39	104	0	87	20296
2026-01-03 12:19:43.34	160.50	25.55	-60.8	-63.5	6.2	0.00e+00	0	39	104	0	87	20234
2026-01-03 12:19:44.34	160.74	25.36	-60.8	-63.5	6.2	0.00e+00	0	39	104	0	87	20262
2026-01-03 12:19:45.34	160.97	25.16	-60.8	-63.5	6.2	0.00e+00	0	39	104	0	87	20254
2026-01-03 12:19:46.34	161.21	24.97	-60.8	-63.5	6.2	0.00e+00	0	39	104	0	87	20246
2026-01-03 12:19:47.34	161.44	24.78	-60.7	-63.4	6.2	0.00e+00	0	39	104	0	87	20120
2026-01-03 12:19:48.34	161.67	24.59	-60.8	-63.5	6.2	0.00e+00	0	39	104	0	87	20185
2026-01-03 12:19:49.35	161.89	24.40	-60.8	-63.5	6.2	0.00e+00	0	39	104	0	87	20165
2026-01-03 12:19:50.34	162.11	24.22	-60.8	-63.5	6.2	0.00e+00	0	39	104	0	87	20222
2026-01-03 12:19:51.34	162.33	24.03	-60.7	-63.5	6.2	0.00e+00	0	39	104	0	87	20172
2026-01-03 12:19:52.34	162.55	23.85	-60.7	-63.4	6.2	0.00e+00	0	39	104	0	87	20108
2026-01-03 12:19:53.34	162.76	23.67	-60.7	-63.4	6.2	0.00e+00	0	39	104	0	87	20158
2026-01-03 12:19:54.34	162.97	23.48	-60.7	-63.4	6.2	0.00e+00	0	39	104	0	87	20131
2026-01-03 12:19:55.34	163.18	23.30	-60.7	-63.4	6.2	0.00e+00	0	39	104	0	87	20120
2026-01-03 12:19:56.33	163.38	23.13	-60.7	-63.4	6.2	0.00e+00	0	39	104	0	87	20051
2026-01-03 12:19:57.33	163.59	22.95	-60.7	-63.4	6.2	0.00e+00	0	39	104	0	87	20056
2026-01-03 12:19:58.33	163.79	22.77	-60.7	-63.4	6.2	0.00e+00	0	39	104	0	87	20070
2026-01-03 12:19:59.33	163.99	22.60	-60.7	-63.4	6.2	0.00e+00	0	39	104	0	87	20061
2026-01-03 12:20:00.33	164.18	22.42	-60.7	-63.4	6.2	0.00e+00	0	39	104	0	87	20077
2026-01-03 12:20:01.33	164.38	22.25	-60.7	-63.4	6.2	0.00e+00	0	39	104	0	87	20017
2026-01-03 12:20:02.33	164.57	22.08	-60.7	-63.4	6.2	0.00e+00	0	39	104	0	87	20050
2026-01-03 12:20:03.33	164.76	21.90	-60.7	-63.4	6.2	0.00e+00	0	39	104	0	87	20009
2026-01-03 12:20:04.32	164.94	21.74	-60.7	-63.4	6.2	0.00e+00	0	39	104	0	87	20004
2026-01-03 12:20:05.32	165.12	21.57	-60.7	-63.4	6.2	0.00e+00	0	39	104	0	87	20013
2026-01-03 12:20:06.31	165.31	21.40	-60.7	-63.4	6.2	0.00e+00	0	39	104	0	87	19965
2026-01-03 12:20:07.31	165.49	21.23	-60.6	-63.4	6.2	0.00e+00	0	39	104	0	87	19943
2026-01-03 12:20:08.31	165.66	21.07	-60.7	-63.3	6.2	0.00e+00	0	39	104	0	87	19904
2026-01-03 12:20:09.31	165.84	20.90	-60.7	-63.3	6.2	0.00e+00	0	39	104	0	87	19889
2026-01-03 12:20:10.31	166.01	20.74	-60.6	-63.3	6.2	0.00e+00	0	39	104	0	87	19921
2026-01-03 12:20:11.31	166.18	20.58	-60.6	-63.3	6.2	0.00e+00	0	39	104	0	87	19903
2026-01-03 12:20:12.31	166.35	20.42	-60.6	-63.4	6.2	0.00e+00	0	39	104	0	87	19940
2026-01-03 12:20:13.31	166.52	20.26	-60.6	-63.4	6.2	0.00e+00	0	39	104	0	87	19938
2026-01-03 12:20:14.31	166.69	20.10	-60.6	-63.3	6.2	0.00e+00	0	39	104	0	87	19836
2026-01-03 12:20:15.30	166.85	19.94	-60.6	-63.3	6.2	0.00e+00	0	39	104	0	87	19844
2026-01-03 12:20:16.31	167.01	19.78	-60.6	-63.3	6.2	0.00e+00	0	39	104	0	87	19857
2026-01-03 12:20:17.31	167.17	19.63	-60.6	-63.3	6.2	0.00e+00	0	39	104	0	87	19828
2026-01-03 12:20:18.32	167.33	19.47	-60.6	-63.3	6.2	0.00e+00	0	39	104	0	87	19823
2026-01-03 12:20:19.32	167.49	19.31	-60.6	-63.3	6.2	0.00e+00	0	39	104	0	87	19815
2026-01-03 12:20:20.31	167.64	19.16	-60.6	-63.3	6.2	0.00e+00	0	39	104	0	87	19858
2026-01-03 12:20:21.31	167.80	19.01	-60.6	-63.3	6.2	0.00e+00	0	39	104	0	87	19809
2026-01-03 12:20:22.31	167.95	18.86	-60.6	-63.3	6.2	0.00e+00	0	39	104	0	87	19754
2026-01-03 12:20:23.31	168.10	18.71	-60.6	-63.3	6.2	0.00e+00	0	39	104	0	87	19737
2026-01-03 12:20:24.31	168.25	18.56	-60.6	-63.3	6.2	0.00e+00	0	39	104	0	87	19746
2026-01-03 12:20:25.31	168.40	18.41	-60.6	-63.3	6.2	0.00e+00	0	39	104	0	87	19790
2026-01-03 12:20:26.31	168.54	18.26	-60.6	-63.2	6.2	0.00e+00	0	39	104	0	87	19702
2026-01-03 12:20:27.32	168.69	18.12	-60.5	-63.3	6.2	0.00e+00	0	39	104	0	87	19766
2026-01-03 12:20:28.31	168.83	17.97	-60.5	-63.3	6.2	0.00e+00	0	39	104	0	87	19745
2026-01-03 12:20:29.31	168.97	17.83	-60.5	-63.3	6.2	0.00e+00	0	39	104	0	87	19725
2026-01-03 12:20:30.31	169.11	17.68	-60.5	-63.2	6.2	0.00e+00	0	39	104	0	87	19677
2026-01-03 12:20:31.31	169.24	17.54	-60.5	-63.2	6.2	0.00e+00	0	39	104	0	87	19646
2026-01-03 12:20:32.30	169.38	17.40	-60.5	-63.2	6.2	0.00e+00	0	39	104	0	87	19575
2026-01-03 12:20:33.30	169.51	17.26	-60.5	-63.2	6.2	0.00e+00	0	39	104	0	87	19655
2026-01-03 12:20:34.31	169.65	17.12	-60.5	-63.2	6.2	0.00e+00	0	39	104	0	87	19639
2026-01-03 12:20:35.31	169.78	16.98	-60.5	-63.2	6.2	0.00e+00	0	39	104	0	87	19628
2026-01-03 12:20:36.31	169.91	16.84	-60.5	-63.2	6.2	0.00e+00	0	39	104	0	87	19570
2026-01-03 12:20:37.31	170.04	16.71	-60.5	-63.2	6.2	0.00e+00	0	39	104	0	87	19582
2026-01-03 12:20:38.31	170.17	16.57	-60.5	-63.2	6.2	0.00e+00	0	39	104	0	87	19583
2026-01-03 12:20:39.31	170.30	16.43	-60.5	-63.2	6.2	0.00e+00	0	39	104	0	87	19522
2026-01-03 12:20:40.31	170.42	16.30	-60.5	-63.2	6.2	0.00e+00	0	39	104	0	87	19601
2026-01-03 12:20:41.30	170.54	16.17	-60.5	-63.2	6.2	0.00e+00	0	39	104	0	87	19514
2026-01-03 12:20:42.30	170.67	16.03	-60.5	-63.2	6.2	0.00e+00	0	39	104	0	87	19523
2026-01-03 12:20:43.31	170.79	15.90	-60.5	-63.2	6.2	0.00e+00	0	39	104	0	87	19495
2026-01-03 12:20:44.31	170.91	15.77	-60.5	-63.2	6.2	0.00e+00	0	39	104	0	87	19488
2026-01-03 12:20:45.31	171.03	15.64	-60.5	-63.2	6.2	0.00e+00	0	39	104	0	87	19516
2026-01-03 12:20:46.31	171.15	15.51	-60.5	-63.2	6.2	0.00e+00	0	39	104	0	87	19501
2026-01-03 12:20:47.32	171.27	15.38	-60.4	-63.2	6.2	0.00e+00	0	39	104	0	87	19489
2026-01-03 12:20:48.32	171.38	15.25	-60.4	-63.1	6.2	0.00e+00	0	39	104	0	87	19407
2026-01-03 12:20:49.31	171.50	15.12	-60.4	-63.1	6.2	0.00e+00	0	39	104	0	87	19453
2026-01-03 12:20:50.31	171.61	14.99	-60.4	-63.1	6.2	0.00e+00	0	39	104	0	87	19409
2026-01-03 12:20:51.31	171.72	14.87	-60.4	-63.1	6.2	0.00e+00	0	39	104	0	87	19447
2026-01-03 12:20:52.32	171.84	14.74	-60.4	-63.1	6.2	0.00e+00	0	39	104	0	87	19355
2026-01-03 12:20:53.32	171.95	14.62	-60.4	-63.1	6.2	0.00e+00	0	39	104	0	87	19406
2026-01-03 12:20:54.31	172.05	14.49	-60.4	-63.1	6.2	0.00e+00	0	39	104	0	87	19363
2026-01-03 12:20:55.31	172.16	14.37	-60.4	-63.1	6.2	0.00e+00	0	39	104	0	87	19340
2026-01-03 12:20:56.30	172.27	14.25	-60.4	-63.1	6.2	0.00e+00	0	39	104	0	87	19309
2026-01-03 12:20:57.30	172.38	14.13	-60.4	-63.1	6.2	0.00e+00	0	39	104	0	87	19310
2026-01-03 12:20:58.30	172.48	14.01	-60.4	-63.1	6.2	0.00e+00	0	39	104	0	87	19317
2026-01-03 12:20:59.30	172.59	13.89	-60.4	-63.1	6.2	0.00e+00	0	39	104	0	87	19318
2026-01-03 12:21:00.30	172.69	13.77	-60.4	-63.1	6.2	0.00e+00	0	39	104	0	87	19300
2026-01-03 12:21:01.30	172.79	13.65	-60.4	-63.0	6.2	0.00e+00	0	39	104	0	87	19243
2026-01-03 12:21:02.30	172.89	13.53	-60.3	-63.0	6.2	0.00e+00	0	39	104	0	87	19243
2026-01-03 12:21:03.30	173.00	13.41	-60.3	-63.0	6.2	0.00e+00	0	39	104	0	87	19256
2026-01-03 12:21:04.29	173.09	13.30	-60.3	-63.0	6.2	0.00e+00	0	39	104	0	87	19213
2026-01-03 12:21:05.29	173.19	13.18	-60.3	-63.0	6.2	0.00e+00	0	39	104	0	87	19187
2026-01-03 12:21:06.29	173.29	13.06	-60.3	-63.0	6.2	0.00e+00	0	39	104	0	87	19182
2026-01-03 12:21:07.28	173.39	12.95	-60.3	-63.0	6.2	0.00e+00	0	39	104	0	87	19152
2026-01-03 12:21:08.28	173.48	12.84	-60.3	-63.0	6.2	0.00e+00	0	39	104	0	87	19179
2026-01-03 12:21:09.28	173.58	12.72	-60.3	-63.0	6.2	0.00e+00	0	39	104	0	87	19220
2026-01-03 12:21:10.28	173.67	12.61	-60.3	-63.0	6.2	0.00e+00	0	39	104	0	87	19168
2026-01-03 12:21:11.28	173.77	12.50	-60.3	-63.0	6.2	0.00e+00	0	39	104	0	87	19080
2026-01-03 12:21:12.28	173.86	12.38	-60.3	-63.0	6.2	0.00e+00	0	39	104	0	87	19129
2026-01-03 12:21:13.28	173.95	12.27	-60.3	-63.0	6.2	0.00e+00	0	39	104	0	87	19126
2026-01-03 12:21:14.28	174.05	12.16	-60.3	-63.0	6.2	0.00e+00	0	39	104	0	87	19054
2026-01-03 12:21:15.28	174.14	12.05	-60.3	-63.0	6.2	0.00e+00	0	39	104	0	87	19093
2026-01-03 12:21:16.28	174.23	11.94	-60.2	-62.9	6.2	0.00e+00	0	39	104	0	87	19030
2026-01-03 12:21:17.28	174.32	11.83	-60.3	-63.0	6.2	0.00e+00	0	39	104	0	87	19122
2026-01-03 12:21:18.28	174.40	11.72	-60.2	-62.9	6.2	0.00e+00	0	39	104	0	87	19011
2026-01-03 12:21:19.28	174.49	11.62	-60.2	-62.9	6.2	0.00e+00	0	39	104	0	87	18924
2026-01-03 12:21:20.28	174.58	11.51	-60.2	-62.9	6.2	0.00e+00	0	39	104	0	87	19004
2026-01-03 12:21:21.28	174.66	11.40	-60.2	-62.9	6.2	0.00e+00	0	39	104	0	87	18973
2026-01-03 12:21:22.28	174.75	11.30	-60.2	-62.9	6.2	0.00e+00	0	39	104	0	87	18983
2026-01-03 12:21:23.29	174.84	11.19	-60.2	-62.9	6.2	0.00e+00	0	39	104	0	87	19024
2026-01-03 12:21:24.30	174.92	11.08	-60.2	-62.9	6.2	0.00e+00	0	39	104	0	87	18844
2026-01-03 12:21:25.29	175.00	10.98	-60.2	-62.9	6.2	0.00e+00	0	39	104	0	87	18891
2026-01-03 12:21:26.29	175.09	10.88	-60.2	-62.8	6.2	0.00e+00	0	39	104	0	87	18806
2026-01-03 12:21:27.29	175.17	10.77	-60.2	-62.9	6.2	0.00e+00	0	39	104	0	87	18832
2026-01-03 12:21:28.28	175.25	10.67	-60.2	-62.9	6.2	0.00e+00	0	39	104	0	87	18880
2026-01-03 12:21:29.28	175.33	10.57	-60.2	-62.9	6.2	0.00e+00	0	39	104	0	87	18863
2026-01-03 12:21:30.28	175.41	10.47	-60.1	-62.8	6.2	0.00e+00	0	39	104	0	87	18774
2026-01-03 12:21:31.27	175.49	10.37	-60.2	-62.9	6.2	0.00e+00	0	39	104	0	87	18820
2026-01-03 12:21:32.28	175.57	10.26	-60.1	-62.8	6.2	0.00e+00	0	39	104	0	87	18787
2026-01-03 12:21:33.28	175.65	10.16	-60.1	-62.8	6.2	0.00e+00	0	39	104	0	87	18750
2026-01-03 12:21:34.28	175.72	10.06	-60.1	-62.8	6.2	0.00e+00	0	39	104	0	87	18763
2026-01-03 12:21:35.27	175.80	9.97	-60.1	-62.8	6.2	0.00e+00	0	39	104	0	87	18747
2026-01-03 12:21:36.27	175.88	9.87	-60.1	-62.8	6.2	0.00e+00	0	39	104	0	87	18706
2026-01-03 12:21:37.27	175.95	9.77	-60.1	-62.8	6.2	0.00e+00	0	39	104	0	87	18722
2026-01-03 12:21:38.27	176.03	9.67	-60.1	-62.8	6.2	0.00e+00	0	39	104	0	87	18675
2026-01-03 12:21:39.28	176.10	9.57	-60.1	-62.8	6.2	0.00e+00	0	39	104	0	87	18665
2026-01-03 12:21:40.27	176.18	9.48	-60.1	-62.7	6.2	0.00e+00	0	39	104	0	86	19676
2026-01-03 12:21:41.27	176.25	9.38	-60.1	-62.8	6.2	0.00e+00	0	39	104	0	86	19801
2026-01-03 12:21:42.27	176.32	9.28	-60.0	-62.7	6.2	0.00e+00	0	39	104	0	86	19677
2026-01-03 12:21:43.28	176.40	9.19	-60.1	-62.8	6.2	0.00e+00	0	39	104	0	86	19782
2026-01-03 12:21:44.28	176.47	9.09	-60.0	-62.7	6.2	0.00e+00	0	39	104	0	86	19677
2026-01-03 12:21:45.28	176.54	9.00	-60.0	-62.7	6.2	0.00e+00	0	39	104	0	86	19691
2026-01-03 12:21:46.29	176.61	8.90	-60.0	-62.7	6.2	0.00e+00	0	39	104	0	86	19628
2026-01-03 12:21:47.28	176.68	8.81	-60.0	-62.8	6.2	0.00e+00	0	39	104	0	86	19754
2026-01-03 12:21:48.29	176.75	8.71	-60.0	-62.7	6.2	0.00e+00	0	39	104	0	86	19636
2026-01-03 12:21:49.29	176.82	8.62	-60.0	-62.7	6.2	0.00e+00	0	39	104	0	86	19694
2026-01-03 12:21:50.29	176.89	8.53	-60.0	-62.7	6.2	0.00e+00	0	39	104	0	86	19674
2026-01-03 12:21:51.28	176.96	8.44	-60.0	-62.7	6.2	0.00e+00	0	39	104	0	86	19620
2026-01-03 12:21:52.28	177.03	8.35	-60.0	-62.7	6.2	0.00e+00	0	39	104	0	86	19554
2026-01-03 12:21:53.28	177.09	8.25	-60.0	-62.7	6.2	0.00e+00	0	39	104	0	86	19577
2026-01-03 12:21:54.28	177.16	8.16	-60.0	-62.6	6.2	0.00e+00	0	39	104	0	86	19458
2026-01-03 12:21:55.28	177.23	8.07	-60.0	-62.7	6.2	0.00e+00	0	39	104	0	86	19548
2026-01-03 12:21:56.27	177.29	7.98	-59.9	-62.6	6.2	0.00e+00	0	39	104	0	86	19436
2026-01-03 12:21:57.28	177.36	7.89	-60.0	-62.6	6.2	0.00e+00	0	39	104	0	86	19460
2026-01-03 12:21:58.27	177.42	7.80	-59.9	-62.6	6.2	0.00e+00	0	39	104	0	86	19387
2026-01-03 12:21:59.28	177.49	7.71	-59.9	-62.6	6.2	0.00e+00	0	39	104	0	86	19362
2026-01-03 12:22:00.28	177.55	7.63	-59.9	-62.6	6.2	0.00e+00	0	39	104	0	86	19348
2026-01-03 12:22:01.28	177.61	7.54	-59.9	-62.6	6.2	0.00e+00	0	39	104	0	86	19355
2026-01-03 12:22:02.27	177.68	7.45	-59.9	-62.6	6.2	0.00e+00	0	39	104	0	86	19303
2026-01-03 12:22:03.26	177.74	7.36	-59.9	-62.6	6.2	0.00e+00	0	39	104	0	86	19366
2026-01-03 12:22:04.25	177.80	7.28	-59.8	-62.5	6.2	0.00e+00	0	39	104	0	86	19225
2026-01-03 12:22:05.25	177.86	7.19	-59.9	-62.6	6.2	0.00e+00	0	39	104	0	86	19280
2026-01-03 12:22:06.25	177.92	7.10	-59.8	-62.5	6.2	0.00e+00	0	39	104	0	86	19123
2026-01-03 12:22:07.24	177.98	7.02	-59.9	-62.5	6.2	0.00e+00	0	39	104	0	86	19240
2026-01-03 12:22:08.24	178.05	6.93	-59.8	-62.5	6.2	0.00e+00	0	39	104	0	86	19167
2026-01-03 12:22:09.23	178.10	6.85	-59.8	-62.5	6.2	0.00e+00	0	39	104	0	86	19211
2026-01-03 12:22:10.24	178.17	6.76	-59.8	-62.5	6.2	0.00e+00	0	39	104	0	86	19073
2026-01-03 12:22:11.24	178.22	6.68	-59.8	-62.5	6.2	0.00e+00	0	39	104	0	86	19148
2026-01-03 12:22:12.25	178.28	6.59	-59.8	-62.5	6.2	0.00e+00	0	39	104	0	86	19065
2026-01-03 12:22:13.26	178.34	6.51	-59.8	-62.5	6.2	0.00e+00	0	39	104	0	86	19092
2026-01-03 12:22:14.27	178.40	6.42	-59.7	-62.4	6.2	0.00e+00	0	39	104	0	86	19006
2026-01-03 12:22:15.27	178.46	6.34	-59.8	-62.5	6.2	0.00e+00	0	39	104	0	86	19037
2026-01-03 12:22:16.26	178.52	6.26	-59.7	-62.4	6.2	0.00e+00	0	39	104	0	86	18937
2026-01-03 12:22:17.26	178.57	6.18	-59.7	-62.4	6.2	0.00e+00	0	39	104	0	86	18997
2026-01-03 12:22:18.26	178.63	6.09	-59.7	-62.4	6.2	0.00e+00	0	39	104	0	86	18832
2026-01-03 12:22:19.26	178.69	6.01	-59.7	-62.4	6.2	0.00e+00	0	39	104	0	86	18981
2026-01-03 12:22:20.26	178.74	5.93	-59.6	-62.4	6.2	0.00e+00	0	39	104	0	86	18842
2026-01-03 12:22:21.26	178.80	5.85	-59.7	-62.4	6.2	0.00e+00	0	39	104	0	86	18873
2026-01-03 12:22:22.26	178.85	5.77	-59.6	-62.3	6.2	0.00e+00	0	39	104	0	86	18781
2026-01-03 12:22:23.27	178.91	5.69	-59.7	-62.4	6.2	0.00e+00	0	39	104	0	86	18856
2026-01-03 12:22:24.27	178.96	5.61	-59.5	-62.3	6.2	0.00e+00	0	39	104	0	85	19713
2026-01-03 12:22:25.27	179.02	5.53	-59.6	-62.3	6.2	0.00e+00	0	39	104	0	85	19779
2026-01-03 12:22:26.28	179.07	5.44	-59.5	-62.2	6.2	0.00e+00	0	39	104	0	85	19694
2026-01-03 12:22:27.27	179.12	5.37	-59.6	-62.3	6.2	0.00e+00	0	39	104	0	85	19741
2026-01-03 12:22:28.27	179.18	5.29	-59.5	-62.2	6.2	0.00e+00	0	39	104	0	85	19552
2026-01-03 12:22:29.27	179.23	5.21	-59.5	-62.2	6.2	0.00e+00	0	39	104	0	85	19698
2026-01-03 12:22:30.27	179.28	5.13	-59.5	-62.2	6.2	0.00e+00	0	39	104	0	85	19504
2026-01-03 12:22:31.27	179.34	5.05	-59.6	-62.3	6.2	0.00e+00	0	39	104	0	85	19765
2026-01-03 12:22:32.27	179.39	4.97	-60.0	-62.7	6.2	0.00e+00	0	39	104	0	85	20750
2026-01-03 12:22:33.27	179.44	4.90	-60.4	-63.1	6.2	0.00e+00	0	39	104	0	86	20456
2026-01-03 12:22:34.27	179.49	4.82	-60.6	-63.3	6.2	0.00e+00	0	39	104	0	86	21086
2026-01-03 12:22:35.27	179.54	4.74	-60.8	-63.5	6.2	0.00e+00	0	39	104	0	87	20313
2026-01-03 12:22:36.27	179.59	4.66	-61.0	-63.7	6.2	0.00e+00	0	39	104	0	87	20831
2026-01-03 12:22:37.28	179.64	4.59	-61.1	-63.8	6.2	0.00e+00	0	39	104	0	87	21083
2026-01-03 12:22:38.28	179.69	4.51	-61.2	-64.0	6.2	0.00e+00	0	39	104	0	87	21363
2026-01-03 12:22:39.28	179.74	4.43	-61.3	-64.0	6.2	0.00e+00	0	39	104	0	88	20314
2026-01-03 12:22:40.28	179.79	4.36	-61.4	-64.1	6.2	0.00e+00	0	39	104	0	88	20546
2026-01-03 12:22:41.28	179.84	4.28	-61.5	-64.2	6.2	0.00e+00	0	39	104	0	88	20743
2026-01-03 12:22:42.27	179.89	4.21	-61.5	-64.2	6.2	0.00e+00	0	39	104	0	88	20814
2026-01-03 12:22:43.27	179.94	4.13	-61.6	-64.3	6.2	0.00e+00	0	39	104	0	88	20928
2026-01-03 12:22:44.28	179.99	4.06	-61.6	-64.3	6.2	0.00e+00	0	39	104	0	88	21058
2026-01-03 12:22:45.29	180.03	3.98	-61.6	-64.4	6.2	0.00e+00	0	39	104	0	88	21160
2026-01-03 12:22:46.29	180.08	3.91	-61.7	-64.4	6.2	0.00e+00	0	39	104	0	88	21197
2026-01-03 12:22:47.30	180.13	3.83	-61.7	-64.4	6.2	0.00e+00	0	39	104	0	88	21272
2026-01-03 12:22:48.30	180.18	3.76	-61.7	-64.4	6.2	0.00e+00	0	39	104	0	88	21346
2026-01-03 12:22:49.30	180.22	3.69	-61.8	-64.5	6.2	0.00e+00	0	39	104	0	88	21394
2026-01-03 12:22:50.30	180.27	3.61	-61.8	-64.5	6.2	0.00e+00	0	39	104	0	88	21380
2026-01-03 12:22:51.30	180.32	3.54	-61.8	-64.5	6.2	0.00e+00	0	39	104	0	88	21390
2026-01-03 12:22:52.29	180.36	3.47	-61.8	-64.5	6.2	0.00e+00	0	39	104	0	88	21439
2026-01-03 12:22:53.30	180.41	3.39	-61.8	-64.5	6.2	0.00e+00	0	39	104	0	88	21456
2026-01-03 12:22:54.30	180.45	3.32	-61.8	-64.5	6.2	0.00e+00	0	39	104	0	88	21420
2026-01-03 12:22:55.30	180.50	3.25	-61.7	-64.4	6.2	0.00e+00	0	39	104	0	88	21328
2026-01-03 12:22:56.30	180.54	3.18	-61.7	-64.4	6.2	0.00e+00	0	39	104	0	88	21298
2026-01-03 12:22:57.30	180.59	3.11	-61.7	-64.4	6.2	0.00e+00	0	39	104	0	88	21265
2026-01-03 12:22:58.30	180.63	3.04	-61.7	-64.4	6.2	0.00e+00	0	39	104	0	88	21297
2026-01-03 12:22:59.30	180.68	2.96	-61.7	-64.4	6.2	0.00e+00	0	39	104	0	88	21219
2026-01-03 12:23:00.30	180.72	2.89	-61.7	-64.4	6.2	0.00e+00	0	39	104	0	88	21206
2026-01-03 12:23:01.30	180.77	2.82	-61.7	-64.4	6.2	0.00e+00	0	39	104	0	88	21198
2026-01-03 12:23:02.30	180.81	2.75	-61.7	-64.4	6.2	0.00e+00	0	39	104	0	88	21131
2026-01-03 12:23:03.29	180.85	2.68	-61.7	-64.4	6.2	0.00e+00	0	39	104	0	88	21183
2026-01-03 12:23:04.29	180.89	2.61	-61.7	-64.4	6.2	0.00e+00	0	39	104	0	88	21139
2026-01-03 12:23:05.29	180.94	2.54	-61.7	-64.4	6.2	0.00e+00	0	39	104	0	88	21232
2026-01-03 12:23:06.29	180.98	2.47	-61.7	-64.4	6.2	0.00e+00	0	39	104	0	88	21171
2026-01-03 12:23:07.28	181.02	2.40	-61.7	-64.3	6.2	0.00e+00	0	39	104	0	88	21110
2026-01-03 12:23:08.28	181.06	2.34	-61.6	-64.4	6.2	0.00e+00	0	39	104	0	88	21125
2026-01-03 12:23:09.29	181.11	2.27	-61.6	-64.3	6.2	0.00e+00	0	39	104	0	88	21103
2026-01-03 12:23:10.28	181.15	2.20	-61.6	-64.3	6.2	0.00e+00	0	39	104	0	88	21081
2026-01-03 12:23:11.28	181.19	2.13	-61.6	-64.3	6.2	0.00e+00	0	39	104	0	88	21099
2026-01-03 12:23:12.28	181.23	2.06	-61.6	-64.3	6.2	0.00e+00	0	39	104	0	88	21036

#Closed at: 2026-01-03 12:23:13
#Recorded file [0 MB]: D:/lorett/data/31004_260103_151236.dat