passes_logs/2026/01/03/R3.2S_Murmansk/R3.2S_Murmansk__20260103_051612_NOAA_20_JPSS-1_rec.log

#Pass ID: 20260103_051612_NOAA 20 (JPSS-1)
#Satellite: NOAA 20 (JPSS-1)
#Configuration: NOAA 20
#almurnet v.1.7.20251203
#Start time: 2026-01-03 05:16:12

#Version: 2.2.20231116
#Station: R3.2S_Murmansk
#Location: 33.079688 lon 68.888172 lat
#TLE: 1 43013U 17073A   26002.78363558  .00000190  00000+0  11110-3 0  9990
#TLE: 2 43013  98.7623 303.8528 0001892  57.0664 303.0694 14.19532716421006

#Time	Az	El	Level	Level2	SNR	BER	BlckErr	Temp	State	Recorded	gain1	gain2
2026-01-03 05:16:12.57	63.78	2.01	-59.7	-75.3	3.8	1.49e+00	0	29	0	0	86	20579
2026-01-03 05:16:13.56	63.71	2.07	-59.7	-75.3	3.8	1.49e+00	0	29	104	0	84	23118
2026-01-03 05:16:14.54	63.65	2.12	-59.7	-75.3	3.8	1.49e+00	0	29	104	0	84	23061
2026-01-03 05:16:15.54	63.59	2.18	-59.7	-75.3	3.8	1.49e+00	0	29	104	0	84	23146
2026-01-03 05:16:16.55	63.52	2.24	-59.7	-75.3	3.8	1.49e+00	0	29	104	0	84	23107
2026-01-03 05:16:17.55	63.46	2.29	-59.7	-75.3	3.8	1.49e+00	0	29	104	0	84	23056
2026-01-03 05:16:18.55	63.39	2.35	-59.7	-75.3	3.8	1.49e+00	0	29	104	0	84	23068
2026-01-03 05:16:19.55	63.33	2.41	-59.7	-75.3	3.8	1.49e+00	0	29	104	0	84	23073
2026-01-03 05:16:20.54	63.26	2.47	-59.7	-75.3	3.8	1.49e+00	0	29	104	0	84	23085
2026-01-03 05:16:21.55	63.19	2.52	-59.7	-75.3	3.8	1.49e+00	0	29	104	0	84	23122
2026-01-03 05:16:22.55	63.13	2.58	-59.7	-75.3	3.8	1.49e+00	0	29	104	0	84	23063
2026-01-03 05:16:23.55	63.06	2.64	-59.7	-75.3	3.8	1.49e+00	0	29	104	0	84	23091
2026-01-03 05:16:24.55	62.99	2.70	-59.7	-75.3	3.8	1.49e+00	0	29	104	0	84	23074
2026-01-03 05:16:25.55	62.93	2.75	-59.7	-75.3	3.8	1.49e+00	0	29	104	0	84	23049
2026-01-03 05:16:26.55	62.86	2.81	-59.7	-75.2	3.8	1.49e+00	0	29	104	0	84	23044
2026-01-03 05:16:27.55	62.79	2.87	-59.7	-75.3	3.8	1.49e+00	0	29	104	0	84	23080
2026-01-03 05:16:28.55	62.72	2.93	-59.7	-75.3	3.8	1.49e+00	0	29	104	0	84	23046
2026-01-03 05:16:29.55	62.66	2.98	-59.7	-75.3	3.8	1.49e+00	0	29	104	0	84	23099
2026-01-03 05:16:30.56	62.59	3.04	-59.7	-75.3	3.8	1.49e+00	0	29	104	0	84	23070
2026-01-03 05:16:31.56	62.52	3.10	-59.7	-75.3	3.8	1.49e+00	0	29	104	0	84	23157
2026-01-03 05:16:32.56	62.45	3.16	-59.7	-75.3	3.8	1.49e+00	0	29	104	0	84	23104
2026-01-03 05:16:33.55	62.38	3.22	-59.7	-75.3	3.8	1.49e+00	0	29	104	0	84	23117
2026-01-03 05:16:34.56	62.31	3.28	-59.7	-75.3	3.8	1.49e+00	0	29	104	0	84	23072
2026-01-03 05:16:35.56	62.24	3.33	-59.7	-75.2	3.8	1.49e+00	0	29	104	0	84	23015
2026-01-03 05:16:36.56	62.17	3.39	-59.7	-75.3	3.8	1.49e+00	0	29	104	0	84	23114
2026-01-03 05:16:37.57	62.10	3.45	-59.7	-75.3	3.8	1.49e+00	0	29	104	0	84	23124
2026-01-03 05:16:38.57	62.03	3.51	-59.8	-75.3	3.8	1.49e+00	0	29	104	0	84	23176
2026-01-03 05:16:39.57	61.96	3.57	-59.7	-75.3	3.8	1.49e+00	0	29	104	0	84	23169
2026-01-03 05:16:40.57	61.89	3.63	-59.8	-75.3	3.8	1.49e+00	0	29	104	0	84	23161
2026-01-03 05:16:41.56	61.81	3.69	-59.8	-75.3	3.8	1.49e+00	0	30	104	0	84	23081
2026-01-03 05:16:42.57	61.74	3.75	-59.7	-75.2	3.8	1.49e+00	0	30	104	0	84	22998
2026-01-03 05:16:43.57	61.67	3.81	-59.8	-75.2	3.8	1.49e+00	0	30	104	0	84	22796
2026-01-03 05:16:44.57	61.60	3.86	-59.7	-75.2	3.8	1.49e+00	0	30	104	0	84	22850
2026-01-03 05:16:45.57	61.52	3.92	-59.8	-75.2	3.8	1.49e+00	0	30	104	0	84	22830
2026-01-03 05:16:46.58	61.45	3.98	-59.7	-75.2	3.8	1.49e+00	0	29	104	0	84	22935
2026-01-03 05:16:47.58	61.38	4.04	-59.7	-75.3	3.8	1.49e+00	0	29	104	0	84	23098
2026-01-03 05:16:48.58	61.30	4.10	-59.8	-75.3	3.8	1.49e+00	0	30	104	0	84	23151
2026-01-03 05:16:49.58	61.23	4.16	-59.7	-75.2	3.8	1.49e+00	0	29	104	0	84	22960
2026-01-03 05:16:50.57	61.15	4.22	-59.7	-75.0	3.8	1.49e+00	0	30	104	0	84	22451
2026-01-03 05:16:51.57	61.08	4.28	-59.7	-74.5	3.8	1.49e+00	0	30	104	0	84	21258
2026-01-03 05:16:52.56	61.00	4.34	-59.7	-74.0	3.8	1.49e+00	0	30	104	0	84	19872
2026-01-03 05:16:53.56	60.93	4.40	-59.7	-73.3	3.8	1.49e+00	0	30	104	0	84	18317
2026-01-03 05:16:54.56	60.85	4.46	-59.6	-72.5	4.1	1.49e+00	0	30	0	0	84	16741
2026-01-03 05:16:55.56	60.78	4.52	-59.6	-71.6	4.3	1.39e+00	0	30	0	0	84	15159
2026-01-03 05:16:56.57	60.70	4.58	-59.5	-70.7	4.5	1.19e+00	1	30	0	1048576	84	13670
2026-01-03 05:16:57.57	60.62	4.64	-59.4	-69.7	5.0	8.87e-01	0	30	0	2097152	84	12164
2026-01-03 05:16:58.57	60.55	4.70	-59.4	-69.0	5.4	6.24e-01	0	30	0	4194304	84	11197
2026-01-03 05:16:59.57	60.47	4.76	-59.3	-68.3	5.8	4.10e-01	0	30	0	6291456	84	10320
2026-01-03 05:17:00.56	60.39	4.82	-59.2	-67.7	6.2	2.85e-01	0	30	0	8388608	84	9691
2026-01-03 05:17:01.57	60.31	4.88	-59.2	-67.3	6.4	2.25e-01	0	30	0	10485760	84	9250
2026-01-03 05:17:02.56	60.23	4.94	-59.1	-67.3	6.4	1.74e-01	0	30	0	11534336	84	9214
2026-01-03 05:17:03.55	60.16	5.00	-59.1	-67.2	6.5	1.74e-01	0	30	0	13631488	84	9174
2026-01-03 05:17:04.55	60.08	5.06	-58.4	-64.2	8.9	1.89e-01	0	30	0	15728640	83	6808
2026-01-03 05:17:05.55	60.00	5.13	-57.7	-61.9	10.9	3.32e-03	0	30	0	17825792	82	5571
2026-01-03 05:17:06.55	59.92	5.19	-59.0	-67.4	6.7	8.39e-03	0	30	0	18874368	83	9847
2026-01-03 05:17:07.55	59.84	5.25	-59.2	-67.2	6.4	1.42e+00	0	30	0	19922944	84	9116
2026-01-03 05:17:08.55	59.76	5.31	-57.5	-61.5	11.3	6.42e-02	0	30	0	20971520	81	5616
2026-01-03 05:17:09.55	59.68	5.37	-57.7	-61.9	10.9	3.27e-03	0	30	0	23068672	81	5888
2026-01-03 05:17:10.54	59.60	5.43	-57.3	-61.1	11.6	2.82e-05	0	30	0	25165824	81	5352
2026-01-03 05:17:11.54	59.51	5.49	-57.1	-60.6	12.0	2.67e-05	0	30	0	27262976	80	5381
2026-01-03 05:17:12.53	59.43	5.55	-56.8	-60.0	12.4	5.30e-06	0	30	0	29360128	80	5011
2026-01-03 05:17:13.53	59.35	5.62	-56.6	-59.6	12.7	0.00e+00	0	30	0	30408704	79	5048
2026-01-03 05:17:14.53	59.27	5.68	-56.6	-59.6	12.7	0.00e+00	0	30	0	32505856	79	5070
2026-01-03 05:17:15.52	59.19	5.74	-56.7	-59.7	12.6	7.00e-07	0	30	0	34603008	79	5102
2026-01-03 05:17:16.52	59.10	5.80	-56.5	-59.4	12.8	7.00e-07	0	30	0	36700160	79	4963
2026-01-03 05:17:17.53	59.02	5.86	-56.6	-59.5	12.7	7.00e-07	0	30	0	38797312	79	5018
2026-01-03 05:17:18.52	58.93	5.92	-56.4	-59.2	13.0	0.00e+00	0	30	0	39845888	79	4857
2026-01-03 05:17:19.52	58.85	5.99	-56.4	-59.1	13.1	0.00e+00	0	30	0	41943040	79	4772
2026-01-03 05:17:20.52	58.76	6.05	-56.4	-59.1	13.1	0.00e+00	0	30	0	44040192	79	4800
2026-01-03 05:17:21.52	58.68	6.11	-56.5	-59.2	13.0	0.00e+00	0	30	0	46137344	79	4842
2026-01-03 05:17:22.53	58.59	6.17	-56.4	-59.0	13.1	0.00e+00	0	30	0	47185920	79	4742
2026-01-03 05:17:23.53	58.51	6.24	-56.4	-59.1	13.1	0.00e+00	0	30	0	49283072	79	4773
2026-01-03 05:17:24.53	58.42	6.30	-56.3	-59.0	13.2	0.00e+00	0	30	0	51380224	79	4715
2026-01-03 05:17:25.53	58.33	6.36	-56.4	-59.1	13.1	0.00e+00	0	30	0	53477376	79	4809
2026-01-03 05:17:26.52	58.25	6.42	-56.5	-59.2	13.0	0.00e+00	0	30	0	55574528	79	4844
2026-01-03 05:17:27.53	58.16	6.49	-56.5	-59.3	13.0	0.00e+00	0	30	0	56623104	79	4876
2026-01-03 05:17:28.52	58.07	6.55	-56.5	-59.2	13.1	0.00e+00	0	30	0	58720256	79	4829
2026-01-03 05:17:29.52	57.98	6.61	-56.4	-59.1	13.1	0.00e+00	0	30	0	60817408	79	4794
2026-01-03 05:17:30.51	57.90	6.68	-56.5	-59.2	13.1	0.00e+00	0	30	0	62914560	79	4834
2026-01-03 05:17:31.51	57.81	6.74	-56.5	-59.2	13.1	0.00e+00	0	30	0	65011712	79	4826
2026-01-03 05:17:32.52	57.72	6.80	-56.4	-59.1	13.1	0.00e+00	0	30	0	66060288	79	4812
2026-01-03 05:17:33.52	57.63	6.87	-56.5	-59.2	13.1	0.00e+00	0	30	0	68157440	79	4835
2026-01-03 05:17:34.52	57.54	6.93	-56.5	-59.3	13.1	0.00e+00	0	30	0	70254592	79	4882
2026-01-03 05:17:35.52	57.44	6.99	-56.4	-59.1	13.2	0.00e+00	0	30	0	72351744	79	4771
2026-01-03 05:17:36.52	57.35	7.06	-56.4	-59.0	13.2	0.00e+00	0	30	0	74448896	79	4756
2026-01-03 05:17:37.52	57.26	7.12	-56.4	-59.1	13.2	0.00e+00	0	30	0	75497472	79	4766
2026-01-03 05:17:38.51	57.17	7.18	-56.4	-59.0	13.2	0.00e+00	0	30	0	77594624	79	4759
2026-01-03 05:17:39.51	57.08	7.25	-56.4	-59.0	13.2	0.00e+00	0	31	0	79691776	79	4726
2026-01-03 05:17:40.52	56.98	7.31	-56.3	-58.9	13.3	0.00e+00	0	30	0	81788928	79	4700
2026-01-03 05:17:41.52	56.89	7.38	-56.4	-59.0	13.2	0.00e+00	0	30	0	82837504	79	4759
2026-01-03 05:17:42.52	56.80	7.44	-56.4	-59.1	13.2	0.00e+00	0	30	0	84934656	79	4773
2026-01-03 05:17:43.52	56.70	7.50	-56.4	-59.0	13.2	0.00e+00	0	31	0	87031808	79	4750
2026-01-03 05:17:44.52	56.61	7.57	-56.4	-59.0	13.2	0.00e+00	0	30	0	89128960	79	4758
2026-01-03 05:17:45.51	56.51	7.63	-56.3	-58.9	13.3	0.00e+00	0	30	0	91226112	79	4656
2026-01-03 05:17:46.51	56.42	7.70	-56.3	-58.8	13.4	0.00e+00	0	30	0	92274688	79	4624
2026-01-03 05:17:47.51	56.32	7.76	-56.3	-58.8	13.4	0.00e+00	0	30	0	94371840	79	4639
2026-01-03 05:17:48.51	56.23	7.83	-56.2	-58.7	13.4	0.00e+00	0	30	0	96468992	79	4567
2026-01-03 05:17:49.52	56.13	7.89	-56.3	-58.8	13.4	0.00e+00	0	31	0	98566144	79	4617
2026-01-03 05:17:50.52	56.03	7.96	-56.1	-58.5	13.5	0.00e+00	0	30	0	100663296	78	4757
2026-01-03 05:17:51.53	55.93	8.02	-56.1	-58.5	13.5	0.00e+00	0	30	0	101711872	78	4725
2026-01-03 05:17:52.53	55.83	8.09	-56.2	-58.6	13.4	0.00e+00	0	30	0	103809024	78	4813
2026-01-03 05:17:53.53	55.74	8.15	-56.0	-58.4	13.6	0.00e+00	0	30	0	105906176	78	4662
2026-01-03 05:17:54.53	55.64	8.22	-56.1	-58.5	13.6	0.00e+00	0	30	0	108003328	78	4738
2026-01-03 05:17:55.53	55.54	8.28	-56.0	-58.3	13.6	0.00e+00	0	31	0	109051904	78	4648
2026-01-03 05:17:56.53	55.44	8.35	-56.0	-58.3	13.7	0.00e+00	0	31	0	111149056	78	4616
2026-01-03 05:17:57.53	55.34	8.41	-56.0	-58.3	13.7	0.00e+00	0	31	0	113246208	78	4636
2026-01-03 05:17:58.53	55.24	8.48	-56.0	-58.2	13.7	0.00e+00	0	31	0	115343360	78	4582
2026-01-03 05:17:59.52	55.14	8.55	-56.0	-58.3	13.7	0.00e+00	0	30	0	117440512	78	4609
2026-01-03 05:18:00.52	55.03	8.61	-56.0	-58.3	13.7	0.00e+00	0	30	0	118489088	78	4622
2026-01-03 05:18:01.52	54.93	8.68	-56.0	-58.2	13.7	0.00e+00	0	30	0	120586240	78	4592
2026-01-03 05:18:02.51	54.83	8.74	-55.9	-58.2	13.8	0.00e+00	0	30	0	122683392	78	4555
2026-01-03 05:18:03.51	54.73	8.81	-56.0	-58.3	13.7	0.00e+00	0	31	0	124780544	78	4618
2026-01-03 05:18:04.51	54.62	8.87	-56.0	-58.4	13.7	0.00e+00	0	31	0	126877696	78	4656
2026-01-03 05:18:05.50	54.52	8.94	-56.0	-58.2	13.8	0.00e+00	0	31	0	127926272	78	4589
2026-01-03 05:18:06.50	54.41	9.01	-55.9	-58.1	13.8	0.00e+00	0	30	0	130023424	78	4529
2026-01-03 05:18:07.50	54.31	9.07	-56.0	-58.2	13.8	0.00e+00	0	31	0	132120576	78	4581
2026-01-03 05:18:08.50	54.20	9.14	-56.0	-58.3	13.7	0.00e+00	0	31	0	134217728	78	4623
2026-01-03 05:18:09.50	54.10	9.21	-56.0	-58.3	13.7	0.00e+00	0	30	0	135266304	78	4603
2026-01-03 05:18:10.50	53.99	9.27	-56.0	-58.3	13.7	0.00e+00	0	31	0	137363456	78	4632
2026-01-03 05:18:11.50	53.88	9.34	-56.0	-58.3	13.7	0.00e+00	0	30	0	139460608	78	4629
2026-01-03 05:18:12.50	53.78	9.41	-56.0	-58.3	13.7	0.00e+00	0	31	0	141557760	78	4624
2026-01-03 05:18:13.49	53.67	9.47	-56.1	-58.4	13.7	0.00e+00	0	31	0	143654912	78	4678
2026-01-03 05:18:14.48	53.56	9.54	-56.1	-58.4	13.6	0.00e+00	0	30	0	144703488	78	4694
2026-01-03 05:18:15.49	53.45	9.61	-56.2	-58.5	13.6	0.00e+00	0	30	0	146800640	78	4743
2026-01-03 05:18:16.49	53.34	9.67	-56.2	-58.6	13.6	0.00e+00	0	30	0	148897792	78	4778
2026-01-03 05:18:17.49	53.23	9.74	-56.2	-58.6	13.6	0.00e+00	0	30	0	150994944	78	4775
2026-01-03 05:18:18.49	53.12	9.81	-56.3	-58.6	13.6	0.00e+00	0	30	0	153092096	78	4810
2026-01-03 05:18:19.50	53.01	9.87	-56.2	-58.6	13.6	0.00e+00	0	31	0	154140672	78	4798
2026-01-03 05:18:20.50	52.89	9.94	-56.2	-58.6	13.6	0.00e+00	0	31	0	156237824	78	4768
2026-01-03 05:18:21.50	52.78	10.01	-56.2	-58.6	13.6	0.00e+00	0	30	0	158334976	78	4780
2026-01-03 05:18:22.50	52.67	10.08	-56.2	-58.6	13.6	0.00e+00	0	31	0	160432128	78	4780
2026-01-03 05:18:23.51	52.55	10.14	-56.2	-58.5	13.6	0.00e+00	0	31	0	161480704	78	4759
2026-01-03 05:18:24.50	52.44	10.21	-56.2	-58.5	13.6	0.00e+00	0	31	0	163577856	78	4752
2026-01-03 05:18:25.50	52.33	10.28	-56.1	-58.4	13.7	0.00e+00	0	30	0	165675008	78	4676
2026-01-03 05:18:26.49	52.21	10.35	-56.2	-58.5	13.6	0.00e+00	0	31	0	167772160	78	4729
2026-01-03 05:18:27.49	52.10	10.41	-56.1	-58.3	13.8	0.00e+00	0	31	0	169869312	78	4621
2026-01-03 05:18:28.50	51.98	10.48	-56.0	-58.2	13.8	0.00e+00	0	31	0	170917888	78	4590
2026-01-03 05:18:29.49	51.86	10.55	-56.1	-58.3	13.8	0.00e+00	0	31	0	173015040	78	4636
2026-01-03 05:18:30.49	51.75	10.62	-56.0	-58.2	13.8	0.00e+00	0	30	0	175112192	78	4585
2026-01-03 05:18:31.48	51.63	10.69	-56.0	-58.2	13.9	0.00e+00	0	31	0	177209344	78	4565
2026-01-03 05:18:32.48	51.51	10.75	-55.9	-58.1	13.9	0.00e+00	0	30	0	179306496	78	4515
2026-01-03 05:18:33.48	51.39	10.82	-55.9	-58.1	13.9	0.00e+00	0	31	0	180355072	78	4515
2026-01-03 05:18:34.48	51.27	10.89	-55.9	-58.0	13.9	0.00e+00	0	30	0	182452224	78	4480
2026-01-03 05:18:35.48	51.15	10.96	-55.9	-58.0	14.0	0.00e+00	0	31	0	184549376	78	4453
2026-01-03 05:18:36.48	51.03	11.03	-55.9	-58.0	14.0	0.00e+00	0	31	0	186646528	78	4486
2026-01-03 05:18:37.48	50.91	11.10	-55.8	-57.9	14.0	0.00e+00	0	31	0	188743680	78	4439
2026-01-03 05:18:38.48	50.79	11.16	-55.8	-57.9	14.0	0.00e+00	0	31	0	189792256	78	4416
2026-01-03 05:18:39.48	50.67	11.23	-55.8	-57.9	14.0	0.00e+00	0	31	0	191889408	78	4434
2026-01-03 05:18:40.48	50.54	11.30	-55.7	-57.7	14.1	0.00e+00	0	31	0	193986560	78	4329
2026-01-03 05:18:41.48	50.42	11.37	-55.6	-57.7	14.1	0.00e+00	0	31	0	196083712	77	4558
2026-01-03 05:18:42.49	50.29	11.44	-55.6	-57.6	14.2	0.00e+00	0	30	0	197132288	77	4496
2026-01-03 05:18:43.50	50.17	11.51	-55.6	-57.6	14.1	0.00e+00	0	31	0	199229440	77	4533
2026-01-03 05:18:44.48	50.05	11.58	-55.6	-57.5	14.2	0.00e+00	0	31	0	201326592	77	4489
2026-01-03 05:18:45.48	49.92	11.65	-55.6	-57.6	14.2	0.00e+00	0	31	0	203423744	77	4497
2026-01-03 05:18:46.48	49.79	11.72	-55.5	-57.4	14.2	0.00e+00	0	31	0	205520896	77	4427
2026-01-03 05:18:47.48	49.67	11.78	-55.5	-57.4	14.2	0.00e+00	0	31	0	206569472	77	4437
2026-01-03 05:18:48.48	49.54	11.85	-55.6	-57.6	14.2	0.00e+00	0	30	0	208666624	77	4500
2026-01-03 05:18:49.48	49.41	11.92	-55.5	-57.5	14.2	0.00e+00	0	31	0	210763776	77	4457
2026-01-03 05:18:50.48	49.28	11.99	-55.5	-57.5	14.2	0.00e+00	0	30	0	212860928	77	4457
2026-01-03 05:18:51.49	49.15	12.06	-55.5	-57.4	14.2	0.00e+00	0	31	0	214958080	77	4431
2026-01-03 05:18:52.49	49.02	12.13	-55.5	-57.5	14.2	0.00e+00	0	31	0	216006656	77	4461
2026-01-03 05:18:53.49	48.89	12.20	-55.6	-57.5	14.2	0.00e+00	0	31	0	218103808	77	4485
2026-01-03 05:18:54.49	48.76	12.27	-55.5	-57.4	14.3	0.00e+00	0	31	0	220200960	77	4407
2026-01-03 05:18:55.48	48.62	12.34	-55.5	-57.4	14.3	0.00e+00	0	31	0	222298112	77	4432
2026-01-03 05:18:56.48	48.49	12.41	-55.5	-57.4	14.3	0.00e+00	0	31	0	223346688	77	4412
2026-01-03 05:18:57.48	48.36	12.48	-55.4	-57.3	14.3	0.00e+00	0	31	0	225443840	77	4380
2026-01-03 05:18:58.49	48.22	12.55	-55.4	-57.3	14.3	0.00e+00	0	31	0	227540992	77	4359
2026-01-03 05:18:59.48	48.09	12.62	-55.3	-57.2	14.4	0.00e+00	0	31	0	229638144	77	4300
2026-01-03 05:19:00.48	47.95	12.69	-55.3	-57.2	14.4	0.00e+00	0	31	0	231735296	77	4297
2026-01-03 05:19:01.48	47.82	12.76	-55.3	-57.1	14.5	0.00e+00	0	31	0	232783872	77	4253
2026-01-03 05:19:02.48	47.68	12.83	-55.4	-57.3	14.4	0.00e+00	0	31	0	234881024	77	4341
2026-01-03 05:19:03.48	47.54	12.90	-55.2	-57.0	14.5	0.00e+00	0	31	0	236978176	77	4214
2026-01-03 05:19:04.47	47.41	12.97	-55.1	-56.9	14.5	0.00e+00	0	31	0	239075328	76	4406
2026-01-03 05:19:05.47	47.27	13.04	-55.1	-56.8	14.5	0.00e+00	0	31	0	241172480	76	4368
2026-01-03 05:19:06.47	47.13	13.11	-55.0	-56.8	14.5	0.00e+00	0	31	0	242221056	76	4350
2026-01-03 05:19:07.47	46.99	13.18	-55.0	-56.7	14.6	0.00e+00	0	31	0	244318208	76	4340
2026-01-03 05:19:08.46	46.85	13.25	-55.0	-56.7	14.6	0.00e+00	0	31	0	246415360	76	4326
2026-01-03 05:19:09.46	46.71	13.32	-55.0	-56.7	14.6	0.00e+00	0	31	0	248512512	76	4311
2026-01-03 05:19:10.46	46.56	13.39	-55.0	-56.6	14.6	0.00e+00	0	31	0	249561088	76	4276
2026-01-03 05:19:11.46	46.42	13.46	-55.0	-56.6	14.6	0.00e+00	0	31	0	251658240	76	4290
2026-01-03 05:19:12.46	46.28	13.53	-55.0	-56.7	14.6	0.00e+00	0	31	0	253755392	76	4318
2026-01-03 05:19:13.45	46.14	13.60	-55.0	-56.7	14.6	0.00e+00	0	31	0	255852544	76	4303
2026-01-03 05:19:14.46	45.99	13.67	-55.0	-56.7	14.6	0.00e+00	0	31	0	257949696	76	4319
2026-01-03 05:19:15.46	45.84	13.74	-55.1	-56.8	14.6	0.00e+00	0	31	0	258998272	76	4373
2026-01-03 05:19:16.45	45.70	13.81	-55.1	-56.8	14.5	0.00e+00	0	31	0	261095424	76	4387
2026-01-03 05:19:17.45	45.55	13.88	-55.2	-56.9	14.5	0.00e+00	0	31	0	263192576	76	4419
2026-01-03 05:19:18.45	45.40	13.95	-55.1	-56.8	14.6	0.00e+00	0	31	0	265289728	76	4372
2026-01-03 05:19:19.44	45.26	14.02	-55.2	-57.0	14.5	0.00e+00	0	31	0	267386880	76	4466
2026-01-03 05:19:20.44	45.11	14.09	-55.2	-56.9	14.5	0.00e+00	0	31	0	268435456	76	4414
2026-01-03 05:19:21.44	44.96	14.16	-55.2	-57.0	14.5	0.00e+00	0	31	0	270532608	76	4480
2026-01-03 05:19:22.44	44.81	14.23	-55.2	-57.0	14.5	0.00e+00	0	31	0	272629760	76	4471
2026-01-03 05:19:23.43	44.66	14.30	-55.2	-57.0	14.5	0.00e+00	0	31	0	274726912	76	4464
2026-01-03 05:19:24.43	44.50	14.37	-55.3	-57.1	14.4	0.00e+00	0	31	0	275775488	76	4520
2026-01-03 05:19:25.43	44.35	14.44	-55.3	-57.1	14.4	0.00e+00	0	31	0	277872640	76	4525
2026-01-03 05:19:26.44	44.20	14.51	-55.4	-57.2	14.4	0.00e+00	0	31	0	279969792	76	4578
2026-01-03 05:19:27.44	44.04	14.58	-55.4	-57.2	14.4	0.00e+00	0	31	0	282066944	76	4572
2026-01-03 05:19:28.44	43.89	14.65	-55.4	-57.2	14.3	0.00e+00	0	31	0	284164096	76	4583
2026-01-03 05:19:29.44	43.73	14.72	-55.4	-57.2	14.4	0.00e+00	0	31	0	285212672	76	4582
2026-01-03 05:19:30.44	43.57	14.79	-55.5	-57.3	14.3	0.00e+00	0	31	0	287309824	76	4645
2026-01-03 05:19:31.45	43.42	14.86	-55.5	-57.4	14.3	0.00e+00	0	31	0	289406976	76	4663
2026-01-03 05:19:32.45	43.26	14.93	-55.5	-57.4	14.3	0.00e+00	0	31	0	291504128	76	4653
2026-01-03 05:19:33.45	43.10	15.00	-55.6	-57.5	14.2	0.00e+00	0	31	0	293601280	76	4721
2026-01-03 05:19:34.46	42.94	15.07	-55.7	-57.7	14.1	0.00e+00	0	31	0	294649856	76	4822
2026-01-03 05:19:35.46	42.78	15.14	-55.7	-57.6	14.2	0.00e+00	0	31	0	296747008	76	4788
2026-01-03 05:19:36.46	42.62	15.21	-55.7	-57.7	14.1	0.00e+00	0	31	0	298844160	76	4848
2026-01-03 05:19:37.46	42.45	15.28	-55.7	-57.7	14.1	0.00e+00	0	31	0	300941312	76	4844
2026-01-03 05:19:38.45	42.29	15.35	-55.6	-57.6	14.2	0.00e+00	0	31	0	301989888	76	4769
2026-01-03 05:19:39.45	42.13	15.42	-55.6	-57.5	14.2	0.00e+00	0	31	0	304087040	76	4740
2026-01-03 05:19:40.46	41.96	15.49	-55.6	-57.5	14.2	0.00e+00	0	31	0	306184192	76	4759
2026-01-03 05:19:41.46	41.80	15.56	-55.6	-57.5	14.2	0.00e+00	0	31	0	308281344	76	4709
2026-01-03 05:19:42.46	41.63	15.63	-55.6	-57.5	14.2	0.00e+00	0	31	0	310378496	76	4744
2026-01-03 05:19:43.47	41.46	15.70	-55.6	-57.5	14.2	0.00e+00	0	31	0	312475648	76	4730
2026-01-03 05:19:44.47	41.30	15.77	-55.5	-57.4	14.3	0.00e+00	0	31	0	313524224	76	4670
2026-01-03 05:19:45.47	41.13	15.84	-55.5	-57.4	14.3	0.00e+00	0	31	0	315621376	76	4674
2026-01-03 05:19:46.47	40.96	15.91	-55.6	-57.5	14.2	0.00e+00	0	31	0	317718528	76	4736
2026-01-03 05:19:47.46	40.79	15.98	-55.7	-57.6	14.2	0.00e+00	0	31	0	319815680	76	4768
2026-01-03 05:19:48.46	40.62	16.05	-55.8	-57.8	14.1	0.00e+00	0	31	0	320864256	76	4898
2026-01-03 05:19:49.46	40.45	16.12	-55.8	-57.8	14.1	0.00e+00	0	31	0	322961408	76	4922
2026-01-03 05:19:50.46	40.28	16.19	-55.8	-57.7	14.1	0.00e+00	0	31	0	325058560	76	4852
2026-01-03 05:19:51.46	40.10	16.26	-55.7	-57.6	14.2	0.00e+00	0	31	0	327155712	76	4798
2026-01-03 05:19:52.46	39.93	16.33	-55.7	-57.6	14.2	0.00e+00	0	31	0	329252864	76	4773
2026-01-03 05:19:53.47	39.75	16.40	-55.7	-57.6	14.2	0.00e+00	0	31	0	330301440	76	4798
2026-01-03 05:19:54.46	39.58	16.46	-55.7	-57.7	14.2	0.00e+00	0	31	0	332398592	76	4816
2026-01-03 05:19:55.46	39.40	16.53	-55.7	-57.7	14.2	0.00e+00	0	31	0	334495744	76	4826
2026-01-03 05:19:56.46	39.23	16.60	-55.8	-57.7	14.1	0.00e+00	0	31	0	336592896	76	4843
2026-01-03 05:19:57.47	39.05	16.67	-55.7	-57.6	14.2	0.00e+00	0	31	0	338690048	76	4785
2026-01-03 05:19:58.47	38.87	16.74	-55.7	-57.6	14.2	0.00e+00	0	31	0	339738624	76	4773
2026-01-03 05:19:59.47	38.69	16.81	-55.7	-57.6	14.2	0.00e+00	0	31	0	341835776	76	4774
2026-01-03 05:20:00.47	38.51	16.88	-55.7	-57.6	14.2	0.00e+00	0	31	0	343932928	76	4776
2026-01-03 05:20:01.47	38.33	16.95	-55.8	-57.8	14.1	0.00e+00	0	31	0	346030080	76	4881
2026-01-03 05:20:02.47	38.14	17.01	-55.8	-57.7	14.2	0.00e+00	0	31	0	348127232	76	4852
2026-01-03 05:20:03.47	37.96	17.08	-55.7	-57.6	14.2	0.00e+00	0	31	0	349175808	76	4805
2026-01-03 05:20:04.47	37.78	17.15	-55.6	-57.5	14.3	0.00e+00	0	31	0	351272960	76	4725
2026-01-03 05:20:05.47	37.59	17.22	-55.5	-57.4	14.3	0.00e+00	0	31	0	353370112	76	4670
2026-01-03 05:20:06.46	37.41	17.29	-55.6	-57.4	14.4	0.00e+00	0	31	0	355467264	76	4690
2026-01-03 05:20:07.46	37.22	17.35	-55.6	-57.5	14.3	0.00e+00	0	31	0	356515840	76	4739
2026-01-03 05:20:08.46	37.03	17.42	-55.4	-57.2	14.4	0.00e+00	0	31	0	358612992	76	4572
2026-01-03 05:20:09.46	36.85	17.49	-55.4	-57.2	14.5	0.00e+00	0	31	0	360710144	76	4549
2026-01-03 05:20:10.45	36.66	17.55	-55.3	-57.0	14.5	0.00e+00	0	31	0	362807296	76	4471
2026-01-03 05:20:11.45	36.47	17.62	-55.3	-57.0	14.5	0.00e+00	0	31	0	364904448	76	4472
2026-01-03 05:20:12.45	36.28	17.69	-55.2	-56.8	14.6	0.00e+00	0	31	0	365953024	76	4387
2026-01-03 05:20:13.44	36.09	17.76	-55.0	-56.6	14.7	0.00e+00	0	31	0	368050176	76	4288
2026-01-03 05:20:14.45	35.90	17.82	-55.0	-56.6	14.7	0.00e+00	0	31	0	370147328	76	4260
2026-01-03 05:20:15.44	35.70	17.89	-54.9	-56.5	14.7	0.00e+00	0	31	0	372244480	76	4197
2026-01-03 05:20:16.43	35.51	17.95	-54.8	-56.4	14.8	0.00e+00	0	31	0	373293056	76	4152
2026-01-03 05:20:17.42	35.32	18.02	-54.5	-56.0	14.9	0.00e+00	0	31	0	375390208	75	4207
2026-01-03 05:20:18.42	35.12	18.09	-54.4	-55.9	15.0	0.00e+00	0	31	0	377487360	75	4181
2026-01-03 05:20:19.42	34.93	18.15	-54.3	-55.7	15.1	0.00e+00	0	31	0	379584512	75	4074
2026-01-03 05:20:20.42	34.73	18.22	-54.2	-55.6	15.1	0.00e+00	0	31	0	381681664	75	4033
2026-01-03 05:20:21.43	34.53	18.28	-54.1	-55.4	15.1	0.00e+00	0	31	0	382730240	74	4183
2026-01-03 05:20:22.43	34.33	18.35	-54.0	-55.4	15.1	0.00e+00	0	31	0	384827392	74	4179
2026-01-03 05:20:23.43	34.13	18.41	-54.0	-55.4	15.2	0.00e+00	0	31	0	386924544	74	4157
2026-01-03 05:20:24.43	33.93	18.48	-53.9	-55.3	15.2	0.00e+00	0	31	0	389021696	74	4118
2026-01-03 05:20:25.44	33.73	18.55	-53.9	-55.2	15.2	0.00e+00	0	31	0	391118848	74	4092
2026-01-03 05:20:26.44	33.52	18.61	-53.9	-55.2	15.2	0.00e+00	0	31	0	392167424	74	4061
2026-01-03 05:20:27.44	33.32	18.67	-53.9	-55.2	15.2	0.00e+00	0	31	0	394264576	74	4080
2026-01-03 05:20:28.44	33.11	18.74	-53.7	-55.0	15.3	0.00e+00	0	31	0	396361728	74	3990
2026-01-03 05:20:29.45	32.91	18.80	-53.7	-55.0	15.3	0.00e+00	0	31	0	398458880	74	3981
2026-01-03 05:20:30.45	32.70	18.87	-53.7	-55.0	15.3	0.00e+00	0	31	0	399507456	74	3985
2026-01-03 05:20:31.45	32.49	18.93	-53.7	-55.0	15.3	0.00e+00	0	31	0	401604608	74	3983
2026-01-03 05:20:32.45	32.29	18.99	-53.7	-55.0	15.2	0.00e+00	0	31	0	403701760	73	4211
2026-01-03 05:20:33.45	32.08	19.06	-53.5	-54.7	15.3	0.00e+00	0	31	0	405798912	73	4093
2026-01-03 05:20:34.44	31.87	19.12	-53.5	-54.8	15.3	0.00e+00	0	30	0	407896064	73	4116
2026-01-03 05:20:35.45	31.66	19.18	-53.6	-54.8	15.3	0.00e+00	0	31	0	408944640	73	4127
2026-01-03 05:20:36.45	31.45	19.24	-53.6	-54.8	15.3	0.00e+00	0	31	0	411041792	73	4137
2026-01-03 05:20:37.44	31.24	19.31	-53.6	-54.9	15.3	0.00e+00	0	31	0	413138944	73	4153
2026-01-03 05:20:38.43	31.02	19.37	-53.7	-55.0	15.3	0.00e+00	0	31	0	415236096	73	4206
2026-01-03 05:20:39.44	30.81	19.43	-53.5	-54.8	15.3	0.00e+00	0	31	0	417333248	73	4122
2026-01-03 05:20:40.44	30.59	19.49	-53.5	-54.7	15.4	0.00e+00	0	31	0	418381824	73	4072
2026-01-03 05:20:41.44	30.38	19.55	-53.4	-54.6	15.4	0.00e+00	0	31	0	420478976	73	4030
2026-01-03 05:20:42.44	30.16	19.61	-53.4	-54.6	15.4	0.00e+00	0	31	0	422576128	73	4049
2026-01-03 05:20:43.44	29.94	19.67	-53.4	-54.6	15.4	0.00e+00	0	31	0	424673280	73	4011
2026-01-03 05:20:44.44	29.72	19.73	-53.4	-54.6	15.4	0.00e+00	0	31	0	426770432	73	4049
2026-01-03 05:20:45.44	29.51	19.79	-53.2	-54.4	15.4	0.00e+00	0	31	0	427819008	73	3946
2026-01-03 05:20:46.43	29.29	19.85	-53.3	-54.5	15.5	0.00e+00	0	31	0	429916160	73	3959
2026-01-03 05:20:47.44	29.06	19.91	-53.4	-54.6	15.4	0.00e+00	0	31	0	432013312	73	4036
2026-01-03 05:20:48.43	28.84	19.97	-53.4	-54.6	15.4	0.00e+00	0	31	0	434110464	73	4013
2026-01-03 05:20:49.44	28.62	20.03	-53.4	-54.5	15.4	0.00e+00	0	31	0	435159040	73	4002
2026-01-03 05:20:50.43	28.40	20.09	-53.4	-54.6	15.4	0.00e+00	0	31	0	437256192	73	4012
2026-01-03 05:20:51.43	28.17	20.14	-53.4	-54.6	15.4	0.00e+00	0	31	0	439353344	73	4028
2026-01-03 05:20:52.43	27.95	20.20	-53.4	-54.6	15.4	0.00e+00	0	31	0	441450496	73	4028
2026-01-03 05:20:53.43	27.72	20.26	-53.4	-54.6	15.4	0.00e+00	0	31	0	443547648	73	4025
2026-01-03 05:20:54.43	27.50	20.32	-53.5	-54.7	15.3	0.00e+00	0	31	0	444596224	73	4095
2026-01-03 05:20:55.43	27.27	20.37	-53.6	-54.9	15.3	0.00e+00	0	31	0	446693376	73	4176
2026-01-03 05:20:56.43	27.04	20.43	-53.6	-54.9	15.3	0.00e+00	0	31	0	448790528	73	4149
2026-01-03 05:20:57.42	26.81	20.48	-53.5	-54.7	15.3	0.00e+00	0	31	0	450887680	73	4087
2026-01-03 05:20:58.43	26.58	20.54	-53.4	-54.7	15.4	0.00e+00	0	31	0	452984832	73	4054
2026-01-03 05:20:59.42	26.35	20.60	-53.5	-54.7	15.4	0.00e+00	0	31	0	454033408	73	4091
2026-01-03 05:21:00.42	26.12	20.65	-53.6	-54.8	15.4	0.00e+00	0	31	0	456130560	73	4120
2026-01-03 05:21:01.43	25.88	20.71	-53.6	-54.8	15.3	0.00e+00	0	31	0	458227712	73	4137
2026-01-03 05:21:02.42	25.65	20.76	-53.5	-54.7	15.4	0.00e+00	0	31	0	460324864	73	4067
2026-01-03 05:21:03.42	25.42	20.81	-53.5	-54.7	15.4	0.00e+00	0	31	0	461373440	73	4081
2026-01-03 05:21:04.42	25.18	20.87	-53.5	-54.7	15.4	0.00e+00	0	31	0	463470592	73	4084
2026-01-03 05:21:05.42	24.95	20.92	-53.3	-54.5	15.4	0.00e+00	0	31	0	465567744	73	4000
2026-01-03 05:21:06.42	24.71	20.97	-53.4	-54.6	15.4	0.00e+00	0	31	0	467664896	73	4011
2026-01-03 05:21:07.41	24.47	21.02	-53.3	-54.5	15.5	0.00e+00	0	31	0	469762048	73	3990
2026-01-03 05:21:08.41	24.23	21.07	-53.2	-54.3	15.5	0.00e+00	0	31	0	470810624	72	4144
2026-01-03 05:21:09.41	24.00	21.12	-53.0	-54.2	15.5	0.00e+00	0	31	0	472907776	72	4058
2026-01-03 05:21:10.41	23.75	21.18	-52.9	-54.0	15.6	0.00e+00	0	31	0	475004928	72	3996
2026-01-03 05:21:11.41	23.51	21.23	-53.0	-54.1	15.5	0.00e+00	0	31	0	477102080	72	4038
2026-01-03 05:21:12.42	23.27	21.28	-52.8	-53.9	15.6	0.00e+00	0	31	0	479199232	72	3924
2026-01-03 05:21:13.42	23.03	21.33	-52.9	-54.0	15.6	0.00e+00	0	31	0	480247808	72	3977
2026-01-03 05:21:14.41	22.79	21.37	-53.0	-54.1	15.5	0.00e+00	0	31	0	482344960	72	4023
2026-01-03 05:21:15.41	22.54	21.42	-53.0	-54.1	15.6	0.00e+00	0	31	0	484442112	72	4017
2026-01-03 05:21:16.41	22.30	21.47	-52.9	-54.1	15.6	0.00e+00	0	31	0	486539264	72	4011
2026-01-03 05:21:17.40	22.05	21.52	-52.9	-54.0	15.6	0.00e+00	0	31	0	487587840	72	3978
2026-01-03 05:21:18.41	21.81	21.57	-52.9	-54.0	15.6	0.00e+00	0	31	0	489684992	72	4003
2026-01-03 05:21:19.40	21.56	21.61	-53.0	-54.1	15.6	0.00e+00	0	31	0	491782144	72	4017
2026-01-03 05:21:20.40	21.31	21.66	-53.0	-54.1	15.5	0.00e+00	0	31	0	493879296	72	4028
2026-01-03 05:21:21.40	21.06	21.70	-52.8	-53.8	15.6	0.00e+00	0	31	0	495976448	72	3905
2026-01-03 05:21:22.41	20.81	21.75	-52.7	-53.8	15.7	0.00e+00	0	31	0	497025024	72	3888
2026-01-03 05:21:23.40	20.56	21.79	-52.8	-53.9	15.6	0.00e+00	0	31	0	499122176	72	3924
2026-01-03 05:21:24.40	20.31	21.84	-52.7	-53.8	15.6	0.00e+00	0	31	0	501219328	72	3898
2026-01-03 05:21:25.40	20.06	21.88	-52.9	-54.0	15.6	0.00e+00	0	31	0	503316480	72	3962
2026-01-03 05:21:26.40	19.81	21.92	-52.9	-54.0	15.6	0.00e+00	0	31	0	505413632	72	3981
2026-01-03 05:21:27.40	19.56	21.97	-53.8	-55.1	15.3	0.00e+00	0	31	0	506462208	72	4519
2026-01-03 05:21:28.40	19.30	22.01	-52.9	-54.0	15.6	0.00e+00	0	31	0	508559360	72	3982
2026-01-03 05:21:29.40	19.05	22.05	-52.9	-54.0	15.6	0.00e+00	0	31	0	510656512	72	3991
2026-01-03 05:21:30.41	18.79	22.09	-52.9	-54.0	15.6	0.00e+00	0	31	0	512753664	72	3969
2026-01-03 05:21:31.41	18.54	22.13	-53.1	-54.2	15.5	0.00e+00	0	31	0	513802240	72	4066
2026-01-03 05:21:32.41	18.28	22.17	-53.1	-54.3	15.5	0.00e+00	0	31	0	515899392	72	4121
2026-01-03 05:21:33.40	18.02	22.21	-53.2	-54.4	15.4	0.00e+00	0	31	0	517996544	72	4167
2026-01-03 05:21:34.41	17.76	22.25	-53.3	-54.5	15.4	0.00e+00	0	31	0	520093696	72	4210
2026-01-03 05:21:35.41	17.51	22.29	-53.3	-54.5	15.4	0.00e+00	0	31	0	522190848	72	4201
2026-01-03 05:21:36.41	17.25	22.33	-53.3	-54.5	15.4	0.00e+00	0	31	0	524288000	72	4230
2026-01-03 05:21:37.41	16.99	22.36	-53.3	-54.4	15.4	0.00e+00	0	31	0	525336576	72	4183
2026-01-03 05:21:38.41	16.73	22.40	-53.2	-54.3	15.5	0.00e+00	0	31	0	527433728	72	4114
2026-01-03 05:21:39.41	16.47	22.43	-53.2	-54.4	15.4	0.00e+00	0	31	0	529530880	72	4176
2026-01-03 05:21:40.41	16.21	22.47	-53.3	-54.4	15.4	0.00e+00	0	31	0	531628032	72	4186
2026-01-03 05:21:41.42	15.94	22.50	-53.3	-54.5	15.4	0.00e+00	0	31	0	532676608	72	4216
2026-01-03 05:21:42.42	15.68	22.54	-53.4	-54.5	15.4	0.00e+00	0	31	0	534773760	72	4242
2026-01-03 05:21:43.41	15.42	22.57	-53.5	-54.7	15.4	0.00e+00	0	31	0	536870912	72	4298
2026-01-03 05:21:44.41	15.15	22.60	-53.8	-55.0	15.2	0.00e+00	0	31	0	538968064	72	4484
2026-01-03 05:21:45.41	14.89	22.64	-54.0	-55.3	15.2	0.00e+00	0	31	0	541065216	73	4360
2026-01-03 05:21:46.41	14.62	22.67	-54.1	-55.5	15.1	0.00e+00	0	31	0	542113792	73	4470
2026-01-03 05:21:47.41	14.36	22.70	-54.2	-55.6	15.0	0.00e+00	0	31	0	544210944	73	4518
2026-01-03 05:21:48.40	14.10	22.73	-54.2	-55.6	15.0	0.00e+00	0	31	0	546308096	73	4535
2026-01-03 05:21:49.40	13.83	22.76	-54.1	-55.4	15.1	0.00e+00	0	31	0	548405248	73	4417
2026-01-03 05:21:50.40	13.56	22.79	-54.1	-55.4	15.1	0.00e+00	0	31	0	549453824	73	4422
2026-01-03 05:21:51.40	13.30	22.82	-54.2	-55.6	15.1	0.00e+00	0	31	0	551550976	73	4511
2026-01-03 05:21:52.41	13.02	22.85	-54.3	-55.7	15.0	0.00e+00	0	31	0	553648128	73	4568
2026-01-03 05:21:53.41	12.76	22.87	-54.5	-56.0	15.0	0.00e+00	0	31	0	555745280	74	4463
2026-01-03 05:21:54.41	12.49	22.90	-54.6	-56.0	15.0	0.00e+00	0	31	0	557842432	74	4471
2026-01-03 05:21:55.41	12.22	22.93	-54.3	-55.7	15.1	0.00e+00	0	31	0	558891008	74	4337
2026-01-03 05:21:56.42	11.95	22.95	-54.2	-55.6	15.1	0.00e+00	0	31	0	560988160	74	4277
2026-01-03 05:21:57.42	11.68	22.98	-54.3	-55.7	15.1	0.00e+00	0	31	0	563085312	74	4307
2026-01-03 05:21:58.41	11.41	23.00	-54.5	-55.9	15.0	0.00e+00	0	31	0	565182464	74	4423
2026-01-03 05:21:59.41	11.14	23.02	-54.7	-56.2	14.8	0.00e+00	0	31	0	567279616	74	4589
2026-01-03 05:22:00.40	10.87	23.04	-54.9	-56.5	14.8	0.00e+00	0	31	0	568328192	75	4485
2026-01-03 05:22:01.40	10.60	23.07	-55.0	-56.6	14.7	0.00e+00	0	31	0	570425344	75	4512
2026-01-03 05:22:02.40	10.32	23.09	-55.0	-56.7	14.7	0.00e+00	0	31	0	572522496	75	4548
2026-01-03 05:22:03.40	10.05	23.11	-54.9	-56.5	14.8	0.00e+00	0	31	0	574619648	75	4472
2026-01-03 05:22:04.40	9.78	23.13	-55.0	-56.6	14.7	0.00e+00	0	31	0	575668224	75	4528
2026-01-03 05:22:05.39	9.51	23.15	-55.0	-56.6	14.8	0.00e+00	0	31	0	577765376	75	4534
2026-01-03 05:22:06.39	9.23	23.17	-55.2	-56.9	14.7	0.00e+00	0	31	0	579862528	75	4652
2026-01-03 05:22:07.38	8.96	23.18	-55.2	-56.8	14.7	0.00e+00	0	31	0	581959680	75	4616
2026-01-03 05:22:08.38	8.69	23.20	-55.2	-56.8	14.7	0.00e+00	0	31	0	584056832	75	4641
2026-01-03 05:22:09.37	8.42	23.22	-55.1	-56.7	14.7	0.00e+00	0	31	0	585105408	75	4577
2026-01-03 05:22:10.37	8.14	23.23	-54.9	-56.4	14.8	0.00e+00	0	31	0	587202560	75	4423
2026-01-03 05:22:11.38	7.86	23.25	-54.8	-56.3	14.9	0.00e+00	0	31	0	589299712	75	4356
2026-01-03 05:22:12.37	7.59	23.26	-54.7	-56.2	14.9	0.00e+00	0	31	0	591396864	75	4319
2026-01-03 05:22:13.37	7.32	23.28	-54.8	-56.3	14.9	0.00e+00	0	31	0	593494016	75	4382
2026-01-03 05:22:14.37	7.04	23.29	-54.7	-56.2	14.9	0.00e+00	0	31	0	594542592	75	4334
2026-01-03 05:22:15.37	6.76	23.30	-54.7	-56.2	14.9	0.00e+00	0	31	0	596639744	75	4336
2026-01-03 05:22:16.37	6.49	23.31	-54.7	-56.2	14.9	0.00e+00	0	31	0	598736896	75	4330
2026-01-03 05:22:17.37	6.21	23.32	-54.8	-56.3	14.9	0.00e+00	0	31	0	600834048	75	4370
2026-01-03 05:22:18.37	5.94	23.33	-54.9	-56.4	14.8	0.00e+00	0	31	0	602931200	75	4430
2026-01-03 05:22:19.36	5.66	23.34	-54.9	-56.4	14.8	0.00e+00	0	31	0	603979776	75	4410
2026-01-03 05:22:20.36	5.38	23.35	-54.9	-56.4	14.9	0.00e+00	0	31	0	606076928	75	4408
2026-01-03 05:22:21.36	5.11	23.36	-54.9	-56.5	14.8	0.00e+00	0	31	0	608174080	75	4466
2026-01-03 05:22:22.36	4.83	23.37	-54.9	-56.4	14.9	0.00e+00	0	31	0	610271232	75	4439
2026-01-03 05:22:23.36	4.55	23.37	-54.9	-56.4	14.9	0.00e+00	0	31	0	611319808	75	4424
2026-01-03 05:22:24.36	4.27	23.38	-54.9	-56.4	14.9	0.00e+00	0	31	0	613416960	75	4410
2026-01-03 05:22:25.36	4.00	23.38	-54.8	-56.3	14.9	0.00e+00	0	31	0	615514112	75	4345
2026-01-03 05:22:26.35	3.72	23.39	-54.6	-56.1	14.9	0.00e+00	0	31	0	617611264	75	4268
2026-01-03 05:22:27.36	3.44	23.39	-54.5	-55.9	15.1	0.00e+00	0	31	0	619708416	75	4182
2026-01-03 05:22:28.36	3.16	23.39	-54.7	-56.1	15.0	0.00e+00	0	31	0	620756992	75	4284
2026-01-03 05:22:29.36	2.89	23.40	-54.7	-56.2	14.9	0.00e+00	0	31	0	622854144	75	4295
2026-01-03 05:22:30.35	2.61	23.40	-54.8	-56.3	14.9	0.00e+00	0	31	0	624951296	75	4352
2026-01-03 05:22:31.36	2.33	23.40	-54.7	-56.2	15.0	0.00e+00	0	31	0	627048448	75	4300
2026-01-03 05:22:32.35	2.06	23.40	-54.5	-55.9	15.1	0.00e+00	0	31	0	628097024	75	4180
2026-01-03 05:22:33.35	1.78	23.40	-54.4	-55.8	15.2	0.00e+00	0	31	0	630194176	75	4102
2026-01-03 05:22:34.35	1.50	23.39	-54.2	-55.6	15.2	0.00e+00	0	31	0	632291328	75	4025
2026-01-03 05:22:35.35	1.22	23.39	-54.2	-55.5	15.2	0.00e+00	0	31	0	634388480	74	4215
2026-01-03 05:22:36.35	0.94	23.39	-54.1	-55.4	15.2	0.00e+00	0	31	0	636485632	74	4179
2026-01-03 05:22:37.36	0.66	23.39	-54.2	-55.6	15.2	0.00e+00	0	31	0	637534208	74	4250
2026-01-03 05:22:38.36	0.39	23.38	-54.1	-55.5	15.2	0.00e+00	0	31	0	639631360	74	4222
2026-01-03 05:22:39.37	0.11	23.38	-54.1	-55.4	15.2	0.00e+00	0	31	0	641728512	74	4165
2026-01-03 05:22:40.36	359.83	23.37	-53.9	-55.2	15.3	0.00e+00	0	31	0	643825664	74	4073
2026-01-03 05:22:41.36	359.55	23.36	-53.8	-55.0	15.4	0.00e+00	0	31	0	645922816	74	3984
2026-01-03 05:22:42.36	359.28	23.36	-53.7	-55.0	15.4	0.00e+00	0	31	0	646971392	74	3977
2026-01-03 05:22:43.37	359.00	23.35	-53.8	-55.0	15.4	0.00e+00	0	31	0	649068544	74	3984
2026-01-03 05:22:44.36	358.72	23.34	-53.6	-54.8	15.4	0.00e+00	0	31	0	651165696	73	4140
2026-01-03 05:22:45.37	358.44	23.33	-53.6	-54.8	15.4	0.00e+00	0	31	0	653262848	73	4128
2026-01-03 05:22:46.37	358.17	23.32	-53.6	-54.8	15.4	0.00e+00	0	31	0	655360000	73	4136
2026-01-03 05:22:47.37	357.89	23.31	-53.7	-54.9	15.4	0.00e+00	0	31	0	656408576	73	4168
2026-01-03 05:22:48.37	357.61	23.30	-53.6	-54.9	15.4	0.00e+00	0	31	0	658505728	73	4149
2026-01-03 05:22:49.37	357.34	23.28	-53.5	-54.6	15.4	0.00e+00	0	31	0	660602880	73	4051
2026-01-03 05:22:50.37	357.06	23.27	-53.1	-54.3	15.5	0.00e+00	0	31	0	662700032	72	4102
2026-01-03 05:22:51.38	356.78	23.26	-53.0	-54.1	15.6	0.00e+00	0	31	0	664797184	72	4037
2026-01-03 05:22:52.38	356.51	23.24	-52.8	-53.9	15.7	0.00e+00	0	31	0	665845760	72	3917
2026-01-03 05:22:53.38	356.23	23.23	-52.9	-53.9	15.7	0.00e+00	0	31	0	667942912	72	3956
2026-01-03 05:22:54.38	355.96	23.21	-52.8	-53.8	15.7	0.00e+00	0	31	0	670040064	72	3911
2026-01-03 05:22:55.38	355.69	23.19	-53.0	-54.1	15.6	0.00e+00	0	31	0	672137216	72	4007
2026-01-03 05:22:56.39	355.41	23.18	-52.9	-53.9	15.6	0.00e+00	0	31	0	673185792	72	3950
2026-01-03 05:22:57.39	355.13	23.16	-52.7	-53.7	15.7	0.00e+00	0	31	0	675282944	72	3853
2026-01-03 05:22:58.39	354.86	23.14	-52.7	-53.7	15.6	0.00e+00	0	31	0	677380096	71	4090
2026-01-03 05:22:59.38	354.59	23.12	-52.7	-53.8	15.6	0.00e+00	0	31	0	679477248	71	4114
2026-01-03 05:23:00.38	354.32	23.10	-52.7	-53.8	15.6	0.00e+00	0	31	0	681574400	71	4106
2026-01-03 05:23:01.38	354.05	23.08	-52.6	-53.7	15.7	0.00e+00	0	31	0	682622976	71	4052
2026-01-03 05:23:02.38	353.77	23.06	-52.4	-53.4	15.8	0.00e+00	0	31	0	684720128	71	3952
2026-01-03 05:23:03.38	353.50	23.04	-52.5	-53.5	15.7	0.00e+00	0	31	0	686817280	71	3989
2026-01-03 05:23:04.38	353.23	23.01	-52.5	-53.5	15.7	0.00e+00	0	31	0	688914432	71	3962
2026-01-03 05:23:05.38	352.96	22.99	-52.3	-53.3	15.8	0.00e+00	0	31	0	691011584	71	3881
2026-01-03 05:23:06.38	352.69	22.97	-52.4	-53.4	15.8	0.00e+00	0	31	0	692060160	71	3938
2026-01-03 05:23:07.38	352.42	22.94	-52.4	-53.4	15.7	0.00e+00	0	31	0	694157312	71	3942
2026-01-03 05:23:08.38	352.15	22.92	-52.4	-53.4	15.7	0.00e+00	0	31	0	696254464	71	3956
2026-01-03 05:23:09.37	351.88	22.89	-52.6	-53.6	15.7	0.00e+00	0	31	0	698351616	71	4038
2026-01-03 05:23:10.38	351.61	22.86	-52.7	-53.7	15.7	0.00e+00	0	31	0	699400192	71	4089
2026-01-03 05:23:11.38	351.34	22.84	-52.8	-53.9	15.6	0.00e+00	0	31	0	701497344	71	4177
2026-01-03 05:23:12.38	351.08	22.81	-52.8	-53.8	15.6	0.00e+00	0	31	0	703594496	71	4145
2026-01-03 05:23:13.38	350.81	22.78	-52.8	-53.8	15.6	0.00e+00	0	31	0	705691648	71	4132
2026-01-03 05:23:14.37	350.55	22.75	-52.8	-53.8	15.6	0.00e+00	0	31	0	707788800	71	4132
2026-01-03 05:23:15.36	350.28	22.72	-52.7	-53.8	15.6	0.00e+00	0	31	0	708837376	71	4113
2026-01-03 05:23:16.36	350.02	22.69	-52.8	-53.9	15.6	0.00e+00	0	31	0	710934528	71	4154
2026-01-03 05:23:17.36	349.75	22.66	-52.9	-53.9	15.6	0.00e+00	0	31	0	713031680	71	4190
2026-01-03 05:23:18.35	349.49	22.63	-53.1	-54.2	15.5	0.00e+00	0	31	0	715128832	71	4329
2026-01-03 05:23:19.34	349.23	22.59	-53.1	-54.2	15.5	0.00e+00	0	31	0	717225984	71	4338
2026-01-03 05:23:20.35	348.96	22.56	-53.1	-54.3	15.5	0.00e+00	0	31	0	718274560	71	4352
2026-01-03 05:23:21.35	348.70	22.53	-53.2	-54.4	15.4	0.00e+00	0	31	0	720371712	71	4418
2026-01-03 05:23:22.35	348.44	22.49	-53.4	-54.5	15.4	0.00e+00	0	31	0	722468864	71	4487
2026-01-03 05:23:23.35	348.17	22.46	-53.3	-54.4	15.5	0.00e+00	0	31	0	724566016	72	4187
2026-01-03 05:23:24.35	347.91	22.42	-53.4	-54.6	15.4	0.00e+00	0	31	0	725614592	72	4259
2026-01-03 05:23:25.35	347.65	22.39	-53.5	-54.7	15.3	0.00e+00	0	31	0	727711744	72	4333
2026-01-03 05:23:26.35	347.39	22.35	-53.6	-54.9	15.3	0.00e+00	0	31	0	729808896	72	4393
2026-01-03 05:23:27.35	347.13	22.31	-53.7	-54.9	15.3	0.00e+00	0	31	0	731906048	72	4440
2026-01-03 05:23:28.35	346.87	22.28	-53.7	-54.9	15.3	0.00e+00	0	31	0	734003200	72	4437
2026-01-03 05:23:29.35	346.62	22.24	-53.7	-54.9	15.3	0.00e+00	0	31	0	735051776	72	4421
2026-01-03 05:23:30.35	346.36	22.20	-53.7	-54.9	15.3	0.00e+00	0	31	0	737148928	72	4436
2026-01-03 05:23:31.35	346.10	22.16	-53.7	-55.0	15.3	0.00e+00	0	31	0	739246080	72	4465
2026-01-03 05:23:32.35	345.85	22.12	-53.9	-55.2	15.2	0.00e+00	0	31	0	741343232	73	4301
2026-01-03 05:23:33.35	345.59	22.08	-53.9	-55.2	15.2	0.00e+00	0	31	0	743440384	73	4329
2026-01-03 05:23:34.34	345.34	22.04	-54.1	-55.4	15.2	0.00e+00	0	31	0	744488960	73	4405
2026-01-03 05:23:35.35	345.08	22.00	-54.2	-55.5	15.1	0.00e+00	0	31	0	746586112	73	4469
2026-01-03 05:23:36.35	344.83	21.95	-54.3	-55.7	15.0	0.00e+00	0	31	0	748683264	73	4559
2026-01-03 05:23:37.35	344.58	21.91	-54.2	-55.6	15.1	0.00e+00	0	31	0	750780416	73	4527
2026-01-03 05:23:38.35	344.32	21.87	-54.2	-55.6	15.1	0.00e+00	0	31	0	751828992	73	4532
2026-01-03 05:23:39.35	344.07	21.82	-54.3	-55.6	15.0	0.00e+00	0	31	0	753926144	73	4540
2026-01-03 05:23:40.36	343.82	21.78	-54.4	-55.7	15.0	0.00e+00	0	31	0	756023296	73	4597
2026-01-03 05:23:41.36	343.57	21.73	-54.2	-55.6	15.1	0.00e+00	0	31	0	758120448	73	4521
2026-01-03 05:23:42.36	343.32	21.69	-54.3	-55.6	15.0	0.00e+00	0	31	0	760217600	73	4541
2026-01-03 05:23:43.35	343.08	21.64	-54.3	-55.7	15.0	0.00e+00	0	31	0	761266176	73	4573
2026-01-03 05:23:44.35	342.83	21.60	-54.3	-55.7	15.0	0.00e+00	0	31	0	763363328	73	4593
2026-01-03 05:23:45.36	342.58	21.55	-54.3	-55.7	15.0	0.00e+00	0	31	0	765460480	73	4567
2026-01-03 05:23:46.36	342.33	21.50	-54.4	-55.8	15.0	0.00e+00	0	31	0	767557632	73	4622
2026-01-03 05:23:47.37	342.08	21.45	-54.5	-55.9	15.0	0.00e+00	0	31	0	769654784	74	4427
2026-01-03 05:23:48.37	341.84	21.41	-54.5	-55.9	15.0	0.00e+00	0	31	0	770703360	74	4435
2026-01-03 05:23:49.36	341.60	21.36	-54.4	-55.9	15.0	0.00e+00	0	31	0	772800512	74	4402
2026-01-03 05:23:50.35	341.36	21.31	-54.5	-56.0	15.0	0.00e+00	0	31	0	774897664	74	4457
2026-01-03 05:23:51.35	341.12	21.26	-54.6	-56.0	14.9	0.00e+00	0	31	0	776994816	74	4492
2026-01-03 05:23:52.35	340.87	21.21	-54.6	-56.1	14.9	0.00e+00	0	31	0	779091968	74	4508
2026-01-03 05:23:53.35	340.63	21.16	-54.6	-56.1	14.9	0.00e+00	0	31	0	780140544	74	4504
2026-01-03 05:23:54.35	340.39	21.11	-54.6	-56.0	14.9	0.00e+00	0	31	0	782237696	74	4489
2026-01-03 05:23:55.35	340.15	21.06	-54.5	-55.9	15.0	0.00e+00	0	31	0	784334848	74	4439
2026-01-03 05:23:56.35	339.92	21.01	-54.4	-55.8	15.0	0.00e+00	0	31	0	786432000	74	4351
2026-01-03 05:23:57.36	339.68	20.95	-54.5	-56.0	15.0	0.00e+00	0	31	0	787480576	74	4447
2026-01-03 05:23:58.36	339.44	20.90	-54.6	-56.0	14.9	0.00e+00	0	31	0	789577728	74	4488
2026-01-03 05:23:59.36	339.20	20.85	-54.8	-56.3	14.8	0.00e+00	0	31	0	791674880	74	4640
2026-01-03 05:24:00.37	338.97	20.79	-54.9	-56.4	14.8	0.00e+00	0	31	0	793772032	74	4687
2026-01-03 05:24:01.36	338.74	20.74	-54.8	-56.4	14.9	0.00e+00	0	31	0	795869184	75	4394
2026-01-03 05:24:02.36	338.50	20.69	-54.7	-56.2	15.0	0.00e+00	0	31	0	796917760	75	4332
2026-01-03 05:24:03.37	338.27	20.63	-54.6	-56.1	15.0	0.00e+00	0	31	0	799014912	75	4256
2026-01-03 05:24:04.37	338.04	20.58	-54.5	-55.9	15.1	0.00e+00	0	31	0	801112064	75	4185
2026-01-03 05:24:05.38	337.80	20.52	-54.5	-55.9	15.1	0.00e+00	0	31	0	803209216	75	4186
2026-01-03 05:24:06.37	337.57	20.47	-54.4	-55.8	15.1	0.00e+00	0	31	0	805306368	75	4111
2026-01-03 05:24:07.38	337.34	20.41	-54.4	-55.7	15.2	0.00e+00	0	31	0	806354944	75	4091
2026-01-03 05:24:08.38	337.12	20.35	-54.4	-55.8	15.1	0.00e+00	0	31	0	808452096	75	4101
2026-01-03 05:24:09.38	336.89	20.30	-54.5	-55.9	15.1	0.00e+00	0	31	0	810549248	75	4172
2026-01-03 05:24:10.37	336.66	20.24	-54.4	-55.8	15.1	0.00e+00	0	31	0	812646400	75	4128
2026-01-03 05:24:11.37	336.44	20.18	-54.4	-55.8	15.1	0.00e+00	0	31	0	814743552	75	4133
2026-01-03 05:24:12.37	336.21	20.12	-54.5	-56.0	15.0	0.00e+00	0	31	0	815792128	75	4200
2026-01-03 05:24:13.37	335.99	20.07	-54.5	-55.9	15.1	0.00e+00	0	31	0	817889280	75	4157
2026-01-03 05:24:14.37	335.77	20.01	-54.4	-55.9	15.1	0.00e+00	0	31	0	819986432	75	4152
2026-01-03 05:24:15.37	335.54	19.95	-54.4	-55.8	15.1	0.00e+00	0	31	0	822083584	75	4102
2026-01-03 05:24:16.37	335.32	19.89	-54.3	-55.7	15.2	0.00e+00	0	31	0	824180736	75	4065
2026-01-03 05:24:17.37	335.10	19.83	-54.2	-55.5	15.2	0.00e+00	0	31	0	825229312	75	3994
2026-01-03 05:24:18.37	334.88	19.77	-54.3	-55.6	15.1	0.00e+00	0	31	0	827326464	74	4285
2026-01-03 05:24:19.37	334.66	19.71	-54.3	-55.7	15.1	0.00e+00	0	31	0	829423616	74	4300
2026-01-03 05:24:20.37	334.44	19.65	-54.3	-55.7	15.1	0.00e+00	0	31	0	831520768	74	4328
2026-01-03 05:24:21.37	334.23	19.59	-54.3	-55.7	15.1	0.00e+00	0	31	0	832569344	74	4301
2026-01-03 05:24:22.37	334.01	19.53	-54.2	-55.6	15.1	0.00e+00	0	31	0	834666496	74	4247
2026-01-03 05:24:23.37	333.80	19.47	-54.3	-55.7	15.1	0.00e+00	0	31	0	836763648	74	4307
2026-01-03 05:24:24.37	333.58	19.41	-54.2	-55.5	15.1	0.00e+00	0	31	0	838860800	74	4239
2026-01-03 05:24:25.38	333.37	19.35	-54.2	-55.6	15.1	0.00e+00	0	31	0	840957952	74	4276
2026-01-03 05:24:26.38	333.15	19.28	-54.2	-55.6	15.1	0.00e+00	0	31	0	842006528	74	4275
2026-01-03 05:24:27.39	332.94	19.22	-54.2	-55.6	15.1	0.00e+00	0	31	0	844103680	74	4278
2026-01-03 05:24:28.39	332.73	19.16	-54.3	-55.7	15.1	0.00e+00	0	31	0	846200832	74	4306
2026-01-03 05:24:29.39	332.52	19.10	-54.3	-55.7	15.1	0.00e+00	0	31	0	848297984	74	4330
2026-01-03 05:24:30.39	332.31	19.03	-54.2	-55.6	15.1	0.00e+00	0	31	0	850395136	74	4265
2026-01-03 05:24:31.39	332.10	18.97	-54.4	-55.8	15.1	0.00e+00	0	31	0	851443712	74	4347
2026-01-03 05:24:32.39	331.89	18.91	-54.3	-55.7	15.1	0.00e+00	0	31	0	853540864	74	4306
2026-01-03 05:24:33.39	331.69	18.84	-54.3	-55.7	15.1	0.00e+00	0	31	0	855638016	74	4297
2026-01-03 05:24:34.39	331.48	18.78	-54.2	-55.6	15.2	0.00e+00	0	31	0	857735168	74	4248
2026-01-03 05:24:35.40	331.27	18.71	-54.2	-55.6	15.1	0.00e+00	0	31	0	858783744	74	4262
2026-01-03 05:24:36.40	331.07	18.65	-54.3	-55.6	15.1	0.00e+00	0	31	0	860880896	74	4287
2026-01-03 05:24:37.41	330.86	18.58	-54.3	-55.7	15.1	0.00e+00	0	31	0	862978048	74	4299
2026-01-03 05:24:38.41	330.66	18.52	-54.3	-55.7	15.1	0.00e+00	0	31	0	865075200	74	4317
2026-01-03 05:24:39.41	330.46	18.46	-54.4	-55.9	15.0	0.00e+00	0	31	0	867172352	74	4393
2026-01-03 05:24:40.40	330.26	18.39	-54.4	-55.8	15.0	0.00e+00	0	31	0	868220928	74	4373
2026-01-03 05:24:41.40	330.06	18.33	-54.4	-55.9	15.0	0.00e+00	0	31	0	870318080	74	4406
2026-01-03 05:24:42.40	329.86	18.26	-54.5	-55.9	15.0	0.00e+00	0	31	0	872415232	74	4439
2026-01-03 05:24:43.41	329.66	18.19	-54.4	-55.8	15.1	0.00e+00	0	31	0	874512384	74	4376
2026-01-03 05:24:44.40	329.47	18.13	-54.4	-55.8	15.0	0.00e+00	0	31	0	876609536	74	4387
2026-01-03 05:24:45.41	329.27	18.06	-54.5	-56.0	15.0	0.00e+00	0	31	0	877658112	74	4448
2026-01-03 05:24:46.40	329.08	18.00	-54.5	-56.0	15.0	0.00e+00	0	31	0	879755264	74	4452
2026-01-03 05:24:47.40	328.88	17.93	-54.6	-56.1	14.9	0.00e+00	0	31	0	881852416	74	4503
2026-01-03 05:24:48.40	328.69	17.86	-54.5	-56.0	14.9	0.00e+00	0	31	0	883949568	74	4470
2026-01-03 05:24:49.40	328.50	17.80	-54.5	-55.9	15.0	0.00e+00	0	31	0	886046720	74	4426
2026-01-03 05:24:50.40	328.30	17.73	-54.5	-56.0	15.0	0.00e+00	0	31	0	887095296	74	4478
2026-01-03 05:24:51.40	328.11	17.66	-54.5	-56.0	14.9	0.00e+00	0	31	0	889192448	74	4457
2026-01-03 05:24:52.41	327.92	17.60	-54.4	-55.9	15.0	0.00e+00	0	31	0	891289600	74	4395
2026-01-03 05:24:53.41	327.73	17.53	-54.5	-56.0	14.9	0.00e+00	0	31	0	893386752	74	4457
2026-01-03 05:24:54.41	327.54	17.46	-54.5	-55.9	15.0	0.00e+00	0	31	0	894435328	74	4426
2026-01-03 05:24:55.41	327.36	17.39	-54.4	-55.9	15.0	0.00e+00	0	31	0	896532480	74	4408
2026-01-03 05:24:56.41	327.17	17.33	-54.5	-55.9	15.0	0.00e+00	0	31	0	898629632	74	4430
2026-01-03 05:24:57.40	326.99	17.26	-54.4	-55.9	15.0	0.00e+00	0	31	0	900726784	74	4409
2026-01-03 05:24:58.40	326.80	17.19	-54.4	-55.8	15.0	0.00e+00	0	31	0	902823936	74	4383
2026-01-03 05:24:59.39	326.62	17.12	-54.4	-55.9	15.0	0.00e+00	0	31	0	903872512	74	4410
2026-01-03 05:25:00.39	326.43	17.06	-54.5	-55.9	15.0	0.00e+00	0	31	0	905969664	74	4434
2026-01-03 05:25:01.39	326.25	16.99	-54.5	-55.9	15.0	0.00e+00	0	31	0	908066816	74	4427
2026-01-03 05:25:02.39	326.07	16.92	-54.5	-55.9	15.0	0.00e+00	0	31	0	910163968	74	4430
2026-01-03 05:25:03.39	325.89	16.85	-54.3	-55.7	15.1	0.00e+00	0	31	0	912261120	74	4333
2026-01-03 05:25:04.39	325.71	16.78	-54.2	-55.6	15.1	0.00e+00	0	31	0	913309696	74	4257
2026-01-03 05:25:05.39	325.53	16.71	-54.2	-55.6	15.1	0.00e+00	0	31	0	915406848	74	4268
2026-01-03 05:25:06.38	325.35	16.65	-54.2	-55.6	15.1	0.00e+00	0	31	0	917504000	74	4246
2026-01-03 05:25:07.38	325.18	16.58	-54.0	-55.3	15.1	0.00e+00	0	31	0	919601152	74	4137
2026-01-03 05:25:08.38	325.00	16.51	-53.9	-55.2	15.2	0.00e+00	0	31	0	920649728	74	4086
2026-01-03 05:25:09.38	324.82	16.44	-53.9	-55.2	15.2	0.00e+00	0	31	0	922746880	74	4070
2026-01-03 05:25:10.39	324.65	16.37	-53.9	-55.2	15.3	0.00e+00	0	31	0	924844032	74	4063
2026-01-03 05:25:11.40	324.47	16.30	-53.8	-55.1	15.3	0.00e+00	0	31	0	926941184	74	4022
2026-01-03 05:25:12.39	324.30	16.23	-53.8	-55.1	15.3	0.00e+00	0	31	0	929038336	74	4029
2026-01-03 05:25:13.39	324.13	16.16	-53.9	-55.2	15.3	0.00e+00	0	31	0	930086912	74	4089
2026-01-03 05:25:14.39	323.95	16.09	-53.9	-55.3	15.3	0.00e+00	0	31	0	932184064	74	4111
2026-01-03 05:25:15.39	323.78	16.02	-54.0	-55.3	15.2	0.00e+00	0	31	0	934281216	74	4122
2026-01-03 05:25:16.39	323.61	15.95	-53.9	-55.3	15.3	0.00e+00	0	31	0	936378368	74	4109
2026-01-03 05:25:17.38	323.45	15.88	-53.9	-55.2	15.3	0.00e+00	0	31	0	938475520	74	4084
2026-01-03 05:25:18.39	323.28	15.81	-53.9	-55.2	15.3	0.00e+00	0	31	0	939524096	74	4085
2026-01-03 05:25:19.38	323.11	15.74	-53.9	-55.2	15.3	0.00e+00	0	31	0	941621248	74	4096
2026-01-03 05:25:20.38	322.94	15.67	-53.8	-55.1	15.3	0.00e+00	0	31	0	943718400	74	4027
2026-01-03 05:25:21.38	322.78	15.61	-53.6	-54.9	15.3	0.00e+00	0	31	0	945815552	73	4156
2026-01-03 05:25:22.38	322.61	15.54	-53.6	-54.8	15.4	0.00e+00	0	31	0	947912704	73	4126
2026-01-03 05:25:23.38	322.45	15.47	-53.6	-54.8	15.4	0.00e+00	0	31	0	948961280	73	4121
2026-01-03 05:25:24.38	322.28	15.40	-53.4	-54.6	15.5	0.00e+00	0	31	0	951058432	73	4030
2026-01-03 05:25:25.38	322.12	15.33	-53.4	-54.6	15.4	0.00e+00	0	31	0	953155584	73	4050
2026-01-03 05:25:26.38	321.96	15.26	-53.4	-54.7	15.4	0.00e+00	0	31	0	955252736	73	4061
2026-01-03 05:25:27.38	321.80	15.19	-53.5	-54.7	15.4	0.00e+00	0	31	0	956301312	73	4089
2026-01-03 05:25:28.38	321.63	15.12	-53.4	-54.7	15.4	0.00e+00	0	31	0	958398464	73	4060
2026-01-03 05:25:29.38	321.47	15.05	-53.5	-54.8	15.3	0.00e+00	0	31	0	960495616	73	4116
2026-01-03 05:25:30.38	321.32	14.98	-53.6	-54.9	15.3	0.00e+00	0	31	0	962592768	73	4149
2026-01-03 05:25:31.38	321.16	14.91	-53.6	-54.9	15.3	0.00e+00	0	31	0	964689920	73	4153
2026-01-03 05:25:32.37	321.00	14.84	-53.6	-54.9	15.3	0.00e+00	0	31	0	965738496	73	4154
2026-01-03 05:25:33.37	320.84	14.77	-53.6	-54.8	15.3	0.00e+00	0	31	0	967835648	73	4145
2026-01-03 05:25:34.37	320.69	14.70	-53.6	-54.9	15.3	0.00e+00	0	31	0	969932800	73	4153
2026-01-03 05:25:35.37	320.53	14.63	-53.5	-54.7	15.4	0.00e+00	0	31	0	972029952	73	4083
2026-01-03 05:25:36.37	320.38	14.56	-53.5	-54.8	15.4	0.00e+00	0	31	0	974127104	73	4109
2026-01-03 05:25:37.37	320.22	14.49	-53.4	-54.7	15.4	0.00e+00	0	31	0	975175680	73	4055
2026-01-03 05:25:38.37	320.07	14.42	-53.5	-54.8	15.3	0.00e+00	0	31	0	977272832	73	4112
2026-01-03 05:25:39.37	319.92	14.34	-53.5	-54.8	15.3	0.00e+00	0	31	0	979369984	73	4117
2026-01-03 05:25:40.37	319.77	14.27	-53.6	-54.8	15.3	0.00e+00	0	31	0	981467136	73	4142
2026-01-03 05:25:41.37	319.61	14.20	-53.5	-54.8	15.3	0.00e+00	0	31	0	983564288	73	4123
2026-01-03 05:25:42.37	319.46	14.13	-53.5	-54.8	15.3	0.00e+00	0	31	0	984612864	73	4110
2026-01-03 05:25:43.37	319.31	14.06	-53.5	-54.8	15.3	0.00e+00	0	31	0	986710016	73	4134
2026-01-03 05:25:44.36	319.17	13.99	-53.6	-54.8	15.3	0.00e+00	0	31	0	988807168	73	4129
2026-01-03 05:25:45.36	319.02	13.92	-53.6	-54.9	15.3	0.00e+00	0	31	0	990904320	73	4151
2026-01-03 05:25:46.37	318.87	13.85	-53.7	-55.0	15.2	0.00e+00	0	31	0	991952896	73	4218
2026-01-03 05:25:47.37	318.72	13.78	-53.7	-55.1	15.2	0.00e+00	0	31	0	994050048	73	4244
2026-01-03 05:25:48.37	318.58	13.71	-53.7	-55.0	15.2	0.00e+00	0	31	0	996147200	73	4237
2026-01-03 05:25:49.37	318.43	13.64	-53.8	-55.1	15.2	0.00e+00	0	31	0	998244352	73	4259
2026-01-03 05:25:50.36	318.29	13.57	-53.9	-55.2	15.2	0.00e+00	0	31	0	1000341504	73	4325
2026-01-03 05:25:51.35	318.15	13.50	-53.9	-55.2	15.1	0.00e+00	0	31	0	1001390080	73	4336
2026-01-03 05:25:52.35	318.00	13.43	-54.0	-55.4	15.1	0.00e+00	0	31	0	1003487232	73	4411
2026-01-03 05:25:53.35	317.86	13.36	-54.0	-55.4	15.1	0.00e+00	0	31	0	1005584384	73	4440
2026-01-03 05:25:54.34	317.72	13.29	-54.2	-55.6	15.0	0.00e+00	0	31	0	1007681536	73	4512
2026-01-03 05:25:55.35	317.58	13.22	-54.2	-55.7	15.0	0.00e+00	0	31	0	1008730112	73	4558
2026-01-03 05:25:56.35	317.44	13.15	-54.2	-55.7	15.0	0.00e+00	0	31	0	1010827264	73	4551
2026-01-03 05:25:57.35	317.30	13.08	-54.2	-55.7	15.0	0.00e+00	0	31	0	1012924416	73	4582
2026-01-03 05:25:58.35	317.16	13.01	-54.2	-55.7	15.0	0.00e+00	0	31	0	1015021568	73	4555
2026-01-03 05:25:59.35	317.02	12.94	-54.3	-55.7	14.9	0.00e+00	0	31	0	1017118720	73	4597
2026-01-03 05:26:00.35	316.88	12.87	-54.2	-55.6	15.0	0.00e+00	0	31	0	1018167296	73	4531
2026-01-03 05:26:01.35	316.74	12.80	-54.1	-55.5	15.1	0.00e+00	0	31	0	1020264448	73	4452
2026-01-03 05:26:02.34	316.61	12.74	-54.1	-55.5	15.0	0.00e+00	0	31	0	1022361600	73	4483
2026-01-03 05:26:03.35	316.47	12.67	-54.1	-55.5	15.1	0.00e+00	0	31	0	1024458752	73	4459
2026-01-03 05:26:04.35	316.34	12.60	-54.1	-55.5	15.0	0.00e+00	0	31	0	1026555904	73	4471
2026-01-03 05:26:05.35	316.20	12.53	-54.1	-55.6	15.0	0.00e+00	0	31	0	1027604480	73	4500
2026-01-03 05:26:06.35	316.07	12.46	-54.1	-55.5	15.0	0.00e+00	0	31	0	1029701632	73	4482
2026-01-03 05:26:07.34	315.94	12.39	-54.1	-55.6	15.0	0.00e+00	0	31	0	1031798784	73	4496
2026-01-03 05:26:08.34	315.80	12.32	-54.2	-55.6	15.0	0.00e+00	0	31	0	1033895936	73	4539
2026-01-03 05:26:09.33	315.67	12.25	-54.2	-55.7	14.9	0.00e+00	0	31	0	1034944512	73	4570
2026-01-03 05:26:10.33	315.54	12.18	-54.3	-55.8	14.9	0.00e+00	0	31	0	1037041664	73	4649
2026-01-03 05:26:11.32	315.41	12.11	-54.4	-56.0	14.9	0.00e+00	0	31	0	1039138816	74	4451
2026-01-03 05:26:12.32	315.28	12.04	-54.4	-55.9	14.9	0.00e+00	0	31	0	1041235968	74	4423
2026-01-03 05:26:13.32	315.15	11.97	-54.4	-55.9	14.9	0.00e+00	0	31	0	1043333120	74	4424
2026-01-03 05:26:14.32	315.02	11.90	-54.4	-56.0	14.9	0.00e+00	0	31	0	1044381696	74	4456
2026-01-03 05:26:15.32	314.90	11.83	-54.5	-56.1	14.8	0.00e+00	0	31	0	1046478848	74	4519
2026-01-03 05:26:16.32	314.77	11.77	-54.5	-56.1	14.8	0.00e+00	0	31	0	1048576000	74	4518
2026-01-03 05:26:17.32	314.64	11.70	-54.5	-56.0	14.9	0.00e+00	0	31	0	1050673152	74	4491
2026-01-03 05:26:18.31	314.52	11.63	-54.6	-56.2	14.8	0.00e+00	0	31	0	1051721728	74	4549
2026-01-03 05:26:19.31	314.39	11.56	-54.5	-56.1	14.8	0.00e+00	0	31	0	1053818880	74	4526
2026-01-03 05:26:20.31	314.27	11.49	-54.6	-56.2	14.8	0.00e+00	0	31	0	1055916032	74	4546
2026-01-03 05:26:21.31	314.14	11.42	-54.6	-56.2	14.8	0.00e+00	0	31	0	1058013184	74	4562
2026-01-03 05:26:22.30	314.02	11.35	-54.6	-56.2	14.7	0.00e+00	0	31	0	1060110336	74	4592
2026-01-03 05:26:23.30	313.89	11.28	-54.6	-56.2	14.8	0.00e+00	0	31	0	1061158912	74	4585
2026-01-03 05:26:24.30	313.77	11.22	-54.6	-56.2	14.8	0.00e+00	0	31	0	1063256064	74	4577
2026-01-03 05:26:25.31	313.65	11.15	-54.6	-56.2	14.8	0.00e+00	0	31	0	1065353216	74	4555
2026-01-03 05:26:26.30	313.53	11.08	-54.5	-56.1	14.8	0.00e+00	0	31	0	1067450368	74	4513
2026-01-03 05:26:27.30	313.41	11.01	-54.6	-56.2	14.8	0.00e+00	0	31	0	1069547520	74	4554
2026-01-03 05:26:28.29	313.29	10.94	-54.6	-56.1	14.8	0.00e+00	0	31	0	1070596096	74	4541
2026-01-03 05:26:29.28	313.17	10.87	-54.6	-56.2	14.7	0.00e+00	0	31	0	1072693248	74	4577
2026-01-03 05:26:30.28	313.05	10.81	-54.8	-56.4	14.6	0.00e+00	0	31	0	1074790400	74	4671
2026-01-03 05:26:31.28	312.93	10.74	-54.7	-56.4	14.6	0.00e+00	0	31	0	1076887552	74	4678
2026-01-03 05:26:32.28	312.81	10.67	-54.9	-56.5	14.5	0.00e+00	0	31	0	1078984704	74	4751
2026-01-03 05:26:33.28	312.69	10.60	-54.9	-56.6	14.6	0.00e+00	0	31	0	1080033280	75	4523
2026-01-03 05:26:34.28	312.58	10.53	-55.0	-56.7	14.6	0.00e+00	0	31	0	1082130432	75	4565
2026-01-03 05:26:35.28	312.46	10.47	-55.0	-56.8	14.5	0.00e+00	0	31	0	1084227584	75	4621
2026-01-03 05:26:36.28	312.35	10.40	-55.0	-56.8	14.5	0.00e+00	0	31	0	1086324736	75	4619
2026-01-03 05:26:37.27	312.23	10.33	-55.1	-56.9	14.5	0.00e+00	0	31	0	1087373312	75	4656
2026-01-03 05:26:38.28	312.12	10.26	-55.1	-56.9	14.4	0.00e+00	0	31	0	1089470464	75	4662
2026-01-03 05:26:39.28	312.00	10.19	-55.1	-56.9	14.4	0.00e+00	0	31	0	1091567616	75	4691
2026-01-03 05:26:40.28	311.89	10.13	-55.1	-56.9	14.5	0.00e+00	0	31	0	1093664768	75	4668
2026-01-03 05:26:41.28	311.77	10.06	-55.1	-56.9	14.4	0.00e+00	0	31	0	1095761920	75	4692
2026-01-03 05:26:42.28	311.66	9.99	-55.1	-56.8	14.5	0.00e+00	0	31	0	1096810496	75	4636
2026-01-03 05:26:43.29	311.55	9.92	-54.9	-56.7	14.6	0.00e+00	0	31	0	1098907648	75	4565
2026-01-03 05:26:44.28	311.44	9.86	-55.0	-56.7	14.5	0.00e+00	0	31	0	1101004800	75	4581
2026-01-03 05:26:45.28	311.33	9.79	-54.9	-56.6	14.6	0.00e+00	0	31	0	1103101952	75	4543
2026-01-03 05:26:46.28	311.22	9.72	-55.0	-56.8	14.5	0.00e+00	0	31	0	1105199104	75	4601
2026-01-03 05:26:47.28	311.11	9.66	-55.0	-56.7	14.5	0.00e+00	0	31	0	1106247680	75	4595
2026-01-03 05:26:48.29	310.99	9.59	-55.0	-56.8	14.5	0.00e+00	0	31	0	1108344832	75	4607
2026-01-03 05:26:49.29	310.89	9.52	-55.0	-56.8	14.4	0.00e+00	0	31	0	1110441984	75	4639
2026-01-03 05:26:50.29	310.78	9.45	-55.0	-56.8	14.5	0.00e+00	0	31	0	1112539136	75	4615
2026-01-03 05:26:51.29	310.67	9.39	-55.1	-56.9	14.4	0.00e+00	0	31	0	1113587712	75	4675
2026-01-03 05:26:52.29	310.56	9.32	-55.2	-57.1	14.3	0.00e+00	0	31	0	1115684864	75	4762
2026-01-03 05:26:53.29	310.45	9.25	-55.3	-57.1	14.3	0.00e+00	0	31	0	1117782016	75	4809
2026-01-03 05:26:54.29	310.35	9.19	-55.3	-57.2	14.2	0.00e+00	0	31	0	1119879168	75	4848
2026-01-03 05:26:55.28	310.24	9.12	-55.4	-57.3	14.2	0.00e+00	0	31	0	1121976320	75	4888
2026-01-03 05:26:56.28	310.14	9.06	-55.5	-57.5	14.2	0.00e+00	0	31	0	1123024896	76	4722
2026-01-03 05:26:57.29	310.03	8.99	-55.6	-57.6	14.1	0.00e+00	0	31	0	1125122048	76	4790
2026-01-03 05:26:58.29	309.93	8.92	-55.6	-57.6	14.1	0.00e+00	0	31	0	1127219200	76	4794
2026-01-03 05:26:59.29	309.82	8.86	-55.6	-57.6	14.1	0.00e+00	0	31	0	1129316352	76	4792
2026-01-03 05:27:00.29	309.72	8.79	-55.6	-57.7	14.1	0.00e+00	0	31	0	1131413504	76	4820
2026-01-03 05:27:01.29	309.62	8.73	-55.7	-57.7	14.1	0.00e+00	0	31	0	1132462080	76	4839
2026-01-03 05:27:02.30	309.51	8.66	-55.7	-57.7	14.1	0.00e+00	0	31	0	1134559232	76	4849
2026-01-03 05:27:03.30	309.41	8.59	-55.7	-57.7	14.1	0.00e+00	0	31	0	1136656384	76	4864
2026-01-03 05:27:04.30	309.31	8.53	-55.7	-57.7	14.1	0.00e+00	0	31	0	1138753536	76	4863
2026-01-03 05:27:05.30	309.21	8.46	-55.8	-57.9	14.0	0.00e+00	0	31	0	1140850688	76	4951
2026-01-03 05:27:06.30	309.11	8.40	-55.8	-57.9	13.9	0.00e+00	0	31	0	1141899264	76	4983
2026-01-03 05:27:07.30	309.01	8.33	-55.9	-58.0	13.9	0.00e+00	0	31	0	1143996416	76	5036
2026-01-03 05:27:08.31	308.91	8.26	-55.9	-58.0	13.9	0.00e+00	0	31	0	1146093568	77	4745
2026-01-03 05:27:09.30	308.81	8.20	-55.9	-58.1	13.9	0.00e+00	0	31	0	1148190720	77	4795
2026-01-03 05:27:10.31	308.71	8.13	-55.9	-58.1	13.9	0.00e+00	0	31	0	1150287872	77	4776
2026-01-03 05:27:11.32	308.61	8.07	-56.0	-58.2	13.8	0.00e+00	0	31	0	1151336448	77	4868
2026-01-03 05:27:12.52	308.49	7.99	-56.0	-58.3	13.8	0.00e+00	0	31	0	1153433600	77	4876
2026-01-03 05:27:13.38	308.41	7.93	-56.1	-58.4	13.7	0.00e+00	0	31	0	1155530752	77	4942
2026-01-03 05:27:14.51	308.30	7.86	-56.0	-58.3	13.7	0.00e+00	0	31	0	1157627904	77	4914
2026-01-03 05:27:15.37	308.22	7.81	-56.1	-58.4	13.7	0.00e+00	0	31	0	1158676480	77	4979
2026-01-03 05:27:16.51	308.11	7.73	-56.0	-58.3	13.7	0.00e+00	0	31	0	1160773632	77	4899
2026-01-03 05:27:17.37	308.02	7.68	-56.0	-58.2	13.8	0.00e+00	0	31	0	1162870784	77	4864
2026-01-03 05:27:18.50	307.92	7.60	-56.0	-58.2	13.8	0.00e+00	0	31	0	1164967936	77	4869
2026-01-03 05:27:19.36	307.83	7.55	-56.0	-58.2	13.8	0.00e+00	0	31	0	1166016512	77	4845
2026-01-03 05:27:20.49	307.73	7.48	-56.0	-58.3	13.7	0.00e+00	0	31	0	1168113664	77	4899
2026-01-03 05:27:21.35	307.65	7.42	-56.1	-58.4	13.7	0.00e+00	0	31	0	1170210816	77	4960
2026-01-03 05:27:22.49	307.54	7.35	-56.0	-58.3	13.7	0.00e+00	0	31	0	1172307968	77	4872
2026-01-03 05:27:23.34	307.46	7.29	-55.9	-58.2	13.8	0.00e+00	0	31	0	1173356544	77	4818
2026-01-03 05:27:24.48	307.36	7.22	-55.9	-58.1	13.8	0.00e+00	0	31	0	1176502272	77	4796
2026-01-03 05:27:25.34	307.28	7.17	-55.9	-58.2	13.8	0.00e+00	0	31	0	1177550848	77	4830
2026-01-03 05:27:26.48	307.17	7.09	-56.0	-58.3	13.7	0.00e+00	0	31	0	1179648000	77	4872
2026-01-03 05:27:27.34	307.09	7.04	-56.0	-58.3	13.7	0.00e+00	0	31	0	1181745152	77	4893
2026-01-03 05:27:28.48	306.99	6.97	-56.1	-58.5	13.6	0.00e+00	0	31	0	1183842304	77	5002
2026-01-03 05:27:29.34	306.91	6.91	-56.1	-58.5	13.6	0.00e+00	0	31	0	1184890880	77	5013
2026-01-03 05:27:30.47	306.81	6.84	-56.2	-58.6	13.5	0.00e+00	0	31	0	1186988032	77	5074
2026-01-03 05:27:31.33	306.73	6.78	-56.3	-58.7	13.5	0.00e+00	0	31	0	1189085184	77	5132
2026-01-03 05:27:32.47	306.63	6.71	-56.3	-58.8	13.4	0.00e+00	0	31	0	1191182336	77	5184
2026-01-03 05:27:33.33	306.55	6.66	-56.2	-58.6	13.4	0.00e+00	0	31	0	1192230912	77	5100
2026-01-03 05:27:34.47	306.45	6.59	-56.2	-58.6	13.5	0.00e+00	0	31	0	1194328064	77	5079
2026-01-03 05:27:35.32	306.38	6.53	-56.3	-58.8	13.4	0.00e+00	0	31	0	1196425216	77	5193
2026-01-03 05:27:36.47	306.28	6.46	-56.5	-59.1	13.3	0.00e+00	0	31	0	1198522368	78	5066
2026-01-03 05:27:37.33	306.20	6.41	-56.3	-58.8	13.4	0.00e+00	0	31	0	1199570944	78	4904
2026-01-03 05:27:38.48	306.10	6.33	-56.4	-58.9	13.3	0.00e+00	0	31	0	1202716672	78	4969
2026-01-03 05:27:39.34	306.03	6.28	-56.4	-58.9	13.4	0.00e+00	0	31	0	1203765248	78	4936
2026-01-03 05:27:40.48	305.93	6.21	-56.4	-58.9	13.3	0.00e+00	0	31	0	1205862400	78	4954
2026-01-03 05:27:41.34	305.86	6.16	-56.3	-58.8	13.4	0.00e+00	0	31	0	1207959552	78	4894
2026-01-03 05:27:42.48	305.76	6.08	-56.4	-59.0	13.2	0.00e+00	0	31	0	1210056704	78	5023
2026-01-03 05:27:43.34	305.69	6.03	-56.4	-59.0	13.2	0.00e+00	0	31	0	1211105280	78	5031
2026-01-03 05:27:44.48	305.59	5.96	-56.4	-59.0	13.2	0.00e+00	0	31	0	1213202432	78	5035
