passes_logs/2026/01/03/R3.2S_Murmansk/R3.2S_Murmansk__20260103_113449_SUOMI_NPP_rec.log

#Pass ID: 20260103_113449_SUOMI NPP
#Satellite: SUOMI NPP
#Configuration: NPP
#almurnet v.1.7.20251203
#Start time: 2026-01-03 11:34:50

#Version: 2.2.20231116
#Station: R3.2S_Murmansk
#Location: 33.079688 lon 68.888172 lat
#TLE: 1 37849U 11061A   26001.07732418  .00000182  00000+0  10735-3 0  9990
#TLE: 2 37849  98.7795 303.2470 0002580  87.2016 272.9455 14.19520779734739

#Time	Az	El	Level	Level2	SNR	BER	BlckErr	Temp	State	Recorded	gain1	gain2
2026-01-03 11:34:50.51	201.47	2.04	-59.8	-75.4	3.8	1.49e+00	0	28	0	0	86	20878
2026-01-03 11:34:51.52	201.53	2.10	-59.8	-75.3	3.8	1.49e+00	0	28	104	0	84	23194
2026-01-03 11:34:52.51	201.59	2.16	-59.8	-75.3	3.8	1.49e+00	0	28	104	0	84	23275
2026-01-03 11:34:53.50	201.65	2.22	-59.8	-75.3	3.8	1.49e+00	0	28	104	0	84	23181
2026-01-03 11:34:54.49	201.71	2.28	-59.8	-75.3	3.8	1.49e+00	0	28	104	0	84	23188
2026-01-03 11:34:55.49	201.77	2.33	-59.8	-75.3	3.8	1.49e+00	0	28	104	0	84	23137
2026-01-03 11:34:56.48	201.83	2.39	-59.8	-75.3	3.8	1.49e+00	0	28	104	0	84	23149
2026-01-03 11:34:57.48	201.89	2.45	-59.8	-75.3	3.8	1.49e+00	0	28	104	0	84	23206
2026-01-03 11:34:58.48	201.95	2.51	-59.8	-75.3	3.8	1.49e+00	0	28	104	0	84	23228
2026-01-03 11:34:59.48	202.01	2.57	-59.8	-75.3	3.8	1.49e+00	0	28	104	0	84	23226
2026-01-03 11:35:00.47	202.07	2.63	-59.8	-75.3	3.8	1.49e+00	0	28	104	0	84	23181
2026-01-03 11:35:01.47	202.13	2.69	-59.8	-75.3	3.8	1.49e+00	0	28	104	0	84	23190
2026-01-03 11:35:02.45	202.19	2.74	-59.8	-75.3	3.8	1.49e+00	0	28	104	0	84	23225
2026-01-03 11:35:03.45	202.26	2.80	-59.8	-75.3	3.8	1.49e+00	0	28	104	0	84	23239
2026-01-03 11:35:04.44	202.32	2.86	-59.8	-75.3	3.8	1.49e+00	0	28	104	0	84	23249
2026-01-03 11:35:05.43	202.38	2.92	-59.8	-75.3	3.8	1.49e+00	0	28	104	0	84	23213
2026-01-03 11:35:06.42	202.44	2.98	-59.8	-75.3	3.8	1.49e+00	0	28	104	0	84	23228
2026-01-03 11:35:07.42	202.51	3.04	-59.8	-75.3	3.8	1.49e+00	0	28	104	0	84	23204
2026-01-03 11:35:08.42	202.57	3.10	-59.8	-75.3	3.8	1.49e+00	0	28	104	0	84	23122
2026-01-03 11:35:09.42	202.63	3.16	-59.8	-75.2	3.8	1.49e+00	0	28	104	0	84	23035
2026-01-03 11:35:10.41	202.70	3.22	-59.8	-75.2	3.8	1.49e+00	0	29	104	0	84	22927
2026-01-03 11:35:11.39	202.76	3.28	-59.8	-75.2	3.8	1.49e+00	0	28	104	0	84	22920
2026-01-03 11:35:12.38	202.82	3.34	-59.8	-75.2	3.8	1.49e+00	0	28	104	0	84	22933
2026-01-03 11:35:13.38	202.89	3.40	-59.8	-75.3	3.8	1.49e+00	0	28	104	0	84	23069
2026-01-03 11:35:14.38	202.95	3.46	-59.8	-75.3	3.8	1.49e+00	0	29	104	0	84	23051
2026-01-03 11:35:15.38	203.02	3.52	-59.8	-75.2	3.8	1.49e+00	0	28	104	0	84	22960
2026-01-03 11:35:16.38	203.08	3.58	-59.8	-75.2	3.8	1.49e+00	0	29	104	0	84	22949
2026-01-03 11:35:17.37	203.15	3.64	-59.8	-75.1	3.8	1.49e+00	0	28	104	0	84	22606
2026-01-03 11:35:18.37	203.21	3.70	-59.8	-75.1	3.8	1.49e+00	0	29	104	0	84	22633
2026-01-03 11:35:19.37	203.28	3.76	-59.8	-75.1	3.8	1.49e+00	0	29	104	0	84	22693
2026-01-03 11:35:20.37	203.34	3.82	-59.8	-75.2	3.8	1.49e+00	0	29	104	0	84	22890
2026-01-03 11:35:21.37	203.41	3.88	-59.8	-75.3	3.8	1.49e+00	0	29	104	0	84	23181
2026-01-03 11:35:22.36	203.48	3.94	-59.8	-75.4	3.8	1.49e+00	0	29	104	0	84	23321
2026-01-03 11:35:23.36	203.54	4.01	-59.8	-75.2	3.8	1.49e+00	0	29	104	0	84	22935
2026-01-03 11:35:24.36	203.61	4.07	-59.8	-74.8	3.8	1.49e+00	0	29	104	0	84	21763
2026-01-03 11:35:25.35	203.68	4.13	-59.7	-74.2	3.8	1.49e+00	0	29	104	0	84	20372
2026-01-03 11:35:26.35	203.75	4.19	-59.7	-73.4	3.8	1.49e+00	0	29	104	0	84	18721
2026-01-03 11:35:27.35	203.81	4.25	-59.7	-72.4	4.1	1.47e+00	0	29	0	0	84	16667
2026-01-03 11:35:28.34	203.88	4.31	-59.6	-71.7	4.2	1.39e+00	0	29	0	0	84	15255
2026-01-03 11:35:29.33	203.95	4.37	-59.6	-71.2	4.4	1.34e+00	70	29	0	0	84	14540
2026-01-03 11:35:30.33	204.02	4.44	-59.5	-70.8	4.5	1.17e+00	0	29	0	2097152	84	13733
2026-01-03 11:35:31.30	204.09	4.50	-59.5	-70.3	4.7	9.51e-01	0	29	0	4194304	84	12961
2026-01-03 11:35:32.30	204.16	4.56	-59.4	-69.5	5.0	7.41e-01	0	29	0	5242880	84	11897
2026-01-03 11:35:33.29	204.22	4.62	-59.3	-68.2	5.9	4.84e-01	0	29	0	7340032	84	10228
2026-01-03 11:35:34.29	204.29	4.68	-59.1	-67.1	6.5	2.33e-01	0	29	0	9437184	84	9034
2026-01-03 11:35:35.29	204.37	4.75	-58.9	-65.8	7.7	7.85e-02	0	29	0	11534336	84	7759
2026-01-03 11:35:36.28	204.44	4.81	-58.4	-64.5	8.7	2.56e-02	0	29	0	12582912	83	7057
2026-01-03 11:35:37.29	204.51	4.87	-58.1	-63.4	9.5	8.56e-03	0	29	0	14680064	82	6596
2026-01-03 11:35:38.28	204.58	4.93	-57.9	-62.7	10.2	1.96e-03	0	29	0	16777216	82	6080
2026-01-03 11:35:39.27	204.65	5.00	-57.8	-62.4	10.5	7.51e-04	0	29	0	18874368	82	5861
2026-01-03 11:35:40.27	204.72	5.06	-57.8	-62.5	10.3	3.87e-04	0	29	0	20971520	81	6326
2026-01-03 11:35:41.25	204.79	5.12	-59.3	-69.4	5.0	2.63e-01	0	29	0	22020096	83	12377
2026-01-03 11:35:42.25	204.86	5.19	-59.6	-71.8	3.9	1.49e+00	0	29	104	23068672	84	15470
2026-01-03 11:35:43.25	204.94	5.25	-56.5	-59.4	12.6	0.00e+00	0	29	0	24117248	79	4962
2026-01-03 11:35:44.24	205.01	5.31	-57.5	-61.6	11.0	3.97e-04	0	29	0	25165824	81	5674
2026-01-03 11:35:45.23	205.08	5.38	-56.7	-60.0	12.1	0.00e+00	0	29	0	27262976	78	5604
2026-01-03 11:35:46.23	205.15	5.44	-55.8	-58.3	13.2	0.00e+00	0	29	0	29360128	78	4604
2026-01-03 11:35:47.22	205.23	5.50	-55.9	-58.4	13.2	7.00e-07	0	29	0	31457280	78	4688
2026-01-03 11:35:48.22	205.30	5.57	-55.9	-58.5	13.1	0.00e+00	0	29	0	33554432	78	4710
2026-01-03 11:35:49.21	205.37	5.63	-56.0	-58.6	13.1	0.00e+00	0	29	0	34603008	78	4780
2026-01-03 11:35:50.20	205.45	5.69	-56.0	-58.6	13.1	0.00e+00	0	29	0	36700160	78	4796
2026-01-03 11:35:51.19	205.52	5.76	-56.0	-58.6	13.0	0.00e+00	0	29	0	38797312	78	4805
2026-01-03 11:35:52.19	205.60	5.82	-56.0	-58.5	13.1	0.00e+00	0	29	0	40894464	78	4742
2026-01-03 11:35:53.19	205.67	5.89	-55.9	-58.4	13.2	0.00e+00	0	29	0	41943040	78	4682
2026-01-03 11:35:54.18	205.75	5.95	-55.9	-58.4	13.2	0.00e+00	0	29	0	44040192	78	4675
2026-01-03 11:35:55.17	205.83	6.02	-56.0	-58.5	13.1	0.00e+00	0	29	0	46137344	78	4725
2026-01-03 11:35:56.16	205.90	6.08	-56.0	-58.6	13.1	0.00e+00	0	29	0	48234496	78	4766
2026-01-03 11:35:57.16	205.98	6.15	-55.8	-58.2	13.3	0.00e+00	0	29	0	50331648	78	4592
2026-01-03 11:35:58.14	206.05	6.21	-55.7	-58.1	13.4	0.00e+00	0	29	0	51380224	78	4531
2026-01-03 11:35:59.14	206.13	6.28	-55.7	-58.0	13.4	0.00e+00	0	29	0	53477376	77	4721
2026-01-03 11:36:00.13	206.21	6.34	-55.9	-58.4	13.1	0.00e+00	0	29	0	55574528	77	4972
2026-01-03 11:36:01.13	206.29	6.41	-55.9	-58.4	13.2	0.00e+00	0	29	0	57671680	77	4962
2026-01-03 11:36:02.12	206.37	6.47	-55.8	-58.2	13.3	0.00e+00	0	29	0	58720256	77	4835
2026-01-03 11:36:03.11	206.44	6.54	-55.8	-58.2	13.4	0.00e+00	0	29	0	60817408	77	4824
2026-01-03 11:36:04.11	206.52	6.60	-55.7	-58.0	13.4	0.00e+00	0	29	0	62914560	77	4751
2026-01-03 11:36:05.11	206.60	6.67	-55.6	-57.9	13.5	0.00e+00	0	29	0	65011712	77	4666
2026-01-03 11:36:06.09	206.68	6.73	-55.6	-57.8	13.5	0.00e+00	0	29	0	67108864	77	4646
2026-01-03 11:36:07.09	206.76	6.80	-55.5	-57.7	13.6	0.00e+00	0	29	0	68157440	77	4590
2026-01-03 11:36:08.08	206.84	6.87	-55.6	-57.8	13.6	0.00e+00	0	29	0	70254592	77	4626
2026-01-03 11:36:09.08	206.92	6.93	-55.4	-57.6	13.7	0.00e+00	0	29	0	72351744	77	4502
2026-01-03 11:36:10.08	207.00	7.00	-55.3	-57.4	13.8	0.00e+00	0	29	0	74448896	77	4408
2026-01-03 11:36:11.07	207.08	7.07	-55.2	-57.2	13.8	0.00e+00	0	29	0	75497472	76	4594
2026-01-03 11:36:12.07	207.17	7.13	-55.2	-57.2	13.8	0.00e+00	0	29	0	77594624	76	4589
2026-01-03 11:36:13.07	207.25	7.20	-55.2	-57.2	13.8	0.00e+00	0	29	0	79691776	76	4593
2026-01-03 11:36:14.06	207.33	7.27	-55.2	-57.2	13.9	0.00e+00	0	29	0	81788928	76	4550
2026-01-03 11:36:15.06	207.41	7.34	-55.2	-57.2	13.9	0.00e+00	0	29	0	83886080	76	4547
2026-01-03 11:36:16.06	207.50	7.40	-54.9	-56.9	14.0	0.00e+00	0	29	0	84934656	76	4398
2026-01-03 11:36:17.05	207.58	7.47	-55.0	-57.0	14.0	0.00e+00	0	29	0	87031808	76	4453
2026-01-03 11:36:18.05	207.67	7.54	-54.8	-56.6	14.2	0.00e+00	0	29	0	89128960	76	4260
2026-01-03 11:36:19.04	207.75	7.61	-54.8	-56.7	14.2	0.00e+00	0	29	0	91226112	76	4293
2026-01-03 11:36:20.03	207.83	7.67	-54.8	-56.7	14.1	0.00e+00	0	29	0	92274688	76	4309
2026-01-03 11:36:21.02	207.92	7.74	-54.6	-56.3	14.2	0.00e+00	0	29	0	94371840	75	4389
2026-01-03 11:36:22.02	208.00	7.81	-54.6	-56.4	14.2	0.00e+00	0	29	0	96468992	75	4396
2026-01-03 11:36:23.02	208.09	7.88	-54.7	-56.5	14.1	0.00e+00	0	29	0	98566144	75	4471
2026-01-03 11:36:24.01	208.18	7.95	-54.6	-56.4	14.2	0.00e+00	0	29	0	100663296	75	4393
2026-01-03 11:36:25.01	208.26	8.01	-54.6	-56.4	14.2	0.00e+00	0	29	0	101711872	75	4395
2026-01-03 11:36:26.00	208.35	8.08	-54.5	-56.3	14.3	0.00e+00	0	29	0	103809024	75	4344
2026-01-03 11:36:27.00	208.44	8.15	-54.6	-56.4	14.2	0.00e+00	0	29	0	105906176	75	4392
2026-01-03 11:36:27.99	208.52	8.22	-54.5	-56.3	14.3	0.00e+00	0	29	0	108003328	75	4341
2026-01-03 11:36:28.98	208.61	8.29	-54.6	-56.3	14.3	0.00e+00	0	29	0	109051904	75	4364
2026-01-03 11:36:29.99	208.70	8.36	-54.5	-56.3	14.3	0.00e+00	0	29	0	111149056	75	4343
2026-01-03 11:36:30.98	208.79	8.43	-54.5	-56.2	14.3	0.00e+00	0	29	0	113246208	75	4325
2026-01-03 11:36:31.97	208.88	8.50	-54.4	-56.1	14.3	0.00e+00	0	29	0	115343360	75	4282
2026-01-03 11:36:32.97	208.97	8.57	-54.3	-56.0	14.4	0.00e+00	0	29	0	117440512	75	4213
2026-01-03 11:36:33.97	209.06	8.64	-54.2	-55.8	14.4	0.00e+00	0	29	0	118489088	74	4365
2026-01-03 11:36:34.96	209.15	8.71	-54.1	-55.7	14.5	0.00e+00	0	29	0	120586240	74	4319
2026-01-03 11:36:35.95	209.24	8.78	-54.1	-55.7	14.5	0.00e+00	0	29	0	122683392	74	4305
2026-01-03 11:36:36.94	209.33	8.85	-54.2	-55.8	14.5	0.00e+00	0	30	0	124780544	74	4363
2026-01-03 11:36:37.94	209.42	8.92	-54.3	-56.0	14.4	0.00e+00	0	30	0	125829120	74	4447
2026-01-03 11:36:38.94	209.52	8.99	-54.3	-55.9	14.4	0.00e+00	0	29	0	127926272	74	4440
2026-01-03 11:36:39.93	209.61	9.06	-54.2	-55.8	14.4	0.00e+00	0	30	0	130023424	74	4382
2026-01-03 11:36:40.94	209.70	9.13	-54.2	-55.9	14.4	0.00e+00	0	30	0	132120576	74	4396
2026-01-03 11:36:41.94	209.80	9.20	-54.3	-56.0	14.3	0.00e+00	0	30	0	134217728	74	4459
2026-01-03 11:36:42.93	209.89	9.27	-54.3	-56.0	14.4	0.00e+00	0	30	0	135266304	74	4446
2026-01-03 11:36:43.93	209.99	9.34	-54.5	-56.2	14.3	0.00e+00	0	30	0	137363456	74	4558
2026-01-03 11:36:44.93	210.08	9.41	-54.6	-56.3	14.2	0.00e+00	0	29	0	139460608	74	4619
2026-01-03 11:36:45.91	210.17	9.48	-54.5	-56.2	14.3	0.00e+00	0	29	0	141557760	74	4564
2026-01-03 11:36:46.90	210.27	9.56	-54.5	-56.2	14.3	0.00e+00	0	29	0	142606336	74	4561
2026-01-03 11:36:47.89	210.37	9.63	-54.6	-56.3	14.2	0.00e+00	0	29	0	144703488	74	4624
2026-01-03 11:36:48.89	210.46	9.70	-54.5	-56.2	14.3	0.00e+00	0	29	0	146800640	74	4569
2026-01-03 11:36:49.88	210.56	9.77	-54.3	-56.0	14.3	0.00e+00	0	30	0	148897792	74	4450
2026-01-03 11:36:50.88	210.66	9.84	-54.5	-56.2	14.3	0.00e+00	0	30	0	150994944	74	4549
2026-01-03 11:36:51.87	210.76	9.91	-54.4	-56.0	14.4	0.00e+00	0	29	0	152043520	74	4483
2026-01-03 11:36:52.86	210.85	9.99	-54.3	-55.9	14.4	0.00e+00	0	30	0	154140672	74	4402
2026-01-03 11:36:53.85	210.95	10.06	-54.3	-56.0	14.4	0.00e+00	0	30	0	156237824	74	4456
2026-01-03 11:36:54.84	211.05	10.13	-54.2	-55.8	14.5	0.00e+00	0	30	0	158334976	74	4346
2026-01-03 11:36:55.83	211.15	10.20	-54.1	-55.7	14.5	0.00e+00	0	30	0	159383552	74	4322
2026-01-03 11:36:56.82	211.25	10.28	-54.0	-55.5	14.6	0.00e+00	0	30	0	161480704	74	4220
2026-01-03 11:36:57.83	211.35	10.35	-53.9	-55.4	14.6	0.00e+00	0	30	0	163577856	74	4191
2026-01-03 11:36:58.82	211.45	10.42	-53.8	-55.3	14.7	0.00e+00	0	30	0	165675008	74	4110
2026-01-03 11:36:59.81	211.55	10.50	-54.0	-55.5	14.7	0.00e+00	0	29	0	167772160	74	4207
2026-01-03 11:37:00.80	211.66	10.57	-53.9	-55.3	14.7	0.00e+00	0	30	0	168820736	74	4141
2026-01-03 11:37:01.78	211.76	10.64	-53.9	-55.3	14.7	0.00e+00	0	30	0	170917888	74	4130
2026-01-03 11:37:02.77	211.86	10.71	-54.0	-55.5	14.6	0.00e+00	0	30	0	173015040	74	4229
2026-01-03 11:37:03.76	211.96	10.79	-54.0	-55.5	14.6	0.00e+00	0	30	0	175112192	74	4238
2026-01-03 11:37:04.75	212.07	10.86	-53.9	-55.4	14.7	0.00e+00	0	29	0	176160768	74	4164
2026-01-03 11:37:05.75	212.17	10.94	-53.8	-55.2	14.7	0.00e+00	0	29	0	178257920	73	4307
2026-01-03 11:37:06.74	212.28	11.01	-53.8	-55.2	14.7	0.00e+00	0	30	0	180355072	73	4329
2026-01-03 11:37:07.74	212.38	11.08	-53.9	-55.3	14.6	0.00e+00	0	30	0	182452224	73	4380
2026-01-03 11:37:08.73	212.49	11.16	-53.8	-55.3	14.6	0.00e+00	0	30	0	184549376	73	4364
2026-01-03 11:37:09.73	212.60	11.23	-54.0	-55.6	14.5	0.00e+00	0	30	0	185597952	73	4515
2026-01-03 11:37:10.72	212.70	11.31	-53.9	-55.4	14.6	0.00e+00	0	30	0	187695104	73	4400
2026-01-03 11:37:11.71	212.81	11.38	-54.0	-55.5	14.6	0.00e+00	0	30	0	189792256	73	4454
2026-01-03 11:37:12.71	212.92	11.46	-54.1	-55.7	14.5	0.00e+00	0	30	0	191889408	73	4582
2026-01-03 11:37:13.71	213.03	11.53	-54.1	-55.7	14.5	0.00e+00	0	30	0	192937984	73	4564
2026-01-03 11:37:14.71	213.14	11.61	-54.1	-55.7	14.5	0.00e+00	0	30	0	195035136	73	4565
2026-01-03 11:37:15.70	213.25	11.68	-54.1	-55.7	14.5	0.00e+00	0	30	0	197132288	73	4582
2026-01-03 11:37:16.70	213.36	11.76	-54.1	-55.7	14.5	0.00e+00	0	30	0	199229440	73	4572
2026-01-03 11:37:17.70	213.47	11.84	-54.2	-55.7	14.5	0.00e+00	0	30	0	201326592	73	4594
2026-01-03 11:37:18.69	213.58	11.91	-54.2	-55.8	14.5	0.00e+00	0	30	0	202375168	73	4612
2026-01-03 11:37:19.67	213.69	11.99	-54.1	-55.7	14.5	0.00e+00	0	30	0	204472320	73	4554
2026-01-03 11:37:20.66	213.80	12.06	-54.1	-55.6	14.6	0.00e+00	0	30	0	206569472	73	4521
2026-01-03 11:37:21.65	213.92	12.14	-54.0	-55.5	14.6	0.00e+00	0	30	0	208666624	73	4488
2026-01-03 11:37:22.65	214.03	12.22	-53.9	-55.3	14.7	0.00e+00	0	30	0	209715200	73	4378
2026-01-03 11:37:23.63	214.14	12.29	-53.8	-55.2	14.7	0.00e+00	0	30	0	211812352	73	4334
2026-01-03 11:37:24.63	214.26	12.37	-53.8	-55.3	14.7	0.00e+00	0	29	0	213909504	73	4369
2026-01-03 11:37:25.61	214.37	12.44	-53.7	-55.1	14.8	0.00e+00	0	30	0	216006656	73	4247
2026-01-03 11:37:26.60	214.49	12.52	-53.7	-55.1	14.8	0.00e+00	0	30	0	217055232	73	4251
2026-01-03 11:37:27.60	214.61	12.60	-53.7	-55.1	14.8	0.00e+00	0	30	0	219152384	73	4272
2026-01-03 11:37:28.59	214.72	12.68	-53.6	-55.0	14.8	0.00e+00	0	30	0	221249536	73	4199
2026-01-03 11:37:29.59	214.84	12.75	-53.6	-55.0	14.8	0.00e+00	0	30	0	223346688	73	4215
2026-01-03 11:37:30.58	214.96	12.83	-53.8	-55.3	14.7	0.00e+00	0	30	0	225443840	73	4353
2026-01-03 11:37:31.58	215.08	12.91	-53.9	-55.3	14.7	0.00e+00	0	30	0	226492416	73	4383
2026-01-03 11:37:32.57	215.20	12.99	-53.8	-55.2	14.7	0.00e+00	0	30	0	228589568	73	4326
2026-01-03 11:37:33.57	215.32	13.06	-54.0	-55.5	14.6	0.00e+00	0	30	0	230686720	73	4469
2026-01-03 11:37:34.57	215.44	13.14	-54.0	-55.4	14.6	0.00e+00	0	30	0	232783872	73	4441
2026-01-03 11:37:35.56	215.56	13.22	-53.9	-55.4	14.6	0.00e+00	0	30	0	234881024	73	4420
2026-01-03 11:37:36.55	215.68	13.30	-54.2	-55.8	14.5	0.00e+00	0	30	0	235929600	73	4602
2026-01-03 11:37:37.55	215.81	13.38	-54.2	-55.8	14.5	0.00e+00	0	30	0	238026752	73	4615
2026-01-03 11:37:38.54	215.93	13.46	-54.1	-55.6	14.6	0.00e+00	0	30	0	240123904	73	4526
2026-01-03 11:37:39.53	216.05	13.54	-54.2	-55.7	14.5	0.00e+00	0	30	0	242221056	73	4581
2026-01-03 11:37:40.53	216.18	13.61	-54.2	-55.8	14.5	0.00e+00	0	30	0	243269632	73	4605
2026-01-03 11:37:41.52	216.30	13.69	-54.1	-55.6	14.5	0.00e+00	0	30	0	245366784	73	4543
2026-01-03 11:37:42.52	216.43	13.77	-54.1	-55.6	14.5	0.00e+00	0	30	0	247463936	73	4518
2026-01-03 11:37:43.52	216.56	13.85	-54.1	-55.6	14.6	0.00e+00	0	30	0	249561088	73	4497
2026-01-03 11:37:44.52	216.69	13.93	-54.0	-55.5	14.6	0.00e+00	0	30	0	251658240	73	4442
2026-01-03 11:37:45.51	216.81	14.01	-54.0	-55.5	14.6	0.00e+00	0	30	0	252706816	73	4465
2026-01-03 11:37:46.51	216.94	14.09	-54.1	-55.6	14.6	0.00e+00	0	30	0	254803968	73	4514
2026-01-03 11:37:47.51	217.07	14.17	-54.1	-55.6	14.5	0.00e+00	0	30	0	256901120	73	4535
2026-01-03 11:37:48.50	217.20	14.25	-54.2	-55.7	14.5	0.00e+00	0	30	0	258998272	73	4595
2026-01-03 11:37:49.50	217.33	14.33	-54.2	-55.7	14.5	0.00e+00	0	30	0	260046848	73	4596
2026-01-03 11:37:50.49	217.46	14.41	-54.1	-55.7	14.6	0.00e+00	0	30	0	262144000	73	4555
2026-01-03 11:37:51.48	217.60	14.49	-54.2	-55.8	14.5	0.00e+00	0	30	0	264241152	73	4629
2026-01-03 11:37:52.48	217.73	14.57	-54.5	-56.1	14.4	0.00e+00	0	30	0	266338304	74	4542
2026-01-03 11:37:53.47	217.86	14.65	-54.3	-55.8	14.6	0.00e+00	0	30	0	268435456	74	4379
2026-01-03 11:37:54.47	218.00	14.74	-54.4	-55.9	14.5	0.00e+00	0	30	0	269484032	74	4426
2026-01-03 11:37:55.45	218.13	14.82	-54.5	-56.1	14.4	0.00e+00	0	30	0	271581184	74	4516
2026-01-03 11:37:56.45	218.27	14.90	-54.3	-55.9	14.5	0.00e+00	0	30	0	273678336	74	4399
2026-01-03 11:37:57.44	218.40	14.98	-54.4	-56.0	14.5	0.00e+00	0	30	0	275775488	74	4466
2026-01-03 11:37:58.43	218.54	15.06	-54.3	-55.8	14.6	0.00e+00	0	30	0	276824064	74	4383
2026-01-03 11:37:59.42	218.67	15.14	-54.3	-55.8	14.6	0.00e+00	0	30	0	278921216	74	4380
2026-01-03 11:38:00.41	218.81	15.22	-54.2	-55.7	14.6	0.00e+00	0	30	0	281018368	74	4328
2026-01-03 11:38:01.40	218.95	15.30	-54.1	-55.6	14.7	0.00e+00	0	30	0	283115520	74	4265
2026-01-03 11:38:02.40	219.09	15.38	-54.0	-55.4	14.8	0.00e+00	0	30	0	284164096	74	4174
2026-01-03 11:38:03.39	219.23	15.47	-53.9	-55.3	14.8	0.00e+00	0	30	0	286261248	74	4142
2026-01-03 11:38:04.39	219.37	15.55	-53.8	-55.2	14.9	0.00e+00	0	30	0	288358400	74	4089
2026-01-03 11:38:05.39	219.52	15.63	-53.8	-55.2	14.9	0.00e+00	0	30	0	290455552	74	4059
2026-01-03 11:38:06.38	219.66	15.71	-53.7	-55.1	14.8	0.00e+00	0	30	0	292552704	73	4262
2026-01-03 11:38:07.38	219.80	15.80	-53.7	-55.1	14.8	0.00e+00	0	30	0	293601280	73	4270
2026-01-03 11:38:08.38	219.95	15.88	-53.8	-55.2	14.8	0.00e+00	0	30	0	295698432	73	4315
2026-01-03 11:38:09.38	220.09	15.96	-53.8	-55.1	14.8	0.00e+00	0	30	0	297795584	73	4286
2026-01-03 11:38:10.38	220.24	16.04	-53.9	-55.3	14.8	0.00e+00	0	30	0	299892736	73	4349
2026-01-03 11:38:11.37	220.39	16.13	-53.8	-55.2	14.8	0.00e+00	0	30	0	301989888	73	4309
2026-01-03 11:38:12.38	220.54	16.21	-53.9	-55.3	14.7	0.00e+00	0	30	0	303038464	73	4383
2026-01-03 11:38:13.39	220.69	16.30	-53.9	-55.4	14.7	0.00e+00	0	30	0	305135616	73	4395
2026-01-03 11:38:14.38	220.83	16.38	-53.8	-55.2	14.8	0.00e+00	0	30	0	307232768	73	4339
2026-01-03 11:38:15.38	220.99	16.46	-53.8	-55.2	14.8	0.00e+00	0	30	0	309329920	73	4318
2026-01-03 11:38:16.37	221.14	16.54	-53.8	-55.2	14.8	0.00e+00	0	30	0	311427072	73	4309
2026-01-03 11:38:17.37	221.29	16.63	-53.7	-55.1	14.8	0.00e+00	0	30	0	312475648	73	4280
2026-01-03 11:38:18.37	221.44	16.71	-53.8	-55.2	14.8	0.00e+00	0	30	0	314572800	73	4311
2026-01-03 11:38:19.36	221.59	16.80	-53.8	-55.2	14.8	0.00e+00	0	30	0	316669952	73	4330
2026-01-03 11:38:20.35	221.75	16.88	-53.6	-55.0	14.9	0.00e+00	0	30	0	318767104	73	4194
2026-01-03 11:38:21.35	221.90	16.96	-53.6	-54.9	14.9	0.00e+00	0	30	0	319815680	73	4180
2026-01-03 11:38:22.34	222.06	17.05	-53.7	-55.0	14.9	0.00e+00	0	30	0	321912832	73	4228
2026-01-03 11:38:23.34	222.21	17.13	-53.5	-54.8	14.9	0.00e+00	0	30	0	324009984	73	4127
2026-01-03 11:38:24.33	222.37	17.21	-53.5	-54.8	14.9	0.00e+00	0	30	0	326107136	73	4138
2026-01-03 11:38:25.32	222.53	17.30	-53.6	-54.9	14.9	0.00e+00	0	30	0	328204288	73	4188
2026-01-03 11:38:26.31	222.69	17.38	-53.5	-54.9	14.9	0.00e+00	0	30	0	329252864	73	4150
2026-01-03 11:38:27.29	222.84	17.47	-53.5	-54.7	15.0	0.00e+00	0	30	0	331350016	73	4098
2026-01-03 11:38:28.29	223.01	17.55	-53.6	-55.0	14.9	0.00e+00	0	30	0	333447168	73	4206
2026-01-03 11:38:29.28	223.17	17.63	-53.6	-54.9	14.9	0.00e+00	0	30	0	335544320	73	4181
2026-01-03 11:38:30.28	223.33	17.72	-53.6	-54.9	14.9	0.00e+00	0	30	0	336592896	73	4155
2026-01-03 11:38:31.27	223.49	17.80	-53.4	-54.7	15.0	0.00e+00	0	30	0	338690048	73	4093
2026-01-03 11:38:32.26	223.66	17.89	-53.4	-54.7	15.0	0.00e+00	0	30	0	340787200	73	4096
2026-01-03 11:38:33.26	223.82	17.97	-53.3	-54.6	15.1	0.00e+00	0	30	0	342884352	73	4029
2026-01-03 11:38:34.24	223.99	18.06	-53.1	-54.3	15.0	0.00e+00	0	30	0	343932928	72	4142
2026-01-03 11:38:35.23	224.15	18.14	-53.1	-54.3	15.1	0.00e+00	0	30	0	346030080	72	4102
2026-01-03 11:38:36.22	224.32	18.23	-52.9	-54.1	15.2	0.00e+00	0	30	0	348127232	72	4005
2026-01-03 11:38:37.22	224.49	18.31	-52.9	-54.1	15.1	0.00e+00	0	30	0	350224384	72	4027
2026-01-03 11:38:38.23	224.66	18.40	-52.8	-53.9	15.2	0.00e+00	0	30	0	352321536	72	3948
2026-01-03 11:38:39.23	224.83	18.48	-52.7	-53.8	15.2	0.00e+00	0	30	0	353370112	72	3906
2026-01-03 11:38:40.22	225.00	18.57	-52.7	-53.9	15.2	0.00e+00	0	30	0	355467264	71	4166
2026-01-03 11:38:41.22	225.18	18.65	-52.7	-53.9	15.1	0.00e+00	0	30	0	357564416	71	4164
2026-01-03 11:38:42.21	225.35	18.74	-52.6	-53.8	15.1	0.00e+00	0	30	0	359661568	71	4118
2026-01-03 11:38:43.20	225.52	18.82	-52.8	-54.0	15.1	0.00e+00	0	30	0	360710144	71	4210
2026-01-03 11:38:44.20	225.70	18.91	-52.6	-53.8	15.2	0.00e+00	0	30	0	362807296	71	4115
2026-01-03 11:38:45.20	225.88	18.99	-52.6	-53.8	15.2	0.00e+00	0	30	0	364904448	71	4107
2026-01-03 11:38:46.20	226.05	19.08	-52.8	-54.0	15.1	0.00e+00	0	30	0	367001600	71	4206
2026-01-03 11:38:47.19	226.23	19.16	-52.8	-54.0	15.1	0.00e+00	0	30	0	369098752	71	4199
2026-01-03 11:38:48.19	226.41	19.25	-53.1	-54.3	15.0	0.00e+00	0	30	0	370147328	71	4373
2026-01-03 11:38:49.18	226.59	19.34	-53.1	-54.4	15.0	0.00e+00	0	30	0	372244480	71	4412
2026-01-03 11:38:50.17	226.77	19.42	-53.2	-54.4	14.9	0.00e+00	0	30	0	374341632	71	4436
2026-01-03 11:38:51.16	226.95	19.51	-53.1	-54.3	15.0	0.00e+00	0	30	0	376438784	71	4390
2026-01-03 11:38:52.15	227.14	19.59	-53.2	-54.5	14.9	0.00e+00	0	30	0	377487360	71	4460
2026-01-03 11:38:53.14	227.32	19.68	-53.0	-54.2	15.1	0.00e+00	0	30	0	379584512	72	4072
2026-01-03 11:38:54.14	227.50	19.76	-52.8	-53.9	15.2	0.00e+00	0	30	0	381681664	72	3951
2026-01-03 11:38:55.13	227.69	19.85	-52.8	-54.0	15.2	0.00e+00	0	30	0	383778816	72	3972
2026-01-03 11:38:56.12	227.88	19.93	-52.9	-54.0	15.2	0.00e+00	0	30	0	385875968	72	3993
2026-01-03 11:38:57.11	228.06	20.02	-52.9	-54.1	15.2	0.00e+00	0	30	0	386924544	72	4030
2026-01-03 11:38:58.10	228.25	20.10	-52.9	-54.1	15.2	0.00e+00	0	30	0	389021696	72	4013
2026-01-03 11:38:59.10	228.44	20.19	-53.0	-54.1	15.1	0.00e+00	0	30	0	391118848	72	4047
2026-01-03 11:39:00.10	228.63	20.27	-52.8	-54.0	15.2	0.00e+00	0	30	0	393216000	72	3968
2026-01-03 11:39:01.09	228.83	20.36	-52.8	-53.9	15.2	0.00e+00	0	30	0	394264576	72	3953
2026-01-03 11:39:02.08	229.02	20.44	-52.7	-53.8	15.2	0.00e+00	0	30	0	396361728	71	4125
2026-01-03 11:39:03.08	229.21	20.53	-52.7	-53.9	15.2	0.00e+00	0	30	0	398458880	71	4168
2026-01-03 11:39:04.07	229.41	20.61	-52.8	-53.9	15.2	0.00e+00	0	30	0	400556032	71	4190
2026-01-03 11:39:05.06	229.60	20.70	-52.8	-53.9	15.2	0.00e+00	0	30	0	402653184	71	4183
2026-01-03 11:39:06.04	229.80	20.78	-52.9	-54.1	15.1	0.00e+00	0	30	0	403701760	71	4266
2026-01-03 11:39:07.04	230.00	20.87	-52.9	-54.1	15.1	0.00e+00	0	30	0	405798912	71	4252
2026-01-03 11:39:08.04	230.20	20.95	-52.9	-54.0	15.1	0.00e+00	0	30	0	407896064	71	4237
2026-01-03 11:39:09.03	230.40	21.04	-52.7	-53.8	15.2	0.00e+00	0	30	0	409993216	71	4144
2026-01-03 11:39:10.02	230.60	21.12	-52.5	-53.6	15.3	0.00e+00	0	30	0	411041792	71	4021
2026-01-03 11:39:11.01	230.80	21.21	-52.4	-53.5	15.3	0.00e+00	0	30	0	413138944	71	3991
2026-01-03 11:39:12.00	231.00	21.29	-52.3	-53.4	15.4	0.00e+00	0	30	0	415236096	71	3915
2026-01-03 11:39:12.99	231.21	21.38	-52.1	-53.2	15.3	0.00e+00	0	30	0	417333248	70	4055
2026-01-03 11:39:13.99	231.41	21.46	-52.1	-53.1	15.4	0.00e+00	0	30	0	418381824	70	4011
2026-01-03 11:39:14.99	231.62	21.55	-52.1	-53.1	15.3	0.00e+00	0	30	0	420478976	70	4033
2026-01-03 11:39:16.00	231.83	21.63	-52.1	-53.2	15.3	0.00e+00	0	30	0	422576128	70	4066
2026-01-03 11:39:16.99	232.04	21.72	-51.9	-52.9	15.4	0.00e+00	0	30	0	424673280	70	3939
2026-01-03 11:39:17.99	232.25	21.80	-52.0	-53.0	15.4	0.00e+00	0	30	0	426770432	70	3999
2026-01-03 11:39:18.99	232.47	21.89	-52.1	-53.1	15.4	0.00e+00	0	30	0	427819008	70	4019
2026-01-03 11:39:19.98	232.68	21.97	-51.9	-52.9	15.4	0.00e+00	0	30	0	429916160	70	3945
2026-01-03 11:39:20.98	232.89	22.05	-51.9	-52.9	15.4	0.00e+00	0	30	0	432013312	70	3957
2026-01-03 11:39:21.98	233.11	22.14	-52.0	-53.0	15.4	0.00e+00	0	30	0	434110464	70	3995
2026-01-03 11:39:22.97	233.33	22.22	-52.2	-53.2	15.3	0.00e+00	0	30	0	436207616	70	4083
2026-01-03 11:39:23.96	233.54	22.31	-52.5	-53.5	15.2	0.00e+00	0	30	0	437256192	70	4233
2026-01-03 11:39:24.96	233.76	22.39	-52.5	-53.6	15.2	0.00e+00	0	30	0	439353344	70	4245
2026-01-03 11:39:25.95	233.98	22.47	-52.6	-53.7	15.1	0.00e+00	0	30	0	441450496	70	4337
2026-01-03 11:39:26.94	234.20	22.56	-52.6	-53.7	15.2	0.00e+00	0	30	0	443547648	70	4294
2026-01-03 11:39:27.93	234.42	22.64	-52.5	-53.6	15.2	0.00e+00	0	30	0	444596224	70	4283
2026-01-03 11:39:28.93	234.64	22.72	-52.7	-53.9	15.1	0.00e+00	0	30	0	446693376	70	4394
2026-01-03 11:39:29.92	234.87	22.80	-52.6	-53.7	15.2	0.00e+00	0	30	0	448790528	70	4297
2026-01-03 11:39:30.91	235.09	22.89	-52.6	-53.6	15.2	0.00e+00	0	30	0	450887680	70	4289
2026-01-03 11:39:31.91	235.32	22.97	-52.7	-53.8	15.2	0.00e+00	0	30	0	452984832	70	4365
2026-01-03 11:39:32.90	235.55	23.05	-52.6	-53.7	15.2	0.00e+00	0	30	0	454033408	70	4337
2026-01-03 11:39:33.90	235.78	23.13	-52.6	-53.7	15.2	0.00e+00	0	30	0	456130560	70	4305
2026-01-03 11:39:34.90	236.01	23.21	-52.7	-53.8	15.1	0.00e+00	0	30	0	458227712	70	4381
2026-01-03 11:39:35.89	236.24	23.30	-52.6	-53.7	15.2	0.00e+00	0	30	0	460324864	70	4332
2026-01-03 11:39:36.89	236.47	23.38	-52.8	-53.9	15.2	0.00e+00	0	30	0	461373440	71	4169
2026-01-03 11:39:37.89	236.71	23.46	-52.9	-54.1	15.1	0.00e+00	0	30	0	463470592	71	4268
2026-01-03 11:39:38.88	236.94	23.54	-52.9	-54.1	15.1	0.00e+00	0	30	0	465567744	71	4270
2026-01-03 11:39:39.88	237.18	23.62	-52.9	-54.1	15.1	0.00e+00	0	30	0	467664896	71	4257
2026-01-03 11:39:40.87	237.41	23.70	-52.9	-54.1	15.1	0.00e+00	0	30	0	469762048	71	4247
2026-01-03 11:39:41.87	237.65	23.78	-52.9	-54.1	15.1	0.00e+00	0	30	0	470810624	71	4269
2026-01-03 11:39:42.86	237.89	23.86	-53.2	-54.4	15.0	0.00e+00	0	30	0	472907776	71	4438
2026-01-03 11:39:43.85	238.13	23.94	-53.3	-54.5	15.0	0.00e+00	0	30	0	475004928	72	4233
2026-01-03 11:39:44.85	238.37	24.02	-53.2	-54.4	15.1	0.00e+00	0	30	0	477102080	72	4177
2026-01-03 11:39:45.84	238.62	24.10	-53.3	-54.5	15.0	0.00e+00	0	30	0	478150656	72	4227
2026-01-03 11:39:46.83	238.86	24.18	-53.4	-54.7	15.0	0.00e+00	0	30	0	480247808	72	4322
2026-01-03 11:39:47.83	239.10	24.25	-53.4	-54.7	15.0	0.00e+00	0	30	0	482344960	72	4312
2026-01-03 11:39:48.82	239.35	24.33	-53.4	-54.7	15.0	0.00e+00	0	30	0	484442112	72	4298
2026-01-03 11:39:49.82	239.60	24.41	-53.3	-54.5	15.1	0.00e+00	0	30	0	486539264	72	4224
2026-01-03 11:39:50.81	239.85	24.49	-53.3	-54.5	15.0	0.00e+00	0	30	0	487587840	72	4227
2026-01-03 11:39:51.81	240.10	24.56	-53.3	-54.5	15.0	0.00e+00	0	30	0	489684992	72	4232
2026-01-03 11:39:52.81	240.35	24.64	-53.2	-54.4	15.1	0.00e+00	0	30	0	491782144	72	4180
2026-01-03 11:39:53.81	240.61	24.72	-53.4	-54.6	15.0	0.00e+00	0	30	0	493879296	72	4259
2026-01-03 11:39:54.80	240.86	24.79	-53.3	-54.5	15.0	0.00e+00	0	30	0	494927872	72	4225
2026-01-03 11:39:55.80	241.11	24.87	-53.4	-54.6	15.0	0.00e+00	0	30	0	497025024	72	4263
2026-01-03 11:39:56.79	241.37	24.95	-53.4	-54.6	15.0	0.00e+00	0	30	0	499122176	72	4271
2026-01-03 11:39:57.79	241.63	25.02	-53.3	-54.5	15.0	0.00e+00	0	30	0	501219328	72	4236
2026-01-03 11:39:58.78	241.89	25.09	-53.3	-54.5	15.0	0.00e+00	0	30	0	503316480	72	4236
2026-01-03 11:39:59.78	242.15	25.17	-53.4	-54.6	15.0	0.00e+00	0	30	0	504365056	72	4288
2026-01-03 11:40:00.77	242.41	25.24	-53.3	-54.5	15.1	0.00e+00	0	30	0	506462208	72	4222
2026-01-03 11:40:01.77	242.67	25.32	-53.4	-54.7	15.0	0.00e+00	0	30	0	508559360	72	4307
2026-01-03 11:40:02.76	242.93	25.39	-53.4	-54.7	15.0	0.00e+00	0	30	0	510656512	72	4294
2026-01-03 11:40:03.75	243.19	25.46	-53.4	-54.6	15.0	0.00e+00	0	30	0	511705088	72	4270
2026-01-03 11:40:04.74	243.46	25.53	-53.3	-54.6	15.0	0.00e+00	0	30	0	513802240	72	4250
2026-01-03 11:40:05.75	243.73	25.61	-53.2	-54.4	15.1	0.00e+00	0	30	0	515899392	72	4164
2026-01-03 11:40:06.74	244.00	25.68	-53.2	-54.4	15.1	0.00e+00	0	30	0	517996544	72	4146
2026-01-03 11:40:07.73	244.26	25.75	-53.4	-54.6	15.0	0.00e+00	0	30	0	520093696	72	4284
2026-01-03 11:40:08.73	244.54	25.82	-53.5	-54.8	14.9	0.00e+00	0	30	0	521142272	72	4349
2026-01-03 11:40:09.73	244.81	25.89	-53.5	-54.8	14.9	0.00e+00	0	30	0	523239424	72	4360
2026-01-03 11:40:10.72	245.08	25.96	-53.6	-54.9	14.9	0.00e+00	0	30	0	525336576	72	4406
2026-01-03 11:40:11.72	245.36	26.02	-53.4	-54.6	15.0	0.00e+00	0	30	0	527433728	72	4277
2026-01-03 11:40:12.71	245.63	26.09	-53.3	-54.5	15.0	0.00e+00	0	30	0	529530880	72	4231
2026-01-03 11:40:13.71	245.91	26.16	-53.0	-54.2	15.1	0.00e+00	0	30	0	530579456	72	4085
2026-01-03 11:40:14.69	246.18	26.23	-53.2	-54.4	15.1	0.00e+00	0	30	0	532676608	72	4174
2026-01-03 11:40:15.68	246.46	26.29	-53.6	-54.9	14.9	0.00e+00	0	30	0	534773760	72	4426
2026-01-03 11:40:16.68	246.74	26.36	-54.1	-55.5	14.8	0.00e+00	0	30	0	536870912	73	4473
2026-01-03 11:40:17.67	247.02	26.42	-54.3	-55.8	14.6	0.00e+00	0	30	0	537919488	73	4636
2026-01-03 11:40:18.66	247.30	26.49	-54.2	-55.7	14.8	0.00e+00	0	30	0	540016640	74	4306
2026-01-03 11:40:19.66	247.58	26.55	-54.1	-55.5	14.8	0.00e+00	0	30	0	542113792	74	4207
2026-01-03 11:40:20.65	247.87	26.62	-53.7	-55.0	15.0	0.00e+00	0	30	0	544210944	74	3993
2026-01-03 11:40:21.64	248.15	26.68	-53.4	-54.6	15.1	0.00e+00	0	30	0	545259520	73	4011
2026-01-03 11:40:22.64	248.44	26.74	-53.2	-54.4	15.1	0.00e+00	0	30	0	547356672	72	4185
2026-01-03 11:40:23.64	248.73	26.81	-53.2	-54.4	15.1	0.00e+00	0	30	0	549453824	72	4180
2026-01-03 11:40:24.63	249.01	26.87	-53.5	-54.7	15.0	0.00e+00	0	30	0	551550976	72	4327
2026-01-03 11:40:25.62	249.30	26.93	-53.6	-55.0	14.9	0.00e+00	0	30	0	553648128	72	4447
2026-01-03 11:40:26.62	249.59	26.99	-54.1	-55.5	14.8	0.00e+00	0	30	0	554696704	73	4475
2026-01-03 11:40:27.61	249.88	27.05	-54.0	-55.4	14.8	0.00e+00	0	30	0	556793856	73	4396
2026-01-03 11:40:28.61	250.18	27.11	-54.2	-55.7	14.7	0.00e+00	0	30	0	558891008	73	4568
2026-01-03 11:40:29.61	250.47	27.16	-54.2	-55.7	14.7	0.00e+00	0	30	0	560988160	73	4567
2026-01-03 11:40:30.60	250.77	27.22	-53.9	-55.2	14.8	0.00e+00	0	30	0	562036736	73	4334
2026-01-03 11:40:31.60	251.07	27.28	-53.9	-55.2	14.8	0.00e+00	0	30	0	564133888	73	4331
2026-01-03 11:40:32.59	251.36	27.33	-53.5	-54.8	15.0	0.00e+00	0	30	0	566231040	73	4115
2026-01-03 11:40:33.59	251.66	27.39	-53.5	-54.8	15.0	0.00e+00	0	30	0	568328192	73	4113
2026-01-03 11:40:34.57	251.95	27.44	-53.2	-54.4	15.1	0.00e+00	0	30	0	570425344	72	4182
2026-01-03 11:40:35.56	252.25	27.50	-53.1	-54.2	15.2	0.00e+00	0	30	0	571473920	72	4082
2026-01-03 11:40:36.56	252.56	27.55	-53.0	-54.2	15.2	0.00e+00	0	30	0	573571072	72	4065
2026-01-03 11:40:37.55	252.86	27.60	-53.3	-54.5	15.1	0.00e+00	0	30	0	575668224	72	4237
2026-01-03 11:40:38.54	253.16	27.66	-53.5	-54.8	15.0	0.00e+00	0	30	0	577765376	72	4347
2026-01-03 11:40:39.53	253.46	27.71	-53.8	-55.1	14.9	0.00e+00	0	30	0	578813952	72	4506
2026-01-03 11:40:40.53	253.77	27.76	-53.8	-55.1	14.9	0.00e+00	0	30	0	580911104	73	4273
2026-01-03 11:40:41.53	254.07	27.81	-54.0	-55.4	14.8	0.00e+00	0	30	0	583008256	73	4419
2026-01-03 11:40:42.51	254.38	27.85	-54.1	-55.4	14.8	0.00e+00	0	30	0	585105408	73	4435
2026-01-03 11:40:43.51	254.68	27.90	-54.0	-55.3	14.8	0.00e+00	0	30	0	587202560	73	4391
2026-01-03 11:40:44.50	254.99	27.95	-53.9	-55.3	14.9	0.00e+00	0	30	0	588251136	73	4362
2026-01-03 11:40:45.50	255.30	28.00	-54.2	-55.6	14.7	0.00e+00	0	30	0	590348288	73	4502
2026-01-03 11:40:46.50	255.61	28.04	-54.6	-56.2	14.6	0.00e+00	0	30	0	592445440	74	4550
2026-01-03 11:40:47.49	255.92	28.09	-55.1	-56.9	14.3	0.00e+00	0	30	0	594542592	75	4666
2026-01-03 11:40:48.49	256.24	28.13	-55.6	-57.4	14.1	0.00e+00	0	30	0	595591168	76	4691
2026-01-03 11:40:49.49	256.55	28.17	-55.7	-57.6	14.1	0.00e+00	0	30	0	597688320	76	4768
2026-01-03 11:40:50.50	256.87	28.22	-55.8	-57.6	14.0	0.00e+00	0	30	0	599785472	76	4806
2026-01-03 11:40:51.49	257.18	28.26	-55.4	-57.1	14.3	0.00e+00	0	30	0	601882624	76	4534
2026-01-03 11:40:52.49	257.50	28.30	-55.4	-57.1	14.3	0.00e+00	0	30	0	603979776	76	4542
2026-01-03 11:40:53.49	257.82	28.34	-55.6	-57.5	14.1	0.00e+00	0	30	0	605028352	76	4739
2026-01-03 11:40:54.48	258.13	28.38	-56.2	-58.3	13.8	0.00e+00	0	30	0	607125504	77	4907
2026-01-03 11:40:55.47	258.45	28.41	-56.4	-58.6	13.6	0.00e+00	0	30	0	609222656	78	4781
2026-01-03 11:40:56.47	258.77	28.45	-56.1	-58.1	13.9	0.00e+00	0	30	0	611319808	78	4535
2026-01-03 11:40:57.46	259.08	28.49	-55.8	-57.8	14.1	0.00e+00	0	30	0	613416960	78	4341
2026-01-03 11:40:58.46	259.41	28.52	-55.7	-57.6	14.1	0.00e+00	0	30	0	614465536	77	4529
2026-01-03 11:40:59.45	259.72	28.56	-56.1	-58.1	13.8	0.00e+00	0	30	0	616562688	77	4793
2026-01-03 11:41:00.45	260.05	28.59	-56.5	-58.8	13.5	0.00e+00	0	30	0	618659840	78	4887
2026-01-03 11:41:01.44	260.37	28.62	-56.7	-59.1	13.3	0.00e+00	0	30	0	620756992	78	5085
2026-01-03 11:41:02.43	260.69	28.65	-56.0	-58.0	14.0	0.00e+00	0	30	0	621805568	78	4458
2026-01-03 11:41:03.42	261.01	28.68	-55.4	-57.2	14.3	0.00e+00	0	30	0	623902720	77	4293
2026-01-03 11:41:04.42	261.33	28.71	-54.9	-56.5	14.5	0.00e+00	0	30	0	625999872	76	4218
2026-01-03 11:41:05.41	261.65	28.74	-55.0	-56.6	14.5	0.00e+00	0	30	0	628097024	76	4251
2026-01-03 11:41:06.41	261.98	28.77	-55.3	-56.9	14.3	0.00e+00	0	30	0	630194176	76	4428
2026-01-03 11:41:07.40	262.30	28.80	-55.7	-57.6	14.0	0.00e+00	0	30	0	631242752	76	4791
2026-01-03 11:41:08.39	262.63	28.82	-55.6	-57.4	14.2	0.00e+00	0	30	0	633339904	76	4703
2026-01-03 11:41:09.39	262.96	28.85	-55.3	-57.0	14.4	0.00e+00	0	30	0	635437056	76	4446
2026-01-03 11:41:10.39	263.28	28.87	-55.0	-56.6	14.5	0.00e+00	0	30	0	637534208	76	4244
2026-01-03 11:41:11.38	263.61	28.90	-54.6	-56.1	14.7	0.00e+00	0	30	0	638582784	75	4275
2026-01-03 11:41:12.38	263.94	28.92	-54.9	-56.5	14.5	0.00e+00	0	30	0	640679936	75	4472
2026-01-03 11:41:13.37	264.26	28.94	-55.2	-57.0	14.3	0.00e+00	0	30	0	642777088	75	4731
2026-01-03 11:41:14.37	264.59	28.96	-55.1	-56.9	14.3	0.00e+00	0	30	0	644874240	75	4663
2026-01-03 11:41:15.38	264.93	28.98	-54.8	-56.4	14.5	0.00e+00	0	30	0	646971392	75	4438
2026-01-03 11:41:16.37	265.25	29.00	-54.5	-55.9	14.7	0.00e+00	0	30	0	648019968	75	4184
2026-01-03 11:41:17.36	265.58	29.01	-54.2	-55.6	14.9	0.00e+00	0	30	0	650117120	75	4010
2026-01-03 11:41:18.35	265.91	29.03	-54.2	-55.6	14.8	0.00e+00	0	30	0	652214272	74	4290
2026-01-03 11:41:19.35	266.24	29.04	-54.4	-55.8	14.7	0.00e+00	0	30	0	654311424	74	4381
2026-01-03 11:41:20.34	266.57	29.06	-54.5	-56.0	14.6	0.00e+00	0	30	0	655360000	74	4482
2026-01-03 11:41:21.34	266.90	29.07	-54.2	-55.6	14.8	0.00e+00	0	30	0	657457152	74	4281
2026-01-03 11:41:22.34	267.24	29.08	-54.1	-55.5	14.8	0.00e+00	0	30	0	659554304	74	4224
2026-01-03 11:41:23.34	267.57	29.09	-54.0	-55.3	14.9	0.00e+00	0	30	0	661651456	74	4121
2026-01-03 11:41:24.33	267.90	29.10	-54.2	-55.7	14.8	0.00e+00	0	30	0	663748608	74	4297
2026-01-03 11:41:25.33	268.23	29.11	-54.4	-55.8	14.7	0.00e+00	0	30	0	664797184	74	4385
2026-01-03 11:41:26.33	268.56	29.12	-54.3	-55.8	14.7	0.00e+00	0	30	0	666894336	74	4350
2026-01-03 11:41:27.33	268.90	29.13	-54.4	-55.9	14.7	0.00e+00	0	30	0	668991488	74	4439
2026-01-03 11:41:28.32	269.23	29.13	-54.6	-56.1	14.6	0.00e+00	0	30	0	671088640	74	4531
2026-01-03 11:41:29.31	269.56	29.14	-54.6	-56.1	14.6	0.00e+00	0	30	0	673185792	74	4508
2026-01-03 11:41:30.31	269.89	29.14	-54.5	-56.0	14.6	0.00e+00	0	30	0	674234368	74	4489
2026-01-03 11:41:31.31	270.22	29.15	-54.6	-56.1	14.6	0.00e+00	0	30	0	676331520	74	4515
2026-01-03 11:41:32.31	270.56	29.15	-54.6	-56.1	14.6	0.00e+00	0	30	0	678428672	74	4529
2026-01-03 11:41:33.30	270.89	29.15	-54.5	-56.0	14.6	0.00e+00	0	30	0	680525824	74	4457
2026-01-03 11:41:34.30	271.22	29.15	-54.7	-56.2	14.5	0.00e+00	0	30	0	681574400	74	4579
2026-01-03 11:41:35.29	271.55	29.15	-54.5	-56.0	14.6	0.00e+00	0	30	0	683671552	74	4493
2026-01-03 11:41:36.28	271.88	29.14	-54.2	-55.5	14.9	0.00e+00	0	30	0	685768704	74	4239
2026-01-03 11:41:37.28	272.22	29.14	-54.0	-55.4	14.9	0.00e+00	0	30	0	687865856	74	4168
2026-01-03 11:41:38.27	272.55	29.14	-54.0	-55.3	14.9	0.00e+00	0	30	0	689963008	74	4138
2026-01-03 11:41:39.27	272.88	29.13	-54.1	-55.5	14.9	0.00e+00	0	30	0	691011584	74	4223
2026-01-03 11:41:40.27	273.21	29.13	-54.7	-56.3	14.5	0.00e+00	0	30	0	693108736	74	4631
2026-01-03 11:41:41.27	273.55	29.12	-55.3	-57.1	14.2	0.00e+00	0	30	0	695205888	75	4776
2026-01-03 11:41:42.27	273.88	29.11	-55.7	-57.5	14.1	0.00e+00	0	30	0	697303040	76	4751
2026-01-03 11:41:43.28	274.22	29.10	-55.7	-57.5	14.1	0.00e+00	0	30	0	698351616	76	4734
2026-01-03 11:41:44.27	274.55	29.09	-55.6	-57.4	14.1	0.00e+00	0	30	0	700448768	76	4699
2026-01-03 11:41:45.26	274.87	29.08	-55.7	-57.5	14.1	0.00e+00	0	30	0	702545920	76	4735
2026-01-03 11:41:46.26	275.21	29.06	-55.8	-57.7	14.1	0.00e+00	0	30	0	704643072	76	4820
2026-01-03 11:41:47.26	275.54	29.05	-55.5	-57.3	14.2	0.00e+00	0	30	0	706740224	76	4608
2026-01-03 11:41:48.25	275.87	29.04	-54.8	-56.3	14.7	0.00e+00	0	30	0	707788800	76	4142
2026-01-03 11:41:49.25	276.20	29.02	-54.6	-56.0	14.7	0.00e+00	0	30	0	709885952	75	4235
2026-01-03 11:41:50.25	276.53	29.00	-54.0	-55.3	14.9	0.00e+00	0	30	0	711983104	74	4101
2026-01-03 11:41:51.24	276.86	28.99	-54.1	-55.4	14.9	0.00e+00	0	30	0	714080256	74	4183
2026-01-03 11:41:52.23	277.18	28.97	-54.5	-56.0	14.7	0.00e+00	0	30	0	715128832	74	4453
2026-01-03 11:41:53.22	277.51	28.95	-55.0	-56.7	14.4	0.00e+00	0	30	0	717225984	75	4552
2026-01-03 11:41:54.22	277.84	28.93	-55.4	-57.1	14.3	0.00e+00	0	30	0	719323136	76	4518
2026-01-03 11:41:55.22	278.17	28.91	-55.8	-57.7	14.1	0.00e+00	0	30	0	721420288	76	4834
2026-01-03 11:41:56.21	278.49	28.88	-56.1	-58.2	13.9	0.00e+00	0	30	0	723517440	77	4817
2026-01-03 11:41:57.22	278.82	28.86	-56.0	-57.9	14.0	0.00e+00	0	30	0	724566016	77	4694
2026-01-03 11:41:58.21	279.15	28.84	-56.0	-58.0	13.9	0.00e+00	0	30	0	726663168	77	4752
2026-01-03 11:41:59.20	279.47	28.81	-56.0	-58.0	13.9	0.00e+00	0	30	0	728760320	77	4736
2026-01-03 11:42:00.19	279.79	28.78	-55.9	-57.8	14.0	0.00e+00	0	30	0	730857472	77	4637
2026-01-03 11:42:01.18	280.12	28.76	-55.8	-57.7	14.1	0.00e+00	0	30	0	731906048	77	4594
2026-01-03 11:42:02.18	280.44	28.73	-55.7	-57.6	14.1	0.00e+00	0	30	0	734003200	77	4523
2026-01-03 11:42:03.17	280.76	28.70	-55.9	-57.9	14.0	0.00e+00	0	30	0	736100352	77	4662
2026-01-03 11:42:04.17	281.09	28.67	-56.3	-58.4	13.8	0.00e+00	0	30	0	738197504	77	4976
2026-01-03 11:42:05.16	281.41	28.64	-56.9	-59.4	13.3	0.00e+00	0	30	0	740294656	79	4954
2026-01-03 11:42:06.16	281.73	28.61	-57.7	-60.7	12.5	0.00e+00	0	30	0	741343232	80	5462
2026-01-03 11:42:07.15	282.05	28.57	-58.0	-61.4	12.0	1.50e-06	0	30	0	743440384	81	5542
2026-01-03 11:42:08.14	282.37	28.54	-57.8	-61.0	12.4	1.50e-06	0	30	0	745537536	81	5330
2026-01-03 11:42:09.13	282.69	28.51	-57.3	-60.0	13.0	0.00e+00	0	30	0	747634688	81	4743
2026-01-03 11:42:10.12	283.00	28.47	-56.9	-59.4	13.3	0.00e+00	0	30	0	748683264	80	4687
2026-01-03 11:42:11.12	283.32	28.43	-56.8	-59.2	13.5	0.00e+00	0	30	0	750780416	79	4816
2026-01-03 11:42:12.10	283.64	28.40	-56.8	-59.2	13.4	0.00e+00	0	30	0	752877568	79	4855
2026-01-03 11:42:13.10	283.95	28.36	-56.5	-58.8	13.7	0.00e+00	0	30	0	754974720	79	4605
2026-01-03 11:42:14.11	284.28	28.32	-56.2	-58.2	13.9	0.00e+00	0	30	0	757071872	78	4582
2026-01-03 11:42:15.11	284.59	28.28	-55.6	-57.4	14.2	0.00e+00	0	30	0	758120448	77	4407
2026-01-03 11:42:16.11	284.91	28.24	-55.5	-57.3	14.3	0.00e+00	0	30	0	760217600	77	4345
2026-01-03 11:42:17.11	285.22	28.20	-55.6	-57.4	14.2	0.00e+00	0	30	0	762314752	77	4406
2026-01-03 11:42:18.10	285.53	28.15	-55.7	-57.6	14.2	0.00e+00	0	30	0	764411904	77	4523
2026-01-03 11:42:19.09	285.84	28.11	-56.0	-58.1	13.9	0.00e+00	0	30	0	765460480	77	4762
2026-01-03 11:42:20.09	286.16	28.07	-55.9	-57.9	14.0	0.00e+00	0	30	0	767557632	77	4654
2026-01-03 11:42:21.09	286.47	28.02	-55.3	-57.1	14.4	0.00e+00	0	30	0	769654784	77	4252
2026-01-03 11:42:22.08	286.78	27.98	-55.1	-56.8	14.5	0.00e+00	0	30	0	771751936	76	4342
2026-01-03 11:42:23.06	287.08	27.93	-55.2	-56.8	14.5	0.00e+00	0	30	0	773849088	76	4373
2026-01-03 11:42:24.06	287.39	27.88	-55.5	-57.3	14.3	0.00e+00	0	30	0	774897664	76	4631
2026-01-03 11:42:25.06	287.70	27.83	-55.5	-57.2	14.3	0.00e+00	0	30	0	776994816	76	4585
2026-01-03 11:42:26.06	288.00	27.78	-55.1	-56.7	14.5	0.00e+00	0	30	0	779091968	76	4340
2026-01-03 11:42:27.05	288.31	27.73	-54.8	-56.3	14.7	0.00e+00	0	30	0	781189120	76	4131
2026-01-03 11:42:28.04	288.61	27.68	-54.4	-55.8	14.8	0.00e+00	0	30	0	782237696	75	4107
2026-01-03 11:42:29.04	288.91	27.63	-54.2	-55.6	14.9	0.00e+00	0	30	0	784334848	75	4022
2026-01-03 11:42:30.03	289.21	27.58	-54.6	-56.0	14.7	0.00e+00	0	30	0	786432000	75	4240
2026-01-03 11:42:31.02	289.51	27.53	-54.9	-56.4	14.5	0.00e+00	0	30	0	788529152	75	4441
2026-01-03 11:42:32.02	289.81	27.48	-55.1	-56.8	14.4	0.00e+00	0	30	0	790626304	75	4618
2026-01-03 11:42:33.01	290.11	27.42	-55.5	-57.3	14.2	0.00e+00	0	30	0	791674880	76	4641
2026-01-03 11:42:34.01	290.41	27.37	-55.5	-57.3	14.2	0.00e+00	0	30	0	793772032	76	4642
2026-01-03 11:42:35.00	290.71	27.31	-55.3	-57.0	14.4	0.00e+00	0	30	0	795869184	76	4471
2026-01-03 11:42:36.01	291.01	27.25	-54.8	-56.3	14.7	0.00e+00	0	30	0	797966336	76	4112
2026-01-03 11:42:37.00	291.30	27.20	-54.6	-56.1	14.7	0.00e+00	0	30	0	799014912	75	4257
2026-01-03 11:42:38.00	291.59	27.14	-54.3	-55.7	14.9	0.00e+00	0	30	0	801112064	75	4076
2026-01-03 11:42:39.00	291.89	27.08	-54.2	-55.6	14.9	0.00e+00	0	30	0	803209216	75	4044
2026-01-03 11:42:40.00	292.18	27.02	-54.4	-55.8	14.8	0.00e+00	0	30	0	805306368	75	4130
2026-01-03 11:42:41.00	292.47	26.96	-54.5	-56.0	14.7	0.00e+00	0	30	0	807403520	75	4194
2026-01-03 11:42:41.99	292.76	26.90	-54.4	-55.8	14.8	0.00e+00	0	30	0	808452096	75	4115
2026-01-03 11:42:43.00	293.05	26.84	-54.3	-55.8	14.8	0.00e+00	0	30	0	810549248	74	4348
2026-01-03 11:42:43.99	293.34	26.78	-54.2	-55.6	14.9	0.00e+00	0	30	0	812646400	74	4279
2026-01-03 11:42:44.99	293.63	26.72	-54.2	-55.6	14.8	0.00e+00	0	30	0	814743552	74	4282
2026-01-03 11:42:45.98	293.91	26.65	-54.2	-55.6	14.8	0.00e+00	0	30	0	816840704	74	4259
2026-01-03 11:42:46.97	294.19	26.59	-54.0	-55.4	14.9	0.00e+00	0	30	0	817889280	74	4153
2026-01-03 11:42:47.96	294.48	26.53	-54.1	-55.5	14.9	0.00e+00	0	30	0	819986432	74	4224
2026-01-03 11:42:48.96	294.76	26.46	-53.9	-55.2	15.0	0.00e+00	0	30	0	822083584	74	4073
2026-01-03 11:42:49.95	295.04	26.40	-53.7	-55.0	15.0	0.00e+00	0	30	0	824180736	74	3972
2026-01-03 11:42:50.95	295.32	26.33	-53.7	-55.0	15.0	0.00e+00	0	30	0	825229312	73	4202
2026-01-03 11:42:51.94	295.60	26.27	-53.9	-55.2	14.9	0.00e+00	0	30	0	827326464	73	4313
2026-01-03 11:42:52.94	295.87	26.20	-53.9	-55.3	14.8	0.00e+00	0	30	0	829423616	73	4351
2026-01-03 11:42:53.94	296.15	26.13	-54.1	-55.5	14.8	0.00e+00	0	30	0	831520768	73	4471
2026-01-03 11:42:54.93	296.43	26.06	-54.3	-55.7	14.7	0.00e+00	0	30	0	833617920	73	4570
2026-01-03 11:42:55.93	296.70	26.00	-54.4	-55.9	14.7	0.00e+00	0	30	0	834666496	74	4402
2026-01-03 11:42:56.92	296.97	25.93	-54.5	-56.0	14.7	0.00e+00	0	30	0	836763648	74	4464
2026-01-03 11:42:57.91	297.24	25.86	-54.5	-55.9	14.7	0.00e+00	0	30	0	838860800	74	4437
2026-01-03 11:42:58.90	297.51	25.79	-54.6	-56.0	14.6	0.00e+00	0	30	0	840957952	74	4492
2026-01-03 11:42:59.90	297.78	25.72	-54.5	-55.9	14.7	0.00e+00	0	30	0	842006528	74	4430
2026-01-03 11:43:00.89	298.05	25.65	-54.6	-56.1	14.6	0.00e+00	0	30	0	844103680	74	4517
2026-01-03 11:43:01.90	298.32	25.58	-53.8	-55.2	15.0	0.00e+00	0	30	0	846200832	74	4055
2026-01-03 11:43:02.90	298.59	25.50	-53.5	-54.7	15.1	0.00e+00	0	30	0	848297984	73	4077
2026-01-03 11:43:03.91	298.85	25.43	-53.2	-54.4	15.2	0.00e+00	0	30	0	850395136	73	3915
2026-01-03 11:43:04.90	299.12	25.36	-53.0	-54.1	15.3	0.00e+00	0	30	0	851443712	72	4043
2026-01-03 11:43:05.88	299.37	25.29	-53.1	-54.3	15.2	0.00e+00	0	30	0	853540864	72	4099
2026-01-03 11:43:06.87	299.63	25.22	-53.5	-54.7	15.0	0.00e+00	0	30	0	855638016	72	4315
2026-01-03 11:43:07.86	299.89	25.14	-53.7	-55.0	14.9	0.00e+00	0	30	0	857735168	72	4490
2026-01-03 11:43:08.86	300.15	25.07	-54.4	-55.8	14.7	0.00e+00	0	30	0	858783744	74	4389
2026-01-03 11:43:09.85	300.41	24.99	-54.5	-56.0	14.7	0.00e+00	0	30	0	860880896	74	4458
2026-01-03 11:43:10.85	300.66	24.92	-54.5	-56.0	14.7	0.00e+00	0	30	0	862978048	74	4449
2026-01-03 11:43:11.84	300.92	24.84	-54.3	-55.8	14.7	0.00e+00	0	30	0	865075200	74	4341
2026-01-03 11:43:12.82	301.17	24.77	-54.1	-55.5	14.9	0.00e+00	0	30	0	867172352	74	4199
2026-01-03 11:43:13.82	301.42	24.69	-53.7	-55.0	15.1	0.00e+00	0	30	0	868220928	74	3962
2026-01-03 11:43:14.80	301.67	24.62	-53.7	-55.0	15.0	0.00e+00	0	30	0	870318080	73	4221
2026-01-03 11:43:15.80	301.92	24.54	-53.7	-54.9	15.0	0.00e+00	0	30	0	872415232	73	4191
2026-01-03 11:43:16.81	302.17	24.46	-53.8	-55.1	15.0	0.00e+00	0	30	0	874512384	73	4249
2026-01-03 11:43:17.80	302.42	24.39	-53.5	-54.8	15.1	0.00e+00	0	30	0	875560960	73	4106
2026-01-03 11:43:18.80	302.67	24.31	-53.2	-54.4	15.2	0.00e+00	0	30	0	877658112	73	3915
2026-01-03 11:43:19.80	302.91	24.23	-52.9	-54.0	15.3	0.00e+00	0	30	0	879755264	72	4000
2026-01-03 11:43:20.80	303.16	24.15	-52.7	-53.8	15.3	0.00e+00	0	30	0	881852416	72	3893
2026-01-03 11:43:21.79	303.40	24.07	-52.9	-54.1	15.3	0.00e+00	0	30	0	883949568	72	4010
2026-01-03 11:43:22.78	303.64	24.00	-52.8	-53.9	15.3	0.00e+00	0	30	0	884998144	72	3914
2026-01-03 11:43:23.78	303.88	23.92	-52.9	-54.0	15.2	0.00e+00	0	30	0	887095296	71	4215
2026-01-03 11:43:24.77	304.12	23.84	-53.2	-54.3	15.1	0.00e+00	0	30	0	889192448	71	4388
2026-01-03 11:43:25.77	304.36	23.76	-53.4	-54.7	15.1	0.00e+00	0	30	0	891289600	72	4316
2026-01-03 11:43:26.75	304.59	23.68	-53.6	-54.9	15.0	0.00e+00	0	30	0	892338176	72	4396
2026-01-03 11:43:27.75	304.83	23.60	-53.4	-54.6	15.0	0.00e+00	0	30	0	894435328	72	4281
2026-01-03 11:43:28.75	305.07	23.52	-53.3	-54.4	15.0	0.00e+00	0	30	0	896532480	72	4189
2026-01-03 11:43:29.74	305.30	23.44	-53.0	-54.1	15.2	0.00e+00	0	30	0	898629632	72	4029
2026-01-03 11:43:30.73	305.53	23.36	-52.7	-53.8	15.3	0.00e+00	0	30	0	900726784	72	3889
2026-01-03 11:43:31.73	305.76	23.28	-53.0	-54.1	15.2	0.00e+00	0	30	0	901775360	72	4020
2026-01-03 11:43:32.72	305.99	23.20	-53.2	-54.4	15.1	0.00e+00	0	30	0	903872512	72	4167
2026-01-03 11:43:33.72	306.22	23.11	-53.4	-54.6	15.0	0.00e+00	0	30	0	905969664	72	4263
2026-01-03 11:43:34.72	306.45	23.03	-53.7	-55.0	14.9	0.00e+00	0	30	0	908066816	72	4489
2026-01-03 11:43:35.72	306.68	22.95	-53.9	-55.3	14.9	0.00e+00	0	30	0	910163968	73	4349
2026-01-03 11:43:36.71	306.90	22.87	-53.7	-55.0	15.0	0.00e+00	0	30	0	911212544	73	4218
2026-01-03 11:43:37.71	307.13	22.79	-53.2	-54.4	15.1	0.00e+00	0	30	0	913309696	72	4147
2026-01-03 11:43:38.71	307.35	22.70	-52.9	-54.0	15.3	0.00e+00	0	30	0	915406848	72	3991
2026-01-03 11:43:39.70	307.57	22.62	-52.9	-54.0	15.3	0.00e+00	0	30	0	917504000	72	3973
2026-01-03 11:43:40.70	307.79	22.54	-53.0	-54.2	15.2	0.00e+00	0	30	0	918552576	72	4065
2026-01-03 11:43:41.69	308.01	22.46	-53.7	-55.0	14.9	0.00e+00	0	30	0	920649728	72	4451
2026-01-03 11:43:42.68	308.23	22.37	-53.8	-55.1	14.8	0.00e+00	0	30	0	922746880	72	4530
2026-01-03 11:43:43.68	308.45	22.29	-54.1	-55.5	14.8	0.00e+00	0	30	0	924844032	73	4464
2026-01-03 11:43:44.68	308.67	22.21	-54.2	-55.7	14.7	0.00e+00	0	30	0	926941184	73	4552
2026-01-03 11:43:45.68	308.88	22.12	-53.8	-55.1	14.9	0.00e+00	0	30	0	927989760	73	4250
2026-01-03 11:43:46.67	309.09	22.04	-53.3	-54.5	15.1	0.00e+00	0	30	0	930086912	73	3999
2026-01-03 11:43:47.66	309.31	21.96	-53.2	-54.4	15.1	0.00e+00	0	30	0	932184064	72	4146
2026-01-03 11:43:48.66	309.52	21.87	-53.0	-54.1	15.2	0.00e+00	0	30	0	934281216	72	4051
2026-01-03 11:43:49.65	309.73	21.79	-53.1	-54.3	15.1	0.00e+00	0	30	0	935329792	72	4104
2026-01-03 11:43:50.64	309.94	21.70	-53.4	-54.7	15.0	0.00e+00	0	30	0	937426944	72	4310
2026-01-03 11:43:51.64	310.15	21.62	-53.8	-55.1	14.9	0.00e+00	0	30	0	939524096	72	4502
2026-01-03 11:43:52.64	310.35	21.54	-53.8	-55.1	14.8	0.00e+00	0	30	0	941621248	72	4516
2026-01-03 11:43:53.64	310.56	21.45	-54.0	-55.3	14.8	0.00e+00	0	30	0	943718400	73	4384
2026-01-03 11:43:54.65	310.77	21.37	-53.7	-54.9	15.0	0.00e+00	0	30	0	944766976	73	4191
2026-01-03 11:43:55.66	310.98	21.28	-53.4	-54.7	15.1	0.00e+00	0	30	0	946864128	73	4052
2026-01-03 11:43:56.66	311.18	21.20	-53.6	-54.9	15.0	0.00e+00	0	30	0	948961280	73	4156
2026-01-03 11:43:57.65	311.38	21.11	-53.7	-54.9	15.0	0.00e+00	0	30	0	951058432	73	4192
2026-01-03 11:43:58.64	311.58	21.03	-53.8	-55.2	14.9	0.00e+00	0	30	0	952107008	73	4306
2026-01-03 11:43:59.64	311.78	20.94	-54.2	-55.7	14.7	0.00e+00	0	30	0	954204160	73	4557
2026-01-03 11:44:00.63	311.98	20.86	-54.3	-55.8	14.7	0.00e+00	0	30	0	956301312	74	4356
2026-01-03 11:44:01.63	312.18	20.77	-54.3	-55.8	14.7	0.00e+00	0	30	0	958398464	74	4349
2026-01-03 11:44:02.62	312.37	20.69	-54.1	-55.5	14.8	0.00e+00	0	30	0	960495616	74	4214
2026-01-03 11:44:03.62	312.57	20.60	-53.8	-55.1	15.0	0.00e+00	0	30	0	961544192	74	4022
2026-01-03 11:44:04.61	312.76	20.52	-53.6	-54.9	15.0	0.00e+00	0	30	0	963641344	73	4165
2026-01-03 11:44:05.61	312.96	20.43	-53.2	-54.4	15.1	0.00e+00	0	30	0	965738496	72	4177
2026-01-03 11:44:06.60	313.15	20.35	-53.1	-54.3	15.2	0.00e+00	0	30	0	967835648	72	4106
2026-01-03 11:44:07.59	313.34	20.26	-53.3	-54.5	15.1	0.00e+00	0	31	0	968884224	72	4217
2026-01-03 11:44:08.58	313.53	20.18	-53.8	-55.1	14.8	0.00e+00	0	30	0	970981376	72	4507
2026-01-03 11:44:09.57	313.71	20.10	-54.0	-55.4	14.8	0.00e+00	0	30	0	973078528	73	4409
2026-01-03 11:44:10.57	313.90	20.01	-54.5	-56.1	14.6	0.00e+00	0	30	0	975175680	74	4507
2026-01-03 11:44:11.57	314.09	19.92	-54.9	-56.5	14.4	0.00e+00	0	30	0	977272832	74	4744
2026-01-03 11:44:12.58	314.28	19.84	-54.8	-56.4	14.4	0.00e+00	0	30	0	978321408	74	4689
2026-01-03 11:44:13.57	314.47	19.75	-54.5	-56.1	14.6	0.00e+00	0	30	0	980418560	74	4508
2026-01-03 11:44:14.56	314.65	19.67	-54.2	-55.6	14.8	0.00e+00	0	30	0	982515712	74	4262
2026-01-03 11:44:15.56	314.83	19.58	-53.8	-55.2	15.0	0.00e+00	0	30	0	984612864	74	4055
2026-01-03 11:44:16.55	315.01	19.50	-53.8	-55.2	15.0	0.00e+00	0	30	0	985661440	74	4062
2026-01-03 11:44:17.54	315.19	19.41	-53.8	-55.1	15.0	0.00e+00	0	30	0	987758592	74	4007
2026-01-03 11:44:18.53	315.37	19.33	-53.7	-55.0	14.9	0.00e+00	0	30	0	989855744	73	4227
2026-01-03 11:44:19.52	315.55	19.25	-53.9	-55.3	14.8	2.20e-06	0	30	0	991952896	73	4365
2026-01-03 11:44:20.52	315.73	19.16	-53.7	-55.0	14.9	0.00e+00	0	30	0	994050048	73	4234
2026-01-03 11:44:21.52	315.91	19.08	-53.7	-55.0	14.9	0.00e+00	0	30	0	995098624	73	4230
2026-01-03 11:44:22.52	316.09	18.99	-53.4	-54.7	15.0	0.00e+00	0	30	0	997195776	73	4079
2026-01-03 11:44:23.52	316.26	18.90	-53.3	-54.5	15.1	0.00e+00	0	30	0	999292928	73	4002
2026-01-03 11:44:24.50	316.43	18.82	-53.3	-54.5	15.1	0.00e+00	0	30	0	1001390080	73	3964
2026-01-03 11:44:25.50	316.61	18.74	-53.0	-54.2	15.2	0.00e+00	0	30	0	1002438656	72	4069
2026-01-03 11:44:26.49	316.78	18.65	-52.9	-54.0	15.2	0.00e+00	0	30	0	1004535808	72	3976
2026-01-03 11:44:27.47	316.95	18.57	-53.1	-54.2	15.1	0.00e+00	0	30	0	1006632960	72	4092
2026-01-03 11:44:28.47	317.12	18.48	-53.2	-54.4	15.1	0.00e+00	0	30	0	1008730112	72	4165
2026-01-03 11:44:29.47	317.29	18.40	-53.4	-54.6	15.0	1.50e-06	0	30	0	1010827264	72	4272
2026-01-03 11:44:30.47	317.46	18.31	-53.3	-54.5	15.0	0.00e+00	0	30	0	1011875840	72	4227
2026-01-03 11:44:31.47	317.63	18.23	-53.3	-54.5	15.0	0.00e+00	0	30	0	1013972992	72	4224
2026-01-03 11:44:32.46	317.80	18.14	-53.4	-54.6	15.0	0.00e+00	0	30	0	1016070144	72	4262
2026-01-03 11:44:33.46	317.96	18.06	-53.3	-54.5	15.1	0.00e+00	0	30	0	1018167296	72	4207
2026-01-03 11:44:34.46	318.13	17.98	-53.3	-54.5	15.1	0.00e+00	0	30	0	1019215872	72	4241
2026-01-03 11:44:35.44	318.29	17.89	-53.3	-54.5	15.0	0.00e+00	0	30	0	1021313024	72	4221
2026-01-03 11:44:36.44	318.45	17.81	-53.5	-54.8	14.9	0.00e+00	0	30	0	1023410176	72	4352
2026-01-03 11:44:37.43	318.62	17.72	-53.7	-55.1	14.8	0.00e+00	0	30	0	1025507328	72	4505
2026-01-03 11:44:38.43	318.78	17.64	-54.0	-55.4	14.7	0.00e+00	0	30	0	1027604480	73	4435
2026-01-03 11:44:39.42	318.94	17.56	-54.3	-55.8	14.6	0.00e+00	0	30	0	1028653056	73	4632
2026-01-03 11:44:40.41	319.10	17.47	-54.6	-56.2	14.5	0.00e+00	0	30	0	1030750208	74	4563
2026-01-03 11:44:41.41	319.26	17.39	-54.5	-56.1	14.5	0.00e+00	0	30	0	1032847360	74	4519
2026-01-03 11:44:42.41	319.42	17.30	-54.4	-55.9	14.6	0.00e+00	0	30	0	1034944512	74	4418
2026-01-03 11:44:43.41	319.58	17.22	-54.1	-55.6	14.8	0.00e+00	0	30	0	1037041664	74	4251
2026-01-03 11:44:44.40	319.73	17.14	-54.0	-55.4	14.8	0.00e+00	0	30	0	1038090240	74	4149
2026-01-03 11:44:45.39	319.89	17.05	-53.6	-54.9	14.9	0.00e+00	0	30	0	1040187392	73	4192
2026-01-03 11:44:46.39	320.04	16.97	-53.4	-54.7	15.0	0.00e+00	0	30	0	1042284544	73	4081
2026-01-03 11:44:47.39	320.20	16.89	-53.5	-54.8	15.0	0.00e+00	0	30	0	1044381696	73	4129
2026-01-03 11:44:48.39	320.35	16.80	-53.3	-54.5	15.1	0.00e+00	0	30	0	1045430272	73	4000
2026-01-03 11:44:49.38	320.50	16.72	-53.5	-54.8	15.0	0.00e+00	0	30	0	1047527424	73	4139
2026-01-03 11:44:50.37	320.65	16.64	-53.4	-54.6	15.0	0.00e+00	0	30	0	1049624576	73	4042
2026-01-03 11:44:51.36	320.80	16.56	-53.2	-54.4	15.0	0.00e+00	0	30	0	1051721728	72	4154
2026-01-03 11:44:52.36	320.95	16.47	-53.0	-54.2	15.1	0.00e+00	0	30	0	1053818880	72	4053
2026-01-03 11:44:53.36	321.10	16.39	-53.0	-54.2	15.1	0.00e+00	0	30	0	1054867456	72	4063
2026-01-03 11:44:54.34	321.25	16.31	-52.7	-53.8	15.2	3.00e-06	0	30	0	1056964608	71	4126
2026-01-03 11:44:55.34	321.40	16.23	-52.6	-53.7	15.3	0.00e+00	0	30	0	1059061760	71	4056
2026-01-03 11:44:56.34	321.55	16.14	-52.6	-53.7	15.2	5.30e-06	0	30	0	1061158912	71	4067
2026-01-03 11:44:57.33	321.69	16.06	-52.7	-53.8	15.2	0.00e+00	0	30	0	1062207488	71	4117
2026-01-03 11:44:58.33	321.84	15.98	-52.7	-53.9	15.2	0.00e+00	0	30	0	1064304640	71	4149
2026-01-03 11:44:59.31	321.98	15.90	-52.9	-54.1	15.1	0.00e+00	0	30	0	1066401792	71	4246
2026-01-03 11:45:00.30	322.12	15.82	-53.0	-54.1	15.1	0.00e+00	0	30	0	1068498944	71	4288
2026-01-03 11:45:01.30	322.27	15.73	-53.3	-54.5	14.9	0.00e+00	0	30	0	1070596096	71	4489
2026-01-03 11:45:02.29	322.41	15.65	-53.4	-54.7	14.9	0.00e+00	0	30	0	1071644672	72	4333
2026-01-03 11:45:03.28	322.55	15.57	-53.5	-54.8	14.9	0.00e+00	0	30	0	1073741824	72	4377
2026-01-03 11:45:04.26	322.69	15.49	-53.8	-55.1	14.7	0.00e+00	0	30	0	1075838976	72	4538
2026-01-03 11:45:05.25	322.83	15.41	-53.9	-55.3	14.8	0.00e+00	0	30	0	1077936128	73	4357
2026-01-03 11:45:06.25	322.97	15.33	-53.9	-55.3	14.8	0.00e+00	0	30	0	1078984704	73	4375
2026-01-03 11:45:07.26	323.11	15.25	-54.0	-55.4	14.7	0.00e+00	0	30	0	1081081856	73	4439
2026-01-03 11:45:08.26	323.25	15.17	-54.0	-55.5	14.7	0.00e+00	0	30	0	1083179008	73	4453
2026-01-03 11:45:09.25	323.38	15.09	-53.9	-55.4	14.7	3.00e-06	0	30	0	1085276160	73	4412
2026-01-03 11:45:10.24	323.52	15.00	-53.9	-55.3	14.7	0.00e+00	0	30	0	1087373312	73	4388
2026-01-03 11:45:11.25	323.66	14.92	-53.7	-55.0	14.9	3.00e-06	0	30	0	1088421888	73	4241
2026-01-03 11:45:12.23	323.79	14.84	-53.6	-55.0	14.9	0.00e+00	0	30	0	1090519040	73	4195
2026-01-03 11:45:13.22	323.92	14.76	-53.5	-54.9	14.9	0.00e+00	0	30	0	1092616192	73	4159
2026-01-03 11:45:14.21	324.06	14.68	-53.4	-54.7	15.0	0.00e+00	0	30	0	1094713344	73	4095
2026-01-03 11:45:15.20	324.19	14.60	-53.4	-54.7	15.0	0.00e+00	0	30	0	1095761920	73	4052
2026-01-03 11:45:16.21	324.32	14.52	-53.4	-54.7	15.0	0.00e+00	0	30	0	1097859072	73	4063
2026-01-03 11:45:17.20	324.45	14.44	-53.3	-54.6	15.0	0.00e+00	0	30	0	1099956224	73	4014
2026-01-03 11:45:18.20	324.59	14.36	-53.2	-54.5	15.1	0.00e+00	0	30	0	1102053376	73	3978
2026-01-03 11:45:19.20	324.72	14.28	-53.4	-54.7	15.0	0.00e+00	0	30	0	1104150528	73	4068
2026-01-03 11:45:20.21	324.85	14.20	-53.6	-54.9	14.9	0.00e+00	0	30	0	1105199104	73	4168
2026-01-03 11:45:21.20	324.98	14.12	-53.4	-54.8	14.9	0.00e+00	0	30	0	1107296256	73	4103
2026-01-03 11:45:22.20	325.10	14.04	-53.6	-54.9	14.9	0.00e+00	0	30	0	1109393408	73	4183
2026-01-03 11:45:23.20	325.23	13.96	-53.5	-54.8	14.9	0.00e+00	0	31	0	1111490560	73	4121
2026-01-03 11:45:24.19	325.36	13.89	-53.3	-54.7	15.0	0.00e+00	0	30	0	1112539136	73	4056
2026-01-03 11:45:25.19	325.49	13.81	-53.3	-54.6	15.0	0.00e+00	0	30	0	1114636288	73	4032
2026-01-03 11:45:26.19	325.61	13.73	-53.3	-54.5	15.1	0.00e+00	0	30	0	1116733440	73	3996
2026-01-03 11:45:27.19	325.74	13.65	-53.2	-54.4	15.0	0.00e+00	0	30	0	1118830592	72	4178
2026-01-03 11:45:28.18	325.86	13.57	-53.1	-54.4	15.0	0.00e+00	0	30	0	1120927744	72	4153
2026-01-03 11:45:29.18	325.99	13.49	-53.1	-54.4	15.0	0.00e+00	0	30	0	1121976320	72	4159
2026-01-03 11:45:30.18	326.11	13.41	-53.2	-54.4	15.0	0.00e+00	0	30	0	1124073472	72	4187
2026-01-03 11:45:31.17	326.23	13.34	-53.2	-54.4	15.0	0.00e+00	0	30	0	1126170624	72	4182
2026-01-03 11:45:32.16	326.35	13.26	-53.3	-54.6	14.9	0.00e+00	0	30	0	1128267776	72	4254
2026-01-03 11:45:33.15	326.47	13.18	-53.2	-54.5	14.9	0.00e+00	0	30	0	1129316352	72	4227
2026-01-03 11:45:34.15	326.59	13.10	-53.3	-54.6	14.9	0.00e+00	0	30	0	1131413504	72	4270
2026-01-03 11:45:35.14	326.71	13.03	-53.6	-55.0	14.8	0.00e+00	0	30	0	1133510656	72	4446
2026-01-03 11:45:36.14	326.83	12.95	-53.7	-55.1	14.7	1.50e-06	0	30	0	1135607808	72	4507
2026-01-03 11:45:37.13	326.95	12.87	-53.8	-55.2	14.6	0.00e+00	0	30	0	1137704960	72	4578
2026-01-03 11:45:38.13	327.07	12.79	-53.9	-55.3	14.7	0.00e+00	0	30	0	1138753536	73	4381
2026-01-03 11:45:39.12	327.19	12.72	-54.0	-55.4	14.6	0.00e+00	0	30	0	1140850688	73	4429
2026-01-03 11:45:40.11	327.30	12.64	-54.0	-55.5	14.6	0.00e+00	0	30	0	1142947840	73	4480
2026-01-03 11:45:41.12	327.42	12.56	-54.1	-55.6	14.6	0.00e+00	0	30	0	1145044992	73	4501
2026-01-03 11:45:42.11	327.54	12.49	-53.8	-55.3	14.7	0.00e+00	0	30	0	1147142144	73	4353
2026-01-03 11:45:43.10	327.65	12.41	-54.1	-55.6	14.6	0.00e+00	0	30	0	1148190720	73	4500
2026-01-03 11:45:44.10	327.77	12.33	-54.0	-55.5	14.6	0.00e+00	0	30	0	1150287872	73	4478
2026-01-03 11:45:45.10	327.88	12.26	-54.1	-55.6	14.6	0.00e+00	0	30	0	1152385024	73	4543
2026-01-03 11:45:46.09	328.00	12.18	-54.2	-55.8	14.5	0.00e+00	0	30	0	1154482176	73	4607
2026-01-03 11:45:47.10	328.11	12.11	-54.1	-55.7	14.5	0.00e+00	0	30	0	1155530752	73	4561
2026-01-03 11:45:48.09	328.22	12.03	-54.3	-55.8	14.4	0.00e+00	0	30	0	1157627904	73	4640
2026-01-03 11:45:49.09	328.33	11.95	-54.3	-55.9	14.4	0.00e+00	0	30	0	1159725056	73	4695
2026-01-03 11:45:50.08	328.45	11.88	-54.2	-55.8	14.4	0.00e+00	0	30	0	1161822208	73	4643
2026-01-03 11:45:51.08	328.56	11.80	-54.5	-56.2	14.3	1.83e-05	0	30	0	1163919360	74	4575
2026-01-03 11:45:52.06	328.67	11.73	-54.5	-56.2	14.4	0.00e+00	0	30	0	1164967936	74	4554
2026-01-03 11:45:53.06	328.78	11.65	-54.7	-56.4	14.3	2.05e-05	0	30	0	1167065088	74	4700
2026-01-03 11:45:54.06	328.89	11.58	-54.7	-56.4	14.3	0.00e+00	0	30	0	1169162240	74	4672
2026-01-03 11:45:55.05	328.99	11.50	-54.4	-56.0	14.4	0.00e+00	0	30	0	1171259392	74	4493
2026-01-03 11:45:56.06	329.10	11.43	-54.4	-56.0	14.4	2.74e-05	0	30	0	1172307968	74	4480
2026-01-03 11:45:57.05	329.21	11.36	-54.3	-56.0	14.5	0.00e+00	0	30	0	1174405120	74	4442
2026-01-03 11:45:58.04	329.32	11.28	-54.2	-55.8	14.6	0.00e+00	0	30	0	1176502272	74	4350
2026-01-03 11:45:59.04	329.42	11.21	-54.2	-55.8	14.5	0.00e+00	0	30	0	1178599424	74	4372
2026-01-03 11:46:00.04	329.53	11.13	-53.9	-55.4	14.7	0.00e+00	0	30	0	1180696576	74	4162
2026-01-03 11:46:01.04	329.64	11.06	-53.8	-55.3	14.8	0.00e+00	0	30	0	1181745152	74	4115
2026-01-03 11:46:02.03	329.74	10.98	-53.9	-55.3	14.8	0.00e+00	0	30	0	1183842304	74	4128
2026-01-03 11:46:03.02	329.85	10.91	-53.7	-55.1	14.8	0.00e+00	0	30	0	1185939456	73	4279
2026-01-03 11:46:04.02	329.95	10.84	-53.9	-55.3	14.7	0.00e+00	0	30	0	1188036608	73	4385
2026-01-03 11:46:05.01	330.05	10.76	-53.9	-55.4	14.6	0.00e+00	0	30	0	1189085184	73	4396
2026-01-03 11:46:06.01	330.16	10.69	-53.9	-55.4	14.7	1.67e-05	0	30	0	1191182336	73	4399
2026-01-03 11:46:07.01	330.26	10.62	-54.2	-55.8	14.4	0.00e+00	0	30	0	1193279488	73	4624
2026-01-03 11:46:08.00	330.36	10.55	-54.2	-55.7	14.5	1.06e-05	0	30	0	1195376640	73	4593
2026-01-03 11:46:08.99	330.46	10.47	-54.5	-56.2	14.3	0.00e+00	0	30	0	1197473792	74	4584
2026-01-03 11:46:09.98	330.56	10.40	-54.8	-56.6	14.1	0.00e+00	0	30	0	1198522368	74	4792
2026-01-03 11:46:10.98	330.66	10.33	-54.8	-56.6	14.2	0.00e+00	0	30	0	1200619520	74	4785
2026-01-03 11:46:11.97	330.76	10.26	-55.0	-57.0	14.0	0.00e+00	0	30	0	1202716672	75	4710
2026-01-03 11:46:12.96	330.86	10.18	-55.0	-56.9	14.0	7.00e-07	0	30	0	1204813824	75	4704
2026-01-03 11:46:13.97	330.96	10.11	-54.9	-56.8	14.1	0.00e+00	0	30	0	1206910976	75	4638
