passes_logs/2026/01/03/R3.2S_Murmansk/R3.2S_Murmansk__20260103_033658_NOAA_20_JPSS-1_rec.log

#Pass ID: 20260103_033658_NOAA 20 (JPSS-1)
#Satellite: NOAA 20 (JPSS-1)
#Configuration: NOAA 20
#almurnet v.1.7.20251203
#Start time: 2026-01-03 03:36:57

#Version: 2.2.20231116
#Station: R3.2S_Murmansk
#Location: 33.079688 lon 68.888172 lat
#TLE: 1 43013U 17073A   26002.78363558  .00000190  00000+0  11110-3 0  9990
#TLE: 2 43013  98.7623 303.8528 0001892  57.0664 303.0694 14.19532716421006

#Time	Az	El	Level	Level2	SNR	BER	BlckErr	Temp	State	Recorded	gain1	gain2
2026-01-03 03:36:57.62	43.17	1.98	-59.8	-75.3	3.8	1.49e+00	0	29	0	0	86	20667
2026-01-03 03:36:58.62	43.11	2.04	-59.8	-75.3	3.8	1.49e+00	0	29	104	0	84	23176
2026-01-03 03:36:59.62	43.06	2.10	-59.8	-75.3	3.8	1.49e+00	0	29	104	0	84	23227
2026-01-03 03:37:00.61	43.00	2.15	-59.8	-75.3	3.8	1.49e+00	0	29	104	0	84	23217
2026-01-03 03:37:01.62	42.94	2.21	-59.8	-75.3	3.8	1.49e+00	0	29	104	0	84	23166
2026-01-03 03:37:02.62	42.89	2.27	-59.8	-75.3	3.9	1.49e+00	0	29	104	0	84	23234
2026-01-03 03:37:03.62	42.83	2.33	-59.8	-75.3	3.8	1.49e+00	0	29	104	0	84	23166
2026-01-03 03:37:04.62	42.78	2.39	-59.8	-75.3	3.8	1.49e+00	0	29	104	0	84	23218
2026-01-03 03:37:05.62	42.72	2.45	-59.8	-75.3	3.8	1.49e+00	0	29	104	0	84	23161
2026-01-03 03:37:06.63	42.66	2.51	-59.8	-75.3	3.8	1.49e+00	0	29	104	0	84	23180
2026-01-03 03:37:07.63	42.60	2.57	-59.8	-75.3	3.8	1.49e+00	0	29	104	0	84	23219
2026-01-03 03:37:08.63	42.55	2.63	-59.8	-75.3	3.8	1.49e+00	0	29	104	0	84	23193
2026-01-03 03:37:09.63	42.49	2.69	-59.8	-75.3	3.8	1.49e+00	0	29	104	0	84	23164
2026-01-03 03:37:10.63	42.43	2.75	-59.8	-75.3	3.8	1.49e+00	0	29	104	0	84	23241
2026-01-03 03:37:11.64	42.37	2.81	-59.8	-75.3	3.8	1.49e+00	0	29	104	0	84	23266
2026-01-03 03:37:12.65	42.31	2.87	-59.8	-75.3	3.8	1.49e+00	0	29	104	0	84	23215
2026-01-03 03:37:13.64	42.26	2.93	-59.8	-75.3	3.8	1.49e+00	0	29	104	0	84	23231
2026-01-03 03:37:14.64	42.20	2.99	-59.8	-75.3	3.9	1.49e+00	0	29	104	0	84	23229
2026-01-03 03:37:15.64	42.14	3.05	-59.8	-75.3	3.8	1.49e+00	0	29	104	0	84	23211
2026-01-03 03:37:16.63	42.08	3.11	-59.8	-75.3	3.8	1.49e+00	0	29	104	0	84	23164
2026-01-03 03:37:17.64	42.02	3.17	-59.8	-75.3	3.8	1.49e+00	0	29	104	0	84	23132
2026-01-03 03:37:18.64	41.96	3.23	-59.8	-75.3	3.8	1.49e+00	0	29	104	0	84	23063
2026-01-03 03:37:19.64	41.90	3.29	-59.8	-75.3	3.8	1.49e+00	0	30	104	0	84	23100
2026-01-03 03:37:20.64	41.84	3.35	-59.8	-75.3	3.8	1.49e+00	0	30	104	0	84	23208
2026-01-03 03:37:21.64	41.78	3.41	-59.8	-75.3	3.8	1.49e+00	0	29	104	0	84	23271
2026-01-03 03:37:22.64	41.72	3.47	-59.8	-75.3	3.8	1.49e+00	0	30	104	0	84	23281
2026-01-03 03:37:23.64	41.66	3.53	-59.8	-75.3	3.8	1.49e+00	0	30	104	0	84	23216
2026-01-03 03:37:24.64	41.59	3.59	-59.8	-75.3	3.8	1.49e+00	0	30	104	0	84	23189
2026-01-03 03:37:25.64	41.53	3.65	-59.8	-75.3	3.9	1.49e+00	0	30	104	0	84	23179
2026-01-03 03:37:26.64	41.47	3.72	-59.8	-75.3	3.8	1.49e+00	0	30	104	0	84	23111
2026-01-03 03:37:27.64	41.41	3.78	-59.8	-75.3	3.8	1.49e+00	0	30	104	0	84	23149
2026-01-03 03:37:28.64	41.35	3.84	-59.8	-75.3	3.8	1.49e+00	0	30	104	0	84	23240
2026-01-03 03:37:29.64	41.28	3.90	-59.8	-75.3	3.8	1.49e+00	0	30	104	0	84	23269
2026-01-03 03:37:30.64	41.22	3.96	-59.8	-75.3	3.8	1.49e+00	0	30	104	0	84	23271
2026-01-03 03:37:31.63	41.16	4.02	-59.8	-75.2	3.8	1.49e+00	0	30	104	0	84	23011
2026-01-03 03:37:32.64	41.09	4.09	-59.8	-75.1	3.8	1.49e+00	0	30	104	0	84	22609
2026-01-03 03:37:33.64	41.03	4.15	-59.8	-74.7	3.8	1.49e+00	0	30	104	0	84	21713
2026-01-03 03:37:34.64	40.96	4.21	-59.7	-74.3	3.8	1.49e+00	0	30	104	0	84	20691
2026-01-03 03:37:35.64	40.90	4.27	-59.7	-73.9	3.8	1.49e+00	0	30	104	0	84	19620
2026-01-03 03:37:36.64	40.83	4.33	-59.7	-73.3	3.8	1.49e+00	0	30	104	0	84	18505
2026-01-03 03:37:37.64	40.77	4.40	-59.7	-72.6	4.0	1.48e+00	0	30	0	0	84	17080
2026-01-03 03:37:38.64	40.70	4.46	-59.6	-71.9	4.2	1.44e+00	0	30	0	0	84	15648
2026-01-03 03:37:39.63	40.64	4.52	-59.6	-71.0	4.4	1.36e+00	67	30	0	0	84	14180
2026-01-03 03:37:40.64	40.57	4.58	-59.5	-70.3	4.7	9.05e-01	0	30	0	2097152	84	13022
2026-01-03 03:37:41.64	40.50	4.65	-59.4	-69.4	5.1	7.05e-01	0	30	0	4194304	84	11811
2026-01-03 03:37:42.64	40.44	4.71	-59.3	-68.5	5.7	4.94e-01	0	30	0	5242880	84	10621
2026-01-03 03:37:43.63	40.37	4.77	-59.3	-68.0	6.0	3.59e-01	0	30	0	7340032	84	10047
2026-01-03 03:37:44.63	40.30	4.84	-59.2	-67.6	6.2	2.63e-01	0	30	0	9437184	84	9532
2026-01-03 03:37:45.63	40.24	4.90	-59.2	-67.2	6.5	1.77e-01	0	30	0	11534336	84	9105
2026-01-03 03:37:46.62	40.17	4.96	-59.2	-67.3	6.5	1.73e-01	0	30	0	12582912	84	9176
2026-01-03 03:37:47.61	40.10	5.02	-59.2	-67.4	6.4	1.88e-01	0	30	0	14680064	84	9319
2026-01-03 03:37:48.61	40.03	5.09	-59.2	-67.0	6.7	2.00e-01	0	30	0	16777216	84	8953
2026-01-03 03:37:49.59	39.97	5.15	-59.4	-67.9	6.2	1.74e-01	0	30	0	18874368	84	9842
2026-01-03 03:37:50.59	39.90	5.21	-59.3	-67.8	6.2	2.81e-01	0	30	0	20971520	84	9732
2026-01-03 03:37:51.59	39.83	5.28	-58.3	-63.4	9.5	4.32e-01	0	30	0	22020096	83	6263
2026-01-03 03:37:52.59	39.76	5.34	-59.2	-68.2	6.1	1.83e-03	0	30	0	24117248	83	10859
2026-01-03 03:37:53.59	39.69	5.41	-59.1	-66.0	7.5	1.48e+00	0	30	0	24117248	84	7926
2026-01-03 03:37:54.59	39.62	5.47	-57.5	-61.3	11.6	7.55e-05	0	30	0	25165824	81	5504
2026-01-03 03:37:55.59	39.55	5.54	-57.1	-60.4	12.2	9.10e-06	0	30	0	27262976	80	5264
2026-01-03 03:37:56.59	39.47	5.60	-57.0	-60.1	12.4	7.00e-07	0	30	0	29360128	80	5089
2026-01-03 03:37:57.58	39.40	5.66	-56.7	-59.6	12.8	0.00e+00	0	30	0	31457280	80	4789
2026-01-03 03:37:58.58	39.33	5.73	-56.5	-59.3	13.0	7.00e-07	0	30	0	33554432	79	4872
2026-01-03 03:37:59.57	39.26	5.79	-56.5	-59.2	13.1	0.00e+00	0	30	0	34603008	79	4842
2026-01-03 03:38:00.56	39.19	5.86	-56.5	-59.3	13.0	0.00e+00	0	30	0	36700160	79	4885
2026-01-03 03:38:01.57	39.12	5.92	-56.6	-59.4	12.9	0.00e+00	0	30	0	38797312	79	4971
2026-01-03 03:38:02.57	39.04	5.99	-56.6	-59.4	12.9	0.00e+00	0	30	0	40894464	79	4982
2026-01-03 03:38:03.57	38.97	6.05	-56.5	-59.2	13.1	0.00e+00	0	30	0	42991616	79	4838
2026-01-03 03:38:04.56	38.90	6.12	-56.4	-59.0	13.2	0.00e+00	0	30	0	44040192	79	4727
2026-01-03 03:38:05.56	38.82	6.18	-56.5	-59.1	13.1	0.00e+00	0	30	0	46137344	79	4802
2026-01-03 03:38:06.56	38.75	6.25	-56.4	-58.9	13.2	0.00e+00	0	30	0	48234496	79	4705
2026-01-03 03:38:07.56	38.67	6.32	-56.4	-59.0	13.2	0.00e+00	0	30	0	50331648	79	4744
2026-01-03 03:38:08.56	38.60	6.38	-56.5	-59.1	13.2	0.00e+00	0	30	0	51380224	79	4781
2026-01-03 03:38:09.56	38.52	6.45	-56.5	-59.1	13.2	0.00e+00	0	31	0	53477376	79	4798
2026-01-03 03:38:10.56	38.45	6.51	-56.3	-58.9	13.4	0.00e+00	0	30	0	55574528	79	4663
2026-01-03 03:38:11.57	38.37	6.58	-56.3	-58.8	13.4	0.00e+00	0	30	0	57671680	79	4642
2026-01-03 03:38:12.56	38.29	6.65	-56.3	-58.8	13.4	0.00e+00	0	30	0	59768832	79	4647
2026-01-03 03:38:13.56	38.22	6.71	-56.3	-58.8	13.4	0.00e+00	0	30	0	60817408	79	4610
2026-01-03 03:38:14.56	38.14	6.78	-56.3	-58.8	13.4	0.00e+00	0	30	0	62914560	79	4613
2026-01-03 03:38:15.56	38.06	6.85	-56.3	-58.7	13.4	0.00e+00	0	30	0	65011712	79	4583
2026-01-03 03:38:16.56	37.98	6.91	-56.3	-58.7	13.4	0.00e+00	0	30	0	67108864	79	4588
2026-01-03 03:38:17.55	37.90	6.98	-56.2	-58.6	13.5	0.00e+00	0	30	0	68157440	78	4794
2026-01-03 03:38:18.55	37.83	7.05	-56.2	-58.7	13.4	0.00e+00	0	30	0	70254592	78	4848
2026-01-03 03:38:19.54	37.75	7.11	-56.2	-58.7	13.5	0.00e+00	0	30	0	72351744	78	4827
2026-01-03 03:38:20.54	37.67	7.18	-56.2	-58.6	13.5	0.00e+00	0	30	0	74448896	78	4810
2026-01-03 03:38:21.54	37.59	7.25	-56.3	-58.8	13.4	0.00e+00	0	30	0	76546048	78	4887
2026-01-03 03:38:22.54	37.51	7.32	-56.2	-58.5	13.5	0.00e+00	0	31	0	77594624	78	4754
2026-01-03 03:38:23.54	37.43	7.38	-56.1	-58.5	13.6	0.00e+00	0	30	0	79691776	78	4728
2026-01-03 03:38:24.54	37.34	7.45	-56.1	-58.5	13.6	0.00e+00	0	30	0	81788928	78	4733
2026-01-03 03:38:25.54	37.26	7.52	-56.1	-58.4	13.7	0.00e+00	0	31	0	83886080	78	4674
2026-01-03 03:38:26.54	37.18	7.59	-56.1	-58.4	13.6	0.00e+00	0	31	0	85983232	78	4686
2026-01-03 03:38:27.55	37.10	7.66	-56.1	-58.4	13.7	0.00e+00	0	30	0	87031808	78	4683
2026-01-03 03:38:28.55	37.01	7.73	-56.1	-58.4	13.7	0.00e+00	0	31	0	89128960	78	4675
2026-01-03 03:38:29.55	36.93	7.79	-56.1	-58.3	13.7	0.00e+00	0	31	0	91226112	78	4650
2026-01-03 03:38:30.55	36.85	7.86	-56.0	-58.3	13.7	0.00e+00	0	31	0	93323264	78	4640
2026-01-03 03:38:31.55	36.76	7.93	-56.1	-58.3	13.7	0.00e+00	0	31	0	95420416	78	4643
2026-01-03 03:38:32.55	36.68	8.00	-56.0	-58.2	13.8	0.00e+00	0	31	0	96468992	78	4578
2026-01-03 03:38:33.55	36.59	8.07	-56.0	-58.3	13.8	0.00e+00	0	30	0	98566144	78	4599
2026-01-03 03:38:34.54	36.51	8.14	-55.9	-58.1	13.8	0.00e+00	0	31	0	100663296	78	4545
2026-01-03 03:38:35.55	36.42	8.21	-55.9	-58.2	13.8	0.00e+00	0	31	0	102760448	78	4558
2026-01-03 03:38:36.55	36.34	8.28	-55.9	-58.1	13.8	0.00e+00	0	31	0	103809024	78	4541
2026-01-03 03:38:37.55	36.25	8.35	-55.9	-58.1	13.9	0.00e+00	0	31	0	105906176	78	4528
2026-01-03 03:38:38.54	36.16	8.42	-55.9	-58.1	13.9	0.00e+00	0	31	0	108003328	78	4504
2026-01-03 03:38:39.55	36.08	8.49	-55.8	-57.9	14.0	0.00e+00	0	31	0	110100480	78	4423
2026-01-03 03:38:40.55	35.99	8.56	-55.8	-57.9	14.0	0.00e+00	0	31	0	112197632	78	4412
2026-01-03 03:38:41.54	35.90	8.63	-55.8	-58.0	14.0	0.00e+00	0	31	0	113246208	78	4442
2026-01-03 03:38:42.54	35.81	8.70	-55.9	-58.0	14.0	0.00e+00	0	31	0	115343360	78	4485
2026-01-03 03:38:43.54	35.72	8.77	-55.8	-57.9	14.0	0.00e+00	0	31	0	117440512	78	4416
2026-01-03 03:38:44.53	35.63	8.84	-55.7	-57.8	14.0	0.00e+00	0	31	0	119537664	78	4376
2026-01-03 03:38:45.52	35.54	8.91	-55.8	-57.9	14.0	0.00e+00	0	31	0	121634816	78	4418
2026-01-03 03:38:46.52	35.45	8.98	-55.9	-58.0	14.0	0.00e+00	0	31	0	122683392	78	4484
2026-01-03 03:38:47.52	35.36	9.05	-55.9	-58.0	13.9	0.00e+00	0	31	0	124780544	78	4486
2026-01-03 03:38:48.52	35.27	9.12	-55.7	-57.8	14.1	0.00e+00	0	31	0	126877696	78	4364
2026-01-03 03:38:49.52	35.18	9.19	-55.9	-58.0	14.0	0.00e+00	0	31	0	128974848	78	4478
2026-01-03 03:38:50.52	35.09	9.26	-55.9	-58.0	14.0	0.00e+00	0	31	0	131072000	78	4481
2026-01-03 03:38:51.51	34.99	9.33	-55.9	-58.0	14.0	0.00e+00	0	31	0	132120576	78	4459
2026-01-03 03:38:52.51	34.90	9.40	-55.9	-58.0	14.0	0.00e+00	0	31	0	134217728	78	4480
2026-01-03 03:38:53.50	34.81	9.47	-56.0	-58.2	13.9	0.00e+00	0	31	0	136314880	78	4577
2026-01-03 03:38:54.49	34.72	9.54	-55.9	-58.0	14.0	0.00e+00	0	31	0	138412032	78	4473
2026-01-03 03:38:55.49	34.62	9.62	-55.9	-58.0	14.0	0.00e+00	0	31	0	139460608	78	4490
2026-01-03 03:38:56.50	34.52	9.69	-55.9	-58.0	14.0	0.00e+00	0	31	0	141557760	78	4459
2026-01-03 03:38:57.50	34.43	9.76	-55.9	-58.0	14.0	0.00e+00	0	31	0	143654912	78	4469
2026-01-03 03:38:58.50	34.33	9.83	-55.9	-58.0	14.0	0.00e+00	0	31	0	145752064	78	4477
2026-01-03 03:38:59.51	34.23	9.91	-55.9	-58.1	14.0	0.00e+00	0	31	0	147849216	78	4498
2026-01-03 03:39:00.50	34.14	9.98	-55.9	-58.1	14.0	0.00e+00	0	31	0	148897792	78	4504
2026-01-03 03:39:01.50	34.04	10.05	-55.9	-58.0	14.0	0.00e+00	0	31	0	150994944	78	4455
2026-01-03 03:39:02.50	33.94	10.12	-55.9	-58.0	14.0	0.00e+00	0	31	0	153092096	78	4464
2026-01-03 03:39:03.50	33.84	10.20	-55.9	-58.1	14.0	0.00e+00	0	31	0	155189248	78	4502
2026-01-03 03:39:04.50	33.74	10.27	-55.9	-58.1	14.0	0.00e+00	0	31	0	156237824	78	4499
2026-01-03 03:39:05.50	33.64	10.34	-55.9	-58.0	14.0	0.00e+00	0	31	0	158334976	78	4458
2026-01-03 03:39:06.50	33.54	10.42	-55.9	-58.0	14.0	0.00e+00	0	31	0	160432128	78	4451
2026-01-03 03:39:07.50	33.44	10.49	-55.9	-58.0	14.0	0.00e+00	0	31	0	162529280	78	4456
2026-01-03 03:39:08.51	33.34	10.56	-55.8	-57.9	14.1	0.00e+00	0	31	0	164626432	78	4415
2026-01-03 03:39:09.51	33.24	10.64	-55.8	-57.9	14.1	0.00e+00	0	31	0	165675008	78	4401
2026-01-03 03:39:10.51	33.14	10.71	-55.9	-58.0	14.1	0.00e+00	0	31	0	167772160	78	4445
2026-01-03 03:39:11.51	33.03	10.78	-55.9	-58.1	14.0	0.00e+00	0	31	0	169869312	78	4499
2026-01-03 03:39:12.51	32.93	10.86	-55.9	-58.0	14.0	0.00e+00	0	31	0	171966464	78	4488
2026-01-03 03:39:13.50	32.83	10.93	-56.0	-58.1	14.0	0.00e+00	0	31	0	174063616	78	4522
2026-01-03 03:39:14.51	32.72	11.01	-55.9	-58.0	14.1	0.00e+00	0	31	0	175112192	78	4462
2026-01-03 03:39:15.50	32.62	11.08	-55.9	-58.0	14.1	0.00e+00	0	31	0	177209344	78	4460
2026-01-03 03:39:16.51	32.51	11.16	-55.9	-57.9	14.1	0.00e+00	0	31	0	179306496	78	4425
2026-01-03 03:39:17.50	32.41	11.23	-55.9	-57.9	14.1	0.00e+00	0	31	0	181403648	78	4441
2026-01-03 03:39:18.50	32.30	11.30	-55.8	-57.8	14.1	0.00e+00	0	31	0	182452224	78	4373
2026-01-03 03:39:19.50	32.19	11.38	-55.8	-57.9	14.1	0.00e+00	0	31	0	184549376	78	4401
2026-01-03 03:39:20.50	32.08	11.45	-55.8	-57.8	14.2	0.00e+00	0	31	0	186646528	78	4389
2026-01-03 03:39:21.50	31.97	11.53	-55.8	-57.8	14.2	0.00e+00	0	31	0	188743680	78	4390
2026-01-03 03:39:22.49	31.87	11.60	-55.8	-57.9	14.1	0.00e+00	0	31	0	190840832	78	4408
2026-01-03 03:39:23.50	31.76	11.68	-55.9	-57.9	14.1	0.00e+00	0	31	0	191889408	78	4421
2026-01-03 03:39:24.50	31.65	11.76	-55.9	-57.9	14.1	0.00e+00	0	31	0	193986560	78	4430
2026-01-03 03:39:25.50	31.53	11.83	-55.9	-58.0	14.1	0.00e+00	0	31	0	196083712	78	4459
2026-01-03 03:39:26.51	31.42	11.91	-55.8	-57.8	14.2	0.00e+00	0	31	0	198180864	78	4386
2026-01-03 03:39:27.51	31.31	11.98	-55.9	-57.9	14.1	0.00e+00	0	31	0	200278016	78	4437
2026-01-03 03:39:28.50	31.20	12.06	-55.8	-57.8	14.2	0.00e+00	0	31	0	201326592	78	4363
2026-01-03 03:39:29.49	31.09	12.14	-55.8	-57.8	14.2	0.00e+00	0	31	0	203423744	78	4346
2026-01-03 03:39:30.50	30.97	12.21	-55.7	-57.6	14.3	0.00e+00	0	31	0	205520896	78	4278
2026-01-03 03:39:31.49	30.86	12.29	-55.7	-57.7	14.2	0.00e+00	0	31	0	207618048	77	4552
2026-01-03 03:39:32.49	30.74	12.36	-55.6	-57.5	14.3	0.00e+00	0	31	0	209715200	77	4474
2026-01-03 03:39:33.49	30.63	12.44	-55.6	-57.4	14.3	0.00e+00	0	31	0	210763776	77	4440
2026-01-03 03:39:34.49	30.51	12.52	-55.5	-57.4	14.3	0.00e+00	0	31	0	212860928	77	4427
2026-01-03 03:39:35.49	30.39	12.60	-55.6	-57.5	14.3	0.00e+00	0	31	0	214958080	77	4446
2026-01-03 03:39:36.49	30.28	12.67	-55.5	-57.4	14.4	0.00e+00	0	31	0	217055232	77	4413
2026-01-03 03:39:37.49	30.16	12.75	-55.5	-57.4	14.4	0.00e+00	0	31	0	218103808	77	4392
2026-01-03 03:39:38.49	30.04	12.83	-55.5	-57.4	14.4	0.00e+00	0	31	0	220200960	77	4405
2026-01-03 03:39:39.49	29.92	12.90	-55.5	-57.4	14.4	0.00e+00	0	31	0	222298112	77	4403
2026-01-03 03:39:40.48	29.80	12.98	-55.5	-57.4	14.4	0.00e+00	0	31	0	224395264	77	4397
2026-01-03 03:39:41.48	29.68	13.06	-55.6	-57.5	14.3	0.00e+00	0	31	0	226492416	77	4468
2026-01-03 03:39:42.48	29.56	13.14	-55.5	-57.3	14.4	0.00e+00	0	31	0	227540992	77	4377
2026-01-03 03:39:43.48	29.44	13.21	-55.5	-57.3	14.4	0.00e+00	0	31	0	229638144	77	4380
2026-01-03 03:39:44.47	29.32	13.29	-55.4	-57.1	14.5	0.00e+00	0	31	0	231735296	77	4289
2026-01-03 03:39:45.47	29.19	13.37	-55.5	-57.3	14.4	0.00e+00	0	31	0	233832448	77	4369
2026-01-03 03:39:46.48	29.07	13.45	-55.5	-57.4	14.4	0.00e+00	0	31	0	235929600	77	4419
2026-01-03 03:39:47.48	28.94	13.53	-55.5	-57.3	14.4	0.00e+00	0	31	0	236978176	77	4353
2026-01-03 03:39:48.47	28.82	13.60	-55.6	-57.4	14.4	0.00e+00	0	31	0	239075328	77	4440
2026-01-03 03:39:49.47	28.69	13.68	-55.5	-57.4	14.4	0.00e+00	0	31	0	241172480	77	4416
2026-01-03 03:39:50.46	28.57	13.76	-55.6	-57.4	14.4	0.00e+00	0	31	0	243269632	77	4434
2026-01-03 03:39:51.46	28.44	13.84	-55.5	-57.4	14.4	0.00e+00	0	31	0	244318208	77	4398
2026-01-03 03:39:52.46	28.31	13.92	-55.4	-57.3	14.5	0.00e+00	0	31	0	246415360	77	4345
2026-01-03 03:39:53.46	28.18	14.00	-55.5	-57.3	14.4	0.00e+00	0	31	0	248512512	77	4379
2026-01-03 03:39:54.46	28.05	14.08	-55.5	-57.3	14.4	0.00e+00	0	31	0	250609664	77	4377
2026-01-03 03:39:55.46	27.92	14.16	-55.4	-57.2	14.5	0.00e+00	0	31	0	252706816	77	4339
2026-01-03 03:39:56.45	27.79	14.24	-55.4	-57.3	14.5	0.00e+00	0	31	0	253755392	77	4342
2026-01-03 03:39:57.44	27.66	14.31	-55.4	-57.2	14.5	0.00e+00	0	31	0	255852544	77	4319
2026-01-03 03:39:58.44	27.53	14.39	-55.4	-57.2	14.5	0.00e+00	0	31	0	257949696	77	4300
2026-01-03 03:39:59.43	27.40	14.47	-55.3	-57.1	14.5	0.00e+00	0	31	0	260046848	77	4259
2026-01-03 03:40:00.42	27.27	14.55	-55.3	-57.0	14.6	0.00e+00	0	31	0	261095424	77	4210
2026-01-03 03:40:01.42	27.13	14.63	-55.2	-56.9	14.6	0.00e+00	0	31	0	263192576	77	4189
2026-01-03 03:40:02.43	26.99	14.71	-55.1	-56.8	14.6	0.00e+00	0	31	0	265289728	76	4379
2026-01-03 03:40:03.43	26.86	14.79	-55.1	-56.8	14.6	0.00e+00	0	31	0	267386880	76	4367
2026-01-03 03:40:04.43	26.72	14.87	-55.2	-56.8	14.6	0.00e+00	0	31	0	269484032	76	4383
2026-01-03 03:40:05.43	26.58	14.95	-55.2	-56.9	14.6	0.00e+00	0	31	0	270532608	76	4430
2026-01-03 03:40:06.43	26.45	15.03	-55.3	-57.0	14.6	0.00e+00	0	31	0	272629760	76	4459
2026-01-03 03:40:07.42	26.31	15.11	-55.1	-56.8	14.7	0.00e+00	0	31	0	274726912	76	4373
2026-01-03 03:40:08.43	26.17	15.19	-55.2	-56.8	14.7	0.00e+00	0	31	0	276824064	76	4385
2026-01-03 03:40:09.43	26.03	15.27	-55.1	-56.8	14.7	0.00e+00	0	31	0	278921216	76	4357
2026-01-03 03:40:10.43	25.88	15.36	-55.1	-56.8	14.7	0.00e+00	0	31	0	279969792	76	4380
2026-01-03 03:40:11.43	25.74	15.44	-55.2	-56.9	14.6	0.00e+00	0	31	0	282066944	76	4429
2026-01-03 03:40:12.44	25.60	15.52	-55.1	-56.7	14.7	0.00e+00	0	31	0	284164096	76	4322
2026-01-03 03:40:13.43	25.45	15.60	-55.0	-56.6	14.8	0.00e+00	0	31	0	286261248	76	4257
2026-01-03 03:40:14.43	25.31	15.68	-55.0	-56.6	14.8	0.00e+00	0	31	0	288358400	76	4262
2026-01-03 03:40:15.42	25.17	15.76	-54.8	-56.3	14.9	0.00e+00	0	31	0	289406976	76	4130
2026-01-03 03:40:16.42	25.02	15.84	-54.8	-56.3	14.9	0.00e+00	0	31	0	291504128	76	4133
2026-01-03 03:40:17.42	24.87	15.92	-54.8	-56.4	14.9	0.00e+00	0	31	0	293601280	76	4147
2026-01-03 03:40:18.43	24.72	16.00	-54.8	-56.3	14.9	0.00e+00	0	31	0	295698432	76	4136
2026-01-03 03:40:19.42	24.58	16.09	-54.9	-56.4	14.9	0.00e+00	0	31	0	296747008	76	4178
2026-01-03 03:40:20.43	24.43	16.17	-54.8	-56.4	14.9	0.00e+00	0	31	0	298844160	76	4166
2026-01-03 03:40:21.43	24.27	16.25	-54.9	-56.4	14.8	0.00e+00	0	31	0	300941312	76	4191
2026-01-03 03:40:22.43	24.12	16.33	-54.9	-56.5	14.8	0.00e+00	0	31	0	303038464	76	4222
2026-01-03 03:40:23.43	23.97	16.41	-54.9	-56.4	14.9	0.00e+00	0	31	0	305135616	76	4191
2026-01-03 03:40:24.43	23.82	16.49	-54.9	-56.4	14.9	0.00e+00	0	31	0	306184192	76	4191
2026-01-03 03:40:25.44	23.66	16.58	-54.9	-56.4	14.9	0.00e+00	0	31	0	308281344	76	4174
2026-01-03 03:40:26.44	23.51	16.66	-54.9	-56.4	14.9	0.00e+00	0	31	0	310378496	76	4192
2026-01-03 03:40:27.43	23.36	16.74	-54.8	-56.3	14.9	0.00e+00	0	31	0	312475648	76	4143
2026-01-03 03:40:28.43	23.20	16.82	-54.9	-56.4	14.9	0.00e+00	0	31	0	314572800	76	4187
2026-01-03 03:40:29.42	23.04	16.90	-54.9	-56.5	14.8	0.00e+00	0	31	0	315621376	76	4232
2026-01-03 03:40:30.43	22.88	16.99	-54.9	-56.4	14.9	0.00e+00	0	31	0	317718528	76	4189
2026-01-03 03:40:31.43	22.72	17.07	-54.8	-56.4	14.9	0.00e+00	0	31	0	319815680	76	4156
2026-01-03 03:40:32.43	22.56	17.15	-54.8	-56.4	14.9	0.00e+00	0	31	0	321912832	76	4168
2026-01-03 03:40:33.42	22.41	17.23	-55.0	-56.6	14.8	0.00e+00	0	31	0	324009984	76	4245
2026-01-03 03:40:34.42	22.24	17.31	-54.8	-56.4	14.9	0.00e+00	0	31	0	325058560	76	4163
2026-01-03 03:40:35.42	22.08	17.40	-54.8	-56.4	14.9	0.00e+00	0	31	0	327155712	76	4163
2026-01-03 03:40:36.41	21.92	17.48	-54.9	-56.4	14.9	0.00e+00	0	31	0	329252864	76	4180
2026-01-03 03:40:37.41	21.76	17.56	-54.8	-56.4	14.9	0.00e+00	0	31	0	331350016	76	4146
2026-01-03 03:40:38.40	21.59	17.64	-54.8	-56.3	14.9	0.00e+00	0	31	0	332398592	76	4130
2026-01-03 03:40:39.39	21.43	17.72	-54.8	-56.3	14.9	0.00e+00	0	31	0	334495744	76	4145
2026-01-03 03:40:40.40	21.26	17.81	-54.8	-56.3	15.0	0.00e+00	0	31	0	336592896	76	4120
2026-01-03 03:40:41.40	21.09	17.89	-54.9	-56.4	14.9	0.00e+00	0	31	0	338690048	76	4167
2026-01-03 03:40:42.40	20.92	17.97	-54.9	-56.4	14.9	0.00e+00	0	31	0	340787200	76	4190
2026-01-03 03:40:43.40	20.75	18.06	-55.0	-56.5	14.9	0.00e+00	0	31	0	341835776	76	4227
2026-01-03 03:40:44.40	20.58	18.14	-55.0	-56.6	14.9	0.00e+00	0	31	0	343932928	76	4257
2026-01-03 03:40:45.40	20.41	18.22	-55.0	-56.6	14.8	0.00e+00	0	31	0	346030080	76	4278
2026-01-03 03:40:46.39	20.24	18.30	-55.1	-56.7	14.8	0.00e+00	0	31	0	348127232	76	4302
2026-01-03 03:40:47.39	20.06	18.39	-55.1	-56.7	14.8	0.00e+00	0	31	0	349175808	76	4334
2026-01-03 03:40:48.38	19.89	18.47	-55.1	-56.7	14.8	0.00e+00	0	31	0	351272960	76	4340
2026-01-03 03:40:49.38	19.72	18.55	-55.2	-56.8	14.7	0.00e+00	0	31	0	353370112	76	4372
2026-01-03 03:40:50.37	19.54	18.63	-55.2	-56.8	14.7	0.00e+00	0	31	0	355467264	76	4381
2026-01-03 03:40:51.37	19.36	18.71	-55.1	-56.7	14.8	0.00e+00	0	31	0	357564416	76	4333
2026-01-03 03:40:52.37	19.18	18.80	-55.2	-56.8	14.7	0.00e+00	0	31	0	358612992	76	4378
2026-01-03 03:40:53.37	19.01	18.88	-55.2	-56.8	14.7	0.00e+00	0	31	0	360710144	76	4387
2026-01-03 03:40:54.36	18.83	18.96	-55.2	-56.8	14.8	0.00e+00	0	31	0	362807296	76	4352
2026-01-03 03:40:55.36	18.65	19.04	-55.2	-56.9	14.7	0.00e+00	0	31	0	364904448	76	4396
2026-01-03 03:40:56.35	18.46	19.12	-55.3	-56.9	14.7	0.00e+00	0	31	0	365953024	76	4440
2026-01-03 03:40:57.35	18.28	19.21	-55.1	-56.7	14.8	0.00e+00	0	31	0	368050176	76	4315
2026-01-03 03:40:58.35	18.10	19.29	-55.0	-56.6	14.8	0.00e+00	0	31	0	370147328	76	4276
2026-01-03 03:40:59.34	17.91	19.37	-55.0	-56.6	14.8	0.00e+00	0	31	0	372244480	76	4272
2026-01-03 03:41:00.34	17.73	19.45	-55.0	-56.6	14.8	0.00e+00	0	31	0	374341632	76	4261
2026-01-03 03:41:01.34	17.54	19.54	-55.0	-56.6	14.9	0.00e+00	0	31	0	375390208	76	4275
2026-01-03 03:41:02.34	17.35	19.62	-55.0	-56.6	14.8	0.00e+00	0	31	0	377487360	76	4264
2026-01-03 03:41:03.34	17.16	19.70	-55.0	-56.5	14.9	0.00e+00	0	31	0	379584512	76	4237
2026-01-03 03:41:04.35	16.97	19.78	-55.0	-56.5	14.9	0.00e+00	0	31	0	381681664	76	4238
2026-01-03 03:41:05.35	16.78	19.87	-55.1	-56.6	14.8	0.00e+00	0	31	0	383778816	76	4280
2026-01-03 03:41:06.34	16.59	19.95	-55.0	-56.6	14.9	0.00e+00	0	31	0	384827392	76	4275
2026-01-03 03:41:07.34	16.39	20.03	-55.2	-56.8	14.8	0.00e+00	0	31	0	386924544	76	4379
2026-01-03 03:41:08.34	16.20	20.11	-55.1	-56.7	14.8	0.00e+00	0	31	0	389021696	76	4324
2026-01-03 03:41:09.34	16.00	20.19	-55.1	-56.7	14.8	0.00e+00	0	31	0	391118848	76	4308
2026-01-03 03:41:10.34	15.80	20.27	-55.0	-56.6	14.9	0.00e+00	0	31	0	392167424	76	4285
2026-01-03 03:41:11.34	15.61	20.35	-55.1	-56.6	14.9	0.00e+00	0	31	0	394264576	76	4279
2026-01-03 03:41:12.34	15.41	20.44	-55.0	-56.6	14.9	0.00e+00	0	31	0	396361728	76	4262
2026-01-03 03:41:13.34	15.21	20.52	-55.0	-56.6	14.9	0.00e+00	0	31	0	398458880	76	4256
2026-01-03 03:41:14.34	15.01	20.60	-55.0	-56.5	14.9	0.00e+00	0	31	0	400556032	76	4231
2026-01-03 03:41:15.33	14.81	20.68	-54.8	-56.3	15.0	0.00e+00	0	31	0	401604608	76	4126
2026-01-03 03:41:16.34	14.60	20.76	-54.8	-56.3	15.0	0.00e+00	0	31	0	403701760	76	4108
2026-01-03 03:41:17.34	14.40	20.84	-54.8	-56.4	15.0	0.00e+00	0	31	0	405798912	76	4147
2026-01-03 03:41:18.34	14.19	20.92	-54.7	-56.2	15.0	0.00e+00	0	31	0	407896064	76	4081
2026-01-03 03:41:19.35	13.98	21.00	-54.7	-56.1	15.1	0.00e+00	0	31	0	409993216	76	4043
2026-01-03 03:41:20.35	13.77	21.08	-54.5	-55.9	15.1	0.00e+00	0	31	0	411041792	75	4177
2026-01-03 03:41:21.35	13.56	21.16	-54.4	-55.8	15.2	0.00e+00	0	31	0	413138944	75	4118
2026-01-03 03:41:22.36	13.35	21.25	-54.4	-55.8	15.2	0.00e+00	0	31	0	415236096	75	4128
2026-01-03 03:41:23.36	13.14	21.33	-54.3	-55.6	15.2	0.00e+00	0	31	0	417333248	75	4043
2026-01-03 03:41:24.37	12.93	21.41	-54.3	-55.7	15.2	0.00e+00	0	31	0	419430400	75	4085
2026-01-03 03:41:25.38	12.71	21.49	-54.3	-55.7	15.2	0.00e+00	0	31	0	420478976	75	4054
2026-01-03 03:41:26.38	12.50	21.57	-54.2	-55.5	15.2	0.00e+00	0	31	0	422576128	74	4211
2026-01-03 03:41:27.38	12.28	21.65	-54.2	-55.5	15.1	0.00e+00	0	31	0	424673280	74	4219
2026-01-03 03:41:28.37	12.07	21.72	-54.2	-55.5	15.2	0.00e+00	0	31	0	426770432	74	4211
2026-01-03 03:41:29.37	11.85	21.80	-54.0	-55.3	15.3	0.00e+00	0	31	0	428867584	74	4117
2026-01-03 03:41:30.37	11.63	21.88	-54.1	-55.4	15.2	0.00e+00	0	31	0	429916160	74	4163
2026-01-03 03:41:31.37	11.41	21.96	-54.2	-55.6	15.2	0.00e+00	0	31	0	432013312	74	4253
2026-01-03 03:41:32.37	11.19	22.04	-54.2	-55.5	15.2	0.00e+00	0	31	0	434110464	74	4234
2026-01-03 03:41:33.37	10.97	22.12	-54.1	-55.4	15.3	0.00e+00	0	31	0	436207616	74	4166
2026-01-03 03:41:34.37	10.74	22.19	-54.0	-55.2	15.3	0.00e+00	0	31	0	437256192	74	4093
2026-01-03 03:41:35.36	10.52	22.27	-53.8	-55.0	15.4	0.00e+00	0	31	0	439353344	74	3995
2026-01-03 03:41:36.36	10.30	22.35	-53.7	-55.0	15.4	0.00e+00	0	31	0	441450496	74	3971
2026-01-03 03:41:37.35	10.07	22.42	-53.5	-54.7	15.5	0.00e+00	0	31	0	443547648	73	4082
2026-01-03 03:41:38.35	9.84	22.50	-53.6	-54.8	15.4	0.00e+00	0	31	0	445644800	73	4120
2026-01-03 03:41:39.35	9.61	22.58	-53.5	-54.7	15.5	0.00e+00	0	31	0	446693376	73	4089
2026-01-03 03:41:40.34	9.39	22.65	-53.6	-54.8	15.4	0.00e+00	0	31	0	448790528	73	4133
2026-01-03 03:41:41.34	9.16	22.73	-53.6	-54.8	15.4	0.00e+00	0	31	0	450887680	73	4141
2026-01-03 03:41:42.34	8.92	22.80	-53.6	-54.8	15.4	0.00e+00	0	31	0	452984832	73	4138
2026-01-03 03:41:43.35	8.69	22.88	-53.6	-54.8	15.5	0.00e+00	0	31	0	454033408	73	4119
2026-01-03 03:41:44.35	8.45	22.96	-53.6	-54.8	15.4	0.00e+00	0	31	0	456130560	73	4105
2026-01-03 03:41:45.35	8.22	23.03	-53.6	-54.8	15.4	0.00e+00	0	31	0	458227712	73	4113
2026-01-03 03:41:46.35	7.98	23.11	-53.5	-54.7	15.5	0.00e+00	0	31	0	460324864	73	4077
2026-01-03 03:41:47.35	7.74	23.18	-53.6	-54.8	15.4	0.00e+00	0	31	0	462422016	73	4128
2026-01-03 03:41:48.35	7.50	23.25	-53.7	-54.9	15.4	0.00e+00	0	31	0	463470592	73	4167
2026-01-03 03:41:49.34	7.26	23.33	-53.7	-55.0	15.4	0.00e+00	0	31	0	465567744	73	4201
2026-01-03 03:41:50.33	7.02	23.40	-53.5	-54.7	15.5	0.00e+00	0	31	0	467664896	73	4074
2026-01-03 03:41:51.32	6.78	23.47	-53.6	-54.8	15.4	0.00e+00	0	31	0	469762048	73	4144
2026-01-03 03:41:52.32	6.54	23.54	-53.6	-54.8	15.5	0.00e+00	0	31	0	471859200	73	4117
2026-01-03 03:41:53.33	6.29	23.62	-53.7	-54.9	15.4	0.00e+00	0	31	0	472907776	73	4185
2026-01-03 03:41:54.33	6.05	23.69	-53.8	-55.0	15.3	0.00e+00	0	31	0	475004928	73	4226
2026-01-03 03:41:55.32	5.80	23.76	-53.7	-54.9	15.4	0.00e+00	0	31	0	477102080	73	4178
2026-01-03 03:41:56.32	5.55	23.83	-53.6	-54.7	15.5	0.00e+00	0	31	0	479199232	73	4096
2026-01-03 03:41:57.32	5.30	23.90	-53.6	-54.8	15.4	0.00e+00	0	31	0	481296384	73	4138
2026-01-03 03:41:58.32	5.05	23.97	-53.6	-54.7	15.5	0.00e+00	0	31	0	482344960	73	4095
2026-01-03 03:41:59.32	4.80	24.04	-53.5	-54.7	15.5	0.00e+00	0	31	0	484442112	73	4067
2026-01-03 03:42:00.32	4.55	24.11	-53.7	-54.9	15.4	0.00e+00	0	31	0	486539264	73	4173
2026-01-03 03:42:01.32	4.29	24.18	-53.6	-54.8	15.4	0.00e+00	0	31	0	488636416	73	4134
2026-01-03 03:42:02.32	4.04	24.25	-53.6	-54.8	15.4	0.00e+00	0	31	0	489684992	73	4142
2026-01-03 03:42:03.32	3.78	24.32	-53.6	-54.8	15.4	0.00e+00	0	31	0	491782144	73	4119
2026-01-03 03:42:04.32	3.52	24.38	-53.7	-54.9	15.4	0.00e+00	0	31	0	493879296	73	4163
2026-01-03 03:42:05.32	3.27	24.45	-53.8	-55.1	15.4	0.00e+00	0	31	0	495976448	73	4246
2026-01-03 03:42:06.31	3.01	24.52	-53.8	-55.0	15.4	0.00e+00	0	31	0	498073600	73	4212
2026-01-03 03:42:07.32	2.74	24.58	-53.9	-55.1	15.4	0.00e+00	0	31	0	499122176	73	4270
2026-01-03 03:42:08.32	2.48	24.65	-54.0	-55.2	15.3	0.00e+00	0	31	0	501219328	73	4337
2026-01-03 03:42:09.32	2.22	24.71	-54.0	-55.2	15.3	0.00e+00	0	31	0	503316480	73	4340
2026-01-03 03:42:10.31	1.96	24.78	-53.9	-55.2	15.3	0.00e+00	0	31	0	505413632	73	4323
2026-01-03 03:42:11.31	1.69	24.84	-53.9	-55.2	15.3	0.00e+00	0	31	0	507510784	73	4303
2026-01-03 03:42:12.31	1.43	24.91	-53.8	-55.0	15.4	0.00e+00	0	31	0	508559360	73	4231
2026-01-03 03:42:13.31	1.16	24.97	-53.6	-54.7	15.5	0.00e+00	0	31	0	510656512	73	4093
2026-01-03 03:42:14.31	0.89	25.03	-53.5	-54.7	15.5	0.00e+00	0	31	0	512753664	73	4080
2026-01-03 03:42:15.32	0.62	25.09	-53.7	-54.9	15.4	0.00e+00	0	31	0	514850816	73	4160
2026-01-03 03:42:16.32	0.35	25.16	-53.6	-54.8	15.5	0.00e+00	0	31	0	516947968	73	4109
2026-01-03 03:42:17.31	0.08	25.22	-53.6	-54.8	15.5	0.00e+00	0	31	0	517996544	73	4125
2026-01-03 03:42:18.32	359.80	25.28	-53.6	-54.8	15.5	0.00e+00	0	31	0	520093696	73	4133
2026-01-03 03:42:19.31	359.53	25.34	-53.7	-54.9	15.5	0.00e+00	0	31	0	522190848	73	4151
2026-01-03 03:42:20.31	359.26	25.40	-53.6	-54.8	15.5	0.00e+00	0	31	0	524288000	73	4121
2026-01-03 03:42:21.32	358.98	25.46	-53.7	-54.9	15.4	0.00e+00	0	31	0	525336576	73	4171
2026-01-03 03:42:22.32	358.70	25.51	-53.7	-55.0	15.4	0.00e+00	0	31	0	527433728	73	4196
2026-01-03 03:42:23.32	358.42	25.57	-53.7	-54.9	15.4	0.00e+00	0	31	0	529530880	73	4161
2026-01-03 03:42:24.31	358.15	25.63	-53.7	-54.9	15.4	0.00e+00	0	31	0	531628032	73	4153
2026-01-03 03:42:25.31	357.87	25.68	-53.6	-54.8	15.4	0.00e+00	0	31	0	533725184	73	4140
2026-01-03 03:42:26.31	357.59	25.74	-53.6	-54.8	15.5	0.00e+00	0	31	0	534773760	73	4127
2026-01-03 03:42:27.31	357.30	25.79	-53.7	-54.9	15.4	0.00e+00	0	31	0	536870912	73	4156
2026-01-03 03:42:28.31	357.02	25.85	-53.6	-54.8	15.5	0.00e+00	0	31	0	538968064	73	4139
2026-01-03 03:42:29.31	356.74	25.90	-53.6	-54.8	15.5	0.00e+00	0	31	0	541065216	73	4099
2026-01-03 03:42:30.30	356.46	25.95	-53.5	-54.6	15.6	0.00e+00	0	31	0	542113792	73	4038
2026-01-03 03:42:31.30	356.17	26.01	-53.4	-54.6	15.5	0.00e+00	0	31	0	544210944	73	4029
2026-01-03 03:42:32.30	355.88	26.06	-53.4	-54.6	15.6	0.00e+00	0	31	0	546308096	73	4006
2026-01-03 03:42:33.30	355.60	26.11	-53.5	-54.7	15.5	0.00e+00	0	31	0	548405248	73	4078
2026-01-03 03:42:34.30	355.31	26.16	-53.7	-54.9	15.4	0.00e+00	0	31	0	550502400	73	4165
2026-01-03 03:42:35.30	355.02	26.21	-53.8	-55.0	15.4	0.00e+00	0	31	0	551550976	73	4241
2026-01-03 03:42:36.30	354.73	26.26	-53.9	-55.1	15.3	0.00e+00	0	31	0	553648128	73	4282
2026-01-03 03:42:37.30	354.44	26.30	-53.9	-55.2	15.3	0.00e+00	0	31	0	555745280	73	4322
2026-01-03 03:42:38.30	354.14	26.35	-53.9	-55.2	15.3	0.00e+00	0	31	0	557842432	73	4311
2026-01-03 03:42:39.30	353.85	26.40	-54.0	-55.3	15.3	0.00e+00	0	31	0	559939584	73	4349
2026-01-03 03:42:40.30	353.56	26.44	-54.2	-55.5	15.2	0.00e+00	0	31	0	560988160	73	4459
2026-01-03 03:42:41.30	353.26	26.49	-54.3	-55.6	15.2	0.00e+00	0	31	0	563085312	73	4537
2026-01-03 03:42:42.30	352.97	26.53	-54.5	-55.8	15.1	0.00e+00	0	31	0	565182464	74	4378
2026-01-03 03:42:43.29	352.67	26.58	-54.4	-55.8	15.2	0.00e+00	0	31	0	567279616	74	4349
2026-01-03 03:42:44.29	352.38	26.62	-54.5	-55.8	15.1	0.00e+00	0	31	0	568328192	74	4385
2026-01-03 03:42:45.30	352.07	26.66	-54.5	-55.8	15.2	0.00e+00	0	31	0	570425344	74	4383
2026-01-03 03:42:46.30	351.78	26.70	-54.5	-55.9	15.1	0.00e+00	0	31	0	572522496	74	4422
2026-01-03 03:42:47.28	351.48	26.74	-54.6	-56.0	15.1	0.00e+00	0	31	0	574619648	74	4480
2026-01-03 03:42:48.28	351.18	26.78	-54.7	-56.2	15.0	0.00e+00	0	31	0	576716800	74	4561
2026-01-03 03:42:49.28	350.88	26.82	-54.9	-56.4	14.9	0.00e+00	0	31	0	577765376	75	4420
2026-01-03 03:42:50.27	350.58	26.86	-54.9	-56.4	15.0	0.00e+00	0	31	0	579862528	75	4398
2026-01-03 03:42:51.27	350.28	26.89	-54.9	-56.4	14.9	0.00e+00	0	31	0	581959680	75	4439
2026-01-03 03:42:52.27	349.98	26.93	-54.7	-56.2	15.1	0.00e+00	0	31	0	584056832	75	4310
2026-01-03 03:42:53.27	349.67	26.97	-54.7	-56.2	15.1	0.00e+00	0	31	0	586153984	75	4299
2026-01-03 03:42:54.27	349.37	27.00	-54.7	-56.1	15.1	0.00e+00	0	31	0	587202560	75	4271
2026-01-03 03:42:55.26	349.06	27.03	-54.8	-56.2	15.0	0.00e+00	0	31	0	589299712	75	4326
2026-01-03 03:42:56.26	348.76	27.07	-55.0	-56.5	15.0	0.00e+00	0	31	0	591396864	75	4486
2026-01-03 03:42:57.26	348.45	27.10	-55.0	-56.6	14.9	0.00e+00	0	31	0	593494016	75	4504
2026-01-03 03:42:58.27	348.14	27.13	-55.0	-56.6	14.9	0.00e+00	0	31	0	595591168	75	4500
2026-01-03 03:42:59.26	347.84	27.16	-55.1	-56.6	14.9	0.00e+00	0	31	0	596639744	75	4543
2026-01-03 03:43:00.26	347.53	27.19	-54.9	-56.4	15.0	0.00e+00	0	31	0	598736896	75	4407
2026-01-03 03:43:01.26	347.22	27.22	-55.0	-56.5	15.0	0.00e+00	0	31	0	600834048	75	4456
2026-01-03 03:43:02.26	346.91	27.25	-55.1	-56.6	14.9	0.00e+00	0	31	0	602931200	75	4515
2026-01-03 03:43:03.26	346.60	27.27	-55.3	-56.9	14.8	0.00e+00	0	31	0	603979776	75	4689
2026-01-03 03:43:04.26	346.29	27.30	-55.5	-57.1	14.8	0.00e+00	0	31	0	606076928	76	4523
2026-01-03 03:43:05.25	345.98	27.32	-55.5	-57.2	14.7	0.00e+00	0	31	0	608174080	76	4574
2026-01-03 03:43:06.25	345.67	27.35	-55.4	-57.1	14.8	0.00e+00	0	31	0	610271232	76	4502
2026-01-03 03:43:07.25	345.36	27.37	-55.2	-56.8	14.9	0.00e+00	0	31	0	612368384	76	4361
2026-01-03 03:43:08.25	345.05	27.39	-55.2	-56.8	14.9	0.00e+00	0	31	0	613416960	76	4359
2026-01-03 03:43:09.26	344.73	27.41	-55.4	-57.0	14.8	0.00e+00	0	31	0	615514112	76	4457
2026-01-03 03:43:10.26	344.42	27.43	-55.5	-57.2	14.7	0.00e+00	0	31	0	617611264	76	4560
2026-01-03 03:43:11.26	344.10	27.45	-55.8	-57.5	14.5	0.00e+00	0	31	0	619708416	76	4739
2026-01-03 03:43:12.26	343.79	27.47	-55.7	-57.4	14.6	0.00e+00	0	31	0	621805568	76	4656
2026-01-03 03:43:13.26	343.47	27.49	-55.6	-57.3	14.7	0.00e+00	0	31	0	622854144	76	4628
2026-01-03 03:43:14.26	343.16	27.50	-55.6	-57.3	14.7	0.00e+00	0	31	0	624951296	76	4605
2026-01-03 03:43:15.26	342.84	27.52	-55.5	-57.1	14.7	0.00e+00	0	31	0	627048448	76	4500
2026-01-03 03:43:16.26	342.53	27.53	-55.4	-57.0	14.8	0.00e+00	0	31	0	629145600	76	4486
2026-01-03 03:43:17.26	342.21	27.55	-55.4	-57.0	14.8	0.00e+00	0	31	0	630194176	76	4473
2026-01-03 03:43:18.26	341.90	27.56	-55.5	-57.1	14.8	0.00e+00	0	31	0	632291328	76	4537
2026-01-03 03:43:19.26	341.58	27.57	-55.6	-57.3	14.7	0.00e+00	0	31	0	634388480	76	4608
2026-01-03 03:43:20.26	341.27	27.58	-55.7	-57.4	14.6	0.00e+00	0	31	0	636485632	76	4686
2026-01-03 03:43:21.25	340.95	27.59	-55.8	-57.5	14.6	0.00e+00	0	31	0	638582784	76	4730
2026-01-03 03:43:22.25	340.64	27.60	-55.8	-57.5	14.6	0.00e+00	0	31	0	639631360	76	4750
2026-01-03 03:43:23.25	340.32	27.61	-55.8	-57.5	14.6	0.00e+00	0	31	0	641728512	76	4728
2026-01-03 03:43:24.25	340.00	27.61	-55.5	-57.2	14.7	0.00e+00	0	31	0	643825664	76	4553
2026-01-03 03:43:25.25	339.68	27.62	-55.5	-57.2	14.7	0.00e+00	0	31	0	645922816	76	4550
2026-01-03 03:43:26.25	339.37	27.63	-55.4	-57.0	14.8	0.00e+00	0	31	0	646971392	76	4444
2026-01-03 03:43:27.25	339.05	27.63	-55.4	-57.0	14.8	0.00e+00	0	31	0	649068544	76	4458
2026-01-03 03:43:28.26	338.73	27.63	-55.3	-56.9	14.9	0.00e+00	0	31	0	651165696	76	4419
2026-01-03 03:43:29.26	338.41	27.63	-55.4	-57.0	14.8	0.00e+00	0	31	0	653262848	76	4493
2026-01-03 03:43:30.26	338.09	27.63	-55.3	-56.9	14.9	0.00e+00	0	31	0	655360000	76	4398
2026-01-03 03:43:31.26	337.78	27.63	-55.2	-56.7	15.0	0.00e+00	0	31	0	657457152	76	4319
2026-01-03 03:43:32.27	337.46	27.63	-55.0	-56.5	15.1	0.00e+00	0	31	0	658505728	76	4226
2026-01-03 03:43:33.26	337.14	27.63	-55.1	-56.6	15.0	0.00e+00	0	31	0	660602880	76	4261
2026-01-03 03:43:34.26	336.82	27.63	-55.0	-56.5	15.1	0.00e+00	0	31	0	662700032	76	4199
2026-01-03 03:43:35.26	336.51	27.62	-54.8	-56.2	15.2	0.00e+00	0	31	0	664797184	76	4095
2026-01-03 03:43:36.26	336.19	27.62	-54.9	-56.3	15.1	0.00e+00	0	31	0	665845760	76	4140
2026-01-03 03:43:37.25	335.88	27.61	-54.9	-56.4	15.1	0.00e+00	0	31	0	667942912	76	4160
2026-01-03 03:43:38.24	335.56	27.61	-54.9	-56.4	15.1	0.00e+00	0	31	0	670040064	76	4153
2026-01-03 03:43:39.24	335.25	27.60	-54.8	-56.2	15.2	0.00e+00	0	31	0	672137216	76	4091
2026-01-03 03:43:40.24	334.93	27.59	-54.7	-56.1	15.2	0.00e+00	0	31	0	674234368	76	4027
2026-01-03 03:43:41.24	334.61	27.58	-54.5	-55.9	15.2	0.00e+00	0	31	0	675282944	75	4172
2026-01-03 03:43:42.24	334.30	27.57	-54.6	-55.9	15.2	0.00e+00	0	31	0	677380096	75	4174
2026-01-03 03:43:43.24	333.98	27.56	-54.5	-55.9	15.2	0.00e+00	0	31	0	679477248	75	4171
2026-01-03 03:43:44.23	333.67	27.55	-54.7	-56.1	15.1	0.00e+00	0	31	0	681574400	75	4274
2026-01-03 03:43:45.24	333.35	27.53	-54.7	-56.0	15.2	0.00e+00	0	31	0	682622976	75	4235
2026-01-03 03:43:46.24	333.03	27.52	-54.6	-56.0	15.2	0.00e+00	0	31	0	684720128	75	4237
2026-01-03 03:43:47.24	332.72	27.50	-54.6	-55.9	15.2	0.00e+00	0	31	0	686817280	75	4183
2026-01-03 03:43:48.24	332.40	27.48	-54.6	-56.0	15.2	0.00e+00	0	31	0	688914432	75	4205
2026-01-03 03:43:49.24	332.09	27.47	-54.4	-55.7	15.3	0.00e+00	0	31	0	691011584	75	4069
2026-01-03 03:43:50.25	331.77	27.45	-54.3	-55.6	15.3	0.00e+00	0	31	0	692060160	75	4031
2026-01-03 03:43:51.24	331.46	27.43	-54.2	-55.5	15.3	0.00e+00	0	31	0	694157312	74	4197
2026-01-03 03:43:52.24	331.15	27.41	-54.0	-55.3	15.4	0.00e+00	0	31	0	696254464	74	4103
2026-01-03 03:43:53.23	330.84	27.39	-53.8	-55.0	15.5	0.00e+00	0	31	0	698351616	74	3974
2026-01-03 03:43:54.23	330.53	27.37	-53.9	-55.1	15.4	0.00e+00	0	31	0	700448768	74	4008
2026-01-03 03:43:55.23	330.21	27.34	-53.8	-55.0	15.5	0.00e+00	0	31	0	701497344	74	3997
2026-01-03 03:43:56.23	329.90	27.32	-53.9	-55.1	15.5	0.00e+00	0	31	0	703594496	74	4032
2026-01-03 03:43:57.23	329.59	27.29	-53.9	-55.1	15.5	0.00e+00	0	31	0	705691648	74	4032
2026-01-03 03:43:58.23	329.28	27.27	-53.8	-55.0	15.5	0.00e+00	0	31	0	707788800	74	4004
2026-01-03 03:43:59.22	328.97	27.24	-53.9	-55.1	15.5	0.00e+00	0	31	0	709885952	74	4033
2026-01-03 03:44:00.22	328.66	27.21	-53.9	-55.2	15.5	0.00e+00	0	31	0	710934528	74	4061
2026-01-03 03:44:01.23	328.35	27.19	-53.7	-54.9	15.6	0.00e+00	0	31	0	713031680	74	3949
2026-01-03 03:44:02.22	328.05	27.16	-53.8	-55.0	15.5	0.00e+00	0	31	0	715128832	74	3980
2026-01-03 03:44:03.22	327.74	27.13	-53.9	-55.1	15.5	0.00e+00	0	31	0	717225984	74	4038
2026-01-03 03:44:04.21	327.44	27.09	-53.9	-55.2	15.5	0.00e+00	0	31	0	718274560	74	4064
2026-01-03 03:44:05.21	327.13	27.06	-53.8	-55.1	15.5	0.00e+00	0	31	0	720371712	74	4005
2026-01-03 03:44:06.21	326.82	27.03	-53.9	-55.1	15.5	0.00e+00	0	31	0	722468864	74	4019
2026-01-03 03:44:07.21	326.52	27.00	-54.0	-55.3	15.4	0.00e+00	0	31	0	724566016	74	4104
2026-01-03 03:44:08.21	326.21	26.96	-54.1	-55.4	15.4	0.00e+00	0	31	0	726663168	74	4170
2026-01-03 03:44:09.21	325.91	26.93	-54.1	-55.4	15.4	0.00e+00	0	31	0	727711744	74	4147
2026-01-03 03:44:10.21	325.61	26.89	-54.0	-55.2	15.4	0.00e+00	0	31	0	729808896	74	4085
2026-01-03 03:44:11.21	325.30	26.85	-54.0	-55.2	15.4	0.00e+00	0	31	0	731906048	74	4095
2026-01-03 03:44:12.21	325.00	26.81	-54.0	-55.2	15.4	0.00e+00	0	31	0	734003200	74	4084
2026-01-03 03:44:13.20	324.70	26.78	-53.9	-55.1	15.5	0.00e+00	0	31	0	735051776	74	4042
2026-01-03 03:44:14.20	324.40	26.74	-54.1	-55.4	15.4	0.00e+00	0	31	0	737148928	74	4158
2026-01-03 03:44:15.19	324.11	26.70	-54.2	-55.4	15.3	0.00e+00	0	31	0	739246080	74	4185
2026-01-03 03:44:16.19	323.81	26.66	-54.2	-55.5	15.3	0.00e+00	0	31	0	741343232	74	4223
2026-01-03 03:44:17.20	323.51	26.61	-54.1	-55.4	15.4	0.00e+00	0	31	0	743440384	74	4173
2026-01-03 03:44:18.21	323.20	26.57	-54.3	-55.6	15.3	0.00e+00	0	31	0	744488960	74	4261
2026-01-03 03:44:19.20	322.91	26.53	-54.3	-55.6	15.3	0.00e+00	0	31	0	746586112	74	4262
2026-01-03 03:44:20.20	322.62	26.48	-54.4	-55.8	15.2	0.00e+00	0	31	0	748683264	74	4345
2026-01-03 03:44:21.21	322.32	26.44	-54.5	-55.9	15.2	0.00e+00	0	31	0	750780416	74	4417
2026-01-03 03:44:22.21	322.02	26.39	-54.5	-55.9	15.2	0.00e+00	0	31	0	752877568	74	4401
2026-01-03 03:44:23.21	321.73	26.34	-54.4	-55.8	15.2	0.00e+00	0	31	0	753926144	74	4364
2026-01-03 03:44:24.20	321.44	26.30	-54.5	-55.9	15.2	0.00e+00	0	31	0	756023296	74	4400
2026-01-03 03:44:25.19	321.15	26.25	-54.6	-56.0	15.1	0.00e+00	0	31	0	758120448	74	4463
2026-01-03 03:44:26.20	320.86	26.20	-54.7	-56.1	15.1	0.00e+00	0	31	0	760217600	74	4515
2026-01-03 03:44:27.20	320.57	26.15	-54.7	-56.1	15.1	0.00e+00	0	31	0	761266176	74	4534
2026-01-03 03:44:28.19	320.28	26.10	-54.8	-56.2	15.0	0.00e+00	0	31	0	763363328	74	4592
2026-01-03 03:44:29.19	320.00	26.05	-54.9	-56.3	15.0	0.00e+00	0	31	0	765460480	74	4636
2026-01-03 03:44:30.19	319.71	26.00	-55.0	-56.5	15.0	0.00e+00	0	31	0	767557632	75	4442
2026-01-03 03:44:31.19	319.42	25.95	-55.0	-56.5	15.0	0.00e+00	0	31	0	769654784	75	4450
2026-01-03 03:44:32.19	319.14	25.89	-55.1	-56.6	14.9	0.00e+00	0	31	0	770703360	75	4514
2026-01-03 03:44:33.20	318.85	25.84	-55.1	-56.6	14.9	0.00e+00	0	31	0	772800512	75	4533
2026-01-03 03:44:34.19	318.57	25.78	-55.2	-56.7	14.9	0.00e+00	0	31	0	774897664	75	4591
2026-01-03 03:44:35.19	318.29	25.73	-55.1	-56.7	14.9	0.00e+00	0	31	0	776994816	75	4564
2026-01-03 03:44:36.18	318.01	25.67	-55.2	-56.7	14.9	0.00e+00	0	31	0	779091968	75	4578
2026-01-03 03:44:37.19	317.73	25.62	-55.2	-56.8	14.8	0.00e+00	0	31	0	780140544	75	4601
2026-01-03 03:44:38.17	317.46	25.56	-55.2	-56.7	14.9	0.00e+00	0	31	0	782237696	75	4575
2026-01-03 03:44:39.17	317.18	25.50	-55.3	-56.9	14.8	0.00e+00	0	31	0	784334848	75	4659
2026-01-03 03:44:40.17	316.90	25.45	-55.3	-56.9	14.7	0.00e+00	0	31	0	786432000	75	4674
2026-01-03 03:44:41.16	316.63	25.39	-55.5	-57.2	14.7	0.00e+00	0	31	0	788529152	76	4571
2026-01-03 03:44:42.16	316.35	25.33	-55.7	-57.4	14.6	0.00e+00	0	31	0	789577728	76	4669
2026-01-03 03:44:43.16	316.08	25.27	-55.6	-57.2	14.7	0.00e+00	0	31	0	791674880	76	4596
2026-01-03 03:44:44.16	315.81	25.21	-55.5	-57.1	14.8	0.00e+00	0	31	0	793772032	76	4507
2026-01-03 03:44:45.16	315.53	25.15	-55.3	-56.8	14.9	0.00e+00	0	31	0	795869184	76	4384
2026-01-03 03:44:46.16	315.26	25.08	-55.2	-56.7	14.9	0.00e+00	0	31	0	796917760	76	4333
2026-01-03 03:44:47.16	314.99	25.02	-55.2	-56.8	14.9	0.00e+00	0	31	0	799014912	76	4341
2026-01-03 03:44:48.15	314.73	24.96	-55.3	-56.8	14.9	0.00e+00	0	31	0	801112064	76	4390
2026-01-03 03:44:49.15	314.46	24.90	-55.3	-56.8	14.9	0.00e+00	0	31	0	803209216	76	4372
2026-01-03 03:44:50.15	314.19	24.83	-55.3	-56.9	14.8	0.00e+00	0	31	0	805306368	76	4425
2026-01-03 03:44:51.14	313.93	24.77	-55.3	-56.8	14.9	0.00e+00	0	31	0	806354944	76	4380
2026-01-03 03:44:52.15	313.66	24.70	-55.3	-56.9	14.8	0.00e+00	0	31	0	808452096	76	4422
2026-01-03 03:44:53.15	313.40	24.64	-55.4	-56.9	14.8	0.00e+00	0	31	0	810549248	76	4441
2026-01-03 03:44:54.14	313.14	24.57	-55.4	-56.9	14.8	0.00e+00	0	31	0	812646400	76	4441
2026-01-03 03:44:55.14	312.88	24.51	-55.3	-56.9	14.8	0.00e+00	0	31	0	813694976	76	4418
2026-01-03 03:44:56.14	312.62	24.44	-55.4	-56.9	14.9	0.00e+00	0	31	0	815792128	76	4437
2026-01-03 03:44:57.15	312.36	24.37	-55.1	-56.6	15.0	0.00e+00	0	31	0	817889280	76	4272
2026-01-03 03:44:58.14	312.10	24.31	-55.1	-56.6	15.0	0.00e+00	0	31	0	819986432	76	4245
2026-01-03 03:44:59.14	311.85	24.24	-55.0	-56.5	15.0	0.00e+00	0	31	0	822083584	76	4221
2026-01-03 03:45:00.13	311.59	24.17	-55.1	-56.6	15.0	0.00e+00	0	31	0	823132160	76	4263
2026-01-03 03:45:01.13	311.34	24.10	-55.2	-56.7	14.9	0.00e+00	0	31	0	825229312	76	4320
2026-01-03 03:45:02.12	311.09	24.03	-55.2	-56.7	14.9	0.00e+00	0	31	0	827326464	76	4309
2026-01-03 03:45:03.12	310.84	23.96	-55.1	-56.6	14.9	0.00e+00	0	31	0	829423616	76	4290
2026-01-03 03:45:04.12	310.59	23.89	-55.1	-56.6	15.0	0.00e+00	0	31	0	831520768	76	4273
2026-01-03 03:45:05.11	310.34	23.82	-54.9	-56.4	15.1	0.00e+00	0	31	0	832569344	76	4172
2026-01-03 03:45:06.11	310.09	23.75	-54.8	-56.2	15.1	0.00e+00	0	31	0	834666496	76	4079
2026-01-03 03:45:07.11	309.84	23.68	-54.8	-56.2	15.1	0.00e+00	0	31	0	836763648	76	4096
2026-01-03 03:45:08.10	309.60	23.61	-54.6	-55.9	15.2	0.00e+00	0	31	0	838860800	75	4193
2026-01-03 03:45:09.10	309.35	23.53	-54.4	-55.8	15.3	0.00e+00	0	31	0	839909376	75	4108
2026-01-03 03:45:10.10	309.11	23.46	-54.3	-55.7	15.3	0.00e+00	0	31	0	842006528	75	4059
2026-01-03 03:45:11.10	308.87	23.39	-54.5	-55.9	15.2	0.00e+00	0	31	0	844103680	75	4155
2026-01-03 03:45:12.10	308.63	23.32	-54.5	-55.9	15.2	0.00e+00	0	31	0	846200832	75	4169
2026-01-03 03:45:13.10	308.38	23.24	-54.6	-55.9	15.2	0.00e+00	0	31	0	848297984	75	4185
2026-01-03 03:45:14.09	308.15	23.17	-54.6	-55.9	15.2	0.00e+00	0	31	0	849346560	75	4193
2026-01-03 03:45:15.09	307.91	23.09	-54.5	-55.9	15.2	0.00e+00	0	31	0	851443712	75	4153
2026-01-03 03:45:16.10	307.67	23.02	-54.1	-55.3	15.4	0.00e+00	0	31	0	853540864	74	4137
2026-01-03 03:45:17.10	307.43	22.94	-54.0	-55.3	15.4	0.00e+00	0	31	0	855638016	74	4118
2026-01-03 03:45:18.10	307.20	22.87	-54.0	-55.3	15.4	0.00e+00	0	31	0	857735168	74	4131
2026-01-03 03:45:19.10	306.96	22.79	-54.0	-55.2	15.4	0.00e+00	0	31	0	858783744	74	4087
2026-01-03 03:45:20.09	306.73	22.72	-54.0	-55.3	15.4	0.00e+00	0	31	0	860880896	74	4119
2026-01-03 03:45:21.09	306.50	22.64	-53.9	-55.1	15.4	0.00e+00	0	31	0	862978048	74	4043
2026-01-03 03:45:22.09	306.27	22.57	-53.9	-55.1	15.4	0.00e+00	0	31	0	865075200	74	4049
2026-01-03 03:45:23.09	306.04	22.49	-54.0	-55.2	15.4	0.00e+00	0	31	0	866123776	74	4080
2026-01-03 03:45:24.08	305.82	22.41	-53.9	-55.2	15.5	0.00e+00	0	31	0	868220928	74	4068
2026-01-03 03:45:25.08	305.59	22.34	-53.9	-55.1	15.5	0.00e+00	0	31	0	870318080	74	4026
2026-01-03 03:45:26.07	305.37	22.26	-53.9	-55.2	15.5	0.00e+00	0	31	0	872415232	74	4052
2026-01-03 03:45:27.08	305.14	22.18	-53.8	-55.0	15.5	0.00e+00	0	31	0	874512384	74	4000
2026-01-03 03:45:28.07	304.92	22.10	-53.9	-55.1	15.5	0.00e+00	0	31	0	875560960	74	4015
2026-01-03 03:45:29.07	304.70	22.03	-53.9	-55.1	15.5	0.00e+00	0	31	0	877658112	74	4037
2026-01-03 03:45:30.07	304.47	21.95	-54.0	-55.3	15.4	0.00e+00	0	31	0	879755264	74	4105
2026-01-03 03:45:31.07	304.25	21.87	-54.0	-55.2	15.4	0.00e+00	0	31	0	881852416	74	4091
2026-01-03 03:45:32.06	304.04	21.79	-54.0	-55.2	15.4	0.00e+00	0	31	0	883949568	74	4084
2026-01-03 03:45:33.06	303.82	21.71	-53.9	-55.2	15.4	0.00e+00	0	31	0	884998144	74	4072
2026-01-03 03:45:34.06	303.60	21.63	-53.9	-55.1	15.4	0.00e+00	0	31	0	887095296	74	4042
2026-01-03 03:45:35.07	303.39	21.55	-53.8	-55.0	15.5	0.00e+00	0	31	0	889192448	74	3968
2026-01-03 03:45:36.07	303.17	21.47	-53.7	-54.9	15.5	0.00e+00	0	31	0	891289600	74	3946
2026-01-03 03:45:37.07	302.96	21.39	-53.6	-54.8	15.5	0.00e+00	0	31	0	892338176	73	4129
2026-01-03 03:45:38.06	302.75	21.31	-53.7	-54.9	15.5	0.00e+00	0	31	0	894435328	73	4162
2026-01-03 03:45:39.06	302.54	21.23	-53.5	-54.7	15.5	0.00e+00	0	31	0	896532480	73	4057
2026-01-03 03:45:40.06	302.33	21.15	-53.5	-54.6	15.5	0.00e+00	0	31	0	898629632	73	4051
2026-01-03 03:45:41.06	302.12	21.07	-53.5	-54.6	15.6	0.00e+00	0	31	0	900726784	73	4050
2026-01-03 03:45:42.06	301.91	20.99	-53.4	-54.6	15.6	0.00e+00	0	31	0	901775360	73	4025
2026-01-03 03:45:43.06	301.70	20.91	-53.3	-54.4	15.6	0.00e+00	0	31	0	903872512	73	3942
2026-01-03 03:45:44.07	301.49	20.83	-53.3	-54.4	15.6	0.00e+00	0	31	0	905969664	73	3947
2026-01-03 03:45:45.06	301.29	20.75	-53.3	-54.4	15.6	0.00e+00	0	31	0	908066816	73	3923
2026-01-03 03:45:46.06	301.09	20.67	-53.2	-54.3	15.6	0.00e+00	0	31	0	909115392	72	4117
2026-01-03 03:45:47.05	300.89	20.59	-53.2	-54.3	15.6	0.00e+00	0	31	0	911212544	72	4135
2026-01-03 03:45:48.06	300.68	20.51	-53.1	-54.2	15.6	0.00e+00	0	31	0	913309696	72	4087
2026-01-03 03:45:49.06	300.48	20.43	-53.2	-54.3	15.6	0.00e+00	0	31	0	915406848	72	4123
2026-01-03 03:45:50.06	300.28	20.34	-53.2	-54.3	15.6	0.00e+00	0	31	0	917504000	72	4136
2026-01-03 03:45:51.06	300.09	20.26	-53.2	-54.3	15.5	0.00e+00	0	31	0	918552576	72	4104
2026-01-03 03:45:52.06	299.89	20.18	-53.2	-54.3	15.6	0.00e+00	0	31	0	920649728	72	4132
2026-01-03 03:45:53.05	299.69	20.10	-53.2	-54.3	15.6	0.00e+00	0	31	0	922746880	72	4130
2026-01-03 03:45:54.05	299.50	20.02	-53.1	-54.1	15.6	0.00e+00	0	31	0	924844032	72	4042
2026-01-03 03:45:55.05	299.31	19.94	-52.9	-54.0	15.7	0.00e+00	0	31	0	926941184	72	3978
2026-01-03 03:45:56.05	299.11	19.85	-52.8	-53.8	15.8	0.00e+00	0	31	0	927989760	72	3898
2026-01-03 03:45:57.04	298.92	19.77	-52.8	-53.9	15.7	0.00e+00	0	31	0	930086912	72	3931
2026-01-03 03:45:58.04	298.73	19.69	-52.8	-53.8	15.7	0.00e+00	0	31	0	932184064	72	3903
2026-01-03 03:45:59.03	298.54	19.61	-52.9	-54.0	15.7	0.00e+00	0	31	0	934281216	72	3959
2026-01-03 03:46:00.03	298.35	19.53	-52.9	-54.0	15.7	0.00e+00	0	31	0	936378368	72	3974
2026-01-03 03:46:01.03	298.17	19.44	-52.9	-54.0	15.7	0.00e+00	0	31	0	937426944	72	3964
2026-01-03 03:46:02.02	297.98	19.36	-53.0	-54.0	15.7	0.00e+00	0	31	0	939524096	72	3991
2026-01-03 03:46:03.02	297.80	19.28	-52.9	-54.0	15.7	0.00e+00	0	31	0	941621248	72	3984
2026-01-03 03:46:04.02	297.61	19.20	-52.9	-54.0	15.7	0.00e+00	0	31	0	943718400	72	3967
2026-01-03 03:46:05.01	297.43	19.12	-52.8	-53.9	15.8	0.00e+00	0	31	0	944766976	72	3934
2026-01-03 03:46:06.01	297.25	19.03	-53.0	-54.0	15.7	0.00e+00	0	31	0	946864128	72	3995
2026-01-03 03:46:07.01	297.07	18.95	-52.9	-53.9	15.7	0.00e+00	0	31	0	948961280	72	3956
2026-01-03 03:46:08.02	296.88	18.87	-52.8	-53.8	15.7	0.00e+00	0	31	0	951058432	72	3913
2026-01-03 03:46:09.02	296.70	18.78	-52.9	-54.0	15.7	0.00e+00	0	31	0	953155584	72	3968
2026-01-03 03:46:10.02	296.52	18.70	-52.8	-53.9	15.7	0.00e+00	0	31	0	954204160	72	3931
2026-01-03 03:46:11.02	296.35	18.62	-52.8	-53.9	15.7	0.00e+00	0	31	0	956301312	72	3933
2026-01-03 03:46:12.02	296.17	18.54	-53.0	-54.1	15.7	0.00e+00	0	31	0	958398464	72	4016
2026-01-03 03:46:13.02	295.99	18.45	-53.0	-54.1	15.7	0.00e+00	0	31	0	960495616	72	4012
2026-01-03 03:46:14.02	295.82	18.37	-53.1	-54.1	15.6	0.00e+00	0	31	0	962592768	72	4047
2026-01-03 03:46:15.02	295.65	18.29	-53.0	-54.0	15.7	0.00e+00	0	31	0	963641344	72	3995
2026-01-03 03:46:16.02	295.47	18.21	-53.0	-54.0	15.7	0.00e+00	0	31	0	965738496	72	4000
2026-01-03 03:46:17.02	295.30	18.12	-52.9	-54.0	15.7	0.00e+00	0	31	0	967835648	72	3990
2026-01-03 03:46:18.03	295.13	18.04	-53.1	-54.2	15.6	0.00e+00	0	31	0	969932800	72	4078
2026-01-03 03:46:19.03	294.96	17.96	-53.2	-54.3	15.6	0.00e+00	0	31	0	970981376	72	4117
2026-01-03 03:46:20.03	294.79	17.87	-53.2	-54.3	15.6	0.00e+00	0	31	0	973078528	72	4131
2026-01-03 03:46:21.04	294.62	17.79	-53.3	-54.5	15.5	0.00e+00	0	31	0	975175680	72	4204
2026-01-03 03:46:22.03	294.45	17.71	-53.3	-54.4	15.5	0.00e+00	0	31	0	977272832	72	4190
2026-01-03 03:46:23.04	294.28	17.63	-53.2	-54.3	15.6	0.00e+00	0	31	0	979369984	72	4143
2026-01-03 03:46:24.03	294.12	17.54	-53.2	-54.4	15.5	0.00e+00	0	31	0	980418560	72	4146
2026-01-03 03:46:25.03	293.96	17.46	-53.2	-54.3	15.6	0.00e+00	0	31	0	982515712	72	4135
2026-01-03 03:46:26.02	293.79	17.38	-53.2	-54.3	15.6	0.00e+00	0	31	0	984612864	72	4131
2026-01-03 03:46:27.03	293.63	17.30	-53.2	-54.4	15.6	0.00e+00	0	31	0	986710016	72	4147
2026-01-03 03:46:28.02	293.47	17.21	-53.4	-54.5	15.5	0.00e+00	0	31	0	988807168	72	4238
2026-01-03 03:46:29.03	293.31	17.13	-53.4	-54.6	15.5	0.00e+00	0	31	0	989855744	72	4261
2026-01-03 03:46:30.03	293.15	17.05	-53.5	-54.7	15.4	0.00e+00	0	31	0	991952896	72	4334
2026-01-03 03:46:31.04	292.99	16.97	-53.7	-55.0	15.4	0.00e+00	0	31	0	994050048	72	4458
2026-01-03 03:46:32.04	292.83	16.88	-53.8	-55.1	15.3	0.00e+00	0	31	0	996147200	72	4500
2026-01-03 03:46:33.04	292.67	16.80	-53.9	-55.1	15.3	0.00e+00	0	31	0	998244352	73	4281
2026-01-03 03:46:34.04	292.51	16.72	-53.9	-55.1	15.3	0.00e+00	0	31	0	999292928	73	4291
2026-01-03 03:46:35.03	292.36	16.64	-53.9	-55.2	15.3	0.00e+00	0	31	0	1001390080	73	4323
2026-01-03 03:46:36.04	292.20	16.55	-53.9	-55.1	15.3	0.00e+00	0	31	0	1003487232	73	4290
2026-01-03 03:46:37.04	292.05	16.47	-54.0	-55.3	15.3	0.00e+00	0	31	0	1005584384	73	4346
2026-01-03 03:46:38.04	291.90	16.39	-53.9	-55.2	15.3	0.00e+00	0	31	0	1006632960	73	4321
2026-01-03 03:46:39.05	291.74	16.31	-54.0	-55.3	15.3	0.00e+00	0	31	0	1008730112	73	4359
2026-01-03 03:46:40.04	291.59	16.23	-54.1	-55.4	15.2	0.00e+00	0	31	0	1010827264	73	4441
2026-01-03 03:46:41.04	291.44	16.15	-54.1	-55.4	15.2	0.00e+00	0	31	0	1012924416	73	4410
2026-01-03 03:46:42.04	291.29	16.06	-54.1	-55.4	15.2	0.00e+00	0	31	0	1015021568	73	4432
2026-01-03 03:46:43.04	291.14	15.98	-54.1	-55.4	15.2	0.00e+00	0	31	0	1016070144	73	4406
2026-01-03 03:46:44.03	291.00	15.90	-54.1	-55.4	15.2	0.00e+00	0	31	0	1018167296	73	4404
2026-01-03 03:46:45.04	290.85	15.82	-54.0	-55.3	15.2	0.00e+00	0	31	0	1020264448	73	4383
2026-01-03 03:46:46.04	290.70	15.74	-54.0	-55.4	15.2	0.00e+00	0	31	0	1022361600	73	4394
2026-01-03 03:46:47.05	290.56	15.66	-54.1	-55.4	15.2	0.00e+00	0	31	0	1024458752	73	4425
2026-01-03 03:46:48.04	290.41	15.58	-54.0	-55.3	15.2	0.00e+00	0	31	0	1025507328	73	4388
2026-01-03 03:46:49.05	290.27	15.49	-54.1	-55.4	15.2	0.00e+00	0	31	0	1027604480	73	4406
2026-01-03 03:46:50.04	290.13	15.41	-54.1	-55.4	15.2	0.00e+00	0	31	0	1029701632	73	4432
2026-01-03 03:46:51.04	289.98	15.33	-54.2	-55.5	15.2	0.00e+00	0	31	0	1031798784	73	4486
2026-01-03 03:46:52.03	289.84	15.25	-54.2	-55.5	15.2	0.00e+00	0	31	0	1032847360	73	4480
2026-01-03 03:46:53.03	289.70	15.17	-54.2	-55.6	15.1	0.00e+00	0	31	0	1034944512	73	4506
2026-01-03 03:46:54.03	289.56	15.09	-54.3	-55.6	15.1	0.00e+00	0	31	0	1037041664	73	4532
2026-01-03 03:46:55.03	289.42	15.01	-54.3	-55.7	15.1	0.00e+00	0	31	0	1039138816	73	4583
2026-01-03 03:46:56.02	289.29	14.93	-54.4	-55.8	15.0	0.00e+00	0	31	0	1041235968	73	4610
2026-01-03 03:46:57.01	289.15	14.85	-54.5	-56.0	15.0	0.00e+00	0	31	0	1042284544	74	4442
2026-01-03 03:46:58.01	289.01	14.77	-54.4	-55.8	15.1	0.00e+00	0	31	0	1044381696	74	4390
2026-01-03 03:46:59.00	288.88	14.69	-54.5	-55.9	15.1	0.00e+00	0	31	0	1046478848	74	4404
2026-01-03 03:47:00.00	288.74	14.61	-54.5	-55.9	15.0	0.00e+00	0	31	0	1048576000	74	4433
2026-01-03 03:47:01.00	288.61	14.53	-54.4	-55.8	15.1	0.00e+00	0	31	0	1049624576	74	4382
2026-01-03 03:47:02.00	288.47	14.45	-54.5	-55.9	15.0	0.00e+00	0	31	0	1051721728	74	4434
2026-01-03 03:47:03.00	288.34	14.37	-54.5	-55.9	15.0	0.00e+00	0	31	0	1053818880	74	4439
2026-01-03 03:47:04.00	288.21	14.29	-54.5	-56.0	15.0	0.00e+00	0	31	0	1055916032	74	4445
2026-01-03 03:47:05.00	288.07	14.21	-54.6	-56.1	14.9	0.00e+00	0	31	0	1058013184	74	4510
2026-01-03 03:47:06.01	287.94	14.13	-54.6	-56.1	14.9	0.00e+00	0	31	0	1059061760	74	4518
2026-01-03 03:47:07.01	287.81	14.05	-54.7	-56.2	14.8	0.00e+00	0	31	0	1061158912	74	4592
2026-01-03 03:47:08.00	287.68	13.98	-54.8	-56.3	14.9	0.00e+00	0	31	0	1063256064	74	4621
2026-01-03 03:47:09.00	287.55	13.90	-54.9	-56.4	14.8	0.00e+00	0	31	0	1065353216	74	4686
2026-01-03 03:47:10.00	287.43	13.82	-54.8	-56.4	14.9	0.00e+00	0	31	0	1067450368	75	4410
2026-01-03 03:47:10.99	287.30	13.74	-54.9	-56.5	14.8	0.00e+00	0	31	0	1068498944	75	4471
2026-01-03 03:47:11.99	287.17	13.66	-54.9	-56.4	14.9	0.00e+00	0	31	0	1070596096	75	4421
2026-01-03 03:47:12.99	287.05	13.58	-54.8	-56.3	14.9	0.00e+00	0	31	0	1072693248	75	4390
2026-01-03 03:47:13.99	286.92	13.50	-54.7	-56.2	14.9	0.00e+00	0	31	0	1074790400	75	4332
2026-01-03 03:47:14.99	286.80	13.42	-54.7	-56.2	14.9	0.00e+00	0	31	0	1076887552	75	4319
2026-01-03 03:47:15.99	286.67	13.35	-54.6	-56.1	15.0	0.00e+00	0	31	0	1077936128	75	4281
2026-01-03 03:47:16.99	286.55	13.27	-54.5	-56.0	15.0	0.00e+00	0	31	0	1080033280	75	4229
2026-01-03 03:47:18.00	286.42	13.19	-54.7	-56.2	15.0	0.00e+00	0	31	0	1082130432	75	4301
2026-01-03 03:47:19.00	286.30	13.11	-54.7	-56.2	14.9	0.00e+00	0	31	0	1084227584	75	4321
2026-01-03 03:47:20.01	286.18	13.03	-54.8	-56.3	14.9	0.00e+00	0	31	0	1085276160	75	4385
2026-01-03 03:47:21.00	286.06	12.96	-54.9	-56.5	14.8	0.00e+00	0	31	0	1087373312	75	4481
2026-01-03 03:47:22.00	285.94	12.88	-55.0	-56.6	14.8	0.00e+00	0	31	0	1089470464	75	4509
2026-01-03 03:47:23.00	285.82	12.80	-55.2	-56.9	14.6	0.00e+00	0	31	0	1091567616	75	4657
2026-01-03 03:47:24.00	285.70	12.72	-55.1	-56.8	14.7	0.00e+00	0	31	0	1093664768	75	4607
2026-01-03 03:47:25.00	285.58	12.65	-55.2	-56.8	14.6	0.00e+00	0	31	0	1094713344	75	4648
2026-01-03 03:47:25.99	285.46	12.57	-55.2	-56.9	14.6	0.00e+00	0	31	0	1096810496	75	4682
2026-01-03 03:47:26.99	285.35	12.49	-55.2	-56.9	14.6	0.00e+00	0	31	0	1098907648	75	4671
2026-01-03 03:47:27.99	285.23	12.42	-55.2	-56.9	14.6	0.00e+00	0	31	0	1101004800	75	4654
2026-01-03 03:47:28.99	285.12	12.34	-55.2	-56.8	14.6	0.00e+00	0	31	0	1103101952	75	4649
2026-01-03 03:47:29.99	285.00	12.26	-55.3	-57.1	14.5	0.00e+00	0	31	0	1104150528	75	4761
2026-01-03 03:47:30.98	284.89	12.19	-55.2	-57.0	14.5	0.00e+00	0	31	0	1106247680	75	4720
2026-01-03 03:47:31.98	284.77	12.11	-55.5	-57.3	14.5	0.00e+00	0	31	0	1108344832	76	4601
2026-01-03 03:47:32.98	284.66	12.03	-55.5	-57.3	14.5	0.00e+00	0	31	0	1110441984	76	4638
2026-01-03 03:47:33.98	284.55	11.96	-55.6	-57.4	14.4	0.00e+00	0	31	0	1112539136	76	4697
2026-01-03 03:47:34.98	284.43	11.88	-55.7	-57.5	14.3	0.00e+00	0	31	0	1113587712	76	4757
2026-01-03 03:47:35.98	284.32	11.81	-55.7	-57.6	14.3	0.00e+00	0	31	0	1115684864	76	4808
2026-01-03 03:47:36.98	284.21	11.73	-55.8	-57.7	14.2	0.00e+00	0	31	0	1117782016	76	4852
2026-01-03 03:47:37.98	284.10	11.65	-55.9	-57.8	14.2	0.00e+00	0	31	0	1119879168	77	4651
2026-01-03 03:47:38.98	283.99	11.58	-55.8	-57.8	14.3	0.00e+00	0	31	0	1120927744	77	4602
2026-01-03 03:47:39.98	283.88	11.50	-55.8	-57.8	14.3	0.00e+00	0	31	0	1123024896	77	4609
2026-01-03 03:47:40.98	283.77	11.43	-55.7	-57.6	14.3	0.00e+00	0	31	0	1125122048	77	4503
2026-01-03 03:47:41.98	283.66	11.35	-55.7	-57.7	14.3	0.00e+00	0	31	0	1127219200	77	4547
2026-01-03 03:47:42.99	283.56	11.28	-55.8	-57.7	14.3	0.00e+00	0	31	0	1129316352	77	4562
2026-01-03 03:47:43.99	283.45	11.20	-55.7	-57.6	14.3	0.00e+00	0	31	0	1130364928	77	4540
2026-01-03 03:47:44.99	283.34	11.13	-55.8	-57.7	14.3	0.00e+00	0	31	0	1132462080	77	4564
2026-01-03 03:47:45.99	283.24	11.05	-55.8	-57.8	14.2	0.00e+00	0	31	0	1134559232	77	4607
2026-01-03 03:47:46.99	283.13	10.98	-55.7	-57.6	14.3	0.00e+00	0	31	0	1136656384	77	4505
2026-01-03 03:47:47.98	283.03	10.90	-55.8	-57.7	14.3	0.00e+00	0	31	0	1138753536	77	4569
2026-01-03 03:47:48.98	282.92	10.83	-55.8	-57.7	14.3	0.00e+00	0	31	0	1139802112	77	4570
2026-01-03 03:47:49.98	282.82	10.76	-55.8	-57.7	14.3	0.00e+00	0	31	0	1141899264	77	4588
2026-01-03 03:47:50.98	282.72	10.68	-55.8	-57.8	14.2	0.00e+00	0	31	0	1143996416	77	4610
2026-01-03 03:47:51.97	282.61	10.61	-55.9	-57.9	14.2	0.00e+00	0	31	0	1146093568	77	4652
2026-01-03 03:47:52.96	282.51	10.54	-55.9	-58.0	14.1	0.00e+00	0	31	0	1147142144	77	4713
2026-01-03 03:47:53.96	282.41	10.46	-55.9	-57.9	14.2	0.00e+00	0	31	0	1149239296	77	4667
2026-01-03 03:47:54.96	282.31	10.39	-55.8	-57.8	14.2	0.00e+00	0	31	0	1151336448	77	4624
2026-01-03 03:47:55.96	282.21	10.32	-55.9	-57.9	14.2	0.00e+00	0	31	0	1153433600	77	4657
2026-01-03 03:47:56.96	282.11	10.24	-55.8	-57.8	14.2	0.00e+00	0	31	0	1155530752	77	4614
2026-01-03 03:47:57.95	282.01	10.17	-55.8	-57.8	14.2	0.00e+00	0	31	0	1156579328	77	4646
2026-01-03 03:47:58.95	281.91	10.10	-55.8	-57.8	14.2	0.00e+00	0	31	0	1158676480	77	4618
2026-01-03 03:47:59.94	281.82	10.03	-55.8	-57.8	14.2	0.00e+00	0	31	0	1160773632	77	4609
2026-01-03 03:48:00.94	281.72	9.95	-55.8	-57.7	14.3	0.00e+00	0	31	0	1162870784	77	4581
2026-01-03 03:48:01.93	281.62	9.88	-55.8	-57.7	14.3	0.00e+00	0	31	0	1163919360	77	4594
2026-01-03 03:48:02.94	281.52	9.81	-55.7	-57.7	14.3	0.00e+00	0	31	0	1166016512	77	4576
2026-01-03 03:48:03.94	281.43	9.74	-55.8	-57.8	14.2	0.00e+00	0	31	0	1168113664	77	4602
2026-01-03 03:48:04.94	281.33	9.66	-55.9	-57.8	14.2	0.00e+00	0	31	0	1170210816	77	4647
2026-01-03 03:48:05.94	281.23	9.59	-56.0	-58.0	14.1	0.00e+00	0	31	0	1172307968	77	4741
2026-01-03 03:48:06.93	281.14	9.52	-56.0	-58.0	14.1	0.00e+00	0	31	0	1173356544	77	4739
2026-01-03 03:48:07.93	281.05	9.45	-56.1	-58.2	14.0	0.00e+00	0	31	0	1175453696	77	4857
2026-01-03 03:48:08.93	280.95	9.38	-56.1	-58.2	14.0	0.00e+00	0	31	0	1177550848	77	4856
2026-01-03 03:48:09.93	280.86	9.31	-56.2	-58.4	13.9	0.00e+00	0	31	0	1179648000	77	4941
2026-01-03 03:48:10.94	280.76	9.23	-56.2	-58.4	13.8	0.00e+00	0	31	0	1181745152	77	4976
2026-01-03 03:48:11.94	280.67	9.16	-56.2	-58.4	13.9	0.00e+00	0	31	0	1182793728	77	4968
2026-01-03 03:48:12.95	280.58	9.09	-56.3	-58.5	13.8	0.00e+00	0	31	0	1184890880	77	5016
2026-01-03 03:48:13.94	280.49	9.02	-56.3	-58.5	13.8	0.00e+00	0	31	0	1186988032	77	4998
2026-01-03 03:48:14.94	280.40	8.95	-56.2	-58.4	13.9	0.00e+00	0	31	0	1189085184	77	4941
2026-01-03 03:48:15.93	280.31	8.88	-56.3	-58.5	13.8	0.00e+00	0	31	0	1191182336	77	5030
2026-01-03 03:48:16.94	280.22	8.81	-56.3	-58.5	13.8	0.00e+00	0	31	0	1192230912	77	5035
2026-01-03 03:48:17.94	280.13	8.74	-56.3	-58.6	13.7	0.00e+00	0	31	0	1194328064	77	5076
2026-01-03 03:48:18.94	280.04	8.67	-56.3	-58.6	13.7	0.00e+00	0	31	0	1196425216	77	5078
2026-01-03 03:48:19.94	279.95	8.60	-56.3	-58.5	13.8	0.00e+00	0	31	0	1198522368	77	5008
2026-01-03 03:48:20.94	279.86	8.53	-56.4	-58.7	13.7	0.00e+00	0	31	0	1199570944	78	4853
2026-01-03 03:48:21.94	279.77	8.46	-56.5	-58.8	13.6	0.00e+00	0	31	0	1201668096	78	4906
2026-01-03 03:48:22.95	279.68	8.39	-56.5	-58.9	13.6	0.00e+00	0	31	0	1203765248	78	4950
2026-01-03 03:48:23.94	279.60	8.32	-56.5	-58.9	13.6	0.00e+00	0	31	0	1205862400	78	4958
2026-01-03 03:48:24.94	279.51	8.25	-56.6	-59.0	13.5	0.00e+00	0	31	0	1207959552	78	5029
2026-01-03 03:48:25.94	279.42	8.18	-56.7	-59.2	13.4	0.00e+00	0	31	0	1209008128	78	5136
2026-01-03 03:48:26.93	279.34	8.11	-56.7	-59.2	13.4	0.00e+00	0	31	0	1211105280	78	5158
2026-01-03 03:48:27.92	279.25	8.04	-56.7	-59.3	13.3	0.00e+00	0	31	0	1213202432	78	5188
