passes_logs/2026/01/03/R3.2S_Murmansk/R3.2S_Murmansk__20260103_041740_FENGYUN_3D_rec.log

#Pass ID: 20260103_041740_FENGYUN 3D
#Satellite: FENGYUN 3D
#Configuration: FENGYUN 3D
#almurnet v.1.7.20251203
#Start time: 2026-01-03 04:17:42

#Version: 2.2.20231116
#Station: R3.2S_Murmansk
#Location: 33.079688 lon 68.888172 lat
#TLE: 1 43010U 17072A   26002.81102625  .00000200  00000+0  11640-3 0  9996
#TLE: 2 43010  98.9911 334.4394 0001899 131.0556 229.0784 14.19692049421526

#Time	Az	El	Level	Level2	SNR	BER	BlckErr	Temp	State	Recorded	gain1	gain2
2026-01-03 04:17:42.22	32.81	2.08	-59.4	-72.0	3.8	8.45e-01	0	29	0	0	85	14924
2026-01-03 04:17:43.22	32.77	2.14	-59.2	-71.8	3.8	8.45e-01	0	29	104	0	83	16334
2026-01-03 04:17:44.22	32.74	2.20	-59.2	-71.8	3.8	8.46e-01	0	29	104	0	83	16387
2026-01-03 04:17:45.22	32.71	2.27	-59.2	-71.7	3.8	8.44e-01	0	29	104	0	83	16263
2026-01-03 04:17:46.22	32.68	2.33	-59.2	-71.7	3.8	8.45e-01	0	29	104	0	83	16280
2026-01-03 04:17:47.22	32.64	2.39	-59.2	-71.8	3.8	8.46e-01	0	29	104	0	83	16395
2026-01-03 04:17:48.22	32.61	2.46	-59.2	-71.8	3.8	8.46e-01	0	29	104	0	83	16356
2026-01-03 04:17:49.22	32.58	2.52	-59.2	-71.8	3.8	8.45e-01	0	29	104	0	83	16340
2026-01-03 04:17:50.21	32.54	2.58	-59.2	-71.8	3.8	8.45e-01	0	29	104	0	83	16319
2026-01-03 04:17:51.20	32.51	2.64	-59.3	-71.8	3.8	8.45e-01	0	29	104	0	83	16359
2026-01-03 04:17:52.21	32.48	2.71	-59.2	-71.8	3.8	8.45e-01	0	29	104	0	83	16347
2026-01-03 04:17:53.21	32.44	2.77	-59.2	-71.8	3.8	8.46e-01	0	29	104	0	83	16412
2026-01-03 04:17:54.21	32.41	2.84	-59.2	-71.8	3.8	8.46e-01	0	29	104	0	83	16427
2026-01-03 04:17:55.21	32.37	2.90	-59.2	-71.8	3.8	8.46e-01	0	29	104	0	83	16381
2026-01-03 04:17:56.22	32.34	2.96	-59.2	-71.8	3.8	8.46e-01	0	29	104	0	83	16338
2026-01-03 04:17:57.22	32.30	3.03	-59.2	-71.7	3.8	8.46e-01	0	29	104	0	83	16147
2026-01-03 04:17:58.22	32.27	3.09	-59.2	-71.6	3.8	8.45e-01	0	29	104	0	83	16050
2026-01-03 04:17:59.23	32.23	3.16	-59.2	-71.7	3.8	8.45e-01	0	29	104	0	83	16143
2026-01-03 04:18:00.23	32.20	3.22	-59.3	-71.6	3.8	8.46e-01	0	29	104	0	83	16124
2026-01-03 04:18:01.23	32.16	3.29	-59.2	-71.6	3.8	8.46e-01	0	29	104	0	83	16039
2026-01-03 04:18:02.23	32.13	3.35	-59.2	-71.5	3.8	8.46e-01	0	29	104	0	83	15794
2026-01-03 04:18:03.22	32.09	3.42	-59.2	-71.2	3.8	8.45e-01	0	29	104	0	83	15292
2026-01-03 04:18:04.21	32.06	3.48	-59.2	-70.7	3.8	8.44e-01	0	29	104	0	83	14460
2026-01-03 04:18:05.21	32.02	3.54	-59.1	-70.3	3.8	8.44e-01	0	30	104	0	83	13802
2026-01-03 04:18:06.22	31.98	3.61	-59.1	-69.9	3.8	8.44e-01	0	30	104	0	83	13201
2026-01-03 04:18:07.22	31.95	3.68	-59.1	-69.9	3.8	8.45e-01	0	30	104	0	83	13125
2026-01-03 04:18:08.22	31.91	3.74	-59.1	-69.9	3.8	8.45e-01	0	30	104	0	83	13145
2026-01-03 04:18:09.22	31.87	3.81	-59.1	-69.9	3.9	8.43e-01	0	30	104	0	83	13190
2026-01-03 04:18:10.22	31.84	3.87	-59.1	-69.9	3.8	8.44e-01	0	29	104	0	83	13195
2026-01-03 04:18:11.21	31.80	3.94	-59.1	-69.7	3.9	8.45e-01	0	30	104	0	83	12913
2026-01-03 04:18:12.21	31.76	4.01	-59.1	-69.2	4.0	8.44e-01	0	30	104	0	83	12225
2026-01-03 04:18:13.20	31.72	4.07	-59.0	-68.6	4.1	8.40e-01	0	30	0	0	83	11396
2026-01-03 04:18:14.21	31.69	4.14	-58.8	-67.6	4.4	8.32e-01	0	30	0	0	83	10062
2026-01-03 04:18:15.20	31.65	4.20	-58.7	-66.4	4.9	7.91e-01	0	30	0	0	83	8845
2026-01-03 04:18:16.20	31.61	4.27	-58.4	-64.9	5.7	6.57e-01	0	30	0	0	83	7437
2026-01-03 04:18:17.20	31.57	4.34	-58.0	-63.5	6.7	2.47e-01	0	30	0	6291456	82	6706
2026-01-03 04:18:18.20	31.53	4.41	-57.7	-62.6	7.5	1.14e-01	0	30	0	11534336	82	6001
2026-01-03 04:18:19.20	31.49	4.47	-57.4	-61.7	8.2	5.41e-02	0	30	0	17825792	81	5765
2026-01-03 04:18:20.20	31.46	4.54	-57.2	-61.2	8.7	2.44e-02	0	30	0	23068672	81	5422
2026-01-03 04:18:21.20	31.42	4.61	-56.9	-60.5	9.3	1.25e-02	0	30	0	28311552	80	5305
2026-01-03 04:18:22.20	31.38	4.68	-56.8	-60.3	9.5	6.64e-03	0	30	0	34603008	80	5171
2026-01-03 04:18:23.19	31.34	4.74	-56.8	-60.4	9.4	7.39e-03	0	30	0	39845888	80	5242
2026-01-03 04:18:24.19	31.30	4.81	-56.8	-60.3	9.5	7.23e-03	0	30	0	45088768	80	5173
2026-01-03 04:18:25.19	31.26	4.88	-56.7	-60.2	9.6	5.77e-03	0	30	0	51380224	80	5124
2026-01-03 04:18:26.19	31.22	4.95	-57.0	-60.7	9.1	8.68e-03	0	30	0	56623104	80	5426
2026-01-03 04:18:27.20	31.18	5.02	-57.0	-60.8	9.0	1.53e-02	0	30	0	61865984	80	5499
2026-01-03 04:18:28.20	31.14	5.09	-56.8	-59.8	10.2	1.33e-03	0	30	0	68157440	78	5501
2026-01-03 04:18:29.20	31.10	5.15	-57.1	-60.5	9.5	1.04e-02	0	30	0	73400320	79	5646
2026-01-03 04:18:30.20	31.05	5.22	-58.3	-65.0	5.6	5.84e-01	0	30	0	77594624	82	7949
2026-01-03 04:18:31.19	31.01	5.29	-53.8	-55.4	13.2	1.10e-06	0	30	0	82837504	72	4667
2026-01-03 04:18:32.19	30.97	5.36	-58.5	-64.9	5.7	5.57e-01	0	30	0	88080384	82	7848
2026-01-03 04:18:33.19	30.93	5.43	-53.3	-54.6	13.7	1.10e-06	0	30	0	93323264	73	4048
2026-01-03 04:18:34.19	30.89	5.50	-52.4	-53.6	14.3	0.00e+00	0	30	0	99614720	71	4006
2026-01-03 04:18:35.19	30.85	5.57	-51.8	-52.8	14.6	0.00e+00	0	30	0	104857600	70	3895
2026-01-03 04:18:36.19	30.80	5.64	-51.8	-52.8	14.5	0.00e+00	0	30	0	110100480	69	4126
2026-01-03 04:18:37.19	30.76	5.71	-51.6	-52.6	14.7	0.00e+00	0	30	0	116391936	69	4029
2026-01-03 04:18:38.19	30.72	5.78	-51.6	-52.7	14.6	0.00e+00	0	30	0	121634816	69	4065
2026-01-03 04:18:39.19	30.68	5.85	-51.7	-52.7	14.6	0.00e+00	0	30	0	126877696	69	4079
2026-01-03 04:18:40.18	30.63	5.92	-51.7	-52.8	14.6	0.00e+00	0	30	0	133169152	69	4122
2026-01-03 04:18:41.18	30.59	5.99	-51.6	-52.6	14.7	0.00e+00	0	30	0	138412032	69	4027
2026-01-03 04:18:42.18	30.55	6.06	-51.6	-52.6	14.7	0.00e+00	0	30	0	143654912	69	4024
2026-01-03 04:18:43.17	30.50	6.13	-51.7	-52.7	14.6	0.00e+00	0	30	0	149946368	69	4095
2026-01-03 04:18:44.17	30.46	6.21	-51.5	-52.5	14.8	0.00e+00	0	30	0	155189248	69	3979
2026-01-03 04:18:45.17	30.41	6.28	-51.5	-52.5	14.7	0.00e+00	0	30	0	161480704	69	3978
2026-01-03 04:18:46.16	30.37	6.35	-51.6	-52.6	14.7	0.00e+00	0	30	0	166723584	69	4015
2026-01-03 04:18:47.16	30.33	6.42	-51.4	-52.4	14.8	0.00e+00	0	30	0	171966464	69	3921
2026-01-03 04:18:48.17	30.28	6.49	-51.4	-52.4	14.8	0.00e+00	0	30	0	178257920	69	3928
2026-01-03 04:18:49.16	30.24	6.56	-51.3	-52.3	14.9	0.00e+00	0	30	0	183500800	69	3888
2026-01-03 04:18:50.15	30.19	6.64	-51.3	-52.3	14.9	0.00e+00	0	30	0	188743680	69	3882
2026-01-03 04:18:51.15	30.14	6.71	-51.3	-52.3	14.9	0.00e+00	0	30	0	193986560	69	3879
2026-01-03 04:18:52.15	30.10	6.78	-51.2	-52.2	14.9	0.00e+00	0	30	0	200278016	69	3840
2026-01-03 04:18:53.15	30.05	6.85	-51.3	-52.2	14.9	0.00e+00	0	30	0	205520896	69	3841
2026-01-03 04:18:54.14	30.01	6.93	-51.2	-52.2	15.0	0.00e+00	0	30	0	211812352	69	3831
2026-01-03 04:18:55.15	29.96	7.00	-51.1	-52.0	14.9	0.00e+00	0	30	0	217055232	68	3997
2026-01-03 04:18:56.14	29.91	7.07	-51.2	-52.1	14.9	0.00e+00	0	30	0	222298112	68	4040
2026-01-03 04:18:57.14	29.86	7.15	-51.1	-52.1	14.9	0.00e+00	0	30	0	228589568	68	4009
2026-01-03 04:18:58.14	29.82	7.22	-51.1	-52.0	14.9	0.00e+00	0	30	0	233832448	68	3996
2026-01-03 04:18:59.14	29.77	7.30	-51.2	-52.1	14.9	0.00e+00	0	30	0	239075328	68	4027
2026-01-03 04:19:00.13	29.72	7.37	-51.1	-52.1	14.9	0.00e+00	0	30	0	245366784	68	4012
2026-01-03 04:19:01.13	29.67	7.44	-51.1	-52.0	15.0	0.00e+00	0	30	0	250609664	68	3996
2026-01-03 04:19:02.13	29.62	7.52	-51.1	-52.0	15.0	0.00e+00	0	30	0	255852544	68	3964
2026-01-03 04:19:03.13	29.57	7.59	-50.9	-51.8	15.1	0.00e+00	0	30	0	262144000	68	3899
2026-01-03 04:19:04.14	29.53	7.67	-51.0	-51.9	15.0	0.00e+00	0	30	0	267386880	68	3927
2026-01-03 04:19:05.13	29.48	7.75	-51.0	-51.9	15.0	0.00e+00	0	30	0	273678336	68	3933
2026-01-03 04:19:06.14	29.43	7.82	-51.1	-52.0	15.0	0.00e+00	0	30	0	278921216	68	3961
2026-01-03 04:19:07.14	29.38	7.90	-51.0	-51.9	15.0	0.00e+00	0	30	0	284164096	68	3947
2026-01-03 04:19:08.14	29.33	7.97	-51.1	-52.0	15.0	0.00e+00	0	30	0	290455552	68	4003
2026-01-03 04:19:09.13	29.28	8.05	-50.9	-51.8	15.1	0.00e+00	0	30	0	295698432	68	3904
2026-01-03 04:19:10.13	29.22	8.13	-51.1	-52.0	15.0	0.00e+00	0	31	0	300941312	68	4000
2026-01-03 04:19:11.13	29.17	8.20	-51.1	-52.1	15.0	0.00e+00	0	31	0	307232768	68	4010
2026-01-03 04:19:12.13	29.12	8.28	-51.0	-51.9	15.1	0.00e+00	0	30	0	312475648	68	3932
2026-01-03 04:19:13.12	29.07	8.36	-51.0	-51.9	15.1	0.00e+00	0	30	0	317718528	68	3916
2026-01-03 04:19:14.12	29.02	8.43	-51.0	-51.9	15.0	0.00e+00	0	30	0	324009984	68	3956
2026-01-03 04:19:15.13	28.97	8.51	-51.0	-51.9	15.1	0.00e+00	0	30	0	329252864	68	3940
2026-01-03 04:19:16.13	28.91	8.59	-51.0	-51.9	15.1	0.00e+00	0	30	0	335544320	68	3915
2026-01-03 04:19:17.12	28.86	8.67	-51.0	-51.9	15.1	0.00e+00	0	30	0	340787200	68	3944
2026-01-03 04:19:18.12	28.81	8.74	-51.1	-52.0	15.0	0.00e+00	0	30	0	346030080	68	3966
2026-01-03 04:19:19.10	28.75	8.82	-50.9	-51.8	15.1	0.00e+00	0	30	0	351272960	68	3909
2026-01-03 04:19:20.11	28.70	8.90	-50.9	-51.8	15.1	0.00e+00	0	30	0	357564416	68	3906
2026-01-03 04:19:21.10	28.65	8.98	-51.0	-51.9	15.1	0.00e+00	0	30	0	362807296	68	3916
2026-01-03 04:19:22.10	28.59	9.06	-51.0	-51.9	15.1	0.00e+00	0	30	0	368050176	68	3927
2026-01-03 04:19:23.11	28.54	9.14	-51.1	-52.0	15.1	0.00e+00	0	30	0	374341632	68	3975
2026-01-03 04:19:24.11	28.48	9.22	-51.0	-51.9	15.1	0.00e+00	0	30	0	379584512	68	3925
2026-01-03 04:19:25.11	28.43	9.30	-50.8	-51.7	15.2	0.00e+00	0	30	0	385875968	68	3840
2026-01-03 04:19:26.11	28.37	9.38	-50.8	-51.7	15.2	0.00e+00	0	30	0	391118848	68	3833
2026-01-03 04:19:27.12	28.31	9.46	-50.9	-51.8	15.1	0.00e+00	0	30	0	397410304	68	3886
2026-01-03 04:19:28.12	28.26	9.54	-50.9	-51.8	15.1	0.00e+00	0	31	0	402653184	68	3900
2026-01-03 04:19:29.12	28.20	9.62	-50.9	-51.7	15.2	0.00e+00	0	30	0	407896064	68	3858
2026-01-03 04:19:30.12	28.14	9.70	-50.9	-51.7	15.1	0.00e+00	0	30	0	414187520	68	3863
2026-01-03 04:19:31.11	28.09	9.78	-50.9	-51.8	15.1	0.00e+00	0	30	0	419430400	68	3911
2026-01-03 04:19:32.11	28.03	9.86	-50.9	-51.8	15.1	0.00e+00	0	30	0	424673280	68	3883
2026-01-03 04:19:33.12	27.97	9.94	-51.0	-51.9	15.1	0.00e+00	0	30	0	430964736	68	3924
2026-01-03 04:19:34.12	27.91	10.02	-51.0	-51.9	15.1	0.00e+00	0	30	0	436207616	68	3914
2026-01-03 04:19:35.12	27.85	10.11	-50.7	-51.6	15.2	0.00e+00	0	30	0	441450496	68	3783
2026-01-03 04:19:36.12	27.79	10.19	-50.6	-51.4	15.2	0.00e+00	0	31	0	447741952	67	3947
2026-01-03 04:19:37.12	27.73	10.27	-50.6	-51.5	15.2	0.00e+00	0	30	0	452984832	67	3972
2026-01-03 04:19:38.13	27.67	10.35	-50.4	-51.3	15.3	0.00e+00	0	31	0	459276288	67	3883
2026-01-03 04:19:39.13	27.61	10.44	-50.5	-51.4	15.2	0.00e+00	0	30	0	464519168	67	3915
2026-01-03 04:19:40.12	27.55	10.52	-50.6	-51.4	15.2	0.00e+00	0	31	0	469762048	67	3958
2026-01-03 04:19:41.12	27.49	10.60	-50.5	-51.4	15.2	0.00e+00	0	30	0	476053504	67	3930
2026-01-03 04:19:42.12	27.43	10.69	-50.5	-51.4	15.2	0.00e+00	0	30	0	481296384	67	3926
2026-01-03 04:19:43.12	27.37	10.77	-50.4	-51.3	15.3	0.00e+00	0	31	0	486539264	67	3870
2026-01-03 04:19:44.11	27.31	10.85	-50.4	-51.3	15.3	0.00e+00	0	31	0	492830720	67	3871
2026-01-03 04:19:45.11	27.24	10.94	-50.2	-51.1	15.4	0.00e+00	0	30	0	498073600	67	3786
2026-01-03 04:19:46.10	27.18	11.02	-50.3	-51.1	15.4	0.00e+00	0	30	0	503316480	67	3795
2026-01-03 04:19:47.10	27.12	11.11	-50.3	-51.1	15.3	0.00e+00	0	30	0	509607936	67	3816
2026-01-03 04:19:48.10	27.05	11.19	-50.2	-51.1	15.4	0.00e+00	0	30	0	514850816	67	3782
2026-01-03 04:19:49.10	26.99	11.28	-50.0	-50.8	15.4	0.00e+00	0	30	0	520093696	66	3906
2026-01-03 04:19:50.11	26.92	11.37	-50.2	-51.0	15.3	0.00e+00	0	30	0	526385152	66	3964
2026-01-03 04:19:51.11	26.86	11.45	-50.2	-51.0	15.3	0.00e+00	0	31	0	531628032	66	3961
2026-01-03 04:19:52.11	26.79	11.54	-50.1	-50.9	15.3	0.00e+00	0	31	0	536870912	66	3937
2026-01-03 04:19:53.11	26.73	11.62	-50.0	-50.8	15.4	0.00e+00	0	31	0	543162368	66	3907
2026-01-03 04:19:54.11	26.66	11.71	-50.1	-50.8	15.4	0.00e+00	0	30	0	548405248	66	3912
2026-01-03 04:19:55.11	26.60	11.80	-50.1	-50.9	15.4	0.00e+00	0	31	0	554696704	66	3943
2026-01-03 04:19:56.10	26.53	11.89	-50.1	-50.9	15.4	0.00e+00	0	30	0	559939584	66	3922
2026-01-03 04:19:57.11	26.46	11.97	-50.1	-50.9	15.4	0.00e+00	0	31	0	565182464	66	3956
2026-01-03 04:19:58.11	26.39	12.06	-50.1	-50.9	15.4	0.00e+00	0	30	0	571473920	66	3958
2026-01-03 04:19:59.10	26.33	12.15	-50.1	-50.9	15.4	0.00e+00	0	31	0	576716800	66	3948
2026-01-03 04:20:00.10	26.26	12.24	-50.1	-50.9	15.4	0.00e+00	0	30	0	581959680	66	3951
2026-01-03 04:20:01.10	26.19	12.33	-50.2	-51.1	15.3	0.00e+00	0	30	0	588251136	66	4005
2026-01-03 04:20:02.10	26.12	12.42	-50.2	-51.0	15.3	0.00e+00	0	31	0	593494016	66	3976
2026-01-03 04:20:03.10	26.05	12.50	-50.0	-50.7	15.4	0.00e+00	0	30	0	598736896	66	3862
2026-01-03 04:20:04.10	25.98	12.59	-50.0	-50.7	15.4	0.00e+00	0	30	0	605028352	66	3868
2026-01-03 04:20:05.10	25.91	12.68	-49.9	-50.7	15.5	0.00e+00	0	31	0	610271232	66	3855
2026-01-03 04:20:06.09	25.84	12.77	-49.9	-50.7	15.5	0.00e+00	0	31	0	616562688	66	3839
2026-01-03 04:20:07.09	25.77	12.86	-49.9	-50.7	15.5	0.00e+00	0	31	0	621805568	66	3845
2026-01-03 04:20:08.10	25.69	12.96	-49.9	-50.7	15.5	0.00e+00	0	30	0	627048448	66	3829
2026-01-03 04:20:09.10	25.62	13.05	-49.7	-50.5	15.6	0.00e+00	0	30	0	633339904	66	3749
2026-01-03 04:20:10.10	25.55	13.14	-49.8	-50.5	15.5	0.00e+00	0	30	0	638582784	66	3771
2026-01-03 04:20:11.10	25.47	13.23	-49.7	-50.5	15.6	0.00e+00	0	30	0	643825664	66	3742
2026-01-03 04:20:12.09	25.40	13.32	-49.7	-50.4	15.5	0.00e+00	0	31	0	650117120	65	3956
2026-01-03 04:20:13.08	25.33	13.41	-49.6	-50.4	15.5	0.00e+00	0	31	0	655360000	65	3920
2026-01-03 04:20:14.07	25.25	13.50	-49.6	-50.4	15.5	0.00e+00	0	30	0	660602880	65	3917
2026-01-03 04:20:15.06	25.18	13.60	-49.6	-50.3	15.5	0.00e+00	0	31	0	666894336	65	3909
2026-01-03 04:20:16.06	25.10	13.69	-49.6	-50.3	15.5	0.00e+00	0	31	0	672137216	65	3910
2026-01-03 04:20:17.07	25.02	13.78	-49.6	-50.4	15.5	0.00e+00	0	31	0	678428672	65	3917
2026-01-03 04:20:18.07	24.95	13.88	-49.5	-50.2	15.6	0.00e+00	0	30	0	683671552	65	3854
2026-01-03 04:20:19.07	24.87	13.97	-49.5	-50.2	15.6	0.00e+00	0	31	0	688914432	65	3848
2026-01-03 04:20:20.07	24.79	14.06	-49.5	-50.2	15.6	0.00e+00	0	30	0	695205888	65	3855
2026-01-03 04:20:21.07	24.71	14.16	-49.4	-50.1	15.6	0.00e+00	0	31	0	700448768	65	3809
2026-01-03 04:20:22.06	24.63	14.25	-49.3	-50.0	15.7	0.00e+00	0	31	0	705691648	65	3770
2026-01-03 04:20:23.06	24.55	14.35	-49.3	-50.0	15.7	0.00e+00	0	31	0	711983104	65	3759
2026-01-03 04:20:24.06	24.47	14.44	-49.3	-50.1	15.7	0.00e+00	0	31	0	717225984	65	3782
2026-01-03 04:20:25.06	24.39	14.54	-49.4	-50.1	15.7	0.00e+00	0	31	0	722468864	65	3814
2026-01-03 04:20:26.06	24.31	14.64	-49.4	-50.1	15.7	0.00e+00	0	31	0	728760320	65	3809
2026-01-03 04:20:27.06	24.23	14.73	-49.5	-50.2	15.6	0.00e+00	0	31	0	734003200	65	3843
2026-01-03 04:20:28.06	24.15	14.83	-49.3	-50.1	15.7	0.00e+00	0	31	0	739246080	65	3786
2026-01-03 04:20:29.06	24.06	14.93	-49.4	-50.2	15.7	0.00e+00	0	31	0	745537536	65	3834
2026-01-03 04:20:30.06	23.98	15.02	-49.3	-50.0	15.7	0.00e+00	0	31	0	750780416	65	3770
2026-01-03 04:20:31.06	23.89	15.12	-49.3	-50.0	15.7	0.00e+00	0	31	0	756023296	65	3760
2026-01-03 04:20:32.05	23.81	15.22	-49.2	-49.9	15.7	0.00e+00	0	31	0	762314752	65	3732
2026-01-03 04:20:33.05	23.72	15.32	-48.7	-49.8	15.8	0.00e+00	0	31	0	767557632	64	3910
2026-01-03 04:20:34.05	23.64	15.42	-49.2	-50.0	15.6	0.00e+00	0	31	0	772800512	64	3963
2026-01-03 04:20:35.05	23.55	15.52	-49.1	-49.8	15.7	0.00e+00	0	31	0	779091968	64	3905
2026-01-03 04:20:36.05	23.46	15.62	-49.1	-49.8	15.7	0.00e+00	0	31	0	784334848	64	3913
2026-01-03 04:20:37.05	23.38	15.72	-49.0	-49.7	15.7	0.00e+00	0	31	0	790626304	64	3848
2026-01-03 04:20:38.05	23.29	15.82	-48.9	-49.6	15.8	0.00e+00	0	31	0	795869184	64	3790
2026-01-03 04:20:39.04	23.20	15.92	-48.9	-49.6	15.8	0.00e+00	0	31	0	801112064	64	3801
2026-01-03 04:20:40.04	23.11	16.02	-48.9	-49.6	15.8	0.00e+00	0	31	0	807403520	64	3792
2026-01-03 04:20:41.04	23.02	16.12	-48.9	-49.5	15.8	0.00e+00	0	31	0	812646400	64	3771
2026-01-03 04:20:42.03	22.93	16.22	-48.7	-49.4	15.9	0.00e+00	0	31	0	817889280	64	3699
2026-01-03 04:20:43.03	22.84	16.32	-48.7	-49.4	15.8	0.00e+00	0	31	0	824180736	64	3722
2026-01-03 04:20:44.03	22.75	16.42	-48.7	-49.4	15.8	0.00e+00	0	30	0	829423616	64	3711
2026-01-03 04:20:45.02	22.65	16.52	-48.7	-49.4	15.8	0.00e+00	0	31	0	834666496	64	3726
2026-01-03 04:20:46.03	22.56	16.63	-48.8	-49.5	15.8	0.00e+00	0	31	0	840957952	64	3758
2026-01-03 04:20:47.02	22.47	16.73	-48.8	-49.5	15.8	0.00e+00	0	31	0	846200832	64	3770
2026-01-03 04:20:48.03	22.37	16.84	-48.7	-49.4	15.8	0.00e+00	0	31	0	852492288	64	3723
2026-01-03 04:20:49.02	22.28	16.94	-48.8	-49.5	15.8	0.00e+00	0	31	0	857735168	64	3744
2026-01-03 04:20:50.02	22.18	17.04	-48.8	-49.5	15.8	0.00e+00	0	31	0	862978048	64	3761
2026-01-03 04:20:51.02	22.08	17.15	-48.7	-49.4	15.8	0.00e+00	0	31	0	869269504	64	3722
2026-01-03 04:20:52.01	21.99	17.25	-48.7	-49.4	15.8	0.00e+00	0	31	0	874512384	64	3708
2026-01-03 04:20:53.01	21.89	17.36	-48.8	-49.4	15.7	0.00e+00	0	31	0	879755264	63	3952
2026-01-03 04:20:54.01	21.79	17.46	-48.7	-49.3	15.8	0.00e+00	0	31	0	886046720	63	3902
2026-01-03 04:20:55.01	21.69	17.57	-48.5	-49.2	15.8	0.00e+00	0	31	0	891289600	63	3851
2026-01-03 04:20:56.01	21.59	17.68	-48.6	-49.2	15.8	0.00e+00	0	30	0	896532480	63	3863
2026-01-03 04:20:57.01	21.49	17.78	-48.5	-49.2	15.8	0.00e+00	0	31	0	902823936	63	3833
2026-01-03 04:20:58.02	21.39	17.89	-48.5	-49.2	15.8	0.00e+00	0	31	0	908066816	63	3833
2026-01-03 04:20:59.02	21.28	18.00	-48.5	-49.2	15.9	0.00e+00	0	31	0	914358272	63	3839
2026-01-03 04:21:00.02	21.18	18.11	-48.5	-49.1	15.9	0.00e+00	0	31	0	919601152	63	3806
2026-01-03 04:21:01.02	21.07	18.21	-48.4	-49.0	15.9	0.00e+00	0	31	0	924844032	63	3764
2026-01-03 04:21:02.02	20.97	18.32	-48.4	-49.0	15.9	0.00e+00	0	31	0	931135488	63	3762
2026-01-03 04:21:03.02	20.86	18.43	-48.4	-49.0	15.9	0.00e+00	0	31	0	936378368	63	3777
2026-01-03 04:21:04.02	20.76	18.54	-48.3	-48.9	15.9	0.00e+00	0	31	0	941621248	63	3719
2026-01-03 04:21:05.02	20.65	18.65	-48.3	-49.0	15.9	0.00e+00	0	31	0	947912704	63	3748
2026-01-03 04:21:06.03	20.54	18.76	-48.3	-49.0	15.9	0.00e+00	0	31	0	953155584	63	3754
2026-01-03 04:21:07.03	20.43	18.87	-48.4	-49.0	15.9	0.00e+00	0	31	0	958398464	63	3769
2026-01-03 04:21:08.02	20.32	18.98	-48.3	-48.9	15.9	0.00e+00	0	31	0	964689920	63	3725
2026-01-03 04:21:09.02	20.21	19.10	-48.3	-48.9	15.9	0.00e+00	0	31	0	969932800	63	3730
2026-01-03 04:21:10.02	20.10	19.21	-48.2	-48.8	16.0	0.00e+00	0	31	0	976224256	63	3685
2026-01-03 04:21:11.02	19.99	19.32	-48.1	-48.8	15.9	0.00e+00	0	31	0	981467136	62	3881
2026-01-03 04:21:12.02	19.87	19.43	-48.1	-48.7	15.9	0.00e+00	0	31	0	986710016	62	3855
2026-01-03 04:21:13.02	19.76	19.55	-48.1	-48.7	15.9	0.00e+00	0	31	0	993001472	62	3843
2026-01-03 04:21:14.02	19.65	19.66	-48.1	-48.7	15.9	0.00e+00	0	31	0	998244352	62	3852
2026-01-03 04:21:15.03	19.53	19.77	-47.9	-48.5	16.0	0.00e+00	0	31	0	1003487232	62	3777
2026-01-03 04:21:16.03	19.41	19.89	-47.9	-48.5	16.0	0.00e+00	0	31	0	1009778688	62	3769
2026-01-03 04:21:17.03	19.29	20.00	-47.9	-48.5	16.0	0.00e+00	0	31	0	1015021568	62	3766
2026-01-03 04:21:18.04	19.17	20.12	-47.9	-48.5	16.0	0.00e+00	0	31	0	1021313024	62	3777
2026-01-03 04:21:19.04	19.05	20.24	-47.9	-48.5	16.0	0.00e+00	0	31	0	1026555904	62	3773
2026-01-03 04:21:20.04	18.93	20.35	-47.9	-48.5	16.0	0.00e+00	0	31	0	1031798784	62	3770
2026-01-03 04:21:21.05	18.81	20.47	-47.9	-48.5	16.0	0.00e+00	0	31	0	1038090240	62	3774
2026-01-03 04:21:22.06	18.69	20.59	-47.8	-48.5	16.0	0.00e+00	0	31	0	1043333120	62	3742
2026-01-03 04:21:23.06	18.56	20.70	-47.9	-48.5	16.0	0.00e+00	0	31	0	1048576000	62	3757
2026-01-03 04:21:24.06	18.44	20.82	-47.9	-48.5	16.0	0.00e+00	0	31	0	1054867456	62	3776
2026-01-03 04:21:25.06	18.32	20.94	-47.9	-48.6	16.0	0.00e+00	0	31	0	1060110336	62	3782
2026-01-03 04:21:26.06	18.19	21.06	-47.9	-48.6	16.0	0.00e+00	0	31	0	1065353216	62	3787
2026-01-03 04:21:27.06	18.06	21.18	-48.0	-48.6	16.0	0.00e+00	0	31	0	1071644672	62	3820
2026-01-03 04:21:28.05	17.93	21.29	-47.9	-48.6	16.0	0.00e+00	0	31	0	1076887552	62	3781
2026-01-03 04:21:29.05	17.81	21.41	-47.9	-48.5	16.0	0.00e+00	0	31	0	1083179008	62	3764
2026-01-03 04:21:30.05	17.68	21.53	-47.9	-48.5	16.0	0.00e+00	0	31	0	1088421888	62	3754
2026-01-03 04:21:31.05	17.54	21.65	-47.8	-48.4	16.0	0.00e+00	0	31	0	1093664768	62	3714
2026-01-03 04:21:32.05	17.41	21.77	-47.8	-48.4	16.1	0.00e+00	0	31	0	1099956224	62	3727
2026-01-03 04:21:33.05	17.28	21.89	-47.8	-48.4	16.1	0.00e+00	0	31	0	1105199104	62	3721
2026-01-03 04:21:34.06	17.14	22.02	-47.7	-48.3	16.1	0.00e+00	0	31	0	1110441984	62	3686
2026-01-03 04:21:35.05	17.01	22.14	-47.7	-48.4	16.1	0.00e+00	0	31	0	1116733440	62	3700
2026-01-03 04:21:36.05	16.87	22.26	-47.7	-48.3	16.1	0.00e+00	0	31	0	1121976320	62	3687
2026-01-03 04:21:37.05	16.73	22.38	-47.8	-48.4	16.1	0.00e+00	0	31	0	1127219200	62	3727
2026-01-03 04:21:38.04	16.60	22.51	-47.8	-48.4	16.1	0.00e+00	0	31	0	1133510656	62	3733
2026-01-03 04:21:39.04	16.46	22.63	-47.8	-48.4	16.1	0.00e+00	0	31	0	1138753536	62	3722
2026-01-03 04:21:40.04	16.31	22.75	-47.8	-48.5	16.0	0.00e+00	0	31	0	1145044992	62	3742
2026-01-03 04:21:41.03	16.17	22.88	-47.8	-48.4	16.0	0.00e+00	0	31	0	1150287872	62	3728
2026-01-03 04:21:42.03	16.03	23.00	-47.7	-48.4	16.0	0.00e+00	0	31	0	1155530752	62	3702
2026-01-03 04:21:43.03	15.89	23.13	-47.8	-48.4	16.0	0.00e+00	0	31	0	1161822208	62	3713
2026-01-03 04:21:44.02	15.74	23.25	-47.8	-48.4	16.1	0.00e+00	0	31	0	1167065088	62	3709
2026-01-03 04:21:45.03	15.59	23.38	-47.8	-48.4	16.1	0.00e+00	0	31	0	1172307968	62	3736
2026-01-03 04:21:46.03	15.44	23.50	-47.5	-48.1	16.1	0.00e+00	0	31	0	1178599424	61	3788
2026-01-03 04:21:47.02	15.30	23.63	-47.3	-47.9	16.1	0.00e+00	0	31	0	1183842304	61	3707
2026-01-03 04:21:48.02	15.15	23.76	-47.3	-47.9	16.1	0.00e+00	0	31	0	1189085184	61	3701
2026-01-03 04:21:49.01	14.99	23.88	-47.3	-47.8	16.1	0.00e+00	0	31	0	1195376640	61	3683
2026-01-03 04:21:50.01	14.84	24.01	-47.2	-47.8	16.2	0.00e+00	0	31	0	1200619520	61	3689
2026-01-03 04:21:51.02	14.69	24.14	-47.2	-47.8	16.2	0.00e+00	0	31	0	1206910976	61	3674
2026-01-03 04:21:52.02	14.53	24.27	-47.3	-47.9	16.1	0.00e+00	0	31	0	1212153856	61	3698
2026-01-03 04:21:53.01	14.37	24.40	-47.4	-48.0	16.1	0.00e+00	0	31	0	1217396736	61	3757
2026-01-03 04:21:54.02	14.21	24.53	-47.4	-48.0	16.1	0.00e+00	0	31	0	1223688192	61	3779
2026-01-03 04:21:55.01	14.06	24.66	-47.5	-48.1	16.1	0.00e+00	0	31	0	1228931072	61	3802
2026-01-03 04:21:56.01	13.89	24.79	-47.4	-48.0	16.1	0.00e+00	0	31	0	1234173952	61	3768
2026-01-03 04:21:57.01	13.73	24.92	-47.4	-48.0	16.1	0.00e+00	0	31	0	1239416832	61	3752
2026-01-03 04:21:58.00	13.57	25.05	-47.4	-48.0	16.1	0.00e+00	0	31	0	1245708288	61	3744
2026-01-03 04:21:59.00	13.40	25.18	-47.2	-47.8	16.2	0.00e+00	0	31	0	1250951168	61	3676
2026-01-03 04:22:00.01	13.24	25.31	-47.2	-47.8	16.2	0.00e+00	0	31	0	1257242624	61	3686
2026-01-03 04:22:01.00	13.07	25.44	-47.3	-47.8	16.2	0.00e+00	0	31	0	1262485504	61	3686
2026-01-03 04:22:02.00	12.90	25.58	-47.2	-47.8	16.2	0.00e+00	0	31	0	1267728384	61	3658
2026-01-03 04:22:03.01	12.73	25.71	-47.3	-47.8	16.1	0.00e+00	0	31	0	1274019840	61	3690
2026-01-03 04:22:04.00	12.56	25.84	-47.1	-47.7	16.1	0.00e+00	0	31	0	1279262720	60	3845
2026-01-03 04:22:05.01	12.38	25.98	-47.1	-47.7	16.1	0.00e+00	0	31	0	1284505600	60	3861
2026-01-03 04:22:06.01	12.20	26.11	-47.3	-47.9	16.0	0.00e+00	0	31	0	1290797056	60	3924
2026-01-03 04:22:07.01	12.03	26.25	-47.1	-47.7	16.1	0.00e+00	0	31	0	1296039936	60	3847
2026-01-03 04:22:08.00	11.85	26.38	-47.1	-47.7	16.1	0.00e+00	0	31	0	1301282816	60	3846
2026-01-03 04:22:09.01	11.67	26.52	-47.1	-47.7	16.1	0.00e+00	0	31	0	1307574272	60	3859
2026-01-03 04:22:10.00	11.49	26.65	-47.1	-47.7	16.1	0.00e+00	0	31	0	1312817152	60	3854
2026-01-03 04:22:11.01	11.30	26.79	-47.1	-47.7	16.1	0.00e+00	0	31	0	1319108608	60	3831
2026-01-03 04:22:12.00	11.12	26.92	-47.0	-47.5	16.1	0.00e+00	0	31	0	1324351488	60	3770
2026-01-03 04:22:13.00	10.93	27.06	-46.9	-47.5	16.1	0.00e+00	0	31	0	1329594368	60	3752
2026-01-03 04:22:14.01	10.74	27.20	-46.9	-47.5	16.2	0.00e+00	0	31	0	1335885824	60	3757
2026-01-03 04:22:15.01	10.55	27.34	-46.9	-47.5	16.1	0.00e+00	0	31	0	1341128704	60	3758
2026-01-03 04:22:16.00	10.36	27.47	-47.0	-47.5	16.1	0.00e+00	0	31	0	1346371584	60	3776
2026-01-03 04:22:17.00	10.17	27.61	-47.0	-47.6	16.1	0.00e+00	0	31	0	1352663040	60	3788
2026-01-03 04:22:18.00	9.97	27.75	-46.9	-47.5	16.1	0.00e+00	0	31	0	1357905920	60	3764
2026-01-03 04:22:19.00	9.78	27.89	-47.0	-47.5	16.1	0.00e+00	0	31	0	1363148800	60	3780
2026-01-03 04:22:20.00	9.58	28.03	-46.9	-47.5	16.2	0.00e+00	0	31	0	1369440256	60	3746
2026-01-03 04:22:21.00	9.38	28.17	-46.9	-47.4	16.2	0.00e+00	0	31	0	1374683136	60	3731
2026-01-03 04:22:22.00	9.18	28.31	-46.8	-47.4	16.2	0.00e+00	0	31	0	1380974592	60	3720
2026-01-03 04:22:22.99	8.98	28.45	-46.9	-47.4	16.2	0.00e+00	0	31	0	1386217472	60	3737
2026-01-03 04:22:23.98	8.77	28.58	-46.8	-47.3	16.2	0.00e+00	0	31	0	1391460352	60	3686
2026-01-03 04:22:24.98	8.56	28.73	-46.9	-47.4	16.2	0.00e+00	0	31	0	1397751808	60	3736
2026-01-03 04:22:25.98	8.36	28.87	-47.0	-47.6	16.2	0.00e+00	0	31	0	1402994688	60	3793
2026-01-03 04:22:26.99	8.14	29.01	-47.0	-47.6	16.1	0.00e+00	0	31	0	1408237568	60	3810
2026-01-03 04:22:27.99	7.93	29.15	-47.2	-47.8	16.1	0.00e+00	0	31	0	1414529024	60	3875
2026-01-03 04:22:28.99	7.71	29.29	-47.2	-47.8	16.0	0.00e+00	0	31	0	1419771904	60	3905
2026-01-03 04:22:29.99	7.50	29.43	-47.1	-47.7	16.1	0.00e+00	0	31	0	1425014784	60	3830
2026-01-03 04:22:31.00	7.28	29.58	-47.0	-47.6	16.1	0.00e+00	0	31	0	1431306240	60	3790
2026-01-03 04:22:32.00	7.06	29.72	-46.9	-47.5	16.2	0.00e+00	0	31	0	1436549120	60	3738
2026-01-03 04:22:33.00	6.83	29.86	-46.7	-47.3	16.2	0.00e+00	0	31	0	1442840576	60	3669
2026-01-03 04:22:34.00	6.61	30.01	-46.8	-47.4	16.2	0.00e+00	0	31	0	1448083456	60	3695
2026-01-03 04:22:35.00	6.38	30.15	-46.8	-47.4	16.2	0.00e+00	0	31	0	1453326336	60	3697
2026-01-03 04:22:36.00	6.15	30.29	-47.1	-47.7	16.0	0.00e+00	0	31	0	1459617792	59	4065
2026-01-03 04:22:37.00	5.92	30.44	-47.2	-47.9	16.0	0.00e+00	0	31	0	1464860672	59	4148
2026-01-03 04:22:38.00	5.69	30.58	-47.4	-47.9	15.9	0.00e+00	0	31	0	1470103552	59	4193
2026-01-03 04:22:38.99	5.46	30.72	-47.3	-47.9	16.0	0.00e+00	0	31	0	1476395008	59	4175
2026-01-03 04:22:39.98	5.22	30.86	-47.3	-47.9	16.0	0.00e+00	0	31	0	1481637888	59	4186
2026-01-03 04:22:40.98	4.98	31.01	-47.1	-47.7	16.1	0.00e+00	0	31	0	1486880768	60	3846
2026-01-03 04:22:41.98	4.74	31.15	-47.0	-47.6	16.2	0.00e+00	0	31	0	1493172224	60	3812
2026-01-03 04:22:42.97	4.50	31.30	-47.0	-47.6	16.2	0.00e+00	0	31	0	1498415104	60	3786
2026-01-03 04:22:43.96	4.25	31.44	-46.8	-47.4	16.2	0.00e+00	0	31	0	1504706560	60	3711
2026-01-03 04:22:44.96	4.01	31.58	-46.8	-47.4	16.2	0.00e+00	0	31	0	1509949440	60	3714
2026-01-03 04:22:45.96	3.76	31.73	-47.0	-47.6	16.1	0.00e+00	0	31	0	1515192320	59	4035
2026-01-03 04:22:46.96	3.50	31.87	-47.1	-47.7	16.0	0.00e+00	0	31	0	1521483776	59	4087
2026-01-03 04:22:47.96	3.25	32.02	-47.1	-47.6	16.1	0.00e+00	0	31	0	1526726656	59	4048
2026-01-03 04:22:48.95	2.99	32.16	-47.2	-47.8	16.1	0.00e+00	0	31	0	1531969536	59	4099
2026-01-03 04:22:49.94	2.74	32.30	-47.1	-47.7	16.1	0.00e+00	0	31	0	1537212416	59	4073
2026-01-03 04:22:50.94	2.47	32.45	-47.0	-47.6	16.1	0.00e+00	0	31	0	1543503872	59	4029
2026-01-03 04:22:51.93	2.21	32.59	-47.1	-47.6	16.1	0.00e+00	0	31	0	1548746752	59	4044
2026-01-03 04:22:52.93	1.95	32.74	-47.1	-47.7	16.1	0.00e+00	0	31	0	1555038208	59	4052
2026-01-03 04:22:53.93	1.68	32.88	-47.0	-47.6	16.1	0.00e+00	0	31	0	1560281088	59	4025
2026-01-03 04:22:54.93	1.41	33.03	-47.1	-47.6	16.1	0.00e+00	0	31	0	1565523968	59	4049
2026-01-03 04:22:55.93	1.13	33.17	-47.1	-47.7	16.0	0.00e+00	0	31	0	1571815424	59	4089
2026-01-03 04:22:56.93	0.85	33.32	-47.3	-47.9	16.0	0.00e+00	0	31	0	1577058304	59	4164
2026-01-03 04:22:57.94	0.57	33.46	-47.3	-47.9	16.0	0.00e+00	0	31	0	1582301184	59	4192
2026-01-03 04:22:58.93	0.29	33.61	-47.3	-47.9	16.0	0.00e+00	0	31	0	1588592640	59	4193
2026-01-03 04:22:59.93	0.01	33.75	-47.2	-47.8	16.0	0.00e+00	0	31	0	1593835520	59	4116
2026-01-03 04:23:00.92	359.73	33.89	-47.1	-47.7	16.1	0.00e+00	0	31	0	1600126976	59	4072
2026-01-03 04:23:01.92	359.44	34.04	-47.0	-47.6	16.1	0.00e+00	0	31	0	1605369856	59	4032
2026-01-03 04:23:02.93	359.14	34.18	-46.9	-47.4	16.1	0.00e+00	0	31	0	1610612736	59	3954
2026-01-03 04:23:03.93	358.85	34.33	-46.9	-47.5	16.1	0.00e+00	0	31	0	1616904192	59	3966
2026-01-03 04:23:04.92	358.55	34.47	-47.0	-47.6	16.1	0.00e+00	0	31	0	1622147072	59	4007
2026-01-03 04:23:05.93	358.25	34.62	-46.8	-47.4	16.2	0.00e+00	0	31	0	1627389952	59	3931
2026-01-03 04:23:06.94	357.95	34.76	-46.9	-47.5	16.1	0.00e+00	0	31	0	1633681408	59	3961
2026-01-03 04:23:07.94	357.64	34.90	-47.0	-47.6	16.1	0.00e+00	0	31	0	1638924288	59	4007
2026-01-03 04:23:08.95	357.33	35.05	-46.9	-47.4	16.1	0.00e+00	0	31	0	1644167168	59	3947
2026-01-03 04:23:09.95	357.02	35.19	-46.8	-47.3	16.2	0.00e+00	0	31	0	1650458624	59	3900
2026-01-03 04:23:10.95	356.70	35.33	-46.8	-47.3	16.2	0.00e+00	0	31	0	1655701504	59	3901
2026-01-03 04:23:11.95	356.39	35.47	-46.9	-47.5	16.1	0.00e+00	0	31	0	1661992960	59	3961
2026-01-03 04:23:12.96	356.07	35.62	-47.0	-47.6	16.1	0.00e+00	0	31	0	1667235840	59	4022
2026-01-03 04:23:13.96	355.74	35.76	-47.1	-47.7	16.1	0.00e+00	0	31	0	1672478720	59	4052
2026-01-03 04:23:14.97	355.42	35.90	-47.1	-47.7	16.1	0.00e+00	0	31	0	1678770176	59	4067
2026-01-03 04:23:15.96	355.09	36.04	-47.1	-47.7	16.1	0.00e+00	0	31	0	1684013056	59	4071
2026-01-03 04:23:16.96	354.76	36.18	-47.0	-47.6	16.1	0.00e+00	0	31	0	1690304512	59	4032
2026-01-03 04:23:17.96	354.43	36.32	-47.0	-47.6	16.1	0.00e+00	0	31	0	1695547392	59	4010
2026-01-03 04:23:18.97	354.09	36.46	-47.1	-47.7	16.1	0.00e+00	0	31	0	1700790272	59	4076
2026-01-03 04:23:19.97	353.75	36.59	-47.1	-47.7	16.0	0.00e+00	0	31	0	1707081728	59	4090
2026-01-03 04:23:20.96	353.41	36.73	-47.3	-47.9	16.0	0.00e+00	0	31	0	1712324608	59	4146
2026-01-03 04:23:21.97	353.06	36.87	-47.2	-47.8	16.0	0.00e+00	0	31	0	1717567488	59	4141
2026-01-03 04:23:22.98	352.71	37.00	-47.1	-47.7	16.0	0.00e+00	0	31	0	1723858944	59	4092
2026-01-03 04:23:23.97	352.37	37.14	-47.0	-47.6	16.1	0.00e+00	0	31	0	1729101824	59	4034
2026-01-03 04:23:24.97	352.01	37.27	-47.0	-47.6	16.1	0.00e+00	0	31	0	1735393280	59	4009
2026-01-03 04:23:25.98	351.65	37.41	-46.9	-47.5	16.1	0.00e+00	0	31	0	1740636160	59	3992
2026-01-03 04:23:26.98	351.29	37.54	-47.1	-47.7	16.0	0.00e+00	0	31	0	1745879040	59	4090
2026-01-03 04:23:27.98	350.93	37.67	-47.3	-47.9	16.0	0.00e+00	0	31	0	1752170496	59	4156
2026-01-03 04:23:28.98	350.57	37.81	-47.3	-47.9	16.0	0.00e+00	0	31	0	1757413376	59	4185
2026-01-03 04:23:29.98	350.20	37.94	-47.3	-47.9	16.0	0.00e+00	0	31	0	1762656256	59	4177
2026-01-03 04:23:30.98	349.83	38.07	-47.2	-47.8	16.1	0.00e+00	0	31	0	1768947712	59	4133
2026-01-03 04:23:31.99	349.45	38.20	-47.2	-47.8	16.1	0.00e+00	0	31	0	1774190592	59	4111
2026-01-03 04:23:32.99	349.07	38.33	-47.4	-48.0	16.0	0.00e+00	0	31	0	1779433472	59	4208
2026-01-03 04:23:33.99	348.69	38.45	-47.3	-47.9	16.0	0.00e+00	0	31	0	1785724928	59	4165
2026-01-03 04:23:35.00	348.30	38.58	-47.1	-47.7	16.2	0.00e+00	0	31	0	1790967808	60	3832
2026-01-03 04:23:36.00	347.92	38.71	-47.0	-47.6	16.2	0.00e+00	0	31	0	1797259264	60	3803
2026-01-03 04:23:37.01	347.52	38.83	-46.9	-47.4	16.3	0.00e+00	0	31	0	1802502144	60	3720
2026-01-03 04:23:38.01	347.13	38.96	-46.8	-47.4	16.3	0.00e+00	0	31	0	1807745024	60	3707
2026-01-03 04:23:39.01	346.73	39.08	-47.0	-47.6	16.1	0.00e+00	0	31	0	1814036480	59	4030
2026-01-03 04:23:40.01	346.34	39.20	-47.3	-47.9	16.0	0.00e+00	0	31	0	1819279360	59	4149
2026-01-03 04:23:41.01	345.93	39.32	-47.2	-47.8	16.1	0.00e+00	0	31	0	1825570816	59	4118
2026-01-03 04:23:42.02	345.53	39.44	-47.3	-47.9	16.0	0.00e+00	0	31	0	1830813696	59	4182
2026-01-03 04:23:43.02	345.12	39.55	-47.3	-47.8	16.1	0.00e+00	0	31	0	1836056576	59	4144
2026-01-03 04:23:44.01	344.71	39.67	-47.3	-47.8	16.0	0.00e+00	0	31	0	1841299456	59	4138
2026-01-03 04:23:45.01	344.30	39.78	-47.3	-47.9	16.0	0.00e+00	0	31	0	1847590912	59	4153
2026-01-03 04:23:46.00	343.89	39.90	-47.2	-47.8	16.0	0.00e+00	0	31	0	1852833792	59	4140
2026-01-03 04:23:47.00	343.47	40.01	-47.4	-48.0	16.0	0.00e+00	0	31	0	1859125248	59	4197
2026-01-03 04:23:47.99	343.05	40.12	-46.9	-47.4	16.3	0.00e+00	0	31	0	1864368128	60	3726
2026-01-03 04:23:48.98	342.63	40.23	-46.9	-47.5	16.1	0.00e+00	0	31	0	1869611008	59	3980
2026-01-03 04:23:49.98	342.20	40.33	-46.8	-47.3	16.2	0.00e+00	0	31	0	1875902464	59	3899
2026-01-03 04:23:50.98	341.77	40.44	-46.8	-47.4	16.2	0.00e+00	0	31	0	1881145344	59	3929
2026-01-03 04:23:51.98	341.34	40.55	-47.0	-47.6	16.1	0.00e+00	0	31	0	1886388224	59	4013
2026-01-03 04:23:52.98	340.90	40.65	-47.1	-47.6	16.1	0.00e+00	0	31	0	1892679680	59	4046
2026-01-03 04:23:53.98	340.46	40.75	-47.0	-47.6	16.1	0.00e+00	0	31	0	1897922560	59	4036
2026-01-03 04:23:54.98	340.02	40.85	-47.1	-47.7	16.1	0.00e+00	0	31	0	1903165440	59	4062
2026-01-03 04:23:55.98	339.57	40.95	-47.0	-47.5	16.1	0.00e+00	0	31	0	1909456896	59	4002
2026-01-03 04:23:56.97	339.13	41.04	-47.0	-47.5	16.2	0.00e+00	0	31	0	1914699776	59	4004
2026-01-03 04:23:57.97	338.68	41.14	-46.9	-47.5	16.2	0.00e+00	0	31	0	1920991232	59	3977
2026-01-03 04:23:58.96	338.23	41.23	-46.9	-47.5	16.2	0.00e+00	0	31	0	1926234112	59	3965
2026-01-03 04:23:59.96	337.78	41.32	-47.0	-47.5	16.2	0.00e+00	0	31	0	1931476992	59	3996
2026-01-03 04:24:00.96	337.32	41.41	-46.9	-47.4	16.2	0.00e+00	0	31	0	1936719872	59	3940
2026-01-03 04:24:01.96	336.86	41.50	-46.9	-47.5	16.2	0.00e+00	0	31	0	1943011328	59	3993
2026-01-03 04:24:02.96	336.40	41.58	-47.1	-47.7	16.2	0.00e+00	0	31	0	1948254208	59	4057
2026-01-03 04:24:03.96	335.93	41.67	-47.1	-47.7	16.1	0.00e+00	0	31	0	1953497088	59	4086
2026-01-03 04:24:04.96	335.46	41.75	-47.1	-47.6	16.1	0.00e+00	0	31	0	1959788544	59	4046
2026-01-03 04:24:05.96	334.99	41.83	-47.0	-47.5	16.2	0.00e+00	0	31	0	1965031424	59	4002
2026-01-03 04:24:06.95	334.53	41.91	-47.0	-47.6	16.2	0.00e+00	0	31	0	1971322880	59	4021
2026-01-03 04:24:07.96	334.05	41.98	-47.0	-47.6	16.1	0.00e+00	0	31	0	1976565760	59	4031
2026-01-03 04:24:08.96	333.57	42.06	-47.0	-47.5	16.2	0.00e+00	0	31	0	1981808640	59	3991
2026-01-03 04:24:09.96	333.09	42.13	-46.8	-47.4	16.2	0.00e+00	0	31	0	1988100096	59	3930
2026-01-03 04:24:10.96	332.61	42.20	-46.8	-47.4	16.2	0.00e+00	0	31	0	1993342976	59	3919
2026-01-03 04:24:11.97	332.12	42.26	-46.8	-47.3	16.2	0.00e+00	0	31	0	1999634432	59	3906
2026-01-03 04:24:12.97	331.64	42.33	-46.9	-47.5	16.2	0.00e+00	0	31	0	2004877312	59	3962
2026-01-03 04:24:13.97	331.15	42.39	-46.7	-47.3	16.2	0.00e+00	0	31	0	2010120192	59	3894
2026-01-03 04:24:14.97	330.66	42.45	-46.8	-47.4	16.2	0.00e+00	0	31	0	2016411648	59	3939
2026-01-03 04:24:15.97	330.17	42.51	-46.8	-47.3	16.2	0.00e+00	0	31	0	2021654528	59	3913
2026-01-03 04:24:16.97	329.68	42.57	-46.6	-47.2	16.3	0.00e+00	0	31	0	2026897408	59	3842
2026-01-03 04:24:17.98	329.18	42.62	-46.8	-47.3	16.2	0.00e+00	0	31	0	2033188864	59	3893
2026-01-03 04:24:18.98	328.68	42.67	-47.0	-47.6	16.2	0.00e+00	0	31	0	2038431744	59	4009
2026-01-03 04:24:19.97	328.19	42.72	-47.2	-47.8	16.1	0.00e+00	0	31	0	2044723200	59	4112
2026-01-03 04:24:20.97	327.69	42.77	-47.2	-47.8	16.1	0.00e+00	0	31	0	2049966080	59	4131
2026-01-03 04:24:21.98	327.19	42.81	-47.1	-47.7	16.1	0.00e+00	0	31	0	2055208960	59	4074
2026-01-03 04:24:22.97	326.69	42.85	-47.1	-47.6	16.1	0.00e+00	0	31	0	2061500416	59	4034
2026-01-03 04:24:23.97	326.19	42.89	-47.1	-47.7	16.1	0.00e+00	0	31	0	2066743296	59	4063
2026-01-03 04:24:24.97	325.68	42.93	-46.9	-47.4	16.2	0.00e+00	0	31	0	2071986176	59	3947
2026-01-03 04:24:25.98	325.17	42.96	-46.9	-47.4	16.2	0.00e+00	0	31	0	2078277632	59	3938
2026-01-03 04:24:26.98	324.67	43.00	-46.7	-47.3	16.3	0.00e+00	0	31	0	2083520512	59	3891
2026-01-03 04:24:27.98	324.16	43.02	-46.8	-47.4	16.2	0.00e+00	0	31	0	2088763392	59	3924
2026-01-03 04:24:28.98	323.65	43.05	-46.8	-47.4	16.2	0.00e+00	0	31	0	2095054848	59	3927
2026-01-03 04:24:29.97	323.15	43.08	-46.8	-47.4	16.2	0.00e+00	0	31	0	2100297728	59	3934
2026-01-03 04:24:30.97	322.64	43.10	-46.8	-47.4	16.2	0.00e+00	0	31	0	2106589184	59	3922
2026-01-03 04:24:31.97	322.13	43.12	-46.7	-47.3	16.2	0.00e+00	0	31	0	2111832064	59	3897
2026-01-03 04:24:32.97	321.61	43.13	-46.8	-47.4	16.2	0.00e+00	0	31	0	2117074944	59	3933
2026-01-03 04:24:33.97	321.10	43.15	-46.9	-47.4	16.2	0.00e+00	0	31	0	2123366400	59	3952
2026-01-03 04:24:34.96	320.60	43.16	-47.0	-47.5	16.2	0.00e+00	0	31	0	2128609280	59	3989
2026-01-03 04:24:35.97	320.08	43.17	-47.1	-47.7	16.1	0.00e+00	0	31	0	2133852160	59	4060
2026-01-03 04:24:36.97	319.57	43.17	-47.3	-47.8	16.1	0.00e+00	0	31	0	2140143616	59	4145
2026-01-03 04:24:37.96	319.06	43.18	-47.2	-47.8	16.1	0.00e+00	0	31	0	2145386496	59	4102
2026-01-03 04:24:38.96	318.54	43.18	-46.8	-47.4	16.2	0.00e+00	0	31	0	2150629376	59	3921
2026-01-03 04:24:39.97	318.03	43.18	-46.9	-47.4	16.2	0.00e+00	0	31	0	2156920832	59	3948
2026-01-03 04:24:40.98	317.51	43.17	-46.8	-47.3	16.2	0.00e+00	0	31	0	2162163712	59	3908
2026-01-03 04:24:41.98	317.00	43.17	-46.7	-47.3	16.3	0.00e+00	0	31	0	2168455168	59	3881
2026-01-03 04:24:42.98	316.48	43.16	-46.6	-47.1	16.3	0.00e+00	0	31	0	2173698048	59	3813
2026-01-03 04:24:43.98	315.97	43.15	-46.5	-47.1	16.3	0.00e+00	0	31	0	2178940928	59	3788
2026-01-03 04:24:44.98	315.46	43.13	-46.6	-47.2	16.3	0.00e+00	0	31	0	2185232384	59	3833
2026-01-03 04:24:45.98	314.95	43.11	-46.7	-47.3	16.2	0.00e+00	0	31	0	2190475264	59	3889
2026-01-03 04:24:46.98	314.44	43.10	-46.9	-47.5	16.2	0.00e+00	0	31	0	2195718144	59	3979
2026-01-03 04:24:47.97	313.93	43.07	-47.2	-47.8	16.1	0.00e+00	0	31	0	2202009600	59	4128
2026-01-03 04:24:48.97	313.42	43.05	-47.2	-47.8	16.1	0.00e+00	0	31	0	2207252480	59	4122
2026-01-03 04:24:49.97	312.92	43.02	-47.1	-47.7	16.1	0.00e+00	0	31	0	2212495360	59	4054
2026-01-03 04:24:50.96	312.41	42.99	-47.0	-47.6	16.1	0.00e+00	0	31	0	2218786816	59	4012
2026-01-03 04:24:51.95	311.91	42.96	-47.1	-47.6	16.1	0.00e+00	0	31	0	2224029696	59	4041
2026-01-03 04:24:52.95	311.41	42.93	-46.9	-47.5	16.2	0.00e+00	0	31	0	2229272576	59	3984
2026-01-03 04:24:53.95	310.90	42.89	-46.7	-47.3	16.3	0.00e+00	0	31	0	2235564032	59	3879
2026-01-03 04:24:54.94	310.40	42.85	-46.6	-47.1	16.3	0.00e+00	0	31	0	2240806912	59	3813
2026-01-03 04:24:55.95	309.90	42.81	-46.7	-47.3	16.3	0.00e+00	0	31	0	2246049792	59	3869
2026-01-03 04:24:56.95	309.40	42.76	-46.8	-47.3	16.2	0.00e+00	0	31	0	2252341248	59	3902
2026-01-03 04:24:57.95	308.90	42.72	-46.7	-47.3	16.2	0.00e+00	0	31	0	2257584128	59	3892
2026-01-03 04:24:58.95	308.40	42.67	-46.6	-47.2	16.3	0.00e+00	0	31	0	2263875584	59	3830
2026-01-03 04:24:59.94	307.91	42.62	-46.7	-47.2	16.2	0.00e+00	0	31	0	2269118464	59	3854
2026-01-03 04:25:00.94	307.41	42.56	-46.9	-47.5	16.2	0.00e+00	0	31	0	2274361344	59	3974
2026-01-03 04:25:01.94	306.92	42.51	-46.9	-47.5	16.2	0.00e+00	0	31	0	2280652800	59	3994
2026-01-03 04:25:02.94	306.43	42.45	-47.0	-47.5	16.2	0.00e+00	0	31	0	2285895680	59	3998
2026-01-03 04:25:03.94	305.94	42.39	-46.9	-47.5	16.2	0.00e+00	0	31	0	2291138560	59	3966
2026-01-03 04:25:04.94	305.45	42.33	-46.7	-47.2	16.3	0.00e+00	0	31	0	2297430016	59	3840
2026-01-03 04:25:05.95	304.96	42.26	-46.6	-47.1	16.3	0.00e+00	0	31	0	2302672896	59	3820
2026-01-03 04:25:06.95	304.48	42.19	-46.8	-47.4	16.2	0.00e+00	0	31	0	2307915776	59	3915
2026-01-03 04:25:07.95	304.00	42.12	-46.9	-47.4	16.2	0.00e+00	0	31	0	2314207232	59	3947
2026-01-03 04:25:08.95	303.52	42.05	-46.9	-47.4	16.2	0.00e+00	0	31	0	2319450112	59	3945
2026-01-03 04:25:09.95	303.04	41.98	-46.9	-47.5	16.2	0.00e+00	0	31	0	2325741568	59	3966
2026-01-03 04:25:10.95	302.57	41.90	-47.1	-47.6	16.2	0.00e+00	0	31	0	2330984448	59	4046
2026-01-03 04:25:11.94	302.10	41.83	-47.2	-47.8	16.1	0.00e+00	0	31	0	2336227328	59	4133
2026-01-03 04:25:12.94	301.63	41.75	-47.1	-47.6	16.2	0.00e+00	0	31	0	2342518784	59	4051
2026-01-03 04:25:13.94	301.16	41.66	-47.1	-47.7	16.1	0.00e+00	0	31	0	2347761664	59	4085
2026-01-03 04:25:14.94	300.69	41.58	-47.2	-47.7	16.1	0.00e+00	0	31	0	2353004544	59	4087
2026-01-03 04:25:15.94	300.23	41.49	-47.1	-47.6	16.2	0.00e+00	0	31	0	2359296000	59	4037
2026-01-03 04:25:16.94	299.77	41.41	-47.1	-47.7	16.1	0.00e+00	0	31	0	2364538880	59	4054
2026-01-03 04:25:17.93	299.32	41.32	-46.9	-47.5	16.2	0.00e+00	0	31	0	2369781760	59	3977
2026-01-03 04:25:18.93	298.86	41.23	-46.9	-47.4	16.2	0.00e+00	0	31	0	2376073216	59	3955
2026-01-03 04:25:19.94	298.40	41.13	-46.8	-47.3	16.3	0.00e+00	0	31	0	2381316096	59	3900
2026-01-03 04:25:20.94	297.95	41.04	-46.7	-47.3	16.3	0.00e+00	0	31	0	2387607552	59	3869
2026-01-03 04:25:21.94	297.50	40.94	-46.7	-47.3	16.3	0.00e+00	0	31	0	2392850432	59	3873
2026-01-03 04:25:22.94	297.06	40.84	-46.9	-47.4	16.2	0.00e+00	0	31	0	2398093312	59	3958
2026-01-03 04:25:23.93	296.62	40.74	-46.9	-47.5	16.2	0.00e+00	0	31	0	2404384768	59	3983
2026-01-03 04:25:24.92	296.19	40.64	-47.1	-47.6	16.2	0.00e+00	0	31	0	2409627648	59	4037
2026-01-03 04:25:25.92	295.75	40.54	-47.0	-47.6	16.2	0.00e+00	0	31	0	2414870528	59	4036
2026-01-03 04:25:26.91	295.32	40.44	-47.0	-47.6	16.2	0.00e+00	0	31	0	2420113408	59	4041
2026-01-03 04:25:27.91	294.89	40.33	-47.0	-47.5	16.2	0.00e+00	0	31	0	2426404864	59	3997
2026-01-03 04:25:28.91	294.46	40.22	-46.8	-47.4	16.2	0.00e+00	0	31	0	2431647744	59	3919
2026-01-03 04:25:29.91	294.03	40.11	-46.8	-47.4	16.2	0.00e+00	0	31	0	2437939200	59	3937
2026-01-03 04:25:30.92	293.61	40.00	-46.8	-47.4	16.2	0.00e+00	0	31	0	2443182080	59	3938
2026-01-03 04:25:31.91	293.19	39.89	-46.9	-47.4	16.2	0.00e+00	0	31	0	2449473536	59	3956
2026-01-03 04:25:32.92	292.77	39.77	-46.8	-47.4	16.2	0.00e+00	0	31	0	2454716416	59	3919
2026-01-03 04:25:33.92	292.36	39.66	-46.7	-47.2	16.3	0.00e+00	0	31	0	2459959296	59	3848
2026-01-03 04:25:34.93	291.94	39.54	-46.8	-47.4	16.3	0.00e+00	0	31	0	2466250752	59	3921
2026-01-03 04:25:35.93	291.53	39.42	-47.0	-47.6	16.2	0.00e+00	0	31	0	2471493632	59	4006
2026-01-03 04:25:36.92	291.13	39.31	-46.9	-47.4	16.2	0.00e+00	0	31	0	2476736512	59	3946
2026-01-03 04:25:37.92	290.73	39.19	-46.8	-47.4	16.2	0.00e+00	0	31	0	2483027968	59	3918
2026-01-03 04:25:38.93	290.33	39.06	-46.9	-47.5	16.2	0.00e+00	0	31	0	2488270848	59	3963
2026-01-03 04:25:39.92	289.94	38.94	-47.1	-47.7	16.1	0.00e+00	0	31	0	2493513728	59	4068
2026-01-03 04:25:40.92	289.54	38.82	-47.1	-47.7	16.2	0.00e+00	0	31	0	2499805184	59	4073
2026-01-03 04:25:41.91	289.16	38.69	-47.1	-47.7	16.1	0.00e+00	0	31	0	2505048064	59	4073
2026-01-03 04:25:42.91	288.77	38.57	-47.2	-47.7	16.1	0.00e+00	0	31	0	2511339520	59	4087
2026-01-03 04:25:43.91	288.39	38.44	-47.1	-47.6	16.1	0.00e+00	0	31	0	2516582400	59	4047
2026-01-03 04:25:44.91	288.01	38.31	-47.2	-47.7	16.1	0.00e+00	0	31	0	2521825280	59	4088
2026-01-03 04:25:45.90	287.63	38.19	-47.3	-47.8	16.1	0.00e+00	0	31	0	2527068160	59	4143
2026-01-03 04:25:46.89	287.26	38.06	-47.2	-47.7	16.1	0.00e+00	0	31	0	2533359616	59	4088
2026-01-03 04:25:47.89	286.89	37.93	-47.1	-47.6	16.2	0.00e+00	0	31	0	2538602496	59	4041
2026-01-03 04:25:48.89	286.52	37.80	-47.1	-47.6	16.2	0.00e+00	0	31	0	2543845376	59	4039
2026-01-03 04:25:49.89	286.15	37.67	-47.0	-47.6	16.2	0.00e+00	0	31	0	2550136832	59	4025
2026-01-03 04:25:50.88	285.79	37.53	-47.0	-47.6	16.2	0.00e+00	0	31	0	2555379712	59	4036
2026-01-03 04:25:51.88	285.43	37.40	-47.2	-47.8	16.1	0.00e+00	0	31	0	2561671168	59	4107
2026-01-03 04:25:52.87	285.08	37.27	-47.2	-47.8	16.1	0.00e+00	0	31	0	2566914048	59	4110
2026-01-03 04:25:53.87	284.72	37.13	-47.2	-47.8	16.1	0.00e+00	0	31	0	2572156928	59	4121
2026-01-03 04:25:54.87	284.37	37.00	-47.2	-47.8	16.1	0.00e+00	0	31	0	2578448384	59	4127
2026-01-03 04:25:55.87	284.02	36.86	-47.2	-47.8	16.1	0.00e+00	0	31	0	2583691264	59	4134
2026-01-03 04:25:56.87	283.68	36.72	-47.2	-47.8	16.1	0.00e+00	0	31	0	2588934144	59	4101
2026-01-03 04:25:57.87	283.34	36.59	-47.3	-47.8	16.1	0.00e+00	0	31	0	2595225600	59	4136
2026-01-03 04:25:58.87	283.00	36.45	-47.2	-47.7	16.1	0.00e+00	0	31	0	2600468480	59	4078
2026-01-03 04:25:59.87	282.66	36.31	-47.2	-47.7	16.1	0.00e+00	0	31	0	2605711360	59	4088
2026-01-03 04:26:00.88	282.32	36.17	-47.2	-47.8	16.1	0.00e+00	0	31	0	2612002816	59	4134
2026-01-03 04:26:01.87	281.99	36.03	-47.2	-47.8	16.1	0.00e+00	0	31	0	2617245696	59	4112
2026-01-03 04:26:02.88	281.66	35.89	-47.3	-47.9	16.1	0.00e+00	0	31	0	2623537152	59	4155
2026-01-03 04:26:03.88	281.34	35.75	-47.3	-47.9	16.1	0.00e+00	0	31	0	2628780032	59	4155
2026-01-03 04:26:04.87	281.02	35.61	-47.0	-47.6	16.2	0.00e+00	0	31	0	2634022912	59	4013
2026-01-03 04:26:05.87	280.70	35.46	-46.8	-47.4	16.2	0.00e+00	0	31	0	2640314368	59	3937
2026-01-03 04:26:06.87	280.38	35.32	-46.8	-47.4	16.2	0.00e+00	0	31	0	2645557248	59	3915
2026-01-03 04:26:07.87	280.07	35.18	-46.8	-47.3	16.3	0.00e+00	0	31	0	2650800128	59	3893
2026-01-03 04:26:08.87	279.76	35.04	-46.6	-47.1	16.3	0.00e+00	0	31	0	2657091584	59	3819
2026-01-03 04:26:09.87	279.45	34.89	-46.4	-46.9	16.4	0.00e+00	0	31	0	2662334464	59	3735
2026-01-03 04:26:10.88	279.14	34.75	-46.4	-46.9	16.4	0.00e+00	0	31	0	2667577344	59	3719
2026-01-03 04:26:11.88	278.84	34.61	-46.4	-46.9	16.4	0.00e+00	0	31	0	2673868800	59	3727
2026-01-03 04:26:12.88	278.53	34.46	-46.6	-47.2	16.3	0.00e+00	0	31	0	2679111680	59	3828
2026-01-03 04:26:13.88	278.24	34.32	-46.6	-47.2	16.3	0.00e+00	0	31	0	2685403136	59	3847
2026-01-03 04:26:14.89	277.94	34.17	-46.7	-47.2	16.3	0.00e+00	0	31	0	2690646016	59	3865
2026-01-03 04:26:15.89	277.65	34.03	-46.7	-47.3	16.3	0.00e+00	0	31	0	2695888896	59	3892
2026-01-03 04:26:16.89	277.36	33.88	-46.8	-47.4	16.2	0.00e+00	0	31	0	2702180352	59	3936
2026-01-03 04:26:17.88	277.07	33.74	-47.0	-47.6	16.2	0.00e+00	0	31	0	2707423232	59	4025
2026-01-03 04:26:18.89	276.78	33.59	-47.1	-47.7	16.2	0.00e+00	0	31	0	2712666112	59	4063
2026-01-03 04:26:19.89	276.50	33.45	-47.2	-47.8	16.1	0.00e+00	0	31	0	2718957568	59	4122
2026-01-03 04:26:20.88	276.22	33.31	-47.1	-47.7	16.2	0.00e+00	0	31	0	2724200448	59	4071
2026-01-03 04:26:21.88	275.95	33.16	-47.1	-47.7	16.1	0.00e+00	0	31	0	2729443328	59	4052
2026-01-03 04:26:22.88	275.67	33.01	-46.8	-47.3	16.2	0.00e+00	0	31	0	2735734784	59	3903
2026-01-03 04:26:23.87	275.40	32.87	-46.8	-47.4	16.2	0.00e+00	0	31	0	2740977664	59	3920
2026-01-03 04:26:24.87	275.13	32.73	-46.8	-47.4	16.2	0.00e+00	0	31	0	2747269120	59	3934
2026-01-03 04:26:25.88	274.86	32.58	-47.0	-47.5	16.2	0.00e+00	0	31	0	2752512000	59	3996
2026-01-03 04:26:26.87	274.60	32.43	-47.0	-47.6	16.2	0.00e+00	0	31	0	2757754880	59	4014
2026-01-03 04:26:27.87	274.34	32.29	-47.1	-47.6	16.2	0.00e+00	0	31	0	2764046336	59	4050
2026-01-03 04:26:28.87	274.08	32.14	-47.0	-47.6	16.2	0.00e+00	0	31	0	2769289216	59	4028
2026-01-03 04:26:29.86	273.82	32.00	-47.1	-47.6	16.2	0.00e+00	0	31	0	2774532096	59	4045
2026-01-03 04:26:30.87	273.56	31.85	-47.0	-47.5	16.2	0.00e+00	0	31	0	2780823552	59	4000
2026-01-03 04:26:31.87	273.31	31.71	-47.0	-47.6	16.2	0.00e+00	0	31	0	2786066432	59	4014
2026-01-03 04:26:32.87	273.06	31.56	-46.9	-47.4	16.2	0.00e+00	0	31	0	2791309312	59	3954
2026-01-03 04:26:33.86	272.81	31.42	-46.9	-47.5	16.2	0.00e+00	0	31	0	2797600768	59	3976
2026-01-03 04:26:34.86	272.57	31.27	-47.0	-47.6	16.2	0.00e+00	0	31	0	2802843648	59	4031
2026-01-03 04:26:35.86	272.32	31.13	-47.1	-47.7	16.1	0.00e+00	0	31	0	2809135104	59	4085
2026-01-03 04:26:36.87	272.08	30.98	-47.3	-47.9	16.1	0.00e+00	0	31	0	2814377984	59	4169
2026-01-03 04:26:37.86	271.84	30.84	-47.3	-47.9	16.1	0.00e+00	0	31	0	2819620864	59	4184
2026-01-03 04:26:38.86	271.60	30.70	-47.3	-47.9	16.1	0.00e+00	0	31	0	2824863744	59	4169
2026-01-03 04:26:39.87	271.36	30.55	-47.3	-47.9	16.1	0.00e+00	0	31	0	2831155200	59	4173
2026-01-03 04:26:40.87	271.13	30.41	-47.2	-47.8	16.1	0.00e+00	0	31	0	2836398080	59	4135
2026-01-03 04:26:41.87	270.90	30.26	-47.2	-47.8	16.1	0.00e+00	0	31	0	2841640960	59	4100
2026-01-03 04:26:42.87	270.67	30.12	-47.2	-47.7	16.2	0.00e+00	0	31	0	2847932416	59	4092
2026-01-03 04:26:43.87	270.44	29.97	-47.2	-47.8	16.1	0.00e+00	0	31	0	2853175296	59	4113
2026-01-03 04:26:44.87	270.21	29.83	-47.3	-47.9	16.1	0.00e+00	0	31	0	2859466752	59	4155
2026-01-03 04:26:45.87	269.99	29.69	-47.3	-47.9	16.1	0.00e+00	0	31	0	2864709632	59	4149
2026-01-03 04:26:46.86	269.77	29.55	-47.4	-48.0	16.1	0.00e+00	0	31	0	2869952512	59	4209
2026-01-03 04:26:47.86	269.55	29.40	-47.1	-47.7	16.3	0.00e+00	0	31	0	2876243968	60	3825
2026-01-03 04:26:48.85	269.34	29.26	-47.1	-47.7	16.3	0.00e+00	0	31	0	2881486848	60	3847
2026-01-03 04:26:49.85	269.12	29.12	-47.3	-47.9	16.2	0.00e+00	0	31	0	2886729728	60	3915
2026-01-03 04:26:50.84	268.91	28.98	-47.3	-47.9	16.2	0.00e+00	0	31	0	2893021184	60	3947
2026-01-03 04:26:51.84	268.70	28.84	-47.3	-47.9	16.2	0.00e+00	0	31	0	2898264064	60	3916
2026-01-03 04:26:52.84	268.49	28.70	-47.2	-47.7	16.2	0.00e+00	0	31	0	2904555520	60	3864
2026-01-03 04:26:53.84	268.28	28.56	-47.1	-47.7	16.2	0.00e+00	0	31	0	2909798400	60	3844
2026-01-03 04:26:54.84	268.07	28.42	-47.1	-47.7	16.2	0.00e+00	0	31	0	2915041280	60	3842
2026-01-03 04:26:55.84	267.87	28.28	-47.1	-47.7	16.3	0.00e+00	0	31	0	2921332736	60	3826
2026-01-03 04:26:56.83	267.67	28.14	-47.1	-47.6	16.3	0.00e+00	0	31	0	2926575616	60	3820
2026-01-03 04:26:57.83	267.47	28.00	-47.1	-47.6	16.3	0.00e+00	0	31	0	2931818496	60	3820
2026-01-03 04:26:58.83	267.27	27.86	-47.0	-47.5	16.3	0.00e+00	0	31	0	2937061376	60	3774
2026-01-03 04:26:59.82	267.07	27.72	-47.0	-47.6	16.3	0.00e+00	0	31	0	2943352832	60	3787
2026-01-03 04:27:00.82	266.88	27.58	-47.0	-47.6	16.3	0.00e+00	0	31	0	2948595712	60	3785
2026-01-03 04:27:01.81	266.69	27.44	-47.1	-47.7	16.2	0.00e+00	0	31	0	2954887168	60	3840
2026-01-03 04:27:02.81	266.49	27.31	-47.2	-47.8	16.2	0.00e+00	0	31	0	2960130048	60	3872
2026-01-03 04:27:03.81	266.30	27.17	-47.4	-47.9	16.2	0.00e+00	0	31	0	2965372928	60	3950
2026-01-03 04:27:04.81	266.12	27.03	-47.4	-48.0	16.1	0.00e+00	0	31	0	2971664384	60	3975
2026-01-03 04:27:05.81	265.93	26.89	-47.4	-48.0	16.1	0.00e+00	0	31	0	2976907264	60	3990
2026-01-03 04:27:06.81	265.74	26.76	-47.3	-47.9	16.1	0.00e+00	0	31	0	2982150144	60	3947
2026-01-03 04:27:07.81	265.56	26.62	-47.2	-47.8	16.2	0.00e+00	0	31	0	2988441600	60	3890
2026-01-03 04:27:08.80	265.38	26.48	-47.2	-47.7	16.2	0.00e+00	0	31	0	2993684480	60	3854
2026-01-03 04:27:09.80	265.20	26.35	-47.2	-47.7	16.3	0.00e+00	0	31	0	2998927360	60	3860
2026-01-03 04:27:10.80	265.02	26.21	-47.2	-47.8	16.2	0.00e+00	0	31	0	3005218816	60	3890
2026-01-03 04:27:11.80	264.84	26.08	-47.3	-47.9	16.2	0.00e+00	0	31	0	3010461696	60	3914
2026-01-03 04:27:12.81	264.66	25.94	-47.4	-48.0	16.2	0.00e+00	0	31	0	3016753152	60	3961
2026-01-03 04:27:13.81	264.49	25.81	-47.3	-47.9	16.2	0.00e+00	0	31	0	3021996032	60	3950
2026-01-03 04:27:14.81	264.31	25.67	-47.4	-48.0	16.1	0.00e+00	0	31	0	3027238912	60	3992
2026-01-03 04:27:15.81	264.14	25.54	-47.4	-48.0	16.1	0.00e+00	0	31	0	3033530368	60	3972
2026-01-03 04:27:16.82	263.97	25.41	-47.4	-48.0	16.1	0.00e+00	0	31	0	3038773248	60	3979
2026-01-03 04:27:17.81	263.80	25.27	-47.3	-47.9	16.2	0.00e+00	0	31	0	3044016128	60	3937
2026-01-03 04:27:18.80	263.64	25.14	-47.4	-47.9	16.2	0.00e+00	0	31	0	3050307584	60	3952
2026-01-03 04:27:19.80	263.47	25.01	-47.3	-47.9	16.1	0.00e+00	0	31	0	3055550464	60	3944
2026-01-03 04:27:20.80	263.31	24.88	-47.3	-47.9	16.2	0.00e+00	0	31	0	3060793344	60	3915
2026-01-03 04:27:21.80	263.14	24.75	-47.3	-47.8	16.2	0.00e+00	0	31	0	3067084800	60	3903
2026-01-03 04:27:22.81	262.98	24.62	-47.3	-47.8	16.2	0.00e+00	0	31	0	3072327680	60	3906
2026-01-03 04:27:23.81	262.82	24.49	-47.2	-47.8	16.2	0.00e+00	0	31	0	3078619136	60	3891
2026-01-03 04:27:24.81	262.66	24.36	-47.3	-47.9	16.2	0.00e+00	0	31	0	3083862016	60	3919
2026-01-03 04:27:25.81	262.50	24.23	-47.3	-47.9	16.2	0.00e+00	0	31	0	3089104896	60	3928
2026-01-03 04:27:26.80	262.35	24.10	-47.2	-47.8	16.2	0.00e+00	0	31	0	3095396352	60	3886
2026-01-03 04:27:27.80	262.19	23.97	-47.2	-47.8	16.2	0.00e+00	0	31	0	3100639232	60	3897
2026-01-03 04:27:28.80	262.04	23.84	-47.2	-47.8	16.2	0.00e+00	0	31	0	3105882112	60	3882
2026-01-03 04:27:29.80	261.89	23.71	-47.2	-47.7	16.2	0.00e+00	0	31	0	3112173568	60	3868
2026-01-03 04:27:30.80	261.74	23.59	-47.3	-47.9	16.1	0.00e+00	0	31	0	3117416448	60	3928
2026-01-03 04:27:31.80	261.59	23.46	-47.3	-47.8	16.2	0.00e+00	0	31	0	3122659328	60	3908
2026-01-03 04:27:32.79	261.44	23.33	-47.3	-47.8	16.2	0.00e+00	0	31	0	3128950784	60	3908
2026-01-03 04:27:33.79	261.29	23.21	-47.3	-47.9	16.2	0.00e+00	0	31	0	3134193664	60	3925
2026-01-03 04:27:34.79	261.14	23.08	-47.3	-47.9	16.2	0.00e+00	0	31	0	3140485120	60	3943
2026-01-03 04:27:35.79	261.00	22.96	-47.4	-47.9	16.2	0.00e+00	0	31	0	3145728000	60	3954
2026-01-03 04:27:36.79	260.85	22.83	-47.3	-47.9	16.2	0.00e+00	0	31	0	3150970880	60	3941
2026-01-03 04:27:37.79	260.71	22.71	-47.3	-47.9	16.2	0.00e+00	0	31	0	3157262336	60	3918
2026-01-03 04:27:38.78	260.57	22.58	-47.4	-48.0	16.2	0.00e+00	0	31	0	3162505216	60	3966
2026-01-03 04:27:39.78	260.43	22.46	-47.4	-48.0	16.1	0.00e+00	0	31	0	3167748096	60	3971
2026-01-03 04:27:40.78	260.29	22.34	-47.3	-47.9	16.2	0.00e+00	0	31	0	3174039552	60	3927
2026-01-03 04:27:41.79	260.15	22.21	-47.4	-48.0	16.2	0.00e+00	0	31	0	3179282432	60	3980
2026-01-03 04:27:42.79	260.01	22.09	-47.5	-48.1	16.2	0.00e+00	0	31	0	3184525312	60	4012
2026-01-03 04:27:43.79	259.88	21.97	-47.5	-48.1	16.1	0.00e+00	0	31	0	3190816768	60	4024
2026-01-03 04:27:44.79	259.74	21.84	-47.6	-48.2	16.1	0.00e+00	0	31	0	3196059648	60	4072
2026-01-03 04:27:45.78	259.61	21.72	-47.6	-48.2	16.1	0.00e+00	0	31	0	3202351104	60	4092
2026-01-03 04:27:46.78	259.48	21.60	-47.6	-48.2	16.1	0.00e+00	0	31	0	3207593984	60	4092
2026-01-03 04:27:47.78	259.35	21.48	-47.7	-48.4	16.1	0.00e+00	0	31	0	3212836864	60	4151
2026-01-03 04:27:48.77	259.22	21.36	-47.8	-48.4	16.0	0.00e+00	0	31	0	3218079744	60	4185
2026-01-03 04:27:49.77	259.09	21.24	-47.8	-48.4	16.1	0.00e+00	0	31	0	3224371200	60	4169
2026-01-03 04:27:50.77	258.96	21.12	-47.8	-48.4	16.1	0.00e+00	0	31	0	3229614080	60	4168
2026-01-03 04:27:51.77	258.83	21.00	-47.9	-48.5	16.0	0.00e+00	0	31	0	3234856960	60	4203
2026-01-03 04:27:52.77	258.70	20.89	-47.9	-48.5	16.1	0.00e+00	0	31	0	3241148416	61	3990
2026-01-03 04:27:53.76	258.58	20.77	-47.8	-48.5	16.1	0.00e+00	0	31	0	3246391296	61	3967
2026-01-03 04:27:54.76	258.45	20.65	-47.8	-48.4	16.1	0.00e+00	0	31	0	3252682752	61	3942
2026-01-03 04:27:55.76	258.33	20.53	-47.9	-48.5	16.1	0.00e+00	0	31	0	3257925632	61	3994
2026-01-03 04:27:56.75	258.21	20.42	-47.9	-48.5	16.1	0.00e+00	0	31	0	3263168512	61	3972
2026-01-03 04:27:57.75	258.09	20.30	-47.8	-48.4	16.1	0.00e+00	0	31	0	3269459968	61	3914
2026-01-03 04:27:58.74	257.97	20.19	-47.8	-48.4	16.1	0.00e+00	0	31	0	3274702848	61	3928
2026-01-03 04:27:59.74	257.85	20.07	-47.8	-48.4	16.1	0.00e+00	0	31	0	3279945728	61	3934
2026-01-03 04:28:00.75	257.73	19.95	-47.8	-48.4	16.1	0.00e+00	0	31	0	3286237184	61	3958
2026-01-03 04:28:01.75	257.61	19.84	-47.8	-48.4	16.1	0.00e+00	0	31	0	3291480064	61	3924
2026-01-03 04:28:02.75	257.49	19.72	-47.9	-48.5	16.1	0.00e+00	0	31	0	3296722944	61	3968
2026-01-03 04:28:03.76	257.37	19.61	-48.0	-48.6	16.1	0.00e+00	0	31	0	3303014400	61	4008
2026-01-03 04:28:04.75	257.26	19.50	-47.9	-48.5	16.1	0.00e+00	0	31	0	3308257280	61	3974
2026-01-03 04:28:05.75	257.14	19.38	-48.0	-48.7	16.0	0.00e+00	0	31	0	3314548736	61	4055
2026-01-03 04:28:06.74	257.03	19.27	-48.1	-48.7	16.0	0.00e+00	0	31	0	3319791616	61	4094
2026-01-03 04:28:07.74	256.92	19.16	-48.1	-48.7	16.0	0.00e+00	0	31	0	3325034496	61	4098
2026-01-03 04:28:08.75	256.81	19.05	-48.2	-48.8	16.0	0.00e+00	0	31	0	3331325952	61	4145
2026-01-03 04:28:09.74	256.70	18.93	-48.2	-48.9	16.0	0.00e+00	0	31	0	3336568832	61	4153
2026-01-03 04:28:10.75	256.58	18.82	-48.3	-49.0	15.9	0.00e+00	0	31	0	3341811712	61	4195
2026-01-03 04:28:11.75	256.47	18.71	-48.3	-49.0	15.9	0.00e+00	0	31	0	3348103168	61	4205
2026-01-03 04:28:12.75	256.37	18.60	-48.4	-49.1	16.0	0.00e+00	0	31	0	3353346048	62	4015
2026-01-03 04:28:13.75	256.26	18.49	-48.4	-49.1	16.0	0.00e+00	0	31	0	3358588928	62	4008
2026-01-03 04:28:14.75	256.15	18.38	-48.4	-49.1	16.0	0.00e+00	0	31	0	3364880384	62	4020
2026-01-03 04:28:15.75	256.04	18.27	-48.4	-49.0	16.0	0.00e+00	0	31	0	3370123264	62	3998
2026-01-03 04:28:16.75	255.94	18.16	-48.4	-49.0	16.0	0.00e+00	0	31	0	3376414720	62	3989
2026-01-03 04:28:17.75	255.83	18.05	-48.5	-49.1	16.0	0.00e+00	0	31	0	3381657600	62	4019
2026-01-03 04:28:18.75	255.73	17.94	-48.5	-49.1	16.0	0.00e+00	0	31	0	3386900480	62	4044
2026-01-03 04:28:19.76	255.63	17.84	-48.5	-49.1	16.0	0.00e+00	0	31	0	3393191936	62	4041
2026-01-03 04:28:20.76	255.52	17.73	-48.5	-49.2	16.0	0.00e+00	0	31	0	3398434816	62	4064
2026-01-03 04:28:21.76	255.42	17.62	-48.6	-49.2	15.9	0.00e+00	0	31	0	3403677696	62	4083
2026-01-03 04:28:22.76	255.32	17.51	-48.7	-49.4	15.9	0.00e+00	0	31	0	3409969152	62	4147
2026-01-03 04:28:23.76	255.22	17.41	-48.6	-49.3	15.9	0.00e+00	0	31	0	3415212032	62	4100
2026-01-03 04:28:24.77	255.12	17.30	-48.6	-49.3	15.9	0.00e+00	0	31	0	3420454912	62	4100
2026-01-03 04:28:25.76	255.02	17.20	-48.6	-49.3	15.9	0.00e+00	0	31	0	3426746368	62	4121
2026-01-03 04:28:26.77	254.92	17.09	-48.8	-49.5	15.9	0.00e+00	0	31	0	3431989248	62	4222
2026-01-03 04:28:27.77	254.82	16.98	-48.9	-49.5	15.9	0.00e+00	0	31	0	3438280704	62	4228
2026-01-03 04:28:28.77	254.73	16.88	-48.8	-49.5	15.9	0.00e+00	0	31	0	3443523584	63	3966
2026-01-03 04:28:29.77	254.63	16.78	-48.8	-49.5	15.9	0.00e+00	0	31	0	3448766464	63	3969
2026-01-03 04:28:30.77	254.54	16.67	-48.9	-49.6	15.9	0.00e+00	0	31	0	3455057920	63	4007
2026-01-03 04:28:31.77	254.44	16.57	-48.8	-49.5	15.9	0.00e+00	0	31	0	3460300800	63	3960
2026-01-03 04:28:32.78	254.35	16.46	-48.9	-49.6	15.9	0.00e+00	0	31	0	3465543680	63	4014
2026-01-03 04:28:33.78	254.25	16.36	-48.9	-49.5	15.9	0.00e+00	0	31	0	3471835136	63	4004
2026-01-03 04:28:34.78	254.16	16.26	-48.9	-49.5	15.9	0.00e+00	0	31	0	3477078016	63	3987
2026-01-03 04:28:35.77	254.07	16.16	-49.0	-49.7	15.9	0.00e+00	0	31	0	3482320896	63	4061
2026-01-03 04:28:36.78	253.98	16.05	-48.9	-49.6	15.9	0.00e+00	0	31	0	3488612352	63	4035
2026-01-03 04:28:37.78	253.89	15.95	-48.9	-49.6	15.9	0.00e+00	0	31	0	3493855232	63	4035
2026-01-03 04:28:38.79	253.80	15.85	-48.9	-49.6	15.9	0.00e+00	0	31	0	3500146688	63	4016
2026-01-03 04:28:39.78	253.71	15.75	-48.9	-49.5	15.9	0.00e+00	0	31	0	3505389568	63	4001
2026-01-03 04:28:40.78	253.62	15.65	-49.0	-49.6	15.9	0.00e+00	0	31	0	3511681024	63	4048
2026-01-03 04:28:41.79	253.53	15.55	-48.9	-49.6	15.9	0.00e+00	0	31	0	3516923904	63	4021
2026-01-03 04:28:42.79	253.44	15.45	-48.9	-49.6	15.9	0.00e+00	0	31	0	3522166784	63	4037
2026-01-03 04:28:43.80	253.35	15.35	-49.0	-49.7	15.9	0.00e+00	0	31	0	3528458240	63	4073
2026-01-03 04:28:44.80	253.27	15.25	-49.0	-49.7	15.9	0.00e+00	0	31	0	3533701120	63	4071
2026-01-03 04:28:45.81	253.18	15.15	-49.1	-49.8	15.8	0.00e+00	0	31	0	3538944000	63	4122
2026-01-03 04:28:46.81	253.09	15.05	-49.2	-49.8	15.8	0.00e+00	0	31	0	3545235456	63	4143
2026-01-03 04:28:47.82	253.01	14.95	-49.1	-49.7	15.9	0.00e+00	0	31	0	3550478336	63	4096
2026-01-03 04:28:48.80	252.93	14.86	-49.1	-49.7	15.8	0.00e+00	0	31	0	3555721216	63	4098
2026-01-03 04:28:49.80	252.84	14.76	-49.2	-49.9	15.8	0.00e+00	0	31	0	3562012672	63	4156
2026-01-03 04:28:50.80	252.76	14.66	-49.1	-49.8	15.8	0.00e+00	0	31	0	3567255552	63	4136
2026-01-03 04:28:51.80	252.68	14.57	-49.2	-49.8	15.8	0.00e+00	0	31	0	3573547008	63	4138
2026-01-03 04:28:52.80	252.60	14.47	-49.2	-49.8	15.8	0.00e+00	0	31	0	3578789888	63	4138
2026-01-03 04:28:53.80	252.51	14.37	-49.1	-49.8	15.8	0.00e+00	0	31	0	3584032768	63	4136
2026-01-03 04:28:54.81	252.43	14.28	-49.2	-49.9	15.8	0.00e+00	0	31	0	3590324224	63	4162
2026-01-03 04:28:55.80	252.35	14.18	-49.2	-49.9	15.8	0.00e+00	0	31	0	3595567104	63	4184
2026-01-03 04:28:56.80	252.27	14.09	-49.3	-50.0	15.7	0.00e+00	0	31	0	3600809984	63	4222
2026-01-03 04:28:57.79	252.20	13.99	-49.4	-50.1	15.7	0.00e+00	0	31	0	3607101440	63	4249
2026-01-03 04:28:58.79	252.12	13.90	-49.5	-50.2	15.8	0.00e+00	0	31	0	3612344320	64	4055
2026-01-03 04:28:59.78	252.04	13.80	-49.4	-50.1	15.8	0.00e+00	0	31	0	3618635776	64	4024
2026-01-03 04:29:00.78	251.96	13.71	-49.5	-50.2	15.8	0.00e+00	0	31	0	3623878656	64	4067
2026-01-03 04:29:01.78	251.88	13.62	-49.5	-50.3	15.7	0.00e+00	0	31	0	3629121536	64	4100
2026-01-03 04:29:02.78	251.81	13.52	-49.5	-50.2	15.7	0.00e+00	0	31	0	3635412992	64	4064
2026-01-03 04:29:03.78	251.73	13.43	-49.5	-50.3	15.7	0.00e+00	0	31	0	3640655872	64	4103
2026-01-03 04:29:04.77	251.66	13.34	-49.6	-50.3	15.7	0.00e+00	0	31	0	3645898752	64	4137
2026-01-03 04:29:05.77	251.58	13.25	-49.6	-50.3	15.7	0.00e+00	0	31	0	3651141632	64	4142
2026-01-03 04:29:06.77	251.51	13.15	-49.6	-50.4	15.7	0.00e+00	0	31	0	3657433088	64	4155
2026-01-03 04:29:07.78	251.43	13.06	-49.6	-50.3	15.7	0.00e+00	0	31	0	3662675968	64	4131
