passes_logs/2026/01/03/R3.2S_Murmansk/R3.2S_Murmansk__20260103_065458_NOAA_20_JPSS-1_rec.log

#Pass ID: 20260103_065458_NOAA 20 (JPSS-1)
#Satellite: NOAA 20 (JPSS-1)
#Configuration: NOAA 20
#almurnet v.1.7.20251203
#Start time: 2026-01-03 06:55:00

#Version: 2.2.20231116
#Station: R3.2S_Murmansk
#Location: 33.079688 lon 68.888172 lat
#TLE: 1 43013U 17073A   26002.78363558  .00000190  00000+0  11110-3 0  9990
#TLE: 2 43013  98.7623 303.8528 0001892  57.0664 303.0694 14.19532716421006

#Time	Az	El	Level	Level2	SNR	BER	BlckErr	Temp	State	Recorded	gain1	gain2
2026-01-03 06:55:00.43	93.18	2.13	-59.7	-75.2	3.8	1.49e+00	0	29	0	0	85	21598
2026-01-03 06:55:01.44	93.13	2.19	-59.7	-75.2	3.8	1.49e+00	0	29	104	0	84	22930
2026-01-03 06:55:02.44	93.07	2.25	-59.7	-75.2	3.8	1.49e+00	0	29	104	0	84	22963
2026-01-03 06:55:03.43	93.02	2.31	-59.7	-75.2	3.8	1.49e+00	0	29	104	0	84	22949
2026-01-03 06:55:04.43	92.97	2.37	-59.7	-75.2	3.8	1.49e+00	0	29	104	0	84	22960
2026-01-03 06:55:05.43	92.92	2.43	-59.7	-75.2	3.8	1.49e+00	0	29	104	0	84	22920
2026-01-03 06:55:06.43	92.86	2.49	-59.7	-75.2	3.8	1.49e+00	0	29	104	0	84	22947
2026-01-03 06:55:07.43	92.81	2.55	-59.7	-75.2	3.8	1.49e+00	0	29	104	0	84	23027
2026-01-03 06:55:08.43	92.75	2.61	-59.7	-75.2	3.8	1.49e+00	0	29	104	0	84	22948
2026-01-03 06:55:09.43	92.70	2.67	-59.7	-75.2	3.8	1.49e+00	0	29	104	0	84	23011
2026-01-03 06:55:10.44	92.65	2.73	-59.7	-75.2	3.8	1.49e+00	0	29	104	0	84	23036
2026-01-03 06:55:11.44	92.59	2.80	-59.7	-75.2	3.8	1.49e+00	0	29	104	0	84	23014
2026-01-03 06:55:12.43	92.54	2.86	-59.7	-75.3	3.8	1.49e+00	0	29	104	0	84	23058
2026-01-03 06:55:13.43	92.48	2.92	-59.7	-75.3	3.8	1.49e+00	0	29	104	0	84	23046
2026-01-03 06:55:14.44	92.43	2.98	-59.7	-75.2	3.8	1.49e+00	0	29	104	0	84	22996
2026-01-03 06:55:15.44	92.37	3.04	-59.7	-75.2	3.8	1.49e+00	0	29	104	0	84	22855
2026-01-03 06:55:16.44	92.31	3.10	-59.7	-75.2	3.8	1.49e+00	0	29	104	0	84	22973
2026-01-03 06:55:17.44	92.26	3.16	-59.7	-75.2	3.8	1.49e+00	0	29	104	0	84	22980
2026-01-03 06:55:18.44	92.20	3.22	-59.7	-75.3	3.8	1.49e+00	0	29	104	0	84	23052
2026-01-03 06:55:19.44	92.14	3.28	-59.7	-75.2	3.8	1.49e+00	0	29	104	0	84	23036
2026-01-03 06:55:20.44	92.09	3.35	-59.7	-75.2	3.8	1.49e+00	0	29	104	0	84	23020
2026-01-03 06:55:21.43	92.03	3.41	-59.7	-75.2	3.8	1.49e+00	0	29	104	0	84	22999
2026-01-03 06:55:22.43	91.97	3.47	-59.7	-75.2	3.8	1.49e+00	0	29	104	0	84	22854
2026-01-03 06:55:23.43	91.92	3.53	-59.7	-75.1	3.8	1.49e+00	0	29	104	0	84	22683
2026-01-03 06:55:24.42	91.86	3.59	-59.7	-75.1	3.8	1.49e+00	0	29	104	0	84	22672
2026-01-03 06:55:25.42	91.80	3.65	-59.7	-75.1	3.8	1.49e+00	0	29	104	0	84	22626
2026-01-03 06:55:26.43	91.74	3.72	-59.7	-75.1	3.8	1.49e+00	0	29	104	0	84	22748
2026-01-03 06:55:27.43	91.68	3.78	-59.7	-75.2	3.8	1.49e+00	0	29	104	0	84	22813
2026-01-03 06:55:28.42	91.62	3.84	-59.7	-75.2	3.8	1.49e+00	0	29	104	0	84	22990
2026-01-03 06:55:29.42	91.57	3.90	-59.7	-75.2	3.8	1.49e+00	0	29	104	0	84	22989
2026-01-03 06:55:30.42	91.51	3.97	-59.7	-75.2	3.8	1.49e+00	0	30	104	0	84	22800
2026-01-03 06:55:31.42	91.45	4.03	-59.7	-74.9	3.8	1.49e+00	0	29	104	0	84	22129
2026-01-03 06:55:32.42	91.39	4.09	-59.6	-74.5	3.8	1.49e+00	0	29	104	0	84	21204
2026-01-03 06:55:33.42	91.33	4.16	-59.6	-74.0	3.8	1.49e+00	0	29	104	0	84	19927
2026-01-03 06:55:34.42	91.27	4.22	-59.6	-73.4	3.8	1.49e+00	0	30	104	0	84	18633
2026-01-03 06:55:35.42	91.20	4.28	-59.6	-72.8	3.9	1.48e+00	0	30	104	0	84	17444
2026-01-03 06:55:36.43	91.14	4.35	-59.5	-71.9	4.1	1.47e+00	0	29	104	0	84	15615
2026-01-03 06:55:37.42	91.08	4.41	-59.5	-71.0	4.4	1.32e+00	77	30	0	0	84	14096
2026-01-03 06:55:38.42	91.02	4.47	-59.4	-70.2	4.7	9.89e-01	0	30	0	2097152	84	12878
2026-01-03 06:55:39.42	90.96	4.54	-59.3	-69.3	5.2	7.33e-01	0	30	0	4194304	84	11598
2026-01-03 06:55:40.42	90.90	4.60	-59.2	-68.5	5.6	4.58e-01	0	30	0	5242880	84	10581
2026-01-03 06:55:41.42	90.83	4.67	-59.1	-67.6	6.2	3.00e-01	0	30	0	7340032	84	9557
2026-01-03 06:55:42.43	90.77	4.73	-59.0	-67.0	6.6	2.01e-01	0	29	0	9437184	84	8928
2026-01-03 06:55:43.42	90.71	4.79	-59.0	-66.5	7.0	1.45e-01	0	30	0	11534336	84	8432
2026-01-03 06:55:44.42	90.64	4.86	-58.9	-66.3	7.2	1.03e-01	0	29	0	13631488	84	8217
2026-01-03 06:55:45.42	90.58	4.92	-58.9	-66.2	7.4	8.93e-02	0	30	0	14680064	84	8085
2026-01-03 06:55:46.42	90.52	4.99	-58.9	-66.3	7.3	8.57e-02	0	30	0	16777216	84	8181
2026-01-03 06:55:47.42	90.45	5.05	-58.5	-64.6	8.4	9.41e-02	0	30	0	18874368	83	7160
2026-01-03 06:55:48.42	90.39	5.12	-58.2	-63.4	9.8	2.08e-04	0	30	0	20971520	81	7007
2026-01-03 06:55:49.42	90.32	5.18	-58.8	-65.9	7.5	1.63e-01	0	30	0	23068672	83	8273
2026-01-03 06:55:50.42	90.26	5.25	-58.8	-66.1	7.1	6.09e-01	0	30	0	24117248	83	8465
2026-01-03 06:55:51.42	90.19	5.31	-58.2	-63.5	9.9	1.29e-05	0	30	0	26214400	81	7082
2026-01-03 06:55:52.42	90.13	5.38	-59.3	-68.4	5.5	1.34e+00	1	30	104	27262976	84	10509
2026-01-03 06:55:53.42	90.06	5.44	-57.1	-60.6	11.9	1.32e-03	0	30	0	28311552	80	5356
2026-01-03 06:55:54.41	89.99	5.51	-57.1	-60.5	12.0	6.80e-06	0	30	0	30408704	80	5329
2026-01-03 06:55:55.42	89.93	5.58	-57.0	-60.4	12.1	3.00e-06	0	30	0	31457280	80	5259
2026-01-03 06:55:56.42	89.86	5.64	-56.9	-60.0	12.4	3.00e-06	0	30	0	33554432	80	5039
2026-01-03 06:55:57.42	89.79	5.71	-56.7	-59.7	12.6	7.00e-07	0	30	0	35651584	80	4869
2026-01-03 06:55:58.42	89.72	5.77	-56.7	-59.8	12.6	0.00e+00	0	30	0	37748736	80	4873
2026-01-03 06:55:59.41	89.66	5.84	-56.7	-59.6	12.7	0.00e+00	0	30	0	39845888	79	5092
2026-01-03 06:56:00.42	89.59	5.91	-56.5	-59.3	12.8	0.00e+00	0	30	0	40894464	79	4920
2026-01-03 06:56:01.42	89.52	5.97	-56.3	-59.0	13.1	0.00e+00	0	30	0	42991616	79	4733
2026-01-03 06:56:02.42	89.45	6.04	-56.3	-59.0	13.1	0.00e+00	0	30	0	45088768	79	4756
2026-01-03 06:56:03.41	89.38	6.11	-56.3	-58.9	13.1	0.00e+00	0	30	0	47185920	79	4700
2026-01-03 06:56:04.41	89.31	6.17	-56.3	-59.0	13.1	0.00e+00	0	30	0	49283072	79	4737
2026-01-03 06:56:05.42	89.24	6.24	-56.3	-59.0	13.1	0.00e+00	0	30	0	50331648	79	4718
2026-01-03 06:56:06.42	89.17	6.31	-56.3	-58.9	13.2	0.00e+00	0	30	0	52428800	79	4670
2026-01-03 06:56:07.42	89.10	6.37	-56.3	-59.0	13.1	0.00e+00	0	30	0	54525952	79	4722
2026-01-03 06:56:08.42	89.03	6.44	-56.3	-59.0	13.1	0.00e+00	0	30	0	56623104	79	4734
2026-01-03 06:56:09.41	88.96	6.51	-56.3	-58.9	13.1	0.00e+00	0	30	0	58720256	79	4700
2026-01-03 06:56:10.40	88.89	6.58	-56.2	-58.8	13.2	0.00e+00	0	30	0	59768832	79	4640
2026-01-03 06:56:11.41	88.82	6.64	-56.2	-58.8	13.3	0.00e+00	0	30	0	61865984	79	4608
2026-01-03 06:56:12.41	88.74	6.71	-56.2	-58.8	13.2	0.00e+00	0	30	0	63963136	78	4876
2026-01-03 06:56:13.41	88.67	6.78	-56.2	-58.9	13.2	0.00e+00	0	30	0	66060288	78	4927
2026-01-03 06:56:14.40	88.60	6.85	-56.2	-58.8	13.2	0.00e+00	0	30	0	67108864	78	4897
2026-01-03 06:56:15.40	88.52	6.92	-56.1	-58.6	13.3	0.00e+00	0	30	0	69206016	78	4793
2026-01-03 06:56:16.40	88.45	6.99	-56.1	-58.6	13.3	0.00e+00	0	30	0	71303168	78	4797
2026-01-03 06:56:17.41	88.38	7.05	-56.1	-58.5	13.4	0.00e+00	0	30	0	73400320	78	4756
2026-01-03 06:56:18.41	88.30	7.12	-56.1	-58.6	13.4	0.00e+00	0	30	0	75497472	78	4770
2026-01-03 06:56:19.40	88.23	7.19	-56.0	-58.5	13.4	0.00e+00	0	30	0	76546048	78	4724
2026-01-03 06:56:20.39	88.15	7.26	-56.0	-58.5	13.5	0.00e+00	0	30	0	78643200	78	4718
2026-01-03 06:56:21.38	88.08	7.33	-56.1	-58.5	13.4	0.00e+00	0	30	0	80740352	78	4756
2026-01-03 06:56:22.39	88.00	7.40	-56.0	-58.3	13.5	0.00e+00	0	30	0	82837504	78	4641
2026-01-03 06:56:23.39	87.92	7.47	-56.0	-58.4	13.5	0.00e+00	0	30	0	84934656	78	4659
2026-01-03 06:56:24.39	87.85	7.54	-55.9	-58.3	13.6	0.00e+00	0	30	0	85983232	78	4619
2026-01-03 06:56:25.39	87.77	7.61	-55.9	-58.2	13.6	0.00e+00	0	30	0	88080384	78	4594
2026-01-03 06:56:26.39	87.69	7.68	-55.9	-58.2	13.6	0.00e+00	0	30	0	90177536	78	4575
2026-01-03 06:56:27.39	87.61	7.75	-55.9	-58.1	13.7	0.00e+00	0	30	0	92274688	78	4538
2026-01-03 06:56:28.38	87.54	7.82	-55.9	-58.2	13.6	0.00e+00	0	30	0	93323264	78	4577
2026-01-03 06:56:29.38	87.46	7.89	-55.9	-58.2	13.7	0.00e+00	0	30	0	95420416	78	4548
2026-01-03 06:56:30.38	87.38	7.96	-55.8	-58.0	13.7	0.00e+00	0	30	0	97517568	78	4479
2026-01-03 06:56:31.39	87.30	8.03	-55.8	-58.1	13.7	0.00e+00	0	30	0	99614720	78	4522
2026-01-03 06:56:32.40	87.22	8.10	-55.9	-58.2	13.6	0.00e+00	0	30	0	101711872	78	4570
2026-01-03 06:56:33.40	87.14	8.17	-55.8	-58.0	13.7	0.00e+00	0	30	0	102760448	78	4485
2026-01-03 06:56:34.40	87.06	8.24	-55.8	-58.1	13.7	0.00e+00	0	30	0	104857600	78	4516
2026-01-03 06:56:35.41	86.97	8.31	-55.8	-58.0	13.7	0.00e+00	0	30	0	106954752	78	4467
2026-01-03 06:56:36.41	86.89	8.39	-55.7	-57.9	13.8	0.00e+00	0	30	0	109051904	78	4431
2026-01-03 06:56:37.41	86.81	8.46	-55.8	-58.0	13.7	0.00e+00	0	30	0	111149056	78	4483
2026-01-03 06:56:38.41	86.73	8.53	-55.7	-57.9	13.8	0.00e+00	0	30	0	112197632	78	4425
2026-01-03 06:56:39.41	86.65	8.60	-55.7	-57.9	13.9	0.00e+00	0	30	0	114294784	78	4393
2026-01-03 06:56:40.41	86.56	8.67	-55.6	-57.8	13.8	0.00e+00	0	30	0	116391936	77	4631
2026-01-03 06:56:41.41	86.48	8.74	-55.7	-57.8	13.8	0.00e+00	0	30	0	118489088	77	4636
2026-01-03 06:56:42.41	86.39	8.82	-55.6	-57.8	13.8	0.00e+00	0	30	0	120586240	77	4613
2026-01-03 06:56:43.41	86.31	8.89	-55.6	-57.8	13.8	0.00e+00	0	30	0	121634816	77	4610
2026-01-03 06:56:44.42	86.22	8.96	-55.6	-57.7	13.8	0.00e+00	0	30	0	123731968	77	4596
2026-01-03 06:56:45.41	86.14	9.03	-55.6	-57.6	13.9	0.00e+00	0	30	0	125829120	77	4543
2026-01-03 06:56:46.41	86.05	9.11	-55.5	-57.6	13.9	0.00e+00	0	30	0	127926272	77	4540
2026-01-03 06:56:47.41	85.97	9.18	-55.5	-57.6	13.9	0.00e+00	0	30	0	128974848	77	4520
2026-01-03 06:56:48.41	85.88	9.25	-55.5	-57.5	14.0	0.00e+00	0	30	0	131072000	77	4463
2026-01-03 06:56:49.41	85.79	9.33	-55.4	-57.5	14.0	0.00e+00	0	30	0	133169152	77	4444
2026-01-03 06:56:50.41	85.71	9.40	-55.5	-57.6	14.0	0.00e+00	0	30	0	135266304	77	4498
2026-01-03 06:56:51.41	85.62	9.47	-55.5	-57.5	14.0	0.00e+00	0	30	0	137363456	77	4477
2026-01-03 06:56:52.41	85.53	9.55	-55.5	-57.6	14.0	0.00e+00	0	30	0	138412032	77	4497
2026-01-03 06:56:53.41	85.44	9.62	-55.5	-57.5	14.0	0.00e+00	0	30	0	140509184	77	4485
2026-01-03 06:56:54.41	85.35	9.70	-55.4	-57.5	14.0	0.00e+00	0	30	0	142606336	77	4452
2026-01-03 06:56:55.41	85.26	9.77	-55.5	-57.5	14.0	0.00e+00	0	30	0	144703488	77	4488
2026-01-03 06:56:56.40	85.17	9.84	-55.4	-57.3	14.1	0.00e+00	0	30	0	146800640	77	4381
2026-01-03 06:56:57.40	85.08	9.92	-55.4	-57.4	14.1	0.00e+00	0	30	0	147849216	77	4416
2026-01-03 06:56:58.41	84.99	9.99	-55.4	-57.4	14.1	0.00e+00	0	30	0	149946368	77	4397
2026-01-03 06:56:59.41	84.89	10.07	-55.4	-57.4	14.1	0.00e+00	0	30	0	152043520	77	4438
2026-01-03 06:57:00.41	84.80	10.14	-55.5	-57.5	14.1	0.00e+00	0	30	0	154140672	77	4453
2026-01-03 06:57:01.41	84.71	10.22	-55.5	-57.6	14.0	0.00e+00	0	30	0	156237824	77	4509
2026-01-03 06:57:02.40	84.62	10.29	-55.5	-57.5	14.1	0.00e+00	0	30	0	157286400	77	4455
2026-01-03 06:57:03.40	84.52	10.37	-55.5	-57.5	14.1	0.00e+00	0	30	0	159383552	77	4463
2026-01-03 06:57:04.41	84.43	10.44	-55.5	-57.5	14.0	0.00e+00	0	31	0	161480704	77	4468
2026-01-03 06:57:05.41	84.33	10.52	-55.5	-57.5	14.1	0.00e+00	0	30	0	163577856	77	4453
2026-01-03 06:57:06.41	84.24	10.60	-55.5	-57.5	14.0	0.00e+00	0	30	0	164626432	77	4483
2026-01-03 06:57:07.41	84.14	10.67	-55.6	-57.6	14.0	0.00e+00	0	30	0	166723584	77	4523
2026-01-03 06:57:08.41	84.05	10.75	-55.6	-57.6	14.0	0.00e+00	0	30	0	168820736	77	4539
2026-01-03 06:57:09.41	83.95	10.82	-55.5	-57.5	14.1	0.00e+00	0	30	0	170917888	77	4442
2026-01-03 06:57:10.41	83.85	10.90	-55.4	-57.3	14.2	0.00e+00	0	30	0	173015040	77	4389
2026-01-03 06:57:11.42	83.75	10.98	-55.4	-57.4	14.1	0.00e+00	0	30	0	174063616	77	4435
2026-01-03 06:57:12.43	83.65	11.06	-55.4	-57.4	14.1	0.00e+00	0	30	0	176160768	77	4419
2026-01-03 06:57:13.43	83.55	11.13	-55.5	-57.5	14.1	0.00e+00	0	30	0	178257920	77	4464
2026-01-03 06:57:14.43	83.45	11.21	-55.4	-57.4	14.1	0.00e+00	0	30	0	180355072	77	4434
2026-01-03 06:57:15.42	83.35	11.29	-55.4	-57.3	14.1	0.00e+00	0	30	0	182452224	77	4360
2026-01-03 06:57:16.42	83.25	11.36	-55.4	-57.3	14.2	0.00e+00	0	30	0	183500800	77	4380
2026-01-03 06:57:17.42	83.15	11.44	-55.4	-57.4	14.2	0.00e+00	0	30	0	185597952	77	4397
2026-01-03 06:57:18.42	83.05	11.52	-55.4	-57.4	14.2	0.00e+00	0	30	0	187695104	77	4397
2026-01-03 06:57:19.42	82.95	11.60	-55.4	-57.4	14.2	0.00e+00	0	30	0	189792256	77	4402
2026-01-03 06:57:20.42	82.85	11.67	-55.4	-57.3	14.2	0.00e+00	0	30	0	190840832	77	4384
2026-01-03 06:57:21.43	82.74	11.75	-55.4	-57.4	14.2	0.00e+00	0	30	0	192937984	77	4396
2026-01-03 06:57:22.42	82.64	11.83	-55.4	-57.4	14.1	0.00e+00	0	31	0	195035136	77	4414
2026-01-03 06:57:23.42	82.53	11.91	-55.5	-57.5	14.1	0.00e+00	0	30	0	197132288	77	4459
2026-01-03 06:57:24.42	82.43	11.99	-55.5	-57.5	14.1	0.00e+00	0	30	0	199229440	77	4457
2026-01-03 06:57:25.41	82.32	12.07	-55.4	-57.3	14.2	0.00e+00	0	31	0	200278016	77	4384
2026-01-03 06:57:26.41	82.22	12.15	-55.4	-57.3	14.2	0.00e+00	0	30	0	202375168	77	4380
2026-01-03 06:57:27.40	82.11	12.22	-55.4	-57.3	14.2	0.00e+00	0	30	0	204472320	77	4369
2026-01-03 06:57:28.40	82.00	12.30	-55.3	-57.2	14.2	0.00e+00	0	30	0	206569472	77	4334
2026-01-03 06:57:29.39	81.90	12.38	-55.4	-57.3	14.2	0.00e+00	0	30	0	208666624	77	4377
2026-01-03 06:57:30.39	81.79	12.46	-55.4	-57.3	14.2	0.00e+00	0	30	0	209715200	77	4363
2026-01-03 06:57:31.39	81.68	12.54	-55.4	-57.4	14.2	0.00e+00	0	30	0	211812352	77	4417
2026-01-03 06:57:32.39	81.57	12.62	-55.4	-57.4	14.2	0.00e+00	0	30	0	213909504	77	4406
2026-01-03 06:57:33.38	81.46	12.70	-55.5	-57.4	14.2	0.00e+00	0	30	0	216006656	77	4424
2026-01-03 06:57:34.67	81.32	12.80	-55.5	-57.5	14.1	0.00e+00	0	31	0	217055232	77	4466
2026-01-03 06:57:35.38	81.24	12.86	-55.5	-57.5	14.2	0.00e+00	0	30	0	219152384	77	4477
2026-01-03 06:57:36.66	81.09	12.96	-55.4	-57.3	14.2	0.00e+00	0	31	0	221249536	77	4367
2026-01-03 06:57:37.38	81.01	13.02	-55.5	-57.4	14.2	0.00e+00	0	30	0	222298112	77	4421
2026-01-03 06:57:38.66	80.86	13.13	-55.4	-57.4	14.2	0.00e+00	0	30	0	225443840	77	4395
2026-01-03 06:57:39.43	80.78	13.19	-55.3	-57.2	14.3	0.00e+00	0	31	0	226492416	77	4333
2026-01-03 06:57:40.71	80.63	13.29	-55.4	-57.3	14.3	0.00e+00	0	30	0	228589568	77	4351
2026-01-03 06:57:41.44	80.54	13.35	-55.4	-57.3	14.3	0.00e+00	0	31	0	230686720	77	4366
2026-01-03 06:57:42.73	80.39	13.46	-55.4	-57.3	14.2	0.00e+00	0	31	0	232783872	77	4388
2026-01-03 06:57:43.44	80.31	13.51	-55.3	-57.2	14.3	0.00e+00	0	31	0	233832448	77	4310
2026-01-03 06:57:44.73	80.16	13.62	-55.3	-57.1	14.4	0.00e+00	0	30	0	235929600	77	4290
2026-01-03 06:57:45.47	80.07	13.68	-55.3	-57.1	14.3	0.00e+00	0	30	0	238026752	77	4278
2026-01-03 06:57:46.75	79.92	13.79	-55.3	-57.1	14.4	0.00e+00	0	30	0	240123904	77	4265
2026-01-03 06:57:47.46	79.83	13.84	-55.1	-56.9	14.3	0.00e+00	0	30	0	241172480	76	4426
2026-01-03 06:57:48.77	79.68	13.95	-55.2	-57.0	14.3	0.00e+00	0	31	0	244318208	76	4473
2026-01-03 06:57:49.48	79.59	14.01	-55.1	-57.0	14.4	0.00e+00	0	30	0	245366784	76	4442
2026-01-03 06:57:50.77	79.43	14.12	-55.3	-57.1	14.3	0.00e+00	0	30	0	247463936	76	4522
2026-01-03 06:57:51.48	79.35	14.18	-55.3	-57.1	14.3	0.00e+00	0	31	0	248512512	76	4511
2026-01-03 06:57:52.80	79.18	14.29	-55.2	-57.0	14.4	0.00e+00	0	30	0	251658240	76	4455
2026-01-03 06:57:53.52	79.09	14.35	-55.2	-57.0	14.4	0.00e+00	0	30	0	252706816	76	4475
2026-01-03 06:57:54.79	78.94	14.45	-55.2	-57.1	14.3	0.00e+00	0	31	0	254803968	76	4495
2026-01-03 06:57:55.51	78.85	14.51	-55.1	-56.9	14.4	0.00e+00	0	30	0	256901120	76	4420
2026-01-03 06:57:56.80	78.68	14.62	-55.2	-57.0	14.3	0.00e+00	0	31	0	258998272	76	4471
2026-01-03 06:57:57.51	78.59	14.68	-55.2	-57.0	14.3	0.00e+00	0	31	0	260046848	76	4475
2026-01-03 06:57:58.79	78.43	14.79	-55.2	-57.0	14.3	0.00e+00	0	30	0	263192576	76	4493
2026-01-03 06:57:59.50	78.34	14.85	-55.2	-57.0	14.3	0.00e+00	0	30	0	264241152	76	4485
2026-01-03 06:58:00.78	78.17	14.95	-55.2	-57.1	14.3	0.00e+00	0	30	0	266338304	76	4503
2026-01-03 06:58:01.51	78.08	15.01	-55.3	-57.1	14.3	0.00e+00	0	30	0	267386880	76	4540
2026-01-03 06:58:02.80	77.91	15.12	-55.3	-57.1	14.3	0.00e+00	0	30	0	270532608	76	4534
2026-01-03 06:58:03.51	77.82	15.18	-55.2	-57.0	14.4	0.00e+00	0	30	0	271581184	76	4463
2026-01-03 06:58:04.80	77.65	15.29	-55.2	-57.0	14.4	0.00e+00	0	30	0	273678336	76	4454
2026-01-03 06:58:05.51	77.55	15.35	-55.3	-57.1	14.3	0.00e+00	0	30	0	275775488	76	4511
2026-01-03 06:58:06.79	77.38	15.46	-55.1	-56.8	14.4	0.00e+00	0	31	0	277872640	76	4377
2026-01-03 06:58:07.53	77.28	15.52	-55.1	-56.8	14.5	0.00e+00	0	31	0	278921216	76	4363
2026-01-03 06:58:08.81	77.11	15.63	-55.0	-56.7	14.5	0.00e+00	0	31	0	281018368	76	4322
2026-01-03 06:58:09.53	77.01	15.70	-54.9	-56.6	14.6	0.00e+00	0	30	0	283115520	76	4248
2026-01-03 06:58:10.82	76.83	15.81	-54.8	-56.5	14.6	0.00e+00	0	31	0	285212672	76	4216
2026-01-03 06:58:11.56	76.73	15.87	-54.8	-56.5	14.6	0.00e+00	0	31	0	286261248	76	4209
2026-01-03 06:58:12.83	76.56	15.98	-54.7	-56.3	14.7	0.00e+00	0	31	0	289406976	76	4136
2026-01-03 06:58:13.57	76.45	16.04	-54.8	-56.4	14.7	0.00e+00	0	31	0	290455552	76	4181
2026-01-03 06:58:14.85	76.27	16.15	-54.8	-56.4	14.7	0.00e+00	0	31	0	292552704	76	4169
2026-01-03 06:58:15.59	76.17	16.22	-54.8	-56.5	14.7	0.00e+00	0	31	0	294649856	76	4199
2026-01-03 06:58:16.87	75.99	16.33	-54.8	-56.4	14.7	0.00e+00	0	31	0	296747008	76	4149
2026-01-03 06:58:17.59	75.89	16.39	-54.8	-56.4	14.7	0.00e+00	0	30	0	297795584	76	4159
2026-01-03 06:58:18.87	75.70	16.50	-54.7	-56.3	14.7	0.00e+00	0	31	0	299892736	76	4133
2026-01-03 06:58:19.60	75.60	16.56	-54.6	-56.2	14.7	0.00e+00	0	30	0	301989888	75	4310
2026-01-03 06:58:20.89	75.41	16.67	-54.5	-56.1	14.7	0.00e+00	0	30	0	304087040	75	4282
2026-01-03 06:58:21.60	75.31	16.74	-54.6	-56.2	14.7	0.00e+00	0	31	0	305135616	75	4306
2026-01-03 06:58:22.88	75.12	16.85	-54.6	-56.1	14.7	0.00e+00	0	30	0	308281344	75	4286
2026-01-03 06:58:23.60	75.01	16.91	-54.4	-55.9	14.8	0.00e+00	0	30	0	309329920	75	4178
2026-01-03 06:58:24.88	74.82	17.02	-54.4	-56.0	14.8	0.00e+00	0	31	0	311427072	75	4198
2026-01-03 06:58:25.63	74.71	17.09	-54.4	-55.9	14.9	0.00e+00	0	31	0	313524224	75	4155
2026-01-03 06:58:26.92	74.52	17.20	-54.4	-55.9	14.9	0.00e+00	0	31	0	315621376	75	4153
2026-01-03 06:58:27.63	74.41	17.26	-54.4	-55.9	14.8	0.00e+00	0	31	0	316669952	75	4177
2026-01-03 06:58:28.94	74.21	17.38	-54.4	-55.9	14.8	0.00e+00	0	30	0	319815680	75	4183
2026-01-03 06:58:29.64	74.10	17.44	-54.4	-55.9	14.8	0.00e+00	0	31	0	320864256	75	4188
2026-01-03 06:58:30.99	73.90	17.56	-54.4	-55.9	14.8	0.00e+00	0	31	0	322961408	75	4188
2026-01-03 06:58:31.70	73.79	17.62	-54.4	-55.9	14.8	0.00e+00	0	31	0	324009984	75	4191
2026-01-03 06:58:32.98	73.59	17.73	-54.5	-56.0	14.8	0.00e+00	0	31	0	327155712	75	4232
2026-01-03 06:58:33.69	73.47	17.80	-54.3	-55.9	14.9	0.00e+00	0	31	0	328204288	75	4146
2026-01-03 06:58:35.00	73.27	17.91	-54.4	-56.0	14.8	0.00e+00	0	31	0	330301440	75	4198
2026-01-03 06:58:35.71	73.16	17.97	-54.4	-55.9	14.9	0.00e+00	0	30	0	332398592	75	4170
2026-01-03 06:58:36.99	72.95	18.09	-54.3	-55.8	14.9	0.00e+00	0	31	0	334495744	75	4135
2026-01-03 06:58:37.70	72.84	18.15	-54.3	-55.8	14.9	0.00e+00	0	31	0	335544320	75	4133
2026-01-03 06:58:39.01	72.63	18.27	-54.3	-55.8	14.9	0.00e+00	0	30	0	337641472	75	4131
2026-01-03 06:58:39.72	72.51	18.33	-54.4	-55.9	14.9	0.00e+00	0	31	0	339738624	75	4173
2026-01-03 06:58:41.03	72.30	18.45	-54.4	-55.9	14.8	0.00e+00	0	30	0	341835776	75	4187
2026-01-03 06:58:41.74	72.18	18.51	-54.5	-56.0	14.8	0.00e+00	0	31	0	342884352	75	4213
2026-01-03 06:58:43.03	71.97	18.62	-54.4	-56.0	14.8	0.00e+00	0	30	0	346030080	75	4200
2026-01-03 06:58:43.75	71.85	18.69	-54.5	-56.1	14.8	0.00e+00	0	31	0	347078656	75	4248
2026-01-03 06:58:45.03	71.63	18.80	-54.6	-56.1	14.7	0.00e+00	0	30	0	349175808	75	4281
2026-01-03 06:58:45.76	71.51	18.87	-54.6	-56.1	14.8	0.00e+00	0	31	0	351272960	75	4273
2026-01-03 06:58:47.05	71.29	18.98	-54.5	-56.1	14.8	0.00e+00	0	31	0	353370112	75	4251
2026-01-03 06:58:47.77	71.17	19.05	-54.6	-56.2	14.7	0.00e+00	0	30	0	354418688	75	4314
2026-01-03 06:58:49.05	70.95	19.16	-54.5	-56.1	14.8	0.00e+00	0	31	0	356515840	75	4266
2026-01-03 06:58:49.76	70.83	19.22	-54.6	-56.2	14.7	0.00e+00	0	31	0	358612992	75	4322
2026-01-03 06:58:51.05	70.60	19.34	-54.8	-56.4	14.6	0.00e+00	0	31	0	360710144	75	4428
2026-01-03 06:58:51.76	70.48	19.40	-54.8	-56.4	14.6	0.00e+00	0	31	0	361758720	75	4430
2026-01-03 06:58:53.07	70.25	19.52	-54.8	-56.4	14.6	0.00e+00	0	31	0	364904448	75	4437
2026-01-03 06:58:53.78	70.12	19.58	-54.9	-56.5	14.6	0.00e+00	0	31	0	365953024	75	4474
2026-01-03 06:58:55.06	69.90	19.70	-54.8	-56.4	14.6	0.00e+00	0	31	0	368050176	75	4402
2026-01-03 06:58:55.81	69.76	19.76	-54.8	-56.5	14.6	0.00e+00	0	31	0	370147328	75	4448
2026-01-03 06:58:57.09	69.53	19.88	-54.8	-56.5	14.6	0.00e+00	0	31	0	372244480	75	4465
2026-01-03 06:58:57.83	69.40	19.95	-54.9	-56.5	14.6	0.00e+00	0	31	0	373293056	75	4483
2026-01-03 06:58:59.11	69.17	20.06	-54.9	-56.6	14.5	0.00e+00	0	31	0	375390208	75	4523
2026-01-03 06:58:59.83	69.03	20.12	-54.9	-56.5	14.6	0.00e+00	0	30	0	377487360	75	4474
2026-01-03 06:59:01.12	68.80	20.24	-54.9	-56.5	14.6	0.00e+00	0	30	0	379584512	75	4479
2026-01-03 06:59:01.83	68.66	20.30	-54.8	-56.5	14.6	0.00e+00	0	30	0	380633088	75	4457
2026-01-03 06:59:03.13	68.42	20.42	-54.9	-56.5	14.6	0.00e+00	0	30	0	383778816	75	4465
2026-01-03 06:59:03.85	68.29	20.48	-54.9	-56.5	14.6	0.00e+00	0	31	0	384827392	75	4469
2026-01-03 06:59:05.13	68.05	20.60	-54.8	-56.4	14.6	0.00e+00	0	31	0	386924544	75	4427
2026-01-03 06:59:05.88	67.90	20.67	-54.7	-56.3	14.7	0.00e+00	0	31	0	389021696	75	4370
2026-01-03 06:59:07.17	67.66	20.78	-54.5	-56.0	14.8	0.00e+00	0	31	0	391118848	75	4216
2026-01-03 06:59:07.89	67.52	20.85	-54.6	-56.1	14.8	0.00e+00	0	31	0	392167424	75	4268
2026-01-03 06:59:09.18	67.27	20.96	-54.5	-56.0	14.9	0.00e+00	0	31	0	394264576	75	4216
2026-01-03 06:59:09.89	67.13	21.03	-54.6	-56.1	14.8	0.00e+00	0	31	0	396361728	75	4272
2026-01-03 06:59:11.18	66.88	21.14	-54.5	-56.0	14.8	0.00e+00	0	31	0	398458880	75	4213
2026-01-03 06:59:11.89	66.74	21.20	-54.5	-56.0	14.9	0.00e+00	0	31	0	399507456	75	4222
2026-01-03 06:59:13.17	66.49	21.32	-54.6	-56.1	14.8	0.00e+00	0	31	0	402653184	75	4281
2026-01-03 06:59:13.90	66.34	21.38	-54.5	-56.0	14.8	0.00e+00	0	31	0	403701760	75	4242
2026-01-03 06:59:15.18	66.09	21.50	-54.6	-56.1	14.8	0.00e+00	0	31	0	405798912	75	4269
2026-01-03 06:59:15.90	65.94	21.56	-54.4	-56.0	14.9	0.00e+00	0	31	0	406847488	75	4197
2026-01-03 06:59:17.18	65.68	21.68	-54.4	-55.9	14.9	0.00e+00	0	31	0	409993216	75	4185
2026-01-03 06:59:17.92	65.53	21.74	-54.4	-55.9	14.9	0.00e+00	0	31	0	411041792	75	4179
2026-01-03 06:59:19.21	65.27	21.86	-54.4	-55.9	14.9	0.00e+00	0	31	0	413138944	75	4163
2026-01-03 06:59:19.92	65.12	21.92	-54.3	-55.8	14.9	0.00e+00	0	31	0	415236096	75	4129
2026-01-03 06:59:21.22	64.85	22.04	-54.2	-55.6	15.0	0.00e+00	0	31	0	417333248	74	4252
2026-01-03 06:59:21.93	64.71	22.10	-54.2	-55.6	15.0	0.00e+00	0	31	0	418381824	74	4261
2026-01-03 06:59:23.26	64.43	22.22	-54.3	-55.7	14.9	0.00e+00	0	30	0	421527552	74	4335
2026-01-03 06:59:23.97	64.28	22.28	-54.3	-55.7	14.9	0.00e+00	0	31	0	422576128	74	4334
2026-01-03 06:59:25.26	64.00	22.39	-54.1	-55.5	15.0	0.00e+00	0	31	0	424673280	74	4241
2026-01-03 06:59:25.99	63.85	22.46	-54.1	-55.5	15.0	0.00e+00	0	31	0	426770432	74	4226
2026-01-03 06:59:27.27	63.57	22.57	-54.2	-55.6	15.0	0.00e+00	0	31	0	428867584	74	4258
2026-01-03 06:59:28.00	63.42	22.64	-54.0	-55.4	15.1	0.00e+00	0	31	0	429916160	74	4171
2026-01-03 06:59:29.28	63.14	22.75	-53.9	-55.3	15.1	0.00e+00	0	31	0	432013312	74	4111
2026-01-03 06:59:30.01	62.98	22.81	-53.9	-55.2	15.2	0.00e+00	0	31	0	434110464	74	4068
2026-01-03 06:59:31.28	62.70	22.92	-53.6	-54.9	15.2	0.00e+00	0	31	0	436207616	73	4158
2026-01-03 06:59:32.01	62.54	22.99	-53.6	-54.9	15.2	0.00e+00	0	31	0	437256192	73	4171
2026-01-03 06:59:33.30	62.25	23.10	-53.5	-54.7	15.3	0.00e+00	0	31	0	440401920	73	4079
2026-01-03 06:59:34.01	62.09	23.16	-53.5	-54.8	15.2	0.00e+00	0	31	0	441450496	73	4116
2026-01-03 06:59:35.30	61.80	23.27	-53.5	-54.8	15.2	0.00e+00	0	31	0	443547648	73	4120
2026-01-03 06:59:36.01	61.64	23.34	-53.6	-54.9	15.2	0.00e+00	0	31	0	444596224	73	4157
2026-01-03 06:59:37.30	61.35	23.45	-53.6	-54.9	15.1	0.00e+00	0	31	0	447741952	73	4172
2026-01-03 06:59:38.04	61.18	23.51	-53.6	-54.9	15.2	0.00e+00	0	31	0	448790528	73	4170
2026-01-03 06:59:39.31	60.89	23.62	-53.6	-54.9	15.2	0.00e+00	0	31	0	450887680	73	4183
2026-01-03 06:59:40.04	60.72	23.68	-53.6	-54.9	15.2	0.00e+00	0	31	0	452984832	73	4147
2026-01-03 06:59:41.32	60.43	23.79	-53.6	-54.9	15.2	0.00e+00	0	31	0	455081984	73	4166
2026-01-03 06:59:42.09	60.25	23.86	-53.6	-54.9	15.2	0.00e+00	0	31	0	456130560	73	4154
2026-01-03 06:59:43.37	59.95	23.97	-53.4	-54.6	15.3	0.00e+00	0	31	0	459276288	73	4036
2026-01-03 06:59:44.10	59.77	24.03	-53.4	-54.6	15.3	0.00e+00	0	31	0	460324864	73	4038
2026-01-03 06:59:45.39	59.47	24.14	-53.5	-54.7	15.2	0.00e+00	0	31	0	462422016	73	4083
2026-01-03 06:59:46.12	59.29	24.20	-53.5	-54.7	15.3	0.00e+00	0	31	0	463470592	73	4090
2026-01-03 06:59:47.40	58.99	24.31	-53.5	-54.8	15.2	0.00e+00	0	31	0	466616320	73	4114
2026-01-03 06:59:48.13	58.81	24.37	-53.5	-54.7	15.3	0.00e+00	0	30	0	467664896	73	4084
2026-01-03 06:59:49.41	58.50	24.48	-53.5	-54.7	15.3	0.00e+00	0	31	0	469762048	73	4085
2026-01-03 06:59:50.14	58.32	24.54	-53.6	-54.8	15.2	0.00e+00	0	31	0	471859200	73	4120
2026-01-03 06:59:51.43	58.01	24.64	-53.6	-54.9	15.2	0.00e+00	0	31	0	473956352	73	4155
2026-01-03 06:59:52.16	57.83	24.70	-53.7	-55.0	15.2	0.00e+00	0	31	0	475004928	73	4197
2026-01-03 06:59:53.44	57.51	24.81	-53.8	-55.1	15.1	0.00e+00	0	31	0	478150656	73	4269
2026-01-03 06:59:54.15	57.33	24.87	-53.8	-55.1	15.1	0.00e+00	0	31	0	479199232	73	4264
2026-01-03 06:59:55.43	57.01	24.97	-53.7	-55.0	15.2	0.00e+00	0	31	0	481296384	73	4235
2026-01-03 06:59:56.15	56.83	25.03	-53.8	-55.1	15.1	0.00e+00	0	31	0	482344960	73	4283
2026-01-03 06:59:57.43	56.51	25.13	-53.7	-55.0	15.1	0.00e+00	0	31	0	485490688	73	4239
2026-01-03 06:59:58.14	56.33	25.19	-53.7	-55.0	15.2	0.00e+00	0	31	0	486539264	73	4235
2026-01-03 06:59:59.43	56.00	25.29	-53.8	-55.1	15.1	0.00e+00	0	31	0	488636416	73	4264
2026-01-03 07:00:00.14	55.81	25.35	-53.8	-55.2	15.1	0.00e+00	0	31	0	490733568	73	4299
2026-01-03 07:00:01.42	55.48	25.45	-53.9	-55.2	15.1	0.00e+00	0	31	0	492830720	73	4319
2026-01-03 07:00:02.13	55.30	25.51	-54.0	-55.4	15.0	0.00e+00	0	31	0	493879296	73	4405
2026-01-03 07:00:03.43	54.96	25.61	-54.0	-55.4	15.0	0.00e+00	0	31	0	497025024	73	4397
2026-01-03 07:00:04.15	54.77	25.67	-54.0	-55.3	15.1	0.00e+00	0	31	0	498073600	73	4366
2026-01-03 07:00:05.43	54.43	25.77	-53.9	-55.2	15.1	0.00e+00	0	31	0	500170752	73	4321
2026-01-03 07:00:06.17	54.24	25.82	-53.8	-55.1	15.1	0.00e+00	0	30	0	501219328	73	4276
2026-01-03 07:00:07.45	53.90	25.92	-54.0	-55.3	15.0	0.00e+00	0	31	0	504365056	73	4364
2026-01-03 07:00:08.16	53.71	25.98	-54.1	-55.5	15.0	0.00e+00	0	31	0	505413632	73	4451
2026-01-03 07:00:09.46	53.36	26.07	-54.2	-55.6	14.9	0.00e+00	0	30	0	507510784	73	4512
2026-01-03 07:00:10.18	53.16	26.13	-54.2	-55.6	14.9	0.00e+00	0	31	0	508559360	73	4539
2026-01-03 07:00:11.47	52.81	26.23	-54.2	-55.6	14.9	0.00e+00	0	31	0	511705088	73	4532
2026-01-03 07:00:12.18	52.62	26.28	-54.1	-55.5	15.0	0.00e+00	0	31	0	512753664	73	4469
2026-01-03 07:00:13.47	52.27	26.37	-54.1	-55.5	15.0	0.00e+00	0	31	0	514850816	73	4483
2026-01-03 07:00:14.18	52.07	26.43	-54.2	-55.6	14.9	0.00e+00	0	31	0	516947968	73	4538
2026-01-03 07:00:15.48	51.71	26.52	-54.0	-55.3	15.0	0.00e+00	0	31	0	519045120	73	4385
2026-01-03 07:00:16.20	51.51	26.57	-54.0	-55.3	15.0	0.00e+00	0	31	0	520093696	73	4389
2026-01-03 07:00:17.48	51.16	26.66	-54.0	-55.3	15.0	0.00e+00	0	30	0	523239424	73	4382
2026-01-03 07:00:18.21	50.95	26.72	-53.9	-55.3	15.0	0.00e+00	0	31	0	524288000	73	4344
2026-01-03 07:00:19.49	50.59	26.81	-53.7	-55.0	15.2	0.00e+00	0	31	0	526385152	73	4236
2026-01-03 07:00:20.21	50.39	26.86	-53.8	-55.1	15.1	0.00e+00	0	31	0	527433728	73	4255
2026-01-03 07:00:21.51	50.02	26.95	-53.7	-55.0	15.1	0.00e+00	0	31	0	530579456	73	4196
2026-01-03 07:00:22.22	49.82	27.00	-53.7	-54.9	15.2	0.00e+00	0	31	0	531628032	73	4188
2026-01-03 07:00:23.50	49.45	27.08	-53.9	-55.2	15.1	0.00e+00	0	31	0	533725184	73	4301
2026-01-03 07:00:24.23	49.24	27.13	-53.9	-55.2	15.1	0.00e+00	0	31	0	535822336	73	4301
2026-01-03 07:00:25.51	48.87	27.22	-54.0	-55.3	15.0	0.00e+00	0	31	0	537919488	73	4390
2026-01-03 07:00:26.23	48.66	27.26	-54.0	-55.3	15.0	0.00e+00	0	31	0	538968064	73	4388
2026-01-03 07:00:27.53	48.28	27.35	-54.0	-55.4	15.0	0.00e+00	0	31	0	542113792	73	4402
2026-01-03 07:00:28.25	48.07	27.40	-54.1	-55.4	15.0	0.00e+00	0	31	0	543162368	73	4435
2026-01-03 07:00:29.54	47.69	27.48	-54.1	-55.5	15.0	0.00e+00	0	31	0	545259520	73	4447
2026-01-03 07:00:30.25	47.48	27.52	-54.1	-55.5	15.0	0.00e+00	0	31	0	546308096	73	4475
2026-01-03 07:00:31.53	47.10	27.60	-54.0	-55.4	15.0	0.00e+00	0	30	0	549453824	73	4413
2026-01-03 07:00:32.25	46.89	27.65	-54.1	-55.4	15.0	0.00e+00	0	31	0	550502400	73	4426
2026-01-03 07:00:33.54	46.51	27.73	-54.2	-55.6	14.9	0.00e+00	0	31	0	552599552	73	4531
2026-01-03 07:00:34.25	46.29	27.77	-54.3	-55.8	14.9	0.00e+00	0	31	0	554696704	73	4600
2026-01-03 07:00:35.54	45.90	27.85	-54.5	-55.9	14.9	0.00e+00	0	31	0	556793856	74	4434
2026-01-03 07:00:36.27	45.68	27.89	-54.4	-55.8	14.9	0.00e+00	0	31	0	557842432	74	4376
2026-01-03 07:00:37.54	45.30	27.97	-54.4	-55.8	14.9	0.00e+00	0	31	0	559939584	74	4375
2026-01-03 07:00:38.28	45.07	28.01	-54.3	-55.7	15.0	0.00e+00	0	31	0	562036736	74	4320
2026-01-03 07:00:39.56	44.68	28.08	-54.3	-55.8	14.9	0.00e+00	0	31	0	564133888	74	4350
2026-01-03 07:00:40.28	44.46	28.12	-54.4	-55.9	14.9	0.00e+00	0	31	0	565182464	74	4409
2026-01-03 07:00:41.57	44.07	28.19	-54.5	-56.0	14.8	0.00e+00	0	31	0	568328192	74	4485
2026-01-03 07:00:42.28	43.85	28.23	-54.5	-56.0	14.8	0.00e+00	0	31	0	569376768	74	4465
2026-01-03 07:00:43.57	43.45	28.30	-54.4	-55.8	14.9	0.00e+00	0	31	0	571473920	74	4386
2026-01-03 07:00:44.29	43.23	28.34	-54.6	-56.2	14.8	0.00e+00	0	31	0	573571072	74	4546
2026-01-03 07:00:45.57	42.83	28.40	-54.8	-56.3	14.7	0.00e+00	0	31	0	575668224	74	4643
2026-01-03 07:00:46.31	42.60	28.44	-54.8	-56.3	14.7	0.00e+00	0	31	0	576716800	74	4639
2026-01-03 07:00:47.59	42.20	28.51	-54.9	-56.5	14.7	0.00e+00	0	31	0	578813952	75	4466
2026-01-03 07:00:48.34	41.96	28.54	-54.8	-56.4	14.7	0.00e+00	0	31	0	580911104	75	4425
2026-01-03 07:00:49.63	41.55	28.60	-54.7	-56.3	14.8	0.00e+00	0	31	0	583008256	75	4352
2026-01-03 07:00:50.35	41.32	28.64	-54.6	-56.1	14.8	0.00e+00	0	31	0	584056832	75	4286
2026-01-03 07:00:51.62	40.92	28.70	-54.7	-56.3	14.7	0.00e+00	0	31	0	587202560	75	4356
2026-01-03 07:00:52.38	40.68	28.73	-54.9	-56.5	14.7	0.00e+00	0	31	0	588251136	75	4462
2026-01-03 07:00:53.66	40.27	28.79	-54.9	-56.5	14.7	0.00e+00	0	30	0	590348288	75	4451
2026-01-03 07:00:54.38	40.04	28.82	-54.9	-56.5	14.7	0.00e+00	0	31	0	592445440	75	4491
2026-01-03 07:00:55.67	39.63	28.88	-54.9	-56.5	14.7	0.00e+00	0	30	0	594542592	75	4492
2026-01-03 07:00:56.39	39.40	28.91	-55.0	-56.6	14.7	0.00e+00	0	31	0	595591168	75	4517
2026-01-03 07:00:57.67	38.98	28.96	-55.1	-56.8	14.6	0.00e+00	0	30	0	597688320	75	4634
2026-01-03 07:00:58.42	38.74	28.99	-55.1	-56.7	14.6	0.00e+00	0	30	0	599785472	75	4597
2026-01-03 07:00:59.70	38.33	29.04	-55.2	-56.8	14.5	0.00e+00	0	31	0	601882624	75	4649
2026-01-03 07:01:00.41	38.09	29.06	-55.1	-56.8	14.6	0.00e+00	0	31	0	602931200	75	4608
2026-01-03 07:01:01.69	37.68	29.11	-55.2	-56.8	14.6	0.00e+00	0	31	0	606076928	75	4635
2026-01-03 07:01:02.42	37.44	29.14	-55.1	-56.7	14.6	0.00e+00	0	31	0	607125504	75	4591
2026-01-03 07:01:03.70	37.02	29.18	-54.9	-56.4	14.7	0.00e+00	0	31	0	609222656	75	4415
2026-01-03 07:01:04.41	36.79	29.21	-54.8	-56.3	14.7	0.00e+00	0	31	0	610271232	75	4390
2026-01-03 07:01:05.70	36.36	29.25	-54.9	-56.5	14.7	0.00e+00	0	31	0	613416960	75	4448
2026-01-03 07:01:06.42	36.13	29.27	-55.0	-56.6	14.7	0.00e+00	0	31	0	614465536	75	4513
2026-01-03 07:01:07.71	35.70	29.31	-55.2	-56.9	14.5	0.00e+00	0	31	0	616562688	75	4685
2026-01-03 07:01:08.42	35.47	29.33	-55.3	-57.0	14.5	0.00e+00	0	31	0	618659840	75	4724
2026-01-03 07:01:09.73	35.03	29.37	-55.2	-56.9	14.5	0.00e+00	0	31	0	620756992	75	4685
2026-01-03 07:01:10.44	34.80	29.39	-55.2	-56.9	14.5	0.00e+00	0	31	0	621805568	75	4661
2026-01-03 07:01:11.72	34.37	29.42	-55.4	-57.1	14.4	0.00e+00	0	30	0	624951296	75	4801
2026-01-03 07:01:12.43	34.14	29.44	-55.6	-57.4	14.4	0.00e+00	0	31	0	625999872	76	4667
2026-01-03 07:01:13.72	33.71	29.47	-55.8	-57.7	14.3	0.00e+00	0	31	0	628097024	76	4828
2026-01-03 07:01:14.43	33.47	29.49	-55.8	-57.7	14.2	0.00e+00	0	31	0	629145600	76	4830
2026-01-03 07:01:15.71	33.04	29.52	-55.7	-57.5	14.3	0.00e+00	0	31	0	632291328	76	4730
2026-01-03 07:01:16.46	32.79	29.54	-55.7	-57.5	14.3	0.00e+00	0	31	0	633339904	76	4753
2026-01-03 07:01:17.75	32.36	29.56	-55.8	-57.7	14.2	0.00e+00	0	31	0	635437056	76	4866
2026-01-03 07:01:18.46	32.12	29.58	-55.9	-57.9	14.2	0.00e+00	0	31	0	637534208	77	4660
2026-01-03 07:01:19.73	31.69	29.60	-56.0	-58.0	14.2	0.00e+00	0	31	0	639631360	77	4721
2026-01-03 07:01:20.48	31.44	29.61	-56.0	-57.9	14.2	0.00e+00	0	31	0	640679936	77	4697
2026-01-03 07:01:21.77	31.01	29.63	-55.8	-57.7	14.3	0.00e+00	0	31	0	643825664	77	4568
2026-01-03 07:01:22.48	30.77	29.64	-55.7	-57.5	14.4	0.00e+00	0	31	0	644874240	77	4457
2026-01-03 07:01:23.77	30.33	29.66	-55.8	-57.6	14.3	0.00e+00	0	31	0	646971392	77	4528
2026-01-03 07:01:24.48	30.09	29.67	-55.8	-57.7	14.3	0.00e+00	0	31	0	648019968	77	4581
2026-01-03 07:01:25.77	29.66	29.68	-55.9	-57.8	14.2	0.00e+00	0	31	0	651165696	77	4649
2026-01-03 07:01:26.49	29.41	29.69	-55.9	-57.8	14.3	0.00e+00	0	30	0	652214272	77	4602
2026-01-03 07:01:27.76	28.98	29.70	-55.6	-57.4	14.4	0.00e+00	0	31	0	654311424	77	4421
2026-01-03 07:01:28.52	28.73	29.71	-55.6	-57.4	14.5	0.00e+00	0	31	0	656408576	77	4412
2026-01-03 07:01:29.80	28.29	29.72	-55.8	-57.7	14.3	0.00e+00	0	31	0	658505728	77	4569
2026-01-03 07:01:30.53	28.05	29.72	-55.9	-57.9	14.2	0.00e+00	0	31	0	659554304	77	4655
2026-01-03 07:01:31.81	27.61	29.73	-56.2	-58.2	14.0	0.00e+00	0	31	0	661651456	77	4826
2026-01-03 07:01:32.52	27.37	29.73	-56.2	-58.2	14.0	0.00e+00	0	31	0	663748608	77	4818
2026-01-03 07:01:33.81	26.94	29.73	-56.0	-58.0	14.1	0.00e+00	0	31	0	665845760	77	4729
2026-01-03 07:01:34.52	26.69	29.73	-55.9	-57.7	14.3	0.00e+00	0	31	0	666894336	77	4591
2026-01-03 07:01:35.81	26.26	29.73	-55.8	-57.6	14.3	0.00e+00	0	30	0	670040064	77	4531
2026-01-03 07:01:36.52	26.02	29.73	-55.8	-57.6	14.3	0.00e+00	0	31	0	671088640	77	4536
2026-01-03 07:01:37.82	25.58	29.73	-55.8	-57.7	14.3	0.00e+00	0	31	0	673185792	77	4549
2026-01-03 07:01:38.53	25.34	29.73	-55.8	-57.6	14.3	0.00e+00	0	31	0	675282944	77	4541
2026-01-03 07:01:39.82	24.90	29.72	-55.6	-57.4	14.4	0.00e+00	0	31	0	677380096	77	4419
2026-01-03 07:01:40.54	24.65	29.72	-55.6	-57.4	14.5	0.00e+00	0	31	0	678428672	77	4413
2026-01-03 07:01:41.82	24.22	29.71	-55.4	-57.1	14.6	0.00e+00	0	31	0	680525824	77	4283
2026-01-03 07:01:42.53	23.98	29.70	-55.4	-57.0	14.6	0.00e+00	0	31	0	682622976	77	4242
2026-01-03 07:01:43.82	23.54	29.69	-55.4	-57.1	14.6	0.00e+00	0	31	0	684720128	77	4261
2026-01-03 07:01:44.53	23.30	29.68	-55.5	-57.3	14.5	0.00e+00	0	31	0	685768704	77	4354
2026-01-03 07:01:45.81	22.87	29.67	-55.6	-57.4	14.5	0.00e+00	0	31	0	688914432	77	4410
2026-01-03 07:01:46.52	22.63	29.66	-55.6	-57.4	14.5	0.00e+00	0	31	0	689963008	77	4405
2026-01-03 07:01:47.81	22.20	29.64	-55.1	-56.6	14.8	0.00e+00	0	31	0	692060160	76	4282
2026-01-03 07:01:48.52	21.96	29.63	-54.8	-56.3	14.9	0.00e+00	0	31	0	693108736	76	4129
2026-01-03 07:01:49.83	21.52	29.61	-54.9	-56.4	14.8	0.00e+00	0	31	0	696254464	76	4186
2026-01-03 07:01:50.54	21.28	29.60	-55.0	-56.6	14.8	0.00e+00	0	31	0	697303040	76	4271
2026-01-03 07:01:51.84	20.84	29.58	-55.1	-56.7	14.7	0.00e+00	0	31	0	699400192	76	4313
2026-01-03 07:01:52.55	20.60	29.57	-55.1	-56.7	14.7	0.00e+00	0	31	0	701497344	76	4329
2026-01-03 07:01:53.84	20.17	29.54	-55.1	-56.6	14.7	0.00e+00	0	31	0	703594496	76	4290
2026-01-03 07:01:54.54	19.94	29.53	-55.0	-56.6	14.8	0.00e+00	0	31	0	704643072	76	4255
2026-01-03 07:01:55.86	19.50	29.50	-55.1	-56.7	14.7	0.00e+00	0	31	0	706740224	76	4325
2026-01-03 07:01:56.58	19.26	29.48	-55.1	-56.7	14.7	0.00e+00	0	31	0	708837376	76	4312
2026-01-03 07:01:57.89	18.82	29.45	-55.1	-56.7	14.6	0.00e+00	0	31	0	710934528	76	4303
2026-01-03 07:01:58.60	18.58	29.43	-55.0	-56.6	14.8	0.00e+00	0	31	0	711983104	76	4251
2026-01-03 07:01:59.87	18.16	29.40	-54.8	-56.2	14.9	0.00e+00	0	31	0	715128832	76	4094
2026-01-03 07:02:00.62	17.91	29.38	-54.8	-56.3	14.9	0.00e+00	0	31	0	716177408	76	4119
2026-01-03 07:02:01.91	17.49	29.34	-54.6	-56.1	14.9	0.00e+00	0	31	0	718274560	75	4250
2026-01-03 07:02:02.62	17.25	29.32	-54.6	-56.1	14.9	0.00e+00	0	31	0	720371712	75	4254
2026-01-03 07:02:03.91	16.83	29.28	-54.7	-56.2	14.9	0.00e+00	0	30	0	722468864	75	4294
2026-01-03 07:02:04.62	16.59	29.26	-54.7	-56.3	14.8	0.00e+00	0	31	0	723517440	75	4344
2026-01-03 07:02:05.92	16.16	29.21	-54.9	-56.4	14.7	0.00e+00	0	31	0	725614592	75	4439
2026-01-03 07:02:06.64	15.93	29.19	-55.0	-56.5	14.7	0.00e+00	0	31	0	727711744	75	4485
2026-01-03 07:02:07.93	15.51	29.14	-54.9	-56.4	14.8	0.00e+00	0	31	0	729808896	75	4423
2026-01-03 07:02:08.65	15.27	29.12	-54.8	-56.3	14.8	0.00e+00	0	31	0	730857472	75	4373
2026-01-03 07:02:09.93	14.86	29.07	-54.4	-55.8	15.0	0.00e+00	0	31	0	734003200	75	4126
2026-01-03 07:02:10.64	14.62	29.04	-54.3	-55.7	15.0	0.00e+00	0	31	0	735051776	75	4092
2026-01-03 07:02:11.93	14.21	28.99	-54.5	-55.9	15.0	0.00e+00	0	31	0	737148928	75	4184
2026-01-03 07:02:12.65	13.97	28.97	-54.6	-56.1	14.9	0.00e+00	0	31	0	739246080	75	4245
2026-01-03 07:02:13.94	13.56	28.91	-54.6	-56.1	14.9	0.00e+00	0	31	0	741343232	75	4276
2026-01-03 07:02:14.65	13.33	28.88	-54.7	-56.2	14.8	0.00e+00	0	31	0	742391808	75	4338
2026-01-03 07:02:15.93	12.92	28.83	-54.7	-56.2	14.8	0.00e+00	0	31	0	744488960	75	4338
2026-01-03 07:02:16.66	12.69	28.80	-54.8	-56.4	14.8	0.00e+00	0	31	0	746586112	75	4393
2026-01-03 07:02:17.95	12.27	28.74	-54.9	-56.5	14.7	0.00e+00	0	31	0	748683264	75	4471
2026-01-03 07:02:18.66	12.05	28.71	-54.9	-56.5	14.7	0.00e+00	0	31	0	749731840	75	4473
2026-01-03 07:02:19.94	11.64	28.65	-55.2	-56.8	14.6	0.00e+00	0	31	0	752877568	75	4629
2026-01-03 07:02:20.66	11.41	28.62	-55.2	-56.8	14.6	0.00e+00	0	31	0	753926144	75	4649
2026-01-03 07:02:21.93	11.01	28.55	-55.3	-57.0	14.5	0.00e+00	0	31	0	756023296	75	4750
2026-01-03 07:02:22.67	10.78	28.52	-55.4	-57.1	14.4	0.00e+00	0	31	0	757071872	75	4778
2026-01-03 07:02:23.96	10.38	28.45	-55.6	-57.4	14.4	0.00e+00	0	31	0	760217600	76	4662
2026-01-03 07:02:24.67	10.16	28.42	-55.5	-57.2	14.5	0.00e+00	0	31	0	761266176	76	4578
2026-01-03 07:02:25.96	9.75	28.35	-55.4	-57.1	14.5	0.00e+00	0	31	0	763363328	76	4538
2026-01-03 07:02:26.67	9.53	28.31	-55.3	-57.0	14.6	0.00e+00	0	31	0	765460480	76	4480
2026-01-03 07:02:27.97	9.13	28.25	-55.4	-57.1	14.5	0.00e+00	0	31	0	767557632	76	4516
2026-01-03 07:02:28.69	8.91	28.21	-55.4	-57.2	14.5	0.00e+00	0	31	0	768606208	76	4547
2026-01-03 07:02:29.97	8.52	28.14	-55.6	-57.4	14.4	0.00e+00	0	31	0	770703360	76	4687
2026-01-03 07:02:30.70	8.29	28.10	-55.6	-57.4	14.4	0.00e+00	0	31	0	772800512	76	4666
2026-01-03 07:02:31.98	7.90	28.02	-55.6	-57.4	14.3	0.00e+00	0	31	0	774897664	76	4698
2026-01-03 07:02:32.71	7.68	27.98	-55.7	-57.5	14.3	0.00e+00	0	31	0	775946240	76	4724
2026-01-03 07:02:33.98	7.30	27.91	-55.7	-57.5	14.3	0.00e+00	0	31	0	779091968	76	4727
2026-01-03 07:02:34.75	7.06	27.86	-55.8	-57.6	14.3	0.00e+00	0	31	0	780140544	76	4782
2026-01-03 07:02:36.03	6.68	27.79	-55.9	-57.9	14.2	0.00e+00	0	31	0	782237696	77	4654
2026-01-03 07:02:36.75	6.46	27.74	-55.9	-57.8	14.2	0.00e+00	0	31	0	784334848	77	4626
2026-01-03 07:02:38.03	6.08	27.67	-55.8	-57.6	14.3	0.00e+00	0	31	0	786432000	77	4540
2026-01-03 07:02:38.75	5.87	27.62	-55.9	-57.8	14.3	0.00e+00	0	31	0	787480576	77	4616
2026-01-03 07:02:40.03	5.49	27.54	-55.8	-57.6	14.3	0.00e+00	0	31	0	790626304	77	4517
2026-01-03 07:02:40.75	5.28	27.50	-55.8	-57.7	14.3	0.00e+00	0	31	0	791674880	77	4559
2026-01-03 07:02:42.03	4.90	27.41	-55.8	-57.7	14.3	0.00e+00	0	31	0	793772032	77	4582
2026-01-03 07:02:42.75	4.69	27.37	-55.7	-57.6	14.3	0.00e+00	0	31	0	794820608	77	4499
2026-01-03 07:02:44.04	4.31	27.28	-55.6	-57.3	14.5	0.00e+00	0	31	0	797966336	77	4387
2026-01-03 07:02:44.75	4.11	27.24	-55.7	-57.4	14.4	0.00e+00	0	31	0	799014912	77	4439
2026-01-03 07:02:46.04	3.74	27.15	-55.5	-57.2	14.5	0.00e+00	0	31	0	801112064	77	4339
2026-01-03 07:02:46.75	3.53	27.10	-55.5	-57.3	14.5	0.00e+00	0	31	0	803209216	77	4358
2026-01-03 07:02:48.03	3.17	27.02	-55.6	-57.3	14.5	0.00e+00	0	30	0	805306368	77	4375
2026-01-03 07:02:48.75	2.96	26.97	-55.6	-57.4	14.4	0.00e+00	0	31	0	806354944	77	4403
2026-01-03 07:02:50.04	2.59	26.88	-55.4	-57.1	14.6	0.00e+00	0	31	0	808452096	77	4267
2026-01-03 07:02:50.74	2.40	26.83	-55.4	-57.1	14.6	0.00e+00	0	31	0	810549248	77	4256
2026-01-03 07:02:52.03	2.03	26.74	-55.4	-57.1	14.5	0.00e+00	0	31	0	812646400	77	4274
2026-01-03 07:02:52.74	1.83	26.69	-55.6	-57.3	14.5	0.00e+00	0	31	0	813694976	77	4372
2026-01-03 07:02:54.03	1.47	26.60	-55.3	-57.0	14.6	0.00e+00	0	31	0	815792128	77	4221
2026-01-03 07:02:54.74	1.28	26.55	-55.3	-57.0	14.6	0.00e+00	0	31	0	817889280	77	4222
2026-01-03 07:02:56.03	0.92	26.45	-55.4	-57.1	14.6	0.00e+00	0	31	0	819986432	77	4255
2026-01-03 07:02:56.74	0.73	26.40	-55.2	-56.9	14.7	0.00e+00	0	30	0	821035008	77	4155
2026-01-03 07:02:58.03	0.37	26.31	-55.0	-56.5	14.8	0.00e+00	0	31	0	824180736	76	4227
2026-01-03 07:02:58.75	0.18	26.25	-55.0	-56.5	14.8	0.00e+00	0	31	0	825229312	76	4218
2026-01-03 07:03:00.03	359.83	26.16	-55.0	-56.5	14.8	0.00e+00	0	31	0	827326464	76	4229
2026-01-03 07:03:00.75	359.64	26.10	-54.9	-56.5	14.8	0.00e+00	0	31	0	829423616	76	4199
2026-01-03 07:03:02.04	359.29	26.01	-55.0	-56.6	14.7	0.00e+00	0	30	0	831520768	76	4271
2026-01-03 07:03:02.76	359.10	25.95	-55.0	-56.6	14.8	0.00e+00	0	31	0	832569344	76	4259
2026-01-03 07:03:04.05	358.75	25.85	-54.9	-56.4	14.9	0.00e+00	0	31	0	834666496	76	4185
2026-01-03 07:03:04.76	358.57	25.80	-54.9	-56.4	14.8	0.00e+00	0	31	0	836763648	76	4160
2026-01-03 07:03:06.06	358.22	25.70	-54.8	-56.3	14.9	0.00e+00	0	31	0	838860800	76	4112
2026-01-03 07:03:06.77	358.04	25.64	-54.7	-56.2	14.9	0.00e+00	0	31	0	839909376	76	4086
2026-01-03 07:03:08.06	357.70	25.54	-54.6	-56.1	14.9	0.00e+00	0	31	0	843055104	75	4273
2026-01-03 07:03:08.78	357.51	25.48	-54.5	-56.0	14.9	0.00e+00	0	31	0	844103680	75	4219
2026-01-03 07:03:10.06	357.18	25.38	-54.6	-56.1	14.9	0.00e+00	0	31	0	846200832	75	4261
2026-01-03 07:03:10.78	357.00	25.33	-54.5	-55.9	15.0	0.00e+00	0	31	0	847249408	75	4176
2026-01-03 07:03:12.07	356.67	25.22	-54.5	-56.0	14.9	0.00e+00	0	31	0	850395136	75	4211
2026-01-03 07:03:12.78	356.49	25.17	-54.5	-56.0	14.9	0.00e+00	0	31	0	851443712	75	4203
2026-01-03 07:03:14.07	356.16	25.06	-54.5	-55.9	15.0	0.00e+00	0	31	0	853540864	75	4164
2026-01-03 07:03:14.78	355.98	25.00	-54.5	-56.0	15.0	0.00e+00	0	31	0	855638016	75	4200
2026-01-03 07:03:16.06	355.66	24.90	-54.4	-55.8	15.0	0.00e+00	0	31	0	857735168	75	4102
2026-01-03 07:03:16.78	355.48	24.84	-54.2	-55.5	15.0	0.00e+00	0	31	0	858783744	74	4227
2026-01-03 07:03:18.06	355.17	24.74	-54.1	-55.4	15.1	0.00e+00	0	31	0	860880896	74	4166
2026-01-03 07:03:18.79	354.99	24.68	-54.1	-55.4	15.1	0.00e+00	0	30	0	862978048	74	4162
2026-01-03 07:03:20.07	354.67	24.57	-54.0	-55.3	15.1	0.00e+00	0	31	0	865075200	74	4119
2026-01-03 07:03:20.81	354.49	24.51	-53.9	-55.2	15.2	0.00e+00	0	31	0	866123776	74	4067
2026-01-03 07:03:22.10	354.18	24.40	-53.8	-55.1	15.3	0.00e+00	0	31	0	869269504	74	4010
2026-01-03 07:03:22.82	354.01	24.34	-53.8	-55.0	15.3	0.00e+00	0	31	0	870318080	74	3994
2026-01-03 07:03:24.11	353.70	24.23	-53.8	-55.1	15.2	0.00e+00	0	31	0	872415232	74	4008
2026-01-03 07:03:24.82	353.53	24.17	-53.8	-55.0	15.2	0.00e+00	0	31	0	874512384	74	3999
2026-01-03 07:03:26.10	353.22	24.06	-53.7	-54.9	15.2	0.00e+00	0	31	0	876609536	73	4186
2026-01-03 07:03:26.81	353.06	24.00	-53.6	-54.8	15.3	0.00e+00	0	31	0	877658112	73	4118
2026-01-03 07:03:28.09	352.76	23.90	-53.5	-54.7	15.3	0.00e+00	0	31	0	879755264	73	4075
2026-01-03 07:03:28.83	352.58	23.83	-53.4	-54.6	15.3	0.00e+00	0	30	0	881852416	73	4042
2026-01-03 07:03:30.12	352.28	23.72	-53.3	-54.4	15.4	0.00e+00	0	31	0	883949568	73	3948
2026-01-03 07:03:30.83	352.12	23.66	-53.3	-54.4	15.4	0.00e+00	0	31	0	884998144	73	3958
2026-01-03 07:03:32.15	351.82	23.55	-53.2	-54.3	15.4	0.00e+00	0	31	0	888143872	73	3910
2026-01-03 07:03:32.86	351.66	23.49	-53.1	-54.3	15.4	0.00e+00	0	31	0	889192448	72	4107
2026-01-03 07:03:34.17	351.36	23.37	-53.1	-54.2	15.4	0.00e+00	0	31	0	891289600	72	4095
2026-01-03 07:03:34.88	351.20	23.31	-52.9	-54.0	15.5	0.00e+00	0	31	0	893386752	72	4000
2026-01-03 07:03:36.21	350.90	23.20	-52.9	-54.0	15.5	0.00e+00	0	31	0	895483904	72	3968
2026-01-03 07:03:36.93	350.74	23.14	-52.9	-54.0	15.5	0.00e+00	0	30	0	896532480	72	3991
2026-01-03 07:03:38.21	350.45	23.02	-52.9	-54.0	15.5	0.00e+00	0	31	0	899678208	72	4003
2026-01-03 07:03:38.97	350.29	22.96	-52.9	-54.0	15.5	0.00e+00	0	31	0	900726784	72	3981
2026-01-03 07:03:40.25	350.01	22.85	-52.8	-53.9	15.5	0.00e+00	0	31	0	902823936	72	3930
2026-01-03 07:03:40.98	349.85	22.78	-52.8	-53.9	15.5	0.00e+00	0	31	0	904921088	72	3950
2026-01-03 07:03:42.26	349.57	22.67	-52.6	-53.7	15.5	0.00e+00	0	31	0	907018240	71	4074
2026-01-03 07:03:43.04	349.40	22.60	-52.5	-53.6	15.6	0.00e+00	0	31	0	908066816	71	4007
2026-01-03 07:03:44.28	349.14	22.49	-52.5	-53.5	15.6	0.00e+00	0	31	0	910163968	71	3982
2026-01-03 07:03:45.08	348.97	22.42	-52.4	-53.4	15.6	0.00e+00	0	30	0	912261120	71	3942
2026-01-03 07:03:46.24	348.72	22.32	-52.3	-53.3	15.6	0.00e+00	0	31	0	914358272	71	3905
2026-01-03 07:03:47.09	348.54	22.24	-52.2	-53.2	15.7	0.00e+00	0	30	0	915406848	71	3854
2026-01-03 07:03:48.22	348.30	22.14	-52.2	-53.2	15.6	0.00e+00	0	31	0	917504000	70	4097
2026-01-03 07:03:49.07	348.13	22.07	-52.2	-53.2	15.6	0.00e+00	0	31	0	919601152	70	4096
2026-01-03 07:03:50.22	347.89	21.97	-52.1	-53.1	15.6	0.00e+00	0	31	0	921698304	70	4043
2026-01-03 07:03:51.07	347.71	21.89	-52.3	-53.3	15.6	0.00e+00	0	31	0	922746880	70	4112
2026-01-03 07:03:52.22	347.48	21.79	-52.3	-53.3	15.6	0.00e+00	0	31	0	925892608	70	4137
2026-01-03 07:03:53.08	347.30	21.71	-52.2	-53.2	15.6	0.00e+00	0	31	0	926941184	70	4097
2026-01-03 07:03:54.22	347.07	21.61	-52.2	-53.2	15.6	0.00e+00	0	31	0	929038336	70	4073
2026-01-03 07:03:55.07	346.90	21.54	-52.2	-53.2	15.6	0.00e+00	0	31	0	931135488	70	4061
2026-01-03 07:03:56.22	346.67	21.43	-52.2	-53.2	15.6	0.00e+00	0	31	0	933232640	70	4079
2026-01-03 07:03:57.07	346.50	21.36	-52.2	-53.2	15.6	0.00e+00	0	31	0	934281216	70	4096
2026-01-03 07:03:58.21	346.28	21.26	-52.2	-53.2	15.6	0.00e+00	0	31	0	936378368	70	4075
2026-01-03 07:03:59.07	346.11	21.18	-52.3	-53.3	15.6	0.00e+00	0	31	0	938475520	70	4104
2026-01-03 07:04:00.21	345.89	21.08	-52.4	-53.4	15.5	0.00e+00	0	31	0	940572672	70	4187
2026-01-03 07:04:01.08	345.72	21.00	-52.4	-53.4	15.6	0.00e+00	0	31	0	941621248	70	4165
2026-01-03 07:04:02.21	345.50	20.90	-52.4	-53.4	15.5	0.00e+00	0	31	0	943718400	70	4178
2026-01-03 07:04:03.07	345.33	20.82	-52.3	-53.4	15.5	0.00e+00	0	31	0	945815552	70	4159
2026-01-03 07:04:04.21	345.12	20.72	-52.4	-53.4	15.5	0.00e+00	0	31	0	947912704	70	4169
2026-01-03 07:04:05.07	344.95	20.64	-52.4	-53.5	15.5	0.00e+00	0	31	0	950009856	70	4213
2026-01-03 07:04:06.21	344.74	20.54	-52.5	-53.5	15.5	0.00e+00	0	31	0	952107008	70	4234
2026-01-03 07:04:07.06	344.58	20.47	-52.4	-53.4	15.5	0.00e+00	0	31	0	953155584	70	4189
2026-01-03 07:04:08.20	344.37	20.36	-52.4	-53.4	15.5	0.00e+00	0	31	0	955252736	70	4184
2026-01-03 07:04:09.05	344.21	20.29	-52.5	-53.6	15.5	0.00e+00	0	30	0	957349888	70	4250
2026-01-03 07:04:10.20	344.00	20.18	-52.6	-53.7	15.5	0.00e+00	0	31	0	959447040	70	4292
2026-01-03 07:04:11.05	343.84	20.11	-52.7	-53.7	15.4	0.00e+00	0	30	0	960495616	70	4339
2026-01-03 07:04:12.19	343.64	20.01	-52.8	-53.9	15.4	0.00e+00	0	31	0	962592768	70	4403
2026-01-03 07:04:13.04	343.48	19.93	-52.8	-54.0	15.4	0.00e+00	0	31	0	964689920	70	4443
2026-01-03 07:04:14.18	343.28	19.83	-52.7	-53.8	15.4	0.00e+00	0	31	0	966787072	70	4391
2026-01-03 07:04:15.04	343.12	19.75	-52.8	-53.9	15.4	0.00e+00	0	31	0	967835648	70	4413
2026-01-03 07:04:16.18	342.92	19.65	-52.8	-54.0	15.3	0.00e+00	0	31	0	969932800	70	4443
2026-01-03 07:04:17.04	342.77	19.57	-52.8	-53.9	15.4	0.00e+00	0	31	0	972029952	70	4429
2026-01-03 07:04:18.18	342.57	19.47	-52.9	-54.0	15.4	0.00e+00	0	31	0	974127104	71	4232
2026-01-03 07:04:19.03	342.42	19.40	-53.0	-54.1	15.4	0.00e+00	0	31	0	976224256	71	4270
2026-01-03 07:04:20.17	342.22	19.29	-53.2	-54.4	15.3	0.00e+00	0	31	0	978321408	71	4401
2026-01-03 07:04:21.03	342.07	19.22	-53.2	-54.4	15.3	0.00e+00	0	30	0	979369984	71	4415
2026-01-03 07:04:22.16	341.88	19.12	-53.4	-54.6	15.2	0.00e+00	0	30	0	981467136	71	4516
2026-01-03 07:04:23.02	341.73	19.04	-53.5	-54.7	15.2	0.00e+00	0	31	0	983564288	72	4318
2026-01-03 07:04:24.17	341.54	18.94	-53.5	-54.8	15.2	0.00e+00	0	31	0	985661440	72	4358
2026-01-03 07:04:25.02	341.40	18.86	-53.6	-54.8	15.2	0.00e+00	0	31	0	986710016	72	4383
2026-01-03 07:04:26.16	341.20	18.76	-53.6	-54.9	15.1	0.00e+00	0	31	0	988807168	72	4418
2026-01-03 07:04:27.00	341.06	18.69	-53.7	-55.0	15.1	0.00e+00	0	31	0	990904320	72	4461
2026-01-03 07:04:28.14	340.88	18.59	-53.6	-54.9	15.1	0.00e+00	0	31	0	993001472	72	4404
2026-01-03 07:04:29.00	340.73	18.51	-53.6	-54.9	15.1	0.00e+00	0	30	0	994050048	72	4410
2026-01-03 07:04:30.13	340.55	18.41	-53.6	-54.9	15.1	0.00e+00	0	30	0	996147200	72	4416
2026-01-03 07:04:30.99	340.41	18.33	-53.6	-54.9	15.1	0.00e+00	0	31	0	998244352	72	4421
2026-01-03 07:04:32.13	340.23	18.23	-53.7	-55.0	15.1	0.00e+00	0	30	0	1000341504	72	4493
2026-01-03 07:04:32.99	340.09	18.16	-53.7	-55.0	15.1	0.00e+00	0	31	0	1002438656	72	4460
2026-01-03 07:04:34.14	339.90	18.05	-53.6	-55.0	15.1	0.00e+00	0	31	0	1004535808	72	4442
2026-01-03 07:04:34.99	339.77	17.98	-53.7	-55.1	15.1	0.00e+00	0	31	0	1005584384	72	4497
2026-01-03 07:04:36.13	339.59	17.88	-53.8	-55.1	15.1	0.00e+00	0	31	0	1007681536	72	4520
2026-01-03 07:04:36.99	339.45	17.80	-53.8	-55.2	15.0	0.00e+00	0	31	0	1009778688	72	4547
2026-01-03 07:04:38.13	339.28	17.70	-53.8	-55.1	15.1	0.00e+00	0	31	0	1011875840	72	4510
2026-01-03 07:04:38.98	339.14	17.63	-53.8	-55.1	15.0	0.00e+00	0	31	0	1012924416	72	4545
2026-01-03 07:04:40.12	338.97	17.53	-53.8	-55.1	15.0	0.00e+00	0	31	0	1015021568	72	4544
2026-01-03 07:04:40.98	338.84	17.45	-53.8	-55.1	15.1	0.00e+00	0	31	0	1017118720	72	4516
2026-01-03 07:04:42.12	338.66	17.35	-53.8	-55.1	15.0	0.00e+00	0	31	0	1019215872	72	4543
2026-01-03 07:04:42.98	338.53	17.28	-53.8	-55.2	15.0	0.00e+00	0	31	0	1020264448	72	4561
2026-01-03 07:04:44.11	338.36	17.18	-53.9	-55.3	15.0	0.00e+00	0	31	0	1022361600	73	4362
2026-01-03 07:04:44.97	338.23	17.10	-54.0	-55.4	15.0	0.00e+00	0	31	0	1024458752	73	4393
2026-01-03 07:04:46.11	338.07	17.00	-54.0	-55.4	15.0	0.00e+00	0	31	0	1026555904	73	4422
2026-01-03 07:04:46.97	337.94	16.93	-54.0	-55.4	15.0	0.00e+00	0	31	0	1027604480	73	4404
2026-01-03 07:04:48.11	337.77	16.83	-53.9	-55.3	15.0	0.00e+00	0	31	0	1030750208	73	4383
2026-01-03 07:04:48.97	337.64	16.76	-54.1	-55.5	14.9	0.00e+00	0	31	0	1031798784	73	4454
2026-01-03 07:04:50.11	337.48	16.66	-54.0	-55.4	15.0	0.00e+00	0	31	0	1033895936	73	4424
2026-01-03 07:04:50.96	337.36	16.58	-54.0	-55.4	15.0	0.00e+00	0	31	0	1035993088	73	4415
2026-01-03 07:04:52.10	337.19	16.48	-53.9	-55.3	15.0	0.00e+00	0	31	0	1038090240	73	4370
2026-01-03 07:04:52.96	337.07	16.41	-53.9	-55.3	15.0	0.00e+00	0	31	0	1039138816	73	4367
2026-01-03 07:04:54.10	336.91	16.31	-54.0	-55.3	15.0	0.00e+00	0	31	0	1041235968	73	4380
2026-01-03 07:04:54.96	336.79	16.24	-54.0	-55.4	15.0	0.00e+00	0	31	0	1043333120	73	4401
2026-01-03 07:04:56.09	336.63	16.14	-54.1	-55.6	14.9	0.00e+00	0	31	0	1045430272	73	4504
2026-01-03 07:04:56.95	336.51	16.07	-54.1	-55.6	14.9	0.00e+00	0	31	0	1046478848	73	4494
2026-01-03 07:04:58.08	336.35	15.97	-54.3	-55.8	14.8	0.00e+00	0	31	0	1048576000	73	4622
2026-01-03 07:04:58.93	336.23	15.90	-54.3	-55.9	14.8	0.00e+00	0	31	0	1050673152	73	4653
2026-01-03 07:05:00.07	336.08	15.80	-54.3	-55.8	14.9	0.00e+00	0	31	0	1052770304	74	4366
2026-01-03 07:05:00.92	335.96	15.73	-54.4	-55.9	14.8	0.00e+00	0	31	0	1053818880	74	4396
2026-01-03 07:05:02.06	335.81	15.63	-54.4	-55.9	14.8	0.00e+00	0	31	0	1055916032	74	4404
2026-01-03 07:05:02.91	335.69	15.56	-54.3	-55.8	14.8	0.00e+00	0	31	0	1058013184	74	4384
2026-01-03 07:05:04.04	335.54	15.46	-54.3	-55.8	14.9	0.00e+00	0	31	0	1060110336	74	4369
2026-01-03 07:05:04.89	335.43	15.39	-54.4	-55.9	14.8	0.00e+00	0	31	0	1062207488	74	4392
2026-01-03 07:05:06.02	335.28	15.29	-54.3	-55.8	14.8	0.00e+00	0	31	0	1064304640	74	4379
2026-01-03 07:05:06.88	335.17	15.22	-54.3	-55.8	14.9	0.00e+00	0	31	0	1065353216	74	4372
2026-01-03 07:05:08.02	335.02	15.13	-54.4	-55.9	14.8	0.00e+00	0	31	0	1067450368	74	4418
2026-01-03 07:05:08.87	334.91	15.05	-54.4	-56.0	14.8	0.00e+00	0	31	0	1069547520	74	4446
2026-01-03 07:05:10.02	334.76	14.96	-54.4	-55.9	14.8	0.00e+00	0	31	0	1071644672	74	4427
2026-01-03 07:05:10.88	334.65	14.89	-54.5	-56.0	14.8	0.00e+00	0	31	0	1072693248	74	4482
2026-01-03 07:05:12.02	334.50	14.79	-54.5	-56.0	14.7	0.00e+00	0	31	0	1074790400	74	4491
2026-01-03 07:05:12.88	334.39	14.72	-54.6	-56.2	14.7	0.00e+00	0	31	0	1076887552	74	4546
2026-01-03 07:05:14.02	334.25	14.62	-54.7	-56.3	14.6	0.00e+00	0	31	0	1078984704	74	4615
2026-01-03 07:05:14.88	334.14	14.55	-54.7	-56.3	14.6	0.00e+00	0	31	0	1080033280	74	4631
2026-01-03 07:05:16.02	334.00	14.46	-54.7	-56.3	14.6	0.00e+00	0	31	0	1082130432	74	4649
2026-01-03 07:05:16.88	333.89	14.38	-54.7	-56.3	14.6	0.00e+00	0	31	0	1084227584	74	4648
2026-01-03 07:05:18.01	333.75	14.29	-54.8	-56.5	14.5	0.00e+00	0	31	0	1086324736	74	4737
2026-01-03 07:05:18.87	333.65	14.22	-54.8	-56.4	14.6	0.00e+00	0	31	0	1087373312	74	4686
2026-01-03 07:05:20.01	333.51	14.13	-54.8	-56.4	14.6	0.00e+00	0	31	0	1090519040	74	4678
2026-01-03 07:05:20.86	333.40	14.06	-54.8	-56.5	14.6	0.00e+00	0	31	0	1091567616	74	4709
2026-01-03 07:05:22.00	333.27	13.96	-54.7	-56.4	14.6	0.00e+00	0	31	0	1093664768	74	4662
2026-01-03 07:05:22.85	333.16	13.89	-54.8	-56.4	14.5	0.00e+00	0	31	0	1095761920	74	4701
2026-01-03 07:05:24.00	333.03	13.80	-54.7	-56.4	14.6	0.00e+00	0	31	0	1097859072	74	4652
2026-01-03 07:05:24.85	332.93	13.73	-54.8	-56.4	14.5	0.00e+00	0	31	0	1098907648	74	4701
2026-01-03 07:05:25.98	332.79	13.63	-54.8	-56.5	14.5	0.00e+00	0	31	0	1101004800	74	4732
2026-01-03 07:05:26.84	332.69	13.56	-54.8	-56.5	14.5	0.00e+00	0	31	0	1103101952	74	4736
2026-01-03 07:05:27.97	332.56	13.47	-54.9	-56.7	14.5	0.00e+00	0	31	0	1105199104	75	4549
2026-01-03 07:05:28.82	332.46	13.40	-54.9	-56.5	14.5	0.00e+00	0	31	0	1106247680	75	4488
2026-01-03 07:05:29.95	332.33	13.31	-54.9	-56.6	14.5	0.00e+00	0	31	0	1108344832	75	4526
2026-01-03 07:05:30.80	332.23	13.24	-54.9	-56.6	14.5	0.00e+00	0	31	0	1110441984	75	4521
2026-01-03 07:05:31.93	332.10	13.15	-54.9	-56.7	14.5	0.00e+00	0	31	0	1112539136	75	4555
2026-01-03 07:05:32.78	332.01	13.08	-54.9	-56.6	14.5	0.00e+00	0	30	0	1113587712	75	4500
2026-01-03 07:05:33.92	331.88	12.99	-54.9	-56.6	14.5	0.00e+00	0	31	0	1115684864	75	4512
2026-01-03 07:05:34.77	331.78	12.92	-55.0	-56.7	14.5	0.00e+00	0	31	0	1117782016	75	4589
2026-01-03 07:05:35.91	331.66	12.83	-54.9	-56.6	14.5	0.00e+00	0	31	0	1119879168	75	4524
2026-01-03 07:05:36.76	331.56	12.76	-55.0	-56.7	14.4	0.00e+00	0	31	0	1120927744	75	4594
2026-01-03 07:05:37.89	331.44	12.67	-54.9	-56.6	14.5	0.00e+00	0	31	0	1124073472	75	4542
2026-01-03 07:05:38.75	331.34	12.60	-54.9	-56.7	14.5	0.00e+00	0	31	0	1125122048	75	4557
2026-01-03 07:05:39.89	331.22	12.51	-55.0	-56.8	14.4	0.00e+00	0	31	0	1127219200	75	4600
2026-01-03 07:05:40.74	331.13	12.45	-55.1	-56.9	14.4	0.00e+00	0	31	0	1129316352	75	4691
2026-01-03 07:05:41.88	331.00	12.36	-55.1	-57.0	14.3	0.00e+00	0	31	0	1131413504	75	4716
2026-01-03 07:05:42.73	330.91	12.29	-55.2	-57.0	14.3	0.00e+00	0	31	0	1132462080	75	4758
2026-01-03 07:05:43.87	330.79	12.20	-55.2	-57.1	14.3	0.00e+00	0	30	0	1134559232	75	4764
2026-01-03 07:05:44.72	330.70	12.13	-55.2	-57.1	14.3	0.00e+00	0	31	0	1136656384	75	4769
2026-01-03 07:05:45.85	330.58	12.04	-55.3	-57.1	14.2	0.00e+00	0	31	0	1138753536	75	4802
2026-01-03 07:05:46.70	330.49	11.98	-55.2	-57.1	14.2	0.00e+00	0	31	0	1139802112	75	4791
2026-01-03 07:05:47.84	330.37	11.89	-55.3	-57.1	14.2	0.00e+00	0	31	0	1141899264	75	4812
2026-01-03 07:05:48.70	330.28	11.82	-55.3	-57.1	14.2	0.00e+00	0	31	0	1143996416	75	4805
2026-01-03 07:05:49.83	330.17	11.73	-55.2	-57.0	14.3	0.00e+00	0	31	0	1146093568	75	4754
2026-01-03 07:05:50.67	330.08	11.66	-55.2	-57.0	14.3	0.00e+00	0	31	0	1147142144	75	4715
2026-01-03 07:05:51.81	329.96	11.58	-55.2	-57.0	14.3	0.00e+00	0	31	0	1149239296	75	4750
2026-01-03 07:05:52.67	329.88	11.51	-55.2	-57.0	14.2	0.00e+00	0	31	0	1151336448	75	4747
2026-01-03 07:05:53.79	329.76	11.42	-55.2	-57.1	14.2	0.00e+00	0	31	0	1153433600	75	4782
2026-01-03 07:05:54.64	329.68	11.36	-55.2	-57.1	14.2	0.00e+00	0	31	0	1155530752	75	4794
2026-01-03 07:05:55.77	329.56	11.27	-55.3	-57.2	14.2	0.00e+00	0	31	0	1156579328	75	4828
2026-01-03 07:05:56.63	329.48	11.20	-55.3	-57.2	14.2	0.00e+00	0	31	0	1158676480	75	4861
2026-01-03 07:05:57.77	329.37	11.12	-55.5	-57.4	14.2	0.00e+00	0	31	0	1160773632	76	4664
2026-01-03 07:05:58.63	329.28	11.05	-55.6	-57.6	14.1	0.00e+00	0	31	0	1162870784	76	4780
2026-01-03 07:05:59.76	329.17	10.96	-55.6	-57.7	14.0	0.00e+00	0	31	0	1164967936	76	4822
2026-01-03 07:06:00.62	329.09	10.90	-55.7	-57.7	14.0	0.00e+00	0	31	0	1166016512	76	4858
2026-01-03 07:06:01.76	328.98	10.81	-55.8	-57.9	13.8	0.00e+00	0	31	0	1168113664	76	4941
2026-01-03 07:06:02.62	328.89	10.75	-55.8	-57.9	13.8	0.00e+00	0	31	0	1170210816	76	4960
2026-01-03 07:06:03.77	328.78	10.66	-55.8	-57.9	13.9	0.00e+00	0	31	0	1172307968	76	4973
2026-01-03 07:06:04.63	328.70	10.59	-55.9	-58.0	13.8	0.00e+00	0	31	0	1173356544	76	5016
2026-01-03 07:06:05.78	328.59	10.51	-55.9	-58.0	13.9	0.00e+00	0	31	0	1175453696	77	4734
2026-01-03 07:06:06.63	328.51	10.44	-55.8	-57.9	13.9	0.00e+00	0	30	0	1177550848	77	4672
2026-01-03 07:06:07.78	328.41	10.36	-55.7	-57.8	14.0	0.00e+00	0	31	0	1179648000	77	4625
2026-01-03 07:06:08.63	328.33	10.29	-55.7	-57.8	14.0	0.00e+00	0	31	0	1181745152	77	4603
2026-01-03 07:06:09.78	328.22	10.20	-55.5	-57.5	14.1	0.00e+00	0	31	0	1183842304	77	4461
2026-01-03 07:06:10.63	328.14	10.14	-55.5	-57.4	14.2	0.00e+00	0	31	0	1184890880	77	4424
2026-01-03 07:06:11.77	328.04	10.06	-55.5	-57.5	14.1	0.00e+00	0	31	0	1186988032	77	4454
2026-01-03 07:06:12.62	327.96	9.99	-55.4	-57.4	14.2	0.00e+00	0	31	0	1189085184	77	4414
2026-01-03 07:06:13.76	327.86	9.91	-55.4	-57.3	14.2	0.00e+00	0	31	0	1191182336	77	4358
2026-01-03 07:06:14.61	327.78	9.84	-55.4	-57.4	14.2	0.00e+00	0	31	0	1192230912	77	4408
2026-01-03 07:06:15.75	327.68	9.76	-55.4	-57.3	14.2	0.00e+00	0	30	0	1194328064	77	4379
2026-01-03 07:06:16.61	327.60	9.70	-55.4	-57.4	14.2	0.00e+00	0	31	0	1196425216	77	4396
2026-01-03 07:06:17.75	327.50	9.61	-55.5	-57.4	14.2	0.00e+00	0	31	0	1198522368	77	4425
2026-01-03 07:06:18.60	327.42	9.55	-55.5	-57.5	14.1	0.00e+00	0	31	0	1199570944	77	4486
2026-01-03 07:06:19.74	327.32	9.47	-55.6	-57.6	14.1	0.00e+00	0	31	0	1201668096	77	4517
2026-01-03 07:06:20.60	327.25	9.40	-55.6	-57.7	14.0	0.00e+00	0	31	0	1203765248	77	4564
2026-01-03 07:06:21.74	327.15	9.32	-55.7	-57.8	13.9	0.00e+00	0	31	0	1205862400	77	4620
2026-01-03 07:06:22.60	327.07	9.26	-55.7	-57.8	14.0	0.00e+00	0	31	0	1206910976	77	4607
2026-01-03 07:06:23.74	326.98	9.17	-55.6	-57.7	14.0	0.00e+00	0	31	0	1210056704	77	4571
2026-01-03 07:06:24.59	326.90	9.11	-55.7	-57.8	14.0	0.00e+00	0	31	0	1211105280	77	4618
2026-01-03 07:06:25.73	326.81	9.03	-55.7	-57.9	13.9	0.00e+00	0	31	0	1213202432	77	4663
2026-01-03 07:06:26.59	326.73	8.97	-55.8	-57.9	13.9	0.00e+00	0	31	0	1215299584	77	4664
2026-01-03 07:06:27.73	326.64	8.88	-55.8	-58.0	13.8	0.00e+00	0	31	0	1217396736	77	4723
2026-01-03 07:06:28.58	326.57	8.82	-55.8	-58.0	13.8	0.00e+00	0	31	0	1218445312	77	4741
2026-01-03 07:06:29.72	326.47	8.74	-55.8	-58.0	13.8	0.00e+00	0	31	0	1220542464	77	4734
2026-01-03 07:06:30.57	326.40	8.68	-55.9	-58.1	13.8	0.00e+00	0	31	0	1222639616	77	4767
2026-01-03 07:06:31.71	326.31	8.60	-55.9	-58.1	13.7	0.00e+00	0	31	0	1224736768	77	4783
2026-01-03 07:06:32.57	326.23	8.54	-56.0	-58.2	13.7	0.00e+00	0	31	0	1225785344	77	4857
2026-01-03 07:06:33.71	326.14	8.45	-55.9	-58.2	13.7	0.00e+00	0	31	0	1227882496	77	4844
