passes_logs/2026/01/03/R3.2S_Murmansk/R3.2S_Murmansk__20260103_081328_SUOMI_NPP_rec.log

#Pass ID: 20260103_081328_SUOMI NPP
#Satellite: SUOMI NPP
#Configuration: NPP
#almurnet v.1.7.20251203
#Start time: 2026-01-03 08:13:29

#Version: 2.2.20231116
#Station: R3.2S_Murmansk
#Location: 33.079688 lon 68.888172 lat
#TLE: 1 37849U 11061A   26001.07732418  .00000182  00000+0  10735-3 0  9990
#TLE: 2 37849  98.7795 303.2470 0002580  87.2016 272.9455 14.19520779734739

#Time	Az	El	Level	Level2	SNR	BER	BlckErr	Temp	State	Recorded	gain1	gain2
2026-01-03 08:13:29.95	119.77	2.10	-59.6	-75.1	3.8	1.49e+00	0	29	0	0	85	21448
2026-01-03 08:13:30.95	119.74	2.16	-59.6	-75.1	3.8	1.49e+00	0	28	104	0	84	22744
2026-01-03 08:13:31.96	119.71	2.23	-59.6	-75.1	3.8	1.49e+00	0	28	104	0	84	22723
2026-01-03 08:13:32.97	119.68	2.29	-59.6	-75.1	3.8	1.49e+00	0	28	104	0	84	22753
2026-01-03 08:13:33.98	119.65	2.36	-59.5	-75.1	3.8	1.49e+00	0	29	104	0	84	22693
2026-01-03 08:13:34.99	119.62	2.42	-59.6	-75.1	3.8	1.49e+00	0	29	104	0	84	22752
2026-01-03 08:13:36.00	119.59	2.48	-59.6	-75.1	3.9	1.49e+00	0	29	104	0	84	22781
2026-01-03 08:13:37.01	119.56	2.55	-59.6	-75.1	3.8	1.49e+00	0	29	104	0	84	22765
2026-01-03 08:13:38.01	119.52	2.61	-59.6	-75.2	3.8	1.49e+00	0	29	104	0	84	22783
2026-01-03 08:13:39.02	119.49	2.68	-59.6	-75.1	3.9	1.49e+00	0	29	104	0	84	22740
2026-01-03 08:13:40.03	119.46	2.74	-59.6	-75.1	3.8	1.49e+00	0	29	104	0	84	22756
2026-01-03 08:13:41.04	119.43	2.81	-59.6	-75.1	3.8	1.49e+00	0	29	104	0	84	22659
2026-01-03 08:13:42.06	119.40	2.87	-59.6	-75.1	3.8	1.49e+00	0	29	104	0	84	22722
2026-01-03 08:13:43.06	119.36	2.94	-59.6	-75.1	3.8	1.49e+00	0	29	104	0	84	22614
2026-01-03 08:13:44.07	119.33	3.00	-59.6	-75.1	3.8	1.49e+00	0	29	104	0	84	22637
2026-01-03 08:13:45.08	119.30	3.07	-59.6	-75.1	3.8	1.49e+00	0	29	104	0	84	22530
2026-01-03 08:13:46.09	119.26	3.13	-59.6	-75.1	3.8	1.49e+00	0	29	104	0	84	22576
2026-01-03 08:13:47.10	119.23	3.20	-59.6	-75.1	3.8	1.49e+00	0	29	104	0	84	22538
2026-01-03 08:13:48.11	119.20	3.26	-59.6	-75.0	3.8	1.49e+00	0	29	104	0	84	22518
2026-01-03 08:13:49.12	119.16	3.33	-59.6	-75.0	3.8	1.49e+00	0	29	104	0	84	22468
2026-01-03 08:13:50.12	119.13	3.40	-59.6	-75.0	3.8	1.49e+00	0	29	104	0	84	22394
2026-01-03 08:13:51.13	119.10	3.46	-59.6	-74.8	3.8	1.49e+00	0	29	104	0	84	21980
2026-01-03 08:13:52.12	119.06	3.53	-59.6	-74.7	3.8	1.49e+00	0	29	104	0	84	21567
2026-01-03 08:13:53.12	119.03	3.59	-59.6	-74.5	3.8	1.49e+00	0	29	104	0	84	21118
2026-01-03 08:13:54.12	119.00	3.66	-59.6	-74.4	3.8	1.49e+00	0	29	104	0	84	20918
2026-01-03 08:13:55.12	118.96	3.73	-59.6	-74.1	3.8	1.49e+00	0	29	104	0	84	20149
2026-01-03 08:13:56.13	118.93	3.79	-59.5	-73.4	3.8	1.49e+00	0	29	104	0	84	18595
2026-01-03 08:13:57.14	118.89	3.86	-59.5	-72.6	3.9	1.49e+00	0	29	104	0	84	17066
2026-01-03 08:13:58.14	118.86	3.93	-59.4	-71.6	4.2	1.43e+00	0	29	0	0	84	15082
2026-01-03 08:13:59.15	118.82	3.99	-59.4	-70.8	4.4	1.32e+00	55	29	0	0	84	13803
2026-01-03 08:14:00.16	118.79	4.06	-59.3	-69.8	4.8	9.39e-01	0	29	0	2097152	84	12339
2026-01-03 08:14:01.15	118.75	4.13	-59.2	-69.2	5.1	6.34e-01	0	29	0	4194304	84	11481
2026-01-03 08:14:02.16	118.72	4.20	-59.1	-68.0	5.9	4.47e-01	0	29	0	6291456	84	9999
2026-01-03 08:14:03.16	118.68	4.26	-59.0	-67.0	6.5	2.66e-01	0	29	0	7340032	84	8964
2026-01-03 08:14:04.17	118.64	4.33	-58.8	-66.2	7.2	1.20e-01	0	29	0	9437184	84	8152
2026-01-03 08:14:05.17	118.61	4.40	-58.5	-65.1	8.0	6.04e-02	0	29	0	11534336	83	7582
2026-01-03 08:14:06.16	118.57	4.47	-58.0	-63.6	9.3	1.62e-02	0	29	0	13631488	82	6732
2026-01-03 08:14:07.16	118.54	4.54	-57.6	-62.3	10.3	4.13e-03	0	29	0	15728640	81	6182
2026-01-03 08:14:08.15	118.50	4.60	-57.2	-61.4	11.0	4.84e-04	0	29	0	16777216	81	5545
2026-01-03 08:14:09.16	118.46	4.67	-56.7	-60.1	12.0	1.90e-05	0	29	0	18874368	80	5098
2026-01-03 08:14:10.17	118.42	4.74	-56.3	-59.4	12.5	7.60e-06	0	29	0	20971520	79	4933
2026-01-03 08:14:11.18	118.39	4.81	-56.0	-58.8	12.8	0.00e+00	0	29	0	23068672	78	4909
2026-01-03 08:14:12.18	118.35	4.88	-55.5	-58.0	13.3	0.00e+00	0	29	0	25165824	77	4723
2026-01-03 08:14:13.19	118.31	4.95	-55.3	-57.6	13.5	0.00e+00	0	29	0	26214400	77	4535
2026-01-03 08:14:14.19	118.27	5.02	-55.3	-57.7	13.4	0.00e+00	0	29	0	28311552	76	4850
2026-01-03 08:14:15.20	118.24	5.09	-55.3	-57.7	13.4	0.00e+00	0	29	0	30408704	76	4837
2026-01-03 08:14:16.20	118.20	5.16	-56.5	-59.6	12.4	4.50e-06	0	29	0	32505856	79	5048
2026-01-03 08:14:17.20	118.16	5.23	-56.9	-60.7	11.5	7.00e-07	0	29	0	34603008	79	5748
2026-01-03 08:14:18.20	118.12	5.30	-57.2	-61.0	11.4	7.17e-04	0	29	0	35651584	81	5298
2026-01-03 08:14:19.20	118.08	5.37	-57.0	-60.9	11.4	2.74e-05	0	29	0	37748736	79	5867
2026-01-03 08:14:20.20	118.04	5.44	-55.5	-57.9	13.4	7.00e-07	0	29	0	39845888	77	4681
2026-01-03 08:14:21.19	118.00	5.51	-55.6	-58.1	13.2	0.00e+00	0	29	0	41943040	77	4807
2026-01-03 08:14:22.19	117.97	5.58	-55.5	-58.0	13.4	0.00e+00	0	30	0	42991616	77	4708
2026-01-03 08:14:23.18	117.93	5.65	-55.4	-57.7	13.5	0.00e+00	0	30	0	45088768	77	4569
2026-01-03 08:14:24.18	117.89	5.72	-55.4	-57.7	13.6	0.00e+00	0	29	0	47185920	77	4551
2026-01-03 08:14:25.18	117.85	5.79	-55.3	-57.5	13.7	0.00e+00	0	30	0	49283072	77	4488
2026-01-03 08:14:26.19	117.81	5.86	-55.2	-57.3	13.7	0.00e+00	0	30	0	51380224	76	4638
2026-01-03 08:14:27.20	117.77	5.94	-55.3	-57.5	13.6	0.00e+00	0	29	0	52428800	76	4731
2026-01-03 08:14:28.20	117.72	6.01	-55.2	-57.4	13.7	0.00e+00	0	30	0	54525952	76	4685
2026-01-03 08:14:29.21	117.68	6.08	-55.2	-57.4	13.7	0.00e+00	0	30	0	56623104	76	4671
2026-01-03 08:14:30.22	117.64	6.15	-55.3	-57.5	13.6	0.00e+00	0	30	0	58720256	76	4750
2026-01-03 08:14:31.22	117.60	6.23	-55.3	-57.5	13.6	0.00e+00	0	30	0	60817408	76	4753
2026-01-03 08:14:32.23	117.56	6.30	-55.4	-57.7	13.5	0.00e+00	0	29	0	61865984	76	4834
2026-01-03 08:14:33.23	117.52	6.37	-55.2	-57.3	13.8	0.00e+00	0	30	0	63963136	76	4641
2026-01-03 08:14:34.23	117.48	6.44	-55.3	-57.4	13.8	0.00e+00	0	30	0	66060288	76	4696
2026-01-03 08:14:35.24	117.43	6.52	-55.2	-57.2	13.9	0.00e+00	0	30	0	68157440	76	4593
2026-01-03 08:14:36.23	117.39	6.59	-55.2	-57.4	13.8	0.00e+00	0	30	0	70254592	76	4658
2026-01-03 08:14:37.24	117.35	6.66	-55.4	-57.6	13.7	0.00e+00	0	29	0	71303168	76	4787
2026-01-03 08:14:38.24	117.31	6.74	-55.3	-57.4	13.7	0.00e+00	0	30	0	73400320	76	4698
2026-01-03 08:14:39.25	117.26	6.81	-55.2	-57.2	13.9	0.00e+00	0	30	0	75497472	76	4594
2026-01-03 08:14:40.25	117.22	6.89	-55.2	-57.3	13.9	0.00e+00	0	29	0	77594624	76	4604
2026-01-03 08:14:41.26	117.17	6.96	-55.3	-57.4	13.8	0.00e+00	0	30	0	79691776	76	4666
2026-01-03 08:14:42.27	117.13	7.04	-55.2	-57.3	13.9	0.00e+00	0	30	0	80740352	76	4600
2026-01-03 08:14:43.28	117.09	7.11	-55.0	-57.0	14.0	0.00e+00	0	30	0	82837504	76	4487
2026-01-03 08:14:44.29	117.04	7.19	-55.2	-57.2	13.9	0.00e+00	0	30	0	84934656	76	4563
2026-01-03 08:14:45.30	117.00	7.26	-55.1	-57.1	13.9	0.00e+00	0	30	0	87031808	76	4542
2026-01-03 08:14:46.31	116.95	7.34	-55.1	-57.1	14.0	0.00e+00	0	30	0	89128960	76	4509
2026-01-03 08:14:47.32	116.91	7.42	-55.1	-57.1	14.0	0.00e+00	0	30	0	90177536	76	4540
2026-01-03 08:14:48.33	116.86	7.49	-55.1	-57.1	14.0	0.00e+00	0	30	0	92274688	76	4518
2026-01-03 08:14:49.34	116.81	7.57	-55.2	-57.2	14.0	0.00e+00	0	29	0	94371840	76	4565
2026-01-03 08:14:50.34	116.77	7.65	-55.4	-57.5	13.8	0.00e+00	0	30	0	96468992	76	4712
2026-01-03 08:14:51.35	116.72	7.72	-55.3	-57.4	13.8	0.00e+00	0	30	0	98566144	76	4677
2026-01-03 08:14:52.36	116.67	7.80	-55.3	-57.4	13.9	0.00e+00	0	30	0	99614720	76	4659
2026-01-03 08:14:53.36	116.63	7.88	-55.2	-57.3	13.9	0.00e+00	0	30	0	101711872	76	4619
2026-01-03 08:14:54.37	116.58	7.95	-55.2	-57.3	13.9	0.00e+00	0	30	0	103809024	76	4603
2026-01-03 08:14:55.37	116.53	8.03	-55.1	-57.0	14.0	0.00e+00	0	30	0	105906176	76	4479
2026-01-03 08:14:56.38	116.49	8.11	-55.2	-57.2	14.0	0.00e+00	0	30	0	108003328	76	4550
2026-01-03 08:14:57.39	116.44	8.19	-55.1	-57.0	14.1	0.00e+00	0	30	0	109051904	76	4467
2026-01-03 08:14:58.40	116.39	8.27	-54.9	-56.8	14.2	0.00e+00	0	30	0	111149056	76	4364
2026-01-03 08:14:59.41	116.34	8.35	-54.9	-56.7	14.2	0.00e+00	0	30	0	113246208	76	4316
2026-01-03 08:15:00.42	116.29	8.42	-54.8	-56.6	14.3	0.00e+00	0	30	0	115343360	76	4277
2026-01-03 08:15:01.43	116.24	8.50	-54.9	-56.7	14.2	0.00e+00	0	30	0	117440512	76	4340
2026-01-03 08:15:02.44	116.19	8.58	-54.9	-56.7	14.3	0.00e+00	0	30	0	118489088	76	4324
2026-01-03 08:15:03.44	116.14	8.66	-55.1	-57.0	14.1	0.00e+00	0	30	0	120586240	76	4446
2026-01-03 08:15:04.45	116.09	8.74	-55.0	-56.9	14.2	0.00e+00	0	30	0	122683392	76	4414
2026-01-03 08:15:05.46	116.04	8.82	-55.1	-57.0	14.1	0.00e+00	0	30	0	124780544	76	4444
2026-01-03 08:15:06.47	115.99	8.90	-55.0	-56.8	14.2	0.00e+00	0	30	0	126877696	76	4373
2026-01-03 08:15:07.48	115.94	8.98	-55.0	-56.9	14.2	0.00e+00	0	30	0	127926272	76	4400
2026-01-03 08:15:08.49	115.89	9.06	-55.1	-57.0	14.1	0.00e+00	0	30	0	130023424	76	4468
2026-01-03 08:15:09.50	115.84	9.15	-54.9	-56.7	14.3	0.00e+00	0	30	0	132120576	76	4331
2026-01-03 08:15:10.51	115.79	9.23	-54.9	-56.7	14.3	0.00e+00	0	30	0	134217728	76	4332
2026-01-03 08:15:11.51	115.74	9.31	-54.9	-56.7	14.3	0.00e+00	0	30	0	136314880	76	4336
2026-01-03 08:15:12.52	115.68	9.39	-54.8	-56.5	14.4	0.00e+00	0	30	0	137363456	76	4213
2026-01-03 08:15:13.53	115.63	9.47	-54.6	-56.3	14.4	0.00e+00	0	30	0	139460608	75	4346
2026-01-03 08:15:14.54	115.58	9.55	-54.5	-56.2	14.5	0.00e+00	0	30	0	141557760	75	4328
2026-01-03 08:15:15.55	115.52	9.64	-54.6	-56.2	14.5	0.00e+00	0	30	0	143654912	75	4333
2026-01-03 08:15:16.56	115.47	9.72	-54.6	-56.3	14.4	0.00e+00	0	30	0	145752064	75	4360
2026-01-03 08:15:17.56	115.42	9.80	-54.7	-56.4	14.4	0.00e+00	0	30	0	146800640	75	4395
2026-01-03 08:15:18.57	115.36	9.88	-54.7	-56.5	14.4	0.00e+00	0	30	0	148897792	75	4447
2026-01-03 08:15:19.58	115.31	9.97	-54.8	-56.6	14.3	0.00e+00	0	30	0	150994944	75	4524
2026-01-03 08:15:20.59	115.25	10.05	-54.7	-56.4	14.4	0.00e+00	0	30	0	153092096	75	4410
2026-01-03 08:15:21.60	115.20	10.14	-54.7	-56.5	14.4	0.00e+00	0	30	0	155189248	75	4469
2026-01-03 08:15:22.60	115.14	10.22	-54.8	-56.5	14.3	0.00e+00	0	30	0	156237824	75	4465
2026-01-03 08:15:23.61	115.09	10.30	-54.8	-56.5	14.3	0.00e+00	0	30	0	158334976	75	4481
2026-01-03 08:15:24.62	115.03	10.39	-54.7	-56.5	14.4	0.00e+00	0	30	0	160432128	75	4448
2026-01-03 08:15:25.62	114.97	10.47	-54.7	-56.4	14.4	0.00e+00	0	30	0	162529280	75	4401
2026-01-03 08:15:26.64	114.91	10.56	-54.4	-56.0	14.6	0.00e+00	0	30	0	164626432	75	4224
2026-01-03 08:15:27.64	114.86	10.64	-54.4	-55.9	14.7	0.00e+00	0	30	0	166723584	75	4180
2026-01-03 08:15:28.65	114.80	10.73	-54.2	-56.1	14.6	0.00e+00	0	30	0	167772160	75	4270
2026-01-03 08:15:29.66	114.74	10.82	-54.1	-55.8	14.6	0.00e+00	0	30	0	169869312	74	4387
2026-01-03 08:15:30.67	114.68	10.90	-54.1	-55.8	14.6	0.00e+00	0	30	0	171966464	74	4391
2026-01-03 08:15:31.68	114.62	10.99	-54.2	-56.1	14.5	0.00e+00	0	30	0	174063616	74	4506
2026-01-03 08:15:32.69	114.56	11.08	-54.3	-56.2	14.4	0.00e+00	0	30	0	175112192	74	4593
2026-01-03 08:15:33.69	114.51	11.16	-54.2	-56.1	14.5	0.00e+00	0	30	0	177209344	74	4514
2026-01-03 08:15:34.70	114.45	11.25	-54.3	-56.2	14.5	0.00e+00	0	30	0	179306496	74	4564
2026-01-03 08:15:35.71	114.39	11.34	-54.3	-56.2	14.4	0.00e+00	0	30	0	181403648	74	4590
2026-01-03 08:15:36.71	114.33	11.43	-54.2	-56.0	14.5	0.00e+00	0	30	0	183500800	74	4456
2026-01-03 08:15:37.72	114.26	11.52	-54.3	-56.2	14.5	0.00e+00	0	30	0	185597952	74	4561
2026-01-03 08:15:38.73	114.20	11.60	-54.3	-56.2	14.5	0.00e+00	0	30	0	186646528	74	4582
2026-01-03 08:15:39.74	114.14	11.69	-54.1	-56.0	14.6	0.00e+00	0	30	0	188743680	74	4443
2026-01-03 08:15:40.75	114.08	11.78	-54.1	-55.9	14.6	0.00e+00	0	30	0	190840832	74	4392
2026-01-03 08:15:41.76	114.02	11.87	-54.2	-56.0	14.5	0.00e+00	0	30	0	192937984	74	4468
2026-01-03 08:15:42.76	113.95	11.96	-54.1	-55.9	14.6	0.00e+00	0	30	0	195035136	74	4421
2026-01-03 08:15:43.77	113.89	12.05	-54.0	-55.8	14.7	0.00e+00	0	30	0	196083712	74	4344
2026-01-03 08:15:44.78	113.83	12.14	-54.1	-56.0	14.6	0.00e+00	0	30	0	198180864	74	4456
2026-01-03 08:15:45.79	113.76	12.23	-54.3	-56.3	14.4	0.00e+00	0	30	0	200278016	74	4614
2026-01-03 08:15:46.80	113.70	12.32	-54.2	-56.1	14.5	0.00e+00	0	30	0	202375168	74	4534
2026-01-03 08:15:47.80	113.63	12.41	-54.4	-56.4	14.4	0.00e+00	0	30	0	204472320	74	4657
2026-01-03 08:15:48.81	113.57	12.51	-54.4	-56.4	14.4	0.00e+00	0	30	0	205520896	74	4677
2026-01-03 08:15:49.82	113.50	12.60	-54.3	-56.2	14.5	0.00e+00	0	30	0	207618048	74	4564
2026-01-03 08:15:50.83	113.43	12.69	-54.2	-56.2	14.5	0.00e+00	0	30	0	209715200	74	4549
2026-01-03 08:15:51.83	113.37	12.78	-54.2	-56.2	14.5	0.00e+00	0	30	0	211812352	74	4558
2026-01-03 08:15:52.84	113.30	12.87	-54.1	-55.9	14.6	0.00e+00	0	30	0	213909504	74	4438
2026-01-03 08:15:53.85	113.23	12.97	-54.0	-55.8	14.6	0.00e+00	0	30	0	214958080	74	4389
2026-01-03 08:15:54.86	113.16	13.06	-54.1	-55.9	14.6	0.00e+00	0	30	0	217055232	74	4415
2026-01-03 08:15:55.87	113.09	13.16	-54.0	-55.8	14.7	0.00e+00	0	30	0	219152384	74	4373
2026-01-03 08:15:56.88	113.03	13.25	-54.0	-55.8	14.7	0.00e+00	0	30	0	221249536	74	4355
2026-01-03 08:15:57.89	112.96	13.34	-53.9	-55.7	14.7	0.00e+00	0	30	0	223346688	74	4320
2026-01-03 08:15:58.89	112.89	13.44	-54.1	-55.9	14.6	0.00e+00	0	30	0	224395264	74	4425
2026-01-03 08:15:59.90	112.82	13.53	-54.0	-55.8	14.6	0.00e+00	0	30	0	226492416	74	4383
2026-01-03 08:16:00.91	112.74	13.63	-54.1	-56.0	14.5	0.00e+00	0	30	0	228589568	74	4458
2026-01-03 08:16:01.92	112.67	13.72	-54.0	-55.8	14.7	0.00e+00	0	30	0	230686720	74	4356
2026-01-03 08:16:02.93	112.60	13.82	-53.9	-55.6	14.8	0.00e+00	0	30	0	232783872	74	4271
2026-01-03 08:16:03.94	112.53	13.92	-53.9	-55.7	14.7	0.00e+00	0	30	0	233832448	74	4310
2026-01-03 08:16:04.95	112.46	14.01	-54.0	-55.8	14.7	0.00e+00	0	30	0	235929600	74	4369
2026-01-03 08:16:05.96	112.38	14.11	-54.0	-55.7	14.7	0.00e+00	0	30	0	238026752	74	4320
2026-01-03 08:16:06.97	112.31	14.21	-53.9	-55.6	14.7	0.00e+00	0	30	0	240123904	74	4272
2026-01-03 08:16:07.98	112.23	14.31	-53.9	-55.6	14.8	0.00e+00	0	30	0	242221056	74	4259
2026-01-03 08:16:08.98	112.16	14.40	-53.7	-55.3	14.8	0.00e+00	0	30	0	243269632	73	4381
2026-01-03 08:16:10.00	112.08	14.50	-53.7	-55.4	14.8	0.00e+00	0	30	0	245366784	73	4394
2026-01-03 08:16:11.00	112.01	14.60	-53.6	-55.3	14.8	0.00e+00	0	30	0	247463936	73	4350
2026-01-03 08:16:12.01	111.93	14.70	-53.9	-55.5	14.7	0.00e+00	0	30	0	249561088	73	4490
2026-01-03 08:16:13.02	111.85	14.80	-54.1	-55.8	14.6	0.00e+00	0	30	0	251658240	73	4648
2026-01-03 08:16:14.04	111.77	14.90	-53.9	-55.6	14.7	0.00e+00	0	30	0	252706816	73	4500
2026-01-03 08:16:15.04	111.70	15.00	-54.0	-55.7	14.7	0.00e+00	0	30	0	254803968	73	4585
2026-01-03 08:16:16.04	111.62	15.10	-54.1	-55.8	14.6	0.00e+00	0	30	0	256901120	73	4645
2026-01-03 08:16:17.06	111.54	15.20	-54.1	-55.8	14.6	0.00e+00	0	30	0	258998272	73	4621
2026-01-03 08:16:18.06	111.46	15.30	-53.7	-55.3	14.8	0.00e+00	0	30	0	261095424	73	4364
2026-01-03 08:16:19.07	111.38	15.40	-53.9	-55.5	14.8	0.00e+00	0	30	0	262144000	73	4466
2026-01-03 08:16:20.08	111.30	15.51	-53.9	-55.6	14.7	0.00e+00	0	30	0	264241152	73	4539
2026-01-03 08:16:21.09	111.22	15.61	-54.0	-55.7	14.6	0.00e+00	0	30	0	266338304	73	4594
2026-01-03 08:16:22.09	111.14	15.71	-53.9	-55.6	14.7	0.00e+00	0	30	0	268435456	73	4503
2026-01-03 08:16:23.10	111.05	15.81	-54.0	-55.7	14.6	0.00e+00	0	30	0	270532608	73	4592
2026-01-03 08:16:24.11	110.97	15.92	-53.9	-55.6	14.7	0.00e+00	0	30	0	271581184	73	4512
2026-01-03 08:16:25.12	110.89	16.02	-53.9	-55.7	14.7	0.00e+00	0	30	0	273678336	73	4560
2026-01-03 08:16:26.13	110.80	16.13	-53.9	-55.7	14.6	0.00e+00	0	30	0	275775488	73	4569
2026-01-03 08:16:27.14	110.72	16.23	-53.8	-55.5	14.7	0.00e+00	0	30	0	277872640	73	4475
2026-01-03 08:16:28.15	110.63	16.34	-53.9	-55.6	14.8	0.00e+00	0	30	0	279969792	73	4510
2026-01-03 08:16:29.15	110.54	16.44	-54.2	-56.0	14.5	0.00e+00	0	30	0	282066944	73	4743
2026-01-03 08:16:30.16	110.46	16.55	-53.9	-55.7	14.7	0.00e+00	0	31	0	283115520	73	4581
2026-01-03 08:16:31.16	110.37	16.65	-53.6	-55.3	14.8	0.00e+00	0	30	0	285212672	73	4342
2026-01-03 08:16:32.17	110.28	16.76	-53.5	-55.1	14.9	0.00e+00	0	30	0	287309824	73	4285
2026-01-03 08:16:33.18	110.19	16.87	-53.7	-55.4	14.8	0.00e+00	0	30	0	289406976	73	4410
2026-01-03 08:16:34.19	110.10	16.97	-53.8	-55.6	14.7	0.00e+00	0	30	0	290455552	73	4539
2026-01-03 08:16:35.20	110.01	17.08	-53.7	-55.4	14.8	0.00e+00	0	30	0	292552704	73	4438
2026-01-03 08:16:36.20	109.92	17.19	-53.9	-55.8	14.6	0.00e+00	0	30	0	294649856	73	4616
2026-01-03 08:16:37.21	109.83	17.30	-54.0	-55.8	14.6	0.00e+00	0	30	0	296747008	73	4630
2026-01-03 08:16:38.22	109.74	17.41	-53.9	-55.7	14.7	0.00e+00	0	30	0	298844160	73	4558
2026-01-03 08:16:39.22	109.65	17.51	-54.0	-55.8	14.6	0.00e+00	0	30	0	299892736	73	4635
2026-01-03 08:16:40.23	109.55	17.62	-54.0	-55.7	14.7	0.00e+00	0	30	0	301989888	74	4336
2026-01-03 08:16:41.24	109.46	17.73	-54.1	-55.9	14.7	0.00e+00	0	31	0	304087040	74	4424
2026-01-03 08:16:42.25	109.36	17.84	-54.4	-56.4	14.4	0.00e+00	0	30	0	306184192	74	4695
2026-01-03 08:16:43.26	109.27	17.96	-54.4	-56.3	14.4	0.00e+00	0	30	0	308281344	74	4620
2026-01-03 08:16:44.26	109.17	18.07	-54.3	-56.3	14.5	0.00e+00	0	30	0	310378496	74	4613
2026-01-03 08:16:45.27	109.07	18.18	-54.4	-56.4	14.4	0.00e+00	0	30	0	311427072	74	4688
2026-01-03 08:16:46.29	108.98	18.29	-54.3	-56.2	14.5	0.00e+00	0	30	0	313524224	74	4563
2026-01-03 08:16:47.29	108.88	18.40	-54.2	-56.1	14.6	0.00e+00	0	30	0	315621376	74	4503
2026-01-03 08:16:48.30	108.78	18.52	-54.3	-56.1	14.6	0.00e+00	0	30	0	317718528	74	4494
2026-01-03 08:16:49.31	108.68	18.63	-54.1	-55.8	14.7	0.00e+00	0	30	0	319815680	74	4391
2026-01-03 08:16:50.32	108.58	18.74	-54.2	-56.0	14.7	0.00e+00	0	30	0	320864256	74	4465
2026-01-03 08:16:51.33	108.47	18.86	-54.0	-55.6	14.8	0.00e+00	0	30	0	322961408	74	4283
2026-01-03 08:16:52.34	108.37	18.97	-54.1	-55.7	14.8	0.00e+00	0	30	0	325058560	74	4335
2026-01-03 08:16:53.35	108.27	19.09	-54.2	-56.0	14.6	0.00e+00	0	30	0	327155712	74	4449
2026-01-03 08:16:54.36	108.16	19.20	-54.4	-56.2	14.5	0.00e+00	0	30	0	329252864	74	4588
2026-01-03 08:16:55.36	108.06	19.32	-54.4	-56.1	14.6	0.00e+00	0	30	0	330301440	74	4533
2026-01-03 08:16:56.38	107.95	19.44	-54.5	-56.2	14.5	0.00e+00	0	30	0	332398592	74	4583
2026-01-03 08:16:57.39	107.85	19.56	-54.6	-56.4	14.5	0.00e+00	0	30	0	334495744	74	4661
2026-01-03 08:16:58.40	107.74	19.67	-55.0	-57.0	14.3	0.00e+00	0	30	0	336592896	75	4707
2026-01-03 08:16:59.41	107.63	19.79	-54.3	-56.1	14.7	0.00e+00	0	30	0	338690048	75	4244
2026-01-03 08:17:00.41	107.52	19.91	-54.5	-56.3	14.6	0.00e+00	0	30	0	339738624	75	4370
2026-01-03 08:17:01.43	107.41	20.03	-54.4	-56.1	14.7	0.00e+00	0	30	0	341835776	75	4277
2026-01-03 08:17:02.43	107.30	20.15	-54.4	-56.1	14.7	0.00e+00	0	30	0	343932928	75	4258
2026-01-03 08:17:03.44	107.19	20.27	-54.6	-56.4	14.6	0.00e+00	0	30	0	346030080	75	4405
2026-01-03 08:17:04.45	107.08	20.39	-54.5	-56.2	14.6	0.00e+00	0	30	0	348127232	75	4339
2026-01-03 08:17:05.46	106.96	20.51	-54.5	-56.2	14.6	0.00e+00	0	30	0	349175808	75	4320
2026-01-03 08:17:06.47	106.85	20.63	-54.6	-56.4	14.5	0.00e+00	0	30	0	351272960	75	4409
2026-01-03 08:17:07.48	106.73	20.75	-54.3	-55.9	14.7	0.00e+00	0	30	0	353370112	74	4436
2026-01-03 08:17:08.49	106.61	20.87	-54.1	-55.8	14.7	0.00e+00	0	30	0	355467264	74	4349
2026-01-03 08:17:09.50	106.50	21.00	-54.0	-55.5	14.9	0.00e+00	0	30	0	357564416	74	4225
2026-01-03 08:17:10.51	106.38	21.12	-53.9	-55.5	14.9	0.00e+00	0	30	0	358612992	74	4205
2026-01-03 08:17:11.51	106.26	21.24	-54.1	-55.8	14.7	0.00e+00	0	30	0	360710144	74	4354
2026-01-03 08:17:12.52	106.14	21.36	-54.2	-55.9	14.7	0.00e+00	0	30	0	362807296	74	4406
2026-01-03 08:17:13.53	106.02	21.49	-54.1	-55.8	14.6	0.00e+00	0	30	0	364904448	74	4374
2026-01-03 08:17:14.54	105.90	21.61	-54.4	-56.2	14.5	0.00e+00	0	30	0	367001600	74	4594
2026-01-03 08:17:15.55	105.77	21.74	-54.5	-56.3	14.5	0.00e+00	0	30	0	368050176	74	4637
2026-01-03 08:17:16.55	105.65	21.86	-54.5	-56.3	14.5	0.00e+00	0	30	0	370147328	74	4637
2026-01-03 08:17:17.56	105.52	21.99	-54.2	-55.9	14.7	0.00e+00	0	31	0	372244480	74	4434
2026-01-03 08:17:18.57	105.40	22.12	-54.3	-56.1	14.6	0.00e+00	0	30	0	374341632	74	4516
2026-01-03 08:17:19.58	105.27	22.24	-54.4	-56.2	14.5	0.00e+00	0	30	0	376438784	74	4584
2026-01-03 08:17:20.58	105.14	22.37	-54.2	-56.1	14.6	0.00e+00	0	30	0	377487360	74	4507
2026-01-03 08:17:21.59	105.01	22.50	-54.4	-56.3	14.5	0.00e+00	0	30	0	379584512	74	4617
2026-01-03 08:17:22.60	104.88	22.63	-54.5	-56.5	14.4	0.00e+00	0	30	0	381681664	74	4731
2026-01-03 08:17:23.61	104.75	22.76	-54.4	-56.3	14.5	0.00e+00	0	30	0	383778816	74	4634
2026-01-03 08:17:24.62	104.62	22.89	-54.5	-56.4	14.5	0.00e+00	0	30	0	385875968	74	4686
2026-01-03 08:17:25.63	104.48	23.02	-54.5	-56.5	14.5	0.00e+00	0	30	0	386924544	74	4711
2026-01-03 08:17:26.64	104.35	23.15	-54.2	-56.0	14.6	0.00e+00	0	31	0	389021696	74	4471
2026-01-03 08:17:27.65	104.21	23.28	-54.3	-56.1	14.6	0.00e+00	0	30	0	391118848	74	4500
2026-01-03 08:17:28.66	104.07	23.41	-54.1	-55.9	14.7	0.00e+00	0	30	0	393216000	74	4429
2026-01-03 08:17:29.67	103.93	23.54	-54.3	-56.1	14.6	0.00e+00	0	30	0	395313152	74	4523
2026-01-03 08:17:30.68	103.79	23.68	-54.3	-56.2	14.6	0.00e+00	0	30	0	396361728	74	4561
2026-01-03 08:17:31.68	103.65	23.81	-54.6	-56.5	14.4	0.00e+00	0	30	0	398458880	74	4746
2026-01-03 08:17:32.69	103.51	23.94	-54.6	-56.6	14.4	0.00e+00	0	31	0	400556032	74	4786
2026-01-03 08:17:33.69	103.37	24.07	-54.9	-57.1	14.2	0.00e+00	0	30	0	402653184	75	4795
2026-01-03 08:17:34.70	103.22	24.21	-54.8	-56.9	14.3	0.00e+00	0	31	0	404750336	75	4671
2026-01-03 08:17:35.70	103.08	24.34	-55.0	-57.2	14.1	0.00e+00	0	30	0	406847488	75	4857
2026-01-03 08:17:36.71	102.93	24.48	-54.7	-56.8	14.4	0.00e+00	0	31	0	407896064	75	4602
2026-01-03 08:17:37.72	102.78	24.61	-54.6	-56.6	14.4	0.00e+00	0	31	0	409993216	75	4514
2026-01-03 08:17:38.73	102.63	24.75	-54.4	-56.3	14.6	0.00e+00	0	30	0	412090368	75	4375
2026-01-03 08:17:39.74	102.48	24.89	-54.5	-56.5	14.5	0.00e+00	0	30	0	414187520	75	4452
2026-01-03 08:17:40.75	102.33	25.03	-54.2	-56.2	14.6	0.00e+00	0	30	0	416284672	75	4295
2026-01-03 08:17:41.76	102.17	25.16	-54.3	-56.3	14.5	0.00e+00	0	30	0	417333248	74	4609
2026-01-03 08:17:42.77	102.02	25.30	-54.2	-56.1	14.6	0.00e+00	0	30	0	419430400	74	4536
2026-01-03 08:17:43.78	101.86	25.44	-54.4	-56.5	14.5	0.00e+00	0	31	0	421527552	74	4722
2026-01-03 08:17:44.78	101.70	25.58	-54.1	-56.1	14.6	0.00e+00	0	30	0	423624704	74	4516
2026-01-03 08:17:45.79	101.54	25.72	-54.2	-56.3	14.5	0.00e+00	0	31	0	425721856	74	4626
2026-01-03 08:17:46.80	101.38	25.86	-54.4	-56.5	14.4	0.00e+00	0	30	0	426770432	74	4735
2026-01-03 08:17:47.81	101.22	26.00	-54.5	-56.7	14.3	0.00e+00	0	30	0	428867584	74	4840
2026-01-03 08:17:48.82	101.05	26.14	-54.6	-56.9	14.3	0.00e+00	0	30	0	430964736	74	4953
2026-01-03 08:17:49.83	100.89	26.28	-54.6	-56.8	14.3	0.00e+00	0	31	0	433061888	75	4631
2026-01-03 08:17:50.84	100.72	26.43	-54.5	-56.6	14.4	0.00e+00	0	31	0	435159040	75	4526
2026-01-03 08:17:51.85	100.55	26.57	-54.8	-57.0	14.2	0.00e+00	0	30	0	436207616	75	4751
2026-01-03 08:17:52.85	100.38	26.71	-54.4	-56.4	14.6	0.00e+00	0	30	0	438304768	75	4394
2026-01-03 08:17:53.86	100.21	26.85	-54.4	-56.3	14.6	0.00e+00	0	31	0	440401920	75	4348
2026-01-03 08:17:54.87	100.04	27.00	-54.4	-56.3	14.6	0.00e+00	0	30	0	442499072	75	4341
2026-01-03 08:17:55.87	99.86	27.14	-54.4	-56.3	14.6	0.00e+00	0	31	0	444596224	75	4387
2026-01-03 08:17:56.88	99.69	27.29	-54.4	-56.3	14.5	0.00e+00	0	31	0	445644800	74	4605
2026-01-03 08:17:57.89	99.51	27.43	-54.2	-56.0	14.7	0.00e+00	0	31	0	447741952	74	4452
2026-01-03 08:17:58.90	99.33	27.58	-54.3	-56.2	14.5	0.00e+00	0	30	0	449839104	74	4576
2026-01-03 08:17:59.91	99.15	27.73	-54.5	-56.5	14.4	0.00e+00	0	31	0	451936256	74	4731
2026-01-03 08:18:00.92	98.96	27.87	-54.5	-56.5	14.5	0.00e+00	0	30	0	454033408	74	4718
2026-01-03 08:18:01.93	98.78	28.02	-54.6	-56.7	14.3	0.00e+00	0	30	0	455081984	74	4843
2026-01-03 08:18:02.94	98.59	28.17	-54.6	-56.7	14.4	0.00e+00	0	31	0	457179136	75	4549
2026-01-03 08:18:03.95	98.40	28.32	-54.9	-57.1	14.2	0.00e+00	0	30	0	459276288	75	4782
2026-01-03 08:18:04.96	98.21	28.47	-55.0	-57.3	14.2	0.00e+00	0	30	0	461373440	75	4874
2026-01-03 08:18:05.97	98.02	28.62	-54.7	-56.8	14.3	0.00e+00	0	31	0	463470592	75	4644
2026-01-03 08:18:06.97	97.83	28.76	-54.8	-57.0	14.2	0.00e+00	0	31	0	464519168	75	4750
2026-01-03 08:18:07.98	97.63	28.91	-54.7	-57.0	14.2	0.00e+00	0	30	0	466616320	75	4748
2026-01-03 08:18:08.99	97.43	29.06	-54.9	-57.3	14.1	0.00e+00	0	31	0	468713472	75	4891
2026-01-03 08:18:10.00	97.23	29.22	-55.0	-57.5	14.0	0.00e+00	0	30	0	470810624	75	5006
2026-01-03 08:18:11.01	97.03	29.37	-55.3	-57.8	13.9	0.00e+00	0	30	0	472907776	76	4921
2026-01-03 08:18:12.02	96.83	29.52	-55.0	-57.4	14.2	0.00e+00	0	30	0	473956352	76	4670
2026-01-03 08:18:13.03	96.62	29.67	-55.3	-57.7	14.1	0.00e+00	0	30	0	476053504	76	4846
2026-01-03 08:18:14.04	96.42	29.82	-55.1	-57.3	14.3	0.00e+00	0	30	0	478150656	76	4636
2026-01-03 08:18:15.05	96.21	29.98	-55.2	-57.6	14.1	0.00e+00	0	30	0	480247808	76	4782
2026-01-03 08:18:16.05	96.00	30.13	-55.4	-57.8	13.9	0.00e+00	0	30	0	482344960	76	4922
2026-01-03 08:18:17.06	95.78	30.28	-55.5	-58.0	13.9	0.00e+00	0	30	0	483393536	76	5006
2026-01-03 08:18:18.07	95.57	30.44	-55.5	-58.0	13.9	0.00e+00	0	30	0	485490688	76	5000
2026-01-03 08:18:19.08	95.35	30.59	-55.7	-58.2	13.8	0.00e+00	0	31	0	487587840	77	4859
2026-01-03 08:18:20.09	95.13	30.74	-55.6	-58.0	13.9	0.00e+00	0	31	0	489684992	77	4753
2026-01-03 08:18:21.09	94.91	30.90	-56.1	-58.8	13.5	0.00e+00	0	31	0	491782144	77	5217
2026-01-03 08:18:22.10	94.69	31.05	-55.9	-58.5	13.7	0.00e+00	0	31	0	492830720	77	4984
2026-01-03 08:18:23.11	94.46	31.21	-55.7	-58.2	13.8	0.00e+00	0	31	0	494927872	77	4816
2026-01-03 08:18:24.12	94.23	31.37	-55.4	-57.7	14.1	0.00e+00	0	31	0	497025024	77	4546
2026-01-03 08:18:25.13	94.00	31.52	-55.4	-57.7	14.1	0.00e+00	0	30	0	499122176	77	4563
2026-01-03 08:18:26.14	93.77	31.68	-55.5	-57.8	14.0	0.00e+00	0	31	0	501219328	77	4642
2026-01-03 08:18:27.15	93.53	31.84	-55.7	-58.2	13.9	0.00e+00	0	31	0	503316480	77	4816
2026-01-03 08:18:28.16	93.30	31.99	-56.0	-58.7	13.6	0.00e+00	0	31	0	504365056	77	5116
2026-01-03 08:18:29.17	93.06	32.15	-56.1	-58.7	13.6	0.00e+00	0	30	0	506462208	77	5111
2026-01-03 08:18:30.18	92.81	32.31	-56.3	-59.2	13.3	0.00e+00	0	31	0	508559360	77	5409
2026-01-03 08:18:31.18	92.57	32.46	-56.4	-59.3	13.2	0.00e+00	0	30	0	510656512	78	5205
2026-01-03 08:18:32.19	92.32	32.62	-56.0	-58.8	13.5	0.00e+00	0	30	0	512753664	78	4891
2026-01-03 08:18:33.20	92.07	32.78	-56.1	-59.0	13.4	0.00e+00	0	30	0	513802240	78	5022
2026-01-03 08:18:34.21	91.82	32.94	-56.5	-59.6	13.2	0.00e+00	0	31	0	515899392	78	5341
2026-01-03 08:18:35.21	91.57	33.10	-56.0	-58.7	13.6	0.00e+00	0	30	0	517996544	78	4848
2026-01-03 08:18:36.22	91.31	33.26	-56.0	-58.8	13.6	0.00e+00	0	30	0	520093696	78	4878
2026-01-03 08:18:37.22	91.06	33.41	-56.0	-58.7	13.6	0.00e+00	0	30	0	521142272	78	4860
2026-01-03 08:18:38.23	90.79	33.57	-56.6	-59.7	13.0	0.00e+00	0	30	0	523239424	78	5449
2026-01-03 08:18:39.24	90.53	33.73	-56.8	-60.0	12.8	0.00e+00	0	31	0	525336576	78	5613
2026-01-03 08:18:40.25	90.26	33.89	-57.2	-60.7	12.5	0.00e+00	0	31	0	527433728	79	5747
2026-01-03 08:18:41.26	89.99	34.05	-57.0	-60.3	12.7	0.00e+00	0	30	0	529530880	79	5521
2026-01-03 08:18:42.27	89.72	34.21	-56.8	-59.9	12.9	0.00e+00	0	31	0	531628032	79	5228
2026-01-03 08:18:43.28	89.44	34.37	-56.6	-59.5	13.2	0.00e+00	0	30	0	532676608	79	5014
2026-01-03 08:18:44.29	89.17	34.53	-56.2	-58.7	13.6	0.00e+00	0	31	0	534773760	78	4864
2026-01-03 08:18:45.29	88.89	34.69	-56.1	-58.6	13.8	0.00e+00	0	31	0	536870912	78	4761
2026-01-03 08:18:46.30	88.60	34.85	-55.5	-57.7	14.1	0.00e+00	0	31	0	538968064	77	4567
2026-01-03 08:18:47.31	88.32	35.01	-55.0	-56.9	14.5	0.00e+00	0	30	0	541065216	76	4393
2026-01-03 08:18:48.32	88.03	35.17	-54.8	-56.6	14.5	0.00e+00	0	31	0	542113792	75	4515
2026-01-03 08:18:49.33	87.74	35.33	-54.3	-56.0	14.8	0.00e+00	0	30	0	544210944	75	4236
2026-01-03 08:18:50.34	87.44	35.49	-54.5	-56.2	14.7	0.00e+00	0	31	0	546308096	75	4331
2026-01-03 08:18:51.35	87.14	35.65	-54.2	-55.9	14.8	0.00e+00	0	31	0	548405248	75	4168
2026-01-03 08:18:52.36	86.84	35.81	-54.1	-55.8	14.8	0.00e+00	0	30	0	550502400	74	4360
2026-01-03 08:18:53.37	86.54	35.97	-54.1	-55.8	14.8	0.00e+00	0	31	0	551550976	74	4381
2026-01-03 08:18:54.37	86.24	36.13	-54.5	-56.4	14.5	0.00e+00	0	31	0	553648128	74	4695
2026-01-03 08:18:55.38	85.93	36.29	-55.0	-57.2	14.2	0.00e+00	0	30	0	555745280	75	4860
2026-01-03 08:18:56.39	85.61	36.45	-55.5	-58.0	13.9	0.00e+00	0	30	0	557842432	76	5017
2026-01-03 08:18:57.40	85.30	36.60	-55.5	-58.2	13.7	0.00e+00	0	30	0	559939584	76	5116
2026-01-03 08:18:58.41	84.98	36.76	-55.4	-58.1	13.8	0.00e+00	0	30	0	560988160	76	5063
2026-01-03 08:18:59.42	84.65	36.92	-55.3	-57.8	13.8	0.00e+00	0	30	0	563085312	76	4874
2026-01-03 08:19:00.43	84.33	37.08	-55.6	-58.3	13.6	0.00e+00	0	31	0	565182464	76	5198
2026-01-03 08:19:01.43	84.00	37.24	-56.0	-59.0	13.4	0.00e+00	0	31	0	567279616	77	5289
2026-01-03 08:19:02.44	83.67	37.39	-56.1	-59.1	13.3	0.00e+00	0	30	0	569376768	77	5341
2026-01-03 08:19:03.45	83.34	37.55	-55.9	-58.6	13.5	0.00e+00	0	31	0	570425344	77	5051
2026-01-03 08:19:04.46	83.00	37.71	-55.3	-57.6	14.1	0.00e+00	0	30	0	572522496	77	4512
2026-01-03 08:19:05.47	82.66	37.86	-55.1	-57.2	14.2	0.00e+00	0	30	0	574619648	76	4585
2026-01-03 08:19:06.47	82.32	38.02	-54.9	-56.9	14.4	0.00e+00	0	30	0	576716800	76	4405
2026-01-03 08:19:07.48	81.97	38.17	-55.2	-57.4	14.1	0.00e+00	0	30	0	578813952	76	4652
2026-01-03 08:19:08.49	81.62	38.33	-55.6	-58.0	13.8	0.00e+00	0	30	0	579862528	76	5023
2026-01-03 08:19:09.50	81.26	38.48	-56.2	-59.2	13.2	0.00e+00	0	30	0	581959680	77	5409
2026-01-03 08:19:10.51	80.90	38.64	-56.5	-59.8	12.9	0.00e+00	0	31	0	584056832	78	5465
2026-01-03 08:19:11.51	80.54	38.79	-56.7	-60.3	12.6	7.00e-07	0	31	0	586153984	78	5800
2026-01-03 08:19:12.52	80.18	38.94	-56.5	-59.9	12.8	0.00e+00	0	31	0	588251136	78	5584
2026-01-03 08:19:13.53	79.81	39.09	-56.3	-59.4	13.1	0.00e+00	0	31	0	589299712	78	5249
2026-01-03 08:19:14.54	79.44	39.24	-55.5	-58.0	13.9	0.00e+00	0	30	0	591396864	77	4723
2026-01-03 08:19:15.54	79.07	39.39	-55.1	-57.3	14.2	0.00e+00	0	31	0	593494016	76	4626
2026-01-03 08:19:16.55	78.69	39.54	-54.6	-56.6	14.4	0.00e+00	0	30	0	595591168	75	4520
2026-01-03 08:19:17.56	78.30	39.69	-54.6	-56.5	14.5	0.00e+00	0	30	0	597688320	75	4479
2026-01-03 08:19:18.57	77.92	39.84	-54.9	-57.2	14.1	0.00e+00	0	30	0	598736896	75	4815
2026-01-03 08:19:19.58	77.53	39.98	-55.5	-58.0	13.7	0.00e+00	0	31	0	600834048	76	4988
2026-01-03 08:19:20.59	77.14	40.13	-55.1	-57.3	14.1	0.00e+00	0	31	0	602931200	76	4628
2026-01-03 08:19:21.60	76.74	40.28	-54.8	-56.8	14.4	0.00e+00	0	31	0	605028352	76	4349
2026-01-03 08:19:22.60	76.34	40.42	-54.1	-55.9	14.6	0.00e+00	0	31	0	607125504	74	4438
2026-01-03 08:19:23.61	75.94	40.56	-54.2	-56.0	14.6	0.00e+00	0	30	0	608174080	74	4454
2026-01-03 08:19:24.62	75.53	40.70	-54.4	-56.3	14.5	0.00e+00	0	31	0	610271232	74	4620
2026-01-03 08:19:25.63	75.12	40.84	-55.0	-57.2	14.1	0.00e+00	0	31	0	612368384	75	4870
2026-01-03 08:19:26.64	74.71	40.98	-55.0	-57.2	14.2	0.00e+00	0	30	0	614465536	75	4848
2026-01-03 08:19:27.64	74.29	41.12	-54.9	-57.1	14.2	0.00e+00	0	31	0	616562688	75	4799
2026-01-03 08:19:28.65	73.87	41.26	-54.9	-57.1	14.1	0.00e+00	0	30	0	617611264	75	4811
2026-01-03 08:19:29.66	73.44	41.40	-55.0	-57.4	14.0	0.00e+00	0	31	0	619708416	75	4958
2026-01-03 08:19:30.67	73.02	41.53	-54.6	-56.7	14.3	0.00e+00	0	31	0	621805568	75	4577
2026-01-03 08:19:31.68	72.58	41.66	-53.8	-55.6	14.8	0.00e+00	0	31	0	623902720	74	4278
2026-01-03 08:19:32.69	72.15	41.80	-53.7	-55.5	14.8	0.00e+00	0	30	0	625999872	73	4462
2026-01-03 08:19:33.69	71.71	41.93	-53.9	-55.8	14.6	0.00e+00	0	31	0	628097024	73	4633
2026-01-03 08:19:34.70	71.27	42.05	-53.8	-55.7	14.7	0.00e+00	0	31	0	629145600	73	4567
2026-01-03 08:19:35.71	70.82	42.18	-53.5	-55.3	14.9	0.00e+00	0	31	0	631242752	73	4359
2026-01-03 08:19:36.72	70.37	42.31	-53.0	-54.6	15.0	0.00e+00	0	30	0	633339904	72	4269
2026-01-03 08:19:37.72	69.92	42.43	-53.0	-54.5	15.1	0.00e+00	0	31	0	635437056	72	4236
2026-01-03 08:19:38.73	69.46	42.55	-53.2	-55.0	14.9	0.00e+00	0	31	0	636485632	72	4453
2026-01-03 08:19:39.74	69.00	42.68	-53.4	-55.3	14.7	0.00e+00	0	31	0	638582784	72	4637
2026-01-03 08:19:40.75	68.54	42.80	-53.6	-55.5	14.7	0.00e+00	0	31	0	640679936	72	4708
2026-01-03 08:19:41.75	68.08	42.91	-53.6	-55.5	14.6	0.00e+00	0	31	0	642777088	72	4742
2026-01-03 08:19:42.77	67.60	43.03	-53.7	-55.6	14.6	0.00e+00	0	30	0	644874240	72	4804
2026-01-03 08:19:43.77	67.13	43.14	-53.9	-56.0	14.5	0.00e+00	0	31	0	645922816	73	4718
2026-01-03 08:19:44.78	66.65	43.25	-54.2	-56.4	14.3	0.00e+00	0	31	0	648019968	73	4943
2026-01-03 08:19:45.79	66.17	43.37	-54.4	-56.6	14.3	0.00e+00	0	31	0	650117120	73	5067
2026-01-03 08:19:46.80	65.69	43.47	-54.7	-57.1	14.0	0.00e+00	0	31	0	652214272	74	5085
2026-01-03 08:19:47.81	65.20	43.58	-54.4	-56.6	14.3	0.00e+00	0	31	0	654311424	74	4810
2026-01-03 08:19:48.82	64.71	43.68	-54.3	-56.6	14.3	0.00e+00	0	30	0	656408576	74	4774
2026-01-03 08:19:49.82	64.22	43.79	-54.4	-56.6	14.2	0.00e+00	0	31	0	657457152	74	4812
2026-01-03 08:19:50.84	63.71	43.89	-54.5	-56.9	14.0	0.00e+00	0	31	0	659554304	74	4951
2026-01-03 08:19:51.84	63.22	43.98	-54.8	-57.4	13.9	0.00e+00	0	31	0	661651456	74	5238
2026-01-03 08:19:52.85	62.72	44.08	-54.6	-57.0	14.2	0.00e+00	0	31	0	663748608	75	4756
2026-01-03 08:19:53.86	62.21	44.17	-54.3	-56.5	14.4	0.00e+00	0	31	0	665845760	75	4485
2026-01-03 08:19:54.87	61.70	44.26	-54.0	-56.0	14.6	0.00e+00	0	30	0	666894336	74	4467
2026-01-03 08:19:55.88	61.19	44.35	-53.8	-55.7	14.8	0.00e+00	0	30	0	668991488	74	4300
2026-01-03 08:19:56.88	60.68	44.44	-53.6	-55.3	14.8	0.00e+00	0	31	0	671088640	73	4349
2026-01-03 08:19:57.89	60.16	44.52	-53.7	-55.4	14.8	0.00e+00	0	31	0	673185792	73	4410
2026-01-03 08:19:58.90	59.64	44.60	-54.5	-56.5	14.4	0.00e+00	0	31	0	675282944	74	4747
2026-01-03 08:19:59.91	59.11	44.68	-54.5	-56.5	14.4	0.00e+00	0	31	0	676331520	74	4727
2026-01-03 08:20:00.92	58.59	44.76	-54.0	-55.7	14.8	0.00e+00	0	30	0	678428672	74	4329
2026-01-03 08:20:01.93	58.06	44.83	-54.4	-56.3	14.4	0.00e+00	0	30	0	680525824	74	4647
2026-01-03 08:20:02.94	57.53	44.90	-55.4	-57.9	13.8	0.00e+00	0	30	0	682622976	75	5273
2026-01-03 08:20:03.95	57.00	44.97	-56.0	-59.0	13.3	0.00e+00	0	30	0	684720128	77	5290
2026-01-03 08:20:04.96	56.46	45.04	-56.1	-59.2	13.2	0.00e+00	0	31	0	685768704	77	5431
2026-01-03 08:20:05.97	55.92	45.10	-55.9	-58.8	13.4	0.00e+00	0	30	0	687865856	77	5185
2026-01-03 08:20:06.97	55.39	45.16	-55.5	-58.2	13.7	0.00e+00	0	30	0	689963008	77	4838
2026-01-03 08:20:07.98	54.85	45.22	-55.0	-57.4	14.0	0.00e+00	0	31	0	692060160	76	4679
2026-01-03 08:20:08.99	54.30	45.27	-54.5	-56.6	14.4	0.00e+00	0	31	0	694157312	75	4510
2026-01-03 08:20:10.00	53.76	45.33	-54.3	-56.4	14.5	0.00e+00	0	31	0	695205888	74	4656
2026-01-03 08:20:11.01	53.21	45.38	-54.1	-56.1	14.6	0.00e+00	0	31	0	697303040	74	4526
2026-01-03 08:20:12.02	52.66	45.42	-53.7	-55.5	14.7	0.00e+00	0	31	0	699400192	73	4470
2026-01-03 08:20:13.02	52.12	45.47	-53.8	-55.7	14.7	0.00e+00	0	30	0	701497344	73	4582
2026-01-03 08:20:14.03	51.56	45.51	-54.8	-57.2	14.1	0.00e+00	0	30	0	703594496	74	5133
2026-01-03 08:20:15.04	51.01	45.54	-55.2	-57.9	13.7	0.00e+00	0	31	0	704643072	75	5248
2026-01-03 08:20:16.04	50.46	45.58	-55.4	-58.3	13.6	0.00e+00	0	30	0	706740224	76	5190
2026-01-03 08:20:17.05	49.91	45.61	-55.4	-58.4	13.6	0.00e+00	0	30	0	708837376	76	5232
2026-01-03 08:20:18.06	49.35	45.64	-55.5	-58.5	13.5	0.00e+00	0	30	0	710934528	76	5311
2026-01-03 08:20:19.07	48.79	45.67	-55.3	-58.2	13.7	0.00e+00	0	30	0	713031680	76	5102
2026-01-03 08:20:20.08	48.23	45.69	-55.0	-57.6	14.0	0.00e+00	0	31	0	714080256	76	4766
2026-01-03 08:20:21.08	47.68	45.71	-55.0	-57.7	13.9	0.00e+00	0	30	0	716177408	76	4865
2026-01-03 08:20:22.09	47.12	45.73	-55.1	-57.9	13.8	0.00e+00	0	31	0	718274560	76	4978
2026-01-03 08:20:23.10	46.56	45.74	-55.0	-57.7	13.9	0.00e+00	0	31	0	720371712	76	4866
2026-01-03 08:20:24.11	46.00	45.75	-55.0	-57.9	13.7	0.00e+00	0	31	0	722468864	76	4951
2026-01-03 08:20:25.12	45.44	45.76	-55.1	-58.1	13.6	0.00e+00	0	30	0	723517440	76	5059
2026-01-03 08:20:26.12	44.88	45.76	-55.3	-58.2	13.7	0.00e+00	0	30	0	725614592	76	5126
2026-01-03 08:20:27.13	44.32	45.77	-54.5	-57.0	14.1	0.00e+00	0	31	0	727711744	75	4714
2026-01-03 08:20:28.14	43.76	45.77	-53.5	-55.3	14.8	0.00e+00	0	30	0	729808896	73	4380
2026-01-03 08:20:29.15	43.19	45.76	-53.4	-55.2	14.9	0.00e+00	0	31	0	731906048	73	4339
2026-01-03 08:20:30.15	42.64	45.75	-53.8	-55.8	14.6	0.00e+00	0	31	0	732954624	73	4612
2026-01-03 08:20:31.15	42.08	45.74	-54.0	-56.2	14.4	0.00e+00	0	31	0	735051776	73	4828
2026-01-03 08:20:32.16	41.52	45.73	-54.6	-57.1	14.0	0.00e+00	0	31	0	737148928	74	5060
2026-01-03 08:20:33.16	40.97	45.71	-55.1	-58.1	13.5	0.00e+00	0	31	0	739246080	75	5368
2026-01-03 08:20:34.17	40.41	45.70	-55.0	-57.9	13.7	0.00e+00	0	31	0	741343232	75	5261
2026-01-03 08:20:35.18	39.85	45.67	-54.6	-57.0	14.1	0.00e+00	0	30	0	742391808	75	4738
2026-01-03 08:20:36.19	39.29	45.65	-54.3	-56.6	14.4	0.00e+00	0	31	0	744488960	75	4501
2026-01-03 08:20:37.20	38.73	45.62	-54.6	-57.2	14.1	0.00e+00	0	31	0	746586112	75	4834
2026-01-03 08:20:38.21	38.18	45.59	-54.4	-56.8	14.3	0.00e+00	0	31	0	748683264	75	4639
2026-01-03 08:20:39.22	37.62	45.55	-54.4	-56.8	14.3	0.00e+00	0	31	0	750780416	75	4612
2026-01-03 08:20:40.23	37.07	45.52	-54.6	-56.9	14.2	0.00e+00	0	31	0	751828992	75	4692
2026-01-03 08:20:41.23	36.52	45.48	-55.1	-57.8	13.8	0.00e+00	0	31	0	753926144	75	5176
2026-01-03 08:20:42.24	35.97	45.43	-55.3	-58.1	13.7	0.00e+00	0	31	0	756023296	76	5044
2026-01-03 08:20:43.24	35.43	45.39	-55.2	-57.7	13.9	0.00e+00	0	31	0	758120448	76	4851
2026-01-03 08:20:44.24	34.89	45.34	-55.0	-57.5	14.0	0.00e+00	0	31	0	760217600	76	4755
2026-01-03 08:20:45.25	34.34	45.29	-54.5	-56.9	14.2	0.00e+00	0	31	0	761266176	75	4664
2026-01-03 08:20:46.26	33.80	45.23	-53.5	-55.3	14.8	0.00e+00	0	31	0	763363328	73	4358
2026-01-03 08:20:47.27	33.26	45.18	-53.8	-55.6	14.7	0.00e+00	0	30	0	765460480	73	4537
2026-01-03 08:20:48.28	32.72	45.12	-54.6	-56.9	14.2	0.00e+00	0	30	0	767557632	74	4956
2026-01-03 08:20:49.29	32.18	45.06	-54.8	-57.2	14.0	0.00e+00	0	31	0	769654784	75	4860
2026-01-03 08:20:50.30	31.64	44.99	-54.1	-56.2	14.3	0.00e+00	0	31	0	770703360	74	4553
2026-01-03 08:20:51.31	31.11	44.92	-53.8	-55.9	14.5	0.00e+00	0	30	0	772800512	73	4666
2026-01-03 08:20:52.31	30.58	44.85	-53.8	-55.9	14.5	0.00e+00	0	31	0	774897664	73	4701
2026-01-03 08:20:53.32	30.05	44.78	-54.2	-56.6	14.2	0.00e+00	0	31	0	776994816	73	5080
2026-01-03 08:20:54.33	29.53	44.70	-54.1	-56.5	14.2	0.00e+00	0	30	0	779091968	73	5005
2026-01-03 08:20:55.34	29.01	44.63	-54.1	-56.5	14.2	0.00e+00	0	31	0	780140544	73	5012
2026-01-03 08:20:56.34	28.49	44.55	-54.2	-56.7	14.1	0.00e+00	0	31	0	782237696	73	5124
2026-01-03 08:20:57.34	27.98	44.46	-54.6	-57.4	13.8	0.00e+00	0	31	0	784334848	74	5252
2026-01-03 08:20:58.35	27.46	44.38	-54.7	-57.5	13.8	0.00e+00	0	31	0	786432000	75	5012
2026-01-03 08:20:59.36	26.95	44.29	-54.6	-57.2	14.0	0.00e+00	0	30	0	788529152	75	4831
2026-01-03 08:21:00.37	26.44	44.20	-54.1	-56.2	14.4	0.00e+00	0	31	0	789577728	74	4598
2026-01-03 08:21:01.37	25.94	44.11	-54.3	-56.6	14.2	0.00e+00	0	31	0	791674880	74	4767
2026-01-03 08:21:02.38	25.43	44.01	-54.8	-57.4	13.9	0.00e+00	0	31	0	793772032	74	5273
2026-01-03 08:21:03.39	24.93	43.92	-54.9	-57.6	13.9	0.00e+00	0	30	0	795869184	75	5064
2026-01-03 08:21:04.40	24.43	43.82	-54.0	-56.0	14.5	0.00e+00	0	30	0	797966336	74	4460
2026-01-03 08:21:05.41	23.94	43.71	-53.4	-55.1	14.9	0.00e+00	0	31	0	799014912	73	4255
2026-01-03 08:21:06.42	23.45	43.61	-53.3	-55.0	14.8	0.00e+00	0	31	0	801112064	72	4491
2026-01-03 08:21:07.43	22.96	43.51	-53.6	-55.5	14.7	0.00e+00	0	31	0	803209216	72	4708
2026-01-03 08:21:08.43	22.48	43.40	-54.1	-56.3	14.4	0.00e+00	0	31	0	805306368	73	4875
2026-01-03 08:21:09.44	22.00	43.29	-54.7	-57.2	14.0	0.00e+00	0	31	0	807403520	74	5127
2026-01-03 08:21:10.45	21.52	43.18	-54.6	-57.0	14.1	0.00e+00	0	31	0	809500672	74	5018
2026-01-03 08:21:11.46	21.04	43.06	-54.2	-56.3	14.4	0.00e+00	0	30	0	810549248	74	4635
2026-01-03 08:21:12.47	20.57	42.95	-53.5	-55.2	14.9	0.00e+00	0	30	0	812646400	73	4305
2026-01-03 08:21:13.48	20.10	42.83	-53.7	-55.4	14.8	0.00e+00	0	31	0	814743552	73	4439
2026-01-03 08:21:14.49	19.64	42.71	-54.1	-56.0	14.5	0.00e+00	0	31	0	816840704	73	4759
2026-01-03 08:21:15.50	19.18	42.59	-54.0	-56.0	14.5	0.00e+00	0	31	0	818937856	73	4718
2026-01-03 08:21:16.50	18.72	42.47	-53.6	-55.4	14.8	0.00e+00	0	31	0	819986432	73	4413
2026-01-03 08:21:17.51	18.27	42.35	-52.9	-54.5	15.1	0.00e+00	0	30	0	822083584	72	4215
2026-01-03 08:21:18.52	17.82	42.22	-52.8	-54.3	15.2	0.00e+00	0	31	0	824180736	72	4138
2026-01-03 08:21:19.53	17.37	42.09	-52.5	-53.9	15.3	0.00e+00	0	31	0	826277888	71	4151
2026-01-03 08:21:20.54	16.93	41.97	-52.1	-53.4	15.4	0.00e+00	0	31	0	827326464	70	4153
2026-01-03 08:21:21.55	16.49	41.84	-51.8	-53.0	15.5	0.00e+00	0	30	0	829423616	70	3990
2026-01-03 08:21:22.55	16.06	41.71	-51.3	-52.4	15.6	0.00e+00	0	31	0	831520768	69	3955
2026-01-03 08:21:23.56	15.62	41.57	-51.3	-52.3	15.7	0.00e+00	0	31	0	833617920	69	3911
2026-01-03 08:21:24.56	15.20	41.44	-51.0	-52.1	15.6	0.00e+00	0	31	0	835715072	68	4027
2026-01-03 08:21:25.57	14.77	41.30	-51.8	-53.0	15.4	0.00e+00	0	30	0	837812224	68	4446
2026-01-03 08:21:26.57	14.35	41.17	-52.0	-53.3	15.4	0.00e+00	0	30	0	838860800	69	4360
2026-01-03 08:21:27.58	13.94	41.03	-52.0	-53.2	15.3	0.00e+00	0	30	0	840957952	69	4337
2026-01-03 08:21:28.59	13.52	40.89	-51.8	-53.0	15.5	0.00e+00	0	30	0	843055104	69	4201
2026-01-03 08:21:29.59	13.11	40.75	-51.4	-52.5	15.6	0.00e+00	0	31	0	845152256	69	4001
2026-01-03 08:21:30.60	12.71	40.61	-51.6	-52.8	15.5	0.00e+00	0	31	0	847249408	69	4119
2026-01-03 08:21:31.60	12.31	40.47	-52.1	-53.4	15.3	0.00e+00	0	31	0	848297984	69	4417
2026-01-03 08:21:32.61	11.90	40.33	-52.3	-53.6	15.3	0.00e+00	0	31	0	850395136	69	4517
2026-01-03 08:21:33.62	11.51	40.18	-52.8	-54.2	15.1	0.00e+00	0	31	0	852492288	70	4594
2026-01-03 08:21:34.63	11.11	40.04	-53.4	-55.0	14.9	0.00e+00	0	30	0	854589440	72	4486
2026-01-03 08:21:35.64	10.72	39.89	-54.0	-55.7	14.8	0.00e+00	0	31	0	855638016	73	4575
2026-01-03 08:21:36.64	10.34	39.74	-53.5	-55.1	15.0	0.00e+00	0	30	0	857735168	73	4270
2026-01-03 08:21:37.65	9.96	39.60	-53.3	-54.7	15.2	0.00e+00	0	31	0	859832320	73	4080
2026-01-03 08:21:38.66	9.58	39.45	-53.4	-54.9	15.1	0.00e+00	0	31	0	861929472	72	4406
2026-01-03 08:21:39.67	9.20	39.30	-53.4	-54.8	15.1	0.00e+00	0	31	0	864026624	72	4387
2026-01-03 08:21:40.68	8.83	39.15	-53.5	-55.0	15.0	0.00e+00	0	31	0	866123776	72	4459
2026-01-03 08:21:41.68	8.46	39.00	-53.7	-55.2	14.9	0.00e+00	0	30	0	867172352	72	4593
2026-01-03 08:21:42.69	8.10	38.85	-53.6	-55.1	14.9	0.00e+00	0	31	0	869269504	72	4539
2026-01-03 08:21:43.70	7.74	38.69	-53.7	-55.3	14.9	0.00e+00	0	31	0	871366656	73	4363
2026-01-03 08:21:44.71	7.38	38.54	-53.7	-55.2	15.0	0.00e+00	0	31	0	873463808	73	4336
2026-01-03 08:21:45.71	7.03	38.39	-53.5	-55.0	15.1	0.00e+00	0	31	0	875560960	73	4226
2026-01-03 08:21:46.72	6.67	38.23	-53.5	-55.0	15.1	0.00e+00	0	31	0	876609536	73	4194
2026-01-03 08:21:47.73	6.33	38.08	-53.8	-55.3	14.9	0.00e+00	0	31	0	878706688	73	4390
2026-01-03 08:21:48.74	5.98	37.92	-54.6	-56.4	14.5	0.00e+00	0	31	0	880803840	74	4676
2026-01-03 08:21:49.75	5.64	37.77	-54.6	-56.4	14.7	0.00e+00	0	31	0	882900992	75	4413
2026-01-03 08:21:50.75	5.30	37.61	-54.0	-55.5	15.0	0.00e+00	0	31	0	884998144	74	4238
2026-01-03 08:21:51.76	4.97	37.46	-53.5	-54.9	15.1	0.00e+00	0	30	0	886046720	73	4164
2026-01-03 08:21:52.77	4.64	37.30	-53.6	-55.0	15.1	0.00e+00	0	31	0	888143872	73	4217
2026-01-03 08:21:53.78	4.31	37.14	-53.5	-55.0	15.1	0.00e+00	0	31	0	890241024	73	4201
2026-01-03 08:21:54.79	3.98	36.98	-54.0	-55.5	14.9	0.00e+00	0	31	0	892338176	73	4492
2026-01-03 08:21:55.80	3.66	36.83	-54.2	-55.8	14.8	0.00e+00	0	30	0	894435328	73	4610
2026-01-03 08:21:56.80	3.34	36.67	-54.9	-56.9	14.4	0.00e+00	0	31	0	895483904	75	4670
2026-01-03 08:21:57.81	3.03	36.51	-55.8	-58.2	13.8	0.00e+00	0	31	0	897581056	77	4826
2026-01-03 08:21:58.82	2.71	36.35	-56.2	-58.8	13.5	0.00e+00	0	30	0	899678208	77	5175
2026-01-03 08:21:59.83	2.40	36.19	-55.7	-58.0	14.0	0.00e+00	0	31	0	901775360	77	4712
2026-01-03 08:22:00.84	2.09	36.04	-55.2	-57.1	14.4	0.00e+00	0	31	0	903872512	77	4281
2026-01-03 08:22:01.85	1.79	35.88	-55.5	-57.7	14.0	0.00e+00	0	31	0	904921088	76	4856
2026-01-03 08:22:02.86	1.49	35.72	-56.0	-58.5	13.7	0.00e+00	0	31	0	907018240	77	5038
2026-01-03 08:22:03.87	1.19	35.56	-56.4	-59.1	13.4	0.00e+00	0	31	0	909115392	78	5086
2026-01-03 08:22:04.88	0.90	35.40	-56.5	-59.4	13.4	0.00e+00	0	31	0	911212544	78	5237
2026-01-03 08:22:05.89	0.60	35.24	-56.5	-59.3	13.3	0.00e+00	0	31	0	913309696	78	5196
2026-01-03 08:22:06.90	0.31	35.08	-56.9	-59.9	12.9	0.00e+00	0	30	0	914358272	79	5274
2026-01-03 08:22:07.91	0.03	34.92	-57.5	-61.3	12.2	7.00e-07	0	31	0	916455424	80	5811
2026-01-03 08:22:08.92	359.74	34.76	-57.0	-60.0	13.1	0.00e+00	0	31	0	918552576	80	4995
2026-01-03 08:22:09.93	359.46	34.60	-56.5	-59.0	13.6	0.00e+00	0	31	0	920649728	79	4740
2026-01-03 08:22:10.94	359.18	34.44	-56.0	-58.2	14.0	0.00e+00	0	31	0	922746880	78	4570
2026-01-03 08:22:11.95	358.91	34.28	-56.1	-58.4	13.8	0.00e+00	0	31	0	923795456	78	4674
2026-01-03 08:22:12.95	358.64	34.12	-56.7	-59.4	13.3	0.00e+00	0	31	0	925892608	78	5223
2026-01-03 08:22:13.96	358.37	33.96	-58.0	-61.9	11.6	6.80e-06	0	30	0	927989760	81	5915
2026-01-03 08:22:14.97	358.10	33.81	-58.1	-62.2	11.5	3.96e-05	0	31	0	930086912	81	6072
2026-01-03 08:22:15.98	357.84	33.65	-57.9	-61.7	11.7	4.19e-05	0	31	0	932184064	81	5775
2026-01-03 08:22:16.99	357.57	33.49	-57.4	-60.6	12.5	6.80e-06	0	31	0	933232640	81	5096
2026-01-03 08:22:18.00	357.31	33.33	-57.3	-60.6	12.6	7.00e-07	0	31	0	935329792	81	5063
2026-01-03 08:22:19.01	357.06	33.17	-57.2	-60.3	12.8	0.00e+00	0	31	0	937426944	80	5167
2026-01-03 08:22:20.02	356.80	33.01	-56.8	-59.8	13.1	0.00e+00	0	31	0	939524096	80	4881
2026-01-03 08:22:21.03	356.55	32.85	-56.4	-59.0	13.5	0.00e+00	0	31	0	941621248	79	4721
2026-01-03 08:22:22.04	356.30	32.69	-56.5	-59.2	13.4	0.00e+00	0	31	0	942669824	79	4823
2026-01-03 08:22:23.05	356.05	32.54	-56.5	-59.2	13.5	0.00e+00	0	31	0	944766976	79	4851
2026-01-03 08:22:24.06	355.81	32.38	-56.5	-59.2	13.4	0.00e+00	0	31	0	946864128	78	5125
2026-01-03 08:22:25.07	355.57	32.22	-55.9	-58.2	13.9	0.00e+00	0	31	0	948961280	78	4556
2026-01-03 08:22:26.08	355.33	32.06	-55.5	-57.6	14.2	0.00e+00	0	31	0	951058432	77	4531
2026-01-03 08:22:27.09	355.09	31.91	-55.3	-57.2	14.4	0.00e+00	0	30	0	952107008	77	4340
2026-01-03 08:22:28.09	354.86	31.75	-55.2	-57.1	14.4	0.00e+00	0	30	0	954204160	76	4511
2026-01-03 08:22:29.10	354.62	31.60	-55.6	-57.7	14.0	0.00e+00	0	31	0	956301312	76	4854
2026-01-03 08:22:30.11	354.39	31.44	-56.5	-59.2	13.4	0.00e+00	0	30	0	958398464	78	5129
2026-01-03 08:22:31.11	354.17	31.29	-56.8	-59.7	13.1	0.00e+00	0	31	0	960495616	78	5439
2026-01-03 08:22:32.12	353.94	31.13	-56.4	-59.1	13.3	0.00e+00	0	31	0	962592768	78	5076
2026-01-03 08:22:33.13	353.71	30.98	-56.3	-58.9	13.5	0.00e+00	0	31	0	963641344	78	4945
2026-01-03 08:22:34.14	353.49	30.82	-56.1	-58.7	13.6	0.00e+00	0	31	0	965738496	78	4819
2026-01-03 08:22:35.15	353.27	30.67	-55.9	-58.3	13.8	0.00e+00	0	30	0	967835648	78	4631
2026-01-03 08:22:36.16	353.06	30.51	-56.1	-58.6	13.7	0.00e+00	0	31	0	969932800	78	4794
2026-01-03 08:22:37.17	352.84	30.36	-56.4	-59.0	13.5	0.00e+00	0	31	0	972029952	78	5030
2026-01-03 08:22:38.18	352.63	30.20	-56.3	-58.7	13.6	0.00e+00	0	31	0	973078528	78	4869
2026-01-03 08:22:39.19	352.41	30.05	-56.0	-58.3	13.8	0.00e+00	0	30	0	975175680	78	4643
2026-01-03 08:22:40.20	352.21	29.90	-55.1	-57.0	14.4	0.00e+00	0	31	0	977272832	76	4489
2026-01-03 08:22:41.21	352.00	29.75	-55.1	-57.0	14.4	0.00e+00	0	31	0	979369984	76	4488
2026-01-03 08:22:42.21	351.79	29.60	-54.8	-56.6	14.6	0.00e+00	0	30	0	981467136	76	4261
2026-01-03 08:22:43.22	351.59	29.44	-55.1	-57.1	14.3	0.00e+00	0	30	0	982515712	75	4767
2026-01-03 08:22:44.23	351.39	29.29	-55.1	-57.0	14.3	0.00e+00	0	31	0	984612864	75	4729
2026-01-03 08:22:45.24	351.19	29.14	-55.6	-57.8	14.0	0.00e+00	0	30	0	986710016	76	4877
2026-01-03 08:22:46.25	350.99	28.99	-55.2	-57.1	14.3	0.00e+00	0	31	0	988807168	76	4516
2026-01-03 08:22:47.26	350.80	28.84	-55.3	-57.3	14.2	0.00e+00	0	31	0	990904320	76	4650
2026-01-03 08:22:48.27	350.60	28.69	-55.0	-56.8	14.4	0.00e+00	0	31	0	991952896	76	4376
2026-01-03 08:22:49.28	350.41	28.54	-54.7	-56.5	14.6	0.00e+00	0	31	0	994050048	76	4199
2026-01-03 08:22:50.29	350.22	28.40	-54.1	-55.7	14.9	0.00e+00	0	30	0	996147200	74	4310
2026-01-03 08:22:51.30	350.03	28.25	-54.0	-55.5	14.9	0.00e+00	0	31	0	998244352	74	4221
2026-01-03 08:22:52.31	349.84	28.10	-54.0	-55.5	14.9	0.00e+00	0	31	0	1000341504	74	4234
2026-01-03 08:22:53.32	349.66	27.95	-53.8	-55.3	15.0	0.00e+00	0	30	0	1001390080	74	4114
2026-01-03 08:22:54.33	349.47	27.81	-54.3	-56.0	14.7	0.00e+00	0	31	0	1003487232	74	4449
2026-01-03 08:22:55.34	349.29	27.66	-54.8	-56.7	14.4	0.00e+00	0	30	0	1005584384	74	4847
2026-01-03 08:22:56.35	349.11	27.51	-55.7	-58.0	13.9	0.00e+00	0	31	0	1007681536	76	4997
2026-01-03 08:22:57.35	348.94	27.37	-56.2	-58.8	13.5	0.00e+00	0	31	0	1009778688	77	5172
2026-01-03 08:22:58.36	348.76	27.22	-56.6	-59.4	13.2	0.00e+00	0	31	0	1010827264	78	5248
2026-01-03 08:22:59.37	348.58	27.08	-56.4	-59.1	13.4	0.00e+00	0	31	0	1012924416	78	5079
2026-01-03 08:23:00.38	348.41	26.94	-56.0	-58.3	13.8	0.00e+00	0	31	0	1015021568	78	4649
2026-01-03 08:23:01.39	348.24	26.79	-55.2	-57.2	14.3	0.00e+00	0	31	0	1017118720	77	4320
2026-01-03 08:23:02.40	348.07	26.65	-55.0	-57.0	14.4	0.00e+00	0	31	0	1019215872	76	4454
2026-01-03 08:23:03.41	347.90	26.51	-54.7	-56.5	14.6	0.00e+00	0	30	0	1020264448	76	4227
2026-01-03 08:23:04.41	347.73	26.37	-54.5	-56.3	14.6	0.00e+00	0	31	0	1022361600	75	4343
2026-01-03 08:23:05.42	347.57	26.22	-54.2	-55.8	14.8	0.00e+00	0	31	0	1024458752	74	4369
2026-01-03 08:23:06.43	347.40	26.08	-54.4	-56.1	14.6	0.00e+00	0	31	0	1026555904	74	4541
2026-01-03 08:23:07.44	347.24	25.94	-54.6	-56.5	14.5	0.00e+00	0	31	0	1028653056	74	4712
2026-01-03 08:23:08.44	347.08	25.80	-54.9	-56.9	14.3	0.00e+00	0	31	0	1029701632	74	4931
2026-01-03 08:23:09.45	346.92	25.66	-55.4	-57.5	14.0	0.00e+00	0	31	0	1031798784	75	5041
2026-01-03 08:23:10.46	346.76	25.52	-55.3	-57.5	14.0	0.00e+00	0	30	0	1033895936	75	5012
2026-01-03 08:23:11.47	346.61	25.39	-55.2	-57.4	14.0	0.00e+00	0	31	0	1035993088	75	4946
2026-01-03 08:23:12.47	346.45	25.25	-55.0	-57.0	14.2	0.00e+00	0	30	0	1038090240	75	4757
2026-01-03 08:23:13.48	346.30	25.11	-55.1	-57.2	14.2	0.00e+00	0	31	0	1039138816	75	4848
2026-01-03 08:23:14.48	346.15	24.98	-54.9	-57.0	14.2	0.00e+00	0	31	0	1041235968	75	4720
2026-01-03 08:23:15.49	345.99	24.84	-55.4	-57.5	14.1	0.00e+00	0	31	0	1043333120	76	4738
2026-01-03 08:23:16.50	345.84	24.70	-55.6	-57.9	13.9	0.00e+00	0	31	0	1045430272	76	4982
2026-01-03 08:23:17.51	345.70	24.57	-55.9	-58.4	13.7	0.00e+00	0	31	0	1047527424	77	4964
2026-01-03 08:23:18.52	345.55	24.43	-56.3	-58.9	13.4	0.00e+00	0	30	0	1048576000	77	5268
2026-01-03 08:23:19.53	345.40	24.30	-56.5	-59.3	13.3	0.00e+00	0	31	0	1050673152	78	5162
2026-01-03 08:23:20.53	345.26	24.16	-56.2	-58.8	13.5	0.00e+00	0	31	0	1052770304	78	4889
2026-01-03 08:23:21.54	345.11	24.03	-55.6	-57.8	14.0	0.00e+00	0	31	0	1054867456	77	4646
2026-01-03 08:23:22.55	344.97	23.90	-55.3	-57.2	14.3	0.00e+00	0	31	0	1056964608	77	4332
2026-01-03 08:23:23.56	344.83	23.76	-55.1	-57.0	14.4	0.00e+00	0	31	0	1058013184	76	4458
2026-01-03 08:23:24.57	344.69	23.63	-54.7	-56.5	14.6	0.00e+00	0	31	0	1060110336	76	4200
2026-01-03 08:23:25.57	344.55	23.50	-54.3	-55.9	14.8	0.00e+00	0	31	0	1062207488	75	4173
2026-01-03 08:23:26.58	344.42	23.37	-54.4	-56.1	14.7	0.00e+00	0	30	0	1064304640	75	4256
2026-01-03 08:23:27.59	344.28	23.24	-54.3	-55.9	14.7	0.00e+00	0	31	0	1066401792	74	4407
2026-01-03 08:23:28.60	344.14	23.11	-54.5	-56.2	14.6	0.00e+00	0	30	0	1068498944	74	4572
2026-01-03 08:23:29.60	344.01	22.98	-54.5	-56.1	14.7	0.00e+00	0	31	0	1069547520	74	4542
2026-01-03 08:23:30.61	343.88	22.85	-54.6	-56.3	14.6	0.00e+00	0	31	0	1071644672	74	4646
2026-01-03 08:23:31.62	343.75	22.72	-54.5	-56.3	14.6	0.00e+00	0	30	0	1073741824	74	4617
2026-01-03 08:23:32.63	343.61	22.59	-54.6	-56.4	14.5	0.00e+00	0	31	0	1075838976	74	4657
2026-01-03 08:23:33.64	343.49	22.46	-54.8	-56.7	14.4	0.00e+00	0	31	0	1076887552	75	4572
2026-01-03 08:23:34.65	343.36	22.33	-54.9	-56.9	14.4	0.00e+00	0	31	0	1078984704	75	4654
2026-01-03 08:23:35.66	343.23	22.21	-55.0	-57.0	14.3	0.00e+00	0	31	0	1081081856	75	4721
2026-01-03 08:23:36.67	343.10	22.08	-54.9	-56.8	14.4	0.00e+00	0	30	0	1083179008	75	4634
2026-01-03 08:23:37.68	342.98	21.95	-54.8	-56.7	14.4	0.00e+00	0	31	0	1085276160	75	4585
2026-01-03 08:23:38.68	342.85	21.83	-54.8	-56.6	14.5	0.00e+00	0	31	0	1086324736	75	4545
2026-01-03 08:23:39.69	342.73	21.70	-54.4	-56.2	14.7	0.00e+00	0	31	0	1088421888	75	4301
2026-01-03 08:23:40.70	342.61	21.58	-54.3	-56.0	14.8	0.00e+00	0	31	0	1090519040	75	4209
2026-01-03 08:23:41.71	342.49	21.46	-54.1	-55.7	14.8	0.00e+00	0	31	0	1092616192	74	4321
2026-01-03 08:23:42.72	342.37	21.33	-54.1	-55.7	14.8	0.00e+00	0	31	0	1094713344	74	4308
2026-01-03 08:23:43.72	342.25	21.21	-54.1	-55.7	14.8	0.00e+00	0	31	0	1096810496	74	4334
2026-01-03 08:23:44.73	342.13	21.09	-54.4	-56.2	14.5	0.00e+00	0	31	0	1097859072	74	4553
2026-01-03 08:23:45.75	342.01	20.96	-54.8	-56.6	14.4	0.00e+00	0	31	0	1099956224	74	4807
2026-01-03 08:23:46.76	341.90	20.84	-55.1	-57.1	14.2	0.00e+00	0	31	0	1102053376	75	4798
2026-01-03 08:23:47.76	341.78	20.72	-55.5	-57.7	14.0	0.00e+00	0	30	0	1104150528	76	4847
2026-01-03 08:23:48.77	341.67	20.60	-55.9	-58.3	13.6	0.00e+00	0	31	0	1106247680	77	4916
2026-01-03 08:23:49.79	341.55	20.48	-56.0	-58.5	13.6	0.00e+00	0	31	0	1107296256	77	5002
2026-01-03 08:23:50.79	341.44	20.36	-55.8	-58.3	13.8	0.00e+00	0	31	0	1109393408	77	4873
2026-01-03 08:23:51.80	341.33	20.24	-55.7	-58.1	13.8	0.00e+00	0	31	0	1111490560	77	4769
2026-01-03 08:23:52.81	341.22	20.12	-55.4	-57.5	14.1	0.00e+00	0	31	0	1113587712	77	4493
2026-01-03 08:23:53.82	341.11	20.00	-55.3	-57.4	14.2	0.00e+00	0	31	0	1115684864	77	4419
2026-01-03 08:23:54.83	341.00	19.88	-55.0	-56.9	14.4	0.00e+00	0	31	0	1116733440	76	4413
2026-01-03 08:23:55.84	340.89	19.77	-54.8	-56.7	14.5	0.00e+00	0	31	0	1118830592	76	4296
2026-01-03 08:23:56.84	340.78	19.65	-54.5	-56.3	14.6	0.00e+00	0	31	0	1120927744	75	4386
2026-01-03 08:23:57.85	340.68	19.53	-54.6	-56.4	14.6	0.00e+00	0	31	0	1123024896	75	4410
2026-01-03 08:23:58.86	340.57	19.42	-54.6	-56.4	14.5	0.00e+00	0	31	0	1125122048	75	4427
2026-01-03 08:23:59.86	340.47	19.30	-54.6	-56.4	14.5	0.00e+00	0	31	0	1126170624	75	4423
2026-01-03 08:24:00.87	340.36	19.18	-54.6	-56.4	14.6	0.00e+00	0	31	0	1128267776	75	4401
2026-01-03 08:24:01.88	340.26	19.07	-54.7	-56.5	14.5	0.00e+00	0	30	0	1130364928	75	4482
2026-01-03 08:24:02.89	340.16	18.95	-54.6	-56.5	14.5	0.00e+00	0	30	0	1132462080	75	4459
2026-01-03 08:24:03.89	340.06	18.84	-54.6	-56.4	14.5	0.00e+00	0	30	0	1134559232	75	4414
2026-01-03 08:24:04.90	339.96	18.73	-54.5	-56.3	14.6	0.00e+00	0	31	0	1135607808	75	4358
2026-01-03 08:24:05.91	339.86	18.61	-54.7	-56.5	14.5	0.00e+00	0	31	0	1137704960	75	4463
2026-01-03 08:24:06.92	339.76	18.50	-54.7	-56.6	14.4	0.00e+00	0	31	0	1139802112	75	4520
2026-01-03 08:24:07.93	339.66	18.39	-54.6	-56.4	14.5	0.00e+00	0	31	0	1141899264	75	4426
2026-01-03 08:24:08.94	339.56	18.28	-54.8	-56.7	14.4	0.00e+00	0	31	0	1143996416	75	4572
2026-01-03 08:24:09.95	339.46	18.16	-54.9	-56.8	14.4	0.00e+00	0	31	0	1145044992	75	4609
2026-01-03 08:24:10.96	339.37	18.05	-54.9	-56.8	14.4	0.00e+00	0	31	0	1147142144	75	4608
2026-01-03 08:24:11.97	339.27	17.94	-54.8	-56.6	14.4	0.00e+00	0	31	0	1149239296	75	4528
2026-01-03 08:24:12.98	339.18	17.83	-54.8	-56.6	14.4	0.00e+00	0	30	0	1151336448	75	4534
2026-01-03 08:24:13.98	339.08	17.72	-54.7	-56.5	14.4	0.00e+00	0	31	0	1153433600	75	4481
2026-01-03 08:24:14.99	338.99	17.61	-54.5	-56.3	14.5	0.00e+00	0	31	0	1154482176	75	4367
2026-01-03 08:24:16.00	338.90	17.50	-54.7	-56.5	14.4	0.00e+00	0	31	0	1156579328	75	4469
2026-01-03 08:24:17.01	338.80	17.39	-54.5	-56.3	14.5	0.00e+00	0	31	0	1158676480	75	4369
2026-01-03 08:24:18.01	338.71	17.29	-54.6	-56.4	14.5	0.00e+00	0	30	0	1160773632	75	4419
2026-01-03 08:24:19.02	338.62	17.18	-54.7	-56.6	14.4	0.00e+00	0	31	0	1162870784	75	4507
2026-01-03 08:24:20.03	338.53	17.07	-54.8	-56.7	14.4	0.00e+00	0	30	0	1163919360	75	4556
2026-01-03 08:24:21.04	338.44	16.96	-54.8	-56.7	14.3	0.00e+00	0	30	0	1166016512	75	4590
2026-01-03 08:24:22.05	338.35	16.86	-54.9	-56.8	14.3	0.00e+00	0	31	0	1168113664	75	4630
2026-01-03 08:24:23.05	338.27	16.75	-54.9	-56.9	14.2	0.00e+00	0	30	0	1170210816	75	4682
2026-01-03 08:24:24.06	338.18	16.64	-55.1	-57.2	14.1	0.00e+00	0	31	0	1172307968	75	4821
2026-01-03 08:24:25.07	338.09	16.54	-55.2	-57.2	14.1	0.00e+00	0	31	0	1173356544	75	4857
2026-01-03 08:24:26.09	338.01	16.43	-55.2	-57.3	14.1	0.00e+00	0	30	0	1175453696	75	4880
2026-01-03 08:24:27.10	337.92	16.33	-55.1	-57.2	14.2	0.00e+00	0	31	0	1177550848	75	4841
2026-01-03 08:24:28.11	337.84	16.22	-55.1	-57.1	14.2	0.00e+00	0	30	0	1179648000	75	4787
2026-01-03 08:24:29.11	337.75	16.12	-55.1	-57.1	14.2	0.00e+00	0	31	0	1181745152	75	4771
2026-01-03 08:24:30.12	337.67	16.02	-55.1	-57.1	14.1	0.00e+00	0	31	0	1182793728	75	4805
2026-01-03 08:24:31.13	337.58	15.91	-55.0	-57.0	14.2	0.00e+00	0	31	0	1184890880	75	4756
2026-01-03 08:24:32.14	337.50	15.81	-54.9	-56.8	14.3	0.00e+00	0	31	0	1186988032	75	4620
2026-01-03 08:24:33.15	337.42	15.71	-54.9	-56.8	14.3	0.00e+00	0	31	0	1189085184	75	4629
2026-01-03 08:24:34.16	337.34	15.60	-54.8	-56.7	14.4	0.00e+00	0	31	0	1191182336	75	4588
2026-01-03 08:24:35.17	337.26	15.50	-54.6	-56.5	14.5	0.00e+00	0	30	0	1193279488	75	4450
2026-01-03 08:24:36.18	337.18	15.40	-54.7	-56.5	14.5	0.00e+00	0	31	0	1194328064	75	4473
2026-01-03 08:24:37.19	337.10	15.30	-54.6	-56.5	14.5	0.00e+00	0	31	0	1196425216	75	4450
2026-01-03 08:24:38.20	337.02	15.20	-54.7	-56.5	14.4	0.00e+00	0	31	0	1198522368	75	4485
2026-01-03 08:24:39.21	336.94	15.10	-54.7	-56.5	14.4	0.00e+00	0	31	0	1200619520	75	4478
2026-01-03 08:24:40.22	336.86	15.00	-54.7	-56.5	14.5	0.00e+00	0	31	0	1202716672	75	4473
2026-01-03 08:24:41.23	336.79	14.90	-54.7	-56.6	14.4	0.00e+00	0	31	0	1203765248	75	4530
2026-01-03 08:24:42.24	336.71	14.80	-54.7	-56.6	14.4	0.00e+00	0	31	0	1205862400	75	4529
2026-01-03 08:24:43.25	336.63	14.70	-54.8	-56.7	14.3	0.00e+00	0	30	0	1207959552	75	4561
2026-01-03 08:24:44.25	336.56	14.60	-54.8	-56.7	14.3	0.00e+00	0	30	0	1210056704	75	4578
2026-01-03 08:24:45.26	336.48	14.50	-55.0	-57.0	14.2	0.00e+00	0	31	0	1212153856	75	4725
2026-01-03 08:24:46.27	336.41	14.40	-55.0	-56.9	14.2	0.00e+00	0	31	0	1213202432	75	4694
2026-01-03 08:24:47.28	336.33	14.31	-55.0	-57.0	14.2	0.00e+00	0	31	0	1215299584	75	4740
2026-01-03 08:24:48.29	336.26	14.21	-55.2	-57.3	14.0	0.00e+00	0	31	0	1217396736	75	4917
2026-01-03 08:24:49.30	336.19	14.11	-55.3	-57.4	14.0	0.00e+00	0	30	0	1219493888	76	4692
2026-01-03 08:24:50.31	336.11	14.02	-55.3	-57.4	14.1	0.00e+00	0	31	0	1221591040	76	4686
2026-01-03 08:24:51.31	336.04	13.92	-55.4	-57.6	13.9	0.00e+00	0	31	0	1222639616	76	4779
2026-01-03 08:24:52.32	335.97	13.82	-55.4	-57.5	14.0	0.00e+00	0	30	0	1224736768	76	4709
2026-01-03 08:24:53.33	335.90	13.73	-55.4	-57.5	14.0	0.00e+00	0	30	0	1226833920	76	4732
2026-01-03 08:24:54.34	335.83	13.63	-55.4	-57.6	13.9	0.00e+00	0	31	0	1228931072	76	4776
2026-01-03 08:24:55.35	335.76	13.54	-55.4	-57.6	13.9	0.00e+00	0	30	0	1231028224	76	4781
2026-01-03 08:24:56.36	335.69	13.44	-55.3	-57.3	14.1	0.00e+00	0	31	0	1232076800	76	4631
2026-01-03 08:24:57.37	335.62	13.35	-55.4	-57.6	13.9	0.00e+00	0	30	0	1234173952	76	4781
2026-01-03 08:24:58.37	335.55	13.26	-55.3	-57.4	14.1	0.00e+00	0	31	0	1236271104	76	4667
2026-01-03 08:24:59.38	335.48	13.16	-55.3	-57.4	14.0	0.00e+00	0	31	0	1238368256	76	4682
2026-01-03 08:25:00.39	335.41	13.07	-55.5	-57.6	13.9	0.00e+00	0	31	0	1240465408	76	4802
2026-01-03 08:25:01.39	335.35	12.98	-55.4	-57.4	14.0	0.00e+00	0	31	0	1241513984	76	4699
2026-01-03 08:25:02.40	335.28	12.88	-55.4	-57.5	14.0	0.00e+00	0	31	0	1243611136	76	4750
2026-01-03 08:25:03.41	335.21	12.79	-55.4	-57.5	14.0	0.00e+00	0	31	0	1245708288	76	4707
2026-01-03 08:25:04.42	335.15	12.70	-55.5	-57.6	13.9	0.00e+00	0	31	0	1247805440	76	4797
