passes_logs/2026/01/03/R3.2S_Murmansk/R3.2S_Murmansk__20260103_200848_TY-39_rec.log

#Pass ID: 20260103_200848_TY-39
#Satellite: TY-39
#Configuration: TY-39
#almurnet v.1.7.20251203
#Start time: 2026-01-03 20:08:48

#Version: 2.2.20231116
#Station: R3.2S_Murmansk
#Location: 33.079688 lon 68.888172 lat
#TLE: 1 51832U 22019J   26003.30338723  .00004627  00000-0  22037-3 0  9999
#TLE: 2 51832  97.3673  70.2783 0010397  87.0815 273.1609 15.19575985212752

#Time	Az	El	Level	Level2	SNR	BER	BlckErr	Temp	State	Recorded	gain1	gain2
2026-01-03 20:08:48.33	212.36	2.00	-58.7	-61.9	3.7	0.00e+00	0	31	0	0	84	20547
2026-01-03 20:08:49.31	212.46	2.06	-58.7	-62.0	3.7	0.00e+00	0	31	104	0	84	20652
2026-01-03 20:08:50.30	212.55	2.12	-58.7	-61.9	3.7	0.00e+00	0	31	104	0	84	20575
2026-01-03 20:08:51.30	212.65	2.18	-58.7	-61.9	3.6	0.00e+00	0	31	104	0	84	20621
2026-01-03 20:08:52.30	212.75	2.24	-58.7	-61.9	3.7	0.00e+00	0	31	104	0	84	20549
2026-01-03 20:08:53.30	212.85	2.30	-58.7	-61.9	3.6	0.00e+00	0	31	104	0	84	20592
2026-01-03 20:08:54.29	212.95	2.36	-58.7	-61.9	3.7	0.00e+00	0	31	104	0	84	20597
2026-01-03 20:08:55.30	213.05	2.42	-58.7	-62.0	3.7	0.00e+00	0	31	104	0	84	20639
2026-01-03 20:08:56.30	213.15	2.48	-58.7	-62.0	3.7	0.00e+00	0	31	104	0	84	20735
2026-01-03 20:08:57.28	213.25	2.54	-58.7	-61.9	3.7	0.00e+00	0	31	104	0	84	20621
2026-01-03 20:08:58.29	213.35	2.60	-58.7	-62.0	3.7	0.00e+00	0	31	104	0	84	20654
2026-01-03 20:08:59.29	213.45	2.66	-58.7	-62.0	3.7	0.00e+00	0	32	104	0	84	20663
2026-01-03 20:09:00.29	213.55	2.72	-58.7	-62.0	3.7	0.00e+00	0	32	104	0	84	20660
2026-01-03 20:09:01.28	213.65	2.78	-58.7	-62.0	3.7	0.00e+00	0	31	104	0	84	20680
2026-01-03 20:09:02.28	213.76	2.84	-58.7	-62.0	3.7	0.00e+00	0	32	104	0	84	20666
2026-01-03 20:09:03.27	213.86	2.90	-58.7	-61.9	3.7	0.00e+00	0	32	104	0	84	20624
2026-01-03 20:09:04.26	213.96	2.97	-58.7	-61.9	3.7	0.00e+00	0	32	104	0	84	20583
2026-01-03 20:09:05.25	214.07	3.03	-58.7	-61.9	3.6	0.00e+00	0	32	104	0	84	20611
2026-01-03 20:09:06.24	214.17	3.09	-58.7	-61.9	3.6	0.00e+00	0	32	104	0	84	20608
2026-01-03 20:09:07.24	214.28	3.15	-58.7	-61.9	3.7	0.00e+00	0	32	104	0	84	20625
2026-01-03 20:09:08.24	214.38	3.21	-58.7	-61.9	3.7	0.00e+00	0	32	104	0	84	20619
2026-01-03 20:09:09.24	214.49	3.27	-58.7	-61.9	3.7	0.00e+00	0	32	104	0	84	20559
2026-01-03 20:09:10.23	214.60	3.34	-58.7	-61.9	3.6	0.00e+00	0	32	104	0	84	20602
2026-01-03 20:09:11.22	214.70	3.40	-58.7	-61.9	3.7	0.00e+00	0	32	104	0	84	20589
2026-01-03 20:09:12.22	214.81	3.46	-58.7	-62.0	3.7	0.00e+00	0	32	104	0	84	20635
2026-01-03 20:09:13.22	214.92	3.52	-58.7	-62.0	3.6	0.00e+00	0	32	104	0	84	20705
2026-01-03 20:09:14.22	215.03	3.59	-58.7	-62.0	3.7	0.00e+00	0	32	104	0	84	20675
2026-01-03 20:09:15.21	215.14	3.65	-58.7	-62.0	3.7	0.00e+00	0	32	104	0	84	20669
2026-01-03 20:09:16.20	215.25	3.71	-58.7	-62.0	3.7	0.00e+00	0	32	104	0	84	20646
2026-01-03 20:09:17.19	215.36	3.77	-58.7	-61.9	3.7	0.00e+00	0	32	104	0	84	20574
2026-01-03 20:09:18.19	215.47	3.84	-58.7	-61.9	3.6	0.00e+00	0	32	104	0	84	20612
2026-01-03 20:09:19.18	215.58	3.90	-58.7	-61.9	3.7	0.00e+00	0	32	104	0	84	20618
2026-01-03 20:09:20.18	215.70	3.96	-58.7	-61.9	3.7	0.00e+00	0	32	104	0	84	20577
2026-01-03 20:09:21.17	215.81	4.02	-58.7	-62.0	3.7	0.00e+00	0	32	104	0	84	20634
2026-01-03 20:09:22.17	215.92	4.09	-58.7	-61.9	3.7	0.00e+00	0	32	104	0	84	20583
2026-01-03 20:09:23.16	216.04	4.15	-58.7	-62.0	3.6	0.00e+00	0	32	104	0	84	20657
2026-01-03 20:09:24.16	216.15	4.22	-58.7	-62.0	3.6	0.00e+00	0	32	104	0	84	20637
2026-01-03 20:09:25.16	216.27	4.28	-58.7	-61.9	3.7	0.00e+00	0	33	104	0	84	20590
2026-01-03 20:09:26.16	216.39	4.34	-58.7	-61.9	3.7	0.00e+00	0	32	104	0	84	20581
2026-01-03 20:09:27.15	216.50	4.41	-58.7	-62.0	3.7	0.00e+00	0	32	104	0	84	20646
2026-01-03 20:09:28.14	216.62	4.47	-58.7	-61.9	3.7	0.00e+00	0	33	104	0	84	20574
2026-01-03 20:09:29.14	216.74	4.54	-58.7	-61.9	3.7	0.00e+00	0	33	104	0	84	20576
2026-01-03 20:09:30.14	216.86	4.60	-58.7	-61.9	3.6	0.00e+00	0	33	104	0	84	20524
2026-01-03 20:09:31.14	216.98	4.66	-58.7	-62.0	3.7	0.00e+00	0	33	104	0	84	20671
2026-01-03 20:09:32.14	217.10	4.73	-58.7	-62.0	3.7	0.00e+00	0	33	104	0	84	20666
2026-01-03 20:09:33.14	217.22	4.79	-58.7	-61.9	3.6	0.00e+00	0	33	104	0	84	20600
2026-01-03 20:09:34.14	217.34	4.86	-58.7	-61.9	3.7	0.00e+00	0	33	104	0	84	20560
2026-01-03 20:09:35.14	217.47	4.93	-58.7	-62.0	3.7	0.00e+00	0	33	104	0	84	20710
2026-01-03 20:09:36.14	217.59	4.99	-58.7	-62.0	3.6	0.00e+00	0	33	104	0	84	20674
2026-01-03 20:09:37.14	217.71	5.06	-58.7	-62.0	3.7	0.00e+00	0	33	104	0	84	20649
2026-01-03 20:09:38.14	217.84	5.12	-59.1	-62.3	3.7	0.00e+00	0	33	104	0	84	21512
2026-01-03 20:09:39.14	217.96	5.19	-58.7	-61.9	3.6	0.00e+00	0	33	104	0	84	20485
2026-01-03 20:09:40.13	218.09	5.25	-58.8	-62.1	3.7	0.00e+00	0	33	104	0	84	20890
2026-01-03 20:09:41.13	218.22	5.32	-58.8	-62.0	3.7	0.00e+00	0	33	104	0	84	20757
2026-01-03 20:09:42.13	218.34	5.39	-58.7	-61.9	3.7	0.00e+00	0	33	104	0	84	20559
2026-01-03 20:09:43.12	218.47	5.45	-58.6	-61.9	3.7	0.00e+00	0	33	104	0	84	20446
2026-01-03 20:09:44.12	218.60	5.52	-58.8	-62.1	3.7	0.00e+00	0	33	104	0	84	20916
2026-01-03 20:09:45.11	218.73	5.58	-58.8	-62.0	3.7	0.00e+00	0	33	104	0	84	20800
2026-01-03 20:09:46.11	218.86	5.65	-58.7	-61.9	3.7	0.00e+00	0	33	104	0	84	20561
2026-01-03 20:09:47.11	218.99	5.72	-58.7	-61.9	3.7	0.00e+00	0	33	104	0	84	20505
2026-01-03 20:09:48.11	219.12	5.78	-58.9	-62.1	3.7	0.00e+00	0	33	104	0	84	21014
2026-01-03 20:09:49.11	219.25	5.85	-58.8	-62.0	3.7	0.00e+00	0	33	104	0	84	20847
2026-01-03 20:09:50.10	219.39	5.92	-58.7	-62.0	3.7	0.00e+00	0	33	104	0	84	20733
2026-01-03 20:09:51.10	219.52	5.98	-58.7	-61.9	3.7	0.00e+00	0	33	104	0	84	20580
2026-01-03 20:09:52.10	219.66	6.05	-58.9	-62.1	3.7	0.00e+00	0	33	104	0	84	21023
2026-01-03 20:09:53.10	219.79	6.12	-58.8	-62.1	3.7	0.00e+00	0	33	104	0	84	20966
2026-01-03 20:09:54.10	219.93	6.19	-58.8	-62.0	3.7	0.00e+00	0	33	104	0	84	20771
2026-01-03 20:09:55.09	220.06	6.25	-58.7	-62.0	3.7	0.00e+00	0	33	104	0	84	20681
2026-01-03 20:09:56.09	220.20	6.32	-58.9	-62.2	3.7	0.00e+00	0	33	104	0	84	21132
2026-01-03 20:09:57.09	220.34	6.39	-58.9	-62.1	3.7	0.00e+00	0	33	104	0	84	21056
2026-01-03 20:09:58.09	220.48	6.46	-58.8	-62.0	3.7	0.00e+00	0	33	104	0	84	20831
2026-01-03 20:09:59.08	220.62	6.52	-58.7	-62.0	3.7	0.00e+00	0	33	104	0	84	20747
2026-01-03 20:10:00.08	220.76	6.59	-58.9	-62.2	3.6	0.00e+00	0	33	104	0	84	21208
2026-01-03 20:10:01.09	220.90	6.66	-58.9	-62.1	3.7	0.00e+00	0	33	104	0	84	21104
2026-01-03 20:10:02.08	221.04	6.73	-50.0	-50.5	8.8	3.25e-02	0	34	0	16777216	67	14637
2026-01-03 20:10:03.08	221.19	6.80	-49.9	-50.4	8.7	1.33e-02	0	34	0	92274688	66	15414
2026-01-03 20:10:04.07	221.33	6.87	-49.0	-49.4	9.4	8.70e-03	0	34	0	167772160	65	14546
2026-01-03 20:10:05.07	221.48	6.94	-47.5	-47.8	10.5	2.21e-03	0	34	0	243269632	62	14407
2026-01-03 20:10:06.06	221.62	7.00	-46.4	-46.7	11.0	8.32e-05	0	34	0	318767104	59	15063
2026-01-03 20:10:07.06	221.77	7.07	-45.9	-46.3	11.3	1.18e-04	0	34	0	394264576	59	14316
2026-01-03 20:10:08.05	221.91	7.14	-45.2	-45.5	11.6	6.90e-06	0	34	0	469762048	57	14753
2026-01-03 20:10:09.05	222.06	7.21	-44.9	-45.3	11.8	0.00e+00	0	34	0	545259520	57	14306
2026-01-03 20:10:10.04	222.21	7.28	-44.8	-45.1	11.8	0.00e+00	0	34	0	620756992	56	14882
2026-01-03 20:10:11.04	222.36	7.35	-44.7	-45.0	11.8	0.00e+00	0	34	0	696254464	56	14769
2026-01-03 20:10:12.04	222.51	7.42	-44.7	-45.0	11.8	0.00e+00	0	34	0	771751936	56	14686
2026-01-03 20:10:13.03	222.66	7.49	-44.6	-44.9	11.9	0.00e+00	0	34	0	838860800	56	14478
2026-01-03 20:10:14.03	222.82	7.56	-44.8	-45.1	11.8	0.00e+00	0	34	0	914358272	56	14913
2026-01-03 20:10:15.02	222.97	7.63	-44.8	-45.1	11.8	0.00e+00	0	34	0	989855744	56	14870
2026-01-03 20:10:16.02	223.12	7.70	-44.9	-45.2	11.8	6.90e-06	0	34	0	1065353216	56	15015
2026-01-03 20:10:17.01	223.28	7.77	-44.8	-45.1	11.8	0.00e+00	0	34	0	1140850688	56	14801
2026-01-03 20:10:18.01	223.43	7.84	-44.5	-44.8	11.9	0.00e+00	0	34	0	1216348160	56	14416
2026-01-03 20:10:19.01	223.59	7.91	-44.6	-44.9	11.9	0.00e+00	0	35	0	1291845632	56	14482
2026-01-03 20:10:20.00	223.75	7.98	-44.7	-45.0	11.9	0.00e+00	0	34	0	1367343104	56	14656
2026-01-03 20:10:20.99	223.90	8.05	-44.6	-44.9	12.0	0.00e+00	0	34	0	1442840576	56	14466
2026-01-03 20:10:21.99	224.06	8.12	-44.6	-44.9	11.9	0.00e+00	0	34	0	1509949440	56	14466
2026-01-03 20:10:22.99	224.23	8.19	-44.6	-44.9	11.9	0.00e+00	0	34	0	1585446912	56	14546
2026-01-03 20:10:23.98	224.39	8.26	-44.6	-44.9	12.0	0.00e+00	0	35	0	1660944384	56	14478
2026-01-03 20:10:24.97	224.55	8.33	-44.5	-44.8	12.0	1.38e-05	0	35	0	1736441856	56	14398
2026-01-03 20:10:25.96	224.71	8.40	-44.6	-44.9	11.9	0.00e+00	0	35	0	1811939328	56	14605
2026-01-03 20:10:26.96	224.88	8.47	-44.5	-44.8	12.0	0.00e+00	0	35	0	1887436800	56	14320
2026-01-03 20:10:27.95	225.04	8.54	-44.5	-44.8	12.0	0.00e+00	0	35	0	1962934272	56	14383
2026-01-03 20:10:28.95	225.21	8.61	-44.4	-44.7	12.1	0.00e+00	0	35	0	2038431744	56	14208
2026-01-03 20:10:29.94	225.37	8.68	-44.5	-44.8	12.0	0.00e+00	0	35	0	2113929216	56	14293
2026-01-03 20:10:30.94	225.54	8.76	-44.4	-44.7	12.1	0.00e+00	0	35	0	2181038080	56	14180
2026-01-03 20:10:31.93	225.71	8.83	-44.4	-44.7	12.1	0.00e+00	0	35	0	2256535552	56	14227
2026-01-03 20:10:32.93	225.88	8.90	-44.2	-44.5	12.1	0.00e+00	0	35	0	2332033024	55	14747
2026-01-03 20:10:33.92	226.05	8.97	-44.1	-44.4	12.1	0.00e+00	0	35	0	2407530496	55	14584
2026-01-03 20:10:34.92	226.22	9.04	-44.2	-44.4	12.2	0.00e+00	0	35	0	2483027968	55	14586
2026-01-03 20:10:35.92	226.40	9.11	-44.3	-44.6	12.1	0.00e+00	0	35	0	2558525440	55	14818
2026-01-03 20:10:36.91	226.57	9.19	-44.2	-44.5	12.2	0.00e+00	0	35	0	2634022912	55	14613
2026-01-03 20:10:37.91	226.75	9.26	-44.1	-44.3	12.2	0.00e+00	0	35	0	2709520384	55	14411
2026-01-03 20:10:38.91	226.92	9.33	-44.1	-44.5	12.2	0.00e+00	0	35	0	2785017856	55	14610
2026-01-03 20:10:39.91	227.10	9.40	-44.1	-44.4	12.2	0.00e+00	0	35	0	2860515328	55	14508
2026-01-03 20:10:40.91	227.28	9.48	-44.1	-44.4	12.2	0.00e+00	0	35	0	2927624192	55	14476
2026-01-03 20:10:41.91	227.46	9.55	-44.1	-44.4	12.2	0.00e+00	0	35	0	3003121664	55	14521
2026-01-03 20:10:42.90	227.64	9.62	-44.1	-44.4	12.2	0.00e+00	0	35	0	3078619136	55	14463
2026-01-03 20:10:43.90	227.82	9.69	-43.9	-44.2	12.3	0.00e+00	0	35	0	3154116608	55	14201
2026-01-03 20:10:44.90	228.01	9.77	-43.9	-44.2	12.3	0.00e+00	0	35	0	3229614080	55	14225
2026-01-03 20:10:45.89	228.19	9.84	-44.0	-44.3	12.3	0.00e+00	0	35	0	3305111552	55	14345
2026-01-03 20:10:46.89	228.37	9.91	-43.9	-44.2	12.3	0.00e+00	0	35	0	3380609024	55	14250
2026-01-03 20:10:47.88	228.56	9.98	-43.9	-44.2	12.3	0.00e+00	0	35	0	3456106496	55	14181
2026-01-03 20:10:48.88	228.75	10.06	-43.8	-44.1	12.3	0.00e+00	0	35	0	3531603968	54	14878
2026-01-03 20:10:49.88	228.94	10.13	-43.8	-44.1	12.3	0.00e+00	0	35	0	3607101440	54	14842
2026-01-03 20:10:50.88	229.13	10.20	-43.8	-44.1	12.3	0.00e+00	0	35	0	3682598912	54	14910
2026-01-03 20:10:51.88	229.32	10.27	-43.8	-44.1	12.3	0.00e+00	0	35	0	3758096384	54	14836
2026-01-03 20:10:52.88	229.51	10.35	-43.8	-44.1	12.3	0.00e+00	0	35	0	3833593856	54	14858
2026-01-03 20:10:53.88	229.70	10.42	-43.7	-44.0	12.3	0.00e+00	0	35	0	3909091328	54	14710
2026-01-03 20:10:54.87	229.90	10.49	-43.7	-44.0	12.3	0.00e+00	0	35	0	3984588800	54	14737
2026-01-03 20:10:55.87	230.09	10.57	-43.7	-44.0	12.3	0.00e+00	0	35	0	4060086272	54	14643
2026-01-03 20:10:56.88	230.29	10.64	-43.7	-44.0	12.3	0.00e+00	0	35	0	4127195136	54	14697
2026-01-03 20:10:57.88	230.49	10.71	-43.7	-44.0	12.3	0.00e+00	0	35	0	4202692608	54	14704
2026-01-03 20:10:58.86	230.68	10.79	-43.7	-44.0	12.4	0.00e+00	0	35	0	4278190080	54	14739
2026-01-03 20:10:59.87	230.89	10.86	-43.6	-43.9	12.4	0.00e+00	0	35	0	4353687552	54	14490
2026-01-03 20:11:00.86	231.09	10.93	-43.6	-43.9	12.4	0.00e+00	0	35	0	4429185024	54	14516
2026-01-03 20:11:01.86	231.29	11.01	-43.6	-43.9	12.4	0.00e+00	0	35	0	4504682496	54	14469
2026-01-03 20:11:02.86	231.49	11.08	-43.6	-43.9	12.4	0.00e+00	0	35	0	4580179968	54	14576
2026-01-03 20:11:03.86	231.70	11.15	-43.6	-43.9	12.4	0.00e+00	0	35	0	4655677440	54	14582
2026-01-03 20:11:04.86	231.91	11.23	-43.5	-43.8	12.4	0.00e+00	0	35	0	4731174912	54	14385
2026-01-03 20:11:05.86	232.11	11.30	-43.5	-43.7	12.5	0.00e+00	0	35	0	4806672384	54	14266
2026-01-03 20:11:06.87	232.32	11.37	-43.5	-43.7	12.5	0.00e+00	0	35	0	4873781248	54	14251
2026-01-03 20:11:07.87	232.53	11.45	-43.4	-43.7	12.5	0.00e+00	0	35	0	4949278720	54	14178
2026-01-03 20:11:08.86	232.74	11.52	-43.5	-43.8	12.5	0.00e+00	0	35	0	5024776192	54	14293
2026-01-03 20:11:09.86	232.96	11.59	-43.2	-43.5	12.5	0.00e+00	0	35	0	5100273664	53	14740
2026-01-03 20:11:10.86	233.17	11.67	-43.3	-43.6	12.5	0.00e+00	0	35	0	5175771136	53	14894
2026-01-03 20:11:11.86	233.39	11.74	-43.3	-43.6	12.5	0.00e+00	0	35	0	5251268608	53	14897
2026-01-03 20:11:12.86	233.60	11.81	-43.4	-43.7	12.5	0.00e+00	0	35	0	5326766080	53	15005
2026-01-03 20:11:13.85	233.82	11.89	-43.3	-43.6	12.5	0.00e+00	0	35	0	5402263552	53	14845
2026-01-03 20:11:14.85	234.04	11.96	-43.2	-43.5	12.5	0.00e+00	0	35	0	5477761024	53	14698
2026-01-03 20:11:15.84	234.26	12.03	-43.1	-43.4	12.6	0.00e+00	0	36	0	5553258496	53	14537
2026-01-03 20:11:16.84	234.48	12.10	-43.2	-43.4	12.6	0.00e+00	0	35	0	5628755968	53	14594
2026-01-03 20:11:17.83	234.70	12.18	-43.2	-43.4	12.5	0.00e+00	0	35	0	5704253440	53	14574
2026-01-03 20:11:18.83	234.92	12.25	-43.1	-43.4	12.5	0.00e+00	0	35	0	5779750912	53	14562
2026-01-03 20:11:19.82	235.15	12.32	-43.0	-43.3	12.6	0.00e+00	0	36	0	5855248384	53	14323
2026-01-03 20:11:20.82	235.37	12.40	-43.1	-43.4	12.6	0.00e+00	0	36	0	5922357248	53	14450
2026-01-03 20:11:21.82	235.60	12.47	-43.2	-43.4	12.6	0.00e+00	0	36	0	5997854720	53	14582
2026-01-03 20:11:22.81	235.83	12.54	-43.1	-43.3	12.6	0.00e+00	0	36	0	6073352192	53	14400
2026-01-03 20:11:23.81	236.06	12.61	-43.0	-43.3	12.6	0.00e+00	0	36	0	6148849664	53	14360
2026-01-03 20:11:24.80	236.29	12.69	-43.0	-43.3	12.6	0.00e+00	0	36	0	6224347136	53	14336
2026-01-03 20:11:25.80	236.52	12.76	-43.1	-43.4	12.6	0.00e+00	0	36	0	6299844608	53	14441
2026-01-03 20:11:26.79	236.76	12.83	-42.9	-43.2	12.6	0.00e+00	0	36	0	6375342080	53	14168
2026-01-03 20:11:27.78	236.99	12.90	-42.8	-43.1	12.6	0.00e+00	0	36	0	6450839552	52	14863
2026-01-03 20:11:28.78	237.23	12.97	-42.9	-43.1	12.6	0.00e+00	0	36	0	6526337024	52	14930
2026-01-03 20:11:29.77	237.46	13.04	-42.9	-43.1	12.6	0.00e+00	0	36	0	6593445888	52	14926
2026-01-03 20:11:30.77	237.71	13.12	-42.8	-43.1	12.6	0.00e+00	0	36	0	6668943360	52	14889
2026-01-03 20:11:31.77	237.95	13.19	-42.8	-43.1	12.7	0.00e+00	0	36	0	6744440832	52	14848
2026-01-03 20:11:32.76	238.19	13.26	-42.9	-43.2	12.6	0.00e+00	0	36	0	6819938304	52	14961
2026-01-03 20:11:33.76	238.43	13.33	-42.8	-43.0	12.7	0.00e+00	0	36	0	6895435776	52	14762
2026-01-03 20:11:34.75	238.68	13.40	-42.8	-43.1	12.7	0.00e+00	0	36	0	6970933248	52	14797
2026-01-03 20:11:35.75	238.92	13.47	-42.7	-43.0	12.7	0.00e+00	0	36	0	7046430720	52	14728
2026-01-03 20:11:36.76	239.17	13.55	-42.8	-43.1	12.7	0.00e+00	0	36	0	7121928192	52	14780
2026-01-03 20:11:37.76	239.42	13.62	-42.7	-43.0	12.7	0.00e+00	0	36	0	7197425664	52	14738
2026-01-03 20:11:38.74	239.67	13.69	-42.7	-43.0	12.7	0.00e+00	0	36	0	7272923136	52	14679
2026-01-03 20:11:39.75	239.93	13.76	-42.8	-43.0	12.7	0.00e+00	0	36	0	7348420608	52	14758
2026-01-03 20:11:40.75	240.18	13.83	-42.7	-43.0	12.7	0.00e+00	0	36	0	7423918080	52	14610
2026-01-03 20:11:41.75	240.44	13.90	-42.7	-43.0	12.7	0.00e+00	0	36	0	7491026944	52	14705
2026-01-03 20:11:42.75	240.69	13.97	-42.7	-42.9	12.7	0.00e+00	0	36	0	7566524416	52	14577
2026-01-03 20:11:43.75	240.95	14.04	-42.8	-43.0	12.7	0.00e+00	0	36	0	7642021888	52	14762
2026-01-03 20:11:44.74	241.21	14.11	-42.7	-43.0	12.7	0.00e+00	0	36	0	7717519360	52	14674
2026-01-03 20:11:45.75	241.47	14.18	-42.7	-43.0	12.7	0.00e+00	0	36	0	7793016832	52	14747
2026-01-03 20:11:46.74	241.73	14.25	-42.7	-43.0	12.7	0.00e+00	0	36	0	7868514304	52	14665
2026-01-03 20:11:47.73	241.99	14.31	-42.7	-43.0	12.7	0.00e+00	0	36	0	7944011776	52	14670
2026-01-03 20:11:48.74	242.26	14.38	-42.6	-42.8	12.8	0.00e+00	0	36	0	8019509248	52	14402
2026-01-03 20:11:49.73	242.53	14.45	-42.5	-42.7	12.9	0.00e+00	0	36	0	8095006720	52	14229
2026-01-03 20:11:50.74	242.80	14.52	-42.5	-42.8	12.8	0.00e+00	0	36	0	8170504192	52	14329
2026-01-03 20:11:51.74	243.07	14.59	-42.5	-42.7	12.9	0.00e+00	0	36	0	8246001664	52	14232
2026-01-03 20:11:52.73	243.34	14.66	-42.4	-42.7	12.8	0.00e+00	0	36	0	8321499136	52	14187
2026-01-03 20:11:53.73	243.61	14.72	-42.4	-42.7	12.9	0.00e+00	0	36	0	8396996608	52	14194
2026-01-03 20:11:54.73	243.88	14.79	-42.4	-42.7	12.9	0.00e+00	0	36	0	8472494080	52	14193
2026-01-03 20:11:55.72	244.16	14.86	-42.5	-42.7	12.9	0.00e+00	0	36	0	8539602944	52	14215
2026-01-03 20:11:56.72	244.43	14.92	-42.4	-42.6	12.9	0.00e+00	0	36	0	8615100416	52	14110
2026-01-03 20:11:57.70	244.71	14.99	-42.5	-42.8	12.7	0.00e+00	0	36	0	8690597888	51	15233
2026-01-03 20:11:58.70	244.99	15.05	-42.5	-42.8	12.8	0.00e+00	0	36	0	8766095360	51	15166
2026-01-03 20:11:59.70	245.27	15.12	-42.4	-42.7	12.8	0.00e+00	0	36	0	8841592832	51	15016
2026-01-03 20:12:00.71	245.55	15.18	-42.4	-42.6	12.8	0.00e+00	0	36	0	8917090304	51	14926
2026-01-03 20:12:01.71	245.84	15.25	-42.3	-42.6	12.8	0.00e+00	0	36	0	8992587776	51	14864
2026-01-03 20:12:02.71	246.12	15.31	-42.3	-42.6	12.8	0.00e+00	0	36	0	9068085248	51	14897
2026-01-03 20:12:03.70	246.41	15.38	-42.4	-42.7	12.8	0.00e+00	0	36	0	9143582720	51	14965
2026-01-03 20:12:04.70	246.70	15.44	-42.3	-42.6	12.9	0.00e+00	0	36	0	9219080192	51	14781
2026-01-03 20:12:05.70	246.99	15.50	-42.2	-42.5	12.9	0.00e+00	0	36	0	9294577664	51	14705
2026-01-03 20:12:06.70	247.28	15.57	-42.3	-42.5	12.9	0.00e+00	0	36	0	9370075136	51	14713
2026-01-03 20:12:07.70	247.57	15.63	-42.2	-42.5	12.9	0.00e+00	0	36	0	9437184000	51	14703
2026-01-03 20:12:08.71	247.87	15.69	-42.3	-42.6	12.8	0.00e+00	0	36	0	9512681472	51	14812
2026-01-03 20:12:09.70	248.16	15.75	-42.1	-42.4	12.9	0.00e+00	0	36	0	9588178944	51	14501
2026-01-03 20:12:10.70	248.46	15.81	-42.2	-42.4	12.9	0.00e+00	0	36	0	9663676416	51	14550
2026-01-03 20:12:11.70	248.76	15.88	-42.2	-42.4	12.9	0.00e+00	0	36	0	9739173888	51	14569
2026-01-03 20:12:12.70	249.06	15.94	-42.2	-42.4	12.9	0.00e+00	0	36	0	9814671360	51	14585
2026-01-03 20:12:13.70	249.36	16.00	-42.1	-42.4	12.9	0.00e+00	0	36	0	9890168832	51	14469
2026-01-03 20:12:14.69	249.66	16.05	-42.2	-42.4	12.9	0.00e+00	0	36	0	9965666304	51	14567
2026-01-03 20:12:15.68	249.96	16.11	-42.0	-42.3	13.0	0.00e+00	0	36	0	10041163776	51	14365
2026-01-03 20:12:16.68	250.26	16.17	-42.1	-42.3	12.9	0.00e+00	0	36	0	10116661248	51	14401
2026-01-03 20:12:17.67	250.57	16.23	-42.0	-42.3	13.0	0.00e+00	0	36	0	10183770112	51	14381
2026-01-03 20:12:18.66	250.87	16.29	-42.0	-42.3	13.0	0.00e+00	0	36	0	10259267584	51	14356
2026-01-03 20:12:19.65	251.18	16.34	-42.1	-42.3	13.0	0.00e+00	0	36	0	10334765056	51	14390
2026-01-03 20:12:20.64	251.48	16.40	-42.0	-42.3	13.0	0.00e+00	0	36	0	10410262528	51	14374
2026-01-03 20:12:21.64	251.80	16.45	-41.9	-42.2	13.0	0.00e+00	0	36	0	10485760000	51	14213
2026-01-03 20:12:22.63	252.11	16.51	-42.0	-42.3	13.0	0.00e+00	0	36	0	10561257472	51	14306
2026-01-03 20:12:23.62	252.42	16.56	-42.1	-42.4	13.0	0.00e+00	0	36	0	10636754944	51	14484
2026-01-03 20:12:24.61	252.73	16.62	-42.0	-42.3	13.0	0.00e+00	0	36	0	10712252416	51	14361
2026-01-03 20:12:25.60	253.04	16.67	-42.0	-42.2	13.0	0.00e+00	0	36	0	10787749888	51	14256
2026-01-03 20:12:26.59	253.36	16.72	-42.0	-42.2	13.0	0.00e+00	0	36	0	10854858752	51	14256
2026-01-03 20:12:27.58	253.68	16.77	-41.9	-42.2	13.0	0.00e+00	0	36	0	10930356224	51	14139
2026-01-03 20:12:28.57	253.99	16.82	-42.0	-42.2	13.0	0.00e+00	0	36	0	11005853696	51	14235
2026-01-03 20:12:29.57	254.32	16.87	-41.9	-42.2	13.0	0.00e+00	0	36	0	11081351168	51	14170
2026-01-03 20:12:30.56	254.64	16.92	-41.9	-42.2	13.0	0.00e+00	0	36	0	11156848640	51	14189
2026-01-03 20:12:31.56	254.96	16.97	-41.8	-42.1	13.0	0.00e+00	0	36	0	11232346112	50	14784
2026-01-03 20:12:32.55	255.28	17.02	-41.8	-42.0	13.0	0.00e+00	0	36	0	11307843584	50	14775
2026-01-03 20:12:33.54	255.61	17.07	-41.7	-42.0	13.0	0.00e+00	0	36	0	11383341056	50	14683
2026-01-03 20:12:34.53	255.93	17.12	-41.8	-42.1	13.0	0.00e+00	0	36	0	11458838528	50	14789
2026-01-03 20:12:35.53	256.26	17.16	-41.9	-42.1	13.0	0.00e+00	0	36	0	11525947392	50	14933
2026-01-03 20:12:36.53	256.59	17.21	-41.9	-42.1	13.0	0.00e+00	0	36	0	11601444864	50	14898
2026-01-03 20:12:37.53	256.92	17.26	-41.8	-42.0	13.0	0.00e+00	0	36	0	11676942336	50	14736
2026-01-03 20:12:38.52	257.25	17.30	-41.8	-42.1	13.0	0.00e+00	0	36	0	11752439808	50	14781
2026-01-03 20:12:39.52	257.59	17.35	-41.8	-42.0	13.0	0.00e+00	0	36	0	11827937280	50	14743
2026-01-03 20:12:40.51	257.92	17.39	-41.8	-42.0	13.0	0.00e+00	0	36	0	11903434752	50	14758
2026-01-03 20:12:41.52	258.26	17.43	-41.8	-42.1	13.0	0.00e+00	0	36	0	11978932224	50	14808
2026-01-03 20:12:42.52	258.59	17.47	-41.7	-41.9	13.0	0.00e+00	0	36	0	12054429696	50	14597
2026-01-03 20:12:43.52	258.93	17.51	-41.7	-41.9	13.0	0.00e+00	0	36	0	12129927168	50	14596
2026-01-03 20:12:44.52	259.27	17.56	-41.7	-42.0	13.0	0.00e+00	0	36	0	12205424640	50	14669
2026-01-03 20:12:45.52	259.61	17.60	-41.8	-42.1	13.0	0.00e+00	0	36	0	12280922112	50	14788
2026-01-03 20:12:46.52	259.95	17.63	-41.7	-41.9	13.1	0.00e+00	0	36	0	12356419584	50	14567
2026-01-03 20:12:47.52	260.29	17.67	-41.6	-41.9	13.1	0.00e+00	0	36	0	12431917056	50	14536
2026-01-03 20:12:48.52	260.64	17.71	-41.7	-42.0	13.0	0.00e+00	0	36	0	12499025920	50	14636
2026-01-03 20:12:49.52	260.98	17.75	-41.6	-41.8	13.1	0.00e+00	0	36	0	12582912000	50	14406
2026-01-03 20:12:50.51	261.32	17.78	-41.6	-41.9	13.1	0.00e+00	0	36	0	12650020864	50	14449
2026-01-03 20:12:51.51	261.67	17.82	-41.7	-42.0	13.1	0.00e+00	0	36	0	12725518336	50	14636
2026-01-03 20:12:52.50	262.01	17.85	-41.6	-41.9	13.1	0.00e+00	0	36	0	12801015808	50	14518
2026-01-03 20:12:53.50	262.36	17.88	-41.6	-41.9	13.1	0.00e+00	0	36	0	12876513280	50	14457
2026-01-03 20:12:54.49	262.71	17.91	-41.7	-42.0	13.1	0.00e+00	0	36	0	12952010752	50	14647
2026-01-03 20:12:55.49	263.06	17.95	-41.6	-41.8	13.1	0.00e+00	0	36	0	13027508224	50	14428
2026-01-03 20:12:56.50	263.41	17.98	-41.5	-41.8	13.1	0.00e+00	0	36	0	13103005696	50	14343
2026-01-03 20:12:57.50	263.76	18.01	-41.6	-41.8	13.1	0.00e+00	0	36	0	13178503168	50	14424
2026-01-03 20:12:58.50	264.11	18.03	-41.5	-41.8	13.1	0.00e+00	0	36	0	13254000640	50	14322
2026-01-03 20:12:59.50	264.46	18.06	-41.6	-41.8	13.1	0.00e+00	0	36	0	13329498112	50	14440
2026-01-03 20:13:00.49	264.81	18.09	-41.6	-41.9	13.1	0.00e+00	0	36	0	13404995584	50	14531
2026-01-03 20:13:01.49	265.17	18.11	-41.7	-42.0	13.1	0.00e+00	0	36	0	13480493056	50	14617
2026-01-03 20:13:02.49	265.52	18.14	-41.5	-41.8	13.1	0.00e+00	0	36	0	13547601920	50	14339
2026-01-03 20:13:03.49	265.88	18.16	-41.6	-41.8	13.1	0.00e+00	0	36	0	13623099392	50	14375
2026-01-03 20:13:04.49	266.23	18.19	-41.6	-41.8	13.1	0.00e+00	0	36	0	13698596864	50	14413
2026-01-03 20:13:05.48	266.59	18.21	-41.6	-41.9	13.1	0.00e+00	0	36	0	13774094336	50	14501
2026-01-03 20:13:06.49	266.95	18.23	-41.5	-41.8	13.1	0.00e+00	0	36	0	13849591808	50	14356
2026-01-03 20:13:07.48	267.30	18.25	-41.6	-41.9	13.1	0.00e+00	0	36	0	13925089280	50	14449
2026-01-03 20:13:08.48	267.66	18.27	-41.6	-41.9	13.1	0.00e+00	0	36	0	14000586752	50	14479
2026-01-03 20:13:09.48	268.02	18.29	-41.6	-41.9	13.1	0.00e+00	0	36	0	14076084224	50	14452
2026-01-03 20:13:10.49	268.38	18.31	-41.6	-41.8	13.1	0.00e+00	0	36	0	14151581696	50	14392
2026-01-03 20:13:11.49	268.74	18.32	-41.5	-41.8	13.2	0.00e+00	0	36	0	14227079168	50	14368
2026-01-03 20:13:12.49	269.10	18.34	-41.6	-41.9	13.1	0.00e+00	0	36	0	14302576640	50	14546
2026-01-03 20:13:13.49	269.46	18.35	-41.5	-41.8	13.2	0.00e+00	0	36	0	14378074112	50	14350
2026-01-03 20:13:14.49	269.82	18.37	-41.5	-41.8	13.1	0.00e+00	0	36	0	14453571584	50	14359
2026-01-03 20:13:15.48	270.18	18.38	-41.6	-41.9	13.2	0.00e+00	0	36	0	14529069056	50	14463
2026-01-03 20:13:16.49	270.54	18.39	-41.6	-41.9	13.1	0.00e+00	0	36	0	14604566528	50	14459
2026-01-03 20:13:17.49	270.90	18.40	-41.6	-41.8	13.1	0.00e+00	0	36	0	14680064000	50	14391
2026-01-03 20:13:18.48	271.26	18.41	-41.5	-41.8	13.1	0.00e+00	0	36	0	14747172864	50	14370
2026-01-03 20:13:19.48	271.62	18.42	-41.6	-41.8	13.1	0.00e+00	0	36	0	14822670336	50	14382
2026-01-03 20:13:20.46	271.98	18.43	-41.5	-41.8	13.1	0.00e+00	0	36	0	14898167808	50	14333
2026-01-03 20:13:21.46	272.34	18.43	-41.6	-41.8	13.1	0.00e+00	0	36	0	14973665280	50	14413
2026-01-03 20:13:22.45	272.70	18.44	-41.5	-41.8	13.1	0.00e+00	0	36	0	15049162752	50	14348
2026-01-03 20:13:23.45	273.06	18.44	-41.6	-41.8	13.1	0.00e+00	0	36	0	15124660224	50	14415
2026-01-03 20:13:24.44	273.42	18.45	-41.5	-41.8	13.1	0.00e+00	0	37	0	15200157696	50	14356
2026-01-03 20:13:25.43	273.78	18.45	-41.6	-41.8	13.1	0.00e+00	0	37	0	15275655168	50	14407
2026-01-03 20:13:26.44	274.15	18.45	-41.5	-41.8	13.1	0.00e+00	0	36	0	15351152640	50	14375
2026-01-03 20:13:27.43	274.51	18.45	-41.6	-41.8	13.1	0.00e+00	0	36	0	15426650112	50	14384
2026-01-03 20:13:28.42	274.87	18.45	-41.6	-41.8	13.1	0.00e+00	0	36	0	15493758976	50	14434
2026-01-03 20:13:29.42	275.23	18.45	-41.6	-41.8	13.1	0.00e+00	0	36	0	15569256448	50	14397
2026-01-03 20:13:30.42	275.59	18.45	-41.6	-41.8	13.1	0.00e+00	0	36	0	15644753920	50	14435
2026-01-03 20:13:31.42	275.96	18.45	-41.6	-41.9	13.1	0.00e+00	0	36	0	15720251392	50	14466
2026-01-03 20:13:32.41	276.32	18.44	-41.7	-42.0	13.1	0.00e+00	0	36	0	15795748864	50	14611
2026-01-03 20:13:33.41	276.68	18.44	-41.6	-41.8	13.1	0.00e+00	0	36	0	15871246336	50	14432
2026-01-03 20:13:34.41	277.04	18.43	-41.6	-41.9	13.2	0.00e+00	0	36	0	15946743808	50	14508
2026-01-03 20:13:35.42	277.41	18.42	-41.7	-41.9	13.1	0.00e+00	0	36	0	16022241280	50	14556
2026-01-03 20:13:36.42	277.77	18.41	-41.6	-41.9	13.1	0.00e+00	0	36	0	16097738752	50	14466
2026-01-03 20:13:37.40	278.12	18.41	-41.7	-41.9	13.1	0.00e+00	0	36	0	16164847616	50	14573
2026-01-03 20:13:38.40	278.49	18.40	-41.7	-41.9	13.1	0.00e+00	0	36	0	16240345088	50	14568
2026-01-03 20:13:39.38	278.84	18.38	-41.7	-41.9	13.1	0.00e+00	0	36	0	16315842560	50	14582
2026-01-03 20:13:40.37	279.20	18.37	-41.8	-42.0	13.1	0.00e+00	0	37	0	16391340032	50	14759
2026-01-03 20:13:41.37	279.56	18.36	-41.7	-42.0	13.1	0.00e+00	0	36	0	16466837504	50	14683
2026-01-03 20:13:42.37	279.92	18.34	-41.7	-42.0	13.1	0.00e+00	0	36	0	16542334976	50	14629
2026-01-03 20:13:43.37	280.28	18.33	-41.7	-41.9	13.1	0.00e+00	0	36	0	16617832448	50	14579
2026-01-03 20:13:44.37	280.64	18.31	-41.7	-41.9	13.1	0.00e+00	0	36	0	16693329920	50	14565
2026-01-03 20:13:45.36	280.99	18.30	-41.7	-42.0	13.1	0.00e+00	0	37	0	16768827392	50	14613
2026-01-03 20:13:46.37	281.35	18.28	-41.8	-42.1	13.1	0.00e+00	0	37	0	16835936256	50	14786
2026-01-03 20:13:47.36	281.71	18.26	-41.8	-42.0	13.1	0.00e+00	0	36	0	16911433728	50	14752
2026-01-03 20:13:48.36	282.07	18.24	-41.7	-42.0	13.1	0.00e+00	0	36	0	16986931200	50	14703
2026-01-03 20:13:49.36	282.42	18.22	-41.7	-42.0	13.1	0.00e+00	0	36	0	17062428672	50	14715
2026-01-03 20:13:50.36	282.78	18.20	-41.7	-42.0	13.1	0.00e+00	0	37	0	17137926144	50	14703
2026-01-03 20:13:51.35	283.13	18.17	-41.8	-42.1	13.1	0.00e+00	0	36	0	17213423616	50	14790
2026-01-03 20:13:52.35	283.49	18.15	-41.8	-42.1	13.1	0.00e+00	0	36	0	17288921088	50	14911
2026-01-03 20:13:53.34	283.84	18.13	-41.8	-42.0	13.1	0.00e+00	0	37	0	17364418560	50	14764
2026-01-03 20:13:54.34	284.19	18.10	-41.9	-42.2	13.1	0.00e+00	0	36	0	17439916032	50	14957
2026-01-03 20:13:55.34	284.54	18.07	-41.8	-42.1	13.0	0.00e+00	0	37	0	17515413504	50	14862
2026-01-03 20:13:56.34	284.90	18.05	-41.9	-42.1	13.1	0.00e+00	0	36	0	17590910976	50	14921
2026-01-03 20:13:57.34	285.25	18.02	-41.8	-42.1	13.0	0.00e+00	0	36	0	17666408448	50	14889
2026-01-03 20:13:58.34	285.60	17.99	-41.8	-42.1	13.1	0.00e+00	0	36	0	17741905920	50	14866
2026-01-03 20:13:59.33	285.94	17.96	-41.9	-42.1	13.0	0.00e+00	0	36	0	17817403392	50	14942
2026-01-03 20:14:00.33	286.29	17.93	-41.8	-42.1	13.1	0.00e+00	0	37	0	17892900864	50	14836
2026-01-03 20:14:01.32	286.64	17.90	-41.8	-42.1	13.0	0.00e+00	0	36	0	17960009728	50	14868
2026-01-03 20:14:02.31	286.98	17.86	-41.9	-42.2	13.0	0.00e+00	0	37	0	18035507200	50	14991
2026-01-03 20:14:03.31	287.33	17.83	-41.9	-42.1	13.1	0.00e+00	0	37	0	18111004672	50	14944
2026-01-03 20:14:04.31	287.67	17.80	-42.0	-42.2	13.0	0.00e+00	0	36	0	18186502144	50	15068
2026-01-03 20:14:05.31	288.02	17.76	-42.0	-42.2	13.0	0.00e+00	0	37	0	18261999616	50	15082
2026-01-03 20:14:06.30	288.36	17.73	-42.0	-42.3	13.0	0.00e+00	0	37	0	18337497088	50	15128
2026-01-03 20:14:07.30	288.70	17.69	-42.0	-42.3	13.0	0.00e+00	0	37	0	18412994560	50	15168
2026-01-03 20:14:08.31	289.05	17.65	-41.9	-42.2	13.0	0.00e+00	0	37	0	18488492032	50	15006
2026-01-03 20:14:09.31	289.39	17.61	-41.9	-42.2	13.0	0.00e+00	0	37	0	18563989504	50	15033
2026-01-03 20:14:10.30	289.72	17.57	-42.0	-42.3	13.0	0.00e+00	0	37	0	18639486976	50	15209
2026-01-03 20:14:11.29	290.06	17.53	-42.1	-42.3	13.0	0.00e+00	0	37	0	18714984448	50	15295
2026-01-03 20:14:12.29	290.40	17.49	-42.0	-42.3	13.0	0.00e+00	0	37	0	18782093312	50	15189
2026-01-03 20:14:13.28	290.73	17.45	-42.0	-42.3	13.0	0.00e+00	0	37	0	18857590784	50	15233
2026-01-03 20:14:14.29	291.07	17.41	-42.1	-42.3	13.0	0.00e+00	0	37	0	18933088256	50	15245
2026-01-03 20:14:15.28	291.40	17.37	-42.1	-42.3	13.0	0.00e+00	0	37	0	19008585728	50	15269
2026-01-03 20:14:16.28	291.74	17.32	-42.0	-42.3	13.0	0.00e+00	0	36	0	19084083200	50	15214
2026-01-03 20:14:17.27	292.06	17.28	-42.1	-42.4	13.0	0.00e+00	0	36	0	19159580672	50	15328
2026-01-03 20:14:18.27	292.40	17.23	-42.1	-42.3	13.0	0.00e+00	0	37	0	19235078144	50	15260
2026-01-03 20:14:19.26	292.72	17.19	-42.1	-42.3	13.0	0.00e+00	0	37	0	19310575616	50	15287
2026-01-03 20:14:20.26	293.05	17.14	-42.1	-42.3	13.0	0.00e+00	0	37	0	19386073088	50	15255
2026-01-03 20:14:21.26	293.38	17.10	-42.1	-42.4	13.0	0.00e+00	0	37	0	19461570560	50	15405
2026-01-03 20:14:22.26	293.71	17.05	-42.2	-42.4	13.0	0.00e+00	0	37	0	19528679424	50	15453
2026-01-03 20:14:23.25	294.03	17.00	-42.3	-42.6	12.9	0.00e+00	0	37	0	19604176896	50	15752
2026-01-03 20:14:24.24	294.35	16.95	-42.4	-42.7	12.9	0.00e+00	0	37	0	19679674368	50	15851
2026-01-03 20:14:25.23	294.67	16.90	-42.2	-42.5	13.0	0.00e+00	0	37	0	19755171840	50	15496
2026-01-03 20:14:26.22	294.99	16.85	-42.2	-42.5	13.0	0.00e+00	0	37	0	19830669312	50	15519
2026-01-03 20:14:27.22	295.31	16.80	-42.3	-42.5	13.0	0.00e+00	0	36	0	19906166784	50	15644
2026-01-03 20:14:28.22	295.63	16.75	-42.3	-42.6	13.0	0.00e+00	0	37	0	19981664256	50	15672
2026-01-03 20:14:29.22	295.95	16.70	-42.2	-42.5	12.9	0.00e+00	0	37	0	20057161728	50	15541
2026-01-03 20:14:30.21	296.26	16.64	-42.3	-42.6	12.9	0.00e+00	0	36	0	20132659200	50	15696
2026-01-03 20:14:31.22	296.58	16.59	-42.2	-42.5	13.0	0.00e+00	0	36	0	20199768064	50	15478
2026-01-03 20:14:32.21	296.89	16.54	-42.3	-42.5	12.9	0.00e+00	0	37	0	20275265536	50	15622
2026-01-03 20:14:33.21	297.20	16.48	-42.3	-42.6	12.9	0.00e+00	0	37	0	20350763008	50	15690
2026-01-03 20:14:34.21	297.51	16.43	-42.2	-42.5	12.9	0.00e+00	0	37	0	20426260480	50	15596
2026-01-03 20:14:35.21	297.82	16.37	-42.3	-42.5	12.9	0.00e+00	0	37	0	20501757952	50	15631
2026-01-03 20:14:36.21	298.13	16.31	-42.3	-42.5	12.9	0.00e+00	0	37	0	20577255424	50	15610
2026-01-03 20:14:37.20	298.44	16.26	-42.3	-42.5	12.9	0.00e+00	0	37	0	20652752896	50	15628
2026-01-03 20:14:38.20	298.74	16.20	-42.3	-42.6	12.9	0.00e+00	0	37	0	20728250368	50	15722
2026-01-03 20:14:39.20	299.05	16.14	-42.4	-42.7	12.9	0.00e+00	0	37	0	20803747840	50	15874
2026-01-03 20:14:40.20	299.35	16.08	-42.3	-42.6	12.9	0.00e+00	0	37	0	20879245312	50	15747
2026-01-03 20:14:41.19	299.65	16.03	-42.4	-42.6	12.9	0.00e+00	0	37	0	20954742784	50	15823
2026-01-03 20:14:42.19	299.95	15.97	-42.4	-42.6	12.9	0.00e+00	0	37	0	21030240256	50	15823
2026-01-03 20:14:43.19	300.25	15.91	-42.4	-42.6	12.9	0.00e+00	0	37	0	21105737728	50	15822
2026-01-03 20:14:44.18	300.54	15.85	-42.3	-42.6	12.9	0.00e+00	0	37	0	21181235200	50	15798
2026-01-03 20:14:45.18	300.84	15.79	-42.5	-42.8	12.9	0.00e+00	0	37	0	21256732672	50	16064
2026-01-03 20:14:46.18	301.14	15.72	-42.5	-42.8	12.8	0.00e+00	0	37	0	21332230144	50	16113
2026-01-03 20:14:47.18	301.43	15.66	-42.5	-42.8	12.9	0.00e+00	0	37	0	21407727616	50	16120
2026-01-03 20:14:48.18	301.72	15.60	-42.6	-42.8	12.8	0.00e+00	0	37	0	21474836480	50	16164
2026-01-03 20:14:49.17	302.01	15.54	-42.6	-42.9	12.8	0.00e+00	0	37	0	21550333952	50	16242
2026-01-03 20:14:50.17	302.30	15.48	-42.5	-42.8	12.8	0.00e+00	0	37	0	21625831424	50	16176
2026-01-03 20:14:51.17	302.59	15.41	-42.6	-42.8	12.9	0.00e+00	0	36	0	21701328896	51	15282
2026-01-03 20:14:52.17	302.87	15.35	-42.5	-42.8	12.9	0.00e+00	0	37	0	21776826368	51	15201
2026-01-03 20:14:53.17	303.16	15.29	-42.6	-42.9	12.9	0.00e+00	0	36	0	21852323840	51	15329
2026-01-03 20:14:54.16	303.44	15.22	-42.6	-42.9	12.9	0.00e+00	0	37	0	21927821312	51	15407
2026-01-03 20:14:55.16	303.72	15.16	-42.6	-42.9	12.9	0.00e+00	0	37	0	22003318784	51	15393
2026-01-03 20:14:56.17	304.01	15.09	-42.7	-43.0	12.8	0.00e+00	0	37	0	22078816256	51	15569
2026-01-03 20:14:57.16	304.28	15.03	-42.7	-43.0	12.9	0.00e+00	0	37	0	22145925120	51	15509
2026-01-03 20:14:58.16	304.56	14.96	-42.7	-43.0	12.8	0.00e+00	0	37	0	22221422592	51	15609
2026-01-03 20:14:59.16	304.84	14.89	-42.8	-43.0	12.8	0.00e+00	0	36	0	22296920064	51	15643
2026-01-03 20:15:00.15	305.11	14.83	-42.8	-43.1	12.8	0.00e+00	0	37	0	22372417536	51	15676
2026-01-03 20:15:01.13	305.38	14.76	-42.9	-43.1	12.8	0.00e+00	0	37	0	22447915008	51	15786
2026-01-03 20:15:02.12	305.65	14.70	-42.8	-43.1	12.8	0.00e+00	0	37	0	22523412480	51	15744
2026-01-03 20:15:03.11	305.92	14.63	-42.9	-43.2	12.8	0.00e+00	0	37	0	22598909952	51	15931
2026-01-03 20:15:04.10	306.18	14.56	-42.8	-43.1	12.8	0.00e+00	0	37	0	22674407424	51	15765
2026-01-03 20:15:05.11	306.45	14.50	-43.0	-43.2	12.8	0.00e+00	0	37	0	22749904896	51	16008
2026-01-03 20:15:06.11	306.72	14.43	-42.9	-43.2	12.8	0.00e+00	0	37	0	22825402368	51	15930
2026-01-03 20:15:07.10	306.98	14.36	-43.0	-43.3	12.8	0.00e+00	0	37	0	22892511232	51	16044
2026-01-03 20:15:08.09	307.25	14.29	-43.0	-43.2	12.8	0.00e+00	0	37	0	22968008704	51	15991
2026-01-03 20:15:09.09	307.51	14.22	-42.9	-43.2	12.8	0.00e+00	0	37	0	23043506176	51	15947
2026-01-03 20:15:10.09	307.77	14.15	-43.0	-43.3	12.8	0.00e+00	0	37	0	23119003648	51	16067
2026-01-03 20:15:11.08	308.03	14.09	-43.0	-43.3	12.7	0.00e+00	0	37	0	23194501120	51	16094
2026-01-03 20:15:12.07	308.28	14.02	-43.0	-43.2	12.8	0.00e+00	0	37	0	23269998592	51	16015
2026-01-03 20:15:13.07	308.54	13.95	-43.1	-43.4	12.7	0.00e+00	0	37	0	23345496064	51	16242
2026-01-03 20:15:14.08	308.80	13.88	-43.2	-43.5	12.7	0.00e+00	0	37	0	23420993536	52	15603
2026-01-03 20:15:15.07	309.05	13.81	-43.0	-43.3	12.7	0.00e+00	0	37	0	23496491008	52	15213
2026-01-03 20:15:16.07	309.30	13.74	-43.1	-43.4	12.7	0.00e+00	0	37	0	23563599872	52	15304
2026-01-03 20:15:17.07	309.55	13.67	-43.1	-43.4	12.7	0.00e+00	0	37	0	23639097344	52	15337
2026-01-03 20:15:18.06	309.80	13.60	-43.0	-43.3	12.8	0.00e+00	0	37	0	23714594816	52	15282
2026-01-03 20:15:19.06	310.05	13.53	-43.2	-43.5	12.7	0.00e+00	0	37	0	23790092288	52	15512
2026-01-03 20:15:20.06	310.29	13.46	-43.1	-43.4	12.7	0.00e+00	0	37	0	23865589760	52	15309
2026-01-03 20:15:21.06	310.54	13.39	-43.2	-43.5	12.7	0.00e+00	0	37	0	23941087232	52	15508
2026-01-03 20:15:22.05	310.78	13.31	-43.2	-43.5	12.7	0.00e+00	0	37	0	24016584704	52	15645
2026-01-03 20:15:23.05	311.02	13.24	-43.4	-43.7	12.6	0.00e+00	0	37	0	24092082176	52	15865
2026-01-03 20:15:24.04	311.26	13.17	-43.5	-43.8	12.6	0.00e+00	0	37	0	24167579648	52	16063
2026-01-03 20:15:25.03	311.50	13.10	-43.3	-43.5	12.6	0.00e+00	0	37	0	24243077120	52	15649
2026-01-03 20:15:26.02	311.74	13.03	-43.2	-43.5	12.7	0.00e+00	0	37	0	24310185984	52	15550
2026-01-03 20:15:27.01	311.97	12.96	-43.3	-43.5	12.6	0.00e+00	0	37	0	24385683456	52	15647
2026-01-03 20:15:28.01	312.21	12.89	-43.2	-43.5	12.7	0.00e+00	0	36	0	24461180928	52	15516
2026-01-03 20:15:29.01	312.44	12.82	-43.2	-43.5	12.7	0.00e+00	0	37	0	24536678400	52	15554
2026-01-03 20:15:30.00	312.67	12.74	-43.3	-43.6	12.6	0.00e+00	0	37	0	24612175872	52	15785
2026-01-03 20:15:30.99	312.90	12.67	-43.3	-43.6	12.6	0.00e+00	0	37	0	24687673344	52	15770
2026-01-03 20:15:31.98	313.13	12.60	-43.3	-43.5	12.6	0.00e+00	0	37	0	24763170816	52	15649
2026-01-03 20:15:32.98	313.36	12.53	-43.3	-43.6	12.6	0.00e+00	0	37	0	24838668288	52	15701
2026-01-03 20:15:33.97	313.59	12.46	-43.3	-43.6	12.6	0.00e+00	0	37	0	24905777152	52	15763
2026-01-03 20:15:34.97	313.81	12.39	-43.3	-43.6	12.6	0.00e+00	0	37	0	24981274624	52	15787
2026-01-03 20:15:35.97	314.04	12.31	-43.4	-43.7	12.6	0.00e+00	0	37	0	25056772096	52	15861
2026-01-03 20:15:36.96	314.26	12.24	-43.4	-43.6	12.6	0.00e+00	0	37	0	25132269568	52	15831
2026-01-03 20:15:37.95	314.48	12.17	-43.4	-43.6	12.6	0.00e+00	0	37	0	25207767040	52	15831
2026-01-03 20:15:38.94	314.70	12.10	-43.4	-43.7	12.6	0.00e+00	0	37	0	25283264512	52	15914
2026-01-03 20:15:39.94	314.92	12.02	-43.6	-43.9	12.5	0.00e+00	0	37	0	25358761984	52	16215
2026-01-03 20:15:40.93	315.14	11.95	-43.5	-43.8	12.5	0.00e+00	0	37	0	25434259456	52	16117
2026-01-03 20:15:41.93	315.36	11.88	-43.6	-43.8	12.6	0.00e+00	0	37	0	25509756928	53	15264
2026-01-03 20:15:42.93	315.57	11.81	-43.6	-43.9	12.5	0.00e+00	0	37	0	25585254400	53	15402
2026-01-03 20:15:43.93	315.79	11.73	-43.6	-43.9	12.5	0.00e+00	0	37	0	25660751872	53	15369
2026-01-03 20:15:44.93	316.00	11.66	-43.5	-43.8	12.6	0.00e+00	0	37	0	25736249344	53	15190
2026-01-03 20:15:45.93	316.22	11.59	-43.5	-43.8	12.6	0.00e+00	0	37	0	25811746816	53	15226
2026-01-03 20:15:46.93	316.43	11.51	-43.5	-43.8	12.6	0.00e+00	0	37	0	25887244288	53	15245
2026-01-03 20:15:47.92	316.63	11.44	-43.6	-43.8	12.6	0.00e+00	0	37	0	25962741760	53	15283
2026-01-03 20:15:48.92	316.84	11.37	-43.6	-43.9	12.5	0.00e+00	0	37	0	26029850624	53	15464
2026-01-03 20:15:49.92	317.05	11.30	-43.6	-43.9	12.6	0.00e+00	0	37	0	26105348096	53	15330
2026-01-03 20:15:50.92	317.26	11.22	-43.7	-44.0	12.5	0.00e+00	0	37	0	26180845568	53	15517
2026-01-03 20:15:51.93	317.47	11.15	-43.7	-44.0	12.4	0.00e+00	0	37	0	26256343040	53	15607
2026-01-03 20:15:52.92	317.67	11.08	-43.7	-44.0	12.5	0.00e+00	0	37	0	26331840512	53	15567
2026-01-03 20:15:53.93	317.87	11.00	-43.8	-44.1	12.4	0.00e+00	0	37	0	26407337984	53	15751
2026-01-03 20:15:54.93	318.07	10.93	-59.5	-62.8	3.7	0.00e+00	0	36	104	26432503808	84	22785
2026-01-03 20:15:55.92	318.27	10.86	-59.5	-62.8	3.7	0.00e+00	0	36	104	26432503808	84	22733
2026-01-03 20:15:56.92	318.47	10.79	-59.5	-62.8	3.7	0.00e+00	0	36	104	26432503808	84	22686
2026-01-03 20:15:57.92	318.67	10.71	-59.5	-62.7	3.7	0.00e+00	0	36	104	26432503808	84	22605
2026-01-03 20:15:58.92	318.87	10.64	-59.5	-62.8	3.7	0.00e+00	0	36	104	26432503808	84	22659
2026-01-03 20:15:59.91	319.06	10.57	-59.5	-62.7	3.7	0.00e+00	0	36	104	26432503808	84	22517
2026-01-03 20:16:00.92	319.26	10.49	-59.6	-62.9	3.7	0.00e+00	0	36	104	26432503808	84	22896
2026-01-03 20:16:01.91	319.45	10.42	-59.5	-62.7	3.7	0.00e+00	0	36	104	26432503808	84	22581
2026-01-03 20:16:02.92	319.64	10.35	-59.5	-62.7	3.7	0.00e+00	0	36	104	26432503808	84	22485
2026-01-03 20:16:03.92	319.83	10.28	-59.4	-62.7	3.6	0.00e+00	0	36	104	26432503808	84	22459
2026-01-03 20:16:04.92	320.02	10.20	-59.6	-62.8	3.7	0.00e+00	0	36	104	26432503808	84	22786
2026-01-03 20:16:05.92	320.21	10.13	-59.4	-62.7	3.6	0.00e+00	0	36	104	26432503808	84	22476
2026-01-03 20:16:06.91	320.40	10.06	-59.4	-62.7	3.7	0.00e+00	0	36	104	26432503808	84	22420
2026-01-03 20:16:07.90	320.58	9.99	-59.4	-62.6	3.7	0.00e+00	0	36	104	26432503808	84	22288
2026-01-03 20:16:08.90	320.77	9.92	-59.5	-62.8	3.7	0.00e+00	0	36	104	26432503808	84	22627
2026-01-03 20:16:09.89	320.95	9.84	-59.4	-62.7	3.7	0.00e+00	0	36	104	26432503808	84	22371
2026-01-03 20:16:10.89	321.14	9.77	-59.4	-62.6	3.7	0.00e+00	0	36	104	26432503808	84	22172
2026-01-03 20:16:11.89	321.32	9.70	-59.3	-62.5	3.7	0.00e+00	0	36	104	26432503808	84	22063
2026-01-03 20:16:12.89	321.50	9.63	-59.5	-62.7	3.7	0.00e+00	0	36	104	26432503808	84	22542
2026-01-03 20:16:13.88	321.68	9.56	-59.3	-62.6	3.7	0.00e+00	0	36	104	26432503808	84	22245
2026-01-03 20:16:14.87	321.85	9.48	-59.3	-62.6	3.7	0.00e+00	0	36	104	26432503808	84	22201
2026-01-03 20:16:15.87	322.03	9.41	-59.3	-62.5	3.7	0.00e+00	0	36	104	26432503808	84	22080
2026-01-03 20:16:16.86	322.21	9.34	-59.4	-62.6	3.7	0.00e+00	0	36	104	26432503808	84	22232
2026-01-03 20:16:17.85	322.38	9.27	-59.3	-62.5	3.7	0.00e+00	0	36	104	26432503808	84	22042
2026-01-03 20:16:18.85	322.56	9.20	-59.3	-62.5	3.7	0.00e+00	0	36	104	26432503808	84	22004
2026-01-03 20:16:19.84	322.73	9.13	-59.2	-62.5	3.7	0.00e+00	0	36	104	26432503808	84	21880
2026-01-03 20:16:20.84	322.90	9.06	-59.3	-62.6	3.7	0.00e+00	0	36	104	26432503808	84	22189
2026-01-03 20:16:21.84	323.07	8.98	-59.2	-62.5	3.7	0.00e+00	0	36	104	26432503808	84	21915
2026-01-03 20:16:22.84	323.25	8.91	-59.2	-62.4	3.7	0.00e+00	0	36	104	26432503808	84	21803
2026-01-03 20:16:23.84	323.42	8.84	-59.2	-62.4	3.7	0.00e+00	0	36	104	26432503808	84	21739
2026-01-03 20:16:24.84	323.58	8.77	-59.3	-62.5	3.7	0.00e+00	0	36	104	26432503808	84	22102
2026-01-03 20:16:25.83	323.75	8.70	-59.2	-62.4	3.7	0.00e+00	0	36	104	26432503808	84	21783
2026-01-03 20:16:26.83	323.92	8.63	-59.2	-62.4	3.7	0.00e+00	0	35	104	26432503808	84	21742
2026-01-03 20:16:27.82	324.08	8.56	-59.1	-62.4	3.7	0.00e+00	0	36	104	26432503808	84	21635
2026-01-03 20:16:28.82	324.25	8.49	-59.2	-62.5	3.7	0.00e+00	0	36	104	26432503808	84	21934
2026-01-03 20:16:29.81	324.41	8.42	-59.1	-62.4	3.7	0.00e+00	0	36	104	26432503808	84	21645
2026-01-03 20:16:30.81	324.57	8.35	-59.1	-62.4	3.7	0.00e+00	0	35	104	26432503808	84	21670
2026-01-03 20:16:31.81	324.73	8.28	-59.1	-62.3	3.7	0.00e+00	0	36	104	26432503808	84	21522
2026-01-03 20:16:32.81	324.90	8.21	-59.2	-62.4	3.7	0.00e+00	0	35	104	26432503808	84	21817
2026-01-03 20:16:33.80	325.05	8.14	-59.1	-62.3	3.7	0.00e+00	0	36	104	26432503808	84	21557
2026-01-03 20:16:34.80	325.21	8.07	-59.1	-62.3	3.7	0.00e+00	0	35	104	26432503808	84	21603
2026-01-03 20:16:35.79	325.37	8.00	-59.0	-62.3	3.7	0.00e+00	0	35	104	26432503808	84	21466
2026-01-03 20:16:36.79	325.53	7.93	-59.1	-62.4	3.7	0.00e+00	0	36	104	26432503808	84	21723
2026-01-03 20:16:37.78	325.68	7.86	-59.0	-62.3	3.7	0.00e+00	0	35	104	26432503808	84	21511
2026-01-03 20:16:38.78	325.84	7.79	-59.0	-62.3	3.7	0.00e+00	0	36	104	26432503808	84	21432
2026-01-03 20:16:39.78	325.99	7.72	-59.0	-62.2	3.7	0.00e+00	0	36	104	26432503808	84	21262
2026-01-03 20:16:40.78	326.15	7.65	-59.1	-62.3	3.7	0.00e+00	0	36	104	26432503808	84	21599
2026-01-03 20:16:41.78	326.30	7.58	-59.0	-62.3	3.6	0.00e+00	0	36	104	26432503808	84	21418
2026-01-03 20:16:42.78	326.45	7.51	-59.0	-62.3	3.7	0.00e+00	0	36	104	26432503808	84	21429
2026-01-03 20:16:43.78	326.60	7.44	-58.9	-62.2	3.7	0.00e+00	0	35	104	26432503808	84	21206
2026-01-03 20:16:44.77	326.75	7.37	-59.1	-62.3	3.7	0.00e+00	0	36	104	26432503808	84	21460
2026-01-03 20:16:45.77	326.90	7.30	-59.0	-62.2	3.7	0.00e+00	0	35	104	26432503808	84	21226
2026-01-03 20:16:46.77	327.05	7.23	-59.0	-62.2	3.7	0.00e+00	0	35	104	26432503808	84	21179
2026-01-03 20:16:47.77	327.20	7.16	-58.9	-62.1	3.7	0.00e+00	0	35	104	26432503808	84	21062
2026-01-03 20:16:48.77	327.35	7.10	-59.0	-62.3	3.7	0.00e+00	0	35	104	26432503808	84	21406
2026-01-03 20:16:49.76	327.49	7.03	-58.9	-62.2	3.7	0.00e+00	0	35	104	26432503808	84	21150
2026-01-03 20:16:50.76	327.64	6.96	-58.9	-62.2	3.7	0.00e+00	0	35	104	26432503808	84	21122
2026-01-03 20:16:51.75	327.78	6.89	-58.8	-62.1	3.7	0.00e+00	0	35	104	26432503808	84	20953
2026-01-03 20:16:52.75	327.92	6.82	-58.9	-62.2	3.7	0.00e+00	0	35	104	26432503808	84	21229
2026-01-03 20:16:53.76	328.07	6.75	-58.8	-62.1	3.7	0.00e+00	0	35	104	26432503808	84	20953
2026-01-03 20:16:54.76	328.21	6.69	-58.8	-62.1	3.7	0.00e+00	0	35	104	26432503808	84	20988
2026-01-03 20:16:55.76	328.35	6.62	-58.8	-62.0	3.7	0.00e+00	0	35	104	26432503808	84	20826
2026-01-03 20:16:56.76	328.49	6.55	-58.9	-62.2	3.7	0.00e+00	0	36	104	26432503808	84	21189
2026-01-03 20:16:57.76	328.63	6.48	-58.8	-62.1	3.7	0.00e+00	0	35	104	26432503808	84	20924
2026-01-03 20:16:58.76	328.77	6.41	-58.8	-62.1	3.7	0.00e+00	0	35	104	26432503808	84	20895
2026-01-03 20:16:59.76	328.91	6.35	-58.7	-62.0	3.7	0.00e+00	0	35	104	26432503808	84	20696
2026-01-03 20:17:00.76	329.04	6.28	-58.9	-62.1	3.7	0.00e+00	0	35	104	26432503808	84	21042
2026-01-03 20:17:01.75	329.18	6.21	-58.8	-62.0	3.7	0.00e+00	0	35	104	26432503808	84	20797
2026-01-03 20:17:02.75	329.32	6.15	-58.8	-62.0	3.7	0.00e+00	0	35	104	26432503808	84	20866
2026-01-03 20:17:03.74	329.45	6.08	-58.7	-61.9	3.7	0.00e+00	0	35	104	26432503808	84	20543
2026-01-03 20:17:04.74	329.58	6.01	-58.8	-62.1	3.7	0.00e+00	0	35	104	26432503808	84	20907
2026-01-03 20:17:05.74	329.72	5.95	-58.7	-62.0	3.7	0.00e+00	0	35	104	26432503808	84	20674
2026-01-03 20:17:06.74	329.85	5.88	-58.7	-62.0	3.7	0.00e+00	0	35	104	26432503808	84	20769
2026-01-03 20:17:07.74	329.98	5.81	-58.6	-61.9	3.7	0.00e+00	0	35	104	26432503808	84	20499
2026-01-03 20:17:08.73	330.11	5.75	-58.8	-62.0	3.7	0.00e+00	0	35	104	26432503808	84	20781
2026-01-03 20:17:09.74	330.24	5.68	-58.7	-61.9	3.7	0.00e+00	0	35	104	26432503808	84	20493
2026-01-03 20:17:10.73	330.37	5.62	-58.7	-61.9	3.7	0.00e+00	0	35	104	26432503808	84	20532
2026-01-03 20:17:11.73	330.50	5.55	-58.6	-61.8	3.7	0.00e+00	0	35	104	26432503808	84	20323
2026-01-03 20:17:12.72	330.63	5.48	-58.7	-62.0	3.7	0.00e+00	0	35	104	26432503808	84	20715
2026-01-03 20:17:13.72	330.76	5.42	-58.6	-61.8	3.7	0.00e+00	0	35	104	26432503808	84	20391
2026-01-03 20:17:14.72	330.88	5.35	-58.6	-61.8	3.7	0.00e+00	0	35	104	26432503808	84	20394
2026-01-03 20:17:15.73	331.01	5.29	-58.5	-61.7	3.7	0.00e+00	0	35	104	26432503808	84	20103
2026-01-03 20:17:16.73	331.14	5.22	-58.7	-61.9	3.7	0.00e+00	0	35	104	26432503808	84	20602
2026-01-03 20:17:17.73	331.26	5.16	-58.5	-61.8	3.7	0.00e+00	0	35	104	26432503808	84	20298
2026-01-03 20:17:18.73	331.39	5.09	-58.5	-61.8	3.7	0.00e+00	0	35	104	26432503808	84	20248
2026-01-03 20:17:19.73	331.51	5.03	-58.4	-61.7	3.7	0.00e+00	0	35	104	26432503808	84	19990
2026-01-03 20:17:20.73	331.63	4.96	-58.5	-61.8	3.7	0.00e+00	0	35	104	26432503808	84	20314
2026-01-03 20:17:21.74	331.76	4.89	-59.1	-62.4	3.7	0.00e+00	0	35	104	26432503808	84	21798
2026-01-03 20:17:22.73	331.88	4.83	-59.6	-62.9	3.7	0.00e+00	0	35	104	26432503808	84	22986
2026-01-03 20:17:23.73	332.00	4.77	-60.0	-63.3	3.7	0.00e+00	0	35	104	26432503808	85	22643
2026-01-03 20:17:24.73	332.12	4.70	-60.3	-63.5	3.7	0.00e+00	0	35	104	26432503808	86	22030
2026-01-03 20:17:25.72	332.24	4.64	-60.5	-63.8	3.7	0.00e+00	0	35	104	26432503808	86	22643
2026-01-03 20:17:26.72	332.36	4.57	-60.6	-63.9	3.7	0.00e+00	0	35	104	26432503808	87	21703
2026-01-03 20:17:27.71	332.47	4.51	-60.7	-64.0	3.7	0.00e+00	0	35	104	26432503808	87	22003
2026-01-03 20:17:28.71	332.59	4.45	-60.8	-64.1	3.7	0.00e+00	0	35	104	26432503808	87	22207
2026-01-03 20:17:29.71	332.71	4.38	-60.9	-64.2	3.7	0.00e+00	0	35	104	26432503808	87	22505
2026-01-03 20:17:30.70	332.82	4.32	-61.0	-64.3	3.7	0.00e+00	0	35	104	26432503808	87	22715
2026-01-03 20:17:31.70	332.94	4.26	-61.0	-64.3	3.7	0.00e+00	0	35	104	26432503808	87	22785
2026-01-03 20:17:32.69	333.06	4.19	-61.1	-64.4	3.7	0.00e+00	0	35	104	26432503808	87	22888
2026-01-03 20:17:33.69	333.17	4.13	-61.1	-64.4	3.7	0.00e+00	0	35	104	26432503808	88	21675
2026-01-03 20:17:34.68	333.28	4.07	-61.1	-64.4	3.7	0.00e+00	0	35	104	26432503808	88	21681
2026-01-03 20:17:35.68	333.40	4.00	-61.2	-64.4	3.7	0.00e+00	0	35	104	26432503808	88	21740
2026-01-03 20:17:36.68	333.51	3.94	-61.2	-64.4	3.7	0.00e+00	0	35	104	26432503808	88	21717
2026-01-03 20:17:37.67	333.62	3.88	-61.2	-64.4	3.7	0.00e+00	0	35	104	26432503808	88	21847
2026-01-03 20:17:38.68	333.73	3.81	-61.2	-64.4	3.7	0.00e+00	0	35	104	26432503808	88	21786
2026-01-03 20:17:39.67	333.84	3.75	-61.2	-64.4	3.7	0.00e+00	0	35	104	26432503808	88	21744
2026-01-03 20:17:40.67	333.95	3.69	-61.2	-64.4	3.7	0.00e+00	0	35	104	26432503808	88	21807
2026-01-03 20:17:41.67	334.06	3.63	-61.2	-64.4	3.7	0.00e+00	0	35	104	26432503808	88	21851
2026-01-03 20:17:42.68	334.18	3.56	-61.2	-64.5	3.7	0.00e+00	0	35	104	26432503808	88	21922
2026-01-03 20:17:43.68	334.28	3.50	-61.1	-64.4	3.7	0.00e+00	0	35	104	26432503808	88	21661
2026-01-03 20:17:44.68	334.39	3.44	-61.1	-64.3	3.7	0.00e+00	0	35	104	26432503808	88	21575
2026-01-03 20:17:45.68	334.50	3.38	-61.1	-64.3	3.7	0.00e+00	0	35	104	26432503808	88	21568
2026-01-03 20:17:46.68	334.61	3.32	-61.1	-64.3	3.7	0.00e+00	0	35	104	26432503808	88	21522
2026-01-03 20:17:47.68	334.71	3.26	-61.1	-64.3	3.6	0.00e+00	0	35	104	26432503808	88	21557
2026-01-03 20:17:48.68	334.82	3.19	-61.1	-64.3	3.7	0.00e+00	0	35	104	26432503808	88	21494
2026-01-03 20:17:49.68	334.93	3.13	-61.1	-64.3	3.7	0.00e+00	0	35	104	26432503808	88	21564
2026-01-03 20:17:50.68	335.03	3.07	-61.0	-64.3	3.7	0.00e+00	0	35	104	26432503808	88	21408
2026-01-03 20:17:51.67	335.13	3.01	-61.0	-64.3	3.7	0.00e+00	0	35	104	26432503808	88	21456
2026-01-03 20:17:52.67	335.24	2.95	-61.0	-64.3	3.7	0.00e+00	0	35	104	26432503808	88	21457
2026-01-03 20:17:53.67	335.34	2.89	-61.0	-64.3	3.7	0.00e+00	0	35	104	26432503808	88	21396
2026-01-03 20:17:54.67	335.45	2.83	-61.0	-64.2	3.7	0.00e+00	0	35	104	26432503808	88	21345
2026-01-03 20:17:55.67	335.55	2.77	-61.0	-64.3	3.7	0.00e+00	0	35	104	26432503808	88	21415
2026-01-03 20:17:56.68	335.65	2.70	-60.9	-64.2	3.7	0.00e+00	0	35	104	26432503808	88	21356
2026-01-03 20:17:57.67	335.75	2.64	-60.9	-64.2	3.7	0.00e+00	0	35	104	26432503808	88	21300
2026-01-03 20:17:58.67	335.85	2.58	-60.9	-64.3	3.7	0.00e+00	0	35	104	26432503808	88	21372
2026-01-03 20:17:59.67	335.95	2.52	-60.9	-64.2	3.7	0.00e+00	0	35	104	26432503808	88	21270
2026-01-03 20:18:00.67	336.05	2.46	-60.9	-64.2	3.7	0.00e+00	0	35	104	26432503808	88	21222
2026-01-03 20:18:01.67	336.15	2.40	-60.9	-64.2	3.7	0.00e+00	0	35	104	26432503808	88	21258
2026-01-03 20:18:02.66	336.25	2.34	-60.9	-64.2	3.7	0.00e+00	0	35	104	26432503808	88	21238
2026-01-03 20:18:03.66	336.35	2.28	-60.9	-64.2	3.7	0.00e+00	0	35	104	26432503808	88	21250
2026-01-03 20:18:04.67	336.45	2.22	-60.9	-64.2	3.7	0.00e+00	0	35	104	26432503808	88	21188
2026-01-03 20:18:05.67	336.54	2.16	-60.9	-64.2	3.7	0.00e+00	0	35	104	26432503808	88	21215
2026-01-03 20:18:06.68	336.64	2.10	-60.8	-64.2	3.7	0.00e+00	0	35	104	26432503808	88	21210
2026-01-03 20:18:07.68	336.74	2.04	-60.8	-64.2	3.7	0.00e+00	0	35	104	26432503808	88	21249
2026-01-03 20:18:08.67	336.83	1.99	-60.8	-64.2	3.7	0.00e+00	0	35	104	26432503808	88	21178
2026-01-03 20:18:09.68	336.93	1.93	-60.8	-64.2	3.7	0.00e+00	0	35	104	26432503808	88	21175
2026-01-03 20:18:10.67	337.03	1.87	-60.8	-64.1	3.7	0.00e+00	0	35	104	26432503808	88	21113

#Closed at: 2026-01-03 20:18:11
#Recorded file [26432 MB]: D:/lorett/data/31004_260103_230848.dat