passes_logs/2026/01/03/R3.2S_Murmansk/R3.2S_Murmansk__20260103_131836_SUOMI_NPP_rec.log

#Pass ID: 20260103_131836_SUOMI NPP
#Satellite: SUOMI NPP
#Configuration: NPP
#almurnet v.1.7.20251203
#Start time: 2026-01-03 13:18:36

#Version: 2.2.20231116
#Station: R3.2S_Murmansk
#Location: 33.079688 lon 68.888172 lat
#TLE: 1 37849U 11061A   26001.07732418  .00000182  00000+0  10735-3 0  9990
#TLE: 2 37849  98.7795 303.2470 0002580  87.2016 272.9455 14.19520779734739

#Time	Az	El	Level	Level2	SNR	BER	BlckErr	Temp	State	Recorded	gain1	gain2
2026-01-03 13:18:36.16	249.91	1.99	-60.1	-75.6	3.8	1.49e+00	0	32	0	0	86	21484
2026-01-03 13:18:37.16	250.02	2.03	-59.9	-75.5	3.8	1.49e+00	0	31	104	0	85	22520
2026-01-03 13:18:38.17	250.12	2.07	-59.9	-75.5	3.8	1.49e+00	0	31	104	0	85	22475
2026-01-03 13:18:39.18	250.23	2.12	-59.9	-75.5	3.8	1.49e+00	0	31	104	0	85	22375
2026-01-03 13:18:40.19	250.33	2.16	-59.9	-75.5	3.8	1.49e+00	0	31	104	0	85	22374
2026-01-03 13:18:41.20	250.44	2.20	-59.9	-75.6	3.8	1.49e+00	0	31	104	0	85	22548
2026-01-03 13:18:42.21	250.55	2.24	-59.9	-75.6	3.8	1.49e+00	0	31	104	0	85	22552
2026-01-03 13:18:43.22	250.66	2.28	-59.9	-75.5	3.8	1.49e+00	0	31	104	0	85	22446
2026-01-03 13:18:44.22	250.76	2.32	-59.9	-75.5	3.8	1.49e+00	0	31	104	0	85	22333
2026-01-03 13:18:45.23	250.87	2.37	-59.9	-75.5	3.8	1.49e+00	0	31	104	0	85	22430
2026-01-03 13:18:46.24	250.98	2.41	-59.9	-75.5	3.8	1.49e+00	0	31	104	0	85	22464
2026-01-03 13:18:47.25	251.09	2.45	-59.9	-75.5	3.8	1.49e+00	0	31	104	0	85	22473
2026-01-03 13:18:48.25	251.19	2.49	-59.9	-75.5	3.8	1.49e+00	0	31	104	0	85	22299
2026-01-03 13:18:49.26	251.30	2.53	-59.9	-75.5	3.8	1.49e+00	0	31	104	0	85	22373
2026-01-03 13:18:50.27	251.41	2.57	-60.0	-75.5	3.8	1.49e+00	0	31	104	0	85	22509
2026-01-03 13:18:51.28	251.52	2.62	-60.0	-75.6	3.8	1.49e+00	0	31	104	0	85	22529
2026-01-03 13:18:52.29	251.63	2.66	-60.0	-75.5	3.8	1.49e+00	0	31	104	0	85	22421
2026-01-03 13:18:53.30	251.74	2.70	-60.0	-75.6	3.8	1.49e+00	0	31	104	0	85	22550
2026-01-03 13:18:54.31	251.85	2.74	-60.0	-75.5	3.8	1.49e+00	0	31	104	0	85	22438
2026-01-03 13:18:55.31	251.96	2.78	-60.0	-75.5	3.8	1.49e+00	0	31	104	0	85	22437
2026-01-03 13:18:56.32	252.07	2.82	-60.0	-75.5	3.8	1.49e+00	0	31	104	0	85	22429
2026-01-03 13:18:57.33	252.19	2.87	-60.0	-75.5	3.8	1.49e+00	0	31	104	0	85	22304
2026-01-03 13:18:58.33	252.30	2.91	-60.0	-75.5	3.8	1.49e+00	0	31	104	0	85	22363
2026-01-03 13:18:59.34	252.41	2.95	-60.0	-75.5	3.8	1.49e+00	0	31	104	0	85	22376
2026-01-03 13:19:00.35	252.52	2.99	-60.0	-75.5	3.8	1.49e+00	0	31	104	0	85	22404
2026-01-03 13:19:01.36	252.63	3.03	-60.0	-75.5	3.8	1.49e+00	0	31	104	0	85	22402
2026-01-03 13:19:02.37	252.75	3.07	-60.0	-75.5	3.8	1.49e+00	0	31	104	0	85	22433
2026-01-03 13:19:03.37	252.86	3.11	-60.0	-75.5	3.8	1.49e+00	0	31	104	0	85	22449
2026-01-03 13:19:04.38	252.97	3.15	-60.0	-75.5	3.8	1.49e+00	0	31	104	0	85	22385
2026-01-03 13:19:05.39	253.09	3.20	-60.0	-75.5	3.8	1.49e+00	0	31	104	0	85	22429
2026-01-03 13:19:06.40	253.20	3.24	-60.0	-75.5	3.8	1.49e+00	0	31	104	0	85	22420
2026-01-03 13:19:07.41	253.32	3.28	-60.0	-75.5	3.8	1.49e+00	0	31	104	0	85	22292
2026-01-03 13:19:08.41	253.43	3.32	-60.0	-75.5	3.8	1.49e+00	0	31	104	0	85	22281
2026-01-03 13:19:09.42	253.54	3.36	-60.0	-75.4	3.8	1.49e+00	0	31	104	0	85	22160
2026-01-03 13:19:10.43	253.66	3.40	-60.0	-75.4	3.8	1.49e+00	0	31	104	0	85	22146
2026-01-03 13:19:11.44	253.78	3.44	-60.0	-75.4	3.8	1.49e+00	0	31	104	0	85	22238
2026-01-03 13:19:12.45	253.89	3.48	-60.0	-75.5	3.8	1.49e+00	0	31	104	0	85	22295
2026-01-03 13:19:13.45	254.01	3.52	-60.0	-75.5	3.8	1.49e+00	0	31	104	0	85	22321
2026-01-03 13:19:14.46	254.12	3.57	-60.0	-75.5	3.8	1.49e+00	0	31	104	0	85	22320
2026-01-03 13:19:15.47	254.24	3.61	-60.0	-75.5	3.8	1.49e+00	0	31	104	0	85	22343
2026-01-03 13:19:16.48	254.36	3.65	-60.0	-75.5	3.8	1.49e+00	0	31	104	0	85	22371
2026-01-03 13:19:17.49	254.48	3.69	-60.0	-75.5	3.8	1.49e+00	0	31	104	0	85	22375
2026-01-03 13:19:18.50	254.59	3.73	-60.0	-75.5	3.8	1.49e+00	0	31	104	0	85	22452
2026-01-03 13:19:19.50	254.71	3.77	-60.0	-75.5	3.8	1.49e+00	0	31	104	0	85	22331
2026-01-03 13:19:20.50	254.83	3.81	-60.0	-75.4	3.8	1.49e+00	0	31	104	0	85	22103
2026-01-03 13:19:21.51	254.95	3.85	-59.9	-75.3	3.8	1.49e+00	0	31	104	0	85	21967
2026-01-03 13:19:22.52	255.07	3.89	-60.0	-75.2	3.8	1.49e+00	0	31	104	0	85	21650
2026-01-03 13:19:23.53	255.19	3.93	-59.9	-75.2	3.8	1.49e+00	0	31	104	0	85	21704
2026-01-03 13:19:24.54	255.31	3.97	-59.9	-75.4	3.8	1.49e+00	0	31	104	0	85	22073
2026-01-03 13:19:25.55	255.43	4.01	-60.0	-75.4	3.8	1.49e+00	0	31	104	0	85	22190
2026-01-03 13:19:26.57	255.55	4.05	-60.0	-75.5	3.8	1.49e+00	0	31	104	0	85	22383
2026-01-03 13:19:27.57	255.67	4.09	-60.0	-75.5	3.8	1.49e+00	0	31	104	0	85	22349
2026-01-03 13:19:28.58	255.79	4.14	-59.9	-75.4	3.8	1.49e+00	0	31	104	0	85	22147
2026-01-03 13:19:29.59	255.91	4.18	-59.9	-75.3	3.8	1.49e+00	0	31	104	0	85	21767
2026-01-03 13:19:30.60	256.03	4.22	-59.9	-75.2	3.8	1.49e+00	0	31	104	0	85	21524
2026-01-03 13:19:31.61	256.15	4.26	-59.9	-75.1	3.8	1.49e+00	0	31	104	0	85	21338
2026-01-03 13:19:32.62	256.28	4.30	-59.9	-75.1	3.8	1.49e+00	0	31	104	0	85	21401
2026-01-03 13:19:33.62	256.40	4.34	-59.9	-75.2	3.8	1.49e+00	0	31	104	0	85	21534
2026-01-03 13:19:34.63	256.52	4.38	-59.9	-75.2	3.8	1.49e+00	0	31	104	0	85	21657
2026-01-03 13:19:35.63	256.64	4.42	-59.9	-75.1	3.8	1.49e+00	0	31	104	0	85	21296
2026-01-03 13:19:36.64	256.77	4.46	-59.9	-74.7	3.8	1.49e+00	0	31	104	0	85	20397
2026-01-03 13:19:37.65	256.89	4.50	-59.9	-74.6	3.8	1.49e+00	0	31	104	0	85	20190
2026-01-03 13:19:38.66	257.01	4.54	-59.9	-74.8	3.8	1.49e+00	0	31	104	0	85	20737
2026-01-03 13:19:39.66	257.14	4.58	-59.9	-75.3	3.8	1.49e+00	0	31	104	0	85	21873
2026-01-03 13:19:40.67	257.26	4.62	-59.9	-75.5	3.8	1.49e+00	0	31	104	0	85	22331
2026-01-03 13:19:41.68	257.39	4.66	-59.9	-74.9	3.8	1.49e+00	0	31	104	0	85	20810
2026-01-03 13:19:42.69	257.51	4.70	-59.8	-73.4	3.9	1.49e+00	0	31	104	0	85	17509
2026-01-03 13:19:43.70	257.64	4.74	-59.8	-72.0	4.2	1.45e+00	0	31	0	0	85	14915
2026-01-03 13:19:44.70	257.76	4.78	-59.7	-71.3	4.4	1.34e+00	90	31	0	0	85	13878
2026-01-03 13:19:45.71	257.89	4.82	-59.7	-70.6	4.6	1.09e+00	0	31	0	2097152	85	12806
2026-01-03 13:19:46.72	258.02	4.85	-59.6	-69.6	5.1	7.01e-01	0	31	0	4194304	85	11375
2026-01-03 13:19:47.72	258.14	4.89	-59.3	-67.5	6.4	3.90e-01	0	31	0	5242880	85	8931
2026-01-03 13:19:48.73	258.27	4.93	-58.9	-65.2	8.3	9.35e-02	0	31	0	7340032	84	7238
2026-01-03 13:19:49.74	258.40	4.97	-58.0	-62.8	10.2	3.12e-03	0	31	0	9437184	82	6151
2026-01-03 13:19:50.75	258.53	5.01	-57.3	-61.0	11.5	1.62e-04	0	31	0	11534336	81	5333
2026-01-03 13:19:51.76	258.66	5.05	-59.2	-67.6	6.3	1.30e-04	0	31	0	13631488	83	10099
2026-01-03 13:19:52.76	258.78	5.09	-59.1	-67.1	6.6	1.74e-01	0	31	0	14680064	83	9603
2026-01-03 13:19:53.77	258.91	5.13	-56.4	-59.2	12.8	4.92e-03	0	31	0	16777216	79	4830
2026-01-03 13:19:54.78	259.04	5.17	-59.3	-68.8	5.6	3.08e-04	0	31	0	18874368	83	11594
2026-01-03 13:19:55.78	259.17	5.21	-55.5	-57.7	13.7	4.83e-01	0	31	0	20971520	77	4592
2026-01-03 13:19:56.79	259.30	5.25	-55.3	-57.4	13.8	0.00e+00	0	31	0	23068672	77	4427
2026-01-03 13:19:57.80	259.43	5.29	-55.4	-57.6	13.7	0.00e+00	0	31	0	24117248	77	4513
2026-01-03 13:19:58.80	259.56	5.32	-55.3	-57.4	13.9	0.00e+00	0	31	0	26214400	77	4398
2026-01-03 13:19:59.81	259.69	5.36	-55.3	-57.5	13.8	0.00e+00	0	31	0	28311552	77	4450
2026-01-03 13:20:00.81	259.82	5.40	-55.4	-57.6	13.7	0.00e+00	0	31	0	30408704	77	4505
2026-01-03 13:20:01.82	259.96	5.44	-55.5	-57.7	13.6	0.00e+00	0	31	0	32505856	77	4587
2026-01-03 13:20:02.83	260.09	5.48	-55.5	-57.8	13.6	0.00e+00	0	31	0	33554432	77	4614
2026-01-03 13:20:03.83	260.22	5.52	-55.4	-57.7	13.7	0.00e+00	0	31	0	35651584	77	4550
2026-01-03 13:20:04.84	260.35	5.56	-55.5	-57.8	13.6	0.00e+00	0	31	0	37748736	77	4612
2026-01-03 13:20:05.85	260.48	5.59	-55.6	-57.9	13.6	0.00e+00	0	31	0	39845888	77	4662
2026-01-03 13:20:06.86	260.62	5.63	-55.5	-57.7	13.7	0.00e+00	0	31	0	41943040	77	4556
2026-01-03 13:20:07.87	260.75	5.67	-55.4	-57.6	13.7	0.00e+00	0	31	0	42991616	77	4520
2026-01-03 13:20:08.87	260.89	5.71	-55.4	-57.6	13.7	0.00e+00	0	31	0	45088768	77	4514
2026-01-03 13:20:09.89	261.02	5.75	-55.3	-57.3	13.9	0.00e+00	0	31	0	47185920	77	4391
2026-01-03 13:20:10.89	261.15	5.78	-55.2	-57.3	13.8	0.00e+00	0	30	0	49283072	76	4620
2026-01-03 13:20:11.90	261.29	5.82	-55.2	-57.3	13.8	0.00e+00	0	31	0	51380224	76	4629
2026-01-03 13:20:12.91	261.43	5.86	-55.2	-57.3	13.8	0.00e+00	0	31	0	52428800	76	4632
2026-01-03 13:20:13.91	261.56	5.90	-55.1	-57.2	13.9	0.00e+00	0	31	0	54525952	76	4554
2026-01-03 13:20:14.92	261.70	5.94	-55.2	-57.3	13.8	0.00e+00	0	31	0	56623104	76	4608
2026-01-03 13:20:15.93	261.83	5.97	-55.3	-57.4	13.7	0.00e+00	0	31	0	58720256	76	4690
2026-01-03 13:20:16.93	261.97	6.01	-55.2	-57.3	13.8	0.00e+00	0	31	0	60817408	76	4629
2026-01-03 13:20:17.94	262.11	6.05	-55.3	-57.4	13.7	0.00e+00	0	30	0	61865984	76	4691
2026-01-03 13:20:18.95	262.24	6.09	-55.2	-57.3	13.8	0.00e+00	0	30	0	63963136	76	4634
2026-01-03 13:20:19.96	262.38	6.12	-55.3	-57.4	13.7	0.00e+00	0	31	0	66060288	76	4677
2026-01-03 13:20:20.96	262.52	6.16	-55.3	-57.4	13.7	0.00e+00	0	31	0	68157440	76	4703
2026-01-03 13:20:21.97	262.66	6.20	-55.1	-57.1	13.9	0.00e+00	0	31	0	70254592	76	4543
2026-01-03 13:20:22.98	262.80	6.23	-55.3	-57.4	13.8	0.00e+00	0	31	0	71303168	76	4674
2026-01-03 13:20:23.99	262.94	6.27	-55.3	-57.4	13.8	0.00e+00	0	31	0	73400320	76	4690
2026-01-03 13:20:25.00	263.08	6.31	-55.3	-57.4	13.8	0.00e+00	0	30	0	75497472	76	4693
2026-01-03 13:20:26.00	263.21	6.34	-55.3	-57.5	13.7	0.00e+00	0	30	0	77594624	76	4716
2026-01-03 13:20:27.00	263.35	6.38	-55.4	-57.6	13.6	0.00e+00	0	30	0	79691776	76	4810
2026-01-03 13:20:28.01	263.49	6.42	-55.5	-57.7	13.6	0.00e+00	0	31	0	80740352	76	4864
2026-01-03 13:20:29.02	263.63	6.45	-55.5	-57.7	13.6	0.00e+00	0	30	0	82837504	76	4846
2026-01-03 13:20:30.02	263.77	6.49	-55.5	-57.8	13.5	0.00e+00	0	30	0	84934656	76	4898
2026-01-03 13:20:31.03	263.92	6.53	-55.5	-57.7	13.6	0.00e+00	0	30	0	87031808	76	4843
2026-01-03 13:20:32.04	264.06	6.56	-55.5	-57.8	13.6	0.00e+00	0	31	0	89128960	76	4876
2026-01-03 13:20:33.05	264.20	6.60	-55.5	-57.8	13.6	0.00e+00	0	31	0	90177536	76	4879
2026-01-03 13:20:34.04	264.34	6.63	-55.3	-57.4	13.8	0.00e+00	0	30	0	92274688	76	4696
2026-01-03 13:20:35.04	264.48	6.67	-55.2	-57.3	13.8	0.00e+00	0	30	0	94371840	76	4637
2026-01-03 13:20:36.05	264.63	6.71	-55.3	-57.4	13.8	0.00e+00	0	31	0	96468992	76	4655
2026-01-03 13:20:37.06	264.77	6.74	-55.2	-57.2	13.9	0.00e+00	0	31	0	98566144	76	4595
2026-01-03 13:20:38.06	264.91	6.78	-55.2	-57.3	13.9	0.00e+00	0	30	0	99614720	76	4618
2026-01-03 13:20:39.07	265.06	6.81	-55.2	-57.3	13.8	0.00e+00	0	30	0	101711872	76	4622
2026-01-03 13:20:40.08	265.20	6.85	-55.3	-57.4	13.8	0.00e+00	0	30	0	103809024	76	4698
2026-01-03 13:20:41.09	265.35	6.88	-55.5	-57.7	13.6	0.00e+00	0	31	0	105906176	76	4828
2026-01-03 13:20:42.10	265.49	6.92	-55.5	-57.7	13.7	0.00e+00	0	30	0	108003328	76	4829
2026-01-03 13:20:43.10	265.64	6.95	-55.6	-57.9	13.5	0.00e+00	0	31	0	109051904	76	4944
2026-01-03 13:20:44.11	265.78	6.99	-55.7	-58.1	13.4	0.00e+00	0	31	0	111149056	76	5058
2026-01-03 13:20:45.12	265.93	7.02	-55.6	-57.9	13.5	0.00e+00	0	31	0	113246208	76	4976
2026-01-03 13:20:46.13	266.07	7.06	-55.7	-58.1	13.4	0.00e+00	0	30	0	115343360	76	5085
2026-01-03 13:20:47.13	266.22	7.09	-55.7	-58.0	13.4	0.00e+00	0	30	0	117440512	76	5040
2026-01-03 13:20:48.14	266.37	7.13	-55.6	-57.8	13.5	0.00e+00	0	30	0	118489088	76	4914
2026-01-03 13:20:49.15	266.52	7.16	-55.5	-57.8	13.5	0.00e+00	0	30	0	120586240	76	4880
2026-01-03 13:20:50.15	266.66	7.20	-55.5	-57.8	13.5	0.00e+00	0	30	0	122683392	76	4898
2026-01-03 13:20:51.16	266.81	7.23	-55.1	-57.2	13.8	0.00e+00	0	31	0	124780544	76	4579
2026-01-03 13:20:52.17	266.96	7.26	-55.1	-57.2	13.8	0.00e+00	0	30	0	126877696	76	4557
2026-01-03 13:20:53.18	267.11	7.30	-55.1	-57.2	13.7	0.00e+00	0	30	0	127926272	76	4572
2026-01-03 13:20:54.19	267.26	7.33	-55.2	-57.3	13.6	0.00e+00	0	30	0	130023424	76	4648
2026-01-03 13:20:55.19	267.41	7.36	-55.4	-57.8	13.4	0.00e+00	0	30	0	132120576	76	4875
2026-01-03 13:20:56.20	267.56	7.40	-55.7	-58.3	13.0	0.00e+00	0	31	0	134217728	76	5216
2026-01-03 13:20:57.21	267.71	7.43	-56.3	-59.4	12.3	7.00e-07	0	30	0	136314880	77	5558
2026-01-03 13:20:58.21	267.86	7.47	-56.7	-60.4	11.6	3.00e-06	0	30	0	137363456	78	5896
2026-01-03 13:20:59.22	268.01	7.50	-57.1	-61.4	10.8	2.04e-04	0	30	0	139460608	79	6226
2026-01-03 13:21:00.23	268.16	7.53	-57.3	-62.2	10.1	8.89e-04	0	30	0	141557760	79	6861
2026-01-03 13:21:01.24	268.31	7.56	-57.5	-62.9	9.5	2.77e-03	0	31	0	143654912	80	6976
2026-01-03 13:21:02.25	268.46	7.60	-57.7	-63.5	8.9	1.17e-02	0	30	0	145752064	80	7513
2026-01-03 13:21:03.26	268.61	7.63	-57.7	-64.0	8.4	1.87e-02	0	30	0	146800640	80	7918
2026-01-03 13:21:04.26	268.77	7.66	-57.8	-64.6	7.8	3.12e-02	0	30	0	148897792	80	8479
2026-01-03 13:21:05.26	268.92	7.70	-57.8	-64.8	7.6	6.14e-02	0	30	0	150994944	80	8693
2026-01-03 13:21:06.27	269.07	7.73	-57.9	-65.2	7.3	7.63e-02	0	30	0	153092096	81	8566
2026-01-03 13:21:07.28	269.22	7.76	-57.9	-64.5	8.0	6.06e-02	0	30	0	155189248	81	7903
2026-01-03 13:21:08.28	269.38	7.79	-57.9	-64.4	8.1	3.58e-02	0	30	0	156237824	81	7832
2026-01-03 13:21:09.29	269.53	7.82	-57.8	-64.0	8.5	2.66e-02	0	30	0	158334976	81	7483
2026-01-03 13:21:10.29	269.68	7.86	-57.6	-63.2	9.1	1.39e-02	0	30	0	160432128	81	6869
2026-01-03 13:21:11.30	269.84	7.89	-57.4	-62.5	9.8	5.53e-03	0	30	0	162529280	81	6324
2026-01-03 13:21:12.31	269.99	7.92	-57.2	-61.6	10.7	6.57e-04	0	30	0	164626432	81	5707
2026-01-03 13:21:13.32	270.15	7.95	-57.1	-61.1	11.2	1.60e-04	0	30	0	165675008	80	5663
2026-01-03 13:21:14.33	270.31	7.98	-56.9	-60.5	11.7	5.03e-05	0	30	0	167772160	80	5297
2026-01-03 13:21:15.34	270.46	8.01	-56.6	-59.9	12.1	7.00e-07	0	30	0	169869312	79	5249
2026-01-03 13:21:16.34	270.62	8.04	-56.4	-59.4	12.6	2.20e-06	0	30	0	171966464	79	4933
2026-01-03 13:21:17.35	270.77	8.07	-56.2	-59.0	12.9	0.00e+00	0	30	0	174063616	79	4745
2026-01-03 13:21:18.36	270.93	8.10	-56.1	-58.7	13.0	0.00e+00	0	30	0	175112192	78	4860
2026-01-03 13:21:19.36	271.09	8.13	-55.9	-58.4	13.3	0.00e+00	0	30	0	177209344	78	4685
2026-01-03 13:21:20.36	271.24	8.16	-55.8	-58.1	13.5	0.00e+00	0	31	0	179306496	78	4531
2026-01-03 13:21:21.37	271.40	8.20	-55.5	-57.7	13.7	0.00e+00	0	30	0	181403648	77	4547
2026-01-03 13:21:22.38	271.56	8.23	-55.4	-57.5	13.8	0.00e+00	0	30	0	183500800	77	4486
2026-01-03 13:21:23.39	271.72	8.26	-55.3	-57.4	13.9	0.00e+00	0	30	0	184549376	77	4395
2026-01-03 13:21:24.40	271.88	8.29	-55.4	-57.5	13.9	0.00e+00	0	30	0	186646528	77	4470
2026-01-03 13:21:25.41	272.04	8.31	-55.5	-57.6	13.7	0.00e+00	0	30	0	188743680	77	4541
2026-01-03 13:21:26.42	272.20	8.34	-55.4	-57.5	13.9	0.00e+00	0	31	0	190840832	77	4449
2026-01-03 13:21:27.43	272.36	8.37	-55.5	-57.6	13.8	0.00e+00	0	31	0	192937984	77	4508
2026-01-03 13:21:28.43	272.52	8.40	-55.5	-57.7	13.8	0.00e+00	0	30	0	193986560	77	4550
2026-01-03 13:21:29.44	272.68	8.43	-55.6	-57.7	13.7	0.00e+00	0	30	0	196083712	77	4583
2026-01-03 13:21:30.44	272.84	8.46	-55.6	-57.8	13.7	0.00e+00	0	30	0	198180864	77	4600
2026-01-03 13:21:31.45	273.00	8.49	-55.7	-57.9	13.6	0.00e+00	0	30	0	200278016	77	4704
2026-01-03 13:21:32.46	273.16	8.52	-55.7	-57.9	13.6	0.00e+00	0	30	0	202375168	77	4666
2026-01-03 13:21:33.47	273.32	8.55	-55.5	-57.7	13.7	0.00e+00	0	30	0	203423744	77	4565
2026-01-03 13:21:34.48	273.48	8.57	-55.4	-57.5	13.9	0.00e+00	0	30	0	205520896	77	4451
2026-01-03 13:21:35.49	273.65	8.60	-55.2	-57.2	14.0	0.00e+00	0	30	0	207618048	77	4317
2026-01-03 13:21:36.49	273.81	8.63	-55.2	-57.2	14.0	0.00e+00	0	30	0	209715200	77	4303
2026-01-03 13:21:37.50	273.97	8.66	-55.0	-56.8	14.1	0.00e+00	0	30	0	211812352	76	4384
2026-01-03 13:21:38.51	274.13	8.69	-54.8	-56.6	14.2	0.00e+00	0	30	0	213909504	76	4289
2026-01-03 13:21:39.52	274.30	8.71	-55.1	-57.0	14.0	0.00e+00	0	30	0	214958080	76	4471
2026-01-03 13:21:40.53	274.46	8.74	-55.1	-57.0	14.0	0.00e+00	0	30	0	217055232	76	4477
2026-01-03 13:21:41.53	274.62	8.77	-55.3	-57.3	13.9	0.00e+00	0	30	0	219152384	76	4614
2026-01-03 13:21:42.55	274.79	8.79	-55.4	-57.5	13.8	0.00e+00	0	30	0	221249536	76	4715
2026-01-03 13:21:43.55	274.95	8.82	-55.5	-57.6	13.7	0.00e+00	0	30	0	222298112	76	4805
2026-01-03 13:21:44.56	275.12	8.85	-55.5	-57.6	13.8	0.00e+00	0	30	0	224395264	76	4778
2026-01-03 13:21:45.56	275.28	8.87	-55.7	-57.8	13.6	0.00e+00	0	30	0	226492416	76	4922
2026-01-03 13:21:46.57	275.45	8.90	-55.6	-57.7	13.7	0.00e+00	0	30	0	228589568	76	4846
2026-01-03 13:21:47.58	275.61	8.93	-55.6	-57.8	13.7	0.00e+00	0	30	0	230686720	76	4902
2026-01-03 13:21:48.59	275.78	8.95	-55.6	-57.8	13.6	0.00e+00	0	30	0	231735296	76	4903
2026-01-03 13:21:49.60	275.95	8.98	-55.7	-57.9	13.6	0.00e+00	0	30	0	233832448	76	4951
2026-01-03 13:21:50.61	276.11	9.00	-55.7	-57.9	13.6	0.00e+00	0	30	0	235929600	76	4951
2026-01-03 13:21:51.61	276.28	9.03	-55.7	-57.9	13.6	0.00e+00	0	30	0	238026752	76	4930
2026-01-03 13:21:52.62	276.45	9.05	-55.6	-57.8	13.6	0.00e+00	0	30	0	240123904	76	4905
2026-01-03 13:21:53.63	276.62	9.08	-55.7	-57.9	13.6	0.00e+00	0	30	0	242221056	76	4956
2026-01-03 13:21:54.64	276.78	9.10	-55.6	-57.7	13.7	0.00e+00	0	30	0	243269632	76	4837
2026-01-03 13:21:55.64	276.95	9.13	-55.6	-57.7	13.7	0.00e+00	0	30	0	245366784	76	4826
2026-01-03 13:21:56.65	277.12	9.15	-55.4	-57.4	13.8	0.00e+00	0	30	0	247463936	76	4692
2026-01-03 13:21:57.66	277.29	9.17	-55.2	-57.2	14.0	0.00e+00	0	30	0	249561088	76	4556
2026-01-03 13:21:58.67	277.46	9.20	-55.2	-57.1	14.0	0.00e+00	0	30	0	251658240	76	4531
2026-01-03 13:21:59.68	277.63	9.22	-55.1	-57.0	14.0	0.00e+00	0	30	0	252706816	76	4487
2026-01-03 13:22:00.69	277.79	9.25	-55.1	-57.1	14.0	0.00e+00	0	30	0	254803968	76	4503
2026-01-03 13:22:01.70	277.96	9.27	-55.2	-57.1	14.0	0.00e+00	0	30	0	256901120	76	4514
2026-01-03 13:22:02.70	278.13	9.29	-55.4	-57.4	13.9	0.00e+00	0	30	0	258998272	76	4669
2026-01-03 13:22:03.71	278.30	9.32	-55.4	-57.5	13.8	0.00e+00	0	30	0	261095424	76	4708
2026-01-03 13:22:04.71	278.47	9.34	-55.6	-57.7	13.7	0.00e+00	0	30	0	262144000	76	4862
2026-01-03 13:22:05.72	278.64	9.36	-55.9	-58.2	13.5	0.00e+00	0	30	0	264241152	77	4864
2026-01-03 13:22:06.73	278.81	9.38	-56.0	-58.3	13.4	0.00e+00	0	30	0	266338304	77	4924
2026-01-03 13:22:07.74	278.99	9.41	-56.2	-58.6	13.3	0.00e+00	0	30	0	268435456	77	5066
2026-01-03 13:22:08.75	279.16	9.43	-56.3	-58.9	13.2	0.00e+00	0	30	0	270532608	78	4930
2026-01-03 13:22:09.75	279.33	9.45	-56.3	-58.7	13.2	0.00e+00	0	30	0	271581184	78	4870
2026-01-03 13:22:10.76	279.50	9.47	-56.4	-58.9	13.2	0.00e+00	0	30	0	273678336	78	4942
2026-01-03 13:22:11.77	279.67	9.49	-56.1	-58.4	13.4	0.00e+00	0	30	0	275775488	78	4677
2026-01-03 13:22:12.78	279.84	9.51	-56.0	-58.2	13.6	0.00e+00	0	30	0	277872640	78	4589
2026-01-03 13:22:13.79	280.02	9.53	-55.6	-57.7	13.8	0.00e+00	0	30	0	279969792	77	4569
2026-01-03 13:22:14.80	280.19	9.55	-55.5	-57.6	13.9	0.00e+00	0	30	0	281018368	77	4514
2026-01-03 13:22:15.80	280.36	9.57	-55.4	-57.5	13.9	0.00e+00	0	30	0	283115520	77	4451
2026-01-03 13:22:16.81	280.54	9.60	-55.4	-57.4	14.0	0.00e+00	0	30	0	285212672	77	4437
2026-01-03 13:22:17.82	280.71	9.62	-55.6	-57.8	13.8	0.00e+00	0	30	0	287309824	77	4601
2026-01-03 13:22:18.82	280.88	9.63	-55.7	-57.8	13.8	0.00e+00	0	30	0	289406976	77	4619
2026-01-03 13:22:19.83	281.06	9.65	-55.8	-58.1	13.6	0.00e+00	0	30	0	290455552	77	4766
2026-01-03 13:22:20.84	281.23	9.67	-55.8	-58.0	13.7	0.00e+00	0	30	0	292552704	77	4709
2026-01-03 13:22:21.84	281.40	9.69	-55.7	-57.8	13.7	0.00e+00	0	30	0	294649856	77	4644
2026-01-03 13:22:22.85	281.58	9.71	-55.5	-57.5	13.9	0.00e+00	0	30	0	296747008	77	4492
2026-01-03 13:22:23.86	281.75	9.73	-55.3	-57.2	14.1	0.00e+00	0	30	0	298844160	77	4315
2026-01-03 13:22:24.87	281.93	9.75	-55.2	-57.1	14.1	0.00e+00	0	30	0	299892736	76	4519
2026-01-03 13:22:25.87	282.10	9.77	-55.2	-57.1	14.1	0.00e+00	0	30	0	301989888	76	4532
2026-01-03 13:22:26.88	282.28	9.79	-55.2	-57.1	14.1	0.00e+00	0	30	0	304087040	76	4517
2026-01-03 13:22:27.89	282.45	9.80	-55.4	-57.3	14.0	0.00e+00	0	30	0	306184192	76	4640
2026-01-03 13:22:28.90	282.63	9.82	-55.5	-57.6	13.8	0.00e+00	0	30	0	308281344	76	4775
2026-01-03 13:22:29.90	282.80	9.84	-55.7	-57.9	13.7	0.00e+00	0	30	0	309329920	76	4940
2026-01-03 13:22:30.91	282.98	9.86	-55.8	-57.9	13.6	0.00e+00	0	30	0	311427072	76	4977
2026-01-03 13:22:31.92	283.16	9.87	-55.9	-58.1	13.6	0.00e+00	0	30	0	313524224	77	4790
2026-01-03 13:22:32.93	283.33	9.89	-55.6	-57.7	13.9	0.00e+00	0	30	0	315621376	77	4557
2026-01-03 13:22:33.93	283.51	9.91	-55.6	-57.7	13.9	0.00e+00	0	30	0	317718528	77	4551
2026-01-03 13:22:34.94	283.69	9.92	-55.5	-57.4	14.0	0.00e+00	0	30	0	318767104	77	4425
2026-01-03 13:22:35.94	283.86	9.94	-55.3	-57.2	14.1	0.00e+00	0	30	0	320864256	77	4294
2026-01-03 13:22:36.95	284.04	9.95	-55.5	-57.5	14.0	0.00e+00	0	30	0	322961408	77	4445
2026-01-03 13:22:37.96	284.22	9.97	-55.6	-57.7	13.9	0.00e+00	0	30	0	325058560	77	4550
2026-01-03 13:22:38.97	284.40	9.99	-55.9	-58.0	13.7	0.00e+00	0	30	0	327155712	77	4740
2026-01-03 13:22:39.98	284.57	10.00	-56.0	-58.3	13.5	0.00e+00	0	30	0	328204288	77	4896
2026-01-03 13:22:40.99	284.75	10.02	-56.2	-58.5	13.4	0.00e+00	0	30	0	330301440	77	5004
2026-01-03 13:22:42.00	284.93	10.03	-56.0	-58.2	13.6	0.00e+00	0	30	0	332398592	77	4854
2026-01-03 13:22:43.01	285.11	10.05	-55.9	-58.0	13.7	0.00e+00	0	30	0	334495744	77	4731
2026-01-03 13:22:44.01	285.29	10.06	-55.8	-57.8	13.8	0.00e+00	0	30	0	336592896	77	4633
2026-01-03 13:22:45.02	285.47	10.07	-55.7	-57.7	13.9	0.00e+00	0	30	0	337641472	77	4582
2026-01-03 13:22:46.03	285.65	10.09	-55.5	-57.5	14.0	0.00e+00	0	30	0	339738624	77	4485
2026-01-03 13:22:47.04	285.83	10.10	-55.4	-57.3	14.1	0.00e+00	0	30	0	341835776	77	4385
2026-01-03 13:22:48.05	286.00	10.11	-55.6	-57.6	13.9	0.00e+00	0	30	0	343932928	77	4517
2026-01-03 13:22:49.05	286.18	10.13	-55.7	-57.7	13.9	0.00e+00	0	30	0	346030080	77	4583
2026-01-03 13:22:50.05	286.36	10.14	-55.8	-57.9	13.8	0.00e+00	0	30	0	347078656	77	4674
2026-01-03 13:22:51.06	286.54	10.15	-56.0	-58.2	13.6	0.00e+00	0	30	0	349175808	77	4818
2026-01-03 13:22:52.07	286.72	10.17	-55.9	-58.0	13.7	0.00e+00	0	30	0	351272960	77	4758
2026-01-03 13:22:53.07	286.90	10.18	-55.9	-58.1	13.6	0.00e+00	0	30	0	353370112	77	4791
2026-01-03 13:22:54.08	287.08	10.19	-56.1	-58.4	13.5	0.00e+00	0	30	0	355467264	77	4940
2026-01-03 13:22:55.09	287.26	10.20	-56.1	-58.3	13.5	0.00e+00	0	30	0	356515840	77	4922
2026-01-03 13:22:56.09	287.44	10.21	-56.2	-58.4	13.5	0.00e+00	0	30	0	358612992	77	4971
2026-01-03 13:22:57.10	287.62	10.22	-56.5	-59.0	13.2	0.00e+00	0	30	0	360710144	78	5035
2026-01-03 13:22:58.11	287.80	10.23	-56.8	-59.6	12.9	0.00e+00	0	30	0	362807296	78	5344
2026-01-03 13:22:59.12	287.98	10.24	-57.1	-60.1	12.6	0.00e+00	0	30	0	364904448	79	5361
2026-01-03 13:23:00.12	288.16	10.26	-57.3	-60.4	12.3	7.00e-07	0	30	0	365953024	79	5578
2026-01-03 13:23:01.13	288.34	10.27	-57.4	-60.5	12.3	7.00e-07	0	30	0	368050176	80	5309
2026-01-03 13:23:02.14	288.52	10.28	-57.4	-60.5	12.3	0.00e+00	0	30	0	370147328	80	5293
2026-01-03 13:23:03.15	288.71	10.28	-57.2	-60.3	12.5	0.00e+00	0	30	0	372244480	80	5163
2026-01-03 13:23:04.16	288.89	10.29	-57.0	-59.8	12.8	0.00e+00	0	30	0	374341632	80	4907
2026-01-03 13:23:05.16	289.07	10.30	-56.8	-59.4	13.1	0.00e+00	0	30	0	375390208	80	4693
2026-01-03 13:23:06.17	289.25	10.31	-56.7	-59.3	13.1	0.00e+00	0	30	0	377487360	79	4889
2026-01-03 13:23:07.18	289.43	10.32	-56.6	-59.2	13.2	0.00e+00	0	30	0	379584512	79	4815
2026-01-03 13:23:08.19	289.61	10.33	-56.6	-59.1	13.2	0.00e+00	0	30	0	381681664	79	4796
2026-01-03 13:23:09.20	289.80	10.34	-56.7	-59.4	13.1	0.00e+00	0	30	0	383778816	79	4939
2026-01-03 13:23:10.21	289.98	10.35	-56.7	-59.3	13.1	0.00e+00	0	30	0	384827392	79	4880
2026-01-03 13:23:11.22	290.16	10.35	-56.8	-59.4	13.0	0.00e+00	0	30	0	386924544	79	4980
2026-01-03 13:23:12.22	290.34	10.36	-56.7	-59.3	13.1	0.00e+00	0	30	0	389021696	79	4906
2026-01-03 13:23:13.22	290.52	10.37	-56.7	-59.2	13.1	0.00e+00	0	30	0	391118848	79	4862
2026-01-03 13:23:14.23	290.70	10.37	-56.5	-59.0	13.3	0.00e+00	0	30	0	393216000	79	4737
2026-01-03 13:23:15.25	290.89	10.38	-56.4	-58.8	13.4	0.00e+00	0	30	0	394264576	79	4612
2026-01-03 13:23:16.26	291.07	10.39	-56.4	-58.8	13.4	0.00e+00	0	30	0	396361728	79	4626
2026-01-03 13:23:17.26	291.25	10.39	-56.3	-58.7	13.5	0.00e+00	0	30	0	398458880	79	4554
2026-01-03 13:23:18.26	291.43	10.40	-56.3	-58.7	13.5	0.00e+00	0	30	0	400556032	79	4550
2026-01-03 13:23:19.27	291.62	10.41	-56.2	-58.6	13.6	0.00e+00	0	30	0	402653184	79	4495
2026-01-03 13:23:20.27	291.80	10.41	-56.3	-58.7	13.5	0.00e+00	0	30	0	403701760	79	4548
2026-01-03 13:23:21.28	291.98	10.42	-56.3	-58.6	13.5	0.00e+00	0	30	0	405798912	79	4538
2026-01-03 13:23:22.29	292.16	10.42	-56.3	-58.6	13.5	0.00e+00	0	30	0	407896064	79	4519
2026-01-03 13:23:23.30	292.35	10.43	-56.1	-58.3	13.6	0.00e+00	0	30	0	409993216	78	4640
2026-01-03 13:23:24.31	292.53	10.43	-55.9	-58.0	13.7	0.00e+00	0	30	0	412090368	78	4480
2026-01-03 13:23:25.31	292.71	10.43	-55.8	-58.0	13.8	0.00e+00	0	30	0	413138944	78	4442
2026-01-03 13:23:26.32	292.90	10.44	-55.8	-57.8	13.9	0.00e+00	0	30	0	415236096	78	4387
2026-01-03 13:23:27.33	293.08	10.44	-55.7	-57.8	13.8	0.00e+00	0	30	0	417333248	77	4646
2026-01-03 13:23:28.34	293.26	10.45	-55.8	-58.0	13.7	0.00e+00	0	30	0	419430400	77	4715
2026-01-03 13:23:29.34	293.44	10.45	-55.7	-57.7	13.8	0.00e+00	0	30	0	421527552	77	4565
2026-01-03 13:23:30.35	293.63	10.45	-55.6	-57.6	13.9	0.00e+00	0	30	0	422576128	77	4524
2026-01-03 13:23:31.36	293.81	10.45	-55.7	-57.8	13.8	0.00e+00	0	30	0	424673280	77	4618
2026-01-03 13:23:32.37	294.00	10.46	-55.6	-57.6	13.9	0.00e+00	0	30	0	426770432	77	4512
2026-01-03 13:23:33.38	294.18	10.46	-55.5	-57.5	13.9	0.00e+00	0	30	0	428867584	77	4466
2026-01-03 13:23:34.39	294.36	10.46	-55.5	-57.4	14.0	0.00e+00	0	30	0	430964736	77	4431
2026-01-03 13:23:35.39	294.54	10.46	-55.4	-57.3	14.0	0.00e+00	0	30	0	432013312	77	4372
2026-01-03 13:23:36.40	294.73	10.46	-55.4	-57.3	14.1	0.00e+00	0	30	0	434110464	77	4354
2026-01-03 13:23:37.41	294.91	10.46	-55.4	-57.3	14.1	0.00e+00	0	30	0	436207616	77	4380
2026-01-03 13:23:38.41	295.09	10.46	-55.5	-57.4	14.0	0.00e+00	0	30	0	438304768	77	4425
2026-01-03 13:23:39.42	295.28	10.47	-55.5	-57.4	14.0	0.00e+00	0	30	0	440401920	77	4440
2026-01-03 13:23:40.43	295.46	10.47	-55.5	-57.5	13.9	0.00e+00	0	30	0	441450496	77	4489
2026-01-03 13:23:41.44	295.65	10.47	-55.6	-57.6	13.9	0.00e+00	0	30	0	443547648	77	4539
2026-01-03 13:23:42.45	295.83	10.47	-55.5	-57.5	13.9	0.00e+00	0	30	0	445644800	77	4478
2026-01-03 13:23:43.45	296.01	10.46	-55.5	-57.4	14.0	0.00e+00	0	30	0	447741952	77	4438
2026-01-03 13:23:44.46	296.19	10.46	-55.3	-57.2	14.1	0.00e+00	0	30	0	449839104	77	4309
2026-01-03 13:23:45.47	296.38	10.46	-55.1	-56.9	14.2	0.00e+00	0	30	0	451936256	76	4427
2026-01-03 13:23:46.48	296.56	10.46	-55.0	-56.8	14.2	0.00e+00	0	30	0	452984832	76	4365
2026-01-03 13:23:47.49	296.75	10.46	-55.0	-56.8	14.2	0.00e+00	0	30	0	455081984	76	4355
2026-01-03 13:23:48.49	296.93	10.46	-54.9	-56.6	14.3	0.00e+00	0	30	0	457179136	76	4279
2026-01-03 13:23:49.50	297.11	10.46	-54.9	-56.7	14.3	0.00e+00	0	30	0	459276288	76	4324
2026-01-03 13:23:50.51	297.29	10.45	-55.0	-56.8	14.2	0.00e+00	0	30	0	460324864	76	4364
2026-01-03 13:23:51.52	297.48	10.45	-55.0	-56.9	14.2	0.00e+00	0	30	0	462422016	76	4406
2026-01-03 13:23:52.52	297.66	10.45	-55.0	-56.7	14.3	0.00e+00	0	30	0	464519168	76	4338
2026-01-03 13:23:53.53	297.84	10.45	-55.0	-56.8	14.2	0.00e+00	0	30	0	466616320	76	4378
2026-01-03 13:23:54.54	298.03	10.44	-54.7	-56.4	14.4	0.00e+00	0	30	0	468713472	76	4183
2026-01-03 13:23:55.55	298.21	10.44	-54.6	-56.2	14.4	0.00e+00	0	30	0	469762048	75	4337
2026-01-03 13:23:56.55	298.39	10.43	-54.5	-56.2	14.4	0.00e+00	0	30	0	471859200	75	4314
2026-01-03 13:23:57.56	298.57	10.43	-54.6	-56.3	14.3	0.00e+00	0	30	0	473956352	75	4364
2026-01-03 13:23:58.57	298.76	10.43	-54.7	-56.5	14.3	0.00e+00	0	30	0	476053504	75	4442
2026-01-03 13:23:59.58	298.94	10.42	-54.8	-56.6	14.2	0.00e+00	0	30	0	478150656	75	4518
2026-01-03 13:24:00.58	299.12	10.42	-55.0	-56.9	14.1	0.00e+00	0	30	0	480247808	75	4676
2026-01-03 13:24:01.59	299.31	10.41	-55.1	-57.0	14.0	0.00e+00	0	30	0	481296384	75	4738
2026-01-03 13:24:02.60	299.49	10.41	-55.1	-57.0	14.0	0.00e+00	0	30	0	483393536	75	4719
2026-01-03 13:24:03.61	299.67	10.40	-55.1	-57.1	14.0	0.00e+00	0	30	0	485490688	75	4775
2026-01-03 13:24:04.61	299.85	10.40	-54.9	-56.7	14.1	0.00e+00	0	30	0	487587840	75	4573
2026-01-03 13:24:05.62	300.03	10.39	-54.7	-56.5	14.2	0.00e+00	0	30	0	489684992	75	4448
2026-01-03 13:24:06.63	300.22	10.38	-54.7	-56.4	14.3	0.00e+00	0	30	0	490733568	75	4435
2026-01-03 13:24:07.64	300.40	10.38	-54.7	-56.4	14.3	0.00e+00	0	30	0	492830720	75	4425
2026-01-03 13:24:08.64	300.58	10.37	-54.7	-56.5	14.3	0.00e+00	0	30	0	494927872	75	4472
2026-01-03 13:24:09.65	300.76	10.36	-54.8	-56.6	14.2	0.00e+00	0	30	0	497025024	75	4535
2026-01-03 13:24:10.66	300.95	10.35	-54.9	-56.7	14.2	0.00e+00	0	30	0	499122176	75	4586
2026-01-03 13:24:11.67	301.13	10.35	-54.9	-56.7	14.2	0.00e+00	0	30	0	500170752	75	4559
2026-01-03 13:24:12.68	301.31	10.34	-55.0	-56.9	14.1	0.00e+00	0	30	0	502267904	75	4672
2026-01-03 13:24:13.68	301.49	10.33	-54.9	-56.7	14.1	0.00e+00	0	30	0	504365056	75	4594
2026-01-03 13:24:14.69	301.67	10.32	-54.7	-56.5	14.3	0.00e+00	0	30	0	506462208	75	4475
2026-01-03 13:24:15.69	301.85	10.31	-54.6	-56.3	14.4	0.00e+00	0	30	0	508559360	75	4344
2026-01-03 13:24:16.70	302.03	10.31	-54.5	-56.2	14.4	0.00e+00	0	30	0	509607936	75	4313
2026-01-03 13:24:17.71	302.22	10.30	-54.5	-56.1	14.4	0.00e+00	0	30	0	511705088	75	4284
2026-01-03 13:24:18.71	302.40	10.29	-54.5	-56.2	14.4	0.00e+00	0	30	0	513802240	75	4319
2026-01-03 13:24:19.72	302.58	10.28	-54.4	-56.0	14.5	0.00e+00	0	30	0	515899392	75	4238
2026-01-03 13:24:20.73	302.76	10.27	-54.5	-56.2	14.4	0.00e+00	0	30	0	517996544	75	4326
2026-01-03 13:24:21.74	302.94	10.26	-54.5	-56.2	14.4	0.00e+00	0	30	0	519045120	75	4308
2026-01-03 13:24:22.74	303.12	10.25	-54.5	-56.2	14.4	0.00e+00	0	30	0	521142272	75	4338
2026-01-03 13:24:23.75	303.30	10.24	-54.5	-56.2	14.4	0.00e+00	0	30	0	523239424	75	4317
2026-01-03 13:24:24.76	303.48	10.23	-54.3	-55.9	14.5	0.00e+00	0	30	0	525336576	75	4186
2026-01-03 13:24:25.77	303.66	10.21	-54.2	-55.8	14.5	0.00e+00	0	30	0	527433728	74	4359
2026-01-03 13:24:26.78	303.84	10.20	-54.0	-55.6	14.6	0.00e+00	0	30	0	528482304	74	4244
2026-01-03 13:24:27.79	304.02	10.19	-53.9	-55.4	14.7	0.00e+00	0	30	0	530579456	74	4148
2026-01-03 13:24:28.80	304.20	10.18	-53.8	-55.3	14.7	0.00e+00	0	30	0	532676608	74	4114
2026-01-03 13:24:29.81	304.38	10.17	-53.7	-55.1	14.8	0.00e+00	0	30	0	534773760	74	4047
2026-01-03 13:24:30.82	304.56	10.15	-53.6	-55.0	14.7	0.00e+00	0	30	0	536870912	73	4229
2026-01-03 13:24:31.82	304.74	10.14	-53.8	-55.3	14.6	0.00e+00	0	30	0	537919488	73	4341
2026-01-03 13:24:32.83	304.92	10.13	-54.0	-55.5	14.6	0.00e+00	0	30	0	540016640	73	4461
2026-01-03 13:24:33.83	305.10	10.12	-54.1	-55.6	14.5	0.00e+00	0	30	0	542113792	73	4537
2026-01-03 13:24:34.84	305.28	10.10	-54.1	-55.6	14.5	0.00e+00	0	30	0	544210944	73	4534
2026-01-03 13:24:35.84	305.45	10.09	-54.2	-55.7	14.3	0.00e+00	0	30	0	546308096	73	4596
2026-01-03 13:24:36.84	305.63	10.08	-54.1	-55.7	14.4	0.00e+00	0	30	0	547356672	73	4561
2026-01-03 13:24:37.85	305.81	10.06	-54.2	-55.7	14.4	0.00e+00	0	30	0	549453824	73	4594
2026-01-03 13:24:38.86	305.99	10.05	-54.0	-55.6	14.5	0.00e+00	0	30	0	551550976	73	4501
2026-01-03 13:24:39.87	306.17	10.03	-54.0	-55.5	14.5	0.00e+00	0	30	0	553648128	73	4492
2026-01-03 13:24:40.88	306.35	10.02	-54.0	-55.5	14.6	0.00e+00	0	30	0	555745280	73	4468
2026-01-03 13:24:41.89	306.52	10.00	-54.0	-55.5	14.5	0.00e+00	0	30	0	556793856	73	4460
2026-01-03 13:24:42.90	306.70	9.99	-54.0	-55.5	14.5	0.00e+00	0	30	0	558891008	73	4467
2026-01-03 13:24:43.91	306.88	9.97	-54.0	-55.6	14.5	0.00e+00	0	30	0	560988160	73	4518
2026-01-03 13:24:44.92	307.06	9.96	-54.1	-55.7	14.4	0.00e+00	0	30	0	563085312	73	4587
2026-01-03 13:24:45.93	307.23	9.94	-54.2	-55.8	14.4	0.00e+00	0	30	0	565182464	73	4626
2026-01-03 13:24:46.94	307.41	9.93	-54.2	-55.8	14.4	0.00e+00	0	30	0	566231040	73	4617
2026-01-03 13:24:47.95	307.59	9.91	-54.2	-55.9	14.4	0.00e+00	0	30	0	568328192	73	4657
2026-01-03 13:24:48.95	307.76	9.89	-54.2	-55.8	14.4	0.00e+00	0	30	0	570425344	73	4621
2026-01-03 13:24:49.96	307.94	9.88	-54.2	-55.9	14.3	0.00e+00	0	30	0	572522496	73	4659
2026-01-03 13:24:50.97	308.12	9.86	-54.1	-55.6	14.5	0.00e+00	0	30	0	574619648	73	4531
2026-01-03 13:24:51.97	308.29	9.84	-54.2	-55.8	14.4	0.00e+00	0	30	0	575668224	73	4632
2026-01-03 13:24:52.98	308.47	9.83	-54.2	-55.8	14.4	0.00e+00	0	30	0	577765376	73	4649
2026-01-03 13:24:53.98	308.64	9.81	-54.3	-55.9	14.3	0.00e+00	0	30	0	579862528	73	4676
2026-01-03 13:24:54.99	308.82	9.79	-54.4	-56.0	14.3	0.00e+00	0	30	0	581959680	73	4753
2026-01-03 13:24:56.00	308.99	9.77	-54.5	-56.2	14.3	0.00e+00	0	30	0	584056832	74	4583
2026-01-03 13:24:57.01	309.17	9.75	-54.7	-56.5	14.1	0.00e+00	0	30	0	585105408	74	4734
2026-01-03 13:24:58.02	309.34	9.74	-54.7	-56.5	14.1	0.00e+00	0	30	0	587202560	74	4708
2026-01-03 13:24:59.03	309.52	9.72	-54.8	-56.7	14.0	0.00e+00	0	30	0	589299712	74	4839
2026-01-03 13:25:00.04	309.69	9.70	-54.8	-56.7	14.1	0.00e+00	0	30	0	591396864	75	4570
2026-01-03 13:25:01.05	309.87	9.68	-54.7	-56.5	14.2	0.00e+00	0	30	0	593494016	75	4488
2026-01-03 13:25:02.05	310.04	9.66	-54.7	-56.6	14.2	0.00e+00	0	30	0	594542592	75	4500
2026-01-03 13:25:03.06	310.21	9.64	-54.5	-56.2	14.4	0.00e+00	0	30	0	596639744	75	4322
2026-01-03 13:25:04.07	310.39	9.62	-54.5	-56.2	14.3	0.00e+00	0	30	0	598736896	75	4305
2026-01-03 13:25:05.07	310.56	9.60	-54.4	-56.1	14.4	0.00e+00	0	30	0	600834048	75	4269
2026-01-03 13:25:06.08	310.73	9.58	-54.2	-55.9	14.4	0.00e+00	0	30	0	602931200	74	4395
2026-01-03 13:25:07.09	310.90	9.56	-54.1	-55.7	14.5	0.00e+00	0	30	0	603979776	74	4292
2026-01-03 13:25:08.09	311.07	9.54	-54.0	-55.6	14.5	0.00e+00	0	30	0	606076928	74	4258
2026-01-03 13:25:09.10	311.25	9.52	-53.8	-55.3	14.7	0.00e+00	0	30	0	608174080	74	4119
2026-01-03 13:25:10.11	311.42	9.50	-53.6	-55.0	14.7	0.00e+00	0	30	0	610271232	73	4228
2026-01-03 13:25:11.12	311.59	9.48	-53.5	-54.9	14.8	0.00e+00	0	30	0	612368384	73	4160
2026-01-03 13:25:12.12	311.76	9.45	-53.2	-54.5	14.9	0.00e+00	0	30	0	613416960	73	3990
2026-01-03 13:25:13.13	311.93	9.43	-53.0	-54.3	14.9	0.00e+00	0	30	0	615514112	72	4143
2026-01-03 13:25:14.14	312.10	9.41	-53.0	-54.3	14.9	0.00e+00	0	30	0	617611264	72	4105
2026-01-03 13:25:15.15	312.27	9.39	-53.0	-54.3	14.9	0.00e+00	0	30	0	619708416	72	4099
2026-01-03 13:25:16.15	312.44	9.37	-53.1	-54.4	14.9	0.00e+00	0	30	0	621805568	72	4159
2026-01-03 13:25:17.16	312.61	9.34	-53.1	-54.4	14.9	0.00e+00	0	30	0	622854144	72	4147
2026-01-03 13:25:18.17	312.78	9.32	-53.2	-54.6	14.8	0.00e+00	0	30	0	624951296	72	4254
2026-01-03 13:25:19.17	312.95	9.30	-53.4	-54.8	14.8	0.00e+00	0	30	0	627048448	72	4344
2026-01-03 13:25:20.18	313.12	9.28	-53.4	-54.9	14.7	0.00e+00	0	30	0	629145600	72	4397
2026-01-03 13:25:21.18	313.29	9.25	-53.6	-55.1	14.6	0.00e+00	0	30	0	631242752	72	4509
2026-01-03 13:25:22.19	313.46	9.23	-53.6	-55.1	14.6	0.00e+00	0	30	0	632291328	72	4513
2026-01-03 13:25:23.19	313.63	9.21	-53.8	-55.3	14.5	0.00e+00	0	30	0	634388480	72	4630
2026-01-03 13:25:24.20	313.79	9.18	-53.8	-55.3	14.5	0.00e+00	0	30	0	636485632	72	4618
2026-01-03 13:25:25.20	313.96	9.16	-53.9	-55.4	14.5	0.00e+00	0	30	0	638582784	72	4685
2026-01-03 13:25:26.20	314.13	9.13	-53.9	-55.4	14.5	0.00e+00	0	30	0	640679936	73	4424
2026-01-03 13:25:27.21	314.30	9.11	-53.7	-55.3	14.6	0.00e+00	0	30	0	641728512	73	4347
2026-01-03 13:25:28.22	314.46	9.09	-53.8	-55.3	14.6	0.00e+00	0	30	0	643825664	73	4368
2026-01-03 13:25:29.22	314.63	9.06	-53.7	-55.2	14.6	0.00e+00	0	30	0	645922816	73	4296
2026-01-03 13:25:30.23	314.80	9.04	-53.6	-55.0	14.7	0.00e+00	0	30	0	648019968	73	4242
2026-01-03 13:25:31.24	314.96	9.01	-53.6	-55.1	14.6	0.00e+00	0	30	0	650117120	73	4272
2026-01-03 13:25:32.25	315.13	8.99	-53.6	-55.1	14.6	0.00e+00	0	30	0	651165696	73	4272
2026-01-03 13:25:33.26	315.30	8.96	-53.8	-55.3	14.6	0.00e+00	0	30	0	653262848	73	4358
2026-01-03 13:25:34.27	315.46	8.94	-53.8	-55.3	14.6	0.00e+00	0	30	0	655360000	73	4380
2026-01-03 13:25:35.28	315.63	8.91	-53.9	-55.4	14.5	0.00e+00	0	30	0	657457152	73	4431
2026-01-03 13:25:36.28	315.79	8.88	-53.8	-55.3	14.5	0.00e+00	0	30	0	659554304	73	4383
2026-01-03 13:25:37.29	315.96	8.86	-53.7	-55.2	14.6	0.00e+00	0	30	0	660602880	73	4294
2026-01-03 13:25:38.30	316.12	8.83	-53.5	-55.0	14.7	0.00e+00	0	30	0	662700032	73	4214
2026-01-03 13:25:39.30	316.28	8.80	-53.5	-55.0	14.7	0.00e+00	0	30	0	664797184	73	4200
2026-01-03 13:25:40.31	316.45	8.78	-53.3	-54.7	14.8	0.00e+00	0	30	0	666894336	73	4085
2026-01-03 13:25:41.32	316.61	8.75	-53.1	-54.4	14.8	0.00e+00	0	30	0	668991488	72	4172
2026-01-03 13:25:42.33	316.77	8.72	-53.0	-54.3	14.9	0.00e+00	0	30	0	670040064	72	4139
2026-01-03 13:25:43.34	316.94	8.70	-53.1	-54.4	14.9	0.00e+00	0	30	0	672137216	72	4154
2026-01-03 13:25:44.34	317.10	8.67	-53.1	-54.4	14.9	0.00e+00	0	30	0	674234368	72	4178
2026-01-03 13:25:45.35	317.26	8.64	-53.2	-54.6	14.8	0.00e+00	0	30	0	676331520	72	4279
2026-01-03 13:25:46.36	317.42	8.61	-53.4	-54.8	14.7	0.00e+00	0	30	0	678428672	72	4377
2026-01-03 13:25:47.37	317.59	8.59	-53.6	-55.1	14.6	0.00e+00	0	30	0	679477248	72	4506
2026-01-03 13:25:48.38	317.75	8.56	-53.7	-55.2	14.5	0.00e+00	0	30	0	681574400	72	4554
2026-01-03 13:25:49.38	317.91	8.53	-53.8	-55.4	14.5	0.00e+00	0	30	0	683671552	72	4661
2026-01-03 13:25:50.39	318.07	8.50	-53.9	-55.5	14.5	0.00e+00	0	30	0	685768704	73	4465
2026-01-03 13:25:51.40	318.23	8.47	-53.9	-55.4	14.5	0.00e+00	0	30	0	687865856	73	4432
2026-01-03 13:25:52.40	318.39	8.45	-53.8	-55.4	14.5	0.00e+00	0	30	0	688914432	73	4420
2026-01-03 13:25:53.41	318.55	8.42	-53.8	-55.4	14.5	0.00e+00	0	30	0	691011584	73	4393
2026-01-03 13:25:54.42	318.71	8.39	-53.7	-55.3	14.6	0.00e+00	0	30	0	693108736	73	4341
2026-01-03 13:25:55.43	318.87	8.36	-53.8	-55.3	14.6	0.00e+00	0	30	0	695205888	73	4375
2026-01-03 13:25:56.44	319.03	8.33	-53.9	-55.4	14.4	0.00e+00	0	30	0	697303040	73	4437
2026-01-03 13:25:57.45	319.19	8.30	-54.0	-55.7	14.4	0.00e+00	0	30	0	698351616	73	4567
2026-01-03 13:25:58.46	319.35	8.27	-54.1	-55.8	14.3	0.00e+00	0	30	0	700448768	73	4642
2026-01-03 13:25:59.47	319.50	8.24	-54.5	-56.2	14.1	0.00e+00	0	30	0	702545920	74	4593
2026-01-03 13:26:00.48	319.66	8.21	-54.4	-56.2	14.1	0.00e+00	0	30	0	704643072	74	4583
2026-01-03 13:26:01.48	319.82	8.18	-54.6	-56.5	14.0	0.00e+00	0	30	0	706740224	74	4711
2026-01-03 13:26:02.49	319.98	8.15	-54.9	-56.8	13.9	0.00e+00	0	30	0	707788800	74	4910
2026-01-03 13:26:03.50	320.13	8.12	-54.9	-56.9	13.9	0.00e+00	0	30	0	709885952	75	4681
2026-01-03 13:26:04.51	320.29	8.09	-54.8	-56.7	14.0	0.00e+00	0	30	0	711983104	75	4594
2026-01-03 13:26:05.52	320.45	8.06	-54.9	-56.8	13.9	0.00e+00	0	30	0	714080256	75	4625
2026-01-03 13:26:06.53	320.60	8.03	-55.0	-57.0	13.9	0.00e+00	0	30	0	716177408	75	4706
2026-01-03 13:26:07.54	320.76	8.00	-55.0	-57.0	13.8	0.00e+00	0	30	0	718274560	75	4755
2026-01-03 13:26:08.55	320.91	7.97	-55.0	-57.1	13.8	0.00e+00	0	30	0	719323136	75	4776
2026-01-03 13:26:09.56	321.07	7.93	-55.1	-57.2	13.8	0.00e+00	0	30	0	721420288	75	4834
2026-01-03 13:26:10.57	321.22	7.90	-55.0	-57.1	13.8	0.00e+00	0	30	0	723517440	75	4766
2026-01-03 13:26:11.57	321.38	7.87	-55.1	-57.1	13.8	0.00e+00	0	30	0	725614592	75	4803
2026-01-03 13:26:12.57	321.53	7.84	-55.2	-57.3	13.6	0.00e+00	0	30	0	727711744	75	4911
2026-01-03 13:26:13.58	321.68	7.81	-55.2	-57.3	13.7	0.00e+00	0	30	0	728760320	75	4904
2026-01-03 13:26:14.59	321.84	7.78	-55.2	-57.3	13.6	0.00e+00	0	30	0	730857472	75	4909
2026-01-03 13:26:15.60	321.99	7.74	-55.3	-57.4	13.6	0.00e+00	0	30	0	732954624	75	4960
2026-01-03 13:26:16.60	322.14	7.71	-55.2	-57.3	13.7	0.00e+00	0	30	0	735051776	75	4880
2026-01-03 13:26:17.61	322.29	7.68	-55.3	-57.5	13.6	0.00e+00	0	30	0	737148928	75	4987
2026-01-03 13:26:18.62	322.45	7.65	-55.1	-57.2	13.7	0.00e+00	0	30	0	738197504	75	4841
2026-01-03 13:26:19.62	322.60	7.62	-55.1	-57.1	13.8	0.00e+00	0	30	0	740294656	75	4801
2026-01-03 13:26:20.63	322.75	7.58	-55.1	-57.2	13.7	0.00e+00	0	30	0	742391808	75	4853
2026-01-03 13:26:21.63	322.90	7.55	-55.2	-57.3	13.7	0.00e+00	0	30	0	744488960	75	4915
2026-01-03 13:26:22.64	323.05	7.52	-55.2	-57.4	13.6	0.00e+00	0	30	0	746586112	75	4950
2026-01-03 13:26:23.65	323.20	7.48	-55.3	-57.5	13.6	0.00e+00	0	30	0	747634688	75	4988
2026-01-03 13:26:24.66	323.35	7.45	-55.5	-57.7	13.5	0.00e+00	0	30	0	749731840	76	4844
2026-01-03 13:26:25.67	323.50	7.42	-55.6	-57.9	13.4	0.00e+00	0	30	0	751828992	76	4973
2026-01-03 13:26:26.68	323.65	7.39	-55.5	-57.8	13.5	0.00e+00	0	30	0	753926144	76	4889
2026-01-03 13:26:27.68	323.80	7.35	-55.5	-57.8	13.4	0.00e+00	0	30	0	756023296	76	4905
2026-01-03 13:26:28.69	323.95	7.32	-55.5	-57.7	13.5	0.00e+00	0	30	0	757071872	76	4840
2026-01-03 13:26:29.70	324.10	7.28	-55.6	-57.8	13.4	0.00e+00	0	30	0	759169024	76	4918
2026-01-03 13:26:30.71	324.24	7.25	-55.6	-57.9	13.4	0.00e+00	0	30	0	761266176	76	4969
2026-01-03 13:26:31.72	324.39	7.22	-55.7	-58.1	13.3	0.00e+00	0	30	0	763363328	76	5059
2026-01-03 13:26:32.73	324.54	7.18	-55.8	-58.3	13.2	0.00e+00	0	30	0	765460480	76	5192
2026-01-03 13:26:33.74	324.69	7.15	-56.0	-58.6	13.0	0.00e+00	0	30	0	766509056	77	5060
2026-01-03 13:26:34.74	324.83	7.11	-56.3	-59.1	12.7	0.00e+00	0	30	0	768606208	77	5363
2026-01-03 13:26:35.75	324.98	7.08	-56.4	-59.3	12.7	0.00e+00	0	30	0	770703360	78	5167
2026-01-03 13:26:36.76	325.13	7.05	-56.6	-59.6	12.5	0.00e+00	0	30	0	772800512	78	5351
2026-01-03 13:26:37.76	325.27	7.01	-56.6	-59.7	12.4	7.00e-07	0	30	0	774897664	78	5421
2026-01-03 13:26:38.76	325.41	6.98	-56.6	-59.7	12.4	0.00e+00	0	30	0	775946240	78	5424
2026-01-03 13:26:39.77	325.56	6.94	-56.6	-59.7	12.4	0.00e+00	0	30	0	778043392	78	5426
2026-01-03 13:26:40.77	325.70	6.91	-56.6	-59.6	12.5	0.00e+00	0	30	0	780140544	78	5367
2026-01-03 13:26:41.78	325.85	6.87	-56.5	-59.4	12.6	7.00e-07	0	30	0	782237696	78	5247
2026-01-03 13:26:42.79	325.99	6.84	-56.4	-59.4	12.6	0.00e+00	0	30	0	784334848	78	5231
2026-01-03 13:26:43.80	326.14	6.80	-56.1	-58.7	13.0	7.00e-07	0	30	0	785383424	78	4863
2026-01-03 13:26:44.81	326.28	6.77	-56.2	-58.9	12.9	0.00e+00	0	30	0	787480576	78	4975
2026-01-03 13:26:45.81	326.42	6.73	-56.0	-58.5	13.2	0.00e+00	0	30	0	789577728	78	4754
2026-01-03 13:26:46.82	326.57	6.70	-56.1	-58.7	13.0	0.00e+00	0	30	0	791674880	78	4867
2026-01-03 13:26:47.82	326.71	6.66	-56.1	-58.7	13.0	7.00e-07	0	30	0	793772032	78	4840
2026-01-03 13:26:48.83	326.85	6.62	-56.1	-58.8	13.0	0.00e+00	0	30	0	794820608	78	4883
2026-01-03 13:26:49.84	326.99	6.59	-56.2	-58.9	12.9	0.00e+00	0	30	0	796917760	78	4941
2026-01-03 13:26:50.85	327.13	6.55	-56.4	-59.3	12.6	0.00e+00	0	30	0	799014912	78	5184
2026-01-03 13:26:51.86	327.27	6.52	-56.5	-59.4	12.5	0.00e+00	0	30	0	801112064	78	5272
2026-01-03 13:26:52.87	327.41	6.48	-56.3	-59.2	12.6	0.00e+00	0	30	0	803209216	78	5120
2026-01-03 13:26:53.87	327.55	6.44	-56.4	-59.3	12.6	0.00e+00	0	30	0	804257792	78	5199
2026-01-03 13:26:54.88	327.69	6.41	-56.4	-59.3	12.6	7.00e-07	0	30	0	806354944	78	5186
2026-01-03 13:26:55.89	327.83	6.37	-56.4	-59.3	12.6	7.00e-07	0	30	0	808452096	78	5196
2026-01-03 13:26:56.90	327.97	6.33	-56.6	-59.7	12.3	7.00e-07	0	30	0	810549248	78	5439
2026-01-03 13:26:57.90	328.11	6.30	-56.6	-59.7	12.4	7.00e-07	0	30	0	812646400	78	5406
2026-01-03 13:26:58.91	328.25	6.26	-56.6	-59.7	12.3	1.50e-06	0	30	0	813694976	78	5430
2026-01-03 13:26:59.92	328.39	6.23	-56.5	-59.5	12.4	0.00e+00	0	30	0	815792128	78	5337
2026-01-03 13:27:00.92	328.53	6.19	-56.4	-59.4	12.5	7.00e-07	0	30	0	817889280	78	5240
2026-01-03 13:27:01.93	328.66	6.15	-56.5	-59.6	12.4	2.20e-06	0	30	0	819986432	78	5371
2026-01-03 13:27:02.94	328.80	6.11	-56.3	-59.2	12.6	0.00e+00	0	30	0	822083584	78	5142
2026-01-03 13:27:03.95	328.94	6.08	-56.2	-58.9	12.8	0.00e+00	0	30	0	823132160	78	4978
2026-01-03 13:27:04.95	329.07	6.04	-56.1	-58.9	12.8	0.00e+00	0	30	0	825229312	78	4932
2026-01-03 13:27:05.96	329.21	6.00	-56.0	-58.7	13.0	0.00e+00	0	30	0	827326464	78	4842
2026-01-03 13:27:06.96	329.35	5.97	-56.0	-58.6	13.0	0.00e+00	0	30	0	829423616	78	4797
2026-01-03 13:27:07.97	329.48	5.93	-56.0	-58.6	13.0	0.00e+00	0	31	0	831520768	78	4803
2026-01-03 13:27:08.97	329.62	5.89	-55.8	-58.3	13.2	0.00e+00	0	30	0	832569344	78	4619
2026-01-03 13:27:09.98	329.75	5.85	-56.0	-58.7	13.0	0.00e+00	0	30	0	834666496	78	4837
2026-01-03 13:27:10.99	329.89	5.82	-55.9	-58.5	13.1	0.00e+00	0	30	0	836763648	78	4712
2026-01-03 13:27:12.00	330.02	5.78	-56.0	-58.7	13.0	0.00e+00	0	30	0	838860800	78	4829
2026-01-03 13:27:13.00	330.15	5.74	-56.2	-59.0	12.7	0.00e+00	0	30	0	840957952	78	4999
2026-01-03 13:27:14.01	330.29	5.70	-56.0	-58.8	12.9	0.00e+00	0	30	0	842006528	78	4884
2026-01-03 13:27:15.02	330.42	5.67	-56.1	-58.9	12.8	0.00e+00	0	30	0	844103680	78	4941
2026-01-03 13:27:16.03	330.55	5.63	-55.9	-58.5	13.0	0.00e+00	0	30	0	846200832	78	4754
2026-01-03 13:27:17.03	330.69	5.59	-55.8	-58.4	13.1	0.00e+00	0	30	0	848297984	78	4693
2026-01-03 13:27:18.04	330.82	5.55	-56.0	-58.7	12.9	0.00e+00	0	30	0	850395136	78	4834
2026-01-03 13:27:19.05	330.95	5.51	-55.7	-58.3	13.1	0.00e+00	0	30	0	851443712	77	4896
2026-01-03 13:27:20.06	331.08	5.47	-55.6	-58.0	13.2	0.00e+00	0	30	0	853540864	77	4749
2026-01-03 13:27:21.06	331.21	5.44	-55.6	-58.1	13.2	0.00e+00	0	30	0	855638016	77	4771
2026-01-03 13:27:22.07	331.34	5.40	-55.5	-57.9	13.4	0.00e+00	0	30	0	857735168	77	4661
2026-01-03 13:27:23.08	331.48	5.36	-55.5	-57.9	13.4	0.00e+00	0	30	0	859832320	77	4664
2026-01-03 13:27:24.09	331.61	5.32	-55.4	-57.8	13.4	0.00e+00	0	30	0	860880896	77	4629
2026-01-03 13:27:25.10	331.74	5.28	-55.4	-57.8	13.4	0.00e+00	0	30	0	862978048	77	4649
2026-01-03 13:27:26.11	331.87	5.24	-55.3	-57.6	13.5	0.00e+00	0	30	0	865075200	77	4502
2026-01-03 13:27:27.12	332.00	5.21	-55.3	-57.7	13.4	0.00e+00	0	30	0	867172352	77	4555
2026-01-03 13:27:28.13	332.13	5.17	-55.4	-57.8	13.4	0.00e+00	0	30	0	869269504	77	4611
2026-01-03 13:27:29.14	332.25	5.13	-55.6	-58.0	13.2	0.00e+00	0	30	0	870318080	77	4753
2026-01-03 13:27:30.14	332.38	5.09	-55.6	-58.0	13.2	0.00e+00	0	30	0	872415232	77	4743
2026-01-03 13:27:31.15	332.51	5.05	-55.7	-58.2	13.1	0.00e+00	0	30	0	874512384	77	4851
2026-01-03 13:27:32.15	332.64	5.01	-55.8	-58.4	13.0	0.00e+00	0	30	0	876609536	77	4956
2026-01-03 13:27:33.16	332.76	4.97	-60.0	-73.9	3.8	5.38e-02	0	30	104	877658112	85	18583
2026-01-03 13:27:34.17	332.89	4.93	-60.5	-76.1	3.8	1.49e+00	0	30	104	877658112	86	22601
2026-01-03 13:27:35.18	333.02	4.89	-60.8	-76.4	3.8	1.49e+00	0	30	104	877658112	86	23438
2026-01-03 13:27:36.18	333.14	4.85	-61.1	-76.6	3.8	1.49e+00	0	30	104	877658112	87	22760
2026-01-03 13:27:37.19	333.27	4.82	-61.2	-76.8	3.8	1.49e+00	0	30	104	877658112	87	23252
2026-01-03 13:27:38.19	333.39	4.78	-61.4	-77.0	3.8	1.49e+00	0	30	104	877658112	87	23675
2026-01-03 13:27:39.20	333.52	4.74	-61.5	-77.1	3.8	1.49e+00	0	30	104	877658112	88	22587
2026-01-03 13:27:40.20	333.64	4.70	-61.6	-77.2	3.8	1.49e+00	0	30	104	877658112	88	22863
2026-01-03 13:27:41.21	333.77	4.66	-61.7	-77.3	3.8	1.49e+00	0	30	104	877658112	88	23108
2026-01-03 13:27:42.22	333.89	4.62	-61.7	-77.3	3.8	1.49e+00	0	30	104	877658112	88	23252
2026-01-03 13:27:43.23	334.02	4.58	-61.8	-77.4	3.8	1.49e+00	0	30	104	877658112	88	23361
2026-01-03 13:27:44.24	334.14	4.54	-61.8	-77.4	3.8	1.49e+00	0	30	104	877658112	88	23355
2026-01-03 13:27:45.25	334.27	4.50	-61.8	-77.4	3.8	1.49e+00	0	30	104	877658112	88	23527
2026-01-03 13:27:46.26	334.39	4.46	-61.9	-77.5	3.8	1.49e+00	0	30	104	877658112	88	23639
2026-01-03 13:27:47.27	334.51	4.42	-61.9	-77.5	3.8	1.49e+00	0	30	104	877658112	88	23663
2026-01-03 13:27:48.28	334.64	4.38	-61.9	-77.5	3.8	1.49e+00	0	30	104	877658112	89	22331
2026-01-03 13:27:49.29	334.76	4.34	-61.9	-77.5	3.8	1.49e+00	0	30	104	877658112	89	22447
2026-01-03 13:27:50.30	334.88	4.30	-61.9	-77.6	3.8	1.49e+00	0	30	104	877658112	89	22536
2026-01-03 13:27:51.31	335.00	4.26	-61.9	-77.5	3.8	1.49e+00	0	30	104	877658112	89	22492
2026-01-03 13:27:52.32	335.12	4.22	-61.9	-77.5	3.8	1.49e+00	0	30	104	877658112	89	22519
2026-01-03 13:27:53.33	335.25	4.18	-61.9	-77.5	3.8	1.49e+00	0	30	104	877658112	89	22501
2026-01-03 13:27:54.34	335.37	4.14	-61.9	-77.5	3.8	1.49e+00	0	30	104	877658112	89	22485
2026-01-03 13:27:55.34	335.49	4.10	-61.9	-77.5	3.8	1.49e+00	0	30	104	877658112	89	22385
2026-01-03 13:27:56.36	335.61	4.06	-61.9	-77.5	3.8	1.49e+00	0	30	104	877658112	89	22307
2026-01-03 13:27:57.37	335.73	4.02	-61.9	-77.5	3.8	1.49e+00	0	30	104	877658112	89	22355
2026-01-03 13:27:58.38	335.85	3.98	-61.8	-77.4	3.8	1.49e+00	0	30	104	877658112	89	22223
2026-01-03 13:27:59.38	335.96	3.94	-61.8	-77.5	3.8	1.49e+00	0	30	104	877658112	89	22279
2026-01-03 13:28:00.39	336.08	3.90	-61.8	-77.4	3.8	1.49e+00	0	30	104	877658112	89	22227
2026-01-03 13:28:01.40	336.20	3.86	-61.8	-77.4	3.8	1.49e+00	0	30	104	877658112	89	22177
2026-01-03 13:28:02.41	336.32	3.82	-61.8	-77.4	3.8	1.49e+00	0	30	104	877658112	89	22126
2026-01-03 13:28:03.41	336.44	3.78	-61.8	-77.4	3.8	1.49e+00	0	31	104	877658112	89	22120
2026-01-03 13:28:04.43	336.56	3.74	-61.8	-77.4	3.8	1.49e+00	0	30	104	877658112	89	22131
2026-01-03 13:28:05.43	336.67	3.70	-61.8	-77.4	3.8	1.49e+00	0	31	104	877658112	89	22028
2026-01-03 13:28:06.44	336.79	3.66	-61.8	-77.4	3.8	1.49e+00	0	30	104	877658112	89	22030
2026-01-03 13:28:07.45	336.91	3.62	-61.7	-77.4	3.8	1.49e+00	0	30	104	877658112	89	22008
2026-01-03 13:28:08.46	337.02	3.57	-61.7	-77.3	3.8	1.49e+00	0	30	104	877658112	89	22005
2026-01-03 13:28:09.47	337.14	3.53	-61.7	-77.3	3.8	1.49e+00	0	30	104	877658112	89	21985
2026-01-03 13:28:10.48	337.25	3.49	-61.7	-77.3	3.8	1.49e+00	0	30	104	877658112	89	21993
2026-01-03 13:28:11.49	337.37	3.45	-61.7	-77.3	3.8	1.49e+00	0	30	104	877658112	89	21923
2026-01-03 13:28:12.50	337.49	3.41	-61.7	-77.3	3.8	1.49e+00	0	30	104	877658112	89	21941
2026-01-03 13:28:13.51	337.60	3.37	-61.7	-77.3	3.8	1.49e+00	0	30	104	877658112	89	21908
2026-01-03 13:28:14.52	337.72	3.33	-61.7	-77.3	3.8	1.49e+00	0	30	104	877658112	89	21878
2026-01-03 13:28:15.53	337.83	3.29	-61.7	-77.3	3.9	1.49e+00	0	30	104	877658112	89	21889
2026-01-03 13:28:16.54	337.94	3.25	-61.7	-77.3	3.8	1.49e+00	0	30	104	877658112	89	21880
2026-01-03 13:28:17.55	338.06	3.21	-61.7	-77.3	3.8	1.49e+00	0	31	104	877658112	89	21856
2026-01-03 13:28:18.56	338.17	3.17	-61.7	-77.3	3.8	1.49e+00	0	30	104	877658112	89	21841
2026-01-03 13:28:19.56	338.28	3.13	-61.7	-77.3	3.8	1.49e+00	0	30	104	877658112	89	21826
2026-01-03 13:28:20.57	338.40	3.08	-61.7	-77.3	3.8	1.49e+00	0	30	104	877658112	89	21852
2026-01-03 13:28:21.58	338.51	3.04	-61.7	-77.3	3.8	1.49e+00	0	30	104	877658112	89	21757
2026-01-03 13:28:22.59	338.62	3.00	-61.7	-77.3	3.8	1.49e+00	0	31	104	877658112	89	21789
2026-01-03 13:28:23.60	338.73	2.96	-61.7	-77.3	3.8	1.49e+00	0	30	104	877658112	89	21804
2026-01-03 13:28:24.61	338.84	2.92	-61.6	-77.3	3.8	1.49e+00	0	30	104	877658112	89	21784
2026-01-03 13:28:25.62	338.96	2.88	-61.6	-77.2	3.8	1.49e+00	0	30	104	877658112	89	21704
2026-01-03 13:28:26.63	339.07	2.84	-61.6	-77.2	3.8	1.49e+00	0	30	104	877658112	89	21695
2026-01-03 13:28:27.64	339.18	2.80	-61.6	-77.2	3.8	1.49e+00	0	30	104	877658112	89	21724
2026-01-03 13:28:28.65	339.29	2.76	-61.6	-77.2	3.8	1.49e+00	0	30	104	877658112	89	21734
2026-01-03 13:28:29.66	339.40	2.71	-61.6	-77.2	3.8	1.49e+00	0	31	104	877658112	89	21643
2026-01-03 13:28:30.67	339.51	2.67	-61.6	-77.2	3.8	1.49e+00	0	30	104	877658112	89	21655
2026-01-03 13:28:31.68	339.62	2.63	-61.6	-77.2	3.8	1.49e+00	0	30	104	877658112	89	21672
2026-01-03 13:28:32.68	339.73	2.59	-61.6	-77.2	3.8	1.49e+00	0	30	104	877658112	89	21714
2026-01-03 13:28:33.69	339.83	2.55	-61.6	-77.2	3.8	1.49e+00	0	30	104	877658112	89	21640
2026-01-03 13:28:34.70	339.94	2.51	-61.6	-77.2	3.8	1.49e+00	0	30	104	877658112	89	21663
2026-01-03 13:28:35.71	340.05	2.47	-61.6	-77.2	3.8	1.49e+00	0	30	104	877658112	89	21643
2026-01-03 13:28:36.72	340.16	2.42	-61.6	-77.2	3.8	1.49e+00	0	30	104	877658112	89	21688
2026-01-03 13:28:37.73	340.27	2.38	-61.6	-77.1	3.8	1.49e+00	0	30	104	877658112	89	21486
2026-01-03 13:28:38.73	340.37	2.34	-61.6	-77.2	3.8	1.49e+00	0	31	104	877658112	89	21596
2026-01-03 13:28:39.74	340.48	2.30	-61.6	-77.2	3.8	1.49e+00	0	30	104	877658112	89	21605
2026-01-03 13:28:40.75	340.59	2.26	-61.6	-77.2	3.8	1.49e+00	0	30	104	877658112	89	21611
2026-01-03 13:28:41.76	340.70	2.22	-61.6	-77.2	3.8	1.49e+00	0	30	104	877658112	89	21575
2026-01-03 13:28:42.77	340.80	2.18	-61.6	-77.2	3.8	1.49e+00	0	30	104	877658112	89	21523
2026-01-03 13:28:43.78	340.91	2.14	-61.5	-77.2	3.8	1.49e+00	0	30	104	877658112	89	21537
2026-01-03 13:28:44.78	341.01	2.09	-61.5	-77.2	3.8	1.49e+00	0	30	104	877658112	89	21516
2026-01-03 13:28:45.79	341.12	2.05	-61.5	-77.1	3.8	1.49e+00	0	30	104	877658112	89	21476
2026-01-03 13:28:46.80	341.22	2.01	-61.5	-77.1	3.8	1.49e+00	0	31	104	877658112	89	21490
2026-01-03 13:28:47.81	341.33	1.97	-61.5	-77.1	3.8	1.49e+00	0	30	104	877658112	89	21472
2026-01-03 13:28:48.82	341.43	1.93	-61.5	-77.1	3.8	1.49e+00	0	30	104	877658112	89	21454
2026-01-03 13:28:49.83	341.54	1.89	-61.5	-77.1	3.8	1.49e+00	0	30	104	877658112	89	21449

#Closed at: 2026-01-03 13:28:49
#Recorded file [877 MB]: D:/lorett/data/31004_260103_161835.dat