passes_logs/2026/01/03/R3.2S_Murmansk/R3.2S_Murmansk__20260103_215629_SUOMI_NPP_rec.log

#Pass ID: 20260103_215629_SUOMI NPP
#Satellite: SUOMI NPP
#Configuration: NPP
#almurnet v.1.7.20251203
#Start time: 2026-01-03 21:56:28

#Version: 2.2.20231116
#Station: R3.2S_Murmansk
#Location: 33.079688 lon 68.888172 lat
#TLE: 1 37849U 11061A   26001.07732418  .00000182  00000+0  10735-3 0  9990
#TLE: 2 37849  98.7795 303.2470 0002580  87.2016 272.9455 14.19520779734739

#Time	Az	El	Level	Level2	SNR	BER	BlckErr	Temp	State	Recorded	gain1	gain2
2026-01-03 21:56:28.96	18.45	1.97	-58.8	-74.8	3.8	1.49e+00	0	27	0	0	84	21759
2026-01-03 21:56:29.96	18.53	2.02	-58.6	-74.5	3.8	1.49e+00	0	27	104	0	82	23735
2026-01-03 21:56:30.95	18.62	2.07	-58.6	-74.6	3.8	1.49e+00	0	27	104	0	82	23869
2026-01-03 21:56:31.96	18.70	2.12	-58.6	-74.6	3.8	1.49e+00	0	27	104	0	82	23974
2026-01-03 21:56:32.96	18.78	2.17	-58.6	-74.6	3.8	1.49e+00	0	27	104	0	82	24055
2026-01-03 21:56:33.96	18.87	2.22	-58.6	-74.6	3.8	1.49e+00	0	27	104	0	82	24059
2026-01-03 21:56:34.96	18.95	2.28	-58.6	-74.7	3.8	1.49e+00	0	27	104	0	82	24147
2026-01-03 21:56:35.96	19.04	2.33	-58.6	-74.6	3.8	1.49e+00	0	27	104	0	82	24106
2026-01-03 21:56:36.96	19.12	2.38	-58.6	-74.6	3.8	1.49e+00	0	27	104	0	82	24118
2026-01-03 21:56:37.96	19.20	2.43	-58.6	-74.7	3.8	1.49e+00	0	27	104	0	82	24148
2026-01-03 21:56:38.96	19.29	2.48	-58.6	-74.6	3.8	1.49e+00	0	27	104	0	82	24042
2026-01-03 21:56:39.97	19.38	2.53	-58.6	-74.6	3.8	1.49e+00	0	27	104	0	82	24078
2026-01-03 21:56:40.96	19.46	2.58	-58.6	-74.6	3.8	1.49e+00	0	27	104	0	82	24028
2026-01-03 21:56:41.96	19.55	2.63	-58.6	-74.6	3.8	1.49e+00	0	27	104	0	82	24005
2026-01-03 21:56:42.96	19.63	2.68	-58.6	-74.6	3.8	1.49e+00	0	27	104	0	82	23873
2026-01-03 21:56:43.97	19.72	2.74	-58.6	-74.6	3.8	1.49e+00	0	27	104	0	82	24007
2026-01-03 21:56:44.97	19.81	2.79	-58.6	-74.6	3.8	1.49e+00	0	27	104	0	82	23903
2026-01-03 21:56:45.97	19.90	2.84	-58.6	-74.6	3.8	1.49e+00	0	27	104	0	82	24045
2026-01-03 21:56:46.97	19.98	2.89	-58.6	-74.6	3.8	1.49e+00	0	27	104	0	82	24123
2026-01-03 21:56:47.97	20.07	2.94	-58.6	-74.7	3.8	1.49e+00	0	27	104	0	82	24218
2026-01-03 21:56:48.98	20.16	2.99	-58.6	-74.6	3.9	1.49e+00	0	27	104	0	82	24054
2026-01-03 21:56:49.98	20.25	3.04	-58.6	-74.5	3.8	1.49e+00	0	28	104	0	82	23854
2026-01-03 21:56:50.98	20.34	3.10	-58.6	-74.5	3.8	1.49e+00	0	27	104	0	82	23773
2026-01-03 21:56:51.98	20.42	3.15	-58.6	-74.5	3.8	1.49e+00	0	27	104	0	82	23684
2026-01-03 21:56:52.98	20.51	3.20	-58.6	-74.6	3.8	1.49e+00	0	27	104	0	82	23862
2026-01-03 21:56:53.98	20.60	3.25	-58.6	-74.6	3.8	1.49e+00	0	27	104	0	82	23974
2026-01-03 21:56:54.98	20.69	3.30	-58.6	-74.7	3.8	1.49e+00	0	28	104	0	82	24153
2026-01-03 21:56:55.98	20.78	3.36	-58.6	-74.6	3.8	1.49e+00	0	28	104	0	82	24074
2026-01-03 21:56:56.98	20.87	3.41	-58.6	-74.5	3.8	1.49e+00	0	27	104	0	82	23638
2026-01-03 21:56:57.97	20.96	3.46	-58.6	-74.3	3.8	1.49e+00	0	28	104	0	82	23140
2026-01-03 21:56:58.97	21.05	3.51	-58.6	-74.0	3.8	1.49e+00	0	28	104	0	82	22266
2026-01-03 21:56:59.96	21.15	3.56	-58.6	-73.6	3.8	1.49e+00	0	28	104	0	82	21353
2026-01-03 21:57:00.96	21.24	3.61	-58.5	-73.5	3.8	1.49e+00	0	28	104	0	82	21157
2026-01-03 21:57:01.96	21.33	3.67	-58.6	-73.6	3.8	1.49e+00	0	28	104	0	82	21323
2026-01-03 21:57:02.95	21.42	3.72	-58.6	-73.5	3.8	1.49e+00	0	28	104	0	82	21208
2026-01-03 21:57:03.96	21.51	3.77	-58.6	-73.4	3.8	1.49e+00	0	28	104	0	82	20998
2026-01-03 21:57:04.95	21.61	3.82	-58.5	-73.1	3.8	1.49e+00	0	28	104	0	82	20124
2026-01-03 21:57:05.95	21.70	3.87	-58.5	-72.4	4.0	1.49e+00	0	28	104	0	82	18538
2026-01-03 21:57:06.95	21.79	3.93	-58.5	-71.4	4.2	1.47e+00	0	28	104	0	82	16568
2026-01-03 21:57:07.95	21.89	3.98	-58.4	-70.6	4.4	1.39e+00	2	28	0	0	82	15061
2026-01-03 21:57:08.95	21.98	4.03	-58.4	-70.3	4.4	1.23e+00	63	28	0	1048576	82	14661
2026-01-03 21:57:09.95	22.07	4.08	-58.3	-69.7	4.7	9.21e-01	0	28	0	3145728	82	13587
2026-01-03 21:57:10.95	22.17	4.14	-58.3	-69.6	4.7	8.96e-01	0	28	0	5242880	82	13420
2026-01-03 21:57:11.95	22.26	4.19	-58.3	-69.1	4.9	7.56e-01	0	28	0	7340032	82	12666
2026-01-03 21:57:12.95	22.36	4.24	-58.1	-67.6	5.7	4.53e-01	0	28	0	8388608	82	10759
2026-01-03 21:57:13.95	22.46	4.29	-57.8	-66.0	6.8	2.33e-01	0	28	0	10485760	82	8954
2026-01-03 21:57:14.95	22.55	4.35	-57.4	-64.0	8.5	3.41e-02	0	28	0	12582912	81	7493
2026-01-03 21:57:15.95	22.65	4.40	-56.9	-62.4	9.9	6.44e-03	0	28	0	14680064	80	6596
2026-01-03 21:57:16.95	22.74	4.45	-56.2	-60.7	11.1	4.67e-04	0	28	0	16777216	79	5758
2026-01-03 21:57:17.94	22.84	4.50	-55.8	-59.9	11.7	3.96e-05	0	28	0	17825792	78	5588
2026-01-03 21:57:18.95	22.94	4.56	-55.1	-58.6	12.4	0.00e+00	0	28	0	19922944	76	5384
2026-01-03 21:57:19.94	23.04	4.61	-55.0	-58.4	12.6	0.00e+00	0	28	0	22020096	76	5252
2026-01-03 21:57:20.94	23.13	4.66	-55.1	-58.7	12.4	7.00e-07	0	28	0	24117248	76	5404
2026-01-03 21:57:21.94	23.23	4.71	-55.1	-58.8	12.3	0.00e+00	0	28	0	26214400	76	5474
2026-01-03 21:57:22.94	23.33	4.77	-55.4	-59.3	12.0	7.00e-07	0	28	0	27262976	76	5832
2026-01-03 21:57:23.95	23.43	4.82	-55.8	-60.0	11.6	4.50e-06	0	28	0	29360128	76	6292
2026-01-03 21:57:24.94	23.53	4.87	-56.3	-61.1	10.8	6.02e-05	0	28	0	31457280	77	6757
2026-01-03 21:57:25.95	23.63	4.93	-56.9	-62.5	9.7	1.42e-03	0	28	0	33554432	78	7525
2026-01-03 21:57:26.95	23.73	4.98	-57.3	-64.0	8.5	1.01e-02	0	28	0	35651584	79	8434
2026-01-03 21:57:27.95	23.83	5.03	-57.7	-65.7	7.2	5.28e-02	0	28	0	36700160	80	9622
2026-01-03 21:57:28.95	23.93	5.09	-55.3	-58.9	12.3	6.05e-02	0	28	0	38797312	77	5278
2026-01-03 21:57:29.95	24.03	5.14	-58.0	-67.5	5.8	7.38e-02	0	28	0	40894464	81	11232
2026-01-03 21:57:30.96	24.13	5.19	-58.6	-70.6	4.4	1.17e-01	34	28	0	42991616	82	15161
2026-01-03 21:57:31.96	24.24	5.25	-55.7	-59.7	12.0	2.91e-01	0	28	0	44040192	78	5420
2026-01-03 21:57:32.96	24.34	5.30	-58.3	-69.9	4.6	3.54e-01	0	28	0	46137344	81	14726
2026-01-03 21:57:33.96	24.44	5.35	-55.7	-59.6	12.0	8.95e-02	0	28	0	48234496	78	5348
2026-01-03 21:57:34.95	24.54	5.41	-55.1	-58.5	12.5	3.80e-06	0	28	0	50331648	76	5318
2026-01-03 21:57:35.95	24.65	5.46	-54.5	-57.5	13.1	0.00e+00	0	28	0	51380224	75	5031
2026-01-03 21:57:36.95	24.75	5.51	-54.2	-57.1	13.3	0.00e+00	0	28	0	53477376	74	5064
2026-01-03 21:57:37.94	24.85	5.56	-54.0	-56.9	13.4	0.00e+00	0	28	0	55574528	74	4929
2026-01-03 21:57:38.95	24.96	5.62	-53.8	-56.5	13.6	0.00e+00	0	28	0	57671680	74	4741
2026-01-03 21:57:39.95	25.06	5.67	-53.8	-56.5	13.6	0.00e+00	0	28	0	59768832	74	4736
2026-01-03 21:57:40.96	25.17	5.73	-53.8	-56.5	13.7	0.00e+00	0	28	0	60817408	74	4710
2026-01-03 21:57:41.95	25.27	5.78	-53.8	-56.4	13.6	0.00e+00	0	28	0	62914560	73	4960
2026-01-03 21:57:42.95	25.38	5.83	-53.5	-56.1	13.8	0.00e+00	0	28	0	65011712	73	4782
2026-01-03 21:57:43.95	25.48	5.89	-53.5	-56.1	13.8	0.00e+00	0	28	0	67108864	73	4778
2026-01-03 21:57:44.95	25.59	5.94	-53.5	-56.0	13.8	0.00e+00	0	28	0	69206016	73	4744
2026-01-03 21:57:45.95	25.70	5.99	-53.4	-55.9	13.9	0.00e+00	0	28	0	70254592	73	4680
2026-01-03 21:57:46.95	25.81	6.05	-53.6	-56.2	13.7	0.00e+00	0	28	0	72351744	73	4835
2026-01-03 21:57:47.95	25.91	6.10	-53.6	-56.2	13.7	0.00e+00	0	28	0	74448896	73	4833
2026-01-03 21:57:48.95	26.02	6.16	-53.5	-56.1	13.8	0.00e+00	0	28	0	76546048	73	4769
2026-01-03 21:57:49.95	26.13	6.21	-53.6	-56.2	13.8	0.00e+00	0	28	0	78643200	73	4834
2026-01-03 21:57:50.96	26.24	6.26	-53.5	-56.1	13.7	0.00e+00	0	28	0	79691776	73	4790
2026-01-03 21:57:51.95	26.35	6.32	-53.6	-56.2	13.7	0.00e+00	0	28	0	81788928	73	4817
2026-01-03 21:57:52.95	26.46	6.37	-53.8	-56.5	13.6	0.00e+00	0	28	0	83886080	73	4994
2026-01-03 21:57:53.95	26.57	6.42	-53.8	-56.4	13.6	0.00e+00	0	28	0	85983232	73	4943
2026-01-03 21:57:54.94	26.68	6.48	-53.9	-56.6	13.6	0.00e+00	0	28	0	87031808	73	5060
2026-01-03 21:57:55.94	26.79	6.53	-53.9	-56.5	13.5	0.00e+00	0	28	0	89128960	73	5037
2026-01-03 21:57:56.93	26.90	6.59	-53.9	-56.5	13.5	0.00e+00	0	28	0	91226112	73	5041
2026-01-03 21:57:57.92	27.01	6.64	-53.8	-56.5	13.6	0.00e+00	0	28	0	93323264	73	5019
2026-01-03 21:57:58.92	27.12	6.69	-53.9	-56.6	13.6	0.00e+00	0	28	0	95420416	73	5075
2026-01-03 21:57:59.92	27.23	6.75	-53.9	-56.6	13.6	0.00e+00	0	28	0	96468992	73	5064
2026-01-03 21:58:00.91	27.34	6.80	-53.9	-56.5	13.6	0.00e+00	0	28	0	98566144	73	5024
2026-01-03 21:58:01.91	27.46	6.85	-53.9	-56.6	13.5	0.00e+00	0	28	0	100663296	73	5081
2026-01-03 21:58:02.91	27.57	6.91	-53.9	-56.6	13.6	0.00e+00	0	28	0	102760448	73	5081
2026-01-03 21:58:03.91	27.68	6.96	-54.0	-56.7	13.5	0.00e+00	0	28	0	103809024	73	5128
2026-01-03 21:58:04.91	27.80	7.02	-54.0	-56.7	13.5	0.00e+00	0	28	0	105906176	73	5125
2026-01-03 21:58:05.90	27.91	7.07	-53.9	-56.5	13.6	0.00e+00	0	28	0	108003328	73	5033
2026-01-03 21:58:06.91	28.03	7.13	-53.9	-56.5	13.6	0.00e+00	0	28	0	110100480	73	5004
2026-01-03 21:58:07.91	28.14	7.18	-53.9	-56.6	13.6	0.00e+00	0	28	0	112197632	73	5049
2026-01-03 21:58:08.91	28.26	7.23	-53.9	-56.6	13.6	0.00e+00	0	28	0	113246208	73	5057
2026-01-03 21:58:09.90	28.37	7.29	-53.7	-56.2	13.8	0.00e+00	0	29	0	115343360	73	4844
2026-01-03 21:58:10.91	28.49	7.34	-53.6	-56.1	13.8	0.00e+00	0	28	0	117440512	73	4812
2026-01-03 21:58:11.91	28.61	7.40	-53.7	-56.2	13.8	0.00e+00	0	28	0	119537664	73	4844
2026-01-03 21:58:12.91	28.73	7.45	-53.7	-56.3	13.8	0.00e+00	0	28	0	121634816	73	4886
2026-01-03 21:58:13.91	28.84	7.51	-53.7	-56.2	13.8	0.00e+00	0	28	0	122683392	73	4829
2026-01-03 21:58:14.91	28.96	7.56	-53.6	-56.1	13.8	0.00e+00	0	29	0	124780544	73	4813
2026-01-03 21:58:15.91	29.08	7.61	-53.6	-56.1	13.9	0.00e+00	0	28	0	126877696	73	4760
2026-01-03 21:58:16.91	29.20	7.67	-53.7	-56.3	13.8	0.00e+00	0	28	0	128974848	73	4892
2026-01-03 21:58:17.91	29.32	7.72	-53.5	-56.0	13.9	0.00e+00	0	28	0	131072000	73	4711
2026-01-03 21:58:18.91	29.44	7.78	-53.5	-55.9	14.0	0.00e+00	0	28	0	132120576	73	4676
2026-01-03 21:58:19.92	29.56	7.83	-53.5	-55.9	13.9	0.00e+00	0	29	0	134217728	73	4687
2026-01-03 21:58:20.91	29.68	7.89	-53.5	-55.8	14.0	0.00e+00	0	28	0	136314880	73	4651
2026-01-03 21:58:21.91	29.80	7.94	-53.4	-55.7	14.1	0.00e+00	0	28	0	138412032	73	4567
2026-01-03 21:58:22.91	29.93	8.00	-53.3	-55.7	14.1	0.00e+00	0	29	0	139460608	73	4552
2026-01-03 21:58:23.92	30.05	8.05	-53.2	-55.5	14.2	0.00e+00	0	28	0	141557760	73	4474
2026-01-03 21:58:24.92	30.17	8.10	-53.2	-55.4	14.1	0.00e+00	0	29	0	143654912	72	4699
2026-01-03 21:58:25.92	30.30	8.16	-53.1	-55.4	14.2	0.00e+00	0	28	0	145752064	72	4660
2026-01-03 21:58:26.92	30.42	8.21	-53.1	-55.3	14.2	0.00e+00	0	28	0	147849216	72	4621
2026-01-03 21:58:27.92	30.54	8.27	-53.1	-55.4	14.1	0.00e+00	0	28	0	148897792	72	4663
2026-01-03 21:58:28.92	30.67	8.32	-53.1	-55.3	14.2	0.00e+00	0	29	0	150994944	72	4623
2026-01-03 21:58:29.91	30.79	8.38	-53.2	-55.5	14.1	0.00e+00	0	29	0	153092096	72	4736
2026-01-03 21:58:30.91	30.92	8.43	-53.2	-55.5	14.1	0.00e+00	0	28	0	155189248	72	4723
2026-01-03 21:58:31.91	31.04	8.49	-53.2	-55.5	14.1	0.00e+00	0	29	0	157286400	72	4753
2026-01-03 21:58:32.90	31.17	8.54	-53.3	-55.6	14.1	0.00e+00	0	28	0	158334976	72	4778
2026-01-03 21:58:33.90	31.29	8.59	-53.4	-55.7	14.0	0.00e+00	0	28	0	160432128	72	4839
2026-01-03 21:58:34.90	31.42	8.65	-53.3	-55.6	14.1	0.00e+00	0	28	0	162529280	72	4784
2026-01-03 21:58:35.90	31.55	8.70	-53.3	-55.6	14.1	0.00e+00	0	28	0	164626432	72	4789
2026-01-03 21:58:36.90	31.68	8.76	-53.3	-55.6	14.1	0.00e+00	0	29	0	165675008	72	4770
2026-01-03 21:58:37.90	31.81	8.81	-53.3	-55.7	14.0	0.00e+00	0	29	0	167772160	72	4817
2026-01-03 21:58:38.90	31.94	8.87	-53.2	-55.5	14.1	0.00e+00	0	29	0	169869312	72	4734
2026-01-03 21:58:39.90	32.06	8.92	-53.3	-55.7	14.0	0.00e+00	0	28	0	171966464	72	4841
2026-01-03 21:58:40.90	32.19	8.98	-53.3	-55.6	14.1	0.00e+00	0	28	0	174063616	72	4781
2026-01-03 21:58:41.91	32.33	9.03	-53.4	-55.8	14.0	0.00e+00	0	29	0	175112192	72	4910
2026-01-03 21:58:42.91	32.46	9.09	-53.3	-55.7	14.0	0.00e+00	0	28	0	177209344	72	4822
2026-01-03 21:58:43.92	32.59	9.14	-53.4	-55.8	13.9	0.00e+00	0	28	0	179306496	72	4926
2026-01-03 21:58:44.92	32.72	9.19	-53.4	-55.8	14.0	0.00e+00	0	29	0	181403648	72	4873
2026-01-03 21:58:45.92	32.85	9.25	-53.5	-55.9	13.9	0.00e+00	0	28	0	183500800	72	4941
2026-01-03 21:58:46.92	32.99	9.30	-53.5	-55.9	13.9	0.00e+00	0	29	0	184549376	72	4977
2026-01-03 21:58:47.91	33.12	9.36	-53.4	-55.8	14.0	0.00e+00	0	29	0	186646528	72	4909
2026-01-03 21:58:48.91	33.25	9.41	-53.5	-56.0	13.9	0.00e+00	0	28	0	188743680	72	5005
2026-01-03 21:58:49.92	33.39	9.47	-53.5	-56.0	13.9	0.00e+00	0	29	0	190840832	72	5002
2026-01-03 21:58:50.92	33.52	9.52	-53.4	-55.8	14.0	0.00e+00	0	29	0	192937984	72	4875
2026-01-03 21:58:51.91	33.66	9.58	-53.5	-55.9	13.9	0.00e+00	0	29	0	193986560	72	4954
2026-01-03 21:58:52.91	33.79	9.63	-53.5	-55.9	13.9	0.00e+00	0	29	0	196083712	72	4955
2026-01-03 21:58:53.90	33.93	9.68	-53.5	-56.0	13.9	0.00e+00	0	29	0	198180864	72	4995
2026-01-03 21:58:54.90	34.06	9.74	-53.5	-56.0	13.9	0.00e+00	0	29	0	200278016	72	5006
2026-01-03 21:58:55.91	34.20	9.79	-53.6	-56.1	13.9	0.00e+00	0	28	0	201326592	72	5052
2026-01-03 21:58:56.91	34.34	9.85	-53.6	-56.1	13.9	0.00e+00	0	29	0	203423744	72	5045
2026-01-03 21:58:57.90	34.48	9.90	-53.5	-56.0	13.9	0.00e+00	0	28	0	205520896	72	5001
2026-01-03 21:58:58.90	34.62	9.95	-53.5	-56.0	13.9	0.00e+00	0	29	0	207618048	72	5015
2026-01-03 21:58:59.89	34.75	10.01	-53.4	-55.8	14.0	0.00e+00	0	28	0	209715200	72	4877
2026-01-03 21:59:00.89	34.89	10.06	-53.4	-55.8	14.0	0.00e+00	0	29	0	210763776	72	4885
2026-01-03 21:59:01.88	35.03	10.12	-53.2	-55.5	14.1	0.00e+00	0	28	0	212860928	72	4729
2026-01-03 21:59:02.88	35.17	10.17	-53.1	-55.3	14.2	0.00e+00	0	29	0	214958080	72	4651
2026-01-03 21:59:03.87	35.31	10.22	-53.0	-55.2	14.3	0.00e+00	0	29	0	217055232	72	4576
2026-01-03 21:59:04.87	35.45	10.28	-53.0	-55.3	14.2	0.00e+00	0	29	0	218103808	72	4617
2026-01-03 21:59:05.87	35.60	10.33	-52.9	-55.1	14.4	0.00e+00	0	29	0	220200960	72	4501
2026-01-03 21:59:06.87	35.74	10.39	-53.0	-55.2	14.3	0.00e+00	0	29	0	222298112	72	4583
2026-01-03 21:59:07.87	35.88	10.44	-53.0	-55.2	14.2	0.00e+00	0	28	0	224395264	72	4597
2026-01-03 21:59:08.87	36.03	10.49	-52.9	-55.2	14.3	0.00e+00	0	28	0	226492416	72	4548
2026-01-03 21:59:09.86	36.17	10.55	-52.9	-55.1	14.3	0.00e+00	0	28	0	227540992	72	4533
2026-01-03 21:59:10.85	36.31	10.60	-52.9	-55.1	14.3	0.00e+00	0	28	0	229638144	72	4522
2026-01-03 21:59:11.85	36.46	10.65	-52.7	-54.9	14.4	0.00e+00	0	29	0	231735296	71	4656
2026-01-03 21:59:12.85	36.60	10.71	-52.6	-54.8	14.4	0.00e+00	0	29	0	233832448	71	4604
2026-01-03 21:59:13.85	36.75	10.76	-52.5	-54.6	14.5	0.00e+00	0	29	0	235929600	71	4507
2026-01-03 21:59:14.85	36.90	10.82	-52.3	-54.4	14.5	0.00e+00	0	28	0	236978176	71	4410
2026-01-03 21:59:15.85	37.04	10.87	-52.3	-54.3	14.5	0.00e+00	0	29	0	239075328	70	4629
2026-01-03 21:59:16.85	37.19	10.92	-52.1	-54.1	14.5	0.00e+00	0	28	0	241172480	70	4537
2026-01-03 21:59:17.85	37.34	10.98	-52.1	-54.1	14.6	0.00e+00	0	29	0	243269632	70	4506
2026-01-03 21:59:18.85	37.49	11.03	-52.2	-54.2	14.5	0.00e+00	0	29	0	245366784	70	4575
2026-01-03 21:59:19.85	37.64	11.08	-52.2	-54.2	14.5	0.00e+00	0	29	0	246415360	70	4598
2026-01-03 21:59:20.86	37.79	11.14	-52.3	-54.4	14.4	0.00e+00	0	29	0	248512512	70	4675
2026-01-03 21:59:21.86	37.94	11.19	-52.5	-54.7	14.4	0.00e+00	0	28	0	250609664	70	4815
2026-01-03 21:59:22.86	38.09	11.24	-52.5	-54.7	14.3	0.00e+00	0	29	0	252706816	70	4824
2026-01-03 21:59:23.86	38.24	11.30	-52.5	-54.6	14.3	0.00e+00	0	29	0	253755392	70	4811
2026-01-03 21:59:24.87	38.40	11.35	-52.6	-54.8	14.3	0.00e+00	0	29	0	255852544	70	4902
2026-01-03 21:59:25.87	38.55	11.40	-52.6	-54.9	14.3	0.00e+00	0	29	0	257949696	70	4932
2026-01-03 21:59:26.88	38.70	11.46	-52.5	-54.7	14.4	0.00e+00	0	29	0	260046848	70	4824
2026-01-03 21:59:27.87	38.86	11.51	-52.5	-54.7	14.4	0.00e+00	0	29	0	262144000	70	4838
2026-01-03 21:59:28.87	39.01	11.56	-52.5	-54.6	14.4	0.00e+00	0	28	0	263192576	70	4787
2026-01-03 21:59:29.87	39.16	11.62	-52.5	-54.7	14.4	0.00e+00	0	29	0	265289728	70	4824
2026-01-03 21:59:30.87	39.32	11.67	-52.3	-54.4	14.5	0.00e+00	0	29	0	267386880	70	4684
2026-01-03 21:59:31.87	39.48	11.72	-52.3	-54.4	14.5	0.00e+00	0	29	0	269484032	70	4659
2026-01-03 21:59:32.87	39.63	11.77	-52.3	-54.3	14.5	0.00e+00	0	29	0	271581184	70	4641
2026-01-03 21:59:33.87	39.79	11.83	-52.3	-54.3	14.5	0.00e+00	0	28	0	272629760	70	4642
2026-01-03 21:59:34.87	39.95	11.88	-52.2	-54.3	14.5	0.00e+00	0	29	0	274726912	70	4640
2026-01-03 21:59:35.86	40.10	11.93	-52.1	-54.2	14.5	0.00e+00	0	29	0	276824064	70	4568
2026-01-03 21:59:36.87	40.26	11.98	-52.2	-54.2	14.5	0.00e+00	0	28	0	278921216	70	4598
2026-01-03 21:59:37.87	40.42	12.04	-52.2	-54.3	14.5	0.00e+00	0	29	0	279969792	70	4622
2026-01-03 21:59:38.87	40.58	12.09	-52.2	-54.2	14.5	0.00e+00	0	29	0	282066944	70	4593
2026-01-03 21:59:39.87	40.74	12.14	-52.2	-54.3	14.5	0.00e+00	0	29	0	284164096	70	4612
2026-01-03 21:59:40.88	40.90	12.19	-52.2	-54.3	14.5	0.00e+00	0	29	0	286261248	70	4607
2026-01-03 21:59:41.88	41.06	12.24	-52.2	-54.3	14.5	0.00e+00	0	29	0	288358400	70	4617
2026-01-03 21:59:42.89	41.23	12.30	-52.3	-54.4	14.5	0.00e+00	0	29	0	289406976	70	4667
2026-01-03 21:59:43.89	41.39	12.35	-52.3	-54.4	14.4	0.00e+00	0	29	0	291504128	70	4701
2026-01-03 21:59:44.88	41.55	12.40	-52.4	-54.6	14.4	0.00e+00	0	29	0	293601280	70	4772
2026-01-03 21:59:45.89	41.72	12.45	-52.4	-54.6	14.4	0.00e+00	0	29	0	295698432	70	4781
2026-01-03 21:59:46.89	41.88	12.50	-52.4	-54.6	14.4	0.00e+00	0	29	0	297795584	70	4771
2026-01-03 21:59:47.89	42.05	12.55	-52.3	-54.4	14.5	0.00e+00	0	29	0	298844160	70	4691
2026-01-03 21:59:48.89	42.21	12.61	-52.3	-54.5	14.4	0.00e+00	0	28	0	300941312	70	4715
2026-01-03 21:59:49.88	42.37	12.66	-52.2	-54.3	14.5	0.00e+00	0	29	0	303038464	70	4609
2026-01-03 21:59:50.89	42.54	12.71	-52.2	-54.3	14.5	0.00e+00	0	29	0	305135616	70	4631
2026-01-03 21:59:51.89	42.71	12.76	-52.2	-54.3	14.5	0.00e+00	0	29	0	307232768	70	4618
2026-01-03 21:59:52.89	42.88	12.81	-52.3	-54.4	14.5	0.00e+00	0	29	0	308281344	70	4658
2026-01-03 21:59:53.89	43.05	12.86	-52.3	-54.4	14.5	0.00e+00	0	29	0	310378496	70	4654
2026-01-03 21:59:54.90	43.22	12.91	-52.3	-54.4	14.4	0.00e+00	0	29	0	312475648	70	4693
2026-01-03 21:59:55.89	43.38	12.96	-52.5	-54.7	14.4	0.00e+00	0	29	0	314572800	70	4824
2026-01-03 21:59:56.89	43.55	13.01	-52.5	-54.7	14.4	0.00e+00	0	29	0	315621376	70	4821
2026-01-03 21:59:57.88	43.72	13.06	-52.7	-55.0	14.2	0.00e+00	0	29	0	317718528	70	5019
2026-01-03 21:59:58.87	43.89	13.11	-52.8	-55.0	14.2	0.00e+00	0	29	0	319815680	70	5039
2026-01-03 21:59:59.87	44.06	13.16	-52.7	-55.0	14.2	0.00e+00	0	29	0	321912832	70	5026
2026-01-03 22:00:00.87	44.23	13.21	-52.7	-55.0	14.2	0.00e+00	0	29	0	324009984	70	5018
2026-01-03 22:00:01.87	44.41	13.26	-52.6	-54.8	14.3	0.00e+00	0	29	0	325058560	70	4926
2026-01-03 22:00:02.86	44.58	13.31	-52.6	-54.8	14.3	0.00e+00	0	29	0	327155712	70	4907
2026-01-03 22:00:03.87	44.75	13.36	-52.6	-54.8	14.3	0.00e+00	0	29	0	329252864	70	4900
2026-01-03 22:00:04.87	44.93	13.41	-52.7	-55.0	14.2	0.00e+00	0	29	0	331350016	70	4986
2026-01-03 22:00:05.87	45.10	13.46	-52.7	-54.9	14.3	0.00e+00	0	29	0	333447168	70	4978
2026-01-03 22:00:06.69	45.24	13.50	-52.8	-55.1	14.2	0.00e+00	0	29	0	334495744	70	5052
2026-01-03 22:00:07.83	45.44	13.55	-53.0	-55.4	14.1	0.00e+00	0	29	0	336592896	71	4981
2026-01-03 22:00:08.68	45.59	13.59	-53.1	-55.5	14.1	0.00e+00	0	29	0	338690048	71	5033
2026-01-03 22:00:09.82	45.80	13.65	-53.1	-55.5	14.1	0.00e+00	0	29	0	340787200	71	5018
2026-01-03 22:00:10.68	45.95	13.69	-53.1	-55.4	14.1	0.00e+00	0	29	0	342884352	71	4981
2026-01-03 22:00:11.82	46.15	13.75	-53.2	-55.6	14.1	0.00e+00	0	29	0	343932928	71	5074
2026-01-03 22:00:12.68	46.31	13.79	-52.8	-55.2	14.2	0.00e+00	0	29	0	346030080	71	4824
2026-01-03 22:00:13.83	46.51	13.84	-52.8	-55.2	14.2	0.00e+00	0	29	0	348127232	71	4824
2026-01-03 22:00:14.68	46.66	13.88	-52.8	-55.2	14.2	0.00e+00	0	29	0	350224384	71	4828
2026-01-03 22:00:15.83	46.87	13.94	-52.9	-55.2	14.2	0.00e+00	0	29	0	352321536	71	4851
2026-01-03 22:00:16.68	47.02	13.98	-52.8	-55.0	14.3	0.00e+00	0	29	0	353370112	71	4751
2026-01-03 22:00:17.83	47.23	14.03	-52.8	-55.1	14.2	0.00e+00	0	29	0	355467264	71	4810
2026-01-03 22:00:18.69	47.39	14.07	-52.9	-55.3	14.2	0.00e+00	0	29	0	357564416	71	4879
2026-01-03 22:00:19.84	47.60	14.13	-52.8	-55.1	14.3	0.00e+00	0	29	0	359661568	71	4798
2026-01-03 22:00:20.69	47.76	14.17	-52.9	-55.3	14.2	0.00e+00	0	29	0	360710144	71	4877
2026-01-03 22:00:21.83	47.96	14.22	-52.9	-55.3	14.2	0.00e+00	0	29	0	362807296	71	4892
2026-01-03 22:00:22.69	48.12	14.26	-53.1	-55.5	14.1	0.00e+00	0	29	0	364904448	71	5010
2026-01-03 22:00:23.83	48.33	14.31	-53.2	-55.7	14.0	0.00e+00	0	29	0	367001600	71	5137
2026-01-03 22:00:24.69	48.49	14.35	-53.3	-55.7	14.0	0.00e+00	0	29	0	369098752	71	5158
2026-01-03 22:00:25.85	48.71	14.40	-53.4	-56.0	13.9	0.00e+00	0	29	0	371195904	71	5281
2026-01-03 22:00:26.71	48.87	14.44	-53.4	-56.0	14.0	0.00e+00	0	29	0	372244480	72	4988
2026-01-03 22:00:27.85	49.08	14.50	-53.4	-55.9	14.0	0.00e+00	0	29	0	374341632	72	4983
2026-01-03 22:00:28.71	49.24	14.53	-53.3	-55.8	14.0	0.00e+00	0	29	0	376438784	72	4910
2026-01-03 22:00:29.85	49.46	14.59	-53.3	-55.7	14.1	0.00e+00	0	29	0	378535936	72	4869
2026-01-03 22:00:30.71	49.62	14.62	-53.3	-55.7	14.1	0.00e+00	0	29	0	379584512	72	4847
2026-01-03 22:00:31.84	49.83	14.67	-53.2	-55.6	14.1	0.00e+00	0	29	0	381681664	72	4764
2026-01-03 22:00:32.70	50.00	14.71	-53.1	-55.5	14.2	0.00e+00	0	29	0	383778816	72	4734
2026-01-03 22:00:33.84	50.21	14.76	-53.2	-55.6	14.1	0.00e+00	0	29	0	385875968	72	4812
2026-01-03 22:00:34.70	50.38	14.80	-53.3	-55.9	14.0	0.00e+00	0	29	0	386924544	72	4937
2026-01-03 22:00:35.85	50.60	14.85	-53.6	-56.2	13.9	0.00e+00	0	29	0	389021696	72	5113
2026-01-03 22:00:36.70	50.76	14.89	-53.5	-56.1	13.9	0.00e+00	0	29	0	391118848	72	5093
2026-01-03 22:00:37.85	50.98	14.94	-53.7	-56.3	13.8	0.00e+00	0	29	0	393216000	72	5199
2026-01-03 22:00:38.71	51.15	14.98	-53.6	-56.2	13.9	0.00e+00	0	29	0	395313152	72	5126
2026-01-03 22:00:39.85	51.37	15.02	-53.7	-56.3	13.8	0.00e+00	0	29	0	397410304	72	5211
2026-01-03 22:00:40.70	51.53	15.06	-53.8	-56.4	13.7	0.00e+00	0	29	0	398458880	72	5262
2026-01-03 22:00:41.84	51.76	15.11	-53.7	-56.4	13.8	0.00e+00	0	29	0	400556032	72	5230
2026-01-03 22:00:42.69	51.92	15.14	-54.0	-56.7	13.7	0.00e+00	0	29	0	402653184	73	5136
2026-01-03 22:00:43.83	52.15	15.19	-53.9	-56.6	13.7	0.00e+00	0	29	0	404750336	73	5050
2026-01-03 22:00:44.69	52.31	15.23	-53.9	-56.7	13.7	0.00e+00	0	29	0	405798912	73	5113
2026-01-03 22:00:45.84	52.54	15.28	-53.9	-56.6	13.8	0.00e+00	0	29	0	407896064	73	5067
2026-01-03 22:00:46.70	52.71	15.31	-53.8	-56.4	13.8	0.00e+00	0	29	0	409993216	73	4975
2026-01-03 22:00:47.83	52.93	15.36	-53.7	-56.2	13.9	0.00e+00	0	29	0	412090368	73	4862
2026-01-03 22:00:48.69	53.10	15.39	-53.5	-55.9	14.1	0.00e+00	0	29	0	413138944	73	4671
2026-01-03 22:00:49.83	53.33	15.44	-53.2	-55.6	14.2	0.00e+00	0	29	0	416284672	73	4498
2026-01-03 22:00:50.69	53.50	15.47	-53.3	-55.7	14.1	0.00e+00	0	29	0	417333248	72	4830
2026-01-03 22:00:51.83	53.73	15.52	-53.4	-55.7	14.1	0.00e+00	0	29	0	419430400	72	4870
2026-01-03 22:00:52.69	53.90	15.55	-53.4	-55.8	14.1	0.00e+00	0	29	0	421527552	72	4905
2026-01-03 22:00:53.83	54.13	15.60	-53.6	-56.1	13.9	0.00e+00	0	29	0	423624704	72	5100
2026-01-03 22:00:54.69	54.31	15.63	-53.6	-56.1	13.9	0.00e+00	0	29	0	424673280	72	5082
2026-01-03 22:00:55.83	54.54	15.68	-53.5	-55.9	14.0	0.00e+00	0	29	0	426770432	72	4936
2026-01-03 22:00:56.68	54.71	15.71	-53.4	-55.8	14.1	0.00e+00	0	29	0	428867584	72	4878
2026-01-03 22:00:57.83	54.94	15.75	-53.2	-55.5	14.2	0.00e+00	0	29	0	430964736	72	4727
2026-01-03 22:00:58.68	55.12	15.79	-53.1	-55.4	14.3	0.00e+00	0	29	0	432013312	72	4685
2026-01-03 22:00:59.82	55.35	15.83	-53.1	-55.3	14.3	0.00e+00	0	29	0	434110464	72	4648
2026-01-03 22:01:00.68	55.52	15.86	-52.9	-55.1	14.4	0.00e+00	0	29	0	436207616	72	4495
2026-01-03 22:01:01.82	55.76	15.90	-52.8	-54.9	14.5	0.00e+00	0	29	0	438304768	72	4424
2026-01-03 22:01:02.67	55.93	15.94	-53.0	-55.2	14.3	0.00e+00	0	29	0	439353344	72	4598
2026-01-03 22:01:03.82	56.17	15.98	-52.9	-55.0	14.4	0.00e+00	0	29	0	441450496	72	4485
2026-01-03 22:01:04.67	56.35	16.01	-53.0	-55.2	14.4	0.00e+00	0	29	0	443547648	72	4548
2026-01-03 22:01:05.81	56.58	16.05	-52.8	-54.8	14.5	0.00e+00	0	29	0	445644800	72	4387
2026-01-03 22:01:06.67	56.76	16.08	-52.6	-54.7	14.5	0.00e+00	0	29	0	447741952	71	4555
2026-01-03 22:01:07.81	57.00	16.12	-52.6	-54.7	14.5	0.00e+00	0	29	0	449839104	71	4568
2026-01-03 22:01:08.66	57.17	16.15	-52.6	-54.6	14.5	0.00e+00	0	29	0	450887680	71	4513
2026-01-03 22:01:09.80	57.41	16.19	-52.5	-54.5	14.6	0.00e+00	0	29	0	452984832	71	4452
2026-01-03 22:01:10.66	57.59	16.22	-52.7	-54.7	14.5	0.00e+00	0	29	0	455081984	71	4584
2026-01-03 22:01:11.79	57.83	16.26	-52.7	-54.7	14.5	0.00e+00	0	29	0	457179136	71	4582
2026-01-03 22:01:12.65	58.01	16.29	-52.6	-54.6	14.6	0.00e+00	0	29	0	458227712	71	4535
2026-01-03 22:01:13.79	58.25	16.33	-52.7	-54.8	14.5	0.00e+00	0	29	0	460324864	71	4620
2026-01-03 22:01:14.65	58.43	16.36	-52.6	-54.6	14.6	0.00e+00	0	29	0	462422016	71	4511
2026-01-03 22:01:15.79	58.67	16.39	-52.5	-54.5	14.6	0.00e+00	0	29	0	464519168	71	4452
2026-01-03 22:01:16.64	58.86	16.42	-52.5	-54.5	14.6	0.00e+00	0	29	0	465567744	71	4470
2026-01-03 22:01:17.77	59.10	16.46	-52.6	-54.6	14.6	0.00e+00	0	29	0	467664896	71	4516
2026-01-03 22:01:18.63	59.28	16.49	-52.8	-54.8	14.4	0.00e+00	0	29	0	469762048	71	4644
2026-01-03 22:01:19.77	59.52	16.52	-52.9	-55.0	14.4	0.00e+00	0	29	0	471859200	71	4736
2026-01-03 22:01:20.62	59.70	16.55	-53.1	-55.3	14.3	0.00e+00	0	29	0	472907776	71	4917
2026-01-03 22:01:21.76	59.95	16.58	-53.2	-55.4	14.2	0.00e+00	0	29	0	476053504	71	4947
2026-01-03 22:01:22.62	60.13	16.61	-53.4	-55.7	14.2	0.00e+00	0	29	0	477102080	72	4862
2026-01-03 22:01:23.76	60.38	16.65	-53.4	-55.8	14.1	0.00e+00	0	29	0	479199232	72	4897
2026-01-03 22:01:24.62	60.56	16.67	-53.3	-55.7	14.2	0.00e+00	0	29	0	481296384	72	4816
2026-01-03 22:01:25.76	60.81	16.70	-53.2	-55.5	14.3	0.00e+00	0	29	0	483393536	72	4738
2026-01-03 22:01:26.62	61.00	16.73	-53.3	-55.6	14.2	0.00e+00	0	29	0	484442112	72	4767
2026-01-03 22:01:27.76	61.24	16.76	-53.3	-55.5	14.2	0.00e+00	0	29	0	486539264	72	4753
2026-01-03 22:01:28.62	61.43	16.79	-53.0	-55.1	14.4	0.00e+00	0	29	0	488636416	72	4543
2026-01-03 22:01:29.76	61.68	16.82	-53.0	-55.1	14.5	0.00e+00	0	29	0	490733568	72	4521
2026-01-03 22:01:30.62	61.87	16.84	-52.8	-54.9	14.5	0.00e+00	0	29	0	491782144	72	4410
2026-01-03 22:01:31.77	62.12	16.88	-52.3	-54.2	14.7	0.00e+00	0	29	0	493879296	71	4333
2026-01-03 22:01:32.63	62.31	16.90	-52.2	-54.1	14.7	0.00e+00	0	29	0	495976448	70	4506
2026-01-03 22:01:33.77	62.56	16.93	-52.1	-54.0	14.7	0.00e+00	0	29	0	498073600	70	4457
2026-01-03 22:01:34.63	62.75	16.95	-52.2	-54.1	14.6	0.00e+00	0	29	0	500170752	70	4537
2026-01-03 22:01:35.76	63.00	16.98	-52.6	-54.7	14.4	0.00e+00	0	29	0	502267904	70	4838
2026-01-03 22:01:36.62	63.19	17.00	-52.9	-55.1	14.4	0.00e+00	0	29	0	503316480	71	4769
2026-01-03 22:01:37.76	63.44	17.03	-53.0	-55.2	14.3	0.00e+00	0	29	0	505413632	71	4860
2026-01-03 22:01:38.61	63.62	17.05	-53.1	-55.3	14.3	0.00e+00	0	29	0	507510784	71	4871
2026-01-03 22:01:39.76	63.88	17.08	-52.9	-55.0	14.4	0.00e+00	0	29	0	509607936	71	4717
2026-01-03 22:01:40.61	64.07	17.10	-52.7	-54.8	14.5	0.00e+00	0	29	0	510656512	71	4629
2026-01-03 22:01:41.76	64.32	17.13	-52.6	-54.6	14.5	0.00e+00	0	29	0	512753664	71	4535
2026-01-03 22:01:42.62	64.52	17.15	-52.7	-54.8	14.5	0.00e+00	0	29	0	514850816	71	4617
2026-01-03 22:01:43.76	64.77	17.18	-53.0	-55.2	14.3	0.00e+00	0	29	0	516947968	71	4817
2026-01-03 22:01:44.62	64.96	17.20	-53.1	-55.3	14.2	0.00e+00	0	29	0	517996544	71	4921
2026-01-03 22:01:45.76	65.22	17.22	-53.2	-55.4	14.2	0.00e+00	0	29	0	520093696	71	4948
2026-01-03 22:01:46.62	65.41	17.24	-52.9	-55.0	14.4	0.00e+00	0	29	0	522190848	71	4756
2026-01-03 22:01:47.76	65.67	17.26	-52.6	-54.6	14.5	0.00e+00	0	29	0	524288000	71	4528
2026-01-03 22:01:48.61	65.86	17.28	-52.3	-54.2	14.7	0.00e+00	0	29	0	526385152	71	4334
2026-01-03 22:01:49.76	66.11	17.31	-52.4	-54.3	14.7	0.00e+00	0	29	0	528482304	71	4361
2026-01-03 22:01:50.62	66.31	17.32	-52.5	-54.4	14.6	0.00e+00	0	29	0	529530880	71	4411
2026-01-03 22:01:51.76	66.57	17.35	-52.7	-54.7	14.5	0.00e+00	0	29	0	531628032	71	4592
2026-01-03 22:01:52.62	66.76	17.36	-52.8	-54.9	14.5	0.00e+00	0	29	0	533725184	71	4676
2026-01-03 22:01:53.76	67.02	17.38	-53.0	-55.1	14.4	0.00e+00	0	29	0	535822336	71	4764
2026-01-03 22:01:54.62	67.21	17.40	-52.9	-54.9	14.5	0.00e+00	0	29	0	536870912	71	4682
2026-01-03 22:01:55.76	67.47	17.42	-52.7	-54.7	14.5	0.00e+00	0	29	0	538968064	71	4583
2026-01-03 22:01:56.61	67.66	17.44	-52.6	-54.6	14.5	0.00e+00	0	29	0	541065216	71	4511
2026-01-03 22:01:57.75	67.92	17.46	-52.5	-54.5	14.6	0.00e+00	0	29	0	543162368	71	4451
2026-01-03 22:01:58.61	68.12	17.47	-52.6	-54.6	14.6	0.00e+00	0	29	0	544210944	71	4525
2026-01-03 22:01:59.75	68.38	17.49	-53.0	-55.1	14.4	0.00e+00	0	29	0	546308096	71	4794
2026-01-03 22:02:00.60	68.57	17.50	-53.4	-55.7	14.2	0.00e+00	0	29	0	548405248	71	5137
2026-01-03 22:02:01.74	68.83	17.52	-53.6	-55.9	14.1	0.00e+00	0	29	0	550502400	72	4966
2026-01-03 22:02:02.60	69.03	17.53	-53.7	-56.1	14.0	0.00e+00	0	29	0	552599552	72	5059
2026-01-03 22:02:03.73	69.29	17.55	-53.8	-56.2	14.0	0.00e+00	0	29	0	554696704	72	5108
2026-01-03 22:02:04.59	69.48	17.56	-53.8	-56.2	13.9	0.00e+00	0	29	0	555745280	72	5133
2026-01-03 22:02:05.73	69.74	17.58	-53.8	-56.2	14.0	0.00e+00	0	29	0	557842432	72	5135
2026-01-03 22:02:06.59	69.94	17.59	-53.8	-56.2	13.9	0.00e+00	0	29	0	559939584	72	5153
2026-01-03 22:02:07.73	70.20	17.60	-53.8	-56.4	13.9	0.00e+00	0	29	0	562036736	73	4941
2026-01-03 22:02:08.58	70.40	17.62	-54.0	-56.6	13.8	0.00e+00	0	29	0	563085312	73	5086
2026-01-03 22:02:09.72	70.66	17.63	-54.1	-56.8	13.8	0.00e+00	0	29	0	565182464	73	5171
2026-01-03 22:02:10.58	70.86	17.64	-53.9	-56.4	13.9	0.00e+00	0	29	0	567279616	73	4944
2026-01-03 22:02:11.72	71.12	17.65	-53.7	-56.1	14.1	0.00e+00	0	29	0	569376768	73	4760
2026-01-03 22:02:12.58	71.32	17.66	-53.5	-55.8	14.2	0.00e+00	0	29	0	570425344	73	4613
2026-01-03 22:02:13.71	71.58	17.67	-53.3	-55.6	14.3	0.00e+00	0	29	0	572522496	73	4510
2026-01-03 22:02:14.57	71.78	17.68	-53.3	-55.5	14.3	0.00e+00	0	29	0	574619648	73	4491
2026-01-03 22:02:15.71	72.04	17.69	-53.4	-55.6	14.3	0.00e+00	0	29	0	576716800	73	4531
2026-01-03 22:02:16.57	72.24	17.70	-53.3	-55.5	14.3	0.00e+00	0	29	0	578813952	73	4492
2026-01-03 22:02:17.72	72.50	17.71	-53.1	-55.3	14.3	0.00e+00	0	29	0	580911104	72	4621
2026-01-03 22:02:18.58	72.70	17.72	-53.1	-55.3	14.4	0.00e+00	0	29	0	581959680	72	4599
2026-01-03 22:02:19.73	72.97	17.73	-53.0	-55.1	14.4	0.00e+00	0	29	0	584056832	72	4511
2026-01-03 22:02:20.59	73.17	17.73	-52.9	-55.0	14.5	0.00e+00	0	29	0	586153984	72	4445
2026-01-03 22:02:21.73	73.43	17.74	-52.9	-55.1	14.5	0.00e+00	0	29	0	588251136	72	4496
2026-01-03 22:02:22.59	73.63	17.75	-53.0	-55.2	14.4	0.00e+00	0	29	0	589299712	72	4551
2026-01-03 22:02:23.74	73.90	17.75	-53.2	-55.4	14.3	0.00e+00	0	29	0	591396864	72	4693
2026-01-03 22:02:24.60	74.10	17.76	-53.3	-55.6	14.2	0.00e+00	0	29	0	593494016	72	4800
2026-01-03 22:02:25.74	74.36	17.76	-53.3	-55.5	14.3	0.00e+00	0	29	0	595591168	72	4741
2026-01-03 22:02:26.60	74.56	17.77	-53.2	-55.3	14.3	0.00e+00	0	29	0	597688320	72	4646
2026-01-03 22:02:27.74	74.83	17.77	-53.2	-55.4	14.3	0.00e+00	0	29	0	599785472	72	4667
2026-01-03 22:02:28.60	75.03	17.78	-53.0	-55.2	14.4	0.00e+00	0	29	0	600834048	72	4553
2026-01-03 22:02:29.74	75.29	17.78	-53.2	-55.4	14.3	0.00e+00	0	29	0	602931200	72	4670
2026-01-03 22:02:30.60	75.49	17.78	-53.2	-55.5	14.3	0.00e+00	0	29	0	605028352	72	4712
2026-01-03 22:02:31.74	75.75	17.79	-53.4	-55.6	14.2	0.00e+00	0	29	0	607125504	72	4805
2026-01-03 22:02:32.59	75.95	17.79	-53.4	-55.7	14.2	0.00e+00	0	29	0	608174080	72	4848
2026-01-03 22:02:33.73	76.22	17.79	-53.3	-55.6	14.2	0.00e+00	0	29	0	610271232	72	4809
2026-01-03 22:02:34.59	76.42	17.79	-53.1	-55.4	14.3	0.00e+00	0	29	0	612368384	72	4656
2026-01-03 22:02:35.73	76.68	17.79	-53.0	-55.2	14.4	0.00e+00	0	29	0	614465536	72	4559
2026-01-03 22:02:36.59	76.88	17.79	-52.8	-55.0	14.5	0.00e+00	0	29	0	615514112	72	4442
2026-01-03 22:02:37.73	77.15	17.79	-52.7	-54.8	14.4	0.00e+00	0	29	0	617611264	71	4648
2026-01-03 22:02:38.59	77.35	17.79	-52.8	-54.9	14.4	0.00e+00	0	29	0	619708416	71	4694
2026-01-03 22:02:39.73	77.61	17.79	-52.8	-54.9	14.4	0.00e+00	0	29	0	621805568	71	4688
2026-01-03 22:02:40.59	77.81	17.79	-52.9	-55.1	14.3	0.00e+00	0	29	0	623902720	71	4795
2026-01-03 22:02:41.73	78.08	17.78	-53.0	-55.3	14.3	0.00e+00	0	29	0	625999872	71	4889
2026-01-03 22:02:42.60	78.28	17.78	-53.2	-55.5	14.2	0.00e+00	0	29	0	627048448	71	5039
2026-01-03 22:02:43.74	78.54	17.78	-53.3	-55.6	14.1	0.00e+00	0	29	0	629145600	71	5091
2026-01-03 22:02:44.60	78.74	17.78	-53.1	-55.5	14.2	0.00e+00	0	29	0	631242752	71	4998
2026-01-03 22:02:45.75	79.01	17.77	-53.2	-55.6	14.1	0.00e+00	0	29	0	633339904	71	5049
2026-01-03 22:02:46.61	79.21	17.77	-53.3	-55.7	14.1	0.00e+00	0	29	0	634388480	71	5109
2026-01-03 22:02:47.76	79.48	17.76	-53.5	-56.0	14.0	0.00e+00	0	29	0	636485632	72	5031
2026-01-03 22:02:48.62	79.68	17.76	-53.5	-56.0	14.0	0.00e+00	0	29	0	638582784	72	5013
2026-01-03 22:02:49.76	79.94	17.75	-53.6	-56.2	13.9	0.00e+00	0	29	0	640679936	72	5109
2026-01-03 22:02:50.62	80.14	17.75	-53.6	-56.2	13.9	0.00e+00	0	29	0	641728512	72	5146
2026-01-03 22:02:51.76	80.40	17.74	-53.7	-56.3	13.9	0.00e+00	0	29	0	643825664	72	5178
2026-01-03 22:02:52.61	80.60	17.73	-53.7	-56.3	13.8	0.00e+00	0	29	0	645922816	72	5196
2026-01-03 22:02:53.76	80.87	17.72	-53.6	-56.2	14.0	0.00e+00	0	29	0	648019968	72	5102
2026-01-03 22:02:54.61	81.06	17.72	-53.7	-56.2	13.9	0.00e+00	0	29	0	650117120	72	5156
2026-01-03 22:02:55.76	81.33	17.71	-53.5	-56.1	13.9	0.00e+00	0	29	0	652214272	72	5056
2026-01-03 22:02:56.60	81.52	17.70	-53.6	-56.2	13.9	0.00e+00	0	29	0	653262848	72	5145
2026-01-03 22:02:57.74	81.79	17.69	-53.5	-56.0	14.0	0.00e+00	0	29	0	655360000	72	5027
2026-01-03 22:02:58.60	81.99	17.68	-53.4	-55.9	14.1	0.00e+00	0	29	0	657457152	72	4935
2026-01-03 22:02:59.73	82.25	17.67	-53.4	-55.8	14.1	0.00e+00	0	29	0	659554304	72	4887
2026-01-03 22:03:00.59	82.45	17.66	-53.2	-55.5	14.2	0.00e+00	0	29	0	660602880	72	4735
2026-01-03 22:03:01.73	82.71	17.65	-52.8	-55.0	14.5	0.00e+00	0	29	0	662700032	72	4453
2026-01-03 22:03:02.59	82.91	17.64	-52.6	-54.7	14.5	0.00e+00	0	29	0	664797184	71	4576
2026-01-03 22:03:03.73	83.17	17.62	-52.5	-54.6	14.6	0.00e+00	0	29	0	666894336	71	4515
2026-01-03 22:03:04.59	83.37	17.61	-52.2	-54.2	14.7	0.00e+00	0	29	0	667942912	71	4319
2026-01-03 22:03:05.73	83.63	17.60	-52.2	-54.2	14.7	0.00e+00	0	29	0	670040064	71	4334
2026-01-03 22:03:06.59	83.83	17.59	-52.3	-54.3	14.7	0.00e+00	0	29	0	672137216	71	4353
2026-01-03 22:03:07.73	84.09	17.57	-52.5	-54.6	14.5	0.00e+00	0	29	0	674234368	71	4535
2026-01-03 22:03:08.58	84.28	17.56	-52.7	-54.8	14.5	0.00e+00	0	29	0	676331520	71	4641
2026-01-03 22:03:09.72	84.54	17.54	-52.8	-55.0	14.4	0.00e+00	0	29	0	678428672	71	4733
2026-01-03 22:03:10.58	84.74	17.53	-53.0	-55.2	14.3	0.00e+00	0	29	0	679477248	71	4854
2026-01-03 22:03:11.72	85.00	17.51	-53.2	-55.5	14.2	0.00e+00	0	29	0	681574400	71	5004
2026-01-03 22:03:12.58	85.20	17.50	-53.2	-55.6	14.1	0.00e+00	0	29	0	683671552	71	5047
2026-01-03 22:03:13.73	85.46	17.48	-53.4	-55.8	14.0	0.00e+00	0	29	0	685768704	71	5187
2026-01-03 22:03:14.58	85.65	17.47	-53.4	-55.8	14.1	0.00e+00	0	29	0	686817280	72	4876
2026-01-03 22:03:15.72	85.91	17.45	-53.4	-55.8	14.1	0.00e+00	0	29	0	688914432	72	4872
2026-01-03 22:03:16.57	86.11	17.43	-53.5	-55.9	14.0	0.00e+00	0	29	0	691011584	72	4954
2026-01-03 22:03:17.72	86.37	17.41	-53.4	-55.8	14.1	0.00e+00	0	29	0	693108736	72	4917
2026-01-03 22:03:18.57	86.56	17.40	-53.4	-55.7	14.2	0.00e+00	0	29	0	694157312	72	4838
2026-01-03 22:03:19.71	86.82	17.37	-53.0	-55.3	14.2	0.00e+00	0	29	0	696254464	72	4599
2026-01-03 22:03:20.57	87.01	17.36	-53.0	-55.2	14.4	0.00e+00	0	29	0	698351616	72	4578
2026-01-03 22:03:21.72	87.27	17.33	-52.9	-55.1	14.4	0.00e+00	0	29	0	700448768	72	4512
2026-01-03 22:03:22.58	87.47	17.32	-52.8	-54.8	14.5	0.00e+00	0	29	0	702545920	72	4387
2026-01-03 22:03:23.72	87.72	17.29	-52.8	-54.9	14.5	0.00e+00	0	29	0	704643072	72	4436
2026-01-03 22:03:24.58	87.92	17.28	-52.8	-54.9	14.6	0.00e+00	0	29	0	705691648	72	4401
2026-01-03 22:03:25.73	88.18	17.25	-52.9	-55.0	14.5	0.00e+00	0	29	0	707788800	72	4447
2026-01-03 22:03:26.58	88.37	17.23	-52.9	-54.9	14.5	0.00e+00	0	29	0	709885952	72	4441
2026-01-03 22:03:27.71	88.62	17.21	-52.9	-55.1	14.4	0.00e+00	0	29	0	711983104	72	4516
2026-01-03 22:03:28.57	88.81	17.19	-53.0	-55.1	14.4	0.00e+00	0	29	0	713031680	72	4531
2026-01-03 22:03:29.71	89.07	17.16	-52.9	-55.1	14.4	0.00e+00	0	29	0	715128832	72	4521
2026-01-03 22:03:30.56	89.26	17.14	-52.8	-54.9	14.5	0.00e+00	0	29	0	717225984	72	4406
2026-01-03 22:03:31.71	89.51	17.12	-52.9	-55.0	14.5	0.00e+00	0	29	0	719323136	72	4456
2026-01-03 22:03:32.57	89.70	17.10	-52.9	-54.9	14.5	0.00e+00	0	29	0	720371712	72	4433
2026-01-03 22:03:33.71	89.96	17.07	-52.8	-54.9	14.5	0.00e+00	0	29	0	722468864	71	4665
2026-01-03 22:03:34.57	90.15	17.05	-52.5	-54.5	14.6	0.00e+00	0	29	0	724566016	71	4444
2026-01-03 22:03:35.71	90.40	17.02	-52.6	-54.6	14.6	0.00e+00	0	29	0	726663168	71	4518
2026-01-03 22:03:36.56	90.59	17.00	-52.6	-54.6	14.6	0.00e+00	0	29	0	728760320	71	4539
2026-01-03 22:03:37.70	90.84	16.97	-52.7	-54.7	14.5	0.00e+00	0	29	0	730857472	71	4570
2026-01-03 22:03:38.56	91.03	16.94	-52.7	-54.8	14.5	0.00e+00	0	29	0	731906048	71	4602
2026-01-03 22:03:39.71	91.28	16.91	-52.7	-54.8	14.5	0.00e+00	0	29	0	734003200	71	4609
2026-01-03 22:03:40.57	91.47	16.89	-52.6	-54.7	14.6	0.00e+00	0	29	0	736100352	71	4546
2026-01-03 22:03:41.71	91.72	16.86	-52.5	-54.5	14.6	0.00e+00	0	29	0	738197504	71	4448
2026-01-03 22:03:42.56	91.91	16.84	-52.4	-54.3	14.7	0.00e+00	0	29	0	739246080	71	4367
2026-01-03 22:03:43.70	92.16	16.80	-52.3	-54.3	14.7	0.00e+00	0	29	0	741343232	71	4354
2026-01-03 22:03:44.56	92.35	16.78	-52.3	-54.2	14.8	0.00e+00	0	29	0	743440384	71	4315
2026-01-03 22:03:45.70	92.59	16.75	-52.3	-54.1	14.8	0.00e+00	0	29	0	745537536	71	4282
2026-01-03 22:03:46.56	92.78	16.72	-52.3	-54.2	14.8	0.00e+00	0	29	0	746586112	71	4299
2026-01-03 22:03:47.70	93.03	16.69	-52.3	-54.2	14.8	0.00e+00	0	29	0	749731840	71	4309
2026-01-03 22:03:48.56	93.21	16.66	-52.3	-54.2	14.8	0.00e+00	0	29	0	750780416	71	4311
2026-01-03 22:03:49.70	93.46	16.63	-52.4	-54.4	14.7	0.00e+00	0	29	0	752877568	71	4400
2026-01-03 22:03:50.56	93.65	16.60	-52.4	-54.4	14.6	0.00e+00	0	29	0	754974720	71	4422
2026-01-03 22:03:51.70	93.89	16.57	-52.5	-54.4	14.6	0.00e+00	0	29	0	757071872	71	4428
2026-01-03 22:03:52.57	94.08	16.54	-52.4	-54.3	14.7	0.00e+00	0	29	0	758120448	71	4381
2026-01-03 22:03:53.71	94.32	16.50	-52.4	-54.3	14.7	0.00e+00	0	29	0	760217600	71	4387
2026-01-03 22:03:54.57	94.51	16.48	-52.3	-54.2	14.7	0.00e+00	0	29	0	762314752	71	4337
2026-01-03 22:03:55.71	94.75	16.44	-52.4	-54.3	14.7	0.00e+00	0	29	0	764411904	71	4374
2026-01-03 22:03:56.57	94.93	16.41	-52.4	-54.4	14.7	0.00e+00	0	29	0	765460480	71	4400
2026-01-03 22:03:57.71	95.18	16.37	-52.5	-54.5	14.6	0.00e+00	0	29	0	767557632	71	4460
2026-01-03 22:03:58.58	95.36	16.34	-52.6	-54.6	14.6	0.00e+00	0	29	0	769654784	71	4510
2026-01-03 22:03:59.72	95.60	16.31	-52.6	-54.7	14.5	0.00e+00	0	29	0	771751936	71	4550
2026-01-03 22:04:00.57	95.78	16.28	-52.8	-54.9	14.4	0.00e+00	0	29	0	773849088	71	4680
2026-01-03 22:04:01.71	96.02	16.24	-52.8	-55.0	14.4	0.00e+00	0	29	0	775946240	71	4722
2026-01-03 22:04:02.56	96.20	16.21	-52.9	-55.0	14.4	0.00e+00	0	29	0	776994816	71	4744
2026-01-03 22:04:03.70	96.44	16.17	-52.7	-54.8	14.5	0.00e+00	0	29	0	779091968	71	4630
2026-01-03 22:04:04.56	96.62	16.14	-52.6	-54.6	14.5	0.00e+00	0	29	0	781189120	71	4542
2026-01-03 22:04:05.69	96.86	16.10	-52.5	-54.5	14.6	0.00e+00	0	29	0	783286272	71	4489
2026-01-03 22:04:06.55	97.03	16.07	-52.3	-54.4	14.6	0.00e+00	0	29	0	784334848	71	4394
2026-01-03 22:04:07.69	97.27	16.03	-52.2	-54.1	14.7	0.00e+00	0	29	0	786432000	71	4277
2026-01-03 22:04:08.54	97.45	16.00	-52.1	-54.0	14.7	0.00e+00	0	29	0	788529152	70	4472
2026-01-03 22:04:09.68	97.68	15.95	-52.3	-54.3	14.6	0.00e+00	0	29	0	790626304	70	4609
2026-01-03 22:04:10.53	97.86	15.92	-52.4	-54.4	14.5	0.00e+00	0	29	0	791674880	70	4701
2026-01-03 22:04:11.68	98.10	15.88	-52.5	-54.6	14.5	0.00e+00	0	29	0	793772032	70	4774
2026-01-03 22:04:12.53	98.27	15.85	-52.6	-54.7	14.5	0.00e+00	0	29	0	795869184	70	4837
2026-01-03 22:04:13.67	98.50	15.80	-52.6	-54.7	14.4	0.00e+00	0	29	0	797966336	70	4847
2026-01-03 22:04:14.52	98.68	15.77	-52.6	-54.6	14.5	0.00e+00	0	29	0	799014912	70	4804
2026-01-03 22:04:15.66	98.91	15.73	-52.4	-54.4	14.6	0.00e+00	0	29	0	802160640	70	4675
2026-01-03 22:04:16.52	99.09	15.69	-52.5	-54.5	14.5	0.00e+00	0	29	0	803209216	70	4729
2026-01-03 22:04:17.66	99.32	15.65	-52.3	-54.3	14.6	0.00e+00	0	29	0	805306368	70	4625
2026-01-03 22:04:18.52	99.49	15.62	-52.6	-54.6	14.5	0.00e+00	0	29	0	807403520	70	4809
2026-01-03 22:04:19.66	99.72	15.57	-52.8	-54.9	14.3	0.00e+00	0	29	0	809500672	70	4967
2026-01-03 22:04:20.51	99.89	15.54	-53.1	-55.4	14.2	0.00e+00	0	29	0	810549248	71	4929
2026-01-03 22:04:21.65	100.12	15.49	-53.3	-55.7	14.1	0.00e+00	0	29	0	812646400	71	5145
2026-01-03 22:04:22.50	100.29	15.46	-53.6	-56.1	13.9	0.00e+00	0	29	0	814743552	72	5086
2026-01-03 22:04:23.65	100.52	15.41	-53.5	-56.0	14.0	0.00e+00	0	29	0	816840704	72	4985
2026-01-03 22:04:24.50	100.69	15.38	-53.5	-56.0	14.0	0.00e+00	0	29	0	817889280	72	5010
2026-01-03 22:04:25.64	100.92	15.33	-53.3	-55.7	14.1	0.00e+00	0	29	0	819986432	72	4845
2026-01-03 22:04:26.49	101.09	15.29	-53.0	-55.4	14.3	0.00e+00	0	29	0	822083584	72	4653
2026-01-03 22:04:27.64	101.31	15.25	-52.9	-55.2	14.3	0.00e+00	0	29	0	824180736	72	4572
2026-01-03 22:04:28.50	101.48	15.21	-52.8	-55.0	14.3	0.00e+00	0	29	0	825229312	71	4739
2026-01-03 22:04:29.64	101.71	15.16	-52.5	-54.6	14.5	0.00e+00	0	29	0	828375040	71	4523
2026-01-03 22:04:30.50	101.88	15.13	-52.5	-54.7	14.5	0.00e+00	0	29	0	829423616	71	4551
2026-01-03 22:04:31.65	102.10	15.08	-52.4	-54.5	14.5	0.00e+00	0	29	0	831520768	71	4472
2026-01-03 22:04:32.51	102.27	15.04	-52.4	-54.5	14.6	0.00e+00	0	29	0	833617920	71	4485
2026-01-03 22:04:33.65	102.49	14.99	-52.6	-54.8	14.4	0.00e+00	0	29	0	835715072	71	4615
2026-01-03 22:04:34.50	102.66	14.95	-52.7	-54.9	14.4	0.00e+00	0	29	0	836763648	71	4657
2026-01-03 22:04:35.64	102.88	14.90	-52.7	-55.0	14.4	0.00e+00	0	29	0	838860800	71	4719
2026-01-03 22:04:36.49	103.04	14.87	-52.9	-55.2	14.3	0.00e+00	0	29	0	840957952	71	4815
2026-01-03 22:04:37.63	103.26	14.82	-53.0	-55.4	14.2	0.00e+00	0	29	0	843055104	71	4937
2026-01-03 22:04:38.49	103.42	14.78	-53.2	-55.5	14.1	0.00e+00	0	29	0	844103680	71	5040
2026-01-03 22:04:39.63	103.64	14.73	-53.3	-55.7	14.1	0.00e+00	0	29	0	846200832	72	4861
2026-01-03 22:04:40.48	103.80	14.69	-53.6	-56.2	13.9	0.00e+00	0	29	0	848297984	72	5106
2026-01-03 22:04:41.63	104.02	14.64	-53.9	-56.6	13.7	0.00e+00	0	29	0	850395136	72	5368
2026-01-03 22:04:42.49	104.19	14.60	-53.9	-56.7	13.7	0.00e+00	0	29	0	852492288	73	5122
2026-01-03 22:04:43.62	104.40	14.55	-54.0	-56.8	13.7	0.00e+00	0	29	0	853540864	73	5166
2026-01-03 22:04:44.48	104.56	14.51	-53.9	-56.7	13.7	0.00e+00	0	29	0	855638016	73	5159
2026-01-03 22:04:45.62	104.78	14.46	-53.9	-56.6	13.7	0.00e+00	0	29	0	857735168	73	5091
2026-01-03 22:04:46.48	104.94	14.42	-53.7	-56.4	13.9	0.00e+00	0	29	0	859832320	73	4944
2026-01-03 22:04:47.63	105.15	14.37	-53.6	-56.1	14.0	0.00e+00	0	29	0	861929472	73	4796
2026-01-03 22:04:48.48	105.31	14.33	-53.6	-56.1	14.0	0.00e+00	0	29	0	862978048	73	4811
2026-01-03 22:04:49.62	105.52	14.27	-53.4	-55.9	14.1	0.00e+00	0	29	0	865075200	73	4669
2026-01-03 22:04:50.48	105.68	14.23	-53.4	-55.9	14.1	0.00e+00	0	29	0	867172352	73	4665
2026-01-03 22:04:51.62	105.89	14.18	-53.3	-55.7	14.2	0.00e+00	0	29	0	869269504	73	4573
2026-01-03 22:04:52.48	106.05	14.14	-53.1	-55.6	14.2	0.00e+00	0	29	0	870318080	72	4765
2026-01-03 22:04:53.63	106.26	14.09	-53.1	-55.5	14.2	0.00e+00	0	29	0	872415232	72	4717
2026-01-03 22:04:54.48	106.42	14.05	-53.0	-55.4	14.3	0.00e+00	0	29	0	874512384	72	4662
2026-01-03 22:04:55.62	106.62	13.99	-53.0	-55.3	14.3	0.00e+00	0	29	0	876609536	72	4625
2026-01-03 22:04:56.48	106.78	13.95	-53.2	-55.6	14.2	0.00e+00	0	29	0	878706688	72	4798
2026-01-03 22:04:57.62	106.99	13.90	-53.2	-55.6	14.2	0.00e+00	0	29	0	880803840	72	4774
2026-01-03 22:04:58.48	107.14	13.86	-53.3	-55.7	14.1	0.00e+00	0	29	0	881852416	72	4861
2026-01-03 22:04:59.62	107.35	13.80	-53.4	-55.9	14.0	0.00e+00	0	29	0	883949568	72	4975
2026-01-03 22:05:00.47	107.50	13.76	-53.5	-56.0	13.9	0.00e+00	0	29	0	886046720	72	5017
2026-01-03 22:05:01.61	107.70	13.71	-53.6	-56.1	13.9	0.00e+00	0	29	0	888143872	72	5097
2026-01-03 22:05:02.47	107.86	13.66	-53.5	-56.0	14.0	0.00e+00	0	29	0	889192448	72	5020
2026-01-03 22:05:03.61	108.06	13.61	-53.5	-56.0	14.0	0.00e+00	0	29	0	891289600	72	5012
2026-01-03 22:05:04.46	108.21	13.57	-53.5	-56.0	14.0	0.00e+00	0	29	0	893386752	72	5011
2026-01-03 22:05:05.60	108.41	13.51	-53.6	-56.1	13.9	0.00e+00	0	29	0	895483904	72	5064
2026-01-03 22:05:06.46	108.56	13.47	-53.5	-56.0	14.0	0.00e+00	0	29	0	896532480	72	5002
2026-01-03 22:05:07.60	108.76	13.41	-53.5	-56.0	13.9	0.00e+00	0	29	0	898629632	72	5039
2026-01-03 22:05:08.45	108.91	13.37	-53.7	-56.3	13.9	0.00e+00	0	29	0	900726784	72	5167
2026-01-03 22:05:09.59	109.11	13.31	-53.5	-56.0	13.9	0.00e+00	0	29	0	902823936	72	5020
2026-01-03 22:05:10.45	109.26	13.27	-53.5	-56.0	14.0	0.00e+00	0	29	0	903872512	72	5034
2026-01-03 22:05:11.60	109.46	13.21	-53.5	-56.0	14.0	0.00e+00	0	29	0	907018240	72	4995
2026-01-03 22:05:12.46	109.61	13.17	-53.5	-55.9	13.9	0.00e+00	0	29	0	908066816	72	4981
2026-01-03 22:05:13.60	109.80	13.11	-53.3	-55.7	14.1	0.00e+00	0	29	0	910163968	72	4830
2026-01-03 22:05:14.46	109.95	13.07	-53.1	-55.4	14.2	0.00e+00	0	29	0	912261120	72	4697
2026-01-03 22:05:15.60	110.15	13.01	-53.2	-55.6	14.2	0.00e+00	0	29	0	914358272	72	4792
2026-01-03 22:05:16.45	110.29	12.97	-53.4	-55.8	14.1	0.00e+00	0	29	0	915406848	72	4923
2026-01-03 22:05:17.59	110.48	12.91	-53.3	-55.7	14.1	0.00e+00	0	29	0	917504000	72	4868
2026-01-03 22:05:18.44	110.63	12.87	-53.5	-56.1	14.0	0.00e+00	0	29	0	919601152	72	5061
2026-01-03 22:05:19.58	110.82	12.81	-53.7	-56.3	13.9	0.00e+00	0	29	0	921698304	72	5184
2026-01-03 22:05:20.44	110.97	12.77	-53.6	-56.2	13.9	0.00e+00	0	29	0	922746880	72	5124
2026-01-03 22:05:21.58	111.16	12.71	-53.6	-56.1	14.0	0.00e+00	0	29	0	924844032	72	5069
2026-01-03 22:05:22.43	111.30	12.66	-53.4	-55.8	14.0	0.00e+00	0	29	0	926941184	72	4920
2026-01-03 22:05:23.58	111.49	12.61	-53.1	-55.5	14.2	0.00e+00	0	29	0	929038336	72	4744
2026-01-03 22:05:24.43	111.63	12.56	-52.8	-55.1	14.3	0.00e+00	0	29	0	931135488	72	4536
2026-01-03 22:05:25.57	111.82	12.50	-52.7	-54.9	14.4	0.00e+00	0	29	0	932184064	71	4671
2026-01-03 22:05:26.44	111.96	12.46	-52.7	-54.9	14.4	0.00e+00	0	29	0	934281216	71	4695
2026-01-03 22:05:27.58	112.15	12.40	-52.7	-54.9	14.4	0.00e+00	0	29	0	936378368	71	4699
2026-01-03 22:05:28.44	112.29	12.35	-52.7	-55.0	14.4	0.00e+00	0	29	0	938475520	71	4723
2026-01-03 22:05:29.58	112.48	12.29	-52.7	-54.9	14.4	0.00e+00	0	29	0	940572672	71	4679
2026-01-03 22:05:30.44	112.62	12.25	-52.9	-55.1	14.3	0.00e+00	0	29	0	941621248	71	4786
2026-01-03 22:05:31.58	112.80	12.19	-53.1	-55.4	14.2	0.00e+00	0	29	0	943718400	71	4939
2026-01-03 22:05:32.43	112.94	12.15	-52.9	-55.1	14.3	0.00e+00	0	29	0	945815552	71	4810
2026-01-03 22:05:33.57	113.12	12.09	-53.0	-55.2	14.3	0.00e+00	0	29	0	947912704	71	4842
2026-01-03 22:05:34.43	113.26	12.04	-52.8	-54.9	14.4	0.00e+00	0	29	0	948961280	71	4697
2026-01-03 22:05:35.57	113.44	11.98	-52.7	-54.9	14.4	0.00e+00	0	29	0	951058432	71	4666
2026-01-03 22:05:36.43	113.58	11.94	-52.8	-55.0	14.3	0.00e+00	0	29	0	953155584	71	4739
2026-01-03 22:05:37.57	113.76	11.88	-52.7	-54.9	14.4	0.00e+00	0	29	0	955252736	71	4657
2026-01-03 22:05:38.42	113.90	11.83	-52.8	-55.0	14.4	0.00e+00	0	29	0	956301312	71	4723
2026-01-03 22:05:39.56	114.07	11.77	-52.9	-55.1	14.3	0.00e+00	0	29	0	959447040	71	4800
2026-01-03 22:05:40.42	114.21	11.73	-52.9	-55.1	14.3	0.00e+00	0	29	0	960495616	71	4796
2026-01-03 22:05:41.57	114.39	11.66	-53.1	-55.4	14.2	0.00e+00	0	29	0	962592768	71	4947
2026-01-03 22:05:42.42	114.52	11.62	-53.0	-55.2	14.3	0.00e+00	0	29	0	964689920	71	4851
2026-01-03 22:05:43.57	114.70	11.56	-52.9	-55.0	14.4	0.00e+00	0	29	0	966787072	71	4748
2026-01-03 22:05:44.42	114.83	11.51	-52.8	-55.0	14.4	0.00e+00	0	29	0	967835648	71	4725
2026-01-03 22:05:45.56	115.01	11.45	-52.6	-54.7	14.5	0.00e+00	0	29	0	969932800	71	4559
2026-01-03 22:05:46.41	115.14	11.41	-52.4	-54.4	14.6	0.00e+00	0	29	0	972029952	71	4425
2026-01-03 22:05:47.56	115.32	11.35	-52.3	-54.4	14.6	0.00e+00	0	29	0	974127104	71	4397
2026-01-03 22:05:48.41	115.45	11.30	-52.4	-54.2	14.7	0.00e+00	0	29	0	975175680	71	4318
2026-01-03 22:05:49.55	115.62	11.24	-52.3	-54.1	14.8	0.00e+00	0	29	0	977272832	71	4247
2026-01-03 22:05:50.42	115.75	11.19	-52.3	-54.1	14.7	0.00e+00	0	29	0	979369984	71	4281
2026-01-03 22:05:51.56	115.92	11.13	-52.4	-54.2	14.7	0.00e+00	0	29	0	981467136	71	4312
2026-01-03 22:05:52.42	116.05	11.08	-52.6	-54.4	14.6	0.00e+00	0	29	0	983564288	71	4409
2026-01-03 22:05:53.57	116.23	11.02	-52.7	-54.5	14.6	0.00e+00	0	29	0	985661440	71	4483
2026-01-03 22:05:54.43	116.35	10.98	-52.8	-54.7	14.5	0.00e+00	0	29	0	986710016	71	4565
2026-01-03 22:05:55.57	116.52	10.92	-52.9	-54.8	14.5	0.00e+00	0	29	0	988807168	71	4644
2026-01-03 22:05:56.43	116.65	10.87	-52.9	-54.8	14.5	0.00e+00	0	29	0	990904320	71	4642
2026-01-03 22:05:57.58	116.82	10.81	-52.8	-54.6	14.5	0.00e+00	0	29	0	993001472	71	4545
2026-01-03 22:05:58.43	116.95	10.76	-52.7	-54.6	14.5	0.00e+00	0	29	0	994050048	71	4509
2026-01-03 22:05:59.58	117.12	10.70	-52.8	-54.7	14.5	0.00e+00	0	29	0	996147200	71	4551
2026-01-03 22:06:00.44	117.24	10.65	-52.8	-54.7	14.5	0.00e+00	0	29	0	998244352	71	4578
2026-01-03 22:06:01.57	117.41	10.59	-53.0	-54.9	14.4	0.00e+00	0	29	0	1000341504	71	4678
2026-01-03 22:06:02.43	117.53	10.54	-53.1	-55.1	14.3	0.00e+00	0	29	0	1001390080	71	4801
2026-01-03 22:06:03.57	117.70	10.48	-53.1	-55.1	14.3	0.00e+00	0	29	0	1003487232	71	4798
2026-01-03 22:06:04.43	117.82	10.44	-53.2	-55.3	14.3	0.00e+00	0	29	0	1005584384	71	4880
2026-01-03 22:06:05.58	117.99	10.37	-53.3	-55.4	14.2	0.00e+00	0	29	0	1007681536	71	4959
2026-01-03 22:06:06.43	118.11	10.33	-53.3	-55.4	14.2	0.00e+00	0	29	0	1009778688	71	4963
2026-01-03 22:06:07.58	118.27	10.26	-53.3	-55.4	14.2	0.00e+00	0	29	0	1011875840	72	4692
2026-01-03 22:06:08.44	118.40	10.22	-53.3	-55.4	14.3	0.00e+00	0	29	0	1012924416	72	4684
2026-01-03 22:06:09.58	118.56	10.16	-53.1	-55.2	14.3	0.00e+00	0	29	0	1015021568	72	4552
2026-01-03 22:06:10.43	118.68	10.11	-53.1	-55.2	14.3	0.00e+00	0	29	0	1017118720	72	4555
2026-01-03 22:06:11.57	118.84	10.05	-53.0	-55.0	14.4	0.00e+00	0	29	0	1019215872	72	4469
2026-01-03 22:06:12.42	118.96	10.00	-52.9	-54.8	14.5	0.00e+00	0	29	0	1020264448	72	4363
2026-01-03 22:06:13.57	119.12	9.94	-52.8	-54.7	14.6	0.00e+00	0	29	0	1022361600	72	4298
2026-01-03 22:06:14.42	119.24	9.89	-52.8	-54.8	14.5	0.00e+00	0	29	0	1024458752	72	4342
2026-01-03 22:06:15.57	119.40	9.83	-53.0	-55.1	14.4	0.00e+00	0	29	0	1026555904	72	4497
2026-01-03 22:06:16.42	119.51	9.78	-53.2	-55.2	14.3	0.00e+00	0	29	0	1027604480	72	4590
2026-01-03 22:06:17.57	119.67	9.72	-53.4	-55.6	14.1	0.00e+00	0	29	0	1029701632	72	4770
2026-01-03 22:06:18.44	119.79	9.67	-53.6	-55.8	14.0	0.00e+00	0	29	0	1031798784	72	4917
2026-01-03 22:06:19.58	119.95	9.61	-53.7	-56.0	14.0	0.00e+00	0	29	0	1033895936	72	4987
2026-01-03 22:06:20.44	120.06	9.56	-53.8	-56.1	13.9	0.00e+00	0	29	0	1035993088	72	5093
2026-01-03 22:06:21.58	120.22	9.50	-53.8	-56.1	14.0	0.00e+00	0	29	0	1038090240	73	4771
2026-01-03 22:06:22.44	120.34	9.45	-53.8	-56.1	14.0	0.00e+00	0	29	0	1039138816	73	4803
2026-01-03 22:06:23.58	120.49	9.39	-53.5	-55.6	14.2	0.00e+00	0	29	0	1041235968	73	4541
2026-01-03 22:06:24.44	120.60	9.34	-53.6	-55.7	14.2	0.00e+00	0	29	0	1043333120	73	4594
2026-01-03 22:06:25.58	120.76	9.28	-53.4	-55.6	14.2	0.00e+00	0	29	0	1045430272	73	4524
2026-01-03 22:06:26.44	120.87	9.23	-53.4	-55.6	14.2	0.00e+00	0	29	0	1046478848	73	4527
2026-01-03 22:06:27.59	121.02	9.17	-53.4	-55.6	14.2	0.00e+00	0	29	0	1048576000	73	4529
2026-01-03 22:06:28.45	121.14	9.12	-53.5	-55.7	14.1	0.00e+00	0	29	0	1050673152	73	4588
2026-01-03 22:06:29.59	121.29	9.06	-53.6	-55.8	14.1	0.00e+00	0	29	0	1052770304	73	4608
2026-01-03 22:06:30.45	121.40	9.01	-53.6	-55.9	14.1	0.00e+00	0	29	0	1054867456	73	4657
2026-01-03 22:06:31.60	121.55	8.95	-53.8	-56.0	14.0	0.00e+00	0	29	0	1056964608	73	4757
2026-01-03 22:06:32.45	121.66	8.90	-53.8	-56.1	13.9	0.00e+00	0	29	0	1058013184	73	4805
2026-01-03 22:06:33.60	121.81	8.84	-53.8	-56.1	13.9	0.00e+00	0	29	0	1060110336	73	4784
2026-01-03 22:06:34.45	121.92	8.79	-53.8	-56.1	14.0	0.00e+00	0	29	0	1062207488	73	4793
2026-01-03 22:06:35.60	122.07	8.73	-53.8	-56.1	13.9	0.00e+00	0	29	0	1064304640	73	4783
2026-01-03 22:06:36.46	122.18	8.68	-53.8	-56.1	13.9	0.00e+00	0	29	0	1065353216	73	4799
2026-01-03 22:06:37.60	122.33	8.62	-53.8	-56.2	13.9	0.00e+00	0	29	0	1067450368	73	4818
2026-01-03 22:06:38.46	122.44	8.57	-53.9	-56.3	13.9	0.00e+00	0	29	0	1069547520	73	4877
2026-01-03 22:06:39.60	122.58	8.51	-53.8	-56.2	13.9	0.00e+00	0	29	0	1071644672	73	4844
2026-01-03 22:06:40.46	122.69	8.46	-54.0	-56.5	13.7	0.00e+00	0	29	0	1072693248	73	5022
2026-01-03 22:06:41.60	122.84	8.40	-54.2	-56.8	13.6	0.00e+00	0	29	0	1074790400	73	5189
2026-01-03 22:06:42.47	122.94	8.35	-54.3	-56.9	13.5	0.00e+00	0	29	0	1076887552	73	5239
2026-01-03 22:06:43.61	123.09	8.29	-54.5	-57.2	13.4	0.00e+00	0	29	0	1078984704	74	5152
2026-01-03 22:06:44.48	123.20	8.24	-54.3	-56.9	13.5	0.00e+00	0	29	0	1081081856	74	4982
2026-01-03 22:06:45.61	123.34	8.18	-54.3	-56.9	13.6	0.00e+00	0	29	0	1083179008	74	4950
2026-01-03 22:06:46.47	123.44	8.13	-54.2	-56.8	13.6	0.00e+00	0	29	0	1084227584	74	4909
2026-01-03 22:06:47.62	123.59	8.07	-54.1	-56.6	13.7	0.00e+00	0	29	0	1086324736	74	4771
2026-01-03 22:06:48.48	123.69	8.02	-54.0	-56.4	13.8	0.00e+00	0	29	0	1088421888	74	4704
2026-01-03 22:06:49.62	123.83	7.96	-53.9	-56.3	13.8	0.00e+00	0	29	0	1090519040	74	4626
2026-01-03 22:06:50.48	123.94	7.91	-53.6	-56.0	14.0	0.00e+00	0	29	0	1091567616	73	4706
2026-01-03 22:06:51.62	124.08	7.85	-53.6	-55.9	14.0	0.00e+00	0	29	0	1093664768	73	4685
2026-01-03 22:06:52.47	124.18	7.80	-53.4	-55.6	14.1	0.00e+00	0	29	0	1095761920	73	4513
2026-01-03 22:06:53.62	124.32	7.74	-53.4	-55.6	14.2	0.00e+00	0	29	0	1097859072	73	4506
2026-01-03 22:06:54.48	124.42	7.69	-53.4	-55.7	14.1	0.00e+00	0	29	0	1099956224	73	4557
2026-01-03 22:06:55.63	124.56	7.63	-53.6	-55.9	14.0	0.00e+00	0	29	0	1102053376	73	4656
2026-01-03 22:06:56.49	124.66	7.58	-53.7	-56.1	13.9	0.00e+00	0	29	0	1103101952	73	4795
2026-01-03 22:06:57.63	124.80	7.52	-53.9	-56.3	13.8	0.00e+00	0	29	0	1105199104	73	4898
2026-01-03 22:06:58.49	124.90	7.47	-54.0	-56.5	13.6	0.00e+00	0	29	0	1107296256	73	5025
2026-01-03 22:06:59.63	125.03	7.41	-54.3	-56.9	13.4	0.00e+00	0	29	0	1109393408	73	5261
2026-01-03 22:07:00.50	125.14	7.36	-54.3	-56.9	13.4	0.00e+00	0	29	0	1110441984	73	5247
2026-01-03 22:07:01.63	125.27	7.30	-54.3	-56.9	13.4	0.00e+00	0	29	0	1112539136	73	5269
2026-01-03 22:07:02.49	125.37	7.25	-54.3	-56.9	13.4	0.00e+00	0	29	0	1114636288	73	5256
2026-01-03 22:07:03.63	125.50	7.19	-54.1	-56.6	13.6	0.00e+00	0	29	0	1116733440	73	5088
2026-01-03 22:07:04.49	125.60	7.15	-54.0	-56.6	13.6	0.00e+00	0	29	0	1117782016	73	5060
2026-01-03 22:07:05.63	125.74	7.08	-53.9	-56.3	13.7	0.00e+00	0	29	0	1119879168	73	4913
2026-01-03 22:07:06.48	125.83	7.04	-53.6	-56.0	13.8	0.00e+00	0	29	0	1121976320	73	4748
2026-01-03 22:07:07.62	125.96	6.97	-53.6	-55.9	13.9	0.00e+00	0	29	0	1124073472	73	4683
2026-01-03 22:07:08.47	126.06	6.93	-53.5	-55.7	14.0	0.00e+00	0	29	0	1125122048	73	4588
2026-01-03 22:07:09.61	126.19	6.87	-53.6	-55.9	13.9	0.00e+00	0	29	0	1128267776	73	4675
2026-01-03 22:07:10.47	126.29	6.82	-53.6	-56.0	13.9	0.00e+00	0	29	0	1129316352	73	4706
2026-01-03 22:07:11.61	126.42	6.76	-53.8	-56.3	13.7	0.00e+00	0	29	0	1131413504	73	4896
2026-01-03 22:07:12.46	126.52	6.71	-54.0	-56.5	13.6	0.00e+00	0	29	0	1133510656	73	5035
2026-01-03 22:07:13.61	126.64	6.65	-54.0	-56.6	13.5	0.00e+00	0	29	0	1135607808	73	5055
2026-01-03 22:07:14.46	126.74	6.60	-54.2	-56.8	13.4	0.00e+00	0	29	0	1136656384	73	5190
2026-01-03 22:07:15.61	126.87	6.54	-54.5	-57.3	13.2	0.00e+00	0	29	0	1138753536	74	5209
2026-01-03 22:07:16.47	126.96	6.49	-54.4	-57.2	13.3	0.00e+00	0	29	0	1140850688	74	5151
2026-01-03 22:07:17.61	127.09	6.43	-54.5	-57.3	13.2	0.00e+00	0	29	0	1142947840	74	5178
2026-01-03 22:07:18.47	127.19	6.38	-54.6	-57.6	13.0	0.00e+00	0	29	0	1143996416	74	5351
2026-01-03 22:07:19.60	127.31	6.32	-54.5	-57.4	13.1	0.00e+00	0	29	0	1146093568	74	5262
2026-01-03 22:07:20.46	127.40	6.27	-54.5	-57.4	13.1	0.00e+00	0	29	0	1148190720	74	5263
2026-01-03 22:07:21.60	127.53	6.21	-54.6	-57.5	13.0	0.00e+00	0	29	0	1150287872	74	5329
2026-01-03 22:07:22.46	127.62	6.17	-54.6	-57.5	13.1	0.00e+00	0	29	0	1152385024	74	5316
2026-01-03 22:07:23.60	127.75	6.10	-54.6	-57.5	13.1	0.00e+00	0	29	0	1154482176	74	5299
2026-01-03 22:07:24.47	127.84	6.06	-54.4	-57.3	13.2	0.00e+00	0	29	0	1155530752	74	5171
2026-01-03 22:07:25.61	127.96	6.00	-54.6	-57.5	13.1	0.00e+00	0	29	0	1157627904	74	5309
2026-01-03 22:07:26.47	128.06	5.95	-54.7	-57.7	12.9	0.00e+00	0	29	0	1159725056	74	5426
2026-01-03 22:07:27.60	128.18	5.89	-54.9	-58.0	12.8	0.00e+00	0	29	0	1161822208	75	5320
2026-01-03 22:07:28.46	128.27	5.84	-55.0	-58.3	12.6	0.00e+00	0	29	0	1162870784	75	5503
2026-01-03 22:07:29.61	128.39	5.78	-55.1	-58.5	12.5	0.00e+00	0	29	0	1164967936	75	5601
2026-01-03 22:07:30.46	128.48	5.73	-55.3	-58.8	12.3	2.20e-06	0	29	0	1167065088	75	5814
2026-01-03 22:07:31.61	128.60	5.67	-55.5	-59.1	12.2	2.20e-06	0	29	0	1169162240	76	5711
2026-01-03 22:07:32.46	128.69	5.63	-55.4	-58.9	12.3	0.00e+00	0	29	0	1170210816	76	5550
2026-01-03 22:07:33.60	128.81	5.56	-55.4	-59.0	12.2	0.00e+00	0	29	0	1172307968	76	5640
2026-01-03 22:07:34.46	128.90	5.52	-55.3	-58.8	12.3	7.00e-07	0	29	0	1174405120	76	5502
2026-01-03 22:07:35.60	129.02	5.46	-55.1	-58.5	12.6	0.00e+00	0	29	0	1176502272	76	5283
2026-01-03 22:07:36.46	129.11	5.41	-55.2	-58.6	12.5	0.00e+00	0	29	0	1178599424	76	5387
2026-01-03 22:07:37.60	129.23	5.35	-55.0	-58.3	12.7	0.00e+00	0	29	0	1180696576	76	5208
2026-01-03 22:07:38.46	129.31	5.30	-54.8	-57.9	12.9	0.00e+00	0	29	0	1181745152	76	4968
2026-01-03 22:07:39.61	129.43	5.24	-54.8	-58.0	12.9	0.00e+00	0	29	0	1183842304	76	4992
2026-01-03 22:07:40.47	129.52	5.19	-54.9	-58.0	12.8	0.00e+00	0	29	0	1185939456	76	5031
2026-01-03 22:07:41.61	129.64	5.13	-54.7	-57.9	12.8	0.00e+00	0	29	0	1188036608	75	5220
2026-01-03 22:07:42.46	129.72	5.09	-54.6	-57.7	12.9	0.00e+00	0	29	0	1189085184	75	5147
2026-01-03 22:07:43.61	129.84	5.03	-54.6	-57.7	12.9	0.00e+00	0	29	0	1191182336	75	5109
2026-01-03 22:07:44.46	129.92	4.98	-56.5	-61.5	10.7	3.00e-06	0	29	0	1193279488	78	6687
2026-01-03 22:07:45.61	130.04	4.92	-59.0	-74.9	3.8	1.49e+00	0	29	104	1193279488	83	23428
2026-01-03 22:07:46.47	130.13	4.87	-59.3	-75.3	3.8	1.49e+00	0	29	104	1193279488	83	24558
2026-01-03 22:07:47.60	130.24	4.81	-59.7	-75.8	3.8	1.49e+00	0	29	104	1193279488	84	24485
2026-01-03 22:07:48.47	130.33	4.77	-59.9	-76.0	3.8	1.49e+00	0	29	104	1193279488	84	24986
2026-01-03 22:07:49.61	130.44	4.71	-60.1	-76.2	3.8	1.49e+00	0	29	104	1193279488	85	24210
2026-01-03 22:07:50.47	130.52	4.66	-60.2	-76.3	3.8	1.49e+00	0	29	104	1193279488	85	24528
2026-01-03 22:07:51.61	130.64	4.60	-60.4	-76.5	3.8	1.49e+00	0	29	104	1193279488	85	25002
2026-01-03 22:07:52.46	130.72	4.55	-60.5	-76.6	3.8	1.49e+00	0	29	104	1193279488	86	23926
2026-01-03 22:07:53.61	130.83	4.49	-60.6	-76.7	3.8	1.49e+00	0	29	104	1193279488	86	24194
2026-01-03 22:07:54.47	130.92	4.45	-60.7	-76.7	3.8	1.49e+00	0	29	104	1193279488	86	24363
2026-01-03 22:07:55.61	131.03	4.39	-60.8	-76.8	3.8	1.49e+00	0	29	104	1193279488	86	24683
2026-01-03 22:07:56.47	131.11	4.34	-60.8	-76.9	3.8	1.49e+00	0	29	104	1193279488	86	24868
2026-01-03 22:07:57.61	131.22	4.28	-60.9	-77.0	3.8	1.49e+00	0	29	104	1193279488	86	25122
2026-01-03 22:07:58.47	131.30	4.23	-61.0	-77.0	3.8	1.49e+00	0	29	104	1193279488	87	23836
2026-01-03 22:07:59.62	131.41	4.17	-61.0	-77.1	3.8	1.49e+00	0	29	104	1193279488	87	24086
2026-01-03 22:08:00.47	131.49	4.13	-61.1	-77.2	3.8	1.49e+00	0	29	104	1193279488	87	24278
2026-01-03 22:08:01.61	131.60	4.07	-61.2	-77.3	3.8	1.49e+00	0	29	104	1193279488	87	24484
