passes_logs/2026/01/03/R3.2S_Murmansk/R3.2S_Murmansk__20260103_092345_NOAA_21_JPSS-2_rec.log

#Pass ID: 20260103_092345_NOAA 21 (JPSS-2)
#Satellite: NOAA 21 (JPSS-2)
#Configuration: NOAA-21
#almurnet v.1.7.20251203
#Start time: 2026-01-03 09:28:53

#Version: 2.2.20231116
#Station: R3.2S_Murmansk
#Location: 33.079688 lon 68.888172 lat
#TLE: 1 54234U 22150A   26002.88923379  .00000185  00000+0  10883-3 0  9993
#TLE: 2 54234  98.7486 303.9362 0001189 349.0578  11.0572 14.19531433163092

#Time	Az	El	Level	Level2	SNR	BER	BlckErr	Temp	State	Recorded	gain1	gain2
2026-01-03 09:28:53.66	145.75	39.58	-61.8	-74.4	3.8	8.46e-01	0	30	0	0	89	15686
2026-01-03 09:28:54.65	145.71	39.84	-61.8	-75.2	3.8	1.49e+00	0	31	104	0	88	18128
2026-01-03 09:28:55.66	145.66	40.10	-61.8	-75.2	3.8	1.49e+00	0	31	104	0	88	18136
2026-01-03 09:28:56.67	145.62	40.37	-61.8	-75.2	3.8	1.49e+00	0	31	104	0	88	18125
2026-01-03 09:28:57.67	145.58	40.64	-61.8	-75.2	3.8	1.49e+00	0	31	104	0	88	18101
2026-01-03 09:28:58.68	145.53	40.91	-61.8	-75.1	3.8	1.49e+00	0	31	104	0	88	18078
2026-01-03 09:28:59.70	145.49	41.18	-61.8	-75.2	3.9	1.49e+00	0	31	104	0	88	18128
2026-01-03 09:29:00.71	145.44	41.45	-61.8	-75.1	3.8	1.49e+00	0	31	104	0	88	18072
2026-01-03 09:29:01.72	145.39	41.73	-61.8	-75.1	3.8	1.49e+00	0	31	104	0	88	18001
2026-01-03 09:29:02.72	145.35	42.00	-61.8	-75.2	3.8	1.49e+00	0	31	104	0	88	18104
2026-01-03 09:29:03.73	145.30	42.28	-61.8	-75.1	3.8	1.49e+00	0	31	104	0	88	18067
2026-01-03 09:29:04.74	145.25	42.57	-61.8	-75.1	3.8	1.49e+00	0	31	104	0	88	18046
2026-01-03 09:29:05.75	145.20	42.85	-61.8	-75.2	3.8	1.49e+00	0	31	104	0	88	18104
2026-01-03 09:29:06.76	145.14	43.14	-61.8	-75.1	3.8	1.49e+00	0	31	104	0	88	18056
2026-01-03 09:29:07.77	145.09	43.43	-61.8	-75.1	3.8	1.49e+00	0	31	104	0	88	18049
2026-01-03 09:29:08.78	145.04	43.72	-61.7	-75.1	3.8	1.49e+00	0	30	104	0	88	17996
2026-01-03 09:29:09.79	144.98	44.01	-61.7	-75.1	3.8	1.49e+00	0	31	104	0	88	18044
2026-01-03 09:29:10.80	144.93	44.30	-61.7	-75.1	3.8	1.49e+00	0	31	104	0	88	18014
2026-01-03 09:29:11.81	144.87	44.60	-61.7	-75.1	3.8	1.49e+00	0	31	104	0	88	17979
2026-01-03 09:29:12.81	144.81	44.90	-61.7	-75.1	3.8	1.49e+00	0	31	104	0	88	18019
2026-01-03 09:29:13.83	144.75	45.20	-61.7	-75.1	3.8	1.49e+00	0	31	104	0	88	18036
2026-01-03 09:29:14.83	144.69	45.50	-61.7	-75.1	3.8	1.49e+00	0	31	104	0	88	18023
2026-01-03 09:29:15.84	144.63	45.81	-61.7	-75.1	3.8	1.49e+00	0	31	104	0	88	18018
2026-01-03 09:29:16.85	144.56	46.12	-61.7	-75.1	3.8	1.49e+00	0	31	104	0	88	17966
2026-01-03 09:29:17.86	144.50	46.43	-61.7	-75.1	3.8	1.49e+00	0	31	104	0	88	18006
2026-01-03 09:29:18.87	144.43	46.74	-61.7	-75.1	3.8	1.49e+00	0	31	104	0	88	17954
2026-01-03 09:29:19.88	144.37	47.06	-61.7	-75.1	3.8	1.49e+00	0	31	104	0	88	17980
2026-01-03 09:29:20.89	144.30	47.37	-61.7	-75.1	3.8	1.49e+00	0	31	104	0	88	18031
2026-01-03 09:29:21.90	144.23	47.69	-61.7	-75.1	3.8	1.49e+00	0	31	104	0	88	17935
2026-01-03 09:29:22.91	144.16	48.02	-61.7	-75.1	3.8	1.49e+00	0	31	104	0	88	17984
2026-01-03 09:29:23.92	144.08	48.34	-61.7	-75.1	3.8	1.49e+00	0	31	104	0	88	17894
2026-01-03 09:29:24.92	144.01	48.67	-61.7	-75.0	3.8	1.49e+00	0	31	104	0	88	17861
2026-01-03 09:29:25.94	143.93	49.00	-61.7	-75.1	3.8	1.49e+00	0	31	104	0	88	17910
2026-01-03 09:29:26.94	143.85	49.33	-61.7	-75.1	3.8	1.49e+00	0	31	104	0	88	17920
2026-01-03 09:29:27.95	143.77	49.66	-61.7	-75.0	3.8	1.49e+00	0	31	104	0	88	17873
2026-01-03 09:29:28.96	143.69	50.00	-61.7	-75.1	3.8	1.49e+00	0	31	104	0	88	17907
2026-01-03 09:29:29.97	143.60	50.34	-61.7	-75.1	3.8	1.49e+00	0	31	104	0	88	17916
2026-01-03 09:29:30.98	143.52	50.68	-61.7	-75.0	3.8	1.49e+00	0	31	104	0	88	17883
2026-01-03 09:29:31.99	143.43	51.02	-61.7	-75.0	3.8	1.49e+00	0	31	104	0	88	17872
2026-01-03 09:29:32.99	143.34	51.37	-61.7	-75.1	3.8	1.49e+00	0	31	104	0	88	17940
2026-01-03 09:29:33.99	143.25	51.71	-61.7	-75.0	3.8	1.49e+00	0	31	104	0	88	17853
2026-01-03 09:29:35.00	143.15	52.06	-61.7	-75.1	3.9	1.49e+00	0	31	104	0	88	17897
2026-01-03 09:29:36.01	143.06	52.42	-61.7	-75.1	3.8	1.49e+00	0	31	104	0	88	17921
2026-01-03 09:29:37.02	142.96	52.77	-61.7	-75.0	3.8	1.49e+00	0	31	104	0	88	17853
2026-01-03 09:29:38.03	142.86	53.13	-61.7	-75.1	3.8	1.49e+00	0	31	104	0	88	17908
2026-01-03 09:29:39.04	142.75	53.49	-61.7	-75.0	3.8	1.49e+00	0	31	104	0	88	17836
2026-01-03 09:29:40.04	142.64	53.85	-61.7	-75.1	3.8	1.49e+00	0	31	104	0	88	17914
2026-01-03 09:29:41.06	142.53	54.22	-61.7	-75.0	3.8	1.49e+00	0	31	104	0	88	17809
2026-01-03 09:29:42.07	142.42	54.59	-61.7	-75.0	3.8	1.49e+00	0	31	104	0	88	17815
2026-01-03 09:29:43.08	142.30	54.96	-61.7	-75.0	3.8	1.49e+00	0	31	104	0	88	17865
2026-01-03 09:29:44.08	142.18	55.33	-61.7	-75.0	3.8	1.49e+00	0	31	104	0	88	17874
2026-01-03 09:29:45.10	142.06	55.71	-61.7	-75.0	3.8	1.49e+00	0	31	104	0	88	17857
2026-01-03 09:29:46.11	141.93	56.09	-61.6	-75.0	3.8	1.49e+00	0	31	104	0	88	17801
2026-01-03 09:29:47.12	141.80	56.47	-61.7	-75.0	3.8	1.49e+00	0	31	104	0	88	17817
2026-01-03 09:29:48.12	141.67	56.85	-61.7	-75.0	3.8	1.49e+00	0	31	104	0	88	17833
2026-01-03 09:29:49.13	141.53	57.24	-61.6	-75.0	3.8	1.49e+00	0	31	104	0	88	17817
2026-01-03 09:29:50.15	141.39	57.63	-61.7	-75.0	3.8	1.49e+00	0	31	104	0	88	17816
2026-01-03 09:29:51.16	141.24	58.02	-61.7	-75.0	3.8	1.49e+00	0	31	104	0	88	17845
2026-01-03 09:29:52.16	141.10	58.41	-61.6	-75.0	3.8	1.49e+00	0	31	104	0	88	17865
2026-01-03 09:29:53.17	140.94	58.81	-61.6	-75.0	3.8	1.49e+00	0	31	104	0	88	17855
2026-01-03 09:29:54.18	140.78	59.20	-61.6	-75.0	3.8	1.49e+00	0	31	104	0	88	17806
2026-01-03 09:29:55.19	140.62	59.60	-61.6	-75.0	3.8	1.49e+00	0	31	104	0	88	17804
2026-01-03 09:29:56.19	140.45	60.00	-61.6	-75.0	3.8	1.49e+00	0	31	104	0	88	17768
2026-01-03 09:29:57.21	140.27	60.41	-61.6	-75.0	3.8	1.49e+00	0	31	104	0	88	17838
2026-01-03 09:29:58.21	140.09	60.82	-61.6	-75.0	3.8	1.49e+00	0	31	104	0	88	17794
2026-01-03 09:29:59.22	139.90	61.23	-61.6	-75.0	3.8	1.49e+00	0	31	104	0	88	17754
2026-01-03 09:30:00.23	139.71	61.64	-61.6	-75.0	3.8	1.49e+00	0	31	104	0	88	17723
2026-01-03 09:30:01.24	139.51	62.05	-61.6	-75.0	3.8	1.49e+00	0	31	104	0	88	17708
2026-01-03 09:30:02.25	139.30	62.47	-61.6	-75.0	3.8	1.49e+00	0	31	104	0	88	17757
2026-01-03 09:30:03.26	139.08	62.89	-61.6	-75.0	3.8	1.49e+00	0	31	104	0	88	17749
2026-01-03 09:30:04.27	138.86	63.31	-61.6	-75.0	3.8	1.49e+00	0	31	104	0	88	17708
2026-01-03 09:30:05.27	138.63	63.73	-61.6	-74.9	3.8	1.49e+00	0	31	104	0	88	17675
2026-01-03 09:30:06.28	138.39	64.15	-61.6	-75.0	3.8	1.49e+00	0	31	104	0	88	17733
2026-01-03 09:30:07.29	138.14	64.58	-61.6	-75.0	3.8	1.49e+00	0	31	104	0	88	17721
2026-01-03 09:30:08.30	137.89	65.01	-61.6	-74.8	3.8	1.49e+00	0	31	104	0	88	17449
2026-01-03 09:30:09.31	137.62	65.44	-61.6	-74.7	3.8	1.49e+00	0	31	104	0	88	17090
2026-01-03 09:30:10.32	137.34	65.87	-61.6	-74.7	3.8	1.49e+00	0	31	104	0	88	17197
2026-01-03 09:30:11.33	137.05	66.31	-61.6	-74.9	3.8	1.49e+00	0	31	104	0	88	17587
2026-01-03 09:30:12.34	136.74	66.74	-61.6	-75.0	3.8	1.49e+00	0	31	104	0	88	17734
2026-01-03 09:30:13.35	136.43	67.18	-61.6	-75.0	3.8	1.49e+00	0	31	104	0	88	17704
2026-01-03 09:30:14.36	136.10	67.62	-61.6	-74.9	3.8	1.49e+00	0	31	104	0	88	17682
2026-01-03 09:30:15.37	135.75	68.06	-61.6	-75.0	3.8	1.49e+00	0	31	104	0	88	17716
2026-01-03 09:30:16.38	135.39	68.51	-61.6	-74.9	3.8	1.49e+00	0	31	104	0	88	17680
2026-01-03 09:30:17.39	135.01	68.95	-61.6	-74.9	3.8	1.49e+00	0	31	104	0	88	17652
2026-01-03 09:30:18.40	134.62	69.40	-61.6	-75.0	3.8	1.49e+00	0	31	104	0	88	17687
2026-01-03 09:30:19.41	134.21	69.84	-61.6	-75.0	3.8	1.49e+00	0	31	104	0	88	17756
2026-01-03 09:30:20.42	133.77	70.29	-61.6	-75.0	3.8	1.49e+00	0	31	104	0	88	17693
2026-01-03 09:30:21.43	133.32	70.74	-61.6	-75.0	3.8	1.49e+00	0	31	104	0	88	17720
2026-01-03 09:30:22.44	132.84	71.19	-61.6	-75.0	3.8	1.49e+00	0	31	104	0	88	17704
2026-01-03 09:30:23.45	132.34	71.64	-61.6	-74.9	3.8	1.49e+00	0	31	104	0	88	17671
2026-01-03 09:30:24.46	131.80	72.09	-61.6	-75.0	3.8	1.49e+00	0	31	104	0	88	17705
2026-01-03 09:30:25.47	131.24	72.54	-61.6	-75.0	3.8	1.49e+00	0	31	104	0	88	17710
2026-01-03 09:30:26.47	130.66	72.98	-61.6	-74.9	3.8	1.49e+00	0	31	104	0	88	17641
2026-01-03 09:30:27.48	130.03	73.43	-61.6	-74.9	3.8	1.49e+00	0	31	104	0	88	17568
2026-01-03 09:30:28.49	129.37	73.88	-61.6	-74.9	3.8	1.49e+00	0	31	104	0	88	17639
2026-01-03 09:30:29.50	128.67	74.33	-61.6	-74.9	3.8	1.49e+00	0	31	104	0	88	17563
2026-01-03 09:30:30.50	127.93	74.78	-61.6	-74.9	3.8	1.49e+00	0	31	104	0	88	17662
2026-01-03 09:30:31.51	127.14	75.23	-61.6	-74.9	3.8	1.49e+00	0	31	104	0	88	17665
2026-01-03 09:30:32.52	126.29	75.67	-61.6	-75.0	3.8	1.49e+00	0	31	104	0	88	17686
2026-01-03 09:30:33.53	125.39	76.12	-61.6	-74.9	3.8	1.49e+00	0	31	104	0	88	17649
2026-01-03 09:30:34.54	124.43	76.56	-61.6	-74.9	3.8	1.49e+00	0	31	104	0	88	17643
2026-01-03 09:30:35.55	123.40	77.00	-61.6	-74.9	3.8	1.49e+00	0	31	104	0	88	17620
2026-01-03 09:30:36.55	122.31	77.43	-61.6	-74.9	3.8	1.49e+00	0	31	104	0	88	17609
2026-01-03 09:30:37.56	121.13	77.86	-61.6	-74.9	3.8	1.49e+00	0	31	104	0	88	17668
2026-01-03 09:30:38.57	119.85	78.29	-61.6	-74.9	3.8	1.49e+00	0	31	104	0	88	17527
2026-01-03 09:30:39.58	118.48	78.72	-61.5	-74.9	3.8	1.49e+00	0	31	104	0	88	17551
2026-01-03 09:30:40.59	116.99	79.13	-61.6	-74.9	3.8	1.49e+00	0	31	104	0	88	17643
2026-01-03 09:30:41.60	115.39	79.55	-61.6	-74.9	3.8	1.49e+00	0	31	104	0	88	17598
2026-01-03 09:30:42.61	113.66	79.95	-61.6	-74.9	3.8	1.49e+00	0	31	104	0	88	17640
2026-01-03 09:30:43.62	111.78	80.34	-61.6	-74.9	3.8	1.49e+00	0	31	104	0	88	17629
2026-01-03 09:30:44.63	109.73	80.73	-61.6	-74.9	3.8	1.49e+00	0	31	104	0	88	17588
2026-01-03 09:30:45.64	107.51	81.10	-61.5	-74.8	3.8	1.49e+00	0	31	104	0	88	17293
2026-01-03 09:30:46.65	105.10	81.46	-61.5	-74.3	3.8	1.49e+00	0	31	104	0	88	16401
2026-01-03 09:30:47.65	102.51	81.79	-61.5	-74.7	3.8	1.49e+00	0	31	104	0	88	17162
2026-01-03 09:30:48.66	99.67	82.12	-61.5	-74.9	3.8	1.49e+00	0	31	104	0	88	17544
2026-01-03 09:30:49.67	96.59	82.42	-61.5	-74.9	3.8	1.49e+00	0	31	104	0	88	17490
2026-01-03 09:30:50.68	93.26	82.70	-61.5	-74.9	3.8	1.49e+00	0	31	104	0	88	17676
2026-01-03 09:30:51.69	89.67	82.96	-61.5	-74.9	3.8	1.49e+00	0	31	104	0	88	17617
2026-01-03 09:30:52.70	85.83	83.18	-61.5	-74.8	3.8	1.49e+00	0	31	104	0	88	17288
2026-01-03 09:30:53.71	81.75	83.38	-61.5	-74.9	3.8	1.49e+00	0	31	104	0	88	17574
2026-01-03 09:30:54.71	77.48	83.53	-61.5	-74.7	3.8	1.49e+00	0	31	104	0	88	17258
2026-01-03 09:30:55.72	72.98	83.65	-61.5	-74.8	3.8	1.49e+00	0	31	104	0	88	17428
2026-01-03 09:30:56.73	68.34	83.73	-61.5	-74.9	3.8	1.49e+00	0	31	104	0	88	17638
2026-01-03 09:30:57.74	63.61	83.77	-61.5	-74.9	3.8	1.49e+00	0	31	104	0	88	17567
2026-01-03 09:30:58.75	58.86	83.76	-61.5	-74.9	3.8	1.49e+00	0	31	104	0	88	17581
2026-01-03 09:30:59.75	54.19	83.72	-61.5	-74.9	3.8	1.49e+00	0	31	104	0	88	17569
2026-01-03 09:31:00.76	49.57	83.63	-61.5	-74.9	3.8	1.49e+00	0	31	104	0	88	17552
2026-01-03 09:31:01.77	45.11	83.50	-61.5	-74.9	3.8	1.49e+00	0	31	104	0	88	17492
2026-01-03 09:31:02.78	40.85	83.34	-61.5	-74.9	3.8	1.49e+00	0	31	104	0	88	17555
2026-01-03 09:31:03.79	36.82	83.14	-61.5	-74.9	3.8	1.49e+00	0	31	104	0	88	17647
2026-01-03 09:31:04.80	33.04	82.90	-61.5	-74.9	3.8	1.49e+00	0	31	104	0	88	17596
2026-01-03 09:31:05.81	29.51	82.64	-61.5	-74.9	3.8	1.49e+00	0	31	104	0	88	17635
2026-01-03 09:31:06.82	26.24	82.36	-61.5	-74.9	3.8	1.49e+00	0	31	104	0	88	17565
2026-01-03 09:31:07.83	23.21	82.05	-61.5	-74.9	3.8	1.49e+00	0	31	104	0	88	17591
2026-01-03 09:31:08.84	20.42	81.72	-61.5	-74.9	3.8	1.49e+00	0	31	104	0	88	17552
2026-01-03 09:31:09.85	17.85	81.38	-61.5	-74.9	3.8	1.49e+00	0	31	104	0	88	17543
2026-01-03 09:31:10.86	15.49	81.01	-61.5	-74.9	3.8	1.49e+00	0	31	104	0	88	17551
2026-01-03 09:31:11.87	13.31	80.64	-61.5	-74.9	3.8	1.49e+00	0	31	104	0	88	17546
2026-01-03 09:31:12.88	11.31	80.25	-61.5	-74.9	3.8	1.49e+00	0	31	104	0	88	17556
2026-01-03 09:31:13.88	9.48	79.86	-61.5	-74.9	3.8	1.49e+00	0	31	104	0	88	17577
2026-01-03 09:31:14.89	7.78	79.46	-61.5	-74.9	3.8	1.49e+00	0	31	104	0	88	17581
2026-01-03 09:31:15.90	6.20	79.05	-61.5	-74.9	3.8	1.49e+00	0	31	104	0	88	17547
2026-01-03 09:31:16.91	4.75	78.63	-61.5	-74.9	3.8	1.49e+00	0	31	104	0	88	17573
2026-01-03 09:31:17.92	3.39	78.20	-61.5	-74.9	3.8	1.49e+00	0	31	104	0	88	17590
2026-01-03 09:31:18.92	2.15	77.78	-61.5	-74.9	3.8	1.49e+00	0	31	104	0	88	17518
2026-01-03 09:31:19.93	0.99	77.34	-61.5	-74.9	3.8	1.49e+00	0	31	104	0	88	17511
2026-01-03 09:31:20.94	359.90	76.91	-61.5	-74.9	3.8	1.49e+00	0	31	104	0	88	17532
2026-01-03 09:31:21.95	358.89	76.47	-61.5	-74.9	3.8	1.49e+00	0	31	104	0	88	17502
2026-01-03 09:31:22.96	357.94	76.02	-61.5	-74.9	3.8	1.49e+00	0	31	104	0	88	17498
2026-01-03 09:31:23.97	357.05	75.58	-61.5	-74.9	3.8	1.49e+00	0	31	104	0	88	17518
2026-01-03 09:31:24.97	356.23	75.14	-61.5	-74.9	3.8	1.49e+00	0	31	104	0	88	17511
2026-01-03 09:31:25.99	355.44	74.69	-61.5	-74.9	3.8	1.49e+00	0	31	104	0	88	17531
2026-01-03 09:31:27.00	354.70	74.24	-61.5	-74.8	3.8	1.49e+00	0	31	104	0	88	17452
2026-01-03 09:31:28.00	354.02	73.79	-61.5	-74.9	3.8	1.49e+00	0	31	104	0	88	17493
2026-01-03 09:31:29.01	353.36	73.34	-61.5	-74.9	3.8	1.49e+00	0	31	104	0	88	17510
2026-01-03 09:31:30.01	352.75	72.90	-61.5	-74.9	3.8	1.49e+00	0	31	104	0	88	17548
2026-01-03 09:31:31.02	352.17	72.45	-61.5	-74.9	3.8	1.49e+00	0	31	104	0	88	17519
2026-01-03 09:31:32.03	351.62	72.00	-61.5	-74.9	3.8	1.49e+00	0	31	104	0	88	17560
2026-01-03 09:31:33.03	351.10	71.55	-61.5	-74.9	3.8	1.49e+00	0	31	104	0	88	17509
2026-01-03 09:31:34.03	350.60	71.11	-61.5	-74.9	3.8	1.49e+00	0	31	104	0	88	17547
2026-01-03 09:31:35.04	350.13	70.66	-61.5	-74.9	3.8	1.49e+00	0	31	104	0	88	17570
2026-01-03 09:31:36.05	349.68	70.21	-61.5	-74.9	3.8	1.49e+00	0	31	104	0	88	17541
2026-01-03 09:31:37.05	349.25	69.77	-61.5	-74.8	3.8	1.49e+00	0	31	104	0	88	17476
2026-01-03 09:31:38.06	348.84	69.33	-61.5	-74.9	3.8	1.49e+00	0	31	104	0	88	17520
2026-01-03 09:31:39.07	348.45	68.88	-61.5	-74.9	3.8	1.49e+00	0	31	104	0	88	17496
2026-01-03 09:31:40.07	348.08	68.44	-61.5	-74.9	3.8	1.49e+00	0	31	104	0	88	17518
2026-01-03 09:31:41.09	347.72	68.00	-61.5	-74.9	3.8	1.49e+00	0	31	104	0	88	17557
2026-01-03 09:31:42.09	347.38	67.56	-61.5	-74.8	3.8	1.49e+00	0	31	104	0	88	17466
2026-01-03 09:31:43.10	347.06	67.12	-61.5	-74.9	3.8	1.49e+00	0	31	104	0	88	17514
2026-01-03 09:31:44.10	346.75	66.69	-61.5	-74.8	3.8	1.49e+00	0	31	104	0	88	17477
2026-01-03 09:31:45.11	346.44	66.25	-61.5	-74.9	3.8	1.49e+00	0	31	104	0	88	17512
2026-01-03 09:31:46.12	346.16	65.82	-61.5	-74.9	3.8	1.49e+00	0	31	104	0	88	17492
2026-01-03 09:31:47.13	345.88	65.39	-61.5	-74.8	3.8	1.49e+00	0	31	104	0	88	17465
2026-01-03 09:31:48.14	345.61	64.96	-61.5	-74.9	3.8	1.49e+00	0	31	104	0	88	17531
2026-01-03 09:31:49.14	345.36	64.54	-61.5	-74.9	3.8	1.49e+00	0	31	104	0	88	17493
2026-01-03 09:31:50.15	345.11	64.11	-61.5	-74.9	3.8	1.49e+00	0	31	104	0	88	17523
2026-01-03 09:31:51.16	344.87	63.69	-61.5	-74.9	3.8	1.49e+00	0	31	104	0	88	17510
2026-01-03 09:31:52.17	344.64	63.26	-61.5	-74.9	3.8	1.49e+00	0	31	104	0	88	17506
2026-01-03 09:31:53.18	344.42	62.84	-61.5	-74.9	3.8	1.49e+00	0	31	104	0	88	17549
2026-01-03 09:31:54.19	344.21	62.43	-61.5	-74.9	3.8	1.49e+00	0	31	104	0	88	17547
2026-01-03 09:31:55.19	344.00	62.02	-61.5	-74.8	3.8	1.49e+00	0	31	104	0	88	17479
2026-01-03 09:31:56.20	343.80	61.60	-61.5	-74.9	3.8	1.49e+00	0	31	104	0	88	17496
2026-01-03 09:31:57.21	343.61	61.19	-61.5	-74.8	3.8	1.49e+00	0	31	104	0	88	17456
2026-01-03 09:31:58.22	343.42	60.78	-61.5	-74.9	3.8	1.49e+00	0	31	104	0	88	17505
2026-01-03 09:31:59.23	343.24	60.38	-61.5	-74.9	3.8	1.49e+00	0	31	104	0	88	17534
2026-01-03 09:32:00.24	343.07	59.97	-61.5	-74.9	3.8	1.49e+00	0	31	104	0	88	17530
2026-01-03 09:32:01.25	342.90	59.57	-61.5	-74.9	3.8	1.49e+00	0	31	104	0	88	17490
2026-01-03 09:32:02.26	342.74	59.17	-61.5	-74.9	3.8	1.49e+00	0	31	104	0	88	17487
2026-01-03 09:32:03.27	342.58	58.78	-61.5	-74.9	3.8	1.49e+00	0	31	104	0	88	17485
2026-01-03 09:32:04.27	342.42	58.39	-61.5	-74.8	3.8	1.49e+00	0	31	104	0	88	17457
2026-01-03 09:32:05.29	342.27	57.99	-61.5	-74.8	3.8	1.49e+00	0	31	104	0	88	17437
2026-01-03 09:32:06.30	342.13	57.60	-61.5	-74.8	3.8	1.49e+00	0	31	104	0	88	17470
2026-01-03 09:32:07.30	341.99	57.22	-61.5	-74.8	3.8	1.49e+00	0	31	104	0	88	17457
2026-01-03 09:32:08.32	341.85	56.83	-61.5	-74.8	3.8	1.49e+00	0	31	104	0	88	17465
2026-01-03 09:32:09.33	341.72	56.45	-61.5	-74.9	3.8	1.49e+00	0	31	104	0	88	17490
2026-01-03 09:32:10.33	341.59	56.07	-61.5	-74.9	3.8	1.49e+00	0	31	104	0	88	17536
2026-01-03 09:32:11.35	341.46	55.69	-61.5	-74.8	3.8	1.49e+00	0	31	104	0	88	17459
2026-01-03 09:32:12.36	341.34	55.31	-61.5	-74.9	3.8	1.49e+00	0	31	104	0	88	17488
2026-01-03 09:32:13.37	341.22	54.94	-61.5	-74.8	3.8	1.49e+00	0	31	104	0	88	17431
2026-01-03 09:32:14.37	341.11	54.58	-61.5	-74.8	3.8	1.49e+00	0	31	104	0	88	17465
2026-01-03 09:32:15.38	340.99	54.21	-61.5	-74.8	3.8	1.49e+00	0	31	104	0	88	17454
2026-01-03 09:32:16.39	340.88	53.84	-61.5	-74.8	3.8	1.49e+00	0	31	104	0	88	17442
2026-01-03 09:32:17.40	340.78	53.48	-61.5	-74.8	3.8	1.49e+00	0	31	104	0	88	17462
2026-01-03 09:32:18.41	340.67	53.12	-61.5	-74.8	3.8	1.49e+00	0	31	104	0	88	17435
2026-01-03 09:32:19.42	340.57	52.76	-61.5	-74.8	3.8	1.49e+00	0	31	104	0	88	17479
2026-01-03 09:32:20.43	340.47	52.41	-61.5	-74.8	3.8	1.49e+00	0	31	104	0	88	17469
2026-01-03 09:32:21.44	340.38	52.06	-61.5	-74.8	3.8	1.49e+00	0	31	104	0	88	17463
2026-01-03 09:32:22.45	340.28	51.71	-61.5	-74.8	3.8	1.49e+00	0	31	104	0	88	17479
2026-01-03 09:32:23.45	340.19	51.36	-61.5	-74.9	3.8	1.49e+00	0	31	104	0	88	17489
2026-01-03 09:32:24.47	340.10	51.01	-61.5	-74.8	3.8	1.49e+00	0	31	104	0	88	17457
2026-01-03 09:32:25.47	340.01	50.67	-61.5	-74.8	3.8	1.49e+00	0	31	104	0	88	17434
2026-01-03 09:32:26.49	339.93	50.33	-61.5	-74.8	3.8	1.49e+00	0	31	104	0	88	17429
2026-01-03 09:32:27.49	339.84	50.00	-61.5	-74.8	3.8	1.49e+00	0	31	104	0	88	17426
2026-01-03 09:32:28.50	339.76	49.66	-61.5	-74.8	3.8	1.49e+00	0	31	104	0	88	17442
2026-01-03 09:32:29.51	339.68	49.33	-61.4	-74.8	3.8	1.49e+00	0	31	104	0	88	17453
2026-01-03 09:32:30.52	339.60	49.00	-61.5	-74.8	3.8	1.49e+00	0	31	104	0	88	17470
2026-01-03 09:32:31.53	339.53	48.67	-61.5	-74.8	3.8	1.49e+00	0	31	104	0	88	17373
2026-01-03 09:32:32.54	339.45	48.34	-61.5	-74.8	3.8	1.49e+00	0	31	104	0	88	17428
2026-01-03 09:32:33.55	339.38	48.02	-61.4	-74.8	3.8	1.49e+00	0	31	104	0	88	17417
2026-01-03 09:32:34.55	339.31	47.70	-61.4	-74.8	3.8	1.49e+00	0	31	104	0	88	17431
2026-01-03 09:32:35.56	339.24	47.38	-61.5	-74.8	3.8	1.49e+00	0	31	104	0	88	17443
2026-01-03 09:32:36.57	339.17	47.07	-61.4	-74.8	3.8	1.49e+00	0	31	104	0	88	17413
2026-01-03 09:32:37.58	339.10	46.75	-61.4	-74.8	3.8	1.49e+00	0	31	104	0	88	17380
2026-01-03 09:32:38.59	339.04	46.44	-61.4	-74.8	3.8	1.49e+00	0	31	104	0	88	17449
2026-01-03 09:32:39.60	338.97	46.13	-61.4	-74.8	3.8	1.49e+00	0	31	104	0	88	17388
2026-01-03 09:32:40.61	338.91	45.83	-61.4	-74.8	3.8	1.49e+00	0	31	104	0	88	17386
2026-01-03 09:32:41.62	338.85	45.52	-61.4	-74.8	3.8	1.49e+00	0	31	104	0	88	17380
2026-01-03 09:32:42.63	338.79	45.22	-61.4	-74.8	3.8	1.49e+00	0	31	104	0	88	17374
2026-01-03 09:32:43.64	338.73	44.92	-61.4	-74.8	3.8	1.49e+00	0	31	104	0	88	17384
2026-01-03 09:32:44.65	338.67	44.62	-61.4	-74.8	3.8	1.49e+00	0	31	104	0	88	17396
2026-01-03 09:32:45.66	338.61	44.32	-61.4	-74.8	3.8	1.49e+00	0	31	104	0	88	17434
2026-01-03 09:32:46.67	338.56	44.03	-61.4	-74.8	3.8	1.49e+00	0	31	104	0	88	17415
2026-01-03 09:32:47.68	338.50	43.74	-61.4	-74.8	3.8	1.49e+00	0	31	104	0	88	17405
2026-01-03 09:32:48.69	338.45	43.45	-61.4	-74.8	3.8	1.49e+00	0	31	104	0	88	17386
2026-01-03 09:32:49.70	338.40	43.16	-61.4	-74.8	3.8	1.49e+00	0	31	104	0	88	17397
2026-01-03 09:32:50.71	338.35	42.88	-61.4	-74.8	3.8	1.49e+00	0	31	104	0	88	17390
2026-01-03 09:32:51.72	338.30	42.59	-61.4	-74.8	3.8	1.49e+00	0	31	104	0	88	17445
2026-01-03 09:32:52.73	338.25	42.31	-61.4	-74.8	3.8	1.49e+00	0	31	104	0	88	17435
2026-01-03 09:32:53.74	338.20	42.03	-61.4	-74.8	3.8	1.49e+00	0	31	104	0	88	17361
2026-01-03 09:32:54.75	338.15	41.76	-61.4	-74.8	3.8	1.49e+00	0	31	104	0	88	17385
2026-01-03 09:32:55.76	338.10	41.48	-61.4	-74.8	3.8	1.49e+00	0	31	104	0	88	17374
2026-01-03 09:32:56.77	338.06	41.21	-61.4	-74.8	3.8	1.49e+00	0	31	104	0	88	17438
2026-01-03 09:32:57.77	338.01	40.94	-61.4	-74.8	3.8	1.49e+00	0	31	104	0	88	17421
2026-01-03 09:32:58.78	337.97	40.67	-61.4	-74.8	3.8	1.49e+00	0	31	104	0	88	17406
2026-01-03 09:32:59.79	337.92	40.41	-61.4	-74.8	3.8	1.49e+00	0	31	104	0	88	17347
2026-01-03 09:33:00.80	337.88	40.14	-61.4	-74.8	3.8	1.49e+00	0	31	104	0	88	17361
2026-01-03 09:33:01.81	337.84	39.88	-61.4	-74.8	3.8	1.49e+00	0	31	104	0	88	17374
2026-01-03 09:33:02.82	337.80	39.62	-61.4	-74.8	3.8	1.49e+00	0	31	104	0	88	17403
2026-01-03 09:33:03.83	337.76	39.36	-61.4	-74.8	3.8	1.49e+00	0	31	104	0	88	17398
2026-01-03 09:33:04.84	337.72	39.10	-61.4	-74.8	3.8	1.49e+00	0	31	104	0	88	17414
2026-01-03 09:33:05.85	337.68	38.85	-61.4	-74.8	3.8	1.49e+00	0	31	104	0	88	17405
2026-01-03 09:33:06.86	337.64	38.59	-61.4	-74.8	3.8	1.49e+00	0	31	104	0	88	17395
2026-01-03 09:33:07.87	337.60	38.34	-61.4	-74.8	3.8	1.49e+00	0	31	104	0	88	17409
2026-01-03 09:33:08.88	337.56	38.09	-61.4	-74.8	3.8	1.49e+00	0	31	104	0	88	17395
2026-01-03 09:33:09.89	337.53	37.84	-61.4	-74.8	3.8	1.49e+00	0	31	104	0	88	17336
2026-01-03 09:33:10.90	337.49	37.60	-61.4	-74.8	3.8	1.49e+00	0	31	104	0	88	17376
2026-01-03 09:33:11.90	337.46	37.36	-61.4	-74.8	3.8	1.49e+00	0	31	104	0	88	17361
2026-01-03 09:33:12.91	337.42	37.11	-61.4	-74.8	3.8	1.49e+00	0	31	104	0	88	17369
2026-01-03 09:33:13.92	337.39	36.87	-61.4	-74.8	3.8	1.49e+00	0	31	104	0	88	17465
2026-01-03 09:33:14.93	337.35	36.64	-61.4	-74.8	3.8	1.49e+00	0	31	104	0	88	17356
2026-01-03 09:33:15.94	337.32	36.40	-61.4	-74.8	3.8	1.49e+00	0	31	104	0	88	17373
2026-01-03 09:33:16.95	337.29	36.16	-61.4	-74.8	3.8	1.49e+00	0	31	104	0	88	17372
2026-01-03 09:33:17.95	337.26	35.93	-61.4	-74.8	3.8	1.49e+00	0	31	104	0	88	17377
2026-01-03 09:33:18.96	337.22	35.70	-61.4	-74.8	3.8	1.49e+00	0	31	104	0	88	17391
2026-01-03 09:33:19.97	337.19	35.47	-61.4	-74.8	3.8	1.49e+00	0	31	104	0	88	17309
2026-01-03 09:33:20.98	337.16	35.24	-61.4	-74.8	3.8	1.49e+00	0	31	104	0	88	17361
2026-01-03 09:33:21.98	337.13	35.02	-61.4	-74.8	3.8	1.49e+00	0	31	104	0	88	17330
2026-01-03 09:33:22.99	337.10	34.79	-61.4	-74.8	3.8	1.49e+00	0	31	104	0	88	17302
2026-01-03 09:33:24.00	337.07	34.57	-61.4	-74.8	3.8	1.49e+00	0	31	104	0	88	17357
2026-01-03 09:33:25.02	337.04	34.34	-61.4	-74.8	3.8	1.49e+00	0	31	104	0	88	17307
2026-01-03 09:33:26.02	337.02	34.12	-61.4	-74.8	3.8	1.49e+00	0	31	104	0	88	17297
2026-01-03 09:33:27.03	336.99	33.90	-61.4	-74.8	3.8	1.49e+00	0	31	104	0	88	17339
2026-01-03 09:33:28.04	336.96	33.69	-61.4	-74.8	3.8	1.49e+00	0	31	104	0	88	17337
2026-01-03 09:33:29.05	336.93	33.47	-61.4	-74.8	3.8	1.49e+00	0	31	104	0	88	17322
2026-01-03 09:33:30.05	336.91	33.26	-61.4	-74.8	3.8	1.49e+00	0	31	104	0	88	17294
2026-01-03 09:33:31.06	336.88	33.04	-61.4	-74.8	3.8	1.49e+00	0	31	104	0	88	17303
2026-01-03 09:33:32.08	336.86	32.83	-61.4	-74.8	3.8	1.49e+00	0	31	104	0	88	17344
2026-01-03 09:33:33.08	336.83	32.62	-61.4	-74.8	3.8	1.49e+00	0	31	104	0	88	17317
2026-01-03 09:33:34.09	336.81	32.41	-61.4	-74.8	3.8	1.49e+00	0	31	104	0	88	17344
2026-01-03 09:33:35.10	336.78	32.21	-61.4	-74.8	3.8	1.49e+00	0	31	104	0	88	17295
2026-01-03 09:33:36.10	336.76	32.00	-61.4	-74.8	3.8	1.49e+00	0	31	104	0	88	17393
2026-01-03 09:33:37.11	336.73	31.80	-61.4	-74.8	3.9	1.49e+00	0	31	104	0	88	17346
2026-01-03 09:33:38.12	336.71	31.60	-61.4	-74.8	3.8	1.49e+00	0	31	104	0	88	17356
2026-01-03 09:33:39.13	336.69	31.39	-61.4	-74.8	3.8	1.49e+00	0	31	104	0	88	17299
2026-01-03 09:33:40.14	336.66	31.19	-61.4	-74.8	3.8	1.49e+00	0	31	104	0	88	17299
2026-01-03 09:33:41.15	336.64	30.99	-61.4	-74.8	3.8	1.49e+00	0	31	104	0	88	17327
2026-01-03 09:33:42.16	336.62	30.80	-61.4	-74.8	3.8	1.49e+00	0	31	104	0	88	17330
2026-01-03 09:33:43.17	336.60	30.60	-61.4	-74.8	3.8	1.49e+00	0	31	104	0	88	17356
2026-01-03 09:33:44.18	336.57	30.41	-61.4	-74.8	3.8	1.49e+00	0	31	104	0	88	17324
2026-01-03 09:33:45.19	336.55	30.21	-61.4	-74.7	3.8	1.49e+00	0	31	104	0	88	17245
2026-01-03 09:33:46.20	336.53	30.02	-61.4	-74.8	3.8	1.49e+00	0	31	104	0	88	17354
2026-01-03 09:33:47.21	336.51	29.83	-61.4	-74.7	3.9	1.49e+00	0	31	104	0	88	17266
2026-01-03 09:33:48.21	336.49	29.64	-61.4	-74.7	3.8	1.49e+00	0	31	104	0	88	17220
2026-01-03 09:33:49.22	336.47	29.45	-61.4	-74.7	3.8	1.49e+00	0	31	104	0	88	17274
2026-01-03 09:33:50.23	336.45	29.27	-61.4	-74.7	3.8	1.49e+00	0	31	104	0	88	17217
2026-01-03 09:33:51.24	336.43	29.08	-61.4	-74.7	3.8	1.49e+00	0	31	104	0	88	17252
2026-01-03 09:33:52.24	336.41	28.90	-61.4	-74.7	3.8	1.49e+00	0	31	104	0	88	17252
2026-01-03 09:33:53.25	336.39	28.71	-61.4	-74.7	3.8	1.49e+00	0	31	104	0	88	17253
2026-01-03 09:33:54.26	336.37	28.53	-61.4	-74.8	3.8	1.49e+00	0	31	104	0	88	17298
2026-01-03 09:33:55.27	336.35	28.35	-61.4	-74.8	3.8	1.49e+00	0	31	104	0	88	17295
2026-01-03 09:33:56.28	336.34	28.17	-61.4	-74.8	3.8	1.49e+00	0	31	104	0	88	17303
2026-01-03 09:33:57.29	336.32	27.99	-61.4	-74.8	3.8	1.49e+00	0	31	104	0	88	17309
2026-01-03 09:33:58.30	336.30	27.81	-61.4	-74.8	3.8	1.49e+00	0	31	104	0	88	17330
2026-01-03 09:33:59.31	336.28	27.64	-61.4	-74.8	3.8	1.49e+00	0	31	104	0	88	17326
2026-01-03 09:34:00.31	336.27	27.46	-61.4	-74.8	3.8	1.49e+00	0	31	104	0	88	17313
2026-01-03 09:34:01.32	336.25	27.29	-61.4	-74.7	3.8	1.49e+00	0	31	104	0	88	17281
2026-01-03 09:34:02.33	336.23	27.11	-61.4	-74.8	3.8	1.49e+00	0	31	104	0	88	17342
2026-01-03 09:34:03.34	336.21	26.94	-61.4	-74.8	3.8	1.49e+00	0	31	104	0	88	17304
2026-01-03 09:34:04.35	336.20	26.77	-61.4	-74.8	3.8	1.49e+00	0	31	104	0	88	17304
2026-01-03 09:34:05.36	336.18	26.60	-61.4	-74.7	3.8	1.49e+00	0	31	104	0	88	17229
2026-01-03 09:34:06.37	336.17	26.43	-61.4	-74.7	3.8	1.49e+00	0	31	104	0	88	17149
2026-01-03 09:34:07.38	336.15	26.26	-61.4	-74.6	3.8	1.49e+00	0	31	104	0	88	17082
2026-01-03 09:34:08.38	336.13	26.10	-61.4	-74.7	3.8	1.49e+00	0	31	104	0	88	17160
2026-01-03 09:34:09.39	336.12	25.93	-61.4	-74.7	3.8	1.49e+00	0	31	104	0	88	17265
2026-01-03 09:34:10.41	336.10	25.77	-61.4	-74.8	3.8	1.49e+00	0	31	104	0	88	17284
2026-01-03 09:34:11.41	336.09	25.60	-61.4	-74.7	3.8	1.49e+00	0	31	104	0	88	17249
2026-01-03 09:34:12.43	336.07	25.44	-61.4	-74.7	3.8	1.49e+00	0	31	104	0	88	17276
2026-01-03 09:34:13.44	336.06	25.28	-61.4	-74.7	3.8	1.49e+00	0	31	104	0	88	17261
2026-01-03 09:34:14.45	336.05	25.12	-61.4	-74.8	3.8	1.49e+00	0	31	104	0	88	17291
2026-01-03 09:34:15.46	336.03	24.96	-61.4	-74.8	3.8	1.49e+00	0	31	104	0	88	17296
2026-01-03 09:34:16.46	336.02	24.80	-61.4	-74.8	3.8	1.49e+00	0	31	104	0	88	17293
2026-01-03 09:34:17.47	336.00	24.64	-61.4	-74.8	3.8	1.49e+00	0	31	104	0	88	17289
2026-01-03 09:34:18.48	335.99	24.48	-61.4	-74.8	3.8	1.49e+00	0	31	104	0	88	17297
2026-01-03 09:34:19.49	335.98	24.33	-61.4	-74.8	3.8	1.49e+00	0	31	104	0	88	17297
2026-01-03 09:34:20.49	335.96	24.18	-61.4	-74.8	3.8	1.49e+00	0	31	104	0	88	17320
2026-01-03 09:34:21.50	335.95	24.02	-61.4	-74.7	3.8	1.49e+00	0	31	104	0	88	17264
2026-01-03 09:34:22.51	335.94	23.87	-61.4	-74.7	3.8	1.49e+00	0	31	104	0	88	17172
2026-01-03 09:34:23.52	335.92	23.72	-61.4	-74.7	3.8	1.49e+00	0	31	104	0	88	17191
2026-01-03 09:34:24.53	335.91	23.56	-61.4	-74.7	3.8	1.49e+00	0	31	104	0	88	17218
2026-01-03 09:34:25.54	335.90	23.41	-61.4	-74.7	3.8	1.49e+00	0	31	104	0	88	17223
2026-01-03 09:34:26.55	335.89	23.26	-61.4	-74.8	3.8	1.49e+00	0	31	104	0	88	17295
2026-01-03 09:34:27.55	335.87	23.12	-61.4	-74.7	3.8	1.49e+00	0	31	104	0	88	17257
2026-01-03 09:34:28.56	335.86	22.97	-61.4	-74.8	3.8	1.49e+00	0	31	104	0	88	17293
2026-01-03 09:34:29.58	335.85	22.82	-61.4	-74.8	3.8	1.49e+00	0	31	104	0	88	17304
2026-01-03 09:34:30.58	335.84	22.67	-61.4	-74.7	3.8	1.49e+00	0	31	104	0	88	17233
2026-01-03 09:34:31.59	335.83	22.53	-61.4	-74.7	3.8	1.49e+00	0	31	104	0	88	17280
2026-01-03 09:34:32.60	335.82	22.38	-61.4	-74.8	3.8	1.49e+00	0	31	104	0	88	17302
2026-01-03 09:34:33.61	335.80	22.24	-61.4	-74.7	3.8	1.49e+00	0	31	104	0	88	17274
2026-01-03 09:34:34.62	335.79	22.10	-61.4	-74.7	3.8	1.49e+00	0	31	104	0	88	17253
2026-01-03 09:34:35.62	335.78	21.96	-61.4	-74.7	3.8	1.49e+00	0	31	104	0	88	17279
2026-01-03 09:34:36.63	335.77	21.81	-61.4	-74.7	3.8	1.49e+00	0	31	104	0	88	17218
2026-01-03 09:34:37.63	335.76	21.67	-61.4	-74.7	3.8	1.49e+00	0	31	104	0	88	17237
2026-01-03 09:34:38.64	335.75	21.53	-61.4	-74.7	3.8	1.49e+00	0	31	104	0	88	17242
2026-01-03 09:34:39.65	335.74	21.40	-61.4	-74.7	3.8	1.49e+00	0	31	104	0	88	17230
2026-01-03 09:34:40.66	335.73	21.26	-61.4	-74.7	3.8	1.49e+00	0	31	104	0	88	17231
2026-01-03 09:34:41.67	335.72	21.12	-61.4	-74.8	3.8	1.49e+00	0	31	104	0	88	17299
2026-01-03 09:34:42.68	335.71	20.98	-61.4	-74.7	3.8	1.49e+00	0	31	104	0	88	17251
2026-01-03 09:34:43.69	335.70	20.85	-61.4	-74.7	3.8	1.49e+00	0	31	104	0	88	17217
2026-01-03 09:34:44.70	335.69	20.71	-61.4	-74.7	3.8	1.49e+00	0	31	104	0	88	17234
2026-01-03 09:34:45.70	335.68	20.58	-61.4	-74.7	3.8	1.49e+00	0	31	104	0	88	17206
2026-01-03 09:34:46.71	335.67	20.44	-61.4	-74.7	3.8	1.49e+00	0	31	104	0	88	17219
2026-01-03 09:34:47.72	335.66	20.31	-61.4	-74.7	3.8	1.49e+00	0	31	104	0	88	17269
2026-01-03 09:34:48.73	335.65	20.18	-61.4	-74.7	3.8	1.49e+00	0	31	104	0	88	17235
2026-01-03 09:34:49.74	335.64	20.04	-61.4	-74.7	3.8	1.49e+00	0	31	104	0	88	17198
2026-01-03 09:34:50.75	335.63	19.91	-61.4	-74.7	3.8	1.49e+00	0	31	104	0	88	17228
2026-01-03 09:34:51.76	335.62	19.78	-61.4	-74.7	3.8	1.49e+00	0	31	104	0	88	17244
2026-01-03 09:34:52.76	335.62	19.65	-61.4	-74.7	3.8	1.49e+00	0	31	104	0	88	17281
2026-01-03 09:34:53.77	335.61	19.53	-61.4	-74.7	3.8	1.49e+00	0	31	104	0	88	17232
2026-01-03 09:34:54.79	335.60	19.40	-61.4	-74.8	3.8	1.49e+00	0	31	104	0	88	17296
2026-01-03 09:34:55.80	335.59	19.27	-61.4	-74.7	3.8	1.49e+00	0	31	104	0	88	17244
2026-01-03 09:34:56.80	335.58	19.14	-61.4	-74.7	3.8	1.49e+00	0	31	104	0	88	17234
2026-01-03 09:34:57.81	335.57	19.02	-61.4	-74.7	3.8	1.49e+00	0	31	104	0	88	17263
2026-01-03 09:34:58.82	335.56	18.89	-61.4	-74.7	3.8	1.49e+00	0	31	104	0	88	17254
2026-01-03 09:34:59.83	335.56	18.76	-61.4	-74.7	3.8	1.49e+00	0	31	104	0	88	17228
2026-01-03 09:35:00.84	335.55	18.64	-61.4	-74.7	3.8	1.49e+00	0	31	104	0	88	17263
2026-01-03 09:35:01.85	335.54	18.52	-61.4	-74.7	3.8	1.49e+00	0	31	104	0	88	17253
2026-01-03 09:35:02.86	335.53	18.39	-61.4	-74.7	3.8	1.49e+00	0	31	104	0	88	17249
2026-01-03 09:35:03.87	335.52	18.27	-61.4	-74.7	3.8	1.49e+00	0	31	104	0	88	17247
2026-01-03 09:35:04.88	335.52	18.15	-61.4	-74.7	3.8	1.49e+00	0	31	104	0	88	17255
2026-01-03 09:35:05.88	335.51	18.03	-61.4	-74.7	3.8	1.49e+00	0	31	104	0	88	17245
2026-01-03 09:35:06.89	335.50	17.91	-61.4	-74.7	3.8	1.49e+00	0	31	104	0	88	17222
2026-01-03 09:35:07.90	335.49	17.79	-61.4	-74.7	3.8	1.49e+00	0	31	104	0	88	17204
2026-01-03 09:35:08.91	335.49	17.67	-61.4	-74.8	3.8	1.49e+00	0	31	104	0	88	17288
2026-01-03 09:35:09.92	335.48	17.55	-61.4	-74.7	3.8	1.49e+00	0	31	104	0	88	17240
2026-01-03 09:35:10.93	335.47	17.43	-61.4	-74.7	3.8	1.49e+00	0	31	104	0	88	17224
2026-01-03 09:35:11.94	335.47	17.31	-61.4	-74.7	3.8	1.49e+00	0	31	104	0	88	17207
2026-01-03 09:35:12.95	335.46	17.19	-61.3	-74.7	3.8	1.49e+00	0	31	104	0	88	17187
2026-01-03 09:35:13.95	335.45	17.08	-61.4	-74.7	3.8	1.49e+00	0	31	104	0	88	17200
2026-01-03 09:35:14.96	335.45	16.96	-61.4	-74.7	3.9	1.49e+00	0	31	104	0	88	17232
2026-01-03 09:35:15.97	335.44	16.84	-61.4	-74.7	3.8	1.49e+00	0	31	104	0	88	17192
2026-01-03 09:35:16.98	335.43	16.73	-61.3	-74.7	3.8	1.49e+00	0	31	104	0	88	17155
2026-01-03 09:35:17.99	335.43	16.61	-61.3	-74.7	3.8	1.49e+00	0	31	104	0	88	17178
2026-01-03 09:35:18.99	335.42	16.50	-61.3	-74.7	3.8	1.49e+00	0	31	104	0	88	17197
2026-01-03 09:35:20.00	335.41	16.39	-61.3	-74.7	3.8	1.49e+00	0	31	104	0	88	17233
2026-01-03 09:35:21.01	335.41	16.27	-61.3	-74.7	3.8	1.49e+00	0	31	104	0	88	17197
2026-01-03 09:35:22.02	335.40	16.16	-61.3	-74.7	3.8	1.49e+00	0	31	104	0	88	17228
2026-01-03 09:35:23.02	335.39	16.05	-61.4	-74.7	3.8	1.49e+00	0	31	104	0	88	17205
2026-01-03 09:35:24.03	335.39	15.94	-61.3	-74.7	3.8	1.49e+00	0	31	104	0	88	17220
2026-01-03 09:35:25.04	335.38	15.83	-61.3	-74.7	3.8	1.49e+00	0	31	104	0	88	17220
2026-01-03 09:35:26.05	335.38	15.72	-61.3	-74.7	3.8	1.49e+00	0	31	104	0	88	17205
2026-01-03 09:35:27.06	335.37	15.61	-61.3	-74.7	3.8	1.49e+00	0	31	104	0	88	17166
2026-01-03 09:35:28.07	335.37	15.50	-61.4	-74.7	3.8	1.49e+00	0	31	104	0	88	17226
2026-01-03 09:35:29.08	335.36	15.39	-61.3	-74.7	3.8	1.49e+00	0	31	104	0	88	17176
2026-01-03 09:35:30.09	335.35	15.28	-61.3	-74.7	3.8	1.49e+00	0	31	104	0	88	17215
2026-01-03 09:35:31.10	335.35	15.17	-61.3	-74.7	3.8	1.49e+00	0	31	104	0	88	17226
2026-01-03 09:35:32.10	335.34	15.06	-61.3	-74.7	3.8	1.49e+00	0	31	104	0	88	17207
2026-01-03 09:35:33.11	335.34	14.96	-61.3	-74.7	3.8	1.49e+00	0	31	104	0	88	17188
2026-01-03 09:35:34.12	335.33	14.85	-61.3	-74.7	3.8	1.49e+00	0	31	104	0	88	17142
2026-01-03 09:35:35.13	335.33	14.74	-61.3	-74.7	3.8	1.49e+00	0	31	104	0	88	17193
2026-01-03 09:35:36.13	335.32	14.64	-61.3	-74.7	3.8	1.49e+00	0	31	104	0	88	17164
2026-01-03 09:35:37.13	335.32	14.54	-61.3	-74.7	3.8	1.49e+00	0	31	104	0	88	17218
2026-01-03 09:35:38.14	335.31	14.43	-61.3	-74.7	3.8	1.49e+00	0	31	104	0	88	17140
2026-01-03 09:35:39.15	335.31	14.33	-61.3	-74.7	3.8	1.49e+00	0	31	104	0	88	17144
2026-01-03 09:35:40.16	335.30	14.22	-61.3	-74.7	3.8	1.49e+00	0	31	104	0	88	17148
2026-01-03 09:35:41.17	335.30	14.12	-61.3	-74.7	3.8	1.49e+00	0	31	104	0	88	17150
2026-01-03 09:35:42.18	335.29	14.02	-61.3	-74.7	3.8	1.49e+00	0	31	104	0	88	17118
2026-01-03 09:35:43.19	335.29	13.91	-61.3	-74.7	3.8	1.49e+00	0	31	104	0	88	17129
2026-01-03 09:35:44.19	335.28	13.81	-61.3	-74.7	3.8	1.49e+00	0	31	104	0	88	17182
2026-01-03 09:35:45.20	335.28	13.71	-61.3	-74.7	3.8	1.49e+00	0	31	104	0	88	17197
2026-01-03 09:35:46.21	335.27	13.61	-61.3	-74.7	3.8	1.49e+00	0	31	104	0	88	17228
2026-01-03 09:35:47.22	335.27	13.51	-61.3	-74.7	3.8	1.49e+00	0	31	104	0	88	17164
2026-01-03 09:35:48.23	335.26	13.41	-61.3	-74.7	3.8	1.49e+00	0	31	104	0	88	17148
2026-01-03 09:35:49.23	335.26	13.31	-61.3	-74.7	3.8	1.49e+00	0	31	104	0	88	17162
2026-01-03 09:35:50.25	335.26	13.21	-61.3	-74.7	3.8	1.49e+00	0	31	104	0	88	17141
2026-01-03 09:35:51.25	335.25	13.11	-61.3	-74.7	3.8	1.49e+00	0	31	104	0	88	17223
2026-01-03 09:35:52.26	335.25	13.01	-61.3	-74.7	3.8	1.49e+00	0	31	104	0	88	17204
2026-01-03 09:35:53.27	335.24	12.91	-61.3	-74.7	3.8	1.49e+00	0	31	104	0	88	17149
2026-01-03 09:35:54.28	335.24	12.81	-61.3	-74.7	3.8	1.49e+00	0	31	104	0	88	17166
2026-01-03 09:35:55.29	335.24	12.71	-61.3	-74.7	3.8	1.49e+00	0	31	104	0	88	17155
2026-01-03 09:35:56.30	335.23	12.62	-61.3	-74.7	3.8	1.49e+00	0	31	104	0	88	17193
2026-01-03 09:35:57.31	335.23	12.52	-61.3	-74.7	3.8	1.49e+00	0	31	104	0	88	17152
2026-01-03 09:35:58.32	335.22	12.42	-61.3	-74.7	3.8	1.49e+00	0	31	104	0	88	17159
2026-01-03 09:35:59.32	335.22	12.33	-61.3	-74.7	3.8	1.49e+00	0	31	104	0	88	17153
2026-01-03 09:36:00.33	335.22	12.23	-61.3	-74.7	3.8	1.49e+00	0	31	104	0	88	17150
2026-01-03 09:36:01.34	335.21	12.14	-61.3	-74.7	3.8	1.49e+00	0	31	104	0	88	17130
2026-01-03 09:36:02.35	335.21	12.04	-61.3	-74.7	3.8	1.49e+00	0	31	104	0	88	17129
2026-01-03 09:36:03.36	335.21	11.95	-61.3	-74.7	3.8	1.49e+00	0	31	104	0	88	17113
2026-01-03 09:36:04.37	335.20	11.85	-61.3	-74.7	3.8	1.49e+00	0	31	104	0	88	17167
2026-01-03 09:36:05.38	335.20	11.76	-61.3	-74.7	3.8	1.49e+00	0	31	104	0	88	17188
2026-01-03 09:36:06.39	335.19	11.67	-61.3	-74.7	3.8	1.49e+00	0	31	104	0	88	17137
2026-01-03 09:36:07.40	335.19	11.57	-61.3	-74.7	3.8	1.49e+00	0	31	104	0	88	17164
2026-01-03 09:36:08.40	335.19	11.48	-61.3	-74.7	3.9	1.49e+00	0	31	104	0	88	17144
2026-01-03 09:36:09.41	335.18	11.39	-61.3	-74.7	3.8	1.49e+00	0	31	104	0	88	17198
2026-01-03 09:36:10.43	335.18	11.29	-61.3	-74.7	3.8	1.49e+00	0	31	104	0	88	17162
2026-01-03 09:36:11.43	335.18	11.20	-61.3	-74.7	3.8	1.49e+00	0	31	104	0	88	17129
2026-01-03 09:36:12.44	335.18	11.11	-61.3	-74.7	3.8	1.49e+00	0	31	104	0	88	17129
2026-01-03 09:36:13.45	335.17	11.02	-61.3	-74.7	3.8	1.49e+00	0	31	104	0	88	17180
2026-01-03 09:36:14.46	335.17	10.93	-61.3	-74.7	3.8	1.49e+00	0	31	104	0	88	17175
2026-01-03 09:36:15.47	335.17	10.84	-61.3	-74.7	3.8	1.49e+00	0	31	104	0	88	17198
2026-01-03 09:36:16.47	335.16	10.75	-61.3	-74.7	3.8	1.49e+00	0	31	104	0	88	17222
2026-01-03 09:36:17.48	335.16	10.66	-61.3	-74.7	3.8	1.49e+00	0	31	104	0	88	17170
2026-01-03 09:36:18.48	335.16	10.57	-61.3	-74.7	3.8	1.49e+00	0	31	104	0	88	17177
2026-01-03 09:36:19.49	335.15	10.48	-61.3	-74.7	3.8	1.49e+00	0	31	104	0	88	17210
2026-01-03 09:36:20.50	335.15	10.39	-61.3	-74.7	3.8	1.49e+00	0	31	104	0	88	17192
2026-01-03 09:36:21.50	335.15	10.31	-61.3	-74.7	3.8	1.49e+00	0	31	104	0	88	17138
2026-01-03 09:36:22.51	335.15	10.22	-61.3	-74.7	3.8	1.49e+00	0	31	104	0	88	17130
2026-01-03 09:36:23.52	335.14	10.13	-61.3	-74.7	3.8	1.49e+00	0	31	104	0	88	17171
2026-01-03 09:36:24.52	335.14	10.04	-61.3	-74.7	3.8	1.49e+00	0	31	104	0	88	17173
2026-01-03 09:36:25.53	335.14	9.96	-61.3	-74.7	3.8	1.49e+00	0	31	104	0	88	17155
2026-01-03 09:36:26.55	335.14	9.87	-61.3	-74.7	3.8	1.49e+00	0	31	104	0	88	17180
2026-01-03 09:36:27.55	335.13	9.78	-61.3	-74.7	3.8	1.49e+00	0	31	104	0	88	17196
2026-01-03 09:36:28.56	335.13	9.70	-61.3	-74.7	3.8	1.49e+00	0	31	104	0	88	17129
2026-01-03 09:36:29.57	335.13	9.61	-61.3	-74.7	3.8	1.49e+00	0	31	104	0	88	17178
2026-01-03 09:36:30.58	335.13	9.52	-61.3	-74.7	3.8	1.49e+00	0	31	104	0	88	17154
2026-01-03 09:36:31.58	335.12	9.44	-61.3	-74.7	3.8	1.49e+00	0	31	104	0	88	17181
2026-01-03 09:36:32.60	335.12	9.35	-61.3	-74.7	3.8	1.49e+00	0	31	104	0	88	17154
2026-01-03 09:36:33.61	335.12	9.27	-61.3	-74.7	3.8	1.49e+00	0	31	104	0	88	17144
2026-01-03 09:36:34.62	335.12	9.18	-61.3	-74.7	3.8	1.49e+00	0	31	104	0	88	17223
2026-01-03 09:36:35.63	335.11	9.10	-61.3	-74.7	3.8	1.49e+00	0	31	104	0	88	17166
2026-01-03 09:36:36.63	335.11	9.02	-61.3	-74.7	3.8	1.49e+00	0	31	104	0	88	17180
2026-01-03 09:36:37.64	335.11	8.93	-61.3	-74.7	3.8	1.49e+00	0	31	104	0	88	17123
2026-01-03 09:36:38.65	335.11	8.85	-61.3	-74.7	3.8	1.49e+00	0	31	104	0	88	17154
2026-01-03 09:36:39.66	335.11	8.76	-61.3	-74.7	3.8	1.49e+00	0	31	104	0	88	17108
2026-01-03 09:36:40.66	335.10	8.68	-61.3	-74.7	3.8	1.49e+00	0	31	104	0	88	17098
2026-01-03 09:36:41.67	335.10	8.60	-61.3	-74.7	3.8	1.49e+00	0	31	104	0	88	17148
2026-01-03 09:36:42.68	335.10	8.52	-61.3	-74.7	3.8	1.49e+00	0	31	104	0	88	17115
2026-01-03 09:36:43.69	335.10	8.44	-61.3	-74.7	3.8	1.49e+00	0	31	104	0	88	17118
2026-01-03 09:36:44.70	335.10	8.35	-61.3	-74.7	3.8	1.49e+00	0	31	104	0	88	17138
2026-01-03 09:36:45.71	335.09	8.27	-61.3	-74.7	3.8	1.49e+00	0	31	104	0	88	17118
2026-01-03 09:36:46.71	335.09	8.19	-61.3	-74.7	3.8	1.49e+00	0	31	104	0	88	17114
2026-01-03 09:36:47.72	335.09	8.11	-61.3	-74.7	3.8	1.49e+00	0	31	104	0	88	17220
2026-01-03 09:36:48.73	335.09	8.03	-61.3	-74.7	3.8	1.49e+00	0	31	104	0	88	17138
2026-01-03 09:36:49.74	335.09	7.95	-61.3	-74.7	3.8	1.49e+00	0	31	104	0	88	17173
2026-01-03 09:36:50.75	335.09	7.87	-61.3	-74.7	3.8	1.49e+00	0	31	104	0	88	17169
2026-01-03 09:36:51.76	335.08	7.79	-61.3	-74.7	3.8	1.49e+00	0	31	104	0	88	17100
2026-01-03 09:36:52.76	335.08	7.71	-61.3	-74.7	3.8	1.49e+00	0	31	104	0	88	17148
2026-01-03 09:36:53.77	335.08	7.63	-61.3	-74.7	3.8	1.49e+00	0	31	104	0	88	17171
2026-01-03 09:36:54.78	335.08	7.55	-61.3	-74.7	3.9	1.49e+00	0	31	104	0	88	17145
2026-01-03 09:36:55.78	335.08	7.47	-61.3	-74.7	3.8	1.49e+00	0	31	104	0	88	17117
2026-01-03 09:36:56.79	335.08	7.39	-61.3	-74.7	3.8	1.49e+00	0	31	104	0	88	17152
2026-01-03 09:36:57.80	335.08	7.31	-61.3	-74.7	3.8	1.49e+00	0	31	104	0	88	17214
2026-01-03 09:36:58.81	335.07	7.24	-61.3	-74.7	3.8	1.49e+00	0	31	104	0	88	17154
2026-01-03 09:36:59.82	335.07	7.16	-61.3	-74.7	3.8	1.49e+00	0	31	104	0	88	17102
2026-01-03 09:37:00.83	335.07	7.08	-61.3	-74.7	3.8	1.49e+00	0	31	104	0	88	17160
2026-01-03 09:37:01.84	335.07	7.00	-61.3	-74.7	3.8	1.49e+00	0	31	104	0	88	17127
2026-01-03 09:37:02.85	335.07	6.93	-61.3	-74.7	3.8	1.49e+00	0	31	104	0	88	17125
2026-01-03 09:37:03.86	335.07	6.85	-61.3	-74.7	3.8	1.49e+00	0	31	104	0	88	17130
2026-01-03 09:37:04.87	335.07	6.77	-61.3	-74.7	3.8	1.49e+00	0	31	104	0	88	17094
2026-01-03 09:37:05.87	335.07	6.70	-61.3	-74.7	3.8	1.49e+00	0	31	104	0	88	17112
2026-01-03 09:37:06.88	335.06	6.62	-61.3	-74.7	3.8	1.49e+00	0	31	104	0	88	17141
2026-01-03 09:37:07.89	335.06	6.54	-61.3	-74.7	3.8	1.49e+00	0	31	104	0	88	17157
2026-01-03 09:37:08.90	335.06	6.47	-61.3	-74.7	3.8	1.49e+00	0	31	104	0	88	17134
2026-01-03 09:37:09.91	335.06	6.39	-61.3	-74.7	3.8	1.49e+00	0	31	104	0	88	17152
2026-01-03 09:37:10.92	335.06	6.31	-61.3	-74.7	3.8	1.49e+00	0	31	104	0	88	17182
2026-01-03 09:37:11.93	335.06	6.24	-61.3	-74.7	3.8	1.49e+00	0	31	104	0	88	17132
2026-01-03 09:37:12.94	335.06	6.16	-61.3	-74.7	3.8	1.49e+00	0	31	104	0	88	17118
2026-01-03 09:37:13.95	335.06	6.09	-61.3	-74.7	3.8	1.49e+00	0	31	104	0	88	17133
2026-01-03 09:37:14.96	335.06	6.01	-61.3	-74.6	3.8	1.49e+00	0	31	104	0	88	17073
2026-01-03 09:37:15.97	335.06	5.94	-61.3	-74.7	3.8	1.49e+00	0	31	104	0	88	17157
2026-01-03 09:37:16.98	335.05	5.87	-61.3	-74.7	3.8	1.49e+00	0	31	104	0	88	17147
2026-01-03 09:37:17.98	335.05	5.79	-61.3	-74.7	3.8	1.49e+00	0	31	104	0	88	17123
2026-01-03 09:37:18.99	335.05	5.72	-61.3	-74.7	3.8	1.49e+00	0	31	104	0	88	17118
2026-01-03 09:37:20.00	335.05	5.64	-61.3	-74.7	3.8	1.49e+00	0	31	104	0	88	17136
2026-01-03 09:37:21.01	335.05	5.57	-61.3	-74.7	3.8	1.49e+00	0	31	104	0	88	17131
2026-01-03 09:37:22.02	335.05	5.50	-61.3	-74.7	3.8	1.49e+00	0	31	104	0	88	17170
2026-01-03 09:37:23.03	335.05	5.42	-61.3	-74.7	3.8	1.49e+00	0	31	104	0	88	17146
2026-01-03 09:37:24.04	335.05	5.35	-61.3	-74.7	3.8	1.49e+00	0	31	104	0	88	17130
2026-01-03 09:37:25.05	335.05	5.28	-61.3	-74.7	3.8	1.49e+00	0	31	104	0	88	17104
2026-01-03 09:37:26.06	335.05	5.21	-61.3	-74.7	3.8	1.49e+00	0	31	104	0	88	17122
2026-01-03 09:37:27.07	335.05	5.13	-61.3	-74.7	3.8	1.49e+00	0	31	104	0	88	17126
2026-01-03 09:37:28.08	335.05	5.06	-61.3	-74.6	3.8	1.49e+00	0	31	104	0	88	17081
2026-01-03 09:37:29.09	335.05	4.99	-61.3	-74.7	3.8	1.49e+00	0	31	104	0	88	17099
2026-01-03 09:37:30.10	335.05	4.92	-61.3	-74.7	3.8	1.49e+00	0	31	104	0	88	17140
2026-01-03 09:37:31.11	335.04	4.85	-61.3	-74.7	3.8	1.49e+00	0	31	104	0	88	17133
2026-01-03 09:37:32.12	335.04	4.78	-61.3	-74.7	3.8	1.49e+00	0	31	104	0	88	17122
2026-01-03 09:37:33.12	335.04	4.71	-61.3	-74.7	3.8	1.49e+00	0	31	104	0	88	17175
2026-01-03 09:37:34.13	335.04	4.63	-61.3	-74.7	3.8	1.49e+00	0	31	104	0	88	17129
2026-01-03 09:37:35.14	335.04	4.56	-61.3	-74.6	3.8	1.49e+00	0	31	104	0	88	17070
2026-01-03 09:37:36.15	335.04	4.49	-61.3	-74.7	3.8	1.49e+00	0	31	104	0	88	17121
2026-01-03 09:37:37.16	335.04	4.42	-61.3	-74.7	3.8	1.49e+00	0	31	104	0	88	17155
2026-01-03 09:37:38.17	335.04	4.35	-61.3	-74.7	3.8	1.49e+00	0	31	104	0	88	17180
2026-01-03 09:37:39.18	335.04	4.28	-61.3	-74.7	3.8	1.49e+00	0	31	104	0	88	17106
2026-01-03 09:37:40.19	335.04	4.21	-61.3	-74.7	3.8	1.49e+00	0	31	104	0	88	17111
2026-01-03 09:37:41.20	335.04	4.14	-61.3	-74.7	3.8	1.49e+00	0	31	104	0	88	17119
2026-01-03 09:37:42.21	335.04	4.07	-61.3	-74.7	3.8	1.49e+00	0	31	104	0	88	17139
2026-01-03 09:37:43.22	335.04	4.00	-61.3	-74.7	3.8	1.49e+00	0	31	104	0	88	17153
2026-01-03 09:37:44.23	335.04	3.94	-61.3	-74.7	3.8	1.49e+00	0	31	104	0	88	17115
2026-01-03 09:37:45.24	335.04	3.87	-61.3	-74.7	3.8	1.49e+00	0	31	104	0	88	17086
2026-01-03 09:37:46.25	335.04	3.80	-61.3	-74.7	3.8	1.49e+00	0	31	104	0	88	17156
2026-01-03 09:37:47.25	335.04	3.73	-61.3	-74.7	3.8	1.49e+00	0	31	104	0	88	17154
2026-01-03 09:37:48.26	335.04	3.66	-61.3	-74.7	3.8	1.49e+00	0	31	104	0	88	17123
2026-01-03 09:37:49.27	335.04	3.59	-61.3	-74.7	3.8	1.49e+00	0	31	104	0	88	17191
2026-01-03 09:37:50.28	335.04	3.53	-61.3	-74.7	3.8	1.49e+00	0	31	104	0	88	17155
2026-01-03 09:37:51.29	335.04	3.46	-61.3	-74.7	3.8	1.49e+00	0	31	104	0	88	17113
2026-01-03 09:37:52.30	335.04	3.39	-61.3	-74.7	3.8	1.49e+00	0	31	104	0	88	17103
2026-01-03 09:37:53.31	335.04	3.32	-61.3	-74.7	3.8	1.49e+00	0	31	104	0	88	17143
2026-01-03 09:37:54.32	335.04	3.25	-61.3	-74.7	3.8	1.49e+00	0	31	104	0	88	17121
2026-01-03 09:37:55.33	335.04	3.19	-61.3	-74.7	3.8	1.49e+00	0	31	104	0	88	17174
2026-01-03 09:37:56.34	335.04	3.12	-61.3	-74.7	3.8	1.49e+00	0	31	104	0	88	17104
2026-01-03 09:37:57.35	335.04	3.05	-61.3	-74.7	3.8	1.49e+00	0	31	104	0	88	17139
2026-01-03 09:37:58.35	335.04	2.99	-61.3	-74.7	3.8	1.49e+00	0	31	104	0	88	17117
2026-01-03 09:37:59.36	335.04	2.92	-61.3	-74.7	3.8	1.49e+00	0	31	104	0	88	17130
2026-01-03 09:38:00.37	335.04	2.85	-61.3	-74.7	3.8	1.49e+00	0	31	104	0	88	17122
2026-01-03 09:38:01.38	335.04	2.79	-61.3	-74.6	3.8	1.49e+00	0	31	104	0	88	17050
2026-01-03 09:38:02.39	335.04	2.72	-61.3	-74.6	3.8	1.49e+00	0	31	104	0	88	17056
2026-01-03 09:38:03.40	335.04	2.66	-61.3	-74.6	3.8	1.49e+00	0	31	104	0	88	17075
2026-01-03 09:38:04.41	335.04	2.59	-61.3	-74.7	3.8	1.49e+00	0	31	104	0	88	17103
2026-01-03 09:38:05.42	335.04	2.52	-61.3	-74.6	3.8	1.49e+00	0	31	104	0	88	17073
2026-01-03 09:38:06.43	335.04	2.46	-61.3	-74.7	3.8	1.49e+00	0	31	104	0	88	17125
2026-01-03 09:38:07.43	335.04	2.39	-61.3	-74.7	3.8	1.49e+00	0	31	104	0	88	17137
2026-01-03 09:38:08.44	335.04	2.33	-61.3	-74.7	3.8	1.49e+00	0	31	104	0	88	17116
2026-01-03 09:38:09.44	335.04	2.26	-61.3	-74.7	3.8	1.49e+00	0	31	104	0	88	17119
2026-01-03 09:38:10.46	335.04	2.20	-61.3	-74.7	3.8	1.49e+00	0	31	104	0	88	17107
2026-01-03 09:38:11.47	335.04	2.13	-61.3	-74.7	3.8	1.49e+00	0	31	104	0	88	17088
2026-01-03 09:38:12.47	335.04	2.07	-61.3	-74.6	3.8	1.49e+00	0	31	104	0	88	17059
2026-01-03 09:38:13.49	335.04	2.01	-61.3	-74.7	3.8	1.49e+00	0	31	104	0	88	17093

#Closed at: 2026-01-03 09:38:14
#Recorded file [0 MB]: D:/lorett/data/31004_260103_122853.dat