passes_logs/2026/01/03/R3.2S_Murmansk/R3.2S_Murmansk__20260103_115614_NOAA_20_JPSS-1_rec.log

#Pass ID: 20260103_115614_NOAA 20 (JPSS-1)
#Satellite: NOAA 20 (JPSS-1)
#Configuration: NOAA 20
#almurnet v.1.7.20251203
#Start time: 2026-01-03 11:56:16

#Version: 2.2.20231116
#Station: R3.2S_Murmansk
#Location: 33.079688 lon 68.888172 lat
#TLE: 1 43013U 17073A   26002.92460628  .00000184  00000+0  10833-3 0  9996
#TLE: 2 43013  98.7623 303.9923 0001887  56.9179 303.2178 14.19532741421028

#Time	Az	El	Level	Level2	SNR	BER	BlckErr	Temp	State	Recorded	gain1	gain2
2026-01-03 11:56:16.98	213.00	2.13	-59.9	-75.4	3.8	1.49e+00	0	28	0	0	86	20948
2026-01-03 11:56:17.97	213.07	2.19	-59.9	-75.4	3.8	1.49e+00	0	28	104	0	84	23333
2026-01-03 11:56:18.96	213.14	2.24	-59.9	-75.3	3.8	1.49e+00	0	28	104	0	84	23248
2026-01-03 11:56:19.95	213.21	2.29	-59.9	-75.4	3.8	1.49e+00	0	28	104	0	84	23391
2026-01-03 11:56:20.95	213.28	2.35	-59.9	-75.4	3.8	1.49e+00	0	28	104	0	84	23349
2026-01-03 11:56:21.95	213.36	2.41	-59.9	-75.4	3.8	1.49e+00	0	28	104	0	84	23435
2026-01-03 11:56:22.95	213.43	2.46	-59.9	-75.4	3.8	1.49e+00	0	28	104	0	84	23460
2026-01-03 11:56:23.95	213.50	2.52	-59.9	-75.4	3.8	1.49e+00	0	28	104	0	84	23529
2026-01-03 11:56:24.94	213.58	2.57	-59.9	-75.4	3.8	1.49e+00	0	28	104	0	84	23522
2026-01-03 11:56:25.95	213.65	2.63	-59.9	-75.4	3.8	1.49e+00	0	28	104	0	84	23419
2026-01-03 11:56:26.94	213.72	2.68	-59.9	-75.3	3.8	1.49e+00	0	28	104	0	84	23281
2026-01-03 11:56:27.94	213.80	2.74	-59.9	-75.4	3.8	1.49e+00	0	28	104	0	84	23325
2026-01-03 11:56:28.94	213.87	2.80	-59.9	-75.3	3.8	1.49e+00	0	29	104	0	84	23295
2026-01-03 11:56:29.93	213.95	2.85	-59.9	-75.3	3.8	1.49e+00	0	28	104	0	84	23285
2026-01-03 11:56:30.92	214.02	2.91	-59.9	-75.3	3.8	1.49e+00	0	28	104	0	84	23298
2026-01-03 11:56:31.92	214.10	2.96	-59.9	-75.3	3.8	1.49e+00	0	28	104	0	84	23300
2026-01-03 11:56:32.92	214.17	3.02	-59.9	-75.4	3.8	1.49e+00	0	29	104	0	84	23328
2026-01-03 11:56:33.91	214.25	3.07	-59.9	-75.4	3.8	1.49e+00	0	29	104	0	84	23456
2026-01-03 11:56:34.91	214.32	3.13	-59.9	-75.4	3.8	1.49e+00	0	29	104	0	84	23502
2026-01-03 11:56:35.91	214.40	3.19	-59.9	-75.4	3.8	1.49e+00	0	29	104	0	84	23469
2026-01-03 11:56:36.89	214.48	3.24	-59.9	-75.4	3.8	1.49e+00	0	29	104	0	84	23501
2026-01-03 11:56:37.89	214.55	3.30	-59.9	-75.4	3.8	1.49e+00	0	29	104	0	84	23345
2026-01-03 11:56:38.89	214.63	3.36	-59.9	-75.3	3.8	1.49e+00	0	29	104	0	84	23211
2026-01-03 11:56:39.88	214.71	3.41	-59.9	-75.2	3.8	1.49e+00	0	29	104	0	84	23031
2026-01-03 11:56:40.87	214.78	3.47	-59.8	-75.2	3.8	1.49e+00	0	29	104	0	84	22855
2026-01-03 11:56:41.87	214.86	3.53	-59.8	-75.1	3.8	1.49e+00	0	29	104	0	84	22685
2026-01-03 11:56:42.86	214.94	3.58	-59.9	-75.1	3.8	1.49e+00	0	29	104	0	84	22683
2026-01-03 11:56:43.86	215.02	3.64	-59.9	-75.2	3.8	1.49e+00	0	29	104	0	84	22926
2026-01-03 11:56:44.85	215.10	3.70	-59.8	-75.2	3.8	1.49e+00	0	29	104	0	84	22844
2026-01-03 11:56:45.85	215.18	3.75	-59.9	-75.2	3.8	1.49e+00	0	29	104	0	84	23032
2026-01-03 11:56:46.84	215.25	3.81	-59.9	-75.2	3.8	1.49e+00	0	29	104	0	84	22814
2026-01-03 11:56:47.84	215.33	3.87	-59.9	-75.1	3.8	1.49e+00	0	29	104	0	84	22526
2026-01-03 11:56:48.83	215.41	3.92	-59.8	-74.9	3.8	1.49e+00	0	29	104	0	84	22047
2026-01-03 11:56:49.83	215.49	3.98	-59.8	-74.9	3.8	1.49e+00	0	29	104	0	84	22211
2026-01-03 11:56:50.82	215.58	4.04	-59.9	-75.1	3.8	1.49e+00	0	29	104	0	84	22695
2026-01-03 11:56:51.81	215.66	4.10	-59.9	-75.3	3.8	1.49e+00	0	29	104	0	84	23171
2026-01-03 11:56:52.81	215.74	4.15	-59.9	-75.4	3.8	1.49e+00	0	29	104	0	84	23527
2026-01-03 11:56:53.82	215.82	4.21	-59.9	-75.3	3.8	1.49e+00	0	29	104	0	84	23140
2026-01-03 11:56:54.82	215.90	4.27	-59.8	-74.6	3.8	1.49e+00	0	29	104	0	84	21330
2026-01-03 11:56:55.82	215.98	4.33	-59.8	-73.7	3.8	1.49e+00	0	29	104	0	84	19208
2026-01-03 11:56:56.81	216.07	4.39	-59.7	-72.7	4.0	1.49e+00	0	29	104	0	84	17150
2026-01-03 11:56:57.81	216.15	4.44	-59.7	-71.8	4.2	1.41e+00	0	29	0	0	84	15449
2026-01-03 11:56:58.81	216.23	4.50	-59.6	-71.1	4.4	1.27e+00	62	29	0	1048576	84	14234
2026-01-03 11:56:59.81	216.32	4.56	-59.6	-70.8	4.5	1.19e+00	1	29	0	2097152	84	13862
2026-01-03 11:57:00.81	216.40	4.62	-59.5	-69.8	5.0	9.22e-01	0	29	0	4194304	84	12289
2026-01-03 11:57:01.80	216.48	4.68	-59.5	-69.1	5.3	5.96e-01	0	29	0	6291456	84	11360
2026-01-03 11:57:02.80	216.57	4.74	-59.3	-67.5	6.4	3.46e-01	0	29	0	8388608	84	9390
2026-01-03 11:57:03.79	216.65	4.79	-59.0	-66.0	7.6	1.18e-01	0	29	0	9437184	84	7900
2026-01-03 11:57:04.78	216.74	4.85	-58.4	-64.1	9.0	2.10e-02	0	29	0	11534336	83	6785
2026-01-03 11:57:05.77	216.82	4.91	-58.1	-63.1	9.9	3.61e-03	0	29	0	13631488	82	6405
2026-01-03 11:57:06.77	216.91	4.97	-57.6	-61.8	10.9	6.42e-04	0	29	0	15728640	81	5831
2026-01-03 11:57:07.76	216.99	5.03	-57.3	-61.2	11.4	1.03e-04	0	29	0	17825792	81	5426
2026-01-03 11:57:08.75	217.08	5.09	-57.6	-61.8	11.0	7.62e-05	0	29	0	18874368	81	5825
2026-01-03 11:57:09.75	217.16	5.15	-59.6	-71.6	4.4	1.81e-02	49	29	0	20971520	84	15198
2026-01-03 11:57:10.76	217.25	5.21	-56.1	-58.6	13.1	9.50e-01	0	29	0	20971520	78	4780
2026-01-03 11:57:11.77	217.34	5.27	-57.9	-62.3	10.7	4.73e-05	0	29	0	23068672	80	6518
2026-01-03 11:57:12.77	217.43	5.33	-55.7	-58.0	13.5	2.44e-05	0	29	0	25165824	77	4729
2026-01-03 11:57:13.77	217.52	5.38	-55.5	-57.7	13.6	0.00e+00	0	29	0	26214400	77	4598
2026-01-03 11:57:14.77	217.61	5.44	-55.5	-57.8	13.6	0.00e+00	0	29	0	28311552	77	4601
2026-01-03 11:57:15.77	217.70	5.50	-55.5	-57.7	13.6	0.00e+00	0	29	0	30408704	77	4578
2026-01-03 11:57:16.76	217.78	5.56	-55.4	-57.6	13.7	0.00e+00	0	29	0	32505856	77	4535
2026-01-03 11:57:17.76	217.87	5.62	-55.4	-57.6	13.7	0.00e+00	0	29	0	34603008	77	4522
2026-01-03 11:57:18.77	217.96	5.68	-55.5	-57.6	13.7	0.00e+00	0	29	0	35651584	77	4545
2026-01-03 11:57:19.76	218.05	5.74	-55.5	-57.7	13.6	0.00e+00	0	30	0	37748736	77	4567
2026-01-03 11:57:20.76	218.14	5.80	-55.5	-57.7	13.7	0.00e+00	0	30	0	39845888	77	4559
2026-01-03 11:57:21.76	218.24	5.86	-55.5	-57.7	13.7	0.00e+00	0	30	0	41943040	77	4548
2026-01-03 11:57:22.75	218.33	5.92	-55.4	-57.6	13.7	0.00e+00	0	29	0	42991616	77	4505
2026-01-03 11:57:23.75	218.42	5.98	-55.5	-57.7	13.6	0.00e+00	0	29	0	45088768	77	4566
2026-01-03 11:57:24.75	218.51	6.04	-55.5	-57.7	13.7	0.00e+00	0	29	0	47185920	77	4585
2026-01-03 11:57:25.75	218.60	6.10	-55.5	-57.7	13.7	0.00e+00	0	29	0	49283072	77	4566
2026-01-03 11:57:26.74	218.69	6.16	-55.4	-57.6	13.7	0.00e+00	0	29	0	51380224	77	4526
2026-01-03 11:57:27.74	218.79	6.22	-55.5	-57.7	13.7	0.00e+00	0	30	0	52428800	77	4555
2026-01-03 11:57:28.74	218.88	6.28	-55.3	-57.4	13.9	0.00e+00	0	30	0	54525952	77	4409
2026-01-03 11:57:29.73	218.97	6.34	-55.4	-57.6	13.8	0.00e+00	0	30	0	56623104	77	4495
2026-01-03 11:57:30.73	219.07	6.41	-55.3	-57.4	13.8	0.00e+00	0	30	0	58720256	77	4422
2026-01-03 11:57:31.73	219.16	6.47	-55.4	-57.5	13.8	0.00e+00	0	30	0	60817408	77	4471
2026-01-03 11:57:32.72	219.26	6.53	-55.4	-57.5	13.8	0.00e+00	0	29	0	61865984	77	4470
2026-01-03 11:57:33.72	219.35	6.59	-55.4	-57.4	13.8	0.00e+00	0	29	0	63963136	77	4435
2026-01-03 11:57:34.71	219.45	6.65	-55.3	-57.4	13.9	0.00e+00	0	30	0	66060288	77	4415
2026-01-03 11:57:35.70	219.54	6.71	-55.4	-57.4	13.8	0.00e+00	0	29	0	68157440	77	4434
2026-01-03 11:57:36.71	219.64	6.77	-55.3	-57.3	14.0	0.00e+00	0	29	0	69206016	77	4358
2026-01-03 11:57:37.70	219.74	6.83	-55.3	-57.3	13.9	0.00e+00	0	29	0	71303168	77	4378
2026-01-03 11:57:38.69	219.83	6.89	-55.4	-57.4	13.9	0.00e+00	0	30	0	73400320	77	4431
2026-01-03 11:57:39.69	219.93	6.95	-55.5	-57.6	13.8	0.00e+00	0	30	0	75497472	77	4514
2026-01-03 11:57:40.69	220.03	7.02	-55.5	-57.6	13.8	0.00e+00	0	29	0	77594624	77	4526
2026-01-03 11:57:41.70	220.13	7.08	-55.4	-57.4	13.9	0.00e+00	0	30	0	78643200	77	4425
2026-01-03 11:57:42.70	220.23	7.14	-55.3	-57.4	13.9	0.00e+00	0	30	0	80740352	77	4399
2026-01-03 11:57:43.70	220.33	7.20	-55.3	-57.3	13.9	0.00e+00	0	29	0	82837504	77	4383
2026-01-03 11:57:44.69	220.43	7.26	-55.3	-57.3	13.9	0.00e+00	0	30	0	84934656	77	4382
2026-01-03 11:57:45.69	220.53	7.32	-55.3	-57.2	14.0	0.00e+00	0	30	0	87031808	77	4333
2026-01-03 11:57:46.70	220.63	7.39	-55.3	-57.3	14.0	0.00e+00	0	30	0	88080384	77	4348
2026-01-03 11:57:47.69	220.73	7.45	-55.3	-57.3	14.0	0.00e+00	0	30	0	90177536	77	4346
2026-01-03 11:57:48.69	220.83	7.51	-55.3	-57.3	14.0	0.00e+00	0	30	0	92274688	77	4358
2026-01-03 11:57:49.69	220.93	7.57	-55.2	-57.1	14.1	0.00e+00	0	30	0	94371840	77	4282
2026-01-03 11:57:50.68	221.03	7.64	-55.2	-57.2	14.0	0.00e+00	0	30	0	95420416	76	4546
2026-01-03 11:57:51.68	221.13	7.70	-55.1	-57.1	14.0	0.00e+00	0	30	0	97517568	76	4504
2026-01-03 11:57:52.67	221.24	7.76	-55.2	-57.1	14.1	0.00e+00	0	30	0	99614720	76	4520
2026-01-03 11:57:53.67	221.34	7.82	-55.2	-57.1	14.0	0.00e+00	0	30	0	101711872	76	4533
2026-01-03 11:57:54.67	221.44	7.89	-55.0	-56.9	14.2	0.00e+00	0	30	0	103809024	76	4397
2026-01-03 11:57:55.67	221.55	7.95	-54.9	-56.7	14.3	0.00e+00	0	30	0	104857600	76	4308
2026-01-03 11:57:56.66	221.65	8.01	-55.0	-56.8	14.2	0.00e+00	0	30	0	106954752	76	4361
2026-01-03 11:57:57.65	221.76	8.07	-54.9	-56.8	14.2	0.00e+00	0	29	0	109051904	76	4350
2026-01-03 11:57:58.66	221.86	8.14	-55.0	-56.8	14.2	0.00e+00	0	30	0	111149056	76	4377
2026-01-03 11:57:59.65	221.97	8.20	-54.9	-56.7	14.2	0.00e+00	0	29	0	112197632	76	4332
2026-01-03 11:58:00.65	222.07	8.26	-54.9	-56.7	14.3	0.00e+00	0	30	0	114294784	76	4295
2026-01-03 11:58:01.64	222.18	8.32	-55.0	-56.8	14.2	0.00e+00	0	30	0	116391936	76	4389
2026-01-03 11:58:02.64	222.29	8.39	-55.0	-56.9	14.2	0.00e+00	0	29	0	118489088	76	4402
2026-01-03 11:58:03.63	222.39	8.45	-55.1	-57.0	14.1	0.00e+00	0	30	0	120586240	76	4472
2026-01-03 11:58:04.64	222.50	8.51	-55.1	-57.0	14.1	0.00e+00	0	30	0	121634816	76	4471
2026-01-03 11:58:05.64	222.61	8.58	-55.1	-56.9	14.2	0.00e+00	0	30	0	123731968	76	4411
2026-01-03 11:58:06.64	222.72	8.64	-55.0	-56.9	14.1	0.00e+00	0	30	0	125829120	76	4407
2026-01-03 11:58:07.64	222.83	8.71	-55.1	-57.0	14.1	0.00e+00	0	30	0	127926272	76	4450
2026-01-03 11:58:08.65	222.94	8.77	-55.1	-56.9	14.1	0.00e+00	0	30	0	130023424	76	4422
2026-01-03 11:58:09.65	223.05	8.83	-55.0	-56.8	14.2	0.00e+00	0	30	0	131072000	76	4350
2026-01-03 11:58:10.65	223.16	8.90	-55.1	-57.0	14.1	0.00e+00	0	30	0	133169152	76	4445
2026-01-03 11:58:11.65	223.28	8.96	-55.1	-57.0	14.1	0.00e+00	0	30	0	135266304	76	4469
2026-01-03 11:58:12.66	223.39	9.03	-55.0	-56.8	14.2	0.00e+00	0	30	0	137363456	76	4376
2026-01-03 11:58:13.66	223.50	9.09	-55.1	-56.9	14.2	0.00e+00	0	30	0	138412032	76	4423
2026-01-03 11:58:14.65	223.61	9.15	-55.0	-56.8	14.2	0.00e+00	0	30	0	140509184	76	4372
2026-01-03 11:58:15.66	223.73	9.22	-55.0	-56.9	14.2	0.00e+00	0	30	0	142606336	76	4396
2026-01-03 11:58:16.66	223.84	9.28	-55.1	-57.0	14.1	0.00e+00	0	30	0	144703488	76	4461
2026-01-03 11:58:17.66	223.96	9.35	-55.1	-56.9	14.2	0.00e+00	0	30	0	146800640	76	4434
2026-01-03 11:58:18.66	224.07	9.41	-55.1	-56.9	14.2	0.00e+00	0	30	0	147849216	76	4415
2026-01-03 11:58:19.66	224.19	9.48	-55.0	-56.8	14.2	0.00e+00	0	30	0	149946368	76	4372
2026-01-03 11:58:20.66	224.30	9.54	-55.0	-56.8	14.2	0.00e+00	0	30	0	152043520	76	4379
2026-01-03 11:58:21.67	224.42	9.61	-55.0	-56.8	14.2	0.00e+00	0	30	0	154140672	76	4349
2026-01-03 11:58:22.67	224.54	9.67	-54.9	-56.7	14.3	0.00e+00	0	30	0	156237824	76	4311
2026-01-03 11:58:23.67	224.65	9.74	-54.9	-56.6	14.3	0.00e+00	0	30	0	157286400	76	4270
2026-01-03 11:58:24.68	224.77	9.80	-54.9	-56.7	14.3	0.00e+00	0	30	0	159383552	76	4294
2026-01-03 11:58:25.68	224.89	9.87	-54.8	-56.5	14.4	0.00e+00	0	30	0	161480704	76	4230
2026-01-03 11:58:26.69	225.01	9.93	-54.8	-56.5	14.4	0.00e+00	0	30	0	163577856	76	4231
2026-01-03 11:58:27.69	225.13	10.00	-54.8	-56.5	14.4	0.00e+00	0	30	0	165675008	76	4222
2026-01-03 11:58:28.70	225.25	10.06	-54.8	-56.5	14.4	0.00e+00	0	30	0	166723584	76	4215
2026-01-03 11:58:29.70	225.37	10.13	-54.8	-56.6	14.4	0.00e+00	0	30	0	168820736	76	4243
2026-01-03 11:58:30.70	225.49	10.19	-54.8	-56.5	14.4	0.00e+00	0	30	0	170917888	76	4224
2026-01-03 11:58:31.70	225.62	10.26	-54.8	-56.5	14.4	0.00e+00	0	30	0	173015040	76	4197
2026-01-03 11:58:32.70	225.74	10.32	-54.6	-56.2	14.4	0.00e+00	0	30	0	175112192	75	4334
2026-01-03 11:58:33.71	225.86	10.39	-54.6	-56.3	14.4	0.00e+00	0	30	0	176160768	75	4361
2026-01-03 11:58:34.71	225.98	10.46	-54.5	-56.2	14.4	0.00e+00	0	30	0	178257920	75	4310
2026-01-03 11:58:35.71	226.11	10.52	-54.5	-56.2	14.5	0.00e+00	0	30	0	180355072	75	4299
2026-01-03 11:58:36.71	226.23	10.59	-54.5	-56.2	14.5	0.00e+00	0	30	0	182452224	75	4292
2026-01-03 11:58:37.71	226.36	10.65	-54.4	-56.1	14.5	0.00e+00	0	30	0	184549376	75	4257
2026-01-03 11:58:38.71	226.48	10.72	-54.5	-56.2	14.5	0.00e+00	0	30	0	185597952	75	4318
2026-01-03 11:58:39.72	226.61	10.78	-54.3	-55.9	14.6	0.00e+00	0	30	0	187695104	75	4168
2026-01-03 11:58:40.91	226.76	10.86	-54.3	-55.8	14.6	0.00e+00	0	30	0	189792256	75	4137
2026-01-03 11:58:41.77	226.87	10.92	-54.2	-55.8	14.6	0.00e+00	0	30	0	190840832	75	4127
2026-01-03 11:58:42.92	227.01	11.00	-54.3	-55.9	14.6	0.00e+00	0	30	0	193986560	75	4150
2026-01-03 11:58:43.78	227.12	11.05	-54.2	-55.8	14.7	0.00e+00	0	30	0	195035136	75	4101
2026-01-03 11:58:44.93	227.27	11.13	-54.3	-55.8	14.6	0.00e+00	0	30	0	197132288	75	4137
2026-01-03 11:58:45.79	227.38	11.18	-54.3	-55.9	14.6	0.00e+00	0	30	0	199229440	75	4171
2026-01-03 11:58:46.94	227.53	11.26	-54.3	-55.8	14.7	0.00e+00	0	30	0	201326592	75	4125
2026-01-03 11:58:47.80	227.64	11.32	-54.4	-56.0	14.6	0.00e+00	0	30	0	202375168	75	4226
2026-01-03 11:58:48.94	227.79	11.39	-54.5	-56.1	14.5	0.00e+00	0	30	0	204472320	75	4255
2026-01-03 11:58:49.80	227.91	11.45	-54.3	-55.9	14.6	0.00e+00	0	30	0	206569472	75	4156
2026-01-03 11:58:50.95	228.06	11.53	-54.4	-55.9	14.6	0.00e+00	0	30	0	208666624	75	4186
2026-01-03 11:58:51.80	228.17	11.58	-54.4	-55.9	14.6	0.00e+00	0	30	0	209715200	75	4191
2026-01-03 11:58:52.95	228.32	11.66	-54.4	-55.9	14.6	0.00e+00	0	30	0	211812352	75	4182
2026-01-03 11:58:53.80	228.44	11.72	-54.3	-55.9	14.6	0.00e+00	0	30	0	213909504	75	4149
2026-01-03 11:58:54.95	228.59	11.79	-54.2	-55.7	14.7	0.00e+00	0	30	0	216006656	75	4082
2026-01-03 11:58:55.81	228.71	11.85	-54.2	-55.7	14.7	0.00e+00	0	30	0	218103808	75	4089
2026-01-03 11:58:56.96	228.86	11.93	-54.2	-55.8	14.6	0.00e+00	0	30	0	220200960	74	4341
2026-01-03 11:58:57.82	228.98	11.98	-54.1	-55.6	14.6	0.00e+00	0	30	0	221249536	74	4291
2026-01-03 11:58:58.97	229.14	12.06	-54.1	-55.6	14.6	0.00e+00	0	30	0	223346688	74	4288
2026-01-03 11:58:59.83	229.26	12.12	-54.2	-55.7	14.6	0.00e+00	0	30	0	225443840	74	4300
2026-01-03 11:59:00.98	229.41	12.19	-54.3	-55.8	14.6	0.00e+00	0	30	0	227540992	74	4369
2026-01-03 11:59:01.84	229.53	12.25	-54.3	-55.8	14.6	0.00e+00	0	30	0	228589568	74	4372
2026-01-03 11:59:02.99	229.69	12.33	-54.2	-55.7	14.6	0.00e+00	0	30	0	230686720	74	4332
2026-01-03 11:59:03.85	229.81	12.39	-54.2	-55.7	14.6	0.00e+00	0	30	0	232783872	74	4311
2026-01-03 11:59:05.00	229.98	12.46	-54.0	-55.5	14.7	0.00e+00	0	30	0	234881024	74	4218
2026-01-03 11:59:05.86	230.10	12.52	-54.1	-55.6	14.7	0.00e+00	0	30	0	236978176	74	4249
2026-01-03 11:59:07.01	230.26	12.60	-54.2	-55.7	14.7	0.00e+00	0	30	0	239075328	74	4301
2026-01-03 11:59:07.87	230.38	12.66	-54.0	-55.5	14.7	0.00e+00	0	30	0	240123904	74	4221
2026-01-03 11:59:09.02	230.55	12.73	-54.0	-55.4	14.7	0.00e+00	0	30	0	242221056	74	4193
2026-01-03 11:59:09.88	230.67	12.79	-54.0	-55.4	14.8	0.00e+00	0	30	0	244318208	74	4181
2026-01-03 11:59:11.03	230.83	12.87	-54.0	-55.5	14.7	0.00e+00	0	30	0	246415360	74	4211
2026-01-03 11:59:11.89	230.96	12.92	-54.0	-55.4	14.8	0.00e+00	0	30	0	247463936	74	4189
2026-01-03 11:59:13.04	231.13	13.00	-54.1	-55.6	14.7	0.00e+00	0	30	0	249561088	74	4268
2026-01-03 11:59:13.90	231.25	13.06	-54.0	-55.5	14.7	0.00e+00	0	30	0	251658240	74	4202
2026-01-03 11:59:15.05	231.42	13.14	-54.0	-55.5	14.7	0.00e+00	0	30	0	253755392	74	4210
2026-01-03 11:59:15.91	231.55	13.19	-54.1	-55.5	14.7	0.00e+00	0	30	0	255852544	74	4234
2026-01-03 11:59:17.06	231.72	13.27	-54.0	-55.5	14.7	0.00e+00	0	30	0	257949696	74	4210
2026-01-03 11:59:17.93	231.85	13.33	-54.1	-55.5	14.7	0.00e+00	0	30	0	258998272	74	4224
2026-01-03 11:59:19.07	232.02	13.41	-54.1	-55.6	14.7	0.00e+00	0	30	0	261095424	74	4281
2026-01-03 11:59:19.94	232.15	13.47	-54.1	-55.6	14.7	0.00e+00	0	30	0	263192576	74	4269
2026-01-03 11:59:21.09	232.32	13.54	-54.2	-55.6	14.7	0.00e+00	0	30	0	265289728	74	4283
2026-01-03 11:59:21.95	232.45	13.60	-54.1	-55.5	14.7	0.00e+00	0	30	0	266338304	74	4221
2026-01-03 11:59:23.08	232.62	13.68	-54.0	-55.4	14.8	0.00e+00	0	30	0	268435456	74	4164
2026-01-03 11:59:23.95	232.75	13.74	-54.1	-55.5	14.7	0.00e+00	0	30	0	270532608	74	4215
2026-01-03 11:59:25.10	232.93	13.81	-54.0	-55.4	14.8	0.00e+00	0	30	0	272629760	74	4188
2026-01-03 11:59:25.97	233.06	13.87	-54.1	-55.5	14.7	0.00e+00	0	30	0	274726912	74	4232
2026-01-03 11:59:27.11	233.24	13.95	-53.9	-55.4	14.8	0.00e+00	0	30	0	275775488	74	4152
2026-01-03 11:59:27.96	233.37	14.00	-53.9	-55.3	14.8	0.00e+00	0	30	0	277872640	74	4141
2026-01-03 11:59:29.11	233.55	14.08	-53.8	-55.2	14.9	0.00e+00	0	30	0	279969792	74	4083
2026-01-03 11:59:29.97	233.69	14.14	-53.8	-55.2	14.9	0.00e+00	0	30	0	282066944	74	4089
2026-01-03 11:59:31.13	233.87	14.22	-53.8	-55.2	14.9	0.00e+00	0	30	0	284164096	74	4093
2026-01-03 11:59:31.99	234.01	14.28	-53.8	-55.2	14.9	0.00e+00	0	30	0	285212672	74	4079
2026-01-03 11:59:33.14	234.19	14.35	-53.9	-55.3	14.8	0.00e+00	0	30	0	287309824	74	4116
2026-01-03 11:59:34.00	234.32	14.41	-53.9	-55.4	14.8	0.00e+00	0	30	0	289406976	74	4154
2026-01-03 11:59:35.14	234.51	14.49	-54.0	-55.4	14.8	0.00e+00	0	30	0	291504128	74	4167
2026-01-03 11:59:36.01	234.65	14.55	-54.0	-55.4	14.8	0.00e+00	0	30	0	292552704	74	4177
2026-01-03 11:59:37.15	234.83	14.62	-54.0	-55.4	14.8	0.00e+00	0	30	0	294649856	74	4185
2026-01-03 11:59:38.01	234.97	14.68	-54.1	-55.6	14.7	0.00e+00	0	30	0	296747008	74	4247
2026-01-03 11:59:39.16	235.16	14.76	-54.0	-55.4	14.8	0.00e+00	0	30	0	298844160	74	4189
2026-01-03 11:59:40.02	235.30	14.81	-54.1	-55.6	14.7	0.00e+00	0	30	0	300941312	74	4244
2026-01-03 11:59:41.17	235.49	14.89	-54.0	-55.4	14.8	0.00e+00	0	30	0	303038464	74	4165
2026-01-03 11:59:42.03	235.63	14.95	-54.1	-55.6	14.7	0.00e+00	0	30	0	304087040	74	4246
2026-01-03 11:59:43.18	235.82	15.03	-54.1	-55.5	14.7	0.00e+00	0	30	0	306184192	74	4231
2026-01-03 11:59:44.04	235.96	15.08	-54.0	-55.4	14.8	0.00e+00	0	30	0	308281344	74	4184
2026-01-03 11:59:45.18	236.15	15.16	-54.0	-55.4	14.8	0.00e+00	0	30	0	310378496	74	4186
2026-01-03 11:59:46.05	236.30	15.22	-54.0	-55.4	14.8	0.00e+00	0	30	0	311427072	74	4185
2026-01-03 11:59:47.20	236.49	15.29	-54.0	-55.4	14.8	0.00e+00	0	30	0	313524224	74	4173
2026-01-03 11:59:48.06	236.64	15.35	-54.0	-55.4	14.8	0.00e+00	0	30	0	315621376	74	4186
2026-01-03 11:59:49.21	236.84	15.43	-53.9	-55.3	14.8	0.00e+00	0	30	0	317718528	74	4143
2026-01-03 11:59:50.06	236.98	15.48	-53.9	-55.3	14.8	0.00e+00	0	30	0	319815680	74	4142
2026-01-03 11:59:51.20	237.18	15.56	-54.0	-55.4	14.8	0.00e+00	0	30	0	321912832	74	4188
2026-01-03 11:59:52.06	237.33	15.62	-54.0	-55.4	14.8	0.00e+00	0	30	0	322961408	74	4178
2026-01-03 11:59:53.20	237.52	15.69	-54.1	-55.5	14.7	0.00e+00	0	30	0	325058560	74	4239
2026-01-03 11:59:54.06	237.67	15.75	-54.0	-55.4	14.8	0.00e+00	0	30	0	327155712	74	4178
2026-01-03 11:59:55.21	237.87	15.83	-54.0	-55.4	14.8	0.00e+00	0	30	0	329252864	74	4175
2026-01-03 11:59:56.07	238.02	15.88	-54.0	-55.4	14.8	0.00e+00	0	30	0	330301440	74	4179
2026-01-03 11:59:57.22	238.23	15.96	-53.9	-55.3	14.8	0.00e+00	0	30	0	332398592	74	4141
2026-01-03 11:59:58.08	238.38	16.02	-54.0	-55.4	14.9	0.00e+00	0	30	0	334495744	74	4150
2026-01-03 11:59:59.22	238.58	16.09	-54.0	-55.3	14.9	0.00e+00	0	30	0	336592896	74	4145
2026-01-03 12:00:00.08	238.73	16.15	-54.0	-55.4	14.8	0.00e+00	0	30	0	337641472	74	4191
2026-01-03 12:00:01.23	238.94	16.22	-54.0	-55.4	14.8	0.00e+00	0	30	0	340787200	74	4156
2026-01-03 12:00:02.09	239.10	16.28	-53.9	-55.3	14.8	0.00e+00	0	30	0	341835776	74	4126
2026-01-03 12:00:03.24	239.30	16.36	-53.9	-55.3	14.9	0.00e+00	0	30	0	343932928	74	4116
2026-01-03 12:00:04.10	239.46	16.41	-53.9	-55.3	14.9	0.00e+00	0	30	0	346030080	74	4099
2026-01-03 12:00:05.25	239.67	16.49	-53.9	-55.3	14.9	0.00e+00	0	30	0	348127232	74	4113
2026-01-03 12:00:06.11	239.83	16.54	-53.9	-55.3	14.9	0.00e+00	0	30	0	349175808	74	4115
2026-01-03 12:00:07.26	240.04	16.62	-53.8	-55.2	14.9	0.00e+00	0	30	0	351272960	74	4062
2026-01-03 12:00:08.12	240.20	16.67	-53.8	-55.2	14.9	0.00e+00	0	30	0	353370112	74	4054
2026-01-03 12:00:09.27	240.41	16.75	-53.8	-55.2	14.9	0.00e+00	0	30	0	355467264	74	4055
2026-01-03 12:00:10.13	240.57	16.80	-53.8	-55.1	14.9	0.00e+00	0	30	0	356515840	74	4035
2026-01-03 12:00:11.28	240.78	16.88	-53.8	-55.1	14.9	0.00e+00	0	30	0	359661568	74	4035
2026-01-03 12:00:12.14	240.95	16.94	-53.8	-55.2	14.9	0.00e+00	0	30	0	360710144	74	4064
2026-01-03 12:00:13.28	241.16	17.01	-53.8	-55.2	14.9	0.00e+00	0	30	0	362807296	74	4061
2026-01-03 12:00:14.14	241.32	17.06	-53.7	-55.0	15.0	0.00e+00	0	30	0	364904448	74	3979
2026-01-03 12:00:15.29	241.54	17.14	-53.6	-54.9	14.9	0.00e+00	0	30	0	367001600	73	4175
2026-01-03 12:00:16.15	241.71	17.19	-53.6	-54.9	14.9	0.00e+00	0	30	0	368050176	73	4192
2026-01-03 12:00:17.30	241.93	17.27	-53.6	-54.9	15.0	0.00e+00	0	30	0	370147328	73	4156
2026-01-03 12:00:18.16	242.09	17.32	-53.4	-54.7	15.0	0.00e+00	0	30	0	372244480	73	4083
2026-01-03 12:00:19.30	242.31	17.39	-53.4	-54.7	15.0	0.00e+00	0	30	0	374341632	73	4079
2026-01-03 12:00:20.16	242.48	17.45	-53.5	-54.7	15.0	0.00e+00	0	30	0	375390208	73	4090
2026-01-03 12:00:21.31	242.70	17.52	-53.4	-54.6	15.1	0.00e+00	0	30	0	377487360	73	4046
2026-01-03 12:00:22.16	242.87	17.58	-53.2	-54.5	15.1	0.00e+00	0	30	0	379584512	73	3969
2026-01-03 12:00:23.31	243.10	17.65	-53.2	-54.5	15.2	0.00e+00	0	30	0	381681664	73	3964
2026-01-03 12:00:24.17	243.27	17.70	-53.3	-54.5	15.1	0.00e+00	0	30	0	383778816	73	4001
2026-01-03 12:00:25.32	243.49	17.77	-53.2	-54.5	15.1	0.00e+00	0	30	0	385875968	73	3963
2026-01-03 12:00:26.18	243.66	17.83	-53.3	-54.5	15.2	0.00e+00	0	30	0	386924544	73	3966
2026-01-03 12:00:27.33	243.89	17.90	-53.2	-54.4	15.1	0.00e+00	0	30	0	389021696	72	4165
2026-01-03 12:00:28.18	244.06	17.95	-53.1	-54.3	15.1	0.00e+00	0	30	0	391118848	72	4099
2026-01-03 12:00:29.33	244.30	18.02	-53.1	-54.3	15.1	0.00e+00	0	30	0	393216000	72	4111
2026-01-03 12:00:30.19	244.47	18.08	-53.1	-54.2	15.1	0.00e+00	0	30	0	394264576	72	4091
2026-01-03 12:00:31.34	244.70	18.15	-53.1	-54.3	15.1	0.00e+00	0	30	0	396361728	72	4100
2026-01-03 12:00:32.20	244.88	18.20	-53.1	-54.3	15.1	0.00e+00	0	30	0	398458880	72	4143
2026-01-03 12:00:33.35	245.11	18.27	-53.2	-54.4	15.1	0.00e+00	0	30	0	400556032	72	4191
2026-01-03 12:00:34.20	245.29	18.32	-53.2	-54.4	15.1	0.00e+00	0	30	0	401604608	72	4183
2026-01-03 12:00:35.35	245.52	18.39	-53.3	-54.6	15.0	0.00e+00	0	30	0	404750336	72	4258
2026-01-03 12:00:36.21	245.70	18.45	-53.4	-54.6	15.0	0.00e+00	0	30	0	405798912	72	4270
2026-01-03 12:00:37.36	245.94	18.52	-53.3	-54.5	15.0	0.00e+00	0	30	0	407896064	72	4225
2026-01-03 12:00:38.21	246.12	18.57	-53.3	-54.6	15.0	0.00e+00	0	30	0	409993216	72	4250
2026-01-03 12:00:39.37	246.36	18.64	-53.2	-54.5	15.0	0.00e+00	0	30	0	412090368	72	4203
2026-01-03 12:00:40.23	246.54	18.69	-53.2	-54.5	15.1	0.00e+00	0	30	0	413138944	72	4202
2026-01-03 12:00:41.38	246.78	18.76	-53.3	-54.6	15.0	0.00e+00	0	30	0	415236096	72	4257
2026-01-03 12:00:42.24	246.97	18.81	-53.4	-54.7	15.0	0.00e+00	0	30	0	417333248	72	4317
2026-01-03 12:00:43.38	247.21	18.88	-53.6	-54.9	14.9	0.00e+00	0	30	0	419430400	72	4414
2026-01-03 12:00:44.23	247.39	18.93	-53.7	-55.0	14.8	0.00e+00	0	30	0	420478976	72	4487
2026-01-03 12:00:45.37	247.63	18.99	-53.9	-55.2	14.8	0.00e+00	0	30	0	422576128	72	4591
2026-01-03 12:00:46.23	247.82	19.04	-54.0	-55.4	14.8	0.00e+00	0	30	0	424673280	73	4427
2026-01-03 12:00:47.38	248.07	19.11	-54.2	-55.6	14.7	0.00e+00	0	30	0	426770432	73	4528
2026-01-03 12:00:48.23	248.25	19.16	-54.2	-55.6	14.7	0.00e+00	0	30	0	428867584	73	4531
2026-01-03 12:00:49.38	248.50	19.22	-54.2	-55.7	14.7	0.00e+00	0	30	0	430964736	73	4555
2026-01-03 12:00:50.24	248.69	19.27	-54.2	-55.7	14.6	0.00e+00	0	30	0	432013312	73	4577
2026-01-03 12:00:51.39	248.94	19.34	-54.2	-55.7	14.7	0.00e+00	0	30	0	434110464	73	4556
2026-01-03 12:00:52.25	249.13	19.39	-54.2	-55.6	14.7	0.00e+00	0	30	0	436207616	73	4535
2026-01-03 12:00:53.39	249.38	19.45	-54.2	-55.6	14.7	0.00e+00	0	30	0	438304768	73	4542
2026-01-03 12:00:54.24	249.57	19.50	-54.3	-55.8	14.6	0.00e+00	0	30	0	439353344	73	4623
2026-01-03 12:00:55.39	249.82	19.57	-54.4	-56.0	14.6	0.00e+00	0	30	0	441450496	74	4446
2026-01-03 12:00:56.26	250.02	19.61	-54.6	-56.2	14.5	0.00e+00	0	30	0	443547648	74	4554
2026-01-03 12:00:57.40	250.27	19.68	-54.7	-56.3	14.5	0.00e+00	0	30	0	445644800	74	4622
2026-01-03 12:00:58.27	250.47	19.72	-54.9	-56.6	14.4	0.00e+00	0	30	0	447741952	74	4763
2026-01-03 12:00:59.41	250.72	19.79	-55.1	-56.8	14.3	0.00e+00	0	30	0	449839104	75	4630
2026-01-03 12:01:00.28	250.92	19.83	-55.2	-57.0	14.2	0.00e+00	0	30	0	450887680	75	4729
2026-01-03 12:01:01.42	251.18	19.90	-55.3	-57.2	14.1	0.00e+00	0	30	0	452984832	75	4819
2026-01-03 12:01:02.29	251.38	19.94	-55.5	-57.3	14.1	0.00e+00	0	30	0	455081984	76	4614
2026-01-03 12:01:03.44	251.64	20.00	-55.4	-57.3	14.2	0.00e+00	0	30	0	457179136	76	4615
2026-01-03 12:01:04.30	251.84	20.05	-55.4	-57.2	14.2	0.00e+00	0	30	0	458227712	76	4596
2026-01-03 12:01:05.44	252.10	20.11	-55.4	-57.2	14.2	0.00e+00	0	30	0	460324864	76	4547
2026-01-03 12:01:06.30	252.30	20.15	-55.4	-57.2	14.2	0.00e+00	0	30	0	462422016	76	4556
2026-01-03 12:01:07.44	252.56	20.21	-55.4	-57.2	14.2	0.00e+00	0	30	0	464519168	76	4584
2026-01-03 12:01:08.29	252.76	20.26	-55.2	-57.0	14.3	0.00e+00	0	30	0	465567744	76	4444
2026-01-03 12:01:09.44	253.03	20.32	-55.2	-56.9	14.3	0.00e+00	0	30	0	467664896	76	4437
2026-01-03 12:01:10.29	253.22	20.36	-55.0	-56.7	14.5	0.00e+00	0	30	0	469762048	76	4305
2026-01-03 12:01:11.43	253.49	20.42	-55.1	-56.8	14.4	0.00e+00	0	30	0	471859200	76	4345
2026-01-03 12:01:12.29	253.69	20.46	-55.1	-56.8	14.4	0.00e+00	0	30	0	473956352	76	4351
2026-01-03 12:01:13.43	253.96	20.52	-55.1	-56.8	14.4	0.00e+00	0	30	0	476053504	76	4377
2026-01-03 12:01:14.29	254.17	20.56	-55.1	-56.8	14.4	0.00e+00	0	30	0	477102080	76	4364
2026-01-03 12:01:15.44	254.44	20.62	-55.1	-56.7	14.4	0.00e+00	0	30	0	479199232	76	4335
2026-01-03 12:01:16.29	254.64	20.66	-55.0	-56.7	14.5	0.00e+00	0	30	0	481296384	76	4317
2026-01-03 12:01:17.44	254.92	20.71	-55.0	-56.7	14.5	0.00e+00	0	30	0	483393536	76	4300
2026-01-03 12:01:18.29	255.12	20.75	-55.0	-56.6	14.5	0.00e+00	0	30	0	484442112	76	4271
2026-01-03 12:01:19.43	255.39	20.81	-54.8	-56.4	14.6	0.00e+00	0	30	0	486539264	76	4188
2026-01-03 12:01:20.28	255.60	20.85	-54.5	-56.0	14.6	0.00e+00	0	30	0	488636416	75	4240
2026-01-03 12:01:21.43	255.88	20.90	-54.4	-55.9	14.7	0.00e+00	0	30	0	490733568	75	4161
2026-01-03 12:01:22.28	256.08	20.94	-54.1	-55.5	14.8	0.00e+00	0	30	0	491782144	74	4206
2026-01-03 12:01:23.41	256.36	20.99	-54.1	-55.4	14.8	0.00e+00	0	30	0	494927872	74	4183
2026-01-03 12:01:24.27	256.57	21.03	-54.2	-55.6	14.8	0.00e+00	0	30	0	495976448	74	4271
2026-01-03 12:01:25.41	256.84	21.08	-54.4	-55.8	14.6	0.00e+00	0	30	0	498073600	74	4381
2026-01-03 12:01:26.26	257.05	21.12	-54.5	-56.1	14.6	0.00e+00	0	30	0	500170752	74	4506
2026-01-03 12:01:27.40	257.33	21.17	-54.7	-56.2	14.5	0.00e+00	0	30	0	502267904	74	4595
2026-01-03 12:01:28.26	257.55	21.21	-54.7	-56.3	14.5	0.00e+00	0	30	0	503316480	74	4645
2026-01-03 12:01:29.40	257.83	21.26	-54.8	-56.4	14.4	0.00e+00	0	30	0	505413632	74	4662
2026-01-03 12:01:30.26	258.04	21.29	-54.7	-56.2	14.5	0.00e+00	0	30	0	507510784	74	4597
2026-01-03 12:01:31.40	258.32	21.34	-54.7	-56.3	14.5	0.00e+00	0	30	0	509607936	74	4611
2026-01-03 12:01:32.26	258.54	21.38	-54.6	-56.2	14.5	0.00e+00	0	30	0	510656512	74	4567
2026-01-03 12:01:33.39	258.82	21.42	-54.5	-56.0	14.6	0.00e+00	0	30	0	512753664	74	4473
2026-01-03 12:01:34.25	259.04	21.46	-54.5	-56.0	14.6	0.00e+00	0	30	0	514850816	74	4480
2026-01-03 12:01:35.39	259.32	21.51	-54.5	-56.0	14.6	0.00e+00	0	30	0	516947968	74	4485
2026-01-03 12:01:36.25	259.54	21.54	-54.4	-55.9	14.6	0.00e+00	0	30	0	517996544	74	4440
2026-01-03 12:01:37.39	259.83	21.58	-54.4	-56.0	14.6	0.00e+00	0	30	0	520093696	74	4448
2026-01-03 12:01:38.25	260.04	21.62	-54.5	-56.0	14.6	0.00e+00	0	30	0	522190848	74	4472
2026-01-03 12:01:39.38	260.33	21.66	-54.6	-56.1	14.6	0.00e+00	0	30	0	524288000	74	4514
2026-01-03 12:01:40.23	260.55	21.69	-54.6	-56.2	14.5	0.00e+00	0	30	0	526385152	74	4565
2026-01-03 12:01:41.37	260.84	21.74	-54.7	-56.3	14.5	0.00e+00	0	30	0	528482304	74	4638
2026-01-03 12:01:42.22	261.05	21.77	-54.7	-56.3	14.5	0.00e+00	0	30	0	529530880	74	4641
2026-01-03 12:01:43.35	261.34	21.81	-54.5	-56.0	14.6	0.00e+00	0	30	0	531628032	74	4485
2026-01-03 12:01:44.20	261.56	21.84	-54.5	-56.0	14.6	0.00e+00	0	30	0	533725184	74	4455
2026-01-03 12:01:45.34	261.85	21.88	-54.5	-56.0	14.6	0.00e+00	0	30	0	535822336	74	4474
2026-01-03 12:01:46.20	262.08	21.91	-54.2	-55.7	14.7	0.00e+00	0	30	0	536870912	74	4305
2026-01-03 12:01:47.34	262.37	21.95	-54.1	-55.5	14.8	0.00e+00	0	30	0	538968064	74	4199
2026-01-03 12:01:48.20	262.59	21.98	-54.1	-55.5	14.8	0.00e+00	0	30	0	541065216	74	4235
2026-01-03 12:01:49.34	262.89	22.01	-54.1	-55.5	14.8	0.00e+00	0	30	0	543162368	74	4229
2026-01-03 12:01:50.19	263.11	22.04	-54.0	-55.4	14.9	0.00e+00	0	30	0	544210944	74	4183
2026-01-03 12:01:51.33	263.41	22.08	-53.9	-55.2	14.9	0.00e+00	0	30	0	546308096	74	4088
2026-01-03 12:01:52.19	263.63	22.10	-53.8	-55.1	15.0	0.00e+00	0	30	0	548405248	74	4043
2026-01-03 12:01:53.32	263.93	22.14	-53.8	-55.1	15.0	0.00e+00	0	30	0	550502400	74	4034
2026-01-03 12:01:54.18	264.15	22.17	-53.8	-55.2	15.0	0.00e+00	0	30	0	552599552	74	4058
2026-01-03 12:01:55.31	264.45	22.20	-53.8	-55.1	15.0	0.00e+00	0	30	0	554696704	74	4051
2026-01-03 12:01:56.16	264.67	22.22	-53.9	-55.2	14.9	0.00e+00	0	30	0	555745280	74	4088
2026-01-03 12:01:57.30	264.97	22.26	-53.9	-55.3	14.9	0.00e+00	0	30	0	557842432	74	4102
2026-01-03 12:01:58.16	265.20	22.28	-54.0	-55.4	14.9	0.00e+00	0	30	0	559939584	74	4163
2026-01-03 12:01:59.30	265.50	22.31	-54.1	-55.5	14.8	0.00e+00	0	30	0	562036736	74	4210
2026-01-03 12:02:00.16	265.73	22.34	-54.2	-55.6	14.8	0.00e+00	0	30	0	563085312	74	4255
2026-01-03 12:02:01.29	266.03	22.36	-54.2	-55.6	14.8	0.00e+00	0	30	0	565182464	74	4259
2026-01-03 12:02:02.15	266.25	22.39	-54.2	-55.6	14.8	0.00e+00	0	30	0	567279616	74	4289
2026-01-03 12:02:03.28	266.55	22.42	-54.4	-55.8	14.7	0.00e+00	0	30	0	569376768	74	4381
2026-01-03 12:02:04.13	266.78	22.44	-54.3	-55.8	14.7	0.00e+00	0	30	0	570425344	74	4345
2026-01-03 12:02:05.27	267.08	22.46	-54.3	-55.8	14.7	0.00e+00	0	30	0	572522496	74	4363
2026-01-03 12:02:06.13	267.31	22.48	-54.4	-55.9	14.7	0.00e+00	0	30	0	574619648	74	4400
2026-01-03 12:02:07.26	267.62	22.51	-54.5	-56.0	14.6	0.00e+00	0	30	0	576716800	74	4461
2026-01-03 12:02:08.12	267.85	22.53	-54.5	-56.0	14.6	0.00e+00	0	30	0	577765376	74	4487
2026-01-03 12:02:09.26	268.15	22.55	-54.6	-56.1	14.5	0.00e+00	0	30	0	580911104	74	4540
2026-01-03 12:02:10.11	268.38	22.57	-54.6	-56.1	14.6	0.00e+00	0	30	0	581959680	74	4516
2026-01-03 12:02:11.25	268.69	22.59	-54.6	-56.2	14.5	0.00e+00	0	30	0	584056832	74	4551
2026-01-03 12:02:12.10	268.92	22.61	-54.7	-56.2	14.5	0.00e+00	0	30	0	586153984	74	4584
2026-01-03 12:02:13.24	269.22	22.63	-54.7	-56.3	14.5	0.00e+00	0	30	0	588251136	74	4631
2026-01-03 12:02:14.09	269.45	22.65	-54.7	-56.2	14.5	0.00e+00	0	30	0	589299712	74	4594
2026-01-03 12:02:15.23	269.76	22.67	-54.8	-56.3	14.5	0.00e+00	0	30	0	591396864	74	4646
2026-01-03 12:02:16.09	269.99	22.68	-54.6	-56.1	14.6	0.00e+00	0	30	0	593494016	74	4529
2026-01-03 12:02:17.22	270.30	22.70	-54.5	-55.9	14.7	0.00e+00	0	30	0	595591168	74	4440
2026-01-03 12:02:18.09	270.54	22.71	-54.4	-55.9	14.7	0.00e+00	0	30	0	596639744	74	4403
2026-01-03 12:02:19.23	270.84	22.73	-54.4	-55.9	14.6	0.00e+00	0	30	0	598736896	74	4434
2026-01-03 12:02:20.08	271.08	22.74	-54.4	-55.9	14.7	0.00e+00	0	30	0	600834048	74	4394
2026-01-03 12:02:21.22	271.39	22.76	-54.3	-55.7	14.8	0.00e+00	0	30	0	602931200	74	4327
2026-01-03 12:02:22.08	271.62	22.77	-54.2	-55.6	14.8	0.00e+00	0	30	0	603979776	74	4288
2026-01-03 12:02:23.22	271.93	22.78	-54.1	-55.5	14.9	0.00e+00	0	30	0	606076928	74	4211
2026-01-03 12:02:24.08	272.16	22.80	-54.0	-55.4	14.9	0.00e+00	0	30	0	608174080	74	4148
2026-01-03 12:02:25.22	272.47	22.81	-54.0	-55.4	14.9	0.00e+00	0	30	0	610271232	74	4169
2026-01-03 12:02:26.08	272.71	22.82	-54.1	-55.5	14.8	0.00e+00	0	30	0	612368384	74	4202
2026-01-03 12:02:27.22	273.02	22.83	-54.3	-55.7	14.7	0.00e+00	0	30	0	614465536	74	4312
2026-01-03 12:02:28.07	273.25	22.84	-54.4	-55.9	14.7	0.00e+00	0	30	0	615514112	74	4396
2026-01-03 12:02:29.20	273.56	22.85	-54.5	-55.9	14.6	0.00e+00	0	30	0	617611264	74	4439
2026-01-03 12:02:30.06	273.80	22.85	-54.4	-55.8	14.7	0.00e+00	0	30	0	619708416	74	4391
2026-01-03 12:02:31.20	274.11	22.86	-54.4	-55.9	14.7	0.00e+00	0	30	0	621805568	74	4415
2026-01-03 12:02:32.06	274.34	22.87	-54.4	-55.9	14.7	0.00e+00	0	30	0	622854144	74	4404
2026-01-03 12:02:33.21	274.66	22.87	-54.4	-55.9	14.7	0.00e+00	0	30	0	624951296	74	4416
2026-01-03 12:02:34.06	274.89	22.88	-54.3	-55.7	14.8	0.00e+00	0	30	0	627048448	74	4323
2026-01-03 12:02:35.20	275.20	22.88	-54.2	-55.6	14.8	0.00e+00	0	30	0	629145600	74	4253
2026-01-03 12:02:36.06	275.44	22.89	-54.0	-55.3	14.9	0.00e+00	0	30	0	630194176	74	4132
2026-01-03 12:02:37.20	275.75	22.89	-53.9	-55.2	15.0	0.00e+00	0	30	0	632291328	74	4081
2026-01-03 12:02:38.06	275.99	22.89	-53.9	-55.2	14.9	0.00e+00	0	30	0	634388480	74	4098
2026-01-03 12:02:39.19	276.30	22.90	-54.2	-55.6	14.8	0.00e+00	0	30	0	636485632	74	4265
2026-01-03 12:02:40.04	276.53	22.90	-54.4	-55.8	14.7	0.00e+00	0	30	0	638582784	74	4387
2026-01-03 12:02:41.19	276.84	22.90	-54.5	-56.0	14.7	0.00e+00	0	30	0	640679936	74	4450
2026-01-03 12:02:42.04	277.08	22.90	-54.4	-55.9	14.6	0.00e+00	0	30	0	641728512	74	4415
2026-01-03 12:02:43.18	277.39	22.90	-54.4	-55.8	14.7	0.00e+00	0	30	0	643825664	74	4370
2026-01-03 12:02:44.04	277.63	22.90	-54.4	-55.9	14.7	0.00e+00	0	30	0	645922816	74	4403
2026-01-03 12:02:45.19	277.94	22.89	-54.4	-55.8	14.7	0.00e+00	0	30	0	648019968	74	4369
2026-01-03 12:02:46.05	278.18	22.89	-54.3	-55.7	14.8	0.00e+00	0	30	0	649068544	74	4316
2026-01-03 12:02:47.19	278.49	22.89	-54.2	-55.5	14.8	0.00e+00	0	30	0	651165696	74	4234
2026-01-03 12:02:48.06	278.73	22.88	-54.0	-55.4	14.9	0.00e+00	0	30	0	653262848	74	4152
2026-01-03 12:02:49.20	279.04	22.88	-53.9	-55.2	15.0	0.00e+00	0	30	0	655360000	74	4066
2026-01-03 12:02:50.06	279.28	22.87	-54.0	-55.3	14.9	0.00e+00	0	30	0	656408576	74	4141
2026-01-03 12:02:51.20	279.59	22.87	-54.2	-55.7	14.8	0.00e+00	0	30	0	658505728	74	4296
2026-01-03 12:02:52.06	279.82	22.86	-54.5	-56.0	14.7	0.00e+00	0	30	0	660602880	74	4461
2026-01-03 12:02:53.21	280.14	22.85	-54.7	-56.2	14.6	0.00e+00	0	30	0	662700032	74	4578
2026-01-03 12:02:54.06	280.37	22.85	-54.8	-56.4	14.5	0.00e+00	0	30	0	664797184	74	4665
2026-01-03 12:02:55.21	280.68	22.84	-54.8	-56.4	14.5	0.00e+00	0	30	0	666894336	74	4665
2026-01-03 12:02:56.07	280.92	22.83	-54.8	-56.3	14.5	0.00e+00	0	30	0	667942912	74	4649
2026-01-03 12:02:57.20	281.23	22.82	-54.7	-56.2	14.6	0.00e+00	0	30	0	670040064	74	4592
2026-01-03 12:02:58.06	281.46	22.81	-54.8	-56.3	14.5	0.00e+00	0	30	0	672137216	74	4639
2026-01-03 12:02:59.21	281.77	22.80	-54.7	-56.2	14.6	0.00e+00	0	30	0	674234368	74	4595
2026-01-03 12:03:00.07	282.01	22.79	-54.6	-56.1	14.6	0.00e+00	0	30	0	675282944	74	4544
2026-01-03 12:03:01.22	282.32	22.77	-54.5	-56.0	14.6	0.00e+00	0	30	0	677380096	74	4489
2026-01-03 12:03:02.08	282.55	22.76	-54.5	-55.9	14.7	0.00e+00	0	30	0	679477248	74	4435
2026-01-03 12:03:03.22	282.86	22.74	-54.4	-55.9	14.7	0.00e+00	0	30	0	681574400	74	4395
2026-01-03 12:03:04.08	283.10	22.73	-54.3	-55.8	14.7	0.00e+00	0	30	0	683671552	74	4345
2026-01-03 12:03:05.23	283.41	22.71	-54.1	-55.5	14.8	0.00e+00	0	30	0	685768704	74	4229
2026-01-03 12:03:06.09	283.64	22.70	-54.1	-55.5	14.8	0.00e+00	0	30	0	686817280	74	4223
2026-01-03 12:03:07.24	283.95	22.68	-54.2	-55.7	14.8	0.00e+00	0	30	0	688914432	74	4294
2026-01-03 12:03:08.10	284.19	22.67	-54.3	-55.8	14.7	0.00e+00	0	30	0	691011584	74	4367
2026-01-03 12:03:09.24	284.49	22.65	-54.6	-56.2	14.6	0.00e+00	0	30	0	693108736	74	4548
2026-01-03 12:03:10.10	284.72	22.63	-54.7	-56.3	14.5	0.00e+00	0	30	0	694157312	74	4602
2026-01-03 12:03:11.25	285.03	22.61	-54.8	-56.3	14.5	0.00e+00	0	30	0	696254464	74	4638
2026-01-03 12:03:12.11	285.27	22.59	-54.8	-56.4	14.5	0.00e+00	0	30	0	698351616	74	4653
2026-01-03 12:03:13.26	285.57	22.57	-54.6	-56.1	14.6	0.00e+00	0	30	0	700448768	74	4528
2026-01-03 12:03:14.12	285.80	22.55	-54.5	-56.0	14.7	0.00e+00	0	30	0	701497344	74	4442
2026-01-03 12:03:15.26	286.11	22.53	-54.5	-56.0	14.7	0.00e+00	0	30	0	704643072	74	4462
2026-01-03 12:03:16.12	286.34	22.51	-54.4	-55.9	14.7	0.00e+00	0	30	0	705691648	74	4404
2026-01-03 12:03:17.26	286.64	22.48	-54.5	-55.9	14.7	0.00e+00	0	30	0	707788800	74	4433
2026-01-03 12:03:18.12	286.87	22.46	-54.3	-55.7	14.8	0.00e+00	0	30	0	709885952	74	4338
2026-01-03 12:03:19.26	287.18	22.44	-54.1	-55.5	14.8	0.00e+00	0	30	0	711983104	74	4227
2026-01-03 12:03:20.11	287.40	22.42	-54.1	-55.5	14.9	0.00e+00	0	30	0	713031680	74	4198
2026-01-03 12:03:21.26	287.71	22.39	-54.0	-55.3	14.9	0.00e+00	0	30	0	715128832	74	4134
2026-01-03 12:03:22.12	287.94	22.37	-54.0	-55.4	14.9	0.00e+00	0	30	0	717225984	74	4163
2026-01-03 12:03:23.27	288.24	22.34	-54.3	-55.7	14.8	0.00e+00	0	30	0	719323136	74	4309
2026-01-03 12:03:24.13	288.47	22.31	-54.4	-55.9	14.7	0.00e+00	0	30	0	720371712	74	4425
2026-01-03 12:03:25.28	288.77	22.28	-54.5	-56.0	14.6	0.00e+00	0	30	0	722468864	74	4488
2026-01-03 12:03:26.13	289.00	22.26	-54.4	-55.9	14.7	0.00e+00	0	30	0	724566016	74	4425
2026-01-03 12:03:27.28	289.30	22.22	-54.4	-55.8	14.7	0.00e+00	0	30	0	726663168	74	4369
2026-01-03 12:03:28.14	289.52	22.20	-54.2	-55.6	14.8	0.00e+00	0	30	0	728760320	74	4284
2026-01-03 12:03:29.29	289.82	22.16	-54.0	-55.4	14.9	0.00e+00	0	30	0	730857472	74	4168
2026-01-03 12:03:30.15	290.05	22.14	-54.1	-55.4	14.9	0.00e+00	0	30	0	731906048	74	4183
2026-01-03 12:03:31.30	290.35	22.10	-54.1	-55.4	14.9	0.00e+00	0	30	0	734003200	74	4177
2026-01-03 12:03:32.15	290.57	22.08	-54.1	-55.4	14.9	0.00e+00	0	30	0	736100352	74	4191
2026-01-03 12:03:33.29	290.87	22.04	-54.2	-55.6	14.9	0.00e+00	0	30	0	738197504	74	4245
2026-01-03 12:03:34.15	291.09	22.01	-54.2	-55.7	14.8	0.00e+00	0	30	0	739246080	74	4301
2026-01-03 12:03:35.29	291.38	21.97	-54.2	-55.6	14.8	0.00e+00	0	30	0	741343232	74	4262
2026-01-03 12:03:36.15	291.61	21.95	-54.1	-55.5	14.9	0.00e+00	0	30	0	743440384	74	4229
2026-01-03 12:03:37.30	291.90	21.91	-54.1	-55.5	14.9	0.00e+00	0	30	0	745537536	74	4205
2026-01-03 12:03:38.16	292.12	21.88	-54.1	-55.5	14.9	0.00e+00	0	30	0	746586112	74	4207
2026-01-03 12:03:39.30	292.42	21.84	-53.7	-55.0	15.1	0.00e+00	0	30	0	748683264	74	3976
2026-01-03 12:03:40.16	292.64	21.81	-53.5	-54.7	15.1	0.00e+00	0	30	0	750780416	73	4065
2026-01-03 12:03:41.30	292.93	21.77	-53.3	-54.5	15.2	0.00e+00	0	30	0	752877568	73	3977
2026-01-03 12:03:42.16	293.15	21.73	-53.3	-54.5	15.2	0.00e+00	0	30	0	754974720	73	3970
2026-01-03 12:03:43.30	293.44	21.69	-53.2	-54.4	15.2	0.00e+00	0	30	0	757071872	73	3914
2026-01-03 12:03:44.16	293.65	21.66	-53.2	-54.3	15.2	0.00e+00	0	30	0	758120448	72	4133
2026-01-03 12:03:45.30	293.94	21.62	-53.1	-54.2	15.2	0.00e+00	0	30	0	760217600	72	4070
2026-01-03 12:03:46.16	294.16	21.58	-52.9	-54.1	15.3	0.00e+00	0	30	0	762314752	72	4005
2026-01-03 12:03:47.31	294.45	21.54	-52.8	-53.9	15.3	0.00e+00	0	30	0	764411904	72	3954
2026-01-03 12:03:48.17	294.66	21.50	-52.9	-54.1	15.2	0.00e+00	0	30	0	765460480	72	4015
2026-01-03 12:03:49.32	294.95	21.46	-53.2	-54.4	15.1	0.00e+00	0	30	0	767557632	72	4160
2026-01-03 12:03:50.18	295.17	21.42	-53.3	-54.5	15.1	0.00e+00	0	30	0	769654784	72	4204
2026-01-03 12:03:51.32	295.45	21.37	-53.3	-54.4	15.1	0.00e+00	0	30	0	771751936	72	4192
2026-01-03 12:03:52.18	295.66	21.34	-53.2	-54.4	15.1	0.00e+00	0	30	0	773849088	72	4180
2026-01-03 12:03:53.33	295.95	21.29	-53.1	-54.3	15.2	0.00e+00	0	30	0	775946240	72	4101
2026-01-03 12:03:54.18	296.16	21.25	-53.1	-54.3	15.2	0.00e+00	0	30	0	776994816	72	4126
2026-01-03 12:03:55.33	296.44	21.20	-53.1	-54.2	15.2	0.00e+00	0	30	0	779091968	72	4096
2026-01-03 12:03:56.19	296.65	21.17	-53.0	-54.2	15.2	0.00e+00	0	30	0	781189120	72	4055
2026-01-03 12:03:57.33	296.93	21.12	-53.0	-54.1	15.3	0.00e+00	0	30	0	783286272	72	4026
2026-01-03 12:03:58.18	297.14	21.08	-52.9	-54.0	15.3	0.00e+00	0	30	0	784334848	72	3998
2026-01-03 12:03:59.33	297.42	21.03	-52.8	-53.9	15.3	0.00e+00	0	30	0	786432000	72	3940
2026-01-03 12:04:00.18	297.63	20.99	-52.7	-53.8	15.4	0.00e+00	0	30	0	788529152	72	3899
2026-01-03 12:04:01.33	297.91	20.94	-52.4	-53.5	15.4	0.00e+00	0	30	0	790626304	71	3960
2026-01-03 12:04:02.18	298.11	20.90	-52.3	-53.3	15.4	0.00e+00	0	30	0	791674880	71	3899
2026-01-03 12:04:03.33	298.39	20.84	-52.3	-53.3	15.4	0.00e+00	0	30	0	793772032	71	3886
2026-01-03 12:04:04.19	298.60	20.80	-52.2	-53.2	15.4	0.00e+00	0	30	0	795869184	70	4054
2026-01-03 12:04:05.33	298.87	20.75	-52.2	-53.2	15.4	0.00e+00	0	30	0	797966336	70	4068
2026-01-03 12:04:06.19	299.07	20.71	-52.3	-53.3	15.3	0.00e+00	0	30	0	800063488	70	4113
2026-01-03 12:04:07.35	299.35	20.65	-52.4	-53.4	15.3	0.00e+00	0	30	0	802160640	70	4174
2026-01-03 12:04:08.21	299.55	20.61	-52.5	-53.6	15.2	0.00e+00	0	30	0	803209216	70	4251
2026-01-03 12:04:09.35	299.82	20.56	-52.5	-53.6	15.2	0.00e+00	0	30	0	805306368	70	4253
2026-01-03 12:04:10.21	300.03	20.51	-52.7	-53.8	15.2	0.00e+00	0	30	0	807403520	70	4350
2026-01-03 12:04:11.36	300.30	20.46	-52.9	-54.0	15.1	0.00e+00	0	30	0	809500672	70	4474
2026-01-03 12:04:12.22	300.50	20.41	-53.0	-54.2	15.1	0.00e+00	0	30	0	810549248	71	4310
2026-01-03 12:04:13.37	300.77	20.36	-53.2	-54.4	15.1	0.00e+00	0	30	0	812646400	71	4397
2026-01-03 12:04:14.23	300.97	20.31	-53.3	-54.5	15.0	0.00e+00	0	30	0	814743552	71	4462
2026-01-03 12:04:15.38	301.23	20.25	-53.3	-54.5	15.0	0.00e+00	0	30	0	816840704	71	4486
2026-01-03 12:04:16.24	301.43	20.21	-53.3	-54.5	15.0	0.00e+00	0	30	0	818937856	71	4461
2026-01-03 12:04:17.39	301.70	20.15	-53.3	-54.5	15.0	0.00e+00	0	30	0	821035008	71	4471
2026-01-03 12:04:18.25	301.89	20.10	-53.3	-54.5	15.0	0.00e+00	0	30	0	822083584	71	4451
2026-01-03 12:04:19.39	302.16	20.04	-53.0	-54.2	15.1	0.00e+00	0	30	0	824180736	71	4295
2026-01-03 12:04:20.25	302.35	20.00	-53.1	-54.2	15.1	0.00e+00	0	30	0	826277888	71	4318
2026-01-03 12:04:21.39	302.61	19.94	-52.9	-54.0	15.2	0.00e+00	0	30	0	828375040	71	4236
2026-01-03 12:04:22.26	302.81	19.89	-52.7	-53.8	15.3	0.00e+00	0	30	0	829423616	71	4133
2026-01-03 12:04:23.41	303.07	19.83	-52.7	-53.7	15.3	0.00e+00	0	30	0	831520768	71	4093
2026-01-03 12:04:24.27	303.26	19.78	-52.7	-53.8	15.3	0.00e+00	0	30	0	833617920	71	4102
2026-01-03 12:04:25.41	303.52	19.72	-52.8	-53.9	15.2	0.00e+00	0	30	0	835715072	71	4183
2026-01-03 12:04:26.27	303.71	19.67	-52.9	-54.1	15.2	0.00e+00	0	30	0	836763648	71	4255
2026-01-03 12:04:27.41	303.96	19.61	-53.3	-54.5	15.0	0.00e+00	0	30	0	839909376	71	4472
2026-01-03 12:04:28.28	304.16	19.56	-53.6	-54.8	15.0	0.00e+00	0	30	0	840957952	72	4383
2026-01-03 12:04:29.41	304.41	19.50	-53.9	-55.2	14.8	0.00e+00	0	30	0	843055104	72	4563
2026-01-03 12:04:30.26	304.59	19.45	-54.0	-55.4	14.8	0.00e+00	0	30	0	845152256	73	4415
2026-01-03 12:04:31.40	304.84	19.39	-54.1	-55.5	14.8	0.00e+00	0	30	0	847249408	73	4458
2026-01-03 12:04:32.27	305.03	19.34	-54.2	-55.6	14.8	0.00e+00	0	30	0	848297984	73	4509
2026-01-03 12:04:33.42	305.28	19.27	-54.3	-55.7	14.7	0.00e+00	0	30	0	850395136	73	4568
2026-01-03 12:04:34.28	305.47	19.23	-54.3	-55.7	14.7	0.00e+00	0	30	0	852492288	73	4597
2026-01-03 12:04:35.42	305.72	19.16	-54.3	-55.8	14.6	0.00e+00	0	30	0	854589440	73	4606
2026-01-03 12:04:36.28	305.90	19.11	-54.3	-55.8	14.7	0.00e+00	0	30	0	855638016	74	4357
2026-01-03 12:04:37.42	306.15	19.04	-54.3	-55.8	14.7	0.00e+00	0	30	0	857735168	74	4348
2026-01-03 12:04:38.28	306.33	18.99	-54.2	-55.6	14.8	0.00e+00	0	30	0	859832320	74	4271
2026-01-03 12:04:39.43	306.58	18.93	-54.1	-55.4	14.8	0.00e+00	0	30	0	861929472	74	4192
2026-01-03 12:04:40.28	306.76	18.88	-54.0	-55.4	14.9	0.00e+00	0	30	0	864026624	74	4164
2026-01-03 12:04:41.42	307.00	18.81	-54.0	-55.4	14.9	0.00e+00	0	30	0	866123776	74	4163
2026-01-03 12:04:42.28	307.18	18.76	-53.8	-55.1	15.0	0.00e+00	0	30	0	867172352	74	4039
2026-01-03 12:04:43.43	307.42	18.69	-53.7	-55.0	15.1	0.00e+00	0	30	0	869269504	74	3974
2026-01-03 12:04:44.29	307.60	18.64	-53.9	-55.2	15.0	0.00e+00	0	30	0	871366656	74	4064
2026-01-03 12:04:45.42	307.84	18.57	-53.8	-55.1	15.0	0.00e+00	0	30	0	873463808	74	4014
2026-01-03 12:04:46.27	308.01	18.52	-53.9	-55.2	15.0	0.00e+00	0	30	0	874512384	74	4069
2026-01-03 12:04:47.41	308.25	18.45	-54.0	-55.3	14.9	0.00e+00	0	30	0	876609536	74	4141
2026-01-03 12:04:48.26	308.42	18.40	-54.1	-55.5	14.9	0.00e+00	0	30	0	878706688	74	4208
2026-01-03 12:04:49.39	308.66	18.33	-54.3	-55.7	14.8	0.00e+00	0	30	0	880803840	74	4308
2026-01-03 12:04:50.25	308.83	18.28	-54.3	-55.7	14.7	0.00e+00	0	30	0	881852416	74	4340
2026-01-03 12:04:51.39	309.06	18.21	-54.4	-55.9	14.7	0.00e+00	0	30	0	883949568	74	4403
2026-01-03 12:04:52.26	309.24	18.16	-54.4	-55.9	14.7	0.00e+00	0	30	0	886046720	74	4419
2026-01-03 12:04:53.40	309.47	18.09	-54.4	-55.9	14.6	0.00e+00	0	30	0	888143872	74	4440
2026-01-03 12:04:54.26	309.64	18.04	-54.4	-55.8	14.7	0.00e+00	0	30	0	890241024	74	4373
2026-01-03 12:04:55.40	309.87	17.97	-54.3	-55.7	14.7	0.00e+00	0	30	0	892338176	74	4312
2026-01-03 12:04:56.26	310.04	17.91	-54.1	-55.5	14.8	0.00e+00	0	30	0	893386752	74	4222
2026-01-03 12:04:57.40	310.27	17.84	-54.1	-55.4	14.8	0.00e+00	0	30	0	895483904	74	4191
2026-01-03 12:04:58.26	310.44	17.79	-53.9	-55.2	14.9	0.00e+00	0	30	0	897581056	74	4095
2026-01-03 12:04:59.40	310.66	17.72	-53.6	-54.8	15.0	0.00e+00	0	30	0	899678208	73	4135
2026-01-03 12:05:00.26	310.83	17.66	-53.5	-54.7	15.1	0.00e+00	0	30	0	900726784	73	4096
2026-01-03 12:05:01.41	311.06	17.59	-53.7	-54.9	15.0	0.00e+00	0	30	0	902823936	73	4189
2026-01-03 12:05:02.27	311.23	17.54	-53.7	-55.0	15.0	0.00e+00	0	30	0	904921088	73	4207
2026-01-03 12:05:03.40	311.45	17.47	-53.7	-55.0	14.9	0.00e+00	0	30	0	907018240	73	4234
2026-01-03 12:05:04.26	311.61	17.41	-53.8	-55.1	14.9	0.00e+00	0	30	0	908066816	73	4265
2026-01-03 12:05:05.40	311.83	17.34	-53.9	-55.3	14.8	0.00e+00	0	30	0	910163968	73	4354
2026-01-03 12:05:06.26	312.00	17.28	-53.8	-55.1	14.9	0.00e+00	0	30	0	912261120	73	4252
2026-01-03 12:05:07.40	312.21	17.21	-53.7	-55.0	15.0	0.00e+00	0	30	0	914358272	73	4204
2026-01-03 12:05:08.26	312.38	17.16	-53.8	-55.1	14.9	0.00e+00	0	30	0	916455424	73	4261
2026-01-03 12:05:09.40	312.59	17.08	-53.8	-55.1	14.9	0.00e+00	0	30	0	918552576	73	4280
2026-01-03 12:05:10.26	312.75	17.03	-53.9	-55.3	14.9	0.00e+00	0	30	0	919601152	73	4348
2026-01-03 12:05:11.41	312.97	16.96	-54.1	-55.5	14.8	0.00e+00	0	30	0	921698304	73	4445
2026-01-03 12:05:12.27	313.13	16.90	-54.1	-55.6	14.7	0.00e+00	0	30	0	923795456	73	4505
2026-01-03 12:05:13.42	313.35	16.83	-54.3	-55.7	14.6	0.00e+00	0	30	0	925892608	73	4594
2026-01-03 12:05:14.28	313.51	16.77	-54.3	-55.7	14.6	0.00e+00	0	30	0	926941184	73	4588
2026-01-03 12:05:15.42	313.72	16.70	-54.3	-55.8	14.7	0.00e+00	0	30	0	929038336	73	4605
2026-01-03 12:05:16.28	313.87	16.64	-54.3	-55.8	14.6	0.00e+00	0	30	0	931135488	73	4650
2026-01-03 12:05:17.43	314.08	16.57	-54.3	-55.8	14.6	0.00e+00	0	30	0	933232640	73	4646
2026-01-03 12:05:18.28	314.24	16.51	-54.2	-55.6	14.7	0.00e+00	0	30	0	934281216	73	4538
2026-01-03 12:05:19.42	314.45	16.44	-54.1	-55.6	14.7	0.00e+00	0	30	0	937426944	73	4500
2026-01-03 12:05:20.28	314.60	16.38	-54.2	-55.6	14.7	0.00e+00	0	30	0	938475520	73	4543
2026-01-03 12:05:21.41	314.81	16.31	-54.2	-55.7	14.7	0.00e+00	0	30	0	940572672	73	4548
2026-01-03 12:05:22.28	314.96	16.25	-54.2	-55.7	14.7	0.00e+00	0	30	0	942669824	73	4560
2026-01-03 12:05:23.42	315.16	16.18	-54.2	-55.7	14.7	0.00e+00	0	30	0	944766976	73	4569
2026-01-03 12:05:24.28	315.32	16.12	-54.1	-55.5	14.7	0.00e+00	0	30	0	945815552	73	4491
2026-01-03 12:05:25.42	315.52	16.05	-53.9	-55.3	14.8	0.00e+00	0	30	0	947912704	73	4371
2026-01-03 12:05:26.27	315.67	15.99	-53.7	-55.1	14.9	0.00e+00	0	30	0	950009856	73	4250
2026-01-03 12:05:27.42	315.87	15.92	-53.8	-55.1	14.9	0.00e+00	0	30	0	952107008	73	4265
2026-01-03 12:05:28.27	316.02	15.86	-53.7	-55.1	14.9	0.00e+00	0	30	0	953155584	73	4259
2026-01-03 12:05:29.42	316.22	15.78	-53.7	-55.0	14.9	0.00e+00	0	30	0	955252736	73	4230
2026-01-03 12:05:30.27	316.37	15.73	-53.9	-55.3	14.8	0.00e+00	0	30	0	957349888	73	4344
2026-01-03 12:05:31.42	316.57	15.65	-54.1	-55.6	14.7	0.00e+00	0	30	0	959447040	73	4510
2026-01-03 12:05:32.28	316.71	15.60	-54.3	-55.8	14.6	0.00e+00	0	30	0	961544192	73	4605
2026-01-03 12:05:33.42	316.91	15.52	-54.4	-55.9	14.6	0.00e+00	0	30	0	963641344	74	4439
2026-01-03 12:05:34.27	317.05	15.46	-54.3	-55.8	14.6	0.00e+00	0	30	0	964689920	74	4383
2026-01-03 12:05:35.41	317.25	15.39	-54.3	-55.8	14.7	0.00e+00	0	30	0	966787072	74	4360
2026-01-03 12:05:36.27	317.39	15.33	-54.3	-55.8	14.7	0.00e+00	0	30	0	968884224	74	4356
2026-01-03 12:05:37.41	317.58	15.26	-54.1	-55.5	14.8	0.00e+00	0	30	0	970981376	74	4241
2026-01-03 12:05:38.26	317.73	15.20	-54.1	-55.5	14.8	0.00e+00	0	30	0	972029952	74	4209
2026-01-03 12:05:39.40	317.92	15.12	-53.9	-55.3	14.9	0.00e+00	0	30	0	974127104	74	4110
2026-01-03 12:05:40.26	318.06	15.07	-53.8	-55.1	14.9	0.00e+00	0	30	0	976224256	74	4049
2026-01-03 12:05:41.40	318.25	14.99	-54.0	-55.4	14.8	0.00e+00	0	30	0	978321408	74	4166
2026-01-03 12:05:42.26	318.39	14.93	-54.2	-55.6	14.7	0.00e+00	0	30	0	979369984	74	4290
2026-01-03 12:05:43.40	318.58	14.86	-54.3	-55.8	14.6	0.00e+00	0	30	0	981467136	74	4372
2026-01-03 12:05:44.26	318.72	14.80	-54.3	-55.9	14.6	0.00e+00	0	30	0	983564288	74	4403
2026-01-03 12:05:45.40	318.90	14.73	-54.3	-55.9	14.6	0.00e+00	0	30	0	985661440	74	4398
2026-01-03 12:05:46.26	319.04	14.67	-54.3	-55.8	14.6	0.00e+00	0	30	0	987758592	74	4362
2026-01-03 12:05:47.41	319.23	14.59	-54.2	-55.7	14.7	0.00e+00	0	30	0	989855744	74	4332
2026-01-03 12:05:48.26	319.36	14.53	-54.1	-55.5	14.8	0.00e+00	0	30	0	990904320	74	4225
2026-01-03 12:05:49.40	319.54	14.46	-54.0	-55.4	14.8	0.00e+00	0	30	0	993001472	74	4175
2026-01-03 12:05:50.26	319.68	14.40	-53.8	-55.2	14.9	0.00e+00	0	30	0	995098624	74	4068
2026-01-03 12:05:51.41	319.86	14.32	-53.7	-55.1	15.0	0.00e+00	0	30	0	997195776	74	4018
2026-01-03 12:05:52.27	320.00	14.27	-53.7	-55.0	14.9	0.00e+00	0	30	0	998244352	73	4223
2026-01-03 12:05:53.41	320.18	14.19	-54.0	-55.4	14.7	0.00e+00	0	30	0	1000341504	73	4410
2026-01-03 12:05:54.27	320.31	14.13	-54.2	-55.7	14.6	0.00e+00	0	30	0	1002438656	73	4557
2026-01-03 12:05:55.41	320.49	14.06	-54.3	-55.8	14.6	0.00e+00	0	30	0	1004535808	73	4629
2026-01-03 12:05:56.26	320.62	14.00	-54.4	-56.0	14.6	0.00e+00	0	30	0	1005584384	74	4455
2026-01-03 12:05:57.41	320.80	13.92	-54.4	-56.0	14.5	0.00e+00	0	30	0	1007681536	74	4465
2026-01-03 12:05:58.26	320.93	13.87	-54.5	-56.0	14.5	0.00e+00	0	30	0	1009778688	74	4479
2026-01-03 12:05:59.41	321.10	13.79	-54.2	-55.7	14.7	0.00e+00	0	30	0	1011875840	74	4321
2026-01-03 12:06:00.26	321.23	13.73	-54.0	-55.4	14.8	0.00e+00	0	30	0	1013972992	74	4160
2026-01-03 12:06:01.40	321.41	13.66	-53.9	-55.4	14.8	0.00e+00	0	30	0	1016070144	74	4149
2026-01-03 12:06:02.26	321.54	13.60	-53.9	-55.3	14.8	0.00e+00	0	30	0	1017118720	74	4128
2026-01-03 12:06:03.40	321.71	13.53	-54.1	-55.5	14.7	0.00e+00	0	30	0	1019215872	74	4224
2026-01-03 12:06:04.25	321.83	13.47	-54.2	-55.7	14.7	0.00e+00	0	30	0	1021313024	74	4300
2026-01-03 12:06:05.39	322.00	13.39	-54.4	-55.9	14.6	0.00e+00	0	30	0	1023410176	74	4415
2026-01-03 12:06:06.25	322.13	13.34	-54.5	-56.1	14.5	0.00e+00	0	30	0	1024458752	74	4537
2026-01-03 12:06:07.39	322.30	13.26	-54.5	-56.1	14.5	0.00e+00	0	30	0	1026555904	74	4519
2026-01-03 12:06:08.25	322.43	13.20	-54.5	-56.1	14.4	0.00e+00	0	30	0	1028653056	74	4537
2026-01-03 12:06:09.38	322.59	13.13	-54.3	-55.9	14.6	0.00e+00	0	30	0	1030750208	74	4418
2026-01-03 12:06:10.24	322.72	13.07	-54.2	-55.8	14.6	0.00e+00	0	30	0	1031798784	74	4341
2026-01-03 12:06:11.38	322.88	12.99	-54.1	-55.6	14.7	0.00e+00	0	30	0	1033895936	74	4273
2026-01-03 12:06:12.23	323.00	12.94	-54.1	-55.6	14.7	0.00e+00	0	30	0	1035993088	74	4259
2026-01-03 12:06:13.36	323.17	12.86	-54.1	-55.6	14.7	0.00e+00	0	30	0	1038090240	74	4279
2026-01-03 12:06:14.22	323.29	12.80	-54.1	-55.5	14.7	0.00e+00	0	30	0	1040187392	74	4236
2026-01-03 12:06:15.36	323.45	12.73	-54.1	-55.6	14.7	0.00e+00	0	30	0	1042284544	74	4261
2026-01-03 12:06:16.22	323.58	12.67	-54.2	-55.7	14.6	0.00e+00	0	30	0	1043333120	74	4322
2026-01-03 12:06:17.35	323.73	12.60	-54.4	-56.0	14.5	0.00e+00	0	30	0	1045430272	74	4448
2026-01-03 12:06:18.20	323.85	12.54	-54.5	-56.2	14.5	0.00e+00	0	30	0	1047527424	74	4546
2026-01-03 12:06:19.35	324.02	12.46	-54.7	-56.4	14.3	0.00e+00	0	30	0	1049624576	74	4673
2026-01-03 12:06:20.20	324.13	12.41	-54.7	-56.3	14.4	0.00e+00	0	30	0	1050673152	74	4647
2026-01-03 12:06:21.33	324.29	12.33	-54.7	-56.4	14.3	0.00e+00	0	30	0	1052770304	74	4676
2026-01-03 12:06:22.18	324.41	12.28	-54.7	-56.4	14.3	0.00e+00	0	30	0	1054867456	74	4668
2026-01-03 12:06:23.33	324.57	12.20	-54.5	-56.2	14.4	0.00e+00	0	30	0	1056964608	74	4562
2026-01-03 12:06:24.18	324.68	12.14	-54.4	-56.0	14.5	0.00e+00	0	30	0	1058013184	74	4455
2026-01-03 12:06:25.32	324.84	12.07	-54.3	-55.8	14.6	0.00e+00	0	30	0	1060110336	74	4385
2026-01-03 12:06:26.17	324.96	12.01	-54.2	-55.8	14.6	0.00e+00	0	30	0	1062207488	74	4345
2026-01-03 12:06:27.30	325.11	11.94	-54.3	-55.8	14.6	0.00e+00	0	30	0	1064304640	74	4372
2026-01-03 12:06:28.16	325.22	11.88	-54.3	-55.9	14.5	0.00e+00	0	30	0	1065353216	74	4397
2026-01-03 12:06:29.30	325.38	11.80	-54.4	-56.0	14.5	0.00e+00	0	30	0	1067450368	74	4463
2026-01-03 12:06:30.15	325.49	11.75	-54.5	-56.2	14.4	0.00e+00	0	30	0	1069547520	74	4555
2026-01-03 12:06:31.29	325.64	11.67	-54.6	-56.3	14.4	0.00e+00	0	30	0	1071644672	74	4600
2026-01-03 12:06:32.14	325.76	11.62	-54.7	-56.4	14.3	0.00e+00	0	30	0	1073741824	74	4679
2026-01-03 12:06:33.29	325.91	11.54	-54.7	-56.4	14.3	0.00e+00	0	30	0	1075838976	74	4654
2026-01-03 12:06:34.14	326.02	11.49	-54.6	-56.2	14.4	0.00e+00	0	30	0	1076887552	74	4580
2026-01-03 12:06:35.28	326.17	11.41	-54.5	-56.2	14.4	0.00e+00	0	30	0	1078984704	74	4555
2026-01-03 12:06:36.13	326.28	11.35	-54.6	-56.2	14.4	0.00e+00	0	30	0	1081081856	74	4591
2026-01-03 12:06:37.26	326.42	11.28	-54.4	-56.0	14.5	0.00e+00	0	30	0	1083179008	74	4482
2026-01-03 12:06:38.12	326.54	11.22	-54.4	-55.9	14.5	0.00e+00	0	30	0	1084227584	74	4435
2026-01-03 12:06:39.25	326.68	11.15	-54.4	-56.1	14.5	0.00e+00	0	30	0	1086324736	74	4509
2026-01-03 12:06:40.10	326.79	11.09	-54.5	-56.1	14.4	0.00e+00	0	30	0	1088421888	74	4526
2026-01-03 12:06:41.23	326.93	11.02	-54.6	-56.2	14.3	0.00e+00	0	30	0	1090519040	74	4593
2026-01-03 12:06:42.09	327.04	10.96	-54.8	-56.5	14.3	0.00e+00	0	30	0	1091567616	74	4749
2026-01-03 12:06:43.23	327.19	10.89	-54.9	-56.7	14.2	0.00e+00	0	30	0	1093664768	75	4578
2026-01-03 12:06:44.09	327.30	10.83	-55.0	-56.9	14.1	0.00e+00	0	30	0	1095761920	75	4690
2026-01-03 12:06:45.23	327.44	10.76	-55.2	-57.1	14.0	0.00e+00	0	30	0	1097859072	75	4810
2026-01-03 12:06:46.09	327.55	10.70	-55.2	-57.2	14.0	0.00e+00	0	30	0	1098907648	75	4821
2026-01-03 12:06:47.22	327.69	10.63	-55.2	-57.2	14.0	0.00e+00	0	30	0	1102053376	75	4817
2026-01-03 12:06:48.08	327.79	10.57	-55.2	-57.1	14.0	0.00e+00	0	30	0	1103101952	75	4812
2026-01-03 12:06:49.22	327.93	10.50	-55.1	-57.1	14.0	0.00e+00	0	30	0	1105199104	75	4761
2026-01-03 12:06:50.08	328.04	10.44	-55.1	-57.0	14.1	0.00e+00	0	30	0	1107296256	75	4712
2026-01-03 12:06:51.22	328.18	10.37	-54.9	-56.8	14.1	0.00e+00	0	30	0	1109393408	75	4617
2026-01-03 12:06:52.07	328.28	10.31	-54.9	-56.7	14.2	0.00e+00	0	30	0	1110441984	75	4553
2026-01-03 12:06:53.22	328.42	10.24	-54.7	-56.4	14.3	0.00e+00	0	30	0	1112539136	75	4429
2026-01-03 12:06:54.07	328.52	10.18	-54.7	-56.5	14.3	0.00e+00	0	30	0	1114636288	75	4459
2026-01-03 12:06:55.21	328.66	10.11	-54.6	-56.3	14.4	0.00e+00	0	30	0	1116733440	75	4354
2026-01-03 12:06:56.07	328.76	10.06	-54.6	-56.3	14.4	0.00e+00	0	30	0	1117782016	75	4343
2026-01-03 12:06:57.20	328.90	9.98	-54.5	-56.2	14.5	0.00e+00	0	30	0	1119879168	75	4304
2026-01-03 12:06:58.06	329.00	9.93	-54.5	-56.2	14.4	0.00e+00	0	30	0	1121976320	75	4324
2026-01-03 12:06:59.20	329.13	9.85	-54.6	-56.4	14.4	0.00e+00	0	30	0	1124073472	75	4404
2026-01-03 12:07:00.05	329.23	9.80	-54.7	-56.4	14.3	0.00e+00	0	30	0	1125122048	75	4408
2026-01-03 12:07:01.19	329.37	9.73	-54.8	-56.5	14.3	0.00e+00	0	30	0	1127219200	75	4477
2026-01-03 12:07:02.04	329.47	9.67	-54.8	-56.6	14.2	0.00e+00	0	30	0	1129316352	75	4494
2026-01-03 12:07:03.19	329.60	9.60	-54.8	-56.6	14.2	0.00e+00	0	30	0	1131413504	75	4509
2026-01-03 12:07:04.04	329.70	9.54	-54.8	-56.7	14.2	0.00e+00	0	30	0	1133510656	75	4546
2026-01-03 12:07:05.17	329.83	9.47	-54.9	-56.7	14.2	0.00e+00	0	30	0	1135607808	75	4568
2026-01-03 12:07:06.02	329.93	9.42	-54.9	-56.7	14.2	0.00e+00	0	30	0	1136656384	75	4566
2026-01-03 12:07:07.16	330.06	9.34	-54.9	-56.7	14.1	0.00e+00	0	30	0	1138753536	75	4597
2026-01-03 12:07:08.01	330.15	9.29	-55.0	-56.8	14.1	0.00e+00	0	30	0	1140850688	75	4646
2026-01-03 12:07:09.15	330.28	9.22	-55.0	-56.8	14.1	0.00e+00	0	30	0	1142947840	75	4651
2026-01-03 12:07:10.01	330.38	9.16	-55.1	-57.0	14.0	0.00e+00	0	30	0	1143996416	75	4726
2026-01-03 12:07:11.14	330.51	9.09	-55.1	-57.1	13.9	0.00e+00	0	30	0	1146093568	75	4788
2026-01-03 12:07:12.00	330.60	9.03	-55.2	-57.2	13.9	0.00e+00	0	30	0	1148190720	75	4857
2026-01-03 12:07:13.14	330.73	8.96	-55.4	-57.5	13.8	0.00e+00	0	30	0	1150287872	75	4990
2026-01-03 12:07:13.99	330.82	8.91	-55.3	-57.4	13.8	0.00e+00	0	30	0	1151336448	75	4954
2026-01-03 12:07:15.14	330.95	8.84	-55.3	-57.4	13.8	0.00e+00	0	30	0	1153433600	75	4967
2026-01-03 12:07:15.99	331.04	8.78	-55.4	-57.6	13.7	0.00e+00	0	30	0	1155530752	76	4775
2026-01-03 12:07:17.14	331.17	8.71	-55.4	-57.5	13.8	0.00e+00	0	30	0	1157627904	76	4748
2026-01-03 12:07:18.00	331.26	8.66	-55.5	-57.7	13.7	0.00e+00	0	30	0	1159725056	76	4825
2026-01-03 12:07:19.14	331.39	8.58	-55.4	-57.6	13.7	0.00e+00	0	30	0	1161822208	76	4799
2026-01-03 12:07:20.01	331.48	8.53	-55.3	-57.5	13.8	0.00e+00	0	30	0	1162870784	76	4709
2026-01-03 12:07:21.16	331.61	8.46	-55.3	-57.4	13.9	0.00e+00	0	30	0	1164967936	76	4693
2026-01-03 12:07:22.02	331.70	8.40	-55.1	-57.2	14.0	0.00e+00	0	30	0	1167065088	76	4564
2026-01-03 12:07:23.16	331.82	8.33	-55.1	-57.2	14.0	0.00e+00	0	30	0	1169162240	76	4577
2026-01-03 12:07:24.02	331.91	8.28	-55.2	-57.2	14.0	0.00e+00	0	30	0	1170210816	76	4581
2026-01-03 12:07:25.16	332.03	8.21	-55.0	-57.1	14.0	0.00e+00	0	30	0	1172307968	76	4500
2026-01-03 12:07:26.02	332.12	8.15	-55.2	-57.3	13.9	0.00e+00	0	30	0	1174405120	76	4629
2026-01-03 12:07:27.17	332.24	8.08	-55.4	-57.5	13.8	0.00e+00	0	30	0	1176502272	76	4732
2026-01-03 12:07:28.03	332.33	8.03	-55.3	-57.3	13.9	0.00e+00	0	30	0	1177550848	76	4634
2026-01-03 12:07:29.17	332.45	7.96	-55.4	-57.6	13.8	0.00e+00	0	30	0	1180696576	76	4769
2026-01-03 12:07:30.03	332.54	7.90	-55.5	-57.6	13.7	0.00e+00	0	30	0	1181745152	76	4809
2026-01-03 12:07:31.17	332.66	7.83	-55.6	-57.9	13.5	0.00e+00	0	30	0	1183842304	76	4950
2026-01-03 12:07:32.03	332.75	7.78	-55.7	-57.9	13.5	0.00e+00	0	30	0	1185939456	76	4979
2026-01-03 12:07:33.18	332.87	7.71	-55.7	-58.0	13.4	0.00e+00	0	30	0	1188036608	76	5037
2026-01-03 12:07:34.03	332.95	7.65	-55.7	-58.0	13.5	0.00e+00	0	30	0	1189085184	76	5004
2026-01-03 12:07:35.17	333.07	7.58	-55.8	-58.1	13.5	0.00e+00	0	30	0	1191182336	76	5060
2026-01-03 12:07:36.03	333.16	7.53	-55.8	-58.1	13.4	0.00e+00	0	30	0	1193279488	76	5080
2026-01-03 12:07:37.18	333.27	7.46	-55.9	-58.3	13.3	0.00e+00	0	30	0	1195376640	77	4921
2026-01-03 12:07:38.04	333.36	7.41	-55.9	-58.4	13.3	0.00e+00	0	30	0	1196425216	77	4934
2026-01-03 12:07:39.18	333.47	7.34	-55.9	-58.4	13.3	0.00e+00	0	30	0	1198522368	77	4944
2026-01-03 12:07:40.05	333.56	7.28	-56.0	-58.5	13.2	0.00e+00	0	30	0	1200619520	77	5032
2026-01-03 12:07:41.19	333.67	7.21	-56.1	-58.6	13.2	0.00e+00	0	30	0	1202716672	77	5045
2026-01-03 12:07:42.05	333.76	7.16	-56.1	-58.6	13.2	0.00e+00	0	30	0	1204813824	77	5067
2026-01-03 12:07:43.19	333.87	7.09	-56.1	-58.7	13.1	0.00e+00	0	30	0	1206910976	77	5116
2026-01-03 12:07:44.05	333.96	7.04	-56.1	-58.6	13.2	0.00e+00	0	30	0	1207959552	77	5066
