passes_logs/2026/01/03/R3.2S_Murmansk/R3.2S_Murmansk__20260103_235752_NOAA_20_JPSS-1_rec.log

#Pass ID: 20260103_235752_NOAA 20 (JPSS-1)
#Satellite: NOAA 20 (JPSS-1)
#Configuration: NOAA 20
#almurnet v.1.7.20251203
#Start time: 2026-01-03 23:57:54

#Version: 2.2.20231116
#Station: R3.2S_Murmansk
#Location: 33.079688 lon 68.888172 lat
#TLE: 1 43013U 17073A   26003.41800368  .00000169  00000+0  10117-3 0  9998
#TLE: 2 43013  98.7624 304.4804 0001884  56.1176 304.0179 14.19532918421092

#Time	Az	El	Level	Level2	SNR	BER	BlckErr	Temp	State	Recorded	gain1	gain2
2026-01-03 23:57:54.12	22.14	2.10	-59.8	-75.9	3.8	1.49e+00	0	27	0	0	84	24810
2026-01-03 23:57:55.12	22.17	2.17	-59.8	-75.9	3.8	1.49e+00	0	27	104	0	84	24767
2026-01-03 23:57:56.12	22.19	2.23	-59.8	-75.9	3.8	1.49e+00	0	27	104	0	84	24862
2026-01-03 23:57:57.11	22.21	2.29	-59.8	-75.9	3.8	1.49e+00	0	27	104	0	84	24823
2026-01-03 23:57:58.09	22.24	2.36	-59.8	-75.9	3.8	1.49e+00	0	27	104	0	84	24846
2026-01-03 23:57:59.10	22.26	2.42	-59.8	-75.9	3.8	1.49e+00	0	27	104	0	84	24845
2026-01-03 23:58:00.09	22.29	2.48	-59.8	-75.9	3.8	1.49e+00	0	27	104	0	84	24812
2026-01-03 23:58:01.09	22.31	2.55	-59.8	-75.9	3.8	1.49e+00	0	27	104	0	84	24840
2026-01-03 23:58:02.08	22.33	2.61	-59.8	-75.9	3.8	1.49e+00	0	27	104	0	84	24816
2026-01-03 23:58:03.07	22.36	2.67	-59.8	-75.9	3.8	1.49e+00	0	27	104	0	84	24958
2026-01-03 23:58:04.07	22.38	2.74	-59.8	-75.9	3.8	1.49e+00	0	27	104	0	84	24898
2026-01-03 23:58:05.07	22.41	2.80	-59.8	-75.9	3.8	1.49e+00	0	27	104	0	84	24854
2026-01-03 23:58:06.07	22.43	2.87	-59.8	-75.9	3.8	1.49e+00	0	27	104	0	84	24818
2026-01-03 23:58:07.07	22.46	2.93	-59.8	-75.9	3.8	1.49e+00	0	27	104	0	84	24879
2026-01-03 23:58:08.07	22.48	3.00	-59.8	-75.9	3.8	1.49e+00	0	27	104	0	84	24850
2026-01-03 23:58:09.07	22.50	3.06	-59.8	-75.9	3.8	1.49e+00	0	27	104	0	84	24833
2026-01-03 23:58:10.07	22.53	3.13	-59.8	-75.9	3.8	1.49e+00	0	27	104	0	84	24901
2026-01-03 23:58:11.07	22.55	3.19	-59.8	-75.9	3.8	1.49e+00	0	27	104	0	84	24882
2026-01-03 23:58:12.06	22.58	3.26	-59.8	-75.9	3.8	1.49e+00	0	27	104	0	84	24879
2026-01-03 23:58:13.05	22.60	3.32	-59.8	-75.9	3.8	1.49e+00	0	27	104	0	84	24850
2026-01-03 23:58:14.05	22.63	3.39	-59.8	-75.9	3.8	1.49e+00	0	27	104	0	84	24837
2026-01-03 23:58:15.06	22.66	3.46	-59.8	-75.9	3.8	1.49e+00	0	27	104	0	84	24857
2026-01-03 23:58:16.07	22.68	3.52	-59.8	-75.9	3.8	1.49e+00	0	27	104	0	84	24928
2026-01-03 23:58:17.07	22.71	3.59	-59.8	-75.9	3.8	1.49e+00	0	27	104	0	84	24911
2026-01-03 23:58:18.07	22.73	3.66	-59.8	-75.9	3.8	1.49e+00	0	28	104	0	84	24914
2026-01-03 23:58:19.07	22.76	3.72	-59.9	-75.9	3.8	1.49e+00	0	28	104	0	84	24896
2026-01-03 23:58:20.07	22.78	3.79	-59.8	-75.9	3.8	1.49e+00	0	27	104	0	84	24889
2026-01-03 23:58:21.08	22.81	3.86	-59.8	-75.9	3.8	1.49e+00	0	28	104	0	84	24896
2026-01-03 23:58:22.08	22.84	3.92	-59.8	-75.9	3.8	1.49e+00	0	28	104	0	84	24911
2026-01-03 23:58:23.07	22.86	3.99	-59.8	-75.9	3.8	1.49e+00	0	27	104	0	84	24888
2026-01-03 23:58:24.08	22.89	4.06	-59.8	-75.9	3.8	1.49e+00	0	28	104	0	84	24907
2026-01-03 23:58:25.08	22.92	4.13	-59.8	-75.9	3.8	1.49e+00	0	28	104	0	84	24874
2026-01-03 23:58:26.07	22.94	4.19	-59.8	-75.9	3.8	1.49e+00	0	28	104	0	84	24852
2026-01-03 23:58:27.08	22.97	4.26	-59.8	-75.9	3.8	1.49e+00	0	28	104	0	84	24959
2026-01-03 23:58:28.08	22.99	4.33	-59.8	-75.9	3.8	1.49e+00	0	28	104	0	84	24904
2026-01-03 23:58:29.08	23.02	4.40	-59.8	-75.9	3.8	1.49e+00	0	28	104	0	84	24914
2026-01-03 23:58:30.07	23.05	4.47	-59.8	-75.9	3.9	1.49e+00	0	28	104	0	84	24867
2026-01-03 23:58:31.07	23.08	4.54	-59.8	-75.9	3.8	1.49e+00	0	28	104	0	84	24890
2026-01-03 23:58:32.07	23.10	4.60	-59.8	-75.9	3.8	1.49e+00	0	28	104	0	84	24887
2026-01-03 23:58:33.08	23.13	4.67	-59.8	-75.9	3.8	1.49e+00	0	28	104	0	84	24888
2026-01-03 23:58:34.08	23.16	4.74	-59.8	-75.9	3.8	1.49e+00	0	28	104	0	84	24860
2026-01-03 23:58:35.07	23.18	4.81	-59.8	-75.9	3.8	1.49e+00	0	28	104	0	84	24833
2026-01-03 23:58:36.07	23.21	4.88	-59.8	-75.9	3.8	1.49e+00	0	28	104	0	84	24924
2026-01-03 23:58:37.08	23.24	4.95	-59.8	-75.9	3.8	1.49e+00	0	28	104	0	84	24900
2026-01-03 23:58:38.08	23.27	5.02	-59.8	-75.9	3.8	1.49e+00	0	28	104	0	84	24879
2026-01-03 23:58:39.08	23.29	5.09	-59.8	-75.9	3.8	1.49e+00	0	28	104	0	84	24891
2026-01-03 23:58:40.08	23.32	5.16	-59.8	-75.9	3.8	1.49e+00	0	28	104	0	84	24893
2026-01-03 23:58:41.08	23.35	5.23	-59.8	-75.9	3.8	1.49e+00	0	28	104	0	84	24867
2026-01-03 23:58:42.08	23.38	5.30	-59.8	-75.9	3.8	1.49e+00	0	28	104	0	84	24891
2026-01-03 23:58:43.08	23.41	5.37	-59.8	-75.9	3.8	1.49e+00	0	28	104	0	84	24870
2026-01-03 23:58:44.09	23.44	5.45	-59.8	-75.9	3.8	1.49e+00	0	28	104	0	84	24911
2026-01-03 23:58:45.09	23.46	5.52	-59.9	-75.9	3.8	1.49e+00	0	28	104	0	84	24878
2026-01-03 23:58:46.10	23.49	5.59	-59.8	-75.9	3.8	1.49e+00	0	28	104	0	84	24926
2026-01-03 23:58:47.10	23.52	5.66	-59.9	-75.9	3.8	1.49e+00	0	28	104	0	84	24912
2026-01-03 23:58:48.10	23.55	5.73	-59.8	-75.9	3.8	1.49e+00	0	28	104	0	84	24925
2026-01-03 23:58:49.11	23.58	5.81	-59.8	-75.9	3.8	1.49e+00	0	28	104	0	84	24862
2026-01-03 23:58:50.11	23.61	5.88	-59.8	-75.9	3.8	1.49e+00	0	28	104	0	84	24871
2026-01-03 23:58:51.11	23.64	5.95	-59.8	-75.9	3.8	1.49e+00	0	28	104	0	84	24825
2026-01-03 23:58:52.11	23.67	6.02	-59.8	-75.9	3.8	1.49e+00	0	28	104	0	84	24867
2026-01-03 23:58:53.11	23.70	6.10	-59.8	-75.9	3.8	1.49e+00	0	28	104	0	84	24884
2026-01-03 23:58:54.11	23.73	6.17	-59.9	-75.9	3.8	1.49e+00	0	28	104	0	84	24869
2026-01-03 23:58:55.10	23.76	6.24	-59.8	-75.9	3.8	1.49e+00	0	28	104	0	84	24866
2026-01-03 23:58:56.11	23.79	6.31	-59.8	-75.9	3.8	1.49e+00	0	28	104	0	84	24890
2026-01-03 23:58:57.10	23.82	6.39	-59.8	-75.9	3.8	1.49e+00	0	28	104	0	84	24877
2026-01-03 23:58:58.09	23.85	6.46	-59.8	-75.9	3.8	1.49e+00	0	28	104	0	84	24847
2026-01-03 23:58:59.09	23.88	6.53	-59.8	-75.9	3.8	1.49e+00	0	28	104	0	84	24828
2026-01-03 23:59:00.09	23.91	6.61	-59.8	-75.9	3.8	1.49e+00	0	28	104	0	84	24846
2026-01-03 23:59:01.08	23.94	6.68	-59.8	-75.9	3.8	1.49e+00	0	28	104	0	84	24846
2026-01-03 23:59:02.08	23.97	6.76	-59.8	-75.9	3.8	1.49e+00	0	28	104	0	84	24872
2026-01-03 23:59:03.07	24.00	6.83	-59.8	-75.9	3.8	1.49e+00	0	28	104	0	84	24818
2026-01-03 23:59:04.07	24.03	6.91	-59.8	-75.9	3.8	1.49e+00	0	28	104	0	84	24778
2026-01-03 23:59:05.07	24.06	6.98	-59.8	-75.9	3.8	1.49e+00	0	28	104	0	84	24837
2026-01-03 23:59:06.08	24.09	7.06	-59.8	-75.9	3.8	1.49e+00	0	28	104	0	84	24792
2026-01-03 23:59:07.08	24.12	7.13	-59.8	-75.9	3.8	1.49e+00	0	28	104	0	84	24809
2026-01-03 23:59:08.08	24.15	7.21	-59.8	-75.9	3.8	1.49e+00	0	28	104	0	84	24831
2026-01-03 23:59:09.07	24.18	7.28	-59.8	-75.9	3.8	1.49e+00	0	28	104	0	84	24856
2026-01-03 23:59:10.07	24.22	7.36	-59.8	-75.9	3.8	1.49e+00	0	28	104	0	84	24756
2026-01-03 23:59:11.07	24.25	7.44	-59.8	-75.9	3.8	1.49e+00	0	28	104	0	84	24838
2026-01-03 23:59:12.07	24.28	7.51	-59.8	-75.9	3.8	1.49e+00	0	28	104	0	84	24762
2026-01-03 23:59:13.07	24.31	7.59	-59.8	-75.9	3.8	1.49e+00	0	28	104	0	84	24811
2026-01-03 23:59:14.07	24.34	7.67	-59.8	-75.9	3.8	1.49e+00	0	28	104	0	84	24893
2026-01-03 23:59:15.07	24.38	7.75	-59.8	-75.9	3.8	1.49e+00	0	28	104	0	84	24920
2026-01-03 23:59:16.08	24.41	7.82	-59.8	-75.9	3.8	1.49e+00	0	28	104	0	84	24850
2026-01-03 23:59:17.07	24.44	7.90	-59.8	-75.9	3.8	1.49e+00	0	28	104	0	84	24824
2026-01-03 23:59:18.07	24.48	7.98	-59.8	-75.9	3.8	1.49e+00	0	28	104	0	84	24876
2026-01-03 23:59:19.06	24.51	8.06	-59.8	-75.9	3.8	1.49e+00	0	28	104	0	84	24764
2026-01-03 23:59:20.07	24.54	8.14	-59.8	-75.9	3.8	1.49e+00	0	28	104	0	84	24728
2026-01-03 23:59:21.07	24.58	8.21	-59.8	-75.9	3.8	1.49e+00	0	28	104	0	84	24835
2026-01-03 23:59:22.07	24.61	8.29	-59.8	-75.9	3.8	1.49e+00	0	28	104	0	84	24804
2026-01-03 23:59:23.06	24.64	8.37	-59.8	-75.9	3.8	1.49e+00	0	28	104	0	84	24814
2026-01-03 23:59:24.06	24.68	8.45	-59.8	-75.9	3.8	1.49e+00	0	28	104	0	84	24767
2026-01-03 23:59:25.06	24.71	8.53	-59.8	-75.9	3.8	1.49e+00	0	28	104	0	84	24751
2026-01-03 23:59:26.06	24.74	8.61	-59.8	-75.9	3.8	1.49e+00	0	28	104	0	84	24831
2026-01-03 23:59:27.05	24.78	8.69	-59.8	-75.9	3.8	1.49e+00	0	28	104	0	84	24831
2026-01-03 23:59:28.06	24.81	8.77	-59.8	-75.9	3.8	1.49e+00	0	28	104	0	84	24761
2026-01-03 23:59:29.05	24.85	8.85	-59.8	-75.9	3.8	1.49e+00	0	28	104	0	84	24795
2026-01-03 23:59:30.05	24.88	8.93	-59.8	-75.9	3.8	1.49e+00	0	28	104	0	84	24848
2026-01-03 23:59:31.05	24.92	9.02	-59.8	-75.9	3.8	1.49e+00	0	28	104	0	84	24819
2026-01-03 23:59:32.05	24.95	9.10	-59.8	-75.9	3.8	1.49e+00	0	28	104	0	84	24814
2026-01-03 23:59:33.04	24.99	9.18	-59.8	-75.9	3.8	1.49e+00	0	28	104	0	84	24789
2026-01-03 23:59:34.04	25.02	9.26	-59.8	-75.9	3.8	1.49e+00	0	28	104	0	84	24822
2026-01-03 23:59:35.05	25.06	9.34	-59.8	-75.9	3.8	1.49e+00	0	28	104	0	84	24752
2026-01-03 23:59:36.05	25.09	9.43	-59.8	-75.9	3.8	1.49e+00	0	28	104	0	84	24765
2026-01-03 23:59:37.05	25.13	9.51	-59.8	-75.9	3.8	1.49e+00	0	28	104	0	84	24763
2026-01-03 23:59:38.06	25.17	9.59	-59.8	-75.9	3.8	1.49e+00	0	28	104	0	84	24727
2026-01-03 23:59:39.06	25.20	9.68	-59.8	-75.9	3.8	1.49e+00	0	29	104	0	84	24809
2026-01-03 23:59:40.05	25.24	9.76	-59.8	-75.9	3.8	1.49e+00	0	29	104	0	84	24788
2026-01-03 23:59:41.05	25.28	9.84	-59.8	-75.9	3.8	1.49e+00	0	28	104	0	84	24798
2026-01-03 23:59:42.05	25.31	9.93	-59.8	-75.9	3.8	1.49e+00	0	28	104	0	84	24754
2026-01-03 23:59:43.04	25.35	10.01	-59.8	-75.9	3.8	1.49e+00	0	28	104	0	84	24735
2026-01-03 23:59:44.04	25.39	10.10	-59.8	-75.9	3.8	1.49e+00	0	28	104	0	84	24818
2026-01-03 23:59:45.04	25.42	10.18	-59.8	-75.9	3.8	1.49e+00	0	28	104	0	84	24756
2026-01-03 23:59:46.04	25.46	10.27	-59.8	-75.9	3.8	1.49e+00	0	28	104	0	84	24816
2026-01-03 23:59:47.04	25.50	10.35	-59.8	-75.9	3.8	1.49e+00	0	28	104	0	84	24757
2026-01-03 23:59:48.04	25.54	10.44	-59.8	-75.9	3.8	1.49e+00	0	29	104	0	84	24751
2026-01-03 23:59:49.03	25.58	10.52	-59.8	-75.8	3.8	1.49e+00	0	28	104	0	84	24682
2026-01-03 23:59:50.04	25.61	10.61	-59.8	-75.8	3.8	1.49e+00	0	28	104	0	84	24544
2026-01-03 23:59:51.04	25.65	10.70	-59.8	-75.8	3.8	1.49e+00	0	28	104	0	84	24538
2026-01-03 23:59:52.04	25.69	10.79	-59.8	-75.8	3.8	1.49e+00	0	29	104	0	84	24465
2026-01-03 23:59:53.04	25.73	10.87	-59.8	-75.7	3.8	1.49e+00	0	29	104	0	84	24363
2026-01-03 23:59:54.04	25.77	10.96	-59.8	-75.8	3.8	1.49e+00	0	29	104	0	84	24467
2026-01-03 23:59:55.03	25.81	11.05	-59.8	-75.8	3.8	1.49e+00	0	29	104	0	84	24413
2026-01-03 23:59:56.03	25.85	11.14	-59.8	-75.8	3.8	1.49e+00	0	29	104	0	84	24496
2026-01-03 23:59:57.04	25.89	11.23	-59.8	-75.8	3.8	1.49e+00	0	29	104	0	84	24533
2026-01-03 23:59:58.03	25.93	11.31	-59.8	-75.8	3.8	1.49e+00	0	28	104	0	84	24498
2026-01-03 23:59:59.03	25.97	11.40	-59.8	-75.8	3.8	1.49e+00	0	29	104	0	84	24611
2026-01-04 00:00:00.03	26.01	11.49	-59.8	-75.8	3.8	1.49e+00	0	28	104	0	84	24615
2026-01-04 00:00:01.03	26.05	11.58	-59.8	-75.9	3.8	1.49e+00	0	29	104	0	84	24741
2026-01-04 00:00:02.02	26.09	11.67	-59.8	-75.8	3.8	1.49e+00	0	29	104	0	84	24683
2026-01-04 00:00:03.02	26.13	11.76	-59.8	-75.9	3.8	1.49e+00	0	29	104	0	84	24751
2026-01-04 00:00:04.01	26.17	11.85	-59.8	-75.9	3.8	1.49e+00	0	29	104	0	84	24764
2026-01-04 00:00:05.01	26.22	11.94	-59.8	-75.9	3.8	1.49e+00	0	29	104	0	84	24720
2026-01-04 00:00:06.01	26.26	12.04	-59.8	-75.9	3.8	1.49e+00	0	28	104	0	84	24729
2026-01-04 00:00:07.01	26.30	12.13	-59.8	-75.9	3.8	1.49e+00	0	29	104	0	84	24739
2026-01-04 00:00:07.99	26.34	12.22	-59.8	-75.9	3.8	1.49e+00	0	29	104	0	84	24732
2026-01-04 00:00:08.98	26.38	12.31	-59.8	-75.9	3.8	1.49e+00	0	29	104	0	84	24720
2026-01-04 00:00:09.98	26.43	12.40	-59.8	-75.8	3.8	1.49e+00	0	28	104	0	84	24669
2026-01-04 00:00:10.99	26.47	12.50	-59.8	-75.9	3.8	1.49e+00	0	29	104	0	84	24706
2026-01-04 00:00:11.98	26.51	12.59	-59.8	-75.9	3.8	1.49e+00	0	29	104	0	84	24733
2026-01-04 00:00:12.98	26.56	12.68	-59.8	-75.9	3.8	1.49e+00	0	29	104	0	84	24755
2026-01-04 00:00:13.97	26.60	12.78	-59.8	-75.9	3.8	1.49e+00	0	29	104	0	84	24722
2026-01-04 00:00:14.96	26.64	12.87	-59.8	-75.8	3.8	1.49e+00	0	29	104	0	84	24681
2026-01-04 00:00:15.96	26.69	12.97	-59.8	-75.9	3.8	1.49e+00	0	28	104	0	84	24757
2026-01-04 00:00:16.96	26.73	13.06	-59.8	-75.9	3.8	1.49e+00	0	28	104	0	84	24702
2026-01-04 00:00:17.96	26.78	13.16	-59.8	-75.9	3.8	1.49e+00	0	29	104	0	84	24781
2026-01-04 00:00:18.95	26.82	13.25	-59.8	-75.9	3.8	1.49e+00	0	28	104	0	84	24714
2026-01-04 00:00:19.96	26.87	13.35	-59.8	-75.9	3.8	1.49e+00	0	29	104	0	84	24754
2026-01-04 00:00:20.96	26.91	13.45	-59.8	-75.9	3.8	1.49e+00	0	29	104	0	84	24712
2026-01-04 00:00:21.95	26.96	13.54	-59.8	-75.9	3.8	1.49e+00	0	29	104	0	84	24697
2026-01-04 00:00:22.96	27.01	13.64	-59.8	-75.9	3.8	1.49e+00	0	29	104	0	84	24755
2026-01-04 00:00:23.96	27.05	13.74	-59.8	-75.9	3.8	1.49e+00	0	29	104	0	84	24765
2026-01-04 00:00:24.96	27.10	13.84	-59.8	-75.9	3.8	1.49e+00	0	29	104	0	84	24729
2026-01-04 00:00:25.96	27.15	13.94	-59.8	-75.9	3.8	1.49e+00	0	29	104	0	84	24750
2026-01-04 00:00:26.97	27.19	14.04	-59.8	-75.9	3.8	1.49e+00	0	29	104	0	84	24758
2026-01-04 00:00:27.96	27.24	14.13	-59.8	-75.9	3.8	1.49e+00	0	29	104	0	84	24698
2026-01-04 00:00:28.96	27.29	14.23	-59.8	-75.9	3.8	1.49e+00	0	29	104	0	84	24729
2026-01-04 00:00:29.96	27.34	14.33	-59.8	-75.9	3.8	1.49e+00	0	29	104	0	84	24776
2026-01-04 00:00:30.95	27.38	14.43	-59.8	-75.9	3.8	1.49e+00	0	29	104	0	84	24706
2026-01-04 00:00:31.95	27.43	14.54	-59.8	-75.9	3.8	1.49e+00	0	29	104	0	84	24710
2026-01-04 00:00:32.95	27.48	14.64	-59.8	-75.8	3.8	1.49e+00	0	29	104	0	84	24673
2026-01-04 00:00:33.95	27.53	14.74	-59.8	-75.9	3.8	1.49e+00	0	29	104	0	84	24715
2026-01-04 00:00:34.95	27.58	14.84	-59.8	-75.9	3.8	1.49e+00	0	29	104	0	84	24734
2026-01-04 00:00:35.95	27.63	14.94	-59.8	-75.8	3.8	1.49e+00	0	29	104	0	84	24659
2026-01-04 00:00:36.92	27.68	15.04	-59.8	-75.8	3.8	1.49e+00	0	29	104	0	84	24684
2026-01-04 00:00:37.92	27.73	15.15	-59.8	-75.8	3.9	1.49e+00	0	29	104	0	84	24621
2026-01-04 00:00:38.92	27.78	15.25	-59.8	-75.8	3.8	1.49e+00	0	29	104	0	84	24636
2026-01-04 00:00:39.92	27.83	15.36	-59.8	-75.8	3.8	1.49e+00	0	29	104	0	84	24629
2026-01-04 00:00:40.91	27.88	15.46	-59.8	-75.8	3.8	1.49e+00	0	29	104	0	84	24652
2026-01-04 00:00:41.91	27.94	15.56	-59.8	-75.9	3.8	1.49e+00	0	29	104	0	84	24748
2026-01-04 00:00:42.91	27.99	15.67	-59.8	-75.8	3.8	1.49e+00	0	29	104	0	84	24669
2026-01-04 00:00:43.91	28.04	15.78	-59.8	-75.9	3.8	1.49e+00	0	29	104	0	84	24699
2026-01-04 00:00:44.91	28.09	15.88	-59.8	-75.9	3.8	1.49e+00	0	29	104	0	84	24697
2026-01-04 00:00:45.90	28.15	15.99	-59.8	-75.8	3.8	1.49e+00	0	29	104	0	84	24634
2026-01-04 00:00:46.90	28.20	16.10	-59.8	-75.8	3.8	1.49e+00	0	29	104	0	84	24607
2026-01-04 00:00:47.90	28.25	16.20	-59.8	-75.8	3.8	1.49e+00	0	29	104	0	84	24577
2026-01-04 00:00:48.90	28.31	16.31	-59.8	-75.8	3.8	1.49e+00	0	29	104	0	84	24608
2026-01-04 00:00:49.90	28.36	16.42	-59.8	-75.8	3.8	1.49e+00	0	29	104	0	84	24631
2026-01-04 00:00:50.90	28.42	16.53	-59.8	-75.8	3.8	1.49e+00	0	29	104	0	84	24679
2026-01-04 00:00:51.90	28.47	16.64	-59.8	-75.8	3.8	1.49e+00	0	29	104	0	84	24622
2026-01-04 00:00:52.90	28.53	16.75	-59.8	-75.9	3.8	1.49e+00	0	29	104	0	84	24699
2026-01-04 00:00:53.89	28.58	16.86	-59.8	-75.8	3.8	1.49e+00	0	29	104	0	84	24590
2026-01-04 00:00:54.90	28.64	16.97	-59.8	-75.8	3.8	1.49e+00	0	29	104	0	84	24631
2026-01-04 00:00:55.89	28.70	17.08	-59.8	-75.8	3.8	1.49e+00	0	29	104	0	84	24648
2026-01-04 00:00:56.89	28.76	17.20	-59.8	-75.8	3.8	1.49e+00	0	29	104	0	84	24669
2026-01-04 00:00:57.89	28.81	17.31	-59.8	-75.8	3.8	1.49e+00	0	29	104	0	84	24632
2026-01-04 00:00:58.88	28.87	17.42	-59.8	-75.8	3.8	1.49e+00	0	29	104	0	84	24595
2026-01-04 00:00:59.88	28.93	17.54	-59.8	-75.8	3.8	1.49e+00	0	29	104	0	84	24629
2026-01-04 00:01:00.88	28.99	17.65	-59.8	-75.9	3.8	1.49e+00	0	29	104	0	84	24722
2026-01-04 00:01:01.87	29.05	17.76	-59.8	-75.8	3.8	1.49e+00	0	29	104	0	84	24609
2026-01-04 00:01:02.87	29.11	17.88	-59.8	-75.8	3.8	1.49e+00	0	29	104	0	84	24633
2026-01-04 00:01:03.87	29.17	17.99	-59.8	-75.8	3.8	1.49e+00	0	29	104	0	84	24641
2026-01-04 00:01:04.86	29.23	18.11	-59.8	-75.8	3.8	1.49e+00	0	29	104	0	84	24601
2026-01-04 00:01:05.85	29.29	18.22	-59.8	-75.8	3.8	1.49e+00	0	29	104	0	84	24576
2026-01-04 00:01:06.85	29.35	18.34	-59.8	-75.8	3.8	1.49e+00	0	29	104	0	84	24604
2026-01-04 00:01:07.84	29.41	18.46	-59.8	-75.8	3.8	1.49e+00	0	29	104	0	84	24638
2026-01-04 00:01:08.84	29.47	18.58	-59.8	-75.8	3.8	1.49e+00	0	29	104	0	84	24528
2026-01-04 00:01:09.84	29.54	18.70	-59.8	-75.8	3.8	1.49e+00	0	29	104	0	84	24575
2026-01-04 00:01:10.84	29.60	18.82	-59.8	-75.8	3.8	1.49e+00	0	29	104	0	84	24649
2026-01-04 00:01:11.84	29.66	18.94	-59.8	-75.8	3.8	1.49e+00	0	29	104	0	84	24596
2026-01-04 00:01:12.84	29.73	19.06	-59.8	-75.8	3.8	1.49e+00	0	29	104	0	84	24630
2026-01-04 00:01:13.84	29.79	19.18	-59.8	-75.8	3.8	1.49e+00	0	29	104	0	84	24556
2026-01-04 00:01:14.84	29.86	19.30	-59.8	-75.8	3.8	1.49e+00	0	29	104	0	84	24533
2026-01-04 00:01:15.85	29.92	19.42	-59.7	-75.8	3.8	1.49e+00	0	29	104	0	84	24597
2026-01-04 00:01:16.85	29.99	19.55	-59.7	-75.8	3.8	1.49e+00	0	29	104	0	84	24574
2026-01-04 00:01:17.85	30.06	19.67	-59.8	-75.8	3.8	1.49e+00	0	29	104	0	84	24543
2026-01-04 00:01:18.84	30.12	19.79	-59.8	-75.8	3.8	1.49e+00	0	29	104	0	84	24504
2026-01-04 00:01:19.84	30.19	19.92	-59.8	-75.8	3.8	1.49e+00	0	29	104	0	84	24437
2026-01-04 00:01:20.84	30.26	20.04	-59.8	-75.7	3.8	1.49e+00	0	29	104	0	84	24364
2026-01-04 00:01:21.84	30.33	20.17	-59.8	-75.7	3.8	1.49e+00	0	29	104	0	84	24375
2026-01-04 00:01:22.83	30.40	20.29	-59.8	-75.8	3.8	1.49e+00	0	29	104	0	84	24442
2026-01-04 00:01:23.83	30.47	20.42	-59.8	-75.8	3.8	1.49e+00	0	29	104	0	84	24570
2026-01-04 00:01:24.83	30.54	20.55	-59.8	-75.8	3.8	1.49e+00	0	29	104	0	84	24587
2026-01-04 00:01:25.84	30.61	20.68	-59.7	-75.8	3.8	1.49e+00	0	29	104	0	84	24583
2026-01-04 00:01:26.84	30.68	20.81	-59.8	-75.8	3.8	1.49e+00	0	29	104	0	84	24684
2026-01-04 00:01:27.84	30.75	20.94	-59.8	-75.8	3.8	1.49e+00	0	29	104	0	84	24587
2026-01-04 00:01:28.84	30.82	21.07	-59.8	-75.8	3.8	1.49e+00	0	29	104	0	84	24570
2026-01-04 00:01:29.84	30.90	21.20	-59.8	-75.8	3.8	1.49e+00	0	29	104	0	84	24651
2026-01-04 00:01:30.84	30.97	21.33	-59.8	-75.8	3.8	1.49e+00	0	29	104	0	84	24608
2026-01-04 00:01:31.84	31.04	21.46	-59.7	-75.8	3.8	1.49e+00	0	29	104	0	84	24481
2026-01-04 00:01:32.85	31.12	21.59	-59.7	-75.7	3.8	1.49e+00	0	29	104	0	84	24406
2026-01-04 00:01:33.85	31.20	21.73	-59.7	-75.7	3.8	1.49e+00	0	29	104	0	84	24326
2026-01-04 00:01:34.85	31.27	21.86	-59.7	-75.7	3.8	1.49e+00	0	29	104	0	84	24314
2026-01-04 00:01:35.85	31.35	22.00	-59.7	-75.7	3.8	1.49e+00	0	29	104	0	84	24351
2026-01-04 00:01:36.85	31.43	22.13	-59.7	-75.7	3.8	1.49e+00	0	29	104	0	84	24320
2026-01-04 00:01:37.84	31.50	22.27	-59.8	-75.7	3.8	1.49e+00	0	29	104	0	84	24385
2026-01-04 00:01:38.84	31.58	22.40	-59.7	-75.7	3.8	1.49e+00	0	29	104	0	84	24309
2026-01-04 00:01:39.84	31.66	22.54	-59.7	-75.7	3.8	1.49e+00	0	29	104	0	84	24295
2026-01-04 00:01:40.85	31.74	22.68	-59.7	-75.7	3.8	1.49e+00	0	29	104	0	84	24354
2026-01-04 00:01:41.84	31.82	22.82	-59.7	-75.7	3.8	1.49e+00	0	29	104	0	84	24401
2026-01-04 00:01:42.84	31.90	22.96	-59.7	-75.8	3.8	1.49e+00	0	29	104	0	84	24581
2026-01-04 00:01:43.84	31.98	23.10	-59.7	-75.8	3.8	1.49e+00	0	29	104	0	84	24475
2026-01-04 00:01:44.84	32.07	23.24	-59.7	-75.8	3.8	1.49e+00	0	29	104	0	84	24580
2026-01-04 00:01:45.83	32.15	23.38	-59.7	-75.8	3.8	1.49e+00	0	29	104	0	84	24529
2026-01-04 00:01:46.83	32.23	23.52	-59.7	-75.8	3.8	1.49e+00	0	29	104	0	84	24538
2026-01-04 00:01:47.83	32.32	23.66	-59.7	-75.8	3.8	1.49e+00	0	29	104	0	84	24451
2026-01-04 00:01:48.83	32.40	23.81	-59.7	-75.8	3.8	1.49e+00	0	29	104	0	84	24515
2026-01-04 00:01:49.83	32.49	23.95	-59.7	-75.8	3.8	1.49e+00	0	29	104	0	84	24545
2026-01-04 00:01:50.84	32.58	24.10	-59.7	-75.8	3.8	1.49e+00	0	29	104	0	84	24551
2026-01-04 00:01:51.84	32.67	24.24	-59.7	-75.8	3.8	1.49e+00	0	29	104	0	84	24508
2026-01-04 00:01:52.84	32.76	24.39	-59.7	-75.8	3.8	1.49e+00	0	29	104	0	84	24437
2026-01-04 00:01:53.84	32.84	24.54	-59.7	-75.7	3.8	1.49e+00	0	29	104	0	84	24407
2026-01-04 00:01:54.83	32.93	24.68	-59.7	-75.8	3.8	1.49e+00	0	29	104	0	84	24494
2026-01-04 00:01:55.83	33.03	24.83	-59.7	-75.8	3.8	1.49e+00	0	29	104	0	84	24550
2026-01-04 00:01:56.83	33.12	24.98	-59.7	-75.8	3.8	1.49e+00	0	29	104	0	84	24490
2026-01-04 00:01:57.83	33.21	25.13	-59.7	-75.8	3.8	1.49e+00	0	29	104	0	84	24505
2026-01-04 00:01:58.83	33.30	25.29	-59.7	-75.8	3.8	1.49e+00	0	29	104	0	84	24480
2026-01-04 00:01:59.82	33.40	25.44	-59.7	-75.8	3.8	1.49e+00	0	29	104	0	84	24467
2026-01-04 00:02:00.82	33.49	25.59	-59.7	-75.8	3.8	1.49e+00	0	29	104	0	84	24490
2026-01-04 00:02:01.82	33.59	25.74	-59.7	-75.8	3.8	1.49e+00	0	29	104	0	84	24511
2026-01-04 00:02:02.82	33.69	25.90	-59.7	-75.8	3.8	1.49e+00	0	29	104	0	84	24484
2026-01-04 00:02:03.81	33.78	26.05	-59.7	-75.8	3.8	1.49e+00	0	29	104	0	84	24435
2026-01-04 00:02:04.82	33.88	26.21	-59.7	-75.8	3.8	1.49e+00	0	29	104	0	84	24417
2026-01-04 00:02:05.81	33.98	26.36	-59.7	-75.7	3.8	1.49e+00	0	29	104	0	84	24364
2026-01-04 00:02:06.81	34.08	26.52	-59.7	-75.8	3.8	1.49e+00	0	29	104	0	84	24425
2026-01-04 00:02:07.81	34.18	26.68	-59.7	-75.7	3.8	1.49e+00	0	29	104	0	84	24388
2026-01-04 00:02:08.81	34.29	26.84	-59.7	-75.8	3.8	1.49e+00	0	29	104	0	84	24428
2026-01-04 00:02:09.81	34.39	27.00	-59.7	-75.8	3.8	1.49e+00	0	29	104	0	84	24453
2026-01-04 00:02:10.79	34.49	27.16	-59.7	-75.8	3.8	1.49e+00	0	29	104	0	84	24523
2026-01-04 00:02:11.80	34.60	27.32	-59.7	-75.8	3.8	1.49e+00	0	29	104	0	84	24438
2026-01-04 00:02:12.79	34.71	27.49	-59.7	-75.8	3.8	1.49e+00	0	29	104	0	84	24473
2026-01-04 00:02:13.79	34.81	27.65	-59.7	-75.8	3.8	1.49e+00	0	29	104	0	84	24453
2026-01-04 00:02:14.79	34.92	27.81	-59.7	-75.8	3.8	1.49e+00	0	29	104	0	84	24488
2026-01-04 00:02:15.79	35.03	27.98	-59.7	-75.8	3.8	1.49e+00	0	29	104	0	84	24538
2026-01-04 00:02:16.79	35.14	28.15	-59.7	-75.8	3.9	1.49e+00	0	29	104	0	84	24458
2026-01-04 00:02:17.79	35.26	28.31	-59.7	-75.8	3.8	1.49e+00	0	29	104	0	84	24504
2026-01-04 00:02:18.80	35.37	28.48	-59.7	-75.8	3.8	1.49e+00	0	29	104	0	84	24457
2026-01-04 00:02:19.79	35.48	28.65	-59.7	-75.8	3.8	1.49e+00	0	29	104	0	84	24436
2026-01-04 00:02:20.79	35.60	28.82	-59.7	-75.8	3.8	1.49e+00	0	29	104	0	84	24494
2026-01-04 00:02:21.79	35.72	28.99	-59.7	-75.7	3.8	1.49e+00	0	29	104	0	84	24380
2026-01-04 00:02:22.79	35.83	29.17	-59.7	-75.8	3.8	1.49e+00	0	29	104	0	84	24418
2026-01-04 00:02:23.79	35.95	29.34	-59.7	-75.8	3.9	1.49e+00	0	29	104	0	84	24487
2026-01-04 00:02:24.79	36.07	29.51	-59.7	-75.8	3.8	1.49e+00	0	29	104	0	84	24473
2026-01-04 00:02:25.79	36.19	29.69	-59.7	-75.8	3.8	1.49e+00	0	29	104	0	84	24428
2026-01-04 00:02:26.80	36.32	29.86	-59.7	-75.8	3.8	1.49e+00	0	29	104	0	84	24480
2026-01-04 00:02:27.80	36.44	30.04	-59.7	-75.8	3.8	1.49e+00	0	29	104	0	84	24527
2026-01-04 00:02:28.80	36.57	30.22	-59.7	-75.8	3.8	1.49e+00	0	29	104	0	84	24426
2026-01-04 00:02:29.80	36.70	30.40	-59.7	-75.8	3.8	1.49e+00	0	29	104	0	84	24434
2026-01-04 00:02:30.80	36.82	30.58	-59.7	-75.8	3.9	1.49e+00	0	29	104	0	84	24485
2026-01-04 00:02:31.79	36.95	30.76	-59.7	-75.8	3.8	1.49e+00	0	29	104	0	84	24464
2026-01-04 00:02:32.79	37.08	30.94	-59.7	-75.8	3.8	1.49e+00	0	29	104	0	84	24456
2026-01-04 00:02:33.79	37.22	31.12	-59.7	-75.8	3.8	1.49e+00	0	29	104	0	84	24445
2026-01-04 00:02:34.79	37.35	31.30	-59.7	-75.8	3.8	1.49e+00	0	29	104	0	84	24414
2026-01-04 00:02:35.79	37.49	31.49	-59.7	-75.7	3.8	1.49e+00	0	29	104	0	84	24373
2026-01-04 00:02:36.79	37.62	31.68	-59.7	-75.8	3.8	1.49e+00	0	29	104	0	84	24483
2026-01-04 00:02:37.79	37.76	31.86	-59.7	-75.8	3.8	1.49e+00	0	29	104	0	84	24427
2026-01-04 00:02:38.79	37.90	32.05	-59.7	-75.8	3.8	1.49e+00	0	29	104	0	84	24461
2026-01-04 00:02:39.78	38.04	32.24	-59.7	-75.8	3.8	1.49e+00	0	29	104	0	84	24500
2026-01-04 00:02:40.79	38.19	32.43	-59.7	-75.7	3.8	1.49e+00	0	29	104	0	84	24405
2026-01-04 00:02:41.78	38.33	32.62	-59.7	-75.7	3.8	1.49e+00	0	29	104	0	84	24395
2026-01-04 00:02:42.79	38.48	32.81	-59.7	-75.7	3.8	1.49e+00	0	29	104	0	84	24404
2026-01-04 00:02:43.79	38.63	33.00	-59.7	-75.7	3.8	1.49e+00	0	29	104	0	84	24404
2026-01-04 00:02:44.80	38.78	33.20	-59.7	-75.7	3.8	1.49e+00	0	29	104	0	84	24393
2026-01-04 00:02:45.79	38.93	33.39	-59.7	-75.8	3.8	1.49e+00	0	29	104	0	84	24412
2026-01-04 00:02:46.79	39.08	33.59	-59.7	-75.7	3.8	1.49e+00	0	29	104	0	84	24397
2026-01-04 00:02:47.80	39.24	33.79	-59.7	-75.7	3.8	1.49e+00	0	29	104	0	84	24345
2026-01-04 00:02:48.80	39.40	33.99	-59.7	-75.7	3.8	1.49e+00	0	29	104	0	84	24407
2026-01-04 00:02:49.80	39.56	34.18	-59.7	-75.7	3.8	1.49e+00	0	29	104	0	84	24378
2026-01-04 00:02:50.80	39.72	34.38	-59.7	-75.8	3.8	1.49e+00	0	29	104	0	84	24411
2026-01-04 00:02:51.79	39.88	34.58	-59.7	-75.7	3.8	1.49e+00	0	29	104	0	84	24362
2026-01-04 00:02:52.79	40.04	34.79	-59.7	-75.7	3.8	1.49e+00	0	29	104	0	84	24358
2026-01-04 00:02:53.78	40.21	34.99	-59.7	-75.7	3.8	1.49e+00	0	29	104	0	84	24408
2026-01-04 00:02:54.78	40.38	35.19	-59.7	-75.7	3.8	1.49e+00	0	29	104	0	84	24386
2026-01-04 00:02:55.78	40.55	35.40	-59.7	-75.7	3.8	1.49e+00	0	29	104	0	84	24363
2026-01-04 00:02:56.77	40.72	35.60	-59.7	-75.7	3.8	1.49e+00	0	29	104	0	84	24364
2026-01-04 00:02:57.77	40.89	35.81	-59.7	-75.7	3.8	1.49e+00	0	29	104	0	84	24354
2026-01-04 00:02:58.76	41.07	36.02	-59.7	-75.7	3.8	1.49e+00	0	29	104	0	84	24366
2026-01-04 00:02:59.75	41.25	36.22	-59.7	-75.7	3.8	1.49e+00	0	29	104	0	84	24331
2026-01-04 00:03:00.75	41.43	36.43	-59.7	-75.7	3.8	1.49e+00	0	29	104	0	84	24336
2026-01-04 00:03:01.75	41.61	36.65	-59.7	-75.7	3.8	1.49e+00	0	29	104	0	84	24387
2026-01-04 00:03:02.74	41.80	36.86	-59.7	-75.7	3.8	1.49e+00	0	29	104	0	84	24337
2026-01-04 00:03:03.74	41.99	37.07	-59.7	-75.7	3.8	1.49e+00	0	29	104	0	84	24317
2026-01-04 00:03:04.74	42.18	37.29	-59.7	-75.7	3.8	1.49e+00	0	29	104	0	84	24368
2026-01-04 00:03:05.73	42.37	37.50	-59.7	-75.7	3.8	1.49e+00	0	29	104	0	84	24302
2026-01-04 00:03:06.73	42.57	37.72	-59.7	-75.7	3.8	1.49e+00	0	29	104	0	84	24334
2026-01-04 00:03:07.73	42.77	37.93	-59.7	-75.7	3.8	1.49e+00	0	29	104	0	84	24336
2026-01-04 00:03:08.72	42.97	38.15	-59.6	-75.7	3.8	1.49e+00	0	29	104	0	84	24301
2026-01-04 00:03:09.72	43.17	38.37	-59.7	-75.7	3.8	1.49e+00	0	29	104	0	84	24293
2026-01-04 00:03:10.71	43.38	38.59	-59.7	-75.7	3.8	1.49e+00	0	29	104	0	84	24302
2026-01-04 00:03:11.71	43.58	38.81	-59.7	-75.7	3.8	1.49e+00	0	29	104	0	84	24335
2026-01-04 00:03:12.71	43.80	39.04	-59.6	-75.7	3.8	1.49e+00	0	29	104	0	84	24296
2026-01-04 00:03:13.71	44.01	39.26	-59.6	-75.7	3.8	1.49e+00	0	29	104	0	84	24305
2026-01-04 00:03:14.70	44.23	39.48	-59.7	-75.7	3.8	1.49e+00	0	29	104	0	84	24278
2026-01-04 00:03:15.70	44.45	39.71	-59.7	-75.7	3.8	1.49e+00	0	29	104	0	84	24301
2026-01-04 00:03:16.69	44.67	39.94	-59.6	-75.7	3.8	1.49e+00	0	29	104	0	84	24270
2026-01-04 00:03:17.69	44.90	40.16	-59.6	-75.7	3.8	1.49e+00	0	29	104	0	84	24288
2026-01-04 00:03:18.70	45.13	40.40	-59.6	-75.7	3.8	1.49e+00	0	29	104	0	84	24279
2026-01-04 00:03:19.70	45.37	40.63	-59.6	-75.7	3.8	1.49e+00	0	29	104	0	84	24309
2026-01-04 00:03:20.70	45.60	40.86	-59.6	-75.7	3.8	1.49e+00	0	29	104	0	84	24240
2026-01-04 00:03:21.70	45.84	41.09	-59.6	-75.7	3.8	1.49e+00	0	29	104	0	84	24199
2026-01-04 00:03:22.70	46.09	41.32	-59.6	-75.7	3.8	1.49e+00	0	29	104	0	84	24280
2026-01-04 00:03:23.71	46.34	41.56	-59.6	-75.7	3.8	1.49e+00	0	29	104	0	84	24304
2026-01-04 00:03:24.71	46.59	41.79	-59.6	-75.7	3.8	1.49e+00	0	29	104	0	84	24306
2026-01-04 00:03:25.71	46.84	42.03	-59.6	-75.7	3.8	1.49e+00	0	29	104	0	84	24250
2026-01-04 00:03:26.71	47.10	42.27	-59.6	-75.7	3.8	1.49e+00	0	29	104	0	84	24311
2026-01-04 00:03:27.71	47.36	42.51	-59.6	-75.7	3.8	1.49e+00	0	29	104	0	84	24240
2026-01-04 00:03:28.72	47.63	42.75	-59.6	-75.7	3.8	1.49e+00	0	29	104	0	84	24242
2026-01-04 00:03:29.71	47.90	42.98	-59.6	-75.7	3.8	1.49e+00	0	29	104	0	84	24240
2026-01-04 00:03:30.72	48.18	43.23	-59.6	-75.7	3.8	1.49e+00	0	29	104	0	84	24265
2026-01-04 00:03:31.72	48.45	43.47	-59.6	-75.7	3.8	1.49e+00	0	29	104	0	84	24284
2026-01-04 00:03:32.72	48.74	43.71	-59.6	-75.7	3.8	1.49e+00	0	29	104	0	84	24215
2026-01-04 00:03:33.72	49.02	43.95	-59.6	-75.7	3.8	1.49e+00	0	29	104	0	84	24187
2026-01-04 00:03:34.72	49.31	44.20	-59.6	-75.7	3.8	1.49e+00	0	29	104	0	84	24258
2026-01-04 00:03:35.72	49.61	44.44	-59.6	-75.7	3.8	1.49e+00	0	29	104	0	84	24237
2026-01-04 00:03:36.72	49.91	44.69	-59.6	-75.7	3.8	1.49e+00	0	29	104	0	84	24192
2026-01-04 00:03:37.71	50.21	44.93	-59.6	-75.7	3.8	1.49e+00	0	29	104	0	84	24242
2026-01-04 00:03:38.71	50.52	45.17	-59.6	-75.7	3.8	1.49e+00	0	29	104	0	84	24163
2026-01-04 00:03:39.71	50.83	45.42	-59.6	-75.7	3.8	1.49e+00	0	29	104	0	84	24203
2026-01-04 00:03:40.71	51.15	45.67	-59.6	-75.7	3.8	1.49e+00	0	29	104	0	84	24224
2026-01-04 00:03:41.72	51.48	45.92	-59.6	-75.7	3.8	1.49e+00	0	29	104	0	84	24131
2026-01-04 00:03:42.71	51.80	46.17	-59.6	-75.7	3.8	1.49e+00	0	29	104	0	84	24183
2026-01-04 00:03:43.70	52.13	46.41	-59.6	-75.7	3.8	1.49e+00	0	29	104	0	84	24225
2026-01-04 00:03:44.70	52.47	46.66	-59.6	-75.7	3.8	1.49e+00	0	29	104	0	84	24163
2026-01-04 00:03:45.70	52.82	46.91	-59.6	-75.7	3.8	1.49e+00	0	29	104	0	84	24186
2026-01-04 00:03:46.69	53.16	47.16	-59.6	-75.7	3.8	1.49e+00	0	29	104	0	84	24231
2026-01-04 00:03:47.69	53.52	47.41	-59.6	-75.7	3.8	1.49e+00	0	29	104	0	84	24227
2026-01-04 00:03:48.69	53.88	47.66	-59.6	-75.7	3.8	1.49e+00	0	29	104	0	84	24147
2026-01-04 00:03:49.69	54.25	47.91	-59.6	-75.7	3.8	1.49e+00	0	29	104	0	84	24182
2026-01-04 00:03:50.69	54.62	48.16	-59.6	-75.7	3.8	1.49e+00	0	29	104	0	84	24240
2026-01-04 00:03:51.69	55.00	48.42	-59.6	-75.7	3.8	1.49e+00	0	29	104	0	84	24147
2026-01-04 00:03:52.68	55.38	48.67	-59.6	-75.7	3.8	1.49e+00	0	29	104	0	84	24172
2026-01-04 00:03:53.69	55.77	48.92	-59.6	-75.7	3.8	1.49e+00	0	29	104	0	84	24185
2026-01-04 00:03:54.69	56.17	49.17	-59.6	-75.7	3.8	1.49e+00	0	29	104	0	84	24187
2026-01-04 00:03:55.69	56.57	49.42	-59.6	-75.7	3.8	1.49e+00	0	29	104	0	84	24156
2026-01-04 00:03:56.69	56.99	49.68	-59.6	-75.7	3.8	1.49e+00	0	29	104	0	84	24214
2026-01-04 00:03:57.69	57.40	49.93	-59.6	-75.6	3.8	1.49e+00	0	29	104	0	84	24107
2026-01-04 00:03:58.69	57.83	50.18	-59.6	-75.7	3.8	1.49e+00	0	29	104	0	84	24142
2026-01-04 00:03:59.69	58.26	50.43	-59.6	-75.7	3.8	1.49e+00	0	29	104	0	84	24191
2026-01-04 00:04:00.69	58.70	50.68	-59.6	-75.7	3.8	1.49e+00	0	29	104	0	84	24157
2026-01-04 00:04:01.69	59.14	50.93	-59.6	-75.7	3.8	1.49e+00	0	29	104	0	84	24166
2026-01-04 00:04:02.69	59.60	51.18	-59.6	-75.7	3.8	1.49e+00	0	29	104	0	84	24156
2026-01-04 00:04:03.69	60.06	51.43	-59.6	-75.6	3.8	1.49e+00	0	29	104	0	84	24125
2026-01-04 00:04:04.68	60.52	51.68	-59.6	-75.7	3.9	1.49e+00	0	29	104	0	84	24166
2026-01-04 00:04:05.67	60.99	51.92	-59.6	-75.6	3.8	1.49e+00	0	29	104	0	84	24104
2026-01-04 00:04:06.66	61.47	52.17	-59.6	-75.7	3.8	1.49e+00	0	29	104	0	84	24137
2026-01-04 00:04:07.66	61.96	52.42	-59.6	-75.7	3.8	1.49e+00	0	29	104	0	84	24153
2026-01-04 00:04:08.66	62.46	52.66	-59.6	-75.7	3.8	1.49e+00	0	29	104	0	84	24140
2026-01-04 00:04:09.66	62.97	52.91	-59.6	-75.6	3.8	1.49e+00	0	29	104	0	84	24130
2026-01-04 00:04:10.65	63.48	53.15	-59.6	-75.6	3.8	1.49e+00	0	29	104	0	84	24081
2026-01-04 00:04:11.65	64.01	53.39	-59.6	-75.7	3.8	1.49e+00	0	29	104	0	84	24148
2026-01-04 00:04:12.65	64.55	53.63	-59.6	-75.6	3.8	1.49e+00	0	29	104	0	84	24068
2026-01-04 00:04:13.65	65.09	53.87	-59.6	-75.6	3.8	1.49e+00	0	29	104	0	84	24102
2026-01-04 00:04:14.65	65.64	54.11	-59.6	-75.6	3.8	1.49e+00	0	29	104	0	84	24089
2026-01-04 00:04:15.65	66.20	54.35	-59.6	-75.6	3.8	1.49e+00	0	29	104	0	84	24088
2026-01-04 00:04:16.64	66.77	54.58	-59.6	-75.6	3.8	1.49e+00	0	29	104	0	84	24120
2026-01-04 00:04:17.65	67.35	54.81	-59.6	-75.6	3.8	1.49e+00	0	29	104	0	84	24103
2026-01-04 00:04:18.64	67.94	55.04	-59.6	-75.6	3.8	1.49e+00	0	29	104	0	84	24009
2026-01-04 00:04:19.64	68.54	55.27	-59.6	-75.6	3.8	1.49e+00	0	29	104	0	84	24078
2026-01-04 00:04:20.64	69.14	55.50	-59.6	-75.6	3.8	1.49e+00	0	29	104	0	84	24046
2026-01-04 00:04:21.63	69.76	55.72	-59.6	-75.6	3.8	1.49e+00	0	29	104	0	84	24045
2026-01-04 00:04:22.63	70.38	55.95	-59.6	-75.6	3.8	1.49e+00	0	29	104	0	84	24114
2026-01-04 00:04:23.63	71.02	56.17	-59.6	-75.6	3.8	1.49e+00	0	29	104	0	84	24040
2026-01-04 00:04:24.62	71.67	56.38	-59.6	-75.6	3.8	1.49e+00	0	29	104	0	84	24047
2026-01-04 00:04:25.61	72.32	56.60	-59.6	-75.6	3.8	1.49e+00	0	29	104	0	84	24039
2026-01-04 00:04:26.61	72.99	56.81	-59.5	-75.6	3.8	1.49e+00	0	29	104	0	84	24026
2026-01-04 00:04:27.62	73.67	57.02	-59.5	-75.6	3.8	1.49e+00	0	29	104	0	84	24060
2026-01-04 00:04:28.62	74.36	57.23	-59.6	-75.6	3.8	1.49e+00	0	29	104	0	84	24057
2026-01-04 00:04:29.62	75.06	57.43	-59.6	-75.6	3.8	1.49e+00	0	29	104	0	84	24044
2026-01-04 00:04:30.63	75.78	57.63	-59.6	-75.6	3.8	1.49e+00	0	29	104	0	84	24047
2026-01-04 00:04:31.62	76.49	57.83	-59.6	-75.6	3.8	1.49e+00	0	29	104	0	84	24026
2026-01-04 00:04:32.62	77.22	58.02	-59.6	-75.6	3.8	1.49e+00	0	29	104	0	84	24016
2026-01-04 00:04:33.62	77.96	58.21	-59.5	-75.6	3.8	1.49e+00	0	29	104	0	84	24042
2026-01-04 00:04:34.62	78.71	58.39	-59.5	-75.6	3.8	1.49e+00	0	29	104	0	84	23987
2026-01-04 00:04:35.62	79.48	58.57	-59.5	-75.6	3.8	1.49e+00	0	29	104	0	84	23886
2026-01-04 00:04:36.63	80.26	58.75	-59.5	-75.6	3.8	1.49e+00	0	29	104	0	84	23991
2026-01-04 00:04:37.63	81.04	58.92	-59.5	-75.6	3.8	1.49e+00	0	29	104	0	84	23970
2026-01-04 00:04:38.63	81.83	59.09	-59.5	-75.6	3.8	1.49e+00	0	29	104	0	84	23960
2026-01-04 00:04:39.63	82.64	59.26	-59.5	-75.6	3.8	1.49e+00	0	29	104	0	84	23976
2026-01-04 00:04:40.62	83.44	59.41	-59.5	-75.6	3.8	1.49e+00	0	29	104	0	84	23979
2026-01-04 00:04:41.62	84.26	59.57	-59.5	-75.6	3.8	1.49e+00	0	29	104	0	84	23947
2026-01-04 00:04:42.61	85.09	59.72	-59.5	-75.6	3.8	1.49e+00	0	29	104	0	84	23980
2026-01-04 00:04:43.61	85.93	59.86	-59.5	-75.6	3.8	1.49e+00	0	29	104	0	84	23875
2026-01-04 00:04:44.61	86.78	60.00	-59.5	-75.6	3.8	1.49e+00	0	29	104	0	84	23928
2026-01-04 00:04:45.61	87.64	60.13	-59.5	-75.6	3.8	1.49e+00	0	29	104	0	84	23892
2026-01-04 00:04:46.60	88.50	60.26	-59.5	-75.6	3.8	1.49e+00	0	29	104	0	84	23947
2026-01-04 00:04:47.61	89.38	60.38	-59.5	-75.6	3.8	1.49e+00	0	29	104	0	84	23966
2026-01-04 00:04:48.61	90.27	60.50	-59.5	-75.6	3.8	1.49e+00	0	29	104	0	84	23944
2026-01-04 00:04:49.61	91.16	60.61	-59.5	-75.6	3.8	1.49e+00	0	29	104	0	84	23907
2026-01-04 00:04:50.60	92.05	60.71	-59.5	-75.6	3.8	1.49e+00	0	29	104	0	84	23950
2026-01-04 00:04:51.60	92.96	60.81	-59.5	-75.6	3.8	1.49e+00	0	29	104	0	84	23904
2026-01-04 00:04:52.61	93.88	60.91	-59.5	-75.6	3.8	1.49e+00	0	29	104	0	84	23967
2026-01-04 00:04:53.61	94.81	60.99	-59.5	-75.6	3.8	1.49e+00	0	29	104	0	84	23938
2026-01-04 00:04:54.61	95.73	61.07	-59.5	-75.6	3.8	1.49e+00	0	29	104	0	84	23887
2026-01-04 00:04:55.61	96.67	61.15	-59.5	-75.6	3.8	1.49e+00	0	29	104	0	84	23861
2026-01-04 00:04:56.61	97.61	61.21	-59.5	-75.6	3.8	1.49e+00	0	29	104	0	84	23892
2026-01-04 00:04:57.62	98.56	61.27	-59.5	-75.6	3.8	1.49e+00	0	29	104	0	84	23868
2026-01-04 00:04:58.62	99.51	61.33	-59.5	-75.5	3.8	1.49e+00	0	29	104	0	84	23832
2026-01-04 00:04:59.61	100.45	61.37	-59.5	-75.5	3.8	1.49e+00	0	29	104	0	84	23848
2026-01-04 00:05:00.61	101.40	61.41	-59.5	-75.5	3.9	1.49e+00	0	29	104	0	84	23848
2026-01-04 00:05:01.61	102.36	61.45	-59.5	-75.5	3.8	1.49e+00	0	29	104	0	84	23831
2026-01-04 00:05:02.61	103.32	61.47	-59.5	-75.5	3.8	1.49e+00	0	29	104	0	84	23814
2026-01-04 00:05:03.60	104.27	61.49	-59.5	-75.5	3.8	1.49e+00	0	29	104	0	84	23854
2026-01-04 00:05:04.60	105.23	61.51	-59.5	-75.5	3.8	1.49e+00	0	29	104	0	84	23848
2026-01-04 00:05:05.60	106.20	61.51	-59.5	-75.5	3.8	1.49e+00	0	29	104	0	84	23837
2026-01-04 00:05:06.59	107.15	61.51	-59.5	-75.5	3.8	1.49e+00	0	29	104	0	84	23843
2026-01-04 00:05:07.59	108.12	61.50	-59.5	-75.5	3.8	1.49e+00	0	29	104	0	84	23823
2026-01-04 00:05:08.59	109.08	61.49	-59.5	-75.5	3.8	1.49e+00	0	29	104	0	84	23802
2026-01-04 00:05:09.58	110.03	61.47	-59.5	-75.5	3.8	1.49e+00	0	29	104	0	84	23828
2026-01-04 00:05:10.57	110.98	61.44	-59.5	-75.5	3.8	1.49e+00	0	29	104	0	84	23811
2026-01-04 00:05:11.57	111.94	61.40	-59.5	-75.5	3.8	1.49e+00	0	29	104	0	84	23816
2026-01-04 00:05:12.56	112.88	61.36	-59.5	-75.5	3.8	1.49e+00	0	29	104	0	84	23803
2026-01-04 00:05:13.56	113.83	61.31	-59.5	-75.5	3.8	1.49e+00	0	29	104	0	84	23765
2026-01-04 00:05:14.55	114.77	61.26	-59.5	-75.5	3.8	1.49e+00	0	29	104	0	84	23819
2026-01-04 00:05:15.55	115.71	61.20	-59.5	-75.5	3.8	1.49e+00	0	29	104	0	84	23809
2026-01-04 00:05:16.54	116.64	61.13	-59.5	-75.5	3.8	1.49e+00	0	29	104	0	84	23771
2026-01-04 00:05:17.54	117.57	61.05	-59.5	-75.5	3.8	1.49e+00	0	29	104	0	84	23806
2026-01-04 00:05:18.54	118.50	60.97	-59.5	-75.5	3.8	1.49e+00	0	29	104	0	84	23779
2026-01-04 00:05:19.53	119.41	60.88	-59.5	-75.5	3.8	1.49e+00	0	29	104	0	84	23792
2026-01-04 00:05:20.53	120.32	60.79	-59.4	-75.5	3.8	1.49e+00	0	29	104	0	84	23794
2026-01-04 00:05:21.53	121.23	60.69	-59.4	-75.5	3.8	1.49e+00	0	29	104	0	84	23667
2026-01-04 00:05:22.53	122.13	60.58	-59.4	-75.5	3.8	1.49e+00	0	29	104	0	84	23703
2026-01-04 00:05:23.53	123.02	60.47	-59.4	-75.5	3.8	1.49e+00	0	29	104	0	84	23673
2026-01-04 00:05:24.53	123.91	60.35	-59.4	-75.5	3.8	1.49e+00	0	29	104	0	84	23727
2026-01-04 00:05:25.53	124.78	60.23	-59.4	-75.5	3.8	1.49e+00	0	29	104	0	84	23711
2026-01-04 00:05:26.53	125.65	60.10	-59.5	-75.5	3.8	1.49e+00	0	29	104	0	84	23663
2026-01-04 00:05:27.53	126.51	59.96	-59.4	-75.5	3.8	1.49e+00	0	29	104	0	84	23723
2026-01-04 00:05:28.53	127.35	59.82	-59.4	-75.5	3.8	1.49e+00	0	29	104	0	84	23682
2026-01-04 00:05:29.53	128.19	59.68	-59.4	-75.5	3.8	1.49e+00	0	29	104	0	84	23707
2026-01-04 00:05:30.52	129.02	59.53	-59.4	-75.5	3.8	1.49e+00	0	29	104	0	84	23712
2026-01-04 00:05:31.53	129.85	59.37	-59.4	-75.5	3.8	1.49e+00	0	29	104	0	84	23622
2026-01-04 00:05:32.52	130.65	59.21	-59.4	-75.5	3.8	1.49e+00	0	29	104	0	84	23696
2026-01-04 00:05:33.53	131.46	59.04	-59.4	-75.5	3.8	1.49e+00	0	29	104	0	84	23606
2026-01-04 00:05:34.53	132.25	58.88	-59.4	-75.5	3.8	1.49e+00	0	29	104	0	84	23650
2026-01-04 00:05:35.53	133.03	58.70	-59.4	-75.5	3.8	1.49e+00	0	29	104	0	84	23623
2026-01-04 00:05:36.52	133.79	58.52	-59.4	-75.5	3.8	1.49e+00	0	29	104	0	84	23591
2026-01-04 00:05:37.52	134.55	58.34	-59.4	-75.5	3.8	1.49e+00	0	29	104	0	84	23585
2026-01-04 00:05:38.51	135.29	58.16	-59.4	-75.5	3.8	1.49e+00	0	29	104	0	84	23627
2026-01-04 00:05:39.51	136.03	57.97	-59.4	-75.5	3.8	1.49e+00	0	29	104	0	84	23611
2026-01-04 00:05:40.51	136.76	57.77	-59.4	-75.5	3.8	1.49e+00	0	29	104	0	84	23629
2026-01-04 00:05:41.51	137.48	57.58	-59.4	-75.5	3.8	1.49e+00	0	29	104	0	84	23643
2026-01-04 00:05:42.51	138.19	57.37	-59.4	-75.5	3.8	1.49e+00	0	29	104	0	84	23633
2026-01-04 00:05:43.51	138.89	57.17	-59.4	-75.4	3.8	1.49e+00	0	29	104	0	84	23544
2026-01-04 00:05:44.51	139.57	56.96	-59.4	-75.5	3.8	1.49e+00	0	29	104	0	84	23597
2026-01-04 00:05:45.52	140.26	56.75	-59.4	-75.5	3.8	1.49e+00	0	29	104	0	84	23683
2026-01-04 00:05:46.52	140.93	56.54	-59.4	-75.5	3.8	1.49e+00	0	29	104	0	84	23604
2026-01-04 00:05:47.52	141.58	56.32	-59.4	-75.5	3.8	1.49e+00	0	29	104	0	84	23621
2026-01-04 00:05:48.52	142.23	56.10	-59.4	-75.5	3.8	1.49e+00	0	29	104	0	84	23601
2026-01-04 00:05:49.52	142.86	55.88	-59.4	-75.4	3.8	1.49e+00	0	29	104	0	84	23566
2026-01-04 00:05:50.52	143.49	55.66	-59.4	-75.4	3.8	1.49e+00	0	29	104	0	84	23542
2026-01-04 00:05:51.53	144.11	55.43	-59.4	-75.4	3.8	1.49e+00	0	29	104	0	84	23549
2026-01-04 00:05:52.53	144.72	55.20	-59.4	-75.4	3.8	1.49e+00	0	29	104	0	84	23539
2026-01-04 00:05:53.53	145.32	54.97	-59.4	-75.4	3.8	1.49e+00	0	29	104	0	84	23557
2026-01-04 00:05:54.54	145.91	54.73	-59.4	-75.4	3.8	1.49e+00	0	29	104	0	84	23502
2026-01-04 00:05:55.54	146.49	54.50	-59.4	-75.5	3.8	1.49e+00	0	29	104	0	84	23600
2026-01-04 00:05:56.54	147.06	54.26	-59.4	-75.4	3.8	1.49e+00	0	29	104	0	84	23509
2026-01-04 00:05:57.54	147.62	54.02	-59.4	-75.4	3.8	1.49e+00	0	29	104	0	84	23533
2026-01-04 00:05:58.55	148.17	53.78	-59.4	-75.4	3.8	1.49e+00	0	29	104	0	84	23524
2026-01-04 00:05:59.55	148.71	53.54	-59.4	-75.4	3.8	1.49e+00	0	29	104	0	84	23484
2026-01-04 00:06:00.55	149.25	53.30	-59.4	-75.4	3.8	1.49e+00	0	29	104	0	84	23483
2026-01-04 00:06:01.55	149.77	53.06	-59.4	-75.4	3.8	1.49e+00	0	29	104	0	84	23484
2026-01-04 00:06:02.54	150.28	52.81	-59.3	-75.4	3.8	1.49e+00	0	29	104	0	84	23420
2026-01-04 00:06:03.55	150.79	52.57	-59.4	-75.4	3.8	1.49e+00	0	29	104	0	84	23431
2026-01-04 00:06:04.54	151.28	52.32	-59.4	-75.4	3.8	1.49e+00	0	29	104	0	84	23432
2026-01-04 00:06:05.53	151.77	52.08	-59.4	-75.4	3.8	1.49e+00	0	29	104	0	84	23439
2026-01-04 00:06:06.53	152.25	51.83	-59.4	-75.4	3.8	1.49e+00	0	29	104	0	84	23462
2026-01-04 00:06:07.53	152.73	51.58	-59.3	-75.4	3.8	1.49e+00	0	29	104	0	84	23415
2026-01-04 00:06:08.53	153.19	51.33	-59.3	-75.4	3.8	1.49e+00	0	29	104	0	84	23377
2026-01-04 00:06:09.53	153.65	51.08	-59.3	-75.4	3.8	1.49e+00	0	29	104	0	84	23384
2026-01-04 00:06:10.53	154.10	50.83	-59.3	-75.4	3.8	1.49e+00	0	29	104	0	84	23344
2026-01-04 00:06:11.51	154.54	50.58	-59.3	-75.4	3.9	1.49e+00	0	29	104	0	84	23389
2026-01-04 00:06:12.51	154.97	50.33	-59.3	-75.4	3.8	1.49e+00	0	29	104	0	84	23458
2026-01-04 00:06:13.50	155.40	50.08	-59.3	-75.4	3.8	1.49e+00	0	29	104	0	84	23420
2026-01-04 00:06:14.50	155.82	49.83	-59.3	-75.4	3.8	1.49e+00	0	29	104	0	84	23399
2026-01-04 00:06:15.51	156.24	49.57	-59.3	-75.4	3.8	1.49e+00	0	29	104	0	84	23342
2026-01-04 00:06:16.51	156.65	49.32	-59.3	-75.4	3.8	1.49e+00	0	29	104	0	84	23394
2026-01-04 00:06:17.51	157.05	49.07	-59.3	-75.4	3.8	1.49e+00	0	29	104	0	84	23317
2026-01-04 00:06:18.51	157.45	48.81	-59.3	-75.3	3.8	1.49e+00	0	29	104	0	84	23307
2026-01-04 00:06:19.51	157.84	48.56	-59.3	-75.3	3.8	1.49e+00	0	29	104	0	84	23300
2026-01-04 00:06:20.51	158.22	48.31	-59.3	-75.3	3.8	1.49e+00	0	29	104	0	84	23260
2026-01-04 00:06:21.51	158.60	48.06	-59.3	-75.4	3.8	1.49e+00	0	29	104	0	84	23325
2026-01-04 00:06:22.50	158.97	47.81	-59.3	-75.3	3.8	1.49e+00	0	29	104	0	84	23310
2026-01-04 00:06:23.49	159.33	47.56	-59.3	-75.3	3.8	1.49e+00	0	29	104	0	84	23295
2026-01-04 00:06:24.50	159.69	47.30	-59.3	-75.3	3.8	1.49e+00	0	29	104	0	84	23265
2026-01-04 00:06:25.50	160.05	47.05	-59.3	-75.3	3.8	1.49e+00	0	29	104	0	84	23277
2026-01-04 00:06:26.50	160.39	46.80	-59.3	-75.4	3.8	1.49e+00	0	29	104	0	84	23333
2026-01-04 00:06:27.50	160.74	46.55	-59.3	-75.3	3.8	1.49e+00	0	29	104	0	84	23288
2026-01-04 00:06:28.50	161.07	46.30	-59.3	-75.4	3.8	1.49e+00	0	29	104	0	84	23326
2026-01-04 00:06:29.50	161.41	46.05	-59.3	-75.3	3.8	1.49e+00	0	29	104	0	84	23268
2026-01-04 00:06:30.50	161.73	45.80	-59.3	-75.3	3.8	1.49e+00	0	29	104	0	84	23275
2026-01-04 00:06:31.50	162.06	45.55	-59.3	-75.3	3.8	1.49e+00	0	29	104	0	84	23280
2026-01-04 00:06:32.51	162.38	45.30	-59.3	-75.3	3.8	1.49e+00	0	29	104	0	84	23286
2026-01-04 00:06:33.50	162.68	45.06	-59.3	-75.3	3.8	1.49e+00	0	29	104	0	84	23211
2026-01-04 00:06:34.49	162.99	44.81	-59.3	-75.3	3.8	1.49e+00	0	29	104	0	84	23234
2026-01-04 00:06:35.49	163.29	44.57	-59.3	-75.3	3.8	1.49e+00	0	29	104	0	84	23255
2026-01-04 00:06:36.50	163.59	44.32	-59.3	-75.3	3.8	1.49e+00	0	29	104	0	84	23212
2026-01-04 00:06:37.50	163.89	44.07	-59.3	-75.3	3.8	1.49e+00	0	29	104	0	84	23252
2026-01-04 00:06:38.49	164.17	43.83	-59.3	-75.3	3.8	1.49e+00	0	29	104	0	84	23257
2026-01-04 00:06:39.49	164.46	43.59	-59.3	-75.3	3.8	1.49e+00	0	29	104	0	84	23205
2026-01-04 00:06:40.49	164.74	43.35	-59.3	-75.3	3.8	1.49e+00	0	29	104	0	84	23278
2026-01-04 00:06:41.49	165.02	43.10	-59.3	-75.3	3.8	1.49e+00	0	29	104	0	84	23242
2026-01-04 00:06:42.50	165.29	42.86	-59.3	-75.3	3.8	1.49e+00	0	29	104	0	84	23265
2026-01-04 00:06:43.50	165.56	42.62	-59.3	-75.3	3.8	1.49e+00	0	29	104	0	84	23214
2026-01-04 00:06:44.50	165.83	42.38	-59.3	-75.3	3.8	1.49e+00	0	29	104	0	84	23197
2026-01-04 00:06:45.50	166.09	42.14	-59.3	-75.3	3.8	1.49e+00	0	29	104	0	84	23189
2026-01-04 00:06:46.49	166.34	41.91	-59.2	-75.3	3.8	1.49e+00	0	29	104	0	84	23106
2026-01-04 00:06:47.50	166.60	41.67	-59.2	-75.3	3.8	1.49e+00	0	29	104	0	84	23150
2026-01-04 00:06:48.50	166.85	41.43	-59.2	-75.3	3.8	1.49e+00	0	29	104	0	84	23147
2026-01-04 00:06:49.50	167.09	41.20	-59.3	-75.3	3.8	1.49e+00	0	29	104	0	84	23229
2026-01-04 00:06:50.51	167.34	40.96	-59.3	-75.3	3.8	1.49e+00	0	29	104	0	84	23196
2026-01-04 00:06:51.51	167.58	40.73	-59.2	-75.3	3.8	1.49e+00	0	29	104	0	84	23127
2026-01-04 00:06:52.51	167.81	40.50	-59.2	-75.3	3.8	1.49e+00	0	29	104	0	84	23113
2026-01-04 00:06:53.51	168.05	40.27	-59.2	-75.3	3.8	1.49e+00	0	29	104	0	84	23112
2026-01-04 00:06:54.51	168.28	40.04	-59.2	-75.3	3.8	1.49e+00	0	29	104	0	84	23148
2026-01-04 00:06:55.51	168.50	39.81	-59.2	-75.3	3.8	1.49e+00	0	29	104	0	84	23119
2026-01-04 00:06:56.52	168.73	39.58	-59.2	-75.3	3.8	1.49e+00	0	29	104	0	84	23109
2026-01-04 00:06:57.53	168.95	39.35	-59.2	-75.3	3.8	1.49e+00	0	29	104	0	84	23086
2026-01-04 00:06:58.53	169.17	39.12	-59.2	-75.3	3.8	1.49e+00	0	29	104	0	84	23047
2026-01-04 00:06:59.52	169.38	38.90	-59.2	-75.3	3.8	1.49e+00	0	29	104	0	84	23090
2026-01-04 00:07:00.52	169.59	38.68	-59.2	-75.3	3.8	1.49e+00	0	29	104	0	84	23098
2026-01-04 00:07:01.51	169.80	38.46	-59.2	-75.3	3.8	1.49e+00	0	29	104	0	84	23057
2026-01-04 00:07:02.51	170.01	38.24	-59.2	-75.3	3.8	1.49e+00	0	29	104	0	84	23066
2026-01-04 00:07:03.51	170.21	38.01	-59.2	-75.3	3.8	1.49e+00	0	29	104	0	84	23059
2026-01-04 00:07:04.51	170.41	37.80	-59.2	-75.3	3.8	1.49e+00	0	29	104	0	84	23115
2026-01-04 00:07:05.52	170.61	37.57	-59.2	-75.3	3.8	1.49e+00	0	29	104	0	84	23051
2026-01-04 00:07:06.53	170.81	37.36	-59.2	-75.3	3.8	1.49e+00	0	29	104	0	84	23066
2026-01-04 00:07:07.53	171.00	37.14	-59.2	-75.2	3.8	1.49e+00	0	29	104	0	84	23012
2026-01-04 00:07:08.53	171.19	36.92	-59.2	-75.2	3.8	1.49e+00	0	29	104	0	84	23023
2026-01-04 00:07:09.53	171.38	36.71	-59.2	-75.2	3.8	1.49e+00	0	29	104	0	84	23008
2026-01-04 00:07:10.52	171.56	36.50	-59.2	-75.2	3.8	1.49e+00	0	29	104	0	84	23000
2026-01-04 00:07:11.51	171.74	36.29	-59.2	-75.2	3.8	1.49e+00	0	29	104	0	84	22985
2026-01-04 00:07:12.51	171.92	36.08	-59.2	-75.3	3.8	1.49e+00	0	29	104	0	84	23073
2026-01-04 00:07:13.51	172.10	35.87	-59.2	-75.2	3.8	1.49e+00	0	29	104	0	84	22970
2026-01-04 00:07:14.50	172.28	35.66	-59.2	-75.2	3.8	1.49e+00	0	29	104	0	84	22931
2026-01-04 00:07:15.51	172.45	35.45	-59.2	-75.2	3.8	1.49e+00	0	29	104	0	84	22927
2026-01-04 00:07:16.50	172.62	35.25	-59.2	-75.2	3.8	1.49e+00	0	29	104	0	84	22940
2026-01-04 00:07:17.50	172.79	35.04	-59.2	-75.2	3.8	1.49e+00	0	29	104	0	84	22902
2026-01-04 00:07:18.50	172.96	34.84	-59.1	-75.2	3.8	1.49e+00	0	29	104	0	84	22848
2026-01-04 00:07:19.49	173.13	34.63	-59.1	-75.2	3.8	1.49e+00	0	29	104	0	84	22874
2026-01-04 00:07:20.49	173.29	34.43	-59.1	-75.2	3.8	1.49e+00	0	29	104	0	84	22795
2026-01-04 00:07:21.49	173.45	34.23	-59.1	-75.2	3.8	1.49e+00	0	29	104	0	84	22862
2026-01-04 00:07:22.49	173.61	34.03	-59.1	-75.2	3.8	1.49e+00	0	29	104	0	84	22879
2026-01-04 00:07:23.49	173.77	33.83	-59.1	-75.2	3.8	1.49e+00	0	29	104	0	84	22856
2026-01-04 00:07:24.49	173.93	33.63	-59.1	-75.1	3.8	1.49e+00	0	29	104	0	84	22774
2026-01-04 00:07:25.50	174.08	33.43	-59.1	-75.2	3.8	1.49e+00	0	29	104	0	84	22785
2026-01-04 00:07:26.51	174.24	33.24	-59.1	-75.2	3.8	1.49e+00	0	29	104	0	84	22820
2026-01-04 00:07:27.51	174.39	33.04	-59.1	-75.1	3.8	1.49e+00	0	29	104	0	84	22765
2026-01-04 00:07:28.50	174.54	32.85	-59.1	-75.1	3.8	1.49e+00	0	29	104	0	84	22772
2026-01-04 00:07:29.50	174.68	32.66	-59.1	-75.1	3.8	1.49e+00	0	29	104	0	84	22714
2026-01-04 00:07:30.50	174.83	32.46	-59.1	-75.1	3.9	1.49e+00	0	29	104	0	84	22735
2026-01-04 00:07:31.50	174.97	32.27	-59.1	-75.1	3.8	1.49e+00	0	29	104	0	84	22725
2026-01-04 00:07:32.50	175.12	32.08	-59.1	-75.1	3.8	1.49e+00	0	29	104	0	84	22636
2026-01-04 00:07:33.49	175.26	31.90	-59.1	-75.1	3.8	1.49e+00	0	29	104	0	84	22715
2026-01-04 00:07:34.50	175.40	31.71	-59.1	-75.1	3.8	1.49e+00	0	29	104	0	84	22711
2026-01-04 00:07:35.50	175.53	31.52	-59.1	-75.1	3.8	1.49e+00	0	29	104	0	84	22688
2026-01-04 00:07:36.50	175.67	31.33	-59.1	-75.1	3.8	1.49e+00	0	29	104	0	84	22655
2026-01-04 00:07:37.51	175.81	31.15	-59.1	-75.1	3.8	1.49e+00	0	29	104	0	84	22680
2026-01-04 00:07:38.50	175.94	30.96	-59.1	-75.1	3.8	1.49e+00	0	29	104	0	84	22657
2026-01-04 00:07:39.50	176.07	30.78	-59.1	-75.1	3.8	1.49e+00	0	29	104	0	84	22634
2026-01-04 00:07:40.50	176.20	30.60	-59.1	-75.1	3.8	1.49e+00	0	29	104	0	84	22645
2026-01-04 00:07:41.50	176.33	30.42	-59.0	-75.1	3.8	1.49e+00	0	29	104	0	84	22597
2026-01-04 00:07:42.50	176.46	30.24	-59.0	-75.1	3.8	1.49e+00	0	29	104	0	84	22624
2026-01-04 00:07:43.50	176.58	30.06	-59.0	-75.1	3.8	1.49e+00	0	29	104	0	84	22647
2026-01-04 00:07:44.50	176.71	29.88	-59.0	-75.1	3.8	1.49e+00	0	29	104	0	84	22588
2026-01-04 00:07:45.50	176.83	29.70	-59.0	-75.1	3.8	1.49e+00	0	29	104	0	84	22578
2026-01-04 00:07:46.50	176.95	29.53	-59.0	-75.1	3.8	1.49e+00	0	29	104	0	84	22572
2026-01-04 00:07:47.50	177.08	29.35	-59.0	-75.1	3.8	1.49e+00	0	29	104	0	84	22570
2026-01-04 00:07:48.50	177.20	29.18	-59.0	-75.1	3.8	1.49e+00	0	29	104	0	84	22562
2026-01-04 00:07:49.50	177.31	29.01	-59.0	-75.1	3.8	1.49e+00	0	29	104	0	84	22539
2026-01-04 00:07:50.50	177.43	28.83	-59.0	-75.1	3.8	1.49e+00	0	29	104	0	84	22521
2026-01-04 00:07:51.50	177.55	28.66	-59.0	-75.0	3.8	1.49e+00	0	29	104	0	84	22503
2026-01-04 00:07:52.51	177.66	28.49	-59.0	-75.0	3.8	1.49e+00	0	29	104	0	84	22499
2026-01-04 00:07:53.51	177.78	28.32	-59.0	-75.0	3.8	1.49e+00	0	29	104	0	84	22438
2026-01-04 00:07:54.52	177.89	28.15	-59.0	-75.0	3.8	1.49e+00	0	29	104	0	84	22453
2026-01-04 00:07:55.52	178.00	27.98	-59.0	-75.0	3.8	1.49e+00	0	29	104	0	84	22419
2026-01-04 00:07:56.51	178.11	27.82	-59.0	-75.0	3.8	1.49e+00	0	29	104	0	84	22388
2026-01-04 00:07:57.51	178.22	27.65	-59.0	-75.0	3.8	1.49e+00	0	29	104	0	84	22407
2026-01-04 00:07:58.52	178.33	27.49	-59.0	-75.0	3.8	1.49e+00	0	29	104	0	84	22367
2026-01-04 00:07:59.51	178.44	27.32	-59.0	-75.0	3.9	1.49e+00	0	29	104	0	84	22356
2026-01-04 00:08:00.51	178.54	27.16	-59.0	-75.0	3.8	1.49e+00	0	29	104	0	84	22364
2026-01-04 00:08:01.51	178.65	27.00	-59.0	-75.0	3.8	1.49e+00	0	29	104	0	84	22319
2026-01-04 00:08:02.50	178.75	26.84	-59.0	-75.0	3.8	1.49e+00	0	29	104	0	84	22336
2026-01-04 00:08:03.49	178.85	26.68	-59.0	-75.0	3.8	1.49e+00	0	29	104	0	84	22347
2026-01-04 00:08:04.49	178.95	26.52	-58.9	-75.0	3.8	1.49e+00	0	29	104	0	84	22285
2026-01-04 00:08:05.49	179.05	26.36	-58.9	-75.0	3.8	1.49e+00	0	29	104	0	84	22299
2026-01-04 00:08:06.49	179.15	26.20	-58.9	-74.9	3.8	1.49e+00	0	29	104	0	84	22241
2026-01-04 00:08:07.48	179.25	26.05	-58.9	-75.0	3.8	1.49e+00	0	29	104	0	84	22312
2026-01-04 00:08:08.47	179.35	25.89	-58.9	-74.9	3.8	1.49e+00	0	29	104	0	84	22241
2026-01-04 00:08:09.47	179.45	25.74	-58.9	-74.9	3.8	1.49e+00	0	29	104	0	84	22232
2026-01-04 00:08:10.47	179.54	25.58	-58.9	-74.9	3.8	1.49e+00	0	29	104	0	84	22196
2026-01-04 00:08:11.47	179.64	25.43	-58.9	-74.9	3.8	1.49e+00	0	29	104	0	84	22216
2026-01-04 00:08:12.48	179.74	25.27	-58.9	-74.9	3.8	1.49e+00	0	29	104	0	84	22232
2026-01-04 00:08:13.47	179.83	25.12	-58.9	-74.9	3.8	1.49e+00	0	29	104	0	84	22167
2026-01-04 00:08:14.47	179.92	24.97	-58.9	-74.9	3.8	1.49e+00	0	29	104	0	84	22180
2026-01-04 00:08:15.48	180.01	24.82	-58.9	-74.9	3.8	1.49e+00	0	29	104	0	84	22158
2026-01-04 00:08:16.48	180.11	24.67	-58.9	-74.9	3.8	1.49e+00	0	29	104	0	84	22110
2026-01-04 00:08:17.47	180.19	24.52	-58.9	-74.9	3.8	1.49e+00	0	29	104	0	84	22117
2026-01-04 00:08:18.47	180.28	24.37	-58.9	-74.9	3.8	1.49e+00	0	29	104	0	84	22035
2026-01-04 00:08:19.47	180.37	24.22	-58.8	-74.9	3.8	1.49e+00	0	29	104	0	84	22065
2026-01-04 00:08:20.46	180.46	24.08	-58.8	-74.8	3.8	1.49e+00	0	29	104	0	84	21987
2026-01-04 00:08:21.47	180.55	23.93	-58.8	-74.9	3.8	1.49e+00	0	29	104	0	84	22020
2026-01-04 00:08:22.46	180.63	23.79	-58.8	-74.9	3.8	1.49e+00	0	29	104	0	84	22024
2026-01-04 00:08:23.46	180.72	23.64	-58.8	-74.8	3.8	1.49e+00	0	29	104	0	84	21935
2026-01-04 00:08:24.45	180.80	23.50	-58.8	-74.8	3.8	1.49e+00	0	29	104	0	84	21950
2026-01-04 00:08:25.46	180.89	23.36	-58.8	-74.8	3.8	1.49e+00	0	29	104	0	84	21945
2026-01-04 00:08:26.46	180.97	23.21	-58.8	-74.8	3.8	1.49e+00	0	29	104	0	84	21934
2026-01-04 00:08:27.46	181.06	23.07	-58.8	-74.8	3.8	1.49e+00	0	29	104	0	84	21917
2026-01-04 00:08:28.46	181.14	22.93	-58.8	-74.8	3.8	1.49e+00	0	29	104	0	84	21806
2026-01-04 00:08:29.46	181.22	22.79	-58.8	-74.8	3.8	1.49e+00	0	29	104	0	84	21881
2026-01-04 00:08:30.46	181.30	22.65	-58.8	-74.8	3.8	1.49e+00	0	29	104	0	84	21912
2026-01-04 00:08:31.46	181.38	22.51	-58.8	-74.8	3.8	1.49e+00	0	29	104	0	84	21833
2026-01-04 00:08:32.46	181.46	22.37	-58.8	-74.8	3.8	1.49e+00	0	29	104	0	84	21868
2026-01-04 00:08:33.46	181.54	22.24	-58.8	-74.8	3.8	1.49e+00	0	29	104	0	84	21828
2026-01-04 00:08:34.46	181.62	22.10	-58.8	-74.8	3.8	1.49e+00	0	29	104	0	84	21814
2026-01-04 00:08:35.46	181.69	21.96	-58.8	-74.8	3.8	1.49e+00	0	29	104	0	84	21761
2026-01-04 00:08:36.46	181.77	21.83	-58.7	-74.8	3.8	1.49e+00	0	29	104	0	84	21763
2026-01-04 00:08:37.46	181.85	21.69	-58.7	-74.8	3.8	1.49e+00	0	29	104	0	84	21779
2026-01-04 00:08:38.47	181.92	21.56	-58.7	-74.7	3.8	1.49e+00	0	29	104	0	84	21737
2026-01-04 00:08:39.47	182.00	21.42	-58.7	-74.7	3.8	1.49e+00	0	29	104	0	84	21690
2026-01-04 00:08:40.46	182.07	21.29	-58.7	-74.7	3.8	1.49e+00	0	29	104	0	84	21713
2026-01-04 00:08:41.46	182.14	21.16	-58.7	-74.7	3.8	1.49e+00	0	29	104	0	84	21662
2026-01-04 00:08:42.46	182.22	21.03	-58.7	-74.7	3.8	1.49e+00	0	29	104	0	84	21658
2026-01-04 00:08:43.45	182.29	20.90	-58.8	-74.8	3.8	1.49e+00	0	29	104	0	84	21993
2026-01-04 00:08:44.44	182.36	20.77	-59.4	-75.4	3.8	1.49e+00	0	29	104	0	84	23426
2026-01-04 00:08:45.44	182.43	20.64	-59.8	-75.8	3.8	1.49e+00	0	29	104	0	84	24589
2026-01-04 00:08:46.44	182.50	20.51	-60.0	-76.1	3.8	1.49e+00	0	29	104	0	85	23974
2026-01-04 00:08:47.44	182.57	20.38	-60.2	-76.3	3.9	1.49e+00	0	29	104	0	85	24431
2026-01-04 00:08:48.44	182.64	20.26	-60.4	-76.4	3.8	1.49e+00	0	29	104	0	85	24933
2026-01-04 00:08:49.44	182.71	20.13	-60.5	-76.6	3.8	1.49e+00	0	29	104	0	86	23914
2026-01-04 00:08:50.44	182.78	20.00	-60.6	-76.7	3.8	1.49e+00	0	29	104	0	86	24172
2026-01-04 00:08:51.44	182.85	19.88	-60.7	-76.8	3.8	1.49e+00	0	29	104	0	86	24422
2026-01-04 00:08:52.43	182.91	19.75	-60.7	-76.8	3.8	1.49e+00	0	29	104	0	86	24632
2026-01-04 00:08:53.43	182.98	19.63	-60.8	-76.9	3.8	1.49e+00	0	29	104	0	86	24722
2026-01-04 00:08:54.43	183.05	19.50	-60.8	-76.9	3.8	1.49e+00	0	29	104	0	86	24835
2026-01-04 00:08:55.44	183.11	19.38	-60.9	-77.0	3.8	1.49e+00	0	29	104	0	86	25053
2026-01-04 00:08:56.43	183.18	19.26	-60.9	-77.0	3.8	1.49e+00	0	29	104	0	87	23800
2026-01-04 00:08:57.44	183.25	19.13	-61.0	-77.1	3.8	1.49e+00	0	29	104	0	87	23956
2026-01-04 00:08:58.44	183.31	19.01	-61.0	-77.1	3.8	1.49e+00	0	29	104	0	87	24075
2026-01-04 00:08:59.43	183.37	18.89	-61.1	-77.2	3.8	1.49e+00	0	29	104	0	87	24203
2026-01-04 00:09:00.44	183.44	18.77	-61.1	-77.2	3.8	1.49e+00	0	29	104	0	87	24245
2026-01-04 00:09:01.43	183.50	18.65	-61.1	-77.2	3.8	1.49e+00	0	29	104	0	87	24371
2026-01-04 00:09:02.43	183.56	18.53	-61.2	-77.3	3.8	1.49e+00	0	29	104	0	87	24503
2026-01-04 00:09:03.44	183.63	18.41	-61.2	-77.3	3.8	1.49e+00	0	29	104	0	87	24545
2026-01-04 00:09:04.43	183.69	18.29	-61.2	-77.3	3.8	1.49e+00	0	29	104	0	87	24558
2026-01-04 00:09:05.43	183.75	18.18	-61.2	-77.3	3.8	1.49e+00	0	29	104	0	87	24543
2026-01-04 00:09:06.43	183.81	18.06	-61.2	-77.3	3.8	1.49e+00	0	29	104	0	87	24533
2026-01-04 00:09:07.42	183.87	17.94	-61.2	-77.3	3.8	1.49e+00	0	29	104	0	87	24578
2026-01-04 00:09:08.42	183.93	17.83	-61.2	-77.3	3.8	1.49e+00	0	29	104	0	87	24602
2026-01-04 00:09:09.42	183.99	17.71	-61.2	-77.3	3.8	1.49e+00	0	29	104	0	87	24608
2026-01-04 00:09:10.42	184.05	17.60	-61.2	-77.3	3.8	1.49e+00	0	29	104	0	87	24630
2026-01-04 00:09:11.42	184.11	17.48	-61.2	-77.3	3.8	1.49e+00	0	29	104	0	87	24539
2026-01-04 00:09:12.43	184.17	17.37	-61.2	-77.3	3.8	1.49e+00	0	29	104	0	87	24562
2026-01-04 00:09:13.43	184.22	17.25	-61.2	-77.3	3.8	1.49e+00	0	29	104	0	87	24550
2026-01-04 00:09:14.43	184.28	17.14	-61.2	-77.3	3.8	1.49e+00	0	29	104	0	87	24448
2026-01-04 00:09:15.42	184.34	17.03	-61.2	-77.2	3.8	1.49e+00	0	29	104	0	87	24405
2026-01-04 00:09:16.41	184.39	16.92	-61.2	-77.2	3.8	1.49e+00	0	29	104	0	87	24347
2026-01-04 00:09:17.41	184.45	16.80	-61.1	-77.2	3.8	1.49e+00	0	29	104	0	87	24211
2026-01-04 00:09:18.41	184.51	16.69	-61.1	-77.1	3.8	1.49e+00	0	29	104	0	87	24057
2026-01-04 00:09:19.41	184.56	16.58	-61.0	-77.1	3.8	1.49e+00	0	29	104	0	87	23981
2026-01-04 00:09:20.40	184.62	16.47	-61.0	-77.0	3.8	1.49e+00	0	29	104	0	87	23651
2026-01-04 00:09:21.40	184.67	16.36	-60.9	-76.9	3.8	1.49e+00	0	29	104	0	87	23539
2026-01-04 00:09:22.40	184.72	16.25	-60.8	-76.9	3.8	1.49e+00	0	29	104	0	87	23402
2026-01-04 00:09:23.40	184.78	16.14	-60.7	-76.5	3.8	1.49e+00	0	29	104	0	87	22357
2026-01-04 00:09:24.40	184.83	16.03	-60.6	-75.5	3.9	1.49e+00	0	29	104	0	87	20061
2026-01-04 00:09:25.40	184.89	15.93	-57.8	-61.9	11.2	1.49e+00	0	29	104	0	82	5529
2026-01-04 00:09:26.40	184.94	15.82	-55.9	-58.5	13.5	0.00e+00	0	29	0	1048576	78	4751
2026-01-04 00:09:27.40	184.99	15.71	-59.1	-65.6	9.2	0.00e+00	0	29	0	3145728	83	8039
2026-01-04 00:09:28.40	185.04	15.61	-59.0	-65.1	8.9	1.49e+00	0	29	104	3145728	84	7125
2026-01-04 00:09:29.40	185.10	15.50	-57.9	-62.3	11.4	7.00e-07	0	29	0	4194304	80	6532
2026-01-04 00:09:30.40	185.15	15.39	-60.2	-73.2	4.2	2.85e-01	61	29	0	6291456	85	17257
2026-01-04 00:09:31.40	185.20	15.29	-56.9	-60.3	12.1	1.49e+00	0	29	104	6291456	80	5187
2026-01-04 00:09:32.40	185.25	15.18	-54.3	-56.4	14.3	0.00e+00	0	29	0	7340032	75	4432
2026-01-04 00:09:33.40	185.30	15.08	-54.5	-56.7	14.2	0.00e+00	0	29	0	9437184	75	4573
2026-01-04 00:09:34.40	185.35	14.97	-54.2	-56.2	14.3	0.00e+00	0	29	0	11534336	74	4588
2026-01-04 00:09:35.40	185.40	14.87	-53.9	-55.8	14.5	0.00e+00	0	29	0	13631488	74	4385
2026-01-04 00:09:36.40	185.45	14.77	-53.6	-55.6	14.5	0.00e+00	0	29	0	14680064	73	4501
2026-01-04 00:09:37.40	185.50	14.66	-53.7	-55.6	14.5	0.00e+00	0	29	0	16777216	73	4524
2026-01-04 00:09:38.39	185.55	14.56	-53.7	-55.7	14.5	0.00e+00	0	29	0	18874368	73	4554
2026-01-04 00:09:39.39	185.60	14.46	-53.7	-55.7	14.5	0.00e+00	0	29	0	20971520	73	4560
2026-01-04 00:09:40.39	185.65	14.36	-53.8	-55.7	14.4	0.00e+00	0	29	0	22020096	73	4591
2026-01-04 00:09:41.40	185.69	14.26	-53.8	-55.8	14.4	0.00e+00	0	29	0	24117248	73	4604
2026-01-04 00:09:42.39	185.74	14.16	-53.8	-55.8	14.4	0.00e+00	0	29	0	26214400	73	4621
2026-01-04 00:09:43.39	185.79	14.06	-53.9	-55.9	14.4	0.00e+00	0	29	0	28311552	73	4675
2026-01-04 00:09:44.39	185.84	13.96	-53.9	-55.9	14.4	0.00e+00	0	29	0	30408704	73	4698
2026-01-04 00:09:45.39	185.88	13.86	-53.9	-56.0	14.3	0.00e+00	0	29	0	31457280	73	4714
2026-01-04 00:09:46.39	185.93	13.76	-53.9	-55.9	14.4	0.00e+00	0	29	0	33554432	73	4671
2026-01-04 00:09:47.38	185.98	13.66	-53.9	-55.9	14.3	0.00e+00	0	29	0	35651584	73	4700
2026-01-04 00:09:48.38	186.02	13.56	-53.9	-55.9	14.4	0.00e+00	0	29	0	37748736	73	4683
2026-01-04 00:09:49.37	186.07	13.47	-54.0	-56.0	14.3	0.00e+00	0	29	0	38797312	73	4753
2026-01-04 00:09:50.37	186.11	13.37	-53.9	-55.9	14.3	0.00e+00	0	29	0	40894464	73	4672
2026-01-04 00:09:51.37	186.16	13.27	-53.9	-55.9	14.4	0.00e+00	0	29	0	42991616	73	4677
2026-01-04 00:09:52.38	186.20	13.17	-53.9	-56.0	14.3	0.00e+00	0	29	0	45088768	73	4715
2026-01-04 00:09:53.37	186.25	13.08	-53.9	-56.0	14.3	0.00e+00	0	29	0	47185920	73	4724
2026-01-04 00:09:54.37	186.29	12.98	-53.9	-55.9	14.3	0.00e+00	0	29	0	48234496	73	4687
2026-01-04 00:09:55.37	186.34	12.89	-53.9	-56.0	14.3	0.00e+00	0	29	0	50331648	73	4720
2026-01-04 00:09:56.37	186.38	12.79	-54.0	-56.0	14.3	0.00e+00	0	29	0	52428800	73	4746
2026-01-04 00:09:57.37	186.42	12.69	-53.9	-55.9	14.3	0.00e+00	0	29	0	54525952	73	4700
2026-01-04 00:09:58.37	186.47	12.60	-53.9	-55.9	14.3	0.00e+00	0	29	0	56623104	73	4705
2026-01-04 00:09:59.37	186.51	12.51	-53.9	-55.9	14.3	0.00e+00	0	29	0	57671680	73	4676
2026-01-04 00:10:00.36	186.55	12.41	-53.9	-55.9	14.3	0.00e+00	0	29	0	59768832	73	4702
2026-01-04 00:10:01.37	186.60	12.32	-53.9	-56.0	14.3	0.00e+00	0	29	0	61865984	73	4707
2026-01-04 00:10:02.37	186.64	12.22	-53.8	-55.9	14.3	0.00e+00	0	29	0	63963136	73	4655
2026-01-04 00:10:03.37	186.68	12.13	-53.8	-55.8	14.4	0.00e+00	0	29	0	66060288	73	4627
2026-01-04 00:10:04.37	186.72	12.04	-53.8	-55.9	14.3	0.00e+00	0	29	0	67108864	73	4665
2026-01-04 00:10:05.36	186.76	11.95	-53.8	-55.9	14.3	0.00e+00	0	29	0	69206016	73	4681
2026-01-04 00:10:06.37	186.80	11.85	-53.8	-55.9	14.3	0.00e+00	0	29	0	71303168	73	4664
2026-01-04 00:10:07.36	186.85	11.76	-53.8	-55.8	14.3	0.00e+00	0	29	0	73400320	73	4650
2026-01-04 00:10:08.35	186.89	11.67	-53.8	-55.8	14.3	0.00e+00	0	29	0	74448896	73	4637
2026-01-04 00:10:09.36	186.93	11.58	-53.8	-55.9	14.3	0.00e+00	0	29	0	76546048	73	4665
2026-01-04 00:10:10.35	186.97	11.49	-53.8	-55.8	14.3	0.00e+00	0	29	0	78643200	73	4622
