passes_logs/2026/01/03/R3.2S_Murmansk/R3.2S_Murmansk__20260103_141725_FENGYUN_3D_rec.log

#Pass ID: 20260103_141725_FENGYUN 3D
#Satellite: FENGYUN 3D
#Configuration: FENGYUN 3D
#almurnet v.1.7.20251203
#Start time: 2026-01-03 14:17:26

#Version: 2.2.20231116
#Station: R3.2S_Murmansk
#Location: 33.079688 lon 68.888172 lat
#TLE: 1 43010U 17072A   26002.95198047  .00000207  00000+0  11963-3 0  9999
#TLE: 2 43010  98.9912 334.5826 0001910 130.7105 229.4237 14.19692231421540

#Time	Az	El	Level	Level2	SNR	BER	BlckErr	Temp	State	Recorded	gain1	gain2
2026-01-03 14:17:26.28	221.93	2.05	-59.1	-72.3	3.8	8.45e-01	0	28	0	0	84	16392
2026-01-03 14:17:27.28	222.01	2.10	-58.9	-72.1	3.8	8.45e-01	0	28	104	0	83	16890
2026-01-03 14:17:28.29	222.10	2.16	-58.9	-72.0	3.8	8.45e-01	0	28	104	0	83	16789
2026-01-03 14:17:29.30	222.18	2.21	-58.9	-72.0	3.8	8.45e-01	0	28	104	0	83	16779
2026-01-03 14:17:30.30	222.26	2.26	-58.9	-71.9	3.8	8.45e-01	0	28	104	0	83	16688
2026-01-03 14:17:31.31	222.34	2.31	-59.0	-72.0	3.8	8.47e-01	0	28	104	0	83	16816
2026-01-03 14:17:32.32	222.43	2.37	-59.0	-72.0	3.8	8.46e-01	0	28	104	0	83	16804
2026-01-03 14:17:33.32	222.51	2.42	-59.0	-72.0	3.8	8.46e-01	0	28	104	0	83	16837
2026-01-03 14:17:34.33	222.59	2.47	-59.0	-72.1	3.8	8.45e-01	0	28	104	0	83	16916
2026-01-03 14:17:35.33	222.68	2.53	-59.0	-72.0	3.8	8.44e-01	0	28	104	0	83	16774
2026-01-03 14:17:36.34	222.76	2.58	-59.0	-72.0	3.8	8.46e-01	0	28	104	0	83	16757
2026-01-03 14:17:37.35	222.85	2.63	-59.0	-72.0	3.8	8.45e-01	0	28	104	0	83	16746
2026-01-03 14:17:38.36	222.93	2.68	-59.0	-71.9	3.8	8.45e-01	0	28	104	0	83	16677
2026-01-03 14:17:39.37	223.02	2.74	-59.0	-72.0	3.9	8.45e-01	0	28	104	0	83	16715
2026-01-03 14:17:40.38	223.10	2.79	-59.0	-72.1	3.8	8.45e-01	0	28	104	0	83	16921
2026-01-03 14:17:41.39	223.19	2.84	-59.0	-72.1	3.8	8.45e-01	0	28	104	0	83	16970
2026-01-03 14:17:42.40	223.27	2.90	-59.0	-72.1	3.8	8.46e-01	0	28	104	0	83	16996
2026-01-03 14:17:43.41	223.36	2.95	-59.0	-72.1	3.8	8.46e-01	0	28	104	0	83	16893
2026-01-03 14:17:44.42	223.45	3.00	-59.0	-72.0	3.8	8.46e-01	0	28	104	0	83	16790
2026-01-03 14:17:45.43	223.53	3.06	-58.9	-71.9	3.8	8.46e-01	0	28	104	0	83	16633
2026-01-03 14:17:46.44	223.62	3.11	-58.9	-71.8	3.8	8.46e-01	0	28	104	0	83	16389
2026-01-03 14:17:47.45	223.71	3.16	-59.0	-71.9	3.8	8.45e-01	0	28	104	0	83	16581
2026-01-03 14:17:48.45	223.80	3.22	-58.9	-71.9	3.8	8.46e-01	0	29	104	0	83	16597
2026-01-03 14:17:49.46	223.88	3.27	-58.9	-72.0	3.8	8.45e-01	0	28	104	0	83	16758
2026-01-03 14:17:50.47	223.97	3.33	-59.0	-72.1	3.8	8.45e-01	0	29	104	0	83	16906
2026-01-03 14:17:51.48	224.06	3.38	-59.0	-72.1	3.8	8.46e-01	0	29	104	0	83	16993
2026-01-03 14:17:52.49	224.15	3.43	-59.0	-72.1	3.8	8.46e-01	0	28	104	0	83	17026
2026-01-03 14:17:53.50	224.24	3.49	-59.0	-72.1	3.8	8.47e-01	0	29	104	0	83	16896
2026-01-03 14:17:54.51	224.33	3.54	-58.9	-71.9	3.8	8.45e-01	0	29	104	0	83	16613
2026-01-03 14:17:55.52	224.42	3.59	-58.9	-71.8	3.8	8.45e-01	0	29	104	0	83	16431
2026-01-03 14:17:56.53	224.51	3.65	-58.9	-71.6	3.8	8.44e-01	0	29	104	0	83	16062
2026-01-03 14:17:57.54	224.60	3.70	-58.9	-71.5	3.8	8.46e-01	0	29	104	0	83	15877
2026-01-03 14:17:58.55	224.69	3.76	-58.9	-71.5	3.8	8.44e-01	0	29	104	0	83	15797
2026-01-03 14:17:59.56	224.78	3.81	-58.9	-71.5	3.8	8.46e-01	0	29	104	0	83	15909
2026-01-03 14:18:00.56	224.87	3.86	-58.9	-71.6	3.8	8.45e-01	0	29	104	0	83	15950
2026-01-03 14:18:01.57	224.97	3.92	-58.9	-71.6	3.8	8.45e-01	0	29	104	0	83	16046
2026-01-03 14:18:02.57	225.06	3.97	-58.9	-71.5	3.8	8.46e-01	0	29	104	0	83	15844
2026-01-03 14:18:03.58	225.15	4.03	-58.9	-71.4	3.8	8.44e-01	0	29	104	0	83	15651
2026-01-03 14:18:04.59	225.24	4.08	-58.9	-70.9	3.8	8.45e-01	0	29	104	0	83	14833
2026-01-03 14:18:05.60	225.34	4.14	-58.9	-71.1	3.8	8.46e-01	0	29	104	0	83	15140
2026-01-03 14:18:06.61	225.43	4.19	-58.9	-71.5	3.8	8.45e-01	0	29	104	0	83	15901
2026-01-03 14:18:07.61	225.52	4.24	-58.9	-71.7	3.8	8.46e-01	0	29	104	0	83	16195
2026-01-03 14:18:08.62	225.62	4.30	-58.9	-72.0	3.8	8.44e-01	0	29	104	0	83	16765
2026-01-03 14:18:09.63	225.71	4.35	-58.9	-71.6	3.8	8.46e-01	0	29	104	0	83	15985
2026-01-03 14:18:10.64	225.81	4.41	-58.8	-70.7	3.8	8.45e-01	0	29	104	0	83	14417
2026-01-03 14:18:11.65	225.90	4.46	-58.6	-68.4	4.3	8.39e-01	0	29	0	0	83	11053
2026-01-03 14:18:12.66	226.00	4.52	-58.5	-67.7	4.4	8.27e-01	0	29	0	0	83	10247
2026-01-03 14:18:13.67	226.10	4.57	-58.3	-66.5	4.9	7.90e-01	0	29	0	0	83	8891
2026-01-03 14:18:14.68	226.19	4.63	-58.2	-65.8	5.3	7.19e-01	0	29	0	0	83	8228
2026-01-03 14:18:15.69	226.29	4.68	-58.2	-65.5	5.5	6.82e-01	0	29	0	0	82	8429
2026-01-03 14:18:16.70	226.39	4.74	-57.8	-63.9	6.6	2.32e-01	0	29	0	6291456	82	6964
2026-01-03 14:18:17.71	226.48	4.79	-57.0	-61.8	8.3	5.69e-02	0	29	0	11534336	80	6164
2026-01-03 14:18:18.72	226.58	4.85	-56.2	-59.9	10.0	8.03e-03	0	29	0	16777216	79	5228
2026-01-03 14:18:19.73	226.68	4.90	-55.0	-57.9	11.5	1.96e-04	0	29	0	23068672	76	4949
2026-01-03 14:18:20.73	226.78	4.96	-53.9	-56.2	12.5	4.50e-06	0	29	0	28311552	74	4568
2026-01-03 14:18:21.74	226.88	5.01	-53.1	-55.2	13.1	0.00e+00	0	29	0	34603008	72	4566
2026-01-03 14:18:22.75	226.97	5.07	-54.2	-56.6	12.3	0.00e+00	0	29	0	39845888	73	5083
2026-01-03 14:18:23.76	227.07	5.12	-56.2	-59.8	10.1	2.72e-04	0	29	0	45088768	77	5827
2026-01-03 14:18:24.77	227.17	5.18	-52.6	-54.5	13.5	1.14e-05	0	29	0	51380224	71	4450
2026-01-03 14:18:25.78	227.27	5.23	-58.1	-65.6	5.5	6.65e-02	0	29	0	56623104	81	9045
2026-01-03 14:18:26.79	227.37	5.29	-50.6	-52.0	14.5	1.05e-03	0	29	0	60817408	67	4227
2026-01-03 14:18:27.80	227.48	5.35	-50.5	-52.0	14.5	0.00e+00	0	29	0	66060288	67	4216
2026-01-03 14:18:28.80	227.58	5.40	-50.4	-51.8	14.5	0.00e+00	0	29	0	71303168	67	4137
2026-01-03 14:18:29.81	227.68	5.46	-50.4	-51.8	14.5	0.00e+00	0	29	0	77594624	67	4140
2026-01-03 14:18:30.82	227.78	5.51	-50.4	-51.9	14.5	0.00e+00	0	29	0	82837504	67	4160
2026-01-03 14:18:31.83	227.88	5.57	-50.4	-51.9	14.5	0.00e+00	0	29	0	89128960	67	4176
2026-01-03 14:18:32.83	227.98	5.62	-50.5	-51.9	14.5	0.00e+00	0	29	0	94371840	67	4189
2026-01-03 14:18:33.84	228.09	5.68	-50.3	-51.7	14.6	0.00e+00	0	29	0	100663296	67	4097
2026-01-03 14:18:34.85	228.19	5.73	-50.3	-51.8	14.6	0.00e+00	0	29	0	105906176	67	4099
2026-01-03 14:18:35.86	228.30	5.79	-50.3	-51.7	14.6	0.00e+00	0	29	0	111149056	67	4080
2026-01-03 14:18:36.87	228.40	5.85	-50.1	-51.5	14.7	0.00e+00	0	29	0	117440512	66	4210
2026-01-03 14:18:37.87	228.50	5.90	-50.1	-51.5	14.6	0.00e+00	0	29	0	122683392	66	4224
2026-01-03 14:18:38.88	228.61	5.96	-50.1	-51.5	14.6	0.00e+00	0	29	0	128974848	66	4241
2026-01-03 14:18:39.89	228.71	6.01	-50.1	-51.5	14.7	0.00e+00	0	29	0	134217728	66	4196
2026-01-03 14:18:40.90	228.82	6.07	-50.1	-51.5	14.7	0.00e+00	0	29	0	139460608	66	4200
2026-01-03 14:18:41.91	228.93	6.13	-50.2	-51.6	14.6	0.00e+00	0	29	0	145752064	66	4259
2026-01-03 14:18:42.92	229.03	6.18	-50.2	-51.6	14.6	0.00e+00	0	29	0	150994944	66	4277
2026-01-03 14:18:43.93	229.14	6.24	-50.2	-51.6	14.6	0.00e+00	0	29	0	157286400	66	4274
2026-01-03 14:18:44.94	229.25	6.29	-50.1	-51.6	14.6	0.00e+00	0	29	0	162529280	66	4246
2026-01-03 14:18:45.94	229.35	6.35	-50.1	-51.5	14.6	0.00e+00	0	29	0	167772160	66	4232
2026-01-03 14:18:46.95	229.46	6.41	-50.2	-51.6	14.6	0.00e+00	0	29	0	174063616	66	4274
2026-01-03 14:18:47.96	229.57	6.46	-50.2	-51.6	14.6	0.00e+00	0	29	0	179306496	66	4244
2026-01-03 14:18:48.97	229.68	6.52	-50.3	-51.7	14.6	0.00e+00	0	29	0	185597952	66	4337
2026-01-03 14:18:49.98	229.79	6.58	-50.3	-51.7	14.6	0.00e+00	0	29	0	190840832	66	4306
2026-01-03 14:18:50.99	229.90	6.63	-50.3	-51.7	14.6	0.00e+00	0	29	0	197132288	66	4301
2026-01-03 14:18:52.00	230.01	6.69	-50.3	-51.7	14.6	0.00e+00	0	29	0	202375168	66	4311
2026-01-03 14:18:53.01	230.12	6.75	-50.0	-51.4	14.7	0.00e+00	0	29	0	207618048	66	4165
2026-01-03 14:18:54.02	230.23	6.80	-50.1	-51.5	14.7	0.00e+00	0	29	0	213909504	66	4222
2026-01-03 14:18:55.03	230.34	6.86	-49.9	-51.3	14.8	0.00e+00	0	29	0	219152384	66	4129
2026-01-03 14:18:56.04	230.46	6.91	-49.9	-51.2	14.8	0.00e+00	0	29	0	225443840	66	4077
2026-01-03 14:18:57.05	230.57	6.97	-49.9	-51.2	14.8	0.00e+00	0	29	0	230686720	66	4097
2026-01-03 14:18:58.06	230.68	7.03	-49.7	-51.1	14.9	0.00e+00	0	29	0	235929600	66	4007
2026-01-03 14:18:59.07	230.79	7.09	-49.6	-51.0	14.8	0.00e+00	0	29	0	242221056	65	4197
2026-01-03 14:19:00.08	230.91	7.14	-49.7	-51.0	14.8	0.00e+00	0	29	0	247463936	65	4227
2026-01-03 14:19:01.09	231.02	7.20	-49.6	-50.9	14.9	0.00e+00	0	29	0	253755392	65	4173
2026-01-03 14:19:02.10	231.14	7.26	-49.6	-50.9	14.9	0.00e+00	0	29	0	258998272	65	4169
2026-01-03 14:19:03.11	231.25	7.31	-49.7	-51.0	14.8	0.00e+00	0	29	0	264241152	65	4224
2026-01-03 14:19:04.12	231.37	7.37	-49.5	-50.8	14.9	0.00e+00	0	29	0	270532608	65	4119
2026-01-03 14:19:05.13	231.48	7.43	-49.5	-50.9	14.9	0.00e+00	0	29	0	275775488	65	4147
2026-01-03 14:19:06.13	231.60	7.48	-49.5	-50.9	14.9	0.00e+00	0	29	0	282066944	65	4152
2026-01-03 14:19:07.14	231.71	7.54	-49.5	-50.9	14.9	0.00e+00	0	29	0	287309824	65	4146
2026-01-03 14:19:08.15	231.83	7.60	-49.7	-51.0	14.8	0.00e+00	0	29	0	293601280	65	4210
2026-01-03 14:19:09.16	231.95	7.65	-49.4	-50.7	14.9	0.00e+00	0	29	0	298844160	65	4097
2026-01-03 14:19:10.17	232.07	7.71	-49.6	-50.9	14.9	0.00e+00	0	30	0	304087040	65	4179
2026-01-03 14:19:11.18	232.18	7.77	-49.6	-51.0	14.8	0.00e+00	0	29	0	310378496	65	4197
2026-01-03 14:19:12.19	232.30	7.82	-49.5	-50.8	14.9	0.00e+00	0	30	0	315621376	65	4139
2026-01-03 14:19:13.20	232.42	7.88	-49.6	-50.9	14.8	0.00e+00	0	29	0	321912832	65	4192
2026-01-03 14:19:14.21	232.54	7.94	-49.5	-50.8	14.9	0.00e+00	0	30	0	327155712	65	4125
2026-01-03 14:19:15.22	232.66	8.00	-49.5	-50.9	14.9	0.00e+00	0	29	0	332398592	65	4151
2026-01-03 14:19:16.23	232.78	8.05	-49.6	-50.9	14.9	0.00e+00	0	29	0	338690048	65	4161
2026-01-03 14:19:17.23	232.90	8.11	-49.5	-50.8	14.9	0.00e+00	0	29	0	343932928	65	4126
2026-01-03 14:19:18.24	233.03	8.17	-49.4	-50.7	15.0	0.00e+00	0	29	0	350224384	65	4071
2026-01-03 14:19:19.25	233.15	8.22	-49.3	-50.6	15.0	0.00e+00	0	29	0	355467264	65	4045
2026-01-03 14:19:20.25	233.27	8.28	-49.3	-50.5	15.0	0.00e+00	0	29	0	360710144	65	4000
2026-01-03 14:19:21.26	233.39	8.34	-49.2	-50.4	15.1	0.00e+00	0	30	0	367001600	65	3951
2026-01-03 14:19:22.27	233.51	8.40	-49.0	-50.3	15.0	0.00e+00	0	29	0	372244480	64	4115
2026-01-03 14:19:23.27	233.64	8.45	-49.0	-50.3	15.0	0.00e+00	0	30	0	378535936	64	4112
2026-01-03 14:19:24.28	233.76	8.51	-49.0	-50.2	15.0	0.00e+00	0	30	0	383778816	64	4096
2026-01-03 14:19:25.29	233.89	8.57	-48.9	-50.1	15.1	0.00e+00	0	29	0	390070272	64	4044
2026-01-03 14:19:26.29	234.01	8.62	-48.8	-50.1	15.1	0.00e+00	0	29	0	395313152	64	4012
2026-01-03 14:19:27.30	234.14	8.68	-48.9	-50.1	15.1	0.00e+00	0	30	0	400556032	64	4050
2026-01-03 14:19:28.31	234.26	8.74	-48.9	-50.1	15.1	0.00e+00	0	29	0	406847488	64	4045
2026-01-03 14:19:29.32	234.39	8.80	-49.0	-50.2	15.1	0.00e+00	0	30	0	412090368	64	4093
2026-01-03 14:19:30.32	234.52	8.85	-49.1	-50.4	15.0	0.00e+00	0	30	0	417333248	64	4159
2026-01-03 14:19:31.33	234.64	8.91	-49.2	-50.4	15.0	0.00e+00	0	29	0	423624704	64	4183
2026-01-03 14:19:32.34	234.77	8.97	-49.3	-50.6	14.9	0.00e+00	0	30	0	428867584	64	4254
2026-01-03 14:19:33.35	234.90	9.03	-49.3	-50.6	14.9	0.00e+00	0	29	0	435159040	64	4254
2026-01-03 14:19:34.36	235.03	9.08	-49.3	-50.6	14.9	0.00e+00	0	29	0	440401920	64	4251
2026-01-03 14:19:35.37	235.16	9.14	-49.3	-50.6	15.0	0.00e+00	0	30	0	445644800	64	4255
2026-01-03 14:19:36.38	235.29	9.20	-49.2	-50.5	15.0	0.00e+00	0	30	0	451936256	64	4224
2026-01-03 14:19:37.38	235.42	9.26	-49.3	-50.5	14.9	0.00e+00	0	29	0	457179136	64	4239
2026-01-03 14:19:38.39	235.55	9.31	-49.3	-50.6	14.9	0.00e+00	0	30	0	463470592	64	4270
2026-01-03 14:19:39.41	235.68	9.37	-49.2	-50.4	15.0	0.00e+00	0	29	0	468713472	64	4193
2026-01-03 14:19:40.41	235.81	9.43	-49.1	-50.4	15.0	0.00e+00	0	29	0	475004928	64	4160
2026-01-03 14:19:41.42	235.95	9.49	-49.1	-50.4	15.0	0.00e+00	0	29	0	480247808	64	4165
2026-01-03 14:19:42.43	236.08	9.54	-49.2	-50.5	15.0	0.00e+00	0	30	0	486539264	64	4194
2026-01-03 14:19:43.44	236.21	9.60	-49.1	-50.3	15.0	0.00e+00	0	29	0	491782144	64	4145
2026-01-03 14:19:44.45	236.35	9.66	-49.2	-50.5	15.0	0.00e+00	0	30	0	497025024	64	4201
2026-01-03 14:19:45.46	236.48	9.72	-49.0	-50.3	15.1	0.00e+00	0	29	0	503316480	64	4111
2026-01-03 14:19:46.46	236.61	9.77	-49.1	-50.4	15.0	0.00e+00	0	30	0	508559360	64	4157
2026-01-03 14:19:47.47	236.75	9.83	-49.0	-50.2	15.1	0.00e+00	0	30	0	513802240	64	4093
2026-01-03 14:19:48.47	236.89	9.89	-49.0	-50.2	15.1	0.00e+00	0	30	0	520093696	64	4096
2026-01-03 14:19:49.48	237.02	9.94	-49.0	-50.2	15.1	0.00e+00	0	29	0	525336576	64	4081
2026-01-03 14:19:50.49	237.16	10.00	-49.0	-50.3	15.1	0.00e+00	0	29	0	531628032	64	4101
2026-01-03 14:19:51.50	237.30	10.06	-48.9	-50.1	15.1	0.00e+00	0	30	0	536870912	64	4040
2026-01-03 14:19:52.51	237.44	10.12	-48.8	-50.1	15.2	0.00e+00	0	30	0	542113792	64	4012
2026-01-03 14:19:53.52	237.57	10.17	-48.9	-50.1	15.1	0.00e+00	0	29	0	548405248	64	4030
2026-01-03 14:19:54.52	237.71	10.23	-48.8	-50.0	15.2	0.00e+00	0	30	0	553648128	64	3986
2026-01-03 14:19:55.52	237.85	10.29	-48.7	-49.9	15.1	0.00e+00	0	29	0	559939584	63	4174
2026-01-03 14:19:56.53	237.99	10.35	-48.7	-49.9	15.1	0.00e+00	0	30	0	565182464	63	4185
2026-01-03 14:19:57.54	238.13	10.40	-48.7	-49.9	15.1	0.00e+00	0	30	0	571473920	63	4170
2026-01-03 14:19:58.55	238.27	10.46	-48.7	-49.9	15.1	0.00e+00	0	30	0	576716800	63	4168
2026-01-03 14:19:59.56	238.41	10.52	-48.6	-49.8	15.2	0.00e+00	0	30	0	581959680	63	4110
2026-01-03 14:20:00.57	238.56	10.57	-48.6	-49.8	15.2	0.00e+00	0	29	0	588251136	63	4106
2026-01-03 14:20:01.58	238.70	10.63	-48.5	-49.7	15.2	0.00e+00	0	29	0	593494016	63	4076
2026-01-03 14:20:02.59	238.84	10.69	-48.4	-49.6	15.3	0.00e+00	0	29	0	599785472	63	4033
2026-01-03 14:20:03.60	238.99	10.75	-48.3	-49.5	15.3	0.00e+00	0	30	0	605028352	63	3966
2026-01-03 14:20:04.60	239.13	10.80	-48.2	-49.4	15.3	0.00e+00	0	29	0	610271232	63	3927
2026-01-03 14:20:05.61	239.28	10.86	-48.3	-49.5	15.3	0.00e+00	0	29	0	616562688	63	3965
2026-01-03 14:20:06.62	239.42	10.92	-48.3	-49.5	15.3	0.00e+00	0	29	0	621805568	63	3964
2026-01-03 14:20:07.63	239.57	10.97	-48.3	-49.5	15.3	0.00e+00	0	30	0	628097024	63	3963
2026-01-03 14:20:08.64	239.72	11.03	-48.5	-49.6	15.2	0.00e+00	0	29	0	633339904	63	4042
2026-01-03 14:20:09.65	239.86	11.09	-48.5	-49.7	15.2	0.00e+00	0	29	0	638582784	63	4082
2026-01-03 14:20:10.65	240.01	11.15	-48.6	-49.8	15.2	0.00e+00	0	30	0	644874240	63	4137
2026-01-03 14:20:11.66	240.16	11.20	-48.6	-49.8	15.2	0.00e+00	0	29	0	650117120	63	4128
2026-01-03 14:20:12.67	240.31	11.26	-48.6	-49.8	15.2	0.00e+00	0	30	0	656408576	63	4111
2026-01-03 14:20:13.68	240.46	11.32	-48.6	-49.8	15.2	0.00e+00	0	29	0	661651456	63	4117
2026-01-03 14:20:14.69	240.61	11.37	-48.4	-49.6	15.3	0.00e+00	0	29	0	667942912	63	4019
2026-01-03 14:20:15.70	240.76	11.43	-48.5	-49.7	15.2	0.00e+00	0	30	0	673185792	63	4053
2026-01-03 14:20:16.71	240.91	11.49	-48.4	-49.6	15.3	0.00e+00	0	30	0	678428672	63	4015
2026-01-03 14:20:17.72	241.06	11.54	-48.5	-49.6	15.2	0.00e+00	0	30	0	684720128	63	4045
2026-01-03 14:20:18.73	241.21	11.60	-48.5	-49.7	15.2	0.00e+00	0	30	0	689963008	63	4082
2026-01-03 14:20:19.74	241.37	11.66	-48.5	-49.7	15.2	0.00e+00	0	29	0	696254464	63	4089
2026-01-03 14:20:20.74	241.52	11.71	-48.6	-49.9	15.2	0.00e+00	0	30	0	701497344	63	4150
2026-01-03 14:20:21.75	241.67	11.77	-48.7	-49.9	15.1	0.00e+00	0	30	0	706740224	63	4183
2026-01-03 14:20:22.76	241.83	11.83	-48.7	-49.9	15.2	0.00e+00	0	30	0	713031680	63	4183
2026-01-03 14:20:23.76	241.98	11.88	-48.6	-49.8	15.2	0.00e+00	0	30	0	718274560	63	4143
2026-01-03 14:20:24.77	242.14	11.94	-48.6	-49.8	15.2	0.00e+00	0	29	0	723517440	63	4135
2026-01-03 14:20:25.78	242.29	11.99	-48.6	-49.8	15.2	0.00e+00	0	30	0	729808896	63	4125
2026-01-03 14:20:26.79	242.45	12.05	-48.7	-49.9	15.2	0.00e+00	0	29	0	735051776	63	4152
2026-01-03 14:20:27.80	242.61	12.11	-48.7	-49.9	15.1	0.00e+00	0	30	0	741343232	63	4180
2026-01-03 14:20:28.81	242.76	12.16	-48.7	-49.9	15.1	0.00e+00	0	29	0	746586112	63	4180
2026-01-03 14:20:29.82	242.92	12.22	-48.6	-49.8	15.2	0.00e+00	0	30	0	752877568	63	4124
2026-01-03 14:20:30.83	243.08	12.28	-48.6	-49.9	15.2	0.00e+00	0	30	0	758120448	63	4150
2026-01-03 14:20:31.84	243.24	12.33	-48.5	-49.7	15.2	0.00e+00	0	30	0	764411904	63	4088
2026-01-03 14:20:32.85	243.40	12.39	-48.5	-49.7	15.3	0.00e+00	0	30	0	769654784	63	4060
2026-01-03 14:20:33.85	243.56	12.44	-48.4	-49.6	15.3	0.00e+00	0	30	0	774897664	63	4020
2026-01-03 14:20:34.86	243.72	12.50	-48.4	-49.6	15.3	0.00e+00	0	30	0	781189120	63	4020
2026-01-03 14:20:35.86	243.89	12.55	-48.3	-49.5	15.3	0.00e+00	0	30	0	786432000	63	3977
2026-01-03 14:20:36.88	244.05	12.61	-48.3	-49.5	15.3	0.00e+00	0	29	0	792723456	63	3979
2026-01-03 14:20:37.88	244.21	12.66	-48.2	-49.4	15.4	0.00e+00	0	30	0	797966336	63	3929
2026-01-03 14:20:38.89	244.38	12.72	-48.2	-49.4	15.4	0.00e+00	0	30	0	803209216	63	3928
2026-01-03 14:20:39.90	244.54	12.78	-48.2	-49.3	15.3	0.00e+00	0	30	0	809500672	62	4139
2026-01-03 14:20:40.90	244.70	12.83	-48.1	-49.3	15.3	0.00e+00	0	30	0	814743552	62	4126
2026-01-03 14:20:41.92	244.87	12.89	-48.2	-49.4	15.3	0.00e+00	0	30	0	819986432	62	4148
2026-01-03 14:20:42.92	245.04	12.94	-48.1	-49.3	15.3	0.00e+00	0	30	0	826277888	62	4109
2026-01-03 14:20:43.93	245.20	12.99	-48.0	-49.2	15.3	0.00e+00	0	30	0	831520768	62	4071
2026-01-03 14:20:44.94	245.37	13.05	-48.1	-49.3	15.3	0.00e+00	0	30	0	837812224	62	4113
2026-01-03 14:20:45.95	245.54	13.10	-48.1	-49.2	15.3	0.00e+00	0	29	0	843055104	62	4085
2026-01-03 14:20:46.95	245.71	13.16	-48.1	-49.3	15.3	0.00e+00	0	30	0	849346560	62	4099
2026-01-03 14:20:47.96	245.88	13.21	-48.2	-49.4	15.3	0.00e+00	0	30	0	854589440	62	4153
2026-01-03 14:20:48.97	246.05	13.27	-48.1	-49.3	15.3	0.00e+00	0	30	0	859832320	62	4111
2026-01-03 14:20:49.98	246.22	13.32	-48.2	-49.3	15.3	0.00e+00	0	30	0	866123776	62	4127
2026-01-03 14:20:50.98	246.39	13.38	-48.1	-49.3	15.3	0.00e+00	0	30	0	871366656	62	4104
2026-01-03 14:20:51.99	246.56	13.43	-47.9	-49.1	15.4	0.00e+00	0	30	0	877658112	62	4023
2026-01-03 14:20:53.01	246.73	13.48	-47.9	-49.0	15.4	0.00e+00	0	30	0	882900992	62	3977
2026-01-03 14:20:54.02	246.90	13.54	-47.9	-49.0	15.4	0.00e+00	0	29	0	888143872	62	3989
2026-01-03 14:20:55.02	247.08	13.59	-47.8	-49.0	15.4	0.00e+00	0	30	0	894435328	62	3974
2026-01-03 14:20:56.03	247.25	13.65	-47.8	-48.9	15.4	0.00e+00	0	29	0	899678208	62	3958
2026-01-03 14:20:57.03	247.42	13.70	-47.8	-49.0	15.4	0.00e+00	0	30	0	905969664	62	3960
2026-01-03 14:20:58.03	247.60	13.75	-47.9	-49.0	15.4	0.00e+00	0	30	0	911212544	62	3994
2026-01-03 14:20:59.04	247.77	13.80	-48.0	-49.2	15.4	0.00e+00	0	30	0	916455424	62	4053
2026-01-03 14:21:00.05	247.95	13.86	-47.9	-49.0	15.4	0.00e+00	0	30	0	922746880	62	3989
2026-01-03 14:21:01.06	248.13	13.91	-47.8	-49.0	15.4	0.00e+00	0	30	0	927989760	62	3966
2026-01-03 14:21:02.07	248.31	13.96	-47.9	-49.1	15.4	0.00e+00	0	30	0	934281216	62	4013
2026-01-03 14:21:03.08	248.48	14.02	-47.8	-49.0	15.4	0.00e+00	0	30	0	939524096	62	3971
2026-01-03 14:21:04.08	248.66	14.07	-47.8	-48.9	15.4	0.00e+00	0	30	0	945815552	62	3927
2026-01-03 14:21:05.09	248.84	14.12	-47.8	-49.0	15.4	0.00e+00	0	30	0	951058432	62	3968
2026-01-03 14:21:06.10	249.02	14.17	-47.8	-49.0	15.4	0.00e+00	0	30	0	956301312	62	3971
2026-01-03 14:21:07.10	249.20	14.22	-47.7	-48.8	15.5	0.00e+00	0	30	0	962592768	62	3891
2026-01-03 14:21:08.11	249.38	14.28	-47.7	-48.8	15.5	0.00e+00	0	30	0	967835648	62	3901
2026-01-03 14:21:09.12	249.57	14.33	-47.7	-48.8	15.5	0.00e+00	0	30	0	973078528	62	3912
2026-01-03 14:21:10.12	249.75	14.38	-47.7	-48.8	15.5	0.00e+00	0	30	0	979369984	62	3913
2026-01-03 14:21:11.13	249.93	14.43	-47.8	-49.0	15.4	0.00e+00	0	30	0	984612864	62	3975
2026-01-03 14:21:12.15	250.12	14.48	-47.8	-48.9	15.4	0.00e+00	0	30	0	990904320	62	3953
2026-01-03 14:21:13.15	250.30	14.53	-47.7	-48.8	15.5	0.00e+00	0	30	0	996147200	62	3896
2026-01-03 14:21:14.16	250.48	14.58	-47.7	-48.8	15.5	0.00e+00	0	30	0	1001390080	62	3905
2026-01-03 14:21:15.17	250.67	14.64	-47.6	-48.7	15.4	0.00e+00	0	30	0	1007681536	61	4074
2026-01-03 14:21:16.18	250.86	14.69	-47.6	-48.7	15.4	0.00e+00	0	30	0	1012924416	61	4098
2026-01-03 14:21:17.18	251.04	14.74	-47.6	-48.7	15.4	0.00e+00	0	30	0	1019215872	61	4071
2026-01-03 14:21:18.19	251.23	14.79	-47.6	-48.7	15.4	0.00e+00	0	30	0	1024458752	61	4083
2026-01-03 14:21:19.20	251.42	14.84	-47.6	-48.7	15.4	0.00e+00	0	30	0	1030750208	61	4095
2026-01-03 14:21:20.20	251.60	14.89	-47.6	-48.8	15.4	0.00e+00	0	29	0	1035993088	61	4099
2026-01-03 14:21:21.21	251.79	14.94	-47.7	-48.9	15.3	0.00e+00	0	30	0	1041235968	61	4163
2026-01-03 14:21:22.22	251.98	14.99	-47.7	-48.9	15.3	0.00e+00	0	30	0	1047527424	61	4159
2026-01-03 14:21:23.23	252.18	15.03	-47.8	-49.0	15.3	0.00e+00	0	30	0	1052770304	61	4208
2026-01-03 14:21:24.23	252.36	15.08	-47.8	-49.0	15.3	0.00e+00	0	30	0	1059061760	61	4196
2026-01-03 14:21:25.24	252.56	15.13	-47.7	-48.9	15.3	0.00e+00	0	30	0	1064304640	61	4156
2026-01-03 14:21:26.26	252.75	15.18	-47.7	-48.9	15.4	0.00e+00	0	30	0	1069547520	61	4158
2026-01-03 14:21:27.26	252.94	15.23	-47.8	-48.9	15.4	0.00e+00	0	30	0	1075838976	61	4167
2026-01-03 14:21:28.27	253.14	15.28	-47.7	-48.8	15.4	0.00e+00	0	30	0	1081081856	61	4140
2026-01-03 14:21:29.28	253.33	15.33	-47.6	-48.7	15.4	0.00e+00	0	30	0	1087373312	61	4072
2026-01-03 14:21:30.29	253.53	15.37	-47.6	-48.7	15.4	0.00e+00	0	30	0	1092616192	61	4077
2026-01-03 14:21:31.29	253.72	15.42	-47.5	-48.6	15.4	0.00e+00	0	30	0	1097859072	61	4044
2026-01-03 14:21:32.30	253.92	15.47	-47.4	-48.5	15.5	0.00e+00	0	30	0	1104150528	61	4000
2026-01-03 14:21:33.30	254.11	15.52	-47.4	-48.5	15.5	0.00e+00	0	30	0	1109393408	61	3993
2026-01-03 14:21:34.31	254.31	15.56	-47.4	-48.5	15.5	0.00e+00	0	30	0	1115684864	61	3963
2026-01-03 14:21:35.32	254.51	15.61	-47.5	-48.6	15.5	0.00e+00	0	30	0	1120927744	61	4019
2026-01-03 14:21:36.32	254.70	15.66	-47.5	-48.7	15.4	0.00e+00	0	30	0	1126170624	61	4061
2026-01-03 14:21:37.33	254.90	15.70	-47.6	-48.7	15.4	0.00e+00	0	30	0	1132462080	61	4091
2026-01-03 14:21:38.34	255.10	15.75	-47.6	-48.7	15.4	0.00e+00	0	30	0	1137704960	61	4083
2026-01-03 14:21:39.34	255.30	15.79	-47.5	-48.7	15.4	0.00e+00	0	30	0	1143996416	61	4055
2026-01-03 14:21:40.35	255.50	15.84	-47.5	-48.6	15.5	0.00e+00	0	30	0	1149239296	61	4034
2026-01-03 14:21:41.36	255.70	15.88	-47.4	-48.5	15.5	0.00e+00	0	30	0	1154482176	61	3986
2026-01-03 14:21:42.37	255.91	15.93	-47.4	-48.5	15.5	0.00e+00	0	30	0	1160773632	61	3963
2026-01-03 14:21:43.38	256.11	15.97	-47.5	-48.6	15.5	0.00e+00	0	30	0	1166016512	61	4006
2026-01-03 14:21:44.39	256.31	16.02	-47.4	-48.5	15.5	0.00e+00	0	30	0	1172307968	61	3971
2026-01-03 14:21:45.40	256.52	16.06	-47.4	-48.5	15.5	0.00e+00	0	30	0	1177550848	61	3975
2026-01-03 14:21:46.41	256.72	16.11	-47.5	-48.6	15.5	0.00e+00	0	30	0	1182793728	61	4024
2026-01-03 14:21:47.42	256.93	16.15	-47.5	-48.6	15.4	0.00e+00	0	30	0	1189085184	61	4038
2026-01-03 14:21:48.42	257.13	16.20	-47.5	-48.6	15.4	0.00e+00	0	30	0	1194328064	61	4042
2026-01-03 14:21:49.42	257.33	16.24	-47.5	-48.6	15.4	0.00e+00	0	30	0	1200619520	61	4035
2026-01-03 14:21:50.43	257.54	16.28	-47.5	-48.6	15.5	0.00e+00	0	30	0	1205862400	61	4022
2026-01-03 14:21:51.44	257.75	16.32	-47.4	-48.6	15.5	0.00e+00	0	30	0	1212153856	61	4008
2026-01-03 14:21:52.45	257.96	16.37	-47.5	-48.7	15.4	0.00e+00	0	30	0	1217396736	61	4054
2026-01-03 14:21:53.46	258.16	16.41	-47.5	-48.6	15.4	0.00e+00	0	30	0	1222639616	61	4039
2026-01-03 14:21:54.46	258.37	16.45	-47.4	-48.5	15.5	0.00e+00	0	30	0	1228931072	61	4002
2026-01-03 14:21:55.47	258.58	16.49	-47.4	-48.5	15.5	0.00e+00	0	30	0	1234173952	61	3986
2026-01-03 14:21:56.47	258.79	16.53	-47.3	-48.4	15.5	0.00e+00	0	30	0	1239416832	61	3953
2026-01-03 14:21:57.49	259.00	16.57	-47.3	-48.4	15.5	0.00e+00	0	30	0	1245708288	61	3931
2026-01-03 14:21:58.49	259.21	16.61	-47.2	-48.3	15.6	0.00e+00	0	30	0	1250951168	61	3898
2026-01-03 14:21:59.50	259.42	16.65	-47.2	-48.3	15.6	0.00e+00	0	30	0	1257242624	61	3912
2026-01-03 14:22:00.51	259.64	16.70	-47.4	-48.5	15.5	0.00e+00	0	30	0	1262485504	61	3974
2026-01-03 14:22:01.52	259.85	16.73	-47.4	-48.5	15.5	0.00e+00	0	30	0	1268776960	61	4004
2026-01-03 14:22:02.53	260.06	16.77	-47.5	-48.6	15.5	0.00e+00	0	30	0	1274019840	61	4017
2026-01-03 14:22:03.53	260.28	16.81	-47.4	-48.5	15.5	0.00e+00	0	30	0	1280311296	61	4002
2026-01-03 14:22:04.54	260.49	16.85	-47.4	-48.5	15.5	0.00e+00	0	30	0	1285554176	61	4002
2026-01-03 14:22:05.55	260.71	16.89	-47.3	-48.5	15.5	0.00e+00	0	30	0	1290797056	61	3967
2026-01-03 14:22:06.56	260.92	16.93	-47.3	-48.4	15.5	0.00e+00	0	30	0	1297088512	61	3920
2026-01-03 14:22:07.57	261.14	16.97	-47.4	-48.5	15.5	0.00e+00	0	30	0	1302331392	61	3968
2026-01-03 14:22:08.58	261.35	17.00	-47.3	-48.4	15.5	0.00e+00	0	30	0	1308622848	61	3942
2026-01-03 14:22:09.58	261.57	17.04	-47.2	-48.3	15.5	0.00e+00	0	30	0	1313865728	61	3912
2026-01-03 14:22:10.59	261.79	17.08	-47.3	-48.5	15.5	0.00e+00	0	30	0	1319108608	61	3963
2026-01-03 14:22:11.60	262.01	17.11	-47.3	-48.4	15.5	0.00e+00	0	30	0	1325400064	61	3916
2026-01-03 14:22:12.61	262.22	17.15	-47.3	-48.4	15.5	0.00e+00	0	30	0	1330642944	61	3937
2026-01-03 14:22:13.62	262.44	17.19	-47.3	-48.4	15.5	0.00e+00	0	30	0	1335885824	61	3952
2026-01-03 14:22:14.63	262.66	17.22	-47.2	-48.3	15.6	0.00e+00	0	30	0	1342177280	61	3877
2026-01-03 14:22:15.63	262.88	17.26	-47.1	-48.2	15.5	0.00e+00	0	30	0	1347420160	60	4083
2026-01-03 14:22:16.64	263.10	17.29	-47.1	-48.2	15.5	0.00e+00	0	30	0	1353711616	60	4063
2026-01-03 14:22:17.65	263.32	17.33	-47.0	-48.1	15.5	0.00e+00	0	30	0	1358954496	60	4034
2026-01-03 14:22:18.66	263.55	17.36	-47.1	-48.2	15.5	0.00e+00	0	30	0	1365245952	60	4053
2026-01-03 14:22:19.67	263.77	17.39	-47.1	-48.2	15.5	0.00e+00	0	30	0	1370488832	60	4057
2026-01-03 14:22:20.68	263.99	17.43	-47.1	-48.2	15.5	0.00e+00	0	30	0	1375731712	60	4077
2026-01-03 14:22:21.69	264.21	17.46	-47.1	-48.2	15.5	0.00e+00	0	30	0	1382023168	60	4079
2026-01-03 14:22:22.69	264.44	17.49	-47.0	-48.1	15.5	0.00e+00	0	30	0	1387266048	60	4034
2026-01-03 14:22:23.70	264.66	17.53	-47.0	-48.1	15.5	0.00e+00	0	30	0	1393557504	60	4010
2026-01-03 14:22:24.71	264.88	17.56	-47.0	-48.0	15.5	0.00e+00	0	30	0	1398800384	60	3986
2026-01-03 14:22:25.72	265.11	17.59	-47.0	-48.1	15.5	0.00e+00	0	30	0	1404043264	60	4025
2026-01-03 14:22:26.72	265.33	17.62	-47.1	-48.2	15.5	0.00e+00	0	30	0	1410334720	60	4052
2026-01-03 14:22:27.73	265.56	17.65	-47.1	-48.1	15.5	0.00e+00	0	30	0	1415577600	60	4046
2026-01-03 14:22:28.74	265.79	17.68	-47.1	-48.3	15.5	0.00e+00	0	30	0	1421869056	60	4099
2026-01-03 14:22:29.75	266.01	17.71	-47.1	-48.2	15.5	0.00e+00	0	30	0	1427111936	60	4087
2026-01-03 14:22:30.75	266.24	17.74	-47.1	-48.2	15.5	0.00e+00	0	30	0	1432354816	60	4069
2026-01-03 14:22:31.76	266.47	17.77	-47.2	-48.3	15.5	0.00e+00	0	30	0	1438646272	60	4109
2026-01-03 14:22:32.77	266.69	17.80	-47.0	-48.1	15.5	0.00e+00	0	30	0	1443889152	60	4044
2026-01-03 14:22:33.78	266.92	17.83	-47.1	-48.2	15.5	0.00e+00	0	30	0	1450180608	60	4052
2026-01-03 14:22:34.79	267.15	17.85	-47.1	-48.2	15.5	0.00e+00	0	30	0	1455423488	60	4053
2026-01-03 14:22:35.80	267.38	17.88	-47.0	-48.1	15.5	0.00e+00	0	30	0	1461714944	60	4020
2026-01-03 14:22:36.81	267.61	17.91	-47.1	-48.1	15.5	0.00e+00	0	30	0	1466957824	60	4042
2026-01-03 14:22:37.81	267.84	17.94	-47.0	-48.1	15.5	0.00e+00	0	30	0	1472200704	60	4011
2026-01-03 14:22:38.81	268.07	17.96	-47.0	-48.1	15.5	0.00e+00	0	30	0	1478492160	60	4036
2026-01-03 14:22:39.82	268.30	17.99	-47.1	-48.2	15.5	0.00e+00	0	30	0	1483735040	60	4074
2026-01-03 14:22:40.83	268.53	18.01	-47.1	-48.2	15.5	0.00e+00	0	30	0	1490026496	60	4063
2026-01-03 14:22:41.84	268.76	18.04	-47.2	-48.3	15.5	0.00e+00	0	30	0	1495269376	60	4117
2026-01-03 14:22:42.85	268.99	18.06	-47.1	-48.2	15.5	0.00e+00	0	30	0	1500512256	60	4082
2026-01-03 14:22:43.86	269.23	18.09	-47.1	-48.2	15.5	0.00e+00	0	30	0	1506803712	60	4092
2026-01-03 14:22:44.86	269.46	18.11	-47.1	-48.2	15.5	0.00e+00	0	30	0	1512046592	60	4072
2026-01-03 14:22:45.87	269.69	18.13	-47.1	-48.2	15.5	0.00e+00	0	30	0	1517289472	60	4091
2026-01-03 14:22:46.87	269.92	18.16	-47.1	-48.2	15.5	0.00e+00	0	30	0	1523580928	60	4063
2026-01-03 14:22:47.88	270.15	18.18	-47.1	-48.2	15.5	0.00e+00	0	30	0	1528823808	60	4080
2026-01-03 14:22:48.89	270.39	18.20	-47.1	-48.2	15.5	0.00e+00	0	30	0	1535115264	60	4073
2026-01-03 14:22:49.90	270.62	18.22	-47.1	-48.2	15.5	0.00e+00	0	30	0	1540358144	60	4065
2026-01-03 14:22:50.91	270.86	18.24	-47.0	-48.1	15.5	0.00e+00	0	30	0	1546649600	60	4023
2026-01-03 14:22:51.92	271.09	18.26	-47.0	-48.1	15.5	0.00e+00	0	30	0	1551892480	60	4025
2026-01-03 14:22:52.92	271.33	18.28	-47.2	-48.3	15.5	0.00e+00	0	30	0	1557135360	60	4115
2026-01-03 14:22:53.93	271.56	18.30	-47.2	-48.2	15.5	0.00e+00	0	30	0	1563426816	60	4097
2026-01-03 14:22:54.94	271.80	18.32	-47.1	-48.2	15.5	0.00e+00	0	30	0	1568669696	60	4057
2026-01-03 14:22:55.95	272.03	18.34	-47.1	-48.1	15.5	0.00e+00	0	30	0	1574961152	60	4045
2026-01-03 14:22:56.96	272.27	18.36	-47.1	-48.1	15.5	0.00e+00	0	30	0	1580204032	60	4049
2026-01-03 14:22:57.97	272.51	18.38	-47.1	-48.1	15.5	0.00e+00	0	30	0	1585446912	60	4041
2026-01-03 14:22:58.98	272.74	18.40	-47.0	-48.1	15.5	0.00e+00	0	30	0	1591738368	60	4037
2026-01-03 14:22:59.99	272.98	18.41	-47.1	-48.2	15.5	0.00e+00	0	30	0	1596981248	60	4053
2026-01-03 14:23:00.99	273.22	18.43	-47.2	-48.3	15.5	0.00e+00	0	30	0	1603272704	60	4106
2026-01-03 14:23:02.00	273.45	18.45	-47.0	-48.1	15.5	0.00e+00	0	30	0	1608515584	60	4033
2026-01-03 14:23:03.01	273.69	18.46	-46.9	-48.0	15.6	0.00e+00	0	30	0	1613758464	60	3978
2026-01-03 14:23:04.02	273.93	18.48	-46.9	-48.0	15.6	0.00e+00	0	30	0	1620049920	60	3965
2026-01-03 14:23:05.03	274.17	18.49	-46.9	-48.0	15.6	0.00e+00	0	30	0	1625292800	60	3982
2026-01-03 14:23:06.04	274.41	18.51	-46.9	-48.0	15.6	0.00e+00	0	30	0	1631584256	60	3964
2026-01-03 14:23:07.04	274.65	18.52	-47.0	-48.1	15.5	0.00e+00	0	30	0	1636827136	60	4014
2026-01-03 14:23:08.05	274.88	18.53	-47.1	-48.2	15.5	0.00e+00	0	30	0	1643118592	60	4057
2026-01-03 14:23:09.06	275.12	18.54	-47.0	-48.1	15.5	0.00e+00	0	30	0	1648361472	60	4014
2026-01-03 14:23:10.07	275.36	18.56	-47.1	-48.2	15.5	0.00e+00	0	30	0	1653604352	60	4052
2026-01-03 14:23:11.07	275.60	18.57	-47.0	-48.1	15.5	0.00e+00	0	30	0	1659895808	60	4018
2026-01-03 14:23:12.08	275.84	18.58	-47.1	-48.2	15.5	0.00e+00	0	30	0	1665138688	60	4075
2026-01-03 14:23:13.09	276.08	18.59	-47.1	-48.2	15.5	0.00e+00	0	30	0	1671430144	60	4083
2026-01-03 14:23:14.09	276.32	18.60	-47.1	-48.2	15.5	0.00e+00	0	30	0	1676673024	60	4081
2026-01-03 14:23:15.10	276.56	18.61	-47.0	-48.1	15.5	0.00e+00	0	30	0	1681915904	60	4007
2026-01-03 14:23:16.10	276.80	18.62	-47.0	-48.0	15.6	0.00e+00	0	30	0	1688207360	60	3993
2026-01-03 14:23:17.11	277.04	18.63	-46.9	-47.9	15.6	0.00e+00	0	30	0	1693450240	60	3950
2026-01-03 14:23:18.12	277.28	18.64	-46.9	-47.9	15.6	0.00e+00	0	30	0	1698693120	60	3953
2026-01-03 14:23:19.13	277.52	18.65	-46.9	-47.9	15.6	0.00e+00	0	30	0	1704984576	60	3950
2026-01-03 14:23:20.14	277.76	18.65	-47.0	-48.1	15.6	0.00e+00	0	30	0	1710227456	60	4006
2026-01-03 14:23:21.15	278.00	18.66	-46.9	-48.0	15.6	0.00e+00	0	30	0	1716518912	60	3982
2026-01-03 14:23:22.16	278.24	18.67	-47.0	-48.1	15.5	0.00e+00	0	30	0	1721761792	60	4009
2026-01-03 14:23:23.16	278.48	18.67	-47.0	-48.1	15.5	0.00e+00	0	30	0	1728053248	60	4028
2026-01-03 14:23:24.17	278.72	18.68	-47.0	-48.1	15.5	0.00e+00	0	30	0	1733296128	60	4029
2026-01-03 14:23:25.18	278.96	18.68	-47.0	-48.0	15.5	0.00e+00	0	30	0	1739587584	60	3994
2026-01-03 14:23:26.19	279.21	18.69	-47.1	-48.1	15.5	0.00e+00	0	30	0	1744830464	60	4037
2026-01-03 14:23:27.20	279.45	18.69	-47.0	-48.1	15.6	0.00e+00	0	30	0	1750073344	60	4008
2026-01-03 14:23:28.21	279.69	18.70	-47.1	-48.2	15.5	0.00e+00	0	30	0	1756364800	60	4054
2026-01-03 14:23:29.22	279.93	18.70	-47.0	-48.0	15.5	0.00e+00	0	30	0	1761607680	60	4004
2026-01-03 14:23:30.23	280.17	18.70	-47.0	-48.1	15.6	0.00e+00	0	30	0	1767899136	60	4017
2026-01-03 14:23:31.23	280.41	18.70	-47.0	-48.0	15.6	0.00e+00	0	30	0	1773142016	60	3995
2026-01-03 14:23:32.24	280.65	18.70	-47.1	-48.1	15.5	0.00e+00	0	30	0	1778384896	60	4050
2026-01-03 14:23:33.25	280.90	18.71	-47.1	-48.1	15.5	0.00e+00	0	30	0	1784676352	60	4045
2026-01-03 14:23:34.26	281.14	18.71	-47.1	-48.2	15.5	0.00e+00	0	30	0	1789919232	60	4057
2026-01-03 14:23:35.27	281.38	18.71	-47.1	-48.1	15.5	0.00e+00	0	30	0	1795162112	60	4049
2026-01-03 14:23:36.28	281.62	18.71	-47.2	-48.2	15.5	0.00e+00	0	30	0	1801453568	60	4094
2026-01-03 14:23:37.29	281.86	18.71	-47.3	-48.4	15.5	0.00e+00	0	30	0	1806696448	60	4146
2026-01-03 14:23:38.29	282.10	18.70	-47.1	-48.2	15.5	0.00e+00	0	30	0	1812987904	60	4079
2026-01-03 14:23:39.30	282.35	18.70	-47.1	-48.2	15.5	0.00e+00	0	30	0	1818230784	60	4071
2026-01-03 14:23:40.31	282.59	18.70	-47.2	-48.3	15.5	0.00e+00	0	30	0	1824522240	60	4121
2026-01-03 14:23:41.32	282.83	18.70	-47.1	-48.2	15.5	0.00e+00	0	30	0	1829765120	60	4092
2026-01-03 14:23:42.33	283.07	18.69	-47.2	-48.3	15.5	0.00e+00	0	30	0	1835008000	60	4109
2026-01-03 14:23:43.34	283.31	18.69	-47.3	-48.4	15.4	0.00e+00	0	30	0	1841299456	60	4151
2026-01-03 14:23:44.34	283.55	18.69	-47.3	-48.4	15.4	0.00e+00	0	30	0	1846542336	60	4183
2026-01-03 14:23:45.35	283.79	18.68	-47.3	-48.4	15.4	0.00e+00	0	30	0	1852833792	60	4176
2026-01-03 14:23:46.36	284.03	18.67	-47.3	-48.4	15.5	0.00e+00	0	30	0	1858076672	60	4170
2026-01-03 14:23:47.37	284.28	18.67	-47.3	-48.4	15.4	0.00e+00	0	30	0	1863319552	60	4175
2026-01-03 14:23:48.38	284.52	18.66	-47.3	-48.4	15.4	0.00e+00	0	30	0	1869611008	60	4152
2026-01-03 14:23:49.38	284.76	18.66	-47.3	-48.4	15.5	0.00e+00	0	30	0	1874853888	60	4149
2026-01-03 14:23:50.40	285.00	18.65	-47.2	-48.3	15.5	0.00e+00	0	30	0	1881145344	60	4110
2026-01-03 14:23:51.40	285.24	18.64	-47.3	-48.4	15.5	0.00e+00	0	30	0	1886388224	60	4159
2026-01-03 14:23:52.41	285.48	18.63	-47.2	-48.3	15.5	0.00e+00	0	30	0	1891631104	60	4123
2026-01-03 14:23:53.42	285.72	18.62	-47.3	-48.4	15.4	0.00e+00	0	30	0	1897922560	60	4177
2026-01-03 14:23:54.42	285.96	18.61	-47.3	-48.4	15.4	0.00e+00	0	30	0	1903165440	60	4174
2026-01-03 14:23:55.44	286.20	18.60	-47.3	-48.4	15.5	0.00e+00	0	30	0	1909456896	60	4168
2026-01-03 14:23:56.44	286.44	18.59	-47.4	-48.5	15.4	0.00e+00	0	30	0	1914699776	60	4201
2026-01-03 14:23:57.45	286.68	18.58	-47.4	-48.5	15.4	0.00e+00	0	30	0	1920991232	60	4209
2026-01-03 14:23:58.46	286.92	18.57	-47.3	-48.4	15.4	0.00e+00	0	30	0	1926234112	60	4150
2026-01-03 14:23:59.45	287.15	18.56	-47.1	-48.1	15.5	0.00e+00	0	30	0	1931476992	60	4045
2026-01-03 14:24:00.46	287.39	18.55	-47.0	-48.1	15.5	0.00e+00	0	30	0	1937768448	60	4040
2026-01-03 14:24:01.47	287.63	18.54	-47.1	-48.2	15.5	0.00e+00	0	30	0	1943011328	60	4053
2026-01-03 14:24:02.47	287.87	18.52	-47.1	-48.2	15.5	0.00e+00	0	30	0	1948254208	60	4090
2026-01-03 14:24:03.48	288.11	18.51	-47.1	-48.2	15.5	0.00e+00	0	30	0	1954545664	60	4070
2026-01-03 14:24:04.49	288.34	18.50	-47.1	-48.2	15.5	0.00e+00	0	30	0	1959788544	60	4085
2026-01-03 14:24:05.50	288.58	18.48	-47.1	-48.2	15.5	0.00e+00	0	30	0	1966080000	60	4070
2026-01-03 14:24:06.51	288.82	18.47	-47.3	-48.4	15.5	0.00e+00	0	30	0	1971322880	60	4147
2026-01-03 14:24:07.51	289.06	18.45	-47.4	-48.5	15.4	0.00e+00	0	30	0	1976565760	60	4205
2026-01-03 14:24:08.52	289.29	18.44	-47.3	-48.4	15.4	0.00e+00	0	30	0	1982857216	60	4189
2026-01-03 14:24:09.53	289.53	18.42	-47.4	-48.5	15.4	0.00e+00	0	30	0	1988100096	60	4217
2026-01-03 14:24:10.54	289.77	18.40	-47.4	-48.5	15.4	0.00e+00	0	30	0	1994391552	60	4241
2026-01-03 14:24:11.55	290.01	18.38	-47.5	-48.6	15.4	0.00e+00	0	30	0	1999634432	60	4261
2026-01-03 14:24:12.56	290.24	18.37	-47.5	-48.7	15.4	0.00e+00	0	30	0	2005925888	60	4296
2026-01-03 14:24:13.57	290.48	18.35	-47.5	-48.6	15.4	0.00e+00	0	30	0	2011168768	60	4258
2026-01-03 14:24:14.58	290.71	18.33	-47.5	-48.6	15.4	0.00e+00	0	30	0	2017460224	60	4279
2026-01-03 14:24:15.59	290.95	18.31	-47.6	-48.7	15.4	0.00e+00	0	30	0	2022703104	60	4298
2026-01-03 14:24:16.59	291.18	18.29	-47.6	-48.8	15.4	0.00e+00	0	30	0	2027945984	60	4341
2026-01-03 14:24:17.60	291.42	18.27	-47.7	-48.8	15.3	0.00e+00	0	30	0	2034237440	60	4361
2026-01-03 14:24:18.61	291.65	18.25	-47.7	-48.9	15.3	0.00e+00	0	30	0	2039480320	60	4403
2026-01-03 14:24:19.62	291.89	18.23	-47.7	-48.9	15.3	0.00e+00	0	30	0	2044723200	60	4409
2026-01-03 14:24:20.63	292.12	18.21	-47.9	-49.1	15.4	0.00e+00	0	30	0	2051014656	61	4245
2026-01-03 14:24:21.64	292.36	18.19	-47.9	-49.1	15.4	0.00e+00	0	30	0	2056257536	61	4254
2026-01-03 14:24:22.65	292.59	18.17	-47.9	-49.0	15.4	0.00e+00	0	30	0	2062548992	61	4227
2026-01-03 14:24:23.66	292.82	18.14	-47.9	-49.1	15.3	0.00e+00	0	30	0	2067791872	61	4257
2026-01-03 14:24:24.67	293.06	18.12	-47.9	-49.1	15.3	0.00e+00	0	30	0	2073034752	61	4247
2026-01-03 14:24:25.67	293.29	18.10	-47.8	-48.9	15.4	0.00e+00	0	30	0	2079326208	61	4164
2026-01-03 14:24:26.67	293.52	18.07	-47.7	-48.8	15.4	0.00e+00	0	30	0	2084569088	61	4124
2026-01-03 14:24:27.68	293.75	18.05	-47.6	-48.7	15.5	0.00e+00	0	30	0	2090860544	61	4079
2026-01-03 14:24:28.68	293.98	18.02	-47.6	-48.7	15.5	0.00e+00	0	30	0	2096103424	61	4079
2026-01-03 14:24:29.69	294.21	18.00	-47.6	-48.7	15.5	0.00e+00	0	30	0	2102394880	61	4071
2026-01-03 14:24:30.70	294.44	17.97	-47.6	-48.8	15.5	0.00e+00	0	30	0	2107637760	61	4100
2026-01-03 14:24:31.71	294.67	17.95	-47.6	-48.8	15.4	0.00e+00	0	30	0	2112880640	61	4106
2026-01-03 14:24:32.72	294.90	17.92	-47.5	-48.6	15.5	0.00e+00	0	30	0	2119172096	61	4048
2026-01-03 14:24:33.73	295.13	17.89	-47.5	-48.6	15.5	0.00e+00	0	30	0	2124414976	61	4049
2026-01-03 14:24:34.75	295.36	17.87	-47.5	-48.6	15.5	0.00e+00	0	30	0	2130706432	61	4046
2026-01-03 14:24:35.75	295.59	17.84	-47.6	-48.7	15.5	0.00e+00	0	30	0	2135949312	61	4086
2026-01-03 14:24:36.76	295.82	17.81	-47.7	-48.8	15.4	0.00e+00	0	30	0	2141192192	61	4144
2026-01-03 14:24:37.77	296.04	17.78	-47.7	-48.8	15.4	0.00e+00	0	30	0	2147483648	61	4122
2026-01-03 14:24:38.78	296.27	17.75	-47.7	-48.8	15.4	0.00e+00	0	30	0	2152726528	61	4145
2026-01-03 14:24:39.79	296.50	17.72	-47.7	-48.8	15.4	0.00e+00	0	30	0	2159017984	61	4114
2026-01-03 14:24:40.80	296.72	17.69	-47.7	-48.9	15.4	0.00e+00	0	30	0	2164260864	61	4159
2026-01-03 14:24:41.81	296.95	17.66	-47.8	-48.9	15.4	0.00e+00	0	30	0	2169503744	61	4170
2026-01-03 14:24:42.82	297.18	17.63	-47.7	-48.8	15.4	0.00e+00	0	30	0	2175795200	61	4118
2026-01-03 14:24:43.82	297.40	17.60	-47.7	-48.8	15.4	0.00e+00	0	30	0	2181038080	61	4133
2026-01-03 14:24:44.83	297.62	17.57	-47.6	-48.7	15.5	0.00e+00	0	30	0	2187329536	61	4075
2026-01-03 14:24:45.84	297.85	17.54	-47.6	-48.7	15.4	0.00e+00	0	30	0	2192572416	61	4091
2026-01-03 14:24:46.86	298.07	17.51	-47.6	-48.6	15.5	0.00e+00	0	30	0	2198863872	61	4048
2026-01-03 14:24:47.86	298.30	17.47	-47.5	-48.6	15.5	0.00e+00	0	30	0	2204106752	61	4023
2026-01-03 14:24:48.87	298.52	17.44	-47.6	-48.6	15.5	0.00e+00	0	30	0	2209349632	61	4049
2026-01-03 14:24:49.88	298.74	17.41	-47.6	-48.8	15.4	0.00e+00	0	30	0	2215641088	61	4104
2026-01-03 14:24:50.89	298.96	17.38	-47.6	-48.7	15.4	0.00e+00	0	30	0	2220883968	61	4095
2026-01-03 14:24:51.90	299.18	17.34	-47.7	-48.8	15.4	0.00e+00	0	30	0	2227175424	61	4118
2026-01-03 14:24:52.91	299.41	17.31	-47.8	-48.9	15.4	0.00e+00	0	30	0	2232418304	61	4191
2026-01-03 14:24:53.91	299.62	17.27	-47.8	-48.9	15.4	0.00e+00	0	30	0	2237661184	61	4191
2026-01-03 14:24:54.92	299.84	17.24	-47.8	-48.9	15.4	0.00e+00	0	30	0	2243952640	61	4187
2026-01-03 14:24:55.92	300.06	17.20	-47.9	-49.1	15.3	0.00e+00	0	30	0	2249195520	61	4247
2026-01-03 14:24:56.93	300.28	17.17	-47.9	-49.0	15.4	0.00e+00	0	30	0	2255486976	61	4217
2026-01-03 14:24:57.93	300.50	17.13	-47.9	-49.0	15.4	0.00e+00	0	30	0	2260729856	61	4199
2026-01-03 14:24:58.94	300.71	17.10	-47.7	-48.8	15.4	0.00e+00	0	30	0	2265972736	61	4123
2026-01-03 14:24:59.95	300.93	17.06	-47.6	-48.7	15.4	0.00e+00	0	30	0	2272264192	61	4085
2026-01-03 14:25:00.96	301.15	17.02	-47.6	-48.7	15.5	0.00e+00	0	30	0	2277507072	61	4064
2026-01-03 14:25:01.96	301.36	16.98	-47.7	-48.8	15.4	0.00e+00	0	30	0	2283798528	61	4105
2026-01-03 14:25:02.97	301.58	16.95	-47.7	-48.8	15.4	0.00e+00	0	30	0	2289041408	61	4133
2026-01-03 14:25:03.97	301.79	16.91	-47.7	-48.9	15.4	0.00e+00	0	30	0	2295332864	61	4146
2026-01-03 14:25:04.98	302.01	16.87	-47.8	-48.9	15.4	0.00e+00	0	30	0	2300575744	61	4163
2026-01-03 14:25:05.99	302.22	16.83	-47.9	-49.0	15.4	0.00e+00	0	30	0	2305818624	61	4208
2026-01-03 14:25:07.00	302.44	16.79	-47.9	-49.0	15.4	0.00e+00	0	30	0	2312110080	61	4219
2026-01-03 14:25:08.00	302.65	16.75	-47.9	-49.0	15.3	0.00e+00	0	30	0	2317352960	61	4217
2026-01-03 14:25:09.01	302.86	16.72	-47.9	-49.0	15.3	0.00e+00	0	30	0	2322595840	61	4219
2026-01-03 14:25:10.01	303.07	16.68	-48.0	-49.1	15.3	0.00e+00	0	30	0	2328887296	61	4266
2026-01-03 14:25:11.02	303.28	16.64	-47.9	-49.0	15.3	0.00e+00	0	30	0	2334130176	61	4235
2026-01-03 14:25:12.03	303.49	16.60	-47.9	-49.1	15.3	0.00e+00	0	30	0	2340421632	61	4254
2026-01-03 14:25:13.03	303.70	16.55	-47.9	-49.1	15.3	0.00e+00	0	30	0	2345664512	61	4253
2026-01-03 14:25:14.04	303.91	16.51	-48.0	-49.2	15.3	0.00e+00	0	30	0	2350907392	61	4317
2026-01-03 14:25:15.05	304.12	16.47	-48.1	-49.2	15.3	0.00e+00	0	30	0	2357198848	61	4336
2026-01-03 14:25:16.06	304.33	16.43	-48.0	-49.1	15.3	0.00e+00	0	30	0	2362441728	61	4288
2026-01-03 14:25:17.07	304.54	16.39	-48.1	-49.3	15.3	0.00e+00	0	30	0	2368733184	61	4345
2026-01-03 14:25:18.08	304.74	16.35	-48.0	-49.1	15.3	0.00e+00	0	30	0	2373976064	61	4285
2026-01-03 14:25:19.09	304.95	16.30	-48.1	-49.2	15.3	0.00e+00	0	30	0	2380267520	61	4317
2026-01-03 14:25:20.09	305.16	16.26	-48.1	-49.3	15.3	0.00e+00	0	30	0	2385510400	61	4341
2026-01-03 14:25:21.10	305.36	16.22	-48.0	-49.1	15.3	0.00e+00	0	30	0	2390753280	61	4281
2026-01-03 14:25:22.11	305.57	16.18	-48.1	-49.3	15.3	0.00e+00	0	30	0	2397044736	61	4351
2026-01-03 14:25:23.11	305.77	16.13	-48.1	-49.3	15.3	0.00e+00	0	30	0	2402287616	61	4342
2026-01-03 14:25:24.13	305.98	16.09	-48.0	-49.2	15.3	0.00e+00	0	30	0	2408579072	61	4324
2026-01-03 14:25:25.13	306.18	16.04	-48.1	-49.3	15.3	0.00e+00	0	30	0	2413821952	61	4375
2026-01-03 14:25:26.14	306.38	16.00	-48.1	-49.3	15.3	0.00e+00	0	30	0	2419064832	61	4382
2026-01-03 14:25:27.15	306.58	15.96	-48.1	-49.2	15.3	0.00e+00	0	30	0	2425356288	61	4320
2026-01-03 14:25:28.16	306.79	15.91	-47.9	-49.1	15.3	0.00e+00	0	30	0	2430599168	61	4253
2026-01-03 14:25:29.17	306.99	15.87	-47.9	-49.0	15.3	0.00e+00	0	30	0	2435842048	61	4237
2026-01-03 14:25:30.18	307.19	15.82	-47.9	-49.0	15.3	0.00e+00	0	30	0	2442133504	61	4230
2026-01-03 14:25:31.19	307.39	15.78	-47.9	-49.0	15.3	0.00e+00	0	30	0	2447376384	61	4237
2026-01-03 14:25:32.20	307.59	15.73	-47.9	-49.0	15.3	0.00e+00	0	30	0	2453667840	61	4226
2026-01-03 14:25:33.21	307.79	15.68	-47.9	-49.0	15.3	0.00e+00	0	30	0	2458910720	61	4241
2026-01-03 14:25:34.21	307.98	15.64	-47.9	-49.0	15.3	0.00e+00	0	30	0	2465202176	61	4228
2026-01-03 14:25:35.23	308.18	15.59	-47.9	-49.1	15.3	0.00e+00	0	30	0	2470445056	61	4247
2026-01-03 14:25:36.23	308.38	15.54	-47.9	-49.1	15.3	0.00e+00	0	30	0	2476736512	61	4262
2026-01-03 14:25:37.24	308.57	15.50	-47.8	-49.0	15.3	0.00e+00	0	30	0	2481979392	61	4205
2026-01-03 14:25:38.24	308.77	15.45	-48.0	-49.1	15.3	0.00e+00	0	30	0	2487222272	61	4265
2026-01-03 14:25:39.25	308.96	15.40	-48.0	-49.1	15.3	0.00e+00	0	30	0	2493513728	61	4279
2026-01-03 14:25:40.26	309.16	15.36	-48.0	-49.1	15.3	0.00e+00	0	30	0	2498756608	61	4283
2026-01-03 14:25:41.27	309.35	15.31	-48.1	-49.2	15.2	0.00e+00	0	30	0	2505048064	61	4330
2026-01-03 14:25:42.28	309.55	15.26	-48.0	-49.2	15.3	0.00e+00	0	30	0	2510290944	61	4303
2026-01-03 14:25:43.29	309.74	15.21	-48.0	-49.2	15.3	0.00e+00	0	30	0	2515533824	61	4323
2026-01-03 14:25:44.30	309.93	15.16	-48.1	-49.2	15.3	0.00e+00	0	30	0	2521825280	61	4330
2026-01-03 14:25:45.31	310.12	15.11	-48.0	-49.2	15.3	0.00e+00	0	30	0	2527068160	61	4313
2026-01-03 14:25:46.32	310.31	15.07	-48.1	-49.2	15.3	0.00e+00	0	30	0	2532311040	61	4321
2026-01-03 14:25:47.33	310.50	15.02	-48.1	-49.3	15.3	0.00e+00	0	30	0	2538602496	61	4346
2026-01-03 14:25:48.34	310.69	14.97	-48.1	-49.3	15.3	0.00e+00	0	30	0	2543845376	61	4350
2026-01-03 14:25:49.34	310.88	14.92	-48.2	-49.3	15.2	0.00e+00	0	30	0	2550136832	61	4372
2026-01-03 14:25:50.35	311.07	14.87	-48.2	-49.4	15.2	0.00e+00	0	30	0	2555379712	61	4392
2026-01-03 14:25:51.36	311.26	14.82	-48.2	-49.4	15.2	0.00e+00	0	30	0	2561671168	61	4398
2026-01-03 14:25:52.36	311.44	14.77	-48.3	-49.5	15.2	0.00e+00	0	30	0	2566914048	61	4452
2026-01-03 14:25:53.37	311.63	14.72	-48.3	-49.5	15.2	0.00e+00	0	30	0	2572156928	61	4447
2026-01-03 14:25:54.38	311.82	14.67	-48.4	-49.6	15.2	0.00e+00	0	30	0	2578448384	61	4501
2026-01-03 14:25:55.38	312.00	14.62	-48.3	-49.5	15.2	0.00e+00	0	30	0	2583691264	61	4449
2026-01-03 14:25:56.39	312.19	14.57	-48.3	-49.5	15.2	0.00e+00	0	30	0	2589982720	61	4479
2026-01-03 14:25:57.40	312.37	14.52	-48.3	-49.5	15.2	0.00e+00	0	30	0	2595225600	61	4466
2026-01-03 14:25:58.41	312.55	14.47	-48.4	-49.6	15.2	0.00e+00	0	30	0	2600468480	61	4501
2026-01-03 14:25:59.41	312.73	14.42	-48.4	-49.6	15.2	0.00e+00	0	30	0	2606759936	61	4497
2026-01-03 14:26:00.42	312.92	14.36	-48.3	-49.4	15.2	0.00e+00	0	30	0	2612002816	61	4439
2026-01-03 14:26:01.43	313.10	14.31	-48.2	-49.4	15.2	0.00e+00	0	30	0	2618294272	61	4406
2026-01-03 14:26:02.44	313.28	14.26	-48.3	-49.4	15.2	0.00e+00	0	30	0	2623537152	61	4438
2026-01-03 14:26:03.45	313.46	14.21	-48.2	-49.4	15.2	0.00e+00	0	30	0	2628780032	61	4411
2026-01-03 14:26:04.45	313.64	14.16	-48.3	-49.5	15.2	0.00e+00	0	30	0	2635071488	61	4459
2026-01-03 14:26:05.46	313.82	14.11	-48.3	-49.5	15.2	0.00e+00	0	30	0	2640314368	61	4446
2026-01-03 14:26:06.47	314.00	14.05	-48.3	-49.5	15.2	0.00e+00	0	30	0	2646605824	61	4462
2026-01-03 14:26:07.48	314.18	14.00	-48.3	-49.5	15.2	0.00e+00	0	30	0	2651848704	61	4462
2026-01-03 14:26:08.48	314.35	13.95	-48.4	-49.6	15.2	0.00e+00	0	30	0	2658140160	61	4499
2026-01-03 14:26:09.49	314.53	13.90	-48.5	-49.7	15.2	0.00e+00	0	30	0	2663383040	62	4294
2026-01-03 14:26:10.50	314.71	13.84	-48.5	-49.8	15.2	0.00e+00	0	30	0	2668625920	62	4346
2026-01-03 14:26:11.51	314.88	13.79	-48.5	-49.7	15.2	0.00e+00	0	30	0	2674917376	62	4333
2026-01-03 14:26:12.52	315.06	13.74	-48.6	-49.8	15.2	0.00e+00	0	30	0	2680160256	62	4355
2026-01-03 14:26:13.53	315.23	13.69	-48.6	-49.8	15.2	0.00e+00	0	30	0	2686451712	62	4368
2026-01-03 14:26:14.54	315.40	13.63	-48.6	-49.8	15.1	0.00e+00	0	30	0	2691694592	62	4367
2026-01-03 14:26:15.55	315.58	13.58	-48.6	-49.8	15.2	0.00e+00	0	30	0	2696937472	62	4360
2026-01-03 14:26:16.56	315.75	13.53	-48.5	-49.7	15.2	0.00e+00	0	30	0	2703228928	62	4317
2026-01-03 14:26:17.57	315.92	13.47	-48.5	-49.7	15.2	0.00e+00	0	30	0	2708471808	62	4325
2026-01-03 14:26:18.57	316.09	13.42	-48.6	-49.8	15.1	0.00e+00	0	30	0	2713714688	62	4357
2026-01-03 14:26:19.58	316.26	13.36	-48.5	-49.7	15.2	0.00e+00	0	30	0	2720006144	62	4329
2026-01-03 14:26:20.59	316.43	13.31	-48.6	-49.8	15.1	0.00e+00	0	30	0	2725249024	62	4371
2026-01-03 14:26:21.60	316.60	13.26	-48.6	-49.8	15.1	0.00e+00	0	30	0	2731540480	62	4374
2026-01-03 14:26:22.61	316.77	13.20	-48.8	-50.0	15.1	0.00e+00	0	30	0	2736783360	62	4452
2026-01-03 14:26:23.61	316.94	13.15	-48.7	-49.9	15.1	0.00e+00	0	30	0	2743074816	62	4404
2026-01-03 14:26:24.62	317.11	13.09	-48.8	-50.0	15.1	0.00e+00	0	30	0	2748317696	62	4461
2026-01-03 14:26:25.63	317.28	13.04	-48.7	-49.9	15.1	0.00e+00	0	30	0	2754609152	62	4435
2026-01-03 14:26:26.63	317.44	12.99	-48.7	-49.9	15.1	0.00e+00	0	30	0	2759852032	62	4415
2026-01-03 14:26:27.64	317.61	12.93	-48.6	-49.8	15.2	0.00e+00	0	30	0	2765094912	62	4354
2026-01-03 14:26:28.65	317.77	12.88	-48.5	-49.7	15.2	0.00e+00	0	30	0	2771386368	62	4329
2026-01-03 14:26:29.65	317.94	12.82	-48.4	-49.6	15.2	0.00e+00	0	30	0	2776629248	62	4290
2026-01-03 14:26:30.66	318.10	12.77	-48.4	-49.6	15.2	0.00e+00	0	30	0	2781872128	62	4273
2026-01-03 14:26:31.66	318.26	12.71	-48.5	-49.7	15.2	0.00e+00	0	30	0	2788163584	62	4326
2026-01-03 14:26:32.67	318.43	12.66	-48.5	-49.7	15.2	0.00e+00	0	30	0	2793406464	62	4320
2026-01-03 14:26:33.68	318.59	12.60	-48.6	-49.8	15.1	0.00e+00	0	30	0	2799697920	62	4379
2026-01-03 14:26:34.68	318.75	12.55	-48.6	-49.8	15.1	0.00e+00	0	30	0	2804940800	62	4390
2026-01-03 14:26:35.69	318.91	12.49	-48.6	-49.8	15.1	0.00e+00	0	30	0	2810183680	62	4360
2026-01-03 14:26:36.70	319.07	12.44	-48.6	-49.8	15.1	0.00e+00	0	30	0	2816475136	62	4368
2026-01-03 14:26:37.71	319.23	12.38	-48.6	-49.9	15.1	0.00e+00	0	30	0	2821718016	62	4395
2026-01-03 14:26:38.72	319.39	12.33	-48.7	-49.9	15.1	0.00e+00	0	30	0	2828009472	62	4425
2026-01-03 14:26:39.72	319.55	12.27	-48.6	-49.9	15.1	0.00e+00	0	30	0	2833252352	62	4396
2026-01-03 14:26:40.73	319.71	12.22	-48.7	-49.9	15.1	0.00e+00	0	30	0	2839543808	62	4430
2026-01-03 14:26:41.74	319.86	12.16	-48.6	-49.8	15.1	0.00e+00	0	30	0	2844786688	62	4371
2026-01-03 14:26:42.75	320.02	12.10	-48.6	-49.8	15.1	0.00e+00	0	30	0	2850029568	62	4346
2026-01-03 14:26:43.76	320.18	12.05	-48.6	-49.8	15.1	0.00e+00	0	30	0	2856321024	62	4371
2026-01-03 14:26:44.77	320.33	11.99	-48.6	-49.8	15.1	0.00e+00	0	30	0	2861563904	62	4366
2026-01-03 14:26:45.78	320.49	11.94	-48.5	-49.7	15.1	0.00e+00	0	30	0	2867855360	62	4332
2026-01-03 14:26:46.78	320.64	11.88	-48.6	-49.8	15.1	0.00e+00	0	30	0	2873098240	62	4362
2026-01-03 14:26:47.79	320.80	11.82	-48.6	-49.8	15.1	0.00e+00	0	30	0	2878341120	62	4385
2026-01-03 14:26:48.80	320.95	11.77	-48.7	-49.9	15.1	0.00e+00	0	30	0	2884632576	62	4402
2026-01-03 14:26:49.81	321.11	11.71	-48.8	-50.0	15.1	0.00e+00	0	30	0	2889875456	62	4461
2026-01-03 14:26:50.82	321.26	11.66	-48.9	-50.1	15.0	0.00e+00	0	30	0	2895118336	62	4541
2026-01-03 14:26:51.83	321.41	11.60	-49.0	-50.2	15.1	0.00e+00	0	30	0	2901409792	63	4317
2026-01-03 14:26:52.84	321.56	11.54	-49.0	-50.2	15.0	0.00e+00	0	30	0	2906652672	63	4330
2026-01-03 14:26:53.85	321.71	11.49	-49.1	-50.4	15.0	0.00e+00	0	30	0	2912944128	63	4405
2026-01-03 14:26:54.86	321.86	11.43	-49.0	-50.3	15.0	0.00e+00	0	30	0	2918187008	63	4365
2026-01-03 14:26:55.87	322.01	11.37	-49.0	-50.3	15.0	0.00e+00	0	30	0	2924478464	63	4342
2026-01-03 14:26:56.88	322.16	11.32	-49.0	-50.2	15.0	0.00e+00	0	30	0	2929721344	63	4322
2026-01-03 14:26:57.88	322.31	11.26	-49.0	-50.3	15.0	0.00e+00	0	30	0	2934964224	63	4342
2026-01-03 14:26:58.89	322.46	11.21	-49.0	-50.2	15.0	0.00e+00	0	30	0	2941255680	63	4327
2026-01-03 14:26:59.90	322.61	11.15	-49.0	-50.2	15.0	0.00e+00	0	30	0	2946498560	63	4327
2026-01-03 14:27:00.91	322.75	11.09	-49.0	-50.3	15.0	0.00e+00	0	30	0	2952790016	63	4348
2026-01-03 14:27:01.92	322.90	11.04	-49.1	-50.3	15.0	0.00e+00	0	30	0	2958032896	63	4375
2026-01-03 14:27:02.92	323.05	10.98	-49.1	-50.3	15.0	0.00e+00	0	30	0	2963275776	63	4376
2026-01-03 14:27:03.93	323.19	10.92	-49.1	-50.3	15.0	0.00e+00	0	30	0	2969567232	63	4370
2026-01-03 14:27:04.94	323.34	10.87	-49.2	-50.4	15.0	0.00e+00	0	30	0	2974810112	63	4430
2026-01-03 14:27:05.95	323.48	10.81	-49.1	-50.4	15.0	0.00e+00	0	30	0	2981101568	63	4424
2026-01-03 14:27:06.96	323.63	10.75	-49.2	-50.4	15.0	0.00e+00	0	30	0	2986344448	63	4439
2026-01-03 14:27:07.97	323.77	10.69	-49.1	-50.4	15.0	0.00e+00	0	30	0	2991587328	63	4408
2026-01-03 14:27:08.97	323.91	10.64	-49.0	-50.3	15.0	0.00e+00	0	30	0	2997878784	63	4355
2026-01-03 14:27:09.98	324.05	10.58	-49.1	-50.4	15.0	0.00e+00	0	30	0	3003121664	63	4399
2026-01-03 14:27:10.99	324.19	10.52	-49.1	-50.3	15.0	0.00e+00	0	30	0	3009413120	63	4389
2026-01-03 14:27:12.00	324.34	10.47	-49.1	-50.3	15.0	0.00e+00	0	30	0	3014656000	63	4384
2026-01-03 14:27:13.01	324.48	10.41	-49.1	-50.4	15.0	0.00e+00	0	30	0	3019898880	63	4401
2026-01-03 14:27:14.02	324.62	10.35	-49.1	-50.3	15.0	0.00e+00	0	30	0	3026190336	63	4382
2026-01-03 14:27:15.02	324.75	10.30	-49.0	-50.3	15.0	0.00e+00	0	30	0	3031433216	63	4359
2026-01-03 14:27:16.03	324.89	10.24	-49.1	-50.4	15.0	0.00e+00	0	30	0	3037724672	63	4395
2026-01-03 14:27:17.05	325.03	10.18	-49.0	-50.2	15.0	0.00e+00	0	30	0	3042967552	63	4327
2026-01-03 14:27:18.05	325.17	10.13	-49.0	-50.2	15.0	0.00e+00	0	30	0	3049259008	63	4330
2026-01-03 14:27:19.06	325.31	10.07	-48.9	-50.2	15.0	0.00e+00	0	30	0	3054501888	63	4307
2026-01-03 14:27:20.07	325.45	10.01	-49.0	-50.2	15.0	0.00e+00	0	30	0	3059744768	63	4318
2026-01-03 14:27:21.08	325.58	9.96	-49.0	-50.3	15.0	0.00e+00	0	30	0	3066036224	63	4349
2026-01-03 14:27:22.09	325.72	9.90	-48.9	-50.2	15.0	0.00e+00	0	30	0	3071279104	63	4311
2026-01-03 14:27:23.10	325.85	9.84	-49.0	-50.3	15.0	0.00e+00	0	30	0	3077570560	63	4350
2026-01-03 14:27:24.11	325.99	9.78	-49.1	-50.3	15.0	0.00e+00	0	30	0	3082813440	63	4370
2026-01-03 14:27:25.12	326.12	9.73	-49.1	-50.4	14.9	0.00e+00	0	30	0	3088056320	63	4409
2026-01-03 14:27:26.13	326.26	9.67	-49.1	-50.4	14.9	0.00e+00	0	30	0	3094347776	63	4426
2026-01-03 14:27:27.14	326.39	9.61	-49.2	-50.5	14.9	0.00e+00	0	30	0	3099590656	63	4462
2026-01-03 14:27:28.14	326.52	9.56	-49.3	-50.6	14.9	0.00e+00	0	30	0	3105882112	63	4498
2026-01-03 14:27:29.14	326.65	9.50	-49.4	-50.6	14.9	0.00e+00	0	30	0	3111124992	63	4544
2026-01-03 14:27:30.14	326.79	9.44	-49.3	-50.6	14.9	0.00e+00	0	30	0	3117416448	63	4525
2026-01-03 14:27:31.15	326.92	9.39	-49.3	-50.6	14.9	0.00e+00	0	30	0	3122659328	63	4534
2026-01-03 14:27:32.16	327.05	9.33	-49.4	-50.7	14.9	0.00e+00	0	30	0	3127902208	64	4319
2026-01-03 14:27:33.17	327.18	9.27	-49.5	-50.8	14.9	0.00e+00	0	30	0	3134193664	64	4357
2026-01-03 14:27:34.18	327.31	9.21	-49.5	-50.9	14.8	0.00e+00	0	30	0	3139436544	64	4401
2026-01-03 14:27:35.19	327.44	9.16	-49.6	-50.9	14.8	0.00e+00	0	30	0	3145728000	64	4432
2026-01-03 14:27:36.20	327.57	9.10	-49.7	-51.0	14.8	0.00e+00	0	30	0	3150970880	64	4478
2026-01-03 14:27:37.21	327.70	9.04	-49.7	-51.1	14.8	0.00e+00	0	30	0	3156213760	64	4505
2026-01-03 14:27:38.22	327.82	8.99	-49.8	-51.2	14.7	0.00e+00	0	30	0	3162505216	64	4555
2026-01-03 14:27:39.23	327.95	8.93	-49.8	-51.2	14.7	0.00e+00	0	30	0	3167748096	64	4586
2026-01-03 14:27:40.24	328.08	8.87	-49.7	-51.1	14.7	0.00e+00	0	30	0	3174039552	64	4505
2026-01-03 14:27:41.25	328.21	8.82	-49.8	-51.1	14.7	0.00e+00	0	30	0	3179282432	64	4536
2026-01-03 14:27:42.26	328.33	8.76	-49.7	-51.1	14.7	0.00e+00	0	30	0	3184525312	64	4513
2026-01-03 14:27:43.27	328.46	8.70	-49.8	-51.1	14.7	0.00e+00	0	30	0	3190816768	64	4527
2026-01-03 14:27:44.28	328.58	8.64	-49.7	-51.1	14.7	0.00e+00	0	30	0	3196059648	64	4511
2026-01-03 14:27:45.28	328.71	8.59	-49.7	-51.0	14.7	0.00e+00	0	30	0	3202351104	64	4482
2026-01-03 14:27:46.29	328.83	8.53	-49.7	-51.0	14.7	0.00e+00	0	30	0	3207593984	64	4491
2026-01-03 14:27:47.30	328.96	8.47	-49.6	-51.0	14.8	0.00e+00	0	30	0	3212836864	64	4448
2026-01-03 14:27:48.31	329.08	8.42	-49.7	-51.0	14.7	0.00e+00	0	30	0	3219128320	64	4491
2026-01-03 14:27:49.31	329.20	8.36	-49.6	-51.0	14.8	0.00e+00	0	30	0	3224371200	64	4450
2026-01-03 14:27:50.32	329.32	8.30	-49.7	-51.0	14.7	0.00e+00	0	30	0	3230662656	64	4476
2026-01-03 14:27:51.33	329.45	8.25	-49.7	-51.1	14.7	0.00e+00	0	30	0	3235905536	64	4495
2026-01-03 14:27:52.34	329.57	8.19	-49.8	-51.2	14.7	0.00e+00	0	30	0	3242196992	64	4564
2026-01-03 14:27:53.35	329.69	8.13	-49.8	-51.2	14.8	0.00e+00	0	30	0	3247439872	65	4300
2026-01-03 14:27:54.36	329.81	8.08	-49.8	-51.1	14.8	0.00e+00	0	30	0	3252682752	65	4287
2026-01-03 14:27:55.37	329.93	8.02	-49.9	-51.3	14.7	0.00e+00	0	30	0	3258974208	65	4368
2026-01-03 14:27:56.38	330.05	7.96	-49.8	-51.1	14.8	0.00e+00	0	30	0	3264217088	65	4291
2026-01-03 14:27:57.39	330.17	7.91	-50.0	-51.4	14.7	0.00e+00	0	30	0	3270508544	65	4401
2026-01-03 14:27:58.40	330.29	7.85	-49.9	-51.3	14.7	0.00e+00	0	30	0	3275751424	65	4376
2026-01-03 14:27:59.41	330.41	7.79	-50.0	-51.4	14.6	0.00e+00	0	30	0	3280994304	65	4433
2026-01-03 14:28:00.42	330.52	7.74	-50.0	-51.4	14.7	0.00e+00	0	30	0	3287285760	65	4413
2026-01-03 14:28:01.43	330.64	7.68	-50.0	-51.5	14.6	0.00e+00	0	30	0	3292528640	65	4443
2026-01-03 14:28:02.44	330.76	7.62	-50.0	-51.4	14.7	0.00e+00	0	30	0	3298820096	65	4419
2026-01-03 14:28:03.45	330.88	7.57	-50.1	-51.5	14.6	0.00e+00	0	30	0	3304062976	65	4484
2026-01-03 14:28:04.45	330.99	7.51	-50.2	-51.6	14.5	0.00e+00	0	30	0	3309305856	65	4536
2026-01-03 14:28:05.46	331.11	7.45	-50.0	-51.5	14.6	0.00e+00	0	30	0	3315597312	65	4444
2026-01-03 14:28:06.47	331.22	7.40	-50.1	-51.6	14.6	0.00e+00	0	30	0	3320840192	65	4495
2026-01-03 14:28:07.48	331.34	7.34	-50.0	-51.4	14.6	0.00e+00	0	30	0	3327131648	65	4436
2026-01-03 14:28:08.48	331.45	7.29	-50.0	-51.4	14.7	0.00e+00	0	30	0	3332374528	65	4400
2026-01-03 14:28:09.49	331.56	7.23	-50.0	-51.4	14.6	0.00e+00	0	30	0	3338665984	65	4397
2026-01-03 14:28:10.49	331.68	7.17	-49.9	-51.2	14.7	0.00e+00	0	30	0	3343908864	65	4339
2026-01-03 14:28:11.50	331.79	7.12	-49.9	-51.3	14.7	0.00e+00	0	30	0	3349151744	65	4355
2026-01-03 14:28:12.51	331.90	7.06	-49.9	-51.3	14.7	0.00e+00	0	30	0	3355443200	65	4370
2026-01-03 14:28:13.52	332.02	7.00	-50.0	-51.4	14.6	0.00e+00	0	30	0	3360686080	65	4406
2026-01-03 14:28:14.53	332.13	6.95	-50.0	-51.4	14.6	0.00e+00	0	30	0	3366977536	65	4405
2026-01-03 14:28:15.54	332.24	6.89	-50.0	-51.4	14.6	0.00e+00	0	30	0	3372220416	65	4428
2026-01-03 14:28:16.55	332.35	6.84	-50.0	-51.4	14.6	0.00e+00	0	30	0	3377463296	65	4410
2026-01-03 14:28:17.56	332.46	6.78	-50.0	-51.4	14.6	0.00e+00	0	30	0	3383754752	65	4423
2026-01-03 14:28:18.56	332.57	6.72	-50.0	-51.4	14.6	0.00e+00	0	30	0	3388997632	65	4437
2026-01-03 14:28:19.57	332.68	6.67	-50.1	-51.5	14.6	0.00e+00	0	30	0	3394240512	65	4468
2026-01-03 14:28:20.57	332.79	6.61	-50.2	-51.6	14.5	0.00e+00	0	30	0	3400531968	65	4534
2026-01-03 14:28:21.59	332.90	6.56	-50.1	-51.5	14.5	0.00e+00	0	30	0	3405774848	65	4488
2026-01-03 14:28:22.59	333.01	6.50	-50.3	-51.7	14.5	0.00e+00	0	30	0	3412066304	65	4573
2026-01-03 14:28:23.60	333.12	6.44	-50.3	-51.7	14.5	0.00e+00	0	30	0	3417309184	65	4572
2026-01-03 14:28:24.61	333.22	6.39	-50.4	-51.8	14.4	0.00e+00	0	30	0	3423600640	65	4629
2026-01-03 14:28:25.62	333.33	6.33	-50.5	-52.0	14.4	0.00e+00	0	30	0	3428843520	66	4442
2026-01-03 14:28:26.63	333.44	6.28	-50.4	-51.8	14.5	0.00e+00	0	30	0	3435134976	66	4386
2026-01-03 14:28:27.64	333.55	6.22	-50.5	-52.0	14.4	0.00e+00	0	30	0	3440377856	66	4446
2026-01-03 14:28:28.65	333.65	6.17	-50.5	-52.0	14.4	0.00e+00	0	30	0	3445620736	66	4446
2026-01-03 14:28:29.66	333.76	6.11	-50.3	-51.7	14.5	0.00e+00	0	30	0	3451912192	66	4318
2026-01-03 14:28:30.66	333.86	6.06	-50.3	-51.7	14.5	0.00e+00	0	30	0	3457155072	66	4306
2026-01-03 14:28:31.67	333.97	6.00	-50.3	-51.8	14.5	0.00e+00	0	30	0	3462397952	66	4363
2026-01-03 14:28:32.68	334.07	5.94	-50.3	-51.8	14.5	0.00e+00	0	30	0	3468689408	66	4354
2026-01-03 14:28:33.69	334.18	5.89	-50.4	-51.9	14.4	0.00e+00	0	30	0	3473932288	66	4400
2026-01-03 14:28:34.69	334.28	5.83	-50.3	-51.8	14.5	0.00e+00	0	30	0	3480223744	66	4354
2026-01-03 14:28:35.70	334.39	5.78	-50.3	-51.8	14.5	0.00e+00	0	30	0	3485466624	66	4345
2026-01-03 14:28:36.71	334.49	5.72	-50.5	-52.0	14.3	0.00e+00	0	30	0	3490709504	66	4473
2026-01-03 14:28:37.71	334.59	5.67	-50.5	-52.0	14.3	0.00e+00	0	30	0	3497000960	66	4445
2026-01-03 14:28:38.72	334.69	5.61	-50.4	-51.9	14.4	0.00e+00	0	30	0	3502243840	66	4396
2026-01-03 14:28:39.73	334.80	5.56	-50.5	-52.0	14.3	0.00e+00	0	30	0	3508535296	66	4487
2026-01-03 14:28:40.74	334.90	5.50	-50.5	-52.0	14.3	0.00e+00	0	30	0	3513778176	66	4466
2026-01-03 14:28:41.75	335.00	5.45	-50.5	-52.0	14.3	0.00e+00	0	30	0	3520069632	66	4487
2026-01-03 14:28:42.76	335.10	5.39	-50.4	-51.9	14.3	0.00e+00	0	30	0	3525312512	66	4419
2026-01-03 14:28:43.77	335.20	5.34	-50.6	-52.1	14.3	0.00e+00	0	30	0	3530555392	66	4525
2026-01-03 14:28:44.77	335.30	5.28	-50.7	-52.3	14.2	0.00e+00	0	30	0	3536846848	66	4631
2026-01-03 14:28:45.78	335.40	5.23	-50.7	-52.3	14.2	0.00e+00	0	30	0	3542089728	66	4611
2026-01-03 14:28:46.79	335.50	5.17	-50.8	-52.4	14.1	0.00e+00	0	30	0	3548381184	66	4672
2026-01-03 14:28:47.80	335.60	5.12	-50.7	-52.2	14.2	0.00e+00	0	30	0	3553624064	66	4583
2026-01-03 14:28:48.81	335.70	5.06	-50.8	-52.4	14.2	0.00e+00	0	30	0	3558866944	66	4653
2026-01-03 14:28:49.81	335.80	5.01	-57.4	-62.5	7.8	2.20e-06	0	30	0	3565158400	79	7116
2026-01-03 14:28:50.82	335.90	4.95	-59.8	-72.8	3.8	8.45e-01	0	30	104	3566206976	84	17396
2026-01-03 14:28:51.83	336.00	4.90	-60.2	-73.3	3.8	8.44e-01	0	30	104	3566206976	85	17310
2026-01-03 14:28:52.84	336.09	4.84	-60.5	-73.5	3.8	8.46e-01	0	30	104	3566206976	86	16874
2026-01-03 14:28:53.85	336.19	4.79	-60.7	-73.7	3.8	8.45e-01	0	30	104	3566206976	86	17231
2026-01-03 14:28:54.85	336.29	4.74	-60.8	-73.9	3.8	8.45e-01	0	30	104	3566206976	86	17550
2026-01-03 14:28:55.86	336.38	4.68	-60.9	-74.0	3.8	8.45e-01	0	30	104	3566206976	87	16828
