passes_logs/2026/01/03/R3.2S_Murmansk/R3.2S_Murmansk__20260103_152051_ZKG05_rec.log

#Pass ID: 20260103_152051_ZKG05
#Satellite: ZKG05
#Configuration: ZKG05
#almurnet v.1.7.20251203
#Start time: 2026-01-03 15:20:50

#Version: 2.2.20231116
#Station: R3.2S_Murmansk
#Location: 33.079688 lon 68.888172 lat
#TLE: 1 65263U 25180E   25363.54303023  .00006586  00000-0  34273-3 0  9994
#TLE: 2 65263  97.4772 128.0191 0001674  87.3453 272.7971 15.16366041 20011

#Time	Az	El	Level	Level2	SNR	BER	BlckErr	Temp	State	Recorded	gain1	gain2
2026-01-03 15:20:50.66	26.66	1.98	-58.9	-62.1	6.1	0.00e+00	0	34	0	0	84	20406
2026-01-03 15:20:51.66	26.58	2.04	-58.9	-62.0	6.2	0.00e+00	0	34	104	0	84	20376
2026-01-03 15:20:52.66	26.49	2.10	-58.9	-62.1	6.1	0.00e+00	0	34	104	0	84	20423
2026-01-03 15:20:53.65	26.41	2.16	-58.9	-62.0	6.2	0.00e+00	0	34	104	0	84	20382
2026-01-03 15:20:54.66	26.32	2.23	-58.9	-62.0	6.2	0.00e+00	0	34	104	0	84	20365
2026-01-03 15:20:55.66	26.24	2.29	-58.9	-62.1	6.2	0.00e+00	0	34	104	0	84	20432
2026-01-03 15:20:56.67	26.15	2.35	-58.9	-62.1	6.2	0.00e+00	0	34	104	0	84	20462
2026-01-03 15:20:57.66	26.06	2.41	-58.9	-62.1	6.2	0.00e+00	0	34	104	0	84	20416
2026-01-03 15:20:58.67	25.97	2.48	-58.9	-62.1	6.2	0.00e+00	0	34	104	0	84	20463
2026-01-03 15:20:59.67	25.89	2.54	-58.9	-62.1	6.2	0.00e+00	0	34	104	0	84	20525
2026-01-03 15:21:00.68	25.80	2.60	-58.9	-62.1	6.1	0.00e+00	0	34	104	0	84	20468
2026-01-03 15:21:01.67	25.71	2.66	-58.9	-62.1	6.2	0.00e+00	0	34	104	0	84	20419
2026-01-03 15:21:02.67	25.62	2.73	-58.9	-62.1	6.2	0.00e+00	0	35	104	0	84	20428
2026-01-03 15:21:03.68	25.53	2.79	-58.9	-62.1	6.2	0.00e+00	0	35	104	0	84	20435
2026-01-03 15:21:04.68	25.44	2.85	-58.9	-62.1	6.2	0.00e+00	0	35	104	0	84	20406
2026-01-03 15:21:05.68	25.35	2.91	-58.9	-62.1	6.2	0.00e+00	0	35	104	0	84	20476
2026-01-03 15:21:06.68	25.26	2.98	-58.9	-62.0	6.2	0.00e+00	0	35	104	0	84	20396
2026-01-03 15:21:07.68	25.16	3.04	-58.9	-62.1	6.2	0.00e+00	0	35	104	0	84	20464
2026-01-03 15:21:08.66	25.07	3.10	-58.9	-62.1	6.2	0.00e+00	0	35	104	0	84	20494
2026-01-03 15:21:09.66	24.98	3.17	-58.9	-62.1	6.2	0.00e+00	0	35	104	0	84	20519
2026-01-03 15:21:10.66	24.89	3.23	-58.9	-62.1	6.2	0.00e+00	0	35	104	0	84	20510
2026-01-03 15:21:11.66	24.79	3.29	-58.9	-62.0	6.2	0.00e+00	0	35	104	0	84	20396
2026-01-03 15:21:12.66	24.70	3.36	-58.9	-62.1	6.2	0.00e+00	0	35	104	0	84	20516
2026-01-03 15:21:13.66	24.60	3.42	-58.9	-62.1	6.2	0.00e+00	0	35	104	0	84	20473
2026-01-03 15:21:14.66	24.51	3.49	-58.9	-62.1	6.2	0.00e+00	0	35	104	0	84	20465
2026-01-03 15:21:15.66	24.41	3.55	-58.9	-62.1	6.2	0.00e+00	0	35	104	0	84	20499
2026-01-03 15:21:16.67	24.31	3.62	-58.9	-62.1	6.2	0.00e+00	0	35	104	0	84	20510
2026-01-03 15:21:17.67	24.22	3.68	-58.9	-62.1	6.2	0.00e+00	0	35	104	0	84	20546
2026-01-03 15:21:18.66	24.12	3.75	-58.9	-62.1	6.2	0.00e+00	0	35	104	0	84	20487
2026-01-03 15:21:19.66	24.02	3.81	-58.9	-62.1	6.2	0.00e+00	0	35	104	0	84	20459
2026-01-03 15:21:20.65	23.92	3.88	-58.9	-62.1	6.2	0.00e+00	0	35	104	0	84	20446
2026-01-03 15:21:21.65	23.82	3.94	-58.9	-62.1	6.2	0.00e+00	0	35	104	0	84	20503
2026-01-03 15:21:22.64	23.72	4.00	-58.9	-62.1	6.2	0.00e+00	0	35	104	0	84	20593
2026-01-03 15:21:23.64	23.62	4.07	-58.9	-62.1	6.2	0.00e+00	0	36	104	0	84	20416
2026-01-03 15:21:24.64	23.52	4.14	-58.9	-62.1	6.2	0.00e+00	0	36	104	0	84	20511
2026-01-03 15:21:25.64	23.42	4.20	-58.9	-62.1	6.2	0.00e+00	0	36	104	0	84	20534
2026-01-03 15:21:26.64	23.32	4.27	-58.9	-62.1	6.2	0.00e+00	0	36	104	0	84	20540
2026-01-03 15:21:27.64	23.21	4.33	-58.9	-62.1	6.2	0.00e+00	0	36	104	0	84	20531
2026-01-03 15:21:28.64	23.11	4.40	-58.9	-62.1	6.2	0.00e+00	0	36	104	0	84	20478
2026-01-03 15:21:29.63	23.01	4.47	-58.9	-62.1	6.2	0.00e+00	0	36	104	0	84	20475
2026-01-03 15:21:30.63	22.90	4.53	-58.9	-62.1	6.2	0.00e+00	0	36	104	0	84	20499
2026-01-03 15:21:31.62	22.80	4.60	-58.9	-62.1	6.2	0.00e+00	0	36	104	0	84	20544
2026-01-03 15:21:32.62	22.69	4.66	-58.9	-62.1	6.2	0.00e+00	0	36	104	0	84	20527
2026-01-03 15:21:33.62	22.58	4.73	-58.9	-62.1	6.2	0.00e+00	0	36	104	0	84	20460
2026-01-03 15:21:34.62	22.48	4.80	-58.9	-62.1	6.2	0.00e+00	0	36	104	0	84	20449
2026-01-03 15:21:35.62	22.37	4.87	-58.9	-62.1	6.2	0.00e+00	0	36	104	0	84	20450
2026-01-03 15:21:36.62	22.26	4.93	-58.9	-62.0	6.2	0.00e+00	0	36	104	0	84	20392
2026-01-03 15:21:37.62	22.15	5.00	-58.9	-62.1	6.2	0.00e+00	0	36	104	0	84	20421
2026-01-03 15:21:38.62	22.04	5.07	-59.0	-62.1	6.2	0.00e+00	0	36	104	0	84	20554
2026-01-03 15:21:39.62	21.93	5.14	-59.0	-62.2	6.2	0.00e+00	0	36	104	0	84	20709
2026-01-03 15:21:40.61	21.82	5.20	-59.0	-62.1	6.2	0.00e+00	0	36	104	0	84	20617
2026-01-03 15:21:41.62	21.70	5.27	-59.1	-62.2	6.2	0.00e+00	0	36	104	0	84	20821
2026-01-03 15:21:42.61	21.59	5.34	-59.0	-62.2	6.2	0.00e+00	0	36	104	0	84	20669
2026-01-03 15:21:43.61	21.48	5.41	-59.0	-62.2	6.2	0.00e+00	0	36	104	0	84	20704
2026-01-03 15:21:44.61	21.36	5.48	-59.0	-62.2	6.2	0.00e+00	0	36	104	0	84	20690
2026-01-03 15:21:45.62	21.25	5.54	-59.1	-62.3	6.2	0.00e+00	0	36	104	0	84	20936
2026-01-03 15:21:46.61	21.13	5.61	-59.0	-62.2	6.2	0.00e+00	0	36	104	0	84	20699
2026-01-03 15:21:47.61	21.02	5.68	-59.0	-62.2	6.2	0.00e+00	0	36	104	0	84	20745
2026-01-03 15:21:48.61	20.90	5.75	-59.0	-62.2	6.2	0.00e+00	0	36	104	0	84	20737
2026-01-03 15:21:49.61	20.78	5.82	-59.1	-62.3	6.2	0.00e+00	0	36	104	0	84	20979
2026-01-03 15:21:50.61	20.67	5.89	-59.1	-62.2	6.2	0.00e+00	0	36	104	0	84	20793
2026-01-03 15:21:51.61	20.55	5.96	-59.1	-62.2	6.2	0.00e+00	0	36	104	0	84	20864
2026-01-03 15:21:52.60	20.43	6.03	-59.1	-62.2	6.2	0.00e+00	0	37	104	0	84	20845
2026-01-03 15:21:53.60	20.31	6.10	-59.1	-62.3	6.2	0.00e+00	0	36	104	0	84	21070
2026-01-03 15:21:54.60	20.19	6.17	-59.1	-62.3	6.2	0.00e+00	0	37	104	0	84	20888
2026-01-03 15:21:55.60	20.06	6.24	-59.1	-62.3	6.2	0.00e+00	0	37	104	0	84	20961
2026-01-03 15:21:56.61	19.94	6.31	-59.1	-62.3	6.2	0.00e+00	0	37	104	0	84	20930
2026-01-03 15:21:57.60	19.82	6.38	-59.2	-62.3	6.2	0.00e+00	0	37	104	0	84	21103
2026-01-03 15:21:58.60	19.69	6.45	-59.1	-62.3	6.2	0.00e+00	0	36	104	0	84	20956
2026-01-03 15:21:59.60	19.57	6.52	-59.1	-62.3	6.2	0.00e+00	0	36	104	0	84	21002
2026-01-03 15:22:00.60	19.44	6.59	-59.1	-62.3	6.2	0.00e+00	0	37	104	0	84	21030
2026-01-03 15:22:01.61	19.31	6.66	-59.2	-62.4	6.2	0.00e+00	0	37	104	0	84	21208
2026-01-03 15:22:02.60	19.19	6.73	-59.2	-62.3	6.2	0.00e+00	0	37	104	0	84	21056
2026-01-03 15:22:03.60	19.06	6.80	-59.2	-62.3	6.2	0.00e+00	0	37	104	0	84	21013
2026-01-03 15:22:04.60	18.93	6.87	-59.2	-62.3	6.2	0.00e+00	0	37	104	0	84	21046
2026-01-03 15:22:05.60	18.80	6.94	-59.2	-62.4	6.2	0.00e+00	0	37	104	0	84	21250
2026-01-03 15:22:06.60	18.67	7.01	-59.2	-62.3	6.2	0.00e+00	0	37	104	0	84	21107
2026-01-03 15:22:07.60	18.54	7.09	-59.2	-62.4	6.2	0.00e+00	0	37	104	0	84	21154
2026-01-03 15:22:08.60	18.41	7.16	-59.2	-62.4	6.2	0.00e+00	0	37	104	0	84	21145
2026-01-03 15:22:09.61	18.27	7.23	-59.3	-62.4	6.2	0.00e+00	0	37	104	0	84	21355
2026-01-03 15:22:10.61	18.14	7.30	-59.2	-62.4	6.2	0.00e+00	0	37	104	0	84	21245
2026-01-03 15:22:11.60	18.01	7.37	-59.2	-62.4	6.2	0.00e+00	0	37	104	0	84	21205
2026-01-03 15:22:12.60	17.87	7.45	-59.2	-62.4	6.2	0.00e+00	0	37	104	0	84	21235
2026-01-03 15:22:13.60	17.73	7.52	-59.3	-62.5	6.2	0.00e+00	0	37	104	0	84	21402
2026-01-03 15:22:14.60	17.60	7.59	-59.2	-62.5	6.2	0.00e+00	0	37	104	0	84	21371
2026-01-03 15:22:15.61	17.46	7.67	-59.3	-62.4	6.2	0.00e+00	0	37	104	0	84	21332
2026-01-03 15:22:16.61	17.32	7.74	-59.3	-62.4	6.2	0.00e+00	0	37	104	0	84	21302
2026-01-03 15:22:17.60	17.18	7.81	-59.3	-62.5	6.2	0.00e+00	0	37	104	0	84	21499
2026-01-03 15:22:18.60	17.04	7.88	-59.3	-62.4	6.2	0.00e+00	0	37	104	0	84	21345
2026-01-03 15:22:19.60	16.90	7.96	-59.3	-62.4	6.2	0.00e+00	0	37	104	0	84	21343
2026-01-03 15:22:20.60	16.75	8.03	-59.3	-62.5	6.2	0.00e+00	0	37	104	0	84	21461
2026-01-03 15:22:21.60	16.61	8.10	-59.3	-62.5	6.2	0.00e+00	0	37	104	0	84	21562
2026-01-03 15:22:22.59	16.47	8.18	-59.3	-62.5	6.2	0.00e+00	0	37	104	0	84	21485
2026-01-03 15:22:23.58	16.32	8.25	-59.3	-62.5	6.2	0.00e+00	0	37	104	0	84	21442
2026-01-03 15:22:24.58	16.18	8.32	-59.3	-62.5	6.2	0.00e+00	0	37	104	0	84	21497
2026-01-03 15:22:25.58	16.03	8.40	-59.4	-62.6	6.2	0.00e+00	0	37	104	0	84	21640
2026-01-03 15:22:26.58	15.88	8.47	-59.4	-62.5	6.2	0.00e+00	0	37	104	0	84	21569
2026-01-03 15:22:27.57	15.73	8.55	-59.4	-62.5	6.2	0.00e+00	0	37	104	0	84	21508
2026-01-03 15:22:28.57	15.58	8.62	-59.3	-62.5	6.2	0.00e+00	0	37	104	0	84	21540
2026-01-03 15:22:29.57	15.43	8.70	-59.4	-62.6	6.2	0.00e+00	0	37	104	0	84	21688
2026-01-03 15:22:30.57	15.28	8.77	-59.4	-62.6	6.2	0.00e+00	0	37	104	0	84	21612
2026-01-03 15:22:31.57	15.13	8.84	-59.4	-62.5	6.2	0.00e+00	0	37	104	0	84	21563
2026-01-03 15:22:32.58	14.97	8.92	-59.4	-62.5	6.2	0.00e+00	0	37	104	0	84	21591
2026-01-03 15:22:33.57	14.82	8.99	-59.4	-62.6	6.2	0.00e+00	0	37	104	0	84	21774
2026-01-03 15:22:34.58	14.66	9.07	-59.4	-62.6	6.2	0.00e+00	0	37	104	0	84	21705
2026-01-03 15:22:35.57	14.51	9.15	-59.4	-62.6	6.2	0.00e+00	0	37	104	0	84	21667
2026-01-03 15:22:36.56	14.35	9.22	-59.4	-62.6	6.2	0.00e+00	0	37	104	0	84	21634
2026-01-03 15:22:37.57	14.19	9.30	-59.5	-62.6	6.2	0.00e+00	0	37	104	0	84	21802
2026-01-03 15:22:38.57	14.03	9.37	-59.4	-62.6	6.2	0.00e+00	0	37	104	0	84	21728
2026-01-03 15:22:39.57	13.87	9.45	-59.4	-62.6	6.2	0.00e+00	0	37	104	0	84	21739
2026-01-03 15:22:40.57	13.71	9.52	-59.4	-62.6	6.2	0.00e+00	0	37	104	0	84	21806
2026-01-03 15:22:41.57	13.54	9.60	-59.5	-62.7	6.2	0.00e+00	0	37	104	0	84	21900
2026-01-03 15:22:42.57	13.38	9.68	-59.5	-62.6	6.2	0.00e+00	0	37	104	0	84	21828
2026-01-03 15:22:43.57	13.21	9.75	-59.5	-62.6	6.2	0.00e+00	0	37	104	0	84	21835
2026-01-03 15:22:44.58	13.04	9.83	-59.5	-62.6	6.2	0.00e+00	0	37	104	0	84	21814
2026-01-03 15:22:45.57	12.88	9.91	-59.5	-62.7	6.2	0.00e+00	0	37	104	0	84	21912
2026-01-03 15:22:46.57	12.71	9.98	-59.5	-62.7	6.2	0.00e+00	0	37	104	0	84	21878
2026-01-03 15:22:47.57	12.54	10.06	-59.5	-62.7	6.2	0.00e+00	0	37	104	0	84	21859
2026-01-03 15:22:48.57	12.37	10.14	-59.5	-62.6	6.2	0.00e+00	0	37	104	0	84	21798
2026-01-03 15:22:49.57	12.20	10.21	-59.5	-62.7	6.2	0.00e+00	0	37	104	0	84	21967
2026-01-03 15:22:50.57	12.02	10.29	-59.5	-62.7	6.2	0.00e+00	0	37	104	0	84	21910
2026-01-03 15:22:51.58	11.85	10.37	-59.5	-62.7	6.2	0.00e+00	0	37	104	0	84	21925
2026-01-03 15:22:52.58	11.67	10.44	-59.5	-62.7	6.2	0.00e+00	0	37	104	0	84	21920
2026-01-03 15:22:53.58	11.50	10.52	-59.5	-62.7	6.2	0.00e+00	0	37	104	0	84	22053
2026-01-03 15:22:54.58	11.32	10.60	-59.5	-62.7	6.2	0.00e+00	0	37	104	0	84	22029
2026-01-03 15:22:55.58	11.14	10.68	-59.5	-62.7	6.2	0.00e+00	0	37	104	0	84	22048
2026-01-03 15:22:56.59	10.96	10.75	-59.5	-62.7	6.2	0.00e+00	0	37	104	0	84	22015
2026-01-03 15:22:57.59	10.78	10.83	-59.6	-62.8	6.2	0.00e+00	0	37	104	0	84	22112
2026-01-03 15:22:58.59	10.60	10.91	-59.6	-62.8	6.2	0.00e+00	0	37	104	0	84	22130
2026-01-03 15:22:59.59	10.41	10.99	-59.6	-62.7	6.2	0.00e+00	0	38	104	0	84	22101
2026-01-03 15:23:00.59	10.23	11.07	-59.6	-62.7	6.2	0.00e+00	0	38	104	0	84	22091
2026-01-03 15:23:01.59	10.04	11.14	-59.6	-62.8	6.2	0.00e+00	0	38	104	0	84	22182
2026-01-03 15:23:02.59	9.86	11.22	-59.6	-62.8	6.2	0.00e+00	0	38	104	0	84	22279
2026-01-03 15:23:03.59	9.67	11.30	-59.6	-62.8	6.2	0.00e+00	0	37	104	0	84	22190
2026-01-03 15:23:04.59	9.48	11.38	-59.6	-62.8	6.2	0.00e+00	0	38	104	0	84	22230
2026-01-03 15:23:05.59	9.29	11.46	-59.7	-62.9	6.2	0.00e+00	0	38	104	0	84	22368
2026-01-03 15:23:06.59	9.09	11.53	-59.7	-62.8	6.2	0.00e+00	0	37	104	0	84	22323
2026-01-03 15:23:07.58	8.90	11.61	-59.6	-62.8	6.2	0.00e+00	0	37	104	0	84	22256
2026-01-03 15:23:08.58	8.71	11.69	-59.6	-62.8	6.2	0.00e+00	0	37	104	0	84	22235
2026-01-03 15:23:09.59	8.51	11.77	-59.7	-62.9	6.2	0.00e+00	0	38	104	0	84	22391
2026-01-03 15:23:10.59	8.31	11.85	-59.7	-62.8	6.2	0.00e+00	0	37	104	0	84	22347
2026-01-03 15:23:11.58	8.12	11.93	-59.7	-62.8	6.2	0.00e+00	0	38	104	0	84	22300
2026-01-03 15:23:12.58	7.92	12.00	-59.7	-62.9	6.2	0.00e+00	0	37	104	0	84	22372
2026-01-03 15:23:13.58	7.72	12.08	-59.7	-62.9	6.2	0.00e+00	0	37	104	0	84	22470
2026-01-03 15:23:14.58	7.51	12.16	-59.7	-62.9	6.2	0.00e+00	0	38	104	0	84	22406
2026-01-03 15:23:15.58	7.31	12.24	-59.7	-62.9	6.2	0.00e+00	0	37	104	0	84	22372
2026-01-03 15:23:16.58	7.11	12.32	-59.7	-62.9	6.2	0.00e+00	0	38	104	0	84	22392
2026-01-03 15:23:17.58	6.90	12.40	-59.7	-62.9	6.2	0.00e+00	0	38	104	0	84	22524
2026-01-03 15:23:18.58	6.69	12.48	-59.7	-62.9	6.2	0.00e+00	0	38	104	0	84	22467
2026-01-03 15:23:19.58	6.48	12.55	-59.7	-62.9	6.2	0.00e+00	0	38	104	0	84	22417
2026-01-03 15:23:20.58	6.27	12.63	-59.7	-62.9	6.2	0.00e+00	0	38	104	0	84	22424
2026-01-03 15:23:21.58	6.06	12.71	-59.8	-62.9	6.2	0.00e+00	0	38	104	0	84	22577
2026-01-03 15:23:22.57	5.85	12.79	-59.7	-62.9	6.2	0.00e+00	0	38	104	0	84	22567
2026-01-03 15:23:23.57	5.64	12.87	-59.7	-62.9	6.2	0.00e+00	0	38	104	0	84	22519
2026-01-03 15:23:24.57	5.42	12.95	-59.7	-62.9	6.2	0.00e+00	0	38	104	0	84	22526
2026-01-03 15:23:25.56	5.21	13.02	-59.8	-63.0	6.2	0.00e+00	0	38	104	0	84	22646
2026-01-03 15:23:26.56	4.99	13.10	-59.8	-62.9	6.2	0.00e+00	0	38	104	0	85	21358
2026-01-03 15:23:27.56	4.77	13.18	-59.8	-62.9	6.2	0.00e+00	0	38	104	0	85	21344
2026-01-03 15:23:28.56	4.55	13.26	-59.8	-63.0	6.2	0.00e+00	0	38	104	0	85	21361
2026-01-03 15:23:29.55	4.33	13.34	-59.8	-62.9	6.2	0.00e+00	0	38	104	0	85	21354
2026-01-03 15:23:30.55	4.10	13.41	-59.8	-63.0	6.2	0.00e+00	0	38	104	0	85	21433
2026-01-03 15:23:31.55	3.88	13.49	-59.8	-62.9	6.2	0.00e+00	0	38	104	0	85	21327
2026-01-03 15:23:32.56	3.65	13.57	-59.8	-63.0	6.2	0.00e+00	0	38	104	0	85	21363
2026-01-03 15:23:33.56	3.42	13.65	-59.8	-63.0	6.2	0.00e+00	0	38	104	0	85	21437
2026-01-03 15:23:34.56	3.19	13.73	-59.8	-63.0	6.2	0.00e+00	0	38	104	0	85	21510
2026-01-03 15:23:35.56	2.96	13.81	-59.8	-63.0	6.2	0.00e+00	0	38	104	0	85	21407
2026-01-03 15:23:36.56	2.72	13.88	-59.8	-63.0	6.2	0.00e+00	0	38	104	0	85	21372
2026-01-03 15:23:37.55	2.49	13.96	-59.8	-63.0	6.2	0.00e+00	0	38	104	0	85	21481
2026-01-03 15:23:38.55	2.26	14.04	-59.8	-63.0	6.2	0.00e+00	0	38	104	0	85	21481
2026-01-03 15:23:39.55	2.02	14.12	-59.8	-63.0	6.2	0.00e+00	0	38	104	0	85	21499
2026-01-03 15:23:40.55	1.78	14.19	-59.8	-63.0	6.2	0.00e+00	0	38	104	0	85	21461
2026-01-03 15:23:41.55	1.54	14.27	-59.9	-63.0	6.2	0.00e+00	0	38	104	0	85	21571
2026-01-03 15:23:42.55	1.30	14.35	-59.9	-63.1	6.2	0.00e+00	0	38	104	0	85	21621
2026-01-03 15:23:43.55	1.06	14.43	-59.9	-63.0	6.2	0.00e+00	0	38	104	0	85	21574
2026-01-03 15:23:44.54	0.81	14.50	-59.8	-63.0	6.2	0.00e+00	0	38	104	0	85	21509
2026-01-03 15:23:45.54	0.57	14.58	-59.9	-63.1	6.2	0.00e+00	0	38	104	0	85	21652
2026-01-03 15:23:46.54	0.32	14.66	-59.9	-63.1	6.2	0.00e+00	0	38	104	0	85	21649
2026-01-03 15:23:47.54	0.07	14.73	-59.9	-63.1	6.2	0.00e+00	0	38	104	0	85	21638
2026-01-03 15:23:48.54	359.82	14.81	-59.9	-63.1	6.2	0.00e+00	0	38	104	0	85	21682
2026-01-03 15:23:49.54	359.57	14.88	-59.9	-63.1	6.2	0.00e+00	0	38	104	0	85	21730
2026-01-03 15:23:50.54	359.31	14.96	-59.9	-63.1	6.2	0.00e+00	0	38	104	0	85	21723
2026-01-03 15:23:51.54	359.06	15.04	-59.9	-63.1	6.2	0.00e+00	0	38	104	0	85	21677
2026-01-03 15:23:52.54	358.80	15.11	-59.9	-63.1	6.2	0.00e+00	0	38	104	0	85	21658
2026-01-03 15:23:53.54	358.54	15.19	-59.9	-63.1	6.2	0.00e+00	0	38	104	0	85	21770
2026-01-03 15:23:54.54	358.28	15.26	-59.9	-63.1	6.2	0.00e+00	0	38	104	0	85	21768
2026-01-03 15:23:55.54	358.02	15.34	-59.9	-63.1	6.2	0.00e+00	0	38	104	0	85	21728
2026-01-03 15:23:56.55	357.75	15.41	-59.9	-63.1	6.2	0.00e+00	0	38	104	0	85	21727
2026-01-03 15:23:57.54	357.49	15.49	-59.9	-63.1	6.2	0.00e+00	0	38	104	0	85	21761
2026-01-03 15:23:58.55	357.22	15.56	-60.1	-63.2	6.2	0.00e+00	0	38	104	0	85	22069
2026-01-03 15:23:59.55	356.96	15.63	-60.0	-63.2	6.2	0.00e+00	0	38	104	0	85	21913
2026-01-03 15:24:00.55	356.69	15.71	-60.0	-63.2	6.2	0.00e+00	0	38	104	0	85	21893
2026-01-03 15:24:01.55	356.42	15.78	-60.0	-63.2	6.2	0.00e+00	0	38	104	0	85	21893
2026-01-03 15:24:02.55	356.14	15.85	-60.0	-63.2	6.2	0.00e+00	0	38	104	0	85	21859
2026-01-03 15:24:03.55	355.87	15.93	-60.0	-63.2	6.2	0.00e+00	0	38	104	0	85	21892
2026-01-03 15:24:04.55	355.59	16.00	-60.0	-63.2	6.2	0.00e+00	0	38	104	0	85	21874
2026-01-03 15:24:05.55	355.32	16.07	-60.0	-63.2	6.2	0.00e+00	0	38	104	0	85	21969
2026-01-03 15:24:06.55	355.04	16.14	-60.0	-63.2	6.2	0.00e+00	0	38	104	0	85	21951
2026-01-03 15:24:07.56	354.75	16.22	-60.0	-63.2	6.2	0.00e+00	0	38	104	0	85	21904
2026-01-03 15:24:08.56	354.47	16.29	-60.0	-63.2	6.2	0.00e+00	0	38	104	0	85	21863
2026-01-03 15:24:09.56	354.19	16.36	-60.0	-63.2	6.2	0.00e+00	0	38	104	0	85	21969
2026-01-03 15:24:10.56	353.90	16.43	-60.0	-63.2	6.2	0.00e+00	0	38	104	0	85	22010
2026-01-03 15:24:11.56	353.62	16.50	-60.0	-63.2	6.2	0.00e+00	0	38	104	0	85	21921
2026-01-03 15:24:12.56	353.33	16.57	-60.0	-63.2	6.2	0.00e+00	0	38	104	0	85	21966
2026-01-03 15:24:13.57	353.04	16.64	-60.1	-63.2	6.2	0.00e+00	0	38	104	0	85	22027
2026-01-03 15:24:14.57	352.74	16.70	-60.0	-63.2	6.2	0.00e+00	0	38	104	0	85	22040
2026-01-03 15:24:15.57	352.45	16.77	-60.0	-63.2	6.2	0.00e+00	0	38	104	0	85	21967
2026-01-03 15:24:16.56	352.16	16.84	-60.0	-63.2	6.2	0.00e+00	0	38	104	0	85	21909
2026-01-03 15:24:17.56	351.86	16.91	-60.1	-63.2	6.2	0.00e+00	0	38	104	0	85	22075
2026-01-03 15:24:18.56	351.57	16.97	-60.0	-63.2	6.2	0.00e+00	0	38	104	0	85	21955
2026-01-03 15:24:19.55	351.27	17.04	-60.0	-63.2	6.2	0.00e+00	0	38	104	0	85	21959
2026-01-03 15:24:20.55	350.97	17.11	-60.0	-63.2	6.2	0.00e+00	0	38	104	0	85	21974
2026-01-03 15:24:21.56	350.66	17.17	-60.1	-63.2	6.2	0.00e+00	0	38	104	0	85	22050
2026-01-03 15:24:22.56	350.36	17.24	-60.0	-63.2	6.2	0.00e+00	0	38	104	0	85	22013
2026-01-03 15:24:23.55	350.06	17.30	-60.0	-63.2	6.2	0.00e+00	0	38	104	0	85	21976
2026-01-03 15:24:24.55	349.75	17.37	-60.0	-63.2	6.2	0.00e+00	0	38	104	0	85	22055
2026-01-03 15:24:25.54	349.45	17.43	-60.1	-63.2	6.2	0.00e+00	0	38	104	0	85	22104
2026-01-03 15:24:26.54	349.14	17.49	-60.1	-63.3	6.2	0.00e+00	0	38	104	0	85	22117
2026-01-03 15:24:27.54	348.82	17.55	-60.1	-63.3	6.2	0.00e+00	0	38	104	0	85	22119
2026-01-03 15:24:28.54	348.51	17.61	-60.1	-63.2	6.2	0.00e+00	0	38	104	0	85	22086
2026-01-03 15:24:29.54	348.20	17.68	-60.1	-63.3	6.2	0.00e+00	0	38	104	0	85	22161
2026-01-03 15:24:30.54	347.88	17.74	-60.1	-63.3	6.2	0.00e+00	0	38	104	0	85	22116
2026-01-03 15:24:31.54	347.56	17.80	-60.1	-63.2	6.2	0.00e+00	0	38	104	0	85	22064
2026-01-03 15:24:32.53	347.25	17.85	-60.1	-63.2	6.2	0.00e+00	0	38	104	0	85	22105
2026-01-03 15:24:33.54	346.93	17.91	-60.1	-63.3	6.2	0.00e+00	0	38	104	0	85	22175
2026-01-03 15:24:34.54	346.60	17.97	-60.1	-63.3	6.2	0.00e+00	0	38	104	0	85	22127
2026-01-03 15:24:35.54	346.28	18.03	-60.1	-63.3	6.2	0.00e+00	0	38	104	0	85	22120
2026-01-03 15:24:36.54	345.96	18.09	-60.1	-63.2	6.2	0.00e+00	0	38	104	0	85	22055
2026-01-03 15:24:37.54	345.63	18.14	-60.1	-63.3	6.2	0.00e+00	0	38	104	0	85	22250
2026-01-03 15:24:38.54	345.30	18.20	-60.1	-63.3	6.2	0.00e+00	0	38	104	0	85	22201
2026-01-03 15:24:39.53	344.98	18.25	-60.1	-63.3	6.2	0.00e+00	0	38	104	0	85	22191
2026-01-03 15:24:40.53	344.65	18.30	-60.1	-63.2	6.2	0.00e+00	0	38	104	0	85	22087
2026-01-03 15:24:41.53	344.32	18.36	-60.1	-63.3	6.2	0.00e+00	0	38	104	0	85	22193
2026-01-03 15:24:42.54	343.98	18.41	-60.1	-63.3	6.2	0.00e+00	0	38	104	0	85	22282
2026-01-03 15:24:43.55	343.64	18.46	-60.1	-63.3	6.2	0.00e+00	0	38	104	0	85	22288
2026-01-03 15:24:44.55	343.31	18.51	-60.1	-63.3	6.2	0.00e+00	0	38	104	0	85	22304
2026-01-03 15:24:45.55	342.97	18.56	-60.2	-63.4	6.2	0.00e+00	0	38	104	0	85	22366
2026-01-03 15:24:46.54	342.64	18.61	-60.2	-63.3	6.2	0.00e+00	0	38	104	0	85	22322
2026-01-03 15:24:47.54	342.30	18.66	-60.2	-63.3	6.2	0.00e+00	0	38	104	0	85	22309
2026-01-03 15:24:48.54	341.96	18.71	-60.2	-63.3	6.2	0.00e+00	0	38	104	0	85	22311
2026-01-03 15:24:49.54	341.62	18.75	-60.2	-63.4	6.2	0.00e+00	0	38	104	0	85	22394
2026-01-03 15:24:50.54	341.28	18.80	-60.2	-63.3	6.2	0.00e+00	0	38	104	0	85	22352
2026-01-03 15:24:51.54	340.93	18.85	-60.2	-63.3	6.2	0.00e+00	0	38	104	0	85	22263
2026-01-03 15:24:52.54	340.59	18.89	-60.2	-63.3	6.2	0.00e+00	0	38	104	0	85	22318
2026-01-03 15:24:53.53	340.24	18.93	-60.2	-63.4	6.2	0.00e+00	0	38	104	0	85	22414
2026-01-03 15:24:54.53	339.90	18.98	-60.2	-63.4	6.2	0.00e+00	0	38	104	0	85	22445
2026-01-03 15:24:55.52	339.55	19.02	-60.2	-63.4	6.2	0.00e+00	0	38	104	0	85	22479
2026-01-03 15:24:56.52	339.20	19.06	-60.2	-63.3	6.2	0.00e+00	0	38	104	0	85	22363
2026-01-03 15:24:57.52	338.85	19.10	-60.2	-63.4	6.2	0.00e+00	0	38	104	0	85	22531
2026-01-03 15:24:58.52	338.50	19.14	-60.2	-63.4	6.2	0.00e+00	0	38	104	0	85	22494
2026-01-03 15:24:59.52	338.15	19.17	-60.2	-63.4	6.2	0.00e+00	0	38	104	0	85	22431
2026-01-03 15:25:00.51	337.80	19.21	-60.2	-63.4	6.2	0.00e+00	0	38	104	0	85	22475
2026-01-03 15:25:01.52	337.44	19.25	-60.2	-63.4	6.2	0.00e+00	0	38	104	0	85	22574
2026-01-03 15:25:02.52	337.08	19.28	-60.2	-63.4	6.2	0.00e+00	0	38	104	0	85	22541
2026-01-03 15:25:03.52	336.73	19.32	-60.2	-63.4	6.2	0.00e+00	0	38	104	0	85	22575
2026-01-03 15:25:04.52	336.37	19.35	-60.2	-63.4	6.2	0.00e+00	0	38	104	0	85	22497
2026-01-03 15:25:05.52	336.01	19.38	-60.2	-63.4	6.2	0.00e+00	0	38	104	0	85	22571
2026-01-03 15:25:06.52	335.65	19.41	-60.3	-63.4	6.2	0.00e+00	0	38	104	0	85	22542
2026-01-03 15:25:07.53	335.29	19.44	-60.3	-63.4	6.2	0.00e+00	0	38	104	0	85	22533
2026-01-03 15:25:08.53	334.93	19.47	-60.3	-63.4	6.2	0.00e+00	0	38	104	0	85	22616
2026-01-03 15:25:09.53	334.57	19.50	-60.3	-63.5	6.2	0.00e+00	0	38	104	0	85	22625
2026-01-03 15:25:10.53	334.20	19.53	-60.3	-63.5	6.2	0.00e+00	0	38	104	0	85	22635
2026-01-03 15:25:11.53	333.84	19.55	-60.3	-63.4	6.2	0.00e+00	0	38	104	0	85	22590
2026-01-03 15:25:12.53	333.48	19.58	-60.3	-63.4	6.2	0.00e+00	0	38	104	0	85	22577
2026-01-03 15:25:13.52	333.12	19.60	-60.3	-63.5	6.2	0.00e+00	0	38	104	0	85	22731
2026-01-03 15:25:14.53	332.75	19.63	-60.3	-63.5	6.2	0.00e+00	0	38	104	0	85	22665
2026-01-03 15:25:15.53	332.38	19.65	-60.3	-63.4	6.2	0.00e+00	0	38	104	0	85	22623
2026-01-03 15:25:16.53	332.01	19.67	-60.3	-63.5	6.2	0.00e+00	0	38	104	0	85	22648
2026-01-03 15:25:17.53	331.65	19.69	-60.3	-63.5	6.2	0.00e+00	0	38	104	0	85	22661
2026-01-03 15:25:18.53	331.28	19.71	-60.3	-63.5	6.2	0.00e+00	0	38	104	0	86	21452
2026-01-03 15:25:19.53	330.91	19.72	-60.3	-63.5	6.2	0.00e+00	0	38	104	0	86	21408
2026-01-03 15:25:20.52	330.55	19.74	-60.3	-63.5	6.2	0.00e+00	0	38	104	0	86	21489
2026-01-03 15:25:21.52	330.18	19.76	-60.3	-63.5	6.2	0.00e+00	0	38	104	0	86	21483
2026-01-03 15:25:22.52	329.81	19.77	-60.3	-63.5	6.2	0.00e+00	0	38	104	0	86	21501
2026-01-03 15:25:23.51	329.44	19.78	-60.3	-63.5	6.2	0.00e+00	0	38	104	0	86	21466
2026-01-03 15:25:24.51	329.07	19.79	-60.3	-63.5	6.2	0.00e+00	0	38	104	0	86	21414
2026-01-03 15:25:25.50	328.71	19.81	-60.3	-63.5	6.2	0.00e+00	0	38	104	0	86	21539
2026-01-03 15:25:26.50	328.34	19.82	-60.3	-63.5	6.2	0.00e+00	0	38	104	0	86	21535
2026-01-03 15:25:27.50	327.97	19.82	-60.3	-63.5	6.2	0.00e+00	0	38	104	0	86	21501
2026-01-03 15:25:28.50	327.59	19.83	-60.3	-63.5	6.2	0.00e+00	0	38	104	0	86	21457
2026-01-03 15:25:29.49	327.23	19.84	-60.3	-63.5	6.2	0.00e+00	0	38	104	0	86	21524
2026-01-03 15:25:30.49	326.86	19.84	-60.3	-63.5	6.2	0.00e+00	0	38	104	0	86	21475
2026-01-03 15:25:31.48	326.49	19.85	-60.3	-63.5	6.2	0.00e+00	0	38	104	0	86	21518
2026-01-03 15:25:32.47	326.12	19.85	-60.3	-63.5	6.2	0.00e+00	0	38	104	0	86	21490
2026-01-03 15:25:33.47	325.75	19.85	-60.3	-63.5	6.2	0.00e+00	0	38	104	0	86	21530
2026-01-03 15:25:34.47	325.38	19.85	-60.4	-63.5	6.2	0.00e+00	0	38	104	0	86	21600
2026-01-03 15:25:35.46	325.01	19.85	-60.3	-63.5	6.2	0.00e+00	0	38	104	0	86	21488
2026-01-03 15:25:36.46	324.64	19.85	-60.4	-63.5	6.2	0.00e+00	0	38	104	0	86	21496
2026-01-03 15:25:37.46	324.26	19.85	-60.4	-63.5	6.2	0.00e+00	0	38	104	0	86	21605
2026-01-03 15:25:38.46	323.89	19.84	-60.4	-63.6	6.2	0.00e+00	0	38	104	0	86	21642
2026-01-03 15:25:39.46	323.52	19.84	-60.4	-63.5	6.2	0.00e+00	0	38	104	0	86	21533
2026-01-03 15:25:40.46	323.15	19.83	-60.4	-63.5	6.2	0.00e+00	0	38	104	0	86	21576
2026-01-03 15:25:41.46	322.78	19.83	-60.4	-63.6	6.2	0.00e+00	0	38	104	0	86	21719
2026-01-03 15:25:42.46	322.41	19.82	-60.4	-63.6	6.2	0.00e+00	0	38	104	0	86	21720
2026-01-03 15:25:43.44	322.04	19.81	-60.4	-63.5	6.2	0.00e+00	0	38	104	0	86	21603
2026-01-03 15:25:44.43	321.68	19.80	-60.4	-63.6	6.2	0.00e+00	0	38	104	0	86	21612
2026-01-03 15:25:45.43	321.31	19.79	-60.4	-63.5	6.2	0.00e+00	0	38	104	0	86	21606
2026-01-03 15:25:46.44	320.93	19.77	-60.4	-63.6	6.2	0.00e+00	0	38	104	0	86	21634
2026-01-03 15:25:47.44	320.56	19.76	-60.4	-63.6	6.2	0.00e+00	0	38	104	0	86	21647
2026-01-03 15:25:48.43	320.20	19.75	-60.4	-63.6	6.2	0.00e+00	0	38	104	0	86	21649
2026-01-03 15:25:49.43	319.83	19.73	-60.4	-63.5	6.2	0.00e+00	0	38	104	0	86	21602
2026-01-03 15:25:50.42	319.47	19.71	-60.4	-63.6	6.2	0.00e+00	0	38	104	0	86	21691
2026-01-03 15:25:51.42	319.10	19.69	-60.4	-63.6	6.2	0.00e+00	0	38	104	0	86	21647
2026-01-03 15:25:52.41	318.73	19.68	-60.4	-63.6	6.2	0.00e+00	0	38	104	0	86	21627
2026-01-03 15:25:53.41	318.37	19.66	-60.4	-63.6	6.2	0.00e+00	0	38	104	0	86	21673
2026-01-03 15:25:54.41	318.00	19.63	-60.4	-63.6	6.2	0.00e+00	0	38	104	0	86	21662
2026-01-03 15:25:55.40	317.64	19.61	-60.4	-63.6	6.2	0.00e+00	0	38	104	0	86	21646
2026-01-03 15:25:56.40	317.27	19.59	-60.4	-63.6	6.2	0.00e+00	0	38	104	0	86	21632
2026-01-03 15:25:57.39	316.91	19.56	-60.4	-63.5	6.2	0.00e+00	0	38	104	0	86	21553
2026-01-03 15:25:58.38	316.55	19.54	-60.4	-63.6	6.2	0.00e+00	0	38	104	0	86	21700
2026-01-03 15:25:59.38	316.19	19.51	-60.4	-63.5	6.2	0.00e+00	0	38	104	0	86	21546
2026-01-03 15:26:00.37	315.83	19.48	-60.4	-63.6	6.2	0.00e+00	0	38	104	0	86	21637
2026-01-03 15:26:01.37	315.47	19.46	-60.4	-63.6	6.2	0.00e+00	0	38	104	0	86	21631
2026-01-03 15:26:02.37	315.11	19.43	-60.4	-63.6	6.2	0.00e+00	0	38	104	0	86	21624
2026-01-03 15:26:03.38	314.75	19.39	-60.4	-63.5	6.2	0.00e+00	0	38	104	0	86	21568
2026-01-03 15:26:04.38	314.39	19.36	-60.4	-63.5	6.2	0.00e+00	0	38	104	0	86	21580
2026-01-03 15:26:05.38	314.03	19.33	-60.4	-63.5	6.2	0.00e+00	0	38	104	0	86	21589
2026-01-03 15:26:06.37	313.68	19.30	-60.4	-63.6	6.2	0.00e+00	0	38	104	0	86	21615
2026-01-03 15:26:07.37	313.32	19.26	-60.4	-63.5	6.2	0.00e+00	0	38	104	0	86	21606
2026-01-03 15:26:08.37	312.96	19.23	-60.4	-63.5	6.2	0.00e+00	0	38	104	0	86	21604
2026-01-03 15:26:09.37	312.61	19.19	-60.4	-63.5	6.2	0.00e+00	0	38	104	0	86	21581
2026-01-03 15:26:10.37	312.26	19.15	-60.4	-63.6	6.2	0.00e+00	0	38	104	0	86	21650
2026-01-03 15:26:11.37	311.90	19.11	-60.4	-63.5	6.2	0.00e+00	0	38	104	0	86	21598
2026-01-03 15:26:12.37	311.55	19.07	-60.4	-63.6	6.2	0.00e+00	0	38	104	0	86	21610
2026-01-03 15:26:13.37	311.20	19.03	-60.4	-63.5	6.2	0.00e+00	0	38	104	0	86	21553
2026-01-03 15:26:14.37	310.85	18.99	-60.4	-63.6	6.2	0.00e+00	0	38	104	0	86	21696
2026-01-03 15:26:15.36	310.51	18.95	-60.4	-63.6	6.2	0.00e+00	0	38	104	0	86	21622
2026-01-03 15:26:16.37	310.16	18.91	-60.4	-63.5	6.2	0.00e+00	0	38	104	0	86	21570
2026-01-03 15:26:17.37	309.81	18.86	-60.4	-63.6	6.2	0.00e+00	0	38	104	0	86	21608
2026-01-03 15:26:18.37	309.47	18.82	-60.4	-63.6	6.2	0.00e+00	0	38	104	0	86	21737
2026-01-03 15:26:19.36	309.13	18.77	-60.4	-63.6	6.2	0.00e+00	0	38	104	0	86	21652
2026-01-03 15:26:20.35	308.79	18.73	-60.4	-63.6	6.2	0.00e+00	0	38	104	0	86	21697
2026-01-03 15:26:21.35	308.45	18.68	-60.4	-63.5	6.2	0.00e+00	0	38	104	0	86	21560
2026-01-03 15:26:22.35	308.11	18.63	-60.4	-63.6	6.2	0.00e+00	0	38	104	0	86	21704
2026-01-03 15:26:23.35	307.77	18.58	-60.4	-63.5	6.2	0.00e+00	0	38	104	0	86	21521
2026-01-03 15:26:24.35	307.43	18.53	-60.4	-63.6	6.2	0.00e+00	0	38	104	0	86	21624
2026-01-03 15:26:25.34	307.10	18.48	-60.3	-63.5	6.2	0.00e+00	0	38	104	0	86	21552
2026-01-03 15:26:26.33	306.76	18.43	-60.4	-63.6	6.2	0.00e+00	0	38	104	0	86	21665
2026-01-03 15:26:27.32	306.43	18.38	-60.4	-63.6	6.2	0.00e+00	0	38	104	0	86	21670
2026-01-03 15:26:28.31	306.10	18.33	-60.4	-63.5	6.2	0.00e+00	0	38	104	0	86	21588
2026-01-03 15:26:29.31	305.77	18.27	-60.4	-63.5	6.2	0.00e+00	0	38	104	0	86	21555
2026-01-03 15:26:30.30	305.45	18.22	-60.4	-63.6	6.2	0.00e+00	0	38	104	0	86	21698
2026-01-03 15:26:31.31	305.12	18.17	-60.4	-63.6	6.2	0.00e+00	0	38	104	0	86	21659
2026-01-03 15:26:32.31	304.79	18.11	-60.4	-63.6	6.2	0.00e+00	0	38	104	0	86	21697
2026-01-03 15:26:33.31	304.46	18.05	-60.4	-63.5	6.2	0.00e+00	0	38	104	0	86	21606
2026-01-03 15:26:34.30	304.14	18.00	-60.4	-63.6	6.2	0.00e+00	0	38	104	0	86	21688
2026-01-03 15:26:35.30	303.82	17.94	-60.4	-63.5	6.2	0.00e+00	0	38	104	0	86	21597
2026-01-03 15:26:36.30	303.50	17.88	-60.4	-63.5	6.2	0.00e+00	0	38	104	0	86	21605
2026-01-03 15:26:37.29	303.18	17.82	-60.4	-63.5	6.2	0.00e+00	0	38	104	0	86	21550
2026-01-03 15:26:38.28	302.87	17.76	-60.4	-63.6	6.2	0.00e+00	0	38	104	0	86	21739
2026-01-03 15:26:39.28	302.55	17.70	-60.4	-63.5	6.2	0.00e+00	0	38	104	0	86	21579
2026-01-03 15:26:40.28	302.23	17.64	-60.4	-63.6	6.2	0.00e+00	0	38	104	0	86	21691
2026-01-03 15:26:41.28	301.92	17.58	-60.4	-63.5	6.2	0.00e+00	0	38	104	0	86	21568
2026-01-03 15:26:42.28	301.61	17.52	-60.4	-63.6	6.2	0.00e+00	0	38	104	0	86	21678
2026-01-03 15:26:43.28	301.29	17.46	-60.4	-63.5	6.2	0.00e+00	0	38	104	0	86	21563
2026-01-03 15:26:44.29	300.98	17.39	-60.4	-63.6	6.2	0.00e+00	0	38	104	0	86	21672
2026-01-03 15:26:45.28	300.68	17.33	-60.4	-63.6	6.2	0.00e+00	0	38	104	0	86	21624
2026-01-03 15:26:46.28	300.37	17.26	-60.4	-63.6	6.2	0.00e+00	0	38	104	0	86	21752
2026-01-03 15:26:47.27	300.07	17.20	-60.4	-63.6	6.2	0.00e+00	0	38	104	0	86	21679
2026-01-03 15:26:48.28	299.76	17.13	-60.4	-63.6	6.2	0.00e+00	0	38	104	0	86	21682
2026-01-03 15:26:49.28	299.46	17.07	-60.4	-63.5	6.2	0.00e+00	0	38	104	0	86	21603
2026-01-03 15:26:50.29	299.16	17.00	-60.4	-63.6	6.2	0.00e+00	0	38	104	0	86	21755
2026-01-03 15:26:51.29	298.86	16.93	-60.4	-63.5	6.2	0.00e+00	0	38	104	0	86	21602
2026-01-03 15:26:52.28	298.56	16.87	-60.4	-63.6	6.2	0.00e+00	0	38	104	0	86	21757
2026-01-03 15:26:53.28	298.27	16.80	-60.4	-63.6	6.2	0.00e+00	0	38	104	0	86	21748
2026-01-03 15:26:54.27	297.97	16.73	-60.5	-63.7	6.2	0.00e+00	0	38	104	0	86	21925
2026-01-03 15:26:55.27	297.68	16.66	-60.4	-63.6	6.2	0.00e+00	0	38	104	0	86	21723
2026-01-03 15:26:56.27	297.39	16.59	-60.5	-63.6	6.2	0.00e+00	0	38	104	0	86	21788
2026-01-03 15:26:57.28	297.10	16.52	-60.5	-63.7	6.2	0.00e+00	0	38	104	0	86	21883
2026-01-03 15:26:58.28	296.81	16.45	-60.5	-63.6	6.2	0.00e+00	0	38	104	0	86	21806
2026-01-03 15:26:59.28	296.52	16.38	-60.4	-63.6	6.2	0.00e+00	0	38	104	0	86	21714
2026-01-03 15:27:00.28	296.24	16.31	-60.5	-63.7	6.2	0.00e+00	0	38	104	0	86	21919
2026-01-03 15:27:01.28	295.96	16.24	-60.5	-63.7	6.2	0.00e+00	0	38	104	0	86	21885
2026-01-03 15:27:02.27	295.68	16.17	-60.5	-63.7	6.2	0.00e+00	0	38	104	0	86	21941
2026-01-03 15:27:03.28	295.39	16.10	-60.4	-63.6	6.2	0.00e+00	0	38	104	0	86	21778
2026-01-03 15:27:04.27	295.12	16.03	-60.5	-63.6	6.2	0.00e+00	0	38	104	0	86	21777
2026-01-03 15:27:05.27	294.84	15.96	-60.5	-63.7	6.2	0.00e+00	0	38	104	0	86	21891
2026-01-03 15:27:06.27	294.56	15.88	-60.5	-63.6	6.2	0.00e+00	0	38	104	0	86	21836
2026-01-03 15:27:07.27	294.29	15.81	-60.4	-63.6	6.2	0.00e+00	0	38	104	0	86	21742
2026-01-03 15:27:08.27	294.02	15.74	-60.4	-63.6	6.2	0.00e+00	0	38	104	0	86	21776
2026-01-03 15:27:09.27	293.75	15.66	-60.4	-63.6	6.2	0.00e+00	0	38	104	0	86	21740
2026-01-03 15:27:10.26	293.48	15.59	-60.4	-63.6	6.2	0.00e+00	0	38	104	0	86	21726
2026-01-03 15:27:11.26	293.21	15.52	-60.4	-63.6	6.2	0.00e+00	0	38	104	0	86	21671
2026-01-03 15:27:12.26	292.95	15.44	-60.4	-63.6	6.2	0.00e+00	0	38	104	0	86	21688
2026-01-03 15:27:13.26	292.68	15.37	-60.4	-63.6	6.2	0.00e+00	0	38	104	0	86	21823
2026-01-03 15:27:14.26	292.42	15.29	-60.4	-63.6	6.2	0.00e+00	0	38	104	0	86	21793
2026-01-03 15:27:15.26	292.16	15.22	-60.4	-63.6	6.2	0.00e+00	0	38	104	0	86	21692
2026-01-03 15:27:16.25	291.90	15.14	-60.4	-63.6	6.2	0.00e+00	0	38	104	0	86	21686
2026-01-03 15:27:17.26	291.64	15.06	-60.4	-63.6	6.2	0.00e+00	0	38	104	0	86	21749
2026-01-03 15:27:18.25	291.38	14.99	-60.4	-63.6	6.2	0.00e+00	0	38	104	0	86	21697
2026-01-03 15:27:19.25	291.13	14.91	-60.4	-63.6	6.2	0.00e+00	0	38	104	0	86	21608
2026-01-03 15:27:20.25	290.87	14.84	-60.4	-63.5	6.2	0.00e+00	0	38	104	0	86	21585
2026-01-03 15:27:21.25	290.62	14.76	-60.4	-63.6	6.2	0.00e+00	0	38	104	0	86	21644
2026-01-03 15:27:22.24	290.37	14.69	-60.4	-63.6	6.2	0.00e+00	0	38	104	0	86	21608
2026-01-03 15:27:23.24	290.12	14.61	-60.4	-63.5	6.2	0.00e+00	0	38	104	0	86	21574
2026-01-03 15:27:24.24	289.88	14.53	-60.3	-63.5	6.2	0.00e+00	0	38	104	0	86	21475
2026-01-03 15:27:25.24	289.63	14.45	-60.4	-63.5	6.2	0.00e+00	0	38	104	0	86	21529
2026-01-03 15:27:26.23	289.39	14.38	-60.4	-63.5	6.2	0.00e+00	0	38	104	0	86	21576
2026-01-03 15:27:27.22	289.15	14.30	-60.3	-63.5	6.2	0.00e+00	0	38	104	0	86	21473
2026-01-03 15:27:28.21	288.91	14.22	-60.3	-63.5	6.2	0.00e+00	0	38	104	0	86	21444
2026-01-03 15:27:29.21	288.67	14.15	-60.3	-63.5	6.2	0.00e+00	0	38	104	0	86	21389
2026-01-03 15:27:30.20	288.43	14.07	-60.3	-63.5	6.2	0.00e+00	0	38	104	0	86	21471
2026-01-03 15:27:31.20	288.19	13.99	-60.3	-63.4	6.2	0.00e+00	0	38	104	0	86	21310
2026-01-03 15:27:32.20	287.96	13.91	-60.3	-63.4	6.2	0.00e+00	0	38	104	0	86	21337
2026-01-03 15:27:33.20	287.72	13.84	-60.3	-63.5	6.2	0.00e+00	0	38	104	0	86	21376
2026-01-03 15:27:34.19	287.49	13.76	-60.3	-63.5	6.2	0.00e+00	0	38	104	0	86	21415
2026-01-03 15:27:35.20	287.26	13.68	-60.3	-63.4	6.2	0.00e+00	0	38	104	0	86	21265
2026-01-03 15:27:36.19	287.03	13.60	-60.2	-63.4	6.2	0.00e+00	0	38	104	0	86	21265
2026-01-03 15:27:37.19	286.80	13.52	-60.3	-63.4	6.2	0.00e+00	0	38	104	0	86	21280
2026-01-03 15:27:38.19	286.58	13.45	-60.3	-63.4	6.2	0.00e+00	0	38	104	0	86	21350
2026-01-03 15:27:39.20	286.35	13.37	-60.2	-63.4	6.2	0.00e+00	0	38	104	0	86	21203
2026-01-03 15:27:40.20	286.12	13.29	-60.2	-63.4	6.2	0.00e+00	0	38	104	0	86	21233
2026-01-03 15:27:41.19	285.90	13.21	-60.2	-63.4	6.2	0.00e+00	0	38	104	0	86	21266
2026-01-03 15:27:42.19	285.68	13.13	-60.2	-63.4	6.2	0.00e+00	0	38	104	0	86	21300
2026-01-03 15:27:43.19	285.46	13.05	-60.2	-63.4	6.2	0.00e+00	0	38	104	0	86	21166
2026-01-03 15:27:44.19	285.24	12.97	-60.2	-63.4	6.2	0.00e+00	0	38	104	0	86	21175
2026-01-03 15:27:45.19	285.03	12.89	-60.2	-63.4	6.2	0.00e+00	0	38	104	0	86	21167
2026-01-03 15:27:46.19	284.81	12.82	-60.2	-63.4	6.2	0.00e+00	0	38	104	0	86	21207
2026-01-03 15:27:47.19	284.60	12.74	-60.2	-63.3	6.2	0.00e+00	0	39	104	0	86	21058
2026-01-03 15:27:48.19	284.38	12.66	-60.2	-63.3	6.2	0.00e+00	0	38	104	0	86	21082
2026-01-03 15:27:49.19	284.17	12.58	-60.2	-63.3	6.2	0.00e+00	0	38	104	0	86	21113
2026-01-03 15:27:50.18	283.96	12.50	-60.2	-63.3	6.2	0.00e+00	0	38	104	0	86	21101
2026-01-03 15:27:51.18	283.76	12.42	-60.1	-63.3	6.2	0.00e+00	0	38	104	0	86	21025
2026-01-03 15:27:52.18	283.55	12.34	-60.2	-63.3	6.2	0.00e+00	0	38	104	0	86	21066
2026-01-03 15:27:53.17	283.34	12.27	-60.2	-63.3	6.2	0.00e+00	0	38	104	0	86	21100
2026-01-03 15:27:54.18	283.14	12.19	-60.2	-63.3	6.2	0.00e+00	0	38	104	0	86	21060
2026-01-03 15:27:55.18	282.93	12.11	-60.1	-63.3	6.2	0.00e+00	0	38	104	0	86	21035
2026-01-03 15:27:56.18	282.73	12.03	-60.1	-63.3	6.2	0.00e+00	0	38	104	0	86	21045
2026-01-03 15:27:57.18	282.53	11.95	-60.1	-63.3	6.2	0.00e+00	0	38	104	0	86	20997
2026-01-03 15:27:58.18	282.33	11.87	-60.2	-63.3	6.2	0.00e+00	0	38	104	0	86	21024
2026-01-03 15:27:59.18	282.13	11.79	-60.1	-63.3	6.2	0.00e+00	0	38	104	0	86	20926
2026-01-03 15:28:00.17	281.94	11.72	-60.1	-63.3	6.2	0.00e+00	0	38	104	0	86	20959
2026-01-03 15:28:01.17	281.74	11.64	-60.1	-63.3	6.2	0.00e+00	0	38	104	0	86	21031
2026-01-03 15:28:02.16	281.55	11.56	-60.1	-63.3	6.2	0.00e+00	0	38	104	0	86	20900
2026-01-03 15:28:03.16	281.35	11.48	-60.1	-63.2	6.2	0.00e+00	0	38	104	0	86	20868
2026-01-03 15:28:04.16	281.16	11.40	-60.1	-63.3	6.2	0.00e+00	0	38	104	0	86	20880
2026-01-03 15:28:05.16	280.97	11.32	-60.1	-63.3	6.2	0.00e+00	0	38	104	0	86	20890
2026-01-03 15:28:06.16	280.78	11.25	-60.1	-63.2	6.2	0.00e+00	0	38	104	0	86	20866
2026-01-03 15:28:07.16	280.59	11.17	-60.0	-63.2	6.2	0.00e+00	0	38	104	0	86	20834
2026-01-03 15:28:08.16	280.41	11.09	-60.0	-63.2	6.2	0.00e+00	0	38	104	0	86	20840
2026-01-03 15:28:09.16	280.22	11.01	-60.1	-63.2	6.2	0.00e+00	0	38	104	0	86	20836
2026-01-03 15:28:10.16	280.03	10.93	-60.0	-63.2	6.2	0.00e+00	0	38	104	0	86	20712
2026-01-03 15:28:11.16	279.85	10.85	-60.0	-63.2	6.2	0.00e+00	0	38	104	0	86	20734
2026-01-03 15:28:12.15	279.67	10.78	-60.0	-63.2	6.2	0.00e+00	0	38	104	0	86	20655
2026-01-03 15:28:13.16	279.49	10.70	-60.0	-63.2	6.2	0.00e+00	0	38	104	0	86	20694
2026-01-03 15:28:14.16	279.31	10.62	-60.0	-63.2	6.2	0.00e+00	0	38	104	0	86	20687
2026-01-03 15:28:15.17	279.13	10.54	-60.0	-63.1	6.2	0.00e+00	0	38	104	0	86	20620
2026-01-03 15:28:16.17	278.95	10.47	-60.0	-63.2	6.2	0.00e+00	0	38	104	0	86	20644
2026-01-03 15:28:17.17	278.77	10.39	-60.0	-63.2	6.2	0.00e+00	0	38	104	0	86	20660
2026-01-03 15:28:18.16	278.60	10.31	-60.0	-63.1	6.2	0.00e+00	0	38	104	0	86	20582
2026-01-03 15:28:19.16	278.43	10.23	-59.9	-63.1	6.2	0.00e+00	0	38	104	0	86	20540
2026-01-03 15:28:20.16	278.25	10.16	-59.9	-63.1	6.2	0.00e+00	0	38	104	0	86	20605
2026-01-03 15:28:21.16	278.08	10.08	-60.0	-63.1	6.2	0.00e+00	0	38	104	0	86	20632
2026-01-03 15:28:22.16	277.91	10.00	-59.9	-63.1	6.2	0.00e+00	0	38	104	0	86	20550
2026-01-03 15:28:23.16	277.74	9.93	-59.9	-63.1	6.2	0.00e+00	0	38	104	0	86	20519
2026-01-03 15:28:24.16	277.57	9.85	-59.9	-63.1	6.2	0.00e+00	0	38	104	0	86	20449
2026-01-03 15:28:25.16	277.40	9.77	-59.9	-63.1	6.2	0.00e+00	0	38	104	0	86	20437
2026-01-03 15:28:26.15	277.24	9.70	-59.9	-63.1	6.2	0.00e+00	0	38	104	0	86	20400
2026-01-03 15:28:27.15	277.07	9.62	-59.9	-63.1	6.2	0.00e+00	0	38	104	0	86	20404
2026-01-03 15:28:28.15	276.91	9.54	-59.9	-63.1	6.2	0.00e+00	0	38	104	0	86	20425
2026-01-03 15:28:29.14	276.75	9.47	-59.9	-63.1	6.2	0.00e+00	0	38	104	0	86	20411
2026-01-03 15:28:30.14	276.58	9.39	-59.9	-63.0	6.2	0.00e+00	0	38	104	0	86	20340
2026-01-03 15:28:31.14	276.42	9.32	-59.8	-63.0	6.2	0.00e+00	0	38	104	0	86	20278
2026-01-03 15:28:32.15	276.26	9.24	-59.8	-63.0	6.2	0.00e+00	0	38	104	0	86	20269
2026-01-03 15:28:33.15	276.10	9.16	-59.8	-63.0	6.2	0.00e+00	0	38	104	0	86	20285
2026-01-03 15:28:34.14	275.94	9.09	-59.8	-63.0	6.2	0.00e+00	0	38	104	0	86	20213
2026-01-03 15:28:35.14	275.79	9.01	-59.8	-62.9	6.2	0.00e+00	0	38	104	0	86	20141
2026-01-03 15:28:36.12	275.63	8.94	-59.8	-62.9	6.2	0.00e+00	0	38	104	0	86	20100
2026-01-03 15:28:37.12	275.48	8.86	-59.8	-62.9	6.2	0.00e+00	0	38	104	0	86	20125
2026-01-03 15:28:38.11	275.33	8.79	-59.8	-62.9	6.2	0.00e+00	0	38	104	0	86	20081
2026-01-03 15:28:39.11	275.17	8.72	-59.7	-62.9	6.2	0.00e+00	0	39	104	0	86	19997
2026-01-03 15:28:40.11	275.02	8.64	-59.7	-62.9	6.2	0.00e+00	0	38	104	0	86	20029
2026-01-03 15:28:41.10	274.87	8.57	-59.7	-62.9	6.2	0.00e+00	0	38	104	0	86	20048
2026-01-03 15:28:42.09	274.72	8.49	-59.7	-62.9	6.2	0.00e+00	0	38	104	0	86	20086
2026-01-03 15:28:43.09	274.57	8.42	-59.7	-62.8	6.2	0.00e+00	0	39	104	0	86	19927
2026-01-03 15:28:44.09	274.42	8.34	-59.7	-62.9	6.2	0.00e+00	0	38	104	0	86	19990
2026-01-03 15:28:45.09	274.28	8.27	-59.7	-62.8	6.2	0.00e+00	0	38	104	0	86	19917
2026-01-03 15:28:46.09	274.13	8.20	-59.7	-62.9	6.2	0.00e+00	0	38	104	0	86	19955
2026-01-03 15:28:47.10	273.98	8.12	-59.6	-62.8	6.2	0.00e+00	0	38	104	0	86	19791
2026-01-03 15:28:48.10	273.84	8.05	-59.6	-62.8	6.2	0.00e+00	0	38	104	0	86	19830
2026-01-03 15:28:49.11	273.69	7.97	-59.6	-62.8	6.2	0.00e+00	0	38	104	0	86	19814
2026-01-03 15:28:50.11	273.55	7.90	-59.6	-62.8	6.2	0.00e+00	0	39	104	0	86	19825
2026-01-03 15:28:51.11	273.41	7.83	-59.5	-62.7	6.2	0.00e+00	0	38	104	0	85	20762
2026-01-03 15:28:52.10	273.27	7.75	-59.5	-62.7	6.2	0.00e+00	0	38	104	0	85	20850
2026-01-03 15:28:53.10	273.13	7.68	-59.6	-62.7	6.2	0.00e+00	0	38	104	0	85	20862
2026-01-03 15:28:54.11	272.99	7.61	-59.6	-62.7	6.2	0.00e+00	0	38	104	0	85	20827
2026-01-03 15:28:55.11	272.85	7.53	-59.5	-62.7	6.2	0.00e+00	0	38	104	0	85	20745
2026-01-03 15:28:56.10	272.71	7.46	-59.5	-62.7	6.2	0.00e+00	0	38	104	0	85	20686
2026-01-03 15:28:57.10	272.58	7.39	-59.5	-62.7	6.2	0.00e+00	0	38	104	0	85	20747
2026-01-03 15:28:58.10	272.44	7.32	-59.6	-62.7	6.2	0.00e+00	0	38	104	0	85	20832
2026-01-03 15:28:59.10	272.31	7.24	-59.5	-62.6	6.2	0.00e+00	0	39	104	0	85	20599
2026-01-03 15:29:00.10	272.17	7.17	-59.5	-62.7	6.2	0.00e+00	0	38	104	0	85	20696
2026-01-03 15:29:01.10	272.04	7.10	-59.5	-62.7	6.2	0.00e+00	0	38	104	0	85	20800
2026-01-03 15:29:02.10	271.91	7.03	-59.5	-62.7	6.2	0.00e+00	0	38	104	0	85	20824
2026-01-03 15:29:03.10	271.77	6.96	-59.5	-62.6	6.2	0.00e+00	0	38	104	0	85	20633
2026-01-03 15:29:04.10	271.64	6.88	-59.4	-62.6	6.2	0.00e+00	0	38	104	0	85	20556
2026-01-03 15:29:05.10	271.51	6.81	-59.5	-62.7	6.2	0.00e+00	0	39	104	0	85	20677
2026-01-03 15:29:06.09	271.39	6.74	-59.5	-62.7	6.2	0.00e+00	0	38	104	0	85	20683
2026-01-03 15:29:07.08	271.26	6.67	-59.4	-62.5	6.2	0.00e+00	0	38	104	0	85	20362
2026-01-03 15:29:08.08	271.13	6.60	-59.3	-62.4	6.2	0.00e+00	0	38	104	0	85	20131
2026-01-03 15:29:09.08	271.00	6.53	-59.4	-62.6	6.2	0.00e+00	0	38	104	0	85	20589
2026-01-03 15:29:10.08	270.88	6.46	-59.3	-62.5	6.2	0.00e+00	0	39	104	0	85	20256
2026-01-03 15:29:11.08	270.75	6.39	-59.2	-62.4	6.2	0.00e+00	0	38	104	0	85	19993
2026-01-03 15:29:12.08	270.63	6.32	-59.2	-62.4	6.2	0.00e+00	0	38	104	0	85	19974
2026-01-03 15:29:13.09	270.50	6.25	-59.3	-62.4	6.2	0.00e+00	0	38	104	0	85	20147
2026-01-03 15:29:14.09	270.38	6.18	-59.2	-62.4	6.2	0.00e+00	0	38	104	0	85	20083
2026-01-03 15:29:15.09	270.26	6.11	-59.1	-62.3	6.2	0.00e+00	0	39	104	0	85	19818
2026-01-03 15:29:16.09	270.14	6.04	-59.1	-62.3	6.2	0.00e+00	0	38	104	0	85	19859
2026-01-03 15:29:17.09	270.01	5.97	-59.2	-62.4	6.2	0.00e+00	0	39	104	0	85	19998
2026-01-03 15:29:18.10	269.89	5.90	-59.2	-62.3	6.2	0.00e+00	0	38	104	0	85	19904
2026-01-03 15:29:19.09	269.78	5.83	-59.1	-62.3	6.2	0.00e+00	0	38	104	0	85	19708
2026-01-03 15:29:20.10	269.66	5.76	-59.0	-62.2	6.2	0.00e+00	0	38	104	0	84	20641
2026-01-03 15:29:21.10	269.54	5.69	-59.1	-62.3	6.2	0.00e+00	0	39	104	0	84	21011
2026-01-03 15:29:22.10	269.42	5.62	-59.0	-62.2	6.2	0.00e+00	0	38	104	0	84	20682
2026-01-03 15:29:23.09	269.31	5.55	-58.9	-62.1	6.2	0.00e+00	0	38	104	0	84	20591
2026-01-03 15:29:24.09	269.19	5.48	-58.9	-62.1	6.2	0.00e+00	0	38	104	0	84	20452
2026-01-03 15:29:25.09	269.07	5.41	-59.0	-62.2	6.2	0.00e+00	0	39	104	0	84	20661
2026-01-03 15:29:26.08	268.96	5.35	-59.0	-62.2	6.2	0.00e+00	0	38	104	0	84	20654
2026-01-03 15:29:27.08	268.85	5.28	-58.8	-62.0	6.2	0.00e+00	0	38	104	0	84	20316
2026-01-03 15:29:28.07	268.74	5.21	-58.9	-62.1	6.2	0.00e+00	0	38	104	0	84	20412
2026-01-03 15:29:29.07	268.62	5.14	-58.9	-62.1	6.2	0.00e+00	0	38	104	0	84	20575
2026-01-03 15:29:30.07	268.51	5.07	-59.0	-62.1	6.2	0.00e+00	0	38	104	0	84	20500
2026-01-03 15:29:31.07	268.40	5.01	-58.8	-62.0	6.2	0.00e+00	0	39	104	0	84	20242
2026-01-03 15:29:32.07	268.29	4.94	-59.1	-62.3	6.2	0.00e+00	0	39	104	0	84	20964
2026-01-03 15:29:33.07	268.18	4.87	-59.7	-62.9	6.2	0.00e+00	0	39	104	0	84	22415
2026-01-03 15:29:34.07	268.07	4.80	-60.0	-63.2	6.2	0.00e+00	0	38	104	0	85	21917
2026-01-03 15:29:35.07	267.96	4.74	-60.2	-63.4	6.2	0.00e+00	0	38	104	0	85	22499
2026-01-03 15:29:36.06	267.86	4.67	-60.4	-63.6	6.2	0.00e+00	0	39	104	0	86	21680
2026-01-03 15:29:37.06	267.75	4.60	-60.5	-63.7	6.2	0.00e+00	0	38	104	0	86	22044
2026-01-03 15:29:38.05	267.64	4.54	-60.6	-63.8	6.2	0.00e+00	0	38	104	0	86	22240
2026-01-03 15:29:39.05	267.54	4.47	-60.8	-63.9	6.2	0.00e+00	0	38	104	0	86	22606
2026-01-03 15:29:40.05	267.43	4.40	-60.9	-64.1	6.2	0.00e+00	0	38	104	0	87	21637
2026-01-03 15:29:41.05	267.33	4.34	-61.0	-64.1	6.2	0.00e+00	0	38	104	0	87	21852
2026-01-03 15:29:42.04	267.22	4.27	-61.1	-64.2	6.2	0.00e+00	0	39	104	0	87	22085
2026-01-03 15:29:43.03	267.12	4.21	-61.1	-64.3	6.2	0.00e+00	0	38	104	0	87	22251
2026-01-03 15:29:44.03	267.02	4.14	-61.2	-64.4	6.2	0.00e+00	0	39	104	0	87	22413
2026-01-03 15:29:45.03	266.92	4.07	-61.3	-64.5	6.2	0.00e+00	0	38	104	0	87	22651
2026-01-03 15:29:46.02	266.82	4.01	-61.3	-64.5	6.2	0.00e+00	0	39	104	0	87	22728
2026-01-03 15:29:47.03	266.71	3.94	-61.4	-64.5	6.2	0.00e+00	0	38	104	0	88	21510
2026-01-03 15:29:48.02	266.61	3.88	-61.4	-64.6	6.2	0.00e+00	0	39	104	0	88	21633
2026-01-03 15:29:49.01	266.51	3.81	-61.4	-64.6	6.2	0.00e+00	0	38	104	0	88	21652
2026-01-03 15:29:50.01	266.41	3.75	-61.5	-64.7	6.2	0.00e+00	0	38	104	0	88	21886
2026-01-03 15:29:51.01	266.32	3.68	-61.5	-64.7	6.2	0.00e+00	0	39	104	0	88	21889
2026-01-03 15:29:52.01	266.22	3.62	-61.5	-64.7	6.2	0.00e+00	0	38	104	0	88	21954
2026-01-03 15:29:53.00	266.12	3.55	-61.5	-64.7	6.2	0.00e+00	0	38	104	0	88	21907
2026-01-03 15:29:54.00	266.02	3.49	-61.5	-64.7	6.2	0.00e+00	0	38	104	0	88	21868
2026-01-03 15:29:55.00	265.93	3.43	-61.4	-64.6	6.2	0.00e+00	0	39	104	0	88	21765
2026-01-03 15:29:56.00	265.83	3.36	-61.4	-64.6	6.2	0.00e+00	0	38	104	0	88	21664
2026-01-03 15:29:57.00	265.74	3.30	-61.4	-64.5	6.2	0.00e+00	0	38	104	0	88	21532
2026-01-03 15:29:57.99	265.64	3.23	-61.3	-64.5	6.2	0.00e+00	0	38	104	0	88	21470
2026-01-03 15:29:58.99	265.55	3.17	-61.3	-64.5	6.2	0.00e+00	0	38	104	0	88	21509
2026-01-03 15:30:00.00	265.45	3.10	-61.3	-64.5	6.2	0.00e+00	0	38	104	0	88	21523
2026-01-03 15:30:01.00	265.36	3.04	-61.3	-64.5	6.2	0.00e+00	0	38	104	0	88	21389
2026-01-03 15:30:02.00	265.27	2.98	-61.3	-64.4	6.2	0.00e+00	0	38	104	0	88	21323
2026-01-03 15:30:03.00	265.17	2.91	-61.3	-64.4	6.2	0.00e+00	0	38	104	0	88	21327
2026-01-03 15:30:04.00	265.08	2.85	-61.3	-64.4	6.2	0.00e+00	0	38	104	0	88	21309
2026-01-03 15:30:05.00	264.99	2.79	-61.3	-64.4	6.2	0.00e+00	0	39	104	0	88	21349
2026-01-03 15:30:05.99	264.90	2.73	-61.3	-64.4	6.2	0.00e+00	0	39	104	0	88	21315
2026-01-03 15:30:07.00	264.81	2.66	-61.2	-64.4	6.2	0.00e+00	0	38	104	0	88	21287
2026-01-03 15:30:07.99	264.72	2.60	-61.2	-64.4	6.2	0.00e+00	0	38	104	0	88	21258
2026-01-03 15:30:08.99	264.63	2.54	-61.2	-64.4	6.2	0.00e+00	0	38	104	0	88	21217
2026-01-03 15:30:09.99	264.54	2.47	-61.2	-64.4	6.2	0.00e+00	0	39	104	0	88	21224
2026-01-03 15:30:10.99	264.45	2.41	-61.2	-64.4	6.2	0.00e+00	0	38	104	0	88	21175
2026-01-03 15:30:12.00	264.37	2.35	-61.2	-64.4	6.2	0.00e+00	0	38	104	0	88	21231
2026-01-03 15:30:13.00	264.28	2.29	-61.2	-64.3	6.2	0.00e+00	0	38	104	0	88	21113
2026-01-03 15:30:14.00	264.19	2.22	-61.2	-64.4	6.2	0.00e+00	0	39	104	0	88	21150
2026-01-03 15:30:15.00	264.10	2.16	-61.2	-64.4	6.2	0.00e+00	0	38	104	0	88	21154
2026-01-03 15:30:16.00	264.02	2.10	-61.2	-64.4	6.2	0.00e+00	0	38	104	0	88	21134
2026-01-03 15:30:17.00	263.93	2.04	-61.2	-64.4	6.2	0.00e+00	0	39	104	0	88	21161
2026-01-03 15:30:18.00	263.85	1.98	-61.2	-64.3	6.2	0.00e+00	0	39	104	0	88	21052
2026-01-03 15:30:19.01	263.76	1.92	-61.2	-64.4	6.2	0.00e+00	0	38	104	0	88	21128

#Closed at: 2026-01-03 15:30:19
#Recorded file [0 MB]: D:/lorett/data/31004_260103_182050.dat