passes_logs/2026/01/03/R3.2S_Murmansk/R3.2S_Murmansk__20260103_031619_SUOMI_NPP_rec.log

#Pass ID: 20260103_031619_SUOMI NPP
#Satellite: SUOMI NPP
#Configuration: NPP
#almurnet v.1.7.20251203
#Start time: 2026-01-03 03:16:19

#Version: 2.2.20231116
#Station: R3.2S_Murmansk
#Location: 33.079688 lon 68.888172 lat
#TLE: 1 37849U 11061A   26001.07732418  .00000182  00000+0  10735-3 0  9990
#TLE: 2 37849  98.7795 303.2470 0002580  87.2016 272.9455 14.19520779734739

#Time	Az	El	Level	Level2	SNR	BER	BlckErr	Temp	State	Recorded	gain1	gain2
2026-01-03 03:16:19.51	39.38	1.98	-59.7	-75.3	3.8	1.49e+00	0	29	0	0	86	20641
2026-01-03 03:16:20.51	39.33	2.04	-59.7	-75.3	3.8	1.49e+00	0	29	104	0	84	23104
2026-01-03 03:16:21.50	39.28	2.10	-59.7	-75.3	3.8	1.49e+00	0	29	104	0	84	23149
2026-01-03 03:16:22.50	39.23	2.16	-59.7	-75.3	3.8	1.49e+00	0	29	104	0	84	23153
2026-01-03 03:16:23.50	39.18	2.22	-59.7	-75.3	3.8	1.49e+00	0	29	104	0	84	23162
2026-01-03 03:16:24.50	39.13	2.28	-59.7	-75.3	3.8	1.49e+00	0	29	104	0	84	23115
2026-01-03 03:16:25.49	39.08	2.33	-59.7	-75.3	3.8	1.49e+00	0	29	104	0	84	23183
2026-01-03 03:16:26.49	39.03	2.39	-59.7	-75.3	3.8	1.49e+00	0	29	104	0	84	23145
2026-01-03 03:16:27.49	38.97	2.46	-59.8	-75.3	3.8	1.49e+00	0	29	104	0	84	23144
2026-01-03 03:16:28.50	38.92	2.52	-59.7	-75.3	3.8	1.49e+00	0	29	104	0	84	23111
2026-01-03 03:16:29.49	38.87	2.58	-59.7	-75.3	3.8	1.49e+00	0	29	104	0	84	23141
2026-01-03 03:16:30.50	38.82	2.64	-59.7	-75.3	3.8	1.49e+00	0	29	104	0	84	23158
2026-01-03 03:16:31.50	38.77	2.70	-59.7	-75.3	3.8	1.49e+00	0	29	104	0	84	23092
2026-01-03 03:16:32.49	38.72	2.76	-59.7	-75.3	3.8	1.49e+00	0	29	104	0	84	23049
2026-01-03 03:16:33.49	38.66	2.82	-59.7	-75.2	3.8	1.49e+00	0	29	104	0	84	23040
2026-01-03 03:16:34.50	38.61	2.88	-59.7	-75.2	3.8	1.49e+00	0	29	104	0	84	23014
2026-01-03 03:16:35.49	38.56	2.94	-59.7	-75.2	3.8	1.49e+00	0	29	104	0	84	22925
2026-01-03 03:16:36.48	38.50	3.00	-59.7	-75.2	3.8	1.49e+00	0	29	104	0	84	23033
2026-01-03 03:16:37.48	38.45	3.06	-59.7	-75.2	3.8	1.49e+00	0	29	104	0	84	22967
2026-01-03 03:16:38.48	38.40	3.12	-59.7	-75.3	3.8	1.49e+00	0	29	104	0	84	23157
2026-01-03 03:16:39.48	38.34	3.19	-59.7	-75.3	3.8	1.49e+00	0	29	104	0	84	23094
2026-01-03 03:16:40.48	38.29	3.25	-59.8	-75.3	3.8	1.49e+00	0	29	104	0	84	23183
2026-01-03 03:16:41.48	38.24	3.31	-59.7	-75.3	3.8	1.49e+00	0	29	104	0	84	23165
2026-01-03 03:16:42.48	38.18	3.37	-59.7	-75.3	3.8	1.49e+00	0	29	104	0	84	23240
2026-01-03 03:16:43.48	38.13	3.43	-59.8	-75.3	3.8	1.49e+00	0	29	104	0	84	23114
2026-01-03 03:16:44.48	38.07	3.50	-59.7	-75.2	3.8	1.49e+00	0	30	104	0	84	22989
2026-01-03 03:16:45.48	38.02	3.56	-59.7	-75.2	3.8	1.49e+00	0	29	104	0	84	23037
2026-01-03 03:16:46.48	37.96	3.62	-59.8	-75.3	3.8	1.49e+00	0	29	104	0	84	23055
2026-01-03 03:16:47.49	37.90	3.68	-59.8	-75.3	3.8	1.49e+00	0	30	104	0	84	23101
2026-01-03 03:16:48.49	37.85	3.75	-59.8	-75.3	3.8	1.49e+00	0	29	104	0	84	23164
2026-01-03 03:16:49.49	37.79	3.81	-59.8	-75.3	3.8	1.49e+00	0	29	104	0	84	23141
2026-01-03 03:16:50.49	37.73	3.87	-59.8	-75.2	3.8	1.49e+00	0	29	104	0	84	23022
2026-01-03 03:16:51.49	37.68	3.93	-59.8	-75.1	3.8	1.49e+00	0	30	104	0	84	22706
2026-01-03 03:16:52.50	37.62	4.00	-59.7	-74.9	3.8	1.49e+00	0	29	104	0	84	22207
2026-01-03 03:16:53.49	37.56	4.06	-59.7	-74.6	3.8	1.49e+00	0	30	104	0	84	21449
2026-01-03 03:16:54.49	37.50	4.12	-59.7	-74.2	3.8	1.49e+00	0	29	104	0	84	20386
2026-01-03 03:16:55.49	37.45	4.19	-59.7	-73.7	3.8	1.49e+00	0	30	104	0	84	19278
2026-01-03 03:16:56.49	37.39	4.25	-59.7	-73.2	3.8	1.49e+00	0	30	104	0	84	18143
2026-01-03 03:16:57.49	37.33	4.31	-59.6	-72.5	3.9	1.48e+00	0	30	104	0	84	16885
2026-01-03 03:16:58.49	37.27	4.38	-59.6	-71.4	4.3	1.44e+00	0	30	0	0	84	14839
2026-01-03 03:16:59.50	37.21	4.44	-59.5	-70.9	4.5	1.26e+00	20	30	0	0	84	13929
2026-01-03 03:17:00.50	37.15	4.51	-59.5	-70.3	4.7	9.27e-01	0	30	0	2097152	84	12994
2026-01-03 03:17:01.50	37.09	4.57	-59.4	-69.4	5.1	7.16e-01	0	30	0	4194304	84	11751
2026-01-03 03:17:02.50	37.03	4.64	-59.3	-68.9	5.4	5.21e-01	0	30	0	6291456	84	11054
2026-01-03 03:17:03.50	36.97	4.70	-59.2	-68.3	5.8	3.83e-01	0	30	0	8388608	84	10383
2026-01-03 03:17:04.50	36.91	4.76	-59.2	-67.9	6.0	3.11e-01	0	30	0	9437184	84	9878
2026-01-03 03:17:05.49	36.85	4.83	-59.2	-67.9	6.0	2.87e-01	0	30	0	11534336	84	9908
2026-01-03 03:17:06.50	36.79	4.89	-59.1	-67.7	6.2	2.71e-01	0	30	0	13631488	84	9657
2026-01-03 03:17:07.50	36.73	4.96	-59.2	-68.0	5.9	2.83e-01	0	30	0	15728640	84	10012
2026-01-03 03:17:08.49	36.67	5.02	-59.2	-68.2	5.8	3.12e-01	0	30	0	17825792	84	10277
2026-01-03 03:17:09.50	36.60	5.09	-59.4	-69.3	5.2	4.15e-01	0	30	0	18874368	84	11643
2026-01-03 03:17:10.50	36.54	5.15	-59.2	-67.5	6.2	1.03e+00	0	30	0	20971520	84	9435
2026-01-03 03:17:11.50	36.48	5.22	-59.1	-67.7	6.2	1.15e-03	0	30	0	23068672	83	10254
2026-01-03 03:17:12.51	36.42	5.29	-59.3	-68.4	4.4	1.47e+00	0	30	104	23068672	84	10459
2026-01-03 03:17:13.51	36.35	5.35	-57.9	-62.8	10.4	1.21e-02	0	30	0	24117248	82	6149
2026-01-03 03:17:14.51	36.29	5.42	-58.2	-63.5	9.5	1.72e-01	0	30	0	26214400	83	6339
2026-01-03 03:17:15.51	36.23	5.48	-57.7	-62.3	10.7	5.71e-04	0	30	0	27262976	82	5822
2026-01-03 03:17:16.51	36.16	5.55	-57.3	-61.1	11.6	6.86e-05	0	30	0	29360128	81	5402
2026-01-03 03:17:17.51	36.10	5.61	-57.1	-60.9	11.8	1.06e-05	0	30	0	31457280	80	5574
2026-01-03 03:17:18.51	36.03	5.68	-56.8	-60.2	12.3	7.60e-06	0	30	0	33554432	80	5126
2026-01-03 03:17:19.50	35.97	5.75	-56.6	-59.9	12.4	1.50e-06	0	30	0	34603008	79	5264
2026-01-03 03:17:20.50	35.90	5.81	-56.4	-59.5	12.7	1.50e-06	0	30	0	36700160	79	5025
2026-01-03 03:17:21.50	35.84	5.88	-56.5	-59.7	12.6	0.00e+00	0	30	0	38797312	79	5127
2026-01-03 03:17:22.50	35.77	5.95	-56.3	-59.3	12.9	7.00e-07	0	30	0	40894464	79	4883
2026-01-03 03:17:23.50	35.71	6.01	-56.4	-59.5	12.8	0.00e+00	0	30	0	42991616	79	5016
2026-01-03 03:17:24.50	35.64	6.08	-56.5	-59.6	12.7	0.00e+00	0	30	0	44040192	79	5054
2026-01-03 03:17:25.49	35.57	6.15	-56.3	-59.3	13.0	0.00e+00	0	30	0	46137344	79	4887
2026-01-03 03:17:26.49	35.51	6.21	-56.2	-59.1	13.1	0.00e+00	0	30	0	48234496	78	5043
2026-01-03 03:17:27.49	35.44	6.28	-56.2	-59.0	13.1	0.00e+00	0	30	0	50331648	78	5011
2026-01-03 03:17:28.49	35.37	6.35	-55.9	-58.6	13.4	0.00e+00	0	30	0	52428800	78	4760
2026-01-03 03:17:29.49	35.30	6.42	-55.9	-58.5	13.4	0.00e+00	0	30	0	53477376	78	4749
2026-01-03 03:17:30.48	35.23	6.48	-55.8	-58.4	13.5	0.00e+00	0	30	0	55574528	78	4660
2026-01-03 03:17:31.49	35.17	6.55	-55.9	-58.6	13.4	0.00e+00	0	30	0	57671680	78	4778
2026-01-03 03:17:32.49	35.10	6.62	-55.7	-58.3	13.5	0.00e+00	0	30	0	59768832	77	4906
2026-01-03 03:17:33.49	35.03	6.69	-55.5	-58.0	13.7	0.00e+00	0	30	0	60817408	77	4719
2026-01-03 03:17:34.49	34.96	6.76	-55.8	-58.4	13.4	0.00e+00	0	30	0	62914560	77	4937
2026-01-03 03:17:35.49	34.89	6.83	-55.7	-58.2	13.5	0.00e+00	0	30	0	65011712	77	4858
2026-01-03 03:17:36.50	34.82	6.90	-55.5	-58.0	13.6	0.00e+00	0	30	0	67108864	77	4734
2026-01-03 03:17:37.50	34.74	6.97	-55.7	-58.3	13.5	0.00e+00	0	30	0	69206016	77	4885
2026-01-03 03:17:38.49	34.67	7.03	-55.5	-58.0	13.6	0.00e+00	0	30	0	70254592	77	4727
2026-01-03 03:17:39.49	34.60	7.10	-55.5	-57.9	13.7	0.00e+00	0	30	0	72351744	77	4686
2026-01-03 03:17:40.48	34.53	7.17	-55.6	-58.1	13.6	0.00e+00	0	30	0	74448896	77	4797
2026-01-03 03:17:41.49	34.46	7.24	-55.5	-58.0	13.7	0.00e+00	0	30	0	76546048	77	4729
2026-01-03 03:17:42.49	34.38	7.31	-55.4	-57.9	13.8	0.00e+00	0	30	0	78643200	77	4661
2026-01-03 03:17:43.49	34.31	7.38	-55.6	-58.1	13.7	0.00e+00	0	30	0	79691776	77	4770
2026-01-03 03:17:44.48	34.24	7.45	-55.6	-58.0	13.7	0.00e+00	0	30	0	81788928	77	4748
2026-01-03 03:17:45.49	34.16	7.52	-55.5	-57.9	13.8	0.00e+00	0	30	0	83886080	77	4679
2026-01-03 03:17:46.49	34.09	7.59	-55.4	-57.8	13.8	0.00e+00	0	30	0	85983232	77	4639
2026-01-03 03:17:47.48	34.02	7.66	-55.5	-57.9	13.8	0.00e+00	0	30	0	88080384	77	4678
2026-01-03 03:17:48.48	33.94	7.73	-55.5	-57.9	13.8	0.00e+00	0	30	0	89128960	77	4662
2026-01-03 03:17:49.48	33.87	7.80	-55.5	-58.0	13.8	0.00e+00	0	30	0	91226112	77	4715
2026-01-03 03:17:50.48	33.79	7.87	-55.6	-58.1	13.7	0.00e+00	0	30	0	93323264	77	4789
2026-01-03 03:17:51.47	33.71	7.94	-55.6	-58.2	13.6	0.00e+00	0	30	0	95420416	77	4835
2026-01-03 03:17:52.48	33.64	8.01	-55.4	-57.8	13.8	0.00e+00	0	30	0	96468992	77	4627
2026-01-03 03:17:53.49	33.56	8.09	-55.5	-57.9	13.8	0.00e+00	0	30	0	98566144	77	4697
2026-01-03 03:17:54.49	33.48	8.16	-55.6	-58.2	13.6	0.00e+00	0	30	0	100663296	77	4835
2026-01-03 03:17:55.49	33.40	8.23	-55.5	-58.0	13.8	0.00e+00	0	30	0	102760448	77	4710
2026-01-03 03:17:56.49	33.33	8.30	-55.5	-58.0	13.8	0.00e+00	0	30	0	104857600	77	4736
2026-01-03 03:17:57.50	33.25	8.37	-55.5	-58.0	13.8	0.00e+00	0	30	0	105906176	77	4718
2026-01-03 03:17:58.50	33.17	8.45	-55.5	-58.0	13.7	0.00e+00	0	30	0	108003328	77	4725
2026-01-03 03:17:59.51	33.09	8.52	-55.5	-57.9	13.8	0.00e+00	0	30	0	110100480	77	4684
2026-01-03 03:18:00.50	33.01	8.59	-55.4	-57.8	13.9	0.00e+00	0	30	0	112197632	77	4621
2026-01-03 03:18:01.50	32.93	8.66	-55.4	-57.7	13.9	0.00e+00	0	30	0	114294784	77	4578
2026-01-03 03:18:02.49	32.85	8.73	-55.5	-58.0	13.8	0.00e+00	0	30	0	115343360	77	4706
2026-01-03 03:18:03.50	32.77	8.81	-55.3	-57.6	14.0	0.00e+00	0	30	0	117440512	77	4545
2026-01-03 03:18:04.50	32.69	8.88	-55.4	-57.8	13.9	0.00e+00	0	30	0	119537664	77	4599
2026-01-03 03:18:05.50	32.60	8.95	-55.4	-57.7	13.9	0.00e+00	0	30	0	121634816	77	4582
2026-01-03 03:18:06.51	32.52	9.03	-55.5	-57.9	13.8	0.00e+00	0	30	0	123731968	77	4669
2026-01-03 03:18:07.51	32.44	9.10	-55.6	-58.0	13.8	0.00e+00	0	30	0	124780544	77	4739
2026-01-03 03:18:08.51	32.36	9.17	-55.7	-58.1	13.7	0.00e+00	0	30	0	126877696	77	4795
2026-01-03 03:18:09.52	32.27	9.25	-55.6	-58.0	13.8	0.00e+00	0	30	0	128974848	77	4720
2026-01-03 03:18:10.52	32.19	9.32	-55.4	-57.7	13.9	0.00e+00	0	30	0	131072000	77	4587
2026-01-03 03:18:11.52	32.10	9.40	-55.4	-57.7	14.0	0.00e+00	0	30	0	133169152	77	4558
2026-01-03 03:18:12.53	32.02	9.47	-55.4	-57.7	14.0	0.00e+00	0	30	0	134217728	77	4550
2026-01-03 03:18:13.52	31.93	9.54	-55.3	-57.6	14.1	0.00e+00	0	30	0	136314880	77	4509
2026-01-03 03:18:14.52	31.85	9.62	-55.3	-57.6	14.1	0.00e+00	0	30	0	138412032	77	4514
2026-01-03 03:18:15.52	31.76	9.69	-55.4	-57.7	14.0	0.00e+00	0	30	0	140509184	77	4547
2026-01-03 03:18:16.51	31.67	9.77	-55.1	-57.1	14.2	0.00e+00	0	30	0	141557760	76	4544
2026-01-03 03:18:17.51	31.59	9.84	-55.1	-57.2	14.2	0.00e+00	0	30	0	143654912	76	4585
2026-01-03 03:18:18.51	31.50	9.92	-55.3	-57.5	14.1	0.00e+00	0	30	0	145752064	76	4711
2026-01-03 03:18:19.51	31.41	9.99	-55.2	-57.4	14.1	0.00e+00	0	31	0	147849216	76	4680
2026-01-03 03:18:20.51	31.32	10.07	-55.1	-57.2	14.2	0.00e+00	0	30	0	149946368	76	4576
2026-01-03 03:18:21.52	31.23	10.14	-55.2	-57.4	14.1	0.00e+00	0	30	0	150994944	76	4655
2026-01-03 03:18:22.53	31.14	10.22	-55.3	-57.4	14.1	0.00e+00	0	30	0	153092096	76	4704
2026-01-03 03:18:23.52	31.05	10.30	-55.4	-57.7	14.0	0.00e+00	0	30	0	155189248	76	4831
2026-01-03 03:18:24.52	30.96	10.37	-55.2	-57.4	14.1	0.00e+00	0	30	0	157286400	76	4685
2026-01-03 03:18:25.52	30.87	10.45	-55.4	-57.7	13.9	0.00e+00	0	30	0	159383552	76	4824
2026-01-03 03:18:26.52	30.78	10.52	-55.3	-57.5	14.0	0.00e+00	0	30	0	160432128	76	4754
2026-01-03 03:18:27.52	30.69	10.60	-55.2	-57.4	14.1	0.00e+00	0	30	0	162529280	76	4659
2026-01-03 03:18:28.53	30.59	10.68	-55.1	-57.3	14.1	0.00e+00	0	30	0	164626432	76	4624
2026-01-03 03:18:29.52	30.50	10.75	-55.1	-57.2	14.2	0.00e+00	0	31	0	166723584	76	4561
2026-01-03 03:18:30.52	30.41	10.83	-55.1	-57.2	14.2	0.00e+00	0	30	0	168820736	76	4593
2026-01-03 03:18:31.52	30.31	10.91	-55.2	-57.4	14.1	0.00e+00	0	30	0	169869312	76	4655
2026-01-03 03:18:32.53	30.22	10.99	-55.1	-57.2	14.2	0.00e+00	0	30	0	171966464	76	4578
2026-01-03 03:18:33.53	30.12	11.06	-55.2	-57.3	14.1	0.00e+00	0	30	0	174063616	76	4650
2026-01-03 03:18:34.53	30.03	11.14	-55.2	-57.4	14.1	0.00e+00	0	30	0	176160768	76	4654
2026-01-03 03:18:35.53	29.93	11.22	-55.0	-57.0	14.3	0.00e+00	0	30	0	177209344	76	4475
2026-01-03 03:18:36.53	29.84	11.30	-55.1	-57.2	14.2	0.00e+00	0	30	0	179306496	76	4576
2026-01-03 03:18:37.54	29.74	11.38	-55.1	-57.2	14.2	0.00e+00	0	30	0	181403648	76	4547
2026-01-03 03:18:38.54	29.64	11.46	-55.0	-57.1	14.3	0.00e+00	0	30	0	183500800	76	4505
2026-01-03 03:18:39.54	29.54	11.53	-55.1	-57.2	14.2	0.00e+00	0	30	0	185597952	76	4559
2026-01-03 03:18:40.55	29.44	11.61	-55.1	-57.1	14.3	0.00e+00	0	30	0	186646528	76	4507
2026-01-03 03:18:41.55	29.34	11.69	-55.0	-56.9	14.3	0.00e+00	0	30	0	188743680	76	4423
2026-01-03 03:18:42.55	29.24	11.77	-55.0	-56.9	14.4	0.00e+00	0	30	0	190840832	76	4410
2026-01-03 03:18:43.55	29.14	11.85	-55.1	-57.1	14.3	0.00e+00	0	30	0	192937984	76	4496
2026-01-03 03:18:44.55	29.04	11.93	-55.1	-57.0	14.3	0.00e+00	0	30	0	195035136	76	4470
2026-01-03 03:18:45.56	28.94	12.01	-55.0	-56.9	14.3	0.00e+00	0	30	0	196083712	76	4392
2026-01-03 03:18:46.56	28.84	12.09	-55.1	-57.1	14.3	0.00e+00	0	31	0	198180864	76	4502
2026-01-03 03:18:47.55	28.73	12.17	-55.1	-57.0	14.3	0.00e+00	0	31	0	200278016	76	4490
2026-01-03 03:18:48.55	28.63	12.25	-54.9	-56.8	14.5	0.00e+00	0	30	0	202375168	76	4352
2026-01-03 03:18:49.55	28.53	12.33	-55.0	-56.9	14.4	0.00e+00	0	31	0	203423744	76	4416
2026-01-03 03:18:50.55	28.42	12.41	-54.9	-56.8	14.5	0.00e+00	0	31	0	205520896	76	4381
2026-01-03 03:18:51.55	28.32	12.49	-55.0	-56.9	14.4	0.00e+00	0	31	0	207618048	76	4422
2026-01-03 03:18:52.55	28.21	12.57	-55.0	-56.9	14.4	0.00e+00	0	31	0	209715200	76	4426
2026-01-03 03:18:53.56	28.10	12.65	-55.1	-57.0	14.3	0.00e+00	0	31	0	211812352	76	4493
2026-01-03 03:18:54.56	28.00	12.73	-55.1	-57.0	14.4	0.00e+00	0	31	0	212860928	76	4480
2026-01-03 03:18:55.56	27.89	12.81	-54.9	-56.8	14.4	0.00e+00	0	30	0	214958080	76	4358
2026-01-03 03:18:56.57	27.78	12.90	-54.9	-56.7	14.5	0.00e+00	0	31	0	217055232	76	4331
2026-01-03 03:18:57.57	27.67	12.98	-55.0	-56.8	14.4	0.00e+00	0	31	0	219152384	76	4391
2026-01-03 03:18:58.57	27.56	13.06	-54.8	-56.7	14.5	0.00e+00	0	31	0	221249536	76	4307
2026-01-03 03:18:59.57	27.45	13.14	-55.0	-56.8	14.4	0.00e+00	0	31	0	222298112	76	4388
2026-01-03 03:19:00.57	27.34	13.22	-54.9	-56.8	14.5	0.00e+00	0	31	0	224395264	76	4347
2026-01-03 03:19:01.57	27.23	13.31	-55.0	-56.9	14.5	0.00e+00	0	31	0	226492416	76	4409
2026-01-03 03:19:02.56	27.12	13.39	-55.0	-56.9	14.4	0.00e+00	0	30	0	228589568	76	4432
2026-01-03 03:19:03.57	27.00	13.47	-54.9	-56.7	14.5	0.00e+00	0	30	0	230686720	76	4332
2026-01-03 03:19:04.56	26.89	13.55	-54.9	-56.8	14.4	0.00e+00	0	30	0	231735296	76	4365
2026-01-03 03:19:05.57	26.78	13.64	-55.0	-56.9	14.4	0.00e+00	0	31	0	233832448	76	4415
2026-01-03 03:19:06.56	26.66	13.72	-54.9	-56.8	14.5	0.00e+00	0	31	0	235929600	76	4363
2026-01-03 03:19:07.56	26.55	13.80	-55.0	-57.0	14.3	0.00e+00	0	31	0	238026752	76	4454
2026-01-03 03:19:08.56	26.43	13.89	-55.0	-57.0	14.4	0.00e+00	0	31	0	239075328	76	4442
2026-01-03 03:19:09.56	26.32	13.97	-54.9	-56.8	14.4	0.00e+00	0	31	0	241172480	76	4374
2026-01-03 03:19:10.56	26.20	14.05	-54.9	-56.9	14.4	0.00e+00	0	31	0	243269632	76	4415
2026-01-03 03:19:11.57	26.08	14.14	-54.9	-56.9	14.4	0.00e+00	0	31	0	245366784	76	4396
2026-01-03 03:19:12.56	25.96	14.22	-55.0	-57.0	14.3	0.00e+00	0	31	0	247463936	76	4481
2026-01-03 03:19:13.55	25.84	14.30	-54.9	-56.9	14.4	0.00e+00	0	31	0	248512512	76	4428
2026-01-03 03:19:14.55	25.72	14.39	-55.0	-57.0	14.4	0.00e+00	0	31	0	250609664	76	4457
2026-01-03 03:19:15.56	25.60	14.47	-55.1	-57.3	14.2	0.00e+00	0	31	0	252706816	76	4605
2026-01-03 03:19:16.56	25.48	14.56	-54.9	-56.9	14.4	0.00e+00	0	31	0	254803968	76	4435
2026-01-03 03:19:17.56	25.36	14.64	-55.1	-57.1	14.3	0.00e+00	0	31	0	256901120	76	4512
2026-01-03 03:19:18.57	25.24	14.73	-55.1	-57.1	14.3	0.00e+00	0	31	0	257949696	76	4527
2026-01-03 03:19:19.57	25.11	14.81	-54.9	-56.8	14.4	0.00e+00	0	31	0	260046848	76	4350
2026-01-03 03:19:20.57	24.99	14.90	-55.1	-57.1	14.4	0.00e+00	0	31	0	262144000	76	4495
2026-01-03 03:19:21.57	24.86	14.99	-54.9	-56.8	14.5	0.00e+00	0	31	0	264241152	76	4363
2026-01-03 03:19:22.58	24.74	15.07	-54.6	-56.4	14.6	0.00e+00	0	31	0	266338304	75	4423
2026-01-03 03:19:23.57	24.61	15.16	-54.7	-56.5	14.5	0.00e+00	0	31	0	267386880	75	4468
2026-01-03 03:19:24.57	24.48	15.24	-54.6	-56.4	14.6	0.00e+00	0	31	0	269484032	75	4421
2026-01-03 03:19:25.57	24.35	15.33	-54.6	-56.4	14.6	0.00e+00	0	31	0	271581184	75	4425
2026-01-03 03:19:26.57	24.23	15.42	-54.6	-56.3	14.6	0.00e+00	0	31	0	273678336	75	4373
2026-01-03 03:19:27.57	24.10	15.50	-54.3	-56.0	14.7	0.00e+00	0	31	0	275775488	75	4200
2026-01-03 03:19:28.57	23.97	15.59	-54.3	-56.0	14.7	0.00e+00	0	31	0	276824064	74	4473
2026-01-03 03:19:29.57	23.83	15.68	-54.4	-56.1	14.7	0.00e+00	0	31	0	278921216	74	4536
2026-01-03 03:19:30.58	23.70	15.76	-54.3	-56.0	14.7	0.00e+00	0	31	0	281018368	74	4463
2026-01-03 03:19:31.59	23.57	15.85	-54.4	-56.1	14.7	0.00e+00	0	31	0	283115520	74	4501
2026-01-03 03:19:32.58	23.44	15.94	-54.6	-56.3	14.6	0.00e+00	0	31	0	284164096	74	4648
2026-01-03 03:19:33.58	23.30	16.02	-54.6	-56.4	14.6	0.00e+00	0	31	0	286261248	74	4664
2026-01-03 03:19:34.58	23.17	16.11	-54.9	-56.8	14.4	0.00e+00	0	31	0	288358400	75	4624
2026-01-03 03:19:35.58	23.03	16.20	-54.9	-56.8	14.4	0.00e+00	0	31	0	290455552	75	4620
2026-01-03 03:19:36.59	22.89	16.29	-55.5	-57.6	14.1	0.00e+00	0	31	0	292552704	76	4789
2026-01-03 03:19:37.59	22.75	16.38	-55.5	-57.7	14.1	0.00e+00	0	31	0	293601280	76	4817
2026-01-03 03:19:38.59	22.62	16.46	-55.4	-57.5	14.2	0.00e+00	0	31	0	295698432	76	4715
2026-01-03 03:19:39.59	22.48	16.55	-55.6	-57.8	14.1	0.00e+00	0	31	0	297795584	76	4878
2026-01-03 03:19:40.58	22.34	16.64	-55.6	-57.7	14.0	0.00e+00	0	31	0	299892736	76	4868
2026-01-03 03:19:41.59	22.20	16.73	-55.5	-57.7	14.0	0.00e+00	0	31	0	301989888	76	4839
2026-01-03 03:19:42.58	22.06	16.82	-55.6	-57.8	14.0	0.00e+00	0	31	0	303038464	76	4874
2026-01-03 03:19:43.59	21.91	16.91	-55.3	-57.2	14.2	0.00e+00	0	31	0	305135616	76	4596
2026-01-03 03:19:44.59	21.77	17.00	-55.5	-57.6	14.1	0.00e+00	0	31	0	307232768	76	4782
2026-01-03 03:19:45.59	21.62	17.09	-55.4	-57.5	14.2	0.00e+00	0	31	0	309329920	76	4720
2026-01-03 03:19:46.60	21.48	17.18	-55.3	-57.3	14.3	0.00e+00	0	31	0	310378496	76	4624
2026-01-03 03:19:47.59	21.33	17.26	-55.4	-57.5	14.2	0.00e+00	0	31	0	312475648	76	4715
2026-01-03 03:19:48.58	21.19	17.35	-55.3	-57.4	14.3	0.00e+00	0	31	0	314572800	76	4662
2026-01-03 03:19:49.58	21.04	17.44	-55.0	-57.0	14.5	0.00e+00	0	31	0	316669952	76	4455
2026-01-03 03:19:50.59	20.89	17.53	-55.0	-56.9	14.5	0.00e+00	0	31	0	318767104	76	4427
2026-01-03 03:19:51.60	20.74	17.62	-54.7	-56.5	14.6	0.00e+00	0	31	0	319815680	76	4236
2026-01-03 03:19:52.60	20.59	17.71	-54.7	-56.5	14.6	0.00e+00	0	31	0	321912832	75	4449
2026-01-03 03:19:53.60	20.44	17.80	-54.7	-56.5	14.6	0.00e+00	0	31	0	324009984	75	4472
2026-01-03 03:19:54.60	20.28	17.89	-54.5	-56.3	14.7	0.00e+00	0	31	0	326107136	75	4354
2026-01-03 03:19:55.60	20.13	17.98	-54.5	-56.3	14.7	0.00e+00	0	31	0	328204288	75	4350
2026-01-03 03:19:56.60	19.98	18.08	-54.5	-56.3	14.7	0.00e+00	0	31	0	329252864	75	4345
2026-01-03 03:19:57.60	19.82	18.17	-54.3	-56.1	14.8	0.00e+00	0	31	0	331350016	75	4245
2026-01-03 03:19:58.60	19.66	18.26	-54.6	-56.3	14.7	0.00e+00	0	31	0	333447168	75	4390
2026-01-03 03:19:59.59	19.51	18.35	-54.5	-56.3	14.7	0.00e+00	0	31	0	335544320	75	4344
2026-01-03 03:20:00.59	19.35	18.44	-54.5	-56.3	14.7	0.00e+00	0	31	0	337641472	75	4358
2026-01-03 03:20:01.59	19.19	18.53	-54.3	-56.0	14.9	0.00e+00	0	31	0	338690048	75	4196
2026-01-03 03:20:02.60	19.03	18.62	-54.3	-56.0	14.8	0.00e+00	0	31	0	340787200	74	4448
2026-01-03 03:20:03.60	18.87	18.71	-54.3	-55.9	14.8	0.00e+00	0	31	0	342884352	74	4424
2026-01-03 03:20:04.60	18.71	18.80	-54.1	-55.7	14.9	0.00e+00	0	31	0	344981504	74	4320
2026-01-03 03:20:05.60	18.54	18.89	-54.3	-55.9	14.8	0.00e+00	0	31	0	346030080	74	4431
2026-01-03 03:20:06.61	18.38	18.99	-54.4	-56.1	14.7	0.00e+00	0	31	0	348127232	74	4507
2026-01-03 03:20:07.60	18.21	19.08	-54.6	-56.3	14.6	0.00e+00	0	31	0	350224384	74	4650
2026-01-03 03:20:08.60	18.05	19.17	-54.7	-56.4	14.6	0.00e+00	0	31	0	352321536	74	4691
2026-01-03 03:20:09.61	17.88	19.26	-54.7	-56.5	14.6	0.00e+00	0	31	0	354418688	74	4744
2026-01-03 03:20:10.60	17.71	19.35	-54.7	-56.4	14.6	0.00e+00	0	31	0	355467264	74	4691
2026-01-03 03:20:11.60	17.54	19.44	-54.6	-56.3	14.7	0.00e+00	0	31	0	357564416	74	4601
2026-01-03 03:20:12.60	17.37	19.54	-54.6	-56.4	14.7	0.00e+00	0	31	0	359661568	74	4660
2026-01-03 03:20:13.60	17.20	19.63	-54.6	-56.3	14.7	0.00e+00	0	31	0	361758720	74	4626
2026-01-03 03:20:14.60	17.03	19.72	-54.8	-56.6	14.5	0.00e+00	0	31	0	363855872	74	4781
2026-01-03 03:20:15.60	16.86	19.81	-54.8	-56.7	14.5	0.00e+00	0	31	0	364904448	75	4584
2026-01-03 03:20:16.59	16.68	19.90	-54.8	-56.6	14.6	0.00e+00	0	31	0	367001600	75	4542
2026-01-03 03:20:17.58	16.51	20.00	-54.8	-56.7	14.5	0.00e+00	0	31	0	369098752	75	4566
2026-01-03 03:20:18.57	16.34	20.09	-54.8	-56.7	14.5	0.00e+00	0	31	0	371195904	75	4546
2026-01-03 03:20:19.57	16.16	20.18	-54.6	-56.3	14.7	0.00e+00	0	31	0	373293056	75	4388
2026-01-03 03:20:20.57	15.98	20.27	-54.3	-56.0	14.9	0.00e+00	0	31	0	374341632	75	4196
2026-01-03 03:20:21.57	15.80	20.36	-54.1	-55.7	14.9	0.00e+00	0	31	0	376438784	74	4310
2026-01-03 03:20:22.57	15.62	20.46	-53.9	-55.4	15.0	0.00e+00	0	31	0	378535936	74	4180
2026-01-03 03:20:23.57	15.44	20.55	-53.9	-55.4	15.0	0.00e+00	0	31	0	380633088	74	4185
2026-01-03 03:20:24.56	15.25	20.64	-53.9	-55.4	15.0	0.00e+00	0	31	0	381681664	74	4176
2026-01-03 03:20:25.57	15.07	20.74	-54.1	-55.7	14.9	0.00e+00	0	31	0	383778816	74	4316
2026-01-03 03:20:26.56	14.89	20.83	-54.1	-55.7	14.9	0.00e+00	0	31	0	385875968	74	4296
2026-01-03 03:20:27.56	14.70	20.92	-54.2	-55.8	14.9	0.00e+00	0	31	0	387973120	74	4363
2026-01-03 03:20:28.55	14.51	21.01	-54.2	-55.9	14.8	0.00e+00	0	31	0	390070272	74	4418
2026-01-03 03:20:29.55	14.32	21.10	-54.4	-56.1	14.8	0.00e+00	0	31	0	391118848	74	4516
2026-01-03 03:20:30.55	14.13	21.20	-54.4	-56.0	14.8	0.00e+00	0	31	0	393216000	74	4493
2026-01-03 03:20:31.55	13.94	21.29	-54.7	-56.5	14.7	0.00e+00	0	31	0	395313152	74	4715
2026-01-03 03:20:32.55	13.75	21.38	-54.9	-56.7	14.6	0.00e+00	0	31	0	397410304	75	4590
2026-01-03 03:20:33.55	13.56	21.48	-55.0	-56.9	14.5	0.00e+00	0	31	0	398458880	75	4673
2026-01-03 03:20:34.55	13.36	21.57	-55.1	-56.9	14.5	0.00e+00	0	31	0	400556032	75	4696
2026-01-03 03:20:35.55	13.17	21.66	-55.3	-57.2	14.4	0.00e+00	0	31	0	402653184	75	4826
2026-01-03 03:20:36.55	12.97	21.75	-54.9	-56.8	14.5	0.00e+00	0	31	0	404750336	75	4603
2026-01-03 03:20:37.55	12.77	21.85	-54.7	-56.4	14.7	0.00e+00	0	31	0	406847488	75	4400
2026-01-03 03:20:38.54	12.57	21.94	-54.6	-56.3	14.8	0.00e+00	0	31	0	407896064	75	4355
2026-01-03 03:20:39.54	12.37	22.03	-54.4	-56.0	14.9	0.00e+00	0	31	0	409993216	75	4205
2026-01-03 03:20:40.54	12.17	22.12	-54.5	-56.1	14.9	0.00e+00	0	31	0	412090368	75	4260
2026-01-03 03:20:41.53	11.97	22.21	-54.4	-56.0	14.9	0.00e+00	0	31	0	414187520	75	4238
2026-01-03 03:20:42.53	11.77	22.31	-54.6	-56.3	14.8	0.00e+00	0	31	0	416284672	75	4341
2026-01-03 03:20:43.53	11.56	22.40	-54.6	-56.3	14.8	0.00e+00	0	31	0	417333248	75	4342
2026-01-03 03:20:44.53	11.35	22.49	-54.6	-56.2	14.8	0.00e+00	0	31	0	419430400	75	4323
2026-01-03 03:20:45.53	11.15	22.58	-54.8	-56.5	14.7	0.00e+00	0	31	0	421527552	75	4462
2026-01-03 03:20:46.53	10.94	22.68	-54.6	-56.3	14.8	0.00e+00	0	31	0	423624704	75	4373
2026-01-03 03:20:47.52	10.73	22.77	-54.5	-56.1	14.9	0.00e+00	0	31	0	424673280	75	4261
2026-01-03 03:20:48.52	10.52	22.86	-54.5	-56.2	14.9	0.00e+00	0	31	0	426770432	75	4300
2026-01-03 03:20:49.52	10.30	22.95	-54.6	-56.3	14.8	0.00e+00	0	31	0	428867584	75	4373
2026-01-03 03:20:50.52	10.09	23.04	-54.8	-56.5	14.7	0.00e+00	0	31	0	430964736	75	4478
2026-01-03 03:20:51.52	9.87	23.13	-54.6	-56.3	14.8	0.00e+00	0	31	0	433061888	75	4378
2026-01-03 03:20:52.52	9.66	23.23	-54.7	-56.4	14.7	0.00e+00	0	31	0	434110464	75	4426
2026-01-03 03:20:53.52	9.44	23.32	-54.7	-56.4	14.7	0.00e+00	0	31	0	436207616	75	4419
2026-01-03 03:20:54.52	9.22	23.41	-54.6	-56.3	14.8	0.00e+00	0	31	0	438304768	75	4364
2026-01-03 03:20:55.51	9.00	23.50	-54.8	-56.6	14.6	0.00e+00	0	31	0	440401920	75	4510
2026-01-03 03:20:56.51	8.78	23.59	-55.1	-57.0	14.5	0.00e+00	0	31	0	442499072	75	4716
2026-01-03 03:20:57.51	8.55	23.68	-55.5	-57.5	14.3	0.00e+00	0	31	0	443547648	76	4749
2026-01-03 03:20:58.50	8.33	23.77	-55.6	-57.5	14.3	0.00e+00	0	31	0	445644800	76	4748
2026-01-03 03:20:59.50	8.11	23.86	-55.4	-57.3	14.5	0.00e+00	0	31	0	447741952	76	4604
2026-01-03 03:21:00.50	7.88	23.95	-55.1	-56.8	14.7	0.00e+00	0	31	0	449839104	76	4365
2026-01-03 03:21:01.48	7.66	24.04	-54.5	-56.0	14.9	0.00e+00	0	31	0	450887680	75	4241
2026-01-03 03:21:02.49	7.42	24.13	-54.4	-55.9	15.0	0.00e+00	0	31	0	452984832	75	4170
2026-01-03 03:21:03.48	7.19	24.22	-54.5	-56.0	14.9	0.00e+00	0	31	0	455081984	75	4236
2026-01-03 03:21:04.48	6.96	24.31	-54.2	-55.6	15.0	0.00e+00	0	31	0	457179136	74	4291
2026-01-03 03:21:05.47	6.73	24.40	-54.2	-55.7	15.0	0.00e+00	0	31	0	459276288	74	4321
2026-01-03 03:21:06.47	6.49	24.49	-54.0	-55.5	15.1	0.00e+00	0	31	0	460324864	74	4218
2026-01-03 03:21:07.48	6.26	24.58	-53.8	-55.2	15.2	0.00e+00	0	31	0	462422016	74	4064
2026-01-03 03:21:08.47	6.02	24.66	-53.5	-54.8	15.3	0.00e+00	0	31	0	464519168	73	4121
2026-01-03 03:21:09.48	5.78	24.75	-53.5	-54.8	15.3	0.00e+00	0	31	0	466616320	73	4119
2026-01-03 03:21:10.48	5.54	24.84	-53.4	-54.7	15.3	0.00e+00	0	31	0	468713472	73	4089
2026-01-03 03:21:11.49	5.29	24.93	-53.4	-54.8	15.3	0.00e+00	0	31	0	469762048	73	4108
2026-01-03 03:21:12.49	5.05	25.02	-53.5	-54.9	15.2	0.00e+00	0	31	0	471859200	73	4148
2026-01-03 03:21:13.49	4.80	25.10	-53.6	-55.1	15.1	0.00e+00	0	31	0	473956352	73	4255
2026-01-03 03:21:14.48	4.56	25.19	-53.9	-55.4	15.0	0.00e+00	0	31	0	476053504	73	4429
2026-01-03 03:21:15.48	4.31	25.28	-53.8	-55.3	15.1	0.00e+00	0	31	0	477102080	73	4384
2026-01-03 03:21:16.47	4.07	25.36	-53.8	-55.3	15.1	0.00e+00	0	31	0	479199232	73	4358
2026-01-03 03:21:17.47	3.82	25.45	-53.6	-55.0	15.2	0.00e+00	0	31	0	481296384	73	4224
2026-01-03 03:21:18.46	3.57	25.53	-53.7	-55.3	15.1	0.00e+00	0	31	0	483393536	73	4345
2026-01-03 03:21:19.46	3.31	25.62	-54.0	-55.7	14.9	0.00e+00	0	31	0	485490688	73	4546
2026-01-03 03:21:20.46	3.06	25.71	-54.4	-56.2	14.7	0.00e+00	0	31	0	486539264	73	4815
2026-01-03 03:21:21.45	2.81	25.79	-54.5	-56.3	14.7	0.00e+00	0	31	0	488636416	74	4621
2026-01-03 03:21:22.45	2.55	25.87	-54.4	-56.1	14.8	0.00e+00	0	31	0	490733568	74	4513
2026-01-03 03:21:23.45	2.29	25.96	-54.1	-55.7	15.0	0.00e+00	0	31	0	492830720	74	4326
2026-01-03 03:21:24.45	2.03	26.04	-54.0	-55.6	15.0	0.00e+00	0	31	0	493879296	74	4269
2026-01-03 03:21:25.45	1.77	26.12	-53.9	-55.4	15.0	0.00e+00	0	31	0	495976448	73	4403
2026-01-03 03:21:26.45	1.51	26.21	-53.9	-55.4	15.0	0.00e+00	0	31	0	498073600	73	4413
2026-01-03 03:21:27.44	1.24	26.29	-54.2	-55.7	14.9	0.00e+00	0	31	0	500170752	73	4586
2026-01-03 03:21:28.43	0.98	26.37	-54.3	-56.0	14.8	0.00e+00	0	31	0	502267904	74	4454
2026-01-03 03:21:29.43	0.71	26.45	-54.5	-56.2	14.7	0.00e+00	0	31	0	503316480	74	4596
2026-01-03 03:21:30.43	0.45	26.53	-54.5	-56.3	14.7	0.00e+00	0	31	0	505413632	74	4616
2026-01-03 03:21:31.42	0.18	26.61	-54.3	-56.0	14.8	0.00e+00	0	31	0	507510784	74	4474
2026-01-03 03:21:32.42	359.91	26.69	-54.3	-55.9	14.9	0.00e+00	0	31	0	509607936	74	4435
2026-01-03 03:21:33.42	359.64	26.77	-54.2	-55.9	14.9	0.00e+00	0	31	0	511705088	74	4400
2026-01-03 03:21:34.42	359.36	26.85	-54.2	-55.8	14.9	0.00e+00	0	31	0	512753664	74	4374
2026-01-03 03:21:35.41	359.09	26.93	-54.2	-55.8	14.9	0.00e+00	0	31	0	514850816	74	4352
2026-01-03 03:21:36.41	358.81	27.01	-54.1	-55.6	15.0	0.00e+00	0	31	0	516947968	74	4258
2026-01-03 03:21:37.42	358.53	27.09	-53.9	-55.4	15.1	0.00e+00	0	31	0	519045120	74	4149
2026-01-03 03:21:38.42	358.25	27.16	-53.6	-55.0	15.2	0.00e+00	0	31	0	521142272	73	4207
2026-01-03 03:21:39.42	357.97	27.24	-54.0	-55.6	14.9	0.00e+00	0	31	0	522190848	73	4508
2026-01-03 03:21:40.42	357.69	27.32	-54.3	-55.9	14.8	0.00e+00	0	31	0	524288000	73	4694
2026-01-03 03:21:41.42	357.41	27.39	-54.9	-56.7	14.5	0.00e+00	0	31	0	526385152	74	4853
2026-01-03 03:21:42.42	357.12	27.47	-55.3	-57.4	14.3	0.00e+00	0	31	0	528482304	75	4928
2026-01-03 03:21:43.42	356.84	27.54	-55.4	-57.5	14.3	0.00e+00	0	31	0	529530880	76	4749
2026-01-03 03:21:44.42	356.55	27.61	-55.0	-56.9	14.6	0.00e+00	0	31	0	531628032	76	4421
2026-01-03 03:21:45.43	356.26	27.69	-54.8	-56.5	14.8	0.00e+00	0	31	0	533725184	76	4216
2026-01-03 03:21:46.44	355.96	27.76	-54.9	-56.7	14.6	0.00e+00	0	31	0	535822336	75	4563
2026-01-03 03:21:47.43	355.67	27.83	-55.0	-56.8	14.6	0.00e+00	0	31	0	537919488	75	4614
2026-01-03 03:21:48.43	355.38	27.90	-55.2	-57.2	14.4	0.00e+00	0	31	0	538968064	75	4821
2026-01-03 03:21:49.43	355.09	27.98	-55.5	-57.5	14.3	0.00e+00	0	31	0	541065216	76	4759
2026-01-03 03:21:50.44	354.79	28.05	-55.4	-57.4	14.4	0.00e+00	0	31	0	543162368	76	4700
2026-01-03 03:21:51.43	354.50	28.11	-55.2	-57.1	14.5	0.00e+00	0	31	0	545259520	76	4528
2026-01-03 03:21:52.43	354.20	28.18	-54.9	-56.7	14.7	0.00e+00	0	31	0	547356672	76	4299
2026-01-03 03:21:53.43	353.90	28.25	-54.6	-56.3	14.8	0.00e+00	0	31	0	548405248	75	4387
2026-01-03 03:21:54.43	353.60	28.32	-54.5	-56.2	14.9	0.00e+00	0	31	0	550502400	75	4301
2026-01-03 03:21:55.43	353.30	28.38	-54.7	-56.4	14.7	0.00e+00	0	31	0	552599552	75	4432
2026-01-03 03:21:56.43	352.99	28.45	-54.7	-56.6	14.7	0.00e+00	0	31	0	554696704	75	4504
2026-01-03 03:21:57.44	352.69	28.52	-55.0	-56.9	14.5	0.00e+00	0	31	0	555745280	75	4682
2026-01-03 03:21:58.43	352.38	28.58	-54.8	-56.7	14.6	0.00e+00	0	31	0	557842432	75	4569
2026-01-03 03:21:59.44	352.07	28.64	-54.7	-56.5	14.7	0.00e+00	0	31	0	559939584	75	4470
2026-01-03 03:22:00.43	351.77	28.71	-54.6	-56.4	14.8	0.00e+00	0	31	0	562036736	75	4396
2026-01-03 03:22:01.43	351.46	28.77	-54.6	-56.4	14.7	0.00e+00	0	31	0	564133888	75	4434
2026-01-03 03:22:02.43	351.15	28.83	-54.7	-56.5	14.7	0.00e+00	0	31	0	565182464	75	4458
2026-01-03 03:22:03.41	350.84	28.89	-55.1	-57.1	14.4	0.00e+00	0	31	0	567279616	75	4799
2026-01-03 03:22:04.41	350.53	28.95	-55.1	-57.0	14.5	0.00e+00	0	31	0	569376768	75	4730
2026-01-03 03:22:05.41	350.22	29.01	-54.7	-56.5	14.7	0.00e+00	0	31	0	571473920	75	4466
2026-01-03 03:22:06.42	349.90	29.06	-54.4	-56.0	14.9	0.00e+00	0	31	0	573571072	75	4239
2026-01-03 03:22:07.42	349.58	29.12	-54.5	-56.1	14.8	0.00e+00	0	31	0	574619648	75	4288
2026-01-03 03:22:08.42	349.26	29.18	-54.7	-56.5	14.7	0.00e+00	0	31	0	576716800	75	4478
2026-01-03 03:22:09.42	348.95	29.23	-54.9	-56.8	14.6	0.00e+00	0	31	0	578813952	75	4648
2026-01-03 03:22:10.42	348.63	29.29	-55.2	-57.2	14.4	0.00e+00	0	31	0	580911104	75	4845
2026-01-03 03:22:11.42	348.31	29.34	-55.0	-56.9	14.5	0.00e+00	0	31	0	583008256	75	4700
2026-01-03 03:22:12.41	347.99	29.39	-54.8	-56.5	14.7	0.00e+00	0	31	0	584056832	75	4489
2026-01-03 03:22:13.41	347.67	29.44	-54.4	-56.1	14.9	0.00e+00	0	31	0	586153984	75	4244
2026-01-03 03:22:14.41	347.34	29.49	-54.6	-56.4	14.7	0.00e+00	0	31	0	588251136	75	4423
2026-01-03 03:22:15.41	347.02	29.54	-54.9	-56.8	14.6	0.00e+00	0	31	0	590348288	75	4629
2026-01-03 03:22:16.41	346.69	29.59	-55.2	-57.2	14.4	0.00e+00	0	31	0	591396864	75	4869
2026-01-03 03:22:17.40	346.37	29.64	-55.1	-57.1	14.4	0.00e+00	0	31	0	593494016	75	4780
2026-01-03 03:22:18.40	346.04	29.69	-54.5	-56.2	14.8	0.00e+00	0	31	0	595591168	75	4320
2026-01-03 03:22:19.40	345.71	29.73	-53.8	-55.3	15.2	0.00e+00	0	31	0	597688320	74	4134
2026-01-03 03:22:20.40	345.38	29.78	-53.4	-54.7	15.3	0.00e+00	0	31	0	599785472	73	4094
2026-01-03 03:22:21.39	345.05	29.82	-53.3	-54.7	15.3	0.00e+00	0	31	0	600834048	73	4059
2026-01-03 03:22:22.39	344.72	29.86	-53.5	-54.9	15.2	0.00e+00	0	31	0	602931200	73	4163
2026-01-03 03:22:23.39	344.39	29.90	-54.0	-55.5	15.0	0.00e+00	0	31	0	605028352	73	4454
2026-01-03 03:22:24.39	344.06	29.94	-54.2	-55.8	14.9	0.00e+00	0	31	0	607125504	73	4601
2026-01-03 03:22:25.38	343.73	29.98	-54.3	-55.9	14.9	0.00e+00	0	31	0	608174080	74	4424
2026-01-03 03:22:26.38	343.39	30.02	-54.5	-56.2	14.8	0.00e+00	0	31	0	610271232	74	4576
2026-01-03 03:22:27.37	343.06	30.06	-54.6	-56.4	14.7	0.00e+00	0	31	0	612368384	74	4654
2026-01-03 03:22:28.37	342.72	30.10	-54.7	-56.6	14.6	0.00e+00	0	31	0	614465536	74	4809
2026-01-03 03:22:29.37	342.39	30.13	-55.2	-57.3	14.4	0.00e+00	0	31	0	616562688	75	4910
2026-01-03 03:22:30.36	342.05	30.17	-55.8	-58.2	14.0	0.00e+00	0	31	0	617611264	76	5132
2026-01-03 03:22:31.36	341.71	30.20	-56.1	-58.6	13.8	0.00e+00	0	31	0	619708416	77	5100
2026-01-03 03:22:32.36	341.37	30.23	-56.1	-58.7	13.8	0.00e+00	0	31	0	621805568	77	5105
2026-01-03 03:22:33.36	341.03	30.26	-55.8	-58.2	14.0	0.00e+00	0	31	0	623902720	77	4819
2026-01-03 03:22:34.36	340.69	30.29	-55.4	-57.6	14.3	0.00e+00	0	31	0	625999872	77	4524
2026-01-03 03:22:35.36	340.35	30.32	-55.2	-57.2	14.5	0.00e+00	0	31	0	627048448	76	4564
2026-01-03 03:22:36.35	340.01	30.35	-55.3	-57.3	14.5	0.00e+00	0	31	0	629145600	76	4632
2026-01-03 03:22:37.35	339.67	30.38	-55.7	-57.9	14.2	0.00e+00	0	31	0	631242752	76	4938
2026-01-03 03:22:38.35	339.33	30.40	-55.8	-58.0	14.1	0.00e+00	0	31	0	633339904	77	4750
2026-01-03 03:22:39.35	338.98	30.43	-55.6	-57.8	14.2	0.00e+00	0	31	0	634388480	77	4606
2026-01-03 03:22:40.36	338.64	30.45	-55.3	-57.3	14.5	0.00e+00	0	31	0	636485632	77	4345
2026-01-03 03:22:41.36	338.29	30.47	-54.8	-56.5	14.8	0.00e+00	0	31	0	638582784	76	4235
2026-01-03 03:22:42.36	337.95	30.49	-54.4	-56.1	14.9	0.00e+00	0	31	0	640679936	75	4276
2026-01-03 03:22:43.37	337.60	30.51	-54.6	-56.4	14.8	0.00e+00	0	31	0	642777088	75	4421
2026-01-03 03:22:44.37	337.25	30.53	-55.2	-57.2	14.4	0.00e+00	0	31	0	643825664	75	4864
2026-01-03 03:22:45.37	336.91	30.55	-56.1	-58.5	13.9	0.00e+00	0	31	0	645922816	77	5010
2026-01-03 03:22:46.37	336.56	30.57	-56.3	-59.0	13.6	0.00e+00	0	31	0	648019968	77	5286
2026-01-03 03:22:47.37	336.21	30.58	-56.1	-58.7	13.7	0.00e+00	0	31	0	650117120	77	5119
2026-01-03 03:22:48.37	335.87	30.59	-55.6	-57.8	14.2	0.00e+00	0	31	0	652214272	77	4629
2026-01-03 03:22:49.37	335.52	30.61	-55.5	-57.6	14.4	0.00e+00	0	31	0	653262848	77	4522
2026-01-03 03:22:50.37	335.17	30.62	-55.3	-57.4	14.4	0.00e+00	0	31	0	655360000	77	4432
2026-01-03 03:22:51.36	334.83	30.63	-55.4	-57.5	14.4	0.00e+00	0	31	0	657457152	77	4483
2026-01-03 03:22:52.36	334.48	30.64	-55.6	-57.9	14.2	0.00e+00	0	31	0	659554304	77	4676
2026-01-03 03:22:53.37	334.12	30.65	-55.8	-58.2	14.0	0.00e+00	0	31	0	661651456	77	4868
2026-01-03 03:22:54.37	333.78	30.65	-55.8	-58.2	14.0	0.00e+00	0	31	0	662700032	77	4863
2026-01-03 03:22:55.37	333.43	30.66	-55.3	-57.3	14.4	0.00e+00	0	31	0	664797184	77	4365
2026-01-03 03:22:56.36	333.08	30.66	-54.8	-56.6	14.8	0.00e+00	0	31	0	666894336	76	4253
2026-01-03 03:22:57.36	332.73	30.67	-54.3	-55.9	15.0	0.00e+00	0	31	0	668991488	75	4173
2026-01-03 03:22:58.37	332.38	30.67	-54.2	-55.7	15.0	0.00e+00	0	31	0	670040064	74	4329
2026-01-03 03:22:59.37	332.03	30.67	-54.6	-56.4	14.7	0.00e+00	0	31	0	672137216	74	4683
2026-01-03 03:23:00.36	331.69	30.67	-55.1	-57.0	14.5	0.00e+00	0	31	0	674234368	75	4742
2026-01-03 03:23:01.36	331.34	30.67	-55.6	-57.8	14.2	0.00e+00	0	31	0	676331520	76	4920
2026-01-03 03:23:02.36	330.99	30.67	-55.9	-58.3	13.9	0.00e+00	0	31	0	678428672	77	4897
2026-01-03 03:23:03.36	330.64	30.66	-56.1	-58.5	13.9	0.00e+00	0	31	0	679477248	77	5031
2026-01-03 03:23:04.36	330.29	30.66	-56.2	-58.6	13.8	0.00e+00	0	31	0	681574400	77	5078
2026-01-03 03:23:05.36	329.94	30.65	-55.8	-57.9	14.1	0.00e+00	0	31	0	683671552	77	4702
2026-01-03 03:23:06.36	329.59	30.64	-55.3	-57.2	14.6	0.00e+00	0	31	0	685768704	77	4304
2026-01-03 03:23:07.36	329.24	30.63	-55.1	-56.9	14.7	0.00e+00	0	31	0	686817280	76	4396
2026-01-03 03:23:08.36	328.90	30.62	-54.8	-56.5	14.8	0.00e+00	0	31	0	688914432	76	4195
2026-01-03 03:23:09.36	328.55	30.61	-54.8	-56.5	14.8	0.00e+00	0	31	0	691011584	75	4478
2026-01-03 03:23:10.36	328.20	30.60	-54.6	-56.3	14.9	0.00e+00	0	31	0	693108736	75	4346
2026-01-03 03:23:11.35	327.86	30.59	-54.9	-56.7	14.7	0.00e+00	0	31	0	695205888	75	4562
2026-01-03 03:23:12.35	327.51	30.57	-55.1	-57.0	14.6	0.00e+00	0	31	0	696254464	75	4707
2026-01-03 03:23:13.35	327.16	30.56	-55.6	-57.6	14.3	0.00e+00	0	31	0	698351616	76	4779
2026-01-03 03:23:14.34	326.82	30.54	-55.3	-57.1	14.6	0.00e+00	0	31	0	700448768	76	4525
2026-01-03 03:23:15.34	326.47	30.52	-55.0	-56.7	14.7	0.00e+00	0	31	0	702545920	76	4323
2026-01-03 03:23:16.34	326.13	30.50	-54.6	-56.2	14.9	0.00e+00	0	31	0	704643072	75	4305
2026-01-03 03:23:17.34	325.78	30.48	-54.5	-56.1	14.9	0.00e+00	0	31	0	705691648	75	4290
2026-01-03 03:23:18.34	325.44	30.46	-54.5	-56.1	15.0	0.00e+00	0	31	0	707788800	75	4249
2026-01-03 03:23:19.34	325.09	30.44	-54.8	-56.5	14.8	0.00e+00	0	31	0	709885952	75	4443
2026-01-03 03:23:20.33	324.75	30.41	-55.1	-56.9	14.6	0.00e+00	0	31	0	711983104	75	4699
2026-01-03 03:23:21.33	324.41	30.39	-55.7	-57.8	14.3	0.00e+00	0	31	0	714080256	76	4910
2026-01-03 03:23:22.32	324.07	30.36	-55.8	-57.9	14.3	0.00e+00	0	31	0	715128832	77	4662
2026-01-03 03:23:23.32	323.73	30.34	-55.7	-57.8	14.3	0.00e+00	0	31	0	717225984	77	4633
2026-01-03 03:23:24.31	323.39	30.31	-55.0	-56.8	14.7	0.00e+00	0	31	0	719323136	76	4380
2026-01-03 03:23:25.31	323.05	30.28	-54.5	-56.2	14.9	0.00e+00	0	31	0	721420288	75	4304
2026-01-03 03:23:26.30	322.71	30.25	-54.2	-55.7	15.0	0.00e+00	0	31	0	722468864	74	4331
2026-01-03 03:23:27.29	322.37	30.22	-54.3	-56.0	15.0	0.00e+00	0	31	0	724566016	74	4450
2026-01-03 03:23:28.30	322.03	30.18	-54.7	-56.5	14.7	0.00e+00	0	31	0	726663168	74	4717
2026-01-03 03:23:29.30	321.69	30.15	-55.1	-57.2	14.4	0.00e+00	0	31	0	728760320	75	4824
2026-01-03 03:23:30.30	321.35	30.11	-55.0	-57.0	14.5	0.00e+00	0	31	0	730857472	75	4746
2026-01-03 03:23:31.29	321.02	30.08	-55.2	-57.3	14.3	0.00e+00	0	31	0	731906048	75	4873
2026-01-03 03:23:32.29	320.68	30.04	-54.9	-56.9	14.6	0.00e+00	0	31	0	734003200	75	4652
2026-01-03 03:23:33.29	320.35	30.00	-54.1	-55.7	15.0	0.00e+00	0	31	0	736100352	74	4335
2026-01-03 03:23:34.29	320.01	29.96	-53.9	-55.5	15.1	0.00e+00	0	31	0	738197504	74	4209
2026-01-03 03:23:35.28	319.68	29.92	-53.9	-55.5	15.2	0.00e+00	0	31	0	739246080	74	4215
2026-01-03 03:23:36.27	319.35	29.88	-53.9	-55.5	15.1	0.00e+00	0	31	0	741343232	74	4215
2026-01-03 03:23:37.26	319.03	29.84	-53.8	-55.4	15.2	0.00e+00	0	31	0	743440384	74	4146
2026-01-03 03:23:38.26	318.69	29.80	-54.3	-55.9	14.9	0.00e+00	0	31	0	745537536	74	4441
2026-01-03 03:23:39.25	318.37	29.76	-54.4	-56.1	14.9	0.00e+00	0	31	0	747634688	74	4518
2026-01-03 03:23:40.25	318.04	29.71	-54.8	-56.6	14.7	0.00e+00	0	31	0	748683264	74	4760
2026-01-03 03:23:41.25	317.71	29.66	-54.9	-56.8	14.7	0.00e+00	0	31	0	750780416	75	4602
2026-01-03 03:23:42.25	317.38	29.62	-55.1	-57.0	14.5	0.00e+00	0	31	0	752877568	75	4750
2026-01-03 03:23:43.25	317.05	29.57	-55.3	-57.3	14.4	0.00e+00	0	31	0	754974720	75	4913
2026-01-03 03:23:44.25	316.73	29.52	-55.4	-57.3	14.5	0.00e+00	0	31	0	756023296	76	4610
2026-01-03 03:23:45.24	316.41	29.47	-54.7	-56.4	14.9	0.00e+00	0	31	0	758120448	76	4154
2026-01-03 03:23:46.25	316.08	29.42	-54.7	-56.3	14.9	0.00e+00	0	31	0	760217600	75	4381
2026-01-03 03:23:47.24	315.76	29.37	-54.4	-55.9	15.0	0.00e+00	0	31	0	762314752	75	4175
2026-01-03 03:23:48.24	315.44	29.31	-54.6	-56.3	14.9	0.00e+00	0	31	0	764411904	75	4357
2026-01-03 03:23:49.24	315.12	29.26	-55.1	-56.9	14.6	0.00e+00	0	31	0	765460480	75	4685
2026-01-03 03:23:50.24	314.80	29.20	-55.0	-56.8	14.6	0.00e+00	0	31	0	767557632	75	4619
2026-01-03 03:23:51.23	314.49	29.15	-55.0	-56.8	14.6	0.00e+00	0	31	0	769654784	75	4614
2026-01-03 03:23:52.22	314.17	29.09	-54.7	-56.4	14.8	0.00e+00	0	31	0	771751936	75	4423
2026-01-03 03:23:53.22	313.86	29.04	-55.0	-56.7	14.7	0.00e+00	0	31	0	773849088	75	4582
2026-01-03 03:23:54.22	313.54	28.98	-55.2	-57.1	14.6	0.00e+00	0	31	0	774897664	75	4776
2026-01-03 03:23:55.22	313.23	28.92	-55.4	-57.3	14.5	0.00e+00	0	31	0	776994816	76	4629
2026-01-03 03:23:56.23	312.91	28.86	-55.3	-57.1	14.6	0.00e+00	0	31	0	779091968	76	4516
2026-01-03 03:23:57.23	312.60	28.80	-55.7	-57.7	14.4	0.00e+00	0	31	0	781189120	77	4582
2026-01-03 03:23:58.22	312.29	28.74	-55.5	-57.4	14.5	0.00e+00	0	31	0	782237696	77	4427
2026-01-03 03:23:59.22	311.98	28.68	-55.6	-57.6	14.4	0.00e+00	0	31	0	784334848	77	4500
2026-01-03 03:24:00.22	311.68	28.61	-55.4	-57.2	14.6	0.00e+00	0	31	0	786432000	77	4338
2026-01-03 03:24:01.22	311.37	28.55	-55.2	-56.9	14.7	0.00e+00	0	31	0	788529152	76	4429
2026-01-03 03:24:02.22	311.06	28.48	-55.2	-57.0	14.7	0.00e+00	0	31	0	790626304	76	4458
2026-01-03 03:24:03.21	310.76	28.42	-55.6	-57.6	14.3	0.00e+00	0	31	0	791674880	76	4776
2026-01-03 03:24:04.21	310.46	28.35	-56.0	-58.2	14.1	0.00e+00	0	31	0	793772032	77	4830
2026-01-03 03:24:05.21	310.16	28.29	-56.3	-58.7	13.9	0.00e+00	0	31	0	795869184	78	4850
2026-01-03 03:24:06.22	309.86	28.22	-56.3	-58.8	13.8	0.00e+00	0	31	0	797966336	78	4871
2026-01-03 03:24:07.22	309.56	28.15	-56.6	-59.3	13.5	0.00e+00	0	31	0	800063488	78	5172
2026-01-03 03:24:08.21	309.26	28.08	-57.0	-59.9	13.2	0.00e+00	0	31	0	801112064	79	5276
2026-01-03 03:24:09.22	308.96	28.01	-57.1	-60.0	13.1	0.00e+00	0	31	0	803209216	79	5321
2026-01-03 03:24:10.22	308.67	27.94	-57.1	-60.1	13.1	0.00e+00	0	31	0	805306368	79	5347
2026-01-03 03:24:11.22	308.37	27.87	-57.0	-60.0	13.1	0.00e+00	0	31	0	807403520	79	5306
2026-01-03 03:24:12.22	308.08	27.80	-57.1	-60.2	13.0	0.00e+00	0	31	0	809500672	79	5409
2026-01-03 03:24:13.22	307.79	27.73	-56.9	-59.9	13.2	0.00e+00	0	31	0	810549248	79	5265
2026-01-03 03:24:14.22	307.50	27.65	-56.5	-59.3	13.4	0.00e+00	0	31	0	812646400	79	4908
2026-01-03 03:24:15.21	307.21	27.58	-56.0	-58.5	13.9	0.00e+00	0	31	0	814743552	78	4709
2026-01-03 03:24:16.22	306.92	27.51	-55.5	-57.6	14.3	0.00e+00	0	31	0	816840704	77	4513
2026-01-03 03:24:17.22	306.64	27.43	-54.9	-56.7	14.7	0.00e+00	0	31	0	817889280	76	4326
2026-01-03 03:24:18.22	306.35	27.36	-54.6	-56.3	14.7	0.00e+00	0	31	0	819986432	75	4387
2026-01-03 03:24:19.22	306.07	27.28	-53.9	-55.5	15.1	0.00e+00	0	31	0	822083584	74	4203
2026-01-03 03:24:20.22	305.79	27.20	-53.6	-55.0	15.2	0.00e+00	0	31	0	824180736	73	4219
2026-01-03 03:24:21.22	305.51	27.13	-53.4	-54.7	15.3	0.00e+00	0	31	0	826277888	73	4096
2026-01-03 03:24:22.22	305.23	27.05	-53.6	-55.0	15.3	0.00e+00	0	31	0	827326464	73	4222
2026-01-03 03:24:23.22	304.95	26.97	-53.9	-55.5	15.0	0.00e+00	0	31	0	829423616	73	4451
2026-01-03 03:24:24.22	304.68	26.89	-54.1	-55.7	15.0	0.00e+00	0	31	0	831520768	73	4562
2026-01-03 03:24:25.21	304.40	26.81	-54.1	-55.7	14.9	0.00e+00	0	31	0	833617920	73	4562
2026-01-03 03:24:26.21	304.13	26.73	-53.9	-55.5	15.1	0.00e+00	0	31	0	834666496	73	4444
2026-01-03 03:24:27.20	303.86	26.65	-54.0	-55.5	15.0	0.00e+00	0	31	0	836763648	73	4493
2026-01-03 03:24:28.20	303.59	26.57	-54.3	-56.0	14.8	0.00e+00	0	31	0	838860800	73	4712
2026-01-03 03:24:29.20	303.32	26.49	-55.0	-56.9	14.5	0.00e+00	0	31	0	840957952	75	4684
2026-01-03 03:24:30.19	303.05	26.41	-55.2	-57.3	14.3	0.00e+00	0	31	0	843055104	75	4911
2026-01-03 03:24:31.19	302.79	26.33	-55.5	-57.6	14.2	0.00e+00	0	31	0	844103680	76	4807
2026-01-03 03:24:32.19	302.52	26.25	-55.0	-57.0	14.6	0.00e+00	0	31	0	846200832	76	4451
2026-01-03 03:24:33.19	302.26	26.17	-55.1	-57.1	14.5	0.00e+00	0	31	0	848297984	76	4516
2026-01-03 03:24:34.18	302.00	26.08	-55.3	-57.4	14.4	0.00e+00	0	31	0	850395136	76	4666
2026-01-03 03:24:35.18	301.74	26.00	-55.6	-57.9	14.1	0.00e+00	0	31	0	852492288	76	4941
2026-01-03 03:24:36.18	301.48	25.92	-56.0	-58.4	14.0	0.00e+00	0	31	0	853540864	77	4954
2026-01-03 03:24:37.18	301.22	25.83	-56.2	-58.8	13.8	0.00e+00	0	31	0	855638016	77	5197
2026-01-03 03:24:38.18	300.96	25.75	-56.0	-58.4	14.0	0.00e+00	0	31	0	857735168	77	4964
2026-01-03 03:24:39.18	300.71	25.66	-56.0	-58.3	14.0	0.00e+00	0	31	0	859832320	77	4875
2026-01-03 03:24:40.17	300.45	25.58	-55.5	-57.5	14.5	0.00e+00	0	31	0	860880896	77	4451
2026-01-03 03:24:41.17	300.20	25.49	-55.1	-56.9	14.7	0.00e+00	0	31	0	862978048	76	4414
2026-01-03 03:24:42.17	299.95	25.41	-54.4	-56.0	14.9	0.00e+00	0	31	0	865075200	75	4213
2026-01-03 03:24:43.17	299.70	25.32	-54.0	-55.4	15.2	0.00e+00	0	31	0	867172352	74	4170
2026-01-03 03:24:44.16	299.45	25.23	-53.7	-55.1	15.3	0.00e+00	0	31	0	869269504	74	4009
2026-01-03 03:24:45.16	299.21	25.15	-53.7	-55.1	15.2	0.00e+00	0	31	0	870318080	73	4248
2026-01-03 03:24:46.17	298.96	25.06	-53.7	-55.2	15.2	0.00e+00	0	31	0	872415232	73	4292
2026-01-03 03:24:47.17	298.71	24.97	-53.7	-55.1	15.2	0.00e+00	0	31	0	874512384	73	4276
2026-01-03 03:24:48.17	298.47	24.88	-53.7	-55.1	15.2	0.00e+00	0	31	0	876609536	73	4281
2026-01-03 03:24:49.17	298.23	24.79	-53.5	-54.8	15.3	0.00e+00	0	31	0	878706688	73	4140
2026-01-03 03:24:50.17	297.99	24.71	-53.4	-54.7	15.3	0.00e+00	0	31	0	879755264	73	4053
2026-01-03 03:24:51.18	297.75	24.62	-53.2	-54.5	15.4	0.00e+00	0	31	0	881852416	72	4199
2026-01-03 03:24:52.18	297.51	24.53	-53.4	-54.8	15.3	0.00e+00	0	31	0	883949568	72	4349
2026-01-03 03:24:53.18	297.27	24.44	-53.5	-54.9	15.2	0.00e+00	0	31	0	886046720	72	4400
2026-01-03 03:24:54.18	297.04	24.35	-53.4	-54.8	15.2	0.00e+00	0	31	0	888143872	72	4355
2026-01-03 03:24:55.19	296.80	24.26	-53.3	-54.6	15.3	0.00e+00	0	31	0	889192448	72	4266
2026-01-03 03:24:56.18	296.57	24.17	-53.1	-54.4	15.4	0.00e+00	0	31	0	891289600	72	4184
2026-01-03 03:24:57.19	296.34	24.08	-52.9	-54.2	15.4	0.00e+00	0	31	0	893386752	72	4066
2026-01-03 03:24:58.19	296.11	23.99	-52.8	-54.0	15.5	0.00e+00	0	31	0	895483904	72	3978
2026-01-03 03:24:59.19	295.88	23.90	-52.7	-53.9	15.6	0.00e+00	0	31	0	896532480	72	3949
2026-01-03 03:25:00.19	295.65	23.81	-53.0	-54.2	15.4	0.00e+00	0	31	0	898629632	72	4093
2026-01-03 03:25:01.19	295.43	23.72	-53.3	-54.7	15.3	0.00e+00	0	31	0	900726784	72	4294
2026-01-03 03:25:02.19	295.20	23.63	-53.6	-55.0	15.2	0.00e+00	0	31	0	902823936	72	4459
2026-01-03 03:25:03.19	294.98	23.53	-53.7	-55.2	15.1	0.00e+00	0	31	0	904921088	72	4585
2026-01-03 03:25:04.18	294.76	23.44	-53.8	-55.3	15.0	0.00e+00	0	31	0	905969664	72	4647
2026-01-03 03:25:05.18	294.54	23.35	-54.0	-55.6	15.0	0.00e+00	0	31	0	908066816	73	4521
2026-01-03 03:25:06.19	294.32	23.26	-53.9	-55.4	15.0	0.00e+00	0	31	0	910163968	73	4422
2026-01-03 03:25:07.19	294.10	23.17	-53.9	-55.5	15.0	0.00e+00	0	31	0	912261120	73	4467
2026-01-03 03:25:08.19	293.88	23.08	-53.8	-55.3	15.1	0.00e+00	0	31	0	914358272	73	4362
2026-01-03 03:25:09.19	293.67	22.98	-53.6	-55.1	15.2	0.00e+00	0	31	0	915406848	73	4260
2026-01-03 03:25:10.20	293.45	22.89	-53.6	-55.1	15.2	0.00e+00	0	31	0	917504000	73	4254
2026-01-03 03:25:11.21	293.24	22.80	-53.4	-54.8	15.3	0.00e+00	0	31	0	919601152	73	4139
2026-01-03 03:25:12.21	293.02	22.71	-53.5	-54.9	15.3	0.00e+00	0	31	0	921698304	73	4168
2026-01-03 03:25:13.20	292.82	22.62	-53.4	-54.7	15.4	0.00e+00	0	31	0	923795456	73	4080
2026-01-03 03:25:14.20	292.61	22.52	-53.3	-54.6	15.4	0.00e+00	0	31	0	924844032	73	4027
2026-01-03 03:25:15.20	292.40	22.43	-52.9	-54.1	15.5	0.00e+00	0	31	0	926941184	72	4048
2026-01-03 03:25:16.20	292.19	22.34	-52.6	-53.7	15.5	0.00e+00	0	31	0	929038336	71	4094
2026-01-03 03:25:17.20	291.99	22.25	-52.3	-53.4	15.7	0.00e+00	0	31	0	931135488	71	3924
2026-01-03 03:25:18.20	291.78	22.15	-52.1	-53.2	15.6	0.00e+00	0	31	0	932184064	70	4073
2026-01-03 03:25:19.20	291.58	22.06	-52.2	-53.3	15.6	0.00e+00	0	31	0	934281216	70	4108
2026-01-03 03:25:20.20	291.38	21.97	-52.2	-53.3	15.6	0.00e+00	0	31	0	936378368	70	4132
2026-01-03 03:25:21.20	291.18	21.88	-52.5	-53.7	15.5	0.00e+00	0	31	0	938475520	70	4299
2026-01-03 03:25:22.21	290.98	21.78	-52.9	-54.2	15.4	0.00e+00	0	31	0	940572672	70	4553
2026-01-03 03:25:23.21	290.78	21.69	-53.1	-54.4	15.3	0.00e+00	0	31	0	941621248	71	4432
2026-01-03 03:25:24.20	290.59	21.60	-53.2	-54.5	15.3	0.00e+00	0	31	0	943718400	71	4482
2026-01-03 03:25:25.20	290.39	21.50	-53.3	-54.6	15.2	0.00e+00	0	31	0	945815552	71	4531
2026-01-03 03:25:26.19	290.20	21.41	-53.3	-54.7	15.2	0.00e+00	0	31	0	947912704	71	4559
2026-01-03 03:25:27.19	290.00	21.32	-53.2	-54.5	15.4	0.00e+00	0	31	0	950009856	72	4197
2026-01-03 03:25:28.18	289.81	21.23	-53.1	-54.3	15.4	0.00e+00	0	31	0	951058432	72	4135
2026-01-03 03:25:29.18	289.62	21.13	-53.2	-54.5	15.3	0.00e+00	0	31	0	953155584	72	4235
2026-01-03 03:25:30.18	289.43	21.04	-53.3	-54.6	15.3	0.00e+00	0	31	0	955252736	72	4263
2026-01-03 03:25:31.18	289.25	20.95	-53.3	-54.6	15.3	0.00e+00	0	31	0	957349888	72	4268
2026-01-03 03:25:32.18	289.06	20.86	-53.3	-54.6	15.3	0.00e+00	0	31	0	958398464	72	4268
2026-01-03 03:25:33.18	288.87	20.76	-53.2	-54.5	15.3	0.00e+00	0	31	0	960495616	72	4200
2026-01-03 03:25:34.18	288.69	20.67	-53.2	-54.5	15.4	0.00e+00	0	31	0	962592768	72	4229
2026-01-03 03:25:35.18	288.50	20.58	-53.3	-54.6	15.3	0.00e+00	0	31	0	964689920	72	4272
2026-01-03 03:25:36.18	288.32	20.48	-53.5	-54.8	15.3	0.00e+00	0	31	0	966787072	72	4356
2026-01-03 03:25:37.17	288.14	20.39	-53.4	-54.7	15.3	0.00e+00	0	31	0	967835648	72	4296
2026-01-03 03:25:38.17	287.96	20.30	-53.2	-54.5	15.3	0.00e+00	0	31	0	969932800	72	4224
2026-01-03 03:25:39.17	287.78	20.21	-53.2	-54.5	15.4	0.00e+00	0	31	0	972029952	72	4214
2026-01-03 03:25:40.17	287.60	20.11	-53.3	-54.5	15.3	0.00e+00	0	31	0	974127104	72	4238
2026-01-03 03:25:41.18	287.42	20.02	-53.0	-54.2	15.4	0.00e+00	0	31	0	976224256	72	4091
2026-01-03 03:25:42.17	287.25	19.93	-52.8	-54.0	15.5	0.00e+00	0	31	0	977272832	72	3983
2026-01-03 03:25:43.18	287.07	19.84	-52.6	-53.8	15.5	0.00e+00	0	31	0	979369984	71	4115
2026-01-03 03:25:44.18	286.90	19.74	-52.6	-53.7	15.6	0.00e+00	0	31	0	981467136	71	4064
2026-01-03 03:25:45.18	286.72	19.65	-52.7	-53.9	15.5	0.00e+00	0	31	0	983564288	71	4170
2026-01-03 03:25:46.18	286.55	19.56	-53.0	-54.3	15.4	0.00e+00	0	31	0	985661440	71	4341
2026-01-03 03:25:47.18	286.38	19.47	-53.3	-54.6	15.2	0.00e+00	0	31	0	986710016	71	4506
2026-01-03 03:25:48.19	286.21	19.37	-53.5	-54.9	15.2	0.00e+00	0	31	0	988807168	72	4410
2026-01-03 03:25:49.19	286.04	19.28	-53.9	-55.4	15.0	0.00e+00	0	31	0	990904320	72	4664
2026-01-03 03:25:50.19	285.87	19.19	-54.0	-55.6	15.0	0.00e+00	0	31	0	993001472	73	4495
2026-01-03 03:25:51.20	285.70	19.10	-54.0	-55.5	15.0	0.00e+00	0	31	0	994050048	73	4468
2026-01-03 03:25:52.20	285.54	19.01	-54.1	-55.6	15.0	0.00e+00	0	31	0	996147200	73	4507
2026-01-03 03:25:53.20	285.37	18.91	-54.0	-55.5	15.0	0.00e+00	0	31	0	998244352	73	4446
2026-01-03 03:25:54.20	285.21	18.82	-53.6	-55.0	15.2	0.00e+00	0	31	0	1000341504	73	4210
2026-01-03 03:25:55.20	285.05	18.73	-53.4	-54.7	15.3	0.00e+00	0	31	0	1002438656	73	4062
2026-01-03 03:25:56.19	284.89	18.64	-53.2	-54.5	15.3	0.00e+00	0	31	0	1003487232	72	4216
2026-01-03 03:25:57.20	284.72	18.55	-53.0	-54.2	15.5	0.00e+00	0	31	0	1005584384	72	4062
2026-01-03 03:25:58.19	284.56	18.46	-53.1	-54.3	15.4	0.00e+00	0	31	0	1007681536	72	4135
2026-01-03 03:25:59.18	284.41	18.37	-53.1	-54.3	15.4	0.00e+00	0	31	0	1009778688	72	4132
2026-01-03 03:26:00.18	284.25	18.28	-53.3	-54.6	15.3	0.00e+00	0	31	0	1011875840	72	4274
2026-01-03 03:26:01.18	284.09	18.19	-53.4	-54.7	15.2	0.00e+00	0	31	0	1012924416	72	4337
2026-01-03 03:26:02.18	283.94	18.09	-53.7	-55.1	15.1	0.00e+00	0	31	0	1015021568	72	4539
2026-01-03 03:26:03.18	283.78	18.00	-54.0	-55.5	15.0	0.00e+00	0	31	0	1017118720	73	4462
2026-01-03 03:26:04.18	283.63	17.91	-54.2	-55.8	14.9	0.00e+00	0	31	0	1019215872	73	4613
2026-01-03 03:26:05.18	283.47	17.82	-54.6	-56.2	14.8	0.00e+00	0	31	0	1020264448	74	4583
2026-01-03 03:26:06.17	283.32	17.73	-54.7	-56.3	14.7	0.00e+00	0	31	0	1022361600	74	4650
2026-01-03 03:26:07.17	283.17	17.64	-54.9	-56.7	14.6	0.00e+00	0	31	0	1024458752	74	4819
2026-01-03 03:26:08.17	283.02	17.55	-54.8	-56.6	14.7	0.00e+00	0	31	0	1026555904	75	4510
2026-01-03 03:26:09.17	282.87	17.46	-54.8	-56.6	14.7	0.00e+00	0	31	0	1028653056	75	4498
2026-01-03 03:26:10.18	282.72	17.37	-54.6	-56.3	14.8	0.00e+00	0	31	0	1029701632	75	4348
2026-01-03 03:26:11.17	282.57	17.28	-54.3	-55.9	15.0	0.00e+00	0	31	0	1031798784	75	4154
2026-01-03 03:26:12.17	282.43	17.19	-54.2	-55.8	15.0	0.00e+00	0	31	0	1033895936	75	4119
2026-01-03 03:26:13.17	282.28	17.10	-54.0	-55.5	15.0	0.00e+00	0	31	0	1035993088	74	4221
2026-01-03 03:26:14.17	282.14	17.01	-54.1	-55.6	15.0	0.00e+00	0	31	0	1038090240	74	4289
2026-01-03 03:26:15.12	282.00	16.93	-54.1	-55.6	15.0	0.00e+00	0	31	0	1039138816	74	4277
2026-01-03 03:26:16.12	281.86	16.84	-54.4	-56.0	14.9	0.00e+00	0	31	0	1041235968	74	4464
2026-01-03 03:26:17.13	281.71	16.75	-54.5	-56.1	14.8	0.00e+00	0	31	0	1043333120	74	4521
2026-01-03 03:26:18.13	281.57	16.66	-54.7	-56.5	14.7	0.00e+00	0	31	0	1045430272	74	4736
2026-01-03 03:26:19.13	281.43	16.57	-55.0	-56.8	14.5	0.00e+00	0	31	0	1047527424	75	4650
2026-01-03 03:26:20.13	281.29	16.49	-55.0	-56.8	14.5	0.00e+00	0	31	0	1048576000	75	4646
2026-01-03 03:26:21.14	281.15	16.40	-55.0	-56.9	14.5	0.00e+00	0	31	0	1050673152	75	4671
2026-01-03 03:26:22.13	281.01	16.31	-55.0	-56.8	14.5	0.00e+00	0	31	0	1052770304	75	4646
2026-01-03 03:26:23.12	280.88	16.22	-54.6	-56.4	14.7	0.00e+00	0	31	0	1054867456	75	4414
2026-01-03 03:26:24.13	280.74	16.13	-54.3	-56.0	14.9	0.00e+00	0	31	0	1055916032	75	4209
2026-01-03 03:26:25.14	280.60	16.04	-54.4	-56.0	14.9	0.00e+00	0	31	0	1058013184	75	4233
2026-01-03 03:26:26.14	280.47	15.96	-53.7	-55.6	15.0	0.00e+00	0	31	0	1060110336	74	4272
2026-01-03 03:26:27.14	280.33	15.87	-54.0	-55.5	15.1	0.00e+00	0	31	0	1062207488	74	4213
2026-01-03 03:26:28.14	280.20	15.78	-53.9	-55.5	15.1	0.00e+00	0	31	0	1064304640	74	4197
2026-01-03 03:26:29.13	280.07	15.70	-53.9	-55.4	15.1	0.00e+00	0	31	0	1065353216	74	4159
2026-01-03 03:26:30.13	279.94	15.61	-54.0	-55.5	15.1	0.00e+00	0	31	0	1067450368	74	4224
2026-01-03 03:26:31.12	279.81	15.52	-53.9	-55.3	15.1	0.00e+00	0	31	0	1069547520	74	4145
2026-01-03 03:26:32.12	279.68	15.44	-54.0	-55.5	15.0	0.00e+00	0	31	0	1071644672	74	4213
2026-01-03 03:26:33.12	279.55	15.35	-54.1	-55.6	15.0	0.00e+00	0	31	0	1073741824	74	4268
2026-01-03 03:26:34.11	279.42	15.26	-54.0	-55.5	15.0	0.00e+00	0	31	0	1074790400	74	4204
2026-01-03 03:26:35.12	279.29	15.18	-54.1	-55.7	14.9	0.00e+00	0	31	0	1076887552	74	4296
2026-01-03 03:26:36.12	279.16	15.09	-54.2	-55.8	14.9	0.00e+00	0	31	0	1078984704	74	4375
2026-01-03 03:26:37.11	279.04	15.01	-54.4	-56.0	14.8	0.00e+00	0	31	0	1081081856	74	4477
2026-01-03 03:26:38.11	278.91	14.92	-54.3	-55.9	14.8	0.00e+00	0	31	0	1082130432	74	4438
2026-01-03 03:26:39.12	278.78	14.83	-54.5	-56.1	14.7	0.00e+00	0	31	0	1084227584	74	4533
2026-01-03 03:26:40.12	278.66	14.75	-54.4	-56.0	14.8	0.00e+00	0	31	0	1086324736	74	4472
2026-01-03 03:26:41.12	278.54	14.66	-54.4	-56.1	14.8	0.00e+00	0	31	0	1088421888	74	4499
2026-01-03 03:26:42.11	278.41	14.58	-54.3	-55.9	14.8	0.00e+00	0	31	0	1090519040	74	4421
2026-01-03 03:26:43.10	278.29	14.49	-54.2	-55.7	14.9	0.00e+00	0	31	0	1091567616	74	4338
2026-01-03 03:26:44.10	278.17	14.41	-54.1	-55.7	14.9	0.00e+00	0	31	0	1093664768	74	4314
2026-01-03 03:26:45.10	278.05	14.33	-54.1	-55.7	14.9	0.00e+00	0	31	0	1095761920	74	4311
2026-01-03 03:26:46.10	277.93	14.24	-54.2	-55.8	14.9	0.00e+00	0	31	0	1097859072	74	4350
2026-01-03 03:26:47.10	277.81	14.16	-54.2	-55.8	14.9	0.00e+00	0	31	0	1098907648	74	4357
2026-01-03 03:26:48.11	277.69	14.07	-54.4	-56.1	14.8	0.00e+00	0	31	0	1101004800	74	4516
2026-01-03 03:26:49.12	277.57	13.99	-54.6	-56.2	14.7	0.00e+00	0	31	0	1103101952	74	4593
2026-01-03 03:26:50.12	277.46	13.90	-54.8	-56.6	14.5	0.00e+00	0	31	0	1105199104	74	4783
2026-01-03 03:26:51.12	277.34	13.82	-55.2	-57.1	14.4	0.00e+00	0	31	0	1107296256	75	4794
2026-01-03 03:26:52.13	277.22	13.74	-55.5	-57.6	14.2	0.00e+00	0	31	0	1109393408	76	4792
2026-01-03 03:26:53.12	277.11	13.65	-55.8	-57.9	14.0	0.00e+00	0	31	0	1110441984	76	4978
2026-01-03 03:26:54.12	276.99	13.57	-55.7	-57.9	14.1	0.00e+00	0	31	0	1112539136	76	4947
2026-01-03 03:26:55.12	276.88	13.49	-55.9	-58.1	13.9	0.00e+00	0	31	0	1114636288	77	4813
2026-01-03 03:26:56.12	276.77	13.40	-55.5	-57.6	14.3	0.00e+00	0	31	0	1116733440	77	4498
2026-01-03 03:26:57.12	276.65	13.32	-55.3	-57.3	14.4	0.00e+00	0	31	0	1117782016	77	4365
2026-01-03 03:26:58.12	276.54	13.24	-55.1	-56.9	14.5	0.00e+00	0	31	0	1119879168	76	4436
2026-01-03 03:26:59.10	276.43	13.16	-54.6	-56.3	14.7	0.00e+00	0	31	0	1121976320	75	4348
2026-01-03 03:27:00.11	276.32	13.08	-54.4	-56.0	14.8	0.00e+00	0	31	0	1124073472	75	4239
2026-01-03 03:27:01.11	276.21	12.99	-54.1	-55.6	15.0	0.00e+00	0	31	0	1126170624	74	4283
2026-01-03 03:27:02.11	276.10	12.91	-54.0	-55.5	15.0	0.00e+00	0	31	0	1127219200	74	4200
2026-01-03 03:27:03.10	275.99	12.83	-53.8	-55.3	15.1	0.00e+00	0	31	0	1129316352	74	4112
2026-01-03 03:27:04.10	275.88	12.75	-53.8	-55.3	15.0	0.00e+00	0	31	0	1131413504	73	4358
2026-01-03 03:27:05.10	275.78	12.67	-53.7	-55.2	15.0	0.00e+00	0	31	0	1133510656	73	4335
2026-01-03 03:27:06.10	275.67	12.59	-54.1	-55.6	14.9	0.00e+00	0	31	0	1134559232	73	4536
2026-01-03 03:27:07.09	275.56	12.51	-54.3	-56.0	14.7	0.00e+00	0	31	0	1136656384	73	4706
2026-01-03 03:27:08.09	275.46	12.43	-54.5	-56.3	14.6	0.00e+00	0	31	0	1138753536	74	4627
2026-01-03 03:27:09.09	275.35	12.35	-54.9	-56.8	14.5	0.00e+00	0	31	0	1140850688	75	4647
2026-01-03 03:27:10.09	275.25	12.27	-55.2	-57.2	14.3	0.00e+00	0	31	0	1142947840	75	4857
2026-01-03 03:27:11.10	275.14	12.18	-55.5	-57.6	14.1	0.00e+00	0	31	0	1143996416	76	4800
2026-01-03 03:27:12.10	275.04	12.10	-55.8	-58.1	13.8	0.00e+00	0	31	0	1146093568	76	5052
2026-01-03 03:27:13.10	274.94	12.02	-56.0	-58.5	13.7	0.00e+00	0	31	0	1148190720	77	5008
2026-01-03 03:27:14.10	274.84	11.95	-56.2	-58.7	13.6	0.00e+00	0	31	0	1150287872	77	5137
2026-01-03 03:27:15.10	274.73	11.87	-56.3	-58.8	13.6	0.00e+00	0	31	0	1152385024	78	4898
2026-01-03 03:27:16.11	274.63	11.79	-56.6	-59.0	13.6	0.00e+00	0	31	0	1153433600	78	5005
2026-01-03 03:27:17.11	274.53	11.71	-56.6	-58.9	13.5	0.00e+00	0	31	0	1155530752	78	4977
2026-01-03 03:27:18.11	274.43	11.63	-56.5	-58.8	13.6	0.00e+00	0	31	0	1157627904	78	4887
2026-01-03 03:27:19.11	274.33	11.55	-56.5	-58.8	13.7	0.00e+00	0	31	0	1159725056	78	4905
2026-01-03 03:27:20.10	274.23	11.47	-56.5	-58.8	13.7	0.00e+00	0	31	0	1161822208	78	4885
2026-01-03 03:27:21.11	274.13	11.39	-56.4	-58.7	13.7	0.00e+00	0	31	0	1162870784	78	4818
2026-01-03 03:27:22.11	274.04	11.31	-56.4	-58.6	13.8	0.00e+00	0	31	0	1164967936	78	4787
2026-01-03 03:27:23.11	273.94	11.23	-56.2	-58.4	13.9	0.00e+00	0	31	0	1167065088	78	4663
2026-01-03 03:27:24.11	273.84	11.16	-56.1	-58.3	13.9	0.00e+00	0	31	0	1169162240	78	4618
2026-01-03 03:27:25.10	273.75	11.08	-56.2	-58.4	13.9	0.00e+00	0	31	0	1170210816	78	4690
2026-01-03 03:27:26.11	273.65	11.00	-56.1	-58.2	14.0	0.00e+00	0	31	0	1172307968	78	4552
2026-01-03 03:27:27.10	273.56	10.92	-56.1	-58.2	13.9	0.00e+00	0	31	0	1174405120	78	4572
2026-01-03 03:27:28.11	273.46	10.85	-56.1	-58.2	13.9	0.00e+00	0	31	0	1176502272	78	4591
2026-01-03 03:27:29.10	273.37	10.77	-56.1	-58.1	14.0	0.00e+00	0	31	0	1178599424	78	4540
2026-01-03 03:27:30.10	273.27	10.69	-56.0	-58.1	14.0	0.00e+00	0	31	0	1179648000	78	4531
2026-01-03 03:27:31.10	273.18	10.62	-56.2	-58.4	13.9	0.00e+00	0	31	0	1181745152	78	4655
2026-01-03 03:27:32.10	273.09	10.54	-56.2	-58.4	13.9	0.00e+00	0	31	0	1183842304	78	4676
2026-01-03 03:27:33.10	272.99	10.46	-56.1	-58.2	14.0	0.00e+00	0	31	0	1185939456	78	4558
2026-01-03 03:27:34.10	272.90	10.39	-56.2	-58.3	13.9	0.00e+00	0	31	0	1188036608	78	4642
2026-01-03 03:27:35.10	272.81	10.31	-56.4	-58.6	13.7	0.00e+00	0	31	0	1189085184	78	4805
2026-01-03 03:27:36.08	272.72	10.23	-56.3	-58.6	13.7	0.00e+00	0	31	0	1191182336	78	4773
2026-01-03 03:27:37.08	272.63	10.16	-56.4	-58.7	13.6	0.00e+00	0	31	0	1193279488	78	4825
2026-01-03 03:27:38.08	272.54	10.08	-56.3	-58.6	13.7	0.00e+00	0	31	0	1195376640	78	4773
2026-01-03 03:27:39.08	272.45	10.01	-56.2	-58.5	13.8	0.00e+00	0	31	0	1196425216	78	4714
2026-01-03 03:27:40.07	272.37	9.93	-56.2	-58.4	13.8	0.00e+00	0	31	0	1198522368	78	4653
2026-01-03 03:27:41.08	272.28	9.86	-56.0	-58.1	14.0	0.00e+00	0	31	0	1200619520	78	4533
2026-01-03 03:27:42.07	272.19	9.78	-55.9	-58.0	14.0	0.00e+00	0	31	0	1202716672	78	4470
2026-01-03 03:27:43.07	272.10	9.71	-55.8	-57.8	14.1	0.00e+00	0	31	0	1204813824	78	4353
2026-01-03 03:27:44.07	272.01	9.63	-55.7	-57.7	14.1	0.00e+00	0	31	0	1205862400	77	4547
2026-01-03 03:27:45.07	271.93	9.56	-55.4	-57.2	14.4	0.00e+00	0	31	0	1207959552	77	4322
2026-01-03 03:27:46.06	271.84	9.48	-55.2	-57.0	14.5	0.00e+00	0	31	0	1210056704	77	4224
2026-01-03 03:27:47.06	271.76	9.41	-55.1	-56.8	14.5	0.00e+00	0	31	0	1212153856	76	4371
2026-01-03 03:27:48.06	271.67	9.34	-54.9	-56.5	14.6	0.00e+00	0	31	0	1214251008	76	4235
2026-01-03 03:27:49.06	271.59	9.26	-54.6	-56.2	14.7	0.00e+00	0	31	0	1215299584	75	4318
2026-01-03 03:27:50.06	271.50	9.19	-54.5	-56.0	14.8	0.00e+00	0	31	0	1217396736	75	4242
