passes_logs/2026/01/03/R3.2S_Murmansk/R3.2S_Murmansk__20260103_010644_NOAA_21_JPSS-2_rec.log

#Pass ID: 20260103_010644_NOAA 21 (JPSS-2)
#Satellite: NOAA 21 (JPSS-2)
#Configuration: NOAA-21
#almurnet v.1.7.20251203
#Start time: 2026-01-03 01:06:43

#Version: 2.2.20231116
#Station: R3.2S_Murmansk
#Location: 33.079688 lon 68.888172 lat
#TLE: 1 54234U 22150A   26002.74826289  .00000196  00000+0  11365-3 0  9998
#TLE: 2 54234  98.7486 303.7970 0001197 349.3858  10.7292 14.19531423163070

#Time	Az	El	Level	Level2	SNR	BER	BlckErr	Temp	State	Recorded	gain1	gain2
2026-01-03 01:06:43.82	26.23	1.98	-59.7	-73.0	3.8	1.49e+00	0	29	0	0	85	16854
2026-01-03 01:06:44.81	26.22	2.04	-59.7	-73.0	3.8	1.49e+00	0	29	104	0	84	17792
2026-01-03 01:06:45.82	26.21	2.11	-59.7	-73.0	3.8	1.49e+00	0	29	104	0	84	17817
2026-01-03 01:06:46.81	26.21	2.17	-59.7	-73.0	3.8	1.49e+00	0	29	104	0	84	17768
2026-01-03 01:06:47.81	26.20	2.24	-59.7	-73.0	3.8	1.49e+00	0	29	104	0	84	17782
2026-01-03 01:06:48.81	26.19	2.30	-59.7	-73.0	3.8	1.49e+00	0	29	104	0	84	17816
2026-01-03 01:06:49.82	26.18	2.37	-59.7	-73.0	3.8	1.49e+00	0	29	104	0	84	17830
2026-01-03 01:06:50.82	26.18	2.43	-59.7	-73.0	3.8	1.49e+00	0	29	104	0	84	17837
2026-01-03 01:06:51.81	26.17	2.49	-59.7	-73.0	3.8	1.49e+00	0	29	104	0	84	17886
2026-01-03 01:06:52.82	26.16	2.56	-59.7	-73.0	3.8	1.49e+00	0	29	104	0	84	17882
2026-01-03 01:06:53.82	26.15	2.63	-59.7	-73.0	3.8	1.49e+00	0	29	104	0	84	17780
2026-01-03 01:06:54.82	26.14	2.69	-59.7	-73.0	3.8	1.49e+00	0	29	104	0	84	17859
2026-01-03 01:06:55.82	26.14	2.76	-59.7	-73.0	3.8	1.49e+00	0	29	104	0	84	17801
2026-01-03 01:06:56.82	26.13	2.82	-59.7	-73.0	3.8	1.49e+00	0	29	104	0	84	17701
2026-01-03 01:06:57.82	26.12	2.89	-59.7	-72.9	3.8	1.49e+00	0	29	104	0	84	17612
2026-01-03 01:06:58.82	26.11	2.95	-59.7	-72.9	3.8	1.49e+00	0	29	104	0	84	17494
2026-01-03 01:06:59.81	26.10	3.02	-59.7	-72.8	3.8	1.49e+00	0	29	104	0	84	17295
2026-01-03 01:07:00.81	26.09	3.08	-59.7	-72.7	3.8	1.49e+00	0	29	104	0	84	17114
2026-01-03 01:07:01.80	26.09	3.15	-59.7	-72.6	3.8	1.49e+00	0	30	104	0	84	17074
2026-01-03 01:07:02.79	26.08	3.22	-59.7	-72.6	3.8	1.49e+00	0	29	104	0	84	16972
2026-01-03 01:07:03.79	26.07	3.28	-59.7	-72.6	3.8	1.49e+00	0	30	104	0	84	16999
2026-01-03 01:07:04.77	26.06	3.35	-59.7	-72.7	3.8	1.49e+00	0	30	104	0	84	17101
2026-01-03 01:07:05.77	26.05	3.41	-59.7	-72.7	3.8	1.49e+00	0	29	104	0	84	17261
2026-01-03 01:07:06.78	26.04	3.48	-59.7	-72.8	3.8	1.49e+00	0	30	104	0	84	17479
2026-01-03 01:07:07.77	26.04	3.55	-59.7	-73.0	3.8	1.49e+00	0	30	104	0	84	17779
2026-01-03 01:07:08.77	26.03	3.62	-59.7	-73.0	3.9	1.49e+00	0	30	104	0	84	17863
2026-01-03 01:07:09.76	26.02	3.68	-59.7	-72.9	3.8	1.49e+00	0	30	104	0	84	17666
2026-01-03 01:07:10.76	26.01	3.75	-59.7	-72.5	3.8	1.49e+00	0	30	104	0	84	16815
2026-01-03 01:07:11.75	26.00	3.82	-59.6	-71.7	3.8	1.49e+00	0	30	104	0	84	15262
2026-01-03 01:07:12.75	25.99	3.89	-59.5	-69.9	4.1	1.48e+00	0	30	104	0	84	12385
2026-01-03 01:07:13.74	25.98	3.95	-59.3	-68.7	4.0	1.34e+00	2	30	104	0	84	10824
2026-01-03 01:07:14.74	25.97	4.02	-59.0	-66.2	5.6	5.18e-01	0	30	0	1048576	84	8170
2026-01-03 01:07:15.75	25.96	4.09	-58.7	-64.7	6.7	2.00e-01	0	30	0	4194304	84	6870
2026-01-03 01:07:16.74	25.95	4.16	-58.1	-63.3	7.8	6.74e-02	0	30	0	7340032	82	6516
2026-01-03 01:07:17.74	25.94	4.23	-57.9	-62.5	8.5	2.44e-02	0	30	0	10485760	82	5956
2026-01-03 01:07:18.73	25.94	4.30	-57.6	-61.8	9.1	1.33e-02	0	30	0	13631488	81	5795
2026-01-03 01:07:19.72	25.93	4.36	-57.4	-61.4	9.4	6.39e-03	0	30	0	16777216	81	5539
2026-01-03 01:07:20.72	25.92	4.43	-57.2	-60.9	9.8	2.98e-03	0	30	0	19922944	81	5270
2026-01-03 01:07:21.72	25.91	4.50	-57.0	-60.5	10.2	1.43e-03	0	30	0	23068672	80	5321
2026-01-03 01:07:22.72	25.90	4.57	-56.7	-59.8	10.7	5.10e-04	0	30	0	26214400	80	4921
2026-01-03 01:07:23.71	25.89	4.64	-56.7	-59.8	10.8	3.98e-04	0	30	0	29360128	79	5164
2026-01-03 01:07:24.71	25.88	4.71	-56.7	-59.9	10.7	4.68e-04	0	30	0	32505856	79	5229
2026-01-03 01:07:25.70	25.87	4.78	-56.8	-60.1	10.5	6.42e-04	0	30	0	35651584	79	5377
2026-01-03 01:07:26.70	25.86	4.85	-57.0	-60.4	10.2	1.20e-03	0	30	0	38797312	79	5574
2026-01-03 01:07:27.69	25.85	4.92	-57.1	-60.6	10.1	1.68e-03	0	30	0	41943040	79	5689
2026-01-03 01:07:28.69	25.84	4.99	-57.2	-60.9	9.8	2.54e-03	0	30	0	45088768	79	5892
2026-01-03 01:07:29.68	25.83	5.06	-58.0	-62.4	8.9	9.96e-04	0	30	0	48234496	81	6230
2026-01-03 01:07:30.68	25.82	5.14	-55.0	-56.9	12.9	2.22e-04	0	30	0	51380224	76	4428
2026-01-03 01:07:31.68	25.81	5.21	-58.3	-63.6	7.7	4.69e-03	0	30	0	54525952	81	7180
2026-01-03 01:07:32.67	25.80	5.28	-55.2	-57.1	12.8	3.26e-03	0	30	0	57671680	77	4261
2026-01-03 01:07:33.67	25.79	5.35	-57.8	-62.4	8.8	0.00e+00	0	30	0	60817408	80	6587
2026-01-03 01:07:34.67	25.78	5.42	-54.5	-56.3	13.3	7.80e-02	0	30	0	63963136	75	4348
2026-01-03 01:07:35.68	25.77	5.49	-53.9	-55.4	13.8	0.00e+00	0	30	0	67108864	74	4176
2026-01-03 01:07:36.68	25.76	5.57	-53.7	-55.1	13.9	0.00e+00	0	30	0	70254592	74	4050
2026-01-03 01:07:37.67	25.74	5.64	-53.6	-55.0	14.0	0.00e+00	0	30	0	73400320	73	4203
2026-01-03 01:07:38.67	25.73	5.71	-53.6	-55.0	14.0	0.00e+00	0	30	0	76546048	73	4230
2026-01-03 01:07:39.66	25.72	5.78	-53.6	-55.0	14.0	0.00e+00	0	30	0	79691776	73	4238
2026-01-03 01:07:40.66	25.71	5.86	-53.6	-54.9	14.0	0.00e+00	0	30	0	82837504	73	4188
2026-01-03 01:07:41.65	25.70	5.93	-53.6	-55.0	14.0	0.00e+00	0	30	0	85983232	73	4202
2026-01-03 01:07:42.66	25.69	6.00	-53.6	-54.9	14.1	0.00e+00	0	30	0	89128960	73	4192
2026-01-03 01:07:43.67	25.68	6.08	-53.5	-54.8	14.1	0.00e+00	0	30	0	92274688	73	4122
2026-01-03 01:07:44.67	25.67	6.15	-53.6	-54.9	14.1	0.00e+00	0	30	0	95420416	73	4175
2026-01-03 01:07:45.67	25.66	6.23	-53.5	-54.8	14.1	0.00e+00	0	30	0	98566144	73	4122
2026-01-03 01:07:46.67	25.64	6.30	-53.3	-54.6	14.2	0.00e+00	0	30	0	101711872	73	4046
2026-01-03 01:07:47.66	25.63	6.38	-53.3	-54.6	14.2	0.00e+00	0	30	0	103809024	73	4041
2026-01-03 01:07:48.66	25.62	6.45	-53.3	-54.6	14.2	0.00e+00	0	30	0	106954752	73	4043
2026-01-03 01:07:49.66	25.61	6.53	-53.3	-54.6	14.2	0.00e+00	0	30	0	110100480	73	4044
2026-01-03 01:07:50.66	25.60	6.60	-53.3	-54.6	14.3	0.00e+00	0	30	0	113246208	73	4007
2026-01-03 01:07:51.66	25.59	6.68	-53.4	-54.6	14.3	0.00e+00	0	30	0	116391936	73	4047
2026-01-03 01:07:52.67	25.57	6.75	-53.3	-54.6	14.3	0.00e+00	0	30	0	119537664	73	4036
2026-01-03 01:07:53.67	25.56	6.83	-53.3	-54.6	14.3	0.00e+00	0	30	0	122683392	73	4032
2026-01-03 01:07:54.66	25.55	6.90	-53.3	-54.5	14.4	0.00e+00	0	30	0	125829120	73	3984
2026-01-03 01:07:55.66	25.54	6.98	-53.3	-54.5	14.3	0.00e+00	0	30	0	128974848	73	3995
2026-01-03 01:07:56.66	25.53	7.06	-53.3	-54.5	14.3	0.00e+00	0	30	0	132120576	73	3996
2026-01-03 01:07:57.66	25.51	7.13	-53.2	-54.4	14.4	0.00e+00	0	30	0	135266304	72	4158
2026-01-03 01:07:58.66	25.50	7.21	-53.2	-54.5	14.3	0.00e+00	0	31	0	138412032	72	4215
2026-01-03 01:07:59.66	25.49	7.29	-53.2	-54.5	14.3	0.00e+00	0	31	0	141557760	72	4205
2026-01-03 01:08:00.65	25.48	7.36	-53.2	-54.4	14.4	0.00e+00	0	30	0	144703488	72	4186
2026-01-03 01:08:01.65	25.46	7.44	-53.0	-54.2	14.5	0.00e+00	0	30	0	147849216	72	4094
2026-01-03 01:08:02.65	25.45	7.52	-53.0	-54.1	14.5	0.00e+00	0	30	0	150994944	72	4048
2026-01-03 01:08:03.65	25.44	7.60	-52.9	-54.1	14.5	0.00e+00	0	31	0	154140672	72	4034
2026-01-03 01:08:04.65	25.42	7.68	-52.9	-54.1	14.5	0.00e+00	0	30	0	157286400	72	4032
2026-01-03 01:08:05.65	25.41	7.76	-53.0	-54.2	14.5	0.00e+00	0	30	0	160432128	72	4067
2026-01-03 01:08:06.64	25.40	7.83	-53.0	-54.1	14.5	0.00e+00	0	31	0	163577856	72	4049
2026-01-03 01:08:07.63	25.39	7.91	-52.9	-54.0	14.6	0.00e+00	0	31	0	166723584	72	3999
2026-01-03 01:08:08.63	25.37	7.99	-52.9	-54.1	14.5	0.00e+00	0	30	0	169869312	72	4031
2026-01-03 01:08:09.63	25.36	8.07	-52.9	-54.1	14.5	0.00e+00	0	31	0	173015040	72	4018
2026-01-03 01:08:10.63	25.35	8.15	-52.9	-54.0	14.6	0.00e+00	0	31	0	176160768	72	3989
2026-01-03 01:08:11.64	25.33	8.23	-52.9	-54.0	14.6	0.00e+00	0	31	0	179306496	72	4000
2026-01-03 01:08:12.64	25.32	8.31	-52.8	-54.0	14.6	0.00e+00	0	30	0	182452224	72	3965
2026-01-03 01:08:13.64	25.30	8.39	-53.0	-54.2	14.5	0.00e+00	0	30	0	185597952	72	4057
2026-01-03 01:08:14.63	25.29	8.47	-52.7	-53.8	14.7	0.00e+00	0	31	0	188743680	72	3909
2026-01-03 01:08:15.64	25.28	8.56	-52.7	-53.8	14.7	0.00e+00	0	30	0	191889408	72	3886
2026-01-03 01:08:16.63	25.26	8.64	-52.7	-53.8	14.7	0.00e+00	0	30	0	195035136	71	4106
2026-01-03 01:08:17.64	25.25	8.72	-52.6	-53.7	14.7	0.00e+00	0	30	0	198180864	71	4062
2026-01-03 01:08:18.64	25.23	8.80	-52.6	-53.7	14.7	0.00e+00	0	31	0	201326592	71	4052
2026-01-03 01:08:19.63	25.22	8.88	-52.6	-53.6	14.7	0.00e+00	0	31	0	204472320	71	4051
2026-01-03 01:08:20.64	25.20	8.97	-52.6	-53.6	14.8	0.00e+00	0	31	0	207618048	71	4044
2026-01-03 01:08:21.64	25.19	9.05	-52.6	-53.6	14.8	0.00e+00	0	31	0	210763776	71	4048
2026-01-03 01:08:22.63	25.17	9.13	-52.4	-53.5	14.8	0.00e+00	0	31	0	213909504	71	3963
2026-01-03 01:08:23.63	25.16	9.22	-52.5	-53.6	14.8	0.00e+00	0	31	0	217055232	71	4014
2026-01-03 01:08:24.62	25.14	9.30	-52.5	-53.5	14.8	0.00e+00	0	31	0	220200960	71	3990
2026-01-03 01:08:25.63	25.13	9.38	-52.4	-53.4	14.9	0.00e+00	0	31	0	223346688	71	3937
2026-01-03 01:08:26.62	25.11	9.47	-52.3	-53.3	14.9	0.00e+00	0	30	0	226492416	71	3883
2026-01-03 01:08:27.62	25.10	9.55	-52.4	-53.4	14.9	0.00e+00	0	31	0	229638144	71	3937
2026-01-03 01:08:28.62	25.08	9.64	-52.3	-53.3	14.9	0.00e+00	0	31	0	232783872	71	3891
2026-01-03 01:08:29.62	25.07	9.72	-52.3	-53.3	14.9	0.00e+00	0	31	0	234881024	71	3905
2026-01-03 01:08:30.62	25.05	9.81	-52.2	-53.2	15.0	0.00e+00	0	30	0	238026752	71	3843
2026-01-03 01:08:31.63	25.04	9.89	-52.3	-53.3	14.9	0.00e+00	0	31	0	242221056	71	3874
2026-01-03 01:08:32.63	25.02	9.98	-52.2	-53.2	15.0	0.00e+00	0	31	0	245366784	71	3850
2026-01-03 01:08:33.64	25.00	10.07	-52.2	-53.2	15.0	0.00e+00	0	31	0	248512512	71	3852
2026-01-03 01:08:34.63	24.99	10.15	-52.1	-53.1	14.9	0.00e+00	0	31	0	251658240	70	4042
2026-01-03 01:08:35.63	24.97	10.24	-52.1	-53.0	15.0	0.00e+00	0	31	0	254803968	70	3997
2026-01-03 01:08:36.63	24.96	10.33	-52.1	-53.0	15.0	0.00e+00	0	31	0	256901120	70	3983
2026-01-03 01:08:37.64	24.94	10.41	-52.1	-53.1	15.0	0.00e+00	0	31	0	260046848	70	4009
2026-01-03 01:08:38.64	24.92	10.50	-52.1	-53.1	15.0	0.00e+00	0	31	0	263192576	70	4012
2026-01-03 01:08:39.64	24.91	10.59	-52.0	-53.0	15.0	0.00e+00	0	31	0	266338304	70	3966
2026-01-03 01:08:40.65	24.89	10.68	-52.1	-53.0	15.0	0.00e+00	0	31	0	269484032	70	3991
2026-01-03 01:08:41.65	24.87	10.77	-52.0	-52.9	15.0	0.00e+00	0	31	0	272629760	70	3953
2026-01-03 01:08:42.65	24.85	10.86	-51.9	-52.8	15.1	0.00e+00	0	31	0	275775488	70	3892
2026-01-03 01:08:43.65	24.84	10.95	-51.9	-52.8	15.1	0.00e+00	0	31	0	278921216	70	3898
2026-01-03 01:08:44.64	24.82	11.03	-51.9	-52.8	15.1	0.00e+00	0	31	0	282066944	70	3909
2026-01-03 01:08:45.64	24.80	11.12	-51.8	-52.7	15.1	0.00e+00	0	31	0	285212672	70	3856
2026-01-03 01:08:46.64	24.78	11.21	-51.8	-52.7	15.1	0.00e+00	0	31	0	288358400	70	3854
2026-01-03 01:08:47.64	24.77	11.31	-51.8	-52.7	15.1	0.00e+00	0	31	0	291504128	70	3862
2026-01-03 01:08:48.65	24.75	11.40	-51.7	-52.6	15.2	0.00e+00	0	31	0	294649856	70	3808
2026-01-03 01:08:49.65	24.73	11.49	-51.7	-52.6	15.2	0.00e+00	0	31	0	297795584	70	3824
2026-01-03 01:08:50.65	24.71	11.58	-51.7	-52.7	15.1	0.00e+00	0	31	0	300941312	70	3825
2026-01-03 01:08:51.65	24.69	11.67	-51.8	-52.7	15.1	0.00e+00	0	31	0	304087040	70	3866
2026-01-03 01:08:52.65	24.68	11.76	-51.8	-52.7	15.2	0.00e+00	0	31	0	307232768	70	3839
2026-01-03 01:08:53.65	24.66	11.86	-51.8	-52.7	15.2	0.00e+00	0	31	0	310378496	70	3840
2026-01-03 01:08:54.64	24.64	11.95	-51.7	-52.6	15.1	0.00e+00	0	31	0	313524224	69	4013
2026-01-03 01:08:55.65	24.62	12.04	-51.6	-52.5	15.1	0.00e+00	0	31	0	316669952	69	3983
2026-01-03 01:08:56.65	24.60	12.14	-51.6	-52.5	15.2	0.00e+00	0	31	0	319815680	69	3968
2026-01-03 01:08:57.65	24.58	12.23	-51.7	-52.6	15.1	0.00e+00	0	31	0	322961408	69	4012
2026-01-03 01:08:58.65	24.56	12.33	-51.6	-52.5	15.2	0.00e+00	0	31	0	326107136	69	3963
2026-01-03 01:08:59.65	24.54	12.42	-51.5	-52.4	15.2	0.00e+00	0	31	0	329252864	69	3944
2026-01-03 01:09:00.65	24.52	12.52	-51.6	-52.5	15.2	0.00e+00	0	31	0	332398592	69	3964
2026-01-03 01:09:01.65	24.50	12.61	-51.5	-52.4	15.2	0.00e+00	0	31	0	335544320	69	3940
2026-01-03 01:09:02.66	24.48	12.71	-51.4	-52.3	15.3	0.00e+00	0	31	0	338690048	69	3869
2026-01-03 01:09:03.67	24.46	12.81	-51.5	-52.4	15.2	0.00e+00	0	31	0	341835776	69	3915
2026-01-03 01:09:04.67	24.44	12.90	-51.4	-52.3	15.3	0.00e+00	0	31	0	344981504	69	3899
2026-01-03 01:09:05.67	24.42	13.00	-51.4	-52.2	15.3	0.00e+00	0	31	0	348127232	69	3868
2026-01-03 01:09:06.66	24.40	13.10	-51.4	-52.3	15.3	0.00e+00	0	31	0	351272960	69	3892
2026-01-03 01:09:07.67	24.38	13.19	-51.5	-52.3	15.3	0.00e+00	0	31	0	354418688	69	3910
2026-01-03 01:09:08.67	24.36	13.29	-51.4	-52.3	15.3	0.00e+00	0	31	0	357564416	69	3874
2026-01-03 01:09:09.67	24.34	13.39	-51.4	-52.2	15.3	0.00e+00	0	31	0	360710144	69	3854
2026-01-03 01:09:10.67	24.32	13.49	-51.4	-52.3	15.3	0.00e+00	0	31	0	363855872	69	3875
2026-01-03 01:09:11.68	24.29	13.59	-51.3	-52.2	15.4	0.00e+00	0	31	0	367001600	69	3844
2026-01-03 01:09:12.68	24.27	13.69	-51.4	-52.2	15.3	0.00e+00	0	31	0	370147328	69	3863
2026-01-03 01:09:13.68	24.25	13.79	-51.4	-52.2	15.3	0.00e+00	0	31	0	373293056	69	3865
2026-01-03 01:09:14.69	24.23	13.89	-51.3	-52.2	15.4	0.00e+00	0	31	0	376438784	69	3839
2026-01-03 01:09:15.69	24.21	13.99	-51.4	-52.3	15.3	0.00e+00	0	31	0	379584512	69	3880
2026-01-03 01:09:16.69	24.18	14.10	-51.5	-52.3	15.3	0.00e+00	0	31	0	382730240	69	3913
2026-01-03 01:09:17.70	24.16	14.20	-51.4	-52.2	15.3	0.00e+00	0	31	0	385875968	69	3860
2026-01-03 01:09:18.70	24.14	14.30	-51.3	-52.1	15.4	0.00e+00	0	31	0	389021696	69	3815
2026-01-03 01:09:19.70	24.12	14.40	-51.3	-52.2	15.3	0.00e+00	0	31	0	392167424	69	3839
2026-01-03 01:09:20.71	24.09	14.51	-51.4	-52.2	15.3	0.00e+00	0	31	0	395313152	69	3868
2026-01-03 01:09:21.70	24.07	14.61	-51.5	-52.4	15.3	0.00e+00	0	31	0	398458880	69	3914
2026-01-03 01:09:22.71	24.05	14.71	-51.3	-52.2	15.4	0.00e+00	0	31	0	401604608	69	3826
2026-01-03 01:09:23.71	24.02	14.82	-51.3	-52.2	15.4	0.00e+00	0	31	0	404750336	69	3837
2026-01-03 01:09:24.70	24.00	14.92	-51.3	-52.2	15.4	0.00e+00	0	31	0	407896064	69	3832
2026-01-03 01:09:25.71	23.97	15.03	-51.4	-52.2	15.3	0.00e+00	0	31	0	411041792	69	3856
2026-01-03 01:09:26.71	23.95	15.14	-51.4	-52.3	15.3	0.00e+00	0	31	0	414187520	69	3886
2026-01-03 01:09:27.72	23.92	15.24	-51.5	-52.3	15.3	0.00e+00	0	31	0	417333248	69	3900
2026-01-03 01:09:28.72	23.90	15.35	-51.3	-52.2	15.3	0.00e+00	0	31	0	420478976	69	3846
2026-01-03 01:09:29.72	23.87	15.46	-51.4	-52.3	15.3	0.00e+00	0	31	0	423624704	69	3871
2026-01-03 01:09:30.72	23.85	15.56	-51.5	-52.3	15.3	0.00e+00	0	31	0	426770432	69	3899
2026-01-03 01:09:31.72	23.82	15.67	-51.5	-52.4	15.3	0.00e+00	0	31	0	429916160	69	3916
2026-01-03 01:09:32.72	23.80	15.78	-51.4	-52.2	15.3	0.00e+00	0	31	0	433061888	69	3861
2026-01-03 01:09:33.73	23.77	15.89	-51.4	-52.3	15.3	0.00e+00	0	31	0	436207616	69	3890
2026-01-03 01:09:34.73	23.75	16.00	-51.5	-52.4	15.3	0.00e+00	0	31	0	439353344	69	3921
2026-01-03 01:09:35.73	23.72	16.11	-51.5	-52.4	15.3	0.00e+00	0	31	0	442499072	69	3943
2026-01-03 01:09:36.73	23.69	16.22	-51.5	-52.3	15.3	0.00e+00	0	31	0	445644800	69	3912
2026-01-03 01:09:37.73	23.67	16.33	-51.6	-52.4	15.3	0.00e+00	0	31	0	448790528	69	3950
2026-01-03 01:09:38.73	23.64	16.44	-51.5	-52.4	15.3	0.00e+00	0	31	0	451936256	69	3938
2026-01-03 01:09:39.72	23.61	16.56	-51.6	-52.5	15.3	0.00e+00	0	31	0	455081984	69	3959
2026-01-03 01:09:40.72	23.59	16.67	-51.5	-52.4	15.3	0.00e+00	0	31	0	458227712	69	3939
2026-01-03 01:09:41.72	23.56	16.78	-51.6	-52.5	15.2	0.00e+00	0	31	0	461373440	69	3970
2026-01-03 01:09:42.73	23.53	16.90	-51.6	-52.5	15.2	0.00e+00	0	31	0	463470592	69	3989
2026-01-03 01:09:43.73	23.50	17.01	-51.7	-52.6	15.2	0.00e+00	0	31	0	466616320	69	4045
2026-01-03 01:09:44.73	23.47	17.12	-51.7	-52.5	15.2	0.00e+00	0	31	0	469762048	69	4001
2026-01-03 01:09:45.73	23.45	17.24	-51.7	-52.6	15.2	0.00e+00	0	31	0	472907776	69	4029
2026-01-03 01:09:46.72	23.42	17.35	-51.7	-52.6	15.2	0.00e+00	0	31	0	476053504	69	4007
2026-01-03 01:09:47.73	23.39	17.47	-51.7	-52.6	15.2	0.00e+00	0	31	0	479199232	69	4047
2026-01-03 01:09:48.73	23.36	17.59	-51.8	-52.6	15.2	0.00e+00	0	31	0	482344960	69	4048
2026-01-03 01:09:49.73	23.33	17.71	-51.8	-52.6	15.2	0.00e+00	0	31	0	485490688	69	4043
2026-01-03 01:09:50.74	23.30	17.83	-51.7	-52.6	15.2	0.00e+00	0	31	0	488636416	69	4034
2026-01-03 01:09:51.74	23.27	17.94	-51.8	-52.7	15.2	0.00e+00	0	31	0	491782144	69	4063
2026-01-03 01:09:52.75	23.24	18.06	-51.8	-52.7	15.2	0.00e+00	0	31	0	494927872	69	4067
2026-01-03 01:09:53.75	23.21	18.18	-51.9	-52.8	15.1	0.00e+00	0	31	0	498073600	69	4117
2026-01-03 01:09:54.75	23.18	18.30	-51.9	-52.8	15.2	0.00e+00	0	31	0	501219328	69	4101
2026-01-03 01:09:55.75	23.15	18.42	-51.8	-52.7	15.2	0.00e+00	0	31	0	504365056	69	4056
2026-01-03 01:09:56.75	23.11	18.55	-51.8	-52.7	15.2	0.00e+00	0	31	0	507510784	69	4096
2026-01-03 01:09:57.75	23.08	18.67	-51.7	-52.6	15.2	0.00e+00	0	31	0	510656512	69	4029
2026-01-03 01:09:58.75	23.05	18.79	-51.7	-52.6	15.2	0.00e+00	0	31	0	513802240	69	4029
2026-01-03 01:09:59.75	23.02	18.91	-51.7	-52.6	15.2	0.00e+00	0	31	0	516947968	69	4035
2026-01-03 01:10:00.75	22.98	19.04	-51.7	-52.5	15.2	0.00e+00	0	31	0	520093696	69	4000
2026-01-03 01:10:01.76	22.95	19.16	-51.6	-52.5	15.3	0.00e+00	0	31	0	523239424	69	3979
2026-01-03 01:10:02.76	22.92	19.29	-51.7	-52.5	15.2	0.00e+00	0	31	0	526385152	69	4002
2026-01-03 01:10:03.77	22.88	19.41	-51.6	-52.5	15.2	0.00e+00	0	31	0	529530880	69	3977
2026-01-03 01:10:04.77	22.85	19.54	-51.7	-52.5	15.2	0.00e+00	0	31	0	532676608	69	3999
2026-01-03 01:10:05.78	22.82	19.67	-51.6	-52.5	15.3	0.00e+00	0	31	0	535822336	69	3959
2026-01-03 01:10:06.78	22.78	19.80	-51.6	-52.4	15.3	0.00e+00	0	31	0	538968064	69	3949
2026-01-03 01:10:07.78	22.75	19.92	-51.6	-52.4	15.3	0.00e+00	0	31	0	542113792	69	3942
2026-01-03 01:10:08.78	22.71	20.05	-51.4	-52.3	15.4	0.00e+00	0	31	0	545259520	69	3878
2026-01-03 01:10:09.79	22.68	20.18	-51.4	-52.2	15.4	0.00e+00	0	31	0	548405248	69	3863
2026-01-03 01:10:10.80	22.64	20.32	-51.4	-52.2	15.4	0.00e+00	0	31	0	551550976	69	3854
2026-01-03 01:10:11.79	22.60	20.45	-51.3	-52.2	15.4	0.00e+00	0	31	0	554696704	69	3840
2026-01-03 01:10:12.80	22.57	20.58	-51.3	-52.1	15.4	0.00e+00	0	31	0	557842432	69	3809
2026-01-03 01:10:13.80	22.53	20.71	-51.2	-52.0	15.4	0.00e+00	0	31	0	560988160	69	3778
2026-01-03 01:10:14.80	22.49	20.84	-51.2	-52.0	15.4	0.00e+00	0	31	0	564133888	68	3963
2026-01-03 01:10:15.81	22.45	20.98	-51.0	-51.8	15.4	0.00e+00	0	31	0	567279616	68	3905
2026-01-03 01:10:16.81	22.42	21.11	-51.0	-51.8	15.5	0.00e+00	0	31	0	570425344	68	3894
2026-01-03 01:10:17.81	22.38	21.25	-51.0	-51.8	15.5	0.00e+00	0	31	0	573571072	68	3890
2026-01-03 01:10:18.81	22.34	21.38	-51.0	-51.8	15.5	0.00e+00	0	31	0	576716800	68	3884
2026-01-03 01:10:19.82	22.30	21.52	-50.8	-51.6	15.6	0.00e+00	0	31	0	579862528	68	3783
2026-01-03 01:10:20.83	22.26	21.66	-50.5	-51.3	15.6	0.00e+00	0	31	0	583008256	67	3869
2026-01-03 01:10:21.83	22.22	21.80	-50.4	-51.2	15.6	0.00e+00	0	31	0	586153984	67	3840
2026-01-03 01:10:22.84	22.18	21.94	-50.4	-51.2	15.6	0.00e+00	0	31	0	589299712	67	3842
2026-01-03 01:10:23.84	22.14	22.08	-50.3	-51.0	15.6	0.00e+00	0	31	0	592445440	67	3776
2026-01-03 01:10:24.84	22.10	22.22	-50.3	-51.1	15.6	0.00e+00	0	31	0	595591168	67	3786
2026-01-03 01:10:25.84	22.06	22.36	-50.2	-50.9	15.7	0.00e+00	0	31	0	598736896	67	3720
2026-01-03 01:10:26.84	22.02	22.50	-50.2	-50.9	15.6	0.00e+00	0	31	0	601882624	66	3927
2026-01-03 01:10:27.84	21.97	22.64	-50.2	-50.9	15.6	0.00e+00	0	31	0	605028352	66	3948
2026-01-03 01:10:28.85	21.93	22.79	-50.2	-50.9	15.7	0.00e+00	0	31	0	608174080	66	3928
2026-01-03 01:10:29.86	21.89	22.93	-50.1	-50.8	15.7	0.00e+00	0	31	0	611319808	66	3877
2026-01-03 01:10:30.86	21.84	23.08	-50.1	-50.8	15.7	0.00e+00	0	31	0	614465536	66	3877
2026-01-03 01:10:31.87	21.80	23.22	-50.1	-50.8	15.7	0.00e+00	0	31	0	617611264	66	3881
2026-01-03 01:10:32.88	21.75	23.37	-50.1	-50.7	15.7	0.00e+00	0	31	0	620756992	66	3867
2026-01-03 01:10:33.89	21.71	23.52	-50.0	-50.6	15.7	0.00e+00	0	31	0	623902720	66	3821
2026-01-03 01:10:34.90	21.66	23.67	-49.9	-50.6	15.7	0.00e+00	0	31	0	627048448	66	3811
2026-01-03 01:10:35.91	21.62	23.82	-50.0	-50.6	15.7	0.00e+00	0	31	0	630194176	66	3824
2026-01-03 01:10:36.90	21.57	23.97	-50.0	-50.6	15.7	0.00e+00	0	31	0	633339904	66	3823
2026-01-03 01:10:37.91	21.52	24.12	-49.9	-50.6	15.7	0.00e+00	0	31	0	636485632	66	3806
2026-01-03 01:10:38.92	21.47	24.27	-49.9	-50.6	15.7	0.00e+00	0	31	0	639631360	66	3814
2026-01-03 01:10:39.92	21.43	24.42	-50.0	-50.7	15.7	0.00e+00	0	31	0	642777088	66	3828
2026-01-03 01:10:40.92	21.38	24.58	-50.0	-50.7	15.7	0.00e+00	0	31	0	645922816	66	3846
2026-01-03 01:10:41.93	21.33	24.73	-50.1	-50.8	15.7	0.00e+00	0	31	0	649068544	66	3876
2026-01-03 01:10:42.94	21.28	24.89	-50.2	-50.9	15.7	0.00e+00	0	31	0	652214272	66	3934
2026-01-03 01:10:43.94	21.23	25.04	-50.3	-51.0	15.6	0.00e+00	0	31	0	655360000	66	3998
2026-01-03 01:10:44.94	21.18	25.20	-50.4	-51.1	15.6	0.00e+00	0	31	0	658505728	66	4023
2026-01-03 01:10:45.95	21.13	25.36	-50.4	-51.2	15.5	0.00e+00	0	31	0	661651456	66	4061
2026-01-03 01:10:46.95	21.08	25.52	-50.5	-51.3	15.5	0.00e+00	0	31	0	664797184	66	4100
2026-01-03 01:10:47.95	21.02	25.68	-50.6	-51.4	15.5	0.00e+00	0	31	0	667942912	66	4159
2026-01-03 01:10:48.96	20.97	25.84	-50.7	-51.5	15.4	0.00e+00	0	31	0	671088640	66	4214
2026-01-03 01:10:49.96	20.92	26.00	-50.8	-51.6	15.4	0.00e+00	0	31	0	674234368	66	4270
2026-01-03 01:10:50.96	20.86	26.16	-50.9	-51.7	15.4	0.00e+00	0	31	0	677380096	67	4073
2026-01-03 01:10:51.97	20.81	26.33	-51.0	-51.8	15.4	0.00e+00	0	31	0	680525824	67	4121
2026-01-03 01:10:52.97	20.75	26.49	-51.1	-51.9	15.4	0.00e+00	0	31	0	683671552	67	4159
2026-01-03 01:10:53.97	20.70	26.66	-51.2	-52.0	15.3	0.00e+00	0	31	0	686817280	67	4211
2026-01-03 01:10:54.97	20.64	26.82	-51.2	-52.0	15.3	0.00e+00	0	31	0	689963008	67	4211
2026-01-03 01:10:55.97	20.59	26.99	-51.3	-52.1	15.3	0.00e+00	0	31	0	693108736	67	4270
2026-01-03 01:10:56.97	20.53	27.16	-51.4	-52.2	15.3	0.00e+00	0	31	0	696254464	67	4310
2026-01-03 01:10:57.98	20.47	27.33	-51.6	-52.4	15.3	0.00e+00	0	31	0	699400192	68	4166
2026-01-03 01:10:58.99	20.41	27.50	-51.7	-52.5	15.3	0.00e+00	0	31	0	702545920	68	4237
2026-01-03 01:10:59.99	20.35	27.67	-51.8	-52.6	15.2	0.00e+00	0	31	0	705691648	68	4281
2026-01-03 01:11:01.00	20.29	27.85	-51.9	-52.7	15.3	0.00e+00	0	31	0	708837376	69	4080
2026-01-03 01:11:02.01	20.23	28.02	-51.9	-52.8	15.2	0.00e+00	0	31	0	711983104	69	4121
2026-01-03 01:11:03.01	20.17	28.20	-51.9	-52.8	15.2	0.00e+00	0	31	0	715128832	69	4114
2026-01-03 01:11:04.02	20.10	28.37	-51.9	-52.8	15.2	0.00e+00	0	31	0	718274560	69	4122
2026-01-03 01:11:05.02	20.04	28.55	-51.9	-52.8	15.2	0.00e+00	0	31	0	721420288	69	4113
2026-01-03 01:11:06.02	19.98	28.73	-51.9	-52.8	15.2	0.00e+00	0	31	0	724566016	69	4099
2026-01-03 01:11:07.03	19.91	28.91	-51.8	-52.7	15.2	0.00e+00	0	31	0	727711744	69	4075
2026-01-03 01:11:08.03	19.85	29.09	-51.9	-52.7	15.2	0.00e+00	0	31	0	730857472	69	4076
2026-01-03 01:11:09.04	19.78	29.27	-51.9	-52.7	15.2	0.00e+00	0	31	0	734003200	69	4098
2026-01-03 01:11:10.04	19.71	29.45	-51.8	-52.7	15.2	0.00e+00	0	31	0	737148928	69	4060
2026-01-03 01:11:11.04	19.64	29.64	-51.7	-52.5	15.3	0.00e+00	0	31	0	740294656	69	3983
2026-01-03 01:11:12.04	19.58	29.82	-51.4	-52.2	15.4	0.00e+00	0	31	0	743440384	69	3855
2026-01-03 01:11:13.04	19.51	30.01	-51.4	-52.2	15.4	0.00e+00	0	31	0	746586112	69	3863
2026-01-03 01:11:14.05	19.43	30.19	-51.3	-52.2	15.4	0.00e+00	0	31	0	749731840	69	3826
2026-01-03 01:11:15.06	19.36	30.38	-51.3	-52.1	15.5	0.00e+00	0	31	0	752877568	69	3807
2026-01-03 01:11:16.07	19.29	30.57	-51.3	-52.1	15.5	0.00e+00	0	31	0	756023296	69	3811
2026-01-03 01:11:17.08	19.22	30.77	-51.1	-51.9	15.4	0.00e+00	0	31	0	759169024	68	3957
2026-01-03 01:11:18.09	19.14	30.96	-51.2	-52.0	15.4	0.00e+00	0	31	0	762314752	68	3980
2026-01-03 01:11:19.09	19.07	31.15	-51.1	-51.9	15.4	0.00e+00	0	31	0	765460480	68	3931
2026-01-03 01:11:20.09	18.99	31.35	-51.1	-51.9	15.4	0.00e+00	0	31	0	768606208	68	3954
2026-01-03 01:11:21.09	18.91	31.54	-51.1	-51.8	15.5	0.00e+00	0	31	0	771751936	68	3910
2026-01-03 01:11:22.10	18.84	31.74	-51.2	-51.9	15.5	0.00e+00	0	31	0	774897664	68	3954
2026-01-03 01:11:23.11	18.76	31.94	-51.2	-51.9	15.5	0.00e+00	0	31	0	778043392	68	3954
2026-01-03 01:11:24.11	18.68	32.14	-51.2	-52.0	15.4	0.00e+00	0	31	0	781189120	68	3979
2026-01-03 01:11:25.11	18.60	32.34	-51.3	-52.1	15.4	0.00e+00	0	31	0	784334848	68	4028
2026-01-03 01:11:26.12	18.51	32.54	-51.4	-52.2	15.4	0.00e+00	0	31	0	787480576	68	4063
2026-01-03 01:11:27.13	18.43	32.75	-51.5	-52.4	15.3	0.00e+00	0	31	0	790626304	68	4148
2026-01-03 01:11:28.13	18.35	32.95	-51.7	-52.5	15.3	0.00e+00	0	31	0	793772032	68	4227
2026-01-03 01:11:29.14	18.26	33.16	-51.8	-52.6	15.2	0.00e+00	0	31	0	796917760	68	4287
2026-01-03 01:11:30.14	18.17	33.36	-51.8	-52.7	15.2	0.00e+00	0	31	0	800063488	68	4311
2026-01-03 01:11:31.14	18.09	33.57	-51.8	-52.6	15.2	0.00e+00	0	31	0	803209216	68	4286
2026-01-03 01:11:32.14	18.00	33.78	-52.0	-52.8	15.2	0.00e+00	0	31	0	806354944	69	4143
2026-01-03 01:11:33.15	17.91	33.99	-51.9	-52.8	15.2	0.00e+00	0	31	0	809500672	69	4121
2026-01-03 01:11:34.16	17.82	34.21	-52.1	-52.9	15.1	0.00e+00	0	31	0	811597824	69	4189
2026-01-03 01:11:35.16	17.72	34.42	-52.1	-52.9	15.2	0.00e+00	0	31	0	814743552	69	4182
2026-01-03 01:11:36.17	17.63	34.64	-52.1	-53.0	15.2	0.00e+00	0	31	0	817889280	69	4207
2026-01-03 01:11:37.17	17.53	34.85	-52.2	-53.0	15.2	0.00e+00	0	31	0	822083584	69	4241
2026-01-03 01:11:38.18	17.44	35.07	-52.1	-53.0	15.1	0.00e+00	0	31	0	825229312	69	4228
2026-01-03 01:11:39.18	17.34	35.29	-52.2	-53.1	15.1	0.00e+00	0	31	0	828375040	69	4269
2026-01-03 01:11:40.19	17.24	35.52	-52.2	-53.1	15.1	0.00e+00	0	31	0	831520768	69	4248
2026-01-03 01:11:41.20	17.14	35.74	-52.4	-53.3	15.0	0.00e+00	0	31	0	834666496	69	4346
2026-01-03 01:11:42.21	17.04	35.97	-52.3	-53.2	15.1	0.00e+00	0	31	0	836763648	69	4305
2026-01-03 01:11:43.21	16.93	36.19	-52.3	-53.2	15.1	0.00e+00	0	31	0	839909376	69	4338
2026-01-03 01:11:44.22	16.83	36.42	-52.4	-53.3	15.1	0.00e+00	0	31	0	843055104	70	4134
2026-01-03 01:11:45.22	16.72	36.65	-52.7	-53.6	15.0	0.00e+00	0	31	0	847249408	70	4277
2026-01-03 01:11:46.23	16.61	36.88	-52.8	-53.8	14.9	0.00e+00	0	31	0	850395136	70	4353
2026-01-03 01:11:47.23	16.50	37.11	-52.9	-53.8	14.9	0.00e+00	0	31	0	853540864	70	4385
2026-01-03 01:11:48.23	16.39	37.34	-52.8	-53.8	15.0	0.00e+00	0	31	0	856686592	71	4122
2026-01-03 01:11:49.24	16.28	37.58	-52.9	-53.9	15.0	0.00e+00	0	31	0	858783744	71	4146
2026-01-03 01:11:50.24	16.16	37.81	-52.7	-53.7	15.0	0.00e+00	0	31	0	861929472	71	4052
2026-01-03 01:11:51.24	16.05	38.05	-52.7	-53.6	15.0	0.00e+00	0	31	0	865075200	71	4028
2026-01-03 01:11:52.24	15.93	38.29	-52.6	-53.5	15.1	0.00e+00	0	31	0	868220928	71	3969
2026-01-03 01:11:53.25	15.81	38.53	-52.6	-53.5	15.1	0.00e+00	0	31	0	871366656	71	3979
2026-01-03 01:11:54.25	15.69	38.77	-52.6	-53.5	15.1	0.00e+00	0	31	0	874512384	71	3982
2026-01-03 01:11:55.26	15.56	39.02	-52.7	-53.7	15.0	0.00e+00	0	31	0	877658112	71	4057
2026-01-03 01:11:56.27	15.44	39.27	-52.9	-53.9	15.0	0.00e+00	0	31	0	880803840	71	4155
2026-01-03 01:11:57.27	15.31	39.51	-52.9	-53.9	15.0	0.00e+00	0	31	0	883949568	71	4184
2026-01-03 01:11:58.28	15.18	39.76	-52.9	-53.9	15.0	0.00e+00	0	31	0	887095296	71	4179
2026-01-03 01:11:59.29	15.04	40.01	-53.0	-54.0	15.0	0.00e+00	0	31	0	890241024	71	4199
2026-01-03 01:12:00.29	14.91	40.26	-53.1	-54.1	14.9	0.00e+00	0	31	0	893386752	71	4265
2026-01-03 01:12:01.29	14.78	40.52	-53.1	-54.2	14.9	0.00e+00	0	31	0	896532480	71	4303
2026-01-03 01:12:02.30	14.64	40.77	-53.3	-54.4	14.8	0.00e+00	0	31	0	899678208	71	4396
2026-01-03 01:12:03.31	14.50	41.03	-53.6	-54.7	14.6	0.00e+00	0	31	0	902823936	72	4317
2026-01-03 01:12:04.31	14.35	41.29	-53.9	-55.1	14.5	0.00e+00	0	31	0	905969664	73	4255
2026-01-03 01:12:05.32	14.21	41.55	-54.1	-55.2	14.4	0.00e+00	0	31	0	909115392	73	4340
2026-01-03 01:12:06.32	14.06	41.81	-54.2	-55.5	14.4	0.00e+00	0	31	0	912261120	73	4445
2026-01-03 01:12:07.32	13.91	42.08	-54.3	-55.6	14.3	0.00e+00	0	31	0	915406848	73	4511
2026-01-03 01:12:08.33	13.76	42.34	-54.3	-55.5	14.3	0.00e+00	0	31	0	918552576	73	4482
2026-01-03 01:12:09.33	13.60	42.61	-54.1	-55.3	14.5	0.00e+00	0	31	0	921698304	73	4368
2026-01-03 01:12:10.33	13.44	42.88	-54.0	-55.2	14.5	0.00e+00	0	31	0	924844032	73	4326
2026-01-03 01:12:11.34	13.28	43.15	-54.0	-55.1	14.5	0.00e+00	0	31	0	927989760	73	4274
2026-01-03 01:12:12.34	13.12	43.42	-53.7	-54.8	14.7	0.00e+00	0	31	0	931135488	73	4102
2026-01-03 01:12:13.35	12.95	43.69	-53.7	-54.8	14.7	0.00e+00	0	31	0	934281216	73	4105
2026-01-03 01:12:14.36	12.78	43.97	-53.9	-55.1	14.6	0.00e+00	0	31	0	937426944	73	4263
2026-01-03 01:12:15.36	12.61	44.25	-53.9	-55.0	14.6	0.00e+00	0	31	0	940572672	73	4208
2026-01-03 01:12:16.37	12.43	44.53	-53.9	-55.0	14.6	0.00e+00	0	31	0	943718400	73	4235
2026-01-03 01:12:17.38	12.25	44.81	-53.9	-55.0	14.6	0.00e+00	0	31	0	946864128	73	4236
2026-01-03 01:12:18.39	12.07	45.09	-53.8	-54.8	14.7	0.00e+00	0	31	0	950009856	73	4141
2026-01-03 01:12:19.39	11.88	45.38	-53.9	-55.0	14.6	0.00e+00	0	31	0	953155584	73	4224
2026-01-03 01:12:20.40	11.69	45.66	-53.7	-54.7	14.7	0.00e+00	0	31	0	956301312	73	4095
2026-01-03 01:12:21.40	11.50	45.95	-53.7	-54.7	14.7	0.00e+00	0	31	0	959447040	73	4087
2026-01-03 01:12:22.40	11.31	46.24	-53.6	-54.7	14.7	0.00e+00	0	31	0	962592768	73	4078
2026-01-03 01:12:23.41	11.11	46.53	-53.3	-54.3	14.9	0.00e+00	0	31	0	965738496	73	3899
2026-01-03 01:12:24.41	10.90	46.82	-53.0	-54.0	15.0	0.00e+00	0	31	0	968884224	72	3980
2026-01-03 01:12:25.41	10.70	47.11	-52.7	-53.6	15.2	0.00e+00	0	31	0	972029952	72	3797
2026-01-03 01:12:26.42	10.48	47.41	-52.6	-53.5	15.1	0.00e+00	0	31	0	975175680	71	3981
2026-01-03 01:12:27.42	10.27	47.70	-52.6	-53.5	15.2	0.00e+00	0	31	0	978321408	71	3965
2026-01-03 01:12:28.43	10.05	48.00	-52.6	-53.5	15.2	0.00e+00	0	31	0	981467136	71	3973
2026-01-03 01:12:29.43	9.83	48.30	-52.6	-53.5	15.1	0.00e+00	0	31	0	984612864	71	3997
2026-01-03 01:12:30.44	9.60	48.61	-52.7	-53.6	15.1	0.00e+00	0	31	0	987758592	71	4014
2026-01-03 01:12:31.45	9.36	48.91	-52.5	-53.4	15.2	0.00e+00	0	31	0	990904320	71	3924
2026-01-03 01:12:32.45	9.12	49.22	-52.6	-53.6	15.1	0.00e+00	0	31	0	994050048	71	4008
2026-01-03 01:12:33.45	8.88	49.52	-52.6	-53.6	15.1	0.00e+00	0	31	0	997195776	71	4009
2026-01-03 01:12:34.45	8.63	49.83	-52.6	-53.5	15.1	0.00e+00	0	31	0	1000341504	71	3996
2026-01-03 01:12:35.45	8.38	50.14	-52.7	-53.6	15.1	0.00e+00	0	31	0	1003487232	71	4045
2026-01-03 01:12:36.46	8.12	50.45	-52.9	-53.9	15.0	0.00e+00	0	31	0	1006632960	71	4155
2026-01-03 01:12:37.46	7.86	50.76	-53.1	-54.1	14.9	0.00e+00	0	31	0	1009778688	71	4276
2026-01-03 01:12:38.47	7.59	51.08	-53.2	-54.3	14.8	0.00e+00	0	31	0	1012924416	71	4357
2026-01-03 01:12:39.48	7.31	51.39	-53.2	-54.3	14.8	0.00e+00	0	31	0	1016070144	71	4350
2026-01-03 01:12:40.48	7.03	51.71	-53.2	-54.3	14.8	0.00e+00	0	31	0	1019215872	71	4352
2026-01-03 01:12:41.49	6.74	52.03	-53.3	-54.4	14.8	0.00e+00	0	31	0	1022361600	71	4400
2026-01-03 01:12:42.49	6.45	52.35	-53.2	-54.2	14.8	0.00e+00	0	31	0	1025507328	71	4320
2026-01-03 01:12:43.49	6.15	52.66	-53.2	-54.3	14.8	0.00e+00	0	31	0	1028653056	71	4341
2026-01-03 01:12:44.49	5.85	52.99	-53.0	-54.0	14.9	0.00e+00	0	31	0	1031798784	71	4205
2026-01-03 01:12:45.50	5.53	53.31	-52.6	-53.5	15.1	0.00e+00	0	31	0	1034944512	71	4003
2026-01-03 01:12:46.50	5.21	53.63	-52.3	-53.1	15.3	0.00e+00	0	31	0	1038090240	71	3818
2026-01-03 01:12:47.50	4.88	53.96	-52.1	-52.9	15.3	0.00e+00	0	31	0	1041235968	70	3952
2026-01-03 01:12:48.51	4.55	54.29	-51.8	-52.6	15.4	0.00e+00	0	31	0	1044381696	70	3811
2026-01-03 01:12:49.51	4.20	54.61	-51.8	-52.6	15.4	0.00e+00	0	31	0	1047527424	70	3810
2026-01-03 01:12:50.51	3.85	54.94	-51.7	-52.5	15.4	0.00e+00	0	31	0	1050673152	70	3773
2026-01-03 01:12:51.52	3.49	55.27	-51.7	-52.5	15.4	0.00e+00	0	31	0	1053818880	69	3976
2026-01-03 01:12:52.52	3.12	55.60	-51.4	-52.2	15.5	0.00e+00	0	31	0	1056964608	69	3847
2026-01-03 01:12:53.53	2.74	55.93	-51.2	-51.9	15.6	0.00e+00	0	31	0	1060110336	68	3946
2026-01-03 01:12:54.54	2.35	56.27	-51.0	-51.7	15.6	0.00e+00	0	31	0	1063256064	68	3851
2026-01-03 01:12:55.54	1.96	56.60	-51.0	-51.7	15.6	0.00e+00	0	31	0	1066401792	68	3827
2026-01-03 01:12:56.54	1.56	56.93	-50.7	-51.4	15.7	0.00e+00	0	31	0	1069547520	68	3733
2026-01-03 01:12:57.55	1.14	57.27	-50.9	-51.7	15.6	0.00e+00	0	31	0	1072693248	68	3830
2026-01-03 01:12:58.55	0.71	57.60	-51.1	-51.9	15.6	0.00e+00	0	31	0	1075838976	68	3930
2026-01-03 01:12:59.56	0.27	57.94	-51.2	-51.9	15.5	0.00e+00	0	31	0	1078984704	68	3940
2026-01-03 01:13:00.56	359.83	58.27	-51.2	-51.9	15.5	0.00e+00	0	31	0	1082130432	68	3947
2026-01-03 01:13:01.56	359.37	58.60	-51.3	-52.1	15.5	0.00e+00	0	31	0	1085276160	68	4008
2026-01-03 01:13:02.56	358.90	58.94	-51.1	-51.8	15.5	0.00e+00	0	31	0	1088421888	68	3895
2026-01-03 01:13:03.57	358.41	59.27	-50.9	-51.6	15.6	0.00e+00	0	31	0	1091567616	68	3795
2026-01-03 01:13:04.57	357.92	59.61	-51.1	-51.8	15.5	0.00e+00	0	31	0	1094713344	68	3883
2026-01-03 01:13:05.58	357.40	59.95	-51.1	-51.8	15.5	0.00e+00	0	31	0	1097859072	68	3904
2026-01-03 01:13:06.58	356.88	60.28	-51.1	-51.9	15.5	0.00e+00	0	31	0	1101004800	68	3923
2026-01-03 01:13:07.59	356.34	60.61	-51.1	-51.9	15.5	0.00e+00	0	31	0	1104150528	68	3933
2026-01-03 01:13:08.60	355.79	60.95	-51.1	-51.8	15.6	0.00e+00	0	31	0	1107296256	68	3899
2026-01-03 01:13:09.60	355.22	61.28	-51.0	-51.7	15.6	0.00e+00	0	31	0	1110441984	68	3842
2026-01-03 01:13:10.61	354.64	61.62	-50.7	-51.4	15.7	0.00e+00	0	31	0	1113587712	68	3734
2026-01-03 01:13:11.62	354.03	61.95	-50.3	-51.0	15.8	0.00e+00	0	31	0	1116733440	67	3746
2026-01-03 01:13:12.63	353.42	62.28	-50.3	-51.0	15.7	0.00e+00	0	31	0	1119879168	67	3756
2026-01-03 01:13:13.63	352.79	62.61	-50.2	-50.9	15.8	0.00e+00	0	31	0	1123024896	67	3718
2026-01-03 01:13:14.64	352.13	62.94	-50.3	-51.0	15.7	0.00e+00	0	31	0	1126170624	67	3763
2026-01-03 01:13:15.65	351.46	63.26	-50.1	-50.7	15.7	0.00e+00	0	31	0	1129316352	66	3862
2026-01-03 01:13:16.65	350.78	63.59	-49.9	-50.6	15.8	0.00e+00	0	31	0	1132462080	66	3791
2026-01-03 01:13:17.66	350.07	63.91	-50.0	-50.7	15.8	0.00e+00	0	31	0	1135607808	66	3846
2026-01-03 01:13:18.66	349.35	64.23	-50.1	-50.8	15.8	0.00e+00	0	31	0	1138753536	66	3884
2026-01-03 01:13:19.66	348.60	64.54	-49.9	-50.6	15.8	0.00e+00	0	31	0	1141899264	66	3792
2026-01-03 01:13:20.67	347.83	64.86	-49.8	-50.4	15.9	0.00e+00	0	31	0	1145044992	66	3720
2026-01-03 01:13:21.67	347.05	65.17	-49.7	-50.4	15.9	0.00e+00	0	31	0	1148190720	66	3704
2026-01-03 01:13:22.67	346.24	65.48	-49.8	-50.4	15.9	0.00e+00	0	31	0	1151336448	66	3726
2026-01-03 01:13:23.67	345.41	65.78	-49.9	-50.6	15.8	0.00e+00	0	31	0	1154482176	66	3789
2026-01-03 01:13:24.68	344.55	66.08	-50.1	-50.7	15.7	0.00e+00	0	31	0	1157627904	66	3862
2026-01-03 01:13:25.69	343.66	66.38	-50.2	-50.9	15.7	0.00e+00	0	31	0	1160773632	66	3918
2026-01-03 01:13:26.69	342.76	66.67	-50.3	-51.0	15.7	0.00e+00	0	31	0	1163919360	66	3972
2026-01-03 01:13:27.69	341.83	66.96	-50.6	-51.3	15.6	0.00e+00	0	31	0	1167065088	66	4106
2026-01-03 01:13:28.70	340.87	67.25	-50.5	-51.2	15.6	0.00e+00	0	31	0	1170210816	66	4089
2026-01-03 01:13:29.71	339.88	67.53	-50.4	-51.1	15.7	0.00e+00	0	31	0	1173356544	66	4018
2026-01-03 01:13:30.72	338.87	67.80	-50.4	-51.0	15.6	0.00e+00	0	31	0	1176502272	66	4004
2026-01-03 01:13:31.72	337.83	68.07	-49.9	-50.5	15.8	0.00e+00	0	31	0	1179648000	66	3779
2026-01-03 01:13:32.73	336.76	68.33	-49.5	-50.1	15.8	0.00e+00	0	31	0	1182793728	65	3814
2026-01-03 01:13:33.74	335.66	68.59	-49.7	-50.3	15.8	0.00e+00	0	31	0	1185939456	65	3893
2026-01-03 01:13:34.74	334.55	68.84	-49.8	-50.5	15.7	0.00e+00	0	31	0	1189085184	65	3969
2026-01-03 01:13:35.75	333.39	69.08	-49.8	-50.4	15.8	0.00e+00	0	31	0	1192230912	65	3952
2026-01-03 01:13:36.76	332.20	69.31	-49.8	-50.5	15.8	0.00e+00	0	31	0	1195376640	65	3959
2026-01-03 01:13:37.77	330.99	69.54	-49.9	-50.5	15.7	0.00e+00	0	31	0	1198522368	65	3992
2026-01-03 01:13:38.77	329.76	69.76	-50.0	-50.7	15.7	0.00e+00	0	31	0	1201668096	65	4067
2026-01-03 01:13:39.78	328.49	69.97	-50.1	-50.8	15.6	0.00e+00	0	31	0	1204813824	65	4130
2026-01-03 01:13:40.78	327.20	70.17	-49.9	-50.6	15.7	0.00e+00	0	31	0	1207959552	65	4028
2026-01-03 01:13:41.79	325.87	70.36	-50.0	-50.6	15.7	0.00e+00	0	31	0	1211105280	65	4038
2026-01-03 01:13:42.79	324.53	70.54	-49.9	-50.6	15.7	0.00e+00	0	31	0	1214251008	65	4020
2026-01-03 01:13:43.80	323.15	70.71	-50.0	-50.7	15.7	0.00e+00	0	31	0	1217396736	65	4055
2026-01-03 01:13:44.80	321.75	70.87	-50.0	-50.6	15.7	0.00e+00	0	31	0	1220542464	65	4048
2026-01-03 01:13:45.80	320.34	71.02	-50.4	-51.1	15.6	0.00e+00	0	31	0	1223688192	65	4248
2026-01-03 01:13:46.80	318.90	71.16	-50.7	-51.4	15.5	0.00e+00	0	31	0	1226833920	66	4183
2026-01-03 01:13:47.81	317.42	71.29	-50.3	-51.0	15.6	0.00e+00	0	31	0	1229979648	66	3975
2026-01-03 01:13:48.82	315.92	71.41	-50.2	-50.9	15.6	0.00e+00	0	31	0	1233125376	66	3945
2026-01-03 01:13:49.82	314.42	71.51	-50.0	-50.7	15.7	0.00e+00	0	31	0	1236271104	66	3851
2026-01-03 01:13:50.83	312.88	71.60	-50.1	-50.8	15.7	0.00e+00	0	31	0	1239416832	66	3895
2026-01-03 01:13:51.84	311.33	71.68	-49.9	-50.5	15.8	0.00e+00	0	31	0	1242562560	66	3777
2026-01-03 01:13:52.84	309.79	71.75	-50.4	-51.2	15.6	0.00e+00	0	31	0	1245708288	66	4053
2026-01-03 01:13:53.85	308.21	71.80	-50.5	-51.2	15.6	0.00e+00	0	31	0	1248854016	66	4058
2026-01-03 01:13:54.86	306.63	71.85	-50.0	-50.6	15.8	0.00e+00	0	31	0	1251999744	66	3820
2026-01-03 01:13:55.87	305.04	71.87	-49.9	-50.5	15.8	0.00e+00	0	31	0	1255145472	66	3757
2026-01-03 01:13:56.87	303.46	71.89	-50.1	-50.8	15.7	0.00e+00	0	31	0	1258291200	66	3874
2026-01-03 01:13:57.87	301.88	71.89	-51.0	-51.7	15.5	0.00e+00	0	31	0	1261436928	67	4083
2026-01-03 01:13:58.86	300.32	71.88	-50.9	-51.6	15.5	0.00e+00	0	31	0	1264582656	67	4039
2026-01-03 01:13:59.87	298.73	71.85	-50.4	-51.1	15.7	0.00e+00	0	31	0	1267728384	67	3809
2026-01-03 01:14:00.87	297.16	71.82	-50.2	-50.8	15.7	0.00e+00	0	31	0	1270874112	66	3907
2026-01-03 01:14:01.88	295.58	71.77	-50.1	-50.8	15.7	0.00e+00	0	31	0	1274019840	66	3878
2026-01-03 01:14:02.88	294.03	71.70	-50.0	-50.7	15.8	0.00e+00	0	31	0	1277165568	66	3835
2026-01-03 01:14:03.88	292.49	71.63	-50.0	-50.7	15.8	0.00e+00	0	31	0	1280311296	66	3840
2026-01-03 01:14:04.89	290.95	71.54	-50.0	-50.6	15.8	0.00e+00	0	31	0	1283457024	66	3821
2026-01-03 01:14:05.89	289.44	71.44	-49.9	-50.5	15.8	0.00e+00	0	31	0	1286602752	66	3760
2026-01-03 01:14:06.90	287.94	71.32	-50.0	-50.6	15.8	0.00e+00	0	31	0	1289748480	66	3802
2026-01-03 01:14:07.90	286.47	71.20	-50.3	-51.0	15.7	0.00e+00	0	31	0	1292894208	66	3963
2026-01-03 01:14:08.91	285.01	71.06	-50.6	-51.3	15.6	0.00e+00	0	31	0	1296039936	66	4121
2026-01-03 01:14:09.92	283.57	70.91	-50.8	-51.6	15.5	0.00e+00	0	31	0	1299185664	66	4247
2026-01-03 01:14:10.93	282.15	70.76	-50.9	-51.7	15.5	0.00e+00	0	31	0	1302331392	67	4062
2026-01-03 01:14:11.94	280.77	70.59	-51.0	-51.8	15.5	0.00e+00	0	31	0	1305477120	67	4114
2026-01-03 01:14:12.94	279.42	70.41	-50.5	-51.2	15.7	0.00e+00	0	31	0	1308622848	67	3834
2026-01-03 01:14:13.95	278.08	70.22	-50.1	-50.7	15.8	0.00e+00	0	31	0	1311768576	66	3853
2026-01-03 01:14:14.94	276.80	70.02	-49.9	-50.5	15.8	0.00e+00	0	31	0	1314914304	66	3758
2026-01-03 01:14:15.94	275.53	69.82	-50.3	-51.0	15.7	0.00e+00	0	31	0	1318060032	66	3979
2026-01-03 01:14:16.95	274.28	69.60	-50.1	-50.8	15.8	0.00e+00	0	31	0	1321205760	66	3879
2026-01-03 01:14:17.96	273.06	69.37	-49.9	-50.6	15.8	0.00e+00	0	31	0	1324351488	66	3788
2026-01-03 01:14:18.97	271.86	69.14	-49.8	-50.5	15.9	0.00e+00	0	31	0	1327497216	66	3742
2026-01-03 01:14:19.97	270.71	68.90	-49.7	-50.4	15.8	0.00e+00	0	31	0	1330642944	65	3914
2026-01-03 01:14:20.97	269.58	68.66	-49.7	-50.3	15.8	0.00e+00	0	31	0	1333788672	65	3879
2026-01-03 01:14:21.98	268.47	68.40	-50.0	-50.7	15.6	0.00e+00	0	31	0	1336934400	65	4068
2026-01-03 01:14:22.98	267.40	68.14	-50.9	-51.7	15.5	0.00e+00	0	31	0	1340080128	67	4070
2026-01-03 01:14:23.98	266.36	67.88	-51.1	-51.9	15.4	0.00e+00	0	31	0	1343225856	67	4162
2026-01-03 01:14:24.98	265.35	67.61	-50.0	-50.7	15.7	0.00e+00	0	31	0	1346371584	66	3830
2026-01-03 01:14:25.98	264.36	67.33	-49.5	-50.1	15.8	0.00e+00	0	31	0	1349517312	65	3811
2026-01-03 01:14:26.99	263.39	67.05	-49.9	-50.5	15.7	0.00e+00	0	31	0	1352663040	65	3981
2026-01-03 01:14:27.99	262.45	66.76	-50.8	-51.6	15.5	0.00e+00	0	31	0	1355808768	66	4254
2026-01-03 01:14:29.00	261.53	66.47	-51.4	-52.2	15.5	0.00e+00	0	31	0	1358954496	68	4095
2026-01-03 01:14:30.01	260.64	66.17	-50.7	-51.4	15.7	0.00e+00	0	31	0	1362100224	68	3737
2026-01-03 01:14:31.02	259.77	65.87	-50.0	-50.7	15.7	0.00e+00	0	31	0	1365245952	66	3834
2026-01-03 01:14:32.02	258.93	65.56	-49.9	-50.6	15.8	0.00e+00	0	31	0	1368391680	66	3790
2026-01-03 01:14:33.01	258.13	65.26	-49.6	-50.2	15.8	0.00e+00	0	31	0	1371537408	65	3866
2026-01-03 01:14:34.02	257.33	64.95	-49.8	-50.4	15.7	0.00e+00	0	31	0	1373634560	65	3957
2026-01-03 01:14:35.02	256.55	64.63	-50.7	-51.4	15.5	0.00e+00	0	31	0	1376780288	66	4156
2026-01-03 01:14:36.03	255.80	64.32	-51.4	-52.2	15.4	0.00e+00	0	31	0	1380974592	67	4292
2026-01-03 01:14:37.04	255.06	63.99	-51.2	-51.9	15.5	0.00e+00	0	31	0	1384120320	68	3958
2026-01-03 01:14:38.04	254.35	63.67	-50.3	-51.0	15.7	0.00e+00	0	31	0	1387266048	67	3746
2026-01-03 01:14:39.05	253.66	63.35	-50.0	-50.7	15.8	0.00e+00	0	31	0	1390411776	66	3831
2026-01-03 01:14:40.05	252.98	63.03	-50.3	-50.9	15.7	0.00e+00	0	31	0	1393557504	66	3943
2026-01-03 01:14:41.06	252.33	62.70	-51.2	-52.0	15.4	0.00e+00	0	31	0	1396703232	67	4198
2026-01-03 01:14:42.06	251.69	62.37	-51.8	-52.7	15.4	0.00e+00	0	31	0	1398800384	69	4052
2026-01-03 01:14:43.07	251.07	62.04	-51.8	-52.7	15.4	0.00e+00	0	31	0	1401946112	69	4060
2026-01-03 01:14:44.06	250.47	61.71	-51.7	-52.6	15.3	0.00e+00	0	31	0	1405091840	69	4005
2026-01-03 01:14:45.07	249.88	61.38	-51.1	-51.8	15.6	0.00e+00	0	31	0	1408237568	68	3906
2026-01-03 01:14:46.07	249.31	61.04	-50.9	-51.6	15.7	0.00e+00	0	31	0	1412431872	68	3800
2026-01-03 01:14:47.08	248.75	60.71	-50.6	-51.3	15.7	0.00e+00	0	31	0	1415577600	67	3883
2026-01-03 01:14:48.09	248.20	60.37	-51.4	-52.2	15.5	0.00e+00	0	31	0	1418723328	68	4060
2026-01-03 01:14:49.10	247.67	60.03	-52.2	-53.1	15.3	0.00e+00	0	31	0	1420820480	69	4255
2026-01-03 01:14:50.10	247.16	59.70	-52.2	-53.0	15.3	0.00e+00	0	31	0	1423966208	70	3981
2026-01-03 01:14:51.10	246.66	59.37	-52.1	-52.9	15.3	0.00e+00	0	31	0	1427111936	70	3929
2026-01-03 01:14:52.10	246.18	59.03	-51.6	-52.3	15.5	0.00e+00	0	31	0	1430257664	69	3899
2026-01-03 01:14:53.11	245.70	58.69	-50.4	-51.1	15.8	0.00e+00	0	31	0	1433403392	67	3788
2026-01-03 01:14:54.11	245.23	58.36	-50.3	-50.9	15.8	0.00e+00	0	31	0	1436549120	67	3719
2026-01-03 01:14:55.10	244.79	58.03	-50.0	-50.7	15.8	0.00e+00	0	31	0	1439694848	66	3826
2026-01-03 01:14:56.10	244.35	57.69	-50.4	-51.1	15.7	0.00e+00	0	31	0	1442840576	66	4024
2026-01-03 01:14:57.11	243.92	57.36	-51.6	-52.4	15.4	0.00e+00	0	31	0	1445986304	68	4150
2026-01-03 01:14:58.12	243.49	57.02	-51.9	-52.7	15.3	0.00e+00	0	31	0	1449132032	69	4086
2026-01-03 01:14:59.12	243.08	56.69	-51.7	-52.5	15.3	0.00e+00	0	31	0	1452277760	69	3962
2026-01-03 01:15:00.13	242.68	56.35	-51.1	-51.8	15.6	0.00e+00	0	31	0	1455423488	68	3877
2026-01-03 01:15:01.13	242.29	56.02	-51.0	-51.7	15.6	0.00e+00	0	31	0	1458569216	68	3862
2026-01-03 01:15:02.13	241.91	55.69	-51.2	-52.0	15.5	0.00e+00	0	31	0	1461714944	68	3979
2026-01-03 01:15:03.14	241.54	55.36	-51.4	-52.2	15.5	0.00e+00	0	31	0	1464860672	68	4054
2026-01-03 01:15:04.14	241.18	55.03	-51.9	-52.8	15.4	0.00e+00	0	31	0	1468006400	69	4107
2026-01-03 01:15:05.15	240.82	54.70	-52.6	-53.5	15.1	0.00e+00	0	31	0	1471152128	70	4201
2026-01-03 01:15:06.15	240.48	54.37	-53.1	-54.1	14.9	0.00e+00	0	31	0	1474297856	71	4260
2026-01-03 01:15:07.16	240.14	54.04	-53.6	-54.7	14.7	0.00e+00	0	31	0	1477443584	72	4332
2026-01-03 01:15:08.16	239.81	53.71	-53.5	-54.6	14.7	0.00e+00	0	31	0	1480589312	72	4264
2026-01-03 01:15:09.17	239.48	53.39	-52.8	-53.7	15.0	0.00e+00	0	31	0	1483735040	72	3849
2026-01-03 01:15:10.18	239.16	53.06	-52.4	-53.2	15.3	0.00e+00	0	31	0	1486880768	71	3854
2026-01-03 01:15:11.18	238.85	52.74	-52.0	-52.7	15.4	0.00e+00	0	31	0	1490026496	70	3865
2026-01-03 01:15:12.18	238.55	52.42	-51.4	-52.1	15.5	0.00e+00	0	31	0	1493172224	69	3793
2026-01-03 01:15:13.19	238.25	52.10	-51.4	-52.1	15.5	0.00e+00	0	31	0	1496317952	69	3813
2026-01-03 01:15:14.19	237.97	51.78	-51.8	-52.6	15.4	0.00e+00	0	31	0	1499463680	69	4042
2026-01-03 01:15:15.20	237.68	51.46	-52.4	-53.2	15.2	0.00e+00	0	31	0	1502609408	69	4325
2026-01-03 01:15:16.20	237.40	51.14	-52.8	-53.8	15.0	0.00e+00	0	31	0	1505755136	70	4341
2026-01-03 01:15:17.20	237.13	50.83	-53.5	-54.6	14.8	0.00e+00	0	31	0	1508900864	72	4259
2026-01-03 01:15:18.21	236.87	50.51	-54.0	-55.2	14.6	0.00e+00	0	31	0	1512046592	73	4318
2026-01-03 01:15:19.21	236.61	50.20	-54.0	-55.2	14.5	0.00e+00	0	31	0	1515192320	73	4316
2026-01-03 01:15:20.21	236.35	49.89	-53.8	-54.9	14.6	0.00e+00	0	31	0	1518338048	73	4156
2026-01-03 01:15:21.22	236.10	49.58	-53.6	-54.6	14.8	0.00e+00	0	31	0	1521483776	73	4012
2026-01-03 01:15:22.22	235.86	49.28	-52.6	-53.5	15.1	0.00e+00	0	31	0	1524629504	71	3975
2026-01-03 01:15:23.23	235.62	48.97	-52.3	-53.1	15.3	0.00e+00	0	31	0	1527775232	71	3818
2026-01-03 01:15:24.23	235.38	48.66	-52.8	-53.7	15.1	0.00e+00	0	31	0	1530920960	71	4057
2026-01-03 01:15:25.23	235.15	48.36	-53.2	-54.1	14.9	0.00e+00	0	31	0	1534066688	71	4287
2026-01-03 01:15:26.24	234.93	48.06	-53.7	-54.8	14.7	0.00e+00	0	31	0	1537212416	72	4363
2026-01-03 01:15:27.24	234.71	47.76	-54.1	-55.3	14.5	0.00e+00	0	31	0	1540358144	73	4359
2026-01-03 01:15:28.25	234.49	47.46	-54.3	-55.6	14.4	0.00e+00	0	31	0	1543503872	73	4502
2026-01-03 01:15:29.25	234.27	47.17	-54.3	-55.5	14.3	0.00e+00	0	31	0	1546649600	73	4485
2026-01-03 01:15:30.25	234.07	46.87	-54.3	-55.5	14.3	0.00e+00	0	31	0	1549795328	73	4461
2026-01-03 01:15:31.25	233.86	46.58	-54.2	-55.4	14.4	0.00e+00	0	31	0	1552941056	73	4432
2026-01-03 01:15:32.26	233.66	46.29	-54.1	-55.2	14.5	0.00e+00	0	31	0	1556086784	73	4320
2026-01-03 01:15:33.27	233.46	46.00	-53.5	-54.5	14.8	0.00e+00	0	31	0	1559232512	73	3999
2026-01-03 01:15:34.27	233.27	45.71	-53.0	-54.0	15.0	0.00e+00	0	31	0	1562378240	72	3962
2026-01-03 01:15:35.28	233.08	45.42	-52.8	-53.7	15.1	0.00e+00	0	31	0	1565523968	72	3858
2026-01-03 01:15:36.28	232.89	45.14	-52.7	-53.6	15.1	0.00e+00	0	31	0	1568669696	71	4008
2026-01-03 01:15:37.28	232.71	44.85	-53.2	-54.1	14.9	0.00e+00	0	31	0	1571815424	71	4273
2026-01-03 01:15:38.29	232.53	44.57	-54.0	-55.1	14.6	0.00e+00	0	31	0	1574961152	73	4272
2026-01-03 01:15:39.30	232.35	44.29	-55.0	-56.4	14.0	0.00e+00	0	31	0	1578106880	75	4418
2026-01-03 01:15:40.31	232.17	44.01	-55.5	-57.0	13.8	0.00e+00	0	31	0	1581252608	76	4450
2026-01-03 01:15:41.31	232.00	43.73	-55.4	-56.8	13.9	0.00e+00	0	31	0	1584398336	76	4375
2026-01-03 01:15:42.31	231.84	43.46	-55.0	-56.3	14.2	0.00e+00	0	31	0	1587544064	76	4131
2026-01-03 01:15:43.31	231.67	43.19	-54.2	-55.4	14.6	0.00e+00	0	31	0	1590689792	75	3938
2026-01-03 01:15:44.32	231.51	42.92	-53.8	-54.8	14.8	0.00e+00	0	31	0	1593835520	74	3906
2026-01-03 01:15:45.32	231.35	42.65	-53.4	-54.5	14.9	0.00e+00	0	31	0	1596981248	73	3961
2026-01-03 01:15:46.32	231.19	42.38	-53.6	-54.6	14.8	0.00e+00	0	31	0	1600126976	73	4036
2026-01-03 01:15:47.33	231.04	42.11	-53.6	-54.7	14.8	0.00e+00	0	31	0	1603272704	73	4059
2026-01-03 01:15:48.34	230.89	41.85	-53.5	-54.5	14.9	0.00e+00	0	31	0	1606418432	73	3996
2026-01-03 01:15:49.34	230.74	41.58	-53.3	-54.3	15.0	0.00e+00	0	31	0	1609564160	73	3894
2026-01-03 01:15:50.35	230.59	41.32	-53.0	-53.9	15.1	0.00e+00	0	31	0	1612709888	72	3958
2026-01-03 01:15:51.35	230.45	41.06	-53.0	-53.9	15.1	0.00e+00	0	31	0	1615855616	72	3943
2026-01-03 01:15:52.36	230.31	40.80	-52.7	-53.6	15.2	0.00e+00	0	31	0	1619001344	72	3798
2026-01-03 01:15:53.37	230.17	40.54	-52.8	-53.7	15.1	0.00e+00	0	31	0	1622147072	71	4060
2026-01-03 01:15:54.37	230.03	40.29	-52.7	-53.6	15.1	0.00e+00	0	31	0	1625292800	71	4029
2026-01-03 01:15:55.37	229.89	40.04	-53.1	-54.1	14.9	0.00e+00	0	31	0	1628438528	71	4246
2026-01-03 01:15:56.38	229.76	39.78	-53.6	-54.6	14.7	0.00e+00	0	31	0	1631584256	72	4286
2026-01-03 01:15:57.38	229.63	39.54	-54.0	-55.1	14.6	0.00e+00	0	31	0	1634729984	73	4289
2026-01-03 01:15:58.39	229.50	39.29	-54.1	-55.3	14.5	0.00e+00	0	31	0	1637875712	73	4372
2026-01-03 01:15:59.40	229.37	39.04	-54.0	-55.2	14.5	0.00e+00	0	31	0	1641021440	73	4309
2026-01-03 01:16:00.41	229.25	38.79	-53.8	-55.0	14.6	0.00e+00	0	31	0	1644167168	73	4201
2026-01-03 01:16:01.41	229.13	38.55	-53.3	-54.3	14.9	0.00e+00	0	31	0	1647312896	73	3900
2026-01-03 01:16:02.41	229.01	38.31	-52.9	-53.9	15.0	0.00e+00	0	31	0	1650458624	72	3931
2026-01-03 01:16:03.42	228.89	38.07	-52.9	-53.9	15.1	0.00e+00	0	31	0	1653604352	72	3922
2026-01-03 01:16:04.43	228.77	37.82	-52.8	-53.7	15.1	0.00e+00	0	31	0	1656750080	72	3859
2026-01-03 01:16:05.43	228.65	37.59	-52.8	-53.7	15.2	0.00e+00	0	31	0	1659895808	72	3862
2026-01-03 01:16:06.44	228.54	37.35	-52.8	-53.7	15.2	0.00e+00	0	31	0	1663041536	72	3861
2026-01-03 01:16:07.44	228.43	37.12	-52.6	-53.5	15.2	0.00e+00	0	31	0	1666187264	71	3970
2026-01-03 01:16:08.44	228.32	36.89	-52.4	-53.3	15.3	0.00e+00	0	31	0	1669332992	71	3891
2026-01-03 01:16:09.44	228.21	36.66	-52.3	-53.2	15.3	0.00e+00	0	31	0	1672478720	71	3839
2026-01-03 01:16:10.45	228.10	36.42	-52.0	-52.9	15.4	0.00e+00	0	31	0	1675624448	70	3921
2026-01-03 01:16:11.45	227.99	36.20	-52.1	-52.9	15.4	0.00e+00	0	31	0	1678770176	70	3950
2026-01-03 01:16:12.46	227.89	35.97	-52.1	-53.0	15.3	0.00e+00	0	31	0	1681915904	70	3978
2026-01-03 01:16:13.47	227.78	35.74	-52.1	-52.9	15.4	0.00e+00	0	31	0	1685061632	70	3938
2026-01-03 01:16:14.47	227.68	35.52	-52.0	-52.8	15.4	0.00e+00	0	31	0	1688207360	70	3899
2026-01-03 01:16:15.49	227.58	35.29	-52.0	-52.8	15.4	0.00e+00	0	31	0	1691353088	70	3904
2026-01-03 01:16:16.49	227.48	35.07	-52.0	-52.8	15.4	0.00e+00	0	31	0	1694498816	70	3891
2026-01-03 01:16:17.50	227.39	34.85	-51.8	-52.6	15.4	0.00e+00	0	31	0	1697644544	70	3818
2026-01-03 01:16:18.50	227.29	34.64	-51.8	-52.6	15.5	0.00e+00	0	31	0	1700790272	70	3789
2026-01-03 01:16:19.51	227.20	34.42	-51.6	-52.4	15.5	0.00e+00	0	31	0	1703936000	69	3949
2026-01-03 01:16:20.51	227.10	34.20	-51.6	-52.4	15.4	0.00e+00	0	31	0	1707081728	69	3947
2026-01-03 01:16:21.51	227.01	33.99	-51.7	-52.5	15.4	0.00e+00	0	31	0	1710227456	69	3980
2026-01-03 01:16:22.51	226.92	33.78	-51.7	-52.5	15.4	0.00e+00	0	31	0	1713373184	69	3968
2026-01-03 01:16:23.52	226.83	33.57	-51.8	-52.6	15.4	0.00e+00	0	31	0	1716518912	69	4012
2026-01-03 01:16:24.53	226.74	33.36	-51.9	-52.7	15.3	0.00e+00	0	31	0	1719664640	69	4088
2026-01-03 01:16:25.52	226.66	33.15	-51.9	-52.7	15.4	0.00e+00	0	31	0	1722810368	69	4075
2026-01-03 01:16:26.52	226.57	32.94	-51.9	-52.7	15.4	0.00e+00	0	31	0	1725956096	69	4083
2026-01-03 01:16:27.52	226.48	32.74	-51.7	-52.5	15.4	0.00e+00	0	31	0	1729101824	69	3985
2026-01-03 01:16:28.53	226.40	32.53	-51.6	-52.4	15.4	0.00e+00	0	31	0	1732247552	69	3916
2026-01-03 01:16:29.53	226.32	32.33	-51.5	-52.3	15.4	0.00e+00	0	31	0	1735393280	69	3886
2026-01-03 01:16:30.53	226.24	32.13	-51.5	-52.3	15.5	0.00e+00	0	31	0	1738539008	69	3874
2026-01-03 01:16:31.53	226.16	31.93	-51.2	-52.0	15.6	0.00e+00	0	31	0	1741684736	69	3760
2026-01-03 01:16:32.55	226.08	31.73	-51.3	-52.0	15.5	0.00e+00	0	31	0	1744830464	68	3987
2026-01-03 01:16:33.55	226.00	31.53	-51.3	-52.1	15.5	0.00e+00	0	31	0	1747976192	68	4024
2026-01-03 01:16:34.55	225.92	31.34	-51.5	-52.3	15.4	0.00e+00	0	31	0	1751121920	68	4126
2026-01-03 01:16:35.56	225.84	31.14	-51.5	-52.4	15.4	0.00e+00	0	31	0	1754267648	68	4149
2026-01-03 01:16:36.56	225.77	30.95	-51.7	-52.6	15.3	0.00e+00	0	31	0	1757413376	68	4263
2026-01-03 01:16:37.57	225.69	30.75	-51.9	-52.8	15.3	0.00e+00	0	31	0	1760559104	69	4103
2026-01-03 01:16:38.58	225.62	30.56	-52.0	-52.9	15.2	0.00e+00	0	31	0	1763704832	69	4151
2026-01-03 01:16:39.58	225.55	30.37	-52.0	-52.9	15.3	0.00e+00	0	31	0	1766850560	69	4169
2026-01-03 01:16:40.59	225.47	30.18	-52.0	-52.9	15.3	0.00e+00	0	31	0	1769996288	69	4170
2026-01-03 01:16:41.59	225.40	29.99	-52.1	-53.0	15.2	0.00e+00	0	31	0	1773142016	69	4212
2026-01-03 01:16:42.60	225.33	29.80	-52.0	-52.9	15.3	0.00e+00	0	31	0	1776287744	69	4148
2026-01-03 01:16:43.60	225.26	29.62	-51.9	-52.8	15.3	0.00e+00	0	31	0	1779433472	69	4104
2026-01-03 01:16:44.61	225.19	29.43	-52.0	-52.9	15.3	0.00e+00	0	31	0	1782579200	69	4148
2026-01-03 01:16:45.61	225.13	29.25	-51.8	-52.6	15.4	0.00e+00	0	31	0	1785724928	69	4035
2026-01-03 01:16:46.61	225.06	29.07	-51.4	-52.2	15.5	0.00e+00	0	31	0	1788870656	69	3844
2026-01-03 01:16:47.62	224.99	28.89	-51.1	-51.9	15.5	0.00e+00	0	31	0	1792016384	68	3940
2026-01-03 01:16:48.62	224.93	28.71	-50.9	-51.7	15.6	0.00e+00	0	31	0	1795162112	68	3835
2026-01-03 01:16:49.62	224.86	28.53	-50.7	-51.4	15.7	0.00e+00	0	31	0	1798307840	68	3723
2026-01-03 01:16:50.63	224.80	28.35	-50.4	-51.1	15.7	0.00e+00	0	31	0	1801453568	67	3782
2026-01-03 01:16:51.64	224.73	28.17	-50.3	-51.0	15.7	0.00e+00	0	31	0	1804599296	67	3760
2026-01-03 01:16:52.64	224.67	28.00	-50.1	-50.8	15.8	0.00e+00	0	31	0	1807745024	66	3887
2026-01-03 01:16:53.65	224.61	27.82	-50.2	-50.8	15.7	0.00e+00	0	31	0	1810890752	66	3894
2026-01-03 01:16:54.66	224.55	27.65	-50.1	-50.8	15.8	0.00e+00	0	31	0	1814036480	66	3893
2026-01-03 01:16:55.66	224.49	27.47	-49.9	-50.6	15.8	0.00e+00	0	31	0	1817182208	66	3797
2026-01-03 01:16:56.67	224.43	27.30	-50.0	-50.6	15.8	0.00e+00	0	31	0	1820327936	66	3816
2026-01-03 01:16:57.68	224.37	27.13	-49.8	-50.4	15.9	0.00e+00	0	31	0	1823473664	66	3718
2026-01-03 01:16:58.69	224.31	26.96	-49.7	-50.3	15.9	0.00e+00	0	31	0	1826619392	66	3684
2026-01-03 01:16:59.69	224.25	26.79	-49.7	-50.4	15.8	0.00e+00	0	31	0	1829765120	65	3914
2026-01-03 01:17:00.70	224.20	26.62	-49.7	-50.3	15.8	0.00e+00	0	31	0	1832910848	65	3903
2026-01-03 01:17:01.70	224.14	26.46	-49.9	-50.6	15.7	0.00e+00	0	31	0	1836056576	65	4010
2026-01-03 01:17:02.70	224.08	26.29	-50.1	-50.7	15.7	0.00e+00	0	31	0	1839202304	65	4086
2026-01-03 01:17:03.70	224.03	26.13	-50.2	-50.9	15.6	0.00e+00	0	31	0	1842348032	65	4190
2026-01-03 01:17:04.71	223.97	25.96	-50.4	-51.1	15.6	0.00e+00	0	31	0	1845493760	66	4043
2026-01-03 01:17:05.71	223.92	25.80	-50.6	-51.3	15.6	0.00e+00	0	31	0	1848639488	66	4127
2026-01-03 01:17:06.72	223.87	25.64	-50.7	-51.4	15.5	0.00e+00	0	31	0	1851785216	66	4193
2026-01-03 01:17:07.73	223.81	25.48	-50.8	-51.5	15.5	0.00e+00	0	31	0	1854930944	66	4232
2026-01-03 01:17:08.74	223.76	25.32	-50.8	-51.6	15.5	0.00e+00	0	31	0	1858076672	66	4270
2026-01-03 01:17:09.74	223.71	25.16	-50.9	-51.7	15.5	0.00e+00	0	31	0	1861222400	67	4065
2026-01-03 01:17:10.75	223.66	25.00	-50.9	-51.7	15.5	0.00e+00	0	31	0	1864368128	67	4082
2026-01-03 01:17:11.75	223.61	24.84	-51.0	-51.7	15.5	0.00e+00	0	31	0	1867513856	67	4087
2026-01-03 01:17:12.75	223.56	24.69	-51.0	-51.8	15.5	0.00e+00	0	31	0	1870659584	67	4124
2026-01-03 01:17:13.75	223.51	24.53	-51.1	-51.9	15.5	0.00e+00	0	31	0	1873805312	67	4168
2026-01-03 01:17:14.76	223.46	24.38	-51.1	-51.9	15.4	0.00e+00	0	31	0	1876951040	67	4180
2026-01-03 01:17:15.77	223.41	24.22	-51.1	-51.9	15.4	0.00e+00	0	31	0	1880096768	67	4191
2026-01-03 01:17:16.78	223.36	24.07	-51.2	-52.0	15.4	0.00e+00	0	31	0	1883242496	67	4239
2026-01-03 01:17:17.79	223.31	23.92	-51.3	-52.1	15.3	0.00e+00	0	31	0	1886388224	67	4282
2026-01-03 01:17:18.79	223.27	23.77	-51.2	-52.0	15.4	0.00e+00	0	31	0	1889533952	67	4203
2026-01-03 01:17:19.80	223.22	23.62	-51.2	-52.0	15.4	0.00e+00	0	31	0	1892679680	67	4225
2026-01-03 01:17:20.80	223.17	23.47	-51.2	-52.0	15.4	0.00e+00	0	31	0	1895825408	67	4228
2026-01-03 01:17:21.81	223.13	23.32	-51.1	-51.9	15.4	0.00e+00	0	31	0	1898971136	67	4168
2026-01-03 01:17:22.81	223.08	23.17	-51.2	-52.0	15.4	0.00e+00	0	31	0	1902116864	67	4199
2026-01-03 01:17:23.82	223.04	23.02	-51.0	-51.8	15.4	0.00e+00	0	31	0	1905262592	67	4131
2026-01-03 01:17:24.82	222.99	22.88	-50.9	-51.7	15.5	0.00e+00	0	31	0	1908408320	67	4080
2026-01-03 01:17:25.83	222.95	22.73	-50.9	-51.7	15.5	0.00e+00	0	31	0	1911554048	67	4060
2026-01-03 01:17:26.83	222.91	22.59	-50.9	-51.7	15.5	0.00e+00	0	31	0	1914699776	67	4061
2026-01-03 01:17:27.83	222.86	22.45	-50.7	-51.5	15.6	0.00e+00	0	31	0	1917845504	67	3975
2026-01-03 01:17:28.84	222.82	22.30	-50.7	-51.5	15.5	0.00e+00	0	31	0	1920991232	67	3969
2026-01-03 01:17:29.85	222.78	22.16	-50.7	-51.5	15.6	0.00e+00	0	31	0	1924136960	67	3967
2026-01-03 01:17:30.85	222.74	22.02	-50.7	-51.4	15.6	0.00e+00	0	31	0	1927282688	67	3945
2026-01-03 01:17:31.85	222.70	21.88	-50.7	-51.5	15.6	0.00e+00	0	31	0	1930428416	67	3966
2026-01-03 01:17:32.86	222.66	21.74	-50.7	-51.4	15.6	0.00e+00	0	31	0	1932525568	67	3946
2026-01-03 01:17:33.87	222.61	21.60	-50.7	-51.5	15.6	0.00e+00	0	31	0	1935671296	67	3961
2026-01-03 01:17:34.88	222.57	21.46	-50.8	-51.5	15.6	0.00e+00	0	31	0	1939865600	67	3991
2026-01-03 01:17:35.88	222.53	21.32	-50.8	-51.6	15.5	0.00e+00	0	31	0	1943011328	67	4038
2026-01-03 01:17:36.89	222.50	21.19	-50.7	-51.5	15.6	0.00e+00	0	31	0	1946157056	67	3979
2026-01-03 01:17:37.90	222.46	21.05	-50.7	-51.5	15.5	0.00e+00	0	31	0	1949302784	67	3989
2026-01-03 01:17:38.91	222.42	20.91	-50.7	-51.5	15.6	0.00e+00	0	31	0	1952448512	67	3970
2026-01-03 01:17:39.91	222.38	20.78	-50.8	-51.6	15.5	0.00e+00	0	31	0	1955594240	67	4006
2026-01-03 01:17:40.91	222.34	20.65	-50.7	-51.5	15.6	0.00e+00	0	31	0	1957691392	67	3962
2026-01-03 01:17:41.91	222.30	20.51	-50.7	-51.4	15.6	0.00e+00	0	31	0	1960837120	67	3954
2026-01-03 01:17:42.92	222.27	20.38	-50.7	-51.4	15.6	0.00e+00	0	31	0	1963982848	67	3945
2026-01-03 01:17:43.93	222.23	20.25	-50.7	-51.4	15.6	0.00e+00	0	31	0	1968177152	67	3949
2026-01-03 01:17:44.93	222.19	20.12	-50.7	-51.5	15.6	0.00e+00	0	31	0	1971322880	67	3963
2026-01-03 01:17:45.92	222.16	19.99	-50.7	-51.5	15.5	0.00e+00	0	31	0	1974468608	67	3990
2026-01-03 01:17:46.92	222.12	19.86	-50.6	-51.3	15.6	0.00e+00	0	31	0	1976565760	67	3902
2026-01-03 01:17:47.93	222.09	19.73	-50.6	-51.3	15.6	0.00e+00	0	31	0	1979711488	67	3912
2026-01-03 01:17:48.92	222.05	19.60	-50.6	-51.3	15.6	0.00e+00	0	31	0	1982857216	67	3898
2026-01-03 01:17:49.92	222.02	19.48	-50.6	-51.3	15.6	0.00e+00	0	31	0	1986002944	67	3896
2026-01-03 01:17:50.93	221.98	19.35	-50.6	-51.3	15.6	0.00e+00	0	31	0	1989148672	67	3900
2026-01-03 01:17:51.93	221.95	19.22	-50.6	-51.3	15.6	0.00e+00	0	31	0	1992294400	67	3887
2026-01-03 01:17:52.93	221.91	19.10	-50.6	-51.3	15.6	0.00e+00	0	31	0	1995440128	67	3891
2026-01-03 01:17:53.93	221.88	18.97	-50.5	-51.3	15.6	0.00e+00	0	31	0	1998585856	67	3878
2026-01-03 01:17:54.94	221.85	18.85	-50.6	-51.4	15.6	0.00e+00	0	31	0	2001731584	67	3918
2026-01-03 01:17:55.94	221.81	18.72	-50.6	-51.4	15.6	0.00e+00	0	31	0	2004877312	67	3927
2026-01-03 01:17:56.94	221.78	18.60	-50.7	-51.5	15.5	0.00e+00	0	31	0	2008023040	67	3972
2026-01-03 01:17:57.95	221.75	18.48	-50.7	-51.5	15.6	0.00e+00	0	31	0	2011168768	67	3980
2026-01-03 01:17:58.94	221.72	18.36	-50.8	-51.6	15.5	0.00e+00	0	31	0	2014314496	67	4010
2026-01-03 01:17:59.94	221.69	18.24	-50.8	-51.6	15.5	0.00e+00	0	31	0	2017460224	67	4030
2026-01-03 01:18:00.94	221.65	18.12	-50.9	-51.7	15.5	0.00e+00	0	31	0	2020605952	67	4064
2026-01-03 01:18:01.94	221.62	18.00	-50.9	-51.7	15.4	0.00e+00	0	31	0	2023751680	67	4092
2026-01-03 01:18:02.94	221.59	17.88	-51.1	-51.9	15.4	0.00e+00	0	31	0	2026897408	67	4148
2026-01-03 01:18:03.94	221.56	17.76	-51.1	-51.9	15.4	0.00e+00	0	31	0	2030043136	67	4181
2026-01-03 01:18:04.95	221.53	17.64	-51.1	-51.9	15.4	0.00e+00	0	31	0	2033188864	67	4159
2026-01-03 01:18:05.95	221.50	17.52	-51.1	-51.9	15.4	0.00e+00	0	31	0	2036334592	67	4189
2026-01-03 01:18:06.95	221.47	17.40	-51.0	-51.8	15.4	0.00e+00	0	31	0	2039480320	67	4145
2026-01-03 01:18:07.95	221.44	17.29	-51.2	-52.0	15.4	0.00e+00	0	31	0	2042626048	67	4205
2026-01-03 01:18:08.94	221.41	17.17	-51.1	-51.9	15.4	0.00e+00	0	31	0	2045771776	67	4185
2026-01-03 01:18:09.95	221.38	17.05	-51.2	-52.0	15.4	0.00e+00	0	31	0	2048917504	67	4203
2026-01-03 01:18:10.95	221.35	16.94	-51.2	-52.0	15.4	0.00e+00	0	31	0	2052063232	67	4229
2026-01-03 01:18:11.95	221.33	16.82	-51.2	-52.0	15.3	0.00e+00	0	31	0	2055208960	67	4236
2026-01-03 01:18:12.95	221.30	16.71	-51.3	-52.1	15.3	0.00e+00	0	31	0	2058354688	67	4270
2026-01-03 01:18:13.95	221.27	16.60	-51.4	-52.2	15.3	0.00e+00	0	31	0	2061500416	67	4325
