passes_logs/2026/01/03/R3.2S_Murmansk/R3.2S_Murmansk__20260103_013617_SUOMI_NPP_rec.log

#Pass ID: 20260103_013617_SUOMI NPP
#Satellite: SUOMI NPP
#Configuration: NPP
#almurnet v.1.7.20251203
#Start time: 2026-01-03 01:36:18

#Version: 2.2.20231116
#Station: R3.2S_Murmansk
#Location: 33.079688 lon 68.888172 lat
#TLE: 1 37849U 11061A   26001.07732418  .00000182  00000+0  10735-3 0  9990
#TLE: 2 37849  98.7795 303.2470 0002580  87.2016 272.9455 14.19520779734739

#Time	Az	El	Level	Level2	SNR	BER	BlckErr	Temp	State	Recorded	gain1	gain2
2026-01-03 01:36:18.54	28.23	2.08	-59.5	-75.0	3.8	1.49e+00	0	29	0	0	85	21256
2026-01-03 01:36:19.53	28.21	2.15	-59.4	-74.9	3.8	1.49e+00	0	29	104	0	83	23513
2026-01-03 01:36:20.53	28.20	2.21	-59.3	-74.9	3.8	1.49e+00	0	29	104	0	83	23431
2026-01-03 01:36:21.52	28.18	2.27	-59.3	-74.9	3.8	1.49e+00	0	29	104	0	83	23440
2026-01-03 01:36:22.51	28.16	2.34	-59.4	-74.9	3.8	1.49e+00	0	29	104	0	83	23374
2026-01-03 01:36:23.51	28.14	2.40	-59.3	-74.9	3.8	1.49e+00	0	29	104	0	83	23413
2026-01-03 01:36:24.51	28.12	2.47	-59.4	-74.9	3.8	1.49e+00	0	29	104	0	83	23421
2026-01-03 01:36:25.50	28.11	2.53	-59.3	-74.9	3.8	1.49e+00	0	29	104	0	83	23431
2026-01-03 01:36:26.50	28.09	2.59	-59.4	-74.9	3.8	1.49e+00	0	29	104	0	83	23421
2026-01-03 01:36:27.50	28.07	2.66	-59.4	-74.9	3.8	1.49e+00	0	29	104	0	83	23422
2026-01-03 01:36:28.50	28.05	2.72	-59.4	-74.9	3.8	1.49e+00	0	29	104	0	83	23434
2026-01-03 01:36:29.50	28.03	2.79	-59.4	-74.9	3.8	1.49e+00	0	29	104	0	83	23476
2026-01-03 01:36:30.50	28.01	2.85	-59.3	-74.9	3.8	1.49e+00	0	29	104	0	83	23398
2026-01-03 01:36:31.48	27.99	2.92	-59.4	-74.9	3.8	1.49e+00	0	29	104	0	83	23355
2026-01-03 01:36:32.48	27.98	2.98	-59.3	-74.8	3.8	1.49e+00	0	29	104	0	83	23308
2026-01-03 01:36:33.48	27.96	3.05	-59.3	-74.8	3.8	1.49e+00	0	29	104	0	83	23108
2026-01-03 01:36:34.48	27.94	3.11	-59.3	-74.6	3.8	1.49e+00	0	29	104	0	83	22677
2026-01-03 01:36:35.48	27.92	3.18	-59.3	-74.2	3.8	1.49e+00	0	29	104	0	83	21743
2026-01-03 01:36:36.47	27.90	3.24	-59.3	-73.8	3.8	1.49e+00	0	29	104	0	83	20662
2026-01-03 01:36:37.47	27.88	3.31	-59.3	-73.4	3.8	1.49e+00	0	29	104	0	83	19742
2026-01-03 01:36:38.47	27.86	3.38	-59.3	-73.2	3.8	1.49e+00	0	29	104	0	83	19189
2026-01-03 01:36:39.47	27.84	3.44	-59.3	-73.0	3.8	1.49e+00	0	30	104	0	83	18838
2026-01-03 01:36:40.46	27.82	3.51	-59.3	-73.1	3.8	1.49e+00	0	30	104	0	83	18966
2026-01-03 01:36:41.46	27.80	3.58	-59.3	-73.1	3.8	1.49e+00	0	30	104	0	83	19115
2026-01-03 01:36:42.46	27.78	3.64	-59.3	-73.5	3.8	1.49e+00	0	30	104	0	83	19867
2026-01-03 01:36:43.46	27.76	3.71	-59.3	-73.7	3.8	1.49e+00	0	29	104	0	83	20340
2026-01-03 01:36:44.46	27.74	3.78	-59.3	-74.1	3.8	1.49e+00	0	30	104	0	83	21262
2026-01-03 01:36:45.45	27.72	3.84	-59.3	-74.4	3.8	1.49e+00	0	30	104	0	83	22039
2026-01-03 01:36:46.45	27.70	3.91	-59.3	-74.4	3.8	1.49e+00	0	30	104	0	83	22071
2026-01-03 01:36:47.45	27.68	3.98	-59.3	-73.9	3.8	1.49e+00	0	30	104	0	83	20946
2026-01-03 01:36:48.44	27.66	4.05	-59.3	-73.0	3.8	1.49e+00	0	30	104	0	83	18848
2026-01-03 01:36:49.43	27.64	4.11	-59.2	-71.5	4.2	1.47e+00	0	30	0	0	83	15841
2026-01-03 01:36:50.43	27.62	4.18	-59.1	-70.0	4.7	1.24e+00	0	30	0	0	83	13271
2026-01-03 01:36:51.42	27.60	4.25	-58.9	-68.2	5.5	6.73e-01	0	30	0	2097152	83	10877
2026-01-03 01:36:52.42	27.58	4.32	-58.7	-67.0	6.3	2.70e-01	0	30	0	4194304	83	9450
2026-01-03 01:36:53.41	27.55	4.39	-58.6	-66.0	7.1	1.40e-01	0	30	0	6291456	83	8459
2026-01-03 01:36:54.41	27.53	4.46	-58.4	-65.1	7.9	6.90e-02	0	30	0	8388608	83	7603
2026-01-03 01:36:55.42	27.51	4.53	-58.1	-64.1	8.8	2.02e-02	0	30	0	9437184	82	7148
2026-01-03 01:36:56.42	27.49	4.60	-57.9	-63.5	9.3	8.66e-03	0	30	0	11534336	82	6680
2026-01-03 01:36:57.41	27.47	4.66	-57.8	-63.1	9.6	4.51e-03	0	30	0	13631488	82	6411
2026-01-03 01:36:58.40	27.45	4.73	-57.7	-62.8	9.9	3.72e-03	0	30	0	15728640	82	6202
2026-01-03 01:36:59.41	27.42	4.80	-57.6	-62.6	10.1	1.81e-03	0	30	0	16777216	81	6376
2026-01-03 01:37:00.40	27.40	4.87	-57.7	-62.7	9.9	1.97e-03	0	30	0	18874368	81	6465
2026-01-03 01:37:01.40	27.38	4.94	-57.8	-63.0	9.7	2.72e-03	0	30	0	20971520	81	6694
2026-01-03 01:37:02.40	27.36	5.01	-57.8	-63.0	9.7	3.04e-03	0	30	0	23068672	81	6670
2026-01-03 01:37:03.39	27.33	5.08	-57.5	-62.1	10.5	5.20e-03	0	30	0	25165824	81	6036
2026-01-03 01:37:04.40	27.31	5.15	-58.0	-63.0	10.0	1.31e-03	0	30	0	26214400	81	6715
2026-01-03 01:37:05.40	27.29	5.23	-57.7	-62.5	10.4	5.24e-03	0	30	0	28311552	81	6307
2026-01-03 01:37:06.40	27.27	5.30	-58.3	-64.8	8.0	4.07e-01	0	30	0	30408704	82	7739
2026-01-03 01:37:07.39	27.24	5.37	-56.9	-60.4	12.1	0.00e+00	0	30	0	32505856	78	5914
2026-01-03 01:37:08.39	27.22	5.44	-58.3	-64.3	8.7	1.06e-01	0	30	0	34603008	83	6926
2026-01-03 01:37:09.39	27.20	5.51	-55.3	-57.7	13.7	0.00e+00	0	30	0	35651584	77	4559
2026-01-03 01:37:10.38	27.17	5.58	-55.3	-57.6	13.8	0.00e+00	0	30	0	37748736	77	4506
2026-01-03 01:37:11.37	27.15	5.65	-54.9	-57.1	14.0	0.00e+00	0	30	0	39845888	76	4526
2026-01-03 01:37:12.37	27.13	5.72	-55.0	-57.2	14.0	0.00e+00	0	30	0	41943040	76	4553
2026-01-03 01:37:13.37	27.10	5.80	-55.1	-57.3	13.9	0.00e+00	0	30	0	42991616	76	4621
2026-01-03 01:37:14.36	27.08	5.87	-55.0	-57.1	14.0	0.00e+00	0	30	0	45088768	76	4534
2026-01-03 01:37:15.37	27.05	5.94	-54.9	-57.1	14.0	0.00e+00	0	30	0	47185920	76	4507
2026-01-03 01:37:16.36	27.03	6.01	-54.9	-57.0	14.1	0.00e+00	0	30	0	49283072	76	4465
2026-01-03 01:37:17.35	27.01	6.09	-54.8	-56.9	14.1	0.00e+00	0	30	0	51380224	76	4438
2026-01-03 01:37:18.34	26.98	6.16	-54.7	-56.8	14.2	0.00e+00	0	30	0	52428800	76	4359
2026-01-03 01:37:19.34	26.96	6.23	-54.5	-56.5	14.3	0.00e+00	0	30	0	54525952	75	4459
2026-01-03 01:37:20.34	26.93	6.31	-54.6	-56.6	14.2	0.00e+00	0	30	0	56623104	75	4518
2026-01-03 01:37:21.34	26.91	6.38	-54.5	-56.5	14.3	0.00e+00	0	30	0	58720256	75	4462
2026-01-03 01:37:22.33	26.88	6.45	-54.6	-56.6	14.2	0.00e+00	0	30	0	59768832	75	4529
2026-01-03 01:37:23.33	26.86	6.53	-54.6	-56.6	14.3	0.00e+00	0	30	0	61865984	75	4502
2026-01-03 01:37:24.33	26.83	6.60	-54.5	-56.5	14.3	0.00e+00	0	30	0	63963136	75	4473
2026-01-03 01:37:25.32	26.81	6.68	-54.4	-56.4	14.4	0.00e+00	0	30	0	66060288	75	4413
2026-01-03 01:37:26.32	26.78	6.75	-54.4	-56.3	14.5	0.00e+00	0	30	0	68157440	75	4341
2026-01-03 01:37:27.30	26.75	6.83	-54.4	-56.4	14.4	0.00e+00	0	30	0	69206016	75	4392
2026-01-03 01:37:28.29	26.73	6.90	-54.3	-56.3	14.5	0.00e+00	0	30	0	71303168	75	4342
2026-01-03 01:37:29.27	26.70	6.98	-54.4	-56.4	14.4	0.00e+00	0	30	0	73400320	75	4392
2026-01-03 01:37:30.27	26.68	7.05	-54.4	-56.4	14.4	0.00e+00	0	30	0	75497472	75	4396
2026-01-03 01:37:31.27	26.65	7.13	-54.4	-56.3	14.4	0.00e+00	0	30	0	76546048	75	4365
2026-01-03 01:37:32.27	26.62	7.20	-54.4	-56.3	14.4	0.00e+00	0	30	0	78643200	75	4360
2026-01-03 01:37:33.27	26.60	7.28	-54.5	-56.4	14.4	0.00e+00	0	30	0	80740352	75	4425
2026-01-03 01:37:34.27	26.57	7.36	-54.3	-56.2	14.5	0.00e+00	0	30	0	82837504	75	4315
2026-01-03 01:37:35.26	26.54	7.43	-54.5	-56.4	14.4	0.00e+00	0	30	0	84934656	75	4421
2026-01-03 01:37:36.27	26.51	7.51	-54.3	-56.2	14.5	0.00e+00	0	30	0	85983232	75	4330
2026-01-03 01:37:37.26	26.49	7.59	-54.4	-56.3	14.5	0.00e+00	0	30	0	88080384	75	4375
2026-01-03 01:37:38.25	26.46	7.66	-54.4	-56.3	14.5	0.00e+00	0	30	0	90177536	75	4371
2026-01-03 01:37:39.25	26.43	7.74	-54.5	-56.4	14.4	0.00e+00	0	31	0	92274688	75	4419
2026-01-03 01:37:40.24	26.40	7.82	-54.4	-56.3	14.5	0.00e+00	0	30	0	94371840	75	4360
2026-01-03 01:37:41.24	26.38	7.90	-54.3	-56.2	14.5	0.00e+00	0	30	0	95420416	75	4310
2026-01-03 01:37:42.24	26.35	7.98	-54.2	-56.0	14.6	0.00e+00	0	30	0	97517568	75	4231
2026-01-03 01:37:43.23	26.32	8.05	-54.2	-56.1	14.5	0.00e+00	0	30	0	99614720	74	4513
2026-01-03 01:37:44.22	26.29	8.13	-54.2	-56.0	14.6	0.00e+00	0	30	0	101711872	74	4473
2026-01-03 01:37:45.22	26.26	8.21	-54.1	-55.9	14.6	0.00e+00	0	30	0	102760448	74	4437
2026-01-03 01:37:46.22	26.23	8.29	-54.1	-55.9	14.7	0.00e+00	0	30	0	104857600	74	4393
2026-01-03 01:37:47.22	26.20	8.37	-54.0	-55.8	14.7	0.00e+00	0	30	0	106954752	74	4386
2026-01-03 01:37:48.22	26.17	8.45	-54.1	-55.9	14.6	0.00e+00	0	30	0	109051904	74	4411
2026-01-03 01:37:49.21	26.14	8.53	-54.2	-56.1	14.5	0.00e+00	0	31	0	111149056	74	4519
2026-01-03 01:37:50.21	26.11	8.61	-54.3	-56.1	14.5	0.00e+00	0	30	0	112197632	74	4534
2026-01-03 01:37:51.21	26.08	8.69	-54.1	-55.9	14.7	0.00e+00	0	30	0	114294784	74	4407
2026-01-03 01:37:52.21	26.05	8.77	-54.0	-55.8	14.7	0.00e+00	0	30	0	116391936	74	4351
2026-01-03 01:37:53.21	26.02	8.85	-54.0	-55.8	14.7	0.00e+00	0	31	0	118489088	74	4380
2026-01-03 01:37:54.20	25.99	8.94	-53.9	-55.7	14.7	0.00e+00	0	31	0	119537664	74	4296
2026-01-03 01:37:55.20	25.96	9.02	-53.9	-55.7	14.7	0.00e+00	0	30	0	121634816	74	4298
2026-01-03 01:37:56.19	25.93	9.10	-53.9	-55.6	14.8	0.00e+00	0	31	0	123731968	74	4276
2026-01-03 01:37:57.18	25.90	9.18	-53.8	-55.5	14.8	0.00e+00	0	30	0	125829120	74	4225
2026-01-03 01:37:58.18	25.87	9.26	-53.8	-55.6	14.8	0.00e+00	0	31	0	127926272	74	4246
2026-01-03 01:37:59.18	25.84	9.35	-53.8	-55.5	14.8	0.00e+00	0	31	0	128974848	74	4208
2026-01-03 01:38:00.18	25.81	9.43	-53.8	-55.5	14.8	0.00e+00	0	30	0	131072000	74	4223
2026-01-03 01:38:01.18	25.77	9.51	-53.8	-55.5	14.9	0.00e+00	0	30	0	133169152	74	4196
2026-01-03 01:38:02.18	25.74	9.60	-53.6	-55.3	14.8	0.00e+00	0	30	0	135266304	73	4356
2026-01-03 01:38:03.18	25.71	9.68	-53.7	-55.3	14.9	0.00e+00	0	30	0	136314880	73	4383
2026-01-03 01:38:04.17	25.68	9.76	-53.7	-55.4	14.8	0.00e+00	0	30	0	138412032	73	4398
2026-01-03 01:38:05.16	25.64	9.85	-53.6	-55.2	14.9	0.00e+00	0	30	0	140509184	73	4318
2026-01-03 01:38:06.15	25.61	9.93	-53.6	-55.2	14.9	0.00e+00	0	31	0	142606336	73	4324
2026-01-03 01:38:07.14	25.58	10.01	-53.6	-55.1	14.9	0.00e+00	0	31	0	144703488	73	4286
2026-01-03 01:38:08.15	25.55	10.10	-53.5	-55.0	14.9	0.00e+00	0	31	0	145752064	73	4238
2026-01-03 01:38:09.15	25.51	10.19	-53.6	-55.1	14.9	0.00e+00	0	30	0	147849216	73	4285
2026-01-03 01:38:10.15	25.48	10.27	-53.4	-55.0	15.0	0.00e+00	0	30	0	149946368	73	4199
2026-01-03 01:38:11.16	25.44	10.36	-53.4	-54.9	15.0	0.00e+00	0	30	0	152043520	73	4171
2026-01-03 01:38:12.15	25.41	10.44	-53.3	-54.8	15.0	0.00e+00	0	30	0	154140672	73	4134
2026-01-03 01:38:13.14	25.37	10.53	-53.4	-54.9	15.1	0.00e+00	0	30	0	155189248	73	4150
2026-01-03 01:38:14.14	25.34	10.62	-53.3	-54.8	15.1	0.00e+00	0	31	0	157286400	73	4136
2026-01-03 01:38:15.14	25.30	10.70	-53.3	-54.8	15.1	0.00e+00	0	30	0	159383552	73	4123
2026-01-03 01:38:16.13	25.27	10.79	-53.1	-54.6	15.1	0.00e+00	0	30	0	161480704	72	4257
2026-01-03 01:38:17.13	25.23	10.88	-53.3	-54.8	15.0	0.00e+00	0	30	0	162529280	72	4347
2026-01-03 01:38:18.13	25.20	10.97	-53.1	-54.6	15.1	0.00e+00	0	30	0	164626432	72	4250
2026-01-03 01:38:19.13	25.16	11.06	-53.1	-54.5	15.1	0.00e+00	0	31	0	166723584	72	4205
2026-01-03 01:38:20.13	25.13	11.14	-53.0	-54.4	15.2	0.00e+00	0	31	0	168820736	72	4154
2026-01-03 01:38:21.13	25.09	11.23	-53.0	-54.4	15.2	0.00e+00	0	31	0	170917888	72	4180
2026-01-03 01:38:22.12	25.05	11.32	-53.0	-54.3	15.2	0.00e+00	0	30	0	171966464	72	4135
2026-01-03 01:38:23.11	25.02	11.41	-52.9	-54.2	15.2	0.00e+00	0	30	0	174063616	72	4084
2026-01-03 01:38:24.11	24.98	11.50	-52.9	-54.3	15.2	0.00e+00	0	30	0	176160768	72	4115
2026-01-03 01:38:25.11	24.94	11.59	-53.0	-54.4	15.1	0.00e+00	0	31	0	178257920	72	4153
2026-01-03 01:38:26.11	24.90	11.68	-52.9	-54.3	15.2	0.00e+00	0	31	0	180355072	72	4100
2026-01-03 01:38:27.10	24.87	11.77	-52.9	-54.3	15.2	0.00e+00	0	31	0	181403648	72	4101
2026-01-03 01:38:28.10	24.83	11.86	-52.8	-54.2	15.3	0.00e+00	0	31	0	183500800	72	4061
2026-01-03 01:38:29.10	24.79	11.96	-52.7	-54.0	15.3	0.00e+00	0	31	0	185597952	72	3965
2026-01-03 01:38:30.10	24.75	12.05	-52.8	-54.1	15.2	0.00e+00	0	31	0	187695104	71	4286
2026-01-03 01:38:31.10	24.71	12.14	-52.8	-54.1	15.2	0.00e+00	0	30	0	188743680	71	4283
2026-01-03 01:38:32.09	24.67	12.23	-52.7	-54.0	15.3	0.00e+00	0	31	0	190840832	71	4223
2026-01-03 01:38:33.10	24.63	12.33	-52.8	-54.1	15.2	0.00e+00	0	31	0	192937984	71	4263
2026-01-03 01:38:34.10	24.59	12.42	-52.8	-54.1	15.2	0.00e+00	0	31	0	195035136	71	4275
2026-01-03 01:38:35.10	24.55	12.51	-52.7	-54.0	15.3	0.00e+00	0	31	0	197132288	71	4207
2026-01-03 01:38:36.10	24.51	12.61	-52.7	-54.0	15.3	0.00e+00	0	31	0	198180864	71	4214
2026-01-03 01:38:37.10	24.47	12.70	-52.7	-54.0	15.3	0.00e+00	0	31	0	200278016	71	4216
2026-01-03 01:38:38.09	24.43	12.80	-52.8	-54.1	15.3	0.00e+00	0	31	0	202375168	71	4265
2026-01-03 01:38:39.10	24.39	12.89	-52.8	-54.1	15.2	0.00e+00	0	31	0	204472320	71	4248
2026-01-03 01:38:40.10	24.35	12.99	-52.8	-54.1	15.2	0.00e+00	0	31	0	206569472	71	4251
2026-01-03 01:38:41.10	24.31	13.08	-52.7	-54.0	15.3	0.00e+00	0	31	0	207618048	71	4230
2026-01-03 01:38:42.09	24.26	13.18	-52.8	-54.1	15.2	0.00e+00	0	31	0	209715200	71	4285
2026-01-03 01:38:43.08	24.22	13.27	-52.7	-54.0	15.3	0.00e+00	0	31	0	211812352	71	4230
2026-01-03 01:38:44.08	24.18	13.37	-52.8	-54.1	15.2	0.00e+00	0	31	0	213909504	71	4272
2026-01-03 01:38:45.07	24.14	13.47	-52.7	-54.0	15.3	0.00e+00	0	31	0	214958080	71	4225
2026-01-03 01:38:46.07	24.09	13.56	-52.8	-54.1	15.2	0.00e+00	0	31	0	217055232	71	4275
2026-01-03 01:38:47.06	24.05	13.66	-52.9	-54.3	15.2	0.00e+00	0	31	0	219152384	71	4357
2026-01-03 01:38:48.07	24.00	13.76	-53.0	-54.3	15.2	0.00e+00	0	31	0	221249536	71	4377
2026-01-03 01:38:49.06	23.96	13.86	-52.8	-54.2	15.2	0.00e+00	0	31	0	223346688	71	4294
2026-01-03 01:38:50.05	23.92	13.96	-52.9	-54.3	15.2	0.00e+00	0	31	0	224395264	71	4369
2026-01-03 01:38:51.05	23.87	14.06	-52.9	-54.3	15.2	0.00e+00	0	31	0	226492416	71	4359
2026-01-03 01:38:52.05	23.83	14.16	-52.8	-54.2	15.2	0.00e+00	0	31	0	228589568	71	4292
2026-01-03 01:38:53.04	23.78	14.26	-52.9	-54.3	15.2	0.00e+00	0	31	0	230686720	71	4357
2026-01-03 01:38:54.04	23.73	14.36	-52.9	-54.3	15.2	0.00e+00	0	31	0	231735296	71	4379
2026-01-03 01:38:55.05	23.69	14.46	-52.9	-54.3	15.2	0.00e+00	0	31	0	233832448	71	4358
2026-01-03 01:38:56.04	23.64	14.56	-52.9	-54.2	15.2	0.00e+00	0	31	0	235929600	71	4331
2026-01-03 01:38:57.04	23.59	14.66	-52.9	-54.3	15.2	0.00e+00	0	31	0	238026752	71	4373
2026-01-03 01:38:58.03	23.55	14.76	-53.0	-54.4	15.2	0.00e+00	0	31	0	240123904	71	4397
2026-01-03 01:38:59.03	23.50	14.86	-52.9	-54.3	15.2	0.00e+00	0	31	0	241172480	71	4354
2026-01-03 01:39:00.02	23.45	14.97	-52.8	-54.2	15.2	0.00e+00	0	31	0	243269632	71	4304
2026-01-03 01:39:01.01	23.40	15.07	-52.8	-54.2	15.2	0.00e+00	0	31	0	245366784	71	4308
2026-01-03 01:39:02.01	23.35	15.17	-52.8	-54.1	15.3	0.00e+00	0	31	0	247463936	71	4266
2026-01-03 01:39:03.00	23.31	15.28	-52.7	-54.0	15.3	0.00e+00	0	31	0	249561088	71	4208
2026-01-03 01:39:04.00	23.26	15.38	-52.8	-54.1	15.3	0.00e+00	0	31	0	250609664	71	4256
2026-01-03 01:39:05.00	23.21	15.49	-52.6	-53.9	15.4	0.00e+00	0	31	0	252706816	71	4154
2026-01-03 01:39:06.00	23.16	15.59	-52.7	-54.0	15.3	0.00e+00	0	31	0	254803968	71	4208
2026-01-03 01:39:07.00	23.11	15.70	-52.6	-53.8	15.4	0.00e+00	0	31	0	256901120	71	4137
2026-01-03 01:39:08.00	23.05	15.81	-52.7	-54.0	15.4	0.00e+00	0	31	0	257949696	71	4206
2026-01-03 01:39:09.00	23.00	15.91	-52.6	-53.9	15.4	0.00e+00	0	31	0	260046848	71	4160
2026-01-03 01:39:10.00	22.95	16.02	-52.6	-53.9	15.4	0.00e+00	0	31	0	262144000	71	4159
2026-01-03 01:39:11.00	22.90	16.13	-52.6	-53.9	15.4	0.00e+00	0	31	0	264241152	71	4164
2026-01-03 01:39:11.99	22.85	16.24	-52.8	-54.1	15.3	0.00e+00	0	31	0	266338304	71	4261
2026-01-03 01:39:12.98	22.79	16.34	-52.8	-54.1	15.3	0.00e+00	0	31	0	267386880	71	4263
2026-01-03 01:39:13.99	22.74	16.45	-52.8	-54.2	15.2	0.00e+00	0	31	0	269484032	71	4311
2026-01-03 01:39:14.99	22.69	16.56	-52.8	-54.1	15.3	0.00e+00	0	31	0	271581184	71	4272
2026-01-03 01:39:15.98	22.63	16.67	-52.9	-54.3	15.2	0.00e+00	0	31	0	273678336	71	4370
2026-01-03 01:39:16.98	22.58	16.78	-52.9	-54.3	15.2	0.00e+00	0	31	0	274726912	71	4368
2026-01-03 01:39:17.98	22.52	16.89	-52.8	-54.2	15.3	0.00e+00	0	31	0	276824064	71	4300
2026-01-03 01:39:18.97	22.47	17.00	-52.8	-54.1	15.3	0.00e+00	0	31	0	278921216	71	4264
2026-01-03 01:39:19.97	22.41	17.12	-53.0	-54.3	15.2	0.00e+00	0	31	0	281018368	71	4384
2026-01-03 01:39:20.97	22.35	17.23	-53.0	-54.3	15.2	0.00e+00	0	31	0	283115520	71	4382
2026-01-03 01:39:21.97	22.30	17.34	-53.0	-54.3	15.3	0.00e+00	0	31	0	284164096	71	4377
2026-01-03 01:39:22.97	22.24	17.46	-52.9	-54.2	15.3	0.00e+00	0	31	0	286261248	71	4311
2026-01-03 01:39:23.97	22.18	17.57	-52.8	-54.1	15.3	0.00e+00	0	31	0	288358400	71	4266
2026-01-03 01:39:24.97	22.12	17.68	-52.9	-54.3	15.2	0.00e+00	0	31	0	290455552	71	4356
2026-01-03 01:39:25.97	22.06	17.80	-52.7	-54.0	15.3	0.00e+00	0	31	0	292552704	71	4216
2026-01-03 01:39:26.96	22.00	17.91	-52.9	-54.2	15.3	0.00e+00	0	31	0	293601280	71	4333
2026-01-03 01:39:27.96	21.94	18.03	-53.1	-54.5	15.2	0.00e+00	0	31	0	295698432	71	4465
2026-01-03 01:39:28.96	21.88	18.15	-52.9	-54.3	15.2	0.00e+00	0	31	0	297795584	71	4355
2026-01-03 01:39:29.96	21.82	18.26	-52.9	-54.2	15.3	0.00e+00	0	31	0	299892736	71	4335
2026-01-03 01:39:30.95	21.76	18.38	-52.9	-54.3	15.3	0.00e+00	0	31	0	300941312	71	4352
2026-01-03 01:39:31.96	21.70	18.50	-53.1	-54.4	15.2	0.00e+00	0	31	0	303038464	71	4427
2026-01-03 01:39:32.96	21.64	18.62	-53.1	-54.5	15.2	0.00e+00	0	31	0	305135616	71	4447
2026-01-03 01:39:33.95	21.58	18.74	-53.1	-54.5	15.2	0.00e+00	0	31	0	307232768	71	4442
2026-01-03 01:39:34.95	21.51	18.86	-53.1	-54.5	15.2	0.00e+00	0	31	0	309329920	71	4449
2026-01-03 01:39:35.95	21.45	18.98	-53.4	-54.8	15.1	0.00e+00	0	31	0	310378496	72	4386
2026-01-03 01:39:36.94	21.38	19.10	-53.1	-54.5	15.2	0.00e+00	0	31	0	312475648	72	4212
2026-01-03 01:39:37.94	21.32	19.22	-53.2	-54.6	15.2	0.00e+00	0	31	0	314572800	72	4243
2026-01-03 01:39:38.94	21.25	19.34	-53.1	-54.4	15.3	0.00e+00	0	31	0	316669952	72	4173
2026-01-03 01:39:39.94	21.19	19.46	-53.0	-54.3	15.3	0.00e+00	0	31	0	318767104	72	4122
2026-01-03 01:39:40.94	21.12	19.58	-53.1	-54.4	15.3	0.00e+00	0	31	0	319815680	72	4179
2026-01-03 01:39:41.93	21.05	19.71	-52.9	-54.2	15.4	0.00e+00	0	31	0	321912832	72	4086
2026-01-03 01:39:42.93	20.99	19.83	-52.8	-54.0	15.4	0.00e+00	0	31	0	324009984	72	3993
2026-01-03 01:39:43.93	20.92	19.96	-52.8	-54.1	15.3	0.00e+00	0	31	0	326107136	71	4265
2026-01-03 01:39:44.93	20.85	20.08	-52.8	-54.0	15.4	0.00e+00	0	31	0	327155712	71	4218
2026-01-03 01:39:45.92	20.78	20.21	-52.8	-54.0	15.4	0.00e+00	0	31	0	329252864	71	4219
2026-01-03 01:39:46.91	20.71	20.33	-52.6	-53.8	15.4	0.00e+00	0	31	0	331350016	71	4125
2026-01-03 01:39:47.90	20.64	20.46	-52.7	-53.9	15.4	0.00e+00	0	31	0	333447168	71	4164
2026-01-03 01:39:48.90	20.57	20.59	-52.8	-54.0	15.4	0.00e+00	0	31	0	335544320	71	4224
2026-01-03 01:39:49.89	20.50	20.71	-52.6	-53.8	15.4	0.00e+00	0	31	0	336592896	71	4134
2026-01-03 01:39:50.89	20.42	20.84	-52.8	-54.1	15.4	0.00e+00	0	31	0	338690048	71	4251
2026-01-03 01:39:51.88	20.35	20.97	-53.2	-54.5	15.2	0.00e+00	0	31	0	340787200	71	4485
2026-01-03 01:39:52.88	20.28	21.10	-52.9	-54.2	15.3	0.00e+00	0	31	0	342884352	71	4306
2026-01-03 01:39:53.87	20.20	21.23	-53.0	-54.3	15.2	0.00e+00	0	31	0	343932928	71	4377
2026-01-03 01:39:54.87	20.13	21.36	-53.1	-54.5	15.3	0.00e+00	0	31	0	346030080	72	4201
2026-01-03 01:39:55.87	20.05	21.49	-53.2	-54.6	15.2	0.00e+00	0	31	0	348127232	72	4288
2026-01-03 01:39:56.86	19.98	21.62	-53.3	-54.7	15.2	0.00e+00	0	31	0	350224384	72	4323
2026-01-03 01:39:57.85	19.90	21.76	-53.4	-54.9	15.1	0.00e+00	0	31	0	352321536	72	4422
2026-01-03 01:39:58.84	19.82	21.89	-53.5	-55.0	15.1	0.00e+00	0	31	0	353370112	72	4458
2026-01-03 01:39:59.85	19.74	22.02	-53.8	-55.4	14.9	0.00e+00	0	31	0	355467264	72	4675
2026-01-03 01:40:00.84	19.66	22.16	-53.5	-55.1	15.0	0.00e+00	0	31	0	357564416	72	4496
2026-01-03 01:40:01.85	19.58	22.30	-53.5	-55.1	15.0	0.00e+00	0	31	0	359661568	72	4497
2026-01-03 01:40:02.85	19.50	22.43	-53.5	-55.1	15.0	0.00e+00	0	31	0	361758720	72	4497
2026-01-03 01:40:03.84	19.42	22.57	-53.5	-55.1	15.0	0.00e+00	0	31	0	362807296	72	4494
2026-01-03 01:40:04.84	19.34	22.71	-53.4	-54.9	15.1	0.00e+00	0	31	0	364904448	72	4429
2026-01-03 01:40:05.84	19.26	22.84	-53.4	-54.9	15.1	0.00e+00	0	31	0	367001600	72	4434
2026-01-03 01:40:06.83	19.17	22.98	-53.6	-55.1	15.0	0.00e+00	0	31	0	369098752	72	4544
2026-01-03 01:40:07.82	19.09	23.12	-53.9	-55.5	14.9	0.00e+00	0	31	0	370147328	72	4735
2026-01-03 01:40:08.82	19.00	23.26	-53.6	-55.2	15.0	0.00e+00	0	31	0	372244480	72	4570
2026-01-03 01:40:09.81	18.92	23.40	-53.7	-55.3	14.9	0.00e+00	0	31	0	374341632	72	4601
2026-01-03 01:40:10.81	18.83	23.54	-53.6	-55.1	15.1	0.00e+00	0	31	0	376438784	73	4259
2026-01-03 01:40:11.81	18.74	23.69	-53.5	-55.0	15.1	0.00e+00	0	31	0	378535936	73	4241
2026-01-03 01:40:12.81	18.65	23.83	-53.7	-55.3	15.0	0.00e+00	0	31	0	379584512	73	4353
2026-01-03 01:40:13.80	18.56	23.97	-53.9	-55.5	14.9	0.00e+00	0	31	0	381681664	73	4457
2026-01-03 01:40:14.79	18.47	24.12	-53.9	-55.5	14.9	0.00e+00	0	31	0	383778816	73	4449
2026-01-03 01:40:15.79	18.38	24.26	-54.2	-55.9	14.8	0.00e+00	0	31	0	385875968	73	4682
2026-01-03 01:40:16.79	18.29	24.41	-54.3	-56.0	14.7	0.00e+00	0	31	0	386924544	73	4727
2026-01-03 01:40:17.79	18.20	24.56	-54.2	-55.9	14.8	0.00e+00	0	31	0	389021696	73	4698
2026-01-03 01:40:18.79	18.10	24.70	-54.2	-55.9	14.9	0.00e+00	0	31	0	391118848	74	4406
2026-01-03 01:40:19.79	18.01	24.85	-54.5	-56.3	14.7	0.00e+00	0	31	0	393216000	74	4604
2026-01-03 01:40:20.79	17.91	25.00	-54.4	-56.1	14.7	0.00e+00	0	31	0	395313152	74	4537
2026-01-03 01:40:21.78	17.82	25.15	-54.4	-56.2	14.7	0.00e+00	0	31	0	396361728	74	4578
2026-01-03 01:40:22.77	17.72	25.30	-54.5	-56.3	14.7	0.00e+00	0	31	0	398458880	74	4646
2026-01-03 01:40:23.77	17.62	25.45	-54.7	-56.6	14.6	0.00e+00	0	31	0	400556032	74	4789
2026-01-03 01:40:24.76	17.52	25.60	-54.5	-56.3	14.7	0.00e+00	0	31	0	402653184	74	4602
2026-01-03 01:40:25.76	17.42	25.75	-54.5	-56.3	14.7	0.00e+00	0	31	0	403701760	74	4624
2026-01-03 01:40:26.76	17.32	25.91	-54.3	-56.0	14.8	0.00e+00	0	31	0	405798912	74	4480
2026-01-03 01:40:27.76	17.21	26.06	-54.3	-56.0	14.8	0.00e+00	0	31	0	407896064	74	4465
2026-01-03 01:40:28.76	17.11	26.22	-54.4	-56.1	14.8	0.00e+00	0	31	0	409993216	74	4528
2026-01-03 01:40:29.75	17.01	26.37	-54.4	-56.1	14.8	0.00e+00	0	31	0	412090368	74	4496
2026-01-03 01:40:30.74	16.90	26.53	-54.4	-56.1	14.9	0.00e+00	0	31	0	413138944	74	4512
2026-01-03 01:40:31.73	16.80	26.68	-54.6	-56.3	14.7	0.00e+00	0	31	0	415236096	74	4644
2026-01-03 01:40:32.73	16.69	26.84	-54.4	-56.1	14.8	0.00e+00	0	31	0	417333248	74	4513
2026-01-03 01:40:33.73	16.58	27.00	-54.4	-56.1	14.8	0.00e+00	0	31	0	419430400	74	4514
2026-01-03 01:40:34.72	16.47	27.16	-54.7	-56.5	14.7	0.00e+00	0	31	0	420478976	75	4452
2026-01-03 01:40:35.72	16.36	27.32	-54.6	-56.3	14.7	0.00e+00	0	31	0	422576128	75	4391
2026-01-03 01:40:36.72	16.24	27.48	-54.6	-56.4	14.7	0.00e+00	0	31	0	424673280	75	4440
2026-01-03 01:40:37.72	16.13	27.65	-55.0	-57.0	14.4	0.00e+00	0	31	0	426770432	75	4714
2026-01-03 01:40:38.72	16.01	27.81	-55.1	-57.1	14.3	0.00e+00	0	31	0	428867584	75	4813
2026-01-03 01:40:39.71	15.90	27.97	-54.9	-56.8	14.6	0.00e+00	0	31	0	429916160	75	4608
2026-01-03 01:40:40.71	15.78	28.14	-55.2	-57.2	14.3	0.00e+00	0	31	0	432013312	75	4858
2026-01-03 01:40:41.71	15.66	28.31	-55.0	-57.0	14.4	0.00e+00	0	31	0	434110464	75	4720
2026-01-03 01:40:42.70	15.54	28.47	-54.8	-56.7	14.5	0.00e+00	0	31	0	436207616	75	4587
2026-01-03 01:40:43.69	15.42	28.64	-55.2	-57.2	14.4	0.00e+00	0	31	0	438304768	75	4860
2026-01-03 01:40:44.70	15.30	28.81	-55.3	-57.5	14.2	0.00e+00	0	31	0	439353344	75	5001
2026-01-03 01:40:45.69	15.18	28.98	-55.5	-57.6	14.3	0.00e+00	0	31	0	441450496	76	4793
2026-01-03 01:40:46.68	15.05	29.14	-55.5	-57.7	14.2	0.00e+00	0	31	0	443547648	76	4843
2026-01-03 01:40:47.68	14.92	29.32	-55.5	-57.6	14.3	0.00e+00	0	31	0	445644800	76	4766
2026-01-03 01:40:48.67	14.80	29.49	-55.8	-58.0	14.0	0.00e+00	0	31	0	446693376	76	5028
2026-01-03 01:40:49.67	14.67	29.66	-55.7	-57.9	14.1	0.00e+00	0	31	0	448790528	76	4927
2026-01-03 01:40:50.66	14.54	29.83	-55.6	-57.7	14.2	0.00e+00	0	31	0	450887680	76	4840
2026-01-03 01:40:51.66	14.40	30.01	-55.8	-58.0	14.1	0.00e+00	0	31	0	452984832	76	4991
2026-01-03 01:40:52.65	14.27	30.18	-55.7	-57.8	14.2	0.00e+00	0	31	0	455081984	76	4908
2026-01-03 01:40:53.65	14.14	30.36	-55.5	-57.5	14.3	0.00e+00	0	31	0	456130560	76	4759
2026-01-03 01:40:54.64	14.00	30.53	-55.6	-57.6	14.3	0.00e+00	0	31	0	458227712	76	4813
2026-01-03 01:40:55.64	13.86	30.71	-55.7	-57.9	14.2	0.00e+00	0	31	0	460324864	76	4931
2026-01-03 01:40:56.63	13.72	30.89	-56.0	-58.2	14.0	0.00e+00	0	31	0	462422016	77	4837
2026-01-03 01:40:57.64	13.58	31.07	-56.0	-58.2	14.0	0.00e+00	0	31	0	464519168	77	4863
2026-01-03 01:40:58.63	13.44	31.25	-56.0	-58.3	14.0	0.00e+00	0	31	0	465567744	77	4874
2026-01-03 01:40:59.62	13.29	31.43	-56.2	-58.6	13.8	0.00e+00	0	31	0	467664896	77	5055
2026-01-03 01:41:00.61	13.15	31.61	-55.6	-57.7	14.3	0.00e+00	0	31	0	469762048	77	4560
2026-01-03 01:41:01.60	13.00	31.79	-55.6	-57.7	14.3	0.00e+00	0	31	0	471859200	77	4571
2026-01-03 01:41:02.60	12.85	31.98	-55.3	-57.3	14.4	0.00e+00	0	31	0	472907776	77	4379
2026-01-03 01:41:03.60	12.70	32.16	-55.2	-57.1	14.5	0.00e+00	0	31	0	475004928	76	4504
2026-01-03 01:41:04.60	12.54	32.35	-54.8	-56.6	14.8	0.00e+00	0	31	0	477102080	76	4268
2026-01-03 01:41:05.60	12.39	32.54	-54.8	-56.6	14.7	0.00e+00	0	31	0	479199232	76	4289
2026-01-03 01:41:06.59	12.23	32.73	-55.1	-56.9	14.6	0.00e+00	0	31	0	481296384	76	4438
2026-01-03 01:41:07.59	12.07	32.92	-55.1	-57.0	14.5	0.00e+00	0	31	0	482344960	76	4491
2026-01-03 01:41:08.58	11.91	33.10	-55.3	-57.3	14.5	0.00e+00	0	31	0	484442112	76	4605
2026-01-03 01:41:09.58	11.75	33.30	-55.6	-57.7	14.3	0.00e+00	0	31	0	486539264	77	4562
2026-01-03 01:41:10.57	11.59	33.49	-55.5	-57.6	14.4	0.00e+00	0	31	0	488636416	77	4495
2026-01-03 01:41:11.58	11.42	33.68	-55.7	-57.8	14.3	0.00e+00	0	31	0	489684992	77	4629
2026-01-03 01:41:12.58	11.25	33.87	-55.5	-57.6	14.4	0.00e+00	0	31	0	491782144	77	4505
2026-01-03 01:41:13.58	11.08	34.07	-55.6	-57.7	14.3	0.00e+00	0	31	0	493879296	77	4588
2026-01-03 01:41:14.57	10.91	34.26	-55.9	-58.2	14.0	0.00e+00	0	31	0	495976448	77	4844
2026-01-03 01:41:15.57	10.73	34.46	-55.3	-57.3	14.5	0.00e+00	0	31	0	498073600	77	4378
2026-01-03 01:41:16.57	10.55	34.66	-55.4	-57.5	14.4	0.00e+00	0	31	0	499122176	77	4446
2026-01-03 01:41:17.56	10.37	34.86	-55.5	-57.7	14.3	0.00e+00	0	31	0	501219328	77	4591
2026-01-03 01:41:18.56	10.19	35.06	-55.6	-57.9	14.2	0.00e+00	0	31	0	503316480	77	4666
2026-01-03 01:41:19.54	10.01	35.25	-55.9	-58.4	13.8	0.00e+00	0	31	0	505413632	77	4973
2026-01-03 01:41:20.54	9.82	35.45	-56.1	-58.8	13.7	0.00e+00	0	31	0	506462208	78	4888
2026-01-03 01:41:21.53	9.64	35.65	-56.3	-59.3	13.4	0.00e+00	0	31	0	508559360	78	5169
2026-01-03 01:41:22.53	9.45	35.86	-56.5	-59.8	13.0	0.00e+00	0	31	0	510656512	78	5491
2026-01-03 01:41:23.52	9.25	36.06	-56.2	-59.3	13.3	0.00e+00	0	31	0	512753664	78	5200
2026-01-03 01:41:24.52	9.06	36.27	-56.1	-59.2	13.4	0.00e+00	0	31	0	514850816	78	5116
2026-01-03 01:41:25.53	8.86	36.47	-56.5	-59.8	13.1	0.00e+00	0	31	0	515899392	78	5509
2026-01-03 01:41:26.52	8.66	36.68	-56.8	-60.6	12.6	0.00e+00	0	31	0	517996544	78	6003
2026-01-03 01:41:27.52	8.45	36.89	-57.1	-61.0	12.4	0.00e+00	0	31	0	520093696	79	5966
2026-01-03 01:41:28.50	8.25	37.09	-57.6	-62.2	11.6	3.28e-05	0	31	0	522190848	80	6436
2026-01-03 01:41:29.49	8.04	37.30	-57.7	-62.5	11.4	4.80e-05	0	31	0	523239424	80	6672
2026-01-03 01:41:30.49	7.83	37.51	-57.8	-62.5	11.2	2.74e-05	0	31	0	525336576	80	6712
2026-01-03 01:41:31.49	7.61	37.72	-57.4	-61.3	12.3	2.20e-06	0	31	0	527433728	80	5836
2026-01-03 01:41:32.49	7.40	37.93	-57.1	-60.6	12.8	0.00e+00	0	31	0	529530880	80	5358
2026-01-03 01:41:33.49	7.18	38.15	-56.2	-59.0	13.6	0.00e+00	0	31	0	531628032	79	4725
2026-01-03 01:41:34.49	6.95	38.36	-55.6	-57.9	14.2	0.00e+00	0	31	0	532676608	77	4675
2026-01-03 01:41:35.49	6.72	38.58	-55.3	-57.5	14.5	0.00e+00	0	31	0	534773760	76	4732
2026-01-03 01:41:36.48	6.50	38.79	-55.1	-57.1	14.5	0.00e+00	0	31	0	536870912	76	4536
2026-01-03 01:41:37.48	6.26	39.01	-55.1	-57.1	14.5	0.00e+00	0	31	0	538968064	76	4536
2026-01-03 01:41:38.47	6.03	39.22	-55.3	-57.4	14.3	0.00e+00	0	31	0	540016640	76	4694
2026-01-03 01:41:39.47	5.79	39.44	-55.5	-57.7	14.2	0.00e+00	0	31	0	542113792	76	4866
2026-01-03 01:41:40.46	5.55	39.66	-55.8	-58.4	13.8	0.00e+00	0	31	0	544210944	76	5238
2026-01-03 01:41:41.46	5.30	39.88	-56.0	-58.6	13.8	0.00e+00	0	31	0	546308096	77	5052
2026-01-03 01:41:42.46	5.05	40.10	-56.1	-58.8	13.7	0.00e+00	0	31	0	548405248	77	5174
2026-01-03 01:41:43.46	4.80	40.32	-56.1	-58.7	13.8	0.00e+00	0	31	0	549453824	77	5110
2026-01-03 01:41:44.46	4.54	40.54	-56.1	-58.7	13.8	0.00e+00	0	31	0	551550976	77	5112
2026-01-03 01:41:45.44	4.29	40.76	-56.0	-58.6	13.8	0.00e+00	0	31	0	553648128	77	5073
2026-01-03 01:41:46.44	4.03	40.98	-55.6	-58.0	14.2	0.00e+00	0	31	0	555745280	77	4718
2026-01-03 01:41:47.44	3.76	41.21	-56.3	-59.1	13.6	0.00e+00	0	31	0	557842432	77	5385
2026-01-03 01:41:48.42	3.49	41.43	-56.6	-59.7	13.3	0.00e+00	0	31	0	558891008	78	5421
2026-01-03 01:41:49.41	3.22	41.65	-56.8	-60.1	13.0	0.00e+00	0	31	0	560988160	79	5352
2026-01-03 01:41:50.41	2.94	41.88	-56.8	-59.9	13.2	0.00e+00	0	31	0	563085312	79	5223
2026-01-03 01:41:51.41	2.66	42.10	-57.2	-60.4	13.0	0.00e+00	0	31	0	565182464	79	5565
2026-01-03 01:41:52.41	2.37	42.33	-57.1	-60.1	13.1	0.00e+00	0	31	0	566231040	79	5386
2026-01-03 01:41:53.41	2.08	42.56	-56.6	-59.2	13.7	0.00e+00	0	31	0	568328192	79	4816
2026-01-03 01:41:54.40	1.79	42.79	-56.7	-59.4	13.5	0.00e+00	0	31	0	570425344	79	4961
2026-01-03 01:41:55.40	1.49	43.01	-56.6	-59.3	13.6	0.00e+00	0	31	0	572522496	79	4902
2026-01-03 01:41:56.40	1.19	43.24	-56.3	-58.8	13.9	0.00e+00	0	31	0	574619648	79	4639
2026-01-03 01:41:57.40	0.88	43.47	-56.6	-59.3	13.6	0.00e+00	0	31	0	575668224	79	4919
2026-01-03 01:41:58.39	0.57	43.70	-56.0	-58.5	14.0	0.00e+00	0	31	0	577765376	78	4706
2026-01-03 01:41:59.38	0.25	43.93	-55.8	-58.1	14.1	0.00e+00	0	31	0	579862528	77	4785
2026-01-03 01:42:00.38	359.93	44.16	-56.0	-58.5	13.9	0.00e+00	0	31	0	581959680	77	4997
2026-01-03 01:42:01.38	359.61	44.39	-56.4	-59.2	13.5	0.00e+00	0	31	0	583008256	78	5118
2026-01-03 01:42:02.37	359.28	44.62	-56.6	-59.4	13.5	0.00e+00	0	31	0	585105408	78	5262
2026-01-03 01:42:03.37	358.94	44.85	-56.2	-58.7	13.9	0.00e+00	0	31	0	587202560	78	4835
2026-01-03 01:42:04.36	358.60	45.08	-55.7	-57.9	14.3	0.00e+00	0	31	0	589299712	77	4689
2026-01-03 01:42:05.35	358.26	45.31	-55.5	-57.6	14.5	0.00e+00	0	31	0	591396864	77	4530
2026-01-03 01:42:06.34	357.91	45.55	-55.1	-57.1	14.6	0.00e+00	0	31	0	592445440	76	4512
2026-01-03 01:42:07.34	357.55	45.78	-55.0	-57.0	14.6	0.00e+00	0	31	0	594542592	76	4454
2026-01-03 01:42:08.34	357.19	46.01	-54.8	-56.8	14.7	0.00e+00	0	31	0	596639744	76	4351
2026-01-03 01:42:09.34	356.83	46.24	-54.9	-56.8	14.8	0.00e+00	0	31	0	598736896	76	4346
2026-01-03 01:42:10.34	356.45	46.48	-54.9	-56.8	14.7	0.00e+00	0	31	0	600834048	75	4634
2026-01-03 01:42:11.33	356.08	46.71	-55.0	-57.1	14.5	0.00e+00	0	31	0	601882624	75	4783
2026-01-03 01:42:12.33	355.69	46.94	-55.2	-57.5	14.2	0.00e+00	0	31	0	603979776	75	5027
2026-01-03 01:42:13.33	355.30	47.17	-55.5	-57.9	14.2	0.00e+00	0	31	0	606076928	76	4945
2026-01-03 01:42:14.33	354.91	47.40	-55.1	-57.4	14.4	0.00e+00	0	31	0	608174080	76	4686
2026-01-03 01:42:15.32	354.51	47.63	-54.7	-56.8	14.7	0.00e+00	0	31	0	609222656	76	4361
2026-01-03 01:42:16.31	354.10	47.86	-54.8	-56.8	14.6	0.00e+00	0	31	0	611319808	75	4641
2026-01-03 01:42:17.32	353.69	48.10	-54.7	-56.7	14.7	0.00e+00	0	31	0	613416960	75	4562
2026-01-03 01:42:18.32	353.26	48.33	-55.0	-57.3	14.3	0.00e+00	0	31	0	615514112	75	4909
2026-01-03 01:42:19.31	352.84	48.56	-55.6	-58.2	14.0	0.00e+00	0	31	0	617611264	76	5110
2026-01-03 01:42:20.31	352.41	48.79	-55.5	-58.0	14.1	0.00e+00	0	31	0	618659840	76	4990
2026-01-03 01:42:21.30	351.97	49.01	-55.6	-58.1	13.9	0.00e+00	0	31	0	620756992	76	5092
2026-01-03 01:42:22.29	351.53	49.24	-55.4	-57.9	14.1	0.00e+00	0	31	0	622854144	76	4959
2026-01-03 01:42:23.29	351.08	49.47	-55.5	-58.0	14.0	0.00e+00	0	31	0	624951296	76	5026
2026-01-03 01:42:24.28	350.62	49.69	-55.4	-57.9	14.1	0.00e+00	0	31	0	625999872	76	4950
2026-01-03 01:42:25.28	350.16	49.92	-54.9	-57.1	14.5	0.00e+00	0	31	0	628097024	76	4529
2026-01-03 01:42:26.28	349.68	50.15	-54.7	-56.9	14.5	0.00e+00	0	31	0	630194176	75	4703
2026-01-03 01:42:27.28	349.20	50.37	-54.5	-56.5	14.8	0.00e+00	0	31	0	632291328	75	4485
2026-01-03 01:42:28.27	348.72	50.59	-54.5	-56.5	14.8	0.00e+00	0	31	0	634388480	75	4450
2026-01-03 01:42:29.27	348.22	50.81	-54.1	-55.9	15.0	0.00e+00	0	31	0	635437056	74	4432
2026-01-03 01:42:30.28	347.71	51.04	-54.0	-55.8	15.0	0.00e+00	0	31	0	637534208	74	4362
2026-01-03 01:42:31.28	347.20	51.26	-53.9	-55.6	15.0	0.00e+00	0	31	0	639631360	74	4281
2026-01-03 01:42:32.27	346.69	51.47	-53.5	-55.1	15.2	0.00e+00	0	31	0	641728512	73	4268
2026-01-03 01:42:33.27	346.16	51.69	-53.1	-54.6	15.3	0.00e+00	0	31	0	642777088	72	4273
2026-01-03 01:42:34.26	345.63	51.90	-52.9	-54.4	15.4	0.00e+00	0	31	0	644874240	72	4171
2026-01-03 01:42:35.26	345.09	52.11	-53.3	-55.0	15.2	0.00e+00	0	31	0	646971392	72	4454
2026-01-03 01:42:36.25	344.55	52.32	-53.8	-55.7	14.9	0.00e+00	0	31	0	649068544	72	4834
2026-01-03 01:42:37.24	344.00	52.53	-53.8	-55.8	14.9	0.00e+00	0	31	0	651165696	73	4600
2026-01-03 01:42:38.24	343.43	52.74	-53.3	-55.0	15.2	0.00e+00	0	31	0	652214272	73	4235
2026-01-03 01:42:39.24	342.86	52.94	-53.0	-54.5	15.4	0.00e+00	0	31	0	654311424	72	4239
2026-01-03 01:42:40.24	342.28	53.15	-53.3	-54.9	15.3	0.00e+00	0	31	0	656408576	72	4405
2026-01-03 01:42:41.23	341.70	53.35	-53.9	-55.6	15.0	0.00e+00	0	31	0	658505728	73	4535
2026-01-03 01:42:42.23	341.10	53.55	-54.3	-56.3	14.7	0.00e+00	0	31	0	659554304	73	4890
2026-01-03 01:42:43.23	340.49	53.74	-54.7	-56.7	14.6	0.00e+00	0	31	0	661651456	74	4858
2026-01-03 01:42:44.23	339.88	53.94	-55.1	-57.3	14.5	0.00e+00	0	31	0	663748608	75	4921
2026-01-03 01:42:45.23	339.26	54.13	-55.2	-57.4	14.4	0.00e+00	0	31	0	665845760	75	4948
2026-01-03 01:42:46.23	338.63	54.32	-54.9	-56.9	14.7	0.00e+00	0	31	0	667942912	75	4704
2026-01-03 01:42:47.23	337.99	54.50	-54.8	-56.8	14.7	0.00e+00	0	31	0	668991488	75	4628
2026-01-03 01:42:48.23	337.34	54.69	-54.7	-56.7	14.7	0.00e+00	0	31	0	671088640	75	4572
2026-01-03 01:42:49.22	336.69	54.86	-54.2	-55.9	15.0	0.00e+00	0	31	0	673185792	75	4190
2026-01-03 01:42:50.21	336.03	55.04	-53.7	-55.1	15.3	0.00e+00	0	31	0	675282944	73	4283
2026-01-03 01:42:51.20	335.37	55.21	-53.4	-54.9	15.3	0.00e+00	0	31	0	677380096	72	4418
2026-01-03 01:42:52.20	334.69	55.38	-54.1	-55.9	14.9	0.00e+00	0	31	0	678428672	73	4661
2026-01-03 01:42:53.19	334.01	55.54	-54.6	-56.6	14.7	0.00e+00	0	31	0	680525824	74	4769
2026-01-03 01:42:54.18	333.32	55.71	-54.1	-55.9	15.1	0.00e+00	0	31	0	682622976	74	4421
2026-01-03 01:42:55.18	332.61	55.86	-53.8	-55.4	15.2	0.00e+00	0	31	0	684720128	74	4159
2026-01-03 01:42:56.17	331.91	56.02	-53.7	-55.3	15.2	0.00e+00	0	31	0	685768704	73	4361
2026-01-03 01:42:57.18	331.18	56.17	-54.3	-56.2	14.8	0.00e+00	0	31	0	687865856	73	4849
2026-01-03 01:42:58.17	330.46	56.32	-55.0	-57.3	14.4	0.00e+00	0	31	0	689963008	75	4891
2026-01-03 01:42:59.16	329.73	56.46	-55.6	-58.3	14.0	0.00e+00	0	31	0	692060160	76	5190
2026-01-03 01:43:00.15	328.99	56.60	-55.6	-58.3	13.9	0.00e+00	0	31	0	694157312	76	5168
2026-01-03 01:43:01.13	328.26	56.73	-55.0	-57.2	14.5	0.00e+00	0	31	0	695205888	76	4592
2026-01-03 01:43:02.14	327.49	56.86	-53.8	-55.6	14.9	0.00e+00	0	31	0	697303040	74	4260
2026-01-03 01:43:03.12	326.74	56.98	-53.1	-54.6	15.3	0.00e+00	0	31	0	699400192	72	4286
2026-01-03 01:43:04.12	325.97	57.10	-53.2	-54.8	15.3	0.00e+00	0	31	0	701497344	72	4364
2026-01-03 01:43:05.11	325.20	57.22	-53.6	-55.5	15.0	0.00e+00	0	31	0	702545920	72	4719
2026-01-03 01:43:06.11	324.42	57.33	-53.8	-55.7	14.9	0.00e+00	0	31	0	704643072	73	4552
2026-01-03 01:43:07.12	323.62	57.44	-53.9	-55.9	14.8	0.00e+00	0	31	0	706740224	73	4682
2026-01-03 01:43:08.11	322.83	57.54	-53.3	-55.0	15.2	0.00e+00	0	31	0	708837376	73	4240
2026-01-03 01:43:09.13	322.01	57.63	-52.8	-54.3	15.5	0.00e+00	0	31	0	710934528	72	4103
2026-01-03 01:43:10.12	321.21	57.72	-52.6	-54.0	15.5	0.00e+00	0	31	0	711983104	71	4236
2026-01-03 01:43:11.13	320.38	57.81	-52.5	-54.0	15.4	0.00e+00	0	31	0	714080256	71	4217
2026-01-03 01:43:12.13	319.56	57.89	-52.6	-54.1	15.4	0.00e+00	0	31	0	716177408	71	4285
2026-01-03 01:43:13.13	318.74	57.97	-53.3	-55.1	15.0	0.00e+00	0	31	0	718274560	71	4809
2026-01-03 01:43:14.13	317.91	58.03	-53.8	-55.9	14.8	0.00e+00	0	31	0	720371712	73	4694
2026-01-03 01:43:15.13	317.08	58.10	-53.7	-55.9	14.8	0.00e+00	0	31	0	721420288	73	4665
2026-01-03 01:43:16.13	316.24	58.16	-53.5	-55.5	15.0	0.00e+00	0	31	0	723517440	73	4446
2026-01-03 01:43:17.13	315.40	58.21	-52.9	-54.6	15.3	0.00e+00	0	31	0	725614592	72	4252
2026-01-03 01:43:18.14	314.55	58.25	-52.0	-53.3	15.7	0.00e+00	0	31	0	727711744	70	4131
2026-01-03 01:43:19.15	313.69	58.29	-51.9	-53.2	15.8	0.00e+00	0	31	0	729808896	70	4054
2026-01-03 01:43:20.15	312.85	58.33	-52.2	-53.5	15.6	0.00e+00	0	31	0	730857472	70	4234
2026-01-03 01:43:21.16	311.99	58.36	-52.3	-53.6	15.6	0.00e+00	0	31	0	732954624	70	4287
2026-01-03 01:43:22.16	311.14	58.38	-51.9	-53.1	15.7	0.00e+00	0	31	0	735051776	70	4031
2026-01-03 01:43:23.17	310.27	58.40	-51.6	-52.8	15.8	0.00e+00	0	31	0	737148928	69	4126
2026-01-03 01:43:24.17	309.42	58.41	-51.4	-52.6	15.8	0.00e+00	0	31	0	738197504	69	4018
2026-01-03 01:43:25.17	308.56	58.41	-51.4	-52.6	15.8	0.00e+00	0	31	0	740294656	68	4272
2026-01-03 01:43:26.17	307.71	58.41	-51.4	-52.5	15.8	0.00e+00	0	31	0	742391808	68	4235
2026-01-03 01:43:27.16	306.86	58.40	-51.3	-52.4	15.8	0.00e+00	0	31	0	744488960	68	4155
2026-01-03 01:43:28.17	306.00	58.39	-50.9	-52.0	15.9	0.00e+00	0	31	0	746586112	68	3971
2026-01-03 01:43:29.17	305.15	58.37	-51.0	-52.1	15.9	0.00e+00	0	31	0	747634688	68	4028
2026-01-03 01:43:30.17	304.30	58.35	-51.5	-52.8	15.7	0.00e+00	0	31	0	749731840	68	4354
2026-01-03 01:43:31.17	303.45	58.32	-52.1	-53.4	15.5	0.00e+00	0	31	0	751828992	69	4440
2026-01-03 01:43:32.18	302.59	58.28	-51.9	-53.3	15.6	0.00e+00	0	31	0	753926144	69	4374
2026-01-03 01:43:33.18	301.74	58.24	-51.7	-53.0	15.7	0.00e+00	0	31	0	756023296	69	4205
2026-01-03 01:43:34.19	300.89	58.19	-51.7	-53.0	15.8	0.00e+00	0	31	0	757071872	69	4196
2026-01-03 01:43:35.19	300.06	58.13	-51.0	-52.1	16.0	0.00e+00	0	31	0	759169024	68	4024
2026-01-03 01:43:36.19	299.22	58.07	-51.2	-52.3	15.9	0.00e+00	0	31	0	761266176	68	4114
2026-01-03 01:43:37.19	298.39	58.01	-51.2	-52.3	15.9	0.00e+00	0	31	0	763363328	68	4128
2026-01-03 01:43:38.20	297.55	57.94	-51.3	-52.5	15.9	0.00e+00	0	31	0	765460480	68	4194
2026-01-03 01:43:39.20	296.73	57.86	-51.1	-52.2	15.9	0.00e+00	0	31	0	766509056	68	4074
2026-01-03 01:43:40.20	295.91	57.78	-51.2	-52.4	15.8	0.00e+00	0	31	0	768606208	68	4154
2026-01-03 01:43:41.20	295.10	57.69	-51.2	-52.4	15.9	0.00e+00	0	31	0	770703360	68	4158
2026-01-03 01:43:42.21	294.28	57.60	-51.4	-52.6	15.8	0.00e+00	0	31	0	772800512	68	4261
2026-01-03 01:43:43.22	293.47	57.50	-52.0	-53.3	15.6	0.00e+00	0	31	0	774897664	69	4380
2026-01-03 01:43:44.22	292.68	57.39	-51.8	-53.0	15.7	0.00e+00	0	31	0	775946240	69	4233
2026-01-03 01:43:45.22	291.89	57.28	-52.3	-53.6	15.6	0.00e+00	0	31	0	778043392	69	4506
2026-01-03 01:43:46.22	291.11	57.17	-52.7	-54.1	15.5	0.00e+00	0	31	0	780140544	71	4252
2026-01-03 01:43:47.23	290.32	57.05	-52.3	-53.6	15.6	0.00e+00	0	31	0	782237696	71	4045
2026-01-03 01:43:48.23	289.55	56.93	-51.9	-53.1	15.8	0.00e+00	0	31	0	783286272	70	4007
2026-01-03 01:43:49.23	288.79	56.80	-52.2	-53.4	15.7	0.00e+00	0	31	0	785383424	70	4182
2026-01-03 01:43:50.23	288.03	56.67	-52.4	-53.7	15.7	0.00e+00	0	31	0	787480576	70	4318
2026-01-03 01:43:51.24	287.28	56.53	-52.6	-54.0	15.5	0.00e+00	0	31	0	789577728	70	4448
2026-01-03 01:43:52.24	286.54	56.39	-53.1	-54.5	15.4	0.00e+00	0	31	0	791674880	71	4466
2026-01-03 01:43:53.24	285.81	56.24	-53.5	-55.0	15.3	0.00e+00	0	31	0	793772032	72	4465
2026-01-03 01:43:54.25	285.07	56.09	-53.3	-54.7	15.5	0.00e+00	0	31	0	794820608	72	4324
2026-01-03 01:43:55.25	284.36	55.94	-52.7	-53.9	15.7	0.00e+00	0	31	0	796917760	72	3937
2026-01-03 01:43:56.25	283.65	55.78	-53.4	-54.7	15.4	0.00e+00	0	31	0	799014912	71	4589
2026-01-03 01:43:57.25	282.95	55.62	-54.9	-56.8	14.8	0.00e+00	0	31	0	801112064	75	4647
2026-01-03 01:43:58.26	282.25	55.46	-55.4	-57.6	14.3	0.00e+00	0	31	0	802160640	76	4780
2026-01-03 01:43:59.26	281.56	55.29	-54.9	-56.8	14.9	0.00e+00	0	31	0	804257792	76	4341
2026-01-03 01:44:00.26	280.89	55.11	-54.0	-55.6	15.3	0.00e+00	0	31	0	806354944	74	4259
2026-01-03 01:44:01.26	280.22	54.94	-53.1	-54.4	15.5	0.00e+00	0	31	0	808452096	72	4172
2026-01-03 01:44:02.26	279.56	54.76	-52.8	-54.1	15.5	0.00e+00	0	31	0	810549248	71	4255
2026-01-03 01:44:03.25	278.91	54.58	-53.3	-54.8	15.3	0.00e+00	0	31	0	811597824	71	4633
2026-01-03 01:44:04.26	278.26	54.39	-53.2	-54.6	15.4	0.00e+00	0	31	0	813694976	72	4281
2026-01-03 01:44:05.26	277.63	54.21	-51.9	-53.1	15.8	0.00e+00	0	31	0	815792128	70	4011
2026-01-03 01:44:06.26	277.00	54.02	-51.7	-52.8	15.8	0.00e+00	0	31	0	817889280	69	4107
2026-01-03 01:44:07.26	276.38	53.82	-52.4	-53.6	15.6	0.00e+00	0	31	0	819986432	69	4532
2026-01-03 01:44:08.27	275.77	53.63	-52.9	-54.4	15.4	0.00e+00	0	31	0	821035008	71	4396
2026-01-03 01:44:09.27	275.17	53.43	-53.4	-54.9	15.3	0.00e+00	0	31	0	823132160	72	4430
2026-01-03 01:44:10.28	274.57	53.22	-53.6	-55.1	15.3	0.00e+00	0	31	0	825229312	72	4534
2026-01-03 01:44:11.27	273.99	53.02	-53.4	-54.9	15.4	0.00e+00	0	31	0	827326464	72	4398
2026-01-03 01:44:12.27	273.41	52.82	-53.0	-54.4	15.5	0.00e+00	0	31	0	828375040	72	4180
2026-01-03 01:44:13.28	272.84	52.61	-53.3	-54.7	15.4	0.00e+00	0	31	0	830472192	72	4329
2026-01-03 01:44:14.28	272.27	52.40	-52.9	-54.3	15.5	0.00e+00	0	31	0	832569344	72	4113
2026-01-03 01:44:15.28	271.72	52.19	-53.2	-54.7	15.3	0.00e+00	0	31	0	834666496	72	4307
2026-01-03 01:44:16.29	271.17	51.97	-53.6	-55.1	15.2	0.00e+00	0	31	0	836763648	72	4533
2026-01-03 01:44:17.29	270.63	51.76	-53.6	-55.2	15.1	0.00e+00	0	31	0	838860800	72	4579
2026-01-03 01:44:18.29	270.10	51.54	-54.1	-55.9	15.0	0.00e+00	0	31	0	839909376	73	4663
2026-01-03 01:44:19.30	269.58	51.32	-54.3	-56.1	14.9	0.00e+00	0	31	0	842006528	73	4775
2026-01-03 01:44:20.31	269.06	51.10	-54.5	-56.4	14.8	0.00e+00	0	31	0	844103680	74	4668
2026-01-03 01:44:21.31	268.55	50.88	-54.5	-56.4	14.9	0.00e+00	0	31	0	846200832	74	4672
2026-01-03 01:44:22.31	268.05	50.66	-55.6	-57.9	14.2	0.00e+00	0	31	0	847249408	76	4958
2026-01-03 01:44:23.31	267.56	50.43	-54.4	-56.2	14.9	0.00e+00	0	31	0	849346560	75	4318
2026-01-03 01:44:24.31	267.08	50.21	-54.1	-55.8	15.1	0.00e+00	0	31	0	851443712	74	4365
2026-01-03 01:44:25.32	266.60	49.98	-54.4	-56.2	14.8	0.00e+00	0	31	0	853540864	74	4587
2026-01-03 01:44:26.33	266.12	49.75	-55.0	-57.2	14.4	0.00e+00	0	31	0	855638016	75	4835
2026-01-03 01:44:27.33	265.66	49.52	-55.1	-57.3	14.3	0.00e+00	0	31	0	856686592	75	4920
2026-01-03 01:44:28.33	265.20	49.30	-55.0	-57.2	14.5	0.00e+00	0	31	0	858783744	75	4822
2026-01-03 01:44:29.33	264.75	49.07	-55.0	-57.1	14.5	0.00e+00	0	31	0	860880896	75	4785
2026-01-03 01:44:30.33	264.31	48.84	-54.5	-56.4	14.8	0.00e+00	0	31	0	862978048	75	4395
2026-01-03 01:44:31.34	263.87	48.61	-54.6	-56.4	14.9	0.00e+00	0	31	0	865075200	75	4412
2026-01-03 01:44:32.34	263.44	48.37	-55.0	-56.9	14.7	0.00e+00	0	31	0	866123776	75	4694
2026-01-03 01:44:33.34	263.02	48.14	-55.5	-57.6	14.4	0.00e+00	0	31	0	868220928	76	4803
2026-01-03 01:44:34.34	262.60	47.91	-55.4	-57.4	14.6	0.00e+00	0	31	0	870318080	76	4672
2026-01-03 01:44:35.35	262.19	47.68	-55.7	-57.8	14.5	0.00e+00	0	31	0	872415232	76	4890
2026-01-03 01:44:36.35	261.78	47.44	-56.0	-58.3	14.2	0.00e+00	0	31	0	874512384	77	4897
2026-01-03 01:44:37.35	261.38	47.21	-55.8	-57.9	14.4	0.00e+00	0	31	0	875560960	77	4665
2026-01-03 01:44:38.35	260.99	46.98	-55.7	-57.7	14.4	0.00e+00	0	31	0	877658112	77	4583
2026-01-03 01:44:39.36	260.60	46.74	-55.7	-57.9	14.4	0.00e+00	0	31	0	879755264	77	4679
2026-01-03 01:44:40.36	260.22	46.51	-56.0	-58.3	14.2	0.00e+00	0	31	0	881852416	77	4874
2026-01-03 01:44:41.36	259.85	46.28	-56.9	-59.9	13.4	0.00e+00	0	31	0	883949568	79	5265
2026-01-03 01:44:42.37	259.47	46.04	-57.7	-61.5	12.3	0.00e+00	0	31	0	884998144	80	5952
2026-01-03 01:44:43.37	259.11	45.81	-57.7	-61.4	12.5	1.50e-06	0	31	0	887095296	80	5862
2026-01-03 01:44:44.37	258.75	45.57	-56.8	-59.4	13.7	0.00e+00	0	31	0	889192448	80	4697
2026-01-03 01:44:45.37	258.40	45.34	-56.2	-58.5	14.1	0.00e+00	0	31	0	891289600	78	4734
2026-01-03 01:44:46.37	258.05	45.11	-56.3	-58.6	14.1	0.00e+00	0	31	0	892338176	78	4795
2026-01-03 01:44:47.38	257.70	44.87	-56.5	-58.9	13.8	0.00e+00	0	31	0	894435328	78	4983
2026-01-03 01:44:48.39	257.36	44.64	-55.9	-58.0	14.3	0.00e+00	0	31	0	896532480	78	4479
2026-01-03 01:44:49.39	257.03	44.40	-55.5	-57.4	14.6	0.00e+00	0	31	0	898629632	77	4398
2026-01-03 01:44:50.40	256.70	44.17	-54.5	-56.0	15.2	0.00e+00	0	31	0	900726784	75	4213
2026-01-03 01:44:51.40	256.38	43.94	-54.1	-55.6	15.2	0.00e+00	0	31	0	901775360	74	4279
2026-01-03 01:44:52.40	256.06	43.71	-53.8	-55.2	15.4	0.00e+00	0	31	0	903872512	74	4088
2026-01-03 01:44:53.40	255.74	43.48	-54.3	-55.9	15.1	0.00e+00	0	31	0	905969664	74	4397
2026-01-03 01:44:54.40	255.43	43.25	-54.8	-56.6	14.8	0.00e+00	0	31	0	908066816	74	4762
2026-01-03 01:44:55.40	255.13	43.02	-55.0	-56.9	14.6	0.00e+00	0	31	0	910163968	75	4704
2026-01-03 01:44:56.41	254.83	42.78	-55.8	-58.1	14.2	0.00e+00	0	31	0	911212544	76	5057
2026-01-03 01:44:57.41	254.53	42.55	-56.3	-58.8	13.8	0.00e+00	0	31	0	913309696	77	5206
2026-01-03 01:44:58.41	254.24	42.33	-56.8	-59.9	13.2	0.00e+00	0	31	0	915406848	78	5565
2026-01-03 01:44:59.42	253.95	42.10	-57.3	-60.6	12.9	0.00e+00	0	31	0	917504000	79	5674
2026-01-03 01:45:00.42	253.66	41.87	-57.3	-60.6	12.9	0.00e+00	0	31	0	919601152	80	5375
2026-01-03 01:45:01.43	253.38	41.64	-56.6	-59.4	13.6	0.00e+00	0	31	0	920649728	79	4931
2026-01-03 01:45:02.43	253.11	41.41	-55.9	-58.2	14.2	0.00e+00	0	31	0	922746880	78	4581
2026-01-03 01:45:03.43	252.83	41.19	-55.8	-58.0	14.4	0.00e+00	0	31	0	924844032	78	4472
2026-01-03 01:45:04.42	252.57	40.97	-56.0	-58.2	14.1	0.00e+00	0	31	0	926941184	77	4870
2026-01-03 01:45:05.42	252.30	40.74	-55.7	-57.8	14.3	0.00e+00	0	31	0	929038336	77	4651
2026-01-03 01:45:06.43	252.04	40.52	-56.1	-58.5	14.0	0.00e+00	0	31	0	930086912	77	5033
2026-01-03 01:45:07.44	251.78	40.29	-56.1	-58.6	13.9	0.00e+00	0	31	0	932184064	77	5066
2026-01-03 01:45:08.44	251.53	40.07	-56.3	-59.0	13.7	0.00e+00	0	31	0	934281216	77	5324
2026-01-03 01:45:09.45	251.28	39.85	-56.2	-58.8	13.8	0.00e+00	0	31	0	936378368	78	4881
2026-01-03 01:45:10.45	251.03	39.62	-56.8	-59.8	13.1	0.00e+00	0	31	0	938475520	78	5527
2026-01-03 01:45:11.46	250.78	39.40	-56.7	-59.7	13.1	0.00e+00	0	31	0	939524096	79	5140
2026-01-03 01:45:12.46	250.54	39.18	-57.0	-60.3	12.9	0.00e+00	0	31	0	941621248	79	5513
2026-01-03 01:45:13.46	250.31	38.97	-57.2	-60.8	12.6	0.00e+00	0	31	0	943718400	79	5841
2026-01-03 01:45:14.46	250.07	38.75	-57.5	-61.3	12.3	1.50e-06	0	31	0	945815552	80	5807
2026-01-03 01:45:15.47	249.84	38.53	-57.0	-60.3	12.9	3.00e-06	0	31	0	946864128	80	5210
2026-01-03 01:45:16.47	249.61	38.31	-56.5	-59.2	13.6	0.00e+00	0	31	0	948961280	79	4869
2026-01-03 01:45:17.47	249.39	38.10	-56.1	-58.5	14.0	0.00e+00	0	31	0	951058432	78	4731
2026-01-03 01:45:18.47	249.17	37.89	-55.9	-58.3	14.1	0.00e+00	0	31	0	953155584	78	4618
2026-01-03 01:45:19.47	248.95	37.67	-55.7	-57.9	14.0	0.00e+00	0	31	0	955252736	78	4440
2026-01-03 01:45:20.47	248.73	37.46	-55.9	-58.2	14.1	0.00e+00	0	31	0	956301312	77	4824
2026-01-03 01:45:21.48	248.52	37.25	-56.0	-58.4	14.1	0.00e+00	0	31	0	958398464	77	4929
2026-01-03 01:45:22.48	248.31	37.04	-55.7	-57.9	14.2	0.00e+00	0	31	0	960495616	77	4699
2026-01-03 01:45:23.48	248.10	36.83	-55.6	-57.7	14.4	0.00e+00	0	31	0	962592768	77	4565
2026-01-03 01:45:24.49	247.90	36.62	-55.8	-58.0	14.2	0.00e+00	0	31	0	964689920	77	4725
2026-01-03 01:45:25.50	247.69	36.41	-56.3	-58.8	13.8	0.00e+00	0	31	0	965738496	78	4875
2026-01-03 01:45:26.50	247.49	36.20	-55.9	-58.2	14.2	0.00e+00	0	31	0	967835648	78	4572
2026-01-03 01:45:27.49	247.30	36.00	-55.2	-57.1	14.7	0.00e+00	0	31	0	969932800	77	4249
2026-01-03 01:45:28.50	247.10	35.79	-55.1	-57.0	14.7	0.00e+00	0	31	0	972029952	76	4453
2026-01-03 01:45:29.51	246.91	35.59	-55.3	-57.2	14.7	0.00e+00	0	31	0	974127104	76	4549
2026-01-03 01:45:30.51	246.72	35.38	-55.7	-57.8	14.3	0.00e+00	0	31	0	975175680	76	4904
2026-01-03 01:45:31.51	246.53	35.18	-56.4	-58.9	13.9	0.00e+00	0	31	0	977272832	78	4960
2026-01-03 01:45:32.51	246.35	34.98	-56.7	-59.5	13.5	0.00e+00	0	31	0	979369984	78	5302
2026-01-03 01:45:33.52	246.16	34.78	-56.5	-59.2	13.7	0.00e+00	0	31	0	981467136	79	4839
2026-01-03 01:45:34.52	245.98	34.58	-55.7	-57.9	14.3	0.00e+00	0	31	0	983564288	77	4688
2026-01-03 01:45:35.53	245.80	34.38	-55.8	-58.1	14.3	0.00e+00	0	31	0	984612864	77	4767
2026-01-03 01:45:36.53	245.63	34.18	-55.6	-57.8	14.2	0.00e+00	0	31	0	986710016	77	4639
2026-01-03 01:45:37.54	245.45	33.98	-56.0	-58.5	13.9	0.00e+00	0	31	0	988807168	77	5040
2026-01-03 01:45:38.54	245.28	33.79	-56.1	-58.7	13.8	0.00e+00	0	31	0	990904320	77	5109
2026-01-03 01:45:39.55	245.11	33.59	-56.0	-58.6	13.9	0.00e+00	0	31	0	993001472	77	5046
2026-01-03 01:45:40.54	244.95	33.40	-55.6	-57.9	14.2	0.00e+00	0	31	0	994050048	77	4671
2026-01-03 01:45:41.55	244.78	33.20	-55.3	-57.5	14.5	0.00e+00	0	31	0	996147200	76	4730
2026-01-03 01:45:42.55	244.62	33.01	-55.6	-57.9	14.3	0.00e+00	0	31	0	998244352	76	4950
2026-01-03 01:45:43.56	244.45	32.82	-56.0	-58.5	14.0	0.00e+00	0	31	0	1000341504	77	5005
2026-01-03 01:45:44.56	244.29	32.63	-56.1	-58.5	14.0	0.00e+00	0	31	0	1002438656	78	4747
2026-01-03 01:45:45.57	244.13	32.44	-56.0	-58.3	14.2	0.00e+00	0	31	0	1003487232	78	4634
2026-01-03 01:45:46.58	243.98	32.25	-55.6	-57.6	14.5	0.00e+00	0	31	0	1005584384	77	4539
2026-01-03 01:45:47.58	243.82	32.06	-54.8	-56.6	14.9	0.00e+00	0	31	0	1007681536	76	4246
2026-01-03 01:45:48.58	243.67	31.88	-54.5	-56.2	15.0	0.00e+00	0	31	0	1009778688	75	4306
2026-01-03 01:45:49.58	243.52	31.69	-54.8	-56.6	14.9	0.00e+00	0	31	0	1010827264	75	4496
2026-01-03 01:45:50.58	243.37	31.51	-55.5	-57.6	14.5	0.00e+00	0	31	0	1012924416	76	4772
2026-01-03 01:45:51.59	243.22	31.32	-55.9	-58.1	14.3	0.00e+00	0	31	0	1015021568	77	4771
2026-01-03 01:45:52.60	243.08	31.14	-56.3	-58.7	13.8	0.00e+00	0	31	0	1017118720	77	5147
2026-01-03 01:45:53.61	242.93	30.96	-56.1	-58.4	14.1	0.00e+00	0	31	0	1019215872	77	4931
2026-01-03 01:45:54.60	242.79	30.78	-55.4	-57.3	14.6	0.00e+00	0	31	0	1020264448	77	4371
2026-01-03 01:45:55.60	242.65	30.60	-54.8	-56.5	14.9	0.00e+00	0	31	0	1022361600	76	4234
2026-01-03 01:45:56.59	242.52	30.42	-54.6	-56.3	15.0	0.00e+00	0	31	0	1024458752	75	4349
2026-01-03 01:45:57.60	242.38	30.24	-55.0	-56.8	14.7	0.00e+00	0	31	0	1026555904	75	4648
2026-01-03 01:45:58.60	242.24	30.06	-54.9	-56.8	14.7	0.00e+00	0	31	0	1028653056	75	4616
2026-01-03 01:45:59.60	242.11	29.89	-55.3	-57.2	14.5	0.00e+00	0	31	0	1029701632	75	4845
2026-01-03 01:46:00.61	241.97	29.71	-55.1	-57.0	14.8	0.00e+00	0	31	0	1031798784	76	4457
2026-01-03 01:46:01.61	241.84	29.54	-55.0	-56.8	14.8	0.00e+00	0	31	0	1033895936	76	4362
2026-01-03 01:46:02.61	241.71	29.36	-54.5	-56.2	15.0	0.00e+00	0	31	0	1035993088	75	4306
2026-01-03 01:46:03.61	241.58	29.19	-54.4	-56.0	15.1	0.00e+00	0	31	0	1038090240	75	4202
2026-01-03 01:46:04.61	241.46	29.02	-54.3	-55.9	15.0	0.00e+00	0	31	0	1039138816	74	4422
2026-01-03 01:46:05.61	241.33	28.85	-54.3	-55.9	15.1	0.00e+00	0	31	0	1041235968	74	4437
2026-01-03 01:46:06.60	241.21	28.68	-54.7	-56.4	14.8	0.00e+00	0	31	0	1043333120	74	4697
2026-01-03 01:46:07.60	241.09	28.51	-55.0	-56.9	14.7	0.00e+00	0	31	0	1045430272	75	4663
2026-01-03 01:46:08.61	240.96	28.34	-55.3	-57.3	14.5	0.00e+00	0	31	0	1047527424	75	4905
2026-01-03 01:46:09.61	240.84	28.18	-55.6	-57.7	14.4	0.00e+00	0	31	0	1048576000	76	4842
2026-01-03 01:46:10.62	240.72	28.01	-55.3	-57.3	14.6	0.00e+00	0	31	0	1050673152	76	4610
2026-01-03 01:46:11.62	240.61	27.84	-55.3	-57.2	14.6	0.00e+00	0	31	0	1052770304	76	4576
2026-01-03 01:46:12.62	240.49	27.68	-55.4	-57.3	14.5	0.00e+00	0	31	0	1054867456	76	4647
2026-01-03 01:46:13.61	240.38	27.52	-55.5	-57.6	14.4	0.00e+00	0	31	0	1055916032	76	4769
2026-01-03 01:46:14.61	240.26	27.35	-55.5	-57.5	14.5	0.00e+00	0	31	0	1058013184	76	4736
2026-01-03 01:46:15.61	240.15	27.19	-55.8	-58.0	14.2	0.00e+00	0	31	0	1060110336	76	4988
2026-01-03 01:46:16.60	240.04	27.03	-55.6	-57.7	14.3	0.00e+00	0	31	0	1062207488	76	4851
2026-01-03 01:46:17.60	239.93	26.87	-55.5	-57.4	14.5	0.00e+00	0	31	0	1064304640	76	4700
2026-01-03 01:46:18.59	239.82	26.71	-55.0	-56.7	14.9	0.00e+00	0	31	0	1065353216	76	4320
2026-01-03 01:46:19.59	239.71	26.56	-54.9	-56.5	15.0	0.00e+00	0	31	0	1067450368	76	4229
2026-01-03 01:46:20.59	239.60	26.40	-54.5	-56.1	15.1	0.00e+00	0	31	0	1069547520	75	4268
2026-01-03 01:46:21.58	239.50	26.24	-54.7	-56.1	15.1	0.00e+00	0	31	0	1071644672	75	4264
2026-01-03 01:46:22.58	239.39	26.09	-54.6	-56.1	15.1	0.00e+00	0	31	0	1073741824	75	4257
2026-01-03 01:46:23.58	239.29	25.93	-54.8	-56.3	15.0	0.00e+00	0	31	0	1074790400	75	4346
2026-01-03 01:46:24.57	239.19	25.78	-55.2	-56.8	14.8	0.00e+00	0	31	0	1076887552	75	4636
2026-01-03 01:46:25.56	239.09	25.62	-55.5	-57.2	14.7	0.00e+00	0	31	0	1078984704	76	4562
2026-01-03 01:46:26.56	238.99	25.47	-55.9	-57.8	14.4	0.00e+00	0	31	0	1081081856	77	4612
2026-01-03 01:46:27.55	238.89	25.32	-56.2	-58.2	14.3	0.00e+00	0	31	0	1082130432	77	4816
2026-01-03 01:46:28.55	238.79	25.17	-56.1	-58.0	14.4	0.00e+00	0	31	0	1084227584	77	4731
2026-01-03 01:46:29.54	238.69	25.02	-56.0	-57.8	14.4	0.00e+00	0	31	0	1086324736	77	4639
2026-01-03 01:46:30.53	238.60	24.87	-56.0	-57.8	14.4	0.00e+00	0	31	0	1088421888	77	4627
2026-01-03 01:46:31.53	238.50	24.72	-56.0	-57.9	14.4	0.00e+00	0	31	0	1089470464	77	4670
2026-01-03 01:46:32.53	238.40	24.57	-55.8	-57.6	14.5	0.00e+00	0	31	0	1091567616	77	4521
2026-01-03 01:46:33.52	238.31	24.43	-55.9	-57.8	14.5	0.00e+00	0	31	0	1093664768	77	4608
2026-01-03 01:46:34.52	238.22	24.28	-56.0	-57.9	14.4	0.00e+00	0	31	0	1095761920	77	4655
2026-01-03 01:46:35.51	238.13	24.13	-56.2	-58.1	14.2	0.00e+00	0	31	0	1097859072	77	4798
2026-01-03 01:46:36.51	238.03	23.99	-56.2	-58.1	14.2	0.00e+00	0	31	0	1098907648	77	4814
2026-01-03 01:46:37.50	237.95	23.85	-56.1	-58.0	14.3	0.00e+00	0	31	0	1101004800	77	4707
2026-01-03 01:46:38.51	237.85	23.70	-56.1	-58.0	14.3	0.00e+00	0	31	0	1103101952	77	4718
2026-01-03 01:46:39.50	237.77	23.56	-55.9	-57.8	14.5	0.00e+00	0	31	0	1105199104	77	4601
2026-01-03 01:46:40.50	237.68	23.41	-55.5	-57.2	14.7	0.00e+00	0	31	0	1107296256	77	4319
2026-01-03 01:46:41.50	237.59	23.27	-55.5	-57.2	14.7	0.00e+00	0	31	0	1108344832	77	4315
2026-01-03 01:46:42.50	237.50	23.13	-55.2	-56.8	14.8	0.00e+00	0	31	0	1110441984	77	4136
2026-01-03 01:46:43.50	237.42	22.99	-55.3	-56.9	14.6	0.00e+00	0	31	0	1112539136	76	4427
2026-01-03 01:46:44.49	237.33	22.85	-55.2	-56.7	14.9	0.00e+00	0	31	0	1114636288	76	4323
2026-01-03 01:46:45.50	237.25	22.71	-55.2	-56.8	14.8	0.00e+00	0	31	0	1115684864	76	4384
2026-01-03 01:46:46.49	237.17	22.57	-55.3	-57.0	14.8	0.00e+00	0	31	0	1117782016	76	4445
2026-01-03 01:46:47.50	237.08	22.44	-55.1	-56.7	14.9	0.00e+00	0	31	0	1119879168	76	4309
2026-01-03 01:46:48.50	237.00	22.30	-55.3	-56.9	14.8	0.00e+00	0	31	0	1121976320	76	4438
2026-01-03 01:46:49.50	236.92	22.16	-55.1	-56.6	14.9	0.00e+00	0	31	0	1124073472	76	4288
2026-01-03 01:46:50.50	236.84	22.03	-55.0	-56.4	15.0	0.00e+00	0	31	0	1125122048	76	4189
2026-01-03 01:46:51.50	236.76	21.89	-54.9	-56.4	15.0	0.00e+00	0	31	0	1127219200	76	4148
2026-01-03 01:46:52.50	236.68	21.76	-54.7	-56.1	15.1	0.00e+00	0	31	0	1129316352	76	4035
2026-01-03 01:46:53.50	236.60	21.62	-54.4	-55.8	15.2	0.00e+00	0	31	0	1131413504	75	4104
2026-01-03 01:46:54.51	236.53	21.49	-54.4	-55.8	15.2	0.00e+00	0	31	0	1133510656	75	4099
2026-01-03 01:46:55.50	236.45	21.36	-54.4	-55.7	15.1	0.00e+00	0	31	0	1134559232	74	4327
2026-01-03 01:46:56.50	236.37	21.22	-54.2	-55.5	15.2	0.00e+00	0	31	0	1136656384	74	4230
2026-01-03 01:46:57.49	236.30	21.09	-54.1	-55.5	15.2	0.00e+00	0	31	0	1138753536	74	4215
2026-01-03 01:46:58.49	236.22	20.96	-54.2	-55.6	15.2	0.00e+00	0	31	0	1140850688	74	4244
2026-01-03 01:46:59.49	236.15	20.83	-54.3	-55.6	15.2	0.00e+00	0	31	0	1142947840	74	4283
2026-01-03 01:47:00.48	236.08	20.70	-54.5	-55.9	15.1	0.00e+00	0	31	0	1143996416	74	4430
2026-01-03 01:47:01.48	236.00	20.58	-54.7	-56.2	14.9	0.00e+00	0	31	0	1146093568	74	4587
2026-01-03 01:47:02.48	235.93	20.45	-54.9	-56.5	14.9	0.00e+00	0	31	0	1148190720	75	4481
2026-01-03 01:47:03.48	235.86	20.32	-55.2	-56.8	14.7	0.00e+00	0	31	0	1150287872	75	4644
2026-01-03 01:47:04.47	235.79	20.19	-55.6	-57.4	14.5	0.00e+00	0	31	0	1151336448	76	4701
2026-01-03 01:47:05.48	235.72	20.07	-55.9	-57.8	14.3	0.00e+00	0	31	0	1153433600	76	4902
2026-01-03 01:47:06.48	235.65	19.94	-56.0	-58.0	14.3	0.00e+00	0	31	0	1155530752	77	4711
2026-01-03 01:47:07.47	235.58	19.82	-56.4	-58.6	14.0	0.00e+00	0	31	0	1157627904	78	4802
2026-01-03 01:47:08.48	235.51	19.69	-56.4	-58.6	14.0	0.00e+00	0	31	0	1159725056	78	4784
2026-01-03 01:47:09.48	235.44	19.57	-56.3	-58.4	14.1	0.00e+00	0	31	0	1160773632	78	4693
2026-01-03 01:47:10.48	235.38	19.44	-56.3	-58.4	14.2	0.00e+00	0	31	0	1162870784	78	4655
2026-01-03 01:47:11.49	235.31	19.32	-56.4	-58.5	14.1	0.00e+00	0	31	0	1164967936	78	4710
2026-01-03 01:47:12.49	235.24	19.20	-56.0	-58.0	14.4	0.00e+00	0	31	0	1167065088	78	4457
2026-01-03 01:47:13.50	235.18	19.07	-55.8	-57.7	14.5	0.00e+00	0	31	0	1169162240	78	4309
2026-01-03 01:47:14.50	235.11	18.95	-55.7	-57.6	14.5	0.00e+00	0	31	0	1170210816	77	4507
2026-01-03 01:47:15.50	235.05	18.83	-55.3	-57.0	14.8	0.00e+00	0	31	0	1172307968	77	4206
2026-01-03 01:47:16.50	234.98	18.71	-55.1	-56.7	14.8	0.00e+00	0	31	0	1174405120	76	4335
2026-01-03 01:47:17.50	234.92	18.59	-55.1	-56.7	14.9	0.00e+00	0	31	0	1176502272	76	4298
2026-01-03 01:47:18.50	234.86	18.47	-54.8	-56.4	15.0	0.00e+00	0	31	0	1178599424	76	4149
2026-01-03 01:47:19.50	234.79	18.35	-54.8	-56.3	15.0	0.00e+00	0	31	0	1179648000	76	4128
2026-01-03 01:47:20.50	234.73	18.23	-54.5	-55.9	15.1	0.00e+00	0	31	0	1181745152	75	4178
2026-01-03 01:47:21.50	234.67	18.12	-54.3	-55.7	15.2	0.00e+00	0	31	0	1183842304	75	4077
2026-01-03 01:47:22.50	234.61	18.00	-54.3	-55.6	15.1	0.00e+00	0	31	0	1185939456	74	4285
2026-01-03 01:47:23.50	234.55	17.88	-54.3	-55.7	15.1	0.00e+00	0	31	0	1186988032	74	4300
2026-01-03 01:47:24.50	234.49	17.77	-54.2	-55.5	15.2	0.00e+00	0	31	0	1189085184	74	4239
2026-01-03 01:47:25.50	234.43	17.65	-54.3	-55.7	15.1	0.00e+00	0	31	0	1191182336	74	4314
2026-01-03 01:47:26.51	234.37	17.54	-54.3	-55.7	15.1	0.00e+00	0	31	0	1193279488	74	4297
2026-01-03 01:47:27.52	234.31	17.42	-54.2	-55.6	15.1	0.00e+00	0	31	0	1195376640	74	4264
2026-01-03 01:47:28.52	234.25	17.31	-54.5	-56.0	15.0	0.00e+00	0	31	0	1196425216	74	4473
2026-01-03 01:47:29.52	234.19	17.19	-54.6	-56.1	15.0	0.00e+00	0	31	0	1198522368	74	4542
2026-01-03 01:47:30.52	234.14	17.08	-54.6	-56.0	15.0	0.00e+00	0	31	0	1200619520	74	4489
2026-01-03 01:47:31.52	234.08	16.97	-55.0	-56.6	14.8	0.00e+00	0	31	0	1202716672	75	4508
2026-01-03 01:47:32.52	234.02	16.85	-55.1	-56.7	14.7	0.00e+00	0	31	0	1204813824	75	4595
2026-01-03 01:47:33.52	233.97	16.74	-54.9	-56.5	14.8	0.00e+00	0	31	0	1205862400	75	4468
2026-01-03 01:47:34.53	233.91	16.63	-55.1	-56.8	14.7	0.00e+00	0	31	0	1207959552	75	4629
2026-01-03 01:47:35.53	233.86	16.52	-55.1	-56.8	14.7	0.00e+00	0	31	0	1210056704	75	4631
2026-01-03 01:47:36.53	233.80	16.41	-55.2	-56.9	14.6	0.00e+00	0	31	0	1212153856	75	4677
2026-01-03 01:47:37.53	233.75	16.30	-55.3	-57.0	14.6	0.00e+00	0	31	0	1213202432	75	4720
2026-01-03 01:47:38.54	233.69	16.19	-55.4	-57.1	14.6	0.00e+00	0	31	0	1215299584	76	4535
2026-01-03 01:47:39.53	233.64	16.08	-55.3	-57.0	14.7	0.00e+00	0	31	0	1217396736	76	4482
2026-01-03 01:47:40.54	233.59	15.97	-55.3	-57.0	14.7	0.00e+00	0	31	0	1219493888	76	4465
2026-01-03 01:47:41.53	233.53	15.87	-55.4	-57.1	14.6	0.00e+00	0	31	0	1221591040	76	4526
2026-01-03 01:47:42.53	233.48	15.76	-55.4	-57.1	14.6	0.00e+00	0	31	0	1222639616	76	4514
2026-01-03 01:47:43.53	233.43	15.65	-55.5	-57.2	14.5	0.00e+00	0	31	0	1224736768	76	4587
2026-01-03 01:47:44.53	233.38	15.55	-55.0	-56.7	14.9	0.00e+00	0	31	0	1226833920	76	4292
2026-01-03 01:47:45.53	233.33	15.44	-55.0	-56.6	14.9	0.00e+00	0	31	0	1228931072	76	4249
2026-01-03 01:47:46.54	233.28	15.33	-55.1	-56.8	14.8	0.00e+00	0	31	0	1231028224	76	4343
2026-01-03 01:47:47.53	233.23	15.23	-54.9	-56.5	14.9	0.00e+00	0	31	0	1232076800	76	4201
