passes_logs/2026/01/03/R3.2S_Murmansk/R3.2S_Murmansk__20260103_101414_NOAA_20_JPSS-1_rec.log

#Pass ID: 20260103_101414_NOAA 20 (JPSS-1)
#Satellite: NOAA 20 (JPSS-1)
#Configuration: NOAA 20
#almurnet v.1.7.20251203
#Start time: 2026-01-03 10:14:16

#Version: 2.2.20231116
#Station: R3.2S_Murmansk
#Location: 33.079688 lon 68.888172 lat
#TLE: 1 43013U 17073A   26002.92460628  .00000184  00000+0  10833-3 0  9996
#TLE: 2 43013  98.7623 303.9923 0001887  56.9179 303.2178 14.19532741421028

#Time	Az	El	Level	Level2	SNR	BER	BlckErr	Temp	State	Recorded	gain1	gain2
2026-01-03 10:14:16.31	169.13	2.14	-59.8	-75.3	3.8	1.49e+00	0	28	0	0	86	20646
2026-01-03 10:14:17.31	169.15	2.21	-59.8	-75.2	3.8	1.49e+00	0	28	104	0	84	22887
2026-01-03 10:14:18.31	169.18	2.27	-59.8	-75.2	3.8	1.49e+00	0	28	104	0	84	22905
2026-01-03 10:14:19.32	169.20	2.34	-59.8	-75.1	3.8	1.49e+00	0	29	104	0	84	22745
2026-01-03 10:14:20.32	169.22	2.40	-59.8	-75.2	3.8	1.49e+00	0	29	104	0	84	22820
2026-01-03 10:14:21.34	169.25	2.47	-59.8	-75.1	3.8	1.49e+00	0	29	104	0	84	22760
2026-01-03 10:14:22.35	169.27	2.53	-59.8	-75.2	3.8	1.49e+00	0	29	104	0	84	22825
2026-01-03 10:14:23.35	169.29	2.59	-59.8	-75.2	3.8	1.49e+00	0	29	104	0	84	22974
2026-01-03 10:14:24.36	169.32	2.66	-59.8	-75.3	3.8	1.49e+00	0	29	104	0	84	23073
2026-01-03 10:14:25.37	169.34	2.73	-59.8	-75.3	3.8	1.49e+00	0	29	104	0	84	23136
2026-01-03 10:14:26.38	169.37	2.79	-59.8	-75.3	3.8	1.49e+00	0	29	104	0	84	23141
2026-01-03 10:14:27.39	169.39	2.86	-59.8	-75.3	3.8	1.49e+00	0	29	104	0	84	23061
2026-01-03 10:14:28.40	169.41	2.92	-59.8	-75.1	3.8	1.49e+00	0	29	104	0	84	22742
2026-01-03 10:14:29.41	169.44	2.99	-59.8	-75.1	3.8	1.49e+00	0	29	104	0	84	22775
2026-01-03 10:14:30.41	169.46	3.06	-59.8	-75.1	3.8	1.49e+00	0	29	104	0	84	22582
2026-01-03 10:14:31.42	169.49	3.12	-59.8	-75.0	3.8	1.49e+00	0	29	104	0	84	22456
2026-01-03 10:14:32.43	169.51	3.19	-59.8	-75.1	3.8	1.49e+00	0	29	104	0	84	22664
2026-01-03 10:14:33.44	169.53	3.26	-59.8	-75.3	3.8	1.49e+00	0	29	104	0	84	23049
2026-01-03 10:14:34.45	169.56	3.32	-59.8	-75.3	3.8	1.49e+00	0	29	104	0	84	23192
2026-01-03 10:14:35.47	169.58	3.39	-59.8	-75.2	3.8	1.49e+00	0	29	104	0	84	23039
2026-01-03 10:14:36.48	169.61	3.46	-59.8	-75.0	3.8	1.49e+00	0	29	104	0	84	22325
2026-01-03 10:14:37.48	169.63	3.52	-59.8	-74.4	3.8	1.49e+00	0	29	104	0	84	20968
2026-01-03 10:14:38.49	169.66	3.59	-59.7	-73.6	3.8	1.49e+00	0	29	104	0	84	19125
2026-01-03 10:14:39.50	169.68	3.66	-59.7	-72.5	4.0	1.49e+00	0	29	0	0	84	16853
2026-01-03 10:14:40.51	169.71	3.73	-59.6	-71.0	4.5	1.32e+00	38	29	0	0	84	14059
2026-01-03 10:14:41.51	169.73	3.79	-59.5	-69.8	4.9	9.07e-01	0	29	0	2097152	84	12306
2026-01-03 10:14:42.52	169.76	3.86	-59.4	-69.1	5.3	6.31e-01	0	29	0	3145728	84	11410
2026-01-03 10:14:43.53	169.79	3.93	-59.3	-68.4	5.7	4.66e-01	0	29	0	5242880	84	10431
2026-01-03 10:14:44.54	169.81	4.00	-59.2	-67.7	6.2	2.74e-01	0	29	0	7340032	84	9611
2026-01-03 10:14:45.55	169.84	4.07	-59.1	-66.8	6.8	1.53e-01	0	29	0	9437184	84	8723
2026-01-03 10:14:46.56	169.86	4.14	-59.0	-66.2	7.3	9.77e-02	0	29	0	11534336	84	8164
2026-01-03 10:14:47.56	169.89	4.21	-58.8	-65.3	8.1	4.64e-02	0	29	0	12582912	84	7364
2026-01-03 10:14:48.57	169.92	4.28	-58.4	-64.4	8.8	1.98e-02	0	29	0	14680064	83	6985
2026-01-03 10:14:49.58	169.94	4.35	-58.2	-63.5	9.6	8.19e-03	0	29	0	16777216	83	6322
2026-01-03 10:14:50.59	169.97	4.41	-57.9	-62.6	10.3	1.91e-03	0	29	0	18874368	82	6013
2026-01-03 10:14:51.60	169.99	4.48	-57.4	-61.5	11.2	3.02e-04	0	29	0	20971520	81	5612
2026-01-03 10:14:52.61	170.02	4.55	-57.3	-61.2	11.4	1.03e-04	0	29	0	22020096	81	5409
2026-01-03 10:14:53.62	170.05	4.63	-56.9	-60.2	12.0	6.80e-06	0	29	0	24117248	80	5159
2026-01-03 10:14:54.62	170.07	4.69	-56.7	-60.0	12.2	0.00e+00	0	29	0	26214400	79	5288
2026-01-03 10:14:55.63	170.10	4.77	-56.4	-59.4	12.6	1.50e-06	0	29	0	28311552	79	4974
2026-01-03 10:14:56.64	170.13	4.84	-56.3	-59.2	12.7	0.00e+00	0	29	0	30408704	79	4843
2026-01-03 10:14:57.65	170.15	4.91	-56.1	-58.8	12.9	0.00e+00	0	30	0	31457280	78	4905
2026-01-03 10:14:58.65	170.18	4.98	-56.2	-58.9	12.9	0.00e+00	0	29	0	33554432	78	4953
2026-01-03 10:14:59.66	170.21	5.05	-56.6	-59.8	12.3	0.00e+00	0	29	0	35651584	78	5503
2026-01-03 10:15:00.67	170.24	5.12	-58.6	-65.1	8.3	1.04e-03	0	29	0	37748736	82	8077
2026-01-03 10:15:01.68	170.26	5.19	-55.4	-57.6	13.6	7.69e-02	0	30	0	39845888	77	4514
2026-01-03 10:15:02.69	170.29	5.26	-56.9	-60.1	12.2	0.00e+00	0	30	0	40894464	78	5713
2026-01-03 10:15:03.70	170.32	5.34	-55.9	-58.4	13.2	0.00e+00	0	30	0	42991616	77	4970
2026-01-03 10:15:04.71	170.35	5.41	-55.3	-57.5	13.7	1.60e-05	0	29	0	45088768	77	4459
2026-01-03 10:15:05.72	170.38	5.48	-55.2	-57.3	13.7	0.00e+00	0	29	0	47185920	76	4617
2026-01-03 10:15:06.73	170.40	5.55	-55.1	-57.3	13.8	0.00e+00	0	30	0	49283072	76	4609
2026-01-03 10:15:07.73	170.43	5.63	-55.1	-57.2	13.8	0.00e+00	0	30	0	51380224	76	4564
2026-01-03 10:15:08.74	170.46	5.70	-55.1	-57.2	13.8	0.00e+00	0	30	0	52428800	76	4582
2026-01-03 10:15:09.75	170.49	5.77	-55.2	-57.3	13.8	0.00e+00	0	30	0	54525952	76	4617
2026-01-03 10:15:10.76	170.52	5.84	-55.2	-57.3	13.8	0.00e+00	0	30	0	56623104	76	4604
2026-01-03 10:15:11.77	170.55	5.92	-55.2	-57.3	13.8	0.00e+00	0	30	0	58720256	76	4627
2026-01-03 10:15:12.78	170.57	5.99	-55.2	-57.3	13.8	0.00e+00	0	29	0	60817408	76	4640
2026-01-03 10:15:13.79	170.60	6.07	-55.1	-57.1	13.9	0.00e+00	0	30	0	61865984	76	4535
2026-01-03 10:15:14.80	170.63	6.14	-55.1	-57.1	13.9	0.00e+00	0	30	0	63963136	76	4533
2026-01-03 10:15:15.80	170.66	6.21	-55.1	-57.1	13.9	0.00e+00	0	30	0	66060288	76	4533
2026-01-03 10:15:16.81	170.69	6.29	-55.2	-57.3	13.8	0.00e+00	0	30	0	68157440	76	4606
2026-01-03 10:15:17.82	170.72	6.36	-55.0	-57.0	14.0	0.00e+00	0	30	0	70254592	76	4484
2026-01-03 10:15:18.83	170.75	6.44	-55.1	-57.1	13.9	0.00e+00	0	30	0	71303168	76	4545
2026-01-03 10:15:19.84	170.78	6.51	-55.1	-57.0	14.0	0.00e+00	0	30	0	73400320	76	4493
2026-01-03 10:15:20.84	170.81	6.59	-55.0	-56.9	14.0	0.00e+00	0	30	0	75497472	76	4440
2026-01-03 10:15:21.85	170.84	6.66	-55.1	-57.1	14.0	0.00e+00	0	30	0	77594624	76	4501
2026-01-03 10:15:22.86	170.87	6.74	-55.0	-57.0	14.0	0.00e+00	0	30	0	79691776	76	4453
2026-01-03 10:15:23.87	170.90	6.82	-55.0	-56.9	14.0	0.00e+00	0	30	0	80740352	76	4429
2026-01-03 10:15:24.88	170.93	6.89	-54.8	-56.7	14.2	0.00e+00	0	30	0	82837504	76	4305
2026-01-03 10:15:25.89	170.96	6.97	-54.9	-56.8	14.1	0.00e+00	0	30	0	84934656	76	4375
2026-01-03 10:15:26.90	170.99	7.05	-54.9	-56.8	14.1	0.00e+00	0	30	0	87031808	76	4373
2026-01-03 10:15:27.91	171.02	7.12	-55.0	-56.9	14.1	0.00e+00	0	30	0	89128960	76	4428
2026-01-03 10:15:28.92	171.05	7.20	-54.9	-56.8	14.1	0.00e+00	0	30	0	90177536	76	4356
2026-01-03 10:15:29.93	171.09	7.28	-54.9	-56.8	14.2	0.00e+00	0	30	0	92274688	76	4347
2026-01-03 10:15:30.94	171.12	7.36	-54.9	-56.7	14.2	0.00e+00	0	30	0	94371840	76	4327
2026-01-03 10:15:31.95	171.15	7.43	-54.8	-56.6	14.2	0.00e+00	0	30	0	96468992	76	4272
2026-01-03 10:15:32.95	171.18	7.51	-54.9	-56.7	14.2	0.00e+00	0	30	0	98566144	76	4336
2026-01-03 10:15:33.96	171.21	7.59	-54.9	-56.7	14.2	0.00e+00	0	30	0	99614720	76	4320
2026-01-03 10:15:34.96	171.24	7.67	-54.7	-56.5	14.3	0.00e+00	0	30	0	101711872	76	4217
2026-01-03 10:15:35.97	171.28	7.75	-54.8	-56.5	14.3	0.00e+00	0	30	0	103809024	76	4242
2026-01-03 10:15:36.98	171.31	7.83	-54.7	-56.5	14.3	0.00e+00	0	30	0	105906176	76	4202
2026-01-03 10:15:37.99	171.34	7.91	-54.7	-56.5	14.3	0.00e+00	0	30	0	108003328	76	4232
2026-01-03 10:15:38.99	171.37	7.98	-54.8	-56.6	14.3	0.00e+00	0	30	0	109051904	76	4274
2026-01-03 10:15:40.01	171.41	8.06	-54.8	-56.6	14.3	0.00e+00	0	30	0	111149056	76	4254
2026-01-03 10:15:41.01	171.44	8.14	-54.6	-56.4	14.3	0.00e+00	0	30	0	113246208	75	4408
2026-01-03 10:15:42.02	171.47	8.22	-54.5	-56.3	14.3	0.00e+00	0	30	0	115343360	75	4349
2026-01-03 10:15:43.03	171.50	8.31	-54.6	-56.3	14.3	0.00e+00	0	30	0	117440512	75	4360
2026-01-03 10:15:44.04	171.54	8.39	-54.5	-56.2	14.4	0.00e+00	0	30	0	118489088	75	4330
2026-01-03 10:15:45.04	171.57	8.47	-54.5	-56.2	14.4	0.00e+00	0	30	0	120586240	75	4320
2026-01-03 10:15:46.05	171.61	8.55	-54.5	-56.2	14.4	0.00e+00	0	30	0	122683392	75	4297
2026-01-03 10:15:47.06	171.64	8.63	-54.5	-56.2	14.4	0.00e+00	0	30	0	124780544	75	4298
2026-01-03 10:15:48.07	171.67	8.71	-54.5	-56.2	14.4	0.00e+00	0	30	0	126877696	75	4301
2026-01-03 10:15:49.08	171.71	8.79	-54.4	-56.1	14.5	0.00e+00	0	30	0	127926272	75	4256
2026-01-03 10:15:50.09	171.74	8.88	-54.4	-56.1	14.4	0.00e+00	0	30	0	130023424	75	4273
2026-01-03 10:15:51.10	171.78	8.96	-54.4	-56.0	14.5	0.00e+00	0	30	0	132120576	75	4227
2026-01-03 10:15:52.11	171.81	9.04	-54.4	-56.0	14.5	0.00e+00	0	30	0	134217728	75	4218
2026-01-03 10:15:53.11	171.85	9.12	-54.4	-56.1	14.5	0.00e+00	0	30	0	136314880	75	4256
2026-01-03 10:15:54.12	171.88	9.21	-54.5	-56.1	14.5	0.00e+00	0	30	0	137363456	75	4285
2026-01-03 10:15:55.13	171.92	9.29	-54.3	-56.0	14.5	0.00e+00	0	30	0	139460608	75	4196
2026-01-03 10:15:56.14	171.95	9.38	-54.3	-55.9	14.6	0.00e+00	0	30	0	141557760	75	4182
2026-01-03 10:15:57.15	171.99	9.46	-54.3	-55.9	14.6	0.00e+00	0	30	0	143654912	75	4149
2026-01-03 10:15:58.15	172.02	9.54	-54.2	-55.8	14.6	0.00e+00	0	30	0	145752064	75	4132
2026-01-03 10:15:59.16	172.06	9.63	-54.3	-55.9	14.6	0.00e+00	0	30	0	147849216	75	4171
2026-01-03 10:16:00.17	172.10	9.71	-54.2	-55.8	14.6	0.00e+00	0	30	0	148897792	75	4129
2026-01-03 10:16:01.18	172.13	9.80	-54.1	-55.7	14.6	0.00e+00	0	30	0	150994944	74	4292
2026-01-03 10:16:02.19	172.17	9.88	-54.1	-55.7	14.6	0.00e+00	0	30	0	153092096	74	4299
2026-01-03 10:16:03.20	172.21	9.97	-54.2	-55.8	14.6	0.00e+00	0	30	0	155189248	74	4352
2026-01-03 10:16:04.20	172.24	10.06	-54.1	-55.6	14.6	0.00e+00	0	30	0	156237824	74	4263
2026-01-03 10:16:05.22	172.28	10.14	-54.2	-55.7	14.6	0.00e+00	0	30	0	158334976	74	4314
2026-01-03 10:16:06.23	172.32	10.23	-54.2	-55.7	14.6	0.00e+00	0	30	0	160432128	74	4327
2026-01-03 10:16:07.23	172.35	10.32	-54.0	-55.5	14.7	0.00e+00	0	30	0	162529280	74	4241
2026-01-03 10:16:08.24	172.39	10.40	-54.0	-55.5	14.7	0.00e+00	0	30	0	164626432	74	4214
2026-01-03 10:16:09.25	172.43	10.49	-54.0	-55.5	14.7	0.00e+00	0	30	0	165675008	74	4240
2026-01-03 10:16:10.27	172.47	10.58	-54.1	-55.6	14.7	0.00e+00	0	30	0	167772160	74	4274
2026-01-03 10:16:11.27	172.51	10.67	-54.0	-55.5	14.7	0.00e+00	0	30	0	169869312	74	4209
2026-01-03 10:16:12.28	172.55	10.76	-54.0	-55.5	14.7	0.00e+00	0	30	0	171966464	74	4223
2026-01-03 10:16:13.29	172.58	10.85	-54.0	-55.5	14.7	0.00e+00	0	30	0	174063616	74	4235
2026-01-03 10:16:14.30	172.62	10.94	-54.0	-55.5	14.7	0.00e+00	0	30	0	176160768	74	4233
2026-01-03 10:16:15.31	172.66	11.03	-54.1	-55.6	14.7	0.00e+00	0	30	0	177209344	74	4284
2026-01-03 10:16:16.31	172.70	11.11	-54.2	-55.7	14.7	0.00e+00	0	30	0	179306496	74	4320
2026-01-03 10:16:17.32	172.74	11.21	-54.0	-55.5	14.7	0.00e+00	0	30	0	181403648	74	4221
2026-01-03 10:16:18.33	172.78	11.30	-54.0	-55.5	14.7	0.00e+00	0	30	0	183500800	74	4217
2026-01-03 10:16:19.33	172.82	11.39	-54.1	-55.5	14.7	0.00e+00	0	30	0	185597952	74	4242
2026-01-03 10:16:20.34	172.86	11.48	-54.2	-55.7	14.7	0.00e+00	0	30	0	186646528	74	4317
2026-01-03 10:16:21.35	172.90	11.57	-54.1	-55.6	14.7	0.00e+00	0	30	0	188743680	74	4247
2026-01-03 10:16:22.35	172.94	11.66	-54.0	-55.5	14.7	0.00e+00	0	30	0	190840832	74	4223
2026-01-03 10:16:23.36	172.98	11.75	-53.9	-55.4	14.8	0.00e+00	0	30	0	192937984	74	4174
2026-01-03 10:16:24.37	173.02	11.84	-53.9	-55.3	14.8	0.00e+00	0	30	0	195035136	74	4135
2026-01-03 10:16:25.38	173.07	11.94	-53.9	-55.3	14.8	0.00e+00	0	30	0	196083712	74	4141
2026-01-03 10:16:26.38	173.11	12.03	-53.9	-55.4	14.8	0.00e+00	0	30	0	198180864	74	4152
2026-01-03 10:16:27.39	173.15	12.12	-53.9	-55.4	14.8	0.00e+00	0	30	0	200278016	74	4162
2026-01-03 10:16:28.39	173.19	12.22	-53.9	-55.4	14.8	0.00e+00	0	30	0	202375168	74	4162
2026-01-03 10:16:29.40	173.23	12.31	-53.9	-55.4	14.8	0.00e+00	0	30	0	204472320	74	4168
2026-01-03 10:16:30.41	173.28	12.41	-53.8	-55.3	14.8	0.00e+00	0	30	0	205520896	74	4101
2026-01-03 10:16:31.42	173.32	12.50	-53.9	-55.3	14.9	0.00e+00	0	30	0	207618048	74	4101
2026-01-03 10:16:32.43	173.36	12.60	-53.9	-55.3	14.8	0.00e+00	0	30	0	209715200	74	4128
2026-01-03 10:16:33.43	173.41	12.69	-53.9	-55.4	14.8	0.00e+00	0	30	0	211812352	74	4151
2026-01-03 10:16:34.44	173.45	12.79	-53.8	-55.2	14.9	0.00e+00	0	30	0	213909504	74	4071
2026-01-03 10:16:35.45	173.49	12.88	-53.8	-55.2	14.9	0.00e+00	0	30	0	214958080	74	4098
2026-01-03 10:16:36.46	173.54	12.98	-53.9	-55.3	14.9	0.00e+00	0	30	0	217055232	74	4099
2026-01-03 10:16:37.46	173.58	13.08	-53.9	-55.3	14.8	0.00e+00	0	30	0	219152384	74	4114
2026-01-03 10:16:38.47	173.63	13.17	-53.9	-55.3	14.8	0.00e+00	0	30	0	221249536	74	4132
2026-01-03 10:16:39.47	173.67	13.27	-53.8	-55.3	14.9	0.00e+00	0	30	0	223346688	74	4099
2026-01-03 10:16:40.48	173.72	13.37	-53.9	-55.3	14.9	0.00e+00	0	30	0	224395264	74	4106
2026-01-03 10:16:41.49	173.76	13.47	-54.0	-55.4	14.8	0.00e+00	0	30	0	226492416	74	4175
2026-01-03 10:16:42.50	173.81	13.57	-53.9	-55.4	14.8	0.00e+00	0	30	0	228589568	74	4152
2026-01-03 10:16:43.51	173.86	13.67	-53.9	-55.3	14.8	0.00e+00	0	30	0	230686720	74	4129
2026-01-03 10:16:44.52	173.90	13.77	-53.9	-55.3	14.8	0.00e+00	0	30	0	232783872	74	4120
2026-01-03 10:16:45.53	173.95	13.87	-53.9	-55.4	14.8	0.00e+00	0	30	0	233832448	74	4149
2026-01-03 10:16:46.54	174.00	13.97	-53.9	-55.2	14.9	0.00e+00	0	30	0	235929600	74	4098
2026-01-03 10:16:47.54	174.04	14.07	-53.9	-55.3	14.9	0.00e+00	0	30	0	238026752	74	4133
2026-01-03 10:16:48.55	174.09	14.17	-54.0	-55.4	14.8	0.00e+00	0	30	0	240123904	74	4193
2026-01-03 10:16:49.55	174.14	14.27	-53.9	-55.4	14.8	0.00e+00	0	30	0	242221056	74	4149
2026-01-03 10:16:50.56	174.19	14.37	-53.9	-55.3	14.8	0.00e+00	0	30	0	243269632	74	4123
2026-01-03 10:16:51.57	174.24	14.48	-54.0	-55.4	14.8	0.00e+00	0	30	0	245366784	74	4172
2026-01-03 10:16:52.58	174.28	14.58	-54.0	-55.4	14.8	0.00e+00	0	30	0	247463936	74	4157
2026-01-03 10:16:53.59	174.33	14.68	-54.0	-55.5	14.8	0.00e+00	0	30	0	249561088	74	4201
2026-01-03 10:16:54.60	174.38	14.79	-53.9	-55.3	14.9	0.00e+00	0	30	0	251658240	74	4143
2026-01-03 10:16:55.61	174.43	14.89	-54.0	-55.4	14.8	0.00e+00	0	30	0	252706816	74	4176
2026-01-03 10:16:56.62	174.48	15.00	-54.0	-55.5	14.8	0.00e+00	0	30	0	254803968	74	4203
2026-01-03 10:16:57.63	174.53	15.10	-54.0	-55.4	14.8	0.00e+00	0	30	0	256901120	74	4169
2026-01-03 10:16:58.63	174.58	15.21	-54.0	-55.4	14.8	0.00e+00	0	30	0	258998272	74	4186
2026-01-03 10:16:59.64	174.64	15.31	-54.0	-55.4	14.8	0.00e+00	0	30	0	261095424	74	4182
2026-01-03 10:17:00.64	174.69	15.42	-54.1	-55.5	14.8	0.00e+00	0	30	0	262144000	74	4214
2026-01-03 10:17:01.65	174.74	15.53	-54.1	-55.5	14.8	0.00e+00	0	30	0	264241152	74	4232
2026-01-03 10:17:02.66	174.79	15.63	-54.0	-55.4	14.8	0.00e+00	0	30	0	266338304	74	4187
2026-01-03 10:17:03.67	174.84	15.74	-54.0	-55.4	14.8	0.00e+00	0	30	0	268435456	74	4192
2026-01-03 10:17:04.68	174.90	15.85	-54.0	-55.5	14.8	0.00e+00	0	30	0	270532608	74	4196
2026-01-03 10:17:05.68	174.95	15.96	-54.1	-55.6	14.8	0.00e+00	0	30	0	271581184	74	4252
2026-01-03 10:17:06.69	175.00	16.07	-54.1	-55.5	14.8	0.00e+00	0	30	0	273678336	74	4208
2026-01-03 10:17:07.70	175.06	16.18	-54.1	-55.5	14.8	0.00e+00	0	30	0	275775488	74	4233
2026-01-03 10:17:08.71	175.11	16.29	-54.0	-55.4	14.8	0.00e+00	0	30	0	277872640	74	4168
2026-01-03 10:17:09.72	175.17	16.40	-54.0	-55.4	14.8	0.00e+00	0	30	0	279969792	74	4191
2026-01-03 10:17:10.73	175.22	16.51	-54.0	-55.4	14.8	0.00e+00	0	30	0	281018368	74	4183
2026-01-03 10:17:11.73	175.28	16.62	-54.0	-55.4	14.8	0.00e+00	0	30	0	283115520	74	4171
2026-01-03 10:17:12.74	175.33	16.73	-54.1	-55.5	14.8	0.00e+00	0	30	0	285212672	74	4202
2026-01-03 10:17:13.75	175.39	16.85	-54.0	-55.4	14.8	0.00e+00	0	30	0	287309824	74	4183
2026-01-03 10:17:14.76	175.44	16.96	-54.0	-55.4	14.8	0.00e+00	0	30	0	289406976	74	4191
2026-01-03 10:17:15.77	175.50	17.07	-54.0	-55.4	14.8	0.00e+00	0	30	0	290455552	74	4188
2026-01-03 10:17:16.78	175.56	17.19	-54.1	-55.5	14.8	0.00e+00	0	30	0	292552704	74	4205
2026-01-03 10:17:17.78	175.62	17.30	-54.0	-55.4	14.8	0.00e+00	0	30	0	294649856	74	4185
2026-01-03 10:17:18.79	175.67	17.42	-54.1	-55.6	14.8	0.00e+00	0	30	0	296747008	74	4253
2026-01-03 10:17:19.79	175.73	17.53	-54.2	-55.6	14.7	0.00e+00	0	30	0	298844160	74	4282
2026-01-03 10:17:20.80	175.79	17.65	-54.1	-55.5	14.8	0.00e+00	0	30	0	299892736	74	4225
2026-01-03 10:17:21.81	175.85	17.76	-54.1	-55.5	14.8	0.00e+00	0	30	0	301989888	74	4217
2026-01-03 10:17:22.82	175.91	17.88	-54.2	-55.6	14.8	0.00e+00	0	30	0	304087040	74	4279
2026-01-03 10:17:23.82	175.97	18.00	-54.1	-55.5	14.8	0.00e+00	0	30	0	306184192	74	4200
2026-01-03 10:17:24.83	176.03	18.12	-54.2	-55.6	14.8	0.00e+00	0	30	0	308281344	74	4273
2026-01-03 10:17:25.84	176.09	18.24	-54.1	-55.5	14.8	0.00e+00	0	31	0	309329920	74	4223
2026-01-03 10:17:26.85	176.15	18.35	-54.2	-55.6	14.8	0.00e+00	0	30	0	311427072	74	4257
2026-01-03 10:17:27.85	176.22	18.47	-54.1	-55.5	14.8	0.00e+00	0	30	0	313524224	74	4194
2026-01-03 10:17:28.86	176.28	18.59	-54.1	-55.5	14.8	0.00e+00	0	30	0	315621376	74	4241
2026-01-03 10:17:29.87	176.34	18.72	-54.1	-55.6	14.8	0.00e+00	0	30	0	317718528	74	4252
2026-01-03 10:17:30.88	176.41	18.84	-54.1	-55.6	14.8	0.00e+00	0	30	0	318767104	74	4245
2026-01-03 10:17:31.89	176.47	18.96	-54.0	-55.3	14.9	0.00e+00	0	30	0	320864256	74	4138
2026-01-03 10:17:32.90	176.53	19.08	-54.0	-55.4	14.9	0.00e+00	0	30	0	322961408	74	4181
2026-01-03 10:17:33.90	176.60	19.21	-54.1	-55.5	14.9	0.00e+00	0	30	0	325058560	74	4200
2026-01-03 10:17:34.91	176.66	19.33	-54.1	-55.4	14.9	0.00e+00	0	30	0	327155712	74	4193
2026-01-03 10:17:35.92	176.73	19.45	-54.0	-55.4	14.9	0.00e+00	0	30	0	329252864	74	4174
2026-01-03 10:17:36.94	176.80	19.58	-54.1	-55.5	14.9	0.00e+00	0	30	0	330301440	74	4212
2026-01-03 10:17:37.94	176.86	19.71	-54.1	-55.5	14.9	0.00e+00	0	30	0	332398592	74	4202
2026-01-03 10:17:38.95	176.93	19.83	-54.2	-55.6	14.8	0.00e+00	0	30	0	334495744	74	4246
2026-01-03 10:17:39.96	177.00	19.96	-54.1	-55.5	14.9	0.00e+00	0	30	0	336592896	74	4227
2026-01-03 10:17:40.97	177.07	20.09	-54.2	-55.6	14.8	0.00e+00	0	30	0	338690048	74	4275
2026-01-03 10:17:41.98	177.14	20.22	-54.1	-55.6	14.8	0.00e+00	0	30	0	339738624	74	4245
2026-01-03 10:17:42.99	177.21	20.34	-54.2	-55.6	14.8	0.00e+00	0	30	0	341835776	74	4259
2026-01-03 10:17:44.00	177.28	20.47	-54.2	-55.6	14.8	0.00e+00	0	30	0	343932928	74	4288
2026-01-03 10:17:45.01	177.35	20.60	-54.2	-55.6	14.8	0.00e+00	0	30	0	346030080	74	4288
2026-01-03 10:17:46.02	177.42	20.74	-54.3	-55.7	14.8	0.00e+00	0	30	0	348127232	74	4303
2026-01-03 10:17:47.03	177.49	20.87	-54.2	-55.6	14.8	0.00e+00	0	30	0	349175808	74	4291
2026-01-03 10:17:48.04	177.56	21.00	-54.2	-55.6	14.8	0.00e+00	0	30	0	351272960	74	4260
2026-01-03 10:17:49.04	177.64	21.13	-54.2	-55.7	14.8	0.00e+00	0	30	0	353370112	74	4301
2026-01-03 10:17:50.05	177.71	21.26	-54.3	-55.7	14.8	0.00e+00	0	30	0	355467264	74	4331
2026-01-03 10:17:51.06	177.79	21.40	-54.1	-55.5	14.9	0.00e+00	0	30	0	357564416	74	4204
2026-01-03 10:17:52.07	177.86	21.53	-54.1	-55.5	14.9	0.00e+00	0	30	0	358612992	74	4218
2026-01-03 10:17:53.08	177.94	21.67	-54.2	-55.6	14.8	0.00e+00	0	30	0	360710144	74	4285
2026-01-03 10:17:54.08	178.01	21.80	-54.1	-55.5	14.9	0.00e+00	0	30	0	362807296	74	4209
2026-01-03 10:17:55.09	178.09	21.94	-54.0	-55.4	14.9	0.00e+00	0	30	0	364904448	74	4164
2026-01-03 10:17:56.10	178.17	22.08	-54.1	-55.5	14.9	0.00e+00	0	30	0	367001600	74	4206
2026-01-03 10:17:57.11	178.24	22.22	-54.1	-55.4	14.9	0.00e+00	0	30	0	368050176	74	4176
2026-01-03 10:17:58.12	178.32	22.35	-54.0	-55.3	15.0	0.00e+00	0	30	0	370147328	74	4133
2026-01-03 10:17:59.12	178.40	22.49	-53.8	-55.1	15.0	0.00e+00	0	30	0	372244480	74	4026
2026-01-03 10:18:00.13	178.48	22.63	-53.8	-55.1	15.1	0.00e+00	0	30	0	374341632	74	4007
2026-01-03 10:18:01.14	178.56	22.77	-53.7	-54.9	15.0	0.00e+00	0	30	0	376438784	73	4184
2026-01-03 10:18:02.15	178.64	22.92	-53.7	-54.9	15.0	0.00e+00	0	30	0	377487360	73	4178
2026-01-03 10:18:03.16	178.73	23.06	-53.6	-54.9	15.1	0.00e+00	0	30	0	379584512	73	4147
2026-01-03 10:18:04.16	178.81	23.20	-53.6	-54.8	15.1	0.00e+00	0	30	0	381681664	73	4145
2026-01-03 10:18:05.17	178.89	23.34	-53.6	-54.8	15.1	0.00e+00	0	30	0	383778816	73	4116
2026-01-03 10:18:06.18	178.98	23.49	-53.5	-54.7	15.1	0.00e+00	0	30	0	385875968	73	4098
2026-01-03 10:18:07.19	179.06	23.64	-53.6	-54.8	15.1	0.00e+00	0	30	0	386924544	73	4131
2026-01-03 10:18:08.20	179.15	23.78	-53.5	-54.7	15.1	0.00e+00	0	30	0	389021696	73	4066
2026-01-03 10:18:09.20	179.23	23.93	-53.4	-54.6	15.2	0.00e+00	0	30	0	391118848	73	4029
2026-01-03 10:18:10.21	179.32	24.07	-53.4	-54.7	15.1	0.00e+00	0	30	0	393216000	73	4052
2026-01-03 10:18:11.22	179.41	24.22	-53.4	-54.6	15.2	0.00e+00	0	31	0	395313152	73	4036
2026-01-03 10:18:12.23	179.50	24.37	-53.3	-54.5	15.2	0.00e+00	0	30	0	396361728	73	3969
2026-01-03 10:18:13.24	179.59	24.52	-53.2	-54.4	15.3	0.00e+00	0	30	0	398458880	73	3925
2026-01-03 10:18:14.25	179.68	24.67	-53.3	-54.5	15.2	0.00e+00	0	30	0	400556032	73	3987
2026-01-03 10:18:15.26	179.77	24.83	-53.2	-54.3	15.2	0.00e+00	0	31	0	402653184	72	4144
2026-01-03 10:18:16.26	179.86	24.98	-53.3	-54.5	15.2	0.00e+00	0	30	0	404750336	72	4200
2026-01-03 10:18:17.27	179.96	25.13	-53.1	-54.3	15.2	0.00e+00	0	30	0	405798912	72	4110
2026-01-03 10:18:18.28	180.05	25.28	-53.1	-54.3	15.2	0.00e+00	0	30	0	407896064	72	4100
2026-01-03 10:18:19.29	180.14	25.44	-53.3	-54.5	15.2	0.00e+00	0	30	0	409993216	72	4199
2026-01-03 10:18:20.29	180.24	25.59	-53.3	-54.5	15.1	0.00e+00	0	30	0	412090368	72	4209
2026-01-03 10:18:21.30	180.34	25.75	-53.1	-54.3	15.2	0.00e+00	0	30	0	414187520	72	4118
2026-01-03 10:18:22.31	180.43	25.91	-53.0	-54.1	15.3	0.00e+00	0	30	0	415236096	72	4029
2026-01-03 10:18:23.32	180.53	26.07	-52.9	-54.0	15.3	0.00e+00	0	30	0	417333248	72	3994
2026-01-03 10:18:24.32	180.63	26.22	-52.9	-54.0	15.3	0.00e+00	0	30	0	419430400	72	3980
2026-01-03 10:18:25.33	180.73	26.38	-52.9	-54.0	15.3	0.00e+00	0	30	0	421527552	72	3961
2026-01-03 10:18:26.34	180.83	26.55	-52.9	-54.0	15.3	0.00e+00	0	30	0	423624704	72	3970
2026-01-03 10:18:27.35	180.94	26.71	-52.9	-54.0	15.3	0.00e+00	0	30	0	424673280	72	4002
2026-01-03 10:18:28.36	181.04	26.87	-52.9	-54.0	15.3	0.00e+00	0	30	0	426770432	72	3987
2026-01-03 10:18:29.37	181.14	27.03	-53.0	-54.1	15.3	0.00e+00	0	30	0	428867584	72	4021
2026-01-03 10:18:30.38	181.25	27.20	-53.0	-54.1	15.3	0.00e+00	0	30	0	430964736	72	4035
2026-01-03 10:18:31.38	181.36	27.36	-53.2	-54.3	15.2	0.00e+00	0	30	0	433061888	72	4120
2026-01-03 10:18:32.39	181.46	27.53	-53.3	-54.5	15.1	0.00e+00	0	30	0	434110464	72	4200
2026-01-03 10:18:33.40	181.57	27.69	-53.4	-54.6	15.1	0.00e+00	0	30	0	436207616	72	4276
2026-01-03 10:18:34.41	181.68	27.86	-53.5	-54.7	15.0	0.00e+00	0	30	0	438304768	72	4318
2026-01-03 10:18:35.41	181.79	28.03	-53.7	-55.0	15.0	0.00e+00	0	30	0	440401920	72	4443
2026-01-03 10:18:36.42	181.90	28.20	-53.7	-55.0	14.9	0.00e+00	0	30	0	442499072	72	4472
2026-01-03 10:18:37.43	182.02	28.37	-53.8	-55.1	14.9	0.00e+00	0	30	0	443547648	72	4514
2026-01-03 10:18:38.43	182.13	28.54	-53.9	-55.2	14.9	0.00e+00	0	30	0	445644800	73	4329
2026-01-03 10:18:39.44	182.25	28.71	-54.0	-55.4	14.9	0.00e+00	0	31	0	447741952	73	4397
2026-01-03 10:18:40.45	182.36	28.89	-54.1	-55.4	14.8	0.00e+00	0	30	0	449839104	73	4423
2026-01-03 10:18:41.46	182.48	29.06	-54.2	-55.6	14.8	0.00e+00	0	30	0	451936256	73	4495
2026-01-03 10:18:42.47	182.60	29.24	-54.3	-55.7	14.8	0.00e+00	0	31	0	454033408	73	4567
2026-01-03 10:18:43.48	182.72	29.41	-54.3	-55.8	14.7	0.00e+00	0	30	0	455081984	73	4613
2026-01-03 10:18:44.49	182.84	29.59	-54.3	-55.7	14.7	0.00e+00	0	30	0	457179136	73	4596
2026-01-03 10:18:45.49	182.97	29.77	-54.5	-56.0	14.7	0.00e+00	0	30	0	459276288	74	4458
2026-01-03 10:18:46.50	183.09	29.95	-54.5	-55.9	14.7	0.00e+00	0	30	0	461373440	74	4440
2026-01-03 10:18:47.51	183.22	30.13	-54.7	-56.2	14.6	0.00e+00	0	30	0	463470592	74	4575
2026-01-03 10:18:48.52	183.34	30.31	-54.9	-56.4	14.5	0.00e+00	0	31	0	464519168	74	4704
2026-01-03 10:18:49.52	183.47	30.49	-55.0	-56.6	14.5	0.00e+00	0	30	0	466616320	75	4502
2026-01-03 10:18:50.53	183.60	30.67	-55.1	-56.7	14.4	0.00e+00	0	30	0	468713472	75	4582
2026-01-03 10:18:51.54	183.73	30.86	-55.2	-56.9	14.4	0.00e+00	0	30	0	470810624	75	4663
2026-01-03 10:18:52.55	183.86	31.04	-55.3	-57.0	14.3	0.00e+00	0	30	0	471859200	75	4747
2026-01-03 10:18:53.56	184.00	31.23	-55.6	-57.4	14.3	0.00e+00	0	30	0	473956352	76	4653
2026-01-03 10:18:54.57	184.13	31.42	-55.5	-57.3	14.3	0.00e+00	0	30	0	476053504	76	4620
2026-01-03 10:18:55.58	184.27	31.61	-55.7	-57.5	14.2	0.00e+00	0	30	0	478150656	76	4721
2026-01-03 10:18:56.59	184.41	31.80	-55.8	-57.6	14.1	0.00e+00	0	30	0	480247808	76	4789
2026-01-03 10:18:57.60	184.55	31.99	-55.9	-57.9	14.1	0.00e+00	0	30	0	482344960	77	4653
2026-01-03 10:18:58.60	184.69	32.18	-55.9	-57.9	14.1	0.00e+00	0	30	0	483393536	77	4652
2026-01-03 10:18:59.61	184.84	32.37	-56.0	-58.0	14.0	0.00e+00	0	30	0	485490688	77	4713
2026-01-03 10:19:00.61	184.98	32.56	-56.1	-58.0	14.0	0.00e+00	0	30	0	487587840	77	4758
2026-01-03 10:19:01.62	185.13	32.76	-56.1	-58.1	13.9	0.00e+00	0	31	0	489684992	77	4805
2026-01-03 10:19:02.63	185.28	32.95	-56.1	-58.0	14.0	0.00e+00	0	31	0	491782144	77	4754
2026-01-03 10:19:03.64	185.43	33.15	-56.1	-58.0	14.0	0.00e+00	0	30	0	492830720	77	4758
2026-01-03 10:19:04.65	185.58	33.35	-56.1	-58.1	14.0	0.00e+00	0	30	0	494927872	77	4770
2026-01-03 10:19:05.66	185.73	33.55	-55.9	-57.8	14.1	0.00e+00	0	30	0	497025024	77	4650
2026-01-03 10:19:06.67	185.89	33.75	-55.9	-57.8	14.1	0.00e+00	0	30	0	499122176	77	4632
2026-01-03 10:19:07.68	186.05	33.95	-56.0	-57.9	14.1	0.00e+00	0	30	0	501219328	77	4666
2026-01-03 10:19:08.69	186.21	34.15	-55.8	-57.6	14.2	0.00e+00	0	30	0	502267904	77	4514
2026-01-03 10:19:09.70	186.37	34.36	-55.9	-57.8	14.1	0.00e+00	0	30	0	504365056	77	4647
2026-01-03 10:19:10.71	186.53	34.56	-55.9	-57.8	14.1	0.00e+00	0	30	0	506462208	77	4628
2026-01-03 10:19:11.71	186.70	34.76	-56.0	-57.9	14.0	0.00e+00	0	30	0	508559360	77	4681
2026-01-03 10:19:12.72	186.86	34.97	-56.0	-57.9	14.1	0.00e+00	0	30	0	510656512	77	4694
2026-01-03 10:19:13.72	187.03	35.18	-56.1	-58.1	14.0	0.00e+00	0	30	0	511705088	77	4769
2026-01-03 10:19:14.73	187.20	35.39	-56.1	-58.0	14.0	0.00e+00	0	30	0	513802240	77	4750
2026-01-03 10:19:15.74	187.38	35.60	-56.0	-58.0	14.0	0.00e+00	0	30	0	515899392	77	4712
2026-01-03 10:19:16.75	187.56	35.81	-55.9	-57.8	14.1	0.00e+00	0	30	0	517996544	77	4606
2026-01-03 10:19:17.75	187.73	36.02	-56.0	-57.9	14.1	0.00e+00	0	30	0	520093696	77	4696
2026-01-03 10:19:18.76	187.91	36.23	-55.8	-57.7	14.2	0.00e+00	0	30	0	521142272	77	4563
2026-01-03 10:19:19.77	188.10	36.44	-55.9	-57.7	14.2	0.00e+00	0	30	0	523239424	77	4595
2026-01-03 10:19:20.78	188.28	36.66	-55.9	-57.7	14.2	0.00e+00	0	30	0	525336576	77	4570
2026-01-03 10:19:21.79	188.47	36.88	-55.8	-57.6	14.2	0.00e+00	0	30	0	527433728	77	4544
2026-01-03 10:19:22.80	188.66	37.10	-55.7	-57.4	14.3	0.00e+00	0	30	0	529530880	77	4437
2026-01-03 10:19:23.80	188.85	37.31	-55.7	-57.5	14.3	0.00e+00	0	30	0	530579456	77	4471
2026-01-03 10:19:24.81	189.05	37.53	-55.7	-57.4	14.4	0.00e+00	0	30	0	532676608	77	4411
2026-01-03 10:19:25.82	189.25	37.75	-55.8	-57.6	14.3	0.00e+00	0	31	0	534773760	77	4530
2026-01-03 10:19:26.83	189.45	37.98	-55.9	-57.8	14.2	0.00e+00	0	31	0	536870912	77	4612
2026-01-03 10:19:27.83	189.65	38.20	-56.0	-57.8	14.1	0.00e+00	0	31	0	538968064	77	4650
2026-01-03 10:19:28.84	189.85	38.42	-55.9	-57.7	14.2	0.00e+00	0	31	0	540016640	77	4590
2026-01-03 10:19:29.84	190.06	38.64	-55.7	-57.6	14.3	0.00e+00	0	30	0	542113792	77	4494
2026-01-03 10:19:30.85	190.27	38.87	-55.7	-57.5	14.3	0.00e+00	0	30	0	544210944	77	4454
2026-01-03 10:19:31.85	190.48	39.10	-55.7	-57.4	14.3	0.00e+00	0	30	0	546308096	77	4424
2026-01-03 10:19:32.86	190.70	39.32	-55.7	-57.5	14.3	0.00e+00	0	30	0	548405248	77	4469
2026-01-03 10:19:33.87	190.92	39.55	-55.6	-57.3	14.4	0.00e+00	0	30	0	549453824	77	4347
2026-01-03 10:19:34.88	191.15	39.78	-55.4	-57.1	14.5	0.00e+00	0	31	0	551550976	77	4244
2026-01-03 10:19:35.88	191.37	40.01	-55.4	-57.1	14.5	0.00e+00	0	30	0	553648128	77	4259
2026-01-03 10:19:36.89	191.60	40.25	-55.3	-57.0	14.6	0.00e+00	0	31	0	555745280	77	4198
2026-01-03 10:19:37.90	191.83	40.48	-55.2	-56.8	14.6	0.00e+00	0	30	0	557842432	77	4145
2026-01-03 10:19:38.91	192.07	40.72	-55.1	-56.7	14.6	0.00e+00	0	30	0	558891008	76	4305
2026-01-03 10:19:39.92	192.31	40.95	-54.9	-56.4	14.8	0.00e+00	0	31	0	560988160	76	4180
2026-01-03 10:19:40.93	192.55	41.19	-54.6	-56.1	14.8	0.00e+00	0	31	0	563085312	75	4259
2026-01-03 10:19:41.93	192.80	41.42	-54.7	-56.2	14.8	0.00e+00	0	31	0	565182464	75	4302
2026-01-03 10:19:42.94	193.05	41.66	-54.6	-56.1	14.8	0.00e+00	0	30	0	567279616	75	4268
2026-01-03 10:19:43.95	193.30	41.90	-54.7	-56.2	14.8	0.00e+00	0	30	0	568328192	75	4296
2026-01-03 10:19:44.96	193.56	42.14	-54.7	-56.2	14.8	0.00e+00	0	31	0	570425344	75	4301
2026-01-03 10:19:45.97	193.82	42.39	-54.7	-56.2	14.8	0.00e+00	0	30	0	572522496	75	4306
2026-01-03 10:19:46.97	194.09	42.63	-54.9	-56.4	14.7	0.00e+00	0	30	0	574619648	75	4399
2026-01-03 10:19:47.98	194.36	42.87	-55.1	-56.7	14.6	0.00e+00	0	30	0	576716800	75	4554
2026-01-03 10:19:48.99	194.63	43.11	-55.1	-56.7	14.5	0.00e+00	0	30	0	577765376	75	4547
2026-01-03 10:19:50.00	194.91	43.36	-55.1	-56.7	14.6	0.00e+00	0	31	0	579862528	75	4563
2026-01-03 10:19:51.01	195.19	43.60	-54.9	-56.5	14.6	0.00e+00	0	30	0	581959680	75	4453
2026-01-03 10:19:52.02	195.48	43.85	-54.8	-56.3	14.7	0.00e+00	0	30	0	584056832	75	4368
2026-01-03 10:19:53.03	195.77	44.10	-54.7	-56.1	14.8	0.00e+00	0	30	0	586153984	75	4273
2026-01-03 10:19:54.04	196.06	44.35	-54.6	-56.0	14.8	0.00e+00	0	31	0	587202560	75	4231
2026-01-03 10:19:55.05	196.36	44.60	-54.8	-56.3	14.8	0.00e+00	0	31	0	589299712	75	4347
2026-01-03 10:19:56.06	196.67	44.85	-55.0	-56.6	14.6	0.00e+00	0	31	0	591396864	75	4514
2026-01-03 10:19:57.07	196.98	45.10	-55.6	-57.4	14.3	0.00e+00	0	31	0	593494016	76	4661
2026-01-03 10:19:58.07	197.29	45.35	-55.9	-57.7	14.2	0.00e+00	0	31	0	595591168	76	4856
2026-01-03 10:19:59.08	197.61	45.60	-55.9	-57.7	14.2	0.00e+00	0	30	0	596639744	77	4559
2026-01-03 10:20:00.09	197.93	45.85	-55.7	-57.5	14.3	0.00e+00	0	30	0	598736896	77	4447
2026-01-03 10:20:01.09	198.26	46.10	-55.4	-57.0	14.6	0.00e+00	0	30	0	600834048	77	4200
2026-01-03 10:20:02.10	198.59	46.35	-55.2	-56.8	14.7	0.00e+00	0	31	0	602931200	77	4106
2026-01-03 10:20:03.11	198.93	46.61	-55.2	-56.8	14.6	0.00e+00	0	30	0	605028352	76	4351
2026-01-03 10:20:04.12	199.28	46.86	-55.4	-57.0	14.5	0.00e+00	0	31	0	607125504	76	4457
2026-01-03 10:20:05.13	199.63	47.12	-55.6	-57.3	14.3	0.00e+00	0	30	0	608174080	76	4639
2026-01-03 10:20:06.14	199.98	47.37	-56.0	-57.8	14.2	0.00e+00	0	30	0	610271232	77	4635
2026-01-03 10:20:07.15	200.34	47.63	-56.1	-57.9	14.1	0.00e+00	0	31	0	612368384	77	4692
2026-01-03 10:20:08.15	200.71	47.88	-56.3	-58.2	13.9	0.00e+00	0	30	0	614465536	77	4850
2026-01-03 10:20:09.16	201.08	48.14	-56.1	-58.0	14.1	0.00e+00	0	31	0	616562688	77	4739
2026-01-03 10:20:10.17	201.46	48.40	-56.0	-57.8	14.2	0.00e+00	0	30	0	617611264	77	4614
2026-01-03 10:20:11.18	201.85	48.65	-55.7	-57.4	14.4	0.00e+00	0	30	0	619708416	77	4411
2026-01-03 10:20:12.19	202.24	48.91	-55.6	-57.3	14.5	0.00e+00	0	31	0	621805568	77	4368
2026-01-03 10:20:13.20	202.64	49.17	-55.2	-56.8	14.7	0.00e+00	0	31	0	623902720	77	4113
2026-01-03 10:20:14.21	203.05	49.42	-55.1	-56.6	14.7	0.00e+00	0	31	0	625999872	76	4283
2026-01-03 10:20:15.22	203.46	49.68	-55.2	-56.8	14.6	0.00e+00	0	30	0	627048448	76	4366
2026-01-03 10:20:16.22	203.88	49.93	-55.5	-57.2	14.4	0.00e+00	0	31	0	629145600	76	4578
2026-01-03 10:20:17.22	204.30	50.19	-55.6	-57.3	14.4	0.00e+00	0	31	0	631242752	76	4612
2026-01-03 10:20:18.21	204.73	50.44	-55.2	-56.8	14.6	0.00e+00	0	30	0	633339904	76	4380
2026-01-03 10:20:19.21	205.16	50.69	-54.9	-56.4	14.8	0.00e+00	0	30	0	635437056	76	4175
2026-01-03 10:20:20.20	205.60	50.94	-54.7	-56.2	14.9	0.00e+00	0	30	0	636485632	76	4061
2026-01-03 10:20:21.20	206.05	51.20	-54.4	-55.8	15.0	0.00e+00	0	31	0	638582784	75	4099
2026-01-03 10:20:22.20	206.51	51.45	-53.8	-55.0	15.2	0.00e+00	0	31	0	640679936	74	3987
2026-01-03 10:20:23.20	206.98	51.70	-53.8	-55.0	15.2	0.00e+00	0	31	0	642777088	73	4208
2026-01-03 10:20:24.20	207.46	51.95	-53.8	-55.0	15.1	0.00e+00	0	31	0	643825664	73	4197
2026-01-03 10:20:25.20	207.94	52.20	-53.6	-54.8	15.2	0.00e+00	0	31	0	645922816	73	4121
2026-01-03 10:20:26.19	208.42	52.45	-53.4	-54.5	15.3	0.00e+00	0	30	0	648019968	73	3994
2026-01-03 10:20:27.18	208.92	52.69	-53.1	-54.1	15.4	0.00e+00	0	30	0	650117120	72	4047
2026-01-03 10:20:28.18	209.43	52.94	-52.9	-53.9	15.5	0.00e+00	0	31	0	652214272	72	3941
2026-01-03 10:20:29.17	209.94	53.19	-53.0	-54.0	15.4	0.00e+00	0	31	0	653262848	72	3986
2026-01-03 10:20:30.17	210.46	53.43	-53.1	-54.1	15.4	0.00e+00	0	30	0	655360000	72	4043
2026-01-03 10:20:31.16	210.99	53.67	-53.3	-54.4	15.3	0.00e+00	0	31	0	657457152	72	4166
2026-01-03 10:20:32.16	211.53	53.92	-53.3	-54.5	15.2	0.00e+00	0	31	0	659554304	72	4204
2026-01-03 10:20:33.17	212.09	54.16	-53.2	-54.3	15.3	0.00e+00	0	30	0	660602880	72	4117
2026-01-03 10:20:34.18	212.65	54.40	-53.0	-54.0	15.4	0.00e+00	0	30	0	662700032	72	3996
2026-01-03 10:20:35.19	213.23	54.64	-53.1	-54.2	15.4	0.00e+00	0	30	0	664797184	72	4065
2026-01-03 10:20:36.19	213.81	54.88	-53.4	-54.6	15.2	0.00e+00	0	30	0	666894336	72	4253
2026-01-03 10:20:37.20	214.41	55.12	-53.9	-55.2	15.1	0.00e+00	0	30	0	668991488	73	4300
2026-01-03 10:20:38.20	215.00	55.35	-54.2	-55.5	15.0	0.00e+00	0	31	0	670040064	73	4454
2026-01-03 10:20:39.20	215.61	55.58	-54.0	-55.3	15.0	0.00e+00	0	30	0	672137216	73	4353
2026-01-03 10:20:40.20	216.23	55.81	-53.6	-54.8	15.2	0.00e+00	0	30	0	674234368	73	4135
2026-01-03 10:20:41.20	216.86	56.03	-53.6	-54.8	15.2	0.00e+00	0	30	0	676331520	73	4111
2026-01-03 10:20:42.19	217.49	56.25	-54.0	-55.2	15.1	0.00e+00	0	30	0	678428672	73	4316
2026-01-03 10:20:43.19	218.14	56.48	-54.7	-56.1	14.8	0.00e+00	0	30	0	679477248	74	4519
2026-01-03 10:20:44.19	218.80	56.69	-55.1	-56.6	14.6	0.00e+00	0	31	0	681574400	75	4542
2026-01-03 10:20:45.20	219.48	56.91	-55.1	-56.6	14.6	0.00e+00	0	30	0	683671552	75	4515
2026-01-03 10:20:46.20	220.16	57.12	-54.7	-56.2	14.8	0.00e+00	0	30	0	685768704	75	4300
2026-01-03 10:20:47.21	220.86	57.34	-54.5	-55.9	15.0	0.00e+00	0	30	0	687865856	75	4157
2026-01-03 10:20:48.21	221.56	57.54	-54.2	-55.5	15.1	0.00e+00	0	31	0	688914432	75	3982
2026-01-03 10:20:49.22	222.28	57.75	-54.2	-55.5	15.0	0.00e+00	0	30	0	691011584	74	4230
2026-01-03 10:20:50.22	223.00	57.95	-54.3	-55.6	15.0	0.00e+00	0	30	0	693108736	74	4287
2026-01-03 10:20:51.23	223.74	58.14	-54.2	-55.5	15.0	0.00e+00	0	30	0	695205888	74	4228
2026-01-03 10:20:52.23	224.48	58.34	-54.1	-55.4	15.1	0.00e+00	0	30	0	697303040	74	4153
2026-01-03 10:20:53.24	225.25	58.52	-54.0	-55.3	15.1	0.00e+00	0	30	0	698351616	74	4115
2026-01-03 10:20:54.25	226.02	58.71	-54.0	-55.3	15.2	0.00e+00	0	30	0	700448768	74	4105
2026-01-03 10:20:55.26	226.80	58.89	-54.0	-55.3	15.1	0.00e+00	0	30	0	702545920	74	4106
2026-01-03 10:20:56.27	227.60	59.07	-53.9	-55.2	15.1	0.00e+00	0	30	0	704643072	74	4061
2026-01-03 10:20:57.27	228.39	59.24	-54.1	-55.4	15.1	0.00e+00	0	30	0	706740224	74	4154
2026-01-03 10:20:58.28	229.21	59.41	-54.1	-55.4	15.1	0.00e+00	0	31	0	707788800	74	4156
2026-01-03 10:20:59.28	230.03	59.57	-54.3	-55.7	15.0	0.00e+00	0	30	0	709885952	74	4295
2026-01-03 10:21:00.29	230.86	59.73	-54.6	-56.0	14.8	0.00e+00	0	31	0	711983104	74	4473
2026-01-03 10:21:01.29	231.70	59.88	-54.7	-56.1	14.8	0.00e+00	0	30	0	714080256	74	4537
2026-01-03 10:21:02.30	232.55	60.03	-54.1	-55.4	15.1	0.00e+00	0	30	0	716177408	74	4163
2026-01-03 10:21:03.31	233.42	60.17	-53.8	-55.0	15.2	0.00e+00	0	30	0	717225984	74	3997
2026-01-03 10:21:04.31	234.28	60.31	-53.7	-54.9	15.2	0.00e+00	0	30	0	719323136	74	3945
2026-01-03 10:21:05.32	235.17	60.44	-53.7	-54.9	15.3	0.00e+00	0	31	0	721420288	74	3933
2026-01-03 10:21:06.32	236.05	60.56	-53.5	-54.7	15.3	0.00e+00	0	30	0	723517440	73	4063
2026-01-03 10:21:07.33	236.95	60.68	-53.3	-54.4	15.4	0.00e+00	0	30	0	725614592	73	3958
2026-01-03 10:21:08.33	237.85	60.79	-53.4	-54.5	15.3	0.00e+00	0	30	0	726663168	73	3974
2026-01-03 10:21:09.34	238.77	60.90	-53.4	-54.5	15.3	0.00e+00	0	30	0	728760320	73	3982
2026-01-03 10:21:10.35	239.69	61.00	-53.8	-55.0	15.1	0.00e+00	0	30	0	730857472	73	4195
2026-01-03 10:21:11.35	240.62	61.10	-53.9	-55.1	15.1	0.00e+00	0	30	0	732954624	73	4262
2026-01-03 10:21:12.36	241.56	61.18	-53.4	-54.5	15.4	0.00e+00	0	31	0	734003200	73	3979
2026-01-03 10:21:13.37	242.50	61.27	-53.2	-54.2	15.4	0.00e+00	0	30	0	736100352	72	4092
2026-01-03 10:21:14.37	243.44	61.34	-53.5	-54.6	15.2	0.00e+00	0	30	0	738197504	72	4275
2026-01-03 10:21:15.38	244.40	61.41	-54.2	-55.4	15.0	0.00e+00	0	30	0	740294656	73	4436
2026-01-03 10:21:16.39	245.36	61.47	-54.6	-56.0	14.9	0.00e+00	0	30	0	742391808	74	4457
2026-01-03 10:21:17.40	246.32	61.53	-54.5	-55.9	14.9	0.00e+00	0	31	0	744488960	74	4393
2026-01-03 10:21:18.40	247.28	61.57	-53.9	-55.1	15.2	0.00e+00	0	30	0	745537536	74	4044
2026-01-03 10:21:19.41	248.26	61.61	-53.5	-54.6	15.3	0.00e+00	0	30	0	747634688	73	4009
2026-01-03 10:21:20.42	249.23	61.65	-53.7	-54.9	15.2	0.00e+00	0	31	0	749731840	73	4175
2026-01-03 10:21:21.41	250.19	61.67	-54.5	-55.9	14.9	0.00e+00	0	31	0	751828992	74	4401
2026-01-03 10:21:22.42	251.17	61.69	-54.7	-56.1	14.8	0.00e+00	0	30	0	753926144	74	4535
2026-01-03 10:21:23.43	252.15	61.71	-54.7	-56.1	14.8	0.00e+00	0	30	0	754974720	74	4512
2026-01-03 10:21:24.44	253.14	61.71	-54.3	-55.6	15.0	0.00e+00	0	30	0	757071872	74	4254
2026-01-03 10:21:25.44	254.11	61.71	-53.8	-55.0	15.3	0.00e+00	0	30	0	759169024	74	3981
2026-01-03 10:21:26.45	255.09	61.70	-53.1	-54.2	15.4	0.00e+00	0	31	0	761266176	72	4067
2026-01-03 10:21:27.45	256.06	61.69	-52.8	-53.8	15.5	0.00e+00	0	31	0	762314752	72	3873
2026-01-03 10:21:28.46	257.04	61.66	-52.8	-53.8	15.5	0.00e+00	0	30	0	764411904	72	3884
2026-01-03 10:21:29.47	258.02	61.63	-52.6	-53.7	15.5	0.00e+00	0	30	0	766509056	71	4054
2026-01-03 10:21:30.47	258.98	61.60	-52.6	-53.6	15.5	0.00e+00	0	31	0	768606208	71	4045
2026-01-03 10:21:31.47	259.94	61.55	-52.5	-53.5	15.5	0.00e+00	0	31	0	770703360	71	3994
2026-01-03 10:21:32.48	260.91	61.50	-52.2	-53.1	15.6	0.00e+00	0	30	0	772800512	71	3819
2026-01-03 10:21:33.48	261.86	61.44	-52.1	-53.1	15.6	0.00e+00	0	30	0	773849088	70	4009
2026-01-03 10:21:34.49	262.82	61.38	-52.4	-53.4	15.5	0.00e+00	0	30	0	775946240	70	4157
2026-01-03 10:21:35.50	263.78	61.31	-52.8	-53.8	15.3	0.00e+00	0	30	0	778043392	70	4357
2026-01-03 10:21:36.51	264.72	61.23	-53.3	-54.4	15.2	0.00e+00	0	30	0	780140544	71	4434
2026-01-03 10:21:37.52	265.66	61.14	-53.6	-54.7	15.2	0.00e+00	0	31	0	782237696	72	4332
2026-01-03 10:21:38.53	266.60	61.05	-53.7	-54.8	15.2	0.00e+00	0	30	0	783286272	72	4380
2026-01-03 10:21:39.53	267.52	60.96	-54.4	-55.7	14.8	0.00e+00	0	30	0	785383424	73	4553
2026-01-03 10:21:40.53	268.43	60.85	-54.9	-56.3	14.7	0.00e+00	0	31	0	787480576	74	4638
2026-01-03 10:21:41.54	269.34	60.74	-54.4	-55.7	15.0	0.00e+00	0	31	0	789577728	75	4098
2026-01-03 10:21:42.55	270.25	60.63	-54.0	-55.2	15.2	0.00e+00	0	30	0	790626304	74	4059
2026-01-03 10:21:43.55	271.13	60.51	-54.7	-56.1	14.8	0.00e+00	0	30	0	792723456	74	4514
2026-01-03 10:21:44.56	272.02	60.38	-55.4	-57.0	14.5	0.00e+00	0	31	0	794820608	75	4715
2026-01-03 10:21:45.56	272.89	60.25	-55.6	-57.2	14.5	0.00e+00	0	30	0	796917760	76	4580
2026-01-03 10:21:46.56	273.75	60.11	-55.1	-56.7	14.8	0.00e+00	0	30	0	799014912	76	4293
2026-01-03 10:21:47.56	274.60	59.96	-54.8	-56.1	15.0	0.00e+00	0	31	0	801112064	76	4046
2026-01-03 10:21:48.58	275.46	59.81	-54.4	-55.7	15.1	0.00e+00	0	30	0	802160640	75	4069
2026-01-03 10:21:49.58	276.29	59.66	-54.8	-56.3	14.8	0.00e+00	0	30	0	804257792	75	4342
2026-01-03 10:21:50.58	277.12	59.50	-55.6	-57.2	14.5	0.00e+00	0	30	0	806354944	76	4576
2026-01-03 10:21:51.59	277.94	59.34	-55.5	-57.1	14.5	0.00e+00	0	31	0	808452096	76	4527
2026-01-03 10:21:52.60	278.75	59.17	-55.2	-56.6	14.8	0.00e+00	0	30	0	809500672	76	4287
2026-01-03 10:21:53.60	279.54	58.99	-55.5	-57.1	14.6	0.00e+00	0	30	0	811597824	76	4511
2026-01-03 10:21:54.61	280.33	58.81	-55.9	-57.7	14.3	0.00e+00	0	30	0	813694976	77	4547
2026-01-03 10:21:55.62	281.10	58.63	-55.6	-57.2	14.6	0.00e+00	0	30	0	815792128	77	4318
2026-01-03 10:21:56.63	281.87	58.44	-55.3	-56.8	14.8	0.00e+00	0	30	0	817889280	77	4125
2026-01-03 10:21:57.63	282.62	58.25	-55.1	-56.6	14.8	0.00e+00	0	31	0	818937856	76	4269
2026-01-03 10:21:58.64	283.37	58.06	-55.3	-56.8	14.7	0.00e+00	0	30	0	821035008	76	4367
2026-01-03 10:21:59.65	284.10	57.86	-55.3	-56.8	14.7	0.00e+00	0	30	0	823132160	76	4357
2026-01-03 10:22:00.66	284.83	57.66	-55.3	-56.9	14.6	0.00e+00	0	30	0	825229312	76	4412
2026-01-03 10:22:01.66	285.53	57.45	-55.1	-56.5	14.8	0.00e+00	0	31	0	827326464	76	4233
2026-01-03 10:22:02.67	286.23	57.25	-54.5	-55.9	15.0	0.00e+00	0	30	0	829423616	75	4153
2026-01-03 10:22:03.68	286.93	57.03	-54.3	-55.5	15.1	0.00e+00	0	30	0	830472192	75	4000
2026-01-03 10:22:04.68	287.60	56.82	-54.5	-55.8	15.0	0.00e+00	0	30	0	832569344	74	4364
2026-01-03 10:22:05.69	288.27	56.60	-54.7	-56.2	14.8	0.00e+00	0	31	0	834666496	74	4554
2026-01-03 10:22:06.69	288.92	56.38	-54.7	-56.2	14.9	0.00e+00	0	30	0	836763648	75	4301
2026-01-03 10:22:07.70	289.57	56.16	-54.1	-55.3	15.1	0.00e+00	0	30	0	837812224	74	4136
2026-01-03 10:22:08.71	290.21	55.93	-53.9	-55.0	15.2	0.00e+00	0	30	0	839909376	74	4004
2026-01-03 10:22:09.71	290.84	55.71	-53.9	-55.1	15.1	0.00e+00	0	30	0	842006528	73	4282
2026-01-03 10:22:10.72	291.46	55.47	-53.8	-54.9	15.2	0.00e+00	0	30	0	844103680	73	4192
2026-01-03 10:22:11.73	292.06	55.24	-53.3	-54.4	15.4	0.00e+00	0	30	0	846200832	73	3946
2026-01-03 10:22:12.73	292.66	55.01	-53.0	-54.1	15.4	0.00e+00	0	30	0	847249408	72	4019
2026-01-03 10:22:13.74	293.25	54.77	-52.8	-53.8	15.5	0.00e+00	0	30	0	849346560	72	3879
2026-01-03 10:22:14.74	293.82	54.53	-52.3	-53.3	15.6	0.00e+00	0	30	0	851443712	71	3877
2026-01-03 10:22:15.75	294.39	54.29	-51.7	-52.6	15.7	0.00e+00	0	30	0	853540864	70	3806
2026-01-03 10:22:16.75	294.95	54.05	-51.7	-52.6	15.6	0.00e+00	0	30	0	855638016	69	4025
2026-01-03 10:22:17.76	295.50	53.81	-51.7	-52.7	15.6	0.00e+00	0	31	0	856686592	69	4056
2026-01-03 10:22:18.77	296.04	53.56	-51.0	-51.9	15.8	0.00e+00	0	31	0	858783744	68	3947
2026-01-03 10:22:19.78	296.57	53.32	-50.4	-51.3	15.9	0.00e+00	0	30	0	860880896	67	3896
2026-01-03 10:22:20.78	297.09	53.07	-50.5	-51.3	15.9	0.00e+00	0	30	0	862978048	67	3882
2026-01-03 10:22:21.79	297.61	52.82	-51.3	-52.2	15.6	0.00e+00	0	30	0	865075200	67	4324
2026-01-03 10:22:22.79	298.11	52.58	-51.9	-52.8	15.6	0.00e+00	0	30	0	866123776	69	4115
2026-01-03 10:22:23.80	298.61	52.33	-51.7	-52.6	15.6	0.00e+00	0	31	0	868220928	69	4042
2026-01-03 10:22:24.81	299.10	52.07	-52.0	-52.9	15.6	0.00e+00	0	31	0	870318080	69	4169
2026-01-03 10:22:25.82	299.58	51.82	-52.1	-53.0	15.5	0.00e+00	0	30	0	872415232	69	4227
2026-01-03 10:22:26.83	300.06	51.57	-51.7	-52.6	15.7	0.00e+00	0	30	0	874512384	69	4012
2026-01-03 10:22:27.83	300.52	51.32	-51.7	-52.6	15.7	0.00e+00	0	30	0	875560960	69	4009
2026-01-03 10:22:28.84	300.98	51.06	-52.6	-53.6	15.4	0.00e+00	0	30	0	877658112	70	4280
2026-01-03 10:22:29.85	301.43	50.81	-53.6	-54.8	15.2	0.00e+00	0	30	0	879755264	72	4342
2026-01-03 10:22:30.85	301.87	50.56	-53.6	-54.8	15.1	0.00e+00	0	30	0	881852416	72	4366
2026-01-03 10:22:31.86	302.30	50.30	-53.5	-54.7	15.2	0.00e+00	0	30	0	883949568	72	4293
2026-01-03 10:22:32.87	302.73	50.05	-54.4	-55.7	14.9	0.00e+00	0	30	0	886046720	73	4593
2026-01-03 10:22:33.88	303.15	49.79	-55.7	-57.4	14.4	0.00e+00	0	31	0	887095296	76	4672
2026-01-03 10:22:34.89	303.57	49.53	-55.8	-57.5	14.4	0.00e+00	0	30	0	889192448	77	4456
2026-01-03 10:22:35.90	303.97	49.28	-55.1	-56.5	14.8	0.00e+00	0	30	0	891289600	76	4238
2026-01-03 10:22:36.91	304.38	49.02	-55.3	-56.8	14.7	0.00e+00	0	30	0	893386752	76	4368
2026-01-03 10:22:37.91	304.77	48.77	-56.0	-57.8	14.3	0.00e+00	0	30	0	895483904	77	4617
2026-01-03 10:22:38.92	305.16	48.51	-56.6	-58.6	13.9	0.00e+00	0	30	0	896532480	78	4807
2026-01-03 10:22:39.93	305.54	48.26	-56.8	-59.0	13.8	0.00e+00	0	31	0	898629632	78	4985
2026-01-03 10:22:40.93	305.91	48.00	-57.5	-60.0	13.2	0.00e+00	0	30	0	900726784	80	5019
2026-01-03 10:22:41.94	306.28	47.75	-57.7	-60.5	13.0	0.00e+00	0	30	0	902823936	80	5286
2026-01-03 10:22:42.95	306.64	47.49	-57.5	-60.1	13.3	0.00e+00	0	30	0	903872512	80	5045
2026-01-03 10:22:43.96	307.00	47.24	-56.9	-59.1	13.7	0.00e+00	0	30	0	905969664	80	4540
2026-01-03 10:22:44.96	307.35	46.99	-56.9	-59.1	13.8	0.00e+00	0	31	0	908066816	80	4495
2026-01-03 10:22:45.97	307.70	46.73	-57.3	-59.6	13.5	0.00e+00	0	30	0	910163968	80	4812
2026-01-03 10:22:46.98	308.04	46.48	-58.3	-61.6	12.3	0.00e+00	0	30	0	912261120	81	5673
2026-01-03 10:22:47.98	308.37	46.23	-58.7	-62.3	11.8	1.14e-05	0	31	0	914358272	82	5828
2026-01-03 10:22:48.99	308.70	45.98	-57.8	-60.5	13.0	0.00e+00	0	30	0	915406848	82	4719
2026-01-03 10:22:50.00	309.03	45.72	-56.9	-59.1	13.7	0.00e+00	0	30	0	917504000	80	4516
2026-01-03 10:22:51.00	309.34	45.48	-56.9	-59.1	13.8	0.00e+00	0	31	0	919601152	80	4541
2026-01-03 10:22:52.01	309.66	45.23	-57.5	-60.1	13.1	0.00e+00	0	30	0	921698304	80	5066
2026-01-03 10:22:53.01	309.97	44.98	-57.6	-60.3	13.0	0.00e+00	0	30	0	923795456	80	5211
2026-01-03 10:22:54.02	310.27	44.73	-57.2	-59.6	13.4	0.00e+00	0	30	0	924844032	80	4784
2026-01-03 10:22:55.03	310.57	44.48	-56.7	-58.8	13.9	0.00e+00	0	30	0	926941184	80	4366
2026-01-03 10:22:56.04	310.87	44.23	-56.4	-58.3	14.1	0.00e+00	0	30	0	929038336	79	4375
2026-01-03 10:22:57.04	311.16	43.99	-56.4	-58.3	14.2	0.00e+00	0	30	0	931135488	79	4369
2026-01-03 10:22:58.05	311.45	43.74	-56.0	-57.8	14.3	0.00e+00	0	30	0	932184064	78	4346
2026-01-03 10:22:59.06	311.73	43.50	-55.2	-56.7	14.8	0.00e+00	0	30	0	934281216	77	4079
2026-01-03 10:23:00.07	312.01	43.25	-54.9	-56.3	14.8	0.00e+00	0	30	0	936378368	76	4133
2026-01-03 10:23:01.08	312.28	43.01	-54.5	-55.9	14.9	0.00e+00	0	31	0	938475520	75	4161
2026-01-03 10:23:02.09	312.55	42.76	-54.7	-56.1	14.9	0.00e+00	0	31	0	940572672	75	4287
2026-01-03 10:23:03.10	312.82	42.52	-54.5	-55.9	15.0	0.00e+00	0	31	0	942669824	75	4168
2026-01-03 10:23:04.10	313.08	42.28	-54.2	-55.4	15.1	0.00e+00	0	31	0	943718400	74	4171
2026-01-03 10:23:05.11	313.34	42.04	-54.1	-55.4	15.1	0.00e+00	0	31	0	945815552	74	4170
2026-01-03 10:23:06.12	313.60	41.80	-54.4	-55.8	14.9	0.00e+00	0	31	0	947912704	74	4349
2026-01-03 10:23:07.13	313.85	41.57	-55.2	-56.7	14.6	0.00e+00	0	31	0	950009856	75	4594
2026-01-03 10:23:08.13	314.09	41.33	-55.5	-57.2	14.5	0.00e+00	0	30	0	952107008	76	4560
2026-01-03 10:23:09.14	314.34	41.10	-55.3	-56.9	14.6	0.00e+00	0	31	0	953155584	76	4434
2026-01-03 10:23:10.14	314.58	40.86	-54.8	-56.2	14.9	0.00e+00	0	31	0	955252736	76	4063
2026-01-03 10:23:11.15	314.82	40.63	-54.4	-55.7	15.0	0.00e+00	0	31	0	957349888	75	4093
2026-01-03 10:23:12.16	315.05	40.39	-53.8	-55.0	15.2	0.00e+00	0	30	0	959447040	74	3967
2026-01-03 10:23:13.17	315.28	40.16	-54.3	-55.6	15.0	0.00e+00	0	30	0	961544192	74	4262
2026-01-03 10:23:14.17	315.51	39.93	-55.1	-56.6	14.6	0.00e+00	0	30	0	962592768	75	4544
2026-01-03 10:23:15.17	315.73	39.70	-55.9	-57.7	14.2	0.00e+00	0	30	0	964689920	76	4841
2026-01-03 10:23:16.18	315.95	39.48	-55.5	-57.2	14.5	0.00e+00	0	30	0	966787072	77	4315
2026-01-03 10:23:17.19	316.17	39.25	-54.4	-55.8	15.0	0.00e+00	0	30	0	968884224	75	4115
2026-01-03 10:23:18.19	316.38	39.02	-53.8	-55.0	15.3	0.00e+00	0	31	0	970981376	74	3966
2026-01-03 10:23:19.19	316.59	38.80	-53.2	-54.3	15.4	0.00e+00	0	30	0	972029952	73	3898
2026-01-03 10:23:20.19	316.80	38.58	-53.2	-54.3	15.3	0.00e+00	0	31	0	974127104	72	4108
2026-01-03 10:23:21.20	317.01	38.35	-53.2	-54.3	15.3	0.00e+00	0	31	0	976224256	72	4106
2026-01-03 10:23:22.21	317.21	38.13	-53.5	-54.7	15.2	0.00e+00	0	30	0	978321408	72	4294
2026-01-03 10:23:23.21	317.41	37.91	-54.2	-55.5	15.0	0.00e+00	0	30	0	979369984	73	4447
2026-01-03 10:23:24.21	317.61	37.69	-54.9	-56.4	14.7	0.00e+00	0	30	0	981467136	74	4654
2026-01-03 10:23:25.22	317.81	37.47	-55.4	-57.1	14.4	0.00e+00	0	30	0	983564288	75	4780
2026-01-03 10:23:26.21	318.00	37.26	-55.2	-56.8	14.7	0.00e+00	0	30	0	985661440	76	4361
2026-01-03 10:23:27.22	318.19	37.04	-54.8	-56.3	14.9	0.00e+00	0	31	0	987758592	76	4104
2026-01-03 10:23:28.22	318.38	36.83	-54.4	-55.8	15.0	0.00e+00	0	31	0	988807168	75	4100
2026-01-03 10:23:29.23	318.56	36.61	-54.2	-55.4	15.1	0.00e+00	0	31	0	990904320	74	4192
2026-01-03 10:23:30.24	318.75	36.40	-53.5	-54.6	15.3	0.00e+00	0	30	0	993001472	73	4032
2026-01-03 10:23:31.23	318.93	36.19	-53.5	-54.7	15.3	0.00e+00	0	30	0	995098624	73	4052
2026-01-03 10:23:32.24	319.10	35.98	-54.0	-55.3	15.0	0.00e+00	0	30	0	997195776	73	4349
2026-01-03 10:23:33.24	319.28	35.77	-54.8	-56.2	14.7	0.00e+00	0	31	0	998244352	74	4591
2026-01-03 10:23:34.24	319.45	35.56	-55.6	-57.4	14.4	0.00e+00	0	31	0	1000341504	76	4668
2026-01-03 10:23:35.25	319.63	35.35	-56.0	-57.9	14.2	0.00e+00	0	31	0	1002438656	77	4662
2026-01-03 10:23:36.24	319.79	35.15	-55.8	-57.5	14.3	0.00e+00	0	31	0	1004535808	77	4492
2026-01-03 10:23:37.25	319.96	34.94	-55.6	-57.3	14.5	0.00e+00	0	31	0	1006632960	77	4348
2026-01-03 10:23:38.24	320.13	34.74	-55.0	-56.5	14.8	0.00e+00	0	31	0	1007681536	76	4212
2026-01-03 10:23:39.24	320.29	34.54	-54.7	-56.1	14.9	0.00e+00	0	31	0	1009778688	76	4035
2026-01-03 10:23:40.24	320.45	34.33	-54.1	-55.4	15.1	0.00e+00	0	31	0	1011875840	74	4159
2026-01-03 10:23:41.24	320.61	34.13	-54.1	-55.3	15.1	0.00e+00	0	31	0	1013972992	74	4134
2026-01-03 10:23:42.24	320.77	33.94	-54.2	-55.5	15.0	0.00e+00	0	31	0	1016070144	74	4201
2026-01-03 10:23:43.24	320.92	33.74	-54.5	-55.9	14.9	0.00e+00	0	31	0	1017118720	74	4395
2026-01-03 10:23:44.23	321.08	33.54	-54.8	-56.3	14.7	0.00e+00	0	30	0	1019215872	74	4633
2026-01-03 10:23:45.22	321.23	33.35	-55.1	-56.6	14.6	0.00e+00	0	31	0	1021313024	75	4539
2026-01-03 10:23:46.22	321.38	33.15	-55.5	-57.2	14.5	0.00e+00	0	31	0	1023410176	76	4581
2026-01-03 10:23:47.23	321.53	32.96	-55.5	-57.2	14.4	0.00e+00	0	30	0	1024458752	76	4588
2026-01-03 10:23:48.21	321.67	32.77	-55.6	-57.3	14.4	0.00e+00	0	30	0	1026555904	76	4643
2026-01-03 10:23:49.20	321.81	32.58	-55.5	-57.2	14.5	0.00e+00	0	31	0	1028653056	76	4548
2026-01-03 10:23:50.18	321.95	32.39	-55.5	-57.2	14.5	0.00e+00	0	31	0	1030750208	76	4548
2026-01-03 10:23:51.17	322.10	32.20	-55.5	-57.1	14.5	0.00e+00	0	31	0	1032847360	76	4545
2026-01-03 10:23:52.16	322.23	32.02	-55.5	-57.1	14.5	0.00e+00	0	30	0	1033895936	76	4518
2026-01-03 10:23:53.15	322.37	31.83	-55.5	-57.2	14.4	0.00e+00	0	30	0	1035993088	76	4559
2026-01-03 10:23:54.15	322.51	31.64	-55.5	-57.1	14.5	0.00e+00	0	30	0	1038090240	76	4527
2026-01-03 10:23:55.15	322.64	31.46	-55.7	-57.5	14.3	0.00e+00	0	31	0	1040187392	76	4730
2026-01-03 10:23:56.14	322.78	31.28	-55.8	-57.6	14.2	0.00e+00	0	31	0	1041235968	76	4785
2026-01-03 10:23:57.14	322.91	31.09	-55.7	-57.4	14.3	0.00e+00	0	31	0	1043333120	76	4681
2026-01-03 10:23:58.14	323.04	30.91	-55.8	-57.6	14.2	0.00e+00	0	31	0	1045430272	76	4783
2026-01-03 10:23:59.13	323.17	30.73	-55.7	-57.5	14.3	0.00e+00	0	31	0	1047527424	76	4730
2026-01-03 10:24:00.12	323.30	30.55	-55.8	-57.6	14.2	0.00e+00	0	30	0	1049624576	76	4767
2026-01-03 10:24:01.12	323.42	30.37	-55.6	-57.3	14.4	0.00e+00	0	30	0	1050673152	76	4635
2026-01-03 10:24:02.11	323.55	30.19	-55.6	-57.3	14.4	0.00e+00	0	30	0	1052770304	76	4600
2026-01-03 10:24:03.10	323.67	30.02	-55.4	-57.0	14.5	0.00e+00	0	31	0	1054867456	76	4488
2026-01-03 10:24:04.08	323.79	29.84	-55.5	-57.1	14.4	0.00e+00	0	31	0	1056964608	76	4538
2026-01-03 10:24:05.08	323.92	29.67	-55.6	-57.3	14.4	0.00e+00	0	30	0	1058013184	76	4613
2026-01-03 10:24:06.07	324.03	29.49	-55.7	-57.5	14.3	0.00e+00	0	31	0	1060110336	76	4726
2026-01-03 10:24:07.06	324.15	29.32	-55.8	-57.6	14.2	0.00e+00	0	30	0	1062207488	76	4801
2026-01-03 10:24:08.05	324.27	29.15	-56.0	-57.9	14.1	0.00e+00	0	30	0	1064304640	77	4705
2026-01-03 10:24:09.05	324.39	28.98	-56.1	-58.0	14.1	0.00e+00	0	31	0	1065353216	77	4738
2026-01-03 10:24:10.04	324.50	28.81	-56.2	-58.2	14.0	0.00e+00	0	31	0	1067450368	77	4868
2026-01-03 10:24:11.03	324.62	28.64	-56.1	-58.1	14.0	0.00e+00	0	30	0	1069547520	77	4810
2026-01-03 10:24:12.03	324.73	28.47	-56.1	-58.1	14.0	0.00e+00	0	31	0	1071644672	77	4765
2026-01-03 10:24:13.01	324.84	28.30	-55.9	-57.8	14.2	0.00e+00	0	31	0	1073741824	77	4632
2026-01-03 10:24:14.01	324.95	28.14	-55.7	-57.5	14.3	0.00e+00	0	30	0	1074790400	77	4465
2026-01-03 10:24:15.00	325.06	27.97	-55.7	-57.5	14.3	0.00e+00	0	30	0	1076887552	77	4480
2026-01-03 10:24:15.99	325.17	27.81	-55.5	-57.2	14.4	0.00e+00	0	31	0	1078984704	77	4340
2026-01-03 10:24:16.97	325.27	27.65	-55.4	-57.0	14.6	0.00e+00	0	30	0	1081081856	77	4215
2026-01-03 10:24:17.96	325.38	27.48	-55.3	-56.9	14.6	0.00e+00	0	31	0	1082130432	77	4190
2026-01-03 10:24:18.95	325.48	27.32	-55.4	-57.0	14.6	0.00e+00	0	31	0	1084227584	77	4227
2026-01-03 10:24:19.95	325.59	27.16	-55.4	-57.1	14.5	0.00e+00	0	30	0	1086324736	77	4246
2026-01-03 10:24:20.94	325.69	27.00	-55.4	-57.1	14.5	0.00e+00	0	30	0	1088421888	77	4278
2026-01-03 10:24:21.93	325.79	26.84	-55.6	-57.3	14.4	0.00e+00	0	31	0	1090519040	77	4378
2026-01-03 10:24:22.91	325.89	26.68	-55.5	-57.2	14.4	0.00e+00	0	30	0	1091567616	77	4335
2026-01-03 10:24:23.90	325.99	26.53	-55.5	-57.2	14.5	0.00e+00	0	30	0	1093664768	77	4300
2026-01-03 10:24:24.89	326.09	26.37	-55.5	-57.2	14.5	0.00e+00	0	31	0	1095761920	77	4295
2026-01-03 10:24:25.88	326.19	26.21	-55.4	-57.1	14.5	0.00e+00	0	31	0	1097859072	77	4267
2026-01-03 10:24:26.88	326.29	26.06	-55.5	-57.2	14.5	0.00e+00	0	31	0	1098907648	77	4301
2026-01-03 10:24:27.87	326.38	25.90	-55.4	-57.0	14.5	0.00e+00	0	30	0	1101004800	77	4239
2026-01-03 10:24:28.86	326.48	25.75	-55.1	-56.7	14.6	0.00e+00	0	31	0	1103101952	76	4293
2026-01-03 10:24:29.85	326.57	25.60	-55.0	-56.5	14.7	0.00e+00	0	31	0	1105199104	76	4229
2026-01-03 10:24:30.84	326.67	25.45	-54.8	-56.3	14.8	0.00e+00	0	30	0	1106247680	76	4126
2026-01-03 10:24:31.83	326.76	25.30	-54.8	-56.3	14.8	0.00e+00	0	30	0	1108344832	76	4138
2026-01-03 10:24:32.83	326.85	25.14	-54.8	-56.3	14.9	0.00e+00	0	30	0	1110441984	76	4104
2026-01-03 10:24:33.81	326.94	25.00	-54.5	-55.9	14.9	0.00e+00	0	31	0	1112539136	75	4160
2026-01-03 10:24:34.80	327.03	24.85	-54.3	-55.6	15.0	0.00e+00	0	31	0	1113587712	75	4049
2026-01-03 10:24:35.79	327.12	24.70	-54.3	-55.6	15.0	0.00e+00	0	31	0	1115684864	75	4031
2026-01-03 10:24:36.78	327.21	24.55	-54.1	-55.5	15.0	0.00e+00	0	31	0	1117782016	74	4216
2026-01-03 10:24:37.77	327.30	24.41	-54.2	-55.5	15.0	0.00e+00	0	30	0	1119879168	74	4241
2026-01-03 10:24:38.76	327.39	24.26	-54.1	-55.4	15.0	0.00e+00	0	31	0	1121976320	74	4172
2026-01-03 10:24:39.75	327.47	24.12	-54.1	-55.4	15.0	0.00e+00	0	30	0	1123024896	74	4158
2026-01-03 10:24:40.74	327.56	23.97	-54.0	-55.2	15.1	0.00e+00	0	30	0	1125122048	74	4089
2026-01-03 10:24:41.73	327.65	23.83	-53.9	-55.2	15.1	0.00e+00	0	30	0	1127219200	74	4077
2026-01-03 10:24:42.73	327.73	23.68	-54.0	-55.3	15.1	0.00e+00	0	31	0	1129316352	74	4130
2026-01-03 10:24:43.71	327.81	23.54	-54.0	-55.3	15.1	0.00e+00	0	30	0	1130364928	74	4126
2026-01-03 10:24:44.70	327.90	23.40	-54.0	-55.3	15.0	0.00e+00	0	30	0	1132462080	74	4139
2026-01-03 10:24:45.68	327.98	23.26	-54.1	-55.4	15.0	0.00e+00	0	30	0	1134559232	74	4161
2026-01-03 10:24:46.67	328.06	23.12	-54.1	-55.4	15.0	0.00e+00	0	31	0	1136656384	74	4167
2026-01-03 10:24:47.65	328.14	22.99	-54.1	-55.4	15.0	0.00e+00	0	30	0	1137704960	74	4182
2026-01-03 10:24:48.64	328.22	22.85	-54.3	-55.7	14.9	0.00e+00	0	31	0	1139802112	74	4292
2026-01-03 10:24:49.63	328.30	22.71	-54.3	-55.7	14.9	0.00e+00	0	30	0	1141899264	74	4303
2026-01-03 10:24:50.62	328.38	22.57	-54.1	-55.5	15.0	0.00e+00	0	31	0	1143996416	74	4208
2026-01-03 10:24:51.61	328.45	22.44	-54.2	-55.5	15.0	0.00e+00	0	31	0	1146093568	74	4234
2026-01-03 10:24:52.60	328.53	22.30	-54.1	-55.5	15.0	0.00e+00	0	31	0	1147142144	74	4221
2026-01-03 10:24:53.58	328.61	22.17	-54.0	-55.4	15.0	0.00e+00	0	30	0	1149239296	74	4161
2026-01-03 10:24:54.58	328.69	22.03	-54.0	-55.3	15.0	0.00e+00	0	30	0	1151336448	74	4134
2026-01-03 10:24:55.57	328.76	21.90	-54.0	-55.4	15.0	0.00e+00	0	30	0	1153433600	74	4149
2026-01-03 10:24:56.56	328.84	21.77	-53.8	-55.1	15.1	0.00e+00	0	30	0	1154482176	74	4045
2026-01-03 10:24:57.55	328.91	21.63	-53.7	-54.9	15.1	0.00e+00	0	31	0	1156579328	73	4176
2026-01-03 10:24:58.54	328.98	21.50	-53.6	-54.9	15.1	0.00e+00	0	30	0	1158676480	73	4147
2026-01-03 10:24:59.53	329.06	21.37	-53.5	-54.8	15.2	0.00e+00	0	30	0	1160773632	73	4101
2026-01-03 10:25:00.52	329.13	21.24	-53.4	-54.6	15.3	0.00e+00	0	30	0	1162870784	73	4026
2026-01-03 10:25:01.50	329.20	21.11	-53.3	-54.5	15.3	0.00e+00	0	31	0	1163919360	73	3979
2026-01-03 10:25:02.49	329.27	20.98	-53.2	-54.3	15.2	0.00e+00	0	31	0	1166016512	72	4138
2026-01-03 10:25:03.49	329.34	20.85	-53.1	-54.2	15.3	0.00e+00	0	30	0	1168113664	72	4085
2026-01-03 10:25:04.48	329.41	20.73	-53.1	-54.2	15.3	0.00e+00	0	31	0	1170210816	72	4068
2026-01-03 10:25:05.48	329.48	20.60	-52.9	-54.0	15.4	0.00e+00	0	31	0	1171259392	72	3986
2026-01-03 10:25:06.47	329.55	20.47	-52.9	-54.0	15.4	0.00e+00	0	31	0	1173356544	72	3963
2026-01-03 10:25:07.46	329.62	20.35	-52.8	-53.9	15.4	0.00e+00	0	30	0	1175453696	72	3947
2026-01-03 10:25:08.45	329.69	20.22	-52.8	-53.9	15.4	0.00e+00	0	30	0	1177550848	72	3915
2026-01-03 10:25:09.44	329.76	20.09	-52.8	-53.9	15.4	0.00e+00	0	31	0	1178599424	72	3915
2026-01-03 10:25:10.42	329.83	19.97	-52.8	-53.9	15.4	0.00e+00	0	31	0	1180696576	72	3938
2026-01-03 10:25:11.41	329.89	19.85	-52.8	-53.9	15.4	0.00e+00	0	30	0	1182793728	72	3932
2026-01-03 10:25:12.40	329.96	19.72	-52.9	-54.0	15.4	0.00e+00	0	30	0	1184890880	72	3988
2026-01-03 10:25:13.39	330.02	19.60	-53.0	-54.1	15.3	0.00e+00	0	30	0	1186988032	72	4017
2026-01-03 10:25:14.38	330.09	19.48	-52.9	-54.1	15.3	0.00e+00	0	30	0	1188036608	72	4009
2026-01-03 10:25:15.37	330.15	19.36	-53.0	-54.1	15.3	0.00e+00	0	31	0	1190133760	72	4028
2026-01-03 10:25:16.35	330.22	19.24	-53.0	-54.1	15.3	0.00e+00	0	31	0	1192230912	72	4050
2026-01-03 10:25:17.34	330.28	19.12	-53.0	-54.2	15.3	0.00e+00	0	30	0	1194328064	72	4052
2026-01-03 10:25:18.33	330.34	19.00	-53.1	-54.3	15.2	0.00e+00	0	30	0	1195376640	72	4131
2026-01-03 10:25:19.31	330.41	18.88	-53.1	-54.3	15.3	0.00e+00	0	31	0	1197473792	72	4101
2026-01-03 10:25:20.31	330.47	18.76	-53.2	-54.4	15.2	0.00e+00	0	31	0	1199570944	72	4183
2026-01-03 10:25:21.29	330.53	18.64	-53.3	-54.5	15.2	0.00e+00	0	30	0	1201668096	72	4230
2026-01-03 10:25:22.29	330.59	18.53	-53.2	-54.4	15.2	0.00e+00	0	31	0	1202716672	72	4174
2026-01-03 10:25:23.28	330.65	18.41	-53.2	-54.4	15.2	0.00e+00	0	31	0	1204813824	72	4182
2026-01-03 10:25:24.27	330.72	18.29	-53.2	-54.4	15.2	0.00e+00	0	31	0	1206910976	72	4178
2026-01-03 10:25:25.27	330.78	18.18	-53.1	-54.3	15.2	0.00e+00	0	31	0	1209008128	72	4120
2026-01-03 10:25:26.25	330.84	18.06	-53.2	-54.4	15.2	0.00e+00	0	30	0	1210056704	72	4152
2026-01-03 10:25:27.24	330.89	17.95	-53.3	-54.5	15.1	0.00e+00	0	30	0	1212153856	72	4195
2026-01-03 10:25:28.24	330.95	17.83	-53.2	-54.4	15.1	0.00e+00	0	30	0	1214251008	72	4171
2026-01-03 10:25:29.23	331.01	17.72	-53.3	-54.5	15.1	0.00e+00	0	30	0	1216348160	72	4220
2026-01-03 10:25:30.22	331.07	17.60	-53.2	-54.4	15.2	0.00e+00	0	30	0	1218445312	72	4149
2026-01-03 10:25:31.21	331.13	17.49	-53.2	-54.4	15.2	0.00e+00	0	30	0	1219493888	72	4173
2026-01-03 10:25:32.20	331.19	17.38	-53.1	-54.3	15.2	0.00e+00	0	30	0	1221591040	72	4129
2026-01-03 10:25:33.20	331.24	17.26	-53.2	-54.3	15.2	0.00e+00	0	31	0	1223688192	72	4140
2026-01-03 10:25:34.19	331.30	17.15	-53.1	-54.3	15.2	0.00e+00	0	30	0	1225785344	72	4128
2026-01-03 10:25:35.19	331.36	17.04	-53.2	-54.3	15.2	0.00e+00	0	30	0	1226833920	72	4140
2026-01-03 10:25:36.17	331.41	16.93	-53.2	-54.4	15.2	0.00e+00	0	31	0	1228931072	72	4173
2026-01-03 10:25:37.17	331.47	16.82	-53.4	-54.6	15.1	0.00e+00	0	31	0	1231028224	72	4258
2026-01-03 10:25:38.16	331.52	16.71	-53.3	-54.5	15.2	0.00e+00	0	31	0	1233125376	72	4205
2026-01-03 10:25:39.15	331.58	16.60	-53.3	-54.6	15.1	0.00e+00	0	31	0	1235222528	72	4258
2026-01-03 10:25:40.15	331.63	16.49	-53.3	-54.5	15.1	0.00e+00	0	31	0	1236271104	72	4236
2026-01-03 10:25:41.13	331.69	16.39	-53.4	-54.6	15.1	0.00e+00	0	31	0	1238368256	72	4285
2026-01-03 10:25:42.12	331.74	16.28	-53.4	-54.7	15.1	0.00e+00	0	31	0	1240465408	72	4309
2026-01-03 10:25:43.10	331.79	16.17	-53.5	-54.8	15.0	0.00e+00	0	30	0	1242562560	72	4345
2026-01-03 10:25:44.09	331.85	16.06	-53.6	-54.9	15.0	0.00e+00	0	30	0	1243611136	72	4394
