passes_logs/2026/01/03/R3.2S_Murmansk/R3.2S_Murmansk__20260103_212653_NOAA_21_JPSS-2_rec.log

#Pass ID: 20260103_212653_NOAA 21 (JPSS-2)
#Satellite: NOAA 21 (JPSS-2)
#Configuration: NOAA-21
#almurnet v.1.7.20251203
#Start time: 2026-01-03 21:26:54

#Version: 2.2.20231116
#Station: R3.2S_Murmansk
#Location: 33.079688 lon 68.888172 lat
#TLE: 1 54234U 22150A   26003.45311712  .00000198  00000+0  11468-3 0  9993
#TLE: 2 54234  98.7487 304.4932 0001159 347.5017  12.6130 14.19531745163172

#Time	Az	El	Level	Level2	SNR	BER	BlckErr	Temp	State	Recorded	gain1	gain2
2026-01-03 21:26:54.55	18.37	2.04	-58.8	-72.5	3.8	1.49e+00	0	27	0	0	84	16873
2026-01-03 21:26:55.56	18.47	2.09	-58.6	-72.4	3.8	1.49e+00	0	27	104	0	82	18603
2026-01-03 21:26:56.56	18.56	2.13	-58.6	-72.4	3.8	1.49e+00	0	27	104	0	82	18608
2026-01-03 21:26:57.56	18.66	2.18	-58.6	-72.4	3.8	1.49e+00	0	27	104	0	82	18560
2026-01-03 21:26:58.57	18.75	2.23	-58.6	-72.4	3.8	1.49e+00	0	27	104	0	82	18592
2026-01-03 21:26:59.57	18.85	2.27	-58.6	-72.4	3.8	1.49e+00	0	27	104	0	82	18585
2026-01-03 21:27:00.57	18.94	2.32	-58.6	-72.4	3.8	1.49e+00	0	27	104	0	82	18531
2026-01-03 21:27:01.57	19.04	2.37	-58.6	-72.3	3.8	1.49e+00	0	27	104	0	82	18459
2026-01-03 21:27:02.58	19.13	2.41	-58.6	-72.3	3.8	1.49e+00	0	28	104	0	82	18441
2026-01-03 21:27:03.57	19.23	2.46	-58.6	-72.3	3.8	1.49e+00	0	28	104	0	82	18467
2026-01-03 21:27:04.58	19.33	2.51	-58.6	-72.3	3.8	1.49e+00	0	28	104	0	82	18446
2026-01-03 21:27:05.58	19.42	2.55	-58.6	-72.3	3.8	1.49e+00	0	28	104	0	82	18490
2026-01-03 21:27:06.58	19.52	2.60	-58.6	-72.3	3.9	1.49e+00	0	27	104	0	82	18496
2026-01-03 21:27:07.58	19.62	2.65	-58.6	-72.4	3.8	1.49e+00	0	28	104	0	82	18533
2026-01-03 21:27:08.59	19.72	2.69	-58.6	-72.4	3.8	1.49e+00	0	28	104	0	82	18632
2026-01-03 21:27:09.59	19.81	2.74	-58.6	-72.4	3.8	1.49e+00	0	28	104	0	82	18653
2026-01-03 21:27:10.59	19.91	2.79	-58.6	-72.4	3.8	1.49e+00	0	28	104	0	82	18700
2026-01-03 21:27:11.59	20.01	2.83	-58.6	-72.4	3.8	1.49e+00	0	28	104	0	82	18662
2026-01-03 21:27:12.58	20.11	2.88	-58.6	-72.4	3.8	1.49e+00	0	28	104	0	82	18679
2026-01-03 21:27:13.57	20.21	2.93	-58.6	-72.4	3.8	1.49e+00	0	28	104	0	82	18623
2026-01-03 21:27:14.57	20.31	2.97	-58.6	-72.4	3.8	1.49e+00	0	28	104	0	82	18618
2026-01-03 21:27:15.57	20.40	3.02	-58.6	-72.3	3.8	1.49e+00	0	28	104	0	82	18438
2026-01-03 21:27:16.57	20.50	3.07	-58.6	-72.3	3.8	1.49e+00	0	28	104	0	82	18424
2026-01-03 21:27:17.58	20.61	3.11	-58.6	-72.3	3.8	1.49e+00	0	28	104	0	82	18428
2026-01-03 21:27:18.58	20.71	3.16	-58.6	-72.3	3.8	1.49e+00	0	28	104	0	82	18392
2026-01-03 21:27:19.58	20.81	3.21	-58.6	-72.4	3.8	1.49e+00	0	28	104	0	82	18518
2026-01-03 21:27:20.59	20.91	3.25	-58.6	-72.4	3.8	1.49e+00	0	28	104	0	82	18674
2026-01-03 21:27:21.59	21.01	3.30	-58.6	-72.4	3.8	1.49e+00	0	28	104	0	82	18626
2026-01-03 21:27:22.58	21.11	3.35	-58.6	-72.4	3.8	1.49e+00	0	28	104	0	82	18551
2026-01-03 21:27:23.58	21.21	3.39	-58.6	-72.3	3.8	1.49e+00	0	28	104	0	82	18429
2026-01-03 21:27:24.58	21.32	3.44	-58.6	-72.2	3.8	1.49e+00	0	28	104	0	82	18303
2026-01-03 21:27:25.58	21.42	3.49	-58.6	-72.2	3.8	1.49e+00	0	28	104	0	82	18264
2026-01-03 21:27:26.58	21.52	3.53	-58.6	-72.3	3.8	1.49e+00	0	28	104	0	82	18504
2026-01-03 21:27:27.57	21.62	3.58	-58.6	-72.4	3.8	1.49e+00	0	28	104	0	82	18675
2026-01-03 21:27:28.58	21.73	3.63	-58.6	-72.4	3.8	1.49e+00	0	28	104	0	82	18659
2026-01-03 21:27:29.58	21.83	3.67	-58.6	-72.3	3.8	1.49e+00	0	28	104	0	82	18473
2026-01-03 21:27:30.58	21.94	3.72	-58.6	-72.1	3.8	1.49e+00	0	28	104	0	82	17998
2026-01-03 21:27:31.57	22.04	3.77	-58.6	-71.8	3.8	1.49e+00	0	28	104	0	82	17429
2026-01-03 21:27:32.57	22.14	3.81	-58.6	-71.7	3.8	1.49e+00	0	28	104	0	82	17188
2026-01-03 21:27:33.58	22.25	3.86	-58.6	-71.7	3.8	1.49e+00	0	28	104	0	82	17134
2026-01-03 21:27:34.58	22.36	3.91	-58.6	-71.7	3.8	1.49e+00	0	28	104	0	82	17131
2026-01-03 21:27:35.58	22.46	3.95	-58.6	-71.7	3.8	1.49e+00	0	28	104	0	82	17129
2026-01-03 21:27:36.59	22.57	4.00	-58.5	-71.5	3.8	1.49e+00	0	28	104	0	82	16796
2026-01-03 21:27:37.59	22.67	4.05	-58.5	-71.1	3.8	1.49e+00	0	28	104	0	82	16044
2026-01-03 21:27:38.59	22.78	4.09	-58.5	-70.2	3.9	1.49e+00	0	28	104	0	82	14430
2026-01-03 21:27:39.59	22.89	4.14	-58.4	-69.3	4.1	1.48e+00	0	28	104	0	82	12961
2026-01-03 21:27:40.59	23.00	4.19	-58.3	-68.1	4.0	1.45e+00	0	28	104	0	82	11327
2026-01-03 21:27:41.58	23.10	4.23	-58.2	-67.4	4.7	1.04e+00	0	28	104	0	82	10476
2026-01-03 21:27:42.59	23.21	4.28	-58.2	-67.2	4.8	1.45e+00	0	28	104	0	82	10221
2026-01-03 21:27:43.58	23.32	4.33	-58.1	-66.5	5.1	6.44e-01	0	28	0	0	82	9408
2026-01-03 21:27:44.59	23.43	4.37	-57.7	-64.8	6.2	3.35e-01	0	28	0	3145728	82	7739
2026-01-03 21:27:45.60	23.54	4.42	-56.9	-62.0	8.4	4.55e-02	0	28	0	6291456	80	6327
2026-01-03 21:27:46.60	23.65	4.47	-56.2	-60.2	9.9	3.30e-03	0	28	0	9437184	79	5422
2026-01-03 21:27:47.59	23.76	4.52	-55.0	-58.0	11.6	9.38e-05	0	28	0	12582912	76	5000
2026-01-03 21:27:48.58	23.87	4.56	-53.9	-56.4	12.6	7.00e-07	0	28	0	15728640	74	4656
2026-01-03 21:27:49.59	23.98	4.61	-53.3	-55.5	13.0	0.00e+00	0	28	0	18874368	73	4462
2026-01-03 21:27:50.59	24.09	4.66	-52.6	-54.5	13.5	0.00e+00	0	28	0	22020096	71	4462
2026-01-03 21:27:51.59	24.20	4.70	-52.5	-54.4	13.5	0.00e+00	0	28	0	25165824	71	4441
2026-01-03 21:27:52.58	24.31	4.75	-52.6	-54.5	13.5	0.00e+00	0	29	0	28311552	71	4469
2026-01-03 21:27:53.58	24.42	4.80	-53.1	-55.2	13.1	0.00e+00	0	28	0	31457280	71	4819
2026-01-03 21:27:54.58	24.53	4.84	-53.7	-56.0	12.6	0.00e+00	0	28	0	34603008	72	5034
2026-01-03 21:27:55.59	24.65	4.89	-54.6	-57.5	11.8	1.50e-06	0	28	0	37748736	74	5283
2026-01-03 21:27:56.59	24.76	4.94	-55.7	-59.3	10.6	2.23e-04	0	28	0	40894464	76	5820
2026-01-03 21:27:57.59	24.87	4.98	-56.5	-60.9	9.3	3.99e-03	0	28	0	44040192	78	6253
2026-01-03 21:27:58.59	24.99	5.03	-56.8	-61.3	9.2	1.46e-02	0	28	0	47185920	78	6535
2026-01-03 21:27:59.59	25.10	5.08	-56.2	-60.2	10.1	2.64e-02	0	29	0	50331648	78	5757
2026-01-03 21:28:00.58	25.21	5.12	-56.7	-61.4	9.0	7.23e-02	0	28	0	53477376	80	5891
2026-01-03 21:28:01.59	25.33	5.17	-55.2	-58.2	11.4	7.13e-02	0	29	0	56623104	77	4853
2026-01-03 21:28:02.58	25.44	5.22	-57.3	-63.1	7.7	3.99e-03	0	29	0	59768832	79	7596
2026-01-03 21:28:03.57	25.56	5.26	-56.3	-60.4	9.7	4.68e-01	0	29	0	62914560	79	5567
2026-01-03 21:28:04.57	25.67	5.31	-53.1	-55.1	13.2	0.00e+00	0	29	0	66060288	72	4543
2026-01-03 21:28:05.57	25.79	5.36	-52.8	-54.8	13.5	0.00e+00	0	29	0	69206016	72	4361
2026-01-03 21:28:06.57	25.90	5.40	-52.6	-54.5	13.6	0.00e+00	0	29	0	72351744	71	4479
2026-01-03 21:28:07.58	26.02	5.45	-52.3	-54.1	13.8	0.00e+00	0	29	0	75497472	71	4257
2026-01-03 21:28:08.58	26.14	5.50	-52.4	-54.3	13.7	0.00e+00	0	28	0	78643200	71	4341
2026-01-03 21:28:09.57	26.25	5.54	-52.4	-54.3	13.7	0.00e+00	0	29	0	81788928	71	4355
2026-01-03 21:28:10.56	26.37	5.59	-52.5	-54.3	13.6	0.00e+00	0	29	0	84934656	71	4391
2026-01-03 21:28:11.56	26.49	5.63	-52.4	-54.2	13.7	0.00e+00	0	29	0	88080384	71	4339
2026-01-03 21:28:12.56	26.61	5.68	-52.2	-54.0	13.9	0.00e+00	0	29	0	91226112	71	4211
2026-01-03 21:28:13.56	26.73	5.73	-52.1	-53.9	13.8	0.00e+00	0	29	0	94371840	70	4406
2026-01-03 21:28:14.55	26.84	5.77	-52.1	-53.8	13.9	0.00e+00	0	29	0	96468992	70	4390
2026-01-03 21:28:15.54	26.96	5.82	-52.2	-53.9	13.8	0.00e+00	0	29	0	99614720	70	4438
2026-01-03 21:28:16.54	27.08	5.87	-52.2	-53.9	13.8	0.00e+00	0	29	0	102760448	70	4432
2026-01-03 21:28:17.55	27.20	5.91	-52.0	-53.7	13.9	0.00e+00	0	29	0	105906176	70	4340
2026-01-03 21:28:18.54	27.32	5.96	-52.0	-53.7	14.0	0.00e+00	0	29	0	109051904	70	4298
2026-01-03 21:28:19.54	27.44	6.01	-52.0	-53.8	13.9	0.00e+00	0	29	0	112197632	70	4366
2026-01-03 21:28:20.54	27.56	6.05	-51.9	-53.6	14.0	0.00e+00	0	28	0	115343360	70	4252
2026-01-03 21:28:21.53	27.69	6.10	-52.1	-53.8	13.9	0.00e+00	0	29	0	118489088	70	4358
2026-01-03 21:28:22.52	27.81	6.14	-52.2	-53.9	13.8	0.00e+00	0	29	0	121634816	70	4432
2026-01-03 21:28:23.52	27.93	6.19	-52.1	-53.8	13.9	0.00e+00	0	29	0	124780544	70	4379
2026-01-03 21:28:24.52	28.05	6.24	-52.2	-54.0	13.8	0.00e+00	0	29	0	127926272	70	4468
2026-01-03 21:28:25.52	28.17	6.28	-52.3	-54.0	13.8	0.00e+00	0	29	0	131072000	70	4493
2026-01-03 21:28:26.51	28.30	6.33	-52.1	-53.9	13.9	0.00e+00	0	29	0	134217728	70	4425
2026-01-03 21:28:27.51	28.42	6.37	-52.3	-54.1	13.8	0.00e+00	0	29	0	137363456	70	4503
2026-01-03 21:28:28.50	28.54	6.42	-52.2	-54.0	13.9	0.00e+00	0	29	0	140509184	70	4451
2026-01-03 21:28:29.50	28.67	6.47	-52.3	-54.1	13.8	0.00e+00	0	29	0	143654912	70	4500
2026-01-03 21:28:30.51	28.79	6.51	-52.0	-53.7	14.0	0.00e+00	0	29	0	146800640	70	4330
2026-01-03 21:28:31.52	28.92	6.56	-51.9	-53.5	14.1	0.00e+00	0	29	0	149946368	70	4239
2026-01-03 21:28:32.53	29.05	6.61	-51.9	-53.5	14.1	0.00e+00	0	29	0	153092096	70	4239
2026-01-03 21:28:33.53	29.17	6.65	-51.8	-53.5	14.1	0.00e+00	0	29	0	156237824	70	4214
2026-01-03 21:28:34.53	29.30	6.70	-51.8	-53.4	14.2	0.00e+00	0	29	0	159383552	70	4171
2026-01-03 21:28:35.53	29.43	6.74	-51.7	-53.3	14.1	0.00e+00	0	29	0	162529280	69	4366
2026-01-03 21:28:36.52	29.55	6.79	-51.5	-53.1	14.2	0.00e+00	0	29	0	165675008	69	4252
2026-01-03 21:28:37.52	29.68	6.84	-51.5	-53.0	14.2	0.00e+00	0	29	0	168820736	69	4241
2026-01-03 21:28:38.52	29.81	6.88	-51.5	-53.1	14.2	0.00e+00	0	29	0	171966464	69	4284
2026-01-03 21:28:39.52	29.94	6.93	-51.6	-53.2	14.2	0.00e+00	0	29	0	175112192	69	4323
2026-01-03 21:28:40.52	30.07	6.97	-51.6	-53.2	14.2	0.00e+00	0	29	0	178257920	69	4317
2026-01-03 21:28:41.52	30.20	7.02	-51.7	-53.3	14.2	0.00e+00	0	29	0	181403648	69	4355
2026-01-03 21:28:42.52	30.33	7.07	-51.6	-53.3	14.2	0.00e+00	0	29	0	184549376	69	4350
2026-01-03 21:28:43.51	30.45	7.11	-51.6	-53.3	14.2	0.00e+00	0	29	0	187695104	69	4342
2026-01-03 21:28:44.51	30.58	7.16	-51.8	-53.4	14.1	0.00e+00	0	29	0	190840832	69	4441
2026-01-03 21:28:45.51	30.72	7.20	-51.7	-53.4	14.1	0.00e+00	0	29	0	193986560	69	4407
2026-01-03 21:28:46.51	30.85	7.25	-51.7	-53.4	14.1	0.00e+00	0	29	0	197132288	69	4401
2026-01-03 21:28:47.51	30.98	7.29	-51.7	-53.4	14.1	0.00e+00	0	29	0	200278016	69	4410
2026-01-03 21:28:48.51	31.11	7.34	-51.7	-53.3	14.2	0.00e+00	0	29	0	203423744	69	4359
2026-01-03 21:28:49.51	31.24	7.38	-51.6	-53.2	14.2	0.00e+00	0	29	0	206569472	69	4311
2026-01-03 21:28:50.51	31.38	7.43	-51.5	-53.1	14.3	0.00e+00	0	29	0	209715200	69	4249
2026-01-03 21:28:51.50	31.51	7.47	-51.4	-53.0	14.3	0.00e+00	0	29	0	212860928	69	4206
2026-01-03 21:28:52.50	31.64	7.52	-51.5	-53.1	14.2	0.00e+00	0	29	0	216006656	69	4283
2026-01-03 21:28:53.50	31.77	7.56	-51.3	-52.8	14.4	0.00e+00	0	29	0	219152384	69	4144
2026-01-03 21:28:54.50	31.91	7.61	-51.4	-53.0	14.3	0.00e+00	0	29	0	222298112	69	4200
2026-01-03 21:28:55.50	32.04	7.65	-51.3	-52.8	14.4	0.00e+00	0	29	0	225443840	69	4127
2026-01-03 21:28:56.50	32.18	7.70	-51.4	-52.9	14.3	0.00e+00	0	29	0	227540992	69	4164
2026-01-03 21:28:57.50	32.31	7.74	-51.3	-52.8	14.4	0.00e+00	0	29	0	230686720	69	4134
2026-01-03 21:28:58.49	32.45	7.79	-51.3	-52.8	14.4	0.00e+00	0	29	0	233832448	69	4133
2026-01-03 21:28:59.49	32.59	7.83	-51.4	-52.9	14.3	0.00e+00	0	29	0	236978176	69	4169
2026-01-03 21:29:00.49	32.72	7.88	-51.5	-53.1	14.3	0.00e+00	0	29	0	240123904	69	4254
2026-01-03 21:29:01.50	32.86	7.92	-51.4	-52.9	14.4	0.00e+00	0	29	0	243269632	69	4184
2026-01-03 21:29:02.50	33.00	7.97	-51.4	-52.9	14.3	0.00e+00	0	29	0	246415360	69	4192
2026-01-03 21:29:03.49	33.14	8.01	-51.5	-53.0	14.3	0.00e+00	0	29	0	249561088	69	4242
2026-01-03 21:29:04.49	33.27	8.06	-51.5	-53.0	14.3	0.00e+00	0	29	0	252706816	69	4220
2026-01-03 21:29:05.48	33.41	8.10	-51.3	-52.9	14.4	0.00e+00	0	29	0	255852544	69	4149
2026-01-03 21:29:06.48	33.55	8.15	-51.3	-52.8	14.4	0.00e+00	0	29	0	258998272	69	4125
2026-01-03 21:29:07.48	33.69	8.19	-51.4	-52.9	14.4	0.00e+00	0	29	0	262144000	69	4163
2026-01-03 21:29:08.48	33.83	8.24	-51.3	-52.8	14.4	0.00e+00	0	29	0	265289728	69	4102
2026-01-03 21:29:09.47	33.97	8.28	-51.2	-52.7	14.3	0.00e+00	0	29	0	268435456	68	4332
2026-01-03 21:29:10.47	34.11	8.32	-51.1	-52.6	14.4	0.00e+00	0	29	0	271581184	68	4263
2026-01-03 21:29:11.47	34.25	8.37	-51.1	-52.6	14.4	0.00e+00	0	29	0	274726912	68	4270
2026-01-03 21:29:12.47	34.39	8.41	-51.1	-52.6	14.4	0.00e+00	0	29	0	277872640	68	4244
2026-01-03 21:29:13.47	34.53	8.46	-51.1	-52.5	14.5	0.00e+00	0	29	0	281018368	68	4241
2026-01-03 21:29:14.47	34.68	8.50	-51.2	-52.6	14.4	0.00e+00	0	29	0	284164096	68	4288
2026-01-03 21:29:15.46	34.82	8.54	-51.2	-52.6	14.4	0.00e+00	0	29	0	287309824	68	4285
2026-01-03 21:29:16.46	34.96	8.59	-51.1	-52.6	14.4	0.00e+00	0	29	0	290455552	68	4265
2026-01-03 21:29:17.45	35.10	8.63	-51.1	-52.6	14.5	0.00e+00	0	29	0	293601280	68	4254
2026-01-03 21:29:18.44	35.25	8.67	-51.2	-52.7	14.4	0.00e+00	0	29	0	296747008	68	4321
2026-01-03 21:29:19.44	35.39	8.72	-51.1	-52.6	14.4	0.00e+00	0	29	0	299892736	68	4270
2026-01-03 21:29:20.44	35.54	8.76	-51.1	-52.6	14.4	0.00e+00	0	29	0	303038464	68	4280
2026-01-03 21:29:21.44	35.68	8.80	-51.2	-52.7	14.4	0.00e+00	0	29	0	306184192	68	4302
2026-01-03 21:29:22.44	35.83	8.85	-51.1	-52.6	14.4	0.00e+00	0	29	0	309329920	68	4262
2026-01-03 21:29:23.44	35.97	8.89	-51.1	-52.6	14.4	0.00e+00	0	29	0	312475648	68	4286
2026-01-03 21:29:24.44	36.12	8.93	-51.1	-52.6	14.4	0.00e+00	0	29	0	315621376	68	4281
2026-01-03 21:29:25.43	36.27	8.98	-51.1	-52.6	14.4	0.00e+00	0	29	0	318767104	68	4266
2026-01-03 21:29:26.43	36.41	9.02	-51.1	-52.6	14.4	0.00e+00	0	29	0	321912832	68	4255
2026-01-03 21:29:27.43	36.56	9.06	-51.0	-52.5	14.5	0.00e+00	0	29	0	325058560	68	4211
2026-01-03 21:29:28.43	36.71	9.11	-51.0	-52.4	14.5	0.00e+00	0	29	0	328204288	68	4189
2026-01-03 21:29:29.42	36.86	9.15	-51.1	-52.5	14.5	0.00e+00	0	29	0	331350016	68	4233
2026-01-03 21:29:30.42	37.01	9.19	-51.0	-52.5	14.5	0.00e+00	0	29	0	334495744	68	4200
2026-01-03 21:29:31.42	37.16	9.23	-51.1	-52.5	14.5	0.00e+00	0	29	0	337641472	68	4220
2026-01-03 21:29:32.42	37.31	9.28	-51.1	-52.5	14.5	0.00e+00	0	29	0	340787200	68	4235
2026-01-03 21:29:33.42	37.46	9.32	-51.2	-52.6	14.4	0.00e+00	0	29	0	343932928	68	4284
2026-01-03 21:29:34.42	37.61	9.36	-51.0	-52.5	14.5	0.00e+00	0	29	0	347078656	68	4203
2026-01-03 21:29:35.42	37.76	9.40	-51.0	-52.5	14.5	0.00e+00	0	29	0	350224384	68	4217
2026-01-03 21:29:36.42	37.91	9.44	-51.2	-52.6	14.4	0.00e+00	0	29	0	353370112	68	4287
2026-01-03 21:29:37.43	38.06	9.49	-51.1	-52.5	14.5	0.00e+00	0	29	0	356515840	68	4238
2026-01-03 21:29:38.42	38.22	9.53	-51.0	-52.5	14.5	0.00e+00	0	29	0	359661568	68	4206
2026-01-03 21:29:39.43	38.37	9.57	-50.9	-52.4	14.5	0.00e+00	0	29	0	361758720	68	4159
2026-01-03 21:29:40.44	38.52	9.61	-51.1	-52.5	14.5	0.00e+00	0	29	0	364904448	68	4225
2026-01-03 21:29:41.44	38.68	9.65	-51.1	-52.5	14.5	0.00e+00	0	29	0	368050176	68	4240
2026-01-03 21:29:42.43	38.83	9.69	-50.9	-52.3	14.6	0.00e+00	0	29	0	371195904	68	4130
2026-01-03 21:29:43.44	38.99	9.74	-51.0	-52.4	14.5	0.00e+00	0	29	0	374341632	68	4182
2026-01-03 21:29:44.43	39.14	9.78	-50.9	-52.4	14.6	0.00e+00	0	29	0	377487360	68	4158
2026-01-03 21:29:45.43	39.30	9.82	-50.9	-52.3	14.6	0.00e+00	0	29	0	380633088	68	4145
2026-01-03 21:29:46.43	39.45	9.86	-51.0	-52.5	14.5	0.00e+00	0	29	0	383778816	68	4212
2026-01-03 21:29:47.43	39.61	9.90	-51.0	-52.4	14.6	0.00e+00	0	29	0	386924544	68	4173
2026-01-03 21:29:48.44	39.77	9.94	-51.0	-52.5	14.5	0.00e+00	0	29	0	390070272	68	4200
2026-01-03 21:29:49.31	39.90	9.98	-51.0	-52.5	14.5	0.00e+00	0	29	0	393216000	68	4196
2026-01-03 21:29:50.45	40.08	10.02	-50.9	-52.3	14.6	0.00e+00	0	29	0	397410304	68	4142
2026-01-03 21:29:51.30	40.22	10.06	-50.8	-52.2	14.6	0.00e+00	0	29	0	399507456	68	4094
2026-01-03 21:29:52.44	40.40	10.10	-50.8	-52.2	14.6	0.00e+00	0	29	0	403701760	68	4087
2026-01-03 21:29:53.30	40.54	10.14	-50.5	-51.9	14.6	0.00e+00	0	29	0	405798912	67	4183
2026-01-03 21:29:54.44	40.72	10.18	-50.5	-51.9	14.7	0.00e+00	0	29	0	409993216	67	4165
2026-01-03 21:29:55.30	40.85	10.22	-50.5	-51.9	14.7	0.00e+00	0	29	0	412090368	67	4162
2026-01-03 21:29:56.45	41.04	10.26	-50.5	-51.9	14.6	0.00e+00	0	29	0	416284672	67	4168
2026-01-03 21:29:57.31	41.18	10.30	-50.6	-51.9	14.6	0.00e+00	0	29	0	418381824	67	4191
2026-01-03 21:29:58.46	41.36	10.34	-50.5	-51.9	14.6	0.00e+00	0	29	0	422576128	67	4186
2026-01-03 21:29:59.31	41.50	10.38	-50.6	-52.0	14.6	0.00e+00	0	29	0	424673280	67	4230
2026-01-03 21:30:00.45	41.68	10.42	-50.7	-52.1	14.5	0.00e+00	0	29	0	428867584	67	4286
2026-01-03 21:30:01.31	41.82	10.45	-50.7	-52.2	14.5	0.00e+00	0	29	0	430964736	67	4300
2026-01-03 21:30:02.46	42.01	10.50	-50.8	-52.2	14.5	0.00e+00	0	29	0	434110464	67	4323
2026-01-03 21:30:03.32	42.15	10.53	-50.7	-52.2	14.5	0.00e+00	0	29	0	437256192	67	4305
2026-01-03 21:30:04.47	42.34	10.58	-50.8	-52.2	14.5	0.00e+00	0	29	0	440401920	67	4324
2026-01-03 21:30:05.32	42.48	10.61	-50.8	-52.3	14.5	0.00e+00	0	29	0	443547648	67	4349
2026-01-03 21:30:06.47	42.67	10.65	-50.8	-52.2	14.5	0.00e+00	0	29	0	446693376	67	4334
2026-01-03 21:30:07.33	42.81	10.69	-50.8	-52.3	14.5	0.00e+00	0	29	0	449839104	67	4362
2026-01-03 21:30:08.47	43.00	10.73	-50.9	-52.3	14.5	0.00e+00	0	29	0	452984832	67	4374
2026-01-03 21:30:09.32	43.14	10.76	-50.8	-52.3	14.5	0.00e+00	0	29	0	456130560	67	4348
2026-01-03 21:30:10.46	43.33	10.81	-50.7	-52.1	14.6	0.00e+00	0	29	0	459276288	67	4258
2026-01-03 21:30:11.32	43.47	10.84	-50.7	-52.1	14.6	0.00e+00	0	29	0	462422016	67	4272
2026-01-03 21:30:12.46	43.66	10.88	-50.7	-52.1	14.6	0.00e+00	0	29	0	465567744	67	4265
2026-01-03 21:30:13.33	43.81	10.91	-50.6	-52.0	14.6	0.00e+00	0	29	0	468713472	67	4234
2026-01-03 21:30:14.46	43.99	10.95	-50.7	-52.1	14.6	0.00e+00	0	29	0	471859200	67	4282
2026-01-03 21:30:15.32	44.14	10.99	-50.8	-52.2	14.5	0.00e+00	0	29	0	475004928	67	4336
2026-01-03 21:30:16.45	44.33	11.03	-50.8	-52.2	14.5	0.00e+00	0	29	0	478150656	67	4314
2026-01-03 21:30:17.31	44.47	11.06	-50.7	-52.2	14.5	0.00e+00	0	29	0	481296384	67	4292
2026-01-03 21:30:18.45	44.67	11.10	-50.8	-52.3	14.5	0.00e+00	0	29	0	484442112	67	4343
2026-01-03 21:30:19.30	44.81	11.13	-50.8	-52.2	14.5	0.00e+00	0	29	0	487587840	67	4334
2026-01-03 21:30:20.44	45.01	11.17	-50.8	-52.2	14.5	0.00e+00	0	29	0	490733568	67	4323
2026-01-03 21:30:21.29	45.15	11.20	-50.7	-52.2	14.5	0.00e+00	0	29	0	493879296	67	4304
2026-01-03 21:30:22.43	45.35	11.24	-50.7	-52.1	14.6	0.00e+00	0	29	0	497025024	67	4275
2026-01-03 21:30:23.29	45.49	11.28	-50.7	-52.2	14.6	0.00e+00	0	29	0	500170752	67	4293
2026-01-03 21:30:24.43	45.69	11.32	-50.6	-52.0	14.6	0.00e+00	0	29	0	503316480	67	4228
2026-01-03 21:30:25.29	45.84	11.35	-50.7	-52.1	14.6	0.00e+00	0	29	0	506462208	67	4261
2026-01-03 21:30:26.43	46.03	11.39	-50.5	-51.8	14.7	0.00e+00	0	29	0	509607936	67	4135
2026-01-03 21:30:27.28	46.18	11.42	-50.5	-51.8	14.7	0.00e+00	0	29	0	512753664	67	4145
2026-01-03 21:30:28.42	46.38	11.46	-50.5	-51.8	14.7	0.00e+00	0	29	0	515899392	67	4137
2026-01-03 21:30:29.27	46.53	11.49	-50.4	-51.8	14.7	0.00e+00	0	29	0	517996544	67	4122
2026-01-03 21:30:30.41	46.72	11.52	-50.6	-52.0	14.6	0.00e+00	0	29	0	522190848	67	4216
2026-01-03 21:30:31.27	46.87	11.55	-50.7	-52.1	14.6	0.00e+00	0	29	0	524288000	67	4250
2026-01-03 21:30:32.42	47.08	11.59	-50.7	-52.2	14.6	0.00e+00	0	29	0	528482304	67	4292
2026-01-03 21:30:33.28	47.23	11.62	-50.8	-52.2	14.5	0.00e+00	0	29	0	530579456	67	4340
2026-01-03 21:30:34.41	47.42	11.66	-50.8	-52.3	14.5	0.00e+00	0	29	0	534773760	67	4350
2026-01-03 21:30:35.27	47.58	11.69	-50.8	-52.3	14.5	0.00e+00	0	29	0	536870912	67	4347
2026-01-03 21:30:36.42	47.78	11.73	-50.8	-52.2	14.5	0.00e+00	0	29	0	541065216	67	4320
2026-01-03 21:30:37.28	47.93	11.76	-50.7	-52.1	14.6	0.00e+00	0	29	0	543162368	67	4261
2026-01-03 21:30:38.42	48.13	11.79	-50.7	-52.1	14.6	0.00e+00	0	29	0	547356672	67	4289
2026-01-03 21:30:39.28	48.29	11.82	-50.6	-52.0	14.6	0.00e+00	0	29	0	549453824	67	4220
2026-01-03 21:30:40.43	48.49	11.86	-50.6	-52.0	14.6	0.00e+00	0	29	0	553648128	67	4218
2026-01-03 21:30:41.28	48.64	11.89	-50.6	-52.0	14.6	0.00e+00	0	29	0	555745280	67	4223
2026-01-03 21:30:42.43	48.85	11.92	-50.5	-51.9	14.7	0.00e+00	0	29	0	559939584	67	4160
2026-01-03 21:30:43.29	49.00	11.95	-50.6	-51.9	14.7	0.00e+00	0	29	0	562036736	67	4186
2026-01-03 21:30:44.42	49.21	11.99	-50.7	-52.1	14.6	0.00e+00	0	29	0	565182464	67	4265
2026-01-03 21:30:45.28	49.36	12.01	-50.7	-52.1	14.6	0.00e+00	0	29	0	568328192	67	4258
2026-01-03 21:30:46.42	49.57	12.05	-50.7	-52.1	14.6	0.00e+00	0	29	0	571473920	67	4286
2026-01-03 21:30:47.28	49.72	12.07	-50.7	-52.1	14.6	0.00e+00	0	29	0	574619648	67	4286
2026-01-03 21:30:48.42	49.93	12.11	-50.7	-52.1	14.6	0.00e+00	0	29	0	577765376	67	4265
2026-01-03 21:30:49.28	50.08	12.14	-50.7	-52.1	14.6	0.00e+00	0	29	0	580911104	67	4257
2026-01-03 21:30:50.42	50.29	12.17	-50.6	-52.0	14.6	0.00e+00	0	29	0	584056832	67	4231
2026-01-03 21:30:51.28	50.45	12.20	-50.6	-52.0	14.6	0.00e+00	0	29	0	587202560	67	4233
2026-01-03 21:30:52.42	50.66	12.23	-50.6	-52.0	14.6	0.00e+00	0	29	0	590348288	67	4208
2026-01-03 21:30:53.27	50.81	12.26	-50.6	-52.0	14.7	0.00e+00	0	29	0	593494016	67	4204
2026-01-03 21:30:54.41	51.02	12.29	-50.6	-52.0	14.6	0.00e+00	0	29	0	596639744	67	4206
2026-01-03 21:30:55.26	51.18	12.31	-50.6	-52.0	14.6	0.00e+00	0	29	0	599785472	67	4207
2026-01-03 21:30:56.41	51.39	12.35	-50.5	-51.9	14.6	0.00e+00	0	29	0	602931200	67	4166
2026-01-03 21:30:57.26	51.54	12.37	-50.5	-51.9	14.7	0.00e+00	0	29	0	606076928	67	4169
2026-01-03 21:30:58.41	51.76	12.40	-50.5	-51.9	14.7	0.00e+00	0	29	0	609222656	67	4159
2026-01-03 21:30:59.27	51.91	12.43	-50.4	-51.8	14.7	0.00e+00	0	29	0	612368384	67	4100
2026-01-03 21:31:00.41	52.13	12.46	-50.4	-51.7	14.8	0.00e+00	0	29	0	615514112	67	4085
2026-01-03 21:31:01.26	52.28	12.48	-50.4	-51.8	14.7	0.00e+00	0	29	0	618659840	67	4103
2026-01-03 21:31:02.40	52.50	12.52	-50.4	-51.7	14.8	0.00e+00	0	29	0	621805568	67	4081
2026-01-03 21:31:03.26	52.66	12.54	-50.4	-51.7	14.7	0.00e+00	0	29	0	624951296	67	4095
2026-01-03 21:31:04.40	52.87	12.57	-50.4	-51.7	14.7	0.00e+00	0	29	0	628097024	67	4095
2026-01-03 21:31:05.25	53.03	12.59	-50.4	-51.7	14.7	0.00e+00	0	29	0	631242752	67	4096
2026-01-03 21:31:06.39	53.24	12.62	-50.5	-51.8	14.7	0.00e+00	0	29	0	634388480	67	4144
2026-01-03 21:31:07.25	53.40	12.65	-50.6	-52.0	14.6	0.00e+00	0	29	0	637534208	67	4197
2026-01-03 21:31:08.38	53.62	12.68	-50.7	-52.1	14.6	0.00e+00	0	29	0	640679936	67	4250
2026-01-03 21:31:09.24	53.78	12.70	-50.7	-52.1	14.6	0.00e+00	0	29	0	643825664	67	4278
2026-01-03 21:31:10.39	53.99	12.73	-50.7	-52.2	14.6	0.00e+00	0	29	0	646971392	67	4297
2026-01-03 21:31:11.25	54.16	12.75	-50.7	-52.2	14.5	0.00e+00	0	29	0	650117120	67	4305
2026-01-03 21:31:12.39	54.37	12.78	-50.7	-52.1	14.6	0.00e+00	0	29	0	653262848	67	4252
2026-01-03 21:31:13.25	54.54	12.80	-50.4	-51.8	14.7	0.00e+00	0	29	0	655360000	67	4101
2026-01-03 21:31:14.39	54.75	12.83	-50.4	-51.8	14.7	0.00e+00	0	29	0	659554304	67	4113
2026-01-03 21:31:15.25	54.92	12.85	-50.3	-51.7	14.8	0.00e+00	0	29	0	661651456	67	4058
2026-01-03 21:31:16.39	55.13	12.88	-50.3	-51.7	14.8	0.00e+00	0	29	0	665845760	67	4059
2026-01-03 21:31:17.25	55.30	12.90	-50.2	-51.5	14.7	0.00e+00	0	29	0	667942912	66	4209
2026-01-03 21:31:18.40	55.52	12.92	-50.2	-51.6	14.7	0.00e+00	0	29	0	672137216	66	4257
2026-01-03 21:31:19.25	55.68	12.94	-50.3	-51.7	14.7	0.00e+00	0	29	0	674234368	66	4299
2026-01-03 21:31:20.38	55.90	12.97	-50.4	-51.7	14.7	0.00e+00	0	29	0	678428672	66	4332
2026-01-03 21:31:21.24	56.06	12.99	-50.3	-51.6	14.7	0.00e+00	0	29	0	680525824	66	4291
2026-01-03 21:31:22.38	56.28	13.01	-50.4	-51.8	14.7	0.00e+00	0	29	0	684720128	66	4343
2026-01-03 21:31:23.23	56.44	13.03	-50.4	-51.8	14.6	0.00e+00	0	29	0	686817280	66	4349
2026-01-03 21:31:24.37	56.66	13.06	-50.4	-51.8	14.6	0.00e+00	0	29	0	691011584	66	4369
2026-01-03 21:31:25.23	56.83	13.08	-50.4	-51.7	14.7	0.00e+00	0	29	0	693108736	66	4326
2026-01-03 21:31:26.37	57.05	13.10	-50.4	-51.7	14.7	0.00e+00	0	29	0	697303040	66	4318
2026-01-03 21:31:27.23	57.22	13.12	-50.3	-51.6	14.7	0.00e+00	0	29	0	699400192	66	4279
2026-01-03 21:31:28.38	57.44	13.14	-50.3	-51.6	14.7	0.00e+00	0	29	0	703594496	66	4274
2026-01-03 21:31:29.23	57.61	13.16	-50.4	-51.7	14.6	0.00e+00	0	29	0	705691648	66	4339
2026-01-03 21:31:30.37	57.83	13.18	-50.4	-51.7	14.7	0.00e+00	0	29	0	708837376	66	4333
2026-01-03 21:31:31.23	57.99	13.20	-50.5	-51.9	14.6	0.00e+00	0	29	0	711983104	66	4399
2026-01-03 21:31:32.37	58.22	13.22	-50.5	-51.9	14.6	0.00e+00	0	29	0	715128832	66	4411
2026-01-03 21:31:33.22	58.38	13.24	-50.5	-51.9	14.6	0.00e+00	0	29	0	718274560	66	4417
2026-01-03 21:31:34.37	58.61	13.26	-50.4	-51.8	14.6	0.00e+00	0	29	0	721420288	66	4367
2026-01-03 21:31:35.23	58.78	13.28	-50.5	-51.8	14.6	0.00e+00	0	29	0	724566016	66	4385
2026-01-03 21:31:36.37	59.00	13.30	-50.3	-51.7	14.7	0.00e+00	0	29	0	727711744	66	4295
2026-01-03 21:31:37.23	59.17	13.31	-50.1	-51.5	14.8	0.00e+00	0	29	0	730857472	66	4196
2026-01-03 21:31:38.38	59.39	13.34	-50.0	-51.3	14.8	0.00e+00	0	29	0	734003200	66	4131
2026-01-03 21:31:39.24	59.56	13.35	-50.0	-51.3	14.8	0.00e+00	0	29	0	737148928	66	4116
2026-01-03 21:31:40.39	59.79	13.37	-50.1	-51.4	14.8	0.00e+00	0	29	0	740294656	66	4149
2026-01-03 21:31:41.24	59.96	13.39	-50.0	-51.3	14.8	0.00e+00	0	29	0	743440384	66	4143
2026-01-03 21:31:42.38	60.18	13.40	-50.2	-51.5	14.8	0.00e+00	0	29	0	746586112	66	4218
2026-01-03 21:31:43.24	60.35	13.42	-50.1	-51.5	14.8	0.00e+00	0	29	0	749731840	66	4195
2026-01-03 21:31:44.38	60.58	13.44	-50.1	-51.5	14.8	0.00e+00	0	29	0	752877568	66	4194
2026-01-03 21:31:45.23	60.75	13.45	-50.2	-51.5	14.8	0.00e+00	0	29	0	756023296	66	4218
2026-01-03 21:31:46.37	60.97	13.47	-50.1	-51.4	14.8	0.00e+00	0	29	0	759169024	66	4191
2026-01-03 21:31:47.23	61.14	13.48	-50.1	-51.5	14.8	0.00e+00	0	29	0	762314752	66	4198
2026-01-03 21:31:48.38	61.37	13.50	-50.2	-51.6	14.7	0.00e+00	0	29	0	765460480	66	4250
2026-01-03 21:31:49.24	61.54	13.51	-50.2	-51.5	14.7	0.00e+00	0	29	0	768606208	66	4241
2026-01-03 21:31:50.38	61.77	13.53	-50.2	-51.5	14.8	0.00e+00	0	29	0	771751936	66	4235
2026-01-03 21:31:51.24	61.94	13.54	-50.3	-51.6	14.7	0.00e+00	0	29	0	774897664	66	4277
2026-01-03 21:31:52.38	62.17	13.56	-50.4	-51.7	14.7	0.00e+00	0	29	0	778043392	66	4339
2026-01-03 21:31:53.24	62.34	13.57	-50.3	-51.7	14.7	0.00e+00	0	29	0	781189120	66	4319
2026-01-03 21:31:54.39	62.57	13.58	-50.4	-51.7	14.7	0.00e+00	0	29	0	784334848	66	4323
2026-01-03 21:31:55.24	62.74	13.59	-50.3	-51.7	14.7	0.00e+00	0	29	0	787480576	66	4312
2026-01-03 21:31:56.39	62.97	13.61	-50.3	-51.7	14.7	0.00e+00	0	29	0	790626304	66	4303
2026-01-03 21:31:57.24	63.14	13.62	-50.3	-51.7	14.7	0.00e+00	0	29	0	793772032	66	4302
2026-01-03 21:31:58.38	63.37	13.63	-50.4	-51.8	14.7	0.00e+00	0	29	0	796917760	66	4352
2026-01-03 21:31:59.24	63.54	13.64	-50.5	-51.8	14.6	0.00e+00	0	29	0	800063488	66	4386
2026-01-03 21:32:00.37	63.77	13.65	-50.5	-51.9	14.6	0.00e+00	0	29	0	803209216	66	4393
2026-01-03 21:32:01.23	63.94	13.66	-50.5	-51.9	14.6	0.00e+00	0	29	0	806354944	66	4396
2026-01-03 21:32:02.36	64.17	13.68	-50.4	-51.8	14.7	0.00e+00	0	29	0	809500672	66	4377
2026-01-03 21:32:03.22	64.34	13.68	-50.5	-51.8	14.6	0.00e+00	0	29	0	811597824	66	4387
2026-01-03 21:32:04.36	64.57	13.70	-50.4	-51.8	14.7	0.00e+00	0	29	0	815792128	66	4360
2026-01-03 21:32:05.23	64.74	13.70	-50.3	-51.6	14.7	0.00e+00	0	29	0	817889280	66	4279
2026-01-03 21:32:06.38	64.98	13.71	-50.4	-51.7	14.7	0.00e+00	0	29	0	822083584	66	4319
2026-01-03 21:32:07.24	65.15	13.72	-50.3	-51.6	14.7	0.00e+00	0	29	0	824180736	66	4286
2026-01-03 21:32:08.38	65.38	13.73	-50.3	-51.6	14.7	0.00e+00	0	29	0	828375040	66	4265
2026-01-03 21:32:09.24	65.55	13.74	-50.1	-51.5	14.8	0.00e+00	0	29	0	830472192	66	4207
2026-01-03 21:32:10.38	65.78	13.75	-50.1	-51.4	14.8	0.00e+00	0	29	0	834666496	66	4190
2026-01-03 21:32:11.24	65.96	13.76	-50.2	-51.5	14.7	0.00e+00	0	29	0	836763648	66	4227
2026-01-03 21:32:12.38	66.19	13.76	-50.3	-51.6	14.7	0.00e+00	0	29	0	840957952	66	4262
2026-01-03 21:32:13.24	66.36	13.77	-50.2	-51.5	14.7	0.00e+00	0	29	0	843055104	66	4236
2026-01-03 21:32:14.38	66.59	13.78	-50.3	-51.6	14.7	0.00e+00	0	29	0	847249408	66	4284
2026-01-03 21:32:15.24	66.77	13.78	-50.2	-51.5	14.7	0.00e+00	0	29	0	849346560	66	4240
2026-01-03 21:32:16.38	67.00	13.79	-50.3	-51.6	14.7	0.00e+00	0	29	0	853540864	66	4275
2026-01-03 21:32:17.23	67.17	13.79	-50.3	-51.6	14.7	0.00e+00	0	29	0	855638016	66	4274
2026-01-03 21:32:18.38	67.40	13.80	-50.3	-51.6	14.7	0.00e+00	0	29	0	859832320	66	4268
2026-01-03 21:32:19.23	67.58	13.81	-50.2	-51.6	14.7	0.00e+00	0	29	0	861929472	66	4247
2026-01-03 21:32:20.37	67.81	13.81	-50.2	-51.5	14.8	0.00e+00	0	29	0	865075200	66	4236
2026-01-03 21:32:21.23	67.98	13.81	-50.2	-51.5	14.8	0.00e+00	0	29	0	868220928	66	4230
2026-01-03 21:32:22.37	68.21	13.82	-50.2	-51.5	14.8	0.00e+00	0	29	0	871366656	66	4231
2026-01-03 21:32:23.22	68.39	13.82	-50.1	-51.5	14.8	0.00e+00	0	29	0	874512384	66	4200
2026-01-03 21:32:24.36	68.62	13.83	-50.3	-51.6	14.7	0.00e+00	0	29	0	877658112	66	4281
2026-01-03 21:32:25.21	68.79	13.83	-50.3	-51.6	14.7	0.00e+00	0	29	0	880803840	66	4270
2026-01-03 21:32:26.36	69.02	13.83	-50.2	-51.6	14.7	0.00e+00	0	29	0	883949568	66	4251
2026-01-03 21:32:27.22	69.20	13.83	-50.2	-51.6	14.7	0.00e+00	0	29	0	887095296	66	4262
2026-01-03 21:32:28.36	69.43	13.84	-50.2	-51.6	14.8	0.00e+00	0	29	0	890241024	66	4260
2026-01-03 21:32:29.21	69.60	13.84	-50.2	-51.5	14.8	0.00e+00	0	29	0	893386752	66	4227
2026-01-03 21:32:30.35	69.83	13.84	-50.2	-51.6	14.7	0.00e+00	0	29	0	896532480	66	4255
2026-01-03 21:32:31.21	70.01	13.84	-50.3	-51.7	14.7	0.00e+00	0	29	0	899678208	66	4296
2026-01-03 21:32:32.36	70.24	13.84	-50.3	-51.7	14.7	0.00e+00	0	29	0	902823936	66	4308
2026-01-03 21:32:33.23	70.42	13.84	-50.3	-51.7	14.7	0.00e+00	0	29	0	905969664	66	4294
2026-01-03 21:32:34.38	70.65	13.84	-50.3	-51.6	14.7	0.00e+00	0	29	0	909115392	66	4269
2026-01-03 21:32:35.24	70.83	13.84	-50.2	-51.6	14.7	0.00e+00	0	29	0	912261120	66	4244
2026-01-03 21:32:36.38	71.06	13.84	-50.1	-51.5	14.8	0.00e+00	0	29	0	915406848	66	4204
2026-01-03 21:32:37.24	71.24	13.84	-50.1	-51.4	14.8	0.00e+00	0	29	0	918552576	66	4183
2026-01-03 21:32:38.39	71.47	13.84	-50.0	-51.3	14.8	0.00e+00	0	29	0	921698304	66	4143
2026-01-03 21:32:39.25	71.64	13.84	-50.0	-51.3	14.9	0.00e+00	0	29	0	924844032	66	4106
2026-01-03 21:32:40.39	71.88	13.84	-50.0	-51.3	14.8	0.00e+00	0	29	0	927989760	66	4122
2026-01-03 21:32:41.25	72.05	13.83	-50.0	-51.3	14.8	0.00e+00	0	29	0	931135488	66	4133
2026-01-03 21:32:42.40	72.29	13.83	-50.1	-51.4	14.8	0.00e+00	0	29	0	934281216	66	4150
2026-01-03 21:32:43.25	72.46	13.83	-50.0	-51.4	14.8	0.00e+00	0	29	0	937426944	66	4147
2026-01-03 21:32:44.39	72.69	13.83	-50.1	-51.4	14.8	0.00e+00	0	29	0	940572672	66	4155
2026-01-03 21:32:45.25	72.86	13.82	-50.1	-51.4	14.8	0.00e+00	0	29	0	943718400	66	4188
2026-01-03 21:32:46.38	73.09	13.82	-50.2	-51.6	14.7	0.00e+00	0	29	0	946864128	66	4262
2026-01-03 21:32:47.25	73.27	13.82	-50.2	-51.5	14.8	0.00e+00	0	29	0	950009856	66	4223
2026-01-03 21:32:48.39	73.50	13.81	-50.2	-51.5	14.8	0.00e+00	0	29	0	953155584	66	4234
2026-01-03 21:32:49.25	73.68	13.81	-50.2	-51.5	14.8	0.00e+00	0	29	0	956301312	66	4229
2026-01-03 21:32:50.39	73.91	13.80	-50.3	-51.6	14.7	0.00e+00	0	29	0	959447040	66	4278
2026-01-03 21:32:51.24	74.08	13.80	-50.3	-51.6	14.7	0.00e+00	0	29	0	962592768	66	4289
2026-01-03 21:32:52.38	74.31	13.79	-50.4	-51.7	14.7	0.00e+00	0	29	0	965738496	66	4334
2026-01-03 21:32:53.24	74.49	13.78	-50.4	-51.8	14.7	0.00e+00	0	29	0	967835648	66	4341
2026-01-03 21:32:54.37	74.72	13.78	-50.5	-51.9	14.6	0.00e+00	0	29	0	972029952	66	4395
2026-01-03 21:32:55.23	74.89	13.77	-50.3	-51.7	14.7	0.00e+00	0	29	0	974127104	66	4299
2026-01-03 21:32:56.37	75.12	13.76	-50.2	-51.6	14.7	0.00e+00	0	29	0	978321408	66	4258
2026-01-03 21:32:57.22	75.29	13.76	-50.3	-51.6	14.7	0.00e+00	0	29	0	980418560	66	4275
2026-01-03 21:32:58.35	75.52	13.75	-50.3	-51.6	14.7	0.00e+00	0	29	0	984612864	66	4270
2026-01-03 21:32:59.21	75.69	13.74	-50.4	-51.7	14.6	0.00e+00	0	29	0	986710016	66	4335
2026-01-03 21:33:00.35	75.93	13.73	-50.3	-51.7	14.7	0.00e+00	0	29	0	990904320	66	4312
2026-01-03 21:33:01.20	76.10	13.72	-50.2	-51.6	14.7	0.00e+00	0	29	0	993001472	66	4250
2026-01-03 21:33:02.35	76.33	13.71	-50.3	-51.7	14.7	0.00e+00	0	29	0	997195776	66	4300
2026-01-03 21:33:03.20	76.50	13.71	-50.4	-51.8	14.6	0.00e+00	0	29	0	999292928	66	4368
2026-01-03 21:33:04.35	76.73	13.69	-50.2	-51.6	14.7	0.00e+00	0	29	0	1003487232	66	4249
2026-01-03 21:33:05.20	76.90	13.69	-50.2	-51.6	14.7	0.00e+00	0	29	0	1005584384	66	4266
2026-01-03 21:33:06.34	77.13	13.67	-50.4	-51.8	14.7	0.00e+00	0	29	0	1009778688	66	4357
2026-01-03 21:33:07.20	77.31	13.66	-50.4	-51.8	14.7	0.00e+00	0	29	0	1011875840	66	4344
2026-01-03 21:33:08.34	77.54	13.65	-50.3	-51.7	14.7	0.00e+00	0	29	0	1015021568	66	4299
2026-01-03 21:33:09.20	77.71	13.64	-50.1	-51.5	14.8	0.00e+00	0	29	0	1018167296	66	4201
2026-01-03 21:33:10.34	77.94	13.63	-50.1	-51.5	14.8	0.00e+00	0	29	0	1021313024	66	4201
2026-01-03 21:33:11.20	78.11	13.62	-50.1	-51.4	14.8	0.00e+00	0	29	0	1024458752	66	4183
2026-01-03 21:33:12.35	78.34	13.61	-50.2	-51.6	14.7	0.00e+00	0	29	0	1027604480	66	4255
2026-01-03 21:33:13.20	78.51	13.59	-50.2	-51.5	14.8	0.00e+00	0	29	0	1030750208	66	4219
2026-01-03 21:33:14.33	78.74	13.58	-50.2	-51.5	14.7	0.00e+00	0	29	0	1033895936	66	4235
2026-01-03 21:33:15.19	78.91	13.57	-50.2	-51.5	14.8	0.00e+00	0	29	0	1037041664	66	4222
2026-01-03 21:33:16.33	79.14	13.55	-50.3	-51.7	14.7	0.00e+00	0	29	0	1040187392	66	4293
2026-01-03 21:33:17.19	79.31	13.54	-50.3	-51.6	14.7	0.00e+00	0	29	0	1043333120	66	4281
2026-01-03 21:33:18.33	79.54	13.53	-50.1	-51.5	14.8	0.00e+00	0	29	0	1046478848	66	4204
2026-01-03 21:33:19.19	79.71	13.51	-50.1	-51.4	14.8	0.00e+00	0	29	0	1049624576	66	4175
2026-01-03 21:33:20.33	79.93	13.50	-50.3	-51.6	14.7	0.00e+00	0	29	0	1052770304	66	4284
2026-01-03 21:33:21.18	80.10	13.48	-50.3	-51.7	14.7	0.00e+00	0	29	0	1055916032	66	4292
2026-01-03 21:33:22.33	80.33	13.47	-50.3	-51.6	14.7	0.00e+00	0	29	0	1059061760	66	4278
2026-01-03 21:33:23.18	80.50	13.45	-50.3	-51.6	14.7	0.00e+00	0	29	0	1062207488	66	4281
2026-01-03 21:33:24.32	80.73	13.43	-50.2	-51.6	14.7	0.00e+00	0	29	0	1065353216	66	4269
2026-01-03 21:33:25.17	80.89	13.42	-50.3	-51.7	14.7	0.00e+00	0	29	0	1068498944	66	4323
2026-01-03 21:33:26.31	81.12	13.40	-50.3	-51.7	14.7	0.00e+00	0	29	0	1071644672	66	4305
2026-01-03 21:33:27.17	81.29	13.39	-50.2	-51.5	14.7	0.00e+00	0	29	0	1074790400	66	4241
2026-01-03 21:33:28.31	81.52	13.37	-50.2	-51.5	14.8	0.00e+00	0	29	0	1077936128	66	4225
2026-01-03 21:33:29.17	81.68	13.35	-50.0	-51.4	14.8	0.00e+00	0	29	0	1080033280	66	4147
2026-01-03 21:33:30.31	81.91	13.33	-50.2	-51.5	14.8	0.00e+00	0	29	0	1084227584	66	4217
2026-01-03 21:33:31.17	82.08	13.32	-50.1	-51.4	14.8	0.00e+00	0	29	0	1086324736	66	4190
2026-01-03 21:33:32.31	82.30	13.30	-50.2	-51.6	14.7	0.00e+00	0	29	0	1090519040	66	4255
2026-01-03 21:33:33.16	82.47	13.28	-50.2	-51.6	14.7	0.00e+00	0	29	0	1092616192	66	4266
2026-01-03 21:33:34.30	82.69	13.26	-50.1	-51.5	14.8	0.00e+00	0	29	0	1096810496	66	4210
2026-01-03 21:33:35.15	82.86	13.24	-50.2	-51.5	14.7	0.00e+00	0	29	0	1098907648	66	4228
2026-01-03 21:33:36.29	83.08	13.22	-50.2	-51.5	14.8	0.00e+00	0	29	0	1103101952	66	4212
2026-01-03 21:33:37.15	83.25	13.20	-50.2	-51.5	14.8	0.00e+00	0	29	0	1105199104	66	4219
2026-01-03 21:33:38.30	83.48	13.18	-50.2	-51.5	14.8	0.00e+00	0	29	0	1109393408	66	4217
2026-01-03 21:33:39.15	83.64	13.16	-50.3	-51.7	14.7	0.00e+00	0	29	0	1111490560	66	4301
2026-01-03 21:33:40.30	83.86	13.14	-50.2	-51.6	14.7	0.00e+00	0	29	0	1115684864	66	4264
2026-01-03 21:33:41.15	84.03	13.12	-50.2	-51.6	14.7	0.00e+00	0	29	0	1117782016	66	4264
2026-01-03 21:33:42.30	84.25	13.10	-50.3	-51.7	14.7	0.00e+00	0	29	0	1121976320	66	4295
2026-01-03 21:33:43.15	84.42	13.08	-50.2	-51.6	14.7	0.00e+00	0	29	0	1124073472	66	4252
2026-01-03 21:33:44.29	84.64	13.06	-50.2	-51.5	14.7	0.00e+00	0	29	0	1128267776	66	4221
2026-01-03 21:33:45.15	84.80	13.04	-50.2	-51.6	14.7	0.00e+00	0	29	0	1130364928	66	4249
2026-01-03 21:33:46.29	85.02	13.01	-50.2	-51.5	14.8	0.00e+00	0	29	0	1134559232	66	4228
2026-01-03 21:33:47.15	85.19	12.99	-50.2	-51.5	14.8	0.00e+00	0	29	0	1136656384	66	4221
2026-01-03 21:33:48.29	85.41	12.97	-50.1	-51.5	14.8	0.00e+00	0	29	0	1140850688	66	4212
2026-01-03 21:33:49.15	85.57	12.95	-50.1	-51.5	14.8	0.00e+00	0	29	0	1142947840	66	4204
2026-01-03 21:33:50.29	85.79	12.92	-50.2	-51.6	14.7	0.00e+00	0	29	0	1147142144	66	4250
2026-01-03 21:33:51.14	85.96	12.90	-50.2	-51.6	14.7	0.00e+00	0	29	0	1149239296	66	4248
2026-01-03 21:33:52.28	86.17	12.87	-50.4	-51.7	14.7	0.00e+00	0	29	0	1152385024	66	4330
2026-01-03 21:33:53.14	86.34	12.85	-50.3	-51.7	14.7	0.00e+00	0	29	0	1155530752	66	4324
2026-01-03 21:33:54.28	86.56	12.82	-50.4	-51.7	14.7	0.00e+00	0	29	0	1158676480	66	4332
2026-01-03 21:33:55.14	86.72	12.80	-50.4	-51.8	14.6	0.00e+00	0	29	0	1161822208	66	4367
2026-01-03 21:33:56.28	86.94	12.77	-50.5	-51.9	14.6	0.00e+00	0	29	0	1164967936	66	4412
2026-01-03 21:33:57.14	87.10	12.75	-50.5	-51.9	14.6	0.00e+00	0	29	0	1168113664	66	4426
2026-01-03 21:33:58.28	87.32	12.72	-50.5	-51.8	14.6	0.00e+00	0	29	0	1171259392	66	4390
2026-01-03 21:33:59.13	87.48	12.70	-50.4	-51.8	14.6	0.00e+00	0	29	0	1174405120	66	4383
2026-01-03 21:34:00.28	87.69	12.67	-50.4	-51.8	14.7	0.00e+00	0	29	0	1177550848	66	4348
2026-01-03 21:34:01.13	87.85	12.65	-50.3	-51.7	14.7	0.00e+00	0	29	0	1180696576	66	4315
2026-01-03 21:34:02.27	88.07	12.62	-50.4	-51.7	14.7	0.00e+00	0	29	0	1183842304	66	4338
2026-01-03 21:34:03.13	88.23	12.60	-50.4	-51.8	14.7	0.00e+00	0	29	0	1186988032	66	4343
2026-01-03 21:34:04.27	88.44	12.57	-50.5	-51.9	14.6	0.00e+00	0	29	0	1190133760	66	4402
2026-01-03 21:34:05.13	88.60	12.54	-50.4	-51.8	14.6	0.00e+00	0	29	0	1193279488	66	4350
2026-01-03 21:34:06.28	88.82	12.51	-50.5	-51.9	14.6	0.00e+00	0	29	0	1196425216	66	4395
2026-01-03 21:34:07.13	88.98	12.49	-50.3	-51.7	14.7	0.00e+00	0	29	0	1199570944	66	4317
2026-01-03 21:34:08.28	89.19	12.45	-50.4	-51.8	14.7	0.00e+00	0	29	0	1202716672	66	4346
2026-01-03 21:34:09.13	89.35	12.43	-50.3	-51.7	14.7	0.00e+00	0	29	0	1205862400	66	4314
2026-01-03 21:34:10.28	89.56	12.40	-50.4	-51.8	14.6	0.00e+00	0	29	0	1209008128	66	4345
2026-01-03 21:34:11.13	89.72	12.37	-50.4	-51.8	14.6	0.00e+00	0	29	0	1212153856	66	4364
2026-01-03 21:34:12.27	89.93	12.34	-50.3	-51.7	14.7	0.00e+00	0	29	0	1215299584	66	4320
2026-01-03 21:34:13.13	90.09	12.32	-50.4	-51.7	14.7	0.00e+00	0	29	0	1218445312	66	4337
2026-01-03 21:34:14.28	90.30	12.28	-50.4	-51.8	14.6	0.00e+00	0	29	0	1221591040	66	4349
2026-01-03 21:34:15.13	90.46	12.26	-50.3	-51.7	14.7	0.00e+00	0	29	0	1224736768	66	4321
2026-01-03 21:34:16.28	90.67	12.22	-50.3	-51.7	14.6	0.00e+00	0	29	0	1227882496	66	4317
2026-01-03 21:34:17.14	90.83	12.20	-50.2	-51.6	14.7	0.00e+00	0	29	0	1231028224	66	4269
2026-01-03 21:34:18.29	91.04	12.16	-50.3	-51.7	14.7	0.00e+00	0	29	0	1234173952	66	4309
2026-01-03 21:34:19.15	91.19	12.14	-50.4	-51.7	14.7	0.00e+00	0	29	0	1236271104	66	4339
2026-01-03 21:34:20.29	91.40	12.10	-50.4	-51.8	14.6	0.00e+00	0	29	0	1240465408	66	4384
2026-01-03 21:34:21.15	91.56	12.07	-50.5	-51.9	14.6	0.00e+00	0	29	0	1242562560	66	4403
2026-01-03 21:34:22.28	91.76	12.04	-50.4	-51.7	14.6	0.00e+00	0	29	0	1246756864	66	4334
2026-01-03 21:34:23.13	91.91	12.01	-50.3	-51.7	14.7	0.00e+00	0	29	0	1248854016	66	4302
2026-01-03 21:34:24.28	92.12	11.98	-50.2	-51.5	14.7	0.00e+00	0	29	0	1253048320	66	4233
2026-01-03 21:34:25.14	92.28	11.95	-50.2	-51.5	14.7	0.00e+00	0	29	0	1255145472	66	4230
2026-01-03 21:34:26.28	92.48	11.91	-50.2	-51.6	14.7	0.00e+00	0	29	0	1259339776	66	4256
2026-01-03 21:34:27.13	92.63	11.88	-50.3	-51.7	14.7	0.00e+00	0	29	0	1261436928	66	4295
2026-01-03 21:34:28.26	92.84	11.85	-50.3	-51.6	14.7	0.00e+00	0	29	0	1265631232	66	4285
2026-01-03 21:34:29.11	92.99	11.82	-50.3	-51.6	14.7	0.00e+00	0	29	0	1267728384	66	4271
2026-01-03 21:34:30.25	93.19	11.78	-50.1	-51.4	14.8	0.00e+00	0	29	0	1271922688	66	4174
2026-01-03 21:34:31.10	93.34	11.75	-50.1	-51.4	14.7	0.00e+00	0	29	0	1274019840	66	4192
2026-01-03 21:34:32.24	93.54	11.72	-50.2	-51.5	14.7	0.00e+00	0	29	0	1278214144	66	4218
2026-01-03 21:34:33.09	93.69	11.69	-50.2	-51.5	14.7	0.00e+00	0	29	0	1280311296	66	4225
2026-01-03 21:34:34.24	93.90	11.65	-50.2	-51.6	14.7	0.00e+00	0	29	0	1283457024	66	4264
2026-01-03 21:34:35.10	94.05	11.62	-50.2	-51.6	14.7	0.00e+00	0	29	0	1286602752	66	4254
2026-01-03 21:34:36.24	94.25	11.58	-50.3	-51.7	14.7	0.00e+00	0	29	0	1289748480	66	4318
2026-01-03 21:34:37.08	94.40	11.55	-50.3	-51.7	14.7	0.00e+00	0	29	0	1292894208	66	4300
2026-01-03 21:34:38.23	94.60	11.51	-50.4	-51.8	14.6	0.00e+00	0	29	0	1296039936	66	4352
2026-01-03 21:34:39.09	94.75	11.48	-50.4	-51.8	14.6	0.00e+00	0	29	0	1299185664	66	4380
2026-01-03 21:34:40.23	94.95	11.44	-50.4	-51.8	14.6	0.00e+00	0	29	0	1302331392	66	4349
2026-01-03 21:34:41.09	95.10	11.41	-50.5	-51.9	14.6	0.00e+00	0	29	0	1305477120	66	4393
2026-01-03 21:34:42.23	95.30	11.37	-50.5	-51.9	14.6	0.00e+00	0	29	0	1308622848	66	4422
2026-01-03 21:34:43.09	95.44	11.34	-50.4	-51.8	14.6	0.00e+00	0	29	0	1311768576	66	4383
2026-01-03 21:34:44.23	95.64	11.30	-50.5	-51.9	14.6	0.00e+00	0	29	0	1314914304	66	4397
2026-01-03 21:34:45.09	95.79	11.27	-50.3	-51.7	14.6	0.00e+00	0	29	0	1318060032	66	4313
2026-01-03 21:34:46.23	95.98	11.23	-50.4	-51.7	14.6	0.00e+00	0	29	0	1321205760	66	4340
2026-01-03 21:34:47.08	96.13	11.20	-50.5	-51.9	14.6	0.00e+00	0	29	0	1324351488	66	4422
2026-01-03 21:34:48.22	96.33	11.16	-50.5	-51.9	14.6	0.00e+00	0	29	0	1327497216	66	4395
2026-01-03 21:34:49.08	96.47	11.13	-50.5	-52.0	14.6	0.00e+00	0	29	0	1330642944	66	4444
2026-01-03 21:34:50.22	96.67	11.09	-50.5	-52.0	14.5	0.00e+00	0	29	0	1333788672	66	4446
2026-01-03 21:34:51.07	96.81	11.06	-50.6	-52.1	14.5	0.00e+00	0	29	0	1336934400	66	4498
2026-01-03 21:34:52.21	97.00	11.01	-50.6	-52.0	14.5	0.00e+00	0	29	0	1340080128	66	4484
2026-01-03 21:34:53.07	97.15	10.98	-50.7	-52.2	14.4	0.00e+00	0	29	0	1343225856	66	4551
2026-01-03 21:34:54.21	97.34	10.94	-50.6	-52.0	14.5	0.00e+00	0	29	0	1346371584	66	4459
2026-01-03 21:34:55.07	97.49	10.91	-50.6	-52.0	14.5	0.00e+00	0	29	0	1348468736	66	4461
2026-01-03 21:34:56.21	97.68	10.86	-50.7	-52.1	14.5	0.00e+00	0	29	0	1352663040	66	4532
2026-01-03 21:34:57.07	97.82	10.83	-50.7	-52.2	14.5	0.00e+00	0	29	0	1354760192	66	4549
2026-01-03 21:34:58.20	98.01	10.79	-50.7	-52.2	14.5	0.00e+00	0	29	0	1358954496	66	4572
2026-01-03 21:34:59.06	98.15	10.76	-50.8	-52.2	14.4	0.00e+00	0	29	0	1361051648	66	4581
2026-01-03 21:35:00.20	98.34	10.71	-50.8	-52.2	14.4	0.00e+00	0	29	0	1365245952	66	4596
2026-01-03 21:35:01.06	98.49	10.68	-50.7	-52.2	14.5	0.00e+00	0	29	0	1367343104	66	4554
2026-01-03 21:35:02.20	98.67	10.64	-50.7	-52.1	14.5	0.00e+00	0	29	0	1371537408	66	4543
2026-01-03 21:35:03.06	98.82	10.60	-50.6	-52.0	14.5	0.00e+00	0	29	0	1373634560	66	4464
2026-01-03 21:35:04.21	99.00	10.56	-50.7	-52.2	14.5	0.00e+00	0	29	0	1377828864	66	4551
2026-01-03 21:35:05.07	99.15	10.53	-50.7	-52.1	14.5	0.00e+00	0	29	0	1379926016	66	4538
2026-01-03 21:35:06.21	99.33	10.48	-50.8	-52.2	14.4	0.00e+00	0	29	0	1384120320	66	4587
2026-01-03 21:35:07.06	99.47	10.45	-50.7	-52.2	14.5	0.00e+00	0	29	0	1386217472	66	4546
2026-01-03 21:35:08.21	99.66	10.40	-50.8	-52.3	14.4	0.00e+00	0	29	0	1390411776	66	4622
2026-01-03 21:35:09.06	99.80	10.37	-50.9	-52.4	14.4	0.00e+00	0	29	0	1392508928	66	4663
2026-01-03 21:35:10.20	99.98	10.32	-50.8	-52.2	14.5	0.00e+00	0	29	0	1396703232	67	4332
2026-01-03 21:35:11.06	100.12	10.29	-50.8	-52.3	14.5	0.00e+00	0	29	0	1398800384	67	4345
2026-01-03 21:35:12.20	100.30	10.24	-51.0	-52.5	14.4	0.00e+00	0	29	0	1402994688	67	4443
2026-01-03 21:35:13.06	100.44	10.21	-51.0	-52.5	14.4	0.00e+00	0	29	0	1405091840	67	4446
2026-01-03 21:35:14.20	100.62	10.16	-51.0	-52.6	14.3	0.00e+00	0	29	0	1409286144	67	4498
2026-01-03 21:35:15.05	100.76	10.13	-51.0	-52.6	14.3	0.00e+00	0	29	0	1411383296	67	4495
2026-01-03 21:35:16.20	100.94	10.08	-51.0	-52.5	14.4	0.00e+00	0	29	0	1415577600	67	4460
2026-01-03 21:35:17.05	101.08	10.05	-51.0	-52.5	14.4	0.00e+00	0	29	0	1417674752	67	4476
2026-01-03 21:35:18.20	101.26	10.00	-51.0	-52.6	14.3	0.00e+00	0	29	0	1420820480	67	4501
2026-01-03 21:35:19.05	101.40	9.97	-51.1	-52.6	14.3	0.00e+00	0	29	0	1423966208	67	4507
2026-01-03 21:35:20.19	101.58	9.92	-51.1	-52.6	14.3	0.00e+00	0	29	0	1427111936	67	4500
2026-01-03 21:35:21.05	101.71	9.89	-50.9	-52.4	14.4	0.00e+00	0	29	0	1430257664	67	4432
2026-01-03 21:35:22.19	101.89	9.84	-51.0	-52.6	14.4	0.00e+00	0	29	0	1433403392	67	4497
2026-01-03 21:35:23.05	102.02	9.80	-51.1	-52.6	14.3	0.00e+00	0	29	0	1436549120	67	4508
2026-01-03 21:35:24.20	102.20	9.76	-51.0	-52.5	14.4	0.00e+00	0	29	0	1439694848	67	4482
2026-01-03 21:35:25.05	102.34	9.72	-51.0	-52.5	14.4	0.00e+00	0	29	0	1442840576	67	4470
2026-01-03 21:35:26.19	102.51	9.67	-51.1	-52.6	14.3	0.00e+00	0	29	0	1445986304	67	4540
2026-01-03 21:35:27.04	102.64	9.64	-51.2	-52.7	14.3	0.00e+00	0	29	0	1449132032	67	4564
2026-01-03 21:35:28.19	102.82	9.59	-51.1	-52.6	14.3	0.00e+00	0	29	0	1452277760	67	4521
2026-01-03 21:35:29.04	102.95	9.55	-51.1	-52.6	14.3	0.00e+00	0	29	0	1455423488	67	4537
2026-01-03 21:35:30.18	103.13	9.51	-51.2	-52.7	14.3	0.00e+00	0	29	0	1458569216	67	4587
2026-01-03 21:35:31.03	103.26	9.47	-51.2	-52.8	14.3	0.00e+00	0	29	0	1461714944	67	4620
2026-01-03 21:35:32.17	103.43	9.42	-51.3	-52.8	14.2	0.00e+00	0	29	0	1464860672	67	4645
2026-01-03 21:35:33.02	103.56	9.39	-51.3	-52.8	14.2	0.00e+00	0	29	0	1468006400	67	4637
2026-01-03 21:35:34.16	103.73	9.34	-51.2	-52.8	14.2	0.00e+00	0	29	0	1471152128	67	4627
2026-01-03 21:35:35.02	103.86	9.30	-51.3	-52.9	14.2	0.00e+00	0	29	0	1474297856	67	4667
2026-01-03 21:35:36.16	104.04	9.25	-51.3	-52.9	14.2	0.00e+00	0	29	0	1477443584	67	4683
2026-01-03 21:35:37.02	104.17	9.22	-51.3	-52.8	14.2	0.00e+00	0	29	0	1480589312	67	4638
2026-01-03 21:35:38.16	104.34	9.17	-51.2	-52.8	14.2	0.00e+00	0	29	0	1483735040	67	4603
2026-01-03 21:35:39.01	104.46	9.13	-51.3	-52.8	14.2	0.00e+00	0	29	0	1485832192	67	4643
2026-01-03 21:35:40.15	104.63	9.08	-51.3	-52.8	14.2	0.00e+00	0	29	0	1490026496	67	4638
2026-01-03 21:35:41.01	104.76	9.04	-51.2	-52.8	14.3	0.00e+00	0	29	0	1492123648	67	4613
2026-01-03 21:35:42.15	104.93	8.99	-51.2	-52.7	14.3	0.00e+00	0	29	0	1496317952	67	4593
2026-01-03 21:35:43.01	105.06	8.96	-51.2	-52.7	14.3	0.00e+00	0	29	0	1498415104	67	4572
2026-01-03 21:35:44.15	105.23	8.91	-51.2	-52.8	14.3	0.00e+00	0	29	0	1502609408	67	4619
2026-01-03 21:35:45.01	105.35	8.87	-51.3	-52.9	14.2	0.00e+00	0	29	0	1504706560	67	4657
2026-01-03 21:35:46.15	105.52	8.82	-51.2	-52.8	14.2	0.00e+00	0	29	0	1508900864	67	4608
2026-01-03 21:35:47.01	105.65	8.78	-51.3	-52.9	14.2	0.00e+00	0	29	0	1510998016	67	4661
2026-01-03 21:35:48.15	105.81	8.73	-51.4	-52.9	14.2	0.00e+00	0	29	0	1515192320	67	4695
2026-01-03 21:35:49.01	105.94	8.70	-51.4	-53.0	14.2	0.00e+00	0	29	0	1517289472	67	4708
2026-01-03 21:35:50.16	106.10	8.65	-51.6	-53.1	14.2	0.00e+00	0	29	0	1521483776	68	4543
2026-01-03 21:35:51.02	106.23	8.61	-51.6	-53.1	14.2	0.00e+00	0	29	0	1523580928	68	4542
2026-01-03 21:35:52.16	106.39	8.56	-51.6	-53.2	14.2	0.00e+00	0	29	0	1527775232	68	4579
2026-01-03 21:35:53.01	106.51	8.52	-51.7	-53.3	14.1	0.00e+00	0	29	0	1529872384	68	4646
2026-01-03 21:35:54.15	106.68	8.47	-51.8	-53.4	14.1	0.00e+00	0	29	0	1534066688	68	4681
2026-01-03 21:35:55.01	106.80	8.43	-51.7	-53.4	14.1	0.00e+00	0	29	0	1536163840	68	4656
2026-01-03 21:35:56.15	106.96	8.38	-51.7	-53.3	14.1	0.00e+00	0	29	0	1540358144	68	4643
2026-01-03 21:35:57.00	107.08	8.34	-51.8	-53.4	14.1	0.00e+00	0	29	0	1542455296	68	4677
2026-01-03 21:35:58.15	107.25	8.29	-51.7	-53.3	14.1	0.00e+00	0	29	0	1546649600	68	4632
2026-01-03 21:35:59.01	107.37	8.25	-51.7	-53.3	14.1	0.00e+00	0	29	0	1548746752	68	4627
2026-01-03 21:36:00.16	107.53	8.20	-51.8	-53.4	14.1	0.00e+00	0	29	0	1551892480	68	4684
2026-01-03 21:36:01.02	107.65	8.16	-51.8	-53.5	14.1	0.00e+00	0	29	0	1555038208	68	4718
2026-01-03 21:36:02.16	107.81	8.11	-51.9	-53.6	14.0	0.00e+00	0	29	0	1558183936	68	4778
2026-01-03 21:36:03.01	107.93	8.07	-51.8	-53.4	14.2	0.00e+00	0	29	0	1561329664	69	4422
2026-01-03 21:36:04.16	108.09	8.02	-51.7	-53.4	14.2	0.00e+00	0	29	0	1564475392	69	4401
2026-01-03 21:36:05.02	108.21	7.98	-51.8	-53.4	14.1	0.00e+00	0	29	0	1567621120	69	4433
2026-01-03 21:36:06.15	108.37	7.93	-52.0	-53.6	14.1	0.00e+00	0	29	0	1570766848	69	4527
2026-01-03 21:36:07.01	108.48	7.89	-51.9	-53.5	14.1	0.00e+00	0	29	0	1573912576	69	4471
2026-01-03 21:36:08.14	108.64	7.84	-51.9	-53.6	14.1	0.00e+00	0	29	0	1577058304	69	4494
2026-01-03 21:36:09.00	108.76	7.80	-51.9	-53.5	14.1	0.00e+00	0	29	0	1580204032	69	4476
2026-01-03 21:36:10.14	108.91	7.75	-51.8	-53.5	14.1	0.00e+00	0	29	0	1583349760	69	4443
2026-01-03 21:36:10.99	109.03	7.71	-51.9	-53.6	14.1	0.00e+00	0	29	0	1586495488	69	4495
2026-01-03 21:36:12.14	109.19	7.66	-51.9	-53.5	14.1	0.00e+00	0	29	0	1589641216	69	4477
2026-01-03 21:36:13.00	109.30	7.62	-52.0	-53.7	14.0	0.00e+00	0	29	0	1592786944	69	4552
2026-01-03 21:36:14.14	109.46	7.57	-52.0	-53.6	14.0	0.00e+00	0	29	0	1595932672	69	4537
2026-01-03 21:36:14.99	109.57	7.53	-51.9	-53.6	14.0	0.00e+00	0	29	0	1599078400	69	4518
2026-01-03 21:36:16.14	109.73	7.48	-51.9	-53.6	14.1	0.00e+00	0	29	0	1602224128	69	4514
2026-01-03 21:36:17.00	109.84	7.44	-51.9	-53.6	14.1	0.00e+00	0	29	0	1605369856	69	4512
2026-01-03 21:36:18.13	109.99	7.39	-52.1	-53.8	14.0	0.00e+00	0	29	0	1608515584	69	4604
2026-01-03 21:36:18.99	110.11	7.35	-52.1	-53.7	14.0	0.00e+00	0	29	0	1611661312	69	4597
2026-01-03 21:36:20.13	110.26	7.30	-51.9	-53.6	14.1	0.00e+00	0	29	0	1614807040	69	4501
2026-01-03 21:36:20.98	110.37	7.26	-51.8	-53.5	14.1	0.00e+00	0	29	0	1617952768	69	4455
2026-01-03 21:36:22.12	110.52	7.21	-51.9	-53.5	14.1	0.00e+00	0	29	0	1621098496	69	4484
2026-01-03 21:36:22.98	110.63	7.17	-51.9	-53.5	14.1	0.00e+00	0	29	0	1624244224	69	4492
2026-01-03 21:36:24.11	110.78	7.11	-51.9	-53.6	14.0	0.00e+00	0	29	0	1627389952	69	4508
2026-01-03 21:36:24.96	110.89	7.08	-51.8	-53.5	14.1	0.00e+00	0	29	0	1629487104	69	4465
2026-01-03 21:36:26.11	111.04	7.02	-51.9	-53.6	14.0	0.00e+00	0	29	0	1633681408	69	4530
2026-01-03 21:36:26.96	111.15	6.98	-51.9	-53.6	14.0	0.00e+00	0	29	0	1635778560	69	4513
2026-01-03 21:36:28.09	111.30	6.93	-51.9	-53.6	14.0	0.00e+00	0	29	0	1639972864	69	4523
2026-01-03 21:36:28.95	111.41	6.89	-52.0	-53.7	14.0	0.00e+00	0	29	0	1642070016	69	4550
2026-01-03 21:36:30.08	111.56	6.84	-51.8	-53.5	14.1	0.00e+00	0	29	0	1646264320	69	4463
2026-01-03 21:36:30.94	111.67	6.80	-51.8	-53.5	14.0	0.00e+00	0	29	0	1648361472	69	4472
2026-01-03 21:36:32.08	111.81	6.75	-52.0	-53.7	14.0	0.00e+00	0	29	0	1652555776	69	4549
2026-01-03 21:36:32.94	111.92	6.71	-51.9	-53.5	14.0	0.00e+00	0	29	0	1654652928	69	4477
2026-01-03 21:36:34.08	112.07	6.65	-51.9	-53.6	14.0	0.00e+00	0	29	0	1658847232	69	4507
2026-01-03 21:36:34.94	112.18	6.61	-51.9	-53.6	14.0	0.00e+00	0	29	0	1660944384	69	4501
2026-01-03 21:36:36.08	112.32	6.56	-51.8	-53.5	14.0	0.00e+00	0	29	0	1665138688	69	4465
2026-01-03 21:36:36.93	112.43	6.52	-51.9	-53.5	14.0	0.00e+00	0	29	0	1667235840	69	4493
2026-01-03 21:36:38.08	112.57	6.47	-51.9	-53.6	14.0	0.00e+00	0	29	0	1671430144	69	4528
2026-01-03 21:36:38.94	112.68	6.43	-52.0	-53.7	13.9	0.00e+00	0	29	0	1673527296	69	4556
2026-01-03 21:36:40.08	112.82	6.38	-51.9	-53.6	13.9	0.00e+00	0	29	0	1677721600	69	4545
2026-01-03 21:36:40.93	112.93	6.34	-52.0	-53.7	13.9	0.00e+00	0	29	0	1679818752	69	4565
2026-01-03 21:36:42.07	113.07	6.28	-52.1	-53.8	13.8	0.00e+00	0	29	0	1682964480	69	4631
2026-01-03 21:36:42.93	113.18	6.24	-52.0	-53.8	13.9	0.00e+00	0	29	0	1686110208	69	4608
2026-01-03 21:36:44.07	113.32	6.19	-52.3	-54.1	13.7	0.00e+00	0	29	0	1689255936	69	4781
2026-01-03 21:36:44.92	113.42	6.15	-52.1	-53.9	13.8	0.00e+00	0	29	0	1692401664	69	4687
2026-01-03 21:36:46.06	113.56	6.10	-52.1	-53.8	13.8	0.00e+00	0	29	0	1695547392	69	4635
2026-01-03 21:36:46.92	113.67	6.06	-52.0	-53.8	13.8	0.00e+00	0	29	0	1698693120	69	4605
2026-01-03 21:36:48.06	113.80	6.00	-52.2	-54.0	13.7	0.00e+00	0	29	0	1701838848	69	4736
2026-01-03 21:36:48.92	113.91	5.96	-52.2	-54.1	13.7	0.00e+00	0	29	0	1704984576	69	4765
2026-01-03 21:36:50.06	114.05	5.91	-52.4	-54.3	13.6	0.00e+00	0	29	0	1708130304	69	4885
2026-01-03 21:36:50.92	114.15	5.87	-52.3	-54.1	13.6	0.00e+00	0	29	0	1711276032	69	4786
2026-01-03 21:36:52.06	114.29	5.82	-52.4	-54.3	13.5	0.00e+00	0	29	0	1714421760	69	4890
2026-01-03 21:36:52.91	114.39	5.78	-52.4	-54.3	13.6	0.00e+00	0	29	0	1717567488	69	4873
2026-01-03 21:36:54.05	114.53	5.72	-52.3	-54.2	13.6	0.00e+00	0	29	0	1720713216	69	4821
2026-01-03 21:36:54.91	114.63	5.68	-52.2	-54.1	13.7	0.00e+00	0	29	0	1723858944	69	4774
2026-01-03 21:36:56.05	114.77	5.63	-52.3	-54.2	13.6	0.00e+00	0	29	0	1727004672	69	4828
2026-01-03 21:36:56.91	114.87	5.59	-52.2	-54.1	13.6	0.00e+00	0	29	0	1730150400	69	4797
2026-01-03 21:36:58.06	115.00	5.53	-52.3	-54.1	13.6	0.00e+00	0	29	0	1733296128	69	4803
2026-01-03 21:36:58.91	115.10	5.49	-52.2	-54.1	13.6	0.00e+00	0	29	0	1736441856	69	4779
2026-01-03 21:37:00.06	115.24	5.44	-52.5	-54.4	13.5	0.00e+00	0	29	0	1739587584	70	4662
2026-01-03 21:37:00.92	115.34	5.40	-52.4	-54.2	13.6	0.00e+00	0	29	0	1742733312	70	4594
2026-01-03 21:37:02.06	115.47	5.35	-52.4	-54.3	13.6	0.00e+00	0	29	0	1745879040	70	4607
2026-01-03 21:37:02.92	115.57	5.31	-52.3	-54.2	13.6	0.00e+00	0	29	0	1749024768	70	4597
2026-01-03 21:37:04.06	115.70	5.25	-52.5	-54.4	13.5	0.00e+00	0	29	0	1752170496	70	4683
2026-01-03 21:37:04.92	115.80	5.21	-52.5	-54.4	13.4	0.00e+00	0	29	0	1754267648	70	4705
2026-01-03 21:37:06.06	115.94	5.16	-52.5	-54.5	13.4	0.00e+00	0	29	0	1758461952	70	4730
2026-01-03 21:37:06.92	116.03	5.12	-52.4	-54.4	13.5	0.00e+00	0	29	0	1760559104	70	4664
2026-01-03 21:37:08.06	116.16	5.06	-52.5	-54.4	13.4	0.00e+00	0	29	0	1764753408	70	4701
2026-01-03 21:37:08.92	116.26	5.02	-52.6	-54.6	13.3	0.00e+00	0	29	0	1766850560	70	4801
2026-01-03 21:37:10.06	116.39	4.97	-58.8	-72.3	3.8	1.27e+00	0	29	104	1769996288	82	18384
2026-01-03 21:37:10.91	116.49	4.93	-59.2	-72.9	3.8	1.49e+00	0	29	104	1769996288	83	18563
2026-01-03 21:37:12.06	116.62	4.88	-59.7	-73.5	3.8	1.49e+00	0	29	104	1769996288	84	18937
2026-01-03 21:37:12.91	116.72	4.84	-59.9	-73.7	3.8	1.49e+00	0	29	104	1769996288	84	19294
2026-01-03 21:37:14.06	116.84	4.78	-60.1	-74.0	3.8	1.49e+00	0	29	104	1769996288	85	18805
2026-01-03 21:37:14.92	116.94	4.74	-60.3	-74.1	3.8	1.49e+00	0	29	104	1769996288	85	19071
2026-01-03 21:37:16.05	117.07	4.69	-60.5	-74.3	3.8	1.49e+00	0	29	104	1769996288	86	18423
2026-01-03 21:37:16.91	117.16	4.65	-60.5	-74.4	3.8	1.49e+00	0	29	104	1769996288	86	18595
2026-01-03 21:37:18.05	117.29	4.59	-60.6	-74.5	3.8	1.49e+00	0	29	104	1769996288	86	18791
2026-01-03 21:37:18.90	117.38	4.55	-60.7	-74.5	3.8	1.49e+00	0	29	104	1769996288	86	18939
2026-01-03 21:37:20.05	117.51	4.50	-60.8	-74.6	3.8	1.49e+00	0	29	104	1769996288	86	19110
2026-01-03 21:37:20.91	117.61	4.46	-60.8	-74.7	3.8	1.49e+00	0	29	104	1769996288	86	19235
2026-01-03 21:37:22.06	117.73	4.40	-60.9	-74.7	3.8	1.49e+00	0	29	104	1769996288	86	19382
2026-01-03 21:37:22.91	117.83	4.36	-60.9	-74.8	3.8	1.49e+00	0	29	104	1769996288	87	18428
2026-01-03 21:37:24.05	117.95	4.31	-60.9	-74.8	3.8	1.49e+00	0	29	104	1769996288	87	18411
2026-01-03 21:37:24.91	118.04	4.27	-61.0	-74.8	3.8	1.49e+00	0	29	104	1769996288	87	18512
2026-01-03 21:37:26.05	118.17	4.22	-61.0	-74.9	3.8	1.49e+00	0	29	104	1769996288	87	18558
2026-01-03 21:37:26.90	118.26	4.18	-61.0	-74.9	3.8	1.49e+00	0	29	104	1769996288	87	18583
2026-01-03 21:37:28.05	118.38	4.12	-61.1	-74.9	3.8	1.49e+00	0	29	104	1769996288	87	18714
2026-01-03 21:37:28.90	118.47	4.08	-61.1	-75.0	3.8	1.49e+00	0	29	104	1769996288	87	18824
2026-01-03 21:37:30.05	118.60	4.03	-61.1	-75.0	3.8	1.49e+00	0	29	104	1769996288	87	18814
2026-01-03 21:37:30.90	118.69	3.99	-61.2	-75.0	3.8	1.49e+00	0	29	104	1769996288	87	18942
2026-01-03 21:37:32.05	118.81	3.93	-61.2	-75.1	3.8	1.49e+00	0	29	104	1769996288	87	19047
2026-01-03 21:37:32.90	118.90	3.89	-61.2	-75.1	3.8	1.49e+00	0	30	104	1769996288	87	19041
2026-01-03 21:37:34.04	119.02	3.84	-61.2	-75.1	3.8	1.49e+00	0	30	104	1769996288	87	19133
2026-01-03 21:37:34.90	119.11	3.80	-61.3	-75.2	3.8	1.49e+00	0	29	104	1769996288	87	19196
2026-01-03 21:37:36.04	119.23	3.74	-61.3	-75.2	3.8	1.49e+00	0	29	104	1769996288	87	19188
2026-01-03 21:37:36.89	119.32	3.70	-61.3	-75.2	3.8	1.49e+00	0	29	104	1769996288	87	19233
2026-01-03 21:37:38.02	119.44	3.65	-61.3	-75.2	3.8	1.49e+00	0	29	104	1769996288	87	19246
2026-01-03 21:37:38.88	119.53	3.61	-61.3	-75.2	3.8	1.49e+00	0	29	104	1769996288	87	19235
2026-01-03 21:37:40.02	119.65	3.56	-61.2	-75.1	3.8	1.49e+00	0	29	104	1769996288	87	19151
2026-01-03 21:37:40.88	119.74	3.52	-61.2	-75.1	3.8	1.49e+00	0	29	104	1769996288	87	19054
2026-01-03 21:37:42.03	119.85	3.46	-61.2	-75.1	3.8	1.49e+00	0	30	104	1769996288	87	19021
2026-01-03 21:37:42.89	119.94	3.42	-61.2	-75.1	3.8	1.49e+00	0	29	104	1769996288	87	19051
2026-01-03 21:37:44.02	120.06	3.37	-61.2	-75.1	3.8	1.49e+00	0	29	104	1769996288	87	19058
2026-01-03 21:37:44.88	120.15	3.33	-61.2	-75.1	3.8	1.49e+00	0	30	104	1769996288	87	19012
2026-01-03 21:37:46.02	120.26	3.27	-61.2	-75.1	3.9	1.49e+00	0	29	104	1769996288	87	18971
2026-01-03 21:37:46.88	120.35	3.23	-61.2	-75.0	3.8	1.49e+00	0	30	104	1769996288	87	18926
2026-01-03 21:37:48.03	120.47	3.18	-61.2	-75.0	3.8	1.49e+00	0	29	104	1769996288	87	18916
2026-01-03 21:37:48.88	120.55	3.14	-61.2	-75.0	3.8	1.49e+00	0	29	104	1769996288	87	18910
2026-01-03 21:37:50.03	120.67	3.09	-61.2	-75.1	3.8	1.49e+00	0	29	104	1769996288	87	18955
2026-01-03 21:37:50.89	120.76	3.04	-61.1	-75.0	3.8	1.49e+00	0	30	104	1769996288	87	18944
2026-01-03 21:37:52.03	120.87	2.99	-61.1	-75.0	3.8	1.49e+00	0	30	104	1769996288	87	18937
2026-01-03 21:37:52.89	120.96	2.95	-61.1	-75.0	3.8	1.49e+00	0	30	104	1769996288	87	18846
2026-01-03 21:37:54.03	121.07	2.90	-61.1	-75.0	3.8	1.49e+00	0	29	104	1769996288	87	18872
2026-01-03 21:37:54.88	121.15	2.86	-61.1	-75.0	3.8	1.49e+00	0	29	104	1769996288	87	18816
2026-01-03 21:37:56.03	121.27	2.80	-61.1	-75.0	3.8	1.49e+00	0	29	104	1769996288	87	18894
2026-01-03 21:37:56.89	121.35	2.76	-61.1	-75.0	3.8	1.49e+00	0	29	104	1769996288	87	18860
2026-01-03 21:37:58.03	121.46	2.71	-61.1	-75.0	3.8	1.49e+00	0	29	104	1769996288	87	18832
2026-01-03 21:37:58.89	121.55	2.67	-61.1	-75.0	3.8	1.49e+00	0	29	104	1769996288	87	18782
2026-01-03 21:38:00.03	121.66	2.62	-61.1	-75.0	3.8	1.49e+00	0	29	104	1769996288	87	18811
2026-01-03 21:38:00.88	121.74	2.58	-61.1	-75.0	3.8	1.49e+00	0	29	104	1769996288	87	18776
2026-01-03 21:38:02.03	121.85	2.52	-61.1	-75.0	3.8	1.49e+00	0	29	104	1769996288	87	18783
2026-01-03 21:38:02.88	121.94	2.48	-61.1	-75.0	3.8	1.49e+00	0	30	104	1769996288	87	18823
2026-01-03 21:38:04.02	122.05	2.43	-61.1	-74.9	3.8	1.49e+00	0	30	104	1769996288	87	18717
2026-01-03 21:38:04.87	122.13	2.39	-61.1	-75.0	3.8	1.49e+00	0	29	104	1769996288	87	18744
2026-01-03 21:38:06.01	122.24	2.33	-61.1	-74.9	3.8	1.49e+00	0	29	104	1769996288	87	18682
2026-01-03 21:38:06.87	122.32	2.29	-61.1	-74.9	3.8	1.49e+00	0	30	104	1769996288	87	18725
2026-01-03 21:38:08.02	122.43	2.24	-61.1	-74.9	3.8	1.49e+00	0	30	104	1769996288	87	18716
2026-01-03 21:38:08.87	122.51	2.20	-61.1	-74.9	3.8	1.49e+00	0	30	104	1769996288	87	18710
2026-01-03 21:38:10.01	122.62	2.15	-61.1	-74.9	3.8	1.49e+00	0	30	104	1769996288	87	18685
2026-01-03 21:38:10.87	122.70	2.11	-61.1	-74.9	3.8	1.49e+00	0	30	104	1769996288	87	18698
2026-01-03 21:38:12.01	122.81	2.05	-61.0	-74.9	3.8	1.49e+00	0	29	104	1769996288	87	18623
2026-01-03 21:38:12.86	122.89	2.01	-61.0	-74.9	3.8	1.49e+00	0	30	104	1769996288	87	18694
2026-01-03 21:38:14.01	123.00	1.96	-61.0	-74.9	3.8	1.49e+00	0	30	104	1769996288	87	18692

#Closed at: 2026-01-03 21:38:14
#Recorded file [1769 MB]: D:/lorett/data/31004_260104_002654.dat