passes_logs/2026/01/03/R3.2S_Murmansk/R3.2S_Murmansk__20260103_015703_NOAA_20_JPSS-1_rec.log

#Pass ID: 20260103_015703_NOAA 20 (JPSS-1)
#Satellite: NOAA 20 (JPSS-1)
#Configuration: NOAA 20
#almurnet v.1.7.20251203
#Start time: 2026-01-03 01:57:04

#Version: 2.2.20231116
#Station: R3.2S_Murmansk
#Location: 33.079688 lon 68.888172 lat
#TLE: 1 43013U 17073A   26002.78363558  .00000190  00000+0  11110-3 0  9990
#TLE: 2 43013  98.7623 303.8528 0001892  57.0664 303.0694 14.19532716421006

#Time	Az	El	Level	Level2	SNR	BER	BlckErr	Temp	State	Recorded	gain1	gain2
2026-01-03 01:57:04.50	30.45	2.06	-59.7	-75.2	3.8	1.49e+00	0	29	0	0	85	21728
2026-01-03 01:57:05.49	30.42	2.12	-59.7	-75.3	3.8	1.49e+00	0	29	104	0	84	23061
2026-01-03 01:57:06.50	30.39	2.18	-59.7	-75.2	3.8	1.49e+00	0	29	104	0	84	23044
2026-01-03 01:57:07.50	30.36	2.24	-59.7	-75.2	3.8	1.49e+00	0	29	104	0	84	23041
2026-01-03 01:57:08.51	30.34	2.31	-59.7	-75.2	3.8	1.49e+00	0	29	104	0	84	22994
2026-01-03 01:57:09.51	30.31	2.37	-59.7	-75.2	3.8	1.49e+00	0	29	104	0	84	22963
2026-01-03 01:57:10.51	30.28	2.44	-59.7	-75.2	3.8	1.49e+00	0	29	104	0	84	22975
2026-01-03 01:57:11.51	30.25	2.50	-59.7	-75.2	3.8	1.49e+00	0	29	104	0	84	22989
2026-01-03 01:57:12.51	30.22	2.56	-59.7	-75.2	3.8	1.49e+00	0	29	104	0	84	22933
2026-01-03 01:57:13.51	30.20	2.63	-59.7	-75.2	3.8	1.49e+00	0	29	104	0	84	23013
2026-01-03 01:57:14.50	30.17	2.69	-59.7	-75.2	3.8	1.49e+00	0	29	104	0	84	22958
2026-01-03 01:57:15.51	30.14	2.75	-59.7	-75.2	3.8	1.49e+00	0	29	104	0	84	22971
2026-01-03 01:57:16.52	30.11	2.82	-59.7	-75.2	3.8	1.49e+00	0	30	104	0	84	22900
2026-01-03 01:57:17.51	30.08	2.88	-59.7	-75.2	3.8	1.49e+00	0	29	104	0	84	22961
2026-01-03 01:57:18.51	30.05	2.95	-59.7	-75.2	3.8	1.49e+00	0	30	104	0	84	22970
2026-01-03 01:57:19.51	30.02	3.01	-59.7	-75.2	3.8	1.49e+00	0	30	104	0	84	22926
2026-01-03 01:57:20.51	29.99	3.08	-59.7	-75.2	3.8	1.49e+00	0	29	104	0	84	22857
2026-01-03 01:57:21.52	29.96	3.14	-59.7	-75.1	3.8	1.49e+00	0	30	104	0	84	22717
2026-01-03 01:57:22.52	29.93	3.21	-59.7	-75.1	3.8	1.49e+00	0	30	104	0	84	22684
2026-01-03 01:57:23.53	29.90	3.27	-59.7	-75.1	3.8	1.49e+00	0	30	104	0	84	22572
2026-01-03 01:57:24.53	29.87	3.34	-59.7	-75.0	3.8	1.49e+00	0	30	104	0	84	22424
2026-01-03 01:57:25.53	29.84	3.40	-59.7	-74.9	3.8	1.49e+00	0	30	104	0	84	22100
2026-01-03 01:57:26.52	29.81	3.47	-59.7	-74.6	3.8	1.49e+00	0	30	104	0	84	21320
2026-01-03 01:57:27.53	29.78	3.54	-59.7	-74.2	3.8	1.49e+00	0	30	104	0	84	20456
2026-01-03 01:57:28.53	29.75	3.60	-59.6	-73.8	3.8	1.49e+00	0	30	104	0	84	19499
2026-01-03 01:57:29.52	29.72	3.67	-59.6	-73.5	3.8	1.49e+00	0	30	104	0	84	18811
2026-01-03 01:57:30.52	29.69	3.73	-59.6	-73.4	3.8	1.49e+00	0	30	104	0	84	18645
2026-01-03 01:57:31.52	29.66	3.80	-59.6	-73.4	3.8	1.49e+00	0	30	104	0	84	18672
2026-01-03 01:57:32.53	29.63	3.87	-59.6	-73.7	3.8	1.49e+00	0	30	104	0	84	19229
2026-01-03 01:57:33.53	29.60	3.93	-59.7	-74.0	3.8	1.49e+00	0	30	104	0	84	20001
2026-01-03 01:57:34.52	29.57	4.00	-59.7	-74.2	3.8	1.49e+00	0	30	104	0	84	20532
2026-01-03 01:57:35.52	29.54	4.07	-59.7	-74.3	3.8	1.49e+00	0	30	104	0	84	20644
2026-01-03 01:57:36.53	29.50	4.13	-59.7	-73.9	3.8	1.49e+00	0	30	104	0	84	19796
2026-01-03 01:57:37.53	29.47	4.20	-59.6	-72.8	3.9	1.49e+00	0	30	104	0	84	17398
2026-01-03 01:57:38.53	29.44	4.27	-59.5	-71.2	4.4	1.42e+00	18	30	0	0	84	14431
2026-01-03 01:57:39.53	29.41	4.34	-59.4	-69.5	5.0	9.51e-01	0	30	0	1048576	84	11828
2026-01-03 01:57:40.53	29.37	4.41	-59.1	-67.6	6.2	3.00e-01	0	30	0	3145728	84	9507
2026-01-03 01:57:41.52	29.34	4.47	-58.9	-66.2	7.3	1.30e-01	0	30	0	5242880	84	8106
2026-01-03 01:57:42.52	29.31	4.54	-58.8	-65.5	7.9	7.00e-02	0	30	0	7340032	84	7510
2026-01-03 01:57:43.53	29.28	4.61	-58.4	-64.7	8.4	3.68e-02	0	30	0	8388608	83	7276
2026-01-03 01:57:44.53	29.24	4.68	-58.2	-63.9	9.2	1.22e-02	0	30	0	10485760	83	6584
2026-01-03 01:57:45.54	29.21	4.75	-58.0	-63.3	9.7	6.27e-03	0	30	0	12582912	82	6538
2026-01-03 01:57:46.53	29.18	4.82	-57.9	-62.8	10.1	3.06e-03	0	30	0	14680064	82	6161
2026-01-03 01:57:47.54	29.14	4.89	-57.9	-62.8	10.1	1.78e-03	0	30	0	16777216	82	6180
2026-01-03 01:57:48.54	29.11	4.95	-57.9	-63.0	9.9	2.51e-03	0	30	0	17825792	82	6299
2026-01-03 01:57:49.53	29.07	5.02	-57.9	-62.9	10.0	2.20e-03	0	30	0	19922944	82	6272
2026-01-03 01:57:50.53	29.04	5.09	-58.4	-64.4	9.0	3.51e-03	0	30	0	22020096	82	7415
2026-01-03 01:57:51.53	29.01	5.16	-57.4	-61.3	11.1	1.25e-01	0	30	0	24117248	81	5521
2026-01-03 01:57:52.53	28.97	5.23	-58.1	-63.5	9.9	0.00e+00	0	30	0	25165824	81	7065
2026-01-03 01:57:53.53	28.94	5.30	-57.9	-62.7	10.1	2.55e-01	0	30	0	27262976	82	6077
2026-01-03 01:57:54.53	28.90	5.37	-55.9	-58.4	13.5	1.50e-06	0	30	0	29360128	78	4657
2026-01-03 01:57:55.53	28.87	5.44	-56.8	-60.1	12.0	1.70e-02	0	30	0	31457280	80	5073
2026-01-03 01:57:56.53	28.83	5.51	-55.5	-57.8	13.7	0.00e+00	0	30	0	33554432	77	4625
2026-01-03 01:57:57.53	28.80	5.58	-55.6	-57.9	13.6	0.00e+00	0	30	0	34603008	77	4672
2026-01-03 01:57:58.53	28.76	5.65	-55.5	-57.8	13.7	0.00e+00	0	30	0	36700160	77	4636
2026-01-03 01:57:59.52	28.72	5.73	-55.4	-57.5	13.9	0.00e+00	0	30	0	38797312	77	4491
2026-01-03 01:58:00.53	28.69	5.80	-55.5	-57.7	13.8	0.00e+00	0	30	0	40894464	77	4598
2026-01-03 01:58:01.53	28.65	5.87	-55.5	-57.7	13.8	0.00e+00	0	30	0	42991616	77	4551
2026-01-03 01:58:02.52	28.61	5.94	-55.1	-57.1	14.1	0.00e+00	0	30	0	44040192	76	4521
2026-01-03 01:58:03.51	28.58	6.01	-55.1	-57.1	14.1	0.00e+00	0	30	0	46137344	76	4522
2026-01-03 01:58:04.51	28.54	6.08	-55.0	-57.0	14.2	0.00e+00	0	30	0	48234496	76	4453
2026-01-03 01:58:05.50	28.50	6.15	-55.1	-57.0	14.2	0.00e+00	0	30	0	50331648	76	4483
2026-01-03 01:58:06.51	28.47	6.23	-55.1	-57.1	14.1	0.00e+00	0	30	0	51380224	76	4538
2026-01-03 01:58:07.51	28.43	6.30	-55.0	-57.0	14.2	0.00e+00	0	30	0	53477376	76	4452
2026-01-03 01:58:08.51	28.39	6.37	-54.9	-56.8	14.3	0.00e+00	0	30	0	55574528	76	4352
2026-01-03 01:58:09.51	28.35	6.45	-54.9	-56.7	14.3	0.00e+00	0	30	0	57671680	76	4338
2026-01-03 01:58:10.51	28.32	6.52	-54.8	-56.7	14.4	0.00e+00	0	30	0	59768832	76	4294
2026-01-03 01:58:11.51	28.28	6.59	-54.9	-56.7	14.3	0.00e+00	0	30	0	60817408	76	4337
2026-01-03 01:58:12.52	28.24	6.67	-54.8	-56.6	14.4	0.00e+00	0	30	0	62914560	76	4279
2026-01-03 01:58:13.52	28.20	6.74	-54.9	-56.8	14.3	0.00e+00	0	30	0	65011712	76	4370
2026-01-03 01:58:14.51	28.16	6.81	-54.8	-56.6	14.5	0.00e+00	0	30	0	67108864	76	4246
2026-01-03 01:58:15.50	28.12	6.89	-54.8	-56.6	14.5	0.00e+00	0	30	0	69206016	76	4257
2026-01-03 01:58:16.50	28.08	6.96	-54.6	-56.4	14.4	0.00e+00	0	30	0	70254592	75	4429
2026-01-03 01:58:17.50	28.04	7.04	-54.7	-56.6	14.4	0.00e+00	0	30	0	72351744	75	4494
2026-01-03 01:58:18.50	28.00	7.11	-54.7	-56.5	14.4	0.00e+00	0	30	0	74448896	75	4487
2026-01-03 01:58:19.50	27.96	7.18	-54.7	-56.5	14.4	0.00e+00	0	30	0	76546048	75	4492
2026-01-03 01:58:20.51	27.92	7.26	-54.7	-56.6	14.4	0.00e+00	0	30	0	78643200	75	4499
2026-01-03 01:58:21.50	27.88	7.34	-54.6	-56.3	14.5	0.00e+00	0	31	0	79691776	75	4376
2026-01-03 01:58:22.49	27.84	7.41	-54.6	-56.3	14.5	0.00e+00	0	30	0	81788928	75	4389
2026-01-03 01:58:23.49	27.80	7.49	-54.6	-56.4	14.5	0.00e+00	0	30	0	83886080	75	4413
2026-01-03 01:58:24.49	27.76	7.56	-54.6	-56.4	14.5	0.00e+00	0	30	0	85983232	75	4398
2026-01-03 01:58:25.48	27.72	7.64	-54.6	-56.4	14.5	0.00e+00	0	30	0	87031808	75	4410
2026-01-03 01:58:26.48	27.68	7.71	-54.6	-56.4	14.5	0.00e+00	0	30	0	89128960	75	4410
2026-01-03 01:58:27.47	27.63	7.79	-54.6	-56.3	14.5	0.00e+00	0	30	0	91226112	75	4350
2026-01-03 01:58:28.47	27.59	7.87	-54.7	-56.4	14.5	0.00e+00	0	30	0	93323264	75	4415
2026-01-03 01:58:29.47	27.55	7.94	-54.6	-56.3	14.6	0.00e+00	0	30	0	95420416	75	4347
2026-01-03 01:58:30.47	27.51	8.02	-54.6	-56.4	14.5	0.00e+00	0	30	0	96468992	75	4392
2026-01-03 01:58:31.48	27.46	8.10	-54.7	-56.4	14.5	0.00e+00	0	30	0	98566144	75	4430
2026-01-03 01:58:32.48	27.42	8.18	-54.5	-56.2	14.6	0.00e+00	0	30	0	100663296	75	4329
2026-01-03 01:58:33.48	27.38	8.25	-54.6	-56.4	14.5	0.00e+00	0	30	0	102760448	75	4392
2026-01-03 01:58:34.47	27.33	8.33	-54.6	-56.3	14.6	0.00e+00	0	30	0	103809024	75	4350
2026-01-03 01:58:35.47	27.29	8.41	-54.6	-56.3	14.6	0.00e+00	0	30	0	105906176	75	4348
2026-01-03 01:58:36.47	27.24	8.49	-54.4	-56.1	14.7	0.00e+00	0	30	0	108003328	75	4245
2026-01-03 01:58:37.47	27.20	8.57	-54.5	-56.2	14.6	0.00e+00	0	30	0	110100480	75	4303
2026-01-03 01:58:38.47	27.15	8.65	-54.5	-56.1	14.7	0.00e+00	0	30	0	112197632	75	4275
2026-01-03 01:58:39.47	27.11	8.72	-54.5	-56.1	14.6	0.00e+00	0	30	0	113246208	75	4287
2026-01-03 01:58:40.47	27.06	8.80	-54.5	-56.2	14.6	0.00e+00	0	30	0	115343360	75	4297
2026-01-03 01:58:41.47	27.02	8.88	-54.5	-56.2	14.6	0.00e+00	0	30	0	117440512	75	4306
2026-01-03 01:58:42.47	26.97	8.96	-54.4	-56.0	14.7	0.00e+00	0	30	0	119537664	75	4234
2026-01-03 01:58:43.47	26.93	9.04	-54.5	-56.1	14.6	0.00e+00	0	30	0	121634816	75	4287
2026-01-03 01:58:44.46	26.88	9.12	-54.4	-56.0	14.7	0.00e+00	0	30	0	122683392	75	4202
2026-01-03 01:58:45.46	26.83	9.20	-54.4	-56.1	14.7	0.00e+00	0	30	0	124780544	75	4245
2026-01-03 01:58:46.46	26.79	9.29	-54.4	-56.0	14.7	0.00e+00	0	30	0	126877696	75	4238
2026-01-03 01:58:47.45	26.74	9.37	-54.4	-56.0	14.7	0.00e+00	0	30	0	128974848	75	4227
2026-01-03 01:58:48.45	26.69	9.45	-54.5	-56.1	14.7	0.00e+00	0	30	0	130023424	75	4289
2026-01-03 01:58:49.46	26.64	9.53	-54.4	-56.0	14.7	0.00e+00	0	30	0	132120576	75	4198
2026-01-03 01:58:50.45	26.60	9.61	-54.3	-55.9	14.8	0.00e+00	0	30	0	134217728	75	4174
2026-01-03 01:58:51.45	26.55	9.69	-54.4	-55.9	14.8	0.00e+00	0	30	0	136314880	75	4183
2026-01-03 01:58:52.44	26.50	9.77	-54.4	-55.9	14.8	0.00e+00	0	30	0	138412032	75	4193
2026-01-03 01:58:53.44	26.45	9.86	-54.4	-55.9	14.8	0.00e+00	0	30	0	139460608	75	4187
2026-01-03 01:58:54.45	26.40	9.94	-54.3	-55.8	14.8	0.00e+00	0	30	0	141557760	75	4131
2026-01-03 01:58:55.44	26.35	10.02	-54.3	-55.9	14.8	0.00e+00	0	30	0	143654912	75	4159
2026-01-03 01:58:56.44	26.30	10.11	-54.3	-55.8	14.8	0.00e+00	0	30	0	145752064	75	4140
2026-01-03 01:58:57.44	26.25	10.19	-54.3	-55.9	14.8	0.00e+00	0	30	0	146800640	75	4166
2026-01-03 01:58:58.44	26.20	10.27	-54.3	-55.8	14.9	0.00e+00	0	30	0	148897792	75	4127
2026-01-03 01:58:59.44	26.15	10.36	-54.3	-55.8	14.9	0.00e+00	0	30	0	150994944	75	4132
2026-01-03 01:59:00.43	26.10	10.44	-54.3	-55.8	14.9	0.00e+00	0	31	0	153092096	75	4116
2026-01-03 01:59:01.43	26.05	10.53	-54.3	-55.9	14.8	0.00e+00	0	30	0	155189248	75	4159
2026-01-03 01:59:02.42	26.00	10.61	-54.2	-55.7	14.9	0.00e+00	0	31	0	156237824	75	4091
2026-01-03 01:59:03.42	25.94	10.70	-54.3	-55.8	14.8	0.00e+00	0	30	0	158334976	75	4121
2026-01-03 01:59:04.42	25.89	10.78	-54.2	-55.8	14.9	0.00e+00	0	30	0	160432128	75	4100
2026-01-03 01:59:05.42	25.84	10.87	-54.3	-55.9	14.8	0.00e+00	0	30	0	162529280	75	4155
2026-01-03 01:59:06.42	25.79	10.95	-54.3	-55.8	14.9	0.00e+00	0	30	0	164626432	75	4111
2026-01-03 01:59:07.42	25.73	11.04	-54.2	-55.7	14.9	0.00e+00	0	30	0	165675008	75	4065
2026-01-03 01:59:08.42	25.68	11.13	-54.3	-55.9	14.8	0.00e+00	0	31	0	167772160	75	4156
2026-01-03 01:59:09.42	25.62	11.21	-54.3	-55.8	14.9	0.00e+00	0	30	0	169869312	75	4141
2026-01-03 01:59:10.41	25.57	11.30	-54.4	-55.9	14.8	0.00e+00	0	30	0	171966464	75	4178
2026-01-03 01:59:11.42	25.52	11.39	-54.2	-55.7	14.9	0.00e+00	0	30	0	174063616	75	4093
2026-01-03 01:59:12.42	25.46	11.48	-54.2	-55.7	14.9	0.00e+00	0	30	0	175112192	74	4324
2026-01-03 01:59:13.41	25.41	11.56	-54.2	-55.7	14.9	0.00e+00	0	30	0	177209344	74	4330
2026-01-03 01:59:14.40	25.35	11.65	-54.2	-55.7	14.9	0.00e+00	0	30	0	179306496	74	4310
2026-01-03 01:59:15.40	25.29	11.74	-54.2	-55.8	14.9	0.00e+00	0	31	0	181403648	74	4346
2026-01-03 01:59:16.40	25.24	11.83	-54.2	-55.7	14.9	0.00e+00	0	30	0	182452224	74	4340
2026-01-03 01:59:17.40	25.18	11.92	-54.3	-55.8	14.9	0.00e+00	0	31	0	184549376	74	4347
2026-01-03 01:59:18.40	25.12	12.01	-54.2	-55.7	14.9	0.00e+00	0	31	0	186646528	74	4327
2026-01-03 01:59:19.40	25.06	12.10	-54.3	-55.8	14.9	0.00e+00	0	30	0	188743680	74	4361
2026-01-03 01:59:20.40	25.01	12.19	-54.2	-55.7	14.9	0.00e+00	0	30	0	190840832	74	4337
2026-01-03 01:59:21.39	24.95	12.27	-54.2	-55.7	14.9	0.00e+00	0	31	0	191889408	74	4315
2026-01-03 01:59:22.39	24.89	12.37	-54.1	-55.6	14.9	0.00e+00	0	30	0	193986560	74	4268
2026-01-03 01:59:23.38	24.83	12.46	-54.1	-55.6	14.9	0.00e+00	0	31	0	196083712	74	4260
2026-01-03 01:59:24.38	24.77	12.55	-54.1	-55.6	14.9	0.00e+00	0	31	0	198180864	74	4263
2026-01-03 01:59:25.37	24.71	12.64	-54.2	-55.6	14.9	0.00e+00	0	31	0	199229440	74	4283
2026-01-03 01:59:26.37	24.65	12.73	-54.1	-55.5	15.0	0.00e+00	0	30	0	201326592	74	4230
2026-01-03 01:59:27.37	24.59	12.82	-54.0	-55.5	15.0	0.00e+00	0	31	0	203423744	74	4197
2026-01-03 01:59:28.36	24.53	12.91	-54.1	-55.5	15.0	0.00e+00	0	31	0	205520896	74	4225
2026-01-03 01:59:29.36	24.47	13.01	-54.0	-55.4	15.0	0.00e+00	0	31	0	207618048	74	4151
2026-01-03 01:59:30.36	24.41	13.10	-54.0	-55.5	15.0	0.00e+00	0	31	0	208666624	74	4208
2026-01-03 01:59:31.36	24.34	13.19	-54.0	-55.4	15.0	0.00e+00	0	30	0	210763776	74	4182
2026-01-03 01:59:32.36	24.28	13.29	-54.1	-55.5	15.0	0.00e+00	0	31	0	212860928	74	4220
2026-01-03 01:59:33.36	24.22	13.38	-54.0	-55.4	15.0	0.00e+00	0	31	0	214958080	74	4186
2026-01-03 01:59:34.36	24.15	13.48	-53.9	-55.3	15.1	0.00e+00	0	31	0	217055232	74	4139
2026-01-03 01:59:35.35	24.09	13.57	-53.9	-55.3	15.1	0.00e+00	0	31	0	218103808	74	4118
2026-01-03 01:59:36.35	24.03	13.66	-54.0	-55.4	15.1	0.00e+00	0	31	0	220200960	74	4176
2026-01-03 01:59:37.35	23.96	13.76	-53.9	-55.3	15.1	0.00e+00	0	30	0	222298112	74	4134
2026-01-03 01:59:38.35	23.89	13.86	-54.0	-55.4	15.0	0.00e+00	0	30	0	224395264	74	4189
2026-01-03 01:59:39.34	23.83	13.95	-53.9	-55.3	15.1	0.00e+00	0	31	0	225443840	74	4132
2026-01-03 01:59:40.33	23.76	14.05	-53.9	-55.3	15.1	0.00e+00	0	31	0	227540992	74	4113
2026-01-03 01:59:41.33	23.70	14.14	-54.0	-55.4	15.1	0.00e+00	0	31	0	229638144	74	4165
2026-01-03 01:59:42.33	23.63	14.24	-54.0	-55.4	15.1	0.00e+00	0	31	0	231735296	74	4151
2026-01-03 01:59:43.32	23.56	14.34	-53.8	-55.2	15.1	0.00e+00	0	31	0	233832448	74	4078
2026-01-03 01:59:44.32	23.49	14.43	-53.9	-55.3	15.1	0.00e+00	0	30	0	234881024	74	4117
2026-01-03 01:59:45.31	23.43	14.53	-53.8	-55.2	15.2	0.00e+00	0	31	0	236978176	74	4071
2026-01-03 01:59:46.31	23.36	14.63	-53.9	-55.2	15.2	0.00e+00	0	30	0	239075328	74	4083
2026-01-03 01:59:47.31	23.29	14.73	-53.8	-55.2	15.2	0.00e+00	0	31	0	241172480	74	4073
2026-01-03 01:59:48.30	23.22	14.83	-53.8	-55.1	15.2	0.00e+00	0	31	0	243269632	74	4017
2026-01-03 01:59:49.30	23.15	14.93	-53.8	-55.1	15.2	0.00e+00	0	31	0	244318208	74	4050
2026-01-03 01:59:50.29	23.08	15.03	-53.9	-55.2	15.2	0.00e+00	0	31	0	246415360	74	4095
2026-01-03 01:59:51.29	23.00	15.13	-53.9	-55.2	15.2	0.00e+00	0	30	0	248512512	74	4086
2026-01-03 01:59:52.29	22.93	15.23	-53.7	-55.1	15.2	0.00e+00	0	31	0	250609664	74	4020
2026-01-03 01:59:53.29	22.86	15.33	-53.7	-55.0	15.2	0.00e+00	0	31	0	251658240	74	3999
2026-01-03 01:59:54.28	22.79	15.43	-53.7	-55.0	15.2	0.00e+00	0	31	0	253755392	74	3980
2026-01-03 01:59:55.29	22.71	15.53	-53.7	-55.0	15.2	0.00e+00	0	31	0	255852544	74	3988
2026-01-03 01:59:56.29	22.64	15.63	-53.7	-55.0	15.2	0.00e+00	0	31	0	257949696	73	4211
2026-01-03 01:59:57.29	22.56	15.74	-53.7	-55.0	15.2	0.00e+00	0	31	0	260046848	73	4213
2026-01-03 01:59:58.28	22.49	15.84	-53.7	-55.1	15.2	0.00e+00	0	31	0	261095424	73	4244
2026-01-03 01:59:59.28	22.41	15.94	-53.7	-55.0	15.2	0.00e+00	0	31	0	263192576	73	4196
2026-01-03 02:00:00.27	22.34	16.04	-53.7	-55.0	15.2	0.00e+00	0	31	0	265289728	73	4233
2026-01-03 02:00:01.27	22.26	16.15	-53.7	-55.0	15.2	0.00e+00	0	31	0	267386880	73	4209
2026-01-03 02:00:02.27	22.18	16.25	-53.7	-55.0	15.2	0.00e+00	0	31	0	268435456	73	4217
2026-01-03 02:00:03.27	22.10	16.36	-53.7	-55.0	15.2	0.00e+00	0	31	0	270532608	73	4209
2026-01-03 02:00:04.26	22.03	16.46	-53.7	-55.0	15.2	0.00e+00	0	31	0	272629760	73	4214
2026-01-03 02:00:05.25	21.95	16.57	-53.7	-55.0	15.2	0.00e+00	0	31	0	274726912	73	4212
2026-01-03 02:00:06.26	21.87	16.67	-53.8	-55.1	15.2	0.00e+00	0	31	0	276824064	73	4250
2026-01-03 02:00:07.27	21.79	16.78	-53.7	-55.0	15.2	0.00e+00	0	31	0	277872640	73	4219
2026-01-03 02:00:08.25	21.71	16.89	-53.7	-55.0	15.2	0.00e+00	0	30	0	279969792	73	4231
2026-01-03 02:00:09.24	21.63	16.99	-53.7	-55.0	15.2	0.00e+00	0	31	0	282066944	73	4232
2026-01-03 02:00:10.25	21.54	17.10	-53.7	-55.0	15.2	0.00e+00	0	31	0	284164096	73	4242
2026-01-03 02:00:11.25	21.46	17.21	-53.7	-55.0	15.2	0.00e+00	0	31	0	285212672	73	4236
2026-01-03 02:00:12.24	21.38	17.32	-53.8	-55.1	15.2	0.00e+00	0	30	0	287309824	73	4256
2026-01-03 02:00:13.24	21.29	17.42	-53.7	-55.0	15.2	0.00e+00	0	31	0	289406976	73	4232
2026-01-03 02:00:14.23	21.21	17.53	-53.8	-55.1	15.2	0.00e+00	0	31	0	291504128	73	4275
2026-01-03 02:00:15.23	21.12	17.64	-53.7	-55.1	15.2	0.00e+00	0	31	0	293601280	73	4243
2026-01-03 02:00:16.22	21.04	17.75	-53.8	-55.1	15.2	0.00e+00	0	31	0	294649856	73	4261
2026-01-03 02:00:17.22	20.95	17.86	-53.8	-55.2	15.2	0.00e+00	0	31	0	296747008	73	4299
2026-01-03 02:00:18.21	20.86	17.97	-53.8	-55.1	15.2	0.00e+00	0	31	0	298844160	73	4247
2026-01-03 02:00:19.21	20.78	18.08	-53.8	-55.2	15.1	0.00e+00	0	31	0	300941312	73	4310
2026-01-03 02:00:20.20	20.69	18.19	-53.8	-55.2	15.2	0.00e+00	0	31	0	303038464	73	4307
2026-01-03 02:00:21.21	20.60	18.31	-53.9	-55.3	15.1	0.00e+00	0	31	0	304087040	73	4356
2026-01-03 02:00:22.21	20.51	18.42	-53.9	-55.2	15.1	0.00e+00	0	31	0	306184192	73	4336
2026-01-03 02:00:23.20	20.42	18.53	-54.0	-55.4	15.1	0.00e+00	0	31	0	308281344	73	4408
2026-01-03 02:00:24.20	20.33	18.65	-54.0	-55.4	15.1	0.00e+00	0	31	0	310378496	73	4398
2026-01-03 02:00:25.19	20.24	18.76	-54.1	-55.4	15.0	0.00e+00	0	31	0	311427072	73	4437
2026-01-03 02:00:26.19	20.14	18.87	-54.1	-55.5	15.0	0.00e+00	0	31	0	313524224	73	4483
2026-01-03 02:00:27.18	20.05	18.99	-54.1	-55.5	15.0	0.00e+00	0	31	0	315621376	73	4493
2026-01-03 02:00:28.18	19.95	19.10	-54.2	-55.7	15.0	0.00e+00	0	31	0	317718528	73	4552
2026-01-03 02:00:29.18	19.86	19.22	-54.2	-55.7	14.9	0.00e+00	0	31	0	319815680	73	4555
2026-01-03 02:00:30.18	19.76	19.34	-54.3	-55.8	14.9	0.00e+00	0	31	0	320864256	73	4613
2026-01-03 02:00:31.17	19.67	19.45	-54.3	-55.8	14.9	0.00e+00	0	31	0	322961408	73	4632
2026-01-03 02:00:32.17	19.57	19.57	-54.4	-55.8	14.9	0.00e+00	0	31	0	325058560	73	4636
2026-01-03 02:00:33.16	19.47	19.69	-54.4	-55.8	14.9	0.00e+00	0	31	0	327155712	74	4381
2026-01-03 02:00:34.15	19.38	19.80	-54.5	-56.0	14.9	0.00e+00	0	31	0	329252864	74	4442
2026-01-03 02:00:35.15	19.28	19.92	-54.4	-55.9	15.0	0.00e+00	0	31	0	330301440	74	4408
2026-01-03 02:00:36.15	19.17	20.04	-54.5	-56.0	14.9	0.00e+00	0	31	0	332398592	74	4478
2026-01-03 02:00:37.15	19.07	20.16	-54.6	-56.1	14.8	0.00e+00	0	31	0	334495744	74	4543
2026-01-03 02:00:38.14	18.97	20.28	-54.7	-56.2	14.8	0.00e+00	0	31	0	336592896	74	4572
2026-01-03 02:00:39.15	18.87	20.40	-54.6	-56.1	14.8	0.00e+00	0	31	0	337641472	74	4533
2026-01-03 02:00:40.15	18.76	20.52	-54.7	-56.2	14.8	0.00e+00	0	31	0	339738624	74	4562
2026-01-03 02:00:41.15	18.66	20.64	-54.7	-56.2	14.8	0.00e+00	0	31	0	341835776	74	4570
2026-01-03 02:00:42.14	18.55	20.76	-54.7	-56.3	14.8	0.00e+00	0	31	0	343932928	74	4599
2026-01-03 02:00:43.14	18.45	20.89	-54.7	-56.2	14.8	0.00e+00	0	31	0	346030080	74	4587
2026-01-03 02:00:44.14	18.34	21.01	-54.8	-56.3	14.8	0.00e+00	0	31	0	347078656	74	4631
2026-01-03 02:00:45.14	18.23	21.13	-54.7	-56.3	14.8	0.00e+00	0	31	0	349175808	74	4610
2026-01-03 02:00:46.14	18.12	21.26	-54.9	-56.4	14.7	0.00e+00	0	31	0	351272960	74	4701
2026-01-03 02:00:47.15	18.01	21.38	-54.8	-56.4	14.7	0.00e+00	0	31	0	353370112	74	4676
2026-01-03 02:00:48.14	17.90	21.51	-54.9	-56.5	14.7	0.00e+00	0	31	0	354418688	74	4729
2026-01-03 02:00:49.14	17.79	21.63	-54.9	-56.5	14.8	0.00e+00	0	31	0	356515840	75	4447
2026-01-03 02:00:50.14	17.68	21.76	-54.9	-56.5	14.8	0.00e+00	0	31	0	358612992	75	4474
2026-01-03 02:00:51.14	17.56	21.88	-54.9	-56.5	14.8	0.00e+00	0	31	0	360710144	75	4445
2026-01-03 02:00:52.13	17.45	22.01	-54.9	-56.4	14.8	0.00e+00	0	31	0	362807296	75	4438
2026-01-03 02:00:53.13	17.33	22.14	-54.8	-56.4	14.8	0.00e+00	0	30	0	363855872	75	4412
2026-01-03 02:00:54.13	17.22	22.26	-55.0	-56.6	14.7	0.00e+00	0	31	0	365953024	75	4500
2026-01-03 02:00:55.13	17.10	22.39	-54.9	-56.5	14.8	0.00e+00	0	31	0	368050176	75	4442
2026-01-03 02:00:56.13	16.98	22.52	-54.9	-56.5	14.8	0.00e+00	0	31	0	370147328	75	4447
2026-01-03 02:00:57.12	16.86	22.65	-54.9	-56.4	14.8	0.00e+00	0	31	0	372244480	75	4432
2026-01-03 02:00:58.11	16.74	22.78	-54.8	-56.4	14.9	0.00e+00	0	31	0	373293056	75	4404
2026-01-03 02:00:59.11	16.62	22.91	-54.8	-56.4	14.9	0.00e+00	0	31	0	375390208	75	4410
2026-01-03 02:01:00.11	16.50	23.04	-54.8	-56.3	14.9	0.00e+00	0	31	0	377487360	75	4352
2026-01-03 02:01:01.10	16.38	23.17	-54.8	-56.3	14.9	0.00e+00	0	31	0	379584512	75	4358
2026-01-03 02:01:02.09	16.25	23.30	-54.7	-56.2	14.9	0.00e+00	0	31	0	380633088	75	4338
2026-01-03 02:01:03.09	16.13	23.43	-54.9	-56.5	14.8	0.00e+00	0	31	0	382730240	75	4447
2026-01-03 02:01:04.10	16.00	23.57	-54.8	-56.4	14.9	0.00e+00	0	31	0	384827392	75	4413
2026-01-03 02:01:05.09	15.87	23.70	-54.9	-56.5	14.8	0.00e+00	0	31	0	386924544	75	4457
2026-01-03 02:01:06.09	15.74	23.84	-55.0	-56.6	14.8	0.00e+00	0	31	0	389021696	75	4516
2026-01-03 02:01:07.08	15.61	23.97	-54.9	-56.5	14.8	0.00e+00	0	31	0	390070272	75	4469
2026-01-03 02:01:08.08	15.48	24.10	-55.0	-56.6	14.7	0.00e+00	0	31	0	392167424	75	4509
2026-01-03 02:01:09.08	15.35	24.24	-55.1	-56.7	14.7	0.00e+00	0	31	0	394264576	75	4596
2026-01-03 02:01:10.07	15.21	24.37	-55.1	-56.7	14.7	0.00e+00	0	31	0	396361728	75	4586
2026-01-03 02:01:11.07	15.08	24.51	-55.1	-56.8	14.7	0.00e+00	0	31	0	397410304	75	4602
2026-01-03 02:01:12.06	14.94	24.65	-55.1	-56.8	14.7	0.00e+00	0	31	0	399507456	75	4610
2026-01-03 02:01:13.07	14.81	24.79	-55.0	-56.7	14.7	0.00e+00	0	31	0	401604608	75	4552
2026-01-03 02:01:14.06	14.67	24.92	-55.2	-56.9	14.6	0.00e+00	0	31	0	403701760	75	4667
2026-01-03 02:01:15.07	14.53	25.06	-55.1	-56.7	14.8	0.00e+00	0	31	0	405798912	75	4557
2026-01-03 02:01:16.06	14.39	25.20	-55.2	-56.8	14.7	0.00e+00	0	31	0	406847488	75	4651
2026-01-03 02:01:17.06	14.24	25.34	-55.3	-57.0	14.6	0.00e+00	0	31	0	408944640	75	4718
2026-01-03 02:01:18.06	14.10	25.48	-55.5	-57.2	14.6	0.00e+00	0	31	0	411041792	76	4594
2026-01-03 02:01:19.06	13.95	25.62	-55.5	-57.2	14.6	0.00e+00	0	31	0	413138944	76	4595
2026-01-03 02:01:20.05	13.81	25.76	-55.4	-57.1	14.6	0.00e+00	0	31	0	415236096	76	4536
2026-01-03 02:01:21.05	13.66	25.91	-55.4	-57.1	14.6	0.00e+00	0	31	0	416284672	76	4540
2026-01-03 02:01:22.05	13.51	26.05	-55.4	-57.1	14.7	0.00e+00	0	31	0	418381824	76	4502
2026-01-03 02:01:23.05	13.36	26.19	-55.3	-57.0	14.7	0.00e+00	0	31	0	420478976	76	4446
2026-01-03 02:01:24.05	13.21	26.34	-55.4	-57.0	14.7	0.00e+00	0	31	0	422576128	76	4490
2026-01-03 02:01:25.05	13.05	26.48	-55.3	-56.9	14.7	0.00e+00	0	31	0	424673280	76	4431
2026-01-03 02:01:26.05	12.90	26.63	-55.4	-57.1	14.7	0.00e+00	0	31	0	425721856	76	4528
2026-01-03 02:01:27.05	12.74	26.77	-55.5	-57.2	14.6	0.00e+00	0	31	0	427819008	76	4571
2026-01-03 02:01:28.04	12.59	26.92	-55.5	-57.2	14.6	0.00e+00	0	31	0	429916160	76	4567
2026-01-03 02:01:29.03	12.43	27.06	-55.6	-57.3	14.6	0.00e+00	0	31	0	432013312	76	4617
2026-01-03 02:01:30.03	12.27	27.21	-55.6	-57.4	14.5	0.00e+00	0	31	0	433061888	76	4659
2026-01-03 02:01:31.02	12.11	27.36	-55.4	-57.1	14.6	0.00e+00	0	31	0	435159040	76	4523
2026-01-03 02:01:32.03	11.94	27.50	-55.5	-57.2	14.6	0.00e+00	0	31	0	437256192	76	4583
2026-01-03 02:01:33.03	11.78	27.65	-55.3	-57.0	14.7	0.00e+00	0	31	0	439353344	76	4460
2026-01-03 02:01:34.03	11.61	27.80	-55.2	-56.8	14.8	0.00e+00	0	31	0	441450496	76	4380
2026-01-03 02:01:35.04	11.44	27.95	-55.1	-56.7	14.8	0.00e+00	0	31	0	442499072	76	4323
2026-01-03 02:01:36.05	11.27	28.11	-55.2	-56.7	14.8	0.00e+00	0	31	0	444596224	76	4330
2026-01-03 02:01:37.05	11.09	28.26	-55.1	-56.7	14.8	0.00e+00	0	31	0	446693376	76	4315
2026-01-03 02:01:38.05	10.92	28.41	-55.1	-56.7	14.9	0.00e+00	0	31	0	448790528	76	4301
2026-01-03 02:01:39.06	10.74	28.56	-55.1	-56.6	14.9	0.00e+00	0	31	0	450887680	76	4285
2026-01-03 02:01:40.06	10.57	28.71	-55.0	-56.5	14.9	0.00e+00	0	31	0	451936256	76	4239
2026-01-03 02:01:41.07	10.38	28.87	-55.2	-56.8	14.8	0.00e+00	0	31	0	454033408	76	4353
2026-01-03 02:01:42.08	10.20	29.02	-55.1	-56.7	14.9	0.00e+00	0	31	0	456130560	76	4301
2026-01-03 02:01:43.08	10.02	29.18	-55.2	-56.7	14.8	0.00e+00	0	31	0	458227712	76	4321
2026-01-03 02:01:44.08	9.84	29.33	-55.4	-57.1	14.7	0.00e+00	0	31	0	459276288	76	4497
2026-01-03 02:01:45.08	9.65	29.49	-55.5	-57.2	14.6	0.00e+00	0	31	0	461373440	76	4565
2026-01-03 02:01:46.09	9.46	29.64	-55.5	-57.2	14.6	0.00e+00	0	31	0	463470592	76	4565
2026-01-03 02:01:47.09	9.27	29.80	-55.5	-57.2	14.6	0.00e+00	0	31	0	465567744	76	4583
2026-01-03 02:01:48.09	9.08	29.96	-55.6	-57.3	14.6	0.00e+00	0	31	0	467664896	76	4641
2026-01-03 02:01:49.09	8.89	30.11	-55.6	-57.3	14.6	0.00e+00	0	31	0	468713472	76	4618
2026-01-03 02:01:50.09	8.69	30.27	-55.7	-57.4	14.5	0.00e+00	0	31	0	470810624	76	4662
2026-01-03 02:01:51.09	8.49	30.43	-55.7	-57.4	14.5	0.00e+00	0	31	0	472907776	76	4697
2026-01-03 02:01:52.10	8.29	30.59	-55.7	-57.5	14.5	0.00e+00	0	31	0	475004928	76	4728
2026-01-03 02:01:53.11	8.09	30.75	-55.8	-57.6	14.5	0.00e+00	0	31	0	477102080	76	4780
2026-01-03 02:01:54.11	7.88	30.91	-55.9	-57.7	14.4	0.00e+00	0	31	0	478150656	77	4588
2026-01-03 02:01:55.11	7.68	31.07	-55.9	-57.7	14.4	0.00e+00	0	31	0	480247808	77	4555
2026-01-03 02:01:56.12	7.47	31.23	-56.0	-57.9	14.4	0.00e+00	0	31	0	482344960	77	4662
2026-01-03 02:01:57.12	7.26	31.39	-56.1	-58.0	14.3	0.00e+00	0	31	0	484442112	77	4717
2026-01-03 02:01:58.12	7.05	31.55	-56.2	-58.1	14.3	0.00e+00	0	31	0	486539264	77	4789
2026-01-03 02:01:59.12	6.83	31.72	-56.2	-58.2	14.3	0.00e+00	0	31	0	487587840	77	4815
2026-01-03 02:02:00.12	6.62	31.88	-56.3	-58.3	14.2	0.00e+00	0	31	0	489684992	77	4875
2026-01-03 02:02:01.12	6.40	32.04	-56.3	-58.3	14.2	0.00e+00	0	31	0	491782144	78	4622
2026-01-03 02:02:02.12	6.18	32.20	-56.4	-58.5	14.1	0.00e+00	0	31	0	493879296	78	4706
2026-01-03 02:02:03.13	5.95	32.37	-56.4	-58.3	14.2	0.00e+00	0	31	0	495976448	78	4630
2026-01-03 02:02:04.13	5.73	32.53	-56.5	-58.5	14.1	0.00e+00	0	31	0	497025024	78	4733
2026-01-03 02:02:05.13	5.50	32.70	-56.4	-58.4	14.2	0.00e+00	0	31	0	499122176	78	4695
2026-01-03 02:02:06.13	5.27	32.86	-56.3	-58.3	14.3	0.00e+00	0	31	0	501219328	78	4608
2026-01-03 02:02:07.14	5.04	33.03	-56.5	-58.5	14.1	0.00e+00	0	31	0	503316480	78	4720
2026-01-03 02:02:08.15	4.80	33.19	-56.4	-58.4	14.2	0.00e+00	0	31	0	505413632	78	4686
2026-01-03 02:02:09.14	4.56	33.36	-56.3	-58.3	14.3	0.00e+00	0	31	0	506462208	78	4617
2026-01-03 02:02:10.15	4.32	33.53	-56.4	-58.3	14.2	0.00e+00	0	31	0	508559360	78	4647
2026-01-03 02:02:11.15	4.08	33.69	-56.2	-58.1	14.3	0.00e+00	0	31	0	510656512	78	4545
2026-01-03 02:02:12.15	3.84	33.86	-56.1	-58.0	14.4	0.00e+00	0	31	0	512753664	78	4464
2026-01-03 02:02:13.15	3.59	34.03	-56.1	-57.9	14.5	0.00e+00	0	31	0	514850816	78	4399
2026-01-03 02:02:14.15	3.34	34.19	-56.2	-58.0	14.4	0.00e+00	0	31	0	515899392	78	4484
2026-01-03 02:02:15.16	3.08	34.36	-56.2	-58.1	14.4	0.00e+00	0	31	0	517996544	78	4531
2026-01-03 02:02:16.16	2.83	34.53	-56.3	-58.2	14.3	0.00e+00	0	31	0	520093696	78	4582
2026-01-03 02:02:17.16	2.57	34.70	-56.3	-58.2	14.3	0.00e+00	0	31	0	522190848	78	4564
2026-01-03 02:02:18.16	2.31	34.86	-56.2	-58.1	14.4	0.00e+00	0	31	0	523239424	78	4516
2026-01-03 02:02:19.17	2.05	35.03	-56.3	-58.2	14.4	0.00e+00	0	31	0	525336576	78	4555
2026-01-03 02:02:20.16	1.78	35.20	-56.2	-58.1	14.4	0.00e+00	0	31	0	527433728	78	4500
2026-01-03 02:02:21.17	1.51	35.37	-56.2	-58.1	14.4	0.00e+00	0	31	0	529530880	78	4526
2026-01-03 02:02:22.18	1.24	35.54	-56.3	-58.2	14.3	0.00e+00	0	31	0	531628032	78	4584
2026-01-03 02:02:23.18	0.96	35.71	-56.4	-58.4	14.2	0.00e+00	0	31	0	532676608	78	4666
2026-01-03 02:02:24.18	0.69	35.88	-56.4	-58.3	14.3	0.00e+00	0	31	0	534773760	78	4629
2026-01-03 02:02:25.18	0.41	36.05	-56.2	-58.1	14.4	0.00e+00	0	31	0	536870912	78	4513
2026-01-03 02:02:26.18	0.12	36.22	-56.0	-57.8	14.5	0.00e+00	0	31	0	538968064	78	4373
2026-01-03 02:02:27.18	359.84	36.39	-56.1	-57.8	14.5	0.00e+00	0	31	0	541065216	78	4384
2026-01-03 02:02:28.19	359.54	36.56	-56.1	-57.9	14.5	0.00e+00	0	31	0	542113792	78	4412
2026-01-03 02:02:29.18	359.25	36.73	-56.1	-57.9	14.5	0.00e+00	0	31	0	544210944	78	4430
2026-01-03 02:02:30.19	358.96	36.90	-56.1	-57.9	14.5	0.00e+00	0	31	0	546308096	78	4394
2026-01-03 02:02:31.20	358.66	37.07	-56.1	-57.9	14.5	0.00e+00	0	31	0	548405248	78	4403
2026-01-03 02:02:32.19	358.36	37.24	-55.9	-57.6	14.7	0.00e+00	0	31	0	550502400	78	4291
2026-01-03 02:02:33.20	358.05	37.41	-55.9	-57.7	14.6	0.00e+00	0	31	0	551550976	78	4314
2026-01-03 02:02:34.20	357.74	37.58	-55.8	-57.5	14.7	0.00e+00	0	31	0	553648128	78	4218
2026-01-03 02:02:35.20	357.43	37.75	-56.0	-57.8	14.6	0.00e+00	0	31	0	555745280	78	4374
2026-01-03 02:02:36.20	357.11	37.92	-55.9	-57.7	14.6	0.00e+00	0	31	0	557842432	78	4317
2026-01-03 02:02:37.20	356.80	38.09	-55.9	-57.6	14.6	0.00e+00	0	31	0	559939584	78	4273
2026-01-03 02:02:38.21	356.47	38.26	-55.7	-57.3	14.8	0.00e+00	0	31	0	560988160	77	4369
2026-01-03 02:02:39.21	356.15	38.43	-55.5	-57.1	14.8	0.00e+00	0	31	0	563085312	77	4278
2026-01-03 02:02:40.21	355.82	38.59	-55.5	-57.1	14.9	0.00e+00	0	31	0	565182464	77	4244
2026-01-03 02:02:41.21	355.49	38.76	-55.6	-57.2	14.8	0.00e+00	0	31	0	567279616	77	4307
2026-01-03 02:02:42.21	355.15	38.93	-55.5	-57.1	14.9	0.00e+00	0	31	0	568328192	77	4257
2026-01-03 02:02:43.22	354.81	39.10	-55.5	-57.0	14.9	0.00e+00	0	31	0	570425344	77	4238
2026-01-03 02:02:44.22	354.47	39.27	-55.4	-57.0	14.9	0.00e+00	0	31	0	572522496	77	4209
2026-01-03 02:02:45.22	354.12	39.43	-55.6	-57.2	14.8	0.00e+00	0	31	0	574619648	77	4293
2026-01-03 02:02:46.22	353.77	39.60	-55.8	-57.4	14.7	0.00e+00	0	31	0	576716800	77	4440
2026-01-03 02:02:47.23	353.42	39.77	-56.0	-57.7	14.6	0.00e+00	0	31	0	577765376	77	4578
2026-01-03 02:02:48.23	353.06	39.93	-56.1	-57.9	14.5	0.00e+00	0	31	0	579862528	77	4679
2026-01-03 02:02:49.24	352.70	40.10	-56.2	-58.1	14.4	0.00e+00	0	31	0	581959680	77	4768
2026-01-03 02:02:50.24	352.33	40.26	-56.1	-57.9	14.5	0.00e+00	0	31	0	584056832	77	4677
2026-01-03 02:02:51.24	351.97	40.43	-55.9	-57.6	14.6	0.00e+00	0	31	0	586153984	77	4522
2026-01-03 02:02:52.25	351.59	40.59	-55.9	-57.7	14.6	0.00e+00	0	31	0	587202560	77	4555
2026-01-03 02:02:53.26	351.21	40.76	-56.1	-57.9	14.5	0.00e+00	0	31	0	589299712	77	4679
2026-01-03 02:02:54.26	350.83	40.92	-56.4	-58.3	14.3	0.00e+00	0	31	0	591396864	78	4617
2026-01-03 02:02:55.26	350.45	41.08	-56.5	-58.5	14.3	0.00e+00	0	31	0	593494016	78	4708
2026-01-03 02:02:56.26	350.06	41.24	-56.5	-58.4	14.2	0.00e+00	0	31	0	595591168	78	4702
2026-01-03 02:02:57.26	349.67	41.40	-56.5	-58.4	14.3	0.00e+00	0	31	0	596639744	78	4676
2026-01-03 02:02:58.26	349.28	41.56	-56.4	-58.3	14.4	0.00e+00	0	31	0	598736896	78	4604
2026-01-03 02:02:59.27	348.87	41.72	-56.3	-58.1	14.4	0.00e+00	0	31	0	600834048	78	4545
2026-01-03 02:03:00.27	348.47	41.88	-56.4	-58.3	14.3	0.00e+00	0	31	0	602931200	78	4647
2026-01-03 02:03:01.27	348.07	42.03	-56.5	-58.5	14.3	0.00e+00	0	31	0	605028352	78	4715
2026-01-03 02:03:02.27	347.65	42.19	-56.6	-58.5	14.2	0.00e+00	0	31	0	606076928	78	4734
2026-01-03 02:03:03.28	347.24	42.34	-56.4	-58.2	14.4	0.00e+00	0	31	0	608174080	78	4588
2026-01-03 02:03:04.27	346.82	42.50	-56.1	-57.9	14.5	0.00e+00	0	31	0	610271232	78	4404
2026-01-03 02:03:05.27	346.40	42.65	-55.7	-57.4	14.8	0.00e+00	0	31	0	612368384	78	4146
2026-01-03 02:03:06.28	345.97	42.80	-55.5	-57.0	14.9	0.00e+00	0	31	0	613416960	77	4241
2026-01-03 02:03:07.28	345.54	42.95	-55.4	-56.9	15.0	0.00e+00	0	31	0	615514112	77	4184
2026-01-03 02:03:08.28	345.10	43.10	-55.3	-56.7	15.1	0.00e+00	0	31	0	617611264	77	4096
2026-01-03 02:03:09.28	344.66	43.24	-55.1	-56.5	15.1	0.00e+00	0	31	0	619708416	76	4210
2026-01-03 02:03:10.29	344.22	43.39	-54.8	-56.1	15.3	0.00e+00	0	31	0	621805568	76	4028
2026-01-03 02:03:11.29	343.77	43.54	-54.5	-55.8	15.3	0.00e+00	0	31	0	622854144	75	4131
2026-01-03 02:03:12.29	343.32	43.68	-54.4	-55.6	15.4	0.00e+00	0	31	0	624951296	75	4049
2026-01-03 02:03:13.29	342.86	43.82	-54.4	-55.7	15.4	0.00e+00	0	31	0	627048448	75	4057
2026-01-03 02:03:14.30	342.40	43.96	-54.5	-55.8	15.3	0.00e+00	0	31	0	629145600	75	4119
2026-01-03 02:03:15.30	341.94	44.10	-54.7	-56.0	15.2	0.00e+00	0	31	0	631242752	75	4218
2026-01-03 02:03:16.31	341.47	44.24	-54.6	-55.9	15.3	0.00e+00	0	31	0	632291328	75	4151
2026-01-03 02:03:17.31	340.99	44.37	-54.6	-55.9	15.3	0.00e+00	0	31	0	634388480	75	4161
2026-01-03 02:03:18.31	340.52	44.50	-54.7	-56.0	15.3	0.00e+00	0	31	0	636485632	75	4219
2026-01-03 02:03:19.30	340.05	44.63	-54.7	-56.1	15.2	0.00e+00	0	31	0	638582784	75	4258
2026-01-03 02:03:20.29	339.57	44.76	-54.5	-55.8	15.3	0.00e+00	0	31	0	640679936	75	4127
2026-01-03 02:03:21.29	339.08	44.89	-54.2	-55.4	15.4	0.00e+00	0	31	0	641728512	74	4187
2026-01-03 02:03:22.28	338.59	45.01	-54.0	-55.2	15.5	0.00e+00	0	31	0	643825664	74	4052
2026-01-03 02:03:23.29	338.09	45.14	-53.9	-55.1	15.5	0.00e+00	0	31	0	645922816	74	4020
2026-01-03 02:03:24.29	337.60	45.26	-54.4	-55.6	15.4	0.00e+00	0	31	0	648019968	74	4286
2026-01-03 02:03:25.30	337.09	45.38	-54.9	-56.3	15.1	0.00e+00	0	31	0	649068544	74	4633
2026-01-03 02:03:26.30	336.58	45.50	-55.6	-57.2	14.8	0.00e+00	0	31	0	651165696	76	4551
2026-01-03 02:03:27.30	336.07	45.62	-55.7	-57.3	14.8	0.00e+00	0	31	0	653262848	76	4635
2026-01-03 02:03:28.30	335.56	45.73	-55.7	-57.4	14.8	0.00e+00	0	31	0	655360000	76	4668
2026-01-03 02:03:29.30	335.04	45.84	-55.8	-57.4	14.7	0.00e+00	0	31	0	657457152	76	4681
2026-01-03 02:03:30.29	334.52	45.95	-55.7	-57.3	14.8	0.00e+00	0	31	0	658505728	76	4634
2026-01-03 02:03:31.29	334.00	46.05	-55.8	-57.5	14.7	0.00e+00	0	31	0	660602880	76	4725
2026-01-03 02:03:32.29	333.47	46.16	-56.1	-57.8	14.6	0.00e+00	0	31	0	662700032	77	4624
2026-01-03 02:03:33.29	332.94	46.26	-56.1	-57.9	14.6	0.00e+00	0	31	0	664797184	77	4655
2026-01-03 02:03:34.30	332.40	46.36	-56.2	-57.9	14.5	0.00e+00	0	31	0	666894336	77	4696
2026-01-03 02:03:35.30	331.86	46.45	-56.5	-58.4	14.3	0.00e+00	0	31	0	667942912	78	4698
2026-01-03 02:03:36.30	331.32	46.55	-57.1	-59.3	13.9	0.00e+00	0	31	0	670040064	79	4903
2026-01-03 02:03:37.30	330.77	46.64	-57.2	-59.5	13.8	0.00e+00	0	31	0	672137216	79	5007
2026-01-03 02:03:38.29	330.23	46.73	-57.3	-59.7	13.7	0.00e+00	0	31	0	674234368	79	5107
2026-01-03 02:03:39.29	329.68	46.81	-57.3	-59.6	13.8	0.00e+00	0	31	0	675282944	80	4789
2026-01-03 02:03:40.28	329.13	46.89	-57.2	-59.4	13.8	0.00e+00	0	31	0	677380096	80	4694
2026-01-03 02:03:41.28	328.57	46.97	-57.1	-59.2	13.9	0.00e+00	0	31	0	679477248	80	4597
2026-01-03 02:03:42.28	328.01	47.05	-57.0	-59.2	14.0	0.00e+00	0	31	0	681574400	80	4570
2026-01-03 02:03:43.28	327.45	47.13	-57.1	-59.3	13.9	0.00e+00	0	31	0	683671552	80	4621
2026-01-03 02:03:44.28	326.88	47.20	-57.2	-59.4	13.9	0.00e+00	0	31	0	684720128	80	4662
2026-01-03 02:03:45.28	326.32	47.27	-57.3	-59.6	13.8	0.00e+00	0	31	0	686817280	80	4772
2026-01-03 02:03:46.28	325.75	47.33	-57.3	-59.5	13.8	0.00e+00	0	31	0	688914432	80	4754
2026-01-03 02:03:47.28	325.17	47.39	-57.1	-59.3	14.0	0.00e+00	0	31	0	691011584	80	4600
2026-01-03 02:03:48.28	324.60	47.45	-56.9	-59.0	14.1	0.00e+00	0	31	0	693108736	80	4467
2026-01-03 02:03:49.27	324.03	47.51	-57.0	-59.1	14.0	0.00e+00	0	31	0	694157312	80	4537
2026-01-03 02:03:50.27	323.45	47.56	-57.2	-59.5	13.8	0.00e+00	0	31	0	696254464	80	4714
2026-01-03 02:03:51.26	322.87	47.61	-57.3	-59.5	13.9	0.00e+00	0	31	0	698351616	80	4751
2026-01-03 02:03:52.26	322.29	47.66	-57.3	-59.5	13.8	0.00e+00	0	31	0	700448768	80	4750
2026-01-03 02:03:53.26	321.70	47.70	-57.1	-59.3	14.0	0.00e+00	0	31	0	702545920	80	4610
2026-01-03 02:03:54.26	321.12	47.74	-56.9	-59.0	14.2	0.00e+00	0	31	0	703594496	80	4468
2026-01-03 02:03:55.26	320.53	47.78	-56.8	-58.8	14.2	0.00e+00	0	31	0	705691648	80	4387
2026-01-03 02:03:56.26	319.94	47.82	-56.7	-58.7	14.3	0.00e+00	0	31	0	707788800	79	4575
2026-01-03 02:03:57.25	319.35	47.85	-56.4	-58.3	14.4	0.00e+00	0	31	0	709885952	79	4367
2026-01-03 02:03:58.25	318.76	47.87	-56.4	-58.3	14.5	0.00e+00	0	31	0	710934528	79	4353
2026-01-03 02:03:59.25	318.17	47.90	-56.4	-58.3	14.5	0.00e+00	0	31	0	713031680	79	4350
2026-01-03 02:04:00.25	317.58	47.92	-56.6	-58.6	14.3	0.00e+00	0	31	0	715128832	79	4508
2026-01-03 02:04:01.25	316.98	47.94	-57.0	-59.1	14.0	0.00e+00	0	31	0	717225984	79	4813
2026-01-03 02:04:02.26	316.38	47.95	-57.2	-59.5	13.9	0.00e+00	0	31	0	719323136	79	5005
2026-01-03 02:04:03.26	315.79	47.96	-57.4	-59.7	13.7	0.00e+00	0	31	0	720371712	79	5135
2026-01-03 02:04:04.26	315.19	47.97	-57.1	-59.2	14.1	0.00e+00	0	31	0	722468864	80	4556
2026-01-03 02:04:05.26	314.59	47.97	-56.9	-58.9	14.2	0.00e+00	0	31	0	724566016	80	4416
2026-01-03 02:04:06.27	313.99	47.97	-56.7	-58.6	14.4	0.00e+00	0	31	0	726663168	80	4273
2026-01-03 02:04:07.27	313.40	47.97	-56.5	-58.4	14.5	0.00e+00	0	31	0	728760320	79	4401
2026-01-03 02:04:08.27	312.80	47.97	-56.2	-57.9	14.7	0.00e+00	0	31	0	729808896	79	4192
2026-01-03 02:04:09.27	312.21	47.96	-56.2	-58.0	14.6	0.00e+00	0	31	0	731906048	78	4455
2026-01-03 02:04:10.26	311.62	47.94	-55.9	-57.5	14.8	0.00e+00	0	31	0	734003200	78	4234
2026-01-03 02:04:11.25	311.03	47.93	-56.1	-57.8	14.7	0.00e+00	0	31	0	736100352	78	4356
2026-01-03 02:04:12.26	310.43	47.91	-56.5	-58.4	14.4	0.00e+00	0	31	0	738197504	78	4670
2026-01-03 02:04:13.26	309.83	47.88	-57.0	-59.1	14.1	0.00e+00	0	31	0	739246080	79	4807
2026-01-03 02:04:14.25	309.25	47.86	-57.1	-59.3	13.9	0.00e+00	0	31	0	741343232	79	4902
2026-01-03 02:04:15.25	308.66	47.83	-57.1	-59.2	14.0	0.00e+00	0	31	0	743440384	79	4829
2026-01-03 02:04:16.25	308.07	47.80	-56.9	-59.0	14.1	0.00e+00	0	31	0	745537536	79	4716
2026-01-03 02:04:17.26	307.47	47.76	-56.6	-58.5	14.4	0.00e+00	0	31	0	746586112	79	4450
2026-01-03 02:04:18.26	306.88	47.72	-56.5	-58.3	14.5	0.00e+00	0	31	0	748683264	79	4384
2026-01-03 02:04:19.25	306.31	47.68	-56.3	-58.1	14.6	0.00e+00	0	31	0	750780416	79	4291
2026-01-03 02:04:20.25	305.72	47.63	-56.4	-58.2	14.6	0.00e+00	0	31	0	752877568	79	4296
2026-01-03 02:04:21.26	305.13	47.58	-56.3	-58.1	14.6	0.00e+00	0	31	0	754974720	79	4251
2026-01-03 02:04:22.26	304.55	47.53	-56.7	-58.7	14.3	0.00e+00	0	31	0	756023296	79	4564
2026-01-03 02:04:23.25	303.98	47.48	-57.2	-59.3	13.9	0.00e+00	0	31	0	758120448	79	4920
2026-01-03 02:04:24.25	303.40	47.42	-57.4	-59.7	13.8	0.00e+00	0	31	0	760217600	80	4846
2026-01-03 02:04:25.24	302.84	47.36	-57.2	-59.3	14.0	0.00e+00	0	31	0	762314752	80	4638
2026-01-03 02:04:26.24	302.26	47.29	-57.0	-59.0	14.2	0.00e+00	0	31	0	763363328	80	4475
2026-01-03 02:04:27.23	301.70	47.23	-56.7	-58.6	14.4	0.00e+00	0	31	0	765460480	80	4280
2026-01-03 02:04:28.23	301.13	47.16	-56.9	-58.9	14.3	0.00e+00	0	31	0	767557632	79	4674
2026-01-03 02:04:29.23	300.57	47.08	-56.9	-58.9	14.2	0.00e+00	0	31	0	769654784	79	4670
2026-01-03 02:04:30.22	300.01	47.01	-57.0	-59.0	14.2	0.00e+00	0	31	0	771751936	79	4743
2026-01-03 02:04:31.22	299.45	46.93	-57.0	-59.0	14.2	0.00e+00	0	31	0	772800512	79	4737
2026-01-03 02:04:32.22	298.90	46.85	-57.3	-59.5	13.9	0.00e+00	0	31	0	774897664	79	5001
2026-01-03 02:04:33.23	298.34	46.76	-57.3	-59.5	13.9	0.00e+00	0	31	0	776994816	79	5018
2026-01-03 02:04:34.23	297.79	46.67	-57.3	-59.5	13.9	0.00e+00	0	31	0	779091968	80	4756
2026-01-03 02:04:35.22	297.25	46.58	-56.9	-58.9	14.2	0.00e+00	0	31	0	781189120	80	4429
2026-01-03 02:04:36.22	296.70	46.49	-56.6	-58.4	14.4	0.00e+00	0	31	0	782237696	79	4428
2026-01-03 02:04:37.21	296.17	46.40	-56.4	-58.2	14.6	0.00e+00	0	31	0	784334848	79	4317
2026-01-03 02:04:38.21	295.63	46.30	-56.5	-58.4	14.5	0.00e+00	0	31	0	786432000	79	4413
2026-01-03 02:04:39.21	295.10	46.20	-56.5	-58.4	14.5	0.00e+00	0	31	0	788529152	79	4416
2026-01-03 02:04:40.21	294.57	46.10	-56.7	-58.7	14.3	0.00e+00	0	31	0	789577728	79	4550
2026-01-03 02:04:41.20	294.05	45.99	-56.6	-58.5	14.4	0.00e+00	0	31	0	791674880	79	4467
2026-01-03 02:04:42.21	293.52	45.88	-56.4	-58.3	14.5	0.00e+00	0	31	0	793772032	79	4356
2026-01-03 02:04:43.21	293.00	45.77	-56.3	-58.1	14.6	0.00e+00	0	31	0	795869184	79	4268
2026-01-03 02:04:44.20	292.49	45.66	-56.1	-57.8	14.7	0.00e+00	0	31	0	797966336	78	4365
2026-01-03 02:04:45.20	291.98	45.55	-55.7	-57.3	14.9	0.00e+00	0	31	0	799014912	78	4126
2026-01-03 02:04:46.20	291.47	45.43	-55.7	-57.2	14.9	0.00e+00	0	31	0	801112064	77	4333
2026-01-03 02:04:47.20	290.96	45.31	-55.6	-57.1	15.0	0.00e+00	0	31	0	803209216	77	4285
2026-01-03 02:04:48.19	290.47	45.19	-55.5	-57.0	15.1	0.00e+00	0	31	0	805306368	77	4232
2026-01-03 02:04:49.19	289.97	45.07	-55.6	-57.1	15.0	0.00e+00	0	31	0	806354944	77	4286
2026-01-03 02:04:50.19	289.48	44.94	-55.6	-57.1	15.0	0.00e+00	0	31	0	808452096	77	4266
2026-01-03 02:04:51.20	288.98	44.81	-55.3	-56.7	15.2	0.00e+00	0	31	0	810549248	77	4089
2026-01-03 02:04:52.20	288.50	44.69	-55.1	-56.4	15.2	0.00e+00	0	31	0	812646400	76	4184
2026-01-03 02:04:53.20	288.02	44.55	-54.8	-56.1	15.3	0.00e+00	0	31	0	814743552	76	4037
2026-01-03 02:04:54.19	287.54	44.42	-54.6	-55.8	15.4	0.00e+00	0	31	0	815792128	75	4140
2026-01-03 02:04:55.19	287.07	44.29	-54.5	-55.8	15.4	0.00e+00	0	31	0	817889280	75	4107
2026-01-03 02:04:56.19	286.60	44.15	-54.4	-55.6	15.5	0.00e+00	0	31	0	819986432	75	4042
2026-01-03 02:04:57.19	286.13	44.02	-54.3	-55.5	15.5	0.00e+00	0	31	0	822083584	75	3976
2026-01-03 02:04:58.19	285.67	43.88	-54.3	-55.6	15.5	0.00e+00	0	31	0	824180736	75	4018
2026-01-03 02:04:59.20	285.21	43.73	-54.3	-55.6	15.5	0.00e+00	0	31	0	825229312	75	4031
2026-01-03 02:05:00.19	284.76	43.59	-54.3	-55.5	15.5	0.00e+00	0	31	0	827326464	75	3983
2026-01-03 02:05:01.19	284.31	43.45	-53.8	-54.9	15.6	0.00e+00	0	31	0	829423616	74	3949
2026-01-03 02:05:02.19	283.87	43.30	-53.6	-54.7	15.6	0.00e+00	0	31	0	831520768	73	4081
2026-01-03 02:05:03.19	283.43	43.16	-53.6	-54.7	15.6	0.00e+00	0	31	0	833617920	73	4084
2026-01-03 02:05:04.19	282.99	43.01	-53.8	-54.9	15.6	0.00e+00	0	31	0	834666496	73	4174
2026-01-03 02:05:05.19	282.56	42.86	-53.8	-55.0	15.6	0.00e+00	0	31	0	836763648	73	4229
2026-01-03 02:05:06.19	282.13	42.71	-53.7	-54.8	15.6	0.00e+00	0	31	0	838860800	73	4118
2026-01-03 02:05:07.18	281.71	42.56	-53.5	-54.6	15.7	0.00e+00	0	31	0	840957952	73	4013
2026-01-03 02:05:08.18	281.29	42.41	-53.4	-54.5	15.8	0.00e+00	0	31	0	842006528	73	3959
2026-01-03 02:05:09.19	280.87	42.25	-53.3	-54.4	15.8	0.00e+00	0	31	0	844103680	73	3917
2026-01-03 02:05:10.18	280.46	42.10	-53.4	-54.4	15.8	0.00e+00	0	31	0	846200832	73	3947
2026-01-03 02:05:11.19	280.04	41.94	-53.4	-54.4	15.8	0.00e+00	0	31	0	848297984	73	3951
2026-01-03 02:05:12.19	279.64	41.78	-53.5	-54.6	15.7	0.00e+00	0	31	0	850395136	73	4021
2026-01-03 02:05:13.18	279.24	41.63	-53.7	-54.8	15.6	0.00e+00	0	31	0	851443712	73	4106
2026-01-03 02:05:14.18	278.84	41.47	-53.7	-54.8	15.6	0.00e+00	0	31	0	853540864	73	4121
2026-01-03 02:05:15.18	278.45	41.31	-53.5	-54.6	15.7	0.00e+00	0	31	0	855638016	73	4050
2026-01-03 02:05:16.17	278.07	41.15	-53.7	-54.8	15.6	0.00e+00	0	31	0	857735168	73	4130
2026-01-03 02:05:17.18	277.68	40.99	-53.6	-54.8	15.6	0.00e+00	0	31	0	859832320	73	4104
2026-01-03 02:05:18.17	277.30	40.83	-53.9	-55.1	15.5	0.00e+00	0	31	0	860880896	73	4254
2026-01-03 02:05:19.17	276.92	40.66	-54.1	-55.3	15.5	0.00e+00	0	31	0	862978048	73	4371
2026-01-03 02:05:20.17	276.55	40.50	-54.4	-55.7	15.4	0.00e+00	0	31	0	865075200	74	4339
2026-01-03 02:05:21.17	276.18	40.34	-54.3	-55.6	15.4	0.00e+00	0	31	0	867172352	74	4278
2026-01-03 02:05:22.18	275.81	40.17	-54.4	-55.7	15.4	0.00e+00	0	31	0	868220928	74	4321
2026-01-03 02:05:23.17	275.45	40.01	-54.1	-55.4	15.5	0.00e+00	0	31	0	870318080	74	4154
2026-01-03 02:05:24.17	275.09	39.84	-54.2	-55.4	15.4	0.00e+00	0	31	0	872415232	74	4191
2026-01-03 02:05:25.17	274.73	39.68	-54.1	-55.3	15.5	0.00e+00	0	31	0	874512384	74	4120
2026-01-03 02:05:26.16	274.38	39.51	-54.1	-55.3	15.5	0.00e+00	0	31	0	876609536	74	4142
2026-01-03 02:05:27.16	274.04	39.34	-54.3	-55.6	15.4	0.00e+00	0	31	0	877658112	74	4277
2026-01-03 02:05:28.15	273.70	39.18	-54.6	-55.9	15.3	0.00e+00	0	31	0	879755264	74	4438
2026-01-03 02:05:29.15	273.35	39.01	-54.5	-55.8	15.3	0.00e+00	0	31	0	881852416	74	4352
2026-01-03 02:05:30.14	273.02	38.84	-54.3	-55.5	15.4	0.00e+00	0	31	0	883949568	74	4239
2026-01-03 02:05:31.14	272.69	38.68	-54.0	-55.2	15.5	0.00e+00	0	31	0	884998144	74	4089
2026-01-03 02:05:32.14	272.36	38.51	-54.0	-55.3	15.5	0.00e+00	0	31	0	887095296	74	4105
2026-01-03 02:05:33.14	272.03	38.34	-54.1	-55.3	15.5	0.00e+00	0	31	0	889192448	74	4102
2026-01-03 02:05:34.13	271.71	38.17	-54.3	-55.5	15.4	0.00e+00	0	31	0	891289600	74	4219
2026-01-03 02:05:35.13	271.39	38.00	-54.6	-55.9	15.2	0.00e+00	0	31	0	893386752	74	4432
2026-01-03 02:05:36.13	271.07	37.83	-54.8	-56.3	15.1	0.00e+00	0	31	0	894435328	75	4346
2026-01-03 02:05:37.12	270.76	37.66	-55.1	-56.6	15.0	0.00e+00	0	31	0	896532480	75	4514
2026-01-03 02:05:38.12	270.45	37.49	-55.2	-56.7	15.0	0.00e+00	0	31	0	898629632	75	4571
2026-01-03 02:05:39.12	270.14	37.32	-55.1	-56.5	15.1	0.00e+00	0	31	0	900726784	75	4475
2026-01-03 02:05:40.11	269.84	37.16	-55.0	-56.5	15.1	0.00e+00	0	31	0	902823936	75	4446
2026-01-03 02:05:41.11	269.54	36.99	-55.1	-56.6	15.0	0.00e+00	0	31	0	903872512	75	4497
2026-01-03 02:05:42.12	269.24	36.81	-55.3	-56.9	14.9	0.00e+00	0	31	0	905969664	75	4662
2026-01-03 02:05:43.12	268.94	36.64	-55.8	-57.5	14.7	0.00e+00	0	31	0	908066816	76	4723
2026-01-03 02:05:44.12	268.65	36.47	-56.0	-57.7	14.6	0.00e+00	0	31	0	910163968	77	4596
2026-01-03 02:05:45.13	268.36	36.30	-56.1	-57.8	14.5	0.00e+00	0	31	0	912261120	77	4636
2026-01-03 02:05:46.12	268.08	36.13	-56.0	-57.8	14.6	0.00e+00	0	31	0	913309696	77	4620
2026-01-03 02:05:47.12	267.80	35.96	-56.1	-57.8	14.6	0.00e+00	0	31	0	915406848	77	4639
2026-01-03 02:05:48.11	267.52	35.80	-56.1	-57.9	14.6	0.00e+00	0	31	0	917504000	77	4653
2026-01-03 02:05:49.12	267.24	35.63	-56.2	-58.0	14.4	0.00e+00	0	31	0	919601152	77	4746
2026-01-03 02:05:50.11	266.97	35.46	-56.3	-58.1	14.4	0.00e+00	0	31	0	920649728	77	4809
2026-01-03 02:05:51.11	266.70	35.29	-56.6	-58.6	14.3	0.00e+00	0	31	0	922746880	78	4803
2026-01-03 02:05:52.11	266.43	35.12	-56.8	-58.9	14.0	0.00e+00	0	31	0	924844032	79	4688
2026-01-03 02:05:53.11	266.16	34.95	-57.2	-59.5	13.7	0.00e+00	0	31	0	926941184	79	5012
2026-01-03 02:05:54.11	265.90	34.78	-57.4	-59.8	13.6	0.00e+00	0	31	0	929038336	79	5183
2026-01-03 02:05:55.11	265.64	34.61	-57.4	-59.8	13.6	0.00e+00	0	31	0	930086912	79	5177
2026-01-03 02:05:56.12	265.38	34.44	-57.2	-59.6	13.7	0.00e+00	0	31	0	932184064	80	4775
2026-01-03 02:05:57.12	265.13	34.28	-57.4	-59.9	13.6	0.00e+00	0	31	0	934281216	80	4934
2026-01-03 02:05:58.12	264.88	34.11	-57.4	-59.9	13.5	0.00e+00	0	31	0	936378368	80	4930
2026-01-03 02:05:59.11	264.63	33.94	-57.5	-60.1	13.4	0.00e+00	0	31	0	938475520	80	5066
2026-01-03 02:06:00.10	264.38	33.78	-57.5	-60.0	13.5	0.00e+00	0	31	0	939524096	80	5040
2026-01-03 02:06:01.06	264.15	33.62	-57.6	-60.2	13.3	0.00e+00	0	31	0	941621248	80	5122
2026-01-03 02:06:02.06	263.91	33.45	-57.7	-60.3	13.3	0.00e+00	0	31	0	943718400	80	5193
2026-01-03 02:06:03.06	263.67	33.28	-57.6	-60.3	13.3	0.00e+00	0	31	0	945815552	80	5179
2026-01-03 02:06:04.06	263.43	33.12	-57.4	-59.8	13.6	0.00e+00	0	31	0	946864128	80	4914
2026-01-03 02:06:05.06	263.20	32.95	-57.3	-59.7	13.6	0.00e+00	0	31	0	948961280	80	4864
2026-01-03 02:06:06.05	262.97	32.79	-57.4	-59.9	13.5	0.00e+00	0	31	0	951058432	80	4963
2026-01-03 02:06:07.04	262.74	32.63	-57.2	-59.6	13.7	0.00e+00	0	31	0	953155584	80	4788
2026-01-03 02:06:08.04	262.51	32.46	-57.3	-59.6	13.7	0.00e+00	0	31	0	954204160	80	4813
2026-01-03 02:06:09.03	262.29	32.30	-57.1	-59.4	13.8	0.00e+00	0	31	0	956301312	80	4678
2026-01-03 02:06:10.03	262.07	32.14	-57.2	-59.5	13.8	0.00e+00	0	31	0	958398464	80	4745
2026-01-03 02:06:11.03	261.85	31.97	-57.0	-59.2	13.9	0.00e+00	0	31	0	960495616	80	4580
2026-01-03 02:06:12.04	261.63	31.81	-56.9	-59.1	14.0	0.00e+00	0	31	0	962592768	80	4535
2026-01-03 02:06:13.04	261.41	31.65	-56.7	-58.8	14.1	0.00e+00	0	31	0	963641344	80	4380
2026-01-03 02:06:14.03	261.20	31.49	-56.7	-58.7	14.2	0.00e+00	0	31	0	965738496	79	4584
2026-01-03 02:06:15.04	260.99	31.32	-56.5	-58.4	14.4	0.00e+00	0	31	0	967835648	79	4434
2026-01-03 02:06:16.04	260.78	31.16	-56.2	-58.0	14.5	0.00e+00	0	31	0	969932800	79	4237
2026-01-03 02:06:17.04	260.57	31.00	-56.0	-57.8	14.7	0.00e+00	0	31	0	972029952	78	4354
2026-01-03 02:06:18.04	260.36	30.84	-56.2	-58.0	14.5	0.00e+00	0	31	0	973078528	78	4471
2026-01-03 02:06:19.04	260.16	30.68	-56.2	-58.0	14.5	0.00e+00	0	31	0	975175680	78	4476
2026-01-03 02:06:20.04	259.96	30.52	-56.5	-58.5	14.3	0.00e+00	0	31	0	977272832	78	4740
2026-01-03 02:06:21.04	259.76	30.36	-56.6	-58.6	14.2	0.00e+00	0	31	0	979369984	78	4807
2026-01-03 02:06:22.03	259.56	30.21	-56.6	-58.7	14.1	0.00e+00	0	31	0	981467136	78	4816
2026-01-03 02:06:23.03	259.37	30.05	-56.5	-58.4	14.3	0.00e+00	0	31	0	982515712	78	4695
2026-01-03 02:06:24.03	259.17	29.89	-56.4	-58.3	14.3	0.00e+00	0	31	0	984612864	78	4648
2026-01-03 02:06:25.03	258.98	29.73	-56.1	-57.9	14.5	0.00e+00	0	31	0	986710016	78	4439
2026-01-03 02:06:26.03	258.79	29.58	-56.0	-57.8	14.6	0.00e+00	0	31	0	988807168	78	4383
2026-01-03 02:06:27.02	258.61	29.42	-56.1	-57.9	14.6	0.00e+00	0	31	0	989855744	78	4419
2026-01-03 02:06:28.02	258.42	29.27	-56.2	-58.1	14.5	0.00e+00	0	31	0	991952896	78	4518
2026-01-03 02:06:29.02	258.24	29.11	-56.2	-58.1	14.4	0.00e+00	0	31	0	994050048	78	4536
2026-01-03 02:06:30.02	258.05	28.96	-56.2	-58.1	14.4	0.00e+00	0	31	0	996147200	78	4525
2026-01-03 02:06:31.02	257.87	28.80	-56.4	-58.4	14.3	0.00e+00	0	31	0	998244352	78	4680
2026-01-03 02:06:32.01	257.70	28.65	-56.5	-58.5	14.3	0.00e+00	0	31	0	999292928	78	4723
2026-01-03 02:06:33.01	257.52	28.50	-56.6	-58.7	14.1	0.00e+00	0	31	0	1001390080	78	4837
2026-01-03 02:06:34.01	257.34	28.35	-56.4	-58.4	14.3	0.00e+00	0	31	0	1003487232	78	4674
2026-01-03 02:06:35.01	257.17	28.20	-56.3	-58.3	14.4	0.00e+00	0	31	0	1005584384	78	4620
2026-01-03 02:06:36.01	257.00	28.05	-56.1	-57.9	14.5	0.00e+00	0	31	0	1007681536	78	4437
2026-01-03 02:06:37.01	256.83	27.89	-56.0	-57.8	14.6	0.00e+00	0	31	0	1008730112	78	4346
2026-01-03 02:06:38.01	256.66	27.74	-55.9	-57.7	14.6	0.00e+00	0	31	0	1010827264	78	4306
2026-01-03 02:06:39.01	256.49	27.60	-56.2	-58.0	14.5	0.00e+00	0	31	0	1012924416	78	4483
2026-01-03 02:06:40.01	256.32	27.45	-56.2	-58.1	14.5	0.00e+00	0	31	0	1015021568	78	4505
2026-01-03 02:06:41.00	256.16	27.30	-56.3	-58.3	14.3	0.00e+00	0	31	0	1016070144	78	4607
2026-01-03 02:06:42.00	256.00	27.15	-56.4	-58.4	14.3	0.00e+00	0	31	0	1018167296	78	4689
2026-01-03 02:06:43.00	255.84	27.00	-56.4	-58.5	14.3	0.00e+00	0	31	0	1020264448	78	4713
2026-01-03 02:06:44.00	255.68	26.86	-56.3	-58.3	14.4	0.00e+00	0	31	0	1022361600	78	4630
2026-01-03 02:06:45.01	255.52	26.71	-56.2	-58.1	14.4	0.00e+00	0	31	0	1024458752	78	4518
2026-01-03 02:06:46.01	255.36	26.56	-56.1	-57.9	14.5	0.00e+00	0	31	0	1025507328	78	4423
2026-01-03 02:06:47.01	255.21	26.42	-55.8	-57.6	14.7	0.00e+00	0	31	0	1027604480	78	4258
2026-01-03 02:06:48.02	255.05	26.27	-55.7	-57.4	14.8	0.00e+00	0	31	0	1029701632	78	4167
2026-01-03 02:06:49.02	254.90	26.13	-55.6	-57.3	14.8	0.00e+00	0	31	0	1031798784	77	4367
2026-01-03 02:06:50.02	254.75	25.98	-55.6	-57.3	14.8	0.00e+00	0	31	0	1033895936	77	4369
2026-01-03 02:06:51.02	254.60	25.84	-55.6	-57.3	14.8	0.00e+00	0	31	0	1034944512	77	4367
2026-01-03 02:06:52.02	254.45	25.70	-55.4	-57.0	14.9	0.00e+00	0	31	0	1037041664	77	4231
2026-01-03 02:06:53.02	254.30	25.56	-55.5	-57.2	14.8	0.00e+00	0	31	0	1039138816	77	4296
2026-01-03 02:06:54.02	254.16	25.42	-55.5	-57.2	14.8	0.00e+00	0	31	0	1041235968	77	4328
2026-01-03 02:06:55.02	254.01	25.27	-55.6	-57.4	14.8	0.00e+00	0	31	0	1043333120	77	4394
2026-01-03 02:06:56.02	253.87	25.13	-55.7	-57.5	14.7	0.00e+00	0	31	0	1044381696	77	4446
2026-01-03 02:06:57.03	253.73	24.99	-55.7	-57.5	14.7	0.00e+00	0	31	0	1046478848	77	4452
2026-01-03 02:06:58.03	253.59	24.85	-55.8	-57.6	14.6	0.00e+00	0	31	0	1048576000	77	4507
2026-01-03 02:06:59.03	253.45	24.71	-55.7	-57.4	14.7	0.00e+00	0	31	0	1050673152	77	4429
2026-01-03 02:07:00.02	253.31	24.58	-55.5	-57.2	14.8	0.00e+00	0	31	0	1051721728	77	4321
2026-01-03 02:07:01.03	253.17	24.44	-55.5	-57.1	14.8	0.00e+00	0	31	0	1053818880	77	4276
2026-01-03 02:07:02.03	253.04	24.30	-55.5	-57.2	14.8	0.00e+00	0	31	0	1055916032	77	4296
2026-01-03 02:07:03.04	252.90	24.16	-55.4	-57.1	14.9	0.00e+00	0	31	0	1058013184	77	4259
2026-01-03 02:07:04.04	252.77	24.03	-55.4	-57.0	14.9	0.00e+00	0	31	0	1060110336	77	4233
2026-01-03 02:07:05.04	252.64	23.89	-55.4	-57.1	14.9	0.00e+00	0	31	0	1061158912	77	4253
2026-01-03 02:07:06.04	252.50	23.76	-55.4	-57.1	14.9	0.00e+00	0	31	0	1063256064	77	4263
2026-01-03 02:07:07.05	252.37	23.62	-55.6	-57.2	14.8	0.00e+00	0	31	0	1065353216	77	4338
2026-01-03 02:07:08.06	252.24	23.49	-55.4	-57.0	14.9	0.00e+00	0	31	0	1067450368	77	4236
2026-01-03 02:07:09.05	252.12	23.35	-55.3	-56.9	14.9	0.00e+00	0	31	0	1069547520	77	4166
2026-01-03 02:07:10.06	251.99	23.22	-55.1	-56.7	15.0	0.00e+00	0	31	0	1070596096	76	4298
2026-01-03 02:07:11.06	251.87	23.09	-55.0	-56.5	15.1	0.00e+00	0	31	0	1072693248	76	4233
2026-01-03 02:07:12.06	251.74	22.96	-55.0	-56.5	15.1	0.00e+00	0	31	0	1074790400	76	4196
2026-01-03 02:07:13.06	251.62	22.83	-55.0	-56.4	15.1	0.00e+00	0	31	0	1076887552	76	4182
2026-01-03 02:07:14.06	251.50	22.69	-54.9	-56.4	15.1	0.00e+00	0	31	0	1078984704	76	4183
2026-01-03 02:07:15.07	251.37	22.56	-55.0	-56.5	15.1	0.00e+00	0	31	0	1080033280	76	4233
2026-01-03 02:07:16.07	251.25	22.43	-55.1	-56.6	15.0	0.00e+00	0	31	0	1082130432	76	4278
2026-01-03 02:07:17.08	251.13	22.30	-55.2	-56.8	15.0	0.00e+00	0	31	0	1084227584	76	4341
2026-01-03 02:07:18.08	251.02	22.17	-55.1	-56.6	15.0	0.00e+00	0	31	0	1086324736	76	4289
2026-01-03 02:07:19.08	250.90	22.05	-55.2	-56.8	14.9	0.00e+00	0	31	0	1088421888	76	4349
2026-01-03 02:07:20.06	250.79	21.92	-55.2	-56.8	14.9	0.00e+00	0	31	0	1089470464	76	4346
2026-01-03 02:07:21.07	250.67	21.79	-55.2	-56.7	15.0	0.00e+00	0	31	0	1091567616	76	4330
2026-01-03 02:07:22.07	250.56	21.67	-55.1	-56.6	15.0	0.00e+00	0	31	0	1093664768	76	4284
2026-01-03 02:07:23.07	250.44	21.54	-55.1	-56.6	15.0	0.00e+00	0	31	0	1095761920	76	4266
2026-01-03 02:07:24.07	250.33	21.42	-55.1	-56.6	15.0	0.00e+00	0	31	0	1096810496	76	4286
2026-01-03 02:07:25.08	250.22	21.29	-55.2	-56.7	15.0	0.00e+00	0	31	0	1098907648	76	4325
2026-01-03 02:07:26.09	250.11	21.16	-55.1	-56.7	15.0	0.00e+00	0	31	0	1101004800	76	4296
2026-01-03 02:07:27.09	250.00	21.04	-55.1	-56.6	15.0	0.00e+00	0	31	0	1103101952	76	4277
2026-01-03 02:07:28.10	249.89	20.91	-55.1	-56.7	15.0	0.00e+00	0	31	0	1105199104	76	4317
2026-01-03 02:07:29.10	249.78	20.79	-55.2	-56.8	14.9	0.00e+00	0	31	0	1106247680	76	4345
2026-01-03 02:07:30.10	249.67	20.67	-55.3	-56.9	14.9	0.00e+00	0	31	0	1108344832	76	4399
2026-01-03 02:07:31.09	249.57	20.55	-55.3	-56.9	14.8	0.00e+00	0	31	0	1110441984	76	4433
2026-01-03 02:07:32.10	249.46	20.42	-55.3	-57.0	14.8	0.00e+00	0	31	0	1112539136	76	4456
2026-01-03 02:07:33.10	249.36	20.30	-55.5	-57.1	14.8	0.00e+00	0	31	0	1114636288	76	4529
2026-01-03 02:07:34.10	249.26	20.18	-55.5	-57.2	14.7	0.00e+00	0	31	0	1115684864	76	4549
2026-01-03 02:07:35.10	249.15	20.06	-55.5	-57.1	14.8	0.00e+00	0	31	0	1117782016	76	4537
2026-01-03 02:07:36.10	249.05	19.94	-55.4	-57.0	14.8	0.00e+00	0	31	0	1119879168	76	4490
2026-01-03 02:07:37.10	248.95	19.82	-55.4	-57.1	14.8	0.00e+00	0	31	0	1121976320	76	4494
2026-01-03 02:07:38.10	248.85	19.71	-55.3	-56.9	14.9	0.00e+00	0	31	0	1124073472	76	4427
2026-01-03 02:07:39.10	248.75	19.59	-55.3	-56.9	14.9	0.00e+00	0	31	0	1125122048	76	4419
2026-01-03 02:07:40.10	248.65	19.47	-55.2	-56.8	14.9	0.00e+00	0	31	0	1127219200	76	4356
2026-01-03 02:07:41.10	248.56	19.35	-55.2	-56.8	14.9	0.00e+00	0	31	0	1129316352	76	4391
2026-01-03 02:07:42.10	248.46	19.24	-55.3	-56.9	14.8	0.00e+00	0	31	0	1131413504	76	4423
2026-01-03 02:07:43.10	248.36	19.12	-55.3	-57.0	14.8	0.00e+00	0	31	0	1133510656	76	4457
2026-01-03 02:07:44.10	248.27	19.00	-55.4	-57.0	14.8	0.00e+00	0	31	0	1134559232	76	4476
2026-01-03 02:07:45.10	248.17	18.89	-55.3	-57.0	14.9	0.00e+00	0	31	0	1136656384	76	4452
2026-01-03 02:07:46.09	248.08	18.77	-55.5	-57.2	14.7	0.00e+00	0	31	0	1138753536	76	4555
2026-01-03 02:07:47.10	247.99	18.66	-55.3	-57.0	14.8	0.00e+00	0	31	0	1140850688	76	4471
2026-01-03 02:07:48.10	247.89	18.54	-55.4	-57.1	14.8	0.00e+00	0	31	0	1141899264	76	4512
2026-01-03 02:07:49.11	247.80	18.43	-55.5	-57.2	14.7	0.00e+00	0	31	0	1143996416	76	4585
2026-01-03 02:07:50.12	247.71	18.31	-55.4	-57.2	14.7	0.00e+00	0	31	0	1146093568	76	4546
2026-01-03 02:07:51.12	247.62	18.20	-55.5	-57.2	14.7	0.00e+00	0	31	0	1148190720	76	4563
2026-01-03 02:07:52.12	247.53	18.09	-55.4	-57.0	14.8	0.00e+00	0	31	0	1150287872	76	4481
2026-01-03 02:07:53.13	247.44	17.98	-55.3	-57.0	14.8	0.00e+00	0	31	0	1151336448	76	4476
2026-01-03 02:07:54.13	247.35	17.86	-55.4	-57.0	14.8	0.00e+00	0	31	0	1153433600	76	4484
2026-01-03 02:07:55.13	247.26	17.75	-55.3	-56.9	14.8	0.00e+00	0	31	0	1155530752	76	4438
2026-01-03 02:07:56.13	247.18	17.64	-55.3	-56.9	14.8	0.00e+00	0	31	0	1157627904	76	4419
2026-01-03 02:07:57.13	247.09	17.53	-55.4	-57.1	14.7	0.00e+00	0	31	0	1159725056	76	4498
2026-01-03 02:07:58.13	247.01	17.42	-55.5	-57.3	14.6	0.00e+00	0	31	0	1160773632	76	4607
2026-01-03 02:07:59.13	246.92	17.31	-55.7	-57.5	14.6	0.00e+00	0	31	0	1162870784	76	4711
2026-01-03 02:08:00.14	246.84	17.20	-55.6	-57.4	14.6	0.00e+00	0	31	0	1164967936	76	4660
2026-01-03 02:08:01.12	246.75	17.10	-55.7	-57.4	14.6	0.00e+00	0	31	0	1167065088	76	4701
2026-01-03 02:08:02.12	246.67	16.99	-55.7	-57.5	14.5	0.00e+00	0	31	0	1168113664	76	4750
2026-01-03 02:08:03.12	246.59	16.88	-55.8	-57.7	14.5	0.00e+00	0	31	0	1170210816	76	4833
2026-01-03 02:08:04.13	246.51	16.77	-55.9	-57.8	14.4	0.00e+00	0	31	0	1172307968	77	4631
2026-01-03 02:08:05.13	246.42	16.67	-56.0	-57.9	14.4	0.00e+00	0	31	0	1174405120	77	4700
2026-01-03 02:08:06.13	246.34	16.56	-56.1	-58.1	14.3	0.00e+00	0	31	0	1176502272	77	4804
2026-01-03 02:08:07.14	246.26	16.45	-56.0	-58.0	14.3	0.00e+00	0	31	0	1177550848	77	4724
2026-01-03 02:08:08.14	246.18	16.35	-56.0	-58.0	14.4	0.00e+00	0	31	0	1179648000	77	4712
2026-01-03 02:08:09.15	246.10	16.24	-56.0	-57.9	14.3	0.00e+00	0	31	0	1181745152	77	4703
2026-01-03 02:08:10.16	246.02	16.13	-55.9	-57.9	14.4	0.00e+00	0	31	0	1183842304	77	4666
2026-01-03 02:08:11.16	245.95	16.03	-55.9	-57.9	14.4	0.00e+00	0	31	0	1185939456	77	4659
2026-01-03 02:08:12.17	245.87	15.93	-55.9	-57.8	14.4	0.00e+00	0	31	0	1186988032	77	4613
2026-01-03 02:08:13.17	245.79	15.82	-55.9	-57.9	14.4	0.00e+00	0	31	0	1189085184	77	4654
2026-01-03 02:08:14.17	245.72	15.72	-55.8	-57.6	14.5	0.00e+00	0	31	0	1191182336	77	4540
2026-01-03 02:08:15.17	245.64	15.62	-55.9	-57.7	14.4	0.00e+00	0	31	0	1193279488	77	4592
2026-01-03 02:08:16.17	245.57	15.51	-55.7	-57.5	14.6	0.00e+00	0	31	0	1195376640	77	4474
2026-01-03 02:08:17.18	245.49	15.41	-55.6	-57.4	14.6	0.00e+00	0	31	0	1196425216	77	4406
2026-01-03 02:08:18.19	245.42	15.31	-55.6	-57.4	14.6	0.00e+00	0	31	0	1198522368	77	4412
2026-01-03 02:08:19.20	245.34	15.20	-55.6	-57.4	14.6	0.00e+00	0	31	0	1200619520	77	4439
2026-01-03 02:08:20.19	245.27	15.10	-55.6	-57.4	14.6	0.00e+00	0	31	0	1202716672	77	4402
2026-01-03 02:08:21.20	245.20	15.00	-55.6	-57.4	14.6	0.00e+00	0	31	0	1204813824	77	4408
2026-01-03 02:08:22.20	245.12	14.90	-55.6	-57.4	14.6	0.00e+00	0	31	0	1205862400	77	4431
2026-01-03 02:08:23.21	245.05	14.80	-55.6	-57.3	14.6	0.00e+00	0	31	0	1207959552	77	4376
2026-01-03 02:08:24.22	244.98	14.70	-55.6	-57.4	14.6	0.00e+00	0	31	0	1210056704	77	4415
2026-01-03 02:08:25.22	244.91	14.60	-55.6	-57.4	14.6	0.00e+00	0	31	0	1212153856	77	4415
2026-01-03 02:08:26.21	244.84	14.50	-55.6	-57.4	14.6	0.00e+00	0	31	0	1214251008	77	4424
2026-01-03 02:08:27.21	244.77	14.41	-55.5	-57.3	14.7	0.00e+00	0	31	0	1215299584	77	4357
2026-01-03 02:08:28.21	244.70	14.31	-55.5	-57.2	14.7	0.00e+00	0	31	0	1217396736	77	4340
2026-01-03 02:08:29.21	244.63	14.21	-55.4	-57.1	14.7	0.00e+00	0	31	0	1219493888	77	4287
2026-01-03 02:08:30.22	244.57	14.11	-55.4	-57.2	14.7	0.00e+00	0	31	0	1221591040	77	4305
2026-01-03 02:08:31.22	244.50	14.01	-55.5	-57.3	14.7	0.00e+00	0	31	0	1223688192	77	4358
2026-01-03 02:08:32.22	244.43	13.92	-55.7	-57.5	14.5	0.00e+00	0	31	0	1224736768	77	4459
2026-01-03 02:08:33.22	244.36	13.82	-55.6	-57.4	14.6	0.00e+00	0	31	0	1226833920	77	4401
2026-01-03 02:08:34.23	244.30	13.72	-55.7	-57.6	14.5	0.00e+00	0	31	0	1228931072	77	4498
