passes_logs/2026/01/03/R3.2S_Murmansk/R3.2S_Murmansk__20260103_074413_NOAA_21_JPSS-2_rec.log

#Pass ID: 20260103_074413_NOAA 21 (JPSS-2)
#Satellite: NOAA 21 (JPSS-2)
#Configuration: NOAA-21
#almurnet v.1.7.20251203
#Start time: 2026-01-03 07:44:13

#Version: 2.2.20231116
#Station: R3.2S_Murmansk
#Location: 33.079688 lon 68.888172 lat
#TLE: 1 54234U 22150A   26002.88923379  .00000185  00000+0  10883-3 0  9993
#TLE: 2 54234  98.7486 303.9362 0001189 349.0578  11.0572 14.19531433163092

#Time	Az	El	Level	Level2	SNR	BER	BlckErr	Temp	State	Recorded	gain1	gain2
2026-01-03 07:44:13.85	110.58	2.04	-59.9	-73.2	3.8	1.49e+00	0	28	0	0	86	16234
2026-01-03 07:44:14.85	110.54	2.11	-59.9	-73.1	3.8	1.49e+00	0	29	104	0	84	17902
2026-01-03 07:44:15.84	110.51	2.17	-59.9	-73.1	3.8	1.49e+00	0	29	104	0	84	17904
2026-01-03 07:44:16.84	110.47	2.23	-59.9	-73.1	3.8	1.49e+00	0	29	104	0	84	18065
2026-01-03 07:44:17.84	110.43	2.29	-59.9	-73.2	3.8	1.49e+00	0	29	104	0	84	18120
2026-01-03 07:44:18.83	110.39	2.35	-59.9	-73.2	3.8	1.49e+00	0	29	104	0	84	18115
2026-01-03 07:44:19.83	110.35	2.42	-59.9	-73.2	3.8	1.49e+00	0	29	104	0	84	18207
2026-01-03 07:44:20.84	110.31	2.48	-59.9	-73.2	3.8	1.49e+00	0	29	104	0	84	18135
2026-01-03 07:44:21.84	110.27	2.54	-59.9	-73.2	3.8	1.49e+00	0	29	104	0	84	18103
2026-01-03 07:44:22.84	110.23	2.60	-59.9	-73.1	3.8	1.49e+00	0	29	104	0	84	17964
2026-01-03 07:44:23.84	110.19	2.67	-59.9	-73.1	3.8	1.49e+00	0	29	104	0	84	17949
2026-01-03 07:44:24.85	110.15	2.73	-59.9	-73.1	3.8	1.49e+00	0	29	104	0	84	17916
2026-01-03 07:44:25.85	110.11	2.79	-59.9	-73.0	3.8	1.49e+00	0	29	104	0	84	17816
2026-01-03 07:44:26.85	110.07	2.86	-59.9	-73.0	3.8	1.49e+00	0	29	104	0	84	17797
2026-01-03 07:44:27.85	110.02	2.92	-59.9	-73.0	3.8	1.49e+00	0	29	104	0	84	17763
2026-01-03 07:44:28.85	109.98	2.98	-59.9	-73.0	3.8	1.49e+00	0	29	104	0	84	17780
2026-01-03 07:44:29.86	109.94	3.05	-59.9	-73.0	3.8	1.49e+00	0	29	104	0	84	17885
2026-01-03 07:44:30.85	109.90	3.11	-59.9	-73.1	3.8	1.49e+00	0	29	104	0	84	17993
2026-01-03 07:44:31.85	109.86	3.17	-59.9	-73.1	3.8	1.49e+00	0	29	104	0	84	17946
2026-01-03 07:44:32.85	109.82	3.24	-59.9	-73.1	3.8	1.49e+00	0	29	104	0	84	17894
2026-01-03 07:44:33.85	109.77	3.30	-59.9	-73.0	3.8	1.49e+00	0	29	104	0	84	17703
2026-01-03 07:44:34.85	109.73	3.37	-59.9	-72.9	3.8	1.49e+00	0	29	104	0	84	17519
2026-01-03 07:44:35.86	109.69	3.43	-59.9	-72.8	3.8	1.49e+00	0	29	104	0	84	17435
2026-01-03 07:44:36.85	109.65	3.50	-59.9	-72.8	3.8	1.49e+00	0	29	104	0	84	17463
2026-01-03 07:44:37.85	109.60	3.56	-59.9	-72.9	3.8	1.49e+00	0	29	104	0	84	17603
2026-01-03 07:44:38.84	109.56	3.62	-59.9	-73.0	3.8	1.49e+00	0	29	104	0	84	17741
2026-01-03 07:44:39.84	109.52	3.69	-59.9	-73.1	3.8	1.49e+00	0	29	104	0	84	18094
2026-01-03 07:44:40.83	109.47	3.75	-59.9	-73.2	3.8	1.49e+00	0	29	104	0	85	17208
2026-01-03 07:44:41.83	109.43	3.82	-59.9	-73.1	3.8	1.49e+00	0	29	104	0	85	17060
2026-01-03 07:44:42.82	109.39	3.88	-59.9	-72.7	3.8	1.49e+00	0	29	104	0	85	16219
2026-01-03 07:44:43.81	109.34	3.95	-59.8	-72.0	3.8	1.49e+00	0	29	104	0	85	14913
2026-01-03 07:44:44.81	109.30	4.01	-59.7	-70.9	3.9	1.49e+00	0	29	104	0	85	13211
2026-01-03 07:44:45.81	109.25	4.08	-59.6	-69.7	4.0	1.47e+00	0	29	104	0	85	11537
2026-01-03 07:44:46.81	109.21	4.15	-59.4	-68.0	4.8	1.19e+00	0	29	104	0	85	9479
2026-01-03 07:44:47.81	109.16	4.21	-59.3	-67.1	5.2	6.08e-01	0	29	0	0	85	8518
2026-01-03 07:44:48.81	109.12	4.28	-59.1	-66.3	5.7	3.83e-01	0	30	0	3145728	84	8177
2026-01-03 07:44:49.80	109.07	4.34	-58.9	-65.3	6.4	2.75e-01	0	30	0	6291456	84	7304
2026-01-03 07:44:50.80	109.03	4.41	-58.9	-65.0	6.7	1.76e-01	0	30	0	9437184	84	7050
2026-01-03 07:44:51.79	108.98	4.48	-58.7	-64.3	7.2	1.15e-01	0	30	0	12582912	84	6515
2026-01-03 07:44:52.79	108.93	4.54	-58.3	-63.4	7.9	4.96e-02	0	30	0	15728640	83	6215
2026-01-03 07:44:53.79	108.89	4.61	-58.0	-62.6	8.5	2.75e-02	0	30	0	18874368	82	6041
2026-01-03 07:44:54.78	108.84	4.68	-57.9	-62.2	8.9	1.49e-02	0	30	0	22020096	82	5787
2026-01-03 07:44:55.79	108.79	4.74	-57.6	-61.6	9.4	8.31e-03	0	30	0	25165824	81	5690
2026-01-03 07:44:56.78	108.75	4.81	-57.4	-61.1	9.9	3.48e-03	0	30	0	28311552	81	5354
2026-01-03 07:44:57.77	108.70	4.88	-57.3	-60.9	9.9	2.50e-03	0	30	0	31457280	81	5268
2026-01-03 07:44:58.76	108.65	4.94	-57.1	-60.4	10.3	1.33e-03	0	30	0	34603008	80	5264
2026-01-03 07:44:59.76	108.61	5.01	-57.1	-60.4	10.4	8.80e-04	0	30	0	37748736	80	5244
2026-01-03 07:45:00.76	108.56	5.08	-58.3	-63.1	8.2	5.46e-03	0	30	0	40894464	81	6750
2026-01-03 07:45:01.76	108.51	5.15	-55.3	-57.2	12.8	1.04e-04	0	30	0	44040192	77	4333
2026-01-03 07:45:02.76	108.46	5.22	-59.7	-68.2	4.9	5.61e-02	0	30	0	47185920	84	10232
2026-01-03 07:45:03.76	108.41	5.29	-58.0	-62.0	9.4	3.61e-03	0	30	0	48234496	81	5968
2026-01-03 07:45:04.76	108.36	5.35	-54.2	-55.8	13.7	3.70e-04	0	30	0	51380224	75	4118
2026-01-03 07:45:05.76	108.31	5.42	-54.2	-55.8	13.6	0.00e+00	0	30	0	54525952	75	4100
2026-01-03 07:45:06.76	108.26	5.49	-54.1	-55.7	13.6	0.00e+00	0	30	0	57671680	74	4294
2026-01-03 07:45:07.75	108.21	5.56	-53.9	-55.4	13.8	0.00e+00	0	30	0	60817408	74	4156
2026-01-03 07:45:08.74	108.16	5.63	-54.0	-55.5	13.7	0.00e+00	0	30	0	63963136	74	4228
2026-01-03 07:45:09.74	108.11	5.70	-53.9	-55.3	13.8	0.00e+00	0	30	0	67108864	74	4141
2026-01-03 07:45:10.74	108.06	5.77	-53.9	-55.3	13.8	0.00e+00	0	30	0	70254592	74	4129
2026-01-03 07:45:11.75	108.01	5.84	-53.9	-55.3	13.8	0.00e+00	0	30	0	73400320	74	4137
2026-01-03 07:45:12.75	107.96	5.91	-53.8	-55.3	13.9	0.00e+00	0	30	0	75497472	74	4115
2026-01-03 07:45:13.75	107.91	5.98	-53.8	-55.2	13.8	0.00e+00	0	30	0	78643200	74	4095
2026-01-03 07:45:14.75	107.86	6.05	-53.9	-55.3	13.9	0.00e+00	0	30	0	81788928	74	4124
2026-01-03 07:45:15.75	107.81	6.12	-53.8	-55.2	13.9	0.00e+00	0	30	0	84934656	74	4070
2026-01-03 07:45:16.75	107.75	6.19	-53.6	-55.0	14.0	0.00e+00	0	30	0	88080384	73	4216
2026-01-03 07:45:17.75	107.70	6.26	-53.6	-54.9	14.0	0.00e+00	0	30	0	91226112	73	4179
2026-01-03 07:45:18.75	107.65	6.33	-53.5	-54.8	14.1	0.00e+00	0	30	0	94371840	73	4129
2026-01-03 07:45:19.75	107.60	6.40	-53.4	-54.7	14.1	0.00e+00	0	30	0	97517568	73	4098
2026-01-03 07:45:20.75	107.54	6.47	-53.4	-54.7	14.1	0.00e+00	0	30	0	100663296	73	4086
2026-01-03 07:45:21.75	107.49	6.54	-53.4	-54.6	14.2	0.00e+00	0	30	0	103809024	73	4042
2026-01-03 07:45:22.75	107.44	6.62	-53.3	-54.6	14.2	0.00e+00	0	30	0	106954752	73	4013
2026-01-03 07:45:23.74	107.38	6.69	-53.3	-54.5	14.2	0.00e+00	0	30	0	110100480	73	3989
2026-01-03 07:45:24.74	107.33	6.76	-53.2	-54.4	14.2	0.00e+00	0	30	0	113246208	72	4172
2026-01-03 07:45:25.73	107.27	6.83	-53.3	-54.5	14.2	0.00e+00	0	30	0	116391936	72	4225
2026-01-03 07:45:26.74	107.22	6.90	-53.2	-54.5	14.2	0.00e+00	0	30	0	119537664	72	4199
2026-01-03 07:45:27.73	107.16	6.97	-53.2	-54.5	14.2	0.00e+00	0	30	0	122683392	72	4203
2026-01-03 07:45:28.73	107.11	7.05	-53.1	-54.4	14.2	0.00e+00	0	30	0	125829120	72	4160
2026-01-03 07:45:29.73	107.05	7.12	-53.2	-54.4	14.2	0.00e+00	0	30	0	128974848	72	4186
2026-01-03 07:45:30.74	107.00	7.19	-53.1	-54.4	14.2	0.00e+00	0	30	0	132120576	72	4161
2026-01-03 07:45:31.73	106.94	7.27	-53.2	-54.4	14.2	0.00e+00	0	30	0	135266304	72	4186
2026-01-03 07:45:32.73	106.88	7.34	-53.1	-54.4	14.2	0.00e+00	0	30	0	138412032	72	4161
2026-01-03 07:45:33.73	106.83	7.41	-53.0	-54.2	14.3	0.00e+00	0	30	0	141557760	72	4097
2026-01-03 07:45:34.73	106.77	7.49	-53.0	-54.2	14.4	0.00e+00	0	30	0	144703488	72	4087
2026-01-03 07:45:35.72	106.71	7.56	-53.1	-54.3	14.3	0.00e+00	0	30	0	147849216	72	4138
2026-01-03 07:45:36.72	106.65	7.63	-53.0	-54.2	14.3	0.00e+00	0	30	0	150994944	72	4087
2026-01-03 07:45:37.71	106.60	7.71	-53.0	-54.2	14.4	0.00e+00	0	30	0	154140672	72	4085
2026-01-03 07:45:38.71	106.54	7.78	-53.0	-54.2	14.4	0.00e+00	0	30	0	157286400	72	4074
2026-01-03 07:45:39.71	106.48	7.86	-52.8	-54.0	14.5	0.00e+00	0	30	0	160432128	72	3976
2026-01-03 07:45:40.71	106.42	7.93	-52.9	-54.1	14.4	0.00e+00	0	30	0	163577856	72	4013
2026-01-03 07:45:41.70	106.36	8.00	-52.9	-54.0	14.5	0.00e+00	0	30	0	166723584	72	3992
2026-01-03 07:45:42.70	106.30	8.08	-52.9	-54.0	14.5	0.00e+00	0	30	0	169869312	72	3993
2026-01-03 07:45:43.70	106.24	8.16	-52.8	-53.9	14.5	0.00e+00	0	30	0	173015040	72	3955
2026-01-03 07:45:44.69	106.18	8.23	-52.7	-53.9	14.5	0.00e+00	0	30	0	176160768	72	3923
2026-01-03 07:45:45.69	106.12	8.31	-52.8	-54.0	14.5	0.00e+00	0	30	0	179306496	72	3965
2026-01-03 07:45:46.68	106.06	8.38	-52.6	-53.7	14.6	0.00e+00	0	30	0	182452224	71	4078
2026-01-03 07:45:47.68	106.00	8.46	-52.6	-53.7	14.6	0.00e+00	0	30	0	185597952	71	4087
2026-01-03 07:45:48.68	105.94	8.53	-52.5	-53.6	14.6	0.00e+00	0	30	0	187695104	71	4045
2026-01-03 07:45:49.68	105.87	8.61	-52.5	-53.5	14.7	0.00e+00	0	30	0	190840832	71	4004
2026-01-03 07:45:50.68	105.81	8.69	-52.5	-53.6	14.7	0.00e+00	0	30	0	193986560	71	4010
2026-01-03 07:45:51.68	105.75	8.76	-52.4	-53.5	14.7	0.00e+00	0	30	0	197132288	71	3983
2026-01-03 07:45:52.67	105.69	8.84	-52.3	-53.4	14.7	0.00e+00	0	30	0	200278016	71	3929
2026-01-03 07:45:53.67	105.62	8.92	-52.4	-53.5	14.7	0.00e+00	0	30	0	203423744	71	3962
2026-01-03 07:45:54.66	105.56	8.99	-52.3	-53.4	14.7	0.00e+00	0	30	0	206569472	71	3919
2026-01-03 07:45:55.65	105.50	9.07	-52.2	-53.3	14.8	0.00e+00	0	30	0	209715200	71	3874
2026-01-03 07:45:56.65	105.43	9.15	-52.3	-53.3	14.8	0.00e+00	0	30	0	212860928	71	3892
2026-01-03 07:45:57.64	105.37	9.23	-52.0	-53.0	14.8	0.00e+00	0	30	0	216006656	70	4002
2026-01-03 07:45:58.64	105.30	9.31	-52.1	-53.1	14.8	0.00e+00	0	30	0	219152384	70	4049
2026-01-03 07:45:59.64	105.24	9.38	-52.1	-53.1	14.8	0.00e+00	0	30	0	222298112	70	4028
2026-01-03 07:46:00.64	105.17	9.46	-52.1	-53.1	14.8	0.00e+00	0	30	0	225443840	70	4047
2026-01-03 07:46:01.64	105.10	9.54	-52.0	-53.0	14.8	0.00e+00	0	30	0	228589568	70	3985
2026-01-03 07:46:02.63	105.04	9.62	-52.0	-53.0	14.8	0.00e+00	0	30	0	231735296	70	3996
2026-01-03 07:46:03.62	104.97	9.70	-52.1	-53.1	14.8	0.00e+00	0	30	0	234881024	70	4022
2026-01-03 07:46:04.62	104.90	9.78	-52.1	-53.1	14.8	0.00e+00	0	30	0	238026752	70	4032
2026-01-03 07:46:05.62	104.84	9.86	-52.1	-53.2	14.8	0.00e+00	0	30	0	241172480	70	4055
2026-01-03 07:46:06.62	104.77	9.94	-52.1	-53.1	14.8	0.00e+00	0	30	0	244318208	70	4009
2026-01-03 07:46:07.61	104.70	10.02	-52.0	-53.0	14.8	0.00e+00	0	30	0	247463936	70	3987
2026-01-03 07:46:08.60	104.63	10.10	-52.1	-53.1	14.8	0.00e+00	0	30	0	250609664	70	4020
2026-01-03 07:46:09.61	104.56	10.18	-52.1	-53.2	14.8	0.00e+00	0	30	0	253755392	70	4064
2026-01-03 07:46:10.60	104.49	10.26	-51.9	-52.9	14.9	0.00e+00	0	30	0	256901120	70	3945
2026-01-03 07:46:11.60	104.42	10.34	-51.9	-52.9	14.9	0.00e+00	0	30	0	260046848	70	3957
2026-01-03 07:46:12.60	104.35	10.42	-51.9	-52.9	14.9	0.00e+00	0	30	0	263192576	70	3937
2026-01-03 07:46:13.60	104.28	10.50	-51.9	-52.9	14.9	0.00e+00	0	30	0	266338304	70	3942
2026-01-03 07:46:14.59	104.21	10.58	-51.9	-52.9	14.9	0.00e+00	0	30	0	269484032	70	3920
2026-01-03 07:46:15.58	104.14	10.67	-51.8	-52.8	15.0	0.00e+00	0	30	0	272629760	70	3892
2026-01-03 07:46:16.58	104.06	10.75	-51.7	-52.7	15.0	0.00e+00	0	30	0	275775488	70	3841
2026-01-03 07:46:17.57	103.99	10.83	-51.8	-52.8	15.0	0.00e+00	0	30	0	278921216	70	3871
2026-01-03 07:46:18.57	103.92	10.91	-51.8	-52.7	15.0	0.00e+00	0	30	0	282066944	70	3862
2026-01-03 07:46:19.57	103.85	11.00	-51.7	-52.6	15.0	0.00e+00	0	30	0	285212672	69	4016
2026-01-03 07:46:20.57	103.77	11.08	-51.6	-52.5	15.0	0.00e+00	0	30	0	288358400	69	3975
2026-01-03 07:46:21.57	103.70	11.16	-51.6	-52.5	15.0	0.00e+00	0	30	0	291504128	69	4004
2026-01-03 07:46:22.56	103.62	11.25	-51.6	-52.5	15.0	0.00e+00	0	31	0	294649856	69	3976
2026-01-03 07:46:23.56	103.55	11.33	-51.5	-52.4	15.1	0.00e+00	0	30	0	296747008	69	3927
2026-01-03 07:46:24.56	103.47	11.41	-51.4	-52.3	15.1	0.00e+00	0	30	0	299892736	69	3892
2026-01-03 07:46:25.55	103.40	11.50	-51.4	-52.3	15.1	0.00e+00	0	30	0	303038464	69	3906
2026-01-03 07:46:26.55	103.32	11.58	-51.4	-52.2	15.1	0.00e+00	0	30	0	306184192	69	3865
2026-01-03 07:46:27.54	103.24	11.67	-51.4	-52.2	15.1	0.00e+00	0	30	0	309329920	69	3868
2026-01-03 07:46:28.54	103.16	11.75	-51.3	-52.2	15.2	0.00e+00	0	30	0	312475648	69	3835
2026-01-03 07:46:29.53	103.09	11.84	-51.4	-52.3	15.1	0.00e+00	0	30	0	315621376	69	3874
2026-01-03 07:46:30.53	103.01	11.92	-51.3	-52.2	15.2	0.00e+00	0	30	0	318767104	69	3847
2026-01-03 07:46:31.52	102.93	12.01	-51.4	-52.3	15.1	0.00e+00	0	30	0	321912832	69	3869
2026-01-03 07:46:32.52	102.85	12.09	-51.4	-52.3	15.1	0.00e+00	0	30	0	325058560	69	3876
2026-01-03 07:46:33.52	102.77	12.18	-51.3	-52.2	15.1	0.00e+00	0	31	0	328204288	69	3854
2026-01-03 07:46:34.51	102.69	12.26	-51.3	-52.2	15.2	0.00e+00	0	30	0	331350016	69	3845
2026-01-03 07:46:35.51	102.61	12.35	-51.3	-52.1	15.2	0.00e+00	0	31	0	334495744	69	3822
2026-01-03 07:46:36.51	102.53	12.44	-51.3	-52.2	15.1	0.00e+00	0	30	0	337641472	69	3837
2026-01-03 07:46:37.49	102.45	12.52	-51.4	-52.3	15.1	0.00e+00	0	30	0	340787200	69	3893
2026-01-03 07:46:38.49	102.37	12.61	-51.4	-52.3	15.1	0.00e+00	0	31	0	343932928	69	3881
2026-01-03 07:46:39.49	102.28	12.70	-51.5	-52.4	15.1	0.00e+00	0	30	0	347078656	69	3933
2026-01-03 07:46:40.49	102.20	12.79	-51.4	-52.3	15.1	0.00e+00	0	30	0	350224384	69	3907
2026-01-03 07:46:41.48	102.12	12.87	-51.5	-52.4	15.1	0.00e+00	0	30	0	353370112	69	3918
2026-01-03 07:46:42.48	102.03	12.96	-51.5	-52.4	15.1	0.00e+00	0	31	0	356515840	69	3947
2026-01-03 07:46:43.48	101.95	13.05	-51.2	-52.1	15.2	0.00e+00	0	31	0	359661568	69	3811
2026-01-03 07:46:44.49	101.86	13.14	-51.0	-51.9	15.2	0.00e+00	0	31	0	362807296	68	3921
2026-01-03 07:46:45.47	101.77	13.23	-51.1	-51.9	15.2	0.00e+00	0	30	0	365953024	68	3954
2026-01-03 07:46:46.47	101.69	13.32	-51.1	-51.9	15.2	0.00e+00	0	30	0	369098752	68	3953
2026-01-03 07:46:47.46	101.60	13.41	-51.1	-51.9	15.2	0.00e+00	0	31	0	372244480	68	3955
2026-01-03 07:46:48.46	101.51	13.50	-51.1	-51.9	15.2	0.00e+00	0	30	0	375390208	68	3941
2026-01-03 07:46:49.47	101.42	13.59	-51.0	-51.8	15.3	0.00e+00	0	31	0	378535936	68	3885
2026-01-03 07:46:50.47	101.34	13.68	-51.1	-51.9	15.2	0.00e+00	0	30	0	381681664	68	3937
2026-01-03 07:46:51.46	101.25	13.77	-51.0	-51.8	15.3	0.00e+00	0	30	0	384827392	68	3882
2026-01-03 07:46:52.46	101.16	13.86	-51.0	-51.9	15.2	0.00e+00	0	31	0	387973120	68	3935
2026-01-03 07:46:53.46	101.07	13.95	-51.0	-51.9	15.2	0.00e+00	0	30	0	391118848	68	3927
2026-01-03 07:46:54.45	100.98	14.04	-51.0	-51.9	15.2	0.00e+00	0	31	0	394264576	68	3916
2026-01-03 07:46:55.44	100.88	14.13	-51.1	-51.9	15.2	0.00e+00	0	31	0	397410304	68	3953
2026-01-03 07:46:56.43	100.79	14.23	-51.1	-52.0	15.2	0.00e+00	0	30	0	399507456	68	3959
2026-01-03 07:46:57.42	100.70	14.32	-51.1	-52.0	15.2	0.00e+00	0	31	0	402653184	68	3970
2026-01-03 07:46:58.42	100.61	14.41	-51.2	-52.0	15.2	0.00e+00	0	31	0	405798912	68	3990
2026-01-03 07:46:59.42	100.51	14.50	-51.1	-51.9	15.2	0.00e+00	0	31	0	408944640	68	3950
2026-01-03 07:47:00.42	100.42	14.60	-51.2	-52.0	15.2	0.00e+00	0	31	0	412090368	68	4004
2026-01-03 07:47:01.42	100.32	14.69	-51.1	-52.0	15.2	0.00e+00	0	31	0	415236096	68	3959
2026-01-03 07:47:02.42	100.23	14.78	-51.1	-52.0	15.2	0.00e+00	0	30	0	418381824	68	3980
2026-01-03 07:47:03.41	100.13	14.88	-51.1	-52.0	15.2	0.00e+00	0	31	0	421527552	68	3973
2026-01-03 07:47:04.41	100.03	14.97	-51.0	-51.9	15.2	0.00e+00	0	31	0	424673280	68	3932
2026-01-03 07:47:05.42	99.93	15.07	-51.1	-52.0	15.2	0.00e+00	0	30	0	427819008	68	3976
2026-01-03 07:47:06.42	99.84	15.16	-51.0	-51.9	15.2	0.00e+00	0	30	0	430964736	68	3923
2026-01-03 07:47:07.41	99.74	15.26	-51.0	-51.9	15.3	0.00e+00	0	30	0	434110464	68	3926
2026-01-03 07:47:08.41	99.64	15.35	-51.1	-52.0	15.2	0.00e+00	0	31	0	437256192	68	3978
2026-01-03 07:47:09.42	99.54	15.45	-51.1	-51.9	15.2	0.00e+00	0	30	0	440401920	68	3944
2026-01-03 07:47:10.43	99.43	15.55	-51.1	-52.0	15.2	0.00e+00	0	31	0	443547648	68	3964
2026-01-03 07:47:11.42	99.33	15.64	-51.1	-52.0	15.2	0.00e+00	0	31	0	446693376	68	3961
2026-01-03 07:47:12.42	99.23	15.74	-51.2	-52.0	15.2	0.00e+00	0	31	0	449839104	68	4002
2026-01-03 07:47:13.42	99.13	15.84	-51.3	-52.1	15.1	0.00e+00	0	31	0	452984832	68	4047
2026-01-03 07:47:14.41	99.02	15.93	-51.2	-52.0	15.2	0.00e+00	0	31	0	456130560	68	3995
2026-01-03 07:47:15.41	98.92	16.03	-51.2	-52.1	15.1	0.00e+00	0	30	0	459276288	68	4033
2026-01-03 07:47:16.41	98.81	16.13	-51.3	-52.1	15.1	0.00e+00	0	30	0	462422016	68	4042
2026-01-03 07:47:17.41	98.71	16.23	-51.3	-52.1	15.2	0.00e+00	0	30	0	465567744	68	4041
2026-01-03 07:47:18.41	98.60	16.33	-51.3	-52.2	15.1	0.00e+00	0	30	0	468713472	68	4074
2026-01-03 07:47:19.41	98.49	16.42	-51.4	-52.3	15.1	0.00e+00	0	30	0	471859200	68	4107
2026-01-03 07:47:20.41	98.39	16.52	-51.3	-52.2	15.1	0.00e+00	0	31	0	475004928	68	4069
2026-01-03 07:47:21.41	98.28	16.62	-51.2	-52.1	15.2	0.00e+00	0	31	0	478150656	68	4022
2026-01-03 07:47:22.41	98.17	16.72	-51.3	-52.2	15.1	0.00e+00	0	31	0	481296384	68	4063
2026-01-03 07:47:23.41	98.06	16.82	-51.4	-52.2	15.1	0.00e+00	0	31	0	484442112	68	4097
2026-01-03 07:47:24.41	97.95	16.92	-51.3	-52.2	15.1	0.00e+00	0	30	0	487587840	68	4083
2026-01-03 07:47:25.41	97.83	17.02	-51.4	-52.2	15.1	0.00e+00	0	31	0	490733568	68	4084
2026-01-03 07:47:26.41	97.72	17.12	-51.4	-52.2	15.1	0.00e+00	0	31	0	493879296	68	4091
2026-01-03 07:47:27.41	97.61	17.23	-51.3	-52.1	15.1	0.00e+00	0	30	0	497025024	68	4049
2026-01-03 07:47:28.41	97.49	17.33	-51.4	-52.2	15.1	0.00e+00	0	31	0	500170752	68	4087
2026-01-03 07:47:29.40	97.38	17.43	-51.3	-52.1	15.1	0.00e+00	0	31	0	503316480	68	4041
2026-01-03 07:47:30.40	97.26	17.53	-51.2	-52.0	15.2	0.00e+00	0	31	0	506462208	68	3990
2026-01-03 07:47:31.40	97.15	17.63	-51.3	-52.1	15.2	0.00e+00	0	30	0	509607936	68	4033
2026-01-03 07:47:32.40	97.03	17.74	-51.1	-51.9	15.2	0.00e+00	0	31	0	512753664	68	3949
2026-01-03 07:47:33.40	96.91	17.84	-51.2	-52.0	15.2	0.00e+00	0	30	0	515899392	68	3999
2026-01-03 07:47:34.40	96.79	17.94	-51.2	-52.0	15.2	0.00e+00	0	31	0	519045120	68	3994
2026-01-03 07:47:35.40	96.67	18.05	-51.3	-52.2	15.1	0.00e+00	0	30	0	522190848	68	4054
2026-01-03 07:47:36.40	96.55	18.15	-51.3	-52.2	15.1	0.00e+00	0	30	0	525336576	68	4069
2026-01-03 07:47:37.40	96.43	18.25	-51.5	-52.4	15.0	0.00e+00	0	31	0	528482304	68	4180
2026-01-03 07:47:38.40	96.31	18.36	-51.4	-52.3	15.1	0.00e+00	0	30	0	531628032	68	4102
2026-01-03 07:47:39.39	96.18	18.46	-51.5	-52.4	15.1	0.00e+00	0	31	0	534773760	68	4164
2026-01-03 07:47:40.39	96.06	18.57	-51.4	-52.3	15.1	0.00e+00	0	30	0	537919488	68	4141
2026-01-03 07:47:41.40	95.93	18.67	-51.5	-52.4	15.1	0.00e+00	0	31	0	541065216	68	4173
2026-01-03 07:47:42.39	95.81	18.78	-51.4	-52.2	15.1	0.00e+00	0	30	0	543162368	68	4088
2026-01-03 07:47:43.39	95.68	18.88	-51.4	-52.2	15.1	0.00e+00	0	31	0	546308096	68	4082
2026-01-03 07:47:44.39	95.55	18.99	-51.2	-52.1	15.2	0.00e+00	0	30	0	549453824	68	4026
2026-01-03 07:47:45.39	95.43	19.10	-51.1	-51.9	15.2	0.00e+00	0	31	0	552599552	68	3956
2026-01-03 07:47:46.39	95.30	19.20	-51.2	-52.0	15.2	0.00e+00	0	31	0	555745280	68	3990
2026-01-03 07:47:47.40	95.16	19.31	-51.0	-51.8	15.3	0.00e+00	0	31	0	558891008	68	3896
2026-01-03 07:47:48.40	95.03	19.42	-51.0	-51.8	15.3	0.00e+00	0	31	0	562036736	68	3891
2026-01-03 07:47:49.40	94.90	19.53	-51.1	-51.9	15.2	0.00e+00	0	31	0	565182464	68	3949
2026-01-03 07:47:50.40	94.77	19.64	-51.0	-51.8	15.3	0.00e+00	0	31	0	568328192	68	3880
2026-01-03 07:47:51.41	94.63	19.75	-51.0	-51.8	15.3	0.00e+00	0	31	0	571473920	68	3908
2026-01-03 07:47:52.40	94.50	19.85	-51.1	-51.9	15.2	0.00e+00	0	31	0	574619648	68	3934
2026-01-03 07:47:53.40	94.36	19.96	-51.0	-51.8	15.3	0.00e+00	0	30	0	577765376	68	3888
2026-01-03 07:47:54.39	94.22	20.07	-51.1	-51.9	15.2	0.00e+00	0	31	0	580911104	68	3947
2026-01-03 07:47:55.39	94.09	20.18	-50.9	-51.7	15.3	0.00e+00	0	30	0	584056832	68	3868
2026-01-03 07:47:56.40	93.95	20.29	-51.0	-51.9	15.3	0.00e+00	0	31	0	587202560	68	3923
2026-01-03 07:47:57.40	93.81	20.40	-50.9	-51.7	15.3	0.00e+00	0	31	0	590348288	68	3837
2026-01-03 07:47:58.40	93.66	20.51	-50.8	-51.6	15.4	0.00e+00	0	31	0	593494016	68	3820
2026-01-03 07:47:59.40	93.52	20.62	-50.8	-51.5	15.4	0.00e+00	0	31	0	596639744	68	3780
2026-01-03 07:48:00.40	93.38	20.73	-50.8	-51.6	15.4	0.00e+00	0	31	0	599785472	68	3793
2026-01-03 07:48:01.41	93.23	20.85	-50.9	-51.7	15.3	0.00e+00	0	31	0	602931200	68	3844
2026-01-03 07:48:02.42	93.08	20.96	-50.8	-51.6	15.4	0.00e+00	0	31	0	606076928	68	3812
2026-01-03 07:48:03.42	92.94	21.07	-50.4	-51.2	15.4	0.00e+00	0	31	0	609222656	67	3839
2026-01-03 07:48:04.41	92.79	21.18	-50.5	-51.3	15.4	0.00e+00	0	31	0	612368384	67	3876
2026-01-03 07:48:05.41	92.64	21.30	-50.5	-51.2	15.4	0.00e+00	0	31	0	615514112	67	3866
2026-01-03 07:48:06.42	92.49	21.41	-50.4	-51.2	15.4	0.00e+00	0	31	0	618659840	67	3836
2026-01-03 07:48:07.41	92.34	21.52	-50.3	-51.1	15.5	0.00e+00	0	31	0	621805568	67	3781
2026-01-03 07:48:08.41	92.19	21.64	-50.3	-51.1	15.4	0.00e+00	0	31	0	624951296	67	3783
2026-01-03 07:48:09.40	92.04	21.75	-50.3	-51.1	15.4	0.00e+00	0	31	0	628097024	67	3785
2026-01-03 07:48:10.41	91.88	21.86	-50.3	-51.1	15.5	0.00e+00	0	31	0	631242752	67	3801
2026-01-03 07:48:11.41	91.73	21.98	-50.2	-51.0	15.5	0.00e+00	0	31	0	634388480	67	3757
2026-01-03 07:48:12.41	91.57	22.09	-50.4	-51.2	15.4	0.00e+00	0	30	0	637534208	67	3826
2026-01-03 07:48:13.41	91.41	22.21	-50.2	-50.9	15.5	0.00e+00	0	31	0	640679936	67	3733
2026-01-03 07:48:14.41	91.25	22.32	-50.1	-50.8	15.5	0.00e+00	0	31	0	643825664	66	3900
2026-01-03 07:48:15.41	91.09	22.44	-50.1	-50.8	15.5	0.00e+00	0	31	0	646971392	66	3902
2026-01-03 07:48:16.42	90.93	22.56	-50.0	-50.7	15.5	0.00e+00	0	31	0	650117120	66	3868
2026-01-03 07:48:17.41	90.77	22.67	-49.9	-50.6	15.5	0.00e+00	0	31	0	653262848	66	3820
2026-01-03 07:48:18.42	90.60	22.79	-49.9	-50.6	15.6	0.00e+00	0	31	0	656408576	66	3797
2026-01-03 07:48:19.41	90.44	22.90	-49.9	-50.6	15.6	0.00e+00	0	31	0	659554304	66	3802
2026-01-03 07:48:20.42	90.27	23.02	-50.0	-50.7	15.5	0.00e+00	0	31	0	662700032	66	3850
2026-01-03 07:48:21.42	90.10	23.14	-50.1	-50.8	15.5	0.00e+00	0	31	0	665845760	66	3891
2026-01-03 07:48:22.42	89.93	23.26	-50.1	-50.8	15.5	0.00e+00	0	30	0	668991488	66	3908
2026-01-03 07:48:23.42	89.76	23.37	-49.9	-50.7	15.5	0.00e+00	0	31	0	672137216	66	3829
2026-01-03 07:48:24.42	89.59	23.49	-49.9	-50.6	15.6	0.00e+00	0	31	0	675282944	66	3822
2026-01-03 07:48:25.42	89.41	23.61	-49.9	-50.6	15.6	0.00e+00	0	31	0	678428672	66	3824
2026-01-03 07:48:26.43	89.24	23.73	-49.9	-50.6	15.6	0.00e+00	0	31	0	681574400	66	3805
2026-01-03 07:48:27.43	89.06	23.85	-50.0	-50.7	15.5	0.00e+00	0	30	0	684720128	66	3833
2026-01-03 07:48:28.43	88.89	23.97	-50.1	-50.8	15.5	0.00e+00	0	30	0	687865856	66	3885
2026-01-03 07:48:29.43	88.71	24.09	-49.9	-50.6	15.6	0.00e+00	0	31	0	691011584	66	3820
2026-01-03 07:48:30.43	88.53	24.21	-49.9	-50.6	15.6	0.00e+00	0	31	0	694157312	66	3818
2026-01-03 07:48:31.44	88.34	24.33	-49.9	-50.6	15.6	0.00e+00	0	31	0	697303040	66	3807
2026-01-03 07:48:32.45	88.16	24.45	-49.9	-50.6	15.6	0.00e+00	0	31	0	700448768	66	3810
2026-01-03 07:48:33.45	87.98	24.57	-49.9	-50.6	15.6	0.00e+00	0	31	0	703594496	66	3819
2026-01-03 07:48:34.45	87.79	24.69	-49.9	-50.7	15.6	0.00e+00	0	31	0	706740224	66	3830
2026-01-03 07:48:35.45	87.60	24.81	-50.0	-50.7	15.5	0.00e+00	0	31	0	709885952	66	3846
2026-01-03 07:48:36.45	87.41	24.93	-50.1	-50.8	15.5	0.00e+00	0	31	0	713031680	66	3907
2026-01-03 07:48:37.45	87.22	25.05	-50.1	-50.8	15.5	0.00e+00	0	31	0	716177408	66	3884
2026-01-03 07:48:38.46	87.03	25.17	-50.1	-50.8	15.5	0.00e+00	0	31	0	719323136	66	3889
2026-01-03 07:48:39.45	86.84	25.29	-50.2	-50.9	15.5	0.00e+00	0	30	0	722468864	66	3941
2026-01-03 07:48:40.45	86.64	25.41	-50.3	-51.0	15.4	0.00e+00	0	31	0	724566016	66	4004
2026-01-03 07:48:41.44	86.45	25.53	-50.4	-51.2	15.4	0.00e+00	0	31	0	727711744	66	4078
2026-01-03 07:48:42.44	86.25	25.66	-50.4	-51.2	15.4	0.00e+00	0	31	0	730857472	66	4077
2026-01-03 07:48:43.44	86.05	25.78	-50.3	-51.1	15.4	0.00e+00	0	31	0	734003200	66	4019
2026-01-03 07:48:44.44	85.85	25.90	-50.3	-51.0	15.4	0.00e+00	0	31	0	737148928	66	4001
2026-01-03 07:48:45.45	85.65	26.02	-50.4	-51.2	15.4	0.00e+00	0	30	0	740294656	66	4053
2026-01-03 07:48:46.44	85.45	26.14	-50.3	-51.0	15.4	0.00e+00	0	31	0	743440384	66	3996
2026-01-03 07:48:47.44	85.24	26.27	-50.3	-51.1	15.4	0.00e+00	0	31	0	746586112	66	4013
2026-01-03 07:48:48.44	85.04	26.39	-50.4	-51.2	15.3	0.00e+00	0	31	0	749731840	66	4068
2026-01-03 07:48:49.44	84.83	26.51	-50.4	-51.2	15.3	0.00e+00	0	31	0	752877568	66	4076
2026-01-03 07:48:50.45	84.61	26.64	-50.6	-51.3	15.3	0.00e+00	0	31	0	756023296	66	4145
2026-01-03 07:48:51.45	84.40	26.76	-50.6	-51.4	15.3	0.00e+00	0	31	0	759169024	66	4150
2026-01-03 07:48:52.45	84.19	26.88	-50.7	-51.5	15.3	0.00e+00	0	30	0	762314752	66	4208
2026-01-03 07:48:53.46	83.97	27.01	-50.7	-51.5	15.3	0.00e+00	0	30	0	765460480	66	4208
2026-01-03 07:48:54.45	83.76	27.13	-50.7	-51.5	15.3	0.00e+00	0	31	0	768606208	66	4206
2026-01-03 07:48:55.45	83.54	27.26	-50.8	-51.5	15.3	0.00e+00	0	31	0	771751936	66	4240
2026-01-03 07:48:56.46	83.32	27.38	-50.6	-51.4	15.3	0.00e+00	0	31	0	774897664	66	4157
2026-01-03 07:48:57.46	83.09	27.50	-50.6	-51.4	15.3	0.00e+00	0	31	0	778043392	66	4158
2026-01-03 07:48:58.46	82.87	27.63	-50.7	-51.5	15.3	0.00e+00	0	31	0	781189120	66	4217
2026-01-03 07:48:59.46	82.64	27.75	-50.8	-51.6	15.2	0.00e+00	0	30	0	784334848	66	4259
2026-01-03 07:49:00.45	82.42	27.87	-51.0	-51.8	15.2	0.00e+00	0	31	0	787480576	67	4123
2026-01-03 07:49:01.45	82.19	28.00	-51.2	-52.0	15.1	0.00e+00	0	31	0	790626304	67	4231
2026-01-03 07:49:02.46	81.96	28.12	-51.3	-52.1	15.1	0.00e+00	0	31	0	793772032	67	4275
2026-01-03 07:49:03.46	81.72	28.25	-51.3	-52.1	15.1	0.00e+00	0	30	0	796917760	67	4279
2026-01-03 07:49:04.46	81.49	28.37	-51.1	-51.9	15.2	0.00e+00	0	30	0	800063488	67	4161
2026-01-03 07:49:05.47	81.25	28.50	-51.0	-51.8	15.2	0.00e+00	0	31	0	803209216	67	4139
2026-01-03 07:49:06.46	81.01	28.62	-50.8	-51.6	15.3	0.00e+00	0	31	0	806354944	67	4039
2026-01-03 07:49:07.47	80.77	28.75	-50.7	-51.5	15.3	0.00e+00	0	31	0	809500672	67	3964
2026-01-03 07:49:08.47	80.53	28.87	-50.7	-51.5	15.3	0.00e+00	0	31	0	812646400	67	3966
2026-01-03 07:49:09.46	80.29	28.99	-50.7	-51.5	15.3	0.00e+00	0	31	0	815792128	67	3968
2026-01-03 07:49:10.47	80.04	29.12	-50.7	-51.4	15.3	0.00e+00	0	31	0	818937856	67	3956
2026-01-03 07:49:11.48	79.79	29.24	-50.7	-51.5	15.3	0.00e+00	0	31	0	822083584	67	3973
2026-01-03 07:49:12.47	79.54	29.37	-50.8	-51.6	15.3	0.00e+00	0	31	0	825229312	67	4007
2026-01-03 07:49:13.48	79.29	29.49	-50.9	-51.6	15.3	0.00e+00	0	31	0	828375040	67	4048
2026-01-03 07:49:14.48	79.03	29.62	-50.9	-51.7	15.3	0.00e+00	0	31	0	831520768	67	4061
2026-01-03 07:49:15.48	78.78	29.74	-51.0	-51.8	15.2	0.00e+00	0	31	0	834666496	67	4129
2026-01-03 07:49:16.47	78.52	29.86	-51.1	-52.0	15.2	0.00e+00	0	31	0	837812224	67	4197
2026-01-03 07:49:17.48	78.26	29.99	-51.3	-52.2	15.1	0.00e+00	0	31	0	840957952	67	4296
2026-01-03 07:49:18.48	78.00	30.11	-51.3	-52.2	15.1	0.00e+00	0	31	0	844103680	67	4315
2026-01-03 07:49:19.48	77.74	30.23	-51.5	-52.4	15.1	0.00e+00	0	30	0	847249408	68	4176
2026-01-03 07:49:20.48	77.47	30.36	-51.7	-52.6	15.1	0.00e+00	0	30	0	850395136	68	4254
2026-01-03 07:49:21.49	77.20	30.48	-51.6	-52.4	15.1	0.00e+00	0	31	0	853540864	68	4191
2026-01-03 07:49:22.50	76.93	30.60	-51.6	-52.4	15.1	0.00e+00	0	30	0	856686592	68	4186
2026-01-03 07:49:23.50	76.66	30.73	-51.5	-52.4	15.1	0.00e+00	0	31	0	859832320	68	4157
2026-01-03 07:49:24.50	76.38	30.85	-51.3	-52.1	15.2	0.00e+00	0	31	0	862978048	68	4033
2026-01-03 07:49:25.50	76.11	30.97	-51.1	-51.9	15.3	0.00e+00	0	31	0	866123776	68	3938
2026-01-03 07:49:26.50	75.83	31.09	-51.1	-51.9	15.3	0.00e+00	0	31	0	869269504	68	3945
2026-01-03 07:49:27.51	75.54	31.21	-51.0	-51.8	15.4	0.00e+00	0	31	0	872415232	68	3884
2026-01-03 07:49:28.51	75.26	31.34	-50.9	-51.7	15.4	0.00e+00	0	31	0	875560960	68	3840
2026-01-03 07:49:29.51	74.98	31.46	-51.1	-51.8	15.3	0.00e+00	0	31	0	878706688	68	3909
2026-01-03 07:49:30.52	74.69	31.58	-51.0	-51.7	15.4	0.00e+00	0	31	0	881852416	68	3866
2026-01-03 07:49:31.52	74.40	31.70	-51.0	-51.8	15.4	0.00e+00	0	31	0	884998144	68	3898
2026-01-03 07:49:32.52	74.11	31.82	-51.1	-51.9	15.4	0.00e+00	0	31	0	888143872	68	3936
2026-01-03 07:49:33.52	73.82	31.94	-51.0	-51.8	15.4	0.00e+00	0	31	0	891289600	68	3899
2026-01-03 07:49:34.51	73.52	32.06	-51.1	-51.9	15.3	0.00e+00	0	31	0	894435328	68	3915
2026-01-03 07:49:35.52	73.22	32.18	-51.0	-51.7	15.4	0.00e+00	0	31	0	897581056	68	3860
2026-01-03 07:49:36.51	72.93	32.29	-50.8	-51.6	15.4	0.00e+00	0	31	0	900726784	68	3804
2026-01-03 07:49:37.51	72.62	32.41	-50.9	-51.7	15.4	0.00e+00	0	31	0	902823936	68	3842
2026-01-03 07:49:38.51	72.32	32.53	-51.0	-51.8	15.4	0.00e+00	0	31	0	905969664	68	3878
2026-01-03 07:49:39.50	72.02	32.64	-51.1	-51.9	15.4	0.00e+00	0	31	0	909115392	68	3929
2026-01-03 07:49:40.51	71.70	32.76	-51.1	-51.9	15.3	0.00e+00	0	31	0	912261120	68	3949
2026-01-03 07:49:41.50	71.40	32.88	-51.2	-52.0	15.3	0.00e+00	0	31	0	915406848	68	4002
2026-01-03 07:49:42.50	71.08	32.99	-51.3	-52.1	15.3	0.00e+00	0	31	0	918552576	68	4012
2026-01-03 07:49:43.51	70.77	33.11	-51.4	-52.2	15.2	0.00e+00	0	31	0	921698304	68	4066
2026-01-03 07:49:44.51	70.45	33.22	-51.3	-52.1	15.2	0.00e+00	0	30	0	924844032	68	4050
2026-01-03 07:49:45.52	70.13	33.34	-51.3	-52.1	15.2	0.00e+00	0	31	0	927989760	68	4030
2026-01-03 07:49:46.52	69.80	33.45	-51.3	-52.2	15.2	0.00e+00	0	30	0	931135488	68	4057
2026-01-03 07:49:47.52	69.48	33.56	-51.6	-52.4	15.1	0.00e+00	0	30	0	934281216	68	4186
2026-01-03 07:49:48.52	69.15	33.67	-51.7	-52.5	15.1	0.00e+00	0	31	0	937426944	68	4225
2026-01-03 07:49:49.51	68.83	33.78	-51.7	-52.5	15.1	0.00e+00	0	31	0	940572672	68	4239
2026-01-03 07:49:50.51	68.50	33.89	-51.6	-52.5	15.1	0.00e+00	0	31	0	943718400	68	4194
2026-01-03 07:49:51.51	68.16	34.00	-51.5	-52.3	15.2	0.00e+00	0	31	0	946864128	68	4134
2026-01-03 07:49:52.51	67.83	34.11	-51.5	-52.4	15.2	0.00e+00	0	31	0	950009856	68	4152
2026-01-03 07:49:53.51	67.49	34.22	-51.5	-52.4	15.2	0.00e+00	0	31	0	953155584	68	4155
2026-01-03 07:49:54.51	67.15	34.33	-51.7	-52.6	15.1	0.00e+00	0	31	0	956301312	68	4254
2026-01-03 07:49:55.52	66.80	34.44	-51.6	-52.5	15.1	0.00e+00	0	31	0	959447040	68	4215
2026-01-03 07:49:56.52	66.46	34.54	-51.8	-52.6	15.1	0.00e+00	0	31	0	962592768	68	4288
2026-01-03 07:49:57.52	66.11	34.65	-51.8	-52.7	15.1	0.00e+00	0	31	0	965738496	68	4295
2026-01-03 07:49:58.52	65.76	34.75	-51.9	-52.8	15.1	0.00e+00	0	31	0	968884224	69	4099
2026-01-03 07:49:59.51	65.42	34.85	-51.9	-52.8	15.1	0.00e+00	0	31	0	972029952	69	4116
2026-01-03 07:50:00.51	65.06	34.96	-52.0	-52.9	15.0	0.00e+00	0	31	0	975175680	69	4173
2026-01-03 07:50:01.51	64.71	35.06	-52.1	-53.1	15.0	0.00e+00	0	31	0	978321408	69	4256
2026-01-03 07:50:02.51	64.35	35.16	-52.2	-53.2	14.9	0.00e+00	0	31	0	981467136	69	4313
2026-01-03 07:50:03.51	63.99	35.26	-52.2	-53.1	15.0	0.00e+00	0	31	0	984612864	69	4261
2026-01-03 07:50:04.51	63.63	35.36	-51.9	-52.7	15.1	0.00e+00	0	31	0	987758592	69	4090
2026-01-03 07:50:05.51	63.26	35.46	-51.6	-52.4	15.2	0.00e+00	0	31	0	990904320	69	3932
2026-01-03 07:50:06.51	62.90	35.55	-51.6	-52.4	15.2	0.00e+00	0	31	0	994050048	69	3937
2026-01-03 07:50:07.51	62.53	35.65	-51.8	-52.6	15.1	0.00e+00	0	31	0	997195776	69	4040
2026-01-03 07:50:08.52	62.15	35.74	-52.0	-52.9	15.1	0.00e+00	0	31	0	1000341504	69	4159
2026-01-03 07:50:09.51	61.78	35.84	-52.2	-53.1	15.0	0.00e+00	0	31	0	1003487232	69	4266
2026-01-03 07:50:10.51	61.41	35.93	-52.2	-53.1	15.0	0.00e+00	0	31	0	1006632960	69	4279
2026-01-03 07:50:11.51	61.03	36.02	-52.3	-53.2	14.9	0.00e+00	0	31	0	1009778688	69	4331
2026-01-03 07:50:12.51	60.65	36.11	-52.5	-53.5	14.9	0.00e+00	0	31	0	1012924416	70	4210
2026-01-03 07:50:13.51	60.27	36.20	-52.6	-53.6	14.8	0.00e+00	0	31	0	1016070144	70	4286
2026-01-03 07:50:14.51	59.88	36.28	-52.7	-53.7	14.8	0.00e+00	0	31	0	1019215872	70	4325
2026-01-03 07:50:15.51	59.50	36.37	-52.8	-53.8	14.7	0.00e+00	0	31	0	1022361600	70	4367
2026-01-03 07:50:16.51	59.11	36.46	-52.7	-53.6	14.8	0.00e+00	0	31	0	1025507328	70	4285
2026-01-03 07:50:17.51	58.72	36.54	-52.5	-53.5	14.9	0.00e+00	0	31	0	1028653056	70	4228
2026-01-03 07:50:18.51	58.33	36.62	-52.4	-53.4	14.9	0.00e+00	0	31	0	1031798784	70	4147
2026-01-03 07:50:19.50	57.94	36.70	-52.4	-53.3	15.0	0.00e+00	0	31	0	1034944512	70	4115
2026-01-03 07:50:20.50	57.54	36.78	-52.5	-53.5	14.9	0.00e+00	0	31	0	1038090240	70	4215
2026-01-03 07:50:21.50	57.15	36.86	-52.5	-53.5	14.9	0.00e+00	0	31	0	1041235968	70	4197
2026-01-03 07:50:22.51	56.74	36.94	-52.7	-53.7	14.8	0.00e+00	0	31	0	1044381696	70	4294
2026-01-03 07:50:23.51	56.34	37.01	-52.4	-53.4	14.9	0.00e+00	0	31	0	1047527424	70	4161
2026-01-03 07:50:24.51	55.94	37.09	-52.2	-53.1	15.0	0.00e+00	0	31	0	1050673152	70	4051
2026-01-03 07:50:25.51	55.53	37.16	-52.3	-53.2	15.0	0.00e+00	0	31	0	1053818880	70	4072
2026-01-03 07:50:26.51	55.12	37.23	-52.2	-53.1	15.1	0.00e+00	0	31	0	1056964608	70	4029
2026-01-03 07:50:27.52	54.71	37.30	-52.2	-53.1	15.1	0.00e+00	0	31	0	1060110336	70	4017
2026-01-03 07:50:28.52	54.30	37.37	-52.2	-53.2	15.0	0.00e+00	0	31	0	1063256064	70	4057
2026-01-03 07:50:29.52	53.89	37.44	-52.4	-53.3	15.0	0.00e+00	0	31	0	1065353216	70	4140
2026-01-03 07:50:30.53	53.47	37.50	-52.4	-53.3	15.0	0.00e+00	0	31	0	1068498944	70	4116
2026-01-03 07:50:31.52	53.06	37.56	-52.4	-53.3	15.0	0.00e+00	0	31	0	1071644672	70	4121
2026-01-03 07:50:32.52	52.64	37.62	-52.6	-53.5	14.9	0.00e+00	0	31	0	1074790400	70	4218
2026-01-03 07:50:33.52	52.22	37.68	-52.7	-53.7	14.8	0.00e+00	0	30	0	1077936128	70	4305
2026-01-03 07:50:34.52	51.80	37.74	-53.0	-54.0	14.7	0.00e+00	0	31	0	1081081856	71	4219
2026-01-03 07:50:35.53	51.38	37.80	-52.9	-53.9	14.8	0.00e+00	0	31	0	1084227584	71	4178
2026-01-03 07:50:36.53	50.96	37.86	-52.9	-53.9	14.8	0.00e+00	0	31	0	1087373312	71	4188
2026-01-03 07:50:37.53	50.53	37.91	-52.8	-53.9	14.8	0.00e+00	0	31	0	1090519040	71	4146
2026-01-03 07:50:38.53	50.11	37.96	-52.6	-53.6	14.9	0.00e+00	0	31	0	1093664768	71	4034
2026-01-03 07:50:39.52	49.68	38.01	-52.7	-53.7	14.9	0.00e+00	0	31	0	1096810496	71	4062
2026-01-03 07:50:40.52	49.25	38.06	-52.5	-53.5	14.9	0.00e+00	0	31	0	1099956224	71	3981
2026-01-03 07:50:41.51	48.83	38.10	-52.5	-53.4	15.0	0.00e+00	0	31	0	1103101952	71	3958
2026-01-03 07:50:42.51	48.40	38.15	-52.6	-53.5	14.9	0.00e+00	0	31	0	1106247680	71	3995
2026-01-03 07:50:43.52	47.96	38.19	-52.6	-53.6	14.9	0.00e+00	0	31	0	1109393408	71	4008
2026-01-03 07:50:44.52	47.53	38.23	-52.7	-53.7	14.9	0.00e+00	0	31	0	1112539136	71	4079
2026-01-03 07:50:45.53	47.09	38.27	-52.5	-53.5	15.0	0.00e+00	0	31	0	1115684864	71	3970
2026-01-03 07:50:46.52	46.66	38.31	-52.6	-53.6	14.9	0.00e+00	0	31	0	1118830592	71	4027
2026-01-03 07:50:47.53	46.22	38.34	-52.7	-53.6	14.8	0.00e+00	0	31	0	1121976320	71	4050
2026-01-03 07:50:48.52	45.79	38.38	-52.9	-53.9	14.7	0.00e+00	0	31	0	1125122048	71	4151
2026-01-03 07:50:49.52	45.35	38.41	-53.1	-54.2	14.7	0.00e+00	0	31	0	1128267776	71	4293
2026-01-03 07:50:50.53	44.90	38.44	-53.2	-54.2	14.6	0.00e+00	0	31	0	1131413504	71	4339
2026-01-03 07:50:51.52	44.47	38.47	-53.2	-54.3	14.5	0.00e+00	0	31	0	1134559232	71	4351
2026-01-03 07:50:52.52	44.03	38.49	-53.1	-54.1	14.7	0.00e+00	0	31	0	1137704960	71	4284
2026-01-03 07:50:53.52	43.59	38.52	-52.9	-53.9	14.7	0.00e+00	0	31	0	1140850688	71	4173
2026-01-03 07:50:54.52	43.15	38.54	-52.8	-53.8	14.8	0.00e+00	0	31	0	1143996416	71	4109
2026-01-03 07:50:55.52	42.70	38.56	-52.8	-53.8	14.7	0.00e+00	0	30	0	1147142144	71	4137
2026-01-03 07:50:56.53	42.26	38.58	-52.8	-53.8	14.7	0.00e+00	0	31	0	1150287872	71	4136
2026-01-03 07:50:57.53	41.81	38.59	-52.7	-53.6	14.9	0.00e+00	0	31	0	1153433600	71	4042
2026-01-03 07:50:58.53	41.37	38.61	-52.7	-53.6	14.9	0.00e+00	0	30	0	1156579328	71	4048
2026-01-03 07:50:59.54	40.92	38.62	-52.6	-53.6	14.9	0.00e+00	0	31	0	1159725056	71	4013
2026-01-03 07:51:00.54	40.48	38.63	-52.8	-53.7	14.8	0.00e+00	0	31	0	1162870784	71	4091
2026-01-03 07:51:01.55	40.03	38.64	-52.9	-53.9	14.8	0.00e+00	0	31	0	1166016512	71	4188
2026-01-03 07:51:02.55	39.58	38.65	-53.1	-54.1	14.7	0.00e+00	0	31	0	1169162240	71	4271
2026-01-03 07:51:03.55	39.14	38.65	-53.0	-54.0	14.7	0.00e+00	0	31	0	1172307968	71	4242
2026-01-03 07:51:04.55	38.69	38.65	-52.9	-53.9	14.8	0.00e+00	0	31	0	1175453696	71	4173
2026-01-03 07:51:05.56	38.24	38.65	-53.0	-54.1	14.7	0.00e+00	0	31	0	1178599424	71	4249
2026-01-03 07:51:06.57	37.80	38.65	-53.0	-54.0	14.7	0.00e+00	0	31	0	1181745152	71	4222
2026-01-03 07:51:07.56	37.35	38.65	-52.9	-53.9	14.8	0.00e+00	0	31	0	1184890880	71	4177
2026-01-03 07:51:08.56	36.91	38.64	-52.9	-53.9	14.8	0.00e+00	0	31	0	1188036608	71	4170
2026-01-03 07:51:09.56	36.47	38.64	-52.7	-53.7	14.9	0.00e+00	0	31	0	1191182336	71	4080
2026-01-03 07:51:10.56	36.02	38.63	-52.7	-53.6	14.9	0.00e+00	0	31	0	1194328064	71	4027
2026-01-03 07:51:11.56	35.58	38.62	-52.8	-53.8	14.8	0.00e+00	0	31	0	1197473792	71	4139
2026-01-03 07:51:12.57	35.13	38.60	-53.1	-54.1	14.7	0.00e+00	0	31	0	1200619520	71	4278
2026-01-03 07:51:13.57	34.69	38.59	-52.9	-54.0	14.8	0.00e+00	0	31	0	1203765248	71	4195
2026-01-03 07:51:14.57	34.24	38.57	-52.9	-53.9	14.8	0.00e+00	0	31	0	1206910976	71	4175
2026-01-03 07:51:15.58	33.80	38.55	-53.1	-54.1	14.7	0.00e+00	0	31	0	1210056704	71	4284
2026-01-03 07:51:16.59	33.35	38.53	-53.1	-54.2	14.6	0.00e+00	0	31	0	1213202432	71	4315
2026-01-03 07:51:17.59	32.91	38.51	-53.1	-54.1	14.6	0.00e+00	0	31	0	1216348160	71	4290
2026-01-03 07:51:18.60	32.46	38.48	-53.0	-54.0	14.7	0.00e+00	0	31	0	1219493888	71	4232
2026-01-03 07:51:19.61	32.02	38.46	-52.8	-53.8	14.8	0.00e+00	0	31	0	1222639616	71	4117
2026-01-03 07:51:20.61	31.58	38.43	-52.5	-53.5	14.9	0.00e+00	0	31	0	1225785344	71	3984
2026-01-03 07:51:21.61	31.14	38.40	-52.6	-53.5	14.9	0.00e+00	0	30	0	1228931072	71	4003
2026-01-03 07:51:22.61	30.70	38.36	-52.5	-53.4	15.0	0.00e+00	0	31	0	1232076800	71	3935
2026-01-03 07:51:23.62	30.26	38.33	-52.5	-53.5	15.0	0.00e+00	0	31	0	1235222528	71	3963
2026-01-03 07:51:24.62	29.83	38.29	-52.5	-53.4	15.0	0.00e+00	0	31	0	1238368256	71	3953
2026-01-03 07:51:25.61	29.40	38.25	-52.3	-53.3	15.1	0.00e+00	0	31	0	1241513984	71	3875
2026-01-03 07:51:26.61	28.96	38.22	-52.3	-53.2	15.1	0.00e+00	0	31	0	1244659712	71	3825
2026-01-03 07:51:27.61	28.53	38.17	-52.2	-53.1	15.1	0.00e+00	0	31	0	1247805440	71	3790
2026-01-03 07:51:28.61	28.10	38.13	-52.3	-53.3	15.0	0.00e+00	0	31	0	1250951168	70	4114
2026-01-03 07:51:29.62	27.67	38.08	-52.4	-53.3	15.0	0.00e+00	0	31	0	1254096896	70	4141
2026-01-03 07:51:30.62	27.24	38.04	-52.4	-53.4	14.9	0.00e+00	0	31	0	1257242624	70	4153
2026-01-03 07:51:31.62	26.81	37.99	-52.3	-53.2	15.0	0.00e+00	0	31	0	1260388352	70	4092
2026-01-03 07:51:32.62	26.38	37.94	-52.3	-53.2	15.0	0.00e+00	0	31	0	1263534080	70	4090
2026-01-03 07:51:33.62	25.96	37.89	-52.4	-53.4	14.9	0.00e+00	0	31	0	1266679808	70	4164
2026-01-03 07:51:34.63	25.53	37.83	-52.3	-53.2	15.0	0.00e+00	0	31	0	1268776960	70	4093
2026-01-03 07:51:35.64	25.11	37.77	-52.5	-53.5	14.9	0.00e+00	0	31	0	1272971264	70	4195
2026-01-03 07:51:36.64	24.68	37.72	-52.9	-53.9	14.8	0.00e+00	0	31	0	1275068416	71	4178
2026-01-03 07:51:37.64	24.27	37.66	-53.2	-54.3	14.6	0.00e+00	0	31	0	1278214144	71	4347
2026-01-03 07:51:38.63	23.85	37.60	-53.4	-54.5	14.5	0.00e+00	0	31	0	1281359872	72	4239
2026-01-03 07:51:39.64	23.43	37.53	-53.6	-54.7	14.5	0.00e+00	0	31	0	1285554176	72	4337
2026-01-03 07:51:40.64	23.02	37.47	-53.4	-54.5	14.6	0.00e+00	0	31	0	1288699904	72	4223
2026-01-03 07:51:41.64	22.61	37.41	-53.4	-54.5	14.6	0.00e+00	0	30	0	1291845632	72	4203
2026-01-03 07:51:42.65	22.19	37.34	-52.9	-54.0	14.8	0.00e+00	0	31	0	1293942784	72	3968
2026-01-03 07:51:43.65	21.78	37.27	-52.5	-53.4	15.0	0.00e+00	0	31	0	1297088512	71	3945
2026-01-03 07:51:44.66	21.37	37.20	-52.4	-53.3	15.0	0.00e+00	0	31	0	1300234240	71	3882
2026-01-03 07:51:45.67	20.96	37.13	-52.3	-53.2	15.1	0.00e+00	0	31	0	1303379968	71	3829
2026-01-03 07:51:46.67	20.56	37.05	-52.6	-53.5	15.0	0.00e+00	0	31	0	1306525696	71	3989
2026-01-03 07:51:47.67	20.15	36.98	-52.8	-53.8	14.8	0.00e+00	0	30	0	1309671424	71	4107
2026-01-03 07:51:48.67	19.75	36.90	-53.1	-54.1	14.7	0.00e+00	0	31	0	1312817152	71	4279
2026-01-03 07:51:49.68	19.35	36.82	-53.2	-54.2	14.6	0.00e+00	0	31	0	1315962880	71	4328
2026-01-03 07:51:50.68	18.96	36.75	-52.8	-53.8	14.8	0.00e+00	0	30	0	1319108608	71	4135
2026-01-03 07:51:51.68	18.56	36.66	-52.2	-53.0	15.1	0.00e+00	0	31	0	1322254336	71	3777
2026-01-03 07:51:52.69	18.17	36.58	-51.9	-52.7	15.2	0.00e+00	0	31	0	1325400064	70	3853
2026-01-03 07:51:53.69	17.78	36.50	-51.6	-52.4	15.2	0.00e+00	0	31	0	1328545792	69	3943
2026-01-03 07:51:54.69	17.39	36.42	-51.6	-52.4	15.3	0.00e+00	0	31	0	1331691520	69	3919
2026-01-03 07:51:55.70	17.00	36.33	-51.9	-52.8	15.1	0.00e+00	0	31	0	1334837248	69	4125
2026-01-03 07:51:56.71	16.61	36.24	-52.2	-53.1	14.9	0.00e+00	0	31	0	1337982976	69	4265
2026-01-03 07:51:57.72	16.22	36.15	-52.6	-53.5	14.9	0.00e+00	0	31	0	1341128704	70	4213
2026-01-03 07:51:58.72	15.84	36.06	-52.7	-53.7	14.8	0.00e+00	0	31	0	1344274432	70	4298
2026-01-03 07:51:59.73	15.46	35.97	-52.6	-53.5	14.9	0.00e+00	0	31	0	1347420160	70	4237
2026-01-03 07:52:00.74	15.08	35.88	-52.4	-53.3	15.0	0.00e+00	0	31	0	1350565888	70	4115
2026-01-03 07:52:01.74	14.71	35.79	-52.3	-53.2	15.0	0.00e+00	0	31	0	1353711616	70	4069
2026-01-03 07:52:02.74	14.34	35.69	-52.0	-52.8	15.2	0.00e+00	0	31	0	1356857344	70	3902
2026-01-03 07:52:03.75	13.96	35.60	-52.1	-53.0	15.1	0.00e+00	0	30	0	1360003072	70	3986
2026-01-03 07:52:04.76	13.59	35.50	-52.5	-53.4	14.9	0.00e+00	0	31	0	1363148800	70	4188
2026-01-03 07:52:05.76	13.23	35.40	-52.4	-53.3	15.0	0.00e+00	0	31	0	1366294528	70	4133
2026-01-03 07:52:06.77	12.86	35.30	-52.5	-53.4	14.9	0.00e+00	0	31	0	1369440256	70	4186
2026-01-03 07:52:07.77	12.50	35.21	-52.3	-53.2	15.0	0.00e+00	0	31	0	1372585984	70	4076
2026-01-03 07:52:08.77	12.14	35.11	-52.1	-53.0	15.1	0.00e+00	0	31	0	1375731712	70	3984
2026-01-03 07:52:09.78	11.78	35.00	-51.9	-52.8	15.2	0.00e+00	0	31	0	1378877440	70	3899
2026-01-03 07:52:10.78	11.43	34.90	-51.9	-52.8	15.2	0.00e+00	0	31	0	1382023168	70	3894
2026-01-03 07:52:11.78	11.08	34.80	-52.2	-53.1	15.0	0.00e+00	0	31	0	1385168896	70	4037
2026-01-03 07:52:12.78	10.73	34.70	-52.4	-53.4	14.9	0.00e+00	0	31	0	1388314624	70	4151
2026-01-03 07:52:13.78	10.38	34.59	-52.7	-53.7	14.8	0.00e+00	0	31	0	1391460352	70	4294
2026-01-03 07:52:14.79	10.03	34.48	-52.7	-53.7	14.7	0.00e+00	0	31	0	1394606080	70	4328
2026-01-03 07:52:15.79	9.69	34.38	-52.2	-53.2	15.0	0.00e+00	0	30	0	1397751808	70	4056
2026-01-03 07:52:16.79	9.35	34.27	-51.6	-52.5	15.2	0.00e+00	0	31	0	1400897536	69	3976
2026-01-03 07:52:17.79	9.01	34.16	-51.5	-52.3	15.3	0.00e+00	0	31	0	1404043264	69	3902
2026-01-03 07:52:18.80	8.67	34.05	-51.5	-52.3	15.3	0.00e+00	0	31	0	1407188992	69	3881
2026-01-03 07:52:19.80	8.34	33.94	-51.4	-52.2	15.3	0.00e+00	0	31	0	1410334720	69	3841
2026-01-03 07:52:20.80	8.01	33.83	-51.5	-52.3	15.2	0.00e+00	0	31	0	1413480448	69	3885
2026-01-03 07:52:21.80	7.68	33.72	-51.9	-52.7	15.1	0.00e+00	0	31	0	1416626176	69	4092
2026-01-03 07:52:22.80	7.35	33.61	-52.1	-53.0	15.0	0.00e+00	0	31	0	1419771904	69	4230
2026-01-03 07:52:23.81	7.03	33.50	-52.1	-53.0	15.0	0.00e+00	0	31	0	1422917632	69	4242
2026-01-03 07:52:24.81	6.70	33.39	-52.0	-52.9	15.0	0.00e+00	0	31	0	1426063360	69	4185
2026-01-03 07:52:25.82	6.38	33.27	-51.7	-52.6	15.1	0.00e+00	0	31	0	1429209088	69	4023
2026-01-03 07:52:26.82	6.06	33.16	-51.7	-52.5	15.2	0.00e+00	0	31	0	1432354816	69	3987
2026-01-03 07:52:27.83	5.75	33.04	-51.5	-52.3	15.3	0.00e+00	0	31	0	1435500544	69	3871
2026-01-03 07:52:28.83	5.43	32.93	-51.5	-52.3	15.3	0.00e+00	0	31	0	1438646272	69	3870
2026-01-03 07:52:29.84	5.12	32.81	-51.7	-52.5	15.2	0.00e+00	0	31	0	1441792000	69	3987
2026-01-03 07:52:30.84	4.81	32.70	-51.5	-52.3	15.3	0.00e+00	0	31	0	1444937728	69	3902
2026-01-03 07:52:31.84	4.50	32.58	-51.1	-51.8	15.4	0.00e+00	0	31	0	1448083456	68	3910
2026-01-03 07:52:32.85	4.20	32.46	-50.9	-51.6	15.4	0.00e+00	0	31	0	1451229184	68	3806
2026-01-03 07:52:33.87	3.89	32.34	-50.5	-51.2	15.5	0.00e+00	0	31	0	1454374912	67	3851
2026-01-03 07:52:34.87	3.59	32.22	-50.3	-50.9	15.6	0.00e+00	0	31	0	1457520640	67	3737
2026-01-03 07:52:35.87	3.29	32.11	-50.1	-50.7	15.5	0.00e+00	0	30	0	1460666368	66	3865
2026-01-03 07:52:36.87	3.00	31.99	-50.1	-50.8	15.5	0.00e+00	0	31	0	1463812096	66	3897
2026-01-03 07:52:37.88	2.70	31.87	-50.4	-51.1	15.4	0.00e+00	0	31	0	1466957824	66	4011
2026-01-03 07:52:38.88	2.41	31.75	-50.5	-51.2	15.4	0.00e+00	0	31	0	1470103552	66	4095
2026-01-03 07:52:39.88	2.12	31.63	-50.7	-51.4	15.3	0.00e+00	0	31	0	1473249280	66	4192
2026-01-03 07:52:40.87	1.84	31.51	-50.7	-51.4	15.3	0.00e+00	0	31	0	1476395008	66	4180
2026-01-03 07:52:41.88	1.55	31.39	-50.7	-51.4	15.3	0.00e+00	0	31	0	1479540736	66	4192
2026-01-03 07:52:42.88	1.27	31.27	-50.6	-51.3	15.3	0.00e+00	0	31	0	1482686464	66	4121
2026-01-03 07:52:43.88	0.99	31.15	-50.6	-51.3	15.3	0.00e+00	0	31	0	1485832192	66	4138
2026-01-03 07:52:44.88	0.71	31.02	-50.6	-51.3	15.3	0.00e+00	0	31	0	1488977920	66	4126
2026-01-03 07:52:45.89	0.43	30.90	-50.6	-51.4	15.3	0.00e+00	0	31	0	1492123648	66	4149
2026-01-03 07:52:46.89	0.15	30.78	-50.9	-51.7	15.3	0.00e+00	0	31	0	1495269376	67	4065
2026-01-03 07:52:47.89	359.88	30.66	-51.2	-52.0	15.2	0.00e+00	0	31	0	1498415104	67	4201
2026-01-03 07:52:48.89	359.61	30.54	-51.3	-52.1	15.1	0.00e+00	0	31	0	1501560832	67	4283
2026-01-03 07:52:49.89	359.35	30.41	-51.2	-52.0	15.2	0.00e+00	0	31	0	1504706560	67	4240
2026-01-03 07:52:50.89	359.08	30.29	-51.1	-52.0	15.2	0.00e+00	0	31	0	1507852288	67	4195
2026-01-03 07:52:51.89	358.82	30.17	-51.2	-52.0	15.2	0.00e+00	0	31	0	1510998016	67	4199
2026-01-03 07:52:52.89	358.55	30.04	-50.9	-51.6	15.3	0.00e+00	0	31	0	1514143744	67	4047
2026-01-03 07:52:53.90	358.29	29.92	-50.8	-51.6	15.4	0.00e+00	0	31	0	1517289472	67	4005
2026-01-03 07:52:54.90	358.03	29.80	-50.7	-51.5	15.4	0.00e+00	0	31	0	1520435200	67	3974
2026-01-03 07:52:55.91	357.78	29.67	-50.9	-51.7	15.3	0.00e+00	0	30	0	1523580928	67	4060
2026-01-03 07:52:56.91	357.52	29.55	-50.8	-51.5	15.3	0.00e+00	0	31	0	1526726656	67	3994
2026-01-03 07:52:57.91	357.27	29.43	-50.7	-51.5	15.3	0.00e+00	0	31	0	1529872384	67	3983
2026-01-03 07:52:58.91	357.02	29.30	-50.8	-51.5	15.3	0.00e+00	0	30	0	1533018112	67	3992
2026-01-03 07:52:59.92	356.77	29.18	-50.8	-51.6	15.3	0.00e+00	0	31	0	1536163840	67	4012
2026-01-03 07:53:00.93	356.52	29.05	-50.8	-51.5	15.3	0.00e+00	0	31	0	1539309568	67	3998
2026-01-03 07:53:01.93	356.28	28.93	-50.7	-51.5	15.4	0.00e+00	0	31	0	1542455296	67	3976
2026-01-03 07:53:02.94	356.03	28.80	-50.9	-51.6	15.3	0.00e+00	0	31	0	1545601024	67	4050
2026-01-03 07:53:03.94	355.79	28.68	-50.8	-51.6	15.3	0.00e+00	0	30	0	1548746752	67	4026
2026-01-03 07:53:04.94	355.56	28.56	-50.8	-51.6	15.3	0.00e+00	0	31	0	1551892480	67	4037
2026-01-03 07:53:05.94	355.32	28.43	-50.8	-51.6	15.3	0.00e+00	0	31	0	1555038208	67	4031
2026-01-03 07:53:06.95	355.08	28.31	-50.9	-51.7	15.3	0.00e+00	0	31	0	1558183936	67	4060
2026-01-03 07:53:07.95	354.85	28.18	-50.8	-51.6	15.3	0.00e+00	0	31	0	1561329664	67	4009
2026-01-03 07:53:08.96	354.62	28.06	-50.8	-51.5	15.4	0.00e+00	0	31	0	1564475392	67	3991
2026-01-03 07:53:09.96	354.39	27.93	-50.7	-51.5	15.4	0.00e+00	0	31	0	1567621120	67	3979
2026-01-03 07:53:10.97	354.16	27.81	-50.4	-51.2	15.5	0.00e+00	0	30	0	1570766848	67	3827
2026-01-03 07:53:11.97	353.93	27.69	-50.4	-51.1	15.5	0.00e+00	0	31	0	1573912576	67	3818
2026-01-03 07:53:12.97	353.71	27.56	-50.3	-51.0	15.5	0.00e+00	0	31	0	1577058304	67	3774
2026-01-03 07:53:13.98	353.49	27.44	-50.3	-51.1	15.5	0.00e+00	0	31	0	1580204032	67	3785
2026-01-03 07:53:14.98	353.26	27.31	-50.3	-51.0	15.5	0.00e+00	0	31	0	1583349760	67	3756
2026-01-03 07:53:15.99	353.04	27.19	-50.5	-51.2	15.5	0.00e+00	0	31	0	1586495488	67	3853
2026-01-03 07:53:17.00	352.83	27.07	-50.7	-51.4	15.4	0.00e+00	0	31	0	1589641216	67	3950
2026-01-03 07:53:18.00	352.61	26.94	-50.9	-51.7	15.3	0.00e+00	0	31	0	1592786944	67	4080
2026-01-03 07:53:19.01	352.39	26.82	-51.0	-51.9	15.2	0.00e+00	0	31	0	1595932672	67	4147
2026-01-03 07:53:20.01	352.18	26.70	-51.0	-51.8	15.2	0.00e+00	0	31	0	1599078400	67	4120
2026-01-03 07:53:21.02	351.97	26.57	-51.0	-51.8	15.2	0.00e+00	0	31	0	1602224128	67	4112
2026-01-03 07:53:22.03	351.76	26.45	-50.6	-51.4	15.4	0.00e+00	0	31	0	1605369856	67	3932
2026-01-03 07:53:23.03	351.55	26.32	-50.4	-51.1	15.5	0.00e+00	0	31	0	1608515584	67	3801
2026-01-03 07:53:24.03	351.35	26.20	-50.0	-50.7	15.5	0.00e+00	0	31	0	1611661312	66	3828
2026-01-03 07:53:25.04	351.14	26.08	-49.9	-50.6	15.6	0.00e+00	0	31	0	1614807040	66	3809
2026-01-03 07:53:26.04	350.94	25.96	-50.0	-50.7	15.5	0.00e+00	0	31	0	1617952768	66	3847
2026-01-03 07:53:27.04	350.74	25.83	-50.1	-50.8	15.5	0.00e+00	0	31	0	1620049920	66	3913
2026-01-03 07:53:28.04	350.54	25.71	-50.3	-51.1	15.4	0.00e+00	0	31	0	1623195648	66	4016
2026-01-03 07:53:29.04	350.34	25.59	-50.5	-51.3	15.4	0.00e+00	0	31	0	1626341376	66	4108
2026-01-03 07:53:30.04	350.15	25.47	-50.7	-51.5	15.3	0.00e+00	0	31	0	1629487104	66	4221
2026-01-03 07:53:31.04	349.95	25.35	-51.4	-51.8	15.2	0.00e+00	0	31	0	1633681408	67	4110
2026-01-03 07:53:32.05	349.76	25.23	-51.1	-51.9	15.2	0.00e+00	0	31	0	1636827136	67	4170
2026-01-03 07:53:33.06	349.57	25.10	-51.1	-51.9	15.2	0.00e+00	0	31	0	1639972864	67	4191
2026-01-03 07:53:34.06	349.38	24.98	-51.1	-51.9	15.2	0.00e+00	0	31	0	1642070016	67	4174
2026-01-03 07:53:35.06	349.19	24.86	-51.0	-51.9	15.2	0.00e+00	0	31	0	1645215744	67	4151
2026-01-03 07:53:36.07	349.00	24.74	-50.7	-51.5	15.3	0.00e+00	0	31	0	1648361472	67	3993
2026-01-03 07:53:37.07	348.81	24.62	-50.7	-51.5	15.4	0.00e+00	0	31	0	1651507200	67	3966
2026-01-03 07:53:38.06	348.63	24.50	-50.6	-51.4	15.4	0.00e+00	0	31	0	1654652928	67	3932
2026-01-03 07:53:39.07	348.45	24.38	-50.6	-51.4	15.4	0.00e+00	0	31	0	1657798656	67	3933
2026-01-03 07:53:40.07	348.27	24.26	-50.6	-51.4	15.4	0.00e+00	0	31	0	1660944384	67	3915
2026-01-03 07:53:41.08	348.09	24.14	-50.6	-51.3	15.4	0.00e+00	0	31	0	1664090112	67	3892
2026-01-03 07:53:42.08	347.91	24.02	-50.5	-51.2	15.5	0.00e+00	0	31	0	1667235840	67	3861
2026-01-03 07:53:43.09	347.73	23.91	-50.5	-51.2	15.4	0.00e+00	0	31	0	1670381568	67	3856
2026-01-03 07:53:44.09	347.55	23.79	-50.4	-51.1	15.5	0.00e+00	0	31	0	1673527296	67	3800
2026-01-03 07:53:45.09	347.38	23.67	-50.5	-51.2	15.4	0.00e+00	0	31	0	1676673024	67	3844
2026-01-03 07:53:46.09	347.21	23.55	-50.4	-51.1	15.5	0.00e+00	0	31	0	1679818752	67	3812
2026-01-03 07:53:47.09	347.03	23.43	-50.3	-51.0	15.5	0.00e+00	0	30	0	1682964480	67	3775
2026-01-03 07:53:48.10	346.86	23.31	-50.3	-51.0	15.5	0.00e+00	0	31	0	1686110208	67	3747
2026-01-03 07:53:49.11	346.69	23.20	-50.3	-51.0	15.5	0.00e+00	0	31	0	1689255936	67	3780
2026-01-03 07:53:50.11	346.52	23.08	-50.2	-50.9	15.5	0.00e+00	0	31	0	1692401664	67	3726
2026-01-03 07:53:51.11	346.36	22.96	-50.1	-50.8	15.5	0.00e+00	0	31	0	1695547392	66	3878
2026-01-03 07:53:52.12	346.19	22.85	-50.1	-50.8	15.5	0.00e+00	0	31	0	1698693120	66	3912
2026-01-03 07:53:53.13	346.03	22.73	-50.2	-50.9	15.5	0.00e+00	0	31	0	1701838848	66	3925
2026-01-03 07:53:54.13	345.86	22.61	-50.3	-51.0	15.4	0.00e+00	0	30	0	1704984576	66	3990
2026-01-03 07:53:55.14	345.70	22.50	-50.4	-51.1	15.4	0.00e+00	0	31	0	1708130304	66	4039
2026-01-03 07:53:56.13	345.54	22.38	-50.4	-51.1	15.4	0.00e+00	0	31	0	1711276032	66	4032
2026-01-03 07:53:57.14	345.38	22.27	-50.5	-51.2	15.4	0.00e+00	0	31	0	1714421760	66	4081
2026-01-03 07:53:58.14	345.22	22.15	-50.5	-51.3	15.3	0.00e+00	0	30	0	1717567488	66	4102
2026-01-03 07:53:59.14	345.07	22.04	-50.5	-51.2	15.3	0.00e+00	0	31	0	1720713216	66	4090
2026-01-03 07:54:00.15	344.91	21.92	-50.4	-51.2	15.4	0.00e+00	0	31	0	1723858944	66	4065
2026-01-03 07:54:01.16	344.75	21.81	-50.5	-51.2	15.3	0.00e+00	0	31	0	1727004672	66	4091
2026-01-03 07:54:02.16	344.60	21.69	-50.5	-51.2	15.3	0.00e+00	0	31	0	1730150400	66	4094
2026-01-03 07:54:03.17	344.45	21.58	-50.4	-51.1	15.4	0.00e+00	0	31	0	1733296128	66	4037
2026-01-03 07:54:04.18	344.30	21.46	-50.3	-51.1	15.4	0.00e+00	0	31	0	1736441856	66	4013
2026-01-03 07:54:05.18	344.15	21.35	-50.4	-51.2	15.4	0.00e+00	0	31	0	1739587584	66	4074
2026-01-03 07:54:06.19	344.00	21.24	-50.4	-51.1	15.4	0.00e+00	0	31	0	1742733312	66	4051
2026-01-03 07:54:07.18	343.85	21.13	-50.5	-51.2	15.4	0.00e+00	0	31	0	1745879040	66	4081
2026-01-03 07:54:08.18	343.70	21.02	-50.6	-51.3	15.3	0.00e+00	0	31	0	1749024768	66	4143
2026-01-03 07:54:09.18	343.56	20.90	-50.6	-51.4	15.3	0.00e+00	0	31	0	1752170496	66	4151
2026-01-03 07:54:10.18	343.41	20.79	-50.7	-51.4	15.3	0.00e+00	0	31	0	1755316224	66	4183
2026-01-03 07:54:11.18	343.27	20.68	-50.6	-51.4	15.3	0.00e+00	0	31	0	1758461952	66	4168
2026-01-03 07:54:12.18	343.13	20.57	-50.7	-51.4	15.3	0.00e+00	0	31	0	1761607680	66	4192
2026-01-03 07:54:13.19	342.99	20.46	-50.6	-51.4	15.3	0.00e+00	0	31	0	1764753408	66	4185
2026-01-03 07:54:14.19	342.85	20.35	-50.6	-51.4	15.3	0.00e+00	0	31	0	1767899136	66	4181
2026-01-03 07:54:15.20	342.71	20.24	-50.7	-51.5	15.3	0.00e+00	0	31	0	1771044864	66	4194
2026-01-03 07:54:16.21	342.57	20.13	-50.7	-51.4	15.3	0.00e+00	0	31	0	1774190592	66	4188
2026-01-03 07:54:17.21	342.43	20.02	-50.7	-51.5	15.2	0.00e+00	0	31	0	1777336320	66	4198
2026-01-03 07:54:18.21	342.29	19.91	-50.7	-51.5	15.2	0.00e+00	0	31	0	1780482048	66	4238
2026-01-03 07:54:19.21	342.16	19.80	-50.8	-51.6	15.2	0.00e+00	0	31	0	1783627776	66	4281
2026-01-03 07:54:20.22	342.02	19.69	-50.8	-51.6	15.2	0.00e+00	0	31	0	1786773504	67	4035
2026-01-03 07:54:21.22	341.89	19.59	-50.8	-51.6	15.3	0.00e+00	0	31	0	1789919232	67	4008
2026-01-03 07:54:22.23	341.76	19.48	-50.9	-51.7	15.2	0.00e+00	0	31	0	1793064960	67	4070
2026-01-03 07:54:23.23	341.63	19.37	-50.9	-51.7	15.2	0.00e+00	0	31	0	1796210688	67	4069
2026-01-03 07:54:24.24	341.49	19.26	-50.9	-51.8	15.2	0.00e+00	0	31	0	1799356416	67	4100
2026-01-03 07:54:25.24	341.36	19.15	-51.0	-51.8	15.2	0.00e+00	0	31	0	1802502144	67	4141
2026-01-03 07:54:26.24	341.24	19.05	-51.0	-51.9	15.2	0.00e+00	0	31	0	1805647872	67	4157
2026-01-03 07:54:27.24	341.11	18.94	-51.1	-51.9	15.2	0.00e+00	0	31	0	1808793600	67	4156
2026-01-03 07:54:28.24	340.98	18.84	-50.9	-51.8	15.2	0.00e+00	0	31	0	1811939328	67	4109
2026-01-03 07:54:29.24	340.86	18.73	-50.8	-51.6	15.2	0.00e+00	0	31	0	1815085056	67	4037
2026-01-03 07:54:30.25	340.73	18.62	-50.8	-51.5	15.3	0.00e+00	0	31	0	1818230784	67	4004
2026-01-03 07:54:31.25	340.61	18.52	-50.7	-51.5	15.3	0.00e+00	0	31	0	1821376512	67	4004
2026-01-03 07:54:32.26	340.48	18.41	-50.7	-51.5	15.3	0.00e+00	0	31	0	1824522240	67	3961
2026-01-03 07:54:33.26	340.36	18.31	-50.6	-51.4	15.3	0.00e+00	0	31	0	1827667968	67	3942
2026-01-03 07:54:34.26	340.24	18.21	-50.6	-51.4	15.3	0.00e+00	0	31	0	1830813696	67	3949
2026-01-03 07:54:35.27	340.12	18.10	-50.6	-51.3	15.4	0.00e+00	0	31	0	1833959424	67	3903
2026-01-03 07:54:36.27	340.00	18.00	-50.6	-51.4	15.3	0.00e+00	0	31	0	1837105152	67	3945
2026-01-03 07:54:37.28	339.88	17.89	-50.6	-51.3	15.4	0.00e+00	0	31	0	1840250880	67	3905
2026-01-03 07:54:38.27	339.76	17.79	-50.6	-51.4	15.3	0.00e+00	0	31	0	1843396608	67	3924
2026-01-03 07:54:39.28	339.64	17.69	-50.6	-51.4	15.3	0.00e+00	0	31	0	1846542336	67	3937
2026-01-03 07:54:40.29	339.53	17.59	-50.6	-51.4	15.3	0.00e+00	0	31	0	1849688064	67	3920
2026-01-03 07:54:41.30	339.41	17.48	-50.6	-51.4	15.3	0.00e+00	0	31	0	1852833792	67	3928
2026-01-03 07:54:42.30	339.30	17.38	-50.7	-51.4	15.3	0.00e+00	0	31	0	1855979520	67	3953
2026-01-03 07:54:43.30	339.18	17.28	-50.7	-51.5	15.3	0.00e+00	0	31	0	1859125248	67	3966
2026-01-03 07:54:44.30	339.07	17.18	-50.8	-51.6	15.2	0.00e+00	0	31	0	1862270976	67	4025
2026-01-03 07:54:45.30	338.96	17.08	-50.9	-51.7	15.2	0.00e+00	0	31	0	1865416704	67	4088
2026-01-03 07:54:46.30	338.85	16.98	-51.0	-51.8	15.2	0.00e+00	0	31	0	1868562432	67	4125
2026-01-03 07:54:47.31	338.73	16.88	-51.1	-52.0	15.1	0.00e+00	0	30	0	1871708160	67	4202
2026-01-03 07:54:48.31	338.62	16.78	-51.2	-52.0	15.1	0.00e+00	0	31	0	1874853888	67	4222
2026-01-03 07:54:49.31	338.51	16.68	-51.2	-52.0	15.1	0.00e+00	0	31	0	1877999616	67	4229
2026-01-03 07:54:50.32	338.40	16.58	-51.1	-52.0	15.1	0.00e+00	0	31	0	1881145344	67	4223
2026-01-03 07:54:51.32	338.30	16.48	-51.2	-52.1	15.1	0.00e+00	0	31	0	1884291072	67	4243
2026-01-03 07:54:52.32	338.19	16.38	-51.2	-52.1	15.1	0.00e+00	0	31	0	1887436800	67	4272
2026-01-03 07:54:53.33	338.08	16.28	-51.3	-52.2	15.0	0.00e+00	0	31	0	1890582528	67	4329
2026-01-03 07:54:54.34	337.98	16.18	-51.2	-52.0	15.1	0.00e+00	0	31	0	1893728256	67	4232
2026-01-03 07:54:55.34	337.87	16.08	-51.0	-51.8	15.2	0.00e+00	0	31	0	1896873984	67	4116
2026-01-03 07:54:56.34	337.77	15.99	-51.0	-51.9	15.1	0.00e+00	0	31	0	1900019712	67	4150
2026-01-03 07:54:57.35	337.66	15.89	-50.9	-51.7	15.2	0.00e+00	0	31	0	1903165440	67	4060
2026-01-03 07:54:58.35	337.56	15.79	-50.6	-51.4	15.3	0.00e+00	0	31	0	1906311168	67	3917
2026-01-03 07:54:59.36	337.46	15.69	-50.5	-51.3	15.3	0.00e+00	0	31	0	1909456896	67	3896
2026-01-03 07:55:00.36	337.36	15.60	-50.6	-51.3	15.3	0.00e+00	0	31	0	1912602624	67	3909
2026-01-03 07:55:01.37	337.25	15.50	-50.4	-51.2	15.4	0.00e+00	0	31	0	1915748352	67	3839
2026-01-03 07:55:02.37	337.15	15.41	-50.4	-51.2	15.4	0.00e+00	0	31	0	1918894080	67	3837
2026-01-03 07:55:03.38	337.05	15.31	-50.5	-51.2	15.4	0.00e+00	0	31	0	1922039808	67	3868
2026-01-03 07:55:04.38	336.95	15.21	-50.5	-51.3	15.3	0.00e+00	0	31	0	1925185536	67	3871
2026-01-03 07:55:05.40	336.85	15.12	-50.6	-51.4	15.3	0.00e+00	0	31	0	1928331264	67	3935
2026-01-03 07:55:06.40	336.76	15.02	-50.7	-51.5	15.3	0.00e+00	0	31	0	1931476992	67	3965
2026-01-03 07:55:07.40	336.66	14.93	-50.7	-51.5	15.3	0.00e+00	0	31	0	1934622720	67	3998
2026-01-03 07:55:08.40	336.56	14.84	-50.8	-51.6	15.2	0.00e+00	0	31	0	1937768448	67	4020
2026-01-03 07:55:09.40	336.47	14.74	-50.9	-51.8	15.2	0.00e+00	0	31	0	1940914176	67	4104
2026-01-03 07:55:10.41	336.37	14.65	-51.0	-51.8	15.2	0.00e+00	0	31	0	1944059904	67	4120
2026-01-03 07:55:11.42	336.28	14.55	-51.0	-51.9	15.1	0.00e+00	0	31	0	1947205632	67	4156
2026-01-03 07:55:12.41	336.18	14.46	-51.1	-52.0	15.1	0.00e+00	0	31	0	1950351360	67	4210
2026-01-03 07:55:13.42	336.09	14.37	-51.1	-52.0	15.1	0.00e+00	0	31	0	1953497088	67	4222
2026-01-03 07:55:14.43	336.00	14.27	-51.2	-52.1	15.0	0.00e+00	0	31	0	1956642816	67	4270
2026-01-03 07:55:15.44	335.90	14.18	-51.3	-52.1	15.0	0.00e+00	0	31	0	1959788544	67	4284
2026-01-03 07:55:16.44	335.81	14.09	-51.2	-52.1	15.0	0.00e+00	0	31	0	1962934272	67	4249
2026-01-03 07:55:17.45	335.72	14.00	-51.2	-52.1	15.0	0.00e+00	0	31	0	1966080000	67	4281
2026-01-03 07:55:18.45	335.63	13.91	-51.2	-52.1	15.0	0.00e+00	0	31	0	1969225728	67	4245
2026-01-03 07:55:19.45	335.54	13.82	-51.3	-52.2	15.0	0.00e+00	0	31	0	1972371456	67	4304
2026-01-03 07:55:20.46	335.45	13.72	-51.2	-52.1	15.0	0.00e+00	0	31	0	1975517184	67	4250
2026-01-03 07:55:21.47	335.36	13.63	-51.1	-52.0	15.0	0.00e+00	0	31	0	1978662912	67	4225
2026-01-03 07:55:22.47	335.28	13.54	-51.2	-52.1	15.0	0.00e+00	0	31	0	1981808640	67	4269
2026-01-03 07:55:23.48	335.19	13.45	-51.1	-52.0	15.0	0.00e+00	0	31	0	1984954368	67	4211
2026-01-03 07:55:24.48	335.10	13.36	-51.2	-52.1	15.0	0.00e+00	0	31	0	1987051520	67	4250
2026-01-03 07:55:25.49	335.01	13.27	-51.1	-51.9	15.0	0.00e+00	0	31	0	1990197248	67	4171
2026-01-03 07:55:26.49	334.93	13.18	-51.1	-52.0	15.0	0.00e+00	0	31	0	1993342976	67	4206
2026-01-03 07:55:27.49	334.84	13.09	-51.1	-52.0	15.0	0.00e+00	0	31	0	1996488704	67	4219
2026-01-03 07:55:28.49	334.76	13.00	-51.1	-52.0	15.0	0.00e+00	0	31	0	2000683008	67	4215
2026-01-03 07:55:29.50	334.67	12.92	-51.1	-52.0	15.0	0.00e+00	0	31	0	2003828736	67	4219
2026-01-03 07:55:30.51	334.59	12.83	-51.1	-51.9	15.0	0.00e+00	0	31	0	2006974464	67	4192
2026-01-03 07:55:31.51	334.51	12.74	-51.1	-51.9	15.0	0.00e+00	0	31	0	2010120192	67	4190
2026-01-03 07:55:32.51	334.42	12.65	-51.1	-52.0	15.0	0.00e+00	0	31	0	2012217344	67	4221
2026-01-03 07:55:33.51	334.34	12.56	-51.1	-52.0	15.0	0.00e+00	0	31	0	2015363072	67	4202
2026-01-03 07:55:34.52	334.26	12.48	-51.2	-52.1	15.0	0.00e+00	0	31	0	2018508800	67	4244
2026-01-03 07:55:35.52	334.18	12.39	-51.2	-52.1	15.0	0.00e+00	0	31	0	2021654528	67	4243
2026-01-03 07:55:36.52	334.10	12.30	-51.3	-52.1	15.0	0.00e+00	0	31	0	2024800256	67	4291
2026-01-03 07:55:37.53	334.02	12.22	-51.4	-52.3	14.9	0.00e+00	0	31	0	2027945984	67	4347
2026-01-03 07:55:38.53	333.94	12.13	-51.3	-52.2	14.9	0.00e+00	0	31	0	2031091712	67	4322
2026-01-03 07:55:39.54	333.86	12.04	-51.5	-52.4	15.0	0.00e+00	0	31	0	2034237440	68	4191
2026-01-03 07:55:40.54	333.78	11.96	-51.5	-52.4	15.0	0.00e+00	0	31	0	2037383168	68	4190
2026-01-03 07:55:41.55	333.70	11.87	-51.7	-52.6	14.9	0.00e+00	0	31	0	2040528896	68	4273
2026-01-03 07:55:42.54	333.62	11.79	-51.7	-52.6	14.9	0.00e+00	0	31	0	2043674624	68	4280
