passes_logs/2026/01/03/R3.2S_Murmansk/R3.2S_Murmansk__20260103_105639_TY-42_rec.log

#Pass ID: 20260103_105639_TY-42
#Satellite: TY-42
#Configuration: TY-42_900M
#almurnet v.1.7.20251203
#Start time: 2026-01-03 10:56:38

#Version: 2.2.20231116
#Station: R3.2S_Murmansk
#Location: 33.079688 lon 68.888172 lat
#TLE: 1 64048U 25103A   26003.26844907  .00008006  00000-0  38191-3 0 09993
#TLE: 2 64048 097.4108 078.9075 0001627 094.5447 046.7649 15.19153010 35031

#Time	Az	El	Level	Level2	SNR	BER	BlckErr	Temp	State	Recorded	gain1	gain2
2026-01-03 10:56:38.81	23.17	1.97	-59.2	-62.0	6.1	0.00e+00	0	35	0	0	85	19616
2026-01-03 10:56:39.79	23.11	2.03	-59.3	-62.0	6.2	0.00e+00	0	34	104	0	85	19692
2026-01-03 10:56:40.79	23.05	2.10	-59.3	-62.0	6.2	0.00e+00	0	34	104	0	85	19672
2026-01-03 10:56:41.79	22.99	2.16	-59.3	-62.1	6.2	0.00e+00	0	35	104	0	85	19741
2026-01-03 10:56:42.78	22.93	2.23	-59.3	-62.1	6.2	0.00e+00	0	35	104	0	85	19713
2026-01-03 10:56:43.77	22.87	2.29	-59.3	-62.1	6.2	0.00e+00	0	35	104	0	85	19759
2026-01-03 10:56:44.77	22.81	2.36	-59.3	-62.0	6.2	0.00e+00	0	35	104	0	85	19678
2026-01-03 10:56:45.76	22.75	2.43	-59.3	-62.1	6.2	0.00e+00	0	35	104	0	85	19738
2026-01-03 10:56:46.76	22.68	2.49	-59.3	-62.1	6.2	0.00e+00	0	35	104	0	85	19756
2026-01-03 10:56:47.75	22.62	2.56	-59.3	-62.1	6.2	0.00e+00	0	35	104	0	85	19785
2026-01-03 10:56:48.74	22.56	2.62	-59.3	-62.1	6.2	0.00e+00	0	35	104	0	85	19733
2026-01-03 10:56:49.73	22.50	2.69	-59.3	-62.1	6.2	0.00e+00	0	35	104	0	85	19773
2026-01-03 10:56:50.73	22.43	2.76	-59.3	-62.1	6.2	0.00e+00	0	35	104	0	85	19733
2026-01-03 10:56:51.72	22.37	2.83	-59.3	-62.1	6.2	0.00e+00	0	35	104	0	85	19709
2026-01-03 10:56:52.72	22.31	2.89	-59.3	-62.1	6.2	0.00e+00	0	35	104	0	85	19814
2026-01-03 10:56:53.72	22.24	2.96	-59.3	-62.1	6.2	0.00e+00	0	35	104	0	85	19746
2026-01-03 10:56:54.72	22.18	3.03	-59.3	-62.1	6.2	0.00e+00	0	35	104	0	85	19829
2026-01-03 10:56:55.71	22.11	3.10	-59.3	-62.1	6.2	0.00e+00	0	35	104	0	85	19782
2026-01-03 10:56:56.70	22.05	3.17	-59.3	-62.1	6.2	0.00e+00	0	35	104	0	85	19770
2026-01-03 10:56:57.70	21.98	3.24	-59.3	-62.1	6.2	0.00e+00	0	36	104	0	85	19730
2026-01-03 10:56:58.70	21.91	3.30	-59.3	-62.1	6.2	0.00e+00	0	35	104	0	85	19814
2026-01-03 10:56:59.69	21.85	3.37	-59.3	-62.1	6.2	0.00e+00	0	35	104	0	85	19826
2026-01-03 10:57:00.68	21.78	3.44	-59.3	-62.1	6.2	0.00e+00	0	36	104	0	85	19820
2026-01-03 10:57:01.68	21.71	3.51	-59.3	-62.1	6.2	0.00e+00	0	36	104	0	85	19762
2026-01-03 10:57:02.67	21.64	3.58	-59.3	-62.1	6.2	0.00e+00	0	36	104	0	85	19798
2026-01-03 10:57:03.67	21.57	3.65	-59.3	-62.1	6.2	0.00e+00	0	36	104	0	85	19822
2026-01-03 10:57:04.67	21.50	3.72	-59.3	-62.1	6.2	0.00e+00	0	36	104	0	85	19851
2026-01-03 10:57:05.66	21.43	3.79	-59.3	-62.1	6.2	0.00e+00	0	36	104	0	85	19856
2026-01-03 10:57:06.66	21.36	3.86	-59.3	-62.1	6.2	0.00e+00	0	36	104	0	85	19809
2026-01-03 10:57:07.65	21.29	3.93	-59.3	-62.1	6.2	0.00e+00	0	36	104	0	85	19802
2026-01-03 10:57:08.64	21.22	4.00	-59.3	-62.1	6.2	0.00e+00	0	36	104	0	85	19851
2026-01-03 10:57:09.64	21.15	4.07	-59.3	-62.1	6.2	0.00e+00	0	36	104	0	85	19842
2026-01-03 10:57:10.63	21.08	4.14	-59.3	-62.1	6.2	0.00e+00	0	36	104	0	85	19882
2026-01-03 10:57:11.63	21.01	4.22	-59.3	-62.1	6.2	0.00e+00	0	36	104	0	85	19800
2026-01-03 10:57:12.64	20.93	4.29	-59.3	-62.1	6.2	0.00e+00	0	36	104	0	85	19880
2026-01-03 10:57:13.63	20.86	4.36	-59.3	-62.2	6.2	0.00e+00	0	36	104	0	85	19940
2026-01-03 10:57:14.62	20.79	4.43	-59.3	-62.1	6.2	0.00e+00	0	36	104	0	85	19858
2026-01-03 10:57:15.61	20.71	4.50	-59.3	-62.1	6.2	0.00e+00	0	36	104	0	85	19850
2026-01-03 10:57:16.60	20.64	4.58	-59.3	-62.1	6.2	0.00e+00	0	36	104	0	85	19914
2026-01-03 10:57:17.59	20.56	4.65	-59.3	-62.1	6.2	0.00e+00	0	36	104	0	85	19835
2026-01-03 10:57:18.59	20.49	4.72	-59.3	-62.1	6.2	0.00e+00	0	36	104	0	85	19773
2026-01-03 10:57:19.59	20.41	4.79	-59.3	-62.1	6.2	0.00e+00	0	36	104	0	85	19880
2026-01-03 10:57:20.58	20.34	4.87	-59.3	-62.1	6.2	0.00e+00	0	36	104	0	85	19821
2026-01-03 10:57:21.59	20.26	4.94	-59.3	-62.1	6.2	0.00e+00	0	36	104	0	85	19843
2026-01-03 10:57:22.59	20.18	5.02	-59.3	-62.1	6.2	0.00e+00	0	36	104	0	85	19814
2026-01-03 10:57:23.58	20.10	5.09	-59.4	-62.2	6.2	0.00e+00	0	36	104	0	85	20094
2026-01-03 10:57:24.59	20.02	5.17	-59.5	-62.3	6.2	0.00e+00	0	37	104	0	85	20203
2026-01-03 10:57:25.58	19.94	5.24	-59.4	-62.1	6.2	0.00e+00	0	37	104	0	85	19929
2026-01-03 10:57:26.58	19.86	5.31	-59.4	-62.2	6.2	0.00e+00	0	37	104	0	85	20019
2026-01-03 10:57:27.58	19.78	5.39	-59.4	-62.1	6.2	0.00e+00	0	37	104	0	85	19932
2026-01-03 10:57:28.58	19.70	5.47	-59.5	-62.2	6.2	0.00e+00	0	36	104	0	85	20117
2026-01-03 10:57:29.57	19.62	5.54	-59.4	-62.2	6.2	0.00e+00	0	37	104	0	85	20080
2026-01-03 10:57:30.56	19.54	5.62	-59.4	-62.2	6.2	0.00e+00	0	37	104	0	85	20092
2026-01-03 10:57:31.57	19.45	5.69	-59.4	-62.2	6.2	0.00e+00	0	37	104	0	85	20016
2026-01-03 10:57:32.57	19.37	5.77	-59.5	-62.3	6.2	0.00e+00	0	37	104	0	85	20184
2026-01-03 10:57:33.57	19.29	5.85	-59.5	-62.2	6.2	0.00e+00	0	37	104	0	85	20133
2026-01-03 10:57:34.57	19.20	5.92	-59.5	-62.3	6.2	0.00e+00	0	37	104	0	85	20231
2026-01-03 10:57:35.56	19.12	6.00	-59.5	-62.3	6.2	0.00e+00	0	37	104	0	85	20179
2026-01-03 10:57:36.56	19.03	6.08	-59.5	-62.3	6.2	0.00e+00	0	37	104	0	85	20289
2026-01-03 10:57:37.56	18.94	6.16	-59.5	-62.3	6.2	0.00e+00	0	37	104	0	85	20207
2026-01-03 10:57:38.56	18.86	6.23	-59.5	-62.3	6.2	0.00e+00	0	37	104	0	85	20351
2026-01-03 10:57:39.56	18.77	6.31	-59.5	-62.3	6.2	0.00e+00	0	37	104	0	85	20213
2026-01-03 10:57:40.54	18.68	6.39	-59.6	-62.4	6.2	0.00e+00	0	37	104	0	85	20408
2026-01-03 10:57:41.54	18.59	6.47	-59.6	-62.4	6.2	0.00e+00	0	37	104	0	85	20403
2026-01-03 10:57:42.54	18.50	6.55	-59.5	-62.3	6.2	0.00e+00	0	37	104	0	85	20299
2026-01-03 10:57:43.55	18.41	6.63	-59.6	-62.3	6.2	0.00e+00	0	37	104	0	85	20395
2026-01-03 10:57:44.54	18.32	6.71	-59.6	-62.3	6.2	0.00e+00	0	37	104	0	85	20396
2026-01-03 10:57:45.54	18.23	6.79	-59.6	-62.4	6.2	0.00e+00	0	37	104	0	85	20446
2026-01-03 10:57:46.53	18.14	6.86	-59.6	-62.4	6.2	0.00e+00	0	37	104	0	85	20411
2026-01-03 10:57:47.53	18.05	6.95	-59.6	-62.4	6.2	0.00e+00	0	37	104	0	85	20436
2026-01-03 10:57:48.53	17.95	7.03	-59.6	-62.4	6.2	0.00e+00	0	37	104	0	85	20515
2026-01-03 10:57:49.52	17.86	7.11	-59.6	-62.4	6.2	0.00e+00	0	37	104	0	85	20568
2026-01-03 10:57:50.53	17.76	7.19	-59.6	-62.4	6.2	0.00e+00	0	37	104	0	85	20454
2026-01-03 10:57:51.53	17.67	7.27	-59.6	-62.4	6.2	0.00e+00	0	37	104	0	85	20505
2026-01-03 10:57:52.52	17.57	7.35	-59.6	-62.4	6.2	0.00e+00	0	37	104	0	85	20582
2026-01-03 10:57:53.52	17.48	7.43	-59.7	-62.4	6.2	0.00e+00	0	37	104	0	85	20598
2026-01-03 10:57:54.52	17.38	7.51	-59.6	-62.4	6.2	0.00e+00	0	37	104	0	85	20598
2026-01-03 10:57:55.51	17.28	7.60	-59.7	-62.4	6.2	0.00e+00	0	37	104	0	85	20615
2026-01-03 10:57:56.52	17.18	7.68	-59.7	-62.4	6.2	0.00e+00	0	37	104	0	85	20609
2026-01-03 10:57:57.51	17.08	7.76	-59.7	-62.5	6.2	0.00e+00	0	37	104	0	85	20672
2026-01-03 10:57:58.52	16.98	7.85	-59.7	-62.5	6.2	0.00e+00	0	37	104	0	85	20647
2026-01-03 10:57:59.52	16.88	7.93	-59.6	-62.4	6.2	0.00e+00	0	37	104	0	85	20463
2026-01-03 10:58:00.52	16.78	8.02	-59.7	-62.4	6.2	0.00e+00	0	37	104	0	85	20547
2026-01-03 10:58:01.52	16.67	8.10	-59.6	-62.3	6.2	0.00e+00	0	37	104	0	85	20331
2026-01-03 10:58:02.52	16.57	8.18	-59.7	-62.4	6.2	0.00e+00	0	37	104	0	85	20514
2026-01-03 10:58:03.51	16.47	8.27	-59.7	-62.4	6.2	0.00e+00	0	38	104	0	85	20404
2026-01-03 10:58:04.50	16.36	8.35	-59.7	-62.4	6.2	0.00e+00	0	37	104	0	85	20631
2026-01-03 10:58:05.50	16.26	8.44	-59.7	-62.4	6.2	0.00e+00	0	38	104	0	85	20583
2026-01-03 10:58:06.50	16.15	8.52	-59.7	-62.5	6.2	0.00e+00	0	38	104	0	85	20744
2026-01-03 10:58:07.49	16.04	8.61	-59.7	-62.5	6.2	0.00e+00	0	37	104	0	85	20789
2026-01-03 10:58:08.49	15.94	8.70	-59.7	-62.5	6.2	0.00e+00	0	38	104	0	85	20655
2026-01-03 10:58:09.50	15.82	8.78	-59.8	-62.5	6.2	0.00e+00	0	38	104	0	85	20761
2026-01-03 10:58:10.50	15.71	8.87	-59.8	-62.5	6.2	0.00e+00	0	38	104	0	85	20849
2026-01-03 10:58:11.51	15.60	8.96	-59.8	-62.5	6.2	0.00e+00	0	38	104	0	85	20765
2026-01-03 10:58:12.50	15.49	9.05	-59.8	-62.5	6.2	0.00e+00	0	38	104	0	85	20779
2026-01-03 10:58:13.51	15.38	9.13	-59.8	-62.6	6.2	0.00e+00	0	38	104	0	85	20918
2026-01-03 10:58:14.50	15.27	9.22	-59.8	-62.6	6.2	0.00e+00	0	38	104	0	85	20929
2026-01-03 10:58:15.49	15.15	9.31	-59.8	-62.6	6.2	0.00e+00	0	38	104	0	85	20976
2026-01-03 10:58:16.49	15.04	9.40	-51.7	-52.0	8.9	0.00e+00	0	38	104	0	70	14650
2026-01-03 10:58:17.49	14.92	9.49	-50.5	-50.6	9.9	0.00e+00	5512	39	0	25165824	68	14080
2026-01-03 10:58:18.49	14.80	9.58	-50.0	-50.1	10.1	0.00e+00	5515	40	0	134217728	67	14046
2026-01-03 10:58:19.49	14.69	9.67	-49.7	-49.8	10.3	0.00e+00	5344	40	0	251658240	66	14296
2026-01-03 10:58:20.48	14.57	9.76	-49.5	-49.6	10.4	2.64e-01	4454	40	0	360710144	66	13969
2026-01-03 10:58:21.47	14.45	9.85	-49.1	-49.1	10.6	2.64e-01	726	40	0	469762048	65	14107
2026-01-03 10:58:22.17	14.37	9.91	-48.2	-48.2	11.1	2.15e-01	0	40	0	587202560	63	14183
2026-01-03 10:58:23.46	14.21	10.03	-46.8	-46.7	11.7	2.15e-01	0	39	0	729808896	60	14195
2026-01-03 10:58:24.17	14.12	10.09	-46.6	-46.6	11.8	7.75e-02	0	40	0	813694976	59	14803
2026-01-03 10:58:25.46	13.96	10.21	-46.4	-46.3	11.9	7.75e-02	0	40	0	947912704	59	14368
2026-01-03 10:58:26.18	13.87	10.28	-46.0	-45.8	12.1	7.75e-02	0	40	0	1031798784	59	13632
2026-01-03 10:58:27.46	13.71	10.40	-45.8	-45.6	12.1	7.75e-02	0	40	0	1174405120	58	14089
2026-01-03 10:58:28.21	13.62	10.47	-45.0	-44.8	12.2	3.90e-02	0	40	0	1258291200	57	13627
2026-01-03 10:58:29.49	13.46	10.59	-43.9	-43.8	11.9	3.90e-02	0	40	0	1409286144	55	13503
2026-01-03 10:58:30.22	13.36	10.66	-43.3	-43.1	11.6	3.90e-02	0	40	0	1493172224	53	14100
2026-01-03 10:58:31.50	13.20	10.78	-42.9	-42.7	11.3	2.58e-02	0	40	0	1635778560	53	13441
2026-01-03 10:58:32.22	13.10	10.84	-42.8	-42.6	11.3	2.58e-02	0	40	0	1719664640	52	14104
2026-01-03 10:58:33.49	12.94	10.96	-42.7	-42.6	11.3	4.89e-02	0	40	0	1853882368	52	13970
2026-01-03 10:58:34.22	12.84	11.03	-42.6	-42.4	11.3	4.89e-02	0	40	0	1937768448	52	13686
2026-01-03 10:58:35.51	12.67	11.16	-42.5	-42.4	11.3	4.89e-02	0	40	0	2080374784	52	13635
2026-01-03 10:58:36.22	12.57	11.22	-42.4	-42.2	11.4	4.86e-02	0	40	0	2164260864	52	13433
2026-01-03 10:58:37.53	12.39	11.35	-42.4	-42.2	11.3	4.86e-02	0	40	0	2315255808	51	14204
2026-01-03 10:58:38.24	12.29	11.42	-42.4	-42.2	11.3	4.86e-02	0	40	0	2390753280	51	14262
2026-01-03 10:58:39.54	12.11	11.54	-42.4	-42.2	11.3	4.81e-02	0	40	0	2533359616	51	14212
2026-01-03 10:58:40.25	12.02	11.61	-42.4	-42.2	11.3	4.81e-02	0	40	0	2617245696	51	14159
2026-01-03 10:58:41.54	11.83	11.74	-42.3	-42.1	11.4	4.71e-02	0	40	0	2759852032	51	14005
2026-01-03 10:58:42.26	11.73	11.81	-42.2	-42.0	11.4	4.71e-02	0	40	0	2843738112	51	13946
2026-01-03 10:58:43.55	11.55	11.94	-42.1	-42.0	11.4	4.71e-02	0	40	0	2986344448	51	13824
2026-01-03 10:58:44.26	11.45	12.01	-42.1	-41.9	11.4	4.50e-02	0	40	0	3070230528	51	13726
2026-01-03 10:58:45.56	11.26	12.14	-42.1	-41.9	11.4	4.50e-02	0	40	0	3212836864	51	13738
2026-01-03 10:58:46.28	11.15	12.21	-42.1	-41.9	11.4	4.50e-02	0	41	0	3296722944	51	13786
2026-01-03 10:58:47.56	10.96	12.34	-41.9	-41.8	11.5	4.31e-02	0	40	0	3439329280	51	13489
2026-01-03 10:58:48.27	10.86	12.41	-41.9	-41.7	11.4	4.31e-02	0	41	0	3523215360	50	14180
2026-01-03 10:58:49.60	10.66	12.54	-41.8	-41.7	11.4	4.31e-02	0	41	0	3665821696	50	14151
2026-01-03 10:58:50.31	10.55	12.61	-41.9	-41.8	11.4	4.02e-02	0	41	0	3749707776	50	14306
2026-01-03 10:58:51.61	10.35	12.74	-41.7	-41.6	11.4	4.02e-02	0	41	0	3892314112	50	13962
2026-01-03 10:58:52.34	10.24	12.82	-41.7	-41.5	11.5	4.02e-02	0	41	0	3976200192	50	13849
2026-01-03 10:58:53.62	10.04	12.95	-41.7	-41.5	11.5	3.88e-02	0	41	0	4127195136	50	13908
2026-01-03 10:58:54.34	9.93	13.02	-41.7	-41.5	11.5	3.88e-02	0	41	0	4202692608	50	13858
2026-01-03 10:58:55.63	9.72	13.15	-41.6	-41.4	11.5	3.88e-02	0	41	0	4345298944	50	13702
2026-01-03 10:58:56.35	9.61	13.23	-41.5	-41.3	11.5	3.89e-02	0	41	0	4429185024	50	13625
2026-01-03 10:58:57.63	9.40	13.36	-41.4	-41.2	11.5	3.89e-02	0	41	0	4571791360	50	13405
2026-01-03 10:58:58.34	9.29	13.44	-41.4	-41.3	11.5	3.89e-02	0	41	0	4655677440	50	13491
2026-01-03 10:58:59.68	9.07	13.58	-41.3	-41.1	11.5	3.92e-02	0	41	0	4806672384	49	14009
2026-01-03 10:59:00.38	8.95	13.65	-41.3	-41.1	11.5	3.92e-02	0	41	0	4882169856	49	14051
2026-01-03 10:59:01.69	8.73	13.79	-41.4	-41.2	11.5	3.31e-02	0	41	0	5033164800	49	14220
2026-01-03 10:59:02.41	8.61	13.86	-41.2	-41.0	11.6	3.31e-02	0	41	0	5108662272	49	13881
2026-01-03 10:59:03.71	8.39	14.00	-41.1	-40.9	11.6	3.31e-02	0	41	0	5259657216	49	13709
2026-01-03 10:59:04.42	8.27	14.08	-41.1	-40.9	11.6	3.18e-02	0	41	0	5335154688	49	13741
2026-01-03 10:59:05.72	8.05	14.21	-41.0	-40.8	11.6	3.18e-02	0	41	0	5486149632	49	13507
2026-01-03 10:59:06.44	7.92	14.29	-40.9	-40.7	11.6	3.18e-02	0	41	0	5561647104	49	13450
2026-01-03 10:59:07.73	7.70	14.43	-41.0	-40.8	11.6	3.01e-02	0	41	0	5712642048	49	13507
2026-01-03 10:59:08.45	7.57	14.51	-41.0	-40.8	11.6	3.01e-02	0	41	0	5788139520	49	13539
2026-01-03 10:59:09.73	7.34	14.65	-40.9	-40.8	11.6	3.01e-02	0	41	0	5930745856	49	13485
2026-01-03 10:59:10.44	7.21	14.72	-40.9	-40.7	11.7	2.79e-02	0	41	0	6014631936	49	13437
2026-01-03 10:59:11.73	6.98	14.86	-40.8	-40.6	11.7	2.79e-02	0	41	0	6157238272	48	14059
2026-01-03 10:59:12.44	6.85	14.94	-40.8	-40.6	11.6	2.45e-02	0	41	0	6241124352	48	14012
2026-01-03 10:59:13.73	6.61	15.08	-40.9	-40.7	11.6	2.45e-02	0	41	0	6383730688	48	14130
2026-01-03 10:59:14.45	6.48	15.16	-40.7	-40.5	11.7	2.45e-02	0	42	0	6467616768	48	13850
2026-01-03 10:59:15.76	6.23	15.31	-40.7	-40.5	11.7	2.44e-02	0	41	0	6610223104	48	13948
2026-01-03 10:59:16.47	6.09	15.39	-40.7	-40.5	11.7	2.44e-02	0	41	0	6694109184	48	13909
2026-01-03 10:59:17.75	5.85	15.53	-40.7	-40.5	11.7	2.44e-02	0	41	0	6836715520	48	13946
2026-01-03 10:59:18.47	5.71	15.61	-40.8	-40.6	11.7	2.44e-02	0	41	0	6920601600	48	13999
2026-01-03 10:59:19.78	5.45	15.75	-40.7	-40.5	11.7	2.16e-02	0	41	0	7063207936	48	13877
2026-01-03 10:59:20.49	5.31	15.83	-40.6	-40.4	11.7	2.16e-02	0	42	0	7147094016	48	13753
2026-01-03 10:59:21.80	5.05	15.98	-40.6	-40.4	11.7	2.16e-02	0	41	0	7289700352	48	13655
2026-01-03 10:59:22.51	4.91	16.06	-40.7	-40.5	11.7	1.83e-02	0	41	0	7365197824	48	13811
2026-01-03 10:59:23.80	4.65	16.21	-40.6	-40.4	11.7	1.83e-02	0	41	0	7516192768	48	13717
2026-01-03 10:59:24.53	4.50	16.29	-40.7	-40.5	11.7	1.69e-02	0	41	0	7600078848	48	13797
2026-01-03 10:59:25.81	4.24	16.44	-40.4	-40.2	11.8	1.69e-02	0	41	0	7742685184	48	13390
2026-01-03 10:59:26.54	4.09	16.52	-40.5	-40.3	11.8	1.69e-02	0	41	0	7826571264	48	13519
2026-01-03 10:59:27.82	3.82	16.67	-40.5	-40.3	11.8	1.66e-02	0	41	0	7969177600	48	13501
2026-01-03 10:59:28.54	3.66	16.75	-40.4	-40.2	11.8	1.66e-02	0	41	0	8053063680	48	13390
2026-01-03 10:59:29.83	3.39	16.90	-39.5	-39.3	11.7	1.24e-02	0	41	0	8195670016	46	13606
2026-01-03 10:59:30.54	3.24	16.98	-39.6	-39.4	11.7	1.24e-02	0	42	0	8271167488	46	13657
2026-01-03 10:59:31.83	2.96	17.13	-39.6	-39.4	11.7	1.24e-02	0	41	0	8422162432	46	13666
2026-01-03 10:59:32.55	2.80	17.21	-39.5	-39.3	11.7	1.29e-02	0	41	0	8497659904	46	13535
2026-01-03 10:59:33.84	2.51	17.37	-39.4	-39.3	11.7	1.29e-02	0	41	0	8648654848	46	13515
2026-01-03 10:59:34.54	2.35	17.45	-39.3	-39.1	11.7	1.29e-02	0	42	0	8724152320	45	14017
2026-01-03 10:59:35.87	2.05	17.60	-39.3	-39.1	11.7	1.57e-02	0	41	0	8875147264	45	14012
2026-01-03 10:59:36.59	1.89	17.69	-39.3	-39.1	11.7	1.57e-02	0	42	0	8959033344	45	14010
2026-01-03 10:59:37.87	1.60	17.84	-39.2	-39.0	11.7	1.57e-02	0	42	0	9101639680	45	13923
2026-01-03 10:59:38.61	1.42	17.93	-39.2	-39.0	11.7	1.47e-02	0	42	0	9177137152	45	13814
2026-01-03 10:59:39.90	1.12	18.08	-39.1	-38.9	11.7	1.47e-02	0	41	0	9328132096	45	13787
2026-01-03 10:59:40.61	0.96	18.16	-39.1	-38.9	11.7	1.47e-02	0	42	0	9412018176	45	13639
2026-01-03 10:59:41.90	0.65	18.32	-39.1	-38.9	11.7	1.55e-02	0	42	0	9554624512	45	13757
2026-01-03 10:59:42.61	0.48	18.40	-39.1	-38.9	11.8	1.55e-02	0	42	0	9638510592	45	13769
2026-01-03 10:59:43.95	0.15	18.56	-38.9	-38.7	11.8	1.55e-02	0	42	0	9781116928	45	13443
2026-01-03 10:59:44.65	359.98	18.65	-38.8	-38.6	11.7	1.49e-02	0	42	0	9865003008	44	14038
2026-01-03 10:59:45.98	359.65	18.81	-38.8	-38.6	11.8	1.49e-02	0	42	0	10015997952	44	14053
2026-01-03 10:59:46.69	359.47	18.89	-38.7	-38.5	11.8	1.49e-02	0	42	0	10091495424	44	13813
2026-01-03 10:59:48.01	359.14	19.05	-38.5	-38.4	11.8	1.24e-02	0	42	0	10234101760	44	13639
2026-01-03 10:59:48.72	358.96	19.14	-38.5	-38.3	11.8	1.24e-02	0	42	0	10326376448	44	13583
2026-01-03 10:59:50.02	358.62	19.29	-38.5	-38.3	11.8	1.24e-02	0	42	0	10468982784	44	13497
2026-01-03 10:59:50.73	358.44	19.38	-38.4	-38.2	11.8	1.24e-02	0	42	0	10544480256	44	13433
2026-01-03 10:59:52.01	358.11	19.54	-38.5	-38.3	11.8	1.18e-02	0	42	0	10687086592	44	13522
2026-01-03 10:59:52.76	357.91	19.63	-38.3	-38.1	11.8	1.18e-02	0	42	0	10770972672	43	14020
2026-01-03 10:59:54.04	357.57	19.78	-38.3	-38.1	11.8	1.04e-02	0	42	0	10921967616	43	14082
2026-01-03 10:59:54.79	357.36	19.87	-38.3	-38.1	11.8	1.04e-02	0	42	0	11005853696	43	13978
2026-01-03 10:59:56.07	357.02	20.03	-38.1	-37.9	11.8	1.05e-02	0	42	0	11148460032	43	13779
2026-01-03 10:59:56.82	356.81	20.12	-38.2	-38.0	11.8	1.05e-02	0	42	0	11232346112	43	13810
2026-01-03 10:59:58.09	356.46	20.28	-38.1	-37.9	11.8	1.05e-02	0	42	0	11374952448	43	13747
2026-01-03 10:59:58.81	356.26	20.37	-38.1	-37.9	11.8	1.04e-02	0	42	0	11458838528	43	13692
2026-01-03 11:00:00.09	355.90	20.52	-38.0	-37.8	11.8	1.04e-02	0	42	0	11601444864	43	13606
2026-01-03 11:00:00.81	355.69	20.61	-38.1	-37.9	11.8	1.04e-02	0	42	0	11676942336	43	13656
2026-01-03 11:00:02.09	355.32	20.77	-38.0	-37.8	11.9	1.12e-02	0	42	0	11827937280	43	13481
2026-01-03 11:00:02.81	355.12	20.86	-38.1	-37.9	11.8	1.12e-02	0	42	0	11903434752	43	13673
2026-01-03 11:00:04.09	354.74	21.01	-38.0	-37.8	11.8	9.68e-03	0	42	0	12046041088	43	13506
2026-01-03 11:00:04.80	354.53	21.10	-37.8	-37.6	11.8	9.68e-03	0	42	0	12129927168	42	14034
2026-01-03 11:00:06.11	354.14	21.26	-37.9	-37.7	11.8	9.68e-03	0	42	0	12272533504	42	14153
2026-01-03 11:00:06.83	353.92	21.35	-37.7	-37.5	11.9	8.76e-03	0	42	0	12356419584	42	13932
2026-01-03 11:00:08.12	353.53	21.51	-37.7	-37.5	12.0	8.76e-03	0	42	0	12507414528	42	13882
2026-01-03 11:00:08.86	353.31	21.60	-37.7	-37.5	12.3	8.76e-03	0	42	0	12582912000	42	13855
2026-01-03 11:00:10.12	352.92	21.76	-37.7	-37.5	11.8	8.92e-03	0	42	0	12733906944	42	13812
2026-01-03 11:00:10.86	352.69	21.85	-37.5	-37.3	11.9	8.92e-03	0	42	0	12817793024	42	13616
2026-01-03 11:00:12.14	352.28	22.00	-37.5	-37.3	11.5	4.46e-02	0	42	0	12952010752	42	13558
2026-01-03 11:00:12.91	352.04	22.10	-37.5	-37.3	11.5	4.46e-02	0	42	0	13035896832	42	13585
2026-01-03 11:00:14.19	351.63	22.25	-37.5	-37.3	11.5	4.46e-02	0	42	0	13186891776	42	13611
2026-01-03 11:00:14.90	351.40	22.34	-37.5	-37.3	11.5	4.46e-02	0	42	0	13262389248	42	13617
2026-01-03 11:00:16.20	350.98	22.50	-37.7	-37.5	11.4	8.71e-02	0	42	0	13413384192	42	13804
2026-01-03 11:00:16.92	350.74	22.59	-60.8	-63.6	6.2	8.71e-02	0	41	104	13421772800	87	21071
2026-01-03 11:00:18.21	350.31	22.74	-60.9	-63.7	6.2	8.71e-02	0	41	104	13421772800	87	21198
2026-01-03 11:00:18.93	350.07	22.83	-60.9	-63.7	6.2	8.71e-02	0	41	104	13421772800	87	21248
2026-01-03 11:00:20.25	349.62	22.99	-60.9	-63.7	6.2	8.71e-02	0	41	104	13421772800	87	21240
2026-01-03 11:00:20.95	349.38	23.08	-60.9	-63.7	6.2	8.71e-02	0	41	104	13421772800	87	21247
2026-01-03 11:00:22.26	348.93	23.23	-60.9	-63.7	6.2	8.71e-02	0	41	104	13421772800	87	21188
2026-01-03 11:00:22.97	348.69	23.32	-60.9	-63.7	6.2	4.20e-02	0	41	104	13421772800	87	21150
2026-01-03 11:00:24.26	348.23	23.47	-60.9	-63.7	6.2	4.20e-02	0	41	104	13421772800	87	21289
2026-01-03 11:00:24.98	347.98	23.56	-60.9	-63.7	6.2	4.20e-02	0	41	104	13421772800	87	21217
2026-01-03 11:00:26.26	347.52	23.71	-60.9	-63.7	6.2	4.20e-02	0	41	104	13421772800	87	21236
2026-01-03 11:00:26.99	347.26	23.80	-60.9	-63.7	6.2	4.20e-02	0	41	104	13421772800	87	21148
2026-01-03 11:00:28.26	346.80	23.95	-61.0	-63.7	6.2	4.20e-02	0	41	104	13421772800	87	21269
2026-01-03 11:00:29.00	346.53	24.04	-60.9	-63.7	6.2	4.20e-02	0	41	104	13421772800	87	21252
2026-01-03 11:00:30.28	346.06	24.19	-60.9	-63.7	6.2	4.20e-02	0	41	104	13421772800	87	21249
2026-01-03 11:00:31.08	345.76	24.28	-60.9	-63.7	6.2	4.20e-02	0	41	104	13421772800	87	21246
2026-01-03 11:00:32.23	345.33	24.41	-61.0	-63.8	6.2	4.20e-02	0	41	104	13421772800	87	21412
2026-01-03 11:00:33.08	345.01	24.51	-60.9	-63.8	6.2	4.20e-02	0	41	104	13421772800	87	21379
2026-01-03 11:00:34.22	344.58	24.64	-61.0	-63.7	6.2	4.20e-02	0	41	104	13421772800	87	21325
2026-01-03 11:00:35.07	344.25	24.74	-60.9	-63.7	6.2	4.20e-02	0	41	104	13421772800	87	21284
2026-01-03 11:00:36.21	343.81	24.87	-61.0	-63.8	6.2	4.20e-02	0	41	104	13421772800	87	21472
2026-01-03 11:00:37.06	343.48	24.96	-61.0	-63.8	6.2	4.20e-02	0	41	104	13421772800	87	21430
2026-01-03 11:00:38.19	343.03	25.09	-61.0	-63.8	6.2	4.20e-02	0	41	104	13421772800	87	21404
2026-01-03 11:00:39.05	342.69	25.18	-61.0	-63.8	6.2	4.20e-02	0	41	104	13421772800	87	21379
2026-01-03 11:00:40.18	342.24	25.31	-61.0	-63.8	6.2	4.20e-02	0	40	104	13421772800	87	21409
2026-01-03 11:00:41.04	341.89	25.40	-61.0	-63.8	6.2	4.20e-02	0	41	104	13421772800	87	21517
2026-01-03 11:00:42.18	341.43	25.53	-61.0	-63.8	6.2	0.00e+00	0	41	104	13421772800	87	21499
2026-01-03 11:00:43.02	341.09	25.62	-61.0	-63.7	6.2	0.00e+00	0	41	104	13421772800	87	21328
2026-01-03 11:00:44.15	340.62	25.74	-61.0	-63.8	6.2	0.00e+00	0	41	104	13421772800	87	21456
2026-01-03 11:00:44.99	340.27	25.83	-61.0	-63.8	6.2	0.00e+00	0	40	104	13421772800	87	21418
2026-01-03 11:00:46.13	339.80	25.95	-61.0	-63.8	6.2	0.00e+00	0	40	104	13421772800	87	21557
2026-01-03 11:00:46.99	339.43	26.04	-61.0	-63.8	6.2	0.00e+00	0	41	104	13421772800	87	21363
2026-01-03 11:00:48.12	338.95	26.15	-61.1	-63.9	6.2	0.00e+00	0	40	104	13421772800	87	21613
2026-01-03 11:00:48.98	338.59	26.24	-61.0	-63.8	6.2	0.00e+00	0	40	104	13421772800	87	21524
2026-01-03 11:00:50.10	338.10	26.35	-61.1	-63.8	6.2	0.00e+00	0	40	104	13421772800	87	21581
2026-01-03 11:00:50.95	337.74	26.44	-61.0	-63.8	6.2	0.00e+00	0	40	104	13421772800	87	21419
2026-01-03 11:00:52.09	337.24	26.55	-61.1	-63.9	6.2	0.00e+00	0	40	104	13421772800	87	21625
2026-01-03 11:00:52.94	336.87	26.63	-61.0	-63.8	6.2	0.00e+00	0	40	104	13421772800	87	21555
2026-01-03 11:00:54.08	336.36	26.74	-61.1	-63.9	6.2	0.00e+00	0	40	104	13421772800	88	20414
2026-01-03 11:00:54.93	335.98	26.82	-61.0	-63.8	6.2	0.00e+00	0	40	104	13421772800	88	20288
2026-01-03 11:00:56.06	335.48	26.92	-61.1	-63.9	6.2	0.00e+00	0	40	104	13421772800	88	20505
2026-01-03 11:00:56.90	335.10	27.00	-61.1	-63.9	6.2	0.00e+00	0	40	104	13421772800	88	20428
2026-01-03 11:00:58.03	334.59	27.10	-61.1	-63.9	6.2	0.00e+00	0	40	104	13421772800	88	20517
2026-01-03 11:00:58.89	334.19	27.18	-61.1	-63.9	6.2	0.00e+00	0	40	104	13421772800	88	20408
2026-01-03 11:01:00.02	333.68	27.27	-61.1	-63.9	6.2	0.00e+00	0	40	104	13421772800	88	20477
2026-01-03 11:01:00.87	333.28	27.35	-61.1	-63.9	6.2	0.00e+00	0	40	104	13421772800	88	20466
2026-01-03 11:01:02.00	332.76	27.44	-61.1	-63.9	6.2	0.00e+00	0	40	104	13421772800	88	20556
2026-01-03 11:01:02.86	332.36	27.51	-61.1	-63.9	6.2	0.00e+00	0	40	104	13421772800	88	20446
2026-01-03 11:01:04.00	331.82	27.60	-61.1	-63.9	6.2	0.00e+00	0	40	104	13421772800	88	20555
2026-01-03 11:01:04.84	331.43	27.67	-61.1	-63.9	6.2	0.00e+00	0	40	104	13421772800	88	20522
2026-01-03 11:01:05.97	330.89	27.76	-61.1	-63.9	6.2	0.00e+00	0	40	104	13421772800	88	20548
2026-01-03 11:01:06.82	330.48	27.82	-61.1	-63.9	6.2	0.00e+00	0	40	104	13421772800	88	20513
2026-01-03 11:01:07.96	329.94	27.90	-61.2	-63.9	6.2	0.00e+00	0	40	104	13421772800	88	20600
2026-01-03 11:01:08.80	329.53	27.96	-61.1	-63.9	6.2	0.00e+00	0	40	104	13421772800	88	20588
2026-01-03 11:01:09.94	328.98	28.04	-61.2	-63.9	6.2	0.00e+00	0	40	104	13421772800	88	20575
2026-01-03 11:01:10.79	328.57	28.10	-61.1	-63.9	6.2	0.00e+00	0	40	104	13421772800	88	20532
2026-01-03 11:01:11.93	328.01	28.18	-61.2	-63.9	6.2	0.00e+00	0	40	104	13421772800	88	20571
2026-01-03 11:01:12.78	327.59	28.23	-61.2	-63.9	6.2	0.00e+00	0	40	104	13421772800	88	20574
2026-01-03 11:01:13.92	327.03	28.30	-61.2	-63.9	6.2	0.00e+00	0	40	104	13421772800	88	20630
2026-01-03 11:01:14.77	326.61	28.35	-61.1	-63.9	6.2	0.00e+00	0	40	104	13421772800	88	20580
2026-01-03 11:01:15.90	326.05	28.42	-61.2	-63.9	6.2	0.00e+00	0	40	104	13421772800	88	20624
2026-01-03 11:01:16.75	325.62	28.47	-61.2	-63.9	6.2	0.00e+00	0	40	104	13421772800	88	20610
2026-01-03 11:01:17.87	325.06	28.53	-61.2	-63.9	6.2	0.00e+00	0	40	104	13421772800	88	20571
2026-01-03 11:01:18.72	324.63	28.57	-61.2	-63.9	6.2	0.00e+00	0	40	104	13421772800	88	20592
2026-01-03 11:01:19.86	324.06	28.63	-61.2	-64.0	6.2	0.00e+00	0	40	104	13421772800	88	20680
2026-01-03 11:01:20.71	323.63	28.67	-61.2	-64.0	6.2	0.00e+00	0	40	104	13421772800	88	20685
2026-01-03 11:01:21.85	323.05	28.72	-61.2	-64.0	6.2	0.00e+00	0	40	104	13421772800	88	20709
2026-01-03 11:01:22.70	322.62	28.75	-61.2	-63.9	6.2	0.00e+00	0	40	104	13421772800	88	20612
2026-01-03 11:01:23.85	322.03	28.80	-61.2	-64.0	6.2	0.00e+00	0	40	104	13421772800	88	20751
2026-01-03 11:01:24.71	321.59	28.83	-61.2	-64.0	6.2	0.00e+00	0	40	104	13421772800	88	20703
2026-01-03 11:01:25.84	321.01	28.87	-61.2	-64.0	6.2	0.00e+00	0	40	104	13421772800	88	20690
2026-01-03 11:01:26.69	320.57	28.90	-61.2	-64.0	6.2	0.00e+00	0	40	104	13421772800	88	20678
2026-01-03 11:01:27.83	319.98	28.94	-61.2	-64.0	6.2	0.00e+00	0	40	104	13421772800	88	20708
2026-01-03 11:01:28.68	319.55	28.96	-61.2	-64.0	6.2	0.00e+00	0	40	104	13421772800	88	20722
2026-01-03 11:01:29.83	318.95	28.99	-61.2	-64.0	6.2	0.00e+00	0	40	104	13421772800	88	20717
2026-01-03 11:01:30.68	318.51	29.01	-61.2	-64.0	6.2	0.00e+00	0	40	104	13421772800	88	20719
2026-01-03 11:01:31.82	317.92	29.04	-61.2	-64.0	6.2	0.00e+00	0	40	104	13421772800	88	20673
2026-01-03 11:01:32.67	317.47	29.05	-61.2	-64.0	6.2	0.00e+00	0	40	104	13421772800	88	20759
2026-01-03 11:01:33.81	316.88	29.07	-61.2	-64.0	6.2	0.00e+00	0	40	104	13421772800	88	20814
2026-01-03 11:01:34.66	316.44	29.08	-61.2	-64.0	6.2	0.00e+00	0	40	104	13421772800	88	20692
2026-01-03 11:01:35.79	315.85	29.10	-61.2	-64.0	6.2	0.00e+00	0	40	104	13421772800	88	20798
2026-01-03 11:01:36.65	315.40	29.11	-61.2	-64.0	6.2	0.00e+00	0	40	104	13421772800	88	20719
2026-01-03 11:01:37.78	314.81	29.11	-61.2	-64.0	6.2	0.00e+00	0	40	104	13421772800	88	20790
2026-01-03 11:01:38.63	314.36	29.12	-61.2	-64.0	6.2	0.00e+00	0	40	104	13421772800	88	20689
2026-01-03 11:01:39.77	313.77	29.12	-61.2	-64.0	6.2	0.00e+00	0	40	104	13421772800	88	20787
2026-01-03 11:01:40.63	313.32	29.12	-61.2	-64.0	6.2	0.00e+00	0	40	104	13421772800	88	20820
2026-01-03 11:01:41.76	312.73	29.12	-61.3	-64.0	6.2	0.00e+00	0	40	104	13421772800	88	20801
2026-01-03 11:01:42.60	312.29	29.11	-61.2	-64.0	6.2	0.00e+00	0	40	104	13421772800	88	20771
2026-01-03 11:01:43.74	311.69	29.10	-61.2	-64.0	6.2	0.00e+00	0	40	104	13421772800	88	20787
2026-01-03 11:01:44.59	311.25	29.10	-61.2	-64.0	6.2	0.00e+00	0	40	104	13421772800	88	20789
2026-01-03 11:01:45.72	310.66	29.08	-61.2	-64.0	6.2	0.00e+00	0	40	104	13421772800	88	20769
2026-01-03 11:01:46.57	310.22	29.07	-61.2	-64.0	6.2	0.00e+00	0	40	104	13421772800	88	20762
2026-01-03 11:01:47.70	309.63	29.05	-61.3	-64.0	6.2	0.00e+00	0	40	104	13421772800	88	20872
2026-01-03 11:01:48.55	309.18	29.03	-61.2	-64.0	6.2	0.00e+00	0	40	104	13421772800	88	20769
2026-01-03 11:01:49.69	308.59	29.01	-61.2	-64.0	6.2	0.00e+00	0	40	104	13421772800	88	20828
2026-01-03 11:01:50.54	308.15	28.98	-61.2	-64.0	6.2	0.00e+00	0	40	104	13421772800	88	20761
2026-01-03 11:01:51.67	307.57	28.95	-61.3	-64.0	6.2	0.00e+00	0	40	104	13421772800	88	20801
2026-01-03 11:01:52.52	307.13	28.93	-61.2	-64.0	6.2	0.00e+00	0	40	104	13421772800	88	20765
2026-01-03 11:01:53.66	306.54	28.89	-61.3	-64.0	6.2	0.00e+00	0	40	104	13421772800	88	20810
2026-01-03 11:01:54.52	306.10	28.86	-61.2	-64.0	6.2	0.00e+00	0	40	104	13421772800	88	20844
2026-01-03 11:01:55.65	305.52	28.82	-61.3	-64.0	6.2	0.00e+00	0	40	104	13421772800	88	20809
2026-01-03 11:01:56.50	305.08	28.79	-61.2	-64.0	6.2	0.00e+00	0	40	104	13421772800	88	20825
2026-01-03 11:01:57.63	304.50	28.74	-61.3	-64.0	6.2	0.00e+00	0	40	104	13421772800	88	20857
2026-01-03 11:01:58.49	304.07	28.71	-61.3	-64.1	6.2	0.00e+00	0	40	104	13421772800	88	20917
2026-01-03 11:01:59.62	303.49	28.65	-61.3	-64.1	6.2	0.00e+00	0	40	104	13421772800	88	21015
2026-01-03 11:02:00.47	303.06	28.61	-61.3	-64.1	6.2	0.00e+00	0	40	104	13421772800	88	21038
2026-01-03 11:02:01.60	302.49	28.56	-61.3	-64.1	6.2	0.00e+00	0	40	104	13421772800	88	20981
2026-01-03 11:02:02.45	302.06	28.51	-61.3	-64.1	6.2	0.00e+00	0	40	104	13421772800	88	20955
2026-01-03 11:02:03.58	301.50	28.45	-61.3	-64.1	6.2	0.00e+00	0	40	104	13421772800	88	20964
2026-01-03 11:02:04.43	301.07	28.40	-61.3	-64.0	6.2	0.00e+00	0	40	104	13421772800	88	20872
2026-01-03 11:02:05.56	300.51	28.34	-61.3	-64.1	6.2	0.00e+00	0	39	104	13421772800	88	20948
2026-01-03 11:02:06.42	300.09	28.29	-61.3	-64.1	6.2	0.00e+00	0	40	104	13421772800	88	21034
2026-01-03 11:02:07.55	299.53	28.21	-61.3	-64.1	6.2	0.00e+00	0	40	104	13421772800	88	20937
2026-01-03 11:02:08.41	299.11	28.16	-61.3	-64.1	6.2	0.00e+00	0	40	104	13421772800	88	20951
2026-01-03 11:02:09.55	298.55	28.08	-61.3	-64.1	6.2	0.00e+00	0	40	104	13421772800	88	20987
2026-01-03 11:02:10.40	298.13	28.03	-61.3	-64.1	6.2	0.00e+00	0	40	104	13421772800	88	20898
2026-01-03 11:02:11.54	297.58	27.95	-61.3	-64.1	6.2	0.00e+00	0	39	104	13421772800	88	20955
2026-01-03 11:02:12.39	297.17	27.88	-61.3	-64.1	6.2	0.00e+00	0	40	104	13421772800	88	20948
2026-01-03 11:02:13.52	296.63	27.80	-61.3	-64.1	6.2	0.00e+00	0	39	104	13421772800	88	20889
2026-01-03 11:02:14.37	296.22	27.74	-61.3	-64.1	6.2	0.00e+00	0	40	104	13421772800	88	20948
2026-01-03 11:02:15.51	295.68	27.65	-61.3	-64.0	6.2	0.00e+00	0	40	104	13421772800	88	20869
2026-01-03 11:02:16.37	295.28	27.58	-61.3	-64.0	6.2	0.00e+00	0	40	104	13421772800	88	20872
2026-01-03 11:02:17.52	294.74	27.49	-61.3	-64.1	6.2	0.00e+00	0	40	104	13421772800	88	20905
2026-01-03 11:02:18.38	294.34	27.41	-61.2	-64.0	6.2	0.00e+00	0	40	104	13421772800	88	20791
2026-01-03 11:02:19.52	293.81	27.32	-61.3	-64.0	6.2	0.00e+00	0	40	104	13421772800	88	20803
2026-01-03 11:02:20.37	293.41	27.25	-61.2	-64.0	6.2	0.00e+00	0	40	104	13421772800	88	20729
2026-01-03 11:02:21.50	292.89	27.15	-61.2	-64.0	6.2	0.00e+00	0	40	104	13421772800	88	20782
2026-01-03 11:02:22.35	292.51	27.07	-61.2	-64.0	6.2	0.00e+00	0	40	104	13421772800	88	20749
2026-01-03 11:02:23.49	291.99	26.97	-61.2	-64.0	6.2	0.00e+00	0	40	104	13421772800	88	20749
2026-01-03 11:02:24.34	291.61	26.89	-61.2	-64.0	6.2	0.00e+00	0	40	104	13421772800	88	20701
2026-01-03 11:02:25.47	291.10	26.78	-61.2	-64.0	6.2	0.00e+00	0	40	104	13421772800	88	20710
2026-01-03 11:02:26.33	290.72	26.70	-61.2	-64.0	6.2	0.00e+00	0	40	104	13421772800	88	20656
2026-01-03 11:02:27.47	290.21	26.59	-61.2	-63.9	6.2	0.00e+00	0	40	104	13421772800	88	20606
2026-01-03 11:02:28.33	289.84	26.51	-61.2	-63.9	6.2	0.00e+00	0	40	104	13421772800	88	20533
2026-01-03 11:02:29.47	289.34	26.40	-61.2	-63.9	6.2	0.00e+00	0	40	104	13421772800	88	20554
2026-01-03 11:02:30.32	288.97	26.31	-61.1	-63.9	6.2	0.00e+00	0	40	104	13421772800	88	20514
2026-01-03 11:02:31.46	288.48	26.20	-61.1	-63.9	6.2	0.00e+00	0	40	104	13421772800	88	20591
2026-01-03 11:02:32.31	288.12	26.11	-61.1	-63.9	6.2	0.00e+00	0	40	104	13421772800	88	20518
2026-01-03 11:02:33.45	287.63	25.99	-61.1	-63.9	6.2	0.00e+00	0	40	104	13421772800	88	20537
2026-01-03 11:02:34.30	287.28	25.90	-61.1	-63.9	6.2	0.00e+00	0	40	104	13421772800	88	20530
2026-01-03 11:02:35.44	286.80	25.78	-61.1	-63.9	6.2	0.00e+00	0	39	104	13421772800	88	20525
2026-01-03 11:02:36.29	286.45	25.69	-61.1	-63.9	6.2	0.00e+00	0	39	104	13421772800	88	20442
2026-01-03 11:02:37.43	285.98	25.57	-61.1	-63.9	6.2	0.00e+00	0	40	104	13421772800	88	20422
2026-01-03 11:02:38.28	285.63	25.48	-61.1	-63.9	6.2	0.00e+00	0	40	104	13421772800	88	20442
2026-01-03 11:02:39.42	285.17	25.35	-61.1	-63.9	6.2	0.00e+00	0	40	104	13421772800	88	20424
2026-01-03 11:02:40.27	284.83	25.26	-61.1	-63.9	6.2	0.00e+00	0	40	104	13421772800	88	20458
2026-01-03 11:02:41.39	284.38	25.14	-61.1	-63.8	6.2	0.00e+00	0	39	104	13421772800	88	20365
2026-01-03 11:02:42.25	284.04	25.04	-61.1	-63.8	6.2	0.00e+00	0	40	104	13421772800	88	20352
2026-01-03 11:02:43.39	283.59	24.91	-61.1	-63.8	6.2	0.00e+00	0	40	104	13421772800	88	20332
2026-01-03 11:02:44.24	283.26	24.82	-61.1	-63.8	6.2	0.00e+00	0	39	104	13421772800	88	20347
2026-01-03 11:02:45.38	282.82	24.69	-61.1	-63.8	6.2	0.00e+00	0	39	104	13421772800	88	20351
2026-01-03 11:02:46.23	282.49	24.59	-61.1	-63.8	6.2	0.00e+00	0	39	104	13421772800	88	20374
2026-01-03 11:02:47.37	282.06	24.46	-61.0	-63.8	6.2	0.00e+00	0	40	104	13421772800	88	20271
2026-01-03 11:02:48.22	281.73	24.36	-61.0	-63.8	6.2	0.00e+00	0	40	104	13421772800	88	20297
2026-01-03 11:02:49.35	281.31	24.23	-61.0	-63.8	6.2	0.00e+00	0	40	104	13421772800	88	20302
2026-01-03 11:02:50.20	280.99	24.13	-61.0	-63.8	6.2	0.00e+00	0	40	104	13421772800	88	20269
2026-01-03 11:02:51.33	280.58	23.99	-61.0	-63.8	6.2	0.00e+00	0	40	104	13421772800	88	20166
2026-01-03 11:02:52.18	280.27	23.89	-61.0	-63.8	6.2	0.00e+00	0	40	104	13421772800	88	20215
2026-01-03 11:02:53.32	279.85	23.76	-61.0	-63.8	6.2	0.00e+00	0	40	104	13421772800	88	20207
2026-01-03 11:02:54.17	279.55	23.66	-61.0	-63.7	6.2	0.00e+00	0	39	104	13421772800	88	20132
2026-01-03 11:02:55.31	279.14	23.52	-61.0	-63.7	6.2	0.00e+00	0	40	104	13421772800	88	20096
2026-01-03 11:02:56.16	278.84	23.42	-61.0	-63.7	6.2	0.00e+00	0	40	104	13421772800	88	20152
2026-01-03 11:02:57.30	278.44	23.28	-61.0	-63.7	6.2	0.00e+00	0	39	104	13421772800	88	20142
2026-01-03 11:02:58.15	278.15	23.18	-61.0	-63.7	6.2	0.00e+00	0	40	104	13421772800	88	20101
2026-01-03 11:02:59.29	277.75	23.04	-61.0	-63.7	6.2	0.00e+00	0	40	104	13421772800	88	20136
2026-01-03 11:03:00.15	277.46	22.94	-61.0	-63.7	6.2	0.00e+00	0	40	104	13421772800	88	20137
2026-01-03 11:03:01.29	277.07	22.80	-61.0	-63.7	6.2	0.00e+00	0	39	104	13421772800	88	20163
2026-01-03 11:03:02.14	276.79	22.69	-60.9	-63.7	6.2	0.00e+00	0	40	104	13421772800	88	20091
2026-01-03 11:03:03.28	276.41	22.56	-60.9	-63.7	6.2	0.00e+00	0	40	104	13421772800	88	20096
2026-01-03 11:03:04.14	276.13	22.45	-61.0	-63.7	6.2	0.00e+00	0	40	104	13421772800	88	20082
2026-01-03 11:03:05.27	275.76	22.31	-61.0	-63.7	6.2	0.00e+00	0	40	104	13421772800	88	20132
2026-01-03 11:03:06.12	275.48	22.21	-60.9	-63.7	6.2	0.00e+00	0	39	104	13421772800	88	20089
2026-01-03 11:03:07.24	275.12	22.07	-60.9	-63.7	6.2	0.00e+00	0	40	104	13421772800	88	19990
2026-01-03 11:03:08.10	274.85	21.96	-61.0	-63.7	6.2	0.00e+00	0	40	104	13421772800	88	20105
2026-01-03 11:03:09.23	274.49	21.83	-60.9	-63.7	6.2	0.00e+00	0	40	104	13421772800	88	20072
2026-01-03 11:03:10.08	274.23	21.72	-60.9	-63.7	6.2	0.00e+00	0	40	104	13421772800	88	20039
2026-01-03 11:03:11.22	273.87	21.58	-60.9	-63.7	6.2	0.00e+00	0	40	104	13421772800	88	19938
2026-01-03 11:03:12.07	273.61	21.48	-60.9	-63.7	6.2	0.00e+00	0	40	104	13421772800	88	19991
2026-01-03 11:03:13.21	273.27	21.33	-60.9	-63.7	6.2	0.00e+00	0	40	104	13421772800	88	19968
2026-01-03 11:03:14.07	273.01	21.23	-60.9	-63.6	6.2	0.00e+00	0	40	104	13421772800	88	19917
2026-01-03 11:03:15.20	272.67	21.09	-60.9	-63.6	6.2	0.00e+00	0	40	104	13421772800	88	19872
2026-01-03 11:03:16.04	272.42	20.99	-60.9	-63.7	6.2	0.00e+00	0	40	104	13421772800	88	19962
2026-01-03 11:03:17.18	272.08	20.84	-60.9	-63.7	6.2	0.00e+00	0	40	104	13421772800	88	19967
2026-01-03 11:03:18.04	271.83	20.74	-60.9	-63.7	6.2	0.00e+00	0	40	104	13421772800	88	19955
2026-01-03 11:03:19.17	271.51	20.60	-60.9	-63.6	6.2	0.00e+00	0	40	104	13421772800	88	19895
2026-01-03 11:03:20.02	271.27	20.49	-60.9	-63.6	6.2	0.00e+00	0	40	104	13421772800	88	19902
2026-01-03 11:03:21.16	270.94	20.35	-60.9	-63.7	6.2	0.00e+00	0	40	104	13421772800	88	19936
2026-01-03 11:03:22.02	270.70	20.25	-60.9	-63.6	6.2	0.00e+00	0	40	104	13421772800	88	19882
2026-01-03 11:03:23.15	270.39	20.11	-60.9	-63.6	6.2	0.00e+00	0	40	104	13421772800	88	19817
2026-01-03 11:03:24.01	270.15	20.00	-60.8	-63.6	6.2	0.00e+00	0	40	104	13421772800	88	19850
2026-01-03 11:03:25.15	269.84	19.86	-60.9	-63.6	6.2	0.00e+00	0	40	104	13421772800	88	19897
2026-01-03 11:03:26.00	269.61	19.76	-60.8	-63.7	6.2	0.00e+00	0	39	104	13421772800	88	19936
2026-01-03 11:03:27.13	269.31	19.62	-60.8	-63.6	6.2	0.00e+00	0	40	104	13421772800	88	19821
2026-01-03 11:03:27.99	269.08	19.52	-60.8	-63.6	6.2	0.00e+00	0	40	104	13421772800	88	19841
2026-01-03 11:03:29.13	268.78	19.38	-60.8	-63.6	6.2	0.00e+00	0	40	104	13421772800	88	19812
2026-01-03 11:03:29.97	268.56	19.28	-60.8	-63.6	6.2	0.00e+00	0	40	104	13421772800	88	19825
2026-01-03 11:03:31.11	268.27	19.14	-60.8	-63.6	6.2	0.00e+00	0	40	104	13421772800	88	19779
2026-01-03 11:03:31.96	268.05	19.03	-60.8	-63.6	6.2	0.00e+00	0	40	104	13421772800	88	19763
2026-01-03 11:03:33.10	267.76	18.90	-60.8	-63.6	6.2	0.00e+00	0	40	104	13421772800	88	19763
2026-01-03 11:03:33.95	267.55	18.79	-60.8	-63.5	6.2	0.00e+00	0	40	104	13421772800	88	19696
2026-01-03 11:03:35.09	267.26	18.66	-60.8	-63.6	6.2	0.00e+00	0	40	104	13421772800	88	19758
2026-01-03 11:03:35.94	267.05	18.55	-60.8	-63.5	6.2	0.00e+00	0	40	104	13421772800	88	19670
2026-01-03 11:03:37.08	266.77	18.42	-60.8	-63.5	6.2	0.00e+00	0	40	104	13421772800	88	19676
2026-01-03 11:03:37.92	266.57	18.32	-60.8	-63.5	6.2	0.00e+00	0	40	104	13421772800	88	19651
2026-01-03 11:03:39.07	266.29	18.18	-60.8	-63.5	6.2	0.00e+00	0	40	104	13421772800	88	19667
2026-01-03 11:03:39.93	266.09	18.08	-60.8	-63.5	6.2	0.00e+00	0	40	104	13421772800	88	19641
2026-01-03 11:03:41.07	265.82	17.94	-60.8	-63.5	6.2	0.00e+00	0	40	104	13421772800	88	19636
2026-01-03 11:03:41.92	265.62	17.84	-60.8	-63.5	6.2	0.00e+00	0	40	104	13421772800	88	19625
2026-01-03 11:03:43.06	265.36	17.70	-60.7	-63.5	6.2	0.00e+00	0	40	104	13421772800	88	19630
2026-01-03 11:03:43.91	265.16	17.60	-60.7	-63.5	6.2	0.00e+00	0	40	104	13421772800	88	19636
2026-01-03 11:03:45.05	264.90	17.47	-60.7	-63.5	6.2	0.00e+00	0	40	104	13421772800	88	19583
2026-01-03 11:03:45.89	264.71	17.37	-60.7	-63.5	6.2	0.00e+00	0	39	104	13421772800	88	19665
2026-01-03 11:03:47.03	264.46	17.24	-60.7	-63.5	6.2	0.00e+00	0	40	104	13421772800	88	19566
2026-01-03 11:03:47.89	264.27	17.14	-60.7	-63.5	6.2	0.00e+00	0	40	104	13421772800	88	19548
2026-01-03 11:03:49.03	264.02	17.00	-60.7	-63.5	6.2	0.00e+00	0	40	104	13421772800	88	19569
2026-01-03 11:03:49.89	263.83	16.90	-60.7	-63.5	6.2	0.00e+00	0	40	104	13421772800	88	19509
2026-01-03 11:03:51.03	263.59	16.77	-60.7	-63.5	6.2	0.00e+00	0	40	104	13421772800	88	19534
2026-01-03 11:03:51.88	263.41	16.67	-60.7	-63.5	6.2	0.00e+00	0	40	104	13421772800	88	19515
2026-01-03 11:03:53.02	263.17	16.54	-60.7	-63.4	6.2	0.00e+00	0	40	104	13421772800	88	19479
2026-01-03 11:03:53.87	262.99	16.44	-60.7	-63.4	6.2	0.00e+00	0	40	104	13421772800	88	19451
2026-01-03 11:03:55.01	262.75	16.31	-60.7	-63.4	6.2	0.00e+00	0	40	104	13421772800	88	19440
2026-01-03 11:03:55.86	262.58	16.21	-60.6	-63.4	6.2	0.00e+00	0	40	104	13421772800	88	19439
2026-01-03 11:03:57.00	262.34	16.08	-60.7	-63.4	6.2	0.00e+00	0	39	104	13421772800	88	19429
2026-01-03 11:03:57.85	262.17	15.99	-60.7	-63.4	6.2	0.00e+00	0	39	104	13421772800	88	19456
2026-01-03 11:03:58.99	261.94	15.86	-60.6	-63.4	6.2	0.00e+00	0	40	104	13421772800	88	19407
2026-01-03 11:03:59.84	261.77	15.76	-60.6	-63.4	6.2	0.00e+00	0	40	104	13421772800	88	19414
2026-01-03 11:04:00.98	261.55	15.63	-60.6	-63.4	6.2	0.00e+00	0	40	104	13421772800	88	19382
2026-01-03 11:04:01.83	261.38	15.54	-60.6	-63.4	6.2	0.00e+00	0	39	104	13421772800	88	19371
2026-01-03 11:04:02.97	261.16	15.41	-60.6	-63.4	6.2	0.00e+00	0	40	104	13421772800	88	19293
2026-01-03 11:04:03.82	261.00	15.32	-60.6	-63.4	6.2	0.00e+00	0	39	104	13421772800	88	19273
2026-01-03 11:04:04.97	260.78	15.19	-60.6	-63.4	6.2	0.00e+00	0	39	104	13421772800	88	19278
2026-01-03 11:04:05.82	260.62	15.10	-60.6	-63.4	6.2	0.00e+00	0	40	104	13421772800	88	19301
2026-01-03 11:04:06.96	260.41	14.97	-60.6	-63.4	6.2	0.00e+00	0	40	104	13421772800	88	19275
2026-01-03 11:04:07.80	260.25	14.88	-60.6	-63.4	6.2	0.00e+00	0	39	104	13421772800	88	19365
2026-01-03 11:04:08.94	260.04	14.75	-60.6	-63.4	6.2	0.00e+00	0	40	104	13421772800	88	19317
2026-01-03 11:04:09.79	259.89	14.66	-60.6	-63.4	6.2	0.00e+00	0	39	104	13421772800	88	19287
2026-01-03 11:04:10.93	259.68	14.54	-60.6	-63.3	6.2	0.00e+00	0	39	104	13421772800	88	19165
2026-01-03 11:04:11.77	259.53	14.44	-60.6	-63.3	6.2	0.00e+00	0	40	104	13421772800	88	19229
2026-01-03 11:04:12.92	259.33	14.32	-60.6	-63.3	6.2	0.00e+00	0	39	104	13421772800	88	19212
2026-01-03 11:04:13.76	259.18	14.23	-60.6	-63.3	6.2	0.00e+00	0	39	104	13421772800	88	19164
2026-01-03 11:04:14.90	258.98	14.11	-60.6	-63.3	6.2	0.00e+00	0	40	104	13421772800	88	19197
2026-01-03 11:04:15.75	258.84	14.02	-60.6	-63.3	6.2	0.00e+00	0	40	104	13421772800	88	19183
2026-01-03 11:04:16.89	258.64	13.90	-60.5	-63.3	6.2	0.00e+00	0	40	104	13421772800	88	19225
2026-01-03 11:04:17.75	258.50	13.80	-60.5	-63.3	6.2	0.00e+00	0	40	104	13421772800	88	19105
2026-01-03 11:04:18.89	258.30	13.68	-60.5	-63.3	6.2	0.00e+00	0	39	104	13421772800	88	19135
2026-01-03 11:04:19.74	258.16	13.59	-60.5	-63.3	6.2	0.00e+00	0	40	104	13421772800	88	19057
2026-01-03 11:04:20.88	257.97	13.47	-60.5	-63.3	6.2	0.00e+00	0	39	104	13421772800	88	19091
2026-01-03 11:04:21.72	257.84	13.39	-60.5	-63.3	6.2	0.00e+00	0	39	104	13421772800	88	19129
2026-01-03 11:04:22.86	257.65	13.27	-60.5	-63.3	6.2	0.00e+00	0	40	104	13421772800	88	19043
2026-01-03 11:04:23.71	257.51	13.18	-60.5	-63.2	6.2	0.00e+00	0	40	104	13421772800	88	19018
2026-01-03 11:04:24.85	257.33	13.06	-60.5	-63.3	6.2	0.00e+00	0	40	104	13421772800	88	19059
2026-01-03 11:04:25.71	257.20	12.97	-60.5	-63.3	6.2	0.00e+00	0	39	104	13421772800	88	19083
2026-01-03 11:04:26.85	257.02	12.86	-60.5	-63.2	6.2	0.00e+00	0	40	104	13421772800	88	19011
2026-01-03 11:04:27.70	256.88	12.77	-60.5	-63.2	6.2	0.00e+00	0	40	104	13421772800	88	19032
2026-01-03 11:04:28.84	256.71	12.65	-60.5	-63.2	6.2	0.00e+00	0	40	104	13421772800	88	18994
2026-01-03 11:04:29.69	256.58	12.57	-60.4	-63.2	6.2	0.00e+00	0	40	104	13421772800	88	18882
2026-01-03 11:04:30.83	256.40	12.45	-60.4	-63.2	6.2	0.00e+00	0	39	104	13421772800	88	18993
2026-01-03 11:04:31.68	256.28	12.36	-60.4	-63.2	6.2	0.00e+00	0	39	104	13421772800	88	18912
2026-01-03 11:04:32.82	256.11	12.25	-60.4	-63.2	6.2	0.00e+00	0	40	104	13421772800	88	18882
2026-01-03 11:04:33.67	255.98	12.16	-60.4	-63.2	6.2	0.00e+00	0	39	104	13421772800	88	18823
2026-01-03 11:04:34.82	255.81	12.05	-60.4	-63.2	6.2	0.00e+00	0	40	104	13421772800	88	18905
2026-01-03 11:04:35.67	255.69	11.97	-60.4	-63.2	6.2	0.00e+00	0	39	104	13421772800	88	18892
2026-01-03 11:04:36.81	255.52	11.85	-60.4	-63.2	6.2	0.00e+00	0	39	104	13421772800	88	18861
2026-01-03 11:04:37.66	255.40	11.77	-60.4	-63.1	6.2	0.00e+00	0	40	104	13421772800	87	19878
2026-01-03 11:04:38.81	255.24	11.66	-60.4	-63.2	6.2	0.00e+00	0	40	104	13421772800	87	19987
2026-01-03 11:04:39.66	255.12	11.57	-60.4	-63.2	6.2	0.00e+00	0	40	104	13421772800	87	19986
2026-01-03 11:04:40.79	254.96	11.46	-60.4	-63.1	6.2	0.00e+00	0	40	104	13421772800	87	19912
2026-01-03 11:04:41.64	254.84	11.38	-60.3	-63.1	6.2	0.00e+00	0	40	104	13421772800	87	19818
2026-01-03 11:04:42.78	254.68	11.27	-60.4	-63.2	6.2	0.00e+00	0	40	104	13421772800	87	20020
2026-01-03 11:04:43.63	254.57	11.19	-60.4	-63.2	6.2	0.00e+00	0	40	104	13421772800	87	20019
2026-01-03 11:04:44.78	254.41	11.08	-60.4	-63.1	6.2	0.00e+00	0	40	104	13421772800	87	19871
2026-01-03 11:04:45.63	254.30	11.00	-60.3	-63.1	6.2	0.00e+00	0	40	104	13421772800	87	19743
2026-01-03 11:04:46.77	254.15	10.89	-60.4	-63.1	6.2	0.00e+00	0	39	104	13421772800	87	19884
2026-01-03 11:04:47.62	254.03	10.81	-60.4	-63.1	6.2	0.00e+00	0	40	104	13421772800	87	19915
2026-01-03 11:04:48.76	253.88	10.70	-60.3	-63.1	6.2	0.00e+00	0	40	104	13421772800	87	19834
2026-01-03 11:04:49.60	253.77	10.62	-60.3	-63.1	6.2	0.00e+00	0	40	104	13421772800	87	19764
2026-01-03 11:04:50.74	253.63	10.51	-60.3	-63.1	6.2	0.00e+00	0	40	104	13421772800	87	19857
2026-01-03 11:04:51.60	253.52	10.43	-60.3	-63.1	6.2	0.00e+00	0	39	104	13421772800	87	19901
2026-01-03 11:04:52.74	253.37	10.32	-60.3	-63.1	6.2	0.00e+00	0	40	104	13421772800	87	19814
2026-01-03 11:04:53.60	253.26	10.24	-60.3	-63.0	6.2	0.00e+00	0	40	104	13421772800	87	19668
2026-01-03 11:04:54.74	253.12	10.14	-60.3	-63.1	6.2	0.00e+00	0	39	104	13421772800	87	19786
2026-01-03 11:04:55.59	253.02	10.06	-60.3	-63.1	6.2	0.00e+00	0	40	104	13421772800	87	19839
2026-01-03 11:04:56.73	252.87	9.96	-60.3	-63.1	6.2	0.00e+00	0	39	104	13421772800	87	19740
2026-01-03 11:04:57.58	252.77	9.88	-60.3	-63.0	6.2	0.00e+00	0	40	104	13421772800	87	19703
2026-01-03 11:04:58.72	252.63	9.77	-60.3	-63.1	6.2	0.00e+00	0	40	104	13421772800	87	19770
2026-01-03 11:04:59.56	252.53	9.70	-60.3	-63.0	6.2	0.00e+00	0	40	104	13421772800	87	19682
2026-01-03 11:05:00.70	252.40	9.59	-60.2	-63.0	6.2	0.00e+00	0	40	104	13421772800	87	19678
2026-01-03 11:05:01.55	252.29	9.52	-60.2	-63.0	6.2	0.00e+00	0	40	104	13421772800	87	19554
2026-01-03 11:05:02.69	252.16	9.42	-60.3	-63.0	6.2	0.00e+00	0	40	104	13421772800	87	19609
2026-01-03 11:05:03.55	252.06	9.34	-60.2	-63.0	6.2	0.00e+00	0	40	104	13421772800	87	19593
2026-01-03 11:05:04.69	251.93	9.24	-60.2	-63.0	6.2	0.00e+00	0	40	104	13421772800	87	19589
2026-01-03 11:05:05.54	251.83	9.16	-60.2	-63.0	6.2	0.00e+00	0	40	104	13421772800	87	19551
2026-01-03 11:05:06.67	251.70	9.06	-60.2	-63.0	6.2	0.00e+00	0	40	104	13421772800	87	19529
2026-01-03 11:05:07.53	251.60	8.98	-60.2	-62.9	6.2	0.00e+00	0	40	104	13421772800	87	19405
2026-01-03 11:05:08.66	251.48	8.89	-60.2	-63.0	6.2	0.00e+00	0	39	104	13421772800	87	19520
2026-01-03 11:05:09.51	251.38	8.81	-60.2	-63.0	6.2	0.00e+00	0	39	104	13421772800	87	19553
2026-01-03 11:05:10.66	251.26	8.71	-60.2	-63.0	6.2	0.00e+00	0	40	104	13421772800	87	19527
2026-01-03 11:05:11.51	251.16	8.64	-60.2	-62.9	6.2	0.00e+00	0	40	104	13421772800	87	19359
2026-01-03 11:05:12.65	251.04	8.54	-60.1	-62.9	6.2	0.00e+00	0	40	104	13421772800	87	19353
2026-01-03 11:05:13.51	250.95	8.46	-60.2	-63.0	6.2	0.00e+00	0	40	104	13421772800	87	19481
2026-01-03 11:05:14.64	250.82	8.37	-60.2	-62.9	6.2	0.00e+00	0	39	104	13421772800	87	19432
2026-01-03 11:05:15.50	250.73	8.29	-60.1	-62.9	6.2	0.00e+00	0	40	104	13421772800	87	19278
2026-01-03 11:05:16.63	250.61	8.20	-60.1	-62.9	6.2	0.00e+00	0	40	104	13421772800	87	19311
2026-01-03 11:05:17.48	250.52	8.12	-60.1	-62.9	6.2	0.00e+00	0	39	104	13421772800	87	19338
2026-01-03 11:05:18.62	250.40	8.03	-60.1	-62.9	6.2	0.00e+00	0	39	104	13421772800	87	19379
2026-01-03 11:05:19.47	250.32	7.95	-60.1	-62.8	6.2	0.00e+00	0	40	104	13421772800	87	19219
2026-01-03 11:05:20.61	250.20	7.86	-60.1	-62.8	6.2	0.00e+00	0	40	104	13421772800	87	19096
2026-01-03 11:05:21.46	250.11	7.79	-60.1	-62.8	6.2	0.00e+00	0	40	104	13421772800	87	19198
2026-01-03 11:05:22.61	250.00	7.69	-60.1	-62.8	6.2	0.00e+00	0	40	104	13421772800	87	19224
2026-01-03 11:05:23.46	249.91	7.62	-60.1	-62.8	6.2	0.00e+00	0	39	104	13421772800	87	19148
2026-01-03 11:05:24.60	249.80	7.52	-60.0	-62.8	6.2	0.00e+00	0	39	104	13421772800	87	19105
2026-01-03 11:05:25.44	249.71	7.45	-60.0	-62.7	6.2	0.00e+00	0	40	104	13421772800	87	18932
2026-01-03 11:05:26.57	249.60	7.36	-60.0	-62.8	6.2	0.00e+00	0	39	104	13421772800	87	19063
2026-01-03 11:05:27.42	249.52	7.29	-60.0	-62.7	6.2	0.00e+00	0	40	104	13421772800	87	19014
2026-01-03 11:05:28.57	249.41	7.20	-59.9	-62.7	6.2	0.00e+00	0	40	104	13421772800	87	18907
2026-01-03 11:05:29.42	249.33	7.13	-59.9	-62.6	6.2	0.00e+00	0	39	104	13421772800	87	18795
2026-01-03 11:05:30.56	249.22	7.03	-60.0	-62.7	6.2	0.00e+00	0	40	104	13421772800	87	18984
2026-01-03 11:05:31.41	249.14	6.97	-60.0	-62.7	6.2	0.00e+00	0	39	104	13421772800	87	18981
2026-01-03 11:05:32.55	249.03	6.87	-59.9	-62.7	6.2	0.00e+00	0	40	104	13421772800	87	18838
2026-01-03 11:05:33.40	248.95	6.81	-59.9	-62.6	6.2	0.00e+00	0	40	104	13421772800	86	19796
2026-01-03 11:05:34.53	248.85	6.71	-60.0	-62.7	6.2	0.00e+00	0	40	104	13421772800	86	20058
2026-01-03 11:05:35.39	248.77	6.65	-60.0	-62.7	6.2	0.00e+00	0	39	104	13421772800	86	20072
2026-01-03 11:05:36.53	248.66	6.55	-59.8	-62.6	6.2	0.00e+00	0	40	104	13421772800	86	19835
2026-01-03 11:05:37.38	248.59	6.49	-59.8	-62.5	6.2	0.00e+00	0	39	104	13421772800	86	19656
2026-01-03 11:05:38.51	248.48	6.40	-59.9	-62.7	6.2	0.00e+00	0	40	104	13421772800	86	19944
2026-01-03 11:05:39.36	248.41	6.33	-59.9	-62.7	6.2	0.00e+00	0	40	104	13421772800	86	20046
2026-01-03 11:05:40.51	248.30	6.24	-59.8	-62.5	6.2	0.00e+00	0	40	104	13421772800	86	19691
2026-01-03 11:05:41.37	248.23	6.17	-59.8	-62.5	6.2	0.00e+00	0	39	104	13421772800	86	19524
2026-01-03 11:05:42.51	248.13	6.08	-59.9	-62.6	6.2	0.00e+00	0	39	104	13421772800	86	19858
2026-01-03 11:05:43.36	248.05	6.02	-59.9	-62.6	6.2	0.00e+00	0	40	104	13421772800	86	19929
2026-01-03 11:05:44.49	247.96	5.93	-59.7	-62.5	6.2	0.00e+00	0	39	104	13421772800	86	19599
2026-01-03 11:05:45.34	247.88	5.86	-59.7	-62.4	6.2	0.00e+00	0	39	104	13421772800	86	19439
2026-01-03 11:05:46.47	247.79	5.78	-59.8	-62.6	6.2	0.00e+00	0	40	104	13421772800	86	19840
2026-01-03 11:05:47.32	247.71	5.71	-59.8	-62.6	6.2	0.00e+00	0	40	104	13421772800	86	19924
2026-01-03 11:05:48.46	247.62	5.62	-59.7	-62.4	6.2	0.00e+00	0	39	104	13421772800	86	19430
2026-01-03 11:05:49.31	247.55	5.56	-59.7	-62.4	6.2	0.00e+00	0	40	104	13421772800	86	19349
2026-01-03 11:05:50.45	247.45	5.47	-59.7	-62.5	6.2	0.00e+00	0	40	104	13421772800	86	19668
2026-01-03 11:05:51.30	247.38	5.41	-59.8	-62.6	6.2	0.00e+00	0	39	104	13421772800	86	19740
2026-01-03 11:05:52.44	247.29	5.32	-59.6	-62.4	6.2	0.00e+00	0	39	104	13421772800	86	19283
2026-01-03 11:05:53.29	247.22	5.26	-59.6	-62.3	6.2	0.00e+00	0	40	104	13421772800	86	19256
2026-01-03 11:05:54.43	247.13	5.17	-59.7	-62.5	6.2	0.00e+00	0	40	104	13421772800	86	19511
2026-01-03 11:05:55.27	247.06	5.11	-59.7	-62.5	6.2	0.00e+00	0	40	104	13421772800	86	19572
2026-01-03 11:05:56.40	246.97	5.02	-59.8	-62.6	6.2	0.00e+00	0	40	104	13421772800	86	19847
2026-01-03 11:05:57.27	246.90	4.96	-60.2	-63.0	6.2	0.00e+00	0	40	104	13421772800	86	20664
2026-01-03 11:05:58.41	246.81	4.87	-60.4	-63.1	6.2	0.00e+00	0	40	104	13421772800	86	20961
2026-01-03 11:05:59.28	246.74	4.81	-60.8	-63.5	6.2	0.00e+00	0	39	104	13421772800	87	20866
2026-01-03 11:06:00.43	246.65	4.72	-60.9	-63.7	6.2	0.00e+00	0	39	104	13421772800	87	21221
2026-01-03 11:06:01.29	246.59	4.66	-61.1	-63.8	6.2	0.00e+00	0	39	104	13421772800	87	21573
2026-01-03 11:06:02.43	246.50	4.58	-61.2	-64.0	6.2	0.00e+00	0	39	104	13421772800	88	20728
2026-01-03 11:06:03.29	246.43	4.51	-61.3	-64.1	6.2	0.00e+00	0	39	104	13421772800	88	20899
2026-01-03 11:06:04.44	246.35	4.43	-61.4	-64.2	6.2	0.00e+00	0	40	104	13421772800	88	21226
2026-01-03 11:06:05.30	246.28	4.37	-61.5	-64.3	6.2	0.00e+00	0	39	104	13421772800	88	21396
2026-01-03 11:06:06.45	246.20	4.28	-61.5	-64.3	6.2	0.00e+00	0	40	104	13421772800	88	21581
2026-01-03 11:06:07.30	246.13	4.22	-61.6	-64.3	6.2	0.00e+00	0	40	104	13421772800	88	21593
2026-01-03 11:06:08.45	246.05	4.14	-61.6	-64.4	6.2	0.00e+00	0	40	104	13421772800	89	20456
2026-01-03 11:06:09.31	245.99	4.08	-61.7	-64.4	6.2	0.00e+00	0	40	104	13421772800	89	20491
2026-01-03 11:06:10.46	245.90	3.99	-61.7	-64.4	6.2	0.00e+00	0	40	104	13421772800	89	20600
2026-01-03 11:06:11.32	245.84	3.93	-61.7	-64.5	6.2	0.00e+00	0	40	104	13421772800	89	20664
2026-01-03 11:06:12.47	245.76	3.85	-61.7	-64.4	6.2	0.00e+00	0	39	104	13421772800	89	20621
2026-01-03 11:06:13.33	245.70	3.79	-61.7	-64.4	6.2	0.00e+00	0	40	104	13421772800	89	20573
2026-01-03 11:06:14.48	245.61	3.71	-61.7	-64.5	6.2	0.00e+00	0	40	104	13421772800	89	20662
2026-01-03 11:06:15.34	245.55	3.65	-61.7	-64.5	6.2	0.00e+00	0	40	104	13421772800	89	20718
2026-01-03 11:06:16.50	245.47	3.57	-61.7	-64.5	6.2	0.00e+00	0	39	104	13421772800	89	20806
2026-01-03 11:06:17.36	245.41	3.50	-61.8	-64.5	6.2	0.00e+00	0	40	104	13421772800	89	20795
2026-01-03 11:06:18.51	245.33	3.42	-61.7	-64.5	6.2	0.00e+00	0	40	104	13421772800	89	20790
2026-01-03 11:06:19.36	245.27	3.37	-61.7	-64.4	6.2	0.00e+00	0	40	104	13421772800	89	20625
2026-01-03 11:06:20.49	245.20	3.29	-61.7	-64.5	6.2	0.00e+00	0	39	104	13421772800	89	20641
2026-01-03 11:06:21.35	245.14	3.23	-61.7	-64.5	6.2	0.00e+00	0	40	104	13421772800	89	20682
2026-01-03 11:06:22.48	245.06	3.15	-61.7	-64.4	6.2	0.00e+00	0	40	104	13421772800	89	20601
2026-01-03 11:06:23.33	245.01	3.09	-61.7	-64.4	6.2	0.00e+00	0	40	104	13421772800	89	20629
2026-01-03 11:06:24.46	244.93	3.01	-61.7	-64.4	6.2	0.00e+00	0	40	104	13421772800	89	20540
2026-01-03 11:06:25.32	244.87	2.95	-61.6	-64.4	6.2	0.00e+00	0	40	104	13421772800	89	20574
2026-01-03 11:06:26.46	244.80	2.87	-61.6	-64.4	6.2	0.00e+00	0	40	104	13421772800	89	20527
2026-01-03 11:06:27.31	244.74	2.82	-61.6	-64.4	6.2	0.00e+00	0	40	104	13421772800	89	20569
2026-01-03 11:06:28.45	244.67	2.74	-61.6	-64.4	6.2	0.00e+00	0	40	104	13421772800	89	20511
2026-01-03 11:06:29.30	244.61	2.68	-61.6	-64.4	6.2	0.00e+00	0	40	104	13421772800	89	20496
2026-01-03 11:06:30.44	244.54	2.60	-61.6	-64.4	6.2	0.00e+00	0	40	104	13421772800	89	20480
2026-01-03 11:06:31.29	244.49	2.55	-61.6	-64.4	6.2	0.00e+00	0	40	104	13421772800	89	20441
2026-01-03 11:06:32.43	244.41	2.47	-61.6	-64.4	6.2	0.00e+00	0	40	104	13421772800	89	20401
2026-01-03 11:06:33.28	244.36	2.41	-61.6	-64.4	6.2	0.00e+00	0	40	104	13421772800	89	20434
2026-01-03 11:06:34.42	244.29	2.34	-61.6	-64.3	6.2	0.00e+00	0	40	104	13421772800	89	20348
2026-01-03 11:06:35.27	244.24	2.28	-61.6	-64.4	6.2	0.00e+00	0	40	104	13421772800	89	20434
2026-01-03 11:06:36.41	244.17	2.20	-61.6	-64.4	6.2	0.00e+00	0	40	104	13421772800	89	20424
2026-01-03 11:06:37.27	244.11	2.15	-61.6	-64.3	6.2	0.00e+00	0	40	104	13421772800	89	20357
2026-01-03 11:06:38.40	244.04	2.07	-61.6	-64.3	6.2	0.00e+00	0	40	104	13421772800	89	20359
2026-01-03 11:06:39.25	243.99	2.02	-61.6	-64.4	6.2	0.00e+00	0	39	104	13421772800	89	20468
2026-01-03 11:06:40.38	243.92	1.94	-61.6	-64.3	6.2	0.00e+00	0	40	104	13421772800	89	20389

#Closed at: 2026-01-03 11:06:40
#Recorded file [13421 MB]: D:/lorett/data/31004_260103_135638.dat