passes_logs/2026/01/03/R3.2S_Murmansk/R3.2S_Murmansk__20260103_055727_FENGYUN_3D_rec.log

#Pass ID: 20260103_055727_FENGYUN 3D
#Satellite: FENGYUN 3D
#Configuration: FENGYUN 3D
#almurnet v.1.7.20251203
#Start time: 2026-01-03 05:57:28

#Version: 2.2.20231116
#Station: R3.2S_Murmansk
#Location: 33.079688 lon 68.888172 lat
#TLE: 1 43010U 17072A   26002.81102625  .00000200  00000+0  11640-3 0  9996
#TLE: 2 43010  98.9911 334.4394 0001899 131.0556 229.0784 14.19692049421526

#Time	Az	El	Level	Level2	SNR	BER	BlckErr	Temp	State	Recorded	gain1	gain2
2026-01-03 05:57:28.77	46.71	2.10	-59.6	-72.1	3.8	8.46e-01	0	29	0	0	85	15163
2026-01-03 05:57:29.76	46.66	2.15	-59.6	-72.1	3.8	8.46e-01	0	29	104	0	84	15973
2026-01-03 05:57:30.75	46.60	2.21	-59.6	-72.1	3.8	8.46e-01	0	29	104	0	84	16041
2026-01-03 05:57:31.75	46.54	2.27	-59.6	-72.1	3.8	8.45e-01	0	29	104	0	84	16019
2026-01-03 05:57:32.75	46.48	2.33	-59.6	-72.1	3.8	8.46e-01	0	29	104	0	84	16057
2026-01-03 05:57:33.74	46.43	2.39	-59.6	-72.1	3.8	8.45e-01	0	29	104	0	84	16002
2026-01-03 05:57:34.75	46.37	2.45	-59.6	-72.1	3.8	8.44e-01	0	29	104	0	84	16090
2026-01-03 05:57:35.75	46.31	2.51	-59.6	-72.1	3.8	8.46e-01	0	29	104	0	84	16026
2026-01-03 05:57:36.74	46.25	2.56	-59.6	-72.1	3.8	8.46e-01	0	29	104	0	84	16081
2026-01-03 05:57:37.74	46.19	2.62	-59.6	-72.1	3.8	8.46e-01	0	29	104	0	84	16110
2026-01-03 05:57:38.74	46.13	2.68	-59.6	-72.2	3.8	8.45e-01	0	29	104	0	84	16136
2026-01-03 05:57:39.75	46.07	2.74	-59.6	-72.2	3.8	8.46e-01	0	29	104	0	84	16144
2026-01-03 05:57:40.74	46.01	2.80	-59.6	-72.2	3.8	8.45e-01	0	29	104	0	84	16137
2026-01-03 05:57:41.75	45.95	2.86	-59.6	-72.2	3.8	8.46e-01	0	29	104	0	84	16132
2026-01-03 05:57:42.73	45.89	2.92	-59.6	-72.1	3.8	8.46e-01	0	29	104	0	84	16075
2026-01-03 05:57:43.74	45.83	2.98	-59.6	-72.1	3.8	8.45e-01	0	29	104	0	84	16072
2026-01-03 05:57:44.74	45.77	3.04	-59.6	-72.0	3.8	8.45e-01	0	29	104	0	84	15907
2026-01-03 05:57:45.74	45.71	3.10	-59.6	-72.0	3.8	8.47e-01	0	29	104	0	84	15903
2026-01-03 05:57:46.73	45.64	3.16	-59.6	-72.1	3.8	8.45e-01	0	29	104	0	84	15961
2026-01-03 05:57:47.73	45.58	3.22	-59.6	-72.1	3.8	8.46e-01	0	29	104	0	84	16006
2026-01-03 05:57:48.73	45.52	3.28	-59.6	-72.1	3.8	8.47e-01	0	29	104	0	84	15978
2026-01-03 05:57:49.73	45.46	3.34	-59.6	-72.1	3.8	8.46e-01	0	29	104	0	84	16098
2026-01-03 05:57:50.73	45.40	3.40	-59.6	-72.1	3.8	8.44e-01	0	29	104	0	84	16121
2026-01-03 05:57:51.73	45.33	3.46	-59.6	-72.1	3.8	8.47e-01	0	29	104	0	84	16093
2026-01-03 05:57:52.73	45.27	3.52	-59.6	-72.1	3.8	8.46e-01	0	29	104	0	84	15974
2026-01-03 05:57:53.74	45.20	3.58	-59.6	-71.9	3.8	8.45e-01	0	29	104	0	84	15708
2026-01-03 05:57:54.74	45.14	3.64	-59.6	-71.8	3.8	8.45e-01	0	29	104	0	84	15452
2026-01-03 05:57:55.74	45.08	3.70	-59.6	-71.7	3.8	8.46e-01	0	29	104	0	84	15341
2026-01-03 05:57:56.73	45.01	3.76	-59.6	-71.8	3.8	8.45e-01	0	30	104	0	84	15441
2026-01-03 05:57:57.73	44.95	3.82	-59.6	-71.9	3.8	8.46e-01	0	29	104	0	84	15665
2026-01-03 05:57:58.72	44.88	3.88	-59.6	-72.0	3.8	8.45e-01	0	29	104	0	84	15928
2026-01-03 05:57:59.72	44.82	3.94	-59.6	-72.1	3.8	8.46e-01	0	29	104	0	84	16040
2026-01-03 05:58:00.72	44.75	4.01	-59.6	-72.1	3.8	8.46e-01	0	30	104	0	84	16069
2026-01-03 05:58:01.71	44.69	4.07	-59.6	-71.9	3.8	8.46e-01	0	29	104	0	84	15696
2026-01-03 05:58:02.71	44.62	4.13	-59.6	-71.4	3.8	8.45e-01	0	29	104	0	84	14729
2026-01-03 05:58:03.71	44.55	4.19	-59.5	-70.4	3.9	8.45e-01	0	29	104	0	84	13189
2026-01-03 05:58:04.71	44.49	4.25	-59.4	-69.4	4.0	8.44e-01	0	30	104	0	84	11724
2026-01-03 05:58:05.72	44.42	4.31	-59.2	-68.2	4.3	8.36e-01	0	30	0	0	84	10287
2026-01-03 05:58:06.72	44.35	4.38	-59.1	-67.0	4.8	8.03e-01	0	30	0	0	84	8882
2026-01-03 05:58:07.71	44.29	4.44	-58.9	-65.9	5.3	7.44e-01	0	30	0	0	84	7815
2026-01-03 05:58:08.71	44.22	4.50	-58.4	-64.6	6.0	4.16e-01	0	30	0	3145728	83	7179
2026-01-03 05:58:09.70	44.15	4.56	-58.2	-63.8	6.6	2.09e-01	0	30	0	9437184	83	6511
2026-01-03 05:58:10.70	44.08	4.62	-58.0	-63.2	7.1	1.39e-01	0	30	0	14680064	82	6444
2026-01-03 05:58:11.70	44.01	4.69	-57.8	-62.4	7.8	7.66e-02	0	30	0	19922944	82	5917
2026-01-03 05:58:12.69	43.94	4.75	-57.6	-61.9	8.2	4.15e-02	0	30	0	26214400	81	5883
2026-01-03 05:58:13.69	43.88	4.81	-57.5	-61.6	8.4	3.07e-02	0	30	0	31457280	81	5699
2026-01-03 05:58:14.69	43.81	4.87	-57.4	-61.5	8.5	2.96e-02	0	30	0	37748736	81	5656
2026-01-03 05:58:15.70	43.73	4.94	-57.4	-61.5	8.6	2.38e-02	0	30	0	42991616	81	5601
2026-01-03 05:58:16.70	43.66	5.00	-57.6	-61.9	8.2	3.56e-02	0	30	0	48234496	81	5906
2026-01-03 05:58:17.70	43.59	5.06	-57.5	-61.7	8.5	2.84e-02	0	30	0	54525952	81	5731
2026-01-03 05:58:18.70	43.52	5.12	-57.8	-62.1	8.2	3.94e-02	0	30	0	59768832	81	6038
2026-01-03 05:58:19.70	43.45	5.19	-58.7	-65.8	5.3	1.21e-01	0	30	0	65011712	82	8674
2026-01-03 05:58:20.71	43.38	5.25	-54.3	-56.0	12.9	0.00e+00	0	30	0	70254592	75	4212
2026-01-03 05:58:21.71	43.31	5.32	-59.3	-70.5	3.8	4.65e-01	0	30	104	74448896	83	14178
2026-01-03 05:58:22.71	43.23	5.38	-54.4	-56.1	12.9	2.17e-05	0	30	0	76546048	75	4267
2026-01-03 05:58:23.71	43.16	5.44	-53.3	-54.6	13.7	0.00e+00	0	30	0	82837504	73	4045
2026-01-03 05:58:24.71	43.09	5.51	-52.6	-53.8	14.1	0.00e+00	0	30	0	88080384	71	4140
2026-01-03 05:58:25.72	43.01	5.57	-52.7	-53.9	14.1	0.00e+00	0	30	0	93323264	71	4169
2026-01-03 05:58:26.72	42.94	5.64	-52.4	-53.6	14.2	0.00e+00	0	30	0	99614720	71	4037
2026-01-03 05:58:27.72	42.87	5.70	-52.2	-53.3	14.3	0.00e+00	0	30	0	104857600	70	4136
2026-01-03 05:58:28.71	42.79	5.76	-51.9	-53.0	14.5	0.00e+00	0	30	0	110100480	70	3986
2026-01-03 05:58:29.71	42.72	5.83	-51.9	-53.0	14.5	0.00e+00	0	30	0	116391936	70	3977
2026-01-03 05:58:30.71	42.64	5.89	-51.8	-52.8	14.6	0.00e+00	0	30	0	121634816	70	3913
2026-01-03 05:58:31.72	42.57	5.96	-51.7	-52.7	14.6	0.00e+00	0	30	0	126877696	69	4082
2026-01-03 05:58:32.71	42.49	6.02	-51.6	-52.6	14.6	0.00e+00	0	30	0	133169152	69	4039
2026-01-03 05:58:33.71	42.41	6.09	-51.6	-52.6	14.7	0.00e+00	0	30	0	138412032	69	4036
2026-01-03 05:58:34.71	42.34	6.15	-51.6	-52.6	14.6	0.00e+00	0	30	0	144703488	69	4042
2026-01-03 05:58:35.72	42.26	6.22	-51.6	-52.6	14.7	0.00e+00	0	30	0	149946368	69	4032
2026-01-03 05:58:36.73	42.18	6.28	-51.6	-52.6	14.7	0.00e+00	0	30	0	155189248	69	4024
2026-01-03 05:58:37.73	42.10	6.35	-51.7	-52.7	14.6	0.00e+00	0	30	0	161480704	69	4092
2026-01-03 05:58:38.73	42.03	6.41	-51.6	-52.7	14.6	0.00e+00	0	30	0	166723584	69	4062
2026-01-03 05:58:39.73	41.95	6.48	-51.5	-52.6	14.7	0.00e+00	0	30	0	171966464	69	4011
2026-01-03 05:58:40.74	41.87	6.54	-51.5	-52.6	14.7	0.00e+00	0	30	0	178257920	69	4027
2026-01-03 05:58:41.75	41.79	6.61	-51.4	-52.5	14.7	0.00e+00	0	30	0	183500800	69	3987
2026-01-03 05:58:42.76	41.71	6.68	-51.4	-52.6	14.7	0.00e+00	0	30	0	188743680	69	4006
2026-01-03 05:58:43.76	41.63	6.74	-51.4	-52.4	14.8	0.00e+00	0	30	0	195035136	69	3954
2026-01-03 05:58:44.77	41.55	6.81	-51.4	-52.4	14.8	0.00e+00	0	30	0	200278016	69	3949
2026-01-03 05:58:45.77	41.47	6.88	-51.5	-52.5	14.7	0.00e+00	0	30	0	206569472	69	3994
2026-01-03 05:58:46.77	41.39	6.94	-51.5	-52.6	14.7	0.00e+00	0	30	0	211812352	69	4008
2026-01-03 05:58:47.77	41.30	7.01	-51.6	-52.6	14.7	0.00e+00	0	30	0	218103808	69	4042
2026-01-03 05:58:48.76	41.22	7.07	-51.5	-52.6	14.7	0.00e+00	0	30	0	223346688	69	4005
2026-01-03 05:58:49.77	41.14	7.14	-51.4	-52.4	14.8	0.00e+00	0	30	0	228589568	69	3956
2026-01-03 05:58:50.77	41.06	7.21	-51.5	-52.5	14.8	0.00e+00	0	30	0	234881024	69	3969
2026-01-03 05:58:51.77	40.98	7.27	-51.4	-52.4	14.8	0.00e+00	0	30	0	240123904	69	3941
2026-01-03 05:58:52.78	40.89	7.34	-51.4	-52.4	14.8	0.00e+00	0	30	0	245366784	69	3956
2026-01-03 05:58:53.78	40.81	7.41	-51.3	-52.2	14.9	0.00e+00	0	30	0	251658240	69	3860
2026-01-03 05:58:54.79	40.72	7.48	-51.3	-52.3	14.9	0.00e+00	0	30	0	256901120	69	3870
2026-01-03 05:58:55.78	40.64	7.54	-51.3	-52.2	14.9	0.00e+00	0	30	0	262144000	69	3862
2026-01-03 05:58:56.79	40.55	7.61	-51.2	-52.2	14.9	0.00e+00	0	30	0	268435456	68	4057
2026-01-03 05:58:57.80	40.47	7.68	-51.2	-52.2	14.9	0.00e+00	0	30	0	273678336	68	4061
2026-01-03 05:58:58.80	40.38	7.75	-51.2	-52.1	14.9	0.00e+00	0	30	0	279969792	68	4041
2026-01-03 05:58:59.80	40.29	7.82	-51.2	-52.1	14.9	0.00e+00	0	30	0	285212672	68	4019
2026-01-03 05:59:00.80	40.21	7.88	-51.1	-52.0	14.9	0.00e+00	0	30	0	290455552	68	3977
2026-01-03 05:59:01.81	40.12	7.95	-51.0	-51.9	15.0	0.00e+00	0	30	0	296747008	68	3933
2026-01-03 05:59:02.81	40.03	8.02	-50.9	-51.9	15.0	0.00e+00	0	30	0	301989888	68	3924
2026-01-03 05:59:03.81	39.94	8.09	-50.9	-51.8	15.0	0.00e+00	0	30	0	307232768	68	3911
2026-01-03 05:59:04.81	39.86	8.16	-51.0	-51.9	15.0	0.00e+00	0	30	0	313524224	68	3957
2026-01-03 05:59:05.80	39.77	8.22	-51.0	-52.0	15.0	0.00e+00	0	30	0	318767104	68	3964
2026-01-03 05:59:06.80	39.68	8.29	-50.9	-51.9	15.0	0.00e+00	0	30	0	324009984	68	3920
2026-01-03 05:59:07.80	39.59	8.36	-51.0	-51.9	15.0	0.00e+00	0	30	0	330301440	68	3941
2026-01-03 05:59:08.80	39.50	8.43	-51.0	-51.9	15.0	0.00e+00	0	30	0	335544320	68	3930
2026-01-03 05:59:09.80	39.41	8.50	-50.9	-51.8	15.0	0.00e+00	0	30	0	341835776	68	3913
2026-01-03 05:59:10.81	39.32	8.57	-50.9	-51.9	15.0	0.00e+00	0	30	0	347078656	68	3921
2026-01-03 05:59:11.81	39.23	8.64	-51.0	-51.9	15.0	0.00e+00	0	30	0	352321536	68	3922
2026-01-03 05:59:12.81	39.13	8.71	-51.2	-52.1	14.9	0.00e+00	0	30	0	358612992	68	4026
2026-01-03 05:59:13.81	39.04	8.78	-51.1	-52.0	15.0	0.00e+00	0	30	0	363855872	68	3987
2026-01-03 05:59:14.81	38.95	8.85	-50.9	-51.8	15.0	0.00e+00	0	30	0	370147328	68	3903
2026-01-03 05:59:15.81	38.85	8.92	-51.0	-51.9	15.1	0.00e+00	0	30	0	375390208	68	3920
2026-01-03 05:59:16.81	38.76	8.99	-50.8	-51.7	15.1	0.00e+00	0	30	0	380633088	68	3861
2026-01-03 05:59:17.81	38.67	9.06	-50.9	-51.8	15.1	0.00e+00	0	30	0	386924544	68	3889
2026-01-03 05:59:18.82	38.57	9.13	-50.9	-51.8	15.0	0.00e+00	0	30	0	392167424	68	3899
2026-01-03 05:59:19.82	38.48	9.20	-50.9	-51.8	15.1	0.00e+00	0	30	0	397410304	68	3891
2026-01-03 05:59:20.83	38.38	9.27	-51.0	-51.9	15.0	0.00e+00	0	30	0	403701760	68	3928
2026-01-03 05:59:21.83	38.28	9.34	-50.9	-51.8	15.0	0.00e+00	0	30	0	408944640	68	3870
2026-01-03 05:59:22.83	38.19	9.41	-50.7	-51.6	15.1	0.00e+00	0	30	0	415236096	68	3793
2026-01-03 05:59:23.83	38.09	9.48	-50.8	-51.7	15.1	0.00e+00	0	30	0	420478976	68	3827
2026-01-03 05:59:24.83	37.99	9.55	-50.7	-51.5	15.2	0.00e+00	0	30	0	425721856	68	3776
2026-01-03 05:59:25.82	37.89	9.62	-50.5	-51.3	15.2	0.00e+00	0	30	0	432013312	67	3905
2026-01-03 05:59:26.82	37.80	9.69	-50.5	-51.3	15.2	0.00e+00	0	30	0	437256192	67	3902
2026-01-03 05:59:27.83	37.70	9.76	-50.2	-51.0	15.3	0.00e+00	0	30	0	442499072	67	3775
2026-01-03 05:59:28.83	37.60	9.83	-50.3	-51.1	15.2	0.00e+00	0	30	0	448790528	66	4025
2026-01-03 05:59:29.84	37.50	9.91	-50.2	-51.0	15.2	0.00e+00	0	30	0	454033408	66	3987
2026-01-03 05:59:30.84	37.40	9.98	-50.3	-51.1	15.2	0.00e+00	0	30	0	459276288	66	4029
2026-01-03 05:59:31.85	37.29	10.05	-50.2	-51.0	15.2	0.00e+00	0	31	0	465567744	66	4003
2026-01-03 05:59:32.85	37.19	10.12	-50.1	-51.0	15.3	0.00e+00	0	30	0	470810624	66	3966
2026-01-03 05:59:33.85	37.09	10.19	-50.1	-50.9	15.3	0.00e+00	0	30	0	477102080	66	3952
2026-01-03 05:59:34.85	36.99	10.27	-50.2	-51.1	15.2	0.00e+00	0	30	0	482344960	66	4016
2026-01-03 05:59:35.85	36.88	10.34	-50.1	-51.0	15.3	0.00e+00	0	30	0	487587840	66	3959
2026-01-03 05:59:36.85	36.78	10.41	-50.3	-51.1	15.2	0.00e+00	0	30	0	493879296	66	4015
2026-01-03 05:59:37.85	36.68	10.48	-50.2	-51.1	15.2	0.00e+00	0	30	0	499122176	66	4009
2026-01-03 05:59:38.85	36.57	10.55	-50.2	-51.0	15.2	0.00e+00	0	30	0	504365056	66	4004
2026-01-03 05:59:39.85	36.47	10.63	-50.2	-51.1	15.2	0.00e+00	0	30	0	510656512	66	4016
2026-01-03 05:59:40.85	36.36	10.70	-50.2	-51.1	15.2	0.00e+00	0	30	0	515899392	66	4019
2026-01-03 05:59:41.85	36.25	10.77	-50.1	-51.0	15.2	0.00e+00	0	30	0	521142272	66	3961
2026-01-03 05:59:42.85	36.15	10.85	-50.1	-51.0	15.3	0.00e+00	0	30	0	527433728	66	3961
2026-01-03 05:59:43.86	36.04	10.92	-50.2	-51.0	15.2	0.00e+00	0	30	0	532676608	66	3988
2026-01-03 05:59:44.87	35.93	10.99	-50.0	-50.8	15.3	0.00e+00	0	30	0	538968064	66	3913
2026-01-03 05:59:45.87	35.82	11.07	-50.1	-50.9	15.3	0.00e+00	0	30	0	544210944	66	3926
2026-01-03 05:59:46.87	35.71	11.14	-50.0	-50.8	15.3	0.00e+00	0	30	0	550502400	66	3900
2026-01-03 05:59:47.88	35.60	11.21	-50.2	-51.0	15.3	0.00e+00	0	30	0	555745280	66	3971
2026-01-03 05:59:48.88	35.49	11.29	-50.0	-50.8	15.3	0.00e+00	0	30	0	560988160	66	3891
2026-01-03 05:59:49.88	35.38	11.36	-50.1	-50.9	15.3	0.00e+00	0	30	0	567279616	66	3949
2026-01-03 05:59:50.88	35.27	11.43	-50.1	-50.9	15.3	0.00e+00	0	30	0	572522496	66	3945
2026-01-03 05:59:51.88	35.16	11.51	-50.1	-51.0	15.2	0.00e+00	0	30	0	577765376	66	3968
2026-01-03 05:59:52.89	35.04	11.58	-50.1	-50.9	15.3	0.00e+00	0	30	0	584056832	66	3946
2026-01-03 05:59:53.89	34.93	11.66	-50.1	-50.9	15.3	0.00e+00	0	30	0	589299712	66	3924
2026-01-03 05:59:54.89	34.81	11.73	-50.1	-50.9	15.3	0.00e+00	0	30	0	594542592	66	3941
2026-01-03 05:59:55.89	34.70	11.81	-50.0	-50.8	15.3	0.00e+00	0	30	0	600834048	66	3890
2026-01-03 05:59:56.89	34.59	11.88	-50.0	-50.8	15.3	0.00e+00	0	30	0	606076928	66	3899
2026-01-03 05:59:57.89	34.47	11.95	-50.0	-50.8	15.4	0.00e+00	0	30	0	612368384	66	3875
2026-01-03 05:59:58.88	34.36	12.03	-50.0	-50.7	15.4	0.00e+00	0	30	0	617611264	66	3859
2026-01-03 05:59:59.88	34.24	12.10	-49.9	-50.7	15.4	0.00e+00	0	30	0	622854144	66	3846
2026-01-03 06:00:00.87	34.12	12.18	-50.0	-50.7	15.4	0.00e+00	0	30	0	629145600	66	3862
2026-01-03 06:00:01.88	34.00	12.25	-49.8	-50.6	15.4	0.00e+00	0	31	0	634388480	66	3806
2026-01-03 06:00:02.87	33.89	12.33	-49.8	-50.6	15.4	0.00e+00	0	31	0	639631360	66	3801
2026-01-03 06:00:03.87	33.77	12.40	-49.9	-50.7	15.4	0.00e+00	0	31	0	645922816	66	3851
2026-01-03 06:00:04.87	33.65	12.48	-49.9	-50.6	15.4	0.00e+00	0	30	0	651165696	66	3817
2026-01-03 06:00:05.86	33.53	12.55	-49.8	-50.6	15.4	0.00e+00	0	30	0	656408576	66	3783
2026-01-03 06:00:06.86	33.41	12.63	-49.9	-50.7	15.4	0.00e+00	0	30	0	662700032	66	3845
2026-01-03 06:00:07.86	33.28	12.70	-49.9	-50.6	15.4	0.00e+00	0	30	0	667942912	66	3813
2026-01-03 06:00:08.85	33.16	12.78	-49.9	-50.6	15.4	0.00e+00	0	30	0	673185792	66	3823
2026-01-03 06:00:09.85	33.04	12.86	-49.9	-50.6	15.4	0.00e+00	0	30	0	679477248	66	3824
2026-01-03 06:00:10.84	32.92	12.93	-49.8	-50.5	15.5	0.00e+00	0	31	0	684720128	66	3772
2026-01-03 06:00:11.85	32.79	13.01	-49.7	-50.5	15.5	0.00e+00	0	30	0	689963008	66	3751
2026-01-03 06:00:12.85	32.67	13.08	-49.8	-50.5	15.5	0.00e+00	0	30	0	696254464	66	3777
2026-01-03 06:00:13.84	32.54	13.16	-49.7	-50.4	15.5	0.00e+00	0	30	0	701497344	66	3733
2026-01-03 06:00:14.84	32.42	13.24	-49.5	-50.2	15.5	0.00e+00	0	30	0	706740224	65	3852
2026-01-03 06:00:15.84	32.29	13.31	-49.5	-50.3	15.5	0.00e+00	0	30	0	713031680	65	3872
2026-01-03 06:00:16.84	32.16	13.39	-49.6	-50.3	15.5	0.00e+00	0	31	0	718274560	65	3913
2026-01-03 06:00:17.84	32.03	13.46	-49.6	-50.3	15.5	0.00e+00	0	30	0	724566016	65	3896
2026-01-03 06:00:18.83	31.90	13.54	-49.4	-50.1	15.6	0.00e+00	0	31	0	729808896	65	3796
2026-01-03 06:00:19.83	31.78	13.62	-49.3	-50.1	15.6	0.00e+00	0	31	0	735051776	65	3795
2026-01-03 06:00:20.83	31.64	13.69	-49.4	-50.1	15.6	0.00e+00	0	30	0	741343232	65	3807
2026-01-03 06:00:21.83	31.51	13.77	-49.2	-50.0	15.6	0.00e+00	0	31	0	746586112	65	3739
2026-01-03 06:00:22.84	31.38	13.85	-49.2	-49.9	15.6	0.00e+00	0	30	0	751828992	64	3938
2026-01-03 06:00:23.84	31.25	13.93	-49.2	-49.9	15.6	0.00e+00	0	30	0	758120448	64	3952
2026-01-03 06:00:24.84	31.11	14.00	-49.2	-49.9	15.6	0.00e+00	0	31	0	763363328	64	3954
2026-01-03 06:00:25.84	30.98	14.08	-49.2	-49.9	15.6	0.00e+00	0	31	0	769654784	64	3945
2026-01-03 06:00:26.83	30.85	14.16	-49.2	-49.9	15.6	0.00e+00	0	30	0	774897664	64	3952
2026-01-03 06:00:27.83	30.71	14.24	-49.3	-50.0	15.6	0.00e+00	0	30	0	780140544	64	3983
2026-01-03 06:00:28.83	30.58	14.31	-49.3	-50.0	15.5	0.00e+00	0	30	0	786432000	64	4003
2026-01-03 06:00:29.82	30.44	14.39	-49.3	-50.1	15.5	0.00e+00	0	30	0	791674880	64	4015
2026-01-03 06:00:30.81	30.30	14.47	-49.2	-49.9	15.6	0.00e+00	0	31	0	796917760	64	3944
2026-01-03 06:00:31.81	30.17	14.55	-49.1	-49.8	15.6	0.00e+00	0	31	0	803209216	64	3906
2026-01-03 06:00:32.82	30.03	14.62	-49.2	-50.0	15.6	0.00e+00	0	31	0	808452096	64	3974
2026-01-03 06:00:33.81	29.89	14.70	-49.1	-49.8	15.6	0.00e+00	0	31	0	813694976	64	3878
2026-01-03 06:00:34.81	29.75	14.78	-49.0	-49.8	15.6	0.00e+00	0	31	0	819986432	64	3870
2026-01-03 06:00:35.81	29.60	14.86	-49.1	-49.9	15.6	0.00e+00	0	31	0	825229312	64	3924
2026-01-03 06:00:36.81	29.46	14.94	-49.1	-49.8	15.6	0.00e+00	0	31	0	831520768	64	3913
2026-01-03 06:00:37.82	29.32	15.01	-49.0	-49.7	15.7	0.00e+00	0	30	0	836763648	64	3848
2026-01-03 06:00:38.82	29.17	15.09	-49.0	-49.7	15.7	0.00e+00	0	31	0	842006528	64	3831
2026-01-03 06:00:39.81	29.03	15.17	-49.1	-49.8	15.6	0.00e+00	0	31	0	848297984	64	3883
2026-01-03 06:00:40.81	28.89	15.25	-49.1	-49.8	15.6	0.00e+00	0	30	0	853540864	64	3898
2026-01-03 06:00:41.80	28.74	15.33	-49.0	-49.7	15.7	0.00e+00	0	31	0	858783744	64	3827
2026-01-03 06:00:42.80	28.60	15.41	-48.9	-49.6	15.7	0.00e+00	0	31	0	864026624	64	3787
2026-01-03 06:00:43.80	28.45	15.48	-48.9	-49.6	15.7	0.00e+00	0	31	0	870318080	64	3788
2026-01-03 06:00:44.81	28.30	15.56	-48.9	-49.6	15.7	0.00e+00	0	31	0	875560960	64	3820
2026-01-03 06:00:45.80	28.15	15.64	-48.9	-49.6	15.7	0.00e+00	0	30	0	881852416	64	3821
2026-01-03 06:00:46.80	28.00	15.72	-48.9	-49.6	15.7	0.00e+00	0	31	0	887095296	64	3812
2026-01-03 06:00:47.79	27.85	15.80	-48.9	-49.6	15.7	0.00e+00	0	31	0	892338176	64	3811
2026-01-03 06:00:48.80	27.70	15.88	-49.0	-49.7	15.7	0.00e+00	0	30	0	898629632	64	3831
2026-01-03 06:00:49.79	27.55	15.96	-48.9	-49.6	15.7	0.00e+00	0	31	0	903872512	64	3794
2026-01-03 06:00:50.79	27.39	16.04	-48.8	-49.5	15.7	0.00e+00	0	31	0	909115392	64	3770
2026-01-03 06:00:51.79	27.24	16.12	-48.8	-49.5	15.7	0.00e+00	0	31	0	915406848	64	3777
2026-01-03 06:00:52.79	27.09	16.19	-48.8	-49.5	15.7	0.00e+00	0	31	0	920649728	64	3741
2026-01-03 06:00:53.80	26.93	16.27	-48.7	-49.4	15.8	0.00e+00	0	31	0	925892608	64	3721
2026-01-03 06:00:54.79	26.77	16.35	-48.8	-49.5	15.8	0.00e+00	0	30	0	932184064	64	3752
2026-01-03 06:00:55.80	26.61	16.43	-48.8	-49.5	15.7	0.00e+00	0	31	0	937426944	64	3773
2026-01-03 06:00:56.80	26.46	16.51	-48.7	-49.3	15.7	0.00e+00	0	31	0	943718400	63	3905
2026-01-03 06:00:57.79	26.30	16.59	-48.5	-49.2	15.8	0.00e+00	0	31	0	948961280	63	3834
2026-01-03 06:00:58.79	26.14	16.67	-48.6	-49.3	15.7	0.00e+00	0	30	0	954204160	63	3880
2026-01-03 06:00:59.79	25.98	16.75	-48.5	-49.1	15.8	0.00e+00	0	30	0	960495616	63	3821
2026-01-03 06:01:00.78	25.82	16.83	-48.6	-49.2	15.7	0.00e+00	0	30	0	965738496	63	3867
2026-01-03 06:01:01.78	25.66	16.91	-48.5	-49.2	15.8	0.00e+00	0	30	0	970981376	63	3839
2026-01-03 06:01:02.77	25.49	16.99	-48.5	-49.2	15.8	0.00e+00	0	31	0	977272832	63	3858
2026-01-03 06:01:03.76	25.33	17.07	-48.6	-49.3	15.7	0.00e+00	0	30	0	982515712	63	3872
2026-01-03 06:01:04.76	25.17	17.15	-48.7	-49.3	15.7	0.00e+00	0	30	0	987758592	63	3913
2026-01-03 06:01:05.76	25.00	17.22	-48.6	-49.3	15.7	0.00e+00	0	30	0	994050048	63	3902
2026-01-03 06:01:06.75	24.83	17.30	-48.6	-49.2	15.7	0.00e+00	0	31	0	999292928	63	3860
2026-01-03 06:01:07.75	24.67	17.38	-48.5	-49.2	15.8	0.00e+00	0	31	0	1004535808	63	3826
2026-01-03 06:01:08.75	24.50	17.46	-48.3	-48.9	15.8	0.00e+00	0	30	0	1010827264	63	3737
2026-01-03 06:01:09.75	24.33	17.54	-48.3	-48.9	15.9	0.00e+00	0	31	0	1016070144	63	3729
2026-01-03 06:01:10.74	24.16	17.62	-48.3	-48.9	15.8	0.00e+00	0	31	0	1021313024	63	3734
2026-01-03 06:01:11.75	23.99	17.70	-48.3	-48.9	15.8	0.00e+00	0	30	0	1027604480	63	3727
2026-01-03 06:01:12.75	23.81	17.78	-48.4	-49.1	15.8	0.00e+00	0	30	0	1032847360	63	3789
2026-01-03 06:01:13.74	23.64	17.86	-48.5	-49.1	15.8	0.00e+00	0	31	0	1038090240	63	3814
2026-01-03 06:01:14.73	23.47	17.94	-48.5	-49.1	15.8	0.00e+00	0	31	0	1044381696	63	3817
2026-01-03 06:01:15.73	23.29	18.02	-48.6	-49.3	15.8	0.00e+00	0	31	0	1049624576	63	3879
2026-01-03 06:01:16.73	23.12	18.10	-48.6	-49.3	15.7	0.00e+00	0	31	0	1055916032	63	3885
2026-01-03 06:01:17.73	22.94	18.18	-48.5	-49.2	15.8	0.00e+00	0	31	0	1061158912	63	3828
2026-01-03 06:01:18.73	22.76	18.26	-48.5	-49.1	15.8	0.00e+00	0	31	0	1066401792	63	3809
2026-01-03 06:01:19.73	22.58	18.33	-48.5	-49.2	15.8	0.00e+00	0	30	0	1072693248	63	3825
2026-01-03 06:01:20.72	22.41	18.41	-48.4	-49.0	15.8	0.00e+00	0	31	0	1077936128	63	3777
2026-01-03 06:01:21.72	22.23	18.49	-48.3	-49.0	15.9	0.00e+00	0	31	0	1083179008	63	3755
2026-01-03 06:01:22.71	22.05	18.57	-48.4	-49.0	15.8	0.00e+00	0	31	0	1089470464	63	3779
2026-01-03 06:01:23.71	21.86	18.65	-48.4	-49.0	15.8	0.00e+00	0	31	0	1094713344	63	3769
2026-01-03 06:01:24.71	21.68	18.73	-48.3	-49.0	15.9	0.00e+00	0	31	0	1099956224	63	3753
2026-01-03 06:01:25.71	21.49	18.81	-48.4	-49.0	15.8	0.00e+00	0	30	0	1106247680	63	3764
2026-01-03 06:01:26.70	21.31	18.89	-48.3	-48.9	15.9	0.00e+00	0	31	0	1111490560	63	3735
2026-01-03 06:01:27.70	21.12	18.97	-48.1	-48.7	15.8	0.00e+00	0	31	0	1116733440	62	3844
2026-01-03 06:01:28.70	20.94	19.04	-48.1	-48.7	15.9	0.00e+00	0	30	0	1123024896	62	3863
2026-01-03 06:01:29.70	20.75	19.12	-48.0	-48.6	15.8	0.00e+00	0	31	0	1128267776	62	3816
2026-01-03 06:01:30.70	20.56	19.20	-48.0	-48.6	15.9	0.00e+00	0	31	0	1133510656	62	3805
2026-01-03 06:01:31.71	20.37	19.28	-48.0	-48.6	15.9	0.00e+00	0	31	0	1139802112	62	3817
2026-01-03 06:01:32.70	20.18	19.36	-48.0	-48.7	15.8	0.00e+00	0	31	0	1145044992	62	3833
2026-01-03 06:01:33.69	19.99	19.44	-48.1	-48.7	15.8	0.00e+00	0	31	0	1150287872	62	3847
2026-01-03 06:01:34.69	19.79	19.51	-48.1	-48.8	15.8	0.00e+00	0	31	0	1156579328	62	3880
2026-01-03 06:01:35.68	19.60	19.59	-48.2	-48.9	15.8	0.00e+00	0	31	0	1161822208	62	3925
2026-01-03 06:01:36.69	19.40	19.67	-48.2	-48.8	15.8	0.00e+00	0	31	0	1168113664	62	3909
2026-01-03 06:01:37.69	19.20	19.75	-48.2	-48.9	15.8	0.00e+00	0	31	0	1173356544	62	3921
2026-01-03 06:01:38.69	19.01	19.83	-48.0	-48.7	15.9	0.00e+00	0	31	0	1178599424	62	3833
2026-01-03 06:01:39.69	18.81	19.91	-48.0	-48.6	15.9	0.00e+00	0	31	0	1184890880	62	3804
2026-01-03 06:01:40.69	18.61	19.98	-47.9	-48.5	15.9	0.00e+00	0	31	0	1190133760	62	3771
2026-01-03 06:01:41.68	18.41	20.06	-47.9	-48.6	15.9	0.00e+00	0	31	0	1195376640	62	3793
2026-01-03 06:01:42.68	18.21	20.14	-48.0	-48.6	15.9	0.00e+00	0	31	0	1201668096	62	3798
2026-01-03 06:01:43.68	18.01	20.21	-48.0	-48.6	15.9	0.00e+00	0	31	0	1206910976	62	3815
2026-01-03 06:01:44.69	17.80	20.29	-48.0	-48.6	15.9	0.00e+00	0	31	0	1212153856	62	3823
2026-01-03 06:01:45.68	17.60	20.37	-47.9	-48.5	15.9	0.00e+00	0	31	0	1218445312	62	3769
2026-01-03 06:01:46.68	17.39	20.45	-47.9	-48.5	15.9	0.00e+00	0	31	0	1223688192	62	3777
2026-01-03 06:01:47.67	17.19	20.52	-47.8	-48.4	16.0	0.00e+00	0	31	0	1229979648	62	3713
2026-01-03 06:01:48.67	16.98	20.60	-47.7	-48.3	16.0	0.00e+00	0	31	0	1235222528	62	3682
2026-01-03 06:01:49.66	16.77	20.67	-47.8	-48.4	16.0	0.00e+00	0	30	0	1240465408	62	3716
2026-01-03 06:01:50.67	16.56	20.75	-47.7	-48.4	16.0	0.00e+00	0	31	0	1246756864	62	3703
2026-01-03 06:01:51.67	16.35	20.83	-47.7	-48.3	16.0	0.00e+00	0	31	0	1251999744	62	3674
2026-01-03 06:01:52.67	16.14	20.90	-47.7	-48.3	16.0	0.00e+00	0	31	0	1257242624	62	3684
2026-01-03 06:01:53.68	15.92	20.98	-47.7	-48.3	16.0	0.00e+00	0	31	0	1263534080	62	3674
2026-01-03 06:01:54.68	15.71	21.05	-47.7	-48.3	16.0	0.00e+00	0	31	0	1268776960	62	3683
2026-01-03 06:01:55.68	15.49	21.13	-47.6	-48.2	15.9	0.00e+00	0	31	0	1275068416	61	3860
2026-01-03 06:01:56.67	15.28	21.20	-47.6	-48.2	15.9	0.00e+00	0	30	0	1280311296	61	3864
2026-01-03 06:01:57.67	15.06	21.28	-47.6	-48.3	15.9	0.00e+00	0	31	0	1285554176	61	3870
2026-01-03 06:01:58.68	14.84	21.35	-47.5	-48.1	16.0	0.00e+00	0	31	0	1291845632	61	3806
2026-01-03 06:01:59.67	14.62	21.43	-47.5	-48.1	16.0	0.00e+00	0	31	0	1297088512	61	3823
2026-01-03 06:02:00.67	14.40	21.50	-47.4	-48.0	16.0	0.00e+00	0	31	0	1302331392	61	3778
2026-01-03 06:02:01.67	14.18	21.57	-47.5	-48.1	16.0	0.00e+00	0	30	0	1308622848	61	3783
2026-01-03 06:02:02.67	13.96	21.65	-47.5	-48.1	16.0	0.00e+00	0	31	0	1313865728	61	3814
2026-01-03 06:02:03.67	13.73	21.72	-47.4	-48.0	16.0	0.00e+00	0	31	0	1319108608	61	3779
2026-01-03 06:02:04.67	13.51	21.79	-47.5	-48.0	16.0	0.00e+00	0	31	0	1325400064	61	3779
2026-01-03 06:02:05.67	13.28	21.87	-47.6	-48.2	15.9	0.00e+00	0	31	0	1330642944	61	3836
2026-01-03 06:02:06.67	13.05	21.94	-47.6	-48.2	15.9	0.00e+00	0	31	0	1336934400	61	3865
2026-01-03 06:02:07.66	12.83	22.01	-47.6	-48.2	15.9	0.00e+00	0	31	0	1342177280	61	3845
2026-01-03 06:02:08.66	12.60	22.08	-47.6	-48.2	15.9	0.00e+00	0	31	0	1347420160	61	3864
2026-01-03 06:02:09.65	12.37	22.15	-47.6	-48.2	15.9	0.00e+00	0	31	0	1352663040	61	3860
2026-01-03 06:02:10.65	12.14	22.23	-47.6	-48.2	15.9	0.00e+00	0	31	0	1358954496	61	3868
2026-01-03 06:02:11.64	11.91	22.30	-47.6	-48.2	16.0	0.00e+00	0	30	0	1364197376	61	3829
2026-01-03 06:02:12.64	11.67	22.37	-47.6	-48.2	15.9	0.00e+00	0	31	0	1369440256	61	3846
2026-01-03 06:02:13.65	11.44	22.44	-47.6	-48.3	15.9	0.00e+00	0	31	0	1375731712	61	3872
2026-01-03 06:02:14.66	11.20	22.51	-47.5	-48.1	16.0	0.00e+00	0	31	0	1380974592	61	3799
2026-01-03 06:02:15.66	10.96	22.58	-47.5	-48.1	16.0	0.00e+00	0	31	0	1387266048	61	3822
2026-01-03 06:02:16.66	10.72	22.65	-47.4	-48.0	16.0	0.00e+00	0	31	0	1392508928	61	3760
2026-01-03 06:02:17.65	10.49	22.72	-47.3	-47.9	16.0	0.00e+00	0	30	0	1397751808	61	3729
2026-01-03 06:02:18.65	10.25	22.79	-47.4	-48.0	16.0	0.00e+00	0	31	0	1404043264	61	3780
2026-01-03 06:02:19.65	10.01	22.85	-47.6	-48.2	15.9	0.00e+00	0	30	0	1409286144	61	3852
2026-01-03 06:02:20.65	9.76	22.92	-47.6	-48.2	15.9	0.00e+00	0	31	0	1414529024	61	3864
2026-01-03 06:02:21.65	9.52	22.99	-47.6	-48.2	16.0	0.00e+00	0	31	0	1420820480	61	3842
2026-01-03 06:02:22.66	9.27	23.06	-47.6	-48.3	15.9	0.00e+00	0	31	0	1426063360	61	3875
2026-01-03 06:02:23.66	9.03	23.12	-47.3	-48.0	16.0	0.00e+00	0	31	0	1432354816	61	3743
2026-01-03 06:02:24.66	8.78	23.19	-47.3	-47.9	16.0	0.00e+00	0	31	0	1437597696	61	3712
2026-01-03 06:02:25.66	8.54	23.26	-47.3	-47.9	16.0	0.00e+00	0	31	0	1442840576	61	3726
2026-01-03 06:02:26.66	8.29	23.32	-47.3	-47.9	16.0	0.00e+00	0	30	0	1449132032	61	3732
2026-01-03 06:02:27.66	8.04	23.39	-47.4	-48.0	16.0	0.00e+00	0	31	0	1454374912	61	3751
2026-01-03 06:02:28.66	7.79	23.45	-47.5	-48.1	16.0	0.00e+00	0	31	0	1459617792	61	3789
2026-01-03 06:02:29.65	7.54	23.52	-47.5	-48.1	16.0	0.00e+00	0	31	0	1465909248	61	3809
2026-01-03 06:02:30.66	7.28	23.58	-47.5	-48.1	16.0	0.00e+00	0	30	0	1471152128	61	3813
2026-01-03 06:02:31.66	7.03	23.64	-47.4	-48.0	16.0	0.00e+00	0	31	0	1476395008	61	3739
2026-01-03 06:02:32.66	6.77	23.71	-47.3	-47.9	16.0	0.00e+00	0	31	0	1482686464	61	3717
2026-01-03 06:02:33.66	6.52	23.77	-47.3	-47.9	16.0	0.00e+00	0	31	0	1487929344	61	3722
2026-01-03 06:02:34.66	6.26	23.83	-47.3	-47.9	16.1	0.00e+00	0	31	0	1494220800	61	3715
2026-01-03 06:02:35.66	6.00	23.89	-47.2	-47.8	16.1	0.00e+00	0	31	0	1499463680	61	3666
2026-01-03 06:02:36.66	5.74	23.95	-47.1	-47.7	16.0	0.00e+00	0	31	0	1504706560	60	3839
2026-01-03 06:02:37.66	5.48	24.01	-47.0	-47.6	16.1	0.00e+00	0	31	0	1510998016	60	3790
2026-01-03 06:02:38.67	5.22	24.08	-47.1	-47.6	16.0	0.00e+00	0	31	0	1516240896	60	3817
2026-01-03 06:02:39.67	4.96	24.13	-46.9	-47.5	16.1	0.00e+00	0	31	0	1522532352	60	3752
2026-01-03 06:02:40.67	4.70	24.19	-47.0	-47.6	16.1	0.00e+00	0	31	0	1527775232	60	3793
2026-01-03 06:02:41.67	4.43	24.25	-47.1	-47.6	16.0	0.00e+00	0	31	0	1533018112	60	3814
2026-01-03 06:02:42.67	4.17	24.31	-47.1	-47.6	16.0	0.00e+00	0	31	0	1539309568	60	3823
2026-01-03 06:02:43.67	3.90	24.37	-47.2	-47.7	16.0	0.00e+00	0	31	0	1544552448	60	3868
2026-01-03 06:02:44.67	3.63	24.42	-47.1	-47.7	16.0	0.00e+00	0	31	0	1549795328	60	3829
2026-01-03 06:02:45.67	3.37	24.48	-47.1	-47.7	16.0	0.00e+00	0	31	0	1556086784	60	3833
2026-01-03 06:02:46.67	3.10	24.54	-47.2	-47.8	16.0	0.00e+00	0	31	0	1561329664	60	3869
2026-01-03 06:02:47.67	2.83	24.59	-47.3	-47.9	15.9	0.00e+00	0	31	0	1566572544	60	3922
2026-01-03 06:02:48.67	2.56	24.65	-47.1	-47.7	16.0	0.00e+00	0	31	0	1572864000	60	3850
2026-01-03 06:02:49.67	2.28	24.70	-47.0	-47.6	16.0	0.00e+00	0	30	0	1578106880	60	3815
2026-01-03 06:02:50.67	2.01	24.75	-47.1	-47.7	16.0	0.00e+00	0	31	0	1584398336	60	3833
2026-01-03 06:02:51.67	1.74	24.81	-46.9	-47.4	16.1	0.00e+00	0	31	0	1589641216	60	3731
2026-01-03 06:02:52.67	1.46	24.86	-46.9	-47.4	16.1	0.00e+00	0	31	0	1594884096	60	3731
2026-01-03 06:02:53.67	1.19	24.91	-46.9	-47.5	16.1	0.00e+00	0	30	0	1601175552	60	3747
2026-01-03 06:02:54.66	0.91	24.96	-46.9	-47.4	16.1	0.00e+00	0	30	0	1606418432	60	3729
2026-01-03 06:02:55.66	0.64	25.01	-46.9	-47.5	16.1	0.00e+00	0	31	0	1611661312	60	3741
2026-01-03 06:02:56.65	0.36	25.06	-46.8	-47.4	16.1	0.00e+00	0	31	0	1616904192	60	3698
2026-01-03 06:02:57.66	0.08	25.11	-46.9	-47.5	16.1	0.00e+00	0	31	0	1623195648	60	3745
2026-01-03 06:02:58.66	359.80	25.16	-46.9	-47.5	16.1	0.00e+00	0	30	0	1628438528	60	3762
2026-01-03 06:02:59.66	359.52	25.21	-47.0	-47.5	16.1	0.00e+00	0	31	0	1634729984	60	3777
2026-01-03 06:03:00.66	359.24	25.25	-47.0	-47.5	16.1	0.00e+00	0	31	0	1639972864	60	3774
2026-01-03 06:03:01.66	358.95	25.30	-46.9	-47.4	16.1	0.00e+00	0	31	0	1646264320	60	3728
2026-01-03 06:03:02.66	358.67	25.35	-46.8	-47.4	16.1	0.00e+00	0	31	0	1651507200	60	3720
2026-01-03 06:03:03.66	358.39	25.39	-46.8	-47.4	16.1	0.00e+00	0	31	0	1656750080	60	3720
2026-01-03 06:03:04.65	358.11	25.43	-46.8	-47.4	16.2	0.00e+00	0	31	0	1661992960	60	3699
2026-01-03 06:03:05.65	357.82	25.48	-46.7	-47.3	16.2	0.00e+00	0	31	0	1668284416	60	3668
2026-01-03 06:03:06.64	357.54	25.52	-46.8	-47.3	16.2	0.00e+00	0	31	0	1673527296	60	3688
2026-01-03 06:03:07.63	357.25	25.56	-46.8	-47.4	16.1	0.00e+00	0	31	0	1678770176	60	3716
2026-01-03 06:03:08.62	356.97	25.60	-47.0	-47.6	16.1	0.00e+00	0	31	0	1685061632	60	3786
2026-01-03 06:03:09.62	356.68	25.64	-47.1	-47.7	16.0	0.00e+00	0	31	0	1690304512	60	3855
2026-01-03 06:03:10.62	356.39	25.68	-47.2	-47.8	16.0	0.00e+00	0	31	0	1696595968	60	3892
2026-01-03 06:03:11.61	356.10	25.72	-47.2	-47.8	16.0	0.00e+00	0	31	0	1701838848	60	3887
2026-01-03 06:03:12.61	355.81	25.76	-47.2	-47.8	16.0	0.00e+00	0	30	0	1707081728	60	3907
2026-01-03 06:03:13.61	355.52	25.80	-47.1	-47.7	16.1	0.00e+00	0	31	0	1712324608	60	3845
2026-01-03 06:03:14.60	355.23	25.84	-47.0	-47.6	16.1	0.00e+00	0	31	0	1718616064	60	3802
2026-01-03 06:03:15.59	354.94	25.87	-46.9	-47.4	16.1	0.00e+00	0	31	0	1723858944	60	3734
2026-01-03 06:03:16.59	354.64	25.91	-46.9	-47.4	16.1	0.00e+00	0	31	0	1729101824	60	3724
2026-01-03 06:03:17.59	354.35	25.94	-46.9	-47.5	16.1	0.00e+00	0	31	0	1735393280	60	3740
2026-01-03 06:03:18.59	354.05	25.98	-46.9	-47.4	16.1	0.00e+00	0	31	0	1740636160	60	3731
2026-01-03 06:03:19.59	353.76	26.01	-46.9	-47.4	16.1	0.00e+00	0	31	0	1746927616	60	3736
2026-01-03 06:03:20.59	353.46	26.04	-46.8	-47.4	16.2	0.00e+00	0	31	0	1752170496	60	3717
2026-01-03 06:03:21.58	353.17	26.07	-46.8	-47.4	16.1	0.00e+00	0	31	0	1757413376	60	3718
2026-01-03 06:03:22.58	352.87	26.10	-46.9	-47.4	16.1	0.00e+00	0	31	0	1763704832	60	3737
2026-01-03 06:03:23.58	352.57	26.13	-46.9	-47.5	16.1	0.00e+00	0	31	0	1768947712	60	3751
2026-01-03 06:03:24.58	352.27	26.16	-47.0	-47.5	16.1	0.00e+00	0	31	0	1774190592	60	3779
2026-01-03 06:03:25.58	351.98	26.19	-46.9	-47.5	16.1	0.00e+00	0	31	0	1780482048	60	3762
2026-01-03 06:03:26.58	351.68	26.22	-47.0	-47.6	16.1	0.00e+00	0	31	0	1785724928	60	3792
2026-01-03 06:03:27.58	351.38	26.24	-47.0	-47.6	16.1	0.00e+00	0	31	0	1790967808	60	3796
2026-01-03 06:03:28.57	351.08	26.27	-47.0	-47.6	16.1	0.00e+00	0	31	0	1797259264	60	3804
2026-01-03 06:03:29.58	350.77	26.29	-46.9	-47.5	16.1	0.00e+00	0	31	0	1802502144	60	3756
2026-01-03 06:03:30.58	350.47	26.32	-46.9	-47.5	16.1	0.00e+00	0	31	0	1808793600	60	3753
2026-01-03 06:03:31.58	350.17	26.34	-47.0	-47.5	16.1	0.00e+00	0	31	0	1814036480	60	3773
2026-01-03 06:03:32.58	349.87	26.36	-47.0	-47.5	16.1	0.00e+00	0	31	0	1819279360	60	3770
2026-01-03 06:03:33.57	349.57	26.38	-47.0	-47.6	16.1	0.00e+00	0	31	0	1825570816	60	3784
2026-01-03 06:03:34.57	349.26	26.41	-47.1	-47.6	16.1	0.00e+00	0	31	0	1830813696	60	3819
2026-01-03 06:03:35.58	348.96	26.42	-47.2	-47.8	16.0	0.00e+00	0	31	0	1836056576	60	3880
2026-01-03 06:03:36.58	348.65	26.44	-47.1	-47.7	16.0	0.00e+00	0	31	0	1842348032	60	3855
2026-01-03 06:03:37.57	348.35	26.46	-47.1	-47.7	16.1	0.00e+00	0	31	0	1847590912	60	3853
2026-01-03 06:03:38.57	348.05	26.48	-47.1	-47.7	16.0	0.00e+00	0	31	0	1853882368	60	3845
2026-01-03 06:03:39.56	347.74	26.49	-47.1	-47.7	16.0	0.00e+00	0	31	0	1859125248	60	3854
2026-01-03 06:03:40.56	347.44	26.51	-47.2	-47.7	16.0	0.00e+00	0	31	0	1864368128	60	3868
2026-01-03 06:03:41.55	347.14	26.52	-47.0	-47.6	16.1	0.00e+00	0	31	0	1869611008	60	3812
2026-01-03 06:03:42.55	346.83	26.54	-47.0	-47.6	16.1	0.00e+00	0	31	0	1875902464	60	3798
2026-01-03 06:03:43.55	346.52	26.55	-46.8	-47.4	16.2	0.00e+00	0	31	0	1881145344	60	3721
2026-01-03 06:03:44.56	346.21	26.56	-46.7	-47.3	16.2	0.00e+00	0	31	0	1887436800	60	3672
2026-01-03 06:03:45.56	345.91	26.57	-46.8	-47.3	16.2	0.00e+00	0	31	0	1892679680	60	3690
2026-01-03 06:03:46.57	345.60	26.58	-46.7	-47.3	16.2	0.00e+00	0	31	0	1897922560	60	3680
2026-01-03 06:03:47.56	345.29	26.59	-46.7	-47.3	16.2	0.00e+00	0	31	0	1904214016	60	3667
2026-01-03 06:03:48.56	344.99	26.60	-46.9	-47.5	16.0	0.00e+00	0	31	0	1909456896	59	3967
2026-01-03 06:03:49.56	344.68	26.61	-47.0	-47.5	16.0	0.00e+00	0	31	0	1914699776	59	4001
2026-01-03 06:03:50.56	344.37	26.61	-46.9	-47.5	16.0	0.00e+00	0	31	0	1920991232	59	3987
2026-01-03 06:03:51.56	344.06	26.62	-46.9	-47.5	16.0	0.00e+00	0	31	0	1926234112	59	3984
2026-01-03 06:03:52.56	343.76	26.62	-47.1	-47.6	16.0	0.00e+00	0	31	0	1932525568	59	4044
2026-01-03 06:03:53.57	343.45	26.63	-47.1	-47.7	16.0	0.00e+00	0	31	0	1937768448	59	4052
2026-01-03 06:03:54.57	343.14	26.63	-47.2	-47.8	15.9	0.00e+00	0	31	0	1943011328	59	4130
2026-01-03 06:03:55.57	342.83	26.63	-47.1	-47.7	16.0	0.00e+00	0	31	0	1949302784	60	3840
2026-01-03 06:03:56.57	342.52	26.63	-47.1	-47.7	16.0	0.00e+00	0	31	0	1954545664	60	3867
2026-01-03 06:03:57.57	342.21	26.63	-47.2	-47.8	16.0	0.00e+00	0	31	0	1959788544	60	3890
2026-01-03 06:03:58.58	341.90	26.63	-47.2	-47.8	16.0	0.00e+00	0	31	0	1966080000	60	3900
2026-01-03 06:03:59.58	341.59	26.63	-47.1	-47.7	16.0	0.00e+00	0	31	0	1971322880	60	3851
2026-01-03 06:04:00.57	341.29	26.62	-47.1	-47.6	16.1	0.00e+00	0	31	0	1977614336	60	3823
2026-01-03 06:04:01.57	340.98	26.62	-46.9	-47.5	16.1	0.00e+00	0	31	0	1982857216	60	3761
2026-01-03 06:04:02.57	340.67	26.62	-47.0	-47.6	16.1	0.00e+00	0	31	0	1988100096	60	3796
2026-01-03 06:04:03.57	340.37	26.61	-46.9	-47.5	16.1	0.00e+00	0	31	0	1994391552	60	3770
2026-01-03 06:04:04.57	340.06	26.60	-46.8	-47.3	16.2	0.00e+00	0	31	0	1999634432	60	3690
2026-01-03 06:04:05.57	339.75	26.60	-46.7	-47.3	16.2	0.00e+00	0	31	0	2004877312	60	3670
2026-01-03 06:04:06.57	339.44	26.59	-46.7	-47.3	16.2	0.00e+00	0	31	0	2011168768	60	3656
2026-01-03 06:04:07.57	339.14	26.58	-46.8	-47.4	16.2	0.00e+00	0	31	0	2016411648	60	3708
2026-01-03 06:04:08.57	338.83	26.57	-46.7	-47.3	16.2	0.00e+00	0	31	0	2021654528	60	3658
2026-01-03 06:04:09.56	338.53	26.56	-46.9	-47.4	16.2	0.00e+00	0	31	0	2027945984	60	3736
2026-01-03 06:04:10.56	338.22	26.55	-46.9	-47.5	16.1	0.00e+00	0	31	0	2033188864	60	3768
2026-01-03 06:04:11.56	337.91	26.53	-46.9	-47.5	16.1	0.00e+00	0	31	0	2038431744	60	3762
2026-01-03 06:04:12.55	337.61	26.52	-47.0	-47.5	16.1	0.00e+00	0	31	0	2044723200	60	3767
2026-01-03 06:04:13.55	337.31	26.50	-46.9	-47.5	16.1	0.00e+00	0	31	0	2049966080	60	3756
2026-01-03 06:04:14.55	337.00	26.49	-47.0	-47.6	16.1	0.00e+00	0	31	0	2055208960	60	3800
2026-01-03 06:04:15.54	336.70	26.47	-47.1	-47.7	16.0	0.00e+00	0	31	0	2061500416	60	3856
2026-01-03 06:04:16.55	336.39	26.45	-47.1	-47.7	16.0	0.00e+00	0	31	0	2066743296	60	3864
2026-01-03 06:04:17.54	336.09	26.44	-47.0	-47.6	16.1	0.00e+00	0	31	0	2071986176	60	3811
2026-01-03 06:04:18.54	335.78	26.42	-46.9	-47.5	16.1	0.00e+00	0	31	0	2078277632	60	3751
2026-01-03 06:04:19.53	335.48	26.40	-46.9	-47.5	16.1	0.00e+00	0	31	0	2083520512	60	3752
2026-01-03 06:04:20.53	335.18	26.38	-46.8	-47.4	16.2	0.00e+00	0	31	0	2089811968	60	3705
2026-01-03 06:04:21.53	334.88	26.36	-47.0	-47.6	16.1	0.00e+00	0	31	0	2095054848	60	3799
2026-01-03 06:04:22.53	334.57	26.33	-47.0	-47.6	16.1	0.00e+00	0	31	0	2100297728	60	3812
2026-01-03 06:04:23.53	334.27	26.31	-46.7	-47.3	16.2	0.00e+00	0	31	0	2106589184	60	3682
2026-01-03 06:04:24.52	333.97	26.29	-46.9	-47.5	16.0	0.00e+00	0	31	0	2111832064	59	3996
2026-01-03 06:04:25.53	333.67	26.26	-47.0	-47.6	16.0	0.00e+00	0	31	0	2117074944	59	4006
2026-01-03 06:04:26.53	333.37	26.23	-46.9	-47.5	16.0	0.00e+00	0	31	0	2123366400	59	3980
2026-01-03 06:04:27.53	333.07	26.21	-47.0	-47.6	16.0	0.00e+00	0	31	0	2128609280	59	4021
2026-01-03 06:04:28.52	332.77	26.18	-47.2	-47.8	16.0	0.00e+00	0	31	0	2133852160	59	4105
2026-01-03 06:04:29.53	332.47	26.15	-47.2	-47.8	15.9	0.00e+00	0	31	0	2140143616	59	4132
2026-01-03 06:04:30.53	332.17	26.12	-47.3	-47.9	15.9	0.00e+00	0	31	0	2145386496	59	4175
2026-01-03 06:04:31.53	331.87	26.09	-47.1	-47.6	16.1	0.00e+00	0	31	0	2151677952	60	3824
2026-01-03 06:04:32.53	331.58	26.06	-47.1	-47.7	16.0	0.00e+00	0	31	0	2156920832	60	3850
2026-01-03 06:04:33.52	331.28	26.03	-47.1	-47.7	16.1	0.00e+00	0	31	0	2162163712	60	3864
2026-01-03 06:04:34.52	330.99	26.00	-47.0	-47.6	16.1	0.00e+00	0	31	0	2168455168	60	3783
2026-01-03 06:04:35.52	330.69	25.96	-46.9	-47.5	16.1	0.00e+00	0	31	0	2173698048	60	3759
2026-01-03 06:04:36.52	330.40	25.93	-46.8	-47.4	16.2	0.00e+00	0	31	0	2178940928	60	3713
2026-01-03 06:04:37.53	330.10	25.89	-46.8	-47.3	16.2	0.00e+00	0	31	0	2185232384	60	3689
2026-01-03 06:04:38.53	329.80	25.86	-46.7	-47.3	16.2	0.00e+00	0	31	0	2190475264	60	3654
2026-01-03 06:04:39.53	329.51	25.82	-46.9	-47.5	16.0	0.00e+00	0	31	0	2195718144	59	3973
2026-01-03 06:04:40.54	329.22	25.78	-46.9	-47.5	16.0	0.00e+00	0	31	0	2202009600	59	3960
2026-01-03 06:04:41.55	328.92	25.75	-47.0	-47.6	16.0	0.00e+00	0	31	0	2207252480	59	4026
2026-01-03 06:04:42.55	328.63	25.71	-47.1	-47.7	16.0	0.00e+00	0	31	0	2213543936	59	4090
2026-01-03 06:04:43.55	328.34	25.67	-47.2	-47.7	16.0	0.00e+00	0	31	0	2218786816	59	4095
2026-01-03 06:04:44.55	328.05	25.63	-47.1	-47.7	16.0	0.00e+00	0	30	0	2224029696	59	4088
2026-01-03 06:04:45.55	327.76	25.59	-47.1	-47.7	16.0	0.00e+00	0	31	0	2230321152	59	4088
2026-01-03 06:04:46.55	327.47	25.54	-47.2	-47.8	16.0	0.00e+00	0	31	0	2235564032	59	4104
2026-01-03 06:04:47.55	327.19	25.50	-47.4	-48.0	15.9	0.00e+00	0	31	0	2240806912	59	4200
2026-01-03 06:04:48.54	326.90	25.46	-47.3	-47.9	15.9	0.00e+00	0	31	0	2247098368	59	4186
2026-01-03 06:04:49.55	326.62	25.41	-47.3	-47.9	15.9	0.00e+00	0	31	0	2252341248	59	4188
2026-01-03 06:04:50.55	326.33	25.37	-47.3	-47.9	15.9	0.00e+00	0	31	0	2257584128	59	4193
2026-01-03 06:04:51.56	326.04	25.32	-47.3	-47.9	15.9	0.00e+00	0	31	0	2263875584	59	4176
2026-01-03 06:04:52.56	325.76	25.28	-47.3	-47.9	15.9	0.00e+00	0	31	0	2269118464	59	4183
2026-01-03 06:04:53.55	325.48	25.23	-47.4	-48.0	15.9	0.00e+00	0	31	0	2275409920	59	4197
2026-01-03 06:04:54.55	325.20	25.18	-47.3	-48.0	15.9	0.00e+00	0	31	0	2280652800	59	4194
2026-01-03 06:04:55.55	324.92	25.14	-47.0	-47.6	16.1	0.00e+00	0	31	0	2285895680	60	3819
2026-01-03 06:04:56.56	324.64	25.09	-47.1	-47.7	16.1	0.00e+00	0	31	0	2292187136	60	3827
2026-01-03 06:04:57.55	324.36	25.04	-46.9	-47.5	16.2	0.00e+00	0	31	0	2297430016	60	3755
2026-01-03 06:04:58.56	324.08	24.99	-46.9	-47.4	16.2	0.00e+00	0	31	0	2302672896	60	3735
2026-01-03 06:04:59.56	323.80	24.94	-46.8	-47.3	16.2	0.00e+00	0	31	0	2308964352	60	3685
2026-01-03 06:05:00.57	323.52	24.88	-46.7	-47.2	16.2	0.00e+00	0	31	0	2314207232	60	3646
2026-01-03 06:05:01.57	323.25	24.83	-46.7	-47.3	16.2	0.00e+00	0	31	0	2320498688	60	3658
2026-01-03 06:05:02.57	322.97	24.78	-46.8	-47.4	16.2	0.00e+00	0	31	0	2325741568	60	3716
2026-01-03 06:05:03.57	322.70	24.73	-46.8	-47.4	16.2	0.00e+00	0	31	0	2330984448	60	3723
2026-01-03 06:05:04.56	322.43	24.67	-46.8	-47.4	16.2	0.00e+00	0	31	0	2337275904	60	3709
2026-01-03 06:05:05.57	322.16	24.62	-46.7	-47.3	16.2	0.00e+00	0	31	0	2342518784	60	3668
2026-01-03 06:05:06.57	321.89	24.56	-46.8	-47.3	16.2	0.00e+00	0	31	0	2348810240	60	3686
2026-01-03 06:05:07.57	321.62	24.51	-46.8	-47.3	16.2	0.00e+00	0	31	0	2354053120	60	3691
2026-01-03 06:05:08.57	321.35	24.45	-46.8	-47.3	16.2	0.00e+00	0	31	0	2359296000	60	3678
2026-01-03 06:05:09.56	321.08	24.40	-46.8	-47.4	16.2	0.00e+00	0	31	0	2365587456	60	3704
2026-01-03 06:05:10.56	320.81	24.34	-46.9	-47.5	16.2	0.00e+00	0	31	0	2370830336	60	3748
2026-01-03 06:05:11.57	320.55	24.28	-47.0	-47.5	16.1	0.00e+00	0	31	0	2376073216	60	3771
2026-01-03 06:05:12.57	320.28	24.22	-46.9	-47.5	16.2	0.00e+00	0	31	0	2382364672	60	3750
2026-01-03 06:05:13.57	320.02	24.16	-47.0	-47.5	16.1	0.00e+00	0	31	0	2387607552	60	3780
2026-01-03 06:05:14.56	319.76	24.10	-47.1	-47.7	16.1	0.00e+00	0	31	0	2392850432	60	3826
2026-01-03 06:05:15.56	319.50	24.04	-47.0	-47.6	16.1	0.00e+00	0	31	0	2399141888	60	3803
2026-01-03 06:05:16.57	319.23	23.98	-47.0	-47.6	16.1	0.00e+00	0	31	0	2404384768	60	3805
2026-01-03 06:05:17.57	318.97	23.92	-47.1	-47.7	16.1	0.00e+00	0	31	0	2410676224	60	3827
2026-01-03 06:05:18.57	318.71	23.86	-47.0	-47.6	16.1	0.00e+00	0	31	0	2415919104	60	3804
2026-01-03 06:05:19.56	318.46	23.80	-47.0	-47.6	16.1	0.00e+00	0	31	0	2421161984	60	3784
2026-01-03 06:05:20.56	318.20	23.74	-47.1	-47.6	16.1	0.00e+00	0	31	0	2427453440	60	3812
2026-01-03 06:05:21.55	317.95	23.68	-47.0	-47.6	16.1	0.00e+00	0	31	0	2432696320	60	3789
2026-01-03 06:05:22.54	317.70	23.61	-47.1	-47.7	16.1	0.00e+00	0	31	0	2437939200	60	3830
2026-01-03 06:05:23.55	317.44	23.55	-47.0	-47.6	16.1	0.00e+00	0	31	0	2443182080	60	3788
2026-01-03 06:05:24.54	317.19	23.49	-47.1	-47.7	16.1	0.00e+00	0	31	0	2449473536	60	3830
2026-01-03 06:05:25.55	316.94	23.42	-47.2	-47.7	16.1	0.00e+00	0	31	0	2454716416	60	3868
2026-01-03 06:05:26.55	316.69	23.35	-47.2	-47.8	16.1	0.00e+00	0	31	0	2461007872	60	3882
2026-01-03 06:05:27.56	316.43	23.29	-47.2	-47.8	16.0	0.00e+00	0	31	0	2466250752	60	3902
2026-01-03 06:05:28.55	316.19	23.22	-47.2	-47.8	16.1	0.00e+00	0	31	0	2471493632	60	3885
2026-01-03 06:05:29.55	315.94	23.16	-47.2	-47.8	16.0	0.00e+00	0	31	0	2477785088	60	3905
2026-01-03 06:05:30.55	315.69	23.09	-47.2	-47.7	16.1	0.00e+00	0	31	0	2483027968	60	3859
2026-01-03 06:05:31.54	315.45	23.02	-47.2	-47.8	16.0	0.00e+00	0	31	0	2488270848	60	3889
2026-01-03 06:05:32.55	315.20	22.96	-47.3	-47.9	16.0	0.00e+00	0	31	0	2494562304	60	3922
2026-01-03 06:05:33.55	314.96	22.89	-47.4	-48.0	16.0	0.00e+00	0	31	0	2499805184	60	3964
2026-01-03 06:05:34.55	314.72	22.82	-47.2	-47.8	16.1	0.00e+00	0	31	0	2506096640	60	3879
2026-01-03 06:05:35.55	314.48	22.75	-47.2	-47.8	16.1	0.00e+00	0	31	0	2511339520	60	3872
2026-01-03 06:05:36.56	314.24	22.68	-47.0	-47.6	16.1	0.00e+00	0	31	0	2517630976	60	3798
2026-01-03 06:05:37.56	314.00	22.61	-47.0	-47.6	16.1	0.00e+00	0	31	0	2522873856	60	3792
2026-01-03 06:05:38.57	313.76	22.54	-47.1	-47.6	16.1	0.00e+00	0	31	0	2528116736	60	3822
2026-01-03 06:05:39.56	313.52	22.47	-47.1	-47.7	16.1	0.00e+00	0	31	0	2534408192	60	3826
2026-01-03 06:05:40.56	313.29	22.40	-47.0	-47.5	16.1	0.00e+00	0	31	0	2539651072	60	3778
2026-01-03 06:05:41.56	313.05	22.33	-47.0	-47.6	16.1	0.00e+00	0	31	0	2544893952	60	3785
2026-01-03 06:05:42.55	312.82	22.26	-47.1	-47.7	16.1	0.00e+00	0	31	0	2550136832	60	3839
2026-01-03 06:05:43.54	312.59	22.19	-47.2	-47.8	16.1	0.00e+00	0	31	0	2556428288	60	3881
2026-01-03 06:05:44.54	312.36	22.12	-47.3	-47.9	16.0	0.00e+00	0	31	0	2561671168	60	3943
2026-01-03 06:05:45.54	312.13	22.05	-47.3	-47.9	16.0	0.00e+00	0	31	0	2567962624	60	3951
2026-01-03 06:05:46.54	311.90	21.97	-47.4	-48.0	16.0	0.00e+00	0	31	0	2573205504	60	3979
2026-01-03 06:05:47.54	311.67	21.90	-47.4	-48.0	16.0	0.00e+00	0	31	0	2578448384	60	3995
2026-01-03 06:05:48.53	311.45	21.83	-47.3	-47.9	16.0	0.00e+00	0	31	0	2584739840	60	3944
2026-01-03 06:05:49.53	311.22	21.76	-47.4	-48.0	16.0	0.00e+00	0	31	0	2589982720	60	3970
2026-01-03 06:05:50.54	311.00	21.68	-47.3	-47.9	16.0	0.00e+00	0	31	0	2595225600	60	3940
2026-01-03 06:05:51.54	310.77	21.61	-47.4	-47.9	16.0	0.00e+00	0	31	0	2601517056	60	3955
2026-01-03 06:05:52.54	310.55	21.54	-47.3	-47.9	16.0	0.00e+00	0	31	0	2606759936	60	3924
2026-01-03 06:05:53.54	310.33	21.46	-47.2	-47.8	16.0	0.00e+00	0	31	0	2612002816	60	3892
2026-01-03 06:05:54.55	310.10	21.39	-47.3	-47.9	16.0	0.00e+00	0	31	0	2618294272	60	3927
2026-01-03 06:05:55.55	309.88	21.31	-47.4	-48.0	16.0	0.00e+00	0	31	0	2623537152	60	3986
2026-01-03 06:05:56.56	309.66	21.24	-47.5	-48.1	15.9	0.00e+00	0	31	0	2629828608	60	4044
2026-01-03 06:05:57.56	309.45	21.16	-47.6	-48.3	15.9	0.00e+00	0	31	0	2635071488	60	4104
2026-01-03 06:05:58.55	309.23	21.09	-47.7	-48.3	15.9	0.00e+00	0	31	0	2640314368	60	4130
2026-01-03 06:05:59.55	309.02	21.01	-47.6	-48.2	15.9	0.00e+00	0	31	0	2646605824	60	4093
2026-01-03 06:06:00.56	308.80	20.94	-47.6	-48.2	15.9	0.00e+00	0	31	0	2651848704	60	4060
2026-01-03 06:06:01.56	308.59	20.86	-47.7	-48.3	15.9	0.00e+00	0	31	0	2658140160	60	4109
2026-01-03 06:06:02.56	308.38	20.78	-47.8	-48.5	15.8	0.00e+00	0	31	0	2663383040	60	4194
2026-01-03 06:06:03.56	308.17	20.71	-47.9	-48.5	15.8	0.00e+00	0	31	0	2668625920	60	4213
2026-01-03 06:06:04.56	307.96	20.63	-48.0	-48.6	15.9	0.00e+00	0	31	0	2674917376	61	4050
2026-01-03 06:06:05.56	307.75	20.55	-47.9	-48.6	15.9	0.00e+00	0	31	0	2680160256	61	4013
2026-01-03 06:06:06.55	307.54	20.48	-48.0	-48.6	15.9	0.00e+00	0	31	0	2685403136	61	4038
2026-01-03 06:06:07.55	307.33	20.40	-48.0	-48.6	15.9	0.00e+00	0	31	0	2691694592	61	4033
2026-01-03 06:06:08.55	307.13	20.32	-48.0	-48.6	15.9	0.00e+00	0	31	0	2696937472	61	4021
2026-01-03 06:06:09.54	306.93	20.25	-48.1	-48.7	15.8	0.00e+00	0	31	0	2702180352	61	4077
2026-01-03 06:06:10.54	306.72	20.17	-48.2	-48.8	15.8	0.00e+00	0	31	0	2708471808	61	4125
2026-01-03 06:06:11.54	306.52	20.09	-48.2	-48.8	15.8	0.00e+00	0	31	0	2713714688	61	4144
2026-01-03 06:06:12.52	306.32	20.02	-48.1	-48.7	15.8	0.00e+00	0	31	0	2718957568	61	4069
2026-01-03 06:06:13.52	306.12	19.94	-48.1	-48.8	15.8	0.00e+00	0	31	0	2725249024	61	4103
2026-01-03 06:06:14.52	305.92	19.86	-48.1	-48.7	15.8	0.00e+00	0	31	0	2730491904	61	4076
2026-01-03 06:06:15.51	305.72	19.78	-48.0	-48.6	15.9	0.00e+00	0	31	0	2735734784	61	4044
2026-01-03 06:06:16.50	305.53	19.71	-48.0	-48.6	15.9	0.00e+00	0	31	0	2742026240	61	4029
2026-01-03 06:06:17.50	305.33	19.63	-48.1	-48.8	15.8	0.00e+00	0	31	0	2747269120	61	4104
2026-01-03 06:06:18.50	305.14	19.55	-48.1	-48.7	15.9	0.00e+00	0	31	0	2752512000	61	4093
2026-01-03 06:06:19.50	304.94	19.47	-48.0	-48.6	15.9	0.00e+00	0	31	0	2758803456	61	4035
2026-01-03 06:06:20.50	304.75	19.39	-48.0	-48.6	15.9	0.00e+00	0	31	0	2764046336	61	4039
2026-01-03 06:06:21.51	304.55	19.31	-48.0	-48.6	15.9	0.00e+00	0	31	0	2769289216	61	4049
2026-01-03 06:06:22.50	304.37	19.24	-48.0	-48.7	15.9	0.00e+00	0	31	0	2775580672	61	4053
2026-01-03 06:06:23.49	304.18	19.16	-48.1	-48.7	15.8	0.00e+00	0	31	0	2780823552	61	4093
2026-01-03 06:06:24.50	303.99	19.08	-48.0	-48.7	15.9	0.00e+00	0	31	0	2786066432	61	4061
2026-01-03 06:06:25.49	303.80	19.00	-48.1	-48.7	15.8	0.00e+00	0	31	0	2792357888	61	4095
2026-01-03 06:06:26.50	303.61	18.92	-48.1	-48.7	15.9	0.00e+00	0	31	0	2797600768	61	4059
2026-01-03 06:06:27.49	303.42	18.84	-48.0	-48.6	15.9	0.00e+00	0	31	0	2803892224	61	4031
2026-01-03 06:06:28.49	303.24	18.76	-47.9	-48.5	15.9	0.00e+00	0	31	0	2809135104	61	3980
2026-01-03 06:06:29.49	303.05	18.68	-48.0	-48.6	15.9	0.00e+00	0	31	0	2814377984	61	4019
2026-01-03 06:06:30.49	302.87	18.60	-48.0	-48.6	15.9	0.00e+00	0	31	0	2820669440	61	4050
2026-01-03 06:06:31.49	302.69	18.53	-48.1	-48.8	15.8	0.00e+00	0	31	0	2825912320	61	4109
2026-01-03 06:06:32.49	302.51	18.45	-48.2	-48.9	15.8	0.00e+00	0	31	0	2831155200	61	4167
2026-01-03 06:06:33.49	302.33	18.37	-48.2	-48.9	15.8	0.00e+00	0	31	0	2837446656	61	4163
2026-01-03 06:06:34.49	302.15	18.29	-48.4	-49.1	15.7	0.00e+00	0	31	0	2842689536	61	4246
2026-01-03 06:06:35.50	301.97	18.21	-48.4	-49.1	15.8	0.00e+00	0	31	0	2847932416	62	4006
2026-01-03 06:06:36.50	301.79	18.13	-48.3	-49.0	15.9	0.00e+00	0	31	0	2854223872	62	3976
2026-01-03 06:06:37.50	301.61	18.05	-48.4	-49.0	15.9	0.00e+00	0	31	0	2859466752	62	3997
2026-01-03 06:06:38.50	301.43	17.97	-48.4	-49.0	15.9	0.00e+00	0	31	0	2865758208	62	3996
2026-01-03 06:06:39.51	301.26	17.89	-48.3	-48.9	15.9	0.00e+00	0	31	0	2871001088	62	3944
2026-01-03 06:06:40.50	301.09	17.81	-48.3	-48.9	15.9	0.00e+00	0	31	0	2876243968	62	3935
2026-01-03 06:06:41.50	300.91	17.73	-48.4	-49.0	15.9	0.00e+00	0	31	0	2882535424	62	3978
2026-01-03 06:06:42.51	300.74	17.65	-48.3	-48.9	15.9	0.00e+00	0	31	0	2887778304	62	3932
2026-01-03 06:06:43.51	300.57	17.57	-48.3	-48.9	15.9	0.00e+00	0	31	0	2894069760	62	3955
2026-01-03 06:06:44.52	300.39	17.49	-48.3	-48.9	15.9	0.00e+00	0	31	0	2899312640	62	3929
2026-01-03 06:06:45.52	300.23	17.41	-48.3	-48.9	15.9	0.00e+00	0	31	0	2904555520	62	3942
2026-01-03 06:06:46.53	300.05	17.33	-48.4	-49.0	15.9	0.00e+00	0	31	0	2910846976	62	3983
2026-01-03 06:06:47.52	299.89	17.25	-48.4	-49.1	15.9	0.00e+00	0	31	0	2916089856	62	4020
2026-01-03 06:06:48.53	299.72	17.17	-48.5	-49.1	15.8	0.00e+00	0	31	0	2921332736	62	4050
2026-01-03 06:06:49.53	299.55	17.09	-48.5	-49.1	15.8	0.00e+00	0	31	0	2927624192	62	4047
2026-01-03 06:06:50.53	299.39	17.01	-48.6	-49.3	15.8	0.00e+00	0	31	0	2932867072	62	4103
2026-01-03 06:06:51.53	299.23	16.93	-48.6	-49.2	15.8	0.00e+00	0	31	0	2939158528	62	4074
2026-01-03 06:06:52.53	299.06	16.85	-48.7	-49.3	15.7	0.00e+00	0	31	0	2944401408	62	4140
2026-01-03 06:06:53.53	298.90	16.77	-48.9	-49.6	15.8	0.00e+00	0	31	0	2949644288	63	4005
2026-01-03 06:06:54.53	298.74	16.69	-48.9	-49.6	15.8	0.00e+00	0	31	0	2955935744	63	4035
2026-01-03 06:06:55.54	298.58	16.61	-49.0	-49.6	15.7	0.00e+00	0	31	0	2961178624	63	4049
2026-01-03 06:06:56.54	298.42	16.53	-48.8	-49.5	15.8	0.00e+00	0	31	0	2966421504	63	3969
2026-01-03 06:06:57.55	298.26	16.45	-48.8	-49.4	15.8	0.00e+00	0	31	0	2972712960	63	3957
2026-01-03 06:06:58.54	298.10	16.37	-48.8	-49.5	15.8	0.00e+00	0	31	0	2977955840	63	3982
2026-01-03 06:06:59.55	297.94	16.29	-49.0	-49.6	15.8	0.00e+00	0	31	0	2983198720	63	4038
2026-01-03 06:07:00.55	297.78	16.21	-49.0	-49.6	15.7	0.00e+00	0	31	0	2989490176	63	4039
2026-01-03 06:07:01.55	297.63	16.13	-49.0	-49.7	15.7	0.00e+00	0	31	0	2994733056	63	4056
2026-01-03 06:07:02.55	297.47	16.05	-49.0	-49.7	15.7	0.00e+00	0	31	0	3001024512	63	4087
2026-01-03 06:07:03.55	297.32	15.98	-49.1	-49.8	15.7	0.00e+00	0	31	0	3006267392	63	4105
2026-01-03 06:07:04.54	297.17	15.90	-49.1	-49.7	15.7	0.00e+00	0	31	0	3011510272	63	4087
2026-01-03 06:07:05.55	297.01	15.82	-49.1	-49.7	15.7	0.00e+00	0	31	0	3017801728	63	4087
2026-01-03 06:07:06.54	296.86	15.74	-49.1	-49.8	15.7	0.00e+00	0	31	0	3023044608	63	4128
2026-01-03 06:07:07.55	296.71	15.66	-49.0	-49.7	15.7	0.00e+00	0	31	0	3028287488	63	4079
2026-01-03 06:07:08.55	296.56	15.58	-49.1	-49.7	15.7	0.00e+00	0	31	0	3034578944	63	4093
2026-01-03 06:07:09.55	296.41	15.50	-49.1	-49.8	15.7	0.00e+00	0	31	0	3039821824	63	4115
2026-01-03 06:07:10.55	296.27	15.42	-49.1	-49.8	15.7	0.00e+00	0	31	0	3045064704	63	4100
2026-01-03 06:07:11.55	296.12	15.34	-49.1	-49.8	15.7	0.00e+00	0	31	0	3051356160	63	4135
2026-01-03 06:07:12.55	295.97	15.26	-49.1	-49.8	15.7	0.00e+00	0	31	0	3056599040	63	4120
2026-01-03 06:07:13.55	295.83	15.19	-49.2	-49.9	15.7	0.00e+00	0	31	0	3062890496	63	4148
2026-01-03 06:07:14.55	295.68	15.11	-49.1	-49.8	15.7	0.00e+00	0	31	0	3068133376	63	4123
2026-01-03 06:07:15.54	295.54	15.03	-49.1	-49.8	15.6	0.00e+00	0	31	0	3073376256	63	4138
2026-01-03 06:07:16.54	295.39	14.95	-49.2	-49.9	15.6	0.00e+00	0	31	0	3079667712	63	4171
2026-01-03 06:07:17.54	295.25	14.87	-49.1	-49.8	15.7	0.00e+00	0	31	0	3084910592	63	4117
2026-01-03 06:07:18.53	295.11	14.80	-49.1	-49.8	15.6	0.00e+00	0	31	0	3090153472	63	4140
2026-01-03 06:07:19.53	294.97	14.72	-49.2	-49.8	15.6	0.00e+00	0	31	0	3096444928	63	4137
2026-01-03 06:07:20.53	294.83	14.64	-49.2	-49.9	15.6	0.00e+00	0	31	0	3101687808	63	4161
2026-01-03 06:07:21.53	294.69	14.56	-49.3	-50.0	15.6	0.00e+00	0	31	0	3106930688	63	4202
2026-01-03 06:07:22.53	294.55	14.48	-49.3	-50.0	15.6	0.00e+00	0	31	0	3113222144	63	4237
2026-01-03 06:07:23.54	294.41	14.40	-49.4	-50.1	15.6	0.00e+00	0	31	0	3118465024	63	4258
2026-01-03 06:07:24.53	294.28	14.33	-49.4	-50.1	15.6	0.00e+00	0	31	0	3124756480	64	4045
2026-01-03 06:07:25.53	294.14	14.25	-49.4	-50.1	15.6	0.00e+00	0	31	0	3129999360	64	4035
2026-01-03 06:07:26.53	294.00	14.17	-49.5	-50.1	15.6	0.00e+00	0	31	0	3135242240	64	4050
2026-01-03 06:07:27.54	293.87	14.09	-49.5	-50.2	15.6	0.00e+00	0	31	0	3141533696	64	4064
2026-01-03 06:07:28.54	293.73	14.02	-49.4	-50.1	15.6	0.00e+00	0	31	0	3146776576	64	4031
2026-01-03 06:07:29.54	293.60	13.94	-49.5	-50.2	15.6	0.00e+00	0	31	0	3152019456	64	4070
2026-01-03 06:07:30.54	293.46	13.86	-49.5	-50.2	15.6	0.00e+00	0	31	0	3158310912	64	4079
2026-01-03 06:07:31.55	293.33	13.78	-49.5	-50.2	15.6	0.00e+00	0	31	0	3163553792	64	4095
2026-01-03 06:07:32.55	293.20	13.71	-49.5	-50.2	15.6	0.00e+00	0	31	0	3168796672	64	4066
2026-01-03 06:07:33.54	293.07	13.63	-49.6	-50.3	15.6	0.00e+00	0	31	0	3175088128	64	4115
2026-01-03 06:07:34.54	292.94	13.55	-49.6	-50.3	15.6	0.00e+00	0	31	0	3180331008	64	4118
2026-01-03 06:07:35.54	292.81	13.47	-49.6	-50.4	15.5	0.00e+00	0	31	0	3186622464	64	4159
2026-01-03 06:07:36.54	292.68	13.40	-49.6	-50.3	15.5	0.00e+00	0	31	0	3191865344	64	4145
2026-01-03 06:07:37.54	292.55	13.32	-49.7	-50.4	15.5	0.00e+00	0	31	0	3197108224	64	4191
2026-01-03 06:07:38.55	292.42	13.24	-49.8	-50.6	15.4	0.00e+00	0	31	0	3203399680	64	4255
2026-01-03 06:07:39.55	292.30	13.17	-49.9	-50.7	15.5	0.00e+00	0	31	0	3208642560	65	4066
2026-01-03 06:07:40.56	292.17	13.09	-50.0	-50.7	15.5	0.00e+00	0	31	0	3214934016	65	4092
2026-01-03 06:07:41.56	292.04	13.01	-49.9	-50.6	15.5	0.00e+00	0	31	0	3220176896	65	4048
2026-01-03 06:07:42.57	291.92	12.94	-50.0	-50.8	15.5	0.00e+00	0	31	0	3225419776	65	4112
2026-01-03 06:07:43.56	291.79	12.86	-50.1	-50.8	15.4	0.00e+00	0	31	0	3231711232	65	4134
2026-01-03 06:07:44.56	291.67	12.79	-50.0	-50.8	15.5	0.00e+00	0	31	0	3236954112	65	4123
2026-01-03 06:07:45.56	291.55	12.71	-50.0	-50.8	15.5	0.00e+00	0	31	0	3242196992	65	4116
2026-01-03 06:07:46.56	291.43	12.63	-50.0	-50.8	15.5	0.00e+00	0	31	0	3248488448	65	4130
2026-01-03 06:07:47.56	291.30	12.56	-50.0	-50.7	15.5	0.00e+00	0	31	0	3253731328	65	4098
2026-01-03 06:07:48.56	291.18	12.48	-50.0	-50.8	15.5	0.00e+00	0	31	0	3258974208	65	4107
2026-01-03 06:07:49.55	291.06	12.41	-49.9	-50.7	15.5	0.00e+00	0	31	0	3265265664	65	4078
2026-01-03 06:07:50.55	290.94	12.33	-49.9	-50.6	15.5	0.00e+00	0	31	0	3270508544	65	4033
2026-01-03 06:07:51.56	290.82	12.26	-49.9	-50.7	15.5	0.00e+00	0	31	0	3275751424	65	4059
2026-01-03 06:07:52.56	290.70	12.18	-49.9	-50.7	15.5	0.00e+00	0	31	0	3282042880	65	4058
2026-01-03 06:07:53.57	290.59	12.11	-50.0	-50.7	15.5	0.00e+00	0	31	0	3287285760	65	4095
2026-01-03 06:07:54.56	290.47	12.03	-49.9	-50.7	15.5	0.00e+00	0	31	0	3293577216	65	4061
2026-01-03 06:07:55.56	290.35	11.96	-49.9	-50.7	15.5	0.00e+00	0	31	0	3298820096	65	4073
2026-01-03 06:07:56.57	290.24	11.88	-50.0	-50.7	15.5	0.00e+00	0	31	0	3305111552	65	4084
2026-01-03 06:07:57.58	290.12	11.81	-50.0	-50.7	15.5	0.00e+00	0	31	0	3310354432	65	4081
2026-01-03 06:07:58.58	290.00	11.73	-50.0	-50.8	15.5	0.00e+00	0	31	0	3315597312	65	4106
2026-01-03 06:07:59.57	289.89	11.66	-49.9	-50.7	15.5	0.00e+00	0	31	0	3321888768	65	4058
2026-01-03 06:08:00.57	289.78	11.58	-49.9	-50.7	15.5	0.00e+00	0	31	0	3327131648	65	4077
2026-01-03 06:08:01.58	289.66	11.51	-50.1	-50.8	15.4	0.00e+00	0	31	0	3332374528	65	4140
2026-01-03 06:08:02.58	289.55	11.43	-50.1	-50.8	15.4	0.00e+00	0	31	0	3338665984	65	4137
2026-01-03 06:08:03.58	289.44	11.36	-50.1	-50.9	15.4	0.00e+00	0	31	0	3343908864	65	4154
2026-01-03 06:08:04.58	289.33	11.29	-50.3	-51.1	15.3	0.00e+00	0	31	0	3349151744	65	4256
2026-01-03 06:08:05.58	289.22	11.21	-50.3	-51.2	15.3	0.00e+00	0	31	0	3355443200	65	4296
2026-01-03 06:08:06.58	289.11	11.14	-50.3	-51.1	15.3	0.00e+00	0	31	0	3360686080	65	4289
2026-01-03 06:08:07.59	289.00	11.06	-50.4	-51.3	15.3	0.00e+00	0	31	0	3366977536	66	4110
2026-01-03 06:08:08.59	288.89	10.99	-50.4	-51.2	15.4	0.00e+00	0	31	0	3372220416	66	4057
2026-01-03 06:08:09.59	288.78	10.92	-50.3	-51.2	15.4	0.00e+00	0	31	0	3377463296	66	4056
2026-01-03 06:08:10.58	288.67	10.85	-50.3	-51.1	15.4	0.00e+00	0	31	0	3383754752	66	4019
2026-01-03 06:08:11.59	288.56	10.77	-50.3	-51.1	15.4	0.00e+00	0	31	0	3388997632	66	4044
2026-01-03 06:08:12.59	288.46	10.70	-50.4	-51.2	15.3	0.00e+00	0	31	0	3394240512	66	4056
2026-01-03 06:08:13.59	288.35	10.63	-50.3	-51.1	15.3	0.00e+00	0	31	0	3400531968	66	4044
2026-01-03 06:08:14.59	288.24	10.55	-50.4	-51.2	15.3	0.00e+00	0	31	0	3405774848	66	4069
2026-01-03 06:08:15.58	288.14	10.48	-50.5	-51.3	15.3	0.00e+00	0	31	0	3411017728	66	4107
2026-01-03 06:08:16.58	288.04	10.41	-50.4	-51.3	15.3	0.00e+00	0	31	0	3417309184	66	4104
2026-01-03 06:08:17.59	287.93	10.34	-50.5	-51.4	15.3	0.00e+00	0	31	0	3422552064	66	4155
2026-01-03 06:08:18.59	287.83	10.26	-50.6	-51.4	15.2	0.00e+00	0	31	0	3428843520	66	4192
2026-01-03 06:08:19.59	287.72	10.19	-50.6	-51.4	15.2	0.00e+00	0	31	0	3434086400	66	4184
2026-01-03 06:08:20.59	287.62	10.12	-50.6	-51.4	15.3	0.00e+00	0	31	0	3439329280	66	4163
2026-01-03 06:08:21.59	287.52	10.05	-50.6	-51.5	15.2	0.00e+00	0	31	0	3445620736	66	4202
2026-01-03 06:08:22.60	287.42	9.98	-50.6	-51.5	15.2	0.00e+00	0	31	0	3450863616	66	4198
2026-01-03 06:08:23.59	287.32	9.91	-50.5	-51.3	15.3	0.00e+00	0	31	0	3456106496	66	4126
2026-01-03 06:08:24.59	287.22	9.83	-50.5	-51.4	15.3	0.00e+00	0	31	0	3462397952	66	4146
2026-01-03 06:08:25.60	287.11	9.76	-50.5	-51.3	15.3	0.00e+00	0	31	0	3467640832	66	4138
2026-01-03 06:08:26.60	287.01	9.69	-50.5	-51.3	15.3	0.00e+00	0	31	0	3472883712	66	4145
2026-01-03 06:08:27.60	286.92	9.62	-50.6	-51.5	15.2	0.00e+00	0	31	0	3479175168	66	4203
2026-01-03 06:08:28.60	286.82	9.55	-50.7	-51.5	15.2	0.00e+00	0	31	0	3484418048	66	4227
2026-01-03 06:08:29.61	286.72	9.48	-50.8	-51.6	15.2	0.00e+00	0	31	0	3490709504	66	4280
2026-01-03 06:08:30.62	286.62	9.41	-50.7	-51.6	15.2	0.00e+00	0	31	0	3495952384	66	4272
2026-01-03 06:08:31.62	286.52	9.33	-50.8	-51.7	15.2	0.00e+00	0	31	0	3502243840	66	4292
2026-01-03 06:08:32.63	286.43	9.26	-50.9	-51.8	15.1	0.00e+00	0	31	0	3507486720	66	4356
2026-01-03 06:08:33.63	286.33	9.19	-50.8	-51.7	15.2	0.00e+00	0	31	0	3512729600	67	4077
2026-01-03 06:08:34.64	286.23	9.12	-50.9	-51.8	15.2	0.00e+00	0	31	0	3519021056	67	4108
2026-01-03 06:08:35.64	286.14	9.05	-51.0	-51.9	15.1	0.00e+00	0	31	0	3524263936	67	4154
2026-01-03 06:08:36.65	286.04	8.98	-51.0	-51.9	15.1	0.00e+00	0	31	0	3529506816	67	4157
2026-01-03 06:08:37.65	285.95	8.91	-51.0	-52.0	15.1	0.00e+00	0	31	0	3535798272	67	4196
2026-01-03 06:08:38.65	285.85	8.84	-50.9	-51.8	15.1	0.00e+00	0	31	0	3541041152	67	4116
2026-01-03 06:08:39.66	285.76	8.77	-51.0	-51.9	15.1	0.00e+00	0	31	0	3546284032	67	4173
2026-01-03 06:08:40.66	285.67	8.70	-51.0	-51.9	15.0	0.00e+00	0	31	0	3552575488	67	4185
2026-01-03 06:08:41.66	285.57	8.63	-51.0	-51.9	15.0	0.00e+00	0	31	0	3557818368	67	4192
2026-01-03 06:08:42.67	285.48	8.56	-51.0	-51.9	15.1	0.00e+00	0	31	0	3564109824	67	4179
2026-01-03 06:08:43.67	285.39	8.49	-50.9	-51.8	15.1	0.00e+00	0	31	0	3569352704	67	4120
2026-01-03 06:08:44.67	285.30	8.42	-50.9	-51.8	15.1	0.00e+00	0	31	0	3575644160	67	4109
2026-01-03 06:08:45.68	285.21	8.35	-50.8	-51.7	15.2	0.00e+00	0	31	0	3580887040	67	4079
2026-01-03 06:08:46.68	285.12	8.29	-50.9	-51.7	15.2	0.00e+00	0	31	0	3586129920	67	4094
2026-01-03 06:08:47.68	285.03	8.22	-50.9	-51.8	15.1	0.00e+00	0	31	0	3592421376	67	4119
2026-01-03 06:08:48.69	284.94	8.15	-51.0	-51.8	15.1	0.00e+00	0	31	0	3597664256	67	4134
2026-01-03 06:08:49.69	284.85	8.08	-50.9	-51.8	15.1	0.00e+00	0	31	0	3602907136	67	4105
2026-01-03 06:08:50.69	284.76	8.01	-50.9	-51.8	15.1	0.00e+00	0	31	0	3609198592	67	4114
2026-01-03 06:08:51.70	284.67	7.94	-51.0	-51.9	15.1	0.00e+00	0	31	0	3614441472	67	4175
2026-01-03 06:08:52.70	284.58	7.87	-50.9	-51.8	15.1	0.00e+00	0	31	0	3619684352	67	4134
2026-01-03 06:08:53.70	284.50	7.81	-51.0	-51.9	15.0	0.00e+00	0	31	0	3625975808	67	4182
2026-01-03 06:08:54.70	284.41	7.74	-51.1	-52.0	15.0	0.00e+00	0	31	0	3631218688	67	4241
2026-01-03 06:08:55.70	284.32	7.67	-51.1	-52.0	15.0	0.00e+00	0	31	0	3637510144	67	4242
