passes_logs/2026/01/03/R3.2S_Murmansk/R3.2S_Murmansk__20260103_063434_SUOMI_NPP_rec.log

#Pass ID: 20260103_063434_SUOMI NPP
#Satellite: SUOMI NPP
#Configuration: NPP
#almurnet v.1.7.20251203
#Start time: 2026-01-03 06:34:34

#Version: 2.2.20231116
#Station: R3.2S_Murmansk
#Location: 33.079688 lon 68.888172 lat
#TLE: 1 37849U 11061A   26001.07732418  .00000182  00000+0  10735-3 0  9990
#TLE: 2 37849  98.7795 303.2470 0002580  87.2016 272.9455 14.19520779734739

#Time	Az	El	Level	Level2	SNR	BER	BlckErr	Temp	State	Recorded	gain1	gain2
2026-01-03 06:34:34.08	85.22	1.98	-59.5	-75.1	3.8	1.49e+00	0	28	0	0	85	21401
2026-01-03 06:34:35.07	85.16	2.04	-59.4	-74.9	3.8	1.49e+00	0	28	104	0	83	23551
2026-01-03 06:34:36.08	85.11	2.10	-59.4	-74.9	3.8	1.49e+00	0	28	104	0	83	23463
2026-01-03 06:34:37.08	85.05	2.15	-59.4	-75.0	3.8	1.49e+00	0	29	104	0	83	23584
2026-01-03 06:34:38.08	84.99	2.21	-59.4	-74.9	3.8	1.49e+00	0	28	104	0	83	23528
2026-01-03 06:34:39.09	84.93	2.27	-59.4	-75.0	3.9	1.49e+00	0	28	104	0	83	23608
2026-01-03 06:34:40.08	84.88	2.33	-59.4	-74.9	3.8	1.49e+00	0	28	104	0	83	23490
2026-01-03 06:34:41.09	84.82	2.39	-59.4	-74.9	3.8	1.49e+00	0	28	104	0	83	23471
2026-01-03 06:34:42.09	84.76	2.45	-59.4	-74.9	3.8	1.49e+00	0	29	104	0	83	23547
2026-01-03 06:34:43.09	84.70	2.51	-59.4	-74.9	3.8	1.49e+00	0	28	104	0	83	23476
2026-01-03 06:34:44.09	84.64	2.57	-59.4	-74.9	3.8	1.49e+00	0	29	104	0	83	23463
2026-01-03 06:34:45.09	84.58	2.63	-59.4	-74.9	3.8	1.49e+00	0	29	104	0	83	23523
2026-01-03 06:34:46.10	84.52	2.69	-59.4	-74.9	3.8	1.49e+00	0	29	104	0	83	23568
2026-01-03 06:34:47.09	84.47	2.75	-59.4	-74.9	3.8	1.49e+00	0	29	104	0	83	23501
2026-01-03 06:34:48.09	84.41	2.81	-59.4	-74.9	3.8	1.49e+00	0	29	104	0	83	23564
2026-01-03 06:34:49.10	84.34	2.87	-59.4	-74.9	3.8	1.49e+00	0	29	104	0	83	23538
2026-01-03 06:34:50.10	84.28	2.93	-59.4	-74.9	3.8	1.49e+00	0	29	104	0	83	23567
2026-01-03 06:34:51.10	84.22	2.99	-59.4	-74.9	3.8	1.49e+00	0	29	104	0	83	23517
2026-01-03 06:34:52.09	84.16	3.04	-59.4	-74.9	3.8	1.49e+00	0	29	104	0	83	23500
2026-01-03 06:34:53.09	84.10	3.10	-59.4	-74.9	3.8	1.49e+00	0	29	104	0	83	23508
2026-01-03 06:34:54.10	84.04	3.17	-59.4	-74.9	3.8	1.49e+00	0	29	104	0	83	23525
2026-01-03 06:34:55.10	83.98	3.23	-59.4	-74.9	3.8	1.49e+00	0	29	104	0	83	23524
2026-01-03 06:34:56.10	83.92	3.29	-59.4	-74.9	3.8	1.49e+00	0	29	104	0	83	23552
2026-01-03 06:34:57.10	83.85	3.35	-59.4	-75.0	3.8	1.49e+00	0	29	104	0	83	23614
2026-01-03 06:34:58.10	83.79	3.41	-59.4	-75.0	3.8	1.49e+00	0	29	104	0	83	23593
2026-01-03 06:34:59.11	83.73	3.47	-59.6	-75.1	3.8	1.49e+00	0	29	104	0	84	22640
2026-01-03 06:35:00.11	83.67	3.53	-59.6	-75.0	3.8	1.49e+00	0	29	104	0	84	22486
2026-01-03 06:35:01.11	83.60	3.59	-59.6	-75.0	3.8	1.49e+00	0	29	104	0	84	22405
2026-01-03 06:35:02.11	83.54	3.65	-59.6	-74.9	3.8	1.49e+00	0	29	104	0	84	22191
2026-01-03 06:35:03.11	83.47	3.71	-59.5	-74.9	3.8	1.49e+00	0	29	104	0	84	22123
2026-01-03 06:35:04.12	83.41	3.77	-59.6	-74.9	3.8	1.49e+00	0	29	104	0	84	22219
2026-01-03 06:35:05.11	83.35	3.83	-59.6	-75.0	3.8	1.49e+00	0	29	104	0	84	22321
2026-01-03 06:35:06.12	83.28	3.90	-59.6	-75.1	3.8	1.49e+00	0	29	104	0	84	22629
2026-01-03 06:35:07.11	83.22	3.96	-59.6	-75.1	3.8	1.49e+00	0	29	104	0	84	22632
2026-01-03 06:35:08.11	83.15	4.02	-59.6	-75.1	3.8	1.49e+00	0	29	104	0	84	22555
2026-01-03 06:35:09.11	83.09	4.08	-59.6	-74.9	3.8	1.49e+00	0	29	104	0	84	22022
2026-01-03 06:35:10.11	83.02	4.14	-59.6	-74.5	3.8	1.49e+00	0	29	104	0	84	21036
2026-01-03 06:35:11.12	82.95	4.21	-59.5	-73.9	3.8	1.49e+00	0	29	104	0	84	19664
2026-01-03 06:35:12.12	82.89	4.27	-59.5	-73.3	3.8	1.49e+00	0	29	104	0	84	18354
2026-01-03 06:35:13.11	82.82	4.33	-59.5	-72.5	3.8	1.49e+00	0	29	104	0	84	16775
2026-01-03 06:35:14.11	82.75	4.39	-59.4	-71.7	4.2	1.42e+00	0	29	0	0	84	15292
2026-01-03 06:35:15.11	82.69	4.45	-59.4	-70.8	4.4	1.35e+00	68	29	0	0	84	13795
2026-01-03 06:35:16.12	82.62	4.52	-59.3	-70.1	4.7	9.82e-01	0	29	0	2097152	84	12696
2026-01-03 06:35:17.12	82.55	4.58	-59.2	-69.5	5.0	7.61e-01	0	29	0	4194304	84	11836
2026-01-03 06:35:18.12	82.48	4.64	-59.2	-68.7	5.4	5.42e-01	0	29	0	5242880	84	10838
2026-01-03 06:35:19.12	82.41	4.70	-59.1	-68.3	5.6	4.47e-01	0	29	0	7340032	84	10389
2026-01-03 06:35:20.13	82.34	4.77	-59.1	-68.1	5.8	3.81e-01	0	29	0	9437184	84	10161
2026-01-03 06:35:21.13	82.27	4.83	-59.0	-67.6	6.1	2.75e-01	0	29	0	11534336	84	9604
2026-01-03 06:35:22.14	82.20	4.89	-59.1	-67.8	6.0	2.74e-01	0	29	0	13631488	84	9750
2026-01-03 06:35:23.14	82.13	4.96	-59.1	-67.7	6.0	3.01e-01	0	29	0	14680064	84	9693
2026-01-03 06:35:24.14	82.06	5.02	-59.1	-67.8	6.0	2.83e-01	0	29	0	16777216	84	9765
2026-01-03 06:35:25.15	81.99	5.08	-58.8	-65.6	7.9	5.89e-02	0	29	0	18874368	84	7573
2026-01-03 06:35:26.15	81.92	5.15	-59.2	-67.9	6.0	1.93e-01	0	29	0	20971520	84	9840
2026-01-03 06:35:27.14	81.85	5.21	-59.4	-70.9	4.4	1.09e+00	22	29	0	22020096	84	14004
2026-01-03 06:35:28.14	81.78	5.27	-57.6	-62.0	10.9	6.43e-03	0	29	0	24117248	81	5948
2026-01-03 06:35:29.14	81.71	5.34	-59.3	-73.7	3.9	8.16e-01	0	29	104	25165824	83	20517
2026-01-03 06:35:30.14	81.64	5.40	-57.6	-61.9	10.8	9.22e-01	0	30	0	25165824	81	5904
2026-01-03 06:35:31.14	81.57	5.47	-57.5	-61.7	11.0	2.30e-04	0	30	0	27262976	81	5746
2026-01-03 06:35:32.14	81.49	5.53	-57.5	-61.5	11.2	2.11e-04	0	30	0	29360128	81	5640
2026-01-03 06:35:33.14	81.42	5.60	-57.5	-61.6	11.0	1.51e-04	0	29	0	30408704	81	5721
2026-01-03 06:35:34.14	81.35	5.66	-57.2	-60.9	11.6	6.33e-05	0	30	0	32505856	81	5258
2026-01-03 06:35:35.14	81.27	5.72	-56.9	-60.3	12.1	9.10e-06	0	30	0	34603008	80	5176
2026-01-03 06:35:36.14	81.20	5.79	-57.0	-60.4	12.1	7.60e-06	0	30	0	36700160	80	5226
2026-01-03 06:35:37.14	81.12	5.85	-56.5	-59.5	12.6	7.00e-07	0	30	0	38797312	79	5022
2026-01-03 06:35:38.14	81.05	5.92	-56.3	-59.5	12.5	0.00e+00	0	30	0	39845888	79	5032
2026-01-03 06:35:39.14	80.97	5.98	-56.4	-59.7	12.5	1.50e-06	0	30	0	41943040	79	5113
2026-01-03 06:35:40.13	80.90	6.05	-56.3	-59.5	12.6	7.00e-07	0	29	0	44040192	79	4986
2026-01-03 06:35:41.13	80.82	6.11	-56.3	-59.5	12.6	7.00e-07	0	30	0	46137344	79	5023
2026-01-03 06:35:42.13	80.75	6.18	-56.4	-59.7	12.4	1.50e-06	0	30	0	48234496	79	5147
2026-01-03 06:35:43.13	80.67	6.24	-56.3	-59.5	12.6	0.00e+00	0	30	0	49283072	79	5027
2026-01-03 06:35:44.13	80.59	6.31	-56.2	-59.3	12.8	0.00e+00	0	30	0	51380224	79	4895
2026-01-03 06:35:45.14	80.52	6.38	-56.0	-58.9	12.9	7.00e-07	0	30	0	53477376	78	4956
2026-01-03 06:35:46.13	80.44	6.44	-56.0	-58.9	12.9	0.00e+00	0	30	0	55574528	78	4956
2026-01-03 06:35:47.14	80.36	6.51	-55.7	-58.5	13.2	0.00e+00	0	30	0	57671680	78	4731
2026-01-03 06:35:48.14	80.28	6.57	-55.7	-58.5	13.2	0.00e+00	0	30	0	58720256	77	5029
2026-01-03 06:35:49.13	80.20	6.64	-55.5	-58.1	13.4	0.00e+00	0	30	0	60817408	77	4795
2026-01-03 06:35:50.13	80.12	6.70	-55.4	-58.0	13.5	0.00e+00	0	30	0	62914560	77	4731
2026-01-03 06:35:51.13	80.05	6.77	-55.4	-58.0	13.5	0.00e+00	0	30	0	65011712	77	4720
2026-01-03 06:35:52.13	79.97	6.84	-55.6	-58.2	13.4	0.00e+00	0	30	0	66060288	77	4847
2026-01-03 06:35:53.13	79.89	6.90	-55.7	-58.4	13.3	0.00e+00	0	29	0	68157440	77	4943
2026-01-03 06:35:54.12	79.81	6.97	-55.7	-58.4	13.3	0.00e+00	0	30	0	70254592	77	4981
2026-01-03 06:35:55.11	79.73	7.04	-55.8	-58.6	13.1	0.00e+00	0	30	0	72351744	77	5060
2026-01-03 06:35:56.11	79.64	7.10	-55.6	-58.4	13.3	0.00e+00	0	30	0	74448896	77	4936
2026-01-03 06:35:57.11	79.56	7.17	-55.6	-58.3	13.4	0.00e+00	0	30	0	75497472	77	4886
2026-01-03 06:35:58.10	79.48	7.24	-55.6	-58.3	13.4	0.00e+00	0	30	0	77594624	77	4871
2026-01-03 06:35:59.09	79.40	7.30	-55.5	-58.2	13.4	0.00e+00	0	30	0	79691776	77	4830
2026-01-03 06:36:00.09	79.32	7.37	-55.7	-58.4	13.3	0.00e+00	0	30	0	81788928	77	4965
2026-01-03 06:36:01.08	79.23	7.44	-55.4	-58.0	13.5	0.00e+00	0	30	0	82837504	77	4738
2026-01-03 06:36:02.08	79.15	7.51	-55.5	-58.2	13.4	0.00e+00	0	30	0	84934656	77	4838
2026-01-03 06:36:03.07	79.07	7.57	-55.5	-58.1	13.5	0.00e+00	0	30	0	87031808	77	4783
2026-01-03 06:36:04.07	78.98	7.64	-55.6	-58.2	13.4	0.00e+00	0	30	0	89128960	77	4867
2026-01-03 06:36:05.06	78.90	7.71	-55.5	-58.1	13.5	0.00e+00	0	30	0	91226112	77	4798
2026-01-03 06:36:06.05	78.81	7.78	-55.6	-58.3	13.4	0.00e+00	0	30	0	92274688	77	4878
2026-01-03 06:36:07.05	78.73	7.84	-55.7	-58.4	13.4	0.00e+00	0	30	0	94371840	77	4937
2026-01-03 06:36:08.06	78.64	7.91	-55.7	-58.4	13.4	0.00e+00	0	30	0	96468992	77	4943
2026-01-03 06:36:09.05	78.56	7.98	-55.6	-58.1	13.5	0.00e+00	0	30	0	98566144	77	4790
2026-01-03 06:36:10.05	78.47	8.05	-55.6	-58.1	13.5	0.00e+00	0	30	0	99614720	77	4806
2026-01-03 06:36:11.05	78.38	8.12	-55.5	-58.1	13.6	0.00e+00	0	30	0	101711872	77	4776
2026-01-03 06:36:12.05	78.29	8.19	-55.4	-57.9	13.7	0.00e+00	0	30	0	103809024	77	4653
2026-01-03 06:36:13.05	78.20	8.26	-55.3	-57.7	13.7	0.00e+00	0	30	0	105906176	77	4583
2026-01-03 06:36:14.06	78.11	8.33	-55.4	-57.8	13.7	0.00e+00	0	30	0	108003328	77	4644
2026-01-03 06:36:15.05	78.03	8.39	-55.3	-57.7	13.8	0.00e+00	0	30	0	109051904	77	4572
2026-01-03 06:36:16.05	77.94	8.46	-55.6	-58.1	13.5	0.00e+00	0	30	0	111149056	77	4789
2026-01-03 06:36:17.05	77.85	8.53	-55.6	-58.1	13.5	0.00e+00	0	30	0	113246208	77	4783
2026-01-03 06:36:18.05	77.76	8.60	-55.6	-58.1	13.6	0.00e+00	0	30	0	115343360	77	4762
2026-01-03 06:36:19.05	77.67	8.67	-55.4	-57.9	13.6	0.00e+00	0	30	0	117440512	77	4688
2026-01-03 06:36:20.04	77.58	8.74	-55.5	-58.0	13.6	0.00e+00	0	30	0	118489088	77	4721
2026-01-03 06:36:21.04	77.48	8.81	-55.4	-57.7	13.8	0.00e+00	0	30	0	120586240	77	4588
2026-01-03 06:36:22.04	77.39	8.88	-55.4	-57.8	13.7	0.00e+00	0	30	0	122683392	77	4645
2026-01-03 06:36:23.03	77.30	8.95	-55.4	-57.9	13.7	0.00e+00	0	30	0	124780544	77	4666
2026-01-03 06:36:24.03	77.21	9.02	-55.6	-58.1	13.5	0.00e+00	0	30	0	125829120	77	4796
2026-01-03 06:36:25.03	77.11	9.09	-55.5	-57.9	13.7	0.00e+00	0	30	0	127926272	77	4700
2026-01-03 06:36:26.03	77.02	9.16	-55.4	-57.8	13.7	0.00e+00	0	30	0	130023424	77	4632
2026-01-03 06:36:27.03	76.92	9.23	-55.6	-58.2	13.5	0.00e+00	0	30	0	132120576	77	4847
2026-01-03 06:36:28.03	76.83	9.30	-55.6	-58.2	13.4	0.00e+00	0	30	0	134217728	77	4844
2026-01-03 06:36:29.02	76.73	9.37	-55.7	-58.4	13.3	0.00e+00	0	30	0	135266304	77	4950
2026-01-03 06:36:30.01	76.64	9.44	-55.9	-58.7	13.2	0.00e+00	0	30	0	137363456	77	5127
2026-01-03 06:36:31.00	76.54	9.51	-55.8	-58.5	13.3	0.00e+00	0	30	0	139460608	77	5037
2026-01-03 06:36:32.00	76.45	9.59	-55.8	-58.6	13.3	0.00e+00	0	30	0	141557760	77	5042
2026-01-03 06:36:33.00	76.35	9.66	-55.5	-58.1	13.5	0.00e+00	0	30	0	142606336	77	4802
2026-01-03 06:36:34.00	76.25	9.73	-55.5	-58.1	13.6	0.00e+00	0	30	0	144703488	77	4769
2026-01-03 06:36:35.00	76.15	9.80	-55.4	-57.9	13.7	0.00e+00	0	30	0	146800640	77	4701
2026-01-03 06:36:36.00	76.05	9.87	-55.4	-57.9	13.7	0.00e+00	0	30	0	148897792	77	4672
2026-01-03 06:36:37.01	75.95	9.95	-55.3	-57.7	13.8	0.00e+00	0	30	0	150994944	77	4596
2026-01-03 06:36:38.01	75.85	10.02	-55.3	-57.8	13.7	0.00e+00	0	30	0	152043520	77	4645
2026-01-03 06:36:39.01	75.75	10.09	-55.4	-57.9	13.7	0.00e+00	0	30	0	154140672	77	4665
2026-01-03 06:36:39.99	75.65	10.16	-55.5	-58.0	13.6	0.00e+00	0	30	0	156237824	77	4751
2026-01-03 06:36:40.99	75.55	10.23	-55.4	-57.9	13.7	0.00e+00	0	30	0	158334976	77	4699
2026-01-03 06:36:41.99	75.45	10.31	-55.3	-57.8	13.8	0.00e+00	0	30	0	160432128	77	4640
2026-01-03 06:36:42.98	75.35	10.38	-55.2	-57.7	13.8	0.00e+00	0	30	0	161480704	77	4576
2026-01-03 06:36:43.99	75.24	10.45	-55.1	-57.4	13.9	0.00e+00	0	30	0	163577856	76	4695
2026-01-03 06:36:44.98	75.14	10.52	-55.0	-57.4	14.0	0.00e+00	0	30	0	165675008	76	4655
2026-01-03 06:36:45.98	75.04	10.60	-55.2	-57.6	13.9	0.00e+00	0	30	0	167772160	76	4766
2026-01-03 06:36:46.99	74.93	10.67	-55.1	-57.4	13.9	0.00e+00	0	30	0	169869312	76	4696
2026-01-03 06:36:47.98	74.83	10.74	-55.3	-57.8	13.7	0.00e+00	0	30	0	170917888	76	4902
2026-01-03 06:36:48.97	74.72	10.82	-55.2	-57.7	13.8	0.00e+00	0	30	0	173015040	76	4829
2026-01-03 06:36:49.97	74.62	10.89	-55.2	-57.7	13.8	0.00e+00	0	30	0	175112192	76	4822
2026-01-03 06:36:50.97	74.51	10.96	-55.4	-57.9	13.7	0.00e+00	0	30	0	177209344	76	4978
2026-01-03 06:36:51.97	74.40	11.04	-55.4	-57.9	13.7	0.00e+00	0	30	0	178257920	76	4956
2026-01-03 06:36:52.96	74.29	11.11	-55.2	-57.7	13.8	0.00e+00	0	30	0	180355072	76	4834
2026-01-03 06:36:53.96	74.19	11.18	-55.3	-57.7	13.8	0.00e+00	0	30	0	182452224	76	4820
2026-01-03 06:36:54.95	74.08	11.26	-55.2	-57.5	13.9	0.00e+00	0	30	0	184549376	76	4727
2026-01-03 06:36:55.95	73.97	11.33	-55.1	-57.5	14.0	0.00e+00	0	30	0	186646528	76	4722
2026-01-03 06:36:56.94	73.86	11.40	-55.1	-57.4	14.0	0.00e+00	0	30	0	187695104	76	4683
2026-01-03 06:36:57.94	73.75	11.48	-55.2	-57.4	14.0	0.00e+00	0	30	0	189792256	76	4705
2026-01-03 06:36:58.93	73.64	11.55	-55.2	-57.6	13.9	0.00e+00	0	30	0	191889408	76	4775
2026-01-03 06:36:59.93	73.53	11.63	-55.1	-57.4	14.0	0.00e+00	0	31	0	193986560	76	4684
2026-01-03 06:37:00.92	73.41	11.70	-55.0	-57.2	14.1	0.00e+00	0	30	0	195035136	76	4591
2026-01-03 06:37:01.91	73.30	11.78	-55.0	-57.1	14.1	0.00e+00	0	30	0	197132288	76	4537
2026-01-03 06:37:02.90	73.19	11.85	-55.0	-57.3	14.1	0.00e+00	0	30	0	199229440	76	4603
2026-01-03 06:37:03.90	73.08	11.93	-55.1	-57.4	14.0	0.00e+00	0	30	0	201326592	76	4661
2026-01-03 06:37:04.89	72.96	12.00	-54.9	-57.0	14.2	0.00e+00	0	30	0	203423744	76	4466
2026-01-03 06:37:05.88	72.85	12.07	-54.9	-57.0	14.3	0.00e+00	0	30	0	204472320	76	4443
2026-01-03 06:37:06.89	72.73	12.15	-55.0	-57.1	14.2	0.00e+00	0	30	0	206569472	76	4530
2026-01-03 06:37:07.89	72.61	12.23	-55.0	-57.1	14.2	0.00e+00	0	30	0	208666624	76	4528
2026-01-03 06:37:08.89	72.50	12.30	-55.0	-57.2	14.2	0.00e+00	0	30	0	210763776	76	4558
2026-01-03 06:37:09.88	72.38	12.38	-55.2	-57.5	14.0	0.00e+00	0	30	0	211812352	76	4753
2026-01-03 06:37:10.88	72.26	12.45	-55.2	-57.4	14.0	0.00e+00	0	30	0	213909504	76	4703
2026-01-03 06:37:11.88	72.14	12.53	-55.2	-57.5	14.0	0.00e+00	0	30	0	216006656	76	4742
2026-01-03 06:37:12.87	72.02	12.61	-55.3	-57.5	13.9	0.00e+00	0	30	0	218103808	76	4757
2026-01-03 06:37:13.87	71.90	12.68	-55.3	-57.6	13.9	0.00e+00	0	30	0	220200960	76	4762
2026-01-03 06:37:14.87	71.78	12.76	-55.4	-57.8	13.8	0.00e+00	0	30	0	221249536	76	4904
2026-01-03 06:37:15.87	71.66	12.83	-55.4	-57.8	13.8	0.00e+00	0	30	0	223346688	76	4909
2026-01-03 06:37:16.87	71.54	12.91	-55.4	-57.8	13.7	0.00e+00	0	30	0	225443840	76	4917
2026-01-03 06:37:17.87	71.41	12.99	-55.4	-57.9	13.8	0.00e+00	0	30	0	227540992	76	4930
2026-01-03 06:37:18.86	71.29	13.06	-55.4	-57.8	13.8	0.00e+00	0	30	0	228589568	76	4894
2026-01-03 06:37:19.86	71.17	13.14	-55.4	-57.8	13.8	0.00e+00	0	30	0	230686720	76	4902
2026-01-03 06:37:20.85	71.04	13.22	-55.4	-57.8	13.8	0.00e+00	0	30	0	232783872	76	4905
2026-01-03 06:37:21.85	70.92	13.29	-55.4	-57.7	13.8	0.00e+00	0	30	0	234881024	76	4860
2026-01-03 06:37:22.85	70.79	13.37	-55.2	-57.5	13.9	0.00e+00	0	30	0	236978176	76	4753
2026-01-03 06:37:23.84	70.66	13.45	-55.1	-57.3	14.1	0.00e+00	0	30	0	238026752	76	4609
2026-01-03 06:37:24.83	70.54	13.53	-55.0	-57.2	14.1	0.00e+00	0	30	0	240123904	76	4553
2026-01-03 06:37:25.81	70.41	13.60	-55.0	-57.2	14.1	0.00e+00	0	30	0	242221056	76	4556
2026-01-03 06:37:26.81	70.28	13.68	-55.0	-57.2	14.2	0.00e+00	0	30	0	244318208	76	4563
2026-01-03 06:37:27.80	70.15	13.76	-54.8	-56.9	14.3	0.00e+00	0	30	0	245366784	76	4394
2026-01-03 06:37:28.80	70.02	13.83	-54.7	-56.7	14.4	0.00e+00	0	30	0	247463936	76	4335
2026-01-03 06:37:29.79	69.89	13.91	-54.3	-56.2	14.6	0.00e+00	0	30	0	249561088	75	4298
2026-01-03 06:37:30.79	69.76	13.99	-54.2	-56.0	14.5	0.00e+00	0	30	0	251658240	74	4491
2026-01-03 06:37:31.78	69.63	14.07	-54.2	-56.1	14.5	0.00e+00	0	30	0	253755392	74	4526
2026-01-03 06:37:32.79	69.50	14.15	-54.1	-55.9	14.6	0.00e+00	0	30	0	254803968	74	4436
2026-01-03 06:37:33.78	69.36	14.22	-54.3	-56.2	14.5	0.00e+00	0	30	0	256901120	74	4563
2026-01-03 06:37:34.78	69.23	14.30	-54.2	-56.0	14.5	0.00e+00	0	30	0	258998272	74	4489
2026-01-03 06:37:35.78	69.09	14.38	-54.1	-56.0	14.6	0.00e+00	0	30	0	261095424	74	4443
2026-01-03 06:37:36.79	68.96	14.46	-54.2	-56.1	14.6	0.00e+00	0	30	0	263192576	74	4494
2026-01-03 06:37:37.79	68.82	14.54	-54.2	-56.1	14.6	0.00e+00	0	30	0	264241152	74	4506
2026-01-03 06:37:38.79	68.68	14.62	-54.3	-56.1	14.5	0.00e+00	0	30	0	266338304	74	4540
2026-01-03 06:37:39.78	68.54	14.70	-54.3	-56.2	14.5	0.00e+00	0	30	0	268435456	74	4557
2026-01-03 06:37:40.78	68.40	14.78	-54.2	-56.1	14.5	0.00e+00	0	30	0	270532608	74	4529
2026-01-03 06:37:41.77	68.27	14.85	-54.4	-56.3	14.5	0.00e+00	0	31	0	271581184	74	4609
2026-01-03 06:37:42.77	68.13	14.93	-54.5	-56.5	14.4	0.00e+00	0	30	0	273678336	74	4719
2026-01-03 06:37:43.76	67.99	15.01	-54.4	-56.3	14.5	0.00e+00	0	31	0	275775488	74	4622
2026-01-03 06:37:44.76	67.84	15.09	-54.4	-56.3	14.5	0.00e+00	0	30	0	277872640	74	4611
2026-01-03 06:37:45.75	67.70	15.17	-54.3	-56.2	14.5	0.00e+00	0	30	0	279969792	74	4548
2026-01-03 06:37:46.75	67.56	15.25	-54.2	-56.0	14.6	0.00e+00	0	30	0	281018368	74	4479
2026-01-03 06:37:47.75	67.41	15.33	-54.3	-56.1	14.6	0.00e+00	0	30	0	283115520	74	4512
2026-01-03 06:37:48.75	67.27	15.41	-54.2	-56.0	14.6	0.00e+00	0	30	0	285212672	74	4473
2026-01-03 06:37:49.74	67.12	15.49	-54.3	-56.2	14.5	0.00e+00	0	30	0	287309824	74	4556
2026-01-03 06:37:50.74	66.98	15.57	-54.2	-56.0	14.6	0.00e+00	0	30	0	289406976	74	4458
2026-01-03 06:37:51.74	66.83	15.65	-54.1	-56.0	14.6	0.00e+00	0	30	0	290455552	74	4446
2026-01-03 06:37:52.73	66.68	15.73	-54.3	-56.2	14.5	0.00e+00	0	30	0	292552704	74	4551
2026-01-03 06:37:53.73	66.53	15.81	-54.2	-56.0	14.6	0.00e+00	0	30	0	294649856	74	4474
2026-01-03 06:37:54.72	66.38	15.89	-54.1	-55.9	14.7	0.00e+00	0	31	0	296747008	74	4424
2026-01-03 06:37:55.71	66.23	15.96	-54.1	-55.9	14.7	0.00e+00	0	30	0	297795584	74	4400
2026-01-03 06:37:56.71	66.08	16.04	-54.1	-56.0	14.6	0.00e+00	0	30	0	299892736	74	4445
2026-01-03 06:37:57.71	65.93	16.13	-54.1	-56.0	14.6	0.00e+00	0	30	0	301989888	74	4453
2026-01-03 06:37:58.71	65.78	16.21	-54.2	-56.1	14.6	0.00e+00	0	30	0	304087040	74	4519
2026-01-03 06:37:59.70	65.62	16.28	-54.2	-56.1	14.6	0.00e+00	0	30	0	306184192	74	4512
2026-01-03 06:38:00.70	65.47	16.37	-54.4	-56.4	14.4	0.00e+00	0	31	0	307232768	74	4683
2026-01-03 06:38:01.69	65.31	16.44	-54.3	-56.3	14.5	0.00e+00	0	30	0	309329920	74	4635
2026-01-03 06:38:02.69	65.16	16.53	-54.3	-56.3	14.5	0.00e+00	0	31	0	311427072	74	4633
2026-01-03 06:38:03.69	65.00	16.61	-54.3	-56.4	14.4	0.00e+00	0	30	0	313524224	74	4671
2026-01-03 06:38:04.68	64.84	16.69	-54.4	-56.5	14.4	0.00e+00	0	30	0	314572800	74	4735
2026-01-03 06:38:05.68	64.68	16.77	-54.5	-56.6	14.3	0.00e+00	0	31	0	316669952	74	4813
2026-01-03 06:38:06.68	64.52	16.85	-54.5	-56.6	14.4	0.00e+00	0	30	0	318767104	74	4800
2026-01-03 06:38:07.67	64.36	16.93	-54.4	-56.5	14.4	0.00e+00	0	30	0	320864256	74	4727
2026-01-03 06:38:08.67	64.20	17.01	-54.5	-56.7	14.3	0.00e+00	0	31	0	322961408	74	4832
2026-01-03 06:38:09.66	64.04	17.09	-54.6	-56.7	14.3	0.00e+00	0	30	0	324009984	74	4863
2026-01-03 06:38:10.65	63.88	17.17	-54.7	-56.9	14.2	0.00e+00	0	30	0	326107136	74	4930
2026-01-03 06:38:11.65	63.71	17.25	-54.9	-57.2	14.1	0.00e+00	0	31	0	328204288	75	4860
2026-01-03 06:38:12.64	63.55	17.33	-54.9	-57.2	14.1	0.00e+00	0	30	0	330301440	75	4827
2026-01-03 06:38:13.63	63.38	17.41	-55.0	-57.3	14.1	0.00e+00	0	31	0	331350016	75	4886
2026-01-03 06:38:14.63	63.22	17.49	-54.8	-57.0	14.2	0.00e+00	0	31	0	333447168	75	4754
2026-01-03 06:38:15.62	63.05	17.57	-54.7	-56.9	14.3	0.00e+00	0	30	0	335544320	75	4659
2026-01-03 06:38:16.61	62.88	17.65	-54.8	-56.9	14.3	0.00e+00	0	30	0	337641472	75	4700
2026-01-03 06:38:17.61	62.71	17.73	-54.7	-56.8	14.3	0.00e+00	0	30	0	339738624	75	4623
2026-01-03 06:38:18.61	62.54	17.81	-54.8	-56.9	14.3	0.00e+00	0	30	0	340787200	75	4683
2026-01-03 06:38:19.60	62.37	17.89	-54.7	-56.8	14.3	0.00e+00	0	30	0	342884352	75	4616
2026-01-03 06:38:20.60	62.20	17.97	-54.6	-56.7	14.4	0.00e+00	0	31	0	344981504	75	4574
2026-01-03 06:38:21.60	62.02	18.05	-54.6	-56.6	14.4	0.00e+00	0	30	0	347078656	75	4515
2026-01-03 06:38:22.59	61.85	18.13	-54.6	-56.7	14.4	0.00e+00	0	30	0	348127232	75	4547
2026-01-03 06:38:23.59	61.68	18.21	-54.4	-56.3	14.6	0.00e+00	0	31	0	350224384	75	4385
2026-01-03 06:38:24.59	61.50	18.29	-54.5	-56.5	14.5	0.00e+00	0	30	0	352321536	75	4476
2026-01-03 06:38:25.58	61.32	18.37	-54.7	-56.7	14.4	0.00e+00	0	30	0	354418688	75	4598
2026-01-03 06:38:26.58	61.14	18.45	-54.7	-56.7	14.4	0.00e+00	0	31	0	356515840	75	4578
2026-01-03 06:38:27.57	60.97	18.53	-54.5	-56.6	14.4	0.00e+00	0	30	0	357564416	75	4522
2026-01-03 06:38:28.56	60.79	18.61	-54.3	-56.3	14.6	0.00e+00	0	31	0	359661568	75	4361
2026-01-03 06:38:29.56	60.61	18.70	-54.2	-56.1	14.6	0.00e+00	0	30	0	361758720	74	4541
2026-01-03 06:38:30.56	60.42	18.78	-54.4	-56.4	14.5	0.00e+00	0	30	0	363855872	74	4676
2026-01-03 06:38:31.55	60.24	18.86	-54.2	-56.1	14.6	0.00e+00	0	30	0	364904448	74	4543
2026-01-03 06:38:32.54	60.06	18.94	-54.5	-56.6	14.4	0.00e+00	0	31	0	367001600	74	4769
2026-01-03 06:38:33.54	59.87	19.02	-54.6	-56.7	14.3	0.00e+00	0	31	0	369098752	74	4869
2026-01-03 06:38:34.54	59.69	19.10	-54.9	-57.3	14.1	0.00e+00	0	30	0	371195904	75	4874
2026-01-03 06:38:35.54	59.50	19.18	-54.9	-57.1	14.2	0.00e+00	0	30	0	373293056	75	4809
2026-01-03 06:38:36.55	59.31	19.26	-54.9	-57.0	14.2	0.00e+00	0	31	0	374341632	75	4747
2026-01-03 06:38:37.55	59.12	19.34	-54.8	-56.9	14.3	0.00e+00	0	30	0	376438784	75	4705
2026-01-03 06:38:38.55	58.93	19.42	-54.7	-56.9	14.3	0.00e+00	0	30	0	378535936	75	4658
2026-01-03 06:38:39.55	58.74	19.50	-54.6	-56.7	14.4	0.00e+00	0	30	0	380633088	75	4572
2026-01-03 06:38:40.54	58.55	19.58	-54.5	-56.4	14.5	0.00e+00	0	31	0	382730240	75	4439
2026-01-03 06:38:41.54	58.36	19.66	-54.2	-56.1	14.7	0.00e+00	0	31	0	383778816	75	4264
2026-01-03 06:38:42.54	58.16	19.74	-54.2	-56.1	14.6	0.00e+00	0	30	0	385875968	74	4518
2026-01-03 06:38:43.54	57.97	19.82	-54.1	-55.8	14.8	0.00e+00	0	30	0	387973120	74	4385
2026-01-03 06:38:44.53	57.77	19.90	-54.1	-55.8	14.8	0.00e+00	0	30	0	390070272	74	4374
2026-01-03 06:38:45.53	57.57	19.97	-54.4	-56.4	14.5	0.00e+00	0	31	0	392167424	74	4653
2026-01-03 06:38:46.53	57.38	20.05	-54.3	-56.1	14.6	0.00e+00	0	31	0	393216000	74	4525
2026-01-03 06:38:47.52	57.18	20.13	-54.6	-56.6	14.4	0.00e+00	0	31	0	395313152	74	4760
2026-01-03 06:38:48.53	56.98	20.21	-54.5	-56.4	14.5	0.00e+00	0	30	0	397410304	74	4680
2026-01-03 06:38:49.52	56.78	20.29	-54.4	-56.3	14.5	0.00e+00	0	30	0	399507456	74	4633
2026-01-03 06:38:50.51	56.57	20.37	-54.6	-56.6	14.4	0.00e+00	0	31	0	400556032	74	4778
2026-01-03 06:38:51.52	56.37	20.45	-54.7	-56.7	14.3	0.00e+00	0	31	0	402653184	74	4866
2026-01-03 06:38:52.50	56.17	20.53	-54.6	-56.6	14.4	0.00e+00	0	31	0	404750336	74	4776
2026-01-03 06:38:53.49	55.96	20.60	-54.4	-56.3	14.6	0.00e+00	0	31	0	406847488	75	4362
2026-01-03 06:38:54.48	55.76	20.68	-54.3	-56.1	14.7	0.00e+00	0	31	0	408944640	75	4283
2026-01-03 06:38:55.47	55.55	20.76	-53.8	-55.4	14.9	0.00e+00	0	31	0	409993216	74	4172
2026-01-03 06:38:56.47	55.34	20.84	-53.8	-55.6	14.8	0.00e+00	0	30	0	412090368	73	4497
2026-01-03 06:38:57.47	55.13	20.91	-53.7	-55.3	14.8	0.00e+00	0	31	0	414187520	73	4371
2026-01-03 06:38:58.46	54.93	20.99	-53.5	-55.0	15.0	0.00e+00	0	31	0	416284672	73	4224
2026-01-03 06:38:59.46	54.71	21.07	-53.5	-55.1	14.9	0.00e+00	0	30	0	417333248	73	4257
2026-01-03 06:39:00.44	54.50	21.14	-53.6	-55.3	14.9	0.00e+00	0	31	0	419430400	73	4346
2026-01-03 06:39:01.44	54.29	21.22	-53.6	-55.3	14.8	0.00e+00	0	31	0	421527552	73	4369
2026-01-03 06:39:02.43	54.08	21.30	-53.6	-55.4	14.8	0.00e+00	0	31	0	423624704	73	4418
2026-01-03 06:39:03.43	53.86	21.37	-53.6	-55.3	14.9	0.00e+00	0	31	0	425721856	73	4368
2026-01-03 06:39:04.43	53.64	21.45	-53.5	-55.2	14.9	0.00e+00	0	31	0	426770432	73	4339
2026-01-03 06:39:05.42	53.43	21.53	-53.5	-55.2	14.9	0.00e+00	0	31	0	428867584	73	4302
2026-01-03 06:39:06.42	53.21	21.60	-53.4	-55.1	15.0	0.00e+00	0	31	0	430964736	73	4247
2026-01-03 06:39:07.41	52.99	21.68	-53.4	-55.0	15.0	0.00e+00	0	31	0	433061888	73	4235
2026-01-03 06:39:08.41	52.77	21.75	-53.4	-55.0	15.0	0.00e+00	0	31	0	434110464	73	4208
2026-01-03 06:39:09.40	52.54	21.83	-53.2	-54.7	15.1	0.00e+00	0	30	0	436207616	73	4095
2026-01-03 06:39:10.39	52.32	21.90	-53.0	-54.5	15.1	0.00e+00	0	31	0	438304768	72	4203
2026-01-03 06:39:11.39	52.10	21.98	-52.7	-54.1	15.1	0.00e+00	0	30	0	440401920	72	4047
2026-01-03 06:39:12.38	51.87	22.05	-52.6	-53.9	15.2	0.00e+00	0	31	0	442499072	71	4189
2026-01-03 06:39:13.38	51.65	22.13	-52.7	-54.0	15.2	0.00e+00	0	31	0	443547648	71	4237
2026-01-03 06:39:14.38	51.42	22.20	-52.8	-54.2	15.1	0.00e+00	0	30	0	445644800	71	4326
2026-01-03 06:39:15.38	51.19	22.27	-52.9	-54.3	15.1	0.00e+00	0	31	0	447741952	71	4362
2026-01-03 06:39:16.38	50.96	22.35	-53.0	-54.5	15.1	0.00e+00	0	31	0	449839104	71	4467
2026-01-03 06:39:17.37	50.73	22.42	-53.1	-54.6	15.0	0.00e+00	0	31	0	450887680	71	4511
2026-01-03 06:39:18.38	50.49	22.49	-53.2	-54.7	15.0	0.00e+00	0	31	0	452984832	71	4567
2026-01-03 06:39:19.38	50.26	22.57	-53.1	-54.6	15.0	0.00e+00	0	30	0	455081984	71	4507
2026-01-03 06:39:20.38	50.02	22.64	-53.0	-54.4	15.1	0.00e+00	0	31	0	457179136	71	4414
2026-01-03 06:39:21.38	49.79	22.71	-52.8	-54.1	15.2	0.00e+00	0	30	0	459276288	71	4288
2026-01-03 06:39:22.37	49.55	22.78	-52.6	-53.9	15.3	0.00e+00	0	31	0	460324864	71	4186
2026-01-03 06:39:23.37	49.31	22.85	-52.5	-53.9	15.3	0.00e+00	0	31	0	462422016	71	4159
2026-01-03 06:39:24.36	49.08	22.92	-52.5	-53.8	15.3	0.00e+00	0	31	0	464519168	71	4124
2026-01-03 06:39:25.36	48.83	22.99	-52.5	-53.9	15.3	0.00e+00	0	31	0	466616320	71	4174
2026-01-03 06:39:26.35	48.60	23.06	-52.6	-53.9	15.3	0.00e+00	0	31	0	467664896	71	4193
2026-01-03 06:39:27.35	48.35	23.13	-52.7	-54.1	15.2	0.00e+00	0	31	0	469762048	71	4280
2026-01-03 06:39:28.34	48.11	23.20	-52.7	-54.1	15.2	0.00e+00	0	30	0	471859200	71	4274
2026-01-03 06:39:29.34	47.87	23.27	-52.6	-53.9	15.3	0.00e+00	0	31	0	473956352	71	4176
2026-01-03 06:39:30.34	47.62	23.34	-52.7	-54.1	15.2	0.00e+00	0	31	0	476053504	71	4269
2026-01-03 06:39:31.33	47.38	23.41	-52.7	-54.0	15.3	0.00e+00	0	31	0	477102080	71	4228
2026-01-03 06:39:32.33	47.13	23.48	-52.6	-54.0	15.3	0.00e+00	0	31	0	479199232	71	4203
2026-01-03 06:39:33.33	46.88	23.55	-52.5	-53.8	15.3	0.00e+00	0	31	0	481296384	71	4120
2026-01-03 06:39:34.33	46.63	23.61	-52.5	-53.8	15.3	0.00e+00	0	31	0	483393536	71	4134
2026-01-03 06:39:35.32	46.38	23.68	-52.6	-53.9	15.3	0.00e+00	0	31	0	485490688	71	4150
2026-01-03 06:39:36.32	46.13	23.75	-53.0	-54.4	15.2	0.00e+00	0	31	0	486539264	71	4401
2026-01-03 06:39:37.31	45.87	23.81	-53.4	-55.0	15.0	0.00e+00	0	31	0	488636416	72	4442
2026-01-03 06:39:38.30	45.62	23.88	-53.3	-54.8	15.1	0.00e+00	0	31	0	490733568	72	4345
2026-01-03 06:39:39.31	45.36	23.94	-53.2	-54.7	15.1	0.00e+00	0	31	0	492830720	72	4318
2026-01-03 06:39:40.31	45.11	24.01	-53.3	-54.7	15.1	0.00e+00	0	31	0	493879296	72	4330
2026-01-03 06:39:41.31	44.85	24.07	-53.3	-54.8	15.1	0.00e+00	0	31	0	495976448	72	4360
2026-01-03 06:39:42.32	44.59	24.13	-53.3	-54.8	15.1	0.00e+00	0	31	0	498073600	72	4380
2026-01-03 06:39:43.32	44.33	24.20	-53.4	-55.0	15.0	0.00e+00	0	30	0	500170752	72	4452
2026-01-03 06:39:44.32	44.07	24.26	-53.5	-55.1	14.9	0.00e+00	0	31	0	502267904	72	4516
2026-01-03 06:39:45.31	43.81	24.32	-53.2	-54.7	15.1	0.00e+00	0	31	0	503316480	72	4302
2026-01-03 06:39:46.31	43.54	24.38	-53.1	-54.6	15.1	0.00e+00	0	31	0	505413632	72	4250
2026-01-03 06:39:47.31	43.28	24.44	-53.0	-54.4	15.2	0.00e+00	0	31	0	507510784	72	4152
2026-01-03 06:39:48.31	43.01	24.51	-52.9	-54.3	15.2	0.00e+00	0	30	0	509607936	72	4132
2026-01-03 06:39:49.30	42.75	24.56	-52.9	-54.3	15.2	0.00e+00	0	31	0	511705088	72	4113
2026-01-03 06:39:50.30	42.48	24.62	-53.1	-54.5	15.2	0.00e+00	0	31	0	512753664	72	4217
2026-01-03 06:39:51.30	42.21	24.68	-53.0	-54.4	15.2	0.00e+00	0	31	0	514850816	72	4148
2026-01-03 06:39:52.29	41.95	24.74	-52.7	-54.0	15.4	0.00e+00	0	31	0	516947968	72	3989
2026-01-03 06:39:53.28	41.68	24.80	-52.9	-54.2	15.3	0.00e+00	0	31	0	519045120	72	4056
2026-01-03 06:39:54.27	41.41	24.86	-52.8	-54.1	15.4	0.00e+00	0	31	0	520093696	72	4012
2026-01-03 06:39:55.27	41.14	24.91	-52.6	-53.8	15.3	0.00e+00	0	31	0	522190848	71	4131
2026-01-03 06:39:56.28	40.86	24.97	-52.4	-53.6	15.4	0.00e+00	0	31	0	524288000	71	4030
2026-01-03 06:39:57.27	40.59	25.02	-52.3	-53.5	15.5	0.00e+00	0	31	0	526385152	71	3975
2026-01-03 06:39:58.26	40.32	25.08	-52.2	-53.4	15.5	0.00e+00	0	31	0	528482304	71	3933
2026-01-03 06:39:59.26	40.04	25.13	-52.3	-53.5	15.4	0.00e+00	0	31	0	529530880	71	3991
2026-01-03 06:40:00.25	39.77	25.19	-52.6	-53.8	15.3	0.00e+00	0	31	0	531628032	71	4140
2026-01-03 06:40:01.25	39.49	25.24	-52.8	-54.1	15.3	0.00e+00	0	31	0	533725184	71	4262
2026-01-03 06:40:02.24	39.21	25.29	-52.6	-53.9	15.3	0.00e+00	0	31	0	535822336	71	4157
2026-01-03 06:40:03.24	38.93	25.34	-52.6	-53.8	15.4	0.00e+00	0	31	0	536870912	71	4144
2026-01-03 06:40:04.24	38.65	25.39	-52.6	-53.9	15.3	0.00e+00	0	31	0	538968064	71	4165
2026-01-03 06:40:05.23	38.37	25.44	-52.7	-54.0	15.3	0.00e+00	0	31	0	541065216	71	4207
2026-01-03 06:40:06.23	38.09	25.49	-52.9	-54.3	15.2	0.00e+00	0	31	0	543162368	71	4362
2026-01-03 06:40:07.23	37.81	25.54	-52.9	-54.3	15.2	0.00e+00	0	31	0	545259520	71	4377
2026-01-03 06:40:08.23	37.52	25.59	-52.7	-54.0	15.3	0.00e+00	0	31	0	546308096	71	4236
2026-01-03 06:40:09.23	37.24	25.64	-52.8	-54.1	15.3	0.00e+00	0	31	0	548405248	71	4252
2026-01-03 06:40:10.22	36.96	25.69	-53.0	-54.3	15.2	0.00e+00	0	31	0	550502400	71	4376
2026-01-03 06:40:11.21	36.67	25.73	-52.8	-54.2	15.2	0.00e+00	0	31	0	552599552	71	4302
2026-01-03 06:40:12.21	36.38	25.78	-53.0	-54.4	15.2	0.00e+00	0	31	0	553648128	71	4410
2026-01-03 06:40:13.20	36.10	25.82	-53.2	-54.6	15.1	0.00e+00	0	30	0	555745280	71	4528
2026-01-03 06:40:14.20	35.81	25.87	-53.6	-55.1	14.9	0.00e+00	0	31	0	557842432	72	4544
2026-01-03 06:40:15.20	35.52	25.91	-53.7	-55.3	14.9	0.00e+00	0	31	0	559939584	72	4647
2026-01-03 06:40:16.19	35.23	25.95	-53.8	-55.4	14.8	0.00e+00	0	31	0	562036736	72	4688
2026-01-03 06:40:17.19	34.94	25.99	-53.8	-55.4	14.9	0.00e+00	0	31	0	563085312	73	4421
2026-01-03 06:40:18.19	34.65	26.04	-53.8	-55.4	14.9	0.00e+00	0	31	0	565182464	73	4416
2026-01-03 06:40:19.19	34.35	26.08	-54.4	-56.2	14.6	0.00e+00	0	31	0	567279616	74	4586
2026-01-03 06:40:20.18	34.06	26.12	-54.6	-56.4	14.5	0.00e+00	0	31	0	569376768	74	4695
2026-01-03 06:40:21.18	33.77	26.15	-54.6	-56.5	14.5	0.00e+00	0	31	0	571473920	74	4728
2026-01-03 06:40:22.18	33.47	26.19	-54.4	-56.2	14.6	0.00e+00	0	31	0	572522496	74	4577
2026-01-03 06:40:23.18	33.17	26.23	-54.1	-55.8	14.8	0.00e+00	0	31	0	574619648	74	4375
2026-01-03 06:40:24.18	32.88	26.27	-53.8	-55.4	14.9	0.00e+00	0	31	0	576716800	74	4163
2026-01-03 06:40:25.18	32.58	26.30	-54.0	-55.6	14.9	0.00e+00	0	31	0	578813952	74	4251
2026-01-03 06:40:26.17	32.28	26.34	-54.2	-55.9	14.7	0.00e+00	0	30	0	579862528	74	4436
2026-01-03 06:40:27.18	31.98	26.37	-54.2	-55.9	14.8	0.00e+00	0	31	0	581959680	74	4393
2026-01-03 06:40:28.17	31.69	26.40	-54.4	-56.1	14.6	0.00e+00	0	31	0	584056832	74	4541
2026-01-03 06:40:29.17	31.39	26.44	-54.6	-56.6	14.4	0.00e+00	0	31	0	586153984	74	4774
2026-01-03 06:40:30.16	31.09	26.47	-54.7	-56.7	14.4	0.00e+00	0	31	0	588251136	74	4825
2026-01-03 06:40:31.16	30.79	26.50	-54.8	-56.8	14.4	0.00e+00	0	31	0	589299712	74	4894
2026-01-03 06:40:32.16	30.48	26.53	-54.9	-56.9	14.3	0.00e+00	0	31	0	591396864	74	4961
2026-01-03 06:40:33.16	30.18	26.56	-54.7	-56.7	14.4	0.00e+00	0	31	0	593494016	75	4568
2026-01-03 06:40:34.16	29.88	26.59	-54.6	-56.5	14.6	0.00e+00	0	31	0	595591168	75	4452
2026-01-03 06:40:35.15	29.58	26.61	-54.7	-56.7	14.4	0.00e+00	0	31	0	596639744	75	4550
2026-01-03 06:40:36.15	29.27	26.64	-54.5	-56.4	14.6	0.00e+00	0	31	0	598736896	75	4422
2026-01-03 06:40:37.15	28.97	26.67	-54.3	-56.0	14.7	0.00e+00	0	31	0	600834048	75	4238
2026-01-03 06:40:38.15	28.66	26.69	-54.3	-56.2	14.7	0.00e+00	0	31	0	602931200	75	4307
2026-01-03 06:40:39.15	28.36	26.72	-54.6	-56.6	14.5	0.00e+00	0	31	0	605028352	75	4497
2026-01-03 06:40:40.14	28.05	26.74	-54.9	-57.0	14.3	0.00e+00	0	31	0	606076928	75	4743
2026-01-03 06:40:41.15	27.75	26.76	-54.7	-56.8	14.4	0.00e+00	0	31	0	608174080	75	4602
2026-01-03 06:40:42.15	27.44	26.78	-54.3	-56.2	14.6	0.00e+00	0	31	0	610271232	75	4330
2026-01-03 06:40:43.14	27.13	26.80	-54.1	-55.9	14.7	0.00e+00	0	31	0	612368384	74	4437
2026-01-03 06:40:44.15	26.82	26.82	-53.9	-55.6	14.8	0.00e+00	0	31	0	614465536	74	4273
2026-01-03 06:40:45.15	26.52	26.84	-53.8	-55.5	14.9	0.00e+00	0	31	0	615514112	74	4224
2026-01-03 06:40:46.15	26.21	26.86	-54.1	-55.8	14.7	0.00e+00	0	31	0	617611264	74	4383
2026-01-03 06:40:47.14	25.90	26.88	-54.0	-55.7	14.8	0.00e+00	0	31	0	619708416	74	4326
2026-01-03 06:40:48.14	25.59	26.89	-53.9	-55.7	14.8	0.00e+00	0	31	0	621805568	74	4314
2026-01-03 06:40:49.13	25.29	26.91	-54.1	-55.9	14.7	0.00e+00	0	31	0	623902720	74	4411
2026-01-03 06:40:50.14	24.97	26.92	-54.2	-56.1	14.6	0.00e+00	0	31	0	624951296	74	4535
2026-01-03 06:40:51.14	24.66	26.93	-54.7	-56.7	14.3	0.00e+00	0	31	0	627048448	74	4860
2026-01-03 06:40:52.13	24.36	26.95	-54.9	-57.0	14.3	0.00e+00	0	31	0	629145600	75	4749
2026-01-03 06:40:53.13	24.05	26.96	-55.2	-57.5	14.0	0.00e+00	0	31	0	631242752	75	5000
2026-01-03 06:40:54.12	23.74	26.97	-54.9	-57.0	14.3	0.00e+00	0	31	0	632291328	75	4736
2026-01-03 06:40:55.12	23.43	26.98	-54.7	-56.6	14.5	0.00e+00	0	31	0	634388480	75	4523
2026-01-03 06:40:56.11	23.12	26.99	-54.4	-56.3	14.7	0.00e+00	0	31	0	636485632	75	4350
2026-01-03 06:40:57.12	22.80	26.99	-54.2	-56.0	14.7	0.00e+00	0	31	0	638582784	74	4455
2026-01-03 06:40:58.11	22.50	27.00	-54.1	-55.8	14.8	0.00e+00	0	31	0	640679936	74	4349
2026-01-03 06:40:59.11	22.19	27.01	-54.0	-55.6	14.9	0.00e+00	0	31	0	641728512	74	4271
2026-01-03 06:41:00.10	21.88	27.01	-54.0	-55.6	14.9	0.00e+00	0	31	0	643825664	74	4285
2026-01-03 06:41:01.09	21.57	27.01	-53.9	-55.5	15.0	0.00e+00	0	31	0	645922816	74	4202
2026-01-03 06:41:02.09	21.26	27.02	-54.0	-55.7	14.9	0.00e+00	0	31	0	648019968	74	4332
2026-01-03 06:41:03.09	20.94	27.02	-54.3	-56.1	14.7	0.00e+00	0	31	0	649068544	74	4516
2026-01-03 06:41:04.09	20.63	27.02	-54.6	-56.5	14.5	0.00e+00	0	31	0	651165696	74	4722
2026-01-03 06:41:05.08	20.32	27.02	-54.7	-56.8	14.4	0.00e+00	0	31	0	653262848	74	4873
2026-01-03 06:41:06.08	20.01	27.02	-54.8	-56.8	14.5	0.00e+00	0	31	0	655360000	75	4610
2026-01-03 06:41:07.07	19.70	27.02	-54.8	-56.8	14.4	0.00e+00	0	31	0	657457152	75	4606
2026-01-03 06:41:08.06	19.40	27.02	-54.5	-56.4	14.6	0.00e+00	0	31	0	658505728	75	4392
2026-01-03 06:41:09.06	19.08	27.01	-54.1	-55.9	14.8	0.00e+00	0	31	0	660602880	74	4398
2026-01-03 06:41:10.06	18.77	27.01	-54.0	-55.6	14.9	0.00e+00	0	31	0	662700032	74	4275
2026-01-03 06:41:11.05	18.46	27.00	-53.9	-55.5	15.0	0.00e+00	0	31	0	664797184	74	4204
2026-01-03 06:41:12.04	18.16	27.00	-53.8	-55.4	14.9	0.00e+00	0	31	0	665845760	73	4412
2026-01-03 06:41:13.04	17.84	26.99	-53.8	-55.4	14.9	0.00e+00	0	31	0	667942912	73	4428
2026-01-03 06:41:14.03	17.54	26.98	-53.8	-55.4	14.9	0.00e+00	0	31	0	670040064	73	4407
2026-01-03 06:41:15.02	17.23	26.97	-53.7	-55.2	15.0	0.00e+00	0	31	0	672137216	73	4331
2026-01-03 06:41:16.01	16.92	26.96	-53.6	-55.1	15.1	0.00e+00	0	31	0	674234368	73	4270
2026-01-03 06:41:17.01	16.61	26.95	-53.5	-55.0	15.1	0.00e+00	0	31	0	675282944	73	4213
2026-01-03 06:41:17.99	16.31	26.94	-53.7	-55.3	15.0	0.00e+00	0	31	0	677380096	73	4388
2026-01-03 06:41:18.98	16.00	26.93	-53.8	-55.5	14.9	0.00e+00	0	31	0	679477248	73	4447
2026-01-03 06:41:19.97	15.69	26.91	-53.8	-55.4	14.9	0.00e+00	0	31	0	681574400	73	4426
2026-01-03 06:41:20.96	15.39	26.90	-53.5	-55.1	15.1	0.00e+00	0	31	0	682622976	73	4243
2026-01-03 06:41:21.96	15.08	26.88	-53.1	-54.5	15.2	0.00e+00	0	31	0	684720128	72	4211
2026-01-03 06:41:22.96	14.77	26.87	-52.4	-53.6	15.5	0.00e+00	0	31	0	686817280	71	4021
2026-01-03 06:41:23.95	14.46	26.85	-51.9	-53.0	15.6	0.00e+00	0	31	0	688914432	70	3993
2026-01-03 06:41:24.95	14.16	26.83	-52.0	-53.1	15.6	0.00e+00	0	31	0	691011584	70	4022
2026-01-03 06:41:25.95	13.85	26.81	-52.0	-53.1	15.5	0.00e+00	0	31	0	692060160	70	4044
2026-01-03 06:41:26.93	13.55	26.79	-52.4	-53.6	15.4	0.00e+00	0	31	0	694157312	70	4269
2026-01-03 06:41:27.93	13.24	26.77	-52.8	-54.1	15.3	0.00e+00	0	31	0	696254464	70	4535
2026-01-03 06:41:28.93	12.93	26.75	-52.8	-54.0	15.3	0.00e+00	0	31	0	698351616	71	4238
2026-01-03 06:41:29.92	12.63	26.73	-52.8	-54.1	15.3	0.00e+00	0	31	0	699400192	71	4250
2026-01-03 06:41:30.91	12.33	26.70	-52.6	-53.9	15.4	0.00e+00	0	31	0	701497344	71	4157
2026-01-03 06:41:31.90	12.02	26.68	-52.7	-53.9	15.4	0.00e+00	0	31	0	703594496	71	4184
2026-01-03 06:41:32.89	11.72	26.65	-53.1	-54.4	15.2	0.00e+00	0	31	0	705691648	71	4430
2026-01-03 06:41:33.89	11.42	26.63	-53.2	-54.5	15.2	0.00e+00	0	31	0	707788800	71	4486
2026-01-03 06:41:34.90	11.11	26.60	-53.4	-54.9	15.1	0.00e+00	0	31	0	708837376	72	4403
2026-01-03 06:41:35.89	10.81	26.57	-53.6	-55.0	15.1	0.00e+00	0	31	0	710934528	72	4473
2026-01-03 06:41:36.88	10.51	26.54	-53.8	-55.4	14.9	0.00e+00	0	31	0	713031680	72	4664
2026-01-03 06:41:37.87	10.21	26.52	-53.9	-55.4	15.0	0.00e+00	0	31	0	715128832	73	4436
2026-01-03 06:41:38.87	9.91	26.48	-53.8	-55.3	15.0	0.00e+00	0	31	0	716177408	73	4345
2026-01-03 06:41:39.86	9.61	26.45	-53.5	-54.9	15.2	0.00e+00	0	31	0	718274560	73	4162
2026-01-03 06:41:40.85	9.32	26.42	-53.4	-54.8	15.2	0.00e+00	0	31	0	720371712	73	4104
2026-01-03 06:41:41.84	9.02	26.39	-53.3	-54.7	15.2	0.00e+00	0	31	0	722468864	73	4071
2026-01-03 06:41:42.84	8.72	26.36	-53.8	-55.3	15.0	0.00e+00	0	31	0	724566016	73	4350
2026-01-03 06:41:43.84	8.42	26.32	-54.2	-55.8	14.9	0.00e+00	0	31	0	725614592	73	4608
2026-01-03 06:41:44.84	8.12	26.29	-54.0	-55.6	14.9	0.00e+00	0	31	0	727711744	73	4498
2026-01-03 06:41:45.83	7.83	26.25	-54.1	-55.7	14.9	0.00e+00	0	31	0	729808896	73	4554
2026-01-03 06:41:46.82	7.54	26.21	-54.2	-55.7	14.9	0.00e+00	0	31	0	731906048	73	4573
2026-01-03 06:41:47.82	7.24	26.18	-54.1	-55.7	14.8	0.00e+00	0	31	0	732954624	73	4557
2026-01-03 06:41:48.82	6.94	26.14	-54.2	-55.7	14.9	0.00e+00	0	31	0	735051776	73	4575
2026-01-03 06:41:49.82	6.65	26.10	-54.0	-55.4	15.0	0.00e+00	0	31	0	737148928	73	4432
2026-01-03 06:41:50.81	6.36	26.06	-53.7	-55.1	15.1	0.00e+00	0	31	0	739246080	73	4290
2026-01-03 06:41:51.82	6.06	26.02	-53.5	-54.8	15.2	0.00e+00	0	31	0	741343232	73	4128
2026-01-03 06:41:52.81	5.77	25.98	-53.6	-55.0	15.1	0.00e+00	0	31	0	742391808	73	4216
2026-01-03 06:41:53.81	5.48	25.93	-53.8	-55.3	15.0	0.00e+00	0	31	0	744488960	73	4359
2026-01-03 06:41:54.81	5.19	25.89	-54.1	-55.6	14.9	0.00e+00	0	31	0	746586112	73	4497
2026-01-03 06:41:55.80	4.91	25.85	-54.2	-55.7	14.8	0.00e+00	0	31	0	748683264	73	4585
2026-01-03 06:41:56.80	4.62	25.80	-53.9	-55.5	15.0	0.00e+00	0	31	0	749731840	73	4442
2026-01-03 06:41:57.79	4.33	25.76	-53.9	-55.4	14.9	0.00e+00	0	31	0	751828992	73	4420
2026-01-03 06:41:58.78	4.05	25.71	-53.9	-55.5	14.9	0.00e+00	0	31	0	753926144	73	4451
2026-01-03 06:41:59.79	3.76	25.66	-53.8	-55.3	15.0	0.00e+00	0	31	0	756023296	73	4344
2026-01-03 06:42:00.79	3.47	25.62	-54.1	-55.7	14.9	0.00e+00	0	31	0	758120448	73	4563
2026-01-03 06:42:01.79	3.19	25.57	-54.2	-55.9	14.8	0.00e+00	0	31	0	759169024	73	4661
2026-01-03 06:42:02.78	2.91	25.52	-54.6	-56.3	14.7	0.00e+00	0	31	0	761266176	74	4639
2026-01-03 06:42:03.78	2.62	25.47	-54.8	-56.7	14.5	0.00e+00	0	31	0	763363328	74	4840
2026-01-03 06:42:04.78	2.34	25.42	-55.1	-57.1	14.4	0.00e+00	0	31	0	765460480	75	4775
2026-01-03 06:42:05.77	2.06	25.37	-55.1	-57.2	14.3	0.00e+00	0	31	0	766509056	75	4818
2026-01-03 06:42:06.77	1.78	25.32	-55.0	-56.9	14.4	0.00e+00	0	31	0	768606208	75	4700
2026-01-03 06:42:07.77	1.50	25.27	-54.8	-56.7	14.5	0.00e+00	0	31	0	770703360	75	4554
2026-01-03 06:42:08.78	1.22	25.21	-54.7	-56.6	14.5	0.00e+00	0	31	0	772800512	75	4505
2026-01-03 06:42:09.78	0.95	25.16	-54.7	-56.5	14.6	0.00e+00	0	31	0	774897664	75	4488
2026-01-03 06:42:10.78	0.67	25.11	-54.7	-56.6	14.5	0.00e+00	0	31	0	776994816	75	4532
2026-01-03 06:42:11.78	0.39	25.05	-54.8	-56.7	14.5	0.00e+00	0	31	0	778043392	75	4561
2026-01-03 06:42:12.78	0.12	25.00	-55.1	-57.1	14.3	0.00e+00	0	31	0	780140544	75	4803
2026-01-03 06:42:13.78	359.85	24.94	-54.9	-56.9	14.4	0.00e+00	0	31	0	782237696	75	4671
2026-01-03 06:42:14.79	359.57	24.88	-54.8	-56.7	14.5	0.00e+00	0	31	0	784334848	75	4546
2026-01-03 06:42:15.78	359.30	24.83	-54.3	-56.1	14.7	0.00e+00	0	31	0	785383424	75	4254
2026-01-03 06:42:16.78	359.03	24.77	-54.2	-55.9	14.8	0.00e+00	0	31	0	787480576	75	4156
2026-01-03 06:42:17.78	358.76	24.71	-54.3	-56.0	14.7	0.00e+00	0	31	0	789577728	74	4459
2026-01-03 06:42:18.78	358.49	24.65	-54.3	-56.0	14.7	0.00e+00	0	31	0	791674880	74	4474
2026-01-03 06:42:19.78	358.23	24.59	-54.3	-56.0	14.7	0.00e+00	0	31	0	793772032	74	4466
2026-01-03 06:42:20.79	357.96	24.53	-54.4	-56.2	14.7	0.00e+00	0	31	0	794820608	74	4554
2026-01-03 06:42:21.79	357.69	24.47	-54.4	-56.1	14.7	0.00e+00	0	31	0	796917760	74	4541
2026-01-03 06:42:22.79	357.43	24.41	-54.5	-56.4	14.6	0.00e+00	0	31	0	799014912	74	4653
2026-01-03 06:42:23.79	357.16	24.35	-54.6	-56.5	14.5	0.00e+00	0	31	0	801112064	74	4743
2026-01-03 06:42:24.79	356.90	24.29	-54.6	-56.6	14.4	0.00e+00	0	31	0	803209216	74	4803
2026-01-03 06:42:25.78	356.64	24.23	-54.5	-56.4	14.5	0.00e+00	0	31	0	804257792	74	4705
2026-01-03 06:42:26.79	356.38	24.16	-54.1	-55.9	14.7	0.00e+00	0	31	0	806354944	74	4427
2026-01-03 06:42:27.78	356.12	24.10	-54.0	-55.7	14.8	0.00e+00	0	31	0	808452096	74	4322
2026-01-03 06:42:28.77	355.87	24.04	-54.0	-55.7	14.9	0.00e+00	0	31	0	810549248	74	4328
2026-01-03 06:42:29.77	355.61	23.97	-54.0	-55.7	14.8	0.00e+00	0	31	0	811597824	74	4325
2026-01-03 06:42:30.77	355.35	23.91	-54.5	-56.4	14.5	0.00e+00	0	31	0	813694976	74	4669
2026-01-03 06:42:31.77	355.10	23.84	-54.7	-56.8	14.4	0.00e+00	0	31	0	815792128	74	4880
2026-01-03 06:42:32.77	354.85	23.78	-55.2	-57.5	14.0	0.00e+00	0	31	0	817889280	75	5033
2026-01-03 06:42:33.78	354.59	23.71	-55.2	-57.5	14.0	0.00e+00	0	31	0	819986432	75	5016
2026-01-03 06:42:34.78	354.34	23.65	-55.2	-57.6	13.9	0.00e+00	0	31	0	821035008	75	5097
2026-01-03 06:42:35.78	354.09	23.58	-55.2	-57.6	14.0	0.00e+00	0	31	0	823132160	76	4783
2026-01-03 06:42:36.78	353.84	23.51	-55.4	-57.9	14.0	0.00e+00	0	31	0	825229312	76	4959
2026-01-03 06:42:37.78	353.59	23.44	-54.9	-57.0	14.4	0.00e+00	0	31	0	827326464	76	4493
2026-01-03 06:42:38.79	353.34	23.37	-54.5	-56.4	14.6	0.00e+00	0	31	0	829423616	75	4432
2026-01-03 06:42:39.79	353.09	23.31	-54.2	-56.1	14.8	0.00e+00	0	31	0	830472192	75	4250
2026-01-03 06:42:40.79	352.85	23.24	-53.8	-55.5	15.0	0.00e+00	0	31	0	832569344	74	4199
2026-01-03 06:42:41.78	352.61	23.17	-53.4	-55.0	15.1	0.00e+00	0	31	0	834666496	73	4211
2026-01-03 06:42:42.79	352.36	23.10	-53.4	-54.9	15.1	0.00e+00	0	31	0	836763648	73	4183
2026-01-03 06:42:43.79	352.12	23.03	-53.7	-55.3	15.0	0.00e+00	0	31	0	838860800	73	4364
2026-01-03 06:42:44.79	351.88	22.96	-53.8	-55.5	14.9	0.00e+00	0	31	0	839909376	73	4452
2026-01-03 06:42:45.79	351.64	22.89	-54.2	-56.0	14.6	0.00e+00	0	31	0	842006528	73	4755
2026-01-03 06:42:46.79	351.40	22.81	-54.4	-56.3	14.5	0.00e+00	0	31	0	844103680	73	4910
2026-01-03 06:42:47.79	351.16	22.74	-54.5	-56.5	14.5	0.00e+00	0	31	0	846200832	74	4749
2026-01-03 06:42:48.80	350.92	22.67	-54.4	-56.3	14.6	0.00e+00	0	31	0	847249408	74	4612
2026-01-03 06:42:49.79	350.69	22.60	-54.1	-55.9	14.8	0.00e+00	0	31	0	849346560	74	4433
2026-01-03 06:42:50.79	350.46	22.53	-54.0	-55.7	14.9	0.00e+00	0	31	0	851443712	74	4314
2026-01-03 06:42:51.79	350.22	22.45	-53.5	-55.0	15.1	0.00e+00	0	31	0	853540864	73	4223
2026-01-03 06:42:52.79	349.99	22.38	-53.0	-54.5	15.2	0.00e+00	0	31	0	855638016	72	4203
2026-01-03 06:42:53.79	349.76	22.31	-52.9	-54.3	15.3	0.00e+00	0	31	0	856686592	72	4130
2026-01-03 06:42:54.80	349.53	22.23	-53.0	-54.4	15.2	0.00e+00	0	31	0	858783744	72	4172
2026-01-03 06:42:55.80	349.30	22.16	-52.9	-54.3	15.3	0.00e+00	0	31	0	860880896	72	4114
2026-01-03 06:42:56.80	349.07	22.08	-53.0	-54.4	15.2	0.00e+00	0	31	0	862978048	72	4191
2026-01-03 06:42:57.80	348.85	22.01	-53.1	-54.5	15.2	0.00e+00	0	31	0	865075200	72	4240
2026-01-03 06:42:58.79	348.62	21.94	-53.2	-54.6	15.0	0.00e+00	0	31	0	866123776	72	4284
2026-01-03 06:42:59.79	348.40	21.86	-53.1	-54.5	15.2	0.00e+00	0	31	0	868220928	72	4241
2026-01-03 06:43:00.79	348.18	21.79	-52.8	-54.2	15.3	0.00e+00	0	31	0	870318080	72	4078
2026-01-03 06:43:01.79	347.95	21.71	-52.8	-54.2	15.3	0.00e+00	0	31	0	872415232	72	4079
2026-01-03 06:43:02.79	347.73	21.63	-52.8	-54.1	15.3	0.00e+00	0	31	0	874512384	71	4275
2026-01-03 06:43:03.78	347.52	21.56	-52.7	-54.1	15.2	0.00e+00	0	31	0	875560960	71	4261
2026-01-03 06:43:04.79	347.29	21.48	-52.7	-54.0	15.3	0.00e+00	0	31	0	877658112	71	4232
2026-01-03 06:43:05.79	347.08	21.41	-52.7	-54.0	15.3	0.00e+00	0	31	0	879755264	71	4229
2026-01-03 06:43:06.78	346.86	21.33	-52.5	-53.8	15.4	0.00e+00	0	31	0	881852416	71	4129
2026-01-03 06:43:07.79	346.64	21.25	-52.7	-54.1	15.2	0.00e+00	0	31	0	882900992	71	4275
2026-01-03 06:43:08.79	346.43	21.18	-52.7	-54.1	15.2	0.00e+00	0	31	0	884998144	71	4274
2026-01-03 06:43:09.78	346.22	21.10	-53.1	-54.6	15.0	0.00e+00	0	31	0	887095296	71	4538
2026-01-03 06:43:10.78	346.01	21.02	-53.2	-54.8	15.0	0.00e+00	0	31	0	889192448	71	4603
2026-01-03 06:43:11.78	345.80	20.94	-53.3	-54.9	14.9	0.00e+00	0	31	0	891289600	71	4692
2026-01-03 06:43:12.78	345.59	20.87	-53.3	-55.0	15.0	0.00e+00	0	31	0	892338176	72	4452
2026-01-03 06:43:13.78	345.38	20.79	-53.4	-55.1	15.0	0.00e+00	0	31	0	894435328	72	4519
2026-01-03 06:43:14.79	345.17	20.71	-53.7	-55.4	14.9	0.00e+00	0	31	0	896532480	72	4698
2026-01-03 06:43:15.78	344.96	20.63	-53.9	-55.7	14.7	0.00e+00	0	31	0	898629632	72	4833
2026-01-03 06:43:16.78	344.76	20.55	-53.9	-55.7	14.8	0.00e+00	0	31	0	900726784	73	4546
2026-01-03 06:43:17.78	344.55	20.48	-53.8	-55.6	14.8	0.00e+00	0	31	0	901775360	73	4525
2026-01-03 06:43:18.78	344.35	20.40	-53.7	-55.4	14.9	0.00e+00	0	31	0	903872512	73	4416
2026-01-03 06:43:19.78	344.14	20.32	-53.4	-55.0	15.1	0.00e+00	0	31	0	905969664	73	4230
2026-01-03 06:43:20.79	343.94	20.24	-53.2	-54.8	15.1	0.00e+00	0	31	0	908066816	73	4107
2026-01-03 06:43:21.79	343.74	20.16	-53.2	-54.7	15.1	0.00e+00	0	31	0	909115392	72	4315
2026-01-03 06:43:22.80	343.54	20.08	-53.4	-55.0	15.0	0.00e+00	0	31	0	911212544	72	4490
2026-01-03 06:43:23.81	343.34	20.00	-53.4	-55.0	15.0	0.00e+00	0	31	0	913309696	72	4465
2026-01-03 06:43:24.81	343.14	19.92	-53.5	-55.1	15.0	0.00e+00	0	31	0	915406848	72	4526
2026-01-03 06:43:25.81	342.94	19.84	-53.1	-54.5	15.2	0.00e+00	0	31	0	917504000	72	4231
2026-01-03 06:43:26.82	342.75	19.76	-52.9	-54.3	15.3	0.00e+00	0	31	0	918552576	72	4123
2026-01-03 06:43:27.82	342.55	19.68	-52.5	-53.8	15.4	0.00e+00	0	31	0	920649728	71	4136
2026-01-03 06:43:28.81	342.36	19.60	-52.1	-53.3	15.5	0.00e+00	0	31	0	922746880	70	4103
2026-01-03 06:43:29.81	342.17	19.52	-52.1	-53.2	15.5	0.00e+00	0	31	0	924844032	70	4090
2026-01-03 06:43:30.81	341.98	19.44	-52.0	-53.2	15.5	0.00e+00	0	31	0	926941184	70	4059
2026-01-03 06:43:31.82	341.79	19.36	-52.1	-53.3	15.5	0.00e+00	0	31	0	927989760	70	4133
2026-01-03 06:43:32.81	341.60	19.28	-52.2	-53.4	15.5	0.00e+00	0	31	0	930086912	70	4154
2026-01-03 06:43:33.82	341.41	19.20	-52.3	-53.5	15.4	0.00e+00	0	31	0	932184064	70	4209
2026-01-03 06:43:34.81	341.22	19.12	-52.5	-53.7	15.4	0.00e+00	0	31	0	934281216	70	4314
2026-01-03 06:43:35.81	341.04	19.04	-52.5	-53.8	15.3	0.00e+00	0	31	0	936378368	70	4363
2026-01-03 06:43:36.81	340.85	18.96	-52.7	-54.0	15.2	0.00e+00	0	31	0	937426944	70	4481
2026-01-03 06:43:37.81	340.67	18.88	-52.8	-54.1	15.2	0.00e+00	0	31	0	939524096	70	4513
2026-01-03 06:43:38.81	340.48	18.80	-53.0	-54.4	15.2	0.00e+00	0	31	0	941621248	71	4392
2026-01-03 06:43:39.81	340.30	18.72	-53.1	-54.4	15.2	0.00e+00	0	31	0	943718400	71	4429
2026-01-03 06:43:40.80	340.12	18.64	-52.8	-54.1	15.3	0.00e+00	0	31	0	944766976	71	4263
2026-01-03 06:43:41.81	339.94	18.56	-52.8	-54.1	15.3	0.00e+00	0	31	0	946864128	71	4247
2026-01-03 06:43:42.81	339.76	18.48	-52.8	-54.1	15.3	0.00e+00	0	31	0	948961280	71	4250
2026-01-03 06:43:43.81	339.58	18.40	-52.7	-54.0	15.4	0.00e+00	0	31	0	951058432	71	4195
2026-01-03 06:43:44.80	339.41	18.32	-52.8	-54.2	15.3	0.00e+00	0	31	0	953155584	71	4297
2026-01-03 06:43:45.80	339.23	18.24	-53.0	-54.4	15.2	0.00e+00	0	31	0	954204160	71	4413
2026-01-03 06:43:46.80	339.05	18.16	-53.1	-54.4	15.2	0.00e+00	0	31	0	956301312	71	4433
2026-01-03 06:43:47.81	338.88	18.07	-53.1	-54.5	15.1	0.00e+00	0	31	0	958398464	71	4487
2026-01-03 06:43:48.81	338.70	17.99	-53.4	-54.8	15.1	0.00e+00	0	31	0	960495616	71	4638
2026-01-03 06:43:49.81	338.53	17.91	-53.4	-54.8	15.1	0.00e+00	0	31	0	962592768	72	4376
2026-01-03 06:43:50.81	338.36	17.83	-53.3	-54.8	15.1	0.00e+00	0	31	0	963641344	72	4341
2026-01-03 06:43:51.81	338.19	17.75	-53.3	-54.7	15.2	0.00e+00	0	31	0	965738496	72	4311
2026-01-03 06:43:52.82	338.02	17.67	-53.2	-54.6	15.2	0.00e+00	0	31	0	967835648	72	4259
2026-01-03 06:43:53.82	337.85	17.59	-53.2	-54.6	15.2	0.00e+00	0	31	0	969932800	72	4280
2026-01-03 06:43:54.82	337.68	17.51	-53.0	-54.4	15.3	0.00e+00	0	31	0	970981376	72	4147
2026-01-03 06:43:55.82	337.51	17.43	-53.0	-54.3	15.3	0.00e+00	0	31	0	973078528	72	4108
2026-01-03 06:43:56.82	337.35	17.35	-52.8	-54.0	15.4	0.00e+00	0	31	0	975175680	72	3982
2026-01-03 06:43:57.81	337.18	17.27	-52.6	-53.9	15.4	0.00e+00	0	31	0	977272832	71	4150
2026-01-03 06:43:58.81	337.02	17.19	-52.5	-53.8	15.4	0.00e+00	0	31	0	979369984	71	4107
2026-01-03 06:43:59.82	336.85	17.11	-52.6	-53.8	15.4	0.00e+00	0	31	0	980418560	71	4145
2026-01-03 06:44:00.82	336.69	17.03	-52.9	-54.2	15.2	0.00e+00	0	31	0	982515712	71	4307
2026-01-03 06:44:01.82	336.53	16.94	-53.1	-54.5	15.1	0.00e+00	0	31	0	984612864	71	4463
2026-01-03 06:44:02.81	336.37	16.86	-53.4	-54.8	15.1	0.00e+00	0	31	0	986710016	72	4374
2026-01-03 06:44:03.81	336.21	16.78	-53.5	-55.0	15.0	0.00e+00	0	31	0	988807168	72	4476
2026-01-03 06:44:04.81	336.05	16.70	-53.7	-55.3	14.9	0.00e+00	0	31	0	989855744	72	4609
2026-01-03 06:44:05.81	335.89	16.62	-53.6	-55.1	15.0	0.00e+00	0	31	0	991952896	72	4498
2026-01-03 06:44:06.81	335.74	16.54	-53.4	-54.8	15.1	0.00e+00	0	31	0	994050048	72	4385
2026-01-03 06:44:07.81	335.58	16.46	-53.4	-54.9	15.0	0.00e+00	0	31	0	996147200	72	4401
2026-01-03 06:44:08.80	335.42	16.38	-53.1	-54.4	15.3	0.00e+00	0	31	0	998244352	72	4190
2026-01-03 06:44:09.80	335.27	16.30	-53.1	-54.4	15.2	0.00e+00	0	31	0	999292928	72	4181
2026-01-03 06:44:10.80	335.12	16.22	-53.0	-54.3	15.3	0.00e+00	0	31	0	1001390080	72	4135
2026-01-03 06:44:11.79	334.96	16.14	-53.0	-54.3	15.3	0.00e+00	0	31	0	1003487232	72	4117
2026-01-03 06:44:12.79	334.81	16.06	-52.9	-54.2	15.2	0.00e+00	0	31	0	1005584384	72	4095
2026-01-03 06:44:13.80	334.66	15.98	-53.1	-54.5	15.2	0.00e+00	0	31	0	1006632960	72	4225
2026-01-03 06:44:14.79	334.51	15.90	-53.2	-54.6	15.2	0.00e+00	0	31	0	1008730112	72	4277
2026-01-03 06:44:15.79	334.36	15.82	-53.3	-54.6	15.1	0.00e+00	0	31	0	1010827264	72	4288
2026-01-03 06:44:16.79	334.21	15.74	-53.4	-54.9	15.1	0.00e+00	0	31	0	1012924416	72	4401
2026-01-03 06:44:17.78	334.06	15.66	-53.7	-55.2	14.9	0.00e+00	0	31	0	1015021568	72	4560
2026-01-03 06:44:18.78	333.92	15.58	-53.9	-55.5	14.8	0.00e+00	0	31	0	1016070144	73	4460
2026-01-03 06:44:19.79	333.77	15.50	-54.1	-55.7	14.7	0.00e+00	0	31	0	1018167296	73	4573
2026-01-03 06:44:20.78	333.62	15.43	-54.3	-56.1	14.6	0.00e+00	0	31	0	1020264448	73	4763
2026-01-03 06:44:21.78	333.48	15.35	-54.3	-56.0	14.7	0.00e+00	0	31	0	1022361600	74	4491
2026-01-03 06:44:22.78	333.33	15.27	-54.2	-55.9	14.7	0.00e+00	0	31	0	1024458752	74	4420
2026-01-03 06:44:23.78	333.19	15.19	-54.2	-55.9	14.8	0.00e+00	0	31	0	1025507328	74	4404
2026-01-03 06:44:24.78	333.05	15.11	-53.9	-55.5	14.9	0.00e+00	0	31	0	1027604480	74	4222
2026-01-03 06:44:25.77	332.91	15.03	-53.7	-55.2	15.1	0.00e+00	0	31	0	1029701632	74	4087
2026-01-03 06:44:26.77	332.77	14.95	-53.5	-55.0	15.1	0.00e+00	0	31	0	1031798784	73	4201
2026-01-03 06:44:27.77	332.63	14.87	-53.4	-54.8	15.2	0.00e+00	0	31	0	1032847360	73	4140
2026-01-03 06:44:28.77	332.49	14.79	-53.3	-54.7	15.2	0.00e+00	0	31	0	1034944512	73	4071
2026-01-03 06:44:29.77	332.35	14.71	-53.3	-54.7	15.1	0.00e+00	0	31	0	1037041664	72	4308
2026-01-03 06:44:30.77	332.21	14.63	-53.4	-54.8	15.1	0.00e+00	0	31	0	1039138816	72	4364
2026-01-03 06:44:31.77	332.07	14.56	-53.5	-54.9	15.1	0.00e+00	0	31	0	1041235968	72	4416
2026-01-03 06:44:32.76	331.94	14.48	-53.6	-55.1	15.0	0.00e+00	0	31	0	1042284544	72	4543
2026-01-03 06:44:33.75	331.80	14.40	-53.7	-55.2	15.0	0.00e+00	0	31	0	1044381696	72	4549
2026-01-03 06:44:34.75	331.67	14.32	-53.9	-55.4	14.9	0.00e+00	0	31	0	1046478848	73	4428
2026-01-03 06:44:35.75	331.53	14.24	-53.6	-55.1	15.0	0.00e+00	0	31	0	1048576000	73	4279
2026-01-03 06:44:36.75	331.40	14.16	-53.7	-55.1	15.0	0.00e+00	0	31	0	1049624576	73	4281
2026-01-03 06:44:37.75	331.27	14.09	-53.7	-55.2	15.0	0.00e+00	0	31	0	1051721728	73	4323
2026-01-03 06:44:38.75	331.13	14.01	-53.8	-55.3	15.0	0.00e+00	0	31	0	1053818880	73	4345
2026-01-03 06:44:39.74	331.00	13.93	-53.6	-55.1	15.0	0.00e+00	0	31	0	1055916032	73	4282
2026-01-03 06:44:40.74	330.87	13.85	-53.6	-55.1	15.0	0.00e+00	0	31	0	1058013184	73	4244
2026-01-03 06:44:41.74	330.74	13.78	-53.6	-55.1	15.0	0.00e+00	0	31	0	1059061760	73	4253
2026-01-03 06:44:42.73	330.61	13.70	-53.4	-54.8	15.2	0.00e+00	0	31	0	1061158912	73	4130
2026-01-03 06:44:43.73	330.48	13.62	-53.7	-55.2	15.0	0.00e+00	0	31	0	1063256064	73	4323
2026-01-03 06:44:44.73	330.36	13.54	-53.7	-55.3	14.9	0.00e+00	0	31	0	1065353216	73	4364
2026-01-03 06:44:45.72	330.23	13.47	-53.6	-55.1	15.0	0.00e+00	0	31	0	1067450368	73	4264
2026-01-03 06:44:46.72	330.10	13.39	-53.7	-55.3	14.9	0.00e+00	0	31	0	1068498944	73	4365
2026-01-03 06:44:47.72	329.98	13.31	-53.5	-55.0	15.0	0.00e+00	0	31	0	1070596096	73	4231
2026-01-03 06:44:48.73	329.85	13.23	-53.6	-55.1	15.0	0.00e+00	0	31	0	1072693248	73	4277
2026-01-03 06:44:49.73	329.73	13.16	-53.7	-55.3	15.0	0.00e+00	0	31	0	1074790400	73	4341
2026-01-03 06:44:50.73	329.60	13.08	-53.9	-55.5	14.8	0.00e+00	0	31	0	1076887552	73	4484
2026-01-03 06:44:51.73	329.48	13.00	-53.8	-55.4	14.9	0.00e+00	0	31	0	1077936128	73	4396
2026-01-03 06:44:52.73	329.36	12.93	-54.0	-55.6	14.8	0.00e+00	0	31	0	1080033280	73	4533
2026-01-03 06:44:53.73	329.23	12.85	-54.1	-55.9	14.6	0.00e+00	0	31	0	1082130432	73	4655
2026-01-03 06:44:54.73	329.11	12.77	-54.3	-56.0	14.6	0.00e+00	0	31	0	1084227584	73	4746
2026-01-03 06:44:55.73	328.99	12.70	-54.4	-56.2	14.5	0.00e+00	0	31	0	1085276160	74	4580
2026-01-03 06:44:56.73	328.87	12.62	-54.4	-56.1	14.6	0.00e+00	0	31	0	1087373312	74	4545
2026-01-03 06:44:57.72	328.75	12.55	-54.4	-56.2	14.6	0.00e+00	0	31	0	1089470464	74	4560
2026-01-03 06:44:58.72	328.63	12.47	-54.3	-56.0	14.6	0.00e+00	0	31	0	1091567616	74	4480
2026-01-03 06:44:59.72	328.52	12.39	-54.3	-56.0	14.7	0.00e+00	0	31	0	1093664768	74	4489
2026-01-03 06:45:00.72	328.40	12.32	-54.2	-55.9	14.7	0.00e+00	0	31	0	1094713344	74	4418
2026-01-03 06:45:01.71	328.28	12.24	-54.3	-55.9	14.7	0.00e+00	0	31	0	1096810496	74	4438
2026-01-03 06:45:02.71	328.17	12.17	-54.1	-55.7	14.8	0.00e+00	0	31	0	1098907648	74	4324
2026-01-03 06:45:03.71	328.05	12.09	-54.1	-55.8	14.8	0.00e+00	0	31	0	1101004800	74	4341
2026-01-03 06:45:04.71	327.93	12.02	-54.3	-56.0	14.6	0.00e+00	0	31	0	1102053376	74	4476
2026-01-03 06:45:05.70	327.82	11.94	-54.4	-56.1	14.6	0.00e+00	0	31	0	1104150528	74	4521
2026-01-03 06:45:06.70	327.71	11.87	-54.5	-56.3	14.5	0.00e+00	0	31	0	1106247680	74	4634
2026-01-03 06:45:07.69	327.60	11.79	-54.6	-56.4	14.5	0.00e+00	0	31	0	1108344832	74	4699
2026-01-03 06:45:08.68	327.48	11.72	-54.9	-56.8	14.3	0.00e+00	0	31	0	1110441984	75	4638
2026-01-03 06:45:09.68	327.37	11.64	-55.1	-57.1	14.1	0.00e+00	0	31	0	1111490560	75	4787
2026-01-03 06:45:10.68	327.26	11.57	-55.1	-57.2	14.1	0.00e+00	0	31	0	1113587712	75	4837
2026-01-03 06:45:11.68	327.15	11.50	-55.3	-57.5	14.0	0.00e+00	0	31	0	1115684864	75	5006
2026-01-03 06:45:12.68	327.04	11.42	-55.3	-57.4	14.1	0.00e+00	0	31	0	1117782016	76	4697
2026-01-03 06:45:13.68	326.93	11.35	-55.2	-57.3	14.1	0.00e+00	0	31	0	1119879168	76	4611
2026-01-03 06:45:14.67	326.82	11.27	-55.1	-57.0	14.3	0.00e+00	0	31	0	1120927744	76	4492
2026-01-03 06:45:15.67	326.71	11.20	-54.9	-56.8	14.4	0.00e+00	0	31	0	1123024896	76	4362
2026-01-03 06:45:16.66	326.60	11.13	-54.6	-56.5	14.4	0.00e+00	0	31	0	1125122048	75	4462
2026-01-03 06:45:17.66	326.50	11.05	-54.5	-56.2	14.6	0.00e+00	0	31	0	1127219200	75	4330
2026-01-03 06:45:18.65	326.39	10.98	-54.4	-56.2	14.6	0.00e+00	0	31	0	1128267776	75	4312
2026-01-03 06:45:19.64	326.28	10.91	-54.4	-56.1	14.7	0.00e+00	0	31	0	1130364928	75	4261
2026-01-03 06:45:20.65	326.18	10.83	-54.3	-56.0	14.6	0.00e+00	0	31	0	1132462080	74	4456
2026-01-03 06:45:21.64	326.07	10.76	-54.3	-56.0	14.6	0.00e+00	0	31	0	1134559232	74	4468
2026-01-03 06:45:22.64	325.97	10.69	-54.1	-55.9	14.7	0.00e+00	0	31	0	1136656384	74	4392
2026-01-03 06:45:23.64	325.86	10.61	-54.3	-56.1	14.6	0.00e+00	0	31	0	1137704960	74	4494
2026-01-03 06:45:24.64	325.76	10.54	-54.4	-56.2	14.5	0.00e+00	0	31	0	1139802112	74	4593
2026-01-03 06:45:25.63	325.66	10.47	-54.6	-56.5	14.4	0.00e+00	0	31	0	1141899264	74	4736
2026-01-03 06:45:26.63	325.56	10.40	-54.7	-56.7	14.3	0.00e+00	0	31	0	1143996416	74	4843
2026-01-03 06:45:27.63	325.45	10.32	-55.0	-57.1	14.1	0.00e+00	0	31	0	1146093568	75	4788
2026-01-03 06:45:28.62	325.35	10.25	-55.2	-57.4	14.0	0.00e+00	0	31	0	1147142144	75	4947
2026-01-03 06:45:29.62	325.25	10.18	-55.3	-57.5	13.9	0.00e+00	0	31	0	1149239296	75	5033
2026-01-03 06:45:30.61	325.15	10.11	-55.6	-58.0	13.8	0.00e+00	0	31	0	1151336448	76	4993
2026-01-03 06:45:31.61	325.05	10.04	-55.6	-58.0	13.7	0.00e+00	0	31	0	1153433600	76	5012
2026-01-03 06:45:32.61	324.95	9.96	-55.7	-58.1	13.6	0.00e+00	0	31	0	1154482176	76	5084
2026-01-03 06:45:33.60	324.85	9.89	-55.8	-58.2	13.6	0.00e+00	0	31	0	1156579328	76	5142
2026-01-03 06:45:34.60	324.75	9.82	-55.7	-58.1	13.6	0.00e+00	0	31	0	1158676480	76	5100
2026-01-03 06:45:35.60	324.66	9.75	-55.8	-58.3	13.6	0.00e+00	0	31	0	1160773632	77	4904
2026-01-03 06:45:36.61	324.56	9.68	-55.9	-58.4	13.6	0.00e+00	0	31	0	1162870784	77	4932
2026-01-03 06:45:37.61	324.46	9.61	-55.7	-58.1	13.7	0.00e+00	0	31	0	1163919360	77	4784
2026-01-03 06:45:38.61	324.36	9.53	-55.6	-58.0	13.8	0.00e+00	0	31	0	1166016512	77	4736
2026-01-03 06:45:39.60	324.27	9.46	-55.6	-57.9	13.8	0.00e+00	0	31	0	1168113664	77	4701
2026-01-03 06:45:40.59	324.17	9.39	-55.6	-57.9	13.8	0.00e+00	0	31	0	1170210816	77	4691
2026-01-03 06:45:41.59	324.08	9.32	-55.6	-57.9	13.8	0.00e+00	0	31	0	1171259392	77	4697
2026-01-03 06:45:42.58	323.98	9.25	-55.6	-57.8	13.8	0.00e+00	0	31	0	1173356544	77	4646
2026-01-03 06:45:43.58	323.89	9.18	-55.5	-57.7	13.9	0.00e+00	0	31	0	1175453696	77	4584
2026-01-03 06:45:44.58	323.80	9.11	-55.6	-57.8	13.8	0.00e+00	0	31	0	1177550848	77	4650
2026-01-03 06:45:45.58	323.70	9.04	-55.5	-57.8	13.9	0.00e+00	0	31	0	1179648000	77	4600
2026-01-03 06:45:46.57	323.61	8.97	-55.5	-57.7	13.9	0.00e+00	0	31	0	1180696576	77	4565
2026-01-03 06:45:47.57	323.52	8.90	-55.6	-57.9	13.8	0.00e+00	0	31	0	1182793728	77	4662
2026-01-03 06:45:48.56	323.43	8.83	-55.6	-58.0	13.8	0.00e+00	0	31	0	1184890880	77	4715
2026-01-03 06:45:49.55	323.34	8.76	-55.9	-58.4	13.5	0.00e+00	0	31	0	1186988032	77	4929
2026-01-03 06:45:50.54	323.25	8.69	-56.0	-58.6	13.4	0.00e+00	0	31	0	1188036608	77	5042
2026-01-03 06:45:51.53	323.16	8.63	-56.1	-58.7	13.4	0.00e+00	0	31	0	1190133760	77	5139
2026-01-03 06:45:52.53	323.07	8.56	-56.2	-58.9	13.2	0.00e+00	0	31	0	1192230912	77	5220
2026-01-03 06:45:53.53	322.98	8.49	-56.3	-59.1	13.1	0.00e+00	0	31	0	1194328064	77	5365
2026-01-03 06:45:54.53	322.89	8.42	-56.5	-59.4	12.9	0.00e+00	0	31	0	1196425216	78	5256
2026-01-03 06:45:55.53	322.80	8.35	-56.5	-59.4	12.9	7.00e-07	0	31	0	1197473792	78	5258
2026-01-03 06:45:56.53	322.71	8.28	-56.4	-59.3	13.0	0.00e+00	0	31	0	1199570944	78	5189
2026-01-03 06:45:57.53	322.62	8.21	-56.4	-59.3	13.0	0.00e+00	0	31	0	1201668096	78	5178
2026-01-03 06:45:58.53	322.54	8.14	-56.4	-59.4	12.9	0.00e+00	0	31	0	1203765248	78	5244
2026-01-03 06:45:59.52	322.45	8.07	-56.3	-59.2	13.1	0.00e+00	0	31	0	1204813824	78	5121
2026-01-03 06:46:00.52	322.36	8.00	-56.2	-58.9	13.2	0.00e+00	0	31	0	1206910976	78	4945
2026-01-03 06:46:01.52	322.28	7.94	-55.9	-58.5	13.5	0.00e+00	0	31	0	1209008128	78	4737
2026-01-03 06:46:02.52	322.19	7.87	-55.9	-58.5	13.5	0.00e+00	0	31	0	1211105280	78	4716
2026-01-03 06:46:03.52	322.10	7.80	-55.7	-58.1	13.7	0.00e+00	0	31	0	1213202432	78	4542
2026-01-03 06:46:04.51	322.02	7.73	-55.5	-57.8	13.8	0.00e+00	0	31	0	1214251008	77	4616
2026-01-03 06:46:05.50	321.94	7.67	-55.4	-57.6	13.9	0.00e+00	0	31	0	1216348160	77	4536
