passes_logs/2026/01/03/R3.2S_Murmansk/R3.2S_Murmansk__20260103_095319_SUOMI_NPP_rec.log

#Pass ID: 20260103_095319_SUOMI NPP
#Satellite: SUOMI NPP
#Configuration: NPP
#almurnet v.1.7.20251203
#Start time: 2026-01-03 09:53:19

#Version: 2.2.20231116
#Station: R3.2S_Murmansk
#Location: 33.079688 lon 68.888172 lat
#TLE: 1 37849U 11061A   26001.07732418  .00000182  00000+0  10735-3 0  9990
#TLE: 2 37849  98.7795 303.2470 0002580  87.2016 272.9455 14.19520779734739

#Time	Az	El	Level	Level2	SNR	BER	BlckErr	Temp	State	Recorded	gain1	gain2
2026-01-03 09:53:19.42	158.80	2.00	-59.7	-75.3	3.8	1.49e+00	0	28	0	0	85	21821
2026-01-03 09:53:20.42	158.81	2.06	-59.7	-75.2	3.8	1.49e+00	0	28	104	0	84	23018
2026-01-03 09:53:21.43	158.83	2.13	-59.7	-75.3	3.8	1.49e+00	0	28	104	0	84	23126
2026-01-03 09:53:22.44	158.84	2.19	-59.7	-75.2	3.8	1.49e+00	0	28	104	0	84	23000
2026-01-03 09:53:23.46	158.85	2.26	-59.7	-75.2	3.8	1.49e+00	0	28	104	0	84	22988
2026-01-03 09:53:24.46	158.86	2.32	-59.7	-75.2	3.8	1.49e+00	0	28	104	0	84	23030
2026-01-03 09:53:25.47	158.87	2.39	-59.7	-75.2	3.8	1.49e+00	0	28	104	0	84	23003
2026-01-03 09:53:26.48	158.88	2.45	-59.7	-75.2	3.8	1.49e+00	0	29	104	0	84	22991
2026-01-03 09:53:27.49	158.89	2.52	-59.7	-75.2	3.8	1.49e+00	0	29	104	0	84	22968
2026-01-03 09:53:28.50	158.90	2.58	-59.7	-75.2	3.8	1.49e+00	0	28	104	0	84	22839
2026-01-03 09:53:29.51	158.92	2.65	-59.7	-75.2	3.8	1.49e+00	0	29	104	0	84	22888
2026-01-03 09:53:30.51	158.93	2.72	-59.7	-75.2	3.8	1.49e+00	0	29	104	0	84	22902
2026-01-03 09:53:31.52	158.94	2.78	-59.7	-75.2	3.8	1.49e+00	0	29	104	0	84	22902
2026-01-03 09:53:32.53	158.95	2.85	-59.7	-75.2	3.8	1.49e+00	0	29	104	0	84	22898
2026-01-03 09:53:33.54	158.96	2.92	-59.7	-75.2	3.8	1.49e+00	0	29	104	0	84	22897
2026-01-03 09:53:34.55	158.97	2.98	-59.7	-75.2	3.8	1.49e+00	0	29	104	0	84	22872
2026-01-03 09:53:35.55	158.98	3.05	-59.7	-75.1	3.8	1.49e+00	0	29	104	0	84	22764
2026-01-03 09:53:36.56	159.00	3.12	-59.7	-75.0	3.8	1.49e+00	0	29	104	0	84	22283
2026-01-03 09:53:37.57	159.01	3.18	-59.7	-74.7	3.8	1.49e+00	0	29	104	0	84	21507
2026-01-03 09:53:38.58	159.02	3.25	-59.6	-74.2	3.8	1.49e+00	0	29	104	0	84	20391
2026-01-03 09:53:39.59	159.03	3.32	-59.6	-73.6	3.8	1.49e+00	0	29	104	0	84	19093
2026-01-03 09:53:40.60	159.04	3.39	-59.6	-73.0	3.8	1.49e+00	0	29	104	0	84	17864
2026-01-03 09:53:41.61	159.06	3.46	-59.6	-72.2	4.1	1.47e+00	0	29	0	0	84	16168
2026-01-03 09:53:42.62	159.07	3.52	-59.5	-71.2	4.3	1.40e+00	53	29	0	0	84	14470
2026-01-03 09:53:43.63	159.08	3.59	-59.4	-70.3	4.7	9.34e-01	0	29	0	1048576	84	13004
2026-01-03 09:53:44.63	159.09	3.66	-59.4	-69.7	4.9	7.82e-01	0	29	0	3145728	84	12225
2026-01-03 09:53:45.64	159.10	3.73	-59.3	-68.7	5.4	5.89e-01	0	29	0	5242880	84	10863
2026-01-03 09:53:46.65	159.12	3.80	-59.2	-68.1	5.8	4.29e-01	0	29	0	7340032	84	10137
2026-01-03 09:53:47.66	159.13	3.87	-59.1	-67.5	6.2	2.54e-01	0	29	0	8388608	84	9462
2026-01-03 09:53:48.66	159.14	3.93	-59.0	-66.6	6.9	1.69e-01	0	29	0	10485760	84	8535
2026-01-03 09:53:49.67	159.15	4.00	-58.9	-66.0	7.4	9.89e-02	0	29	0	12582912	84	7981
2026-01-03 09:53:50.68	159.16	4.07	-58.7	-65.4	8.0	4.58e-02	0	29	0	14680064	84	7381
2026-01-03 09:53:51.69	159.18	4.14	-58.3	-64.1	8.9	2.10e-02	0	29	0	16777216	83	6735
2026-01-03 09:53:52.70	159.19	4.21	-58.1	-63.6	9.4	8.18e-03	0	29	0	17825792	82	6739
2026-01-03 09:53:53.71	159.20	4.28	-57.9	-63.0	9.9	2.90e-03	0	29	0	19922944	82	6291
2026-01-03 09:53:54.72	159.21	4.35	-57.7	-62.3	10.4	1.37e-03	0	29	0	22020096	82	5827
2026-01-03 09:53:55.72	159.23	4.42	-57.7	-62.3	10.4	7.25e-04	0	29	0	24117248	81	6147
2026-01-03 09:53:56.73	159.24	4.49	-57.5	-61.7	10.9	3.43e-04	0	29	0	26214400	81	5780
2026-01-03 09:53:57.75	159.25	4.57	-57.3	-61.4	11.1	1.62e-04	0	29	0	27262976	81	5558
2026-01-03 09:53:58.76	159.26	4.64	-57.4	-61.6	11.0	1.47e-04	0	29	0	29360128	81	5663
2026-01-03 09:53:59.76	159.28	4.71	-57.3	-61.4	11.1	1.17e-04	0	29	0	31457280	81	5558
2026-01-03 09:54:00.77	159.29	4.78	-57.4	-61.7	10.9	2.15e-04	0	29	0	33554432	81	5736
2026-01-03 09:54:01.78	159.30	4.85	-57.6	-62.1	10.5	2.94e-04	0	29	0	35651584	81	6045
2026-01-03 09:54:02.79	159.31	4.92	-57.6	-62.2	10.4	6.67e-04	0	30	0	36700160	81	6122
2026-01-03 09:54:03.80	159.33	4.99	-57.9	-63.0	9.8	1.88e-03	0	29	0	38797312	81	6675
2026-01-03 09:54:04.81	159.34	5.07	-58.1	-63.3	9.7	3.19e-03	0	30	0	40894464	81	6958
2026-01-03 09:54:05.81	159.35	5.14	-57.7	-62.2	10.6	2.23e-03	0	29	0	42991616	81	6102
2026-01-03 09:54:06.82	159.37	5.21	-59.2	-70.5	4.6	8.14e-02	0	29	0	45088768	83	14071
2026-01-03 09:54:07.83	159.38	5.28	-59.1	-68.0	5.9	7.68e-01	0	30	0	46137344	83	10633
2026-01-03 09:54:08.84	159.39	5.36	-56.8	-60.1	12.1	1.16e-01	0	29	0	48234496	79	5351
2026-01-03 09:54:09.84	159.40	5.43	-56.8	-60.0	12.1	4.50e-06	0	29	0	49283072	79	5335
2026-01-03 09:54:10.85	159.42	5.50	-56.7	-59.9	12.3	0.00e+00	0	29	0	51380224	79	5235
2026-01-03 09:54:11.86	159.43	5.58	-56.8	-60.1	12.1	2.20e-06	0	29	0	53477376	79	5361
2026-01-03 09:54:12.87	159.44	5.65	-56.7	-59.9	12.3	2.20e-06	0	30	0	55574528	79	5248
2026-01-03 09:54:13.88	159.46	5.72	-56.7	-59.9	12.3	7.00e-07	0	30	0	57671680	79	5234
2026-01-03 09:54:14.88	159.47	5.80	-56.8	-60.1	12.1	2.20e-06	0	30	0	58720256	79	5356
2026-01-03 09:54:15.89	159.48	5.87	-56.7	-59.9	12.3	1.50e-06	0	29	0	60817408	79	5239
2026-01-03 09:54:16.90	159.50	5.95	-56.9	-60.2	12.1	3.00e-06	0	30	0	62914560	79	5457
2026-01-03 09:54:17.91	159.51	6.02	-56.9	-60.3	12.0	6.10e-06	0	30	0	65011712	79	5494
2026-01-03 09:54:18.92	159.52	6.10	-57.0	-60.3	12.1	3.80e-06	0	30	0	67108864	79	5506
2026-01-03 09:54:19.93	159.54	6.17	-56.9	-60.1	12.2	3.80e-06	0	30	0	68157440	79	5391
2026-01-03 09:54:20.94	159.55	6.25	-56.7	-59.9	12.3	3.80e-06	0	30	0	70254592	79	5239
2026-01-03 09:54:21.95	159.57	6.32	-56.8	-59.9	12.3	0.00e+00	0	30	0	72351744	79	5274
2026-01-03 09:54:22.96	159.58	6.40	-56.8	-60.0	12.3	1.50e-06	0	29	0	74448896	79	5297
2026-01-03 09:54:23.97	159.59	6.48	-56.5	-59.4	12.7	0.00e+00	0	30	0	76546048	79	4950
2026-01-03 09:54:24.97	159.61	6.55	-56.8	-59.9	12.4	0.00e+00	0	30	0	77594624	79	5235
2026-01-03 09:54:25.98	159.62	6.63	-56.5	-59.5	12.6	7.00e-07	0	30	0	79691776	79	4993
2026-01-03 09:54:26.98	159.63	6.70	-56.6	-59.5	12.7	0.00e+00	0	30	0	81788928	79	5012
2026-01-03 09:54:28.00	159.65	6.78	-56.6	-59.6	12.6	0.00e+00	0	30	0	83886080	79	5064
2026-01-03 09:54:29.00	159.66	6.86	-56.4	-59.3	12.8	0.00e+00	0	30	0	85983232	79	4890
2026-01-03 09:54:30.01	159.68	6.94	-56.4	-59.2	12.8	0.00e+00	0	30	0	87031808	79	4853
2026-01-03 09:54:31.01	159.69	7.01	-56.5	-59.3	12.7	0.00e+00	0	30	0	89128960	79	4925
2026-01-03 09:54:32.02	159.71	7.09	-56.3	-59.1	13.0	0.00e+00	0	30	0	91226112	79	4762
2026-01-03 09:54:33.03	159.72	7.17	-56.4	-59.2	12.9	0.00e+00	0	30	0	93323264	79	4847
2026-01-03 09:54:34.04	159.73	7.25	-56.4	-59.1	12.9	0.00e+00	0	30	0	95420416	79	4787
2026-01-03 09:54:35.05	159.75	7.33	-56.3	-59.0	13.0	0.00e+00	0	30	0	96468992	79	4715
2026-01-03 09:54:36.06	159.76	7.41	-56.4	-59.1	13.0	0.00e+00	0	30	0	98566144	79	4773
2026-01-03 09:54:37.07	159.78	7.49	-56.3	-59.0	13.0	0.00e+00	0	30	0	100663296	79	4736
2026-01-03 09:54:38.08	159.79	7.56	-56.3	-58.9	13.1	0.00e+00	0	29	0	102760448	79	4700
2026-01-03 09:54:39.09	159.81	7.64	-56.4	-59.1	13.0	0.00e+00	0	30	0	104857600	79	4767
2026-01-03 09:54:40.10	159.82	7.72	-56.3	-58.9	13.1	0.00e+00	0	30	0	105906176	79	4665
2026-01-03 09:54:41.10	159.84	7.80	-56.3	-59.0	13.0	0.00e+00	0	30	0	108003328	79	4722
2026-01-03 09:54:42.11	159.85	7.88	-56.3	-59.0	13.0	0.00e+00	0	30	0	110100480	79	4730
2026-01-03 09:54:43.12	159.87	7.97	-56.3	-59.0	13.0	0.00e+00	0	30	0	112197632	79	4720
2026-01-03 09:54:44.13	159.88	8.05	-56.2	-58.8	13.2	0.00e+00	0	30	0	114294784	79	4640
2026-01-03 09:54:45.14	159.90	8.13	-56.2	-58.7	13.2	0.00e+00	0	30	0	116391936	78	4823
2026-01-03 09:54:46.15	159.91	8.21	-56.1	-58.6	13.2	0.00e+00	0	30	0	117440512	78	4813
2026-01-03 09:54:47.16	159.93	8.29	-56.1	-58.5	13.3	0.00e+00	0	30	0	119537664	78	4757
2026-01-03 09:54:48.16	159.94	8.37	-56.0	-58.4	13.4	0.00e+00	0	30	0	121634816	78	4692
2026-01-03 09:54:49.17	159.96	8.45	-56.0	-58.4	13.4	0.00e+00	0	30	0	123731968	78	4672
2026-01-03 09:54:50.18	159.97	8.54	-56.1	-58.5	13.3	0.00e+00	0	30	0	125829120	78	4754
2026-01-03 09:54:51.18	159.99	8.62	-55.9	-58.3	13.5	0.00e+00	0	30	0	126877696	78	4606
2026-01-03 09:54:52.19	160.00	8.70	-55.9	-58.2	13.5	0.00e+00	0	30	0	128974848	78	4557
2026-01-03 09:54:53.20	160.02	8.79	-55.8	-58.1	13.6	0.00e+00	0	30	0	131072000	78	4508
2026-01-03 09:54:54.21	160.03	8.87	-55.7	-58.0	13.7	0.00e+00	0	30	0	133169152	78	4454
2026-01-03 09:54:55.22	160.05	8.95	-55.7	-57.9	13.6	0.00e+00	0	30	0	135266304	77	4694
2026-01-03 09:54:56.23	160.07	9.04	-55.7	-57.9	13.6	0.00e+00	0	30	0	136314880	77	4689
2026-01-03 09:54:57.24	160.08	9.12	-55.7	-57.9	13.6	0.00e+00	0	30	0	138412032	77	4701
2026-01-03 09:54:58.25	160.10	9.21	-55.5	-57.7	13.8	0.00e+00	0	30	0	140509184	77	4554
2026-01-03 09:54:59.25	160.11	9.29	-55.6	-57.8	13.7	0.00e+00	0	30	0	142606336	77	4627
2026-01-03 09:55:00.26	160.13	9.38	-55.7	-57.8	13.7	0.00e+00	0	30	0	144703488	77	4647
2026-01-03 09:55:01.27	160.15	9.46	-55.5	-57.6	13.8	0.00e+00	0	30	0	145752064	77	4545
2026-01-03 09:55:02.28	160.16	9.55	-55.5	-57.5	13.8	0.00e+00	0	30	0	147849216	77	4492
2026-01-03 09:55:03.28	160.18	9.63	-55.5	-57.6	13.8	0.00e+00	0	30	0	149946368	77	4520
2026-01-03 09:55:04.29	160.19	9.72	-55.3	-57.4	13.9	0.00e+00	0	30	0	152043520	77	4403
2026-01-03 09:55:05.30	160.21	9.81	-55.5	-57.5	13.9	0.00e+00	0	30	0	154140672	77	4471
2026-01-03 09:55:06.31	160.23	9.89	-55.3	-57.4	14.0	0.00e+00	0	30	0	155189248	77	4393
2026-01-03 09:55:07.32	160.24	9.98	-55.4	-57.4	14.0	0.00e+00	0	30	0	157286400	77	4399
2026-01-03 09:55:08.33	160.26	10.07	-55.4	-57.4	14.0	0.00e+00	0	30	0	159383552	77	4417
2026-01-03 09:55:09.34	160.28	10.16	-55.3	-57.3	14.0	0.00e+00	0	30	0	161480704	77	4352
2026-01-03 09:55:10.34	160.29	10.25	-55.3	-57.3	14.0	0.00e+00	0	30	0	163577856	77	4354
2026-01-03 09:55:11.35	160.31	10.33	-55.1	-57.1	14.1	0.00e+00	0	30	0	164626432	76	4497
2026-01-03 09:55:12.36	160.33	10.42	-55.2	-57.1	14.0	0.00e+00	0	30	0	166723584	76	4523
2026-01-03 09:55:13.37	160.35	10.51	-55.1	-57.0	14.1	0.00e+00	0	30	0	168820736	76	4449
2026-01-03 09:55:14.37	160.36	10.60	-55.1	-56.9	14.1	0.00e+00	0	30	0	170917888	76	4440
2026-01-03 09:55:15.38	160.38	10.69	-55.1	-56.9	14.1	0.00e+00	0	30	0	173015040	76	4428
2026-01-03 09:55:16.39	160.40	10.78	-55.1	-56.9	14.1	0.00e+00	0	30	0	174063616	76	4427
2026-01-03 09:55:17.40	160.41	10.87	-55.0	-56.9	14.2	0.00e+00	0	30	0	176160768	76	4393
2026-01-03 09:55:18.41	160.43	10.96	-54.8	-56.5	14.3	0.00e+00	0	30	0	178257920	76	4235
2026-01-03 09:55:19.42	160.45	11.05	-54.9	-56.7	14.3	0.00e+00	0	30	0	180355072	76	4318
2026-01-03 09:55:20.43	160.47	11.15	-54.9	-56.7	14.2	0.00e+00	0	30	0	182452224	76	4321
2026-01-03 09:55:21.43	160.48	11.24	-54.8	-56.5	14.4	0.00e+00	0	30	0	183500800	76	4224
2026-01-03 09:55:22.44	160.50	11.33	-54.8	-56.6	14.3	0.00e+00	0	30	0	185597952	76	4246
2026-01-03 09:55:23.44	160.52	11.42	-54.8	-56.6	14.3	0.00e+00	0	30	0	187695104	76	4260
2026-01-03 09:55:24.45	160.54	11.52	-54.9	-56.7	14.3	0.00e+00	0	30	0	189792256	76	4331
2026-01-03 09:55:25.46	160.56	11.61	-54.8	-56.6	14.3	0.00e+00	0	30	0	191889408	76	4272
2026-01-03 09:55:26.47	160.58	11.70	-54.5	-56.2	14.4	0.00e+00	0	30	0	192937984	75	4309
2026-01-03 09:55:27.48	160.59	11.80	-54.5	-56.1	14.5	0.00e+00	0	30	0	195035136	75	4266
2026-01-03 09:55:28.49	160.61	11.89	-54.5	-56.1	14.5	0.00e+00	0	30	0	197132288	75	4277
2026-01-03 09:55:29.50	160.63	11.99	-54.5	-56.1	14.5	0.00e+00	0	30	0	199229440	75	4280
2026-01-03 09:55:30.51	160.65	12.08	-54.5	-56.2	14.4	0.00e+00	0	30	0	201326592	75	4305
2026-01-03 09:55:31.50	160.67	12.18	-54.4	-56.0	14.5	0.00e+00	0	30	0	202375168	75	4223
2026-01-03 09:55:32.51	160.69	12.27	-54.3	-55.9	14.6	0.00e+00	0	30	0	204472320	75	4179
2026-01-03 09:55:33.52	160.71	12.37	-54.3	-55.9	14.6	0.00e+00	0	30	0	206569472	75	4164
2026-01-03 09:55:34.53	160.72	12.46	-54.2	-55.8	14.6	0.00e+00	0	30	0	208666624	75	4121
2026-01-03 09:55:35.54	160.74	12.56	-54.3	-55.9	14.6	0.00e+00	0	30	0	210763776	75	4190
2026-01-03 09:55:36.55	160.76	12.66	-54.3	-55.9	14.6	0.00e+00	0	30	0	211812352	75	4157
2026-01-03 09:55:37.56	160.78	12.76	-54.2	-55.7	14.6	0.00e+00	0	30	0	213909504	74	4315
2026-01-03 09:55:38.57	160.80	12.86	-54.2	-55.8	14.6	0.00e+00	0	30	0	216006656	74	4356
2026-01-03 09:55:39.58	160.82	12.95	-54.0	-55.5	14.7	0.00e+00	0	30	0	218103808	74	4196
2026-01-03 09:55:40.59	160.84	13.05	-53.9	-55.4	14.7	0.00e+00	0	30	0	220200960	74	4181
2026-01-03 09:55:41.60	160.86	13.15	-53.9	-55.4	14.7	0.00e+00	0	30	0	221249536	74	4169
2026-01-03 09:55:42.61	160.88	13.25	-54.0	-55.5	14.7	0.00e+00	0	30	0	223346688	74	4194
2026-01-03 09:55:43.61	160.90	13.35	-53.9	-55.4	14.8	0.00e+00	0	30	0	225443840	74	4174
2026-01-03 09:55:44.62	160.92	13.45	-53.8	-55.2	14.8	0.00e+00	0	30	0	227540992	74	4088
2026-01-03 09:55:45.63	160.94	13.55	-53.7	-55.1	14.8	0.00e+00	0	30	0	229638144	73	4265
2026-01-03 09:55:46.64	160.96	13.66	-53.7	-55.1	14.8	0.00e+00	0	30	0	230686720	73	4263
2026-01-03 09:55:47.65	160.98	13.76	-53.6	-55.0	14.8	0.00e+00	0	30	0	232783872	73	4240
2026-01-03 09:55:48.66	161.00	13.86	-53.7	-55.1	14.8	0.00e+00	0	30	0	234881024	73	4251
2026-01-03 09:55:49.67	161.02	13.96	-53.7	-55.1	14.8	0.00e+00	0	30	0	236978176	73	4254
2026-01-03 09:55:50.68	161.04	14.07	-53.9	-55.4	14.7	0.00e+00	0	30	0	239075328	73	4392
2026-01-03 09:55:51.69	161.06	14.17	-53.7	-55.1	14.8	0.00e+00	0	30	0	241172480	73	4291
2026-01-03 09:55:52.70	161.08	14.27	-53.6	-54.9	14.9	0.00e+00	0	30	0	242221056	73	4176
2026-01-03 09:55:53.71	161.11	14.38	-53.6	-55.0	14.8	0.00e+00	0	30	0	244318208	73	4217
2026-01-03 09:55:54.72	161.13	14.48	-53.7	-55.1	14.8	0.00e+00	0	30	0	246415360	73	4248
2026-01-03 09:55:55.73	161.15	14.59	-53.7	-55.1	14.8	0.00e+00	0	30	0	248512512	73	4275
2026-01-03 09:55:56.74	161.17	14.70	-53.7	-55.1	14.8	0.00e+00	0	30	0	250609664	73	4278
2026-01-03 09:55:57.75	161.19	14.80	-53.5	-54.9	14.9	0.00e+00	0	30	0	251658240	73	4158
2026-01-03 09:55:58.76	161.21	14.91	-53.5	-54.9	14.9	0.00e+00	0	30	0	253755392	73	4147
2026-01-03 09:55:59.77	161.24	15.02	-53.5	-54.9	14.9	0.00e+00	0	30	0	255852544	73	4147
2026-01-03 09:56:00.78	161.26	15.12	-53.5	-54.9	14.9	0.00e+00	0	30	0	257949696	73	4156
2026-01-03 09:56:01.79	161.28	15.23	-53.5	-54.9	14.9	0.00e+00	0	30	0	260046848	73	4158
2026-01-03 09:56:02.80	161.30	15.34	-53.6	-55.0	14.9	0.00e+00	0	30	0	261095424	73	4207
2026-01-03 09:56:03.81	161.32	15.45	-53.6	-54.9	14.9	0.00e+00	0	30	0	263192576	73	4170
2026-01-03 09:56:04.82	161.35	15.56	-53.6	-55.0	14.9	0.00e+00	0	30	0	265289728	73	4199
2026-01-03 09:56:05.83	161.37	15.67	-53.4	-54.7	15.0	0.00e+00	0	30	0	267386880	73	4054
2026-01-03 09:56:06.84	161.39	15.78	-53.4	-54.7	15.0	0.00e+00	0	30	0	269484032	73	4088
2026-01-03 09:56:07.85	161.42	15.89	-53.3	-54.6	15.0	0.00e+00	0	30	0	270532608	73	4020
2026-01-03 09:56:08.85	161.44	16.00	-53.4	-54.7	15.0	0.00e+00	0	30	0	272629760	73	4059
2026-01-03 09:56:09.86	161.46	16.12	-53.3	-54.5	15.1	0.00e+00	0	30	0	274726912	73	3998
2026-01-03 09:56:10.87	161.49	16.23	-53.3	-54.5	15.1	0.00e+00	0	30	0	276824064	73	4004
2026-01-03 09:56:11.88	161.51	16.34	-53.3	-54.6	15.0	0.00e+00	0	30	0	278921216	72	4264
2026-01-03 09:56:12.89	161.53	16.46	-53.4	-54.7	14.9	0.00e+00	0	30	0	279969792	72	4314
2026-01-03 09:56:13.90	161.56	16.57	-53.1	-54.3	15.1	0.00e+00	0	30	0	282066944	72	4127
2026-01-03 09:56:14.91	161.58	16.69	-53.2	-54.5	15.0	0.00e+00	0	30	0	284164096	72	4221
2026-01-03 09:56:15.91	161.60	16.80	-53.1	-54.4	15.0	0.00e+00	0	30	0	286261248	72	4158
2026-01-03 09:56:16.92	161.63	16.92	-53.4	-54.6	15.0	0.00e+00	0	30	0	288358400	72	4288
2026-01-03 09:56:17.92	161.65	17.03	-53.3	-54.5	15.0	0.00e+00	0	30	0	289406976	72	4240
2026-01-03 09:56:18.93	161.68	17.15	-53.3	-54.6	15.0	0.00e+00	0	30	0	291504128	72	4259
2026-01-03 09:56:19.94	161.70	17.27	-53.3	-54.6	15.0	0.00e+00	0	30	0	293601280	72	4280
2026-01-03 09:56:20.95	161.73	17.38	-53.3	-54.6	15.0	0.00e+00	0	30	0	295698432	72	4257
2026-01-03 09:56:21.96	161.75	17.50	-53.5	-54.8	14.9	0.00e+00	0	30	0	297795584	72	4347
2026-01-03 09:56:22.97	161.78	17.62	-53.5	-54.8	14.9	0.00e+00	0	30	0	298844160	72	4384
2026-01-03 09:56:23.97	161.80	17.74	-53.6	-54.9	14.9	0.00e+00	0	30	0	300941312	72	4407
2026-01-03 09:56:24.98	161.83	17.86	-53.6	-54.9	14.9	0.00e+00	0	30	0	303038464	72	4425
2026-01-03 09:56:25.98	161.86	17.98	-53.7	-55.1	14.8	0.00e+00	0	30	0	305135616	72	4519
2026-01-03 09:56:26.99	161.88	18.10	-53.6	-55.0	14.8	0.00e+00	0	30	0	307232768	72	4456
2026-01-03 09:56:27.99	161.91	18.23	-53.7	-55.1	14.8	0.00e+00	0	30	0	308281344	72	4514
2026-01-03 09:56:29.01	161.93	18.35	-53.7	-55.1	14.8	0.00e+00	0	30	0	310378496	72	4518
2026-01-03 09:56:30.01	161.96	18.47	-53.9	-55.3	14.7	0.00e+00	0	30	0	312475648	72	4619
2026-01-03 09:56:31.02	161.99	18.60	-53.9	-55.3	14.7	0.00e+00	0	30	0	314572800	73	4356
2026-01-03 09:56:32.03	162.01	18.72	-53.9	-55.3	14.8	0.00e+00	0	30	0	316669952	73	4364
2026-01-03 09:56:33.04	162.04	18.85	-53.9	-55.4	14.7	0.00e+00	0	30	0	317718528	73	4393
2026-01-03 09:56:34.05	162.07	18.97	-53.9	-55.4	14.7	0.00e+00	0	30	0	319815680	73	4392
2026-01-03 09:56:35.06	162.10	19.10	-54.0	-55.4	14.7	0.00e+00	0	30	0	321912832	73	4429
2026-01-03 09:56:36.06	162.12	19.23	-54.1	-55.6	14.7	0.00e+00	0	30	0	324009984	73	4523
2026-01-03 09:56:37.07	162.15	19.35	-54.1	-55.6	14.7	0.00e+00	0	30	0	326107136	73	4513
2026-01-03 09:56:38.08	162.18	19.48	-54.2	-55.7	14.6	0.00e+00	0	30	0	327155712	73	4553
2026-01-03 09:56:39.09	162.21	19.61	-54.2	-55.7	14.6	0.00e+00	0	30	0	329252864	73	4570
2026-01-03 09:56:40.10	162.24	19.74	-54.4	-56.0	14.5	0.00e+00	0	30	0	331350016	73	4707
2026-01-03 09:56:41.10	162.27	19.87	-54.3	-55.8	14.6	0.00e+00	0	30	0	333447168	74	4378
2026-01-03 09:56:42.11	162.29	20.00	-54.3	-55.8	14.7	0.00e+00	0	30	0	335544320	74	4370
2026-01-03 09:56:43.12	162.32	20.13	-54.5	-56.1	14.6	0.00e+00	0	30	0	337641472	74	4497
2026-01-03 09:56:44.13	162.35	20.27	-54.6	-56.3	14.4	0.00e+00	0	30	0	338690048	74	4614
2026-01-03 09:56:45.13	162.38	20.40	-54.7	-56.4	14.4	0.00e+00	0	30	0	340787200	74	4673
2026-01-03 09:56:46.14	162.41	20.53	-54.8	-56.5	14.3	0.00e+00	0	30	0	342884352	74	4747
2026-01-03 09:56:47.15	162.44	20.67	-54.9	-56.7	14.4	0.00e+00	0	30	0	344981504	75	4546
2026-01-03 09:56:48.15	162.47	20.80	-54.9	-56.7	14.3	0.00e+00	0	30	0	346030080	75	4551
2026-01-03 09:56:49.16	162.50	20.94	-54.9	-56.7	14.3	0.00e+00	0	30	0	348127232	75	4552
2026-01-03 09:56:50.17	162.53	21.08	-55.1	-56.9	14.2	0.00e+00	0	30	0	350224384	75	4699
2026-01-03 09:56:51.18	162.56	21.21	-55.1	-56.9	14.2	0.00e+00	0	30	0	352321536	75	4693
2026-01-03 09:56:52.19	162.60	21.35	-55.2	-57.1	14.2	0.00e+00	0	30	0	354418688	75	4761
2026-01-03 09:56:53.19	162.63	21.49	-55.1	-56.9	14.3	0.00e+00	0	30	0	355467264	75	4680
2026-01-03 09:56:54.20	162.66	21.63	-55.1	-56.8	14.3	0.00e+00	0	30	0	357564416	75	4634
2026-01-03 09:56:55.21	162.69	21.77	-55.1	-56.9	14.2	0.00e+00	0	30	0	359661568	75	4674
2026-01-03 09:56:56.22	162.72	21.91	-55.1	-56.9	14.2	0.00e+00	0	30	0	361758720	75	4670
2026-01-03 09:56:57.23	162.76	22.05	-55.2	-57.0	14.2	0.00e+00	0	30	0	363855872	75	4747
2026-01-03 09:56:58.24	162.79	22.20	-55.1	-56.9	14.2	0.00e+00	0	30	0	365953024	75	4676
2026-01-03 09:56:59.25	162.82	22.34	-55.1	-56.9	14.3	0.00e+00	0	30	0	367001600	75	4663
2026-01-03 09:57:00.26	162.86	22.49	-55.1	-56.9	14.3	0.00e+00	0	30	0	369098752	75	4664
2026-01-03 09:57:01.27	162.89	22.63	-55.3	-57.2	14.1	0.00e+00	0	30	0	371195904	75	4821
2026-01-03 09:57:02.27	162.92	22.78	-55.2	-57.0	14.2	0.00e+00	0	30	0	373293056	75	4743
2026-01-03 09:57:03.29	162.96	22.93	-55.3	-57.2	14.1	0.00e+00	0	30	0	375390208	75	4817
2026-01-03 09:57:04.30	162.99	23.07	-55.4	-57.3	14.2	0.00e+00	0	30	0	376438784	76	4601
2026-01-03 09:57:05.30	163.03	23.22	-55.4	-57.2	14.2	0.00e+00	0	30	0	378535936	76	4561
2026-01-03 09:57:06.31	163.06	23.37	-55.5	-57.3	14.1	0.00e+00	0	30	0	380633088	76	4633
2026-01-03 09:57:07.32	163.10	23.52	-55.3	-57.0	14.3	0.00e+00	0	30	0	382730240	76	4481
2026-01-03 09:57:08.33	163.13	23.67	-55.3	-57.1	14.3	0.00e+00	0	30	0	384827392	76	4523
2026-01-03 09:57:09.34	163.17	23.83	-55.4	-57.3	14.2	0.00e+00	0	30	0	385875968	76	4610
2026-01-03 09:57:10.35	163.20	23.98	-55.2	-56.9	14.4	0.00e+00	0	30	0	387973120	76	4400
2026-01-03 09:57:11.35	163.24	24.13	-55.0	-56.7	14.5	0.00e+00	0	30	0	390070272	76	4305
2026-01-03 09:57:12.36	163.28	24.29	-55.1	-56.8	14.4	0.00e+00	0	30	0	392167424	76	4353
2026-01-03 09:57:13.36	163.32	24.44	-55.1	-56.7	14.4	0.00e+00	0	30	0	394264576	76	4340
2026-01-03 09:57:14.37	163.35	24.60	-55.2	-56.9	14.4	0.00e+00	0	30	0	395313152	76	4405
2026-01-03 09:57:15.38	163.39	24.76	-55.0	-56.7	14.5	0.00e+00	0	30	0	397410304	76	4308
2026-01-03 09:57:16.39	163.43	24.92	-54.9	-56.5	14.6	0.00e+00	0	30	0	399507456	76	4216
2026-01-03 09:57:17.40	163.47	25.08	-55.0	-56.7	14.5	0.00e+00	0	30	0	401604608	76	4298
2026-01-03 09:57:18.40	163.51	25.24	-55.0	-56.6	14.5	0.00e+00	0	30	0	403701760	76	4258
2026-01-03 09:57:19.41	163.55	25.40	-55.0	-56.7	14.5	0.00e+00	0	30	0	404750336	76	4306
2026-01-03 09:57:20.42	163.59	25.56	-55.0	-56.6	14.5	0.00e+00	0	30	0	406847488	76	4252
2026-01-03 09:57:21.42	163.63	25.72	-54.7	-56.2	14.7	0.00e+00	0	30	0	408944640	76	4089
2026-01-03 09:57:22.43	163.67	25.89	-54.6	-56.1	14.7	0.00e+00	0	30	0	411041792	75	4282
2026-01-03 09:57:23.45	163.71	26.05	-54.5	-55.9	14.7	0.00e+00	0	30	0	413138944	75	4182
2026-01-03 09:57:24.46	163.75	26.22	-54.2	-55.7	14.8	0.00e+00	0	30	0	414187520	75	4060
2026-01-03 09:57:25.46	163.79	26.39	-54.2	-55.6	14.8	0.00e+00	0	30	0	416284672	74	4250
2026-01-03 09:57:26.47	163.83	26.56	-54.3	-55.7	14.8	0.00e+00	0	30	0	418381824	74	4306
2026-01-03 09:57:27.48	163.87	26.72	-54.2	-55.6	14.8	0.00e+00	0	30	0	420478976	74	4271
2026-01-03 09:57:28.48	163.92	26.89	-54.5	-56.0	14.6	0.00e+00	0	30	0	422576128	74	4483
2026-01-03 09:57:29.49	163.96	27.07	-54.6	-56.1	14.6	0.00e+00	0	30	0	423624704	74	4521
2026-01-03 09:57:30.50	164.00	27.24	-54.3	-55.7	14.8	0.00e+00	0	30	0	425721856	74	4322
2026-01-03 09:57:31.51	164.05	27.41	-54.8	-56.5	14.4	0.00e+00	0	30	0	427819008	75	4446
2026-01-03 09:57:32.52	164.09	27.59	-54.8	-56.4	14.5	0.00e+00	0	30	0	429916160	75	4419
2026-01-03 09:57:33.52	164.14	27.76	-54.4	-55.9	14.7	0.00e+00	0	30	0	432013312	75	4186
2026-01-03 09:57:34.53	164.18	27.94	-54.7	-56.2	14.6	0.00e+00	0	30	0	433061888	75	4327
2026-01-03 09:57:35.54	164.23	28.12	-54.5	-56.0	14.7	0.00e+00	0	30	0	435159040	75	4226
2026-01-03 09:57:36.55	164.28	28.30	-54.4	-55.9	14.8	0.00e+00	0	30	0	437256192	75	4166
2026-01-03 09:57:37.56	164.32	28.48	-54.3	-55.8	14.7	0.00e+00	0	30	0	439353344	74	4355
2026-01-03 09:57:38.57	164.37	28.66	-54.3	-55.7	14.7	0.00e+00	0	30	0	441450496	74	4302
2026-01-03 09:57:39.58	164.42	28.84	-54.2	-55.6	14.8	0.00e+00	0	30	0	442499072	74	4251
2026-01-03 09:57:40.59	164.47	29.03	-54.3	-55.7	14.8	0.00e+00	0	30	0	444596224	74	4303
2026-01-03 09:57:41.60	164.51	29.21	-54.4	-55.9	14.7	0.00e+00	0	30	0	446693376	74	4403
2026-01-03 09:57:42.60	164.56	29.40	-54.4	-55.9	14.7	0.00e+00	0	30	0	448790528	74	4426
2026-01-03 09:57:43.61	164.61	29.59	-54.9	-56.5	14.4	0.00e+00	0	30	0	450887680	74	4716
2026-01-03 09:57:44.62	164.66	29.78	-54.6	-56.1	14.5	0.00e+00	0	30	0	451936256	74	4545
2026-01-03 09:57:45.63	164.72	29.97	-54.6	-56.1	14.6	0.00e+00	0	30	0	454033408	74	4519
2026-01-03 09:57:46.64	164.77	30.16	-55.3	-57.0	14.2	0.00e+00	0	30	0	456130560	75	4756
2026-01-03 09:57:47.64	164.82	30.35	-54.9	-56.5	14.5	0.00e+00	0	30	0	458227712	75	4472
2026-01-03 09:57:48.65	164.87	30.54	-54.9	-56.5	14.5	0.00e+00	0	30	0	460324864	75	4449
2026-01-03 09:57:49.65	164.92	30.74	-55.3	-57.1	14.3	0.00e+00	0	30	0	461373440	75	4774
2026-01-03 09:57:50.66	164.98	30.93	-55.0	-56.7	14.4	0.00e+00	0	30	0	463470592	75	4557
2026-01-03 09:57:51.67	165.03	31.13	-55.4	-57.2	14.2	0.00e+00	0	30	0	465567744	76	4567
2026-01-03 09:57:52.68	165.09	31.33	-56.0	-58.0	14.0	0.00e+00	0	30	0	467664896	77	4742
2026-01-03 09:57:53.68	165.14	31.53	-56.2	-58.2	13.8	0.00e+00	0	30	0	469762048	77	4863
2026-01-03 09:57:54.69	165.20	31.73	-56.6	-59.0	13.5	0.00e+00	0	30	0	470810624	78	4985
2026-01-03 09:57:55.70	165.26	31.94	-57.0	-59.6	13.2	0.00e+00	0	31	0	472907776	79	5098
2026-01-03 09:57:56.71	165.32	32.14	-57.4	-60.2	12.7	0.00e+00	0	31	0	475004928	80	5149
2026-01-03 09:57:57.72	165.37	32.35	-57.2	-59.9	13.0	0.00e+00	0	30	0	477102080	80	4962
2026-01-03 09:57:58.73	165.43	32.56	-57.3	-60.1	12.9	0.00e+00	0	30	0	479199232	80	5042
2026-01-03 09:57:59.74	165.49	32.76	-57.1	-59.8	13.1	0.00e+00	0	31	0	480247808	80	4874
2026-01-03 09:58:00.75	165.55	32.98	-57.2	-59.9	13.0	0.00e+00	0	31	0	482344960	80	4943
2026-01-03 09:58:01.76	165.62	33.19	-57.4	-60.1	12.9	0.00e+00	0	31	0	484442112	80	5100
2026-01-03 09:58:02.76	165.68	33.40	-57.3	-60.1	12.9	0.00e+00	0	30	0	486539264	80	5077
2026-01-03 09:58:03.77	165.74	33.61	-57.5	-60.4	12.7	0.00e+00	0	30	0	488636416	80	5248
2026-01-03 09:58:04.78	165.80	33.83	-57.0	-59.5	13.3	0.00e+00	0	30	0	490733568	80	4727
2026-01-03 09:58:05.79	165.87	34.05	-56.9	-59.3	13.4	0.00e+00	0	31	0	491782144	79	4920
2026-01-03 09:58:06.80	165.93	34.27	-56.5	-58.8	13.6	0.00e+00	0	30	0	493879296	79	4639
2026-01-03 09:58:07.81	166.00	34.49	-55.6	-57.4	14.2	0.00e+00	0	31	0	495976448	77	4440
2026-01-03 09:58:08.82	166.07	34.71	-55.3	-57.1	14.4	0.00e+00	0	31	0	498073600	77	4250
2026-01-03 09:58:09.82	166.13	34.93	-55.1	-56.7	14.5	0.00e+00	0	30	0	500170752	76	4319
2026-01-03 09:58:10.83	166.20	35.16	-54.6	-56.1	14.7	0.00e+00	0	30	0	501219328	75	4255
2026-01-03 09:58:11.90	166.28	35.40	-54.5	-55.9	14.8	0.00e+00	0	31	0	503316480	75	4172
2026-01-03 09:58:12.76	166.34	35.59	-54.1	-55.5	14.9	0.00e+00	0	30	0	505413632	74	4205
2026-01-03 09:58:13.91	166.42	35.86	-54.1	-55.5	14.9	0.00e+00	0	31	0	507510784	74	4220
2026-01-03 09:58:14.78	166.48	36.06	-53.9	-55.2	15.0	0.00e+00	0	31	0	508559360	74	4066
2026-01-03 09:58:15.93	166.56	36.32	-53.9	-55.2	15.0	0.00e+00	0	31	0	510656512	74	4093
2026-01-03 09:58:16.79	166.63	36.52	-53.8	-55.1	15.0	0.00e+00	0	31	0	512753664	73	4245
2026-01-03 09:58:17.94	166.71	36.79	-53.8	-55.1	15.0	0.00e+00	0	31	0	514850816	73	4258
2026-01-03 09:58:18.81	166.78	37.00	-53.9	-55.2	14.9	0.00e+00	0	30	0	515899392	73	4323
2026-01-03 09:58:19.96	166.87	37.27	-53.7	-55.0	15.0	0.00e+00	0	31	0	519045120	73	4217
2026-01-03 09:58:20.83	166.94	37.48	-54.1	-55.4	14.8	0.00e+00	0	31	0	520093696	73	4431
2026-01-03 09:58:21.98	167.03	37.76	-54.0	-55.3	14.9	0.00e+00	0	30	0	522190848	74	4131
2026-01-03 09:58:22.84	167.10	37.96	-54.5	-55.9	14.7	0.00e+00	0	30	0	524288000	74	4422
2026-01-03 09:58:24.00	167.19	38.25	-54.3	-55.6	14.8	0.00e+00	0	31	0	526385152	74	4291
2026-01-03 09:58:24.87	167.26	38.46	-54.1	-55.4	14.9	0.00e+00	0	30	0	527433728	74	4182
2026-01-03 09:58:26.02	167.36	38.75	-54.0	-55.3	15.0	0.00e+00	0	30	0	529530880	74	4121
2026-01-03 09:58:26.89	167.43	38.97	-53.9	-55.2	15.1	0.00e+00	0	30	0	531628032	74	4063
2026-01-03 09:58:28.04	167.53	39.26	-54.1	-55.4	14.9	0.00e+00	0	30	0	533725184	74	4190
2026-01-03 09:58:28.90	167.61	39.47	-54.2	-55.6	14.9	0.00e+00	0	30	0	535822336	74	4257
2026-01-03 09:58:30.05	167.71	39.77	-54.4	-55.8	14.8	0.00e+00	0	30	0	537919488	74	4377
2026-01-03 09:58:30.92	167.79	39.99	-54.5	-56.0	14.7	0.00e+00	0	30	0	538968064	74	4445
2026-01-03 09:58:32.07	167.89	40.29	-54.7	-56.3	14.6	0.00e+00	0	30	0	541065216	75	4344
2026-01-03 09:58:32.93	167.97	40.51	-54.9	-56.5	14.6	0.00e+00	0	31	0	543162368	75	4458
2026-01-03 09:58:34.08	168.08	40.81	-54.8	-56.4	14.5	0.00e+00	0	30	0	545259520	75	4413
2026-01-03 09:58:34.95	168.16	41.04	-55.0	-56.7	14.5	0.00e+00	0	30	0	546308096	75	4551
2026-01-03 09:58:36.10	168.28	41.35	-55.0	-56.6	14.6	0.00e+00	0	30	0	548405248	75	4502
2026-01-03 09:58:36.96	168.36	41.58	-54.9	-56.4	14.6	0.00e+00	0	31	0	550502400	75	4412
2026-01-03 09:58:38.11	168.48	41.89	-54.7	-56.1	14.7	0.00e+00	0	31	0	552599552	75	4287
2026-01-03 09:58:38.98	168.57	42.13	-53.7	-55.2	15.0	0.00e+00	0	30	0	554696704	74	4058
2026-01-03 09:58:40.13	168.69	42.44	-54.3	-55.7	14.9	0.00e+00	0	30	0	556793856	74	4301
2026-01-03 09:58:40.99	168.78	42.68	-53.9	-55.1	15.1	0.00e+00	0	30	0	557842432	74	4025
2026-01-03 09:58:42.14	168.90	43.00	-53.7	-54.9	15.2	0.00e+00	0	30	0	559939584	73	4159
2026-01-03 09:58:43.01	169.00	43.24	-53.4	-54.5	15.1	0.00e+00	0	31	0	562036736	72	4226
2026-01-03 09:58:44.16	169.12	43.57	-53.4	-54.6	15.1	0.00e+00	0	31	0	564133888	72	4262
2026-01-03 09:58:45.03	169.22	43.82	-53.4	-54.6	15.1	0.00e+00	0	30	0	565182464	72	4271
2026-01-03 09:58:46.18	169.35	44.14	-53.7	-54.9	15.0	0.00e+00	0	31	0	567279616	73	4188
2026-01-03 09:58:47.04	169.46	44.39	-54.1	-55.4	14.9	0.00e+00	0	31	0	569376768	73	4411
2026-01-03 09:58:48.20	169.59	44.73	-54.1	-55.5	14.8	0.00e+00	0	31	0	571473920	73	4462
2026-01-03 09:58:49.06	169.70	44.98	-55.1	-56.7	14.5	0.00e+00	0	31	0	573571072	75	4585
2026-01-03 09:58:50.21	169.84	45.32	-55.2	-56.8	14.5	0.00e+00	0	31	0	575668224	75	4649
2026-01-03 09:58:51.07	169.95	45.57	-55.7	-57.5	14.2	0.00e+00	0	31	0	576716800	76	4725
2026-01-03 09:58:52.22	170.10	45.91	-56.1	-58.1	14.0	0.00e+00	0	31	0	578813952	77	4760
2026-01-03 09:58:53.09	170.21	46.18	-56.0	-57.9	14.1	0.00e+00	0	31	0	580911104	78	4438
2026-01-03 09:58:54.24	170.36	46.52	-56.5	-58.6	13.7	0.00e+00	0	31	0	583008256	78	4812
2026-01-03 09:58:55.10	170.48	46.78	-56.4	-58.5	13.8	0.00e+00	0	30	0	584056832	78	4706
2026-01-03 09:58:56.26	170.64	47.14	-56.3	-58.4	13.9	0.00e+00	0	30	0	586153984	78	4656
2026-01-03 09:58:57.12	170.76	47.41	-55.7	-57.5	14.3	0.00e+00	0	31	0	588251136	77	4471
2026-01-03 09:58:58.27	170.93	47.76	-55.3	-57.0	14.5	0.00e+00	0	30	0	590348288	77	4198
2026-01-03 09:58:59.13	171.05	48.03	-54.9	-56.3	14.7	0.00e+00	0	30	0	592445440	76	4136
2026-01-03 09:59:00.29	171.23	48.40	-54.3	-55.7	14.9	0.00e+00	0	30	0	594542592	75	4067
2026-01-03 09:59:01.15	171.36	48.67	-54.1	-55.5	14.9	0.00e+00	0	31	0	595591168	74	4194
2026-01-03 09:59:02.30	171.54	49.04	-53.9	-55.2	15.1	0.00e+00	0	30	0	597688320	74	4067
2026-01-03 09:59:03.17	171.67	49.31	-53.5	-54.7	15.1	0.00e+00	0	30	0	599785472	73	4072
2026-01-03 09:59:04.32	171.86	49.69	-53.2	-54.3	15.2	0.00e+00	0	31	0	601882624	72	4136
2026-01-03 09:59:05.18	172.00	49.97	-53.0	-54.1	15.3	0.00e+00	0	31	0	602931200	72	4046
2026-01-03 09:59:06.34	172.20	50.35	-52.5	-53.5	15.4	0.00e+00	0	30	0	605028352	71	4004
2026-01-03 09:59:07.20	172.35	50.63	-52.8	-53.9	15.3	0.00e+00	0	31	0	607125504	71	4151
2026-01-03 09:59:08.36	172.55	51.01	-52.7	-53.7	15.4	0.00e+00	0	31	0	609222656	71	4083
2026-01-03 09:59:09.22	172.71	51.30	-52.9	-54.0	15.3	0.00e+00	0	31	0	611319808	71	4209
2026-01-03 09:59:10.37	172.92	51.69	-52.7	-53.8	15.3	0.00e+00	0	31	0	613416960	71	4103
2026-01-03 09:59:11.24	173.08	51.98	-52.7	-53.8	15.4	0.00e+00	0	31	0	614465536	71	4101
2026-01-03 09:59:12.40	173.31	52.37	-52.4	-53.4	15.4	0.00e+00	0	31	0	616562688	70	4179
2026-01-03 09:59:13.26	173.48	52.67	-52.4	-53.5	15.4	0.00e+00	0	30	0	618659840	70	4210
2026-01-03 09:59:14.42	173.71	53.07	-52.1	-53.1	15.5	0.00e+00	0	31	0	620756992	70	4008
2026-01-03 09:59:15.28	173.89	53.36	-51.9	-52.9	15.5	0.00e+00	0	31	0	621805568	70	3940
2026-01-03 09:59:16.43	174.13	53.77	-51.6	-52.5	15.6	0.00e+00	0	30	0	624951296	69	3964
2026-01-03 09:59:17.30	174.32	54.07	-51.3	-52.2	15.7	0.00e+00	0	31	0	625999872	69	3839
2026-01-03 09:59:18.45	174.58	54.47	-51.5	-52.5	15.6	0.00e+00	0	30	0	628097024	69	3959
2026-01-03 09:59:19.31	174.77	54.78	-51.7	-52.6	15.5	0.00e+00	0	30	0	630194176	69	4046
2026-01-03 09:59:20.47	175.04	55.19	-51.9	-52.9	15.5	0.00e+00	0	31	0	632291328	69	4177
2026-01-03 09:59:21.33	175.25	55.50	-51.8	-52.7	15.5	0.00e+00	0	30	0	633339904	69	4097
2026-01-03 09:59:22.48	175.53	55.91	-51.6	-52.6	15.6	0.00e+00	0	31	0	635437056	69	4007
2026-01-03 09:59:23.35	175.75	56.23	-51.3	-52.2	15.6	0.00e+00	0	30	0	637534208	68	4062
2026-01-03 09:59:24.50	176.04	56.65	-51.1	-52.0	15.7	0.00e+00	0	31	0	639631360	68	3963
2026-01-03 09:59:25.37	176.28	56.96	-50.4	-51.2	15.8	0.00e+00	0	30	0	641728512	67	3852
2026-01-03 09:59:26.52	176.59	57.39	-50.9	-51.8	15.6	0.00e+00	0	30	0	643825664	67	4106
2026-01-03 09:59:27.39	176.83	57.71	-50.7	-51.5	15.7	0.00e+00	0	31	0	644874240	67	3985
2026-01-03 09:59:28.54	177.16	58.13	-50.9	-51.7	15.6	0.00e+00	0	31	0	646971392	67	4092
2026-01-03 09:59:29.41	177.42	58.46	-51.1	-51.9	15.5	0.00e+00	0	31	0	649068544	67	4175
2026-01-03 09:59:30.56	177.77	58.89	-51.2	-52.1	15.5	0.00e+00	0	31	0	651165696	67	4265
2026-01-03 09:59:31.42	178.04	59.21	-51.8	-52.8	15.4	0.00e+00	0	30	0	652214272	68	4342
2026-01-03 09:59:32.58	178.41	59.65	-52.3	-53.3	15.3	0.00e+00	0	31	0	654311424	69	4385
2026-01-03 09:59:33.44	178.69	59.98	-52.5	-53.5	15.4	0.00e+00	0	31	0	656408576	70	4222
2026-01-03 09:59:34.59	179.09	60.41	-52.1	-53.0	15.5	0.00e+00	0	31	0	658505728	70	3983
2026-01-03 09:59:35.45	179.39	60.74	-51.6	-52.5	15.6	0.00e+00	0	31	0	660602880	69	3970
2026-01-03 09:59:36.60	179.80	61.18	-51.5	-52.3	15.6	0.00e+00	0	31	0	662700032	69	3909
2026-01-03 09:59:37.46	180.12	61.51	-51.6	-52.4	15.6	0.00e+00	0	31	0	663748608	69	3955
2026-01-03 09:59:38.62	180.57	61.96	-51.7	-52.6	15.5	0.00e+00	0	30	0	665845760	69	4028
2026-01-03 09:59:39.49	180.92	62.29	-51.9	-52.8	15.5	0.00e+00	0	30	0	667942912	69	4128
2026-01-03 09:59:40.64	181.39	62.74	-51.9	-52.9	15.5	0.00e+00	0	31	0	670040064	69	4148
2026-01-03 09:59:41.50	181.75	63.07	-51.6	-52.5	15.6	0.00e+00	0	30	0	671088640	69	3966
2026-01-03 09:59:42.66	182.26	63.53	-51.8	-52.7	15.5	0.00e+00	0	31	0	673185792	69	4073
2026-01-03 09:59:43.52	182.65	63.86	-51.6	-52.5	15.6	0.00e+00	0	30	0	675282944	69	3993
2026-01-03 09:59:44.67	183.18	64.31	-51.6	-52.5	15.6	0.00e+00	0	31	0	677380096	69	4004
2026-01-03 09:59:45.54	183.61	64.65	-51.9	-52.8	15.5	0.00e+00	0	31	0	679477248	69	4127
2026-01-03 09:59:46.69	184.18	65.10	-52.2	-53.2	15.4	0.00e+00	0	30	0	681574400	69	4312
2026-01-03 09:59:47.55	184.63	65.44	-52.4	-53.4	15.4	0.00e+00	0	30	0	682622976	70	4158
2026-01-03 09:59:48.70	185.24	65.89	-52.7	-53.7	15.3	0.00e+00	0	31	0	684720128	70	4336
2026-01-03 09:59:49.56	185.72	66.22	-52.8	-53.8	15.3	0.00e+00	0	30	0	686817280	71	4129
2026-01-03 09:59:50.71	186.39	66.67	-52.8	-53.8	15.4	0.00e+00	0	30	0	688914432	71	4136
2026-01-03 09:59:51.58	186.91	67.01	-53.2	-54.3	15.2	0.00e+00	0	30	0	689963008	71	4344
2026-01-03 09:59:52.73	187.62	67.46	-53.7	-54.9	15.0	0.00e+00	0	31	0	692060160	72	4430
2026-01-03 09:59:53.60	188.18	67.80	-53.9	-55.2	15.0	0.00e+00	0	31	0	694157312	73	4308
2026-01-03 09:59:54.75	188.95	68.25	-54.4	-55.7	14.8	0.00e+00	0	31	0	696254464	73	4594
2026-01-03 09:59:55.62	189.56	68.59	-54.9	-56.3	14.7	0.00e+00	0	31	0	698351616	74	4636
2026-01-03 09:59:56.77	190.39	69.03	-56.3	-58.4	13.9	0.00e+00	0	30	0	700448768	77	4929
2026-01-03 09:59:57.63	191.04	69.36	-57.0	-59.3	13.5	0.00e+00	0	30	0	701497344	79	4921
2026-01-03 09:59:58.78	191.94	69.80	-57.0	-59.3	13.5	0.00e+00	0	31	0	703594496	80	4629
2026-01-03 09:59:59.65	192.66	70.14	-57.1	-59.5	13.4	0.00e+00	0	31	0	705691648	80	4734
2026-01-03 10:00:00.80	193.63	70.57	-56.7	-58.9	13.8	0.00e+00	0	31	0	707788800	79	4656
2026-01-03 10:00:01.67	194.41	70.90	-56.3	-58.3	14.0	0.00e+00	0	31	0	708837376	78	4621
2026-01-03 10:00:02.82	195.47	71.33	-55.6	-57.3	14.4	0.00e+00	0	31	0	711983104	77	4347
2026-01-03 10:00:03.69	196.31	71.65	-55.1	-56.6	14.6	0.00e+00	0	31	0	713031680	76	4286
2026-01-03 10:00:04.83	197.46	72.06	-55.4	-57.0	14.6	0.00e+00	0	31	0	715128832	76	4449
2026-01-03 10:00:05.70	198.38	72.38	-55.0	-56.5	14.7	0.00e+00	0	31	0	717225984	76	4213
2026-01-03 10:00:06.85	199.64	72.79	-54.2	-55.5	15.1	0.00e+00	0	31	0	719323136	75	3964
2026-01-03 10:00:07.72	200.64	73.09	-54.4	-55.7	14.9	0.00e+00	0	31	0	720371712	74	4325
2026-01-03 10:00:08.87	202.01	73.49	-55.1	-56.6	14.6	0.00e+00	0	31	0	722468864	75	4523
2026-01-03 10:00:09.73	203.09	73.78	-55.8	-57.5	14.3	0.00e+00	0	31	0	724566016	76	4742
2026-01-03 10:00:10.89	204.61	74.17	-56.2	-58.2	14.0	0.00e+00	0	31	0	726663168	78	4560
2026-01-03 10:00:11.75	205.78	74.45	-55.0	-56.5	14.7	0.00e+00	0	31	0	727711744	76	4237
2026-01-03 10:00:12.90	207.42	74.81	-53.8	-54.9	15.2	0.00e+00	0	31	0	729808896	74	3948
2026-01-03 10:00:13.77	208.71	75.08	-53.6	-54.7	15.2	0.00e+00	0	30	0	731906048	73	4096
2026-01-03 10:00:14.92	210.50	75.42	-53.9	-55.1	15.1	0.00e+00	0	31	0	734003200	73	4289
2026-01-03 10:00:15.78	211.89	75.67	-54.0	-55.3	15.0	0.00e+00	0	30	0	736100352	73	4379
2026-01-03 10:00:16.93	213.83	75.99	-55.7	-57.4	14.2	0.00e+00	0	31	0	738197504	76	4700
2026-01-03 10:00:17.80	215.36	76.22	-57.0	-59.4	13.5	0.00e+00	0	30	0	739246080	79	4957
2026-01-03 10:00:18.95	217.46	76.51	-57.3	-59.8	13.3	0.00e+00	0	31	0	741343232	81	4646
2026-01-03 10:00:19.82	219.11	76.72	-56.7	-58.8	13.9	0.00e+00	0	31	0	743440384	79	4645
2026-01-03 10:00:20.97	221.37	76.98	-55.5	-57.1	14.6	0.00e+00	0	31	0	745537536	77	4255
2026-01-03 10:00:21.84	223.15	77.17	-55.7	-57.3	14.5	0.00e+00	0	31	0	746586112	77	4386
2026-01-03 10:00:22.99	225.57	77.39	-54.9	-56.3	14.8	0.00e+00	0	31	0	749731840	76	4129
2026-01-03 10:00:23.86	227.46	77.54	-54.4	-55.7	15.0	0.00e+00	0	30	0	750780416	75	4093
2026-01-03 10:00:25.01	230.02	77.73	-55.4	-56.9	14.5	0.00e+00	0	31	0	752877568	75	4694
2026-01-03 10:00:25.87	231.99	77.85	-57.1	-59.4	13.5	0.00e+00	0	31	0	754974720	79	4971
2026-01-03 10:00:27.02	234.68	77.99	-57.5	-60.2	13.1	0.00e+00	0	30	0	757071872	80	5127
2026-01-03 10:00:27.89	236.75	78.08	-57.0	-59.2	13.6	0.00e+00	0	31	0	758120448	80	4583
2026-01-03 10:00:29.04	239.54	78.17	-57.3	-59.8	13.4	0.00e+00	0	31	0	760217600	80	4879
2026-01-03 10:00:29.90	241.65	78.22	-57.0	-59.1	13.7	0.00e+00	0	31	0	762314752	79	4814
2026-01-03 10:00:31.05	244.50	78.27	-57.5	-60.1	13.1	0.00e+00	0	30	0	764411904	80	5082
2026-01-03 10:00:31.92	246.66	78.28	-57.5	-60.0	13.2	0.00e+00	0	31	0	766509056	81	4734
2026-01-03 10:00:33.07	249.52	78.28	-57.4	-59.9	13.3	0.00e+00	0	31	0	768606208	81	4693
2026-01-03 10:00:33.93	251.65	78.25	-57.0	-59.3	13.7	0.00e+00	0	31	0	769654784	80	4600
2026-01-03 10:00:35.08	254.49	78.20	-56.0	-57.7	14.4	0.00e+00	0	31	0	771751936	78	4316
2026-01-03 10:00:35.95	256.61	78.14	-56.0	-57.8	14.3	0.00e+00	0	31	0	773849088	78	4347
2026-01-03 10:00:37.10	259.38	78.03	-56.0	-57.8	14.2	0.00e+00	0	31	0	775946240	77	4617
2026-01-03 10:00:37.96	261.42	77.94	-56.5	-58.4	14.0	0.00e+00	0	31	0	776994816	78	4693
2026-01-03 10:00:39.11	264.09	77.79	-58.7	-62.2	11.9	0.00e+00	0	31	0	779091968	82	5784
2026-01-03 10:00:39.98	266.06	77.66	-58.4	-61.7	12.3	1.01e-04	0	31	0	781189120	83	5120
2026-01-03 10:00:41.13	268.59	77.47	-56.9	-59.0	13.8	0.00e+00	0	30	0	783286272	80	4466
2026-01-03 10:00:42.00	270.46	77.31	-56.6	-58.6	13.9	0.00e+00	0	31	0	785383424	79	4544
2026-01-03 10:00:43.15	272.84	77.08	-56.9	-59.0	13.7	0.00e+00	0	31	0	787480576	79	4732
2026-01-03 10:00:44.02	274.59	76.89	-57.0	-59.2	13.6	0.00e+00	0	31	0	788529152	79	4833
2026-01-03 10:00:45.17	276.82	76.62	-57.7	-60.5	13.0	0.00e+00	0	31	0	790626304	80	5297
2026-01-03 10:00:46.03	278.42	76.41	-58.2	-61.4	12.4	0.00e+00	0	31	0	792723456	82	5248
2026-01-03 10:00:47.18	280.49	76.12	-56.7	-58.9	13.9	0.00e+00	0	31	0	794820608	79	4655
2026-01-03 10:00:48.05	281.99	75.88	-56.4	-58.3	14.0	0.00e+00	0	31	0	795869184	78	4638
2026-01-03 10:00:49.20	283.90	75.56	-56.4	-58.4	14.0	0.00e+00	0	31	0	797966336	78	4685
2026-01-03 10:00:50.06	285.27	75.30	-56.7	-58.7	13.8	0.00e+00	0	31	0	800063488	78	4867
2026-01-03 10:00:51.21	287.02	74.96	-56.5	-58.5	13.9	0.00e+00	0	30	0	802160640	78	4727
2026-01-03 10:00:52.07	288.28	74.69	-56.1	-58.0	14.2	0.00e+00	0	31	0	804257792	78	4462
2026-01-03 10:00:53.23	289.90	74.32	-55.3	-56.9	14.7	0.00e+00	0	30	0	806354944	77	4156
2026-01-03 10:00:54.09	291.06	74.04	-55.2	-56.7	14.7	0.00e+00	0	31	0	807403520	76	4307
2026-01-03 10:00:55.24	292.53	73.65	-54.4	-55.7	15.0	0.00e+00	0	31	0	809500672	75	4058
2026-01-03 10:00:56.11	293.60	73.35	-53.4	-54.5	15.3	0.00e+00	0	31	0	811597824	73	3974
2026-01-03 10:00:57.26	294.96	72.95	-55.0	-56.4	14.7	0.00e+00	0	31	0	813694976	75	4423
2026-01-03 10:00:58.13	295.94	72.65	-55.5	-57.1	14.5	0.00e+00	0	31	0	814743552	76	4543
2026-01-03 10:00:59.28	297.18	72.24	-55.7	-57.4	14.3	0.00e+00	0	31	0	816840704	76	4690
2026-01-03 10:01:00.15	298.07	71.92	-56.4	-58.5	14.0	0.00e+00	0	30	0	818937856	78	4711
2026-01-03 10:01:01.30	299.21	71.50	-58.0	-61.0	12.7	0.00e+00	0	30	0	821035008	81	5327
2026-01-03 10:01:02.16	300.03	71.18	-57.9	-60.8	12.8	7.00e-07	0	31	0	823132160	81	5203
2026-01-03 10:01:03.32	301.08	70.75	-57.7	-60.5	13.0	0.00e+00	0	30	0	825229312	81	5032
2026-01-03 10:01:04.18	301.83	70.42	-57.0	-59.2	13.7	0.00e+00	0	31	0	826277888	80	4564
2026-01-03 10:01:05.33	302.80	69.99	-56.1	-57.9	14.3	0.00e+00	0	31	0	828375040	78	4403
2026-01-03 10:01:06.19	303.49	69.66	-55.3	-56.8	14.7	0.00e+00	0	31	0	830472192	77	4111
2026-01-03 10:01:07.34	304.38	69.22	-55.6	-57.1	14.5	0.00e+00	0	31	0	832569344	76	4535
2026-01-03 10:01:08.21	305.02	68.88	-55.3	-56.9	14.6	0.00e+00	0	31	0	833617920	76	4396
2026-01-03 10:01:09.36	305.84	68.44	-54.5	-55.8	14.9	0.00e+00	0	31	0	835715072	75	4137
2026-01-03 10:01:10.22	306.43	68.11	-54.9	-56.3	14.8	0.00e+00	0	31	0	837812224	75	4369
2026-01-03 10:01:11.37	307.19	67.66	-54.8	-56.3	14.8	0.00e+00	0	31	0	839909376	75	4358
2026-01-03 10:01:12.24	307.74	67.32	-54.1	-55.3	15.1	0.00e+00	0	31	0	842006528	74	4116
2026-01-03 10:01:13.39	308.45	66.87	-54.4	-55.8	14.9	0.00e+00	0	30	0	844103680	74	4343
2026-01-03 10:01:14.26	308.96	66.53	-54.8	-56.3	14.8	0.00e+00	0	31	0	845152256	75	4361
2026-01-03 10:01:15.41	309.61	66.08	-52.7	-53.7	15.5	0.00e+00	0	31	0	847249408	72	3853
2026-01-03 10:01:16.27	310.08	65.75	-52.1	-53.0	15.6	0.00e+00	0	30	0	849346560	70	4000
2026-01-03 10:01:17.42	310.69	65.30	-51.6	-52.5	15.7	0.00e+00	0	31	0	851443712	69	3964
2026-01-03 10:01:18.29	311.14	64.96	-51.4	-52.2	15.7	0.00e+00	0	31	0	852492288	69	3851
2026-01-03 10:01:19.44	311.70	64.51	-50.4	-51.2	15.8	0.00e+00	0	30	0	854589440	67	3854
2026-01-03 10:01:20.30	312.11	64.17	-50.3	-51.1	15.8	0.00e+00	0	31	0	856686592	66	4028
2026-01-03 10:01:21.45	312.64	63.72	-50.7	-51.5	15.6	0.00e+00	0	30	0	858783744	66	4233
2026-01-03 10:01:22.32	313.03	63.39	-50.7	-51.5	15.6	0.00e+00	0	31	0	860880896	66	4219
2026-01-03 10:01:23.47	313.53	62.94	-51.0	-51.8	15.7	0.00e+00	0	31	0	862978048	67	4109
2026-01-03 10:01:24.34	313.89	62.60	-51.1	-51.9	15.6	0.00e+00	0	30	0	864026624	67	4184
2026-01-03 10:01:25.48	314.35	62.16	-52.1	-53.1	15.5	0.00e+00	0	31	0	866123776	69	4261
2026-01-03 10:01:26.35	314.69	61.83	-51.9	-52.8	15.5	0.00e+00	0	31	0	868220928	69	4118
2026-01-03 10:01:27.50	315.13	61.39	-52.3	-53.2	15.5	0.00e+00	0	30	0	870318080	70	4085
2026-01-03 10:01:28.36	315.45	61.06	-53.0	-54.1	15.3	0.00e+00	0	31	0	871366656	71	4246
2026-01-03 10:01:29.52	315.86	60.61	-54.0	-55.2	15.1	0.00e+00	0	31	0	874512384	73	4319
2026-01-03 10:01:30.37	316.16	60.29	-53.9	-55.1	15.1	0.00e+00	0	30	0	875560960	73	4268
2026-01-03 10:01:31.53	316.55	59.85	-53.5	-54.6	15.2	0.00e+00	0	31	0	877658112	72	4266
2026-01-03 10:01:32.39	316.83	59.53	-53.9	-55.1	15.0	0.00e+00	0	31	0	879755264	72	4514
2026-01-03 10:01:33.54	317.20	59.10	-54.2	-55.5	15.0	0.00e+00	0	30	0	881852416	74	4228
2026-01-03 10:01:34.41	317.46	58.77	-53.6	-54.8	15.2	0.00e+00	0	31	0	882900992	73	4103
2026-01-03 10:01:35.56	317.81	58.34	-52.4	-53.4	15.4	0.00e+00	0	31	0	884998144	71	3930
2026-01-03 10:01:36.42	318.06	58.02	-52.6	-53.5	15.5	0.00e+00	0	30	0	887095296	71	3998
2026-01-03 10:01:37.57	318.39	57.60	-53.4	-54.5	15.1	0.00e+00	0	30	0	889192448	71	4476
2026-01-03 10:01:38.44	318.63	57.28	-52.7	-53.8	15.4	0.00e+00	0	31	0	890241024	71	4099
2026-01-03 10:01:39.59	318.94	56.86	-51.8	-52.7	15.6	0.00e+00	0	30	0	893386752	70	3845
2026-01-03 10:01:40.45	319.16	56.54	-51.5	-52.4	15.7	0.00e+00	0	31	0	894435328	69	3917
2026-01-03 10:01:41.61	319.46	56.12	-51.5	-52.4	15.7	0.00e+00	0	30	0	896532480	69	3914
2026-01-03 10:01:42.47	319.68	55.82	-51.3	-52.1	15.7	0.00e+00	0	31	0	898629632	68	4024
2026-01-03 10:01:43.62	319.95	55.40	-51.8	-52.7	15.6	0.00e+00	0	30	0	900726784	69	4093
2026-01-03 10:01:44.49	320.16	55.09	-52.3	-53.3	15.4	0.00e+00	0	31	0	901775360	69	4386
2026-01-03 10:01:45.64	320.43	54.69	-52.8	-54.0	15.3	0.00e+00	0	30	0	903872512	70	4449
2026-01-03 10:01:46.51	320.62	54.38	-52.6	-53.7	15.4	0.00e+00	0	31	0	905969664	71	4093
2026-01-03 10:01:47.66	320.88	53.98	-52.3	-53.4	15.6	0.00e+00	0	31	0	908066816	71	3915
2026-01-03 10:01:48.53	321.06	53.67	-52.3	-53.2	15.6	0.00e+00	0	30	0	910163968	71	3859
2026-01-03 10:01:49.68	321.30	53.27	-51.9	-52.8	15.6	0.00e+00	0	31	0	912261120	70	3900
2026-01-03 10:01:50.54	321.48	52.98	-52.1	-53.0	15.5	0.00e+00	0	30	0	913309696	69	4240
2026-01-03 10:01:51.69	321.71	52.58	-53.1	-54.1	15.3	0.00e+00	0	31	0	915406848	71	4289
2026-01-03 10:01:52.56	321.88	52.29	-54.7	-56.1	14.8	0.00e+00	0	31	0	917504000	74	4544
2026-01-03 10:01:53.71	322.10	51.90	-56.5	-58.7	13.8	0.00e+00	0	31	0	919601152	78	4856
2026-01-03 10:01:54.58	322.26	51.61	-55.7	-57.5	14.4	0.00e+00	0	31	0	920649728	78	4223
2026-01-03 10:01:55.73	322.47	51.22	-54.7	-56.2	14.9	0.00e+00	0	31	0	922746880	76	4052
2026-01-03 10:01:56.59	322.63	50.94	-53.7	-54.9	15.2	0.00e+00	0	30	0	924844032	74	3917
2026-01-03 10:01:57.74	322.83	50.56	-53.2	-54.3	15.3	0.00e+00	0	30	0	926941184	72	4103
2026-01-03 10:01:58.61	322.98	50.27	-54.0	-55.2	15.1	0.00e+00	0	31	0	927989760	73	4326
2026-01-03 10:01:59.76	323.17	49.90	-55.8	-57.5	14.3	0.00e+00	0	31	0	931135488	76	4753
2026-01-03 10:02:00.63	323.31	49.62	-56.9	-59.2	13.5	0.00e+00	0	31	0	932184064	78	5138
2026-01-03 10:02:01.78	323.50	49.25	-57.4	-60.0	13.1	0.00e+00	0	31	0	934281216	80	5041
2026-01-03 10:02:02.64	323.63	48.97	-57.9	-60.8	12.7	0.00e+00	0	30	0	936378368	81	5180
2026-01-03 10:02:03.79	323.81	48.61	-57.5	-60.0	13.3	0.00e+00	0	31	0	938475520	81	4716
2026-01-03 10:02:04.66	323.94	48.33	-56.1	-57.9	14.2	0.00e+00	0	31	0	939524096	78	4437
2026-01-03 10:02:05.81	324.11	47.97	-55.2	-56.8	14.7	0.00e+00	0	31	0	941621248	77	4115
2026-01-03 10:02:06.67	324.24	47.71	-54.9	-56.3	14.8	0.00e+00	0	31	0	943718400	76	4131
2026-01-03 10:02:07.82	324.40	47.35	-54.3	-55.7	15.0	0.00e+00	0	31	0	945815552	75	4052
2026-01-03 10:02:08.69	324.53	47.08	-55.3	-56.9	14.5	0.00e+00	0	31	0	947912704	75	4702
2026-01-03 10:02:09.84	324.68	46.73	-56.5	-58.6	13.8	0.00e+00	0	31	0	950009856	78	4794
2026-01-03 10:02:10.70	324.80	46.47	-56.5	-58.6	13.8	0.00e+00	0	31	0	951058432	78	4794
2026-01-03 10:02:11.85	324.95	46.13	-56.7	-58.8	13.7	0.00e+00	0	31	0	953155584	78	4917
2026-01-03 10:02:12.72	325.07	45.87	-56.6	-58.7	13.8	0.00e+00	0	31	0	955252736	78	4860
2026-01-03 10:02:13.87	325.21	45.53	-56.0	-57.8	14.2	0.00e+00	0	30	0	957349888	78	4367
2026-01-03 10:02:14.74	325.32	45.27	-55.0	-56.4	14.8	0.00e+00	0	31	0	958398464	76	4172
2026-01-03 10:02:15.89	325.46	44.93	-54.4	-55.7	15.0	0.00e+00	0	31	0	960495616	75	4093
2026-01-03 10:02:16.75	325.57	44.68	-53.7	-54.9	15.2	0.00e+00	0	31	0	962592768	74	3914
2026-01-03 10:02:17.90	325.70	44.35	-52.9	-53.9	15.4	0.00e+00	0	31	0	964689920	72	3927
2026-01-03 10:02:18.77	325.80	44.10	-52.9	-54.0	15.3	0.00e+00	0	31	0	966787072	71	4211
2026-01-03 10:02:19.92	325.94	43.78	-53.7	-54.9	15.1	0.00e+00	0	31	0	968884224	72	4426
2026-01-03 10:02:20.78	326.03	43.53	-54.3	-55.6	14.9	0.00e+00	0	31	0	969932800	73	4507
2026-01-03 10:02:21.93	326.16	43.21	-55.3	-56.8	14.5	0.00e+00	0	31	0	972029952	76	4368
2026-01-03 10:02:22.79	326.25	42.97	-56.6	-58.8	13.9	0.00e+00	0	30	0	974127104	78	4884
2026-01-03 10:02:23.95	326.38	42.65	-56.4	-58.5	13.9	0.00e+00	0	30	0	976224256	78	4734
2026-01-03 10:02:24.81	326.47	42.42	-56.1	-58.1	14.2	0.00e+00	0	31	0	977272832	78	4519
2026-01-03 10:02:25.96	326.59	42.10	-55.3	-56.9	14.6	0.00e+00	0	30	0	979369984	77	4175
2026-01-03 10:02:26.82	326.68	41.87	-54.2	-55.6	15.0	0.00e+00	0	31	0	981467136	75	4025
2026-01-03 10:02:27.98	326.79	41.56	-53.1	-54.2	15.3	0.00e+00	0	31	0	983564288	72	4054
2026-01-03 10:02:28.85	326.88	41.33	-53.1	-54.2	15.3	0.00e+00	0	31	0	985661440	72	4069
2026-01-03 10:02:30.00	326.99	41.02	-52.9	-53.9	15.4	0.00e+00	0	30	0	987758592	72	3940
2026-01-03 10:02:30.85	327.07	40.80	-52.6	-53.5	15.5	0.00e+00	0	30	0	988807168	71	3997
2026-01-03 10:02:32.01	327.18	40.49	-52.6	-53.6	15.4	0.00e+00	0	31	0	990904320	71	4043
2026-01-03 10:02:32.87	327.26	40.27	-53.0	-54.1	15.2	0.00e+00	0	31	0	993001472	71	4256
2026-01-03 10:02:34.03	327.37	39.97	-53.7	-54.9	15.1	0.00e+00	0	31	0	995098624	72	4410
2026-01-03 10:02:34.89	327.44	39.75	-54.6	-56.0	14.8	0.00e+00	0	31	0	996147200	74	4468
2026-01-03 10:02:36.04	327.54	39.46	-55.7	-57.5	14.2	0.00e+00	0	30	0	998244352	76	4743
2026-01-03 10:02:36.91	327.62	39.24	-56.1	-58.0	14.1	0.00e+00	0	31	0	1000341504	77	4750
2026-01-03 10:02:38.06	327.72	38.95	-55.7	-57.4	14.4	0.00e+00	0	31	0	1002438656	77	4435
2026-01-03 10:02:38.92	327.79	38.74	-55.9	-57.7	14.2	0.00e+00	0	31	0	1004535808	77	4582
2026-01-03 10:02:40.08	327.89	38.45	-54.8	-56.2	14.8	0.00e+00	0	31	0	1006632960	76	4075
2026-01-03 10:02:40.94	327.96	38.24	-53.9	-55.1	15.1	0.00e+00	0	31	0	1007681536	74	4047
2026-01-03 10:02:42.09	328.05	37.96	-53.1	-54.2	15.3	0.00e+00	0	31	0	1009778688	72	4056
2026-01-03 10:02:42.96	328.12	37.75	-52.6	-53.6	15.4	0.00e+00	0	31	0	1011875840	71	4027
2026-01-03 10:02:44.11	328.21	37.48	-52.3	-53.2	15.5	0.00e+00	0	30	0	1013972992	71	3845
2026-01-03 10:02:44.98	328.28	37.27	-52.4	-53.3	15.4	0.00e+00	0	30	0	1015021568	70	4128
2026-01-03 10:02:46.13	328.37	37.00	-52.7	-53.7	15.3	0.00e+00	0	31	0	1018167296	70	4339
2026-01-03 10:02:46.99	328.43	36.79	-53.4	-54.5	15.2	0.00e+00	0	30	0	1019215872	71	4457
2026-01-03 10:02:48.14	328.52	36.53	-54.3	-55.7	14.8	0.00e+00	0	31	0	1021313024	73	4557
2026-01-03 10:02:49.00	328.58	36.33	-55.0	-56.5	14.6	0.00e+00	0	31	0	1023410176	75	4480
2026-01-03 10:02:50.16	328.67	36.06	-55.5	-57.2	14.4	0.00e+00	0	31	0	1025507328	76	4547
2026-01-03 10:02:51.02	328.73	35.86	-55.4	-57.0	14.5	0.00e+00	0	31	0	1026555904	76	4485
2026-01-03 10:02:52.17	328.81	35.60	-55.2	-56.8	14.6	0.00e+00	0	31	0	1028653056	76	4384
2026-01-03 10:02:53.03	328.87	35.41	-54.9	-56.4	14.7	0.00e+00	0	31	0	1030750208	76	4180
2026-01-03 10:02:54.19	328.95	35.15	-54.5	-55.9	14.9	0.00e+00	0	31	0	1032847360	75	4158
2026-01-03 10:02:55.05	329.01	34.96	-54.1	-55.4	15.0	0.00e+00	0	31	0	1033895936	74	4191
2026-01-03 10:02:56.21	329.09	34.70	-54.0	-55.3	15.1	0.00e+00	0	31	0	1035993088	74	4109
2026-01-03 10:02:57.07	329.14	34.51	-54.2	-55.6	15.0	0.00e+00	0	31	0	1038090240	74	4246
2026-01-03 10:02:58.22	329.22	34.26	-54.0	-55.3	15.0	0.00e+00	0	31	0	1040187392	74	4132
2026-01-03 10:02:59.09	329.28	34.08	-54.0	-55.2	15.1	0.00e+00	0	31	0	1042284544	74	4093
2026-01-03 10:03:00.24	329.35	33.83	-54.8	-56.2	14.7	0.00e+00	0	31	0	1044381696	75	4321
2026-01-03 10:03:01.10	329.40	33.65	-55.6	-57.3	14.3	0.00e+00	0	31	0	1045430272	76	4628
2026-01-03 10:03:02.25	329.47	33.40	-55.8	-57.6	14.1	0.00e+00	0	30	0	1047527424	77	4513
2026-01-03 10:03:03.12	329.53	33.22	-55.7	-57.4	14.3	0.00e+00	0	31	0	1049624576	77	4419
2026-01-03 10:03:04.27	329.60	32.98	-56.0	-57.8	14.1	0.00e+00	0	31	0	1051721728	77	4637
2026-01-03 10:03:05.14	329.65	32.80	-55.6	-57.4	14.3	0.00e+00	0	30	0	1052770304	77	4410
2026-01-03 10:03:06.28	329.72	32.56	-55.7	-57.4	14.3	0.00e+00	0	31	0	1055916032	77	4429
2026-01-03 10:03:07.14	329.77	32.39	-55.7	-57.5	14.3	0.00e+00	0	31	0	1056964608	77	4456
2026-01-03 10:03:08.30	329.84	32.15	-55.7	-57.6	14.3	0.00e+00	0	31	0	1059061760	77	4510
2026-01-03 10:03:09.16	329.89	31.98	-55.8	-57.6	14.3	0.00e+00	0	31	0	1061158912	77	4527
2026-01-03 10:03:10.32	329.95	31.75	-56.0	-57.9	14.1	0.00e+00	0	31	0	1063256064	77	4674
2026-01-03 10:03:11.18	330.00	31.57	-56.2	-58.3	13.9	0.00e+00	0	31	0	1064304640	77	4875
2026-01-03 10:03:12.34	330.06	31.35	-56.8	-59.1	13.5	0.00e+00	0	31	0	1066401792	78	5076
2026-01-03 10:03:13.20	330.11	31.18	-56.8	-59.2	13.5	0.00e+00	0	31	0	1068498944	79	4830
2026-01-03 10:03:14.35	330.17	30.95	-57.0	-59.4	13.4	0.00e+00	0	31	0	1070596096	79	4960
2026-01-03 10:03:15.22	330.22	30.78	-57.0	-59.5	13.4	0.00e+00	0	31	0	1072693248	79	5027
2026-01-03 10:03:16.37	330.28	30.56	-57.2	-59.8	13.1	0.00e+00	0	31	0	1074790400	79	5206
2026-01-03 10:03:17.23	330.33	30.40	-56.8	-59.1	13.6	0.00e+00	0	31	0	1075838976	79	4782
2026-01-03 10:03:18.38	330.39	30.18	-56.4	-58.6	13.9	0.00e+00	0	31	0	1077936128	79	4510
2026-01-03 10:03:19.24	330.43	30.02	-56.1	-58.0	14.1	0.00e+00	0	31	0	1080033280	78	4485
2026-01-03 10:03:20.40	330.49	29.80	-55.6	-57.3	14.4	0.00e+00	0	31	0	1082130432	77	4369
2026-01-03 10:03:21.26	330.53	29.64	-55.1	-56.6	14.6	0.00e+00	0	31	0	1083179008	76	4269
2026-01-03 10:03:22.41	330.59	29.42	-55.2	-56.9	14.5	0.00e+00	0	31	0	1085276160	76	4411
2026-01-03 10:03:23.27	330.63	29.27	-55.1	-56.7	14.6	0.00e+00	0	31	0	1087373312	76	4327
2026-01-03 10:03:24.43	330.69	29.05	-55.0	-56.5	14.7	0.00e+00	0	31	0	1089470464	76	4217
2026-01-03 10:03:25.29	330.73	28.90	-55.1	-56.7	14.6	0.00e+00	0	31	0	1091567616	76	4313
2026-01-03 10:03:26.44	330.78	28.69	-55.2	-56.9	14.5	0.00e+00	0	31	0	1093664768	76	4403
2026-01-03 10:03:27.31	330.82	28.53	-55.3	-57.0	14.4	0.00e+00	0	31	0	1094713344	76	4471
2026-01-03 10:03:28.46	330.88	28.33	-55.6	-57.4	14.3	0.00e+00	0	31	0	1096810496	76	4664
2026-01-03 10:03:29.32	330.92	28.18	-55.5	-57.2	14.3	0.00e+00	0	31	0	1098907648	76	4593
2026-01-03 10:03:30.47	330.97	27.98	-55.7	-57.6	14.0	0.00e+00	0	31	0	1101004800	76	4771
2026-01-03 10:03:31.34	331.01	27.82	-55.6	-57.4	14.3	0.00e+00	0	31	0	1102053376	76	4689
2026-01-03 10:03:32.49	331.06	27.62	-55.5	-57.2	14.3	0.00e+00	0	31	0	1104150528	76	4591
2026-01-03 10:03:33.35	331.10	27.47	-55.5	-57.3	14.2	0.00e+00	0	30	0	1106247680	76	4632
2026-01-03 10:03:34.51	331.15	27.28	-55.2	-56.8	14.5	0.00e+00	0	31	0	1108344832	76	4383
2026-01-03 10:03:35.37	331.19	27.13	-54.7	-56.2	14.8	0.00e+00	0	31	0	1110441984	76	4083
2026-01-03 10:03:36.52	331.24	26.93	-54.2	-55.6	14.9	0.00e+00	0	31	0	1112539136	74	4243
2026-01-03 10:03:37.38	331.27	26.79	-54.2	-55.6	14.9	0.00e+00	0	31	0	1113587712	74	4287
2026-01-03 10:03:38.54	331.32	26.60	-53.8	-55.1	15.1	0.00e+00	0	30	0	1115684864	74	4043
2026-01-03 10:03:39.40	331.36	26.45	-53.6	-54.8	15.1	0.00e+00	0	31	0	1117782016	73	4139
2026-01-03 10:03:40.56	331.41	26.26	-52.9	-54.0	15.3	0.00e+00	0	31	0	1119879168	72	3974
2026-01-03 10:03:41.42	331.44	26.12	-52.6	-53.6	15.4	0.00e+00	0	30	0	1120927744	71	4040
2026-01-03 10:03:42.58	331.49	25.93	-52.4	-53.4	15.5	0.00e+00	0	31	0	1123024896	71	3947
2026-01-03 10:03:43.44	331.52	25.79	-52.2	-53.2	15.4	0.00e+00	0	31	0	1125122048	70	4057
2026-01-03 10:03:44.59	331.57	25.60	-51.9	-52.9	15.6	0.00e+00	0	31	0	1127219200	70	3926
2026-01-03 10:03:45.46	331.60	25.47	-51.9	-52.9	15.6	0.00e+00	0	31	0	1129316352	70	3930
2026-01-03 10:03:46.61	331.65	25.28	-51.6	-52.5	15.6	0.00e+00	0	31	0	1131413504	69	3964
2026-01-03 10:03:47.48	331.68	25.14	-51.5	-52.5	15.6	0.00e+00	0	31	0	1132462080	69	3959
2026-01-03 10:03:48.63	331.73	24.96	-51.5	-52.4	15.6	0.00e+00	0	31	0	1134559232	69	3926
2026-01-03 10:03:49.50	331.76	24.83	-51.7	-52.6	15.6	0.00e+00	0	31	0	1136656384	69	4024
2026-01-03 10:03:50.65	331.80	24.65	-51.4	-52.3	15.7	0.00e+00	0	30	0	1138753536	69	3909
2026-01-03 10:03:51.51	331.84	24.51	-51.5	-52.4	15.6	0.00e+00	0	31	0	1139802112	69	3929
2026-01-03 10:03:52.66	331.88	24.34	-51.6	-52.6	15.6	0.00e+00	0	31	0	1142947840	69	4009
2026-01-03 10:03:53.53	331.91	24.20	-51.8	-52.7	15.5	0.00e+00	0	31	0	1143996416	69	4075
2026-01-03 10:03:54.68	331.95	24.03	-51.7	-52.6	15.6	0.00e+00	0	31	0	1146093568	69	4025
2026-01-03 10:03:55.55	331.99	23.90	-51.8	-52.8	15.5	0.00e+00	0	31	0	1148190720	69	4101
2026-01-03 10:03:56.70	332.03	23.73	-51.9	-52.9	15.5	0.00e+00	0	31	0	1150287872	69	4162
2026-01-03 10:03:57.57	332.06	23.60	-51.9	-52.9	15.5	0.00e+00	0	31	0	1151336448	69	4174
2026-01-03 10:03:58.72	332.10	23.42	-52.2	-53.2	15.4	0.00e+00	0	31	0	1153433600	69	4305
2026-01-03 10:03:59.58	332.13	23.30	-52.2	-53.3	15.3	0.00e+00	0	31	0	1155530752	69	4351
2026-01-03 10:04:00.74	332.17	23.13	-52.4	-53.4	15.4	0.00e+00	0	31	0	1157627904	70	4184
2026-01-03 10:04:01.60	332.20	23.00	-52.6	-53.7	15.3	0.00e+00	0	31	0	1158676480	70	4316
2026-01-03 10:04:02.75	332.24	22.83	-52.9	-54.0	15.2	0.00e+00	0	31	0	1160773632	71	4223
2026-01-03 10:04:03.61	332.27	22.71	-53.1	-54.2	15.2	0.00e+00	0	31	0	1162870784	71	4327
2026-01-03 10:04:04.77	332.31	22.54	-53.3	-54.5	15.1	0.00e+00	0	31	0	1164967936	71	4478
2026-01-03 10:04:05.63	332.33	22.42	-53.3	-54.5	15.1	0.00e+00	0	31	0	1167065088	72	4195
2026-01-03 10:04:06.78	332.37	22.26	-53.4	-54.6	15.1	0.00e+00	0	31	0	1169162240	72	4289
2026-01-03 10:04:07.64	332.40	22.14	-53.7	-55.0	15.0	0.00e+00	0	31	0	1170210816	72	4449
2026-01-03 10:04:08.80	332.44	21.97	-53.5	-54.7	15.1	0.00e+00	0	31	0	1172307968	72	4334
2026-01-03 10:04:09.66	332.47	21.85	-53.5	-54.7	15.1	0.00e+00	0	31	0	1174405120	72	4316
2026-01-03 10:04:10.82	332.50	21.69	-53.5	-54.7	15.0	0.00e+00	0	31	0	1176502272	72	4335
2026-01-03 10:04:11.68	332.53	21.57	-53.5	-54.7	15.1	0.00e+00	0	31	0	1177550848	72	4331
2026-01-03 10:04:12.83	332.57	21.42	-53.4	-54.6	15.1	0.00e+00	0	31	0	1180696576	72	4260
2026-01-03 10:04:13.70	332.59	21.30	-53.3	-54.4	15.2	0.00e+00	0	31	0	1181745152	72	4193
2026-01-03 10:04:14.85	332.63	21.14	-53.4	-54.6	15.1	0.00e+00	0	31	0	1183842304	72	4273
2026-01-03 10:04:15.71	332.66	21.02	-53.2	-54.4	15.2	0.00e+00	0	30	0	1185939456	72	4149
2026-01-03 10:04:16.87	332.69	20.87	-53.2	-54.4	15.2	0.00e+00	0	30	0	1188036608	72	4174
2026-01-03 10:04:17.74	332.72	20.75	-53.3	-54.5	15.1	0.00e+00	0	31	0	1189085184	72	4212
2026-01-03 10:04:18.89	332.75	20.60	-53.2	-54.4	15.2	0.00e+00	0	31	0	1191182336	72	4179
2026-01-03 10:04:19.75	332.78	20.49	-53.2	-54.4	15.2	0.00e+00	0	31	0	1193279488	72	4150
2026-01-03 10:04:20.91	332.81	20.33	-53.2	-54.4	15.1	0.00e+00	0	31	0	1195376640	72	4179
2026-01-03 10:04:21.76	332.84	20.22	-53.0	-54.2	15.3	0.00e+00	0	31	0	1197473792	72	4081
2026-01-03 10:04:22.92	332.87	20.07	-53.2	-54.4	15.2	0.00e+00	0	31	0	1199570944	72	4170
2026-01-03 10:04:23.78	332.90	19.96	-53.1	-54.3	15.2	0.00e+00	0	31	0	1200619520	72	4132
2026-01-03 10:04:24.94	332.93	19.81	-53.1	-54.3	15.2	0.00e+00	0	31	0	1202716672	72	4134
2026-01-03 10:04:25.80	332.96	19.70	-52.9	-54.1	15.3	0.00e+00	0	31	0	1204813824	72	4044
2026-01-03 10:04:26.95	332.99	19.55	-53.1	-54.3	15.2	0.00e+00	0	31	0	1206910976	72	4107
2026-01-03 10:04:27.82	333.01	19.44	-53.1	-54.3	15.2	0.00e+00	0	31	0	1207959552	72	4115
2026-01-03 10:04:28.97	333.05	19.30	-52.9	-54.0	15.3	0.00e+00	0	31	0	1210056704	72	3996
2026-01-03 10:04:29.83	333.07	19.19	-52.9	-54.0	15.3	0.00e+00	0	30	0	1212153856	72	4004
2026-01-03 10:04:30.98	333.10	19.05	-52.8	-53.9	15.3	0.00e+00	0	31	0	1214251008	72	3944
2026-01-03 10:04:31.84	333.12	18.94	-52.7	-53.8	15.3	0.00e+00	0	31	0	1216348160	72	3908
2026-01-03 10:04:32.99	333.16	18.80	-52.7	-53.9	15.3	0.00e+00	0	31	0	1218445312	71	4152
2026-01-03 10:04:33.86	333.18	18.69	-52.6	-53.8	15.3	0.00e+00	0	30	0	1219493888	71	4106
2026-01-03 10:04:35.01	333.21	18.55	-52.6	-53.7	15.3	0.00e+00	0	31	0	1221591040	71	4061
2026-01-03 10:04:35.88	333.23	18.44	-52.6	-53.7	15.3	0.00e+00	0	31	0	1223688192	71	4056
2026-01-03 10:04:37.03	333.26	18.30	-52.5	-53.6	15.3	0.00e+00	0	31	0	1225785344	71	4020
2026-01-03 10:04:37.89	333.29	18.20	-52.6	-53.7	15.3	0.00e+00	0	31	0	1226833920	71	4067
2026-01-03 10:04:39.05	333.32	18.06	-52.5	-53.5	15.4	0.00e+00	0	31	0	1228931072	71	4001
2026-01-03 10:04:39.91	333.34	17.96	-52.5	-53.6	15.3	0.00e+00	0	31	0	1231028224	71	4031
2026-01-03 10:04:41.06	333.37	17.82	-52.5	-53.6	15.3	0.00e+00	0	31	0	1233125376	71	4023
2026-01-03 10:04:41.93	333.39	17.72	-52.6	-53.8	15.3	0.00e+00	0	31	0	1235222528	71	4106
2026-01-03 10:04:43.08	333.42	17.58	-52.8	-54.0	15.2	0.00e+00	0	31	0	1237319680	71	4221
2026-01-03 10:04:43.95	333.44	17.48	-52.7	-53.8	15.2	0.00e+00	0	31	0	1238368256	71	4141
2026-01-03 10:04:45.10	333.47	17.35	-53.0	-54.2	15.1	0.00e+00	0	31	0	1240465408	71	4305
2026-01-03 10:04:45.97	333.49	17.24	-53.0	-54.2	15.1	0.00e+00	0	30	0	1242562560	71	4331
2026-01-03 10:04:47.12	333.52	17.11	-53.1	-54.4	15.1	0.00e+00	0	31	0	1244659712	71	4394
2026-01-03 10:04:47.98	333.54	17.01	-53.3	-54.6	15.0	0.00e+00	0	31	0	1245708288	71	4497
2026-01-03 10:04:49.13	333.57	16.88	-53.5	-54.8	15.0	0.00e+00	0	31	0	1247805440	72	4381
2026-01-03 10:04:50.00	333.59	16.78	-53.5	-54.8	15.0	0.00e+00	0	31	0	1249902592	72	4342
