passes_logs/2026/01/03/R3.2S_Murmansk/R3.2S_Murmansk__20260103_130941_TY-40_rec.log

#Pass ID: 20260103_130941_TY-40
#Satellite: TY-40
#Configuration: TY-39
#almurnet v.1.7.20251203
#Start time: 2026-01-03 13:09:41

#Version: 2.2.20231116
#Station: R3.2S_Murmansk
#Location: 33.079688 lon 68.888172 lat
#TLE: 1 56846U 23081A   26002.94212286  .00004508  00000-0  20245-3 0  9990
#TLE: 2 56846  97.3916  76.0729 0002063  85.4290 274.7182 15.21667510142873

#Time	Az	El	Level	Level2	SNR	BER	BlckErr	Temp	State	Recorded	gain1	gain2
2026-01-03 13:09:41.74	37.28	2.01	-58.9	-61.7	3.6	0.00e+00	0	32	0	0	85	18934
2026-01-03 13:09:42.74	37.16	2.06	-58.9	-61.7	3.6	0.00e+00	0	32	104	0	85	18936
2026-01-03 13:09:43.76	37.04	2.12	-58.9	-61.7	3.7	0.00e+00	0	32	104	0	85	18942
2026-01-03 13:09:44.77	36.92	2.17	-58.9	-61.7	3.6	0.00e+00	0	32	104	0	85	18976
2026-01-03 13:09:45.78	36.80	2.23	-58.9	-61.7	3.7	0.00e+00	0	32	104	0	85	18933
2026-01-03 13:09:46.78	36.67	2.28	-58.9	-61.7	3.7	0.00e+00	0	32	104	0	85	18979
2026-01-03 13:09:47.79	36.55	2.33	-58.9	-61.7	3.7	0.00e+00	0	32	104	0	85	18987
2026-01-03 13:09:48.80	36.43	2.39	-58.9	-61.7	3.7	0.00e+00	0	32	104	0	85	19024
2026-01-03 13:09:49.81	36.30	2.44	-58.9	-61.7	3.7	0.00e+00	0	32	104	0	85	18936
2026-01-03 13:09:50.82	36.18	2.49	-58.9	-61.7	3.6	0.00e+00	0	32	104	0	85	18983
2026-01-03 13:09:51.83	36.05	2.55	-58.9	-61.7	3.7	0.00e+00	0	32	104	0	85	19002
2026-01-03 13:09:52.84	35.92	2.60	-58.9	-61.7	3.7	0.00e+00	0	33	104	0	85	18926
2026-01-03 13:09:53.85	35.79	2.66	-58.9	-61.7	3.7	0.00e+00	0	32	104	0	85	18871
2026-01-03 13:09:54.85	35.67	2.71	-58.9	-61.7	3.7	0.00e+00	0	33	104	0	85	18912
2026-01-03 13:09:55.87	35.54	2.76	-58.9	-61.7	3.7	0.00e+00	0	33	104	0	85	18912
2026-01-03 13:09:56.87	35.41	2.82	-58.9	-61.7	3.6	0.00e+00	0	33	104	0	85	18944
2026-01-03 13:09:57.88	35.28	2.87	-58.9	-61.7	3.7	0.00e+00	0	33	104	0	85	18903
2026-01-03 13:09:58.89	35.15	2.93	-58.9	-61.7	3.7	0.00e+00	0	33	104	0	85	18956
2026-01-03 13:09:59.90	35.02	2.98	-58.9	-61.7	3.7	0.00e+00	0	33	104	0	85	18928
2026-01-03 13:10:00.91	34.89	3.03	-58.9	-61.7	3.7	0.00e+00	0	33	104	0	85	18951
2026-01-03 13:10:01.92	34.75	3.09	-58.9	-61.7	3.6	0.00e+00	0	33	104	0	85	18959
2026-01-03 13:10:02.93	34.62	3.14	-58.9	-61.7	3.7	0.00e+00	0	33	104	0	85	18953
2026-01-03 13:10:03.94	34.49	3.20	-58.9	-61.7	3.7	0.00e+00	0	33	104	0	85	18952
2026-01-03 13:10:04.95	34.35	3.25	-58.9	-61.7	3.7	0.00e+00	0	33	104	0	85	18917
2026-01-03 13:10:05.96	34.22	3.30	-58.9	-61.7	3.7	0.00e+00	0	33	104	0	85	18927
2026-01-03 13:10:06.97	34.08	3.36	-58.9	-61.7	3.7	0.00e+00	0	33	104	0	85	18926
2026-01-03 13:10:07.97	33.94	3.41	-58.9	-61.7	3.7	0.00e+00	0	33	104	0	85	18911
2026-01-03 13:10:08.98	33.81	3.47	-58.9	-61.7	3.7	0.00e+00	0	33	104	0	85	18919
2026-01-03 13:10:09.99	33.67	3.52	-58.9	-61.7	3.7	0.00e+00	0	33	104	0	85	18901
2026-01-03 13:10:11.00	33.53	3.58	-58.9	-61.7	3.7	0.00e+00	0	33	104	0	85	18895
2026-01-03 13:10:12.01	33.39	3.63	-58.9	-61.7	3.7	0.00e+00	0	33	104	0	85	18958
2026-01-03 13:10:13.02	33.25	3.68	-58.9	-61.7	3.7	0.00e+00	0	33	104	0	85	18896
2026-01-03 13:10:14.02	33.11	3.74	-58.9	-61.7	3.7	0.00e+00	0	33	104	0	85	18971
2026-01-03 13:10:15.03	32.97	3.79	-58.9	-61.7	3.7	0.00e+00	0	33	104	0	85	18950
2026-01-03 13:10:16.04	32.83	3.85	-58.9	-61.7	3.7	0.00e+00	0	33	104	0	85	18951
2026-01-03 13:10:17.05	32.69	3.90	-58.9	-61.7	3.7	0.00e+00	0	33	104	0	85	18932
2026-01-03 13:10:18.06	32.54	3.95	-58.9	-61.7	3.7	0.00e+00	0	33	104	0	85	18957
2026-01-03 13:10:19.07	32.40	4.01	-58.9	-61.7	3.7	0.00e+00	0	34	104	0	85	18920
2026-01-03 13:10:20.08	32.26	4.06	-58.9	-61.7	3.7	0.00e+00	0	33	104	0	85	18966
2026-01-03 13:10:21.09	32.11	4.12	-58.9	-61.7	3.7	0.00e+00	0	34	104	0	85	18997
2026-01-03 13:10:22.10	31.96	4.17	-58.9	-61.7	3.7	0.00e+00	0	34	104	0	85	19006
2026-01-03 13:10:23.10	31.82	4.23	-58.9	-61.7	3.7	0.00e+00	0	33	104	0	85	18964
2026-01-03 13:10:24.11	31.67	4.28	-58.9	-61.7	3.7	0.00e+00	0	34	104	0	85	18961
2026-01-03 13:10:25.12	31.52	4.33	-58.9	-61.7	3.7	0.00e+00	0	34	104	0	85	18989
2026-01-03 13:10:26.13	31.38	4.39	-59.0	-61.7	3.7	0.00e+00	0	34	104	0	85	19019
2026-01-03 13:10:27.13	31.23	4.44	-58.9	-61.7	3.7	0.00e+00	0	34	104	0	85	19014
2026-01-03 13:10:28.14	31.08	4.50	-58.9	-61.7	3.6	0.00e+00	0	34	104	0	85	19017
2026-01-03 13:10:29.15	30.93	4.55	-58.9	-61.7	3.7	0.00e+00	0	34	104	0	85	19018
2026-01-03 13:10:30.15	30.78	4.61	-58.9	-61.7	3.7	0.00e+00	0	34	104	0	85	18980
2026-01-03 13:10:31.16	30.62	4.66	-58.9	-61.7	3.7	0.00e+00	0	34	104	0	85	18952
2026-01-03 13:10:32.17	30.47	4.71	-58.9	-61.7	3.7	0.00e+00	0	34	104	0	85	19015
2026-01-03 13:10:33.18	30.32	4.77	-58.9	-61.7	3.7	0.00e+00	0	33	104	0	85	18964
2026-01-03 13:10:34.19	30.16	4.82	-58.9	-61.7	3.7	0.00e+00	0	34	104	0	85	19034
2026-01-03 13:10:35.19	30.01	4.88	-59.0	-61.7	3.7	0.00e+00	0	34	104	0	85	19007
2026-01-03 13:10:36.20	29.85	4.93	-59.0	-61.7	3.7	0.00e+00	0	34	104	0	85	18996
2026-01-03 13:10:37.21	29.69	4.98	-59.0	-61.8	3.7	0.00e+00	0	34	104	0	85	19038
2026-01-03 13:10:38.22	29.54	5.04	-59.0	-61.7	3.7	0.00e+00	0	34	104	0	85	18965
2026-01-03 13:10:39.23	29.38	5.09	-59.0	-61.8	3.7	0.00e+00	0	34	104	0	85	19117
2026-01-03 13:10:40.24	29.22	5.15	-59.2	-62.0	3.7	0.00e+00	0	34	104	0	85	19498
2026-01-03 13:10:41.24	29.06	5.20	-58.8	-61.6	3.7	0.00e+00	0	34	104	0	84	19831
2026-01-03 13:10:42.25	28.90	5.26	-59.1	-61.8	3.6	0.00e+00	0	34	104	0	84	20361
2026-01-03 13:10:43.25	28.74	5.31	-59.0	-61.9	3.7	0.00e+00	0	34	104	0	84	20405
2026-01-03 13:10:44.26	28.58	5.36	-59.2	-62.0	3.7	0.00e+00	0	34	104	0	84	20753
2026-01-03 13:10:45.27	28.41	5.42	-58.9	-61.7	3.7	0.00e+00	0	34	104	0	84	19936
2026-01-03 13:10:46.28	28.25	5.47	-59.1	-61.9	3.7	0.00e+00	0	34	104	0	84	20461
2026-01-03 13:10:47.28	28.09	5.52	-59.1	-61.9	3.7	0.00e+00	0	34	104	0	84	20510
2026-01-03 13:10:48.29	27.92	5.58	-59.2	-62.0	3.7	0.00e+00	0	34	104	0	84	20769
2026-01-03 13:10:49.30	27.76	5.63	-58.9	-61.7	3.7	0.00e+00	0	34	104	0	84	20025
2026-01-03 13:10:50.31	27.59	5.69	-59.1	-61.9	3.7	0.00e+00	0	34	104	0	84	20566
2026-01-03 13:10:51.32	27.42	5.74	-59.1	-61.9	3.7	0.00e+00	0	34	104	0	84	20486
2026-01-03 13:10:52.32	27.25	5.79	-59.2	-62.0	3.7	0.00e+00	0	34	104	0	84	20856
2026-01-03 13:10:53.33	27.08	5.85	-59.0	-61.8	3.7	0.00e+00	0	34	104	0	84	20286
2026-01-03 13:10:54.34	26.91	5.90	-59.2	-62.0	3.7	0.00e+00	0	34	104	0	84	20683
2026-01-03 13:10:55.35	26.74	5.95	-59.2	-61.9	3.7	0.00e+00	0	34	104	0	84	20623
2026-01-03 13:10:56.36	26.57	6.01	-59.3	-62.1	3.7	0.00e+00	0	34	104	0	84	20897
2026-01-03 13:10:57.37	26.40	6.06	-59.1	-61.9	3.7	0.00e+00	0	34	104	0	84	20469
2026-01-03 13:10:58.37	26.23	6.11	-59.2	-62.0	3.7	0.00e+00	0	34	104	0	84	20821
2026-01-03 13:10:59.38	26.05	6.17	-59.2	-62.0	3.7	0.00e+00	0	34	104	0	84	20844
2026-01-03 13:11:00.38	25.88	6.22	-59.3	-62.1	3.7	0.00e+00	0	34	104	0	84	20961
2026-01-03 13:11:01.39	25.70	6.27	-59.2	-62.0	3.7	0.00e+00	0	34	104	0	84	20649
2026-01-03 13:11:02.40	25.53	6.33	-59.3	-62.1	3.7	0.00e+00	0	34	104	0	84	20934
2026-01-03 13:11:03.40	25.35	6.38	-59.3	-62.1	3.7	0.00e+00	0	34	104	0	84	20925
2026-01-03 13:11:04.41	25.17	6.43	-59.3	-62.1	3.7	0.00e+00	0	34	104	0	84	21078
2026-01-03 13:11:05.42	24.99	6.48	-59.3	-62.0	3.7	0.00e+00	0	34	104	0	84	20848
2026-01-03 13:11:06.43	24.81	6.54	-59.3	-62.1	3.7	0.00e+00	0	34	104	0	84	21052
2026-01-03 13:11:07.43	24.64	6.59	-59.3	-62.2	3.7	0.00e+00	0	34	104	0	84	21128
2026-01-03 13:11:08.44	24.45	6.64	-59.4	-62.1	3.7	0.00e+00	0	34	104	0	84	21067
2026-01-03 13:11:09.45	24.27	6.70	-59.3	-62.1	3.7	0.00e+00	0	34	104	0	84	20997
2026-01-03 13:11:10.46	24.09	6.75	-59.4	-62.2	3.7	0.00e+00	0	34	104	0	84	21126
2026-01-03 13:11:11.46	23.91	6.80	-59.4	-62.2	3.7	0.00e+00	0	34	104	0	84	21158
2026-01-03 13:11:12.47	23.72	6.85	-59.4	-62.2	3.7	0.00e+00	0	34	104	0	84	21250
2026-01-03 13:11:13.48	23.53	6.90	-59.3	-62.1	3.7	0.00e+00	0	34	104	0	84	20996
2026-01-03 13:11:14.49	23.35	6.96	-59.4	-62.2	3.7	0.00e+00	0	34	104	0	84	21181
2026-01-03 13:11:15.50	23.16	7.01	-59.4	-62.2	3.7	0.00e+00	0	35	104	0	84	21250
2026-01-03 13:11:16.51	22.97	7.06	-59.4	-62.2	3.7	0.00e+00	0	34	104	0	84	21281
2026-01-03 13:11:17.51	22.78	7.11	-59.4	-62.2	3.7	0.00e+00	0	34	104	0	84	21186
2026-01-03 13:11:18.52	22.59	7.16	-59.4	-62.2	3.7	0.00e+00	0	34	104	0	84	21269
2026-01-03 13:11:19.53	22.40	7.22	-59.5	-62.3	3.7	0.00e+00	0	34	104	0	84	21368
2026-01-03 13:11:20.54	22.21	7.27	-59.5	-62.3	3.7	0.00e+00	0	35	104	0	84	21362
2026-01-03 13:11:21.54	22.02	7.32	-59.4	-62.2	3.7	0.00e+00	0	35	104	0	84	21240
2026-01-03 13:11:22.55	21.83	7.37	-59.4	-62.2	3.7	0.00e+00	0	35	104	0	84	21342
2026-01-03 13:11:23.56	21.63	7.42	-59.5	-62.3	3.7	0.00e+00	0	34	104	0	84	21441
2026-01-03 13:11:24.57	21.44	7.47	-59.5	-62.3	3.7	0.00e+00	0	34	104	0	84	21405
2026-01-03 13:11:25.58	21.24	7.52	-59.5	-62.3	3.7	0.00e+00	0	34	104	0	84	21403
2026-01-03 13:11:26.59	21.04	7.57	-59.5	-62.3	3.7	0.00e+00	0	35	104	0	84	21391
2026-01-03 13:11:27.60	20.85	7.62	-59.5	-62.3	3.7	0.00e+00	0	35	104	0	84	21536
2026-01-03 13:11:28.60	20.65	7.67	-59.5	-62.3	3.7	0.00e+00	0	34	104	0	84	21362
2026-01-03 13:11:29.60	20.45	7.72	-59.5	-62.3	3.7	0.00e+00	0	35	104	0	84	21405
2026-01-03 13:11:30.61	20.25	7.77	-59.5	-62.3	3.7	0.00e+00	0	35	104	0	84	21470
2026-01-03 13:11:31.62	20.05	7.82	-59.6	-62.4	3.7	0.00e+00	0	35	104	0	84	21611
2026-01-03 13:11:32.62	19.85	7.87	-59.5	-62.3	3.7	0.00e+00	0	35	104	0	85	20300
2026-01-03 13:11:33.63	19.65	7.92	-59.5	-62.3	3.7	0.00e+00	0	35	104	0	85	20390
2026-01-03 13:11:34.64	19.44	7.97	-59.5	-62.3	3.7	0.00e+00	0	34	104	0	85	20315
2026-01-03 13:11:35.65	19.24	8.02	-59.6	-62.4	3.7	0.00e+00	0	35	104	0	85	20431
2026-01-03 13:11:36.66	19.03	8.07	-59.5	-62.3	3.7	0.00e+00	0	35	104	0	85	20283
2026-01-03 13:11:37.66	18.83	8.12	-59.5	-62.3	3.7	0.00e+00	0	35	104	0	85	20335
2026-01-03 13:11:38.67	18.62	8.17	-59.5	-62.3	3.7	0.00e+00	0	35	104	0	85	20320
2026-01-03 13:11:39.68	18.41	8.22	-59.6	-62.4	3.7	0.00e+00	0	35	104	0	85	20550
2026-01-03 13:11:40.69	18.20	8.27	-59.5	-62.3	3.7	0.00e+00	0	35	104	0	85	20360
2026-01-03 13:11:41.70	17.99	8.32	-59.6	-62.4	3.7	0.00e+00	0	35	104	0	85	20409
2026-01-03 13:11:42.70	17.78	8.36	-59.6	-62.3	3.7	0.00e+00	0	35	104	0	85	20280
2026-01-03 13:11:43.71	17.57	8.41	-59.6	-62.5	3.7	0.00e+00	0	35	104	0	85	20640
2026-01-03 13:11:44.71	17.36	8.46	-59.6	-62.3	3.7	0.00e+00	0	35	104	0	85	20346
2026-01-03 13:11:45.72	17.15	8.51	-59.6	-62.3	3.7	0.00e+00	0	35	104	0	85	20393
2026-01-03 13:11:46.73	16.93	8.55	-59.6	-62.3	3.7	0.00e+00	0	35	104	0	85	20379
2026-01-03 13:11:47.74	16.72	8.60	-59.7	-62.5	3.7	0.00e+00	0	35	104	0	85	20681
2026-01-03 13:11:48.75	16.50	8.65	-59.6	-62.4	3.6	0.00e+00	0	35	104	0	85	20455
2026-01-03 13:11:49.76	16.28	8.70	-59.6	-62.4	3.7	0.00e+00	0	35	104	0	85	20463
2026-01-03 13:11:50.77	16.06	8.74	-59.6	-62.4	3.7	0.00e+00	0	35	104	0	85	20485
2026-01-03 13:11:51.77	15.85	8.79	-59.7	-62.5	3.7	0.00e+00	0	35	104	0	85	20675
2026-01-03 13:11:52.78	15.63	8.83	-59.6	-62.4	3.7	0.00e+00	0	35	104	0	85	20496
2026-01-03 13:11:53.79	15.41	8.88	-59.6	-62.4	3.7	0.00e+00	0	35	104	0	85	20556
2026-01-03 13:11:54.80	15.19	8.93	-59.6	-62.4	3.7	0.00e+00	0	35	104	0	85	20462
2026-01-03 13:11:55.81	14.96	8.97	-59.7	-62.5	3.7	0.00e+00	0	35	104	0	85	20684
2026-01-03 13:11:56.81	14.74	9.02	-59.6	-62.4	3.7	0.00e+00	0	35	104	0	85	20516
2026-01-03 13:11:57.82	14.52	9.06	-59.6	-62.4	3.7	0.00e+00	0	35	104	0	85	20553
2026-01-03 13:11:58.82	14.29	9.11	-59.6	-62.5	3.7	0.00e+00	0	35	104	0	85	20651
2026-01-03 13:11:59.83	14.07	9.15	-59.7	-62.5	3.7	0.00e+00	0	35	104	0	85	20800
2026-01-03 13:12:00.84	13.84	9.19	-59.6	-62.4	3.7	0.00e+00	0	35	104	0	85	20544
2026-01-03 13:12:01.85	13.61	9.24	-59.7	-62.5	3.7	0.00e+00	0	35	104	0	85	20662
2026-01-03 13:12:02.86	13.39	9.28	-59.7	-62.4	3.7	0.00e+00	0	35	104	0	85	20596
2026-01-03 13:12:03.87	13.16	9.33	-59.7	-62.5	3.7	0.00e+00	0	35	104	0	85	20762
2026-01-03 13:12:04.87	12.93	9.37	-59.6	-62.4	3.7	0.00e+00	0	35	104	0	85	20609
2026-01-03 13:12:05.88	12.70	9.41	-59.7	-62.5	3.6	0.00e+00	0	35	104	0	85	20706
2026-01-03 13:12:06.89	12.47	9.45	-59.7	-62.4	3.7	0.00e+00	0	35	104	0	85	20624
2026-01-03 13:12:07.90	12.23	9.50	-59.8	-62.6	3.7	0.00e+00	0	35	104	0	85	20917
2026-01-03 13:12:08.90	12.00	9.54	-59.7	-62.4	3.7	0.00e+00	0	35	104	0	85	20566
2026-01-03 13:12:09.91	11.77	9.58	-59.7	-62.5	3.7	0.00e+00	0	35	104	0	85	20671
2026-01-03 13:12:10.92	11.53	9.62	-59.7	-62.5	3.7	0.00e+00	0	35	104	0	85	20636
2026-01-03 13:12:11.93	11.30	9.66	-59.8	-62.5	3.7	0.00e+00	0	35	104	0	85	20871
2026-01-03 13:12:12.94	11.06	9.70	-59.7	-62.5	3.7	0.00e+00	0	35	104	0	85	20648
2026-01-03 13:12:13.95	10.82	9.74	-59.7	-62.5	3.7	0.00e+00	0	35	104	0	85	20764
2026-01-03 13:12:14.95	10.59	9.78	-59.7	-62.5	3.7	0.00e+00	0	35	104	0	85	20652
2026-01-03 13:12:15.96	10.35	9.82	-59.8	-62.6	3.7	0.00e+00	0	35	104	0	85	20875
2026-01-03 13:12:16.97	10.11	9.86	-59.7	-62.5	3.7	0.00e+00	0	35	104	0	85	20705
2026-01-03 13:12:17.98	9.86	9.90	-59.7	-62.5	3.7	0.00e+00	0	35	104	0	85	20828
2026-01-03 13:12:18.99	9.62	9.94	-59.7	-62.5	3.7	0.00e+00	0	35	104	0	85	20725
2026-01-03 13:12:20.00	9.38	9.98	-59.8	-62.6	3.7	0.00e+00	0	35	104	0	85	20992
2026-01-03 13:12:21.01	9.14	10.02	-59.7	-62.5	3.7	0.00e+00	0	35	104	0	85	20713
2026-01-03 13:12:22.01	8.90	10.06	-59.8	-62.5	3.7	0.00e+00	0	35	104	0	85	20794
2026-01-03 13:12:23.02	8.65	10.10	-59.7	-62.5	3.7	0.00e+00	0	35	104	0	85	20752
2026-01-03 13:12:24.03	8.40	10.13	-59.8	-62.6	3.7	0.00e+00	0	35	104	0	85	20963
2026-01-03 13:12:25.03	8.16	10.17	-59.7	-62.5	3.7	0.00e+00	0	35	104	0	85	20730
2026-01-03 13:12:26.04	7.91	10.21	-59.8	-62.6	3.7	0.00e+00	0	35	104	0	85	20887
2026-01-03 13:12:27.05	7.67	10.24	-59.7	-62.5	3.7	0.00e+00	0	35	104	0	85	20763
2026-01-03 13:12:28.06	7.42	10.28	-59.8	-62.6	3.7	0.00e+00	0	35	104	0	85	21063
2026-01-03 13:12:29.07	7.17	10.31	-59.7	-62.5	3.7	0.00e+00	0	35	104	0	85	20768
2026-01-03 13:12:30.07	6.92	10.35	-59.8	-62.6	3.7	0.00e+00	0	35	104	0	85	20880
2026-01-03 13:12:31.07	6.67	10.38	-59.8	-62.5	3.7	0.00e+00	0	35	104	0	85	20778
2026-01-03 13:12:32.08	6.42	10.42	-59.8	-62.6	3.7	0.00e+00	0	35	104	0	85	21025
2026-01-03 13:12:33.08	6.17	10.45	-59.8	-62.6	3.7	0.00e+00	0	35	104	0	85	20884
2026-01-03 13:12:34.10	5.91	10.48	-59.8	-62.6	3.7	0.00e+00	0	35	104	0	85	20901
2026-01-03 13:12:35.10	5.66	10.52	-59.8	-62.6	3.7	0.00e+00	0	35	104	0	85	20884
2026-01-03 13:12:36.11	5.41	10.55	-59.9	-62.6	3.7	0.00e+00	0	35	104	0	85	21083
2026-01-03 13:12:37.12	5.15	10.58	-59.8	-62.5	3.7	0.00e+00	0	35	104	0	85	20865
2026-01-03 13:12:38.12	4.90	10.61	-59.8	-62.6	3.7	0.00e+00	0	35	104	0	85	20995
2026-01-03 13:12:39.13	4.64	10.64	-59.8	-62.6	3.7	0.00e+00	0	35	104	0	85	20962
2026-01-03 13:12:40.14	4.38	10.68	-59.9	-62.6	3.7	0.00e+00	0	35	104	0	85	21053
2026-01-03 13:12:41.14	4.13	10.71	-59.8	-62.6	3.6	0.00e+00	0	35	104	0	85	20943
2026-01-03 13:12:42.16	3.87	10.74	-59.8	-62.6	3.7	0.00e+00	0	35	104	0	85	20946
2026-01-03 13:12:43.16	3.61	10.77	-59.8	-62.6	3.7	0.00e+00	0	35	104	0	85	20945
2026-01-03 13:12:44.17	3.35	10.80	-59.9	-62.7	3.7	0.00e+00	0	35	104	0	85	21159
2026-01-03 13:12:45.18	3.09	10.82	-59.8	-62.6	3.7	0.00e+00	0	35	104	0	85	21007
2026-01-03 13:12:46.19	2.83	10.85	-59.8	-62.6	3.7	0.00e+00	0	35	104	0	85	20974
2026-01-03 13:12:47.20	2.57	10.88	-59.8	-62.6	3.7	0.00e+00	0	35	104	0	85	20934
2026-01-03 13:12:48.21	2.30	10.91	-59.9	-62.6	3.7	0.00e+00	0	35	104	0	85	21058
2026-01-03 13:12:49.22	2.04	10.94	-59.8	-62.5	3.7	0.00e+00	0	35	104	0	85	20846
2026-01-03 13:12:50.23	1.78	10.96	-59.8	-62.6	3.6	0.00e+00	0	35	104	0	85	21026
2026-01-03 13:12:51.23	1.52	10.99	-59.8	-62.6	3.7	0.00e+00	0	35	104	0	85	20940
2026-01-03 13:12:52.23	1.25	11.01	-59.9	-62.7	3.7	0.00e+00	0	35	104	0	85	21116
2026-01-03 13:12:53.24	0.99	11.04	-59.8	-62.6	3.7	0.00e+00	0	35	104	0	85	20885
2026-01-03 13:12:54.25	0.72	11.06	-59.8	-62.6	3.7	0.00e+00	0	35	104	0	85	20971
2026-01-03 13:12:55.25	0.46	11.09	-59.8	-62.6	3.7	0.00e+00	0	35	104	0	85	21012
2026-01-03 13:12:56.26	0.19	11.11	-59.9	-62.7	3.7	0.00e+00	0	35	104	0	85	21184
2026-01-03 13:12:57.27	359.92	11.14	-59.8	-62.6	3.7	0.00e+00	0	35	104	0	85	20974
2026-01-03 13:12:58.28	359.65	11.16	-59.9	-62.6	3.7	0.00e+00	0	35	104	0	85	21101
2026-01-03 13:12:59.28	359.39	11.18	-59.8	-62.6	3.7	0.00e+00	0	35	104	0	85	21038
2026-01-03 13:13:00.28	359.12	11.20	-59.9	-62.7	3.7	0.00e+00	0	35	104	0	85	21149
2026-01-03 13:13:01.29	358.85	11.22	-59.8	-62.6	3.7	0.00e+00	0	35	104	0	85	21011
2026-01-03 13:13:02.30	358.58	11.24	-59.8	-62.6	3.7	0.00e+00	0	35	104	0	85	21068
2026-01-03 13:13:03.31	358.31	11.27	-59.8	-62.6	3.7	0.00e+00	0	35	104	0	85	21037
2026-01-03 13:13:04.32	358.04	11.29	-59.9	-62.7	3.7	0.00e+00	0	35	104	0	85	21186
2026-01-03 13:13:05.32	357.77	11.30	-59.8	-62.6	3.7	0.00e+00	0	35	104	0	85	21019
2026-01-03 13:13:06.33	357.50	11.32	-59.8	-62.6	3.6	0.00e+00	0	35	104	0	85	21074
2026-01-03 13:13:07.34	357.23	11.34	-59.9	-62.6	3.7	0.00e+00	0	35	104	0	85	21065
2026-01-03 13:13:08.35	356.95	11.36	-59.9	-62.7	3.7	0.00e+00	0	35	104	0	85	21261
2026-01-03 13:13:09.36	356.68	11.38	-59.8	-62.6	3.7	0.00e+00	0	35	104	0	85	20969
2026-01-03 13:13:10.36	356.41	11.39	-59.9	-62.6	3.7	0.00e+00	0	35	104	0	85	21090
2026-01-03 13:13:11.37	356.14	11.41	-59.9	-62.7	3.7	0.00e+00	0	35	104	0	85	21130
2026-01-03 13:13:12.37	355.86	11.43	-59.9	-62.7	3.7	0.00e+00	0	35	104	0	85	21193
2026-01-03 13:13:13.38	355.59	11.44	-59.8	-62.6	3.7	0.00e+00	0	35	104	0	85	21048
2026-01-03 13:13:14.38	355.32	11.46	-59.9	-62.6	3.7	0.00e+00	0	35	104	0	85	21052
2026-01-03 13:13:15.39	355.04	11.47	-59.9	-62.7	3.7	0.00e+00	0	35	104	0	85	21160
2026-01-03 13:13:16.40	354.77	11.48	-59.9	-62.7	3.7	0.00e+00	0	35	104	0	85	21187
2026-01-03 13:13:17.40	354.49	11.50	-59.8	-62.6	3.7	0.00e+00	0	35	104	0	85	21073
2026-01-03 13:13:18.41	354.22	11.51	-59.9	-62.7	3.7	0.00e+00	0	35	104	0	85	21117
2026-01-03 13:13:19.42	353.94	11.52	-59.9	-62.7	3.7	0.00e+00	0	35	104	0	85	21174
2026-01-03 13:13:20.43	353.66	11.53	-59.9	-62.7	3.7	0.00e+00	0	35	104	0	85	21257
2026-01-03 13:13:21.44	353.39	11.54	-59.9	-62.7	3.7	0.00e+00	0	35	104	0	85	21117
2026-01-03 13:13:22.45	353.11	11.55	-59.9	-62.7	3.7	0.00e+00	0	35	104	0	85	21172
2026-01-03 13:13:23.45	352.83	11.56	-59.9	-62.7	3.7	0.00e+00	0	35	104	0	85	21165
2026-01-03 13:13:24.46	352.56	11.57	-59.9	-62.7	3.7	0.00e+00	0	35	104	0	85	21203
2026-01-03 13:13:25.48	352.28	11.58	-59.9	-62.6	3.7	0.00e+00	0	35	104	0	85	21074
2026-01-03 13:13:26.48	352.00	11.59	-59.9	-62.7	3.7	0.00e+00	0	35	104	0	85	21118
2026-01-03 13:13:27.49	351.72	11.60	-59.9	-62.7	3.7	0.00e+00	0	35	104	0	85	21223
2026-01-03 13:13:28.50	351.44	11.60	-59.9	-62.7	3.7	0.00e+00	0	35	104	0	85	21193
2026-01-03 13:13:29.51	351.16	11.61	-59.9	-62.7	3.7	0.00e+00	0	35	104	0	85	21158
2026-01-03 13:13:30.51	350.89	11.62	-59.9	-62.7	3.7	0.00e+00	0	35	104	0	85	21236
2026-01-03 13:13:31.52	350.61	11.62	-59.9	-62.7	3.7	0.00e+00	0	35	104	0	85	21328
2026-01-03 13:13:32.53	350.33	11.63	-59.9	-62.7	3.7	0.00e+00	0	35	104	0	85	21216
2026-01-03 13:13:33.54	350.05	11.63	-59.9	-62.7	3.7	0.00e+00	0	35	104	0	85	21194
2026-01-03 13:13:34.54	349.77	11.63	-59.9	-62.7	3.7	0.00e+00	0	35	104	0	85	21126
2026-01-03 13:13:35.55	349.50	11.64	-59.9	-62.7	3.7	0.00e+00	0	35	104	0	85	21305
2026-01-03 13:13:36.56	349.22	11.64	-59.9	-62.7	3.7	0.00e+00	0	35	104	0	85	21267
2026-01-03 13:13:37.57	348.94	11.64	-59.9	-62.7	3.7	0.00e+00	0	35	104	0	85	21175
2026-01-03 13:13:38.58	348.66	11.64	-59.9	-62.7	3.7	0.00e+00	0	35	104	0	85	21125
2026-01-03 13:13:39.58	348.38	11.64	-59.9	-62.7	3.7	0.00e+00	0	35	104	0	85	21217
2026-01-03 13:13:40.59	348.10	11.64	-59.9	-62.7	3.7	0.00e+00	0	35	104	0	85	21212
2026-01-03 13:13:41.60	347.82	11.64	-59.9	-62.7	3.7	0.00e+00	0	35	104	0	85	21194
2026-01-03 13:13:42.61	347.54	11.64	-59.9	-62.7	3.6	0.00e+00	0	35	104	0	85	21169
2026-01-03 13:13:43.61	347.26	11.64	-59.9	-62.7	3.7	0.00e+00	0	35	104	0	85	21335
2026-01-03 13:13:44.62	346.98	11.64	-59.9	-62.7	3.7	0.00e+00	0	35	104	0	85	21191
2026-01-03 13:13:45.62	346.71	11.64	-59.9	-62.7	3.7	0.00e+00	0	35	104	0	85	21244
2026-01-03 13:13:46.63	346.43	11.63	-59.9	-62.7	3.7	0.00e+00	0	35	104	0	85	21229
2026-01-03 13:13:47.63	346.15	11.63	-60.0	-62.7	3.7	0.00e+00	0	35	104	0	85	21327
2026-01-03 13:13:48.64	345.87	11.63	-59.9	-62.7	3.7	0.00e+00	0	35	104	0	85	21243
2026-01-03 13:13:49.65	345.59	11.62	-59.9	-62.7	3.7	0.00e+00	0	35	104	0	85	21315
2026-01-03 13:13:50.66	345.31	11.62	-59.9	-62.7	3.7	0.00e+00	0	35	104	0	85	21187
2026-01-03 13:13:51.66	345.04	11.61	-60.0	-62.8	3.7	0.00e+00	0	35	104	0	85	21437
2026-01-03 13:13:52.67	344.76	11.60	-59.9	-62.7	3.7	0.00e+00	0	35	104	0	85	21271
2026-01-03 13:13:53.67	344.48	11.60	-59.9	-62.7	3.7	0.00e+00	0	35	104	0	85	21332
2026-01-03 13:13:54.68	344.21	11.59	-59.9	-62.7	3.7	0.00e+00	0	35	104	0	85	21249
2026-01-03 13:13:55.69	343.93	11.58	-60.0	-62.8	3.7	0.00e+00	0	35	104	0	85	21393
2026-01-03 13:13:56.69	343.65	11.57	-59.9	-62.7	3.7	0.00e+00	0	35	104	0	85	21238
2026-01-03 13:13:57.69	343.38	11.56	-59.9	-62.7	3.7	0.00e+00	0	35	104	0	85	21255
2026-01-03 13:13:58.70	343.10	11.55	-59.9	-62.7	3.7	0.00e+00	0	35	104	0	85	21257
2026-01-03 13:13:59.71	342.82	11.54	-60.0	-62.8	3.7	0.00e+00	0	35	104	0	85	21484
2026-01-03 13:14:00.72	342.54	11.53	-59.9	-62.7	3.7	0.00e+00	0	35	104	0	85	21233
2026-01-03 13:14:01.73	342.27	11.52	-59.9	-62.7	3.7	0.00e+00	0	35	104	0	85	21245
2026-01-03 13:14:02.73	341.99	11.51	-59.9	-62.7	3.7	0.00e+00	0	35	104	0	85	21247
2026-01-03 13:14:03.74	341.72	11.50	-60.0	-62.8	3.7	0.00e+00	0	35	104	0	85	21396
2026-01-03 13:14:04.76	341.44	11.48	-59.9	-62.7	3.7	0.00e+00	0	35	104	0	85	21242
2026-01-03 13:14:05.77	341.16	11.47	-59.9	-62.7	3.7	0.00e+00	0	35	104	0	85	21240
2026-01-03 13:14:06.78	340.89	11.46	-59.9	-62.7	3.7	0.00e+00	0	35	104	0	85	21259
2026-01-03 13:14:07.78	340.61	11.44	-60.0	-62.8	3.7	0.00e+00	0	35	104	0	85	21417
2026-01-03 13:14:08.79	340.34	11.43	-59.9	-62.7	3.7	0.00e+00	0	35	104	0	85	21292
2026-01-03 13:14:09.80	340.07	11.41	-59.9	-62.7	3.7	0.00e+00	0	35	104	0	85	21343
2026-01-03 13:14:10.81	339.79	11.39	-59.9	-62.7	3.7	0.00e+00	0	35	104	0	85	21332
2026-01-03 13:14:11.81	339.52	11.38	-60.0	-62.8	3.7	0.00e+00	0	36	104	0	85	21440
2026-01-03 13:14:12.82	339.25	11.36	-60.0	-62.8	3.7	0.00e+00	0	35	104	0	86	20273
2026-01-03 13:14:13.83	338.97	11.34	-60.0	-62.8	3.7	0.00e+00	0	35	104	0	86	20285
2026-01-03 13:14:14.84	338.70	11.32	-60.0	-62.8	3.7	0.00e+00	0	35	104	0	86	20191
2026-01-03 13:14:15.84	338.43	11.31	-60.1	-62.9	3.7	0.00e+00	0	35	104	0	86	20447
2026-01-03 13:14:16.85	338.16	11.29	-60.0	-62.8	3.6	0.00e+00	0	35	104	0	86	20207
2026-01-03 13:14:17.85	337.89	11.27	-60.0	-62.8	3.7	0.00e+00	0	36	104	0	86	20252
2026-01-03 13:14:18.86	337.62	11.25	-60.0	-62.8	3.7	0.00e+00	0	35	104	0	86	20245
2026-01-03 13:14:19.87	337.35	11.23	-60.0	-62.8	3.7	0.00e+00	0	35	104	0	86	20356
2026-01-03 13:14:20.88	337.08	11.20	-60.0	-62.8	3.7	0.00e+00	0	35	104	0	86	20204
2026-01-03 13:14:21.89	336.81	11.18	-60.0	-62.8	3.7	0.00e+00	0	35	104	0	86	20173
2026-01-03 13:14:22.89	336.55	11.16	-60.0	-62.8	3.7	0.00e+00	0	36	104	0	86	20196
2026-01-03 13:14:23.90	336.28	11.14	-60.0	-62.9	3.6	0.00e+00	0	35	104	0	86	20400
2026-01-03 13:14:24.91	336.01	11.11	-59.9	-62.7	3.7	0.00e+00	0	36	104	0	86	20096
2026-01-03 13:14:25.92	335.74	11.09	-60.0	-62.8	3.7	0.00e+00	0	35	104	0	86	20187
2026-01-03 13:14:26.93	335.48	11.07	-59.9	-62.7	3.7	0.00e+00	0	36	104	0	86	20150
2026-01-03 13:14:27.94	335.21	11.04	-60.0	-62.8	3.7	0.00e+00	0	35	104	0	86	20307
2026-01-03 13:14:28.94	334.95	11.02	-59.9	-62.7	3.7	0.00e+00	0	35	104	0	86	20117
2026-01-03 13:14:29.95	334.68	10.99	-60.0	-62.8	3.7	0.00e+00	0	35	104	0	86	20184
2026-01-03 13:14:30.95	334.42	10.96	-59.9	-62.7	3.7	0.00e+00	0	35	104	0	86	20054
2026-01-03 13:14:31.96	334.16	10.94	-60.0	-62.8	3.7	0.00e+00	0	36	104	0	86	20250
2026-01-03 13:14:32.97	333.89	10.91	-59.9	-62.7	3.7	0.00e+00	0	36	104	0	86	20111
2026-01-03 13:14:33.98	333.63	10.88	-60.0	-62.7	3.7	0.00e+00	0	36	104	0	86	20086
2026-01-03 13:14:34.99	333.37	10.85	-59.9	-62.8	3.7	0.00e+00	0	35	104	0	86	20175
2026-01-03 13:14:36.00	333.11	10.83	-60.0	-62.8	3.6	0.00e+00	0	36	104	0	86	20338
2026-01-03 13:14:37.00	332.85	10.80	-59.9	-62.7	3.7	0.00e+00	0	35	104	0	86	20084
2026-01-03 13:14:38.01	332.59	10.77	-60.0	-62.7	3.7	0.00e+00	0	36	104	0	86	20116
2026-01-03 13:14:39.02	332.33	10.74	-59.9	-62.7	3.7	0.00e+00	0	36	104	0	86	20089
2026-01-03 13:14:40.02	332.07	10.71	-60.0	-62.8	3.7	0.00e+00	0	35	104	0	86	20347
2026-01-03 13:14:41.03	331.81	10.68	-59.9	-62.7	3.7	0.00e+00	0	35	104	0	86	20057
2026-01-03 13:14:42.04	331.56	10.65	-59.9	-62.7	3.7	0.00e+00	0	35	104	0	86	20087
2026-01-03 13:14:43.05	331.30	10.61	-59.9	-62.7	3.7	0.00e+00	0	35	104	0	86	20035
2026-01-03 13:14:44.06	331.04	10.58	-60.0	-62.8	3.7	0.00e+00	0	36	104	0	86	20241
2026-01-03 13:14:45.07	330.79	10.55	-59.9	-62.7	3.7	0.00e+00	0	35	104	0	86	20109
2026-01-03 13:14:46.08	330.53	10.52	-59.9	-62.7	3.7	0.00e+00	0	36	104	0	86	20081
2026-01-03 13:14:47.09	330.28	10.48	-59.9	-62.7	3.7	0.00e+00	0	36	104	0	86	20001
2026-01-03 13:14:48.10	330.02	10.45	-60.0	-62.8	3.7	0.00e+00	0	35	104	0	86	20292
2026-01-03 13:14:49.11	329.77	10.42	-59.9	-62.7	3.7	0.00e+00	0	35	104	0	86	20126
2026-01-03 13:14:50.12	329.52	10.38	-59.9	-62.7	3.7	0.00e+00	0	36	104	0	86	20136
2026-01-03 13:14:51.12	329.27	10.35	-59.9	-62.7	3.7	0.00e+00	0	35	104	0	86	20008
2026-01-03 13:14:52.13	329.02	10.31	-60.0	-62.8	3.7	0.00e+00	0	35	104	0	86	20268
2026-01-03 13:14:53.14	328.77	10.28	-59.9	-62.7	3.7	0.00e+00	0	35	104	0	86	20084
2026-01-03 13:14:54.15	328.52	10.24	-59.9	-62.7	3.7	0.00e+00	0	35	104	0	86	20142
2026-01-03 13:14:55.16	328.27	10.21	-59.9	-62.7	3.7	0.00e+00	0	36	104	0	86	20007
2026-01-03 13:14:56.16	328.03	10.17	-60.0	-62.7	3.7	0.00e+00	0	35	104	0	86	20121
2026-01-03 13:14:57.17	327.78	10.13	-59.9	-62.7	3.7	0.00e+00	0	36	104	0	86	19953
2026-01-03 13:14:58.18	327.54	10.10	-59.9	-62.7	3.7	0.00e+00	0	35	104	0	86	20018
2026-01-03 13:14:59.19	327.29	10.06	-59.9	-62.7	3.7	0.00e+00	0	35	104	0	86	20035
2026-01-03 13:15:00.20	327.05	10.02	-60.0	-62.8	3.7	0.00e+00	0	36	104	0	86	20201
2026-01-03 13:15:01.20	326.80	9.98	-59.9	-62.7	3.7	0.00e+00	0	35	104	0	86	19989
2026-01-03 13:15:02.21	326.56	9.94	-59.9	-62.7	3.7	0.00e+00	0	35	104	0	86	20014
2026-01-03 13:15:03.22	326.32	9.90	-59.9	-62.7	3.7	0.00e+00	0	35	104	0	86	19972
2026-01-03 13:15:04.23	326.08	9.86	-59.9	-62.7	3.7	0.00e+00	0	36	104	0	86	20103
2026-01-03 13:15:05.24	325.84	9.82	-59.9	-62.7	3.7	0.00e+00	0	35	104	0	86	19981
2026-01-03 13:15:06.25	325.60	9.78	-59.9	-62.7	3.7	0.00e+00	0	35	104	0	86	19945
2026-01-03 13:15:07.25	325.36	9.74	-59.9	-62.7	3.6	0.00e+00	0	35	104	0	86	19996
2026-01-03 13:15:08.26	325.12	9.70	-59.9	-62.7	3.7	0.00e+00	0	35	104	0	86	20126
2026-01-03 13:15:09.27	324.89	9.66	-59.9	-62.6	3.7	0.00e+00	0	35	104	0	86	19900
2026-01-03 13:15:10.28	324.65	9.62	-59.9	-62.7	3.7	0.00e+00	0	36	104	0	86	19960
2026-01-03 13:15:11.29	324.42	9.58	-59.9	-62.7	3.7	0.00e+00	0	35	104	0	86	19947
2026-01-03 13:15:12.29	324.18	9.54	-59.9	-62.7	3.7	0.00e+00	0	35	104	0	86	20110
2026-01-03 13:15:13.30	323.95	9.50	-59.9	-62.6	3.7	0.00e+00	0	36	104	0	86	19842
2026-01-03 13:15:14.31	323.72	9.45	-59.9	-62.7	3.7	0.00e+00	0	36	104	0	86	20013
2026-01-03 13:15:15.32	323.48	9.41	-59.9	-62.7	3.7	0.00e+00	0	35	104	0	86	19980
2026-01-03 13:15:16.32	323.26	9.37	-59.9	-62.7	3.7	0.00e+00	0	35	104	0	86	20087
2026-01-03 13:15:17.33	323.02	9.33	-59.8	-62.6	3.7	0.00e+00	0	36	104	0	86	19906
2026-01-03 13:15:18.34	322.80	9.28	-59.9	-62.6	3.7	0.00e+00	0	35	104	0	86	19915
2026-01-03 13:15:19.35	322.57	9.24	-59.9	-62.7	3.7	0.00e+00	0	35	104	0	86	20010
2026-01-03 13:15:20.36	322.34	9.19	-59.9	-62.7	3.7	0.00e+00	0	36	104	0	86	19964
2026-01-03 13:15:21.37	322.11	9.15	-59.8	-62.6	3.7	0.00e+00	0	36	104	0	86	19824
2026-01-03 13:15:22.38	321.89	9.11	-59.9	-62.7	3.7	0.00e+00	0	35	104	0	86	19937
2026-01-03 13:15:23.38	321.66	9.06	-59.9	-62.7	3.7	0.00e+00	0	36	104	0	86	20042
2026-01-03 13:15:24.39	321.44	9.02	-59.9	-62.7	3.7	0.00e+00	0	35	104	0	86	19984
2026-01-03 13:15:25.40	321.21	8.97	-59.8	-62.6	3.7	0.00e+00	0	36	104	0	86	19805
2026-01-03 13:15:26.41	320.99	8.93	-59.8	-62.6	3.7	0.00e+00	0	35	104	0	86	19877
2026-01-03 13:15:27.42	320.77	8.88	-59.9	-62.7	3.7	0.00e+00	0	35	104	0	86	19952
2026-01-03 13:15:28.43	320.55	8.83	-59.9	-62.7	3.7	0.00e+00	0	35	104	0	86	19974
2026-01-03 13:15:29.44	320.33	8.79	-59.8	-62.6	3.7	0.00e+00	0	36	104	0	86	19831
2026-01-03 13:15:30.45	320.11	8.74	-59.8	-62.6	3.7	0.00e+00	0	35	104	0	86	19815
2026-01-03 13:15:31.45	319.89	8.69	-59.9	-62.6	3.7	0.00e+00	0	36	104	0	86	19894
2026-01-03 13:15:32.46	319.68	8.65	-59.8	-62.7	3.7	0.00e+00	0	36	104	0	86	19978
2026-01-03 13:15:33.46	319.46	8.60	-59.8	-62.6	3.7	0.00e+00	0	36	104	0	86	19811
2026-01-03 13:15:34.47	319.25	8.55	-59.8	-62.6	3.7	0.00e+00	0	35	104	0	86	19810
2026-01-03 13:15:35.48	319.03	8.51	-59.9	-62.6	3.7	0.00e+00	0	36	104	0	86	19901
2026-01-03 13:15:36.49	318.82	8.46	-59.8	-62.6	3.7	0.00e+00	0	35	104	0	86	19926
2026-01-03 13:15:37.49	318.61	8.41	-59.8	-62.6	3.7	0.00e+00	0	36	104	0	86	19774
2026-01-03 13:15:38.50	318.39	8.36	-59.8	-62.5	3.7	0.00e+00	0	36	104	0	86	19697
2026-01-03 13:15:39.51	318.18	8.31	-59.9	-62.7	3.7	0.00e+00	0	36	104	0	86	19942
2026-01-03 13:15:40.52	317.97	8.27	-59.8	-62.6	3.7	0.00e+00	0	35	104	0	86	19783
2026-01-03 13:15:41.53	317.76	8.22	-59.8	-62.6	3.7	0.00e+00	0	35	104	0	86	19722
2026-01-03 13:15:42.54	317.55	8.17	-59.8	-62.6	3.7	0.00e+00	0	36	104	0	86	19787
2026-01-03 13:15:43.55	317.35	8.12	-59.8	-62.6	3.7	0.00e+00	0	35	104	0	86	19827
2026-01-03 13:15:44.56	317.14	8.07	-59.8	-62.5	3.7	0.00e+00	0	36	104	0	86	19695
2026-01-03 13:15:45.57	316.93	8.02	-59.8	-62.6	3.7	0.00e+00	0	35	104	0	86	19712
2026-01-03 13:15:46.57	316.73	7.97	-59.8	-62.6	3.7	0.00e+00	0	36	104	0	86	19771
2026-01-03 13:15:47.58	316.53	7.92	-59.8	-62.6	3.7	0.00e+00	0	35	104	0	86	19854
2026-01-03 13:15:48.59	316.32	7.87	-59.8	-62.5	3.7	0.00e+00	0	35	104	0	86	19672
2026-01-03 13:15:49.59	316.12	7.82	-59.7	-62.5	3.7	0.00e+00	0	36	104	0	86	19616
2026-01-03 13:15:50.60	315.92	7.77	-59.7	-62.5	3.7	0.00e+00	0	35	104	0	86	19635
2026-01-03 13:15:51.61	315.72	7.72	-59.8	-62.6	3.7	0.00e+00	0	35	104	0	86	19771
2026-01-03 13:15:52.61	315.52	7.67	-59.7	-62.5	3.7	0.00e+00	0	36	104	0	86	19615
2026-01-03 13:15:53.62	315.32	7.62	-59.7	-62.5	3.7	0.00e+00	0	36	104	0	86	19608
2026-01-03 13:15:54.63	315.12	7.57	-59.7	-62.5	3.6	0.00e+00	0	36	104	0	86	19620
2026-01-03 13:15:55.64	314.93	7.52	-59.8	-62.6	3.7	0.00e+00	0	35	104	0	86	19756
2026-01-03 13:15:56.65	314.73	7.47	-59.7	-62.5	3.7	0.00e+00	0	35	104	0	86	19579
2026-01-03 13:15:57.66	314.53	7.42	-59.7	-62.5	3.7	0.00e+00	0	36	104	0	86	19613
2026-01-03 13:15:58.66	314.34	7.37	-59.7	-62.5	3.7	0.00e+00	0	35	104	0	86	19553
2026-01-03 13:15:59.67	314.15	7.32	-59.8	-62.6	3.7	0.00e+00	0	36	104	0	86	19765
2026-01-03 13:16:00.68	313.96	7.26	-59.7	-62.5	3.7	0.00e+00	0	36	104	0	86	19572
2026-01-03 13:16:01.68	313.76	7.21	-59.7	-62.5	3.7	0.00e+00	0	36	104	0	86	19552
2026-01-03 13:16:02.69	313.57	7.16	-59.7	-62.5	3.7	0.00e+00	0	35	104	0	86	19498
2026-01-03 13:16:03.69	313.39	7.11	-59.8	-62.6	3.7	0.00e+00	0	36	104	0	86	19716
2026-01-03 13:16:04.70	313.20	7.06	-59.7	-62.4	3.6	0.00e+00	0	36	104	0	86	19472
2026-01-03 13:16:05.70	313.01	7.01	-59.7	-62.4	3.7	0.00e+00	0	36	104	0	86	19449
2026-01-03 13:16:06.71	312.82	6.95	-59.6	-62.4	3.7	0.00e+00	0	36	104	0	86	19475
2026-01-03 13:16:07.72	312.63	6.90	-59.7	-62.5	3.7	0.00e+00	0	36	104	0	86	19678
2026-01-03 13:16:08.72	312.45	6.85	-59.6	-62.4	3.7	0.00e+00	0	36	104	0	86	19450
2026-01-03 13:16:09.73	312.26	6.80	-59.6	-62.4	3.7	0.00e+00	0	35	104	0	86	19374
2026-01-03 13:16:10.74	312.08	6.75	-59.6	-62.4	3.7	0.00e+00	0	35	104	0	86	19362
2026-01-03 13:16:11.75	311.90	6.69	-59.7	-62.5	3.7	0.00e+00	0	36	104	0	86	19617
2026-01-03 13:16:12.76	311.71	6.64	-59.6	-62.4	3.6	0.00e+00	0	36	104	0	86	19338
2026-01-03 13:16:13.76	311.53	6.59	-59.6	-62.4	3.7	0.00e+00	0	35	104	0	86	19370
2026-01-03 13:16:14.77	311.35	6.54	-59.6	-62.4	3.7	0.00e+00	0	36	104	0	86	19332
2026-01-03 13:16:15.78	311.17	6.48	-59.7	-62.5	3.7	0.00e+00	0	36	104	0	86	19529
2026-01-03 13:16:16.79	310.99	6.43	-59.6	-62.3	3.7	0.00e+00	0	36	104	0	86	19221
2026-01-03 13:16:17.80	310.81	6.38	-59.6	-62.4	3.7	0.00e+00	0	35	104	0	86	19284
2026-01-03 13:16:18.81	310.64	6.32	-59.6	-62.4	3.7	0.00e+00	0	35	104	0	86	19289
2026-01-03 13:16:19.81	310.46	6.27	-59.7	-62.5	3.7	0.00e+00	0	36	104	0	86	19530
2026-01-03 13:16:20.82	310.28	6.22	-59.5	-62.3	3.7	0.00e+00	0	36	104	0	86	19123
2026-01-03 13:16:21.83	310.11	6.16	-59.5	-62.3	3.7	0.00e+00	0	36	104	0	86	19221
2026-01-03 13:16:22.84	309.94	6.11	-59.5	-62.3	3.7	0.00e+00	0	35	104	0	86	19189
2026-01-03 13:16:23.85	309.76	6.06	-59.7	-62.4	3.7	0.00e+00	0	35	104	0	86	19428
2026-01-03 13:16:24.85	309.59	6.00	-59.5	-62.3	3.7	0.00e+00	0	35	104	0	86	19076
2026-01-03 13:16:25.86	309.42	5.95	-59.5	-62.3	3.7	0.00e+00	0	35	104	0	86	19100
2026-01-03 13:16:26.87	309.25	5.90	-59.5	-62.3	3.7	0.00e+00	0	35	104	0	86	19199
2026-01-03 13:16:27.87	309.08	5.84	-59.6	-62.4	3.7	0.00e+00	0	36	104	0	86	19333
2026-01-03 13:16:28.88	308.91	5.79	-59.4	-62.2	3.7	0.00e+00	0	36	104	0	86	18968
2026-01-03 13:16:29.89	308.74	5.74	-59.5	-62.3	3.7	0.00e+00	0	35	104	0	86	19055
2026-01-03 13:16:30.89	308.57	5.68	-59.5	-62.3	3.6	0.00e+00	0	36	104	0	86	19080
2026-01-03 13:16:31.89	308.41	5.63	-59.6	-62.4	3.7	0.00e+00	0	36	104	0	86	19283
2026-01-03 13:16:32.90	308.24	5.58	-59.4	-62.2	3.7	0.00e+00	0	35	104	0	86	18828
2026-01-03 13:16:33.91	308.08	5.52	-59.4	-62.2	3.7	0.00e+00	0	36	104	0	85	20012
2026-01-03 13:16:34.92	307.91	5.47	-59.4	-62.2	3.7	0.00e+00	0	35	104	0	85	20101
2026-01-03 13:16:35.93	307.75	5.41	-59.5	-62.3	3.7	0.00e+00	0	36	104	0	85	20365
2026-01-03 13:16:36.93	307.59	5.36	-59.3	-62.1	3.7	0.00e+00	0	35	104	0	85	19815
2026-01-03 13:16:37.94	307.42	5.31	-59.4	-62.2	3.7	0.00e+00	0	36	104	0	85	19953
2026-01-03 13:16:38.95	307.26	5.25	-59.4	-62.2	3.7	0.00e+00	0	36	104	0	85	19992
2026-01-03 13:16:39.95	307.10	5.20	-59.5	-62.3	3.7	0.00e+00	0	36	104	0	85	20292
2026-01-03 13:16:40.97	306.94	5.14	-59.2	-62.0	3.7	0.00e+00	0	36	104	0	85	19680
2026-01-03 13:16:41.98	306.78	5.09	-59.3	-62.1	3.7	0.00e+00	0	35	104	0	85	19824
2026-01-03 13:16:42.98	306.62	5.04	-59.4	-62.2	3.7	0.00e+00	0	36	104	0	85	19951
2026-01-03 13:16:43.99	306.46	4.98	-59.5	-62.3	3.7	0.00e+00	0	36	104	0	85	20325
2026-01-03 13:16:45.00	306.31	4.93	-59.9	-62.6	3.7	0.00e+00	0	36	104	0	85	21095
2026-01-03 13:16:46.01	306.15	4.87	-60.2	-63.0	3.7	0.00e+00	0	36	104	0	86	20730
2026-01-03 13:16:47.02	306.00	4.82	-60.4	-63.2	3.7	0.00e+00	0	36	104	0	86	21314
2026-01-03 13:16:48.02	305.84	4.76	-60.6	-63.4	3.7	0.00e+00	0	35	104	0	87	20597
2026-01-03 13:16:49.03	305.69	4.71	-60.8	-63.6	3.7	0.00e+00	0	36	104	0	87	21003
2026-01-03 13:16:50.04	305.53	4.66	-61.0	-63.8	3.7	0.00e+00	0	35	104	0	87	21393
2026-01-03 13:16:51.05	305.38	4.60	-61.1	-63.9	3.7	0.00e+00	0	35	104	0	87	21704
2026-01-03 13:16:52.06	305.23	4.55	-61.2	-64.0	3.7	0.00e+00	0	35	104	0	88	20702
2026-01-03 13:16:53.07	305.08	4.49	-61.3	-64.1	3.7	0.00e+00	0	36	104	0	88	20996
2026-01-03 13:16:54.08	304.93	4.44	-61.4	-64.2	3.7	0.00e+00	0	35	104	0	88	21235
2026-01-03 13:16:55.09	304.78	4.38	-61.5	-64.3	3.7	0.00e+00	0	36	104	0	88	21367
2026-01-03 13:16:56.10	304.63	4.33	-61.5	-64.3	3.7	0.00e+00	0	36	104	0	88	21536
2026-01-03 13:16:57.11	304.48	4.28	-61.6	-64.3	3.7	0.00e+00	0	36	104	0	88	21582
2026-01-03 13:16:58.12	304.33	4.22	-61.6	-64.4	3.7	0.00e+00	0	35	104	0	89	20558
2026-01-03 13:16:59.13	304.19	4.17	-61.7	-64.4	3.7	0.00e+00	0	36	104	0	89	20580
2026-01-03 13:17:00.14	304.04	4.11	-61.7	-64.5	3.6	0.00e+00	0	35	104	0	89	20634
2026-01-03 13:17:01.15	303.89	4.06	-61.7	-64.4	3.7	0.00e+00	0	36	104	0	89	20626
2026-01-03 13:17:02.15	303.75	4.00	-61.7	-64.5	3.7	0.00e+00	0	36	104	0	89	20664
2026-01-03 13:17:03.16	303.61	3.95	-61.7	-64.5	3.7	0.00e+00	0	36	104	0	89	20642
2026-01-03 13:17:04.17	303.46	3.89	-61.7	-64.5	3.7	0.00e+00	0	35	104	0	89	20711
2026-01-03 13:17:05.18	303.32	3.84	-61.7	-64.5	3.7	0.00e+00	0	36	104	0	89	20668
2026-01-03 13:17:06.20	303.18	3.79	-61.7	-64.5	3.7	0.00e+00	0	35	104	0	89	20712
2026-01-03 13:17:07.20	303.04	3.73	-61.7	-64.5	3.7	0.00e+00	0	36	104	0	89	20708
2026-01-03 13:17:08.21	302.90	3.68	-61.6	-64.4	3.7	0.00e+00	0	36	104	0	89	20591
2026-01-03 13:17:09.22	302.76	3.62	-61.6	-64.4	3.7	0.00e+00	0	35	104	0	89	20597
2026-01-03 13:17:10.23	302.62	3.57	-61.6	-64.4	3.7	0.00e+00	0	36	104	0	89	20442
2026-01-03 13:17:11.24	302.48	3.51	-61.5	-64.3	3.7	0.00e+00	0	35	104	0	89	20366
2026-01-03 13:17:12.25	302.34	3.46	-61.5	-64.3	3.7	0.00e+00	0	36	104	0	89	20368
2026-01-03 13:17:13.25	302.20	3.41	-61.5	-64.3	3.7	0.00e+00	0	36	104	0	89	20349
2026-01-03 13:17:14.26	302.07	3.35	-61.5	-64.3	3.7	0.00e+00	0	36	104	0	89	20297
2026-01-03 13:17:15.26	301.93	3.30	-61.5	-64.3	3.7	0.00e+00	0	36	104	0	89	20176
2026-01-03 13:17:16.27	301.80	3.24	-61.5	-64.2	3.7	0.00e+00	0	36	104	0	89	20106
2026-01-03 13:17:17.28	301.66	3.19	-61.4	-64.2	3.7	0.00e+00	0	36	104	0	89	20113
2026-01-03 13:17:18.28	301.53	3.14	-61.4	-64.2	3.7	0.00e+00	0	35	104	0	89	20100
2026-01-03 13:17:19.29	301.40	3.08	-61.4	-64.2	3.7	0.00e+00	0	36	104	0	89	20097
2026-01-03 13:17:20.30	301.26	3.03	-61.4	-64.2	3.7	0.00e+00	0	36	104	0	89	20079
2026-01-03 13:17:21.31	301.13	2.97	-61.4	-64.2	3.7	0.00e+00	0	36	104	0	89	20138
2026-01-03 13:17:22.32	301.00	2.92	-61.4	-64.2	3.7	0.00e+00	0	36	104	0	89	20064
2026-01-03 13:17:23.33	300.87	2.87	-61.4	-64.2	3.7	0.00e+00	0	36	104	0	89	20136
2026-01-03 13:17:24.34	300.74	2.81	-61.4	-64.2	3.7	0.00e+00	0	35	104	0	89	20072
2026-01-03 13:17:25.35	300.61	2.76	-61.4	-64.2	3.7	0.00e+00	0	36	104	0	89	20066
2026-01-03 13:17:26.35	300.48	2.70	-61.4	-64.2	3.7	0.00e+00	0	35	104	0	89	20033
2026-01-03 13:17:27.36	300.35	2.65	-61.4	-64.2	3.7	0.00e+00	0	36	104	0	89	20036
2026-01-03 13:17:28.37	300.22	2.60	-61.4	-64.2	3.7	0.00e+00	0	36	104	0	89	20050
2026-01-03 13:17:29.38	300.10	2.54	-61.4	-64.2	3.7	0.00e+00	0	36	104	0	89	20038
2026-01-03 13:17:30.38	299.97	2.49	-61.4	-64.2	3.7	0.00e+00	0	35	104	0	89	19984
2026-01-03 13:17:31.39	299.85	2.44	-61.4	-64.2	3.7	0.00e+00	0	36	104	0	89	19977
2026-01-03 13:17:32.40	299.72	2.38	-61.4	-64.2	3.7	0.00e+00	0	35	104	0	89	19966
2026-01-03 13:17:33.41	299.60	2.33	-61.4	-64.2	3.7	0.00e+00	0	35	104	0	89	19976
2026-01-03 13:17:34.42	299.47	2.27	-61.4	-64.2	3.7	0.00e+00	0	35	104	0	89	20010
2026-01-03 13:17:35.43	299.35	2.22	-61.4	-64.2	3.7	0.00e+00	0	35	104	0	89	19946
2026-01-03 13:17:36.43	299.23	2.17	-61.4	-64.2	3.7	0.00e+00	0	35	104	0	89	19997
2026-01-03 13:17:37.44	299.10	2.11	-61.4	-64.2	3.7	0.00e+00	0	36	104	0	89	19939
2026-01-03 13:17:38.45	298.98	2.06	-61.4	-64.1	3.7	0.00e+00	0	36	104	0	89	19917
2026-01-03 13:17:39.46	298.86	2.01	-61.4	-64.1	3.7	0.00e+00	0	36	104	0	89	19909

#Closed at: 2026-01-03 13:17:40
#Recorded file [0 MB]: D:/lorett/data/31004_260103_160941.dat