passes_logs/2026/01/03/R3.2S_Murmansk/R3.2S_Murmansk__20260103_123500_FENGYUN_3D_rec.log

#Pass ID: 20260103_123500_FENGYUN 3D
#Satellite: FENGYUN 3D
#Configuration: FENGYUN 3D
#almurnet v.1.7.20251203
#Start time: 2026-01-03 12:35:01

#Version: 2.2.20231116
#Station: R3.2S_Murmansk
#Location: 33.079688 lon 68.888172 lat
#TLE: 1 43010U 17072A   26002.95198047  .00000207  00000+0  11963-3 0  9999
#TLE: 2 43010  98.9912 334.5826 0001910 130.7105 229.4237 14.19692231421540

#Time	Az	El	Level	Level2	SNR	BER	BlckErr	Temp	State	Recorded	gain1	gain2
2026-01-03 12:35:01.78	177.13	2.08	-61.4	-74.0	3.8	8.45e-01	0	28	0	0	88	15867
2026-01-03 12:35:02.77	177.16	2.14	-61.3	-73.9	3.8	8.46e-01	0	28	104	0	87	16637
2026-01-03 12:35:03.77	177.20	2.20	-61.3	-73.9	3.8	8.45e-01	0	28	104	0	87	16693
2026-01-03 12:35:04.76	177.23	2.27	-61.3	-73.9	3.8	8.46e-01	0	29	104	0	87	16639
2026-01-03 12:35:05.75	177.26	2.33	-61.3	-73.9	3.8	8.45e-01	0	28	104	0	87	16573
2026-01-03 12:35:06.75	177.29	2.39	-61.2	-73.9	3.8	8.46e-01	0	29	104	0	87	16507
2026-01-03 12:35:07.74	177.33	2.45	-61.2	-73.8	3.8	8.45e-01	0	28	104	0	87	16443
2026-01-03 12:35:08.74	177.36	2.52	-61.2	-73.8	3.8	8.46e-01	0	29	104	0	87	16346
2026-01-03 12:35:09.73	177.39	2.58	-61.1	-73.7	3.8	8.45e-01	0	28	104	0	87	16253
2026-01-03 12:35:10.72	177.43	2.64	-61.0	-73.7	3.8	8.46e-01	0	28	104	0	87	16158
2026-01-03 12:35:11.72	177.46	2.71	-61.0	-73.6	3.9	8.46e-01	0	29	104	0	87	15960
2026-01-03 12:35:12.72	177.50	2.77	-60.9	-73.5	3.8	8.44e-01	0	29	104	0	87	15788
2026-01-03 12:35:13.72	177.53	2.84	-60.8	-73.4	3.8	8.45e-01	0	29	104	0	87	15632
2026-01-03 12:35:14.72	177.56	2.90	-60.6	-73.2	3.8	8.44e-01	0	29	104	0	87	15332
2026-01-03 12:35:15.71	177.60	2.96	-60.4	-72.9	3.8	8.46e-01	0	29	104	0	87	14844
2026-01-03 12:35:16.71	177.63	3.03	-60.0	-72.4	3.8	8.46e-01	0	29	104	0	86	14730
2026-01-03 12:35:17.70	177.67	3.09	-59.8	-72.0	3.8	8.45e-01	0	29	104	0	86	14158
2026-01-03 12:35:18.69	177.70	3.16	-59.8	-72.0	3.8	8.46e-01	0	29	104	0	86	14047
2026-01-03 12:35:19.68	177.74	3.22	-59.8	-72.0	3.8	8.46e-01	0	29	104	0	86	14156
2026-01-03 12:35:20.68	177.77	3.29	-59.8	-72.1	3.8	8.46e-01	0	29	104	0	86	14223
2026-01-03 12:35:21.66	177.81	3.35	-59.8	-72.2	3.8	8.46e-01	0	29	104	0	86	14511
2026-01-03 12:35:22.65	177.84	3.41	-59.8	-72.3	3.8	8.45e-01	0	29	104	0	86	14565
2026-01-03 12:35:23.64	177.88	3.48	-59.7	-72.0	3.8	8.46e-01	0	29	104	0	86	14070
2026-01-03 12:35:24.64	177.91	3.54	-59.7	-71.2	3.8	8.45e-01	0	29	104	0	86	12932
2026-01-03 12:35:25.63	177.95	3.61	-59.6	-70.2	3.8	8.44e-01	0	29	104	0	85	12121
2026-01-03 12:35:26.63	177.98	3.68	-59.4	-68.4	4.3	8.37e-01	0	29	0	0	85	9858
2026-01-03 12:35:27.63	178.02	3.74	-59.2	-67.2	4.7	8.13e-01	0	29	0	0	85	8621
2026-01-03 12:35:28.62	178.06	3.81	-59.0	-66.0	5.4	7.43e-01	0	29	0	0	84	7926
2026-01-03 12:35:29.62	178.09	3.87	-58.7	-64.8	6.1	3.66e-01	0	29	0	4194304	84	6914
2026-01-03 12:35:30.62	178.13	3.94	-58.4	-64.1	6.4	1.95e-01	0	29	0	9437184	83	6760
2026-01-03 12:35:31.60	178.16	4.01	-58.1	-63.1	7.2	1.31e-01	0	29	0	14680064	82	6411
2026-01-03 12:35:32.60	178.20	4.07	-57.8	-62.3	8.0	7.24e-02	0	29	0	20971520	82	5820
2026-01-03 12:35:33.60	178.24	4.14	-57.6	-61.9	8.3	3.66e-02	0	29	0	26214400	81	5875
2026-01-03 12:35:34.59	178.28	4.21	-57.2	-61.0	9.1	1.57e-02	0	29	0	31457280	81	5304
2026-01-03 12:35:35.58	178.31	4.27	-56.8	-60.3	9.7	5.83e-03	0	29	0	37748736	80	5161
2026-01-03 12:35:36.58	178.35	4.34	-56.5	-59.5	10.3	2.18e-03	0	29	0	42991616	79	5023
2026-01-03 12:35:37.58	178.39	4.41	-56.0	-58.7	11.0	5.37e-04	0	29	0	49283072	78	4815
2026-01-03 12:35:38.57	178.42	4.48	-55.4	-57.8	11.6	4.57e-05	0	29	0	54525952	77	4630
2026-01-03 12:35:39.56	178.46	4.54	-54.9	-57.0	12.1	5.70e-06	0	29	0	59768832	76	4470
2026-01-03 12:35:40.56	178.50	4.61	-54.4	-56.3	12.5	2.20e-06	0	29	0	65011712	75	4364
2026-01-03 12:35:41.56	178.54	4.68	-53.9	-55.6	12.9	0.00e+00	0	29	0	71303168	74	4268
2026-01-03 12:35:42.55	178.58	4.75	-53.6	-55.2	13.1	0.00e+00	0	29	0	76546048	73	4340
2026-01-03 12:35:43.54	178.62	4.82	-53.3	-54.9	13.4	0.00e+00	0	29	0	81788928	73	4157
2026-01-03 12:35:44.53	178.65	4.88	-53.3	-54.8	13.4	0.00e+00	0	29	0	88080384	73	4142
2026-01-03 12:35:45.52	178.69	4.95	-53.3	-54.8	13.4	0.00e+00	0	29	0	93323264	73	4139
2026-01-03 12:35:46.52	178.73	5.02	-53.6	-55.2	13.1	0.00e+00	0	29	0	98566144	73	4312
2026-01-03 12:35:47.51	178.77	5.09	-53.4	-55.0	13.3	0.00e+00	0	29	0	104857600	73	4204
2026-01-03 12:35:48.52	178.81	5.16	-54.5	-56.5	12.4	0.00e+00	0	29	0	110100480	74	4715
2026-01-03 12:35:49.52	178.85	5.23	-53.4	-55.0	13.3	1.10e-06	0	29	0	115343360	72	4464
2026-01-03 12:35:50.52	178.89	5.30	-58.0	-63.1	7.3	4.55e-02	0	29	0	121634816	81	6750
2026-01-03 12:35:51.51	178.93	5.37	-53.9	-55.6	12.8	4.78e-01	0	29	0	123731968	74	4254
2026-01-03 12:35:52.51	178.97	5.44	-51.1	-52.2	14.5	0.00e+00	0	29	0	130023424	68	4078
2026-01-03 12:35:53.51	179.01	5.51	-51.0	-52.1	14.5	0.00e+00	0	29	0	135266304	68	4022
2026-01-03 12:35:54.51	179.05	5.58	-50.9	-52.0	14.6	0.00e+00	0	29	0	140509184	68	3982
2026-01-03 12:35:55.50	179.09	5.65	-50.9	-52.0	14.6	0.00e+00	0	29	0	146800640	68	3987
2026-01-03 12:35:56.50	179.13	5.72	-50.9	-52.0	14.6	0.00e+00	0	29	0	152043520	68	4003
2026-01-03 12:35:57.50	179.17	5.79	-50.9	-52.0	14.6	0.00e+00	0	29	0	157286400	68	3980
2026-01-03 12:35:58.49	179.21	5.86	-50.9	-51.9	14.6	0.00e+00	0	29	0	163577856	68	3954
2026-01-03 12:35:59.48	179.25	5.94	-50.9	-52.0	14.6	0.00e+00	0	29	0	168820736	68	3961
2026-01-03 12:36:00.47	179.29	6.01	-50.9	-51.9	14.6	0.00e+00	0	29	0	174063616	68	3954
2026-01-03 12:36:01.46	179.34	6.08	-50.9	-52.0	14.6	0.00e+00	0	29	0	180355072	68	3979
2026-01-03 12:36:02.46	179.38	6.15	-50.9	-52.0	14.6	0.00e+00	0	29	0	185597952	68	3996
2026-01-03 12:36:03.45	179.42	6.22	-50.8	-51.9	14.6	0.00e+00	0	29	0	190840832	68	3942
2026-01-03 12:36:04.44	179.46	6.29	-50.8	-51.9	14.7	0.00e+00	0	30	0	197132288	68	3924
2026-01-03 12:36:05.43	179.50	6.36	-50.9	-52.0	14.6	0.00e+00	0	29	0	202375168	68	3989
2026-01-03 12:36:06.42	179.55	6.44	-51.0	-52.1	14.6	0.00e+00	0	30	0	207618048	68	4020
2026-01-03 12:36:07.42	179.59	6.51	-50.9	-52.0	14.6	0.00e+00	0	29	0	213909504	68	3988
2026-01-03 12:36:08.42	179.63	6.58	-50.8	-51.8	14.7	0.00e+00	0	29	0	219152384	68	3902
2026-01-03 12:36:09.42	179.68	6.66	-50.8	-51.8	14.7	0.00e+00	0	29	0	224395264	68	3894
2026-01-03 12:36:10.41	179.72	6.73	-50.8	-51.9	14.7	0.00e+00	0	30	0	230686720	68	3934
2026-01-03 12:36:11.40	179.76	6.80	-50.8	-51.9	14.7	0.00e+00	0	30	0	235929600	68	3921
2026-01-03 12:36:12.40	179.81	6.88	-50.8	-51.8	14.7	0.00e+00	0	29	0	241172480	68	3905
2026-01-03 12:36:13.39	179.85	6.95	-50.7	-51.8	14.7	0.00e+00	0	29	0	247463936	68	3878
2026-01-03 12:36:14.39	179.89	7.02	-50.7	-51.7	14.6	0.00e+00	0	30	0	252706816	67	4097
2026-01-03 12:36:15.38	179.94	7.10	-50.6	-51.6	14.7	0.00e+00	0	30	0	258998272	67	4044
2026-01-03 12:36:16.37	179.98	7.17	-50.6	-51.7	14.7	0.00e+00	0	30	0	264241152	67	4057
2026-01-03 12:36:17.36	180.03	7.25	-50.5	-51.5	14.7	0.00e+00	0	30	0	269484032	67	3991
2026-01-03 12:36:18.34	180.07	7.32	-50.5	-51.5	14.7	0.00e+00	0	30	0	274726912	67	3985
2026-01-03 12:36:19.33	180.12	7.40	-50.5	-51.6	14.7	0.00e+00	0	30	0	281018368	67	4012
2026-01-03 12:36:20.31	180.16	7.47	-50.6	-51.6	14.7	0.00e+00	0	30	0	286261248	67	4050
2026-01-03 12:36:21.30	180.21	7.54	-50.5	-51.5	14.8	0.00e+00	0	30	0	291504128	67	3983
2026-01-03 12:36:22.30	180.25	7.62	-50.4	-51.4	14.8	0.00e+00	0	29	0	297795584	67	3957
2026-01-03 12:36:23.30	180.30	7.70	-50.3	-51.3	14.8	0.00e+00	0	30	0	303038464	67	3894
2026-01-03 12:36:24.29	180.34	7.77	-50.4	-51.4	14.8	0.00e+00	0	30	0	308281344	67	3924
2026-01-03 12:36:25.28	180.39	7.85	-50.3	-51.2	14.9	0.00e+00	0	30	0	314572800	67	3866
2026-01-03 12:36:26.26	180.44	7.92	-50.3	-51.3	14.8	0.00e+00	0	30	0	319815680	67	3889
2026-01-03 12:36:27.25	180.48	8.00	-50.3	-51.3	14.8	0.00e+00	0	30	0	325058560	67	3911
2026-01-03 12:36:28.24	180.53	8.08	-50.1	-51.0	14.9	0.00e+00	0	29	0	330301440	66	3998
2026-01-03 12:36:29.23	180.58	8.15	-50.0	-51.0	14.9	0.00e+00	0	29	0	336592896	66	3965
2026-01-03 12:36:30.23	180.62	8.23	-50.1	-51.0	14.9	0.00e+00	0	30	0	341835776	66	3999
2026-01-03 12:36:31.21	180.67	8.31	-50.1	-51.1	14.9	0.00e+00	0	30	0	347078656	66	4030
2026-01-03 12:36:32.21	180.72	8.39	-50.1	-51.1	14.9	0.00e+00	0	30	0	353370112	66	4022
2026-01-03 12:36:33.22	180.77	8.47	-49.9	-50.8	15.0	0.00e+00	0	30	0	358612992	66	3910
2026-01-03 12:36:34.21	180.82	8.54	-49.8	-50.7	15.0	0.00e+00	0	30	0	363855872	66	3849
2026-01-03 12:36:35.21	180.87	8.62	-49.8	-50.7	15.0	0.00e+00	0	30	0	370147328	66	3866
2026-01-03 12:36:36.21	180.92	8.70	-49.7	-50.6	15.1	0.00e+00	0	30	0	375390208	66	3824
2026-01-03 12:36:37.20	180.96	8.78	-49.8	-50.7	15.1	0.00e+00	0	29	0	380633088	66	3840
2026-01-03 12:36:38.19	181.01	8.86	-49.8	-50.7	15.0	0.00e+00	0	30	0	386924544	66	3843
2026-01-03 12:36:39.18	181.06	8.94	-49.7	-50.6	15.1	0.00e+00	0	30	0	392167424	66	3807
2026-01-03 12:36:40.17	181.11	9.02	-49.7	-50.6	15.1	0.00e+00	0	30	0	397410304	66	3796
2026-01-03 12:36:41.16	181.16	9.10	-49.7	-50.6	15.0	0.00e+00	0	30	0	403701760	65	4009
2026-01-03 12:36:42.16	181.21	9.18	-49.6	-50.6	15.0	0.00e+00	0	30	0	408944640	65	4005
2026-01-03 12:36:43.15	181.26	9.26	-49.7	-50.6	15.0	0.00e+00	0	30	0	414187520	65	4028
2026-01-03 12:36:44.14	181.32	9.34	-49.6	-50.5	15.0	0.00e+00	0	30	0	420478976	65	3989
2026-01-03 12:36:45.13	181.37	9.42	-49.6	-50.5	15.1	0.00e+00	0	30	0	425721856	65	3971
2026-01-03 12:36:46.11	181.42	9.50	-49.5	-50.4	15.1	0.00e+00	0	30	0	430964736	65	3946
2026-01-03 12:36:47.10	181.47	9.58	-49.6	-50.5	15.1	0.00e+00	0	30	0	437256192	65	3965
2026-01-03 12:36:48.10	181.52	9.66	-49.6	-50.5	15.1	0.00e+00	0	30	0	442499072	65	3980
2026-01-03 12:36:49.10	181.57	9.74	-49.7	-50.7	15.0	0.00e+00	0	30	0	447741952	65	4057
2026-01-03 12:36:50.08	181.63	9.82	-49.6	-50.5	15.0	0.00e+00	0	30	0	454033408	65	3977
2026-01-03 12:36:51.07	181.68	9.91	-49.6	-50.5	15.0	0.00e+00	0	30	0	459276288	65	3986
2026-01-03 12:36:52.07	181.73	9.99	-49.6	-50.6	15.0	0.00e+00	0	30	0	464519168	65	4016
2026-01-03 12:36:53.06	181.79	10.07	-49.7	-50.7	15.0	0.00e+00	0	30	0	469762048	65	4062
2026-01-03 12:36:54.05	181.84	10.16	-49.7	-50.6	15.0	0.00e+00	0	30	0	476053504	65	4049
2026-01-03 12:36:55.05	181.89	10.24	-49.6	-50.5	15.1	0.00e+00	0	30	0	481296384	65	4000
2026-01-03 12:36:56.05	181.95	10.32	-49.6	-50.5	15.0	0.00e+00	0	30	0	487587840	65	3992
2026-01-03 12:36:57.04	182.00	10.41	-49.6	-50.5	15.1	0.00e+00	0	30	0	492830720	65	3990
2026-01-03 12:36:58.04	182.06	10.49	-49.6	-50.5	15.1	0.00e+00	0	30	0	498073600	65	3984
2026-01-03 12:36:59.03	182.11	10.58	-49.6	-50.6	15.0	0.00e+00	0	30	0	504365056	65	4017
2026-01-03 12:37:00.01	182.17	10.66	-49.5	-50.4	15.1	0.00e+00	0	30	0	509607936	65	3954
2026-01-03 12:37:01.02	182.22	10.75	-49.5	-50.5	15.1	0.00e+00	0	30	0	514850816	65	3959
2026-01-03 12:37:02.00	182.28	10.83	-49.5	-50.4	15.1	0.00e+00	0	30	0	521142272	65	3943
2026-01-03 12:37:03.00	182.34	10.92	-49.6	-50.5	15.1	0.00e+00	0	30	0	526385152	65	3989
2026-01-03 12:37:04.00	182.39	11.00	-49.6	-50.5	15.1	0.00e+00	0	30	0	531628032	65	3968
2026-01-03 12:37:04.99	182.45	11.09	-49.5	-50.3	15.1	0.00e+00	0	30	0	537919488	65	3913
2026-01-03 12:37:05.98	182.51	11.17	-49.4	-50.3	15.1	0.00e+00	0	30	0	543162368	65	3911
2026-01-03 12:37:06.97	182.56	11.26	-49.4	-50.3	15.2	0.00e+00	0	30	0	548405248	65	3899
2026-01-03 12:37:07.96	182.62	11.35	-49.5	-50.4	15.2	0.00e+00	0	30	0	553648128	65	3920
2026-01-03 12:37:08.95	182.68	11.43	-49.3	-50.2	15.2	0.00e+00	0	30	0	559939584	65	3853
2026-01-03 12:37:09.95	182.74	11.52	-49.4	-50.3	15.2	0.00e+00	0	30	0	565182464	65	3875
2026-01-03 12:37:10.95	182.80	11.61	-49.4	-50.3	15.2	0.00e+00	0	30	0	571473920	65	3887
2026-01-03 12:37:11.94	182.86	11.70	-49.4	-50.3	15.2	0.00e+00	0	30	0	576716800	65	3879
2026-01-03 12:37:12.93	182.92	11.79	-49.2	-50.1	15.3	0.00e+00	0	30	0	581959680	65	3785
2026-01-03 12:37:13.92	182.98	11.87	-49.3	-50.1	15.2	0.00e+00	0	30	0	588251136	65	3818
2026-01-03 12:37:14.92	183.04	11.96	-49.2	-50.1	15.3	0.00e+00	0	30	0	593494016	65	3810
2026-01-03 12:37:15.92	183.10	12.05	-49.0	-49.9	15.2	0.00e+00	0	30	0	598736896	64	3939
2026-01-03 12:37:16.91	183.16	12.14	-49.1	-50.0	15.2	0.00e+00	0	30	0	603979776	64	3975
2026-01-03 12:37:17.90	183.22	12.23	-49.1	-50.0	15.2	0.00e+00	0	30	0	610271232	64	3976
2026-01-03 12:37:18.89	183.28	12.32	-49.2	-50.0	15.2	0.00e+00	0	30	0	615514112	64	3995
2026-01-03 12:37:19.87	183.34	12.41	-49.1	-50.0	15.2	0.00e+00	0	30	0	620756992	64	3976
2026-01-03 12:37:20.86	183.40	12.50	-49.1	-50.0	15.2	0.00e+00	0	30	0	627048448	64	3961
2026-01-03 12:37:21.86	183.47	12.59	-49.2	-50.1	15.2	0.00e+00	0	30	0	632291328	64	4015
2026-01-03 12:37:22.85	183.53	12.68	-49.1	-49.9	15.2	0.00e+00	0	30	0	637534208	64	3957
2026-01-03 12:37:23.85	183.59	12.78	-49.1	-50.0	15.2	0.00e+00	0	30	0	643825664	64	3985
2026-01-03 12:37:24.85	183.66	12.87	-49.2	-50.0	15.2	0.00e+00	0	30	0	649068544	64	4000
2026-01-03 12:37:25.85	183.72	12.96	-49.1	-50.0	15.2	0.00e+00	0	30	0	654311424	64	3970
2026-01-03 12:37:26.84	183.79	13.05	-49.1	-50.0	15.2	0.00e+00	0	30	0	660602880	64	3981
2026-01-03 12:37:27.83	183.85	13.15	-49.1	-50.0	15.2	0.00e+00	0	30	0	665845760	64	3989
2026-01-03 12:37:28.83	183.92	13.24	-49.1	-50.0	15.2	0.00e+00	0	30	0	672137216	64	3961
2026-01-03 12:37:29.83	183.98	13.33	-49.1	-50.0	15.2	0.00e+00	0	30	0	677380096	64	3971
2026-01-03 12:37:30.82	184.05	13.43	-49.0	-49.9	15.3	0.00e+00	0	30	0	682622976	64	3915
2026-01-03 12:37:31.81	184.11	13.52	-48.9	-49.8	15.3	0.00e+00	0	30	0	687865856	64	3878
2026-01-03 12:37:32.80	184.18	13.62	-48.9	-49.7	15.3	0.00e+00	0	30	0	694157312	64	3865
2026-01-03 12:37:33.80	184.25	13.71	-48.8	-49.6	15.3	0.00e+00	0	30	0	699400192	64	3818
2026-01-03 12:37:34.81	184.32	13.81	-48.8	-49.6	15.4	0.00e+00	0	30	0	704643072	64	3805
2026-01-03 12:37:35.80	184.39	13.90	-48.9	-49.7	15.3	0.00e+00	0	30	0	710934528	64	3842
2026-01-03 12:37:36.79	184.45	14.00	-48.8	-49.6	15.3	0.00e+00	0	30	0	716177408	64	3819
2026-01-03 12:37:37.78	184.52	14.10	-48.8	-49.6	15.3	0.00e+00	0	30	0	722468864	64	3815
2026-01-03 12:37:38.77	184.59	14.19	-48.7	-49.5	15.4	0.00e+00	0	30	0	727711744	64	3767
2026-01-03 12:37:39.76	184.66	14.29	-48.7	-49.5	15.3	0.00e+00	0	30	0	732954624	63	3998
2026-01-03 12:37:40.76	184.73	14.39	-48.7	-49.6	15.3	0.00e+00	0	30	0	738197504	63	4007
2026-01-03 12:37:41.76	184.80	14.48	-48.7	-49.5	15.3	0.00e+00	0	30	0	744488960	63	3982
2026-01-03 12:37:42.75	184.87	14.58	-48.8	-49.6	15.3	0.00e+00	0	30	0	749731840	63	4027
2026-01-03 12:37:43.75	184.95	14.68	-48.7	-49.5	15.3	0.00e+00	0	30	0	754974720	63	4000
2026-01-03 12:37:44.76	185.02	14.78	-48.7	-49.5	15.3	0.00e+00	0	30	0	761266176	63	4003
2026-01-03 12:37:45.76	185.09	14.88	-48.8	-49.6	15.3	0.00e+00	0	30	0	766509056	63	4030
2026-01-03 12:37:46.75	185.16	14.98	-48.8	-49.7	15.3	0.00e+00	0	30	0	772800512	63	4058
2026-01-03 12:37:47.75	185.24	15.08	-48.7	-49.6	15.3	0.00e+00	0	30	0	778043392	63	4012
2026-01-03 12:37:48.74	185.31	15.18	-48.5	-49.4	15.4	0.00e+00	0	30	0	783286272	63	3921
2026-01-03 12:37:49.73	185.39	15.28	-48.4	-49.3	15.4	0.00e+00	0	30	0	789577728	63	3878
2026-01-03 12:37:50.73	185.46	15.38	-48.5	-49.3	15.4	0.00e+00	0	30	0	794820608	63	3909
2026-01-03 12:37:51.71	185.54	15.48	-48.4	-49.3	15.4	0.00e+00	0	30	0	800063488	63	3869
2026-01-03 12:37:52.69	185.61	15.58	-48.3	-49.1	15.5	0.00e+00	0	30	0	805306368	63	3797
2026-01-03 12:37:53.69	185.69	15.69	-48.2	-49.0	15.5	0.00e+00	0	30	0	811597824	63	3763
2026-01-03 12:37:54.68	185.76	15.79	-48.3	-49.0	15.5	0.00e+00	0	30	0	816840704	63	3780
2026-01-03 12:37:55.67	185.84	15.89	-48.2	-49.0	15.5	0.00e+00	0	30	0	822083584	63	3763
2026-01-03 12:37:56.66	185.92	15.99	-48.2	-49.0	15.4	0.00e+00	0	30	0	828375040	62	3970
2026-01-03 12:37:57.66	186.00	16.10	-48.1	-48.9	15.5	0.00e+00	0	30	0	833617920	62	3932
2026-01-03 12:37:58.66	186.08	16.20	-48.2	-49.0	15.5	0.00e+00	0	30	0	838860800	62	3970
2026-01-03 12:37:59.66	186.16	16.31	-48.1	-48.9	15.5	0.00e+00	0	30	0	845152256	62	3944
2026-01-03 12:38:00.65	186.24	16.41	-48.2	-49.0	15.4	0.00e+00	0	30	0	850395136	62	3967
2026-01-03 12:38:01.65	186.32	16.52	-48.3	-49.1	15.4	0.00e+00	0	30	0	856686592	62	4013
2026-01-03 12:38:02.64	186.40	16.62	-48.2	-49.0	15.4	0.00e+00	0	30	0	861929472	62	3995
2026-01-03 12:38:03.64	186.48	16.73	-48.1	-48.9	15.5	0.00e+00	0	30	0	867172352	62	3916
2026-01-03 12:38:04.64	186.56	16.84	-47.9	-48.7	15.6	0.00e+00	0	30	0	873463808	62	3829
2026-01-03 12:38:05.64	186.64	16.95	-47.9	-48.6	15.6	0.00e+00	0	30	0	878706688	62	3815
2026-01-03 12:38:06.63	186.73	17.05	-47.8	-48.5	15.6	0.00e+00	0	30	0	883949568	62	3778
2026-01-03 12:38:07.63	186.81	17.16	-47.6	-48.3	15.6	0.00e+00	0	30	0	890241024	61	3909
2026-01-03 12:38:08.63	186.90	17.27	-47.6	-48.3	15.6	0.00e+00	0	30	0	895483904	61	3903
2026-01-03 12:38:09.63	186.98	17.38	-47.6	-48.3	15.6	0.00e+00	0	30	0	900726784	61	3889
2026-01-03 12:38:10.63	187.07	17.49	-47.5	-48.2	15.6	0.00e+00	0	30	0	907018240	61	3849
2026-01-03 12:38:11.61	187.15	17.60	-47.4	-48.2	15.6	0.00e+00	0	30	0	912261120	61	3835
2026-01-03 12:38:12.60	187.24	17.71	-47.5	-48.2	15.6	0.00e+00	0	30	0	917504000	61	3848
2026-01-03 12:38:13.60	187.33	17.82	-47.5	-48.2	15.6	0.00e+00	0	30	0	923795456	61	3862
2026-01-03 12:38:14.60	187.41	17.93	-47.5	-48.2	15.6	0.00e+00	0	30	0	929038336	61	3845
2026-01-03 12:38:15.59	187.50	18.04	-47.5	-48.2	15.6	0.00e+00	0	30	0	934281216	61	3852
2026-01-03 12:38:16.60	187.59	18.15	-47.6	-48.3	15.6	0.00e+00	0	30	0	940572672	61	3901
2026-01-03 12:38:17.59	187.68	18.27	-47.6	-48.4	15.6	0.00e+00	0	30	0	945815552	61	3921
2026-01-03 12:38:18.59	187.77	18.38	-47.6	-48.3	15.6	0.00e+00	0	30	0	951058432	61	3899
2026-01-03 12:38:19.58	187.86	18.49	-47.6	-48.4	15.6	0.00e+00	0	30	0	957349888	61	3926
2026-01-03 12:38:20.58	187.96	18.61	-47.7	-48.4	15.6	0.00e+00	0	30	0	962592768	61	3946
2026-01-03 12:38:21.58	188.05	18.72	-47.6	-48.4	15.6	0.00e+00	0	30	0	968884224	61	3918
2026-01-03 12:38:22.58	188.14	18.84	-47.6	-48.4	15.6	0.00e+00	0	30	0	974127104	61	3930
2026-01-03 12:38:23.57	188.24	18.95	-47.5	-48.3	15.6	0.00e+00	0	30	0	979369984	61	3871
2026-01-03 12:38:24.57	188.33	19.07	-47.5	-48.2	15.6	0.00e+00	0	30	0	984612864	61	3868
2026-01-03 12:38:25.56	188.43	19.18	-47.4	-48.2	15.7	0.00e+00	0	30	0	990904320	61	3833
2026-01-03 12:38:26.56	188.52	19.30	-47.5	-48.3	15.6	0.00e+00	0	30	0	996147200	61	3878
2026-01-03 12:38:27.56	188.62	19.42	-47.5	-48.2	15.6	0.00e+00	0	30	0	1001390080	61	3855
2026-01-03 12:38:28.57	188.72	19.53	-47.5	-48.2	15.6	0.00e+00	0	30	0	1007681536	61	3864
2026-01-03 12:38:29.58	188.82	19.65	-47.5	-48.2	15.6	0.00e+00	0	30	0	1012924416	61	3868
2026-01-03 12:38:30.59	188.92	19.77	-47.5	-48.2	15.6	0.00e+00	0	30	0	1019215872	61	3865
2026-01-03 12:38:31.60	189.02	19.90	-47.4	-48.1	15.6	0.00e+00	0	30	0	1024458752	61	3824
2026-01-03 12:38:32.60	189.12	20.02	-47.4	-48.1	15.7	0.00e+00	0	30	0	1030750208	61	3803
2026-01-03 12:38:33.61	189.22	20.14	-47.4	-48.1	15.7	0.00e+00	0	30	0	1035993088	61	3823
2026-01-03 12:38:34.61	189.32	20.26	-47.4	-48.1	15.6	0.00e+00	0	30	0	1041235968	61	3812
2026-01-03 12:38:35.62	189.43	20.38	-47.3	-48.0	15.7	0.00e+00	0	30	0	1047527424	61	3765
2026-01-03 12:38:36.63	189.53	20.50	-47.3	-48.0	15.7	0.00e+00	0	30	0	1052770304	61	3761
2026-01-03 12:38:37.63	189.64	20.63	-47.1	-47.8	15.7	0.00e+00	0	30	0	1059061760	60	3903
2026-01-03 12:38:38.64	189.74	20.75	-47.0	-47.7	15.7	0.00e+00	0	30	0	1064304640	60	3853
2026-01-03 12:38:39.65	189.85	20.88	-47.0	-47.7	15.7	0.00e+00	0	30	0	1069547520	60	3838
2026-01-03 12:38:40.66	189.96	21.00	-46.9	-47.6	15.7	0.00e+00	0	30	0	1075838976	60	3804
2026-01-03 12:38:41.67	190.07	21.13	-46.9	-47.6	15.7	0.00e+00	0	30	0	1081081856	60	3809
2026-01-03 12:38:42.67	190.18	21.25	-46.9	-47.6	15.7	0.00e+00	0	30	0	1087373312	60	3793
2026-01-03 12:38:43.68	190.29	21.38	-46.9	-47.6	15.7	0.00e+00	0	30	0	1092616192	60	3793
2026-01-03 12:38:44.69	190.40	21.51	-47.0	-47.7	15.7	0.00e+00	0	30	0	1097859072	60	3837
2026-01-03 12:38:45.70	190.51	21.63	-46.9	-47.6	15.7	0.00e+00	0	30	0	1104150528	60	3791
2026-01-03 12:38:46.71	190.62	21.76	-47.0	-47.7	15.7	0.00e+00	0	30	0	1109393408	60	3832
2026-01-03 12:38:47.71	190.74	21.89	-46.9	-47.6	15.7	0.00e+00	0	30	0	1115684864	60	3817
2026-01-03 12:38:48.72	190.85	22.02	-47.0	-47.7	15.7	0.00e+00	0	30	0	1120927744	60	3837
2026-01-03 12:38:49.73	190.97	22.15	-47.0	-47.8	15.7	0.00e+00	0	30	0	1127219200	60	3873
2026-01-03 12:38:50.74	191.08	22.28	-47.0	-47.7	15.7	0.00e+00	0	30	0	1132462080	60	3842
2026-01-03 12:38:51.75	191.20	22.41	-46.8	-47.5	15.8	0.00e+00	0	30	0	1137704960	60	3778
2026-01-03 12:38:52.75	191.32	22.54	-46.8	-47.5	15.8	0.00e+00	0	30	0	1143996416	60	3778
2026-01-03 12:38:53.75	191.44	22.67	-46.8	-47.4	15.8	0.00e+00	0	30	0	1149239296	60	3736
2026-01-03 12:38:54.77	191.56	22.81	-46.7	-47.4	15.8	0.00e+00	0	30	0	1154482176	60	3736
2026-01-03 12:38:55.78	191.68	22.94	-46.7	-47.4	15.8	0.00e+00	0	30	0	1160773632	60	3735
2026-01-03 12:38:56.78	191.80	23.07	-46.7	-47.4	15.8	0.00e+00	0	30	0	1166016512	60	3736
2026-01-03 12:38:57.79	191.93	23.21	-46.7	-47.4	15.8	0.00e+00	0	30	0	1172307968	60	3714
2026-01-03 12:38:58.80	192.05	23.34	-46.7	-47.4	15.8	0.00e+00	0	30	0	1177550848	60	3729
2026-01-03 12:38:59.81	192.18	23.48	-47.0	-47.7	15.6	0.00e+00	0	30	0	1182793728	59	4082
2026-01-03 12:39:00.82	192.31	23.61	-47.0	-47.7	15.6	0.00e+00	0	30	0	1189085184	59	4074
2026-01-03 12:39:01.82	192.43	23.75	-46.9	-47.6	15.7	0.00e+00	0	30	0	1194328064	59	4020
2026-01-03 12:39:02.83	192.56	23.89	-46.8	-47.5	15.7	0.00e+00	0	30	0	1200619520	59	3995
2026-01-03 12:39:03.84	192.69	24.03	-46.8	-47.5	15.7	0.00e+00	0	30	0	1205862400	59	3999
2026-01-03 12:39:04.85	192.82	24.16	-46.7	-47.4	15.7	0.00e+00	0	30	0	1212153856	59	3941
2026-01-03 12:39:05.86	192.96	24.30	-46.8	-47.5	15.7	0.00e+00	0	30	0	1217396736	59	3981
2026-01-03 12:39:06.86	193.09	24.44	-46.8	-47.5	15.7	0.00e+00	0	30	0	1222639616	59	4003
2026-01-03 12:39:07.88	193.23	24.58	-46.9	-47.6	15.7	0.00e+00	0	30	0	1228931072	59	4017
2026-01-03 12:39:08.88	193.36	24.72	-46.9	-47.6	15.6	0.00e+00	0	30	0	1234173952	59	4050
2026-01-03 12:39:09.89	193.50	24.86	-46.8	-47.6	15.7	0.00e+00	0	30	0	1240465408	59	4010
2026-01-03 12:39:10.90	193.64	25.01	-47.0	-47.6	15.7	0.00e+00	0	30	0	1245708288	59	4035
2026-01-03 12:39:11.91	193.78	25.15	-47.0	-47.6	15.7	0.00e+00	0	30	0	1250951168	59	4005
2026-01-03 12:39:12.91	193.91	25.29	-46.9	-47.5	15.7	0.00e+00	0	30	0	1257242624	59	3984
2026-01-03 12:39:13.92	194.06	25.43	-46.9	-47.5	15.7	0.00e+00	0	30	0	1262485504	59	3988
2026-01-03 12:39:14.93	194.20	25.58	-46.9	-47.5	15.7	0.00e+00	0	30	0	1268776960	59	3986
2026-01-03 12:39:15.93	194.34	25.72	-46.9	-47.5	15.7	0.00e+00	0	30	0	1274019840	59	3976
2026-01-03 12:39:16.94	194.49	25.87	-46.9	-47.5	15.7	0.00e+00	0	30	0	1279262720	59	3978
2026-01-03 12:39:17.95	194.64	26.02	-46.9	-47.5	15.7	0.00e+00	0	30	0	1285554176	59	3996
2026-01-03 12:39:18.97	194.79	26.16	-46.9	-47.4	15.8	0.00e+00	0	30	0	1290797056	59	3950
2026-01-03 12:39:19.98	194.94	26.31	-46.8	-47.4	15.8	0.00e+00	0	30	0	1297088512	59	3926
2026-01-03 12:39:20.99	195.09	26.46	-46.8	-47.4	15.8	0.00e+00	0	30	0	1302331392	59	3914
2026-01-03 12:39:22.00	195.24	26.61	-46.7	-47.3	15.8	0.00e+00	0	30	0	1308622848	59	3902
2026-01-03 12:39:23.00	195.39	26.76	-46.8	-47.4	15.8	0.00e+00	0	30	0	1313865728	59	3922
2026-01-03 12:39:24.01	195.55	26.91	-46.9	-47.4	15.8	0.00e+00	0	30	0	1319108608	59	3958
2026-01-03 12:39:25.02	195.70	27.06	-46.8	-47.4	15.8	0.00e+00	0	30	0	1325400064	59	3939
2026-01-03 12:39:26.03	195.86	27.21	-46.6	-47.2	15.9	0.00e+00	0	30	0	1330642944	59	3848
2026-01-03 12:39:27.04	196.02	27.36	-46.7	-47.3	15.8	0.00e+00	0	30	0	1336934400	59	3869
2026-01-03 12:39:28.05	196.18	27.51	-46.6	-47.2	15.8	0.00e+00	0	30	0	1342177280	59	3826
2026-01-03 12:39:29.06	196.35	27.67	-46.6	-47.2	15.8	0.00e+00	0	30	0	1347420160	59	3844
2026-01-03 12:39:30.06	196.51	27.82	-46.7	-47.2	15.8	0.00e+00	0	30	0	1353711616	59	3851
2026-01-03 12:39:31.07	196.67	27.97	-46.6	-47.1	15.9	0.00e+00	0	30	0	1358954496	59	3824
2026-01-03 12:39:32.08	196.84	28.13	-46.5	-47.1	15.9	0.00e+00	0	30	0	1365245952	59	3788
2026-01-03 12:39:33.09	197.01	28.28	-46.6	-47.2	15.8	0.00e+00	0	31	0	1370488832	59	3851
2026-01-03 12:39:34.10	197.18	28.44	-46.6	-47.2	15.8	0.00e+00	0	30	0	1375731712	59	3847
2026-01-03 12:39:35.11	197.35	28.60	-46.6	-47.2	15.9	0.00e+00	0	30	0	1382023168	59	3827
2026-01-03 12:39:36.12	197.53	28.75	-46.7	-47.3	15.8	0.00e+00	0	30	0	1387266048	59	3882
2026-01-03 12:39:37.13	197.70	28.91	-46.7	-47.3	15.8	0.00e+00	0	30	0	1393557504	59	3911
2026-01-03 12:39:38.14	197.88	29.07	-46.7	-47.3	15.8	0.00e+00	0	30	0	1398800384	59	3895
2026-01-03 12:39:39.15	198.06	29.23	-46.8	-47.5	15.8	0.00e+00	0	30	0	1405091840	59	3959
2026-01-03 12:39:40.16	198.24	29.39	-46.7	-47.2	15.8	0.00e+00	0	30	0	1410334720	59	3857
2026-01-03 12:39:41.17	198.42	29.55	-46.6	-47.2	15.8	0.00e+00	0	30	0	1415577600	59	3844
2026-01-03 12:39:42.18	198.60	29.71	-46.8	-47.4	15.8	0.00e+00	0	30	0	1421869056	59	3917
2026-01-03 12:39:43.18	198.79	29.87	-46.6	-47.2	15.8	0.00e+00	0	30	0	1427111936	59	3844
2026-01-03 12:39:44.19	198.98	30.03	-46.6	-47.2	15.8	0.00e+00	0	30	0	1433403392	59	3840
2026-01-03 12:39:45.20	199.17	30.19	-46.6	-47.2	15.9	0.00e+00	0	30	0	1438646272	59	3826
2026-01-03 12:39:46.21	199.36	30.36	-46.5	-47.0	15.9	0.00e+00	0	30	0	1443889152	59	3778
2026-01-03 12:39:47.22	199.55	30.52	-46.5	-47.0	15.9	0.00e+00	0	30	0	1450180608	59	3780
2026-01-03 12:39:48.23	199.74	30.69	-46.5	-47.0	15.9	0.00e+00	0	30	0	1455423488	59	3770
2026-01-03 12:39:49.24	199.94	30.85	-46.5	-47.0	15.9	0.00e+00	0	31	0	1461714944	59	3778
2026-01-03 12:39:50.24	200.14	31.02	-46.6	-47.2	15.9	0.00e+00	0	30	0	1466957824	59	3833
2026-01-03 12:39:51.25	200.34	31.18	-46.5	-47.0	15.9	0.00e+00	0	30	0	1472200704	59	3765
2026-01-03 12:39:52.26	200.54	31.35	-47.0	-47.6	15.7	0.00e+00	0	30	0	1478492160	59	4005
2026-01-03 12:39:53.27	200.75	31.52	-46.7	-47.3	15.8	0.00e+00	0	30	0	1483735040	59	3897
2026-01-03 12:39:54.28	200.96	31.68	-46.7	-47.3	15.8	0.00e+00	0	30	0	1490026496	59	3904
2026-01-03 12:39:55.29	201.17	31.85	-46.6	-47.1	15.9	0.00e+00	0	30	0	1495269376	59	3820
2026-01-03 12:39:56.30	201.38	32.02	-46.5	-47.1	15.9	0.00e+00	0	30	0	1501560832	59	3801
2026-01-03 12:39:57.30	201.59	32.19	-46.5	-47.1	15.9	0.00e+00	0	30	0	1506803712	59	3802
2026-01-03 12:39:58.31	201.80	32.36	-46.6	-47.2	15.9	0.00e+00	0	30	0	1512046592	59	3842
2026-01-03 12:39:59.32	202.02	32.53	-46.4	-47.0	15.9	0.00e+00	0	30	0	1518338048	59	3760
2026-01-03 12:40:00.32	202.24	32.70	-46.4	-47.0	15.9	0.00e+00	0	30	0	1523580928	59	3741
2026-01-03 12:40:01.33	202.46	32.87	-46.3	-46.9	16.0	0.00e+00	0	30	0	1529872384	59	3721
2026-01-03 12:40:02.34	202.69	33.04	-46.4	-46.9	16.0	0.00e+00	0	30	0	1535115264	59	3731
2026-01-03 12:40:03.35	202.92	33.22	-46.3	-46.9	16.0	0.00e+00	0	30	0	1540358144	59	3718
2026-01-03 12:40:04.36	203.14	33.39	-46.5	-47.1	15.9	0.00e+00	0	30	0	1546649600	59	3804
2026-01-03 12:40:05.37	203.38	33.56	-46.6	-47.2	15.8	0.00e+00	0	30	0	1551892480	59	3855
2026-01-03 12:40:06.38	203.61	33.74	-46.6	-47.2	15.9	0.00e+00	0	30	0	1558183936	59	3848
2026-01-03 12:40:07.39	203.85	33.91	-46.6	-47.2	15.8	0.00e+00	0	30	0	1563426816	59	3854
2026-01-03 12:40:08.40	204.09	34.09	-46.5	-47.1	15.9	0.00e+00	0	30	0	1568669696	59	3804
2026-01-03 12:40:09.41	204.33	34.26	-46.3	-46.9	16.0	0.00e+00	0	30	0	1574961152	59	3713
2026-01-03 12:40:10.41	204.57	34.44	-46.4	-46.9	16.0	0.00e+00	0	30	0	1580204032	59	3723
2026-01-03 12:40:11.43	204.82	34.62	-46.2	-46.8	16.0	0.00e+00	0	30	0	1586495488	59	3666
2026-01-03 12:40:12.43	205.07	34.79	-46.2	-46.7	16.0	0.00e+00	0	30	0	1591738368	59	3644
2026-01-03 12:40:13.44	205.32	34.97	-46.1	-46.7	15.9	0.00e+00	0	30	0	1598029824	58	3838
2026-01-03 12:40:14.45	205.58	35.15	-46.1	-46.6	15.9	0.00e+00	0	30	0	1603272704	58	3823
2026-01-03 12:40:15.46	205.83	35.32	-46.2	-46.8	15.9	0.00e+00	0	30	0	1608515584	58	3884
2026-01-03 12:40:16.47	206.09	35.50	-46.3	-46.9	15.8	0.00e+00	0	30	0	1614807040	58	3932
2026-01-03 12:40:17.48	206.36	35.68	-46.3	-46.9	15.8	0.00e+00	0	31	0	1620049920	58	3937
2026-01-03 12:40:18.49	206.62	35.86	-46.3	-46.9	15.8	0.00e+00	0	30	0	1626341376	58	3936
2026-01-03 12:40:19.50	206.89	36.04	-46.2	-46.8	15.8	0.00e+00	0	30	0	1631584256	58	3875
2026-01-03 12:40:20.51	207.17	36.22	-46.3	-46.9	15.8	0.00e+00	0	30	0	1636827136	58	3927
2026-01-03 12:40:21.52	207.44	36.40	-46.2	-46.7	15.9	0.00e+00	0	30	0	1643118592	58	3866
2026-01-03 12:40:22.52	207.72	36.58	-46.2	-46.7	15.9	0.00e+00	0	30	0	1648361472	58	3860
2026-01-03 12:40:23.53	208.00	36.76	-46.3	-46.9	15.8	0.00e+00	0	30	0	1654652928	58	3926
2026-01-03 12:40:24.54	208.28	36.94	-46.3	-46.8	15.8	0.00e+00	0	30	0	1659895808	58	3901
2026-01-03 12:40:25.55	208.57	37.12	-46.1	-46.6	15.9	0.00e+00	0	30	0	1665138688	58	3816
2026-01-03 12:40:26.55	208.86	37.30	-46.0	-46.5	16.0	0.00e+00	0	30	0	1671430144	58	3777
2026-01-03 12:40:27.56	209.15	37.48	-46.0	-46.5	16.0	0.00e+00	0	30	0	1676673024	58	3778
2026-01-03 12:40:28.57	209.45	37.66	-46.0	-46.5	16.0	0.00e+00	0	30	0	1682964480	58	3754
2026-01-03 12:40:29.58	209.75	37.84	-45.9	-46.5	16.0	0.00e+00	0	30	0	1688207360	58	3759
2026-01-03 12:40:30.59	210.05	38.03	-46.0	-46.5	16.0	0.00e+00	0	30	0	1694498816	58	3770
2026-01-03 12:40:31.60	210.36	38.21	-45.9	-46.5	16.0	0.00e+00	0	30	0	1699741696	58	3749
2026-01-03 12:40:32.60	210.66	38.39	-45.9	-46.4	16.0	0.00e+00	0	30	0	1704984576	58	3720
2026-01-03 12:40:33.61	210.98	38.57	-46.0	-46.5	16.0	0.00e+00	0	30	0	1711276032	58	3770
2026-01-03 12:40:34.61	211.29	38.75	-46.1	-46.7	15.9	0.00e+00	0	30	0	1716518912	58	3831
2026-01-03 12:40:35.62	211.61	38.93	-46.1	-46.7	15.9	0.00e+00	0	30	0	1721761792	58	3832
2026-01-03 12:40:36.63	211.94	39.11	-46.2	-46.7	15.9	0.00e+00	0	30	0	1728053248	58	3865
2026-01-03 12:40:37.64	212.26	39.29	-46.2	-46.8	15.9	0.00e+00	0	30	0	1733296128	58	3883
2026-01-03 12:40:38.64	212.59	39.47	-46.3	-46.9	15.8	0.00e+00	0	30	0	1739587584	58	3931
2026-01-03 12:40:39.65	212.93	39.66	-46.1	-46.6	15.9	0.00e+00	0	30	0	1744830464	58	3822
2026-01-03 12:40:40.66	213.26	39.84	-46.1	-46.6	15.9	0.00e+00	0	31	0	1750073344	58	3818
2026-01-03 12:40:41.67	213.61	40.02	-46.1	-46.7	15.9	0.00e+00	0	30	0	1756364800	58	3827
2026-01-03 12:40:42.67	213.95	40.20	-46.2	-46.7	15.9	0.00e+00	0	31	0	1761607680	58	3847
2026-01-03 12:40:43.68	214.30	40.38	-46.4	-46.9	15.8	0.00e+00	0	30	0	1767899136	58	3950
2026-01-03 12:40:44.69	214.65	40.56	-46.4	-47.0	15.8	0.00e+00	0	31	0	1773142016	58	3968
2026-01-03 12:40:45.70	215.01	40.74	-46.4	-47.0	15.8	0.00e+00	0	30	0	1779433472	58	3987
2026-01-03 12:40:46.71	215.37	40.92	-46.5	-47.1	15.8	0.00e+00	0	30	0	1784676352	58	4014
2026-01-03 12:40:47.72	215.74	41.10	-46.3	-46.8	15.8	0.00e+00	0	30	0	1789919232	58	3893
2026-01-03 12:40:48.72	216.10	41.28	-46.1	-46.7	15.9	0.00e+00	0	31	0	1796210688	58	3838
2026-01-03 12:40:49.73	216.48	41.46	-46.0	-46.6	15.9	0.00e+00	0	30	0	1801453568	58	3794
2026-01-03 12:40:50.74	216.85	41.64	-46.2	-46.7	15.8	0.00e+00	0	30	0	1807745024	58	3854
2026-01-03 12:40:51.75	217.24	41.81	-46.4	-47.0	15.8	0.00e+00	0	30	0	1812987904	58	3966
2026-01-03 12:40:52.75	217.62	41.99	-46.6	-47.2	15.7	0.00e+00	0	31	0	1818230784	58	4057
2026-01-03 12:40:53.76	218.01	42.17	-46.5	-47.1	15.8	0.00e+00	0	30	0	1824522240	58	4033
2026-01-03 12:40:54.77	218.40	42.34	-46.4	-47.0	15.8	0.00e+00	0	30	0	1829765120	58	3964
2026-01-03 12:40:55.77	218.80	42.52	-46.3	-46.8	15.9	0.00e+00	0	31	0	1835008000	58	3901
2026-01-03 12:40:56.78	219.20	42.69	-46.2	-46.7	15.9	0.00e+00	0	30	0	1841299456	58	3857
2026-01-03 12:40:57.78	219.60	42.86	-46.1	-46.7	15.9	0.00e+00	0	30	0	1846542336	58	3836
2026-01-03 12:40:58.79	220.01	43.04	-46.4	-47.0	15.8	0.00e+00	0	30	0	1852833792	58	3967
2026-01-03 12:40:59.80	220.43	43.21	-46.5	-47.1	15.7	0.00e+00	0	30	0	1858076672	58	4027
2026-01-03 12:41:00.81	220.85	43.38	-46.6	-47.2	15.7	0.00e+00	0	30	0	1864368128	58	4079
2026-01-03 12:41:01.82	221.28	43.55	-46.6	-47.2	15.7	0.00e+00	0	30	0	1869611008	58	4079
2026-01-03 12:41:02.82	221.70	43.72	-46.6	-47.1	15.7	0.00e+00	0	30	0	1875902464	58	4049
2026-01-03 12:41:03.83	222.13	43.89	-46.5	-47.1	15.8	0.00e+00	0	30	0	1881145344	58	4012
2026-01-03 12:41:04.84	222.57	44.05	-46.5	-47.1	15.7	0.00e+00	0	30	0	1886388224	58	4035
2026-01-03 12:41:05.85	223.01	44.22	-46.6	-47.1	15.7	0.00e+00	0	30	0	1892679680	58	4047
2026-01-03 12:41:06.86	223.46	44.39	-46.4	-47.0	15.8	0.00e+00	0	31	0	1897922560	58	3961
2026-01-03 12:41:07.87	223.91	44.55	-46.5	-47.1	15.7	0.00e+00	0	30	0	1903165440	58	4030
2026-01-03 12:41:08.88	224.37	44.71	-46.6	-47.2	15.7	0.00e+00	0	30	0	1909456896	58	4067
2026-01-03 12:41:09.89	224.83	44.87	-46.7	-47.2	15.7	0.00e+00	0	30	0	1914699776	58	4087
2026-01-03 12:41:10.90	225.30	45.03	-46.7	-47.3	15.7	0.00e+00	0	30	0	1920991232	58	4103
2026-01-03 12:41:11.91	225.77	45.19	-46.7	-47.3	15.7	0.00e+00	0	30	0	1926234112	58	4133
2026-01-03 12:41:12.92	226.24	45.35	-46.5	-47.0	15.7	0.00e+00	0	30	0	1931476992	58	3988
2026-01-03 12:41:13.92	226.72	45.50	-46.4	-46.9	15.8	0.00e+00	0	30	0	1937768448	58	3944
2026-01-03 12:41:14.92	227.20	45.66	-46.5	-47.0	15.8	0.00e+00	0	30	0	1943011328	58	4000
2026-01-03 12:41:15.93	227.69	45.81	-46.5	-47.1	15.7	0.00e+00	0	30	0	1949302784	58	4015
2026-01-03 12:41:16.94	228.18	45.96	-46.7	-47.3	15.7	0.00e+00	0	30	0	1954545664	58	4122
2026-01-03 12:41:17.95	228.68	46.11	-46.8	-47.4	15.7	0.00e+00	0	30	0	1960837120	58	4146
2026-01-03 12:41:18.96	229.18	46.26	-46.7	-47.3	15.7	0.00e+00	0	30	0	1966080000	58	4104
2026-01-03 12:41:19.97	229.69	46.40	-46.8	-47.4	15.7	0.00e+00	0	30	0	1971322880	58	4147
2026-01-03 12:41:20.98	230.20	46.54	-46.7	-47.3	15.7	0.00e+00	0	30	0	1977614336	58	4109
2026-01-03 12:41:21.99	230.72	46.69	-46.7	-47.2	15.7	0.00e+00	0	30	0	1982857216	58	4088
2026-01-03 12:41:23.00	231.24	46.83	-46.7	-47.3	15.7	0.00e+00	0	30	0	1989148672	58	4115
2026-01-03 12:41:24.00	231.76	46.96	-46.6	-47.2	15.8	0.00e+00	0	30	0	1994391552	58	4065
2026-01-03 12:41:25.01	232.29	47.10	-46.7	-47.2	15.8	0.00e+00	0	30	0	1999634432	58	4088
2026-01-03 12:41:26.02	232.82	47.23	-46.7	-47.2	15.7	0.00e+00	0	30	0	2005925888	58	4094
2026-01-03 12:41:27.03	233.36	47.36	-46.3	-46.9	15.8	0.00e+00	0	30	0	2011168768	58	3935
2026-01-03 12:41:28.03	233.90	47.49	-46.5	-47.0	15.8	0.00e+00	0	30	0	2017460224	58	3990
2026-01-03 12:41:29.04	234.45	47.61	-46.6	-47.2	15.7	0.00e+00	0	30	0	2022703104	58	4077
2026-01-03 12:41:30.05	235.00	47.74	-46.6	-47.2	15.7	0.00e+00	0	30	0	2027945984	58	4077
2026-01-03 12:41:31.06	235.56	47.86	-46.7	-47.3	15.7	0.00e+00	0	30	0	2034237440	58	4118
2026-01-03 12:41:32.07	236.12	47.98	-47.0	-47.6	15.8	0.00e+00	0	30	0	2039480320	59	4009
2026-01-03 12:41:33.08	236.69	48.09	-46.8	-47.3	15.8	0.00e+00	0	30	0	2045771776	59	3904
2026-01-03 12:41:34.08	237.25	48.20	-46.7	-47.2	15.8	0.00e+00	0	30	0	2051014656	59	3859
2026-01-03 12:41:35.09	237.82	48.31	-46.6	-47.1	15.9	0.00e+00	0	30	0	2057306112	59	3809
2026-01-03 12:41:36.09	238.40	48.42	-46.5	-47.1	15.9	0.00e+00	0	30	0	2062548992	59	3783
2026-01-03 12:41:37.10	238.98	48.53	-46.5	-47.0	15.9	0.00e+00	0	31	0	2067791872	59	3768
2026-01-03 12:41:38.11	239.56	48.63	-46.5	-47.1	15.9	0.00e+00	0	30	0	2074083328	59	3784
2026-01-03 12:41:39.12	240.15	48.73	-46.5	-47.1	15.9	0.00e+00	0	30	0	2079326208	59	3785
2026-01-03 12:41:40.12	240.74	48.82	-46.6	-47.2	15.9	0.00e+00	0	30	0	2084569088	59	3846
2026-01-03 12:41:41.13	241.33	48.91	-46.8	-47.3	15.8	0.00e+00	0	30	0	2090860544	59	3912
2026-01-03 12:41:42.14	241.93	49.00	-46.8	-47.3	15.8	0.00e+00	0	30	0	2096103424	59	3907
2026-01-03 12:41:43.15	242.54	49.09	-46.6	-47.2	15.9	0.00e+00	0	30	0	2102394880	59	3842
2026-01-03 12:41:44.15	243.14	49.17	-46.7	-47.3	15.8	0.00e+00	0	30	0	2107637760	59	3884
2026-01-03 12:41:45.16	243.75	49.25	-46.6	-47.1	15.9	0.00e+00	0	30	0	2112880640	59	3823
2026-01-03 12:41:46.17	244.36	49.33	-46.7	-47.2	15.8	0.00e+00	0	30	0	2119172096	59	3862
2026-01-03 12:41:47.18	244.98	49.40	-46.7	-47.3	15.8	0.00e+00	0	30	0	2124414976	59	3898
2026-01-03 12:41:48.19	245.60	49.47	-46.7	-47.3	15.8	0.00e+00	0	30	0	2130706432	59	3899
2026-01-03 12:41:49.20	246.22	49.54	-46.6	-47.1	15.9	0.00e+00	0	30	0	2135949312	59	3806
2026-01-03 12:41:50.21	246.84	49.61	-46.5	-47.1	15.9	0.00e+00	0	30	0	2142240768	59	3788
2026-01-03 12:41:51.21	247.46	49.66	-46.6	-47.2	15.9	0.00e+00	0	31	0	2147483648	59	3843
2026-01-03 12:41:52.22	248.09	49.72	-46.7	-47.3	15.8	0.00e+00	0	30	0	2152726528	59	3899
2026-01-03 12:41:53.23	248.72	49.77	-46.8	-47.3	15.8	0.00e+00	0	30	0	2159017984	59	3907
2026-01-03 12:41:54.24	249.36	49.82	-46.6	-47.2	15.9	0.00e+00	0	30	0	2164260864	59	3835
2026-01-03 12:41:55.25	249.99	49.87	-46.6	-47.1	15.9	0.00e+00	0	30	0	2170552320	59	3803
2026-01-03 12:41:56.26	250.63	49.91	-46.6	-47.1	15.9	0.00e+00	0	30	0	2175795200	59	3803
2026-01-03 12:41:57.26	251.26	49.95	-46.7	-47.3	15.9	0.00e+00	0	30	0	2181038080	59	3899
2026-01-03 12:41:58.27	251.90	49.98	-46.9	-47.5	15.8	0.00e+00	0	30	0	2187329536	59	3969
2026-01-03 12:41:59.28	252.54	50.02	-46.8	-47.4	15.8	0.00e+00	0	30	0	2192572416	59	3914
2026-01-03 12:42:00.29	253.18	50.04	-46.9	-47.4	15.8	0.00e+00	0	30	0	2198863872	59	3951
2026-01-03 12:42:01.29	253.82	50.07	-47.1	-47.7	15.7	0.00e+00	0	30	0	2204106752	59	4074
2026-01-03 12:42:02.30	254.47	50.09	-46.9	-47.5	15.8	0.00e+00	0	30	0	2209349632	59	3968
2026-01-03 12:42:03.31	255.11	50.10	-46.5	-47.0	15.9	0.00e+00	0	30	0	2215641088	59	3760
2026-01-03 12:42:04.32	255.76	50.12	-46.5	-47.1	15.9	0.00e+00	0	30	0	2220883968	59	3788
2026-01-03 12:42:05.33	256.41	50.12	-46.4	-47.0	15.9	0.00e+00	0	31	0	2227175424	59	3740
2026-01-03 12:42:06.33	257.05	50.13	-46.6	-47.2	15.9	0.00e+00	0	30	0	2232418304	59	3845
2026-01-03 12:42:07.34	257.69	50.13	-46.9	-47.4	15.8	0.00e+00	0	30	0	2238709760	59	3948
2026-01-03 12:42:08.34	258.33	50.13	-47.1	-47.7	15.7	0.00e+00	0	30	0	2243952640	59	4056
2026-01-03 12:42:09.35	258.98	50.12	-46.9	-47.4	15.8	0.00e+00	0	30	0	2249195520	59	3958
2026-01-03 12:42:10.36	259.63	50.11	-47.0	-47.6	15.7	0.00e+00	0	30	0	2255486976	59	4009
2026-01-03 12:42:11.37	260.27	50.10	-47.0	-47.6	15.7	0.00e+00	0	30	0	2260729856	59	4029
2026-01-03 12:42:12.38	260.92	50.08	-46.9	-47.5	15.8	0.00e+00	0	30	0	2267021312	59	3979
2026-01-03 12:42:13.39	261.56	50.06	-46.8	-47.4	15.8	0.00e+00	0	30	0	2272264192	59	3940
2026-01-03 12:42:14.39	262.20	50.03	-46.8	-47.4	15.8	0.00e+00	0	30	0	2277507072	59	3943
2026-01-03 12:42:15.40	262.84	50.00	-46.7	-47.2	15.8	0.00e+00	0	30	0	2283798528	59	3861
2026-01-03 12:42:16.41	263.48	49.97	-46.7	-47.2	15.8	0.00e+00	0	30	0	2289041408	59	3845
2026-01-03 12:42:17.41	264.11	49.93	-46.8	-47.3	15.8	0.00e+00	0	31	0	2294284288	59	3898
2026-01-03 12:42:18.42	264.75	49.89	-46.8	-47.4	15.8	0.00e+00	0	30	0	2300575744	59	3937
2026-01-03 12:42:19.43	265.39	49.85	-47.1	-47.7	15.7	0.00e+00	0	30	0	2305818624	59	4057
2026-01-03 12:42:20.44	266.02	49.80	-46.9	-47.5	15.8	0.00e+00	0	30	0	2312110080	59	3985
2026-01-03 12:42:21.45	266.65	49.75	-46.8	-47.4	15.8	0.00e+00	0	30	0	2317352960	59	3951
2026-01-03 12:42:22.46	267.28	49.70	-46.8	-47.4	15.8	0.00e+00	0	31	0	2323644416	59	3929
2026-01-03 12:42:23.47	267.91	49.64	-46.7	-47.3	15.8	0.00e+00	0	30	0	2328887296	59	3891
2026-01-03 12:42:24.48	268.54	49.58	-46.7	-47.3	15.8	0.00e+00	0	30	0	2335178752	59	3887
2026-01-03 12:42:25.49	269.16	49.51	-46.8	-47.3	15.8	0.00e+00	0	30	0	2340421632	59	3899
2026-01-03 12:42:26.50	269.78	49.44	-46.9	-47.4	15.8	0.00e+00	0	30	0	2345664512	59	3954
2026-01-03 12:42:27.51	270.40	49.37	-46.8	-47.4	15.8	0.00e+00	0	30	0	2351955968	59	3931
2026-01-03 12:42:28.51	271.00	49.30	-46.8	-47.3	15.8	0.00e+00	0	30	0	2357198848	59	3905
2026-01-03 12:42:29.52	271.62	49.22	-46.7	-47.3	15.8	0.00e+00	0	30	0	2362441728	59	3901
2026-01-03 12:42:30.52	272.22	49.14	-46.7	-47.2	15.9	0.00e+00	0	30	0	2368733184	59	3867
2026-01-03 12:42:31.53	272.82	49.05	-46.5	-47.1	15.9	0.00e+00	0	30	0	2373976064	59	3785
2026-01-03 12:42:32.54	273.42	48.97	-46.6	-47.2	15.9	0.00e+00	0	30	0	2380267520	59	3828
2026-01-03 12:42:33.55	274.02	48.88	-46.7	-47.2	15.8	0.00e+00	0	30	0	2385510400	59	3862
2026-01-03 12:42:34.55	274.61	48.78	-46.6	-47.2	15.8	0.00e+00	0	30	0	2390753280	59	3850
2026-01-03 12:42:35.56	275.20	48.69	-46.5	-47.1	15.9	0.00e+00	0	30	0	2397044736	59	3796
2026-01-03 12:42:36.57	275.79	48.59	-46.8	-47.3	15.8	0.00e+00	0	30	0	2402287616	59	3902
2026-01-03 12:42:37.58	276.37	48.48	-47.2	-47.8	15.7	0.00e+00	0	30	0	2408579072	59	4129
2026-01-03 12:42:38.59	276.95	48.38	-47.3	-47.9	15.7	0.00e+00	0	30	0	2413821952	59	4171
2026-01-03 12:42:39.59	277.52	48.27	-47.1	-47.7	15.7	0.00e+00	0	30	0	2420113408	59	4091
2026-01-03 12:42:40.60	278.09	48.16	-47.0	-47.6	15.7	0.00e+00	0	30	0	2425356288	59	4018
2026-01-03 12:42:41.61	278.66	48.04	-46.9	-47.4	15.8	0.00e+00	0	30	0	2430599168	59	3945
2026-01-03 12:42:42.62	279.22	47.93	-46.9	-47.5	15.7	0.00e+00	0	30	0	2436890624	59	3992
2026-01-03 12:42:43.62	279.77	47.81	-47.1	-47.7	15.7	0.00e+00	0	30	0	2442133504	59	4084
2026-01-03 12:42:44.63	280.33	47.69	-47.0	-47.6	15.7	0.00e+00	0	30	0	2448424960	59	4032
2026-01-03 12:42:45.64	280.88	47.56	-46.9	-47.5	15.8	0.00e+00	0	30	0	2453667840	59	3969
2026-01-03 12:42:46.65	281.42	47.44	-46.8	-47.4	15.8	0.00e+00	0	30	0	2458910720	59	3915
2026-01-03 12:42:47.66	281.96	47.31	-46.7	-47.2	15.8	0.00e+00	0	30	0	2465202176	59	3853
2026-01-03 12:42:48.67	282.50	47.18	-46.8	-47.4	15.8	0.00e+00	0	30	0	2470445056	59	3920
2026-01-03 12:42:49.68	283.03	47.04	-47.1	-47.7	15.7	0.00e+00	0	30	0	2476736512	59	4062
2026-01-03 12:42:50.69	283.56	46.91	-47.3	-47.9	15.6	0.00e+00	0	30	0	2481979392	59	4166
2026-01-03 12:42:51.70	284.08	46.77	-47.2	-47.8	15.7	0.00e+00	0	31	0	2487222272	59	4116
2026-01-03 12:42:52.70	284.60	46.63	-47.0	-47.6	15.7	0.00e+00	0	30	0	2493513728	59	4005
2026-01-03 12:42:53.71	285.11	46.49	-47.0	-47.6	15.7	0.00e+00	0	30	0	2498756608	59	4010
2026-01-03 12:42:54.72	285.62	46.34	-46.8	-47.4	15.8	0.00e+00	0	30	0	2505048064	59	3939
2026-01-03 12:42:55.73	286.13	46.20	-46.9	-47.4	15.8	0.00e+00	0	30	0	2510290944	59	3955
2026-01-03 12:42:56.74	286.63	46.05	-46.9	-47.5	15.8	0.00e+00	0	30	0	2516582400	59	3960
2026-01-03 12:42:57.75	287.12	45.90	-46.9	-47.5	15.7	0.00e+00	0	30	0	2521825280	59	3977
2026-01-03 12:42:58.76	287.61	45.75	-47.0	-47.5	15.7	0.00e+00	0	30	0	2527068160	59	4004
2026-01-03 12:42:59.77	288.10	45.60	-47.1	-47.7	15.7	0.00e+00	0	30	0	2533359616	59	4093
2026-01-03 12:43:00.78	288.58	45.44	-47.0	-47.6	15.7	0.00e+00	0	30	0	2538602496	59	4007
2026-01-03 12:43:01.79	289.06	45.29	-46.9	-47.5	15.7	0.00e+00	0	30	0	2544893952	59	3963
2026-01-03 12:43:02.79	289.52	45.13	-47.1	-47.7	15.7	0.00e+00	0	30	0	2550136832	59	4056
2026-01-03 12:43:03.80	289.99	44.97	-47.2	-47.8	15.7	0.00e+00	0	30	0	2555379712	59	4118
2026-01-03 12:43:04.81	290.45	44.81	-47.3	-47.9	15.6	0.00e+00	0	30	0	2561671168	59	4188
2026-01-03 12:43:05.82	290.91	44.65	-47.2	-47.8	15.6	0.00e+00	0	30	0	2566914048	59	4136
2026-01-03 12:43:06.83	291.37	44.49	-47.2	-47.8	15.7	0.00e+00	0	30	0	2573205504	59	4103
2026-01-03 12:43:07.84	291.82	44.32	-47.2	-47.8	15.7	0.00e+00	0	30	0	2578448384	59	4130
2026-01-03 12:43:08.85	292.26	44.16	-47.0	-47.6	15.7	0.00e+00	0	31	0	2583691264	59	4051
2026-01-03 12:43:09.86	292.70	43.99	-47.0	-47.5	15.7	0.00e+00	0	30	0	2589982720	59	3995
2026-01-03 12:43:10.87	293.14	43.83	-47.2	-47.8	15.7	0.00e+00	0	30	0	2595225600	59	4107
2026-01-03 12:43:11.88	293.57	43.66	-47.2	-47.8	15.7	0.00e+00	0	30	0	2601517056	59	4143
2026-01-03 12:43:12.88	293.99	43.49	-47.2	-47.8	15.7	0.00e+00	0	30	0	2606759936	59	4136
2026-01-03 12:43:13.89	294.41	43.32	-47.1	-47.7	15.7	0.00e+00	0	30	0	2613051392	59	4078
2026-01-03 12:43:14.90	294.83	43.15	-47.2	-47.8	15.7	0.00e+00	0	30	0	2618294272	59	4101
2026-01-03 12:43:15.91	295.24	42.98	-46.9	-47.4	15.8	0.00e+00	0	31	0	2623537152	59	3957
2026-01-03 12:43:16.92	295.65	42.80	-46.9	-47.5	15.7	0.00e+00	0	30	0	2629828608	59	3988
2026-01-03 12:43:17.93	296.05	42.63	-47.0	-47.6	15.7	0.00e+00	0	30	0	2635071488	59	4037
2026-01-03 12:43:18.93	296.45	42.46	-47.0	-47.6	15.8	0.00e+00	0	30	0	2641362944	59	4034
2026-01-03 12:43:19.94	296.85	42.28	-46.9	-47.5	15.8	0.00e+00	0	30	0	2646605824	59	3978
2026-01-03 12:43:20.95	297.24	42.10	-46.7	-47.2	15.8	0.00e+00	0	30	0	2651848704	59	3853
2026-01-03 12:43:21.96	297.63	41.93	-46.7	-47.3	15.8	0.00e+00	0	31	0	2658140160	59	3870
2026-01-03 12:43:22.97	298.01	41.75	-46.6	-47.2	15.9	0.00e+00	0	30	0	2663383040	59	3833
2026-01-03 12:43:23.98	298.39	41.57	-46.7	-47.3	15.8	0.00e+00	0	31	0	2669674496	59	3882
2026-01-03 12:43:24.99	298.76	41.40	-46.8	-47.3	15.8	0.00e+00	0	31	0	2674917376	59	3913
2026-01-03 12:43:26.00	299.13	41.22	-46.8	-47.4	15.8	0.00e+00	0	30	0	2680160256	59	3929
2026-01-03 12:43:27.00	299.50	41.04	-46.9	-47.5	15.7	0.00e+00	0	30	0	2686451712	59	3993
2026-01-03 12:43:28.01	299.86	40.86	-46.8	-47.4	15.8	0.00e+00	0	31	0	2691694592	59	3950
2026-01-03 12:43:29.01	300.22	40.68	-46.8	-47.3	15.8	0.00e+00	0	30	0	2697986048	59	3905
2026-01-03 12:43:30.02	300.57	40.50	-46.7	-47.3	15.8	0.00e+00	0	30	0	2703228928	59	3878
2026-01-03 12:43:31.03	300.92	40.32	-46.7	-47.3	15.8	0.00e+00	0	30	0	2709520384	59	3897
2026-01-03 12:43:32.04	301.27	40.14	-46.7	-47.3	15.8	0.00e+00	0	30	0	2714763264	59	3888
2026-01-03 12:43:33.05	301.61	39.96	-46.7	-47.3	15.8	0.00e+00	0	30	0	2720006144	59	3877
2026-01-03 12:43:34.06	301.95	39.78	-46.6	-47.1	15.9	0.00e+00	0	31	0	2726297600	59	3823
2026-01-03 12:43:35.06	302.29	39.60	-46.4	-46.9	15.9	0.00e+00	0	30	0	2731540480	59	3731
2026-01-03 12:43:36.08	302.62	39.42	-46.2	-46.8	16.0	0.00e+00	0	30	0	2737831936	59	3664
2026-01-03 12:43:37.08	302.95	39.24	-46.1	-46.7	15.9	0.00e+00	0	30	0	2743074816	58	3828
2026-01-03 12:43:38.09	303.27	39.06	-46.2	-46.7	15.9	0.00e+00	0	30	0	2748317696	58	3868
2026-01-03 12:43:39.09	303.59	38.88	-46.3	-46.8	15.8	0.00e+00	0	30	0	2754609152	58	3910
2026-01-03 12:43:40.10	303.91	38.70	-46.2	-46.7	15.8	0.00e+00	0	30	0	2759852032	58	3859
2026-01-03 12:43:41.11	304.23	38.52	-46.2	-46.7	15.9	0.00e+00	0	30	0	2765094912	58	3849
2026-01-03 12:43:42.12	304.54	38.34	-46.2	-46.8	15.9	0.00e+00	0	30	0	2771386368	58	3888
2026-01-03 12:43:43.13	304.85	38.15	-46.3	-46.9	15.8	0.00e+00	0	30	0	2776629248	58	3932
2026-01-03 12:43:44.13	305.15	37.97	-46.4	-47.0	15.8	0.00e+00	0	30	0	2782920704	58	3962
2026-01-03 12:43:45.14	305.45	37.79	-46.5	-47.1	15.8	0.00e+00	0	30	0	2788163584	58	4010
2026-01-03 12:43:46.15	305.75	37.61	-46.5	-47.1	15.8	0.00e+00	0	30	0	2794455040	58	4026
2026-01-03 12:43:47.15	306.04	37.43	-46.3	-46.9	15.8	0.00e+00	0	30	0	2799697920	58	3927
2026-01-03 12:43:48.16	306.33	37.25	-46.3	-46.8	15.8	0.00e+00	0	31	0	2804940800	58	3905
2026-01-03 12:43:49.17	306.62	37.07	-46.2	-46.8	15.9	0.00e+00	0	30	0	2811232256	58	3883
2026-01-03 12:43:50.18	306.91	36.89	-46.1	-46.6	15.9	0.00e+00	0	30	0	2816475136	58	3807
2026-01-03 12:43:51.19	307.19	36.71	-46.1	-46.7	15.9	0.00e+00	0	30	0	2822766592	58	3828
2026-01-03 12:43:52.20	307.47	36.53	-46.2	-46.8	15.9	0.00e+00	0	31	0	2828009472	58	3870
2026-01-03 12:43:53.20	307.74	36.36	-46.4	-46.9	15.8	0.00e+00	0	30	0	2833252352	58	3945
2026-01-03 12:43:54.21	308.01	36.18	-46.4	-46.9	15.8	0.00e+00	0	30	0	2839543808	58	3940
2026-01-03 12:43:55.22	308.28	36.00	-46.3	-46.9	15.8	0.00e+00	0	30	0	2844786688	58	3931
2026-01-03 12:43:56.23	308.55	35.82	-46.4	-46.9	15.8	0.00e+00	0	30	0	2851078144	58	3957
2026-01-03 12:43:57.23	308.81	35.64	-46.3	-46.9	15.8	0.00e+00	0	30	0	2856321024	58	3930
2026-01-03 12:43:58.24	309.08	35.47	-46.4	-47.0	15.8	0.00e+00	0	31	0	2861563904	58	3970
2026-01-03 12:43:59.25	309.33	35.29	-46.5	-47.0	15.8	0.00e+00	0	30	0	2867855360	58	3999
2026-01-03 12:44:00.27	309.59	35.11	-46.4	-47.0	15.8	0.00e+00	0	30	0	2873098240	58	3987
2026-01-03 12:44:01.28	309.85	34.93	-46.4	-47.0	15.8	0.00e+00	0	30	0	2879389696	58	3988
2026-01-03 12:44:02.28	310.10	34.76	-46.4	-47.0	15.8	0.00e+00	0	30	0	2884632576	58	3962
2026-01-03 12:44:03.29	310.34	34.58	-46.4	-47.0	15.8	0.00e+00	0	30	0	2890924032	58	3967
2026-01-03 12:44:04.30	310.59	34.41	-46.3	-46.9	15.8	0.00e+00	0	30	0	2896166912	58	3920
2026-01-03 12:44:05.31	310.83	34.23	-46.3	-46.9	15.8	0.00e+00	0	30	0	2901409792	58	3920
2026-01-03 12:44:06.32	311.07	34.06	-46.3	-46.8	15.8	0.00e+00	0	30	0	2907701248	58	3898
2026-01-03 12:44:07.33	311.31	33.88	-46.2	-46.8	15.9	0.00e+00	0	30	0	2912944128	58	3886
2026-01-03 12:44:08.34	311.55	33.71	-46.3	-46.8	15.9	0.00e+00	0	30	0	2919235584	58	3913
2026-01-03 12:44:09.35	311.78	33.53	-46.3	-46.9	15.8	0.00e+00	0	30	0	2924478464	58	3935
2026-01-03 12:44:10.36	312.01	33.36	-46.5	-47.1	15.8	0.00e+00	0	30	0	2929721344	58	4007
2026-01-03 12:44:11.37	312.24	33.19	-46.5	-47.1	15.8	0.00e+00	0	30	0	2936012800	58	4023
2026-01-03 12:44:12.37	312.46	33.02	-46.6	-47.1	15.7	0.00e+00	0	30	0	2941255680	58	4050
2026-01-03 12:44:13.38	312.69	32.85	-46.5	-47.1	15.8	0.00e+00	0	30	0	2947547136	58	4010
2026-01-03 12:44:14.39	312.91	32.68	-46.6	-47.2	15.7	0.00e+00	0	30	0	2952790016	58	4071
2026-01-03 12:44:15.39	313.13	32.51	-46.6	-47.2	15.7	0.00e+00	0	30	0	2958032896	58	4077
2026-01-03 12:44:16.40	313.34	32.34	-46.6	-47.1	15.7	0.00e+00	0	30	0	2964324352	58	4041
2026-01-03 12:44:17.41	313.56	32.17	-46.6	-47.1	15.8	0.00e+00	0	30	0	2969567232	58	4046
2026-01-03 12:44:18.42	313.77	32.00	-46.7	-47.2	15.7	0.00e+00	0	30	0	2975858688	58	4095
2026-01-03 12:44:19.43	313.98	31.83	-46.8	-47.4	15.7	0.00e+00	0	30	0	2981101568	58	4147
2026-01-03 12:44:20.43	314.19	31.67	-46.6	-47.2	15.7	0.00e+00	0	30	0	2987393024	58	4077
2026-01-03 12:44:21.44	314.39	31.50	-46.6	-47.1	15.8	0.00e+00	0	30	0	2992635904	58	4048
2026-01-03 12:44:22.45	314.60	31.33	-46.6	-47.1	15.7	0.00e+00	0	30	0	2997878784	58	4043
2026-01-03 12:44:23.46	314.80	31.17	-46.5	-47.1	15.7	0.00e+00	0	30	0	3004170240	58	4025
2026-01-03 12:44:24.46	315.00	31.00	-46.5	-47.1	15.8	0.00e+00	0	30	0	3009413120	58	4022
2026-01-03 12:44:25.47	315.20	30.84	-46.4	-47.0	15.8	0.00e+00	0	30	0	3014656000	58	3988
2026-01-03 12:44:26.47	315.39	30.68	-46.5	-47.1	15.7	0.00e+00	0	30	0	3020947456	58	4007
2026-01-03 12:44:27.48	315.58	30.51	-46.5	-47.0	15.7	0.00e+00	0	30	0	3026190336	58	4001
2026-01-03 12:44:28.49	315.78	30.35	-46.6	-47.2	15.7	0.00e+00	0	31	0	3032481792	58	4052
2026-01-03 12:44:29.50	315.97	30.19	-46.5	-47.1	15.7	0.00e+00	0	30	0	3037724672	58	4033
2026-01-03 12:44:30.50	316.15	30.03	-46.7	-47.3	15.7	0.00e+00	0	31	0	3042967552	58	4132
2026-01-03 12:44:31.51	316.34	29.87	-46.8	-47.4	15.7	0.00e+00	0	30	0	3049259008	58	4155
2026-01-03 12:44:32.52	316.52	29.70	-46.8	-47.4	15.7	0.00e+00	0	30	0	3054501888	58	4152
2026-01-03 12:44:33.53	316.71	29.54	-46.9	-47.5	15.6	0.00e+00	0	30	0	3060793344	58	4200
2026-01-03 12:44:34.54	316.89	29.38	-46.8	-47.4	15.7	0.00e+00	0	30	0	3066036224	58	4151
2026-01-03 12:44:35.54	317.07	29.23	-46.7	-47.3	15.7	0.00e+00	0	30	0	3072327680	58	4140
2026-01-03 12:44:36.55	317.25	29.07	-46.7	-47.3	15.7	0.00e+00	0	30	0	3077570560	58	4115
2026-01-03 12:44:37.56	317.42	28.91	-46.7	-47.3	15.7	0.00e+00	0	30	0	3082813440	58	4100
2026-01-03 12:44:38.58	317.60	28.75	-46.6	-47.2	15.7	0.00e+00	0	30	0	3089104896	58	4071
2026-01-03 12:44:39.58	317.77	28.60	-46.6	-47.2	15.7	0.00e+00	0	30	0	3094347776	58	4073
2026-01-03 12:44:40.58	317.94	28.44	-46.6	-47.1	15.7	0.00e+00	0	30	0	3100639232	58	4047
2026-01-03 12:44:41.59	318.11	28.29	-46.5	-47.1	15.7	0.00e+00	0	31	0	3105882112	58	4013
2026-01-03 12:44:42.60	318.28	28.13	-46.6	-47.2	15.7	0.00e+00	0	30	0	3111124992	58	4055
2026-01-03 12:44:43.61	318.44	27.98	-46.5	-47.1	15.7	0.00e+00	0	30	0	3117416448	58	4010
2026-01-03 12:44:44.61	318.61	27.83	-46.5	-47.0	15.7	0.00e+00	0	31	0	3122659328	58	3994
2026-01-03 12:44:45.62	318.77	27.67	-46.5	-47.0	15.8	0.00e+00	0	30	0	3127902208	58	4002
2026-01-03 12:44:46.63	318.93	27.52	-46.5	-47.0	15.8	0.00e+00	0	30	0	3134193664	58	3995
2026-01-03 12:44:47.63	319.09	27.37	-46.5	-47.1	15.7	0.00e+00	0	30	0	3139436544	58	4014
2026-01-03 12:44:48.64	319.25	27.22	-46.6	-47.2	15.7	0.00e+00	0	30	0	3145728000	58	4053
2026-01-03 12:44:49.65	319.41	27.07	-46.6	-47.2	15.7	0.00e+00	0	30	0	3150970880	58	4085
2026-01-03 12:44:50.66	319.56	26.92	-46.7	-47.3	15.7	0.00e+00	0	30	0	3157262336	58	4133
2026-01-03 12:44:51.66	319.72	26.77	-46.7	-47.3	15.7	0.00e+00	0	30	0	3162505216	58	4122
2026-01-03 12:44:52.67	319.87	26.62	-46.8	-47.4	15.7	0.00e+00	0	30	0	3167748096	58	4158
2026-01-03 12:44:53.68	320.02	26.48	-46.8	-47.4	15.6	0.00e+00	0	30	0	3174039552	58	4192
2026-01-03 12:44:54.68	320.17	26.33	-46.8	-47.5	15.7	0.00e+00	0	30	0	3179282432	58	4195
2026-01-03 12:44:55.69	320.32	26.18	-46.9	-47.5	15.7	0.00e+00	0	30	0	3185573888	59	4004
2026-01-03 12:44:56.70	320.47	26.04	-46.8	-47.4	15.8	0.00e+00	0	30	0	3190816768	59	3955
2026-01-03 12:44:57.71	320.62	25.89	-46.8	-47.4	15.7	0.00e+00	0	30	0	3196059648	59	3953
2026-01-03 12:44:58.72	320.76	25.75	-46.8	-47.4	15.7	0.00e+00	0	30	0	3202351104	59	3952
2026-01-03 12:44:59.73	320.91	25.60	-46.8	-47.4	15.8	0.00e+00	0	30	0	3207593984	59	3950
2026-01-03 12:45:00.73	321.05	25.46	-46.8	-47.4	15.8	0.00e+00	0	30	0	3213885440	59	3944
2026-01-03 12:45:01.75	321.19	25.32	-46.8	-47.4	15.8	0.00e+00	0	31	0	3219128320	59	3946
2026-01-03 12:45:02.75	321.33	25.18	-46.8	-47.4	15.7	0.00e+00	0	30	0	3224371200	59	3944
2026-01-03 12:45:03.76	321.47	25.03	-46.9	-47.5	15.7	0.00e+00	0	30	0	3230662656	59	3971
2026-01-03 12:45:04.77	321.61	24.89	-46.9	-47.4	15.7	0.00e+00	0	30	0	3235905536	59	3951
2026-01-03 12:45:05.78	321.74	24.75	-46.8	-47.4	15.8	0.00e+00	0	30	0	3242196992	59	3942
2026-01-03 12:45:06.79	321.88	24.61	-46.9	-47.5	15.7	0.00e+00	0	31	0	3247439872	59	3962
2026-01-03 12:45:07.80	322.01	24.47	-46.9	-47.4	15.7	0.00e+00	0	30	0	3253731328	59	3952
2026-01-03 12:45:08.81	322.15	24.33	-46.9	-47.5	15.7	0.00e+00	0	30	0	3258974208	59	3981
2026-01-03 12:45:09.82	322.28	24.19	-47.0	-47.6	15.7	0.00e+00	0	31	0	3264217088	59	4021
2026-01-03 12:45:10.83	322.41	24.06	-47.0	-47.6	15.7	0.00e+00	0	30	0	3270508544	59	4039
2026-01-03 12:45:11.84	322.54	23.92	-47.0	-47.6	15.7	0.00e+00	0	30	0	3275751424	59	4037
2026-01-03 12:45:12.85	322.67	23.78	-47.1	-47.7	15.7	0.00e+00	0	30	0	3282042880	59	4061
2026-01-03 12:45:13.86	322.80	23.65	-47.2	-47.7	15.7	0.00e+00	0	30	0	3287285760	59	4097
2026-01-03 12:45:14.86	322.92	23.51	-47.2	-47.9	15.7	0.00e+00	0	30	0	3292528640	59	4146
2026-01-03 12:45:15.87	323.05	23.38	-47.3	-47.9	15.6	0.00e+00	0	30	0	3298820096	59	4160
2026-01-03 12:45:16.88	323.17	23.24	-47.2	-47.8	15.7	0.00e+00	0	30	0	3304062976	59	4145
2026-01-03 12:45:17.88	323.30	23.11	-47.2	-47.8	15.7	0.00e+00	0	30	0	3310354432	59	4139
2026-01-03 12:45:18.89	323.42	22.98	-47.4	-48.0	15.6	0.00e+00	0	30	0	3315597312	59	4202
2026-01-03 12:45:19.90	323.54	22.84	-47.1	-47.6	15.8	0.00e+00	0	30	0	3320840192	60	3819
2026-01-03 12:45:20.91	323.66	22.71	-47.0	-47.6	15.8	0.00e+00	0	30	0	3327131648	60	3818
2026-01-03 12:45:21.91	323.78	22.58	-47.1	-47.7	15.7	0.00e+00	0	30	0	3332374528	60	3857
2026-01-03 12:45:22.92	323.90	22.45	-47.2	-47.8	15.7	0.00e+00	0	30	0	3338665984	60	3894
2026-01-03 12:45:23.93	324.02	22.32	-47.2	-47.8	15.7	0.00e+00	0	30	0	3343908864	60	3896
2026-01-03 12:45:24.94	324.13	22.19	-47.2	-47.8	15.7	0.00e+00	0	31	0	3350200320	60	3908
2026-01-03 12:45:25.94	324.25	22.06	-47.3	-47.9	15.7	0.00e+00	0	30	0	3355443200	60	3927
2026-01-03 12:45:26.95	324.36	21.93	-47.3	-47.9	15.7	0.00e+00	0	30	0	3360686080	60	3945
2026-01-03 12:45:27.96	324.48	21.80	-47.3	-47.9	15.7	0.00e+00	0	30	0	3366977536	60	3933
2026-01-03 12:45:28.97	324.59	21.68	-47.3	-47.9	15.7	0.00e+00	0	30	0	3372220416	60	3956
2026-01-03 12:45:29.98	324.70	21.55	-47.3	-47.9	15.7	0.00e+00	0	30	0	3378511872	60	3951
2026-01-03 12:45:30.99	324.81	21.42	-47.3	-47.9	15.7	0.00e+00	0	30	0	3383754752	60	3944
2026-01-03 12:45:32.00	324.92	21.30	-47.3	-47.9	15.6	0.00e+00	0	30	0	3388997632	60	3947
2026-01-03 12:45:33.01	325.03	21.17	-47.4	-48.0	15.7	0.00e+00	0	30	0	3395289088	60	3966
2026-01-03 12:45:34.01	325.14	21.05	-47.3	-47.9	15.7	0.00e+00	0	30	0	3400531968	60	3932
2026-01-03 12:45:35.02	325.25	20.92	-47.4	-48.0	15.6	0.00e+00	0	30	0	3406823424	60	3998
2026-01-03 12:45:36.03	325.36	20.80	-47.4	-48.0	15.7	0.00e+00	0	30	0	3412066304	60	3978
2026-01-03 12:45:37.04	325.46	20.68	-47.3	-48.0	15.7	0.00e+00	0	30	0	3417309184	60	3961
2026-01-03 12:45:38.05	325.57	20.55	-47.4	-48.0	15.7	0.00e+00	0	30	0	3423600640	60	3984
2026-01-03 12:45:39.06	325.67	20.43	-47.4	-48.0	15.7	0.00e+00	0	30	0	3428843520	60	3996
2026-01-03 12:45:40.07	325.78	20.31	-47.4	-48.0	15.6	0.00e+00	0	30	0	3435134976	60	3973
2026-01-03 12:45:41.08	325.88	20.19	-47.5	-48.1	15.6	0.00e+00	0	30	0	3440377856	60	4036
2026-01-03 12:45:42.09	325.98	20.07	-47.5	-48.1	15.6	0.00e+00	0	30	0	3446669312	60	4017
2026-01-03 12:45:43.10	326.09	19.94	-47.6	-48.2	15.6	0.00e+00	0	30	0	3451912192	60	4065
2026-01-03 12:45:44.10	326.18	19.83	-47.6	-48.2	15.6	0.00e+00	0	30	0	3457155072	60	4072
2026-01-03 12:45:45.11	326.29	19.71	-47.5	-48.1	15.6	0.00e+00	0	30	0	3463446528	60	4026
2026-01-03 12:45:46.11	326.38	19.59	-47.5	-48.1	15.6	0.00e+00	0	30	0	3468689408	60	4028
2026-01-03 12:45:47.12	326.48	19.47	-47.6	-48.2	15.6	0.00e+00	0	30	0	3473932288	60	4065
2026-01-03 12:45:48.13	326.58	19.35	-47.6	-48.2	15.5	0.00e+00	0	30	0	3480223744	60	4092
2026-01-03 12:45:49.14	326.68	19.23	-47.6	-48.2	15.5	0.00e+00	0	30	0	3485466624	60	4081
2026-01-03 12:45:50.15	326.77	19.12	-47.7	-48.3	15.5	0.00e+00	0	30	0	3491758080	60	4137
2026-01-03 12:45:51.15	326.87	19.00	-47.6	-48.3	15.6	0.00e+00	0	30	0	3497000960	60	4099
2026-01-03 12:45:52.17	326.96	18.88	-47.7	-48.3	15.5	0.00e+00	0	30	0	3502243840	60	4116
2026-01-03 12:45:53.18	327.06	18.77	-47.8	-48.5	15.5	0.00e+00	0	30	0	3508535296	60	4198
2026-01-03 12:45:54.19	327.15	18.65	-47.7	-48.3	15.5	0.00e+00	0	30	0	3513778176	60	4127
2026-01-03 12:45:55.20	327.25	18.54	-47.8	-48.4	15.5	0.00e+00	0	30	0	3520069632	60	4176
2026-01-03 12:45:56.21	327.34	18.42	-47.8	-48.4	15.5	0.00e+00	0	30	0	3525312512	60	4192
2026-01-03 12:45:57.22	327.43	18.31	-47.9	-48.5	15.6	0.00e+00	0	30	0	3531603968	61	4003
2026-01-03 12:45:58.23	327.52	18.20	-48.0	-48.6	15.6	0.00e+00	0	30	0	3536846848	61	4037
2026-01-03 12:45:59.23	327.61	18.09	-48.0	-48.6	15.6	0.00e+00	0	30	0	3543138304	61	4047
2026-01-03 12:46:00.24	327.70	17.97	-48.1	-48.7	15.5	0.00e+00	0	30	0	3548381184	61	4084
2026-01-03 12:46:01.25	327.79	17.86	-48.2	-48.8	15.5	0.00e+00	0	30	0	3553624064	61	4142
2026-01-03 12:46:02.26	327.88	17.75	-48.1	-48.7	15.5	0.00e+00	0	30	0	3559915520	61	4095
2026-01-03 12:46:03.28	327.97	17.64	-48.1	-48.8	15.5	0.00e+00	0	30	0	3565158400	61	4121
2026-01-03 12:46:04.28	328.05	17.53	-48.2	-48.8	15.4	0.00e+00	0	30	0	3571449856	61	4138
2026-01-03 12:46:05.29	328.14	17.42	-48.2	-48.8	15.5	0.00e+00	0	30	0	3576692736	61	4127
2026-01-03 12:46:06.30	328.23	17.31	-48.2	-48.9	15.4	0.00e+00	0	30	0	3581935616	61	4159
2026-01-03 12:46:07.31	328.31	17.20	-48.3	-49.0	15.4	0.00e+00	0	30	0	3588227072	61	4194
2026-01-03 12:46:08.32	328.40	17.09	-48.3	-49.0	15.4	0.00e+00	0	31	0	3593469952	61	4206
2026-01-03 12:46:09.33	328.48	16.98	-48.4	-49.1	15.5	0.00e+00	0	30	0	3599761408	62	4039
2026-01-03 12:46:10.34	328.57	16.87	-48.4	-49.0	15.5	0.00e+00	0	30	0	3605004288	62	4000
2026-01-03 12:46:11.35	328.65	16.77	-48.3	-49.0	15.5	0.00e+00	0	30	0	3610247168	62	3981
2026-01-03 12:46:12.36	328.73	16.66	-48.4	-49.0	15.5	0.00e+00	0	30	0	3616538624	62	3997
2026-01-03 12:46:13.37	328.81	16.55	-48.4	-49.0	15.5	0.00e+00	0	30	0	3621781504	62	3997
2026-01-03 12:46:14.38	328.90	16.45	-48.5	-49.1	15.4	0.00e+00	0	30	0	3628072960	62	4046
2026-01-03 12:46:15.38	328.98	16.34	-48.4	-49.1	15.5	0.00e+00	0	30	0	3633315840	62	4023
2026-01-03 12:46:16.39	329.06	16.24	-48.4	-49.1	15.5	0.00e+00	0	30	0	3639607296	62	4031
2026-01-03 12:46:17.40	329.14	16.13	-48.5	-49.2	15.4	0.00e+00	0	30	0	3644850176	62	4066
2026-01-03 12:46:18.41	329.22	16.03	-48.5	-49.1	15.5	0.00e+00	0	30	0	3650093056	62	4051
2026-01-03 12:46:19.42	329.30	15.92	-48.5	-49.2	15.4	0.00e+00	0	30	0	3656384512	62	4079
2026-01-03 12:46:20.43	329.37	15.82	-48.5	-49.2	15.4	0.00e+00	0	30	0	3661627392	62	4091
2026-01-03 12:46:21.44	329.45	15.71	-48.6	-49.2	15.4	0.00e+00	0	30	0	3667918848	62	4097
2026-01-03 12:46:22.45	329.53	15.61	-48.6	-49.3	15.4	0.00e+00	0	30	0	3673161728	62	4130
2026-01-03 12:46:23.46	329.61	15.51	-48.7	-49.4	15.4	0.00e+00	0	30	0	3678404608	62	4169
2026-01-03 12:46:24.47	329.68	15.41	-48.7	-49.4	15.3	0.00e+00	0	30	0	3684696064	62	4184
2026-01-03 12:46:25.47	329.76	15.30	-48.7	-49.4	15.4	0.00e+00	0	30	0	3689938944	62	4158
