passes_logs/2026/01/03/R3.2S_Murmansk/R3.2S_Murmansk__20260103_045544_SUOMI_NPP_rec.log

#Pass ID: 20260103_045544_SUOMI NPP
#Satellite: SUOMI NPP
#Configuration: NPP
#almurnet v.1.7.20251203
#Start time: 2026-01-03 04:55:44

#Version: 2.2.20231116
#Station: R3.2S_Murmansk
#Location: 33.079688 lon 68.888172 lat
#TLE: 1 37849U 11061A   26001.07732418  .00000182  00000+0  10735-3 0  9990
#TLE: 2 37849  98.7795 303.2470 0002580  87.2016 272.9455 14.19520779734739

#Time	Az	El	Level	Level2	SNR	BER	BlckErr	Temp	State	Recorded	gain1	gain2
2026-01-03 04:55:44.52	57.80	1.99	-59.7	-75.3	3.8	1.49e+00	0	29	0	0	85	21842
2026-01-03 04:55:45.52	57.74	2.05	-59.7	-75.3	3.8	1.49e+00	0	29	104	0	84	23151
2026-01-03 04:55:46.53	57.67	2.10	-59.7	-75.3	3.9	1.49e+00	0	29	104	0	84	23170
2026-01-03 04:55:47.53	57.61	2.16	-59.7	-75.3	3.8	1.49e+00	0	29	104	0	84	23168
2026-01-03 04:55:48.53	57.54	2.22	-59.7	-75.3	3.8	1.49e+00	0	29	104	0	84	23123
2026-01-03 04:55:49.54	57.48	2.28	-59.7	-75.3	3.8	1.49e+00	0	29	104	0	84	23154
2026-01-03 04:55:50.54	57.41	2.33	-59.7	-75.3	3.9	1.49e+00	0	29	104	0	84	23160
2026-01-03 04:55:51.54	57.35	2.39	-59.7	-75.3	3.8	1.49e+00	0	29	104	0	84	23100
2026-01-03 04:55:52.54	57.28	2.45	-59.7	-75.3	3.8	1.49e+00	0	29	104	0	84	23087
2026-01-03 04:55:53.54	57.22	2.50	-59.7	-75.3	3.8	1.49e+00	0	29	104	0	84	23071
2026-01-03 04:55:54.54	57.15	2.56	-59.7	-75.3	3.8	1.49e+00	0	29	104	0	84	23143
2026-01-03 04:55:55.54	57.08	2.62	-59.7	-75.3	3.8	1.49e+00	0	29	104	0	84	23096
2026-01-03 04:55:56.54	57.02	2.68	-59.7	-75.3	3.8	1.49e+00	0	29	104	0	84	23072
2026-01-03 04:55:57.54	56.95	2.73	-59.7	-75.3	3.8	1.49e+00	0	29	104	0	84	23078
2026-01-03 04:55:58.54	56.88	2.79	-59.7	-75.3	3.8	1.49e+00	0	29	104	0	84	23091
2026-01-03 04:55:59.54	56.82	2.85	-59.7	-75.3	3.8	1.49e+00	0	29	104	0	84	23097
2026-01-03 04:56:00.54	56.75	2.91	-59.7	-75.3	3.8	1.49e+00	0	29	104	0	84	23078
2026-01-03 04:56:01.54	56.68	2.97	-59.7	-75.3	3.8	1.49e+00	0	29	104	0	84	23072
2026-01-03 04:56:02.55	56.61	3.02	-59.7	-75.3	3.8	1.49e+00	0	29	104	0	84	23129
2026-01-03 04:56:03.55	56.54	3.08	-59.7	-75.3	3.8	1.49e+00	0	29	104	0	84	23145
2026-01-03 04:56:04.55	56.48	3.14	-59.7	-75.3	3.8	1.49e+00	0	29	104	0	84	23144
2026-01-03 04:56:05.55	56.41	3.20	-59.7	-75.3	3.8	1.49e+00	0	29	104	0	84	23127
2026-01-03 04:56:06.55	56.34	3.26	-59.7	-75.3	3.8	1.49e+00	0	29	104	0	84	23135
2026-01-03 04:56:07.55	56.27	3.32	-59.7	-75.3	3.8	1.49e+00	0	29	104	0	84	23116
2026-01-03 04:56:08.55	56.20	3.37	-59.7	-75.3	3.8	1.49e+00	0	29	104	0	84	23115
2026-01-03 04:56:09.55	56.13	3.43	-59.7	-75.3	3.8	1.49e+00	0	29	104	0	84	23089
2026-01-03 04:56:10.56	56.06	3.49	-59.7	-75.3	3.8	1.49e+00	0	29	104	0	84	23206
2026-01-03 04:56:11.56	55.99	3.55	-59.7	-75.3	3.8	1.49e+00	0	30	104	0	84	23189
2026-01-03 04:56:12.56	55.92	3.61	-59.7	-75.3	3.8	1.49e+00	0	29	104	0	84	23110
2026-01-03 04:56:13.56	55.84	3.67	-59.7	-75.3	3.8	1.49e+00	0	29	104	0	84	23115
2026-01-03 04:56:14.56	55.77	3.73	-59.7	-75.2	3.8	1.49e+00	0	29	104	0	84	22970
2026-01-03 04:56:15.56	55.70	3.79	-59.7	-75.2	3.8	1.49e+00	0	30	104	0	84	22882
2026-01-03 04:56:16.57	55.63	3.85	-59.7	-75.2	3.8	1.49e+00	0	29	104	0	84	22789
2026-01-03 04:56:17.56	55.56	3.91	-59.7	-75.2	3.8	1.49e+00	0	30	104	0	84	22786
2026-01-03 04:56:18.57	55.48	3.97	-59.7	-75.2	3.8	1.49e+00	0	30	104	0	84	22996
2026-01-03 04:56:19.57	55.41	4.03	-59.7	-75.3	3.8	1.49e+00	0	30	104	0	84	23169
2026-01-03 04:56:20.56	55.34	4.08	-59.7	-75.3	3.8	1.49e+00	0	30	104	0	84	23139
2026-01-03 04:56:21.57	55.26	4.14	-59.7	-75.2	3.8	1.49e+00	0	30	104	0	84	22967
2026-01-03 04:56:22.57	55.19	4.20	-59.7	-75.0	3.8	1.49e+00	0	30	104	0	84	22295
2026-01-03 04:56:23.57	55.11	4.26	-59.7	-74.5	3.8	1.49e+00	0	30	104	0	84	21078
2026-01-03 04:56:24.57	55.04	4.32	-59.7	-74.0	3.8	1.49e+00	0	30	104	0	84	19894
2026-01-03 04:56:25.57	54.96	4.38	-59.7	-73.3	3.9	1.49e+00	0	30	104	0	84	18376
2026-01-03 04:56:26.57	54.89	4.44	-59.6	-72.4	4.0	1.48e+00	0	30	0	0	84	16609
2026-01-03 04:56:27.57	54.81	4.50	-59.5	-71.5	4.3	1.40e+00	0	30	0	0	84	14963
2026-01-03 04:56:28.56	54.74	4.56	-59.5	-70.6	4.6	1.13e+00	0	30	0	1048576	84	13475
2026-01-03 04:56:29.57	54.66	4.62	-59.4	-69.8	4.9	8.77e-01	0	30	0	3145728	84	12298
2026-01-03 04:56:30.57	54.58	4.68	-59.3	-69.1	5.3	5.79e-01	0	30	0	4194304	84	11370
2026-01-03 04:56:31.56	54.51	4.74	-59.2	-68.4	5.7	4.07e-01	0	30	0	6291456	84	10483
2026-01-03 04:56:32.56	54.43	4.81	-59.1	-67.8	6.1	3.20e-01	0	30	0	8388608	84	9747
2026-01-03 04:56:33.56	54.35	4.87	-59.1	-67.4	6.3	2.31e-01	0	30	0	10485760	84	9291
2026-01-03 04:56:34.55	54.27	4.93	-59.0	-67.2	6.5	1.92e-01	0	30	0	11534336	84	9140
2026-01-03 04:56:35.54	54.20	4.99	-59.0	-67.1	6.6	2.02e-01	0	30	0	13631488	84	8997
2026-01-03 04:56:36.55	54.12	5.05	-58.9	-66.2	7.4	1.87e-01	0	30	0	15728640	84	8120
2026-01-03 04:56:37.54	54.04	5.11	-59.3	-68.0	6.1	1.96e-01	0	30	0	17825792	84	9976
2026-01-03 04:56:38.54	53.96	5.17	-59.1	-67.2	6.6	2.62e-01	0	30	0	19922944	84	9154
2026-01-03 04:56:39.54	53.88	5.23	-58.1	-63.6	9.0	7.06e-01	0	30	0	20971520	82	6779
2026-01-03 04:56:40.53	53.80	5.29	-59.0	-67.4	6.5	3.05e-05	0	30	0	23068672	83	9903
2026-01-03 04:56:41.52	53.72	5.35	-58.9	-66.3	6.9	1.19e+00	0	30	0	24117248	84	8198
2026-01-03 04:56:42.52	53.64	5.41	-56.7	-60.2	12.2	2.05e-05	0	30	0	25165824	80	5119
2026-01-03 04:56:43.53	53.56	5.48	-56.4	-59.6	12.7	0.00e+00	0	30	0	27262976	79	5061
2026-01-03 04:56:44.53	53.48	5.54	-56.2	-59.3	12.8	0.00e+00	0	30	0	29360128	79	4900
2026-01-03 04:56:45.52	53.39	5.60	-56.0	-59.0	13.0	0.00e+00	0	30	0	31457280	78	4989
2026-01-03 04:56:46.53	53.31	5.66	-56.0	-58.9	13.0	0.00e+00	0	30	0	33554432	78	4962
2026-01-03 04:56:47.51	53.23	5.72	-56.0	-58.9	13.1	0.00e+00	0	30	0	34603008	78	4953
2026-01-03 04:56:48.52	53.15	5.78	-56.2	-59.3	12.8	0.00e+00	0	30	0	36700160	78	5174
2026-01-03 04:56:49.52	53.06	5.85	-55.9	-58.6	13.3	0.00e+00	0	30	0	38797312	78	4796
2026-01-03 04:56:50.52	52.98	5.91	-55.9	-58.8	13.2	0.00e+00	0	30	0	40894464	78	4875
2026-01-03 04:56:51.51	52.90	5.97	-55.9	-58.6	13.3	0.00e+00	0	30	0	42991616	78	4798
2026-01-03 04:56:52.52	52.81	6.03	-55.8	-58.5	13.4	0.00e+00	0	30	0	44040192	78	4749
2026-01-03 04:56:53.52	52.73	6.10	-55.9	-58.7	13.2	0.00e+00	0	30	0	46137344	78	4846
2026-01-03 04:56:54.53	52.64	6.16	-55.9	-58.6	13.3	0.00e+00	0	30	0	48234496	78	4768
2026-01-03 04:56:55.52	52.56	6.22	-55.8	-58.6	13.3	0.00e+00	0	30	0	50331648	78	4764
2026-01-03 04:56:56.52	52.47	6.28	-56.0	-58.8	13.2	0.00e+00	0	30	0	51380224	78	4906
2026-01-03 04:56:57.53	52.38	6.35	-56.0	-58.8	13.2	0.00e+00	0	30	0	53477376	78	4908
2026-01-03 04:56:58.52	52.30	6.41	-56.0	-58.8	13.2	0.00e+00	0	30	0	55574528	78	4918
2026-01-03 04:56:59.52	52.21	6.47	-56.0	-58.9	13.1	0.00e+00	0	30	0	57671680	78	4976
2026-01-03 04:57:00.53	52.12	6.54	-56.0	-58.9	13.1	0.00e+00	0	30	0	59768832	78	4978
2026-01-03 04:57:01.52	52.03	6.60	-55.9	-58.8	13.1	0.00e+00	0	30	0	60817408	78	4878
2026-01-03 04:57:02.52	51.95	6.66	-56.2	-59.1	13.0	0.00e+00	0	30	0	62914560	78	5087
2026-01-03 04:57:03.52	51.86	6.72	-56.1	-59.0	13.1	0.00e+00	0	30	0	65011712	78	4993
2026-01-03 04:57:04.52	51.77	6.79	-56.2	-59.2	12.9	0.00e+00	0	30	0	67108864	78	5147
2026-01-03 04:57:05.52	51.68	6.85	-56.1	-59.1	13.0	0.00e+00	0	30	0	69206016	78	5043
2026-01-03 04:57:06.53	51.59	6.92	-56.0	-59.0	13.1	0.00e+00	0	30	0	70254592	78	5009
2026-01-03 04:57:07.53	51.50	6.98	-56.2	-59.2	13.0	7.00e-07	0	30	0	72351744	78	5149
2026-01-03 04:57:08.54	51.41	7.04	-56.2	-59.3	12.9	0.00e+00	0	30	0	74448896	78	5216
2026-01-03 04:57:09.54	51.31	7.11	-56.3	-59.4	12.8	0.00e+00	0	30	0	76546048	78	5264
2026-01-03 04:57:10.54	51.22	7.17	-56.2	-59.2	12.9	0.00e+00	0	30	0	78643200	78	5145
2026-01-03 04:57:11.53	51.13	7.23	-56.1	-59.1	13.0	0.00e+00	0	30	0	79691776	78	5083
2026-01-03 04:57:12.53	51.04	7.30	-56.0	-59.1	13.1	7.00e-07	0	30	0	81788928	78	5048
2026-01-03 04:57:13.53	50.95	7.36	-56.0	-59.0	13.1	0.00e+00	0	30	0	83886080	78	5029
2026-01-03 04:57:14.53	50.85	7.43	-56.1	-59.1	13.1	0.00e+00	0	30	0	85983232	78	5078
2026-01-03 04:57:15.53	50.76	7.49	-55.9	-58.8	13.3	0.00e+00	0	30	0	87031808	78	4873
2026-01-03 04:57:16.52	50.67	7.56	-55.9	-58.7	13.3	0.00e+00	0	30	0	89128960	78	4863
2026-01-03 04:57:17.53	50.57	7.62	-55.7	-58.4	13.5	0.00e+00	0	30	0	91226112	78	4698
2026-01-03 04:57:18.53	50.48	7.69	-55.8	-58.6	13.4	0.00e+00	0	30	0	93323264	78	4764
2026-01-03 04:57:19.53	50.38	7.75	-55.8	-58.5	13.4	0.00e+00	0	30	0	95420416	78	4749
2026-01-03 04:57:20.53	50.28	7.82	-55.7	-58.4	13.4	0.00e+00	0	30	0	96468992	77	4950
2026-01-03 04:57:21.53	50.19	7.88	-55.6	-58.3	13.5	0.00e+00	0	31	0	98566144	77	4901
2026-01-03 04:57:22.53	50.09	7.94	-55.7	-58.4	13.5	0.00e+00	0	30	0	100663296	77	4939
2026-01-03 04:57:23.53	49.99	8.01	-55.5	-58.1	13.6	0.00e+00	0	30	0	102760448	77	4764
2026-01-03 04:57:24.52	49.90	8.07	-55.5	-58.1	13.6	0.00e+00	0	30	0	104857600	77	4782
2026-01-03 04:57:25.53	49.80	8.14	-55.5	-58.1	13.6	0.00e+00	0	30	0	105906176	77	4804
2026-01-03 04:57:26.53	49.70	8.21	-55.4	-57.9	13.7	0.00e+00	0	30	0	108003328	77	4704
2026-01-03 04:57:27.53	49.60	8.27	-55.5	-58.1	13.7	0.00e+00	0	30	0	110100480	77	4763
2026-01-03 04:57:28.53	49.50	8.34	-55.5	-58.1	13.7	0.00e+00	0	30	0	112197632	77	4792
2026-01-03 04:57:29.53	49.40	8.40	-55.5	-58.0	13.7	0.00e+00	0	30	0	113246208	77	4727
2026-01-03 04:57:30.53	49.30	8.47	-55.3	-57.8	13.8	0.00e+00	0	30	0	115343360	77	4619
2026-01-03 04:57:31.53	49.20	8.53	-55.4	-57.8	13.8	0.00e+00	0	30	0	117440512	77	4647
2026-01-03 04:57:32.52	49.10	8.60	-55.4	-57.8	13.8	0.00e+00	0	30	0	119537664	77	4645
2026-01-03 04:57:33.52	49.00	8.66	-55.4	-57.9	13.8	0.00e+00	0	30	0	121634816	77	4681
2026-01-03 04:57:34.52	48.89	8.73	-55.5	-57.9	13.8	0.00e+00	0	31	0	122683392	77	4684
2026-01-03 04:57:35.50	48.79	8.80	-55.5	-58.0	13.8	0.00e+00	0	30	0	124780544	77	4731
2026-01-03 04:57:36.50	48.69	8.86	-55.5	-58.0	13.8	0.00e+00	0	30	0	126877696	77	4721
2026-01-03 04:57:37.50	48.59	8.93	-55.5	-57.9	13.8	0.00e+00	0	30	0	128974848	77	4701
2026-01-03 04:57:38.49	48.48	8.99	-55.4	-57.8	13.8	0.00e+00	0	31	0	130023424	77	4650
2026-01-03 04:57:39.50	48.38	9.06	-55.3	-57.7	13.9	0.00e+00	0	30	0	132120576	77	4570
2026-01-03 04:57:40.49	48.27	9.13	-55.4	-57.7	13.9	0.00e+00	0	31	0	134217728	77	4594
2026-01-03 04:57:41.49	48.17	9.19	-55.5	-57.9	13.8	0.00e+00	0	31	0	136314880	77	4664
2026-01-03 04:57:42.49	48.06	9.26	-55.5	-58.0	13.7	0.00e+00	0	30	0	138412032	77	4738
2026-01-03 04:57:43.49	47.95	9.33	-55.7	-58.2	13.7	0.00e+00	0	31	0	139460608	77	4847
2026-01-03 04:57:44.48	47.85	9.39	-55.5	-58.0	13.8	0.00e+00	0	30	0	141557760	77	4723
2026-01-03 04:57:45.48	47.74	9.46	-55.4	-57.9	13.9	0.00e+00	0	31	0	143654912	77	4652
2026-01-03 04:57:46.47	47.63	9.53	-55.6	-58.1	13.7	0.00e+00	0	31	0	145752064	77	4775
2026-01-03 04:57:47.48	47.52	9.59	-55.5	-57.9	13.8	0.00e+00	0	31	0	147849216	77	4664
2026-01-03 04:57:48.47	47.42	9.66	-55.6	-58.0	13.8	0.00e+00	0	31	0	148897792	77	4733
2026-01-03 04:57:49.47	47.31	9.73	-55.8	-58.3	13.6	0.00e+00	0	31	0	150994944	77	4894
2026-01-03 04:57:50.46	47.20	9.79	-55.7	-58.2	13.6	0.00e+00	0	30	0	153092096	77	4861
2026-01-03 04:57:51.47	47.08	9.86	-55.7	-58.2	13.7	0.00e+00	0	31	0	155189248	77	4854
2026-01-03 04:57:52.48	46.97	9.93	-55.6	-58.1	13.7	0.00e+00	0	30	0	157286400	77	4774
2026-01-03 04:57:53.48	46.86	10.00	-55.6	-58.0	13.8	0.00e+00	0	30	0	158334976	77	4727
2026-01-03 04:57:54.48	46.75	10.07	-55.6	-58.1	13.8	0.00e+00	0	31	0	160432128	77	4768
2026-01-03 04:57:55.48	46.64	10.13	-55.6	-58.0	13.8	0.00e+00	0	31	0	162529280	77	4753
2026-01-03 04:57:56.48	46.52	10.20	-55.6	-58.1	13.8	0.00e+00	0	30	0	164626432	77	4765
2026-01-03 04:57:57.48	46.41	10.27	-55.7	-58.2	13.7	0.00e+00	0	31	0	165675008	77	4844
2026-01-03 04:57:58.49	46.29	10.34	-55.7	-58.2	13.7	0.00e+00	0	30	0	167772160	77	4832
2026-01-03 04:57:59.49	46.18	10.41	-55.8	-58.3	13.7	0.00e+00	0	31	0	169869312	77	4888
2026-01-03 04:58:00.49	46.06	10.47	-55.6	-58.0	13.8	0.00e+00	0	30	0	171966464	77	4739
2026-01-03 04:58:01.49	45.94	10.54	-55.6	-58.0	13.8	0.00e+00	0	31	0	174063616	77	4708
2026-01-03 04:58:02.50	45.83	10.61	-55.5	-57.9	13.8	0.00e+00	0	31	0	175112192	77	4700
2026-01-03 04:58:03.50	45.71	10.68	-55.4	-57.7	14.0	0.00e+00	0	31	0	177209344	77	4592
2026-01-03 04:58:04.50	45.59	10.75	-55.5	-57.8	13.9	0.00e+00	0	31	0	179306496	77	4624
2026-01-03 04:58:05.50	45.47	10.82	-55.5	-57.9	13.9	0.00e+00	0	30	0	181403648	77	4666
2026-01-03 04:58:06.49	45.35	10.88	-55.3	-57.6	14.0	0.00e+00	0	31	0	183500800	77	4530
2026-01-03 04:58:07.49	45.24	10.95	-55.5	-57.8	13.9	0.00e+00	0	30	0	184549376	77	4639
2026-01-03 04:58:08.49	45.11	11.02	-55.5	-57.8	13.9	0.00e+00	0	31	0	186646528	77	4645
2026-01-03 04:58:09.49	44.99	11.09	-55.3	-57.5	14.0	0.00e+00	0	31	0	188743680	77	4493
2026-01-03 04:58:10.49	44.87	11.16	-55.1	-57.3	14.1	0.00e+00	0	31	0	190840832	76	4643
2026-01-03 04:58:11.48	44.75	11.23	-55.1	-57.3	14.2	0.00e+00	0	31	0	192937984	76	4620
2026-01-03 04:58:12.48	44.63	11.30	-55.1	-57.3	14.2	0.00e+00	0	31	0	193986560	76	4637
2026-01-03 04:58:13.48	44.51	11.36	-55.1	-57.2	14.2	0.00e+00	0	30	0	196083712	76	4566
2026-01-03 04:58:14.49	44.38	11.43	-55.1	-57.2	14.2	0.00e+00	0	31	0	198180864	76	4588
2026-01-03 04:58:15.48	44.26	11.50	-55.0	-57.2	14.2	0.00e+00	0	31	0	200278016	76	4560
2026-01-03 04:58:16.48	44.13	11.57	-54.9	-56.9	14.4	0.00e+00	0	31	0	201326592	76	4424
2026-01-03 04:58:17.48	44.01	11.64	-54.9	-57.1	14.3	0.00e+00	0	31	0	203423744	76	4500
2026-01-03 04:58:18.48	43.88	11.71	-55.1	-57.3	14.2	0.00e+00	0	30	0	205520896	76	4611
2026-01-03 04:58:19.48	43.75	11.78	-55.0	-57.1	14.3	0.00e+00	0	30	0	207618048	76	4514
2026-01-03 04:58:20.48	43.63	11.85	-55.0	-57.1	14.3	0.00e+00	0	31	0	209715200	76	4514
2026-01-03 04:58:21.48	43.50	11.92	-54.9	-56.9	14.4	0.00e+00	0	31	0	210763776	76	4439
2026-01-03 04:58:22.49	43.37	11.99	-54.8	-56.9	14.4	0.00e+00	0	30	0	212860928	76	4412
2026-01-03 04:58:23.49	43.24	12.06	-54.8	-56.9	14.4	0.00e+00	0	31	0	214958080	76	4406
2026-01-03 04:58:24.49	43.11	12.13	-54.7	-56.6	14.5	0.00e+00	0	31	0	217055232	76	4289
2026-01-03 04:58:25.48	42.98	12.20	-54.7	-56.8	14.4	0.00e+00	0	30	0	219152384	75	4605
2026-01-03 04:58:26.47	42.85	12.27	-54.7	-56.7	14.4	0.00e+00	0	31	0	220200960	75	4566
2026-01-03 04:58:27.47	42.72	12.34	-54.7	-56.7	14.4	0.00e+00	0	31	0	222298112	75	4583
2026-01-03 04:58:28.47	42.59	12.41	-54.6	-56.6	14.5	0.00e+00	0	30	0	224395264	75	4511
2026-01-03 04:58:29.46	42.46	12.47	-54.7	-56.7	14.4	0.00e+00	0	30	0	226492416	75	4573
2026-01-03 04:58:30.45	42.32	12.54	-54.7	-56.7	14.4	0.00e+00	0	31	0	227540992	75	4598
2026-01-03 04:58:31.45	42.19	12.61	-54.6	-56.5	14.5	0.00e+00	0	31	0	229638144	75	4483
2026-01-03 04:58:32.45	42.05	12.68	-54.5	-56.4	14.6	0.00e+00	0	30	0	231735296	75	4411
2026-01-03 04:58:33.44	41.92	12.75	-54.5	-56.4	14.6	0.00e+00	0	31	0	233832448	75	4409
2026-01-03 04:58:34.44	41.78	12.82	-54.5	-56.4	14.5	0.00e+00	0	31	0	235929600	75	4438
2026-01-03 04:58:35.44	41.65	12.89	-54.5	-56.5	14.6	0.00e+00	0	31	0	236978176	75	4448
2026-01-03 04:58:36.44	41.51	12.96	-54.6	-56.6	14.5	0.00e+00	0	31	0	239075328	75	4530
2026-01-03 04:58:37.44	41.37	13.03	-54.4	-56.4	14.6	0.00e+00	0	31	0	241172480	75	4408
2026-01-03 04:58:38.44	41.23	13.10	-54.5	-56.5	14.5	0.00e+00	0	31	0	243269632	75	4455
2026-01-03 04:58:39.44	41.09	13.17	-54.5	-56.4	14.5	0.00e+00	0	31	0	244318208	75	4431
2026-01-03 04:58:40.44	40.95	13.24	-54.3	-56.2	14.6	0.00e+00	0	31	0	246415360	75	4324
2026-01-03 04:58:41.43	40.81	13.31	-54.4	-56.4	14.6	0.00e+00	0	31	0	248512512	75	4418
2026-01-03 04:58:42.43	40.67	13.38	-54.5	-56.5	14.5	0.00e+00	0	31	0	250609664	75	4458
2026-01-03 04:58:43.43	40.53	13.45	-54.5	-56.5	14.5	0.00e+00	0	31	0	252706816	75	4469
2026-01-03 04:58:44.43	40.38	13.53	-54.6	-56.7	14.5	0.00e+00	0	31	0	253755392	75	4580
2026-01-03 04:58:45.43	40.24	13.60	-54.6	-56.6	14.5	0.00e+00	0	31	0	255852544	75	4538
2026-01-03 04:58:46.42	40.10	13.67	-54.7	-56.9	14.4	0.00e+00	0	31	0	257949696	75	4652
2026-01-03 04:58:47.41	39.95	13.73	-54.7	-56.9	14.4	0.00e+00	0	31	0	260046848	75	4661
2026-01-03 04:58:48.41	39.81	13.81	-54.6	-56.7	14.4	0.00e+00	0	31	0	262144000	75	4576
2026-01-03 04:58:49.41	39.66	13.88	-54.6	-56.8	14.4	0.00e+00	0	31	0	263192576	75	4617
2026-01-03 04:58:50.41	39.51	13.95	-54.8	-57.1	14.2	0.00e+00	0	31	0	265289728	75	4767
2026-01-03 04:58:51.40	39.37	14.02	-55.0	-57.4	14.1	0.00e+00	0	31	0	267386880	75	4955
2026-01-03 04:58:52.40	39.22	14.09	-55.0	-57.5	14.0	0.00e+00	0	31	0	269484032	75	4986
2026-01-03 04:58:53.40	39.07	14.16	-55.2	-57.6	14.0	0.00e+00	0	30	0	270532608	75	5077
2026-01-03 04:58:54.41	38.92	14.23	-55.1	-57.5	14.0	0.00e+00	0	31	0	272629760	75	5006
2026-01-03 04:58:55.41	38.77	14.30	-55.0	-57.3	14.1	0.00e+00	0	31	0	274726912	75	4893
2026-01-03 04:58:56.41	38.61	14.37	-54.8	-56.9	14.3	0.00e+00	0	31	0	276824064	75	4695
2026-01-03 04:58:57.41	38.46	14.44	-54.7	-56.7	14.3	0.00e+00	0	30	0	278921216	75	4591
2026-01-03 04:58:58.41	38.31	14.51	-54.7	-56.8	14.3	0.00e+00	0	31	0	279969792	75	4608
2026-01-03 04:58:59.42	38.15	14.58	-54.7	-56.8	14.3	0.00e+00	0	31	0	282066944	75	4626
2026-01-03 04:59:00.42	38.00	14.65	-54.8	-56.9	14.3	0.00e+00	0	31	0	284164096	75	4673
2026-01-03 04:59:01.42	37.84	14.72	-54.8	-56.9	14.3	0.00e+00	0	31	0	286261248	75	4685
2026-01-03 04:59:02.42	37.69	14.79	-55.0	-57.1	14.2	0.00e+00	0	31	0	288358400	75	4812
2026-01-03 04:59:03.42	37.53	14.86	-54.8	-56.9	14.3	0.00e+00	0	31	0	289406976	75	4668
2026-01-03 04:59:04.42	37.37	14.93	-54.6	-56.7	14.4	0.00e+00	0	31	0	291504128	75	4558
2026-01-03 04:59:05.41	37.22	15.00	-54.7	-56.7	14.4	0.00e+00	0	31	0	293601280	75	4578
2026-01-03 04:59:06.41	37.06	15.07	-54.9	-57.0	14.2	0.00e+00	0	30	0	295698432	75	4741
2026-01-03 04:59:07.41	36.90	15.14	-55.1	-57.3	14.0	0.00e+00	0	31	0	297795584	75	4924
2026-01-03 04:59:08.41	36.74	15.22	-55.1	-57.4	14.0	0.00e+00	0	31	0	298844160	75	4930
2026-01-03 04:59:09.41	36.58	15.29	-55.3	-57.6	14.0	0.00e+00	0	31	0	300941312	76	4803
2026-01-03 04:59:10.42	36.41	15.36	-55.2	-57.5	14.0	0.00e+00	0	31	0	303038464	76	4708
2026-01-03 04:59:11.42	36.25	15.43	-55.2	-57.5	14.0	0.00e+00	0	31	0	305135616	76	4748
2026-01-03 04:59:12.41	36.09	15.50	-55.1	-57.3	14.1	0.00e+00	0	31	0	306184192	76	4617
2026-01-03 04:59:13.41	35.92	15.57	-55.0	-57.3	14.2	0.00e+00	0	31	0	308281344	76	4605
2026-01-03 04:59:14.41	35.76	15.64	-55.0	-57.2	14.2	0.00e+00	0	31	0	310378496	76	4568
2026-01-03 04:59:15.41	35.59	15.71	-54.9	-57.1	14.2	0.00e+00	0	31	0	312475648	76	4527
2026-01-03 04:59:16.41	35.42	15.78	-55.0	-57.2	14.2	0.00e+00	0	31	0	314572800	76	4574
2026-01-03 04:59:17.41	35.26	15.85	-55.1	-57.3	14.2	0.00e+00	0	31	0	315621376	76	4630
2026-01-03 04:59:18.41	35.09	15.92	-55.1	-57.3	14.2	0.00e+00	0	31	0	317718528	76	4600
2026-01-03 04:59:19.41	34.92	15.99	-55.0	-57.2	14.2	0.00e+00	0	31	0	319815680	76	4557
2026-01-03 04:59:20.42	34.75	16.06	-55.1	-57.3	14.2	0.00e+00	0	31	0	321912832	76	4604
2026-01-03 04:59:21.42	34.57	16.13	-55.2	-57.4	14.1	0.00e+00	0	31	0	324009984	76	4699
2026-01-03 04:59:22.41	34.40	16.20	-55.0	-57.2	14.2	0.00e+00	0	31	0	325058560	76	4585
2026-01-03 04:59:23.42	34.23	16.27	-55.2	-57.5	14.0	0.00e+00	0	31	0	327155712	76	4754
2026-01-03 04:59:24.41	34.06	16.34	-55.1	-57.3	14.1	0.00e+00	0	31	0	329252864	76	4630
2026-01-03 04:59:25.42	33.88	16.41	-55.0	-57.2	14.2	0.00e+00	0	31	0	331350016	76	4566
2026-01-03 04:59:26.41	33.71	16.48	-54.9	-57.1	14.2	0.00e+00	0	31	0	333447168	76	4513
2026-01-03 04:59:27.41	33.53	16.54	-54.8	-56.9	14.4	0.00e+00	0	31	0	334495744	76	4417
2026-01-03 04:59:28.41	33.36	16.61	-54.7	-56.8	14.3	0.00e+00	0	31	0	336592896	75	4599
2026-01-03 04:59:29.41	33.18	16.68	-54.8	-56.9	14.3	0.00e+00	0	31	0	338690048	75	4701
2026-01-03 04:59:30.42	33.00	16.75	-54.7	-56.8	14.4	0.00e+00	0	31	0	340787200	75	4621
2026-01-03 04:59:31.42	32.82	16.82	-54.9	-57.1	14.2	0.00e+00	0	31	0	341835776	75	4786
2026-01-03 04:59:32.41	32.64	16.89	-55.0	-57.3	14.1	0.00e+00	0	31	0	343932928	75	4882
2026-01-03 04:59:33.41	32.46	16.96	-55.1	-57.3	14.1	0.00e+00	0	31	0	346030080	75	4911
2026-01-03 04:59:34.41	32.28	17.03	-55.3	-57.7	13.9	0.00e+00	0	31	0	348127232	75	5107
2026-01-03 04:59:35.41	32.10	17.10	-55.3	-57.7	13.8	0.00e+00	0	31	0	350224384	75	5134
2026-01-03 04:59:36.41	31.91	17.17	-55.1	-57.4	14.0	0.00e+00	0	31	0	351272960	75	4967
2026-01-03 04:59:37.41	31.73	17.23	-55.1	-57.3	14.1	0.00e+00	0	31	0	353370112	75	4913
2026-01-03 04:59:38.41	31.54	17.30	-55.1	-57.4	14.0	0.00e+00	0	31	0	355467264	75	4981
2026-01-03 04:59:39.41	31.36	17.37	-55.1	-57.4	14.0	0.00e+00	0	31	0	357564416	75	4976
2026-01-03 04:59:40.40	31.17	17.44	-54.9	-57.1	14.2	0.00e+00	0	31	0	358612992	75	4772
2026-01-03 04:59:41.40	30.99	17.51	-54.8	-56.9	14.3	0.00e+00	0	31	0	360710144	75	4669
2026-01-03 04:59:42.39	30.80	17.57	-54.5	-56.4	14.6	0.00e+00	0	31	0	362807296	75	4421
2026-01-03 04:59:43.39	30.61	17.64	-54.5	-56.4	14.6	0.00e+00	0	31	0	364904448	75	4422
2026-01-03 04:59:44.38	30.42	17.71	-54.5	-56.4	14.6	0.00e+00	0	31	0	367001600	75	4423
2026-01-03 04:59:45.38	30.23	17.77	-54.5	-56.4	14.6	0.00e+00	0	31	0	368050176	75	4398
2026-01-03 04:59:46.37	30.04	17.84	-54.6	-56.6	14.5	0.00e+00	0	31	0	370147328	75	4506
2026-01-03 04:59:47.38	29.85	17.91	-54.6	-56.6	14.5	0.00e+00	0	31	0	372244480	75	4510
2026-01-03 04:59:48.37	29.65	17.98	-54.4	-56.4	14.6	0.00e+00	0	31	0	374341632	75	4392
2026-01-03 04:59:49.38	29.46	18.04	-54.3	-56.2	14.7	0.00e+00	0	31	0	376438784	75	4326
2026-01-03 04:59:50.38	29.26	18.11	-54.1	-56.1	14.6	0.00e+00	0	31	0	377487360	74	4500
2026-01-03 04:59:51.39	29.06	18.18	-54.0	-55.9	14.7	0.00e+00	0	31	0	379584512	74	4439
2026-01-03 04:59:52.39	28.87	18.24	-53.9	-55.8	14.8	0.00e+00	0	31	0	381681664	74	4390
2026-01-03 04:59:53.39	28.67	18.31	-54.0	-56.0	14.7	0.00e+00	0	31	0	383778816	74	4462
2026-01-03 04:59:54.39	28.47	18.37	-54.0	-55.9	14.7	0.00e+00	0	31	0	385875968	74	4414
2026-01-03 04:59:55.38	28.27	18.44	-53.7	-55.5	14.8	0.00e+00	0	31	0	386924544	73	4490
2026-01-03 04:59:56.38	28.07	18.51	-53.4	-55.1	15.0	0.00e+00	0	31	0	389021696	73	4272
2026-01-03 04:59:57.38	27.87	18.57	-53.3	-55.0	15.0	0.00e+00	0	31	0	391118848	72	4472
2026-01-03 04:59:58.38	27.67	18.64	-53.3	-55.0	15.0	0.00e+00	0	31	0	393216000	72	4459
2026-01-03 04:59:59.38	27.46	18.70	-53.3	-55.0	15.0	0.00e+00	0	31	0	394264576	72	4473
2026-01-03 05:00:00.39	27.26	18.77	-53.4	-55.1	14.9	0.00e+00	0	31	0	396361728	72	4539
2026-01-03 05:00:01.39	27.05	18.83	-53.5	-55.2	14.8	0.00e+00	0	31	0	398458880	72	4594
2026-01-03 05:00:02.39	26.85	18.89	-53.5	-55.2	14.9	0.00e+00	0	31	0	400556032	72	4592
2026-01-03 05:00:03.39	26.64	18.96	-53.4	-55.1	14.9	0.00e+00	0	31	0	402653184	72	4523
2026-01-03 05:00:04.39	26.43	19.02	-53.4	-55.0	14.9	0.00e+00	0	31	0	403701760	72	4464
2026-01-03 05:00:05.39	26.22	19.09	-53.4	-55.1	15.0	0.00e+00	0	31	0	405798912	72	4495
2026-01-03 05:00:06.39	26.01	19.15	-53.3	-54.9	15.0	0.00e+00	0	31	0	407896064	72	4441
2026-01-03 05:00:07.40	25.80	19.21	-53.2	-54.8	15.1	0.00e+00	0	31	0	409993216	72	4372
2026-01-03 05:00:08.39	25.59	19.28	-53.2	-54.7	15.1	0.00e+00	0	31	0	412090368	72	4319
2026-01-03 05:00:09.40	25.38	19.34	-53.1	-54.6	15.1	0.00e+00	0	31	0	413138944	72	4288
2026-01-03 05:00:10.40	25.16	19.40	-53.2	-54.8	15.0	0.00e+00	0	31	0	415236096	72	4367
2026-01-03 05:00:11.40	24.95	19.46	-53.1	-54.7	15.1	0.00e+00	0	31	0	417333248	72	4307
2026-01-03 05:00:12.40	24.74	19.53	-53.2	-54.8	15.1	0.00e+00	0	31	0	419430400	72	4364
2026-01-03 05:00:13.40	24.52	19.59	-53.3	-54.9	15.0	0.00e+00	0	31	0	420478976	72	4409
2026-01-03 05:00:14.40	24.30	19.65	-53.5	-55.2	14.9	0.00e+00	0	31	0	422576128	72	4558
2026-01-03 05:00:15.40	24.09	19.71	-53.5	-55.2	14.9	0.00e+00	0	31	0	424673280	72	4560
2026-01-03 05:00:16.39	23.87	19.77	-53.5	-55.2	14.9	0.00e+00	0	31	0	426770432	72	4566
2026-01-03 05:00:17.39	23.65	19.83	-53.5	-55.2	14.9	0.00e+00	0	31	0	428867584	72	4575
2026-01-03 05:00:18.40	23.43	19.89	-53.4	-55.1	15.0	0.00e+00	0	31	0	429916160	72	4516
2026-01-03 05:00:19.41	23.21	19.95	-53.5	-55.2	14.9	0.00e+00	0	31	0	432013312	72	4576
2026-01-03 05:00:20.41	22.98	20.01	-53.1	-54.7	15.1	0.00e+00	0	31	0	434110464	72	4323
2026-01-03 05:00:21.41	22.76	20.07	-53.0	-54.6	15.1	0.00e+00	0	31	0	436207616	72	4248
2026-01-03 05:00:22.41	22.54	20.13	-53.1	-54.6	15.2	0.00e+00	0	31	0	438304768	72	4288
2026-01-03 05:00:23.41	22.31	20.19	-53.1	-54.5	15.2	0.00e+00	0	31	0	439353344	72	4241
2026-01-03 05:00:24.41	22.09	20.25	-53.1	-54.6	15.2	0.00e+00	0	31	0	441450496	72	4274
2026-01-03 05:00:25.41	21.86	20.30	-53.0	-54.5	15.2	0.00e+00	0	31	0	443547648	72	4221
2026-01-03 05:00:26.41	21.64	20.36	-53.2	-54.7	15.1	0.00e+00	0	31	0	445644800	72	4339
2026-01-03 05:00:27.41	21.41	20.42	-53.3	-54.8	15.1	0.00e+00	0	31	0	447741952	72	4365
2026-01-03 05:00:28.41	21.18	20.48	-53.3	-54.8	15.1	0.00e+00	0	31	0	448790528	72	4348
2026-01-03 05:00:29.42	20.95	20.53	-53.1	-54.6	15.2	0.00e+00	0	31	0	450887680	72	4268
2026-01-03 05:00:30.42	20.72	20.59	-53.1	-54.5	15.2	0.00e+00	0	31	0	452984832	72	4237
2026-01-03 05:00:31.41	20.49	20.64	-53.0	-54.4	15.3	0.00e+00	0	31	0	455081984	72	4180
2026-01-03 05:00:32.41	20.26	20.70	-53.0	-54.4	15.3	0.00e+00	0	31	0	457179136	72	4171
2026-01-03 05:00:33.41	20.02	20.75	-53.1	-54.6	15.2	0.00e+00	0	31	0	458227712	72	4263
2026-01-03 05:00:34.40	19.79	20.81	-53.1	-54.5	15.2	0.00e+00	0	31	0	460324864	72	4212
2026-01-03 05:00:35.40	19.56	20.86	-52.9	-54.3	15.3	0.00e+00	0	31	0	462422016	72	4141
2026-01-03 05:00:36.40	19.32	20.92	-52.9	-54.4	15.3	0.00e+00	0	31	0	464519168	72	4153
2026-01-03 05:00:37.40	19.09	20.97	-52.8	-54.2	15.4	0.00e+00	0	31	0	465567744	72	4073
2026-01-03 05:00:38.39	18.85	21.02	-52.8	-54.2	15.3	0.00e+00	0	31	0	467664896	72	4084
2026-01-03 05:00:39.38	18.62	21.07	-52.9	-54.2	15.4	0.00e+00	0	31	0	469762048	72	4093
2026-01-03 05:00:40.39	18.37	21.13	-52.9	-54.2	15.4	0.00e+00	0	31	0	471859200	72	4088
2026-01-03 05:00:41.39	18.13	21.18	-52.7	-54.1	15.3	0.00e+00	0	31	0	473956352	71	4259
2026-01-03 05:00:42.38	17.90	21.23	-52.6	-54.0	15.4	0.00e+00	0	31	0	475004928	71	4197
2026-01-03 05:00:43.38	17.66	21.28	-52.6	-53.9	15.4	0.00e+00	0	31	0	477102080	71	4184
2026-01-03 05:00:44.38	17.41	21.33	-52.5	-53.8	15.5	0.00e+00	0	30	0	479199232	71	4117
2026-01-03 05:00:45.38	17.17	21.38	-52.6	-53.8	15.5	0.00e+00	0	31	0	481296384	71	4132
2026-01-03 05:00:46.37	16.93	21.43	-52.8	-54.1	15.3	0.00e+00	0	31	0	482344960	71	4257
2026-01-03 05:00:47.37	16.69	21.48	-52.9	-54.2	15.3	0.00e+00	0	31	0	484442112	71	4293
2026-01-03 05:00:48.38	16.44	21.53	-52.6	-53.9	15.4	0.00e+00	0	31	0	486539264	71	4156
2026-01-03 05:00:49.38	16.19	21.58	-52.7	-54.0	15.3	0.00e+00	0	31	0	488636416	71	4228
2026-01-03 05:00:50.38	15.95	21.62	-52.7	-54.0	15.4	0.00e+00	0	31	0	490733568	71	4215
2026-01-03 05:00:51.38	15.70	21.67	-52.7	-53.9	15.4	0.00e+00	0	31	0	491782144	71	4183
2026-01-03 05:00:52.38	15.45	21.72	-52.9	-54.2	15.3	0.00e+00	0	30	0	493879296	71	4315
2026-01-03 05:00:53.37	15.20	21.76	-53.0	-54.3	15.3	0.00e+00	0	31	0	495976448	71	4391
2026-01-03 05:00:54.37	14.95	21.81	-53.0	-54.3	15.3	0.00e+00	0	31	0	498073600	71	4370
2026-01-03 05:00:55.37	14.70	21.86	-53.0	-54.3	15.3	0.00e+00	0	31	0	500170752	71	4384
2026-01-03 05:00:56.36	14.45	21.90	-52.9	-54.2	15.3	0.00e+00	0	31	0	501219328	71	4320
2026-01-03 05:00:57.36	14.20	21.94	-52.9	-54.3	15.3	0.00e+00	0	31	0	503316480	71	4371
2026-01-03 05:00:58.35	13.95	21.99	-52.9	-54.3	15.3	0.00e+00	0	31	0	505413632	71	4347
2026-01-03 05:00:59.35	13.70	22.03	-52.9	-54.3	15.3	0.00e+00	0	31	0	507510784	71	4373
2026-01-03 05:01:00.35	13.45	22.07	-52.9	-54.2	15.3	0.00e+00	0	31	0	508559360	71	4338
2026-01-03 05:01:01.35	13.19	22.12	-52.9	-54.2	15.3	0.00e+00	0	31	0	510656512	71	4332
2026-01-03 05:01:02.35	12.94	22.16	-53.0	-54.3	15.3	0.00e+00	0	31	0	512753664	71	4389
2026-01-03 05:01:03.35	12.68	22.20	-52.8	-54.1	15.4	0.00e+00	0	31	0	514850816	71	4256
2026-01-03 05:01:04.35	12.42	22.24	-52.6	-53.8	15.5	0.00e+00	0	31	0	516947968	71	4139
2026-01-03 05:01:05.34	12.17	22.28	-52.7	-53.9	15.4	0.00e+00	0	31	0	517996544	71	4187
2026-01-03 05:01:06.34	11.91	22.32	-52.8	-54.1	15.4	0.00e+00	0	31	0	520093696	71	4266
2026-01-03 05:01:07.34	11.65	22.36	-52.8	-54.0	15.4	0.00e+00	0	31	0	522190848	71	4225
2026-01-03 05:01:08.34	11.39	22.40	-52.6	-53.9	15.4	0.00e+00	0	31	0	524288000	71	4160
2026-01-03 05:01:09.33	11.13	22.43	-52.7	-53.9	15.4	0.00e+00	0	31	0	526385152	71	4177
2026-01-03 05:01:10.33	10.87	22.47	-52.6	-53.7	15.5	0.00e+00	0	31	0	527433728	71	4094
2026-01-03 05:01:11.34	10.61	22.51	-52.8	-54.1	15.3	0.00e+00	0	31	0	529530880	71	4244
2026-01-03 05:01:12.34	10.35	22.54	-53.1	-54.4	15.3	0.00e+00	0	31	0	531628032	71	4423
2026-01-03 05:01:13.35	10.08	22.58	-53.4	-54.8	15.2	0.00e+00	0	31	0	533725184	72	4355
2026-01-03 05:01:14.35	9.82	22.61	-53.6	-55.1	15.0	0.00e+00	0	31	0	534773760	72	4524
2026-01-03 05:01:15.35	9.56	22.65	-53.8	-55.3	15.0	0.00e+00	0	31	0	536870912	72	4651
2026-01-03 05:01:16.35	9.29	22.68	-54.0	-55.6	14.9	0.00e+00	0	31	0	538968064	73	4512
2026-01-03 05:01:17.34	9.03	22.71	-54.1	-55.7	14.8	0.00e+00	0	31	0	541065216	73	4598
2026-01-03 05:01:18.34	8.76	22.75	-54.6	-56.4	14.6	0.00e+00	0	31	0	543162368	74	4683
2026-01-03 05:01:19.34	8.50	22.78	-54.8	-56.8	14.5	0.00e+00	0	31	0	544210944	74	4876
2026-01-03 05:01:20.34	8.23	22.81	-55.0	-57.0	14.4	0.00e+00	0	31	0	546308096	75	4723
2026-01-03 05:01:21.35	7.96	22.84	-54.6	-56.5	14.6	0.00e+00	0	31	0	548405248	75	4465
2026-01-03 05:01:22.35	7.69	22.87	-54.4	-56.3	14.7	0.00e+00	0	31	0	550502400	75	4356
2026-01-03 05:01:23.35	7.43	22.90	-54.2	-55.9	14.9	0.00e+00	0	31	0	552599552	75	4174
2026-01-03 05:01:24.35	7.16	22.93	-54.2	-55.9	14.8	0.00e+00	0	31	0	553648128	74	4423
2026-01-03 05:01:25.35	6.89	22.96	-54.1	-55.7	14.9	0.00e+00	0	31	0	555745280	74	4332
2026-01-03 05:01:26.35	6.62	22.98	-54.2	-55.9	14.8	0.00e+00	0	31	0	557842432	74	4403
2026-01-03 05:01:27.35	6.35	23.01	-54.0	-55.7	14.9	0.00e+00	0	31	0	559939584	74	4331
2026-01-03 05:01:28.35	6.08	23.04	-54.0	-55.7	14.9	0.00e+00	0	31	0	562036736	74	4315
2026-01-03 05:01:29.34	5.81	23.06	-53.9	-55.5	15.0	0.00e+00	0	31	0	563085312	74	4228
2026-01-03 05:01:30.34	5.54	23.08	-53.8	-55.4	15.0	0.00e+00	0	31	0	565182464	74	4155
2026-01-03 05:01:31.33	5.27	23.11	-53.7	-55.2	15.0	0.00e+00	0	31	0	567279616	73	4329
2026-01-03 05:01:32.33	5.00	23.13	-53.7	-55.3	15.0	0.00e+00	0	31	0	569376768	73	4360
2026-01-03 05:01:33.33	4.72	23.15	-53.9	-55.5	14.9	0.00e+00	0	31	0	570425344	73	4488
2026-01-03 05:01:34.33	4.45	23.18	-54.2	-56.0	14.7	0.00e+00	0	31	0	572522496	73	4710
2026-01-03 05:01:35.33	4.18	23.20	-54.4	-56.2	14.6	0.00e+00	0	31	0	574619648	73	4870
2026-01-03 05:01:36.34	3.90	23.22	-54.2	-56.0	14.7	0.00e+00	0	31	0	576716800	73	4757
2026-01-03 05:01:37.33	3.63	23.24	-53.9	-55.5	14.9	0.00e+00	0	31	0	578813952	73	4487
2026-01-03 05:01:38.33	3.36	23.26	-53.9	-55.5	14.9	0.00e+00	0	31	0	579862528	73	4471
2026-01-03 05:01:39.32	3.08	23.28	-54.0	-55.6	14.9	0.00e+00	0	31	0	581959680	73	4541
2026-01-03 05:01:40.32	2.81	23.29	-54.4	-56.2	14.7	0.00e+00	0	31	0	584056832	74	4575
2026-01-03 05:01:41.32	2.53	23.31	-54.7	-56.7	14.4	0.00e+00	0	31	0	586153984	74	4858
2026-01-03 05:01:42.32	2.26	23.33	-54.8	-56.9	14.3	0.00e+00	0	31	0	588251136	74	4937
2026-01-03 05:01:43.31	1.98	23.34	-54.9	-56.9	14.3	0.00e+00	0	31	0	589299712	74	4983
2026-01-03 05:01:44.31	1.71	23.36	-54.4	-56.3	14.6	0.00e+00	0	31	0	591396864	74	4610
2026-01-03 05:01:45.31	1.43	23.37	-54.3	-56.2	14.7	0.00e+00	0	31	0	593494016	74	4560
2026-01-03 05:01:46.32	1.15	23.38	-54.3	-56.1	14.7	0.00e+00	0	31	0	595591168	74	4544
2026-01-03 05:01:47.31	0.88	23.40	-54.5	-56.4	14.6	0.00e+00	0	31	0	596639744	74	4678
2026-01-03 05:01:48.31	0.60	23.41	-54.7	-56.7	14.5	0.00e+00	0	31	0	598736896	74	4826
2026-01-03 05:01:49.30	0.33	23.42	-54.9	-57.0	14.4	0.00e+00	0	31	0	600834048	75	4738
2026-01-03 05:01:50.30	0.05	23.43	-55.2	-57.5	14.2	0.00e+00	0	31	0	602931200	75	4984
2026-01-03 05:01:51.30	359.77	23.44	-55.0	-57.2	14.2	0.00e+00	0	31	0	605028352	75	4832
2026-01-03 05:01:52.29	359.50	23.45	-55.0	-57.1	14.3	0.00e+00	0	31	0	606076928	75	4806
2026-01-03 05:01:53.29	359.22	23.46	-55.1	-57.3	14.2	0.00e+00	0	31	0	608174080	75	4917
2026-01-03 05:01:54.28	358.94	23.47	-55.1	-57.3	14.3	0.00e+00	0	31	0	610271232	75	4882
2026-01-03 05:01:55.28	358.66	23.47	-55.3	-57.6	14.1	0.00e+00	0	31	0	612368384	75	5089
2026-01-03 05:01:56.28	358.39	23.48	-55.2	-57.6	14.1	0.00e+00	0	31	0	613416960	75	5049
2026-01-03 05:01:57.28	358.11	23.48	-55.2	-57.5	14.1	0.00e+00	0	31	0	615514112	75	5003
2026-01-03 05:01:58.27	357.83	23.49	-54.7	-56.7	14.5	0.00e+00	0	31	0	617611264	75	4593
2026-01-03 05:01:59.27	357.55	23.49	-54.2	-56.0	14.8	0.00e+00	0	31	0	619708416	75	4231
2026-01-03 05:02:00.27	357.27	23.50	-53.8	-55.4	15.0	0.00e+00	0	31	0	621805568	74	4179
2026-01-03 05:02:01.27	356.99	23.50	-53.5	-55.1	15.0	0.00e+00	0	31	0	622854144	73	4266
2026-01-03 05:02:02.28	356.71	23.50	-53.6	-55.3	14.9	0.00e+00	0	31	0	624951296	73	4387
2026-01-03 05:02:03.29	356.43	23.50	-54.2	-56.1	14.6	0.00e+00	0	31	0	627048448	73	4788
2026-01-03 05:02:04.30	356.15	23.50	-54.4	-56.4	14.5	0.00e+00	0	31	0	629145600	73	4929
2026-01-03 05:02:05.30	355.87	23.50	-54.6	-56.8	14.4	0.00e+00	0	31	0	631242752	74	4880
2026-01-03 05:02:06.29	355.59	23.50	-54.4	-56.4	14.5	0.00e+00	0	31	0	632291328	74	4671
2026-01-03 05:02:07.29	355.31	23.50	-54.2	-56.1	14.7	0.00e+00	0	31	0	634388480	74	4518
2026-01-03 05:02:08.29	355.04	23.50	-53.9	-55.6	14.9	0.00e+00	0	31	0	636485632	74	4289
2026-01-03 05:02:09.29	354.76	23.49	-53.8	-55.5	14.9	0.00e+00	0	31	0	638582784	74	4234
2026-01-03 05:02:10.29	354.48	23.49	-53.9	-55.7	14.9	0.00e+00	0	31	0	640679936	74	4301
2026-01-03 05:02:11.29	354.20	23.49	-54.1	-55.9	14.8	0.00e+00	0	31	0	641728512	74	4399
2026-01-03 05:02:12.29	353.92	23.48	-54.3	-56.2	14.7	0.00e+00	0	31	0	643825664	74	4548
2026-01-03 05:02:13.29	353.64	23.47	-54.2	-56.0	14.7	0.00e+00	0	31	0	645922816	74	4488
2026-01-03 05:02:14.29	353.36	23.47	-54.2	-56.0	14.8	0.00e+00	0	31	0	648019968	74	4476
2026-01-03 05:02:15.29	353.09	23.46	-53.9	-55.6	14.9	0.00e+00	0	31	0	649068544	74	4249
2026-01-03 05:02:16.29	352.81	23.45	-53.8	-55.5	14.9	0.00e+00	0	31	0	651165696	73	4451
2026-01-03 05:02:17.28	352.53	23.44	-53.5	-55.1	15.1	0.00e+00	0	31	0	653262848	73	4260
2026-01-03 05:02:18.28	352.25	23.43	-53.3	-54.8	15.2	0.00e+00	0	31	0	655360000	73	4138
2026-01-03 05:02:19.28	351.98	23.42	-53.2	-54.6	15.2	0.00e+00	0	31	0	657457152	72	4278
2026-01-03 05:02:20.28	351.70	23.41	-53.2	-54.7	15.2	0.00e+00	0	31	0	658505728	72	4293
2026-01-03 05:02:21.29	351.42	23.40	-53.3	-54.7	15.2	0.00e+00	0	31	0	660602880	72	4325
2026-01-03 05:02:22.29	351.14	23.39	-53.8	-55.4	14.9	0.00e+00	0	31	0	662700032	72	4669
2026-01-03 05:02:23.29	350.87	23.37	-53.8	-55.4	14.9	0.00e+00	0	31	0	664797184	72	4691
2026-01-03 05:02:24.29	350.59	23.36	-53.9	-55.6	15.0	0.00e+00	0	31	0	666894336	73	4498
2026-01-03 05:02:25.29	350.31	23.34	-53.8	-55.3	15.0	0.00e+00	0	31	0	667942912	73	4382
2026-01-03 05:02:26.29	350.04	23.33	-53.2	-54.6	15.3	0.00e+00	0	31	0	670040064	73	4041
2026-01-03 05:02:27.29	349.76	23.31	-52.9	-54.2	15.4	0.00e+00	0	31	0	672137216	72	4067
2026-01-03 05:02:28.29	349.49	23.29	-52.7	-53.9	15.5	0.00e+00	0	31	0	674234368	72	3946
2026-01-03 05:02:29.30	349.21	23.28	-52.8	-54.0	15.5	0.00e+00	0	31	0	675282944	72	3990
2026-01-03 05:02:30.30	348.93	23.26	-53.0	-54.2	15.4	0.00e+00	0	31	0	677380096	72	4097
2026-01-03 05:02:31.31	348.66	23.24	-53.1	-54.4	15.3	0.00e+00	0	31	0	679477248	72	4178
2026-01-03 05:02:32.31	348.38	23.22	-53.0	-54.3	15.4	0.00e+00	0	31	0	681574400	72	4129
2026-01-03 05:02:33.31	348.11	23.20	-53.0	-54.3	15.4	0.00e+00	0	31	0	683671552	72	4099
2026-01-03 05:02:34.30	347.84	23.18	-52.7	-53.9	15.5	0.00e+00	0	31	0	684720128	72	3951
2026-01-03 05:02:35.30	347.56	23.16	-52.7	-53.9	15.4	0.00e+00	0	31	0	686817280	71	4192
2026-01-03 05:02:36.29	347.29	23.13	-52.5	-53.7	15.5	0.00e+00	0	31	0	688914432	71	4087
2026-01-03 05:02:37.29	347.02	23.11	-52.4	-53.5	15.6	0.00e+00	0	31	0	691011584	71	3989
2026-01-03 05:02:38.28	346.75	23.09	-52.4	-53.5	15.6	0.00e+00	0	31	0	693108736	71	4004
2026-01-03 05:02:39.27	346.48	23.06	-52.6	-53.8	15.4	0.00e+00	0	31	0	694157312	71	4138
2026-01-03 05:02:40.27	346.21	23.04	-52.8	-54.0	15.4	0.00e+00	0	31	0	696254464	71	4219
2026-01-03 05:02:41.27	345.94	23.01	-52.8	-54.1	15.4	0.00e+00	0	31	0	698351616	71	4244
2026-01-03 05:02:42.27	345.67	22.98	-53.2	-54.5	15.2	0.00e+00	0	31	0	700448768	71	4477
2026-01-03 05:02:43.27	345.40	22.96	-53.3	-54.6	15.2	0.00e+00	0	31	0	702545920	71	4531
2026-01-03 05:02:44.26	345.14	22.93	-53.3	-54.6	15.2	0.00e+00	0	31	0	703594496	72	4264
2026-01-03 05:02:45.26	344.87	22.90	-53.4	-54.8	15.2	0.00e+00	0	31	0	705691648	72	4372
2026-01-03 05:02:46.26	344.60	22.87	-53.4	-54.7	15.2	0.00e+00	0	31	0	707788800	72	4324
2026-01-03 05:02:47.26	344.33	22.84	-53.5	-54.8	15.2	0.00e+00	0	31	0	709885952	72	4388
2026-01-03 05:02:48.26	344.06	22.81	-53.0	-54.3	15.4	0.00e+00	0	31	0	710934528	72	4118
2026-01-03 05:02:49.26	343.80	22.78	-52.8	-54.1	15.5	0.00e+00	0	31	0	713031680	72	4012
2026-01-03 05:02:50.25	343.53	22.75	-52.9	-54.1	15.5	0.00e+00	0	31	0	715128832	72	4026
2026-01-03 05:02:51.25	343.27	22.72	-52.7	-53.9	15.4	0.00e+00	0	31	0	717225984	71	4188
2026-01-03 05:02:52.25	343.00	22.68	-53.1	-54.4	15.3	0.00e+00	0	31	0	719323136	71	4401
2026-01-03 05:02:53.24	342.74	22.65	-53.4	-54.8	15.2	0.00e+00	0	31	0	720371712	72	4376
2026-01-03 05:02:54.23	342.48	22.62	-53.8	-55.2	15.0	0.00e+00	0	31	0	722468864	72	4587
2026-01-03 05:02:55.24	342.22	22.58	-53.8	-55.3	15.0	0.00e+00	0	31	0	724566016	72	4642
2026-01-03 05:02:56.23	341.96	22.55	-53.7	-55.2	15.1	0.00e+00	0	31	0	726663168	73	4312
2026-01-03 05:02:57.24	341.69	22.51	-53.9	-55.4	15.0	0.00e+00	0	31	0	727711744	73	4408
2026-01-03 05:02:58.23	341.43	22.48	-53.4	-54.8	15.3	0.00e+00	0	31	0	729808896	73	4123
2026-01-03 05:02:59.23	341.17	22.44	-53.3	-54.7	15.2	0.00e+00	0	31	0	731906048	72	4310
2026-01-03 05:03:00.23	340.91	22.40	-53.3	-54.7	15.2	0.00e+00	0	31	0	734003200	72	4316
2026-01-03 05:03:01.23	340.65	22.36	-53.3	-54.7	15.2	0.00e+00	0	31	0	736100352	72	4299
2026-01-03 05:03:02.23	340.39	22.32	-53.5	-55.0	15.1	0.00e+00	0	31	0	737148928	72	4469
2026-01-03 05:03:03.24	340.13	22.28	-53.5	-55.0	15.1	0.00e+00	0	31	0	739246080	72	4457
2026-01-03 05:03:04.24	339.87	22.24	-53.6	-55.1	15.1	0.00e+00	0	31	0	741343232	72	4533
2026-01-03 05:03:05.24	339.62	22.20	-53.8	-55.3	15.0	0.00e+00	0	31	0	743440384	72	4626
2026-01-03 05:03:06.24	339.36	22.16	-53.6	-55.1	15.0	0.00e+00	0	31	0	745537536	72	4526
2026-01-03 05:03:07.24	339.11	22.12	-53.8	-55.4	14.9	0.00e+00	0	31	0	746586112	72	4659
2026-01-03 05:03:08.23	338.85	22.08	-54.1	-55.8	14.9	0.00e+00	0	31	0	748683264	73	4624
2026-01-03 05:03:09.24	338.60	22.04	-54.2	-55.9	14.8	0.00e+00	0	31	0	750780416	73	4688
2026-01-03 05:03:10.23	338.35	21.99	-54.5	-56.4	14.6	0.00e+00	0	31	0	752877568	74	4670
2026-01-03 05:03:11.23	338.09	21.95	-54.6	-56.5	14.5	0.00e+00	0	31	0	753926144	74	4759
2026-01-03 05:03:12.23	337.84	21.90	-54.6	-56.5	14.6	0.00e+00	0	31	0	756023296	74	4737
2026-01-03 05:03:13.22	337.59	21.86	-54.5	-56.3	14.6	0.00e+00	0	31	0	758120448	74	4650
2026-01-03 05:03:14.21	337.35	21.82	-54.4	-56.2	14.6	0.00e+00	0	31	0	760217600	74	4597
2026-01-03 05:03:15.22	337.09	21.77	-54.3	-56.0	14.8	0.00e+00	0	31	0	762314752	74	4466
2026-01-03 05:03:16.21	336.85	21.72	-54.2	-55.9	14.8	0.00e+00	0	31	0	763363328	74	4435
2026-01-03 05:03:17.22	336.60	21.68	-54.2	-56.0	14.7	0.00e+00	0	31	0	765460480	74	4471
2026-01-03 05:03:18.22	336.35	21.63	-54.2	-55.9	14.8	0.00e+00	0	31	0	767557632	74	4438
2026-01-03 05:03:19.22	336.10	21.58	-54.2	-56.0	14.8	0.00e+00	0	31	0	769654784	74	4449
2026-01-03 05:03:20.22	335.86	21.53	-54.1	-55.9	14.8	0.00e+00	0	31	0	771751936	74	4411
2026-01-03 05:03:21.22	335.61	21.48	-54.1	-55.9	14.8	0.00e+00	0	31	0	772800512	74	4405
2026-01-03 05:03:22.22	335.37	21.44	-53.8	-55.5	15.0	0.00e+00	0	31	0	774897664	74	4221
2026-01-03 05:03:23.22	335.12	21.39	-53.6	-55.2	15.0	0.00e+00	0	31	0	776994816	73	4299
2026-01-03 05:03:24.22	334.88	21.34	-53.6	-55.2	15.1	0.00e+00	0	31	0	779091968	73	4313
2026-01-03 05:03:25.22	334.64	21.29	-53.7	-55.3	15.0	0.00e+00	0	31	0	781189120	73	4374
2026-01-03 05:03:26.22	334.40	21.23	-53.5	-55.1	15.1	0.00e+00	0	31	0	782237696	73	4271
2026-01-03 05:03:27.23	334.15	21.18	-53.6	-55.2	15.1	0.00e+00	0	31	0	784334848	73	4320
2026-01-03 05:03:28.22	333.92	21.13	-53.6	-55.2	15.1	0.00e+00	0	31	0	786432000	73	4311
2026-01-03 05:03:29.22	333.68	21.08	-53.7	-55.3	15.0	0.00e+00	0	31	0	788529152	73	4360
2026-01-03 05:03:30.22	333.44	21.03	-53.9	-55.5	14.9	0.00e+00	0	31	0	789577728	73	4473
2026-01-03 05:03:31.21	333.20	20.97	-53.9	-55.5	14.9	0.00e+00	0	31	0	791674880	73	4486
2026-01-03 05:03:32.21	332.97	20.92	-53.9	-55.6	14.8	0.00e+00	0	31	0	793772032	73	4545
2026-01-03 05:03:33.21	332.73	20.87	-54.2	-56.1	14.7	0.00e+00	0	31	0	795869184	73	4760
2026-01-03 05:03:34.20	332.50	20.81	-54.6	-56.5	14.5	0.00e+00	0	31	0	797966336	74	4718
2026-01-03 05:03:35.21	332.26	20.76	-54.7	-56.7	14.4	0.00e+00	0	31	0	799014912	74	4835
2026-01-03 05:03:36.21	332.03	20.70	-54.7	-56.7	14.4	0.00e+00	0	31	0	801112064	74	4833
2026-01-03 05:03:37.21	331.80	20.65	-54.7	-56.7	14.4	0.00e+00	0	31	0	803209216	74	4870
2026-01-03 05:03:38.20	331.57	20.59	-54.7	-56.7	14.5	0.00e+00	0	31	0	805306368	74	4840
2026-01-03 05:03:39.20	331.34	20.54	-54.5	-56.4	14.5	0.00e+00	0	31	0	806354944	74	4682
2026-01-03 05:03:40.20	331.11	20.48	-54.4	-56.3	14.6	0.00e+00	0	31	0	808452096	74	4609
2026-01-03 05:03:41.19	330.88	20.42	-54.8	-56.8	14.4	0.00e+00	0	31	0	810549248	74	4915
2026-01-03 05:03:42.18	330.66	20.37	-54.9	-57.0	14.3	0.00e+00	0	31	0	812646400	75	4747
2026-01-03 05:03:43.19	330.43	20.31	-55.2	-57.6	14.0	0.00e+00	0	31	0	814743552	75	5087
2026-01-03 05:03:44.18	330.20	20.25	-55.7	-58.4	13.7	0.00e+00	0	31	0	815792128	76	5239
2026-01-03 05:03:45.18	329.98	20.19	-55.8	-58.6	13.6	0.00e+00	0	31	0	817889280	77	5064
2026-01-03 05:03:46.17	329.76	20.14	-55.7	-58.4	13.6	0.00e+00	0	31	0	819986432	77	4933
2026-01-03 05:03:47.17	329.53	20.08	-55.5	-57.9	14.0	0.00e+00	0	31	0	822083584	77	4703
2026-01-03 05:03:48.17	329.31	20.02	-55.2	-57.5	14.2	0.00e+00	0	31	0	824180736	77	4463
2026-01-03 05:03:49.17	329.09	19.96	-54.7	-56.8	14.5	0.00e+00	0	31	0	825229312	76	4369
2026-01-03 05:03:50.16	328.87	19.90	-54.4	-56.3	14.7	0.00e+00	0	31	0	827326464	75	4354
2026-01-03 05:03:51.16	328.65	19.84	-54.2	-56.1	14.8	0.00e+00	0	31	0	829423616	75	4258
2026-01-03 05:03:52.17	328.43	19.78	-54.2	-56.0	14.8	0.00e+00	0	31	0	831520768	74	4477
2026-01-03 05:03:53.17	328.21	19.72	-53.9	-55.6	14.9	0.00e+00	0	31	0	833617920	74	4288
2026-01-03 05:03:54.16	327.99	19.66	-53.7	-55.4	15.0	0.00e+00	0	31	0	834666496	74	4156
2026-01-03 05:03:55.16	327.78	19.59	-53.6	-55.3	15.0	0.00e+00	0	31	0	836763648	73	4353
2026-01-03 05:03:56.17	327.56	19.53	-53.6	-55.3	15.0	0.00e+00	0	31	0	838860800	73	4374
2026-01-03 05:03:57.17	327.34	19.47	-53.5	-55.2	15.0	0.00e+00	0	31	0	840957952	73	4296
2026-01-03 05:03:58.17	327.13	19.41	-53.6	-55.2	15.0	0.00e+00	0	31	0	842006528	73	4304
2026-01-03 05:03:59.17	326.92	19.35	-53.4	-55.0	15.1	0.00e+00	0	31	0	844103680	73	4202
2026-01-03 05:04:00.17	326.71	19.28	-53.3	-54.8	15.2	0.00e+00	0	31	0	846200832	73	4111
2026-01-03 05:04:01.17	326.49	19.22	-53.3	-54.8	15.2	0.00e+00	0	31	0	848297984	73	4121
2026-01-03 05:04:02.17	326.28	19.16	-53.1	-54.6	15.2	0.00e+00	0	31	0	850395136	72	4272
2026-01-03 05:04:03.17	326.07	19.09	-53.0	-54.5	15.2	0.00e+00	0	31	0	851443712	72	4209
2026-01-03 05:04:04.17	325.87	19.03	-52.9	-54.3	15.3	0.00e+00	0	31	0	853540864	72	4108
2026-01-03 05:04:05.18	325.66	18.97	-52.8	-54.2	15.3	0.00e+00	0	31	0	855638016	71	4303
2026-01-03 05:04:06.18	325.45	18.90	-52.7	-54.1	15.3	0.00e+00	0	31	0	857735168	71	4249
2026-01-03 05:04:07.18	325.24	18.84	-52.8	-54.2	15.2	0.00e+00	0	31	0	859832320	71	4340
2026-01-03 05:04:08.19	325.03	18.77	-53.0	-54.5	15.1	0.00e+00	0	31	0	860880896	71	4481
2026-01-03 05:04:09.18	324.83	18.71	-53.4	-55.0	15.0	0.00e+00	0	31	0	862978048	72	4476
2026-01-03 05:04:10.18	324.63	18.64	-53.7	-55.5	14.8	0.00e+00	0	31	0	865075200	72	4727
2026-01-03 05:04:11.19	324.42	18.58	-54.1	-55.9	14.6	0.00e+00	0	31	0	867172352	73	4698
2026-01-03 05:04:12.18	324.23	18.51	-54.4	-56.5	14.5	0.00e+00	0	31	0	868220928	74	4713
2026-01-03 05:04:13.18	324.02	18.45	-54.6	-56.7	14.4	0.00e+00	0	31	0	870318080	74	4829
2026-01-03 05:04:14.18	323.82	18.38	-54.7	-56.9	14.3	0.00e+00	0	31	0	872415232	74	4931
2026-01-03 05:04:15.18	323.63	18.32	-54.6	-56.7	14.3	0.00e+00	0	31	0	874512384	74	4833
2026-01-03 05:04:16.18	323.43	18.25	-54.6	-56.7	14.3	0.00e+00	0	31	0	876609536	74	4852
2026-01-03 05:04:17.18	323.23	18.18	-54.3	-56.3	14.5	0.00e+00	0	31	0	877658112	74	4624
2026-01-03 05:04:18.17	323.04	18.12	-54.2	-56.1	14.6	0.00e+00	0	31	0	879755264	74	4536
2026-01-03 05:04:19.18	322.84	18.05	-53.8	-55.6	14.9	0.00e+00	0	31	0	881852416	74	4264
2026-01-03 05:04:20.18	322.64	17.98	-53.8	-55.5	14.9	0.00e+00	0	31	0	883949568	74	4236
2026-01-03 05:04:21.18	322.45	17.92	-53.7	-55.4	14.9	0.00e+00	0	31	0	886046720	73	4405
2026-01-03 05:04:22.17	322.26	17.85	-53.6	-55.3	14.9	0.00e+00	0	31	0	887095296	73	4357
2026-01-03 05:04:23.17	322.07	17.78	-53.5	-55.1	15.0	0.00e+00	0	31	0	889192448	73	4269
2026-01-03 05:04:24.17	321.87	17.72	-53.4	-55.0	15.1	0.00e+00	0	31	0	891289600	73	4197
2026-01-03 05:04:25.17	321.68	17.65	-53.2	-54.7	15.2	0.00e+00	0	31	0	893386752	72	4308
2026-01-03 05:04:26.18	321.49	17.58	-53.1	-54.7	15.2	0.00e+00	0	31	0	895483904	72	4295
2026-01-03 05:04:27.18	321.30	17.51	-53.3	-54.9	15.1	0.00e+00	0	31	0	896532480	72	4408
2026-01-03 05:04:28.18	321.12	17.44	-53.4	-55.0	15.0	0.00e+00	0	31	0	898629632	72	4478
2026-01-03 05:04:29.17	320.93	17.38	-53.8	-55.5	14.8	0.00e+00	0	31	0	900726784	72	4749
2026-01-03 05:04:30.18	320.74	17.31	-54.1	-56.0	14.7	0.00e+00	0	31	0	902823936	73	4711
2026-01-03 05:04:31.18	320.56	17.24	-54.3	-56.2	14.6	0.00e+00	0	31	0	903872512	73	4852
2026-01-03 05:04:32.18	320.37	17.17	-54.4	-56.4	14.5	0.00e+00	0	31	0	905969664	74	4668
2026-01-03 05:04:33.18	320.19	17.10	-54.3	-56.2	14.6	0.00e+00	0	31	0	908066816	74	4593
2026-01-03 05:04:34.18	320.01	17.03	-54.1	-55.9	14.8	0.00e+00	0	31	0	910163968	74	4411
2026-01-03 05:04:35.18	319.83	16.97	-54.1	-55.9	14.8	0.00e+00	0	31	0	912261120	74	4427
2026-01-03 05:04:36.18	319.65	16.90	-54.1	-55.9	14.8	0.00e+00	0	31	0	913309696	74	4436
2026-01-03 05:04:37.18	319.46	16.83	-54.2	-56.1	14.7	0.00e+00	0	31	0	915406848	74	4502
2026-01-03 05:04:38.18	319.29	16.76	-54.4	-56.3	14.6	0.00e+00	0	31	0	917504000	74	4636
2026-01-03 05:04:39.18	319.11	16.69	-54.4	-56.4	14.6	0.00e+00	0	31	0	919601152	74	4683
2026-01-03 05:04:40.18	318.93	16.62	-54.5	-56.4	14.5	0.00e+00	0	31	0	921698304	74	4700
2026-01-03 05:04:41.18	318.75	16.55	-54.5	-56.4	14.5	0.00e+00	0	31	0	922746880	74	4695
2026-01-03 05:04:42.18	318.58	16.48	-54.5	-56.4	14.6	0.00e+00	0	31	0	924844032	74	4700
2026-01-03 05:04:43.17	318.40	16.41	-54.3	-56.2	14.7	0.00e+00	0	31	0	926941184	74	4562
2026-01-03 05:04:44.17	318.23	16.34	-54.2	-56.1	14.7	0.00e+00	0	31	0	929038336	74	4508
2026-01-03 05:04:45.17	318.06	16.27	-54.4	-56.2	14.6	0.00e+00	0	31	0	930086912	74	4588
2026-01-03 05:04:46.16	317.88	16.20	-54.1	-55.9	14.8	0.00e+00	0	31	0	932184064	74	4416
2026-01-03 05:04:47.14	317.72	16.14	-54.1	-55.8	14.8	0.00e+00	0	31	0	934281216	74	4363
2026-01-03 05:04:48.15	317.54	16.07	-53.8	-55.5	15.0	0.00e+00	0	31	0	936378368	74	4213
2026-01-03 05:04:49.15	317.37	16.00	-53.9	-55.5	15.0	0.00e+00	0	31	0	938475520	74	4206
2026-01-03 05:04:50.15	317.20	15.93	-53.6	-55.2	15.0	0.00e+00	0	31	0	939524096	73	4315
2026-01-03 05:04:51.14	317.04	15.86	-53.5	-55.0	15.1	0.00e+00	0	31	0	941621248	73	4210
2026-01-03 05:04:52.14	316.87	15.79	-53.6	-55.2	15.0	0.00e+00	0	31	0	943718400	73	4307
2026-01-03 05:04:53.15	316.70	15.72	-53.7	-55.2	15.0	0.00e+00	0	31	0	945815552	73	4329
2026-01-03 05:04:54.15	316.53	15.65	-53.7	-55.3	15.0	0.00e+00	0	31	0	946864128	73	4357
2026-01-03 05:04:55.15	316.37	15.58	-53.7	-55.2	14.9	0.00e+00	0	31	0	948961280	73	4321
2026-01-03 05:04:56.16	316.20	15.50	-53.5	-55.0	15.1	0.00e+00	0	31	0	951058432	73	4217
2026-01-03 05:04:57.15	316.04	15.44	-53.4	-54.8	15.2	0.00e+00	0	31	0	953155584	73	4109
2026-01-03 05:04:58.15	315.88	15.36	-52.9	-54.2	15.3	0.00e+00	0	31	0	955252736	72	4092
2026-01-03 05:04:59.15	315.71	15.29	-52.8	-54.1	15.4	0.00e+00	0	31	0	956301312	72	4026
2026-01-03 05:05:00.15	315.55	15.22	-52.9	-54.2	15.3	0.00e+00	0	31	0	958398464	72	4083
2026-01-03 05:05:01.16	315.39	15.15	-52.7	-54.0	15.4	0.00e+00	0	31	0	960495616	71	4211
2026-01-03 05:05:02.15	315.23	15.08	-52.8	-54.1	15.3	0.00e+00	0	31	0	962592768	71	4271
2026-01-03 05:05:03.16	315.07	15.01	-52.9	-54.2	15.3	0.00e+00	0	31	0	964689920	71	4325
2026-01-03 05:05:04.15	314.91	14.94	-53.0	-54.3	15.3	0.00e+00	0	31	0	965738496	71	4377
2026-01-03 05:05:05.15	314.76	14.87	-53.1	-54.4	15.2	0.00e+00	0	31	0	967835648	71	4410
2026-01-03 05:05:06.15	314.60	14.80	-53.2	-54.5	15.2	0.00e+00	0	31	0	969932800	71	4491
2026-01-03 05:05:07.15	314.44	14.73	-53.2	-54.5	15.2	0.00e+00	0	31	0	972029952	71	4480
2026-01-03 05:05:08.15	314.29	14.66	-53.4	-54.8	15.1	0.00e+00	0	31	0	974127104	72	4354
2026-01-03 05:05:09.14	314.13	14.59	-53.3	-54.7	15.2	0.00e+00	0	31	0	975175680	72	4336
2026-01-03 05:05:10.14	313.98	14.52	-53.5	-55.0	15.1	0.00e+00	0	31	0	977272832	72	4457
2026-01-03 05:05:11.14	313.83	14.45	-53.5	-54.9	15.1	0.00e+00	0	31	0	979369984	72	4418
2026-01-03 05:05:12.14	313.67	14.38	-53.5	-54.9	15.1	0.00e+00	0	31	0	981467136	72	4409
2026-01-03 05:05:13.14	313.52	14.31	-53.4	-54.8	15.2	0.00e+00	0	31	0	982515712	72	4343
2026-01-03 05:05:14.13	313.37	14.24	-53.1	-54.4	15.2	0.00e+00	0	31	0	984612864	72	4190
2026-01-03 05:05:15.14	313.22	14.17	-53.0	-54.3	15.3	0.00e+00	0	31	0	986710016	72	4111
2026-01-03 05:05:16.15	313.07	14.10	-52.8	-54.1	15.4	0.00e+00	0	31	0	988807168	72	4008
2026-01-03 05:05:17.15	312.92	14.03	-52.9	-54.2	15.3	0.00e+00	0	31	0	990904320	72	4071
2026-01-03 05:05:18.15	312.77	13.96	-52.9	-54.2	15.4	0.00e+00	0	31	0	991952896	72	4057
2026-01-03 05:05:19.14	312.63	13.89	-53.1	-54.4	15.3	0.00e+00	0	31	0	994050048	72	4172
2026-01-03 05:05:20.14	312.48	13.81	-53.2	-54.5	15.2	0.00e+00	0	31	0	996147200	72	4234
2026-01-03 05:05:21.14	312.33	13.74	-53.6	-55.0	15.0	0.00e+00	0	31	0	998244352	72	4487
2026-01-03 05:05:22.14	312.19	13.67	-53.9	-55.4	14.9	0.00e+00	0	31	0	1000341504	72	4692
2026-01-03 05:05:23.14	312.04	13.60	-53.8	-55.4	14.9	0.00e+00	0	31	0	1001390080	72	4675
2026-01-03 05:05:24.13	311.90	13.53	-53.8	-55.4	14.9	0.00e+00	0	31	0	1003487232	73	4413
2026-01-03 05:05:25.13	311.76	13.46	-53.8	-55.3	14.9	0.00e+00	0	31	0	1005584384	73	4372
2026-01-03 05:05:26.12	311.62	13.39	-53.9	-55.4	14.9	0.00e+00	0	31	0	1007681536	73	4419
2026-01-03 05:05:27.13	311.47	13.32	-53.8	-55.3	14.9	0.00e+00	0	31	0	1009778688	73	4387
2026-01-03 05:05:28.13	311.33	13.25	-53.9	-55.5	14.9	0.00e+00	0	31	0	1010827264	73	4488
2026-01-03 05:05:29.14	311.19	13.18	-53.7	-55.2	15.0	0.00e+00	0	31	0	1012924416	73	4312
2026-01-03 05:05:30.14	311.05	13.11	-53.6	-55.1	15.0	0.00e+00	0	31	0	1015021568	73	4253
2026-01-03 05:05:31.14	310.91	13.04	-53.7	-55.2	15.0	0.00e+00	0	31	0	1017118720	73	4310
2026-01-03 05:05:32.14	310.77	12.97	-53.6	-55.0	15.0	0.00e+00	0	31	0	1018167296	73	4239
2026-01-03 05:05:33.15	310.63	12.90	-53.8	-55.3	15.0	0.00e+00	0	31	0	1020264448	73	4386
2026-01-03 05:05:34.15	310.50	12.83	-53.4	-54.8	15.2	0.00e+00	0	31	0	1022361600	73	4113
2026-01-03 05:05:35.15	310.36	12.76	-53.3	-54.7	15.2	0.00e+00	0	31	0	1024458752	73	4055
2026-01-03 05:05:36.16	310.22	12.69	-53.0	-54.2	15.3	0.00e+00	0	31	0	1026555904	72	4093
2026-01-03 05:05:37.16	310.09	12.62	-53.2	-54.5	15.2	0.00e+00	0	31	0	1027604480	72	4202
2026-01-03 05:05:38.15	309.96	12.55	-53.1	-54.3	15.3	0.00e+00	0	31	0	1029701632	72	4145
2026-01-03 05:05:39.15	309.82	12.48	-53.1	-54.4	15.3	0.00e+00	0	31	0	1031798784	72	4168
2026-01-03 05:05:40.15	309.69	12.41	-53.4	-54.8	15.1	0.00e+00	0	31	0	1033895936	72	4373
2026-01-03 05:05:41.15	309.56	12.34	-53.5	-55.0	15.0	0.00e+00	0	31	0	1035993088	72	4456
2026-01-03 05:05:42.15	309.42	12.27	-53.9	-55.5	14.9	0.00e+00	0	31	0	1037041664	73	4451
2026-01-03 05:05:43.14	309.29	12.20	-54.2	-55.9	14.7	0.00e+00	0	31	0	1039138816	73	4656
2026-01-03 05:05:44.13	309.16	12.13	-54.6	-56.4	14.5	0.00e+00	0	31	0	1041235968	74	4668
2026-01-03 05:05:45.13	309.03	12.06	-54.5	-56.2	14.6	0.00e+00	0	31	0	1043333120	74	4581
2026-01-03 05:05:46.14	308.90	11.99	-54.4	-56.1	14.6	0.00e+00	0	31	0	1044381696	74	4517
2026-01-03 05:05:47.14	308.78	11.92	-54.4	-56.1	14.7	0.00e+00	0	31	0	1046478848	74	4496
2026-01-03 05:05:48.15	308.65	11.85	-54.3	-55.9	14.8	0.00e+00	0	31	0	1048576000	74	4438
2026-01-03 05:05:49.15	308.52	11.78	-54.2	-55.8	14.8	0.00e+00	0	31	0	1050673152	74	4370
2026-01-03 05:05:50.15	308.39	11.71	-54.1	-55.7	14.8	0.00e+00	0	31	0	1052770304	74	4333
2026-01-03 05:05:51.15	308.27	11.64	-54.0	-55.6	14.9	0.00e+00	0	31	0	1053818880	74	4271
2026-01-03 05:05:52.14	308.14	11.58	-53.7	-55.2	15.1	0.00e+00	0	31	0	1055916032	74	4085
2026-01-03 05:05:53.15	308.01	11.51	-53.8	-55.3	15.0	0.00e+00	0	31	0	1058013184	74	4134
2026-01-03 05:05:54.14	307.89	11.44	-53.9	-55.4	15.0	0.00e+00	0	31	0	1060110336	74	4165
2026-01-03 05:05:55.13	307.77	11.37	-53.8	-55.4	14.9	0.00e+00	0	31	0	1062207488	73	4413
2026-01-03 05:05:56.13	307.65	11.30	-54.0	-55.5	14.8	0.00e+00	0	31	0	1063256064	73	4485
2026-01-03 05:05:57.12	307.52	11.23	-53.7	-55.3	14.9	0.00e+00	0	31	0	1065353216	73	4350
2026-01-03 05:05:58.13	307.40	11.16	-54.0	-55.6	14.8	0.00e+00	0	31	0	1067450368	73	4495
2026-01-03 05:05:59.12	307.28	11.09	-54.0	-55.5	14.8	0.00e+00	0	31	0	1069547520	73	4492
2026-01-03 05:06:00.12	307.16	11.03	-54.0	-55.7	14.8	0.00e+00	0	31	0	1071644672	73	4550
2026-01-03 05:06:01.11	307.04	10.96	-54.0	-55.6	14.7	0.00e+00	0	31	0	1072693248	73	4509
2026-01-03 05:06:02.10	306.92	10.89	-54.0	-55.6	14.8	0.00e+00	0	31	0	1074790400	73	4519
2026-01-03 05:06:03.11	306.80	10.82	-54.2	-55.9	14.7	0.00e+00	0	31	0	1076887552	73	4661
2026-01-03 05:06:04.11	306.68	10.75	-54.1	-55.8	14.7	0.00e+00	0	31	0	1078984704	73	4617
2026-01-03 05:06:05.11	306.56	10.68	-54.9	-56.5	14.5	0.00e+00	0	31	0	1080033280	74	4716
2026-01-03 05:06:06.11	306.45	10.62	-54.5	-56.3	14.5	0.00e+00	0	31	0	1082130432	74	4635
2026-01-03 05:06:07.12	306.33	10.55	-54.6	-56.5	14.5	0.00e+00	0	31	0	1084227584	74	4709
2026-01-03 05:06:08.12	306.21	10.48	-54.7	-56.5	14.4	0.00e+00	0	31	0	1086324736	74	4750
2026-01-03 05:06:09.11	306.10	10.41	-54.8	-56.7	14.3	0.00e+00	0	31	0	1088421888	74	4856
2026-01-03 05:06:10.11	305.98	10.34	-54.9	-56.9	14.4	0.00e+00	0	31	0	1089470464	75	4659
2026-01-03 05:06:11.11	305.87	10.28	-54.7	-56.6	14.5	0.00e+00	0	31	0	1091567616	75	4507
2026-01-03 05:06:12.11	305.75	10.21	-54.7	-56.6	14.4	0.00e+00	0	31	0	1093664768	75	4542
2026-01-03 05:06:13.11	305.64	10.14	-54.6	-56.5	14.5	0.00e+00	0	31	0	1095761920	75	4447
2026-01-03 05:06:14.11	305.53	10.07	-54.7	-56.6	14.4	0.00e+00	0	31	0	1097859072	75	4530
2026-01-03 05:06:15.12	305.41	10.00	-54.8	-56.7	14.4	0.00e+00	0	31	0	1098907648	75	4568
2026-01-03 05:06:16.12	305.30	9.94	-54.8	-56.8	14.4	0.00e+00	0	31	0	1101004800	75	4602
2026-01-03 05:06:17.11	305.19	9.87	-54.9	-56.9	14.2	0.00e+00	0	31	0	1103101952	75	4681
2026-01-03 05:06:18.12	305.08	9.80	-55.0	-57.1	14.1	0.00e+00	0	31	0	1105199104	75	4776
2026-01-03 05:06:19.11	304.97	9.73	-55.2	-57.4	14.0	0.00e+00	0	31	0	1106247680	75	4962
2026-01-03 05:06:20.11	304.86	9.67	-55.3	-57.6	13.9	0.00e+00	0	31	0	1108344832	75	5079
2026-01-03 05:06:21.11	304.75	9.60	-55.6	-57.9	13.8	0.00e+00	0	31	0	1110441984	76	4979
2026-01-03 05:06:22.11	304.64	9.53	-55.6	-58.0	13.8	0.00e+00	0	31	0	1112539136	76	4985
2026-01-03 05:06:23.11	304.53	9.47	-55.6	-57.9	13.8	0.00e+00	0	31	0	1114636288	76	4982
2026-01-03 05:06:24.11	304.43	9.40	-55.7	-58.1	13.7	0.00e+00	0	31	0	1115684864	76	5073
2026-01-03 05:06:25.11	304.32	9.33	-55.6	-57.8	13.9	0.00e+00	0	31	0	1117782016	76	4911
2026-01-03 05:06:26.11	304.21	9.27	-55.4	-57.6	14.1	0.00e+00	0	31	0	1119879168	76	4765
2026-01-03 05:06:27.10	304.11	9.20	-55.2	-57.2	14.2	0.00e+00	0	31	0	1121976320	76	4589
2026-01-03 05:06:28.10	304.00	9.13	-55.1	-57.1	14.3	0.00e+00	0	31	0	1123024896	76	4513
2026-01-03 05:06:29.09	303.90	9.07	-54.9	-56.9	14.4	0.00e+00	0	31	0	1125122048	76	4406
2026-01-03 05:06:30.10	303.79	9.00	-54.8	-56.7	14.5	0.00e+00	0	31	0	1127219200	76	4302
2026-01-03 05:06:31.09	303.69	8.93	-54.7	-56.6	14.4	0.00e+00	0	31	0	1129316352	75	4495
2026-01-03 05:06:32.08	303.58	8.87	-54.5	-56.3	14.5	0.00e+00	0	31	0	1131413504	75	4370
2026-01-03 05:06:33.08	303.48	8.80	-54.5	-56.3	14.5	0.00e+00	0	31	0	1132462080	75	4374
2026-01-03 05:06:34.09	303.38	8.74	-54.6	-56.5	14.4	0.00e+00	0	31	0	1134559232	75	4463
2026-01-03 05:06:35.09	303.27	8.67	-54.7	-56.6	14.4	0.00e+00	0	31	0	1136656384	75	4524
2026-01-03 05:06:36.08	303.17	8.60	-54.8	-56.7	14.3	0.00e+00	0	31	0	1138753536	75	4586
2026-01-03 05:06:37.07	303.07	8.54	-54.7	-56.6	14.4	0.00e+00	0	31	0	1140850688	75	4498
2026-01-03 05:06:38.07	302.97	8.47	-54.8	-56.7	14.4	0.00e+00	0	31	0	1141899264	75	4575
2026-01-03 05:06:39.07	302.87	8.41	-54.9	-56.9	14.3	0.00e+00	0	31	0	1143996416	75	4664
2026-01-03 05:06:40.07	302.77	8.34	-55.1	-57.1	14.1	0.00e+00	0	31	0	1146093568	75	4804
2026-01-03 05:06:41.07	302.67	8.28	-55.0	-57.0	14.2	0.00e+00	0	31	0	1148190720	75	4743
2026-01-03 05:06:42.07	302.57	8.21	-55.0	-57.0	14.2	0.00e+00	0	31	0	1150287872	75	4728
2026-01-03 05:06:43.07	302.47	8.15	-54.9	-56.8	14.3	0.00e+00	0	31	0	1151336448	75	4641
2026-01-03 05:06:44.06	302.38	8.08	-54.9	-56.9	14.3	0.00e+00	0	31	0	1153433600	75	4655
2026-01-03 05:06:45.06	302.28	8.02	-54.9	-56.8	14.3	0.00e+00	0	31	0	1155530752	75	4649
2026-01-03 05:06:46.05	302.18	7.95	-54.8	-56.8	14.3	0.00e+00	0	31	0	1157627904	75	4610
2026-01-03 05:06:47.06	302.08	7.89	-54.7	-56.6	14.4	0.00e+00	0	31	0	1158676480	75	4545
2026-01-03 05:06:48.06	301.99	7.82	-54.7	-56.6	14.4	0.00e+00	0	31	0	1160773632	75	4530
2026-01-03 05:06:49.05	301.89	7.76	-54.7	-56.7	14.4	0.00e+00	0	31	0	1162870784	75	4558
2026-01-03 05:06:50.05	301.80	7.69	-54.7	-56.6	14.4	0.00e+00	0	31	0	1164967936	75	4495
2026-01-03 05:06:51.05	301.70	7.63	-54.5	-56.4	14.5	0.00e+00	0	31	0	1167065088	75	4393
2026-01-03 05:06:52.05	301.61	7.56	-54.6	-56.5	14.4	0.00e+00	0	31	0	1168113664	75	4465
2026-01-03 05:06:53.05	301.51	7.50	-54.7	-56.6	14.4	0.00e+00	0	31	0	1170210816	75	4529
2026-01-03 05:06:54.04	301.42	7.43	-54.7	-56.6	14.4	0.00e+00	0	31	0	1172307968	75	4533
2026-01-03 05:06:55.04	301.33	7.37	-54.8	-56.8	14.2	0.00e+00	0	31	0	1174405120	75	4641
2026-01-03 05:06:56.04	301.23	7.31	-54.7	-56.6	14.4	0.00e+00	0	31	0	1175453696	75	4525
2026-01-03 05:06:57.04	301.14	7.24	-54.9	-56.9	14.2	0.00e+00	0	31	0	1177550848	75	4698
2026-01-03 05:06:58.03	301.05	7.18	-54.9	-57.0	14.2	0.00e+00	0	31	0	1179648000	75	4736
2026-01-03 05:06:59.04	300.96	7.11	-55.1	-57.2	14.0	0.00e+00	0	31	0	1181745152	75	4860
2026-01-03 05:07:00.03	300.87	7.05	-55.1	-57.2	14.0	0.00e+00	0	31	0	1183842304	75	4853
2026-01-03 05:07:01.03	300.78	6.99	-55.3	-57.6	13.8	0.00e+00	0	31	0	1184890880	75	5055
2026-01-03 05:07:02.03	300.69	6.92	-55.4	-57.7	13.8	0.00e+00	0	31	0	1186988032	76	4864
2026-01-03 05:07:03.03	300.60	6.86	-55.5	-57.9	13.7	0.00e+00	0	31	0	1189085184	76	4969
2026-01-03 05:07:04.02	300.51	6.80	-55.7	-58.2	13.5	0.00e+00	0	31	0	1191182336	76	5111
2026-01-03 05:07:05.02	300.42	6.73	-55.7	-58.3	13.5	0.00e+00	0	31	0	1193279488	76	5160
2026-01-03 05:07:06.03	300.33	6.67	-56.0	-58.6	13.3	0.00e+00	0	31	0	1194328064	77	5074
2026-01-03 05:07:07.03	300.24	6.61	-56.1	-58.8	13.2	0.00e+00	0	31	0	1196425216	77	5189
2026-01-03 05:07:08.03	300.15	6.54	-56.1	-58.8	13.2	0.00e+00	0	31	0	1198522368	77	5178
2026-01-03 05:07:09.03	300.06	6.48	-56.1	-58.8	13.2	0.00e+00	0	31	0	1200619520	77	5201
2026-01-03 05:07:10.03	299.98	6.42	-56.1	-58.9	13.1	0.00e+00	0	31	0	1201668096	77	5252
2026-01-03 05:07:11.04	299.89	6.35	-56.2	-59.1	13.0	0.00e+00	0	31	0	1203765248	77	5395
2026-01-03 05:07:12.04	299.80	6.29	-56.3	-59.2	12.8	0.00e+00	0	31	0	1205862400	77	5449
2026-01-03 05:07:13.05	299.72	6.23	-56.4	-59.4	12.8	0.00e+00	0	31	0	1207959552	78	5259
2026-01-03 05:07:14.04	299.63	6.16	-56.3	-59.2	13.0	0.00e+00	0	31	0	1210056704	78	5148
2026-01-03 05:07:15.04	299.55	6.10	-56.4	-59.4	12.9	0.00e+00	0	31	0	1211105280	78	5259
2026-01-03 05:07:16.04	299.46	6.04	-56.4	-59.4	12.8	0.00e+00	0	31	0	1213202432	78	5255
