passes_logs/2026/01/03/R3.2S_Murmansk/R3.2S_Murmansk__20260103_134647_ZKG05_rec.log

#Pass ID: 20260103_134647_ZKG05
#Satellite: ZKG05
#Configuration: ZKG05
#almurnet v.1.7.20251203
#Start time: 2026-01-03 13:46:48

#Version: 2.2.20231116
#Station: R3.2S_Murmansk
#Location: 33.079688 lon 68.888172 lat
#TLE: 1 65263U 25180E   25363.54303023  .00006586  00000-0  34273-3 0  9994
#TLE: 2 65263  97.4772 128.0191 0001674  87.3453 272.7971 15.16366041 20011

#Time	Az	El	Level	Level2	SNR	BER	BlckErr	Temp	State	Recorded	gain1	gain2
2026-01-03 13:46:48.16	21.80	2.03	-58.9	-62.1	6.1	0.00e+00	0	35	0	0	84	20541
2026-01-03 13:46:49.17	21.77	2.10	-58.9	-62.1	6.2	0.00e+00	0	34	104	0	84	20450
2026-01-03 13:46:50.18	21.74	2.17	-58.9	-62.1	6.2	0.00e+00	0	35	104	0	84	20502
2026-01-03 13:46:51.19	21.71	2.24	-58.9	-62.1	6.2	0.00e+00	0	35	104	0	84	20455
2026-01-03 13:46:52.19	21.68	2.31	-58.9	-62.1	6.2	0.00e+00	0	35	104	0	84	20463
2026-01-03 13:46:53.20	21.65	2.38	-58.9	-62.1	6.2	0.00e+00	0	35	104	0	84	20488
2026-01-03 13:46:54.21	21.62	2.45	-58.9	-62.1	6.2	0.00e+00	0	35	104	0	84	20470
2026-01-03 13:46:55.22	21.59	2.52	-58.9	-62.1	6.2	0.00e+00	0	35	104	0	84	20546
2026-01-03 13:46:56.23	21.56	2.59	-58.9	-62.1	6.2	0.00e+00	0	35	104	0	84	20473
2026-01-03 13:46:57.24	21.53	2.66	-58.9	-62.1	6.2	0.00e+00	0	35	104	0	84	20482
2026-01-03 13:46:58.25	21.50	2.73	-58.9	-62.1	6.2	0.00e+00	0	35	104	0	84	20483
2026-01-03 13:46:59.26	21.46	2.81	-58.9	-62.1	6.2	0.00e+00	0	35	104	0	84	20522
2026-01-03 13:47:00.27	21.43	2.88	-58.9	-62.1	6.2	0.00e+00	0	35	104	0	84	20424
2026-01-03 13:47:01.27	21.40	2.95	-58.9	-62.1	6.2	0.00e+00	0	35	104	0	84	20453
2026-01-03 13:47:02.28	21.37	3.02	-58.9	-62.1	6.2	0.00e+00	0	35	104	0	84	20490
2026-01-03 13:47:03.29	21.34	3.09	-58.9	-62.1	6.2	0.00e+00	0	35	104	0	84	20419
2026-01-03 13:47:04.29	21.30	3.17	-58.9	-62.1	6.2	0.00e+00	0	35	104	0	84	20518
2026-01-03 13:47:05.30	21.27	3.24	-58.9	-62.1	6.2	0.00e+00	0	35	104	0	84	20514
2026-01-03 13:47:06.31	21.24	3.31	-58.9	-62.1	6.2	0.00e+00	0	36	104	0	84	20486
2026-01-03 13:47:07.32	21.20	3.38	-58.9	-62.1	6.2	0.00e+00	0	36	104	0	84	20474
2026-01-03 13:47:08.32	21.17	3.46	-58.9	-62.1	6.2	0.00e+00	0	35	104	0	84	20479
2026-01-03 13:47:09.32	21.14	3.53	-58.9	-62.1	6.2	0.00e+00	0	36	104	0	84	20534
2026-01-03 13:47:10.33	21.10	3.60	-58.9	-62.1	6.2	0.00e+00	0	36	104	0	84	20582
2026-01-03 13:47:11.34	21.07	3.68	-58.9	-62.1	6.2	0.00e+00	0	36	104	0	84	20433
2026-01-03 13:47:12.35	21.03	3.75	-58.9	-62.1	6.2	0.00e+00	0	36	104	0	84	20521
2026-01-03 13:47:13.36	21.00	3.83	-58.9	-62.1	6.2	0.00e+00	0	36	104	0	84	20521
2026-01-03 13:47:14.37	20.96	3.90	-58.9	-62.1	6.2	0.00e+00	0	36	104	0	84	20523
2026-01-03 13:47:15.38	20.93	3.98	-58.9	-62.1	6.2	0.00e+00	0	36	104	0	84	20466
2026-01-03 13:47:16.39	20.89	4.05	-58.9	-62.1	6.2	0.00e+00	0	36	104	0	84	20523
2026-01-03 13:47:17.40	20.85	4.13	-58.9	-62.1	6.2	0.00e+00	0	36	104	0	84	20512
2026-01-03 13:47:18.41	20.82	4.21	-58.9	-62.1	6.2	0.00e+00	0	36	104	0	84	20519
2026-01-03 13:47:19.42	20.78	4.28	-58.9	-62.1	6.2	0.00e+00	0	36	104	0	84	20527
2026-01-03 13:47:20.43	20.75	4.36	-58.9	-62.1	6.2	0.00e+00	0	36	104	0	84	20532
2026-01-03 13:47:21.43	20.71	4.44	-59.0	-62.1	6.2	0.00e+00	0	36	104	0	84	20564
2026-01-03 13:47:22.44	20.67	4.51	-58.9	-62.1	6.2	0.00e+00	0	36	104	0	84	20491
2026-01-03 13:47:23.45	20.63	4.59	-58.9	-62.1	6.2	0.00e+00	0	36	104	0	84	20602
2026-01-03 13:47:24.46	20.60	4.67	-59.0	-62.1	6.2	0.00e+00	0	36	104	0	84	20606
2026-01-03 13:47:25.47	20.56	4.75	-59.0	-62.2	6.2	0.00e+00	0	36	104	0	84	20636
2026-01-03 13:47:26.48	20.52	4.83	-59.0	-62.1	6.2	0.00e+00	0	36	104	0	84	20538
2026-01-03 13:47:27.49	20.48	4.90	-59.0	-62.1	6.2	0.00e+00	0	36	104	0	84	20535
2026-01-03 13:47:28.50	20.44	4.98	-59.0	-62.1	6.2	0.00e+00	0	36	104	0	84	20558
2026-01-03 13:47:29.51	20.40	5.06	-59.1	-62.3	6.2	0.00e+00	0	36	104	0	84	20895
2026-01-03 13:47:30.52	20.36	5.14	-59.1	-62.3	6.2	0.00e+00	0	37	104	0	84	20895
2026-01-03 13:47:31.53	20.32	5.22	-59.0	-62.2	6.2	0.00e+00	0	36	104	0	84	20686
2026-01-03 13:47:32.54	20.28	5.30	-59.0	-62.2	6.2	0.00e+00	0	37	104	0	84	20673
2026-01-03 13:47:33.54	20.24	5.38	-59.0	-62.2	6.2	0.00e+00	0	37	104	0	84	20722
2026-01-03 13:47:34.55	20.20	5.46	-59.0	-62.2	6.2	0.00e+00	0	37	104	0	84	20695
2026-01-03 13:47:35.55	20.16	5.54	-59.0	-62.2	6.2	0.00e+00	0	36	104	0	84	20750
2026-01-03 13:47:36.55	20.12	5.62	-59.0	-62.2	6.2	0.00e+00	0	36	104	0	84	20831
2026-01-03 13:47:37.56	20.08	5.71	-59.0	-62.2	6.2	0.00e+00	0	37	104	0	84	20785
2026-01-03 13:47:38.57	20.04	5.79	-59.1	-62.2	6.2	0.00e+00	0	37	104	0	84	20848
2026-01-03 13:47:39.58	19.99	5.87	-59.0	-62.2	6.2	0.00e+00	0	37	104	0	84	20808
2026-01-03 13:47:40.58	19.95	5.95	-59.1	-62.3	6.2	0.00e+00	0	37	104	0	84	20899
2026-01-03 13:47:41.59	19.91	6.04	-59.1	-62.3	6.2	0.00e+00	0	37	104	0	84	20883
2026-01-03 13:47:42.59	19.86	6.12	-59.1	-62.3	6.2	0.00e+00	0	37	104	0	84	20982
2026-01-03 13:47:43.60	19.82	6.20	-59.1	-62.3	6.2	0.00e+00	0	37	104	0	84	20894
2026-01-03 13:47:44.61	19.78	6.29	-59.2	-62.3	6.2	0.00e+00	0	37	104	0	84	21033
2026-01-03 13:47:45.61	19.73	6.37	-59.1	-62.3	6.2	0.00e+00	0	37	104	0	84	20889
2026-01-03 13:47:46.62	19.69	6.45	-59.2	-62.3	6.2	0.00e+00	0	37	104	0	84	21097
2026-01-03 13:47:47.63	19.64	6.54	-59.1	-62.3	6.2	0.00e+00	0	37	104	0	84	20959
2026-01-03 13:47:48.63	19.60	6.62	-59.2	-62.4	6.2	0.00e+00	0	37	104	0	84	21137
2026-01-03 13:47:49.64	19.55	6.71	-59.2	-62.3	6.2	0.00e+00	0	37	104	0	84	21056
2026-01-03 13:47:50.64	19.51	6.79	-59.2	-62.3	6.2	0.00e+00	0	37	104	0	84	21096
2026-01-03 13:47:51.65	19.46	6.88	-59.2	-62.3	6.2	0.00e+00	0	37	104	0	84	21080
2026-01-03 13:47:52.66	19.41	6.97	-59.2	-62.4	6.2	0.00e+00	0	37	104	0	84	21238
2026-01-03 13:47:53.66	19.37	7.05	-59.2	-62.3	6.2	0.00e+00	0	37	104	0	84	21082
2026-01-03 13:47:54.67	19.32	7.14	-59.2	-62.4	6.2	0.00e+00	0	37	104	0	84	21254
2026-01-03 13:47:55.68	19.27	7.23	-59.2	-62.3	6.2	0.00e+00	0	37	104	0	84	21094
2026-01-03 13:47:56.68	19.22	7.32	-59.3	-62.4	6.2	0.00e+00	0	37	104	0	84	21265
2026-01-03 13:47:57.69	19.17	7.41	-59.2	-62.4	6.2	0.00e+00	0	37	104	0	84	21295
2026-01-03 13:47:58.69	19.12	7.50	-59.3	-62.4	6.2	0.00e+00	0	37	104	0	84	21346
2026-01-03 13:47:59.70	19.07	7.58	-59.2	-62.4	6.2	0.00e+00	0	37	104	0	84	21234
2026-01-03 13:48:00.71	19.02	7.67	-59.3	-62.5	6.2	0.00e+00	0	37	104	0	84	21423
2026-01-03 13:48:01.72	18.97	7.77	-59.2	-62.4	6.2	0.00e+00	0	37	104	0	84	21241
2026-01-03 13:48:02.73	18.92	7.86	-59.3	-62.5	6.2	0.00e+00	0	37	104	0	84	21378
2026-01-03 13:48:03.73	18.87	7.95	-59.3	-62.4	6.2	0.00e+00	0	37	104	0	84	21273
2026-01-03 13:48:04.74	18.82	8.04	-59.4	-62.5	6.2	0.00e+00	0	37	104	0	84	21476
2026-01-03 13:48:05.75	18.77	8.13	-59.3	-62.5	6.2	0.00e+00	0	37	104	0	84	21365
2026-01-03 13:48:06.75	18.72	8.22	-59.3	-62.5	6.2	0.00e+00	0	37	104	0	84	21461
2026-01-03 13:48:07.76	18.66	8.31	-59.3	-62.5	6.2	0.00e+00	0	37	104	0	84	21414
2026-01-03 13:48:08.76	18.61	8.41	-59.4	-62.6	6.2	0.00e+00	0	37	104	0	84	21625
2026-01-03 13:48:09.77	18.55	8.50	-59.3	-62.5	6.2	0.00e+00	0	37	104	0	84	21459
2026-01-03 13:48:10.78	18.50	8.59	-59.4	-62.5	6.2	0.00e+00	0	37	104	0	84	21573
2026-01-03 13:48:11.78	18.45	8.69	-59.3	-62.5	6.2	0.00e+00	0	37	104	0	84	21496
2026-01-03 13:48:12.80	18.39	8.78	-59.4	-62.6	6.2	0.00e+00	0	37	104	0	84	21773
2026-01-03 13:48:13.81	18.33	8.88	-59.4	-62.5	6.2	0.00e+00	0	37	104	0	84	21564
2026-01-03 13:48:14.81	18.28	8.97	-59.4	-62.6	6.2	0.00e+00	0	38	104	0	84	21697
2026-01-03 13:48:15.82	18.22	9.07	-59.4	-62.5	6.2	0.00e+00	0	38	104	0	84	21562
2026-01-03 13:48:16.83	18.16	9.17	-59.5	-62.6	6.2	0.00e+00	0	38	104	0	84	21812
2026-01-03 13:48:17.84	18.11	9.27	-59.4	-62.6	6.2	0.00e+00	0	37	104	0	84	21656
2026-01-03 13:48:18.84	18.05	9.36	-59.5	-62.6	6.2	0.00e+00	0	37	104	0	84	21815
2026-01-03 13:48:19.85	17.99	9.46	-59.4	-62.6	6.2	0.00e+00	0	37	104	0	84	21653
2026-01-03 13:48:20.86	17.93	9.56	-59.5	-62.7	6.2	0.00e+00	0	37	104	0	84	21897
2026-01-03 13:48:21.87	17.87	9.66	-59.4	-62.6	6.2	0.00e+00	0	38	104	0	84	21739
2026-01-03 13:48:22.88	17.81	9.76	-59.5	-62.7	6.2	0.00e+00	0	37	104	0	84	21912
2026-01-03 13:48:23.89	17.75	9.86	-59.4	-62.6	6.2	0.00e+00	0	38	104	0	84	21767
2026-01-03 13:48:24.89	17.69	9.96	-59.5	-62.7	6.2	0.00e+00	0	38	104	0	84	22013
2026-01-03 13:48:25.90	17.63	10.06	-59.5	-62.6	6.2	0.00e+00	0	37	104	0	84	21777
2026-01-03 13:48:26.91	17.56	10.16	-59.5	-62.7	6.2	0.00e+00	0	38	104	0	84	22072
2026-01-03 13:48:27.92	17.50	10.26	-59.5	-62.6	6.2	0.00e+00	0	38	104	0	84	21842
2026-01-03 13:48:28.92	17.44	10.37	-59.6	-62.8	6.2	0.00e+00	0	38	104	0	84	22116
2026-01-03 13:48:29.93	17.37	10.47	-59.5	-62.7	6.2	0.00e+00	0	38	104	0	84	21875
2026-01-03 13:48:30.93	17.31	10.57	-59.6	-62.7	6.2	0.00e+00	0	38	104	0	84	22028
2026-01-03 13:48:31.94	17.24	10.68	-59.5	-62.7	6.2	0.00e+00	0	38	104	0	84	21910
2026-01-03 13:48:32.95	17.18	10.78	-59.6	-62.8	6.2	0.00e+00	0	38	104	0	84	22186
2026-01-03 13:48:33.96	17.11	10.89	-59.5	-62.7	6.2	0.00e+00	0	38	104	0	84	21886
2026-01-03 13:48:34.97	17.04	10.99	-59.6	-62.8	6.2	0.00e+00	0	38	104	0	84	22125
2026-01-03 13:48:35.98	16.97	11.10	-59.6	-62.7	6.2	0.00e+00	0	38	104	0	84	22027
2026-01-03 13:48:36.99	16.91	11.21	-59.6	-62.8	6.2	0.00e+00	0	38	104	0	84	22186
2026-01-03 13:48:37.99	16.84	11.31	-59.6	-62.7	6.2	0.00e+00	0	38	104	0	84	22043
2026-01-03 13:48:39.00	16.77	11.42	-59.6	-62.8	6.2	0.00e+00	0	38	104	0	84	22206
2026-01-03 13:48:40.00	16.70	11.53	-59.6	-62.7	6.2	0.00e+00	0	38	104	0	84	22084
2026-01-03 13:48:41.01	16.63	11.64	-59.7	-62.8	6.2	0.00e+00	0	38	104	0	84	22240
2026-01-03 13:48:42.02	16.55	11.75	-59.6	-62.7	6.2	0.00e+00	0	38	104	0	84	22050
2026-01-03 13:48:43.03	16.48	11.86	-59.7	-62.8	6.2	0.00e+00	0	38	104	0	84	22272
2026-01-03 13:48:44.04	16.41	11.97	-59.6	-62.8	6.2	0.00e+00	0	38	104	0	84	22175
2026-01-03 13:48:45.05	16.33	12.08	-59.7	-62.8	6.2	0.00e+00	0	38	104	0	84	22344
2026-01-03 13:48:46.05	16.26	12.19	-59.6	-62.8	6.2	0.00e+00	0	38	104	0	84	22189
2026-01-03 13:48:47.06	16.18	12.31	-59.7	-62.9	6.2	0.00e+00	0	38	104	0	84	22401
2026-01-03 13:48:48.07	16.11	12.42	-59.6	-62.8	6.2	0.00e+00	0	38	104	0	84	22244
2026-01-03 13:48:49.07	16.03	12.53	-59.7	-62.9	6.2	0.00e+00	0	38	104	0	84	22465
2026-01-03 13:48:50.08	15.95	12.65	-59.6	-62.8	6.2	0.00e+00	0	38	104	0	84	22268
2026-01-03 13:48:51.09	15.88	12.77	-59.7	-62.9	6.2	0.00e+00	0	38	104	0	84	22469
2026-01-03 13:48:52.09	15.80	12.88	-59.7	-62.8	6.2	0.00e+00	0	38	104	0	84	22344
2026-01-03 13:48:53.10	15.72	13.00	-59.8	-62.9	6.2	0.00e+00	0	38	104	0	84	22513
2026-01-03 13:48:54.10	15.64	13.12	-59.7	-62.9	6.2	0.00e+00	0	38	104	0	84	22391
2026-01-03 13:48:55.11	15.56	13.23	-59.8	-62.9	6.2	0.00e+00	0	38	104	0	84	22522
2026-01-03 13:48:56.12	15.47	13.35	-59.7	-62.9	6.2	0.00e+00	0	38	104	0	84	22379
2026-01-03 13:48:57.13	15.39	13.47	-59.8	-62.9	6.2	0.00e+00	0	38	104	0	84	22511
2026-01-03 13:48:58.14	15.31	13.59	-59.7	-62.9	6.2	0.00e+00	0	38	104	0	84	22421
2026-01-03 13:48:59.14	15.22	13.71	-59.8	-62.9	6.2	0.00e+00	0	38	104	0	84	22621
2026-01-03 13:49:00.15	15.14	13.84	-59.7	-62.9	6.2	0.00e+00	0	38	104	0	84	22480
2026-01-03 13:49:01.16	15.05	13.96	-59.8	-63.0	6.2	0.00e+00	0	38	104	0	84	22626
2026-01-03 13:49:02.17	14.96	14.08	-59.7	-62.9	6.2	0.00e+00	0	38	104	0	84	22546
2026-01-03 13:49:03.18	14.87	14.21	-59.8	-63.0	6.2	0.00e+00	0	38	104	0	84	22746
2026-01-03 13:49:04.19	14.78	14.33	-59.8	-62.9	6.2	0.00e+00	0	38	104	0	84	22573
2026-01-03 13:49:05.19	14.70	14.46	-59.8	-63.0	6.2	0.00e+00	0	38	104	0	85	21398
2026-01-03 13:49:06.20	14.60	14.58	-59.8	-62.9	6.2	0.00e+00	0	38	104	0	85	21340
2026-01-03 13:49:07.21	14.51	14.71	-59.8	-63.0	6.2	0.00e+00	0	38	104	0	85	21437
2026-01-03 13:49:08.21	14.42	14.84	-59.8	-63.0	6.2	0.00e+00	0	38	104	0	85	21438
2026-01-03 13:49:09.22	14.33	14.97	-59.8	-63.0	6.2	0.00e+00	0	38	104	0	85	21511
2026-01-03 13:49:10.23	14.23	15.10	-59.8	-63.0	6.2	0.00e+00	0	38	104	0	85	21374
2026-01-03 13:49:11.23	14.13	15.23	-59.9	-63.0	6.2	0.00e+00	0	38	104	0	85	21565
2026-01-03 13:49:12.24	14.04	15.36	-59.8	-63.0	6.2	0.00e+00	0	38	104	0	85	21536
2026-01-03 13:49:13.25	13.94	15.49	-59.8	-63.0	6.2	0.00e+00	0	38	104	0	85	21542
2026-01-03 13:49:14.26	13.84	15.62	-59.8	-63.0	6.2	0.00e+00	0	38	104	0	85	21402
2026-01-03 13:49:15.26	13.74	15.75	-59.9	-63.0	6.2	0.00e+00	0	38	104	0	85	21538
2026-01-03 13:49:16.27	13.64	15.89	-59.8	-63.0	6.2	0.00e+00	0	38	104	0	85	21463
2026-01-03 13:49:17.28	13.54	16.03	-59.9	-63.0	6.2	0.00e+00	0	38	104	0	85	21557
2026-01-03 13:49:18.29	13.43	16.16	-59.8	-63.0	6.2	0.00e+00	0	38	104	0	85	21489
2026-01-03 13:49:19.30	13.33	16.30	-59.9	-63.1	6.2	0.00e+00	0	38	104	0	85	21656
2026-01-03 13:49:20.30	13.22	16.44	-59.9	-63.1	6.2	0.00e+00	0	38	104	0	85	21661
2026-01-03 13:49:21.31	13.12	16.58	-59.9	-63.1	6.2	0.00e+00	0	38	104	0	85	21733
2026-01-03 13:49:22.32	13.01	16.72	-59.9	-63.0	6.2	0.00e+00	0	38	104	0	85	21555
2026-01-03 13:49:23.33	12.90	16.86	-59.9	-63.1	6.2	0.00e+00	0	38	104	0	85	21705
2026-01-03 13:49:24.34	12.79	17.00	-59.9	-63.1	6.2	0.00e+00	0	38	104	0	85	21621
2026-01-03 13:49:25.35	12.67	17.14	-59.9	-63.1	6.2	0.00e+00	0	38	104	0	85	21731
2026-01-03 13:49:26.36	12.56	17.29	-59.9	-63.1	6.2	0.00e+00	0	38	104	0	85	21681
2026-01-03 13:49:27.36	12.45	17.43	-59.9	-63.1	6.2	0.00e+00	0	38	104	0	85	21735
2026-01-03 13:49:28.37	12.33	17.58	-59.9	-63.1	6.2	0.00e+00	0	38	104	0	85	21729
2026-01-03 13:49:29.38	12.21	17.72	-60.0	-63.1	6.2	0.00e+00	0	38	104	0	85	21717
2026-01-03 13:49:30.39	12.10	17.87	-59.9	-63.1	6.2	0.00e+00	0	38	104	0	85	21733
2026-01-03 13:49:31.39	11.98	18.02	-60.0	-63.2	6.2	0.00e+00	0	38	104	0	85	21882
2026-01-03 13:49:32.40	11.85	18.17	-60.0	-63.1	6.2	0.00e+00	0	38	104	0	85	21813
2026-01-03 13:49:33.42	11.73	18.32	-60.0	-63.2	6.2	0.00e+00	0	38	104	0	85	21933
2026-01-03 13:49:34.42	11.61	18.47	-60.0	-63.1	6.2	0.00e+00	0	38	104	0	85	21830
2026-01-03 13:49:35.43	11.48	18.62	-60.0	-63.2	6.2	0.00e+00	0	38	104	0	85	21928
2026-01-03 13:49:36.44	11.35	18.78	-60.0	-63.2	6.2	0.00e+00	0	38	104	0	85	21875
2026-01-03 13:49:37.45	11.22	18.93	-60.0	-63.2	6.2	0.00e+00	0	38	104	0	85	21953
2026-01-03 13:49:38.46	11.09	19.09	-60.0	-63.2	6.2	0.00e+00	0	38	104	0	85	21861
2026-01-03 13:49:39.47	10.96	19.25	-60.0	-63.2	6.2	0.00e+00	0	38	104	0	85	22005
2026-01-03 13:49:40.48	10.83	19.41	-60.0	-63.2	6.2	0.00e+00	0	38	104	0	85	21950
2026-01-03 13:49:41.49	10.69	19.56	-60.0	-63.2	6.2	0.00e+00	0	38	104	0	85	22050
2026-01-03 13:49:42.50	10.56	19.73	-60.0	-63.2	6.2	0.00e+00	0	38	104	0	85	21964
2026-01-03 13:49:43.50	10.42	19.89	-60.1	-63.2	6.2	0.00e+00	0	38	104	0	85	22000
2026-01-03 13:49:44.51	10.28	20.05	-60.1	-63.2	6.2	0.00e+00	0	38	104	0	85	22060
2026-01-03 13:49:45.52	10.14	20.21	-60.1	-63.2	6.2	0.00e+00	0	38	104	0	85	22027
2026-01-03 13:49:46.53	9.99	20.38	-60.0	-63.2	6.2	0.00e+00	0	38	104	0	85	21968
2026-01-03 13:49:47.53	9.85	20.54	-60.1	-63.3	6.2	0.00e+00	0	38	104	0	85	22163
2026-01-03 13:49:48.54	9.70	20.71	-60.1	-63.3	6.2	0.00e+00	0	38	104	0	85	22112
2026-01-03 13:49:49.55	9.55	20.88	-60.1	-63.2	6.2	0.00e+00	0	38	104	0	85	22108
2026-01-03 13:49:50.56	9.40	21.05	-60.1	-63.2	6.2	0.00e+00	0	38	104	0	85	22104
2026-01-03 13:49:51.57	9.25	21.22	-60.1	-63.3	6.2	0.00e+00	0	38	104	0	85	22141
2026-01-03 13:49:52.57	9.09	21.39	-60.1	-63.3	6.2	0.00e+00	0	38	104	0	85	22181
2026-01-03 13:49:53.58	8.93	21.57	-60.1	-63.3	6.2	0.00e+00	0	38	104	0	85	22203
2026-01-03 13:49:54.59	8.77	21.74	-60.1	-63.3	6.2	0.00e+00	0	38	104	0	85	22242
2026-01-03 13:49:55.59	8.61	21.92	-60.1	-63.3	6.2	0.00e+00	0	38	104	0	85	22212
2026-01-03 13:49:56.60	8.45	22.09	-60.2	-63.3	6.2	0.00e+00	0	38	104	0	85	22239
2026-01-03 13:49:57.61	8.29	22.27	-60.1	-63.3	6.2	0.00e+00	0	38	104	0	85	22189
2026-01-03 13:49:58.62	8.12	22.45	-60.2	-63.3	6.2	0.00e+00	0	38	104	0	85	22315
2026-01-03 13:49:59.63	7.95	22.64	-60.2	-63.3	6.2	0.00e+00	0	38	104	0	85	22312
2026-01-03 13:50:00.63	7.78	22.82	-60.2	-63.4	6.2	0.00e+00	0	38	104	0	85	22370
2026-01-03 13:50:01.64	7.60	23.00	-60.2	-63.3	6.2	0.00e+00	0	38	104	0	85	22352
2026-01-03 13:50:02.65	7.42	23.19	-60.2	-63.4	6.2	0.00e+00	0	38	104	0	85	22381
2026-01-03 13:50:03.65	7.25	23.37	-60.2	-63.4	6.2	0.00e+00	0	38	104	0	85	22372
2026-01-03 13:50:04.66	7.06	23.56	-60.2	-63.4	6.2	0.00e+00	0	38	104	0	85	22449
2026-01-03 13:50:05.67	6.88	23.75	-60.2	-63.3	6.2	0.00e+00	0	38	104	0	85	22361
2026-01-03 13:50:06.68	6.69	23.94	-60.2	-63.4	6.2	0.00e+00	0	38	104	0	85	22454
2026-01-03 13:50:07.69	6.50	24.13	-60.2	-63.4	6.2	0.00e+00	0	38	104	0	85	22384
2026-01-03 13:50:08.70	6.31	24.33	-60.2	-63.4	6.2	0.00e+00	0	38	104	0	85	22463
2026-01-03 13:50:09.71	6.12	24.52	-60.2	-63.4	6.2	0.00e+00	0	38	104	0	85	22464
2026-01-03 13:50:10.72	5.92	24.72	-60.3	-63.4	6.2	0.00e+00	0	38	104	0	85	22553
2026-01-03 13:50:11.73	5.72	24.92	-60.2	-63.4	6.2	0.00e+00	0	39	104	0	85	22502
2026-01-03 13:50:12.73	5.51	25.12	-60.3	-63.5	6.2	0.00e+00	0	38	104	0	85	22667
2026-01-03 13:50:13.74	5.31	25.32	-60.3	-63.4	6.2	0.00e+00	0	38	104	0	85	22523
2026-01-03 13:50:14.75	5.10	25.52	-60.3	-63.5	6.2	0.00e+00	0	38	104	0	85	22646
2026-01-03 13:50:15.76	4.89	25.72	-60.3	-63.4	6.2	0.00e+00	0	38	104	0	85	22613
2026-01-03 13:50:16.77	4.67	25.93	-60.4	-63.5	6.2	0.00e+00	0	39	104	0	86	21517
2026-01-03 13:50:17.78	4.45	26.14	-60.3	-63.5	6.2	0.00e+00	0	39	104	0	86	21405
2026-01-03 13:50:18.78	4.23	26.34	-60.3	-63.6	6.2	0.00e+00	0	38	104	0	86	21609
2026-01-03 13:50:19.79	4.01	26.55	-60.3	-63.5	6.2	0.00e+00	0	38	104	0	86	21503
2026-01-03 13:50:20.79	3.78	26.76	-60.4	-63.5	6.2	0.00e+00	0	38	104	0	86	21603
2026-01-03 13:50:21.80	3.55	26.98	-60.3	-63.5	6.2	0.00e+00	0	39	104	0	86	21501
2026-01-03 13:50:22.81	3.31	27.19	-60.4	-63.6	6.2	0.00e+00	0	38	104	0	86	21637
2026-01-03 13:50:23.82	3.07	27.41	-60.4	-63.5	6.2	0.00e+00	0	39	104	0	86	21562
2026-01-03 13:50:24.82	2.83	27.62	-60.4	-63.6	6.2	0.00e+00	0	38	104	0	86	21698
2026-01-03 13:50:25.84	2.59	27.84	-60.4	-63.5	6.2	0.00e+00	0	38	104	0	86	21591
2026-01-03 13:50:26.84	2.34	28.06	-60.4	-63.6	6.2	0.00e+00	0	38	104	0	86	21668
2026-01-03 13:50:27.85	2.08	28.29	-60.4	-63.6	6.2	0.00e+00	0	38	104	0	86	21686
2026-01-03 13:50:28.86	1.83	28.51	-60.4	-63.6	6.2	0.00e+00	0	38	104	0	86	21742
2026-01-03 13:50:29.87	1.56	28.73	-60.4	-63.6	6.2	0.00e+00	0	38	104	0	86	21633
2026-01-03 13:50:30.87	1.30	28.96	-60.5	-63.6	6.2	0.00e+00	0	38	104	0	86	21755
2026-01-03 13:50:31.88	1.03	29.19	-60.4	-63.6	6.2	0.00e+00	0	39	104	0	86	21653
2026-01-03 13:50:32.89	0.76	29.42	-60.5	-63.7	6.2	0.00e+00	0	39	104	0	86	21907
2026-01-03 13:50:33.89	0.48	29.65	-60.4	-63.6	6.2	0.00e+00	0	39	104	0	86	21782
2026-01-03 13:50:34.90	0.20	29.88	-60.5	-63.7	6.2	0.00e+00	0	38	104	0	86	21885
2026-01-03 13:50:35.91	359.91	30.11	-60.5	-63.7	6.2	0.00e+00	0	38	104	0	86	21868
2026-01-03 13:50:36.91	359.62	30.35	-60.5	-63.7	6.2	0.00e+00	0	38	104	0	86	22007
2026-01-03 13:50:37.92	359.32	30.58	-60.5	-63.6	6.2	0.00e+00	0	38	104	0	86	21779
2026-01-03 13:50:38.93	359.02	30.82	-60.5	-63.7	6.2	0.00e+00	0	38	104	0	86	21941
2026-01-03 13:50:39.93	358.72	31.06	-60.5	-63.6	6.2	0.00e+00	0	38	104	0	86	21847
2026-01-03 13:50:40.94	358.41	31.30	-60.6	-63.7	6.2	0.00e+00	0	38	104	0	86	22057
2026-01-03 13:50:41.95	358.09	31.55	-60.5	-63.7	6.2	0.00e+00	0	39	104	0	86	21906
2026-01-03 13:50:42.96	357.77	31.79	-60.6	-63.7	6.2	0.00e+00	0	38	104	0	86	22093
2026-01-03 13:50:43.97	357.44	32.04	-60.5	-63.7	6.2	0.00e+00	0	38	104	0	86	21980
2026-01-03 13:50:44.98	357.11	32.28	-60.6	-63.7	6.2	0.00e+00	0	39	104	0	86	22105
2026-01-03 13:50:45.99	356.77	32.53	-60.6	-63.7	6.2	0.00e+00	0	39	104	0	86	22074
2026-01-03 13:50:46.99	356.43	32.78	-60.6	-63.8	6.2	0.00e+00	0	39	104	0	86	22193
2026-01-03 13:50:48.00	356.08	33.03	-60.6	-63.8	6.2	0.00e+00	0	38	104	0	86	22129
2026-01-03 13:50:49.01	355.73	33.29	-60.6	-63.8	6.2	0.00e+00	0	39	104	0	86	22259
2026-01-03 13:50:50.01	355.37	33.54	-60.6	-63.8	6.2	0.00e+00	0	39	104	0	86	22142
2026-01-03 13:50:51.02	355.00	33.79	-60.6	-63.8	6.2	0.00e+00	0	39	104	0	86	22228
2026-01-03 13:50:52.02	354.63	34.05	-60.6	-63.8	6.2	0.00e+00	0	39	104	0	86	22213
2026-01-03 13:50:53.03	354.25	34.30	-60.7	-63.8	6.2	0.00e+00	0	38	104	0	86	22279
2026-01-03 13:50:54.04	353.87	34.56	-60.6	-63.8	6.2	0.00e+00	0	39	104	0	86	22207
2026-01-03 13:50:55.04	353.48	34.82	-60.7	-63.9	6.2	0.00e+00	0	39	104	0	86	22366
2026-01-03 13:50:56.05	353.08	35.08	-60.7	-63.8	6.2	0.00e+00	0	38	104	0	86	22312
2026-01-03 13:50:57.06	352.67	35.34	-60.7	-63.9	6.2	0.00e+00	0	39	104	0	86	22437
2026-01-03 13:50:58.07	352.26	35.60	-60.7	-63.8	6.2	0.00e+00	0	39	104	0	86	22356
2026-01-03 13:50:59.08	351.84	35.86	-60.7	-63.9	6.2	0.00e+00	0	38	104	0	86	22424
2026-01-03 13:51:00.09	351.41	36.13	-60.7	-63.9	6.2	0.00e+00	0	39	104	0	86	22408
2026-01-03 13:51:01.10	350.97	36.39	-60.7	-63.9	6.2	0.00e+00	0	39	104	0	86	22548
2026-01-03 13:51:02.10	350.53	36.66	-60.7	-63.9	6.2	0.00e+00	0	39	104	0	86	22381
2026-01-03 13:51:03.11	350.08	36.92	-60.7	-63.9	6.2	0.00e+00	0	39	104	0	86	22540
2026-01-03 13:51:04.12	349.62	37.19	-60.7	-63.9	6.2	0.00e+00	0	38	104	0	86	22530
2026-01-03 13:51:05.12	349.16	37.45	-60.8	-64.0	6.2	0.00e+00	0	38	104	0	86	22639
2026-01-03 13:51:06.13	348.69	37.72	-60.7	-63.9	6.2	0.00e+00	0	39	104	0	86	22463
2026-01-03 13:51:07.14	348.20	37.99	-60.8	-63.9	6.2	0.00e+00	0	39	104	0	86	22571
2026-01-03 13:51:08.14	347.72	38.25	-60.7	-63.9	6.2	0.00e+00	0	38	104	0	86	22521
2026-01-03 13:51:09.15	347.22	38.52	-60.8	-64.0	6.2	0.00e+00	0	38	104	0	86	22694
2026-01-03 13:51:10.15	346.71	38.78	-60.7	-63.9	6.2	0.00e+00	0	39	104	0	86	22535
2026-01-03 13:51:11.16	346.19	39.05	-60.8	-64.0	6.2	0.00e+00	0	39	104	0	86	22680
2026-01-03 13:51:12.17	345.67	39.32	-60.8	-64.0	6.2	0.00e+00	0	38	104	0	86	22651
2026-01-03 13:51:13.18	345.13	39.59	-60.8	-64.0	6.2	0.00e+00	0	38	104	0	87	21378
2026-01-03 13:51:14.18	344.59	39.85	-60.8	-63.9	6.2	0.00e+00	0	38	104	0	87	21279
2026-01-03 13:51:15.19	344.04	40.11	-60.8	-64.0	6.2	0.00e+00	0	39	104	0	87	21415
2026-01-03 13:51:16.19	343.48	40.38	-60.8	-64.0	6.2	0.00e+00	0	39	104	0	87	21411
2026-01-03 13:51:17.20	342.90	40.64	-60.8	-64.0	6.2	0.00e+00	0	38	104	0	87	21526
2026-01-03 13:51:18.21	342.32	40.90	-60.8	-64.0	6.2	0.00e+00	0	38	104	0	87	21367
2026-01-03 13:51:19.22	341.73	41.17	-60.8	-64.0	6.2	0.00e+00	0	38	104	0	87	21496
2026-01-03 13:51:20.23	341.12	41.43	-60.8	-64.0	6.2	0.00e+00	0	38	104	0	87	21545
2026-01-03 13:51:21.24	340.51	41.69	-60.9	-64.0	6.2	0.00e+00	0	39	104	0	87	21606
2026-01-03 13:51:22.24	339.89	41.94	-60.8	-64.0	6.2	0.00e+00	0	39	104	0	87	21458
2026-01-03 13:51:23.25	339.25	42.20	-60.9	-64.0	6.2	0.00e+00	0	39	104	0	87	21604
2026-01-03 13:51:24.26	338.61	42.45	-60.9	-64.0	6.2	0.00e+00	0	38	104	0	87	21597
2026-01-03 13:51:25.26	337.96	42.70	-60.9	-64.1	6.2	0.00e+00	0	38	104	0	87	21656
2026-01-03 13:51:26.27	337.29	42.95	-60.9	-64.0	6.2	0.00e+00	0	39	104	0	87	21537
2026-01-03 13:51:27.28	336.61	43.20	-60.9	-64.1	6.2	0.00e+00	0	39	104	0	87	21649
2026-01-03 13:51:28.29	335.92	43.44	-60.9	-64.1	6.2	0.00e+00	0	39	104	0	87	21814
2026-01-03 13:51:29.30	335.22	43.68	-60.9	-64.1	6.2	0.00e+00	0	39	104	0	87	21727
2026-01-03 13:51:30.31	334.51	43.92	-60.9	-64.1	6.2	0.00e+00	0	39	104	0	87	21614
2026-01-03 13:51:31.32	333.79	44.16	-60.9	-64.1	6.2	0.00e+00	0	39	104	0	87	21759
2026-01-03 13:51:32.33	333.06	44.39	-61.0	-64.2	6.2	0.00e+00	0	39	104	0	87	21870
2026-01-03 13:51:33.34	332.31	44.62	-61.0	-64.1	6.2	0.00e+00	0	38	104	0	87	21763
2026-01-03 13:51:34.35	331.56	44.84	-60.9	-64.1	6.2	0.00e+00	0	39	104	0	87	21671
2026-01-03 13:51:35.36	330.79	45.06	-61.0	-64.2	6.2	0.00e+00	0	38	104	0	87	21867
2026-01-03 13:51:36.36	330.02	45.28	-61.0	-64.2	6.2	0.00e+00	0	39	104	0	87	21912
2026-01-03 13:51:37.37	329.23	45.49	-61.0	-64.1	6.2	0.00e+00	0	39	104	0	87	21814
2026-01-03 13:51:38.38	328.44	45.70	-60.9	-64.1	6.2	0.00e+00	0	39	104	0	87	21809
2026-01-03 13:51:39.39	327.63	45.90	-61.0	-64.2	6.2	0.00e+00	0	39	104	0	87	21991
2026-01-03 13:51:40.40	326.81	46.09	-61.0	-64.2	6.2	0.00e+00	0	39	104	0	87	21974
2026-01-03 13:51:41.40	325.98	46.28	-61.0	-64.2	6.2	0.00e+00	0	39	104	0	87	21875
2026-01-03 13:51:42.41	325.14	46.47	-61.0	-64.2	6.2	0.00e+00	0	39	104	0	87	21873
2026-01-03 13:51:43.42	324.29	46.65	-61.0	-64.2	6.2	0.00e+00	0	39	104	0	87	22027
2026-01-03 13:51:44.43	323.43	46.83	-61.1	-64.2	6.2	0.00e+00	0	39	104	0	87	22027
2026-01-03 13:51:45.43	322.56	46.99	-61.0	-64.2	6.2	0.00e+00	0	39	104	0	87	21975
2026-01-03 13:51:46.44	321.68	47.15	-61.0	-64.2	6.2	0.00e+00	0	39	104	0	87	21928
2026-01-03 13:51:47.45	320.79	47.31	-61.1	-64.2	6.2	0.00e+00	0	38	104	0	87	22094
2026-01-03 13:51:48.46	319.89	47.46	-61.1	-64.3	6.2	0.00e+00	0	38	104	0	87	22158
2026-01-03 13:51:49.47	318.98	47.60	-61.1	-64.2	6.2	0.00e+00	0	38	104	0	87	22028
2026-01-03 13:51:50.47	318.08	47.73	-61.1	-64.3	6.2	0.00e+00	0	38	104	0	87	22127
2026-01-03 13:51:51.48	317.15	47.86	-61.1	-64.3	6.2	0.00e+00	0	39	104	0	87	22162
2026-01-03 13:51:52.49	316.22	47.98	-61.1	-64.3	6.2	0.00e+00	0	39	104	0	87	22209
2026-01-03 13:51:53.50	315.28	48.09	-61.1	-64.2	6.2	0.00e+00	0	39	104	0	87	22081
2026-01-03 13:51:54.51	314.34	48.19	-61.1	-64.3	6.2	0.00e+00	0	38	104	0	87	22111
2026-01-03 13:51:55.51	313.39	48.29	-61.1	-64.3	6.2	0.00e+00	0	39	104	0	87	22233
2026-01-03 13:51:56.52	312.43	48.37	-61.1	-64.3	6.2	0.00e+00	0	39	104	0	87	22228
2026-01-03 13:51:57.53	311.47	48.45	-61.1	-64.3	6.2	0.00e+00	0	39	104	0	87	22150
2026-01-03 13:51:58.54	310.50	48.52	-61.1	-64.3	6.2	0.00e+00	0	39	104	0	87	22225
2026-01-03 13:51:59.54	309.54	48.58	-61.1	-64.3	6.2	0.00e+00	0	39	104	0	87	22224
2026-01-03 13:52:00.55	308.56	48.64	-61.2	-64.3	6.2	0.00e+00	0	39	104	0	87	22352
2026-01-03 13:52:01.56	307.58	48.68	-61.2	-64.3	6.2	0.00e+00	0	39	104	0	87	22292
2026-01-03 13:52:02.57	306.60	48.72	-61.2	-64.4	6.2	0.00e+00	0	39	104	0	87	22460
2026-01-03 13:52:03.58	305.62	48.75	-61.2	-64.4	6.2	0.00e+00	0	39	104	0	87	22471
2026-01-03 13:52:04.59	304.63	48.76	-61.2	-64.4	6.2	0.00e+00	0	39	104	0	87	22535
2026-01-03 13:52:05.60	303.64	48.77	-61.2	-64.3	6.2	0.00e+00	0	39	104	0	87	22350
2026-01-03 13:52:06.61	302.66	48.77	-61.2	-64.4	6.2	0.00e+00	0	38	104	0	87	22461
2026-01-03 13:52:07.62	301.67	48.76	-61.2	-64.4	6.2	0.00e+00	0	39	104	0	87	22444
2026-01-03 13:52:08.63	300.68	48.75	-61.2	-64.4	6.2	0.00e+00	0	39	104	0	87	22460
2026-01-03 13:52:09.64	299.70	48.72	-61.2	-64.4	6.2	0.00e+00	0	39	104	0	87	22468
2026-01-03 13:52:10.65	298.72	48.68	-61.2	-64.4	6.2	0.00e+00	0	38	104	0	87	22475
2026-01-03 13:52:11.66	297.74	48.64	-61.2	-64.4	6.2	0.00e+00	0	39	104	0	87	22568
2026-01-03 13:52:12.67	296.76	48.59	-61.2	-64.4	6.2	0.00e+00	0	39	104	0	87	22486
2026-01-03 13:52:13.68	295.79	48.53	-61.2	-64.4	6.2	0.00e+00	0	39	104	0	87	22422
2026-01-03 13:52:14.68	294.83	48.46	-61.2	-64.4	6.2	0.00e+00	0	39	104	0	87	22395
2026-01-03 13:52:15.69	293.86	48.38	-61.2	-64.4	6.2	0.00e+00	0	39	104	0	87	22470
2026-01-03 13:52:16.70	292.90	48.29	-61.2	-64.4	6.2	0.00e+00	0	39	104	0	87	22457
2026-01-03 13:52:17.71	291.95	48.20	-61.2	-64.3	6.2	0.00e+00	0	39	104	0	87	22255
2026-01-03 13:52:18.72	291.00	48.09	-61.2	-64.3	6.2	0.00e+00	0	39	104	0	87	22340
2026-01-03 13:52:19.72	290.07	47.98	-61.2	-64.4	6.2	0.00e+00	0	39	104	0	87	22401
2026-01-03 13:52:20.73	289.14	47.86	-61.2	-64.3	6.2	0.00e+00	0	38	104	0	87	22356
2026-01-03 13:52:21.73	288.22	47.74	-61.1	-64.3	6.2	0.00e+00	0	39	104	0	87	22270
2026-01-03 13:52:22.74	287.30	47.60	-61.2	-64.3	6.2	0.00e+00	0	39	104	0	87	22276
2026-01-03 13:52:23.75	286.40	47.46	-61.2	-64.4	6.2	0.00e+00	0	39	104	0	87	22375
2026-01-03 13:52:24.75	285.50	47.32	-61.2	-64.3	6.2	0.00e+00	0	39	104	0	87	22324
2026-01-03 13:52:25.77	284.60	47.16	-61.1	-64.3	6.2	0.00e+00	0	39	104	0	87	22211
2026-01-03 13:52:26.77	283.73	47.00	-61.1	-64.3	6.2	0.00e+00	0	39	104	0	87	22190
2026-01-03 13:52:27.78	282.86	46.83	-61.1	-64.3	6.2	0.00e+00	0	39	104	0	87	22295
2026-01-03 13:52:28.79	281.99	46.66	-61.1	-64.3	6.2	0.00e+00	0	39	104	0	87	22147
2026-01-03 13:52:29.79	281.15	46.48	-61.1	-64.3	6.2	0.00e+00	0	39	104	0	87	22160
2026-01-03 13:52:30.80	280.30	46.29	-61.1	-64.3	6.2	0.00e+00	0	39	104	0	87	22211
2026-01-03 13:52:31.81	279.47	46.10	-61.1	-64.3	6.2	0.00e+00	0	39	104	0	87	22159
2026-01-03 13:52:32.81	278.66	45.91	-61.1	-64.3	6.2	0.00e+00	0	39	104	0	87	22147
2026-01-03 13:52:33.82	277.84	45.70	-61.0	-64.2	6.2	0.00e+00	0	39	104	0	87	22025
2026-01-03 13:52:34.83	277.04	45.50	-61.1	-64.2	6.2	0.00e+00	0	39	104	0	87	22060
2026-01-03 13:52:35.83	276.26	45.29	-61.1	-64.2	6.2	0.00e+00	0	39	104	0	87	22052
2026-01-03 13:52:36.85	275.47	45.07	-61.1	-64.2	6.2	0.00e+00	0	39	104	0	87	22058
2026-01-03 13:52:37.85	274.71	44.85	-61.0	-64.2	6.2	0.00e+00	0	39	104	0	87	21982
2026-01-03 13:52:38.86	273.96	44.63	-61.0	-64.2	6.2	0.00e+00	0	39	104	0	87	21965
2026-01-03 13:52:39.87	273.21	44.40	-61.0	-64.2	6.2	0.00e+00	0	39	104	0	87	22024
2026-01-03 13:52:40.88	272.48	44.17	-61.0	-64.2	6.2	0.00e+00	0	39	104	0	87	21997
2026-01-03 13:52:41.88	271.76	43.93	-61.0	-64.2	6.2	0.00e+00	0	39	104	0	87	21865
2026-01-03 13:52:42.89	271.05	43.69	-61.0	-64.2	6.2	0.00e+00	0	39	104	0	87	21948
2026-01-03 13:52:43.90	270.34	43.45	-61.0	-64.2	6.2	0.00e+00	0	39	104	0	87	21977
2026-01-03 13:52:44.90	269.66	43.21	-61.0	-64.2	6.2	0.00e+00	0	39	104	0	87	21888
2026-01-03 13:52:45.91	268.98	42.96	-61.0	-64.1	6.2	0.00e+00	0	39	104	0	87	21812
2026-01-03 13:52:46.92	268.31	42.71	-61.0	-64.1	6.2	0.00e+00	0	39	104	0	87	21847
2026-01-03 13:52:47.93	267.65	42.46	-61.0	-64.1	6.2	0.00e+00	0	39	104	0	87	21832
2026-01-03 13:52:48.94	267.00	42.20	-61.0	-64.2	6.2	0.00e+00	0	39	104	0	87	21861
2026-01-03 13:52:49.95	266.37	41.95	-60.9	-64.1	6.2	0.00e+00	0	39	104	0	87	21694
2026-01-03 13:52:50.95	265.75	41.69	-60.9	-64.1	6.2	0.00e+00	0	39	104	0	87	21761
2026-01-03 13:52:51.96	265.13	41.43	-60.9	-64.1	6.2	0.00e+00	0	39	104	0	87	21795
2026-01-03 13:52:52.96	264.53	41.17	-61.0	-64.1	6.2	0.00e+00	0	39	104	0	87	21791
2026-01-03 13:52:53.97	263.93	40.91	-60.9	-64.1	6.2	0.00e+00	0	39	104	0	87	21689
2026-01-03 13:52:54.98	263.35	40.65	-60.9	-64.1	6.2	0.00e+00	0	39	104	0	87	21756
2026-01-03 13:52:55.99	262.77	40.38	-60.9	-64.1	6.2	0.00e+00	0	39	104	0	87	21770
2026-01-03 13:52:57.00	262.21	40.12	-60.9	-64.1	6.2	0.00e+00	0	39	104	0	87	21731
2026-01-03 13:52:58.01	261.65	39.85	-60.9	-64.0	6.2	0.00e+00	0	39	104	0	87	21593
2026-01-03 13:52:59.02	261.10	39.58	-60.9	-64.1	6.2	0.00e+00	0	39	104	0	87	21649
2026-01-03 13:53:00.02	260.57	39.32	-60.9	-64.1	6.2	0.00e+00	0	39	104	0	87	21629
2026-01-03 13:53:01.03	260.04	39.05	-60.9	-64.0	6.2	0.00e+00	0	39	104	0	87	21600
2026-01-03 13:53:02.04	259.52	38.78	-60.9	-64.0	6.2	0.00e+00	0	39	104	0	87	21500
2026-01-03 13:53:03.04	259.02	38.52	-60.9	-64.0	6.2	0.00e+00	0	39	104	0	87	21593
2026-01-03 13:53:04.06	258.51	38.24	-60.9	-64.0	6.2	0.00e+00	0	39	104	0	87	21588
2026-01-03 13:53:05.07	258.02	37.98	-60.9	-64.0	6.2	0.00e+00	0	39	104	0	87	21584
2026-01-03 13:53:06.07	257.54	37.71	-60.8	-64.0	6.2	0.00e+00	0	39	104	0	87	21517
2026-01-03 13:53:07.08	257.06	37.44	-60.8	-64.0	6.2	0.00e+00	0	39	104	0	87	21470
2026-01-03 13:53:08.08	256.60	37.18	-60.9	-64.0	6.2	0.00e+00	0	39	104	0	87	21584
2026-01-03 13:53:09.09	256.14	36.91	-60.9	-64.0	6.2	0.00e+00	0	39	104	0	87	21504
2026-01-03 13:53:10.10	255.69	36.64	-60.8	-64.0	6.2	0.00e+00	0	39	104	0	87	21484
2026-01-03 13:53:11.11	255.24	36.38	-60.8	-64.0	6.2	0.00e+00	0	39	104	0	87	21519
2026-01-03 13:53:12.11	254.81	36.11	-60.8	-64.0	6.2	0.00e+00	0	39	104	0	87	21484
2026-01-03 13:53:13.12	254.38	35.85	-60.8	-64.0	6.2	0.00e+00	0	39	104	0	87	21463
2026-01-03 13:53:14.13	253.96	35.59	-60.8	-63.9	6.2	0.00e+00	0	39	104	0	87	21336
2026-01-03 13:53:15.14	253.54	35.32	-60.8	-64.0	6.2	0.00e+00	0	39	104	0	87	21401
2026-01-03 13:53:16.15	253.13	35.06	-60.8	-64.0	6.2	0.00e+00	0	39	104	0	87	21431
2026-01-03 13:53:17.16	252.73	34.80	-60.8	-64.0	6.2	0.00e+00	0	39	104	0	87	21461
2026-01-03 13:53:18.17	252.34	34.54	-60.8	-63.9	6.2	0.00e+00	0	39	104	0	87	21265
2026-01-03 13:53:19.18	251.95	34.28	-60.8	-63.9	6.2	0.00e+00	0	39	104	0	87	21284
2026-01-03 13:53:20.19	251.57	34.02	-60.8	-63.9	6.2	0.00e+00	0	39	104	0	87	21350
2026-01-03 13:53:21.19	251.20	33.77	-60.8	-63.9	6.2	0.00e+00	0	39	104	0	87	21353
2026-01-03 13:53:22.19	250.83	33.51	-60.7	-63.9	6.2	0.00e+00	0	39	104	0	87	21198
2026-01-03 13:53:23.20	250.47	33.26	-60.7	-63.9	6.2	0.00e+00	0	39	104	0	87	21226
2026-01-03 13:53:24.21	250.12	33.00	-60.8	-63.9	6.2	0.00e+00	0	39	104	0	87	21299
2026-01-03 13:53:25.22	249.76	32.75	-60.8	-63.9	6.2	0.00e+00	0	39	104	0	87	21205
2026-01-03 13:53:26.23	249.42	32.50	-60.7	-63.9	6.2	0.00e+00	0	39	104	0	87	21181
2026-01-03 13:53:27.24	249.08	32.25	-60.7	-63.9	6.2	0.00e+00	0	38	104	0	87	21118
2026-01-03 13:53:28.24	248.75	32.01	-60.7	-63.9	6.2	0.00e+00	0	39	104	0	87	21194
2026-01-03 13:53:29.25	248.42	31.76	-60.7	-63.9	6.2	0.00e+00	0	39	104	0	87	21166
2026-01-03 13:53:30.26	248.10	31.51	-60.7	-63.8	6.2	0.00e+00	0	39	104	0	87	21039
2026-01-03 13:53:31.27	247.78	31.27	-60.7	-63.8	6.2	0.00e+00	0	39	104	0	87	21113
2026-01-03 13:53:32.28	247.47	31.03	-60.7	-63.8	6.2	0.00e+00	0	39	104	0	87	21109
2026-01-03 13:53:33.28	247.17	30.79	-60.7	-63.8	6.2	0.00e+00	0	39	104	0	87	21106
2026-01-03 13:53:34.29	246.86	30.55	-60.6	-63.8	6.2	0.00e+00	0	39	104	0	87	20952
2026-01-03 13:53:35.30	246.57	30.31	-60.7	-63.8	6.2	0.00e+00	0	39	104	0	87	21052
2026-01-03 13:53:36.31	246.27	30.07	-60.7	-63.8	6.2	0.00e+00	0	39	104	0	87	21100
2026-01-03 13:53:37.31	245.99	29.84	-60.6	-63.8	6.2	0.00e+00	0	39	104	0	87	20996
2026-01-03 13:53:38.32	245.70	29.61	-60.6	-63.8	6.2	0.00e+00	0	39	104	0	87	20999
2026-01-03 13:53:39.33	245.42	29.37	-60.6	-63.8	6.2	0.00e+00	0	39	104	0	87	20959
2026-01-03 13:53:40.34	245.15	29.14	-60.6	-63.8	6.2	0.00e+00	0	39	104	0	87	21011
2026-01-03 13:53:41.35	244.88	28.91	-60.6	-63.8	6.2	0.00e+00	0	39	104	0	87	20978
2026-01-03 13:53:42.36	244.61	28.69	-60.6	-63.7	6.2	0.00e+00	0	39	104	0	87	20869
2026-01-03 13:53:43.37	244.35	28.46	-60.6	-63.8	6.2	0.00e+00	0	39	104	0	87	20960
2026-01-03 13:53:44.37	244.09	28.24	-60.6	-63.8	6.2	0.00e+00	0	39	104	0	87	20986
2026-01-03 13:53:45.37	243.84	28.02	-60.6	-63.7	6.2	0.00e+00	0	39	104	0	87	20870
2026-01-03 13:53:46.38	243.59	27.80	-60.6	-63.7	6.2	0.00e+00	0	39	104	0	87	20835
2026-01-03 13:53:47.38	243.34	27.58	-60.6	-63.7	6.2	0.00e+00	0	39	104	0	87	20806
2026-01-03 13:53:48.39	243.10	27.36	-60.6	-63.7	6.2	0.00e+00	0	39	104	0	87	20864
2026-01-03 13:53:49.40	242.86	27.14	-60.6	-63.8	6.2	0.00e+00	0	39	104	0	87	20908
2026-01-03 13:53:50.41	242.63	26.93	-60.5	-63.7	6.2	0.00e+00	0	39	104	0	87	20756
2026-01-03 13:53:51.41	242.40	26.72	-60.5	-63.7	6.2	0.00e+00	0	39	104	0	87	20833
2026-01-03 13:53:52.41	242.17	26.51	-60.5	-63.7	6.2	0.00e+00	0	39	104	0	87	20831
2026-01-03 13:53:53.42	241.94	26.29	-60.5	-63.7	6.2	0.00e+00	0	39	104	0	87	20750
2026-01-03 13:53:54.43	241.72	26.08	-60.5	-63.7	6.2	0.00e+00	0	39	104	0	87	20735
2026-01-03 13:53:55.44	241.50	25.88	-60.5	-63.7	6.2	0.00e+00	0	39	104	0	87	20717
2026-01-03 13:53:56.45	241.28	25.67	-60.5	-63.7	6.2	0.00e+00	0	39	104	0	87	20738
2026-01-03 13:53:57.45	241.07	25.47	-60.5	-63.7	6.2	0.00e+00	0	39	104	0	87	20723
2026-01-03 13:53:58.46	240.86	25.26	-60.5	-63.7	6.2	0.00e+00	0	39	104	0	87	20689
2026-01-03 13:53:59.47	240.66	25.06	-60.5	-63.6	6.2	0.00e+00	0	39	104	0	87	20607
2026-01-03 13:54:00.48	240.45	24.86	-60.5	-63.7	6.2	0.00e+00	0	39	104	0	87	20639
2026-01-03 13:54:01.49	240.25	24.66	-60.5	-63.7	6.2	0.00e+00	0	39	104	0	87	20644
2026-01-03 13:54:02.49	240.05	24.47	-60.5	-63.6	6.2	0.00e+00	0	39	104	0	87	20518
2026-01-03 13:54:03.50	239.86	24.27	-60.5	-63.6	6.2	0.00e+00	0	39	104	0	87	20591
2026-01-03 13:54:04.51	239.66	24.08	-60.5	-63.6	6.2	0.00e+00	0	39	104	0	87	20605
2026-01-03 13:54:05.52	239.47	23.88	-60.4	-63.6	6.2	0.00e+00	0	39	104	0	87	20546
2026-01-03 13:54:06.52	239.29	23.69	-60.4	-63.6	6.2	0.00e+00	0	39	104	0	87	20466
2026-01-03 13:54:07.53	239.10	23.50	-60.4	-63.6	6.2	0.00e+00	0	39	104	0	87	20501
2026-01-03 13:54:08.54	238.92	23.31	-60.4	-63.6	6.2	0.00e+00	0	39	104	0	87	20529
2026-01-03 13:54:09.55	238.74	23.13	-60.4	-63.6	6.2	0.00e+00	0	39	104	0	87	20456
2026-01-03 13:54:10.56	238.56	22.94	-60.4	-63.6	6.2	0.00e+00	0	39	104	0	87	20417
2026-01-03 13:54:11.57	238.39	22.75	-60.4	-63.6	6.2	0.00e+00	0	39	104	0	87	20443
2026-01-03 13:54:12.58	238.21	22.57	-60.4	-63.6	6.2	0.00e+00	0	39	104	0	87	20448
2026-01-03 13:54:13.59	238.04	22.39	-60.4	-63.5	6.2	0.00e+00	0	39	104	0	87	20384
2026-01-03 13:54:14.60	237.87	22.21	-60.4	-63.5	6.2	0.00e+00	0	39	104	0	87	20396
2026-01-03 13:54:15.61	237.71	22.03	-60.4	-63.5	6.2	0.00e+00	0	39	104	0	87	20287
2026-01-03 13:54:16.61	237.54	21.85	-60.4	-63.5	6.2	0.00e+00	0	39	104	0	87	20309
2026-01-03 13:54:17.61	237.38	21.68	-60.3	-63.5	6.2	0.00e+00	0	39	104	0	87	20295
2026-01-03 13:54:18.62	237.22	21.50	-60.3	-63.5	6.2	0.00e+00	0	39	104	0	87	20306
2026-01-03 13:54:19.63	237.07	21.33	-60.3	-63.5	6.2	0.00e+00	0	39	104	0	87	20347
2026-01-03 13:54:20.64	236.91	21.15	-60.3	-63.5	6.2	0.00e+00	0	39	104	0	87	20280
2026-01-03 13:54:21.65	236.76	20.98	-60.3	-63.5	6.2	0.00e+00	0	39	104	0	87	20236
2026-01-03 13:54:22.66	236.60	20.81	-60.3	-63.5	6.2	0.00e+00	0	39	104	0	87	20314
2026-01-03 13:54:23.67	236.45	20.64	-60.3	-63.5	6.2	0.00e+00	0	39	104	0	87	20271
2026-01-03 13:54:24.68	236.31	20.47	-60.3	-63.5	6.2	0.00e+00	0	39	104	0	87	20230
2026-01-03 13:54:25.68	236.16	20.31	-60.3	-63.5	6.2	0.00e+00	0	39	104	0	87	20203
2026-01-03 13:54:26.69	236.02	20.14	-60.3	-63.5	6.2	0.00e+00	0	39	104	0	87	20218
2026-01-03 13:54:27.69	235.87	19.98	-60.3	-63.5	6.2	0.00e+00	0	39	104	0	87	20277
2026-01-03 13:54:28.70	235.73	19.81	-60.3	-63.5	6.2	0.00e+00	0	39	104	0	87	20167
2026-01-03 13:54:29.71	235.59	19.65	-60.3	-63.5	6.2	0.00e+00	0	39	104	0	87	20179
2026-01-03 13:54:30.72	235.46	19.49	-60.2	-63.4	6.2	0.00e+00	0	39	104	0	87	20086
2026-01-03 13:54:31.72	235.32	19.33	-60.3	-63.4	6.2	0.00e+00	0	39	104	0	87	20140
2026-01-03 13:54:32.72	235.19	19.18	-60.2	-63.4	6.2	0.00e+00	0	39	104	0	87	20065
2026-01-03 13:54:33.72	235.06	19.02	-60.2	-63.4	6.2	0.00e+00	0	39	104	0	87	20061
2026-01-03 13:54:34.73	234.93	18.86	-60.2	-63.4	6.2	0.00e+00	0	39	104	0	87	20066
2026-01-03 13:54:35.74	234.80	18.71	-60.2	-63.4	6.2	0.00e+00	0	39	104	0	87	20022
2026-01-03 13:54:36.75	234.67	18.55	-60.2	-63.4	6.2	0.00e+00	0	39	104	0	87	20009
2026-01-03 13:54:37.76	234.54	18.40	-60.2	-63.4	6.2	0.00e+00	0	39	104	0	87	20019
2026-01-03 13:54:38.77	234.42	18.25	-60.2	-63.4	6.2	0.00e+00	0	39	104	0	87	19996
2026-01-03 13:54:39.77	234.30	18.10	-60.2	-63.4	6.2	0.00e+00	0	39	104	0	87	19968
2026-01-03 13:54:40.78	234.17	17.95	-60.2	-63.4	6.2	0.00e+00	0	39	104	0	87	19967
2026-01-03 13:54:41.79	234.05	17.80	-60.2	-63.3	6.2	0.00e+00	0	39	104	0	87	19933
2026-01-03 13:54:42.80	233.93	17.65	-60.2	-63.4	6.2	0.00e+00	0	39	104	0	87	19953
2026-01-03 13:54:43.80	233.82	17.50	-60.2	-63.4	6.2	0.00e+00	0	39	104	0	87	19951
2026-01-03 13:54:44.82	233.70	17.35	-60.2	-63.4	6.2	0.00e+00	0	39	104	0	87	19968
2026-01-03 13:54:45.83	233.58	17.21	-60.2	-63.3	6.2	0.00e+00	0	39	104	0	87	19885
2026-01-03 13:54:46.83	233.47	17.07	-60.2	-63.3	6.2	0.00e+00	0	39	104	0	87	19903
2026-01-03 13:54:47.84	233.36	16.92	-60.1	-63.3	6.2	0.00e+00	0	39	104	0	87	19851
2026-01-03 13:54:48.84	233.25	16.78	-60.1	-63.3	6.2	0.00e+00	0	39	104	0	87	19857
2026-01-03 13:54:49.85	233.14	16.64	-60.1	-63.3	6.2	0.00e+00	0	39	104	0	87	19829
2026-01-03 13:54:50.86	233.03	16.50	-60.1	-63.3	6.2	0.00e+00	0	39	104	0	87	19742
2026-01-03 13:54:51.86	232.92	16.36	-60.1	-63.3	6.2	0.00e+00	0	39	104	0	87	19745
2026-01-03 13:54:52.87	232.81	16.22	-60.1	-63.3	6.2	0.00e+00	0	39	104	0	87	19763
2026-01-03 13:54:53.88	232.71	16.08	-60.1	-63.3	6.2	0.00e+00	0	39	104	0	87	19773
2026-01-03 13:54:54.89	232.61	15.95	-60.1	-63.3	6.2	0.00e+00	0	39	104	0	87	19739
2026-01-03 13:54:55.90	232.50	15.81	-60.1	-63.3	6.2	0.00e+00	0	39	104	0	87	19737
2026-01-03 13:54:56.90	232.40	15.68	-60.1	-63.3	6.2	0.00e+00	0	39	104	0	87	19736
2026-01-03 13:54:57.92	232.30	15.54	-60.1	-63.2	6.2	0.00e+00	0	39	104	0	87	19663
2026-01-03 13:54:58.93	232.20	15.41	-60.1	-63.2	6.2	0.00e+00	0	39	104	0	87	19698
2026-01-03 13:54:59.93	232.10	15.28	-60.1	-63.2	6.2	0.00e+00	0	39	104	0	86	20823
2026-01-03 13:55:00.94	232.00	15.14	-60.1	-63.2	6.2	0.00e+00	0	39	104	0	86	20801
2026-01-03 13:55:01.95	231.91	15.01	-60.1	-63.2	6.2	0.00e+00	0	39	104	0	86	20835
2026-01-03 13:55:02.95	231.81	14.88	-60.1	-63.2	6.2	0.00e+00	0	39	104	0	86	20768
2026-01-03 13:55:03.96	231.72	14.76	-60.0	-63.2	6.2	0.00e+00	0	39	104	0	86	20782
2026-01-03 13:55:04.97	231.62	14.63	-60.0	-63.2	6.2	0.00e+00	0	38	104	0	86	20783
2026-01-03 13:55:05.98	231.53	14.50	-60.0	-63.2	6.2	0.00e+00	0	39	104	0	86	20740
2026-01-03 13:55:06.98	231.44	14.37	-60.0	-63.2	6.2	0.00e+00	0	39	104	0	86	20716
2026-01-03 13:55:07.99	231.35	14.25	-60.0	-63.2	6.2	0.00e+00	0	39	104	0	86	20729
2026-01-03 13:55:09.00	231.26	14.12	-60.0	-63.2	6.2	0.00e+00	0	39	104	0	86	20680
2026-01-03 13:55:10.01	231.17	14.00	-60.0	-63.2	6.2	0.00e+00	0	39	104	0	86	20717
2026-01-03 13:55:11.02	231.08	13.87	-60.0	-63.2	6.2	0.00e+00	0	39	104	0	86	20712
2026-01-03 13:55:12.02	231.00	13.75	-60.0	-63.2	6.2	0.00e+00	0	39	104	0	86	20647
2026-01-03 13:55:13.03	230.91	13.63	-60.0	-63.1	6.2	0.00e+00	0	39	104	0	86	20565
2026-01-03 13:55:14.04	230.82	13.51	-60.0	-63.1	6.2	0.00e+00	0	39	104	0	86	20633
2026-01-03 13:55:15.04	230.74	13.39	-60.0	-63.1	6.2	0.00e+00	0	39	104	0	86	20602
2026-01-03 13:55:16.05	230.66	13.27	-60.0	-63.1	6.2	0.00e+00	0	39	104	0	86	20606
2026-01-03 13:55:17.06	230.57	13.15	-59.9	-63.1	6.2	0.00e+00	0	39	104	0	86	20510
2026-01-03 13:55:18.07	230.49	13.03	-60.0	-63.1	6.2	0.00e+00	0	39	104	0	86	20555
2026-01-03 13:55:19.08	230.41	12.91	-60.0	-63.1	6.2	0.00e+00	0	39	104	0	86	20580
2026-01-03 13:55:20.09	230.33	12.79	-59.9	-63.1	6.2	0.00e+00	0	39	104	0	86	20516
2026-01-03 13:55:21.10	230.25	12.68	-59.9	-63.1	6.2	0.00e+00	0	38	104	0	86	20457
2026-01-03 13:55:22.11	230.17	12.56	-59.9	-63.1	6.2	0.00e+00	0	39	104	0	86	20540
2026-01-03 13:55:23.11	230.09	12.45	-59.9	-63.1	6.2	0.00e+00	0	39	104	0	86	20475
2026-01-03 13:55:24.12	230.02	12.33	-59.9	-63.0	6.2	0.00e+00	0	39	104	0	86	20352
2026-01-03 13:55:25.13	229.94	12.22	-59.9	-63.0	6.2	0.00e+00	0	39	104	0	86	20346
2026-01-03 13:55:26.13	229.86	12.10	-59.9	-63.1	6.2	0.00e+00	0	39	104	0	86	20477
2026-01-03 13:55:27.14	229.79	11.99	-59.9	-63.1	6.2	0.00e+00	0	39	104	0	86	20446
2026-01-03 13:55:28.15	229.71	11.88	-59.9	-63.0	6.2	0.00e+00	0	39	104	0	86	20345
2026-01-03 13:55:29.16	229.64	11.77	-59.8	-63.0	6.2	0.00e+00	0	39	104	0	86	20282
2026-01-03 13:55:30.16	229.57	11.66	-59.9	-63.0	6.2	0.00e+00	0	39	104	0	86	20281
2026-01-03 13:55:31.17	229.50	11.55	-59.8	-63.0	6.2	0.00e+00	0	39	104	0	86	20337
2026-01-03 13:55:32.18	229.42	11.44	-59.8	-63.0	6.2	0.00e+00	0	39	104	0	86	20293
2026-01-03 13:55:33.19	229.35	11.33	-59.8	-63.0	6.2	0.00e+00	0	39	104	0	86	20266
2026-01-03 13:55:34.19	229.28	11.22	-59.8	-63.0	6.2	0.00e+00	0	39	104	0	86	20219
2026-01-03 13:55:35.20	229.21	11.11	-59.8	-63.0	6.2	0.00e+00	0	39	104	0	86	20308
2026-01-03 13:55:36.22	229.14	11.00	-59.8	-63.0	6.2	0.00e+00	0	39	104	0	86	20193
2026-01-03 13:55:37.22	229.08	10.90	-59.8	-63.0	6.2	0.00e+00	0	39	104	0	86	20251
2026-01-03 13:55:38.23	229.01	10.79	-59.8	-63.0	6.2	0.00e+00	0	39	104	0	86	20298
2026-01-03 13:55:39.24	228.94	10.69	-59.8	-63.0	6.2	0.00e+00	0	39	104	0	86	20170
2026-01-03 13:55:40.24	228.88	10.58	-59.8	-62.9	6.2	0.00e+00	0	39	104	0	86	20126
2026-01-03 13:55:41.25	228.81	10.48	-59.8	-62.9	6.2	0.00e+00	0	39	104	0	86	20163
2026-01-03 13:55:42.26	228.74	10.37	-59.8	-63.0	6.2	0.00e+00	0	38	104	0	86	20215
2026-01-03 13:55:43.27	228.68	10.27	-59.8	-62.9	6.2	0.00e+00	0	39	104	0	86	20154
2026-01-03 13:55:44.28	228.61	10.17	-59.7	-62.9	6.2	0.00e+00	0	39	104	0	86	20089
2026-01-03 13:55:45.28	228.55	10.07	-59.7	-62.9	6.2	0.00e+00	0	39	104	0	86	20018
2026-01-03 13:55:46.29	228.49	9.96	-59.8	-62.9	6.2	0.00e+00	0	39	104	0	86	20053
2026-01-03 13:55:47.30	228.43	9.86	-59.7	-62.9	6.2	0.00e+00	0	39	104	0	86	20017
2026-01-03 13:55:48.31	228.36	9.76	-59.7	-62.9	6.2	0.00e+00	0	39	104	0	86	20041
2026-01-03 13:55:49.32	228.30	9.66	-59.7	-62.9	6.2	0.00e+00	0	39	104	0	86	20015
2026-01-03 13:55:50.32	228.24	9.56	-59.7	-62.9	6.2	0.00e+00	0	39	104	0	86	20045
2026-01-03 13:55:51.33	228.18	9.46	-59.7	-62.9	6.2	0.00e+00	0	39	104	0	86	19950
2026-01-03 13:55:52.34	228.12	9.36	-59.7	-62.8	6.2	0.00e+00	0	39	104	0	86	19880
2026-01-03 13:55:53.34	228.06	9.27	-59.6	-62.8	6.2	0.00e+00	0	39	104	0	86	19836
2026-01-03 13:55:54.35	228.00	9.17	-59.7	-62.9	6.2	0.00e+00	0	39	104	0	86	20018
2026-01-03 13:55:55.36	227.95	9.07	-59.7	-62.8	6.2	0.00e+00	0	39	104	0	86	19802
2026-01-03 13:55:56.37	227.89	8.97	-59.6	-62.7	6.2	0.00e+00	0	39	104	0	86	19700
2026-01-03 13:55:57.38	227.83	8.88	-59.6	-62.8	6.2	0.00e+00	0	39	104	0	86	19763
2026-01-03 13:55:58.39	227.77	8.78	-59.6	-62.8	6.2	0.00e+00	0	39	104	0	86	19842
2026-01-03 13:55:59.40	227.72	8.68	-59.6	-62.8	6.2	0.00e+00	0	39	104	0	86	19747
2026-01-03 13:56:00.41	227.66	8.59	-59.5	-62.7	6.2	0.00e+00	0	39	104	0	85	20718
2026-01-03 13:56:01.42	227.61	8.49	-59.6	-62.7	6.2	0.00e+00	0	39	104	0	85	20845
2026-01-03 13:56:02.42	227.55	8.40	-59.6	-62.8	6.2	0.00e+00	0	39	104	0	85	20921
2026-01-03 13:56:03.43	227.50	8.31	-59.5	-62.7	6.2	0.00e+00	0	39	104	0	85	20777
2026-01-03 13:56:04.44	227.44	8.21	-59.5	-62.7	6.2	0.00e+00	0	39	104	0	85	20636
2026-01-03 13:56:05.44	227.39	8.12	-59.5	-62.7	6.2	0.00e+00	0	39	104	0	85	20731
2026-01-03 13:56:06.45	227.34	8.03	-59.6	-62.7	6.2	0.00e+00	0	39	104	0	85	20776
2026-01-03 13:56:07.46	227.28	7.94	-59.5	-62.7	6.2	0.00e+00	0	39	104	0	85	20664
2026-01-03 13:56:08.47	227.23	7.84	-59.5	-62.6	6.2	0.00e+00	0	39	104	0	85	20580
2026-01-03 13:56:09.48	227.18	7.75	-59.5	-62.7	6.2	0.00e+00	0	39	104	0	85	20668
2026-01-03 13:56:10.48	227.13	7.66	-59.5	-62.7	6.2	0.00e+00	0	39	104	0	85	20799
2026-01-03 13:56:11.49	227.08	7.57	-59.4	-62.6	6.2	0.00e+00	0	39	104	0	85	20512
2026-01-03 13:56:12.49	227.03	7.48	-59.4	-62.6	6.2	0.00e+00	0	39	104	0	85	20432
2026-01-03 13:56:13.50	226.98	7.39	-59.4	-62.6	6.2	0.00e+00	0	39	104	0	85	20521
2026-01-03 13:56:14.51	226.93	7.30	-59.5	-62.6	6.2	0.00e+00	0	39	104	0	85	20619
2026-01-03 13:56:15.51	226.88	7.22	-59.4	-62.5	6.2	0.00e+00	0	39	104	0	85	20396
2026-01-03 13:56:16.52	226.83	7.13	-59.3	-62.5	6.2	0.00e+00	0	39	104	0	85	20268
2026-01-03 13:56:17.53	226.78	7.04	-59.4	-62.6	6.2	0.00e+00	0	39	104	0	85	20485
2026-01-03 13:56:18.54	226.73	6.95	-59.4	-62.6	6.2	0.00e+00	0	39	104	0	85	20475
2026-01-03 13:56:19.55	226.68	6.86	-59.4	-62.5	6.2	0.00e+00	0	39	104	0	85	20357
2026-01-03 13:56:20.56	226.64	6.78	-59.3	-62.4	6.2	0.00e+00	0	39	104	0	85	20128
2026-01-03 13:56:21.57	226.59	6.69	-59.4	-62.5	6.2	0.00e+00	0	39	104	0	85	20342
2026-01-03 13:56:22.58	226.54	6.60	-59.4	-62.6	6.2	0.00e+00	0	39	104	0	85	20451
2026-01-03 13:56:23.58	226.50	6.52	-59.3	-62.5	6.2	0.00e+00	0	39	104	0	85	20173
2026-01-03 13:56:24.59	226.45	6.43	-59.2	-62.4	6.2	0.00e+00	0	39	104	0	85	20024
2026-01-03 13:56:25.60	226.40	6.35	-59.3	-62.5	6.2	0.00e+00	0	39	104	0	85	20201
2026-01-03 13:56:26.61	226.36	6.26	-59.3	-62.5	6.2	0.00e+00	0	39	104	0	85	20237
2026-01-03 13:56:27.61	226.31	6.18	-59.2	-62.4	6.2	0.00e+00	0	39	104	0	85	20018
2026-01-03 13:56:28.62	226.27	6.10	-59.2	-62.3	6.2	0.00e+00	0	39	104	0	85	19916
2026-01-03 13:56:29.63	226.23	6.01	-59.3	-62.4	6.2	0.00e+00	0	39	104	0	85	20087
2026-01-03 13:56:30.64	226.18	5.93	-59.3	-62.4	6.2	0.00e+00	0	39	104	0	85	20073
2026-01-03 13:56:31.64	226.14	5.85	-59.2	-62.3	6.2	0.00e+00	0	39	104	0	85	19932
2026-01-03 13:56:32.65	226.09	5.76	-59.1	-62.3	6.2	0.00e+00	0	39	104	0	85	19787
2026-01-03 13:56:33.66	226.05	5.68	-59.2	-62.4	6.2	0.00e+00	0	39	104	0	85	19967
2026-01-03 13:56:34.67	226.01	5.60	-59.2	-62.4	6.2	0.00e+00	0	39	104	0	85	19950
2026-01-03 13:56:35.67	225.97	5.52	-59.1	-62.3	6.2	0.00e+00	0	39	104	0	85	19705
2026-01-03 13:56:36.68	225.93	5.44	-59.1	-62.2	6.2	0.00e+00	0	39	104	0	84	20802
2026-01-03 13:56:37.69	225.88	5.35	-59.2	-62.3	6.2	0.00e+00	0	39	104	0	84	21071
2026-01-03 13:56:38.69	225.84	5.27	-59.2	-62.3	6.2	0.00e+00	0	39	104	0	84	21064
2026-01-03 13:56:39.70	225.80	5.19	-59.0	-62.2	6.2	0.00e+00	0	39	104	0	84	20832
2026-01-03 13:56:40.71	225.76	5.11	-59.0	-62.2	6.2	0.00e+00	0	39	104	0	84	20634
2026-01-03 13:56:41.72	225.72	5.03	-59.1	-62.3	6.2	0.00e+00	0	39	104	0	84	21014
2026-01-03 13:56:42.73	225.68	4.95	-59.3	-62.4	6.2	0.00e+00	0	39	104	0	84	21352
2026-01-03 13:56:43.74	225.64	4.87	-59.8	-63.0	6.2	0.00e+00	0	39	104	0	84	22625
2026-01-03 13:56:44.74	225.60	4.80	-60.1	-63.3	6.2	0.00e+00	0	39	104	0	85	22162
2026-01-03 13:56:45.76	225.56	4.72	-60.4	-63.5	6.2	0.00e+00	0	39	104	0	86	21562
2026-01-03 13:56:46.76	225.52	4.64	-60.5	-63.7	6.2	0.00e+00	0	39	104	0	86	21903
2026-01-03 13:56:47.77	225.48	4.56	-60.6	-63.8	6.2	0.00e+00	0	39	104	0	86	22294
2026-01-03 13:56:48.78	225.45	4.48	-60.7	-63.9	6.2	0.00e+00	0	39	104	0	86	22527
2026-01-03 13:56:49.78	225.41	4.40	-60.8	-64.0	6.2	0.00e+00	0	39	104	0	87	21463
2026-01-03 13:56:50.79	225.37	4.33	-60.9	-64.1	6.2	0.00e+00	0	39	104	0	87	21678
2026-01-03 13:56:51.80	225.33	4.25	-61.0	-64.2	6.2	0.00e+00	0	39	104	0	87	21880
2026-01-03 13:56:52.80	225.29	4.17	-61.0	-64.2	6.2	0.00e+00	0	39	104	0	87	22012
2026-01-03 13:56:53.81	225.26	4.10	-61.1	-64.2	6.2	0.00e+00	0	39	104	0	87	22094
2026-01-03 13:56:54.82	225.22	4.02	-61.1	-64.2	6.2	0.00e+00	0	39	104	0	87	22061
2026-01-03 13:56:55.82	225.18	3.95	-61.1	-64.3	6.2	0.00e+00	0	39	104	0	87	22239
2026-01-03 13:56:56.83	225.15	3.87	-61.2	-64.3	6.2	0.00e+00	0	39	104	0	87	22304
2026-01-03 13:56:57.85	225.11	3.79	-61.2	-64.4	6.2	0.00e+00	0	39	104	0	87	22411
2026-01-03 13:56:58.85	225.08	3.72	-61.2	-64.4	6.2	0.00e+00	0	39	104	0	87	22467
2026-01-03 13:56:59.86	225.04	3.64	-61.2	-64.4	6.2	0.00e+00	0	39	104	0	87	22544
2026-01-03 13:57:00.87	225.01	3.57	-61.3	-64.4	6.2	0.00e+00	0	39	104	0	87	22527
2026-01-03 13:57:01.88	224.97	3.50	-61.3	-64.5	6.2	0.00e+00	0	39	104	0	87	22683
2026-01-03 13:57:02.89	224.94	3.42	-61.3	-64.5	6.2	0.00e+00	0	39	104	0	88	21528
2026-01-03 13:57:03.90	224.90	3.35	-61.4	-64.5	6.2	0.00e+00	0	39	104	0	88	21547
2026-01-03 13:57:04.91	224.87	3.27	-61.4	-64.5	6.2	0.00e+00	0	39	104	0	88	21554
2026-01-03 13:57:05.92	224.83	3.20	-61.3	-64.5	6.2	0.00e+00	0	39	104	0	88	21434
2026-01-03 13:57:06.93	224.80	3.13	-61.3	-64.5	6.2	0.00e+00	0	39	104	0	88	21476
2026-01-03 13:57:07.94	224.76	3.05	-61.3	-64.4	6.2	0.00e+00	0	39	104	0	88	21336
2026-01-03 13:57:08.95	224.73	2.98	-61.3	-64.4	6.2	0.00e+00	0	39	104	0	88	21337
2026-01-03 13:57:09.96	224.70	2.91	-61.3	-64.4	6.2	0.00e+00	0	39	104	0	88	21292
2026-01-03 13:57:10.97	224.67	2.84	-61.2	-64.4	6.2	0.00e+00	0	39	104	0	88	21275
2026-01-03 13:57:11.98	224.63	2.76	-61.2	-64.4	6.2	0.00e+00	0	39	104	0	88	21227
2026-01-03 13:57:12.99	224.60	2.69	-61.2	-64.4	6.2	0.00e+00	0	39	104	0	88	21152
2026-01-03 13:57:14.00	224.57	2.62	-61.2	-64.4	6.2	0.00e+00	0	39	104	0	88	21262
2026-01-03 13:57:15.01	224.54	2.55	-61.2	-64.4	6.2	0.00e+00	0	39	104	0	88	21156
2026-01-03 13:57:16.01	224.50	2.48	-61.2	-64.4	6.2	0.00e+00	0	39	104	0	88	21150
2026-01-03 13:57:17.02	224.47	2.41	-61.2	-64.3	6.2	0.00e+00	0	39	104	0	88	21107
2026-01-03 13:57:18.03	224.44	2.34	-61.2	-64.3	6.2	0.00e+00	0	39	104	0	88	21086
2026-01-03 13:57:19.03	224.41	2.27	-61.2	-64.4	6.2	0.00e+00	0	39	104	0	88	21139
2026-01-03 13:57:20.04	224.38	2.20	-61.2	-64.3	6.2	0.00e+00	0	39	104	0	88	21095
2026-01-03 13:57:21.05	224.35	2.13	-61.2	-64.3	6.2	0.00e+00	0	39	104	0	88	21099
2026-01-03 13:57:22.06	224.32	2.06	-61.2	-64.3	6.2	0.00e+00	0	39	104	0	88	21052
2026-01-03 13:57:23.06	224.29	1.99	-61.2	-64.3	6.2	0.00e+00	0	39	104	0	88	21091

#Closed at: 2026-01-03 13:57:23
#Recorded file [0 MB]: D:/lorett/data/31004_260103_164647.dat