passes_logs/2026/01/03/R3.2S_Murmansk/R3.2S_Murmansk__20260103_023725_FENGYUN_3D_rec.log

#Pass ID: 20260103_023725_FENGYUN 3D
#Satellite: FENGYUN 3D
#Configuration: FENGYUN 3D
#almurnet v.1.7.20251203
#Start time: 2026-01-03 02:37:25

#Version: 2.2.20231116
#Station: R3.2S_Murmansk
#Location: 33.079688 lon 68.888172 lat
#TLE: 1 43010U 17072A   26002.81102625  .00000200  00000+0  11640-3 0  9996
#TLE: 2 43010  98.9911 334.4394 0001899 131.0556 229.0784 14.19692049421526

#Time	Az	El	Level	Level2	SNR	BER	BlckErr	Temp	State	Recorded	gain1	gain2
2026-01-03 02:37:25.65	24.66	2.03	-59.8	-72.4	3.8	8.45e-01	0	29	0	0	85	15610
2026-01-03 02:37:26.65	24.67	2.10	-59.8	-72.3	3.8	8.47e-01	0	29	104	0	84	16457
2026-01-03 02:37:27.65	24.68	2.16	-59.8	-72.4	3.8	8.45e-01	0	29	104	0	84	16543
2026-01-03 02:37:28.65	24.69	2.22	-59.8	-72.4	3.8	8.46e-01	0	29	104	0	84	16568
2026-01-03 02:37:29.65	24.69	2.29	-59.8	-72.3	3.8	8.46e-01	0	29	104	0	84	16475
2026-01-03 02:37:30.65	24.70	2.35	-59.8	-72.3	3.8	8.46e-01	0	29	104	0	84	16373
2026-01-03 02:37:31.65	24.71	2.42	-59.8	-72.2	3.8	8.46e-01	0	29	104	0	84	16289
2026-01-03 02:37:32.65	24.72	2.48	-59.8	-72.1	3.8	8.47e-01	0	29	104	0	84	16077
2026-01-03 02:37:33.64	24.72	2.55	-59.8	-72.0	3.8	8.45e-01	0	29	104	0	84	15812
2026-01-03 02:37:34.64	24.73	2.61	-59.8	-71.8	3.8	8.45e-01	0	29	104	0	84	15501
2026-01-03 02:37:35.64	24.74	2.68	-59.8	-71.6	3.8	8.46e-01	0	29	104	0	84	15092
2026-01-03 02:37:36.65	24.75	2.74	-59.8	-71.4	3.8	8.44e-01	0	29	104	0	84	14755
2026-01-03 02:37:37.65	24.75	2.81	-59.8	-71.3	3.8	8.44e-01	0	29	104	0	84	14631
2026-01-03 02:37:38.66	24.76	2.87	-59.7	-71.0	3.8	8.46e-01	0	29	104	0	84	14198
2026-01-03 02:37:39.66	24.77	2.94	-59.7	-70.9	3.8	8.44e-01	0	29	104	0	84	13941
2026-01-03 02:37:40.66	24.78	3.01	-59.7	-70.5	3.8	8.45e-01	0	30	104	0	84	13378
2026-01-03 02:37:41.66	24.78	3.07	-59.7	-70.6	3.8	8.45e-01	0	30	104	0	84	13512
2026-01-03 02:37:42.66	24.79	3.14	-59.7	-70.6	3.8	8.45e-01	0	29	104	0	84	13457
2026-01-03 02:37:43.66	24.80	3.20	-59.7	-70.4	3.8	8.44e-01	0	30	104	0	84	13132
2026-01-03 02:37:44.67	24.81	3.27	-59.7	-70.6	3.8	8.44e-01	0	30	104	0	84	13450
2026-01-03 02:37:45.67	24.82	3.34	-59.7	-70.6	3.8	8.44e-01	0	29	104	0	84	13473
2026-01-03 02:37:46.67	24.82	3.40	-59.7	-70.2	3.9	8.44e-01	0	29	104	0	84	12864
2026-01-03 02:37:47.67	24.83	3.47	-59.5	-69.0	4.1	8.41e-01	0	30	0	0	84	11281
2026-01-03 02:37:48.67	24.84	3.54	-59.4	-67.8	4.5	8.30e-01	0	30	0	0	84	9804
2026-01-03 02:37:49.67	24.85	3.61	-59.1	-66.1	5.3	7.45e-01	0	30	0	0	84	8077
2026-01-03 02:37:50.66	24.86	3.67	-58.7	-64.5	6.4	3.37e-01	0	30	0	4194304	84	6719
2026-01-03 02:37:51.66	24.86	3.74	-58.2	-63.1	7.4	1.16e-01	0	30	0	9437184	82	6382
2026-01-03 02:37:52.67	24.87	3.81	-57.6	-61.6	8.7	3.63e-02	0	30	0	15728640	81	5706
2026-01-03 02:37:53.67	24.88	3.88	-57.0	-60.3	9.8	4.70e-03	0	30	0	20971520	80	5181
2026-01-03 02:37:54.67	24.89	3.95	-56.3	-59.0	10.9	8.79e-04	0	30	0	26214400	79	4754
2026-01-03 02:37:55.68	24.89	4.02	-55.7	-58.0	11.7	1.20e-04	0	30	0	32505856	78	4479
2026-01-03 02:37:56.68	24.90	4.08	-55.2	-57.4	12.2	1.25e-05	0	30	0	37748736	77	4392
2026-01-03 02:37:57.68	24.91	4.15	-55.0	-57.0	12.4	5.70e-06	0	30	0	44040192	76	4443
2026-01-03 02:37:58.69	24.92	4.22	-54.6	-56.4	12.7	0.00e+00	0	30	0	49283072	75	4422
2026-01-03 02:37:59.69	24.93	4.29	-54.3	-56.0	13.0	0.00e+00	0	30	0	54525952	75	4210
2026-01-03 02:38:00.69	24.93	4.36	-54.2	-55.9	13.1	0.00e+00	0	30	0	60817408	75	4154
2026-01-03 02:38:01.68	24.94	4.43	-54.0	-55.7	13.2	0.00e+00	0	30	0	66060288	74	4296
2026-01-03 02:38:02.69	24.95	4.50	-54.1	-55.7	13.2	0.00e+00	0	30	0	71303168	74	4315
2026-01-03 02:38:03.68	24.96	4.57	-54.2	-55.9	13.0	0.00e+00	0	30	0	77594624	74	4404
2026-01-03 02:38:04.69	24.97	4.64	-54.3	-56.0	13.0	0.00e+00	0	30	0	82837504	74	4461
2026-01-03 02:38:05.69	24.98	4.71	-54.5	-56.4	12.7	0.00e+00	0	30	0	88080384	74	4658
2026-01-03 02:38:06.68	24.98	4.78	-54.9	-56.9	12.3	1.10e-06	0	30	0	94371840	75	4692
2026-01-03 02:38:07.68	24.99	4.85	-55.2	-57.4	12.0	8.00e-06	0	30	0	99614720	75	4939
2026-01-03 02:38:08.68	25.00	4.92	-55.5	-57.7	11.8	1.14e-05	0	30	0	105906176	76	4839
2026-01-03 02:38:09.68	25.01	4.99	-56.0	-58.5	11.3	5.14e-05	0	30	0	111149056	77	4988
2026-01-03 02:38:10.69	25.02	5.06	-53.6	-55.0	13.6	3.08e-05	0	30	0	116391936	73	4239
2026-01-03 02:38:11.69	25.02	5.13	-53.3	-54.6	13.9	0.00e+00	0	30	0	122683392	72	4265
2026-01-03 02:38:12.68	25.03	5.21	-57.5	-61.4	9.0	2.36e-04	0	30	0	127926272	80	5860
2026-01-03 02:38:13.68	25.04	5.28	-53.9	-55.3	13.4	7.58e-02	0	30	0	133169152	74	4137
2026-01-03 02:38:14.69	25.05	5.35	-56.3	-58.9	11.3	0.00e+00	0	30	0	139460608	77	5266
2026-01-03 02:38:15.69	25.06	5.42	-52.2	-53.3	14.6	4.96e-03	0	30	0	144703488	71	3870
2026-01-03 02:38:16.69	25.07	5.49	-51.8	-52.8	14.7	0.00e+00	0	30	0	150994944	70	3913
2026-01-03 02:38:17.69	25.07	5.57	-51.5	-52.5	14.9	0.00e+00	0	30	0	156237824	69	3990
2026-01-03 02:38:18.69	25.08	5.64	-51.4	-52.4	14.9	0.00e+00	0	30	0	161480704	69	3949
2026-01-03 02:38:19.69	25.09	5.71	-51.6	-52.6	14.9	0.00e+00	0	30	0	167772160	69	4010
2026-01-03 02:38:20.70	25.10	5.79	-51.5	-52.5	14.9	0.00e+00	0	30	0	173015040	69	3962
2026-01-03 02:38:21.70	25.11	5.86	-51.4	-52.4	14.9	0.00e+00	0	30	0	179306496	69	3928
2026-01-03 02:38:22.70	25.12	5.93	-51.4	-52.4	14.9	0.00e+00	0	30	0	184549376	69	3937
2026-01-03 02:38:23.70	25.12	6.01	-51.5	-52.5	14.9	0.00e+00	0	30	0	189792256	69	3989
2026-01-03 02:38:24.70	25.13	6.08	-51.5	-52.5	14.9	0.00e+00	0	30	0	196083712	69	3966
2026-01-03 02:38:25.69	25.14	6.15	-51.4	-52.4	14.9	0.00e+00	0	30	0	201326592	69	3938
2026-01-03 02:38:26.69	25.15	6.23	-51.4	-52.3	15.0	0.00e+00	0	30	0	206569472	69	3899
2026-01-03 02:38:27.69	25.16	6.30	-51.3	-52.2	15.0	0.00e+00	0	30	0	212860928	69	3848
2026-01-03 02:38:28.70	25.17	6.38	-51.2	-52.2	15.0	0.00e+00	0	30	0	218103808	69	3842
2026-01-03 02:38:29.69	25.18	6.45	-51.4	-52.3	15.0	0.00e+00	0	30	0	223346688	69	3899
2026-01-03 02:38:30.69	25.18	6.53	-51.3	-52.3	15.0	0.00e+00	0	30	0	229638144	69	3869
2026-01-03 02:38:31.70	25.19	6.60	-51.2	-52.1	15.1	0.00e+00	0	30	0	234881024	69	3796
2026-01-03 02:38:32.69	25.20	6.68	-51.1	-52.1	15.1	0.00e+00	0	31	0	241172480	68	4007
2026-01-03 02:38:33.69	25.21	6.75	-51.1	-52.0	15.1	0.00e+00	0	30	0	246415360	68	3969
2026-01-03 02:38:34.69	25.22	6.83	-51.2	-52.1	15.1	0.00e+00	0	30	0	251658240	68	4013
2026-01-03 02:38:35.69	25.23	6.91	-51.1	-52.0	15.1	0.00e+00	0	30	0	257949696	68	3987
2026-01-03 02:38:36.69	25.24	6.98	-51.1	-52.1	15.1	0.00e+00	0	30	0	263192576	68	4008
2026-01-03 02:38:37.69	25.25	7.06	-51.1	-52.0	15.1	0.00e+00	0	31	0	268435456	68	3989
2026-01-03 02:38:38.70	25.25	7.14	-51.1	-52.0	15.1	0.00e+00	0	31	0	274726912	68	3999
2026-01-03 02:38:39.70	25.26	7.22	-51.1	-52.0	15.1	0.00e+00	0	30	0	279969792	68	3986
2026-01-03 02:38:40.71	25.27	7.29	-51.0	-51.8	15.2	0.00e+00	0	31	0	285212672	68	3910
2026-01-03 02:38:41.71	25.28	7.37	-51.0	-51.9	15.2	0.00e+00	0	31	0	291504128	68	3941
2026-01-03 02:38:42.70	25.29	7.45	-51.0	-51.9	15.2	0.00e+00	0	30	0	296747008	68	3919
2026-01-03 02:38:43.70	25.30	7.53	-51.0	-51.9	15.2	0.00e+00	0	31	0	303038464	68	3934
2026-01-03 02:38:44.70	25.31	7.61	-51.1	-52.0	15.1	0.00e+00	0	30	0	308281344	68	3976
2026-01-03 02:38:45.70	25.32	7.68	-51.0	-51.9	15.2	0.00e+00	0	31	0	313524224	68	3940
2026-01-03 02:38:46.70	25.33	7.76	-51.0	-51.9	15.2	0.00e+00	0	31	0	319815680	68	3931
2026-01-03 02:38:47.69	25.33	7.84	-51.0	-51.9	15.2	0.00e+00	0	31	0	325058560	68	3950
2026-01-03 02:38:48.70	25.34	7.92	-51.1	-51.9	15.2	0.00e+00	0	31	0	330301440	68	3958
2026-01-03 02:38:49.70	25.35	8.00	-51.0	-51.9	15.2	0.00e+00	0	30	0	336592896	68	3916
2026-01-03 02:38:50.71	25.36	8.08	-51.0	-51.9	15.2	0.00e+00	0	30	0	341835776	68	3932
2026-01-03 02:38:51.70	25.37	8.16	-51.0	-51.9	15.2	0.00e+00	0	31	0	347078656	68	3953
2026-01-03 02:38:52.70	25.38	8.24	-51.2	-52.1	15.1	0.00e+00	0	30	0	353370112	68	4034
2026-01-03 02:38:53.71	25.39	8.32	-51.1	-52.0	15.2	0.00e+00	0	31	0	358612992	68	3962
2026-01-03 02:38:54.70	25.40	8.40	-51.0	-51.9	15.2	0.00e+00	0	31	0	364904448	68	3950
2026-01-03 02:38:55.71	25.41	8.49	-51.0	-51.9	15.2	0.00e+00	0	30	0	370147328	68	3941
2026-01-03 02:38:56.71	25.42	8.57	-50.9	-51.7	15.3	0.00e+00	0	31	0	375390208	68	3864
2026-01-03 02:38:57.72	25.43	8.65	-50.9	-51.8	15.3	0.00e+00	0	31	0	381681664	68	3871
2026-01-03 02:38:58.72	25.44	8.73	-50.8	-51.7	15.3	0.00e+00	0	30	0	386924544	68	3849
2026-01-03 02:38:59.72	25.44	8.81	-50.9	-51.8	15.3	0.00e+00	0	31	0	392167424	68	3881
2026-01-03 02:39:00.72	25.45	8.90	-50.9	-51.8	15.3	0.00e+00	0	31	0	398458880	68	3869
2026-01-03 02:39:01.72	25.46	8.98	-50.9	-51.7	15.3	0.00e+00	0	30	0	403701760	68	3865
2026-01-03 02:39:02.72	25.47	9.06	-50.8	-51.7	15.3	0.00e+00	0	31	0	408944640	68	3846
2026-01-03 02:39:03.72	25.48	9.15	-50.8	-51.6	15.3	0.00e+00	0	31	0	415236096	68	3809
2026-01-03 02:39:04.72	25.49	9.23	-50.8	-51.7	15.3	0.00e+00	0	31	0	420478976	68	3839
2026-01-03 02:39:05.72	25.50	9.31	-50.9	-51.8	15.3	0.00e+00	0	31	0	426770432	68	3882
2026-01-03 02:39:06.71	25.51	9.40	-50.7	-51.6	15.4	0.00e+00	0	31	0	432013312	68	3790
2026-01-03 02:39:07.72	25.52	9.48	-50.7	-51.6	15.4	0.00e+00	0	31	0	437256192	68	3788
2026-01-03 02:39:08.73	25.53	9.57	-50.5	-51.4	15.3	0.00e+00	0	31	0	443547648	67	3918
2026-01-03 02:39:09.72	25.54	9.65	-50.6	-51.4	15.3	0.00e+00	0	31	0	448790528	67	3940
2026-01-03 02:39:10.72	25.55	9.74	-50.6	-51.5	15.3	0.00e+00	0	31	0	454033408	67	3959
2026-01-03 02:39:11.72	25.56	9.82	-50.7	-51.5	15.3	0.00e+00	0	31	0	460324864	67	3988
2026-01-03 02:39:12.73	25.57	9.91	-50.6	-51.4	15.3	0.00e+00	0	31	0	465567744	67	3934
2026-01-03 02:39:13.72	25.58	10.00	-50.6	-51.4	15.4	0.00e+00	0	31	0	470810624	67	3951
2026-01-03 02:39:14.72	25.59	10.08	-50.6	-51.5	15.3	0.00e+00	0	31	0	477102080	67	3974
2026-01-03 02:39:15.72	25.60	10.17	-50.5	-51.4	15.4	0.00e+00	0	31	0	482344960	67	3914
2026-01-03 02:39:16.71	25.61	10.26	-50.6	-51.5	15.3	0.00e+00	0	31	0	488636416	67	3961
2026-01-03 02:39:17.71	25.62	10.34	-50.5	-51.3	15.4	0.00e+00	0	31	0	493879296	67	3904
2026-01-03 02:39:18.71	25.63	10.43	-50.3	-51.1	15.5	0.00e+00	0	31	0	499122176	67	3809
2026-01-03 02:39:19.71	25.64	10.52	-50.3	-51.1	15.5	0.00e+00	0	31	0	505413632	67	3817
2026-01-03 02:39:20.72	25.65	10.61	-50.2	-51.1	15.5	0.00e+00	0	31	0	510656512	67	3782
2026-01-03 02:39:21.71	25.66	10.70	-50.3	-51.1	15.5	0.00e+00	0	31	0	515899392	67	3823
2026-01-03 02:39:22.71	25.67	10.79	-50.4	-51.2	15.5	0.00e+00	0	30	0	522190848	67	3835
2026-01-03 02:39:23.70	25.68	10.87	-50.2	-51.0	15.5	0.00e+00	0	31	0	527433728	67	3772
2026-01-03 02:39:24.71	25.69	10.96	-50.3	-51.1	15.5	0.00e+00	0	31	0	532676608	67	3801
2026-01-03 02:39:25.70	25.70	11.05	-50.3	-51.1	15.5	0.00e+00	0	31	0	538968064	67	3786
2026-01-03 02:39:26.71	25.71	11.14	-50.3	-51.1	15.5	0.00e+00	0	31	0	544210944	67	3817
2026-01-03 02:39:27.70	25.72	11.23	-50.2	-51.0	15.5	0.00e+00	0	31	0	550502400	67	3772
2026-01-03 02:39:28.70	25.73	11.33	-50.2	-51.0	15.5	0.00e+00	0	31	0	555745280	66	3968
2026-01-03 02:39:29.70	25.74	11.42	-50.3	-51.1	15.5	0.00e+00	0	31	0	560988160	66	4011
2026-01-03 02:39:30.69	25.75	11.51	-50.3	-51.1	15.5	0.00e+00	0	31	0	566231040	66	4016
2026-01-03 02:39:31.69	25.76	11.60	-50.2	-51.0	15.5	0.00e+00	0	31	0	572522496	66	3989
2026-01-03 02:39:32.69	25.77	11.69	-50.3	-51.1	15.5	0.00e+00	0	31	0	577765376	66	4011
2026-01-03 02:39:33.69	25.78	11.79	-50.2	-51.0	15.5	0.00e+00	0	31	0	584056832	66	3966
2026-01-03 02:39:34.69	25.79	11.88	-50.2	-51.1	15.5	0.00e+00	0	31	0	589299712	66	4012
2026-01-03 02:39:35.69	25.80	11.97	-50.3	-51.2	15.4	0.00e+00	0	31	0	594542592	66	4057
2026-01-03 02:39:36.69	25.81	12.07	-50.2	-51.0	15.5	0.00e+00	0	31	0	600834048	66	3994
2026-01-03 02:39:37.69	25.82	12.16	-50.2	-51.0	15.5	0.00e+00	0	31	0	606076928	66	3988
2026-01-03 02:39:38.69	25.83	12.25	-50.2	-51.0	15.5	0.00e+00	0	31	0	611319808	66	3989
2026-01-03 02:39:39.69	25.84	12.35	-50.1	-50.9	15.5	0.00e+00	0	31	0	617611264	66	3953
2026-01-03 02:39:40.69	25.85	12.44	-50.1	-50.8	15.6	0.00e+00	0	31	0	622854144	66	3911
2026-01-03 02:39:41.70	25.86	12.54	-50.1	-50.9	15.6	0.00e+00	0	31	0	629145600	66	3916
2026-01-03 02:39:42.71	25.87	12.64	-50.1	-50.9	15.6	0.00e+00	0	31	0	634388480	66	3916
2026-01-03 02:39:43.70	25.89	12.73	-50.1	-50.9	15.5	0.00e+00	0	31	0	639631360	66	3953
2026-01-03 02:39:44.70	25.90	12.83	-50.1	-50.9	15.5	0.00e+00	0	31	0	645922816	66	3957
2026-01-03 02:39:45.71	25.91	12.93	-50.1	-50.9	15.5	0.00e+00	0	31	0	651165696	66	3937
2026-01-03 02:39:46.70	25.92	13.03	-50.1	-50.9	15.5	0.00e+00	0	31	0	657457152	66	3937
2026-01-03 02:39:47.71	25.93	13.12	-50.0	-50.8	15.6	0.00e+00	0	31	0	662700032	66	3874
2026-01-03 02:39:48.71	25.94	13.22	-50.0	-50.8	15.6	0.00e+00	0	31	0	667942912	66	3883
2026-01-03 02:39:49.71	25.95	13.32	-50.1	-50.8	15.6	0.00e+00	0	31	0	674234368	66	3905
2026-01-03 02:39:50.71	25.96	13.42	-49.9	-50.7	15.6	0.00e+00	0	31	0	679477248	66	3856
2026-01-03 02:39:51.70	25.97	13.52	-49.9	-50.6	15.6	0.00e+00	0	31	0	684720128	66	3812
2026-01-03 02:39:52.70	25.98	13.62	-49.8	-50.6	15.7	0.00e+00	0	31	0	691011584	66	3812
2026-01-03 02:39:53.71	26.00	13.72	-49.8	-50.6	15.7	0.00e+00	0	31	0	696254464	66	3799
2026-01-03 02:39:54.70	26.01	13.82	-49.8	-50.6	15.7	0.00e+00	0	31	0	701497344	66	3802
2026-01-03 02:39:55.70	26.02	13.92	-49.7	-50.5	15.7	0.00e+00	0	31	0	707788800	66	3759
2026-01-03 02:39:56.70	26.03	14.02	-49.6	-50.3	15.7	0.00e+00	0	31	0	713031680	65	3908
2026-01-03 02:39:57.70	26.04	14.13	-49.5	-50.3	15.7	0.00e+00	0	31	0	719323136	65	3870
2026-01-03 02:39:58.70	26.05	14.23	-49.5	-50.3	15.7	0.00e+00	0	31	0	724566016	65	3889
2026-01-03 02:39:59.70	26.06	14.33	-49.5	-50.2	15.7	0.00e+00	0	31	0	729808896	65	3850
2026-01-03 02:40:00.70	26.08	14.44	-49.4	-50.1	15.8	0.00e+00	0	31	0	736100352	65	3814
2026-01-03 02:40:01.70	26.09	14.54	-49.4	-50.2	15.8	0.00e+00	0	31	0	741343232	65	3827
2026-01-03 02:40:02.70	26.10	14.64	-49.6	-50.3	15.7	0.00e+00	0	31	0	746586112	65	3887
2026-01-03 02:40:03.71	26.11	14.75	-49.3	-50.1	15.8	0.00e+00	0	31	0	752877568	65	3793
2026-01-03 02:40:04.70	26.12	14.85	-49.2	-49.9	15.9	0.00e+00	0	31	0	758120448	65	3737
2026-01-03 02:40:05.70	26.13	14.96	-49.3	-50.0	15.8	0.00e+00	0	31	0	763363328	65	3776
2026-01-03 02:40:06.70	26.15	15.07	-49.2	-49.9	15.9	0.00e+00	0	31	0	769654784	65	3721
2026-01-03 02:40:07.71	26.16	15.17	-49.2	-49.9	15.9	0.00e+00	0	31	0	774897664	65	3717
2026-01-03 02:40:08.70	26.17	15.28	-49.1	-49.9	15.8	0.00e+00	0	31	0	781189120	64	3917
2026-01-03 02:40:09.70	26.18	15.39	-49.0	-49.7	15.9	0.00e+00	0	31	0	786432000	64	3864
2026-01-03 02:40:10.69	26.19	15.49	-49.1	-49.8	15.9	0.00e+00	0	31	0	791674880	64	3869
2026-01-03 02:40:11.70	26.21	15.60	-49.0	-49.6	15.9	0.00e+00	0	31	0	797966336	64	3823
2026-01-03 02:40:12.70	26.22	15.71	-48.9	-49.6	15.9	0.00e+00	0	31	0	803209216	64	3784
2026-01-03 02:40:13.69	26.23	15.82	-48.8	-49.5	15.9	0.00e+00	0	31	0	808452096	64	3746
2026-01-03 02:40:14.69	26.24	15.93	-48.8	-49.4	16.0	0.00e+00	0	31	0	814743552	64	3732
2026-01-03 02:40:15.70	26.26	16.04	-48.7	-49.4	16.0	0.00e+00	0	31	0	819986432	64	3701
2026-01-03 02:40:16.69	26.27	16.15	-48.8	-49.5	15.9	0.00e+00	0	31	0	825229312	64	3757
2026-01-03 02:40:17.69	26.28	16.26	-48.9	-49.6	15.9	0.00e+00	0	31	0	831520768	64	3782
2026-01-03 02:40:18.69	26.29	16.38	-48.7	-49.4	15.9	0.00e+00	0	31	0	836763648	63	3919
2026-01-03 02:40:19.69	26.31	16.49	-48.6	-49.2	15.9	0.00e+00	0	31	0	842006528	63	3858
2026-01-03 02:40:20.69	26.32	16.60	-48.7	-49.3	15.9	0.00e+00	0	31	0	848297984	63	3895
2026-01-03 02:40:21.69	26.33	16.72	-48.6	-49.2	16.0	0.00e+00	0	31	0	853540864	63	3853
2026-01-03 02:40:22.69	26.35	16.83	-48.5	-49.2	16.0	0.00e+00	0	31	0	858783744	63	3837
2026-01-03 02:40:23.69	26.36	16.94	-48.5	-49.2	16.0	0.00e+00	0	31	0	865075200	63	3837
2026-01-03 02:40:24.69	26.37	17.06	-48.5	-49.1	16.0	0.00e+00	0	31	0	870318080	63	3814
2026-01-03 02:40:25.69	26.38	17.18	-48.4	-49.1	16.0	0.00e+00	0	31	0	875560960	63	3800
2026-01-03 02:40:26.69	26.40	17.29	-48.5	-49.1	16.0	0.00e+00	0	31	0	881852416	63	3809
2026-01-03 02:40:27.67	26.41	17.41	-48.4	-49.0	16.0	0.00e+00	0	31	0	887095296	63	3777
2026-01-03 02:40:28.68	26.42	17.52	-48.4	-49.0	16.0	0.00e+00	0	31	0	893386752	63	3769
2026-01-03 02:40:29.68	26.44	17.64	-48.4	-49.0	16.0	0.00e+00	0	31	0	898629632	63	3774
2026-01-03 02:40:30.68	26.45	17.76	-48.5	-49.1	16.0	0.00e+00	0	31	0	903872512	63	3809
2026-01-03 02:40:31.68	26.46	17.88	-48.3	-49.0	16.1	0.00e+00	0	31	0	910163968	63	3750
2026-01-03 02:40:32.67	26.48	18.00	-48.4	-49.0	16.0	0.00e+00	0	31	0	915406848	63	3769
2026-01-03 02:40:33.67	26.49	18.12	-48.3	-49.0	16.1	0.00e+00	0	31	0	920649728	63	3755
2026-01-03 02:40:34.67	26.50	18.24	-48.3	-49.0	16.1	0.00e+00	0	31	0	926941184	63	3741
2026-01-03 02:40:35.67	26.52	18.36	-48.2	-48.9	16.1	0.00e+00	0	31	0	932184064	63	3710
2026-01-03 02:40:36.67	26.53	18.48	-48.3	-48.9	16.1	0.00e+00	0	31	0	937426944	63	3727
2026-01-03 02:40:37.67	26.55	18.61	-48.2	-48.8	16.0	0.00e+00	0	31	0	943718400	62	3886
2026-01-03 02:40:38.67	26.56	18.73	-48.2	-48.8	16.0	0.00e+00	0	31	0	948961280	62	3908
2026-01-03 02:40:39.67	26.57	18.85	-48.2	-48.9	16.0	0.00e+00	0	31	0	955252736	62	3933
2026-01-03 02:40:40.67	26.59	18.98	-48.2	-48.8	16.1	0.00e+00	0	31	0	960495616	62	3892
2026-01-03 02:40:41.67	26.60	19.10	-48.3	-48.9	16.0	0.00e+00	0	31	0	965738496	62	3952
2026-01-03 02:40:42.68	26.62	19.23	-48.3	-48.9	16.0	0.00e+00	0	31	0	972029952	62	3936
2026-01-03 02:40:43.68	26.63	19.36	-48.2	-48.9	16.0	0.00e+00	0	31	0	977272832	62	3920
2026-01-03 02:40:44.68	26.65	19.48	-48.3	-49.0	16.0	0.00e+00	0	31	0	982515712	62	3960
2026-01-03 02:40:45.68	26.66	19.61	-48.3	-48.9	16.0	0.00e+00	0	31	0	988807168	62	3931
2026-01-03 02:40:46.69	26.68	19.74	-48.1	-48.8	16.1	0.00e+00	0	31	0	994050048	62	3879
2026-01-03 02:40:47.68	26.69	19.87	-48.2	-48.8	16.0	0.00e+00	0	31	0	999292928	62	3898
2026-01-03 02:40:48.69	26.70	20.00	-48.1	-48.8	16.0	0.00e+00	0	31	0	1005584384	62	3869
2026-01-03 02:40:49.67	26.72	20.13	-47.9	-48.5	16.1	0.00e+00	0	31	0	1010827264	62	3767
2026-01-03 02:40:50.68	26.73	20.26	-47.9	-48.5	16.2	0.00e+00	0	31	0	1017118720	62	3758
2026-01-03 02:40:51.67	26.75	20.39	-47.8	-48.4	16.2	0.00e+00	0	31	0	1022361600	62	3719
2026-01-03 02:40:52.68	26.76	20.52	-47.8	-48.4	16.2	0.00e+00	0	31	0	1027604480	62	3724
2026-01-03 02:40:53.68	26.78	20.66	-47.8	-48.4	16.2	0.00e+00	0	31	0	1033895936	62	3697
2026-01-03 02:40:54.68	26.80	20.79	-47.7	-48.3	16.2	0.00e+00	0	31	0	1039138816	62	3690
2026-01-03 02:40:55.68	26.81	20.93	-47.6	-48.2	16.1	0.00e+00	0	31	0	1044381696	61	3868
2026-01-03 02:40:56.68	26.83	21.06	-47.5	-48.1	16.2	0.00e+00	0	31	0	1050673152	61	3823
2026-01-03 02:40:57.68	26.84	21.20	-47.5	-48.1	16.2	0.00e+00	0	31	0	1055916032	61	3811
2026-01-03 02:40:58.69	26.86	21.34	-47.6	-48.2	16.1	0.00e+00	0	31	0	1061158912	61	3847
2026-01-03 02:40:59.69	26.87	21.47	-47.6	-48.2	16.1	0.00e+00	0	31	0	1067450368	61	3842
2026-01-03 02:41:00.68	26.89	21.61	-47.7	-48.3	16.1	0.00e+00	0	31	0	1072693248	61	3891
2026-01-03 02:41:01.68	26.91	21.75	-47.7	-48.3	16.1	0.00e+00	0	31	0	1078984704	61	3904
2026-01-03 02:41:02.68	26.92	21.89	-47.7	-48.3	16.1	0.00e+00	0	31	0	1084227584	61	3888
2026-01-03 02:41:03.68	26.94	22.03	-47.7	-48.3	16.1	0.00e+00	0	31	0	1089470464	61	3900
2026-01-03 02:41:04.67	26.96	22.17	-47.7	-48.3	16.1	0.00e+00	0	31	0	1095761920	61	3887
2026-01-03 02:41:05.68	26.97	22.31	-47.7	-48.3	16.1	0.00e+00	0	31	0	1101004800	61	3886
2026-01-03 02:41:06.67	26.99	22.46	-47.5	-48.1	16.2	0.00e+00	0	31	0	1106247680	61	3821
2026-01-03 02:41:07.67	27.00	22.60	-47.5	-48.1	16.2	0.00e+00	0	31	0	1112539136	61	3782
2026-01-03 02:41:08.67	27.02	22.74	-47.4	-48.0	16.2	0.00e+00	0	31	0	1117782016	61	3743
2026-01-03 02:41:09.67	27.04	22.89	-47.4	-48.0	16.2	0.00e+00	0	31	0	1124073472	61	3743
2026-01-03 02:41:10.67	27.06	23.04	-47.3	-47.9	16.3	0.00e+00	0	31	0	1129316352	61	3713
2026-01-03 02:41:11.66	27.07	23.18	-47.3	-47.9	16.3	0.00e+00	0	31	0	1134559232	61	3721
2026-01-03 02:41:12.66	27.09	23.33	-47.2	-47.8	16.3	0.00e+00	0	31	0	1140850688	61	3685
2026-01-03 02:41:13.66	27.11	23.48	-47.2	-47.8	16.3	0.00e+00	0	31	0	1146093568	61	3657
2026-01-03 02:41:14.66	27.13	23.63	-47.2	-47.7	16.2	0.00e+00	0	31	0	1151336448	60	3866
2026-01-03 02:41:15.67	27.14	23.78	-47.1	-47.7	16.2	0.00e+00	0	31	0	1157627904	60	3853
2026-01-03 02:41:16.67	27.16	23.93	-47.1	-47.7	16.2	0.00e+00	0	31	0	1162870784	60	3858
2026-01-03 02:41:17.67	27.18	24.08	-47.1	-47.7	16.2	0.00e+00	0	31	0	1168113664	60	3850
2026-01-03 02:41:18.68	27.20	24.24	-47.0	-47.6	16.2	0.00e+00	0	31	0	1174405120	60	3818
2026-01-03 02:41:19.68	27.22	24.39	-46.9	-47.5	16.3	0.00e+00	0	31	0	1179648000	60	3742
2026-01-03 02:41:20.68	27.23	24.55	-46.9	-47.5	16.3	0.00e+00	0	31	0	1185939456	60	3750
2026-01-03 02:41:21.68	27.25	24.70	-47.0	-47.5	16.3	0.00e+00	0	31	0	1191182336	60	3769
2026-01-03 02:41:22.66	27.27	24.86	-47.0	-47.5	16.3	0.00e+00	0	31	0	1196425216	60	3768
2026-01-03 02:41:23.66	27.29	25.02	-47.0	-47.6	16.2	0.00e+00	0	31	0	1202716672	60	3790
2026-01-03 02:41:24.66	27.31	25.18	-47.0	-47.6	16.3	0.00e+00	0	31	0	1207959552	60	3794
2026-01-03 02:41:25.65	27.33	25.33	-47.1	-47.7	16.2	0.00e+00	0	31	0	1213202432	60	3848
2026-01-03 02:41:26.65	27.35	25.49	-47.1	-47.6	16.2	0.00e+00	0	31	0	1219493888	60	3819
2026-01-03 02:41:27.65	27.37	25.66	-47.2	-47.7	16.2	0.00e+00	0	31	0	1224736768	60	3867
2026-01-03 02:41:28.65	27.39	25.82	-47.1	-47.7	16.2	0.00e+00	0	31	0	1229979648	60	3828
2026-01-03 02:41:29.65	27.41	25.98	-47.1	-47.6	16.2	0.00e+00	0	31	0	1236271104	60	3816
2026-01-03 02:41:30.64	27.43	26.15	-47.1	-47.6	16.2	0.00e+00	0	31	0	1241513984	60	3818
2026-01-03 02:41:31.65	27.45	26.31	-47.0	-47.6	16.3	0.00e+00	0	31	0	1247805440	60	3805
2026-01-03 02:41:32.65	27.47	26.48	-46.9	-47.5	16.3	0.00e+00	0	31	0	1253048320	60	3761
2026-01-03 02:41:33.65	27.49	26.65	-47.0	-47.6	16.3	0.00e+00	0	31	0	1258291200	60	3790
2026-01-03 02:41:34.65	27.51	26.82	-46.9	-47.5	16.3	0.00e+00	0	31	0	1264582656	60	3743
2026-01-03 02:41:35.65	27.53	26.99	-46.8	-47.4	16.3	0.00e+00	0	31	0	1269825536	60	3718
2026-01-03 02:41:36.65	27.55	27.16	-46.9	-47.5	16.3	0.00e+00	0	31	0	1275068416	60	3763
2026-01-03 02:41:37.66	27.57	27.33	-47.0	-47.5	16.3	0.00e+00	0	31	0	1281359872	60	3769
2026-01-03 02:41:38.65	27.59	27.50	-46.8	-47.4	16.3	0.00e+00	0	31	0	1286602752	60	3703
2026-01-03 02:41:39.65	27.61	27.68	-46.9	-47.4	16.3	0.00e+00	0	31	0	1291845632	60	3732
2026-01-03 02:41:40.66	27.64	27.85	-46.9	-47.5	16.3	0.00e+00	0	31	0	1298137088	60	3756
2026-01-03 02:41:41.66	27.66	28.03	-47.0	-47.6	16.3	0.00e+00	0	31	0	1303379968	60	3788
2026-01-03 02:41:42.66	27.68	28.21	-47.2	-47.8	16.2	0.00e+00	0	31	0	1309671424	60	3886
2026-01-03 02:41:43.66	27.70	28.39	-47.1	-47.7	16.2	0.00e+00	0	31	0	1314914304	60	3829
2026-01-03 02:41:44.66	27.72	28.57	-47.1	-47.7	16.2	0.00e+00	0	31	0	1320157184	60	3855
2026-01-03 02:41:45.67	27.75	28.75	-47.2	-47.8	16.2	0.00e+00	0	31	0	1326448640	60	3912
2026-01-03 02:41:46.67	27.77	28.93	-47.1	-47.7	16.2	0.00e+00	0	31	0	1331691520	60	3826
2026-01-03 02:41:47.67	27.79	29.11	-47.1	-47.6	16.2	0.00e+00	0	31	0	1336934400	60	3822
2026-01-03 02:41:48.67	27.82	29.30	-46.9	-47.4	16.3	0.00e+00	0	31	0	1343225856	60	3732
2026-01-03 02:41:49.68	27.84	29.49	-46.9	-47.5	16.3	0.00e+00	0	31	0	1348468736	60	3747
2026-01-03 02:41:50.68	27.86	29.67	-47.0	-47.6	16.3	0.00e+00	0	31	0	1353711616	60	3784
2026-01-03 02:41:51.68	27.89	29.86	-46.8	-47.4	16.4	0.00e+00	0	31	0	1360003072	60	3699
2026-01-03 02:41:52.68	27.91	30.05	-46.9	-47.5	16.3	0.00e+00	0	31	0	1365245952	60	3739
2026-01-03 02:41:53.68	27.94	30.24	-46.9	-47.5	16.3	0.00e+00	0	31	0	1371537408	60	3749
2026-01-03 02:41:54.67	27.96	30.43	-46.9	-47.4	16.3	0.00e+00	0	31	0	1376780288	60	3721
2026-01-03 02:41:55.68	27.99	30.63	-46.7	-47.3	16.4	0.00e+00	0	31	0	1382023168	60	3666
2026-01-03 02:41:56.68	28.01	30.82	-47.1	-47.6	16.1	0.00e+00	0	31	0	1388314624	59	4047
2026-01-03 02:41:57.68	28.04	31.02	-47.1	-47.7	16.2	0.00e+00	0	31	0	1393557504	59	4062
2026-01-03 02:41:58.68	28.06	31.22	-47.2	-47.8	16.1	0.00e+00	0	31	0	1398800384	59	4127
2026-01-03 02:41:59.68	28.09	31.42	-47.3	-47.9	16.1	0.00e+00	0	31	0	1405091840	59	4151
2026-01-03 02:42:00.68	28.12	31.62	-47.3	-47.9	16.1	0.00e+00	0	31	0	1410334720	59	4163
2026-01-03 02:42:01.68	28.14	31.82	-46.9	-47.5	16.3	0.00e+00	0	31	0	1415577600	60	3769
2026-01-03 02:42:02.67	28.17	32.02	-47.0	-47.6	16.3	0.00e+00	0	31	0	1421869056	60	3804
2026-01-03 02:42:03.67	28.20	32.22	-47.1	-47.7	16.3	0.00e+00	0	31	0	1427111936	60	3826
2026-01-03 02:42:04.68	28.22	32.43	-47.0	-47.6	16.3	0.00e+00	0	31	0	1433403392	60	3814
2026-01-03 02:42:05.67	28.25	32.63	-47.1	-47.7	16.2	0.00e+00	0	31	0	1438646272	60	3862
2026-01-03 02:42:06.68	28.28	32.85	-47.1	-47.6	16.3	0.00e+00	0	31	0	1443889152	60	3822
2026-01-03 02:42:07.67	28.31	33.05	-47.1	-47.7	16.3	0.00e+00	0	31	0	1450180608	60	3831
2026-01-03 02:42:08.67	28.34	33.26	-47.1	-47.6	16.3	0.00e+00	0	31	0	1455423488	60	3814
2026-01-03 02:42:09.68	28.37	33.48	-47.0	-47.5	16.3	0.00e+00	0	31	0	1460666368	60	3778
2026-01-03 02:42:10.69	28.40	33.70	-47.0	-47.6	16.3	0.00e+00	0	31	0	1466957824	60	3788
2026-01-03 02:42:11.69	28.42	33.91	-46.7	-47.2	16.4	0.00e+00	0	31	0	1472200704	60	3643
2026-01-03 02:42:12.69	28.45	34.13	-47.0	-47.6	16.2	0.00e+00	0	31	0	1477443584	59	4015
2026-01-03 02:42:13.69	28.49	34.35	-47.2	-47.7	16.2	0.00e+00	0	31	0	1483735040	59	4097
2026-01-03 02:42:14.69	28.52	34.57	-46.9	-47.5	16.2	0.00e+00	0	31	0	1488977920	59	3974
2026-01-03 02:42:15.68	28.55	34.79	-46.8	-47.3	16.3	0.00e+00	0	31	0	1495269376	59	3899
2026-01-03 02:42:16.67	28.58	35.01	-46.7	-47.3	16.3	0.00e+00	0	31	0	1500512256	59	3872
2026-01-03 02:42:17.65	28.61	35.23	-46.7	-47.2	16.3	0.00e+00	0	31	0	1505755136	59	3860
2026-01-03 02:42:18.65	28.64	35.46	-46.6	-47.2	16.3	0.00e+00	0	31	0	1512046592	59	3829
2026-01-03 02:42:19.66	28.67	35.69	-46.6	-47.1	16.3	0.00e+00	0	31	0	1517289472	59	3818
2026-01-03 02:42:20.66	28.71	35.92	-46.7	-47.3	16.3	0.00e+00	0	31	0	1522532352	59	3872
2026-01-03 02:42:21.66	28.74	36.15	-46.6	-47.2	16.3	0.00e+00	0	31	0	1528823808	59	3834
2026-01-03 02:42:22.66	28.77	36.38	-46.6	-47.1	16.3	0.00e+00	0	31	0	1534066688	59	3821
2026-01-03 02:42:23.66	28.81	36.62	-46.7	-47.3	16.3	0.00e+00	0	31	0	1539309568	59	3874
2026-01-03 02:42:24.66	28.84	36.86	-46.4	-47.0	16.4	0.00e+00	0	31	0	1545601024	59	3741
2026-01-03 02:42:25.66	28.88	37.09	-46.5	-47.0	16.4	0.00e+00	0	31	0	1550843904	59	3758
2026-01-03 02:42:26.66	28.91	37.33	-46.5	-47.0	16.4	0.00e+00	0	31	0	1557135360	59	3775
2026-01-03 02:42:27.66	28.95	37.58	-46.6	-47.1	16.4	0.00e+00	0	31	0	1562378240	59	3806
2026-01-03 02:42:28.66	28.99	37.82	-46.6	-47.1	16.3	0.00e+00	0	31	0	1567621120	59	3818
2026-01-03 02:42:29.66	29.02	38.07	-46.7	-47.2	16.3	0.00e+00	0	31	0	1573912576	59	3850
2026-01-03 02:42:30.66	29.06	38.31	-46.7	-47.3	16.3	0.00e+00	0	31	0	1579155456	59	3890
2026-01-03 02:42:31.66	29.10	38.56	-46.9	-47.5	16.2	0.00e+00	0	31	0	1584398336	59	3986
2026-01-03 02:42:32.66	29.14	38.81	-47.0	-47.6	16.2	0.00e+00	0	31	0	1590689792	59	4025
2026-01-03 02:42:33.65	29.18	39.06	-47.0	-47.6	16.2	0.00e+00	0	31	0	1595932672	59	4037
2026-01-03 02:42:34.65	29.22	39.32	-47.0	-47.6	16.2	0.00e+00	0	31	0	1601175552	59	4040
2026-01-03 02:42:35.66	29.26	39.58	-47.1	-47.7	16.2	0.00e+00	0	31	0	1607467008	59	4052
2026-01-03 02:42:36.65	29.30	39.83	-47.0	-47.5	16.2	0.00e+00	0	31	0	1612709888	59	3991
2026-01-03 02:42:37.65	29.34	40.09	-46.9	-47.5	16.2	0.00e+00	0	31	0	1619001344	59	3987
2026-01-03 02:42:38.65	29.38	40.36	-47.0	-47.6	16.2	0.00e+00	0	31	0	1624244224	59	4029
2026-01-03 02:42:39.65	29.42	40.62	-47.1	-47.7	16.2	0.00e+00	0	31	0	1629487104	59	4071
2026-01-03 02:42:40.65	29.47	40.89	-47.3	-47.9	16.1	0.00e+00	0	31	0	1635778560	59	4182
2026-01-03 02:42:41.65	29.51	41.16	-47.3	-47.9	16.1	0.00e+00	0	31	0	1641021440	59	4161
2026-01-03 02:42:42.65	29.55	41.43	-47.2	-47.7	16.2	0.00e+00	0	31	0	1646264320	59	4096
2026-01-03 02:42:43.65	29.60	41.70	-47.2	-47.8	16.1	0.00e+00	0	31	0	1652555776	59	4135
2026-01-03 02:42:44.65	29.65	41.97	-47.1	-47.7	16.2	0.00e+00	0	31	0	1657798656	59	4055
2026-01-03 02:42:45.65	29.69	42.25	-47.2	-47.7	16.1	0.00e+00	0	31	0	1663041536	59	4088
2026-01-03 02:42:46.66	29.74	42.53	-47.1	-47.7	16.2	0.00e+00	0	31	0	1669332992	59	4072
2026-01-03 02:42:47.65	29.79	42.81	-47.2	-47.7	16.1	0.00e+00	0	31	0	1674575872	59	4096
2026-01-03 02:42:48.65	29.84	43.09	-47.3	-47.8	16.1	0.00e+00	0	31	0	1680867328	59	4145
2026-01-03 02:42:49.65	29.89	43.38	-47.3	-47.9	16.1	0.00e+00	0	31	0	1686110208	59	4146
2026-01-03 02:42:50.65	29.94	43.66	-47.4	-47.9	16.1	0.00e+00	0	31	0	1691353088	59	4188
2026-01-03 02:42:51.65	29.99	43.95	-47.1	-47.6	16.3	0.00e+00	0	31	0	1697644544	60	3816
2026-01-03 02:42:52.65	30.04	44.24	-47.2	-47.7	16.2	0.00e+00	0	31	0	1702887424	60	3858
2026-01-03 02:42:53.64	30.09	44.53	-47.3	-47.8	16.2	0.00e+00	0	31	0	1708130304	60	3909
2026-01-03 02:42:54.64	30.15	44.83	-47.3	-47.8	16.2	0.00e+00	0	31	0	1714421760	60	3901
2026-01-03 02:42:55.63	30.20	45.12	-47.2	-47.8	16.2	0.00e+00	0	31	0	1719664640	60	3881
2026-01-03 02:42:56.63	30.26	45.42	-47.1	-47.7	16.3	0.00e+00	0	31	0	1724907520	60	3827
2026-01-03 02:42:57.62	30.31	45.72	-46.9	-47.4	16.3	0.00e+00	0	31	0	1731198976	60	3736
2026-01-03 02:42:58.62	30.37	46.03	-47.0	-47.6	16.3	0.00e+00	0	31	0	1736441856	60	3796
2026-01-03 02:42:59.62	30.43	46.33	-47.1	-47.7	16.3	0.00e+00	0	31	0	1741684736	60	3828
2026-01-03 02:43:00.63	30.49	46.64	-47.2	-47.8	16.2	0.00e+00	0	31	0	1747976192	60	3893
2026-01-03 02:43:01.63	30.55	46.96	-47.2	-47.8	16.2	0.00e+00	0	31	0	1753219072	60	3897
2026-01-03 02:43:02.64	30.62	47.27	-47.2	-47.8	16.2	0.00e+00	0	31	0	1758461952	60	3894
2026-01-03 02:43:03.64	30.68	47.59	-47.2	-47.7	16.3	0.00e+00	0	31	0	1764753408	60	3867
2026-01-03 02:43:04.63	30.74	47.90	-47.0	-47.6	16.3	0.00e+00	0	31	0	1769996288	60	3789
2026-01-03 02:43:05.63	30.81	48.22	-47.1	-47.7	16.3	0.00e+00	0	31	0	1776287744	60	3846
2026-01-03 02:43:06.63	30.88	48.55	-47.1	-47.6	16.3	0.00e+00	0	31	0	1781530624	60	3809
2026-01-03 02:43:07.63	30.95	48.87	-47.0	-47.6	16.3	0.00e+00	0	31	0	1786773504	60	3788
2026-01-03 02:43:08.63	31.02	49.20	-46.7	-47.2	16.4	0.00e+00	0	31	0	1793064960	60	3645
2026-01-03 02:43:09.63	31.09	49.53	-47.2	-47.7	16.1	0.00e+00	0	31	0	1798307840	59	4087
2026-01-03 02:43:10.63	31.16	49.86	-47.2	-47.7	16.3	0.00e+00	0	31	0	1803550720	60	3860
2026-01-03 02:43:11.64	31.24	50.20	-47.5	-48.1	16.1	0.00e+00	0	31	0	1809842176	60	4013
2026-01-03 02:43:12.63	31.31	50.53	-47.5	-48.1	16.1	0.00e+00	0	31	0	1815085056	60	4043
2026-01-03 02:43:13.64	31.39	50.88	-47.5	-48.1	16.1	0.00e+00	0	31	0	1820327936	60	4024
2026-01-03 02:43:14.63	31.47	51.21	-47.5	-48.1	16.1	0.00e+00	0	31	0	1826619392	60	4030
2026-01-03 02:43:15.64	31.55	51.56	-47.6	-48.1	16.1	0.00e+00	0	31	0	1831862272	60	4047
2026-01-03 02:43:16.64	31.63	51.91	-47.8	-48.4	16.0	0.00e+00	0	31	0	1838153728	60	4189
2026-01-03 02:43:17.63	31.72	52.26	-48.0	-48.6	16.1	0.00e+00	0	31	0	1843396608	61	4033
2026-01-03 02:43:18.63	31.80	52.61	-48.0	-48.6	16.1	0.00e+00	0	31	0	1848639488	61	4036
2026-01-03 02:43:19.63	31.89	52.96	-48.0	-48.6	16.1	0.00e+00	0	31	0	1854930944	61	4029
2026-01-03 02:43:20.63	31.98	53.32	-48.2	-48.8	16.0	0.00e+00	0	31	0	1860173824	61	4124
2026-01-03 02:43:21.63	32.08	53.68	-48.3	-48.9	16.0	0.00e+00	0	31	0	1865416704	61	4185
2026-01-03 02:43:22.63	32.17	54.04	-48.4	-49.1	16.0	0.00e+00	0	31	0	1871708160	62	4014
2026-01-03 02:43:23.63	32.27	54.41	-48.4	-49.1	16.0	0.00e+00	0	31	0	1876951040	62	4022
2026-01-03 02:43:24.62	32.37	54.77	-48.6	-49.2	16.0	0.00e+00	0	31	0	1882193920	62	4076
2026-01-03 02:43:25.62	32.47	55.14	-48.5	-49.2	16.0	0.00e+00	0	31	0	1888485376	62	4067
2026-01-03 02:43:26.62	32.58	55.51	-48.4	-49.0	16.0	0.00e+00	0	31	0	1893728256	62	3990
2026-01-03 02:43:27.62	32.68	55.88	-48.3	-48.9	16.1	0.00e+00	0	31	0	1900019712	62	3953
2026-01-03 02:43:28.62	32.79	56.26	-48.4	-49.0	16.1	0.00e+00	0	31	0	1905262592	62	3977
2026-01-03 02:43:29.62	32.91	56.64	-48.2	-48.8	16.1	0.00e+00	0	31	0	1910505472	62	3910
2026-01-03 02:43:30.63	33.03	57.03	-48.2	-48.8	16.1	0.00e+00	0	31	0	1916796928	62	3904
2026-01-03 02:43:31.62	33.14	57.41	-48.2	-48.8	16.1	0.00e+00	0	31	0	1922039808	62	3900
2026-01-03 02:43:32.62	33.27	57.79	-47.8	-48.3	16.3	0.00e+00	0	31	0	1927282688	62	3685
2026-01-03 02:43:33.62	33.39	58.18	-47.5	-48.1	16.2	0.00e+00	0	31	0	1933574144	61	3805
2026-01-03 02:43:34.63	33.53	58.58	-47.5	-48.0	16.3	0.00e+00	0	31	0	1938817024	61	3767
2026-01-03 02:43:35.63	33.66	58.97	-47.5	-48.1	16.2	0.00e+00	0	31	0	1944059904	61	3802
2026-01-03 02:43:36.63	33.80	59.37	-47.5	-48.1	16.2	0.00e+00	0	31	0	1950351360	61	3786
2026-01-03 02:43:37.63	33.94	59.77	-47.3	-47.8	16.3	0.00e+00	0	31	0	1955594240	61	3694
2026-01-03 02:43:38.62	34.09	60.17	-47.3	-47.9	16.3	0.00e+00	0	31	0	1961885696	61	3695
2026-01-03 02:43:39.63	34.24	60.58	-47.2	-47.8	16.3	0.00e+00	0	31	0	1967128576	61	3663
2026-01-03 02:43:40.63	34.39	60.98	-46.8	-47.3	16.4	0.00e+00	0	31	0	1972371456	60	3680
2026-01-03 02:43:41.63	34.56	61.39	-46.5	-47.0	16.4	0.00e+00	0	31	0	1978662912	59	3763
2026-01-03 02:43:42.64	34.72	61.81	-46.6	-47.2	16.3	0.00e+00	0	31	0	1983905792	59	3833
2026-01-03 02:43:43.64	34.90	62.22	-47.1	-47.7	16.2	0.00e+00	0	31	0	1989148672	59	4058
2026-01-03 02:43:44.64	35.07	62.64	-47.2	-47.7	16.1	0.00e+00	0	31	0	1995440128	59	4098
2026-01-03 02:43:45.65	35.26	63.06	-47.0	-47.6	16.2	0.00e+00	0	31	0	2000683008	59	4011
2026-01-03 02:43:46.65	35.45	63.48	-46.8	-47.4	16.3	0.00e+00	0	31	0	2006974464	59	3914
2026-01-03 02:43:47.65	35.65	63.90	-46.7	-47.3	16.3	0.00e+00	0	31	0	2012217344	59	3869
2026-01-03 02:43:48.65	35.85	64.33	-46.7	-47.2	16.3	0.00e+00	0	31	0	2017460224	59	3856
2026-01-03 02:43:49.65	36.06	64.75	-46.6	-47.1	16.4	0.00e+00	0	31	0	2023751680	59	3807
2026-01-03 02:43:50.65	36.28	65.18	-46.6	-47.1	16.3	0.00e+00	0	31	0	2028994560	59	3800
2026-01-03 02:43:51.65	36.51	65.61	-46.6	-47.2	16.3	0.00e+00	0	31	0	2035286016	59	3847
2026-01-03 02:43:52.66	36.75	66.05	-47.0	-47.6	16.2	0.00e+00	0	31	0	2040528896	59	4013
2026-01-03 02:43:53.67	37.00	66.49	-46.9	-47.4	16.2	0.00e+00	0	31	0	2045771776	59	3943
2026-01-03 02:43:54.67	37.26	66.93	-46.9	-47.5	16.2	0.00e+00	0	31	0	2052063232	59	3987
2026-01-03 02:43:55.67	37.53	67.37	-46.9	-47.5	16.2	0.00e+00	0	31	0	2057306112	59	3984
2026-01-03 02:43:56.66	37.80	67.80	-46.9	-47.5	16.2	0.00e+00	0	31	0	2062548992	59	3967
2026-01-03 02:43:57.67	38.10	68.25	-46.7	-47.2	16.3	0.00e+00	0	31	0	2068840448	59	3863
2026-01-03 02:43:58.67	38.40	68.70	-46.8	-47.3	16.3	0.00e+00	0	31	0	2074083328	59	3887
2026-01-03 02:43:59.67	38.72	69.14	-47.1	-47.7	16.2	0.00e+00	0	31	0	2079326208	59	4092
2026-01-03 02:44:00.68	39.06	69.59	-46.8	-47.3	16.3	0.00e+00	0	31	0	2085617664	59	3913
2026-01-03 02:44:01.68	39.41	70.04	-46.5	-47.0	16.4	0.00e+00	0	31	0	2090860544	59	3778
2026-01-03 02:44:02.68	39.77	70.49	-46.6	-47.1	16.4	0.00e+00	0	31	0	2097152000	59	3808
2026-01-03 02:44:03.68	40.16	70.95	-46.4	-46.9	16.4	0.00e+00	0	31	0	2102394880	59	3713
2026-01-03 02:44:04.68	40.56	71.40	-46.6	-47.2	16.3	0.00e+00	0	31	0	2107637760	59	3858
2026-01-03 02:44:05.68	40.99	71.85	-46.6	-47.2	16.3	0.00e+00	0	31	0	2113929216	59	3832
2026-01-03 02:44:06.68	41.44	72.31	-46.3	-46.9	16.4	0.00e+00	0	31	0	2119172096	59	3703
2026-01-03 02:44:07.68	41.91	72.77	-46.3	-46.8	16.5	0.00e+00	0	31	0	2124414976	59	3686
2026-01-03 02:44:08.69	42.42	73.23	-46.3	-46.9	16.5	0.00e+00	0	31	0	2130706432	59	3701
2026-01-03 02:44:09.68	42.94	73.68	-46.0	-46.6	16.4	0.00e+00	0	31	0	2135949312	58	3788
2026-01-03 02:44:10.68	43.50	74.14	-45.6	-46.1	16.4	0.00e+00	0	31	0	2141192192	57	3812
2026-01-03 02:44:11.68	44.10	74.59	-45.9	-46.4	16.3	0.00e+00	0	31	0	2147483648	57	3951
2026-01-03 02:44:12.69	44.74	75.06	-45.9	-46.4	16.3	0.00e+00	0	31	0	2152726528	57	3950
2026-01-03 02:44:13.69	45.41	75.51	-45.9	-46.5	16.3	0.00e+00	0	31	0	2159017984	57	3960
2026-01-03 02:44:14.69	46.14	75.97	-45.8	-46.4	16.4	0.00e+00	0	31	0	2164260864	57	3916
2026-01-03 02:44:15.69	46.91	76.43	-45.8	-46.3	16.4	0.00e+00	0	31	0	2169503744	57	3903
2026-01-03 02:44:16.68	47.72	76.88	-45.5	-46.1	16.4	0.00e+00	0	31	0	2175795200	57	3785
2026-01-03 02:44:17.67	48.60	77.33	-45.4	-45.9	16.5	0.00e+00	0	31	0	2181038080	57	3703
2026-01-03 02:44:18.67	49.56	77.78	-45.4	-45.9	16.5	0.00e+00	0	31	0	2186280960	57	3703
2026-01-03 02:44:19.67	50.58	78.23	-45.3	-45.8	16.5	0.00e+00	0	31	0	2192572416	57	3686
2026-01-03 02:44:20.67	51.69	78.68	-45.2	-45.7	16.5	0.00e+00	0	31	0	2197815296	57	3636
2026-01-03 02:44:21.67	52.90	79.12	-45.0	-45.5	16.5	0.00e+00	0	31	0	2203058176	56	3745
2026-01-03 02:44:22.66	54.19	79.56	-44.8	-45.3	16.5	0.00e+00	0	31	0	2209349632	56	3684
2026-01-03 02:44:23.66	55.61	79.99	-44.9	-45.4	16.5	0.00e+00	0	31	0	2214592512	56	3724
2026-01-03 02:44:24.67	57.18	80.43	-44.9	-45.4	16.5	0.00e+00	0	31	0	2220883968	56	3713
2026-01-03 02:44:25.67	58.88	80.85	-44.8	-45.3	16.5	0.00e+00	0	31	0	2226126848	56	3675
2026-01-03 02:44:26.67	60.75	81.26	-44.8	-45.3	16.6	0.00e+00	0	31	0	2231369728	56	3663
2026-01-03 02:44:27.67	62.80	81.67	-44.9	-45.4	16.5	0.00e+00	0	31	0	2237661184	56	3715
2026-01-03 02:44:28.67	65.06	82.06	-44.8	-45.4	16.5	0.00e+00	0	31	0	2242904064	56	3697
2026-01-03 02:44:29.67	67.56	82.44	-44.5	-45.0	16.5	0.00e+00	0	31	0	2248146944	55	3747
2026-01-03 02:44:30.67	70.32	82.81	-44.5	-45.0	16.5	0.00e+00	0	31	0	2254438400	55	3767
2026-01-03 02:44:31.67	73.37	83.16	-44.6	-45.1	16.4	0.00e+00	0	31	0	2259681280	55	3813
2026-01-03 02:44:32.66	76.70	83.49	-44.6	-45.1	16.4	0.00e+00	0	31	0	2264924160	55	3812
2026-01-03 02:44:33.67	80.45	83.79	-44.5	-45.1	16.5	0.00e+00	0	31	0	2271215616	55	3782
2026-01-03 02:44:34.65	84.45	84.06	-44.6	-45.1	16.5	0.00e+00	0	31	0	2276458496	55	3781
2026-01-03 02:44:35.66	88.95	84.31	-44.4	-44.9	16.5	0.00e+00	0	31	0	2282749952	55	3737
2026-01-03 02:44:36.66	93.77	84.52	-44.7	-45.2	16.5	0.00e+00	0	31	0	2287992832	55	3834
2026-01-03 02:44:37.66	98.93	84.68	-44.7	-45.2	16.4	0.00e+00	0	31	0	2293235712	55	3849
2026-01-03 02:44:38.65	104.32	84.80	-44.7	-45.3	16.4	0.00e+00	0	31	0	2299527168	55	3873
2026-01-03 02:44:39.65	109.96	84.87	-44.9	-45.4	16.4	0.00e+00	0	31	0	2304770048	55	3924
2026-01-03 02:44:40.65	115.72	84.89	-44.8	-45.3	16.4	0.00e+00	0	31	0	2310012928	55	3888
2026-01-03 02:44:41.65	121.46	84.86	-44.8	-45.4	16.4	0.00e+00	0	31	0	2316304384	55	3918
2026-01-03 02:44:42.65	127.08	84.78	-45.0	-45.5	16.3	0.00e+00	0	31	0	2321547264	55	3992
2026-01-03 02:44:43.66	132.53	84.65	-44.9	-45.4	16.3	0.00e+00	0	31	0	2326790144	55	3956
2026-01-03 02:44:44.66	137.63	84.48	-45.1	-45.6	16.3	0.00e+00	0	31	0	2333081600	55	4049
2026-01-03 02:44:45.66	142.38	84.26	-44.8	-45.3	16.4	0.00e+00	0	31	0	2338324480	55	3870
2026-01-03 02:44:46.66	146.76	84.01	-44.6	-45.1	16.4	0.00e+00	0	31	0	2344615936	55	3818
2026-01-03 02:44:47.67	150.81	83.73	-44.7	-45.1	16.5	0.00e+00	0	31	0	2349858816	55	3821
2026-01-03 02:44:48.68	154.48	83.42	-44.6	-45.1	16.5	0.00e+00	0	31	0	2355101696	55	3799
2026-01-03 02:44:49.67	157.75	83.09	-44.5	-45.0	16.5	0.00e+00	0	31	0	2361393152	55	3751
2026-01-03 02:44:50.68	160.76	82.73	-44.7	-45.2	16.4	0.00e+00	0	31	0	2366636032	55	3853
2026-01-03 02:44:51.68	163.46	82.36	-44.7	-45.2	16.4	0.00e+00	0	31	0	2371878912	55	3845
2026-01-03 02:44:52.69	165.93	81.97	-44.6	-45.2	16.4	0.00e+00	0	31	0	2378170368	55	3827
2026-01-03 02:44:53.68	168.11	81.58	-44.7	-45.2	16.4	0.00e+00	0	31	0	2383413248	55	3846
2026-01-03 02:44:54.68	170.12	81.17	-44.7	-45.2	16.4	0.00e+00	0	31	0	2389704704	55	3865
2026-01-03 02:44:55.68	171.95	80.75	-44.5	-45.1	16.5	0.00e+00	0	31	0	2394947584	55	3782
2026-01-03 02:44:56.68	173.62	80.33	-44.6	-45.1	16.5	0.00e+00	0	31	0	2400190464	55	3781
2026-01-03 02:44:57.67	175.13	79.90	-44.6	-45.1	16.4	0.00e+00	0	31	0	2406481920	55	3806
2026-01-03 02:44:58.68	176.54	79.46	-44.7	-45.2	16.4	0.00e+00	0	31	0	2411724800	55	3843
2026-01-03 02:44:59.67	177.81	79.02	-44.7	-45.3	16.4	0.00e+00	0	31	0	2416967680	55	3872
2026-01-03 02:45:00.68	179.01	78.57	-45.0	-45.5	16.3	0.00e+00	0	31	0	2423259136	55	3977
2026-01-03 02:45:01.68	180.10	78.13	-45.1	-45.6	16.3	0.00e+00	0	31	0	2428502016	55	4021
2026-01-03 02:45:02.68	181.11	77.67	-45.1	-45.6	16.3	0.00e+00	0	31	0	2433744896	55	4044
2026-01-03 02:45:03.69	182.06	77.22	-45.1	-45.5	16.3	0.00e+00	0	31	0	2440036352	55	4004
2026-01-03 02:45:04.69	182.93	76.76	-44.9	-45.3	16.3	0.00e+00	0	31	0	2445279232	55	3903
2026-01-03 02:45:05.69	183.74	76.31	-45.0	-45.5	16.3	0.00e+00	0	31	0	2451570688	55	3983
2026-01-03 02:45:06.69	184.50	75.85	-45.9	-46.5	16.2	0.00e+00	0	31	0	2456813568	56	4194
2026-01-03 02:45:07.70	185.21	75.39	-45.9	-46.4	16.3	0.00e+00	0	31	0	2463105024	57	3956
2026-01-03 02:45:08.70	185.88	74.93	-45.7	-46.2	16.3	0.00e+00	0	31	0	2468347904	57	3859
2026-01-03 02:45:09.70	186.50	74.47	-45.9	-46.5	16.3	0.00e+00	0	31	0	2473590784	57	3973
2026-01-03 02:45:10.70	187.09	74.01	-46.2	-46.8	16.2	0.00e+00	0	31	0	2479882240	57	4108
2026-01-03 02:45:11.71	187.65	73.55	-45.9	-46.4	16.3	0.00e+00	0	31	0	2485125120	57	3931
2026-01-03 02:45:12.71	188.17	73.09	-46.0	-46.5	16.3	0.00e+00	0	31	0	2490368000	57	3983
2026-01-03 02:45:13.71	188.66	72.63	-46.4	-47.0	16.2	0.00e+00	0	31	0	2496659456	57	4195
2026-01-03 02:45:14.71	189.13	72.18	-46.6	-47.1	16.2	0.00e+00	0	31	0	2501902336	58	4042
2026-01-03 02:45:15.71	189.57	71.72	-46.5	-47.0	16.2	0.00e+00	0	31	0	2507145216	58	3987
2026-01-03 02:45:16.72	190.00	71.26	-46.4	-46.9	16.3	0.00e+00	0	31	0	2513436672	58	3927
2026-01-03 02:45:17.72	190.40	70.81	-46.4	-46.9	16.3	0.00e+00	0	31	0	2518679552	58	3931
2026-01-03 02:45:18.73	190.78	70.35	-46.4	-47.0	16.3	0.00e+00	0	31	0	2524971008	58	3965
2026-01-03 02:45:19.72	191.14	69.90	-46.5	-47.1	16.2	0.00e+00	0	31	0	2530213888	58	4037
2026-01-03 02:45:20.73	191.48	69.45	-46.6	-47.1	16.2	0.00e+00	0	31	0	2535456768	58	4037
2026-01-03 02:45:21.73	191.81	69.00	-46.4	-46.9	16.3	0.00e+00	0	31	0	2541748224	58	3949
2026-01-03 02:45:22.73	192.13	68.56	-46.3	-46.8	16.3	0.00e+00	0	31	0	2546991104	58	3886
2026-01-03 02:45:23.72	192.43	68.12	-46.5	-47.0	16.3	0.00e+00	0	31	0	2552233984	58	3998
2026-01-03 02:45:24.72	192.71	67.67	-46.9	-47.5	16.2	0.00e+00	0	31	0	2558525440	59	3996
2026-01-03 02:45:25.72	192.99	67.23	-47.0	-47.6	16.2	0.00e+00	0	31	0	2563768320	59	4019
2026-01-03 02:45:26.72	193.26	66.79	-47.0	-47.5	16.2	0.00e+00	0	31	0	2569011200	59	3984
2026-01-03 02:45:27.72	193.51	66.35	-46.9	-47.4	16.2	0.00e+00	0	31	0	2575302656	59	3958
2026-01-03 02:45:28.72	193.75	65.92	-47.1	-47.7	16.2	0.00e+00	0	31	0	2580545536	59	4056
2026-01-03 02:45:29.71	193.99	65.49	-46.9	-47.5	16.2	0.00e+00	0	31	0	2586836992	59	3993
2026-01-03 02:45:30.71	194.21	65.06	-46.8	-47.3	16.3	0.00e+00	0	31	0	2592079872	59	3902
2026-01-03 02:45:31.72	194.43	64.62	-46.9	-47.4	16.2	0.00e+00	0	31	0	2597322752	59	3929
2026-01-03 02:45:32.72	194.64	64.20	-46.7	-47.2	16.3	0.00e+00	0	31	0	2603614208	59	3863
2026-01-03 02:45:33.72	194.85	63.77	-46.7	-47.3	16.3	0.00e+00	0	31	0	2608857088	59	3872
2026-01-03 02:45:34.72	195.04	63.35	-46.9	-47.5	16.2	0.00e+00	0	31	0	2614099968	59	3969
2026-01-03 02:45:35.72	195.23	62.93	-47.0	-47.5	16.2	0.00e+00	0	31	0	2620391424	59	3998
2026-01-03 02:45:36.72	195.41	62.51	-47.1	-47.6	16.2	0.00e+00	0	31	0	2625634304	59	4039
2026-01-03 02:45:37.71	195.59	62.10	-47.2	-47.8	16.1	0.00e+00	0	31	0	2630877184	59	4106
2026-01-03 02:45:38.72	195.76	61.68	-47.2	-47.8	16.1	0.00e+00	0	31	0	2637168640	59	4123
2026-01-03 02:45:39.72	195.92	61.27	-47.1	-47.6	16.2	0.00e+00	0	31	0	2642411520	59	4042
2026-01-03 02:45:40.72	196.08	60.86	-47.0	-47.6	16.2	0.00e+00	0	31	0	2648702976	59	4023
2026-01-03 02:45:41.72	196.24	60.45	-47.0	-47.5	16.2	0.00e+00	0	31	0	2653945856	59	3989
2026-01-03 02:45:42.72	196.39	60.05	-47.2	-47.7	16.2	0.00e+00	0	31	0	2659188736	59	4097
2026-01-03 02:45:43.72	196.53	59.64	-47.3	-47.8	16.1	0.00e+00	0	31	0	2665480192	59	4144
2026-01-03 02:45:44.72	196.68	59.24	-47.1	-47.7	16.3	0.00e+00	0	31	0	2670723072	60	3832
2026-01-03 02:45:45.72	196.81	58.85	-47.3	-47.8	16.2	0.00e+00	0	31	0	2675965952	60	3908
2026-01-03 02:45:46.73	196.95	58.45	-47.4	-47.9	16.2	0.00e+00	0	31	0	2682257408	60	3948
2026-01-03 02:45:47.73	197.08	58.06	-47.3	-47.9	16.2	0.00e+00	0	31	0	2687500288	60	3923
2026-01-03 02:45:48.74	197.20	57.66	-47.3	-47.9	16.2	0.00e+00	0	31	0	2692743168	60	3923
2026-01-03 02:45:49.74	197.33	57.27	-47.5	-48.1	16.2	0.00e+00	0	31	0	2699034624	60	4011
2026-01-03 02:45:50.74	197.44	56.89	-47.8	-48.4	16.1	0.00e+00	0	31	0	2704277504	60	4164
2026-01-03 02:45:51.75	197.56	56.50	-47.7	-48.3	16.1	0.00e+00	0	31	0	2710568960	60	4141
2026-01-03 02:45:52.75	197.67	56.12	-47.8	-48.4	16.0	0.00e+00	0	31	0	2715811840	60	4148
2026-01-03 02:45:53.75	197.78	55.75	-47.9	-48.5	16.0	0.00e+00	0	31	0	2722103296	60	4210
2026-01-03 02:45:54.75	197.89	55.37	-48.2	-48.8	16.0	0.00e+00	0	31	0	2727346176	61	4112
2026-01-03 02:45:55.76	198.00	55.00	-48.3	-49.0	16.0	0.00e+00	0	31	0	2732589056	61	4205
2026-01-03 02:45:56.76	198.10	54.63	-48.2	-48.8	16.0	0.00e+00	0	31	0	2738880512	61	4117
2026-01-03 02:45:57.77	198.20	54.26	-48.1	-48.7	16.0	0.00e+00	0	31	0	2744123392	61	4084
2026-01-03 02:45:58.77	198.30	53.89	-48.0	-48.6	16.1	0.00e+00	0	31	0	2749366272	61	4017
2026-01-03 02:45:59.77	198.39	53.53	-48.0	-48.6	16.0	0.00e+00	0	31	0	2755657728	61	4032
2026-01-03 02:46:00.77	198.48	53.17	-47.8	-48.3	16.1	0.00e+00	0	31	0	2760900608	61	3905
2026-01-03 02:46:01.78	198.57	52.81	-47.8	-48.4	16.1	0.00e+00	0	31	0	2766143488	61	3915
2026-01-03 02:46:02.78	198.66	52.45	-48.0	-48.6	16.1	0.00e+00	0	31	0	2772434944	61	4051
2026-01-03 02:46:03.78	198.75	52.10	-48.1	-48.7	16.0	0.00e+00	0	31	0	2777677824	61	4081
2026-01-03 02:46:04.78	198.83	51.75	-47.9	-48.5	16.1	0.00e+00	0	31	0	2783969280	61	3977
2026-01-03 02:46:05.78	198.91	51.40	-47.8	-48.3	16.1	0.00e+00	0	31	0	2789212160	61	3908
2026-01-03 02:46:06.77	198.99	51.06	-47.6	-48.1	16.2	0.00e+00	0	31	0	2794455040	61	3807
2026-01-03 02:46:07.78	199.07	50.72	-47.5	-48.0	16.2	0.00e+00	0	31	0	2800746496	61	3776
2026-01-03 02:46:08.78	199.15	50.38	-47.4	-48.0	16.3	0.00e+00	0	31	0	2805989376	61	3753
2026-01-03 02:46:09.78	199.23	50.04	-47.3	-47.9	16.3	0.00e+00	0	31	0	2811232256	61	3727
2026-01-03 02:46:10.78	199.30	49.70	-47.0	-47.6	16.3	0.00e+00	0	31	0	2817523712	60	3797
2026-01-03 02:46:11.78	199.37	49.37	-46.7	-47.2	16.4	0.00e+00	0	31	0	2822766592	60	3652
2026-01-03 02:46:12.79	199.44	49.04	-47.0	-47.6	16.2	0.00e+00	0	31	0	2828009472	59	4022
2026-01-03 02:46:13.79	199.51	48.71	-47.2	-47.8	16.1	0.00e+00	0	31	0	2834300928	59	4116
2026-01-03 02:46:14.79	199.58	48.39	-47.2	-47.8	16.1	0.00e+00	0	31	0	2839543808	59	4118
2026-01-03 02:46:15.79	199.65	48.06	-47.3	-47.9	16.1	0.00e+00	0	31	0	2845835264	59	4147
2026-01-03 02:46:16.79	199.71	47.74	-47.2	-47.8	16.1	0.00e+00	0	31	0	2851078144	59	4099
2026-01-03 02:46:17.79	199.78	47.42	-46.9	-47.5	16.2	0.00e+00	0	31	0	2857369600	59	3979
2026-01-03 02:46:18.80	199.84	47.10	-47.0	-47.5	16.2	0.00e+00	0	31	0	2862612480	59	3998
2026-01-03 02:46:19.80	199.90	46.79	-46.8	-47.4	16.3	0.00e+00	0	31	0	2867855360	59	3936
2026-01-03 02:46:20.80	199.96	46.48	-46.8	-47.4	16.2	0.00e+00	0	31	0	2874146816	59	3914
2026-01-03 02:46:21.80	200.02	46.17	-46.9	-47.4	16.2	0.00e+00	0	31	0	2879389696	59	3955
2026-01-03 02:46:22.81	200.08	45.86	-47.1	-47.6	16.1	0.00e+00	0	31	0	2884632576	59	4045
2026-01-03 02:46:23.80	200.14	45.56	-47.2	-47.7	16.1	0.00e+00	0	31	0	2890924032	59	4098
2026-01-03 02:46:24.80	200.20	45.26	-47.3	-47.9	16.1	0.00e+00	0	31	0	2896166912	59	4148
2026-01-03 02:46:25.80	200.25	44.96	-47.3	-47.9	16.1	0.00e+00	0	31	0	2901409792	59	4177
2026-01-03 02:46:26.80	200.31	44.66	-47.3	-47.9	16.1	0.00e+00	0	31	0	2907701248	59	4174
2026-01-03 02:46:27.80	200.36	44.36	-47.2	-47.8	16.1	0.00e+00	0	31	0	2912944128	59	4130
2026-01-03 02:46:28.79	200.41	44.07	-47.1	-47.7	16.1	0.00e+00	0	31	0	2919235584	59	4058
2026-01-03 02:46:29.79	200.46	43.78	-46.9	-47.5	16.2	0.00e+00	0	31	0	2924478464	59	3982
2026-01-03 02:46:30.79	200.51	43.49	-47.7	-48.2	16.2	0.00e+00	0	31	0	2929721344	62	3639
2026-01-03 02:46:31.79	200.56	43.21	-47.0	-47.6	16.3	0.00e+00	0	31	0	2934964224	60	3790
2026-01-03 02:46:32.80	200.61	42.92	-47.0	-47.5	16.3	0.00e+00	0	31	0	2941255680	60	3774
2026-01-03 02:46:33.80	200.66	42.64	-46.7	-47.2	16.4	0.00e+00	0	31	0	2946498560	60	3640
2026-01-03 02:46:34.80	200.71	42.36	-46.8	-47.4	16.3	0.00e+00	0	31	0	2952790016	60	3713
2026-01-03 02:46:35.80	200.76	42.08	-47.1	-47.6	16.2	0.00e+00	0	31	0	2958032896	59	4041
2026-01-03 02:46:36.80	200.80	41.80	-47.0	-47.6	16.1	0.00e+00	0	31	0	2963275776	59	4032
2026-01-03 02:46:37.81	200.85	41.52	-46.9	-47.5	16.2	0.00e+00	0	31	0	2969567232	59	3989
2026-01-03 02:46:38.81	200.89	41.25	-46.9	-47.5	16.2	0.00e+00	0	31	0	2974810112	59	3985
2026-01-03 02:46:39.81	200.94	40.98	-46.8	-47.4	16.2	0.00e+00	0	31	0	2981101568	59	3918
2026-01-03 02:46:40.82	200.98	40.71	-46.8	-47.3	16.2	0.00e+00	0	31	0	2986344448	59	3904
2026-01-03 02:46:41.82	201.03	40.44	-46.7	-47.3	16.3	0.00e+00	0	31	0	2991587328	59	3890
2026-01-03 02:46:42.81	201.07	40.18	-46.6	-47.2	16.3	0.00e+00	0	31	0	2997878784	59	3830
2026-01-03 02:46:43.82	201.11	39.92	-46.6	-47.2	16.3	0.00e+00	0	31	0	3003121664	59	3828
2026-01-03 02:46:44.82	201.15	39.66	-46.7	-47.2	16.3	0.00e+00	0	31	0	3008364544	59	3868
2026-01-03 02:46:45.82	201.19	39.40	-46.8	-47.4	16.2	0.00e+00	0	31	0	3014656000	59	3923
2026-01-03 02:46:46.83	201.23	39.14	-46.8	-47.3	16.2	0.00e+00	0	31	0	3019898880	59	3904
2026-01-03 02:46:47.83	201.27	38.88	-46.8	-47.4	16.2	0.00e+00	0	31	0	3025141760	59	3933
2026-01-03 02:46:48.83	201.31	38.63	-46.9	-47.5	16.2	0.00e+00	0	31	0	3031433216	59	3987
2026-01-03 02:46:49.83	201.35	38.38	-46.8	-47.4	16.2	0.00e+00	0	31	0	3036676096	59	3935
2026-01-03 02:46:50.83	201.38	38.13	-46.8	-47.3	16.2	0.00e+00	0	31	0	3042967552	59	3910
2026-01-03 02:46:51.84	201.42	37.88	-46.6	-47.1	16.3	0.00e+00	0	31	0	3048210432	59	3822
2026-01-03 02:46:52.84	201.46	37.63	-46.6	-47.1	16.3	0.00e+00	0	31	0	3053453312	59	3821
2026-01-03 02:46:53.84	201.49	37.39	-46.5	-47.1	16.3	0.00e+00	0	31	0	3059744768	59	3787
2026-01-03 02:46:54.83	201.53	37.15	-46.6	-47.1	16.3	0.00e+00	0	31	0	3064987648	59	3793
2026-01-03 02:46:55.83	201.56	36.91	-46.6	-47.1	16.3	0.00e+00	0	31	0	3070230528	59	3824
2026-01-03 02:46:56.83	201.60	36.67	-46.7	-47.3	16.3	0.00e+00	0	31	0	3076521984	59	3872
2026-01-03 02:46:57.83	201.63	36.44	-46.7	-47.3	16.2	0.00e+00	0	31	0	3081764864	59	3888
2026-01-03 02:46:58.83	201.67	36.20	-46.8	-47.4	16.2	0.00e+00	0	31	0	3087007744	59	3936
2026-01-03 02:46:59.83	201.70	35.97	-46.7	-47.3	16.3	0.00e+00	0	31	0	3093299200	59	3905
2026-01-03 02:47:00.83	201.73	35.74	-46.8	-47.4	16.3	0.00e+00	0	31	0	3098542080	59	3919
2026-01-03 02:47:01.83	201.77	35.51	-46.7	-47.3	16.3	0.00e+00	0	31	0	3104833536	59	3899
2026-01-03 02:47:02.84	201.80	35.27	-46.7	-47.3	16.2	0.00e+00	0	31	0	3110076416	59	3892
2026-01-03 02:47:03.84	201.83	35.05	-46.7	-47.2	16.3	0.00e+00	0	31	0	3115319296	59	3862
2026-01-03 02:47:04.83	201.86	34.82	-46.6	-47.2	16.3	0.00e+00	0	31	0	3121610752	59	3827
2026-01-03 02:47:05.83	201.89	34.60	-46.7	-47.2	16.2	0.00e+00	0	31	0	3126853632	59	3864
2026-01-03 02:47:06.84	201.92	34.38	-46.7	-47.3	16.2	0.00e+00	0	31	0	3132096512	59	3874
2026-01-03 02:47:07.83	201.95	34.16	-46.9	-47.4	16.2	0.00e+00	0	31	0	3138387968	59	3940
2026-01-03 02:47:08.84	201.98	33.94	-46.9	-47.5	16.2	0.00e+00	0	31	0	3143630848	59	3969
2026-01-03 02:47:09.83	202.01	33.72	-47.0	-47.6	16.1	0.00e+00	0	31	0	3148873728	59	4019
2026-01-03 02:47:10.84	202.04	33.50	-47.1	-47.7	16.1	0.00e+00	0	31	0	3155165184	59	4072
2026-01-03 02:47:11.83	202.07	33.29	-47.1	-47.7	16.1	0.00e+00	0	31	0	3160408064	59	4093
2026-01-03 02:47:12.83	202.10	33.08	-47.3	-47.9	16.0	0.00e+00	0	31	0	3166699520	59	4162
2026-01-03 02:47:13.83	202.13	32.87	-47.3	-47.9	16.0	0.00e+00	0	31	0	3171942400	59	4171
2026-01-03 02:47:14.83	202.16	32.66	-47.3	-47.9	16.0	0.00e+00	0	31	0	3177185280	59	4193
2026-01-03 02:47:15.83	202.18	32.45	-47.3	-47.9	16.1	0.00e+00	0	31	0	3183476736	59	4155
2026-01-03 02:47:16.83	202.21	32.24	-47.3	-47.9	16.0	0.00e+00	0	31	0	3188719616	59	4179
2026-01-03 02:47:17.82	202.24	32.04	-47.3	-47.9	16.1	0.00e+00	0	31	0	3193962496	59	4167
2026-01-03 02:47:18.82	202.26	31.83	-47.2	-47.8	16.1	0.00e+00	0	31	0	3200253952	59	4133
2026-01-03 02:47:19.82	202.29	31.63	-47.2	-47.9	16.1	0.00e+00	0	31	0	3205496832	59	4148
2026-01-03 02:47:20.82	202.32	31.43	-47.2	-47.8	16.1	0.00e+00	0	31	0	3210739712	59	4140
2026-01-03 02:47:21.83	202.34	31.23	-47.3	-47.9	16.0	0.00e+00	0	31	0	3217031168	59	4178
2026-01-03 02:47:22.83	202.37	31.03	-46.9	-47.5	16.3	0.00e+00	0	31	0	3222274048	60	3751
2026-01-03 02:47:23.83	202.39	30.83	-46.9	-47.5	16.3	0.00e+00	0	31	0	3228565504	60	3764
2026-01-03 02:47:24.83	202.42	30.64	-46.8	-47.4	16.3	0.00e+00	0	31	0	3233808384	60	3704
2026-01-03 02:47:25.83	202.44	30.44	-46.9	-47.5	16.3	0.00e+00	0	31	0	3239051264	60	3738
2026-01-03 02:47:26.83	202.47	30.25	-46.7	-47.3	16.3	0.00e+00	0	31	0	3245342720	60	3665
2026-01-03 02:47:27.83	202.49	30.06	-46.8	-47.3	16.3	0.00e+00	0	31	0	3250585600	60	3690
2026-01-03 02:47:28.83	202.52	29.86	-46.8	-47.3	16.3	0.00e+00	0	31	0	3255828480	60	3676
2026-01-03 02:47:29.82	202.54	29.68	-46.7	-47.3	16.3	0.00e+00	0	31	0	3262119936	60	3655
2026-01-03 02:47:30.82	202.56	29.49	-46.8	-47.4	16.3	0.00e+00	0	31	0	3267362816	60	3703
2026-01-03 02:47:31.82	202.59	29.30	-46.7	-47.3	16.3	0.00e+00	0	31	0	3273654272	60	3673
2026-01-03 02:47:32.81	202.61	29.12	-46.8	-47.4	16.3	0.00e+00	0	31	0	3278897152	60	3705
2026-01-03 02:47:33.81	202.63	28.93	-46.9	-47.5	16.3	0.00e+00	0	31	0	3284140032	60	3742
2026-01-03 02:47:34.82	202.66	28.75	-47.0	-47.6	16.2	0.00e+00	0	31	0	3290431488	60	3790
2026-01-03 02:47:35.81	202.68	28.57	-46.9	-47.5	16.2	0.00e+00	0	31	0	3295674368	60	3763
2026-01-03 02:47:36.81	202.70	28.39	-46.9	-47.5	16.2	0.00e+00	0	31	0	3300917248	60	3766
2026-01-03 02:47:37.81	202.72	28.21	-46.9	-47.4	16.3	0.00e+00	0	31	0	3307208704	60	3727
2026-01-03 02:47:38.81	202.75	28.03	-46.8	-47.4	16.3	0.00e+00	0	31	0	3312451584	60	3710
2026-01-03 02:47:39.81	202.77	27.85	-46.9	-47.4	16.3	0.00e+00	0	31	0	3317694464	60	3732
2026-01-03 02:47:40.82	202.79	27.67	-46.8	-47.3	16.3	0.00e+00	0	31	0	3323985920	60	3688
2026-01-03 02:47:41.82	202.81	27.50	-46.8	-47.4	16.3	0.00e+00	0	31	0	3329228800	60	3699
2026-01-03 02:47:42.82	202.83	27.32	-46.8	-47.3	16.3	0.00e+00	0	31	0	3335520256	60	3689
2026-01-03 02:47:43.82	202.85	27.15	-46.8	-47.3	16.3	0.00e+00	0	31	0	3340763136	60	3681
2026-01-03 02:47:44.82	202.87	26.98	-46.8	-47.3	16.3	0.00e+00	0	31	0	3346006016	60	3690
2026-01-03 02:47:45.82	202.89	26.81	-46.8	-47.3	16.3	0.00e+00	0	31	0	3352297472	60	3677
2026-01-03 02:47:46.82	202.91	26.64	-46.8	-47.3	16.3	0.00e+00	0	31	0	3357540352	60	3676
2026-01-03 02:47:47.82	202.93	26.47	-46.8	-47.4	16.3	0.00e+00	0	31	0	3362783232	60	3699
2026-01-03 02:47:48.82	202.95	26.30	-46.7	-47.3	16.3	0.00e+00	0	31	0	3369074688	60	3675
2026-01-03 02:47:49.82	202.97	26.13	-46.8	-47.4	16.3	0.00e+00	0	31	0	3374317568	60	3723
2026-01-03 02:47:50.81	202.99	25.97	-46.9	-47.5	16.3	0.00e+00	0	31	0	3379560448	60	3742
2026-01-03 02:47:51.80	203.01	25.80	-46.8	-47.4	16.3	0.00e+00	0	31	0	3385851904	60	3715
2026-01-03 02:47:52.80	203.03	25.64	-46.9	-47.4	16.3	0.00e+00	0	31	0	3391094784	60	3733
2026-01-03 02:47:53.81	203.05	25.48	-46.9	-47.4	16.2	0.00e+00	0	31	0	3397386240	60	3735
2026-01-03 02:47:54.81	203.07	25.31	-46.9	-47.5	16.2	0.00e+00	0	31	0	3402629120	60	3769
2026-01-03 02:47:55.80	203.09	25.16	-46.9	-47.5	16.2	0.00e+00	0	31	0	3407872000	60	3760
2026-01-03 02:47:56.80	203.11	25.00	-47.0	-47.6	16.2	0.00e+00	0	31	0	3414163456	60	3782
2026-01-03 02:47:57.80	203.13	24.84	-46.9	-47.5	16.2	0.00e+00	0	31	0	3419406336	60	3769
2026-01-03 02:47:58.80	203.14	24.68	-47.0	-47.6	16.2	0.00e+00	0	31	0	3424649216	60	3813
2026-01-03 02:47:59.80	203.16	24.52	-47.0	-47.6	16.2	0.00e+00	0	31	0	3430940672	60	3797
2026-01-03 02:48:00.80	203.18	24.37	-47.0	-47.6	16.2	0.00e+00	0	31	0	3436183552	60	3787
2026-01-03 02:48:01.80	203.20	24.21	-47.2	-47.7	16.1	0.00e+00	0	31	0	3441426432	60	3868
2026-01-03 02:48:02.80	203.22	24.06	-47.1	-47.7	16.2	0.00e+00	0	31	0	3447717888	60	3830
2026-01-03 02:48:03.79	203.23	23.90	-47.2	-47.7	16.1	0.00e+00	0	31	0	3452960768	60	3868
2026-01-03 02:48:04.80	203.25	23.75	-47.1	-47.6	16.2	0.00e+00	0	31	0	3459252224	60	3808
2026-01-03 02:48:05.80	203.27	23.60	-47.0	-47.6	16.2	0.00e+00	0	31	0	3464495104	60	3812
2026-01-03 02:48:06.79	203.29	23.45	-47.1	-47.6	16.2	0.00e+00	0	31	0	3469737984	60	3822
2026-01-03 02:48:07.80	203.30	23.30	-47.2	-47.8	16.1	0.00e+00	0	31	0	3476029440	60	3872
2026-01-03 02:48:08.79	203.32	23.15	-47.1	-47.7	16.2	0.00e+00	0	31	0	3481272320	60	3845
2026-01-03 02:48:09.79	203.34	23.00	-47.2	-47.8	16.1	0.00e+00	0	31	0	3486515200	60	3902
2026-01-03 02:48:10.79	203.35	22.86	-47.3	-47.9	16.1	0.00e+00	0	31	0	3491758080	60	3914
2026-01-03 02:48:11.79	203.37	22.71	-47.2	-47.8	16.1	0.00e+00	0	31	0	3498049536	60	3905
2026-01-03 02:48:12.79	203.39	22.56	-47.3	-47.9	16.1	0.00e+00	0	31	0	3503292416	60	3953
2026-01-03 02:48:13.79	203.40	22.42	-47.3	-47.9	16.1	0.00e+00	0	31	0	3509583872	60	3956
2026-01-03 02:48:14.78	203.42	22.28	-47.4	-48.0	16.1	0.00e+00	0	31	0	3514826752	60	3979
2026-01-03 02:48:15.78	203.44	22.13	-47.5	-48.1	16.1	0.00e+00	0	31	0	3520069632	60	4023
2026-01-03 02:48:16.79	203.45	21.99	-47.5	-48.1	16.1	0.00e+00	0	31	0	3526361088	60	4015
2026-01-03 02:48:17.78	203.47	21.85	-47.5	-48.2	16.0	0.00e+00	0	31	0	3531603968	60	4057
2026-01-03 02:48:18.78	203.49	21.71	-47.7	-48.3	16.0	0.00e+00	0	31	0	3536846848	60	4108
2026-01-03 02:48:19.78	203.50	21.57	-47.8	-48.4	16.0	0.00e+00	0	31	0	3543138304	60	4167
2026-01-03 02:48:20.78	203.52	21.43	-47.7	-48.4	16.0	0.00e+00	0	31	0	3548381184	60	4148
2026-01-03 02:48:21.77	203.53	21.29	-47.7	-48.3	16.0	0.00e+00	0	31	0	3553624064	60	4107
2026-01-03 02:48:22.78	203.55	21.15	-47.7	-48.4	16.0	0.00e+00	0	31	0	3559915520	60	4152
2026-01-03 02:48:23.78	203.56	21.02	-47.8	-48.4	16.0	0.00e+00	0	31	0	3565158400	60	4189
2026-01-03 02:48:24.77	203.58	20.88	-47.8	-48.4	16.0	0.00e+00	0	31	0	3571449856	60	4164
2026-01-03 02:48:25.77	203.59	20.75	-47.8	-48.4	15.9	0.00e+00	0	31	0	3576692736	60	4185
2026-01-03 02:48:26.77	203.61	20.61	-47.8	-48.5	15.9	0.00e+00	0	31	0	3581935616	60	4196
2026-01-03 02:48:27.77	203.62	20.48	-47.8	-48.4	15.9	0.00e+00	0	31	0	3588227072	60	4181
2026-01-03 02:48:28.76	203.64	20.35	-47.9	-48.5	15.9	0.00e+00	0	31	0	3593469952	60	4212
2026-01-03 02:48:29.76	203.65	20.21	-47.8	-48.4	15.9	0.00e+00	0	31	0	3598712832	60	4190
2026-01-03 02:48:30.76	203.67	20.08	-47.8	-48.5	15.9	0.00e+00	0	31	0	3605004288	60	4200
2026-01-03 02:48:31.76	203.68	19.95	-47.9	-48.6	16.0	0.00e+00	0	31	0	3610247168	61	4008
2026-01-03 02:48:32.76	203.70	19.82	-47.9	-48.5	16.0	0.00e+00	0	31	0	3615490048	61	3974
2026-01-03 02:48:33.75	203.71	19.69	-47.9	-48.6	16.0	0.00e+00	0	31	0	3621781504	61	4008
2026-01-03 02:48:34.75	203.72	19.56	-47.9	-48.5	16.0	0.00e+00	0	31	0	3627024384	61	3983
2026-01-03 02:48:35.74	203.74	19.44	-47.9	-48.6	16.0	0.00e+00	0	31	0	3633315840	61	4005
2026-01-03 02:48:36.74	203.75	19.31	-48.0	-48.6	16.0	0.00e+00	0	31	0	3638558720	61	4012
2026-01-03 02:48:37.74	203.77	19.18	-48.0	-48.7	16.0	0.00e+00	0	31	0	3643801600	61	4060
2026-01-03 02:48:38.74	203.78	19.05	-48.0	-48.6	16.0	0.00e+00	0	31	0	3649044480	61	4022
2026-01-03 02:48:39.74	203.79	18.93	-48.1	-48.8	15.9	0.00e+00	0	31	0	3655335936	61	4105
2026-01-03 02:48:40.74	203.81	18.80	-48.1	-48.7	15.9	0.00e+00	0	31	0	3660578816	61	4071
2026-01-03 02:48:41.74	203.82	18.68	-48.1	-48.7	15.9	0.00e+00	0	31	0	3665821696	61	4088
2026-01-03 02:48:42.73	203.84	18.56	-48.2	-48.8	15.9	0.00e+00	0	31	0	3672113152	61	4140
2026-01-03 02:48:43.73	203.85	18.43	-48.2	-48.8	15.9	0.00e+00	0	31	0	3677356032	61	4133
2026-01-03 02:48:44.73	203.86	18.31	-48.1	-48.8	15.9	0.00e+00	0	31	0	3683647488	61	4105
2026-01-03 02:48:45.72	203.88	18.19	-48.1	-48.8	15.9	0.00e+00	0	31	0	3688890368	61	4111
2026-01-03 02:48:46.72	203.89	18.07	-48.2	-48.9	15.9	0.00e+00	0	31	0	3694133248	61	4155
2026-01-03 02:48:47.72	203.90	17.95	-48.3	-48.9	15.8	0.00e+00	0	31	0	3700424704	61	4164
2026-01-03 02:48:48.72	203.92	17.83	-48.3	-49.0	15.8	0.00e+00	0	31	0	3705667584	61	4198
2026-01-03 02:48:49.72	203.93	17.71	-48.3	-48.9	15.8	0.00e+00	0	31	0	3710910464	61	4189
2026-01-03 02:48:50.71	203.94	17.59	-48.3	-48.9	15.8	0.00e+00	0	31	0	3717201920	61	4189
2026-01-03 02:48:51.72	203.95	17.47	-48.4	-49.0	15.8	0.00e+00	0	31	0	3722444800	61	4227
