passes_logs/2026/01/03/R3.2S_Murmansk/R3.2S_Murmansk__20260103_083401_NOAA_20_JPSS-1_rec.log

#Pass ID: 20260103_083401_NOAA 20 (JPSS-1)
#Satellite: NOAA 20 (JPSS-1)
#Configuration: NOAA 20
#almurnet v.1.7.20251203
#Start time: 2026-01-03 08:34:03

#Version: 2.2.20231116
#Station: R3.2S_Murmansk
#Location: 33.079688 lon 68.888172 lat
#TLE: 1 43013U 17073A   26002.92460628  .00000184  00000+0  10833-3 0  9996
#TLE: 2 43013  98.7623 303.9923 0001887  56.9179 303.2178 14.19532741421028

#Time	Az	El	Level	Level2	SNR	BER	BlckErr	Temp	State	Recorded	gain1	gain2
2026-01-03 08:34:03.07	129.20	2.09	-59.6	-75.1	3.8	1.49e+00	0	29	0	0	84	22722
2026-01-03 08:34:04.08	129.18	2.16	-59.6	-75.1	3.8	1.49e+00	0	29	104	0	84	22755
2026-01-03 08:34:05.09	129.16	2.22	-59.6	-75.1	3.8	1.49e+00	0	29	104	0	84	22768
2026-01-03 08:34:06.10	129.13	2.28	-59.6	-75.1	3.8	1.49e+00	0	29	104	0	84	22761
2026-01-03 08:34:07.10	129.11	2.35	-59.6	-75.1	3.8	1.49e+00	0	29	104	0	84	22727
2026-01-03 08:34:08.11	129.09	2.41	-59.6	-75.1	3.8	1.49e+00	0	29	104	0	84	22774
2026-01-03 08:34:09.12	129.07	2.48	-59.6	-75.1	3.8	1.49e+00	0	29	104	0	84	22735
2026-01-03 08:34:10.12	129.05	2.54	-59.6	-75.1	3.8	1.49e+00	0	29	104	0	84	22713
2026-01-03 08:34:11.13	129.02	2.61	-59.6	-75.1	3.9	1.49e+00	0	29	104	0	84	22651
2026-01-03 08:34:12.14	129.00	2.67	-59.6	-75.1	3.8	1.49e+00	0	29	104	0	84	22645
2026-01-03 08:34:13.15	128.98	2.74	-59.6	-75.1	3.8	1.49e+00	0	29	104	0	84	22679
2026-01-03 08:34:14.16	128.96	2.81	-59.6	-75.1	3.8	1.49e+00	0	29	104	0	84	22610
2026-01-03 08:34:15.17	128.93	2.87	-59.6	-75.1	3.8	1.49e+00	0	29	104	0	84	22633
2026-01-03 08:34:16.18	128.91	2.94	-59.6	-75.1	3.8	1.49e+00	0	29	104	0	84	22629
2026-01-03 08:34:17.19	128.89	3.00	-59.6	-75.1	3.8	1.49e+00	0	29	104	0	84	22566
2026-01-03 08:34:18.20	128.87	3.07	-59.6	-75.0	3.8	1.49e+00	0	29	104	0	84	22411
2026-01-03 08:34:19.20	128.84	3.14	-59.6	-74.9	3.8	1.49e+00	0	29	104	0	84	22180
2026-01-03 08:34:20.22	128.82	3.20	-59.6	-74.9	3.8	1.49e+00	0	29	104	0	84	22035
2026-01-03 08:34:21.23	128.80	3.27	-59.6	-74.8	3.8	1.49e+00	0	29	104	0	84	21757
2026-01-03 08:34:22.24	128.77	3.34	-59.6	-74.6	3.8	1.49e+00	0	29	104	0	84	21419
2026-01-03 08:34:23.24	128.75	3.40	-59.6	-74.2	3.8	1.49e+00	0	29	104	0	84	20516
2026-01-03 08:34:24.25	128.72	3.47	-59.5	-73.7	3.8	1.49e+00	0	29	104	0	84	19262
2026-01-03 08:34:25.26	128.70	3.54	-59.5	-73.2	3.8	1.49e+00	0	29	104	0	84	18133
2026-01-03 08:34:26.27	128.68	3.61	-59.5	-72.2	4.1	1.48e+00	0	29	104	0	84	16279
2026-01-03 08:34:27.28	128.65	3.67	-59.4	-71.5	4.2	1.41e+00	0	29	0	0	84	15045
2026-01-03 08:34:28.29	128.63	3.74	-59.4	-70.8	4.4	1.34e+00	66	29	0	0	84	13849
2026-01-03 08:34:29.30	128.60	3.81	-59.3	-70.1	4.7	1.00e+00	0	29	0	2097152	84	12718
2026-01-03 08:34:30.31	128.58	3.88	-59.3	-69.6	4.9	7.34e-01	0	29	0	4194304	84	12033
2026-01-03 08:34:31.31	128.55	3.95	-59.2	-68.6	5.5	5.19e-01	0	30	0	5242880	84	10672
2026-01-03 08:34:32.32	128.53	4.01	-59.1	-67.6	6.1	3.23e-01	0	30	0	7340032	84	9603
2026-01-03 08:34:33.33	128.51	4.08	-58.9	-66.5	6.9	2.08e-01	0	29	0	9437184	84	8441
2026-01-03 08:34:34.34	128.48	4.15	-58.4	-65.1	8.0	5.62e-02	0	30	0	11534336	83	7550
2026-01-03 08:34:35.35	128.45	4.22	-57.7	-63.6	9.0	2.10e-02	0	30	0	13631488	82	6737
2026-01-03 08:34:36.36	128.43	4.29	-57.7	-62.6	10.1	4.02e-03	0	29	0	14680064	82	6014
2026-01-03 08:34:37.36	128.40	4.36	-57.3	-61.4	11.1	2.79e-04	0	29	0	16777216	81	5554
2026-01-03 08:34:38.37	128.38	4.43	-56.8	-60.4	11.8	4.11e-05	0	30	0	18874368	80	5241
2026-01-03 08:34:39.38	128.35	4.50	-56.3	-59.4	12.5	1.50e-06	0	29	0	20971520	79	4957
2026-01-03 08:34:40.38	128.33	4.57	-55.9	-58.7	12.9	0.00e+00	0	30	0	23068672	78	4827
2026-01-03 08:34:41.39	128.30	4.64	-55.5	-58.0	13.3	0.00e+00	0	29	0	24117248	77	4721
2026-01-03 08:34:42.40	128.27	4.71	-55.1	-57.4	13.6	0.00e+00	0	29	0	26214400	76	4663
2026-01-03 08:34:43.41	128.25	4.78	-55.0	-57.2	13.7	0.00e+00	0	29	0	28311552	76	4593
2026-01-03 08:34:44.42	128.22	4.85	-54.8	-56.9	13.9	0.00e+00	0	30	0	30408704	76	4415
2026-01-03 08:34:45.43	128.20	4.92	-54.8	-56.9	13.9	0.00e+00	0	29	0	32505856	76	4420
2026-01-03 08:34:46.44	128.17	4.99	-55.0	-57.2	13.7	0.00e+00	0	30	0	33554432	76	4571
2026-01-03 08:34:47.44	128.14	5.06	-55.0	-57.1	13.9	0.00e+00	0	29	0	35651584	76	4498
2026-01-03 08:34:48.45	128.12	5.13	-55.8	-58.4	13.2	0.00e+00	0	29	0	37748736	77	4938
2026-01-03 08:34:49.46	128.09	5.21	-55.1	-57.3	13.7	8.30e-06	0	30	0	39845888	76	4619
2026-01-03 08:34:50.47	128.06	5.28	-55.0	-57.2	13.8	0.00e+00	0	30	0	41943040	76	4551
2026-01-03 08:34:51.48	128.03	5.35	-54.9	-57.0	14.0	0.00e+00	0	30	0	44040192	76	4455
2026-01-03 08:34:52.49	128.01	5.42	-56.0	-58.8	12.8	1.32e-02	0	30	0	45088768	78	4900
2026-01-03 08:34:53.50	127.98	5.50	-54.9	-56.9	13.9	0.00e+00	0	30	0	47185920	76	4430
2026-01-03 08:34:54.51	127.95	5.57	-54.8	-56.8	14.0	0.00e+00	0	30	0	49283072	76	4359
2026-01-03 08:34:55.52	127.92	5.64	-54.9	-56.9	14.0	0.00e+00	0	30	0	51380224	76	4425
2026-01-03 08:34:56.53	127.89	5.71	-54.8	-56.8	14.0	0.00e+00	0	30	0	53477376	76	4348
2026-01-03 08:34:57.53	127.87	5.79	-54.8	-56.8	14.0	0.00e+00	0	30	0	54525952	76	4380
2026-01-03 08:34:58.54	127.84	5.86	-54.7	-56.7	14.1	0.00e+00	0	30	0	56623104	76	4302
2026-01-03 08:34:59.55	127.81	5.93	-54.7	-56.6	14.1	0.00e+00	0	30	0	58720256	76	4284
2026-01-03 08:35:00.56	127.78	6.01	-54.6	-56.5	14.1	0.00e+00	0	30	0	60817408	75	4463
2026-01-03 08:35:01.57	127.75	6.08	-54.5	-56.4	14.2	0.00e+00	0	30	0	62914560	75	4435
2026-01-03 08:35:02.58	127.72	6.15	-54.5	-56.4	14.2	0.00e+00	0	30	0	63963136	75	4412
2026-01-03 08:35:03.59	127.69	6.23	-54.6	-56.4	14.2	0.00e+00	0	30	0	66060288	75	4440
2026-01-03 08:35:04.59	127.66	6.30	-54.5	-56.3	14.2	0.00e+00	0	30	0	68157440	75	4374
2026-01-03 08:35:05.60	127.63	6.38	-54.6	-56.5	14.2	0.00e+00	0	30	0	70254592	75	4446
2026-01-03 08:35:06.61	127.60	6.45	-54.5	-56.4	14.2	0.00e+00	0	30	0	72351744	75	4395
2026-01-03 08:35:07.62	127.57	6.53	-54.4	-56.2	14.3	0.00e+00	0	30	0	73400320	75	4317
2026-01-03 08:35:08.63	127.54	6.60	-54.5	-56.3	14.2	0.00e+00	0	30	0	75497472	75	4389
2026-01-03 08:35:09.64	127.51	6.68	-54.4	-56.3	14.3	0.00e+00	0	30	0	77594624	75	4348
2026-01-03 08:35:10.65	127.48	6.76	-54.4	-56.2	14.3	0.00e+00	0	30	0	79691776	75	4314
2026-01-03 08:35:11.66	127.45	6.83	-54.5	-56.3	14.3	0.00e+00	0	30	0	81788928	75	4384
2026-01-03 08:35:12.67	127.42	6.91	-54.5	-56.3	14.3	0.00e+00	0	30	0	82837504	75	4363
2026-01-03 08:35:13.68	127.39	6.98	-54.6	-56.4	14.2	0.00e+00	0	30	0	84934656	75	4429
2026-01-03 08:35:14.69	127.36	7.06	-54.5	-56.3	14.3	0.00e+00	0	30	0	87031808	75	4372
2026-01-03 08:35:15.69	127.33	7.14	-54.4	-56.2	14.4	0.00e+00	0	30	0	89128960	75	4306
2026-01-03 08:35:16.70	127.29	7.21	-54.4	-56.2	14.4	0.00e+00	0	30	0	91226112	75	4319
2026-01-03 08:35:17.71	127.26	7.29	-54.4	-56.2	14.4	0.00e+00	0	30	0	92274688	75	4298
2026-01-03 08:35:18.72	127.23	7.37	-54.4	-56.1	14.4	0.00e+00	0	30	0	94371840	75	4278
2026-01-03 08:35:19.72	127.20	7.45	-54.3	-56.0	14.4	0.00e+00	0	30	0	96468992	75	4225
2026-01-03 08:35:20.73	127.17	7.52	-54.2	-55.9	14.5	0.00e+00	0	30	0	98566144	75	4150
2026-01-03 08:35:21.74	127.13	7.60	-54.3	-56.1	14.3	0.00e+00	0	30	0	100663296	74	4514
2026-01-03 08:35:22.75	127.10	7.68	-54.2	-55.9	14.4	0.00e+00	0	30	0	101711872	74	4424
2026-01-03 08:35:23.76	127.07	7.76	-54.2	-55.9	14.5	0.00e+00	0	30	0	103809024	74	4398
2026-01-03 08:35:24.77	127.03	7.84	-54.3	-56.1	14.4	0.00e+00	0	30	0	105906176	74	4498
2026-01-03 08:35:25.78	127.00	7.92	-54.3	-55.9	14.4	0.00e+00	0	30	0	108003328	74	4436
2026-01-03 08:35:26.79	126.97	8.00	-54.3	-56.0	14.4	0.00e+00	0	30	0	110100480	74	4456
2026-01-03 08:35:27.79	126.93	8.08	-54.3	-56.0	14.4	0.00e+00	0	30	0	111149056	74	4474
2026-01-03 08:35:28.80	126.90	8.16	-54.4	-56.2	14.3	0.00e+00	0	30	0	113246208	74	4558
2026-01-03 08:35:29.81	126.86	8.24	-54.3	-55.9	14.5	0.00e+00	0	30	0	115343360	74	4435
2026-01-03 08:35:30.82	126.83	8.32	-54.3	-55.9	14.5	0.00e+00	0	30	0	117440512	74	4432
2026-01-03 08:35:31.83	126.80	8.40	-54.3	-56.0	14.4	0.00e+00	0	30	0	119537664	74	4463
2026-01-03 08:35:32.84	126.76	8.48	-54.2	-55.8	14.5	0.00e+00	0	30	0	120586240	74	4360
2026-01-03 08:35:33.85	126.73	8.56	-54.2	-55.8	14.5	0.00e+00	0	30	0	122683392	74	4382
2026-01-03 08:35:34.85	126.69	8.64	-54.1	-55.7	14.6	0.00e+00	0	30	0	124780544	74	4340
2026-01-03 08:35:35.87	126.65	8.72	-54.2	-55.8	14.6	0.00e+00	0	30	0	126877696	74	4357
2026-01-03 08:35:36.88	126.62	8.81	-54.2	-55.8	14.5	0.00e+00	0	30	0	128974848	74	4379
2026-01-03 08:35:37.88	126.58	8.89	-54.2	-55.8	14.5	0.00e+00	0	30	0	130023424	74	4384
2026-01-03 08:35:38.89	126.55	8.97	-54.2	-55.8	14.6	0.00e+00	0	30	0	132120576	74	4364
2026-01-03 08:35:39.90	126.51	9.05	-54.1	-55.7	14.6	0.00e+00	0	30	0	134217728	74	4332
2026-01-03 08:35:40.91	126.47	9.14	-54.1	-55.7	14.6	0.00e+00	0	30	0	136314880	74	4337
2026-01-03 08:35:41.92	126.44	9.22	-54.1	-55.7	14.6	0.00e+00	0	30	0	138412032	74	4310
2026-01-03 08:35:42.93	126.40	9.30	-54.1	-55.7	14.6	0.00e+00	0	30	0	140509184	74	4320
2026-01-03 08:35:43.94	126.36	9.39	-54.2	-55.8	14.6	0.00e+00	0	30	0	141557760	74	4354
2026-01-03 08:35:44.95	126.33	9.47	-54.1	-55.6	14.6	0.00e+00	0	30	0	143654912	74	4284
2026-01-03 08:35:45.96	126.29	9.55	-54.0	-55.6	14.7	0.00e+00	0	30	0	145752064	74	4249
2026-01-03 08:35:46.97	126.25	9.64	-54.0	-55.5	14.7	0.00e+00	0	30	0	147849216	74	4226
2026-01-03 08:35:47.98	126.21	9.72	-54.0	-55.6	14.7	0.00e+00	0	30	0	149946368	74	4253
2026-01-03 08:35:48.99	126.17	9.81	-53.9	-55.4	14.8	0.00e+00	0	30	0	150994944	74	4186
2026-01-03 08:35:49.99	126.13	9.89	-53.9	-55.5	14.7	0.00e+00	0	30	0	153092096	74	4195
2026-01-03 08:35:51.00	126.10	9.98	-53.9	-55.4	14.8	0.00e+00	0	30	0	155189248	74	4183
2026-01-03 08:35:52.01	126.06	10.07	-53.9	-55.4	14.8	0.00e+00	0	30	0	157286400	74	4165
2026-01-03 08:35:53.02	126.02	10.15	-54.0	-55.5	14.7	0.00e+00	0	30	0	159383552	74	4237
2026-01-03 08:35:54.03	125.98	10.24	-53.9	-55.4	14.8	0.00e+00	0	30	0	160432128	74	4160
2026-01-03 08:35:55.04	125.94	10.33	-54.0	-55.5	14.8	0.00e+00	0	30	0	162529280	74	4206
2026-01-03 08:35:56.05	125.90	10.41	-53.9	-55.4	14.8	0.00e+00	0	30	0	164626432	74	4167
2026-01-03 08:35:57.06	125.86	10.50	-54.0	-55.5	14.8	0.00e+00	0	30	0	166723584	74	4199
2026-01-03 08:35:58.06	125.82	10.59	-53.9	-55.4	14.8	0.00e+00	0	30	0	168820736	74	4159
2026-01-03 08:35:59.07	125.78	10.67	-53.8	-55.3	14.8	0.00e+00	0	30	0	169869312	74	4125
2026-01-03 08:36:00.08	125.73	10.76	-53.9	-55.4	14.8	0.00e+00	0	30	0	171966464	74	4164
2026-01-03 08:36:01.09	125.69	10.85	-53.9	-55.4	14.8	0.00e+00	0	30	0	174063616	74	4177
2026-01-03 08:36:02.10	125.65	10.94	-53.9	-55.4	14.8	0.00e+00	0	30	0	176160768	74	4163
2026-01-03 08:36:03.11	125.61	11.03	-53.9	-55.4	14.8	0.00e+00	0	30	0	178257920	74	4179
2026-01-03 08:36:04.11	125.57	11.12	-53.9	-55.4	14.8	0.00e+00	0	30	0	179306496	74	4173
2026-01-03 08:36:05.12	125.52	11.21	-53.9	-55.3	14.8	0.00e+00	0	30	0	181403648	74	4138
2026-01-03 08:36:06.12	125.48	11.30	-53.8	-55.2	14.9	0.00e+00	0	30	0	183500800	74	4098
2026-01-03 08:36:07.14	125.44	11.39	-53.8	-55.2	14.9	0.00e+00	0	30	0	185597952	74	4058
2026-01-03 08:36:08.14	125.39	11.48	-53.9	-55.3	14.9	0.00e+00	0	30	0	187695104	74	4120
2026-01-03 08:36:09.15	125.35	11.57	-53.9	-55.3	14.9	0.00e+00	0	30	0	188743680	74	4129
2026-01-03 08:36:10.16	125.31	11.66	-54.0	-55.5	14.8	0.00e+00	0	30	0	190840832	74	4233
2026-01-03 08:36:11.16	125.26	11.75	-53.9	-55.3	14.9	0.00e+00	0	30	0	192937984	74	4123
2026-01-03 08:36:12.18	125.22	11.85	-53.8	-55.2	14.9	0.00e+00	0	30	0	195035136	74	4094
2026-01-03 08:36:13.18	125.17	11.94	-53.8	-55.2	14.9	0.00e+00	0	30	0	197132288	74	4067
2026-01-03 08:36:14.19	125.13	12.03	-53.9	-55.3	14.9	0.00e+00	0	30	0	198180864	74	4139
2026-01-03 08:36:15.20	125.08	12.12	-53.8	-55.2	14.9	0.00e+00	0	30	0	200278016	74	4074
2026-01-03 08:36:16.21	125.04	12.22	-53.7	-55.1	15.0	0.00e+00	0	30	0	202375168	74	4046
2026-01-03 08:36:17.22	124.99	12.31	-53.7	-55.1	15.0	0.00e+00	0	30	0	204472320	74	4047
2026-01-03 08:36:18.23	124.94	12.40	-53.8	-55.2	14.9	0.00e+00	0	30	0	206569472	74	4061
2026-01-03 08:36:19.23	124.90	12.50	-53.8	-55.2	14.9	0.00e+00	0	30	0	207618048	74	4086
2026-01-03 08:36:20.23	124.85	12.59	-53.8	-55.2	14.9	0.00e+00	0	30	0	209715200	74	4053
2026-01-03 08:36:21.23	124.80	12.69	-53.7	-55.1	15.0	0.00e+00	0	30	0	211812352	74	4023
2026-01-03 08:36:22.24	124.76	12.78	-53.8	-55.2	14.9	0.00e+00	0	30	0	213909504	74	4077
2026-01-03 08:36:23.25	124.71	12.88	-53.8	-55.2	14.9	0.00e+00	0	30	0	216006656	74	4068
2026-01-03 08:36:24.26	124.66	12.97	-53.7	-55.1	15.0	0.00e+00	0	30	0	217055232	74	4050
2026-01-03 08:36:25.26	124.61	13.07	-53.7	-55.1	15.0	0.00e+00	0	30	0	219152384	74	4036
2026-01-03 08:36:26.27	124.56	13.17	-53.8	-55.1	15.0	0.00e+00	0	30	0	221249536	74	4050
2026-01-03 08:36:27.28	124.51	13.26	-53.6	-55.0	15.0	0.00e+00	0	30	0	223346688	73	4217
2026-01-03 08:36:28.29	124.46	13.36	-53.7	-55.1	14.9	0.00e+00	0	30	0	225443840	73	4243
2026-01-03 08:36:29.29	124.41	13.46	-53.6	-55.0	15.0	0.00e+00	0	30	0	226492416	73	4204
2026-01-03 08:36:30.30	124.36	13.56	-53.6	-55.0	15.0	0.00e+00	0	30	0	228589568	73	4214
2026-01-03 08:36:31.31	124.31	13.66	-53.6	-55.0	15.0	0.00e+00	0	30	0	230686720	73	4203
2026-01-03 08:36:32.32	124.26	13.75	-53.6	-55.0	15.0	0.00e+00	0	30	0	232783872	73	4195
2026-01-03 08:36:33.32	124.21	13.85	-53.6	-54.9	15.0	0.00e+00	0	30	0	234881024	73	4167
2026-01-03 08:36:34.33	124.16	13.95	-53.6	-54.9	15.0	0.00e+00	0	30	0	235929600	73	4189
2026-01-03 08:36:35.34	124.10	14.05	-53.7	-55.1	14.9	0.00e+00	0	30	0	238026752	73	4260
2026-01-03 08:36:36.34	124.05	14.15	-53.6	-54.9	15.0	0.00e+00	0	30	0	240123904	73	4182
2026-01-03 08:36:37.35	124.00	14.25	-53.6	-55.0	15.0	0.00e+00	0	30	0	242221056	73	4194
2026-01-03 08:36:38.36	123.95	14.36	-53.6	-54.9	15.0	0.00e+00	0	30	0	244318208	73	4167
2026-01-03 08:36:39.37	123.89	14.46	-53.7	-55.1	15.0	0.00e+00	0	30	0	245366784	73	4257
2026-01-03 08:36:40.37	123.84	14.56	-53.6	-54.9	15.0	0.00e+00	0	30	0	247463936	73	4181
2026-01-03 08:36:41.38	123.78	14.66	-53.5	-54.8	15.0	0.00e+00	0	30	0	249561088	73	4145
2026-01-03 08:36:42.39	123.73	14.77	-53.6	-54.9	15.0	0.00e+00	0	30	0	251658240	73	4185
2026-01-03 08:36:43.40	123.67	14.87	-53.6	-54.9	15.0	0.00e+00	0	30	0	253755392	73	4191
2026-01-03 08:36:44.41	123.62	14.97	-53.5	-54.8	15.1	0.00e+00	0	30	0	254803968	73	4130
2026-01-03 08:36:45.42	123.56	15.08	-53.5	-54.8	15.1	0.00e+00	0	30	0	256901120	73	4110
2026-01-03 08:36:46.43	123.50	15.18	-53.5	-54.8	15.1	0.00e+00	0	30	0	258998272	73	4102
2026-01-03 08:36:47.43	123.45	15.29	-53.5	-54.8	15.1	0.00e+00	0	30	0	261095424	73	4135
2026-01-03 08:36:48.44	123.39	15.39	-53.5	-54.9	15.1	0.00e+00	0	30	0	263192576	73	4151
2026-01-03 08:36:49.44	123.33	15.50	-53.4	-54.7	15.1	0.00e+00	0	31	0	264241152	73	4089
2026-01-03 08:36:50.45	123.27	15.60	-53.5	-54.8	15.1	0.00e+00	0	30	0	266338304	73	4104
2026-01-03 08:36:51.45	123.21	15.71	-53.5	-54.8	15.1	0.00e+00	0	30	0	268435456	73	4107
2026-01-03 08:36:52.46	123.16	15.82	-53.4	-54.7	15.1	0.00e+00	0	30	0	270532608	73	4066
2026-01-03 08:36:53.47	123.10	15.92	-53.4	-54.7	15.1	0.00e+00	0	30	0	272629760	73	4071
2026-01-03 08:36:54.48	123.04	16.03	-53.4	-54.7	15.1	0.00e+00	0	30	0	273678336	73	4064
2026-01-03 08:36:55.49	122.97	16.14	-53.4	-54.7	15.2	0.00e+00	0	30	0	275775488	73	4055
2026-01-03 08:36:56.50	122.91	16.25	-53.4	-54.7	15.2	0.00e+00	0	30	0	277872640	73	4054
2026-01-03 08:36:57.51	122.85	16.36	-53.3	-54.6	15.2	0.00e+00	0	30	0	279969792	73	4022
2026-01-03 08:36:58.52	122.79	16.47	-53.4	-54.7	15.1	0.00e+00	0	30	0	282066944	73	4067
2026-01-03 08:36:59.52	122.73	16.58	-53.4	-54.7	15.1	0.00e+00	0	30	0	283115520	73	4068
2026-01-03 08:37:00.53	122.66	16.69	-53.5	-54.8	15.1	0.00e+00	0	30	0	285212672	73	4111
2026-01-03 08:37:01.54	122.60	16.80	-53.4	-54.6	15.2	0.00e+00	0	30	0	287309824	73	4043
2026-01-03 08:37:02.55	122.54	16.91	-53.4	-54.6	15.2	0.00e+00	0	30	0	289406976	73	4036
2026-01-03 08:37:03.56	122.47	17.03	-53.4	-54.7	15.1	0.00e+00	0	30	0	291504128	73	4070
2026-01-03 08:37:04.57	122.41	17.14	-53.5	-54.7	15.1	0.00e+00	0	30	0	293601280	73	4098
2026-01-03 08:37:05.58	122.34	17.25	-53.5	-54.7	15.1	0.00e+00	0	30	0	294649856	73	4089
2026-01-03 08:37:06.59	122.28	17.37	-53.4	-54.7	15.1	0.00e+00	0	30	0	296747008	73	4052
2026-01-03 08:37:07.60	122.21	17.48	-53.4	-54.6	15.2	0.00e+00	0	30	0	298844160	73	4042
2026-01-03 08:37:08.61	122.14	17.59	-53.4	-54.7	15.2	0.00e+00	0	30	0	300941312	73	4055
2026-01-03 08:37:09.62	122.07	17.71	-53.4	-54.6	15.2	0.00e+00	0	30	0	303038464	73	4042
2026-01-03 08:37:10.63	122.01	17.83	-53.4	-54.7	15.2	0.00e+00	0	30	0	304087040	73	4057
2026-01-03 08:37:11.64	121.94	17.94	-53.5	-54.7	15.1	0.00e+00	0	30	0	306184192	73	4091
2026-01-03 08:37:12.65	121.87	18.06	-53.4	-54.7	15.2	0.00e+00	0	30	0	308281344	73	4054
2026-01-03 08:37:13.66	121.80	18.18	-53.4	-54.6	15.1	0.00e+00	0	30	0	310378496	73	4044
2026-01-03 08:37:14.67	121.73	18.29	-53.4	-54.7	15.2	0.00e+00	0	31	0	312475648	73	4055
2026-01-03 08:37:15.67	121.66	18.41	-53.4	-54.6	15.2	0.00e+00	0	30	0	313524224	73	4030
2026-01-03 08:37:16.68	121.58	18.53	-53.4	-54.6	15.2	0.00e+00	0	30	0	315621376	73	4040
2026-01-03 08:37:17.69	121.51	18.65	-53.4	-54.6	15.2	0.00e+00	0	30	0	317718528	73	4035
2026-01-03 08:37:18.70	121.44	18.77	-53.4	-54.7	15.2	0.00e+00	0	31	0	319815680	73	4057
2026-01-03 08:37:19.71	121.37	18.89	-53.4	-54.6	15.2	0.00e+00	0	30	0	321912832	73	4035
2026-01-03 08:37:20.71	121.29	19.01	-53.3	-54.6	15.2	0.00e+00	0	31	0	322961408	73	4016
2026-01-03 08:37:21.72	121.22	19.13	-53.4	-54.6	15.2	0.00e+00	0	30	0	325058560	73	4028
2026-01-03 08:37:22.73	121.14	19.25	-53.5	-54.7	15.1	0.00e+00	0	30	0	327155712	73	4090
2026-01-03 08:37:23.74	121.07	19.38	-53.4	-54.6	15.2	0.00e+00	0	30	0	329252864	73	4047
2026-01-03 08:37:24.74	120.99	19.50	-53.4	-54.6	15.2	0.00e+00	0	30	0	331350016	73	4034
2026-01-03 08:37:25.75	120.91	19.62	-53.5	-54.7	15.1	0.00e+00	0	30	0	332398592	73	4086
2026-01-03 08:37:26.76	120.84	19.75	-53.5	-54.8	15.1	0.00e+00	0	30	0	334495744	73	4105
2026-01-03 08:37:27.77	120.76	19.87	-53.6	-54.9	15.1	0.00e+00	0	30	0	336592896	73	4148
2026-01-03 08:37:28.78	120.68	20.00	-53.6	-54.9	15.1	0.00e+00	0	30	0	338690048	73	4148
2026-01-03 08:37:29.79	120.60	20.12	-53.7	-55.0	15.1	0.00e+00	0	31	0	340787200	73	4198
2026-01-03 08:37:30.80	120.52	20.25	-53.5	-54.8	15.1	0.00e+00	0	31	0	341835776	73	4125
2026-01-03 08:37:31.81	120.44	20.38	-53.6	-54.9	15.1	0.00e+00	0	30	0	343932928	73	4149
2026-01-03 08:37:32.81	120.36	20.50	-53.6	-54.9	15.1	0.00e+00	0	30	0	346030080	73	4187
2026-01-03 08:37:33.82	120.27	20.63	-53.7	-55.0	15.1	0.00e+00	0	30	0	348127232	73	4200
2026-01-03 08:37:34.83	120.19	20.76	-53.6	-54.9	15.1	0.00e+00	0	30	0	350224384	73	4172
2026-01-03 08:37:35.83	120.11	20.89	-53.6	-54.9	15.1	0.00e+00	0	30	0	351272960	73	4185
2026-01-03 08:37:36.84	120.02	21.02	-53.7	-54.9	15.1	0.00e+00	0	30	0	353370112	73	4191
2026-01-03 08:37:37.85	119.94	21.15	-53.7	-55.0	15.1	0.00e+00	0	30	0	355467264	73	4230
2026-01-03 08:37:38.86	119.85	21.28	-53.7	-55.0	15.1	0.00e+00	0	31	0	357564416	73	4222
2026-01-03 08:37:39.87	119.76	21.41	-53.9	-55.2	15.0	0.00e+00	0	30	0	359661568	73	4314
2026-01-03 08:37:40.88	119.68	21.54	-53.9	-55.3	15.0	0.00e+00	0	30	0	360710144	73	4344
2026-01-03 08:37:41.89	119.59	21.68	-54.0	-55.3	14.9	0.00e+00	0	30	0	362807296	73	4378
2026-01-03 08:37:42.90	119.50	21.81	-54.0	-55.4	14.9	0.00e+00	0	31	0	364904448	73	4399
2026-01-03 08:37:43.91	119.41	21.94	-54.0	-55.3	15.0	0.00e+00	0	30	0	367001600	73	4374
2026-01-03 08:37:44.92	119.32	22.08	-54.0	-55.4	14.9	0.00e+00	0	30	0	369098752	73	4422
2026-01-03 08:37:45.93	119.22	22.22	-54.0	-55.4	14.9	0.00e+00	0	30	0	370147328	73	4431
2026-01-03 08:37:46.94	119.13	22.35	-54.1	-55.5	14.9	0.00e+00	0	30	0	372244480	73	4477
2026-01-03 08:37:47.95	119.04	22.49	-54.1	-55.5	14.9	0.00e+00	0	30	0	374341632	73	4493
2026-01-03 08:37:48.96	118.94	22.63	-54.2	-55.6	14.8	0.00e+00	0	30	0	376438784	73	4501
2026-01-03 08:37:49.97	118.85	22.76	-54.2	-55.6	14.8	0.00e+00	0	30	0	378535936	73	4512
2026-01-03 08:37:50.97	118.75	22.90	-54.3	-55.7	14.8	0.00e+00	0	30	0	379584512	73	4573
2026-01-03 08:37:51.98	118.66	23.04	-54.3	-55.8	14.8	0.00e+00	0	30	0	381681664	73	4599
2026-01-03 08:37:53.00	118.56	23.18	-54.3	-55.8	14.8	0.00e+00	0	30	0	383778816	73	4601
2026-01-03 08:37:54.01	118.46	23.32	-54.4	-55.9	14.8	0.00e+00	0	31	0	385875968	74	4392
2026-01-03 08:37:55.01	118.36	23.46	-54.5	-56.0	14.7	0.00e+00	0	31	0	387973120	74	4456
2026-01-03 08:37:56.02	118.26	23.61	-54.5	-56.0	14.7	0.00e+00	0	30	0	390070272	74	4493
2026-01-03 08:37:57.03	118.16	23.75	-54.6	-56.2	14.7	0.00e+00	0	30	0	391118848	74	4555
2026-01-03 08:37:58.04	118.05	23.89	-54.7	-56.3	14.6	0.00e+00	0	30	0	393216000	74	4602
2026-01-03 08:37:59.05	117.95	24.04	-54.8	-56.4	14.6	0.00e+00	0	30	0	395313152	74	4670
2026-01-03 08:38:00.06	117.85	24.18	-54.9	-56.6	14.6	0.00e+00	0	30	0	397410304	75	4506
2026-01-03 08:38:01.06	117.74	24.33	-55.0	-56.6	14.6	0.00e+00	0	31	0	399507456	75	4515
2026-01-03 08:38:02.07	117.64	24.47	-55.0	-56.6	14.6	0.00e+00	0	30	0	400556032	75	4542
2026-01-03 08:38:03.08	117.53	24.62	-55.0	-56.7	14.5	0.00e+00	0	30	0	402653184	75	4570
2026-01-03 08:38:04.09	117.42	24.77	-54.9	-56.6	14.6	0.00e+00	0	30	0	404750336	75	4497
2026-01-03 08:38:05.10	117.31	24.92	-54.9	-56.6	14.6	0.00e+00	0	30	0	406847488	75	4494
2026-01-03 08:38:06.10	117.20	25.06	-54.9	-56.6	14.6	0.00e+00	0	30	0	407896064	75	4494
2026-01-03 08:38:07.11	117.09	25.21	-55.0	-56.6	14.5	0.00e+00	0	30	0	409993216	75	4537
2026-01-03 08:38:08.12	116.98	25.37	-55.0	-56.6	14.5	0.00e+00	0	30	0	412090368	75	4518
2026-01-03 08:38:09.12	116.86	25.52	-55.0	-56.7	14.5	0.00e+00	0	30	0	414187520	75	4564
2026-01-03 08:38:10.13	116.75	25.67	-55.1	-56.8	14.4	0.00e+00	0	31	0	416284672	75	4619
2026-01-03 08:38:11.14	116.63	25.82	-55.3	-57.0	14.3	0.00e+00	0	30	0	418381824	75	4723
2026-01-03 08:38:12.15	116.51	25.97	-55.4	-57.1	14.4	0.00e+00	0	30	0	419430400	76	4527
2026-01-03 08:38:13.16	116.40	26.13	-55.3	-57.0	14.4	0.00e+00	0	31	0	421527552	76	4476
2026-01-03 08:38:14.17	116.28	26.28	-55.4	-57.1	14.4	0.00e+00	0	30	0	423624704	76	4528
2026-01-03 08:38:15.17	116.16	26.44	-55.4	-57.2	14.4	0.00e+00	0	30	0	425721856	76	4547
2026-01-03 08:38:16.19	116.03	26.60	-55.5	-57.3	14.4	0.00e+00	0	31	0	427819008	76	4601
2026-01-03 08:38:17.20	115.91	26.75	-55.5	-57.3	14.3	0.00e+00	0	30	0	428867584	76	4641
2026-01-03 08:38:18.20	115.79	26.91	-55.6	-57.3	14.3	0.00e+00	0	31	0	430964736	76	4647
2026-01-03 08:38:19.21	115.66	27.07	-55.7	-57.5	14.2	0.00e+00	0	30	0	433061888	76	4747
2026-01-03 08:38:20.22	115.53	27.23	-55.7	-57.6	14.2	0.00e+00	0	30	0	435159040	76	4791
2026-01-03 08:38:21.22	115.40	27.39	-55.6	-57.5	14.2	0.00e+00	0	30	0	437256192	76	4707
2026-01-03 08:38:22.23	115.27	27.55	-55.7	-57.5	14.2	0.00e+00	0	31	0	438304768	76	4729
2026-01-03 08:38:23.24	115.14	27.71	-55.7	-57.6	14.2	0.00e+00	0	30	0	440401920	76	4767
2026-01-03 08:38:24.25	115.01	27.87	-55.8	-57.7	14.1	0.00e+00	0	30	0	442499072	76	4855
2026-01-03 08:38:25.26	114.88	28.04	-55.9	-57.8	14.1	0.00e+00	0	31	0	444596224	77	4615
2026-01-03 08:38:26.27	114.74	28.20	-55.9	-57.8	14.1	0.00e+00	0	30	0	446693376	77	4629
2026-01-03 08:38:27.28	114.60	28.37	-55.9	-57.8	14.1	0.00e+00	0	30	0	447741952	77	4637
2026-01-03 08:38:28.28	114.47	28.53	-55.9	-57.8	14.1	0.00e+00	0	30	0	449839104	77	4603
2026-01-03 08:38:29.29	114.33	28.70	-55.9	-57.8	14.1	0.00e+00	0	31	0	451936256	77	4625
2026-01-03 08:38:30.30	114.19	28.87	-55.9	-57.8	14.1	0.00e+00	0	31	0	454033408	77	4618
2026-01-03 08:38:31.30	114.05	29.03	-55.8	-57.6	14.2	0.00e+00	0	30	0	456130560	77	4530
2026-01-03 08:38:32.31	113.90	29.20	-55.7	-57.6	14.2	0.00e+00	0	31	0	457179136	77	4498
2026-01-03 08:38:33.32	113.76	29.37	-55.6	-57.4	14.4	0.00e+00	0	30	0	459276288	77	4405
2026-01-03 08:38:34.33	113.61	29.54	-55.6	-57.3	14.4	0.00e+00	0	31	0	461373440	77	4379
2026-01-03 08:38:35.34	113.46	29.71	-55.5	-57.2	14.4	0.00e+00	0	31	0	463470592	77	4317
2026-01-03 08:38:36.34	113.31	29.89	-55.4	-57.1	14.5	0.00e+00	0	31	0	465567744	77	4243
2026-01-03 08:38:37.35	113.16	30.06	-55.3	-57.0	14.5	0.00e+00	0	31	0	466616320	77	4225
2026-01-03 08:38:38.36	113.00	30.23	-55.3	-57.0	14.5	0.00e+00	0	31	0	468713472	77	4207
2026-01-03 08:38:39.37	112.85	30.41	-55.3	-56.9	14.5	0.00e+00	0	30	0	470810624	77	4191
2026-01-03 08:38:40.38	112.69	30.58	-55.4	-57.1	14.5	0.00e+00	0	30	0	472907776	77	4251
2026-01-03 08:38:41.39	112.53	30.76	-55.3	-57.1	14.5	0.00e+00	0	31	0	475004928	77	4244
2026-01-03 08:38:42.40	112.37	30.94	-55.4	-57.1	14.5	0.00e+00	0	31	0	476053504	77	4277
2026-01-03 08:38:43.41	112.21	31.12	-55.6	-57.3	14.4	0.00e+00	0	30	0	478150656	77	4391
2026-01-03 08:38:44.42	112.04	31.29	-55.7	-57.5	14.3	0.00e+00	0	30	0	480247808	77	4476
2026-01-03 08:38:45.42	111.88	31.47	-55.8	-57.6	14.3	0.00e+00	0	31	0	482344960	77	4525
2026-01-03 08:38:46.43	111.71	31.65	-55.9	-57.7	14.2	0.00e+00	0	31	0	484442112	77	4597
2026-01-03 08:38:47.44	111.54	31.83	-55.9	-57.8	14.2	0.00e+00	0	31	0	485490688	77	4624
2026-01-03 08:38:48.44	111.37	32.01	-55.9	-57.8	14.2	0.00e+00	0	31	0	487587840	77	4615
2026-01-03 08:38:49.45	111.19	32.20	-55.8	-57.7	14.2	0.00e+00	0	30	0	489684992	77	4556
2026-01-03 08:38:50.46	111.02	32.38	-55.9	-57.8	14.1	0.00e+00	0	31	0	491782144	77	4645
2026-01-03 08:38:51.47	110.84	32.57	-56.1	-58.1	14.0	0.00e+00	0	31	0	493879296	77	4764
2026-01-03 08:38:52.48	110.66	32.75	-56.1	-58.1	14.0	0.00e+00	0	30	0	494927872	77	4797
2026-01-03 08:38:53.49	110.48	32.94	-56.2	-58.3	13.9	0.00e+00	0	30	0	497025024	77	4878
2026-01-03 08:38:54.50	110.29	33.13	-56.2	-58.2	13.9	0.00e+00	0	30	0	499122176	77	4866
2026-01-03 08:38:55.51	110.11	33.31	-56.2	-58.2	14.0	0.00e+00	0	31	0	501219328	77	4826
2026-01-03 08:38:56.52	109.92	33.50	-56.2	-58.3	13.9	0.00e+00	0	31	0	503316480	77	4888
2026-01-03 08:38:57.52	109.73	33.69	-56.3	-58.4	13.9	0.00e+00	0	31	0	504365056	77	4935
2026-01-03 08:38:58.53	109.53	33.88	-56.3	-58.4	13.8	0.00e+00	0	30	0	506462208	77	4970
2026-01-03 08:38:59.54	109.34	34.07	-56.7	-59.0	13.6	0.00e+00	0	31	0	508559360	78	5001
2026-01-03 08:39:00.55	109.14	34.26	-56.8	-59.2	13.4	0.00e+00	0	31	0	510656512	78	5130
2026-01-03 08:39:01.56	108.94	34.46	-56.9	-59.4	13.4	0.00e+00	0	30	0	512753664	79	4931
2026-01-03 08:39:02.56	108.74	34.65	-56.9	-59.3	13.4	0.00e+00	0	30	0	514850816	79	4916
2026-01-03 08:39:03.57	108.53	34.84	-56.8	-59.2	13.5	0.00e+00	0	31	0	515899392	79	4841
2026-01-03 08:39:04.58	108.33	35.04	-56.8	-59.2	13.5	0.00e+00	0	31	0	517996544	79	4838
2026-01-03 08:39:05.59	108.12	35.23	-56.8	-59.1	13.5	0.00e+00	0	30	0	520093696	79	4808
2026-01-03 08:39:06.60	107.90	35.43	-56.8	-59.2	13.6	0.00e+00	0	31	0	522190848	79	4822
2026-01-03 08:39:07.60	107.69	35.63	-56.9	-59.2	13.5	0.00e+00	0	30	0	523239424	79	4856
2026-01-03 08:39:08.61	107.47	35.82	-56.9	-59.3	13.4	0.00e+00	0	30	0	525336576	79	4904
2026-01-03 08:39:09.62	107.25	36.02	-56.9	-59.2	13.5	0.00e+00	0	30	0	527433728	79	4863
2026-01-03 08:39:10.63	107.03	36.22	-56.8	-59.2	13.5	0.00e+00	0	30	0	529530880	79	4827
2026-01-03 08:39:11.64	106.80	36.42	-56.7	-59.0	13.6	0.00e+00	0	31	0	531628032	79	4738
2026-01-03 08:39:12.65	106.57	36.62	-56.4	-58.5	14.0	0.00e+00	0	31	0	532676608	79	4449
2026-01-03 08:39:13.66	106.34	36.83	-56.5	-58.7	13.8	0.00e+00	0	30	0	534773760	79	4570
2026-01-03 08:39:14.67	106.10	37.03	-56.3	-58.4	14.0	0.00e+00	0	31	0	536870912	79	4400
2026-01-03 08:39:15.68	105.87	37.23	-56.2	-58.2	14.0	0.00e+00	0	31	0	538968064	78	4574
2026-01-03 08:39:16.69	105.62	37.43	-56.1	-58.0	14.1	0.00e+00	0	30	0	541065216	78	4485
2026-01-03 08:39:17.69	105.38	37.64	-55.8	-57.7	14.3	0.00e+00	0	30	0	543162368	78	4300
2026-01-03 08:39:18.71	105.13	37.84	-56.0	-57.9	14.2	0.00e+00	0	31	0	544210944	78	4392
2026-01-03 08:39:19.71	104.89	38.05	-56.0	-57.9	14.2	0.00e+00	0	30	0	546308096	78	4429
2026-01-03 08:39:20.72	104.63	38.25	-56.2	-58.2	14.1	0.00e+00	0	30	0	548405248	78	4577
2026-01-03 08:39:21.73	104.37	38.46	-56.2	-58.2	14.0	0.00e+00	0	31	0	550502400	78	4594
2026-01-03 08:39:22.74	104.11	38.67	-56.4	-58.4	13.9	0.00e+00	0	31	0	552599552	78	4685
2026-01-03 08:39:23.75	103.85	38.88	-56.3	-58.3	13.9	0.00e+00	0	31	0	553648128	78	4651
2026-01-03 08:39:24.76	103.58	39.09	-56.3	-58.4	14.0	0.00e+00	0	31	0	555745280	78	4655
2026-01-03 08:39:25.77	103.31	39.29	-56.5	-58.7	13.8	0.00e+00	0	31	0	557842432	78	4834
2026-01-03 08:39:26.78	103.04	39.50	-56.5	-58.7	13.8	0.00e+00	0	31	0	559939584	78	4834
2026-01-03 08:39:27.79	102.76	39.71	-56.7	-59.0	13.6	0.00e+00	0	31	0	562036736	78	4994
2026-01-03 08:39:28.80	102.48	39.93	-56.7	-59.0	13.6	0.00e+00	0	31	0	563085312	78	5032
2026-01-03 08:39:29.81	102.20	40.14	-56.9	-59.4	13.5	0.00e+00	0	31	0	565182464	79	4931
2026-01-03 08:39:30.81	101.91	40.35	-56.8	-59.2	13.6	0.00e+00	0	30	0	567279616	79	4822
2026-01-03 08:39:31.82	101.62	40.56	-56.6	-58.8	13.8	0.00e+00	0	30	0	569376768	79	4650
2026-01-03 08:39:32.83	101.32	40.77	-56.5	-58.6	13.9	0.00e+00	0	31	0	571473920	79	4513
2026-01-03 08:39:33.84	101.02	40.98	-56.3	-58.3	14.0	0.00e+00	0	31	0	572522496	79	4368
2026-01-03 08:39:34.85	100.72	41.20	-56.2	-58.1	14.1	0.00e+00	0	30	0	574619648	78	4534
2026-01-03 08:39:35.86	100.41	41.41	-56.1	-58.1	14.1	0.00e+00	0	30	0	576716800	78	4505
2026-01-03 08:39:36.87	100.09	41.62	-56.2	-58.2	14.1	0.00e+00	0	31	0	578813952	78	4578
2026-01-03 08:39:37.88	99.78	41.84	-56.1	-58.1	14.1	0.00e+00	0	31	0	580911104	78	4526
2026-01-03 08:39:38.89	99.46	42.05	-56.1	-58.1	14.2	0.00e+00	0	30	0	581959680	78	4502
2026-01-03 08:39:39.90	99.13	42.27	-56.1	-58.1	14.1	0.00e+00	0	31	0	584056832	78	4499
2026-01-03 08:39:40.91	98.80	42.48	-55.9	-57.8	14.3	0.00e+00	0	30	0	586153984	78	4343
2026-01-03 08:39:41.92	98.47	42.70	-55.8	-57.5	14.4	0.00e+00	0	30	0	588251136	78	4232
2026-01-03 08:39:42.93	98.13	42.91	-55.7	-57.5	14.4	0.00e+00	0	30	0	590348288	77	4463
2026-01-03 08:39:43.93	97.79	43.12	-55.9	-57.8	14.3	0.00e+00	0	30	0	591396864	77	4607
2026-01-03 08:39:44.94	97.44	43.34	-56.2	-58.2	14.0	0.00e+00	0	31	0	593494016	77	4822
2026-01-03 08:39:45.95	97.09	43.55	-56.7	-59.0	13.6	0.00e+00	0	30	0	595591168	78	4988
2026-01-03 08:39:46.96	96.73	43.77	-56.8	-59.0	13.5	0.00e+00	0	31	0	597688320	78	5036
2026-01-03 08:39:47.97	96.37	43.98	-56.7	-58.9	13.7	0.00e+00	0	31	0	599785472	78	4933
2026-01-03 08:39:48.97	96.00	44.20	-56.7	-58.9	13.6	0.00e+00	0	31	0	600834048	78	4953
2026-01-03 08:39:49.98	95.63	44.41	-56.7	-58.9	13.7	0.00e+00	0	30	0	602931200	78	4941
2026-01-03 08:39:50.99	95.25	44.62	-56.6	-58.7	13.8	0.00e+00	0	31	0	605028352	78	4869
2026-01-03 08:39:52.00	94.87	44.84	-56.5	-58.6	13.9	0.00e+00	0	31	0	607125504	78	4765
2026-01-03 08:39:53.00	94.49	45.05	-56.5	-58.6	13.9	0.00e+00	0	31	0	609222656	78	4809
2026-01-03 08:39:54.01	94.09	45.26	-56.4	-58.5	13.9	0.00e+00	0	31	0	611319808	78	4733
2026-01-03 08:39:55.02	93.70	45.48	-56.4	-58.4	14.0	0.00e+00	0	31	0	612368384	78	4679
2026-01-03 08:39:56.03	93.29	45.69	-56.4	-58.5	14.0	0.00e+00	0	31	0	614465536	78	4721
2026-01-03 08:39:57.04	92.88	45.90	-56.3	-58.4	14.0	0.00e+00	0	31	0	616562688	78	4653
2026-01-03 08:39:58.06	92.46	46.12	-56.5	-58.7	13.8	0.00e+00	0	31	0	618659840	78	4820
2026-01-03 08:39:59.07	92.04	46.33	-56.9	-59.2	13.6	0.00e+00	0	31	0	620756992	79	4847
2026-01-03 08:40:00.07	91.62	46.53	-56.9	-59.3	13.6	0.00e+00	0	31	0	621805568	79	4881
2026-01-03 08:40:01.08	91.19	46.74	-56.8	-59.0	13.7	0.00e+00	0	31	0	623902720	79	4755
2026-01-03 08:40:02.09	90.75	46.95	-56.6	-58.8	13.8	0.00e+00	0	30	0	625999872	79	4599
2026-01-03 08:40:03.10	90.31	47.16	-56.4	-58.4	14.1	0.00e+00	0	31	0	628097024	79	4416
2026-01-03 08:40:04.11	89.86	47.37	-56.1	-58.0	14.2	0.00e+00	0	31	0	630194176	78	4452
2026-01-03 08:40:05.12	89.40	47.57	-56.1	-58.1	14.2	0.00e+00	0	31	0	631242752	78	4496
2026-01-03 08:40:06.13	88.94	47.78	-56.0	-57.8	14.3	0.00e+00	0	30	0	633339904	78	4383
2026-01-03 08:40:07.13	88.48	47.98	-55.8	-57.6	14.4	0.00e+00	0	31	0	635437056	78	4291
2026-01-03 08:40:08.13	88.01	48.18	-55.8	-57.6	14.4	0.00e+00	0	31	0	637534208	78	4275
2026-01-03 08:40:09.14	87.53	48.38	-55.8	-57.6	14.4	0.00e+00	0	30	0	639631360	78	4287
2026-01-03 08:40:10.15	87.04	48.58	-55.8	-57.6	14.4	0.00e+00	0	31	0	640679936	78	4253
2026-01-03 08:40:11.16	86.55	48.78	-55.7	-57.5	14.4	0.00e+00	0	31	0	642777088	77	4472
2026-01-03 08:40:12.17	86.05	48.98	-55.4	-57.1	14.6	0.00e+00	0	30	0	644874240	77	4251
2026-01-03 08:40:13.18	85.54	49.18	-55.1	-56.6	14.8	0.00e+00	0	31	0	646971392	76	4264
2026-01-03 08:40:14.19	85.03	49.37	-54.9	-56.3	14.9	0.00e+00	0	31	0	649068544	76	4135
2026-01-03 08:40:15.20	84.51	49.56	-54.8	-56.3	14.9	0.00e+00	0	31	0	650117120	76	4123
2026-01-03 08:40:16.21	83.98	49.76	-54.5	-55.9	15.0	0.00e+00	0	31	0	652214272	75	4190
2026-01-03 08:40:17.22	83.45	49.94	-54.4	-55.7	15.1	0.00e+00	0	30	0	654311424	75	4084
2026-01-03 08:40:18.22	82.92	50.13	-54.2	-55.5	15.1	0.00e+00	0	31	0	656408576	74	4222
2026-01-03 08:40:19.23	82.37	50.32	-54.1	-55.4	15.1	0.00e+00	0	31	0	658505728	74	4159
2026-01-03 08:40:20.24	81.82	50.50	-54.1	-55.4	15.2	0.00e+00	0	31	0	659554304	74	4157
2026-01-03 08:40:21.25	81.26	50.68	-54.2	-55.5	15.1	0.00e+00	0	31	0	661651456	74	4205
2026-01-03 08:40:22.26	80.70	50.86	-54.3	-55.6	15.1	0.00e+00	0	30	0	663748608	74	4254
2026-01-03 08:40:23.27	80.12	51.04	-54.4	-55.7	15.0	0.00e+00	0	31	0	665845760	74	4317
2026-01-03 08:40:24.27	79.55	51.21	-54.4	-55.8	15.0	0.00e+00	0	31	0	667942912	74	4351
2026-01-03 08:40:25.28	78.96	51.38	-54.4	-55.8	14.9	0.00e+00	0	30	0	668991488	74	4378
2026-01-03 08:40:26.29	78.37	51.55	-54.6	-56.0	14.9	0.00e+00	0	30	0	671088640	74	4467
2026-01-03 08:40:27.30	77.77	51.72	-54.4	-55.7	15.0	0.00e+00	0	30	0	673185792	74	4335
2026-01-03 08:40:28.31	77.17	51.88	-54.2	-55.5	15.1	0.00e+00	0	31	0	675282944	74	4242
2026-01-03 08:40:29.32	76.55	52.04	-54.2	-55.5	15.0	0.00e+00	0	31	0	677380096	74	4217
2026-01-03 08:40:30.33	75.93	52.20	-54.7	-56.1	14.8	0.00e+00	0	31	0	678428672	74	4526
2026-01-03 08:40:31.33	75.31	52.35	-55.0	-56.6	14.7	0.00e+00	0	30	0	680525824	75	4530
2026-01-03 08:40:32.35	74.68	52.51	-54.8	-56.3	14.8	0.00e+00	0	31	0	682622976	75	4372
2026-01-03 08:40:33.35	74.04	52.65	-54.5	-55.9	15.0	0.00e+00	0	31	0	684720128	75	4162
2026-01-03 08:40:34.36	73.40	52.80	-54.4	-55.8	15.0	0.00e+00	0	30	0	686817280	75	4119
2026-01-03 08:40:35.37	72.75	52.94	-54.5	-55.9	14.9	0.00e+00	0	31	0	687865856	75	4189
2026-01-03 08:40:36.38	72.09	53.08	-54.3	-55.7	15.1	0.00e+00	0	31	0	689963008	75	4064
2026-01-03 08:40:37.39	71.42	53.21	-53.9	-55.2	15.2	0.00e+00	0	30	0	692060160	74	4056
2026-01-03 08:40:38.40	70.75	53.35	-53.5	-54.7	15.3	0.00e+00	0	31	0	694157312	73	4064
2026-01-03 08:40:39.41	70.08	53.47	-53.5	-54.7	15.3	0.00e+00	0	31	0	696254464	73	4080
2026-01-03 08:40:40.41	69.40	53.60	-53.4	-54.6	15.4	0.00e+00	0	31	0	697303040	73	4005
2026-01-03 08:40:41.42	68.71	53.72	-53.3	-54.4	15.5	0.00e+00	0	30	0	699400192	73	3914
2026-01-03 08:40:42.43	68.02	53.83	-53.1	-54.1	15.5	0.00e+00	0	31	0	701497344	72	4038
2026-01-03 08:40:43.44	67.32	53.94	-53.1	-54.1	15.4	0.00e+00	0	31	0	703594496	72	4048
2026-01-03 08:40:44.45	66.62	54.05	-52.9	-53.9	15.5	0.00e+00	0	31	0	705691648	72	3955
2026-01-03 08:40:45.46	65.91	54.16	-52.9	-54.0	15.5	0.00e+00	0	31	0	706740224	72	3963
2026-01-03 08:40:46.47	65.19	54.26	-52.6	-53.6	15.5	0.00e+00	0	31	0	708837376	71	4022
2026-01-03 08:40:47.48	64.47	54.35	-52.4	-53.4	15.6	0.00e+00	0	31	0	710934528	71	3948
2026-01-03 08:40:48.49	63.75	54.44	-52.3	-53.3	15.7	0.00e+00	0	31	0	713031680	71	3892
2026-01-03 08:40:49.50	63.02	54.53	-52.2	-53.2	15.6	0.00e+00	0	31	0	715128832	70	4072
2026-01-03 08:40:50.51	62.29	54.61	-52.2	-53.2	15.6	0.00e+00	0	31	0	716177408	70	4072
2026-01-03 08:40:51.51	61.56	54.69	-52.0	-52.9	15.7	0.00e+00	0	31	0	718274560	70	3944
2026-01-03 08:40:52.52	60.81	54.76	-51.8	-52.7	15.8	0.00e+00	0	31	0	720371712	70	3827
2026-01-03 08:40:53.53	60.07	54.83	-51.7	-52.6	15.7	0.00e+00	0	31	0	722468864	69	4008
2026-01-03 08:40:54.54	59.32	54.89	-51.6	-52.5	15.7	0.00e+00	0	31	0	724566016	69	3996
2026-01-03 08:40:55.55	58.57	54.95	-51.3	-52.2	15.9	0.00e+00	0	31	0	726663168	69	3844
2026-01-03 08:40:56.56	57.82	55.00	-51.4	-52.2	15.8	0.00e+00	0	31	0	727711744	69	3866
2026-01-03 08:40:57.57	57.06	55.05	-51.6	-52.5	15.7	0.00e+00	0	31	0	729808896	69	3978
2026-01-03 08:40:58.58	56.30	55.09	-51.5	-52.4	15.8	0.00e+00	0	30	0	731906048	69	3934
2026-01-03 08:40:59.59	55.54	55.13	-51.5	-52.3	15.8	0.00e+00	0	31	0	734003200	69	3911
2026-01-03 08:41:00.60	54.77	55.16	-51.5	-52.4	15.8	0.00e+00	0	31	0	736100352	69	3935
2026-01-03 08:41:01.61	54.01	55.19	-51.7	-52.6	15.7	0.00e+00	0	31	0	737148928	69	4049
2026-01-03 08:41:02.62	53.24	55.21	-51.9	-52.8	15.7	0.00e+00	0	31	0	739246080	69	4140
2026-01-03 08:41:03.63	52.48	55.23	-51.8	-52.7	15.7	0.00e+00	0	31	0	741343232	69	4082
2026-01-03 08:41:04.64	51.71	55.25	-51.9	-52.9	15.6	0.00e+00	0	31	0	743440384	69	4160
2026-01-03 08:41:05.65	50.94	55.25	-52.0	-53.0	15.6	0.00e+00	0	30	0	745537536	69	4195
2026-01-03 08:41:06.65	50.18	55.26	-52.2	-53.2	15.5	0.00e+00	0	30	0	746586112	69	4293
2026-01-03 08:41:07.66	49.41	55.25	-52.3	-53.3	15.5	0.00e+00	0	31	0	748683264	69	4357
2026-01-03 08:41:08.67	48.64	55.25	-52.4	-53.4	15.6	0.00e+00	0	30	0	750780416	70	4180
2026-01-03 08:41:09.68	47.87	55.23	-52.3	-53.3	15.6	0.00e+00	0	31	0	752877568	70	4120
2026-01-03 08:41:10.68	47.11	55.22	-52.3	-53.2	15.6	0.00e+00	0	31	0	754974720	70	4086
2026-01-03 08:41:11.69	46.34	55.19	-52.1	-53.0	15.7	0.00e+00	0	31	0	756023296	70	4004
2026-01-03 08:41:12.70	45.58	55.17	-52.0	-52.9	15.7	0.00e+00	0	31	0	758120448	70	3931
2026-01-03 08:41:13.71	44.81	55.13	-52.1	-53.0	15.7	0.00e+00	0	31	0	760217600	70	4000
2026-01-03 08:41:14.72	44.05	55.10	-52.2	-53.2	15.7	0.00e+00	0	31	0	762314752	70	4061
2026-01-03 08:41:15.73	43.29	55.05	-51.9	-52.8	15.7	0.00e+00	0	31	0	764411904	70	3902
2026-01-03 08:41:16.74	42.54	55.01	-51.4	-52.2	15.8	0.00e+00	0	30	0	765460480	69	3863
2026-01-03 08:41:17.75	41.78	54.95	-51.2	-52.0	15.8	0.00e+00	0	30	0	767557632	68	3974
2026-01-03 08:41:18.75	41.04	54.90	-50.9	-51.7	15.9	0.00e+00	0	31	0	769654784	68	3860
2026-01-03 08:41:19.76	40.29	54.83	-50.8	-51.6	16.0	0.00e+00	0	31	0	771751936	68	3813
2026-01-03 08:41:20.77	39.54	54.77	-50.9	-51.7	15.9	0.00e+00	0	30	0	773849088	68	3835
2026-01-03 08:41:21.78	38.80	54.70	-51.1	-51.9	15.8	0.00e+00	0	31	0	774897664	68	3925
2026-01-03 08:41:22.79	38.07	54.62	-51.0	-51.8	15.9	0.00e+00	0	31	0	776994816	68	3898
2026-01-03 08:41:23.80	37.33	54.54	-51.0	-51.8	15.9	0.00e+00	0	30	0	779091968	68	3895
2026-01-03 08:41:24.81	36.60	54.45	-50.8	-51.6	16.0	0.00e+00	0	31	0	781189120	68	3795
2026-01-03 08:41:25.82	35.88	54.36	-50.9	-51.7	15.9	0.00e+00	0	31	0	783286272	68	3853
2026-01-03 08:41:26.83	35.16	54.27	-51.1	-51.9	15.8	0.00e+00	0	30	0	784334848	68	3927
2026-01-03 08:41:27.83	34.45	54.17	-51.3	-52.1	15.8	0.00e+00	0	31	0	786432000	68	4040
2026-01-03 08:41:28.84	33.74	54.07	-51.3	-52.2	15.8	0.00e+00	0	31	0	788529152	68	4068
2026-01-03 08:41:29.85	33.04	53.96	-51.6	-52.5	15.7	0.00e+00	0	31	0	790626304	68	4212
2026-01-03 08:41:30.86	32.34	53.85	-52.0	-52.9	15.6	0.00e+00	0	31	0	792723456	69	4179
2026-01-03 08:41:31.87	31.64	53.73	-52.1	-53.1	15.6	0.00e+00	0	30	0	794820608	69	4244
2026-01-03 08:41:32.88	30.96	53.61	-52.3	-53.3	15.5	0.00e+00	0	31	0	795869184	69	4380
2026-01-03 08:41:33.89	30.27	53.49	-52.5	-53.5	15.5	0.00e+00	0	31	0	797966336	70	4229
2026-01-03 08:41:34.89	29.60	53.36	-52.8	-53.8	15.4	0.00e+00	0	31	0	800063488	70	4383
2026-01-03 08:41:35.90	28.93	53.23	-53.1	-54.2	15.3	0.00e+00	0	31	0	802160640	71	4302
2026-01-03 08:41:36.90	28.28	53.10	-53.3	-54.4	15.3	0.00e+00	0	30	0	803209216	71	4411
2026-01-03 08:41:37.91	27.62	52.96	-53.2	-54.3	15.3	0.00e+00	0	31	0	805306368	71	4359
2026-01-03 08:41:38.92	26.96	52.82	-53.1	-54.2	15.3	0.00e+00	0	31	0	807403520	71	4330
2026-01-03 08:41:39.93	26.32	52.68	-53.3	-54.4	15.3	0.00e+00	0	31	0	809500672	71	4420
2026-01-03 08:41:40.94	25.68	52.53	-53.2	-54.3	15.3	0.00e+00	0	31	0	811597824	71	4345
2026-01-03 08:41:41.95	25.05	52.38	-53.2	-54.3	15.3	0.00e+00	0	31	0	812646400	71	4358
2026-01-03 08:41:42.96	24.42	52.22	-53.2	-54.3	15.3	0.00e+00	0	31	0	814743552	71	4358
2026-01-03 08:41:43.96	23.81	52.07	-53.2	-54.3	15.3	0.00e+00	0	31	0	816840704	71	4388
2026-01-03 08:41:44.98	23.19	51.90	-53.2	-54.3	15.3	0.00e+00	0	31	0	818937856	71	4360
2026-01-03 08:41:45.99	22.58	51.74	-53.2	-54.3	15.3	0.00e+00	0	31	0	821035008	71	4347
2026-01-03 08:41:46.99	21.99	51.58	-53.3	-54.5	15.2	0.00e+00	0	30	0	822083584	71	4447
2026-01-03 08:41:48.00	21.40	51.41	-53.6	-54.8	15.3	0.00e+00	0	30	0	824180736	72	4342
2026-01-03 08:41:49.01	20.81	51.24	-53.6	-54.7	15.3	0.00e+00	0	30	0	826277888	72	4334
2026-01-03 08:41:50.02	20.23	51.06	-53.5	-54.7	15.3	0.00e+00	0	31	0	828375040	72	4306
2026-01-03 08:41:51.03	19.66	50.89	-53.7	-54.9	15.2	0.00e+00	0	31	0	830472192	72	4434
2026-01-03 08:41:52.03	19.10	50.71	-54.1	-55.4	15.1	0.00e+00	0	30	0	832569344	73	4416
2026-01-03 08:41:53.03	18.54	50.53	-54.3	-55.6	15.0	0.00e+00	0	31	0	833617920	73	4537
2026-01-03 08:41:54.04	17.99	50.35	-54.4	-55.8	15.0	0.00e+00	0	31	0	835715072	74	4367
2026-01-03 08:41:55.04	17.45	50.17	-54.7	-56.1	14.8	0.00e+00	0	31	0	837812224	74	4520
2026-01-03 08:41:56.05	16.91	49.98	-54.8	-56.2	14.8	0.00e+00	0	31	0	839909376	74	4578
2026-01-03 08:41:57.06	16.38	49.79	-55.0	-56.4	14.8	0.00e+00	0	31	0	840957952	75	4438
2026-01-03 08:41:58.06	15.86	49.60	-55.5	-57.2	14.6	0.00e+00	0	31	0	843055104	76	4554
2026-01-03 08:41:59.07	15.34	49.41	-56.1	-58.0	14.2	0.00e+00	0	31	0	845152256	77	4727
2026-01-03 08:42:00.08	14.83	49.22	-56.3	-58.2	14.2	0.00e+00	0	31	0	847249408	77	4864
2026-01-03 08:42:01.09	14.32	49.02	-56.5	-58.5	14.0	0.00e+00	0	31	0	849346560	78	4742
2026-01-03 08:42:02.10	13.82	48.83	-56.8	-59.0	13.7	0.00e+00	0	31	0	851443712	78	5038
2026-01-03 08:42:03.11	13.33	48.63	-57.1	-59.5	13.5	0.00e+00	0	30	0	852492288	79	5005
2026-01-03 08:42:04.11	12.85	48.43	-57.1	-59.5	13.5	0.00e+00	0	31	0	854589440	79	4999
2026-01-03 08:42:05.13	12.36	48.23	-57.2	-59.7	13.4	0.00e+00	0	30	0	856686592	79	5105
2026-01-03 08:42:06.13	11.89	48.03	-57.4	-60.0	13.2	0.00e+00	0	31	0	858783744	80	5031
2026-01-03 08:42:07.14	11.42	47.82	-57.3	-59.7	13.4	0.00e+00	0	31	0	860880896	80	4837
2026-01-03 08:42:08.15	10.96	47.62	-57.6	-60.2	13.2	0.00e+00	0	31	0	861929472	80	5121
2026-01-03 08:42:09.16	10.50	47.41	-57.9	-60.8	12.8	0.00e+00	0	30	0	864026624	81	5215
2026-01-03 08:42:10.16	10.06	47.21	-57.9	-60.8	12.7	0.00e+00	0	30	0	866123776	81	5211
2026-01-03 08:42:11.18	9.61	47.00	-57.1	-59.5	13.6	0.00e+00	0	31	0	868220928	80	4710
2026-01-03 08:42:12.19	9.17	46.79	-56.4	-58.4	14.0	0.00e+00	0	31	0	870318080	79	4431
2026-01-03 08:42:13.19	8.74	46.59	-56.5	-58.6	14.0	0.00e+00	0	31	0	871366656	79	4505
2026-01-03 08:42:14.20	8.32	46.38	-56.8	-59.0	13.8	0.00e+00	0	31	0	873463808	79	4746
2026-01-03 08:42:15.21	7.90	46.17	-56.8	-59.0	13.8	0.00e+00	0	30	0	875560960	79	4734
2026-01-03 08:42:16.22	7.48	45.95	-56.9	-59.1	13.7	0.00e+00	0	30	0	877658112	79	4794
2026-01-03 08:42:17.23	7.07	45.74	-56.8	-59.0	13.8	0.00e+00	0	30	0	879755264	79	4723
2026-01-03 08:42:18.24	6.67	45.53	-56.6	-58.7	13.9	0.00e+00	0	31	0	880803840	79	4592
2026-01-03 08:42:19.24	6.27	45.32	-56.2	-58.1	14.2	0.00e+00	0	31	0	882900992	79	4284
2026-01-03 08:42:20.26	5.88	45.11	-56.0	-57.7	14.4	0.00e+00	0	31	0	884998144	78	4335
2026-01-03 08:42:21.27	5.49	44.89	-56.0	-57.8	14.4	0.00e+00	0	31	0	887095296	78	4373
2026-01-03 08:42:22.27	5.11	44.68	-56.0	-57.8	14.4	0.00e+00	0	31	0	889192448	78	4370
2026-01-03 08:42:23.28	4.73	44.47	-56.0	-57.8	14.4	0.00e+00	0	31	0	890241024	78	4363
2026-01-03 08:42:24.29	4.36	44.25	-56.2	-58.1	14.2	0.00e+00	0	31	0	892338176	78	4496
2026-01-03 08:42:25.29	4.00	44.04	-56.2	-58.2	14.2	0.00e+00	0	31	0	894435328	78	4552
2026-01-03 08:42:26.30	3.63	43.83	-56.2	-58.1	14.2	0.00e+00	0	31	0	896532480	78	4501
2026-01-03 08:42:27.31	3.28	43.61	-56.0	-57.8	14.4	0.00e+00	0	31	0	898629632	78	4368
2026-01-03 08:42:28.31	2.93	43.40	-55.9	-57.7	14.4	0.00e+00	0	31	0	899678208	78	4305
2026-01-03 08:42:29.32	2.58	43.19	-55.9	-57.7	14.4	0.00e+00	0	31	0	901775360	78	4313
2026-01-03 08:42:30.33	2.23	42.97	-56.1	-57.9	14.3	0.00e+00	0	31	0	903872512	78	4413
2026-01-03 08:42:31.35	1.89	42.76	-56.2	-58.1	14.2	0.00e+00	0	30	0	905969664	78	4516
2026-01-03 08:42:32.35	1.56	42.54	-56.4	-58.4	14.1	0.00e+00	0	31	0	908066816	78	4652
2026-01-03 08:42:33.36	1.23	42.33	-56.5	-58.6	13.9	0.00e+00	0	31	0	909115392	78	4780
2026-01-03 08:42:34.36	0.91	42.12	-56.6	-58.7	13.9	0.00e+00	0	30	0	911212544	78	4819
2026-01-03 08:42:35.37	0.59	41.90	-56.7	-58.9	13.8	0.00e+00	0	31	0	913309696	78	4962
2026-01-03 08:42:36.38	0.27	41.69	-57.0	-59.3	13.6	0.00e+00	0	31	0	915406848	79	4915
2026-01-03 08:42:37.38	359.96	41.48	-57.0	-59.4	13.6	0.00e+00	0	31	0	917504000	79	4943
2026-01-03 08:42:38.39	359.65	41.27	-57.1	-59.5	13.5	0.00e+00	0	31	0	918552576	79	5013
2026-01-03 08:42:39.40	359.35	41.05	-56.9	-59.2	13.7	0.00e+00	0	31	0	920649728	79	4823
2026-01-03 08:42:40.40	359.05	40.84	-56.8	-59.0	13.8	0.00e+00	0	31	0	922746880	79	4743
2026-01-03 08:42:41.41	358.75	40.63	-56.7	-58.9	13.8	0.00e+00	0	31	0	924844032	79	4662
2026-01-03 08:42:42.42	358.46	40.42	-56.7	-58.7	13.9	0.00e+00	0	30	0	926941184	79	4596
2026-01-03 08:42:43.43	358.17	40.21	-56.5	-58.5	14.0	0.00e+00	0	31	0	927989760	79	4488
2026-01-03 08:42:44.43	357.89	40.00	-56.7	-58.8	13.9	0.00e+00	0	31	0	930086912	79	4610
2026-01-03 08:42:45.44	357.61	39.79	-56.7	-58.9	13.9	0.00e+00	0	31	0	932184064	79	4658
2026-01-03 08:42:46.45	357.33	39.58	-56.7	-58.9	13.8	0.00e+00	0	31	0	934281216	79	4663
2026-01-03 08:42:47.45	357.06	39.37	-56.4	-58.4	14.1	0.00e+00	0	31	0	936378368	79	4424
2026-01-03 08:42:48.45	356.79	39.17	-56.4	-58.3	14.1	0.00e+00	0	31	0	937426944	79	4389
2026-01-03 08:42:49.46	356.52	38.96	-56.4	-58.4	14.1	0.00e+00	0	31	0	939524096	79	4438
2026-01-03 08:42:50.47	356.26	38.75	-56.5	-58.5	14.1	0.00e+00	0	31	0	941621248	79	4448
2026-01-03 08:42:51.48	356.00	38.54	-56.3	-58.3	14.2	0.00e+00	0	31	0	943718400	79	4370
2026-01-03 08:42:52.49	355.74	38.34	-56.5	-58.5	14.0	0.00e+00	0	31	0	945815552	79	4482
2026-01-03 08:42:53.50	355.49	38.13	-56.3	-58.3	14.2	0.00e+00	0	31	0	946864128	79	4361
2026-01-03 08:42:54.51	355.24	37.93	-56.4	-58.4	14.1	0.00e+00	0	31	0	948961280	79	4403
2026-01-03 08:42:55.52	354.99	37.72	-56.5	-58.5	14.0	0.00e+00	0	31	0	951058432	79	4489
2026-01-03 08:42:56.53	354.75	37.52	-56.6	-58.7	13.9	0.00e+00	0	31	0	953155584	79	4549
2026-01-03 08:42:57.54	354.50	37.31	-56.5	-58.6	14.0	0.00e+00	0	31	0	955252736	79	4501
2026-01-03 08:42:58.54	354.27	37.11	-56.5	-58.5	14.0	0.00e+00	0	31	0	956301312	79	4463
2026-01-03 08:42:59.55	354.03	36.91	-56.4	-58.4	14.1	0.00e+00	0	31	0	958398464	79	4396
2026-01-03 08:43:00.56	353.80	36.71	-56.3	-58.3	14.2	0.00e+00	0	31	0	960495616	79	4384
2026-01-03 08:43:01.56	353.57	36.51	-56.3	-58.2	14.2	0.00e+00	0	30	0	962592768	79	4334
2026-01-03 08:43:02.57	353.35	36.31	-56.1	-58.0	14.2	0.00e+00	0	31	0	964689920	78	4486
2026-01-03 08:43:03.58	353.12	36.11	-55.9	-57.7	14.4	0.00e+00	0	30	0	965738496	78	4332
2026-01-03 08:43:04.59	352.90	35.91	-55.8	-57.6	14.5	0.00e+00	0	31	0	967835648	78	4256
2026-01-03 08:43:05.59	352.69	35.72	-55.7	-57.5	14.5	0.00e+00	0	31	0	969932800	78	4199
2026-01-03 08:43:06.60	352.47	35.52	-55.8	-57.5	14.5	0.00e+00	0	31	0	972029952	78	4235
2026-01-03 08:43:07.61	352.26	35.33	-55.9	-57.7	14.4	0.00e+00	0	31	0	974127104	78	4326
2026-01-03 08:43:08.61	352.05	35.13	-56.0	-57.8	14.4	0.00e+00	0	31	0	976224256	78	4356
2026-01-03 08:43:09.62	351.84	34.94	-56.1	-58.0	14.2	0.00e+00	0	31	0	977272832	78	4490
2026-01-03 08:43:10.63	351.64	34.74	-56.3	-58.3	14.0	0.00e+00	0	31	0	979369984	78	4646
2026-01-03 08:43:11.64	351.43	34.55	-56.6	-58.8	13.8	0.00e+00	0	31	0	981467136	78	4882
2026-01-03 08:43:12.65	351.23	34.36	-56.7	-58.9	13.8	0.00e+00	0	31	0	983564288	78	4932
2026-01-03 08:43:13.66	351.03	34.17	-56.6	-58.7	13.8	0.00e+00	0	31	0	984612864	78	4870
2026-01-03 08:43:14.67	350.84	33.97	-56.5	-58.5	14.0	0.00e+00	0	31	0	986710016	78	4738
2026-01-03 08:43:15.67	350.65	33.79	-56.4	-58.5	14.0	0.00e+00	0	30	0	988807168	78	4707
2026-01-03 08:43:16.68	350.46	33.60	-56.3	-58.3	14.1	0.00e+00	0	31	0	990904320	78	4638
2026-01-03 08:43:17.69	350.27	33.41	-56.2	-58.2	14.1	0.00e+00	0	31	0	993001472	78	4567
2026-01-03 08:43:18.70	350.08	33.22	-56.2	-58.1	14.2	0.00e+00	0	31	0	994050048	78	4511
2026-01-03 08:43:19.71	349.89	33.03	-56.2	-58.1	14.2	0.00e+00	0	31	0	996147200	78	4508
2026-01-03 08:43:20.72	349.71	32.85	-56.3	-58.3	14.1	0.00e+00	0	31	0	998244352	78	4611
2026-01-03 08:43:21.73	349.53	32.66	-56.4	-58.5	14.0	0.00e+00	0	30	0	1000341504	78	4717
2026-01-03 08:43:22.73	349.36	32.48	-56.5	-58.6	13.9	0.00e+00	0	31	0	1002438656	78	4771
2026-01-03 08:43:23.74	349.18	32.30	-56.6	-58.8	13.8	0.00e+00	0	31	0	1004535808	78	4889
2026-01-03 08:43:24.75	349.01	32.11	-56.6	-58.7	13.8	0.00e+00	0	30	0	1005584384	78	4860
2026-01-03 08:43:25.76	348.83	31.93	-56.5	-58.7	13.8	0.00e+00	0	31	0	1007681536	78	4827
2026-01-03 08:43:26.77	348.66	31.75	-56.6	-58.8	13.7	0.00e+00	0	31	0	1009778688	78	4917
2026-01-03 08:43:27.78	348.49	31.57	-56.7	-58.9	13.7	0.00e+00	0	31	0	1011875840	78	4977
2026-01-03 08:43:28.79	348.33	31.39	-56.8	-59.2	13.6	0.00e+00	0	31	0	1013972992	79	4817
2026-01-03 08:43:29.80	348.16	31.21	-57.0	-59.5	13.4	0.00e+00	0	31	0	1015021568	79	4984
2026-01-03 08:43:30.80	348.00	31.04	-57.1	-59.6	13.4	0.00e+00	0	31	0	1017118720	79	5062
2026-01-03 08:43:31.81	347.84	30.86	-57.1	-59.7	13.3	0.00e+00	0	31	0	1019215872	79	5109
2026-01-03 08:43:32.82	347.68	30.68	-56.9	-59.2	13.6	0.00e+00	0	31	0	1021313024	79	4847
2026-01-03 08:43:33.83	347.52	30.51	-56.7	-59.0	13.7	0.00e+00	0	31	0	1023410176	79	4709
2026-01-03 08:43:34.84	347.37	30.33	-56.6	-58.7	13.9	0.00e+00	0	31	0	1024458752	79	4588
2026-01-03 08:43:35.85	347.22	30.16	-56.5	-58.7	13.9	0.00e+00	0	31	0	1026555904	79	4557
2026-01-03 08:43:36.86	347.06	29.99	-56.4	-58.5	14.0	0.00e+00	0	31	0	1028653056	79	4456
2026-01-03 08:43:37.86	346.91	29.82	-56.4	-58.5	14.0	0.00e+00	0	31	0	1030750208	79	4487
2026-01-03 08:43:38.87	346.76	29.65	-56.4	-58.5	14.0	0.00e+00	0	31	0	1032847360	79	4488
2026-01-03 08:43:39.88	346.62	29.47	-56.3	-58.4	14.1	0.00e+00	0	31	0	1033895936	79	4410
2026-01-03 08:43:40.89	346.47	29.30	-56.4	-58.5	14.0	0.00e+00	0	31	0	1035993088	79	4450
2026-01-03 08:43:41.90	346.33	29.14	-56.2	-58.2	14.1	0.00e+00	0	31	0	1038090240	79	4332
2026-01-03 08:43:42.91	346.18	28.97	-56.2	-58.1	14.1	0.00e+00	0	31	0	1040187392	78	4535
2026-01-03 08:43:43.91	346.04	28.80	-56.2	-58.1	14.1	0.00e+00	0	31	0	1042284544	78	4541
2026-01-03 08:43:44.92	345.91	28.64	-56.0	-58.0	14.2	0.00e+00	0	30	0	1043333120	78	4453
2026-01-03 08:43:45.93	345.77	28.47	-56.1	-58.1	14.2	0.00e+00	0	31	0	1045430272	78	4494
2026-01-03 08:43:46.94	345.63	28.31	-56.1	-58.0	14.1	0.00e+00	0	31	0	1047527424	78	4486
2026-01-03 08:43:47.94	345.50	28.14	-55.8	-57.7	14.3	0.00e+00	0	31	0	1049624576	78	4314
2026-01-03 08:43:48.95	345.36	27.98	-55.8	-57.6	14.4	0.00e+00	0	31	0	1051721728	78	4251
2026-01-03 08:43:49.96	345.23	27.82	-55.7	-57.6	14.3	0.00e+00	0	30	0	1052770304	77	4503
2026-01-03 08:43:50.97	345.10	27.65	-55.7	-57.5	14.4	0.00e+00	0	31	0	1054867456	77	4472
2026-01-03 08:43:51.98	344.97	27.49	-55.7	-57.5	14.4	0.00e+00	0	31	0	1056964608	77	4491
2026-01-03 08:43:52.98	344.84	27.34	-55.6	-57.4	14.4	0.00e+00	0	31	0	1059061760	77	4423
2026-01-03 08:43:53.99	344.71	27.18	-55.6	-57.4	14.4	0.00e+00	0	30	0	1061158912	77	4402
2026-01-03 08:43:55.00	344.59	27.02	-55.4	-57.1	14.6	0.00e+00	0	31	0	1062207488	77	4278
2026-01-03 08:43:56.01	344.46	26.86	-55.3	-56.9	14.6	0.00e+00	0	31	0	1064304640	77	4191
2026-01-03 08:43:57.02	344.34	26.70	-55.2	-56.9	14.7	0.00e+00	0	30	0	1066401792	77	4160
2026-01-03 08:43:58.03	344.22	26.55	-55.1	-56.7	14.7	0.00e+00	0	31	0	1068498944	76	4323
2026-01-03 08:43:59.04	344.10	26.39	-55.2	-56.8	14.6	0.00e+00	0	31	0	1070596096	76	4354
2026-01-03 08:44:00.05	343.98	26.23	-55.2	-56.8	14.7	0.00e+00	0	31	0	1071644672	76	4352
2026-01-03 08:44:01.05	343.86	26.08	-55.1	-56.7	14.7	0.00e+00	0	31	0	1073741824	76	4298
2026-01-03 08:44:02.06	343.74	25.93	-55.0	-56.6	14.7	0.00e+00	0	31	0	1075838976	76	4277
2026-01-03 08:44:03.06	343.63	25.78	-55.0	-56.6	14.7	0.00e+00	0	31	0	1077936128	76	4276
2026-01-03 08:44:04.07	343.51	25.63	-55.1	-56.6	14.7	0.00e+00	0	30	0	1080033280	76	4288
2026-01-03 08:44:05.08	343.40	25.47	-55.1	-56.7	14.7	0.00e+00	0	31	0	1081081856	76	4294
2026-01-03 08:44:06.09	343.29	25.32	-55.0	-56.6	14.7	0.00e+00	0	31	0	1083179008	76	4279
2026-01-03 08:44:07.10	343.18	25.17	-55.1	-56.7	14.7	0.00e+00	0	31	0	1085276160	76	4297
2026-01-03 08:44:08.10	343.07	25.03	-54.9	-56.5	14.8	0.00e+00	0	31	0	1087373312	76	4200
2026-01-03 08:44:09.10	342.96	24.88	-54.7	-56.2	14.9	0.00e+00	0	31	0	1089470464	76	4092
2026-01-03 08:44:10.11	342.85	24.73	-54.7	-56.2	14.9	0.00e+00	0	30	0	1090519040	76	4077
2026-01-03 08:44:11.12	342.74	24.59	-54.8	-56.2	14.9	0.00e+00	0	31	0	1092616192	76	4096
2026-01-03 08:44:12.13	342.64	24.44	-54.6	-56.0	14.9	0.00e+00	0	31	0	1094713344	75	4235
2026-01-03 08:44:13.14	342.53	24.29	-54.6	-56.1	14.8	0.00e+00	0	31	0	1096810496	75	4245
2026-01-03 08:44:14.14	342.43	24.15	-54.6	-56.1	14.8	0.00e+00	0	31	0	1098907648	75	4290
2026-01-03 08:44:15.15	342.32	24.01	-54.7	-56.2	14.8	0.00e+00	0	31	0	1099956224	75	4309
2026-01-03 08:44:16.16	342.22	23.86	-54.8	-56.4	14.7	0.00e+00	0	31	0	1102053376	75	4400
2026-01-03 08:44:17.16	342.12	23.72	-54.9	-56.6	14.6	0.00e+00	0	31	0	1104150528	75	4496
2026-01-03 08:44:18.17	342.02	23.58	-55.1	-56.7	14.5	0.00e+00	0	30	0	1106247680	75	4573
2026-01-03 08:44:19.18	341.92	23.44	-55.1	-56.8	14.5	0.00e+00	0	31	0	1108344832	75	4622
2026-01-03 08:44:20.19	341.82	23.30	-55.2	-56.9	14.5	0.00e+00	0	31	0	1109393408	75	4696
2026-01-03 08:44:21.19	341.72	23.16	-55.2	-57.0	14.4	0.00e+00	0	30	0	1111490560	75	4715
2026-01-03 08:44:22.21	341.63	23.02	-55.2	-56.9	14.5	0.00e+00	0	31	0	1113587712	75	4689
2026-01-03 08:44:23.21	341.53	22.88	-55.2	-56.8	14.5	0.00e+00	0	31	0	1115684864	75	4648
2026-01-03 08:44:24.22	341.44	22.74	-55.0	-56.7	14.6	0.00e+00	0	31	0	1117782016	75	4570
2026-01-03 08:44:25.23	341.34	22.60	-54.9	-56.6	14.6	0.00e+00	0	31	0	1118830592	75	4508
2026-01-03 08:44:26.24	341.25	22.47	-54.9	-56.5	14.6	0.00e+00	0	31	0	1120927744	75	4477
2026-01-03 08:44:27.24	341.16	22.33	-54.9	-56.5	14.6	0.00e+00	0	31	0	1123024896	75	4469
2026-01-03 08:44:28.25	341.07	22.20	-54.8	-56.3	14.7	0.00e+00	0	31	0	1125122048	75	4385
2026-01-03 08:44:29.26	340.98	22.06	-54.7	-56.3	14.7	0.00e+00	0	31	0	1127219200	75	4365
2026-01-03 08:44:30.27	340.89	21.93	-54.8	-56.4	14.7	0.00e+00	0	30	0	1129316352	75	4422
2026-01-03 08:44:31.28	340.80	21.80	-54.7	-56.3	14.7	0.00e+00	0	30	0	1130364928	75	4347
2026-01-03 08:44:32.29	340.71	21.66	-54.7	-56.3	14.7	0.00e+00	0	31	0	1132462080	75	4352
2026-01-03 08:44:33.29	340.62	21.53	-54.7	-56.2	14.7	0.00e+00	0	30	0	1134559232	75	4336
2026-01-03 08:44:34.30	340.53	21.40	-54.7	-56.2	14.8	0.00e+00	0	31	0	1136656384	75	4310
2026-01-03 08:44:35.31	340.45	21.27	-54.6	-56.2	14.8	0.00e+00	0	31	0	1137704960	75	4304
2026-01-03 08:44:36.31	340.36	21.14	-54.7	-56.2	14.8	0.00e+00	0	31	0	1139802112	75	4324
2026-01-03 08:44:37.32	340.28	21.01	-54.6	-56.1	14.8	0.00e+00	0	30	0	1141899264	75	4272
2026-01-03 08:44:38.32	340.20	20.88	-54.5	-56.0	14.9	0.00e+00	0	31	0	1143996416	75	4199
2026-01-03 08:44:39.34	340.11	20.75	-54.5	-56.0	14.8	0.00e+00	0	30	0	1146093568	75	4231
2026-01-03 08:44:40.34	340.03	20.62	-54.5	-55.9	14.9	0.00e+00	0	31	0	1147142144	75	4187
2026-01-03 08:44:41.35	339.95	20.50	-54.4	-55.8	14.9	0.00e+00	0	31	0	1149239296	75	4129
2026-01-03 08:44:42.36	339.87	20.37	-54.4	-55.9	14.9	0.00e+00	0	31	0	1151336448	75	4147
2026-01-03 08:44:43.37	339.79	20.24	-54.4	-55.8	14.9	0.00e+00	0	31	0	1153433600	75	4135
2026-01-03 08:44:44.37	339.71	20.12	-54.5	-55.9	14.9	0.00e+00	0	31	0	1155530752	75	4193
2026-01-03 08:44:45.38	339.63	19.99	-54.3	-55.8	14.9	0.00e+00	0	31	0	1156579328	75	4110
2026-01-03 08:44:46.39	339.55	19.87	-54.4	-55.9	14.9	0.00e+00	0	31	0	1158676480	75	4160
2026-01-03 08:44:47.40	339.47	19.74	-54.3	-55.8	14.9	0.00e+00	0	31	0	1160773632	75	4117
2026-01-03 08:44:48.40	339.40	19.62	-54.4	-55.8	14.9	0.00e+00	0	31	0	1162870784	75	4127
2026-01-03 08:44:49.41	339.32	19.50	-54.4	-55.8	14.9	0.00e+00	0	30	0	1164967936	75	4139
2026-01-03 08:44:50.42	339.25	19.38	-54.4	-55.9	14.9	0.00e+00	0	31	0	1167065088	75	4168
2026-01-03 08:44:51.43	339.17	19.25	-54.5	-56.0	14.8	0.00e+00	0	30	0	1168113664	75	4234
2026-01-03 08:44:52.44	339.10	19.13	-54.5	-56.0	14.8	0.00e+00	0	31	0	1170210816	75	4237
2026-01-03 08:44:53.45	339.02	19.01	-54.5	-56.0	14.8	0.00e+00	0	30	0	1172307968	75	4221
2026-01-03 08:44:54.45	338.95	18.89	-54.5	-56.0	14.8	0.00e+00	0	31	0	1174405120	75	4211
2026-01-03 08:44:55.47	338.88	18.77	-54.5	-56.0	14.8	0.00e+00	0	31	0	1176502272	75	4211
2026-01-03 08:44:56.47	338.81	18.65	-54.5	-56.0	14.8	0.00e+00	0	31	0	1177550848	75	4236
2026-01-03 08:44:57.48	338.73	18.54	-54.5	-56.1	14.8	0.00e+00	0	30	0	1179648000	75	4251
2026-01-03 08:44:58.49	338.66	18.42	-54.5	-56.1	14.8	0.00e+00	0	31	0	1181745152	75	4250
2026-01-03 08:44:59.49	338.59	18.30	-54.5	-56.0	14.8	0.00e+00	0	31	0	1183842304	75	4218
2026-01-03 08:45:00.50	338.52	18.18	-54.6	-56.1	14.7	0.00e+00	0	31	0	1185939456	75	4281
2026-01-03 08:45:01.51	338.46	18.07	-54.5	-56.0	14.8	0.00e+00	0	31	0	1186988032	75	4211
2026-01-03 08:45:02.52	338.39	17.95	-54.5	-56.1	14.8	0.00e+00	0	30	0	1189085184	75	4249
2026-01-03 08:45:03.52	338.32	17.84	-54.6	-56.2	14.7	0.00e+00	0	31	0	1191182336	75	4306
2026-01-03 08:45:04.53	338.25	17.72	-54.6	-56.1	14.7	0.00e+00	0	30	0	1193279488	75	4287
2026-01-03 08:45:05.54	338.19	17.61	-54.6	-56.1	14.7	0.00e+00	0	31	0	1195376640	75	4280
2026-01-03 08:45:06.55	338.12	17.49	-54.6	-56.1	14.7	0.00e+00	0	30	0	1196425216	75	4291
2026-01-03 08:45:07.56	338.05	17.38	-54.6	-56.1	14.8	0.00e+00	0	31	0	1198522368	75	4268
2026-01-03 08:45:08.57	337.99	17.27	-54.6	-56.2	14.7	0.00e+00	0	30	0	1200619520	75	4294
2026-01-03 08:45:09.57	337.92	17.15	-54.6	-56.1	14.7	0.00e+00	0	31	0	1202716672	75	4285
2026-01-03 08:45:10.58	337.86	17.04	-54.6	-56.1	14.7	0.00e+00	0	30	0	1204813824	75	4291
2026-01-03 08:45:11.59	337.80	16.93	-54.6	-56.2	14.7	0.00e+00	0	31	0	1205862400	75	4321
2026-01-03 08:45:12.60	337.73	16.82	-54.7	-56.2	14.7	0.00e+00	0	30	0	1207959552	75	4330
2026-01-03 08:45:13.61	337.67	16.71	-54.7	-56.2	14.6	0.00e+00	0	30	0	1210056704	75	4333
2026-01-03 08:45:14.62	337.61	16.60	-54.7	-56.3	14.7	0.00e+00	0	31	0	1212153856	75	4341
2026-01-03 08:45:15.63	337.55	16.49	-54.7	-56.4	14.6	0.00e+00	0	31	0	1214251008	75	4392
2026-01-03 08:45:16.63	337.48	16.38	-54.7	-56.3	14.6	0.00e+00	0	30	0	1215299584	75	4389
2026-01-03 08:45:17.64	337.42	16.27	-54.8	-56.5	14.6	0.00e+00	0	31	0	1217396736	75	4471
2026-01-03 08:45:18.65	337.36	16.16	-54.9	-56.6	14.6	0.00e+00	0	30	0	1219493888	75	4501
2026-01-03 08:45:19.66	337.30	16.05	-54.8	-56.5	14.6	0.00e+00	0	30	0	1221591040	75	4454
2026-01-03 08:45:20.67	337.24	15.95	-54.8	-56.4	14.6	0.00e+00	0	30	0	1223688192	75	4413
2026-01-03 08:45:21.68	337.18	15.84	-54.8	-56.4	14.6	0.00e+00	0	31	0	1224736768	75	4427
2026-01-03 08:45:22.69	337.13	15.73	-54.7	-56.4	14.6	0.00e+00	0	30	0	1226833920	75	4400
2026-01-03 08:45:23.69	337.07	15.63	-54.8	-56.4	14.6	0.00e+00	0	30	0	1228931072	75	4429
2026-01-03 08:45:24.70	337.01	15.52	-54.8	-56.5	14.5	0.00e+00	0	31	0	1231028224	75	4459
2026-01-03 08:45:25.71	336.95	15.41	-54.7	-56.4	14.6	0.00e+00	0	31	0	1233125376	75	4398
2026-01-03 08:45:26.72	336.90	15.31	-54.8	-56.5	14.6	0.00e+00	0	31	0	1234173952	75	4463
2026-01-03 08:45:27.73	336.84	15.21	-54.8	-56.5	14.5	0.00e+00	0	30	0	1236271104	75	4474
2026-01-03 08:45:28.73	336.79	15.10	-54.8	-56.4	14.6	0.00e+00	0	30	0	1238368256	75	4420
2026-01-03 08:45:29.75	336.73	15.00	-54.8	-56.5	14.5	0.00e+00	0	31	0	1240465408	75	4470
2026-01-03 08:45:30.75	336.67	14.89	-54.9	-56.5	14.5	0.00e+00	0	31	0	1242562560	75	4483
2026-01-03 08:45:31.76	336.62	14.79	-54.8	-56.5	14.6	0.00e+00	0	31	0	1243611136	75	4455
2026-01-03 08:45:32.77	336.57	14.69	-54.8	-56.5	14.5	0.00e+00	0	30	0	1245708288	75	4459
2026-01-03 08:45:33.78	336.51	14.59	-54.9	-56.6	14.5	0.00e+00	0	31	0	1247805440	75	4516
2026-01-03 08:45:34.79	336.46	14.49	-54.9	-56.5	14.5	0.00e+00	0	31	0	1249902592	75	4489
2026-01-03 08:45:35.80	336.40	14.38	-55.0	-56.7	14.4	0.00e+00	0	31	0	1251999744	75	4557
