passes_logs/2026/01/03/R3.2S_Murmansk/R3.2S_Murmansk__20260103_091518_FENGYUN_3D_rec.log

#Pass ID: 20260103_091518_FENGYUN 3D
#Satellite: FENGYUN 3D
#Configuration: FENGYUN 3D
#almurnet v.1.7.20251203
#Start time: 2026-01-03 09:15:20

#Version: 2.2.20231116
#Station: R3.2S_Murmansk
#Location: 33.079688 lon 68.888172 lat
#TLE: 1 43010U 17072A   26002.95198047  .00000207  00000+0  11963-3 0  9999
#TLE: 2 43010  98.9912 334.5826 0001910 130.7105 229.4237 14.19692231421540

#Time	Az	El	Level	Level2	SNR	BER	BlckErr	Temp	State	Recorded	gain1	gain2
2026-01-03 09:15:20.05	99.86	2.11	-59.6	-72.1	3.8	8.45e-01	0	28	0	0	85	15212
2026-01-03 09:15:21.05	99.81	2.17	-59.6	-72.2	3.8	8.44e-01	0	28	104	0	84	16131
2026-01-03 09:15:22.06	99.76	2.24	-59.6	-72.2	3.8	8.44e-01	0	28	104	0	84	16152
2026-01-03 09:15:23.07	99.71	2.30	-59.6	-72.1	3.8	8.47e-01	0	28	104	0	84	16061
2026-01-03 09:15:24.08	99.67	2.36	-59.6	-72.1	3.8	8.46e-01	0	28	104	0	84	16074
2026-01-03 09:15:25.09	99.62	2.42	-59.6	-72.1	3.8	8.45e-01	0	29	104	0	84	16106
2026-01-03 09:15:26.09	99.57	2.48	-59.6	-72.2	3.9	8.45e-01	0	28	104	0	84	16162
2026-01-03 09:15:27.10	99.52	2.54	-59.6	-72.2	3.8	8.45e-01	0	29	104	0	84	16156
2026-01-03 09:15:28.11	99.47	2.61	-59.6	-72.2	3.8	8.45e-01	0	29	104	0	84	16216
2026-01-03 09:15:29.11	99.43	2.67	-59.6	-72.2	3.8	8.46e-01	0	29	104	0	84	16193
2026-01-03 09:15:30.12	99.38	2.73	-59.6	-72.1	3.8	8.45e-01	0	29	104	0	84	16123
2026-01-03 09:15:31.13	99.33	2.79	-59.6	-72.1	3.8	8.45e-01	0	29	104	0	84	16108
2026-01-03 09:15:32.14	99.28	2.85	-59.6	-72.1	3.8	8.47e-01	0	29	104	0	84	16043
2026-01-03 09:15:33.15	99.23	2.92	-59.6	-72.1	3.8	8.46e-01	0	29	104	0	84	16032
2026-01-03 09:15:34.16	99.18	2.98	-59.6	-72.1	3.8	8.46e-01	0	29	104	0	84	16112
2026-01-03 09:15:35.16	99.13	3.04	-59.6	-72.2	3.8	8.45e-01	0	29	104	0	84	16132
2026-01-03 09:15:36.17	99.08	3.10	-59.6	-72.2	3.8	8.46e-01	0	29	104	0	84	16142
2026-01-03 09:15:37.18	99.03	3.17	-59.6	-72.2	3.8	8.47e-01	0	29	104	0	84	16180
2026-01-03 09:15:38.19	98.98	3.23	-59.6	-72.2	3.8	8.47e-01	0	29	104	0	84	16157
2026-01-03 09:15:39.19	98.93	3.29	-59.6	-72.1	3.8	8.45e-01	0	29	104	0	84	16052
2026-01-03 09:15:40.20	98.87	3.36	-59.6	-72.0	3.8	8.46e-01	0	29	104	0	84	15913
2026-01-03 09:15:41.21	98.82	3.42	-59.6	-71.9	3.8	8.45e-01	0	29	104	0	84	15743
2026-01-03 09:15:42.22	98.77	3.48	-59.6	-71.8	3.8	8.46e-01	0	29	104	0	84	15479
2026-01-03 09:15:43.23	98.72	3.55	-59.6	-71.8	3.8	8.44e-01	0	29	104	0	84	15484
2026-01-03 09:15:44.24	98.67	3.61	-59.6	-71.9	3.8	8.46e-01	0	29	104	0	84	15649
2026-01-03 09:15:45.25	98.61	3.68	-59.6	-72.0	3.8	8.45e-01	0	29	104	0	84	15810
2026-01-03 09:15:46.26	98.56	3.74	-59.6	-72.1	3.8	8.46e-01	0	29	104	0	84	16080
2026-01-03 09:15:47.27	98.51	3.80	-59.6	-72.2	3.9	8.45e-01	0	29	104	0	84	16201
2026-01-03 09:15:48.28	98.46	3.87	-59.6	-72.2	3.8	8.46e-01	0	29	104	0	84	16139
2026-01-03 09:15:49.29	98.40	3.93	-59.6	-71.9	3.8	8.46e-01	0	29	104	0	84	15631
2026-01-03 09:15:50.30	98.35	4.00	-59.5	-71.2	3.8	8.45e-01	0	29	104	0	84	14397
2026-01-03 09:15:51.31	98.29	4.06	-59.5	-70.4	3.8	8.45e-01	0	29	104	0	84	13253
2026-01-03 09:15:52.32	98.24	4.13	-59.4	-69.2	4.1	8.43e-01	0	29	104	0	84	11503
2026-01-03 09:15:53.33	98.19	4.19	-59.3	-68.4	4.3	8.35e-01	0	29	0	0	84	10456
2026-01-03 09:15:54.34	98.13	4.26	-59.1	-67.4	4.6	8.15e-01	0	29	0	0	84	9295
2026-01-03 09:15:55.34	98.08	4.32	-58.9	-66.3	5.1	7.83e-01	0	29	0	0	84	8186
2026-01-03 09:15:56.35	98.02	4.39	-58.5	-64.8	5.9	4.58e-01	0	29	0	2097152	83	7356
2026-01-03 09:15:57.35	97.97	4.45	-58.2	-63.9	6.5	2.45e-01	0	29	0	7340032	83	6643
2026-01-03 09:15:58.37	97.91	4.52	-57.8	-62.5	7.7	9.05e-02	0	29	0	13631488	82	5941
2026-01-03 09:15:59.38	97.85	4.59	-57.3	-61.3	8.7	2.99e-02	0	29	0	18874368	81	5494
2026-01-03 09:16:00.38	97.80	4.65	-56.9	-60.5	9.4	1.04e-02	0	29	0	24117248	80	5307
2026-01-03 09:16:01.39	97.74	4.72	-56.5	-59.8	10.0	4.65e-03	0	29	0	30408704	79	5184
2026-01-03 09:16:02.40	97.68	4.78	-56.2	-59.2	10.6	1.03e-03	0	29	0	35651584	79	4816
2026-01-03 09:16:03.41	97.63	4.85	-55.9	-58.7	10.9	3.71e-04	0	29	0	41943040	78	4824
2026-01-03 09:16:04.42	97.57	4.92	-55.8	-58.4	11.1	1.80e-04	0	29	0	47185920	78	4689
2026-01-03 09:16:05.43	97.51	4.98	-55.8	-58.5	11.0	2.56e-04	0	29	0	52428800	78	4731
2026-01-03 09:16:06.44	97.45	5.05	-55.0	-57.1	12.0	1.58e-04	0	29	0	58720256	76	4520
2026-01-03 09:16:07.45	97.40	5.12	-52.7	-54.1	13.8	0.00e+00	0	29	0	63963136	72	4039
2026-01-03 09:16:08.46	97.34	5.18	-55.2	-57.5	11.9	0.00e+00	0	29	0	70254592	75	5019
2026-01-03 09:16:09.47	97.28	5.25	-56.4	-59.3	10.5	2.50e-01	0	29	0	75497472	79	4904
2026-01-03 09:16:10.48	97.22	5.32	-52.5	-53.9	13.9	1.72e-03	0	29	0	80740352	71	4153
2026-01-03 09:16:11.48	97.16	5.39	-52.8	-54.3	13.7	0.00e+00	0	29	0	87031808	72	4101
2026-01-03 09:16:12.50	97.10	5.45	-52.0	-53.3	14.1	0.00e+00	0	29	0	92274688	70	4109
2026-01-03 09:16:13.51	97.04	5.52	-51.9	-53.2	14.2	0.00e+00	0	29	0	98566144	70	4074
2026-01-03 09:16:14.52	96.98	5.59	-51.7	-52.9	14.3	0.00e+00	0	29	0	103809024	69	4176
2026-01-03 09:16:15.52	96.92	5.66	-51.7	-52.9	14.3	0.00e+00	0	29	0	110100480	69	4174
2026-01-03 09:16:16.53	96.86	5.73	-51.6	-52.8	14.3	0.00e+00	0	29	0	115343360	69	4119
2026-01-03 09:16:17.54	96.80	5.80	-51.6	-52.7	14.3	0.00e+00	0	29	0	120586240	69	4084
2026-01-03 09:16:18.55	96.74	5.86	-51.3	-52.4	14.5	0.00e+00	0	29	0	126877696	69	3958
2026-01-03 09:16:19.56	96.67	5.93	-51.2	-52.3	14.4	0.00e+00	0	29	0	132120576	68	4119
2026-01-03 09:16:20.57	96.61	6.00	-51.2	-52.3	14.5	0.00e+00	0	30	0	138412032	68	4134
2026-01-03 09:16:21.58	96.55	6.07	-51.2	-52.4	14.5	0.00e+00	0	29	0	143654912	68	4161
2026-01-03 09:16:22.59	96.49	6.14	-51.0	-52.1	14.6	0.00e+00	0	29	0	148897792	68	4022
2026-01-03 09:16:23.60	96.42	6.21	-51.1	-52.2	14.5	0.00e+00	0	30	0	155189248	68	4075
2026-01-03 09:16:24.61	96.36	6.28	-51.1	-52.3	14.5	0.00e+00	0	30	0	160432128	68	4105
2026-01-03 09:16:25.62	96.30	6.35	-51.1	-52.2	14.6	0.00e+00	0	29	0	166723584	68	4062
2026-01-03 09:16:26.62	96.23	6.42	-51.1	-52.2	14.5	0.00e+00	0	30	0	171966464	68	4091
2026-01-03 09:16:27.62	96.17	6.49	-51.1	-52.2	14.6	0.00e+00	0	29	0	177209344	68	4074
2026-01-03 09:16:28.63	96.10	6.56	-51.1	-52.2	14.5	0.00e+00	0	29	0	183500800	68	4087
2026-01-03 09:16:29.64	96.04	6.63	-51.0	-52.1	14.6	0.00e+00	0	29	0	188743680	68	4029
2026-01-03 09:16:30.65	95.97	6.70	-51.1	-52.2	14.5	0.00e+00	0	30	0	195035136	68	4096
2026-01-03 09:16:31.66	95.91	6.77	-51.2	-52.3	14.5	0.00e+00	0	30	0	200278016	68	4141
2026-01-03 09:16:32.67	95.84	6.84	-51.1	-52.2	14.6	0.00e+00	0	30	0	206569472	68	4066
2026-01-03 09:16:33.68	95.78	6.91	-51.1	-52.2	14.6	0.00e+00	0	30	0	211812352	68	4069
2026-01-03 09:16:34.69	95.71	6.98	-51.0	-52.1	14.6	0.00e+00	0	30	0	217055232	68	4041
2026-01-03 09:16:35.70	95.64	7.05	-51.1	-52.2	14.5	0.00e+00	0	30	0	223346688	68	4073
2026-01-03 09:16:36.71	95.58	7.12	-50.9	-52.0	14.7	0.00e+00	0	30	0	228589568	68	3968
2026-01-03 09:16:37.72	95.51	7.19	-51.0	-52.1	14.6	0.00e+00	0	30	0	234881024	68	4008
2026-01-03 09:16:38.73	95.44	7.27	-50.9	-52.0	14.6	0.00e+00	0	30	0	240123904	68	3985
2026-01-03 09:16:39.74	95.37	7.34	-50.9	-52.0	14.6	0.00e+00	0	30	0	245366784	68	3983
2026-01-03 09:16:40.75	95.30	7.41	-50.8	-51.9	14.7	0.00e+00	0	30	0	251658240	68	3941
2026-01-03 09:16:41.75	95.23	7.48	-50.9	-52.0	14.7	0.00e+00	0	30	0	256901120	68	3972
2026-01-03 09:16:42.76	95.16	7.55	-50.8	-51.9	14.7	0.00e+00	0	30	0	263192576	68	3932
2026-01-03 09:16:43.77	95.09	7.63	-50.8	-51.8	14.7	0.00e+00	0	30	0	268435456	68	3902
2026-01-03 09:16:44.78	95.02	7.70	-50.8	-51.8	14.8	0.00e+00	0	30	0	273678336	68	3911
2026-01-03 09:16:45.79	94.95	7.77	-50.8	-51.9	14.7	0.00e+00	0	30	0	279969792	68	3916
2026-01-03 09:16:46.80	94.88	7.84	-50.8	-51.8	14.8	0.00e+00	0	30	0	285212672	68	3891
2026-01-03 09:16:47.80	94.81	7.92	-50.7	-51.8	14.8	0.00e+00	0	30	0	291504128	68	3895
2026-01-03 09:16:48.81	94.74	7.99	-50.7	-51.8	14.8	0.00e+00	0	30	0	296747008	68	3870
2026-01-03 09:16:49.82	94.67	8.06	-50.7	-51.7	14.8	0.00e+00	0	30	0	303038464	68	3868
2026-01-03 09:16:50.83	94.60	8.14	-50.4	-51.4	14.8	0.00e+00	0	30	0	308281344	67	3937
2026-01-03 09:16:51.84	94.52	8.21	-50.5	-51.5	14.8	0.00e+00	0	30	0	313524224	67	3988
2026-01-03 09:16:52.85	94.45	8.28	-50.4	-51.4	14.8	0.00e+00	0	30	0	319815680	67	3941
2026-01-03 09:16:53.86	94.38	8.36	-50.3	-51.4	14.8	0.00e+00	0	30	0	325058560	67	3915
2026-01-03 09:16:54.87	94.30	8.43	-50.3	-51.3	14.9	0.00e+00	0	30	0	331350016	67	3876
2026-01-03 09:16:55.88	94.23	8.51	-50.3	-51.3	14.9	0.00e+00	0	30	0	336592896	67	3879
2026-01-03 09:16:56.89	94.15	8.58	-50.3	-51.3	14.9	0.00e+00	0	30	0	341835776	67	3877
2026-01-03 09:16:57.90	94.08	8.66	-50.2	-51.2	14.9	0.00e+00	0	30	0	348127232	67	3868
2026-01-03 09:16:58.91	94.00	8.73	-50.3	-51.3	14.9	0.00e+00	0	30	0	353370112	67	3870
2026-01-03 09:16:59.92	93.93	8.81	-50.1	-51.1	14.9	0.00e+00	0	30	0	359661568	66	4038
2026-01-03 09:17:00.93	93.85	8.88	-50.2	-51.1	14.9	0.00e+00	0	30	0	364904448	66	4034
2026-01-03 09:17:01.94	93.77	8.96	-50.1	-51.1	14.9	0.00e+00	0	30	0	370147328	66	4020
2026-01-03 09:17:02.95	93.70	9.03	-50.2	-51.2	14.9	0.00e+00	0	30	0	376438784	66	4055
2026-01-03 09:17:03.96	93.62	9.11	-50.3	-51.2	14.8	0.00e+00	0	30	0	381681664	66	4096
2026-01-03 09:17:04.97	93.54	9.19	-50.2	-51.2	14.9	0.00e+00	0	30	0	387973120	66	4098
2026-01-03 09:17:05.98	93.46	9.26	-50.2	-51.2	14.9	0.00e+00	0	30	0	393216000	66	4085
2026-01-03 09:17:06.99	93.38	9.34	-50.0	-51.0	14.9	0.00e+00	0	30	0	399507456	66	3992
2026-01-03 09:17:07.99	93.30	9.41	-50.1	-51.1	14.9	0.00e+00	0	30	0	404750336	66	4037
2026-01-03 09:17:09.01	93.22	9.49	-50.2	-51.1	14.9	0.00e+00	0	30	0	411041792	66	4044
2026-01-03 09:17:10.02	93.14	9.57	-50.1	-51.0	14.9	0.00e+00	0	30	0	416284672	66	4002
2026-01-03 09:17:11.03	93.06	9.65	-50.1	-51.1	14.9	0.00e+00	0	30	0	421527552	66	4014
2026-01-03 09:17:12.04	92.98	9.72	-50.2	-51.2	14.9	0.00e+00	0	30	0	427819008	66	4052
2026-01-03 09:17:13.05	92.90	9.80	-50.1	-51.1	14.9	0.00e+00	0	30	0	433061888	66	4011
2026-01-03 09:17:14.06	92.82	9.88	-49.9	-50.9	15.0	0.00e+00	0	30	0	439353344	66	3937
2026-01-03 09:17:15.07	92.74	9.96	-49.9	-50.9	15.0	0.00e+00	0	30	0	444596224	66	3927
2026-01-03 09:17:16.08	92.65	10.04	-49.9	-50.8	15.0	0.00e+00	0	30	0	449839104	66	3911
2026-01-03 09:17:17.09	92.57	10.11	-49.9	-50.8	15.0	0.00e+00	0	30	0	456130560	66	3900
2026-01-03 09:17:18.10	92.49	10.19	-49.9	-50.8	15.0	0.00e+00	0	30	0	461373440	66	3911
2026-01-03 09:17:19.11	92.40	10.27	-49.9	-50.8	15.0	0.00e+00	0	30	0	467664896	66	3908
2026-01-03 09:17:20.12	92.32	10.35	-49.7	-50.7	15.1	0.00e+00	0	30	0	472907776	66	3845
2026-01-03 09:17:21.13	92.23	10.43	-49.8	-50.7	15.1	0.00e+00	0	30	0	478150656	66	3848
2026-01-03 09:17:22.14	92.15	10.51	-49.8	-50.8	15.1	0.00e+00	0	30	0	484442112	66	3882
2026-01-03 09:17:23.16	92.06	10.59	-49.7	-50.6	15.1	0.00e+00	0	30	0	489684992	65	4019
2026-01-03 09:17:24.17	91.97	10.67	-49.7	-50.6	15.0	0.00e+00	0	30	0	495976448	65	4040
2026-01-03 09:17:25.18	91.88	10.75	-49.7	-50.6	15.0	0.00e+00	0	30	0	501219328	65	4038
2026-01-03 09:17:26.18	91.80	10.83	-49.8	-50.7	15.0	0.00e+00	0	30	0	507510784	65	4079
2026-01-03 09:17:27.19	91.71	10.91	-49.7	-50.6	15.0	0.00e+00	0	30	0	512753664	65	4050
2026-01-03 09:17:28.20	91.62	10.99	-49.8	-50.8	15.0	0.00e+00	0	30	0	517996544	65	4111
2026-01-03 09:17:29.21	91.53	11.07	-49.7	-50.6	15.0	0.00e+00	0	30	0	524288000	65	4040
2026-01-03 09:17:30.22	91.44	11.15	-49.8	-50.8	15.0	0.00e+00	0	30	0	529530880	65	4117
2026-01-03 09:17:31.23	91.35	11.23	-49.8	-50.7	15.0	0.00e+00	0	30	0	535822336	65	4091
2026-01-03 09:17:32.24	91.26	11.31	-49.8	-50.8	15.0	0.00e+00	0	30	0	541065216	65	4104
2026-01-03 09:17:33.25	91.17	11.39	-49.9	-50.8	15.0	0.00e+00	0	30	0	546308096	65	4144
2026-01-03 09:17:34.26	91.08	11.47	-49.9	-50.9	15.0	0.00e+00	0	30	0	552599552	65	4160
2026-01-03 09:17:35.27	90.99	11.56	-49.9	-50.9	15.0	0.00e+00	0	30	0	557842432	65	4148
2026-01-03 09:17:36.28	90.89	11.64	-49.7	-50.7	15.0	0.00e+00	0	30	0	564133888	65	4066
2026-01-03 09:17:37.29	90.80	11.72	-49.6	-50.6	15.1	0.00e+00	0	30	0	569376768	65	4021
2026-01-03 09:17:38.30	90.71	11.80	-49.8	-50.7	15.0	0.00e+00	0	30	0	574619648	65	4096
2026-01-03 09:17:39.31	90.61	11.88	-49.7	-50.6	15.0	0.00e+00	0	30	0	580911104	65	4051
2026-01-03 09:17:40.32	90.52	11.97	-49.6	-50.5	15.1	0.00e+00	0	30	0	586153984	65	3996
2026-01-03 09:17:41.33	90.42	12.05	-49.5	-50.5	15.1	0.00e+00	0	30	0	592445440	65	3965
2026-01-03 09:17:42.34	90.32	12.13	-49.5	-50.4	15.1	0.00e+00	0	30	0	597688320	65	3943
2026-01-03 09:17:43.35	90.23	12.22	-49.4	-50.3	15.2	0.00e+00	0	30	0	603979776	65	3895
2026-01-03 09:17:44.35	90.13	12.30	-49.5	-50.4	15.1	0.00e+00	0	30	0	609222656	65	3932
2026-01-03 09:17:45.37	90.03	12.38	-49.4	-50.3	15.2	0.00e+00	0	30	0	615514112	65	3892
2026-01-03 09:17:46.37	89.94	12.47	-49.4	-50.4	15.1	0.00e+00	0	30	0	620756992	65	3926
2026-01-03 09:17:47.38	89.84	12.55	-49.4	-50.4	15.1	0.00e+00	0	30	0	625999872	65	3929
2026-01-03 09:17:48.39	89.74	12.64	-49.3	-50.2	15.2	0.00e+00	0	30	0	632291328	65	3853
2026-01-03 09:17:49.40	89.64	12.72	-49.1	-50.1	15.3	0.00e+00	0	30	0	637534208	64	4008
2026-01-03 09:17:50.42	89.54	12.81	-49.2	-50.1	15.2	0.00e+00	0	30	0	643825664	64	4048
2026-01-03 09:17:51.42	89.43	12.89	-49.2	-50.1	15.2	0.00e+00	0	30	0	649068544	64	4041
2026-01-03 09:17:52.43	89.33	12.97	-49.3	-50.3	15.1	0.00e+00	0	30	0	654311424	64	4107
2026-01-03 09:17:53.44	89.23	13.06	-49.2	-50.2	15.2	0.00e+00	0	30	0	660602880	64	4052
2026-01-03 09:17:54.45	89.13	13.15	-49.2	-50.1	15.2	0.00e+00	0	30	0	665845760	64	4022
2026-01-03 09:17:55.46	89.02	13.23	-49.1	-50.0	15.2	0.00e+00	0	30	0	672137216	64	3965
2026-01-03 09:17:56.47	88.92	13.32	-49.0	-49.9	15.3	0.00e+00	0	30	0	677380096	64	3934
2026-01-03 09:17:57.48	88.81	13.40	-49.1	-49.9	15.3	0.00e+00	0	30	0	682622976	64	3955
2026-01-03 09:17:58.49	88.71	13.49	-49.0	-49.9	15.3	0.00e+00	0	30	0	688914432	64	3940
2026-01-03 09:17:59.50	88.60	13.58	-49.2	-50.1	15.2	0.00e+00	0	30	0	694157312	64	4022
2026-01-03 09:18:00.51	88.49	13.66	-49.1	-50.0	15.2	0.00e+00	0	30	0	700448768	64	3960
2026-01-03 09:18:01.51	88.39	13.75	-49.0	-49.9	15.3	0.00e+00	0	30	0	705691648	64	3948
2026-01-03 09:18:02.52	88.28	13.84	-49.0	-49.9	15.3	0.00e+00	0	30	0	711983104	64	3938
2026-01-03 09:18:03.53	88.17	13.92	-48.9	-49.8	15.3	0.00e+00	0	30	0	717225984	64	3892
2026-01-03 09:18:04.54	88.06	14.01	-49.0	-49.8	15.3	0.00e+00	0	30	0	722468864	64	3912
2026-01-03 09:18:05.55	87.95	14.10	-48.9	-49.8	15.3	0.00e+00	0	30	0	728760320	64	3889
2026-01-03 09:18:06.56	87.84	14.19	-49.0	-49.9	15.3	0.00e+00	0	30	0	734003200	64	3921
2026-01-03 09:18:07.57	87.73	14.28	-48.9	-49.8	15.3	0.00e+00	0	30	0	740294656	64	3888
2026-01-03 09:18:08.57	87.62	14.36	-49.0	-49.9	15.3	0.00e+00	0	30	0	745537536	64	3919
2026-01-03 09:18:09.58	87.51	14.45	-48.9	-49.8	15.3	0.00e+00	0	30	0	750780416	64	3887
2026-01-03 09:18:10.60	87.39	14.54	-48.8	-49.6	15.4	0.00e+00	0	30	0	757071872	64	3818
2026-01-03 09:18:11.60	87.28	14.63	-48.7	-49.6	15.4	0.00e+00	0	30	0	762314752	64	3817
2026-01-03 09:18:12.61	87.16	14.72	-48.8	-49.6	15.4	0.00e+00	0	30	0	768606208	64	3815
2026-01-03 09:18:13.62	87.05	14.81	-48.9	-49.8	15.4	0.00e+00	0	30	0	773849088	64	3870
2026-01-03 09:18:14.63	86.93	14.90	-48.9	-49.6	15.5	0.00e+00	0	30	0	779091968	64	3806
2026-01-03 09:18:15.64	86.81	14.99	-48.9	-49.7	15.5	0.00e+00	0	30	0	785383424	64	3829
2026-01-03 09:18:16.65	86.69	15.08	-48.9	-49.6	15.5	0.00e+00	0	30	0	790626304	64	3794
2026-01-03 09:18:17.66	86.58	15.17	-48.8	-49.5	15.6	0.00e+00	0	30	0	796917760	64	3747
2026-01-03 09:18:18.67	86.46	15.26	-48.8	-49.5	15.5	0.00e+00	0	30	0	802160640	64	3752
2026-01-03 09:18:19.68	86.34	15.35	-48.7	-49.4	15.5	0.00e+00	0	30	0	808452096	63	3923
2026-01-03 09:18:20.69	86.22	15.44	-48.8	-49.5	15.5	0.00e+00	0	30	0	813694976	63	3981
2026-01-03 09:18:21.70	86.09	15.53	-48.7	-49.4	15.5	0.00e+00	0	30	0	818937856	63	3955
2026-01-03 09:18:22.71	85.97	15.63	-48.7	-49.4	15.5	0.00e+00	0	30	0	825229312	63	3931
2026-01-03 09:18:23.72	85.85	15.72	-48.7	-49.4	15.5	0.00e+00	0	30	0	830472192	63	3916
2026-01-03 09:18:24.73	85.72	15.81	-48.7	-49.4	15.5	0.00e+00	0	30	0	836763648	63	3919
2026-01-03 09:18:25.74	85.60	15.90	-48.7	-49.4	15.5	0.00e+00	0	30	0	842006528	63	3937
2026-01-03 09:18:26.75	85.47	15.99	-48.8	-49.5	15.5	0.00e+00	0	30	0	847249408	63	3976
2026-01-03 09:18:27.75	85.35	16.08	-48.7	-49.4	15.5	0.00e+00	0	30	0	853540864	63	3954
2026-01-03 09:18:28.76	85.22	16.18	-48.6	-49.3	15.5	0.00e+00	0	30	0	858783744	63	3906
2026-01-03 09:18:29.77	85.09	16.27	-48.5	-49.2	15.5	0.00e+00	0	30	0	865075200	63	3858
2026-01-03 09:18:30.78	84.97	16.36	-48.5	-49.2	15.6	0.00e+00	0	30	0	870318080	63	3842
2026-01-03 09:18:31.79	84.84	16.46	-48.4	-49.1	15.6	0.00e+00	0	30	0	875560960	63	3799
2026-01-03 09:18:32.80	84.71	16.55	-48.3	-48.9	15.7	0.00e+00	0	30	0	881852416	63	3737
2026-01-03 09:18:33.81	84.57	16.64	-48.1	-48.8	15.6	0.00e+00	0	30	0	887095296	62	3890
2026-01-03 09:18:34.82	84.44	16.74	-48.2	-48.9	15.6	0.00e+00	0	30	0	893386752	62	3919
2026-01-03 09:18:35.83	84.31	16.83	-48.2	-48.9	15.6	0.00e+00	0	30	0	898629632	62	3938
2026-01-03 09:18:36.84	84.18	16.93	-48.2	-48.9	15.6	0.00e+00	0	30	0	904921088	62	3937
2026-01-03 09:18:37.85	84.04	17.02	-48.3	-49.0	15.5	0.00e+00	0	30	0	910163968	62	3978
2026-01-03 09:18:38.86	83.91	17.12	-48.3	-49.0	15.5	0.00e+00	0	30	0	916455424	62	3986
2026-01-03 09:18:39.88	83.77	17.21	-48.2	-48.9	15.5	0.00e+00	0	30	0	921698304	62	3937
2026-01-03 09:18:40.88	83.63	17.31	-48.3	-49.0	15.5	0.00e+00	0	30	0	926941184	62	3994
2026-01-03 09:18:41.89	83.49	17.40	-48.3	-49.0	15.5	0.00e+00	0	30	0	933232640	62	3990
2026-01-03 09:18:42.90	83.36	17.50	-48.3	-49.0	15.5	0.00e+00	0	30	0	938475520	62	3983
2026-01-03 09:18:43.91	83.22	17.59	-48.3	-49.0	15.5	0.00e+00	0	30	0	944766976	62	3988
2026-01-03 09:18:44.92	83.07	17.69	-48.3	-48.9	15.6	0.00e+00	0	30	0	950009856	62	3947
2026-01-03 09:18:45.93	82.93	17.78	-48.0	-48.7	15.7	0.00e+00	0	30	0	955252736	62	3830
2026-01-03 09:18:46.93	82.79	17.88	-48.0	-48.6	15.7	0.00e+00	0	30	0	961544192	62	3815
2026-01-03 09:18:47.94	82.65	17.98	-48.0	-48.7	15.7	0.00e+00	0	30	0	966787072	62	3827
2026-01-03 09:18:48.95	82.50	18.07	-47.9	-48.6	15.7	0.00e+00	0	30	0	972029952	62	3799
2026-01-03 09:18:49.96	82.36	18.17	-48.0	-48.6	15.7	0.00e+00	0	30	0	978321408	62	3805
2026-01-03 09:18:50.97	82.21	18.27	-47.9	-48.5	15.7	0.00e+00	0	30	0	983564288	62	3764
2026-01-03 09:18:51.98	82.06	18.36	-47.8	-48.5	15.8	0.00e+00	0	30	0	989855744	62	3739
2026-01-03 09:18:52.99	81.92	18.46	-47.7	-48.4	15.8	0.00e+00	0	30	0	995098624	62	3704
2026-01-03 09:18:54.00	81.77	18.56	-47.8	-48.4	15.7	0.00e+00	0	30	0	1001390080	62	3736
2026-01-03 09:18:55.01	81.62	18.66	-47.9	-48.5	15.7	0.00e+00	0	30	0	1006632960	62	3779
2026-01-03 09:18:56.02	81.47	18.75	-48.0	-48.6	15.7	0.00e+00	0	30	0	1012924416	62	3809
2026-01-03 09:18:57.03	81.31	18.85	-48.0	-48.6	15.7	0.00e+00	0	30	0	1018167296	62	3819
2026-01-03 09:18:58.04	81.16	18.95	-47.9	-48.6	15.7	0.00e+00	0	30	0	1023410176	62	3799
2026-01-03 09:18:59.05	81.01	19.05	-48.0	-48.6	15.7	0.00e+00	0	30	0	1029701632	62	3818
2026-01-03 09:19:00.06	80.85	19.15	-47.9	-48.6	15.7	0.00e+00	0	30	0	1034944512	62	3793
2026-01-03 09:19:01.07	80.69	19.25	-47.9	-48.5	15.7	0.00e+00	0	30	0	1041235968	62	3767
2026-01-03 09:19:02.07	80.54	19.34	-47.9	-48.5	15.7	0.00e+00	0	30	0	1046478848	62	3770
2026-01-03 09:19:03.09	80.38	19.44	-47.8	-48.4	15.8	0.00e+00	0	30	0	1051721728	62	3733
2026-01-03 09:19:04.09	80.22	19.54	-47.5	-48.1	15.8	0.00e+00	0	30	0	1058013184	61	3815
2026-01-03 09:19:05.10	80.06	19.64	-47.5	-48.1	15.8	0.00e+00	0	30	0	1063256064	61	3801
2026-01-03 09:19:06.11	79.90	19.74	-47.5	-48.2	15.8	0.00e+00	0	30	0	1069547520	61	3826
2026-01-03 09:19:07.13	79.73	19.84	-47.5	-48.1	15.8	0.00e+00	0	30	0	1074790400	61	3813
2026-01-03 09:19:08.13	79.57	19.94	-47.5	-48.1	15.8	0.00e+00	0	30	0	1080033280	61	3805
2026-01-03 09:19:09.14	79.41	20.04	-47.5	-48.1	15.8	0.00e+00	0	30	0	1086324736	61	3797
2026-01-03 09:19:10.16	79.24	20.14	-47.4	-48.0	15.8	0.00e+00	0	30	0	1091567616	61	3756
2026-01-03 09:19:11.17	79.07	20.24	-47.5	-48.1	15.8	0.00e+00	0	30	0	1097859072	61	3809
2026-01-03 09:19:12.18	78.91	20.34	-47.6	-48.2	15.7	0.00e+00	0	30	0	1103101952	61	3839
2026-01-03 09:19:13.19	78.74	20.44	-47.6	-48.2	15.7	0.00e+00	0	30	0	1109393408	61	3847
2026-01-03 09:19:14.20	78.57	20.54	-47.7	-48.4	15.7	0.00e+00	0	30	0	1114636288	61	3916
2026-01-03 09:19:15.21	78.39	20.65	-47.8	-48.4	15.7	0.00e+00	0	30	0	1120927744	61	3937
2026-01-03 09:19:16.22	78.22	20.75	-47.8	-48.4	15.7	0.00e+00	0	30	0	1126170624	61	3944
2026-01-03 09:19:17.23	78.05	20.85	-47.8	-48.4	15.7	0.00e+00	0	30	0	1131413504	61	3938
2026-01-03 09:19:18.24	77.87	20.95	-47.6	-48.2	15.7	0.00e+00	0	30	0	1137704960	61	3868
2026-01-03 09:19:19.25	77.70	21.05	-47.6	-48.3	15.7	0.00e+00	0	30	0	1142947840	61	3872
2026-01-03 09:19:20.26	77.52	21.15	-47.5	-48.1	15.8	0.00e+00	0	30	0	1149239296	61	3808
2026-01-03 09:19:21.26	77.34	21.25	-47.5	-48.2	15.8	0.00e+00	0	30	0	1154482176	61	3828
2026-01-03 09:19:22.27	77.16	21.35	-47.4	-48.0	15.8	0.00e+00	0	30	0	1159725056	61	3772
2026-01-03 09:19:23.28	76.98	21.46	-47.3	-48.0	15.8	0.00e+00	0	30	0	1166016512	61	3741
2026-01-03 09:19:24.29	76.80	21.56	-47.5	-48.1	15.8	0.00e+00	0	30	0	1171259392	61	3820
2026-01-03 09:19:25.30	76.62	21.66	-47.3	-48.0	15.8	0.00e+00	0	30	0	1176502272	61	3742
2026-01-03 09:19:26.32	76.43	21.76	-47.3	-47.9	15.9	0.00e+00	0	30	0	1182793728	61	3712
2026-01-03 09:19:27.32	76.25	21.86	-47.3	-47.9	15.8	0.00e+00	0	30	0	1188036608	61	3720
2026-01-03 09:19:28.33	76.06	21.97	-47.3	-47.9	15.9	0.00e+00	0	30	0	1194328064	61	3706
2026-01-03 09:19:29.33	75.87	22.07	-47.2	-47.8	15.9	0.00e+00	0	30	0	1199570944	61	3694
2026-01-03 09:19:30.34	75.68	22.17	-47.3	-47.9	15.8	0.00e+00	0	30	0	1205862400	61	3707
2026-01-03 09:19:31.35	75.49	22.27	-47.2	-47.8	15.7	0.00e+00	0	30	0	1211105280	60	3897
2026-01-03 09:19:32.36	75.30	22.38	-47.3	-47.9	15.7	0.00e+00	0	30	0	1217396736	60	3948
2026-01-03 09:19:33.37	75.11	22.48	-47.3	-47.9	15.7	0.00e+00	0	30	0	1222639616	60	3933
2026-01-03 09:19:34.38	74.91	22.58	-47.2	-47.8	15.8	0.00e+00	0	30	0	1227882496	60	3902
2026-01-03 09:19:35.39	74.72	22.68	-47.1	-47.8	15.8	0.00e+00	0	30	0	1234173952	60	3876
2026-01-03 09:19:36.40	74.52	22.79	-47.1	-47.7	15.8	0.00e+00	0	30	0	1239416832	60	3865
2026-01-03 09:19:37.40	74.32	22.89	-47.0	-47.6	15.8	0.00e+00	0	30	0	1244659712	60	3800
2026-01-03 09:19:38.41	74.12	22.99	-46.9	-47.5	15.9	0.00e+00	0	30	0	1250951168	60	3754
2026-01-03 09:19:39.42	73.92	23.09	-47.0	-47.5	15.9	0.00e+00	0	30	0	1256194048	60	3777
2026-01-03 09:19:40.43	73.72	23.20	-46.9	-47.5	15.9	0.00e+00	0	30	0	1262485504	60	3762
2026-01-03 09:19:41.44	73.52	23.30	-47.1	-47.7	15.8	0.00e+00	0	30	0	1267728384	60	3830
2026-01-03 09:19:42.45	73.31	23.40	-47.0	-47.6	15.8	0.00e+00	0	30	0	1272971264	60	3824
2026-01-03 09:19:43.46	73.11	23.51	-47.1	-47.7	15.8	0.00e+00	0	30	0	1279262720	60	3853
2026-01-03 09:19:44.47	72.90	23.61	-47.2	-47.8	15.7	0.00e+00	0	30	0	1284505600	60	3912
2026-01-03 09:19:45.48	72.69	23.71	-47.2	-47.8	15.8	0.00e+00	0	30	0	1290797056	60	3876
2026-01-03 09:19:46.49	72.48	23.81	-47.2	-47.8	15.8	0.00e+00	0	30	0	1296039936	60	3894
2026-01-03 09:19:47.50	72.26	23.92	-47.3	-47.9	15.8	0.00e+00	0	30	0	1302331392	60	3930
2026-01-03 09:19:48.51	72.05	24.02	-47.1	-47.7	15.8	0.00e+00	0	30	0	1307574272	60	3857
2026-01-03 09:19:49.52	71.84	24.12	-47.1	-47.7	15.8	0.00e+00	0	30	0	1313865728	60	3857
2026-01-03 09:19:50.53	71.62	24.23	-47.1	-47.7	15.8	0.00e+00	0	30	0	1319108608	60	3847
2026-01-03 09:19:51.53	71.40	24.33	-47.0	-47.6	15.8	0.00e+00	0	30	0	1324351488	60	3814
2026-01-03 09:19:52.55	71.18	24.43	-46.8	-47.4	15.9	0.00e+00	0	30	0	1330642944	60	3721
2026-01-03 09:19:53.56	70.96	24.53	-46.8	-47.4	15.9	0.00e+00	0	30	0	1335885824	60	3730
2026-01-03 09:19:54.57	70.74	24.64	-46.9	-47.4	15.9	0.00e+00	0	30	0	1342177280	60	3733
2026-01-03 09:19:55.58	70.52	24.74	-46.9	-47.5	15.9	0.00e+00	0	30	0	1347420160	60	3771
2026-01-03 09:19:56.59	70.29	24.84	-47.0	-47.6	15.9	0.00e+00	0	30	0	1352663040	60	3786
2026-01-03 09:19:57.60	70.06	24.94	-46.7	-47.3	15.9	0.00e+00	0	30	0	1358954496	60	3680
2026-01-03 09:19:58.61	69.84	25.05	-47.0	-47.7	15.7	0.00e+00	0	30	0	1364197376	59	4052
2026-01-03 09:19:59.62	69.61	25.15	-46.9	-47.6	15.7	0.00e+00	0	30	0	1370488832	59	4005
2026-01-03 09:20:00.63	69.37	25.25	-47.0	-47.6	15.7	0.00e+00	0	30	0	1375731712	59	4027
2026-01-03 09:20:01.63	69.14	25.35	-47.2	-47.8	15.7	0.00e+00	0	30	0	1380974592	59	4112
2026-01-03 09:20:02.65	68.91	25.45	-47.0	-47.6	15.7	0.00e+00	0	30	0	1387266048	59	4015
2026-01-03 09:20:03.66	68.67	25.56	-46.9	-47.5	15.8	0.00e+00	0	30	0	1392508928	59	3986
2026-01-03 09:20:04.67	68.44	25.66	-46.9	-47.5	15.8	0.00e+00	0	30	0	1398800384	59	3974
2026-01-03 09:20:05.67	68.20	25.76	-46.9	-47.5	15.8	0.00e+00	0	30	0	1404043264	59	4004
2026-01-03 09:20:06.69	67.96	25.86	-46.8	-47.5	15.8	0.00e+00	0	30	0	1410334720	59	3962
2026-01-03 09:20:07.70	67.71	25.96	-46.8	-47.4	15.8	0.00e+00	0	30	0	1415577600	59	3932
2026-01-03 09:20:08.70	67.47	26.06	-46.8	-47.4	15.8	0.00e+00	0	30	0	1420820480	59	3923
2026-01-03 09:20:09.71	67.23	26.16	-46.7	-47.3	15.8	0.00e+00	0	30	0	1427111936	59	3892
2026-01-03 09:20:10.72	66.98	26.26	-46.7	-47.3	15.8	0.00e+00	0	30	0	1432354816	59	3897
2026-01-03 09:20:11.73	66.73	26.36	-46.7	-47.3	15.8	0.00e+00	0	30	0	1438646272	59	3910
2026-01-03 09:20:12.74	66.48	26.46	-46.8	-47.4	15.8	0.00e+00	0	30	0	1443889152	59	3946
2026-01-03 09:20:13.75	66.23	26.56	-46.9	-47.5	15.8	0.00e+00	0	30	0	1449132032	59	3996
2026-01-03 09:20:14.76	65.98	26.66	-47.0	-47.6	15.8	0.00e+00	0	30	0	1455423488	59	4022
2026-01-03 09:20:15.77	65.73	26.76	-47.0	-47.6	15.7	0.00e+00	0	30	0	1460666368	59	4050
2026-01-03 09:20:16.78	65.47	26.86	-47.0	-47.6	15.8	0.00e+00	0	30	0	1466957824	59	4016
2026-01-03 09:20:17.79	65.21	26.96	-47.1	-47.7	15.7	0.00e+00	0	30	0	1472200704	59	4055
2026-01-03 09:20:18.80	64.95	27.06	-46.9	-47.5	15.8	0.00e+00	0	30	0	1477443584	59	3970
2026-01-03 09:20:19.81	64.69	27.15	-46.9	-47.5	15.8	0.00e+00	0	30	0	1483735040	59	3999
2026-01-03 09:20:20.82	64.43	27.25	-46.7	-47.3	15.9	0.00e+00	0	30	0	1488977920	59	3906
2026-01-03 09:20:21.83	64.16	27.35	-46.7	-47.3	15.9	0.00e+00	0	30	0	1495269376	59	3883
2026-01-03 09:20:22.84	63.90	27.45	-46.8	-47.4	15.8	0.00e+00	0	30	0	1500512256	59	3934
2026-01-03 09:20:23.84	63.63	27.54	-46.9	-47.5	15.8	0.00e+00	0	30	0	1506803712	59	3985
2026-01-03 09:20:24.85	63.36	27.64	-46.9	-47.5	15.8	0.00e+00	0	30	0	1512046592	59	3999
2026-01-03 09:20:25.86	63.09	27.73	-46.9	-47.5	15.8	0.00e+00	0	30	0	1518338048	59	3986
2026-01-03 09:20:26.87	62.82	27.83	-46.8	-47.4	15.8	0.00e+00	0	30	0	1523580928	59	3945
2026-01-03 09:20:27.88	62.55	27.93	-46.8	-47.4	15.8	0.00e+00	0	30	0	1528823808	59	3938
2026-01-03 09:20:28.88	62.27	28.02	-46.8	-47.4	15.8	0.00e+00	0	30	0	1535115264	59	3954
2026-01-03 09:20:29.89	62.00	28.11	-47.0	-47.6	15.8	0.00e+00	0	30	0	1540358144	59	4007
2026-01-03 09:20:30.90	61.72	28.21	-46.8	-47.4	15.8	0.00e+00	0	30	0	1545601024	59	3948
2026-01-03 09:20:31.91	61.44	28.30	-46.7	-47.3	15.9	0.00e+00	0	30	0	1551892480	59	3879
2026-01-03 09:20:32.92	61.16	28.39	-46.6	-47.1	15.9	0.00e+00	0	30	0	1557135360	59	3819
2026-01-03 09:20:33.93	60.87	28.49	-46.5	-47.0	16.0	0.00e+00	0	30	0	1563426816	59	3770
2026-01-03 09:20:34.94	60.59	28.58	-46.4	-47.0	16.0	0.00e+00	0	30	0	1568669696	59	3748
2026-01-03 09:20:35.95	60.30	28.67	-46.5	-47.1	15.9	0.00e+00	0	30	0	1573912576	59	3785
2026-01-03 09:20:36.96	60.01	28.76	-46.6	-47.1	15.9	0.00e+00	0	30	0	1580204032	59	3817
2026-01-03 09:20:37.97	59.72	28.85	-46.6	-47.2	15.9	0.00e+00	0	30	0	1585446912	59	3838
2026-01-03 09:20:38.97	59.43	28.94	-46.7	-47.3	15.9	0.00e+00	0	30	0	1591738368	59	3876
2026-01-03 09:20:39.98	59.14	29.03	-46.6	-47.2	15.9	0.00e+00	0	30	0	1596981248	59	3856
2026-01-03 09:20:40.99	58.84	29.12	-46.7	-47.3	15.8	0.00e+00	0	30	0	1603272704	59	3910
2026-01-03 09:20:42.00	58.55	29.21	-46.8	-47.4	15.8	0.00e+00	0	30	0	1608515584	59	3942
2026-01-03 09:20:43.01	58.25	29.30	-46.8	-47.4	15.8	0.00e+00	0	30	0	1614807040	59	3946
2026-01-03 09:20:44.02	57.95	29.38	-46.7	-47.2	15.9	0.00e+00	0	30	0	1620049920	59	3863
2026-01-03 09:20:45.03	57.64	29.47	-46.6	-47.2	15.9	0.00e+00	0	30	0	1625292800	59	3836
2026-01-03 09:20:46.04	57.34	29.56	-46.6	-47.2	15.9	0.00e+00	0	30	0	1631584256	59	3856
2026-01-03 09:20:47.04	57.04	29.64	-46.7	-47.3	15.8	0.00e+00	0	30	0	1636827136	59	3880
2026-01-03 09:20:48.05	56.73	29.72	-46.6	-47.2	15.9	0.00e+00	0	30	0	1642070016	59	3841
2026-01-03 09:20:49.06	56.42	29.81	-46.7	-47.3	15.9	0.00e+00	0	30	0	1648361472	59	3872
2026-01-03 09:20:50.07	56.11	29.89	-46.5	-47.1	15.9	0.00e+00	0	30	0	1653604352	59	3815
2026-01-03 09:20:51.08	55.80	29.97	-46.6	-47.2	15.9	0.00e+00	0	30	0	1659895808	59	3839
2026-01-03 09:20:52.09	55.49	30.06	-46.6	-47.2	15.9	0.00e+00	0	30	0	1665138688	59	3855
2026-01-03 09:20:53.11	55.17	30.14	-46.6	-47.2	15.9	0.00e+00	0	30	0	1671430144	59	3827
2026-01-03 09:20:54.11	54.86	30.22	-46.6	-47.2	15.9	0.00e+00	0	30	0	1676673024	59	3855
2026-01-03 09:20:55.12	54.54	30.30	-46.7	-47.3	15.9	0.00e+00	0	30	0	1681915904	59	3882
2026-01-03 09:20:56.13	54.22	30.37	-46.6	-47.2	15.9	0.00e+00	0	30	0	1688207360	59	3838
2026-01-03 09:20:57.14	53.90	30.45	-46.4	-47.0	16.0	0.00e+00	0	30	0	1693450240	59	3746
2026-01-03 09:20:58.15	53.58	30.53	-46.4	-47.0	16.0	0.00e+00	0	30	0	1699741696	59	3750
2026-01-03 09:20:59.15	53.26	30.61	-46.3	-46.9	16.0	0.00e+00	0	30	0	1704984576	59	3715
2026-01-03 09:21:00.16	52.93	30.68	-46.2	-46.8	16.0	0.00e+00	0	30	0	1711276032	59	3655
2026-01-03 09:21:01.17	52.60	30.75	-46.2	-46.7	15.9	0.00e+00	0	30	0	1716518912	58	3856
2026-01-03 09:21:02.18	52.27	30.83	-46.1	-46.7	15.9	0.00e+00	0	30	0	1721761792	58	3841
2026-01-03 09:21:03.19	51.94	30.90	-46.2	-46.8	15.9	0.00e+00	0	31	0	1728053248	58	3891
2026-01-03 09:21:04.19	51.62	30.97	-46.4	-47.0	15.9	0.00e+00	0	30	0	1733296128	58	3974
2026-01-03 09:21:05.20	51.28	31.04	-46.5	-47.0	15.8	0.00e+00	0	30	0	1738539008	58	4002
2026-01-03 09:21:06.21	50.95	31.11	-46.5	-47.1	15.8	0.00e+00	0	30	0	1744830464	58	4034
2026-01-03 09:21:07.22	50.61	31.18	-46.3	-46.8	15.9	0.00e+00	0	30	0	1750073344	58	3908
2026-01-03 09:21:08.23	50.27	31.25	-46.2	-46.7	15.9	0.00e+00	0	30	0	1756364800	58	3865
2026-01-03 09:21:09.24	49.94	31.32	-46.0	-46.6	16.0	0.00e+00	0	30	0	1761607680	58	3789
2026-01-03 09:21:10.25	49.59	31.38	-45.9	-46.5	16.0	0.00e+00	0	30	0	1766850560	58	3742
2026-01-03 09:21:11.26	49.25	31.45	-46.1	-46.6	16.0	0.00e+00	0	30	0	1773142016	58	3822
2026-01-03 09:21:12.27	48.91	31.51	-46.1	-46.7	15.9	0.00e+00	0	30	0	1778384896	58	3844
2026-01-03 09:21:13.28	48.57	31.58	-46.2	-46.8	15.9	0.00e+00	0	30	0	1784676352	58	3880
2026-01-03 09:21:14.29	48.22	31.64	-46.3	-46.9	15.9	0.00e+00	0	30	0	1789919232	58	3922
2026-01-03 09:21:15.31	47.87	31.70	-46.3	-46.8	15.9	0.00e+00	0	30	0	1796210688	58	3899
2026-01-03 09:21:16.32	47.52	31.76	-46.2	-46.8	15.9	0.00e+00	0	30	0	1801453568	58	3879
2026-01-03 09:21:17.33	47.17	31.82	-46.1	-46.7	15.9	0.00e+00	0	30	0	1807745024	58	3834
2026-01-03 09:21:18.34	46.82	31.88	-46.1	-46.6	16.0	0.00e+00	0	30	0	1812987904	58	3817
2026-01-03 09:21:19.35	46.47	31.93	-46.1	-46.6	15.9	0.00e+00	0	30	0	1818230784	58	3820
2026-01-03 09:21:20.36	46.11	31.99	-46.0	-46.6	16.0	0.00e+00	0	30	0	1824522240	58	3792
2026-01-03 09:21:21.37	45.76	32.04	-45.9	-46.4	16.0	0.00e+00	0	30	0	1829765120	58	3715
2026-01-03 09:21:22.38	45.40	32.10	-45.9	-46.4	16.0	0.00e+00	0	30	0	1836056576	58	3721
2026-01-03 09:21:23.39	45.05	32.15	-45.9	-46.4	16.0	0.00e+00	0	30	0	1841299456	58	3728
2026-01-03 09:21:24.40	44.69	32.20	-45.9	-46.5	16.0	0.00e+00	0	30	0	1846542336	58	3739
2026-01-03 09:21:25.41	44.33	32.25	-46.1	-46.7	15.9	0.00e+00	0	30	0	1852833792	58	3836
2026-01-03 09:21:26.42	43.97	32.30	-46.2	-46.8	15.9	0.00e+00	0	30	0	1858076672	58	3873
2026-01-03 09:21:27.41	43.61	32.34	-46.3	-46.9	15.9	0.00e+00	0	30	0	1864368128	58	3914
2026-01-03 09:21:28.42	43.25	32.39	-46.2	-46.8	15.9	0.00e+00	0	30	0	1869611008	58	3890
2026-01-03 09:21:29.42	42.89	32.44	-46.2	-46.8	15.9	0.00e+00	0	30	0	1874853888	58	3870
2026-01-03 09:21:30.43	42.53	32.48	-46.1	-46.7	15.9	0.00e+00	0	30	0	1881145344	58	3832
2026-01-03 09:21:31.44	42.16	32.52	-46.0	-46.5	16.0	0.00e+00	0	30	0	1886388224	58	3773
2026-01-03 09:21:32.45	41.80	32.56	-46.0	-46.6	16.0	0.00e+00	0	30	0	1892679680	58	3788
2026-01-03 09:21:33.46	41.43	32.60	-46.0	-46.5	16.0	0.00e+00	0	30	0	1897922560	58	3764
2026-01-03 09:21:34.47	41.06	32.64	-46.0	-46.5	16.0	0.00e+00	0	30	0	1904214016	58	3765
2026-01-03 09:21:35.48	40.69	32.68	-46.0	-46.6	16.0	0.00e+00	0	30	0	1909456896	58	3799
2026-01-03 09:21:36.49	40.32	32.71	-46.1	-46.7	15.9	0.00e+00	0	30	0	1914699776	58	3825
2026-01-03 09:21:37.50	39.95	32.75	-46.0	-46.5	16.0	0.00e+00	0	30	0	1920991232	58	3777
2026-01-03 09:21:38.51	39.58	32.78	-46.0	-46.6	16.0	0.00e+00	0	30	0	1926234112	58	3792
2026-01-03 09:21:39.52	39.21	32.81	-46.1	-46.7	15.9	0.00e+00	0	30	0	1932525568	58	3843
2026-01-03 09:21:40.53	38.83	32.84	-46.1	-46.7	15.9	0.00e+00	0	30	0	1937768448	58	3844
2026-01-03 09:21:41.54	38.46	32.87	-46.1	-46.7	15.9	0.00e+00	0	30	0	1943011328	58	3846
2026-01-03 09:21:42.55	38.09	32.90	-45.9	-46.5	16.0	0.00e+00	0	30	0	1949302784	58	3751
2026-01-03 09:21:43.56	37.71	32.93	-45.8	-46.4	16.0	0.00e+00	0	30	0	1954545664	58	3710
2026-01-03 09:21:44.56	37.34	32.95	-45.9	-46.4	16.0	0.00e+00	0	30	0	1960837120	58	3726
2026-01-03 09:21:45.57	36.96	32.98	-45.9	-46.5	16.0	0.00e+00	0	30	0	1966080000	58	3748
2026-01-03 09:21:46.58	36.59	33.00	-46.1	-46.7	16.0	0.00e+00	0	30	0	1971322880	58	3836
2026-01-03 09:21:47.59	36.21	33.02	-46.2	-46.8	15.9	0.00e+00	0	30	0	1977614336	58	3891
2026-01-03 09:21:48.60	35.83	33.04	-46.2	-46.8	15.9	0.00e+00	0	30	0	1982857216	58	3887
2026-01-03 09:21:49.61	35.46	33.06	-46.2	-46.7	15.9	0.00e+00	0	30	0	1989148672	58	3864
2026-01-03 09:21:50.62	35.08	33.08	-46.0	-46.5	16.0	0.00e+00	0	30	0	1994391552	58	3773
2026-01-03 09:21:51.63	34.70	33.09	-45.8	-46.4	16.1	0.00e+00	0	30	0	2000683008	58	3704
2026-01-03 09:21:52.64	34.32	33.10	-45.9	-46.5	16.0	0.00e+00	0	30	0	2005925888	58	3739
2026-01-03 09:21:53.65	33.94	33.12	-46.0	-46.5	16.0	0.00e+00	0	30	0	2011168768	58	3763
2026-01-03 09:21:54.66	33.56	33.13	-46.0	-46.5	16.0	0.00e+00	0	30	0	2017460224	58	3769
2026-01-03 09:21:55.67	33.18	33.14	-46.0	-46.5	16.0	0.00e+00	0	30	0	2022703104	58	3767
2026-01-03 09:21:56.68	32.80	33.15	-45.9	-46.5	16.0	0.00e+00	0	30	0	2028994560	58	3747
2026-01-03 09:21:57.69	32.42	33.15	-46.0	-46.6	16.0	0.00e+00	0	30	0	2034237440	58	3782
2026-01-03 09:21:58.70	32.04	33.16	-46.0	-46.5	16.0	0.00e+00	0	30	0	2039480320	58	3780
2026-01-03 09:21:59.71	31.66	33.16	-45.8	-46.3	16.1	0.00e+00	0	30	0	2045771776	58	3668
2026-01-03 09:22:00.71	31.28	33.17	-45.8	-46.3	16.1	0.00e+00	0	30	0	2051014656	58	3678
2026-01-03 09:22:01.72	30.90	33.17	-45.7	-46.3	16.1	0.00e+00	0	30	0	2057306112	58	3653
2026-01-03 09:22:02.73	30.52	33.17	-45.8	-46.3	16.1	0.00e+00	0	30	0	2062548992	58	3670
2026-01-03 09:22:03.74	30.14	33.16	-45.7	-46.3	15.9	0.00e+00	0	30	0	2067791872	57	3876
2026-01-03 09:22:04.75	29.76	33.16	-45.8	-46.3	15.9	0.00e+00	0	30	0	2074083328	57	3908
2026-01-03 09:22:05.76	29.38	33.16	-45.9	-46.4	15.9	0.00e+00	0	30	0	2079326208	57	3941
2026-01-03 09:22:06.77	29.00	33.15	-45.9	-46.4	15.9	0.00e+00	0	30	0	2085617664	57	3951
2026-01-03 09:22:07.78	28.62	33.14	-45.7	-46.3	15.9	0.00e+00	0	31	0	2090860544	57	3883
2026-01-03 09:22:08.79	28.24	33.13	-45.8	-46.4	15.9	0.00e+00	0	30	0	2097152000	57	3930
2026-01-03 09:22:09.80	27.86	33.12	-46.0	-46.6	15.8	0.00e+00	0	30	0	2102394880	57	4006
2026-01-03 09:22:10.81	27.48	33.11	-46.0	-46.6	15.8	0.00e+00	0	30	0	2108686336	57	4025
2026-01-03 09:22:11.82	27.10	33.10	-46.0	-46.6	15.8	0.00e+00	0	30	0	2113929216	57	4014
2026-01-03 09:22:12.83	26.72	33.08	-46.0	-46.6	15.8	0.00e+00	0	30	0	2119172096	57	4005
2026-01-03 09:22:13.84	26.34	33.07	-45.8	-46.4	15.9	0.00e+00	0	30	0	2125463552	57	3926
2026-01-03 09:22:14.85	25.96	33.05	-45.8	-46.4	15.9	0.00e+00	0	30	0	2130706432	57	3920
2026-01-03 09:22:15.85	25.59	33.03	-45.9	-46.5	15.8	0.00e+00	0	30	0	2136997888	57	3992
2026-01-03 09:22:16.86	25.21	33.01	-46.0	-46.5	15.8	0.00e+00	0	30	0	2142240768	57	3998
2026-01-03 09:22:17.87	24.84	32.99	-46.0	-46.5	15.8	0.00e+00	0	30	0	2147483648	57	4004
2026-01-03 09:22:18.88	24.46	32.97	-45.9	-46.5	15.9	0.00e+00	0	30	0	2153775104	57	3980
2026-01-03 09:22:19.89	24.08	32.94	-45.9	-46.4	15.8	0.00e+00	0	30	0	2159017984	57	3958
2026-01-03 09:22:20.90	23.71	32.92	-45.8	-46.3	15.9	0.00e+00	0	30	0	2164260864	57	3899
2026-01-03 09:22:21.91	23.33	32.89	-45.7	-46.2	15.9	0.00e+00	0	30	0	2170552320	57	3863
2026-01-03 09:22:22.92	22.96	32.86	-45.7	-46.3	15.9	0.00e+00	0	30	0	2175795200	57	3889
2026-01-03 09:22:23.93	22.59	32.83	-45.9	-46.4	15.9	0.00e+00	0	30	0	2182086656	57	3958
2026-01-03 09:22:24.94	22.21	32.80	-45.8	-46.3	15.9	0.00e+00	0	30	0	2187329536	57	3900
2026-01-03 09:22:25.95	21.84	32.77	-45.8	-46.3	15.9	0.00e+00	0	30	0	2193620992	57	3900
2026-01-03 09:22:26.96	21.47	32.73	-45.8	-46.3	15.9	0.00e+00	0	30	0	2198863872	57	3910
2026-01-03 09:22:27.97	21.10	32.70	-45.9	-46.4	15.8	0.00e+00	0	30	0	2205155328	57	3951
2026-01-03 09:22:28.98	20.73	32.66	-46.0	-46.6	15.8	0.00e+00	0	30	0	2210398208	57	4008
2026-01-03 09:22:29.98	20.37	32.63	-46.1	-46.7	15.8	0.00e+00	0	30	0	2215641088	57	4058
2026-01-03 09:22:30.99	20.00	32.59	-46.0	-46.6	15.8	0.00e+00	0	30	0	2221932544	57	4027
2026-01-03 09:22:31.99	19.64	32.55	-46.0	-46.6	15.8	0.00e+00	0	30	0	2227175424	57	4027
2026-01-03 09:22:33.00	19.27	32.50	-46.1	-46.6	15.8	0.00e+00	0	30	0	2232418304	57	4038
2026-01-03 09:22:34.01	18.91	32.46	-46.1	-46.6	15.8	0.00e+00	0	30	0	2238709760	57	4039
2026-01-03 09:22:35.02	18.54	32.42	-46.1	-46.6	15.8	0.00e+00	0	30	0	2243952640	57	4040
2026-01-03 09:22:36.03	18.18	32.37	-46.0	-46.5	15.8	0.00e+00	0	30	0	2250244096	57	3993
2026-01-03 09:22:37.04	17.82	32.33	-45.8	-46.4	15.9	0.00e+00	0	30	0	2255486976	57	3929
2026-01-03 09:22:38.05	17.46	32.28	-45.9	-46.5	15.9	0.00e+00	0	30	0	2260729856	57	3962
2026-01-03 09:22:39.06	17.10	32.23	-45.9	-46.5	15.8	0.00e+00	0	30	0	2267021312	57	3969
2026-01-03 09:22:40.07	16.74	32.18	-46.0	-46.6	15.8	0.00e+00	0	30	0	2272264192	57	4018
2026-01-03 09:22:41.08	16.38	32.13	-45.9	-46.5	15.9	0.00e+00	0	30	0	2278555648	57	3970
2026-01-03 09:22:42.09	16.03	32.07	-46.0	-46.5	15.8	0.00e+00	0	30	0	2283798528	57	3999
2026-01-03 09:22:43.10	15.67	32.02	-46.0	-46.6	15.8	0.00e+00	0	30	0	2290089984	57	4030
2026-01-03 09:22:44.11	15.32	31.97	-46.0	-46.6	15.8	0.00e+00	0	30	0	2295332864	57	4019
2026-01-03 09:22:45.11	14.97	31.91	-46.1	-46.7	15.8	0.00e+00	0	30	0	2301624320	57	4064
2026-01-03 09:22:46.13	14.61	31.85	-46.1	-46.6	15.8	0.00e+00	0	30	0	2306867200	57	4036
2026-01-03 09:22:47.14	14.26	31.79	-46.0	-46.5	15.8	0.00e+00	0	30	0	2312110080	57	3978
2026-01-03 09:22:48.14	13.92	31.74	-46.0	-46.5	15.8	0.00e+00	0	30	0	2318401536	57	3984
2026-01-03 09:22:49.15	13.57	31.68	-46.0	-46.6	15.8	0.00e+00	0	30	0	2323644416	57	4026
2026-01-03 09:22:50.16	13.22	31.61	-46.2	-46.8	15.8	0.00e+00	0	30	0	2329935872	57	4099
2026-01-03 09:22:51.17	12.88	31.55	-46.1	-46.7	15.8	0.00e+00	0	30	0	2335178752	57	4080
2026-01-03 09:22:52.18	12.53	31.49	-46.1	-46.7	15.8	0.00e+00	0	30	0	2340421632	57	4057
2026-01-03 09:22:53.19	12.19	31.42	-46.0	-46.6	15.8	0.00e+00	0	30	0	2346713088	57	4033
2026-01-03 09:22:54.20	11.85	31.36	-46.0	-46.6	15.8	0.00e+00	0	30	0	2351955968	57	4026
2026-01-03 09:22:55.21	11.51	31.29	-46.0	-46.6	15.8	0.00e+00	0	30	0	2358247424	57	4032
2026-01-03 09:22:56.22	11.17	31.22	-46.2	-46.8	15.7	0.00e+00	0	30	0	2363490304	57	4130
2026-01-03 09:22:57.23	10.84	31.16	-46.1	-46.7	15.8	0.00e+00	0	30	0	2368733184	57	4060
2026-01-03 09:22:58.24	10.50	31.09	-45.9	-46.5	15.8	0.00e+00	0	30	0	2375024640	57	3986
2026-01-03 09:22:59.25	10.17	31.02	-46.0	-46.6	15.8	0.00e+00	0	30	0	2380267520	57	4005
2026-01-03 09:23:00.26	9.84	30.94	-46.0	-46.6	15.8	0.00e+00	0	30	0	2386558976	57	4006
2026-01-03 09:23:01.27	9.51	30.87	-46.1	-46.6	15.8	0.00e+00	0	30	0	2391801856	57	4040
2026-01-03 09:23:02.28	9.18	30.80	-46.0	-46.5	15.8	0.00e+00	0	30	0	2398093312	57	3996
2026-01-03 09:23:03.29	8.85	30.72	-46.0	-46.6	15.8	0.00e+00	0	30	0	2403336192	57	4015
2026-01-03 09:23:04.30	8.52	30.65	-46.1	-46.6	15.8	0.00e+00	0	30	0	2408579072	57	4043
2026-01-03 09:23:05.31	8.20	30.57	-46.1	-46.7	15.8	0.00e+00	0	30	0	2414870528	57	4056
2026-01-03 09:23:06.32	7.87	30.50	-46.2	-46.8	15.7	0.00e+00	0	30	0	2420113408	57	4117
2026-01-03 09:23:07.33	7.55	30.42	-46.3	-46.9	15.7	0.00e+00	0	30	0	2426404864	57	4161
2026-01-03 09:23:08.35	7.23	30.34	-46.4	-47.0	15.7	0.00e+00	0	30	0	2431647744	57	4200
2026-01-03 09:23:09.35	6.91	30.26	-46.4	-47.0	15.8	0.00e+00	0	30	0	2437939200	58	3996
2026-01-03 09:23:10.36	6.60	30.18	-46.4	-47.0	15.8	0.00e+00	0	30	0	2443182080	58	3997
2026-01-03 09:23:11.37	6.28	30.10	-46.4	-46.9	15.8	0.00e+00	0	30	0	2448424960	58	3936
2026-01-03 09:23:12.38	5.97	30.02	-46.3	-46.9	15.8	0.00e+00	0	30	0	2454716416	58	3936
2026-01-03 09:23:13.39	5.66	29.94	-46.3	-46.8	15.9	0.00e+00	0	30	0	2459959296	58	3895
2026-01-03 09:23:14.40	5.35	29.86	-46.6	-47.1	15.8	0.00e+00	0	30	0	2465202176	58	4046
2026-01-03 09:23:15.41	5.04	29.77	-46.6	-47.1	15.8	0.00e+00	0	30	0	2471493632	58	4050
2026-01-03 09:23:16.42	4.73	29.69	-46.4	-46.9	15.8	0.00e+00	0	30	0	2476736512	58	3957
2026-01-03 09:23:17.42	4.43	29.61	-46.2	-46.7	15.9	0.00e+00	0	30	0	2483027968	58	3861
2026-01-03 09:23:18.43	4.12	29.52	-46.2	-46.8	15.9	0.00e+00	0	30	0	2488270848	58	3877
2026-01-03 09:23:19.44	3.82	29.43	-46.3	-46.8	15.9	0.00e+00	0	30	0	2494562304	58	3910
2026-01-03 09:23:20.45	3.52	29.35	-46.4	-46.9	15.8	0.00e+00	0	30	0	2499805184	58	3942
2026-01-03 09:23:21.46	3.22	29.26	-46.5	-47.1	15.8	0.00e+00	0	30	0	2506096640	58	4014
2026-01-03 09:23:22.47	2.92	29.17	-46.6	-47.2	15.7	0.00e+00	0	30	0	2511339520	58	4083
2026-01-03 09:23:23.48	2.63	29.08	-46.5	-47.1	15.8	0.00e+00	0	30	0	2516582400	58	4011
2026-01-03 09:23:24.50	2.33	28.99	-46.4	-47.0	15.8	0.00e+00	0	30	0	2522873856	58	3988
2026-01-03 09:23:25.51	2.04	28.90	-46.6	-47.1	15.7	0.00e+00	0	30	0	2528116736	58	4043
2026-01-03 09:23:26.51	1.75	28.82	-46.4	-47.0	15.8	0.00e+00	0	30	0	2534408192	58	3988
2026-01-03 09:23:27.52	1.46	28.72	-46.4	-47.0	15.8	0.00e+00	0	30	0	2539651072	58	3965
2026-01-03 09:23:28.53	1.17	28.63	-46.3	-46.9	15.8	0.00e+00	0	30	0	2544893952	58	3925
2026-01-03 09:23:29.54	0.89	28.54	-46.4	-46.9	15.8	0.00e+00	0	30	0	2551185408	58	3948
2026-01-03 09:23:30.55	0.60	28.45	-46.4	-46.9	15.8	0.00e+00	0	30	0	2556428288	58	3955
2026-01-03 09:23:31.56	0.32	28.36	-46.3	-46.8	15.8	0.00e+00	0	30	0	2562719744	58	3912
2026-01-03 09:23:32.57	0.04	28.26	-46.3	-46.8	15.8	0.00e+00	0	30	0	2567962624	58	3899
2026-01-03 09:23:33.57	359.76	28.17	-46.3	-46.9	15.8	0.00e+00	0	30	0	2573205504	58	3921
2026-01-03 09:23:34.58	359.48	28.08	-46.4	-46.9	15.8	0.00e+00	0	30	0	2579496960	58	3951
2026-01-03 09:23:35.60	359.21	27.98	-46.4	-46.9	15.9	0.00e+00	0	30	0	2584739840	58	3951
2026-01-03 09:23:36.61	358.93	27.89	-46.3	-46.9	15.9	0.00e+00	0	30	0	2591031296	58	3919
2026-01-03 09:23:37.62	358.66	27.79	-46.3	-46.9	15.8	0.00e+00	0	30	0	2596274176	58	3914
2026-01-03 09:23:38.63	358.39	27.70	-46.5	-47.1	15.8	0.00e+00	0	30	0	2602565632	58	4018
2026-01-03 09:23:39.64	358.12	27.60	-46.4	-47.0	15.8	0.00e+00	0	30	0	2607808512	58	3990
2026-01-03 09:23:40.65	357.85	27.50	-46.5	-47.0	15.8	0.00e+00	0	30	0	2613051392	58	4000
2026-01-03 09:23:41.66	357.58	27.41	-46.6	-47.2	15.7	0.00e+00	0	30	0	2619342848	58	4063
2026-01-03 09:23:42.67	357.32	27.31	-46.6	-47.1	15.7	0.00e+00	0	30	0	2624585728	58	4048
2026-01-03 09:23:43.68	357.06	27.21	-46.6	-47.1	15.7	0.00e+00	0	30	0	2630877184	58	4050
2026-01-03 09:23:44.69	356.79	27.11	-46.6	-47.1	15.7	0.00e+00	0	30	0	2636120064	58	4046
2026-01-03 09:23:45.69	356.54	27.02	-46.5	-47.1	15.7	0.00e+00	0	30	0	2641362944	58	4040
2026-01-03 09:23:46.70	356.28	26.92	-46.6	-47.2	15.7	0.00e+00	0	30	0	2647654400	58	4061
2026-01-03 09:23:47.72	356.02	26.82	-46.6	-47.2	15.7	0.00e+00	0	30	0	2652897280	58	4066
2026-01-03 09:23:48.73	355.76	26.72	-46.6	-47.2	15.7	0.00e+00	0	30	0	2659188736	58	4085
2026-01-03 09:23:49.74	355.51	26.62	-46.6	-47.2	15.7	0.00e+00	0	30	0	2664431616	58	4085
2026-01-03 09:23:50.75	355.26	26.52	-46.6	-47.1	15.7	0.00e+00	0	30	0	2669674496	58	4046
2026-01-03 09:23:51.76	355.01	26.42	-46.5	-47.1	15.7	0.00e+00	0	30	0	2675965952	58	4026
2026-01-03 09:23:52.77	354.76	26.32	-46.6	-47.1	15.7	0.00e+00	0	30	0	2681208832	58	4037
2026-01-03 09:23:53.78	354.51	26.22	-46.6	-47.2	15.7	0.00e+00	0	30	0	2687500288	58	4080
2026-01-03 09:23:54.79	354.27	26.12	-46.8	-47.4	15.6	0.00e+00	0	30	0	2692743168	58	4175
2026-01-03 09:23:55.80	354.02	26.02	-46.8	-47.4	15.6	0.00e+00	0	30	0	2699034624	58	4177
2026-01-03 09:23:56.81	353.78	25.92	-46.9	-47.5	15.6	0.00e+00	0	30	0	2704277504	58	4224
2026-01-03 09:23:57.82	353.54	25.82	-47.0	-47.6	15.7	0.00e+00	0	30	0	2710568960	59	4009
2026-01-03 09:23:58.83	353.30	25.72	-47.0	-47.6	15.7	0.00e+00	0	30	0	2715811840	59	4049
2026-01-03 09:23:59.84	353.06	25.62	-47.0	-47.6	15.7	0.00e+00	0	30	0	2721054720	59	4007
2026-01-03 09:24:00.85	352.83	25.52	-47.0	-47.7	15.7	0.00e+00	0	30	0	2727346176	59	4054
2026-01-03 09:24:01.86	352.59	25.41	-47.2	-47.8	15.7	0.00e+00	0	30	0	2732589056	59	4115
2026-01-03 09:24:02.87	352.36	25.31	-46.9	-47.5	15.7	0.00e+00	0	30	0	2738880512	59	3986
2026-01-03 09:24:03.88	352.13	25.21	-47.0	-47.6	15.7	0.00e+00	0	30	0	2744123392	59	4006
2026-01-03 09:24:04.89	351.90	25.11	-46.8	-47.4	15.8	0.00e+00	0	30	0	2749366272	59	3946
2026-01-03 09:24:05.90	351.67	25.01	-46.9	-47.5	15.8	0.00e+00	0	30	0	2755657728	59	3984
2026-01-03 09:24:06.91	351.44	24.91	-47.1	-47.7	15.7	0.00e+00	0	30	0	2760900608	59	4065
2026-01-03 09:24:07.92	351.22	24.80	-47.1	-47.7	15.7	0.00e+00	0	30	0	2767192064	59	4090
2026-01-03 09:24:08.93	350.99	24.70	-47.1	-47.7	15.7	0.00e+00	0	30	0	2772434944	59	4059
2026-01-03 09:24:09.94	350.77	24.60	-47.0	-47.6	15.7	0.00e+00	0	30	0	2777677824	59	4027
2026-01-03 09:24:10.94	350.55	24.50	-47.0	-47.6	15.7	0.00e+00	0	30	0	2783969280	59	4020
2026-01-03 09:24:11.95	350.33	24.39	-47.0	-47.6	15.7	0.00e+00	0	30	0	2789212160	59	4035
2026-01-03 09:24:12.96	350.11	24.29	-47.0	-47.6	15.7	0.00e+00	0	30	0	2795503616	59	4009
2026-01-03 09:24:13.97	349.90	24.19	-47.0	-47.6	15.7	0.00e+00	0	30	0	2800746496	59	4046
2026-01-03 09:24:14.98	349.68	24.09	-47.0	-47.6	15.7	0.00e+00	0	30	0	2807037952	59	4028
2026-01-03 09:24:15.99	349.47	23.98	-47.0	-47.6	15.7	0.00e+00	0	30	0	2812280832	59	4027
2026-01-03 09:24:17.00	349.26	23.88	-46.9	-47.5	15.8	0.00e+00	0	30	0	2817523712	59	3988
2026-01-03 09:24:18.01	349.04	23.78	-46.9	-47.5	15.8	0.00e+00	0	30	0	2823815168	59	3989
2026-01-03 09:24:19.02	348.84	23.68	-47.0	-47.7	15.7	0.00e+00	0	30	0	2829058048	59	4054
2026-01-03 09:24:20.03	348.63	23.57	-47.2	-47.8	15.7	0.00e+00	0	30	0	2835349504	59	4124
2026-01-03 09:24:21.04	348.42	23.47	-47.2	-47.8	15.7	0.00e+00	0	30	0	2840592384	59	4134
2026-01-03 09:24:22.05	348.21	23.37	-47.2	-47.8	15.7	0.00e+00	0	30	0	2845835264	59	4134
2026-01-03 09:24:23.06	348.01	23.26	-47.2	-47.8	15.7	0.00e+00	0	30	0	2852126720	59	4112
2026-01-03 09:24:24.07	347.81	23.16	-47.1	-47.7	15.7	0.00e+00	0	30	0	2857369600	59	4062
2026-01-03 09:24:25.08	347.61	23.06	-47.0	-47.6	15.7	0.00e+00	0	30	0	2863661056	59	4026
2026-01-03 09:24:26.09	347.41	22.96	-47.2	-47.8	15.7	0.00e+00	0	30	0	2868903936	59	4108
2026-01-03 09:24:27.10	347.21	22.85	-47.1	-47.8	15.7	0.00e+00	0	30	0	2874146816	59	4102
2026-01-03 09:24:28.11	347.01	22.75	-47.3	-47.9	15.7	0.00e+00	0	30	0	2880438272	59	4167
2026-01-03 09:24:29.12	346.81	22.65	-47.3	-47.9	15.7	0.00e+00	0	30	0	2885681152	59	4175
2026-01-03 09:24:30.13	346.62	22.55	-47.2	-47.8	15.7	0.00e+00	0	30	0	2891972608	59	4108
2026-01-03 09:24:31.13	346.43	22.44	-47.2	-47.8	15.7	0.00e+00	0	30	0	2897215488	59	4127
2026-01-03 09:24:32.14	346.23	22.34	-47.2	-47.9	15.7	0.00e+00	0	30	0	2903506944	59	4152
2026-01-03 09:24:33.15	346.04	22.24	-47.2	-47.8	15.7	0.00e+00	0	30	0	2908749824	59	4137
2026-01-03 09:24:34.16	345.85	22.14	-47.3	-47.9	15.7	0.00e+00	0	30	0	2915041280	59	4159
2026-01-03 09:24:35.17	345.66	22.03	-47.1	-47.7	15.7	0.00e+00	0	30	0	2920284160	59	4098
2026-01-03 09:24:36.18	345.48	21.93	-47.1	-47.7	15.7	0.00e+00	0	30	0	2925527040	59	4074
2026-01-03 09:24:37.19	345.29	21.83	-47.1	-47.7	15.7	0.00e+00	0	30	0	2931818496	59	4077
2026-01-03 09:24:38.20	345.11	21.73	-47.1	-47.7	15.7	0.00e+00	0	30	0	2937061376	59	4094
2026-01-03 09:24:39.21	344.92	21.63	-47.1	-47.7	15.7	0.00e+00	0	30	0	2943352832	59	4085
2026-01-03 09:24:40.22	344.74	21.52	-47.2	-47.9	15.7	0.00e+00	0	30	0	2948595712	59	4158
2026-01-03 09:24:41.23	344.56	21.42	-47.3	-47.9	15.6	0.00e+00	0	30	0	2953838592	59	4179
2026-01-03 09:24:42.23	344.38	21.32	-47.2	-47.8	15.7	0.00e+00	0	30	0	2960130048	59	4111
2026-01-03 09:24:43.25	344.20	21.22	-47.0	-47.6	15.7	0.00e+00	0	30	0	2965372928	59	4049
2026-01-03 09:24:44.25	344.03	21.12	-47.0	-47.6	15.7	0.00e+00	0	30	0	2970615808	59	4036
2026-01-03 09:24:45.27	343.85	21.02	-47.0	-47.6	15.7	0.00e+00	0	30	0	2976907264	59	4043
2026-01-03 09:24:46.27	343.67	20.92	-47.2	-47.8	15.7	0.00e+00	0	30	0	2982150144	59	4116
2026-01-03 09:24:47.28	343.50	20.82	-47.2	-47.8	15.7	0.00e+00	0	30	0	2988441600	59	4132
2026-01-03 09:24:48.29	343.33	20.71	-47.2	-47.8	15.7	0.00e+00	0	30	0	2993684480	59	4132
2026-01-03 09:24:49.31	343.15	20.61	-47.2	-47.8	15.7	0.00e+00	0	30	0	2999975936	59	4130
2026-01-03 09:24:50.31	342.99	20.51	-47.3	-47.9	15.6	0.00e+00	0	30	0	3005218816	59	4166
2026-01-03 09:24:51.32	342.82	20.41	-47.3	-47.9	15.6	0.00e+00	0	30	0	3011510272	59	4176
2026-01-03 09:24:52.33	342.65	20.31	-47.3	-47.9	15.6	0.00e+00	0	30	0	3016753152	59	4189
2026-01-03 09:24:53.34	342.48	20.21	-47.1	-47.7	15.8	0.00e+00	0	31	0	3021996032	60	3827
2026-01-03 09:24:54.35	342.31	20.11	-47.2	-47.8	15.8	0.00e+00	0	30	0	3028287488	60	3876
2026-01-03 09:24:55.36	342.15	20.01	-47.1	-47.7	15.8	0.00e+00	0	30	0	3033530368	60	3861
2026-01-03 09:24:56.37	341.99	19.91	-47.2	-47.8	15.8	0.00e+00	0	30	0	3039821824	60	3903
2026-01-03 09:24:57.38	341.82	19.81	-47.2	-47.8	15.8	0.00e+00	0	30	0	3045064704	60	3884
2026-01-03 09:24:58.39	341.66	19.71	-47.2	-47.9	15.8	0.00e+00	0	30	0	3050307584	60	3914
2026-01-03 09:24:59.40	341.50	19.61	-47.3	-47.9	15.7	0.00e+00	0	30	0	3056599040	60	3957
2026-01-03 09:25:00.41	341.34	19.51	-47.2	-47.9	15.8	0.00e+00	0	30	0	3061841920	60	3921
2026-01-03 09:25:01.42	341.18	19.42	-47.2	-47.8	15.8	0.00e+00	0	30	0	3068133376	60	3899
2026-01-03 09:25:02.43	341.03	19.32	-47.2	-47.8	15.8	0.00e+00	0	30	0	3073376256	60	3909
2026-01-03 09:25:03.44	340.87	19.22	-47.2	-47.7	15.8	0.00e+00	0	31	0	3078619136	60	3866
2026-01-03 09:25:04.45	340.71	19.12	-47.2	-47.8	15.8	0.00e+00	0	31	0	3084910592	60	3869
2026-01-03 09:25:05.46	340.56	19.02	-47.3	-47.8	15.8	0.00e+00	0	30	0	3090153472	60	3910
2026-01-03 09:25:06.47	340.41	18.92	-47.3	-48.0	15.7	0.00e+00	0	30	0	3096444928	60	3963
2026-01-03 09:25:07.48	340.25	18.82	-47.4	-48.1	15.7	0.00e+00	0	30	0	3101687808	60	4018
2026-01-03 09:25:08.49	340.10	18.73	-47.5	-48.1	15.7	0.00e+00	0	30	0	3106930688	60	4050
2026-01-03 09:25:09.50	339.95	18.63	-47.5	-48.2	15.7	0.00e+00	0	30	0	3113222144	60	4052
2026-01-03 09:25:10.51	339.80	18.53	-47.5	-48.1	15.7	0.00e+00	0	30	0	3118465024	60	4051
2026-01-03 09:25:11.52	339.65	18.43	-47.5	-48.1	15.7	0.00e+00	0	30	0	3124756480	60	4046
2026-01-03 09:25:12.53	339.51	18.34	-47.5	-48.1	15.7	0.00e+00	0	30	0	3129999360	60	4041
2026-01-03 09:25:13.54	339.36	18.24	-47.6	-48.2	15.7	0.00e+00	0	30	0	3136290816	60	4060
2026-01-03 09:25:14.55	339.21	18.14	-47.7	-48.3	15.6	0.00e+00	0	30	0	3141533696	60	4131
2026-01-03 09:25:15.56	339.07	18.05	-47.7	-48.4	15.6	0.00e+00	0	30	0	3147825152	60	4148
2026-01-03 09:25:16.57	338.93	17.95	-47.8	-48.4	15.6	0.00e+00	0	30	0	3153068032	60	4178
2026-01-03 09:25:17.57	338.79	17.86	-47.8	-48.5	15.6	0.00e+00	0	30	0	3158310912	60	4196
2026-01-03 09:25:18.58	338.64	17.76	-47.8	-48.5	15.6	0.00e+00	0	30	0	3164602368	60	4197
2026-01-03 09:25:19.60	338.50	17.66	-47.8	-48.4	15.6	0.00e+00	0	30	0	3169845248	60	4180
2026-01-03 09:25:20.60	338.36	17.57	-47.8	-48.4	15.6	0.00e+00	0	30	0	3175088128	60	4186
2026-01-03 09:25:21.61	338.22	17.47	-47.7	-48.3	15.6	0.00e+00	0	30	0	3181379584	60	4138
2026-01-03 09:25:22.62	338.09	17.38	-47.7	-48.3	15.6	0.00e+00	0	30	0	3186622464	60	4138
2026-01-03 09:25:23.63	337.95	17.28	-47.7	-48.3	15.6	0.00e+00	0	30	0	3192913920	60	4134
2026-01-03 09:25:24.64	337.81	17.19	-47.8	-48.5	15.5	0.00e+00	0	30	0	3198156800	60	4209
2026-01-03 09:25:25.65	337.68	17.09	-47.9	-48.5	15.5	0.00e+00	0	30	0	3203399680	60	4236
2026-01-03 09:25:26.67	337.54	17.00	-47.9	-48.6	15.6	0.00e+00	0	30	0	3209691136	61	4023
2026-01-03 09:25:27.67	337.41	16.90	-48.0	-48.6	15.6	0.00e+00	0	30	0	3214934016	61	4046
2026-01-03 09:25:28.68	337.27	16.81	-48.1	-48.7	15.6	0.00e+00	0	30	0	3221225472	61	4087
2026-01-03 09:25:29.70	337.14	16.71	-48.1	-48.7	15.6	0.00e+00	0	30	0	3226468352	61	4092
2026-01-03 09:25:30.71	337.01	16.62	-48.1	-48.8	15.6	0.00e+00	0	30	0	3232759808	61	4125
2026-01-03 09:25:31.71	336.88	16.53	-48.2	-48.8	15.5	0.00e+00	0	30	0	3238002688	61	4145
2026-01-03 09:25:32.72	336.75	16.44	-48.3	-49.0	15.5	0.00e+00	0	30	0	3244294144	61	4205
2026-01-03 09:25:33.73	336.62	16.34	-48.4	-49.0	15.5	0.00e+00	0	31	0	3249537024	61	4240
2026-01-03 09:25:34.74	336.49	16.25	-48.4	-49.1	15.6	0.00e+00	0	30	0	3254779904	62	4011
2026-01-03 09:25:35.75	336.37	16.16	-48.4	-49.1	15.6	0.00e+00	0	30	0	3261071360	62	4015
2026-01-03 09:25:36.76	336.24	16.06	-48.4	-49.0	15.6	0.00e+00	0	30	0	3266314240	62	4003
2026-01-03 09:25:37.77	336.12	15.97	-48.4	-49.1	15.6	0.00e+00	0	30	0	3272605696	62	4029
2026-01-03 09:25:38.78	335.99	15.88	-48.5	-49.2	15.5	0.00e+00	0	31	0	3277848576	62	4078
2026-01-03 09:25:39.79	335.87	15.79	-48.6	-49.3	15.5	0.00e+00	0	30	0	3283091456	62	4103
2026-01-03 09:25:40.80	335.74	15.70	-48.6	-49.3	15.5	0.00e+00	0	30	0	3289382912	62	4122
2026-01-03 09:25:41.81	335.62	15.61	-48.7	-49.4	15.4	0.00e+00	0	30	0	3294625792	62	4188
2026-01-03 09:25:42.82	335.50	15.51	-48.6	-49.3	15.5	0.00e+00	0	30	0	3300917248	62	4133
2026-01-03 09:25:43.83	335.38	15.42	-48.7	-49.4	15.5	0.00e+00	0	30	0	3306160128	62	4152
2026-01-03 09:25:44.84	335.26	15.33	-48.8	-49.5	15.5	0.00e+00	0	30	0	3311403008	62	4194
2026-01-03 09:25:45.86	335.14	15.24	-48.7	-49.4	15.5	0.00e+00	0	31	0	3317694464	62	4155
2026-01-03 09:25:46.87	335.02	15.15	-48.8	-49.5	15.4	0.00e+00	0	30	0	3322937344	62	4206
2026-01-03 09:25:47.87	334.90	15.06	-48.8	-49.5	15.4	0.00e+00	0	30	0	3329228800	62	4200
2026-01-03 09:25:48.88	334.79	14.97	-48.8	-49.6	15.5	0.00e+00	0	30	0	3334471680	63	4005
2026-01-03 09:25:49.90	334.67	14.88	-48.7	-49.4	15.6	0.00e+00	0	30	0	3340763136	63	3921
2026-01-03 09:25:50.91	334.55	14.79	-48.7	-49.3	15.6	0.00e+00	0	30	0	3346006016	63	3910
2026-01-03 09:25:51.92	334.44	14.70	-48.7	-49.4	15.6	0.00e+00	0	31	0	3352297472	63	3921
2026-01-03 09:25:52.93	334.32	14.61	-48.7	-49.4	15.6	0.00e+00	0	30	0	3357540352	63	3951
2026-01-03 09:25:53.94	334.21	14.52	-48.8	-49.5	15.5	0.00e+00	0	30	0	3362783232	63	3984
2026-01-03 09:25:54.95	334.10	14.44	-48.8	-49.5	15.5	0.00e+00	0	30	0	3369074688	63	3972
2026-01-03 09:25:55.96	333.98	14.35	-48.8	-49.5	15.5	0.00e+00	0	30	0	3374317568	63	3994
2026-01-03 09:25:56.97	333.87	14.26	-48.9	-49.7	15.5	0.00e+00	0	31	0	3380609024	63	4053
2026-01-03 09:25:57.98	333.76	14.17	-48.8	-49.5	15.5	0.00e+00	0	30	0	3385851904	63	3987
2026-01-03 09:25:58.99	333.65	14.08	-48.8	-49.5	15.5	0.00e+00	0	30	0	3391094784	63	3996
2026-01-03 09:26:00.00	333.54	14.00	-48.9	-49.6	15.5	0.00e+00	0	30	0	3397386240	63	4025
2026-01-03 09:26:01.00	333.43	13.91	-48.9	-49.6	15.5	0.00e+00	0	30	0	3402629120	63	4045
2026-01-03 09:26:02.01	333.33	13.82	-48.8	-49.6	15.5	0.00e+00	0	31	0	3408920576	63	4009
2026-01-03 09:26:03.02	333.22	13.73	-48.8	-49.5	15.5	0.00e+00	0	31	0	3414163456	63	3970
2026-01-03 09:26:04.03	333.11	13.65	-48.9	-49.6	15.5	0.00e+00	0	30	0	3419406336	63	4028
2026-01-03 09:26:05.04	333.01	13.56	-48.8	-49.5	15.5	0.00e+00	0	30	0	3425697792	63	4000
2026-01-03 09:26:06.06	332.90	13.47	-48.9	-49.6	15.5	0.00e+00	0	30	0	3430940672	63	4024
2026-01-03 09:26:07.06	332.79	13.39	-49.0	-49.7	15.4	0.00e+00	0	31	0	3437232128	63	4069
2026-01-03 09:26:08.07	332.69	13.30	-49.0	-49.7	15.5	0.00e+00	0	30	0	3442475008	63	4087
2026-01-03 09:26:09.08	332.59	13.22	-49.0	-49.7	15.4	0.00e+00	0	30	0	3448766464	63	4097
2026-01-03 09:26:10.09	332.48	13.13	-49.0	-49.7	15.4	0.00e+00	0	31	0	3454009344	63	4083
2026-01-03 09:26:11.10	332.38	13.05	-49.0	-49.7	15.5	0.00e+00	0	30	0	3459252224	63	4069
2026-01-03 09:26:12.11	332.28	12.96	-49.1	-49.8	15.4	0.00e+00	0	31	0	3465543680	63	4117
2026-01-03 09:26:13.12	332.18	12.88	-49.2	-49.9	15.4	0.00e+00	0	30	0	3470786560	63	4193
2026-01-03 09:26:14.13	332.08	12.79	-49.2	-49.9	15.4	0.00e+00	0	30	0	3477078016	63	4191
2026-01-03 09:26:15.14	331.98	12.71	-49.2	-50.0	15.3	0.00e+00	0	30	0	3482320896	63	4211
2026-01-03 09:26:16.15	331.88	12.62	-49.3	-50.0	15.3	0.00e+00	0	30	0	3487563776	63	4227
2026-01-03 09:26:17.16	331.78	12.54	-49.3	-50.0	15.3	0.00e+00	0	30	0	3493855232	63	4219
2026-01-03 09:26:18.17	331.68	12.45	-49.4	-50.1	15.3	0.00e+00	0	30	0	3499098112	63	4271
2026-01-03 09:26:19.18	331.58	12.37	-49.4	-50.1	15.4	0.00e+00	0	30	0	3505389568	64	4044
2026-01-03 09:26:20.19	331.49	12.29	-49.3	-50.1	15.4	0.00e+00	0	31	0	3510632448	64	4022
2026-01-03 09:26:21.21	331.39	12.20	-49.4	-50.2	15.3	0.00e+00	0	31	0	3516923904	64	4064
2026-01-03 09:26:22.22	331.29	12.12	-49.5	-50.3	15.3	0.00e+00	0	30	0	3522166784	64	4107
2026-01-03 09:26:23.23	331.20	12.04	-49.4	-50.2	15.3	0.00e+00	0	30	0	3527409664	64	4059
2026-01-03 09:26:24.24	331.10	11.95	-49.4	-50.1	15.4	0.00e+00	0	30	0	3533701120	64	4051
2026-01-03 09:26:25.24	331.01	11.87	-49.5	-50.2	15.3	0.00e+00	0	31	0	3538944000	64	4076
2026-01-03 09:26:26.25	330.91	11.79	-49.5	-50.2	15.3	0.00e+00	0	30	0	3545235456	64	4090
2026-01-03 09:26:27.26	330.82	11.71	-49.5	-50.2	15.3	0.00e+00	0	30	0	3550478336	64	4086
2026-01-03 09:26:28.27	330.73	11.63	-49.5	-50.3	15.3	0.00e+00	0	30	0	3556769792	64	4106
2026-01-03 09:26:29.28	330.64	11.54	-49.4	-50.2	15.3	0.00e+00	0	31	0	3562012672	64	4074
2026-01-03 09:26:30.29	330.55	11.46	-49.5	-50.2	15.3	0.00e+00	0	30	0	3567255552	64	4097
2026-01-03 09:26:31.29	330.45	11.38	-49.4	-50.1	15.3	0.00e+00	0	31	0	3573547008	64	4040
2026-01-03 09:26:32.29	330.37	11.30	-49.5	-50.2	15.3	0.00e+00	0	31	0	3578789888	64	4096
2026-01-03 09:26:33.30	330.28	11.22	-49.5	-50.2	15.3	0.00e+00	0	30	0	3584032768	64	4090
2026-01-03 09:26:34.31	330.19	11.14	-49.5	-50.2	15.3	0.00e+00	0	31	0	3590324224	64	4090
2026-01-03 09:26:35.32	330.10	11.06	-49.6	-50.3	15.3	0.00e+00	0	31	0	3595567104	64	4134
2026-01-03 09:26:36.33	330.01	10.98	-49.5	-50.3	15.3	0.00e+00	0	31	0	3601858560	64	4114
2026-01-03 09:26:37.34	329.92	10.90	-49.5	-50.2	15.3	0.00e+00	0	31	0	3607101440	64	4091
2026-01-03 09:26:38.35	329.83	10.82	-49.6	-50.4	15.3	0.00e+00	0	31	0	3612344320	64	4153
2026-01-03 09:26:39.36	329.75	10.74	-49.5	-50.3	15.3	0.00e+00	0	31	0	3618635776	64	4108
2026-01-03 09:26:40.37	329.66	10.66	-49.6	-50.4	15.3	0.00e+00	0	31	0	3623878656	64	4152
2026-01-03 09:26:41.37	329.57	10.58	-49.6	-50.3	15.3	0.00e+00	0	30	0	3630170112	64	4141
2026-01-03 09:26:42.38	329.49	10.50	-49.6	-50.4	15.3	0.00e+00	0	30	0	3635412992	64	4161
2026-01-03 09:26:43.39	329.40	10.42	-49.7	-50.5	15.2	0.00e+00	0	30	0	3641704448	64	4204
2026-01-03 09:26:44.40	329.32	10.34	-49.6	-50.4	15.3	0.00e+00	0	30	0	3646947328	64	4172
2026-01-03 09:26:45.41	329.23	10.26	-49.7	-50.5	15.2	0.00e+00	0	31	0	3653238784	64	4224
2026-01-03 09:26:46.42	329.15	10.19	-49.7	-50.5	15.2	0.00e+00	0	30	0	3658481664	64	4214
2026-01-03 09:26:47.43	329.07	10.11	-49.7	-50.5	15.2	0.00e+00	0	30	0	3663724544	64	4199
2026-01-03 09:26:48.44	328.98	10.03	-49.8	-50.6	15.2	0.00e+00	0	31	0	3670016000	64	4262
2026-01-03 09:26:49.45	328.90	9.95	-49.7	-50.5	15.2	0.00e+00	0	30	0	3675258880	64	4235
2026-01-03 09:26:50.46	328.82	9.87	-49.7	-50.5	15.2	0.00e+00	0	30	0	3681550336	64	4229
2026-01-03 09:26:51.47	328.74	9.80	-49.8	-50.6	15.2	0.00e+00	0	31	0	3686793216	64	4282
2026-01-03 09:26:52.48	328.66	9.72	-49.9	-50.7	15.2	0.00e+00	0	31	0	3692036096	65	4071
2026-01-03 09:26:53.48	328.58	9.64	-49.9	-50.7	15.2	0.00e+00	0	30	0	3698327552	65	4078
2026-01-03 09:26:54.49	328.50	9.57	-49.9	-50.8	15.2	0.00e+00	0	31	0	3703570432	65	4100
