passes_logs/2026/01/03/R3.2S_Murmansk/R3.2S_Murmansk__20260103_001642_NOAA_20_JPSS-1_rec.log

#Pass ID: 20260103_001642_NOAA 20 (JPSS-1)
#Satellite: NOAA 20 (JPSS-1)
#Configuration: NOAA 20
#almurnet v.1.7.20251203
#Start time: 2026-01-03 00:16:42

#Version: 2.2.20231116
#Station: R3.2S_Murmansk
#Location: 33.079688 lon 68.888172 lat
#TLE: 1 43013U 17073A   26002.78363558  .00000190  00000+0  11110-3 0  9990
#TLE: 2 43013  98.7623 303.8528 0001892  57.0664 303.0694 14.19532716421006

#Time	Az	El	Level	Level2	SNR	BER	BlckErr	Temp	State	Recorded	gain1	gain2
2026-01-03 00:16:42.82	23.08	2.04	-59.9	-75.4	3.8	1.49e+00	0	29	0	0	86	20918
2026-01-03 00:16:43.82	23.10	2.10	-59.9	-75.3	3.8	1.49e+00	0	29	104	0	84	23278
2026-01-03 00:16:44.82	23.11	2.16	-59.9	-75.3	3.8	1.49e+00	0	29	104	0	84	23174
2026-01-03 00:16:45.83	23.13	2.23	-59.9	-75.3	3.8	1.49e+00	0	29	104	0	84	23079
2026-01-03 00:16:46.83	23.14	2.29	-59.9	-75.2	3.8	1.49e+00	0	29	104	0	84	22945
2026-01-03 00:16:47.84	23.16	2.36	-59.9	-75.2	3.8	1.49e+00	0	29	104	0	84	22922
2026-01-03 00:16:48.85	23.17	2.42	-59.8	-75.2	3.8	1.49e+00	0	29	104	0	84	22784
2026-01-03 00:16:49.85	23.19	2.49	-59.9	-75.1	3.8	1.49e+00	0	29	104	0	84	22670
2026-01-03 00:16:50.85	23.20	2.55	-59.8	-75.1	3.8	1.49e+00	0	29	104	0	84	22585
2026-01-03 00:16:51.85	23.22	2.62	-59.8	-75.0	3.8	1.49e+00	0	29	104	0	84	22406
2026-01-03 00:16:52.85	23.23	2.68	-59.8	-74.9	3.8	1.49e+00	0	29	104	0	84	22259
2026-01-03 00:16:53.85	23.25	2.75	-59.8	-74.8	3.8	1.49e+00	0	29	104	0	84	21799
2026-01-03 00:16:54.85	23.26	2.81	-59.8	-74.6	3.8	1.49e+00	0	29	104	0	84	21335
2026-01-03 00:16:55.85	23.28	2.88	-59.8	-74.3	3.8	1.49e+00	0	29	104	0	84	20659
2026-01-03 00:16:56.84	23.29	2.94	-59.8	-73.9	3.8	1.49e+00	0	29	104	0	84	19696
2026-01-03 00:16:57.84	23.31	3.01	-59.8	-73.3	3.8	1.49e+00	0	29	104	0	84	18499
2026-01-03 00:16:58.84	23.33	3.07	-59.8	-73.1	3.8	1.48e+00	0	29	104	0	84	18021
2026-01-03 00:16:59.84	23.34	3.14	-59.7	-72.7	3.9	1.49e+00	0	30	104	0	84	17137
2026-01-03 00:17:00.83	23.36	3.20	-59.7	-72.4	4.1	1.44e+00	0	29	0	0	84	16597
2026-01-03 00:17:01.84	23.37	3.27	-59.7	-72.1	4.2	1.43e+00	0	29	0	0	84	16086
2026-01-03 00:17:02.84	23.39	3.34	-59.7	-72.0	4.2	1.42e+00	0	29	0	0	84	15943
2026-01-03 00:17:03.84	23.40	3.40	-59.7	-71.7	4.2	1.40e+00	0	30	0	0	84	15358
2026-01-03 00:17:04.85	23.42	3.47	-59.7	-71.4	4.3	1.34e+00	27	30	0	0	84	14792
2026-01-03 00:17:05.84	23.44	3.54	-59.6	-70.5	4.6	1.01e+00	0	30	0	1048576	84	13369
2026-01-03 00:17:06.85	23.45	3.60	-59.5	-69.3	5.2	7.39e-01	0	30	0	3145728	84	11667
2026-01-03 00:17:07.85	23.47	3.67	-59.4	-68.5	5.7	5.03e-01	0	30	0	5242880	84	10583
2026-01-03 00:17:08.86	23.48	3.74	-59.2	-67.2	6.6	2.16e-01	0	30	0	7340032	84	9141
2026-01-03 00:17:09.86	23.50	3.81	-59.0	-65.9	7.7	1.01e-01	0	30	0	9437184	84	7876
2026-01-03 00:17:10.86	23.52	3.88	-58.7	-64.7	8.8	3.63e-02	0	30	0	10485760	84	6840
2026-01-03 00:17:11.86	23.53	3.94	-58.2	-63.3	9.8	6.32e-03	0	30	0	12582912	83	6187
2026-01-03 00:17:12.86	23.55	4.01	-57.9	-62.5	10.4	1.74e-03	0	30	0	14680064	82	5980
2026-01-03 00:17:13.86	23.56	4.08	-57.6	-61.8	11.0	4.87e-04	0	30	0	16777216	81	5838
2026-01-03 00:17:14.87	23.58	4.15	-57.4	-61.3	11.4	8.08e-05	0	30	0	18874368	81	5510
2026-01-03 00:17:15.86	23.60	4.22	-57.2	-60.8	11.8	3.89e-05	0	30	0	19922944	81	5214
2026-01-03 00:17:16.86	23.61	4.29	-57.1	-60.6	11.9	1.14e-05	0	30	0	22020096	80	5351
2026-01-03 00:17:17.86	23.63	4.35	-56.9	-60.3	12.1	3.00e-06	0	30	0	24117248	80	5209
2026-01-03 00:17:18.85	23.65	4.42	-56.9	-60.2	12.2	1.50e-06	0	30	0	26214400	80	5113
2026-01-03 00:17:19.85	23.66	4.49	-57.0	-60.4	12.1	3.00e-06	0	30	0	27262976	80	5232
2026-01-03 00:17:20.86	23.68	4.56	-57.0	-60.5	12.0	6.10e-06	0	30	0	29360128	80	5281
2026-01-03 00:17:21.85	23.70	4.63	-57.1	-60.6	11.9	3.00e-06	0	30	0	31457280	80	5376
2026-01-03 00:17:22.86	23.71	4.70	-57.3	-61.1	11.6	2.13e-05	0	30	0	33554432	80	5661
2026-01-03 00:17:23.86	23.73	4.77	-57.6	-61.7	11.1	1.01e-04	0	30	0	35651584	80	6114
2026-01-03 00:17:24.86	23.75	4.84	-57.7	-62.0	10.8	1.79e-04	0	30	0	36700160	80	6339
2026-01-03 00:17:25.86	23.76	4.91	-57.9	-62.7	10.3	7.29e-04	0	30	0	38797312	81	6456
2026-01-03 00:17:26.86	23.78	4.98	-58.2	-63.5	9.6	2.25e-03	0	30	0	40894464	81	7106
2026-01-03 00:17:27.87	23.80	5.05	-58.4	-64.0	9.2	4.49e-03	0	30	0	42991616	81	7542
2026-01-03 00:17:28.87	23.81	5.13	-56.0	-58.5	13.4	1.14e-05	0	30	0	45088768	78	4743
2026-01-03 00:17:29.87	23.83	5.20	-58.6	-64.9	8.6	1.62e-04	0	30	0	46137344	82	7816
2026-01-03 00:17:30.88	23.85	5.27	-59.1	-67.0	6.8	1.69e-02	0	30	0	48234496	83	9393
2026-01-03 00:17:31.88	23.87	5.34	-56.8	-59.9	12.5	1.16e-01	0	30	0	50331648	80	4955
2026-01-03 00:17:32.88	23.88	5.41	-59.3	-69.5	5.1	7.62e-02	0	30	0	52428800	83	12591
2026-01-03 00:17:33.88	23.90	5.48	-56.7	-59.7	12.7	1.25e-01	0	30	0	54525952	80	4857
2026-01-03 00:17:34.88	23.92	5.56	-56.7	-59.6	12.8	0.00e+00	0	30	0	55574528	79	5069
2026-01-03 00:17:35.88	23.94	5.63	-56.7	-59.6	12.8	0.00e+00	0	30	0	57671680	79	5065
2026-01-03 00:17:36.87	23.95	5.70	-56.7	-59.7	12.7	7.00e-07	0	30	0	59768832	79	5133
2026-01-03 00:17:37.88	23.97	5.77	-56.4	-59.0	13.2	7.00e-07	0	30	0	61865984	79	4756
2026-01-03 00:17:38.88	23.99	5.85	-56.1	-58.7	13.4	0.00e+00	0	30	0	62914560	78	4837
2026-01-03 00:17:39.89	24.01	5.92	-56.1	-58.6	13.4	0.00e+00	0	30	0	65011712	78	4774
2026-01-03 00:17:40.89	24.02	5.99	-56.1	-58.5	13.4	0.00e+00	0	30	0	67108864	78	4750
2026-01-03 00:17:41.89	24.04	6.07	-55.9	-58.2	13.6	0.00e+00	0	30	0	69206016	78	4572
2026-01-03 00:17:42.90	24.06	6.14	-55.8	-58.0	13.8	0.00e+00	0	30	0	71303168	78	4489
2026-01-03 00:17:43.89	24.08	6.21	-55.6	-57.8	13.9	0.00e+00	0	30	0	72351744	77	4627
2026-01-03 00:17:44.90	24.10	6.29	-55.6	-57.8	13.9	0.00e+00	0	30	0	74448896	77	4617
2026-01-03 00:17:45.90	24.12	6.36	-55.6	-57.8	13.8	0.00e+00	0	30	0	76546048	77	4632
2026-01-03 00:17:46.91	24.13	6.44	-55.5	-57.6	14.0	0.00e+00	0	30	0	78643200	77	4539
2026-01-03 00:17:47.91	24.15	6.51	-55.6	-57.7	13.9	0.00e+00	0	30	0	80740352	77	4585
2026-01-03 00:17:48.91	24.17	6.59	-55.5	-57.6	14.0	0.00e+00	0	30	0	81788928	77	4537
2026-01-03 00:17:49.91	24.19	6.66	-55.4	-57.4	14.1	0.00e+00	0	30	0	83886080	77	4424
2026-01-03 00:17:50.91	24.21	6.74	-55.4	-57.5	14.1	0.00e+00	0	30	0	85983232	77	4454
2026-01-03 00:17:51.91	24.23	6.81	-55.3	-57.3	14.2	0.00e+00	0	30	0	88080384	77	4360
2026-01-03 00:17:52.91	24.24	6.89	-55.4	-57.4	14.1	0.00e+00	0	30	0	90177536	77	4407
2026-01-03 00:17:53.91	24.26	6.97	-55.4	-57.4	14.1	0.00e+00	0	30	0	91226112	77	4417
2026-01-03 00:17:54.90	24.28	7.04	-55.3	-57.3	14.2	0.00e+00	0	30	0	93323264	77	4349
2026-01-03 00:17:55.90	24.30	7.12	-55.3	-57.3	14.2	0.00e+00	0	30	0	95420416	77	4389
2026-01-03 00:17:56.91	24.32	7.20	-55.3	-57.3	14.2	0.00e+00	0	30	0	97517568	77	4362
2026-01-03 00:17:57.91	24.34	7.27	-55.3	-57.3	14.2	0.00e+00	0	30	0	99614720	77	4387
2026-01-03 00:17:58.91	24.36	7.35	-55.2	-57.1	14.2	0.00e+00	0	30	0	100663296	76	4534
2026-01-03 00:17:59.91	24.38	7.43	-55.2	-57.1	14.3	0.00e+00	0	30	0	102760448	76	4533
2026-01-03 00:18:00.91	24.40	7.51	-55.2	-57.1	14.3	0.00e+00	0	30	0	104857600	76	4522
2026-01-03 00:18:01.91	24.42	7.58	-55.2	-57.1	14.3	0.00e+00	0	30	0	106954752	76	4526
2026-01-03 00:18:02.91	24.44	7.66	-55.1	-57.0	14.3	0.00e+00	0	30	0	108003328	76	4456
2026-01-03 00:18:03.91	24.46	7.74	-55.1	-57.0	14.3	0.00e+00	0	30	0	110100480	76	4476
2026-01-03 00:18:04.91	24.48	7.82	-55.1	-57.0	14.3	0.00e+00	0	30	0	112197632	76	4470
2026-01-03 00:18:05.92	24.50	7.90	-55.1	-57.0	14.4	0.00e+00	0	30	0	114294784	76	4455
2026-01-03 00:18:06.92	24.51	7.98	-55.1	-56.9	14.4	0.00e+00	0	30	0	116391936	76	4419
2026-01-03 00:18:07.92	24.53	8.06	-55.2	-57.1	14.3	0.00e+00	0	30	0	117440512	76	4515
2026-01-03 00:18:08.91	24.55	8.14	-55.1	-56.9	14.4	0.00e+00	0	30	0	119537664	76	4419
2026-01-03 00:18:09.91	24.57	8.22	-55.1	-57.0	14.3	0.00e+00	0	30	0	121634816	76	4470
2026-01-03 00:18:10.91	24.59	8.30	-55.0	-56.8	14.5	0.00e+00	0	30	0	123731968	76	4374
2026-01-03 00:18:11.91	24.61	8.38	-55.0	-56.8	14.5	0.00e+00	0	30	0	125829120	76	4369
2026-01-03 00:18:12.92	24.64	8.46	-54.9	-56.7	14.5	0.00e+00	0	30	0	126877696	76	4317
2026-01-03 00:18:13.92	24.66	8.54	-54.8	-56.6	14.6	0.00e+00	0	31	0	128974848	76	4245
2026-01-03 00:18:14.91	24.68	8.62	-54.8	-56.6	14.6	0.00e+00	0	30	0	131072000	76	4258
2026-01-03 00:18:15.91	24.70	8.70	-54.9	-56.6	14.6	0.00e+00	0	30	0	133169152	76	4281
2026-01-03 00:18:16.91	24.72	8.78	-54.8	-56.5	14.6	0.00e+00	0	30	0	134217728	76	4222
2026-01-03 00:18:17.91	24.74	8.86	-54.8	-56.5	14.6	0.00e+00	0	30	0	136314880	76	4195
2026-01-03 00:18:18.91	24.76	8.95	-54.8	-56.5	14.6	0.00e+00	0	30	0	138412032	76	4233
2026-01-03 00:18:19.91	24.78	9.03	-54.7	-56.4	14.7	0.00e+00	0	31	0	140509184	76	4173
2026-01-03 00:18:20.91	24.80	9.11	-54.8	-56.5	14.6	0.00e+00	0	30	0	142606336	76	4224
2026-01-03 00:18:21.91	24.82	9.19	-54.8	-56.5	14.7	0.00e+00	0	30	0	143654912	76	4201
2026-01-03 00:18:22.92	24.84	9.28	-54.6	-56.2	14.7	0.00e+00	0	30	0	145752064	75	4319
2026-01-03 00:18:23.92	24.86	9.36	-54.6	-56.3	14.7	0.00e+00	0	31	0	147849216	75	4370
2026-01-03 00:18:24.91	24.89	9.45	-54.5	-56.1	14.8	0.00e+00	0	30	0	149946368	75	4286
2026-01-03 00:18:25.91	24.91	9.53	-54.5	-56.1	14.8	0.00e+00	0	30	0	152043520	75	4279
2026-01-03 00:18:26.92	24.93	9.61	-54.5	-56.1	14.8	0.00e+00	0	30	0	153092096	75	4259
2026-01-03 00:18:27.92	24.95	9.70	-54.4	-56.0	14.8	0.00e+00	0	30	0	155189248	75	4234
2026-01-03 00:18:28.91	24.97	9.78	-54.5	-56.1	14.8	0.00e+00	0	31	0	157286400	75	4254
2026-01-03 00:18:29.91	24.99	9.87	-54.4	-56.0	14.8	0.00e+00	0	30	0	159383552	75	4242
2026-01-03 00:18:30.91	25.02	9.95	-54.4	-56.0	14.8	0.00e+00	0	30	0	160432128	75	4240
2026-01-03 00:18:31.91	25.04	10.04	-54.3	-55.9	14.9	0.00e+00	0	30	0	162529280	75	4166
2026-01-03 00:18:32.90	25.06	10.13	-54.4	-56.0	14.8	0.00e+00	0	31	0	164626432	75	4232
2026-01-03 00:18:33.90	25.08	10.21	-54.4	-55.9	14.9	0.00e+00	0	31	0	166723584	75	4180
2026-01-03 00:18:34.91	25.11	10.30	-54.3	-55.8	14.9	0.00e+00	0	31	0	168820736	75	4115
2026-01-03 00:18:35.91	25.13	10.39	-54.3	-55.8	14.9	0.00e+00	0	31	0	169869312	75	4144
2026-01-03 00:18:36.91	25.15	10.47	-54.3	-55.8	14.9	0.00e+00	0	31	0	171966464	75	4143
2026-01-03 00:18:37.92	25.17	10.56	-54.2	-55.6	15.0	0.00e+00	0	31	0	174063616	74	4291
2026-01-03 00:18:38.92	25.20	10.65	-54.3	-55.8	14.9	0.00e+00	0	31	0	176160768	74	4360
2026-01-03 00:18:39.92	25.22	10.74	-54.2	-55.7	14.9	0.00e+00	0	30	0	178257920	74	4301
2026-01-03 00:18:40.92	25.24	10.83	-54.2	-55.7	14.9	0.00e+00	0	31	0	179306496	74	4337
2026-01-03 00:18:41.92	25.27	10.92	-54.2	-55.7	14.9	0.00e+00	0	31	0	181403648	74	4294
2026-01-03 00:18:42.93	25.29	11.01	-54.1	-55.6	15.0	0.00e+00	0	31	0	183500800	74	4250
2026-01-03 00:18:43.93	25.31	11.10	-54.1	-55.6	15.0	0.00e+00	0	31	0	185597952	74	4243
2026-01-03 00:18:44.93	25.34	11.19	-54.0	-55.5	15.0	0.00e+00	0	31	0	187695104	74	4213
2026-01-03 00:18:45.93	25.36	11.28	-54.1	-55.5	15.0	0.00e+00	0	31	0	188743680	74	4218
2026-01-03 00:18:46.92	25.38	11.37	-54.1	-55.5	15.0	0.00e+00	0	31	0	190840832	74	4234
2026-01-03 00:18:47.92	25.41	11.46	-54.2	-55.7	15.0	0.00e+00	0	31	0	192937984	74	4298
2026-01-03 00:18:48.93	25.43	11.55	-54.0	-55.4	15.0	0.00e+00	0	31	0	195035136	74	4192
2026-01-03 00:18:49.93	25.46	11.64	-54.1	-55.5	15.0	0.00e+00	0	31	0	197132288	74	4242
2026-01-03 00:18:50.93	25.48	11.73	-54.0	-55.4	15.1	0.00e+00	0	31	0	198180864	74	4183
2026-01-03 00:18:51.93	25.50	11.83	-54.0	-55.4	15.1	0.00e+00	0	31	0	200278016	74	4161
2026-01-03 00:18:52.93	25.53	11.92	-54.0	-55.4	15.1	0.00e+00	0	31	0	202375168	74	4169
2026-01-03 00:18:53.93	25.55	12.01	-54.0	-55.4	15.1	0.00e+00	0	31	0	204472320	74	4174
2026-01-03 00:18:54.93	25.58	12.10	-54.1	-55.5	15.0	0.00e+00	0	31	0	205520896	74	4237
2026-01-03 00:18:55.93	25.60	12.20	-53.9	-55.3	15.1	0.00e+00	0	31	0	207618048	74	4142
2026-01-03 00:18:56.93	25.63	12.29	-54.0	-55.4	15.1	0.00e+00	0	31	0	209715200	74	4169
2026-01-03 00:18:57.93	25.65	12.39	-54.0	-55.4	15.1	0.00e+00	0	31	0	211812352	74	4191
2026-01-03 00:18:58.93	25.68	12.48	-53.9	-55.4	15.1	0.00e+00	0	31	0	213909504	74	4148
2026-01-03 00:18:59.92	25.70	12.58	-54.1	-55.6	15.0	0.00e+00	0	31	0	214958080	74	4254
2026-01-03 00:19:00.92	25.73	12.67	-53.9	-55.4	15.1	0.00e+00	0	31	0	217055232	74	4146
2026-01-03 00:19:01.92	25.76	12.77	-54.0	-55.4	15.1	0.00e+00	0	31	0	219152384	74	4162
2026-01-03 00:19:02.92	25.78	12.86	-53.9	-55.3	15.2	0.00e+00	0	31	0	221249536	74	4103
2026-01-03 00:19:03.91	25.81	12.96	-53.9	-55.2	15.2	0.00e+00	0	31	0	222298112	74	4098
2026-01-03 00:19:04.90	25.83	13.06	-54.0	-55.3	15.1	0.00e+00	0	31	0	224395264	74	4143
2026-01-03 00:19:05.90	25.86	13.15	-53.9	-55.3	15.2	0.00e+00	0	31	0	226492416	74	4111
2026-01-03 00:19:06.89	25.89	13.25	-53.9	-55.3	15.2	0.00e+00	0	31	0	228589568	74	4121
2026-01-03 00:19:07.89	25.91	13.35	-54.0	-55.3	15.1	0.00e+00	0	31	0	230686720	74	4139
2026-01-03 00:19:08.89	25.94	13.45	-53.9	-55.3	15.2	0.00e+00	0	31	0	231735296	74	4113
2026-01-03 00:19:09.88	25.97	13.54	-54.0	-55.3	15.1	0.00e+00	0	31	0	233832448	74	4142
2026-01-03 00:19:10.88	25.99	13.64	-53.9	-55.3	15.2	0.00e+00	0	31	0	235929600	74	4102
2026-01-03 00:19:11.89	26.02	13.74	-53.9	-55.3	15.2	0.00e+00	0	31	0	238026752	74	4101
2026-01-03 00:19:12.88	26.05	13.84	-53.9	-55.2	15.2	0.00e+00	0	31	0	240123904	74	4090
2026-01-03 00:19:13.88	26.07	13.94	-53.9	-55.2	15.2	0.00e+00	0	31	0	241172480	74	4093
2026-01-03 00:19:14.88	26.10	14.05	-53.9	-55.2	15.2	0.00e+00	0	31	0	243269632	74	4092
2026-01-03 00:19:15.88	26.13	14.15	-53.9	-55.2	15.2	0.00e+00	0	31	0	245366784	74	4083
2026-01-03 00:19:16.87	26.16	14.25	-53.9	-55.2	15.2	0.00e+00	0	31	0	247463936	74	4095
2026-01-03 00:19:17.87	26.19	14.35	-53.9	-55.3	15.2	0.00e+00	0	30	0	249561088	74	4127
2026-01-03 00:19:18.86	26.21	14.45	-54.0	-55.4	15.2	0.00e+00	0	31	0	250609664	74	4147
2026-01-03 00:19:19.86	26.24	14.55	-54.0	-55.4	15.2	0.00e+00	0	31	0	252706816	74	4158
2026-01-03 00:19:20.86	26.27	14.66	-54.0	-55.4	15.2	0.00e+00	0	31	0	254803968	74	4160
2026-01-03 00:19:21.86	26.30	14.76	-54.1	-55.4	15.1	0.00e+00	0	31	0	256901120	74	4187
2026-01-03 00:19:22.86	26.33	14.87	-54.0	-55.4	15.1	0.00e+00	0	31	0	257949696	74	4174
2026-01-03 00:19:23.86	26.36	14.97	-54.0	-55.4	15.2	0.00e+00	0	31	0	260046848	74	4170
2026-01-03 00:19:24.86	26.39	15.08	-54.0	-55.4	15.1	0.00e+00	0	31	0	262144000	74	4187
2026-01-03 00:19:25.86	26.42	15.18	-54.1	-55.5	15.1	0.00e+00	0	31	0	264241152	74	4204
2026-01-03 00:19:26.85	26.45	15.29	-54.1	-55.5	15.1	0.00e+00	0	31	0	266338304	74	4222
2026-01-03 00:19:27.85	26.48	15.39	-54.2	-55.6	15.1	0.00e+00	0	31	0	267386880	74	4261
2026-01-03 00:19:28.84	26.50	15.50	-54.3	-55.7	15.0	0.00e+00	0	31	0	269484032	74	4332
2026-01-03 00:19:29.84	26.53	15.61	-54.2	-55.6	15.1	0.00e+00	0	31	0	271581184	74	4275
2026-01-03 00:19:30.84	26.57	15.72	-54.2	-55.7	15.0	0.00e+00	0	31	0	273678336	74	4310
2026-01-03 00:19:31.84	26.60	15.82	-54.3	-55.8	15.0	0.00e+00	0	31	0	274726912	74	4352
2026-01-03 00:19:32.84	26.63	15.93	-54.4	-55.9	15.0	0.00e+00	0	31	0	276824064	74	4392
2026-01-03 00:19:33.84	26.66	16.04	-54.3	-55.8	15.0	0.00e+00	0	31	0	278921216	74	4364
2026-01-03 00:19:34.83	26.69	16.15	-54.4	-55.9	14.9	0.00e+00	0	31	0	281018368	74	4426
2026-01-03 00:19:35.83	26.72	16.26	-54.4	-55.9	15.0	0.00e+00	0	31	0	283115520	74	4408
2026-01-03 00:19:36.82	26.75	16.37	-54.4	-55.9	14.9	0.00e+00	0	31	0	284164096	74	4406
2026-01-03 00:19:37.83	26.78	16.49	-54.4	-55.9	14.9	0.00e+00	0	31	0	286261248	74	4440
2026-01-03 00:19:38.83	26.81	16.60	-54.4	-55.9	14.9	0.00e+00	0	31	0	288358400	74	4437
2026-01-03 00:19:39.83	26.85	16.71	-54.5	-56.0	14.9	0.00e+00	0	31	0	290455552	74	4491
2026-01-03 00:19:40.84	26.88	16.82	-54.6	-56.1	14.8	0.00e+00	0	31	0	292552704	74	4518
2026-01-03 00:19:41.84	26.91	16.94	-54.5	-56.1	14.9	0.00e+00	0	31	0	293601280	74	4514
2026-01-03 00:19:42.84	26.94	17.05	-54.6	-56.2	14.9	0.00e+00	0	31	0	295698432	74	4552
2026-01-03 00:19:43.83	26.98	17.17	-54.7	-56.2	14.8	0.00e+00	0	31	0	297795584	74	4596
2026-01-03 00:19:44.82	27.01	17.28	-54.7	-56.2	14.8	0.00e+00	0	31	0	299892736	74	4587
2026-01-03 00:19:45.82	27.04	17.39	-54.8	-56.4	14.7	0.00e+00	0	31	0	300941312	74	4673
2026-01-03 00:19:46.82	27.08	17.51	-54.8	-56.4	14.8	0.00e+00	0	31	0	303038464	74	4663
2026-01-03 00:19:47.82	27.11	17.63	-54.8	-56.4	14.7	0.00e+00	0	31	0	305135616	74	4697
2026-01-03 00:19:48.83	27.15	17.75	-54.9	-56.5	14.7	0.00e+00	0	31	0	307232768	74	4716
2026-01-03 00:19:49.83	27.18	17.86	-54.9	-56.5	14.7	0.00e+00	0	31	0	309329920	74	4735
2026-01-03 00:19:50.83	27.21	17.98	-54.9	-56.5	14.7	0.00e+00	0	31	0	310378496	74	4716
2026-01-03 00:19:51.84	27.25	18.10	-54.9	-56.6	14.8	0.00e+00	0	31	0	312475648	75	4494
2026-01-03 00:19:52.84	27.29	18.22	-54.9	-56.5	14.8	0.00e+00	0	31	0	314572800	75	4454
2026-01-03 00:19:53.84	27.32	18.34	-54.9	-56.5	14.7	0.00e+00	0	31	0	316669952	75	4480
2026-01-03 00:19:54.84	27.36	18.46	-55.0	-56.6	14.7	0.00e+00	0	31	0	318767104	75	4524
2026-01-03 00:19:55.83	27.39	18.58	-55.0	-56.6	14.7	0.00e+00	0	31	0	319815680	75	4538
2026-01-03 00:19:56.83	27.43	18.71	-55.0	-56.7	14.7	0.00e+00	0	31	0	321912832	75	4566
2026-01-03 00:19:57.84	27.46	18.83	-55.0	-56.7	14.7	0.00e+00	0	31	0	324009984	75	4590
2026-01-03 00:19:58.83	27.50	18.95	-55.0	-56.6	14.7	0.00e+00	0	31	0	326107136	75	4534
2026-01-03 00:19:59.83	27.54	19.07	-54.9	-56.6	14.7	0.00e+00	0	31	0	328204288	75	4506
2026-01-03 00:20:00.83	27.57	19.20	-54.9	-56.6	14.7	0.00e+00	0	31	0	329252864	75	4498
2026-01-03 00:20:01.82	27.61	19.32	-55.0	-56.7	14.7	0.00e+00	0	31	0	331350016	75	4566
2026-01-03 00:20:02.81	27.65	19.45	-55.0	-56.7	14.7	0.00e+00	0	31	0	333447168	75	4557
2026-01-03 00:20:03.82	27.69	19.57	-55.0	-56.7	14.7	0.00e+00	0	31	0	335544320	75	4552
2026-01-03 00:20:04.81	27.72	19.70	-55.1	-56.8	14.6	0.00e+00	0	31	0	336592896	75	4601
2026-01-03 00:20:05.81	27.76	19.83	-55.1	-56.8	14.6	0.00e+00	0	31	0	338690048	75	4634
2026-01-03 00:20:06.81	27.80	19.96	-55.0	-56.6	14.8	0.00e+00	0	31	0	340787200	75	4533
2026-01-03 00:20:07.80	27.84	20.08	-55.0	-56.6	14.7	0.00e+00	0	31	0	342884352	75	4536
2026-01-03 00:20:08.80	27.88	20.21	-55.0	-56.7	14.7	0.00e+00	0	31	0	344981504	75	4570
2026-01-03 00:20:09.80	27.92	20.34	-55.1	-56.7	14.7	0.00e+00	0	31	0	346030080	75	4582
2026-01-03 00:20:10.79	27.96	20.47	-55.0	-56.7	14.7	0.00e+00	0	31	0	348127232	75	4568
2026-01-03 00:20:11.80	28.00	20.61	-55.0	-56.7	14.7	0.00e+00	0	31	0	350224384	75	4563
2026-01-03 00:20:12.80	28.04	20.74	-55.1	-56.7	14.7	0.00e+00	0	31	0	352321536	75	4592
2026-01-03 00:20:13.79	28.08	20.87	-55.0	-56.6	14.7	0.00e+00	0	31	0	353370112	75	4524
2026-01-03 00:20:14.79	28.12	21.00	-54.9	-56.5	14.8	0.00e+00	0	31	0	355467264	75	4453
2026-01-03 00:20:15.78	28.16	21.14	-54.9	-56.5	14.8	0.00e+00	0	31	0	357564416	75	4485
2026-01-03 00:20:16.79	28.20	21.27	-54.9	-56.4	14.8	0.00e+00	0	31	0	359661568	75	4436
2026-01-03 00:20:17.79	28.25	21.41	-54.8	-56.4	14.9	0.00e+00	0	31	0	361758720	75	4411
2026-01-03 00:20:18.79	28.29	21.54	-54.9	-56.4	14.8	0.00e+00	0	31	0	362807296	75	4436
2026-01-03 00:20:19.79	28.33	21.68	-54.8	-56.4	14.8	0.00e+00	0	31	0	364904448	75	4427
2026-01-03 00:20:20.79	28.37	21.82	-54.8	-56.4	14.8	0.00e+00	0	31	0	367001600	75	4424
2026-01-03 00:20:21.79	28.42	21.96	-54.8	-56.4	14.8	0.00e+00	0	31	0	369098752	75	4415
2026-01-03 00:20:22.79	28.46	22.10	-54.8	-56.3	14.9	0.00e+00	0	31	0	371195904	75	4374
2026-01-03 00:20:23.80	28.51	22.24	-54.7	-56.2	15.0	0.00e+00	0	31	0	372244480	75	4308
2026-01-03 00:20:24.79	28.55	22.38	-54.7	-56.3	14.9	0.00e+00	0	31	0	374341632	75	4343
2026-01-03 00:20:25.80	28.60	22.52	-54.6	-56.1	15.0	0.00e+00	0	31	0	376438784	75	4287
2026-01-03 00:20:26.80	28.64	22.66	-54.6	-56.0	15.0	0.00e+00	0	31	0	378535936	75	4239
2026-01-03 00:20:27.80	28.69	22.81	-54.7	-56.2	14.9	0.00e+00	0	31	0	379584512	75	4308
2026-01-03 00:20:28.81	28.73	22.95	-54.6	-56.1	15.0	0.00e+00	0	31	0	381681664	75	4248
2026-01-03 00:20:29.81	28.78	23.10	-54.6	-56.1	15.0	0.00e+00	0	31	0	383778816	75	4244
2026-01-03 00:20:30.81	28.83	23.24	-54.4	-55.9	15.1	0.00e+00	0	31	0	385875968	75	4170
2026-01-03 00:20:31.81	28.87	23.39	-54.4	-55.9	15.1	0.00e+00	0	31	0	387973120	75	4149
2026-01-03 00:20:32.81	28.92	23.54	-54.4	-55.9	15.1	0.00e+00	0	31	0	390070272	75	4155
2026-01-03 00:20:33.82	28.97	23.68	-54.5	-55.9	15.1	0.00e+00	0	31	0	391118848	75	4167
2026-01-03 00:20:34.81	29.02	23.83	-54.4	-55.9	15.1	0.00e+00	0	31	0	393216000	75	4155
2026-01-03 00:20:35.81	29.07	23.98	-54.4	-55.8	15.1	0.00e+00	0	31	0	395313152	75	4141
2026-01-03 00:20:36.81	29.12	24.13	-54.4	-55.9	15.1	0.00e+00	0	31	0	397410304	75	4151
2026-01-03 00:20:37.80	29.17	24.28	-54.4	-55.8	15.1	0.00e+00	0	31	0	398458880	75	4132
2026-01-03 00:20:38.80	29.22	24.43	-54.3	-55.7	15.2	0.00e+00	0	31	0	400556032	75	4057
2026-01-03 00:20:39.79	29.27	24.59	-54.2	-55.6	15.2	0.00e+00	0	31	0	402653184	75	4039
2026-01-03 00:20:40.80	29.32	24.74	-54.3	-55.6	15.2	0.00e+00	0	31	0	404750336	75	4039
2026-01-03 00:20:41.80	29.37	24.90	-54.2	-55.6	15.2	0.00e+00	0	31	0	406847488	75	4027
2026-01-03 00:20:42.79	29.42	25.05	-54.3	-55.7	15.2	0.00e+00	0	31	0	407896064	75	4052
2026-01-03 00:20:43.79	29.47	25.21	-54.3	-55.7	15.2	0.00e+00	0	31	0	409993216	75	4059
2026-01-03 00:20:44.79	29.53	25.36	-54.3	-55.6	15.2	0.00e+00	0	31	0	412090368	75	4047
2026-01-03 00:20:45.78	29.58	25.52	-54.3	-55.7	15.2	0.00e+00	0	31	0	414187520	75	4087
2026-01-03 00:20:46.78	29.63	25.68	-54.4	-55.8	15.1	0.00e+00	0	31	0	415236096	75	4130
2026-01-03 00:20:47.78	29.69	25.84	-54.5	-56.0	15.1	0.00e+00	0	31	0	417333248	75	4205
2026-01-03 00:20:48.78	29.74	26.00	-54.6	-56.0	15.1	0.00e+00	0	31	0	419430400	75	4234
2026-01-03 00:20:49.77	29.80	26.16	-54.7	-56.2	15.0	0.00e+00	0	31	0	421527552	75	4333
2026-01-03 00:20:50.77	29.85	26.33	-54.8	-56.4	14.9	0.00e+00	0	31	0	423624704	75	4401
2026-01-03 00:20:51.77	29.91	26.49	-55.0	-56.6	14.8	0.00e+00	0	31	0	424673280	75	4520
2026-01-03 00:20:52.78	29.97	26.66	-55.0	-56.7	14.8	0.00e+00	0	31	0	426770432	75	4546
2026-01-03 00:20:53.78	30.02	26.82	-55.2	-56.9	14.7	0.00e+00	0	31	0	428867584	75	4652
2026-01-03 00:20:54.78	30.08	26.99	-55.2	-56.9	14.7	0.00e+00	0	31	0	430964736	75	4689
2026-01-03 00:20:55.78	30.14	27.16	-55.3	-57.0	14.6	0.00e+00	0	31	0	433061888	75	4732
2026-01-03 00:20:56.78	30.20	27.33	-55.3	-57.0	14.7	0.00e+00	0	31	0	434110464	76	4444
2026-01-03 00:20:57.77	30.26	27.50	-55.4	-57.1	14.7	0.00e+00	0	31	0	436207616	76	4520
2026-01-03 00:20:58.77	30.32	27.67	-55.4	-57.1	14.7	0.00e+00	0	31	0	438304768	76	4508
2026-01-03 00:20:59.76	30.38	27.84	-55.2	-56.9	14.8	0.00e+00	0	31	0	440401920	76	4401
2026-01-03 00:21:00.76	30.44	28.01	-55.2	-56.8	14.8	0.00e+00	0	31	0	442499072	76	4376
2026-01-03 00:21:01.76	30.51	28.19	-55.2	-56.8	14.8	0.00e+00	0	31	0	443547648	76	4371
2026-01-03 00:21:02.76	30.57	28.36	-55.3	-56.9	14.8	0.00e+00	0	31	0	445644800	76	4403
2026-01-03 00:21:03.76	30.63	28.54	-55.2	-56.8	14.8	0.00e+00	0	31	0	447741952	76	4359
2026-01-03 00:21:04.75	30.70	28.71	-55.2	-56.8	14.8	0.00e+00	0	31	0	449839104	76	4362
2026-01-03 00:21:05.74	30.76	28.89	-55.3	-56.9	14.8	0.00e+00	0	31	0	450887680	76	4400
2026-01-03 00:21:06.74	30.83	29.07	-55.3	-56.9	14.8	0.00e+00	0	31	0	452984832	76	4416
2026-01-03 00:21:07.73	30.89	29.25	-55.4	-57.0	14.7	0.00e+00	0	31	0	455081984	76	4483
2026-01-03 00:21:08.72	30.96	29.43	-55.4	-57.1	14.7	0.00e+00	0	31	0	457179136	76	4499
2026-01-03 00:21:09.71	31.02	29.61	-55.5	-57.1	14.6	0.00e+00	0	31	0	459276288	76	4535
2026-01-03 00:21:10.72	31.09	29.80	-55.6	-57.3	14.5	0.00e+00	0	31	0	460324864	76	4626
2026-01-03 00:21:11.72	31.16	29.98	-55.7	-57.4	14.5	0.00e+00	0	31	0	462422016	76	4685
2026-01-03 00:21:12.71	31.23	30.17	-55.8	-57.6	14.4	0.00e+00	0	31	0	464519168	76	4773
2026-01-03 00:21:13.70	31.30	30.36	-55.9	-57.7	14.4	0.00e+00	0	31	0	466616320	77	4576
2026-01-03 00:21:14.71	31.37	30.55	-56.0	-57.8	14.4	0.00e+00	0	31	0	467664896	77	4649
2026-01-03 00:21:15.70	31.45	30.73	-56.1	-58.0	14.3	0.00e+00	0	31	0	469762048	77	4707
2026-01-03 00:21:16.70	31.52	30.93	-56.2	-58.1	14.2	0.00e+00	0	31	0	471859200	77	4790
2026-01-03 00:21:17.70	31.59	31.12	-56.2	-58.1	14.2	0.00e+00	0	31	0	473956352	77	4795
2026-01-03 00:21:18.69	31.67	31.31	-56.3	-58.3	14.1	0.00e+00	0	31	0	476053504	77	4882
2026-01-03 00:21:19.70	31.74	31.51	-56.3	-58.2	14.2	0.00e+00	0	31	0	477102080	77	4865
2026-01-03 00:21:20.70	31.82	31.70	-56.3	-58.3	14.2	0.00e+00	0	31	0	479199232	77	4892
2026-01-03 00:21:21.70	31.90	31.90	-56.3	-58.3	14.2	0.00e+00	0	31	0	481296384	77	4876
2026-01-03 00:21:22.70	31.97	32.10	-56.2	-58.2	14.2	0.00e+00	0	31	0	483393536	77	4847
2026-01-03 00:21:23.70	32.05	32.30	-56.2	-58.2	14.2	0.00e+00	0	31	0	484442112	77	4821
2026-01-03 00:21:24.69	32.13	32.50	-56.2	-58.1	14.2	0.00e+00	0	31	0	486539264	77	4802
2026-01-03 00:21:25.69	32.21	32.70	-55.9	-57.8	14.4	0.00e+00	0	31	0	488636416	77	4606
2026-01-03 00:21:26.69	32.30	32.91	-55.7	-57.5	14.6	0.00e+00	0	31	0	490733568	77	4449
2026-01-03 00:21:27.69	32.38	33.11	-55.6	-57.3	14.7	0.00e+00	0	31	0	492830720	77	4385
2026-01-03 00:21:28.68	32.46	33.32	-55.6	-57.3	14.7	0.00e+00	0	31	0	493879296	77	4369
2026-01-03 00:21:29.69	32.55	33.53	-55.6	-57.3	14.7	0.00e+00	0	31	0	495976448	77	4377
2026-01-03 00:21:30.69	32.63	33.74	-55.7	-57.4	14.6	0.00e+00	0	31	0	498073600	77	4428
2026-01-03 00:21:31.68	32.72	33.95	-55.7	-57.4	14.6	0.00e+00	0	31	0	500170752	77	4401
2026-01-03 00:21:32.69	32.81	34.16	-55.8	-57.5	14.5	0.00e+00	0	31	0	502267904	77	4487
2026-01-03 00:21:33.68	32.90	34.37	-55.8	-57.6	14.5	0.00e+00	0	31	0	503316480	77	4512
2026-01-03 00:21:34.68	32.99	34.59	-55.9	-57.8	14.4	0.00e+00	0	31	0	505413632	77	4600
2026-01-03 00:21:35.67	33.08	34.80	-56.0	-57.9	14.3	0.00e+00	0	31	0	507510784	77	4686
2026-01-03 00:21:36.67	33.17	35.02	-55.9	-57.7	14.5	0.00e+00	0	31	0	509607936	77	4577
2026-01-03 00:21:37.67	33.26	35.24	-55.9	-57.7	14.5	0.00e+00	0	31	0	510656512	77	4574
2026-01-03 00:21:38.67	33.36	35.46	-55.9	-57.7	14.4	0.00e+00	0	31	0	512753664	77	4598
2026-01-03 00:21:39.67	33.46	35.68	-55.9	-57.7	14.5	0.00e+00	0	31	0	514850816	77	4558
2026-01-03 00:21:40.66	33.55	35.91	-55.8	-57.5	14.6	0.00e+00	0	31	0	516947968	77	4472
2026-01-03 00:21:41.67	33.65	36.13	-55.5	-57.2	14.7	0.00e+00	0	31	0	519045120	77	4298
2026-01-03 00:21:42.66	33.75	36.36	-55.5	-57.2	14.7	0.00e+00	0	31	0	520093696	77	4319
2026-01-03 00:21:43.67	33.85	36.59	-55.5	-57.1	14.8	0.00e+00	0	31	0	522190848	77	4264
2026-01-03 00:21:44.67	33.96	36.82	-55.5	-57.1	14.8	0.00e+00	0	31	0	524288000	77	4285
2026-01-03 00:21:45.66	34.06	37.05	-55.5	-57.2	14.7	0.00e+00	0	31	0	526385152	77	4314
2026-01-03 00:21:46.67	34.17	37.28	-55.5	-57.1	14.8	0.00e+00	0	31	0	528482304	77	4266
2026-01-03 00:21:47.67	34.27	37.52	-55.6	-57.3	14.7	0.00e+00	0	31	0	529530880	77	4367
2026-01-03 00:21:48.67	34.38	37.75	-55.7	-57.4	14.7	0.00e+00	0	31	0	531628032	77	4410
2026-01-03 00:21:49.67	34.49	37.99	-55.6	-57.2	14.7	0.00e+00	0	31	0	533725184	77	4315
2026-01-03 00:21:50.67	34.60	38.23	-55.8	-57.6	14.5	0.00e+00	0	31	0	535822336	77	4519
2026-01-03 00:21:51.67	34.72	38.47	-56.0	-57.9	14.4	0.00e+00	0	31	0	537919488	77	4655
2026-01-03 00:21:52.68	34.83	38.72	-56.1	-57.9	14.4	0.00e+00	0	31	0	538968064	77	4684
2026-01-03 00:21:53.67	34.95	38.96	-56.5	-58.5	14.1	0.00e+00	0	31	0	541065216	78	4721
2026-01-03 00:21:54.67	35.07	39.21	-56.7	-58.8	14.0	0.00e+00	0	31	0	543162368	78	4890
2026-01-03 00:21:55.67	35.19	39.45	-56.9	-59.1	13.8	0.00e+00	0	31	0	545259520	78	5096
2026-01-03 00:21:56.67	35.31	39.70	-57.1	-59.5	13.7	0.00e+00	0	31	0	546308096	79	4998
2026-01-03 00:21:57.67	35.43	39.95	-57.2	-59.6	13.6	0.00e+00	0	31	0	548405248	79	5083
2026-01-03 00:21:58.67	35.56	40.20	-57.3	-59.7	13.5	0.00e+00	0	31	0	550502400	79	5136
2026-01-03 00:21:59.67	35.69	40.46	-57.2	-59.5	13.5	0.00e+00	0	31	0	552599552	79	5041
2026-01-03 00:22:00.66	35.82	40.71	-57.1	-59.4	13.7	0.00e+00	0	31	0	554696704	79	4963
2026-01-03 00:22:01.66	35.95	40.97	-56.9	-59.1	13.9	0.00e+00	0	31	0	555745280	79	4802
2026-01-03 00:22:02.66	36.08	41.23	-56.7	-58.8	14.0	0.00e+00	0	31	0	557842432	79	4626
2026-01-03 00:22:03.66	36.22	41.49	-56.7	-58.9	14.0	0.00e+00	0	31	0	559939584	79	4662
2026-01-03 00:22:04.66	36.35	41.75	-56.8	-58.9	14.0	0.00e+00	0	31	0	562036736	79	4702
2026-01-03 00:22:05.66	36.49	42.02	-56.5	-58.5	14.2	0.00e+00	0	31	0	564133888	79	4445
2026-01-03 00:22:06.66	36.64	42.28	-56.8	-58.9	14.0	0.00e+00	0	31	0	565182464	79	4689
2026-01-03 00:22:07.67	36.78	42.55	-56.9	-59.2	13.8	0.00e+00	0	31	0	567279616	79	4819
2026-01-03 00:22:08.67	36.93	42.82	-57.1	-59.4	13.7	0.00e+00	0	31	0	569376768	79	4946
2026-01-03 00:22:09.66	37.08	43.09	-57.0	-59.4	13.7	0.00e+00	0	31	0	571473920	79	4935
2026-01-03 00:22:10.66	37.23	43.36	-57.0	-59.3	13.7	0.00e+00	0	31	0	572522496	79	4899
2026-01-03 00:22:11.66	37.38	43.64	-56.9	-59.1	13.9	0.00e+00	0	31	0	574619648	79	4799
2026-01-03 00:22:12.66	37.54	43.91	-56.6	-58.7	14.1	0.00e+00	0	31	0	576716800	79	4589
2026-01-03 00:22:13.66	37.70	44.19	-56.4	-58.3	14.3	0.00e+00	0	31	0	578813952	79	4378
2026-01-03 00:22:14.66	37.86	44.47	-56.3	-58.2	14.4	0.00e+00	0	31	0	580911104	79	4334
2026-01-03 00:22:15.66	38.03	44.75	-56.3	-58.2	14.4	0.00e+00	0	31	0	581959680	79	4330
2026-01-03 00:22:16.66	38.19	45.04	-56.5	-58.4	14.3	0.00e+00	0	31	0	584056832	79	4438
2026-01-03 00:22:17.66	38.37	45.32	-56.7	-58.7	14.1	0.00e+00	0	31	0	586153984	79	4597
2026-01-03 00:22:18.66	38.54	45.61	-57.0	-59.2	13.9	0.00e+00	0	31	0	588251136	79	4838
2026-01-03 00:22:19.66	38.72	45.90	-57.3	-59.8	13.5	0.00e+00	0	31	0	590348288	80	4916
2026-01-03 00:22:20.65	38.89	46.19	-57.6	-60.3	13.2	0.00e+00	0	31	0	591396864	80	5196
2026-01-03 00:22:21.65	39.08	46.48	-57.4	-59.9	13.4	0.00e+00	0	31	0	593494016	80	4968
2026-01-03 00:22:22.66	39.27	46.78	-57.0	-59.2	13.9	0.00e+00	0	31	0	595591168	80	4569
2026-01-03 00:22:23.66	39.46	47.07	-56.7	-58.8	14.1	0.00e+00	0	31	0	597688320	79	4607
2026-01-03 00:22:24.66	39.65	47.37	-56.4	-58.4	14.3	0.00e+00	0	31	0	598736896	79	4392
2026-01-03 00:22:25.67	39.85	47.67	-56.3	-58.1	14.4	0.00e+00	0	31	0	600834048	79	4290
2026-01-03 00:22:26.67	40.05	47.97	-56.0	-57.8	14.5	0.00e+00	0	31	0	602931200	78	4371
2026-01-03 00:22:27.67	40.26	48.28	-55.9	-57.6	14.7	0.00e+00	0	31	0	605028352	78	4262
2026-01-03 00:22:28.67	40.47	48.58	-56.0	-57.9	14.5	0.00e+00	0	31	0	607125504	78	4394
2026-01-03 00:22:29.67	40.68	48.89	-56.2	-58.1	14.4	0.00e+00	0	31	0	608174080	78	4509
2026-01-03 00:22:30.67	40.90	49.20	-56.0	-57.8	14.5	0.00e+00	0	31	0	610271232	78	4355
2026-01-03 00:22:31.67	41.12	49.51	-55.8	-57.5	14.7	0.00e+00	0	31	0	612368384	78	4239
2026-01-03 00:22:32.68	41.35	49.82	-55.8	-57.5	14.7	0.00e+00	0	31	0	614465536	78	4240
2026-01-03 00:22:33.67	41.58	50.13	-55.6	-57.3	14.7	0.00e+00	0	31	0	616562688	77	4350
2026-01-03 00:22:34.67	41.81	50.45	-55.3	-56.9	14.9	0.00e+00	0	31	0	617611264	77	4162
2026-01-03 00:22:35.68	42.06	50.77	-54.7	-56.1	15.2	0.00e+00	0	31	0	619708416	76	4017
2026-01-03 00:22:36.67	42.30	51.08	-54.3	-55.6	15.3	0.00e+00	0	31	0	621805568	75	4037
2026-01-03 00:22:37.67	42.55	51.40	-54.2	-55.4	15.4	0.00e+00	0	31	0	623902720	75	3956
2026-01-03 00:22:38.67	42.81	51.72	-53.6	-54.7	15.6	0.00e+00	0	31	0	625999872	73	4074
2026-01-03 00:22:39.66	43.07	52.04	-53.2	-54.3	15.7	0.00e+00	0	31	0	627048448	73	3877
2026-01-03 00:22:40.66	43.34	52.37	-53.2	-54.2	15.6	0.00e+00	0	31	0	629145600	72	4090
2026-01-03 00:22:41.67	43.61	52.70	-53.2	-54.3	15.6	0.00e+00	0	31	0	631242752	72	4100
2026-01-03 00:22:42.67	43.89	53.02	-53.0	-54.1	15.7	0.00e+00	0	31	0	633339904	72	4011
2026-01-03 00:22:43.68	44.18	53.36	-52.9	-54.0	15.7	0.00e+00	0	31	0	635437056	72	3964
2026-01-03 00:22:44.68	44.47	53.69	-52.7	-53.7	15.9	0.00e+00	0	31	0	636485632	72	3840
2026-01-03 00:22:45.67	44.77	54.02	-52.4	-53.3	15.9	0.00e+00	0	31	0	638582784	71	3911
2026-01-03 00:22:46.67	45.07	54.35	-52.3	-53.3	15.9	0.00e+00	0	31	0	640679936	71	3869
2026-01-03 00:22:47.67	45.39	54.68	-52.4	-53.3	15.9	0.00e+00	0	31	0	642777088	71	3902
2026-01-03 00:22:48.67	45.71	55.02	-52.5	-53.5	15.9	0.00e+00	0	31	0	643825664	71	3981
2026-01-03 00:22:49.68	46.04	55.36	-52.8	-53.8	15.7	0.00e+00	0	31	0	645922816	71	4128
2026-01-03 00:22:50.68	46.37	55.70	-53.1	-54.1	15.6	0.00e+00	0	31	0	648019968	71	4286
2026-01-03 00:22:51.68	46.72	56.04	-53.2	-54.4	15.6	0.00e+00	0	31	0	650117120	71	4397
2026-01-03 00:22:52.69	47.07	56.38	-53.3	-54.4	15.5	0.00e+00	0	31	0	652214272	71	4435
2026-01-03 00:22:53.69	47.44	56.73	-53.4	-54.5	15.5	0.00e+00	0	31	0	653262848	71	4469
2026-01-03 00:22:54.69	47.81	57.07	-53.6	-54.7	15.5	0.00e+00	0	31	0	655360000	72	4340
2026-01-03 00:22:55.70	48.19	57.42	-53.7	-54.8	15.5	0.00e+00	0	31	0	657457152	72	4379
2026-01-03 00:22:56.70	48.58	57.76	-53.6	-54.7	15.5	0.00e+00	0	31	0	659554304	72	4316
2026-01-03 00:22:57.69	48.97	58.10	-53.4	-54.5	15.6	0.00e+00	0	31	0	661651456	72	4241
2026-01-03 00:22:58.70	49.39	58.45	-53.4	-54.5	15.6	0.00e+00	0	31	0	662700032	72	4228
2026-01-03 00:22:59.69	49.80	58.80	-53.4	-54.6	15.5	0.00e+00	0	31	0	664797184	72	4246
2026-01-03 00:23:00.69	50.23	59.15	-53.2	-54.3	15.6	0.00e+00	0	31	0	666894336	72	4113
2026-01-03 00:23:01.69	50.68	59.49	-52.9	-54.0	15.8	0.00e+00	0	31	0	668991488	72	3967
2026-01-03 00:23:02.69	51.13	59.84	-52.6	-53.6	15.8	0.00e+00	0	31	0	670040064	71	4010
2026-01-03 00:23:03.69	51.60	60.19	-52.0	-52.9	15.9	0.00e+00	0	31	0	672137216	70	3957
2026-01-03 00:23:04.70	52.08	60.54	-51.6	-52.5	16.0	0.00e+00	0	31	0	674234368	69	3959
2026-01-03 00:23:05.69	52.57	60.89	-51.3	-52.1	16.1	0.00e+00	0	31	0	676331520	69	3822
2026-01-03 00:23:06.69	53.08	61.24	-51.2	-52.0	16.1	0.00e+00	0	31	0	678428672	68	3984
2026-01-03 00:23:07.68	53.59	61.58	-51.4	-52.2	16.0	0.00e+00	0	31	0	679477248	68	4082
2026-01-03 00:23:08.67	54.12	61.93	-51.5	-52.4	16.0	0.00e+00	0	31	0	681574400	68	4152
2026-01-03 00:23:09.68	54.68	62.28	-51.8	-52.7	15.9	0.00e+00	0	31	0	683671552	68	4316
2026-01-03 00:23:10.68	55.25	62.63	-51.9	-52.8	15.9	0.00e+00	0	31	0	685768704	69	4138
2026-01-03 00:23:11.68	55.83	62.98	-51.9	-52.7	15.9	0.00e+00	0	31	0	687865856	69	4098
2026-01-03 00:23:12.68	56.43	63.32	-51.9	-52.7	15.9	0.00e+00	0	31	0	688914432	69	4095
2026-01-03 00:23:13.68	57.05	63.67	-51.9	-52.8	15.9	0.00e+00	0	31	0	691011584	69	4106
2026-01-03 00:23:14.69	57.69	64.02	-52.4	-53.3	15.7	0.00e+00	0	31	0	693108736	69	4367
2026-01-03 00:23:15.69	58.35	64.36	-53.4	-54.5	15.5	0.00e+00	0	31	0	695205888	71	4464
2026-01-03 00:23:16.68	59.01	64.70	-54.1	-55.3	15.3	0.00e+00	0	31	0	697303040	73	4376
2026-01-03 00:23:17.69	59.72	65.04	-54.4	-55.8	15.2	0.00e+00	0	31	0	698351616	74	4358
2026-01-03 00:23:18.69	60.43	65.38	-54.8	-56.2	15.0	0.00e+00	0	31	0	700448768	74	4591
2026-01-03 00:23:19.69	61.17	65.72	-54.9	-56.4	15.0	0.00e+00	0	31	0	702545920	75	4400
2026-01-03 00:23:20.70	61.94	66.06	-55.0	-56.4	15.0	0.00e+00	0	31	0	704643072	75	4426
2026-01-03 00:23:21.70	62.73	66.39	-54.9	-56.3	15.0	0.00e+00	0	31	0	705691648	75	4391
2026-01-03 00:23:22.70	63.54	66.72	-54.9	-56.4	15.0	0.00e+00	0	31	0	707788800	75	4404
2026-01-03 00:23:23.70	64.37	67.04	-54.8	-56.3	15.0	0.00e+00	0	31	0	709885952	75	4341
2026-01-03 00:23:24.71	65.25	67.37	-55.0	-56.5	15.0	0.00e+00	0	31	0	711983104	75	4454
2026-01-03 00:23:25.71	66.13	67.69	-55.1	-56.6	14.9	0.00e+00	0	31	0	714080256	75	4535
2026-01-03 00:23:26.71	67.05	68.00	-55.1	-56.6	15.0	0.00e+00	0	31	0	715128832	75	4496
2026-01-03 00:23:27.71	68.00	68.31	-54.9	-56.4	15.1	0.00e+00	0	31	0	717225984	75	4403
2026-01-03 00:23:28.71	68.97	68.62	-55.2	-56.7	14.9	0.00e+00	0	31	0	719323136	75	4558
2026-01-03 00:23:29.71	69.98	68.92	-55.1	-56.6	14.9	0.00e+00	0	31	0	721420288	75	4528
2026-01-03 00:23:30.71	71.01	69.22	-54.9	-56.4	15.0	0.00e+00	0	31	0	723517440	75	4404
2026-01-03 00:23:31.70	72.07	69.50	-55.0	-56.5	14.9	0.00e+00	0	31	0	724566016	75	4470
2026-01-03 00:23:32.71	73.18	69.79	-55.3	-56.9	14.8	0.00e+00	0	31	0	726663168	75	4662
2026-01-03 00:23:33.71	74.31	70.07	-55.4	-57.0	14.8	0.00e+00	0	31	0	728760320	76	4468
2026-01-03 00:23:34.71	75.48	70.34	-55.6	-57.2	14.7	0.00e+00	0	31	0	730857472	76	4598
2026-01-03 00:23:35.71	76.68	70.61	-56.1	-57.9	14.5	0.00e+00	0	31	0	731906048	77	4676
2026-01-03 00:23:36.71	77.92	70.86	-56.2	-58.1	14.3	0.00e+00	0	31	0	734003200	77	4800
2026-01-03 00:23:37.71	79.19	71.11	-55.8	-57.5	14.7	0.00e+00	0	31	0	736100352	77	4463
2026-01-03 00:23:38.72	80.51	71.36	-55.8	-57.5	14.6	0.00e+00	0	31	0	738197504	77	4493
2026-01-03 00:23:39.72	81.86	71.59	-55.7	-57.4	14.7	0.00e+00	0	31	0	740294656	77	4428
2026-01-03 00:23:40.72	83.24	71.81	-55.3	-56.8	14.9	0.00e+00	0	31	0	742391808	76	4341
2026-01-03 00:23:41.72	84.65	72.03	-54.8	-56.2	15.2	0.00e+00	0	31	0	743440384	76	4053
2026-01-03 00:23:42.73	86.11	72.23	-55.0	-56.4	15.1	0.00e+00	0	31	0	745537536	76	4160
2026-01-03 00:23:43.73	87.60	72.42	-55.6	-57.3	14.7	0.00e+00	0	31	0	747634688	76	4608
2026-01-03 00:23:44.72	89.10	72.60	-56.1	-58.0	14.4	0.00e+00	0	31	0	749731840	77	4725
2026-01-03 00:23:45.72	90.65	72.77	-56.0	-57.8	14.5	0.00e+00	0	31	0	750780416	77	4635
2026-01-03 00:23:46.72	92.23	72.93	-55.2	-56.7	15.0	0.00e+00	0	31	0	752877568	77	4056
2026-01-03 00:23:47.72	93.84	73.08	-54.6	-55.9	15.3	0.00e+00	0	31	0	754974720	75	4181
2026-01-03 00:23:48.72	95.48	73.21	-54.3	-55.5	15.4	0.00e+00	0	31	0	757071872	75	3996
2026-01-03 00:23:49.72	97.15	73.33	-54.3	-55.6	15.3	0.00e+00	0	31	0	759169024	75	4023
2026-01-03 00:23:50.73	98.85	73.44	-53.8	-55.0	15.5	0.00e+00	0	31	0	760217600	74	4001
2026-01-03 00:23:51.73	100.57	73.53	-53.7	-54.9	15.5	0.00e+00	0	31	0	762314752	73	4155
2026-01-03 00:23:52.73	102.29	73.61	-54.5	-55.8	15.2	0.00e+00	0	31	0	764411904	74	4355
2026-01-03 00:23:53.74	104.06	73.67	-54.7	-56.1	15.0	0.00e+00	0	31	0	766509056	74	4531
2026-01-03 00:23:54.74	105.82	73.72	-53.9	-55.1	15.4	0.00e+00	0	31	0	768606208	74	4045
2026-01-03 00:23:55.75	107.60	73.76	-53.4	-54.5	15.6	0.00e+00	0	31	0	769654784	73	4002
2026-01-03 00:23:56.75	109.37	73.78	-53.6	-54.7	15.5	0.00e+00	0	31	0	771751936	73	4090
2026-01-03 00:23:57.76	111.17	73.78	-53.8	-55.0	15.4	0.00e+00	0	31	0	773849088	73	4219
2026-01-03 00:23:58.75	112.93	73.77	-54.3	-55.5	15.3	0.00e+00	0	31	0	775946240	73	4487
2026-01-03 00:23:59.76	114.72	73.75	-54.7	-56.1	15.1	0.00e+00	0	31	0	776994816	74	4513
2026-01-03 00:24:00.76	116.48	73.71	-55.1	-56.6	14.9	0.00e+00	0	31	0	779091968	75	4530
2026-01-03 00:24:01.76	118.24	73.65	-55.7	-57.3	14.6	0.00e+00	0	31	0	781189120	76	4646
2026-01-03 00:24:02.75	119.96	73.59	-55.7	-57.3	14.7	0.00e+00	0	31	0	783286272	76	4651
2026-01-03 00:24:03.76	121.70	73.50	-55.7	-57.3	14.6	0.00e+00	0	31	0	785383424	76	4644
2026-01-03 00:24:04.76	123.41	73.41	-56.2	-58.0	14.4	0.00e+00	0	31	0	786432000	77	4750
2026-01-03 00:24:05.76	125.09	73.30	-56.9	-59.0	13.9	0.00e+00	0	31	0	788529152	78	5017
2026-01-03 00:24:06.76	126.75	73.17	-56.5	-58.4	14.3	0.00e+00	0	31	0	790626304	79	4410
2026-01-03 00:24:07.76	128.38	73.04	-55.7	-57.4	14.8	0.00e+00	0	31	0	792723456	78	4168
2026-01-03 00:24:08.76	129.99	72.89	-55.7	-57.3	14.7	0.00e+00	0	31	0	794820608	77	4390
2026-01-03 00:24:09.77	131.58	72.72	-55.9	-57.6	14.6	0.00e+00	0	31	0	795869184	77	4514
2026-01-03 00:24:10.77	133.12	72.55	-56.6	-58.7	14.1	0.00e+00	0	31	0	797966336	78	4820
2026-01-03 00:24:11.78	134.64	72.36	-56.6	-58.7	14.1	0.00e+00	0	31	0	800063488	78	4834
2026-01-03 00:24:12.78	136.11	72.17	-56.1	-57.9	14.5	0.00e+00	0	31	0	802160640	78	4419
2026-01-03 00:24:13.77	137.54	71.96	-55.5	-57.1	14.9	0.00e+00	0	31	0	804257792	77	4249
2026-01-03 00:24:14.77	138.95	71.75	-55.3	-56.8	15.0	0.00e+00	0	31	0	805306368	77	4141
2026-01-03 00:24:15.77	140.32	71.52	-55.0	-56.5	15.1	0.00e+00	0	31	0	807403520	76	4207
2026-01-03 00:24:16.77	141.65	71.29	-54.8	-56.1	15.2	0.00e+00	0	31	0	809500672	76	4041
2026-01-03 00:24:17.77	142.95	71.04	-55.5	-57.1	14.8	0.00e+00	0	31	0	811597824	76	4545
2026-01-03 00:24:18.77	144.21	70.79	-56.5	-58.4	14.2	0.00e+00	0	31	0	813694976	78	4704
2026-01-03 00:24:19.77	145.44	70.53	-56.3	-58.2	14.4	0.00e+00	0	31	0	814743552	78	4563
2026-01-03 00:24:20.77	146.63	70.26	-56.1	-58.0	14.5	0.00e+00	0	31	0	816840704	78	4458
2026-01-03 00:24:21.77	147.79	69.99	-56.0	-57.8	14.6	0.00e+00	0	31	0	818937856	78	4341
2026-01-03 00:24:22.77	148.92	69.71	-56.2	-58.0	14.4	0.00e+00	0	31	0	821035008	78	4485
2026-01-03 00:24:23.77	150.01	69.42	-56.4	-58.3	14.3	0.00e+00	0	31	0	823132160	78	4603
2026-01-03 00:24:24.78	151.08	69.13	-56.3	-58.1	14.4	0.00e+00	0	31	0	824180736	78	4522
2026-01-03 00:24:25.79	152.12	68.82	-55.8	-57.5	14.7	0.00e+00	0	31	0	826277888	78	4225
2026-01-03 00:24:26.79	153.11	68.52	-55.9	-57.5	14.7	0.00e+00	0	31	0	828375040	78	4239
2026-01-03 00:24:27.80	154.09	68.21	-56.6	-58.7	14.2	0.00e+00	0	31	0	830472192	78	4820
2026-01-03 00:24:28.80	155.02	67.90	-56.9	-59.0	13.9	0.00e+00	0	31	0	831520768	78	5029
2026-01-03 00:24:29.80	155.93	67.58	-56.5	-58.5	14.2	0.00e+00	0	31	0	833617920	78	4730
2026-01-03 00:24:30.80	156.81	67.26	-56.2	-58.0	14.4	0.00e+00	0	31	0	835715072	78	4488
2026-01-03 00:24:31.81	157.68	66.93	-56.6	-58.6	14.2	0.00e+00	0	31	0	837812224	78	4768
2026-01-03 00:24:32.81	158.50	66.61	-56.5	-58.5	14.2	0.00e+00	0	31	0	839909376	78	4754
2026-01-03 00:24:33.82	159.32	66.27	-55.2	-56.7	15.0	0.00e+00	0	31	0	840957952	77	4077
2026-01-03 00:24:34.82	160.09	65.94	-54.1	-55.3	15.4	0.00e+00	0	31	0	843055104	74	4127
2026-01-03 00:24:35.83	160.86	65.60	-53.5	-54.6	15.6	0.00e+00	0	31	0	845152256	73	4051
2026-01-03 00:24:36.84	161.60	65.26	-53.4	-54.5	15.6	0.00e+00	0	31	0	847249408	73	3967
2026-01-03 00:24:37.84	162.31	64.92	-53.2	-54.3	15.6	0.00e+00	0	31	0	849346560	73	3906
2026-01-03 00:24:38.85	163.00	64.58	-52.3	-53.2	15.9	0.00e+00	0	31	0	850395136	71	3865
2026-01-03 00:24:39.84	163.67	64.24	-51.4	-52.2	16.1	0.00e+00	0	31	0	852492288	69	3838
2026-01-03 00:24:40.84	164.32	63.89	-51.1	-51.9	16.1	0.00e+00	0	31	0	854589440	68	3933
2026-01-03 00:24:41.84	164.95	63.55	-51.2	-52.0	16.0	0.00e+00	0	31	0	856686592	68	3975
2026-01-03 00:24:42.84	165.56	63.20	-51.2	-52.1	16.0	0.00e+00	0	31	0	858783744	68	4020
2026-01-03 00:24:43.84	166.15	62.85	-50.5	-51.3	16.1	0.00e+00	0	31	0	859832320	67	3891
2026-01-03 00:24:44.85	166.74	62.50	-49.7	-50.4	16.3	0.00e+00	0	31	0	861929472	66	3716
2026-01-03 00:24:45.85	167.30	62.15	-49.7	-50.3	16.3	0.00e+00	0	31	0	864026624	65	3910
2026-01-03 00:24:46.86	167.85	61.80	-50.6	-51.3	16.1	0.00e+00	0	31	0	866123776	66	4142
2026-01-03 00:24:47.86	168.38	61.45	-51.9	-52.8	15.8	0.00e+00	0	31	0	868220928	68	4373
2026-01-03 00:24:48.86	168.90	61.10	-52.0	-52.9	15.9	0.00e+00	0	31	0	869269504	69	4178
2026-01-03 00:24:49.87	169.40	60.74	-51.5	-52.4	16.0	0.00e+00	0	31	0	871366656	69	3930
2026-01-03 00:24:50.87	169.89	60.39	-51.6	-52.5	16.0	0.00e+00	0	31	0	873463808	69	3966
2026-01-03 00:24:51.87	170.37	60.04	-52.3	-53.3	15.8	0.00e+00	0	31	0	875560960	69	4345
2026-01-03 00:24:52.88	170.83	59.69	-53.9	-55.1	15.3	0.00e+00	0	31	0	877658112	73	4290
2026-01-03 00:24:53.88	171.28	59.34	-56.0	-57.8	14.5	0.00e+00	0	31	0	878706688	77	4646
2026-01-03 00:24:54.87	171.72	59.00	-56.4	-58.3	14.3	0.00e+00	0	31	0	880803840	78	4649
2026-01-03 00:24:55.87	172.15	58.65	-54.8	-56.2	15.2	0.00e+00	0	31	0	882900992	76	4064
2026-01-03 00:24:56.87	172.56	58.30	-53.9	-55.1	15.5	0.00e+00	0	31	0	884998144	74	4008
2026-01-03 00:24:57.86	172.96	57.96	-53.6	-54.7	15.5	0.00e+00	0	31	0	886046720	73	4064
2026-01-03 00:24:58.86	173.36	57.61	-54.5	-55.8	15.2	0.00e+00	0	31	0	888143872	74	4382
2026-01-03 00:24:59.86	173.75	57.27	-55.5	-57.1	14.8	0.00e+00	0	31	0	890241024	76	4499
2026-01-03 00:25:00.87	174.13	56.92	-55.7	-57.4	14.7	0.00e+00	0	31	0	892338176	76	4679
2026-01-03 00:25:01.86	174.49	56.58	-54.9	-56.3	15.1	0.00e+00	0	31	0	894435328	76	4117
2026-01-03 00:25:02.87	174.85	56.23	-54.0	-55.2	15.4	0.00e+00	0	31	0	895483904	74	4069
2026-01-03 00:25:03.88	175.20	55.89	-53.4	-54.5	15.6	0.00e+00	0	31	0	897581056	73	3979
2026-01-03 00:25:04.87	175.54	55.55	-53.5	-54.7	15.6	0.00e+00	0	31	0	899678208	73	4072
2026-01-03 00:25:05.87	175.87	55.21	-53.9	-55.2	15.4	0.00e+00	0	31	0	901775360	73	4307
2026-01-03 00:25:06.86	176.20	54.88	-53.5	-54.7	15.6	0.00e+00	0	31	0	903872512	73	4053
2026-01-03 00:25:07.87	176.52	54.54	-51.9	-52.8	16.0	0.00e+00	0	31	0	904921088	70	3882
2026-01-03 00:25:08.86	176.82	54.20	-50.5	-51.2	16.2	0.00e+00	0	31	0	907018240	67	3857
2026-01-03 00:25:09.86	177.13	53.87	-50.1	-50.8	16.2	0.00e+00	0	31	0	909115392	66	3903
2026-01-03 00:25:10.86	177.42	53.54	-50.6	-51.4	16.1	0.00e+00	0	31	0	911212544	66	4146
2026-01-03 00:25:11.85	177.71	53.21	-51.8	-52.7	15.9	0.00e+00	0	31	0	912261120	68	4313
2026-01-03 00:25:12.85	178.00	52.88	-52.5	-53.5	15.8	0.00e+00	0	31	0	914358272	70	4200
2026-01-03 00:25:13.84	178.27	52.56	-52.6	-53.5	15.8	0.00e+00	0	31	0	916455424	70	4241
2026-01-03 00:25:14.84	178.54	52.23	-52.5	-53.4	15.8	0.00e+00	0	31	0	918552576	70	4188
2026-01-03 00:25:15.84	178.81	51.90	-52.3	-53.2	15.9	0.00e+00	0	31	0	920649728	70	4066
2026-01-03 00:25:16.84	179.07	51.58	-52.5	-53.4	15.8	0.00e+00	0	31	0	921698304	70	4193
2026-01-03 00:25:17.84	179.32	51.26	-52.8	-53.8	15.7	0.00e+00	0	31	0	923795456	70	4380
2026-01-03 00:25:18.84	179.57	50.94	-53.8	-55.0	15.4	0.00e+00	0	31	0	925892608	72	4442
2026-01-03 00:25:19.84	179.82	50.62	-55.2	-56.7	14.9	0.00e+00	0	31	0	927989760	75	4588
2026-01-03 00:25:20.84	180.06	50.30	-57.0	-59.4	13.8	0.00e+00	0	31	0	930086912	79	4938
2026-01-03 00:25:21.84	180.29	49.99	-57.6	-60.2	13.3	0.00e+00	0	31	0	931135488	80	5115
2026-01-03 00:25:22.84	180.52	49.67	-57.2	-59.6	13.6	0.00e+00	0	31	0	933232640	80	4775
2026-01-03 00:25:23.84	180.74	49.36	-56.6	-58.6	14.1	0.00e+00	0	31	0	935329792	79	4532
2026-01-03 00:25:24.84	180.97	49.05	-56.3	-58.2	14.4	0.00e+00	0	31	0	937426944	79	4317
2026-01-03 00:25:25.84	181.18	48.74	-56.2	-58.1	14.4	0.00e+00	0	31	0	938475520	79	4266
2026-01-03 00:25:26.83	181.39	48.44	-55.9	-57.7	14.6	0.00e+00	0	31	0	940572672	78	4299
2026-01-03 00:25:27.84	181.60	48.13	-56.0	-57.7	14.6	0.00e+00	0	31	0	942669824	78	4319
2026-01-03 00:25:28.84	181.81	47.83	-56.1	-57.9	14.5	0.00e+00	0	31	0	944766976	78	4392
2026-01-03 00:25:29.84	182.01	47.53	-56.7	-58.8	14.0	0.00e+00	0	31	0	946864128	78	4886
2026-01-03 00:25:30.85	182.20	47.23	-57.0	-59.3	13.8	0.00e+00	0	31	0	947912704	79	4911
2026-01-03 00:25:31.85	182.40	46.93	-56.5	-58.5	14.2	0.00e+00	0	31	0	950009856	79	4478
2026-01-03 00:25:32.85	182.59	46.63	-55.3	-56.9	14.9	0.00e+00	0	31	0	952107008	77	4148
2026-01-03 00:25:33.85	182.77	46.34	-54.5	-55.8	15.2	0.00e+00	0	31	0	954204160	75	4141
2026-01-03 00:25:34.84	182.95	46.05	-53.9	-55.1	15.4	0.00e+00	0	31	0	956301312	74	4047
2026-01-03 00:25:35.84	183.13	45.76	-54.2	-55.4	15.3	0.00e+00	0	31	0	957349888	74	4190
2026-01-03 00:25:36.81	183.30	45.48	-54.8	-56.3	15.0	0.00e+00	0	31	0	959447040	74	4612
2026-01-03 00:25:37.82	183.48	45.19	-55.6	-57.3	14.7	0.00e+00	0	31	0	961544192	76	4607
2026-01-03 00:25:38.82	183.65	44.90	-55.6	-57.3	14.7	0.00e+00	0	31	0	963641344	76	4609
2026-01-03 00:25:39.83	183.82	44.61	-55.3	-56.9	14.9	0.00e+00	0	31	0	965738496	76	4440
2026-01-03 00:25:40.83	183.98	44.33	-54.9	-56.3	15.1	0.00e+00	0	31	0	966787072	76	4133
2026-01-03 00:25:41.83	184.14	44.05	-54.2	-55.6	15.4	0.00e+00	0	31	0	968884224	75	4016
2026-01-03 00:25:42.84	184.30	43.77	-53.9	-55.1	15.4	0.00e+00	0	31	0	970981376	74	4032
2026-01-03 00:25:43.84	184.46	43.49	-53.4	-54.5	15.6	0.00e+00	0	31	0	973078528	73	3981
2026-01-03 00:25:44.84	184.61	43.22	-52.8	-53.8	15.8	0.00e+00	0	31	0	975175680	72	3906
2026-01-03 00:25:45.84	184.76	42.95	-52.4	-53.4	15.9	0.00e+00	0	31	0	976224256	71	3924
2026-01-03 00:25:46.83	184.91	42.68	-52.7	-53.6	15.8	0.00e+00	0	31	0	978321408	71	4046
2026-01-03 00:25:47.83	185.06	42.41	-53.4	-54.6	15.5	0.00e+00	0	31	0	980418560	72	4252
2026-01-03 00:25:48.84	185.20	42.14	-54.8	-56.3	15.0	0.00e+00	0	31	0	982515712	74	4618
2026-01-03 00:25:49.83	185.34	41.87	-56.0	-57.9	14.4	0.00e+00	0	31	0	983564288	77	4704
2026-01-03 00:25:50.84	185.48	41.61	-56.5	-58.6	14.1	0.00e+00	0	31	0	985661440	78	4802
2026-01-03 00:25:51.84	185.62	41.34	-55.8	-57.6	14.6	0.00e+00	0	31	0	987758592	78	4244
2026-01-03 00:25:52.84	185.75	41.08	-54.7	-56.1	15.2	0.00e+00	0	31	0	989855744	76	4041
2026-01-03 00:25:53.84	185.89	40.82	-54.2	-55.5	15.3	0.00e+00	0	31	0	991952896	74	4194
2026-01-03 00:25:54.84	186.02	40.57	-53.7	-54.8	15.5	0.00e+00	0	31	0	993001472	73	4124
2026-01-03 00:25:55.84	186.14	40.31	-53.5	-54.6	15.5	0.00e+00	0	31	0	995098624	73	4032
2026-01-03 00:25:56.84	186.27	40.06	-53.6	-54.8	15.5	0.00e+00	0	31	0	997195776	73	4099
2026-01-03 00:25:57.84	186.40	39.80	-54.0	-55.3	15.3	0.00e+00	0	31	0	999292928	73	4358
2026-01-03 00:25:58.84	186.52	39.55	-54.8	-56.3	15.0	0.00e+00	0	31	0	1001390080	75	4345
2026-01-03 00:25:59.84	186.64	39.30	-55.6	-57.3	14.6	0.00e+00	0	31	0	1002438656	76	4630
2026-01-03 00:26:00.84	186.76	39.06	-56.4	-58.4	14.1	0.00e+00	0	31	0	1004535808	77	4961
2026-01-03 00:26:01.84	186.88	38.81	-56.5	-58.5	14.1	0.00e+00	0	31	0	1006632960	78	4750
2026-01-03 00:26:02.84	186.99	38.57	-56.3	-58.3	14.3	0.00e+00	0	31	0	1008730112	78	4627
2026-01-03 00:26:03.84	187.11	38.32	-56.2	-58.1	14.4	0.00e+00	0	31	0	1009778688	78	4537
2026-01-03 00:26:04.84	187.22	38.08	-55.4	-56.9	14.9	0.00e+00	0	31	0	1011875840	77	4193
2026-01-03 00:26:05.84	187.33	37.84	-54.7	-56.1	15.2	0.00e+00	0	31	0	1013972992	76	4032
2026-01-03 00:26:06.84	187.44	37.60	-54.4	-55.7	15.3	0.00e+00	0	31	0	1016070144	75	4094
2026-01-03 00:26:07.84	187.55	37.37	-54.1	-55.4	15.3	0.00e+00	0	31	0	1018167296	74	4170
2026-01-03 00:26:08.84	187.66	37.13	-54.1	-55.3	15.4	0.00e+00	0	31	0	1019215872	74	4144
2026-01-03 00:26:09.84	187.76	36.90	-54.2	-55.5	15.3	0.00e+00	0	31	0	1021313024	74	4234
2026-01-03 00:26:10.84	187.86	36.67	-54.3	-55.7	15.2	0.00e+00	0	31	0	1023410176	74	4296
2026-01-03 00:26:11.84	187.97	36.44	-54.4	-55.7	15.2	0.00e+00	0	31	0	1025507328	74	4303
2026-01-03 00:26:12.84	188.07	36.21	-54.8	-56.3	15.0	0.00e+00	0	31	0	1027604480	74	4603
2026-01-03 00:26:13.84	188.17	35.98	-55.0	-56.6	14.9	0.00e+00	0	31	0	1028653056	75	4499
2026-01-03 00:26:14.84	188.27	35.76	-55.5	-57.2	14.7	0.00e+00	0	31	0	1030750208	76	4548
2026-01-03 00:26:15.84	188.36	35.53	-55.7	-57.4	14.6	0.00e+00	0	31	0	1032847360	76	4685
2026-01-03 00:26:16.84	188.46	35.31	-55.7	-57.5	14.5	0.00e+00	0	31	0	1034944512	76	4729
2026-01-03 00:26:17.84	188.55	35.09	-55.7	-57.4	14.6	0.00e+00	0	31	0	1037041664	76	4695
2026-01-03 00:26:18.84	188.65	34.87	-55.6	-57.4	14.6	0.00e+00	0	31	0	1038090240	76	4665
2026-01-03 00:26:19.84	188.74	34.65	-55.5	-57.2	14.7	0.00e+00	0	31	0	1040187392	76	4569
2026-01-03 00:26:20.84	188.83	34.44	-55.3	-56.9	14.8	0.00e+00	0	31	0	1042284544	76	4429
2026-01-03 00:26:21.84	188.92	34.22	-55.5	-57.1	14.7	0.00e+00	0	31	0	1044381696	76	4534
2026-01-03 00:26:22.84	189.01	34.01	-55.1	-56.6	14.9	0.00e+00	0	31	0	1045430272	76	4262
2026-01-03 00:26:23.85	189.10	33.79	-55.1	-56.6	14.9	0.00e+00	0	31	0	1047527424	76	4281
2026-01-03 00:26:24.84	189.18	33.58	-55.2	-56.8	14.9	0.00e+00	0	31	0	1049624576	76	4360
2026-01-03 00:26:25.83	189.27	33.37	-55.4	-57.0	14.8	0.00e+00	0	31	0	1051721728	76	4454
2026-01-03 00:26:26.83	189.35	33.17	-55.4	-57.0	14.7	0.00e+00	0	31	0	1053818880	76	4456
2026-01-03 00:26:27.83	189.43	32.96	-55.3	-56.9	14.8	0.00e+00	0	31	0	1054867456	76	4405
2026-01-03 00:26:28.83	189.52	32.75	-55.4	-57.0	14.7	0.00e+00	0	31	0	1056964608	76	4487
2026-01-03 00:26:29.82	189.60	32.55	-55.5	-57.2	14.7	0.00e+00	0	31	0	1059061760	76	4550
2026-01-03 00:26:30.81	189.68	32.35	-55.6	-57.3	14.6	0.00e+00	0	31	0	1061158912	76	4626
2026-01-03 00:26:31.81	189.75	32.15	-55.8	-57.6	14.5	0.00e+00	0	31	0	1062207488	76	4770
2026-01-03 00:26:32.82	189.83	31.95	-55.9	-57.7	14.4	0.00e+00	0	31	0	1064304640	76	4843
2026-01-03 00:26:33.82	189.91	31.75	-56.1	-57.9	14.3	0.00e+00	0	31	0	1066401792	77	4695
2026-01-03 00:26:34.81	189.99	31.55	-56.2	-58.1	14.2	0.00e+00	0	31	0	1068498944	77	4802
2026-01-03 00:26:35.81	190.06	31.35	-56.2	-58.2	14.2	0.00e+00	0	31	0	1070596096	77	4816
2026-01-03 00:26:36.81	190.14	31.16	-56.2	-58.2	14.2	0.00e+00	0	31	0	1071644672	77	4838
2026-01-03 00:26:37.81	190.21	30.97	-56.2	-58.1	14.2	0.00e+00	0	31	0	1073741824	77	4787
2026-01-03 00:26:38.82	190.29	30.77	-56.1	-58.1	14.2	0.00e+00	0	31	0	1075838976	77	4777
2026-01-03 00:26:39.81	190.36	30.58	-55.9	-57.7	14.5	0.00e+00	0	31	0	1077936128	77	4570
2026-01-03 00:26:40.81	190.43	30.39	-55.8	-57.6	14.5	0.00e+00	0	31	0	1080033280	77	4496
2026-01-03 00:26:41.81	190.50	30.20	-55.6	-57.3	14.6	0.00e+00	0	31	0	1081081856	77	4351
2026-01-03 00:26:42.81	190.57	30.01	-55.3	-56.9	14.8	0.00e+00	0	31	0	1083179008	77	4187
2026-01-03 00:26:43.80	190.64	29.83	-55.1	-56.6	14.9	0.00e+00	0	31	0	1085276160	76	4285
2026-01-03 00:26:44.79	190.71	29.64	-54.9	-56.4	15.0	0.00e+00	0	31	0	1087373312	76	4183
2026-01-03 00:26:45.79	190.78	29.46	-54.9	-56.3	15.0	0.00e+00	0	31	0	1089470464	76	4135
2026-01-03 00:26:46.79	190.84	29.28	-54.5	-55.9	15.2	0.00e+00	0	31	0	1090519040	75	4164
2026-01-03 00:26:47.79	190.91	29.09	-54.3	-55.7	15.2	0.00e+00	0	31	0	1092616192	75	4076
2026-01-03 00:26:48.78	190.97	28.92	-54.2	-55.5	15.3	0.00e+00	0	31	0	1094713344	75	3999
2026-01-03 00:26:49.77	191.04	28.74	-54.2	-55.6	15.3	0.00e+00	0	31	0	1096810496	75	4005
2026-01-03 00:26:50.78	191.10	28.56	-54.1	-55.4	15.3	0.00e+00	0	31	0	1097859072	74	4182
2026-01-03 00:26:51.77	191.17	28.38	-54.1	-55.4	15.3	0.00e+00	0	31	0	1099956224	74	4167
2026-01-03 00:26:52.78	191.23	28.20	-54.0	-55.3	15.3	0.00e+00	0	31	0	1102053376	74	4115
2026-01-03 00:26:53.78	191.29	28.03	-54.1	-55.4	15.3	0.00e+00	0	31	0	1104150528	74	4149
2026-01-03 00:26:54.78	191.35	27.85	-54.0	-55.3	15.3	0.00e+00	0	31	0	1106247680	74	4104
2026-01-03 00:26:55.78	191.42	27.68	-54.0	-55.3	15.3	0.00e+00	0	31	0	1107296256	74	4108
2026-01-03 00:26:56.77	191.48	27.51	-53.9	-55.2	15.4	0.00e+00	0	31	0	1109393408	74	4066
2026-01-03 00:26:57.77	191.54	27.34	-54.0	-55.2	15.4	0.00e+00	0	31	0	1111490560	74	4094
2026-01-03 00:26:58.77	191.60	27.17	-53.9	-55.2	15.4	0.00e+00	0	31	0	1113587712	74	4095
2026-01-03 00:26:59.77	191.65	27.00	-54.0	-55.2	15.3	0.00e+00	0	31	0	1114636288	74	4098
2026-01-03 00:27:00.77	191.71	26.83	-53.9	-55.2	15.4	0.00e+00	0	31	0	1116733440	74	4086
2026-01-03 00:27:01.77	191.77	26.66	-54.0	-55.3	15.3	0.00e+00	0	31	0	1118830592	74	4106
2026-01-03 00:27:02.76	191.83	26.50	-54.1	-55.4	15.3	0.00e+00	0	31	0	1120927744	74	4184
2026-01-03 00:27:03.77	191.88	26.33	-54.0	-55.4	15.3	0.00e+00	0	31	0	1123024896	74	4146
2026-01-03 00:27:04.78	191.94	26.16	-54.1	-55.5	15.3	0.00e+00	0	31	0	1124073472	74	4200
2026-01-03 00:27:05.78	192.00	26.00	-54.0	-55.3	15.3	0.00e+00	0	31	0	1126170624	74	4101
2026-01-03 00:27:06.77	192.05	25.84	-54.1	-55.4	15.3	0.00e+00	0	31	0	1128267776	74	4156
2026-01-03 00:27:07.77	192.10	25.68	-54.0	-55.3	15.3	0.00e+00	0	31	0	1130364928	74	4114
2026-01-03 00:27:08.77	192.16	25.52	-53.9	-55.2	15.4	0.00e+00	0	31	0	1132462080	74	4069
2026-01-03 00:27:09.77	192.21	25.36	-53.8	-55.1	15.4	0.00e+00	0	31	0	1133510656	74	4011
2026-01-03 00:27:10.77	192.26	25.20	-53.7	-55.0	15.4	0.00e+00	0	31	0	1135607808	74	3976
2026-01-03 00:27:11.77	192.32	25.04	-53.6	-54.9	15.4	0.00e+00	0	31	0	1137704960	73	4152
2026-01-03 00:27:12.77	192.37	24.89	-53.5	-54.7	15.5	0.00e+00	0	31	0	1139802112	73	4096
2026-01-03 00:27:13.77	192.42	24.73	-53.3	-54.5	15.6	0.00e+00	0	31	0	1141899264	73	3998
2026-01-03 00:27:14.78	192.47	24.57	-53.4	-54.6	15.5	0.00e+00	0	31	0	1142947840	73	4035
2026-01-03 00:27:15.78	192.52	24.42	-53.4	-54.6	15.6	0.00e+00	0	31	0	1145044992	73	4008
2026-01-03 00:27:16.78	192.57	24.27	-53.3	-54.5	15.6	0.00e+00	0	31	0	1147142144	73	3973
2026-01-03 00:27:17.78	192.62	24.11	-53.4	-54.6	15.5	0.00e+00	0	31	0	1149239296	73	4012
2026-01-03 00:27:18.77	192.67	23.97	-53.3	-54.5	15.6	0.00e+00	0	31	0	1150287872	73	3987
2026-01-03 00:27:19.77	192.72	23.81	-53.4	-54.6	15.5	0.00e+00	0	31	0	1152385024	73	4034
2026-01-03 00:27:20.77	192.77	23.66	-53.2	-54.4	15.6	0.00e+00	0	31	0	1154482176	73	3929
2026-01-03 00:27:21.77	192.82	23.52	-53.3	-54.5	15.6	0.00e+00	0	31	0	1156579328	73	3978
2026-01-03 00:27:22.76	192.86	23.37	-53.2	-54.4	15.6	0.00e+00	0	31	0	1158676480	73	3935
2026-01-03 00:27:23.75	192.91	23.22	-53.2	-54.4	15.5	0.00e+00	0	31	0	1159725056	72	4164
2026-01-03 00:27:24.76	192.96	23.08	-53.2	-54.3	15.5	0.00e+00	0	31	0	1161822208	72	4142
2026-01-03 00:27:25.75	193.00	22.93	-53.0	-54.2	15.6	0.00e+00	0	31	0	1163919360	72	4059
2026-01-03 00:27:26.75	193.05	22.79	-52.9	-54.0	15.6	0.00e+00	0	31	0	1166016512	72	3996
2026-01-03 00:27:27.75	193.09	22.64	-53.0	-54.1	15.6	0.00e+00	0	31	0	1168113664	72	4033
2026-01-03 00:27:28.75	193.14	22.50	-52.8	-53.9	15.7	0.00e+00	0	31	0	1169162240	72	3937
2026-01-03 00:27:29.74	193.18	22.36	-52.9	-54.0	15.7	0.00e+00	0	31	0	1171259392	72	3959
2026-01-03 00:27:30.73	193.23	22.22	-52.8	-53.8	15.7	0.00e+00	0	31	0	1173356544	72	3911
2026-01-03 00:27:31.73	193.27	22.08	-52.9	-53.9	15.7	0.00e+00	0	31	0	1175453696	72	3954
2026-01-03 00:27:32.73	193.31	21.94	-52.9	-54.0	15.7	0.00e+00	0	31	0	1176502272	72	3980
2026-01-03 00:27:33.73	193.36	21.80	-52.8	-53.9	15.7	0.00e+00	0	31	0	1178599424	72	3934
2026-01-03 00:27:34.73	193.40	21.66	-52.8	-53.9	15.7	0.00e+00	0	31	0	1180696576	72	3915
2026-01-03 00:27:35.72	193.44	21.52	-52.9	-54.0	15.6	0.00e+00	0	31	0	1182793728	72	3979
2026-01-03 00:27:36.73	193.49	21.38	-52.9	-54.0	15.6	0.00e+00	0	31	0	1184890880	72	3982
2026-01-03 00:27:37.73	193.53	21.25	-53.0	-54.1	15.6	0.00e+00	0	31	0	1185939456	72	4008
2026-01-03 00:27:38.73	193.57	21.11	-53.0	-54.1	15.5	0.00e+00	0	31	0	1188036608	72	4048
2026-01-03 00:27:39.73	193.61	20.98	-53.1	-54.2	15.6	0.00e+00	0	31	0	1190133760	72	4074
2026-01-03 00:27:40.73	193.65	20.84	-53.1	-54.3	15.5	0.00e+00	0	31	0	1192230912	72	4106
2026-01-03 00:27:41.73	193.69	20.71	-53.1	-54.3	15.6	0.00e+00	0	31	0	1194328064	72	4102
2026-01-03 00:27:42.72	193.73	20.58	-53.2	-54.4	15.5	0.00e+00	0	31	0	1195376640	72	4167
2026-01-03 00:27:43.72	193.77	20.45	-53.3	-54.5	15.5	0.00e+00	0	31	0	1197473792	72	4196
2026-01-03 00:27:44.73	193.81	20.31	-53.3	-54.4	15.5	0.00e+00	0	31	0	1199570944	72	4193
2026-01-03 00:27:45.72	193.85	20.18	-53.3	-54.5	15.5	0.00e+00	0	31	0	1201668096	72	4202
2026-01-03 00:27:46.73	193.89	20.05	-53.3	-54.5	15.4	0.00e+00	0	31	0	1202716672	72	4236
2026-01-03 00:27:47.73	193.93	19.92	-53.4	-54.6	15.4	0.00e+00	0	31	0	1204813824	72	4291
2026-01-03 00:27:48.74	193.97	19.79	-53.4	-54.6	15.4	0.00e+00	0	31	0	1206910976	72	4271
2026-01-03 00:27:49.74	194.01	19.66	-53.4	-54.7	15.4	0.00e+00	0	31	0	1209008128	72	4294
2026-01-03 00:27:50.74	194.04	19.54	-53.5	-54.8	15.4	0.00e+00	0	31	0	1211105280	72	4348
2026-01-03 00:27:51.74	194.08	19.41	-53.5	-54.7	15.4	0.00e+00	0	31	0	1212153856	72	4309
2026-01-03 00:27:52.74	194.12	19.28	-53.5	-54.7	15.4	0.00e+00	0	31	0	1214251008	72	4319
2026-01-03 00:27:53.75	194.16	19.16	-53.5	-54.7	15.4	0.00e+00	0	31	0	1216348160	72	4318
2026-01-03 00:27:54.74	194.19	19.03	-53.5	-54.7	15.4	0.00e+00	0	31	0	1218445312	72	4339
2026-01-03 00:27:55.75	194.23	18.91	-53.5	-54.8	15.3	0.00e+00	0	31	0	1220542464	72	4357
2026-01-03 00:27:56.75	194.27	18.78	-53.6	-54.8	15.3	0.00e+00	0	31	0	1221591040	72	4378
2026-01-03 00:27:57.75	194.30	18.66	-53.6	-54.8	15.3	0.00e+00	0	31	0	1223688192	72	4386
2026-01-03 00:27:58.76	194.34	18.54	-53.6	-54.8	15.3	0.00e+00	0	31	0	1225785344	72	4382
2026-01-03 00:27:59.75	194.37	18.42	-53.6	-54.8	15.3	0.00e+00	0	31	0	1227882496	72	4370
2026-01-03 00:28:00.75	194.41	18.29	-53.6	-54.8	15.3	0.00e+00	0	31	0	1229979648	72	4388
2026-01-03 00:28:01.75	194.44	18.17	-53.6	-54.9	15.3	0.00e+00	0	31	0	1231028224	72	4394
2026-01-03 00:28:02.75	194.48	18.05	-53.5	-54.8	15.3	0.00e+00	0	31	0	1233125376	72	4359
2026-01-03 00:28:03.75	194.51	17.93	-53.6	-54.9	15.3	0.00e+00	0	31	0	1235222528	72	4425
2026-01-03 00:28:04.75	194.55	17.81	-53.7	-54.9	15.3	0.00e+00	0	31	0	1237319680	72	4429
2026-01-03 00:28:05.75	194.58	17.70	-53.7	-55.0	15.3	0.00e+00	0	31	0	1238368256	72	4449
2026-01-03 00:28:06.75	194.61	17.58	-53.7	-55.0	15.3	0.00e+00	0	31	0	1240465408	72	4451
2026-01-03 00:28:07.74	194.65	17.46	-53.7	-55.0	15.3	0.00e+00	0	31	0	1242562560	72	4445
2026-01-03 00:28:08.74	194.68	17.35	-53.8	-55.1	15.2	0.00e+00	0	31	0	1244659712	72	4497
2026-01-03 00:28:09.75	194.71	17.23	-53.8	-55.1	15.2	0.00e+00	0	31	0	1246756864	72	4501
2026-01-03 00:28:10.75	194.75	17.11	-53.8	-55.1	15.2	0.00e+00	0	31	0	1247805440	72	4508
2026-01-03 00:28:11.75	194.78	17.00	-53.9	-55.2	15.2	0.00e+00	0	31	0	1249902592	72	4569
2026-01-03 00:28:12.76	194.81	16.88	-53.9	-55.2	15.2	0.00e+00	0	31	0	1251999744	73	4305
