passes_logs/2026/01/03/R3.2S_Murmansk/R3.2S_Murmansk__20260103_230724_NOAA_21_JPSS-2_rec.log

#Pass ID: 20260103_230724_NOAA 21 (JPSS-2)
#Satellite: NOAA 21 (JPSS-2)
#Configuration: NOAA-21
#almurnet v.1.7.20251203
#Start time: 2026-01-03 23:07:26

#Version: 2.2.20231116
#Station: R3.2S_Murmansk
#Location: 33.079688 lon 68.888172 lat
#TLE: 1 54234U 22150A   26003.45311712  .00000198  00000+0  11468-3 0  9993
#TLE: 2 54234  98.7487 304.4932 0001159 347.5017  12.6130 14.19531745163172

#Time	Az	El	Level	Level2	SNR	BER	BlckErr	Temp	State	Recorded	gain1	gain2
2026-01-03 23:07:26.51	20.07	2.10	-58.8	-72.5	3.8	1.49e+00	0	27	0	0	84	16783
2026-01-03 23:07:27.51	20.12	2.16	-58.6	-72.0	3.8	1.49e+00	0	27	104	0	82	17761
2026-01-03 23:07:28.51	20.17	2.22	-58.6	-71.9	3.8	1.49e+00	0	27	104	0	82	17520
2026-01-03 23:07:29.51	20.22	2.28	-58.6	-71.7	3.8	1.49e+00	0	27	104	0	82	17194
2026-01-03 23:07:30.51	20.27	2.34	-58.6	-71.5	3.8	1.49e+00	0	27	104	0	82	16825
2026-01-03 23:07:31.52	20.31	2.40	-58.6	-71.4	3.8	1.49e+00	0	27	104	0	82	16520
2026-01-03 23:07:32.51	20.36	2.46	-58.6	-71.2	3.9	1.49e+00	0	27	104	0	82	16267
2026-01-03 23:07:33.52	20.41	2.52	-58.5	-71.0	3.8	1.49e+00	0	27	104	0	82	15943
2026-01-03 23:07:34.52	20.46	2.58	-58.5	-70.9	3.8	1.49e+00	0	27	104	0	82	15671
2026-01-03 23:07:35.52	20.51	2.65	-58.5	-70.8	3.8	1.49e+00	0	28	104	0	82	15576
2026-01-03 23:07:36.53	20.56	2.71	-58.5	-70.5	3.9	1.49e+00	0	27	104	0	82	14943
2026-01-03 23:07:37.53	20.61	2.77	-58.5	-70.8	3.8	1.49e+00	0	27	104	0	82	15447
2026-01-03 23:07:38.53	20.66	2.83	-58.5	-70.6	3.9	1.49e+00	0	27	104	0	82	15128
2026-01-03 23:07:39.53	20.71	2.89	-58.5	-70.2	4.0	1.49e+00	0	27	104	0	82	14499
2026-01-03 23:07:40.53	20.76	2.95	-58.5	-70.0	3.9	1.48e+00	0	27	104	0	82	14151
2026-01-03 23:07:41.53	20.81	3.01	-58.4	-69.5	4.1	1.49e+00	0	27	104	0	82	13390
2026-01-03 23:07:42.52	20.86	3.08	-58.3	-68.6	4.0	1.45e+00	0	27	104	0	82	11998
2026-01-03 23:07:43.52	20.91	3.14	-58.3	-68.1	4.4	1.43e+00	0	27	104	0	82	11354
2026-01-03 23:07:44.52	20.96	3.20	-58.2	-67.1	4.8	8.03e-01	0	27	0	0	82	10095
2026-01-03 23:07:45.52	21.01	3.26	-58.1	-66.6	5.1	6.15e-01	0	27	0	3145728	82	9556
2026-01-03 23:07:46.53	21.06	3.32	-58.0	-65.8	5.5	4.70e-01	0	27	0	6291456	82	8752
2026-01-03 23:07:47.53	21.11	3.39	-57.9	-65.5	5.7	3.85e-01	0	27	0	9437184	82	8426
2026-01-03 23:07:48.54	21.16	3.45	-57.9	-65.4	5.8	3.46e-01	0	28	0	12582912	82	8308
2026-01-03 23:07:49.53	21.22	3.51	-57.9	-65.4	5.8	3.13e-01	0	27	0	15728640	82	8305
2026-01-03 23:07:50.53	21.27	3.58	-57.9	-65.4	5.8	3.32e-01	0	28	0	18874368	82	8351
2026-01-03 23:07:51.53	21.32	3.64	-57.8	-65.1	6.0	2.82e-01	0	28	0	22020096	82	8047
2026-01-03 23:07:52.53	21.37	3.70	-57.7	-64.6	6.3	2.51e-01	0	28	0	25165824	82	7590
2026-01-03 23:07:53.53	21.42	3.76	-57.5	-63.8	7.0	1.59e-01	0	28	0	28311552	81	7299
2026-01-03 23:07:54.52	21.48	3.83	-57.2	-62.8	7.8	6.69e-02	0	28	0	31457280	81	6541
2026-01-03 23:07:55.52	21.53	3.89	-56.8	-61.6	8.8	1.79e-02	0	27	0	34603008	80	6022
2026-01-03 23:07:56.52	21.58	3.95	-56.2	-60.3	9.9	2.67e-03	0	28	0	37748736	79	5473
2026-01-03 23:07:57.53	21.64	4.02	-55.7	-59.1	10.8	3.49e-04	0	28	0	40894464	78	5096
2026-01-03 23:07:58.52	21.69	4.08	-55.3	-58.4	11.3	6.02e-05	0	28	0	42991616	77	4979
2026-01-03 23:07:59.52	21.74	4.15	-54.5	-57.3	12.0	1.29e-05	0	28	0	46137344	75	4891
2026-01-03 23:08:00.51	21.80	4.21	-53.6	-55.9	12.7	0.00e+00	0	28	0	49283072	73	4679
2026-01-03 23:08:01.51	21.85	4.27	-53.5	-55.7	12.8	0.00e+00	0	28	0	52428800	73	4594
2026-01-03 23:08:02.51	21.91	4.34	-53.5	-55.7	12.9	0.00e+00	0	28	0	55574528	73	4561
2026-01-03 23:08:03.51	21.96	4.40	-53.3	-55.5	13.0	0.00e+00	0	28	0	58720256	73	4458
2026-01-03 23:08:04.51	22.02	4.47	-53.2	-55.3	13.0	0.00e+00	0	28	0	61865984	72	4621
2026-01-03 23:08:05.51	22.07	4.53	-53.5	-55.8	12.7	0.00e+00	0	28	0	65011712	72	4894
2026-01-03 23:08:06.51	22.13	4.60	-53.9	-56.3	12.4	0.00e+00	0	28	0	68157440	72	5177
2026-01-03 23:08:07.52	22.18	4.66	-54.2	-56.7	12.2	1.50e-06	0	28	0	71303168	73	5151
2026-01-03 23:08:08.53	22.24	4.73	-54.8	-57.8	11.6	2.20e-06	0	28	0	74448896	74	5490
2026-01-03 23:08:09.53	22.29	4.79	-55.2	-58.4	11.1	4.04e-05	0	28	0	77594624	75	5558
2026-01-03 23:08:10.52	22.35	4.86	-55.9	-59.6	10.3	3.46e-04	0	28	0	80740352	76	6038
2026-01-03 23:08:11.52	22.41	4.92	-56.4	-60.7	9.5	2.80e-03	0	28	0	83886080	77	6434
2026-01-03 23:08:12.52	22.46	4.99	-56.9	-61.8	8.6	1.47e-02	0	28	0	87031808	78	6912
2026-01-03 23:08:13.53	22.52	5.06	-56.6	-61.0	9.3	1.49e-02	0	28	0	90177536	79	5980
2026-01-03 23:08:14.53	22.58	5.12	-56.4	-60.7	9.5	1.07e-03	0	28	0	93323264	78	6109
2026-01-03 23:08:15.53	22.64	5.19	-57.0	-61.9	8.6	3.84e-02	0	28	0	96468992	79	6629
2026-01-03 23:08:16.54	22.69	5.26	-56.8	-61.3	9.0	8.39e-01	0	28	0	97517568	80	5817
2026-01-03 23:08:17.54	22.75	5.32	-57.0	-62.2	8.5	4.40e-04	0	28	0	100663296	79	6842
2026-01-03 23:08:18.54	22.81	5.39	-56.8	-61.6	8.6	1.72e-01	0	28	0	103809024	80	6061
2026-01-03 23:08:19.54	22.87	5.45	-53.8	-56.1	12.7	0.00e+00	0	28	0	106954752	74	4513
2026-01-03 23:08:20.55	22.93	5.52	-53.0	-54.9	13.3	0.00e+00	0	28	0	110100480	72	4439
2026-01-03 23:08:21.55	22.99	5.59	-52.9	-54.9	13.4	0.00e+00	0	28	0	113246208	72	4393
2026-01-03 23:08:22.55	23.04	5.66	-52.8	-54.7	13.5	0.00e+00	0	28	0	116391936	72	4340
2026-01-03 23:08:23.55	23.10	5.72	-53.1	-55.1	13.3	0.00e+00	0	28	0	118489088	72	4509
2026-01-03 23:08:24.55	23.16	5.79	-52.5	-54.4	13.6	0.00e+00	0	28	0	121634816	71	4403
2026-01-03 23:08:25.56	23.22	5.86	-52.2	-54.0	13.7	0.00e+00	0	28	0	125829120	70	4445
2026-01-03 23:08:26.57	23.28	5.93	-52.2	-54.0	13.7	0.00e+00	0	28	0	128974848	70	4460
2026-01-03 23:08:27.57	23.35	6.00	-52.1	-53.8	13.8	0.00e+00	0	28	0	132120576	70	4372
2026-01-03 23:08:28.57	23.41	6.06	-52.1	-53.9	13.8	0.00e+00	0	28	0	135266304	70	4398
2026-01-03 23:08:29.56	23.47	6.13	-51.9	-53.5	14.0	0.00e+00	0	28	0	138412032	70	4232
2026-01-03 23:08:30.57	23.53	6.20	-51.8	-53.5	14.0	0.00e+00	0	28	0	140509184	70	4213
2026-01-03 23:08:31.57	23.59	6.27	-51.8	-53.4	14.0	0.00e+00	0	28	0	143654912	70	4178
2026-01-03 23:08:32.57	23.65	6.34	-51.8	-53.5	14.0	0.00e+00	0	28	0	146800640	70	4225
2026-01-03 23:08:33.57	23.71	6.41	-51.8	-53.5	14.0	0.00e+00	0	28	0	149946368	70	4209
2026-01-03 23:08:34.58	23.78	6.48	-51.7	-53.4	14.1	0.00e+00	0	28	0	153092096	70	4146
2026-01-03 23:08:35.59	23.84	6.55	-51.7	-53.4	14.0	0.00e+00	0	28	0	156237824	69	4399
2026-01-03 23:08:36.60	23.90	6.62	-51.7	-53.4	14.0	0.00e+00	0	28	0	159383552	69	4412
2026-01-03 23:08:37.60	23.97	6.69	-51.8	-53.4	14.0	0.00e+00	0	28	0	162529280	69	4440
2026-01-03 23:08:38.60	24.03	6.76	-51.8	-53.4	14.0	0.00e+00	0	28	0	165675008	69	4435
2026-01-03 23:08:39.59	24.09	6.83	-51.8	-53.5	13.9	0.00e+00	0	28	0	168820736	69	4459
2026-01-03 23:08:40.59	24.16	6.90	-51.9	-53.6	13.9	0.00e+00	0	28	0	171966464	69	4502
2026-01-03 23:08:41.60	24.22	6.97	-51.9	-53.5	14.0	0.00e+00	0	28	0	175112192	69	4474
2026-01-03 23:08:42.60	24.29	7.04	-51.8	-53.4	14.0	0.00e+00	0	28	0	178257920	69	4417
2026-01-03 23:08:43.60	24.35	7.11	-51.7	-53.3	14.0	0.00e+00	0	28	0	181403648	69	4378
2026-01-03 23:08:44.59	24.41	7.18	-51.7	-53.3	14.0	0.00e+00	0	28	0	184549376	69	4380
2026-01-03 23:08:45.60	24.48	7.25	-51.7	-53.3	14.0	0.00e+00	0	28	0	187695104	69	4370
2026-01-03 23:08:46.60	24.55	7.32	-51.5	-53.1	14.1	0.00e+00	0	28	0	190840832	69	4278
2026-01-03 23:08:47.59	24.61	7.39	-51.5	-53.1	14.2	0.00e+00	0	28	0	193986560	69	4252
2026-01-03 23:08:48.60	24.68	7.46	-51.5	-53.0	14.2	0.00e+00	0	28	0	197132288	69	4240
2026-01-03 23:08:49.59	24.74	7.53	-51.4	-53.0	14.2	0.00e+00	0	28	0	200278016	69	4205
2026-01-03 23:08:50.60	24.81	7.61	-51.4	-52.9	14.2	0.00e+00	0	28	0	203423744	69	4185
2026-01-03 23:08:51.60	24.88	7.68	-51.3	-52.8	14.3	0.00e+00	0	28	0	206569472	69	4124
2026-01-03 23:08:52.60	24.95	7.75	-51.4	-53.0	14.2	0.00e+00	0	29	0	209715200	69	4203
2026-01-03 23:08:53.59	25.01	7.82	-51.4	-53.0	14.2	0.00e+00	0	28	0	212860928	69	4218
2026-01-03 23:08:54.59	25.08	7.89	-51.3	-52.8	14.3	0.00e+00	0	28	0	216006656	69	4111
2026-01-03 23:08:55.59	25.15	7.97	-51.4	-52.9	14.3	0.00e+00	0	28	0	219152384	69	4169
2026-01-03 23:08:56.59	25.22	8.04	-51.3	-52.9	14.3	0.00e+00	0	28	0	222298112	69	4152
2026-01-03 23:08:57.59	25.29	8.11	-51.2	-52.7	14.4	0.00e+00	0	29	0	225443840	69	4081
2026-01-03 23:08:58.59	25.36	8.18	-51.3	-52.8	14.3	0.00e+00	0	29	0	228589568	69	4135
2026-01-03 23:08:59.58	25.43	8.26	-51.3	-52.8	14.3	0.00e+00	0	28	0	231735296	69	4125
2026-01-03 23:09:00.58	25.50	8.33	-51.3	-52.8	14.3	0.00e+00	0	28	0	234881024	69	4139
2026-01-03 23:09:01.59	25.57	8.40	-51.4	-52.9	14.3	0.00e+00	0	28	0	238026752	69	4163
2026-01-03 23:09:02.60	25.64	8.48	-51.2	-52.7	14.4	0.00e+00	0	28	0	241172480	69	4094
2026-01-03 23:09:03.60	25.71	8.55	-51.3	-52.8	14.3	0.00e+00	0	28	0	244318208	69	4111
2026-01-03 23:09:04.60	25.78	8.63	-51.3	-52.8	14.4	0.00e+00	0	28	0	247463936	69	4119
2026-01-03 23:09:05.61	25.85	8.70	-51.2	-52.7	14.4	0.00e+00	0	29	0	250609664	69	4077
2026-01-03 23:09:06.60	25.92	8.78	-51.2	-52.7	14.4	0.00e+00	0	28	0	253755392	69	4094
2026-01-03 23:09:07.60	26.00	8.85	-51.2	-52.7	14.3	0.00e+00	0	28	0	256901120	68	4305
2026-01-03 23:09:08.59	26.07	8.93	-51.2	-52.7	14.3	0.00e+00	0	28	0	260046848	68	4334
2026-01-03 23:09:09.59	26.14	9.00	-51.1	-52.6	14.4	0.00e+00	0	28	0	263192576	68	4272
2026-01-03 23:09:10.59	26.21	9.08	-51.3	-52.8	14.3	0.00e+00	0	28	0	266338304	68	4366
2026-01-03 23:09:11.59	26.29	9.15	-51.1	-52.6	14.3	0.00e+00	0	28	0	269484032	68	4279
2026-01-03 23:09:12.60	26.36	9.23	-51.2	-52.7	14.3	0.00e+00	0	28	0	272629760	68	4316
2026-01-03 23:09:13.60	26.44	9.30	-51.2	-52.7	14.3	0.00e+00	0	28	0	275775488	68	4322
2026-01-03 23:09:14.60	26.51	9.38	-51.2	-52.7	14.3	0.00e+00	0	28	0	278921216	68	4300
2026-01-03 23:09:15.59	26.59	9.46	-51.1	-52.5	14.4	0.00e+00	0	28	0	282066944	68	4240
2026-01-03 23:09:16.60	26.66	9.53	-51.1	-52.6	14.4	0.00e+00	0	29	0	285212672	68	4245
2026-01-03 23:09:17.60	26.74	9.61	-51.1	-52.6	14.4	0.00e+00	0	28	0	288358400	68	4274
2026-01-03 23:09:18.59	26.82	9.69	-51.0	-52.5	14.4	0.00e+00	0	28	0	291504128	68	4217
2026-01-03 23:09:19.59	26.89	9.76	-51.1	-52.5	14.4	0.00e+00	0	28	0	294649856	68	4235
2026-01-03 23:09:20.60	26.97	9.84	-51.1	-52.5	14.4	0.00e+00	0	29	0	297795584	68	4237
2026-01-03 23:09:21.61	27.05	9.92	-51.1	-52.5	14.4	0.00e+00	0	29	0	300941312	68	4225
2026-01-03 23:09:22.61	27.13	10.00	-51.0	-52.4	14.4	0.00e+00	0	29	0	304087040	68	4167
2026-01-03 23:09:23.62	27.20	10.07	-51.0	-52.5	14.4	0.00e+00	0	28	0	307232768	68	4206
2026-01-03 23:09:24.61	27.28	10.15	-50.8	-52.3	14.5	0.00e+00	0	29	0	310378496	68	4104
2026-01-03 23:09:25.61	27.36	10.23	-50.9	-52.4	14.5	0.00e+00	0	29	0	313524224	68	4157
2026-01-03 23:09:26.62	27.44	10.31	-50.9	-52.3	14.5	0.00e+00	0	29	0	316669952	68	4119
2026-01-03 23:09:27.62	27.52	10.39	-50.8	-52.2	14.5	0.00e+00	0	29	0	319815680	68	4086
2026-01-03 23:09:28.63	27.60	10.47	-50.8	-52.2	14.5	0.00e+00	0	29	0	322961408	68	4093
2026-01-03 23:09:29.63	27.68	10.55	-50.9	-52.3	14.5	0.00e+00	0	28	0	325058560	68	4109
2026-01-03 23:09:30.63	27.76	10.63	-50.7	-52.1	14.6	0.00e+00	0	28	0	328204288	68	4022
2026-01-03 23:09:31.63	27.85	10.71	-50.7	-52.1	14.6	0.00e+00	0	29	0	331350016	68	4042
2026-01-03 23:09:32.63	27.93	10.79	-50.5	-51.9	14.6	0.00e+00	0	29	0	334495744	67	4174
2026-01-03 23:09:33.63	28.01	10.87	-50.6	-52.0	14.5	0.00e+00	0	29	0	337641472	67	4240
2026-01-03 23:09:34.63	28.09	10.95	-50.6	-52.0	14.5	0.00e+00	0	29	0	340787200	67	4195
2026-01-03 23:09:35.63	28.18	11.03	-50.6	-52.0	14.5	0.00e+00	0	28	0	343932928	67	4196
2026-01-03 23:09:36.63	28.26	11.11	-50.7	-52.1	14.5	0.00e+00	0	28	0	347078656	67	4256
2026-01-03 23:09:37.63	28.34	11.19	-50.5	-51.9	14.6	0.00e+00	0	28	0	350224384	67	4173
2026-01-03 23:09:38.64	28.43	11.27	-50.5	-51.9	14.6	0.00e+00	0	28	0	353370112	67	4179
2026-01-03 23:09:39.64	28.51	11.35	-50.5	-51.9	14.6	0.00e+00	0	29	0	356515840	67	4148
2026-01-03 23:09:40.64	28.60	11.43	-50.5	-51.9	14.6	0.00e+00	0	29	0	359661568	67	4151
2026-01-03 23:09:41.64	28.69	11.51	-50.4	-51.8	14.6	0.00e+00	0	28	0	362807296	67	4121
2026-01-03 23:09:42.65	28.77	11.60	-50.5	-51.9	14.6	0.00e+00	0	28	0	365953024	67	4159
2026-01-03 23:09:43.65	28.86	11.68	-50.5	-51.9	14.6	0.00e+00	0	29	0	369098752	67	4169
2026-01-03 23:09:44.66	28.95	11.76	-50.5	-51.9	14.6	0.00e+00	0	28	0	372244480	67	4177
2026-01-03 23:09:45.66	29.03	11.84	-50.3	-51.7	14.6	0.00e+00	0	29	0	375390208	67	4079
2026-01-03 23:09:46.66	29.12	11.93	-50.3	-51.7	14.7	0.00e+00	0	28	0	378535936	67	4075
2026-01-03 23:09:47.67	29.21	12.01	-50.3	-51.6	14.7	0.00e+00	0	28	0	381681664	67	4032
2026-01-03 23:09:48.67	29.30	12.09	-50.3	-51.6	14.7	0.00e+00	0	29	0	384827392	67	4045
2026-01-03 23:09:49.67	29.39	12.18	-50.3	-51.6	14.7	0.00e+00	0	29	0	387973120	67	4038
2026-01-03 23:09:50.67	29.48	12.26	-50.3	-51.6	14.7	0.00e+00	0	28	0	391118848	67	4051
2026-01-03 23:09:51.67	29.57	12.34	-50.2	-51.6	14.7	0.00e+00	0	29	0	394264576	67	4026
2026-01-03 23:09:52.68	29.66	12.43	-50.2	-51.5	14.7	0.00e+00	0	28	0	397410304	67	3982
2026-01-03 23:09:53.67	29.75	12.51	-50.3	-51.6	14.6	0.00e+00	0	29	0	400556032	66	4287
2026-01-03 23:09:54.67	29.85	12.60	-50.1	-51.5	14.7	0.00e+00	0	29	0	403701760	66	4207
2026-01-03 23:09:55.67	29.94	12.68	-50.2	-51.6	14.7	0.00e+00	0	29	0	406847488	66	4243
2026-01-03 23:09:56.67	30.03	12.77	-50.2	-51.6	14.6	0.00e+00	0	29	0	409993216	66	4258
2026-01-03 23:09:57.66	30.12	12.85	-50.3	-51.7	14.6	0.00e+00	0	28	0	413138944	66	4316
2026-01-03 23:09:58.66	30.22	12.94	-50.1	-51.4	14.7	0.00e+00	0	29	0	416284672	66	4185
2026-01-03 23:09:59.66	30.31	13.02	-50.1	-51.5	14.7	0.00e+00	0	29	0	419430400	66	4207
2026-01-03 23:10:00.66	30.41	13.11	-50.2	-51.6	14.6	0.00e+00	0	29	0	422576128	66	4260
2026-01-03 23:10:01.66	30.50	13.19	-50.2	-51.5	14.7	0.00e+00	0	29	0	425721856	66	4211
2026-01-03 23:10:02.66	30.60	13.28	-50.2	-51.5	14.7	0.00e+00	0	29	0	428867584	66	4234
2026-01-03 23:10:03.66	30.70	13.37	-50.1	-51.5	14.7	0.00e+00	0	29	0	432013312	66	4201
2026-01-03 23:10:04.66	30.79	13.45	-50.1	-51.5	14.7	0.00e+00	0	29	0	435159040	66	4204
2026-01-03 23:10:05.66	30.89	13.54	-50.2	-51.5	14.7	0.00e+00	0	29	0	438304768	66	4221
2026-01-03 23:10:06.67	30.99	13.63	-50.2	-51.5	14.7	0.00e+00	0	29	0	441450496	66	4222
2026-01-03 23:10:07.67	31.09	13.72	-50.1	-51.4	14.7	0.00e+00	0	29	0	444596224	66	4180
2026-01-03 23:10:08.67	31.19	13.81	-50.0	-51.3	14.7	0.00e+00	0	29	0	447741952	66	4133
2026-01-03 23:10:09.68	31.29	13.89	-50.1	-51.4	14.7	0.00e+00	0	29	0	450887680	66	4191
2026-01-03 23:10:10.68	31.39	13.98	-50.1	-51.4	14.7	0.00e+00	0	29	0	454033408	66	4164
2026-01-03 23:10:11.68	31.49	14.07	-50.0	-51.3	14.8	0.00e+00	0	29	0	457179136	66	4114
2026-01-03 23:10:12.69	31.59	14.16	-50.0	-51.3	14.8	0.00e+00	0	29	0	460324864	66	4110
2026-01-03 23:10:13.69	31.70	14.25	-49.9	-51.2	14.8	0.00e+00	0	29	0	463470592	66	4078
2026-01-03 23:10:14.69	31.80	14.34	-49.9	-51.3	14.8	0.00e+00	0	29	0	466616320	66	4102
2026-01-03 23:10:15.69	31.90	14.43	-49.9	-51.2	14.8	0.00e+00	0	29	0	469762048	66	4087
2026-01-03 23:10:16.70	32.01	14.52	-50.0	-51.3	14.8	0.00e+00	0	29	0	472907776	66	4119
2026-01-03 23:10:17.69	32.11	14.61	-50.0	-51.4	14.7	0.00e+00	0	29	0	476053504	66	4147
2026-01-03 23:10:18.70	32.22	14.70	-50.1	-51.4	14.7	0.00e+00	0	29	0	479199232	66	4168
2026-01-03 23:10:19.70	32.32	14.79	-50.1	-51.5	14.7	0.00e+00	0	28	0	482344960	66	4207
2026-01-03 23:10:20.70	32.43	14.88	-50.1	-51.5	14.7	0.00e+00	0	29	0	485490688	66	4201
2026-01-03 23:10:21.69	32.54	14.97	-50.1	-51.4	14.7	0.00e+00	0	28	0	488636416	66	4163
2026-01-03 23:10:22.70	32.64	15.06	-50.1	-51.5	14.7	0.00e+00	0	29	0	491782144	66	4197
2026-01-03 23:10:23.71	32.75	15.16	-50.2	-51.5	14.7	0.00e+00	0	29	0	494927872	66	4226
2026-01-03 23:10:24.71	32.86	15.25	-50.2	-51.5	14.7	0.00e+00	0	28	0	498073600	66	4226
2026-01-03 23:10:25.72	32.97	15.34	-50.1	-51.4	14.7	0.00e+00	0	29	0	501219328	66	4178
2026-01-03 23:10:26.72	33.08	15.43	-50.2	-51.5	14.7	0.00e+00	0	29	0	504365056	66	4222
2026-01-03 23:10:27.72	33.19	15.53	-50.2	-51.5	14.7	0.00e+00	0	28	0	507510784	66	4229
2026-01-03 23:10:28.72	33.31	15.62	-50.1	-51.4	14.7	0.00e+00	0	29	0	510656512	66	4159
2026-01-03 23:10:29.72	33.42	15.71	-50.1	-51.5	14.7	0.00e+00	0	29	0	513802240	66	4203
2026-01-03 23:10:30.72	33.53	15.81	-50.1	-51.4	14.7	0.00e+00	0	29	0	516947968	66	4191
2026-01-03 23:10:31.72	33.65	15.90	-50.1	-51.4	14.7	0.00e+00	0	29	0	520093696	66	4178
2026-01-03 23:10:32.71	33.76	15.99	-50.1	-51.5	14.7	0.00e+00	0	29	0	523239424	66	4201
2026-01-03 23:10:33.71	33.87	16.09	-50.1	-51.4	14.7	0.00e+00	0	28	0	526385152	66	4157
2026-01-03 23:10:34.71	33.99	16.18	-50.3	-51.6	14.7	0.00e+00	0	29	0	528482304	66	4259
2026-01-03 23:10:35.71	34.11	16.28	-50.2	-51.6	14.7	0.00e+00	0	29	0	531628032	66	4252
2026-01-03 23:10:36.70	34.22	16.37	-50.3	-51.6	14.7	0.00e+00	0	29	0	534773760	66	4266
2026-01-03 23:10:37.71	34.34	16.47	-50.3	-51.6	14.6	0.00e+00	0	29	0	537919488	66	4284
2026-01-03 23:10:38.70	34.46	16.56	-50.4	-51.7	14.6	0.00e+00	0	29	0	541065216	66	4320
2026-01-03 23:10:39.70	34.58	16.66	-50.4	-51.7	14.6	0.00e+00	0	29	0	544210944	66	4330
2026-01-03 23:10:40.70	34.70	16.75	-50.4	-51.7	14.6	0.00e+00	0	29	0	547356672	66	4338
2026-01-03 23:10:41.69	34.82	16.85	-50.4	-51.7	14.6	0.00e+00	0	29	0	550502400	66	4317
2026-01-03 23:10:42.68	34.94	16.94	-50.4	-51.7	14.6	0.00e+00	0	29	0	553648128	66	4316
2026-01-03 23:10:43.67	35.06	17.04	-50.3	-51.7	14.6	0.00e+00	0	29	0	556793856	66	4301
2026-01-03 23:10:44.68	35.18	17.14	-50.2	-51.6	14.7	0.00e+00	0	29	0	559939584	66	4254
2026-01-03 23:10:45.67	35.30	17.23	-50.3	-51.6	14.7	0.00e+00	0	29	0	563085312	66	4285
2026-01-03 23:10:46.67	35.43	17.33	-50.2	-51.5	14.7	0.00e+00	0	29	0	566231040	66	4220
2026-01-03 23:10:47.67	35.55	17.43	-50.2	-51.5	14.7	0.00e+00	0	29	0	569376768	66	4224
2026-01-03 23:10:48.67	35.68	17.53	-50.3	-51.6	14.7	0.00e+00	0	29	0	572522496	66	4268
2026-01-03 23:10:49.66	35.81	17.62	-50.2	-51.5	14.7	0.00e+00	0	29	0	575668224	66	4218
2026-01-03 23:10:50.66	35.93	17.72	-50.2	-51.5	14.7	0.00e+00	0	29	0	578813952	66	4239
2026-01-03 23:10:51.66	36.06	17.82	-50.3	-51.6	14.7	0.00e+00	0	29	0	581959680	66	4285
2026-01-03 23:10:52.66	36.19	17.92	-50.3	-51.6	14.7	0.00e+00	0	29	0	585105408	66	4261
2026-01-03 23:10:53.66	36.32	18.02	-50.3	-51.6	14.7	0.00e+00	0	29	0	588251136	66	4254
2026-01-03 23:10:54.66	36.45	18.12	-50.3	-51.6	14.7	0.00e+00	0	29	0	591396864	66	4269
2026-01-03 23:10:55.65	36.58	18.22	-50.2	-51.5	14.7	0.00e+00	0	29	0	594542592	66	4207
2026-01-03 23:10:56.66	36.72	18.32	-50.1	-51.4	14.8	0.00e+00	0	29	0	597688320	66	4150
2026-01-03 23:10:57.65	36.85	18.42	-50.1	-51.4	14.8	0.00e+00	0	29	0	600834048	66	4158
2026-01-03 23:10:58.64	36.98	18.52	-50.1	-51.4	14.8	0.00e+00	0	29	0	603979776	66	4177
2026-01-03 23:10:59.65	37.12	18.62	-50.0	-51.3	14.8	0.00e+00	0	29	0	607125504	66	4121
2026-01-03 23:11:00.65	37.25	18.72	-49.8	-51.1	14.9	0.00e+00	0	29	0	610271232	66	4028
2026-01-03 23:11:01.65	37.39	18.82	-49.9	-51.2	14.9	0.00e+00	0	29	0	613416960	66	4053
2026-01-03 23:11:02.65	37.53	18.93	-50.0	-51.3	14.8	0.00e+00	0	29	0	616562688	66	4106
2026-01-03 23:11:03.64	37.66	19.03	-49.9	-51.1	14.9	0.00e+00	0	29	0	619708416	66	4038
2026-01-03 23:11:04.64	37.80	19.13	-49.8	-51.0	14.9	0.00e+00	0	29	0	622854144	66	3999
2026-01-03 23:11:05.65	37.95	19.23	-49.9	-51.1	14.9	0.00e+00	0	29	0	625999872	66	4046
2026-01-03 23:11:06.64	38.09	19.34	-49.9	-51.1	14.9	0.00e+00	0	29	0	629145600	66	4047
2026-01-03 23:11:07.64	38.23	19.44	-49.9	-51.2	14.9	0.00e+00	0	29	0	632291328	66	4058
2026-01-03 23:11:08.64	38.37	19.54	-50.0	-51.2	14.8	0.00e+00	0	29	0	635437056	66	4098
2026-01-03 23:11:09.64	38.52	19.65	-50.0	-51.3	14.8	0.00e+00	0	29	0	638582784	66	4101
2026-01-03 23:11:10.64	38.66	19.75	-50.0	-51.3	14.8	0.00e+00	0	29	0	640679936	66	4118
2026-01-03 23:11:11.64	38.81	19.85	-49.8	-51.0	14.9	0.00e+00	0	29	0	643825664	66	3993
2026-01-03 23:11:12.65	38.96	19.96	-49.7	-50.9	15.0	0.00e+00	0	29	0	646971392	66	3956
2026-01-03 23:11:13.65	39.10	20.06	-49.5	-50.8	14.9	0.00e+00	0	29	0	650117120	65	4106
2026-01-03 23:11:14.65	39.25	20.17	-49.5	-50.8	14.9	0.00e+00	0	29	0	653262848	65	4108
2026-01-03 23:11:15.65	39.40	20.27	-49.4	-50.6	15.0	0.00e+00	0	29	0	656408576	65	4022
2026-01-03 23:11:16.65	39.55	20.38	-49.5	-50.7	14.9	0.00e+00	0	28	0	659554304	65	4060
2026-01-03 23:11:17.65	39.70	20.49	-49.4	-50.6	15.0	0.00e+00	0	29	0	662700032	65	4049
2026-01-03 23:11:18.64	39.86	20.59	-49.5	-50.7	14.9	0.00e+00	0	29	0	665845760	65	4070
2026-01-03 23:11:19.63	40.01	20.70	-49.6	-50.8	14.9	0.00e+00	0	29	0	668991488	65	4128
2026-01-03 23:11:20.64	40.17	20.80	-49.6	-50.8	14.9	0.00e+00	0	29	0	672137216	65	4120
2026-01-03 23:11:21.64	40.32	20.91	-49.5	-50.8	14.9	0.00e+00	0	29	0	675282944	65	4117
2026-01-03 23:11:22.64	40.48	21.02	-49.6	-50.8	14.9	0.00e+00	0	29	0	678428672	65	4119
2026-01-03 23:11:23.64	40.64	21.12	-49.3	-50.5	15.0	0.00e+00	0	29	0	681574400	65	3991
2026-01-03 23:11:24.64	40.80	21.23	-49.2	-50.4	15.0	0.00e+00	0	29	0	684720128	65	3931
2026-01-03 23:11:25.65	40.96	21.34	-49.0	-50.1	15.0	0.00e+00	0	29	0	687865856	64	4045
2026-01-03 23:11:26.64	41.12	21.45	-48.9	-50.0	15.0	0.00e+00	0	29	0	691011584	64	4002
2026-01-03 23:11:27.64	41.28	21.55	-48.8	-50.0	15.1	0.00e+00	0	29	0	694157312	64	3981
2026-01-03 23:11:28.65	41.44	21.66	-48.8	-50.0	15.1	0.00e+00	0	29	0	697303040	64	3976
2026-01-03 23:11:29.65	41.61	21.77	-48.9	-50.1	15.0	0.00e+00	0	29	0	700448768	64	4009
2026-01-03 23:11:30.65	41.78	21.88	-48.9	-50.1	15.0	0.00e+00	0	29	0	703594496	64	4017
2026-01-03 23:11:31.65	41.94	21.99	-49.1	-50.3	15.0	0.00e+00	0	29	0	706740224	64	4106
2026-01-03 23:11:32.65	42.11	22.10	-49.0	-50.2	15.0	0.00e+00	0	29	0	709885952	64	4079
2026-01-03 23:11:33.65	42.28	22.21	-49.1	-50.4	14.9	0.00e+00	0	29	0	713031680	64	4152
2026-01-03 23:11:34.65	42.45	22.32	-49.1	-50.3	15.0	0.00e+00	0	29	0	716177408	64	4130
2026-01-03 23:11:35.64	42.62	22.43	-49.0	-50.2	15.0	0.00e+00	0	29	0	719323136	64	4072
2026-01-03 23:11:36.64	42.79	22.54	-49.0	-50.1	15.1	0.00e+00	0	29	0	722468864	64	4045
2026-01-03 23:11:37.63	42.97	22.65	-48.9	-50.0	15.1	0.00e+00	0	29	0	725614592	64	3997
2026-01-03 23:11:38.62	43.14	22.76	-48.7	-49.9	15.1	0.00e+00	0	29	0	728760320	64	3933
2026-01-03 23:11:39.62	43.31	22.87	-48.7	-49.8	15.0	0.00e+00	0	29	0	731906048	63	4137
2026-01-03 23:11:40.62	43.49	22.98	-48.8	-49.9	15.0	0.00e+00	0	29	0	735051776	63	4177
2026-01-03 23:11:41.62	43.67	23.09	-48.8	-50.0	15.0	0.00e+00	0	29	0	738197504	63	4218
2026-01-03 23:11:42.61	43.85	23.20	-48.9	-50.0	15.0	0.00e+00	0	29	0	741343232	63	4239
2026-01-03 23:11:43.61	44.03	23.31	-49.0	-50.2	14.9	0.00e+00	0	29	0	744488960	63	4320
2026-01-03 23:11:44.60	44.21	23.42	-49.0	-50.2	14.9	0.00e+00	0	29	0	747634688	63	4313
2026-01-03 23:11:45.59	44.39	23.53	-49.0	-50.2	14.9	0.00e+00	0	29	0	750780416	63	4293
2026-01-03 23:11:46.59	44.58	23.65	-48.9	-50.1	15.0	0.00e+00	0	29	0	753926144	63	4256
2026-01-03 23:11:47.58	44.76	23.76	-48.8	-50.0	15.0	0.00e+00	0	29	0	757071872	63	4208
2026-01-03 23:11:48.58	44.95	23.87	-48.7	-49.8	15.0	0.00e+00	0	29	0	760217600	63	4130
2026-01-03 23:11:49.57	45.14	23.98	-48.6	-49.7	15.1	0.00e+00	0	29	0	763363328	63	4071
2026-01-03 23:11:50.57	45.33	24.10	-48.5	-49.6	15.1	0.00e+00	0	29	0	766509056	63	4035
2026-01-03 23:11:51.57	45.52	24.21	-48.5	-49.7	15.1	0.00e+00	0	29	0	769654784	63	4060
2026-01-03 23:11:52.56	45.71	24.32	-48.6	-49.8	15.0	0.00e+00	0	29	0	772800512	63	4114
2026-01-03 23:11:53.56	45.91	24.43	-48.8	-49.9	15.0	0.00e+00	0	29	0	774897664	63	4178
2026-01-03 23:11:54.56	46.10	24.55	-48.8	-50.0	15.0	0.00e+00	0	29	0	778043392	63	4205
2026-01-03 23:11:55.55	46.30	24.66	-48.9	-50.1	15.0	0.00e+00	0	29	0	781189120	63	4262
2026-01-03 23:11:56.55	46.49	24.77	-49.1	-50.3	14.9	0.00e+00	0	29	0	784334848	63	4358
2026-01-03 23:11:57.56	46.70	24.89	-48.8	-50.0	15.0	0.00e+00	0	29	0	787480576	63	4229
2026-01-03 23:11:58.55	46.90	25.00	-48.8	-50.0	15.0	0.00e+00	0	29	0	790626304	63	4227
2026-01-03 23:11:59.55	47.10	25.12	-48.9	-50.0	15.0	0.00e+00	0	29	0	793772032	63	4232
2026-01-03 23:12:00.55	47.30	25.23	-48.8	-50.0	15.0	0.00e+00	0	29	0	796917760	63	4195
2026-01-03 23:12:01.54	47.51	25.34	-48.9	-50.1	15.0	0.00e+00	0	29	0	800063488	63	4245
2026-01-03 23:12:02.54	47.71	25.46	-48.9	-50.0	15.0	0.00e+00	0	29	0	803209216	63	4226
2026-01-03 23:12:03.54	47.92	25.57	-49.1	-50.3	14.9	0.00e+00	0	29	0	806354944	63	4360
2026-01-03 23:12:04.54	48.13	25.69	-49.2	-50.4	14.9	0.00e+00	0	29	0	809500672	63	4426
2026-01-03 23:12:05.54	48.34	25.80	-49.4	-50.6	14.8	0.00e+00	0	29	0	812646400	63	4534
2026-01-03 23:12:06.54	48.56	25.92	-49.6	-50.8	14.8	0.00e+00	0	29	0	815792128	64	4368
2026-01-03 23:12:07.53	48.77	26.03	-49.7	-51.0	14.8	0.00e+00	0	29	0	818937856	64	4454
2026-01-03 23:12:08.53	48.98	26.15	-49.7	-51.0	14.8	0.00e+00	0	29	0	822083584	64	4466
2026-01-03 23:12:09.53	49.20	26.26	-49.8	-51.0	14.7	0.00e+00	0	29	0	825229312	64	4493
2026-01-03 23:12:10.53	49.42	26.38	-49.8	-51.0	14.8	0.00e+00	0	29	0	828375040	64	4475
2026-01-03 23:12:11.53	49.64	26.49	-49.8	-51.0	14.8	0.00e+00	0	29	0	831520768	64	4485
2026-01-03 23:12:12.53	49.86	26.61	-49.6	-50.9	14.8	0.00e+00	0	29	0	834666496	64	4395
2026-01-03 23:12:13.52	50.09	26.72	-49.6	-50.8	14.8	0.00e+00	0	29	0	837812224	64	4390
2026-01-03 23:12:14.52	50.31	26.84	-49.7	-51.0	14.8	0.00e+00	0	29	0	840957952	64	4444
2026-01-03 23:12:15.52	50.54	26.96	-49.8	-51.0	14.8	0.00e+00	0	29	0	844103680	64	4476
2026-01-03 23:12:16.52	50.77	27.07	-49.8	-51.0	14.8	0.00e+00	0	29	0	847249408	64	4472
2026-01-03 23:12:17.51	51.00	27.19	-49.8	-51.1	14.8	0.00e+00	0	29	0	850395136	64	4507
2026-01-03 23:12:18.51	51.23	27.30	-49.8	-51.1	14.9	0.00e+00	0	29	0	853540864	65	4247
2026-01-03 23:12:19.51	51.46	27.42	-49.7	-51.0	14.9	0.00e+00	0	29	0	856686592	65	4207
2026-01-03 23:12:20.51	51.70	27.53	-49.7	-50.9	14.9	0.00e+00	0	29	0	859832320	65	4166
2026-01-03 23:12:21.50	51.93	27.65	-49.5	-50.7	14.9	0.00e+00	0	29	0	862978048	65	4095
2026-01-03 23:12:22.50	52.17	27.76	-49.2	-50.4	15.1	0.00e+00	0	29	0	866123776	65	3939
2026-01-03 23:12:23.49	52.41	27.88	-49.2	-50.4	15.1	0.00e+00	0	29	0	869269504	65	3929
2026-01-03 23:12:24.48	52.65	27.99	-49.4	-50.6	15.0	0.00e+00	0	29	0	872415232	65	4040
2026-01-03 23:12:25.48	52.89	28.11	-49.6	-50.8	14.9	0.00e+00	0	28	0	875560960	65	4122
2026-01-03 23:12:26.48	53.14	28.22	-49.7	-50.9	14.9	0.00e+00	0	29	0	878706688	65	4183
2026-01-03 23:12:27.49	53.39	28.34	-49.6	-50.9	14.9	0.00e+00	0	29	0	881852416	65	4158
2026-01-03 23:12:28.49	53.63	28.45	-49.6	-50.8	14.9	0.00e+00	0	29	0	884998144	65	4137
2026-01-03 23:12:29.48	53.88	28.57	-49.5	-50.7	14.9	0.00e+00	0	29	0	887095296	65	4079
2026-01-03 23:12:30.48	54.13	28.68	-49.5	-50.7	14.9	0.00e+00	0	29	0	890241024	65	4074
2026-01-03 23:12:31.47	54.39	28.80	-49.3	-50.5	15.0	0.00e+00	0	29	0	893386752	65	3993
2026-01-03 23:12:32.47	54.64	28.91	-49.5	-50.7	15.0	0.00e+00	0	29	0	896532480	65	4061
2026-01-03 23:12:33.47	54.90	29.03	-49.5	-50.7	15.0	0.00e+00	0	29	0	899678208	65	4085
2026-01-03 23:12:34.46	55.16	29.14	-49.5	-50.8	14.9	0.00e+00	0	29	0	902823936	65	4102
2026-01-03 23:12:35.47	55.42	29.26	-49.6	-50.9	14.9	0.00e+00	0	29	0	905969664	65	4149
2026-01-03 23:12:36.47	55.68	29.37	-49.6	-50.9	14.9	0.00e+00	0	29	0	909115392	65	4154
2026-01-03 23:12:37.47	55.95	29.48	-49.5	-50.7	15.0	0.00e+00	0	29	0	912261120	65	4095
2026-01-03 23:12:38.47	56.22	29.60	-49.5	-50.7	15.0	0.00e+00	0	29	0	915406848	65	4095
2026-01-03 23:12:39.47	56.48	29.71	-49.4	-50.6	15.0	0.00e+00	0	29	0	918552576	65	4046
2026-01-03 23:12:40.47	56.76	29.82	-49.4	-50.6	15.0	0.00e+00	0	29	0	921698304	65	4005
2026-01-03 23:12:41.46	57.02	29.94	-49.5	-50.6	15.0	0.00e+00	0	29	0	924844032	65	4051
2026-01-03 23:12:42.47	57.30	30.05	-49.5	-50.8	14.9	0.00e+00	0	29	0	927989760	65	4107
2026-01-03 23:12:43.46	57.58	30.16	-49.6	-50.9	14.9	0.00e+00	0	29	0	931135488	65	4148
2026-01-03 23:12:44.47	57.86	30.28	-49.7	-51.0	14.9	0.00e+00	0	29	0	934281216	65	4195
2026-01-03 23:12:45.46	58.13	30.39	-49.8	-51.0	14.9	0.00e+00	0	29	0	937426944	65	4221
2026-01-03 23:12:46.46	58.42	30.50	-49.7	-50.9	14.9	0.00e+00	0	29	0	940572672	65	4193
2026-01-03 23:12:47.46	58.70	30.61	-49.6	-50.8	14.9	0.00e+00	0	29	0	943718400	65	4141
2026-01-03 23:12:48.46	58.99	30.72	-49.6	-50.8	15.0	0.00e+00	0	29	0	946864128	65	4109
2026-01-03 23:12:49.46	59.27	30.83	-49.5	-50.7	15.0	0.00e+00	0	29	0	950009856	65	4060
2026-01-03 23:12:50.46	59.56	30.94	-49.5	-50.7	15.0	0.00e+00	0	29	0	953155584	65	4078
2026-01-03 23:12:51.45	59.85	31.05	-49.6	-50.8	15.0	0.00e+00	0	29	0	956301312	65	4105
2026-01-03 23:12:52.44	60.14	31.16	-49.5	-50.7	15.0	0.00e+00	0	29	0	959447040	65	4058
2026-01-03 23:12:53.44	60.44	31.27	-49.3	-50.5	15.1	0.00e+00	0	29	0	962592768	65	3997
2026-01-03 23:12:54.44	60.74	31.38	-49.4	-50.6	15.0	0.00e+00	0	29	0	965738496	65	4037
2026-01-03 23:12:55.44	61.03	31.49	-49.6	-50.8	15.0	0.00e+00	0	29	0	968884224	65	4121
2026-01-03 23:12:56.43	61.33	31.59	-49.8	-51.0	14.9	0.00e+00	0	29	0	972029952	65	4214
2026-01-03 23:12:57.43	61.64	31.70	-49.8	-51.0	14.9	0.00e+00	0	29	0	975175680	65	4234
2026-01-03 23:12:58.43	61.94	31.81	-49.9	-51.1	14.8	0.00e+00	0	29	0	978321408	65	4288
2026-01-03 23:12:59.42	62.25	31.91	-49.9	-51.2	14.8	0.00e+00	0	29	0	981467136	65	4292
2026-01-03 23:13:00.42	62.56	32.02	-50.0	-51.2	14.8	0.00e+00	0	29	0	984612864	65	4335
2026-01-03 23:13:01.42	62.87	32.12	-49.9	-51.1	14.8	0.00e+00	0	29	0	987758592	65	4279
2026-01-03 23:13:02.42	63.18	32.23	-50.0	-51.3	14.8	0.00e+00	0	29	0	990904320	65	4353
2026-01-03 23:13:03.42	63.50	32.33	-50.1	-51.3	14.8	0.00e+00	0	29	0	994050048	65	4380
2026-01-03 23:13:04.42	63.81	32.44	-50.1	-51.4	14.7	0.00e+00	0	29	0	997195776	65	4400
2026-01-03 23:13:05.41	64.13	32.54	-50.2	-51.5	14.7	0.00e+00	0	29	0	1000341504	65	4466
2026-01-03 23:13:06.42	64.45	32.64	-50.3	-51.6	14.7	0.00e+00	0	29	0	1003487232	65	4538
2026-01-03 23:13:07.42	64.78	32.75	-50.3	-51.6	14.7	0.00e+00	0	29	0	1006632960	65	4538
2026-01-03 23:13:08.42	65.10	32.85	-50.5	-51.8	14.7	0.00e+00	0	29	0	1009778688	66	4348
2026-01-03 23:13:09.42	65.43	32.95	-50.6	-51.9	14.7	0.00e+00	0	29	0	1012924416	66	4432
2026-01-03 23:13:10.42	65.76	33.05	-50.5	-51.8	14.7	0.00e+00	0	29	0	1016070144	66	4349
2026-01-03 23:13:11.42	66.09	33.15	-50.6	-51.9	14.6	0.00e+00	0	29	0	1019215872	66	4409
2026-01-03 23:13:12.42	66.42	33.25	-50.6	-52.0	14.6	0.00e+00	0	29	0	1021313024	66	4442
2026-01-03 23:13:13.41	66.75	33.34	-50.7	-52.0	14.6	0.00e+00	0	29	0	1024458752	66	4471
2026-01-03 23:13:14.40	67.09	33.44	-50.8	-52.2	14.6	0.00e+00	0	29	0	1027604480	66	4558
2026-01-03 23:13:15.40	67.43	33.53	-50.7	-52.1	14.6	0.00e+00	0	29	0	1030750208	66	4494
2026-01-03 23:13:16.39	67.77	33.63	-50.6	-51.9	14.6	0.00e+00	0	29	0	1033895936	66	4428
2026-01-03 23:13:17.39	68.11	33.72	-50.6	-51.9	14.6	0.00e+00	0	29	0	1037041664	66	4415
2026-01-03 23:13:18.39	68.45	33.82	-50.6	-51.9	14.6	0.00e+00	0	29	0	1040187392	66	4423
2026-01-03 23:13:19.39	68.80	33.91	-50.6	-51.9	14.6	0.00e+00	0	29	0	1043333120	66	4435
2026-01-03 23:13:20.39	69.15	34.00	-50.7	-52.0	14.6	0.00e+00	0	29	0	1046478848	66	4474
2026-01-03 23:13:21.38	69.50	34.09	-50.7	-52.0	14.6	0.00e+00	0	29	0	1049624576	66	4468
2026-01-03 23:13:22.38	69.85	34.18	-50.5	-51.9	14.7	0.00e+00	0	29	0	1052770304	66	4395
2026-01-03 23:13:23.37	70.20	34.27	-50.5	-51.7	14.7	0.00e+00	0	29	0	1055916032	66	4334
2026-01-03 23:13:24.37	70.56	34.36	-50.4	-51.7	14.7	0.00e+00	0	29	0	1059061760	66	4320
2026-01-03 23:13:25.37	70.92	34.45	-50.2	-51.5	14.8	0.00e+00	0	29	0	1062207488	66	4205
2026-01-03 23:13:26.36	71.27	34.53	-50.3	-51.5	14.8	0.00e+00	0	29	0	1065353216	66	4233
2026-01-03 23:13:27.36	71.64	34.62	-50.5	-51.8	14.7	0.00e+00	0	29	0	1068498944	66	4358
2026-01-03 23:13:28.36	72.00	34.70	-50.8	-52.1	14.6	0.00e+00	0	29	0	1071644672	66	4518
2026-01-03 23:13:29.36	72.37	34.79	-50.8	-52.1	14.6	0.00e+00	0	29	0	1074790400	66	4511
2026-01-03 23:13:30.36	72.73	34.87	-50.6	-51.9	14.7	0.00e+00	0	29	0	1077936128	66	4429
2026-01-03 23:13:31.35	73.10	34.95	-50.5	-51.8	14.7	0.00e+00	0	29	0	1081081856	66	4372
2026-01-03 23:13:32.36	73.48	35.03	-50.5	-51.8	14.7	0.00e+00	0	29	0	1084227584	66	4343
2026-01-03 23:13:33.36	73.85	35.11	-50.4	-51.6	14.7	0.00e+00	0	29	0	1087373312	66	4285
2026-01-03 23:13:34.36	74.22	35.19	-50.5	-51.8	14.7	0.00e+00	0	29	0	1090519040	66	4373
2026-01-03 23:13:35.35	74.60	35.26	-50.7	-52.0	14.6	0.00e+00	0	29	0	1093664768	66	4463
2026-01-03 23:13:36.35	74.98	35.34	-50.7	-52.0	14.6	0.00e+00	0	29	0	1096810496	66	4478
2026-01-03 23:13:37.35	75.36	35.41	-50.4	-51.7	14.7	0.00e+00	0	29	0	1099956224	66	4334
2026-01-03 23:13:38.36	75.74	35.49	-50.3	-51.6	14.8	0.00e+00	0	29	0	1103101952	66	4263
2026-01-03 23:13:39.36	76.13	35.56	-50.4	-51.7	14.7	0.00e+00	0	29	0	1106247680	66	4300
2026-01-03 23:13:40.36	76.51	35.63	-50.6	-51.9	14.7	0.00e+00	0	29	0	1109393408	66	4415
2026-01-03 23:13:41.36	76.90	35.70	-50.8	-52.1	14.6	0.00e+00	0	29	0	1112539136	66	4530
2026-01-03 23:13:42.35	77.28	35.77	-50.8	-52.2	14.6	0.00e+00	0	29	0	1115684864	66	4580
2026-01-03 23:13:43.35	77.67	35.84	-50.6	-51.9	14.6	0.00e+00	0	29	0	1118830592	66	4439
2026-01-03 23:13:44.35	78.07	35.90	-50.5	-51.8	14.7	0.00e+00	0	29	0	1121976320	66	4355
2026-01-03 23:13:45.35	78.46	35.96	-50.5	-51.8	14.7	0.00e+00	0	29	0	1125122048	66	4378
2026-01-03 23:13:46.35	78.85	36.03	-50.4	-51.7	14.7	0.00e+00	0	29	0	1128267776	66	4318
2026-01-03 23:13:47.35	79.25	36.09	-50.5	-51.8	14.7	0.00e+00	0	29	0	1130364928	66	4361
2026-01-03 23:13:48.34	79.65	36.15	-50.6	-51.9	14.7	0.00e+00	0	29	0	1133510656	66	4416
2026-01-03 23:13:49.33	80.04	36.21	-50.6	-51.9	14.7	0.00e+00	0	29	0	1136656384	66	4402
2026-01-03 23:13:50.32	80.44	36.26	-50.7	-52.0	14.6	0.00e+00	0	29	0	1139802112	66	4484
2026-01-03 23:13:51.32	80.84	36.32	-50.7	-52.0	14.6	0.00e+00	0	29	0	1142947840	66	4490
2026-01-03 23:13:52.32	81.24	36.37	-50.8	-52.1	14.6	0.00e+00	0	29	0	1146093568	66	4535
2026-01-03 23:13:53.32	81.65	36.43	-51.1	-52.5	14.5	0.00e+00	0	29	0	1149239296	67	4459
2026-01-03 23:13:54.31	82.05	36.48	-51.6	-53.1	14.4	0.00e+00	0	29	0	1152385024	68	4498
2026-01-03 23:13:55.31	82.46	36.53	-51.6	-53.0	14.5	0.00e+00	0	29	0	1155530752	68	4481
2026-01-03 23:13:56.32	82.87	36.58	-51.5	-52.9	14.5	0.00e+00	0	29	0	1158676480	68	4414
2026-01-03 23:13:57.31	83.28	36.62	-51.4	-52.8	14.5	0.00e+00	0	29	0	1161822208	68	4385
2026-01-03 23:13:58.30	83.68	36.67	-51.2	-52.5	14.6	0.00e+00	0	29	0	1164967936	68	4242
2026-01-03 23:13:59.30	84.09	36.71	-51.0	-52.3	14.7	0.00e+00	0	29	0	1168113664	68	4140
2026-01-03 23:14:00.30	84.51	36.75	-51.0	-52.4	14.7	0.00e+00	0	29	0	1171259392	68	4148
2026-01-03 23:14:01.29	84.92	36.79	-51.1	-52.5	14.6	0.00e+00	0	29	0	1174405120	68	4195
2026-01-03 23:14:02.28	85.33	36.83	-51.0	-52.3	14.7	0.00e+00	0	29	0	1177550848	68	4130
2026-01-03 23:14:03.28	85.74	36.87	-51.1	-52.5	14.7	0.00e+00	0	29	0	1180696576	68	4201
2026-01-03 23:14:04.28	86.16	36.90	-51.3	-52.6	14.6	0.00e+00	0	29	0	1183842304	68	4288
2026-01-03 23:14:05.28	86.58	36.94	-51.3	-52.6	14.6	0.00e+00	0	29	0	1186988032	68	4290
2026-01-03 23:14:06.27	86.99	36.97	-51.3	-52.7	14.6	0.00e+00	0	29	0	1190133760	68	4311
2026-01-03 23:14:07.27	87.41	37.00	-51.1	-52.5	14.6	0.00e+00	0	29	0	1193279488	68	4219
2026-01-03 23:14:08.27	87.83	37.03	-51.0	-52.3	14.7	0.00e+00	0	29	0	1196425216	68	4128
2026-01-03 23:14:09.27	88.25	37.06	-51.0	-52.3	14.7	0.00e+00	0	29	0	1199570944	68	4125
2026-01-03 23:14:10.27	88.68	37.08	-51.0	-52.4	14.7	0.00e+00	0	29	0	1202716672	68	4161
2026-01-03 23:14:11.27	89.10	37.11	-51.0	-52.4	14.7	0.00e+00	0	29	0	1205862400	68	4151
2026-01-03 23:14:12.26	89.52	37.13	-51.1	-52.4	14.7	0.00e+00	0	29	0	1209008128	68	4171
2026-01-03 23:14:13.26	89.94	37.15	-50.9	-52.2	14.7	0.00e+00	0	29	0	1212153856	68	4085
2026-01-03 23:14:14.26	90.37	37.17	-50.9	-52.2	14.7	0.00e+00	0	29	0	1215299584	68	4085
2026-01-03 23:14:15.26	90.79	37.19	-51.0	-52.3	14.7	0.00e+00	0	29	0	1218445312	68	4124
2026-01-03 23:14:16.26	91.21	37.20	-50.8	-52.1	14.8	0.00e+00	0	29	0	1221591040	68	4039
2026-01-03 23:14:17.27	91.64	37.22	-51.0	-52.3	14.7	0.00e+00	0	29	0	1224736768	68	4115
2026-01-03 23:14:18.27	92.07	37.23	-51.1	-52.4	14.7	0.00e+00	0	29	0	1227882496	68	4183
2026-01-03 23:14:19.27	92.50	37.24	-51.1	-52.4	14.7	0.00e+00	0	29	0	1231028224	68	4177
2026-01-03 23:14:20.28	92.93	37.25	-51.1	-52.5	14.7	0.00e+00	0	29	0	1234173952	68	4218
2026-01-03 23:14:21.28	93.35	37.26	-50.9	-52.2	14.8	0.00e+00	0	29	0	1237319680	68	4083
2026-01-03 23:14:22.28	93.78	37.26	-51.0	-52.3	14.8	0.00e+00	0	29	0	1240465408	68	4113
2026-01-03 23:14:23.28	94.21	37.26	-51.0	-52.3	14.7	0.00e+00	0	29	0	1243611136	68	4118
2026-01-03 23:14:24.28	94.63	37.27	-51.1	-52.5	14.7	0.00e+00	0	29	0	1246756864	68	4197
2026-01-03 23:14:25.28	95.06	37.27	-51.2	-52.6	14.6	0.00e+00	0	29	0	1249902592	68	4274
2026-01-03 23:14:26.28	95.49	37.26	-51.2	-52.5	14.6	0.00e+00	0	29	0	1253048320	68	4223
2026-01-03 23:14:27.28	95.91	37.26	-50.9	-52.3	14.7	0.00e+00	0	29	0	1256194048	68	4099
2026-01-03 23:14:28.28	96.34	37.26	-51.0	-52.3	14.7	0.00e+00	0	29	0	1259339776	68	4143
2026-01-03 23:14:29.27	96.76	37.25	-51.2	-52.6	14.6	0.00e+00	0	29	0	1262485504	68	4255
2026-01-03 23:14:30.28	97.19	37.24	-51.3	-52.7	14.5	0.00e+00	0	29	0	1264582656	68	4315
2026-01-03 23:14:31.28	97.62	37.23	-51.3	-52.7	14.5	0.00e+00	0	29	0	1267728384	68	4314
2026-01-03 23:14:32.28	98.05	37.22	-51.3	-52.7	14.5	0.00e+00	0	29	0	1270874112	68	4303
2026-01-03 23:14:33.28	98.47	37.20	-51.3	-52.7	14.6	0.00e+00	0	29	0	1274019840	68	4320
2026-01-03 23:14:34.29	98.90	37.19	-51.4	-52.8	14.5	0.00e+00	0	29	0	1277165568	68	4346
2026-01-03 23:14:35.28	99.32	37.17	-51.5	-52.9	14.5	0.00e+00	0	29	0	1280311296	68	4424
2026-01-03 23:14:36.29	99.75	37.15	-51.7	-53.2	14.4	0.00e+00	0	29	0	1283457024	68	4559
2026-01-03 23:14:37.29	100.17	37.13	-51.5	-52.9	14.5	0.00e+00	0	29	0	1286602752	68	4397
2026-01-03 23:14:38.29	100.60	37.11	-51.4	-52.8	14.5	0.00e+00	0	29	0	1289748480	68	4384
2026-01-03 23:14:39.29	101.02	37.08	-51.5	-52.9	14.5	0.00e+00	0	29	0	1292894208	68	4415
2026-01-03 23:14:40.29	101.44	37.06	-51.4	-52.8	14.5	0.00e+00	0	29	0	1296039936	68	4379
2026-01-03 23:14:41.29	101.86	37.03	-51.5	-53.0	14.4	0.00e+00	0	29	0	1299185664	68	4447
2026-01-03 23:14:42.29	102.28	37.00	-51.4	-52.8	14.5	0.00e+00	0	29	0	1302331392	68	4341
2026-01-03 23:14:43.29	102.70	36.97	-51.3	-52.7	14.6	0.00e+00	0	29	0	1305477120	68	4316
2026-01-03 23:14:44.29	103.12	36.93	-51.3	-52.7	14.6	0.00e+00	0	29	0	1308622848	68	4307
2026-01-03 23:14:45.29	103.54	36.90	-51.4	-52.8	14.5	0.00e+00	0	29	0	1311768576	68	4376
2026-01-03 23:14:46.28	103.95	36.86	-51.5	-52.9	14.5	0.00e+00	0	29	0	1314914304	68	4434
2026-01-03 23:14:47.28	104.37	36.83	-51.6	-53.0	14.5	0.00e+00	0	29	0	1318060032	68	4487
2026-01-03 23:14:48.28	104.78	36.79	-51.5	-53.0	14.5	0.00e+00	0	29	0	1321205760	68	4454
2026-01-03 23:14:49.27	105.19	36.75	-51.5	-52.9	14.5	0.00e+00	0	29	0	1324351488	68	4421
2026-01-03 23:14:50.27	105.61	36.70	-51.5	-53.0	14.5	0.00e+00	0	29	0	1327497216	68	4460
2026-01-03 23:14:51.26	106.02	36.66	-51.4	-52.8	14.6	0.00e+00	0	29	0	1330642944	68	4351
2026-01-03 23:14:52.27	106.43	36.61	-51.4	-52.8	14.5	0.00e+00	0	29	0	1333788672	68	4343
2026-01-03 23:14:53.26	106.84	36.57	-51.5	-52.9	14.5	0.00e+00	0	29	0	1336934400	68	4411
2026-01-03 23:14:54.26	107.25	36.52	-51.8	-53.3	14.4	0.00e+00	0	29	0	1340080128	68	4603
2026-01-03 23:14:55.26	107.65	36.47	-51.7	-53.2	14.4	0.00e+00	0	29	0	1343225856	68	4572
2026-01-03 23:14:56.26	108.06	36.42	-51.7	-53.2	14.3	0.00e+00	0	29	0	1346371584	68	4563
2026-01-03 23:14:57.25	108.46	36.37	-51.5	-52.9	14.5	0.00e+00	0	29	0	1349517312	68	4423
2026-01-03 23:14:58.24	108.86	36.31	-51.3	-52.7	14.5	0.00e+00	0	29	0	1352663040	68	4324
2026-01-03 23:14:59.24	109.26	36.25	-51.5	-52.9	14.5	0.00e+00	0	29	0	1355808768	68	4410
2026-01-03 23:15:00.24	109.66	36.20	-51.4	-52.9	14.5	0.00e+00	0	29	0	1358954496	68	4394
2026-01-03 23:15:01.23	110.06	36.14	-51.5	-52.9	14.5	0.00e+00	0	29	0	1362100224	68	4416
2026-01-03 23:15:02.23	110.46	36.08	-51.4	-52.8	14.5	0.00e+00	0	29	0	1365245952	68	4375
2026-01-03 23:15:03.22	110.85	36.02	-51.3	-52.7	14.6	0.00e+00	0	29	0	1368391680	68	4313
2026-01-03 23:15:04.23	111.25	35.95	-51.4	-52.8	14.5	0.00e+00	0	29	0	1371537408	68	4358
2026-01-03 23:15:05.22	111.64	35.89	-51.4	-52.8	14.5	0.00e+00	0	29	0	1374683136	68	4350
2026-01-03 23:15:06.22	112.03	35.82	-51.4	-52.8	14.5	0.00e+00	0	29	0	1377828864	68	4346
2026-01-03 23:15:07.22	112.42	35.76	-51.3	-52.7	14.6	0.00e+00	0	29	0	1380974592	68	4307
2026-01-03 23:15:08.23	112.82	35.69	-51.3	-52.7	14.6	0.00e+00	0	29	0	1384120320	68	4315
2026-01-03 23:15:09.23	113.20	35.62	-51.3	-52.7	14.6	0.00e+00	0	29	0	1387266048	68	4308
2026-01-03 23:15:10.22	113.59	35.55	-51.4	-52.8	14.5	0.00e+00	0	29	0	1390411776	68	4351
2026-01-03 23:15:11.21	113.97	35.48	-50.9	-52.2	14.8	0.00e+00	0	29	0	1393557504	68	4074
2026-01-03 23:15:12.21	114.35	35.40	-50.7	-52.0	14.8	0.00e+00	0	29	0	1396703232	68	3995
2026-01-03 23:15:13.21	114.73	35.33	-50.5	-51.8	14.8	0.00e+00	0	29	0	1398800384	67	4103
2026-01-03 23:15:14.20	115.10	35.25	-50.4	-51.7	14.8	0.00e+00	0	29	0	1401946112	67	4068
2026-01-03 23:15:15.20	115.48	35.17	-50.5	-51.8	14.8	0.00e+00	0	29	0	1405091840	67	4119
2026-01-03 23:15:16.20	115.86	35.10	-50.6	-52.0	14.7	0.00e+00	0	29	0	1408237568	67	4198
2026-01-03 23:15:17.19	116.23	35.02	-50.2	-51.5	14.9	0.00e+00	0	29	0	1411383296	67	3978
2026-01-03 23:15:18.18	116.60	34.94	-50.0	-51.2	14.9	0.00e+00	0	29	0	1414529024	66	4067
2026-01-03 23:15:19.17	116.96	34.86	-50.0	-51.3	14.9	0.00e+00	0	29	0	1417674752	66	4099
2026-01-03 23:15:20.18	117.34	34.77	-50.1	-51.4	14.8	0.00e+00	0	29	0	1420820480	66	4158
2026-01-03 23:15:21.17	117.70	34.69	-50.2	-51.4	14.8	0.00e+00	0	29	0	1423966208	66	4185
2026-01-03 23:15:22.17	118.06	34.61	-50.2	-51.4	14.9	0.00e+00	0	29	0	1427111936	66	4178
2026-01-03 23:15:23.17	118.43	34.52	-50.1	-51.4	14.9	0.00e+00	0	29	0	1430257664	66	4158
2026-01-03 23:15:24.17	118.79	34.43	-50.2	-51.5	14.8	0.00e+00	0	29	0	1433403392	66	4210
2026-01-03 23:15:25.17	119.15	34.34	-50.1	-51.3	14.9	0.00e+00	0	29	0	1436549120	66	4120
2026-01-03 23:15:26.17	119.50	34.26	-50.2	-51.4	14.8	0.00e+00	0	29	0	1439694848	66	4173
2026-01-03 23:15:27.17	119.86	34.17	-49.9	-51.2	14.9	0.00e+00	0	29	0	1442840576	66	4064
2026-01-03 23:15:28.17	120.21	34.08	-50.0	-51.2	14.9	0.00e+00	0	29	0	1445986304	66	4063
2026-01-03 23:15:29.17	120.56	33.98	-50.1	-51.4	14.8	0.00e+00	0	29	0	1449132032	66	4154
2026-01-03 23:15:30.17	120.91	33.89	-50.2	-51.5	14.8	0.00e+00	0	29	0	1452277760	66	4208
2026-01-03 23:15:31.17	121.26	33.80	-50.1	-51.4	14.9	0.00e+00	0	29	0	1455423488	66	4161
2026-01-03 23:15:32.17	121.61	33.70	-50.2	-51.5	14.8	0.00e+00	0	29	0	1458569216	66	4207
2026-01-03 23:15:33.17	121.95	33.61	-50.0	-51.3	14.8	0.00e+00	0	29	0	1461714944	66	4121
2026-01-03 23:15:34.17	122.29	33.51	-50.0	-51.2	14.9	0.00e+00	0	29	0	1464860672	66	4086
2026-01-03 23:15:35.17	122.63	33.42	-50.0	-51.3	14.9	0.00e+00	0	29	0	1468006400	66	4108
2026-01-03 23:15:36.18	122.97	33.32	-49.7	-51.0	15.0	0.00e+00	0	29	0	1471152128	66	3959
2026-01-03 23:15:37.18	123.31	33.22	-49.5	-50.7	15.0	0.00e+00	0	29	0	1474297856	65	4060
2026-01-03 23:15:38.19	123.65	33.12	-49.6	-50.8	14.9	0.00e+00	0	29	0	1477443584	65	4133
2026-01-03 23:15:39.19	123.98	33.02	-49.7	-50.9	14.9	0.00e+00	0	29	0	1480589312	65	4166
2026-01-03 23:15:40.19	124.31	32.92	-49.8	-51.1	14.8	0.00e+00	0	29	0	1483735040	65	4256
2026-01-03 23:15:41.19	124.63	32.82	-50.0	-51.3	14.8	0.00e+00	0	29	0	1486880768	65	4350
2026-01-03 23:15:42.19	124.96	32.71	-49.9	-51.2	14.8	0.00e+00	0	29	0	1490026496	65	4307
2026-01-03 23:15:43.19	125.28	32.61	-49.9	-51.1	14.8	0.00e+00	0	29	0	1493172224	65	4282
2026-01-03 23:15:44.18	125.60	32.51	-49.8	-51.0	14.9	0.00e+00	0	29	0	1496317952	65	4238
2026-01-03 23:15:45.18	125.92	32.41	-49.7	-51.0	14.9	0.00e+00	0	29	0	1499463680	65	4210
2026-01-03 23:15:46.18	126.24	32.30	-49.7	-51.0	14.9	0.00e+00	0	29	0	1502609408	65	4208
2026-01-03 23:15:47.18	126.56	32.20	-49.8	-51.0	14.8	0.00e+00	0	29	0	1505755136	65	4237
2026-01-03 23:15:48.18	126.87	32.09	-49.4	-50.6	15.0	0.00e+00	0	29	0	1508900864	65	4031
2026-01-03 23:15:49.18	127.18	31.99	-49.4	-50.6	15.0	0.00e+00	0	29	0	1512046592	65	4037
2026-01-03 23:15:50.17	127.49	31.88	-49.5	-50.8	15.0	0.00e+00	0	29	0	1515192320	65	4099
2026-01-03 23:15:51.16	127.79	31.77	-49.5	-50.7	15.0	0.00e+00	0	29	0	1518338048	65	4058
2026-01-03 23:15:52.16	128.10	31.67	-49.6	-50.8	14.9	0.00e+00	0	29	0	1521483776	65	4140
2026-01-03 23:15:53.15	128.40	31.56	-49.7	-51.0	14.9	0.00e+00	0	29	0	1523580928	65	4210
2026-01-03 23:15:54.15	128.70	31.45	-49.7	-51.0	14.9	0.00e+00	0	29	0	1526726656	65	4200
2026-01-03 23:15:55.14	129.00	31.34	-49.7	-50.9	14.9	0.00e+00	0	29	0	1529872384	65	4168
2026-01-03 23:15:56.13	129.29	31.23	-49.6	-50.8	15.0	0.00e+00	0	29	0	1533018112	65	4122
2026-01-03 23:15:57.13	129.59	31.12	-49.2	-50.4	15.1	0.00e+00	0	29	0	1536163840	65	3927
2026-01-03 23:15:58.13	129.88	31.01	-49.2	-50.4	15.0	0.00e+00	0	29	0	1539309568	64	4154
2026-01-03 23:15:59.12	130.17	30.90	-49.3	-50.4	15.0	0.00e+00	0	29	0	1542455296	64	4183
2026-01-03 23:16:00.11	130.46	30.79	-49.0	-50.2	15.0	0.00e+00	0	29	0	1545601024	64	4082
2026-01-03 23:16:01.11	130.75	30.68	-49.1	-50.3	15.0	0.00e+00	0	29	0	1548746752	64	4128
2026-01-03 23:16:02.10	131.03	30.57	-49.2	-50.3	15.0	0.00e+00	0	29	0	1551892480	64	4132
2026-01-03 23:16:03.10	131.31	30.46	-49.1	-50.3	15.0	0.00e+00	0	29	0	1555038208	64	4119
2026-01-03 23:16:04.10	131.60	30.35	-49.3	-50.5	14.9	0.00e+00	0	29	0	1558183936	64	4227
2026-01-03 23:16:05.09	131.87	30.24	-49.4	-50.6	14.9	0.00e+00	0	29	0	1561329664	64	4262
2026-01-03 23:16:06.10	132.16	30.12	-49.3	-50.5	14.9	0.00e+00	0	29	0	1564475392	64	4234
2026-01-03 23:16:07.09	132.43	30.01	-49.4	-50.6	14.9	0.00e+00	0	29	0	1567621120	64	4280
2026-01-03 23:16:08.10	132.71	29.90	-49.6	-50.8	14.9	0.00e+00	0	29	0	1570766848	64	4355
2026-01-03 23:16:09.09	132.98	29.78	-49.7	-50.9	14.8	0.00e+00	0	29	0	1573912576	64	4412
2026-01-03 23:16:10.10	133.25	29.67	-49.8	-51.1	14.8	0.00e+00	0	29	0	1577058304	64	4515
2026-01-03 23:16:11.10	133.52	29.55	-50.1	-51.3	14.8	0.00e+00	0	29	0	1580204032	65	4390
2026-01-03 23:16:12.10	133.79	29.44	-50.2	-51.5	14.7	0.00e+00	0	29	0	1583349760	65	4463
2026-01-03 23:16:13.10	134.05	29.33	-50.1	-51.4	14.7	0.00e+00	0	29	0	1586495488	65	4424
2026-01-03 23:16:14.09	134.31	29.21	-50.1	-51.4	14.7	0.00e+00	0	29	0	1589641216	65	4395
2026-01-03 23:16:15.08	134.57	29.10	-50.0	-51.3	14.8	0.00e+00	0	29	0	1592786944	65	4348
2026-01-03 23:16:16.08	134.83	28.98	-49.9	-51.1	14.8	0.00e+00	0	29	0	1595932672	65	4279
2026-01-03 23:16:17.07	135.09	28.87	-49.8	-51.0	14.9	0.00e+00	0	29	0	1599078400	65	4242
2026-01-03 23:16:18.07	135.34	28.75	-49.8	-51.0	14.8	0.00e+00	0	29	0	1602224128	65	4241
2026-01-03 23:16:19.06	135.60	28.64	-49.8	-51.0	14.9	0.00e+00	0	29	0	1605369856	65	4223
2026-01-03 23:16:20.04	135.84	28.53	-49.7	-50.9	14.9	0.00e+00	0	29	0	1608515584	65	4158
2026-01-03 23:16:21.04	136.09	28.41	-49.6	-50.8	14.9	0.00e+00	0	29	0	1611661312	65	4143
2026-01-03 23:16:22.05	136.35	28.29	-49.6	-50.8	14.9	0.00e+00	0	29	0	1614807040	65	4108
2026-01-03 23:16:23.05	136.59	28.18	-49.5	-50.7	15.0	0.00e+00	0	29	0	1617952768	65	4065
2026-01-03 23:16:24.05	136.84	28.06	-49.4	-50.6	15.0	0.00e+00	0	29	0	1620049920	65	4029
2026-01-03 23:16:25.05	137.08	27.94	-49.4	-50.6	15.0	0.00e+00	0	29	0	1623195648	65	4022
2026-01-03 23:16:26.05	137.33	27.83	-49.5	-50.8	14.9	0.00e+00	0	29	0	1626341376	65	4099
2026-01-03 23:16:27.05	137.57	27.71	-49.6	-50.8	14.9	0.00e+00	0	29	0	1629487104	65	4123
2026-01-03 23:16:28.05	137.81	27.60	-49.7	-50.9	14.9	0.00e+00	0	29	0	1632632832	65	4176
2026-01-03 23:16:29.05	138.04	27.48	-49.5	-50.7	14.9	0.00e+00	0	29	0	1635778560	65	4092
2026-01-03 23:16:30.05	138.28	27.36	-49.7	-50.9	14.9	0.00e+00	0	29	0	1638924288	65	4175
2026-01-03 23:16:31.04	138.51	27.25	-49.7	-50.9	14.9	0.00e+00	0	29	0	1642070016	65	4173
2026-01-03 23:16:32.04	138.74	27.13	-49.7	-51.0	14.9	0.00e+00	0	29	0	1645215744	65	4213
2026-01-03 23:16:33.04	138.97	27.02	-49.7	-51.0	14.9	0.00e+00	0	29	0	1648361472	65	4199
2026-01-03 23:16:34.03	139.20	26.90	-49.3	-50.5	15.0	0.00e+00	0	29	0	1651507200	65	3967
2026-01-03 23:16:35.03	139.43	26.78	-49.1	-50.3	15.0	0.00e+00	0	29	0	1654652928	64	4133
2026-01-03 23:16:36.03	139.65	26.67	-49.1	-50.2	15.0	0.00e+00	0	29	0	1657798656	64	4097
2026-01-03 23:16:37.02	139.87	26.55	-49.0	-50.1	15.1	0.00e+00	0	29	0	1660944384	64	4037
2026-01-03 23:16:38.03	140.10	26.44	-49.0	-50.2	15.0	0.00e+00	0	29	0	1664090112	64	4068
2026-01-03 23:16:39.02	140.32	26.32	-49.0	-50.2	15.0	0.00e+00	0	29	0	1667235840	64	4081
2026-01-03 23:16:40.02	140.54	26.21	-49.0	-50.2	15.0	0.00e+00	0	29	0	1670381568	64	4068
2026-01-03 23:16:41.01	140.75	26.09	-49.0	-50.2	15.0	0.00e+00	0	29	0	1673527296	64	4052
2026-01-03 23:16:42.02	140.97	25.97	-49.0	-50.2	15.0	0.00e+00	0	29	0	1676673024	64	4076
2026-01-03 23:16:43.02	141.19	25.86	-49.2	-50.4	15.0	0.00e+00	0	29	0	1679818752	64	4150
2026-01-03 23:16:44.01	141.40	25.74	-49.0	-50.2	15.0	0.00e+00	0	29	0	1682964480	64	4068
2026-01-03 23:16:45.01	141.61	25.63	-49.0	-50.2	15.0	0.00e+00	0	29	0	1686110208	64	4084
2026-01-03 23:16:46.01	141.82	25.51	-49.0	-50.2	15.0	0.00e+00	0	29	0	1689255936	64	4061
2026-01-03 23:16:47.01	142.03	25.40	-48.8	-50.0	15.1	0.00e+00	0	29	0	1692401664	64	3977
2026-01-03 23:16:48.01	142.23	25.28	-48.8	-50.0	15.1	0.00e+00	0	29	0	1695547392	64	3983
2026-01-03 23:16:49.00	142.44	25.17	-48.9	-50.1	15.0	0.00e+00	0	29	0	1698693120	64	4024
2026-01-03 23:16:50.00	142.64	25.05	-48.9	-50.1	15.0	0.00e+00	0	29	0	1701838848	64	4035
2026-01-03 23:16:50.99	142.84	24.94	-48.9	-50.1	15.1	0.00e+00	0	29	0	1704984576	64	4016
2026-01-03 23:16:51.98	143.04	24.83	-48.9	-50.0	15.1	0.00e+00	0	29	0	1708130304	64	4004
2026-01-03 23:16:52.98	143.24	24.71	-48.9	-50.0	15.1	0.00e+00	0	29	0	1711276032	64	3992
2026-01-03 23:16:53.98	143.44	24.60	-48.8	-50.0	15.1	0.00e+00	0	29	0	1714421760	64	3982
2026-01-03 23:16:54.97	143.64	24.48	-48.8	-50.0	15.1	0.00e+00	0	29	0	1717567488	64	3978
2026-01-03 23:16:55.97	143.83	24.37	-48.9	-50.0	15.1	0.00e+00	0	29	0	1720713216	64	4002
2026-01-03 23:16:56.96	144.03	24.26	-48.9	-50.1	15.1	0.00e+00	0	29	0	1723858944	64	4007
2026-01-03 23:16:57.96	144.22	24.14	-48.8	-50.0	15.1	0.00e+00	0	29	0	1727004672	64	3959
2026-01-03 23:16:58.96	144.41	24.03	-48.8	-50.0	15.1	0.00e+00	0	29	0	1730150400	64	3970
2026-01-03 23:16:59.96	144.60	23.91	-49.0	-50.1	15.0	0.00e+00	0	29	0	1733296128	64	4044
2026-01-03 23:17:00.94	144.79	23.80	-49.0	-50.2	15.0	0.00e+00	0	29	0	1735393280	64	4077
2026-01-03 23:17:01.94	144.97	23.69	-49.2	-50.4	14.9	0.00e+00	0	29	0	1738539008	64	4156
2026-01-03 23:17:02.93	145.16	23.58	-49.3	-50.5	14.9	0.00e+00	0	29	0	1741684736	64	4204
2026-01-03 23:17:03.94	145.35	23.46	-49.2	-50.4	15.0	0.00e+00	0	29	0	1744830464	64	4168
2026-01-03 23:17:04.93	145.53	23.35	-49.2	-50.4	15.0	0.00e+00	0	29	0	1747976192	64	4155
2026-01-03 23:17:05.91	145.71	23.24	-49.2	-50.4	14.9	0.00e+00	0	29	0	1751121920	64	4193
2026-01-03 23:17:06.91	145.89	23.13	-49.1	-50.3	15.0	0.00e+00	0	29	0	1754267648	64	4140
2026-01-03 23:17:07.91	146.07	23.02	-49.1	-50.3	15.0	0.00e+00	0	29	0	1757413376	64	4126
2026-01-03 23:17:08.90	146.25	22.91	-49.2	-50.4	15.0	0.00e+00	0	29	0	1760559104	64	4167
2026-01-03 23:17:09.90	146.42	22.80	-49.2	-50.4	15.0	0.00e+00	0	29	0	1763704832	64	4174
2026-01-03 23:17:10.90	146.60	22.68	-49.2	-50.4	14.9	0.00e+00	0	29	0	1766850560	64	4181
2026-01-03 23:17:11.89	146.77	22.57	-49.2	-50.4	14.9	0.00e+00	0	29	0	1769996288	64	4179
2026-01-03 23:17:12.90	146.95	22.46	-49.3	-50.6	14.9	0.00e+00	0	29	0	1773142016	64	4251
2026-01-03 23:17:13.89	147.12	22.35	-49.3	-50.6	14.9	0.00e+00	0	29	0	1776287744	64	4247
2026-01-03 23:17:14.90	147.29	22.24	-49.4	-50.6	14.9	0.00e+00	0	29	0	1779433472	64	4285
2026-01-03 23:17:15.89	147.46	22.13	-49.5	-50.7	14.9	0.00e+00	0	29	0	1782579200	64	4318
2026-01-03 23:17:16.89	147.63	22.02	-49.6	-50.9	14.8	0.00e+00	0	29	0	1785724928	64	4415
2026-01-03 23:17:17.89	147.80	21.91	-49.7	-50.9	14.8	0.00e+00	0	29	0	1788870656	64	4437
2026-01-03 23:17:18.89	147.97	21.80	-49.7	-50.9	14.8	0.00e+00	0	29	0	1792016384	64	4440
2026-01-03 23:17:19.89	148.13	21.69	-49.7	-51.0	14.8	0.00e+00	0	29	0	1795162112	64	4463
2026-01-03 23:17:20.89	148.30	21.58	-49.7	-51.0	14.8	0.00e+00	0	29	0	1798307840	64	4461
2026-01-03 23:17:21.89	148.46	21.47	-49.6	-50.9	14.8	0.00e+00	0	29	0	1801453568	64	4417
2026-01-03 23:17:22.88	148.62	21.37	-49.7	-51.0	14.8	0.00e+00	0	29	0	1804599296	64	4449
2026-01-03 23:17:23.88	148.78	21.26	-49.7	-50.9	14.8	0.00e+00	0	29	0	1807745024	64	4429
2026-01-03 23:17:24.87	148.94	21.15	-49.6	-50.9	14.8	0.00e+00	0	29	0	1810890752	64	4414
2026-01-03 23:17:25.88	149.10	21.04	-49.7	-51.0	14.8	0.00e+00	0	29	0	1814036480	64	4457
2026-01-03 23:17:26.87	149.26	20.94	-49.7	-51.0	14.8	0.00e+00	0	29	0	1817182208	64	4481
2026-01-03 23:17:27.87	149.42	20.83	-49.8	-51.1	14.7	0.00e+00	0	29	0	1820327936	64	4513
2026-01-03 23:17:28.87	149.57	20.72	-49.7	-51.0	14.8	0.00e+00	0	29	0	1823473664	64	4467
2026-01-03 23:17:29.87	149.73	20.61	-49.6	-50.9	14.8	0.00e+00	0	29	0	1826619392	64	4399
2026-01-03 23:17:30.87	149.88	20.51	-49.7	-50.9	14.8	0.00e+00	0	29	0	1829765120	64	4434
2026-01-03 23:17:31.86	150.03	20.40	-49.6	-50.8	14.8	0.00e+00	0	29	0	1832910848	64	4364
2026-01-03 23:17:32.87	150.19	20.29	-49.5	-50.7	14.8	0.00e+00	0	29	0	1836056576	64	4315
2026-01-03 23:17:33.86	150.34	20.19	-49.3	-50.5	14.9	0.00e+00	0	29	0	1839202304	64	4213
2026-01-03 23:17:34.86	150.49	20.08	-49.3	-50.5	14.9	0.00e+00	0	29	0	1842348032	64	4224
2026-01-03 23:17:35.86	150.63	19.98	-49.4	-50.6	14.9	0.00e+00	0	29	0	1845493760	64	4259
2026-01-03 23:17:36.85	150.78	19.87	-49.4	-50.6	14.9	0.00e+00	0	29	0	1847590912	64	4291
2026-01-03 23:17:37.85	150.93	19.77	-49.2	-50.4	14.9	0.00e+00	0	29	0	1850736640	64	4183
2026-01-03 23:17:38.85	151.07	19.66	-49.2	-50.4	14.9	0.00e+00	0	29	0	1853882368	64	4190
2026-01-03 23:17:39.85	151.22	19.56	-49.2	-50.4	14.9	0.00e+00	0	29	0	1857028096	64	4169
2026-01-03 23:17:40.85	151.36	19.46	-49.1	-50.3	15.0	0.00e+00	0	29	0	1860173824	64	4109
2026-01-03 23:17:41.85	151.51	19.35	-49.2	-50.4	15.0	0.00e+00	0	29	0	1863319552	64	4147
2026-01-03 23:17:42.84	151.65	19.25	-49.1	-50.3	15.0	0.00e+00	0	29	0	1866465280	64	4138
2026-01-03 23:17:43.84	151.79	19.15	-49.2	-50.4	14.9	0.00e+00	0	29	0	1869611008	64	4191
2026-01-03 23:17:44.84	151.93	19.04	-49.3	-50.5	14.9	0.00e+00	0	29	0	1872756736	64	4229
2026-01-03 23:17:45.84	152.07	18.94	-49.3	-50.5	14.9	0.00e+00	0	29	0	1875902464	64	4235
2026-01-03 23:17:46.83	152.20	18.84	-49.3	-50.6	14.9	0.00e+00	0	29	0	1879048192	64	4245
2026-01-03 23:17:47.83	152.34	18.74	-49.3	-50.5	14.9	0.00e+00	0	29	0	1882193920	64	4241
2026-01-03 23:17:48.82	152.48	18.63	-49.4	-50.7	14.9	0.00e+00	0	29	0	1885339648	64	4296
2026-01-03 23:17:49.82	152.61	18.53	-49.4	-50.6	14.9	0.00e+00	0	29	0	1888485376	64	4268
2026-01-03 23:17:50.81	152.75	18.43	-49.4	-50.6	14.8	0.00e+00	0	29	0	1891631104	64	4278
2026-01-03 23:17:51.81	152.88	18.33	-49.5	-50.7	14.8	0.00e+00	0	29	0	1894776832	64	4316
2026-01-03 23:17:52.81	153.01	18.23	-49.4	-50.6	14.9	0.00e+00	0	29	0	1897922560	64	4271
2026-01-03 23:17:53.80	153.15	18.13	-49.4	-50.6	14.9	0.00e+00	0	29	0	1901068288	64	4272
2026-01-03 23:17:54.79	153.28	18.03	-49.4	-50.7	14.8	0.00e+00	0	29	0	1904214016	64	4296
2026-01-03 23:17:55.79	153.41	17.93	-49.2	-50.4	14.9	0.00e+00	0	29	0	1907359744	64	4153
2026-01-03 23:17:56.78	153.54	17.83	-49.1	-50.3	15.0	0.00e+00	0	29	0	1910505472	64	4108
2026-01-03 23:17:57.78	153.66	17.73	-49.3	-50.5	14.9	0.00e+00	0	29	0	1913651200	64	4209
2026-01-03 23:17:58.78	153.79	17.63	-49.3	-50.6	14.9	0.00e+00	0	29	0	1916796928	64	4244
2026-01-03 23:17:59.77	153.92	17.53	-49.5	-50.7	14.8	0.00e+00	0	29	0	1919942656	64	4336
2026-01-03 23:18:00.77	154.05	17.44	-49.6	-50.9	14.8	0.00e+00	0	29	0	1923088384	64	4406
2026-01-03 23:18:01.76	154.17	17.34	-49.6	-50.8	14.8	0.00e+00	0	29	0	1926234112	64	4377
2026-01-03 23:18:02.77	154.30	17.24	-49.5	-50.8	14.8	0.00e+00	0	29	0	1929379840	64	4370
2026-01-03 23:18:03.76	154.42	17.14	-49.6	-50.9	14.7	0.00e+00	0	29	0	1932525568	64	4426
2026-01-03 23:18:04.76	154.54	17.04	-49.6	-50.9	14.8	0.00e+00	0	29	0	1935671296	64	4392
2026-01-03 23:18:05.76	154.67	16.95	-49.7	-51.0	14.7	0.00e+00	0	29	0	1938817024	64	4455
2026-01-03 23:18:06.76	154.79	16.85	-49.8	-51.1	14.7	0.00e+00	0	29	0	1941962752	64	4499
2026-01-03 23:18:07.76	154.91	16.75	-49.6	-50.9	14.7	0.00e+00	0	29	0	1945108480	64	4418
2026-01-03 23:18:08.75	155.03	16.66	-49.6	-50.9	14.7	0.00e+00	0	29	0	1948254208	64	4427
2026-01-03 23:18:09.75	155.15	16.56	-49.7	-50.9	14.7	0.00e+00	0	29	0	1950351360	64	4436
2026-01-03 23:18:10.76	155.27	16.46	-49.6	-50.9	14.7	0.00e+00	0	29	0	1954545664	64	4422
2026-01-03 23:18:11.76	155.39	16.37	-49.7	-51.0	14.7	0.00e+00	0	29	0	1957691392	64	4472
2026-01-03 23:18:12.76	155.51	16.27	-49.8	-51.1	14.7	0.00e+00	0	29	0	1960837120	64	4498
2026-01-03 23:18:13.75	155.62	16.18	-49.8	-51.1	14.7	0.00e+00	0	29	0	1962934272	64	4533
2026-01-03 23:18:14.75	155.74	16.08	-49.9	-51.2	14.7	0.00e+00	0	29	0	1966080000	64	4548
2026-01-03 23:18:15.76	155.85	15.99	-49.9	-51.2	14.6	0.00e+00	0	29	0	1970274304	64	4584
2026-01-03 23:18:16.75	155.97	15.89	-49.9	-51.2	14.7	0.00e+00	0	29	0	1972371456	65	4331
2026-01-03 23:18:17.75	156.08	15.80	-50.0	-51.3	14.7	0.00e+00	0	29	0	1975517184	65	4356
2026-01-03 23:18:18.75	156.20	15.70	-50.0	-51.3	14.6	0.00e+00	0	29	0	1978662912	65	4383
2026-01-03 23:18:19.75	156.31	15.61	-50.0	-51.4	14.7	0.00e+00	0	29	0	1981808640	65	4394
2026-01-03 23:18:20.74	156.42	15.52	-50.0	-51.4	14.7	0.00e+00	0	29	0	1984954368	65	4397
2026-01-03 23:18:21.75	156.53	15.42	-50.1	-51.4	14.6	0.00e+00	0	29	0	1988100096	65	4427
2026-01-03 23:18:22.75	156.64	15.33	-50.2	-51.6	14.6	0.00e+00	0	29	0	1991245824	65	4503
2026-01-03 23:18:23.75	156.75	15.24	-50.1	-51.5	14.6	0.00e+00	0	29	0	1994391552	65	4444
2026-01-03 23:18:24.74	156.86	15.14	-50.2	-51.6	14.6	0.00e+00	0	29	0	1997537280	65	4498
2026-01-03 23:18:25.74	156.97	15.05	-50.1	-51.4	14.6	0.00e+00	0	29	0	2000683008	65	4409
2026-01-03 23:18:26.74	157.08	14.96	-50.0	-51.3	14.7	0.00e+00	0	29	0	2003828736	65	4378
2026-01-03 23:18:27.74	157.18	14.87	-50.1	-51.4	14.6	0.00e+00	0	29	0	2006974464	65	4408
2026-01-03 23:18:28.74	157.29	14.78	-50.1	-51.4	14.6	0.00e+00	0	29	0	2010120192	65	4414
2026-01-03 23:18:29.74	157.40	14.69	-50.1	-51.5	14.6	0.00e+00	0	29	0	2013265920	65	4466
2026-01-03 23:18:30.73	157.50	14.60	-50.2	-51.6	14.6	0.00e+00	0	29	0	2016411648	65	4511
2026-01-03 23:18:31.73	157.61	14.50	-50.1	-51.5	14.6	0.00e+00	0	29	0	2019557376	65	4465
2026-01-03 23:18:32.73	157.71	14.41	-50.2	-51.6	14.6	0.00e+00	0	29	0	2022703104	65	4494
2026-01-03 23:18:33.74	157.82	14.32	-50.2	-51.5	14.6	0.00e+00	0	29	0	2025848832	65	4488
2026-01-03 23:18:34.73	157.92	14.23	-50.3	-51.6	14.5	0.00e+00	0	29	0	2028994560	65	4530
2026-01-03 23:18:35.73	158.02	14.14	-50.2	-51.6	14.6	0.00e+00	0	29	0	2032140288	65	4518
2026-01-03 23:18:36.73	158.12	14.05	-50.3	-51.6	14.5	0.00e+00	0	29	0	2035286016	65	4542
2026-01-03 23:18:37.71	158.22	13.97	-50.2	-51.6	14.6	0.00e+00	0	29	0	2038431744	65	4503
2026-01-03 23:18:38.71	158.32	13.88	-50.3	-51.6	14.5	0.00e+00	0	29	0	2041577472	65	4535
2026-01-03 23:18:39.72	158.43	13.79	-50.3	-51.7	14.5	0.00e+00	0	29	0	2044723200	65	4561
2026-01-03 23:18:40.72	158.52	13.70	-50.3	-51.7	14.5	0.00e+00	0	29	0	2047868928	65	4558
2026-01-03 23:18:41.72	158.62	13.61	-50.3	-51.7	14.5	0.00e+00	0	29	0	2051014656	65	4583
2026-01-03 23:18:42.71	158.72	13.52	-50.3	-51.7	14.5	0.00e+00	0	29	0	2054160384	65	4564
2026-01-03 23:18:43.71	158.82	13.44	-50.3	-51.7	14.5	0.00e+00	0	29	0	2057306112	65	4557
2026-01-03 23:18:44.71	158.92	13.35	-50.4	-51.8	14.5	0.00e+00	0	29	0	2060451840	65	4628
2026-01-03 23:18:45.70	159.01	13.26	-50.3	-51.7	14.6	0.00e+00	0	29	0	2063597568	66	4320
2026-01-03 23:18:46.70	159.11	13.18	-50.4	-51.8	14.6	0.00e+00	0	29	0	2066743296	66	4345
2026-01-03 23:18:47.70	159.21	13.09	-50.3	-51.7	14.6	0.00e+00	0	29	0	2069889024	66	4317
2026-01-03 23:18:48.70	159.30	13.00	-50.3	-51.7	14.5	0.00e+00	0	29	0	2073034752	66	4325
2026-01-03 23:18:49.69	159.39	12.92	-50.3	-51.7	14.6	0.00e+00	0	29	0	2076180480	66	4324
2026-01-03 23:18:50.69	159.49	12.83	-50.4	-51.7	14.6	0.00e+00	0	29	0	2079326208	66	4329
2026-01-03 23:18:51.69	159.58	12.74	-50.4	-51.7	14.6	0.00e+00	0	29	0	2082471936	66	4335
2026-01-03 23:18:52.68	159.67	12.66	-50.4	-51.7	14.6	0.00e+00	0	29	0	2084569088	66	4329
