passes_logs/2026/01/03/R3.2S_Murmansk/R3.2S_Murmansk__20260103_221719_NOAA_20_JPSS-1_rec.log

#Pass ID: 20260103_221719_NOAA 20 (JPSS-1)
#Satellite: NOAA 20 (JPSS-1)
#Configuration: NOAA 20
#almurnet v.1.7.20251203
#Start time: 2026-01-03 22:17:19

#Version: 2.2.20231116
#Station: R3.2S_Murmansk
#Location: 33.079688 lon 68.888172 lat
#TLE: 1 43013U 17073A   26003.41800368  .00000169  00000+0  10117-3 0  9998
#TLE: 2 43013  98.7624 304.4804 0001884  56.1176 304.0179 14.19532918421092

#Time	Az	El	Level	Level2	SNR	BER	BlckErr	Temp	State	Recorded	gain1	gain2
2026-01-03 22:17:19.21	18.75	1.99	-58.9	-74.9	3.8	1.49e+00	0	27	0	0	84	22162
2026-01-03 22:17:20.21	18.82	2.05	-58.7	-74.7	3.8	1.49e+00	0	27	104	0	82	24195
2026-01-03 22:17:21.21	18.89	2.10	-58.7	-74.6	3.8	1.49e+00	0	27	104	0	82	24096
2026-01-03 22:17:22.21	18.96	2.16	-58.7	-74.6	3.8	1.49e+00	0	27	104	0	82	24031
2026-01-03 22:17:23.21	19.04	2.21	-58.7	-74.6	3.8	1.49e+00	0	27	104	0	82	24066
2026-01-03 22:17:24.21	19.11	2.27	-58.7	-74.6	3.8	1.49e+00	0	27	104	0	82	24019
2026-01-03 22:17:25.22	19.18	2.32	-58.7	-74.6	3.8	1.49e+00	0	27	104	0	82	24123
2026-01-03 22:17:26.21	19.25	2.38	-58.7	-74.7	3.8	1.49e+00	0	27	104	0	82	24193
2026-01-03 22:17:27.21	19.33	2.43	-58.7	-74.7	3.8	1.49e+00	0	27	104	0	82	24337
2026-01-03 22:17:28.21	19.40	2.49	-58.7	-74.8	3.8	1.49e+00	0	27	104	0	82	24520
2026-01-03 22:17:29.20	19.47	2.54	-58.7	-74.7	3.8	1.49e+00	0	27	104	0	82	24384
2026-01-03 22:17:30.20	19.55	2.60	-58.7	-74.7	3.8	1.49e+00	0	27	104	0	82	24265
2026-01-03 22:17:31.20	19.62	2.65	-58.7	-74.6	3.8	1.49e+00	0	27	104	0	82	24119
2026-01-03 22:17:32.19	19.69	2.71	-58.7	-74.6	3.8	1.49e+00	0	27	104	0	82	24042
2026-01-03 22:17:33.19	19.77	2.76	-58.7	-74.6	3.8	1.49e+00	0	27	104	0	82	23933
2026-01-03 22:17:34.19	19.84	2.82	-58.7	-74.6	3.8	1.49e+00	0	27	104	0	82	24111
2026-01-03 22:17:35.19	19.92	2.87	-58.7	-74.6	3.8	1.49e+00	0	27	104	0	82	24104
2026-01-03 22:17:36.19	19.99	2.93	-58.7	-74.6	3.8	1.49e+00	0	27	104	0	82	24079
2026-01-03 22:17:37.19	20.07	2.98	-58.7	-74.6	3.8	1.49e+00	0	27	104	0	82	23870
2026-01-03 22:17:38.20	20.14	3.04	-58.7	-74.4	3.8	1.49e+00	0	27	104	0	82	23556
2026-01-03 22:17:39.20	20.22	3.10	-58.7	-74.1	3.8	1.49e+00	0	27	104	0	82	22744
2026-01-03 22:17:40.20	20.30	3.15	-58.7	-73.6	3.8	1.49e+00	0	27	104	0	82	21458
2026-01-03 22:17:41.20	20.37	3.21	-58.7	-73.5	3.8	1.49e+00	0	27	104	0	82	21188
2026-01-03 22:17:42.20	20.45	3.26	-58.6	-73.3	3.8	1.49e+00	0	27	104	0	82	20674
2026-01-03 22:17:43.21	20.53	3.32	-58.6	-73.0	3.8	1.49e+00	0	28	104	0	82	19922
2026-01-03 22:17:44.21	20.61	3.38	-58.6	-73.0	3.8	1.49e+00	0	27	104	0	82	19892
2026-01-03 22:17:45.22	20.68	3.43	-58.6	-72.9	3.8	1.49e+00	0	28	104	0	82	19736
2026-01-03 22:17:46.22	20.76	3.49	-58.6	-72.5	3.9	1.49e+00	0	28	104	0	82	18763
2026-01-03 22:17:47.21	20.84	3.55	-58.6	-71.9	3.9	1.47e+00	0	28	104	0	82	17557
2026-01-03 22:17:48.22	20.92	3.60	-58.5	-71.3	4.2	1.43e+00	0	28	0	0	82	16318
2026-01-03 22:17:49.21	21.00	3.66	-58.5	-70.3	4.5	1.32e+00	17	28	0	0	82	14577
2026-01-03 22:17:50.22	21.08	3.72	-58.4	-69.6	4.7	8.47e-01	0	28	0	2097152	82	13514
2026-01-03 22:17:51.22	21.16	3.77	-58.4	-68.8	5.1	6.28e-01	0	28	0	4194304	82	12370
2026-01-03 22:17:52.23	21.24	3.83	-58.3	-68.7	5.2	5.93e-01	0	28	0	5242880	82	12119
2026-01-03 22:17:53.23	21.32	3.89	-58.3	-68.1	5.5	4.40e-01	0	28	0	7340032	82	11356
2026-01-03 22:17:54.22	21.40	3.94	-58.3	-68.3	5.4	4.14e-01	0	28	0	9437184	82	11631
2026-01-03 22:17:55.22	21.48	4.00	-58.3	-67.9	5.6	4.28e-01	0	28	0	11534336	82	11127
2026-01-03 22:17:56.23	21.56	4.06	-58.1	-67.1	6.1	3.24e-01	0	28	0	13631488	82	10156
2026-01-03 22:17:57.22	21.64	4.11	-57.9	-65.7	7.2	1.89e-01	0	28	0	14680064	82	8596
2026-01-03 22:17:58.22	21.72	4.17	-57.5	-64.0	8.7	2.84e-02	0	28	0	16777216	81	7460
2026-01-03 22:17:59.22	21.80	4.23	-57.0	-62.2	10.2	3.00e-03	0	28	0	18874368	80	6443
2026-01-03 22:18:00.22	21.88	4.29	-56.5	-61.1	11.0	3.94e-04	0	28	0	20971520	79	6029
2026-01-03 22:18:01.22	21.97	4.34	-56.0	-59.8	11.9	4.65e-05	0	28	0	22020096	78	5515
2026-01-03 22:18:02.22	22.05	4.40	-55.5	-58.9	12.4	0.00e+00	0	28	0	24117248	77	5279
2026-01-03 22:18:03.23	22.13	4.46	-55.0	-58.1	12.9	0.00e+00	0	28	0	26214400	76	5093
2026-01-03 22:18:04.22	22.22	4.52	-54.8	-57.8	13.1	0.00e+00	0	28	0	28311552	76	4900
2026-01-03 22:18:05.22	22.30	4.57	-54.5	-57.3	13.3	0.00e+00	0	28	0	30408704	75	4886
2026-01-03 22:18:06.23	22.38	4.63	-54.7	-57.6	13.1	0.00e+00	0	28	0	31457280	75	5081
2026-01-03 22:18:07.23	22.47	4.69	-55.3	-58.7	12.5	0.00e+00	0	28	0	33554432	75	5744
2026-01-03 22:18:08.23	22.55	4.75	-55.7	-59.3	12.2	0.00e+00	0	28	0	35651584	76	5813
2026-01-03 22:18:09.22	22.64	4.81	-56.1	-60.1	11.7	5.30e-06	0	28	0	37748736	77	6018
2026-01-03 22:18:10.22	22.72	4.86	-56.7	-61.5	10.7	9.91e-05	0	28	0	39845888	78	6688
2026-01-03 22:18:11.23	22.81	4.92	-57.2	-63.0	9.5	9.26e-04	0	28	0	40894464	79	7462
2026-01-03 22:18:12.23	22.89	4.98	-57.5	-64.1	8.5	1.42e-02	0	28	0	42991616	80	8063
2026-01-03 22:18:13.24	22.98	5.04	-57.7	-64.9	7.8	5.49e-02	0	28	0	45088768	80	8799
2026-01-03 22:18:14.24	23.07	5.10	-55.3	-58.6	12.6	6.80e-06	0	28	0	47185920	76	5362
2026-01-03 22:18:15.24	23.15	5.16	-56.3	-60.6	11.4	7.00e-07	0	28	0	49283072	77	6378
2026-01-03 22:18:16.23	23.24	5.22	-58.4	-68.9	5.0	7.10e-01	0	28	0	50331648	82	12514
2026-01-03 22:18:17.24	23.33	5.27	-57.1	-62.6	9.7	2.64e-02	0	28	0	52428800	80	6740
2026-01-03 22:18:18.23	23.42	5.33	-57.8	-64.4	8.4	8.64e-04	0	28	0	54525952	81	7824
2026-01-03 22:18:19.23	23.50	5.39	-56.2	-60.2	11.8	9.10e-06	0	28	0	56623104	79	5429
2026-01-03 22:18:20.24	23.59	5.45	-56.0	-59.8	12.0	6.10e-06	0	28	0	57671680	78	5490
2026-01-03 22:18:21.23	23.68	5.51	-55.8	-59.3	12.3	0.00e+00	0	28	0	59768832	78	5211
2026-01-03 22:18:22.23	23.77	5.57	-55.6	-59.0	12.5	7.00e-07	0	28	0	61865984	77	5313
2026-01-03 22:18:23.23	23.86	5.63	-55.2	-58.3	12.9	0.00e+00	0	28	0	63963136	77	4910
2026-01-03 22:18:24.23	23.95	5.69	-54.9	-57.8	13.2	0.00e+00	0	28	0	66060288	76	4878
2026-01-03 22:18:25.22	24.04	5.75	-55.0	-57.9	13.1	0.00e+00	0	28	0	67108864	76	4959
2026-01-03 22:18:26.21	24.13	5.80	-55.1	-58.1	13.0	0.00e+00	0	28	0	69206016	76	5098
2026-01-03 22:18:27.21	24.22	5.86	-54.9	-57.7	13.2	0.00e+00	0	28	0	71303168	76	4863
2026-01-03 22:18:28.21	24.31	5.92	-54.7	-57.5	13.4	0.00e+00	0	28	0	73400320	76	4737
2026-01-03 22:18:29.20	24.40	5.98	-54.6	-57.3	13.4	0.00e+00	0	28	0	74448896	75	4899
2026-01-03 22:18:30.20	24.49	6.04	-54.5	-57.1	13.5	0.00e+00	0	28	0	76546048	75	4797
2026-01-03 22:18:31.20	24.58	6.10	-54.4	-57.1	13.6	0.00e+00	0	28	0	78643200	75	4765
2026-01-03 22:18:32.19	24.68	6.16	-54.4	-57.1	13.5	0.00e+00	0	28	0	80740352	75	4765
2026-01-03 22:18:33.19	24.77	6.22	-54.4	-57.0	13.6	0.00e+00	0	28	0	82837504	75	4758
2026-01-03 22:18:34.19	24.86	6.28	-54.4	-57.1	13.6	0.00e+00	0	28	0	83886080	75	4763
2026-01-03 22:18:35.19	24.96	6.34	-54.5	-57.2	13.5	0.00e+00	0	28	0	85983232	75	4839
2026-01-03 22:18:36.19	25.05	6.40	-54.4	-57.0	13.6	0.00e+00	0	28	0	88080384	75	4741
2026-01-03 22:18:37.18	25.14	6.46	-54.4	-57.0	13.6	0.00e+00	0	28	0	90177536	75	4753
2026-01-03 22:18:38.18	25.24	6.52	-54.6	-57.3	13.4	0.00e+00	0	28	0	92274688	75	4891
2026-01-03 22:18:39.18	25.33	6.58	-54.6	-57.2	13.5	0.00e+00	0	28	0	93323264	75	4867
2026-01-03 22:18:40.18	25.43	6.64	-54.6	-57.3	13.5	0.00e+00	0	28	0	95420416	75	4901
2026-01-03 22:18:41.17	25.52	6.70	-54.6	-57.2	13.4	0.00e+00	0	28	0	97517568	75	4870
2026-01-03 22:18:42.18	25.62	6.76	-54.6	-57.3	13.4	0.00e+00	0	28	0	99614720	75	4915
2026-01-03 22:18:43.18	25.72	6.82	-54.6	-57.3	13.4	0.00e+00	0	28	0	101711872	75	4923
2026-01-03 22:18:44.17	25.81	6.88	-54.6	-57.3	13.5	0.00e+00	0	28	0	102760448	75	4893
2026-01-03 22:18:45.17	25.91	6.95	-54.6	-57.3	13.4	0.00e+00	0	28	0	104857600	75	4917
2026-01-03 22:18:46.17	26.01	7.01	-54.7	-57.4	13.4	0.00e+00	0	28	0	106954752	75	4951
2026-01-03 22:18:47.17	26.11	7.07	-54.6	-57.2	13.5	0.00e+00	0	28	0	109051904	75	4866
2026-01-03 22:18:48.17	26.21	7.13	-54.5	-57.2	13.6	0.00e+00	0	28	0	110100480	75	4822
2026-01-03 22:18:49.17	26.31	7.19	-54.5	-57.1	13.6	0.00e+00	0	28	0	112197632	75	4765
2026-01-03 22:18:50.18	26.41	7.25	-54.6	-57.2	13.5	0.00e+00	0	28	0	114294784	75	4845
2026-01-03 22:18:51.18	26.51	7.31	-54.6	-57.2	13.5	0.00e+00	0	28	0	116391936	75	4836
2026-01-03 22:18:52.17	26.61	7.37	-54.6	-57.2	13.5	0.00e+00	0	28	0	118489088	75	4833
2026-01-03 22:18:53.17	26.71	7.44	-54.5	-57.1	13.6	0.00e+00	0	28	0	119537664	75	4814
2026-01-03 22:18:54.17	26.81	7.50	-54.6	-57.2	13.5	0.00e+00	0	28	0	121634816	75	4850
2026-01-03 22:18:55.17	26.91	7.56	-54.6	-57.3	13.5	0.00e+00	0	28	0	123731968	75	4886
2026-01-03 22:18:56.16	27.01	7.62	-54.6	-57.2	13.5	0.00e+00	0	28	0	125829120	75	4855
2026-01-03 22:18:57.17	27.11	7.68	-54.5	-57.0	13.7	0.00e+00	0	28	0	127926272	75	4749
2026-01-03 22:18:58.18	27.22	7.74	-54.5	-57.1	13.6	0.00e+00	0	28	0	128974848	75	4785
2026-01-03 22:18:59.17	27.32	7.81	-54.4	-56.9	13.7	0.00e+00	0	28	0	131072000	75	4705
2026-01-03 22:19:00.17	27.42	7.87	-54.3	-56.7	13.8	0.00e+00	0	28	0	133169152	75	4588
2026-01-03 22:19:01.17	27.53	7.93	-54.3	-56.8	13.8	0.00e+00	0	28	0	135266304	75	4599
2026-01-03 22:19:02.17	27.63	7.99	-54.3	-56.7	13.8	0.00e+00	0	29	0	136314880	75	4594
2026-01-03 22:19:03.17	27.73	8.05	-54.3	-56.8	13.8	0.00e+00	0	29	0	138412032	75	4624
2026-01-03 22:19:04.17	27.84	8.12	-54.2	-56.7	13.8	0.00e+00	0	28	0	140509184	75	4565
2026-01-03 22:19:05.16	27.94	8.18	-54.2	-56.6	13.8	0.00e+00	0	29	0	142606336	74	4797
2026-01-03 22:19:06.16	28.05	8.24	-54.1	-56.4	13.9	0.00e+00	0	29	0	144703488	74	4697
2026-01-03 22:19:07.17	28.16	8.30	-54.0	-56.4	14.0	0.00e+00	0	28	0	145752064	74	4661
2026-01-03 22:19:08.16	28.26	8.37	-54.0	-56.3	13.9	0.00e+00	0	28	0	147849216	74	4648
2026-01-03 22:19:09.16	28.37	8.43	-54.0	-56.3	14.0	0.00e+00	0	28	0	149946368	74	4637
2026-01-03 22:19:10.16	28.48	8.49	-54.1	-56.4	13.9	0.00e+00	0	29	0	152043520	74	4670
2026-01-03 22:19:11.16	28.59	8.55	-54.0	-56.4	13.9	0.00e+00	0	28	0	154140672	74	4663
2026-01-03 22:19:12.17	28.70	8.62	-54.1	-56.4	14.0	0.00e+00	0	28	0	155189248	74	4677
2026-01-03 22:19:13.17	28.81	8.68	-54.0	-56.4	13.9	0.00e+00	0	29	0	157286400	74	4662
2026-01-03 22:19:14.16	28.91	8.74	-54.0	-56.3	14.0	0.00e+00	0	29	0	159383552	74	4616
2026-01-03 22:19:15.15	29.02	8.81	-54.0	-56.3	14.0	0.00e+00	0	29	0	161480704	74	4634
2026-01-03 22:19:16.16	29.13	8.87	-54.0	-56.3	14.0	0.00e+00	0	28	0	162529280	74	4636
2026-01-03 22:19:17.16	29.25	8.93	-54.0	-56.2	14.0	0.00e+00	0	28	0	164626432	74	4590
2026-01-03 22:19:18.16	29.36	9.00	-54.0	-56.3	14.0	0.00e+00	0	29	0	166723584	74	4605
2026-01-03 22:19:19.16	29.47	9.06	-54.0	-56.2	14.0	0.00e+00	0	29	0	168820736	74	4590
2026-01-03 22:19:20.16	29.58	9.12	-53.8	-56.1	14.1	0.00e+00	0	29	0	170917888	74	4502
2026-01-03 22:19:21.17	29.69	9.19	-53.8	-56.0	14.1	0.00e+00	0	29	0	171966464	74	4465
2026-01-03 22:19:22.16	29.81	9.25	-53.9	-56.1	14.1	0.00e+00	0	29	0	174063616	74	4541
2026-01-03 22:19:23.15	29.92	9.31	-53.8	-56.0	14.2	0.00e+00	0	29	0	176160768	74	4453
2026-01-03 22:19:24.15	30.03	9.38	-53.6	-55.8	14.2	0.00e+00	0	29	0	178257920	73	4616
2026-01-03 22:19:25.15	30.15	9.44	-53.6	-55.7	14.2	0.00e+00	0	28	0	180355072	73	4585
2026-01-03 22:19:26.14	30.26	9.50	-53.6	-55.8	14.2	0.00e+00	0	29	0	181403648	73	4617
2026-01-03 22:19:27.14	30.38	9.57	-53.6	-55.7	14.2	0.00e+00	0	29	0	183500800	73	4579
2026-01-03 22:19:28.14	30.49	9.63	-53.6	-55.7	14.2	0.00e+00	0	29	0	185597952	73	4586
2026-01-03 22:19:29.13	30.61	9.70	-53.6	-55.7	14.2	0.00e+00	0	29	0	187695104	73	4589
2026-01-03 22:19:30.12	30.73	9.76	-53.6	-55.7	14.2	0.00e+00	0	29	0	188743680	73	4580
2026-01-03 22:19:31.12	30.84	9.82	-53.6	-55.8	14.2	0.00e+00	0	29	0	190840832	73	4620
2026-01-03 22:19:32.11	30.96	9.89	-53.6	-55.7	14.2	0.00e+00	0	29	0	192937984	73	4574
2026-01-03 22:19:33.10	31.08	9.95	-53.6	-55.8	14.2	0.00e+00	0	29	0	195035136	73	4610
2026-01-03 22:19:34.10	31.20	10.02	-53.7	-55.8	14.2	0.00e+00	0	29	0	197132288	73	4649
2026-01-03 22:19:35.10	31.32	10.08	-53.7	-55.9	14.1	0.00e+00	0	29	0	198180864	73	4666
2026-01-03 22:19:36.09	31.44	10.14	-53.7	-55.9	14.2	0.00e+00	0	29	0	200278016	73	4681
2026-01-03 22:19:37.09	31.56	10.21	-53.7	-55.9	14.1	0.00e+00	0	28	0	202375168	73	4683
2026-01-03 22:19:38.09	31.68	10.27	-53.7	-55.8	14.2	0.00e+00	0	29	0	204472320	73	4641
2026-01-03 22:19:39.09	31.80	10.34	-53.8	-55.9	14.1	0.00e+00	0	28	0	205520896	73	4704
2026-01-03 22:19:40.09	31.92	10.40	-53.7	-55.8	14.2	0.00e+00	0	29	0	207618048	73	4626
2026-01-03 22:19:41.08	32.04	10.47	-53.7	-55.9	14.2	0.00e+00	0	29	0	209715200	73	4663
2026-01-03 22:19:42.07	32.16	10.53	-53.7	-55.8	14.2	0.00e+00	0	29	0	211812352	73	4643
2026-01-03 22:19:43.07	32.29	10.60	-53.6	-55.8	14.2	0.00e+00	0	29	0	213909504	73	4615
2026-01-03 22:19:44.07	32.41	10.66	-53.5	-55.7	14.3	0.00e+00	0	29	0	214958080	73	4553
2026-01-03 22:19:45.07	32.54	10.73	-53.6	-55.7	14.2	0.00e+00	0	29	0	217055232	73	4581
2026-01-03 22:19:46.07	32.66	10.79	-53.6	-55.7	14.3	0.00e+00	0	29	0	219152384	73	4567
2026-01-03 22:19:47.07	32.79	10.86	-53.6	-55.7	14.2	0.00e+00	0	29	0	221249536	73	4592
2026-01-03 22:19:48.08	32.92	10.92	-53.6	-55.7	14.3	0.00e+00	0	29	0	223346688	73	4572
2026-01-03 22:19:49.08	33.04	10.99	-53.6	-55.7	14.2	0.00e+00	0	29	0	224395264	73	4594
2026-01-03 22:19:50.08	33.17	11.05	-53.5	-55.6	14.3	0.00e+00	0	29	0	226492416	73	4496
2026-01-03 22:19:51.08	33.30	11.12	-53.4	-55.5	14.3	0.00e+00	0	29	0	228589568	73	4469
2026-01-03 22:19:52.08	33.43	11.18	-53.5	-55.6	14.3	0.00e+00	0	29	0	230686720	73	4529
2026-01-03 22:19:53.09	33.56	11.25	-53.6	-55.7	14.3	0.00e+00	0	29	0	232783872	73	4559
2026-01-03 22:19:54.09	33.69	11.32	-53.4	-55.5	14.4	0.00e+00	0	29	0	233832448	73	4457
2026-01-03 22:19:55.09	33.82	11.38	-53.6	-55.7	14.3	0.00e+00	0	29	0	235929600	73	4550
2026-01-03 22:19:56.10	33.95	11.45	-53.4	-55.4	14.4	0.00e+00	0	29	0	238026752	73	4414
2026-01-03 22:19:57.10	34.08	11.51	-53.2	-55.2	14.4	0.00e+00	0	29	0	240123904	73	4339
2026-01-03 22:19:58.09	34.21	11.58	-53.3	-55.4	14.4	0.00e+00	0	29	0	241172480	73	4396
2026-01-03 22:19:59.09	34.34	11.64	-53.3	-55.3	14.4	0.00e+00	0	29	0	243269632	73	4359
2026-01-03 22:20:00.09	34.48	11.71	-53.3	-55.3	14.4	0.00e+00	0	29	0	245366784	73	4377
2026-01-03 22:20:01.09	34.61	11.78	-53.3	-55.3	14.5	0.00e+00	0	29	0	247463936	73	4354
2026-01-03 22:20:02.10	34.75	11.84	-53.3	-55.2	14.5	0.00e+00	0	29	0	249561088	73	4332
2026-01-03 22:20:03.10	34.88	11.91	-53.2	-55.2	14.5	0.00e+00	0	29	0	250609664	73	4321
2026-01-03 22:20:04.10	35.02	11.97	-53.2	-55.1	14.4	0.00e+00	0	29	0	252706816	72	4524
2026-01-03 22:20:05.09	35.15	12.04	-53.1	-55.1	14.5	0.00e+00	0	29	0	254803968	72	4505
2026-01-03 22:20:06.09	35.29	12.11	-53.2	-55.2	14.4	0.00e+00	0	29	0	256901120	72	4547
2026-01-03 22:20:07.08	35.42	12.17	-53.1	-55.0	14.5	0.00e+00	0	29	0	258998272	72	4468
2026-01-03 22:20:08.07	35.56	12.24	-53.1	-55.1	14.5	0.00e+00	0	29	0	260046848	72	4516
2026-01-03 22:20:09.07	35.70	12.30	-53.2	-55.1	14.5	0.00e+00	0	29	0	262144000	72	4521
2026-01-03 22:20:10.07	35.84	12.37	-53.2	-55.2	14.4	0.00e+00	0	29	0	264241152	72	4554
2026-01-03 22:20:11.06	35.97	12.43	-53.2	-55.2	14.4	0.00e+00	0	29	0	266338304	72	4558
2026-01-03 22:20:12.06	36.11	12.50	-53.3	-55.3	14.4	0.00e+00	0	29	0	267386880	72	4604
2026-01-03 22:20:13.07	36.26	12.57	-53.3	-55.3	14.4	0.00e+00	0	29	0	269484032	72	4646
2026-01-03 22:20:14.07	36.40	12.63	-53.3	-55.3	14.4	0.00e+00	0	29	0	271581184	72	4619
2026-01-03 22:20:15.06	36.54	12.70	-53.4	-55.4	14.3	0.00e+00	0	29	0	273678336	72	4681
2026-01-03 22:20:16.06	36.68	12.77	-53.4	-55.4	14.3	0.00e+00	0	29	0	275775488	72	4696
2026-01-03 22:20:17.06	36.82	12.83	-53.2	-55.2	14.4	0.00e+00	0	28	0	276824064	72	4551
2026-01-03 22:20:18.06	36.97	12.90	-53.1	-55.0	14.5	0.00e+00	0	29	0	278921216	72	4477
2026-01-03 22:20:19.06	37.11	12.97	-53.1	-55.0	14.5	0.00e+00	0	29	0	281018368	72	4486
2026-01-03 22:20:20.05	37.26	13.03	-53.1	-55.0	14.5	0.00e+00	0	29	0	283115520	72	4462
2026-01-03 22:20:21.05	37.40	13.10	-53.1	-55.0	14.5	0.00e+00	0	29	0	284164096	72	4474
2026-01-03 22:20:22.04	37.55	13.16	-53.1	-55.0	14.5	0.00e+00	0	29	0	286261248	72	4478
2026-01-03 22:20:23.04	37.69	13.23	-53.2	-55.2	14.5	0.00e+00	0	29	0	288358400	72	4563
2026-01-03 22:20:24.04	37.84	13.30	-53.2	-55.2	14.4	0.00e+00	0	29	0	290455552	72	4579
2026-01-03 22:20:25.04	37.99	13.36	-53.3	-55.2	14.4	0.00e+00	0	29	0	292552704	72	4592
2026-01-03 22:20:26.03	38.14	13.43	-53.3	-55.3	14.4	0.00e+00	0	29	0	293601280	72	4615
2026-01-03 22:20:27.03	38.29	13.50	-53.3	-55.3	14.4	0.00e+00	0	29	0	295698432	72	4628
2026-01-03 22:20:28.02	38.43	13.56	-53.3	-55.3	14.4	0.00e+00	0	29	0	297795584	72	4630
2026-01-03 22:20:29.02	38.59	13.63	-53.3	-55.3	14.4	0.00e+00	0	29	0	299892736	72	4613
2026-01-03 22:20:30.02	38.74	13.69	-53.2	-55.1	14.5	0.00e+00	0	29	0	301989888	72	4526
2026-01-03 22:20:31.02	38.89	13.76	-53.1	-55.0	14.5	0.00e+00	0	29	0	303038464	72	4492
2026-01-03 22:20:32.02	39.04	13.83	-53.1	-55.0	14.6	0.00e+00	0	29	0	305135616	72	4459
2026-01-03 22:20:33.02	39.19	13.89	-53.1	-55.0	14.5	0.00e+00	0	29	0	307232768	72	4453
2026-01-03 22:20:34.02	39.35	13.96	-53.2	-55.1	14.5	0.00e+00	0	29	0	309329920	72	4523
2026-01-03 22:20:35.02	39.50	14.03	-53.2	-55.1	14.5	0.00e+00	0	29	0	311427072	72	4515
2026-01-03 22:20:36.02	39.66	14.09	-53.0	-54.9	14.6	0.00e+00	0	29	0	312475648	72	4419
2026-01-03 22:20:37.02	39.82	14.16	-53.0	-54.9	14.6	0.00e+00	0	29	0	314572800	72	4424
2026-01-03 22:20:38.01	39.97	14.23	-53.1	-55.0	14.5	0.00e+00	0	28	0	316669952	72	4454
2026-01-03 22:20:39.01	40.13	14.29	-53.1	-55.0	14.6	0.00e+00	0	29	0	318767104	72	4460
2026-01-03 22:20:40.01	40.29	14.36	-53.2	-55.1	14.5	0.00e+00	0	29	0	319815680	72	4534
2026-01-03 22:20:41.00	40.44	14.42	-53.2	-55.1	14.5	0.00e+00	0	29	0	321912832	72	4510
2026-01-03 22:20:42.01	40.60	14.49	-53.1	-55.0	14.5	0.00e+00	0	29	0	324009984	72	4482
2026-01-03 22:20:43.01	40.77	14.56	-53.1	-55.0	14.6	0.00e+00	0	29	0	326107136	72	4449
2026-01-03 22:20:44.02	40.93	14.63	-53.1	-55.0	14.5	0.00e+00	0	29	0	328204288	72	4491
2026-01-03 22:20:45.02	41.09	14.69	-53.2	-55.2	14.5	0.00e+00	0	29	0	329252864	72	4551
2026-01-03 22:20:46.02	41.25	14.76	-53.3	-55.2	14.4	0.00e+00	0	29	0	331350016	72	4594
2026-01-03 22:20:47.01	41.41	14.82	-53.3	-55.3	14.4	0.00e+00	0	29	0	333447168	72	4619
2026-01-03 22:20:48.01	41.58	14.89	-53.4	-55.4	14.4	0.00e+00	0	29	0	335544320	72	4657
2026-01-03 22:20:49.01	41.74	14.96	-53.2	-55.1	14.5	0.00e+00	0	29	0	336592896	72	4540
2026-01-03 22:20:50.01	41.91	15.02	-53.2	-55.1	14.5	0.00e+00	0	29	0	338690048	72	4526
2026-01-03 22:20:51.01	42.07	15.09	-53.2	-55.2	14.5	0.00e+00	0	29	0	340787200	72	4553
2026-01-03 22:20:52.02	42.24	15.16	-53.2	-55.2	14.5	0.00e+00	0	29	0	342884352	72	4551
2026-01-03 22:20:53.02	42.41	15.22	-53.2	-55.1	14.5	0.00e+00	0	29	0	344981504	72	4543
2026-01-03 22:20:54.02	42.58	15.29	-53.2	-55.1	14.5	0.00e+00	0	29	0	346030080	72	4513
2026-01-03 22:20:55.03	42.75	15.35	-53.1	-55.0	14.5	0.00e+00	0	29	0	348127232	72	4485
2026-01-03 22:20:56.03	42.92	15.42	-53.1	-55.0	14.5	0.00e+00	0	29	0	350224384	72	4475
2026-01-03 22:20:57.03	43.09	15.49	-53.1	-55.0	14.5	0.00e+00	0	29	0	352321536	72	4488
2026-01-03 22:20:58.03	43.26	15.55	-53.1	-55.0	14.5	0.00e+00	0	29	0	354418688	72	4472
2026-01-03 22:20:59.03	43.43	15.62	-53.1	-55.0	14.6	0.00e+00	0	29	0	355467264	72	4453
2026-01-03 22:21:00.04	43.60	15.68	-53.0	-54.9	14.6	0.00e+00	0	29	0	357564416	72	4418
2026-01-03 22:21:01.04	43.78	15.75	-53.0	-54.9	14.6	0.00e+00	0	29	0	359661568	72	4423
2026-01-03 22:21:02.04	43.95	15.82	-52.8	-54.7	14.7	0.00e+00	0	29	0	361758720	72	4295
2026-01-03 22:21:03.04	44.12	15.88	-52.8	-54.7	14.7	0.00e+00	0	29	0	363855872	72	4294
2026-01-03 22:21:04.03	44.30	15.95	-52.8	-54.6	14.7	0.00e+00	0	29	0	364904448	72	4275
2026-01-03 22:21:05.03	44.47	16.01	-52.8	-54.6	14.7	0.00e+00	0	29	0	367001600	72	4265
2026-01-03 22:21:06.03	44.65	16.08	-52.8	-54.6	14.8	0.00e+00	0	29	0	369098752	72	4250
2026-01-03 22:21:07.03	44.83	16.14	-52.7	-54.5	14.8	0.00e+00	0	29	0	371195904	72	4235
2026-01-03 22:21:08.04	45.01	16.21	-52.6	-54.3	14.8	0.00e+00	0	29	0	373293056	71	4377
2026-01-03 22:21:09.04	45.19	16.27	-52.6	-54.4	14.7	0.00e+00	0	29	0	374341632	71	4408
2026-01-03 22:21:10.04	45.37	16.34	-52.5	-54.2	14.8	0.00e+00	0	29	0	376438784	71	4303
2026-01-03 22:21:11.05	45.55	16.40	-52.4	-54.1	14.9	0.00e+00	0	29	0	378535936	71	4245
2026-01-03 22:21:12.04	45.73	16.47	-52.3	-54.0	14.9	0.00e+00	0	29	0	380633088	71	4205
2026-01-03 22:21:13.04	45.91	16.53	-52.4	-54.1	14.9	0.00e+00	0	29	0	381681664	71	4247
2026-01-03 22:21:14.05	46.10	16.60	-52.1	-53.8	15.0	0.00e+00	0	29	0	383778816	70	4368
2026-01-03 22:21:15.05	46.28	16.66	-52.1	-53.8	14.9	0.00e+00	0	29	0	385875968	70	4367
2026-01-03 22:21:16.05	46.47	16.73	-52.1	-53.8	14.9	0.00e+00	0	29	0	387973120	70	4360
2026-01-03 22:21:17.05	46.65	16.79	-52.1	-53.8	14.9	0.00e+00	0	29	0	390070272	70	4358
2026-01-03 22:21:18.05	46.84	16.85	-52.1	-53.7	14.9	0.00e+00	0	29	0	391118848	70	4326
2026-01-03 22:21:19.05	47.02	16.92	-52.0	-53.7	14.9	0.00e+00	0	29	0	393216000	70	4299
2026-01-03 22:21:20.06	47.21	16.98	-52.1	-53.7	14.9	0.00e+00	0	29	0	395313152	70	4316
2026-01-03 22:21:21.06	47.40	17.05	-52.1	-53.8	14.9	0.00e+00	0	29	0	397410304	70	4354
2026-01-03 22:21:22.06	47.59	17.11	-52.1	-53.8	14.9	0.00e+00	0	29	0	399507456	70	4347
2026-01-03 22:21:23.06	47.78	17.17	-52.1	-53.8	14.9	0.00e+00	0	29	0	400556032	70	4357
2026-01-03 22:21:24.06	47.97	17.24	-52.2	-53.9	14.8	0.00e+00	0	29	0	402653184	70	4397
2026-01-03 22:21:25.06	48.16	17.30	-52.2	-53.8	14.9	0.00e+00	0	29	0	404750336	70	4372
2026-01-03 22:21:26.06	48.35	17.36	-52.1	-53.8	14.9	0.00e+00	0	29	0	406847488	70	4372
2026-01-03 22:21:27.06	48.55	17.43	-52.1	-53.8	14.9	0.00e+00	0	29	0	408944640	70	4354
2026-01-03 22:21:28.06	48.74	17.49	-52.2	-53.9	14.9	0.00e+00	0	28	0	409993216	70	4392
2026-01-03 22:21:29.06	48.94	17.55	-52.2	-53.8	14.8	0.00e+00	0	29	0	412090368	70	4381
2026-01-03 22:21:30.05	49.13	17.61	-52.1	-53.7	14.9	0.00e+00	0	29	0	414187520	70	4329
2026-01-03 22:21:31.05	49.33	17.68	-52.1	-53.7	14.9	0.00e+00	0	29	0	416284672	70	4334
2026-01-03 22:21:32.04	49.52	17.74	-52.1	-53.7	14.9	0.00e+00	0	29	0	417333248	70	4323
2026-01-03 22:21:33.02	49.71	17.80	-52.3	-54.0	14.8	0.00e+00	0	29	0	419430400	70	4454
2026-01-03 22:21:34.02	49.91	17.86	-52.5	-54.2	14.7	0.00e+00	0	29	0	421527552	70	4581
2026-01-03 22:21:35.02	50.11	17.92	-52.5	-54.3	14.7	0.00e+00	0	29	0	423624704	70	4616
2026-01-03 22:21:36.02	50.31	17.98	-52.7	-54.5	14.6	0.00e+00	0	29	0	425721856	70	4710
2026-01-03 22:21:37.01	50.51	18.04	-52.7	-54.5	14.6	0.00e+00	0	29	0	426770432	70	4741
2026-01-03 22:21:38.01	50.71	18.11	-52.7	-54.5	14.6	0.00e+00	0	29	0	428867584	70	4746
2026-01-03 22:21:39.00	50.91	18.17	-52.7	-54.5	14.6	0.00e+00	0	29	0	430964736	70	4710
2026-01-03 22:21:40.00	51.12	18.23	-52.7	-54.4	14.6	0.00e+00	0	29	0	433061888	70	4702
2026-01-03 22:21:40.99	51.32	18.29	-52.7	-54.5	14.6	0.00e+00	0	29	0	434110464	70	4709
2026-01-03 22:21:41.99	51.52	18.35	-52.7	-54.4	14.6	0.00e+00	0	29	0	436207616	70	4683
2026-01-03 22:21:42.99	51.73	18.41	-52.7	-54.5	14.6	0.00e+00	0	29	0	438304768	70	4730
2026-01-03 22:21:43.99	51.94	18.47	-52.9	-54.7	14.6	0.00e+00	0	29	0	440401920	70	4827
2026-01-03 22:21:44.99	52.14	18.53	-53.0	-54.8	14.6	0.00e+00	0	29	0	442499072	71	4640
2026-01-03 22:21:45.98	52.35	18.59	-53.1	-55.0	14.5	0.00e+00	0	29	0	443547648	71	4738
2026-01-03 22:21:46.99	52.56	18.65	-53.2	-55.1	14.5	0.00e+00	0	29	0	445644800	71	4802
2026-01-03 22:21:47.99	52.77	18.70	-53.3	-55.2	14.4	0.00e+00	0	29	0	447741952	71	4851
2026-01-03 22:21:48.98	52.98	18.76	-53.3	-55.3	14.4	0.00e+00	0	29	0	449839104	71	4883
2026-01-03 22:21:49.98	53.19	18.82	-53.3	-55.2	14.4	0.00e+00	0	29	0	451936256	71	4855
2026-01-03 22:21:50.98	53.40	18.88	-53.4	-55.3	14.4	0.00e+00	0	29	0	452984832	71	4893
2026-01-03 22:21:51.98	53.61	18.94	-53.4	-55.3	14.5	0.00e+00	0	29	0	455081984	72	4641
2026-01-03 22:21:52.98	53.83	19.00	-53.4	-55.4	14.4	0.00e+00	0	29	0	457179136	72	4668
2026-01-03 22:21:53.98	54.04	19.05	-53.5	-55.5	14.4	0.00e+00	0	29	0	459276288	72	4729
2026-01-03 22:21:54.98	54.26	19.11	-53.7	-55.8	14.3	0.00e+00	0	29	0	460324864	72	4890
2026-01-03 22:21:55.99	54.47	19.17	-53.9	-55.9	14.2	0.00e+00	0	29	0	462422016	72	4976
2026-01-03 22:21:57.00	54.69	19.23	-54.0	-56.2	14.2	0.00e+00	0	29	0	464519168	73	4829
2026-01-03 22:21:57.99	54.91	19.28	-54.2	-56.4	14.1	0.00e+00	0	29	0	466616320	73	4949
2026-01-03 22:21:58.99	55.13	19.34	-54.2	-56.5	14.0	0.00e+00	0	29	0	468713472	73	4988
2026-01-03 22:21:59.99	55.35	19.39	-54.3	-56.5	14.0	0.00e+00	0	29	0	469762048	73	5023
2026-01-03 22:22:00.99	55.57	19.45	-54.2	-56.4	14.1	0.00e+00	0	29	0	471859200	73	4970
2026-01-03 22:22:01.99	55.79	19.51	-54.1	-56.2	14.2	0.00e+00	0	29	0	473956352	73	4867
2026-01-03 22:22:02.99	56.01	19.56	-54.0	-56.1	14.2	0.00e+00	0	29	0	476053504	73	4795
2026-01-03 22:22:03.99	56.23	19.62	-54.0	-56.1	14.2	0.00e+00	0	29	0	478150656	73	4788
2026-01-03 22:22:04.99	56.45	19.67	-53.9	-56.0	14.3	0.00e+00	0	29	0	479199232	73	4746
2026-01-03 22:22:05.99	56.68	19.72	-53.9	-56.0	14.3	0.00e+00	0	29	0	481296384	73	4752
2026-01-03 22:22:07.00	56.90	19.78	-54.1	-56.2	14.1	0.00e+00	0	29	0	483393536	73	4836
2026-01-03 22:22:08.00	57.13	19.83	-54.2	-56.4	14.1	0.00e+00	0	29	0	485490688	73	4939
2026-01-03 22:22:08.98	57.35	19.89	-54.4	-56.6	14.0	0.00e+00	0	29	0	487587840	73	5087
2026-01-03 22:22:09.98	57.58	19.94	-54.5	-56.8	14.0	0.00e+00	0	29	0	488636416	74	4896
2026-01-03 22:22:10.98	57.81	19.99	-54.4	-56.7	14.0	0.00e+00	0	29	0	490733568	74	4846
2026-01-03 22:22:11.98	58.03	20.04	-54.3	-56.5	14.1	0.00e+00	0	29	0	492830720	74	4748
2026-01-03 22:22:12.98	58.26	20.10	-54.3	-56.5	14.1	0.00e+00	0	29	0	494927872	74	4714
2026-01-03 22:22:13.97	58.49	20.15	-54.0	-56.1	14.3	0.00e+00	0	29	0	495976448	74	4502
2026-01-03 22:22:14.97	58.72	20.20	-53.9	-56.0	14.4	0.00e+00	0	29	0	498073600	74	4457
2026-01-03 22:22:15.97	58.95	20.25	-53.9	-55.9	14.4	0.00e+00	0	29	0	500170752	74	4416
2026-01-03 22:22:16.97	59.19	20.30	-53.5	-55.5	14.5	0.00e+00	0	29	0	502267904	73	4460
2026-01-03 22:22:17.97	59.42	20.35	-53.4	-55.3	14.6	0.00e+00	0	29	0	504365056	73	4375
2026-01-03 22:22:18.96	59.65	20.40	-53.6	-55.5	14.5	0.00e+00	0	29	0	505413632	73	4489
2026-01-03 22:22:19.96	59.88	20.45	-53.7	-55.7	14.4	0.00e+00	0	29	0	507510784	73	4557
2026-01-03 22:22:20.96	60.12	20.50	-53.9	-55.9	14.3	0.00e+00	0	29	0	509607936	73	4694
2026-01-03 22:22:21.97	60.36	20.55	-53.9	-56.0	14.3	0.00e+00	0	29	0	511705088	73	4753
2026-01-03 22:22:22.97	60.59	20.60	-53.9	-56.1	14.3	0.00e+00	0	29	0	513802240	73	4764
2026-01-03 22:22:23.97	60.83	20.64	-53.8	-55.9	14.3	0.00e+00	0	29	0	514850816	73	4675
2026-01-03 22:22:24.97	61.07	20.69	-53.7	-55.7	14.4	0.00e+00	0	29	0	516947968	73	4594
2026-01-03 22:22:25.97	61.31	20.74	-53.6	-55.5	14.5	0.00e+00	0	29	0	519045120	73	4491
2026-01-03 22:22:26.97	61.55	20.78	-53.6	-55.6	14.5	0.00e+00	0	29	0	521142272	73	4494
2026-01-03 22:22:27.97	61.79	20.83	-53.5	-55.4	14.5	0.00e+00	0	29	0	522190848	73	4431
2026-01-03 22:22:28.97	62.03	20.88	-53.6	-55.5	14.5	0.00e+00	0	29	0	524288000	73	4484
2026-01-03 22:22:29.96	62.27	20.92	-53.6	-55.6	14.5	0.00e+00	0	29	0	526385152	73	4525
2026-01-03 22:22:30.96	62.51	20.97	-53.7	-55.7	14.4	0.00e+00	0	29	0	528482304	73	4577
2026-01-03 22:22:31.95	62.75	21.01	-53.7	-55.7	14.4	0.00e+00	0	29	0	530579456	73	4550
2026-01-03 22:22:32.95	63.00	21.06	-53.6	-55.6	14.4	0.00e+00	0	29	0	531628032	73	4533
2026-01-03 22:22:33.94	63.24	21.10	-53.7	-55.7	14.4	0.00e+00	0	29	0	533725184	73	4564
2026-01-03 22:22:34.94	63.48	21.14	-53.8	-55.8	14.3	0.00e+00	0	29	0	535822336	73	4642
2026-01-03 22:22:35.94	63.73	21.19	-53.7	-55.7	14.4	0.00e+00	0	29	0	537919488	73	4580
2026-01-03 22:22:36.93	63.97	21.23	-53.6	-55.6	14.4	0.00e+00	0	29	0	538968064	73	4524
2026-01-03 22:22:37.93	64.22	21.27	-53.5	-55.5	14.5	0.00e+00	0	29	0	541065216	73	4456
2026-01-03 22:22:38.93	64.47	21.31	-53.5	-55.5	14.5	0.00e+00	0	29	0	543162368	73	4456
2026-01-03 22:22:39.93	64.72	21.35	-53.6	-55.5	14.5	0.00e+00	0	29	0	545259520	73	4486
2026-01-03 22:22:40.93	64.96	21.39	-53.5	-55.5	14.5	0.00e+00	0	29	0	547356672	73	4476
2026-01-03 22:22:41.93	65.21	21.43	-53.5	-55.5	14.5	0.00e+00	0	29	0	548405248	73	4457
2026-01-03 22:22:42.93	65.46	21.47	-53.6	-55.5	14.5	0.00e+00	0	29	0	550502400	73	4484
2026-01-03 22:22:43.93	65.72	21.51	-53.3	-55.2	14.6	0.00e+00	0	29	0	552599552	73	4327
2026-01-03 22:22:44.93	65.97	21.55	-53.3	-55.2	14.6	0.00e+00	0	29	0	554696704	73	4322
2026-01-03 22:22:45.94	66.22	21.59	-53.1	-54.9	14.7	0.00e+00	0	29	0	556793856	72	4415
2026-01-03 22:22:46.93	66.47	21.63	-52.9	-54.6	14.8	0.00e+00	0	29	0	557842432	72	4280
2026-01-03 22:22:47.93	66.73	21.66	-52.7	-54.4	14.9	0.00e+00	0	29	0	559939584	72	4192
2026-01-03 22:22:48.93	66.98	21.70	-52.7	-54.4	14.9	0.00e+00	0	29	0	562036736	72	4174
2026-01-03 22:22:49.93	67.23	21.74	-52.7	-54.5	14.8	0.00e+00	0	29	0	564133888	72	4210
2026-01-03 22:22:50.93	67.49	21.77	-52.8	-54.6	14.8	0.00e+00	0	29	0	566231040	72	4266
2026-01-03 22:22:51.93	67.74	21.81	-52.9	-54.7	14.7	0.00e+00	0	29	0	567279616	72	4321
2026-01-03 22:22:52.93	68.00	21.84	-53.0	-54.8	14.7	0.00e+00	0	29	0	569376768	72	4343
2026-01-03 22:22:53.93	68.26	21.88	-53.0	-54.8	14.7	0.00e+00	0	29	0	571473920	72	4342
2026-01-03 22:22:54.93	68.52	21.91	-53.0	-54.7	14.7	0.00e+00	0	29	0	573571072	72	4340
2026-01-03 22:22:55.94	68.78	21.94	-52.9	-54.7	14.7	0.00e+00	0	29	0	574619648	72	4331
2026-01-03 22:22:56.94	69.03	21.98	-52.9	-54.7	14.7	0.00e+00	0	29	0	576716800	72	4317
2026-01-03 22:22:57.94	69.29	22.01	-52.9	-54.7	14.7	0.00e+00	0	29	0	578813952	72	4332
2026-01-03 22:22:58.94	69.55	22.04	-53.0	-54.7	14.7	0.00e+00	0	29	0	580911104	72	4337
2026-01-03 22:22:59.94	69.81	22.07	-52.9	-54.7	14.7	0.00e+00	0	29	0	583008256	72	4307
2026-01-03 22:23:00.94	70.07	22.10	-53.1	-54.9	14.7	0.00e+00	0	29	0	584056832	72	4402
2026-01-03 22:23:01.94	70.33	22.13	-53.2	-55.0	14.6	0.00e+00	0	29	0	586153984	72	4463
2026-01-03 22:23:02.93	70.59	22.16	-53.4	-55.3	14.5	0.00e+00	0	29	0	588251136	72	4601
2026-01-03 22:23:03.94	70.86	22.19	-53.4	-55.3	14.5	0.00e+00	0	29	0	590348288	72	4637
2026-01-03 22:23:04.94	71.12	22.21	-53.5	-55.4	14.4	0.00e+00	0	29	0	592445440	72	4701
2026-01-03 22:23:05.95	71.39	22.24	-53.6	-55.5	14.4	0.00e+00	0	29	0	593494016	72	4744
2026-01-03 22:23:06.95	71.65	22.27	-53.5	-55.5	14.4	0.00e+00	0	29	0	595591168	72	4729
2026-01-03 22:23:07.95	71.91	22.30	-53.5	-55.4	14.5	0.00e+00	0	29	0	597688320	72	4682
2026-01-03 22:23:08.94	72.17	22.32	-53.6	-55.5	14.4	0.00e+00	0	29	0	599785472	72	4749
2026-01-03 22:23:09.95	72.44	22.35	-53.6	-55.5	14.4	0.00e+00	0	29	0	601882624	72	4759
2026-01-03 22:23:10.94	72.70	22.37	-53.5	-55.5	14.4	0.00e+00	0	29	0	602931200	72	4708
2026-01-03 22:23:11.94	72.97	22.39	-53.4	-55.3	14.5	0.00e+00	0	29	0	605028352	72	4645
2026-01-03 22:23:12.94	73.24	22.42	-53.4	-55.3	14.5	0.00e+00	0	29	0	607125504	72	4640
2026-01-03 22:23:13.93	73.50	22.44	-53.5	-55.4	14.5	0.00e+00	0	29	0	609222656	72	4682
2026-01-03 22:23:14.94	73.77	22.46	-53.5	-55.5	14.4	0.00e+00	0	29	0	610271232	72	4739
2026-01-03 22:23:15.93	74.03	22.48	-53.6	-55.6	14.4	0.00e+00	0	29	0	612368384	72	4781
2026-01-03 22:23:16.94	74.30	22.50	-53.6	-55.6	14.4	0.00e+00	0	29	0	614465536	72	4769
2026-01-03 22:23:17.95	74.57	22.53	-53.4	-55.3	14.5	0.00e+00	0	29	0	616562688	72	4623
2026-01-03 22:23:18.95	74.84	22.54	-53.3	-55.2	14.6	0.00e+00	0	29	0	618659840	72	4547
2026-01-03 22:23:19.95	75.11	22.56	-53.2	-55.1	14.6	0.00e+00	0	29	0	619708416	72	4494
2026-01-03 22:23:20.95	75.38	22.58	-53.1	-54.9	14.7	0.00e+00	0	29	0	621805568	72	4420
2026-01-03 22:23:21.95	75.65	22.60	-53.0	-54.8	14.7	0.00e+00	0	29	0	623902720	72	4367
2026-01-03 22:23:22.96	75.92	22.62	-53.1	-54.9	14.7	0.00e+00	0	29	0	625999872	72	4421
2026-01-03 22:23:23.96	76.19	22.63	-53.2	-55.1	14.6	0.00e+00	0	29	0	628097024	72	4520
2026-01-03 22:23:24.96	76.46	22.65	-53.3	-55.1	14.6	0.00e+00	0	29	0	629145600	72	4543
2026-01-03 22:23:25.96	76.73	22.66	-53.5	-55.4	14.5	0.00e+00	0	29	0	631242752	72	4677
2026-01-03 22:23:26.96	77.00	22.68	-53.5	-55.4	14.5	0.00e+00	0	29	0	633339904	72	4692
2026-01-03 22:23:27.96	77.27	22.69	-53.6	-55.5	14.4	0.00e+00	0	29	0	635437056	72	4754
2026-01-03 22:23:28.96	77.54	22.71	-53.6	-55.6	14.4	0.00e+00	0	29	0	637534208	72	4788
2026-01-03 22:23:29.96	77.81	22.72	-53.3	-55.2	14.5	0.00e+00	0	29	0	638582784	72	4597
2026-01-03 22:23:30.95	78.08	22.73	-53.1	-54.9	14.7	0.00e+00	0	29	0	640679936	72	4432
2026-01-03 22:23:31.95	78.35	22.74	-53.0	-54.8	14.7	0.00e+00	0	29	0	642777088	72	4346
2026-01-03 22:23:32.95	78.63	22.75	-52.7	-54.5	14.8	0.00e+00	0	29	0	644874240	72	4207
2026-01-03 22:23:33.95	78.90	22.76	-52.7	-54.5	14.9	0.00e+00	0	29	0	645922816	72	4205
2026-01-03 22:23:34.95	79.17	22.77	-52.8	-54.5	14.8	0.00e+00	0	29	0	648019968	72	4208
2026-01-03 22:23:35.94	79.44	22.78	-52.9	-54.7	14.8	0.00e+00	0	29	0	650117120	72	4326
2026-01-03 22:23:36.93	79.71	22.79	-53.0	-54.9	14.7	0.00e+00	0	29	0	652214272	72	4394
2026-01-03 22:23:37.93	79.98	22.80	-53.2	-55.0	14.6	0.00e+00	0	29	0	654311424	72	4482
2026-01-03 22:23:38.92	80.25	22.80	-53.2	-55.0	14.6	0.00e+00	0	29	0	655360000	72	4483
2026-01-03 22:23:39.92	80.53	22.81	-53.2	-55.1	14.6	0.00e+00	0	29	0	657457152	72	4528
2026-01-03 22:23:40.91	80.80	22.82	-53.2	-55.1	14.6	0.00e+00	0	29	0	659554304	72	4514
2026-01-03 22:23:41.92	81.07	22.82	-53.2	-55.0	14.6	0.00e+00	0	29	0	661651456	72	4462
2026-01-03 22:23:42.93	81.35	22.82	-53.2	-55.0	14.6	0.00e+00	0	29	0	663748608	72	4474
2026-01-03 22:23:43.93	81.62	22.83	-53.1	-55.0	14.6	0.00e+00	0	29	0	664797184	72	4445
2026-01-03 22:23:44.93	81.89	22.83	-52.9	-54.7	14.8	0.00e+00	0	29	0	666894336	72	4314
2026-01-03 22:23:45.93	82.17	22.83	-52.9	-54.6	14.8	0.00e+00	0	29	0	668991488	72	4279
2026-01-03 22:23:46.93	82.44	22.84	-52.9	-54.7	14.8	0.00e+00	0	29	0	671088640	72	4321
2026-01-03 22:23:47.92	82.71	22.84	-53.1	-55.0	14.6	0.00e+00	0	29	0	672137216	72	4458
2026-01-03 22:23:48.92	82.98	22.84	-53.3	-55.1	14.6	0.00e+00	0	29	0	674234368	72	4533
2026-01-03 22:23:49.92	83.26	22.84	-53.5	-55.4	14.5	0.00e+00	0	29	0	676331520	72	4661
2026-01-03 22:23:50.91	83.53	22.83	-53.5	-55.5	14.4	0.00e+00	0	29	0	678428672	72	4709
2026-01-03 22:23:51.92	83.81	22.83	-53.6	-55.6	14.4	0.00e+00	0	29	0	680525824	72	4786
2026-01-03 22:23:52.92	84.08	22.83	-53.5	-55.4	14.5	0.00e+00	0	29	0	681574400	72	4693
2026-01-03 22:23:53.92	84.35	22.83	-53.6	-55.6	14.4	0.00e+00	0	29	0	683671552	72	4772
2026-01-03 22:23:54.92	84.63	22.82	-53.7	-55.7	14.4	0.00e+00	0	29	0	685768704	72	4837
2026-01-03 22:23:55.92	84.90	22.82	-53.6	-55.6	14.4	0.00e+00	0	29	0	687865856	72	4809
2026-01-03 22:23:56.92	85.17	22.81	-53.6	-55.6	14.4	0.00e+00	0	29	0	689963008	72	4804
2026-01-03 22:23:57.92	85.44	22.81	-53.6	-55.6	14.4	0.00e+00	0	29	0	691011584	72	4779
2026-01-03 22:23:58.92	85.72	22.80	-53.5	-55.4	14.5	0.00e+00	0	29	0	693108736	72	4690
2026-01-03 22:23:59.92	85.99	22.80	-53.5	-55.4	14.5	0.00e+00	0	29	0	695205888	72	4671
2026-01-03 22:24:00.93	86.27	22.79	-53.2	-55.1	14.6	0.00e+00	0	29	0	697303040	72	4497
2026-01-03 22:24:01.93	86.54	22.78	-53.1	-54.9	14.7	0.00e+00	0	29	0	698351616	72	4396
2026-01-03 22:24:02.93	86.81	22.77	-53.0	-54.8	14.8	0.00e+00	0	29	0	700448768	72	4363
2026-01-03 22:24:03.93	87.08	22.76	-53.0	-54.8	14.7	0.00e+00	0	29	0	702545920	72	4379
2026-01-03 22:24:04.93	87.36	22.75	-53.2	-55.0	14.7	0.00e+00	0	29	0	704643072	72	4479
2026-01-03 22:24:05.93	87.63	22.74	-53.4	-55.2	14.6	0.00e+00	0	29	0	706740224	72	4590
2026-01-03 22:24:06.93	87.90	22.73	-53.5	-55.4	14.5	0.00e+00	0	29	0	707788800	72	4669
2026-01-03 22:24:07.93	88.17	22.72	-53.5	-55.5	14.5	0.00e+00	0	29	0	709885952	72	4720
2026-01-03 22:24:08.94	88.44	22.70	-53.6	-55.6	14.4	0.00e+00	0	29	0	711983104	72	4763
2026-01-03 22:24:09.94	88.72	22.69	-53.5	-55.5	14.4	0.00e+00	0	29	0	714080256	72	4732
2026-01-03 22:24:10.93	88.98	22.67	-53.5	-55.5	14.4	0.00e+00	0	29	0	716177408	72	4725
2026-01-03 22:24:11.93	89.25	22.66	-53.5	-55.4	14.5	0.00e+00	0	29	0	717225984	72	4694
2026-01-03 22:24:12.94	89.53	22.64	-53.6	-55.6	14.4	0.00e+00	0	29	0	719323136	72	4764
2026-01-03 22:24:13.94	89.80	22.63	-53.5	-55.4	14.5	0.00e+00	0	29	0	721420288	72	4682
2026-01-03 22:24:14.94	90.07	22.61	-53.5	-55.5	14.5	0.00e+00	0	29	0	723517440	72	4707
2026-01-03 22:24:15.94	90.34	22.59	-53.2	-55.1	14.6	0.00e+00	0	29	0	725614592	72	4516
2026-01-03 22:24:16.94	90.61	22.58	-53.1	-54.9	14.7	0.00e+00	0	29	0	726663168	72	4394
2026-01-03 22:24:17.94	90.88	22.56	-53.2	-55.0	14.7	0.00e+00	0	29	0	728760320	72	4463
2026-01-03 22:24:18.93	91.14	22.54	-53.1	-54.9	14.7	0.00e+00	0	29	0	730857472	72	4431
2026-01-03 22:24:19.93	91.41	22.52	-53.3	-55.2	14.6	0.00e+00	0	29	0	732954624	72	4552
2026-01-03 22:24:20.93	91.68	22.50	-53.3	-55.2	14.6	0.00e+00	0	29	0	734003200	72	4562
2026-01-03 22:24:21.94	91.95	22.48	-53.3	-55.2	14.6	0.00e+00	0	29	0	736100352	72	4556
2026-01-03 22:24:22.94	92.22	22.46	-53.3	-55.2	14.6	0.00e+00	0	29	0	738197504	72	4558
2026-01-03 22:24:23.94	92.48	22.43	-53.0	-54.8	14.7	0.00e+00	0	29	0	740294656	72	4352
2026-01-03 22:24:24.95	92.75	22.41	-52.7	-54.4	14.9	0.00e+00	0	29	0	742391808	72	4176
2026-01-03 22:24:25.96	93.02	22.39	-52.6	-54.4	14.8	0.00e+00	0	29	0	743440384	71	4396
2026-01-03 22:24:26.95	93.28	22.36	-52.6	-54.3	14.8	0.00e+00	0	29	0	745537536	71	4375
2026-01-03 22:24:27.95	93.55	22.34	-52.8	-54.5	14.8	0.00e+00	0	29	0	747634688	71	4464
2026-01-03 22:24:28.94	93.81	22.31	-52.9	-54.7	14.7	0.00e+00	0	29	0	749731840	71	4570
2026-01-03 22:24:29.95	94.08	22.29	-53.0	-54.9	14.6	0.00e+00	0	29	0	751828992	71	4667
2026-01-03 22:24:30.94	94.34	22.26	-53.1	-55.0	14.6	0.00e+00	0	29	0	752877568	71	4724
2026-01-03 22:24:31.95	94.61	22.23	-53.2	-55.1	14.6	0.00e+00	0	29	0	754974720	71	4762
2026-01-03 22:24:32.95	94.87	22.21	-53.0	-54.8	14.6	0.00e+00	0	29	0	757071872	71	4633
2026-01-03 22:24:33.95	95.13	22.18	-52.9	-54.7	14.7	0.00e+00	0	29	0	759169024	71	4577
2026-01-03 22:24:34.95	95.39	22.15	-52.9	-54.7	14.7	0.00e+00	0	29	0	760217600	71	4569
2026-01-03 22:24:35.94	95.65	22.12	-52.6	-54.4	14.8	0.00e+00	0	29	0	762314752	71	4399
2026-01-03 22:24:36.94	95.91	22.09	-52.6	-54.3	14.8	0.00e+00	0	29	0	764411904	71	4365
2026-01-03 22:24:37.94	96.18	22.06	-52.5	-54.2	14.9	0.00e+00	0	29	0	766509056	71	4337
2026-01-03 22:24:38.95	96.44	22.03	-52.5	-54.2	14.9	0.00e+00	0	29	0	768606208	71	4305
2026-01-03 22:24:39.94	96.70	22.00	-52.0	-53.6	15.0	0.00e+00	0	29	0	769654784	70	4275
2026-01-03 22:24:40.94	96.95	21.96	-51.9	-53.5	15.0	0.00e+00	0	29	0	771751936	70	4221
2026-01-03 22:24:41.93	97.21	21.93	-51.9	-53.4	15.1	0.00e+00	0	29	0	773849088	70	4176
2026-01-03 22:24:42.93	97.47	21.90	-51.9	-53.5	15.1	0.00e+00	0	29	0	775946240	70	4196
2026-01-03 22:24:43.92	97.72	21.86	-52.0	-53.6	15.0	0.00e+00	0	29	0	778043392	70	4256
2026-01-03 22:24:44.92	97.98	21.83	-52.1	-53.7	15.0	0.00e+00	0	29	0	779091968	70	4335
2026-01-03 22:24:45.92	98.24	21.80	-52.1	-53.7	15.0	0.00e+00	0	29	0	781189120	70	4327
2026-01-03 22:24:46.92	98.49	21.76	-52.1	-53.7	15.0	0.00e+00	0	29	0	783286272	70	4318
2026-01-03 22:24:47.92	98.75	21.72	-52.1	-53.7	14.9	0.00e+00	0	29	0	785383424	70	4339
2026-01-03 22:24:48.92	99.00	21.69	-51.9	-53.5	15.0	0.00e+00	0	29	0	787480576	70	4223
2026-01-03 22:24:49.91	99.26	21.65	-51.9	-53.5	15.0	0.00e+00	0	29	0	788529152	70	4220
2026-01-03 22:24:50.91	99.51	21.61	-51.9	-53.5	15.1	0.00e+00	0	29	0	790626304	70	4198
2026-01-03 22:24:51.91	99.76	21.58	-51.9	-53.4	15.1	0.00e+00	0	29	0	792723456	70	4179
2026-01-03 22:24:52.92	100.02	21.54	-51.7	-53.3	15.1	0.00e+00	0	29	0	794820608	70	4119
2026-01-03 22:24:53.92	100.27	21.50	-51.6	-53.1	15.1	0.00e+00	0	29	0	795869184	69	4250
2026-01-03 22:24:54.91	100.52	21.46	-51.3	-52.8	15.2	0.00e+00	0	29	0	797966336	69	4129
2026-01-03 22:24:55.91	100.77	21.42	-51.2	-52.7	15.2	0.00e+00	0	29	0	800063488	69	4067
2026-01-03 22:24:56.91	101.02	21.38	-51.3	-52.7	15.2	0.00e+00	0	29	0	802160640	69	4091
2026-01-03 22:24:57.91	101.27	21.34	-51.3	-52.7	15.2	0.00e+00	0	29	0	804257792	69	4095
2026-01-03 22:24:58.91	101.52	21.30	-51.3	-52.8	15.2	0.00e+00	0	29	0	805306368	69	4117
2026-01-03 22:24:59.91	101.77	21.25	-51.4	-52.8	15.2	0.00e+00	0	29	0	807403520	69	4143
2026-01-03 22:25:00.92	102.02	21.21	-51.3	-52.8	15.2	0.00e+00	0	29	0	809500672	69	4124
2026-01-03 22:25:01.92	102.26	21.17	-51.5	-53.0	15.1	0.00e+00	0	29	0	811597824	69	4217
2026-01-03 22:25:02.92	102.51	21.13	-51.6	-53.2	15.1	0.00e+00	0	29	0	813694976	69	4300
2026-01-03 22:25:03.92	102.75	21.08	-51.8	-53.3	15.0	0.00e+00	0	29	0	814743552	69	4385
2026-01-03 22:25:04.92	103.00	21.04	-51.9	-53.5	15.0	0.00e+00	0	29	0	816840704	69	4447
2026-01-03 22:25:05.92	103.24	20.99	-52.0	-53.7	14.9	0.00e+00	0	29	0	818937856	69	4548
2026-01-03 22:25:06.92	103.49	20.95	-52.2	-53.9	14.8	0.00e+00	0	29	0	821035008	69	4671
2026-01-03 22:25:07.91	103.73	20.90	-52.4	-54.0	14.8	0.00e+00	0	29	0	823132160	69	4754
2026-01-03 22:25:08.91	103.97	20.86	-52.5	-54.2	14.8	0.00e+00	0	29	0	824180736	70	4588
2026-01-03 22:25:09.91	104.21	20.81	-52.5	-54.3	14.8	0.00e+00	0	29	0	826277888	70	4605
2026-01-03 22:25:10.91	104.45	20.76	-52.3	-54.0	14.9	0.00e+00	0	29	0	828375040	70	4450
2026-01-03 22:25:11.90	104.69	20.72	-52.3	-53.9	14.9	0.00e+00	0	29	0	830472192	70	4420
2026-01-03 22:25:12.91	104.93	20.67	-52.2	-53.8	14.9	0.00e+00	0	29	0	831520768	70	4368
2026-01-03 22:25:13.91	105.17	20.62	-52.1	-53.7	15.0	0.00e+00	0	29	0	833617920	70	4318
2026-01-03 22:25:14.91	105.41	20.57	-52.0	-53.6	15.0	0.00e+00	0	29	0	835715072	70	4272
2026-01-03 22:25:15.90	105.64	20.53	-51.8	-53.3	15.1	0.00e+00	0	29	0	837812224	70	4144
2026-01-03 22:25:16.90	105.88	20.48	-51.7	-53.2	15.2	0.00e+00	0	29	0	839909376	70	4080
2026-01-03 22:25:17.90	106.11	20.43	-51.8	-53.3	15.1	0.00e+00	0	29	0	840957952	70	4116
2026-01-03 22:25:18.91	106.35	20.38	-51.7	-53.3	15.1	0.00e+00	0	29	0	843055104	70	4110
2026-01-03 22:25:19.89	106.58	20.33	-51.7	-53.2	15.1	0.00e+00	0	29	0	845152256	69	4315
2026-01-03 22:25:20.89	106.81	20.28	-51.9	-53.4	15.0	0.00e+00	0	29	0	847249408	69	4424
2026-01-03 22:25:21.89	107.05	20.23	-52.2	-53.8	14.9	0.00e+00	0	29	0	848297984	69	4640
2026-01-03 22:25:22.89	107.28	20.17	-52.5	-54.3	14.8	0.00e+00	0	29	0	850395136	70	4599
2026-01-03 22:25:23.89	107.51	20.12	-52.9	-54.7	14.6	0.00e+00	0	29	0	852492288	70	4816
2026-01-03 22:25:24.89	107.74	20.07	-53.0	-54.9	14.6	0.00e+00	0	29	0	854589440	71	4653
2026-01-03 22:25:25.89	107.97	20.02	-53.1	-54.9	14.6	0.00e+00	0	29	0	856686592	71	4694
2026-01-03 22:25:26.89	108.20	19.97	-53.2	-55.1	14.5	0.00e+00	0	29	0	857735168	71	4768
2026-01-03 22:25:27.90	108.43	19.91	-53.3	-55.2	14.5	0.00e+00	0	29	0	859832320	71	4839
2026-01-03 22:25:28.89	108.65	19.86	-53.2	-55.1	14.5	0.00e+00	0	29	0	861929472	71	4777
2026-01-03 22:25:29.89	108.88	19.81	-53.3	-55.1	14.5	0.00e+00	0	29	0	864026624	71	4803
2026-01-03 22:25:30.90	109.11	19.75	-53.2	-55.1	14.5	0.00e+00	0	29	0	866123776	71	4768
2026-01-03 22:25:31.90	109.33	19.70	-53.1	-54.9	14.6	0.00e+00	0	29	0	867172352	71	4677
2026-01-03 22:25:32.89	109.55	19.64	-53.0	-54.9	14.6	0.00e+00	0	29	0	869269504	71	4658
2026-01-03 22:25:33.89	109.78	19.59	-52.9	-54.6	14.7	0.00e+00	0	29	0	871366656	71	4536
2026-01-03 22:25:34.89	110.00	19.53	-52.6	-54.3	14.8	0.00e+00	0	29	0	873463808	71	4380
2026-01-03 22:25:35.89	110.22	19.48	-52.5	-54.1	14.9	0.00e+00	0	29	0	874512384	71	4284
2026-01-03 22:25:36.89	110.44	19.42	-52.5	-54.2	14.9	0.00e+00	0	29	0	876609536	71	4309
2026-01-03 22:25:37.89	110.66	19.37	-52.5	-54.2	14.9	0.00e+00	0	29	0	878706688	71	4323
2026-01-03 22:25:38.88	110.88	19.31	-52.7	-54.4	14.8	0.00e+00	0	29	0	880803840	71	4409
2026-01-03 22:25:39.88	111.10	19.25	-52.8	-54.6	14.7	0.00e+00	0	29	0	882900992	71	4515
2026-01-03 22:25:40.88	111.32	19.20	-52.9	-54.7	14.7	0.00e+00	0	29	0	883949568	71	4582
2026-01-03 22:25:41.88	111.53	19.14	-53.1	-54.9	14.6	0.00e+00	0	29	0	886046720	71	4677
2026-01-03 22:25:42.89	111.75	19.08	-53.2	-55.1	14.5	0.00e+00	0	29	0	888143872	71	4782
2026-01-03 22:25:43.88	111.97	19.02	-53.3	-55.2	14.5	0.00e+00	0	29	0	890241024	71	4825
2026-01-03 22:25:44.88	112.18	18.97	-53.3	-55.2	14.5	0.00e+00	0	29	0	892338176	71	4853
2026-01-03 22:25:45.88	112.39	18.91	-53.4	-55.3	14.4	0.00e+00	0	29	0	893386752	71	4891
2026-01-03 22:25:46.88	112.61	18.85	-53.4	-55.4	14.5	0.00e+00	0	29	0	895483904	72	4670
2026-01-03 22:25:47.88	112.82	18.79	-53.3	-55.2	14.6	0.00e+00	0	29	0	897581056	72	4579
2026-01-03 22:25:48.88	113.03	18.73	-53.3	-55.2	14.6	0.00e+00	0	29	0	899678208	72	4549
2026-01-03 22:25:49.87	113.24	18.67	-53.1	-55.0	14.6	0.00e+00	0	29	0	901775360	72	4448
2026-01-03 22:25:50.88	113.45	18.61	-52.7	-54.5	14.8	0.00e+00	0	29	0	902823936	72	4205
2026-01-03 22:25:51.88	113.66	18.55	-52.7	-54.4	14.8	0.00e+00	0	29	0	904921088	71	4440
2026-01-03 22:25:52.88	113.87	18.49	-52.6	-54.3	14.8	0.00e+00	0	29	0	907018240	71	4349
2026-01-03 22:25:53.87	114.08	18.43	-52.6	-54.3	14.8	0.00e+00	0	29	0	909115392	71	4376
2026-01-03 22:25:54.88	114.28	18.37	-52.8	-54.5	14.7	0.00e+00	0	29	0	910163968	71	4474
2026-01-03 22:25:55.88	114.49	18.31	-52.9	-54.7	14.7	0.00e+00	0	29	0	912261120	71	4548
2026-01-03 22:25:56.88	114.70	18.25	-52.9	-54.7	14.7	0.00e+00	0	29	0	914358272	71	4592
2026-01-03 22:25:57.88	114.90	18.19	-53.0	-54.8	14.7	0.00e+00	0	29	0	916455424	71	4623
2026-01-03 22:25:58.87	115.10	18.13	-53.0	-54.8	14.6	0.00e+00	0	29	0	918552576	71	4649
2026-01-03 22:25:59.87	115.30	18.07	-52.9	-54.7	14.7	0.00e+00	0	29	0	919601152	71	4596
2026-01-03 22:26:00.88	115.51	18.01	-53.0	-54.8	14.6	0.00e+00	0	29	0	921698304	71	4617
2026-01-03 22:26:01.88	115.71	17.94	-52.9	-54.7	14.7	0.00e+00	0	29	0	923795456	71	4597
2026-01-03 22:26:02.88	115.91	17.88	-52.9	-54.7	14.7	0.00e+00	0	29	0	925892608	71	4561
2026-01-03 22:26:03.87	116.11	17.82	-53.0	-54.8	14.6	0.00e+00	0	29	0	927989760	71	4638
2026-01-03 22:26:04.87	116.31	17.76	-53.0	-54.9	14.6	0.00e+00	0	29	0	929038336	71	4679
2026-01-03 22:26:05.86	116.50	17.70	-53.2	-55.1	14.5	0.00e+00	0	29	0	931135488	71	4762
2026-01-03 22:26:06.86	116.70	17.63	-53.2	-55.1	14.5	0.00e+00	0	29	0	933232640	71	4810
2026-01-03 22:26:07.86	116.90	17.57	-53.2	-55.1	14.5	0.00e+00	0	29	0	935329792	71	4772
2026-01-03 22:26:08.86	117.09	17.51	-53.3	-55.2	14.5	0.00e+00	0	29	0	936378368	71	4830
2026-01-03 22:26:09.86	117.29	17.44	-53.2	-55.2	14.5	0.00e+00	0	29	0	938475520	71	4823
2026-01-03 22:26:10.86	117.48	17.38	-53.3	-55.2	14.4	0.00e+00	0	29	0	940572672	71	4844
2026-01-03 22:26:11.86	117.67	17.32	-53.4	-55.4	14.4	0.00e+00	0	29	0	942669824	71	4955
2026-01-03 22:26:12.85	117.86	17.25	-53.4	-55.4	14.4	0.00e+00	0	29	0	944766976	72	4674
2026-01-03 22:26:13.85	118.06	17.19	-53.5	-55.5	14.4	0.00e+00	0	29	0	945815552	72	4722
2026-01-03 22:26:14.85	118.25	17.13	-53.3	-55.2	14.5	0.00e+00	0	29	0	947912704	72	4571
2026-01-03 22:26:15.85	118.44	17.06	-53.2	-55.1	14.5	0.00e+00	0	29	0	950009856	72	4508
2026-01-03 22:26:16.85	118.63	17.00	-53.0	-54.8	14.6	0.00e+00	0	29	0	952107008	72	4388
2026-01-03 22:26:17.84	118.81	16.94	-52.6	-54.4	14.8	0.00e+00	0	29	0	953155584	71	4402
2026-01-03 22:26:18.84	119.00	16.87	-52.5	-54.3	14.8	0.00e+00	0	29	0	955252736	71	4348
2026-01-03 22:26:19.84	119.19	16.81	-52.7	-54.5	14.8	0.00e+00	0	29	0	957349888	71	4442
2026-01-03 22:26:20.83	119.37	16.74	-52.9	-54.8	14.6	0.00e+00	0	29	0	959447040	71	4613
2026-01-03 22:26:21.84	119.56	16.68	-53.2	-55.1	14.5	0.00e+00	0	29	0	961544192	71	4799
2026-01-03 22:26:22.84	119.74	16.61	-53.5	-55.5	14.4	0.00e+00	0	29	0	962592768	72	4745
2026-01-03 22:26:23.84	119.93	16.55	-53.7	-55.8	14.3	0.00e+00	0	29	0	964689920	72	4902
2026-01-03 22:26:24.84	120.11	16.48	-53.7	-55.8	14.2	0.00e+00	0	29	0	966787072	72	4918
2026-01-03 22:26:25.84	120.29	16.42	-53.6	-55.7	14.3	0.00e+00	0	29	0	968884224	72	4824
2026-01-03 22:26:26.84	120.48	16.35	-53.3	-55.3	14.5	0.00e+00	0	29	0	970981376	72	4607
2026-01-03 22:26:27.85	120.66	16.29	-53.1	-54.9	14.6	0.00e+00	0	29	0	972029952	72	4434
2026-01-03 22:26:28.85	120.84	16.22	-52.9	-54.8	14.7	0.00e+00	0	29	0	974127104	72	4356
2026-01-03 22:26:29.85	121.02	16.16	-53.0	-54.8	14.7	0.00e+00	0	29	0	976224256	72	4370
2026-01-03 22:26:30.84	121.20	16.09	-52.9	-54.7	14.7	0.00e+00	0	29	0	978321408	72	4334
2026-01-03 22:26:31.85	121.37	16.02	-53.1	-55.0	14.6	0.00e+00	0	29	0	980418560	72	4488
2026-01-03 22:26:32.84	121.55	15.96	-53.3	-55.2	14.5	0.00e+00	0	29	0	981467136	72	4567
2026-01-03 22:26:33.83	121.72	15.89	-53.3	-55.2	14.5	0.00e+00	0	29	0	983564288	72	4598
2026-01-03 22:26:34.83	121.90	15.83	-53.2	-55.2	14.5	0.00e+00	0	29	0	985661440	72	4546
2026-01-03 22:26:35.83	122.08	15.76	-53.1	-55.1	14.5	0.00e+00	0	29	0	987758592	72	4496
2026-01-03 22:26:36.83	122.25	15.70	-52.9	-54.8	14.7	0.00e+00	0	29	0	988807168	72	4363
2026-01-03 22:26:37.82	122.42	15.63	-53.0	-54.8	14.7	0.00e+00	0	29	0	990904320	72	4375
2026-01-03 22:26:38.82	122.59	15.56	-52.9	-54.7	14.7	0.00e+00	0	29	0	993001472	72	4310
2026-01-03 22:26:39.82	122.77	15.50	-52.9	-54.7	14.7	0.00e+00	0	29	0	995098624	72	4326
2026-01-03 22:26:40.82	122.94	15.43	-52.8	-54.6	14.7	0.00e+00	0	29	0	997195776	72	4274
2026-01-03 22:26:41.81	123.11	15.37	-53.0	-54.9	14.6	0.00e+00	0	29	0	998244352	72	4393
2026-01-03 22:26:42.81	123.28	15.30	-53.2	-55.1	14.5	0.00e+00	0	29	0	1000341504	72	4515
2026-01-03 22:26:43.81	123.44	15.23	-53.3	-55.3	14.5	0.00e+00	0	29	0	1002438656	72	4607
2026-01-03 22:26:44.80	123.61	15.17	-53.3	-55.3	14.5	0.00e+00	0	29	0	1004535808	72	4614
2026-01-03 22:26:45.80	123.78	15.10	-53.3	-55.2	14.5	0.00e+00	0	29	0	1005584384	72	4576
2026-01-03 22:26:46.80	123.95	15.03	-53.3	-55.2	14.5	0.00e+00	0	29	0	1007681536	72	4592
2026-01-03 22:26:47.80	124.11	14.97	-53.1	-55.0	14.6	0.00e+00	0	29	0	1009778688	72	4463
2026-01-03 22:26:48.80	124.28	14.90	-53.1	-55.0	14.6	0.00e+00	0	29	0	1011875840	72	4477
2026-01-03 22:26:49.80	124.44	14.83	-52.9	-54.7	14.7	0.00e+00	0	29	0	1013972992	72	4332
2026-01-03 22:26:50.80	124.61	14.77	-53.0	-54.8	14.7	0.00e+00	0	29	0	1015021568	72	4380
2026-01-03 22:26:51.80	124.77	14.70	-53.0	-55.0	14.6	0.00e+00	0	29	0	1017118720	72	4443
2026-01-03 22:26:52.80	124.93	14.63	-53.2	-55.2	14.5	0.00e+00	0	29	0	1019215872	72	4574
2026-01-03 22:26:53.80	125.09	14.57	-53.5	-55.5	14.4	0.00e+00	0	29	0	1021313024	72	4732
2026-01-03 22:26:54.80	125.25	14.50	-53.5	-55.6	14.3	0.00e+00	0	29	0	1023410176	72	4779
2026-01-03 22:26:55.80	125.41	14.43	-53.5	-55.5	14.3	0.00e+00	0	29	0	1024458752	72	4728
2026-01-03 22:26:56.79	125.57	14.37	-53.4	-55.4	14.4	0.00e+00	0	29	0	1026555904	72	4690
2026-01-03 22:26:57.79	125.73	14.30	-53.3	-55.3	14.4	0.00e+00	0	29	0	1028653056	72	4644
2026-01-03 22:26:58.79	125.89	14.23	-53.2	-55.2	14.5	0.00e+00	0	29	0	1030750208	72	4565
2026-01-03 22:26:59.80	126.05	14.17	-53.0	-54.9	14.6	0.00e+00	0	29	0	1032847360	72	4407
2026-01-03 22:27:00.79	126.20	14.10	-52.9	-54.7	14.7	0.00e+00	0	29	0	1033895936	72	4332
2026-01-03 22:27:01.80	126.36	14.03	-52.9	-54.8	14.6	0.00e+00	0	29	0	1035993088	72	4361
2026-01-03 22:27:02.80	126.52	13.97	-53.1	-55.0	14.5	0.00e+00	0	29	0	1038090240	72	4492
2026-01-03 22:27:03.79	126.67	13.90	-53.3	-55.3	14.4	0.00e+00	0	29	0	1040187392	72	4614
2026-01-03 22:27:04.79	126.83	13.83	-53.4	-55.5	14.3	0.00e+00	0	29	0	1041235968	72	4733
2026-01-03 22:27:05.79	126.98	13.76	-53.6	-55.6	14.3	0.00e+00	0	29	0	1043333120	72	4810
2026-01-03 22:27:06.78	127.13	13.70	-53.6	-55.7	14.2	0.00e+00	0	29	0	1045430272	72	4824
2026-01-03 22:27:07.79	127.28	13.63	-53.5	-55.6	14.3	0.00e+00	0	29	0	1047527424	72	4769
2026-01-03 22:27:08.79	127.44	13.56	-53.5	-55.6	14.3	0.00e+00	0	29	0	1049624576	72	4775
2026-01-03 22:27:09.79	127.59	13.50	-53.5	-55.6	14.3	0.00e+00	0	29	0	1050673152	72	4770
2026-01-03 22:27:10.79	127.74	13.43	-53.4	-55.4	14.3	0.00e+00	0	29	0	1052770304	72	4686
2026-01-03 22:27:11.78	127.89	13.36	-53.2	-55.1	14.4	0.00e+00	0	29	0	1054867456	72	4541
2026-01-03 22:27:12.79	128.04	13.30	-53.2	-55.1	14.5	0.00e+00	0	29	0	1056964608	72	4530
2026-01-03 22:27:13.79	128.18	13.23	-53.3	-55.3	14.4	0.00e+00	0	29	0	1059061760	72	4603
2026-01-03 22:27:14.78	128.33	13.16	-53.4	-55.5	14.3	0.00e+00	0	29	0	1060110336	72	4720
2026-01-03 22:27:15.78	128.48	13.10	-53.5	-55.5	14.3	0.00e+00	0	29	0	1062207488	72	4754
2026-01-03 22:27:16.78	128.62	13.03	-53.6	-55.7	14.2	0.00e+00	0	29	0	1064304640	72	4851
2026-01-03 22:27:17.77	128.77	12.96	-53.6	-55.8	14.2	0.00e+00	0	29	0	1066401792	72	4887
2026-01-03 22:27:18.78	128.92	12.89	-53.6	-55.8	14.2	0.00e+00	0	29	0	1067450368	72	4898
2026-01-03 22:27:19.77	129.06	12.83	-53.6	-55.8	14.2	0.00e+00	0	29	0	1069547520	72	4889
2026-01-03 22:27:20.78	129.20	12.76	-53.6	-55.8	14.2	0.00e+00	0	29	0	1071644672	72	4887
2026-01-03 22:27:21.78	129.35	12.69	-53.5	-55.6	14.2	0.00e+00	0	29	0	1073741824	72	4809
2026-01-03 22:27:22.79	129.49	12.63	-53.5	-55.5	14.3	0.00e+00	0	29	0	1075838976	72	4750
2026-01-03 22:27:23.79	129.63	12.56	-53.3	-55.4	14.3	0.00e+00	0	29	0	1076887552	72	4656
2026-01-03 22:27:24.79	129.77	12.49	-53.4	-55.4	14.3	0.00e+00	0	29	0	1078984704	72	4685
2026-01-03 22:27:25.79	129.91	12.43	-53.5	-55.6	14.3	0.00e+00	0	29	0	1081081856	72	4763
2026-01-03 22:27:26.79	130.05	12.36	-53.6	-55.7	14.2	0.00e+00	0	29	0	1083179008	72	4853
2026-01-03 22:27:27.79	130.19	12.29	-53.8	-55.9	14.1	0.00e+00	0	29	0	1085276160	72	4978
2026-01-03 22:27:28.79	130.33	12.23	-53.9	-56.1	14.0	0.00e+00	0	29	0	1086324736	72	5070
2026-01-03 22:27:29.80	130.47	12.16	-54.0	-56.3	14.0	0.00e+00	0	29	0	1088421888	73	4877
2026-01-03 22:27:30.79	130.61	12.09	-54.0	-56.3	14.0	0.00e+00	0	29	0	1090519040	73	4910
2026-01-03 22:27:31.79	130.75	12.03	-54.0	-56.4	14.0	0.00e+00	0	29	0	1092616192	73	4934
2026-01-03 22:27:32.79	130.88	11.96	-53.9	-56.2	14.0	0.00e+00	0	29	0	1094713344	73	4840
2026-01-03 22:27:33.79	131.02	11.89	-53.9	-56.2	14.1	0.00e+00	0	29	0	1095761920	73	4820
2026-01-03 22:27:34.79	131.15	11.83	-53.7	-55.9	14.2	0.00e+00	0	29	0	1097859072	73	4664
2026-01-03 22:27:35.79	131.29	11.76	-53.6	-55.8	14.2	0.00e+00	0	29	0	1099956224	73	4624
2026-01-03 22:27:36.79	131.42	11.69	-53.5	-55.7	14.3	0.00e+00	0	29	0	1102053376	73	4558
2026-01-03 22:27:37.79	131.56	11.63	-53.5	-55.7	14.3	0.00e+00	0	29	0	1103101952	73	4553
2026-01-03 22:27:38.79	131.69	11.56	-53.4	-55.5	14.4	0.00e+00	0	29	0	1105199104	73	4447
2026-01-03 22:27:39.79	131.82	11.50	-53.3	-55.3	14.4	0.00e+00	0	29	0	1107296256	73	4382
2026-01-03 22:27:40.78	131.95	11.43	-53.4	-55.5	14.4	0.00e+00	0	29	0	1109393408	73	4456
2026-01-03 22:27:41.77	132.08	11.37	-53.5	-55.6	14.3	0.00e+00	0	29	0	1111490560	73	4510
2026-01-03 22:27:42.77	132.21	11.30	-53.5	-55.7	14.3	0.00e+00	0	29	0	1112539136	73	4546
2026-01-03 22:27:43.76	132.34	11.23	-53.6	-55.7	14.3	0.00e+00	0	29	0	1114636288	73	4581
2026-01-03 22:27:44.77	132.47	11.17	-53.6	-55.7	14.3	0.00e+00	0	29	0	1116733440	73	4583
2026-01-03 22:27:45.76	132.60	11.10	-53.6	-55.8	14.2	0.00e+00	0	29	0	1118830592	73	4637
2026-01-03 22:27:46.77	132.73	11.04	-53.8	-56.0	14.1	0.00e+00	0	29	0	1120927744	73	4714
2026-01-03 22:27:47.77	132.86	10.97	-53.7	-55.9	14.1	0.00e+00	0	29	0	1121976320	73	4688
2026-01-03 22:27:48.76	132.98	10.90	-53.7	-55.9	14.2	0.00e+00	0	29	0	1124073472	73	4671
2026-01-03 22:27:49.76	133.11	10.84	-53.8	-56.0	14.1	0.00e+00	0	29	0	1126170624	73	4747
2026-01-03 22:27:50.76	133.24	10.77	-53.8	-56.1	14.1	0.00e+00	0	29	0	1128267776	73	4790
2026-01-03 22:27:51.76	133.36	10.71	-53.9	-56.1	14.0	0.00e+00	0	29	0	1129316352	73	4796
2026-01-03 22:27:52.75	133.49	10.64	-54.0	-56.3	13.9	0.00e+00	0	29	0	1131413504	73	4899
2026-01-03 22:27:53.75	133.61	10.58	-54.0	-56.4	13.9	0.00e+00	0	29	0	1133510656	73	4940
2026-01-03 22:27:54.76	133.74	10.51	-54.1	-56.5	13.9	0.00e+00	0	29	0	1135607808	73	4986
2026-01-03 22:27:55.75	133.86	10.45	-54.2	-56.6	13.8	0.00e+00	0	29	0	1137704960	73	5086
2026-01-03 22:27:56.76	133.98	10.38	-54.2	-56.7	13.7	0.00e+00	0	29	0	1138753536	73	5131
2026-01-03 22:27:57.76	134.11	10.31	-54.3	-56.8	13.7	0.00e+00	0	29	0	1140850688	73	5187
2026-01-03 22:27:58.76	134.23	10.25	-54.2	-56.6	13.8	0.00e+00	0	29	0	1142947840	73	5099
2026-01-03 22:27:59.76	134.35	10.18	-54.1	-56.4	13.9	0.00e+00	0	29	0	1145044992	73	4969
2026-01-03 22:28:00.76	134.47	10.12	-54.0	-56.4	13.9	0.00e+00	0	29	0	1146093568	73	4954
2026-01-03 22:28:01.76	134.59	10.05	-54.0	-56.4	13.9	0.00e+00	0	29	0	1148190720	73	4936
2026-01-03 22:28:02.76	134.71	9.99	-54.0	-56.3	13.9	0.00e+00	0	29	0	1150287872	73	4905
2026-01-03 22:28:03.76	134.83	9.92	-53.9	-56.2	14.0	0.00e+00	0	29	0	1152385024	73	4834
2026-01-03 22:28:04.76	134.95	9.86	-53.8	-56.1	14.0	0.00e+00	0	29	0	1154482176	73	4782
2026-01-03 22:28:05.77	135.07	9.79	-53.9	-56.2	14.0	0.00e+00	0	29	0	1156579328	73	4827
2026-01-03 22:28:06.77	135.19	9.73	-53.9	-56.2	14.0	0.00e+00	0	29	0	1157627904	73	4835
2026-01-03 22:28:07.77	135.30	9.66	-53.9	-56.3	13.9	0.00e+00	0	29	0	1159725056	73	4878
2026-01-03 22:28:08.77	135.42	9.60	-54.0	-56.4	13.9	0.00e+00	0	29	0	1161822208	73	4950
2026-01-03 22:28:09.77	135.54	9.54	-54.1	-56.5	13.8	0.00e+00	0	29	0	1163919360	73	5019
2026-01-03 22:28:10.77	135.65	9.47	-54.1	-56.6	13.8	0.00e+00	0	29	0	1164967936	73	5049
2026-01-03 22:28:11.76	135.77	9.41	-54.3	-56.8	13.7	0.00e+00	0	29	0	1167065088	73	5173
2026-01-03 22:28:12.76	135.88	9.34	-54.3	-56.8	13.6	0.00e+00	0	29	0	1169162240	73	5194
2026-01-03 22:28:13.77	136.00	9.28	-54.4	-56.9	13.6	0.00e+00	0	29	0	1171259392	73	5259
2026-01-03 22:28:14.76	136.11	9.21	-54.4	-57.0	13.5	0.00e+00	0	29	0	1173356544	74	5026
2026-01-03 22:28:15.76	136.23	9.15	-54.5	-57.1	13.5	0.00e+00	0	29	0	1174405120	74	5090
2026-01-03 22:28:16.77	136.34	9.09	-54.6	-57.3	13.4	0.00e+00	0	29	0	1176502272	74	5212
2026-01-03 22:28:17.77	136.45	9.02	-54.7	-57.4	13.4	0.00e+00	0	29	0	1178599424	74	5264
2026-01-03 22:28:18.78	136.57	8.96	-54.9	-57.7	13.2	0.00e+00	0	29	0	1180696576	74	5441
2026-01-03 22:28:19.78	136.68	8.89	-54.8	-57.7	13.2	0.00e+00	0	29	0	1182793728	74	5413
2026-01-03 22:28:20.78	136.79	8.83	-54.9	-57.7	13.2	0.00e+00	0	29	0	1183842304	75	5154
2026-01-03 22:28:21.78	136.90	8.77	-55.0	-57.9	13.2	0.00e+00	0	29	0	1185939456	75	5243
2026-01-03 22:28:22.78	137.01	8.70	-55.0	-58.0	13.1	0.00e+00	0	29	0	1188036608	75	5301
2026-01-03 22:28:23.79	137.12	8.64	-55.0	-57.9	13.1	0.00e+00	0	29	0	1190133760	75	5264
2026-01-03 22:28:24.78	137.23	8.58	-55.0	-57.9	13.1	0.00e+00	0	29	0	1191182336	75	5262
2026-01-03 22:28:25.78	137.34	8.51	-54.9	-57.7	13.2	0.00e+00	0	29	0	1193279488	75	5136
2026-01-03 22:28:26.78	137.45	8.45	-55.0	-57.9	13.2	0.00e+00	0	29	0	1195376640	75	5224
2026-01-03 22:28:27.77	137.55	8.39	-55.0	-57.9	13.1	0.00e+00	0	29	0	1197473792	75	5278
2026-01-03 22:28:28.77	137.66	8.32	-54.9	-57.9	13.2	0.00e+00	0	29	0	1199570944	75	5220
2026-01-03 22:28:29.77	137.77	8.26	-54.9	-57.8	13.2	0.00e+00	0	29	0	1200619520	75	5188
2026-01-03 22:28:30.78	137.87	8.20	-55.1	-58.0	13.0	0.00e+00	0	29	0	1202716672	75	5337
2026-01-03 22:28:31.78	137.98	8.13	-55.0	-57.9	13.1	0.00e+00	0	29	0	1204813824	75	5248
2026-01-03 22:28:32.78	138.09	8.07	-55.0	-58.0	13.1	0.00e+00	0	29	0	1206910976	75	5297
2026-01-03 22:28:33.78	138.19	8.01	-55.1	-58.1	13.0	0.00e+00	0	29	0	1209008128	75	5363
2026-01-03 22:28:34.77	138.30	7.95	-55.0	-58.1	13.0	0.00e+00	0	29	0	1210056704	75	5343
2026-01-03 22:28:35.77	138.40	7.88	-54.9	-57.9	13.1	0.00e+00	0	29	0	1212153856	75	5248
2026-01-03 22:28:36.77	138.50	7.82	-54.8	-57.7	13.2	0.00e+00	0	29	0	1214251008	75	5105
2026-01-03 22:28:37.77	138.61	7.76	-54.8	-57.6	13.3	0.00e+00	0	29	0	1216348160	75	5068
2026-01-03 22:28:38.77	138.71	7.70	-54.8	-57.7	13.2	0.00e+00	0	29	0	1218445312	75	5105
2026-01-03 22:28:39.77	138.81	7.63	-54.6	-57.3	13.4	0.00e+00	0	29	0	1219493888	75	4919
2026-01-03 22:28:40.77	138.92	7.57	-54.6	-57.4	13.4	0.00e+00	0	29	0	1221591040	75	4939
2026-01-03 22:28:41.77	139.02	7.51	-54.5	-57.2	13.5	0.00e+00	0	29	0	1223688192	75	4815
2026-01-03 22:28:42.77	139.12	7.45	-54.5	-57.2	13.5	0.00e+00	0	29	0	1225785344	75	4826
2026-01-03 22:28:43.77	139.22	7.38	-54.5	-57.2	13.5	0.00e+00	0	29	0	1226833920	75	4820
2026-01-03 22:28:44.77	139.32	7.32	-54.4	-57.1	13.5	0.00e+00	0	29	0	1228931072	75	4795
2026-01-03 22:28:45.76	139.42	7.26	-54.3	-57.0	13.6	0.00e+00	0	29	0	1231028224	75	4721
2026-01-03 22:28:46.75	139.52	7.20	-54.5	-57.3	13.4	0.00e+00	0	29	0	1233125376	75	4890
2026-01-03 22:28:47.75	139.62	7.14	-54.4	-57.1	13.5	0.00e+00	0	29	0	1235222528	75	4785
2026-01-03 22:28:48.75	139.72	7.08	-54.6	-57.3	13.4	0.00e+00	0	29	0	1236271104	75	4923
2026-01-03 22:28:49.74	139.82	7.02	-54.6	-57.4	13.3	0.00e+00	0	29	0	1238368256	75	4979
2026-01-03 22:28:50.75	139.91	6.95	-54.6	-57.4	13.3	0.00e+00	0	29	0	1240465408	75	4977
