passes_logs/2026/01/03/R3.2S_Murmansk/R3.2S_Murmansk__20260103_233702_SUOMI_NPP_rec.log

#Pass ID: 20260103_233702_SUOMI NPP
#Satellite: SUOMI NPP
#Configuration: NPP
#almurnet v.1.7.20251203
#Start time: 2026-01-03 23:37:03

#Version: 2.2.20231116
#Station: R3.2S_Murmansk
#Location: 33.079688 lon 68.888172 lat
#TLE: 1 37849U 11061A   26001.07732418  .00000182  00000+0  10735-3 0  9990
#TLE: 2 37849  98.7795 303.2470 0002580  87.2016 272.9455 14.19520779734739

#Time	Az	El	Level	Level2	SNR	BER	BlckErr	Temp	State	Recorded	gain1	gain2
2026-01-03 23:37:03.79	21.08	2.10	-60.5	-76.6	3.8	1.49e+00	0	27	0	0	86	24095
2026-01-03 23:37:04.79	21.12	2.16	-60.5	-76.6	3.8	1.49e+00	0	27	104	0	86	24097
2026-01-03 23:37:05.79	21.15	2.23	-60.5	-76.7	3.8	1.49e+00	0	27	104	0	86	24133
2026-01-03 23:37:06.79	21.19	2.29	-60.5	-76.6	3.8	1.49e+00	0	27	104	0	86	24126
2026-01-03 23:37:07.79	21.23	2.35	-60.5	-76.6	3.8	1.49e+00	0	27	104	0	86	24086
2026-01-03 23:37:08.79	21.26	2.41	-60.5	-76.6	3.8	1.49e+00	0	27	104	0	86	24074
2026-01-03 23:37:09.80	21.30	2.47	-60.5	-76.6	3.8	1.49e+00	0	27	104	0	86	24124
2026-01-03 23:37:10.80	21.34	2.54	-60.5	-76.6	3.8	1.49e+00	0	27	104	0	86	24105
2026-01-03 23:37:11.80	21.37	2.60	-60.5	-76.6	3.8	1.49e+00	0	27	104	0	86	24114
2026-01-03 23:37:12.80	21.41	2.66	-60.5	-76.6	3.8	1.49e+00	0	27	104	0	86	24026
2026-01-03 23:37:13.80	21.45	2.73	-60.5	-76.6	3.8	1.49e+00	0	27	104	0	86	24083
2026-01-03 23:37:14.80	21.48	2.79	-60.5	-76.6	3.8	1.49e+00	0	27	104	0	86	24084
2026-01-03 23:37:15.81	21.52	2.85	-60.5	-76.6	3.8	1.49e+00	0	27	104	0	86	24084
2026-01-03 23:37:16.80	21.56	2.92	-60.5	-76.6	3.8	1.49e+00	0	27	104	0	86	24064
2026-01-03 23:37:17.80	21.60	2.98	-60.5	-76.6	3.8	1.49e+00	0	27	104	0	86	24042
2026-01-03 23:37:18.80	21.63	3.04	-60.5	-76.6	3.8	1.49e+00	0	27	104	0	86	24048
2026-01-03 23:37:19.80	21.67	3.11	-60.5	-76.6	3.8	1.49e+00	0	27	104	0	86	24042
2026-01-03 23:37:20.81	21.71	3.17	-60.5	-76.6	3.8	1.49e+00	0	27	104	0	86	24100
2026-01-03 23:37:21.80	21.75	3.24	-60.5	-76.6	3.8	1.49e+00	0	27	104	0	86	24047
2026-01-03 23:37:22.79	21.79	3.30	-60.5	-76.6	3.8	1.49e+00	0	27	104	0	86	24047
2026-01-03 23:37:23.79	21.82	3.36	-60.5	-76.7	3.8	1.49e+00	0	27	104	0	86	24141
2026-01-03 23:37:24.79	21.86	3.43	-60.5	-76.6	3.8	1.49e+00	0	27	104	0	86	24117
2026-01-03 23:37:25.78	21.90	3.49	-60.5	-76.6	3.8	1.49e+00	0	27	104	0	86	24116
2026-01-03 23:37:26.78	21.94	3.56	-60.5	-76.6	3.8	1.49e+00	0	28	104	0	86	24066
2026-01-03 23:37:27.77	21.98	3.62	-60.5	-76.6	3.9	1.49e+00	0	28	104	0	86	24066
2026-01-03 23:37:28.77	22.02	3.69	-60.5	-76.6	3.8	1.49e+00	0	27	104	0	86	24128
2026-01-03 23:37:29.76	22.06	3.75	-60.5	-76.6	3.8	1.49e+00	0	27	104	0	86	24088
2026-01-03 23:37:30.75	22.09	3.82	-60.5	-76.6	3.8	1.49e+00	0	28	104	0	86	24125
2026-01-03 23:37:31.74	22.13	3.88	-60.5	-76.6	3.8	1.49e+00	0	27	104	0	86	24054
2026-01-03 23:37:32.74	22.17	3.95	-60.5	-76.6	3.8	1.49e+00	0	27	104	0	86	24063
2026-01-03 23:37:33.74	22.21	4.01	-60.5	-76.6	3.8	1.49e+00	0	27	104	0	86	23969
2026-01-03 23:37:34.74	22.25	4.08	-60.5	-76.6	3.8	1.49e+00	0	28	104	0	86	24013
2026-01-03 23:37:35.74	22.29	4.14	-60.5	-76.6	3.8	1.49e+00	0	28	104	0	86	24095
2026-01-03 23:37:36.73	22.33	4.21	-60.5	-76.6	3.8	1.49e+00	0	28	104	0	86	24045
2026-01-03 23:37:37.74	22.38	4.28	-60.5	-76.6	3.8	1.49e+00	0	28	104	0	86	24085
2026-01-03 23:37:38.72	22.42	4.34	-60.5	-76.6	3.8	1.49e+00	0	28	104	0	86	24085
2026-01-03 23:37:39.72	22.46	4.41	-60.5	-76.6	3.8	1.49e+00	0	28	104	0	86	24048
2026-01-03 23:37:40.73	22.50	4.48	-60.5	-76.6	3.8	1.49e+00	0	27	104	0	86	24082
2026-01-03 23:37:41.72	22.54	4.54	-60.5	-76.6	3.8	1.49e+00	0	28	104	0	86	24099
2026-01-03 23:37:42.73	22.58	4.61	-60.5	-76.6	3.8	1.49e+00	0	28	104	0	86	24088
2026-01-03 23:37:43.73	22.62	4.68	-60.5	-76.6	3.8	1.49e+00	0	28	104	0	86	24052
2026-01-03 23:37:44.73	22.66	4.75	-60.5	-76.6	3.8	1.49e+00	0	28	104	0	86	24093
2026-01-03 23:37:45.72	22.70	4.81	-60.5	-76.6	3.8	1.49e+00	0	28	104	0	86	24046
2026-01-03 23:37:46.72	22.75	4.88	-60.5	-76.6	3.8	1.49e+00	0	28	104	0	86	24033
2026-01-03 23:37:47.71	22.79	4.95	-60.5	-76.6	3.8	1.49e+00	0	28	104	0	86	24128
2026-01-03 23:37:48.71	22.83	5.02	-60.5	-76.6	3.8	1.49e+00	0	28	104	0	86	24042
2026-01-03 23:37:49.71	22.87	5.09	-60.5	-76.7	3.8	1.49e+00	0	28	104	0	86	24158
2026-01-03 23:37:50.71	22.92	5.15	-60.5	-76.6	3.8	1.49e+00	0	28	104	0	86	24047
2026-01-03 23:37:51.72	22.96	5.22	-60.5	-76.6	3.8	1.49e+00	0	28	104	0	86	24060
2026-01-03 23:37:52.72	23.00	5.29	-60.5	-76.6	3.8	1.49e+00	0	28	104	0	86	24052
2026-01-03 23:37:53.72	23.05	5.36	-60.5	-76.6	3.8	1.49e+00	0	28	104	0	86	24028
2026-01-03 23:37:54.72	23.09	5.43	-60.5	-76.6	3.8	1.49e+00	0	28	104	0	86	24059
2026-01-03 23:37:55.72	23.13	5.50	-60.5	-76.6	3.8	1.49e+00	0	28	104	0	86	24101
2026-01-03 23:37:56.73	23.18	5.57	-60.5	-76.6	3.8	1.49e+00	0	28	104	0	86	24066
2026-01-03 23:37:57.72	23.22	5.64	-60.5	-76.6	3.8	1.49e+00	0	28	104	0	86	24008
2026-01-03 23:37:58.73	23.27	5.71	-60.5	-76.6	3.8	1.49e+00	0	28	104	0	86	24031
2026-01-03 23:37:59.73	23.31	5.78	-60.5	-76.6	3.8	1.49e+00	0	28	104	0	86	24010
2026-01-03 23:38:00.72	23.35	5.85	-60.5	-76.6	3.8	1.49e+00	0	28	104	0	86	24012
2026-01-03 23:38:01.72	23.40	5.92	-60.5	-76.6	3.8	1.49e+00	0	28	104	0	86	24045
2026-01-03 23:38:02.73	23.44	5.99	-60.5	-76.6	3.8	1.49e+00	0	28	104	0	86	24036
2026-01-03 23:38:03.72	23.49	6.06	-60.5	-76.6	3.8	1.49e+00	0	28	104	0	86	24051
2026-01-03 23:38:04.73	23.54	6.13	-60.5	-76.6	3.8	1.49e+00	0	28	104	0	86	24000
2026-01-03 23:38:05.73	23.58	6.20	-60.5	-76.6	3.8	1.49e+00	0	28	104	0	86	23972
2026-01-03 23:38:06.73	23.63	6.28	-60.5	-76.6	3.8	1.49e+00	0	28	104	0	86	24017
2026-01-03 23:38:07.74	23.67	6.35	-60.5	-76.6	3.8	1.49e+00	0	28	104	0	86	24022
2026-01-03 23:38:08.74	23.72	6.42	-60.5	-76.6	3.8	1.49e+00	0	28	104	0	86	23998
2026-01-03 23:38:09.75	23.77	6.49	-60.5	-76.6	3.8	1.49e+00	0	28	104	0	86	24047
2026-01-03 23:38:10.74	23.81	6.56	-60.5	-76.6	3.8	1.49e+00	0	28	104	0	86	24002
2026-01-03 23:38:11.74	23.86	6.64	-60.5	-76.6	3.8	1.49e+00	0	28	104	0	86	24060
2026-01-03 23:38:12.75	23.91	6.71	-60.5	-76.6	3.8	1.49e+00	0	28	104	0	86	24003
2026-01-03 23:38:13.75	23.95	6.78	-60.5	-76.6	3.8	1.49e+00	0	28	104	0	86	24013
2026-01-03 23:38:14.76	24.00	6.86	-60.5	-76.6	3.8	1.49e+00	0	28	104	0	86	23962
2026-01-03 23:38:15.76	24.05	6.93	-60.5	-76.6	3.8	1.49e+00	0	28	104	0	86	24036
2026-01-03 23:38:16.76	24.10	7.00	-60.5	-76.6	3.8	1.49e+00	0	28	104	0	86	24066
2026-01-03 23:38:17.76	24.15	7.08	-60.5	-76.6	3.8	1.49e+00	0	28	104	0	86	23973
2026-01-03 23:38:18.76	24.19	7.15	-60.5	-76.6	3.8	1.49e+00	0	28	104	0	86	24016
2026-01-03 23:38:19.76	24.24	7.22	-60.5	-76.6	3.8	1.49e+00	0	28	104	0	86	23982
2026-01-03 23:38:20.76	24.29	7.30	-60.5	-76.6	3.8	1.49e+00	0	28	104	0	86	24051
2026-01-03 23:38:21.76	24.34	7.37	-60.5	-76.6	3.8	1.49e+00	0	28	104	0	86	24010
2026-01-03 23:38:22.76	24.39	7.45	-60.5	-76.6	3.8	1.49e+00	0	28	104	0	86	24023
2026-01-03 23:38:23.77	24.44	7.52	-60.5	-76.6	3.8	1.49e+00	0	28	104	0	86	23979
2026-01-03 23:38:24.77	24.49	7.60	-60.5	-76.6	3.8	1.49e+00	0	28	104	0	86	23946
2026-01-03 23:38:25.77	24.54	7.67	-60.5	-76.6	3.8	1.49e+00	0	28	104	0	86	24041
2026-01-03 23:38:26.76	24.59	7.75	-60.5	-76.6	3.8	1.49e+00	0	28	104	0	86	24018
2026-01-03 23:38:27.76	24.64	7.82	-60.5	-76.6	3.8	1.49e+00	0	28	104	0	86	23987
2026-01-03 23:38:28.76	24.69	7.90	-60.5	-76.6	3.8	1.49e+00	0	28	104	0	86	23983
2026-01-03 23:38:29.76	24.74	7.97	-60.5	-76.6	3.8	1.49e+00	0	28	104	0	86	24005
2026-01-03 23:38:30.75	24.79	8.05	-60.5	-76.6	3.8	1.49e+00	0	28	104	0	86	23977
2026-01-03 23:38:31.75	24.84	8.12	-60.5	-76.6	3.8	1.49e+00	0	28	104	0	86	24046
2026-01-03 23:38:32.74	24.89	8.20	-60.5	-76.6	3.8	1.49e+00	0	28	104	0	86	24034
2026-01-03 23:38:33.74	24.95	8.28	-60.5	-76.6	3.8	1.49e+00	0	28	104	0	86	23975
2026-01-03 23:38:34.74	25.00	8.35	-60.5	-76.6	3.8	1.49e+00	0	28	104	0	86	23997
2026-01-03 23:38:35.74	25.05	8.43	-60.5	-76.6	3.8	1.49e+00	0	28	104	0	86	23995
2026-01-03 23:38:36.74	25.10	8.51	-60.5	-76.6	3.8	1.49e+00	0	28	104	0	86	24084
2026-01-03 23:38:37.73	25.15	8.59	-60.5	-76.6	3.8	1.49e+00	0	28	104	0	86	23957
2026-01-03 23:38:38.72	25.21	8.66	-60.5	-76.6	3.8	1.49e+00	0	28	104	0	86	24043
2026-01-03 23:38:39.72	25.26	8.74	-60.5	-76.6	3.8	1.49e+00	0	28	104	0	86	23999
2026-01-03 23:38:40.72	25.31	8.82	-60.5	-76.6	3.8	1.49e+00	0	28	104	0	86	24017
2026-01-03 23:38:41.72	25.37	8.90	-60.5	-76.6	3.8	1.49e+00	0	28	104	0	86	24047
2026-01-03 23:38:42.72	25.42	8.98	-60.5	-76.6	3.8	1.49e+00	0	28	104	0	86	23972
2026-01-03 23:38:43.72	25.48	9.06	-60.5	-76.6	3.8	1.49e+00	0	28	104	0	86	23998
2026-01-03 23:38:44.72	25.53	9.13	-60.5	-76.6	3.8	1.49e+00	0	28	104	0	86	23996
2026-01-03 23:38:45.72	25.59	9.21	-60.5	-76.6	3.8	1.49e+00	0	29	104	0	86	24012
2026-01-03 23:38:46.72	25.64	9.29	-60.5	-76.6	3.8	1.49e+00	0	28	104	0	86	23982
2026-01-03 23:38:47.71	25.70	9.37	-60.5	-76.6	3.8	1.49e+00	0	28	104	0	86	23978
2026-01-03 23:38:48.71	25.75	9.45	-60.5	-76.6	3.8	1.49e+00	0	28	104	0	86	23978
2026-01-03 23:38:49.71	25.81	9.53	-60.5	-76.6	3.8	1.49e+00	0	28	104	0	86	23935
2026-01-03 23:38:50.71	25.86	9.61	-60.5	-76.6	3.8	1.49e+00	0	28	104	0	86	24022
2026-01-03 23:38:51.71	25.92	9.69	-60.5	-76.6	3.8	1.49e+00	0	28	104	0	86	23961
2026-01-03 23:38:52.71	25.98	9.78	-60.5	-76.6	3.8	1.49e+00	0	28	104	0	86	23959
2026-01-03 23:38:53.71	26.04	9.86	-60.5	-76.6	3.8	1.49e+00	0	29	104	0	86	23920
2026-01-03 23:38:54.72	26.09	9.94	-60.5	-76.6	3.9	1.49e+00	0	28	104	0	86	24043
2026-01-03 23:38:55.73	26.15	10.02	-60.5	-76.6	3.8	1.49e+00	0	28	104	0	86	23983
2026-01-03 23:38:56.72	26.21	10.10	-60.5	-76.6	3.8	1.49e+00	0	28	104	0	86	24026
2026-01-03 23:38:57.72	26.27	10.19	-60.5	-76.6	3.8	1.49e+00	0	28	104	0	86	23997
2026-01-03 23:38:58.73	26.33	10.27	-60.5	-76.6	3.8	1.49e+00	0	29	104	0	86	24040
2026-01-03 23:38:59.73	26.39	10.35	-60.5	-76.6	3.8	1.49e+00	0	28	104	0	86	23900
2026-01-03 23:39:00.73	26.45	10.44	-60.5	-76.6	3.8	1.49e+00	0	28	104	0	86	23905
2026-01-03 23:39:01.72	26.50	10.52	-60.5	-76.6	3.8	1.49e+00	0	28	104	0	86	23930
2026-01-03 23:39:02.72	26.56	10.60	-60.5	-76.6	3.8	1.49e+00	0	28	104	0	86	24009
2026-01-03 23:39:03.72	26.62	10.69	-60.5	-76.6	3.9	1.49e+00	0	29	104	0	86	24031
2026-01-03 23:39:04.72	26.69	10.77	-60.5	-76.6	3.8	1.49e+00	0	29	104	0	86	23966
2026-01-03 23:39:05.72	26.75	10.85	-60.5	-76.6	3.8	1.49e+00	0	29	104	0	86	23901
2026-01-03 23:39:06.72	26.81	10.94	-60.5	-76.6	3.8	1.49e+00	0	29	104	0	86	23998
2026-01-03 23:39:07.72	26.87	11.02	-60.5	-76.6	3.8	1.49e+00	0	29	104	0	86	23949
2026-01-03 23:39:08.72	26.93	11.11	-60.5	-76.6	3.8	1.49e+00	0	29	104	0	86	23954
2026-01-03 23:39:09.72	26.99	11.19	-60.5	-76.6	3.8	1.49e+00	0	28	104	0	86	23974
2026-01-03 23:39:10.72	27.06	11.28	-60.5	-76.6	3.8	1.49e+00	0	29	104	0	86	23969
2026-01-03 23:39:11.72	27.12	11.37	-60.5	-76.6	3.8	1.49e+00	0	29	104	0	86	23990
2026-01-03 23:39:12.73	27.18	11.45	-60.5	-76.6	3.8	1.49e+00	0	29	104	0	86	23963
2026-01-03 23:39:13.73	27.25	11.54	-60.5	-76.6	3.8	1.49e+00	0	28	104	0	86	23916
2026-01-03 23:39:14.73	27.31	11.63	-60.5	-76.6	3.8	1.49e+00	0	29	104	0	86	23961
2026-01-03 23:39:15.74	27.38	11.71	-60.5	-76.6	3.8	1.49e+00	0	29	104	0	86	23923
2026-01-03 23:39:16.73	27.44	11.80	-60.5	-76.6	3.8	1.49e+00	0	29	104	0	86	23918
2026-01-03 23:39:17.73	27.50	11.89	-60.5	-76.6	3.8	1.49e+00	0	29	104	0	86	23969
2026-01-03 23:39:18.73	27.57	11.98	-60.5	-76.6	3.8	1.49e+00	0	29	104	0	86	23951
2026-01-03 23:39:19.73	27.64	12.07	-60.5	-76.6	3.8	1.49e+00	0	29	104	0	86	23999
2026-01-03 23:39:20.74	27.70	12.15	-60.5	-76.6	3.8	1.49e+00	0	29	104	0	86	23860
2026-01-03 23:39:21.75	27.77	12.24	-60.5	-76.6	3.8	1.49e+00	0	29	104	0	86	23964
2026-01-03 23:39:22.74	27.84	12.33	-60.5	-76.6	3.8	1.49e+00	0	29	104	0	86	23937
2026-01-03 23:39:23.75	27.90	12.42	-60.5	-76.6	3.8	1.49e+00	0	29	104	0	86	24010
2026-01-03 23:39:24.74	27.97	12.51	-60.5	-76.6	3.8	1.49e+00	0	29	104	0	86	23988
2026-01-03 23:39:25.75	28.04	12.60	-60.5	-76.6	3.8	1.49e+00	0	28	104	0	86	23865
2026-01-03 23:39:26.74	28.11	12.69	-60.5	-76.6	3.8	1.49e+00	0	29	104	0	86	23967
2026-01-03 23:39:27.74	28.18	12.78	-60.5	-76.6	3.8	1.49e+00	0	29	104	0	86	23908
2026-01-03 23:39:28.74	28.24	12.87	-60.5	-76.6	3.8	1.49e+00	0	29	104	0	86	23976
2026-01-03 23:39:29.74	28.31	12.97	-60.5	-76.6	3.8	1.49e+00	0	29	104	0	86	23942
2026-01-03 23:39:30.74	28.38	13.06	-60.5	-76.6	3.8	1.49e+00	0	29	104	0	86	23954
2026-01-03 23:39:31.73	28.45	13.15	-60.5	-76.6	3.8	1.49e+00	0	29	104	0	86	23927
2026-01-03 23:39:32.72	28.52	13.24	-60.5	-76.6	3.8	1.49e+00	0	29	104	0	86	23982
2026-01-03 23:39:33.71	28.59	13.33	-60.5	-76.6	3.8	1.49e+00	0	29	104	0	86	23912
2026-01-03 23:39:34.71	28.67	13.42	-60.5	-76.6	3.8	1.49e+00	0	29	104	0	86	23988
2026-01-03 23:39:35.70	28.74	13.52	-60.5	-76.6	3.8	1.49e+00	0	29	104	0	86	23938
2026-01-03 23:39:36.70	28.81	13.61	-60.5	-76.6	3.8	1.49e+00	0	29	104	0	86	23973
2026-01-03 23:39:37.70	28.88	13.70	-60.5	-76.6	3.8	1.49e+00	0	29	104	0	86	23908
2026-01-03 23:39:38.70	28.96	13.80	-60.5	-76.6	3.8	1.49e+00	0	29	104	0	86	23885
2026-01-03 23:39:39.70	29.03	13.89	-60.5	-76.6	3.8	1.49e+00	0	29	104	0	86	23903
2026-01-03 23:39:40.70	29.10	13.99	-60.5	-76.6	3.8	1.49e+00	0	29	104	0	86	23943
2026-01-03 23:39:41.69	29.18	14.08	-60.5	-76.6	3.8	1.49e+00	0	29	104	0	86	23923
2026-01-03 23:39:42.70	29.25	14.18	-60.5	-76.6	3.8	1.49e+00	0	29	104	0	86	23989
2026-01-03 23:39:43.70	29.33	14.27	-60.5	-76.6	3.8	1.49e+00	0	29	104	0	86	23991
2026-01-03 23:39:44.70	29.41	14.37	-60.5	-76.6	3.8	1.49e+00	0	29	104	0	86	23930
2026-01-03 23:39:45.70	29.48	14.47	-60.5	-76.6	3.8	1.49e+00	0	29	104	0	86	23980
2026-01-03 23:39:46.70	29.56	14.56	-60.5	-76.6	3.8	1.49e+00	0	29	104	0	86	23905
2026-01-03 23:39:47.70	29.64	14.66	-60.5	-76.6	3.8	1.49e+00	0	29	104	0	86	23931
2026-01-03 23:39:48.69	29.71	14.76	-60.5	-76.6	3.8	1.49e+00	0	28	104	0	86	23927
2026-01-03 23:39:49.69	29.79	14.85	-60.5	-76.6	3.8	1.49e+00	0	29	104	0	86	23927
2026-01-03 23:39:50.69	29.87	14.95	-60.5	-76.6	3.8	1.49e+00	0	29	104	0	86	23945
2026-01-03 23:39:51.70	29.95	15.05	-60.5	-76.6	3.8	1.49e+00	0	29	104	0	86	23998
2026-01-03 23:39:52.69	30.03	15.15	-60.5	-76.6	3.8	1.49e+00	0	29	104	0	86	23980
2026-01-03 23:39:53.70	30.11	15.25	-60.5	-76.6	3.8	1.49e+00	0	29	104	0	86	24004
2026-01-03 23:39:54.69	30.19	15.35	-60.5	-76.6	3.8	1.49e+00	0	29	104	0	86	23915
2026-01-03 23:39:55.70	30.27	15.45	-60.5	-76.6	3.8	1.49e+00	0	29	104	0	86	24027
2026-01-03 23:39:56.70	30.35	15.55	-60.5	-76.6	3.8	1.49e+00	0	29	104	0	86	23932
2026-01-03 23:39:57.70	30.44	15.65	-60.5	-76.6	3.8	1.49e+00	0	29	104	0	86	23956
2026-01-03 23:39:58.69	30.52	15.75	-60.5	-76.6	3.8	1.49e+00	0	29	104	0	86	23963
2026-01-03 23:39:59.70	30.60	15.85	-60.5	-76.5	3.8	1.49e+00	0	29	104	0	86	23849
2026-01-03 23:40:00.69	30.69	15.95	-60.5	-76.6	3.8	1.49e+00	0	29	104	0	86	23945
2026-01-03 23:40:01.69	30.77	16.06	-60.5	-76.6	3.8	1.49e+00	0	29	104	0	86	23989
2026-01-03 23:40:02.69	30.86	16.16	-60.5	-76.6	3.8	1.49e+00	0	29	104	0	86	23977
2026-01-03 23:40:03.69	30.94	16.26	-60.5	-76.6	3.8	1.49e+00	0	29	104	0	86	23879
2026-01-03 23:40:04.69	31.03	16.36	-60.5	-76.6	3.8	1.49e+00	0	29	104	0	86	23930
2026-01-03 23:40:05.70	31.12	16.47	-60.5	-76.6	3.8	1.49e+00	0	29	104	0	86	23949
2026-01-03 23:40:06.70	31.20	16.57	-60.5	-76.6	3.9	1.49e+00	0	29	104	0	86	23942
2026-01-03 23:40:07.70	31.29	16.68	-60.5	-76.6	3.8	1.49e+00	0	29	104	0	86	23896
2026-01-03 23:40:08.69	31.38	16.78	-60.5	-76.6	3.8	1.49e+00	0	29	104	0	86	23934
2026-01-03 23:40:09.70	31.47	16.89	-60.5	-76.6	3.8	1.49e+00	0	29	104	0	86	23872
2026-01-03 23:40:10.70	31.56	16.99	-60.5	-76.6	3.8	1.49e+00	0	29	104	0	86	23952
2026-01-03 23:40:11.70	31.65	17.10	-60.5	-76.6	3.8	1.49e+00	0	29	104	0	86	23946
2026-01-03 23:40:12.71	31.74	17.21	-60.5	-76.6	3.8	1.49e+00	0	29	104	0	86	23882
2026-01-03 23:40:13.71	31.83	17.31	-60.5	-76.6	3.8	1.49e+00	0	29	104	0	86	23942
2026-01-03 23:40:14.71	31.92	17.42	-60.5	-76.6	3.8	1.49e+00	0	29	104	0	86	23942
2026-01-03 23:40:15.72	32.02	17.53	-60.5	-76.6	3.8	1.49e+00	0	29	104	0	86	23982
2026-01-03 23:40:16.71	32.11	17.64	-60.5	-76.6	3.8	1.49e+00	0	29	104	0	86	23984
2026-01-03 23:40:17.71	32.20	17.74	-60.5	-76.6	3.8	1.49e+00	0	29	104	0	86	23973
2026-01-03 23:40:18.71	32.30	17.85	-60.5	-76.6	3.8	1.49e+00	0	29	104	0	86	23955
2026-01-03 23:40:19.71	32.39	17.96	-60.5	-76.6	3.8	1.49e+00	0	29	104	0	86	23950
2026-01-03 23:40:20.71	32.49	18.07	-60.5	-76.6	3.8	1.49e+00	0	29	104	0	86	23905
2026-01-03 23:40:21.72	32.59	18.18	-60.5	-76.6	3.8	1.49e+00	0	29	104	0	86	23937
2026-01-03 23:40:22.72	32.68	18.29	-60.5	-76.6	3.8	1.49e+00	0	29	104	0	86	23901
2026-01-03 23:40:23.71	32.78	18.40	-60.5	-76.6	3.8	1.49e+00	0	29	104	0	86	23894
2026-01-03 23:40:24.71	32.88	18.52	-60.5	-76.6	3.8	1.49e+00	0	29	104	0	86	23930
2026-01-03 23:40:25.71	32.98	18.63	-60.5	-76.6	3.8	1.49e+00	0	29	104	0	86	23985
2026-01-03 23:40:26.72	33.08	18.74	-60.5	-76.6	3.8	1.49e+00	0	29	104	0	86	24016
2026-01-03 23:40:27.72	33.18	18.85	-60.5	-76.6	3.8	1.49e+00	0	29	104	0	86	23944
2026-01-03 23:40:28.71	33.28	18.97	-60.5	-76.6	3.8	1.49e+00	0	29	104	0	86	23882
2026-01-03 23:40:29.71	33.38	19.08	-60.5	-76.6	3.8	1.49e+00	0	29	104	0	86	23911
2026-01-03 23:40:30.70	33.49	19.19	-60.5	-76.6	3.9	1.49e+00	0	29	104	0	86	23923
2026-01-03 23:40:31.69	33.59	19.30	-60.5	-76.6	3.8	1.49e+00	0	29	104	0	86	23855
2026-01-03 23:40:32.69	33.69	19.42	-60.5	-76.6	3.8	1.49e+00	0	29	104	0	86	23928
2026-01-03 23:40:33.69	33.80	19.54	-60.5	-76.6	3.8	1.49e+00	0	29	104	0	86	23954
2026-01-03 23:40:34.69	33.90	19.65	-60.5	-76.6	3.8	1.49e+00	0	29	104	0	86	23894
2026-01-03 23:40:35.69	34.01	19.77	-60.5	-76.6	3.8	1.49e+00	0	29	104	0	86	23947
2026-01-03 23:40:36.69	34.12	19.88	-60.5	-76.6	3.8	1.49e+00	0	29	104	0	86	23894
2026-01-03 23:40:37.69	34.23	20.00	-60.5	-76.6	3.8	1.49e+00	0	29	104	0	86	23905
2026-01-03 23:40:38.69	34.33	20.12	-60.5	-76.6	3.8	1.49e+00	0	29	104	0	86	23920
2026-01-03 23:40:39.69	34.44	20.24	-60.5	-76.6	3.8	1.49e+00	0	29	104	0	86	23895
2026-01-03 23:40:40.69	34.56	20.35	-60.5	-76.6	3.8	1.49e+00	0	29	104	0	86	23896
2026-01-03 23:40:41.69	34.67	20.47	-60.5	-76.6	3.8	1.49e+00	0	29	104	0	86	23868
2026-01-03 23:40:42.69	34.78	20.59	-60.5	-76.6	3.8	1.49e+00	0	29	104	0	86	23895
2026-01-03 23:40:43.69	34.89	20.71	-60.5	-76.6	3.8	1.49e+00	0	29	104	0	86	23896
2026-01-03 23:40:44.69	35.01	20.83	-60.5	-76.6	3.8	1.49e+00	0	29	104	0	86	23913
2026-01-03 23:40:45.69	35.12	20.95	-60.5	-76.6	3.8	1.49e+00	0	29	104	0	86	23892
2026-01-03 23:40:46.69	35.24	21.08	-60.5	-76.6	3.8	1.49e+00	0	29	104	0	86	23953
2026-01-03 23:40:47.68	35.35	21.20	-60.5	-76.5	3.8	1.49e+00	0	29	104	0	86	23851
2026-01-03 23:40:48.69	35.47	21.32	-60.5	-76.6	3.8	1.49e+00	0	29	104	0	86	23935
2026-01-03 23:40:49.68	35.59	21.44	-60.5	-76.6	3.8	1.49e+00	0	29	104	0	86	23919
2026-01-03 23:40:50.69	35.71	21.57	-60.5	-76.6	3.8	1.49e+00	0	29	104	0	86	23905
2026-01-03 23:40:51.69	35.83	21.69	-60.4	-76.6	3.8	1.49e+00	0	29	104	0	86	23864
2026-01-03 23:40:52.69	35.95	21.81	-60.5	-76.6	3.8	1.49e+00	0	29	104	0	86	23912
2026-01-03 23:40:53.69	36.07	21.94	-60.5	-76.6	3.8	1.49e+00	0	29	104	0	86	23873
2026-01-03 23:40:54.69	36.19	22.06	-60.5	-76.6	3.8	1.49e+00	0	29	104	0	86	23914
2026-01-03 23:40:55.70	36.32	22.19	-60.5	-76.6	3.8	1.49e+00	0	29	104	0	86	23948
2026-01-03 23:40:56.70	36.44	22.32	-60.5	-76.6	3.8	1.49e+00	0	29	104	0	86	23895
2026-01-03 23:40:57.70	36.57	22.44	-60.5	-76.6	3.8	1.49e+00	0	29	104	0	86	23936
2026-01-03 23:40:58.71	36.70	22.57	-60.5	-76.6	3.8	1.49e+00	0	29	104	0	86	23870
2026-01-03 23:40:59.71	36.83	22.70	-60.5	-76.6	3.8	1.49e+00	0	29	104	0	86	23882
2026-01-03 23:41:00.71	36.96	22.83	-60.5	-76.6	3.8	1.49e+00	0	29	104	0	86	23908
2026-01-03 23:41:01.71	37.09	22.96	-60.5	-76.5	3.8	1.49e+00	0	29	104	0	86	23846
2026-01-03 23:41:02.70	37.22	23.08	-60.5	-76.6	3.8	1.49e+00	0	29	104	0	86	23872
2026-01-03 23:41:03.71	37.35	23.21	-60.5	-76.6	3.8	1.49e+00	0	29	104	0	86	23884
2026-01-03 23:41:04.71	37.48	23.35	-60.5	-76.6	3.8	1.49e+00	0	29	104	0	86	23870
2026-01-03 23:41:05.71	37.62	23.48	-60.5	-76.6	3.8	1.49e+00	0	29	104	0	86	23935
2026-01-03 23:41:06.71	37.75	23.61	-60.5	-76.5	3.8	1.49e+00	0	29	104	0	86	23845
2026-01-03 23:41:07.71	37.89	23.74	-60.5	-76.6	3.8	1.49e+00	0	29	104	0	86	23872
2026-01-03 23:41:08.71	38.03	23.87	-60.5	-76.5	3.8	1.49e+00	0	29	104	0	86	23820
2026-01-03 23:41:09.70	38.16	24.00	-60.5	-76.5	3.8	1.49e+00	0	29	104	0	86	23820
2026-01-03 23:41:10.70	38.30	24.14	-60.5	-76.6	3.8	1.49e+00	0	29	104	0	86	23880
2026-01-03 23:41:11.71	38.44	24.27	-60.5	-76.5	3.8	1.49e+00	0	29	104	0	86	23854
2026-01-03 23:41:12.71	38.59	24.40	-60.5	-76.5	3.8	1.49e+00	0	29	104	0	86	23851
2026-01-03 23:41:13.71	38.73	24.54	-60.5	-76.6	3.8	1.49e+00	0	29	104	0	86	23881
2026-01-03 23:41:14.71	38.87	24.67	-60.5	-76.6	3.8	1.49e+00	0	29	104	0	86	23883
2026-01-03 23:41:15.71	39.02	24.81	-60.5	-76.6	3.9	1.49e+00	0	29	104	0	86	23925
2026-01-03 23:41:16.72	39.17	24.95	-60.5	-76.5	3.8	1.49e+00	0	29	104	0	86	23848
2026-01-03 23:41:17.71	39.31	25.08	-60.5	-76.6	3.8	1.49e+00	0	29	104	0	86	23897
2026-01-03 23:41:18.71	39.46	25.22	-60.5	-76.6	3.8	1.49e+00	0	29	104	0	86	23878
2026-01-03 23:41:19.72	39.62	25.36	-60.5	-76.6	3.8	1.49e+00	0	29	104	0	86	23924
2026-01-03 23:41:20.71	39.77	25.50	-60.4	-76.6	3.8	1.49e+00	0	29	104	0	86	23889
2026-01-03 23:41:21.71	39.92	25.64	-60.4	-76.6	3.8	1.49e+00	0	29	104	0	86	23899
2026-01-03 23:41:22.71	40.07	25.78	-60.5	-76.6	3.8	1.49e+00	0	29	104	0	86	23896
2026-01-03 23:41:23.71	40.23	25.92	-60.5	-76.5	3.8	1.49e+00	0	29	104	0	86	23804
2026-01-03 23:41:24.71	40.39	26.06	-60.4	-76.5	3.8	1.49e+00	0	29	104	0	86	23792
2026-01-03 23:41:25.71	40.55	26.20	-60.4	-76.5	3.8	1.49e+00	0	29	104	0	86	23833
2026-01-03 23:41:26.71	40.71	26.34	-60.5	-76.6	3.8	1.49e+00	0	29	104	0	86	23915
2026-01-03 23:41:27.71	40.87	26.48	-60.5	-76.6	3.8	1.49e+00	0	29	104	0	86	23855
2026-01-03 23:41:28.71	41.03	26.62	-60.5	-76.5	3.8	1.49e+00	0	29	104	0	86	23850
2026-01-03 23:41:29.70	41.19	26.77	-60.5	-76.6	3.8	1.49e+00	0	29	104	0	86	23944
2026-01-03 23:41:30.70	41.36	26.91	-60.4	-76.6	3.8	1.49e+00	0	29	104	0	86	23889
2026-01-03 23:41:31.70	41.52	27.05	-60.4	-76.5	3.8	1.49e+00	0	29	104	0	86	23819
2026-01-03 23:41:32.69	41.69	27.20	-60.4	-76.5	3.8	1.49e+00	0	29	104	0	86	23844
2026-01-03 23:41:33.69	41.86	27.34	-60.5	-76.5	3.8	1.49e+00	0	29	104	0	86	23777
2026-01-03 23:41:34.69	42.03	27.49	-60.5	-76.5	3.8	1.49e+00	0	29	104	0	86	23811
2026-01-03 23:41:35.69	42.21	27.63	-60.5	-76.5	3.8	1.49e+00	0	29	104	0	86	23841
2026-01-03 23:41:36.69	42.38	27.78	-60.5	-76.6	3.8	1.49e+00	0	29	104	0	86	23866
2026-01-03 23:41:37.69	42.56	27.93	-60.5	-76.5	3.8	1.49e+00	0	29	104	0	86	23826
2026-01-03 23:41:38.68	42.73	28.07	-60.4	-76.5	3.8	1.49e+00	0	29	104	0	86	23821
2026-01-03 23:41:39.68	42.91	28.22	-60.5	-76.6	3.8	1.49e+00	0	29	104	0	86	23883
2026-01-03 23:41:40.68	43.09	28.37	-60.5	-76.5	3.8	1.49e+00	0	29	104	0	86	23837
2026-01-03 23:41:41.68	43.28	28.52	-60.5	-76.5	3.8	1.49e+00	0	29	104	0	86	23838
2026-01-03 23:41:42.68	43.46	28.67	-60.5	-76.6	3.8	1.49e+00	0	29	104	0	86	23881
2026-01-03 23:41:43.68	43.65	28.82	-60.5	-76.6	3.8	1.49e+00	0	29	104	0	86	23879
2026-01-03 23:41:44.67	43.83	28.97	-60.5	-76.6	3.8	1.49e+00	0	29	104	0	86	23859
2026-01-03 23:41:45.67	44.02	29.12	-60.5	-76.6	3.8	1.49e+00	0	29	104	0	86	23876
2026-01-03 23:41:46.68	44.21	29.27	-60.4	-76.5	3.8	1.49e+00	0	29	104	0	86	23818
2026-01-03 23:41:47.67	44.40	29.42	-60.4	-76.5	3.8	1.49e+00	0	29	104	0	86	23813
2026-01-03 23:41:48.68	44.60	29.58	-60.4	-76.6	3.8	1.49e+00	0	29	104	0	86	23858
2026-01-03 23:41:49.68	44.80	29.73	-60.4	-76.5	3.8	1.49e+00	0	29	104	0	86	23801
2026-01-03 23:41:50.69	45.00	29.89	-60.4	-76.5	3.8	1.49e+00	0	29	104	0	86	23834
2026-01-03 23:41:51.69	45.20	30.04	-60.4	-76.5	3.8	1.49e+00	0	29	104	0	86	23813
2026-01-03 23:41:52.69	45.40	30.19	-60.4	-76.5	3.8	1.49e+00	0	29	104	0	86	23791
2026-01-03 23:41:53.69	45.60	30.35	-60.5	-76.6	3.8	1.49e+00	0	29	104	0	86	23890
2026-01-03 23:41:54.69	45.81	30.50	-60.4	-76.5	3.8	1.49e+00	0	29	104	0	86	23853
2026-01-03 23:41:55.69	46.02	30.66	-60.5	-76.6	3.8	1.49e+00	0	29	104	0	86	23884
2026-01-03 23:41:56.69	46.23	30.82	-60.5	-76.5	3.8	1.49e+00	0	29	104	0	86	23837
2026-01-03 23:41:57.68	46.44	30.97	-60.4	-76.5	3.8	1.49e+00	0	29	104	0	86	23766
2026-01-03 23:41:58.69	46.65	31.13	-60.5	-76.5	3.8	1.49e+00	0	29	104	0	86	23835
2026-01-03 23:41:59.69	46.87	31.29	-60.5	-76.5	3.8	1.49e+00	0	29	104	0	86	23824
2026-01-03 23:42:00.69	47.09	31.45	-60.4	-76.5	3.8	1.49e+00	0	29	104	0	86	23803
2026-01-03 23:42:01.68	47.31	31.60	-60.4	-76.5	3.8	1.49e+00	0	29	104	0	86	23800
2026-01-03 23:42:02.69	47.53	31.76	-60.5	-76.6	3.8	1.49e+00	0	29	104	0	86	23869
2026-01-03 23:42:03.69	47.75	31.92	-60.4	-76.5	3.8	1.49e+00	0	29	104	0	86	23833
2026-01-03 23:42:04.69	47.98	32.08	-60.4	-76.5	3.8	1.49e+00	0	29	104	0	86	23816
2026-01-03 23:42:05.69	48.21	32.24	-60.5	-76.6	3.8	1.49e+00	0	29	104	0	86	23880
2026-01-03 23:42:06.69	48.44	32.40	-60.5	-76.5	3.8	1.49e+00	0	29	104	0	86	23799
2026-01-03 23:42:07.69	48.67	32.56	-60.4	-76.5	3.9	1.49e+00	0	29	104	0	86	23776
2026-01-03 23:42:08.68	48.91	32.72	-60.4	-76.5	3.8	1.49e+00	0	29	104	0	86	23788
2026-01-03 23:42:09.68	49.14	32.88	-60.4	-76.5	3.8	1.49e+00	0	29	104	0	86	23777
2026-01-03 23:42:10.68	49.38	33.05	-60.5	-76.5	3.8	1.49e+00	0	29	104	0	86	23826
2026-01-03 23:42:11.68	49.63	33.21	-60.4	-76.6	3.8	1.49e+00	0	29	104	0	86	23891
2026-01-03 23:42:12.68	49.87	33.37	-60.4	-76.6	3.8	1.49e+00	0	29	104	0	86	23855
2026-01-03 23:42:13.69	50.12	33.54	-60.4	-76.5	3.8	1.49e+00	0	29	104	0	86	23816
2026-01-03 23:42:14.69	50.37	33.70	-60.4	-76.5	3.8	1.49e+00	0	29	104	0	86	23764
2026-01-03 23:42:15.69	50.62	33.86	-60.4	-76.5	3.8	1.49e+00	0	29	104	0	86	23795
2026-01-03 23:42:16.70	50.88	34.03	-60.4	-76.5	3.8	1.49e+00	0	29	104	0	86	23768
2026-01-03 23:42:17.71	51.14	34.19	-60.4	-76.5	3.8	1.49e+00	0	29	104	0	86	23745
2026-01-03 23:42:18.71	51.40	34.36	-60.4	-76.5	3.8	1.49e+00	0	29	104	0	86	23780
2026-01-03 23:42:19.71	51.66	34.52	-60.4	-76.5	3.8	1.49e+00	0	29	104	0	86	23798
2026-01-03 23:42:20.71	51.93	34.69	-60.4	-76.5	3.8	1.49e+00	0	29	104	0	86	23748
2026-01-03 23:42:21.71	52.19	34.85	-60.4	-76.5	3.8	1.49e+00	0	29	104	0	86	23819
2026-01-03 23:42:22.72	52.47	35.02	-60.4	-76.5	3.8	1.49e+00	0	29	104	0	86	23831
2026-01-03 23:42:23.72	52.74	35.18	-60.4	-76.5	3.8	1.49e+00	0	29	104	0	86	23793
2026-01-03 23:42:24.73	53.02	35.35	-60.4	-76.6	3.8	1.49e+00	0	29	104	0	86	23887
2026-01-03 23:42:25.73	53.30	35.51	-60.4	-76.5	3.8	1.49e+00	0	29	104	0	86	23769
2026-01-03 23:42:26.73	53.58	35.68	-60.4	-76.5	3.8	1.49e+00	0	29	104	0	86	23780
2026-01-03 23:42:27.73	53.86	35.84	-60.4	-76.5	3.8	1.49e+00	0	29	104	0	86	23814
2026-01-03 23:42:28.73	54.15	36.01	-60.4	-76.5	3.8	1.49e+00	0	29	104	0	86	23807
2026-01-03 23:42:29.73	54.44	36.18	-60.4	-76.5	3.8	1.49e+00	0	29	104	0	86	23823
2026-01-03 23:42:30.72	54.73	36.34	-60.4	-76.5	3.8	1.49e+00	0	29	104	0	86	23737
2026-01-03 23:42:31.72	55.02	36.51	-60.4	-76.5	3.8	1.49e+00	0	29	104	0	86	23730
2026-01-03 23:42:32.71	55.32	36.67	-60.4	-76.5	3.8	1.49e+00	0	29	104	0	86	23812
2026-01-03 23:42:33.70	55.62	36.83	-60.4	-76.5	3.8	1.49e+00	0	29	104	0	86	23789
2026-01-03 23:42:34.70	55.92	37.00	-60.4	-76.5	3.8	1.49e+00	0	29	104	0	86	23802
2026-01-03 23:42:35.70	56.23	37.17	-60.4	-76.6	3.8	1.49e+00	0	29	104	0	86	23870
2026-01-03 23:42:36.70	56.54	37.33	-60.4	-76.5	3.8	1.49e+00	0	29	104	0	86	23793
2026-01-03 23:42:37.70	56.85	37.50	-60.4	-76.5	3.8	1.49e+00	0	29	104	0	86	23817
2026-01-03 23:42:38.69	57.17	37.66	-60.4	-76.5	3.8	1.49e+00	0	29	104	0	86	23850
2026-01-03 23:42:39.69	57.49	37.83	-60.4	-76.5	3.8	1.49e+00	0	29	104	0	86	23772
2026-01-03 23:42:40.69	57.81	37.99	-60.4	-76.5	3.8	1.49e+00	0	29	104	0	86	23790
2026-01-03 23:42:41.69	58.14	38.16	-60.4	-76.5	3.8	1.49e+00	0	29	104	0	86	23826
2026-01-03 23:42:42.70	58.47	38.32	-60.4	-76.5	3.8	1.49e+00	0	29	104	0	86	23770
2026-01-03 23:42:43.70	58.80	38.49	-60.4	-76.5	3.8	1.49e+00	0	29	104	0	86	23734
2026-01-03 23:42:44.70	59.14	38.65	-60.4	-76.5	3.8	1.49e+00	0	29	104	0	86	23748
2026-01-03 23:42:45.70	59.48	38.82	-60.4	-76.5	3.8	1.49e+00	0	29	104	0	86	23760
2026-01-03 23:42:46.69	59.82	38.98	-60.4	-76.5	3.8	1.49e+00	0	29	104	0	86	23801
2026-01-03 23:42:47.69	60.17	39.14	-60.4	-76.5	3.8	1.49e+00	0	29	104	0	86	23742
2026-01-03 23:42:48.69	60.52	39.30	-60.4	-76.5	3.8	1.49e+00	0	29	104	0	86	23725
2026-01-03 23:42:49.69	60.87	39.47	-60.4	-76.5	3.8	1.49e+00	0	29	104	0	86	23763
2026-01-03 23:42:50.69	61.23	39.63	-60.4	-76.5	3.8	1.49e+00	0	29	104	0	86	23737
2026-01-03 23:42:51.69	61.59	39.79	-60.4	-76.5	3.8	1.49e+00	0	29	104	0	86	23756
2026-01-03 23:42:52.70	61.96	39.95	-60.4	-76.5	3.8	1.49e+00	0	29	104	0	86	23787
2026-01-03 23:42:53.70	62.32	40.11	-60.4	-76.5	3.8	1.49e+00	0	29	104	0	86	23795
2026-01-03 23:42:54.71	62.70	40.27	-60.4	-76.5	3.8	1.49e+00	0	29	104	0	86	23760
2026-01-03 23:42:55.72	63.08	40.43	-60.4	-76.5	3.8	1.49e+00	0	29	104	0	86	23785
2026-01-03 23:42:56.72	63.46	40.59	-60.4	-76.5	3.8	1.49e+00	0	29	104	0	86	23778
2026-01-03 23:42:57.72	63.84	40.75	-60.4	-76.5	3.8	1.49e+00	0	29	104	0	86	23791
2026-01-03 23:42:58.73	64.23	40.91	-60.4	-76.5	3.8	1.49e+00	0	29	104	0	86	23731
2026-01-03 23:42:59.73	64.62	41.07	-60.4	-76.5	3.8	1.49e+00	0	29	104	0	86	23737
2026-01-03 23:43:00.73	65.01	41.22	-60.4	-76.5	3.8	1.49e+00	0	29	104	0	86	23795
2026-01-03 23:43:01.74	65.42	41.38	-60.4	-76.5	3.8	1.49e+00	0	29	104	0	86	23771
2026-01-03 23:43:02.73	65.81	41.53	-60.4	-76.5	3.8	1.49e+00	0	29	104	0	86	23802
2026-01-03 23:43:03.74	66.22	41.68	-60.4	-76.5	3.8	1.49e+00	0	29	104	0	86	23784
2026-01-03 23:43:04.74	66.63	41.84	-60.4	-76.5	3.8	1.49e+00	0	29	104	0	86	23779
2026-01-03 23:43:05.74	67.04	41.99	-60.4	-76.5	3.8	1.49e+00	0	29	104	0	86	23851
2026-01-03 23:43:06.73	67.46	42.14	-60.4	-76.5	3.8	1.49e+00	0	29	104	0	86	23783
2026-01-03 23:43:07.73	67.88	42.29	-60.4	-76.5	3.8	1.49e+00	0	29	104	0	86	23760
2026-01-03 23:43:08.73	68.30	42.43	-60.4	-76.5	3.8	1.49e+00	0	29	104	0	86	23813
2026-01-03 23:43:09.73	68.73	42.58	-60.4	-76.5	3.8	1.49e+00	0	29	104	0	86	23836
2026-01-03 23:43:10.74	69.16	42.73	-60.4	-76.5	3.8	1.49e+00	0	29	104	0	86	23750
2026-01-03 23:43:11.73	69.60	42.87	-60.4	-76.5	3.8	1.49e+00	0	29	104	0	86	23757
2026-01-03 23:43:12.74	70.04	43.02	-60.4	-76.5	3.8	1.49e+00	0	29	104	0	86	23730
2026-01-03 23:43:13.74	70.48	43.16	-60.4	-76.5	3.8	1.49e+00	0	29	104	0	86	23755
2026-01-03 23:43:14.75	70.93	43.30	-60.4	-76.5	3.8	1.49e+00	0	29	104	0	86	23769
2026-01-03 23:43:15.75	71.39	43.44	-60.4	-76.5	3.8	1.49e+00	0	29	104	0	86	23750
2026-01-03 23:43:16.76	71.85	43.58	-60.4	-76.5	3.8	1.49e+00	0	29	104	0	86	23773
2026-01-03 23:43:17.76	72.31	43.71	-60.4	-76.5	3.8	1.49e+00	0	29	104	0	86	23679
2026-01-03 23:43:18.75	72.76	43.85	-60.4	-76.5	3.8	1.49e+00	0	29	104	0	86	23723
2026-01-03 23:43:19.75	73.23	43.98	-60.4	-76.5	3.8	1.49e+00	0	29	104	0	86	23713
2026-01-03 23:43:20.76	73.71	44.11	-60.4	-76.5	3.8	1.49e+00	0	29	104	0	86	23739
2026-01-03 23:43:21.77	74.19	44.24	-60.4	-76.5	3.8	1.49e+00	0	29	104	0	86	23792
2026-01-03 23:43:22.77	74.66	44.37	-60.4	-76.5	3.8	1.49e+00	0	29	104	0	86	23718
2026-01-03 23:43:23.77	75.15	44.50	-60.4	-76.5	3.8	1.49e+00	0	29	104	0	86	23733
2026-01-03 23:43:24.76	75.63	44.62	-60.4	-76.5	3.8	1.49e+00	0	29	104	0	86	23744
2026-01-03 23:43:25.76	76.12	44.74	-60.4	-76.5	3.8	1.49e+00	0	29	104	0	86	23720
2026-01-03 23:43:26.76	76.61	44.86	-60.4	-76.5	3.8	1.49e+00	0	29	104	0	86	23693
2026-01-03 23:43:27.76	77.11	44.98	-60.4	-76.5	3.8	1.49e+00	0	29	104	0	86	23677
2026-01-03 23:43:28.75	77.60	45.10	-60.4	-76.5	3.8	1.49e+00	0	29	104	0	86	23677
2026-01-03 23:43:29.75	78.11	45.21	-60.4	-76.5	3.8	1.49e+00	0	29	104	0	86	23714
2026-01-03 23:43:30.76	78.62	45.33	-60.4	-76.5	3.8	1.49e+00	0	29	104	0	86	23677
2026-01-03 23:43:31.75	79.13	45.44	-60.4	-76.5	3.8	1.49e+00	0	29	104	0	86	23738
2026-01-03 23:43:32.75	79.64	45.54	-60.4	-76.5	3.8	1.49e+00	0	29	104	0	86	23787
2026-01-03 23:43:33.74	80.16	45.65	-60.4	-76.5	3.8	1.49e+00	0	29	104	0	86	23649
2026-01-03 23:43:34.73	80.67	45.75	-60.4	-76.5	3.8	1.49e+00	0	29	104	0	86	23743
2026-01-03 23:43:35.73	81.20	45.85	-60.4	-76.5	3.8	1.49e+00	0	29	104	0	86	23741
2026-01-03 23:43:36.73	81.73	45.95	-60.4	-76.5	3.8	1.49e+00	0	29	104	0	86	23784
2026-01-03 23:43:37.72	82.25	46.05	-60.4	-76.5	3.8	1.49e+00	0	29	104	0	86	23772
2026-01-03 23:43:38.71	82.78	46.14	-60.4	-76.5	3.8	1.49e+00	0	29	104	0	86	23722
2026-01-03 23:43:39.71	83.32	46.23	-60.4	-76.5	3.8	1.49e+00	0	29	104	0	86	23820
2026-01-03 23:43:40.70	83.86	46.32	-60.4	-76.5	3.8	1.49e+00	0	29	104	0	86	23705
2026-01-03 23:43:41.70	84.40	46.41	-60.4	-76.5	3.8	1.49e+00	0	29	104	0	86	23714
2026-01-03 23:43:42.69	84.94	46.49	-60.4	-76.5	3.8	1.49e+00	0	29	104	0	86	23644
2026-01-03 23:43:43.68	85.49	46.57	-60.4	-76.5	3.8	1.49e+00	0	29	104	0	86	23696
2026-01-03 23:43:44.68	86.04	46.65	-60.4	-76.5	3.8	1.49e+00	0	29	104	0	86	23660
2026-01-03 23:43:45.68	86.60	46.73	-60.4	-76.5	3.8	1.49e+00	0	29	104	0	86	23621
2026-01-03 23:43:46.68	87.15	46.80	-60.4	-76.5	3.8	1.49e+00	0	29	104	0	86	23717
2026-01-03 23:43:47.68	87.72	46.87	-60.4	-76.5	3.8	1.49e+00	0	29	104	0	86	23707
2026-01-03 23:43:48.68	88.28	46.94	-60.4	-76.5	3.8	1.49e+00	0	29	104	0	86	23673
2026-01-03 23:43:49.68	88.84	47.01	-60.4	-76.5	3.8	1.49e+00	0	29	104	0	86	23687
2026-01-03 23:43:50.68	89.41	47.07	-60.4	-76.5	3.8	1.49e+00	0	29	104	0	86	23666
2026-01-03 23:43:51.68	89.98	47.13	-60.4	-76.5	3.8	1.49e+00	0	29	104	0	86	23695
2026-01-03 23:43:52.68	90.55	47.18	-60.4	-76.5	3.8	1.49e+00	0	29	104	0	86	23680
2026-01-03 23:43:53.69	91.13	47.24	-60.4	-76.5	3.8	1.49e+00	0	29	104	0	86	23681
2026-01-03 23:43:54.69	91.71	47.29	-60.4	-76.5	3.8	1.49e+00	0	29	104	0	86	23682
2026-01-03 23:43:55.69	92.29	47.33	-60.4	-76.5	3.8	1.49e+00	0	29	104	0	86	23720
2026-01-03 23:43:56.69	92.87	47.38	-60.4	-76.5	3.9	1.49e+00	0	29	104	0	86	23673
2026-01-03 23:43:57.69	93.45	47.42	-60.4	-76.5	3.8	1.49e+00	0	29	104	0	86	23695
2026-01-03 23:43:58.69	94.03	47.46	-60.4	-76.5	3.8	1.49e+00	0	29	104	0	86	23671
2026-01-03 23:43:59.69	94.62	47.49	-60.4	-76.5	3.8	1.49e+00	0	29	104	0	86	23661
2026-01-03 23:44:00.69	95.20	47.52	-60.4	-76.5	3.8	1.49e+00	0	29	104	0	86	23661
2026-01-03 23:44:01.68	95.78	47.55	-60.4	-76.5	3.8	1.49e+00	0	29	104	0	86	23640
2026-01-03 23:44:02.68	96.37	47.58	-60.4	-76.5	3.8	1.49e+00	0	29	104	0	86	23693
2026-01-03 23:44:03.68	96.96	47.60	-60.4	-76.5	3.8	1.49e+00	0	29	104	0	86	23672
2026-01-03 23:44:04.68	97.55	47.62	-60.4	-76.5	3.8	1.49e+00	0	29	104	0	86	23669
2026-01-03 23:44:05.68	98.14	47.63	-60.4	-76.5	3.8	1.49e+00	0	29	104	0	86	23676
2026-01-03 23:44:06.68	98.73	47.65	-60.4	-76.5	3.8	1.49e+00	0	29	104	0	86	23726
2026-01-03 23:44:07.68	99.32	47.65	-60.4	-76.5	3.8	1.49e+00	0	29	104	0	86	23684
2026-01-03 23:44:08.69	99.92	47.66	-60.4	-76.5	3.8	1.49e+00	0	29	104	0	86	23643
2026-01-03 23:44:09.69	100.51	47.66	-60.4	-76.5	3.8	1.49e+00	0	29	104	0	86	23628
2026-01-03 23:44:10.69	101.10	47.66	-60.4	-76.5	3.8	1.49e+00	0	29	104	0	86	23657
2026-01-03 23:44:11.69	101.69	47.66	-60.4	-76.5	3.8	1.49e+00	0	29	104	0	86	23606
2026-01-03 23:44:12.69	102.28	47.65	-60.4	-76.5	3.8	1.49e+00	0	29	104	0	86	23672
2026-01-03 23:44:13.70	102.88	47.64	-60.4	-76.5	3.8	1.49e+00	0	29	104	0	86	23654
2026-01-03 23:44:14.69	103.46	47.63	-60.4	-76.5	3.8	1.49e+00	0	29	104	0	86	23675
2026-01-03 23:44:15.70	104.06	47.61	-60.4	-76.5	3.8	1.49e+00	0	29	104	0	86	23643
2026-01-03 23:44:16.70	104.65	47.59	-60.4	-76.5	3.8	1.49e+00	0	29	104	0	86	23618
2026-01-03 23:44:17.71	105.24	47.57	-60.4	-76.5	3.8	1.49e+00	0	29	104	0	86	23614
2026-01-03 23:44:18.71	105.83	47.54	-60.4	-76.5	3.8	1.49e+00	0	29	104	0	86	23641
2026-01-03 23:44:19.70	106.41	47.51	-60.4	-76.5	3.8	1.49e+00	0	29	104	0	86	23646
2026-01-03 23:44:20.71	107.00	47.48	-60.4	-76.5	3.8	1.49e+00	0	29	104	0	86	23652
2026-01-03 23:44:21.71	107.58	47.44	-60.4	-76.5	3.8	1.49e+00	0	29	104	0	86	23630
2026-01-03 23:44:22.71	108.17	47.40	-60.4	-76.5	3.8	1.49e+00	0	29	104	0	86	23631
2026-01-03 23:44:23.70	108.74	47.36	-60.4	-76.5	3.8	1.49e+00	0	29	104	0	86	23703
2026-01-03 23:44:24.71	109.33	47.32	-60.4	-76.5	3.8	1.49e+00	0	29	104	0	86	23697
2026-01-03 23:44:25.71	109.90	47.27	-60.4	-76.5	3.9	1.49e+00	0	29	104	0	86	23675
2026-01-03 23:44:26.71	110.48	47.22	-60.4	-76.5	3.8	1.49e+00	0	29	104	0	86	23690
2026-01-03 23:44:27.70	111.05	47.16	-60.4	-76.5	3.8	1.49e+00	0	29	104	0	86	23656
2026-01-03 23:44:28.71	111.63	47.10	-60.4	-76.5	3.8	1.49e+00	0	29	104	0	86	23687
2026-01-03 23:44:29.70	112.19	47.05	-60.4	-76.5	3.8	1.49e+00	0	29	104	0	86	23637
2026-01-03 23:44:30.69	112.75	46.98	-60.4	-76.5	3.8	1.49e+00	0	29	104	0	86	23640
2026-01-03 23:44:31.69	113.32	46.92	-60.4	-76.5	3.8	1.49e+00	0	29	104	0	86	23662
2026-01-03 23:44:32.70	113.89	46.85	-60.4	-76.5	3.8	1.49e+00	0	29	104	0	86	23665
2026-01-03 23:44:33.70	114.45	46.78	-60.4	-76.5	3.8	1.49e+00	0	29	104	0	86	23647
2026-01-03 23:44:34.70	115.00	46.70	-60.4	-76.5	3.8	1.49e+00	0	29	104	0	86	23627
2026-01-03 23:44:35.70	115.56	46.62	-60.4	-76.5	3.9	1.49e+00	0	29	104	0	86	23651
2026-01-03 23:44:36.71	116.12	46.54	-60.4	-76.5	3.8	1.49e+00	0	29	104	0	86	23702
2026-01-03 23:44:37.71	116.67	46.46	-60.4	-76.5	3.8	1.49e+00	0	29	104	0	86	23675
2026-01-03 23:44:38.71	117.21	46.37	-60.4	-76.5	3.8	1.49e+00	0	29	104	0	86	23629
2026-01-03 23:44:39.71	117.76	46.29	-60.4	-76.5	3.8	1.49e+00	0	29	104	0	86	23607
2026-01-03 23:44:40.71	118.30	46.20	-60.4	-76.5	3.8	1.49e+00	0	29	104	0	86	23623
2026-01-03 23:44:41.71	118.84	46.10	-60.4	-76.5	3.8	1.49e+00	0	29	104	0	86	23658
2026-01-03 23:44:42.71	119.37	46.01	-60.4	-76.5	3.8	1.49e+00	0	29	104	0	86	23712
2026-01-03 23:44:43.72	119.91	45.91	-60.4	-76.5	3.8	1.49e+00	0	29	104	0	86	23640
2026-01-03 23:44:44.72	120.44	45.81	-60.4	-76.5	3.8	1.49e+00	0	29	104	0	86	23623
2026-01-03 23:44:45.72	120.96	45.71	-60.4	-76.5	3.8	1.49e+00	0	29	104	0	86	23612
2026-01-03 23:44:46.72	121.48	45.60	-60.4	-76.5	3.8	1.49e+00	0	29	104	0	86	23611
2026-01-03 23:44:47.72	122.00	45.49	-60.4	-76.5	3.8	1.49e+00	0	29	104	0	86	23654
2026-01-03 23:44:48.72	122.51	45.38	-60.4	-76.5	3.8	1.49e+00	0	29	104	0	86	23660
2026-01-03 23:44:49.72	123.02	45.27	-60.4	-76.5	3.8	1.49e+00	0	29	104	0	86	23589
2026-01-03 23:44:50.72	123.53	45.16	-60.4	-76.5	3.8	1.49e+00	0	29	104	0	86	23677
2026-01-03 23:44:51.72	124.03	45.04	-60.4	-76.5	3.8	1.49e+00	0	29	104	0	86	23605
2026-01-03 23:44:52.73	124.54	44.92	-60.4	-76.5	3.8	1.49e+00	0	29	104	0	86	23692
2026-01-03 23:44:53.73	125.04	44.80	-60.4	-76.5	3.8	1.49e+00	0	29	104	0	86	23634
2026-01-03 23:44:54.73	125.53	44.68	-60.4	-76.5	3.8	1.49e+00	0	29	104	0	86	23659
2026-01-03 23:44:55.73	126.02	44.56	-60.4	-76.5	3.8	1.49e+00	0	29	104	0	86	23634
2026-01-03 23:44:56.73	126.50	44.43	-60.4	-76.5	3.8	1.49e+00	0	29	104	0	86	23679
2026-01-03 23:44:57.73	126.98	44.30	-60.4	-76.5	3.8	1.49e+00	0	29	104	0	86	23680
2026-01-03 23:44:58.74	127.46	44.17	-60.4	-76.5	3.8	1.49e+00	0	29	104	0	86	23656
2026-01-03 23:44:59.74	127.94	44.04	-60.4	-76.5	3.8	1.49e+00	0	29	104	0	86	23669
2026-01-03 23:45:00.74	128.41	43.91	-60.4	-76.5	3.8	1.49e+00	0	29	104	0	86	23655
2026-01-03 23:45:01.74	128.87	43.78	-60.4	-76.5	3.8	1.49e+00	0	29	104	0	86	23636
2026-01-03 23:45:02.74	129.34	43.64	-60.4	-76.5	3.8	1.49e+00	0	29	104	0	86	23636
2026-01-03 23:45:03.75	129.80	43.50	-60.4	-76.5	3.8	1.49e+00	0	29	104	0	86	23626
2026-01-03 23:45:04.75	130.25	43.36	-60.4	-76.5	3.8	1.49e+00	0	29	104	0	86	23637
2026-01-03 23:45:05.76	130.71	43.22	-60.4	-76.5	3.8	1.49e+00	0	29	104	0	86	23623
2026-01-03 23:45:06.76	131.15	43.08	-60.4	-76.5	3.8	1.49e+00	0	29	104	0	86	23635
2026-01-03 23:45:07.76	131.60	42.94	-60.4	-76.5	3.8	1.49e+00	0	29	104	0	86	23591
2026-01-03 23:45:08.76	132.03	42.79	-60.4	-76.5	3.8	1.49e+00	0	29	104	0	86	23583
2026-01-03 23:45:09.76	132.47	42.65	-60.4	-76.5	3.8	1.49e+00	0	29	104	0	86	23662
2026-01-03 23:45:10.76	132.90	42.50	-60.4	-76.5	3.8	1.49e+00	0	29	104	0	86	23613
2026-01-03 23:45:11.76	133.33	42.35	-60.4	-76.4	3.8	1.49e+00	0	29	104	0	86	23565
2026-01-03 23:45:12.77	133.75	42.20	-60.4	-76.5	3.8	1.49e+00	0	29	104	0	86	23608
2026-01-03 23:45:13.77	134.17	42.05	-60.4	-76.5	3.8	1.49e+00	0	29	104	0	86	23610
2026-01-03 23:45:14.77	134.59	41.90	-60.4	-76.5	3.8	1.49e+00	0	29	104	0	86	23600
2026-01-03 23:45:15.77	135.00	41.75	-60.4	-76.5	3.8	1.49e+00	0	29	104	0	86	23655
2026-01-03 23:45:16.77	135.41	41.60	-60.4	-76.5	3.8	1.49e+00	0	29	104	0	86	23594
2026-01-03 23:45:17.78	135.82	41.44	-60.4	-76.5	3.8	1.49e+00	0	29	104	0	86	23624
2026-01-03 23:45:18.78	136.22	41.29	-60.4	-76.5	3.8	1.49e+00	0	29	104	0	86	23642
2026-01-03 23:45:19.79	136.62	41.13	-60.4	-76.5	3.9	1.49e+00	0	29	104	0	86	23639
2026-01-03 23:45:20.79	137.01	40.97	-60.4	-76.5	3.8	1.49e+00	0	29	104	0	86	23642
2026-01-03 23:45:21.79	137.40	40.81	-60.4	-76.5	3.8	1.49e+00	0	29	104	0	86	23596
2026-01-03 23:45:22.79	137.78	40.66	-60.4	-76.5	3.8	1.49e+00	0	29	104	0	86	23660
2026-01-03 23:45:23.79	138.16	40.50	-60.4	-76.5	3.8	1.49e+00	0	29	104	0	86	23626
2026-01-03 23:45:24.78	138.54	40.34	-60.4	-76.5	3.8	1.49e+00	0	29	104	0	86	23662
2026-01-03 23:45:25.79	138.91	40.18	-60.4	-76.5	3.8	1.49e+00	0	29	104	0	86	23660
2026-01-03 23:45:26.79	139.29	40.02	-60.4	-76.5	3.8	1.49e+00	0	29	104	0	86	23587
2026-01-03 23:45:27.79	139.65	39.86	-60.4	-76.5	3.8	1.49e+00	0	29	104	0	86	23633
2026-01-03 23:45:28.80	140.02	39.69	-60.4	-76.5	3.8	1.49e+00	0	29	104	0	86	23587
2026-01-03 23:45:29.80	140.38	39.53	-60.4	-76.4	3.8	1.49e+00	0	29	104	0	86	23527
2026-01-03 23:45:30.80	140.73	39.37	-60.4	-76.5	3.8	1.49e+00	0	29	104	0	86	23626
2026-01-03 23:45:31.80	141.09	39.20	-60.4	-76.5	3.8	1.49e+00	0	29	104	0	86	23638
2026-01-03 23:45:32.80	141.44	39.04	-60.4	-76.4	3.8	1.49e+00	0	29	104	0	86	23576
2026-01-03 23:45:33.80	141.78	38.88	-60.4	-76.5	3.8	1.49e+00	0	29	104	0	86	23589
2026-01-03 23:45:34.79	142.12	38.71	-60.4	-76.5	3.8	1.49e+00	0	29	104	0	86	23586
2026-01-03 23:45:35.79	142.46	38.55	-60.4	-76.5	3.8	1.49e+00	0	29	104	0	86	23607
2026-01-03 23:45:36.79	142.80	38.38	-60.4	-76.5	3.8	1.49e+00	0	29	104	0	86	23601
2026-01-03 23:45:37.79	143.13	38.22	-60.4	-76.5	3.8	1.49e+00	0	29	104	0	86	23682
2026-01-03 23:45:38.79	143.46	38.05	-60.4	-76.5	3.8	1.49e+00	0	29	104	0	86	23610
2026-01-03 23:45:39.79	143.78	37.89	-60.4	-76.4	3.8	1.49e+00	0	29	104	0	86	23559
2026-01-03 23:45:40.79	144.10	37.72	-60.4	-76.5	3.8	1.49e+00	0	29	104	0	86	23599
2026-01-03 23:45:41.79	144.42	37.56	-60.4	-76.5	3.8	1.49e+00	0	29	104	0	86	23602
2026-01-03 23:45:42.79	144.74	37.39	-60.4	-76.4	3.8	1.49e+00	0	29	104	0	86	23537
2026-01-03 23:45:43.79	145.05	37.22	-60.4	-76.5	3.8	1.49e+00	0	29	104	0	86	23616
2026-01-03 23:45:44.78	145.36	37.06	-60.4	-76.4	3.8	1.49e+00	0	29	104	0	86	23570
2026-01-03 23:45:45.78	145.67	36.89	-60.4	-76.5	3.8	1.49e+00	0	29	104	0	86	23661
2026-01-03 23:45:46.79	145.97	36.72	-60.4	-76.5	3.8	1.49e+00	0	29	104	0	86	23625
2026-01-03 23:45:47.78	146.27	36.56	-60.4	-76.4	3.8	1.49e+00	0	29	104	0	86	23521
2026-01-03 23:45:48.78	146.57	36.39	-60.3	-76.4	3.8	1.49e+00	0	29	104	0	86	23531
2026-01-03 23:45:49.78	146.86	36.23	-60.3	-76.4	3.8	1.49e+00	0	29	104	0	86	23499
2026-01-03 23:45:50.78	147.15	36.06	-60.3	-76.4	3.8	1.49e+00	0	29	104	0	86	23534
2026-01-03 23:45:51.78	147.44	35.89	-60.4	-76.5	3.8	1.49e+00	0	29	104	0	86	23583
2026-01-03 23:45:52.78	147.73	35.73	-60.3	-76.4	3.8	1.49e+00	0	29	104	0	86	23546
2026-01-03 23:45:53.79	148.02	35.56	-60.4	-76.5	3.8	1.49e+00	0	29	104	0	86	23600
2026-01-03 23:45:54.79	148.30	35.39	-60.4	-76.4	3.8	1.49e+00	0	29	104	0	86	23569
2026-01-03 23:45:55.79	148.57	35.23	-60.4	-76.5	3.8	1.49e+00	0	29	104	0	86	23589
2026-01-03 23:45:56.78	148.85	35.06	-60.4	-76.5	3.8	1.49e+00	0	29	104	0	86	23627
2026-01-03 23:45:57.79	149.12	34.90	-60.3	-76.4	3.8	1.49e+00	0	29	104	0	86	23553
2026-01-03 23:45:58.79	149.39	34.73	-60.3	-76.4	3.8	1.49e+00	0	29	104	0	86	23508
2026-01-03 23:45:59.79	149.66	34.57	-60.3	-76.5	3.8	1.49e+00	0	29	104	0	86	23590
2026-01-03 23:46:00.79	149.92	34.40	-60.4	-76.4	3.8	1.49e+00	0	29	104	0	86	23548
2026-01-03 23:46:01.79	150.18	34.24	-60.4	-76.5	3.8	1.49e+00	0	29	104	0	86	23587
2026-01-03 23:46:02.79	150.44	34.07	-60.3	-76.4	3.8	1.49e+00	0	29	104	0	86	23533
2026-01-03 23:46:03.80	150.70	33.90	-60.4	-76.4	3.8	1.49e+00	0	29	104	0	86	23547
2026-01-03 23:46:04.80	150.95	33.74	-60.4	-76.4	3.8	1.49e+00	0	29	104	0	86	23562
2026-01-03 23:46:05.80	151.20	33.58	-60.3	-76.4	3.8	1.49e+00	0	29	104	0	86	23539
2026-01-03 23:46:06.80	151.45	33.41	-60.3	-76.4	3.8	1.49e+00	0	29	104	0	86	23566
2026-01-03 23:46:07.80	151.70	33.25	-60.4	-76.4	3.8	1.49e+00	0	29	104	0	86	23519
2026-01-03 23:46:08.81	151.95	33.09	-60.3	-76.4	3.8	1.49e+00	0	29	104	0	86	23517
2026-01-03 23:46:09.80	152.18	32.92	-60.3	-76.4	3.8	1.49e+00	0	29	104	0	86	23566
2026-01-03 23:46:10.80	152.42	32.76	-60.4	-76.4	3.8	1.49e+00	0	29	104	0	86	23555
2026-01-03 23:46:11.79	152.66	32.60	-60.4	-76.4	3.8	1.49e+00	0	29	104	0	86	23514
2026-01-03 23:46:12.79	152.89	32.44	-60.3	-76.4	3.8	1.49e+00	0	29	104	0	86	23562
2026-01-03 23:46:13.79	153.12	32.28	-60.3	-76.4	3.8	1.49e+00	0	29	104	0	86	23522
2026-01-03 23:46:14.78	153.35	32.12	-60.3	-76.4	3.8	1.49e+00	0	29	104	0	86	23540
2026-01-03 23:46:15.78	153.58	31.96	-60.3	-76.4	3.8	1.49e+00	0	29	104	0	86	23491
2026-01-03 23:46:16.78	153.81	31.80	-60.3	-76.4	3.8	1.49e+00	0	29	104	0	86	23504
2026-01-03 23:46:17.78	154.03	31.64	-60.3	-76.4	3.8	1.49e+00	0	29	104	0	86	23554
2026-01-03 23:46:18.79	154.25	31.48	-60.3	-76.4	3.8	1.49e+00	0	29	104	0	86	23541
2026-01-03 23:46:19.79	154.47	31.32	-60.4	-76.4	3.8	1.49e+00	0	29	104	0	86	23536
2026-01-03 23:46:20.79	154.69	31.16	-60.4	-76.4	3.8	1.49e+00	0	29	104	0	86	23538
2026-01-03 23:46:21.79	154.90	31.00	-60.3	-76.4	3.8	1.49e+00	0	29	104	0	86	23554
2026-01-03 23:46:22.79	155.12	30.84	-60.3	-76.4	3.8	1.49e+00	0	29	104	0	86	23515
2026-01-03 23:46:23.80	155.33	30.69	-60.4	-76.4	3.8	1.49e+00	0	29	104	0	86	23528
2026-01-03 23:46:24.80	155.54	30.53	-60.4	-76.4	3.8	1.49e+00	0	29	104	0	86	23512
2026-01-03 23:46:25.81	155.75	30.37	-60.3	-76.4	3.8	1.49e+00	0	29	104	0	86	23536
2026-01-03 23:46:26.81	155.95	30.22	-60.3	-76.4	3.8	1.49e+00	0	29	104	0	86	23501
2026-01-03 23:46:27.81	156.16	30.06	-60.3	-76.4	3.8	1.49e+00	0	29	104	0	86	23576
2026-01-03 23:46:28.81	156.36	29.91	-60.3	-76.4	3.8	1.49e+00	0	29	104	0	86	23448
2026-01-03 23:46:29.81	156.56	29.75	-60.3	-76.4	3.8	1.49e+00	0	29	104	0	86	23510
2026-01-03 23:46:30.81	156.76	29.60	-60.3	-76.4	3.8	1.49e+00	0	29	104	0	86	23504
2026-01-03 23:46:31.82	156.95	29.44	-60.3	-76.4	3.8	1.49e+00	0	29	104	0	86	23502
2026-01-03 23:46:32.81	157.15	29.29	-60.3	-76.4	3.8	1.49e+00	0	29	104	0	86	23488
2026-01-03 23:46:33.82	157.34	29.14	-60.3	-76.4	3.8	1.49e+00	0	29	104	0	86	23479
2026-01-03 23:46:34.82	157.53	28.98	-60.3	-76.4	3.8	1.49e+00	0	29	104	0	86	23440
2026-01-03 23:46:35.82	157.72	28.83	-60.3	-76.4	3.8	1.49e+00	0	29	104	0	86	23539
2026-01-03 23:46:36.82	157.91	28.68	-60.3	-76.4	3.8	1.49e+00	0	29	104	0	86	23464
2026-01-03 23:46:37.81	158.09	28.53	-60.3	-76.4	3.8	1.49e+00	0	29	104	0	86	23484
2026-01-03 23:46:38.80	158.27	28.38	-60.3	-76.4	3.8	1.49e+00	0	29	104	0	86	23553
2026-01-03 23:46:39.80	158.45	28.23	-60.3	-76.4	3.8	1.49e+00	0	29	104	0	86	23536
2026-01-03 23:46:40.80	158.63	28.08	-60.3	-76.4	3.8	1.49e+00	0	29	104	0	86	23552
2026-01-03 23:46:41.79	158.81	27.94	-60.4	-76.4	3.8	1.49e+00	0	29	104	0	86	23545
2026-01-03 23:46:42.78	158.98	27.79	-60.3	-76.4	3.8	1.49e+00	0	29	104	0	86	23525
2026-01-03 23:46:43.78	159.16	27.64	-60.3	-76.4	3.8	1.49e+00	0	29	104	0	86	23525
2026-01-03 23:46:44.77	159.33	27.50	-60.3	-76.4	3.8	1.49e+00	0	29	104	0	86	23475
2026-01-03 23:46:45.77	159.50	27.35	-60.3	-76.4	3.8	1.49e+00	0	29	104	0	86	23499
2026-01-03 23:46:46.77	159.68	27.21	-60.3	-76.4	3.8	1.49e+00	0	29	104	0	86	23539
2026-01-03 23:46:47.77	159.84	27.06	-60.3	-76.4	3.8	1.49e+00	0	29	104	0	86	23530
2026-01-03 23:46:48.76	160.01	26.92	-60.3	-76.4	3.8	1.49e+00	0	29	104	0	86	23493
2026-01-03 23:46:49.76	160.18	26.77	-60.3	-76.4	3.8	1.49e+00	0	29	104	0	86	23475
2026-01-03 23:46:50.74	160.34	26.63	-60.3	-76.4	3.8	1.49e+00	0	29	104	0	86	23520
2026-01-03 23:46:51.74	160.50	26.49	-60.3	-76.4	3.8	1.49e+00	0	29	104	0	86	23472
2026-01-03 23:46:52.73	160.66	26.35	-60.3	-76.4	3.8	1.49e+00	0	29	104	0	86	23466
2026-01-03 23:46:53.72	160.82	26.20	-60.3	-76.4	3.8	1.49e+00	0	29	104	0	86	23479
2026-01-03 23:46:54.72	160.98	26.06	-60.3	-76.4	3.8	1.49e+00	0	29	104	0	86	23501
2026-01-03 23:46:55.73	161.14	25.92	-60.3	-76.4	3.8	1.49e+00	0	29	104	0	86	23500
2026-01-03 23:46:56.73	161.30	25.78	-60.3	-76.4	3.8	1.49e+00	0	29	104	0	86	23510
2026-01-03 23:46:57.73	161.45	25.64	-60.3	-76.4	3.8	1.49e+00	0	29	104	0	86	23510
2026-01-03 23:46:58.74	161.61	25.50	-60.3	-76.4	3.8	1.49e+00	0	29	104	0	86	23533
2026-01-03 23:46:59.74	161.76	25.36	-60.3	-76.4	3.8	1.49e+00	0	29	104	0	86	23543
2026-01-03 23:47:00.75	161.91	25.22	-60.3	-76.4	3.8	1.49e+00	0	29	104	0	86	23503
2026-01-03 23:47:01.75	162.06	25.08	-60.3	-76.4	3.8	1.49e+00	0	29	104	0	86	23490
2026-01-03 23:47:02.75	162.21	24.94	-60.3	-76.4	3.8	1.49e+00	0	29	104	0	86	23464
2026-01-03 23:47:03.76	162.36	24.80	-60.3	-76.4	3.8	1.49e+00	0	29	104	0	86	23444
2026-01-03 23:47:04.75	162.51	24.67	-60.3	-76.4	3.8	1.49e+00	0	29	104	0	86	23515
2026-01-03 23:47:05.75	162.65	24.53	-60.3	-76.4	3.8	1.49e+00	0	29	104	0	86	23471
2026-01-03 23:47:06.75	162.79	24.40	-60.3	-76.4	3.8	1.49e+00	0	29	104	0	86	23433
2026-01-03 23:47:07.75	162.94	24.26	-60.3	-76.4	3.8	1.49e+00	0	29	104	0	86	23489
2026-01-03 23:47:08.75	163.08	24.13	-60.3	-76.4	3.8	1.49e+00	0	29	104	0	86	23438
2026-01-03 23:47:09.75	163.22	23.99	-60.3	-76.4	3.8	1.49e+00	0	29	104	0	86	23489
2026-01-03 23:47:10.75	163.36	23.86	-60.3	-76.4	3.8	1.49e+00	0	29	104	0	86	23436
2026-01-03 23:47:11.75	163.50	23.73	-60.3	-76.4	3.8	1.49e+00	0	29	104	0	86	23525
2026-01-03 23:47:12.75	163.63	23.59	-60.3	-76.4	3.8	1.49e+00	0	29	104	0	86	23499
2026-01-03 23:47:13.74	163.77	23.46	-60.3	-76.4	3.8	1.49e+00	0	29	104	0	86	23485
2026-01-03 23:47:14.75	163.90	23.33	-60.3	-76.4	3.8	1.49e+00	0	29	104	0	86	23499
2026-01-03 23:47:15.75	164.04	23.20	-60.3	-76.4	3.8	1.49e+00	0	29	104	0	86	23463
2026-01-03 23:47:16.75	164.17	23.07	-60.3	-76.4	3.8	1.49e+00	0	29	104	0	86	23478
2026-01-03 23:47:17.74	164.30	22.94	-60.3	-76.4	3.8	1.49e+00	0	29	104	0	86	23471
2026-01-03 23:47:18.74	164.43	22.81	-60.3	-76.4	3.8	1.49e+00	0	29	104	0	86	23493
2026-01-03 23:47:19.74	164.56	22.68	-60.3	-76.4	3.8	1.49e+00	0	29	104	0	86	23480
2026-01-03 23:47:20.74	164.69	22.55	-60.3	-76.4	3.8	1.49e+00	0	29	104	0	86	23451
2026-01-03 23:47:21.74	164.82	22.43	-60.3	-76.4	3.8	1.49e+00	0	29	104	0	86	23483
2026-01-03 23:47:22.74	164.94	22.30	-60.3	-76.4	3.8	1.49e+00	0	29	104	0	86	23434
2026-01-03 23:47:23.74	165.07	22.17	-60.3	-76.4	3.8	1.49e+00	0	29	104	0	86	23426
2026-01-03 23:47:24.74	165.19	22.04	-60.3	-76.4	3.8	1.49e+00	0	29	104	0	86	23371
2026-01-03 23:47:25.74	165.31	21.92	-60.3	-76.4	3.8	1.49e+00	0	29	104	0	86	23477
2026-01-03 23:47:26.75	165.44	21.79	-60.3	-76.4	3.8	1.49e+00	0	29	104	0	86	23413
2026-01-03 23:47:27.74	165.56	21.67	-60.3	-76.4	3.8	1.49e+00	0	29	104	0	86	23427
2026-01-03 23:47:28.73	165.68	21.54	-60.3	-76.4	3.8	1.49e+00	0	29	104	0	86	23401
2026-01-03 23:47:29.73	165.80	21.42	-60.3	-76.4	3.8	1.49e+00	0	29	104	0	86	23392
2026-01-03 23:47:30.73	165.92	21.30	-60.3	-76.4	3.8	1.49e+00	0	29	104	0	86	23451
2026-01-03 23:47:31.73	166.03	21.17	-60.3	-76.4	3.8	1.49e+00	0	29	104	0	86	23434
2026-01-03 23:47:32.73	166.15	21.05	-60.3	-76.4	3.8	1.49e+00	0	29	104	0	86	23413
2026-01-03 23:47:33.72	166.27	20.93	-60.3	-76.4	3.8	1.49e+00	0	29	104	0	86	23403
2026-01-03 23:47:34.73	166.38	20.81	-60.3	-76.4	3.8	1.49e+00	0	29	104	0	86	23422
2026-01-03 23:47:35.72	166.49	20.69	-60.3	-76.4	3.8	1.49e+00	0	29	104	0	86	23442
2026-01-03 23:47:36.73	166.61	20.57	-60.3	-76.4	3.8	1.49e+00	0	29	104	0	86	23446
2026-01-03 23:47:37.73	166.72	20.45	-60.3	-76.4	3.8	1.49e+00	0	29	104	0	86	23428
2026-01-03 23:47:38.73	166.83	20.33	-60.3	-76.4	3.8	1.49e+00	0	29	104	0	86	23420
2026-01-03 23:47:39.73	166.94	20.21	-60.3	-76.4	3.8	1.49e+00	0	29	104	0	86	23376
2026-01-03 23:47:40.72	167.05	20.09	-60.3	-76.4	3.8	1.49e+00	0	29	104	0	86	23439
2026-01-03 23:47:41.71	167.16	19.97	-60.3	-76.4	3.8	1.49e+00	0	29	104	0	86	23493
2026-01-03 23:47:42.71	167.27	19.85	-60.3	-76.4	3.8	1.49e+00	0	29	104	0	86	23442
2026-01-03 23:47:43.71	167.38	19.74	-60.3	-76.4	3.8	1.49e+00	0	29	104	0	86	23455
2026-01-03 23:47:44.71	167.48	19.62	-60.3	-76.4	3.8	1.49e+00	0	29	104	0	86	23410
2026-01-03 23:47:45.71	167.59	19.50	-60.3	-76.4	3.8	1.49e+00	0	29	104	0	86	23424
2026-01-03 23:47:46.70	167.69	19.39	-60.3	-76.4	3.8	1.49e+00	0	29	104	0	86	23396
2026-01-03 23:47:47.69	167.80	19.27	-60.3	-76.4	3.8	1.49e+00	0	29	104	0	86	23418
2026-01-03 23:47:48.69	167.90	19.16	-60.3	-76.4	3.8	1.49e+00	0	29	104	0	86	23428
2026-01-03 23:47:49.69	168.01	19.04	-60.3	-76.4	3.8	1.49e+00	0	29	104	0	86	23424
2026-01-03 23:47:50.69	168.11	18.93	-60.3	-76.4	3.8	1.49e+00	0	29	104	0	86	23358
2026-01-03 23:47:51.68	168.21	18.82	-60.3	-76.4	3.8	1.49e+00	0	29	104	0	86	23368
2026-01-03 23:47:52.68	168.31	18.70	-60.3	-76.4	3.8	1.49e+00	0	29	104	0	86	23377
2026-01-03 23:47:53.68	168.41	18.59	-60.3	-76.4	3.8	1.49e+00	0	29	104	0	86	23418
2026-01-03 23:47:54.68	168.51	18.48	-60.3	-76.4	3.8	1.49e+00	0	29	104	0	86	23409
2026-01-03 23:47:55.68	168.61	18.37	-60.3	-76.4	3.8	1.49e+00	0	29	104	0	86	23407
2026-01-03 23:47:56.68	168.71	18.26	-60.3	-76.4	3.8	1.49e+00	0	29	104	0	86	23424
2026-01-03 23:47:57.69	168.80	18.14	-60.3	-76.4	3.8	1.49e+00	0	29	104	0	86	23396
2026-01-03 23:47:58.69	168.90	18.03	-60.3	-76.4	3.8	1.49e+00	0	29	104	0	86	23420
2026-01-03 23:47:59.69	169.00	17.92	-60.3	-76.4	3.8	1.49e+00	0	29	104	0	86	23385
2026-01-03 23:48:00.69	169.09	17.81	-60.3	-76.4	3.8	1.49e+00	0	29	104	0	86	23404
2026-01-03 23:48:01.69	169.19	17.70	-60.3	-76.4	3.8	1.49e+00	0	29	104	0	86	23444
2026-01-03 23:48:02.69	169.28	17.59	-60.3	-76.4	3.8	1.49e+00	0	29	104	0	86	23407
2026-01-03 23:48:03.69	169.37	17.48	-60.3	-76.4	3.8	1.49e+00	0	29	104	0	86	23434
2026-01-03 23:48:04.68	169.47	17.38	-60.3	-76.4	3.8	1.49e+00	0	29	104	0	86	23461
2026-01-03 23:48:05.67	169.56	17.27	-60.3	-76.4	3.8	1.49e+00	0	29	104	0	86	23359
2026-01-03 23:48:06.67	169.65	17.16	-60.3	-76.4	3.8	1.49e+00	0	29	104	0	86	23437
2026-01-03 23:48:07.67	169.74	17.06	-60.3	-76.4	3.8	1.49e+00	0	29	104	0	86	23412
2026-01-03 23:48:08.67	169.83	16.95	-60.3	-76.4	3.8	1.49e+00	0	29	104	0	86	23428
2026-01-03 23:48:09.67	169.92	16.84	-60.3	-76.4	3.8	1.49e+00	0	29	104	0	86	23428
2026-01-03 23:48:10.66	170.01	16.74	-60.3	-76.4	3.8	1.49e+00	0	29	104	0	86	23408
2026-01-03 23:48:11.66	170.10	16.63	-60.3	-76.4	3.8	1.49e+00	0	29	104	0	86	23499
2026-01-03 23:48:12.67	170.19	16.53	-60.3	-76.4	3.8	1.49e+00	0	29	104	0	86	23414
2026-01-03 23:48:13.66	170.27	16.42	-60.3	-76.4	3.8	1.49e+00	0	29	104	0	86	23376
2026-01-03 23:48:14.66	170.36	16.32	-60.3	-76.4	3.8	1.49e+00	0	29	104	0	86	23448
2026-01-03 23:48:15.65	170.44	16.22	-60.3	-76.4	3.8	1.49e+00	0	29	104	0	86	23452
2026-01-03 23:48:16.65	170.53	16.11	-60.3	-76.4	3.8	1.49e+00	0	29	104	0	86	23423
2026-01-03 23:48:17.66	170.62	16.01	-60.3	-76.4	3.8	1.49e+00	0	29	104	0	86	23470
2026-01-03 23:48:18.66	170.70	15.91	-60.3	-76.4	3.8	1.49e+00	0	29	104	0	86	23395
2026-01-03 23:48:19.66	170.78	15.80	-60.3	-76.4	3.8	1.49e+00	0	29	104	0	86	23385
2026-01-03 23:48:20.66	170.87	15.70	-60.3	-76.4	3.8	1.49e+00	0	29	104	0	86	23426
2026-01-03 23:48:21.66	170.95	15.60	-60.3	-76.4	3.8	1.49e+00	0	29	104	0	86	23483
2026-01-03 23:48:22.66	171.03	15.50	-60.3	-76.4	3.8	1.49e+00	0	29	104	0	86	23454
2026-01-03 23:48:23.66	171.11	15.40	-60.3	-76.4	3.8	1.49e+00	0	29	104	0	86	23377
2026-01-03 23:48:24.66	171.20	15.30	-60.3	-76.4	3.8	1.49e+00	0	29	104	0	86	23400
2026-01-03 23:48:25.66	171.28	15.20	-60.3	-76.4	3.8	1.49e+00	0	29	104	0	86	23489
2026-01-03 23:48:26.66	171.36	15.10	-60.3	-76.4	3.8	1.49e+00	0	29	104	0	86	23458
2026-01-03 23:48:27.66	171.44	15.00	-60.3	-76.4	3.8	1.49e+00	0	29	104	0	86	23355
2026-01-03 23:48:28.66	171.52	14.90	-60.3	-76.4	3.8	1.49e+00	0	29	104	0	86	23353
2026-01-03 23:48:29.67	171.59	14.80	-60.3	-76.4	3.8	1.49e+00	0	29	104	0	86	23393
2026-01-03 23:48:30.67	171.67	14.70	-60.3	-76.4	3.8	1.49e+00	0	29	104	0	86	23417
2026-01-03 23:48:31.67	171.75	14.60	-60.3	-76.4	3.8	1.49e+00	0	29	104	0	86	23369
2026-01-03 23:48:32.66	171.83	14.51	-60.3	-76.4	3.8	1.49e+00	0	29	104	0	86	23370
2026-01-03 23:48:33.67	171.91	14.41	-60.3	-76.4	3.8	1.49e+00	0	29	104	0	86	23350
2026-01-03 23:48:34.67	171.98	14.31	-60.3	-76.4	3.8	1.49e+00	0	29	104	0	86	23459
2026-01-03 23:48:35.67	172.06	14.21	-60.3	-76.4	3.8	1.49e+00	0	29	104	0	86	23416
2026-01-03 23:48:36.67	172.13	14.12	-60.3	-76.4	3.8	1.49e+00	0	29	104	0	86	23420
2026-01-03 23:48:37.67	172.21	14.02	-60.3	-76.4	3.8	1.49e+00	0	29	104	0	86	23403
2026-01-03 23:48:38.67	172.28	13.93	-60.3	-76.4	3.8	1.49e+00	0	29	104	0	86	23510
2026-01-03 23:48:39.68	172.36	13.83	-60.3	-76.4	3.8	1.49e+00	0	29	104	0	86	23413
2026-01-03 23:48:40.68	172.43	13.73	-60.3	-76.4	3.8	1.49e+00	0	29	104	0	86	23445
2026-01-03 23:48:41.68	172.50	13.64	-60.3	-76.4	3.8	1.49e+00	0	29	104	0	86	23412
2026-01-03 23:48:42.67	172.58	13.55	-60.3	-76.4	3.8	1.49e+00	0	29	104	0	86	23440
2026-01-03 23:48:43.67	172.65	13.45	-60.3	-76.4	3.8	1.49e+00	0	29	104	0	86	23406
2026-01-03 23:48:44.68	172.72	13.36	-60.3	-76.4	3.8	1.49e+00	0	29	104	0	86	23410
2026-01-03 23:48:45.67	172.79	13.26	-60.3	-76.4	3.8	1.49e+00	0	29	104	0	86	23377
2026-01-03 23:48:46.67	172.86	13.17	-60.3	-76.4	3.8	1.49e+00	0	29	104	0	86	23412
2026-01-03 23:48:47.67	172.93	13.08	-60.3	-76.4	3.8	1.49e+00	0	29	104	0	86	23423
2026-01-03 23:48:48.66	173.00	12.99	-60.3	-76.4	3.8	1.49e+00	0	29	104	0	86	23435
2026-01-03 23:48:49.67	173.07	12.89	-60.3	-76.4	3.8	1.49e+00	0	29	104	0	86	23410
2026-01-03 23:48:50.67	173.14	12.80	-60.3	-76.4	3.8	1.49e+00	0	29	104	0	86	23428
2026-01-03 23:48:51.68	173.21	12.71	-60.3	-76.4	3.8	1.49e+00	0	29	104	0	86	23423
2026-01-03 23:48:52.67	173.28	12.62	-60.3	-76.4	3.8	1.49e+00	0	29	104	0	86	23422
2026-01-03 23:48:53.67	173.35	12.53	-60.3	-76.4	3.8	1.49e+00	0	29	104	0	86	23403
2026-01-03 23:48:54.67	173.42	12.44	-60.3	-76.4	3.8	1.49e+00	0	29	104	0	86	23408
2026-01-03 23:48:55.67	173.48	12.35	-60.3	-76.4	3.8	1.49e+00	0	29	104	0	86	23394
2026-01-03 23:48:56.67	173.55	12.26	-60.3	-76.4	3.8	1.49e+00	0	29	104	0	86	23426
2026-01-03 23:48:57.66	173.62	12.17	-60.3	-76.4	3.8	1.49e+00	0	29	104	0	86	23314
2026-01-03 23:48:58.66	173.68	12.08	-60.3	-76.4	3.8	1.49e+00	0	29	104	0	86	23339
2026-01-03 23:48:59.66	173.75	11.99	-60.3	-76.4	3.8	1.49e+00	0	29	104	0	86	23335
2026-01-03 23:49:00.66	173.81	11.90	-60.3	-76.4	3.8	1.49e+00	0	29	104	0	86	23353
2026-01-03 23:49:01.66	173.88	11.81	-60.3	-76.4	3.8	1.49e+00	0	29	104	0	86	23383
2026-01-03 23:49:02.66	173.94	11.73	-60.3	-76.4	3.8	1.49e+00	0	29	104	0	86	23383
2026-01-03 23:49:03.67	174.01	11.64	-60.3	-76.4	3.8	1.49e+00	0	29	104	0	86	23380
2026-01-03 23:49:04.67	174.07	11.55	-60.3	-76.4	3.8	1.49e+00	0	29	104	0	86	23414
2026-01-03 23:49:05.67	174.14	11.46	-60.3	-76.4	3.8	1.49e+00	0	29	104	0	86	23424
2026-01-03 23:49:06.66	174.20	11.38	-60.3	-76.4	3.8	1.49e+00	0	29	104	0	86	23387
2026-01-03 23:49:07.66	174.26	11.29	-60.3	-76.4	3.8	1.49e+00	0	29	104	0	86	23400
2026-01-03 23:49:08.67	174.32	11.20	-60.3	-76.4	3.8	1.49e+00	0	29	104	0	86	23380
2026-01-03 23:49:09.67	174.39	11.12	-60.3	-76.4	3.8	1.49e+00	0	29	104	0	86	23363
2026-01-03 23:49:10.67	174.45	11.03	-60.3	-76.4	3.8	1.49e+00	0	29	104	0	86	23364
2026-01-03 23:49:11.66	174.51	10.94	-60.3	-76.4	3.8	1.49e+00	0	29	104	0	86	23387
2026-01-03 23:49:12.67	174.57	10.86	-60.3	-76.4	3.8	1.49e+00	0	29	104	0	86	23373
2026-01-03 23:49:13.68	174.63	10.77	-60.3	-76.4	3.8	1.49e+00	0	29	104	0	86	23424
2026-01-03 23:49:14.68	174.69	10.69	-60.3	-76.4	3.8	1.49e+00	0	29	104	0	86	23415
2026-01-03 23:49:15.67	174.75	10.60	-60.3	-76.4	3.8	1.49e+00	0	29	104	0	86	23406
2026-01-03 23:49:16.67	174.81	10.52	-60.3	-76.4	3.8	1.49e+00	0	29	104	0	86	23335
2026-01-03 23:49:17.68	174.87	10.43	-60.3	-76.4	3.8	1.49e+00	0	29	104	0	86	23333
2026-01-03 23:49:18.68	174.93	10.35	-60.3	-76.4	3.8	1.49e+00	0	29	104	0	86	23335
2026-01-03 23:49:19.68	174.99	10.27	-60.3	-76.4	3.8	1.49e+00	0	29	104	0	86	23395
2026-01-03 23:49:20.68	175.05	10.18	-60.3	-76.4	3.8	1.49e+00	0	29	104	0	86	23404
2026-01-03 23:49:21.68	175.11	10.10	-60.3	-76.4	3.8	1.49e+00	0	29	104	0	86	23405
2026-01-03 23:49:22.68	175.17	10.02	-60.3	-76.4	3.8	1.49e+00	0	29	104	0	86	23367
2026-01-03 23:49:23.68	175.22	9.94	-60.3	-76.4	3.8	1.49e+00	0	29	104	0	86	23419
