passes_logs/2026/01/18/R2.0S_Moscow/R2.0S_Moscow__20260118_221924_SUOMI_NPP_rec.log

#Pass ID: 20260118_221924_SUOMI NPP
#Satellite: SUOMI NPP
#Configuration: NPP
#almurnet v.1.7.20251203
#Start time: 2026-01-18 22:19:26

#Version: 2.2.20231116
#Station: R2.0S_Moscow
#Location: 37.707566 lon 55.798166 lat
#TLE: 1 37849U 11061A   26017.92342359  .00000077  00000+0  57567-4 0  9990
#TLE: 2 37849  98.7814 319.9468 0002389  58.5705 301.5704 14.19525998737125

#Time	Az	El	Level	Level2	SNR	BER	BlckErr	Temp	State	Recorded	gain1	gain2
2026-01-18 22:19:26.05	24.75	2.07	-42.0	-57.4	3.8	1.49e+00	0	54	0	0	56	20289
2026-01-18 22:19:27.05	24.82	2.13	-41.9	-57.2	3.8	1.49e+00	0	54	104	0	54	22257
2026-01-18 22:19:28.06	24.88	2.18	-41.9	-57.3	3.8	1.49e+00	0	55	104	0	54	22332
2026-01-18 22:19:29.07	24.95	2.24	-41.8	-57.3	3.8	1.49e+00	0	55	104	0	54	22330
2026-01-18 22:19:30.08	25.02	2.30	-41.8	-57.3	3.8	1.49e+00	0	55	104	0	54	22297
2026-01-18 22:19:31.09	25.09	2.35	-41.8	-57.3	3.8	1.49e+00	0	55	104	0	54	22300
2026-01-18 22:19:32.10	25.16	2.41	-41.8	-57.2	3.8	1.49e+00	0	55	104	0	54	22240
2026-01-18 22:19:33.11	25.23	2.47	-41.9	-57.3	3.8	1.49e+00	0	55	104	0	54	22318
2026-01-18 22:19:34.12	25.30	2.52	-41.9	-57.3	3.8	1.49e+00	0	55	104	0	54	22270
2026-01-18 22:19:35.13	25.37	2.58	-41.9	-57.3	3.8	1.49e+00	0	55	104	0	54	22282
2026-01-18 22:19:36.14	25.45	2.64	-41.8	-57.3	3.8	1.49e+00	0	55	104	0	54	22323
2026-01-18 22:19:37.15	25.52	2.69	-41.8	-57.3	3.8	1.49e+00	0	55	104	0	54	22278
2026-01-18 22:19:38.16	25.59	2.75	-41.8	-57.3	3.8	1.49e+00	0	55	104	0	54	22332
2026-01-18 22:19:39.17	25.66	2.81	-41.8	-57.2	3.8	1.49e+00	0	55	104	0	54	22258
2026-01-18 22:19:40.18	25.73	2.86	-41.9	-57.3	3.8	1.49e+00	0	55	104	0	54	22291
2026-01-18 22:19:41.19	25.81	2.92	-41.8	-57.2	3.8	1.49e+00	0	55	104	0	54	22251
2026-01-18 22:19:42.20	25.88	2.98	-41.9	-57.3	3.8	1.49e+00	0	56	104	0	54	22296
2026-01-18 22:19:43.21	25.95	3.03	-41.8	-57.3	3.8	1.49e+00	0	56	104	0	54	22280
2026-01-18 22:19:44.22	26.02	3.09	-41.8	-57.3	3.8	1.49e+00	0	55	104	0	54	22290
2026-01-18 22:19:45.23	26.10	3.15	-41.9	-57.3	3.8	1.49e+00	0	55	104	0	54	22284
2026-01-18 22:19:46.24	26.17	3.21	-41.8	-57.3	3.8	1.49e+00	0	56	104	0	54	22301
2026-01-18 22:19:47.25	26.24	3.26	-41.9	-57.3	3.8	1.49e+00	0	56	104	0	54	22299
2026-01-18 22:19:48.26	26.32	3.32	-41.9	-57.3	3.8	1.49e+00	0	56	104	0	54	22311
2026-01-18 22:19:49.27	26.39	3.38	-41.8	-57.2	3.8	1.49e+00	0	56	104	0	54	22257
2026-01-18 22:19:50.28	26.47	3.44	-41.9	-57.2	3.8	1.49e+00	0	56	104	0	54	22258
2026-01-18 22:19:51.29	26.54	3.50	-41.8	-57.3	3.8	1.49e+00	0	56	104	0	54	22263
2026-01-18 22:19:52.30	26.62	3.55	-41.9	-57.3	3.8	1.49e+00	0	56	104	0	54	22283
2026-01-18 22:19:53.32	26.70	3.61	-41.8	-57.2	3.8	1.49e+00	0	56	104	0	54	22166
2026-01-18 22:19:54.33	26.77	3.67	-41.8	-57.2	3.8	1.49e+00	0	56	104	0	54	22225
2026-01-18 22:19:55.34	26.85	3.73	-41.9	-57.3	3.8	1.49e+00	0	56	104	0	54	22300
2026-01-18 22:19:56.35	26.92	3.79	-41.9	-57.3	3.8	1.49e+00	0	56	104	0	54	22269
2026-01-18 22:19:57.36	27.00	3.85	-41.8	-57.2	3.8	1.49e+00	0	56	104	0	54	22251
2026-01-18 22:19:58.37	27.08	3.91	-41.8	-57.2	3.8	1.49e+00	0	56	104	0	54	22255
2026-01-18 22:19:59.38	27.15	3.96	-41.9	-57.2	3.8	1.49e+00	0	56	104	0	54	22144
2026-01-18 22:20:00.39	27.23	4.02	-41.9	-57.2	3.8	1.49e+00	0	56	104	0	54	22227
2026-01-18 22:20:01.39	27.31	4.08	-41.8	-57.2	3.8	1.49e+00	0	56	104	0	54	22257
2026-01-18 22:20:02.40	27.39	4.14	-41.9	-57.2	3.8	1.49e+00	0	56	104	0	54	22226
2026-01-18 22:20:03.41	27.47	4.20	-41.8	-57.2	3.8	1.49e+00	0	57	104	0	54	22217
2026-01-18 22:20:04.42	27.55	4.26	-41.8	-57.3	3.8	1.49e+00	0	56	104	0	54	22267
2026-01-18 22:20:05.43	27.62	4.32	-41.9	-57.3	3.8	1.49e+00	0	56	104	0	54	22280
2026-01-18 22:20:06.44	27.70	4.38	-41.9	-57.2	3.8	1.49e+00	0	57	104	0	54	22205
2026-01-18 22:20:07.45	27.78	4.44	-41.9	-57.2	3.8	1.49e+00	0	57	104	0	54	22218
2026-01-18 22:20:08.46	27.86	4.50	-41.9	-57.2	3.8	1.49e+00	0	57	104	0	54	22257
2026-01-18 22:20:09.47	27.94	4.55	-41.8	-57.2	3.8	1.49e+00	0	57	104	0	54	22186
2026-01-18 22:20:10.48	28.02	4.61	-41.8	-57.2	3.8	1.49e+00	0	57	104	0	54	22167
2026-01-18 22:20:11.49	28.11	4.67	-41.9	-57.2	3.8	1.49e+00	0	57	104	0	54	22218
2026-01-18 22:20:12.50	28.19	4.73	-41.9	-57.2	3.8	1.49e+00	0	57	104	0	54	22186
2026-01-18 22:20:13.51	28.27	4.79	-41.8	-57.2	3.8	1.49e+00	0	57	104	0	54	22151
2026-01-18 22:20:14.52	28.35	4.85	-41.9	-57.3	3.8	1.49e+00	0	57	104	0	54	22319
2026-01-18 22:20:15.54	28.43	4.91	-41.8	-57.2	3.8	1.49e+00	0	57	104	0	54	22243
2026-01-18 22:20:16.55	28.52	4.98	-41.9	-57.2	3.8	1.49e+00	0	57	104	0	54	22166
2026-01-18 22:20:17.56	28.60	5.04	-41.9	-57.2	3.8	1.49e+00	0	57	104	0	54	22171
2026-01-18 22:20:18.57	28.68	5.10	-41.8	-57.2	3.8	1.49e+00	0	57	104	0	54	22166
2026-01-18 22:20:19.58	28.76	5.16	-41.8	-57.2	3.8	1.49e+00	0	57	104	0	54	22226
2026-01-18 22:20:20.59	28.85	5.22	-41.8	-57.2	3.8	1.49e+00	0	57	104	0	54	22248
2026-01-18 22:20:21.60	28.93	5.28	-41.8	-57.2	3.8	1.49e+00	0	57	104	0	54	22206
2026-01-18 22:20:22.61	29.02	5.34	-41.8	-57.2	3.8	1.49e+00	0	58	104	0	54	22121
2026-01-18 22:20:23.62	29.10	5.40	-41.8	-57.2	3.8	1.49e+00	0	57	104	0	54	22199
2026-01-18 22:20:24.63	29.19	5.46	-41.8	-57.2	3.8	1.49e+00	0	57	104	0	54	22180
2026-01-18 22:20:25.64	29.27	5.52	-41.8	-57.2	3.8	1.49e+00	0	58	104	0	54	22236
2026-01-18 22:20:26.65	29.36	5.58	-41.8	-57.2	3.8	1.49e+00	0	57	104	0	54	22205
2026-01-18 22:20:27.66	29.44	5.64	-41.8	-57.2	3.8	1.49e+00	0	58	104	0	54	22175
2026-01-18 22:20:28.67	29.53	5.70	-41.8	-57.2	3.8	1.49e+00	0	58	104	0	54	22140
2026-01-18 22:20:29.68	29.62	5.77	-41.9	-57.2	3.8	1.49e+00	0	57	104	0	54	22183
2026-01-18 22:20:30.69	29.71	5.83	-41.9	-57.2	3.8	1.49e+00	0	58	104	0	54	22236
2026-01-18 22:20:31.70	29.79	5.89	-41.8	-57.2	3.8	1.49e+00	0	58	104	0	54	22185
2026-01-18 22:20:32.72	29.88	5.95	-41.8	-57.2	3.8	1.49e+00	0	58	104	0	54	22217
2026-01-18 22:20:33.73	29.97	6.01	-41.8	-57.2	3.8	1.49e+00	0	58	104	0	54	22139
2026-01-18 22:20:34.73	30.06	6.07	-41.8	-57.2	3.8	1.49e+00	0	58	104	0	54	22199
2026-01-18 22:20:35.75	30.15	6.14	-41.8	-57.2	3.8	1.49e+00	0	58	104	0	54	22104
2026-01-18 22:20:36.76	30.24	6.20	-41.8	-57.2	3.8	1.49e+00	0	58	104	0	54	22201
2026-01-18 22:20:37.77	30.33	6.26	-41.8	-57.2	3.8	1.49e+00	0	58	104	0	54	22159
2026-01-18 22:20:38.78	30.42	6.32	-41.8	-57.2	3.8	1.49e+00	0	58	104	0	54	22113
2026-01-18 22:20:39.79	30.51	6.39	-41.8	-57.2	3.8	1.49e+00	0	58	104	0	54	22142
2026-01-18 22:20:40.80	30.60	6.45	-41.8	-57.2	3.8	1.49e+00	0	58	104	0	54	22092
2026-01-18 22:20:41.81	30.69	6.51	-41.8	-57.1	3.8	1.49e+00	0	58	104	0	54	21930
2026-01-18 22:20:42.82	30.78	6.57	-41.8	-57.0	3.8	1.49e+00	0	58	104	0	54	21736
2026-01-18 22:20:43.83	30.87	6.64	-41.8	-56.9	3.8	1.49e+00	0	58	104	0	54	21345
2026-01-18 22:20:44.84	30.96	6.70	-41.8	-56.6	3.8	1.49e+00	0	58	104	0	54	20734
2026-01-18 22:20:45.85	31.06	6.76	-41.8	-56.4	3.8	1.49e+00	0	58	104	0	54	20110
2026-01-18 22:20:46.86	31.15	6.82	-41.8	-56.5	3.8	1.49e+00	0	58	104	0	54	20320
2026-01-18 22:20:47.87	31.24	6.89	-41.8	-56.5	3.8	1.49e+00	0	58	104	0	54	20504
2026-01-18 22:20:48.88	31.34	6.95	-41.8	-56.9	3.8	1.49e+00	0	58	104	0	54	21411
2026-01-18 22:20:49.89	31.43	7.01	-41.8	-56.6	3.8	1.49e+00	0	58	104	0	54	20600
2026-01-18 22:20:50.91	31.53	7.08	-41.8	-56.4	3.8	1.49e+00	0	58	104	0	54	20274
2026-01-18 22:20:51.91	31.62	7.14	-41.7	-56.0	3.8	1.49e+00	0	58	104	0	54	19325
2026-01-18 22:20:52.93	31.72	7.20	-41.8	-56.2	3.8	1.49e+00	0	58	104	0	54	19810
2026-01-18 22:20:53.94	31.81	7.27	-41.8	-57.0	3.8	1.49e+00	0	58	104	0	54	21721
2026-01-18 22:20:54.95	31.91	7.33	-41.8	-57.1	3.8	1.49e+00	0	58	104	0	54	21979
2026-01-18 22:20:55.96	32.01	7.40	-41.8	-57.1	3.8	1.49e+00	0	59	104	0	54	21990
2026-01-18 22:20:56.97	32.10	7.46	-41.8	-57.1	3.8	1.49e+00	0	58	104	0	54	21988
2026-01-18 22:20:57.98	32.20	7.52	-41.8	-56.4	3.8	1.49e+00	0	58	104	0	54	20295
2026-01-18 22:20:58.99	32.30	7.59	-41.8	-55.7	3.8	1.49e+00	0	58	104	0	54	18688
2026-01-18 22:21:00.00	32.40	7.65	-41.7	-54.1	4.1	1.49e+00	0	59	0	0	54	15544
2026-01-18 22:21:01.01	32.49	7.72	-41.5	-52.1	4.7	9.51e-01	0	59	0	1048576	54	12325
2026-01-18 22:21:02.02	32.59	7.78	-41.3	-50.4	5.7	5.11e-01	0	59	0	2097152	54	10167
2026-01-18 22:21:03.03	32.69	7.85	-41.1	-49.3	6.6	2.81e-01	0	59	0	4194304	54	8905
2026-01-18 22:21:04.04	32.79	7.91	-41.1	-49.0	6.9	1.76e-01	0	58	0	6291456	54	8624
2026-01-18 22:21:05.05	32.89	7.97	-41.0	-48.9	7.0	1.48e-01	0	59	0	8388608	54	8554
2026-01-18 22:21:06.06	32.99	8.04	-41.0	-48.8	7.1	1.41e-01	0	59	0	10485760	54	8377
2026-01-18 22:21:07.07	33.09	8.10	-42.4	-54.9	3.9	2.90e-01	0	59	104	11534336	55	16112
2026-01-18 22:21:08.08	33.20	8.17	-41.0	-55.7	3.8	1.49e+00	0	59	104	11534336	53	19824
2026-01-18 22:21:09.09	33.30	8.23	-42.4	-51.2	5.9	1.45e-01	0	59	0	11534336	55	10483
2026-01-18 22:21:10.10	33.40	8.30	-42.8	-52.7	4.9	3.64e-01	0	59	0	13631488	56	11698
2026-01-18 22:21:11.12	33.50	8.37	-41.8	-50.7	5.7	2.14e-01	0	59	0	15728640	55	9877
2026-01-18 22:21:12.12	33.61	8.43	-41.7	-48.3	8.0	9.72e-02	0	59	0	17825792	55	7509
2026-01-18 22:21:13.13	33.71	8.50	-41.7	-48.5	8.0	5.69e-02	0	59	0	18874368	55	7633
2026-01-18 22:21:14.14	33.81	8.56	-41.7	-48.3	8.1	5.95e-02	0	59	0	20971520	55	7515
2026-01-18 22:21:15.15	33.92	8.63	-41.7	-48.2	8.2	6.01e-02	0	59	0	23068672	55	7380
2026-01-18 22:21:16.16	34.02	8.69	-41.7	-48.1	8.3	5.18e-02	0	59	0	25165824	55	7300
2026-01-18 22:21:17.17	34.13	8.76	-41.8	-48.2	8.3	4.46e-02	0	59	0	27262976	55	7396
2026-01-18 22:21:18.18	34.24	8.82	-41.8	-48.2	8.3	6.82e-02	0	59	0	28311552	55	7405
2026-01-18 22:21:19.19	34.34	8.89	-41.7	-47.8	8.8	4.13e-02	0	59	0	30408704	55	7077
2026-01-18 22:21:20.20	34.45	8.96	-41.8	-48.2	8.3	4.03e-02	0	59	0	32505856	55	7374
2026-01-18 22:21:21.21	34.56	9.02	-41.7	-47.6	8.9	3.72e-02	0	59	0	34603008	55	6941
2026-01-18 22:21:22.22	34.66	9.09	-41.9	-48.2	8.4	3.30e-02	0	59	0	36700160	55	7450
2026-01-18 22:21:23.23	34.77	9.15	-41.9	-48.2	8.5	4.31e-02	0	59	0	38797312	55	7395
2026-01-18 22:21:24.24	34.88	9.22	-41.9	-48.0	8.6	3.98e-02	0	59	0	39845888	55	7264
2026-01-18 22:21:25.25	34.99	9.29	-41.9	-47.9	8.8	3.24e-02	0	59	0	41943040	55	7131
2026-01-18 22:21:26.26	35.10	9.35	-42.0	-48.2	8.6	3.36e-02	0	59	0	44040192	55	7409
2026-01-18 22:21:27.27	35.21	9.42	-42.1	-48.1	8.7	3.70e-02	0	59	0	46137344	55	7309
2026-01-18 22:21:28.28	35.32	9.49	-42.1	-48.0	8.8	3.26e-02	0	59	0	48234496	55	7221
2026-01-18 22:21:29.29	35.43	9.55	-42.2	-48.1	8.7	3.14e-02	0	59	0	49283072	55	7331
2026-01-18 22:21:30.30	35.54	9.62	-42.2	-48.1	8.8	3.25e-02	0	59	0	51380224	55	7321
2026-01-18 22:21:31.31	35.66	9.69	-42.1	-47.8	9.1	2.09e-02	0	59	0	53477376	55	7121
2026-01-18 22:21:32.32	35.77	9.76	-42.2	-47.9	9.2	2.22e-02	0	59	0	55574528	55	7125
2026-01-18 22:21:33.33	35.88	9.82	-42.1	-47.6	9.4	1.84e-02	0	59	0	57671680	55	6955
2026-01-18 22:21:34.34	36.00	9.89	-42.1	-47.5	9.6	1.05e-02	0	59	0	58720256	55	6827
2026-01-18 22:21:35.35	36.11	9.96	-42.0	-47.3	9.7	1.54e-02	0	59	0	60817408	55	6723
2026-01-18 22:21:36.36	36.22	10.03	-42.1	-47.4	9.7	9.32e-03	0	59	0	62914560	55	6772
2026-01-18 22:21:37.37	36.34	10.09	-41.9	-47.0	10.0	8.54e-03	0	59	0	65011712	55	6490
2026-01-18 22:21:38.38	36.46	10.16	-41.9	-47.1	10.0	8.63e-03	0	59	0	67108864	55	6510
2026-01-18 22:21:39.39	36.57	10.23	-41.9	-46.9	10.3	6.33e-03	0	59	0	68157440	55	6381
2026-01-18 22:21:40.39	36.69	10.30	-41.9	-46.6	10.6	3.74e-03	0	59	0	70254592	55	6189
2026-01-18 22:21:41.40	36.80	10.36	-41.9	-46.8	10.4	4.66e-03	0	60	0	72351744	55	6308
2026-01-18 22:21:42.41	36.92	10.43	-41.9	-46.8	10.4	3.89e-03	0	59	0	74448896	55	6302
2026-01-18 22:21:43.42	37.04	10.50	-41.9	-46.6	10.7	2.81e-03	0	60	0	76546048	55	6134
2026-01-18 22:21:44.43	37.16	10.57	-41.9	-46.7	10.6	3.64e-03	0	60	0	77594624	55	6218
2026-01-18 22:21:45.44	37.28	10.64	-41.9	-46.5	10.8	2.91e-03	0	60	0	79691776	55	6090
2026-01-18 22:21:46.45	37.40	10.70	-41.9	-46.6	10.7	2.48e-03	0	60	0	81788928	55	6184
2026-01-18 22:21:47.46	37.52	10.77	-41.8	-46.3	11.0	2.69e-03	0	60	0	83886080	55	5959
2026-01-18 22:21:48.47	37.64	10.84	-41.9	-46.6	10.8	2.79e-03	0	59	0	85983232	55	6142
2026-01-18 22:21:49.48	37.76	10.91	-41.8	-46.4	11.0	2.33e-03	0	60	0	87031808	55	5995
2026-01-18 22:21:50.48	37.88	10.98	-41.8	-46.4	11.0	2.21e-03	0	60	0	89128960	55	6005
2026-01-18 22:21:51.49	38.01	11.05	-41.9	-46.4	10.9	2.09e-03	0	60	0	91226112	55	6025
2026-01-18 22:21:52.50	38.13	11.12	-41.8	-46.3	11.1	1.60e-03	0	60	0	93323264	55	5986
2026-01-18 22:21:53.52	38.25	11.19	-41.9	-46.4	11.0	2.06e-03	0	60	0	95420416	55	6015
2026-01-18 22:21:54.53	38.38	11.25	-41.9	-46.4	11.0	1.67e-03	0	60	0	96468992	55	6036
2026-01-18 22:21:55.54	38.50	11.32	-41.9	-46.4	10.9	1.58e-03	0	60	0	98566144	55	6061
2026-01-18 22:21:56.55	38.63	11.39	-42.0	-46.6	10.9	1.85e-03	0	60	0	100663296	55	6135
2026-01-18 22:21:57.55	38.75	11.46	-41.9	-46.5	10.9	2.20e-03	0	60	0	102760448	55	6105
2026-01-18 22:21:58.56	38.88	11.53	-41.9	-46.5	10.9	2.10e-03	0	60	0	104857600	55	6096
2026-01-18 22:21:59.57	39.01	11.60	-42.0	-46.6	10.8	2.11e-03	0	60	0	106954752	55	6198
2026-01-18 22:22:00.58	39.13	11.67	-41.9	-46.5	11.0	1.75e-03	0	60	0	108003328	55	6087
2026-01-18 22:22:01.59	39.26	11.74	-42.0	-46.6	10.9	1.65e-03	0	60	0	110100480	55	6163
2026-01-18 22:22:02.60	39.39	11.81	-42.1	-46.8	10.7	2.46e-03	0	60	0	112197632	55	6297
2026-01-18 22:22:03.61	39.52	11.88	-42.1	-46.7	10.9	1.94e-03	0	60	0	114294784	55	6214
2026-01-18 22:22:04.62	39.65	11.95	-42.0	-46.6	10.9	1.95e-03	0	60	0	116391936	55	6169
2026-01-18 22:22:05.63	39.78	12.02	-42.1	-46.7	10.8	2.45e-03	0	60	0	117440512	55	6243
2026-01-18 22:22:06.64	39.91	12.09	-42.1	-46.8	10.7	2.52e-03	0	60	0	119537664	55	6328
2026-01-18 22:22:07.65	40.05	12.16	-42.1	-46.6	10.9	2.77e-03	0	60	0	121634816	55	6162
2026-01-18 22:22:08.66	40.18	12.23	-42.2	-46.9	10.6	3.16e-03	0	60	0	123731968	55	6419
2026-01-18 22:22:09.67	40.31	12.30	-42.1	-46.7	10.8	2.67e-03	0	60	0	125829120	55	6243
2026-01-18 22:22:10.68	40.44	12.37	-42.1	-46.6	10.9	2.13e-03	0	60	0	126877696	55	6192
2026-01-18 22:22:11.68	40.58	12.44	-42.1	-46.6	10.9	2.23e-03	0	60	0	128974848	55	6181
2026-01-18 22:22:12.69	40.71	12.51	-42.1	-46.6	11.0	1.92e-03	0	60	0	131072000	55	6183
2026-01-18 22:22:13.70	40.85	12.58	-42.0	-46.4	11.2	1.53e-03	0	60	0	133169152	55	6029
2026-01-18 22:22:14.71	40.98	12.65	-42.1	-46.6	11.0	1.49e-03	0	60	0	135266304	55	6144
2026-01-18 22:22:15.72	41.12	12.72	-42.0	-46.4	11.2	1.35e-03	0	60	0	136314880	55	6024
2026-01-18 22:22:16.73	41.26	12.79	-41.9	-46.1	11.5	9.00e-04	0	60	0	138412032	55	5848
2026-01-18 22:22:17.74	41.40	12.86	-41.9	-46.2	11.5	7.45e-04	0	60	0	140509184	55	5857
2026-01-18 22:22:18.75	41.54	12.93	-41.8	-46.0	11.7	6.88e-04	0	60	0	142606336	55	5744
2026-01-18 22:22:19.76	41.68	13.00	-41.8	-46.0	11.6	6.72e-04	0	60	0	144703488	55	5784
2026-01-18 22:22:20.77	41.82	13.07	-41.9	-46.0	11.6	5.30e-04	0	60	0	145752064	55	5786
2026-01-18 22:22:21.78	41.96	13.14	-41.8	-45.9	11.8	4.94e-04	0	60	0	147849216	55	5698
2026-01-18 22:22:22.79	42.10	13.21	-41.8	-45.9	11.8	5.66e-04	0	60	0	149946368	55	5700
2026-01-18 22:22:23.80	42.24	13.28	-41.8	-45.9	11.7	5.92e-04	0	60	0	152043520	55	5717
2026-01-18 22:22:24.81	42.38	13.36	-41.8	-45.9	11.8	5.61e-04	0	60	0	154140672	55	5699
2026-01-18 22:22:25.82	42.53	13.43	-41.8	-45.9	11.8	3.83e-04	0	60	0	155189248	55	5669
2026-01-18 22:22:26.83	42.67	13.50	-41.8	-45.8	11.9	3.81e-04	0	60	0	157286400	55	5629
2026-01-18 22:22:27.84	42.81	13.57	-41.7	-45.8	11.9	4.85e-04	0	60	0	159383552	55	5607
2026-01-18 22:22:28.85	42.96	13.64	-41.8	-45.9	11.8	4.90e-04	0	60	0	161480704	55	5672
2026-01-18 22:22:29.86	43.11	13.71	-41.8	-45.8	11.9	5.16e-04	0	60	0	163577856	55	5648
2026-01-18 22:22:30.87	43.25	13.78	-41.8	-45.8	11.9	4.56e-04	0	60	0	164626432	55	5634
2026-01-18 22:22:31.88	43.40	13.85	-41.8	-45.9	11.8	4.97e-04	0	60	0	166723584	55	5694
2026-01-18 22:22:32.89	43.55	13.92	-41.8	-45.8	11.9	4.40e-04	0	60	0	168820736	55	5623
2026-01-18 22:22:33.89	43.70	14.00	-41.9	-46.0	11.8	4.99e-04	0	60	0	170917888	55	5745
2026-01-18 22:22:34.90	43.84	14.07	-41.8	-45.9	11.9	4.26e-04	0	60	0	173015040	55	5662
2026-01-18 22:22:35.91	43.99	14.14	-41.8	-45.9	11.9	4.29e-04	0	60	0	175112192	55	5689
2026-01-18 22:22:36.92	44.15	14.21	-41.9	-46.1	11.7	4.67e-04	0	60	0	176160768	55	5847
2026-01-18 22:22:37.93	44.30	14.28	-41.9	-46.1	11.6	5.93e-04	0	60	0	178257920	55	5827
2026-01-18 22:22:38.94	44.45	14.35	-42.0	-46.2	11.6	6.86e-04	0	60	0	180355072	55	5903
2026-01-18 22:22:39.95	44.60	14.42	-42.0	-46.2	11.5	6.87e-04	0	60	0	182452224	55	5893
2026-01-18 22:22:40.96	44.76	14.50	-42.1	-46.4	11.4	9.70e-04	0	60	0	184549376	55	6045
2026-01-18 22:22:41.97	44.91	14.57	-42.0	-46.4	11.4	9.06e-04	0	60	0	185597952	55	6012
2026-01-18 22:22:42.98	45.07	14.64	-42.1	-46.3	11.4	7.67e-04	0	60	0	187695104	55	5989
2026-01-18 22:22:43.99	45.22	14.71	-42.0	-46.3	11.5	8.65e-04	0	60	0	189792256	55	5978
2026-01-18 22:22:45.00	45.38	14.78	-42.0	-46.2	11.6	6.61e-04	0	60	0	191889408	55	5901
2026-01-18 22:22:46.01	45.54	14.85	-41.9	-46.1	11.7	5.72e-04	0	60	0	193986560	55	5819
2026-01-18 22:22:47.02	45.69	14.93	-41.9	-45.9	11.8	3.87e-04	0	60	0	195035136	55	5717
2026-01-18 22:22:48.03	45.85	15.00	-41.9	-45.9	11.9	3.76e-04	0	61	0	197132288	55	5692
2026-01-18 22:22:49.04	46.01	15.07	-41.8	-45.8	12.0	3.14e-04	0	60	0	199229440	55	5616
2026-01-18 22:22:50.04	46.17	15.14	-41.8	-45.8	11.9	3.36e-04	0	61	0	201326592	55	5655
2026-01-18 22:22:51.05	46.33	15.21	-41.8	-45.8	12.1	3.91e-04	0	60	0	203423744	55	5606
2026-01-18 22:22:52.06	46.49	15.28	-41.8	-45.7	12.1	2.13e-04	0	60	0	204472320	55	5588
2026-01-18 22:22:53.07	46.66	15.35	-41.8	-45.7	12.1	3.18e-04	0	61	0	206569472	55	5586
2026-01-18 22:22:54.08	46.82	15.43	-41.8	-45.7	12.2	2.44e-04	0	60	0	208666624	55	5550
2026-01-18 22:22:55.09	46.98	15.50	-41.7	-45.6	12.3	1.88e-04	0	60	0	210763776	55	5496
2026-01-18 22:22:56.10	47.15	15.57	-41.8	-45.7	12.2	2.01e-04	0	61	0	212860928	55	5542
2026-01-18 22:22:57.11	47.31	15.64	-41.7	-45.5	12.3	2.26e-04	0	61	0	213909504	55	5458
2026-01-18 22:22:58.12	47.48	15.71	-41.6	-45.3	12.5	1.41e-04	0	61	0	216006656	55	5335
2026-01-18 22:22:59.13	47.65	15.78	-41.7	-45.5	12.3	1.41e-04	0	61	0	218103808	55	5462
2026-01-18 22:23:00.14	47.82	15.86	-41.7	-45.4	12.4	1.65e-04	0	60	0	220200960	55	5379
2026-01-18 22:23:01.15	47.99	15.93	-41.6	-45.4	12.5	9.84e-05	0	60	0	222298112	55	5351
2026-01-18 22:23:02.16	48.15	16.00	-41.6	-45.3	12.6	8.16e-05	0	61	0	223346688	55	5328
2026-01-18 22:23:03.17	48.32	16.07	-41.6	-45.3	12.6	1.04e-04	0	60	0	225443840	55	5331
2026-01-18 22:23:04.18	48.50	16.14	-41.6	-45.2	12.7	7.47e-05	0	61	0	227540992	55	5264
2026-01-18 22:23:05.19	48.67	16.21	-41.6	-45.2	12.7	7.01e-05	0	61	0	229638144	55	5261
2026-01-18 22:23:06.20	48.84	16.29	-41.6	-45.3	12.6	7.85e-05	0	60	0	231735296	55	5305
2026-01-18 22:23:07.21	49.01	16.36	-41.5	-45.2	12.7	6.94e-05	0	61	0	232783872	54	5553
2026-01-18 22:23:08.21	49.19	16.43	-41.6	-45.4	12.5	8.46e-05	0	60	0	234881024	54	5661
2026-01-18 22:23:09.22	49.36	16.50	-41.6	-45.2	12.7	1.06e-04	0	61	0	236978176	54	5581
2026-01-18 22:23:10.23	49.54	16.57	-41.7	-45.5	12.4	1.15e-04	0	61	0	239075328	54	5767
2026-01-18 22:23:11.24	49.71	16.64	-41.7	-45.6	12.4	1.69e-04	0	61	0	241172480	54	5789
2026-01-18 22:23:12.25	49.89	16.71	-41.8	-45.6	12.4	2.06e-04	0	60	0	242221056	54	5817
2026-01-18 22:23:13.26	50.07	16.78	-41.8	-45.6	12.3	1.83e-04	0	61	0	244318208	54	5846
2026-01-18 22:23:14.27	50.25	16.86	-41.8	-45.6	12.4	1.70e-04	0	61	0	246415360	54	5811
2026-01-18 22:23:15.28	50.43	16.93	-41.8	-45.6	12.3	1.70e-04	0	61	0	248512512	54	5831
2026-01-18 22:23:16.29	50.61	17.00	-41.8	-45.6	12.4	1.63e-04	0	61	0	250609664	54	5809
2026-01-18 22:23:17.30	50.79	17.07	-41.7	-45.5	12.4	1.59e-04	0	61	0	252706816	54	5770
2026-01-18 22:23:18.31	50.98	17.14	-41.8	-45.6	12.3	1.38e-04	0	61	0	253755392	54	5851
2026-01-18 22:23:19.32	51.16	17.21	-41.8	-45.6	12.4	1.31e-04	0	61	0	255852544	54	5830
2026-01-18 22:23:20.33	51.34	17.28	-41.9	-45.9	12.1	2.27e-04	0	61	0	257949696	54	6000
2026-01-18 22:23:21.34	51.53	17.35	-41.9	-45.9	12.1	2.19e-04	0	61	0	260046848	54	6003
2026-01-18 22:23:22.35	51.71	17.42	-42.0	-46.1	11.9	3.05e-04	0	61	0	262144000	54	6167
2026-01-18 22:23:23.36	51.90	17.49	-42.0	-46.1	11.8	4.12e-04	0	60	0	263192576	54	6167
2026-01-18 22:23:24.37	52.09	17.56	-42.1	-46.2	11.8	4.45e-04	0	61	0	265289728	54	6213
2026-01-18 22:23:25.37	52.28	17.63	-42.0	-46.0	12.0	3.78e-04	0	61	0	267386880	54	6097
2026-01-18 22:23:26.38	52.46	17.70	-42.0	-46.0	11.9	4.28e-04	0	61	0	269484032	54	6128
2026-01-18 22:23:27.39	52.66	17.77	-41.9	-45.9	12.0	3.36e-04	0	61	0	271581184	54	6022
2026-01-18 22:23:28.40	52.85	17.84	-41.9	-45.9	12.1	2.43e-04	0	61	0	272629760	54	6012
2026-01-18 22:23:29.41	53.04	17.91	-41.9	-45.7	12.3	2.40e-04	0	61	0	274726912	54	5901
2026-01-18 22:23:30.42	53.23	17.98	-41.9	-45.9	12.0	2.14e-04	0	61	0	276824064	54	6055
2026-01-18 22:23:31.43	53.42	18.05	-41.9	-45.9	12.1	2.80e-04	0	61	0	278921216	54	6017
2026-01-18 22:23:32.44	53.62	18.12	-41.9	-45.9	12.1	2.44e-04	0	61	0	281018368	54	5999
2026-01-18 22:23:33.45	53.81	18.19	-41.9	-45.9	12.1	2.75e-04	0	61	0	282066944	54	5999
2026-01-18 22:23:34.46	54.01	18.26	-41.9	-45.9	12.1	2.72e-04	0	61	0	284164096	54	5993
2026-01-18 22:23:35.47	54.21	18.33	-41.8	-45.7	12.3	2.37e-04	0	61	0	286261248	54	5905
2026-01-18 22:23:36.48	54.41	18.40	-41.8	-45.6	12.4	1.79e-04	0	61	0	288358400	54	5809
2026-01-18 22:23:37.49	54.61	18.47	-41.8	-45.6	12.4	1.28e-04	0	61	0	290455552	54	5811
2026-01-18 22:23:38.50	54.81	18.54	-41.8	-45.5	12.5	1.07e-04	0	61	0	291504128	54	5777
2026-01-18 22:23:39.51	55.01	18.61	-41.9	-45.8	12.2	1.50e-04	0	61	0	293601280	54	5952
2026-01-18 22:23:40.52	55.21	18.68	-41.9	-45.8	12.2	2.72e-04	0	61	0	295698432	54	5988
2026-01-18 22:23:41.53	55.41	18.74	-42.1	-46.2	11.8	3.86e-04	0	61	0	297795584	54	6227
2026-01-18 22:23:42.53	55.61	18.81	-42.2	-46.4	11.6	7.65e-04	0	61	0	299892736	55	6004
2026-01-18 22:23:43.54	55.82	18.88	-42.3	-46.5	11.4	8.50e-04	0	61	0	300941312	55	6118
2026-01-18 22:23:44.55	56.02	18.95	-42.2	-46.4	11.5	7.99e-04	0	61	0	303038464	55	6048
2026-01-18 22:23:45.56	56.23	19.01	-42.1	-46.2	11.7	7.03e-04	0	61	0	305135616	55	5894
2026-01-18 22:23:46.57	56.43	19.08	-42.1	-46.2	11.8	5.68e-04	0	61	0	307232768	55	5909
2026-01-18 22:23:47.58	56.64	19.15	-42.2	-46.3	11.7	4.60e-04	0	61	0	309329920	55	5948
2026-01-18 22:23:48.59	56.85	19.22	-42.2	-46.3	11.7	4.92e-04	0	61	0	310378496	55	5936
2026-01-18 22:23:49.60	57.06	19.28	-42.2	-46.3	11.7	5.81e-04	0	61	0	312475648	55	5990
2026-01-18 22:23:50.61	57.27	19.35	-42.4	-46.8	11.1	1.22e-03	0	61	0	314572800	55	6337
2026-01-18 22:23:51.62	57.48	19.42	-42.5	-47.0	11.0	1.88e-03	0	61	0	316669952	55	6443
2026-01-18 22:23:52.63	57.69	19.48	-42.5	-47.0	10.9	1.50e-03	0	61	0	318767104	55	6455
2026-01-18 22:23:53.64	57.91	19.55	-42.4	-46.8	11.2	1.32e-03	0	61	0	319815680	55	6318
2026-01-18 22:23:54.65	58.12	19.62	-42.3	-46.6	11.4	1.17e-03	0	61	0	321912832	55	6161
2026-01-18 22:23:55.66	58.34	19.68	-42.3	-46.6	11.4	9.61e-04	0	61	0	324009984	55	6194
2026-01-18 22:23:56.67	58.55	19.75	-42.2	-46.4	11.5	9.03e-04	0	61	0	326107136	55	6052
2026-01-18 22:23:57.68	58.77	19.81	-42.2	-46.4	11.6	7.16e-04	0	61	0	328204288	55	6031
2026-01-18 22:23:58.69	58.99	19.88	-42.4	-46.8	11.2	1.01e-03	0	61	0	329252864	55	6288
2026-01-18 22:23:59.70	59.21	19.94	-42.6	-47.2	10.7	2.54e-03	0	61	0	331350016	55	6637
2026-01-18 22:24:00.71	59.43	20.01	-42.7	-47.5	10.4	3.60e-03	0	61	0	333447168	55	6861
2026-01-18 22:24:01.72	59.65	20.07	-43.0	-48.1	10.0	5.46e-03	0	61	0	335544320	56	6930
2026-01-18 22:24:02.73	59.87	20.14	-42.9	-47.7	10.4	6.72e-03	0	61	0	337641472	56	6624
2026-01-18 22:24:03.74	60.09	20.20	-42.7	-47.4	10.7	3.56e-03	0	61	0	338690048	56	6404
2026-01-18 22:24:04.75	60.31	20.26	-42.6	-47.1	11.0	2.62e-03	0	61	0	340787200	56	6183
2026-01-18 22:24:05.76	60.54	20.33	-42.5	-46.9	11.2	1.72e-03	0	61	0	342884352	56	6003
2026-01-18 22:24:06.77	60.76	20.39	-42.5	-46.8	11.3	9.56e-04	0	61	0	344981504	56	5983
2026-01-18 22:24:07.78	60.99	20.45	-42.5	-46.8	11.3	1.04e-03	0	61	0	347078656	56	5973
2026-01-18 22:24:08.78	61.21	20.51	-42.5	-46.9	11.3	1.19e-03	0	61	0	349175808	56	6029
2026-01-18 22:24:09.79	61.44	20.58	-42.5	-46.9	11.2	1.19e-03	0	61	0	350224384	56	6048
2026-01-18 22:24:10.80	61.67	20.64	-42.5	-46.9	11.2	1.39e-03	0	61	0	352321536	56	6046
2026-01-18 22:24:11.81	61.90	20.70	-42.4	-46.6	11.5	1.02e-03	0	61	0	354418688	56	5832
2026-01-18 22:24:12.82	62.13	20.76	-42.4	-46.7	11.5	7.80e-04	0	61	0	356515840	56	5863
2026-01-18 22:24:13.83	62.36	20.82	-42.3	-46.5	11.7	5.45e-04	0	61	0	358612992	56	5727
2026-01-18 22:24:14.84	62.59	20.88	-42.4	-46.6	11.6	6.76e-04	0	61	0	359661568	56	5804
2026-01-18 22:24:15.84	62.83	20.94	-42.6	-47.0	11.2	1.28e-03	0	61	0	361758720	56	6097
2026-01-18 22:24:16.85	63.06	21.00	-42.6	-47.1	11.1	1.86e-03	0	61	0	363855872	56	6143
2026-01-18 22:24:17.86	63.29	21.06	-42.7	-47.2	11.0	2.05e-03	0	61	0	365953024	56	6248
2026-01-18 22:24:18.87	63.53	21.12	-42.6	-47.1	11.0	1.81e-03	0	61	0	368050176	56	6185
2026-01-18 22:24:19.88	63.77	21.18	-42.4	-46.7	11.5	9.06e-04	0	61	0	369098752	56	5856
2026-01-18 22:24:20.90	64.01	21.24	-42.1	-46.0	12.2	3.09e-04	0	61	0	371195904	56	5419
2026-01-18 22:24:21.90	64.24	21.30	-42.0	-45.7	12.4	2.44e-04	0	61	0	373293056	56	5264
2026-01-18 22:24:22.91	64.48	21.36	-41.7	-45.3	12.7	1.04e-04	0	61	0	375390208	55	5329
2026-01-18 22:24:23.92	64.72	21.41	-41.8	-45.5	12.6	7.85e-05	0	61	0	377487360	55	5409
2026-01-18 22:24:24.93	64.96	21.47	-41.7	-45.4	12.7	8.08e-05	0	61	0	378535936	55	5357
2026-01-18 22:24:25.94	65.21	21.53	-41.7	-45.4	12.6	8.23e-05	0	61	0	380633088	55	5371
2026-01-18 22:24:26.95	65.45	21.58	-41.8	-45.6	12.5	9.84e-05	0	61	0	382730240	55	5479
2026-01-18 22:24:27.96	65.69	21.64	-42.0	-45.9	12.1	1.89e-04	0	61	0	384827392	55	5685
2026-01-18 22:24:28.97	65.94	21.70	-42.1	-46.3	11.7	2.60e-04	0	61	0	386924544	55	5930
2026-01-18 22:24:29.98	66.18	21.75	-42.4	-46.8	11.2	9.62e-04	0	61	0	387973120	55	6303
2026-01-18 22:24:30.99	66.43	21.81	-42.5	-47.1	10.8	1.69e-03	0	61	0	390070272	55	6533
2026-01-18 22:24:32.00	66.68	21.86	-42.6	-47.3	10.6	2.85e-03	0	61	0	392167424	55	6709
2026-01-18 22:24:33.01	66.93	21.91	-42.6	-47.2	10.7	3.22e-03	0	61	0	394264576	55	6618
2026-01-18 22:24:34.02	67.18	21.97	-42.3	-46.6	11.4	1.42e-03	0	61	0	396361728	55	6141
2026-01-18 22:24:35.03	67.42	22.02	-42.1	-46.1	11.8	6.58e-04	0	61	0	397410304	55	5824
2026-01-18 22:24:36.04	67.68	22.07	-41.9	-45.9	12.1	3.29e-04	0	61	0	399507456	55	5683
2026-01-18 22:24:37.05	67.93	22.13	-41.8	-45.7	12.3	2.27e-04	0	61	0	401604608	55	5536
2026-01-18 22:24:38.05	68.18	22.18	-42.0	-46.0	11.9	2.12e-04	0	61	0	403701760	55	5774
2026-01-18 22:24:39.06	68.43	22.23	-42.1	-46.3	11.6	5.48e-04	0	61	0	405798912	55	5986
2026-01-18 22:24:40.07	68.68	22.28	-42.2	-46.6	11.3	1.06e-03	0	61	0	406847488	55	6170
2026-01-18 22:24:41.08	68.94	22.33	-42.2	-46.6	11.3	1.56e-03	0	61	0	408944640	55	6148
2026-01-18 22:24:42.09	69.19	22.38	-42.2	-46.4	11.5	1.03e-03	0	61	0	411041792	55	6032
2026-01-18 22:24:43.10	69.45	22.43	-42.2	-46.5	11.4	8.80e-04	0	61	0	413138944	55	6083
2026-01-18 22:24:44.11	69.71	22.48	-42.2	-46.5	11.4	9.54e-04	0	61	0	415236096	55	6068
2026-01-18 22:24:45.12	69.97	22.53	-42.2	-46.5	11.3	8.72e-04	0	61	0	417333248	55	6116
2026-01-18 22:24:46.13	70.23	22.57	-42.3	-46.7	11.1	1.39e-03	0	61	0	418381824	55	6259
2026-01-18 22:24:47.14	70.49	22.62	-42.3	-46.8	11.0	1.62e-03	0	61	0	420478976	55	6340
2026-01-18 22:24:48.15	70.75	22.67	-42.3	-46.8	11.0	1.73e-03	0	61	0	422576128	55	6339
2026-01-18 22:24:49.16	71.01	22.72	-42.1	-46.3	11.5	1.02e-03	0	61	0	424673280	55	5982
2026-01-18 22:24:50.16	71.27	22.76	-42.0	-46.1	11.7	5.47e-04	0	61	0	426770432	55	5799
2026-01-18 22:24:51.18	71.53	22.81	-42.0	-46.2	11.6	5.50e-04	0	61	0	427819008	55	5921
2026-01-18 22:24:52.19	71.79	22.85	-42.1	-46.5	11.3	8.64e-04	0	61	0	429916160	55	6099
2026-01-18 22:24:53.20	72.06	22.90	-42.3	-46.9	10.8	1.93e-03	0	61	0	432013312	55	6414
2026-01-18 22:24:54.21	72.32	22.94	-42.6	-47.7	10.1	4.90e-03	0	61	0	434110464	55	6973
2026-01-18 22:24:55.22	72.59	22.98	-42.7	-47.9	9.8	9.19e-03	0	61	0	436207616	55	7139
2026-01-18 22:24:56.23	72.86	23.03	-42.9	-48.2	9.7	1.23e-02	0	61	0	437256192	56	6962
2026-01-18 22:24:57.24	73.12	23.07	-42.8	-47.8	10.2	7.71e-03	0	61	0	439353344	56	6648
2026-01-18 22:24:58.25	73.39	23.11	-42.7	-47.5	10.4	4.46e-03	0	61	0	441450496	56	6480
2026-01-18 22:24:59.26	73.66	23.15	-42.5	-47.1	10.8	2.93e-03	0	61	0	443547648	56	6173
2026-01-18 22:25:00.27	73.93	23.19	-42.5	-47.0	11.0	2.02e-03	0	61	0	445644800	56	6122
2026-01-18 22:25:01.28	74.20	23.23	-42.6	-47.2	10.9	2.40e-03	0	61	0	446693376	56	6211
2026-01-18 22:25:02.29	74.47	23.27	-42.7	-47.4	10.6	3.29e-03	0	61	0	448790528	56	6370
2026-01-18 22:25:03.30	74.74	23.31	-42.7	-47.6	10.4	4.14e-03	0	61	0	450887680	56	6499
2026-01-18 22:25:04.31	75.01	23.35	-42.8	-47.8	10.2	4.44e-03	0	61	0	452984832	56	6713
2026-01-18 22:25:05.32	75.28	23.38	-42.8	-47.8	10.2	5.80e-03	0	61	0	455081984	56	6686
2026-01-18 22:25:06.33	75.56	23.42	-42.9	-47.9	10.1	6.24e-03	0	61	0	456130560	56	6764
2026-01-18 22:25:07.34	75.83	23.46	-42.8	-47.8	10.2	6.71e-03	0	61	0	458227712	56	6694
2026-01-18 22:25:08.35	76.11	23.49	-42.9	-48.0	9.9	6.54e-03	0	61	0	460324864	56	6821
2026-01-18 22:25:09.36	76.38	23.53	-42.9	-48.1	9.9	8.38e-03	0	61	0	462422016	56	6903
2026-01-18 22:25:10.37	76.66	23.56	-42.9	-48.0	10.0	8.43e-03	0	61	0	464519168	56	6834
2026-01-18 22:25:11.38	76.93	23.60	-43.0	-48.2	9.7	1.05e-02	0	61	0	465567744	56	7037
2026-01-18 22:25:12.39	77.21	23.63	-43.2	-48.7	9.3	1.19e-02	0	61	0	467664896	56	7399
2026-01-18 22:25:13.40	77.49	23.66	-43.2	-48.8	9.2	1.96e-02	0	61	0	469762048	57	7081
2026-01-18 22:25:14.41	77.77	23.69	-43.1	-48.6	9.4	1.87e-02	0	61	0	471859200	57	6951
2026-01-18 22:25:15.42	78.04	23.73	-43.1	-48.3	9.6	1.40e-02	0	61	0	473956352	57	6715
2026-01-18 22:25:16.42	78.32	23.76	-42.8	-47.7	10.3	7.54e-03	0	61	0	475004928	57	6253
2026-01-18 22:25:17.43	78.60	23.79	-42.7	-47.4	10.6	4.85e-03	0	61	0	477102080	57	6027
2026-01-18 22:25:18.44	78.88	23.81	-42.6	-47.0	11.1	1.77e-03	0	61	0	479199232	57	5776
2026-01-18 22:25:19.45	79.16	23.84	-42.5	-46.8	11.3	1.42e-03	0	61	0	481296384	56	5962
2026-01-18 22:25:20.46	79.44	23.87	-42.3	-46.5	11.6	8.92e-04	0	61	0	483393536	56	5742
2026-01-18 22:25:21.47	79.72	23.90	-42.3	-46.4	11.8	5.06e-04	0	61	0	485490688	56	5661
2026-01-18 22:25:22.48	80.01	23.92	-42.1	-46.0	12.1	2.99e-04	0	61	0	486539264	56	5430
2026-01-18 22:25:23.49	80.29	23.95	-42.0	-45.9	12.3	1.88e-04	0	61	0	488636416	56	5350
2026-01-18 22:25:24.50	80.57	23.98	-42.1	-46.0	12.2	1.78e-04	0	61	0	490733568	56	5421
2026-01-18 22:25:25.51	80.86	24.00	-42.4	-46.6	11.6	4.58e-04	0	61	0	492830720	56	5805
2026-01-18 22:25:26.52	81.14	24.02	-42.7	-47.5	10.7	1.77e-03	0	61	0	494927872	56	6421
2026-01-18 22:25:27.53	81.42	24.05	-42.8	-47.7	10.4	5.10e-03	0	61	0	495976448	56	6637
2026-01-18 22:25:28.54	81.71	24.07	-42.8	-47.7	10.4	4.67e-03	0	61	0	498073600	56	6605
2026-01-18 22:25:29.55	81.99	24.09	-42.7	-47.2	10.9	3.03e-03	0	61	0	500170752	56	6269
2026-01-18 22:25:30.56	82.28	24.11	-42.4	-46.7	11.4	1.41e-03	0	61	0	502267904	56	5908
2026-01-18 22:25:31.57	82.57	24.13	-42.3	-46.5	11.7	5.87e-04	0	61	0	504365056	56	5742
2026-01-18 22:25:32.58	82.85	24.15	-42.4	-46.6	11.6	6.11e-04	0	61	0	505413632	56	5826
2026-01-18 22:25:33.59	83.14	24.17	-42.6	-47.0	11.2	9.50e-04	0	61	0	507510784	56	6085
2026-01-18 22:25:34.60	83.43	24.19	-42.6	-47.1	11.1	1.66e-03	0	61	0	509607936	56	6170
2026-01-18 22:25:35.61	83.71	24.21	-42.6	-47.0	11.2	1.68e-03	0	61	0	511705088	56	6111
2026-01-18 22:25:36.62	84.00	24.22	-42.4	-46.6	11.6	1.06e-03	0	61	0	513802240	56	5823
2026-01-18 22:25:37.63	84.29	24.24	-42.4	-46.6	11.6	6.93e-04	0	61	0	514850816	56	5801
2026-01-18 22:25:38.64	84.58	24.25	-42.4	-46.7	11.5	8.22e-04	0	61	0	516947968	56	5865
2026-01-18 22:25:39.65	84.87	24.27	-42.6	-47.0	11.1	1.32e-03	0	61	0	519045120	56	6131
2026-01-18 22:25:40.66	85.15	24.28	-42.6	-47.2	11.0	1.87e-03	0	61	0	521142272	56	6225
2026-01-18 22:25:41.67	85.44	24.29	-42.6	-47.0	11.2	1.71e-03	0	61	0	523239424	56	6076
2026-01-18 22:25:42.68	85.73	24.31	-42.3	-46.4	11.8	8.73e-04	0	61	0	524288000	56	5686
2026-01-18 22:25:43.68	86.02	24.32	-42.1	-45.9	12.3	3.29e-04	0	61	0	526385152	56	5355
2026-01-18 22:25:44.69	86.31	24.33	-41.7	-45.3	12.8	9.23e-05	0	61	0	528482304	55	5326
2026-01-18 22:25:45.70	86.60	24.34	-41.7	-45.2	12.8	5.64e-05	0	61	0	530579456	55	5273
2026-01-18 22:25:46.71	86.89	24.35	-41.8	-45.6	12.5	6.17e-05	0	61	0	532676608	55	5496
2026-01-18 22:25:47.72	87.18	24.35	-42.0	-45.8	12.3	1.75e-04	0	62	0	533725184	55	5639
2026-01-18 22:25:48.73	87.47	24.36	-42.1	-46.1	12.0	3.58e-04	0	61	0	535822336	55	5815
2026-01-18 22:25:49.74	87.76	24.37	-42.2	-46.2	11.8	4.45e-04	0	61	0	537919488	55	5922
2026-01-18 22:25:50.75	88.05	24.37	-42.2	-46.2	11.8	4.44e-04	0	61	0	540016640	55	5915
2026-01-18 22:25:51.76	88.34	24.38	-42.1	-46.2	11.9	3.41e-04	0	61	0	542113792	55	5863
2026-01-18 22:25:52.77	88.63	24.38	-42.0	-45.8	12.3	3.14e-04	0	61	0	543162368	55	5647
2026-01-18 22:25:53.78	88.92	24.39	-41.9	-45.6	12.5	1.29e-04	0	62	0	545259520	55	5490
2026-01-18 22:25:54.79	89.21	24.39	-41.8	-45.5	12.6	1.14e-04	0	61	0	547356672	55	5440
2026-01-18 22:25:55.80	89.50	24.39	-41.8	-45.4	12.6	8.46e-05	0	62	0	549453824	55	5401
2026-01-18 22:25:56.81	89.80	24.40	-41.8	-45.5	12.6	1.12e-04	0	61	0	551550976	55	5446
2026-01-18 22:25:57.82	90.09	24.40	-41.8	-45.5	12.6	9.23e-05	0	61	0	553648128	55	5456
2026-01-18 22:25:58.83	90.38	24.40	-41.9	-45.6	12.5	1.11e-04	0	61	0	554696704	55	5527
2026-01-18 22:25:59.84	90.67	24.40	-42.0	-45.8	12.3	1.60e-04	0	61	0	556793856	55	5637
2026-01-18 22:26:00.85	90.96	24.39	-42.0	-45.9	12.2	2.26e-04	0	61	0	558891008	55	5702
2026-01-18 22:26:01.86	91.25	24.39	-42.1	-46.1	12.0	3.24e-04	0	61	0	560988160	55	5833
2026-01-18 22:26:02.87	91.54	24.39	-42.1	-46.1	12.1	4.07e-04	0	61	0	563085312	55	5789
2026-01-18 22:26:03.88	91.83	24.38	-42.1	-46.0	12.1	2.82e-04	0	61	0	564133888	55	5735
2026-01-18 22:26:04.89	92.12	24.38	-42.0	-45.9	12.3	2.04e-04	0	61	0	566231040	55	5670
2026-01-18 22:26:05.90	92.41	24.37	-41.9	-45.6	12.6	1.27e-04	0	61	0	568328192	55	5490
2026-01-18 22:26:06.91	92.71	24.37	-41.9	-45.7	12.5	1.36e-04	0	61	0	570425344	55	5564
2026-01-18 22:26:07.92	93.00	24.36	-41.9	-45.7	12.5	1.17e-04	0	61	0	572522496	55	5530
2026-01-18 22:26:08.93	93.29	24.35	-42.0	-45.8	12.4	1.22e-04	0	61	0	573571072	55	5620
2026-01-18 22:26:09.94	93.58	24.35	-42.0	-45.7	12.4	1.81e-04	0	61	0	575668224	55	5590
2026-01-18 22:26:10.95	93.87	24.34	-42.0	-45.8	12.4	1.63e-04	0	61	0	577765376	55	5597
2026-01-18 22:26:11.95	94.15	24.33	-41.9	-45.7	12.4	1.44e-04	0	61	0	579862528	55	5586
2026-01-18 22:26:12.96	94.44	24.32	-42.1	-46.1	12.1	3.00e-04	0	61	0	581959680	55	5825
2026-01-18 22:26:13.97	94.73	24.30	-42.1	-46.1	12.0	2.94e-04	0	62	0	583008256	55	5844
2026-01-18 22:26:14.98	95.02	24.29	-42.1	-46.1	12.1	3.23e-04	0	61	0	585105408	55	5803
2026-01-18 22:26:15.99	95.31	24.28	-42.0	-45.9	12.3	2.30e-04	0	61	0	587202560	55	5679
2026-01-18 22:26:17.00	95.60	24.27	-42.0	-45.8	12.4	1.84e-04	0	61	0	589299712	55	5597
2026-01-18 22:26:18.01	95.89	24.25	-42.0	-45.8	12.4	1.86e-04	0	62	0	591396864	55	5594
2026-01-18 22:26:19.02	96.18	24.24	-42.0	-45.8	12.4	1.24e-04	0	61	0	592445440	55	5635
2026-01-18 22:26:20.03	96.47	24.22	-41.9	-45.6	12.6	9.15e-05	0	62	0	594542592	55	5465
2026-01-18 22:26:21.04	96.75	24.20	-41.8	-45.3	12.8	6.48e-05	0	61	0	596639744	55	5334
2026-01-18 22:26:22.05	97.04	24.19	-41.6	-45.0	13.2	3.05e-05	0	62	0	598736896	55	5159
2026-01-18 22:26:23.06	97.33	24.17	-41.6	-45.1	13.1	2.97e-05	0	62	0	600834048	55	5192
2026-01-18 22:26:24.07	97.62	24.15	-41.7	-45.3	12.9	3.20e-05	0	62	0	601882624	55	5297
2026-01-18 22:26:25.08	97.90	24.13	-41.8	-45.5	12.7	5.72e-05	0	61	0	603979776	55	5421
2026-01-18 22:26:26.09	98.19	24.11	-41.9	-45.7	12.5	1.05e-04	0	62	0	606076928	55	5564
2026-01-18 22:26:27.10	98.48	24.09	-41.8	-45.3	12.9	9.38e-05	0	61	0	608174080	55	5329
2026-01-18 22:26:28.11	98.76	24.07	-41.7	-45.3	12.9	5.87e-05	0	62	0	610271232	55	5302
2026-01-18 22:26:29.12	99.05	24.05	-41.6	-45.0	13.2	2.44e-05	0	61	0	611319808	55	5141
2026-01-18 22:26:30.13	99.33	24.02	-41.6	-45.0	13.2	3.58e-05	0	61	0	613416960	55	5151
2026-01-18 22:26:31.14	99.62	24.00	-41.6	-44.9	13.2	2.44e-05	0	61	0	615514112	55	5099
2026-01-18 22:26:32.15	99.90	23.97	-41.7	-45.1	13.1	1.98e-05	0	61	0	617611264	55	5207
2026-01-18 22:26:33.16	100.18	23.95	-41.7	-45.3	13.0	3.81e-05	0	62	0	619708416	55	5304
2026-01-18 22:26:34.17	100.47	23.92	-41.7	-45.2	13.1	5.34e-05	0	61	0	621805568	55	5241
2026-01-18 22:26:35.18	100.75	23.90	-41.5	-44.8	13.5	1.60e-05	0	61	0	622854144	55	4988
2026-01-18 22:26:36.19	101.03	23.87	-41.4	-44.7	13.6	5.30e-06	0	61	0	624951296	54	5248
2026-01-18 22:26:37.20	101.31	23.84	-41.5	-44.8	13.5	3.80e-06	0	62	0	627048448	54	5293
2026-01-18 22:26:38.21	101.59	23.81	-41.4	-44.6	13.7	7.60e-06	0	62	0	629145600	54	5170
2026-01-18 22:26:39.22	101.87	23.78	-41.4	-44.6	13.7	4.50e-06	0	61	0	631242752	54	5201
2026-01-18 22:26:40.23	102.15	23.75	-41.5	-44.8	13.4	9.10e-06	0	62	0	632291328	54	5307
2026-01-18 22:26:41.23	102.43	23.72	-41.7	-45.2	13.1	1.60e-05	0	61	0	634388480	54	5542
2026-01-18 22:26:42.24	102.71	23.69	-41.8	-45.5	12.8	4.65e-05	0	62	0	636485632	54	5731
2026-01-18 22:26:43.25	102.99	23.66	-41.9	-45.6	12.7	7.01e-05	0	61	0	638582784	54	5826
2026-01-18 22:26:44.26	103.27	23.63	-41.8	-45.4	12.8	5.79e-05	0	61	0	640679936	54	5712
2026-01-18 22:26:45.27	103.54	23.59	-41.5	-44.9	13.4	5.79e-05	0	61	0	641728512	54	5378
2026-01-18 22:26:46.28	103.82	23.56	-41.5	-44.8	13.5	1.22e-05	0	61	0	643825664	54	5331
2026-01-18 22:26:47.29	104.10	23.53	-41.4	-44.6	13.7	3.80e-06	0	61	0	645922816	54	5184
2026-01-18 22:26:48.30	104.37	23.49	-41.4	-44.6	13.7	1.50e-06	0	61	0	648019968	54	5173
2026-01-18 22:26:49.31	104.65	23.45	-41.3	-44.5	13.8	2.20e-06	0	61	0	650117120	54	5122
2026-01-18 22:26:50.32	104.92	23.42	-41.2	-44.3	14.0	3.00e-06	0	62	0	651165696	54	4995
2026-01-18 22:26:51.33	105.20	23.38	-41.3	-44.4	13.8	2.20e-06	0	62	0	653262848	54	5083
2026-01-18 22:26:52.34	105.47	23.34	-41.3	-44.4	13.9	2.20e-06	0	62	0	655360000	54	5071
2026-01-18 22:26:53.35	105.74	23.30	-41.1	-44.2	14.1	2.20e-06	0	62	0	657457152	54	4946
2026-01-18 22:26:54.36	106.01	23.27	-40.8	-43.7	14.6	1.50e-06	0	61	0	659554304	53	4939
2026-01-18 22:26:55.37	106.29	23.23	-40.7	-43.5	14.8	0.00e+00	0	61	0	660602880	53	4815
2026-01-18 22:26:56.37	106.55	23.19	-40.5	-43.2	15.1	7.00e-07	0	61	0	662700032	52	4928
2026-01-18 22:26:57.38	106.82	23.15	-40.5	-43.2	15.1	0.00e+00	0	62	0	664797184	52	4936
2026-01-18 22:26:58.39	107.09	23.10	-40.7	-43.5	14.8	7.00e-07	0	62	0	666894336	52	5118
2026-01-18 22:26:59.40	107.36	23.06	-40.9	-43.9	14.4	0.00e+00	0	61	0	668991488	52	5356
2026-01-18 22:27:00.41	107.63	23.02	-41.2	-44.3	14.0	2.20e-06	0	62	0	670040064	52	5598
2026-01-18 22:27:01.42	107.90	22.98	-41.1	-44.2	14.0	6.80e-06	0	62	0	672137216	53	5256
2026-01-18 22:27:02.43	108.16	22.93	-41.1	-44.1	14.2	1.50e-06	0	61	0	674234368	53	5167
2026-01-18 22:27:03.44	108.43	22.89	-40.8	-43.7	14.6	1.50e-06	0	62	0	676331520	53	4947
2026-01-18 22:27:04.45	108.69	22.85	-40.7	-43.5	14.7	1.50e-06	0	62	0	678428672	53	4868
2026-01-18 22:27:05.46	108.96	22.80	-40.6	-43.3	15.0	0.00e+00	0	62	0	679477248	53	4730
2026-01-18 22:27:06.47	109.22	22.75	-40.6	-43.3	15.0	0.00e+00	0	62	0	681574400	53	4723
2026-01-18 22:27:07.48	109.48	22.71	-40.7	-43.5	14.7	0.00e+00	0	61	0	683671552	53	4857
2026-01-18 22:27:08.48	109.74	22.66	-40.8	-43.7	14.6	0.00e+00	0	62	0	685768704	53	4980
2026-01-18 22:27:09.49	110.00	22.61	-41.1	-44.1	14.2	2.20e-06	0	61	0	687865856	53	5206
2026-01-18 22:27:10.50	110.26	22.57	-41.2	-44.3	14.0	7.00e-07	0	62	0	689963008	53	5335
2026-01-18 22:27:11.51	110.52	22.52	-41.2	-44.3	14.0	3.80e-06	0	62	0	691011584	53	5317
2026-01-18 22:27:12.52	110.78	22.47	-41.1	-44.2	14.1	2.20e-06	0	61	0	693108736	53	5262
2026-01-18 22:27:13.52	111.04	22.42	-41.0	-43.9	14.3	7.00e-07	0	62	0	695205888	53	5089
2026-01-18 22:27:14.54	111.30	22.37	-40.9	-43.8	14.6	0.00e+00	0	62	0	697303040	53	4997
2026-01-18 22:27:15.54	111.55	22.32	-41.0	-43.9	14.4	0.00e+00	0	61	0	698351616	53	5090
2026-01-18 22:27:16.55	111.81	22.27	-41.0	-44.0	14.3	0.00e+00	0	62	0	700448768	53	5116
2026-01-18 22:27:17.56	112.06	22.22	-41.1	-44.2	14.0	1.50e-06	0	61	0	702545920	53	5277
2026-01-18 22:27:18.57	112.32	22.17	-41.2	-44.3	14.0	1.50e-06	0	62	0	704643072	53	5291
2026-01-18 22:27:19.58	112.57	22.12	-41.1	-44.1	14.2	7.00e-07	0	62	0	706740224	53	5216
2026-01-18 22:27:20.59	112.82	22.06	-41.0	-44.1	14.2	2.20e-06	0	62	0	707788800	53	5194
2026-01-18 22:27:21.60	113.07	22.01	-41.0	-44.0	14.2	2.20e-06	0	62	0	709885952	53	5151
2026-01-18 22:27:22.61	113.32	21.96	-41.0	-43.9	14.4	7.00e-07	0	61	0	711983104	53	5100
2026-01-18 22:27:23.62	113.57	21.90	-41.0	-44.0	14.2	3.00e-06	0	61	0	714080256	53	5152
2026-01-18 22:27:24.63	113.82	21.85	-41.2	-44.3	14.0	2.20e-06	0	62	0	716177408	53	5315
2026-01-18 22:27:25.64	114.07	21.79	-41.3	-44.5	13.9	4.50e-06	0	62	0	718274560	53	5416
2026-01-18 22:27:26.65	114.32	21.74	-41.3	-44.4	13.8	4.50e-06	0	61	0	719323136	53	5397
2026-01-18 22:27:27.65	114.56	21.68	-41.5	-44.9	13.3	1.06e-05	0	61	0	721420288	53	5701
2026-01-18 22:27:28.66	114.81	21.63	-41.6	-45.1	13.2	1.29e-05	0	61	0	723517440	53	5791
2026-01-18 22:27:29.67	115.05	21.57	-41.8	-45.3	12.9	3.35e-05	0	61	0	725614592	54	5656
2026-01-18 22:27:30.68	115.30	21.51	-42.0	-45.8	12.5	8.54e-05	0	61	0	727711744	54	5951
2026-01-18 22:27:31.69	115.54	21.46	-41.9	-45.7	12.5	8.77e-05	0	61	0	728760320	54	5901
2026-01-18 22:27:32.70	115.78	21.40	-41.8	-45.5	12.8	8.39e-05	0	61	0	730857472	54	5742
2026-01-18 22:27:33.71	116.02	21.34	-41.7	-45.2	13.1	7.32e-05	0	61	0	732954624	54	5586
2026-01-18 22:27:34.72	116.26	21.28	-41.5	-44.9	13.3	2.13e-05	0	61	0	735051776	54	5402
2026-01-18 22:27:35.73	116.50	21.22	-41.5	-44.8	13.4	2.44e-05	0	62	0	737148928	54	5334
2026-01-18 22:27:36.74	116.74	21.16	-41.3	-44.5	13.7	6.10e-06	0	62	0	738197504	54	5159
2026-01-18 22:27:37.75	116.98	21.11	-41.3	-44.5	13.7	6.10e-06	0	62	0	740294656	54	5146
2026-01-18 22:27:38.76	117.21	21.05	-41.3	-44.5	13.8	1.50e-06	0	61	0	742391808	54	5116
2026-01-18 22:27:39.77	117.45	20.99	-41.6	-44.9	13.3	9.90e-06	0	62	0	744488960	54	5398
2026-01-18 22:27:40.78	117.69	20.93	-41.7	-45.3	13.0	2.82e-05	0	61	0	746586112	54	5608
2026-01-18 22:27:41.79	117.92	20.86	-41.9	-45.7	12.5	9.30e-05	0	61	0	747634688	54	5886
2026-01-18 22:27:42.80	118.15	20.80	-42.1	-46.1	12.1	1.75e-04	0	61	0	749731840	54	6158
2026-01-18 22:27:43.81	118.39	20.74	-42.3	-46.4	11.8	3.32e-04	0	61	0	751828992	55	6036
2026-01-18 22:27:44.82	118.62	20.68	-42.2	-46.2	11.9	3.73e-04	0	62	0	753926144	55	5915
2026-01-18 22:27:45.82	118.84	20.62	-42.0	-45.9	12.3	2.75e-04	0	61	0	756023296	55	5700
2026-01-18 22:27:46.83	119.07	20.56	-41.9	-45.6	12.6	1.02e-04	0	62	0	757071872	55	5485
2026-01-18 22:27:47.84	119.30	20.49	-41.5	-45.0	13.2	3.73e-05	0	61	0	759169024	55	5117
2026-01-18 22:27:48.85	119.53	20.43	-41.2	-44.4	13.8	8.30e-06	0	62	0	761266176	54	5089
2026-01-18 22:27:49.86	119.76	20.37	-41.2	-44.4	13.8	2.20e-06	0	61	0	763363328	54	5090
2026-01-18 22:27:50.87	119.98	20.30	-41.3	-44.5	13.8	6.10e-06	0	62	0	765460480	54	5141
2026-01-18 22:27:51.88	120.21	20.24	-41.5	-44.9	13.3	1.29e-05	0	61	0	766509056	54	5360
2026-01-18 22:27:52.89	120.43	20.18	-41.7	-45.3	13.0	2.59e-05	0	61	0	768606208	54	5610
2026-01-18 22:27:53.90	120.66	20.11	-41.9	-45.7	12.6	7.32e-05	0	61	0	770703360	54	5865
2026-01-18 22:27:54.91	120.88	20.05	-42.1	-46.0	12.1	1.75e-04	0	61	0	772800512	54	6105
2026-01-18 22:27:55.92	121.10	19.98	-42.1	-46.2	12.0	3.46e-04	0	62	0	774897664	54	6207
2026-01-18 22:27:56.93	121.32	19.92	-42.1	-46.1	12.1	2.59e-04	0	62	0	775946240	54	6161
2026-01-18 22:27:57.94	121.54	19.85	-42.1	-46.1	12.0	3.46e-04	0	61	0	778043392	55	5839
2026-01-18 22:27:58.95	121.76	19.79	-42.1	-46.1	12.0	2.83e-04	0	62	0	780140544	55	5849
2026-01-18 22:27:59.96	121.98	19.72	-41.9	-45.8	12.4	2.30e-04	0	62	0	782237696	55	5594
2026-01-18 22:28:00.97	122.19	19.65	-42.2	-46.2	12.0	1.95e-04	0	61	0	784334848	55	5914
2026-01-18 22:28:01.98	122.41	19.59	-42.2	-46.2	12.0	3.52e-04	0	61	0	786432000	55	5896
2026-01-18 22:28:02.99	122.62	19.52	-42.1	-46.1	12.1	3.47e-04	0	62	0	787480576	55	5801
2026-01-18 22:28:04.00	122.84	19.45	-42.1	-46.0	12.2	3.04e-04	0	62	0	789577728	55	5762
2026-01-18 22:28:05.01	123.05	19.39	-42.0	-45.9	12.2	2.66e-04	0	62	0	791674880	55	5694
2026-01-18 22:28:06.02	123.26	19.32	-41.9	-45.8	12.4	1.85e-04	0	61	0	793772032	55	5600
2026-01-18 22:28:07.03	123.47	19.25	-42.0	-46.1	12.1	9.15e-04	0	61	0	795869184	55	5795
2026-01-18 22:28:08.04	123.68	19.19	-42.1	-46.1	12.0	3.27e-04	0	62	0	796917760	55	5837
2026-01-18 22:28:09.05	123.89	19.12	-42.2	-46.4	11.7	5.40e-04	0	61	0	799014912	55	6005
2026-01-18 22:28:10.06	124.10	19.05	-42.2	-46.6	11.4	1.50e-03	0	61	0	801112064	55	6196
2026-01-18 22:28:11.07	124.31	18.98	-42.3	-46.6	11.4	4.90e-03	0	61	0	803209216	55	6197
2026-01-18 22:28:12.08	124.52	18.91	-42.2	-46.4	11.7	8.72e-04	0	62	0	805306368	55	6013
2026-01-18 22:28:13.09	124.72	18.84	-42.0	-46.0	12.1	4.43e-04	0	62	0	806354944	55	5767
2026-01-18 22:28:14.10	124.93	18.78	-41.8	-45.5	12.6	1.88e-04	0	61	0	808452096	55	5441
2026-01-18 22:28:15.11	125.13	18.71	-41.1	-44.8	13.3	4.80e-05	0	62	0	810549248	54	5331
2026-01-18 22:28:16.12	125.33	18.64	-41.3	-44.7	13.4	6.80e-06	0	62	0	812646400	54	5232
2026-01-18 22:28:17.13	125.54	18.57	-41.5	-45.0	13.2	8.69e-05	0	61	0	814743552	53	5723
2026-01-18 22:28:18.14	125.74	18.50	-41.7	-45.3	12.7	3.97e-04	0	62	0	815792128	53	5987
2026-01-18 22:28:19.15	125.94	18.43	-41.8	-46.1	12.0	1.83e-04	0	61	0	817889280	54	6139
2026-01-18 22:28:20.16	126.14	18.36	-41.8	-46.2	11.8	4.56e-04	0	62	0	819986432	54	6227
2026-01-18 22:28:21.17	126.34	18.29	-42.1	-46.4	11.6	6.10e-04	0	61	0	822083584	54	6351
2026-01-18 22:28:22.18	126.53	18.22	-42.1	-46.3	11.8	1.44e-03	0	61	0	824180736	54	6300
2026-01-18 22:28:23.19	126.73	18.15	-41.9	-45.9	12.2	2.10e-04	0	61	0	825229312	54	6005
2026-01-18 22:28:24.20	126.93	18.08	-41.9	-45.7	12.4	1.27e-04	0	62	0	827326464	54	5892
2026-01-18 22:28:25.21	127.12	18.01	-41.8	-45.5	12.6	1.11e-04	0	62	0	829423616	54	5754
2026-01-18 22:28:26.22	127.32	17.94	-41.9	-45.8	12.3	1.37e-04	0	62	0	831520768	54	5931
2026-01-18 22:28:27.23	127.51	17.87	-42.2	-46.3	11.7	3.75e-04	0	62	0	833617920	54	6327
2026-01-18 22:28:28.24	127.70	17.80	-42.3	-46.6	11.5	7.17e-04	0	62	0	834666496	55	6148
2026-01-18 22:28:29.25	127.90	17.73	-42.5	-47.1	10.9	1.43e-03	0	62	0	836763648	55	6559
2026-01-18 22:28:30.26	128.09	17.66	-42.4	-47.0	11.0	2.49e-03	0	61	0	838860800	55	6448
2026-01-18 22:28:31.27	128.28	17.59	-42.3	-46.7	11.4	1.71e-03	0	61	0	840957952	55	6213
2026-01-18 22:28:32.28	128.46	17.52	-42.2	-46.5	11.5	9.10e-04	0	61	0	843055104	55	6086
2026-01-18 22:28:33.29	128.65	17.45	-42.0	-45.9	12.1	3.58e-04	0	61	0	844103680	55	5691
2026-01-18 22:28:34.30	128.84	17.37	-41.8	-45.5	12.5	2.08e-04	0	62	0	846200832	54	5788
2026-01-18 22:28:35.30	129.03	17.30	-41.7	-45.4	12.6	9.07e-05	0	62	0	848297984	54	5693
2026-01-18 22:28:36.31	129.21	17.23	-41.8	-45.6	12.4	1.32e-04	0	62	0	850395136	54	5816
2026-01-18 22:28:37.32	129.40	17.16	-41.8	-45.6	12.4	1.88e-04	0	62	0	852492288	54	5794
2026-01-18 22:28:38.33	129.58	17.09	-41.9	-45.9	12.1	2.43e-04	0	62	0	854589440	54	6020
2026-01-18 22:28:39.34	129.76	17.02	-41.9	-46.0	11.9	3.11e-04	0	61	0	855638016	54	6129
2026-01-18 22:28:40.35	129.95	16.95	-41.9	-45.8	12.2	2.28e-04	0	62	0	857735168	54	5931
2026-01-18 22:28:41.36	130.13	16.88	-41.8	-45.7	12.3	5.34e-03	0	62	0	859832320	54	5864
2026-01-18 22:28:42.37	130.31	16.80	-41.5	-45.1	12.9	1.50e-04	0	62	0	861929472	54	5479
2026-01-18 22:28:43.38	130.49	16.73	-41.5	-45.0	12.9	1.59e-02	0	62	0	864026624	53	5767
2026-01-18 22:28:44.39	130.67	16.66	-41.5	-45.1	12.8	2.81e-04	0	62	0	865075200	53	5820
2026-01-18 22:28:45.40	130.84	16.59	-41.4	-45.3	12.5	1.99e-03	0	61	0	867172352	53	5942
2026-01-18 22:28:46.41	131.02	16.52	-41.7	-45.7	12.2	7.99e-04	0	62	0	869269504	54	5859
2026-01-18 22:28:47.42	131.20	16.44	-42.0	-46.2	11.5	3.65e-03	0	62	0	871366656	54	6205
2026-01-18 22:28:48.43	131.37	16.37	-42.0	-46.4	11.4	4.29e-03	0	62	0	873463808	54	6363
2026-01-18 22:28:49.44	131.55	16.30	-42.1	-46.6	10.7	7.53e-03	0	62	0	874512384	54	6565
2026-01-18 22:28:50.45	131.72	16.23	-41.7	-46.4	10.5	7.32e-02	0	62	0	876609536	53	6788
2026-01-18 22:28:51.46	131.90	16.16	-41.6	-46.0	11.3	4.52e-01	0	62	0	878706688	54	6118
2026-01-18 22:28:52.46	132.07	16.08	-41.7	-45.8	11.7	2.13e-02	0	62	0	879755264	53	6308
2026-01-18 22:28:53.47	132.24	16.01	-39.0	-45.3	11.6	2.81e-02	0	62	0	881852416	52	6322
2026-01-18 22:28:54.48	132.41	15.94	-40.6	-45.4	11.4	2.10e-02	0	62	0	883949568	53	6013
2026-01-18 22:28:55.49	132.58	15.87	-41.2	-45.4	11.6	1.50e-02	0	62	0	886046720	53	6059
2026-01-18 22:28:56.50	132.75	15.80	-41.6	-45.5	12.0	2.46e-02	0	62	0	888143872	53	6108
2026-01-18 22:28:57.51	132.92	15.72	-41.3	-45.5	11.7	1.90e-02	0	62	0	889192448	53	6130
2026-01-18 22:28:58.52	133.08	15.65	-41.0	-45.7	11.2	6.01e-02	0	62	0	891289600	52	6632
2026-01-18 22:28:59.53	133.25	15.58	-41.0	-45.6	11.1	2.62e-01	0	62	0	893386752	53	6161
2026-01-18 22:29:00.54	133.42	15.51	-40.9	-45.5	11.3	3.22e-02	0	62	0	895483904	53	6065
2026-01-18 22:29:01.55	133.58	15.43	-40.7	-45.3	11.2	2.52e-02	0	61	0	896532480	52	6326
2026-01-18 22:29:02.56	133.75	15.36	-40.8	-45.3	11.0	4.42e-02	0	62	0	898629632	52	6290
2026-01-18 22:29:03.57	133.91	15.29	-40.7	-45.0	11.7	1.86e-02	0	61	0	900726784	52	6097
2026-01-18 22:29:04.58	134.07	15.22	-41.2	-45.6	10.7	4.69e-01	0	62	0	902823936	52	6505
2026-01-18 22:29:05.59	134.23	15.14	-41.2	-45.5	11.1	4.93e-02	0	62	0	903872512	52	6431
2026-01-18 22:29:06.60	134.40	15.07	-41.5	-46.2	10.6	4.73e-02	0	62	0	905969664	53	6577
2026-01-18 22:29:07.61	134.56	15.00	-41.7	-46.7	10.1	8.71e-01	0	62	0	908066816	54	6576
2026-01-18 22:29:08.62	134.72	14.93	-41.8	-47.0	9.5	5.77e-02	0	62	0	909115392	54	6853
2026-01-18 22:29:09.62	134.87	14.86	-41.7	-47.5	9.3	1.62e-01	0	61	0	911212544	53	7659
2026-01-18 22:29:10.63	135.03	14.78	-42.1	-47.7	8.8	8.32e-01	0	61	0	911212544	53	7866
2026-01-18 22:29:11.64	135.19	14.71	-42.0	-47.6	9.3	8.33e-02	0	62	0	913309696	53	7736
2026-01-18 22:29:12.65	135.35	14.64	-41.7	-47.0	9.4	8.03e-02	0	62	0	914358272	52	7673
2026-01-18 22:29:13.66	135.50	14.57	-41.7	-47.0	8.7	1.17e+00	0	62	0	915406848	51	8138
2026-01-18 22:29:14.67	135.66	14.49	-41.6	-46.6	10.0	5.69e-02	0	62	0	916455424	52	7347
2026-01-18 22:29:15.68	135.81	14.42	-41.6	-46.4	10.3	5.96e-02	0	61	0	918552576	53	6745
2026-01-18 22:29:16.69	135.97	14.35	-41.2	-46.1	10.7	5.02e-02	0	62	0	920649728	53	6521
2026-01-18 22:29:17.70	136.12	14.28	-28.1	-41.2	4.5	5.00e-02	0	62	0	922746880	43	6572
2026-01-18 22:29:18.71	136.27	14.21	-41.1	-46.0	10.9	2.87e-02	0	61	0	922746880	53	6450
2026-01-18 22:29:19.72	136.43	14.13	-36.9	-44.4	7.7	7.87e-02	0	62	0	924844032	51	6003
2026-01-18 22:29:20.73	136.58	14.06	-41.2	-45.7	11.1	4.94e-02	0	62	0	926941184	53	6213
2026-01-18 22:29:21.74	136.73	13.99	-41.1	-45.5	11.4	3.52e-02	0	62	0	929038336	52	6494
2026-01-18 22:29:22.75	136.88	13.92	-41.1	-45.4	9.4	1.39e-01	0	62	0	930086912	42	11354
2026-01-18 22:29:23.75	137.02	13.85	-41.2	-45.1	12.0	1.62e-02	0	62	0	932184064	53	5855
2026-01-18 22:29:24.76	137.17	13.77	-39.9	-45.1	11.7	1.61e-02	0	62	0	934281216	49	7339
2026-01-18 22:29:25.77	137.32	13.70	-41.2	-45.1	12.1	1.24e-02	0	62	0	936378368	52	6166
2026-01-18 22:29:26.78	137.47	13.63	-40.8	-45.2	12.1	1.25e-02	0	62	0	937426944	52	6246
2026-01-18 22:29:27.79	137.61	13.56	-41.3	-45.2	12.1	3.24e-02	0	62	0	939524096	53	5915
2026-01-18 22:29:28.80	137.76	13.49	-41.2	-45.5	11.8	8.35e-03	0	62	0	941621248	53	6125
2026-01-18 22:29:29.81	137.90	13.42	-41.6	-45.8	11.6	6.46e-03	0	62	0	943718400	53	6330
2026-01-18 22:29:30.82	138.05	13.34	-41.6	-46.2	11.3	4.89e-03	0	62	0	945815552	54	6217
2026-01-18 22:29:31.83	138.19	13.27	-41.9	-46.4	11.0	6.59e-03	0	62	0	946864128	54	6396
2026-01-18 22:29:32.84	138.33	13.20	-42.1	-46.8	10.6	6.06e-03	0	62	0	948961280	54	6686
2026-01-18 22:29:33.84	138.47	13.13	-42.1	-46.9	10.5	6.62e-03	0	62	0	951058432	54	6779
2026-01-18 22:29:34.85	138.62	13.06	-42.2	-46.9	10.5	5.93e-03	0	62	0	953155584	54	6783
2026-01-18 22:29:35.86	138.76	12.99	-42.1	-46.8	10.7	5.53e-03	0	62	0	955252736	54	6710
2026-01-18 22:29:36.87	138.90	12.91	-42.1	-46.9	10.7	5.45e-03	0	62	0	956301312	54	6747
2026-01-18 22:29:37.88	139.04	12.84	-42.1	-46.9	10.6	1.13e-01	0	62	0	958398464	54	6737
2026-01-18 22:29:38.89	139.18	12.77	-42.1	-46.7	10.8	3.26e-03	0	62	0	960495616	54	6611
2026-01-18 22:29:39.90	139.31	12.70	-39.7	-45.9	9.0	2.69e-03	0	62	0	962592768	47	9066
2026-01-18 22:29:40.91	139.45	12.63	-42.0	-46.5	11.0	1.23e-01	0	62	0	964689920	54	6453
2026-01-18 22:29:41.92	139.59	12.56	-42.0	-46.5	11.1	1.60e-03	0	61	0	965738496	54	6432
2026-01-18 22:29:42.93	139.72	12.49	-41.9	-46.4	11.2	1.51e-03	0	62	0	967835648	54	6378
2026-01-18 22:29:43.94	139.86	12.42	-42.0	-46.5	11.0	1.67e-03	0	62	0	969932800	54	6462
2026-01-18 22:29:44.95	139.99	12.35	-41.9	-46.3	11.2	1.40e-03	0	62	0	972029952	54	6313
2026-01-18 22:29:45.96	140.13	12.27	-41.5	-46.5	10.7	1.79e-02	0	62	0	974127104	54	6422
2026-01-18 22:29:46.97	140.26	12.20	-42.0	-46.5	11.0	8.17e-03	0	62	0	975175680	54	6438
2026-01-18 22:29:47.98	140.40	12.13	-42.0	-46.7	10.8	2.55e-03	0	62	0	977272832	54	6622
2026-01-18 22:29:48.99	140.53	12.06	-41.1	-46.5	10.1	3.37e-02	0	62	0	979369984	53	6823
2026-01-18 22:29:50.00	140.66	11.99	-41.9	-46.5	11.1	2.10e-02	0	62	0	981467136	54	6430
2026-01-18 22:29:51.01	140.79	11.92	-42.0	-46.6	10.9	2.47e-03	0	62	0	983564288	54	6505
2026-01-18 22:29:52.02	140.92	11.85	-41.8	-46.2	11.3	3.00e-03	0	62	0	984612864	54	6249
2026-01-18 22:29:53.03	141.05	11.78	-41.8	-46.3	11.2	2.00e-03	0	62	0	986710016	54	6329
2026-01-18 22:29:54.03	141.18	11.71	-41.9	-46.3	11.2	1.59e-03	0	62	0	988807168	54	6326
2026-01-18 22:29:55.04	141.31	11.64	-41.8	-46.1	11.4	9.07e-04	0	62	0	990904320	54	6168
2026-01-18 22:29:56.05	141.44	11.57	-41.9	-46.3	11.1	1.08e-03	0	62	0	993001472	54	6343
2026-01-18 22:29:57.06	141.57	11.50	-41.9	-46.4	11.1	1.96e-03	0	62	0	994050048	54	6374
2026-01-18 22:29:58.07	141.69	11.43	-42.0	-46.7	10.8	2.13e-03	0	62	0	996147200	54	6603
2026-01-18 22:29:59.08	141.82	11.36	-42.1	-47.0	10.5	2.67e-03	0	62	0	998244352	54	6812
2026-01-18 22:30:00.09	141.95	11.29	-42.1	-46.9	10.5	3.62e-03	0	62	0	1000341504	54	6750
2026-01-18 22:30:01.10	142.07	11.22	-42.2	-47.3	10.1	5.48e-03	0	62	0	1002438656	55	6659
2026-01-18 22:30:02.11	142.20	11.15	-42.4	-47.8	9.5	1.03e-02	0	62	0	1003487232	55	7104
2026-01-18 22:30:03.12	142.32	11.08	-42.4	-47.8	9.5	1.30e-02	0	62	0	1005584384	55	7120
2026-01-18 22:30:04.13	142.44	11.01	-42.5	-48.0	9.3	1.87e-02	0	62	0	1007681536	55	7233
2026-01-18 22:30:05.14	142.57	10.94	-42.6	-48.5	8.8	2.78e-02	0	62	0	1009778688	55	7635
2026-01-18 22:30:06.15	142.69	10.87	-42.5	-48.1	9.2	2.33e-02	0	62	0	1011875840	55	7320
2026-01-18 22:30:07.16	142.81	10.80	-42.6	-48.3	8.9	2.64e-02	0	62	0	1012924416	55	7501
2026-01-18 22:30:08.17	142.93	10.73	-42.5	-48.2	9.1	2.95e-02	0	62	0	1015021568	55	7409
2026-01-18 22:30:09.18	143.05	10.67	-42.6	-48.3	9.1	2.18e-02	0	62	0	1017118720	55	7484
2026-01-18 22:30:10.19	143.17	10.60	-42.4	-48.1	9.2	2.82e-02	0	62	0	1019215872	55	7310
2026-01-18 22:30:11.19	143.29	10.53	-42.4	-47.9	9.4	1.66e-02	0	62	0	1021313024	55	7180
2026-01-18 22:30:12.20	143.41	10.46	-42.4	-47.9	9.3	1.92e-02	0	62	0	1022361600	55	7142
2026-01-18 22:30:13.21	143.53	10.39	-42.3	-47.7	9.6	1.23e-02	0	62	0	1024458752	55	6966
2026-01-18 22:30:14.22	143.65	10.32	-42.3	-47.5	9.7	7.76e-03	0	62	0	1026555904	55	6875
2026-01-18 22:30:15.23	143.77	10.25	-42.2	-47.3	10.0	7.89e-03	0	62	0	1028653056	55	6680
2026-01-18 22:30:16.24	143.88	10.18	-42.0	-46.8	10.5	6.06e-03	0	62	0	1030750208	55	6312
2026-01-18 22:30:17.25	144.00	10.12	-42.0	-46.9	10.4	4.00e-03	0	62	0	1032847360	55	6394
2026-01-18 22:30:18.26	144.12	10.05	-42.1	-46.9	10.4	6.51e-03	0	62	0	1033895936	55	6410
2026-01-18 22:30:19.27	144.23	9.98	-42.0	-46.8	10.4	4.44e-03	0	62	0	1035993088	55	6312
2026-01-18 22:30:20.28	144.35	9.91	-42.1	-47.1	10.1	6.36e-03	0	62	0	1038090240	55	6542
2026-01-18 22:30:21.29	144.46	9.84	-42.0	-47.0	10.2	6.20e-03	0	62	0	1040187392	55	6445
2026-01-18 22:30:22.30	144.57	9.78	-41.9	-46.8	10.5	3.89e-03	0	62	0	1041235968	55	6295
2026-01-18 22:30:23.31	144.69	9.71	-41.9	-46.6	10.7	3.75e-03	0	62	0	1043333120	55	6139
2026-01-18 22:30:24.32	144.80	9.64	-41.9	-46.6	10.6	2.86e-03	0	62	0	1045430272	55	6138
2026-01-18 22:30:25.33	144.91	9.57	-41.8	-46.5	10.7	2.67e-03	0	62	0	1047527424	55	6069
2026-01-18 22:30:26.34	145.02	9.50	-41.8	-46.5	10.7	3.59e-03	0	62	0	1049624576	55	6107
2026-01-18 22:30:27.35	145.14	9.44	-41.7	-46.3	10.9	2.08e-03	0	62	0	1050673152	55	5945
2026-01-18 22:30:28.36	145.25	9.37	-41.8	-46.6	10.5	3.05e-03	0	62	0	1052770304	55	6193
2026-01-18 22:30:29.37	145.36	9.30	-41.9	-46.7	10.5	3.53e-03	0	62	0	1054867456	55	6238
2026-01-18 22:30:30.37	145.47	9.23	-41.9	-46.7	10.5	3.12e-03	0	62	0	1056964608	55	6213
2026-01-18 22:30:31.38	145.58	9.17	-41.9	-46.8	10.4	5.16e-03	0	62	0	1059061760	55	6295
2026-01-18 22:30:32.39	145.68	9.10	-42.0	-47.1	10.0	5.62e-03	0	62	0	1061158912	55	6531
2026-01-18 22:30:33.40	145.79	9.03	-42.1	-47.3	9.7	9.22e-03	0	62	0	1062207488	55	6697
2026-01-18 22:30:34.41	145.90	8.97	-42.0	-47.3	9.7	1.26e-02	0	62	0	1064304640	55	6678
2026-01-18 22:30:35.42	146.01	8.90	-42.1	-47.5	9.5	1.53e-02	0	62	0	1066401792	55	6821
2026-01-18 22:30:36.43	146.12	8.83	-42.2	-47.9	9.0	2.25e-02	0	62	0	1068498944	55	7192
2026-01-18 22:30:37.44	146.22	8.77	-42.2	-47.7	9.2	2.91e-02	0	62	0	1070596096	55	7012
2026-01-18 22:30:38.45	146.33	8.70	-42.3	-48.1	8.8	2.13e-02	0	62	0	1071644672	55	7338
2026-01-18 22:30:39.46	146.43	8.63	-42.2	-48.0	8.9	2.79e-02	0	62	0	1073741824	55	7263
2026-01-18 22:30:40.47	146.54	8.57	-42.1	-47.7	9.2	1.96e-02	0	62	0	1075838976	55	6993
2026-01-18 22:30:41.48	146.64	8.50	-42.2	-48.0	8.9	2.36e-02	0	62	0	1077936128	55	7237
2026-01-18 22:30:42.49	146.75	8.43	-42.1	-47.8	9.1	2.94e-02	0	62	0	1080033280	55	7059
2026-01-18 22:30:43.50	146.85	8.37	-42.0	-47.5	9.4	1.77e-02	0	62	0	1081081856	55	6849
2026-01-18 22:30:44.51	146.96	8.30	-42.0	-47.3	9.6	1.66e-02	0	62	0	1083179008	55	6686
2026-01-18 22:30:45.52	147.06	8.24	-41.9	-47.1	9.8	1.24e-02	0	62	0	1085276160	55	6501
2026-01-18 22:30:46.53	147.16	8.17	-41.9	-47.1	9.8	9.55e-03	0	62	0	1087373312	55	6510
2026-01-18 22:30:47.54	147.26	8.10	-42.0	-47.5	9.3	2.17e-02	0	62	0	1089470464	55	6811
2026-01-18 22:30:48.55	147.36	8.04	-41.9	-47.4	9.4	1.46e-02	0	62	0	1090519040	55	6754
2026-01-18 22:30:49.56	147.47	7.97	-43.4	-52.8	5.4	5.37e-02	0	62	0	1092616192	57	11197
2026-01-18 22:30:50.57	147.57	7.91	-44.5	-58.7	3.8	1.49e+00	0	62	104	1092616192	59	19757
2026-01-18 22:30:51.58	147.67	7.84	-44.8	-59.5	3.8	1.49e+00	0	62	104	1092616192	60	20367
2026-01-18 22:30:52.59	147.77	7.78	-45.1	-59.9	3.8	1.49e+00	0	62	104	1092616192	60	21461
2026-01-18 22:30:53.60	147.87	7.71	-45.3	-60.1	3.8	1.49e+00	0	62	104	1092616192	61	20628
2026-01-18 22:30:54.61	147.96	7.65	-45.5	-60.2	3.8	1.49e+00	0	61	104	1092616192	61	20982
2026-01-18 22:30:55.62	148.06	7.58	-45.6	-60.3	3.8	1.49e+00	0	62	104	1092616192	61	21219
2026-01-18 22:30:56.63	148.16	7.52	-45.6	-60.4	3.8	1.49e+00	0	62	104	1092616192	61	21348
2026-01-18 22:30:57.64	148.26	7.45	-45.6	-60.4	3.8	1.49e+00	0	62	104	1092616192	61	21374
2026-01-18 22:30:58.65	148.36	7.39	-45.6	-60.4	3.8	1.49e+00	0	62	104	1092616192	61	21373
2026-01-18 22:30:59.66	148.45	7.32	-45.6	-60.3	3.8	1.49e+00	0	62	104	1092616192	61	21107
2026-01-18 22:31:00.67	148.55	7.26	-45.5	-60.2	3.8	1.49e+00	0	62	104	1092616192	61	20779
2026-01-18 22:31:01.69	148.65	7.19	-45.5	-60.0	3.8	1.49e+00	0	62	104	1092616192	61	20528
2026-01-18 22:31:02.70	148.74	7.13	-45.5	-60.1	3.8	1.49e+00	0	62	104	1092616192	61	20562
2026-01-18 22:31:03.71	148.84	7.07	-45.4	-59.9	3.8	1.49e+00	0	62	104	1092616192	61	20266
2026-01-18 22:31:04.72	148.93	7.00	-45.3	-59.9	3.8	1.49e+00	0	62	104	1092616192	61	20179
2026-01-18 22:31:05.73	149.03	6.94	-45.3	-59.9	3.8	1.49e+00	0	62	104	1092616192	61	20178
2026-01-18 22:31:06.74	149.12	6.87	-45.3	-59.9	3.8	1.49e+00	0	62	104	1092616192	61	20088
2026-01-18 22:31:07.75	149.21	6.81	-45.3	-59.9	3.8	1.49e+00	0	62	104	1092616192	61	20145
2026-01-18 22:31:08.76	149.31	6.75	-45.3	-59.9	3.8	1.49e+00	0	62	104	1092616192	61	20204
2026-01-18 22:31:09.77	149.40	6.68	-45.3	-59.9	3.8	1.49e+00	0	62	104	1092616192	61	20137
