passes_logs/2026/01/18/R2.0S_Moscow/R2.0S_Moscow__20260118_235931_SUOMI_NPP_rec.log

#Pass ID: 20260118_235931_SUOMI NPP
#Satellite: SUOMI NPP
#Configuration: NPP
#almurnet v.1.7.20251203
#Start time: 2026-01-18 23:59:32

#Version: 2.2.20231116
#Station: R2.0S_Moscow
#Location: 37.707566 lon 55.798166 lat
#TLE: 1 37849U 11061A   26017.92342359  .00000077  00000+0  57567-4 0  9990
#TLE: 2 37849  98.7814 319.9468 0002389  58.5705 301.5704 14.19525998737125

#Time	Az	El	Level	Level2	SNR	BER	BlckErr	Temp	State	Recorded	gain1	gain2
2026-01-18 23:59:32.48	15.15	2.06	-43.1	-57.8	3.8	1.49e+00	0	53	0	0	58	18753
2026-01-18 23:59:33.50	15.14	2.13	-43.1	-57.8	3.8	1.49e+00	0	53	104	0	58	18762
2026-01-18 23:59:34.51	15.14	2.19	-43.1	-57.8	3.8	1.49e+00	0	53	104	0	58	18747
2026-01-18 23:59:35.52	15.13	2.26	-43.1	-57.7	3.8	1.49e+00	0	53	104	0	58	18720
2026-01-18 23:59:36.53	15.12	2.32	-43.1	-57.8	3.8	1.49e+00	0	53	104	0	58	18769
2026-01-18 23:59:37.54	15.12	2.39	-43.1	-57.8	3.8	1.49e+00	0	53	104	0	58	18743
2026-01-18 23:59:38.55	15.11	2.45	-43.1	-57.8	3.8	1.49e+00	0	53	104	0	58	18752
2026-01-18 23:59:39.56	15.10	2.52	-43.1	-57.8	3.8	1.49e+00	0	53	104	0	58	18734
2026-01-18 23:59:40.57	15.10	2.58	-43.1	-57.7	3.8	1.49e+00	0	54	104	0	58	18695
2026-01-18 23:59:41.58	15.09	2.65	-43.1	-57.8	3.8	1.49e+00	0	54	104	0	58	18757
2026-01-18 23:59:42.59	15.08	2.71	-43.1	-57.7	3.8	1.49e+00	0	54	104	0	58	18679
2026-01-18 23:59:43.60	15.07	2.78	-43.1	-57.8	3.8	1.49e+00	0	54	104	0	58	18747
2026-01-18 23:59:44.61	15.07	2.85	-43.1	-57.8	3.8	1.49e+00	0	53	104	0	58	18740
2026-01-18 23:59:45.62	15.06	2.91	-43.1	-57.8	3.8	1.49e+00	0	54	104	0	58	18767
2026-01-18 23:59:46.63	15.05	2.98	-43.1	-57.7	3.8	1.49e+00	0	54	104	0	58	18698
2026-01-18 23:59:47.65	15.04	3.05	-43.1	-57.7	3.8	1.49e+00	0	54	104	0	58	18693
2026-01-18 23:59:48.66	15.04	3.11	-43.1	-57.8	3.8	1.49e+00	0	54	104	0	58	18773
2026-01-18 23:59:49.67	15.03	3.18	-43.1	-57.7	3.8	1.49e+00	0	54	104	0	58	18703
2026-01-18 23:59:50.68	15.02	3.25	-43.1	-57.8	3.8	1.49e+00	0	54	104	0	58	18781
2026-01-18 23:59:51.69	15.01	3.32	-43.1	-57.7	3.8	1.49e+00	0	54	104	0	58	18729
2026-01-18 23:59:52.70	15.00	3.38	-43.1	-57.8	3.8	1.49e+00	0	54	104	0	58	18777
2026-01-18 23:59:53.71	15.00	3.45	-43.1	-57.7	3.8	1.49e+00	0	54	104	0	58	18677
2026-01-18 23:59:54.72	14.99	3.52	-43.1	-57.7	3.8	1.49e+00	0	54	104	0	58	18715
2026-01-18 23:59:55.73	14.98	3.59	-43.1	-57.7	3.8	1.49e+00	0	54	104	0	58	18717
2026-01-18 23:59:56.74	14.97	3.65	-43.1	-57.7	3.8	1.49e+00	0	55	104	0	58	18671
2026-01-18 23:59:57.75	14.96	3.72	-43.1	-57.7	3.8	1.49e+00	0	55	104	0	58	18694
2026-01-18 23:59:58.76	14.96	3.79	-43.1	-57.7	3.8	1.49e+00	0	54	104	0	58	18721
2026-01-18 23:59:59.77	14.95	3.86	-43.1	-57.7	3.8	1.49e+00	0	55	104	0	58	18720
2026-01-19 00:00:00.78	14.94	3.93	-43.1	-57.7	3.8	1.49e+00	0	55	104	0	58	18690
2026-01-19 00:00:01.80	14.93	4.00	-43.1	-57.7	3.8	1.49e+00	0	55	104	0	58	18657
2026-01-19 00:00:02.81	14.92	4.07	-43.1	-57.7	3.8	1.49e+00	0	55	104	0	58	18621
2026-01-19 00:00:03.81	14.91	4.14	-43.1	-57.8	3.8	1.49e+00	0	55	104	0	58	18758
2026-01-19 00:00:04.83	14.91	4.21	-43.1	-57.8	3.8	1.49e+00	0	55	104	0	58	18752
2026-01-19 00:00:05.84	14.90	4.28	-43.1	-57.8	3.8	1.49e+00	0	55	104	0	58	18733
2026-01-19 00:00:06.85	14.89	4.35	-43.1	-57.7	3.8	1.49e+00	0	55	104	0	58	18710
2026-01-19 00:00:07.86	14.88	4.42	-43.1	-57.7	3.8	1.49e+00	0	55	104	0	58	18723
2026-01-19 00:00:08.87	14.87	4.49	-43.1	-57.7	3.8	1.49e+00	0	55	104	0	58	18714
2026-01-19 00:00:09.88	14.86	4.56	-43.1	-57.7	3.8	1.49e+00	0	55	104	0	58	18703
2026-01-19 00:00:10.89	14.85	4.63	-43.1	-57.7	3.8	1.49e+00	0	55	104	0	58	18694
2026-01-19 00:00:11.90	14.84	4.70	-43.1	-57.7	3.8	1.49e+00	0	55	104	0	58	18656
2026-01-19 00:00:12.91	14.83	4.77	-43.1	-57.7	3.8	1.49e+00	0	56	104	0	58	18682
2026-01-19 00:00:13.92	14.83	4.84	-43.1	-57.7	3.8	1.49e+00	0	55	104	0	58	18707
2026-01-19 00:00:14.93	14.82	4.91	-43.1	-57.7	3.8	1.49e+00	0	55	104	0	58	18702
2026-01-19 00:00:15.94	14.81	4.98	-43.1	-57.7	3.8	1.49e+00	0	56	104	0	58	18626
2026-01-19 00:00:16.95	14.80	5.06	-43.1	-57.7	3.8	1.49e+00	0	56	104	0	58	18685
2026-01-19 00:00:17.96	14.79	5.13	-43.1	-57.7	3.8	1.49e+00	0	56	104	0	58	18653
2026-01-19 00:00:18.97	14.78	5.20	-43.1	-57.7	3.8	1.49e+00	0	56	104	0	58	18622
2026-01-19 00:00:19.98	14.77	5.27	-43.1	-57.6	3.8	1.49e+00	0	56	104	0	58	18472
2026-01-19 00:00:20.99	14.76	5.34	-43.1	-57.7	3.8	1.49e+00	0	56	104	0	58	18563
2026-01-19 00:00:22.01	14.75	5.42	-43.1	-57.7	3.8	1.49e+00	0	56	104	0	58	18619
2026-01-19 00:00:23.02	14.74	5.49	-43.1	-57.6	3.8	1.49e+00	0	56	104	0	58	18472
2026-01-19 00:00:24.03	14.73	5.56	-43.1	-57.6	3.8	1.49e+00	0	56	104	0	58	18317
2026-01-19 00:00:25.04	14.72	5.64	-43.1	-57.5	3.8	1.49e+00	0	56	104	0	58	18300
2026-01-19 00:00:26.05	14.71	5.71	-43.1	-57.6	3.8	1.49e+00	0	56	104	0	58	18473
2026-01-19 00:00:27.06	14.70	5.78	-43.1	-57.7	3.8	1.49e+00	0	56	104	0	58	18520
2026-01-19 00:00:28.07	14.69	5.86	-43.1	-57.6	3.8	1.49e+00	0	56	104	0	58	18430
2026-01-19 00:00:29.08	14.68	5.93	-43.1	-57.5	3.8	1.49e+00	0	56	104	0	58	18284
2026-01-19 00:00:30.09	14.67	6.01	-43.1	-57.5	3.8	1.49e+00	0	56	104	0	58	18209
2026-01-19 00:00:31.10	14.66	6.08	-43.1	-57.5	3.8	1.49e+00	0	56	104	0	58	18251
2026-01-19 00:00:32.11	14.65	6.16	-43.1	-57.6	3.8	1.49e+00	0	56	104	0	58	18416
2026-01-19 00:00:33.12	14.64	6.23	-43.1	-57.7	3.8	1.49e+00	0	56	104	0	58	18682
2026-01-19 00:00:34.13	14.63	6.31	-43.1	-57.7	3.8	1.49e+00	0	57	104	0	58	18726
2026-01-19 00:00:35.14	14.62	6.38	-43.1	-57.7	3.8	1.49e+00	0	57	104	0	58	18634
2026-01-19 00:00:36.15	14.61	6.46	-43.1	-57.5	3.8	1.49e+00	0	56	104	0	58	18196
2026-01-19 00:00:37.16	14.60	6.53	-43.1	-57.3	3.8	1.49e+00	0	57	104	0	58	17777
2026-01-19 00:00:38.17	14.58	6.61	-43.1	-57.0	3.8	1.49e+00	0	57	104	0	58	17201
2026-01-19 00:00:39.18	14.57	6.69	-43.0	-56.7	3.8	1.49e+00	0	57	104	0	58	16528
2026-01-19 00:00:40.19	14.56	6.76	-43.0	-56.3	3.8	1.49e+00	0	57	104	0	58	15872
2026-01-19 00:00:41.20	14.55	6.84	-43.0	-55.8	3.8	1.49e+00	0	57	104	0	58	15030
2026-01-19 00:00:42.21	14.54	6.92	-42.9	-55.1	3.8	1.49e+00	0	57	104	0	57	14690
2026-01-19 00:00:43.22	14.53	6.99	-42.9	-54.4	4.1	1.44e+00	0	57	0	0	57	13429
2026-01-19 00:00:44.23	14.52	7.07	-42.8	-53.2	4.5	1.33e+00	0	57	0	0	57	11691
2026-01-19 00:00:45.24	14.51	7.15	-42.6	-51.9	5.1	7.44e-01	0	57	0	2097152	57	10125
2026-01-19 00:00:46.25	14.49	7.23	-42.4	-50.6	6.0	4.63e-01	0	57	0	4194304	56	9260
2026-01-19 00:00:47.26	14.48	7.31	-42.3	-49.9	6.6	2.73e-01	0	57	0	6291456	56	8473
2026-01-19 00:00:48.27	14.47	7.38	-42.1	-49.1	7.3	1.47e-01	0	57	0	8388608	56	7755
2026-01-19 00:00:49.28	14.46	7.46	-42.1	-49.0	7.4	1.10e-01	0	57	0	9437184	56	7667
2026-01-19 00:00:50.29	14.45	7.54	-42.2	-49.5	6.9	1.45e-01	0	57	0	11534336	56	8176
2026-01-19 00:00:51.30	14.44	7.62	-42.3	-49.9	6.6	2.10e-01	0	57	0	13631488	56	8468
2026-01-19 00:00:52.31	14.42	7.70	-42.3	-49.8	6.7	2.18e-01	0	57	0	15728640	56	8454
2026-01-19 00:00:53.33	14.41	7.78	-42.1	-49.3	7.1	1.65e-01	0	57	0	17825792	56	7935
2026-01-19 00:00:54.34	14.40	7.86	-42.2	-49.3	7.1	1.32e-01	0	57	0	19922944	56	7977
2026-01-19 00:00:55.35	14.39	7.94	-42.3	-50.0	6.5	1.94e-01	0	57	0	20971520	56	8642
2026-01-19 00:00:56.36	14.37	8.02	-42.4	-50.7	6.0	2.96e-01	0	57	0	23068672	56	9335
2026-01-19 00:00:57.37	14.36	8.10	-42.5	-50.8	5.9	3.46e-01	0	57	0	25165824	56	9449
2026-01-19 00:00:58.38	14.35	8.18	-42.8	-51.9	5.2	1.21e+00	0	57	0	27262976	56	10761
2026-01-19 00:00:59.39	14.34	8.26	-42.4	-49.2	7.5	2.80e-01	0	58	0	28311552	56	7868
2026-01-19 00:01:00.40	14.32	8.34	-42.9	-57.0	3.8	1.36e+00	0	57	104	29360128	56	19308
2026-01-19 00:01:01.41	14.31	8.43	-42.6	-50.3	6.2	1.23e+00	0	58	0	29360128	57	8439
2026-01-19 00:01:02.42	14.30	8.51	-42.5	-49.8	6.8	2.75e-01	0	57	0	31457280	56	8461
2026-01-19 00:01:03.43	14.28	8.59	-42.3	-48.8	7.9	8.31e-02	0	58	0	33554432	56	7522
2026-01-19 00:01:04.44	14.27	8.67	-42.3	-48.7	8.0	7.10e-02	0	58	0	34603008	56	7409
2026-01-19 00:01:05.45	14.26	8.76	-42.3	-48.8	8.0	6.65e-02	0	58	0	36700160	56	7483
2026-01-19 00:01:06.45	14.24	8.84	-42.3	-48.7	8.1	7.75e-02	0	58	0	38797312	56	7426
2026-01-19 00:01:07.46	14.23	8.92	-42.3	-48.6	8.1	6.52e-02	0	58	0	40894464	56	7370
2026-01-19 00:01:08.47	14.22	9.01	-42.4	-48.8	8.0	6.80e-02	0	58	0	42991616	56	7484
2026-01-19 00:01:09.48	14.20	9.09	-42.4	-48.8	8.0	6.12e-02	0	58	0	44040192	56	7492
2026-01-19 00:01:10.49	14.19	9.17	-42.4	-48.8	8.0	7.31e-02	0	58	0	46137344	56	7500
2026-01-19 00:01:11.50	14.18	9.26	-42.4	-48.8	8.1	5.85e-02	0	58	0	48234496	56	7462
2026-01-19 00:01:12.51	14.16	9.34	-42.4	-48.6	8.2	6.07e-02	0	58	0	50331648	56	7354
2026-01-19 00:01:13.52	14.15	9.43	-42.3	-48.5	8.4	4.83e-02	0	58	0	52428800	56	7221
2026-01-19 00:01:14.53	14.13	9.51	-42.3	-48.5	8.4	4.87e-02	0	58	0	53477376	56	7214
2026-01-19 00:01:15.54	14.12	9.60	-42.3	-48.4	8.4	4.80e-02	0	58	0	55574528	56	7202
2026-01-19 00:01:16.54	14.11	9.68	-42.4	-48.5	8.4	4.42e-02	0	58	0	57671680	56	7251
2026-01-19 00:01:17.55	14.09	9.77	-42.3	-48.4	8.5	4.30e-02	0	58	0	59768832	56	7164
2026-01-19 00:01:18.57	14.08	9.86	-42.3	-48.4	8.5	4.67e-02	0	58	0	61865984	56	7156
2026-01-19 00:01:19.57	14.06	9.94	-42.4	-48.5	8.5	4.98e-02	0	58	0	62914560	56	7254
2026-01-19 00:01:20.58	14.05	10.03	-42.3	-48.3	8.6	3.70e-02	0	58	0	65011712	56	7094
2026-01-19 00:01:21.59	14.03	10.12	-42.3	-48.2	8.7	3.57e-02	0	58	0	67108864	56	7019
2026-01-19 00:01:22.60	14.02	10.20	-42.3	-48.1	8.8	3.20e-02	0	58	0	69206016	56	6958
2026-01-19 00:01:23.61	14.00	10.29	-42.4	-48.2	8.8	2.98e-02	0	58	0	71303168	56	6988
2026-01-19 00:01:24.62	13.99	10.38	-42.4	-48.2	8.9	2.60e-02	0	58	0	72351744	56	7009
2026-01-19 00:01:25.63	13.97	10.47	-42.4	-48.2	8.9	2.65e-02	0	58	0	74448896	56	6967
2026-01-19 00:01:26.64	13.95	10.56	-42.4	-48.1	8.9	2.94e-02	0	58	0	76546048	56	6953
2026-01-19 00:01:27.65	13.94	10.65	-42.4	-48.3	8.8	3.01e-02	0	58	0	78643200	56	7087
2026-01-19 00:01:28.66	13.92	10.74	-42.3	-48.0	9.1	2.50e-02	0	58	0	80740352	56	6838
2026-01-19 00:01:29.67	13.91	10.83	-42.4	-48.1	9.0	2.39e-02	0	59	0	81788928	56	6913
2026-01-19 00:01:30.68	13.89	10.92	-42.4	-48.0	9.1	2.40e-02	0	59	0	83886080	56	6832
2026-01-19 00:01:31.69	13.87	11.01	-42.4	-48.1	9.1	2.39e-02	0	59	0	85983232	56	6913
2026-01-19 00:01:32.70	13.86	11.10	-42.3	-48.0	9.2	2.47e-02	0	59	0	88080384	56	6812
2026-01-19 00:01:33.71	13.84	11.19	-42.4	-48.0	9.1	2.08e-02	0	59	0	90177536	56	6869
2026-01-19 00:01:34.71	13.83	11.28	-42.3	-47.9	9.3	2.41e-02	0	59	0	92274688	56	6778
2026-01-19 00:01:35.72	13.81	11.37	-42.3	-47.9	9.3	1.94e-02	0	59	0	93323264	56	6756
2026-01-19 00:01:36.73	13.79	11.47	-42.4	-48.0	9.1	2.08e-02	0	59	0	95420416	56	6877
2026-01-19 00:01:37.74	13.77	11.56	-42.4	-47.9	9.2	1.88e-02	0	59	0	97517568	56	6798
2026-01-19 00:01:38.75	13.76	11.65	-42.3	-47.8	9.4	1.92e-02	0	59	0	99614720	56	6686
2026-01-19 00:01:39.76	13.74	11.74	-42.4	-47.9	9.3	1.82e-02	0	59	0	101711872	56	6767
2026-01-19 00:01:40.77	13.72	11.84	-42.4	-47.9	9.3	1.57e-02	0	59	0	102760448	56	6785
2026-01-19 00:01:41.78	13.71	11.93	-42.3	-47.7	9.5	1.35e-02	0	59	0	104857600	56	6583
2026-01-19 00:01:42.79	13.69	12.03	-42.3	-47.6	9.6	1.46e-02	0	59	0	106954752	56	6563
2026-01-19 00:01:43.80	13.67	12.12	-42.3	-47.6	9.6	1.32e-02	0	59	0	109051904	56	6535
2026-01-19 00:01:44.81	13.65	12.22	-42.2	-47.4	9.8	1.18e-02	0	59	0	111149056	56	6420
2026-01-19 00:01:45.82	13.63	12.31	-42.2	-47.5	9.7	1.06e-02	0	59	0	112197632	56	6445
2026-01-19 00:01:46.83	13.62	12.41	-42.2	-47.5	9.7	1.01e-02	0	59	0	114294784	56	6475
2026-01-19 00:01:47.84	13.60	12.50	-42.2	-47.5	9.8	1.15e-02	0	59	0	116391936	56	6423
2026-01-19 00:01:48.85	13.58	12.60	-42.3	-47.5	9.9	9.02e-03	0	59	0	118489088	56	6458
2026-01-19 00:01:49.86	13.56	12.70	-42.3	-47.6	9.8	8.70e-03	0	59	0	120586240	56	6508
2026-01-19 00:01:50.86	13.54	12.79	-42.3	-47.4	9.9	8.70e-03	0	59	0	121634816	56	6406
2026-01-19 00:01:51.87	13.52	12.89	-42.3	-47.3	10.1	8.69e-03	0	59	0	123731968	56	6319
2026-01-19 00:01:52.88	13.50	12.99	-42.3	-47.4	10.1	6.46e-03	0	59	0	125829120	56	6351
2026-01-19 00:01:53.89	13.48	13.09	-42.3	-47.4	10.1	6.51e-03	0	59	0	127926272	56	6349
2026-01-19 00:01:54.90	13.47	13.19	-42.2	-47.1	10.3	5.53e-03	0	59	0	130023424	56	6198
2026-01-19 00:01:55.91	13.45	13.29	-42.3	-47.3	10.1	5.76e-03	0	59	0	131072000	56	6328
2026-01-19 00:01:56.92	13.43	13.39	-42.4	-47.5	10.1	6.55e-03	0	59	0	133169152	56	6423
2026-01-19 00:01:57.93	13.41	13.49	-42.3	-47.3	10.2	5.51e-03	0	59	0	135266304	56	6305
2026-01-19 00:01:58.94	13.39	13.59	-42.3	-47.3	10.3	6.01e-03	0	59	0	137363456	56	6279
2026-01-19 00:01:59.95	13.37	13.69	-42.3	-47.2	10.3	5.76e-03	0	59	0	139460608	56	6240
2026-01-19 00:02:00.96	13.35	13.79	-42.4	-47.3	10.2	6.08e-03	0	59	0	140509184	56	6327
2026-01-19 00:02:01.97	13.32	13.89	-42.4	-47.4	10.2	5.66e-03	0	59	0	142606336	56	6358
2026-01-19 00:02:02.98	13.30	13.99	-42.3	-47.2	10.4	3.94e-03	0	59	0	144703488	56	6222
2026-01-19 00:02:03.99	13.28	14.10	-42.3	-47.1	10.5	4.99e-03	0	59	0	146800640	56	6178
2026-01-19 00:02:05.00	13.26	14.20	-42.3	-47.2	10.4	4.64e-03	0	59	0	148897792	56	6244
2026-01-19 00:02:06.01	13.24	14.30	-42.3	-47.1	10.5	3.79e-03	0	59	0	149946368	56	6196
2026-01-19 00:02:07.02	13.22	14.41	-42.3	-47.0	10.6	3.28e-03	0	59	0	152043520	56	6094
2026-01-19 00:02:08.03	13.20	14.51	-42.2	-46.8	10.8	3.48e-03	0	59	0	154140672	56	5947
2026-01-19 00:02:09.03	13.18	14.62	-42.3	-47.0	10.7	2.96e-03	0	59	0	156237824	56	6089
2026-01-19 00:02:10.04	13.15	14.72	-42.3	-47.0	10.7	2.84e-03	0	59	0	158334976	56	6105
2026-01-19 00:02:11.05	13.13	14.83	-42.3	-47.0	10.7	2.36e-03	0	59	0	160432128	56	6074
2026-01-19 00:02:12.06	13.11	14.93	-42.2	-46.8	10.9	2.07e-03	0	60	0	161480704	56	5964
2026-01-19 00:02:13.07	13.09	15.04	-42.2	-46.7	11.0	2.10e-03	0	59	0	163577856	56	5883
2026-01-19 00:02:14.08	13.06	15.15	-42.2	-46.6	11.1	1.69e-03	0	59	0	165675008	56	5855
2026-01-19 00:02:15.09	13.04	15.25	-42.2	-46.7	11.1	1.48e-03	0	59	0	167772160	56	5859
2026-01-19 00:02:16.10	13.02	15.36	-42.1	-46.5	11.3	1.25e-03	0	60	0	169869312	56	5769
2026-01-19 00:02:17.11	12.99	15.47	-42.1	-46.5	11.3	1.21e-03	0	60	0	170917888	56	5782
2026-01-19 00:02:18.12	12.97	15.58	-42.1	-46.5	11.3	1.05e-03	0	59	0	173015040	56	5731
2026-01-19 00:02:19.13	12.95	15.69	-42.1	-46.4	11.5	8.19e-04	0	59	0	175112192	56	5703
2026-01-19 00:02:20.14	12.92	15.80	-42.1	-46.3	11.5	8.15e-04	0	59	0	177209344	56	5656
2026-01-19 00:02:21.15	12.90	15.91	-42.0	-46.2	11.7	6.99e-04	0	59	0	179306496	56	5539
2026-01-19 00:02:22.16	12.87	16.02	-42.0	-46.2	11.7	6.14e-04	0	59	0	180355072	56	5557
2026-01-19 00:02:23.16	12.85	16.13	-42.1	-46.2	11.6	5.23e-04	0	60	0	182452224	56	5577
2026-01-19 00:02:24.18	12.83	16.24	-41.8	-45.8	12.0	4.67e-04	0	59	0	184549376	55	5633
2026-01-19 00:02:25.19	12.80	16.36	-41.9	-45.9	11.9	4.32e-04	0	59	0	186646528	55	5696
2026-01-19 00:02:26.20	12.78	16.47	-41.9	-46.0	11.8	4.54e-04	0	59	0	188743680	55	5733
2026-01-19 00:02:27.20	12.75	16.58	-41.8	-45.7	12.0	3.30e-04	0	60	0	189792256	55	5590
2026-01-19 00:02:28.21	12.72	16.70	-41.9	-45.8	12.0	3.62e-04	0	60	0	191889408	55	5647
2026-01-19 00:02:29.22	12.70	16.81	-41.8	-45.7	12.1	3.03e-04	0	60	0	193986560	55	5559
2026-01-19 00:02:30.24	12.67	16.93	-41.8	-45.7	12.1	3.13e-04	0	60	0	196083712	55	5568
2026-01-19 00:02:31.24	12.65	17.04	-41.8	-45.6	12.3	2.27e-04	0	60	0	198180864	55	5501
2026-01-19 00:02:32.26	12.62	17.16	-41.7	-45.5	12.3	1.94e-04	0	60	0	199229440	55	5464
2026-01-19 00:02:33.26	12.59	17.28	-41.8	-45.7	12.2	1.88e-04	0	60	0	201326592	55	5555
2026-01-19 00:02:34.27	12.57	17.39	-41.9	-45.8	12.0	2.35e-04	0	60	0	203423744	55	5640
2026-01-19 00:02:35.28	12.54	17.51	-41.8	-45.7	12.2	2.75e-04	0	60	0	205520896	55	5583
2026-01-19 00:02:36.29	12.51	17.63	-41.9	-45.8	12.1	2.43e-04	0	60	0	207618048	55	5612
2026-01-19 00:02:37.31	12.48	17.75	-41.7	-45.5	12.4	2.20e-04	0	60	0	208666624	55	5451
2026-01-19 00:02:38.31	12.46	17.87	-41.8	-45.6	12.3	1.94e-04	0	60	0	210763776	55	5501
2026-01-19 00:02:39.32	12.43	17.99	-41.8	-45.7	12.2	1.82e-04	0	60	0	212860928	55	5567
2026-01-19 00:02:40.33	12.40	18.11	-41.8	-45.6	12.3	1.97e-04	0	60	0	214958080	55	5522
2026-01-19 00:02:41.34	12.37	18.23	-41.8	-45.6	12.3	1.69e-04	0	60	0	217055232	55	5503
2026-01-19 00:02:42.35	12.34	18.35	-41.8	-45.6	12.4	1.56e-04	0	60	0	218103808	55	5480
2026-01-19 00:02:43.36	12.31	18.47	-41.8	-45.6	12.4	1.40e-04	0	60	0	220200960	55	5478
2026-01-19 00:02:44.37	12.28	18.60	-41.8	-45.5	12.4	1.52e-04	0	60	0	222298112	55	5460
2026-01-19 00:02:45.38	12.25	18.72	-41.7	-45.4	12.6	1.27e-04	0	60	0	224395264	55	5390
2026-01-19 00:02:46.39	12.22	18.85	-41.8	-45.5	12.5	1.16e-04	0	60	0	226492416	55	5459
2026-01-19 00:02:47.40	12.19	18.97	-41.8	-45.7	12.4	1.27e-04	0	60	0	228589568	55	5533
2026-01-19 00:02:48.41	12.16	19.10	-41.8	-45.5	12.4	1.07e-04	0	60	0	229638144	55	5461
2026-01-19 00:02:49.42	12.13	19.22	-41.8	-45.5	12.5	1.23e-04	0	60	0	231735296	55	5450
2026-01-19 00:02:50.43	12.10	19.35	-41.8	-45.5	12.5	1.34e-04	0	60	0	233832448	55	5443
2026-01-19 00:02:51.44	12.07	19.48	-41.8	-45.6	12.4	1.39e-04	0	60	0	235929600	55	5491
2026-01-19 00:02:52.44	12.03	19.60	-42.0	-45.9	12.2	1.73e-04	0	60	0	238026752	55	5661
2026-01-19 00:02:53.45	12.00	19.73	-41.8	-45.6	12.5	1.66e-04	0	60	0	239075328	55	5497
2026-01-19 00:02:54.46	11.97	19.86	-41.9	-45.8	12.2	2.23e-04	0	60	0	241172480	55	5641
2026-01-19 00:02:55.47	11.94	19.99	-42.0	-46.0	12.1	1.94e-04	0	60	0	243269632	55	5724
2026-01-19 00:02:56.48	11.90	20.12	-42.1	-46.1	11.9	2.23e-04	0	60	0	245366784	55	5811
2026-01-19 00:02:57.49	11.87	20.26	-42.1	-46.1	12.0	2.74e-04	0	60	0	247463936	55	5818
2026-01-19 00:02:58.50	11.84	20.39	-42.0	-45.9	12.1	3.15e-04	0	60	0	248512512	55	5717
2026-01-19 00:02:59.51	11.80	20.52	-42.1	-46.1	11.9	3.55e-04	0	60	0	250609664	55	5797
2026-01-19 00:03:00.52	11.77	20.65	-42.1	-46.2	11.9	3.38e-04	0	60	0	252706816	55	5867
2026-01-19 00:03:01.53	11.73	20.79	-42.1	-46.1	12.0	2.87e-04	0	60	0	254803968	55	5795
2026-01-19 00:03:02.54	11.70	20.92	-42.1	-46.2	11.9	3.87e-04	0	60	0	256901120	55	5873
2026-01-19 00:03:03.55	11.66	21.06	-42.1	-46.2	11.9	4.06e-04	0	60	0	257949696	55	5864
2026-01-19 00:03:04.56	11.63	21.20	-42.1	-46.1	12.0	4.68e-04	0	60	0	260046848	55	5822
2026-01-19 00:03:05.57	11.59	21.33	-42.1	-46.1	12.0	4.51e-04	0	60	0	262144000	55	5826
2026-01-19 00:03:06.58	11.55	21.47	-42.0	-45.9	12.2	4.18e-04	0	60	0	264241152	55	5672
2026-01-19 00:03:07.59	11.52	21.61	-42.1	-46.0	12.0	3.15e-04	0	60	0	266338304	55	5782
2026-01-19 00:03:08.60	11.48	21.75	-42.0	-45.8	12.2	2.67e-04	0	60	0	267386880	55	5650
2026-01-19 00:03:09.61	11.44	21.89	-42.0	-45.9	12.2	2.15e-04	0	60	0	269484032	55	5686
2026-01-19 00:03:10.61	11.41	22.03	-42.1	-46.0	12.1	2.01e-04	0	60	0	271581184	55	5757
2026-01-19 00:03:11.62	11.37	22.17	-42.0	-45.8	12.2	1.61e-04	0	60	0	273678336	55	5652
2026-01-19 00:03:12.63	11.33	22.31	-41.9	-45.5	12.6	1.29e-04	0	60	0	275775488	55	5463
2026-01-19 00:03:13.64	11.29	22.46	-41.9	-45.6	12.5	1.08e-04	0	61	0	276824064	55	5515
2026-01-19 00:03:14.65	11.25	22.60	-41.8	-45.4	12.7	1.27e-04	0	60	0	278921216	55	5368
2026-01-19 00:03:15.66	11.21	22.75	-41.8	-45.3	12.8	7.24e-05	0	60	0	281018368	55	5329
2026-01-19 00:03:16.67	11.17	22.89	-41.7	-45.3	12.9	6.71e-05	0	60	0	283115520	55	5280
2026-01-19 00:03:17.68	11.13	23.04	-41.7	-45.1	13.0	2.67e-05	0	60	0	285212672	55	5215
2026-01-19 00:03:18.69	11.09	23.19	-41.6	-44.9	13.2	3.20e-05	0	60	0	286261248	55	5088
2026-01-19 00:03:19.70	11.05	23.33	-41.5	-44.8	13.3	2.36e-05	0	60	0	288358400	55	5023
2026-01-19 00:03:20.71	11.00	23.48	-41.4	-44.7	13.5	6.80e-06	0	61	0	290455552	54	5240
2026-01-19 00:03:21.72	10.96	23.63	-41.4	-44.6	13.6	1.22e-05	0	60	0	292552704	54	5165
2026-01-19 00:03:22.73	10.92	23.78	-41.2	-44.3	13.9	9.10e-06	0	60	0	294649856	54	4999
2026-01-19 00:03:23.73	10.88	23.93	-41.2	-44.4	13.8	1.50e-06	0	60	0	295698432	54	5046
2026-01-19 00:03:24.74	10.83	24.09	-41.3	-44.4	13.9	3.80e-06	0	60	0	297795584	54	5070
2026-01-19 00:03:25.75	10.79	24.24	-41.2	-44.4	13.8	4.50e-06	0	61	0	299892736	54	5043
2026-01-19 00:03:26.76	10.74	24.39	-41.3	-44.4	13.8	3.00e-06	0	60	0	301989888	54	5083
2026-01-19 00:03:27.77	10.70	24.55	-41.3	-44.4	13.8	6.80e-06	0	60	0	304087040	54	5084
2026-01-19 00:03:28.78	10.65	24.70	-41.4	-44.5	13.7	5.30e-06	0	61	0	305135616	54	5142
2026-01-19 00:03:29.79	10.61	24.86	-41.5	-44.7	13.5	5.30e-06	0	60	0	307232768	54	5279
2026-01-19 00:03:30.80	10.56	25.02	-41.5	-44.7	13.5	9.90e-06	0	60	0	309329920	54	5278
2026-01-19 00:03:31.81	10.51	25.18	-41.6	-45.0	13.2	1.67e-05	0	61	0	311427072	54	5446
2026-01-19 00:03:32.82	10.46	25.34	-41.7	-45.2	13.0	2.13e-05	0	61	0	313524224	54	5545
2026-01-19 00:03:33.83	10.42	25.50	-41.6	-45.0	13.2	1.98e-05	0	60	0	314572800	54	5450
2026-01-19 00:03:34.84	10.37	25.66	-41.6	-45.0	13.3	3.20e-05	0	60	0	316669952	54	5405
2026-01-19 00:03:35.85	10.32	25.82	-41.5	-44.8	13.5	3.58e-05	0	60	0	318767104	54	5287
2026-01-19 00:03:36.86	10.27	25.99	-41.6	-44.9	13.3	1.75e-05	0	60	0	320864256	54	5377
2026-01-19 00:03:37.87	10.22	26.15	-41.5	-44.8	13.4	9.10e-06	0	60	0	322961408	54	5315
2026-01-19 00:03:38.88	10.17	26.32	-41.5	-44.9	13.4	7.60e-06	0	61	0	325058560	54	5351
2026-01-19 00:03:39.89	10.11	26.48	-41.6	-44.9	13.4	5.30e-06	0	60	0	326107136	54	5381
2026-01-19 00:03:40.89	10.06	26.65	-41.6	-45.0	13.3	1.29e-05	0	61	0	328204288	54	5412
2026-01-19 00:03:41.90	10.01	26.82	-41.7	-45.1	13.2	1.44e-05	0	60	0	330301440	54	5472
2026-01-19 00:03:42.91	9.96	26.99	-41.7	-45.2	13.1	2.44e-05	0	61	0	332398592	54	5540
2026-01-19 00:03:43.92	9.90	27.16	-41.7	-45.1	13.2	4.57e-05	0	60	0	334495744	54	5502
2026-01-19 00:03:44.93	9.85	27.33	-42.0	-45.6	12.6	8.85e-05	0	60	0	335544320	54	5846
2026-01-19 00:03:45.94	9.79	27.50	-42.2	-46.0	12.2	1.42e-04	0	61	0	337641472	54	6101
2026-01-19 00:03:46.95	9.74	27.68	-42.2	-46.1	12.1	1.09e-04	0	61	0	339738624	55	5810
2026-01-19 00:03:47.96	9.68	27.85	-42.2	-46.0	12.2	2.43e-04	0	60	0	341835776	55	5769
2026-01-19 00:03:48.97	9.62	28.03	-42.2	-46.0	12.2	2.49e-04	0	60	0	343932928	55	5787
2026-01-19 00:03:49.98	9.57	28.20	-42.2	-46.1	12.2	2.75e-04	0	60	0	344981504	55	5813
2026-01-19 00:03:50.99	9.51	28.38	-42.2	-46.1	12.1	1.82e-04	0	61	0	347078656	55	5807
2026-01-19 00:03:52.00	9.45	28.56	-41.9	-45.5	12.8	1.69e-04	0	61	0	349175808	55	5403
2026-01-19 00:03:53.01	9.39	28.74	-42.0	-45.6	12.6	1.29e-04	0	61	0	351272960	55	5527
2026-01-19 00:03:54.02	9.33	28.92	-42.2	-46.1	12.2	1.78e-04	0	61	0	353370112	55	5791
2026-01-19 00:03:55.03	9.27	29.11	-42.3	-46.3	11.9	1.27e-04	0	61	0	354418688	55	5992
2026-01-19 00:03:56.04	9.20	29.29	-42.4	-46.5	11.7	3.40e-04	0	61	0	356515840	55	6125
2026-01-19 00:03:57.05	9.14	29.47	-42.4	-46.4	11.9	5.54e-04	0	61	0	358612992	55	6021
2026-01-19 00:03:58.06	9.08	29.66	-42.6	-46.8	11.4	9.36e-04	0	61	0	360710144	55	6345
2026-01-19 00:03:59.07	9.01	29.85	-42.9	-47.5	10.9	1.53e-03	0	61	0	362807296	56	6450
2026-01-19 00:04:00.08	8.95	30.04	-42.8	-47.1	11.3	1.31e-03	0	61	0	363855872	56	6167
2026-01-19 00:04:01.09	8.88	30.23	-43.0	-47.6	10.8	2.39e-03	0	61	0	365953024	56	6559
2026-01-19 00:04:02.10	8.81	30.42	-43.1	-47.9	10.5	3.31e-03	0	61	0	368050176	56	6730
2026-01-19 00:04:03.11	8.75	30.61	-42.9	-47.5	10.9	2.44e-03	0	61	0	370147328	56	6466
2026-01-19 00:04:04.12	8.68	30.80	-42.8	-47.3	11.1	2.21e-03	0	61	0	372244480	56	6284
2026-01-19 00:04:05.13	8.61	31.00	-42.9	-47.4	11.0	2.29e-03	0	61	0	373293056	56	6355
2026-01-19 00:04:06.14	8.54	31.19	-42.9	-47.4	11.0	2.08e-03	0	61	0	375390208	56	6405
2026-01-19 00:04:07.15	8.47	31.39	-42.9	-47.4	11.0	1.55e-03	0	61	0	377487360	56	6360
2026-01-19 00:04:08.16	8.39	31.59	-43.0	-47.5	10.9	2.08e-03	0	61	0	379584512	56	6452
2026-01-19 00:04:09.17	8.32	31.79	-43.2	-48.1	10.3	3.34e-03	0	61	0	381681664	56	6924
2026-01-19 00:04:10.18	8.25	31.99	-43.3	-48.4	9.9	5.73e-03	0	61	0	382730240	57	6770
2026-01-19 00:04:11.19	8.17	32.19	-43.4	-48.7	9.6	5.44e-03	0	61	0	384827392	57	7030
2026-01-19 00:04:12.20	8.10	32.40	-43.5	-48.8	9.6	1.28e-02	0	61	0	386924544	57	7070
2026-01-19 00:04:13.21	8.02	32.60	-43.3	-48.4	9.9	1.23e-02	0	61	0	389021696	57	6760
2026-01-19 00:04:14.22	7.94	32.81	-43.6	-49.2	9.1	1.33e-02	0	61	0	391118848	57	7387
2026-01-19 00:04:15.23	7.86	33.02	-43.5	-48.9	9.4	1.21e-02	0	61	0	393216000	57	7189
2026-01-19 00:04:16.24	7.78	33.23	-43.5	-48.9	9.5	9.83e-03	0	61	0	394264576	57	7162
2026-01-19 00:04:17.25	7.70	33.44	-43.5	-49.0	9.4	2.04e-02	0	61	0	396361728	57	7235
2026-01-19 00:04:18.25	7.62	33.65	-43.6	-49.2	9.2	2.06e-02	0	61	0	398458880	57	7387
2026-01-19 00:04:19.26	7.53	33.86	-43.8	-49.7	8.7	2.76e-02	0	61	0	400556032	58	7450
2026-01-19 00:04:20.27	7.45	34.07	-43.8	-49.8	8.5	3.48e-02	0	61	0	402653184	58	7540
2026-01-19 00:04:21.28	7.36	34.29	-43.7	-49.4	8.9	4.84e-02	0	61	0	403701760	58	7180
2026-01-19 00:04:22.29	7.28	34.51	-43.9	-50.0	8.3	5.31e-02	0	61	0	405798912	58	7673
2026-01-19 00:04:23.30	7.19	34.73	-43.8	-49.8	8.6	4.00e-02	0	61	0	407896064	58	7516
2026-01-19 00:04:24.31	7.10	34.95	-43.6	-49.1	9.3	2.17e-02	0	61	0	409993216	58	6914
2026-01-19 00:04:25.33	7.01	35.17	-43.4	-48.6	9.8	1.57e-02	0	61	0	412090368	58	6503
2026-01-19 00:04:26.33	6.92	35.39	-43.3	-48.2	10.2	8.19e-03	0	61	0	413138944	58	6231
2026-01-19 00:04:27.34	6.82	35.62	-43.2	-48.1	10.3	4.31e-03	0	61	0	415236096	58	6153
2026-01-19 00:04:28.35	6.73	35.85	-43.2	-48.0	10.4	2.88e-03	0	61	0	417333248	58	6115
2026-01-19 00:04:29.37	6.63	36.08	-43.1	-47.7	10.7	3.02e-03	0	61	0	419430400	58	5879
2026-01-19 00:04:30.37	6.53	36.30	-43.4	-48.5	9.9	6.13e-03	0	61	0	421527552	58	6471
2026-01-19 00:04:31.38	6.43	36.53	-43.4	-48.7	9.6	9.04e-03	0	61	0	422576128	58	6592
2026-01-19 00:04:32.39	6.33	36.77	-43.5	-48.9	9.4	1.05e-02	0	61	0	424673280	58	6788
2026-01-19 00:04:33.41	6.23	37.00	-43.5	-48.9	9.5	1.93e-02	0	61	0	426770432	58	6789
2026-01-19 00:04:34.41	6.13	37.24	-43.4	-48.5	9.9	1.10e-02	0	61	0	428867584	58	6436
2026-01-19 00:04:35.42	6.02	37.47	-43.1	-47.7	10.7	4.26e-03	0	61	0	430964736	58	5903
2026-01-19 00:04:36.43	5.92	37.71	-43.0	-47.5	10.9	2.36e-03	0	61	0	432013312	57	6079
2026-01-19 00:04:37.44	5.81	37.95	-42.8	-47.1	11.4	1.29e-03	0	61	0	434110464	57	5825
2026-01-19 00:04:38.45	5.70	38.20	-42.8	-47.0	11.4	8.20e-04	0	61	0	436207616	57	5773
2026-01-19 00:04:39.46	5.59	38.44	-42.9	-47.1	11.4	8.34e-04	0	61	0	438304768	57	5825
2026-01-19 00:04:40.47	5.47	38.69	-43.0	-47.5	10.9	1.36e-03	0	61	0	440401920	57	6101
2026-01-19 00:04:41.48	5.36	38.93	-43.2	-47.9	10.5	2.95e-03	0	61	0	441450496	57	6394
2026-01-19 00:04:42.49	5.24	39.18	-43.4	-48.6	9.8	8.64e-03	0	61	0	443547648	57	6941
2026-01-19 00:04:43.49	5.12	39.43	-43.5	-48.8	9.6	1.46e-02	0	61	0	445644800	57	7071
2026-01-19 00:04:44.50	5.00	39.68	-43.6	-49.1	9.2	1.74e-02	0	61	0	447741952	57	7367
2026-01-19 00:04:45.51	4.88	39.94	-43.8	-49.6	8.8	3.33e-02	0	61	0	449839104	58	7307
2026-01-19 00:04:46.52	4.75	40.19	-43.6	-48.9	9.5	1.81e-02	0	61	0	450887680	58	6759
2026-01-19 00:04:47.53	4.63	40.45	-43.5	-48.7	9.9	1.31e-02	0	61	0	452984832	58	6597
2026-01-19 00:04:48.54	4.50	40.71	-43.5	-48.7	9.8	9.48e-03	0	61	0	455081984	58	6585
2026-01-19 00:04:49.55	4.37	40.97	-43.2	-48.0	10.4	5.11e-03	0	61	0	457179136	58	6075
2026-01-19 00:04:50.56	4.23	41.23	-43.3	-48.2	10.3	4.18e-03	0	61	0	459276288	58	6228
2026-01-19 00:04:51.57	4.10	41.50	-43.2	-47.9	10.5	4.28e-03	0	61	0	461373440	58	6052
2026-01-19 00:04:52.58	3.96	41.76	-43.4	-48.3	10.1	5.09e-03	0	61	0	462422016	58	6294
2026-01-19 00:04:53.59	3.82	42.03	-43.4	-48.3	10.2	7.20e-03	0	61	0	464519168	58	6290
2026-01-19 00:04:54.60	3.68	42.30	-43.5	-48.6	9.9	5.45e-03	0	61	0	466616320	58	6520
2026-01-19 00:04:55.61	3.53	42.57	-43.5	-48.7	9.9	9.05e-03	0	61	0	468713472	58	6593
2026-01-19 00:04:56.62	3.39	42.84	-43.6	-49.0	9.4	1.28e-02	0	61	0	470810624	58	6839
2026-01-19 00:04:57.63	3.23	43.12	-43.6	-49.0	9.5	1.85e-02	0	61	0	471859200	58	6821
2026-01-19 00:04:58.64	3.08	43.40	-43.8	-49.5	8.9	2.91e-02	0	61	0	473956352	58	7240
2026-01-19 00:04:59.65	2.93	43.67	-43.9	-49.8	8.6	2.90e-02	0	61	0	476053504	58	7502
2026-01-19 00:05:00.66	2.77	43.95	-44.0	-50.4	8.1	4.13e-02	0	61	0	478150656	58	8007
2026-01-19 00:05:01.67	2.61	44.24	-44.0	-50.3	8.1	6.01e-02	0	61	0	480247808	58	7927
2026-01-19 00:05:02.68	2.44	44.52	-43.9	-49.9	8.6	4.58e-02	0	61	0	481296384	58	7550
2026-01-19 00:05:03.69	2.28	44.81	-43.8	-49.5	8.9	3.51e-02	0	61	0	483393536	58	7259
2026-01-19 00:05:04.70	2.10	45.09	-43.5	-48.5	10.0	1.20e-02	0	61	0	485490688	58	6444
2026-01-19 00:05:05.71	1.93	45.38	-43.1	-47.5	10.9	3.80e-03	0	61	0	487587840	58	5775
2026-01-19 00:05:06.72	1.75	45.67	-42.7	-46.8	11.8	1.37e-03	0	61	0	489684992	57	5610
2026-01-19 00:05:07.73	1.57	45.97	-42.8	-46.9	11.6	1.06e-03	0	61	0	490733568	57	5678
2026-01-19 00:05:08.74	1.39	46.26	-43.1	-47.6	10.9	1.95e-03	0	61	0	492830720	57	6145
2026-01-19 00:05:09.74	1.21	46.55	-43.4	-48.5	10.1	2.65e-03	0	61	0	494927872	57	6844
2026-01-19 00:05:10.75	1.01	46.85	-43.6	-49.0	9.5	1.18e-02	0	61	0	497025024	57	7255
2026-01-19 00:05:11.76	0.82	47.15	-43.4	-48.5	9.9	1.24e-02	0	61	0	499122176	57	6838
2026-01-19 00:05:12.77	0.62	47.45	-43.3	-48.2	10.3	6.43e-03	0	61	0	500170752	57	6586
2026-01-19 00:05:13.78	0.42	47.76	-43.0	-47.3	11.2	3.76e-03	0	61	0	502267904	57	5945
2026-01-19 00:05:14.79	0.21	48.06	-42.9	-47.2	11.4	1.10e-03	0	61	0	504365056	57	5863
2026-01-19 00:05:15.80	0.00	48.37	-43.0	-47.3	11.1	1.19e-03	0	61	0	506462208	57	5989
2026-01-19 00:05:16.81	359.79	48.68	-43.0	-47.3	11.3	1.35e-03	0	61	0	508559360	57	5932
2026-01-19 00:05:17.82	359.57	48.99	-42.8	-46.9	11.6	9.46e-04	0	61	0	509607936	57	5712
2026-01-19 00:05:18.83	359.34	49.30	-42.6	-46.5	12.1	4.69e-04	0	61	0	511705088	57	5408
2026-01-19 00:05:19.84	359.11	49.61	-42.5	-46.3	12.3	1.44e-04	0	61	0	513802240	56	5616
2026-01-19 00:05:20.85	358.88	49.93	-42.4	-46.1	12.5	1.07e-04	0	61	0	515899392	56	5474
2026-01-19 00:05:21.86	358.64	50.25	-42.4	-46.1	12.5	1.18e-04	0	61	0	517996544	56	5509
2026-01-19 00:05:22.87	358.40	50.57	-42.6	-46.5	12.0	1.26e-04	0	61	0	519045120	56	5775
2026-01-19 00:05:23.88	358.15	50.89	-42.6	-46.5	12.0	1.93e-04	0	61	0	521142272	56	5769
2026-01-19 00:05:24.89	357.90	51.21	-42.3	-45.9	12.6	1.45e-04	0	61	0	523239424	56	5370
2026-01-19 00:05:25.90	357.64	51.53	-42.3	-45.9	12.7	6.17e-05	0	61	0	525336576	56	5347
2026-01-19 00:05:26.91	357.37	51.86	-42.3	-46.0	12.6	7.62e-05	0	61	0	527433728	56	5403
2026-01-19 00:05:27.92	357.10	52.18	-42.5	-46.4	12.2	3.31e-04	0	61	0	529530880	56	5660
2026-01-19 00:05:28.93	356.82	52.51	-42.7	-46.7	11.9	3.50e-04	0	61	0	530579456	56	5873
2026-01-19 00:05:29.94	356.54	52.84	-42.8	-46.9	11.7	4.89e-04	0	61	0	532676608	56	6006
2026-01-19 00:05:30.95	356.24	53.17	-42.7	-46.6	11.9	4.65e-04	0	61	0	534773760	56	5841
2026-01-19 00:05:31.96	355.95	53.51	-42.6	-46.4	12.2	3.32e-04	0	61	0	536870912	56	5708
2026-01-19 00:05:32.97	355.64	53.84	-42.4	-46.0	12.5	1.65e-04	0	61	0	538968064	56	5430
2026-01-19 00:05:33.97	355.33	54.17	-42.8	-46.8	11.8	5.42e-04	0	61	0	540016640	56	5958
2026-01-19 00:05:34.98	355.01	54.51	-43.0	-47.3	11.3	8.60e-04	0	61	0	542113792	56	6327
2026-01-19 00:05:35.99	354.69	54.85	-43.0	-47.5	11.1	9.06e-04	0	61	0	544210944	56	6432
2026-01-19 00:05:37.00	354.35	55.19	-42.9	-47.3	11.2	1.04e-03	0	61	0	546308096	56	6314
2026-01-19 00:05:38.01	354.01	55.53	-42.6	-46.5	12.1	6.36e-04	0	61	0	548405248	56	5728
2026-01-19 00:05:39.02	353.66	55.87	-42.1	-45.5	13.0	1.23e-04	0	61	0	549453824	56	5149
2026-01-19 00:05:40.03	353.30	56.21	-41.5	-44.5	14.0	1.44e-05	0	61	0	551550976	54	5116
2026-01-19 00:05:41.04	352.93	56.56	-41.3	-44.3	14.3	7.00e-07	0	61	0	553648128	54	5000
2026-01-19 00:05:42.05	352.55	56.90	-41.4	-44.4	14.0	0.00e+00	0	61	0	555745280	54	5070
2026-01-19 00:05:43.06	352.16	57.25	-41.8	-45.0	13.4	4.50e-06	0	61	0	557842432	54	5448
2026-01-19 00:05:44.06	351.76	57.59	-42.0	-45.4	13.1	2.82e-05	0	61	0	558891008	54	5697
2026-01-19 00:05:45.07	351.36	57.94	-42.0	-45.4	13.0	4.50e-05	0	61	0	560988160	54	5665
2026-01-19 00:05:46.08	350.94	58.28	-42.1	-45.6	12.8	3.96e-05	0	61	0	563085312	54	5823
2026-01-19 00:05:47.09	350.50	58.63	-42.6	-46.7	11.6	3.24e-04	0	61	0	565182464	55	6251
2026-01-19 00:05:48.10	350.06	58.98	-43.1	-47.6	10.9	1.06e-03	0	61	0	567279616	56	6522
2026-01-19 00:05:49.11	349.61	59.33	-43.2	-47.8	10.6	2.67e-03	0	61	0	568328192	57	6336
2026-01-19 00:05:50.12	349.14	59.68	-43.3	-48.2	10.3	5.02e-03	0	62	0	570425344	57	6628
2026-01-19 00:05:51.13	348.66	60.03	-43.4	-48.6	9.9	8.65e-03	0	61	0	572522496	57	6919
2026-01-19 00:05:52.14	348.17	60.38	-43.4	-48.5	10.0	9.04e-03	0	61	0	574619648	57	6828
2026-01-19 00:05:53.15	347.66	60.73	-43.0	-47.4	11.0	5.07e-03	0	61	0	576716800	57	6036
2026-01-19 00:05:54.16	347.14	61.08	-42.6	-46.5	12.1	5.82e-04	0	61	0	577765376	57	5407
2026-01-19 00:05:55.17	346.60	61.43	-42.7	-46.7	11.8	1.98e-04	0	61	0	579862528	56	5919
2026-01-19 00:05:56.18	346.05	61.78	-42.7	-46.7	11.9	5.16e-04	0	61	0	581959680	56	5886
2026-01-19 00:05:57.19	345.48	62.12	-42.1	-45.4	13.1	1.16e-04	0	61	0	584056832	56	5084
2026-01-19 00:05:58.20	344.90	62.47	-41.3	-44.2	14.2	6.10e-06	0	61	0	586153984	54	4956
2026-01-19 00:05:59.21	344.30	62.82	-41.6	-44.7	13.7	2.20e-06	0	61	0	587202560	54	5244
2026-01-19 00:06:00.22	343.68	63.16	-42.2	-45.8	12.6	4.57e-05	0	61	0	589299712	54	5974
2026-01-19 00:06:01.22	343.05	63.51	-42.5	-46.6	11.8	3.59e-04	0	61	0	591396864	55	6152
2026-01-19 00:06:02.23	342.39	63.85	-41.9	-45.3	13.1	2.02e-04	0	61	0	593494016	55	5324
2026-01-19 00:06:03.24	341.71	64.19	-41.5	-44.6	13.8	7.60e-06	0	61	0	595591168	55	4894
2026-01-19 00:06:04.25	341.02	64.53	-41.5	-44.6	13.7	3.00e-06	0	61	0	597688320	54	5190
2026-01-19 00:06:05.26	340.30	64.87	-41.7	-45.1	13.3	6.10e-06	0	61	0	598736896	54	5469
2026-01-19 00:06:06.27	339.56	65.20	-41.8	-45.2	13.2	8.30e-06	0	61	0	600834048	54	5542
2026-01-19 00:06:07.28	338.80	65.54	-42.1	-45.8	12.5	9.46e-05	0	61	0	602931200	54	5981
2026-01-19 00:06:08.29	338.01	65.87	-42.1	-45.7	12.6	1.65e-04	0	61	0	605028352	55	5537
2026-01-19 00:06:09.30	337.20	66.20	-41.8	-45.2	13.1	9.99e-05	0	61	0	607125504	55	5238
2026-01-19 00:06:10.31	336.37	66.52	-42.0	-45.4	12.8	3.05e-05	0	62	0	608174080	55	5401
2026-01-19 00:06:11.32	335.51	66.84	-42.1	-45.7	12.7	6.86e-05	0	62	0	610271232	55	5554
2026-01-19 00:06:12.33	334.62	67.16	-42.6	-46.7	11.6	3.07e-04	0	62	0	612368384	55	6233
2026-01-19 00:06:13.33	333.72	67.47	-43.0	-47.4	11.0	1.10e-03	0	61	0	614465536	56	6378
2026-01-19 00:06:14.35	332.76	67.78	-42.9	-47.2	11.2	2.51e-03	0	61	0	616562688	56	6244
2026-01-19 00:06:15.36	331.79	68.09	-43.4	-48.3	10.2	2.63e-03	0	62	0	617611264	57	6716
2026-01-19 00:06:16.36	330.80	68.38	-43.8	-49.7	8.5	3.10e-02	0	61	0	619708416	58	7426
2026-01-19 00:06:17.37	329.77	68.68	-44.1	-50.7	7.6	1.17e-01	0	61	0	621805568	59	7879
2026-01-19 00:06:18.38	328.71	68.97	-43.9	-50.0	8.0	6.88e-02	0	61	0	623902720	59	7283
2026-01-19 00:06:19.39	327.62	69.25	-43.9	-50.0	8.2	3.99e-02	0	62	0	625999872	59	7244
2026-01-19 00:06:20.40	326.49	69.53	-44.4	-51.9	6.5	1.32e-01	0	61	0	627048448	59	8990
2026-01-19 00:06:21.41	325.33	69.80	-44.4	-52.1	6.1	2.35e-01	0	61	0	629145600	59	9205
2026-01-19 00:06:22.42	324.14	70.06	-43.9	-49.9	8.3	1.44e-01	0	61	0	631242752	59	7165
2026-01-19 00:06:23.43	322.92	70.31	-43.3	-48.2	9.9	1.42e-02	0	62	0	633339904	58	6254
2026-01-19 00:06:24.44	321.66	70.56	-42.8	-46.9	11.4	1.37e-03	0	61	0	635437056	57	5673
2026-01-19 00:06:25.45	320.36	70.80	-42.8	-47.0	11.3	5.34e-04	0	62	0	636485632	57	5762
2026-01-19 00:06:26.46	319.04	71.03	-42.9	-47.3	10.9	2.52e-03	0	61	0	638582784	57	5963
2026-01-19 00:06:27.47	317.68	71.25	-43.0	-47.4	10.9	2.27e-03	0	62	0	640679936	57	5999
2026-01-19 00:06:28.48	316.28	71.46	-43.2	-47.9	10.3	2.46e-03	0	61	0	642777088	57	6405
2026-01-19 00:06:29.49	314.85	71.66	-43.3	-48.1	10.3	7.04e-03	0	61	0	644874240	57	6551
2026-01-19 00:06:30.50	313.39	71.84	-43.1	-47.7	10.5	5.41e-03	0	62	0	645922816	57	6270
2026-01-19 00:06:31.51	311.90	72.02	-42.9	-47.1	11.3	1.52e-03	0	62	0	648019968	57	5838
2026-01-19 00:06:32.51	310.39	72.19	-42.5	-46.3	12.0	3.12e-04	0	61	0	650117120	56	5634
2026-01-19 00:06:33.52	308.84	72.34	-42.6	-46.6	11.7	4.44e-04	0	61	0	652214272	56	5811
2026-01-19 00:06:34.53	307.26	72.48	-43.1	-47.9	10.4	1.76e-03	0	62	0	654311424	56	6755
2026-01-19 00:06:35.54	305.66	72.61	-43.6	-49.1	8.9	2.10e-02	0	61	0	655360000	57	7368
2026-01-19 00:06:36.55	304.03	72.73	-43.4	-48.6	9.6	1.67e-02	0	61	0	657457152	57	6923
2026-01-19 00:06:37.56	302.37	72.83	-43.8	-49.4	9.0	3.81e-02	0	61	0	659554304	58	7193
2026-01-19 00:06:38.57	300.70	72.92	-43.8	-49.6	8.6	4.46e-02	0	61	0	661651456	58	7290
2026-01-19 00:06:39.58	299.01	73.00	-43.5	-48.8	9.5	1.68e-02	0	62	0	663748608	58	6657
2026-01-19 00:06:40.59	297.31	73.06	-43.7	-49.4	8.9	1.02e-02	0	62	0	665845760	58	7167
2026-01-19 00:06:41.60	295.60	73.11	-44.2	-51.2	7.1	5.23e-02	0	61	0	666894336	59	8357
2026-01-19 00:06:42.61	293.87	73.14	-43.9	-50.0	8.0	1.15e-01	0	61	0	668991488	59	7276
2026-01-19 00:06:43.62	292.15	73.16	-43.8	-49.7	8.4	1.91e-02	0	62	0	671088640	59	6991
2026-01-19 00:06:44.63	290.42	73.16	-43.8	-49.7	8.3	2.97e-02	0	61	0	673185792	59	6985
2026-01-19 00:06:45.64	288.69	73.15	-43.6	-49.1	9.0	2.98e-02	0	62	0	675282944	59	6505
2026-01-19 00:06:46.64	286.98	73.12	-43.4	-48.4	9.9	1.06e-02	0	62	0	676331520	58	6366
2026-01-19 00:06:47.65	285.26	73.08	-43.1	-47.7	10.5	4.10e-03	0	61	0	678428672	58	5868
2026-01-19 00:06:48.66	283.55	73.02	-42.5	-46.4	11.9	6.32e-04	0	62	0	680525824	57	5385
2026-01-19 00:06:49.67	281.86	72.95	-42.4	-46.2	12.1	2.44e-04	0	62	0	682622976	56	5556
2026-01-19 00:06:50.68	280.18	72.87	-42.3	-46.0	12.4	3.11e-04	0	62	0	683671552	56	5403
2026-01-19 00:06:51.69	278.52	72.77	-41.8	-45.2	13.0	2.28e-05	0	62	0	685768704	55	5238
2026-01-19 00:06:52.70	276.88	72.66	-42.0	-45.5	12.8	2.44e-05	0	61	0	687865856	55	5430
2026-01-19 00:06:53.71	275.26	72.54	-42.3	-46.2	12.1	1.79e-04	0	61	0	689963008	55	5885
2026-01-19 00:06:54.72	273.67	72.40	-43.0	-47.6	10.8	7.93e-04	0	61	0	692060160	56	6496
2026-01-19 00:06:55.73	272.10	72.25	-43.0	-47.4	10.8	3.66e-03	0	62	0	694157312	56	6405
2026-01-19 00:06:56.74	270.57	72.09	-42.6	-46.6	11.8	1.21e-03	0	62	0	695205888	56	5799
2026-01-19 00:06:57.75	269.06	71.92	-42.4	-46.2	12.2	1.65e-04	0	61	0	697303040	56	5543
2026-01-19 00:06:58.76	267.59	71.73	-42.9	-47.3	11.1	1.31e-03	0	62	0	699400192	56	6282
2026-01-19 00:06:59.77	266.15	71.54	-43.3	-48.2	10.1	6.52e-03	0	62	0	701497344	57	6638
2026-01-19 00:07:00.78	264.74	71.33	-43.6	-48.9	9.3	1.52e-02	0	62	0	703594496	57	7194
2026-01-19 00:07:01.79	263.36	71.11	-43.5	-48.7	9.6	2.68e-02	0	62	0	704643072	58	6615
2026-01-19 00:07:02.80	262.02	70.89	-43.6	-49.0	9.1	1.13e-02	0	61	0	706740224	58	6826
2026-01-19 00:07:03.81	260.71	70.65	-44.2	-50.9	7.4	4.97e-02	0	61	0	708837376	58	8492
2026-01-19 00:07:04.81	259.45	70.41	-44.2	-51.1	7.1	1.45e-01	0	62	0	710934528	59	8211
2026-01-19 00:07:05.82	258.21	70.16	-44.1	-50.6	7.5	8.52e-02	0	62	0	713031680	59	7788
2026-01-19 00:07:06.83	257.00	69.90	-44.1	-50.7	7.4	7.47e-02	0	62	0	714080256	59	7893
2026-01-19 00:07:07.84	255.83	69.63	-44.1	-50.5	7.7	1.45e-01	0	62	0	716177408	59	7664
2026-01-19 00:07:08.85	254.69	69.36	-43.8	-49.7	8.5	1.89e-02	0	61	0	718274560	59	6980
2026-01-19 00:07:09.86	253.58	69.08	-43.9	-49.9	8.5	3.33e-02	0	62	0	720371712	59	7129
2026-01-19 00:07:10.87	252.51	68.79	-43.8	-49.6	8.6	6.59e-02	0	61	0	722468864	59	6886
2026-01-19 00:07:11.88	251.46	68.50	-43.5	-48.8	9.4	2.01e-02	0	62	0	723517440	59	6275
2026-01-19 00:07:12.89	250.45	68.20	-43.3	-48.1	10.1	1.49e-02	0	62	0	725614592	58	6168
2026-01-19 00:07:13.90	249.47	67.90	-42.8	-47.0	11.3	6.35e-03	0	62	0	727711744	57	5728
2026-01-19 00:07:14.91	248.51	67.59	-42.6	-46.5	11.9	9.18e-04	0	62	0	729808896	57	5412
2026-01-19 00:07:15.92	247.59	67.28	-42.8	-46.9	11.5	8.63e-04	0	62	0	731906048	56	6022
2026-01-19 00:07:16.93	246.69	66.96	-43.2	-47.9	10.4	3.14e-03	0	62	0	732954624	57	6407
2026-01-19 00:07:17.94	245.82	66.64	-42.8	-47.1	11.2	2.09e-03	0	62	0	735051776	57	5806
2026-01-19 00:07:18.95	244.97	66.32	-42.5	-46.3	12.1	3.80e-04	0	62	0	737148928	56	5597
2026-01-19 00:07:19.96	244.15	65.99	-42.5	-46.3	12.1	1.75e-04	0	62	0	739246080	56	5632
2026-01-19 00:07:20.97	243.36	65.66	-42.3	-46.0	12.3	3.08e-04	0	62	0	741343232	56	5440
2026-01-19 00:07:21.98	242.58	65.33	-42.3	-46.1	12.4	7.40e-05	0	62	0	742391808	56	5465
2026-01-19 00:07:22.99	241.83	64.99	-42.0	-45.5	12.7	1.27e-04	0	62	0	744488960	55	5432
2026-01-19 00:07:24.00	241.11	64.65	-41.3	-44.3	13.9	2.36e-05	0	62	0	746586112	54	5020
2026-01-19 00:07:25.01	240.40	64.31	-41.2	-44.1	14.2	7.00e-07	0	62	0	748683264	54	4900
2026-01-19 00:07:26.01	239.72	63.97	-41.6	-44.8	13.5	3.80e-06	0	61	0	750780416	54	5325
2026-01-19 00:07:27.02	239.06	63.63	-41.5	-44.7	13.6	6.10e-06	0	62	0	751828992	54	5228
2026-01-19 00:07:28.03	238.41	63.29	-41.1	-44.0	14.3	9.90e-06	0	61	0	753926144	54	4865
2026-01-19 00:07:29.04	237.79	62.94	-41.0	-43.7	14.5	7.00e-07	0	62	0	756023296	53	4970
2026-01-19 00:07:30.05	237.18	62.59	-41.4	-44.4	13.8	2.20e-06	0	62	0	758120448	53	5393
2026-01-19 00:07:31.06	236.58	62.24	-41.6	-44.9	13.5	2.67e-05	0	62	0	760217600	54	5344
2026-01-19 00:07:32.07	236.01	61.90	-41.5	-44.7	13.5	9.90e-06	0	62	0	762314752	54	5261
2026-01-19 00:07:33.08	235.45	61.55	-42.1	-45.8	12.4	2.97e-05	0	62	0	763363328	54	5972
2026-01-19 00:07:34.09	234.91	61.20	-42.5	-46.7	11.6	8.33e-04	0	61	0	765460480	55	6204
2026-01-19 00:07:35.10	234.38	60.85	-42.7	-46.9	11.4	8.14e-04	0	62	0	767557632	55	6397
2026-01-19 00:07:36.11	233.87	60.50	-43.2	-48.0	10.3	1.34e-03	0	62	0	769654784	57	6483
2026-01-19 00:07:37.12	233.37	60.15	-42.6	-46.6	11.7	2.92e-03	0	62	0	771751936	57	5497
2026-01-19 00:07:38.13	232.88	59.79	-42.7	-46.7	11.8	3.97e-04	0	62	0	772800512	57	5546
2026-01-19 00:07:39.14	232.41	59.44	-43.1	-47.6	10.8	1.01e-03	0	62	0	774897664	57	6156
2026-01-19 00:07:40.15	231.95	59.09	-43.2	-47.9	10.4	5.94e-03	0	62	0	776994816	57	6365
2026-01-19 00:07:41.16	231.50	58.74	-42.8	-46.9	11.7	9.51e-04	0	62	0	779091968	57	5717
2026-01-19 00:07:42.17	231.06	58.39	-42.2	-45.8	12.6	2.55e-04	0	62	0	781189120	56	5331
2026-01-19 00:07:43.18	230.64	58.05	-42.2	-45.8	12.7	1.23e-04	0	62	0	782237696	56	5305
2026-01-19 00:07:44.19	230.22	57.70	-42.4	-46.1	12.4	1.78e-04	0	62	0	784334848	56	5493
2026-01-19 00:07:45.20	229.82	57.35	-42.7	-46.8	11.7	4.24e-04	0	62	0	786432000	56	5945
2026-01-19 00:07:46.21	229.43	57.00	-42.7	-46.8	11.6	7.70e-04	0	62	0	788529152	56	5947
2026-01-19 00:07:47.22	229.04	56.66	-42.6	-46.5	12.0	2.27e-04	0	62	0	790626304	56	5724
2026-01-19 00:07:48.23	228.67	56.31	-42.0	-45.5	13.0	1.65e-04	0	62	0	791674880	56	5108
2026-01-19 00:07:49.24	228.31	55.97	-41.1	-43.9	14.4	3.80e-06	0	62	0	793772032	54	4791
2026-01-19 00:07:50.25	227.95	55.62	-40.7	-43.3	15.0	7.00e-07	0	62	0	795869184	53	4728
2026-01-19 00:07:51.26	227.60	55.28	-41.3	-44.3	14.1	7.00e-07	0	62	0	797966336	53	5292
2026-01-19 00:07:52.27	227.27	54.94	-41.3	-44.3	14.0	4.50e-06	0	62	0	800063488	53	5329
2026-01-19 00:07:53.28	226.94	54.60	-41.8	-45.1	13.3	8.30e-06	0	62	0	801112064	54	5490
2026-01-19 00:07:54.29	226.61	54.26	-42.4	-46.3	12.0	1.37e-04	0	62	0	803209216	55	5961
2026-01-19 00:07:55.30	226.30	53.93	-43.1	-47.6	10.7	9.51e-04	0	62	0	805306368	56	6547
2026-01-19 00:07:56.31	225.99	53.59	-43.0	-47.5	10.8	1.58e-03	0	62	0	807403520	56	6478
2026-01-19 00:07:57.32	225.69	53.26	-43.0	-47.5	10.9	1.68e-03	0	62	0	809500672	56	6489
2026-01-19 00:07:58.33	225.39	52.92	-43.5	-48.8	9.6	8.01e-03	0	62	0	810549248	57	7063
2026-01-19 00:07:59.34	225.11	52.59	-43.4	-48.6	9.8	1.21e-02	0	62	0	812646400	57	6902
2026-01-19 00:08:00.35	224.83	52.26	-43.0	-47.4	11.0	4.24e-03	0	62	0	814743552	57	6020
2026-01-19 00:08:01.36	224.55	51.93	-42.9	-47.1	11.3	1.98e-03	0	62	0	816840704	57	5821
2026-01-19 00:08:02.37	224.28	51.61	-43.5	-48.7	9.6	2.95e-03	0	62	0	818937856	57	7006
2026-01-19 00:08:03.38	224.02	51.28	-43.2	-47.9	10.5	5.53e-03	0	62	0	819986432	57	6378
2026-01-19 00:08:04.39	223.76	50.96	-42.8	-47.0	11.4	1.53e-03	0	62	0	822083584	57	5777
2026-01-19 00:08:05.40	223.51	50.63	-42.9	-47.2	11.2	7.30e-04	0	62	0	824180736	57	5889
2026-01-19 00:08:06.41	223.27	50.31	-43.0	-47.4	10.9	1.53e-03	0	62	0	826277888	57	6057
2026-01-19 00:08:07.42	223.03	50.00	-42.5	-46.4	12.1	5.16e-04	0	62	0	828375040	57	5350
2026-01-19 00:08:08.43	222.79	49.68	-42.0	-45.4	13.1	1.94e-04	0	62	0	830472192	56	5066
2026-01-19 00:08:09.44	222.56	49.36	-41.7	-44.9	13.4	2.67e-05	0	62	0	831520768	55	5085
2026-01-19 00:08:10.45	222.33	49.05	-41.8	-45.1	13.2	2.21e-05	0	62	0	833617920	55	5180
2026-01-19 00:08:11.45	222.11	48.74	-41.7	-45.0	13.3	3.20e-05	0	62	0	835715072	55	5127
2026-01-19 00:08:12.46	221.90	48.43	-41.7	-45.0	13.3	2.13e-05	0	62	0	837812224	55	5145
2026-01-19 00:08:13.47	221.68	48.12	-41.5	-44.6	13.7	3.00e-06	0	62	0	839909376	54	5213
2026-01-19 00:08:14.48	221.48	47.81	-42.0	-45.5	12.8	4.65e-05	0	62	0	840957952	54	5755
2026-01-19 00:08:15.49	221.27	47.51	-42.7	-46.8	11.3	4.58e-04	0	62	0	843055104	55	6325
2026-01-19 00:08:16.50	221.07	47.21	-42.8	-47.0	11.4	1.69e-03	0	62	0	845152256	56	6083
2026-01-19 00:08:17.51	220.87	46.90	-42.7	-46.8	11.6	7.07e-04	0	62	0	847249408	56	5981
2026-01-19 00:08:18.52	220.68	46.60	-43.2	-48.0	10.4	1.56e-03	0	62	0	849346560	56	6830
2026-01-19 00:08:19.53	220.49	46.31	-43.8	-49.5	8.9	9.18e-03	0	62	0	850395136	58	7255
2026-01-19 00:08:20.54	220.31	46.01	-43.9	-50.0	8.3	5.97e-02	0	62	0	852492288	58	7667
2026-01-19 00:08:21.55	220.13	45.72	-43.0	-47.5	10.9	1.92e-02	0	62	0	854589440	58	5748
2026-01-19 00:08:22.56	219.95	45.42	-42.9	-47.2	11.1	2.65e-03	0	62	0	856686592	57	5884
2026-01-19 00:08:23.57	219.77	45.13	-42.9	-47.3	11.3	1.33e-03	0	62	0	858783744	57	5924
2026-01-19 00:08:24.58	219.60	44.84	-43.2	-48.0	10.4	3.29e-03	0	62	0	859832320	57	6421
2026-01-19 00:08:25.59	219.43	44.56	-43.3	-48.1	10.2	6.30e-03	0	62	0	861929472	57	6557
2026-01-19 00:08:26.60	219.26	44.27	-43.3	-48.2	10.1	9.73e-03	0	62	0	864026624	57	6593
2026-01-19 00:08:27.61	219.10	43.99	-43.1	-47.8	10.6	4.72e-03	0	62	0	866123776	57	6322
2026-01-19 00:08:28.61	218.94	43.71	-43.5	-48.8	9.5	7.41e-03	0	62	0	868220928	57	7087
2026-01-19 00:08:29.62	218.79	43.43	-44.0	-50.2	8.1	6.96e-02	0	62	0	869269504	58	7825
2026-01-19 00:08:30.63	218.63	43.15	-44.4	-52.1	6.4	2.10e-01	0	62	0	871366656	59	9228
2026-01-19 00:08:31.64	218.48	42.87	-44.0	-50.1	8.1	2.15e-01	0	62	0	873463808	59	7371
2026-01-19 00:08:32.65	218.33	42.60	-44.0	-50.2	8.2	6.44e-02	0	62	0	875560960	59	7451
2026-01-19 00:08:33.66	218.19	42.33	-44.0	-50.5	7.8	7.90e-02	0	62	0	877658112	59	7677
2026-01-19 00:08:34.68	218.04	42.05	-44.0	-50.3	8.0	8.50e-02	0	62	0	878706688	59	7542
2026-01-19 00:08:35.68	217.90	41.79	-43.8	-49.6	8.7	7.79e-02	0	62	0	880803840	59	6954
2026-01-19 00:08:36.69	217.76	41.52	-43.4	-48.4	9.9	1.45e-02	0	62	0	882900992	58	6368
2026-01-19 00:08:37.70	217.62	41.25	-43.2	-47.8	10.6	6.87e-03	0	62	0	884998144	58	5970
2026-01-19 00:08:38.71	217.49	40.99	-42.9	-47.3	11.1	2.68e-03	0	62	0	887095296	57	5954
2026-01-19 00:08:39.72	217.36	40.73	-42.8	-47.0	11.3	1.63e-03	0	62	0	888143872	57	5744
2026-01-19 00:08:40.73	217.23	40.47	-43.1	-47.6	10.7	1.34e-03	0	62	0	890241024	57	6200
2026-01-19 00:08:41.74	217.10	40.21	-43.5	-48.7	9.7	5.97e-03	0	62	0	892338176	57	6961
2026-01-19 00:08:42.75	216.97	39.95	-43.4	-48.3	10.0	7.40e-03	0	62	0	894435328	57	6690
2026-01-19 00:08:43.76	216.85	39.69	-43.9	-49.8	8.5	3.06e-02	0	62	0	896532480	58	7482
2026-01-19 00:08:44.77	216.73	39.44	-43.8	-49.7	8.6	4.64e-02	0	62	0	898629632	58	7374
2026-01-19 00:08:45.78	216.61	39.19	-43.8	-49.6	8.6	2.90e-02	0	62	0	899678208	58	7357
2026-01-19 00:08:46.79	216.49	38.94	-43.8	-49.8	8.5	2.57e-02	0	62	0	901775360	58	7486
2026-01-19 00:08:47.80	216.37	38.69	-44.3	-51.5	6.8	4.21e-02	0	62	0	903872512	59	8615
2026-01-19 00:08:48.81	216.26	38.44	-44.3	-51.7	6.6	1.67e-01	0	62	0	905969664	59	8799
2026-01-19 00:08:49.82	216.14	38.20	-44.3	-51.5	6.8	1.97e-01	0	62	0	908066816	59	8625
2026-01-19 00:08:50.83	216.03	37.95	-43.9	-49.8	8.4	8.00e-02	0	62	0	909115392	59	7121
2026-01-19 00:08:51.84	215.92	37.71	-43.6	-48.9	9.4	2.57e-02	0	62	0	911212544	59	6405
2026-01-19 00:08:52.85	215.82	37.47	-43.2	-47.9	10.6	5.33e-03	0	62	0	913309696	58	6057
2026-01-19 00:08:53.86	215.71	37.23	-42.8	-46.9	11.4	4.94e-04	0	62	0	915406848	57	5714
2026-01-19 00:08:54.87	215.61	37.00	-42.5	-46.4	12.0	3.68e-04	0	62	0	917504000	56	5668
2026-01-19 00:08:55.88	215.50	36.76	-42.5	-46.5	11.9	2.13e-04	0	62	0	918552576	56	5748
2026-01-19 00:08:56.89	215.40	36.53	-42.4	-46.1	12.2	2.79e-04	0	62	0	920649728	56	5523
2026-01-19 00:08:57.89	215.30	36.30	-42.5	-46.3	12.1	1.91e-04	0	62	0	922746880	56	5613
2026-01-19 00:08:58.90	215.20	36.06	-42.4	-46.2	12.3	1.91e-04	0	62	0	924844032	56	5545
2026-01-19 00:08:59.91	215.11	35.83	-42.2	-45.8	12.6	1.14e-04	0	62	0	926941184	56	5328
2026-01-19 00:09:00.92	215.01	35.61	-42.7	-46.7	12.0	1.39e-04	0	62	0	927989760	56	5908
2026-01-19 00:09:01.93	214.92	35.38	-42.9	-47.4	11.1	1.10e-03	0	62	0	930086912	56	6357
2026-01-19 00:09:02.94	214.82	35.16	-43.3	-48.2	10.1	3.70e-03	0	62	0	932184064	57	6641
2026-01-19 00:09:03.95	214.73	34.93	-43.8	-49.8	8.5	2.62e-02	0	62	0	934281216	58	7498
2026-01-19 00:09:04.96	214.64	34.71	-44.2	-51.1	7.2	6.07e-02	0	62	0	936378368	58	8720
2026-01-19 00:09:05.97	214.55	34.49	-44.2	-51.2	7.2	1.73e-01	0	62	0	937426944	59	8290
2026-01-19 00:09:06.98	214.46	34.27	-44.1	-50.7	7.5	1.30e-01	0	62	0	939524096	59	7846
2026-01-19 00:09:07.99	214.38	34.05	-44.0	-50.2	8.0	1.02e-01	0	62	0	941621248	59	7447
2026-01-19 00:09:09.00	214.29	33.84	-43.9	-50.2	8.1	4.47e-02	0	62	0	943718400	59	7402
2026-01-19 00:09:10.01	214.21	33.62	-43.8	-49.6	8.7	4.22e-02	0	62	0	945815552	59	6895
2026-01-19 00:09:11.02	214.12	33.41	-43.8	-49.6	8.7	3.58e-02	0	62	0	946864128	59	6918
2026-01-19 00:09:12.02	214.04	33.20	-43.8	-49.8	8.3	4.90e-02	0	62	0	948961280	59	7101
2026-01-19 00:09:13.03	213.96	32.99	-43.6	-48.9	9.4	2.37e-02	0	62	0	951058432	59	6416
2026-01-19 00:09:14.04	213.88	32.78	-43.2	-48.1	10.3	9.04e-03	0	62	0	953155584	58	6163
2026-01-19 00:09:15.05	213.80	32.57	-43.1	-47.8	10.5	6.39e-03	0	62	0	955252736	58	5961
2026-01-19 00:09:16.06	213.72	32.37	-43.0	-47.5	10.9	2.93e-03	0	62	0	956301312	58	5738
2026-01-19 00:09:17.07	213.65	32.16	-43.1	-47.7	10.7	3.06e-03	0	62	0	958398464	58	5893
2026-01-19 00:09:18.08	213.57	31.96	-43.1	-47.6	10.8	3.98e-03	0	62	0	960495616	58	5844
2026-01-19 00:09:19.09	213.49	31.76	-43.2	-47.9	10.4	3.36e-03	0	62	0	962592768	58	6046
2026-01-19 00:09:20.10	213.42	31.55	-43.3	-48.3	10.0	5.97e-03	0	62	0	964689920	58	6332
2026-01-19 00:09:21.11	213.35	31.35	-43.5	-48.7	9.6	1.02e-02	0	62	0	966787072	58	6609
2026-01-19 00:09:22.12	213.28	31.16	-43.6	-49.2	9.1	2.03e-02	0	62	0	967835648	58	7031
2026-01-19 00:09:23.13	213.20	30.96	-43.1	-49.9	8.2	4.66e-02	0	62	0	969932800	57	8011
2026-01-19 00:09:24.13	213.13	30.77	-43.4	-50.0	8.0	7.49e-02	0	62	0	972029952	57	8168
2026-01-19 00:09:25.14	213.06	30.57	-43.4	-50.1	8.0	8.00e-02	0	62	0	974127104	57	8226
2026-01-19 00:09:26.15	213.00	30.38	-43.7	-50.6	7.5	1.15e-01	0	62	0	976224256	58	8267
2026-01-19 00:09:27.16	212.93	30.19	-43.3	-50.8	7.3	1.66e-01	0	62	0	977272832	58	8427
2026-01-19 00:09:28.17	212.86	29.99	-43.1	-51.2	6.8	1.89e-01	0	62	0	979369984	58	8802
2026-01-19 00:09:29.18	212.80	29.81	-43.6	-51.5	6.6	1.95e-01	0	62	0	981467136	58	9105
2026-01-19 00:09:30.19	212.73	29.62	-43.6	-50.6	7.4	1.72e-01	0	62	0	983564288	58	8198
2026-01-19 00:09:31.20	212.67	29.43	-43.8	-51.0	7.1	1.42e-01	0	62	0	985661440	58	8619
2026-01-19 00:09:32.21	212.60	29.24	-43.7	-51.8	6.3	3.87e-01	0	62	0	986710016	58	9395
2026-01-19 00:09:33.22	212.54	29.06	-44.8	-57.4	3.8	1.05e+00	0	62	104	987758592	60	16070
2026-01-19 00:09:34.23	212.48	28.88	-44.0	-54.4	4.7	1.14e+00	0	62	0	987758592	60	11323
2026-01-19 00:09:35.24	212.41	28.69	-44.8	-57.7	3.8	1.35e+00	0	62	104	988807168	60	16571
2026-01-19 00:09:36.25	212.35	28.51	-43.8	-50.5	7.6	2.98e-01	0	62	0	988807168	59	7669
2026-01-19 00:09:37.26	212.29	28.33	-43.7	-50.2	7.9	1.11e-01	0	62	0	990904320	59	7398
2026-01-19 00:09:38.27	212.23	28.15	-43.6	-49.8	8.1	8.45e-02	0	62	0	993001472	59	7106
2026-01-19 00:09:39.28	212.18	27.97	-43.5	-49.7	8.3	6.54e-02	0	62	0	995098624	59	7040
2026-01-19 00:09:40.29	212.12	27.80	-43.4	-49.2	8.8	4.64e-02	0	62	0	996147200	58	7026
2026-01-19 00:09:41.30	212.06	27.62	-43.3	-48.7	9.3	3.33e-02	0	62	0	998244352	58	6592
2026-01-19 00:09:42.31	212.00	27.45	-43.0	-48.1	9.9	2.25e-02	0	62	0	1000341504	58	6196
2026-01-19 00:09:43.32	211.95	27.27	-42.9	-48.0	10.1	1.22e-02	0	62	0	1002438656	57	6450
2026-01-19 00:09:44.33	211.89	27.10	-42.2	-47.2	10.7	1.89e-02	0	62	0	1004535808	56	6242
2026-01-19 00:09:45.34	211.84	26.93	-41.6	-46.5	11.3	2.30e-02	0	62	0	1005584384	55	6099
2026-01-19 00:09:46.34	211.78	26.76	-41.3	-46.0	11.7	2.24e-02	0	62	0	1007681536	54	6077
2026-01-19 00:09:47.35	211.73	26.59	-41.5	-45.7	12.0	2.25e-02	0	62	0	1009778688	54	5896
2026-01-19 00:09:48.36	211.68	26.42	-41.5	-45.5	12.5	4.76e-03	0	62	0	1011875840	54	5743
2026-01-19 00:09:49.37	211.62	26.25	-41.8	-45.7	12.5	1.42e-04	0	62	0	1013972992	54	5862
2026-01-19 00:09:50.38	211.57	26.09	-42.0	-45.8	12.3	1.79e-04	0	62	0	1015021568	54	5979
2026-01-19 00:09:51.39	211.52	25.92	-42.0	-45.8	12.3	2.78e-04	0	62	0	1017118720	54	5928
2026-01-19 00:09:52.40	211.47	25.76	-42.0	-45.9	12.0	1.53e-03	0	62	0	1019215872	54	6043
2026-01-19 00:09:53.41	211.42	25.60	-42.1	-46.3	11.5	7.84e-03	0	62	0	1021313024	54	6293
2026-01-19 00:09:54.42	211.37	25.43	-42.4	-46.8	11.0	1.41e-02	0	62	0	1023410176	55	6292
2026-01-19 00:09:55.43	211.32	25.27	-42.6	-47.2	10.6	1.46e-02	0	62	0	1024458752	55	6641
2026-01-19 00:09:56.44	211.27	25.11	-43.0	-47.8	10.2	1.46e-02	0	62	0	1026555904	56	6723
2026-01-19 00:09:57.45	211.23	24.95	-43.3	-48.8	9.2	3.01e-02	0	62	0	1028653056	57	7078
2026-01-19 00:09:58.46	211.18	24.79	-43.4	-49.2	8.8	4.52e-02	0	62	0	1030750208	57	7394
2026-01-19 00:09:59.46	211.13	24.64	-43.6	-49.9	8.1	5.45e-02	0	62	0	1032847360	57	8009
2026-01-19 00:10:00.47	211.08	24.48	-43.8	-50.3	7.7	8.73e-02	0	62	0	1033895936	58	7990
2026-01-19 00:10:01.48	211.04	24.32	-43.8	-50.2	7.9	7.34e-02	0	62	0	1035993088	58	7846
2026-01-19 00:10:02.49	210.99	24.17	-43.7	-49.8	8.3	6.62e-02	0	62	0	1038090240	58	7529
2026-01-19 00:10:03.50	210.95	24.01	-43.5	-49.3	8.9	3.44e-02	0	62	0	1040187392	58	7089
2026-01-19 00:10:04.51	210.90	23.86	-43.5	-49.2	8.9	3.12e-02	0	62	0	1042284544	58	7009
2026-01-19 00:10:05.52	210.86	23.71	-43.4	-48.8	9.4	1.98e-02	0	62	0	1043333120	58	6672
2026-01-19 00:10:06.53	210.82	23.56	-43.4	-48.7	9.5	1.51e-02	0	62	0	1045430272	58	6620
2026-01-19 00:10:07.54	210.77	23.41	-43.1	-48.0	10.2	1.08e-02	0	62	0	1047527424	58	6129
2026-01-19 00:10:08.55	210.73	23.26	-43.1	-48.0	10.2	5.86e-03	0	62	0	1049624576	58	6109
2026-01-19 00:10:09.56	210.69	23.11	-43.0	-47.8	10.4	7.15e-03	0	62	0	1051721728	58	5971
2026-01-19 00:10:10.57	210.64	22.96	-42.9	-47.7	10.5	3.48e-03	0	62	0	1053818880	57	6220
2026-01-19 00:10:11.58	210.60	22.81	-43.0	-47.7	10.4	3.58e-03	0	62	0	1054867456	57	6259
2026-01-19 00:10:12.59	210.56	22.67	-42.8	-47.4	10.7	3.98e-03	0	62	0	1056964608	57	6050
2026-01-19 00:10:13.60	210.52	22.52	-42.8	-47.2	11.0	2.99e-03	0	62	0	1059061760	57	5906
2026-01-19 00:10:14.61	210.48	22.38	-42.8	-47.4	10.7	3.01e-03	0	62	0	1061158912	57	6061
2026-01-19 00:10:15.62	210.44	22.23	-42.8	-47.4	10.7	3.00e-03	0	62	0	1063256064	57	6044
2026-01-19 00:10:16.63	210.40	22.09	-42.8	-47.4	10.7	3.62e-03	0	62	0	1064304640	57	6055
2026-01-19 00:10:17.64	210.36	21.95	-42.7	-47.0	11.2	1.53e-03	0	62	0	1066401792	57	5766
2026-01-19 00:10:18.65	210.32	21.80	-42.7	-47.0	11.2	1.24e-03	0	62	0	1068498944	57	5781
2026-01-19 00:10:19.66	210.29	21.66	-42.5	-46.8	11.3	1.28e-03	0	62	0	1070596096	57	5631
2026-01-19 00:10:20.67	210.25	21.52	-42.5	-46.6	11.5	1.20e-03	0	62	0	1072693248	56	5847
2026-01-19 00:10:21.68	210.21	21.38	-42.5	-46.8	11.4	1.19e-03	0	62	0	1073741824	56	5929
2026-01-19 00:10:22.68	210.17	21.25	-42.5	-46.7	11.5	8.70e-04	0	62	0	1075838976	56	5898
2026-01-19 00:10:23.69	210.14	21.11	-42.5	-46.7	11.5	8.70e-04	0	62	0	1077936128	56	5884
2026-01-19 00:10:24.70	210.10	20.97	-42.4	-46.4	11.8	7.15e-04	0	62	0	1080033280	56	5716
2026-01-19 00:10:25.71	210.06	20.84	-42.3	-46.4	11.8	4.56e-04	0	62	0	1082130432	56	5679
2026-01-19 00:10:26.72	210.03	20.70	-42.4	-46.5	11.7	7.24e-04	0	62	0	1083179008	56	5724
2026-01-19 00:10:27.73	209.99	20.57	-42.5	-46.6	11.5	5.68e-04	0	62	0	1085276160	56	5851
2026-01-19 00:10:28.74	209.96	20.43	-42.4	-46.6	11.6	6.68e-04	0	62	0	1087373312	56	5798
2026-01-19 00:10:29.75	209.92	20.30	-42.6	-46.9	11.2	1.21e-03	0	62	0	1089470464	56	6047
2026-01-19 00:10:30.76	209.89	20.16	-42.5	-46.8	11.3	1.24e-03	0	62	0	1091567616	56	5987
2026-01-19 00:10:31.77	209.85	20.03	-42.5	-46.7	11.4	9.40e-04	0	62	0	1092616192	56	5911
2026-01-19 00:10:32.78	209.82	19.90	-42.5	-46.8	11.3	1.10e-03	0	62	0	1094713344	56	5941
2026-01-19 00:10:33.79	209.78	19.77	-42.5	-46.8	11.3	1.66e-03	0	62	0	1096810496	56	5956
2026-01-19 00:10:34.80	209.75	19.64	-42.5	-46.7	11.5	1.18e-03	0	62	0	1098907648	56	5871
2026-01-19 00:10:35.81	209.72	19.51	-42.6	-47.0	11.1	9.73e-04	0	62	0	1101004800	56	6092
2026-01-19 00:10:36.82	209.69	19.38	-42.6	-47.1	11.1	1.67e-03	0	62	0	1102053376	56	6157
2026-01-19 00:10:37.83	209.65	19.25	-42.4	-46.6	11.6	1.06e-03	0	62	0	1104150528	56	5801
2026-01-19 00:10:38.84	209.62	19.13	-42.6	-46.9	11.2	1.12e-03	0	62	0	1106247680	56	6050
2026-01-19 00:10:39.84	209.59	19.00	-42.6	-47.0	11.2	1.17e-03	0	62	0	1108344832	56	6089
2026-01-19 00:10:40.85	209.56	18.87	-42.6	-47.0	11.1	1.32e-03	0	62	0	1110441984	56	6072
2026-01-19 00:10:41.86	209.53	18.75	-42.7	-47.2	10.9	1.74e-03	0	62	0	1111490560	56	6249
2026-01-19 00:10:42.87	209.50	18.62	-42.5	-46.9	11.2	1.64e-03	0	62	0	1113587712	56	5994
2026-01-19 00:10:43.88	209.46	18.50	-42.7	-47.2	10.8	1.91e-03	0	62	0	1115684864	56	6274
2026-01-19 00:10:44.89	209.43	18.38	-42.7	-47.4	10.8	2.58e-03	0	62	0	1117782016	56	6355
2026-01-19 00:10:45.90	209.40	18.25	-42.9	-47.9	10.2	4.49e-03	0	62	0	1119879168	56	6757
2026-01-19 00:10:46.91	209.37	18.13	-42.9	-47.9	10.1	7.41e-03	0	62	0	1121976320	56	6787
2026-01-19 00:10:47.92	209.34	18.01	-43.0	-48.1	10.0	7.03e-03	0	62	0	1123024896	56	6891
2026-01-19 00:10:48.93	209.32	17.89	-43.0	-48.2	9.9	8.41e-03	0	62	0	1125122048	56	6966
2026-01-19 00:10:49.94	209.29	17.77	-43.1	-48.3	9.7	1.15e-02	0	62	0	1127219200	56	7066
2026-01-19 00:10:50.95	209.26	17.65	-43.2	-48.7	9.3	1.79e-02	0	62	0	1129316352	57	7023
2026-01-19 00:10:51.96	209.23	17.53	-43.3	-48.9	9.1	2.21e-02	0	62	0	1131413504	57	7169
2026-01-19 00:10:52.97	209.20	17.41	-43.3	-48.8	9.2	2.18e-02	0	62	0	1132462080	57	7088
2026-01-19 00:10:53.97	209.17	17.29	-43.4	-49.1	8.9	3.07e-02	0	62	0	1134559232	57	7334
2026-01-19 00:10:54.98	209.14	17.17	-43.3	-48.9	9.2	2.46e-02	0	62	0	1136656384	57	7125
2026-01-19 00:10:55.99	209.12	17.06	-43.2	-48.6	9.4	1.66e-02	0	62	0	1138753536	57	6906
2026-01-19 00:10:57.00	209.09	16.94	-43.2	-48.6	9.4	1.69e-02	0	62	0	1140850688	57	6887
2026-01-19 00:10:58.00	209.06	16.82	-43.1	-48.3	9.7	1.44e-02	0	62	0	1141899264	57	6695
2026-01-19 00:10:59.01	209.04	16.71	-43.1	-48.3	9.6	1.27e-02	0	62	0	1143996416	57	6701
2026-01-19 00:11:00.02	209.01	16.59	-42.9	-47.9	10.1	7.50e-03	0	62	0	1146093568	57	6372
2026-01-19 00:11:01.04	208.98	16.48	-42.9	-47.7	10.2	6.79e-03	0	62	0	1148190720	57	6274
2026-01-19 00:11:02.04	208.96	16.36	-42.8	-47.5	10.5	5.24e-03	0	62	0	1150287872	57	6085
2026-01-19 00:11:03.05	208.93	16.25	-42.7	-47.3	10.6	3.21e-03	0	62	0	1151336448	57	5970
2026-01-19 00:11:04.06	208.90	16.14	-42.7	-47.3	10.7	3.38e-03	0	62	0	1153433600	57	5949
2026-01-19 00:11:05.07	208.88	16.02	-42.7	-47.3	10.6	3.37e-03	0	62	0	1155530752	57	5983
2026-01-19 00:11:06.08	208.85	15.91	-42.6	-47.2	10.8	2.55e-03	0	62	0	1157627904	57	5878
2026-01-19 00:11:07.09	208.83	15.80	-42.7	-47.4	10.6	2.67e-03	0	62	0	1159725056	57	6012
2026-01-19 00:11:08.10	208.80	15.69	-42.7	-47.4	10.6	3.58e-03	0	62	0	1160773632	57	6013
2026-01-19 00:11:09.11	208.78	15.58	-42.7	-47.3	10.6	3.32e-03	0	62	0	1162870784	57	5977
2026-01-19 00:11:10.12	208.75	15.47	-42.8	-47.6	10.3	4.11e-03	0	62	0	1164967936	57	6195
2026-01-19 00:11:11.12	208.73	15.36	-42.9	-47.8	10.2	6.05e-03	0	62	0	1167065088	57	6300
2026-01-19 00:11:12.13	208.70	15.25	-42.9	-47.8	10.1	7.37e-03	0	62	0	1169162240	57	6316
2026-01-19 00:11:13.14	208.68	15.14	-43.0	-48.1	9.8	8.95e-03	0	62	0	1170210816	57	6534
2026-01-19 00:11:14.16	208.66	15.03	-43.1	-48.5	9.4	1.59e-02	0	62	0	1172307968	57	6875
2026-01-19 00:11:15.16	208.63	14.93	-43.1	-48.5	9.3	1.68e-02	0	62	0	1174405120	57	6868
