passes_logs/2026/01/18/R2.0S_Moscow/R2.0S_Moscow__20260118_232949_NOAA_21_JPSS-2_rec.log

#Pass ID: 20260118_232949_NOAA 21 (JPSS-2)
#Satellite: NOAA 21 (JPSS-2)
#Configuration: NOAA-21
#almurnet v.1.7.20251203
#Start time: 2026-01-18 23:29:48

#Version: 2.2.20231116
#Station: R2.0S_Moscow
#Location: 37.707566 lon 55.798166 lat
#TLE: 1 54234U 22150A   26017.90260625  .00000050  00000+0  44518-4 0  9994
#TLE: 2 54234  98.7502 318.7672 0000612 269.1755  90.9351 14.19535344165221

#Time	Az	El	Level	Level2	SNR	BER	BlckErr	Temp	State	Recorded	gain1	gain2
2026-01-18 23:29:48.74	16.92	1.97	-41.7	-54.7	3.8	1.49e+00	0	52	0	0	54	16563
2026-01-18 23:29:49.75	16.93	2.03	-41.7	-54.7	3.8	1.49e+00	0	52	104	0	54	16633
2026-01-18 23:29:50.76	16.94	2.10	-41.6	-54.7	3.8	1.49e+00	0	52	104	0	54	16611
2026-01-18 23:29:51.77	16.95	2.16	-41.6	-54.7	3.8	1.49e+00	0	52	104	0	54	16572
2026-01-18 23:29:52.78	16.96	2.23	-41.7	-54.7	3.8	1.49e+00	0	52	104	0	54	16597
2026-01-18 23:29:53.80	16.98	2.29	-41.6	-54.7	3.8	1.49e+00	0	52	104	0	54	16524
2026-01-18 23:29:54.81	16.99	2.36	-41.6	-54.7	3.8	1.49e+00	0	52	104	0	54	16573
2026-01-18 23:29:55.82	17.00	2.42	-41.6	-54.7	3.8	1.49e+00	0	53	104	0	54	16578
2026-01-18 23:29:56.83	17.01	2.49	-41.7	-54.7	3.8	1.49e+00	0	53	104	0	54	16570
2026-01-18 23:29:57.84	17.02	2.55	-41.7	-54.7	3.8	1.49e+00	0	53	104	0	54	16536
2026-01-18 23:29:58.85	17.03	2.62	-41.7	-54.7	3.8	1.49e+00	0	53	104	0	54	16559
2026-01-18 23:29:59.86	17.05	2.68	-41.7	-54.7	3.8	1.49e+00	0	53	104	0	54	16551
2026-01-18 23:30:00.87	17.06	2.75	-41.7	-54.7	3.8	1.49e+00	0	53	104	0	54	16580
2026-01-18 23:30:01.88	17.07	2.81	-41.7	-54.7	3.8	1.49e+00	0	53	104	0	54	16574
2026-01-18 23:30:02.89	17.08	2.88	-41.8	-54.7	3.8	1.49e+00	0	53	104	0	54	16603
2026-01-18 23:30:03.90	17.09	2.95	-41.8	-54.7	3.8	1.49e+00	0	53	104	0	54	16539
2026-01-18 23:30:04.91	17.11	3.01	-41.8	-54.7	3.8	1.49e+00	0	53	104	0	54	16623
2026-01-18 23:30:05.92	17.12	3.08	-41.8	-54.7	3.8	1.49e+00	0	53	104	0	54	16539
2026-01-18 23:30:06.93	17.13	3.15	-41.8	-54.7	3.8	1.49e+00	0	53	104	0	54	16539
2026-01-18 23:30:07.94	17.14	3.21	-41.7	-54.7	3.8	1.49e+00	0	54	104	0	54	16584
2026-01-18 23:30:08.95	17.15	3.28	-41.7	-54.7	3.8	1.49e+00	0	54	104	0	54	16545
2026-01-18 23:30:09.96	17.17	3.35	-41.7	-54.7	3.8	1.49e+00	0	54	104	0	54	16566
2026-01-18 23:30:10.97	17.18	3.41	-41.7	-54.7	3.8	1.49e+00	0	53	104	0	54	16525
2026-01-18 23:30:11.98	17.19	3.48	-41.8	-54.7	3.8	1.49e+00	0	54	104	0	54	16529
2026-01-18 23:30:12.99	17.20	3.55	-41.7	-54.7	3.8	1.49e+00	0	54	104	0	54	16594
2026-01-18 23:30:14.00	17.22	3.62	-41.7	-54.7	3.8	1.49e+00	0	54	104	0	54	16512
2026-01-18 23:30:15.01	17.23	3.68	-41.8	-54.7	3.8	1.49e+00	0	54	104	0	54	16554
2026-01-18 23:30:16.02	17.24	3.75	-41.8	-54.7	3.8	1.49e+00	0	54	104	0	54	16581
2026-01-18 23:30:17.03	17.25	3.82	-41.8	-54.7	3.8	1.49e+00	0	54	104	0	54	16554
2026-01-18 23:30:18.04	17.27	3.89	-41.8	-54.7	3.8	1.49e+00	0	54	104	0	54	16555
2026-01-18 23:30:19.05	17.28	3.96	-41.8	-54.7	3.8	1.49e+00	0	54	104	0	54	16603
2026-01-18 23:30:20.06	17.29	4.03	-41.8	-54.7	3.8	1.49e+00	0	54	104	0	54	16570
2026-01-18 23:30:21.07	17.30	4.10	-41.8	-54.7	3.8	1.49e+00	0	54	104	0	54	16544
2026-01-18 23:30:22.08	17.32	4.17	-41.8	-54.7	3.8	1.49e+00	0	54	104	0	54	16546
2026-01-18 23:30:23.10	17.33	4.24	-41.8	-54.7	3.8	1.49e+00	0	55	104	0	54	16514
2026-01-18 23:30:24.11	17.34	4.31	-41.8	-54.7	3.8	1.49e+00	0	54	104	0	54	16551
2026-01-18 23:30:25.12	17.35	4.38	-41.8	-54.7	3.8	1.49e+00	0	54	104	0	54	16556
2026-01-18 23:30:26.13	17.37	4.45	-41.8	-54.7	3.8	1.49e+00	0	55	104	0	54	16572
2026-01-18 23:30:27.14	17.38	4.52	-41.7	-54.7	3.8	1.49e+00	0	55	104	0	54	16537
2026-01-18 23:30:28.15	17.39	4.59	-41.8	-54.6	3.8	1.49e+00	0	55	104	0	54	16502
2026-01-18 23:30:29.16	17.41	4.66	-41.8	-54.7	3.8	1.49e+00	0	55	104	0	54	16521
2026-01-18 23:30:30.17	17.42	4.73	-41.8	-54.7	3.8	1.49e+00	0	55	104	0	54	16521
2026-01-18 23:30:31.18	17.43	4.80	-41.8	-54.7	3.8	1.49e+00	0	55	104	0	54	16539
2026-01-18 23:30:32.19	17.45	4.87	-41.7	-54.7	3.8	1.49e+00	0	55	104	0	54	16516
2026-01-18 23:30:33.20	17.46	4.94	-41.7	-54.7	3.8	1.49e+00	0	55	104	0	54	16524
2026-01-18 23:30:34.21	17.47	5.01	-41.8	-54.7	3.8	1.49e+00	0	55	104	0	54	16518
2026-01-18 23:30:35.22	17.49	5.08	-41.8	-54.7	3.8	1.49e+00	0	55	104	0	54	16517
2026-01-18 23:30:36.23	17.50	5.15	-41.8	-54.7	3.8	1.49e+00	0	55	104	0	54	16580
2026-01-18 23:30:37.25	17.51	5.23	-41.8	-54.7	3.8	1.49e+00	0	55	104	0	54	16534
2026-01-18 23:30:38.26	17.53	5.30	-41.8	-54.7	3.8	1.49e+00	0	55	104	0	54	16522
2026-01-18 23:30:39.27	17.54	5.37	-41.8	-54.7	3.8	1.49e+00	0	55	104	0	54	16522
2026-01-18 23:30:40.28	17.55	5.44	-41.8	-54.7	3.8	1.49e+00	0	55	104	0	54	16529
2026-01-18 23:30:41.29	17.57	5.52	-41.8	-54.7	3.8	1.49e+00	0	55	104	0	54	16514
2026-01-18 23:30:42.30	17.58	5.59	-41.8	-54.7	3.8	1.49e+00	0	56	104	0	54	16547
2026-01-18 23:30:43.31	17.59	5.66	-41.8	-54.7	3.8	1.49e+00	0	56	104	0	54	16550
2026-01-18 23:30:44.32	17.61	5.74	-41.8	-54.6	3.8	1.49e+00	0	55	104	0	54	16436
2026-01-18 23:30:45.33	17.62	5.81	-41.7	-54.7	3.8	1.49e+00	0	56	104	0	54	16522
2026-01-18 23:30:46.34	17.63	5.88	-41.8	-54.6	3.8	1.49e+00	0	56	104	0	54	16494
2026-01-18 23:30:47.35	17.65	5.96	-41.7	-54.7	3.8	1.49e+00	0	56	104	0	54	16523
2026-01-18 23:30:48.36	17.66	6.03	-41.8	-54.7	3.8	1.49e+00	0	55	104	0	54	16538
2026-01-18 23:30:49.37	17.67	6.11	-41.8	-54.6	3.8	1.49e+00	0	56	104	0	54	16486
2026-01-18 23:30:50.38	17.69	6.18	-41.8	-54.6	3.8	1.49e+00	0	56	104	0	54	16479
2026-01-18 23:30:51.39	17.70	6.26	-41.8	-54.6	3.8	1.49e+00	0	56	104	0	54	16493
2026-01-18 23:30:52.40	17.72	6.33	-41.8	-54.6	3.8	1.49e+00	0	56	104	0	54	16473
2026-01-18 23:30:53.41	17.73	6.41	-41.7	-54.6	3.8	1.49e+00	0	56	104	0	54	16473
2026-01-18 23:30:54.42	17.74	6.48	-41.8	-54.7	3.8	1.49e+00	0	56	104	0	54	16506
2026-01-18 23:30:55.43	17.76	6.56	-41.8	-54.7	3.8	1.49e+00	0	56	104	0	54	16561
2026-01-18 23:30:56.44	17.77	6.63	-41.8	-54.6	3.8	1.49e+00	0	56	104	0	54	16503
2026-01-18 23:30:57.45	17.79	6.71	-41.8	-54.6	3.8	1.49e+00	0	56	104	0	54	16446
2026-01-18 23:30:58.47	17.80	6.79	-41.8	-54.6	3.8	1.49e+00	0	56	104	0	54	16442
2026-01-18 23:30:59.47	17.82	6.86	-41.7	-54.6	3.8	1.49e+00	0	56	104	0	54	16357
2026-01-18 23:31:00.48	17.83	6.94	-41.7	-54.5	3.8	1.49e+00	0	56	104	0	54	16239
2026-01-18 23:31:01.49	17.84	7.02	-41.7	-54.4	3.8	1.49e+00	0	56	104	0	54	16027
2026-01-18 23:31:02.51	17.86	7.10	-41.7	-54.2	3.8	1.49e+00	0	56	104	0	54	15722
2026-01-18 23:31:03.52	17.87	7.17	-41.7	-54.1	3.8	1.49e+00	0	56	104	0	54	15423
2026-01-18 23:31:04.53	17.89	7.25	-41.7	-53.9	3.8	1.49e+00	0	56	104	0	54	15135
2026-01-18 23:31:05.54	17.90	7.33	-41.7	-53.8	3.8	1.49e+00	0	56	104	0	54	14900
2026-01-18 23:31:06.55	17.92	7.41	-41.7	-53.5	3.8	1.49e+00	0	57	104	0	54	14453
2026-01-18 23:31:07.56	17.93	7.49	-41.6	-53.1	3.8	1.49e+00	0	57	104	0	54	13789
2026-01-18 23:31:08.57	17.95	7.56	-41.5	-52.0	4.0	1.48e+00	0	57	104	0	54	12130
2026-01-18 23:31:09.58	17.96	7.64	-41.4	-51.0	4.2	1.46e+00	0	57	104	0	54	10792
2026-01-18 23:31:10.59	17.98	7.72	-41.2	-49.8	4.6	1.22e+00	0	57	104	0	54	9427
2026-01-18 23:31:11.60	17.99	7.80	-41.1	-48.7	5.2	7.19e-01	0	57	0	1048576	54	8361
2026-01-18 23:31:12.61	18.01	7.88	-40.8	-47.7	5.8	4.38e-01	0	57	0	4194304	53	7885
2026-01-18 23:31:13.62	18.02	7.96	-40.6	-46.6	6.7	2.30e-01	0	57	0	7340032	53	6938
2026-01-18 23:31:14.63	18.04	8.04	-40.3	-45.7	7.6	1.15e-01	0	57	0	10485760	52	6635
2026-01-18 23:31:15.64	18.05	8.12	-40.2	-45.1	8.5	5.24e-02	0	57	0	13631488	52	6149
2026-01-18 23:31:16.65	18.07	8.20	-40.9	-45.6	8.5	2.58e-02	0	57	0	16777216	52	6543
2026-01-18 23:31:17.66	18.08	8.29	-40.5	-46.6	7.0	2.05e-02	0	57	0	19922944	51	7750
2026-01-18 23:31:18.67	18.10	8.37	-41.2	-51.1	4.1	1.49e+00	0	57	104	19922944	52	12305
2026-01-18 23:31:19.68	18.11	8.45	-40.1	-44.0	9.9	7.09e-01	0	57	0	19922944	52	5408
2026-01-18 23:31:20.69	18.13	8.53	-40.6	-44.9	9.1	2.93e-02	0	57	0	23068672	52	6028
2026-01-18 23:31:21.70	18.15	8.61	-40.7	-45.2	8.9	3.02e-02	0	57	0	26214400	52	6203
2026-01-18 23:31:22.71	18.16	8.69	-40.5	-44.4	9.7	1.27e-02	0	57	0	29360128	52	5704
2026-01-18 23:31:23.72	18.18	8.78	-40.4	-44.2	10.1	7.13e-03	0	57	0	32505856	52	5545
2026-01-18 23:31:24.73	18.19	8.86	-40.4	-44.2	10.1	6.76e-03	0	57	0	35651584	52	5530
2026-01-18 23:31:25.74	18.21	8.94	-40.3	-44.0	10.2	5.57e-03	0	57	0	38797312	52	5445
2026-01-18 23:31:26.75	18.22	9.03	-40.4	-44.2	10.1	7.05e-03	0	57	0	41943040	52	5565
2026-01-18 23:31:27.76	18.24	9.11	-40.5	-44.3	10.1	6.52e-03	0	57	0	45088768	52	5593
2026-01-18 23:31:28.77	18.26	9.19	-40.4	-44.1	10.3	5.84e-03	0	57	0	48234496	52	5493
2026-01-18 23:31:29.78	18.27	9.28	-40.4	-44.1	10.3	5.39e-03	0	57	0	51380224	52	5469
2026-01-18 23:31:30.79	18.29	9.36	-40.5	-44.2	10.2	6.22e-03	0	57	0	54525952	52	5589
2026-01-18 23:31:31.80	18.31	9.45	-40.5	-44.2	10.2	5.47e-03	0	57	0	57671680	52	5584
2026-01-18 23:31:32.81	18.32	9.53	-40.5	-44.1	10.4	4.53e-03	0	58	0	60817408	52	5481
2026-01-18 23:31:33.82	18.34	9.62	-40.6	-44.2	10.3	4.71e-03	0	58	0	63963136	52	5583
2026-01-18 23:31:34.83	18.35	9.70	-40.6	-44.3	10.2	6.78e-03	0	57	0	67108864	52	5630
2026-01-18 23:31:35.84	18.37	9.79	-40.4	-43.9	10.7	3.54e-03	0	58	0	70254592	52	5357
2026-01-18 23:31:36.85	18.39	9.88	-40.5	-44.0	10.7	3.06e-03	0	58	0	73400320	52	5416
2026-01-18 23:31:37.86	18.40	9.96	-40.4	-43.7	11.0	2.15e-03	0	58	0	76546048	52	5254
2026-01-18 23:31:38.87	18.42	10.05	-40.6	-44.1	10.6	2.87e-03	0	58	0	79691776	52	5477
2026-01-18 23:31:39.87	18.44	10.14	-40.5	-43.9	10.8	2.10e-03	0	58	0	82837504	52	5395
2026-01-18 23:31:40.88	18.45	10.22	-40.6	-44.0	10.8	3.09e-03	0	58	0	85983232	52	5456
2026-01-18 23:31:41.89	18.47	10.31	-40.6	-43.9	10.9	2.08e-03	0	58	0	89128960	52	5388
2026-01-18 23:31:42.90	18.49	10.40	-40.7	-44.1	10.8	2.78e-03	0	58	0	92274688	52	5470
2026-01-18 23:31:43.91	18.51	10.49	-40.7	-44.1	10.8	2.48e-03	0	58	0	95420416	52	5471
2026-01-18 23:31:44.93	18.52	10.58	-40.6	-43.9	11.0	2.70e-03	0	58	0	98566144	52	5393
2026-01-18 23:31:45.94	18.54	10.67	-40.5	-43.8	11.1	1.39e-03	0	58	0	101711872	52	5303
2026-01-18 23:31:46.94	18.56	10.76	-40.6	-43.9	11.0	1.83e-03	0	58	0	104857600	52	5392
2026-01-18 23:31:47.96	18.58	10.85	-40.6	-43.9	11.0	1.58e-03	0	58	0	108003328	52	5365
2026-01-18 23:31:48.97	18.59	10.94	-40.6	-43.8	11.2	1.63e-03	0	58	0	111149056	52	5290
2026-01-18 23:31:49.98	18.61	11.03	-40.6	-43.9	11.1	1.54e-03	0	58	0	114294784	52	5349
2026-01-18 23:31:50.99	18.63	11.12	-40.5	-43.6	11.3	1.06e-03	0	58	0	117440512	52	5202
2026-01-18 23:31:52.00	18.65	11.21	-40.6	-43.7	11.3	8.89e-04	0	58	0	120586240	52	5261
2026-01-18 23:31:53.01	18.66	11.30	-40.5	-43.5	11.5	8.19e-04	0	58	0	123731968	52	5149
2026-01-18 23:31:54.02	18.68	11.39	-40.5	-43.6	11.5	7.62e-04	0	58	0	126877696	52	5169
2026-01-18 23:31:55.02	18.70	11.48	-40.3	-43.3	11.8	5.71e-04	0	58	0	130023424	52	5003
2026-01-18 23:31:56.03	18.72	11.58	-40.4	-43.3	11.8	4.81e-04	0	58	0	133169152	52	5029
2026-01-18 23:31:57.04	18.74	11.67	-40.4	-43.3	11.8	5.22e-04	0	58	0	136314880	52	5028
2026-01-18 23:31:58.05	18.75	11.76	-40.4	-43.4	11.7	5.67e-04	0	58	0	139460608	52	5062
2026-01-18 23:31:59.06	18.77	11.86	-40.4	-43.3	11.8	5.17e-04	0	58	0	142606336	52	5033
2026-01-18 23:32:00.07	18.79	11.95	-40.4	-43.3	11.9	4.42e-04	0	58	0	145752064	52	5000
2026-01-18 23:32:01.08	18.81	12.05	-40.3	-43.1	12.1	3.44e-04	0	58	0	148897792	52	4915
2026-01-18 23:32:02.09	18.83	12.14	-40.3	-43.1	12.1	2.43e-04	0	58	0	152043520	52	4913
2026-01-18 23:32:03.10	18.85	12.23	-40.3	-43.1	12.1	2.78e-04	0	58	0	155189248	52	4896
2026-01-18 23:32:04.11	18.87	12.33	-40.3	-43.1	12.1	2.59e-04	0	58	0	158334976	52	4909
2026-01-18 23:32:05.12	18.89	12.43	-40.2	-43.0	12.2	2.18e-04	0	59	0	161480704	52	4841
2026-01-18 23:32:06.13	18.90	12.52	-40.3	-43.1	12.1	2.47e-04	0	58	0	164626432	52	4902
2026-01-18 23:32:07.14	18.92	12.62	-40.3	-43.2	12.1	2.55e-04	0	58	0	167772160	52	4929
2026-01-18 23:32:08.15	18.94	12.72	-40.2	-43.0	12.3	2.10e-04	0	59	0	170917888	52	4820
2026-01-18 23:32:09.16	18.96	12.81	-40.2	-43.0	12.2	2.24e-04	0	58	0	174063616	52	4863
2026-01-18 23:32:10.17	18.98	12.91	-40.2	-43.0	12.2	1.79e-04	0	58	0	177209344	52	4864
2026-01-18 23:32:11.18	19.00	13.01	-40.2	-42.9	12.4	1.89e-04	0	59	0	180355072	52	4810
2026-01-18 23:32:12.19	19.02	13.11	-40.3	-43.1	12.2	2.30e-04	0	59	0	183500800	52	4897
2026-01-18 23:32:13.20	19.04	13.21	-40.2	-43.0	12.4	1.78e-04	0	59	0	186646528	52	4820
2026-01-18 23:32:14.21	19.06	13.31	-40.3	-43.1	12.2	2.34e-04	0	59	0	189792256	52	4896
2026-01-18 23:32:15.22	19.08	13.41	-40.3	-43.1	12.2	2.02e-04	0	59	0	192937984	52	4893
2026-01-18 23:32:16.23	19.10	13.51	-40.4	-43.2	12.2	2.18e-04	0	59	0	196083712	52	4944
2026-01-18 23:32:17.24	19.12	13.61	-40.2	-42.9	12.4	1.59e-04	0	59	0	199229440	52	4780
2026-01-18 23:32:18.25	19.14	13.71	-40.2	-42.9	12.5	1.20e-04	0	59	0	202375168	52	4778
2026-01-18 23:32:19.26	19.16	13.81	-40.2	-42.9	12.4	1.44e-04	0	59	0	205520896	52	4803
2026-01-18 23:32:20.27	19.18	13.91	-40.2	-43.0	12.4	1.66e-04	0	59	0	208666624	52	4817
2026-01-18 23:32:21.28	19.20	14.01	-40.2	-42.9	12.5	1.27e-04	0	59	0	211812352	52	4789
2026-01-18 23:32:22.29	19.22	14.11	-40.2	-42.9	12.5	1.30e-04	0	59	0	214958080	52	4803
2026-01-18 23:32:23.30	19.24	14.22	-40.2	-42.9	12.5	1.27e-04	0	59	0	218103808	52	4809
2026-01-18 23:32:24.32	19.26	14.32	-40.2	-42.8	12.6	1.07e-04	0	59	0	221249536	52	4755
2026-01-18 23:32:25.33	19.29	14.43	-40.2	-42.8	12.6	9.61e-05	0	59	0	224395264	52	4740
2026-01-18 23:32:26.33	19.31	14.53	-40.2	-42.9	12.6	1.06e-04	0	59	0	227540992	52	4780
2026-01-18 23:32:27.34	19.33	14.63	-40.2	-42.9	12.6	1.01e-04	0	59	0	230686720	52	4777
2026-01-18 23:32:28.35	19.35	14.74	-40.1	-42.7	12.7	8.16e-05	0	59	0	233832448	52	4705
2026-01-18 23:32:29.36	19.37	14.85	-40.2	-42.9	12.7	9.61e-05	0	59	0	236978176	52	4768
2026-01-18 23:32:30.37	19.39	14.95	-40.2	-42.8	12.7	7.24e-05	0	59	0	240123904	52	4719
2026-01-18 23:32:31.38	19.41	15.06	-40.2	-42.8	12.7	7.62e-05	0	59	0	243269632	52	4746
2026-01-18 23:32:32.39	19.44	15.17	-40.1	-42.7	12.9	5.03e-05	0	59	0	246415360	52	4658
2026-01-18 23:32:33.40	19.46	15.27	-40.2	-42.8	12.8	7.17e-05	0	59	0	249561088	52	4730
2026-01-18 23:32:34.41	19.48	15.38	-40.1	-42.7	12.8	4.95e-05	0	59	0	252706816	52	4690
2026-01-18 23:32:35.42	19.50	15.49	-40.1	-42.6	12.9	4.73e-05	0	59	0	255852544	52	4643
2026-01-18 23:32:36.43	19.53	15.60	-40.1	-42.6	12.9	4.88e-05	0	59	0	258998272	52	4648
2026-01-18 23:32:37.44	19.55	15.71	-40.1	-42.7	12.9	4.19e-05	0	59	0	262144000	52	4679
2026-01-18 23:32:38.45	19.57	15.82	-40.1	-42.7	12.9	6.10e-05	0	59	0	265289728	52	4671
2026-01-18 23:32:39.46	19.59	15.93	-40.1	-42.7	12.9	6.02e-05	0	59	0	268435456	52	4678
2026-01-18 23:32:40.47	19.62	16.04	-40.1	-42.6	12.9	4.65e-05	0	59	0	271581184	52	4649
2026-01-18 23:32:41.48	19.64	16.15	-40.1	-42.6	13.0	3.73e-05	0	59	0	274726912	52	4617
2026-01-18 23:32:42.49	19.66	16.26	-40.2	-42.7	12.8	4.95e-05	0	59	0	277872640	52	4697
2026-01-18 23:32:43.50	19.69	16.38	-40.1	-42.6	13.0	3.50e-05	0	59	0	282066944	52	4633
2026-01-18 23:32:44.50	19.71	16.49	-40.1	-42.6	13.0	3.66e-05	0	59	0	285212672	52	4615
2026-01-18 23:32:45.51	19.73	16.60	-40.0	-42.6	13.0	3.28e-05	0	59	0	287309824	52	4603
2026-01-18 23:32:46.52	19.76	16.72	-40.0	-42.5	13.1	3.20e-05	0	59	0	290455552	52	4574
2026-01-18 23:32:47.53	19.78	16.83	-40.1	-42.6	13.0	2.82e-05	0	59	0	293601280	52	4616
2026-01-18 23:32:48.54	19.81	16.95	-40.0	-42.5	13.1	3.43e-05	0	59	0	297795584	52	4588
2026-01-18 23:32:49.55	19.83	17.06	-40.0	-42.5	13.1	3.96e-05	0	59	0	300941312	52	4580
2026-01-18 23:32:50.56	19.85	17.18	-40.1	-42.6	13.0	3.35e-05	0	59	0	304087040	52	4623
2026-01-18 23:32:51.57	19.88	17.29	-40.1	-42.7	13.0	3.81e-05	0	59	0	307232768	52	4659
2026-01-18 23:32:52.58	19.90	17.41	-40.1	-42.6	13.1	2.89e-05	0	59	0	309329920	52	4621
2026-01-18 23:32:53.59	19.93	17.53	-40.1	-42.6	13.1	4.27e-05	0	59	0	313524224	52	4631
2026-01-18 23:32:54.60	19.95	17.65	-40.1	-42.5	13.1	2.44e-05	0	59	0	316669952	52	4594
2026-01-18 23:32:55.61	19.98	17.77	-40.1	-42.6	13.1	3.28e-05	0	59	0	319815680	52	4625
2026-01-18 23:32:56.62	20.00	17.89	-40.1	-42.6	13.1	3.12e-05	0	59	0	322961408	52	4623
2026-01-18 23:32:57.63	20.03	18.01	-40.1	-42.6	13.2	2.51e-05	0	59	0	326107136	52	4627
2026-01-18 23:32:58.64	20.06	18.13	-40.1	-42.6	13.1	2.21e-05	0	60	0	329252864	52	4613
2026-01-18 23:32:59.65	20.08	18.25	-40.1	-42.6	13.2	3.05e-05	0	59	0	332398592	52	4613
2026-01-18 23:33:00.66	20.11	18.37	-40.2	-42.7	13.1	3.28e-05	0	59	0	335544320	52	4654
2026-01-18 23:33:01.66	20.13	18.49	-40.2	-42.7	13.0	3.66e-05	0	59	0	338690048	52	4687
2026-01-18 23:33:02.67	20.16	18.62	-40.2	-42.8	13.0	4.42e-05	0	59	0	341835776	52	4711
2026-01-18 23:33:03.68	20.19	18.74	-40.2	-42.7	13.0	2.36e-05	0	59	0	344981504	52	4697
2026-01-18 23:33:04.70	20.21	18.87	-40.2	-42.7	13.0	3.35e-05	0	59	0	348127232	52	4701
2026-01-18 23:33:05.71	20.24	18.99	-40.2	-42.7	13.1	2.89e-05	0	59	0	351272960	52	4664
2026-01-18 23:33:06.71	20.27	19.12	-40.2	-42.7	13.1	1.83e-05	0	59	0	354418688	52	4667
2026-01-18 23:33:07.73	20.30	19.24	-40.2	-42.7	13.1	3.43e-05	0	59	0	357564416	52	4661
2026-01-18 23:33:08.73	20.32	19.37	-40.1	-42.6	13.2	2.13e-05	0	60	0	360710144	52	4624
2026-01-18 23:33:09.74	20.35	19.50	-40.2	-42.6	13.2	2.51e-05	0	59	0	363855872	52	4641
2026-01-18 23:33:10.75	20.38	19.63	-40.2	-42.7	13.1	3.35e-05	0	60	0	367001600	52	4668
2026-01-18 23:33:11.77	20.41	19.76	-40.2	-42.6	13.1	3.66e-05	0	59	0	370147328	52	4644
2026-01-18 23:33:12.77	20.44	19.88	-40.1	-42.6	13.3	2.51e-05	0	59	0	373293056	52	4601
2026-01-18 23:33:13.79	20.46	20.02	-40.0	-42.4	13.4	1.37e-05	0	60	0	376438784	52	4524
2026-01-18 23:33:14.80	20.49	20.15	-40.1	-42.4	13.4	1.06e-05	0	59	0	379584512	52	4539
2026-01-18 23:33:15.81	20.52	20.28	-40.0	-42.4	13.5	9.10e-06	0	60	0	382730240	52	4503
2026-01-18 23:33:16.82	20.55	20.41	-40.0	-42.4	13.4	1.06e-05	0	59	0	385875968	52	4510
2026-01-18 23:33:17.82	20.58	20.54	-40.0	-42.3	13.6	3.80e-06	0	60	0	389021696	51	4746
2026-01-18 23:33:18.83	20.61	20.68	-40.0	-42.3	13.6	7.60e-06	0	60	0	392167424	51	4733
2026-01-18 23:33:19.84	20.64	20.81	-39.9	-42.2	13.7	6.10e-06	0	60	0	395313152	51	4696
2026-01-18 23:33:20.85	20.67	20.95	-39.8	-42.1	13.8	8.30e-06	0	60	0	398458880	51	4623
2026-01-18 23:33:21.86	20.70	21.08	-39.8	-42.0	13.9	3.00e-06	0	60	0	401604608	51	4596
2026-01-18 23:33:22.87	20.73	21.22	-39.8	-42.0	14.0	2.20e-06	0	60	0	404750336	51	4554
2026-01-18 23:33:23.88	20.76	21.36	-39.7	-41.9	14.0	5.30e-06	0	60	0	407896064	51	4515
2026-01-18 23:33:24.89	20.79	21.50	-39.8	-42.0	14.0	3.80e-06	0	60	0	411041792	51	4565
2026-01-18 23:33:25.90	20.82	21.63	-39.6	-41.7	14.2	3.80e-06	0	60	0	414187520	51	4440
2026-01-18 23:33:26.91	20.86	21.77	-39.6	-41.8	14.2	7.00e-07	0	60	0	417333248	51	4449
2026-01-18 23:33:27.92	20.89	21.92	-39.6	-41.8	14.2	2.20e-06	0	60	0	420478976	51	4465
2026-01-18 23:33:28.93	20.92	22.06	-39.5	-41.6	14.4	7.00e-07	0	59	0	423624704	51	4361
2026-01-18 23:33:29.94	20.95	22.20	-39.4	-41.5	14.5	0.00e+00	0	60	0	426770432	50	4571
2026-01-18 23:33:30.95	20.99	22.34	-39.5	-41.6	14.5	7.00e-07	0	60	0	429916160	50	4616
2026-01-18 23:33:31.96	21.02	22.49	-39.4	-41.5	14.5	7.00e-07	0	60	0	433061888	50	4568
2026-01-18 23:33:32.97	21.05	22.63	-39.4	-41.5	14.5	7.00e-07	0	60	0	436207616	50	4582
2026-01-18 23:33:33.98	21.08	22.77	-39.4	-41.5	14.5	2.20e-06	0	60	0	439353344	50	4585
2026-01-18 23:33:34.99	21.12	22.92	-39.4	-41.5	14.5	1.50e-06	0	60	0	442499072	50	4581
2026-01-18 23:33:36.00	21.15	23.07	-39.5	-41.6	14.5	7.00e-07	0	60	0	445644800	50	4608
2026-01-18 23:33:37.01	21.19	23.22	-39.4	-41.5	14.5	7.00e-07	0	60	0	448790528	50	4572
2026-01-18 23:33:38.02	21.22	23.36	-39.5	-41.6	14.5	7.00e-07	0	60	0	451936256	50	4612
2026-01-18 23:33:39.03	21.26	23.51	-39.4	-41.5	14.5	0.00e+00	0	60	0	455081984	50	4581
2026-01-18 23:33:40.04	21.29	23.66	-39.4	-41.5	14.6	0.00e+00	0	60	0	458227712	50	4575
2026-01-18 23:33:41.05	21.33	23.82	-39.4	-41.5	14.5	7.00e-07	0	60	0	461373440	50	4590
2026-01-18 23:33:42.05	21.36	23.97	-39.4	-41.5	14.6	7.00e-07	0	60	0	464519168	50	4574
2026-01-18 23:33:43.06	21.40	24.12	-39.5	-41.6	14.5	0.00e+00	0	60	0	467664896	50	4604
2026-01-18 23:33:44.07	21.43	24.27	-39.4	-41.5	14.6	7.00e-07	0	60	0	470810624	50	4565
2026-01-18 23:33:45.09	21.47	24.43	-39.5	-41.5	14.6	0.00e+00	0	60	0	473956352	50	4587
2026-01-18 23:33:46.10	21.51	24.59	-39.4	-41.5	14.6	0.00e+00	0	60	0	477102080	50	4581
2026-01-18 23:33:47.10	21.55	24.74	-39.4	-41.4	14.7	0.00e+00	0	60	0	480247808	50	4516
2026-01-18 23:33:48.11	21.58	24.90	-39.4	-41.5	14.6	0.00e+00	0	60	0	483393536	50	4583
2026-01-18 23:33:49.12	21.62	25.06	-39.5	-41.5	14.6	1.50e-06	0	60	0	486539264	50	4581
2026-01-18 23:33:50.13	21.66	25.22	-39.5	-41.5	14.6	7.00e-07	0	60	0	489684992	50	4597
2026-01-18 23:33:51.14	21.70	25.38	-39.5	-41.5	14.6	0.00e+00	0	60	0	492830720	50	4598
2026-01-18 23:33:52.15	21.74	25.54	-39.5	-41.6	14.5	0.00e+00	0	60	0	495976448	50	4628
2026-01-18 23:33:53.16	21.78	25.70	-39.6	-41.7	14.5	0.00e+00	0	60	0	499122176	50	4667
2026-01-18 23:33:54.17	21.82	25.86	-39.7	-41.8	14.4	7.00e-07	0	60	0	502267904	50	4725
2026-01-18 23:33:55.18	21.86	26.03	-39.7	-41.9	14.2	0.00e+00	0	60	0	505413632	50	4775
2026-01-18 23:33:56.19	21.90	26.19	-39.8	-42.0	14.1	2.20e-06	0	60	0	508559360	50	4864
2026-01-18 23:33:57.20	21.94	26.36	-40.0	-42.2	13.9	3.00e-06	0	60	0	511705088	50	4961
2026-01-18 23:33:58.21	21.98	26.53	-40.1	-42.4	13.7	3.00e-06	0	60	0	514850816	50	5052
2026-01-18 23:33:59.22	22.02	26.70	-40.2	-42.5	13.6	9.90e-06	0	60	0	517996544	50	5155
2026-01-18 23:34:00.23	22.06	26.87	-40.3	-42.6	13.5	1.60e-05	0	60	0	521142272	51	4926
2026-01-18 23:34:01.24	22.10	27.04	-40.4	-42.8	13.3	1.90e-05	0	60	0	524288000	51	5022
2026-01-18 23:34:02.25	22.15	27.21	-40.4	-42.9	13.2	2.21e-05	0	60	0	527433728	51	5060
2026-01-18 23:34:03.26	22.19	27.38	-40.5	-43.0	13.2	2.13e-05	0	60	0	530579456	51	5105
2026-01-18 23:34:04.27	22.23	27.55	-40.6	-43.1	13.0	2.51e-05	0	60	0	533725184	51	5173
2026-01-18 23:34:05.28	22.28	27.73	-40.7	-43.2	12.9	5.72e-05	0	60	0	536870912	51	5262
2026-01-18 23:34:06.29	22.32	27.90	-40.7	-43.2	12.9	4.88e-05	0	60	0	540016640	51	5252
2026-01-18 23:34:07.30	22.37	28.08	-40.5	-43.1	12.9	4.19e-05	0	60	0	543162368	52	4888
2026-01-18 23:34:08.31	22.41	28.26	-40.5	-43.0	13.1	2.97e-05	0	60	0	546308096	52	4815
2026-01-18 23:34:09.32	22.46	28.44	-40.4	-42.9	13.1	2.51e-05	0	60	0	549453824	52	4771
2026-01-18 23:34:10.33	22.51	28.62	-40.4	-42.9	13.2	2.82e-05	0	60	0	552599552	52	4764
2026-01-18 23:34:11.34	22.55	28.80	-40.3	-42.7	13.3	1.90e-05	0	60	0	555745280	52	4672
2026-01-18 23:34:12.35	22.60	28.98	-40.3	-42.7	13.3	1.83e-05	0	60	0	558891008	52	4687
2026-01-18 23:34:13.36	22.65	29.17	-40.3	-42.7	13.3	1.44e-05	0	60	0	562036736	52	4691
2026-01-18 23:34:14.37	22.70	29.35	-40.1	-42.5	13.6	1.06e-05	0	60	0	565182464	52	4563
2026-01-18 23:34:15.38	22.75	29.54	-40.1	-42.5	13.6	4.50e-06	0	60	0	568328192	52	4554
2026-01-18 23:34:16.39	22.80	29.73	-40.0	-42.2	13.8	6.10e-06	0	60	0	571473920	52	4440
2026-01-18 23:34:17.40	22.85	29.92	-40.1	-42.3	13.8	6.10e-06	0	60	0	574619648	51	4748
2026-01-18 23:34:18.41	22.90	30.11	-40.0	-42.3	13.9	3.00e-06	0	60	0	577765376	51	4734
2026-01-18 23:34:19.42	22.95	30.30	-40.0	-42.3	13.9	5.30e-06	0	60	0	580911104	51	4729
2026-01-18 23:34:20.43	23.00	30.49	-40.1	-42.4	13.7	9.10e-06	0	60	0	584056832	51	4801
2026-01-18 23:34:21.44	23.05	30.68	-40.2	-42.5	13.7	5.30e-06	0	60	0	587202560	51	4822
2026-01-18 23:34:22.45	23.10	30.88	-40.1	-42.4	13.8	5.30e-06	0	60	0	590348288	51	4779
2026-01-18 23:34:23.46	23.16	31.08	-40.1	-42.4	13.8	7.00e-07	0	60	0	593494016	51	4801
2026-01-18 23:34:24.46	23.21	31.27	-40.1	-42.4	13.7	7.60e-06	0	60	0	596639744	51	4785
2026-01-18 23:34:25.47	23.27	31.47	-40.1	-42.4	13.8	7.60e-06	0	60	0	599785472	51	4771
2026-01-18 23:34:26.48	23.32	31.67	-40.1	-42.4	13.8	3.80e-06	0	60	0	602931200	51	4792
2026-01-18 23:34:27.49	23.38	31.87	-40.1	-42.4	13.8	7.60e-06	0	60	0	606076928	51	4770
2026-01-18 23:34:28.50	23.43	32.08	-40.1	-42.4	13.8	6.80e-06	0	60	0	609222656	51	4766
2026-01-18 23:34:29.51	23.49	32.28	-40.1	-42.4	13.8	2.20e-06	0	60	0	612368384	51	4789
2026-01-18 23:34:30.52	23.55	32.49	-40.1	-42.4	13.8	5.30e-06	0	60	0	615514112	51	4785
2026-01-18 23:34:31.53	23.61	32.70	-40.1	-42.4	13.8	3.80e-06	0	60	0	618659840	51	4775
2026-01-18 23:34:32.54	23.67	32.90	-40.2	-42.4	13.7	6.10e-06	0	61	0	622854144	51	4812
2026-01-18 23:34:33.55	23.73	33.11	-40.2	-42.5	13.6	6.10e-06	0	60	0	625999872	51	4860
2026-01-18 23:34:34.56	23.79	33.33	-40.3	-42.6	13.6	8.30e-06	0	60	0	628097024	51	4895
2026-01-18 23:34:35.57	23.85	33.54	-40.4	-42.7	13.5	1.14e-05	0	60	0	631242752	51	4979
2026-01-18 23:34:36.58	23.91	33.75	-40.4	-42.9	13.3	1.60e-05	0	60	0	634388480	51	5043
2026-01-18 23:34:37.59	23.97	33.97	-40.6	-43.0	13.2	1.75e-05	0	60	0	638582784	51	5143
2026-01-18 23:34:38.60	24.04	34.19	-40.6	-43.2	13.0	2.97e-05	0	60	0	641728512	51	5225
2026-01-18 23:34:39.61	24.10	34.41	-40.7	-43.2	12.9	4.27e-05	0	60	0	644874240	52	4956
2026-01-18 23:34:40.62	24.17	34.63	-40.7	-43.3	12.8	5.87e-05	0	61	0	648019968	52	5018
2026-01-18 23:34:41.63	24.23	34.85	-40.8	-43.5	12.6	7.24e-05	0	60	0	650117120	52	5122
2026-01-18 23:34:42.64	24.30	35.07	-41.0	-43.7	12.4	1.30e-04	0	60	0	654311424	52	5244
2026-01-18 23:34:43.65	24.37	35.30	-41.1	-44.0	12.1	1.84e-04	0	61	0	657457152	52	5413
2026-01-18 23:34:44.66	24.44	35.53	-41.2	-44.1	12.1	2.89e-04	0	61	0	660602880	52	5467
2026-01-18 23:34:45.67	24.51	35.75	-41.3	-44.3	11.8	4.23e-04	0	61	0	663748608	53	5291
2026-01-18 23:34:46.68	24.58	35.98	-41.4	-44.4	11.7	5.64e-04	0	60	0	666894336	53	5369
2026-01-18 23:34:47.69	24.65	36.22	-41.5	-44.6	11.5	8.12e-04	0	60	0	670040064	53	5470
2026-01-18 23:34:48.70	24.72	36.45	-41.6	-44.8	11.3	1.26e-03	0	60	0	673185792	53	5611
2026-01-18 23:34:49.71	24.80	36.68	-41.8	-45.1	11.0	1.69e-03	0	60	0	676331520	54	5477
2026-01-18 23:34:50.72	24.87	36.92	-42.0	-45.4	10.8	2.73e-03	0	60	0	679477248	54	5660
2026-01-18 23:34:51.73	24.95	37.16	-42.2	-45.7	10.3	4.14e-03	0	60	0	682622976	54	5912
2026-01-18 23:34:52.74	25.02	37.40	-42.2	-45.7	10.3	4.95e-03	0	60	0	685768704	54	5909
2026-01-18 23:34:53.75	25.10	37.64	-42.1	-45.7	10.3	4.94e-03	0	61	0	688914432	54	5891
2026-01-18 23:34:54.76	25.18	37.88	-42.1	-45.7	10.4	4.58e-03	0	61	0	692060160	54	5885
2026-01-18 23:34:55.77	25.26	38.13	-42.1	-45.5	10.5	4.44e-03	0	60	0	695205888	54	5777
2026-01-18 23:34:56.78	25.34	38.38	-41.9	-45.3	10.8	3.19e-03	0	61	0	698351616	54	5604
2026-01-18 23:34:57.79	25.43	38.62	-41.8	-45.1	10.9	2.28e-03	0	60	0	701497344	54	5518
2026-01-18 23:34:58.80	25.51	38.87	-41.7	-44.9	11.1	1.85e-03	0	61	0	704643072	54	5402
2026-01-18 23:34:59.81	25.59	39.13	-41.8	-45.1	11.0	1.98e-03	0	60	0	707788800	54	5506
2026-01-18 23:35:00.82	25.68	39.38	-41.8	-45.0	11.1	1.74e-03	0	61	0	710934528	54	5450
2026-01-18 23:35:01.83	25.77	39.64	-41.8	-45.0	11.1	1.51e-03	0	61	0	714080256	54	5425
2026-01-18 23:35:02.84	25.86	39.89	-41.7	-44.9	11.2	1.30e-03	0	61	0	717225984	54	5352
2026-01-18 23:35:03.85	25.95	40.15	-41.7	-44.9	11.3	1.26e-03	0	61	0	720371712	54	5342
2026-01-18 23:35:04.86	26.04	40.42	-41.6	-44.7	11.4	1.06e-03	0	61	0	723517440	54	5246
2026-01-18 23:35:05.87	26.13	40.68	-41.7	-44.8	11.3	1.17e-03	0	61	0	726663168	54	5292
2026-01-18 23:35:06.88	26.23	40.94	-41.7	-44.8	11.4	1.07e-03	0	61	0	729808896	54	5280
2026-01-18 23:35:07.89	26.32	41.21	-41.8	-44.9	11.2	1.22e-03	0	61	0	732954624	54	5370
2026-01-18 23:35:08.90	26.42	41.48	-41.8	-45.0	11.1	1.50e-03	0	61	0	736100352	54	5419
2026-01-18 23:35:09.91	26.52	41.75	-41.8	-45.1	11.0	1.59e-03	0	61	0	739246080	54	5496
2026-01-18 23:35:10.92	26.62	42.02	-42.0	-45.4	10.7	2.28e-03	0	61	0	742391808	54	5711
2026-01-18 23:35:11.93	26.72	42.30	-42.2	-45.7	10.4	4.08e-03	0	61	0	745537536	55	5573
2026-01-18 23:35:12.94	26.83	42.57	-42.3	-45.9	10.2	5.26e-03	0	60	0	748683264	55	5681
2026-01-18 23:35:13.95	26.93	42.85	-42.2	-45.6	10.5	3.96e-03	0	61	0	751828992	55	5520
2026-01-18 23:35:14.96	27.04	43.13	-42.2	-45.6	10.5	3.79e-03	0	61	0	754974720	55	5501
2026-01-18 23:35:15.97	27.15	43.42	-42.1	-45.6	10.5	4.01e-03	0	61	0	758120448	55	5485
2026-01-18 23:35:16.98	27.26	43.70	-41.8	-45.0	11.2	1.93e-03	0	61	0	761266176	55	5120
2026-01-18 23:35:17.99	27.37	43.99	-41.7	-44.8	11.3	1.05e-03	0	61	0	764411904	55	5027
2026-01-18 23:35:19.00	27.49	44.28	-41.8	-44.9	11.2	1.24e-03	0	61	0	767557632	55	5092
2026-01-18 23:35:20.01	27.61	44.57	-41.9	-45.1	11.1	1.54e-03	0	61	0	770703360	55	5170
2026-01-18 23:35:21.02	27.73	44.86	-41.8	-45.0	11.2	1.47e-03	0	61	0	773849088	55	5114
2026-01-18 23:35:22.03	27.85	45.15	-41.8	-45.0	11.2	1.40e-03	0	61	0	776994816	55	5154
2026-01-18 23:35:23.04	27.97	45.45	-41.7	-44.8	11.4	9.76e-04	0	61	0	780140544	55	4997
2026-01-18 23:35:24.05	28.10	45.75	-41.8	-44.9	11.3	1.28e-03	0	61	0	783286272	55	5075
2026-01-18 23:35:25.06	28.23	46.05	-41.7	-44.8	11.4	1.07e-03	0	61	0	786432000	55	5016
2026-01-18 23:35:26.07	28.36	46.35	-41.8	-44.9	11.3	1.33e-03	0	61	0	789577728	55	5057
2026-01-18 23:35:27.08	28.49	46.66	-41.8	-44.9	11.3	1.30e-03	0	61	0	792723456	55	5075
2026-01-18 23:35:28.08	28.62	46.96	-41.7	-44.7	11.5	9.47e-04	0	61	0	795869184	55	4954
2026-01-18 23:35:29.10	28.76	47.28	-41.5	-44.5	11.7	6.29e-04	0	61	0	799014912	55	4826
2026-01-18 23:35:30.11	28.91	47.59	-41.5	-44.4	11.8	4.10e-04	0	61	0	802160640	54	5092
2026-01-18 23:35:31.12	29.05	47.90	-41.3	-44.1	12.1	2.94e-04	0	61	0	805306368	54	4888
2026-01-18 23:35:32.13	29.20	48.22	-41.1	-43.8	12.5	1.89e-04	0	61	0	808452096	54	4714
2026-01-18 23:35:33.14	29.35	48.53	-40.9	-43.5	12.7	1.03e-04	0	61	0	811597824	53	4868
2026-01-18 23:35:34.15	29.50	48.85	-40.9	-43.5	12.7	7.01e-05	0	61	0	814743552	53	4844
2026-01-18 23:35:35.16	29.65	49.18	-40.8	-43.4	12.8	7.55e-05	0	61	0	817889280	53	4763
2026-01-18 23:35:36.17	29.81	49.50	-40.8	-43.3	12.9	3.89e-05	0	61	0	821035008	53	4730
2026-01-18 23:35:37.18	29.98	49.83	-40.9	-43.5	12.7	7.32e-05	0	61	0	824180736	53	4830
2026-01-18 23:35:38.19	30.14	50.16	-41.2	-43.9	12.3	1.40e-04	0	61	0	827326464	53	5087
2026-01-18 23:35:39.20	30.31	50.49	-41.3	-44.1	12.1	2.60e-04	0	61	0	830472192	53	5203
2026-01-18 23:35:40.21	30.49	50.82	-41.2	-44.0	12.2	2.27e-04	0	61	0	833617920	53	5123
2026-01-18 23:35:41.22	30.66	51.16	-41.3	-44.2	12.0	3.29e-04	0	61	0	836763648	53	5237
2026-01-18 23:35:42.23	30.84	51.49	-41.4	-44.3	12.0	3.02e-04	0	61	0	839909376	53	5289
2026-01-18 23:35:43.23	31.03	51.83	-41.3	-44.2	11.9	3.42e-04	0	61	0	843055104	53	5267
2026-01-18 23:35:44.24	31.22	52.17	-41.5	-44.4	11.8	4.54e-04	0	61	0	846200832	53	5402
2026-01-18 23:35:45.25	31.41	52.51	-41.5	-44.4	11.7	4.90e-04	0	61	0	849346560	53	5400
2026-01-18 23:35:46.26	31.61	52.86	-41.4	-44.3	11.9	4.49e-04	0	61	0	852492288	53	5311
2026-01-18 23:35:47.27	31.81	53.21	-41.2	-44.0	12.2	3.14e-04	0	61	0	855638016	53	5157
2026-01-18 23:35:48.28	32.02	53.56	-41.0	-43.7	12.5	1.35e-04	0	61	0	858783744	53	4969
2026-01-18 23:35:49.29	32.23	53.91	-41.0	-43.7	12.6	8.54e-05	0	61	0	861929472	53	4933
2026-01-18 23:35:50.30	32.45	54.26	-40.9	-43.6	12.7	9.23e-05	0	61	0	865075200	53	4882
2026-01-18 23:35:51.31	32.67	54.62	-40.9	-43.5	12.7	8.31e-05	0	61	0	868220928	53	4869
2026-01-18 23:35:52.32	32.90	54.98	-40.7	-43.3	13.0	4.27e-05	0	61	0	871366656	53	4711
2026-01-18 23:35:53.33	33.14	55.34	-40.7	-43.1	13.1	2.59e-05	0	61	0	874512384	53	4641
2026-01-18 23:35:54.34	33.38	55.70	-40.8	-43.3	13.0	3.89e-05	0	61	0	877658112	53	4737
2026-01-18 23:35:55.35	33.62	56.06	-40.8	-43.3	12.9	4.65e-05	0	61	0	880803840	53	4757
2026-01-18 23:35:56.36	33.88	56.43	-40.7	-43.2	13.0	4.42e-05	0	61	0	883949568	53	4678
2026-01-18 23:35:57.37	34.14	56.79	-40.4	-42.8	13.5	1.37e-05	0	61	0	887095296	52	4718
2026-01-18 23:35:58.38	34.40	57.16	-40.3	-42.6	13.7	7.60e-06	0	61	0	890241024	52	4624
2026-01-18 23:35:59.39	34.68	57.54	-40.1	-42.4	13.9	3.80e-06	0	61	0	893386752	52	4523
2026-01-18 23:36:00.39	34.96	57.91	-40.1	-42.3	13.9	3.00e-06	0	61	0	896532480	52	4486
2026-01-18 23:36:01.41	35.25	58.28	-40.0	-42.2	14.1	0.00e+00	0	61	0	899678208	51	4685
2026-01-18 23:36:02.41	35.54	58.66	-40.0	-42.1	14.2	0.00e+00	0	61	0	902823936	51	4626
2026-01-18 23:36:03.42	35.85	59.04	-39.9	-42.0	14.3	0.00e+00	0	61	0	905969664	51	4557
2026-01-18 23:36:04.43	36.16	59.42	-39.8	-42.0	14.3	7.00e-07	0	61	0	909115392	51	4550
2026-01-18 23:36:05.44	36.49	59.80	-39.7	-41.8	14.4	1.50e-06	0	61	0	912261120	51	4472
2026-01-18 23:36:06.45	36.82	60.18	-39.7	-41.8	14.4	7.00e-07	0	61	0	915406848	51	4450
2026-01-18 23:36:07.46	37.16	60.56	-39.8	-41.9	14.4	0.00e+00	0	61	0	918552576	51	4510
2026-01-18 23:36:08.47	37.52	60.95	-39.9	-42.0	14.3	0.00e+00	0	61	0	921698304	51	4564
2026-01-18 23:36:09.48	37.88	61.34	-40.0	-42.2	14.1	0.00e+00	0	61	0	924844032	51	4680
2026-01-18 23:36:10.49	38.26	61.73	-39.9	-42.1	14.2	2.20e-06	0	61	0	927989760	51	4626
2026-01-18 23:36:11.50	38.65	62.12	-39.9	-42.0	14.2	7.00e-07	0	61	0	931135488	51	4596
2026-01-18 23:36:12.51	39.05	62.51	-39.6	-41.6	14.7	7.00e-07	0	61	0	934281216	51	4379
2026-01-18 23:36:13.52	39.46	62.90	-39.5	-41.5	14.8	0.00e+00	0	61	0	937426944	51	4324
2026-01-18 23:36:14.53	39.89	63.29	-39.5	-41.4	14.8	7.00e-07	0	61	0	940572672	50	4540
2026-01-18 23:36:15.54	40.33	63.69	-39.4	-41.3	14.9	0.00e+00	0	61	0	943718400	50	4487
2026-01-18 23:36:16.55	40.79	64.08	-39.4	-41.5	14.8	0.00e+00	0	61	0	946864128	50	4551
2026-01-18 23:36:17.56	41.26	64.48	-39.2	-41.1	15.2	0.00e+00	0	61	0	950009856	50	4358
2026-01-18 23:36:18.57	41.75	64.87	-39.0	-40.8	15.4	0.00e+00	0	61	0	953155584	50	4240
2026-01-18 23:36:19.58	42.26	65.27	-39.0	-40.9	15.4	0.00e+00	0	61	0	956301312	50	4258
2026-01-18 23:36:20.59	42.79	65.66	-39.1	-41.0	15.3	7.00e-07	0	61	0	960495616	50	4319
2026-01-18 23:36:21.60	43.33	66.06	-39.2	-41.1	15.2	0.00e+00	0	61	0	963641344	50	4363
2026-01-18 23:36:22.61	43.89	66.46	-39.0	-40.8	15.5	0.00e+00	0	61	0	966787072	50	4237
2026-01-18 23:36:23.62	44.48	66.85	-38.9	-40.7	15.6	0.00e+00	0	61	0	968884224	49	4395
2026-01-18 23:36:24.63	45.09	67.25	-38.9	-40.8	15.5	0.00e+00	0	61	0	972029952	49	4448
2026-01-18 23:36:25.64	45.72	67.64	-39.0	-40.8	15.5	0.00e+00	0	61	0	976224256	49	4460
2026-01-18 23:36:26.65	46.37	68.04	-39.0	-40.9	15.4	0.00e+00	0	61	0	979369984	49	4494
2026-01-18 23:36:27.66	47.06	68.43	-39.1	-40.9	15.3	0.00e+00	0	61	0	982515712	49	4539
2026-01-18 23:36:28.67	47.76	68.82	-39.1	-41.0	15.2	0.00e+00	0	61	0	985661440	49	4555
2026-01-18 23:36:29.68	48.50	69.22	-39.1	-41.0	15.2	0.00e+00	0	61	0	988807168	49	4565
2026-01-18 23:36:30.69	49.27	69.61	-39.1	-41.0	15.2	0.00e+00	0	61	0	991952896	49	4570
2026-01-18 23:36:31.70	50.07	69.99	-39.2	-41.1	15.1	0.00e+00	0	61	0	995098624	49	4627
2026-01-18 23:36:32.71	50.90	70.38	-39.1	-40.9	15.3	0.00e+00	0	61	0	998244352	49	4528
2026-01-18 23:36:33.73	51.78	70.76	-39.1	-41.0	15.1	0.00e+00	0	61	0	1001390080	49	4590
2026-01-18 23:36:34.74	52.69	71.14	-39.0	-40.8	15.4	0.00e+00	0	61	0	1004535808	49	4486
2026-01-18 23:36:35.75	53.63	71.52	-39.0	-40.8	15.4	0.00e+00	0	61	0	1007681536	49	4468
2026-01-18 23:36:36.76	54.62	71.89	-38.9	-40.7	15.5	0.00e+00	0	61	0	1010827264	49	4432
2026-01-18 23:36:37.76	55.64	72.26	-39.0	-40.8	15.4	0.00e+00	0	61	0	1013972992	49	4477
2026-01-18 23:36:38.78	56.73	72.63	-39.1	-40.9	15.3	0.00e+00	0	61	0	1017118720	49	4537
2026-01-18 23:36:39.79	57.85	72.99	-39.0	-40.9	15.3	0.00e+00	0	61	0	1020264448	49	4508
2026-01-18 23:36:40.79	59.02	73.34	-39.0	-40.9	15.3	0.00e+00	0	61	0	1023410176	49	4505
2026-01-18 23:36:41.80	60.25	73.69	-39.0	-40.9	15.3	0.00e+00	0	61	0	1026555904	49	4505
2026-01-18 23:36:42.81	61.53	74.03	-39.2	-41.1	15.1	0.00e+00	0	61	0	1029701632	49	4618
2026-01-18 23:36:43.82	62.87	74.37	-39.2	-41.1	15.0	0.00e+00	0	61	0	1032847360	49	4649
2026-01-18 23:36:44.83	64.27	74.69	-39.2	-41.1	15.1	0.00e+00	0	61	0	1035993088	49	4636
2026-01-18 23:36:45.84	65.74	75.01	-39.0	-40.9	15.3	0.00e+00	0	61	0	1039138816	49	4503
2026-01-18 23:36:46.85	67.27	75.32	-39.1	-41.0	15.2	0.00e+00	0	61	0	1042284544	49	4594
2026-01-18 23:36:47.86	68.87	75.63	-39.3	-41.2	14.9	0.00e+00	0	61	0	1045430272	49	4696
2026-01-18 23:36:48.87	70.54	75.92	-39.1	-41.0	15.2	0.00e+00	0	61	0	1048576000	49	4547
2026-01-18 23:36:49.88	72.28	76.19	-38.8	-40.6	15.5	0.00e+00	0	61	0	1051721728	49	4375
2026-01-18 23:36:50.89	74.09	76.46	-39.0	-40.9	15.1	0.00e+00	0	61	0	1054867456	49	4526
2026-01-18 23:36:51.90	75.97	76.71	-39.5	-41.5	14.6	7.00e-07	0	61	0	1058013184	49	4842
2026-01-18 23:36:52.91	77.93	76.95	-39.5	-41.5	14.6	0.00e+00	0	61	0	1061158912	49	4866
2026-01-18 23:36:53.92	79.96	77.18	-39.7	-41.8	14.2	7.00e-07	0	61	0	1064304640	49	5033
2026-01-18 23:36:54.93	82.06	77.39	-39.8	-42.0	14.0	0.00e+00	0	61	0	1067450368	50	4826
2026-01-18 23:36:55.94	84.23	77.58	-39.6	-41.7	14.4	1.50e-06	0	61	0	1070596096	50	4679
2026-01-18 23:36:56.95	86.47	77.75	-39.4	-41.4	14.7	7.00e-07	0	61	0	1073741824	50	4502
2026-01-18 23:36:57.96	88.77	77.91	-39.4	-41.4	14.6	0.00e+00	0	61	0	1076887552	50	4496
2026-01-18 23:36:58.97	91.13	78.04	-39.2	-41.2	14.8	7.00e-07	0	61	0	1080033280	50	4414
2026-01-18 23:36:59.98	93.54	78.16	-39.1	-41.0	14.9	0.00e+00	0	61	0	1083179008	50	4323
2026-01-18 23:37:00.99	95.99	78.26	-39.0	-40.9	15.2	0.00e+00	0	61	0	1086324736	50	4263
2026-01-18 23:37:02.00	98.48	78.33	-39.2	-41.2	14.8	0.00e+00	0	61	0	1089470464	50	4409
2026-01-18 23:37:03.01	101.00	78.38	-39.5	-41.5	14.5	0.00e+00	0	61	0	1092616192	50	4569
2026-01-18 23:37:04.02	103.54	78.41	-39.2	-41.2	14.8	0.00e+00	0	61	0	1095761920	50	4411
2026-01-18 23:37:05.03	106.09	78.42	-39.3	-41.2	14.8	0.00e+00	0	61	0	1098907648	50	4435
2026-01-18 23:37:06.04	108.63	78.41	-39.2	-41.1	14.9	0.00e+00	0	61	0	1102053376	50	4371
2026-01-18 23:37:07.05	111.16	78.37	-39.1	-41.0	15.0	0.00e+00	0	61	0	1105199104	50	4300
2026-01-18 23:37:08.06	113.68	78.31	-38.7	-40.5	15.6	0.00e+00	0	61	0	1108344832	49	4305
2026-01-18 23:37:09.07	116.16	78.23	-38.6	-40.3	15.6	0.00e+00	0	61	0	1111490560	49	4229
2026-01-18 23:37:10.08	118.61	78.13	-38.5	-40.2	15.7	0.00e+00	0	61	0	1114636288	49	4188
2026-01-18 23:37:11.09	121.00	78.01	-38.6	-40.3	15.7	0.00e+00	0	61	0	1117782016	48	4475
2026-01-18 23:37:12.10	123.35	77.87	-38.8	-40.7	15.3	0.00e+00	0	61	0	1120927744	48	4652
2026-01-18 23:37:13.11	125.63	77.71	-39.0	-40.8	15.2	0.00e+00	0	61	0	1124073472	48	4759
2026-01-18 23:37:14.12	127.86	77.53	-39.1	-41.0	15.0	0.00e+00	0	61	0	1127219200	48	4834
2026-01-18 23:37:15.13	130.01	77.33	-38.9	-40.7	15.3	0.00e+00	0	61	0	1130364928	48	4673
2026-01-18 23:37:16.14	132.10	77.12	-39.1	-41.0	15.0	0.00e+00	0	61	0	1133510656	48	4826
2026-01-18 23:37:17.15	134.11	76.89	-39.0	-40.8	15.2	0.00e+00	0	61	0	1136656384	48	4749
2026-01-18 23:37:18.16	136.05	76.65	-38.5	-40.2	15.8	0.00e+00	0	61	0	1139802112	48	4410
2026-01-18 23:37:19.17	137.92	76.39	-38.4	-40.1	15.9	0.00e+00	0	61	0	1142947840	48	4360
2026-01-18 23:37:20.18	139.71	76.12	-38.5	-40.3	15.7	0.00e+00	0	61	0	1146093568	48	4449
2026-01-18 23:37:21.19	141.43	75.84	-38.6	-40.3	15.7	0.00e+00	0	61	0	1149239296	48	4479
2026-01-18 23:37:22.19	143.07	75.55	-38.8	-40.6	15.5	0.00e+00	0	61	0	1152385024	48	4627
2026-01-18 23:37:23.20	144.65	75.25	-39.0	-40.9	15.1	0.00e+00	0	61	0	1155530752	48	4772
2026-01-18 23:37:24.21	146.17	74.93	-39.0	-40.9	15.1	0.00e+00	0	61	0	1158676480	48	4799
2026-01-18 23:37:25.22	147.62	74.61	-38.9	-40.7	15.4	0.00e+00	0	61	0	1161822208	48	4662
2026-01-18 23:37:26.23	149.01	74.28	-39.5	-41.5	14.6	0.00e+00	0	61	0	1164967936	49	4852
2026-01-18 23:37:27.24	150.34	73.94	-39.5	-41.5	14.5	0.00e+00	0	61	0	1168113664	49	4853
2026-01-18 23:37:28.25	151.61	73.60	-39.2	-41.1	14.9	7.00e-07	0	61	0	1171259392	49	4651
2026-01-18 23:37:29.26	152.82	73.25	-38.7	-40.4	15.7	0.00e+00	0	61	0	1174405120	49	4273
2026-01-18 23:37:30.27	153.99	72.89	-38.6	-40.3	15.8	0.00e+00	0	61	0	1177550848	49	4208
2026-01-18 23:37:31.28	155.10	72.53	-38.4	-40.0	15.9	0.00e+00	0	61	0	1180696576	48	4331
2026-01-18 23:37:32.29	156.17	72.16	-38.9	-40.8	15.2	0.00e+00	0	61	0	1183842304	48	4737
2026-01-18 23:37:33.30	157.19	71.79	-39.3	-41.3	14.7	0.00e+00	0	61	0	1186988032	49	4751
2026-01-18 23:37:34.31	158.16	71.42	-39.2	-41.1	14.9	0.00e+00	0	61	0	1190133760	49	4631
2026-01-18 23:37:35.33	159.11	71.03	-39.0	-40.8	15.2	7.00e-07	0	61	0	1193279488	49	4478
2026-01-18 23:37:36.34	160.01	70.65	-38.8	-40.7	15.4	0.00e+00	0	61	0	1196425216	49	4394
2026-01-18 23:37:37.34	160.86	70.27	-38.4	-40.1	16.0	0.00e+00	0	61	0	1199570944	48	4365
2026-01-18 23:37:38.35	161.68	69.89	-38.2	-39.8	16.3	0.00e+00	0	61	0	1202716672	48	4208
2026-01-18 23:37:39.36	162.48	69.50	-38.7	-40.4	15.6	0.00e+00	0	61	0	1205862400	48	4533
2026-01-18 23:37:40.37	163.24	69.11	-39.4	-41.4	14.7	0.00e+00	0	61	0	1209008128	49	4790
2026-01-18 23:37:41.38	163.97	68.71	-39.5	-41.6	14.6	7.00e-07	0	61	0	1212153856	49	4879
2026-01-18 23:37:42.39	164.67	68.32	-39.2	-41.2	14.9	0.00e+00	0	61	0	1215299584	49	4665
2026-01-18 23:37:43.40	165.35	67.92	-38.9	-40.8	15.3	0.00e+00	0	61	0	1218445312	49	4452
2026-01-18 23:37:44.41	166.00	67.53	-38.7	-40.4	15.7	0.00e+00	0	61	0	1221591040	49	4270
2026-01-18 23:37:45.42	166.62	67.13	-38.7	-40.5	15.6	0.00e+00	0	61	0	1224736768	49	4304
2026-01-18 23:37:46.43	167.22	66.73	-38.8	-40.6	15.5	0.00e+00	0	61	0	1227882496	49	4355
2026-01-18 23:37:47.44	167.81	66.34	-39.5	-41.5	14.6	0.00e+00	0	61	0	1231028224	49	4840
2026-01-18 23:37:48.45	168.37	65.94	-39.7	-41.7	14.3	7.00e-07	0	61	0	1234173952	50	4702
2026-01-18 23:37:49.46	168.90	65.54	-39.2	-41.0	15.0	0.00e+00	0	61	0	1237319680	50	4340
2026-01-18 23:37:50.47	169.43	65.14	-38.9	-40.8	15.2	0.00e+00	0	61	0	1240465408	49	4447
2026-01-18 23:37:51.48	169.93	64.75	-38.6	-40.3	15.7	0.00e+00	0	61	0	1243611136	49	4239
2026-01-18 23:37:52.49	170.41	64.35	-38.7	-40.4	15.7	0.00e+00	0	61	0	1246756864	49	4272
2026-01-18 23:37:53.50	170.88	63.95	-39.5	-41.5	14.6	7.00e-07	0	61	0	1249902592	49	4852
2026-01-18 23:37:54.51	171.34	63.56	-40.4	-42.8	13.3	8.30e-06	0	61	0	1253048320	51	4997
2026-01-18 23:37:55.52	171.78	63.16	-40.6	-43.1	12.8	6.10e-05	0	61	0	1256194048	51	5168
2026-01-18 23:37:56.53	172.20	62.77	-40.1	-42.3	13.6	2.05e-05	0	61	0	1259339776	51	4758
2026-01-18 23:37:57.54	172.61	62.38	-39.6	-41.7	14.2	7.00e-07	0	61	0	1262485504	51	4429
2026-01-18 23:37:58.55	173.01	61.99	-39.1	-41.0	15.0	0.00e+00	0	61	0	1265631232	50	4321
2026-01-18 23:37:59.56	173.39	61.60	-38.9	-40.7	15.4	0.00e+00	0	61	0	1268776960	49	4404
2026-01-18 23:38:00.57	173.77	61.21	-39.3	-41.2	14.9	0.00e+00	0	61	0	1271922688	49	4676
2026-01-18 23:38:01.58	174.13	60.82	-39.9	-42.0	14.1	7.00e-07	0	61	0	1275068416	50	4829
2026-01-18 23:38:02.59	174.48	60.43	-40.7	-43.2	12.9	1.44e-05	0	61	0	1279262720	51	5235
2026-01-18 23:38:03.60	174.82	60.05	-40.7	-43.2	12.8	6.40e-05	0	61	0	1282408448	52	4963
2026-01-18 23:38:04.61	175.15	59.66	-39.9	-42.1	13.8	1.29e-05	0	61	0	1284505600	51	4599
2026-01-18 23:38:05.62	175.48	59.28	-39.0	-40.9	14.9	0.00e+00	0	61	0	1287651328	50	4247
2026-01-18 23:38:06.63	175.79	58.90	-38.8	-40.5	15.3	0.00e+00	0	61	0	1290797056	49	4338
2026-01-18 23:38:07.64	176.09	58.52	-38.8	-40.6	15.4	0.00e+00	0	61	0	1294991360	49	4347
2026-01-18 23:38:08.65	176.39	58.14	-39.5	-41.5	14.6	0.00e+00	0	61	0	1298137088	49	4816
2026-01-18 23:38:09.65	176.67	57.77	-40.2	-42.5	13.6	3.80e-06	0	61	0	1301282816	50	5122
2026-01-18 23:38:10.66	176.95	57.39	-40.8	-43.4	12.5	5.18e-05	0	61	0	1304428544	52	5097
2026-01-18 23:38:11.67	177.22	57.02	-41.5	-44.5	11.4	6.10e-04	0	61	0	1306525696	53	5454
2026-01-18 23:38:12.69	177.49	56.65	-41.9	-45.4	10.4	3.68e-03	0	61	0	1309671424	54	5682
2026-01-18 23:38:13.70	177.75	56.28	-41.8	-45.1	10.6	4.70e-03	0	61	0	1313865728	54	5503
2026-01-18 23:38:14.70	178.00	55.92	-41.1	-43.9	11.8	1.27e-03	0	61	0	1317011456	54	4767
2026-01-18 23:38:15.71	178.24	55.55	-40.1	-42.4	13.5	4.80e-05	0	61	0	1320157184	52	4523
2026-01-18 23:38:16.72	178.48	55.19	-39.7	-41.7	14.2	1.50e-06	0	61	0	1323302912	51	4441
2026-01-18 23:38:17.73	178.72	54.83	-39.8	-41.8	14.2	7.00e-07	0	61	0	1326448640	51	4493
2026-01-18 23:38:18.74	178.94	54.47	-40.0	-42.2	13.8	7.00e-07	0	61	0	1329594368	51	4664
2026-01-18 23:38:19.75	179.16	54.11	-40.4	-42.7	13.4	7.60e-06	0	61	0	1332740096	51	4948
2026-01-18 23:38:20.76	179.38	53.76	-40.7	-43.1	13.0	2.59e-05	0	61	0	1335885824	51	5204
2026-01-18 23:38:21.77	179.59	53.41	-41.0	-43.8	12.3	1.04e-04	0	61	0	1339031552	52	5281
2026-01-18 23:38:22.78	179.80	53.06	-41.4	-44.3	11.7	4.81e-04	0	61	0	1342177280	53	5311
2026-01-18 23:38:23.79	180.00	52.71	-41.5	-44.6	11.4	1.07e-03	0	61	0	1345323008	53	5467
2026-01-18 23:38:24.80	180.20	52.36	-41.3	-44.3	11.6	8.70e-04	0	61	0	1348468736	53	5308
2026-01-18 23:38:25.81	180.39	52.02	-41.3	-44.1	11.8	5.77e-04	0	61	0	1351614464	53	5209
2026-01-18 23:38:26.82	180.58	51.67	-41.1	-43.8	12.1	2.82e-04	0	61	0	1354760192	53	5037
2026-01-18 23:38:27.82	180.76	51.34	-41.0	-43.7	12.2	2.43e-04	0	61	0	1357905920	53	4958
2026-01-18 23:38:28.83	180.94	51.00	-41.0	-43.6	12.4	2.25e-04	0	61	0	1361051648	53	4913
2026-01-18 23:38:29.84	181.12	50.66	-41.2	-44.0	12.0	2.60e-04	0	61	0	1364197376	53	5107
2026-01-18 23:38:30.85	181.29	50.33	-41.5	-44.4	11.5	5.86e-04	0	61	0	1367343104	53	5386
2026-01-18 23:38:31.86	181.46	50.00	-41.6	-44.6	11.3	1.19e-03	0	61	0	1370488832	53	5507
2026-01-18 23:38:32.87	181.62	49.67	-41.8	-45.0	10.8	2.03e-03	0	62	0	1373634560	54	5461
2026-01-18 23:38:33.88	181.78	49.34	-41.7	-44.8	11.0	1.77e-03	0	61	0	1376780288	54	5335
2026-01-18 23:38:34.89	181.94	49.02	-41.6	-44.6	11.3	1.39e-03	0	61	0	1379926016	54	5175
2026-01-18 23:38:35.90	182.10	48.69	-41.5	-44.4	11.4	1.11e-03	0	61	0	1383071744	54	5093
2026-01-18 23:38:36.91	182.25	48.37	-41.6	-44.7	11.1	1.35e-03	0	61	0	1386217472	54	5275
2026-01-18 23:38:37.92	182.40	48.05	-41.6	-44.7	11.2	1.42e-03	0	61	0	1389363200	54	5260
2026-01-18 23:38:38.93	182.54	47.74	-41.4	-44.2	11.7	7.03e-04	0	61	0	1392508928	54	4978
2026-01-18 23:38:39.94	182.69	47.42	-41.1	-43.9	12.0	3.58e-04	0	61	0	1395654656	54	4772
2026-01-18 23:38:40.95	182.83	47.11	-40.9	-43.6	12.3	1.85e-04	0	61	0	1398800384	53	4881
2026-01-18 23:38:41.96	182.96	46.80	-40.9	-43.6	12.3	2.20e-04	0	62	0	1401946112	53	4889
2026-01-18 23:38:42.97	183.10	46.49	-41.2	-44.0	11.9	2.74e-04	0	61	0	1405091840	53	5116
2026-01-18 23:38:43.98	183.23	46.19	-41.7	-44.8	11.2	9.90e-04	0	61	0	1408237568	53	5604
2026-01-18 23:38:44.99	183.36	45.88	-42.1	-45.6	10.4	4.04e-03	0	61	0	1411383296	54	5793
2026-01-18 23:38:46.00	183.49	45.58	-42.4	-46.3	9.5	1.20e-02	0	61	0	1414529024	55	5943
2026-01-18 23:38:47.01	183.61	45.28	-42.7	-46.8	9.0	2.30e-02	0	61	0	1417674752	55	6315
2026-01-18 23:38:48.02	183.74	44.98	-42.6	-46.6	9.2	2.49e-02	0	61	0	1420820480	55	6196
2026-01-18 23:38:49.03	183.86	44.69	-42.4	-46.2	9.7	1.68e-02	0	62	0	1423966208	55	5857
2026-01-18 23:38:50.04	183.98	44.40	-42.1	-45.6	10.3	6.81e-03	0	62	0	1427111936	55	5487
2026-01-18 23:38:51.05	184.09	44.10	-41.9	-45.2	10.7	3.48e-03	0	61	0	1430257664	55	5273
2026-01-18 23:38:52.06	184.21	43.82	-41.8	-44.9	11.0	2.32e-03	0	61	0	1433403392	55	5094
2026-01-18 23:38:53.07	184.32	43.53	-41.9	-45.2	10.7	2.62e-03	0	61	0	1436549120	55	5277
2026-01-18 23:38:54.08	184.43	43.24	-42.1	-45.6	10.3	3.94e-03	0	62	0	1439694848	55	5518
2026-01-18 23:38:55.09	184.54	42.96	-42.0	-45.5	10.4	5.48e-03	0	61	0	1442840576	55	5417
2026-01-18 23:38:56.10	184.65	42.68	-41.8	-45.0	10.9	3.01e-03	0	61	0	1445986304	55	5137
2026-01-18 23:38:57.11	184.75	42.40	-41.5	-44.6	11.2	1.38e-03	0	61	0	1449132032	55	4904
2026-01-18 23:38:58.12	184.86	42.12	-41.4	-44.3	11.5	1.03e-03	0	61	0	1452277760	54	5009
2026-01-18 23:38:59.13	184.96	41.85	-41.2	-44.1	11.7	6.77e-04	0	61	0	1455423488	54	4880
2026-01-18 23:39:00.13	185.06	41.58	-41.1	-43.8	12.0	3.35e-04	0	61	0	1458569216	54	4757
2026-01-18 23:39:01.14	185.15	41.30	-41.3	-44.1	11.8	4.59e-04	0	61	0	1461714944	54	4917
2026-01-18 23:39:02.16	185.25	41.03	-41.5	-44.5	11.4	7.18e-04	0	61	0	1464860672	54	5122
2026-01-18 23:39:03.17	185.35	40.76	-41.6	-44.8	11.1	1.28e-03	0	61	0	1468006400	54	5298
2026-01-18 23:39:04.18	185.44	40.50	-41.7	-44.9	11.0	2.00e-03	0	61	0	1471152128	54	5397
2026-01-18 23:39:05.19	185.53	40.24	-41.8	-45.1	10.8	2.68e-03	0	61	0	1474297856	54	5477
2026-01-18 23:39:06.20	185.62	39.97	-41.8	-45.1	10.8	2.63e-03	0	61	0	1477443584	54	5465
2026-01-18 23:39:07.21	185.71	39.71	-41.8	-45.1	10.8	2.51e-03	0	61	0	1480589312	54	5467
2026-01-18 23:39:08.22	185.80	39.45	-41.7	-44.9	11.0	2.53e-03	0	62	0	1483735040	54	5347
2026-01-18 23:39:09.22	185.89	39.20	-41.4	-44.4	11.4	1.15e-03	0	61	0	1486880768	54	5079
2026-01-18 23:39:10.23	185.97	38.95	-41.3	-44.2	11.6	7.48e-04	0	61	0	1490026496	54	4972
2026-01-18 23:39:11.24	186.06	38.69	-41.3	-44.2	11.7	5.53e-04	0	61	0	1493172224	54	4933
2026-01-18 23:39:12.25	186.14	38.44	-41.2	-44.0	11.9	3.62e-04	0	61	0	1496317952	54	4819
2026-01-18 23:39:13.26	186.22	38.19	-41.1	-43.9	12.0	2.78e-04	0	61	0	1499463680	54	4760
2026-01-18 23:39:14.27	186.30	37.95	-41.3	-44.2	11.7	6.13e-04	0	61	0	1502609408	54	4980
2026-01-18 23:39:15.28	186.38	37.70	-41.4	-44.5	11.4	9.51e-04	0	61	0	1505755136	54	5122
2026-01-18 23:39:16.29	186.46	37.46	-41.5	-44.6	11.3	1.07e-03	0	61	0	1508900864	54	5166
2026-01-18 23:39:17.30	186.54	37.21	-41.2	-44.1	11.8	7.13e-04	0	61	0	1512046592	54	4912
2026-01-18 23:39:18.31	186.61	36.97	-41.0	-43.8	12.0	3.41e-04	0	62	0	1515192320	54	4722
2026-01-18 23:39:19.32	186.69	36.73	-40.8	-43.5	12.3	2.11e-04	0	61	0	1518338048	53	4835
2026-01-18 23:39:20.33	186.76	36.50	-40.9	-43.6	12.2	2.28e-04	0	61	0	1521483776	53	4873
2026-01-18 23:39:21.34	186.84	36.26	-40.9	-43.6	12.1	2.53e-04	0	61	0	1524629504	53	4877
2026-01-18 23:39:22.35	186.91	36.03	-40.8	-43.5	12.2	2.12e-04	0	61	0	1527775232	53	4849
2026-01-18 23:39:23.36	186.98	35.80	-40.7	-43.3	12.4	1.88e-04	0	61	0	1530920960	53	4757
2026-01-18 23:39:24.37	187.05	35.57	-40.7	-43.4	12.3	1.72e-04	0	61	0	1534066688	53	4767
2026-01-18 23:39:25.38	187.12	35.34	-40.8	-43.5	12.3	1.75e-04	0	61	0	1537212416	53	4858
2026-01-18 23:39:26.39	187.19	35.11	-40.8	-43.5	12.3	1.72e-04	0	61	0	1540358144	53	4816
2026-01-18 23:39:27.40	187.25	34.88	-40.8	-43.5	12.2	2.24e-04	0	61	0	1543503872	53	4857
2026-01-18 23:39:28.41	187.32	34.66	-40.9	-43.7	12.1	2.66e-04	0	61	0	1546649600	53	4958
2026-01-18 23:39:29.42	187.39	34.44	-40.9	-43.7	12.1	3.15e-04	0	61	0	1549795328	53	4950
2026-01-18 23:39:30.43	187.45	34.22	-40.9	-43.7	12.1	2.62e-04	0	61	0	1552941056	53	4948
2026-01-18 23:39:31.44	187.52	34.00	-40.8	-43.5	12.3	1.98e-04	0	61	0	1556086784	53	4855
2026-01-18 23:39:32.45	187.58	33.78	-40.7	-43.3	12.5	1.36e-04	0	61	0	1559232512	53	4735
2026-01-18 23:39:33.46	187.64	33.56	-40.5	-43.0	12.9	5.95e-05	0	61	0	1562378240	53	4551
2026-01-18 23:39:34.47	187.70	33.35	-40.3	-42.7	13.1	2.44e-05	0	61	0	1565523968	52	4701
2026-01-18 23:39:35.48	187.76	33.13	-40.3	-42.6	13.3	1.75e-05	0	61	0	1568669696	52	4635
2026-01-18 23:39:36.49	187.82	32.92	-40.3	-42.7	13.2	2.21e-05	0	61	0	1571815424	52	4663
2026-01-18 23:39:37.50	187.88	32.71	-40.1	-42.3	13.5	6.80e-06	0	61	0	1574961152	52	4480
2026-01-18 23:39:38.50	187.94	32.50	-40.0	-42.3	13.7	3.00e-06	0	61	0	1578106880	51	4714
2026-01-18 23:39:39.51	188.00	32.29	-40.1	-42.3	13.6	7.60e-06	0	61	0	1581252608	51	4742
2026-01-18 23:39:40.53	188.06	32.09	-40.1	-42.4	13.6	1.06e-05	0	61	0	1584398336	51	4771
2026-01-18 23:39:41.53	188.11	31.88	-40.0	-42.2	13.7	4.50e-06	0	61	0	1587544064	51	4699
2026-01-18 23:39:42.54	188.17	31.68	-40.1	-42.4	13.6	7.60e-06	0	61	0	1590689792	51	4766
2026-01-18 23:39:43.55	188.22	31.48	-40.2	-42.5	13.5	9.10e-06	0	61	0	1593835520	51	4832
2026-01-18 23:39:44.56	188.28	31.28	-40.2	-42.5	13.5	1.60e-05	0	61	0	1596981248	51	4819
2026-01-18 23:39:45.57	188.33	31.08	-40.1	-42.4	13.5	1.29e-05	0	61	0	1600126976	51	4802
2026-01-18 23:39:46.58	188.39	30.88	-40.1	-42.4	13.5	7.60e-06	0	61	0	1603272704	51	4811
2026-01-18 23:39:47.59	188.44	30.68	-40.1	-42.4	13.6	5.30e-06	0	61	0	1606418432	51	4789
2026-01-18 23:39:48.60	188.49	30.49	-40.1	-42.4	13.6	8.30e-06	0	61	0	1609564160	51	4785
2026-01-18 23:39:49.61	188.54	30.29	-40.1	-42.4	13.6	1.06e-05	0	61	0	1612709888	51	4786
2026-01-18 23:39:50.62	188.59	30.10	-40.2	-42.5	13.4	1.83e-05	0	62	0	1615855616	51	4859
2026-01-18 23:39:51.63	188.64	29.91	-40.2	-42.6	13.4	1.37e-05	0	62	0	1619001344	51	4899
2026-01-18 23:39:52.63	188.69	29.72	-40.4	-42.8	13.2	1.14e-05	0	61	0	1622147072	51	5015
2026-01-18 23:39:53.64	188.74	29.53	-40.4	-42.8	13.2	2.51e-05	0	61	0	1625292800	51	5015
2026-01-18 23:39:54.65	188.79	29.34	-40.4	-42.9	13.1	2.36e-05	0	61	0	1628438528	51	5078
2026-01-18 23:39:55.66	188.84	29.15	-40.5	-43.0	13.0	3.50e-05	0	61	0	1631584256	51	5118
2026-01-18 23:39:56.68	188.89	28.97	-40.6	-43.2	12.8	5.79e-05	0	61	0	1634729984	51	5224
2026-01-18 23:39:57.68	188.94	28.78	-40.7	-43.3	12.6	6.94e-05	0	61	0	1637875712	51	5315
2026-01-18 23:39:58.69	188.98	28.60	-40.7	-43.3	12.5	1.17e-04	0	61	0	1642070016	52	5029
2026-01-18 23:39:59.70	189.03	28.42	-40.7	-43.4	12.4	1.45e-04	0	61	0	1645215744	52	5097
2026-01-18 23:40:00.71	189.07	28.24	-40.8	-43.5	12.3	1.58e-04	0	61	0	1647312896	52	5156
2026-01-18 23:40:01.72	189.12	28.06	-40.8	-43.6	12.2	1.98e-04	0	61	0	1650458624	52	5167
2026-01-18 23:40:02.73	189.16	27.88	-40.7	-43.3	12.4	1.64e-04	0	61	0	1653604352	52	5038
2026-01-18 23:40:03.74	189.21	27.70	-40.7	-43.4	12.4	1.66e-04	0	62	0	1657798656	52	5068
2026-01-18 23:40:04.75	189.25	27.53	-40.6	-43.2	12.5	1.16e-04	0	61	0	1660944384	52	4964
2026-01-18 23:40:05.76	189.30	27.35	-40.6	-43.2	12.6	9.00e-05	0	61	0	1664090112	52	4961
2026-01-18 23:40:06.77	189.34	27.18	-40.6	-43.2	12.6	1.12e-04	0	62	0	1667235840	52	4951
2026-01-18 23:40:07.78	189.38	27.00	-40.4	-42.9	12.8	7.17e-05	0	62	0	1669332992	52	4813
2026-01-18 23:40:08.79	189.42	26.83	-40.2	-42.6	13.1	3.43e-05	0	61	0	1672478720	52	4640
2026-01-18 23:40:09.80	189.47	26.66	-40.1	-42.5	13.2	2.67e-05	0	61	0	1676673024	52	4583
2026-01-18 23:40:10.80	189.51	26.49	-40.0	-42.4	13.4	1.52e-05	0	61	0	1679818752	52	4512
2026-01-18 23:40:11.81	189.55	26.32	-40.0	-42.3	13.4	1.29e-05	0	62	0	1682964480	52	4484
2026-01-18 23:40:12.82	189.59	26.16	-40.0	-42.4	13.4	1.22e-05	0	61	0	1686110208	51	4763
2026-01-18 23:40:13.83	189.63	25.99	-39.9	-42.1	13.7	6.80e-06	0	61	0	1689255936	51	4641
2026-01-18 23:40:14.84	189.67	25.82	-39.7	-41.8	14.0	3.00e-06	0	61	0	1692401664	51	4490
2026-01-18 23:40:15.85	189.71	25.66	-39.7	-41.8	14.1	1.50e-06	0	61	0	1695547392	51	4464
2026-01-18 23:40:16.86	189.75	25.49	-39.7	-41.8	14.0	1.50e-06	0	62	0	1698693120	51	4484
2026-01-18 23:40:17.87	189.79	25.33	-39.6	-41.7	14.1	2.20e-06	0	62	0	1701838848	51	4424
2026-01-18 23:40:18.88	189.82	25.17	-39.5	-41.6	14.2	0.00e+00	0	61	0	1704984576	51	4372
2026-01-18 23:40:19.89	189.86	25.01	-39.5	-41.6	14.2	7.00e-07	0	61	0	1708130304	51	4376
2026-01-18 23:40:20.90	189.90	24.85	-39.5	-41.6	14.2	7.00e-07	0	61	0	1711276032	51	4388
2026-01-18 23:40:21.91	189.94	24.69	-39.5	-41.6	14.2	1.50e-06	0	61	0	1714421760	51	4347
2026-01-18 23:40:22.92	189.97	24.53	-39.5	-41.6	14.1	1.50e-06	0	62	0	1717567488	51	4390
2026-01-18 23:40:23.93	190.01	24.38	-39.6	-41.8	14.0	4.50e-06	0	61	0	1720713216	51	4460
2026-01-18 23:40:24.94	190.05	24.22	-39.7	-41.9	13.9	1.50e-06	0	61	0	1723858944	51	4524
2026-01-18 23:40:25.95	190.08	24.06	-39.8	-42.0	13.9	6.10e-06	0	61	0	1727004672	51	4557
2026-01-18 23:40:26.96	190.12	23.91	-39.9	-42.1	13.8	4.50e-06	0	61	0	1730150400	51	4619
2026-01-18 23:40:27.97	190.15	23.76	-39.8	-42.0	13.8	6.80e-06	0	61	0	1733296128	51	4569
2026-01-18 23:40:28.98	190.19	23.60	-39.9	-42.1	13.7	8.30e-06	0	62	0	1736441856	51	4635
2026-01-18 23:40:29.99	190.22	23.45	-39.9	-42.1	13.8	5.30e-06	0	61	0	1739587584	51	4628
2026-01-18 23:40:31.00	190.26	23.30	-39.9	-42.1	13.8	6.10e-06	0	61	0	1742733312	51	4645
2026-01-18 23:40:32.01	190.29	23.15	-39.8	-41.9	13.9	3.80e-06	0	61	0	1745879040	51	4544
2026-01-18 23:40:33.02	190.33	23.00	-39.7	-41.8	14.0	7.00e-07	0	61	0	1749024768	51	4485
2026-01-18 23:40:34.03	190.36	22.86	-39.7	-41.8	14.1	7.00e-07	0	61	0	1752170496	51	4479
2026-01-18 23:40:35.04	190.39	22.71	-39.6	-41.7	14.2	0.00e+00	0	62	0	1755316224	51	4434
2026-01-18 23:40:36.05	190.43	22.56	-39.6	-41.7	14.3	0.00e+00	0	61	0	1758461952	51	4393
2026-01-18 23:40:37.06	190.46	22.42	-39.6	-41.6	14.3	0.00e+00	0	61	0	1761607680	51	4389
2026-01-18 23:40:38.07	190.49	22.27	-39.5	-41.6	14.3	1.50e-06	0	61	0	1764753408	51	4378
2026-01-18 23:40:39.08	190.52	22.13	-39.5	-41.6	14.3	1.50e-06	0	62	0	1767899136	51	4384
2026-01-18 23:40:40.09	190.55	21.98	-39.6	-41.7	14.3	3.00e-06	0	61	0	1771044864	51	4395
2026-01-18 23:40:41.10	190.59	21.84	-39.6	-41.8	14.2	2.20e-06	0	61	0	1774190592	51	4453
2026-01-18 23:40:42.11	190.62	21.70	-39.6	-41.8	14.1	1.50e-06	0	61	0	1777336320	51	4456
2026-01-18 23:40:43.12	190.65	21.56	-39.6	-41.8	14.1	1.50e-06	0	61	0	1780482048	51	4453
2026-01-18 23:40:44.13	190.68	21.42	-39.8	-41.9	13.9	1.50e-06	0	61	0	1783627776	51	4543
2026-01-18 23:40:45.14	190.71	21.28	-39.7	-41.9	14.0	3.80e-06	0	61	0	1786773504	51	4539
2026-01-18 23:40:46.15	190.74	21.14	-39.8	-42.0	13.9	3.00e-06	0	61	0	1789919232	51	4557
2026-01-18 23:40:47.16	190.77	21.00	-39.9	-42.1	13.8	4.50e-06	0	61	0	1793064960	51	4628
2026-01-18 23:40:48.17	190.80	20.87	-39.9	-42.2	13.7	5.30e-06	0	61	0	1796210688	51	4657
2026-01-18 23:40:49.18	190.83	20.73	-39.9	-42.2	13.7	9.10e-06	0	62	0	1799356416	51	4673
2026-01-18 23:40:50.19	190.86	20.59	-40.0	-42.3	13.6	7.60e-06	0	62	0	1802502144	51	4739
2026-01-18 23:40:51.19	190.89	20.46	-40.0	-42.3	13.5	6.80e-06	0	61	0	1805647872	51	4745
2026-01-18 23:40:52.20	190.92	20.33	-40.1	-42.4	13.5	1.44e-05	0	61	0	1808793600	51	4804
2026-01-18 23:40:53.21	190.95	20.19	-40.1	-42.5	13.4	1.67e-05	0	62	0	1811939328	51	4837
2026-01-18 23:40:54.21	190.97	20.06	-40.2	-42.6	13.3	2.44e-05	0	62	0	1815085056	51	4889
2026-01-18 23:40:55.22	191.00	19.93	-40.1	-42.5	13.3	1.52e-05	0	61	0	1818230784	51	4859
2026-01-18 23:40:56.23	191.03	19.80	-40.1	-42.5	13.3	1.52e-05	0	61	0	1821376512	51	4864
2026-01-18 23:40:57.24	191.06	19.67	-40.2	-42.6	13.3	1.90e-05	0	61	0	1824522240	51	4877
2026-01-18 23:40:58.25	191.09	19.54	-40.1	-42.5	13.4	1.52e-05	0	62	0	1827667968	51	4830
2026-01-18 23:40:59.26	191.11	19.41	-40.2	-42.5	13.3	1.44e-05	0	62	0	1830813696	51	4865
2026-01-18 23:41:00.27	191.14	19.28	-40.1	-42.5	13.4	1.67e-05	0	62	0	1833959424	51	4830
2026-01-18 23:41:01.28	191.17	19.15	-40.2	-42.6	13.3	1.90e-05	0	61	0	1837105152	51	4877
2026-01-18 23:41:02.30	191.19	19.02	-40.1	-42.5	13.3	1.60e-05	0	61	0	1840250880	51	4848
2026-01-18 23:41:03.30	191.22	18.90	-40.0	-42.4	13.5	5.30e-06	0	61	0	1843396608	51	4761
2026-01-18 23:41:04.31	191.25	18.77	-40.0	-42.3	13.5	1.06e-05	0	62	0	1846542336	51	4716
2026-01-18 23:41:05.33	191.27	18.65	-40.0	-42.4	13.4	1.44e-05	0	62	0	1849688064	51	4768
2026-01-18 23:41:06.33	191.30	18.52	-40.1	-42.5	13.4	1.06e-05	0	62	0	1852833792	51	4815
2026-01-18 23:41:07.34	191.33	18.40	-40.1	-42.4	13.4	1.06e-05	0	62	0	1855979520	51	4791
2026-01-18 23:41:08.35	191.35	18.27	-40.0	-42.3	13.5	8.30e-06	0	61	0	1859125248	51	4730
2026-01-18 23:41:09.36	191.38	18.15	-40.0	-42.4	13.4	1.83e-05	0	61	0	1862270976	51	4775
2026-01-18 23:41:10.37	191.40	18.03	-40.1	-42.4	13.4	9.10e-06	0	62	0	1865416704	51	4780
2026-01-18 23:41:11.38	191.43	17.91	-40.0	-42.4	13.4	1.29e-05	0	61	0	1868562432	51	4778
2026-01-18 23:41:12.39	191.45	17.79	-40.1	-42.5	13.3	2.28e-05	0	62	0	1871708160	51	4833
2026-01-18 23:41:13.40	191.48	17.67	-40.1	-42.5	13.3	1.29e-05	0	61	0	1874853888	51	4832
2026-01-18 23:41:14.41	191.50	17.55	-40.1	-42.4	13.4	1.67e-05	0	62	0	1877999616	51	4789
2026-01-18 23:41:15.42	191.53	17.43	-40.1	-42.5	13.3	1.98e-05	0	62	0	1881145344	51	4841
2026-01-18 23:41:16.43	191.55	17.31	-40.2	-42.6	13.2	2.89e-05	0	61	0	1884291072	51	4912
2026-01-18 23:41:17.43	191.57	17.19	-40.2	-42.6	13.2	2.36e-05	0	61	0	1887436800	51	4882
2026-01-18 23:41:18.44	191.60	17.07	-40.2	-42.6	13.1	2.74e-05	0	61	0	1890582528	51	4919
2026-01-18 23:41:19.46	191.62	16.95	-40.2	-42.7	13.1	3.35e-05	0	61	0	1893728256	51	4952
2026-01-18 23:41:20.46	191.65	16.84	-40.2	-42.7	13.1	2.36e-05	0	62	0	1896873984	51	4936
2026-01-18 23:41:21.47	191.67	16.72	-40.3	-42.8	13.0	2.97e-05	0	61	0	1900019712	51	4999
2026-01-18 23:41:22.48	191.69	16.61	-40.3	-42.8	12.9	4.19e-05	0	62	0	1903165440	51	5035
2026-01-18 23:41:23.49	191.72	16.49	-40.3	-42.8	13.0	5.11e-05	0	62	0	1906311168	51	5010
2026-01-18 23:41:24.50	191.74	16.38	-40.3	-42.9	12.9	5.87e-05	0	62	0	1909456896	51	5057
2026-01-18 23:41:25.51	191.76	16.26	-40.3	-42.8	12.9	4.42e-05	0	62	0	1912602624	51	5040
2026-01-18 23:41:26.52	191.78	16.15	-40.3	-42.8	12.9	4.57e-05	0	62	0	1915748352	51	5026
2026-01-18 23:41:27.53	191.81	16.04	-40.3	-42.9	12.8	5.34e-05	0	61	0	1918894080	51	5049
