passes_logs/2026/01/18/R2.0S_Moscow/R2.0S_Moscow__20260118_143156_FENGYUN_3E_rec.log

#Pass ID: 20260118_143156_FENGYUN 3E
#Satellite: FENGYUN 3E
#Configuration: FENGYUN 3E
#almurnet v.1.7.20251203
#Start time: 2026-01-18 14:31:57

#Version: 2.2.20231116
#Station: R2.0S_Moscow
#Location: 37.707566 lon 55.798166 lat
#TLE: 1 49008U 21062A   26017.61301378  .00000104  00000+0  69808-4 0  9996
#TLE: 2 49008  98.7484  22.7108 0002130 132.1860 227.9498 14.19886007235218

#Time	Az	El	Level	Level2	SNR	BER	BlckErr	Temp	State	Recorded	gain1	gain2
2026-01-18 14:31:57.54	170.29	2.07	-45.5	-56.8	3.8	8.45e-01	0	52	0	0	60	14175
2026-01-18 14:31:58.55	170.31	2.14	-45.6	-57.0	3.8	8.46e-01	0	52	104	0	62	12812
2026-01-18 14:31:59.56	170.32	2.20	-45.6	-56.9	3.8	8.47e-01	0	53	104	0	62	12802
2026-01-18 14:32:00.57	170.34	2.27	-45.5	-56.9	3.8	8.47e-01	0	52	104	0	62	12804
2026-01-18 14:32:01.58	170.36	2.33	-45.5	-56.9	3.8	8.47e-01	0	53	104	0	62	12715
2026-01-18 14:32:02.59	170.38	2.40	-45.5	-56.9	3.8	8.45e-01	0	53	104	0	62	12686
2026-01-18 14:32:03.60	170.39	2.47	-45.5	-56.8	3.8	8.46e-01	0	53	104	0	61	13300
2026-01-18 14:32:04.61	170.41	2.53	-45.4	-56.8	3.8	8.46e-01	0	53	104	0	61	13327
2026-01-18 14:32:05.62	170.43	2.60	-45.4	-56.8	3.8	8.46e-01	0	53	104	0	61	13373
2026-01-18 14:32:06.63	170.45	2.66	-45.4	-56.7	3.8	8.46e-01	0	53	104	0	61	13213
2026-01-18 14:32:07.63	170.47	2.73	-45.4	-56.7	3.8	8.47e-01	0	53	104	0	61	13186
2026-01-18 14:32:08.65	170.48	2.80	-45.3	-56.7	3.8	8.46e-01	0	53	104	0	61	13123
2026-01-18 14:32:09.65	170.50	2.86	-45.3	-56.6	3.8	8.45e-01	0	53	104	0	61	13071
2026-01-18 14:32:10.67	170.52	2.93	-45.3	-56.7	3.8	8.45e-01	0	53	104	0	61	13155
2026-01-18 14:32:11.68	170.54	2.99	-45.3	-56.6	3.8	8.47e-01	0	53	104	0	61	13106
2026-01-18 14:32:12.69	170.56	3.06	-45.3	-56.7	3.8	8.47e-01	0	53	104	0	60	13942
2026-01-18 14:32:13.70	170.58	3.13	-45.3	-56.7	3.8	8.47e-01	0	54	104	0	60	13971
2026-01-18 14:32:14.70	170.60	3.20	-45.3	-56.7	3.8	8.46e-01	0	54	104	0	60	13902
2026-01-18 14:32:15.72	170.61	3.26	-45.3	-56.7	3.8	8.46e-01	0	54	104	0	60	13918
2026-01-18 14:32:16.73	170.63	3.33	-45.3	-56.7	3.8	8.45e-01	0	54	104	0	60	13907
2026-01-18 14:32:17.74	170.65	3.40	-45.3	-56.6	3.8	8.46e-01	0	54	104	0	60	13846
2026-01-18 14:32:18.75	170.67	3.47	-45.3	-56.7	3.8	8.46e-01	0	54	104	0	60	13890
2026-01-18 14:32:19.76	170.69	3.53	-45.3	-56.7	3.8	8.46e-01	0	54	104	0	60	13895
2026-01-18 14:32:20.77	170.71	3.60	-45.3	-56.7	3.8	8.45e-01	0	54	104	0	60	13926
2026-01-18 14:32:21.78	170.73	3.67	-45.3	-56.6	3.8	8.47e-01	0	54	104	0	60	13862
2026-01-18 14:32:22.79	170.75	3.74	-45.3	-56.6	3.8	8.45e-01	0	54	104	0	60	13883
2026-01-18 14:32:23.80	170.77	3.81	-45.3	-56.7	3.8	8.46e-01	0	54	104	0	60	13902
2026-01-18 14:32:24.81	170.79	3.88	-45.3	-56.6	3.8	8.46e-01	0	54	104	0	60	13847
2026-01-18 14:32:25.82	170.81	3.95	-45.3	-56.6	3.8	8.47e-01	0	55	104	0	60	13827
2026-01-18 14:32:26.83	170.83	4.02	-45.3	-56.6	3.8	8.46e-01	0	54	104	0	60	13776
2026-01-18 14:32:27.84	170.84	4.08	-45.3	-56.6	3.8	8.46e-01	0	55	104	0	60	13842
2026-01-18 14:32:28.84	170.86	4.15	-45.3	-56.6	3.8	8.46e-01	0	55	104	0	60	13859
2026-01-18 14:32:29.84	170.88	4.22	-45.3	-56.6	3.8	8.46e-01	0	55	104	0	60	13872
2026-01-18 14:32:30.84	170.90	4.29	-45.3	-56.6	3.8	8.46e-01	0	55	104	0	60	13858
2026-01-18 14:32:31.85	170.92	4.36	-45.3	-56.6	3.8	8.46e-01	0	55	104	0	60	13798
2026-01-18 14:32:32.86	170.94	4.43	-45.3	-56.6	3.8	8.45e-01	0	55	104	0	60	13808
2026-01-18 14:32:33.87	170.96	4.50	-45.2	-56.6	3.8	8.46e-01	0	55	104	0	60	13874
2026-01-18 14:32:34.87	170.98	4.57	-45.2	-56.6	3.8	8.46e-01	0	55	104	0	60	13791
2026-01-18 14:32:35.88	171.00	4.64	-45.2	-56.6	3.8	8.46e-01	0	55	104	0	60	13820
2026-01-18 14:32:36.89	171.02	4.71	-45.3	-56.6	3.8	8.46e-01	0	55	104	0	60	13804
2026-01-18 14:32:37.90	171.05	4.79	-45.2	-56.6	3.8	8.46e-01	0	55	104	0	60	13819
2026-01-18 14:32:38.91	171.07	4.86	-45.3	-56.6	3.8	8.46e-01	0	55	104	0	60	13789
2026-01-18 14:32:39.92	171.09	4.93	-45.2	-56.6	3.8	8.46e-01	0	55	104	0	60	13746
2026-01-18 14:32:40.93	171.11	5.00	-45.2	-56.6	3.8	8.45e-01	0	55	104	0	60	13826
2026-01-18 14:32:41.94	171.13	5.07	-45.2	-56.6	3.8	8.47e-01	0	55	104	0	60	13745
2026-01-18 14:32:42.95	171.15	5.14	-45.2	-56.6	3.8	8.46e-01	0	55	104	0	60	13795
2026-01-18 14:32:43.96	171.17	5.22	-45.2	-56.6	3.8	8.45e-01	0	55	104	0	60	13851
2026-01-18 14:32:44.96	171.19	5.29	-45.2	-56.5	3.8	8.46e-01	0	56	104	0	60	13717
2026-01-18 14:32:45.97	171.21	5.36	-45.2	-56.6	3.8	8.46e-01	0	56	104	0	60	13731
2026-01-18 14:32:46.97	171.23	5.43	-45.2	-56.6	3.8	8.45e-01	0	56	104	0	60	13765
2026-01-18 14:32:47.98	171.25	5.51	-45.2	-56.6	3.8	8.46e-01	0	56	104	0	60	13778
2026-01-18 14:32:48.98	171.28	5.58	-45.2	-56.6	3.8	8.45e-01	0	56	104	0	60	13757
2026-01-18 14:32:49.99	171.30	5.65	-45.1	-56.6	3.8	8.46e-01	0	56	104	0	60	13742
2026-01-18 14:32:50.99	171.32	5.73	-45.2	-56.6	3.8	8.46e-01	0	56	104	0	60	13736
2026-01-18 14:32:52.00	171.34	5.80	-45.2	-56.6	3.8	8.47e-01	0	56	104	0	60	13752
2026-01-18 14:32:53.01	171.36	5.87	-45.2	-56.6	3.8	8.47e-01	0	56	104	0	60	13758
2026-01-18 14:32:54.02	171.38	5.95	-44.9	-56.6	3.8	8.47e-01	0	56	104	0	60	13729
2026-01-18 14:32:55.02	171.41	6.02	-45.2	-56.6	3.8	8.46e-01	0	56	104	0	60	13733
2026-01-18 14:32:56.03	171.43	6.10	-45.2	-56.6	3.8	8.47e-01	0	56	104	0	60	13749
2026-01-18 14:32:57.04	171.45	6.17	-45.0	-56.6	3.8	8.47e-01	0	56	104	0	60	13771
2026-01-18 14:32:58.05	171.47	6.25	-44.8	-56.6	3.8	8.46e-01	0	56	104	0	60	13750
2026-01-18 14:32:59.05	171.50	6.32	-45.2	-56.5	3.8	8.46e-01	0	56	104	0	60	13697
2026-01-18 14:33:00.06	171.52	6.40	-45.2	-56.5	3.8	8.46e-01	0	56	104	0	60	13726
2026-01-18 14:33:01.07	171.54	6.47	-45.2	-56.6	3.8	8.46e-01	0	56	104	0	60	13804
2026-01-18 14:33:02.08	171.56	6.55	-45.2	-56.6	3.8	8.46e-01	0	56	104	0	60	13755
2026-01-18 14:33:03.08	171.59	6.63	-45.2	-56.6	3.8	8.46e-01	0	56	104	0	60	13834
2026-01-18 14:33:04.09	171.61	6.70	-45.2	-56.6	3.8	8.46e-01	0	56	104	0	60	13758
2026-01-18 14:33:05.10	171.63	6.78	-45.2	-56.6	3.8	8.47e-01	0	57	104	0	60	13781
2026-01-18 14:33:06.11	171.66	6.86	-45.2	-56.6	3.8	8.45e-01	0	57	104	0	60	13804
2026-01-18 14:33:07.11	171.68	6.93	-45.1	-56.6	3.8	8.46e-01	0	57	104	0	60	13780
2026-01-18 14:33:08.12	171.70	7.01	-45.2	-56.6	3.8	8.46e-01	0	57	104	0	60	13827
2026-01-18 14:33:09.12	171.72	7.09	-45.1	-56.5	3.8	8.44e-01	0	57	104	0	60	13683
2026-01-18 14:33:10.13	171.75	7.16	-45.2	-56.6	3.8	8.46e-01	0	57	104	0	60	13739
2026-01-18 14:33:11.14	171.77	7.24	-45.2	-56.6	3.8	8.46e-01	0	57	104	0	60	13776
2026-01-18 14:33:12.15	171.80	7.32	-45.4	-56.7	3.8	8.46e-01	0	57	104	0	60	14021
2026-01-18 14:33:13.16	171.82	7.40	-45.4	-56.8	3.8	8.47e-01	0	57	104	0	60	14127
2026-01-18 14:33:14.17	171.84	7.48	-45.4	-56.9	3.8	8.46e-01	0	57	104	0	60	14237
2026-01-18 14:33:15.17	171.87	7.56	-45.5	-56.9	3.8	8.45e-01	0	57	104	0	60	14303
2026-01-18 14:33:16.18	171.89	7.64	-45.5	-56.9	3.8	8.47e-01	0	57	104	0	60	14324
2026-01-18 14:33:17.19	171.92	7.72	-45.6	-56.9	3.8	8.46e-01	0	57	104	0	60	14340
2026-01-18 14:33:18.20	171.94	7.80	-45.6	-57.0	3.8	8.48e-01	0	57	104	0	60	14383
2026-01-18 14:33:19.21	171.97	7.88	-45.6	-56.9	3.8	8.46e-01	0	57	104	0	60	14339
2026-01-18 14:33:20.22	171.99	7.96	-45.5	-56.9	3.8	8.45e-01	0	57	104	0	60	14263
2026-01-18 14:33:21.23	172.02	8.04	-45.5	-56.9	3.8	8.46e-01	0	57	104	0	60	14277
2026-01-18 14:33:22.24	172.04	8.12	-45.5	-56.8	3.8	8.46e-01	0	57	104	0	60	14164
2026-01-18 14:33:23.25	172.07	8.20	-45.4	-56.7	3.8	8.45e-01	0	57	104	0	60	14002
2026-01-18 14:33:24.25	172.09	8.28	-45.3	-56.6	3.8	8.46e-01	0	57	104	0	60	13808
2026-01-18 14:33:25.26	172.12	8.36	-45.1	-56.4	3.8	8.46e-01	0	57	104	0	60	13525
2026-01-18 14:33:26.27	172.14	8.44	-44.8	-55.7	3.8	8.46e-01	0	57	104	0	60	12436
2026-01-18 14:33:27.27	172.17	8.52	-41.9	-45.9	8.0	5.27e-01	0	57	0	0	55	5372
2026-01-18 14:33:28.28	172.19	8.61	-39.1	-41.8	12.1	1.62e-04	0	57	0	7340032	48	5021
2026-01-18 14:33:29.29	172.22	8.69	-39.2	-41.9	12.0	3.78e-04	0	57	0	14680064	48	5047
2026-01-18 14:33:30.30	172.25	8.77	-38.8	-41.3	12.7	1.66e-04	0	57	0	22020096	48	4714
2026-01-18 14:33:31.30	172.27	8.85	-39.3	-41.9	12.1	3.57e-03	0	58	0	29360128	49	4794
2026-01-18 14:33:32.31	172.30	8.94	-43.4	-51.7	4.1	8.45e-01	0	58	104	32505856	56	9885
2026-01-18 14:33:33.32	172.32	9.02	-40.9	-44.5	8.9	4.31e-01	0	58	0	37748736	53	5125
2026-01-18 14:33:34.33	172.35	9.11	-39.4	-42.0	12.2	2.87e-04	0	58	0	44040192	48	5117
2026-01-18 14:33:35.34	172.38	9.19	-38.1	-40.4	13.6	9.10e-06	0	58	0	52428800	47	4496
2026-01-18 14:33:36.35	172.40	9.27	-38.3	-40.7	13.2	1.83e-05	0	58	0	59768832	47	4666
2026-01-18 14:33:37.35	172.43	9.36	-38.1	-40.4	13.5	6.80e-06	0	58	0	66060288	47	4531
2026-01-18 14:33:38.36	172.46	9.44	-38.1	-40.4	13.5	1.02e-05	0	58	0	73400320	47	4533
2026-01-18 14:33:39.37	172.49	9.53	-38.2	-40.5	13.4	1.14e-05	0	58	0	80740352	47	4594
2026-01-18 14:33:40.38	172.51	9.62	-38.2	-40.5	13.5	1.25e-05	0	58	0	88080384	46	4821
2026-01-18 14:33:41.39	172.54	9.70	-38.3	-40.6	13.4	4.50e-06	0	58	0	95420416	46	4896
2026-01-18 14:33:42.39	172.57	9.79	-38.1	-40.4	13.6	2.20e-06	0	58	0	102760448	46	4790
2026-01-18 14:33:43.40	172.60	9.87	-38.1	-40.4	13.6	8.00e-06	0	58	0	110100480	46	4779
2026-01-18 14:33:44.41	172.62	9.96	-38.0	-40.2	13.9	2.20e-06	0	58	0	117440512	46	4678
2026-01-18 14:33:45.41	172.65	10.05	-38.1	-40.4	13.7	1.10e-06	0	58	0	124780544	46	4790
2026-01-18 14:33:46.41	172.68	10.13	-38.0	-40.2	13.9	4.50e-06	0	58	0	132120576	46	4672
2026-01-18 14:33:47.42	172.71	10.22	-37.9	-40.1	14.0	0.00e+00	0	58	0	139460608	46	4608
2026-01-18 14:33:48.43	172.74	10.31	-37.9	-40.2	13.9	2.20e-06	0	58	0	145752064	46	4662
2026-01-18 14:33:49.44	172.77	10.40	-38.0	-40.2	13.9	2.20e-06	0	58	0	154140672	46	4687
2026-01-18 14:33:50.44	172.79	10.49	-37.9	-40.1	14.0	0.00e+00	0	58	0	161480704	46	4600
2026-01-18 14:33:51.45	172.82	10.58	-38.0	-40.2	13.9	4.50e-06	0	58	0	167772160	46	4700
2026-01-18 14:33:52.45	172.85	10.66	-38.0	-40.2	13.9	1.10e-06	0	58	0	175112192	46	4690
2026-01-18 14:33:53.46	172.88	10.75	-37.8	-40.0	14.1	4.50e-06	0	58	0	182452224	46	4573
2026-01-18 14:33:54.47	172.91	10.84	-37.9	-40.1	14.1	1.10e-06	0	58	0	189792256	46	4612
2026-01-18 14:33:55.47	172.94	10.93	-37.8	-40.0	14.1	2.20e-06	0	58	0	197132288	46	4573
2026-01-18 14:33:56.48	172.97	11.02	-37.7	-39.8	14.3	1.10e-06	0	58	0	204472320	46	4491
2026-01-18 14:33:57.49	173.00	11.11	-37.8	-39.9	14.3	3.40e-06	0	58	0	211812352	46	4527
2026-01-18 14:33:58.49	173.03	11.21	-37.8	-39.9	14.3	1.10e-06	0	58	0	219152384	46	4518
2026-01-18 14:33:59.50	173.06	11.30	-37.9	-40.0	14.2	1.10e-06	0	59	0	226492416	46	4571
2026-01-18 14:34:00.51	173.09	11.39	-37.7	-39.8	14.4	1.10e-06	0	58	0	233832448	46	4486
2026-01-18 14:34:01.52	173.12	11.48	-37.8	-39.9	14.3	1.10e-06	0	59	0	241172480	45	4793
2026-01-18 14:34:02.52	173.15	11.57	-37.6	-39.7	14.5	0.00e+00	0	59	0	248512512	45	4672
2026-01-18 14:34:03.53	173.18	11.67	-37.8	-40.0	14.3	1.10e-06	0	59	0	254803968	45	4816
2026-01-18 14:34:04.54	173.22	11.76	-37.5	-39.5	14.7	0.00e+00	0	58	0	263192576	45	4578
2026-01-18 14:34:05.55	173.25	11.85	-37.4	-39.4	14.8	0.00e+00	0	58	0	270532608	45	4513
2026-01-18 14:34:06.55	173.28	11.95	-37.5	-39.5	14.7	0.00e+00	0	59	0	276824064	45	4595
2026-01-18 14:34:07.56	173.31	12.04	-37.5	-39.5	14.7	0.00e+00	0	59	0	284164096	45	4579
2026-01-18 14:34:08.56	173.34	12.14	-37.4	-39.4	14.9	0.00e+00	0	59	0	291504128	45	4513
2026-01-18 14:34:09.57	173.37	12.23	-37.5	-39.5	14.8	0.00e+00	0	59	0	298844160	45	4575
2026-01-18 14:34:10.57	173.41	12.33	-37.4	-39.4	14.9	0.00e+00	0	59	0	306184192	45	4519
2026-01-18 14:34:11.58	173.44	12.42	-37.5	-39.5	14.8	1.10e-06	0	59	0	313524224	45	4552
2026-01-18 14:34:12.58	173.47	12.52	-37.4	-39.4	14.9	0.00e+00	0	59	0	320864256	45	4515
2026-01-18 14:34:13.59	173.50	12.61	-37.3	-39.2	15.1	0.00e+00	0	59	0	328204288	45	4411
2026-01-18 14:34:14.59	173.54	12.71	-37.4	-39.3	14.9	0.00e+00	0	59	0	335544320	45	4478
2026-01-18 14:34:15.59	173.57	12.81	-37.3	-39.2	15.1	0.00e+00	0	59	0	342884352	45	4431
2026-01-18 14:34:16.60	173.60	12.90	-37.2	-39.1	15.2	1.10e-06	0	59	0	350224384	45	4369
2026-01-18 14:34:17.60	173.64	13.00	-37.4	-39.3	15.0	0.00e+00	0	59	0	356515840	45	4477
2026-01-18 14:34:18.61	173.67	13.10	-37.1	-39.0	15.3	0.00e+00	0	59	0	363855872	45	4318
2026-01-18 14:34:19.62	173.71	13.20	-37.2	-39.1	15.3	0.00e+00	0	59	0	371195904	45	4350
2026-01-18 14:34:20.63	173.74	13.30	-37.1	-39.0	15.3	0.00e+00	0	59	0	378535936	45	4318
2026-01-18 14:34:21.63	173.77	13.40	-37.0	-38.9	15.5	0.00e+00	0	59	0	385875968	44	4501
2026-01-18 14:34:22.64	173.81	13.50	-37.0	-38.8	15.5	0.00e+00	0	59	0	393216000	44	4484
2026-01-18 14:34:23.65	173.84	13.60	-37.1	-39.0	15.4	0.00e+00	0	59	0	400556032	44	4551
2026-01-18 14:34:24.65	173.88	13.70	-37.1	-39.0	15.4	0.00e+00	0	59	0	407896064	44	4573
2026-01-18 14:34:25.65	173.91	13.80	-37.1	-38.9	15.5	0.00e+00	0	59	0	415236096	44	4527
2026-01-18 14:34:26.66	173.95	13.90	-37.2	-39.1	15.3	0.00e+00	0	59	0	422576128	44	4607
2026-01-18 14:34:27.67	173.99	14.00	-37.2	-39.1	15.3	0.00e+00	0	59	0	429916160	44	4608
2026-01-18 14:34:28.68	174.02	14.11	-36.9	-38.7	15.7	0.00e+00	0	59	0	437256192	44	4415
2026-01-18 14:34:29.68	174.06	14.21	-37.2	-39.1	15.3	0.00e+00	0	59	0	443547648	44	4635
2026-01-18 14:34:30.68	174.10	14.31	-37.1	-39.0	15.4	0.00e+00	0	59	0	451936256	44	4571
2026-01-18 14:34:31.69	174.13	14.41	-36.9	-38.7	15.7	0.00e+00	0	59	0	459276288	44	4434
2026-01-18 14:34:32.70	174.17	14.52	-36.9	-38.7	15.7	0.00e+00	0	59	0	465567744	44	4409
2026-01-18 14:34:33.71	174.21	14.62	-36.9	-38.8	15.6	0.00e+00	0	59	0	472907776	44	4458
2026-01-18 14:34:34.72	174.24	14.73	-37.0	-38.9	15.6	0.00e+00	0	59	0	480247808	44	4501
2026-01-18 14:34:35.72	174.28	14.83	-37.1	-38.9	15.5	0.00e+00	0	59	0	487587840	44	4533
2026-01-18 14:34:36.72	174.32	14.94	-37.0	-38.8	15.6	0.00e+00	0	59	0	494927872	44	4484
2026-01-18 14:34:37.73	174.36	15.05	-36.7	-38.5	15.9	0.00e+00	0	59	0	502267904	44	4333
2026-01-18 14:34:38.73	174.40	15.15	-37.0	-38.9	15.5	0.00e+00	0	59	0	509607936	44	4512
2026-01-18 14:34:39.74	174.43	15.26	-37.0	-38.9	15.5	0.00e+00	0	59	0	516947968	44	4507
2026-01-18 14:34:40.74	174.47	15.37	-36.7	-38.6	15.8	0.00e+00	0	59	0	524288000	44	4349
2026-01-18 14:34:41.75	174.51	15.47	-36.7	-38.6	15.9	0.00e+00	0	59	0	531628032	44	4347
2026-01-18 14:34:42.76	174.55	15.58	-36.9	-38.7	15.7	0.00e+00	0	59	0	538968064	44	4426
2026-01-18 14:34:43.76	174.59	15.69	-36.8	-38.6	15.8	0.00e+00	0	59	0	546308096	44	4374
2026-01-18 14:34:44.77	174.63	15.80	-36.7	-38.5	15.9	0.00e+00	0	59	0	552599552	44	4339
2026-01-18 14:34:45.77	174.67	15.91	-36.9	-38.8	15.7	0.00e+00	0	60	0	559939584	44	4463
2026-01-18 14:34:46.78	174.71	16.02	-36.7	-38.6	15.8	0.00e+00	0	59	0	567279616	44	4381
2026-01-18 14:34:47.78	174.75	16.13	-36.9	-38.8	15.6	0.00e+00	0	60	0	574619648	44	4477
2026-01-18 14:34:48.78	174.79	16.24	-36.8	-38.7	15.8	0.00e+00	0	59	0	581959680	44	4425
2026-01-18 14:34:49.79	174.84	16.36	-36.8	-38.7	15.7	0.00e+00	0	60	0	589299712	44	4422
2026-01-18 14:34:50.80	174.88	16.47	-36.8	-38.7	15.7	0.00e+00	0	60	0	596639744	44	4429
2026-01-18 14:34:51.80	174.92	16.58	-36.8	-38.7	15.7	0.00e+00	0	59	0	603979776	44	4423
2026-01-18 14:34:52.81	174.96	16.69	-36.7	-38.7	15.8	0.00e+00	0	60	0	611319808	44	4396
2026-01-18 14:34:53.82	175.00	16.81	-36.6	-38.5	15.9	0.00e+00	0	60	0	618659840	44	4331
2026-01-18 14:34:54.83	175.05	16.92	-36.5	-38.4	16.0	0.00e+00	0	60	0	625999872	44	4277
2026-01-18 14:34:55.83	175.09	17.04	-36.5	-38.4	16.0	0.00e+00	0	60	0	632291328	44	4270
2026-01-18 14:34:56.83	175.13	17.15	-36.6	-38.5	15.9	0.00e+00	0	59	0	640679936	44	4326
2026-01-18 14:34:57.84	175.18	17.27	-36.4	-38.3	16.0	0.00e+00	0	59	0	648019968	43	4492
2026-01-18 14:34:58.85	175.22	17.39	-36.3	-38.2	16.1	0.00e+00	0	59	0	654311424	43	4431
2026-01-18 14:34:59.86	175.27	17.51	-36.4	-38.3	16.0	0.00e+00	0	59	0	661651456	43	4459
2026-01-18 14:35:00.87	175.31	17.62	-36.4	-38.3	16.0	0.00e+00	0	60	0	668991488	43	4476
2026-01-18 14:35:01.88	175.36	17.74	-36.4	-38.3	16.0	0.00e+00	0	60	0	676331520	43	4459
2026-01-18 14:35:02.89	175.40	17.86	-36.2	-38.1	16.2	0.00e+00	0	60	0	683671552	43	4373
2026-01-18 14:35:03.90	175.45	17.98	-36.2	-38.2	16.1	0.00e+00	0	60	0	691011584	43	4392
2026-01-18 14:35:04.91	175.49	18.10	-36.2	-38.1	16.2	0.00e+00	0	59	0	698351616	43	4354
2026-01-18 14:35:05.92	175.54	18.22	-36.3	-38.3	16.0	0.00e+00	0	60	0	705691648	43	4443
2026-01-18 14:35:06.93	175.59	18.35	-36.2	-38.2	16.1	0.00e+00	0	60	0	713031680	43	4394
2026-01-18 14:35:07.94	175.64	18.47	-36.2	-38.2	16.1	0.00e+00	0	60	0	720371712	43	4397
2026-01-18 14:35:08.95	175.68	18.59	-36.1	-38.1	16.2	0.00e+00	0	60	0	727711744	43	4352
2026-01-18 14:35:09.96	175.73	18.71	-36.1	-38.1	16.2	0.00e+00	0	60	0	735051776	43	4354
2026-01-18 14:35:10.97	175.78	18.84	-36.1	-38.0	16.3	0.00e+00	0	60	0	742391808	43	4313
2026-01-18 14:35:11.98	175.83	18.96	-36.0	-37.9	16.3	0.00e+00	0	60	0	749731840	43	4285
2026-01-18 14:35:12.99	175.88	19.09	-36.0	-37.9	16.4	0.00e+00	0	60	0	757071872	42	4507
2026-01-18 14:35:14.00	175.93	19.21	-35.9	-37.8	16.5	0.00e+00	0	60	0	764411904	42	4449
2026-01-18 14:35:15.02	175.98	19.34	-35.9	-37.9	16.4	0.00e+00	0	60	0	771751936	42	4498
2026-01-18 14:35:16.03	176.03	19.47	-35.9	-37.8	16.5	0.00e+00	0	60	0	779091968	42	4447
2026-01-18 14:35:17.04	176.08	19.60	-35.7	-37.6	16.6	0.00e+00	0	60	0	786432000	42	4367
2026-01-18 14:35:18.05	176.13	19.72	-35.8	-37.7	16.6	0.00e+00	0	60	0	793772032	42	4394
2026-01-18 14:35:19.06	176.18	19.85	-35.6	-37.5	16.8	0.00e+00	0	60	0	801112064	42	4303
2026-01-18 14:35:20.07	176.23	19.98	-35.6	-37.5	16.8	0.00e+00	0	60	0	807403520	42	4296
2026-01-18 14:35:21.08	176.29	20.11	-35.7	-37.5	16.8	0.00e+00	0	60	0	814743552	42	4322
2026-01-18 14:35:22.09	176.34	20.25	-35.6	-37.4	16.9	0.00e+00	0	60	0	823132160	42	4274
2026-01-18 14:35:23.10	176.39	20.38	-35.6	-37.5	16.8	0.00e+00	0	60	0	829423616	42	4301
2026-01-18 14:35:24.11	176.44	20.51	-35.6	-37.5	16.8	0.00e+00	0	60	0	836763648	42	4301
2026-01-18 14:35:25.12	176.50	20.64	-35.4	-37.2	17.1	0.00e+00	0	60	0	844103680	41	4428
2026-01-18 14:35:26.13	176.55	20.78	-35.4	-37.3	17.0	0.00e+00	0	60	0	851443712	41	4449
2026-01-18 14:35:27.14	176.61	20.91	-35.5	-37.3	17.0	0.00e+00	0	60	0	858783744	41	4463
2026-01-18 14:35:28.15	176.66	21.05	-35.6	-37.4	16.9	0.00e+00	0	60	0	866123776	41	4504
2026-01-18 14:35:29.16	176.72	21.18	-35.6	-37.4	16.9	0.00e+00	0	60	0	873463808	41	4510
2026-01-18 14:35:30.17	176.78	21.32	-35.5	-37.4	16.9	0.00e+00	0	60	0	880803840	41	4497
2026-01-18 14:35:31.18	176.83	21.46	-35.5	-37.3	17.0	0.00e+00	0	60	0	888143872	41	4471
2026-01-18 14:35:32.19	176.89	21.59	-35.6	-37.4	16.9	0.00e+00	0	60	0	895483904	41	4540
2026-01-18 14:35:33.20	176.95	21.73	-35.5	-37.4	16.9	0.00e+00	0	60	0	902823936	41	4497
2026-01-18 14:35:34.21	177.01	21.87	-35.6	-37.5	16.8	0.00e+00	0	60	0	910163968	41	4548
2026-01-18 14:35:35.22	177.06	22.01	-35.6	-37.5	16.8	0.00e+00	0	60	0	917504000	41	4547
2026-01-18 14:35:36.23	177.12	22.15	-35.6	-37.5	16.8	0.00e+00	0	60	0	924844032	41	4561
2026-01-18 14:35:37.25	177.18	22.30	-35.7	-37.6	16.7	0.00e+00	0	60	0	932184064	41	4619
2026-01-18 14:35:38.26	177.24	22.44	-35.6	-37.5	16.8	0.00e+00	0	60	0	939524096	41	4575
2026-01-18 14:35:39.27	177.30	22.58	-35.7	-37.6	16.7	0.00e+00	0	60	0	946864128	41	4614
2026-01-18 14:35:40.28	177.37	22.73	-35.7	-37.7	16.6	0.00e+00	0	60	0	953155584	41	4653
2026-01-18 14:35:41.29	177.43	22.87	-35.8	-37.7	16.6	0.00e+00	0	60	0	961544192	41	4666
2026-01-18 14:35:42.29	177.49	23.02	-35.8	-37.7	16.6	0.00e+00	0	60	0	968884224	41	4672
2026-01-18 14:35:43.30	177.55	23.16	-35.7	-37.7	16.6	0.00e+00	0	60	0	975175680	41	4656
2026-01-18 14:35:44.31	177.62	23.31	-35.7	-37.6	16.7	0.00e+00	0	60	0	982515712	41	4630
2026-01-18 14:35:45.33	177.68	23.46	-35.8	-37.8	16.6	0.00e+00	0	60	0	989855744	41	4715
2026-01-18 14:35:46.34	177.75	23.61	-35.7	-37.6	16.7	0.00e+00	0	60	0	997195776	41	4645
2026-01-18 14:35:47.35	177.81	23.76	-35.6	-37.5	16.8	0.00e+00	0	60	0	1004535808	41	4591
2026-01-18 14:35:48.36	177.88	23.91	-35.7	-37.6	16.8	0.00e+00	0	60	0	1011875840	41	4603
2026-01-18 14:35:49.37	177.94	24.06	-35.7	-37.6	16.7	0.00e+00	0	60	0	1019215872	41	4612
2026-01-18 14:35:50.38	178.01	24.21	-35.7	-37.5	16.8	0.00e+00	0	60	0	1026555904	41	4577
2026-01-18 14:35:51.39	178.08	24.36	-35.7	-37.5	16.8	0.00e+00	0	60	0	1033895936	41	4595
2026-01-18 14:35:52.41	178.15	24.52	-35.5	-37.3	17.0	0.00e+00	0	60	0	1041235968	41	4488
2026-01-18 14:35:53.42	178.22	24.68	-35.4	-37.2	17.2	0.00e+00	0	60	0	1048576000	41	4408
2026-01-18 14:35:54.43	178.29	24.83	-35.4	-37.2	17.2	0.00e+00	0	60	0	1055916032	41	4410
2026-01-18 14:35:55.44	178.36	24.99	-35.3	-37.0	17.4	0.00e+00	0	61	0	1063256064	41	4310
2026-01-18 14:35:56.45	178.43	25.14	-35.2	-36.9	17.5	0.00e+00	0	60	0	1070596096	41	4275
2026-01-18 14:35:57.46	178.50	25.30	-35.2	-36.9	17.4	0.00e+00	0	60	0	1077936128	41	4277
2026-01-18 14:35:58.47	178.57	25.46	-35.1	-36.8	17.5	0.00e+00	0	60	0	1085276160	41	4229
2026-01-18 14:35:59.48	178.64	25.62	-35.0	-36.7	17.7	0.00e+00	0	60	0	1092616192	41	4154
2026-01-18 14:36:00.49	178.72	25.78	-35.1	-36.7	17.7	0.00e+00	0	61	0	1099956224	40	4427
2026-01-18 14:36:01.50	178.79	25.95	-34.9	-36.5	17.8	0.00e+00	0	60	0	1107296256	40	4334
2026-01-18 14:36:02.51	178.87	26.11	-34.9	-36.5	17.9	0.00e+00	0	61	0	1114636288	40	4300
2026-01-18 14:36:03.52	178.94	26.27	-34.9	-36.5	17.9	0.00e+00	0	60	0	1121976320	40	4323
2026-01-18 14:36:04.53	179.02	26.44	-34.8	-36.4	18.0	0.00e+00	0	60	0	1128267776	40	4248
2026-01-18 14:36:05.54	179.10	26.60	-34.7	-36.3	18.1	0.00e+00	0	61	0	1136656384	40	4211
2026-01-18 14:36:06.55	179.17	26.77	-34.7	-36.2	18.1	0.00e+00	0	61	0	1143996416	40	4189
2026-01-18 14:36:07.56	179.25	26.94	-34.8	-36.4	18.0	0.00e+00	0	61	0	1150287872	40	4244
2026-01-18 14:36:08.57	179.33	27.11	-34.9	-36.5	17.9	0.00e+00	0	60	0	1157627904	40	4299
2026-01-18 14:36:09.58	179.41	27.28	-34.7	-36.3	18.1	0.00e+00	0	61	0	1166016512	40	4221
2026-01-18 14:36:10.60	179.50	27.45	-34.8	-36.4	18.0	0.00e+00	0	61	0	1172307968	40	4253
2026-01-18 14:36:11.60	179.58	27.62	-34.7	-36.3	18.0	0.00e+00	0	60	0	1179648000	40	4221
2026-01-18 14:36:12.62	179.66	27.79	-34.8	-36.4	17.9	0.00e+00	0	61	0	1186988032	40	4275
2026-01-18 14:36:13.63	179.75	27.97	-34.8	-36.5	17.9	0.00e+00	0	61	0	1194328064	40	4317
2026-01-18 14:36:14.64	179.83	28.14	-34.8	-36.5	17.8	0.00e+00	0	61	0	1201668096	40	4320
2026-01-18 14:36:15.65	179.92	28.32	-34.8	-36.5	17.8	0.00e+00	0	61	0	1209008128	40	4321
2026-01-18 14:36:16.66	180.00	28.50	-34.9	-36.6	17.7	0.00e+00	0	61	0	1216348160	40	4388
2026-01-18 14:36:17.67	180.09	28.67	-34.9	-36.7	17.7	0.00e+00	0	61	0	1223688192	40	4393
2026-01-18 14:36:18.68	180.18	28.85	-34.9	-36.7	17.6	0.00e+00	0	61	0	1231028224	40	4405
2026-01-18 14:36:19.69	180.27	29.03	-34.9	-36.6	17.7	0.00e+00	0	61	0	1238368256	40	4387
2026-01-18 14:36:20.70	180.36	29.22	-34.9	-36.6	17.7	0.00e+00	0	61	0	1245708288	40	4388
2026-01-18 14:36:21.71	180.45	29.40	-34.8	-36.6	17.7	0.00e+00	0	60	0	1253048320	40	4361
2026-01-18 14:36:22.72	180.54	29.58	-34.7	-36.5	17.9	0.00e+00	0	61	0	1260388352	40	4301
2026-01-18 14:36:23.73	180.64	29.77	-34.7	-36.4	17.9	0.00e+00	0	61	0	1267728384	40	4283
2026-01-18 14:36:24.74	180.73	29.95	-34.7	-36.4	17.9	0.00e+00	0	61	0	1275068416	40	4290
2026-01-18 14:36:25.75	180.83	30.14	-34.7	-36.4	17.9	0.00e+00	0	61	0	1282408448	40	4287
2026-01-18 14:36:26.76	180.92	30.33	-34.7	-36.4	18.0	0.00e+00	0	61	0	1289748480	40	4255
2026-01-18 14:36:27.77	181.02	30.52	-34.9	-36.6	17.8	0.00e+00	0	61	0	1296039936	40	4353
2026-01-18 14:36:28.78	181.12	30.71	-34.9	-36.6	17.8	0.00e+00	0	61	0	1303379968	40	4377
2026-01-18 14:36:29.79	181.22	30.90	-35.0	-36.7	17.7	0.00e+00	0	61	0	1311768576	40	4399
2026-01-18 14:36:30.80	181.32	31.09	-34.9	-36.6	17.7	0.00e+00	0	61	0	1318060032	40	4385
2026-01-18 14:36:31.81	181.42	31.28	-34.8	-36.5	17.8	0.00e+00	0	61	0	1325400064	40	4316
2026-01-18 14:36:32.82	181.53	31.48	-35.0	-36.7	17.7	0.00e+00	0	61	0	1332740096	40	4413
2026-01-18 14:36:33.83	181.63	31.68	-35.0	-36.7	17.7	0.00e+00	0	61	0	1340080128	40	4419
2026-01-18 14:36:34.84	181.74	31.87	-35.0	-36.6	17.8	0.00e+00	0	61	0	1347420160	40	4387
2026-01-18 14:36:35.85	181.85	32.07	-35.0	-36.7	17.7	0.00e+00	0	61	0	1354760192	40	4409
2026-01-18 14:36:36.86	181.95	32.27	-34.9	-36.5	17.8	0.00e+00	0	61	0	1362100224	40	4334
2026-01-18 14:36:37.87	182.06	32.47	-34.8	-36.4	17.9	0.00e+00	0	61	0	1369440256	40	4273
2026-01-18 14:36:38.88	182.17	32.68	-34.8	-36.4	17.9	0.00e+00	0	61	0	1376780288	40	4277
2026-01-18 14:36:39.89	182.29	32.88	-34.8	-36.4	17.9	0.00e+00	0	61	0	1384120320	40	4291
2026-01-18 14:36:40.90	182.40	33.09	-34.8	-36.5	17.9	0.00e+00	0	61	0	1391460352	40	4299
2026-01-18 14:36:41.91	182.52	33.29	-34.9	-36.5	17.9	0.00e+00	0	61	0	1398800384	40	4330
2026-01-18 14:36:42.92	182.63	33.50	-35.2	-36.9	17.5	0.00e+00	0	61	0	1406140416	40	4531
2026-01-18 14:36:43.94	182.75	33.71	-34.9	-36.5	17.9	0.00e+00	0	61	0	1413480448	40	4334
2026-01-18 14:36:44.95	182.87	33.92	-34.9	-36.5	17.9	0.00e+00	0	61	0	1420820480	40	4329
2026-01-18 14:36:45.96	182.99	34.13	-34.9	-36.6	17.9	0.00e+00	0	61	0	1428160512	40	4345
2026-01-18 14:36:46.97	183.12	34.35	-35.0	-36.6	17.8	0.00e+00	0	61	0	1435500544	40	4372
2026-01-18 14:36:47.98	183.24	34.56	-35.1	-36.8	17.7	0.00e+00	0	61	0	1442840576	40	4444
2026-01-18 14:36:48.99	183.37	34.77	-35.0	-36.7	17.7	0.00e+00	0	61	0	1450180608	40	4420
2026-01-18 14:36:50.00	183.49	34.99	-34.9	-36.6	17.8	0.00e+00	0	61	0	1457520640	40	4350
2026-01-18 14:36:51.01	183.62	35.21	-34.9	-36.5	17.8	0.00e+00	0	61	0	1464860672	40	4330
2026-01-18 14:36:52.02	183.75	35.43	-34.8	-36.5	17.9	0.00e+00	0	61	0	1471152128	40	4310
2026-01-18 14:36:53.03	183.89	35.65	-34.8	-36.4	18.0	0.00e+00	0	61	0	1478492160	40	4283
2026-01-18 14:36:54.04	184.02	35.87	-34.8	-36.4	18.0	0.00e+00	0	61	0	1486880768	40	4275
2026-01-18 14:36:55.05	184.16	36.10	-34.8	-36.4	18.0	0.00e+00	0	61	0	1493172224	40	4268
2026-01-18 14:36:56.06	184.29	36.32	-34.7	-36.4	18.1	0.00e+00	0	61	0	1500512256	40	4244
2026-01-18 14:36:57.07	184.43	36.55	-34.8	-36.4	18.0	0.00e+00	0	61	0	1507852288	40	4255
2026-01-18 14:36:58.08	184.58	36.78	-34.9	-36.6	17.9	0.00e+00	0	61	0	1515192320	40	4345
2026-01-18 14:36:59.09	184.72	37.00	-35.0	-36.7	17.8	0.00e+00	0	61	0	1522532352	40	4415
2026-01-18 14:37:00.09	184.86	37.23	-35.0	-36.6	17.9	0.00e+00	0	61	0	1529872384	40	4378
2026-01-18 14:37:01.10	185.01	37.47	-35.0	-36.7	17.9	0.00e+00	0	61	0	1537212416	40	4411
2026-01-18 14:37:02.11	185.16	37.70	-35.1	-36.7	17.8	0.00e+00	0	61	0	1544552448	40	4440
2026-01-18 14:37:03.12	185.31	37.93	-35.0	-36.6	17.9	0.00e+00	0	61	0	1551892480	40	4367
2026-01-18 14:37:04.14	185.47	38.17	-35.0	-36.7	17.9	0.00e+00	0	61	0	1559232512	40	4409
2026-01-18 14:37:05.15	185.62	38.41	-35.1	-36.7	17.9	0.00e+00	0	61	0	1566572544	40	4427
2026-01-18 14:37:06.16	185.78	38.65	-35.1	-36.7	17.9	0.00e+00	0	61	0	1573912576	40	4426
2026-01-18 14:37:07.17	185.94	38.89	-35.2	-36.8	17.8	0.00e+00	0	61	0	1581252608	40	4484
2026-01-18 14:37:08.18	186.11	39.13	-35.3	-37.0	17.6	0.00e+00	0	61	0	1588592640	40	4555
2026-01-18 14:37:09.19	186.27	39.38	-35.5	-37.3	17.2	0.00e+00	0	61	0	1595932672	40	4751
2026-01-18 14:37:10.20	186.44	39.62	-35.4	-37.2	17.4	0.00e+00	0	61	0	1603272704	40	4663
2026-01-18 14:37:11.21	186.61	39.87	-35.3	-37.0	17.5	0.00e+00	0	61	0	1610612736	40	4573
2026-01-18 14:37:12.22	186.78	40.12	-35.2	-37.0	17.5	0.00e+00	0	61	0	1617952768	40	4576
2026-01-18 14:37:13.23	186.96	40.37	-35.1	-36.8	17.7	0.00e+00	0	61	0	1624244224	40	4476
2026-01-18 14:37:14.24	187.14	40.62	-35.0	-36.7	17.8	0.00e+00	0	61	0	1632632832	40	4403
2026-01-18 14:37:15.25	187.32	40.87	-35.0	-36.7	17.8	0.00e+00	0	61	0	1639972864	40	4418
2026-01-18 14:37:16.26	187.50	41.12	-34.9	-36.6	18.0	0.00e+00	0	61	0	1646264320	40	4346
2026-01-18 14:37:17.27	187.69	41.38	-34.9	-36.6	18.0	0.00e+00	0	61	0	1653604352	40	4346
2026-01-18 14:37:18.28	187.88	41.63	-35.0	-36.6	17.9	0.00e+00	0	61	0	1660944384	40	4379
2026-01-18 14:37:19.29	188.07	41.89	-35.0	-36.7	17.9	0.00e+00	0	61	0	1668284416	40	4417
2026-01-18 14:37:20.30	188.27	42.15	-35.1	-36.8	17.8	0.00e+00	0	61	0	1675624448	40	4458
2026-01-18 14:37:21.31	188.47	42.41	-35.1	-36.7	17.8	0.00e+00	0	61	0	1682964480	40	4439
2026-01-18 14:37:22.32	188.67	42.68	-35.3	-36.9	17.7	0.00e+00	0	61	0	1690304512	40	4530
2026-01-18 14:37:23.33	188.87	42.94	-35.3	-37.0	17.7	0.00e+00	0	61	0	1697644544	40	4559
2026-01-18 14:37:24.34	189.08	43.21	-35.5	-37.2	17.4	0.00e+00	0	61	0	1704984576	40	4694
2026-01-18 14:37:25.35	189.29	43.47	-35.3	-37.0	17.7	0.00e+00	0	61	0	1712324608	41	4302
2026-01-18 14:37:26.36	189.51	43.74	-35.6	-37.3	17.3	0.00e+00	0	61	0	1719664640	41	4488
2026-01-18 14:37:27.37	189.73	44.01	-35.4	-37.0	17.6	0.00e+00	0	61	0	1727004672	41	4328
2026-01-18 14:37:28.38	189.95	44.28	-35.4	-37.0	17.6	0.00e+00	0	61	0	1734344704	41	4318
2026-01-18 14:37:29.39	190.18	44.56	-35.3	-36.9	17.8	0.00e+00	0	61	0	1741684736	41	4254
2026-01-18 14:37:30.40	190.41	44.83	-35.9	-37.6	17.0	0.00e+00	0	61	0	1749024768	41	4634
2026-01-18 14:37:31.42	190.64	45.11	-35.5	-37.1	17.6	0.00e+00	0	61	0	1756364800	41	4354
2026-01-18 14:37:32.43	190.88	45.39	-35.7	-37.4	17.3	0.00e+00	0	61	0	1763704832	41	4505
2026-01-18 14:37:33.44	191.13	45.66	-35.7	-37.4	17.3	0.00e+00	0	61	0	1771044864	41	4497
2026-01-18 14:37:34.45	191.37	45.94	-36.1	-37.4	17.7	0.00e+00	0	61	0	1778384896	42	4246
2026-01-18 14:37:35.46	191.62	46.22	-35.9	-37.1	18.0	0.00e+00	0	61	0	1785724928	42	4105
2026-01-18 14:37:36.47	191.88	46.51	-36.2	-37.5	17.6	0.00e+00	0	61	0	1792016384	42	4293
2026-01-18 14:37:37.48	192.14	46.79	-36.2	-37.4	17.6	0.00e+00	0	61	0	1799356416	42	4286
2026-01-18 14:37:38.49	192.40	47.08	-36.3	-37.5	17.6	0.00e+00	0	61	0	1807745024	42	4331
2026-01-18 14:37:39.50	192.67	47.36	-36.4	-37.7	17.4	0.00e+00	0	61	0	1814036480	42	4400
2026-01-18 14:37:40.51	192.95	47.65	-37.0	-38.4	16.6	0.00e+00	0	61	0	1821376512	43	4523
2026-01-18 14:37:41.52	193.23	47.94	-36.8	-38.2	16.8	0.00e+00	0	61	0	1828716544	43	4405
2026-01-18 14:37:42.53	193.51	48.23	-36.8	-38.1	17.0	0.00e+00	0	61	0	1836056576	43	4385
2026-01-18 14:37:43.54	193.80	48.52	-36.8	-38.1	17.0	0.00e+00	0	61	0	1843396608	43	4364
2026-01-18 14:37:44.55	194.10	48.81	-36.8	-38.1	17.0	0.00e+00	0	61	0	1850736640	43	4378
2026-01-18 14:37:45.56	194.40	49.11	-36.7	-38.0	17.0	0.00e+00	0	61	0	1858076672	43	4339
2026-01-18 14:37:46.57	194.71	49.40	-36.9	-38.3	16.9	0.00e+00	0	61	0	1865416704	44	4208
2026-01-18 14:37:47.58	195.02	49.70	-36.9	-38.3	16.9	0.00e+00	0	61	0	1872756736	44	4202
2026-01-18 14:37:48.59	195.34	49.99	-37.0	-38.3	16.9	0.00e+00	0	61	0	1880096768	44	4230
2026-01-18 14:37:49.60	195.66	50.29	-36.9	-38.3	16.9	0.00e+00	0	61	0	1887436800	44	4195
2026-01-18 14:37:50.61	196.00	50.59	-37.3	-38.7	16.6	0.00e+00	0	61	0	1894776832	44	4398
2026-01-18 14:37:51.62	196.33	50.89	-37.0	-38.4	16.7	0.00e+00	0	61	0	1902116864	43	4533
2026-01-18 14:37:52.64	196.68	51.19	-36.9	-38.3	16.8	0.00e+00	0	61	0	1909456896	43	4444
2026-01-18 14:37:53.65	197.03	51.49	-36.9	-38.2	16.8	0.00e+00	0	61	0	1916796928	43	4426
2026-01-18 14:37:54.66	197.39	51.80	-37.0	-38.4	16.7	0.00e+00	0	61	0	1924136960	43	4528
2026-01-18 14:37:55.67	197.76	52.10	-36.9	-38.3	16.8	0.00e+00	0	61	0	1931476992	43	4450
2026-01-18 14:37:56.68	198.13	52.40	-35.9	-37.0	18.0	0.00e+00	0	61	0	1938817024	42	4094
2026-01-18 14:37:57.69	198.51	52.71	-37.0	-38.3	17.0	0.00e+00	0	61	0	1946157056	44	4215
2026-01-18 14:37:58.70	198.90	53.01	-37.2	-38.5	16.7	0.00e+00	0	61	0	1953497088	44	4336
2026-01-18 14:37:59.71	199.30	53.32	-37.2	-38.5	16.7	0.00e+00	0	61	0	1960837120	44	4337
2026-01-18 14:38:00.72	199.71	53.62	-37.4	-38.8	16.4	0.00e+00	0	61	0	1967128576	44	4487
2026-01-18 14:38:01.73	200.12	53.93	-37.5	-39.0	16.3	0.00e+00	0	61	0	1974468608	45	4297
2026-01-18 14:38:02.74	200.54	54.23	-37.4	-38.8	16.4	0.00e+00	0	61	0	1982857216	44	4458
2026-01-18 14:38:03.75	200.98	54.54	-37.1	-38.4	16.8	0.00e+00	0	61	0	1989148672	44	4285
2026-01-18 14:38:04.77	201.42	54.85	-37.0	-38.4	16.9	0.00e+00	0	61	0	1996488704	44	4256
2026-01-18 14:38:05.78	201.87	55.16	-36.9	-38.3	17.0	0.00e+00	0	61	0	2003828736	44	4198
2026-01-18 14:38:06.79	202.33	55.47	-37.2	-38.6	16.7	0.00e+00	0	61	0	2011168768	44	4357
2026-01-18 14:38:07.80	202.81	55.77	-37.1	-38.5	16.8	0.00e+00	0	61	0	2018508800	44	4305
2026-01-18 14:38:08.81	203.29	56.08	-37.2	-38.6	16.7	0.00e+00	0	61	0	2025848832	44	4370
2026-01-18 14:38:09.82	203.78	56.39	-37.2	-38.6	16.7	0.00e+00	0	61	0	2033188864	44	4370
2026-01-18 14:38:10.83	204.28	56.69	-37.1	-38.4	16.9	0.00e+00	0	61	0	2040528896	44	4257
2026-01-18 14:38:11.84	204.80	57.00	-37.0	-38.4	16.9	0.00e+00	0	61	0	2047868928	44	4253
2026-01-18 14:38:12.85	205.32	57.30	-36.8	-38.2	17.0	0.00e+00	0	61	0	2055208960	43	4400
2026-01-18 14:38:13.86	205.86	57.61	-36.5	-37.8	17.3	0.00e+00	0	61	0	2062548992	43	4218
2026-01-18 14:38:14.87	206.41	57.91	-36.7	-38.0	17.1	0.00e+00	0	61	0	2069889024	43	4329
2026-01-18 14:38:15.88	206.97	58.21	-36.8	-38.2	17.0	0.00e+00	0	61	0	2077229056	43	4393
2026-01-18 14:38:16.89	207.54	58.51	-36.9	-38.2	16.9	0.00e+00	0	61	0	2084569088	43	4426
2026-01-18 14:38:17.90	208.13	58.81	-37.1	-38.5	16.6	0.00e+00	0	61	0	2091909120	43	4597
2026-01-18 14:38:18.91	208.73	59.11	-37.0	-38.3	17.0	0.00e+00	0	62	0	2099249152	44	4224
2026-01-18 14:38:19.92	209.35	59.41	-36.8	-38.1	17.2	0.00e+00	0	61	0	2106589184	44	4131
2026-01-18 14:38:20.93	209.98	59.71	-36.6	-37.9	17.4	0.00e+00	0	61	0	2113929216	44	4021
2026-01-18 14:38:21.94	210.62	60.00	-36.3	-37.6	17.5	0.00e+00	0	61	0	2121269248	43	4113
2026-01-18 14:38:22.96	211.28	60.30	-36.6	-37.9	17.2	0.00e+00	0	61	0	2128609280	43	4259
2026-01-18 14:38:23.97	211.96	60.59	-36.8	-38.1	17.1	0.00e+00	0	61	0	2134900736	43	4351
2026-01-18 14:38:24.98	212.64	60.88	-36.8	-38.1	17.0	0.00e+00	0	61	0	2142240768	43	4355
2026-01-18 14:38:25.99	213.35	61.16	-36.2	-37.4	17.7	0.00e+00	0	61	0	2150629376	43	4031
2026-01-18 14:38:27.00	214.07	61.44	-36.2	-37.4	17.7	0.00e+00	0	61	0	2156920832	43	4044
2026-01-18 14:38:28.01	214.81	61.72	-36.3	-37.6	17.5	0.00e+00	0	61	0	2164260864	43	4116
2026-01-18 14:38:29.02	215.56	62.00	-36.5	-37.7	17.3	0.00e+00	0	62	0	2171600896	43	4186
2026-01-18 14:38:30.03	216.33	62.28	-36.6	-37.9	17.2	0.00e+00	0	61	0	2178940928	43	4261
2026-01-18 14:38:31.04	217.12	62.55	-36.4	-37.7	17.4	0.00e+00	0	61	0	2186280960	43	4157
2026-01-18 14:38:32.05	217.92	62.81	-36.5	-37.8	17.2	0.00e+00	0	62	0	2193620992	43	4241
2026-01-18 14:38:33.06	218.75	63.08	-36.2	-37.5	17.6	0.00e+00	0	61	0	2200961024	43	4058
2026-01-18 14:38:34.07	219.59	63.34	-36.1	-37.3	17.7	0.00e+00	0	61	0	2208301056	43	3995
2026-01-18 14:38:35.08	220.45	63.59	-35.7	-36.9	18.2	0.00e+00	0	61	0	2215641088	42	4037
2026-01-18 14:38:36.09	221.33	63.84	-35.8	-37.0	18.1	0.00e+00	0	61	0	2222981120	42	4070
2026-01-18 14:38:37.10	222.22	64.09	-36.0	-37.2	17.9	0.00e+00	0	61	0	2230321152	42	4164
2026-01-18 14:38:38.11	223.14	64.33	-36.1	-37.4	17.7	0.00e+00	0	61	0	2237661184	42	4254
2026-01-18 14:38:39.12	224.07	64.57	-36.0	-37.3	17.8	0.00e+00	0	61	0	2245001216	42	4194
2026-01-18 14:38:40.13	225.03	64.80	-35.8	-37.0	18.1	0.00e+00	0	61	0	2252341248	42	4078
2026-01-18 14:38:41.14	226.00	65.02	-35.9	-37.2	17.9	0.00e+00	0	62	0	2259681280	42	4156
2026-01-18 14:38:42.15	227.00	65.24	-36.0	-37.3	17.8	0.00e+00	0	62	0	2267021312	42	4203
2026-01-18 14:38:43.16	228.01	65.45	-35.9	-37.1	17.9	0.00e+00	0	61	0	2274361344	42	4133
2026-01-18 14:38:44.18	229.05	65.66	-36.0	-37.2	17.8	0.00e+00	0	61	0	2281701376	42	4184
2026-01-18 14:38:45.19	230.10	65.86	-35.8	-37.1	18.0	0.00e+00	0	62	0	2289041408	42	4113
2026-01-18 14:38:46.20	231.17	66.05	-35.5	-36.7	18.4	0.00e+00	0	62	0	2296381440	42	3943
2026-01-18 14:38:47.21	232.26	66.24	-35.5	-36.7	18.3	0.00e+00	0	61	0	2303721472	42	3936
2026-01-18 14:38:48.22	233.37	66.42	-35.5	-36.7	18.3	0.00e+00	0	61	0	2310012928	41	4166
2026-01-18 14:38:49.23	234.50	66.59	-35.5	-36.6	18.4	0.00e+00	0	62	0	2317352960	41	4141
2026-01-18 14:38:50.23	235.63	66.75	-35.4	-36.5	18.5	0.00e+00	0	61	0	2325741568	41	4087
2026-01-18 14:38:51.25	236.80	66.90	-35.2	-36.4	18.7	0.00e+00	0	62	0	2332033024	41	4013
2026-01-18 14:38:52.26	237.97	67.05	-35.1	-36.2	18.8	0.00e+00	0	61	0	2339373056	41	3948
2026-01-18 14:38:53.27	239.17	67.19	-35.0	-36.1	18.9	0.00e+00	0	61	0	2346713088	40	4125
2026-01-18 14:38:54.27	240.36	67.31	-35.2	-36.3	18.7	0.00e+00	0	62	0	2354053120	40	4229
2026-01-18 14:38:55.29	241.60	67.43	-35.4	-36.5	18.5	0.00e+00	0	62	0	2361393152	40	4322
2026-01-18 14:38:56.30	242.83	67.54	-35.3	-36.4	18.6	0.00e+00	0	62	0	2368733184	40	4285
2026-01-18 14:38:57.31	244.08	67.64	-35.3	-36.5	18.5	0.00e+00	0	61	0	2376073216	40	4304
2026-01-18 14:38:58.32	245.34	67.73	-35.4	-36.5	18.5	0.00e+00	0	61	0	2383413248	40	4322
2026-01-18 14:38:59.33	246.61	67.81	-35.4	-36.6	18.4	0.00e+00	0	62	0	2390753280	40	4348
2026-01-18 14:39:00.34	247.89	67.89	-35.5	-36.6	18.4	0.00e+00	0	62	0	2398093312	40	4383
2026-01-18 14:39:01.35	249.18	67.95	-35.4	-36.5	18.4	0.00e+00	0	61	0	2405433344	40	4340
2026-01-18 14:39:02.36	250.47	68.00	-35.3	-36.5	18.5	0.00e+00	0	62	0	2412773376	40	4303
2026-01-18 14:39:03.37	251.77	68.04	-35.3	-36.4	18.5	0.00e+00	0	61	0	2420113408	40	4272
2026-01-18 14:39:04.38	253.08	68.07	-35.4	-36.5	18.5	0.00e+00	0	62	0	2427453440	40	4319
2026-01-18 14:39:05.39	254.38	68.09	-35.4	-36.6	18.4	0.00e+00	0	61	0	2434793472	40	4354
2026-01-18 14:39:06.40	255.69	68.10	-35.6	-36.8	18.2	0.00e+00	0	62	0	2442133504	40	4473
2026-01-18 14:39:07.41	257.00	68.09	-35.5	-36.7	18.4	0.00e+00	0	62	0	2449473536	40	4395
2026-01-18 14:39:08.42	258.31	68.08	-35.5	-36.7	18.3	0.00e+00	0	62	0	2455764992	40	4415
2026-01-18 14:39:09.43	259.62	68.06	-35.5	-36.7	18.4	0.00e+00	0	61	0	2463105024	40	4397
2026-01-18 14:39:10.44	260.92	68.03	-35.4	-36.5	18.5	0.00e+00	0	62	0	2471493632	40	4316
2026-01-18 14:39:11.45	262.22	67.98	-35.4	-36.6	18.5	0.00e+00	0	62	0	2477785088	40	4344
2026-01-18 14:39:12.46	263.51	67.93	-35.6	-36.8	18.2	0.00e+00	0	61	0	2485125120	40	4457
2026-01-18 14:39:13.47	264.80	67.87	-35.7	-36.9	18.2	0.00e+00	0	62	0	2492465152	40	4507
2026-01-18 14:39:14.48	266.08	67.79	-35.4	-36.6	18.4	0.00e+00	0	62	0	2499805184	41	4113
2026-01-18 14:39:15.49	267.34	67.71	-35.2	-36.3	18.6	0.00e+00	0	61	0	2507145216	41	4001
2026-01-18 14:39:16.50	268.60	67.61	-35.2	-36.4	18.5	0.00e+00	0	62	0	2514485248	41	4011
2026-01-18 14:39:17.51	269.84	67.51	-35.3	-36.5	18.5	0.00e+00	0	61	0	2521825280	41	4063
2026-01-18 14:39:18.52	271.07	67.40	-35.3	-36.5	18.5	0.00e+00	0	61	0	2529165312	41	4073
2026-01-18 14:39:19.53	272.29	67.28	-35.5	-36.6	18.4	0.00e+00	0	61	0	2536505344	41	4131
2026-01-18 14:39:20.54	273.49	67.15	-35.6	-36.8	18.1	0.00e+00	0	62	0	2543845376	41	4221
2026-01-18 14:39:21.56	274.69	67.01	-35.5	-36.7	18.3	0.00e+00	0	62	0	2551185408	41	4156
2026-01-18 14:39:22.57	275.86	66.86	-35.4	-36.6	18.4	0.00e+00	0	62	0	2558525440	41	4123
2026-01-18 14:39:23.58	277.01	66.70	-35.4	-36.6	18.4	0.00e+00	0	61	0	2565865472	41	4126
2026-01-18 14:39:24.59	278.15	66.54	-35.4	-36.6	18.4	0.00e+00	0	61	0	2573205504	41	4118
2026-01-18 14:39:25.60	279.27	66.36	-35.5	-36.7	18.3	0.00e+00	0	61	0	2580545536	41	4180
2026-01-18 14:39:26.61	280.37	66.18	-35.4	-36.5	18.4	0.00e+00	0	62	0	2587885568	41	4096
2026-01-18 14:39:27.62	281.45	66.00	-35.4	-36.6	18.4	0.00e+00	0	62	0	2595225600	41	4126
2026-01-18 14:39:28.63	282.51	65.80	-35.1	-36.2	18.7	0.00e+00	0	61	0	2602565632	41	3947
2026-01-18 14:39:29.64	283.56	65.60	-35.4	-36.5	18.5	0.00e+00	0	62	0	2609905664	41	4095
2026-01-18 14:39:30.65	284.58	65.39	-35.6	-36.8	18.2	0.00e+00	0	62	0	2617245696	41	4204
2026-01-18 14:39:31.66	285.59	65.18	-35.7	-36.9	18.2	0.00e+00	0	62	0	2624585728	41	4243
2026-01-18 14:39:32.67	286.58	64.96	-35.9	-37.1	17.9	0.00e+00	0	62	0	2630877184	41	4377
2026-01-18 14:39:33.68	287.54	64.73	-35.9	-37.1	17.9	0.00e+00	0	62	0	2638217216	41	4381
2026-01-18 14:39:34.69	288.49	64.50	-35.9	-37.1	17.8	0.00e+00	0	62	0	2646605824	41	4354
2026-01-18 14:39:35.70	289.42	64.26	-36.2	-37.5	17.6	0.00e+00	0	62	0	2652897280	42	4297
2026-01-18 14:39:36.71	290.33	64.02	-36.3	-37.6	17.5	0.00e+00	0	62	0	2660237312	42	4361
2026-01-18 14:39:37.72	291.22	63.77	-36.3	-37.6	17.5	0.00e+00	0	62	0	2667577344	42	4353
2026-01-18 14:39:38.73	292.09	63.52	-36.2	-37.4	17.7	0.00e+00	0	62	0	2674917376	42	4263
2026-01-18 14:39:39.74	292.95	63.27	-36.1	-37.4	17.7	0.00e+00	0	62	0	2682257408	42	4252
2026-01-18 14:39:40.75	293.78	63.01	-36.1	-37.4	17.7	0.00e+00	0	62	0	2689597440	42	4258
2026-01-18 14:39:41.76	294.60	62.74	-36.3	-37.6	17.4	0.00e+00	0	61	0	2696937472	42	4367
2026-01-18 14:39:42.77	295.40	62.48	-36.4	-37.6	17.5	0.00e+00	0	62	0	2704277504	42	4379
2026-01-18 14:39:43.78	296.18	62.20	-36.4	-37.7	17.4	0.00e+00	0	62	0	2711617536	42	4423
2026-01-18 14:39:44.79	296.94	61.93	-36.5	-37.8	17.3	0.00e+00	0	62	0	2718957568	42	4444
2026-01-18 14:39:45.80	297.69	61.65	-36.5	-37.7	17.4	0.00e+00	0	62	0	2726297600	42	4436
2026-01-18 14:39:46.81	298.42	61.37	-36.5	-37.8	17.3	0.00e+00	0	62	0	2733637632	42	4473
2026-01-18 14:39:47.82	299.14	61.09	-36.6	-37.8	17.2	0.00e+00	0	62	0	2740977664	42	4487
2026-01-18 14:39:48.83	299.83	60.80	-36.8	-38.1	16.9	0.00e+00	0	62	0	2748317696	43	4390
2026-01-18 14:39:49.84	300.52	60.52	-36.9	-38.3	16.8	0.00e+00	0	62	0	2755657728	43	4468
2026-01-18 14:39:50.85	301.19	60.23	-36.9	-38.2	16.9	0.00e+00	0	62	0	2762997760	43	4414
2026-01-18 14:39:51.86	301.84	59.93	-36.6	-37.8	17.2	0.00e+00	0	61	0	2770337792	43	4238
2026-01-18 14:39:52.87	302.48	59.64	-36.6	-37.9	17.2	0.00e+00	0	62	0	2776629248	43	4264
2026-01-18 14:39:53.88	303.10	59.34	-36.7	-38.0	17.1	0.00e+00	0	62	0	2783969280	43	4332
2026-01-18 14:39:54.89	303.71	59.05	-36.8	-38.1	16.9	0.00e+00	0	62	0	2792357888	43	4386
2026-01-18 14:39:55.90	304.31	58.75	-37.0	-38.4	16.7	0.00e+00	0	62	0	2798649344	43	4512
2026-01-18 14:39:56.91	304.89	58.45	-37.0	-38.3	16.8	0.00e+00	0	62	0	2805989376	43	4477
2026-01-18 14:39:57.92	305.46	58.15	-37.0	-38.3	16.8	0.00e+00	0	62	0	2813329408	43	4466
2026-01-18 14:39:58.93	306.02	57.85	-37.0	-38.4	16.8	0.00e+00	0	62	0	2820669440	43	4499
2026-01-18 14:39:59.94	306.56	57.54	-36.9	-38.3	16.9	0.00e+00	0	62	0	2828009472	43	4455
2026-01-18 14:40:00.95	307.10	57.24	-36.7	-38.0	17.1	0.00e+00	0	62	0	2835349504	43	4313
2026-01-18 14:40:01.97	307.62	56.93	-36.6	-37.8	17.2	0.00e+00	0	62	0	2842689536	43	4235
2026-01-18 14:40:02.97	308.13	56.63	-36.6	-37.8	17.2	0.00e+00	0	62	0	2850029568	43	4242
2026-01-18 14:40:03.98	308.63	56.32	-36.7	-38.0	17.0	0.00e+00	0	62	0	2857369600	43	4305
2026-01-18 14:40:04.99	309.12	56.02	-36.7	-38.0	17.1	0.00e+00	0	62	0	2864709632	43	4330
2026-01-18 14:40:06.00	309.59	55.71	-36.5	-37.8	17.3	0.00e+00	0	62	0	2872049664	43	4220
2026-01-18 14:40:07.01	310.06	55.41	-36.6	-37.8	17.3	0.00e+00	0	62	0	2879389696	43	4234
2026-01-18 14:40:08.02	310.52	55.10	-36.4	-37.7	17.2	0.00e+00	0	62	0	2886729728	43	4154
2026-01-18 14:40:09.03	310.97	54.80	-36.8	-38.1	17.0	0.00e+00	0	62	0	2894069760	43	4388
2026-01-18 14:40:10.04	311.40	54.49	-36.9	-38.3	16.7	0.00e+00	0	62	0	2901409792	43	4461
2026-01-18 14:40:11.05	311.83	54.18	-37.1	-38.5	16.7	0.00e+00	0	62	0	2908749824	43	4550
2026-01-18 14:40:12.07	312.26	53.88	-36.9	-38.3	16.9	0.00e+00	0	62	0	2916089856	43	4446
2026-01-18 14:40:13.08	312.67	53.57	-36.9	-38.2	16.8	0.00e+00	0	61	0	2923429888	43	4436
2026-01-18 14:40:14.09	313.07	53.27	-36.9	-38.2	16.8	0.00e+00	0	62	0	2930769920	43	4419
2026-01-18 14:40:15.10	313.47	52.96	-36.8	-38.2	16.9	0.00e+00	0	62	0	2938109952	43	4394
2026-01-18 14:40:16.11	313.85	52.66	-36.9	-38.2	16.8	0.00e+00	0	62	0	2945449984	43	4436
2026-01-18 14:40:17.12	314.23	52.36	-36.9	-38.3	16.9	0.00e+00	0	62	0	2951741440	43	4447
2026-01-18 14:40:18.13	314.60	52.05	-37.0	-38.4	16.8	0.00e+00	0	62	0	2959081472	43	4498
2026-01-18 14:40:19.14	314.97	51.75	-36.9	-38.2	16.8	0.00e+00	0	62	0	2967470080	43	4434
2026-01-18 14:40:20.15	315.33	51.45	-36.9	-38.2	16.8	0.00e+00	0	62	0	2973761536	43	4433
2026-01-18 14:40:21.16	315.67	51.15	-36.8	-38.2	16.9	0.00e+00	0	62	0	2981101568	43	4393
2026-01-18 14:40:22.17	316.02	50.85	-36.9	-38.2	16.8	0.00e+00	0	62	0	2988441600	43	4438
2026-01-18 14:40:23.18	316.35	50.55	-36.9	-38.3	16.8	0.00e+00	0	62	0	2995781632	43	4459
2026-01-18 14:40:24.20	316.69	50.25	-37.1	-38.4	16.6	0.00e+00	0	62	0	3003121664	43	4541
2026-01-18 14:40:25.21	317.01	49.96	-37.4	-38.8	16.5	0.00e+00	0	62	0	3010461696	44	4484
2026-01-18 14:40:26.22	317.33	49.66	-37.4	-38.8	16.5	0.00e+00	0	62	0	3017801728	44	4483
2026-01-18 14:40:27.23	317.64	49.37	-37.3	-38.7	16.6	0.00e+00	0	62	0	3025141760	44	4412
2026-01-18 14:40:28.24	317.94	49.07	-37.1	-38.5	16.8	0.00e+00	0	62	0	3032481792	44	4313
2026-01-18 14:40:29.25	318.24	48.78	-37.0	-38.4	16.9	0.00e+00	0	62	0	3039821824	44	4246
2026-01-18 14:40:30.26	318.54	48.49	-37.0	-38.3	17.0	0.00e+00	0	62	0	3047161856	44	4234
2026-01-18 14:40:31.27	318.83	48.20	-36.8	-38.0	17.2	0.00e+00	0	62	0	3054501888	44	4097
2026-01-18 14:40:32.28	319.11	47.91	-36.8	-38.1	17.2	0.00e+00	0	62	0	3061841920	44	4126
2026-01-18 14:40:33.29	319.39	47.63	-36.7	-37.9	17.3	0.00e+00	0	62	0	3069181952	44	4047
2026-01-18 14:40:34.30	319.66	47.34	-36.3	-37.6	17.5	0.00e+00	0	62	0	3076521984	43	4121
2026-01-18 14:40:35.32	319.93	47.05	-36.2	-37.5	17.6	0.00e+00	0	62	0	3083862016	43	4056
2026-01-18 14:40:36.33	320.19	46.77	-36.3	-37.5	17.6	0.00e+00	0	62	0	3091202048	43	4070
2026-01-18 14:40:37.34	320.45	46.49	-36.3	-37.5	17.6	0.00e+00	0	62	0	3098542080	43	4077
2026-01-18 14:40:38.35	320.71	46.21	-35.8	-36.9	18.1	0.00e+00	0	62	0	3105882112	42	4045
2026-01-18 14:40:39.36	320.96	45.93	-35.5	-36.7	17.5	0.00e+00	0	62	0	3113222144	42	3917
2026-01-18 14:40:40.37	321.20	45.65	-35.6	-36.8	18.3	0.00e+00	0	62	0	3119513600	41	4195
2026-01-18 14:40:41.38	321.44	45.37	-35.4	-36.6	18.4	0.00e+00	0	62	0	3126853632	41	4107
2026-01-18 14:40:42.39	321.68	45.10	-35.5	-36.6	18.4	0.00e+00	0	61	0	3135242240	41	4138
2026-01-18 14:40:43.40	321.92	44.82	-35.5	-36.6	18.5	0.00e+00	0	61	0	3141533696	41	4139
2026-01-18 14:40:44.40	322.14	44.55	-35.5	-36.7	18.4	0.00e+00	0	61	0	3148873728	41	4161
2026-01-18 14:40:45.41	322.37	44.28	-35.5	-36.7	18.4	0.00e+00	0	62	0	3156213760	41	4146
2026-01-18 14:40:46.42	322.59	44.01	-35.5	-36.7	18.4	0.00e+00	0	62	0	3163553792	41	4159
2026-01-18 14:40:47.43	322.81	43.74	-35.5	-36.7	18.4	0.00e+00	0	62	0	3170893824	41	4170
2026-01-18 14:40:48.44	323.02	43.47	-35.7	-36.9	18.2	0.00e+00	0	62	0	3178233856	41	4245
2026-01-18 14:40:49.46	323.24	43.21	-35.7	-36.9	18.1	0.00e+00	0	62	0	3185573888	41	4253
2026-01-18 14:40:50.47	323.44	42.94	-35.8	-37.0	18.1	0.00e+00	0	62	0	3192913920	41	4301
2026-01-18 14:40:51.48	323.65	42.68	-35.9	-37.1	18.0	0.00e+00	0	62	0	3200253952	41	4358
2026-01-18 14:40:52.49	323.85	42.42	-35.8	-37.0	18.1	0.00e+00	0	62	0	3207593984	41	4311
2026-01-18 14:40:53.50	324.05	42.16	-35.8	-37.0	18.1	0.00e+00	0	62	0	3214934016	41	4314
2026-01-18 14:40:54.50	324.24	41.90	-35.8	-36.9	18.1	0.00e+00	0	62	0	3222274048	41	4287
2026-01-18 14:40:55.51	324.43	41.65	-35.7	-36.9	18.2	0.00e+00	0	62	0	3229614080	41	4257
2026-01-18 14:40:56.52	324.62	41.39	-35.7	-36.9	18.1	0.00e+00	0	62	0	3236954112	41	4281
2026-01-18 14:40:57.53	324.81	41.14	-35.8	-37.0	18.0	0.00e+00	0	62	0	3244294144	41	4320
2026-01-18 14:40:58.54	324.99	40.88	-35.8	-37.0	18.1	0.00e+00	0	62	0	3251634176	41	4300
2026-01-18 14:40:59.55	325.17	40.63	-35.7	-36.9	18.2	0.00e+00	0	62	0	3258974208	41	4253
2026-01-18 14:41:00.56	325.35	40.38	-35.7	-36.8	18.1	0.00e+00	0	62	0	3266314240	41	4235
2026-01-18 14:41:01.57	325.52	40.14	-35.6	-36.7	18.3	0.00e+00	0	62	0	3272605696	41	4186
2026-01-18 14:41:02.58	325.70	39.89	-35.5	-36.7	18.3	0.00e+00	0	62	0	3280994304	41	4160
2026-01-18 14:41:03.59	325.87	39.64	-35.4	-36.5	18.5	0.00e+00	0	62	0	3288334336	41	4084
2026-01-18 14:41:04.60	326.03	39.40	-35.3	-36.4	18.6	0.00e+00	0	62	0	3294625792	41	4048
2026-01-18 14:41:05.61	326.20	39.16	-35.4	-36.5	18.5	0.00e+00	0	62	0	3301965824	41	4069
2026-01-18 14:41:06.62	326.36	38.92	-35.2	-36.3	18.7	0.00e+00	0	62	0	3310354432	41	3994
2026-01-18 14:41:07.64	326.52	38.68	-35.1	-36.3	18.7	0.00e+00	0	62	0	3316645888	41	3959
2026-01-18 14:41:08.65	326.68	38.44	-35.2	-36.3	18.7	0.00e+00	0	62	0	3323985920	41	3994
2026-01-18 14:41:09.66	326.84	38.20	-35.2	-36.3	18.7	0.00e+00	0	62	0	3331325952	41	3981
2026-01-18 14:41:10.67	326.99	37.97	-35.3	-36.4	18.5	0.00e+00	0	62	0	3338665984	41	4044
2026-01-18 14:41:11.68	327.14	37.73	-35.4	-36.5	18.4	0.00e+00	0	62	0	3346006016	41	4091
2026-01-18 14:41:12.69	327.29	37.50	-35.5	-36.7	18.3	0.00e+00	0	62	0	3353346048	41	4168
2026-01-18 14:41:13.70	327.44	37.27	-35.5	-36.7	18.3	0.00e+00	0	62	0	3360686080	41	4167
2026-01-18 14:41:14.71	327.58	37.04	-35.7	-36.8	18.2	0.00e+00	0	62	0	3368026112	41	4240
2026-01-18 14:41:15.72	327.73	36.81	-35.6	-36.8	18.2	0.00e+00	0	62	0	3375366144	41	4226
2026-01-18 14:41:16.73	327.87	36.59	-35.6	-36.8	18.2	0.00e+00	0	62	0	3382706176	41	4210
2026-01-18 14:41:17.74	328.01	36.36	-35.6	-36.8	18.2	0.00e+00	0	62	0	3390046208	41	4221
2026-01-18 14:41:18.75	328.15	36.14	-35.7	-36.8	18.1	0.00e+00	0	62	0	3397386240	41	4236
2026-01-18 14:41:19.76	328.28	35.91	-35.4	-36.6	18.4	0.00e+00	0	62	0	3404726272	41	4109
2026-01-18 14:41:20.77	328.42	35.69	-35.3	-36.4	18.5	0.00e+00	0	62	0	3412066304	41	4024
2026-01-18 14:41:21.78	328.55	35.47	-35.1	-36.3	18.7	0.00e+00	0	62	0	3419406336	41	3968
2026-01-18 14:41:22.79	328.68	35.26	-35.1	-36.2	18.8	0.00e+00	0	62	0	3426746368	41	3941
2026-01-18 14:41:23.81	328.81	35.04	-35.0	-36.1	18.8	0.00e+00	0	62	0	3434086400	41	3900
2026-01-18 14:41:24.82	328.94	34.82	-35.0	-36.1	18.9	0.00e+00	0	62	0	3440377856	40	4105
2026-01-18 14:41:25.83	329.06	34.61	-34.9	-36.0	19.0	0.00e+00	0	62	0	3448766464	40	4094
2026-01-18 14:41:26.83	329.19	34.40	-35.0	-36.1	18.9	0.00e+00	0	62	0	3456106496	40	4112
2026-01-18 14:41:27.85	329.31	34.18	-35.0	-36.1	18.9	0.00e+00	0	62	0	3462397952	40	4126
2026-01-18 14:41:28.86	329.43	33.97	-35.1	-36.3	18.7	0.00e+00	0	62	0	3469737984	40	4194
2026-01-18 14:41:29.87	329.55	33.76	-35.2	-36.3	18.6	0.00e+00	0	62	0	3477078016	40	4233
2026-01-18 14:41:30.88	329.67	33.55	-35.1	-36.3	18.6	0.00e+00	0	62	0	3484418048	40	4198
2026-01-18 14:41:31.89	329.78	33.35	-35.2	-36.4	18.5	0.00e+00	0	62	0	3491758080	40	4267
2026-01-18 14:41:32.90	329.90	33.14	-35.2	-36.3	18.6	0.00e+00	0	62	0	3499098112	40	4230
2026-01-18 14:41:33.91	330.01	32.94	-35.2	-36.4	18.6	0.00e+00	0	62	0	3506438144	40	4255
2026-01-18 14:41:34.92	330.13	32.74	-35.1	-36.2	18.8	0.00e+00	0	62	0	3513778176	40	4167
2026-01-18 14:41:35.93	330.24	32.53	-35.1	-36.2	18.8	0.00e+00	0	62	0	3521118208	40	4155
2026-01-18 14:41:36.94	330.35	32.33	-35.2	-36.3	18.7	0.00e+00	0	62	0	3528458240	40	4210
2026-01-18 14:41:37.96	330.46	32.13	-35.0	-36.1	18.8	0.00e+00	0	62	0	3535798272	40	4135
2026-01-18 14:41:38.97	330.56	31.94	-35.0	-36.1	18.8	0.00e+00	0	62	0	3543138304	40	4122
2026-01-18 14:41:39.98	330.67	31.74	-35.0	-36.2	18.8	0.00e+00	0	62	0	3550478336	40	4150
2026-01-18 14:41:40.99	330.78	31.54	-35.1	-36.2	18.8	0.00e+00	0	62	0	3557818368	40	4154
2026-01-18 14:41:42.00	330.88	31.35	-35.0	-36.2	18.7	0.00e+00	0	62	0	3565158400	40	4146
2026-01-18 14:41:43.01	330.98	31.16	-35.2	-36.3	18.6	0.00e+00	0	62	0	3572498432	40	4240
2026-01-18 14:41:44.02	331.08	30.97	-35.1	-36.3	18.7	0.00e+00	0	62	0	3579838464	40	4199
2026-01-18 14:41:45.03	331.18	30.78	-35.2	-36.3	18.6	0.00e+00	0	62	0	3587178496	40	4220
2026-01-18 14:41:46.04	331.28	30.59	-35.2	-36.3	18.6	0.00e+00	0	62	0	3594518528	40	4238
2026-01-18 14:41:47.05	331.38	30.40	-35.2	-36.4	18.5	0.00e+00	0	62	0	3601858560	40	4256
2026-01-18 14:41:48.06	331.48	30.21	-35.3	-36.5	18.4	0.00e+00	0	62	0	3609198592	40	4311
2026-01-18 14:41:49.07	331.57	30.02	-35.4	-36.5	18.4	0.00e+00	0	62	0	3616538624	40	4335
2026-01-18 14:41:50.08	331.67	29.84	-35.4	-36.6	18.3	0.00e+00	0	62	0	3623878656	40	4352
2026-01-18 14:41:51.09	331.76	29.66	-35.5	-36.7	18.3	0.00e+00	0	62	0	3631218688	40	4394
2026-01-18 14:41:52.10	331.85	29.47	-35.5	-36.7	18.2	0.00e+00	0	62	0	3637510144	40	4392
2026-01-18 14:41:53.11	331.94	29.29	-35.4	-36.6	18.3	0.00e+00	0	62	0	3644850176	40	4369
2026-01-18 14:41:54.12	332.04	29.11	-35.6	-36.8	18.1	0.00e+00	0	62	0	3653238784	40	4456
2026-01-18 14:41:55.14	332.13	28.93	-35.6	-36.8	18.1	0.00e+00	0	62	0	3659530240	40	4445
2026-01-18 14:41:56.15	332.21	28.75	-35.6	-36.8	18.1	0.00e+00	0	62	0	3666870272	40	4483
2026-01-18 14:41:57.16	332.30	28.58	-35.6	-36.8	18.1	0.00e+00	0	62	0	3674210304	40	4483
2026-01-18 14:41:58.17	332.39	28.40	-35.7	-36.9	18.0	0.00e+00	0	62	0	3681550336	40	4499
2026-01-18 14:41:59.18	332.48	28.22	-35.8	-37.0	17.9	0.00e+00	0	62	0	3688890368	41	4308
2026-01-18 14:42:00.19	332.56	28.05	-35.7	-36.9	17.9	0.00e+00	0	62	0	3696230400	41	4288
2026-01-18 14:42:01.20	332.64	27.88	-35.8	-37.1	17.8	0.00e+00	0	62	0	3703570432	41	4343
2026-01-18 14:42:02.21	332.73	27.71	-35.9	-37.2	17.7	0.00e+00	0	62	0	3710910464	41	4393
2026-01-18 14:42:03.22	332.81	27.53	-35.8	-37.1	17.8	0.00e+00	0	62	0	3718250496	41	4352
2026-01-18 14:42:04.23	332.89	27.36	-35.8	-37.0	17.8	0.00e+00	0	62	0	3725590528	41	4337
2026-01-18 14:42:05.24	332.97	27.20	-35.8	-37.1	17.8	0.00e+00	0	62	0	3732930560	41	4342
2026-01-18 14:42:06.25	333.05	27.03	-35.7	-37.0	17.9	0.00e+00	0	62	0	3740270592	41	4293
2026-01-18 14:42:07.26	333.13	26.86	-35.7	-36.9	17.9	0.00e+00	0	62	0	3747610624	41	4278
2026-01-18 14:42:08.28	333.21	26.69	-35.6	-36.9	18.0	0.00e+00	0	62	0	3754950656	41	4244
2026-01-18 14:42:09.29	333.29	26.53	-35.6	-36.8	18.0	0.00e+00	0	62	0	3762290688	41	4218
2026-01-18 14:42:10.30	333.37	26.36	-35.6	-36.8	18.0	0.00e+00	0	62	0	3769630720	41	4215
2026-01-18 14:42:11.31	333.44	26.20	-35.6	-36.7	18.1	0.00e+00	0	62	0	3776970752	41	4192
2026-01-18 14:42:12.32	333.52	26.04	-35.4	-36.6	18.2	0.00e+00	0	62	0	3783262208	41	4125
2026-01-18 14:42:13.33	333.59	25.88	-35.3	-36.5	18.3	0.00e+00	0	62	0	3791650816	41	4070
2026-01-18 14:42:14.34	333.67	25.72	-35.4	-36.5	18.3	0.00e+00	0	62	0	3798990848	41	4093
2026-01-18 14:42:15.35	333.74	25.56	-35.4	-36.6	18.2	0.00e+00	0	62	0	3805282304	41	4106
2026-01-18 14:42:16.36	333.81	25.40	-35.3	-36.4	18.4	0.00e+00	0	62	0	3812622336	41	4046
2026-01-18 14:42:17.37	333.88	25.24	-35.4	-36.6	18.2	0.00e+00	0	62	0	3819962368	41	4117
2026-01-18 14:42:18.38	333.96	25.09	-35.4	-36.6	18.2	0.00e+00	0	62	0	3827302400	41	4122
2026-01-18 14:42:19.39	334.03	24.93	-35.4	-36.5	18.3	0.00e+00	0	62	0	3834642432	41	4085
2026-01-18 14:42:20.41	334.10	24.77	-35.4	-36.6	18.2	0.00e+00	0	62	0	3841982464	41	4103
2026-01-18 14:42:21.42	334.17	24.62	-35.4	-36.5	18.2	0.00e+00	0	62	0	3849322496	41	4094
2026-01-18 14:42:22.43	334.24	24.47	-35.6	-36.7	18.0	0.00e+00	0	62	0	3856662528	41	4188
2026-01-18 14:42:23.44	334.30	24.31	-35.6	-36.8	17.9	0.00e+00	0	62	0	3864002560	41	4221
2026-01-18 14:42:24.45	334.37	24.16	-35.7	-37.0	17.8	0.00e+00	0	62	0	3871342592	41	4301
2026-01-18 14:42:25.46	334.44	24.01	-35.7	-36.9	17.8	0.00e+00	0	62	0	3878682624	41	4258
2026-01-18 14:42:26.47	334.50	23.86	-35.6	-36.9	17.9	0.00e+00	0	62	0	3886022656	41	4252
2026-01-18 14:42:27.48	334.57	23.71	-35.8	-37.0	17.7	0.00e+00	0	62	0	3893362688	41	4314
2026-01-18 14:42:28.49	334.63	23.56	-35.8	-37.1	17.6	0.00e+00	0	62	0	3900702720	41	4362
2026-01-18 14:42:29.50	334.70	23.42	-35.8	-37.0	17.7	0.00e+00	0	62	0	3908042752	41	4314
2026-01-18 14:42:30.51	334.76	23.27	-35.9	-37.2	17.5	0.00e+00	0	62	0	3915382784	41	4409
2026-01-18 14:42:31.52	334.83	23.13	-35.9	-37.2	17.5	0.00e+00	0	62	0	3922722816	41	4403
2026-01-18 14:42:32.53	334.89	22.98	-36.0	-37.3	17.3	0.00e+00	0	62	0	3930062848	41	4476
2026-01-18 14:42:33.54	334.95	22.84	-36.1	-37.4	17.2	0.00e+00	0	62	0	3937402880	41	4526
2026-01-18 14:42:34.55	335.01	22.69	-35.9	-37.2	17.4	0.00e+00	0	62	0	3944742912	41	4407
2026-01-18 14:42:35.56	335.07	22.55	-36.0	-37.3	17.4	0.00e+00	0	62	0	3952082944	41	4444
2026-01-18 14:42:36.57	335.14	22.41	-36.0	-37.3	17.3	0.00e+00	0	62	0	3959422976	41	4484
2026-01-18 14:42:37.58	335.20	22.27	-36.0	-37.2	17.4	0.00e+00	0	62	0	3966763008	41	4437
2026-01-18 14:42:38.59	335.26	22.13	-35.9	-37.2	17.4	0.00e+00	0	62	0	3974103040	41	4407
2026-01-18 14:42:39.60	335.31	21.99	-35.9	-37.2	17.4	0.00e+00	0	62	0	3980394496	41	4413
2026-01-18 14:42:40.61	335.37	21.85	-35.9	-37.2	17.4	0.00e+00	0	62	0	3987734528	41	4412
2026-01-18 14:42:41.62	335.43	21.71	-36.0	-37.2	17.3	0.00e+00	0	62	0	3996123136	41	4427
2026-01-18 14:42:42.64	335.49	21.57	-36.0	-37.2	17.3	0.00e+00	0	62	0	4002414592	41	4441
2026-01-18 14:42:43.65	335.55	21.43	-36.0	-37.2	17.3	0.00e+00	0	62	0	4009754624	41	4440
2026-01-18 14:42:44.65	335.60	21.30	-35.8	-37.1	17.4	0.00e+00	0	62	0	4017094656	41	4364
2026-01-18 14:42:45.67	335.66	21.16	-35.9	-37.2	17.3	0.00e+00	0	62	0	4024434688	41	4403
2026-01-18 14:42:46.68	335.72	21.03	-35.9	-37.2	17.3	0.00e+00	0	62	0	4031774720	41	4407
2026-01-18 14:42:47.68	335.77	20.90	-35.9	-37.2	17.3	0.00e+00	0	62	0	4039114752	41	4401
2026-01-18 14:42:48.70	335.83	20.76	-36.0	-37.3	17.1	0.00e+00	0	62	0	4046454784	41	4493
2026-01-18 14:42:49.70	335.88	20.63	-35.9	-37.2	17.2	0.00e+00	0	62	0	4053794816	41	4411
2026-01-18 14:42:50.72	335.94	20.50	-36.0	-37.3	17.1	0.00e+00	0	62	0	4061134848	41	4442
2026-01-18 14:42:51.73	335.99	20.37	-35.8	-37.1	17.2	0.00e+00	0	62	0	4068474880	41	4379
2026-01-18 14:42:52.74	336.04	20.24	-36.0	-37.3	17.1	0.00e+00	0	62	0	4075814912	41	4464
2026-01-18 14:42:53.75	336.10	20.11	-35.9	-37.2	17.1	0.00e+00	0	62	0	4083154944	41	4431
2026-01-18 14:42:54.76	336.15	19.98	-36.0	-37.3	17.0	0.00e+00	0	62	0	4090494976	41	4472
2026-01-18 14:42:55.77	336.20	19.85	-36.1	-37.4	16.9	0.00e+00	0	62	0	4097835008	41	4541
2026-01-18 14:42:56.78	336.25	19.72	-36.2	-37.6	16.7	0.00e+00	0	62	0	4105175040	41	4601
2026-01-18 14:42:57.79	336.30	19.59	-36.2	-37.6	16.7	0.00e+00	0	62	0	4112515072	42	4358
2026-01-18 14:42:58.80	336.35	19.47	-36.3	-37.7	16.6	0.00e+00	0	62	0	4119855104	42	4394
2026-01-18 14:42:59.81	336.40	19.34	-36.2	-37.5	16.7	0.00e+00	0	62	0	4126146560	42	4332
2026-01-18 14:43:00.82	336.45	19.22	-36.4	-37.8	16.4	0.00e+00	0	62	0	4134535168	42	4461
2026-01-18 14:43:01.83	336.50	19.09	-36.2	-37.6	16.6	0.00e+00	0	62	0	4141875200	42	4373
2026-01-18 14:43:02.84	336.55	18.97	-36.2	-37.6	16.6	0.00e+00	0	62	0	4148166656	42	4361
2026-01-18 14:43:03.85	336.60	18.84	-36.3	-37.7	16.4	0.00e+00	0	62	0	4155506688	42	4433
2026-01-18 14:43:04.86	336.65	18.72	-36.6	-38.0	16.1	0.00e+00	0	62	0	4162846720	42	4585
2026-01-18 14:43:05.88	336.70	18.60	-36.6	-38.0	16.1	0.00e+00	0	62	0	4170186752	42	4576
2026-01-18 14:43:06.89	336.75	18.48	-36.7	-38.2	15.8	0.00e+00	0	62	0	4177526784	43	4421
2026-01-18 14:43:07.90	336.80	18.35	-36.8	-38.3	15.8	0.00e+00	0	62	0	4184866816	43	4444
2026-01-18 14:43:08.91	336.84	18.23	-36.9	-38.5	15.6	0.00e+00	0	62	0	4192206848	43	4547
2026-01-18 14:43:09.92	336.89	18.11	-37.0	-38.6	15.4	0.00e+00	0	62	0	4199546880	43	4631
2026-01-18 14:43:10.93	336.94	17.99	-36.7	-38.2	15.8	0.00e+00	0	62	0	4206886912	43	4430
2026-01-18 14:43:11.94	336.98	17.88	-36.6	-38.1	15.9	0.00e+00	0	62	0	4214226944	43	4378
2026-01-18 14:43:12.95	337.03	17.76	-36.6	-38.1	15.9	0.00e+00	0	62	0	4221566976	43	4360
2026-01-18 14:43:13.96	337.07	17.64	-36.5	-37.9	15.9	0.00e+00	0	62	0	4228907008	43	4280
2026-01-18 14:43:14.97	337.12	17.52	-36.5	-38.0	15.9	0.00e+00	0	62	0	4236247040	43	4305
2026-01-18 14:43:15.98	337.16	17.41	-36.5	-38.0	15.8	0.00e+00	0	62	0	4243587072	43	4318
2026-01-18 14:43:16.99	337.21	17.29	-36.4	-37.9	15.9	0.00e+00	0	62	0	4250927104	43	4282
2026-01-18 14:43:18.00	337.25	17.17	-36.4	-37.8	15.9	0.00e+00	0	62	0	4258267136	43	4235
2026-01-18 14:43:19.01	337.30	17.06	-36.4	-37.9	15.8	0.00e+00	0	62	0	4265607168	43	4269
2026-01-18 14:43:20.02	337.34	16.94	-36.6	-38.2	15.5	0.00e+00	0	62	0	4272947200	43	4404
2026-01-18 14:43:21.03	337.38	16.83	-36.8	-38.3	15.3	0.00e+00	0	62	0	4280287232	43	4486
2026-01-18 14:43:22.05	337.43	16.72	-36.9	-38.5	15.1	0.00e+00	0	62	0	4287627264	43	4567
2026-01-18 14:43:23.06	337.47	16.60	-36.9	-38.6	15.0	0.00e+00	0	62	0	4294967296	43	4611
2026-01-18 14:43:24.07	337.51	16.49	-37.2	-38.8	14.7	0.00e+00	0	62	0	4301258752	43	4748
2026-01-18 14:43:25.08	337.56	16.38	-37.1	-38.7	14.8	0.00e+00	0	62	0	4309647360	43	4699
2026-01-18 14:43:26.09	337.60	16.27	-37.1	-38.8	14.7	1.10e-06	0	62	0	4316987392	43	4734
2026-01-18 14:43:27.10	337.64	16.16	-36.9	-38.6	14.9	0.00e+00	0	62	0	4323278848	43	4607
2026-01-18 14:43:28.11	337.68	16.05	-36.8	-38.4	15.0	0.00e+00	0	62	0	4330618880	43	4527
2026-01-18 14:43:29.12	337.72	15.94	-36.6	-38.2	15.2	0.00e+00	0	62	0	4337958912	43	4395
