passes_logs/2026/01/18/R2.0S_Moscow/R2.0S_Moscow__20260118_015859_SUOMI_NPP_rec.log

#Pass ID: 20260118_015859_SUOMI NPP
#Satellite: SUOMI NPP
#Configuration: NPP
#almurnet v.1.7.20251203
#Start time: 2026-01-18 01:59:00

#Version: 2.2.20231116
#Station: R2.0S_Moscow
#Location: 37.707566 lon 55.798166 lat
#TLE: 1 37849U 11061A   26017.28905266  .00000074  00000+0  55894-4 0  9999
#TLE: 2 37849  98.7814 319.3179 0002408  59.7048 300.4366 14.19525847737038

#Time	Az	El	Level	Level2	SNR	BER	BlckErr	Temp	State	Recorded	gain1	gain2
2026-01-18 01:59:00.25	8.75	2.02	-39.3	-54.5	3.8	1.49e+00	0	51	0	0	50	20465
2026-01-18 01:59:01.25	8.67	2.07	-39.2	-54.5	3.8	1.49e+00	0	51	104	0	49	21622
2026-01-18 01:59:02.26	8.58	2.12	-39.2	-54.5	3.8	1.49e+00	0	52	104	0	49	21573
2026-01-18 01:59:03.27	8.50	2.17	-39.2	-54.5	3.8	1.49e+00	0	52	104	0	49	21561
2026-01-18 01:59:04.28	8.41	2.22	-39.2	-54.5	3.8	1.49e+00	0	52	104	0	49	21550
2026-01-18 01:59:05.29	8.33	2.27	-39.2	-54.4	3.8	1.49e+00	0	52	104	0	49	21492
2026-01-18 01:59:06.30	8.24	2.32	-39.2	-54.4	3.8	1.49e+00	0	52	104	0	49	21474
2026-01-18 01:59:07.31	8.15	2.37	-39.2	-54.4	3.8	1.49e+00	0	52	104	0	49	21494
2026-01-18 01:59:08.33	8.07	2.43	-39.2	-54.5	3.8	1.49e+00	0	52	104	0	49	21527
2026-01-18 01:59:09.34	7.98	2.48	-39.2	-54.5	3.8	1.49e+00	0	52	104	0	49	21516
2026-01-18 01:59:10.35	7.89	2.53	-39.2	-54.4	3.8	1.49e+00	0	52	104	0	49	21478
2026-01-18 01:59:11.36	7.80	2.58	-39.2	-54.5	3.8	1.49e+00	0	52	104	0	49	21526
2026-01-18 01:59:12.37	7.72	2.63	-39.2	-54.5	3.8	1.49e+00	0	52	104	0	49	21525
2026-01-18 01:59:13.38	7.63	2.68	-39.2	-54.5	3.8	1.49e+00	0	52	104	0	49	21548
2026-01-18 01:59:14.39	7.54	2.73	-39.2	-54.5	3.8	1.49e+00	0	52	104	0	49	21509
2026-01-18 01:59:15.40	7.45	2.79	-39.2	-54.5	3.8	1.49e+00	0	53	104	0	49	21507
2026-01-18 01:59:16.41	7.36	2.84	-39.2	-54.4	3.8	1.49e+00	0	53	104	0	49	21476
2026-01-18 01:59:17.42	7.27	2.89	-39.2	-54.4	3.8	1.49e+00	0	53	104	0	49	21437
2026-01-18 01:59:18.44	7.18	2.94	-39.1	-54.4	3.8	1.49e+00	0	53	104	0	49	21440
2026-01-18 01:59:19.45	7.09	2.99	-39.1	-54.4	3.8	1.49e+00	0	53	104	0	49	21430
2026-01-18 01:59:20.46	7.00	3.04	-39.1	-54.5	3.8	1.49e+00	0	53	104	0	49	21516
2026-01-18 01:59:21.47	6.91	3.10	-39.1	-54.4	3.8	1.49e+00	0	53	104	0	49	21448
2026-01-18 01:59:22.48	6.82	3.15	-39.1	-54.4	3.8	1.49e+00	0	53	104	0	49	21476
2026-01-18 01:59:23.49	6.73	3.20	-39.1	-54.4	3.8	1.49e+00	0	53	104	0	49	21451
2026-01-18 01:59:24.50	6.63	3.25	-39.1	-54.4	3.8	1.49e+00	0	53	104	0	49	21457
2026-01-18 01:59:25.51	6.54	3.30	-39.1	-54.4	3.8	1.49e+00	0	53	104	0	49	21422
2026-01-18 01:59:26.52	6.45	3.35	-39.1	-54.4	3.8	1.49e+00	0	53	104	0	49	21423
2026-01-18 01:59:27.53	6.36	3.41	-39.1	-54.4	3.8	1.49e+00	0	53	104	0	49	21483
2026-01-18 01:59:28.54	6.26	3.46	-39.1	-54.4	3.8	1.49e+00	0	54	104	0	49	21413
2026-01-18 01:59:29.55	6.17	3.51	-39.1	-54.4	3.8	1.49e+00	0	53	104	0	49	21455
2026-01-18 01:59:30.56	6.08	3.56	-39.1	-54.4	3.8	1.49e+00	0	54	104	0	49	21387
2026-01-18 01:59:31.58	5.98	3.61	-39.1	-54.4	3.8	1.49e+00	0	54	104	0	49	21352
2026-01-18 01:59:32.59	5.89	3.67	-39.1	-54.4	3.8	1.49e+00	0	54	104	0	49	21321
2026-01-18 01:59:33.60	5.79	3.72	-39.1	-54.4	3.8	1.49e+00	0	54	104	0	49	21341
2026-01-18 01:59:34.61	5.70	3.77	-39.1	-54.4	3.8	1.49e+00	0	54	104	0	49	21307
2026-01-18 01:59:35.62	5.60	3.82	-39.1	-54.4	3.8	1.49e+00	0	54	104	0	49	21345
2026-01-18 01:59:36.63	5.50	3.87	-39.1	-54.4	3.8	1.49e+00	0	54	104	0	49	21313
2026-01-18 01:59:37.64	5.41	3.93	-39.1	-54.4	3.8	1.49e+00	0	54	104	0	49	21319
2026-01-18 01:59:38.65	5.31	3.98	-39.1	-54.4	3.8	1.49e+00	0	54	104	0	49	21404
2026-01-18 01:59:39.67	5.21	4.03	-39.1	-54.4	3.8	1.49e+00	0	54	104	0	49	21326
2026-01-18 01:59:40.68	5.12	4.08	-39.1	-54.4	3.8	1.49e+00	0	54	104	0	49	21263
2026-01-18 01:59:41.69	5.02	4.13	-39.1	-54.4	3.8	1.49e+00	0	54	104	0	49	21299
2026-01-18 01:59:42.70	4.92	4.19	-39.1	-54.4	3.8	1.49e+00	0	54	104	0	49	21320
2026-01-18 01:59:43.71	4.82	4.24	-39.1	-54.4	3.8	1.49e+00	0	54	104	0	49	21271
2026-01-18 01:59:44.72	4.72	4.29	-39.1	-54.4	3.8	1.49e+00	0	54	104	0	49	21280
2026-01-18 01:59:45.73	4.62	4.34	-39.1	-54.4	3.8	1.49e+00	0	54	104	0	49	21280
2026-01-18 01:59:46.74	4.52	4.39	-39.1	-54.4	3.8	1.49e+00	0	55	104	0	49	21311
2026-01-18 01:59:47.75	4.42	4.45	-39.1	-54.4	3.8	1.49e+00	0	54	104	0	49	21300
2026-01-18 01:59:48.77	4.32	4.50	-39.1	-54.4	3.8	1.49e+00	0	55	104	0	49	21302
2026-01-18 01:59:49.78	4.22	4.55	-39.1	-54.3	3.8	1.49e+00	0	55	104	0	49	21248
2026-01-18 01:59:50.79	4.12	4.60	-39.1	-54.3	3.8	1.49e+00	0	55	104	0	49	21237
2026-01-18 01:59:51.80	4.02	4.66	-39.1	-54.4	3.8	1.49e+00	0	55	104	0	49	21270
2026-01-18 01:59:52.81	3.92	4.71	-39.1	-54.4	3.8	1.49e+00	0	55	104	0	49	21281
2026-01-18 01:59:53.82	3.82	4.76	-39.0	-54.4	3.8	1.49e+00	0	55	104	0	49	21312
2026-01-18 01:59:54.83	3.71	4.81	-39.0	-54.4	3.8	1.49e+00	0	55	104	0	49	21288
2026-01-18 01:59:55.84	3.61	4.87	-39.1	-54.3	3.8	1.49e+00	0	55	104	0	49	21251
2026-01-18 01:59:56.85	3.51	4.92	-39.0	-54.4	3.8	1.49e+00	0	55	104	0	49	21310
2026-01-18 01:59:57.86	3.40	4.97	-39.1	-54.3	3.8	1.49e+00	0	55	104	0	49	21253
2026-01-18 01:59:58.88	3.30	5.02	-39.1	-54.3	3.8	1.49e+00	0	55	104	0	49	21258
2026-01-18 01:59:59.89	3.19	5.08	-39.1	-54.4	3.8	1.49e+00	0	55	104	0	49	21283
2026-01-18 02:00:00.90	3.09	5.13	-39.1	-54.4	3.8	1.49e+00	0	55	104	0	49	21305
2026-01-18 02:00:01.91	2.98	5.18	-39.1	-54.4	3.8	1.49e+00	0	55	104	0	49	21349
2026-01-18 02:00:02.92	2.88	5.23	-39.1	-54.4	3.8	1.49e+00	0	55	104	0	49	21267
2026-01-18 02:00:03.93	2.77	5.29	-39.1	-54.4	3.8	1.49e+00	0	55	104	0	49	21281
2026-01-18 02:00:04.94	2.66	5.34	-39.1	-54.4	3.8	1.49e+00	0	55	104	0	49	21308
2026-01-18 02:00:05.96	2.56	5.39	-39.1	-54.4	3.8	1.49e+00	0	55	104	0	49	21263
2026-01-18 02:00:06.97	2.45	5.44	-39.1	-54.4	3.8	1.49e+00	0	55	104	0	49	21278
2026-01-18 02:00:07.98	2.34	5.50	-39.1	-54.4	3.8	1.49e+00	0	55	104	0	49	21300
2026-01-18 02:00:08.99	2.23	5.55	-39.1	-54.4	3.8	1.49e+00	0	55	104	0	49	21288
2026-01-18 02:00:10.00	2.13	5.60	-39.1	-54.4	3.8	1.49e+00	0	56	104	0	49	21304
2026-01-18 02:00:11.01	2.02	5.65	-39.1	-54.3	3.8	1.49e+00	0	55	104	0	49	21260
2026-01-18 02:00:12.02	1.91	5.71	-39.1	-54.4	3.8	1.49e+00	0	56	104	0	49	21278
2026-01-18 02:00:13.03	1.80	5.76	-39.1	-54.3	3.8	1.49e+00	0	56	104	0	49	21238
2026-01-18 02:00:14.04	1.69	5.81	-39.1	-54.4	3.8	1.49e+00	0	56	104	0	49	21328
2026-01-18 02:00:15.05	1.58	5.86	-39.1	-54.4	3.8	1.49e+00	0	56	104	0	49	21309
2026-01-18 02:00:16.06	1.47	5.92	-39.1	-54.4	3.8	1.49e+00	0	56	104	0	49	21299
2026-01-18 02:00:17.07	1.35	5.97	-39.1	-54.4	3.8	1.49e+00	0	56	104	0	49	21283
2026-01-18 02:00:18.08	1.24	6.02	-39.0	-54.4	3.8	1.49e+00	0	56	104	0	49	21294
2026-01-18 02:00:19.09	1.13	6.08	-39.1	-54.4	3.8	1.49e+00	0	56	104	0	49	21298
2026-01-18 02:00:20.11	1.02	6.13	-39.2	-54.4	3.8	1.49e+00	0	56	104	0	49	21328
2026-01-18 02:00:21.12	0.90	6.18	-39.1	-54.4	3.8	1.49e+00	0	56	104	0	49	21322
2026-01-18 02:00:22.13	0.79	6.23	-39.1	-54.4	3.8	1.49e+00	0	56	104	0	49	21285
2026-01-18 02:00:23.14	0.68	6.29	-39.2	-54.3	3.8	1.49e+00	0	56	104	0	49	21260
2026-01-18 02:00:24.15	0.56	6.34	-39.2	-54.4	3.8	1.49e+00	0	56	104	0	49	21271
2026-01-18 02:00:25.16	0.45	6.39	-39.2	-54.4	3.8	1.49e+00	0	56	104	0	49	21267
2026-01-18 02:00:26.17	0.33	6.44	-39.2	-54.4	3.8	1.49e+00	0	56	104	0	49	21298
2026-01-18 02:00:27.18	0.22	6.50	-39.2	-54.4	3.8	1.49e+00	0	56	104	0	49	21275
2026-01-18 02:00:28.19	0.10	6.55	-39.2	-54.4	3.8	1.49e+00	0	56	104	0	49	21268
2026-01-18 02:00:29.21	359.98	6.60	-39.2	-54.4	3.8	1.49e+00	0	56	104	0	49	21300
2026-01-18 02:00:30.21	359.87	6.65	-39.2	-54.4	3.8	1.49e+00	0	56	104	0	49	21362
2026-01-18 02:00:31.23	359.75	6.71	-39.2	-54.4	3.8	1.49e+00	0	56	104	0	49	21296
2026-01-18 02:00:32.24	359.63	6.76	-39.2	-54.4	3.8	1.49e+00	0	57	104	0	49	21359
2026-01-18 02:00:33.25	359.51	6.81	-39.2	-54.4	3.8	1.49e+00	0	57	104	0	49	21266
2026-01-18 02:00:34.26	359.39	6.87	-39.2	-54.4	3.8	1.49e+00	0	56	104	0	49	21297
2026-01-18 02:00:35.27	359.27	6.92	-39.2	-54.4	3.8	1.49e+00	0	57	104	0	49	21323
2026-01-18 02:00:36.28	359.15	6.97	-39.2	-54.4	3.8	1.49e+00	0	57	104	0	49	21294
2026-01-18 02:00:37.29	359.03	7.02	-39.2	-54.4	3.8	1.49e+00	0	57	104	0	49	21264
2026-01-18 02:00:38.31	358.91	7.08	-39.2	-54.4	3.8	1.49e+00	0	57	104	0	49	21332
2026-01-18 02:00:39.32	358.79	7.13	-39.2	-54.4	3.8	1.49e+00	0	57	104	0	49	21299
2026-01-18 02:00:40.33	358.67	7.18	-39.2	-54.4	3.8	1.49e+00	0	57	104	0	49	21277
2026-01-18 02:00:41.34	358.55	7.23	-39.2	-54.4	3.8	1.49e+00	0	56	104	0	49	21298
2026-01-18 02:00:42.35	358.43	7.29	-39.2	-54.4	3.8	1.49e+00	0	57	104	0	49	21273
2026-01-18 02:00:43.36	358.30	7.34	-39.2	-54.4	3.8	1.49e+00	0	57	104	0	49	21304
2026-01-18 02:00:44.37	358.18	7.39	-39.2	-54.4	3.8	1.49e+00	0	57	104	0	49	21347
2026-01-18 02:00:45.38	358.06	7.44	-39.2	-54.4	3.8	1.49e+00	0	57	104	0	49	21325
2026-01-18 02:00:46.39	357.93	7.50	-39.2	-54.4	3.8	1.49e+00	0	57	104	0	49	21330
2026-01-18 02:00:47.40	357.81	7.55	-39.2	-54.4	3.8	1.49e+00	0	57	104	0	49	21270
2026-01-18 02:00:48.42	357.68	7.60	-39.2	-54.4	3.8	1.49e+00	0	57	104	0	49	21308
2026-01-18 02:00:49.42	357.56	7.65	-39.2	-54.4	3.8	1.49e+00	0	57	104	0	49	21350
2026-01-18 02:00:50.44	357.43	7.70	-39.2	-54.4	3.8	1.49e+00	0	57	104	0	49	21268
2026-01-18 02:00:51.45	357.31	7.76	-39.2	-54.4	3.8	1.49e+00	0	57	104	0	49	21309
2026-01-18 02:00:52.46	357.18	7.81	-39.2	-54.4	3.8	1.49e+00	0	57	104	0	49	21304
2026-01-18 02:00:53.47	357.05	7.86	-39.2	-54.4	3.8	1.49e+00	0	57	104	0	49	21309
2026-01-18 02:00:54.48	356.92	7.91	-39.2	-54.4	3.8	1.49e+00	0	57	104	0	49	21296
2026-01-18 02:00:55.49	356.79	7.97	-39.2	-54.3	3.8	1.49e+00	0	57	104	0	49	21254
2026-01-18 02:00:56.50	356.67	8.02	-39.3	-54.4	3.8	1.49e+00	0	57	104	0	49	21347
2026-01-18 02:00:57.51	356.54	8.07	-39.3	-54.4	3.8	1.49e+00	0	57	104	0	49	21459
2026-01-18 02:00:58.52	356.41	8.12	-39.3	-54.5	3.8	1.49e+00	0	57	104	0	49	21753
2026-01-18 02:00:59.53	356.28	8.17	-39.3	-54.5	3.8	1.49e+00	0	57	104	0	49	21691
2026-01-18 02:01:00.54	356.15	8.23	-39.5	-54.6	3.8	1.49e+00	0	57	104	0	49	22002
2026-01-18 02:01:01.55	356.02	8.28	-39.4	-54.6	3.8	1.49e+00	0	57	104	0	49	21973
2026-01-18 02:01:02.56	355.88	8.33	-39.4	-54.7	3.8	1.49e+00	0	57	104	0	49	22037
2026-01-18 02:01:03.57	355.75	8.38	-39.5	-54.7	3.8	1.49e+00	0	57	104	0	50	20846
2026-01-18 02:01:04.58	355.62	8.43	-39.5	-54.6	3.8	1.49e+00	0	58	104	0	50	20763
2026-01-18 02:01:05.59	355.49	8.49	-39.6	-54.7	3.8	1.49e+00	0	58	104	0	50	20841
2026-01-18 02:01:06.60	355.35	8.54	-39.6	-54.7	3.8	1.49e+00	0	58	104	0	50	20838
2026-01-18 02:01:07.61	355.22	8.59	-39.8	-54.7	3.8	1.49e+00	0	57	104	0	50	20946
2026-01-18 02:01:08.62	355.08	8.64	-40.0	-54.8	3.8	1.49e+00	0	58	104	0	50	21222
2026-01-18 02:01:09.63	354.95	8.69	-39.8	-54.8	3.8	1.49e+00	0	58	104	0	50	21042
2026-01-18 02:01:10.64	354.81	8.74	-40.0	-54.8	3.8	1.49e+00	0	57	104	0	50	21171
2026-01-18 02:01:11.65	354.68	8.80	-39.9	-54.8	3.8	1.49e+00	0	58	104	0	50	21044
2026-01-18 02:01:12.66	354.54	8.85	-40.1	-54.8	3.8	1.49e+00	0	58	104	0	50	21165
2026-01-18 02:01:13.67	354.40	8.90	-40.0	-54.8	3.8	1.49e+00	0	58	104	0	50	21260
2026-01-18 02:01:14.67	354.27	8.95	-40.1	-54.8	3.8	1.49e+00	0	58	104	0	50	21143
2026-01-18 02:01:15.68	354.13	9.00	-40.1	-54.8	3.8	1.49e+00	0	58	104	0	50	21244
2026-01-18 02:01:16.70	353.99	9.05	-40.3	-54.9	3.8	1.49e+00	0	58	104	0	51	20185
2026-01-18 02:01:17.71	353.85	9.10	-40.1	-54.8	3.8	1.49e+00	0	58	104	0	51	20003
2026-01-18 02:01:18.72	353.71	9.15	-40.3	-54.9	3.8	1.49e+00	0	58	104	0	51	20275
2026-01-18 02:01:19.73	353.57	9.21	-40.2	-54.9	3.8	1.49e+00	0	58	104	0	51	20074
2026-01-18 02:01:20.74	353.43	9.26	-40.2	-54.9	3.8	1.49e+00	0	58	104	0	51	20299
2026-01-18 02:01:21.75	353.29	9.31	-40.3	-54.9	3.8	1.49e+00	0	58	104	0	51	20141
2026-01-18 02:01:22.76	353.15	9.36	-40.3	-55.0	3.8	1.49e+00	0	58	104	0	51	20348
2026-01-18 02:01:23.77	353.01	9.41	-40.3	-54.9	3.8	1.49e+00	0	58	104	0	51	20217
2026-01-18 02:01:24.78	352.86	9.46	-40.5	-55.2	3.8	1.49e+00	0	58	104	0	51	20968
2026-01-18 02:01:25.79	352.72	9.51	-40.3	-55.0	3.8	1.49e+00	0	58	104	0	51	20403
2026-01-18 02:01:26.80	352.58	9.56	-40.3	-55.3	3.8	1.49e+00	0	58	104	0	51	21029
2026-01-18 02:01:27.81	352.43	9.61	-40.4	-55.1	3.8	1.49e+00	0	58	104	0	51	20599
2026-01-18 02:01:28.82	352.29	9.66	-40.3	-55.1	3.8	1.49e+00	0	58	104	0	51	20617
2026-01-18 02:01:29.83	352.14	9.71	-40.4	-55.1	3.8	1.49e+00	0	58	104	0	51	20693
2026-01-18 02:01:30.84	352.00	9.76	-40.3	-55.1	3.8	1.49e+00	0	58	104	0	51	20748
2026-01-18 02:01:31.84	351.85	9.81	-40.4	-55.1	3.8	1.49e+00	0	58	104	0	51	20656
2026-01-18 02:01:32.85	351.71	9.86	-40.5	-55.2	3.8	1.49e+00	0	58	104	0	51	21010
2026-01-18 02:01:33.86	351.56	9.91	-40.4	-55.2	3.8	1.49e+00	0	58	104	0	51	20981
2026-01-18 02:01:34.87	351.41	9.96	-40.6	-55.3	3.8	1.49e+00	0	58	104	0	51	21089
2026-01-18 02:01:35.88	351.26	10.01	-40.3	-55.2	3.8	1.49e+00	0	58	104	0	51	20856
2026-01-18 02:01:36.89	351.12	10.06	-40.4	-55.2	3.8	1.49e+00	0	58	104	0	51	20933
2026-01-18 02:01:37.90	350.97	10.11	-40.6	-55.3	3.8	1.49e+00	0	58	104	0	52	20020
2026-01-18 02:01:38.91	350.82	10.16	-40.5	-55.3	3.8	1.49e+00	0	58	104	0	52	19843
2026-01-18 02:01:39.92	350.67	10.21	-40.7	-55.4	3.8	1.49e+00	0	58	104	0	52	20174
2026-01-18 02:01:40.93	350.52	10.26	-40.5	-55.2	3.8	1.49e+00	0	58	104	0	52	19663
2026-01-18 02:01:41.94	350.36	10.31	-40.4	-55.1	3.8	1.49e+00	0	58	104	0	52	19611
2026-01-18 02:01:42.95	350.21	10.36	-40.5	-55.3	3.8	1.49e+00	0	58	104	0	52	19860
2026-01-18 02:01:43.96	350.06	10.41	-40.5	-55.2	3.8	1.49e+00	0	58	104	0	52	19709
2026-01-18 02:01:44.97	349.91	10.46	-40.7	-55.4	3.8	1.49e+00	0	58	104	0	52	20161
2026-01-18 02:01:45.98	349.75	10.51	-40.6	-55.2	3.8	1.49e+00	0	58	104	0	52	19781
2026-01-18 02:01:46.99	349.60	10.56	-40.7	-55.3	3.8	1.49e+00	0	58	104	0	52	19992
2026-01-18 02:01:48.00	349.45	10.61	-40.6	-55.3	3.8	1.49e+00	0	58	104	0	52	19905
2026-01-18 02:01:49.00	349.29	10.65	-40.8	-55.6	3.8	1.49e+00	0	58	104	0	52	20567
2026-01-18 02:01:50.01	349.14	10.70	-40.4	-55.2	3.8	1.49e+00	0	58	104	0	52	19673
2026-01-18 02:01:51.02	348.98	10.75	-40.9	-55.6	3.8	1.49e+00	0	58	104	0	52	20558
2026-01-18 02:01:52.03	348.82	10.80	-40.5	-55.2	3.8	1.49e+00	0	58	104	0	52	19803
2026-01-18 02:01:53.04	348.67	10.85	-40.8	-55.5	3.8	1.49e+00	0	58	104	0	52	20489
2026-01-18 02:01:54.05	348.51	10.90	-40.9	-55.5	3.8	1.49e+00	0	59	104	0	52	20538
2026-01-18 02:01:55.06	348.35	10.94	-40.8	-55.5	3.8	1.49e+00	0	58	104	0	52	20511
2026-01-18 02:01:56.07	348.19	10.99	-40.9	-55.5	3.8	1.49e+00	0	58	104	0	52	20457
2026-01-18 02:01:57.08	348.03	11.04	-41.0	-55.6	3.8	1.49e+00	0	58	104	0	52	20754
2026-01-18 02:01:58.09	347.87	11.09	-40.8	-55.6	3.8	1.49e+00	0	59	104	0	52	20609
2026-01-18 02:01:59.10	347.71	11.14	-41.0	-55.7	3.8	1.49e+00	0	59	104	0	52	20783
2026-01-18 02:02:00.11	347.55	11.18	-40.8	-55.5	3.8	1.49e+00	0	59	104	0	52	20515
2026-01-18 02:02:01.11	347.39	11.23	-40.9	-55.6	3.8	1.49e+00	0	59	104	0	52	20735
2026-01-18 02:02:02.12	347.23	11.28	-40.9	-55.5	3.8	1.49e+00	0	59	104	0	52	20477
2026-01-18 02:02:03.13	347.07	11.32	-41.0	-55.7	3.8	1.49e+00	0	58	104	0	52	20800
2026-01-18 02:02:04.14	346.91	11.37	-40.9	-55.5	3.8	1.49e+00	0	59	104	0	52	20478
2026-01-18 02:02:05.15	346.74	11.42	-40.8	-55.5	3.8	1.49e+00	0	58	104	0	52	20305
2026-01-18 02:02:06.16	346.58	11.46	-41.0	-55.6	3.8	1.49e+00	0	59	104	0	52	20764
2026-01-18 02:02:07.17	346.41	11.51	-40.7	-55.3	3.8	1.49e+00	0	59	104	0	52	20063
2026-01-18 02:02:08.18	346.25	11.56	-41.0	-55.6	3.8	1.49e+00	0	59	104	0	52	20772
2026-01-18 02:02:09.19	346.08	11.60	-40.8	-55.5	3.8	1.49e+00	0	59	104	0	52	20413
2026-01-18 02:02:10.20	345.92	11.65	-40.6	-55.3	3.8	1.49e+00	0	59	104	0	52	19930
2026-01-18 02:02:11.21	345.75	11.69	-40.7	-55.4	3.8	1.49e+00	0	59	104	0	52	20082
2026-01-18 02:02:12.22	345.58	11.74	-40.5	-55.2	3.8	1.49e+00	0	59	104	0	52	19831
2026-01-18 02:02:13.23	345.42	11.79	-40.5	-55.3	3.8	1.49e+00	0	59	104	0	52	19880
2026-01-18 02:02:14.24	345.25	11.83	-40.7	-55.3	3.8	1.49e+00	0	59	104	0	52	19956
2026-01-18 02:02:15.25	345.08	11.88	-40.5	-55.3	3.8	1.49e+00	0	59	104	0	52	19878
2026-01-18 02:02:16.26	344.91	11.92	-40.5	-55.2	3.8	1.49e+00	0	59	104	0	52	19768
2026-01-18 02:02:17.27	344.74	11.97	-40.5	-55.3	3.8	1.49e+00	0	59	104	0	52	19984
2026-01-18 02:02:18.28	344.57	12.01	-40.8	-55.4	3.8	1.49e+00	0	59	104	0	52	20215
2026-01-18 02:02:19.29	344.40	12.06	-40.6	-55.4	3.8	1.49e+00	0	59	104	0	52	20088
2026-01-18 02:02:20.30	344.23	12.10	-40.6	-55.2	3.8	1.49e+00	0	59	104	0	52	19812
2026-01-18 02:02:21.31	344.06	12.14	-40.4	-55.0	3.8	1.49e+00	0	59	104	0	52	19386
2026-01-18 02:02:22.32	343.88	12.19	-40.5	-55.2	3.8	1.49e+00	0	59	104	0	52	19684
2026-01-18 02:02:23.33	343.71	12.23	-40.5	-55.1	3.8	1.49e+00	0	59	104	0	52	19517
2026-01-18 02:02:24.34	343.54	12.28	-40.4	-55.1	3.8	1.49e+00	0	59	104	0	52	19564
2026-01-18 02:02:25.35	343.36	12.32	-40.5	-55.1	3.8	1.49e+00	0	59	104	0	52	19597
2026-01-18 02:02:26.36	343.19	12.36	-40.5	-55.1	3.8	1.49e+00	0	59	104	0	52	19545
2026-01-18 02:02:27.37	343.01	12.41	-40.6	-55.2	3.8	1.49e+00	0	59	104	0	52	19706
2026-01-18 02:02:28.38	342.84	12.45	-40.5	-55.1	3.8	1.49e+00	0	59	104	0	52	19599
2026-01-18 02:02:29.39	342.66	12.49	-40.3	-55.1	3.8	1.49e+00	0	59	104	0	52	19397
2026-01-18 02:02:30.40	342.49	12.54	-40.4	-55.1	3.8	1.49e+00	0	59	104	0	52	19486
2026-01-18 02:02:31.41	342.31	12.58	-40.2	-55.0	3.8	1.49e+00	0	59	104	0	52	19296
2026-01-18 02:02:32.42	342.13	12.62	-40.5	-55.1	3.8	1.49e+00	0	59	104	0	52	19590
2026-01-18 02:02:33.43	341.95	12.66	-40.3	-55.0	3.8	1.49e+00	0	59	104	0	52	19357
2026-01-18 02:02:34.44	341.77	12.70	-40.3	-55.0	3.8	1.49e+00	0	59	104	0	52	19361
2026-01-18 02:02:35.45	341.59	12.75	-40.2	-55.0	3.8	1.49e+00	0	59	104	0	52	19316
2026-01-18 02:02:36.46	341.41	12.79	-40.6	-55.2	3.8	1.49e+00	0	59	104	0	52	19791
2026-01-18 02:02:37.47	341.23	12.83	-40.5	-55.2	3.8	1.49e+00	0	59	104	0	52	19685
2026-01-18 02:02:38.48	341.05	12.87	-40.4	-55.1	3.8	1.49e+00	0	59	104	0	52	19514
2026-01-18 02:02:39.49	340.87	12.91	-40.6	-55.3	3.8	1.49e+00	0	59	104	0	52	19968
2026-01-18 02:02:40.50	340.69	12.95	-40.4	-55.2	3.8	1.49e+00	0	59	104	0	52	19678
2026-01-18 02:02:41.51	340.51	12.99	-40.7	-55.4	3.8	1.49e+00	0	59	104	0	52	20083
2026-01-18 02:02:42.52	340.33	13.03	-40.7	-55.3	3.8	1.49e+00	0	59	104	0	52	20062
2026-01-18 02:02:43.53	340.14	13.07	-40.8	-55.3	3.8	1.49e+00	0	59	104	0	52	19941
2026-01-18 02:02:44.54	339.96	13.11	-41.2	-55.1	3.8	1.49e+00	0	59	104	0	52	19515
2026-01-18 02:02:45.55	339.77	13.15	-41.0	-54.7	3.8	1.48e+00	0	59	104	0	54	16565
2026-01-18 02:02:46.56	339.59	13.19	-40.9	-54.3	3.8	1.49e+00	0	60	104	0	53	16776
2026-01-18 02:02:47.58	339.40	13.23	-41.6	-51.6	4.7	1.43e+00	0	59	0	0	53	12329
2026-01-18 02:02:48.59	339.22	13.27	-41.6	-50.2	5.6	5.71e-01	0	59	0	2097152	53	10516
2026-01-18 02:02:49.60	339.03	13.31	-41.7	-49.3	6.4	3.03e-01	0	59	0	4194304	53	9483
2026-01-18 02:02:50.61	338.84	13.34	-41.7	-48.9	6.9	1.97e-01	0	59	0	5242880	54	8543
2026-01-18 02:02:51.62	338.66	13.38	-41.4	-47.7	8.2	7.85e-02	0	59	0	7340032	54	7404
2026-01-18 02:02:52.62	338.47	13.42	-41.3	-47.0	8.9	4.19e-02	0	59	0	9437184	54	6844
2026-01-18 02:02:53.63	338.28	13.46	-41.1	-46.5	9.5	2.14e-02	0	59	0	11534336	54	6454
2026-01-18 02:02:54.64	338.09	13.49	-41.0	-46.0	10.0	8.00e-03	0	60	0	13631488	54	6119
2026-01-18 02:02:55.65	337.90	13.53	-41.2	-46.3	9.9	8.11e-03	0	59	0	15728640	54	6285
2026-01-18 02:02:56.66	337.71	13.57	-41.6	-47.1	9.2	1.32e-02	0	60	0	16777216	54	6912
2026-01-18 02:02:57.67	337.52	13.60	-41.8	-47.5	8.9	2.87e-02	0	59	0	18874368	54	7230
2026-01-18 02:02:58.68	337.33	13.64	-41.7	-47.0	9.5	2.01e-02	0	59	0	20971520	54	6877
2026-01-18 02:02:59.69	337.14	13.68	-41.6	-46.7	10.0	1.11e-02	0	59	0	23068672	54	6598
2026-01-18 02:03:00.70	336.95	13.71	-41.8	-47.0	9.7	1.01e-02	0	59	0	25165824	54	6852
2026-01-18 02:03:01.71	336.76	13.75	-41.7	-46.7	10.0	7.92e-03	0	59	0	26214400	54	6630
2026-01-18 02:03:02.72	336.57	13.78	-41.7	-46.6	10.2	6.62e-03	0	59	0	28311552	54	6535
2026-01-18 02:03:03.73	336.37	13.82	-41.7	-46.7	10.2	6.20e-03	0	59	0	30408704	54	6575
2026-01-18 02:03:04.74	336.18	13.85	-41.8	-46.8	10.0	6.07e-03	0	59	0	32505856	54	6675
2026-01-18 02:03:05.75	335.98	13.89	-41.7	-46.5	10.3	5.98e-03	0	59	0	34603008	54	6494
2026-01-18 02:03:06.75	335.79	13.92	-41.7	-46.6	10.4	4.59e-03	0	60	0	35651584	54	6498
2026-01-18 02:03:07.77	335.60	13.96	-41.6	-46.3	10.7	4.21e-03	0	60	0	37748736	54	6311
2026-01-18 02:03:08.78	335.40	13.99	-41.7	-46.4	10.7	2.30e-03	0	59	0	39845888	54	6361
2026-01-18 02:03:09.78	335.21	14.02	-41.5	-45.9	11.2	3.22e-03	0	60	0	41943040	54	6010
2026-01-18 02:03:10.79	335.01	14.06	-41.6	-46.1	11.0	1.58e-03	0	60	0	44040192	54	6201
2026-01-18 02:03:11.80	334.81	14.09	-41.5	-45.9	11.2	1.25e-03	0	60	0	45088768	54	6038
2026-01-18 02:03:12.81	334.62	14.12	-41.5	-45.9	11.2	1.39e-03	0	60	0	47185920	54	6058
2026-01-18 02:03:13.82	334.42	14.15	-41.6	-46.0	11.2	1.28e-03	0	60	0	49283072	54	6115
2026-01-18 02:03:14.83	334.22	14.18	-41.6	-46.0	11.1	1.30e-03	0	60	0	51380224	54	6128
2026-01-18 02:03:15.84	334.02	14.22	-41.6	-45.9	11.2	1.41e-03	0	60	0	53477376	54	6061
2026-01-18 02:03:16.85	333.82	14.25	-41.5	-45.8	11.4	1.26e-03	0	59	0	54525952	54	5985
2026-01-18 02:03:17.86	333.62	14.28	-41.7	-46.2	11.0	1.81e-03	0	60	0	56623104	54	6250
2026-01-18 02:03:18.87	333.42	14.31	-41.7	-46.2	11.0	1.94e-03	0	60	0	58720256	54	6215
2026-01-18 02:03:19.88	333.22	14.34	-41.6	-45.9	11.4	1.53e-03	0	59	0	60817408	54	6021
2026-01-18 02:03:20.89	333.02	14.37	-41.7	-46.2	11.0	1.77e-03	0	60	0	62914560	54	6272
2026-01-18 02:03:21.90	332.82	14.40	-41.8	-46.3	10.9	2.27e-03	0	60	0	63963136	54	6324
2026-01-18 02:03:22.91	332.62	14.43	-41.8	-46.3	11.0	1.90e-03	0	60	0	66060288	54	6288
2026-01-18 02:03:23.91	332.42	14.46	-41.6	-45.9	11.3	1.53e-03	0	59	0	68157440	54	6052
2026-01-18 02:03:24.92	332.22	14.48	-41.7	-46.0	11.3	1.34e-03	0	60	0	70254592	54	6117
2026-01-18 02:03:25.93	332.02	14.51	-41.5	-45.6	11.7	8.15e-04	0	60	0	72351744	54	5836
2026-01-18 02:03:26.94	331.81	14.54	-41.4	-45.3	12.1	4.24e-04	0	60	0	73400320	54	5615
2026-01-18 02:03:27.96	331.61	14.57	-41.3	-45.2	12.1	2.89e-04	0	60	0	75497472	54	5579
2026-01-18 02:03:28.96	331.41	14.60	-41.2	-45.0	12.4	1.75e-04	0	60	0	77594624	54	5405
2026-01-18 02:03:29.97	331.20	14.62	-41.3	-45.0	12.4	1.49e-04	0	60	0	79691776	54	5454
2026-01-18 02:03:30.98	331.00	14.65	-41.2	-45.0	12.4	1.17e-04	0	60	0	81788928	54	5422
2026-01-18 02:03:31.99	330.79	14.68	-41.4	-45.3	12.1	1.79e-04	0	60	0	82837504	54	5614
2026-01-18 02:03:33.00	330.59	14.70	-41.5	-45.5	11.9	2.82e-04	0	60	0	84934656	54	5735
2026-01-18 02:03:34.01	330.38	14.73	-41.6	-45.7	11.8	5.90e-04	0	60	0	87031808	54	5872
2026-01-18 02:03:35.02	330.18	14.75	-41.7	-45.8	11.6	7.63e-04	0	60	0	89128960	54	5969
2026-01-18 02:03:36.03	329.97	14.78	-41.6	-45.7	11.7	6.82e-04	0	60	0	91226112	54	5909
2026-01-18 02:03:37.04	329.76	14.80	-41.6	-45.6	11.8	4.68e-04	0	60	0	92274688	54	5829
2026-01-18 02:03:38.04	329.56	14.83	-41.5	-45.4	12.0	3.52e-04	0	60	0	94371840	54	5708
2026-01-18 02:03:39.05	329.35	14.85	-41.3	-45.1	12.4	2.01e-04	0	60	0	96468992	54	5472
2026-01-18 02:03:40.06	329.14	14.88	-41.4	-45.2	12.3	1.80e-04	0	60	0	98566144	54	5539
2026-01-18 02:03:41.07	328.94	14.90	-41.5	-45.4	12.1	2.07e-04	0	60	0	100663296	54	5667
2026-01-18 02:03:42.08	328.73	14.92	-41.6	-45.6	11.9	3.39e-04	0	60	0	101711872	54	5818
2026-01-18 02:03:43.09	328.52	14.94	-41.8	-46.1	11.4	6.03e-04	0	60	0	103809024	54	6182
2026-01-18 02:03:44.10	328.31	14.97	-41.9	-46.3	11.1	1.47e-03	0	60	0	105906176	54	6347
2026-01-18 02:03:45.11	328.10	14.99	-42.0	-46.5	11.0	1.93e-03	0	60	0	108003328	54	6447
2026-01-18 02:03:46.12	327.89	15.01	-42.0	-46.6	10.9	2.71e-03	0	60	0	110100480	54	6549
2026-01-18 02:03:47.13	327.68	15.03	-42.0	-46.5	10.9	2.47e-03	0	60	0	112197632	54	6465
2026-01-18 02:03:48.14	327.47	15.05	-41.9	-46.4	11.1	1.64e-03	0	60	0	113246208	54	6351
2026-01-18 02:03:49.15	327.26	15.07	-41.9	-46.2	11.2	1.80e-03	0	60	0	115343360	54	6248
2026-01-18 02:03:50.16	327.05	15.09	-41.9	-46.3	11.2	1.29e-03	0	60	0	117440512	54	6285
2026-01-18 02:03:51.17	326.84	15.11	-41.8	-46.2	11.3	1.28e-03	0	60	0	119537664	54	6224
2026-01-18 02:03:52.18	326.63	15.13	-41.8	-46.2	11.3	1.37e-03	0	60	0	121634816	54	6243
2026-01-18 02:03:53.19	326.42	15.15	-41.9	-46.3	11.1	1.49e-03	0	60	0	122683392	54	6342
2026-01-18 02:03:54.20	326.21	15.17	-42.0	-46.4	11.0	1.67e-03	0	60	0	124780544	54	6412
2026-01-18 02:03:55.21	325.99	15.19	-42.0	-46.4	11.0	1.72e-03	0	60	0	126877696	54	6406
2026-01-18 02:03:56.22	325.78	15.20	-41.9	-46.2	11.2	1.46e-03	0	60	0	128974848	54	6246
2026-01-18 02:03:57.23	325.57	15.22	-41.9	-46.3	11.1	1.51e-03	0	60	0	131072000	54	6332
2026-01-18 02:03:58.24	325.35	15.24	-41.8	-46.1	11.3	1.11e-03	0	60	0	132120576	54	6188
2026-01-18 02:03:59.25	325.14	15.25	-41.7	-45.8	11.7	9.88e-04	0	60	0	134217728	54	5975
2026-01-18 02:04:00.26	324.93	15.27	-41.6	-45.7	11.8	6.47e-04	0	60	0	136314880	54	5862
2026-01-18 02:04:01.26	324.72	15.29	-41.6	-45.7	11.8	4.41e-04	0	60	0	138412032	54	5880
2026-01-18 02:04:02.28	324.50	15.30	-41.6	-45.6	12.0	3.81e-04	0	60	0	140509184	54	5799
2026-01-18 02:04:03.28	324.29	15.32	-41.6	-45.6	12.0	3.36e-04	0	60	0	141557760	54	5789
2026-01-18 02:04:04.29	324.07	15.33	-41.5	-45.4	12.2	2.66e-04	0	60	0	143654912	54	5672
2026-01-18 02:04:05.30	323.86	15.35	-41.5	-45.3	12.1	2.40e-04	0	60	0	145752064	54	5645
2026-01-18 02:04:06.31	323.65	15.36	-41.6	-45.6	11.9	3.53e-04	0	60	0	147849216	54	5815
2026-01-18 02:04:07.32	323.43	15.37	-41.6	-45.6	11.9	3.94e-04	0	60	0	149946368	54	5810
2026-01-18 02:04:08.33	323.22	15.39	-41.6	-45.7	11.8	3.24e-04	0	60	0	150994944	54	5879
2026-01-18 02:04:09.34	323.00	15.40	-41.7	-45.8	11.7	4.55e-04	0	60	0	153092096	54	5947
2026-01-18 02:04:10.35	322.78	15.41	-41.7	-45.8	11.7	5.35e-04	0	60	0	155189248	54	5932
2026-01-18 02:04:11.36	322.57	15.42	-41.6	-45.7	11.7	4.41e-04	0	60	0	157286400	54	5923
2026-01-18 02:04:12.37	322.35	15.43	-41.6	-45.7	11.8	4.11e-04	0	60	0	159383552	54	5883
2026-01-18 02:04:13.38	322.14	15.45	-41.5	-45.6	11.9	5.16e-04	0	60	0	160432128	54	5823
2026-01-18 02:04:14.39	321.92	15.46	-41.6	-45.7	11.8	3.68e-04	0	60	0	162529280	54	5889
2026-01-18 02:04:15.40	321.70	15.47	-41.7	-45.8	11.7	5.47e-04	0	60	0	164626432	54	5976
2026-01-18 02:04:16.41	321.49	15.48	-41.7	-45.9	11.6	7.09e-04	0	60	0	166723584	54	6012
2026-01-18 02:04:17.42	321.27	15.49	-41.7	-46.0	11.5	7.37e-04	0	60	0	168820736	54	6094
2026-01-18 02:04:18.43	321.05	15.49	-41.9	-46.3	11.2	8.89e-04	0	60	0	169869312	54	6301
2026-01-18 02:04:19.44	320.84	15.50	-41.9	-46.3	11.2	1.25e-03	0	60	0	171966464	54	6329
2026-01-18 02:04:20.45	320.62	15.51	-42.0	-46.6	10.9	1.84e-03	0	60	0	174063616	54	6561
2026-01-18 02:04:21.45	320.41	15.52	-42.1	-46.8	10.7	2.51e-03	0	60	0	176160768	54	6656
2026-01-18 02:04:22.46	320.19	15.53	-42.0	-46.7	10.7	2.69e-03	0	60	0	178257920	54	6628
2026-01-18 02:04:23.47	319.97	15.53	-42.0	-46.6	11.0	2.46e-03	0	60	0	180355072	54	6513
2026-01-18 02:04:24.48	319.75	15.54	-41.9	-46.4	11.0	1.89e-03	0	60	0	181403648	54	6419
2026-01-18 02:04:25.49	319.54	15.55	-41.9	-46.4	11.1	1.66e-03	0	60	0	183500800	54	6348
2026-01-18 02:04:26.50	319.32	15.55	-41.8	-46.1	11.4	1.31e-03	0	60	0	185597952	54	6175
2026-01-18 02:04:27.51	319.10	15.56	-41.8	-46.2	11.3	1.05e-03	0	60	0	187695104	54	6204
2026-01-18 02:04:28.52	318.88	15.56	-41.8	-46.2	11.3	1.19e-03	0	60	0	189792256	54	6252
2026-01-18 02:04:29.53	318.66	15.57	-41.9	-46.3	11.2	1.45e-03	0	60	0	190840832	54	6324
2026-01-18 02:04:30.54	318.45	15.57	-41.9	-46.4	11.1	1.52e-03	0	60	0	192937984	54	6351
2026-01-18 02:04:31.55	318.23	15.57	-41.9	-46.5	11.0	2.01e-03	0	60	0	195035136	54	6434
2026-01-18 02:04:32.56	318.01	15.58	-41.9	-46.5	11.0	2.05e-03	0	60	0	197132288	54	6429
2026-01-18 02:04:33.57	317.79	15.58	-41.9	-46.4	11.1	1.56e-03	0	60	0	199229440	54	6411
2026-01-18 02:04:34.58	317.57	15.58	-41.8	-46.3	11.2	1.50e-03	0	60	0	200278016	54	6276
2026-01-18 02:04:35.59	317.36	15.58	-41.7	-46.0	11.6	1.00e-03	0	60	0	202375168	54	6080
2026-01-18 02:04:36.60	317.14	15.59	-41.7	-45.8	11.7	6.65e-04	0	60	0	204472320	54	5941
2026-01-18 02:04:37.61	316.92	15.59	-41.6	-45.7	11.8	4.52e-04	0	60	0	206569472	54	5891
2026-01-18 02:04:38.61	316.70	15.59	-41.6	-45.7	11.8	4.63e-04	0	60	0	208666624	54	5887
2026-01-18 02:04:39.62	316.49	15.59	-41.5	-45.5	12.0	3.36e-04	0	60	0	209715200	54	5765
2026-01-18 02:04:40.63	316.27	15.59	-41.6	-45.7	11.8	3.94e-04	0	60	0	211812352	54	5907
2026-01-18 02:04:41.64	316.05	15.59	-41.7	-45.8	11.7	4.37e-04	0	60	0	213909504	54	5954
2026-01-18 02:04:42.65	315.83	15.59	-41.8	-46.1	11.5	6.82e-04	0	60	0	216006656	54	6140
2026-01-18 02:04:43.66	315.61	15.58	-41.8	-46.1	11.4	9.18e-04	0	60	0	218103808	54	6150
2026-01-18 02:04:44.67	315.39	15.58	-41.9	-46.3	11.1	1.10e-03	0	60	0	219152384	54	6328
2026-01-18 02:04:45.68	315.18	15.58	-41.8	-46.2	11.3	1.28e-03	0	60	0	221249536	54	6261
2026-01-18 02:04:46.69	314.96	15.58	-41.9	-46.2	11.3	1.36e-03	0	60	0	223346688	54	6259
2026-01-18 02:04:47.70	314.74	15.58	-41.9	-46.2	11.3	1.32e-03	0	60	0	225443840	54	6258
2026-01-18 02:04:48.71	314.52	15.57	-41.8	-46.1	11.3	9.48e-04	0	60	0	227540992	54	6188
2026-01-18 02:04:49.72	314.30	15.57	-41.7	-45.9	11.6	7.93e-04	0	60	0	228589568	54	6016
2026-01-18 02:04:50.73	314.09	15.56	-41.7	-45.8	11.8	6.28e-04	0	60	0	230686720	54	5930
2026-01-18 02:04:51.74	313.87	15.56	-41.6	-45.6	12.0	3.94e-04	0	60	0	232783872	54	5789
2026-01-18 02:04:52.75	313.65	15.55	-41.5	-45.4	12.1	2.99e-04	0	60	0	234881024	54	5681
2026-01-18 02:04:53.76	313.43	15.55	-41.5	-45.5	12.0	2.84e-04	0	60	0	236978176	54	5786
2026-01-18 02:04:54.77	313.21	15.54	-41.5	-45.5	12.0	3.07e-04	0	60	0	238026752	54	5762
2026-01-18 02:04:55.78	313.00	15.54	-41.6	-45.8	11.7	3.75e-04	0	60	0	240123904	54	5959
2026-01-18 02:04:56.78	312.78	15.53	-41.6	-45.7	11.7	6.17e-04	0	60	0	242221056	54	5919
2026-01-18 02:04:57.79	312.56	15.52	-41.7	-46.0	11.5	7.72e-04	0	60	0	244318208	54	6088
2026-01-18 02:04:58.80	312.35	15.51	-41.7	-46.0	11.5	1.03e-03	0	60	0	246415360	54	6108
2026-01-18 02:04:59.81	312.13	15.51	-41.9	-46.4	11.1	1.20e-03	0	60	0	247463936	54	6367
2026-01-18 02:05:00.82	311.91	15.50	-41.9	-46.5	10.9	1.69e-03	0	60	0	249561088	54	6449
2026-01-18 02:05:01.83	311.69	15.49	-42.0	-46.6	10.8	2.22e-03	0	60	0	251658240	54	6570
2026-01-18 02:05:02.84	311.48	15.48	-42.2	-47.0	10.5	3.49e-03	0	60	0	253755392	54	6864
2026-01-18 02:05:03.85	311.26	15.47	-42.2	-47.0	10.4	5.04e-03	0	60	0	255852544	54	6876
2026-01-18 02:05:04.86	311.04	15.46	-42.3	-47.4	10.0	7.11e-03	0	60	0	257949696	55	6756
2026-01-18 02:05:05.87	310.83	15.45	-42.3	-47.4	10.0	7.18e-03	0	60	0	258998272	55	6801
2026-01-18 02:05:06.88	310.61	15.44	-42.2	-47.3	10.1	7.19e-03	0	60	0	261095424	55	6704
2026-01-18 02:05:07.89	310.40	15.43	-42.2	-47.3	10.1	6.58e-03	0	60	0	263192576	55	6668
2026-01-18 02:05:08.90	310.18	15.42	-42.1	-47.0	10.4	5.29e-03	0	60	0	265289728	55	6442
2026-01-18 02:05:09.91	309.96	15.40	-42.0	-46.7	10.7	3.53e-03	0	60	0	267386880	55	6267
2026-01-18 02:05:10.92	309.75	15.39	-41.9	-46.5	11.0	2.27e-03	0	60	0	268435456	55	6074
2026-01-18 02:05:11.93	309.53	15.38	-41.8	-46.3	11.1	1.97e-03	0	60	0	270532608	55	5951
2026-01-18 02:05:12.94	309.32	15.36	-41.8	-46.2	11.3	1.42e-03	0	60	0	272629760	55	5866
2026-01-18 02:05:13.95	309.10	15.35	-41.8	-46.1	11.4	1.01e-03	0	60	0	274726912	55	5842
2026-01-18 02:05:14.96	308.89	15.34	-41.7	-46.0	11.5	6.96e-04	0	60	0	276824064	55	5726
2026-01-18 02:05:15.97	308.67	15.32	-41.8	-46.1	11.4	7.57e-04	0	60	0	277872640	55	5815
2026-01-18 02:05:16.98	308.46	15.31	-41.6	-45.8	11.7	9.00e-04	0	60	0	279969792	55	5620
2026-01-18 02:05:17.98	308.25	15.29	-41.8	-46.1	11.4	9.45e-04	0	60	0	282066944	55	5820
2026-01-18 02:05:18.99	308.03	15.28	-41.8	-46.2	11.2	1.12e-03	0	60	0	284164096	55	5910
2026-01-18 02:05:20.00	307.82	15.26	-42.0	-46.6	10.8	1.49e-03	0	60	0	286261248	55	6185
2026-01-18 02:05:21.02	307.60	15.24	-41.9	-46.4	11.1	1.44e-03	0	60	0	287309824	55	6022
2026-01-18 02:05:22.02	307.39	15.23	-41.8	-46.3	11.2	1.36e-03	0	60	0	289406976	55	5956
2026-01-18 02:05:23.03	307.18	15.21	-41.8	-46.1	11.4	1.21e-03	0	60	0	291504128	55	5808
2026-01-18 02:05:24.04	306.97	15.19	-41.6	-45.8	11.7	6.59e-04	0	60	0	293601280	55	5597
2026-01-18 02:05:25.05	306.75	15.17	-41.6	-45.7	11.7	5.07e-04	0	60	0	295698432	55	5536
2026-01-18 02:05:26.06	306.54	15.16	-41.5	-45.5	12.0	3.78e-04	0	60	0	296747008	55	5414
2026-01-18 02:05:27.07	306.33	15.14	-41.5	-45.5	12.0	2.47e-04	0	60	0	298844160	54	5739
2026-01-18 02:05:28.08	306.12	15.12	-41.6	-45.7	11.8	3.40e-04	0	60	0	300941312	54	5894
2026-01-18 02:05:29.09	305.91	15.10	-41.7	-45.9	11.6	5.64e-04	0	60	0	303038464	54	6005
2026-01-18 02:05:30.10	305.70	15.08	-41.7	-45.9	11.5	6.56e-04	0	60	0	305135616	54	6041
2026-01-18 02:05:31.11	305.49	15.06	-41.8	-46.1	11.3	1.21e-03	0	60	0	306184192	54	6185
2026-01-18 02:05:32.12	305.27	15.04	-41.7	-45.9	11.5	8.17e-04	0	60	0	308281344	54	6035
2026-01-18 02:05:33.13	305.06	15.02	-41.7	-46.0	11.5	8.14e-04	0	60	0	310378496	54	6065
2026-01-18 02:05:34.13	304.86	15.00	-41.7	-46.0	11.5	6.64e-04	0	60	0	312475648	54	6071
2026-01-18 02:05:35.14	304.65	14.97	-41.7	-45.8	11.6	8.52e-04	0	60	0	314572800	54	5992
2026-01-18 02:05:36.15	304.44	14.95	-41.8	-46.1	11.4	8.72e-04	0	60	0	315621376	54	6143
2026-01-18 02:05:37.16	304.23	14.93	-41.8	-46.0	11.4	9.11e-04	0	60	0	317718528	54	6105
2026-01-18 02:05:38.18	304.02	14.91	-41.8	-46.1	11.4	9.70e-04	0	60	0	319815680	54	6166
2026-01-18 02:05:39.18	303.81	14.88	-41.8	-46.1	11.4	1.04e-03	0	60	0	321912832	54	6141
2026-01-18 02:05:40.19	303.60	14.86	-41.7	-46.0	11.4	1.02e-03	0	60	0	324009984	54	6103
2026-01-18 02:05:41.20	303.39	14.84	-41.8	-46.1	11.2	1.10e-03	0	60	0	326107136	54	6199
2026-01-18 02:05:42.21	303.19	14.81	-41.7	-45.9	11.5	1.19e-03	0	61	0	327155712	54	6060
2026-01-18 02:05:43.22	302.98	14.79	-41.8	-46.2	11.2	1.25e-03	0	61	0	329252864	54	6257
2026-01-18 02:05:44.23	302.77	14.76	-41.8	-46.1	11.3	1.66e-03	0	60	0	331350016	54	6159
2026-01-18 02:05:45.24	302.57	14.74	-41.9	-46.4	11.0	1.85e-03	0	60	0	333447168	54	6378
2026-01-18 02:05:46.25	302.36	14.71	-41.9	-46.3	11.1	1.75e-03	0	61	0	335544320	54	6300
2026-01-18 02:05:47.26	302.16	14.68	-41.7	-46.0	11.4	1.03e-03	0	60	0	336592896	54	6091
2026-01-18 02:05:48.27	301.95	14.66	-41.5	-45.5	11.9	5.62e-04	0	61	0	338690048	54	5770
2026-01-18 02:05:49.28	301.74	14.63	-41.4	-45.2	12.2	2.99e-04	0	60	0	340787200	54	5575
2026-01-18 02:05:50.30	301.54	14.60	-41.4	-45.3	12.2	2.15e-04	0	60	0	342884352	54	5600
2026-01-18 02:05:51.30	301.34	14.58	-41.3	-45.1	12.3	2.90e-04	0	60	0	344981504	54	5523
2026-01-18 02:05:52.31	301.13	14.55	-41.4	-45.3	12.0	2.10e-04	0	60	0	346030080	54	5654
2026-01-18 02:05:53.33	300.93	14.52	-41.4	-45.2	12.2	2.34e-04	0	60	0	348127232	54	5582
2026-01-18 02:05:54.33	300.73	14.49	-41.4	-45.3	12.0	2.01e-04	0	61	0	350224384	54	5646
2026-01-18 02:05:55.35	300.52	14.46	-41.3	-45.1	12.3	1.56e-04	0	60	0	352321536	54	5482
2026-01-18 02:05:56.36	300.32	14.44	-41.2	-44.9	12.6	1.10e-04	0	60	0	354418688	54	5344
2026-01-18 02:05:57.37	300.12	14.41	-41.2	-44.8	12.5	1.17e-04	0	61	0	355467264	54	5334
2026-01-18 02:05:58.38	299.92	14.38	-41.3	-45.1	12.3	1.53e-04	0	60	0	357564416	54	5487
2026-01-18 02:05:59.39	299.71	14.35	-41.5	-45.5	11.9	2.41e-04	0	61	0	359661568	54	5768
2026-01-18 02:06:00.40	299.51	14.32	-41.5	-45.7	11.7	3.87e-04	0	60	0	361758720	54	5868
2026-01-18 02:06:01.41	299.31	14.29	-41.7	-45.9	11.4	6.72e-04	0	60	0	363855872	54	6047
2026-01-18 02:06:02.41	299.12	14.26	-41.6	-45.9	11.4	8.73e-04	0	60	0	364904448	54	6000
2026-01-18 02:06:03.43	298.91	14.22	-41.8	-46.2	11.1	1.14e-03	0	60	0	367001600	54	6228
2026-01-18 02:06:04.44	298.71	14.19	-41.7	-46.0	11.3	1.22e-03	0	60	0	369098752	54	6128
2026-01-18 02:06:05.45	298.52	14.16	-41.8	-46.2	11.1	1.85e-03	0	60	0	371195904	54	6261
2026-01-18 02:06:06.46	298.32	14.13	-41.7	-46.1	11.2	1.34e-03	0	61	0	373293056	54	6133
2026-01-18 02:06:07.46	298.12	14.10	-41.8	-46.4	11.0	1.64e-03	0	60	0	374341632	54	6349
2026-01-18 02:06:08.47	297.92	14.06	-41.9	-46.5	10.7	2.46e-03	0	60	0	376438784	54	6439
2026-01-18 02:06:09.48	297.73	14.03	-41.9	-46.7	10.6	2.78e-03	0	61	0	378535936	54	6574
2026-01-18 02:06:10.49	297.53	14.00	-42.0	-46.9	10.3	3.64e-03	0	60	0	380633088	54	6736
2026-01-18 02:06:11.50	297.34	13.96	-41.9	-46.7	10.5	4.31e-03	0	61	0	382730240	54	6587
2026-01-18 02:06:12.51	297.14	13.93	-41.9	-46.7	10.4	4.32e-03	0	60	0	383778816	54	6602
2026-01-18 02:06:13.52	296.94	13.90	-41.8	-46.6	10.5	4.04e-03	0	61	0	385875968	54	6496
2026-01-18 02:06:14.53	296.75	13.86	-41.8	-46.4	10.6	3.98e-03	0	60	0	387973120	54	6406
2026-01-18 02:06:15.54	296.56	13.83	-41.5	-45.9	11.2	2.63e-03	0	60	0	390070272	54	6045
2026-01-18 02:06:16.55	296.36	13.79	-41.5	-45.8	11.2	1.36e-03	0	60	0	392167424	54	5975
2026-01-18 02:06:17.56	296.17	13.76	-41.4	-45.7	11.3	1.07e-03	0	61	0	394264576	54	5893
2026-01-18 02:06:18.57	295.98	13.72	-41.4	-45.6	11.4	1.18e-03	0	61	0	395313152	54	5824
2026-01-18 02:06:19.57	295.79	13.69	-41.3	-45.5	11.4	8.41e-04	0	60	0	397410304	54	5784
2026-01-18 02:06:20.58	295.59	13.65	-41.3	-45.7	11.3	9.22e-04	0	60	0	399507456	54	5859
2026-01-18 02:06:21.59	295.40	13.61	-41.4	-45.8	11.1	1.41e-03	0	61	0	401604608	54	5937
2026-01-18 02:06:22.60	295.21	13.58	-41.4	-45.9	10.9	2.01e-03	0	60	0	403701760	54	6004
2026-01-18 02:06:23.61	295.02	13.54	-41.4	-45.9	10.9	2.27e-03	0	61	0	404750336	54	6041
2026-01-18 02:06:24.62	294.83	13.50	-41.5	-46.1	10.7	2.52e-03	0	60	0	406847488	54	6150
2026-01-18 02:06:25.63	294.64	13.47	-41.4	-45.9	10.8	2.93e-03	0	60	0	408944640	54	6037
2026-01-18 02:06:26.64	294.45	13.43	-41.3	-45.8	10.9	2.26e-03	0	60	0	411041792	54	5943
2026-01-18 02:06:27.65	294.26	13.39	-41.2	-45.6	11.0	1.96e-03	0	61	0	413138944	54	5840
2026-01-18 02:06:28.66	294.08	13.35	-41.2	-45.6	11.0	1.86e-03	0	61	0	414187520	54	5803
2026-01-18 02:06:29.67	293.89	13.32	-41.1	-45.4	11.2	1.51e-03	0	60	0	416284672	54	5686
2026-01-18 02:06:30.67	293.70	13.28	-41.0	-45.4	11.1	1.50e-03	0	61	0	418381824	54	5696
2026-01-18 02:06:31.68	293.52	13.24	-40.9	-45.1	11.4	1.12e-03	0	61	0	420478976	53	5855
2026-01-18 02:06:32.69	293.33	13.20	-41.0	-45.4	11.0	1.43e-03	0	60	0	422576128	53	6046
2026-01-18 02:06:33.70	293.15	13.16	-41.1	-45.7	10.7	2.43e-03	0	61	0	423624704	53	6243
2026-01-18 02:06:34.71	292.96	13.12	-41.2	-45.9	10.5	2.71e-03	0	60	0	425721856	53	6375
2026-01-18 02:06:35.72	292.78	13.08	-41.1	-46.0	10.3	4.20e-03	0	60	0	427819008	53	6426
2026-01-18 02:06:36.73	292.59	13.04	-41.3	-46.3	9.9	6.97e-03	0	60	0	429916160	53	6706
2026-01-18 02:06:37.74	292.41	13.00	-41.3	-46.5	9.7	9.72e-03	0	60	0	432013312	53	6819
2026-01-18 02:06:38.75	292.22	12.96	-41.4	-46.7	9.5	1.36e-02	0	61	0	433061888	53	6998
2026-01-18 02:06:39.76	292.04	12.92	-41.5	-47.0	9.1	1.88e-02	0	60	0	435159040	53	7273
2026-01-18 02:06:40.77	291.86	12.88	-41.5	-47.2	8.9	2.40e-02	0	61	0	437256192	53	7384
2026-01-18 02:06:41.78	291.68	12.84	-41.4	-47.2	8.8	2.83e-02	0	61	0	439353344	53	7452
2026-01-18 02:06:42.79	291.50	12.80	-41.5	-47.5	8.5	4.62e-02	0	61	0	441450496	53	7681
2026-01-18 02:06:43.80	291.32	12.76	-41.5	-47.8	8.1	5.49e-02	0	60	0	442499072	53	7929
2026-01-18 02:06:44.81	291.14	12.71	-41.5	-47.8	8.0	6.70e-02	0	60	0	444596224	53	7981
2026-01-18 02:06:45.82	290.96	12.67	-41.5	-47.7	8.2	5.22e-02	0	61	0	446693376	53	7815
2026-01-18 02:06:46.83	290.78	12.63	-41.5	-47.7	8.1	5.71e-02	0	61	0	448790528	53	7879
2026-01-18 02:06:47.84	290.60	12.59	-41.4	-47.5	8.3	6.17e-02	0	60	0	450887680	53	7699
2026-01-18 02:06:48.84	290.42	12.55	-41.3	-47.4	8.4	4.89e-02	0	60	0	451936256	53	7597
2026-01-18 02:06:49.85	290.25	12.50	-41.3	-47.4	8.4	4.65e-02	0	61	0	454033408	53	7579
2026-01-18 02:06:50.86	290.07	12.46	-41.3	-47.5	8.3	5.20e-02	0	60	0	456130560	53	7631
2026-01-18 02:06:51.87	289.89	12.42	-41.4	-47.7	8.0	6.24e-02	0	60	0	458227712	53	7821
2026-01-18 02:06:52.88	289.72	12.37	-41.4	-48.0	7.7	7.11e-02	0	60	0	460324864	53	8147
2026-01-18 02:06:53.89	289.54	12.33	-41.5	-48.2	7.5	9.81e-02	0	61	0	461373440	53	8317
2026-01-18 02:06:54.90	289.37	12.29	-41.4	-48.2	7.5	1.04e-01	0	60	0	463470592	53	8277
2026-01-18 02:06:55.91	289.19	12.24	-41.4	-48.4	7.2	1.18e-01	0	61	0	465567744	53	8518
2026-01-18 02:06:56.92	289.02	12.20	-41.4	-48.4	7.2	1.36e-01	0	61	0	467664896	53	8536
2026-01-18 02:06:57.93	288.84	12.16	-41.4	-48.4	7.1	1.50e-01	0	61	0	469762048	53	8541
2026-01-18 02:06:58.94	288.67	12.11	-41.4	-48.7	6.8	1.81e-01	0	60	0	470810624	53	8844
2026-01-18 02:06:59.95	288.50	12.07	-41.4	-49.0	6.5	2.06e-01	0	61	0	472907776	53	9107
2026-01-18 02:07:00.96	288.33	12.02	-41.3	-49.1	6.4	2.40e-01	0	61	0	475004928	53	9190
2026-01-18 02:07:01.97	288.16	11.98	-41.4	-49.7	5.8	3.28e-01	0	60	0	477102080	53	9906
2026-01-18 02:07:02.98	287.99	11.93	-41.4	-50.2	5.5	4.34e-01	0	60	0	479199232	53	10449
2026-01-18 02:07:03.99	287.82	11.89	-41.5	-50.5	5.2	5.17e-01	0	61	0	480247808	53	10863
2026-01-18 02:07:05.00	287.65	11.84	-41.4	-51.0	4.9	7.02e-01	0	61	0	482344960	53	11522
2026-01-18 02:07:06.01	287.48	11.80	-41.4	-51.1	4.8	7.47e-01	0	61	0	484442112	53	11599
2026-01-18 02:07:07.02	287.31	11.75	-41.3	-51.2	4.8	7.93e-01	0	61	0	486539264	53	11722
2026-01-18 02:07:08.03	287.14	11.70	-41.3	-51.2	4.7	8.60e-01	0	61	0	488636416	53	11772
2026-01-18 02:07:09.04	286.97	11.66	-41.2	-51.4	4.6	8.97e-01	0	61	0	490733568	53	12026
2026-01-18 02:07:10.04	286.81	11.61	-41.3	-51.4	4.6	9.50e-01	0	61	0	491782144	53	12035
2026-01-18 02:07:11.05	286.64	11.57	-41.3	-51.4	4.6	9.25e-01	0	61	0	493879296	53	12030
2026-01-18 02:07:12.06	286.48	11.52	-41.3	-51.7	4.5	1.02e+00	0	61	0	495976448	53	12418
2026-01-18 02:07:13.08	286.31	11.47	-41.4	-51.9	4.4	1.10e+00	0	61	0	498073600	53	12746
2026-01-18 02:07:14.09	286.14	11.43	-41.4	-52.4	4.3	1.30e+00	0	61	0	499122176	53	13465
2026-01-18 02:07:15.09	285.98	11.38	-41.4	-52.6	4.2	1.38e+00	0	61	0	499122176	53	13812
2026-01-18 02:07:16.10	285.82	11.33	-41.5	-52.8	4.2	1.40e+00	0	61	0	499122176	53	14144
2026-01-18 02:07:17.11	285.65	11.29	-41.5	-53.1	4.1	1.42e+00	0	61	0	499122176	53	14605
2026-01-18 02:07:18.12	285.49	11.24	-41.6	-53.5	4.0	1.47e+00	0	61	0	499122176	53	15367
2026-01-18 02:07:19.14	285.33	11.19	-41.6	-53.7	4.0	1.47e+00	0	61	104	499122176	53	15670
2026-01-18 02:07:20.15	285.17	11.14	-41.6	-53.8	4.0	1.48e+00	0	61	104	499122176	53	15865
2026-01-18 02:07:21.16	285.00	11.10	-41.6	-53.6	4.0	1.48e+00	0	61	104	499122176	53	15554
2026-01-18 02:07:22.17	284.84	11.05	-41.7	-53.1	4.1	1.47e+00	0	61	104	499122176	53	14619
2026-01-18 02:07:23.18	284.68	11.00	-41.8	-52.3	4.4	1.38e+00	0	61	0	499122176	54	12649
2026-01-18 02:07:24.19	284.52	10.95	-41.9	-52.1	4.6	1.07e+00	0	61	0	500170752	54	12242
2026-01-18 02:07:25.20	284.37	10.90	-41.9	-51.8	4.7	8.90e-01	0	61	0	502267904	54	11827
2026-01-18 02:07:26.21	284.21	10.86	-41.9	-50.9	5.2	6.97e-01	0	61	0	504365056	54	10686
2026-01-18 02:07:27.22	284.05	10.81	-41.9	-50.5	5.5	5.46e-01	0	61	0	506462208	54	10261
2026-01-18 02:07:28.23	283.89	10.76	-41.9	-50.5	5.5	4.94e-01	0	61	0	508559360	54	10248
2026-01-18 02:07:29.23	283.74	10.71	-42.0	-50.7	5.4	4.99e-01	0	61	0	509607936	54	10434
2026-01-18 02:07:30.24	283.58	10.66	-42.0	-51.0	5.3	5.41e-01	0	61	0	511705088	54	10784
2026-01-18 02:07:31.25	283.42	10.61	-42.1	-51.6	4.9	6.82e-01	0	61	0	513802240	54	11636
2026-01-18 02:07:32.26	283.27	10.57	-42.2	-52.2	4.6	8.53e-01	0	61	0	515899392	54	12403
2026-01-18 02:07:33.27	283.11	10.52	-42.2	-52.3	4.6	9.80e-01	0	61	0	517996544	54	12600
2026-01-18 02:07:34.28	282.96	10.47	-42.3	-52.8	4.4	1.24e+00	0	61	0	520093696	55	12599
2026-01-18 02:07:35.29	282.81	10.42	-42.3	-52.8	4.4	1.29e+00	0	61	0	521142272	55	12584
2026-01-18 02:07:36.30	282.65	10.37	-42.3	-52.9	4.4	1.26e+00	0	61	0	523239424	55	12762
2026-01-18 02:07:37.31	282.50	10.32	-42.2	-52.0	4.7	9.44e-01	0	61	0	525336576	55	11510
2026-01-18 02:07:38.32	282.35	10.27	-42.1	-51.2	5.1	6.80e-01	0	61	0	526385152	55	10499
2026-01-18 02:07:39.33	282.20	10.22	-42.1	-51.1	5.1	6.49e-01	0	61	0	528482304	55	10408
2026-01-18 02:07:40.34	282.04	10.17	-42.0	-51.0	5.2	6.53e-01	0	61	0	530579456	55	10208
2026-01-18 02:07:41.35	281.89	10.12	-42.0	-50.7	5.4	5.78e-01	0	61	0	532676608	55	9872
2026-01-18 02:07:42.36	281.74	10.07	-41.9	-50.5	5.6	4.61e-01	0	61	0	534773760	55	9641
2026-01-18 02:07:43.37	281.59	10.02	-42.0	-50.7	5.4	4.72e-01	0	61	0	536870912	55	9925
2026-01-18 02:07:44.38	281.44	9.97	-41.9	-50.4	5.5	4.84e-01	0	61	0	537919488	55	9585
2026-01-18 02:07:45.39	281.30	9.92	-41.8	-50.2	5.7	4.40e-01	0	61	0	540016640	55	9299
2026-01-18 02:07:46.40	281.15	9.87	-41.8	-50.3	5.6	4.22e-01	0	61	0	542113792	55	9460
2026-01-18 02:07:47.41	281.00	9.82	-41.7	-50.2	5.7	4.32e-01	0	61	0	544210944	55	9295
2026-01-18 02:07:48.42	280.85	9.77	-41.6	-50.2	5.5	4.61e-01	0	61	0	546308096	55	9374
2026-01-18 02:07:49.43	280.71	9.72	-41.5	-50.2	5.5	4.43e-01	0	61	0	547356672	55	9333
2026-01-18 02:07:50.44	280.56	9.67	-41.5	-50.2	5.5	4.72e-01	0	61	0	549453824	55	9290
2026-01-18 02:07:51.45	280.42	9.62	-41.5	-50.3	5.4	5.04e-01	0	61	0	551550976	54	10006
2026-01-18 02:07:52.46	280.27	9.57	-41.4	-50.5	5.2	5.51e-01	0	61	0	553648128	54	10241
2026-01-18 02:07:53.47	280.13	9.52	-41.4	-50.7	5.1	6.15e-01	0	61	0	555745280	54	10461
2026-01-18 02:07:54.48	279.98	9.47	-41.4	-51.1	4.8	7.24e-01	0	61	0	556793856	54	11006
2026-01-18 02:07:55.48	279.84	9.42	-41.3	-50.8	5.0	7.20e-01	0	61	0	558891008	54	10555
2026-01-18 02:07:56.49	279.70	9.37	-41.3	-51.0	4.9	7.56e-01	0	61	0	560988160	54	10784
2026-01-18 02:07:57.50	279.55	9.31	-41.2	-50.9	4.8	7.88e-01	0	61	0	563085312	54	10759
2026-01-18 02:07:58.51	279.41	9.26	-41.2	-51.2	4.7	8.65e-01	0	61	0	565182464	54	11101
2026-01-18 02:07:59.52	279.27	9.21	-41.2	-51.5	4.5	9.28e-01	0	61	0	566231040	54	11421
2026-01-18 02:08:00.53	279.13	9.16	-41.1	-51.6	4.5	1.05e+00	0	61	0	568328192	54	11673
2026-01-18 02:08:01.54	278.99	9.11	-41.1	-52.0	4.3	1.17e+00	0	61	0	570425344	54	12102
2026-01-18 02:08:02.55	278.85	9.06	-41.0	-52.1	4.3	1.35e+00	0	61	0	570425344	54	12247
2026-01-18 02:08:03.56	278.71	9.01	-41.0	-52.6	4.1	1.41e+00	0	61	0	570425344	54	13004
2026-01-18 02:08:04.57	278.57	8.96	-41.0	-52.7	4.1	1.46e+00	0	61	104	570425344	54	13180
2026-01-18 02:08:05.58	278.43	8.90	-40.9	-52.8	4.0	1.44e+00	0	61	0	570425344	53	14195
2026-01-18 02:08:06.59	278.30	8.85	-40.9	-53.2	4.0	1.47e+00	0	61	104	570425344	53	14767
2026-01-18 02:08:07.60	278.16	8.80	-40.8	-53.5	3.8	1.48e+00	0	61	104	570425344	53	15296
2026-01-18 02:08:08.61	278.02	8.75	-40.8	-53.7	3.8	1.49e+00	0	61	104	570425344	53	15689
2026-01-18 02:08:09.62	277.88	8.70	-40.7	-53.8	3.8	1.49e+00	0	61	104	570425344	53	15784
2026-01-18 02:08:10.63	277.75	8.65	-40.6	-53.9	3.8	1.49e+00	0	61	104	570425344	53	16025
2026-01-18 02:08:11.64	277.61	8.59	-40.6	-54.0	3.8	1.49e+00	0	61	104	570425344	53	16219
2026-01-18 02:08:12.64	277.48	8.54	-40.6	-54.1	3.8	1.49e+00	0	61	104	570425344	53	16487
2026-01-18 02:08:13.65	277.34	8.49	-40.5	-54.2	3.8	1.49e+00	0	61	104	570425344	53	16572
2026-01-18 02:08:14.66	277.21	8.44	-40.5	-54.3	3.8	1.49e+00	0	61	104	570425344	53	16873
2026-01-18 02:08:15.67	277.08	8.39	-40.5	-54.5	3.8	1.49e+00	0	61	104	570425344	53	17095
2026-01-18 02:08:16.68	276.94	8.34	-40.5	-54.5	3.8	1.49e+00	0	61	104	570425344	53	17276
2026-01-18 02:08:17.69	276.81	8.28	-40.5	-54.6	3.8	1.49e+00	0	61	104	570425344	53	17313
2026-01-18 02:08:18.70	276.68	8.23	-40.5	-54.6	3.8	1.49e+00	0	61	104	570425344	53	17379
2026-01-18 02:08:19.71	276.55	8.18	-40.5	-54.7	3.8	1.49e+00	0	61	104	570425344	53	17488
2026-01-18 02:08:20.72	276.42	8.13	-40.5	-54.6	3.8	1.49e+00	0	61	104	570425344	53	17424
2026-01-18 02:08:21.73	276.29	8.07	-40.5	-54.8	3.8	1.49e+00	0	61	104	570425344	53	17695
2026-01-18 02:08:22.74	276.16	8.02	-40.6	-54.9	3.8	1.49e+00	0	61	104	570425344	52	19088
2026-01-18 02:08:23.75	276.03	7.97	-43.1	-57.3	3.8	1.49e+00	0	61	104	570425344	56	19999
2026-01-18 02:08:24.76	275.90	7.92	-44.6	-59.0	3.8	1.49e+00	0	61	104	570425344	59	20371
2026-01-18 02:08:25.77	275.77	7.87	-44.8	-59.4	3.8	1.49e+00	0	61	104	570425344	60	20171
2026-01-18 02:08:26.79	275.64	7.81	-45.0	-59.5	3.8	1.49e+00	0	61	104	570425344	60	20487
2026-01-18 02:08:27.80	275.51	7.76	-45.1	-59.6	3.8	1.49e+00	0	61	104	570425344	60	20759
2026-01-18 02:08:28.81	275.38	7.71	-45.1	-59.7	3.8	1.49e+00	0	61	104	570425344	60	20951
2026-01-18 02:08:29.82	275.26	7.66	-45.2	-59.8	3.8	1.49e+00	0	61	104	570425344	60	21036
2026-01-18 02:08:30.83	275.13	7.60	-45.2	-59.8	3.8	1.49e+00	0	61	104	570425344	60	21061
2026-01-18 02:08:31.84	275.00	7.55	-45.2	-59.8	3.8	1.49e+00	0	61	104	570425344	60	21020
2026-01-18 02:08:32.85	274.88	7.50	-45.2	-59.8	3.8	1.49e+00	0	61	104	570425344	61	19878
2026-01-18 02:08:33.86	274.75	7.45	-45.2	-59.7	3.8	1.49e+00	0	61	104	570425344	61	19744
2026-01-18 02:08:34.87	274.63	7.39	-45.2	-59.7	3.8	1.49e+00	0	61	104	570425344	61	19751
2026-01-18 02:08:35.88	274.50	7.34	-45.2	-59.7	3.8	1.49e+00	0	61	104	570425344	61	19683
2026-01-18 02:08:36.90	274.38	7.29	-45.2	-59.7	3.8	1.49e+00	0	61	104	570425344	61	19750
2026-01-18 02:08:37.91	274.26	7.24	-45.2	-59.7	3.8	1.49e+00	0	61	104	570425344	61	19648
2026-01-18 02:08:38.92	274.13	7.18	-45.2	-59.7	3.8	1.49e+00	0	61	104	570425344	61	19765
2026-01-18 02:08:39.93	274.01	7.13	-45.2	-59.7	3.8	1.49e+00	0	61	104	570425344	61	19630
2026-01-18 02:08:40.94	273.89	7.08	-45.1	-59.6	3.8	1.49e+00	0	61	104	570425344	61	19571
2026-01-18 02:08:41.95	273.77	7.03	-45.1	-59.6	3.8	1.49e+00	0	61	104	570425344	61	19604
2026-01-18 02:08:42.96	273.65	6.97	-45.1	-59.6	3.8	1.49e+00	0	61	104	570425344	61	19545
2026-01-18 02:08:43.97	273.53	6.92	-45.1	-59.6	3.8	1.49e+00	0	61	104	570425344	61	19574
2026-01-18 02:08:44.98	273.41	6.87	-45.1	-59.6	3.8	1.49e+00	0	61	104	570425344	61	19535
2026-01-18 02:08:46.00	273.28	6.81	-45.1	-59.6	3.8	1.49e+00	0	61	104	570425344	61	19541
2026-01-18 02:08:47.01	273.17	6.76	-45.1	-59.6	3.8	1.49e+00	0	61	104	570425344	61	19476
2026-01-18 02:08:48.02	273.05	6.71	-45.1	-59.6	3.8	1.49e+00	0	61	104	570425344	61	19480
2026-01-18 02:08:49.03	272.93	6.66	-45.1	-59.6	3.8	1.49e+00	0	61	104	570425344	61	19548
2026-01-18 02:08:50.04	272.81	6.60	-45.1	-59.6	3.8	1.49e+00	0	61	104	570425344	61	19478
2026-01-18 02:08:51.05	272.69	6.55	-45.1	-59.6	3.8	1.49e+00	0	61	104	570425344	61	19497
2026-01-18 02:08:52.06	272.58	6.50	-45.1	-59.6	3.8	1.49e+00	0	61	104	570425344	61	19515
2026-01-18 02:08:53.07	272.46	6.45	-45.1	-59.6	3.8	1.49e+00	0	61	104	570425344	61	19568
2026-01-18 02:08:54.08	272.34	6.39	-45.1	-59.6	3.8	1.49e+00	0	61	104	570425344	61	19483
2026-01-18 02:08:55.09	272.23	6.34	-45.1	-59.6	3.8	1.49e+00	0	61	104	570425344	61	19569
2026-01-18 02:08:56.11	272.11	6.29	-45.1	-59.6	3.8	1.49e+00	0	61	104	570425344	61	19519
2026-01-18 02:08:57.12	272.00	6.23	-45.1	-59.6	3.8	1.49e+00	0	61	104	570425344	61	19526
2026-01-18 02:08:58.13	271.88	6.18	-45.1	-59.6	3.8	1.49e+00	0	61	104	570425344	61	19510
2026-01-18 02:08:59.14	271.77	6.13	-45.1	-59.6	3.8	1.49e+00	0	61	104	570425344	61	19506
2026-01-18 02:09:00.15	271.65	6.08	-45.1	-59.6	3.8	1.49e+00	0	61	104	570425344	61	19429
2026-01-18 02:09:01.16	271.54	6.02	-45.1	-59.6	3.8	1.49e+00	0	61	104	570425344	61	19512
2026-01-18 02:09:02.17	271.43	5.97	-45.1	-59.6	3.8	1.49e+00	0	61	104	570425344	61	19472
2026-01-18 02:09:03.18	271.31	5.92	-45.1	-59.6	3.8	1.49e+00	0	61	104	570425344	61	19505
2026-01-18 02:09:04.19	271.20	5.87	-45.1	-59.6	3.8	1.49e+00	0	61	104	570425344	61	19489
2026-01-18 02:09:05.20	271.09	5.81	-45.1	-59.6	3.8	1.49e+00	0	61	104	570425344	61	19536
2026-01-18 02:09:06.22	270.98	5.76	-45.1	-59.6	3.8	1.49e+00	0	61	104	570425344	61	19513
2026-01-18 02:09:07.23	270.87	5.71	-45.1	-59.6	3.8	1.49e+00	0	61	104	570425344	61	19465
2026-01-18 02:09:08.24	270.76	5.65	-45.1	-59.6	3.8	1.49e+00	0	61	104	570425344	61	19531
2026-01-18 02:09:09.25	270.65	5.60	-45.1	-59.6	3.8	1.49e+00	0	61	104	570425344	61	19515
2026-01-18 02:09:10.26	270.54	5.55	-45.1	-59.6	3.8	1.49e+00	0	61	104	570425344	61	19484
2026-01-18 02:09:11.27	270.43	5.50	-45.1	-59.6	3.8	1.49e+00	0	61	104	570425344	61	19452
2026-01-18 02:09:12.28	270.32	5.44	-45.1	-59.6	3.8	1.49e+00	0	61	104	570425344	61	19463
2026-01-18 02:09:13.29	270.21	5.39	-45.1	-59.6	3.8	1.49e+00	0	61	104	570425344	61	19432
2026-01-18 02:09:14.30	270.10	5.34	-45.1	-59.6	3.8	1.49e+00	0	61	104	570425344	61	19439
2026-01-18 02:09:15.31	270.00	5.29	-45.1	-59.6	3.8	1.49e+00	0	61	104	570425344	61	19458
2026-01-18 02:09:16.32	269.89	5.23	-45.1	-59.6	3.8	1.49e+00	0	61	104	570425344	61	19461
2026-01-18 02:09:17.34	269.78	5.18	-45.1	-59.6	3.8	1.49e+00	0	61	104	570425344	61	19510
2026-01-18 02:09:18.35	269.68	5.13	-45.1	-59.6	3.8	1.49e+00	0	61	104	570425344	61	19450
2026-01-18 02:09:19.36	269.57	5.07	-45.1	-59.6	3.8	1.49e+00	0	61	104	570425344	61	19457
2026-01-18 02:09:20.37	269.46	5.02	-45.1	-59.6	3.8	1.49e+00	0	61	104	570425344	61	19448
2026-01-18 02:09:21.38	269.36	4.97	-45.1	-59.6	3.8	1.49e+00	0	61	104	570425344	61	19556
2026-01-18 02:09:22.39	269.25	4.92	-45.1	-59.6	3.8	1.49e+00	0	61	104	570425344	61	19480
2026-01-18 02:09:23.40	269.15	4.86	-45.1	-59.6	3.8	1.49e+00	0	61	104	570425344	61	19441
2026-01-18 02:09:24.41	269.05	4.81	-45.1	-59.6	3.8	1.49e+00	0	61	104	570425344	61	19429
2026-01-18 02:09:25.42	268.94	4.76	-45.1	-59.6	3.8	1.49e+00	0	61	104	570425344	61	19461
2026-01-18 02:09:26.43	268.84	4.71	-45.1	-59.6	3.8	1.49e+00	0	61	104	570425344	61	19491
2026-01-18 02:09:27.44	268.74	4.66	-45.1	-59.6	3.8	1.49e+00	0	61	104	570425344	61	19418
2026-01-18 02:09:28.45	268.63	4.60	-45.1	-59.6	3.8	1.49e+00	0	61	104	570425344	61	19447
2026-01-18 02:09:29.47	268.53	4.55	-45.1	-59.6	3.8	1.49e+00	0	61	104	570425344	61	19434
2026-01-18 02:09:30.48	268.43	4.50	-45.1	-59.6	3.8	1.49e+00	0	61	104	570425344	61	19427
2026-01-18 02:09:31.49	268.33	4.45	-45.1	-59.6	3.8	1.49e+00	0	61	104	570425344	61	19531
2026-01-18 02:09:32.50	268.23	4.39	-45.1	-59.6	3.8	1.49e+00	0	61	104	570425344	61	19504
2026-01-18 02:09:33.51	268.12	4.34	-45.1	-59.6	3.8	1.49e+00	0	61	104	570425344	61	19422
2026-01-18 02:09:34.52	268.02	4.29	-45.1	-59.6	3.8	1.49e+00	0	61	104	570425344	61	19499
2026-01-18 02:09:35.53	267.92	4.24	-45.1	-59.6	3.8	1.49e+00	0	61	104	570425344	61	19421
2026-01-18 02:09:36.54	267.83	4.18	-45.0	-59.5	3.8	1.49e+00	0	61	104	570425344	61	19361
2026-01-18 02:09:37.55	267.73	4.13	-45.0	-59.6	3.8	1.49e+00	0	61	104	570425344	61	19460
2026-01-18 02:09:38.56	267.63	4.08	-45.0	-59.5	3.8	1.49e+00	0	61	104	570425344	61	19361
2026-01-18 02:09:39.57	267.53	4.03	-45.0	-59.6	3.8	1.49e+00	0	61	104	570425344	61	19428
2026-01-18 02:09:40.58	267.43	3.97	-45.0	-59.6	3.8	1.49e+00	0	61	104	570425344	61	19409
2026-01-18 02:09:41.59	267.33	3.92	-45.0	-59.5	3.8	1.49e+00	0	61	104	570425344	61	19361
2026-01-18 02:09:42.60	267.24	3.87	-45.0	-59.5	3.8	1.49e+00	0	61	104	570425344	61	19328
2026-01-18 02:09:43.61	267.14	3.82	-45.0	-59.5	3.8	1.49e+00	0	61	104	570425344	61	19343
2026-01-18 02:09:44.62	267.04	3.77	-45.0	-59.5	3.8	1.49e+00	0	61	104	570425344	61	19375
2026-01-18 02:09:45.63	266.95	3.71	-45.0	-59.6	3.8	1.49e+00	0	61	104	570425344	61	19392
2026-01-18 02:09:46.64	266.85	3.66	-45.0	-59.5	3.8	1.49e+00	0	61	104	570425344	61	19305
2026-01-18 02:09:47.65	266.75	3.61	-45.0	-59.6	3.8	1.49e+00	0	61	104	570425344	61	19395
2026-01-18 02:09:48.67	266.66	3.56	-45.0	-59.5	3.8	1.49e+00	0	61	104	570425344	61	19337
2026-01-18 02:09:49.67	266.56	3.51	-45.0	-59.5	3.8	1.49e+00	0	61	104	570425344	61	19309
2026-01-18 02:09:50.68	266.47	3.45	-45.0	-59.5	3.8	1.49e+00	0	61	104	570425344	61	19343
2026-01-18 02:09:51.70	266.37	3.40	-45.0	-59.5	3.8	1.49e+00	0	61	104	570425344	61	19362
2026-01-18 02:09:52.71	266.28	3.35	-45.0	-59.5	3.8	1.49e+00	0	61	104	570425344	61	19345
2026-01-18 02:09:53.72	266.19	3.30	-45.0	-59.5	3.8	1.49e+00	0	61	104	570425344	61	19353
2026-01-18 02:09:54.73	266.09	3.25	-45.0	-59.5	3.8	1.49e+00	0	61	104	570425344	61	19368
2026-01-18 02:09:55.74	266.00	3.19	-45.0	-59.5	3.8	1.49e+00	0	61	104	570425344	61	19373
2026-01-18 02:09:56.75	265.91	3.14	-45.0	-59.5	3.8	1.49e+00	0	61	104	570425344	61	19380
2026-01-18 02:09:57.76	265.81	3.09	-45.0	-59.5	3.8	1.49e+00	0	61	104	570425344	61	19297
2026-01-18 02:09:58.77	265.72	3.04	-45.0	-59.5	3.8	1.49e+00	0	61	104	570425344	61	19361
2026-01-18 02:09:59.78	265.63	2.99	-45.0	-59.6	3.8	1.49e+00	0	61	104	570425344	61	19432
2026-01-18 02:10:00.79	265.54	2.94	-45.0	-59.5	3.8	1.49e+00	0	61	104	570425344	61	19375
2026-01-18 02:10:01.80	265.45	2.88	-45.0	-59.5	3.8	1.49e+00	0	61	104	570425344	61	19349
2026-01-18 02:10:02.81	265.36	2.83	-45.0	-59.5	3.8	1.49e+00	0	61	104	570425344	61	19348
2026-01-18 02:10:03.83	265.27	2.78	-45.0	-59.5	3.8	1.49e+00	0	61	104	570425344	61	19349
2026-01-18 02:10:04.84	265.18	2.73	-45.0	-59.5	3.8	1.49e+00	0	61	104	570425344	61	19372
2026-01-18 02:10:05.85	265.09	2.68	-45.0	-59.5	3.8	1.49e+00	0	61	104	570425344	61	19324
2026-01-18 02:10:06.86	265.00	2.63	-45.0	-59.5	3.8	1.49e+00	0	61	104	570425344	61	19331
2026-01-18 02:10:07.87	264.91	2.58	-45.0	-59.5	3.8	1.49e+00	0	61	104	570425344	61	19277
2026-01-18 02:10:08.88	264.82	2.52	-45.0	-59.5	3.8	1.49e+00	0	61	104	570425344	61	19332
2026-01-18 02:10:09.89	264.73	2.47	-45.0	-59.6	3.8	1.49e+00	0	61	104	570425344	61	19422
2026-01-18 02:10:10.90	264.64	2.42	-45.0	-59.5	3.8	1.49e+00	0	61	104	570425344	61	19311
2026-01-18 02:10:11.92	264.56	2.37	-45.0	-59.5	3.8	1.49e+00	0	61	104	570425344	61	19340
2026-01-18 02:10:12.93	264.47	2.32	-45.0	-59.5	3.8	1.49e+00	0	61	104	570425344	61	19338
2026-01-18 02:10:13.94	264.38	2.27	-45.0	-59.5	3.8	1.49e+00	0	61	104	570425344	61	19345
2026-01-18 02:10:14.95	264.29	2.22	-45.0	-59.5	3.8	1.49e+00	0	61	104	570425344	61	19331
2026-01-18 02:10:15.96	264.21	2.16	-45.0	-59.5	3.8	1.49e+00	0	61	104	570425344	61	19362
2026-01-18 02:10:16.97	264.12	2.11	-45.0	-59.5	3.8	1.49e+00	0	61	104	570425344	61	19353
2026-01-18 02:10:17.98	264.04	2.06	-45.0	-59.6	3.8	1.49e+00	0	61	104	570425344	61	19400
2026-01-18 02:10:18.99	263.95	2.01	-45.0	-59.5	3.8	1.49e+00	0	61	104	570425344	61	19318
2026-01-18 02:10:20.00	263.87	1.96	-45.0	-59.5	3.8	1.49e+00	0	61	104	570425344	61	19386
2026-01-18 02:10:21.02	263.78	1.91	-45.0	-59.5	3.8	1.49e+00	0	61	104	570425344	61	19277

#Closed at: 2026-01-18 02:10:21
#Recorded file [570 MB]: D:/lorett/data/31039_260118_045900.dat