passes_logs/2026/01/18/R2.0S_Moscow/R2.0S_Moscow__20260118_234305_FENGYUN_3G_rec.log

#Pass ID: 20260118_234305_FENGYUN 3G
#Satellite: FENGYUN 3G
#Configuration: FENGYUN 3G
#almurnet v.1.7.20251203
#Start time: 2026-01-18 23:44:25

#Version: 2.2.20231116
#Station: R2.0S_Moscow
#Location: 37.707566 lon 55.798166 lat
#TLE: 1 56232U 23055A   26017.94343179  .00026793  00000+0  41706-3 0  9996
#TLE: 2 56232  49.9938  40.7454 0004132  42.1181 318.0104 15.53646528156658

#Time	Az	El	Level	Level2	SNR	BER	BlckErr	Temp	State	Recorded	gain1	gain2
2026-01-18 23:44:25.62	254.13	7.41	-45.1	-57.4	3.8	1.49e+00	0	61	0	0	61	15081
2026-01-18 23:44:26.62	253.98	7.48	-45.4	-63.4	3.8	8.45e-01	0	62	104	0	62	28588
2026-01-18 23:44:27.63	253.82	7.56	-45.4	-63.4	3.8	8.46e-01	0	62	104	0	62	28527
2026-01-18 23:44:28.64	253.65	7.63	-45.4	-63.4	3.8	8.46e-01	0	62	104	0	62	28602
2026-01-18 23:44:29.65	253.49	7.71	-45.4	-63.4	3.8	8.46e-01	0	62	104	0	62	28567
2026-01-18 23:44:30.66	253.33	7.78	-45.4	-63.4	3.8	8.46e-01	0	62	104	0	62	28435
2026-01-18 23:44:31.67	253.16	7.86	-45.4	-63.4	3.8	8.45e-01	0	62	104	0	62	28498
2026-01-18 23:44:32.69	252.99	7.94	-45.3	-63.4	3.8	8.45e-01	0	62	104	0	62	28413
2026-01-18 23:44:33.70	252.83	8.01	-45.3	-63.3	3.8	8.46e-01	0	62	104	0	62	28209
2026-01-18 23:44:34.71	252.66	8.09	-45.2	-63.2	3.8	8.46e-01	0	62	104	0	62	27795
2026-01-18 23:44:35.72	252.49	8.16	-45.1	-63.1	3.8	8.46e-01	0	62	104	0	62	27487
2026-01-18 23:44:36.73	252.32	8.24	-45.0	-62.7	3.8	8.46e-01	0	62	104	0	62	26409
2026-01-18 23:44:37.74	252.14	8.32	-44.7	-62.0	3.8	8.46e-01	0	62	104	0	61	25602
2026-01-18 23:44:38.75	251.97	8.39	-44.6	-62.4	3.8	8.46e-01	0	62	104	0	61	26937
2026-01-18 23:44:39.76	251.80	8.47	-44.6	-62.4	3.8	8.44e-01	0	61	104	0	61	26913
2026-01-18 23:44:40.77	251.62	8.55	-44.6	-62.3	3.8	8.46e-01	0	62	104	0	61	26636
2026-01-18 23:44:41.78	251.44	8.63	-44.6	-62.1	3.8	8.46e-01	0	62	104	0	61	25937
2026-01-18 23:44:42.79	251.26	8.70	-44.6	-61.7	3.8	8.46e-01	0	62	104	0	61	24849
2026-01-18 23:44:43.80	251.08	8.78	-44.6	-61.4	3.8	8.48e-01	0	62	104	0	61	24082
2026-01-18 23:44:44.81	250.90	8.86	-44.6	-61.2	3.8	8.44e-01	0	61	104	0	61	23443
2026-01-18 23:44:45.82	250.72	8.94	-44.5	-61.1	3.8	8.44e-01	0	62	104	0	61	23092
2026-01-18 23:44:46.83	250.53	9.01	-44.6	-61.1	3.8	8.46e-01	0	62	104	0	61	23153
2026-01-18 23:44:47.84	250.35	9.09	-44.6	-61.3	3.8	8.46e-01	0	61	104	0	61	23590
2026-01-18 23:44:48.85	250.16	9.17	-44.6	-61.2	3.8	8.46e-01	0	61	104	0	61	23520
2026-01-18 23:44:49.86	249.97	9.25	-44.5	-61.2	3.8	8.45e-01	0	62	104	0	61	23513
2026-01-18 23:44:50.87	249.78	9.33	-44.5	-61.4	3.8	8.46e-01	0	62	104	0	61	23869
2026-01-18 23:44:51.88	249.59	9.41	-44.5	-61.0	3.8	8.45e-01	0	62	104	0	61	23022
2026-01-18 23:44:52.90	249.40	9.49	-44.5	-60.4	3.8	8.45e-01	0	61	104	0	61	21497
2026-01-18 23:44:53.91	249.20	9.57	-44.5	-59.3	4.1	8.47e-01	0	62	0	0	61	18943
2026-01-18 23:44:54.91	249.01	9.64	-44.4	-58.3	4.4	8.36e-01	0	62	0	0	60	17744
2026-01-18 23:44:55.93	248.81	9.72	-44.4	-57.7	4.6	8.36e-01	0	61	0	0	60	16679
2026-01-18 23:44:56.93	248.61	9.80	-44.4	-57.9	4.6	8.16e-01	0	62	0	0	60	17051
2026-01-18 23:44:57.94	248.41	9.88	-44.5	-59.0	4.2	8.18e-01	0	62	0	0	60	19246
2026-01-18 23:44:58.95	248.21	9.96	-44.5	-60.4	3.8	8.18e-01	0	62	104	0	60	22635
2026-01-18 23:44:59.96	248.01	10.04	-44.5	-61.7	3.8	8.40e-01	0	62	104	0	60	26347
2026-01-18 23:45:00.97	247.81	10.12	-44.6	-62.4	3.8	8.45e-01	0	62	104	0	60	28355
2026-01-18 23:45:01.98	247.60	10.20	-44.6	-62.2	3.8	8.45e-01	0	62	104	0	60	28004
2026-01-18 23:45:03.00	247.39	10.28	-44.5	-61.7	3.8	8.46e-01	0	62	104	0	60	26338
2026-01-18 23:45:04.01	247.18	10.36	-44.5	-60.7	3.8	8.46e-01	0	61	104	0	60	23511
2026-01-18 23:45:05.01	246.97	10.44	-44.5	-59.2	4.1	8.44e-01	0	62	0	0	60	19731
2026-01-18 23:45:06.03	246.76	10.52	-44.4	-57.4	4.7	8.44e-01	0	61	0	0	60	16122
2026-01-18 23:45:07.04	246.54	10.60	-44.3	-55.9	5.7	8.09e-01	0	62	0	0	60	13447
2026-01-18 23:45:08.05	246.33	10.69	-44.1	-54.1	7.2	4.43e-01	0	62	0	1048576	60	10946
2026-01-18 23:45:09.06	246.11	10.77	-43.9	-52.4	8.8	4.43e-01	0	61	0	2097152	59	9550
2026-01-18 23:45:10.07	245.89	10.85	-43.6	-50.9	10.5	7.59e-02	0	62	0	3145728	59	8058
2026-01-18 23:45:11.08	245.67	10.93	-43.4	-50.3	11.2	6.80e-03	0	61	0	4194304	58	7918
2026-01-18 23:45:12.09	245.45	11.01	-43.4	-50.3	11.2	6.80e-03	0	62	0	5767168	58	7943
2026-01-18 23:45:13.10	245.23	11.09	-43.8	-51.7	9.8	1.85e-03	0	62	0	6815744	58	9305
2026-01-18 23:45:14.11	245.00	11.17	-44.3	-55.2	6.5	2.17e-02	0	62	0	7864320	59	13160
2026-01-18 23:45:15.12	244.78	11.25	-44.6	-61.6	3.8	2.17e-02	0	62	104	7864320	59	27461
2026-01-18 23:45:16.13	244.55	11.33	-44.2	-54.6	6.5	6.08e-01	0	62	0	7864320	59	12298
2026-01-18 23:45:17.14	244.32	11.41	-43.1	-49.1	12.3	5.01e-01	0	62	0	8912896	58	6933
2026-01-18 23:45:18.15	244.09	11.50	-42.2	-46.7	14.8	7.60e-04	0	62	0	9961472	56	5909
2026-01-18 23:45:19.16	243.85	11.58	-41.2	-44.9	16.5	7.60e-04	0	62	0	11010048	54	5368
2026-01-18 23:45:20.17	243.62	11.66	-41.3	-45.2	16.3	0.00e+00	0	61	0	12058624	54	5557
2026-01-18 23:45:21.18	243.38	11.74	-40.6	-43.9	17.5	0.00e+00	0	62	0	13631488	53	5049
2026-01-18 23:45:22.19	243.14	11.82	-40.9	-44.3	16.8	0.00e+00	0	62	0	14680064	53	5304
2026-01-18 23:45:23.20	242.90	11.90	-44.3	-56.7	5.7	0.00e+00	0	62	0	15204352	59	15598
2026-01-18 23:45:24.21	242.66	11.98	-42.5	-47.4	13.6	2.98e-01	0	62	0	16252928	57	5994
2026-01-18 23:45:25.22	242.41	12.07	-42.8	-48.4	13.1	2.98e-01	0	62	0	17825792	56	7123
2026-01-18 23:45:26.23	242.17	12.15	-40.8	-44.3	17.2	4.34e-05	0	62	0	18874368	53	5298
2026-01-18 23:45:27.24	241.92	12.23	-40.5	-43.7	17.7	0.00e+00	0	62	0	19922944	53	4967
2026-01-18 23:45:28.25	241.67	12.31	-40.2	-43.3	18.2	0.00e+00	0	62	0	20971520	52	5009
2026-01-18 23:45:29.26	241.42	12.39	-40.0	-43.0	18.5	0.00e+00	0	61	0	22020096	52	4816
2026-01-18 23:45:30.27	241.17	12.47	-40.0	-42.8	18.7	0.00e+00	0	62	0	23068672	51	5016
2026-01-18 23:45:31.28	240.91	12.55	-39.9	-42.7	18.9	0.00e+00	0	62	0	24641536	51	4951
2026-01-18 23:45:32.29	240.65	12.64	-39.9	-42.7	18.9	0.00e+00	0	61	0	25690112	51	4934
2026-01-18 23:45:33.30	240.39	12.72	-39.9	-42.7	18.8	0.00e+00	0	61	0	26738688	51	4980
2026-01-18 23:45:34.31	240.13	12.80	-40.1	-43.0	18.6	0.00e+00	0	61	0	27787264	51	5111
2026-01-18 23:45:35.32	239.87	12.88	-40.2	-43.1	18.4	0.00e+00	0	61	0	28835840	51	5212
2026-01-18 23:45:36.33	239.61	12.96	-40.4	-43.5	18.1	0.00e+00	0	61	0	29884416	51	5440
2026-01-18 23:45:37.34	239.34	13.04	-40.5	-43.6	18.0	0.00e+00	0	61	0	31457280	51	5506
2026-01-18 23:45:38.34	239.07	13.12	-40.4	-43.5	18.1	0.00e+00	0	62	0	32505856	51	5430
2026-01-18 23:45:39.35	238.80	13.20	-40.3	-43.3	18.3	0.00e+00	0	62	0	33554432	51	5308
2026-01-18 23:45:40.36	238.53	13.28	-40.2	-43.1	18.5	0.00e+00	0	62	0	34603008	51	5199
2026-01-18 23:45:41.37	238.26	13.36	-40.2	-43.1	18.5	0.00e+00	0	61	0	35651584	51	5166
2026-01-18 23:45:42.38	237.98	13.44	-40.0	-42.9	18.7	0.00e+00	0	61	0	36700160	51	5065
2026-01-18 23:45:43.39	237.70	13.52	-40.1	-43.0	18.6	0.00e+00	0	62	0	38273024	51	5143
2026-01-18 23:45:44.40	237.42	13.60	-40.0	-42.9	18.7	0.00e+00	0	61	0	39321600	51	5060
2026-01-18 23:45:45.41	237.14	13.68	-40.0	-42.9	18.8	0.00e+00	0	61	0	40370176	51	5050
2026-01-18 23:45:46.42	236.86	13.76	-40.1	-43.0	18.6	0.00e+00	0	62	0	41418752	51	5122
2026-01-18 23:45:47.43	236.57	13.84	-40.0	-42.8	18.8	0.00e+00	0	61	0	42467328	51	5031
2026-01-18 23:45:48.44	236.28	13.92	-39.9	-42.7	18.9	0.00e+00	0	61	0	43515904	51	4950
2026-01-18 23:45:49.45	235.99	14.00	-39.8	-42.5	19.1	0.00e+00	0	62	0	45088768	51	4867
2026-01-18 23:45:50.46	235.70	14.08	-39.9	-42.7	18.9	0.00e+00	0	61	0	46137344	51	4981
2026-01-18 23:45:51.47	235.41	14.16	-40.1	-43.0	18.6	0.00e+00	0	61	0	47185920	51	5148
2026-01-18 23:45:52.48	235.11	14.24	-40.0	-42.9	18.8	0.00e+00	0	62	0	48234496	51	5055
2026-01-18 23:45:53.49	234.81	14.32	-40.1	-43.0	18.7	0.00e+00	0	61	0	49283072	51	5130
2026-01-18 23:45:54.50	234.51	14.39	-39.9	-42.7	18.9	0.00e+00	0	62	0	50331648	51	4979
2026-01-18 23:45:55.51	234.21	14.47	-39.9	-42.7	19.0	0.00e+00	0	62	0	51904512	51	4959
2026-01-18 23:45:56.51	233.91	14.55	-39.9	-42.6	19.0	0.00e+00	0	62	0	52953088	51	4920
2026-01-18 23:45:57.52	233.61	14.63	-39.8	-42.5	19.2	0.00e+00	0	62	0	54001664	51	4831
2026-01-18 23:45:58.53	233.30	14.70	-39.8	-42.5	19.2	0.00e+00	0	62	0	55050240	51	4845
2026-01-18 23:45:59.54	232.99	14.78	-39.7	-42.3	19.4	0.00e+00	0	62	0	56098816	51	4748
2026-01-18 23:46:00.55	232.67	14.86	-39.7	-42.4	19.4	0.00e+00	0	61	0	57147392	51	4763
2026-01-18 23:46:01.56	232.36	14.93	-39.6	-42.2	19.5	0.00e+00	0	62	0	58720256	51	4700
2026-01-18 23:46:02.57	232.04	15.01	-39.8	-42.5	19.2	0.00e+00	0	62	0	59768832	51	4841
2026-01-18 23:46:03.58	231.73	15.08	-39.8	-42.5	19.2	0.00e+00	0	62	0	60817408	51	4859
2026-01-18 23:46:04.59	231.41	15.16	-39.9	-42.6	19.1	0.00e+00	0	61	0	61865984	51	4925
2026-01-18 23:46:05.60	231.08	15.23	-39.7	-42.4	19.3	0.00e+00	0	61	0	62914560	51	4795
2026-01-18 23:46:06.61	230.76	15.30	-39.9	-42.7	19.0	0.00e+00	0	62	0	63963136	51	4966
2026-01-18 23:46:07.62	230.43	15.38	-39.9	-42.6	19.1	0.00e+00	0	62	0	65536000	51	4885
2026-01-18 23:46:08.62	230.11	15.45	-39.9	-42.6	19.1	0.00e+00	0	61	0	66584576	51	4909
2026-01-18 23:46:09.63	229.78	15.52	-39.8	-42.5	19.2	0.00e+00	0	61	0	67633152	51	4830
2026-01-18 23:46:10.64	229.44	15.59	-39.8	-42.6	19.2	0.00e+00	0	61	0	68681728	51	4873
2026-01-18 23:46:11.65	229.11	15.67	-39.5	-42.0	19.7	0.00e+00	0	61	0	69730304	51	4579
2026-01-18 23:46:12.66	228.77	15.74	-39.3	-41.8	20.0	0.00e+00	0	62	0	70778880	50	4708
2026-01-18 23:46:13.67	228.43	15.81	-39.1	-41.6	20.2	0.00e+00	0	61	0	72351744	50	4607
2026-01-18 23:46:14.68	228.09	15.88	-39.0	-41.4	20.3	0.00e+00	0	62	0	73400320	50	4510
2026-01-18 23:46:15.69	227.75	15.95	-39.1	-41.5	20.2	0.00e+00	0	62	0	74448896	50	4587
2026-01-18 23:46:16.70	227.40	16.02	-39.2	-41.6	20.1	0.00e+00	0	62	0	75497472	50	4642
2026-01-18 23:46:17.71	227.06	16.08	-39.2	-41.6	20.2	0.00e+00	0	61	0	76546048	50	4610
2026-01-18 23:46:18.72	226.71	16.15	-39.3	-41.7	20.1	0.00e+00	0	61	0	77594624	50	4678
2026-01-18 23:46:19.72	226.36	16.22	-39.3	-41.7	20.1	0.00e+00	0	61	0	79167488	50	4683
2026-01-18 23:46:20.74	226.00	16.29	-39.2	-41.6	20.2	0.00e+00	0	62	0	80216064	50	4614
2026-01-18 23:46:21.75	225.65	16.35	-39.2	-41.6	20.2	0.00e+00	0	61	0	81264640	50	4609
2026-01-18 23:46:22.75	225.30	16.42	-39.1	-41.5	20.3	0.00e+00	0	62	0	82313216	50	4582
2026-01-18 23:46:23.77	224.93	16.48	-39.1	-41.4	20.4	0.00e+00	0	61	0	83361792	50	4537
2026-01-18 23:46:24.78	224.57	16.54	-38.9	-41.3	20.5	0.00e+00	0	62	0	84410368	49	4724
2026-01-18 23:46:25.79	224.21	16.61	-39.0	-41.3	20.5	0.00e+00	0	61	0	85983232	49	4731
2026-01-18 23:46:26.79	223.85	16.67	-39.1	-41.5	20.2	0.00e+00	0	61	0	87031808	49	4855
2026-01-18 23:46:27.80	223.48	16.73	-39.2	-41.6	20.2	0.00e+00	0	61	0	88080384	49	4903
2026-01-18 23:46:28.81	223.12	16.79	-39.3	-41.7	20.1	0.00e+00	0	62	0	89128960	49	4971
2026-01-18 23:46:29.82	222.75	16.85	-39.2	-41.7	20.1	0.00e+00	0	61	0	90177536	49	4941
2026-01-18 23:46:30.83	222.37	16.91	-39.1	-41.6	20.2	0.00e+00	0	61	0	91226112	49	4871
2026-01-18 23:46:31.84	222.00	16.97	-39.1	-41.6	20.2	0.00e+00	0	61	0	92798976	49	4877
2026-01-18 23:46:32.85	221.63	17.03	-39.0	-41.4	20.4	0.00e+00	0	61	0	93847552	49	4787
2026-01-18 23:46:33.86	221.25	17.08	-39.0	-41.3	20.5	0.00e+00	0	61	0	94896128	49	4737
2026-01-18 23:46:34.87	220.87	17.14	-39.0	-41.4	20.4	0.00e+00	0	61	0	95944704	49	4772
2026-01-18 23:46:35.88	220.49	17.19	-38.9	-41.3	20.5	0.00e+00	0	61	0	96993280	49	4710
2026-01-18 23:46:36.88	220.11	17.25	-38.9	-41.3	20.5	0.00e+00	0	61	0	98041856	49	4739
2026-01-18 23:46:37.89	219.73	17.30	-38.9	-41.2	20.6	0.00e+00	0	62	0	99614720	49	4704
2026-01-18 23:46:38.90	219.34	17.35	-38.9	-41.2	20.6	0.00e+00	0	61	0	100663296	49	4702
2026-01-18 23:46:39.91	218.95	17.40	-38.9	-41.2	20.6	0.00e+00	0	62	0	101711872	49	4674
2026-01-18 23:46:40.92	218.56	17.45	-38.8	-41.1	20.7	0.00e+00	0	61	0	102760448	49	4643
2026-01-18 23:46:41.93	218.17	17.50	-38.9	-41.2	20.7	0.00e+00	0	61	0	103809024	49	4656
2026-01-18 23:46:42.94	217.78	17.55	-38.9	-41.2	20.6	0.00e+00	0	61	0	104857600	49	4686
2026-01-18 23:46:43.95	217.39	17.60	-38.9	-41.2	20.6	0.00e+00	0	61	0	106430464	49	4672
2026-01-18 23:46:44.96	216.99	17.64	-39.0	-41.3	20.5	0.00e+00	0	61	0	107479040	49	4754
2026-01-18 23:46:45.97	216.60	17.69	-38.6	-40.9	21.0	0.00e+00	0	61	0	108527616	49	4494
2026-01-18 23:46:46.97	216.20	17.73	-38.5	-40.7	21.2	0.00e+00	0	61	0	109576192	49	4393
2026-01-18 23:46:47.98	215.80	17.77	-38.5	-40.6	21.2	0.00e+00	0	61	0	110624768	48	4648
2026-01-18 23:46:48.99	215.40	17.82	-38.6	-40.8	20.7	0.00e+00	0	61	0	111673344	48	4720
2026-01-18 23:46:50.00	215.00	17.86	-38.7	-40.9	20.9	0.00e+00	0	61	0	112721920	48	4792
2026-01-18 23:46:51.01	214.59	17.90	-38.9	-41.1	20.7	0.00e+00	0	61	0	114294784	48	4919
2026-01-18 23:46:52.02	214.19	17.93	-38.9	-41.2	20.7	0.00e+00	0	61	0	115343360	48	4962
2026-01-18 23:46:53.03	213.78	17.97	-38.7	-40.9	21.0	0.00e+00	0	61	0	116391936	48	4789
2026-01-18 23:46:54.04	213.38	18.01	-38.6	-40.8	21.0	0.00e+00	0	61	0	117440512	48	4757
2026-01-18 23:46:55.05	212.97	18.04	-38.5	-40.7	21.1	0.00e+00	0	61	0	118489088	48	4694
2026-01-18 23:46:56.06	212.56	18.08	-38.3	-40.4	21.4	0.00e+00	0	61	0	119537664	48	4542
2026-01-18 23:46:57.07	212.15	18.11	-38.2	-40.3	21.5	0.00e+00	0	61	0	121110528	48	4489
2026-01-18 23:46:58.08	211.73	18.14	-38.2	-40.3	21.5	0.00e+00	0	61	0	122159104	48	4487
2026-01-18 23:46:59.08	211.33	18.17	-38.2	-40.2	21.6	0.00e+00	0	61	0	123207680	48	4440
2026-01-18 23:47:00.10	210.91	18.20	-38.2	-40.3	21.6	0.00e+00	0	61	0	124256256	48	4456
2026-01-18 23:47:01.10	210.50	18.23	-38.2	-40.3	21.5	0.00e+00	0	61	0	125304832	48	4472
2026-01-18 23:47:02.11	210.08	18.25	-38.3	-40.4	21.5	0.00e+00	0	61	0	126877696	48	4499
2026-01-18 23:47:03.12	209.66	18.28	-38.3	-40.4	21.5	0.00e+00	0	61	0	127926272	48	4529
2026-01-18 23:47:04.13	209.25	18.30	-38.4	-40.5	21.4	0.00e+00	0	61	0	128974848	48	4565
2026-01-18 23:47:05.14	208.83	18.33	-38.4	-40.5	21.4	0.00e+00	0	61	0	130023424	48	4570
2026-01-18 23:47:06.15	208.41	18.35	-38.4	-40.6	21.3	0.00e+00	0	61	0	131072000	48	4635
2026-01-18 23:47:07.16	207.99	18.37	-38.5	-40.6	21.2	0.00e+00	0	61	0	132120576	48	4648
2026-01-18 23:47:08.17	207.57	18.39	-38.5	-40.7	21.2	0.00e+00	0	61	0	133693440	48	4686
2026-01-18 23:47:09.18	207.15	18.40	-38.6	-40.7	21.1	0.00e+00	0	61	0	134742016	48	4702
2026-01-18 23:47:10.19	206.73	18.42	-38.7	-40.9	21.0	0.00e+00	0	61	0	135790592	48	4788
2026-01-18 23:47:11.20	206.30	18.43	-38.7	-41.0	20.9	0.00e+00	0	61	0	136839168	48	4819
2026-01-18 23:47:12.21	205.88	18.45	-38.6	-40.8	21.1	0.00e+00	0	61	0	137887744	48	4717
2026-01-18 23:47:13.22	205.46	18.46	-38.7	-40.9	21.0	0.00e+00	0	62	0	138936320	48	4786
2026-01-18 23:47:14.22	205.04	18.47	-38.7	-41.0	20.9	0.00e+00	0	61	0	140509184	48	4828
2026-01-18 23:47:15.23	204.61	18.48	-38.6	-40.8	21.1	0.00e+00	0	61	0	141557760	48	4718
2026-01-18 23:47:16.24	204.19	18.49	-38.7	-40.9	21.0	0.00e+00	0	61	0	142606336	48	4776
2026-01-18 23:47:17.25	203.77	18.50	-38.7	-40.9	20.9	0.00e+00	0	61	0	143654912	48	4806
2026-01-18 23:47:18.26	203.34	18.50	-38.5	-40.7	21.1	0.00e+00	0	61	0	144703488	48	4684
2026-01-18 23:47:19.27	202.92	18.50	-38.6	-40.8	21.0	0.00e+00	0	61	0	145752064	48	4736
2026-01-18 23:47:20.28	202.49	18.51	-38.7	-40.9	20.9	0.00e+00	0	61	0	147324928	48	4812
2026-01-18 23:47:21.29	202.07	18.51	-38.7	-40.9	20.9	0.00e+00	0	61	0	148373504	48	4799
2026-01-18 23:47:22.30	201.64	18.51	-38.6	-40.8	21.0	0.00e+00	0	61	0	149422080	48	4754
2026-01-18 23:47:23.31	201.22	18.51	-38.6	-40.8	21.0	0.00e+00	0	61	0	150470656	48	4707
2026-01-18 23:47:24.32	200.79	18.50	-38.4	-40.5	21.3	0.00e+00	0	61	0	151519232	48	4578
2026-01-18 23:47:25.33	200.37	18.50	-38.3	-40.4	21.4	0.00e+00	0	61	0	152567808	48	4524
2026-01-18 23:47:26.34	199.94	18.50	-38.2	-40.3	21.5	0.00e+00	0	61	0	153616384	48	4461
2026-01-18 23:47:27.35	199.52	18.49	-38.2	-40.3	21.5	0.00e+00	0	61	0	155189248	48	4451
2026-01-18 23:47:28.36	199.09	18.48	-38.3	-40.5	21.4	0.00e+00	0	61	0	156237824	48	4554
2026-01-18 23:47:29.37	198.67	18.47	-38.5	-40.6	21.2	0.00e+00	0	61	0	157286400	48	4649
2026-01-18 23:47:30.38	198.24	18.46	-38.7	-41.0	20.9	0.00e+00	0	61	0	158334976	48	4834
2026-01-18 23:47:31.38	197.83	18.45	-39.0	-41.3	20.5	0.00e+00	0	61	0	159383552	48	5038
2026-01-18 23:47:32.39	197.40	18.43	-39.1	-41.5	20.4	0.00e+00	0	61	0	160432128	48	5117
2026-01-18 23:47:33.40	196.98	18.42	-38.9	-41.2	20.6	0.00e+00	0	61	0	162004992	48	4941
2026-01-18 23:47:34.41	196.56	18.40	-38.7	-41.0	20.8	0.00e+00	0	61	0	163053568	48	4836
2026-01-18 23:47:35.42	196.14	18.39	-38.6	-40.8	21.0	0.00e+00	0	61	0	164102144	48	4756
2026-01-18 23:47:36.43	195.72	18.37	-38.3	-40.5	21.3	0.00e+00	0	61	0	165150720	48	4559
2026-01-18 23:47:37.44	195.30	18.35	-38.2	-40.3	21.5	0.00e+00	0	62	0	166199296	48	4492
2026-01-18 23:47:38.45	194.88	18.32	-38.1	-40.2	21.6	0.00e+00	0	61	0	167247872	48	4411
2026-01-18 23:47:39.46	194.46	18.30	-38.2	-40.4	21.5	0.00e+00	0	61	0	168820736	48	4499
2026-01-18 23:47:40.47	194.04	18.28	-38.5	-40.7	21.1	0.00e+00	0	61	0	169869312	48	4676
2026-01-18 23:47:41.48	193.62	18.25	-38.4	-40.6	21.2	0.00e+00	0	61	0	170917888	48	4628
2026-01-18 23:47:42.49	193.21	18.23	-38.6	-40.9	20.9	0.00e+00	0	61	0	171966464	48	4774
2026-01-18 23:47:43.50	192.79	18.20	-38.7	-41.0	20.8	0.00e+00	0	61	0	173015040	48	4833
2026-01-18 23:47:44.50	192.38	18.17	-38.6	-40.9	20.9	0.00e+00	0	61	0	174063616	48	4767
2026-01-18 23:47:45.51	191.97	18.14	-38.5	-40.6	21.1	0.00e+00	0	61	0	175636480	48	4651
2026-01-18 23:47:46.52	191.56	18.11	-38.4	-40.6	21.1	0.00e+00	0	61	0	176685056	48	4613
2026-01-18 23:47:47.53	191.15	18.07	-38.3	-40.5	21.3	0.00e+00	0	61	0	177733632	48	4563
2026-01-18 23:47:48.54	190.74	18.04	-38.0	-40.0	21.7	0.00e+00	0	61	0	178782208	48	4331
2026-01-18 23:47:49.55	190.33	18.01	-37.8	-39.9	21.8	0.00e+00	0	61	0	179830784	47	4525
2026-01-18 23:47:50.56	189.92	17.97	-37.9	-40.0	21.7	0.00e+00	0	61	0	181403648	47	4566
2026-01-18 23:47:51.57	189.51	17.93	-38.2	-40.3	21.4	0.00e+00	0	61	0	182452224	47	4732
2026-01-18 23:47:52.58	189.11	17.89	-38.4	-40.7	21.0	0.00e+00	0	61	0	183500800	47	4936
2026-01-18 23:47:53.59	188.71	17.85	-38.6	-40.8	20.9	0.00e+00	0	61	0	184549376	47	5028
2026-01-18 23:47:54.60	188.30	17.81	-38.8	-41.1	20.7	0.00e+00	0	61	0	185597952	48	4905
2026-01-18 23:47:55.61	187.90	17.77	-38.9	-41.2	20.6	0.00e+00	0	61	0	186646528	48	4953
2026-01-18 23:47:56.62	187.50	17.73	-38.7	-41.0	20.7	0.00e+00	0	61	0	188219392	48	4850
2026-01-18 23:47:57.63	187.10	17.68	-38.7	-41.0	20.8	0.00e+00	0	61	0	189267968	48	4851
2026-01-18 23:47:58.63	186.71	17.64	-38.6	-40.9	20.9	0.00e+00	0	61	0	190316544	48	4783
2026-01-18 23:47:59.64	186.31	17.59	-38.7	-40.9	20.9	0.00e+00	0	61	0	191365120	48	4782
2026-01-18 23:48:00.65	185.92	17.55	-38.7	-41.0	20.8	0.00e+00	0	61	0	192413696	48	4815
2026-01-18 23:48:01.66	185.53	17.50	-38.6	-40.8	20.9	0.00e+00	0	61	0	193462272	48	4758
2026-01-18 23:48:02.67	185.14	17.45	-38.5	-40.7	21.0	0.00e+00	0	61	0	194510848	48	4673
2026-01-18 23:48:03.68	184.75	17.40	-38.6	-40.9	20.8	0.00e+00	0	61	0	196083712	48	4778
2026-01-18 23:48:04.69	184.36	17.35	-38.7	-41.0	20.7	0.00e+00	0	61	0	197132288	48	4865
2026-01-18 23:48:05.70	183.97	17.29	-39.1	-41.6	20.1	0.00e+00	0	61	0	198180864	48	5177
2026-01-18 23:48:06.71	183.59	17.24	-39.0	-41.4	20.3	0.00e+00	0	61	0	199229440	48	5079
2026-01-18 23:48:07.72	183.21	17.19	-39.0	-41.3	20.3	0.00e+00	0	61	0	200278016	48	5039
2026-01-18 23:48:08.73	182.83	17.13	-38.9	-41.3	20.4	0.00e+00	0	61	0	201326592	48	5002
2026-01-18 23:48:09.74	182.45	17.08	-39.0	-41.3	20.4	0.00e+00	0	61	0	202899456	48	5027
2026-01-18 23:48:10.75	182.07	17.02	-39.0	-41.3	20.3	0.00e+00	0	61	0	203948032	48	5030
2026-01-18 23:48:11.76	181.69	16.96	-39.2	-41.6	20.1	0.00e+00	0	61	0	204996608	48	5212
2026-01-18 23:48:12.77	181.32	16.90	-39.4	-41.9	19.8	0.00e+00	0	61	0	206045184	49	5057
2026-01-18 23:48:13.78	180.95	16.84	-39.4	-41.9	19.8	0.00e+00	0	61	0	207093760	49	5070
2026-01-18 23:48:14.79	180.58	16.78	-39.3	-41.9	19.8	0.00e+00	0	61	0	208142336	49	5058
2026-01-18 23:48:15.79	180.21	16.72	-39.1	-41.5	20.0	0.00e+00	0	61	0	209715200	49	4868
2026-01-18 23:48:16.80	179.85	16.66	-39.0	-41.4	20.3	0.00e+00	0	61	0	210763776	49	4785
2026-01-18 23:48:17.81	179.48	16.60	-39.1	-41.5	20.1	0.00e+00	0	61	0	211812352	49	4826
2026-01-18 23:48:18.82	179.12	16.54	-39.1	-41.5	20.2	0.00e+00	0	61	0	212860928	49	4827
2026-01-18 23:48:19.83	178.76	16.47	-39.1	-41.5	20.2	0.00e+00	0	61	0	213909504	49	4846
2026-01-18 23:48:20.84	178.40	16.41	-39.2	-41.7	20.0	0.00e+00	0	61	0	214958080	49	4948
2026-01-18 23:48:21.85	178.04	16.34	-39.4	-41.9	19.8	0.00e+00	0	61	0	216530944	49	5076
2026-01-18 23:48:22.86	177.69	16.28	-39.4	-42.0	19.7	0.00e+00	0	61	0	217579520	49	5127
2026-01-18 23:48:23.87	177.34	16.21	-39.5	-42.1	19.6	0.00e+00	0	61	0	218628096	49	5166
2026-01-18 23:48:24.88	176.98	16.14	-39.4	-42.0	19.7	0.00e+00	0	61	0	219676672	49	5137
2026-01-18 23:48:25.89	176.64	16.08	-39.5	-42.1	19.6	0.00e+00	0	61	0	220725248	49	5173
2026-01-18 23:48:26.90	176.29	16.01	-39.5	-42.0	19.6	0.00e+00	0	61	0	221773824	49	5156
2026-01-18 23:48:27.91	175.94	15.94	-39.6	-42.3	19.4	0.00e+00	0	61	0	223346688	49	5297
2026-01-18 23:48:28.92	175.60	15.87	-39.9	-42.6	19.1	0.00e+00	0	61	0	224395264	50	5211
2026-01-18 23:48:29.93	175.26	15.80	-39.9	-42.6	19.1	0.00e+00	0	61	0	225443840	50	5208
2026-01-18 23:48:30.94	174.92	15.73	-39.8	-42.6	19.2	0.00e+00	0	61	0	226492416	50	5160
2026-01-18 23:48:31.95	174.58	15.66	-39.8	-42.4	19.2	0.00e+00	0	61	0	227540992	50	5095
2026-01-18 23:48:32.96	174.25	15.59	-39.7	-42.3	19.5	0.00e+00	0	61	0	228589568	50	5014
2026-01-18 23:48:33.97	173.91	15.51	-39.8	-42.4	19.5	0.00e+00	0	62	0	230162432	50	5050
2026-01-18 23:48:34.98	173.58	15.44	-39.7	-42.3	19.4	0.00e+00	0	61	0	231211008	50	5037
2026-01-18 23:48:35.99	173.26	15.37	-39.8	-42.4	19.3	0.00e+00	0	61	0	232259584	50	5083
2026-01-18 23:48:37.00	172.93	15.30	-39.9	-42.6	19.2	0.00e+00	0	62	0	233308160	50	5177
2026-01-18 23:48:38.01	172.60	15.22	-39.7	-42.3	19.4	0.00e+00	0	61	0	234356736	50	5041
2026-01-18 23:48:39.02	172.28	15.15	-39.6	-42.2	19.5	0.00e+00	0	61	0	235405312	50	4979
2026-01-18 23:48:40.03	171.96	15.07	-39.7	-42.4	19.3	0.00e+00	0	61	0	236978176	50	5066
2026-01-18 23:48:41.04	171.64	15.00	-39.8	-42.4	19.3	0.00e+00	0	61	0	238026752	50	5068
2026-01-18 23:48:42.04	171.33	14.92	-39.8	-42.4	19.3	0.00e+00	0	61	0	239075328	50	5087
2026-01-18 23:48:43.05	171.01	14.85	-39.8	-42.5	19.2	0.00e+00	0	61	0	240123904	50	5108
2026-01-18 23:48:44.06	170.70	14.77	-39.6	-42.1	19.6	0.00e+00	0	61	0	241172480	50	4926
2026-01-18 23:48:45.07	170.39	14.69	-39.6	-42.3	19.5	0.00e+00	0	61	0	242221056	50	4985
2026-01-18 23:48:46.08	170.08	14.62	-39.7	-42.4	19.3	0.00e+00	0	61	0	243793920	50	5059
2026-01-18 23:48:47.09	169.78	14.54	-39.8	-42.5	19.2	0.00e+00	0	61	0	244842496	50	5157
2026-01-18 23:48:48.10	169.47	14.46	-40.0	-42.8	19.0	0.00e+00	0	61	0	245891072	50	5325
2026-01-18 23:48:49.11	169.17	14.38	-40.0	-42.8	18.9	0.00e+00	0	61	0	246939648	50	5321
2026-01-18 23:48:50.12	168.87	14.31	-40.2	-43.0	18.9	0.00e+00	0	61	0	247988224	50	5407
2026-01-18 23:48:51.13	168.57	14.23	-40.2	-43.0	18.8	0.00e+00	0	61	0	249036800	50	5443
2026-01-18 23:48:52.14	168.27	14.15	-40.2	-43.1	18.8	0.00e+00	0	61	0	250609664	51	5164
2026-01-18 23:48:53.15	167.98	14.07	-40.2	-43.0	18.9	0.00e+00	0	61	0	251658240	51	5108
2026-01-18 23:48:54.16	167.69	13.99	-40.1	-42.9	18.9	0.00e+00	0	61	0	252706816	51	5050
2026-01-18 23:48:55.17	167.40	13.91	-39.9	-42.6	19.2	0.00e+00	0	61	0	253755392	51	4901
2026-01-18 23:48:56.18	167.11	13.83	-39.8	-42.5	19.3	0.00e+00	0	61	0	254803968	51	4842
2026-01-18 23:48:57.19	166.82	13.75	-40.0	-42.7	19.1	0.00e+00	0	61	0	255852544	51	4944
2026-01-18 23:48:58.20	166.54	13.67	-39.8	-42.5	19.3	0.00e+00	0	61	0	257425408	51	4854
2026-01-18 23:48:59.21	166.26	13.59	-39.9	-42.6	19.2	0.00e+00	0	61	0	258473984	51	4885
2026-01-18 23:49:00.21	165.98	13.51	-40.1	-42.9	18.9	0.00e+00	0	61	0	259522560	51	5060
2026-01-18 23:49:01.22	165.70	13.43	-40.3	-43.2	18.5	0.00e+00	0	61	0	260571136	51	5273
2026-01-18 23:49:02.23	165.42	13.35	-40.4	-43.4	18.4	0.00e+00	0	61	0	261619712	51	5392
2026-01-18 23:49:03.24	165.15	13.27	-40.4	-43.4	18.4	0.00e+00	0	61	0	262668288	51	5361
2026-01-18 23:49:04.25	164.88	13.19	-40.3	-43.3	18.5	0.00e+00	0	61	0	264241152	51	5298
2026-01-18 23:49:05.26	164.61	13.11	-40.3	-43.2	18.6	0.00e+00	0	61	0	265289728	51	5251
2026-01-18 23:49:06.27	164.34	13.03	-40.2	-43.1	18.6	0.00e+00	0	61	0	266338304	51	5211
2026-01-18 23:49:07.28	164.07	12.95	-40.3	-43.3	18.5	0.00e+00	0	61	0	267386880	51	5303
2026-01-18 23:49:08.29	163.81	12.87	-40.3	-43.3	18.4	0.00e+00	0	61	0	268435456	51	5327
2026-01-18 23:49:09.30	163.54	12.78	-40.4	-43.5	18.3	0.00e+00	0	61	0	269484032	51	5416
2026-01-18 23:49:10.31	163.28	12.70	-40.5	-43.6	18.2	0.00e+00	0	61	0	271056896	51	5519
2026-01-18 23:49:11.32	163.02	12.62	-40.5	-43.7	18.1	0.00e+00	0	61	0	272105472	51	5540
2026-01-18 23:49:12.33	162.77	12.54	-40.5	-43.7	18.1	0.00e+00	0	61	0	273154048	51	5545
2026-01-18 23:49:13.34	162.51	12.46	-40.6	-43.8	18.0	0.00e+00	0	61	0	274202624	51	5597
2026-01-18 23:49:14.35	162.26	12.38	-40.6	-43.7	18.1	0.00e+00	0	61	0	275251200	51	5553
2026-01-18 23:49:15.36	162.01	12.30	-40.6	-43.8	18.0	0.00e+00	0	61	0	276299776	51	5593
2026-01-18 23:49:16.37	161.76	12.21	-40.5	-43.6	18.2	0.00e+00	0	61	0	277872640	51	5480
2026-01-18 23:49:17.37	161.51	12.13	-40.5	-43.7	18.2	0.00e+00	0	61	0	278921216	51	5531
2026-01-18 23:49:18.38	161.26	12.05	-40.4	-43.5	18.3	0.00e+00	0	61	0	279969792	51	5430
2026-01-18 23:49:19.39	161.02	11.97	-40.5	-43.6	18.2	0.00e+00	0	61	0	281018368	51	5484
2026-01-18 23:49:20.40	160.78	11.89	-40.5	-43.7	18.1	0.00e+00	0	61	0	282066944	51	5541
2026-01-18 23:49:21.41	160.54	11.81	-40.6	-43.8	17.9	0.00e+00	0	61	0	283115520	51	5655
2026-01-18 23:49:22.42	160.30	11.73	-40.7	-43.9	17.8	0.00e+00	0	61	0	284688384	51	5689
2026-01-18 23:49:23.43	160.06	11.64	-40.6	-43.9	17.8	0.00e+00	0	61	0	285736960	51	5676
2026-01-18 23:49:24.44	159.82	11.56	-40.7	-44.0	17.7	0.00e+00	0	61	0	286785536	51	5744
2026-01-18 23:49:25.45	159.59	11.48	-40.7	-44.0	17.7	0.00e+00	0	61	0	287834112	51	5751
2026-01-18 23:49:26.45	159.36	11.40	-40.6	-44.0	17.6	0.00e+00	0	61	0	288882688	52	5424
2026-01-18 23:49:27.46	159.13	11.32	-40.7	-44.0	17.6	0.00e+00	0	61	0	289931264	52	5456
2026-01-18 23:49:28.47	158.90	11.24	-40.5	-43.8	17.8	0.00e+00	0	61	0	291504128	52	5330
2026-01-18 23:49:29.48	158.67	11.16	-40.5	-43.8	17.8	0.00e+00	0	61	0	292552704	52	5288
2026-01-18 23:49:30.49	158.45	11.08	-40.5	-43.7	17.8	0.00e+00	0	61	0	293601280	52	5262
2026-01-18 23:49:31.50	158.22	10.99	-40.5	-43.8	17.8	0.00e+00	0	61	0	294649856	52	5313
2026-01-18 23:49:32.51	158.00	10.91	-40.5	-43.8	17.8	0.00e+00	0	61	0	295698432	52	5298
2026-01-18 23:49:33.52	157.78	10.83	-40.5	-43.8	17.8	0.00e+00	0	61	0	296747008	52	5287
2026-01-18 23:49:34.53	157.56	10.75	-40.5	-43.8	17.8	0.00e+00	0	61	0	298319872	52	5285
2026-01-18 23:49:35.54	157.34	10.67	-40.5	-43.9	17.6	0.00e+00	0	61	0	299368448	52	5389
2026-01-18 23:49:36.55	157.13	10.59	-40.5	-43.9	17.6	0.00e+00	0	61	0	300417024	52	5375
2026-01-18 23:49:37.56	156.91	10.51	-40.6	-44.0	17.4	0.00e+00	0	61	0	301465600	52	5449
2026-01-18 23:49:38.57	156.70	10.43	-40.6	-44.0	17.4	0.00e+00	0	61	0	302514176	52	5453
2026-01-18 23:49:39.58	156.49	10.35	-40.6	-44.1	17.4	0.00e+00	0	61	0	303562752	52	5477
2026-01-18 23:49:40.59	156.28	10.27	-40.6	-44.1	17.3	0.00e+00	0	61	0	305135616	52	5480
2026-01-18 23:49:41.60	156.07	10.19	-40.7	-44.3	17.2	0.00e+00	0	61	0	306184192	52	5602
2026-01-18 23:49:42.61	155.87	10.11	-40.8	-44.4	17.0	0.00e+00	0	61	0	307232768	52	5697
2026-01-18 23:49:43.62	155.66	10.03	-40.9	-44.5	16.8	0.00e+00	0	61	0	308281344	52	5780
2026-01-18 23:49:44.62	155.46	9.95	-40.9	-44.6	16.8	0.00e+00	0	61	0	309329920	52	5825
2026-01-18 23:49:45.63	155.26	9.87	-40.9	-44.6	16.7	0.00e+00	0	61	0	310378496	52	5816
2026-01-18 23:49:46.64	155.06	9.79	-40.9	-44.6	16.7	0.00e+00	0	61	0	311951360	52	5847
2026-01-18 23:49:47.65	154.86	9.71	-40.9	-44.7	16.6	0.00e+00	0	62	0	312999936	52	5871
2026-01-18 23:49:48.66	154.66	9.63	-41.0	-44.8	16.5	0.00e+00	0	61	0	314048512	52	5954
2026-01-18 23:49:49.67	154.47	9.55	-41.1	-45.0	16.2	0.00e+00	0	61	0	315097088	52	6122
2026-01-18 23:49:50.68	154.27	9.47	-40.9	-44.8	16.5	0.00e+00	0	61	0	316145664	52	5938
2026-01-18 23:49:51.69	154.08	9.39	-40.9	-44.8	16.4	0.00e+00	0	61	0	317194240	52	5944
2026-01-18 23:49:52.70	153.89	9.31	-40.8	-44.5	16.7	0.00e+00	0	61	0	318767104	52	5783
2026-01-18 23:49:53.70	153.70	9.24	-40.8	-44.5	16.6	0.00e+00	0	61	0	319815680	52	5774
2026-01-18 23:49:54.72	153.51	9.16	-40.7	-44.4	16.8	0.00e+00	0	61	0	320864256	52	5687
2026-01-18 23:49:55.73	153.32	9.08	-40.6	-44.3	16.9	0.00e+00	0	61	0	321912832	52	5615
2026-01-18 23:49:56.74	153.14	9.00	-40.6	-44.2	17.0	0.00e+00	0	61	0	322961408	52	5537
2026-01-18 23:49:57.75	152.95	8.92	-40.5	-44.1	17.0	0.00e+00	0	61	0	324009984	52	5520
2026-01-18 23:49:58.76	152.77	8.84	-40.5	-44.1	17.0	0.00e+00	0	61	0	325058560	52	5525
2026-01-18 23:49:59.77	152.59	8.76	-40.6	-44.2	16.9	0.00e+00	0	61	0	326631424	52	5575
2026-01-18 23:50:00.78	152.41	8.69	-40.6	-44.3	16.8	0.00e+00	0	61	0	327680000	52	5640
2026-01-18 23:50:01.78	152.23	8.61	-40.6	-44.4	16.7	0.00e+00	0	61	0	328728576	52	5676
2026-01-18 23:50:02.79	152.05	8.53	-40.7	-44.6	16.5	0.00e+00	0	61	0	329777152	52	5789
2026-01-18 23:50:03.80	151.87	8.46	-40.8	-44.7	16.4	0.00e+00	0	61	0	330825728	52	5863
2026-01-18 23:50:04.81	151.70	8.38	-40.9	-44.9	16.1	0.00e+00	0	61	0	332398592	52	6020
2026-01-18 23:50:05.82	151.52	8.30	-41.1	-45.4	15.6	0.00e+00	0	61	0	333447168	52	6373
2026-01-18 23:50:06.83	151.35	8.23	-41.2	-45.6	15.3	0.00e+00	0	62	0	334495744	52	6524
2026-01-18 23:50:07.84	151.18	8.15	-41.2	-45.7	15.2	0.00e+00	0	61	0	335544320	53	6203
2026-01-18 23:50:08.85	151.01	8.07	-41.2	-45.6	15.2	0.00e+00	0	61	0	336592896	53	6201
2026-01-18 23:50:09.86	150.84	8.00	-43.8	-53.6	7.5	0.00e+00	0	61	0	337641472	58	11611
2026-01-18 23:50:10.87	150.67	7.92	-44.8	-62.3	3.8	4.79e-01	0	61	104	338165760	60	28247
2026-01-18 23:50:11.88	150.51	7.84	-45.1	-63.1	3.8	4.79e-01	0	61	104	338165760	60	31017
2026-01-18 23:50:12.89	150.34	7.77	-45.3	-63.6	3.8	8.47e-01	0	61	104	338165760	61	30803
2026-01-18 23:50:13.90	150.18	7.69	-45.5	-63.7	3.8	8.45e-01	0	61	104	338165760	61	31221
2026-01-18 23:50:14.91	150.01	7.62	-45.6	-63.8	3.8	8.45e-01	0	61	104	338165760	61	31720
2026-01-18 23:50:15.92	149.85	7.54	-45.7	-63.9	3.8	8.47e-01	0	61	104	338165760	61	32118
2026-01-18 23:50:16.93	149.69	7.47	-45.7	-63.9	3.8	8.46e-01	0	61	104	338165760	61	32170
2026-01-18 23:50:17.94	149.53	7.39	-45.7	-63.9	3.8	8.46e-01	0	61	104	338165760	61	32064
2026-01-18 23:50:18.95	149.37	7.32	-45.6	-63.9	3.8	8.45e-01	0	61	104	338165760	61	31886
2026-01-18 23:50:19.96	149.21	7.24	-45.6	-63.7	3.8	8.46e-01	0	61	104	338165760	61	31381
2026-01-18 23:50:20.97	149.06	7.17	-45.5	-63.7	3.8	8.46e-01	0	61	104	338165760	61	31127
2026-01-18 23:50:21.98	148.90	7.09	-45.5	-63.6	3.8	8.46e-01	0	61	104	338165760	61	31008
2026-01-18 23:50:22.99	148.75	7.02	-45.5	-63.6	3.8	8.45e-01	0	61	104	338165760	61	30788
2026-01-18 23:50:24.00	148.60	6.95	-45.4	-63.5	3.8	8.47e-01	0	61	104	338165760	61	30550
2026-01-18 23:50:25.01	148.44	6.87	-45.4	-63.4	3.8	8.47e-01	0	61	104	338165760	61	30375
2026-01-18 23:50:26.02	148.29	6.80	-45.4	-63.5	3.8	8.46e-01	0	61	104	338165760	61	30392
2026-01-18 23:50:27.03	148.14	6.73	-45.4	-63.5	3.8	8.46e-01	0	61	104	338165760	61	30480
2026-01-18 23:50:28.04	147.99	6.65	-45.4	-63.5	3.8	8.46e-01	0	61	104	338165760	61	30395
2026-01-18 23:50:29.05	147.85	6.58	-45.4	-63.4	3.8	8.47e-01	0	62	104	338165760	61	30350
2026-01-18 23:50:30.06	147.70	6.51	-45.4	-63.4	3.8	8.45e-01	0	61	104	338165760	61	30320
2026-01-18 23:50:31.07	147.55	6.43	-45.4	-63.4	3.8	8.45e-01	0	61	104	338165760	61	30371
2026-01-18 23:50:32.08	147.41	6.36	-45.4	-63.5	3.8	8.47e-01	0	61	104	338165760	61	30380
2026-01-18 23:50:33.10	147.26	6.29	-45.4	-63.4	3.8	8.47e-01	0	61	104	338165760	61	30295
2026-01-18 23:50:34.11	147.12	6.22	-45.4	-63.4	3.8	8.47e-01	0	61	104	338165760	61	30339
2026-01-18 23:50:35.12	146.98	6.15	-45.4	-63.4	3.8	8.47e-01	0	61	104	338165760	61	30324
2026-01-18 23:50:36.12	146.84	6.07	-45.4	-63.4	3.8	8.47e-01	0	61	104	338165760	61	30355
2026-01-18 23:50:37.13	146.70	6.00	-45.4	-63.4	3.8	8.46e-01	0	62	104	338165760	61	30294
2026-01-18 23:50:38.14	146.56	5.93	-45.4	-63.4	3.8	8.46e-01	0	61	104	338165760	61	30298
2026-01-18 23:50:39.15	146.43	5.86	-45.3	-63.4	3.8	8.45e-01	0	61	104	338165760	61	30375
2026-01-18 23:50:40.16	146.29	5.79	-45.4	-63.4	3.8	8.45e-01	0	61	104	338165760	61	30219
2026-01-18 23:50:41.17	146.15	5.72	-45.3	-63.4	3.8	8.45e-01	0	61	104	338165760	61	30233
2026-01-18 23:50:42.18	146.02	5.65	-45.3	-63.4	3.8	8.46e-01	0	61	104	338165760	61	30187
2026-01-18 23:50:43.19	145.88	5.58	-45.3	-63.4	3.8	8.47e-01	0	62	104	338165760	61	30232
2026-01-18 23:50:44.21	145.75	5.51	-45.3	-63.4	3.8	8.47e-01	0	61	104	338165760	61	30193
2026-01-18 23:50:45.22	145.62	5.44	-45.3	-63.4	3.8	8.46e-01	0	61	104	338165760	61	30230
2026-01-18 23:50:46.23	145.49	5.37	-45.3	-63.4	3.8	8.46e-01	0	61	104	338165760	61	30278
2026-01-18 23:50:47.24	145.36	5.30	-45.3	-63.4	3.8	8.47e-01	0	61	104	338165760	61	30132
2026-01-18 23:50:48.25	145.23	5.23	-45.3	-63.4	3.8	8.47e-01	0	61	104	338165760	61	30083
2026-01-18 23:50:49.26	145.10	5.16	-45.3	-63.4	3.8	8.47e-01	0	61	104	338165760	61	30150
2026-01-18 23:50:50.27	144.97	5.09	-45.3	-63.4	3.8	8.46e-01	0	61	104	338165760	61	30162
2026-01-18 23:50:51.28	144.84	5.02	-45.3	-63.4	3.8	8.46e-01	0	61	104	338165760	61	30172
2026-01-18 23:50:52.29	144.72	4.95	-45.3	-63.4	3.8	8.46e-01	0	61	104	338165760	61	30216
2026-01-18 23:50:53.30	144.59	4.88	-45.3	-63.4	3.8	8.47e-01	0	61	104	338165760	61	30141
2026-01-18 23:50:54.31	144.47	4.81	-45.3	-63.4	3.8	8.47e-01	0	61	104	338165760	61	30121
2026-01-18 23:50:55.32	144.34	4.74	-45.3	-63.4	3.8	8.47e-01	0	61	104	338165760	61	30174
2026-01-18 23:50:56.33	144.22	4.68	-45.3	-63.4	3.8	8.46e-01	0	61	104	338165760	61	30153
2026-01-18 23:50:57.34	144.10	4.61	-45.3	-63.4	3.8	8.46e-01	0	61	104	338165760	61	30120
2026-01-18 23:50:58.35	143.98	4.54	-45.3	-63.4	3.8	8.46e-01	0	62	104	338165760	61	30163
2026-01-18 23:50:59.36	143.86	4.47	-45.3	-63.4	3.8	8.47e-01	0	62	104	338165760	61	30188
2026-01-18 23:51:00.37	143.74	4.41	-45.3	-63.4	3.8	8.47e-01	0	61	104	338165760	61	30196
2026-01-18 23:51:01.38	143.62	4.34	-45.3	-63.4	3.8	8.47e-01	0	61	104	338165760	61	30093
2026-01-18 23:51:02.40	143.50	4.27	-45.3	-63.4	3.8	8.46e-01	0	61	104	338165760	61	30067
2026-01-18 23:51:03.41	143.39	4.20	-45.3	-63.4	3.8	8.46e-01	0	61	104	338165760	61	30094
2026-01-18 23:51:04.42	143.27	4.14	-45.3	-63.4	3.8	8.46e-01	0	61	104	338165760	61	30153
2026-01-18 23:51:05.43	143.15	4.07	-45.3	-63.4	3.8	8.47e-01	0	62	104	338165760	61	30043
2026-01-18 23:51:06.44	143.04	4.00	-45.3	-63.4	3.8	8.46e-01	0	61	104	338165760	61	30185
2026-01-18 23:51:07.45	142.92	3.94	-45.3	-63.4	3.8	8.46e-01	0	62	104	338165760	61	30073
2026-01-18 23:51:08.46	142.81	3.87	-45.3	-63.4	3.8	8.47e-01	0	62	104	338165760	61	30072
2026-01-18 23:51:09.47	142.70	3.81	-45.3	-63.4	3.8	8.47e-01	0	62	104	338165760	61	30105
2026-01-18 23:51:10.48	142.59	3.74	-45.3	-63.3	3.8	8.47e-01	0	61	104	338165760	61	30012
2026-01-18 23:51:11.49	142.48	3.67	-45.3	-63.4	3.8	8.47e-01	0	61	104	338165760	61	30114
2026-01-18 23:51:12.50	142.37	3.61	-45.3	-63.4	3.8	8.46e-01	0	61	104	338165760	61	30039
2026-01-18 23:51:13.51	142.26	3.54	-45.3	-63.4	3.8	8.46e-01	0	61	104	338165760	61	30136
2026-01-18 23:51:14.52	142.15	3.48	-45.3	-63.3	3.8	8.46e-01	0	61	104	338165760	61	29962
2026-01-18 23:51:15.53	142.04	3.41	-45.3	-63.3	3.8	8.47e-01	0	61	104	338165760	61	29962
2026-01-18 23:51:16.54	141.93	3.35	-45.3	-63.4	3.8	8.45e-01	0	61	104	338165760	61	30070
2026-01-18 23:51:17.55	141.82	3.28	-45.3	-63.4	3.8	8.45e-01	0	61	104	338165760	61	30038
2026-01-18 23:51:18.57	141.72	3.22	-45.3	-63.4	3.8	8.45e-01	0	61	104	338165760	61	30073
2026-01-18 23:51:19.58	141.61	3.15	-45.3	-63.4	3.8	8.46e-01	0	61	104	338165760	61	30082
2026-01-18 23:51:20.59	141.51	3.09	-45.3	-63.4	3.8	8.46e-01	0	61	104	338165760	61	30153
2026-01-18 23:51:21.60	141.40	3.03	-45.3	-63.4	3.8	8.45e-01	0	61	104	338165760	61	30033
2026-01-18 23:51:22.61	141.30	2.96	-45.3	-63.4	3.8	8.46e-01	0	61	104	338165760	61	30056
2026-01-18 23:51:23.62	141.20	2.90	-45.3	-63.4	3.8	8.46e-01	0	61	104	338165760	61	30090
2026-01-18 23:51:24.63	141.09	2.83	-45.3	-63.4	3.8	8.47e-01	0	61	104	338165760	61	30067
2026-01-18 23:51:25.64	140.99	2.77	-45.3	-63.4	3.8	8.47e-01	0	61	104	338165760	61	30037
2026-01-18 23:51:26.65	140.89	2.71	-45.3	-63.3	3.8	8.45e-01	0	62	104	338165760	61	29993
2026-01-18 23:51:27.66	140.79	2.64	-45.3	-63.3	3.8	8.45e-01	0	62	104	338165760	61	30026
2026-01-18 23:51:28.67	140.69	2.58	-45.3	-63.3	3.8	8.47e-01	0	61	104	338165760	61	30030
2026-01-18 23:51:29.68	140.59	2.52	-45.3	-63.4	3.8	8.46e-01	0	61	104	338165760	61	30052
2026-01-18 23:51:30.69	140.49	2.46	-45.3	-63.3	3.8	8.46e-01	0	61	104	338165760	61	29997
2026-01-18 23:51:31.70	140.40	2.39	-45.3	-63.3	3.8	8.47e-01	0	62	104	338165760	61	30008
2026-01-18 23:51:32.71	140.30	2.33	-45.3	-63.3	3.8	8.46e-01	0	61	104	338165760	61	30019
2026-01-18 23:51:33.72	140.20	2.27	-45.3	-63.4	3.8	8.46e-01	0	61	104	338165760	61	30077
2026-01-18 23:51:34.73	140.11	2.21	-45.3	-63.4	3.8	8.46e-01	0	61	104	338165760	61	30082
2026-01-18 23:51:35.74	140.01	2.14	-45.3	-63.3	3.8	8.47e-01	0	61	104	338165760	61	30030
2026-01-18 23:51:36.76	139.92	2.08	-45.3	-63.3	3.8	8.47e-01	0	61	104	338165760	61	30002
2026-01-18 23:51:37.77	139.82	2.02	-45.3	-63.3	3.8	8.47e-01	0	61	104	338165760	61	30012
2026-01-18 23:51:38.78	139.73	1.96	-45.3	-63.4	3.8	8.46e-01	0	61	104	338165760	61	30032

#Closed at: 2026-01-18 23:51:39
#Recorded file [338 MB]: D:/lorett/data/31039_260119_024425.dat