passes_logs/2026/01/18/R2.0S_Moscow/R2.0S_Moscow__20260118_110749_FENGYUN_3D_rec.log

#Pass ID: 20260118_110749_FENGYUN 3D
#Satellite: FENGYUN 3D
#Configuration: FENGYUN 3D
#almurnet v.1.7.20251203
#Start time: 2026-01-18 11:07:49

#Version: 2.2.20231116
#Station: R2.0S_Moscow
#Location: 37.707566 lon 55.798166 lat
#TLE: 1 43010U 17072A   26017.25882587  .00000461  00000+0  23963-3 0  9992
#TLE: 2 43010  98.9934 349.1096 0002357 104.0487 256.0951 14.19697152423579

#Time	Az	El	Level	Level2	SNR	BER	BlckErr	Temp	State	Recorded	gain1	gain2
2026-01-18 11:07:49.56	135.98	2.01	-17.8	-27.1	3.8	8.31e-01	0	51	0	0	1	14641
2026-01-18 11:07:50.56	135.95	2.08	-12.1	-29.8	3.4	8.36e-01	0	52	104	0	0	21034
2026-01-18 11:07:51.57	135.91	2.14	-11.7	-29.7	3.7	8.33e-01	0	52	104	0	0	20974
2026-01-18 11:07:52.58	135.88	2.20	-10.5	-29.8	3.5	8.37e-01	0	52	104	0	0	21184
2026-01-18 11:07:53.60	135.84	2.27	-10.4	-30.5	3.8	8.37e-01	0	52	104	0	0	22899
2026-01-18 11:07:54.61	135.81	2.33	-9.0	-31.6	3.3	8.40e-01	0	52	104	0	0	26141
2026-01-18 11:07:55.62	135.77	2.39	-13.3	-29.5	3.9	8.35e-01	0	52	104	0	1	19318
2026-01-18 11:07:56.63	135.74	2.46	-13.8	-33.8	3.5	8.23e-01	0	52	104	0	0	33368
2026-01-18 11:07:57.64	135.70	2.52	-20.6	-33.9	3.5	8.26e-01	0	52	104	0	0	33802
2026-01-18 11:07:58.65	135.67	2.59	-14.4	-31.7	3.7	8.24e-01	0	52	104	0	0	26286
2026-01-18 11:07:59.66	135.63	2.65	-10.3	-32.6	3.8	8.20e-01	0	52	104	0	0	29336
2026-01-18 11:08:00.67	135.60	2.71	-19.8	-30.5	3.8	8.18e-01	0	52	104	0	5	17191
2026-01-18 11:08:01.68	135.56	2.78	-20.6	-30.9	3.7	8.25e-01	0	52	104	0	3	20190
2026-01-18 11:08:02.69	135.52	2.84	-21.4	-34.2	3.5	7.96e-01	0	52	104	0	12	17549
2026-01-18 11:08:03.70	135.49	2.91	-13.3	-33.3	3.6	8.28e-01	0	52	104	0	0	31660
2026-01-18 11:08:04.72	135.45	2.97	-23.0	-35.9	3.4	7.91e-01	0	53	104	0	18	15201
2026-01-18 11:08:05.73	135.41	3.04	-14.7	-30.7	3.8	8.18e-01	0	53	104	0	0	23368
2026-01-18 11:08:06.74	135.38	3.11	-14.7	-32.9	3.6	8.37e-01	0	53	104	0	0	30304
2026-01-18 11:08:07.75	135.34	3.17	-12.3	-31.7	3.6	8.36e-01	0	53	104	0	1	24718
2026-01-18 11:08:08.76	135.30	3.24	-13.1	-32.8	3.6	8.21e-01	0	53	104	0	0	29983
2026-01-18 11:08:09.77	135.27	3.30	-12.1	-32.2	3.5	8.27e-01	0	53	104	0	0	27825
2026-01-18 11:08:10.78	135.23	3.37	-13.8	-31.1	3.7	8.19e-01	0	53	104	0	0	24545
2026-01-18 11:08:11.79	135.19	3.43	-15.1	-30.2	3.6	8.18e-01	0	53	104	0	2	19693
2026-01-18 11:08:12.80	135.15	3.50	-21.2	-33.0	3.4	8.09e-01	0	53	104	0	10	17098
2026-01-18 11:08:13.81	135.12	3.57	-21.0	-33.2	3.4	7.88e-01	0	54	104	0	8	19723
2026-01-18 11:08:14.82	135.08	3.63	-20.7	-30.1	3.6	8.32e-01	0	53	104	0	6	15427
2026-01-18 11:08:15.84	135.04	3.70	-22.7	-35.4	3.3	7.98e-01	0	53	104	0	10	22778
2026-01-18 11:08:16.85	135.00	3.77	-22.2	-34.6	3.3	7.98e-01	0	53	104	0	14	16321
2026-01-18 11:08:17.86	134.96	3.83	-14.6	-31.1	3.6	7.93e-01	0	54	104	0	4	19524
2026-01-18 11:08:18.87	134.92	3.90	-20.8	-32.7	3.4	7.88e-01	0	54	104	0	8	18550
2026-01-18 11:08:19.88	134.88	3.97	-13.8	-28.2	3.5	7.98e-01	0	54	104	0	6	12439
2026-01-18 11:08:20.89	134.84	4.03	-20.4	-31.8	3.7	8.19e-01	0	54	104	0	11	14198
2026-01-18 11:08:21.90	134.80	4.10	-19.1	-34.6	3.3	7.81e-01	0	54	104	0	10	20600
2026-01-18 11:08:22.91	134.76	4.17	-23.3	-34.3	3.4	7.97e-01	0	54	104	0	13	16753
2026-01-18 11:08:23.92	134.72	4.24	-24.1	-34.6	3.6	7.88e-01	0	54	104	0	13	17405
2026-01-18 11:08:24.93	134.68	4.31	-19.9	-34.6	3.6	7.86e-01	0	54	104	0	14	16385
2026-01-18 11:08:25.94	134.64	4.37	-23.5	-36.9	3.6	8.13e-01	0	54	104	0	14	21416
2026-01-18 11:08:26.95	134.60	4.44	-18.5	-31.3	3.5	8.06e-01	0	54	104	0	9	14897
2026-01-18 11:08:27.96	134.56	4.51	-13.7	-32.9	3.7	8.23e-01	0	54	104	0	1	28587
2026-01-18 11:08:28.97	134.52	4.58	-23.9	-35.8	3.7	7.88e-01	0	54	104	0	13	19909
2026-01-18 11:08:29.99	134.48	4.65	-16.8	-31.0	3.3	8.08e-01	0	54	104	0	3	20469
2026-01-18 11:08:31.00	134.44	4.72	-10.6	-33.5	3.6	8.20e-01	0	54	104	0	0	32314
2026-01-18 11:08:32.01	134.40	4.79	-13.0	-32.3	3.7	8.20e-01	0	54	104	0	0	28112
2026-01-18 11:08:33.02	134.36	4.86	-13.5	-29.7	3.9	8.31e-01	0	54	104	0	1	19645
2026-01-18 11:08:34.03	134.31	4.93	-13.2	-31.9	3.8	8.27e-01	0	54	104	0	0	26974
2026-01-18 11:08:35.04	134.27	5.00	-13.1	-31.6	3.6	8.31e-01	0	54	104	0	0	25938
2026-01-18 11:08:36.05	134.23	5.07	-13.8	-31.9	3.5	8.27e-01	0	55	104	0	0	26859
2026-01-18 11:08:37.06	134.19	5.14	-23.9	-31.9	4.0	8.25e-01	0	55	104	0	5	20156
2026-01-18 11:08:38.08	134.14	5.21	-21.6	-34.3	3.4	7.93e-01	0	55	104	0	10	19945
2026-01-18 11:08:39.09	134.10	5.28	-20.8	-34.0	3.3	7.98e-01	0	55	104	0	8	21516
2026-01-18 11:08:40.10	134.06	5.35	-22.4	-35.6	3.4	7.99e-01	0	55	104	0	10	23285
2026-01-18 11:08:41.11	134.01	5.42	-23.4	-36.5	3.5	7.76e-01	0	55	104	0	15	19239
2026-01-18 11:08:42.12	133.97	5.49	-19.2	-33.7	3.5	7.83e-01	0	55	104	0	11	17611
2026-01-18 11:08:43.13	133.93	5.56	-14.2	-26.2	3.8	7.93e-01	0	55	104	0	0	13977
2026-01-18 11:08:44.14	133.88	5.63	-23.6	-36.0	3.4	7.82e-01	0	55	104	0	14	19373
2026-01-18 11:08:45.15	133.84	5.70	-19.7	-32.2	3.4	7.85e-01	0	55	104	0	8	17618
2026-01-18 11:08:46.16	133.79	5.77	-25.0	-36.3	3.4	7.96e-01	0	55	104	0	16	17771
2026-01-18 11:08:47.17	133.75	5.84	-12.1	-29.7	3.6	7.89e-01	0	55	104	0	1	19765
2026-01-18 11:08:48.18	133.70	5.92	-12.7	-32.2	3.6	8.17e-01	0	55	104	0	1	26193
2026-01-18 11:08:49.19	133.66	5.99	-15.9	-28.1	3.8	8.17e-01	0	55	104	0	1	16464
2026-01-18 11:08:50.20	133.61	6.06	-20.6	-31.6	3.6	8.26e-01	0	55	104	0	10	14646
2026-01-18 11:08:51.21	133.57	6.13	-17.2	-29.8	3.6	8.05e-01	0	55	104	0	9	12556
2026-01-18 11:08:52.22	133.52	6.21	-22.0	-34.1	3.6	7.92e-01	0	55	104	0	12	17388
2026-01-18 11:08:53.23	133.47	6.28	-22.0	-32.2	3.3	7.91e-01	0	55	104	0	13	13231
2026-01-18 11:08:54.25	133.43	6.35	-19.3	-32.8	3.5	7.96e-01	0	55	104	0	12	14883
2026-01-18 11:08:55.26	133.38	6.43	-20.3	-30.3	3.6	7.94e-01	0	56	104	0	12	11245
2026-01-18 11:08:56.27	133.33	6.50	-20.6	-32.2	3.8	7.99e-01	0	56	104	0	11	14799
2026-01-18 11:08:57.28	133.29	6.57	-21.2	-32.5	3.5	7.95e-01	0	56	104	0	11	15241
2026-01-18 11:08:58.29	133.24	6.65	-22.0	-33.5	3.5	8.01e-01	0	56	104	0	12	16197
2026-01-18 11:08:59.30	133.19	6.72	-19.8	-32.5	3.9	7.92e-01	0	55	104	0	12	14391
2026-01-18 11:09:00.31	133.14	6.79	-12.6	-28.0	3.8	7.94e-01	0	56	104	0	7	11544
2026-01-18 11:09:01.32	133.09	6.87	-17.5	-30.8	3.6	8.09e-01	0	56	104	0	9	14121
2026-01-18 11:09:02.33	133.05	6.94	-17.5	-28.9	3.6	8.07e-01	0	56	104	0	5	14288
2026-01-18 11:09:03.34	133.00	7.02	-19.5	-31.2	3.6	8.02e-01	0	56	104	0	11	13241
2026-01-18 11:09:04.35	132.95	7.09	-19.5	-30.2	3.7	8.00e-01	0	56	104	0	9	13191
2026-01-18 11:09:05.36	132.90	7.17	-20.8	-33.6	3.5	7.88e-01	0	56	104	0	13	15573
2026-01-18 11:09:06.37	132.85	7.24	-22.7	-33.5	3.4	8.02e-01	0	56	104	0	8	20367
2026-01-18 11:09:07.38	132.80	7.32	-22.8	-35.7	3.2	7.90e-01	0	56	104	0	12	21009
2026-01-18 11:09:08.39	132.75	7.39	-22.9	-33.9	3.5	8.02e-01	0	56	104	0	11	18092
2026-01-18 11:09:09.40	132.70	7.47	-19.8	-34.9	3.3	8.11e-01	0	56	104	0	9	22580
2026-01-18 11:09:10.41	132.65	7.55	-12.2	-30.1	3.5	7.95e-01	0	56	104	0	0	21973
2026-01-18 11:09:11.43	132.60	7.62	-17.5	-29.3	3.5	8.02e-01	0	56	104	0	11	10554
2026-01-18 11:09:12.44	132.55	7.70	-13.2	-26.9	3.8	7.91e-01	0	56	104	0	4	12069
2026-01-18 11:09:13.45	132.49	7.78	-14.6	-29.7	3.7	8.10e-01	0	56	104	0	3	17678
2026-01-18 11:09:14.46	132.44	7.85	-14.1	-23.4	3.8	8.25e-01	0	56	104	0	1	9585
2026-01-18 11:09:15.47	132.39	7.93	-21.2	-33.4	3.5	8.11e-01	0	57	104	0	10	17911
2026-01-18 11:09:16.48	132.34	8.01	-11.7	-26.8	3.9	8.25e-01	0	56	104	0	0	14974
2026-01-18 11:09:17.49	132.28	8.09	-12.7	-29.7	3.8	8.23e-01	0	57	104	0	0	20785
2026-01-18 11:09:18.50	132.23	8.16	-14.5	-25.3	4.1	8.24e-01	0	56	104	0	0	12526
2026-01-18 11:09:19.51	132.18	8.24	-15.4	-27.1	3.7	8.23e-01	0	56	104	0	1	14565
2026-01-18 11:09:20.52	132.12	8.32	-11.0	-30.0	3.6	8.28e-01	0	57	104	0	0	21661
2026-01-18 11:09:21.53	132.07	8.40	-12.5	-30.8	3.8	8.22e-01	0	57	104	0	0	23800
2026-01-18 11:09:22.54	132.02	8.48	-19.9	-32.3	3.5	7.94e-01	0	57	104	0	11	14910
2026-01-18 11:09:23.55	131.96	8.56	-17.9	-31.0	3.7	7.97e-01	0	57	104	0	11	12919
2026-01-18 11:09:24.56	131.91	8.64	-19.1	-28.5	3.7	8.20e-01	0	57	104	0	6	12873
2026-01-18 11:09:25.57	131.85	8.72	-20.1	-33.8	3.3	8.03e-01	0	57	104	0	9	20057
2026-01-18 11:09:26.58	131.80	8.79	-13.8	-28.9	3.4	8.04e-01	0	57	104	0	7	12769
2026-01-18 11:09:27.59	131.74	8.87	-19.9	-31.9	3.4	7.96e-01	0	57	104	0	8	16941
2026-01-18 11:09:28.60	131.68	8.95	-19.8	-31.9	3.7	8.12e-01	0	57	0	0	6	19059
2026-01-18 11:09:29.60	131.63	9.03	-23.1	-33.9	3.4	8.19e-01	0	57	104	0	8	21307
2026-01-18 11:09:30.61	131.57	9.11	-15.2	-30.2	3.6	8.02e-01	0	57	104	0	2	19656
2026-01-18 11:09:31.62	131.52	9.20	-21.3	-33.2	3.4	8.04e-01	0	57	104	0	12	15664
2026-01-18 11:09:32.63	131.46	9.28	-19.1	-31.2	3.6	8.05e-01	0	57	104	0	11	13254
2026-01-18 11:09:33.64	131.40	9.36	-20.9	-32.5	3.4	8.00e-01	0	57	104	0	12	14525
2026-01-18 11:09:34.65	131.34	9.44	-20.1	-33.2	3.5	7.89e-01	0	57	104	0	12	15751
2026-01-18 11:09:35.66	131.28	9.52	-20.6	-33.3	3.5	7.89e-01	0	57	104	0	13	14986
2026-01-18 11:09:36.67	131.23	9.60	-15.3	-35.2	3.5	7.99e-01	0	57	104	0	13	18553
2026-01-18 11:09:37.68	131.17	9.68	-13.6	-32.1	3.6	8.12e-01	0	57	104	0	0	27684
2026-01-18 11:09:38.69	131.11	9.77	-18.4	-29.5	3.4	7.81e-01	0	57	104	0	10	11485
2026-01-18 11:09:39.69	131.05	9.85	-21.8	-33.5	3.7	7.78e-01	0	57	104	0	15	13652
2026-01-18 11:09:40.70	130.99	9.93	-23.5	-38.2	3.4	8.05e-01	0	57	104	0	17	20825
2026-01-18 11:09:41.72	130.93	10.02	-21.4	-36.6	3.7	7.77e-01	0	57	104	0	15	19460
2026-01-18 11:09:42.73	130.87	10.10	-22.3	-37.1	3.6	7.94e-01	0	57	104	0	16	19416
2026-01-18 11:09:43.73	130.80	10.18	-20.8	-33.9	3.6	8.05e-01	0	58	104	0	11	17955
2026-01-18 11:09:44.74	130.74	10.27	-21.8	-34.1	3.7	7.98e-01	0	57	104	0	12	17331
2026-01-18 11:09:45.76	130.68	10.35	-21.7	-33.2	3.8	7.82e-01	0	57	0	0	17	11801
2026-01-18 11:09:46.77	130.62	10.44	-24.7	-37.3	3.5	8.13e-01	0	58	104	0	17	18771
2026-01-18 11:09:47.78	130.56	10.52	-25.2	-38.1	3.3	7.75e-01	0	57	104	0	16	21975
2026-01-18 11:09:48.78	130.49	10.60	-20.0	-29.8	3.8	8.03e-01	0	58	104	0	11	11177
2026-01-18 11:09:49.79	130.43	10.69	-23.4	-35.8	3.9	8.06e-01	0	58	104	0	17	15901
2026-01-18 11:09:50.80	130.37	10.77	-23.9	-37.9	3.7	8.14e-01	0	58	104	0	17	20089
2026-01-18 11:09:51.81	130.30	10.86	-22.6	-35.1	4.5	8.22e-01	0	57	104	0	17	14555
2026-01-18 11:09:52.82	130.24	10.95	-25.4	-37.3	3.8	8.23e-01	0	58	104	0	19	16840
2026-01-18 11:09:53.83	130.17	11.03	-22.0	-35.5	4.0	8.21e-01	0	58	104	0	16	16215
2026-01-18 11:09:54.84	130.11	11.12	-22.6	-34.7	4.0	7.99e-01	0	58	104	0	14	16651
2026-01-18 11:09:55.85	130.04	11.21	-21.7	-33.7	3.9	8.20e-01	0	58	104	0	15	14029
2026-01-18 11:09:56.86	129.97	11.29	-18.6	-28.6	3.8	8.13e-01	0	58	104	0	6	13057
2026-01-18 11:09:57.86	129.91	11.38	-24.5	-36.9	3.8	8.12e-01	0	58	104	0	17	18010
2026-01-18 11:09:58.87	129.84	11.47	-22.7	-34.4	3.5	8.02e-01	0	58	104	0	13	17020
2026-01-18 11:09:59.88	129.77	11.56	-23.1	-38.2	4.3	8.25e-01	0	58	104	0	22	15719
2026-01-18 11:10:00.89	129.71	11.64	-24.1	-37.6	4.1	8.11e-01	0	58	104	0	24	13069
2026-01-18 11:10:01.91	129.64	11.73	-20.8	-32.7	4.0	8.21e-01	0	58	104	0	13	14007
2026-01-18 11:10:02.92	129.57	11.82	-19.5	-30.5	3.7	8.24e-01	0	58	104	0	9	13586
2026-01-18 11:10:03.93	129.50	11.91	-21.6	-35.6	3.9	8.25e-01	0	58	104	0	13	19489
2026-01-18 11:10:04.93	129.43	12.00	-23.1	-35.2	4.0	8.20e-01	0	58	104	0	15	16525
2026-01-18 11:10:05.94	129.36	12.09	-24.4	-36.7	4.8	8.22e-01	0	58	104	0	18	16665
2026-01-18 11:10:06.95	129.29	12.18	-21.6	-34.5	4.4	8.17e-01	0	58	104	0	16	14517
2026-01-18 11:10:07.97	129.22	12.27	-26.6	-41.2	4.1	8.25e-01	0	58	104	0	27	16530
2026-01-18 11:10:08.98	129.15	12.36	-33.0	-45.8	4.5	8.27e-01	0	58	104	0	32	21100
2026-01-18 11:10:09.99	129.08	12.45	-22.6	-35.1	4.3	8.14e-01	0	58	104	0	19	13010
2026-01-18 11:10:11.00	129.00	12.54	-23.2	-37.2	3.8	8.12e-01	0	58	104	0	18	17497
2026-01-18 11:10:12.01	128.93	12.63	-22.9	-39.2	4.2	8.13e-01	0	58	104	0	18	22261
2026-01-18 11:10:13.01	128.86	12.72	-22.5	-36.9	3.7	8.14e-01	0	58	104	0	20	15083
2026-01-18 11:10:14.02	128.78	12.82	-25.3	-39.8	4.4	8.19e-01	0	58	104	0	24	16748
2026-01-18 11:10:15.03	128.71	12.91	-25.4	-39.9	4.5	8.18e-01	0	58	104	0	21	20296
2026-01-18 11:10:16.04	128.64	13.00	-37.3	-48.0	4.1	8.12e-01	0	58	104	0	41	16171
2026-01-18 11:10:17.05	128.56	13.09	-32.7	-45.5	4.7	8.26e-01	0	58	104	0	26	28895
2026-01-18 11:10:18.06	128.49	13.19	-26.1	-41.1	4.2	8.04e-01	0	58	104	0	21	23198
2026-01-18 11:10:19.07	128.41	13.28	-29.7	-41.6	4.7	8.20e-01	0	59	104	0	25	19462
2026-01-18 11:10:20.08	128.33	13.37	-22.5	-38.1	4.2	8.25e-01	0	58	104	0	20	17395
2026-01-18 11:10:21.09	128.26	13.47	-21.5	-36.1	3.8	8.24e-01	0	58	104	0	21	13006
2026-01-18 11:10:22.10	128.18	13.56	-26.5	-41.6	4.7	8.22e-01	0	58	104	0	29	15482
2026-01-18 11:10:23.11	128.10	13.66	-21.3	-34.5	4.1	8.23e-01	0	58	104	0	20	11420
2026-01-18 11:10:24.12	128.02	13.75	-37.0	-48.4	4.3	8.32e-01	0	58	104	0	47	12080
2026-01-18 11:10:25.13	127.94	13.85	-31.4	-42.7	4.4	8.30e-01	0	58	104	0	35	12409
2026-01-18 11:10:26.14	127.86	13.94	-29.3	-43.1	4.2	8.08e-01	0	58	104	0	25	23277
2026-01-18 11:10:27.15	127.78	14.04	-25.5	-37.9	4.3	8.19e-01	0	58	104	0	31	9001
2026-01-18 11:10:28.16	127.70	14.13	-26.5	-39.8	4.1	8.03e-01	0	59	104	0	21	19981
2026-01-18 11:10:29.17	127.62	14.23	-26.4	-38.0	3.7	8.18e-01	0	59	104	0	16	21622
2026-01-18 11:10:30.18	127.54	14.33	-25.7	-41.9	3.8	8.11e-01	0	59	104	0	25	20291
2026-01-18 11:10:31.19	127.46	14.42	-35.1	-41.1	5.2	8.10e-01	0	59	104	0	37	9200
2026-01-18 11:10:32.20	127.37	14.52	-43.5	-51.3	4.5	8.20e-01	0	58	0	0	57	9442
2026-01-18 11:10:33.21	127.29	14.62	-42.7	-48.1	6.2	8.05e-01	0	58	0	0	55	7293
2026-01-18 11:10:34.22	127.21	14.72	-32.7	-46.7	4.6	8.24e-01	0	58	104	3145728	46	10429
2026-01-18 11:10:35.23	127.12	14.82	-22.6	-35.5	3.8	7.07e-01	0	58	104	3145728	19	13625
2026-01-18 11:10:36.24	127.04	14.92	-25.8	-39.0	4.5	8.29e-01	0	59	104	3145728	27	12905
2026-01-18 11:10:37.25	126.95	15.02	-25.4	-39.0	4.1	8.34e-01	0	59	104	3145728	23	16263
2026-01-18 11:10:38.25	126.86	15.11	-31.0	-44.1	4.7	8.35e-01	0	58	104	3145728	37	13094
2026-01-18 11:10:39.26	126.78	15.21	-35.8	-43.4	4.9	8.36e-01	0	59	104	3145728	44	8012
2026-01-18 11:10:40.27	126.69	15.31	-43.5	-50.6	4.9	4.31e-01	0	59	0	3145728	57	8745
2026-01-18 11:10:41.28	126.60	15.41	-42.6	-48.5	6.1	7.86e-01	0	59	0	4194304	56	7235
2026-01-18 11:10:42.29	126.51	15.52	-38.0	-42.0	7.9	4.09e-01	0	59	0	7340032	41	8088
2026-01-18 11:10:43.30	126.42	15.62	-37.9	-40.5	12.4	9.36e-03	0	59	0	12582912	46	5147
2026-01-18 11:10:44.31	126.33	15.72	-37.3	-40.4	11.3	1.43e-02	0	59	0	17825792	44	5688
2026-01-18 11:10:45.32	126.24	15.82	-38.2	-40.5	11.7	3.90e-03	0	59	0	24117248	46	5129
2026-01-18 11:10:46.33	126.15	15.92	-37.5	-40.5	12.4	4.89e-03	0	59	0	29360128	46	5110
2026-01-18 11:10:47.34	126.06	16.03	-38.0	-40.5	13.4	2.54e-02	0	59	0	35651584	46	5155
2026-01-18 11:10:48.34	125.97	16.13	-38.4	-40.6	13.7	3.28e-03	0	59	0	40894464	47	4898
2026-01-18 11:10:49.35	125.87	16.23	-38.4	-40.7	13.8	4.91e-03	0	59	0	46137344	47	4933
2026-01-18 11:10:50.37	125.78	16.34	-38.1	-40.5	14.0	8.17e-04	0	59	0	52428800	47	4858
2026-01-18 11:10:51.38	125.68	16.44	-37.6	-40.4	13.2	7.52e-04	0	59	0	57671680	46	5051
2026-01-18 11:10:52.39	125.59	16.54	-38.1	-40.3	14.5	1.60e-04	0	59	0	63963136	46	5012
2026-01-18 11:10:53.40	125.49	16.65	-38.1	-40.3	14.5	2.55e-04	0	59	0	69206016	46	5016
2026-01-18 11:10:54.39	125.40	16.75	-38.1	-40.3	14.6	1.99e-04	0	59	0	75497472	47	4708
2026-01-18 11:10:55.40	125.30	16.86	-38.1	-40.2	14.5	5.56e-04	0	59	0	80740352	46	4972
2026-01-18 11:10:56.41	125.20	16.96	-38.0	-40.1	14.7	1.06e-03	0	59	0	87031808	46	4888
2026-01-18 11:10:57.42	125.10	17.07	-38.0	-40.1	14.8	6.46e-04	0	59	0	92274688	46	4874
2026-01-18 11:10:58.43	125.01	17.18	-37.8	-39.8	14.9	1.10e-06	0	59	0	97517568	46	4758
2026-01-18 11:10:59.44	124.91	17.28	-37.9	-39.9	15.0	7.09e-05	0	59	0	103809024	46	4789
2026-01-18 11:11:00.45	124.80	17.39	-37.9	-40.0	14.7	1.83e-05	0	59	0	109051904	46	4837
2026-01-18 11:11:01.46	124.70	17.50	-37.9	-39.9	15.0	9.10e-06	0	59	0	115343360	46	4783
2026-01-18 11:11:02.47	124.60	17.61	-37.9	-39.9	15.0	3.40e-06	0	59	0	120586240	46	4801
2026-01-18 11:11:03.48	124.50	17.72	-37.7	-39.8	15.0	4.23e-05	0	59	0	125829120	46	4749
2026-01-18 11:11:04.49	124.39	17.83	-37.7	-39.9	14.9	8.12e-05	0	59	0	132120576	46	4762
2026-01-18 11:11:05.50	124.29	17.94	-37.9	-39.9	15.0	1.23e-03	0	59	0	137363456	46	4779
2026-01-18 11:11:06.51	124.18	18.05	-37.8	-39.8	15.1	2.33e-04	0	59	0	143654912	46	4732
2026-01-18 11:11:07.52	124.08	18.16	-37.7	-39.6	15.2	6.59e-04	0	59	0	148897792	46	4642
2026-01-18 11:11:08.53	123.97	18.27	-37.7	-39.6	15.3	5.72e-05	0	59	0	154140672	46	4638
2026-01-18 11:11:09.54	123.86	18.38	-37.7	-39.6	15.2	2.22e-04	0	59	0	160432128	45	4903
2026-01-18 11:11:10.55	123.75	18.49	-37.7	-39.7	15.3	2.70e-04	0	59	0	165675008	45	4931
2026-01-18 11:11:11.56	123.64	18.60	-37.6	-39.6	15.3	2.66e-04	0	60	0	171966464	46	4634
2026-01-18 11:11:12.57	123.53	18.71	-37.4	-39.5	15.4	4.57e-05	0	59	0	177209344	46	4566
2026-01-18 11:11:13.58	123.42	18.83	-37.6	-39.5	15.5	5.60e-04	0	59	0	183500800	45	4836
2026-01-18 11:11:14.59	123.31	18.94	-37.6	-39.5	15.4	7.55e-05	0	59	0	188743680	45	4849
2026-01-18 11:11:15.60	123.20	19.05	-37.6	-39.5	15.5	5.03e-05	0	59	0	193986560	45	4866
2026-01-18 11:11:16.61	123.08	19.17	-37.6	-39.5	15.4	9.49e-05	0	59	0	200278016	45	4838
2026-01-18 11:11:17.62	122.97	19.28	-37.7	-39.6	15.3	1.25e-05	0	59	0	205520896	45	4897
2026-01-18 11:11:18.63	122.85	19.39	-37.5	-39.5	15.5	1.10e-06	0	59	0	211812352	45	4832
2026-01-18 11:11:19.64	122.74	19.51	-37.6	-39.5	15.4	3.43e-05	0	59	0	217055232	45	4832
2026-01-18 11:11:20.65	122.62	19.62	-37.5	-39.5	15.5	4.80e-05	0	59	0	222298112	45	4817
2026-01-18 11:11:21.65	122.50	19.74	-37.6	-39.5	15.5	2.20e-06	0	59	0	228589568	45	4865
2026-01-18 11:11:22.67	122.38	19.86	-37.5	-39.4	15.6	4.50e-06	0	60	0	233832448	45	4770
2026-01-18 11:11:23.68	122.26	19.97	-37.6	-39.5	15.4	1.10e-06	0	59	0	240123904	45	4829
2026-01-18 11:11:24.68	122.14	20.09	-37.5	-39.4	15.6	0.00e+00	0	60	0	245366784	45	4767
2026-01-18 11:11:25.69	122.02	20.21	-37.5	-39.3	15.6	0.00e+00	0	59	0	250609664	45	4759
2026-01-18 11:11:26.70	121.90	20.32	-37.3	-39.1	15.9	0.00e+00	0	59	0	256901120	45	4622
2026-01-18 11:11:27.71	121.78	20.44	-37.3	-39.2	15.9	0.00e+00	0	59	0	262144000	45	4653
2026-01-18 11:11:28.72	121.65	20.56	-37.3	-39.0	16.0	0.00e+00	0	60	0	268435456	45	4593
2026-01-18 11:11:29.73	121.52	20.68	-37.3	-39.1	16.0	0.00e+00	0	59	0	273678336	45	4617
2026-01-18 11:11:30.74	121.40	20.80	-37.1	-38.9	16.2	0.00e+00	0	60	0	279969792	45	4518
2026-01-18 11:11:31.75	121.27	20.92	-37.2	-38.9	16.1	0.00e+00	0	59	0	285212672	45	4543
2026-01-18 11:11:32.76	121.14	21.04	-37.2	-39.0	16.1	0.00e+00	0	59	0	291504128	45	4579
2026-01-18 11:11:33.77	121.01	21.16	-37.2	-39.0	16.1	0.00e+00	0	60	0	296747008	45	4552
2026-01-18 11:11:34.78	120.88	21.28	-37.3	-39.1	16.0	0.00e+00	0	60	0	301989888	45	4640
2026-01-18 11:11:35.79	120.75	21.40	-37.3	-39.1	16.0	0.00e+00	0	59	0	308281344	45	4637
2026-01-18 11:11:36.80	120.62	21.53	-37.2	-39.0	16.1	0.00e+00	0	59	0	313524224	45	4592
2026-01-18 11:11:37.81	120.48	21.65	-37.2	-39.0	16.1	0.00e+00	0	59	0	319815680	45	4571
2026-01-18 11:11:38.82	120.35	21.77	-37.2	-38.9	16.1	0.00e+00	0	60	0	325058560	45	4538
2026-01-18 11:11:39.83	120.21	21.89	-37.2	-38.9	16.2	0.00e+00	0	60	0	330301440	45	4534
2026-01-18 11:11:40.84	120.07	22.02	-37.1	-38.9	16.3	0.00e+00	0	59	0	336592896	45	4500
2026-01-18 11:11:41.85	119.94	22.14	-36.9	-38.6	16.5	0.00e+00	0	60	0	341835776	45	4389
2026-01-18 11:11:42.85	119.80	22.27	-36.9	-38.6	16.5	0.00e+00	0	59	0	348127232	45	4346
2026-01-18 11:11:43.86	119.66	22.39	-37.0	-38.7	16.4	0.00e+00	0	60	0	353370112	45	4399
2026-01-18 11:11:44.87	119.52	22.52	-36.9	-38.6	16.5	0.00e+00	0	60	0	358612992	45	4354
2026-01-18 11:11:45.89	119.37	22.64	-36.8	-38.4	16.7	0.00e+00	0	60	0	364904448	45	4284
2026-01-18 11:11:46.90	119.23	22.77	-36.8	-38.4	16.7	0.00e+00	0	60	0	370147328	45	4289
2026-01-18 11:11:47.91	119.08	22.90	-36.8	-38.5	16.6	0.00e+00	0	60	0	376438784	45	4314
2026-01-18 11:11:48.92	118.94	23.02	-36.9	-38.5	16.6	0.00e+00	0	60	0	381681664	45	4340
2026-01-18 11:11:49.93	118.79	23.15	-36.8	-38.5	16.6	0.00e+00	0	60	0	387973120	45	4339
2026-01-18 11:11:50.94	118.64	23.28	-36.8	-38.5	16.6	0.00e+00	0	60	0	393216000	45	4340
2026-01-18 11:11:51.95	118.49	23.41	-36.9	-38.6	16.5	0.00e+00	0	60	0	398458880	45	4362
2026-01-18 11:11:52.96	118.34	23.54	-36.9	-38.7	16.5	0.00e+00	0	60	0	404750336	45	4400
2026-01-18 11:11:53.97	118.18	23.67	-36.8	-38.5	16.6	0.00e+00	0	60	0	409993216	45	4335
2026-01-18 11:11:54.98	118.03	23.80	-36.8	-38.5	16.6	0.00e+00	0	60	0	416284672	45	4334
2026-01-18 11:11:55.99	117.87	23.93	-36.9	-38.6	16.5	0.00e+00	0	60	0	421527552	45	4388
2026-01-18 11:11:57.00	117.72	24.06	-37.0	-38.7	16.4	0.00e+00	0	60	0	427819008	45	4433
2026-01-18 11:11:58.01	117.56	24.19	-37.1	-38.8	16.3	0.00e+00	0	59	0	433061888	45	4482
2026-01-18 11:11:59.02	117.40	24.32	-36.9	-38.7	16.4	0.00e+00	0	60	0	438304768	45	4406
2026-01-18 11:12:00.03	117.24	24.45	-36.8	-38.6	16.6	0.00e+00	0	59	0	444596224	45	4347
2026-01-18 11:12:01.04	117.08	24.58	-36.9	-38.6	16.6	0.00e+00	0	59	0	449839104	45	4348
2026-01-18 11:12:02.05	116.91	24.72	-36.9	-38.7	16.5	0.00e+00	0	60	0	456130560	45	4403
2026-01-18 11:12:03.06	116.75	24.85	-36.9	-38.7	16.5	0.00e+00	0	60	0	461373440	45	4397
2026-01-18 11:12:04.07	116.58	24.98	-36.8	-38.5	16.6	0.00e+00	0	60	0	466616320	45	4334
2026-01-18 11:12:05.08	116.42	25.12	-36.7	-38.4	16.7	0.00e+00	0	59	0	472907776	45	4268
2026-01-18 11:12:06.09	116.25	25.25	-36.7	-38.4	16.7	0.00e+00	0	60	0	478150656	45	4268
2026-01-18 11:12:07.10	116.08	25.39	-36.7	-38.4	16.7	0.00e+00	0	60	0	484442112	45	4268
2026-01-18 11:12:08.11	115.90	25.52	-36.8	-38.4	16.7	0.00e+00	0	60	0	489684992	45	4283
2026-01-18 11:12:09.12	115.73	25.66	-36.6	-38.3	16.9	0.00e+00	0	60	0	495976448	45	4201
2026-01-18 11:12:10.13	115.56	25.79	-36.6	-38.2	17.0	0.00e+00	0	60	0	501219328	45	4172
2026-01-18 11:12:11.14	115.38	25.93	-36.5	-38.2	17.0	0.00e+00	0	60	0	506462208	45	4158
2026-01-18 11:12:12.15	115.20	26.06	-36.6	-38.3	16.9	0.00e+00	0	60	0	512753664	45	4215
2026-01-18 11:12:13.16	115.02	26.20	-36.6	-38.2	16.9	0.00e+00	0	60	0	517996544	45	4185
2026-01-18 11:12:14.17	114.84	26.34	-36.6	-38.2	17.0	0.00e+00	0	60	0	524288000	45	4182
2026-01-18 11:12:15.18	114.66	26.48	-36.6	-38.3	16.9	0.00e+00	0	60	0	529530880	45	4206
2026-01-18 11:12:16.19	114.47	26.62	-36.6	-38.3	16.8	0.00e+00	0	60	0	534773760	45	4229
2026-01-18 11:12:17.20	114.29	26.75	-36.8	-38.5	16.7	0.00e+00	0	60	0	541065216	45	4297
2026-01-18 11:12:18.21	114.10	26.89	-36.8	-38.6	16.6	0.00e+00	0	60	0	546308096	45	4343
2026-01-18 11:12:19.22	113.91	27.03	-36.8	-38.5	16.7	0.00e+00	0	60	0	552599552	45	4301
2026-01-18 11:12:20.23	113.72	27.17	-36.6	-38.3	16.9	0.00e+00	0	60	0	557842432	45	4211
2026-01-18 11:12:21.24	113.53	27.31	-36.5	-38.2	17.0	0.00e+00	0	60	0	563085312	45	4167
2026-01-18 11:12:22.25	113.33	27.45	-36.6	-38.3	16.9	0.00e+00	0	60	0	569376768	45	4211
2026-01-18 11:12:23.26	113.13	27.59	-36.4	-38.1	17.1	0.00e+00	0	60	0	574619648	44	4342
2026-01-18 11:12:24.27	112.94	27.73	-36.5	-38.1	17.1	0.00e+00	0	60	0	580911104	44	4357
2026-01-18 11:12:25.28	112.74	27.88	-36.5	-38.2	17.0	0.00e+00	0	60	0	586153984	44	4406
2026-01-18 11:12:26.29	112.54	28.02	-36.6	-38.2	17.0	0.00e+00	0	60	0	592445440	44	4415
2026-01-18 11:12:27.30	112.33	28.16	-36.5	-38.2	17.0	0.00e+00	0	60	0	597688320	44	4403
2026-01-18 11:12:28.31	112.13	28.30	-36.6	-38.2	17.0	0.00e+00	0	60	0	603979776	44	4438
2026-01-18 11:12:29.32	111.92	28.44	-36.5	-38.1	17.1	0.00e+00	0	60	0	609222656	44	4370
2026-01-18 11:12:30.33	111.71	28.59	-36.5	-38.1	17.2	0.00e+00	0	60	0	614465536	44	4371
2026-01-18 11:12:31.34	111.50	28.73	-36.5	-38.1	17.1	0.00e+00	0	60	0	620756992	44	4388
2026-01-18 11:12:32.35	111.29	28.87	-36.5	-38.1	17.2	0.00e+00	0	60	0	625999872	44	4345
2026-01-18 11:12:33.36	111.07	29.02	-36.4	-38.0	17.2	0.00e+00	0	60	0	632291328	44	4322
2026-01-18 11:12:34.37	110.86	29.16	-36.4	-38.0	17.2	0.00e+00	0	60	0	637534208	44	4321
2026-01-18 11:12:35.38	110.64	29.31	-36.4	-38.1	17.2	0.00e+00	0	60	0	642777088	44	4345
2026-01-18 11:12:36.39	110.42	29.45	-36.4	-38.0	17.2	0.00e+00	0	60	0	649068544	44	4328
2026-01-18 11:12:37.40	110.19	29.60	-36.4	-38.0	17.2	0.00e+00	0	60	0	654311424	44	4321
2026-01-18 11:12:38.41	109.97	29.74	-36.4	-38.1	17.2	0.00e+00	0	60	0	660602880	44	4342
2026-01-18 11:12:39.42	109.74	29.89	-36.4	-38.0	17.3	0.00e+00	0	60	0	665845760	44	4316
2026-01-18 11:12:40.43	109.51	30.03	-36.4	-38.0	17.2	0.00e+00	0	60	0	671088640	44	4335
2026-01-18 11:12:41.43	109.29	30.18	-36.5	-38.1	17.1	0.00e+00	0	60	0	677380096	44	4383
2026-01-18 11:12:42.44	109.05	30.32	-36.4	-38.0	17.3	0.00e+00	0	60	0	682622976	44	4308
2026-01-18 11:12:43.45	108.82	30.47	-36.4	-38.0	17.3	0.00e+00	0	60	0	688914432	44	4321
2026-01-18 11:12:44.46	108.58	30.62	-36.4	-38.0	17.2	0.00e+00	0	60	0	694157312	44	4335
2026-01-18 11:12:45.47	108.34	30.76	-36.4	-38.0	17.2	0.00e+00	0	60	0	700448768	44	4337
2026-01-18 11:12:46.48	108.10	30.91	-36.4	-38.0	17.3	0.00e+00	0	60	0	705691648	44	4311
2026-01-18 11:12:47.49	107.86	31.06	-36.4	-38.0	17.2	0.00e+00	0	60	0	710934528	44	4328
2026-01-18 11:12:48.50	107.61	31.20	-36.4	-38.0	17.3	0.00e+00	0	60	0	717225984	44	4313
2026-01-18 11:12:49.51	107.36	31.35	-36.4	-38.0	17.3	0.00e+00	0	60	0	722468864	44	4335
2026-01-18 11:12:50.52	107.11	31.50	-36.3	-37.9	17.4	0.00e+00	0	60	0	728760320	44	4259
2026-01-18 11:12:51.53	106.86	31.65	-36.2	-37.8	17.5	0.00e+00	0	60	0	734003200	44	4194
2026-01-18 11:12:52.54	106.60	31.80	-36.2	-37.8	17.5	0.00e+00	0	60	0	739246080	44	4200
2026-01-18 11:12:53.55	106.35	31.94	-36.4	-38.0	17.3	0.00e+00	0	60	0	745537536	44	4296
2026-01-18 11:12:54.56	106.09	32.09	-36.3	-37.9	17.3	0.00e+00	0	60	0	750780416	44	4286
2026-01-18 11:12:55.57	105.82	32.24	-36.4	-38.0	17.2	0.00e+00	0	60	0	757071872	44	4319
2026-01-18 11:12:56.58	105.56	32.39	-36.4	-38.0	17.2	0.00e+00	0	60	0	762314752	44	4337
2026-01-18 11:12:57.59	105.29	32.53	-36.4	-38.0	17.2	0.00e+00	0	60	0	767557632	44	4336
2026-01-18 11:12:58.60	105.02	32.68	-36.4	-38.0	17.3	0.00e+00	0	60	0	773849088	44	4301
2026-01-18 11:12:59.60	104.75	32.83	-36.3	-37.9	17.3	0.00e+00	0	60	0	779091968	44	4278
2026-01-18 11:13:00.61	104.48	32.98	-36.4	-38.1	17.2	0.00e+00	0	60	0	785383424	44	4357
2026-01-18 11:13:01.62	104.20	33.13	-36.4	-38.1	17.2	0.00e+00	0	60	0	790626304	44	4349
2026-01-18 11:13:02.63	103.92	33.27	-36.5	-38.2	17.1	0.00e+00	0	60	0	796917760	44	4398
2026-01-18 11:13:03.64	103.64	33.42	-36.3	-37.9	17.4	0.00e+00	0	60	0	802160640	44	4277
2026-01-18 11:13:04.65	103.35	33.57	-36.2	-37.8	17.5	0.00e+00	0	60	0	808452096	44	4223
2026-01-18 11:13:05.66	103.07	33.72	-36.2	-37.8	17.5	0.00e+00	0	60	0	813694976	44	4216
2026-01-18 11:13:06.67	102.78	33.86	-36.0	-37.6	17.7	0.00e+00	0	60	0	818937856	44	4104
2026-01-18 11:13:07.68	102.48	34.01	-35.8	-37.3	17.8	0.00e+00	0	60	0	825229312	43	4232
2026-01-18 11:13:08.69	102.19	34.16	-35.9	-37.4	17.7	0.00e+00	0	60	0	830472192	43	4259
2026-01-18 11:13:09.70	101.89	34.31	-35.9	-37.4	17.7	0.00e+00	0	60	0	836763648	43	4276
2026-01-18 11:13:10.71	101.59	34.45	-35.9	-37.5	17.7	0.00e+00	0	60	0	842006528	43	4293
2026-01-18 11:13:11.72	101.29	34.60	-36.0	-37.6	17.6	0.00e+00	0	60	0	847249408	43	4347
2026-01-18 11:13:12.73	100.98	34.75	-36.0	-37.6	17.5	0.00e+00	0	60	0	853540864	43	4370
2026-01-18 11:13:13.74	100.67	34.89	-36.0	-37.6	17.6	0.00e+00	0	60	0	858783744	43	4354
2026-01-18 11:13:14.75	100.36	35.04	-36.1	-37.6	17.5	0.00e+00	0	60	0	864026624	43	4379
2026-01-18 11:13:15.76	100.04	35.18	-36.0	-37.5	17.6	0.00e+00	0	60	0	870318080	43	4337
2026-01-18 11:13:16.77	99.73	35.33	-36.0	-37.5	17.6	0.00e+00	0	60	0	875560960	43	4326
2026-01-18 11:13:17.78	99.41	35.47	-35.9	-37.4	17.7	0.00e+00	0	60	0	881852416	43	4270
2026-01-18 11:13:18.79	99.08	35.62	-35.8	-37.3	17.8	0.00e+00	0	60	0	887095296	43	4240
2026-01-18 11:13:19.80	98.76	35.76	-35.8	-37.3	17.8	0.00e+00	0	60	0	893386752	43	4221
2026-01-18 11:13:20.81	98.43	35.91	-35.9	-37.4	17.8	0.00e+00	0	60	0	898629632	43	4252
2026-01-18 11:13:21.81	98.10	36.05	-35.9	-37.5	17.7	0.00e+00	0	60	0	904921088	43	4307
2026-01-18 11:13:22.83	97.76	36.19	-36.0	-37.6	17.6	0.00e+00	0	61	0	910163968	43	4350
2026-01-18 11:13:23.84	97.42	36.33	-36.1	-37.7	17.5	0.00e+00	0	60	0	915406848	43	4398
2026-01-18 11:13:24.84	97.09	36.47	-36.1	-37.7	17.5	0.00e+00	0	60	0	921698304	43	4408
2026-01-18 11:13:25.85	96.74	36.62	-36.2	-37.8	17.4	0.00e+00	0	60	0	926941184	43	4454
2026-01-18 11:13:26.86	96.39	36.76	-36.3	-37.9	17.3	0.00e+00	0	60	0	933232640	43	4495
2026-01-18 11:13:27.88	96.04	36.90	-36.4	-38.0	17.1	0.00e+00	0	60	0	938475520	43	4579
2026-01-18 11:13:28.89	95.69	37.04	-36.4	-38.1	17.1	0.00e+00	0	60	0	943718400	43	4621
2026-01-18 11:13:29.90	95.33	37.18	-36.5	-38.2	17.0	0.00e+00	0	60	0	950009856	43	4676
2026-01-18 11:13:30.90	94.98	37.31	-36.4	-38.0	17.2	0.00e+00	0	60	0	955252736	43	4576
2026-01-18 11:13:31.92	94.61	37.45	-36.3	-37.9	17.3	0.00e+00	0	60	0	961544192	43	4519
2026-01-18 11:13:32.92	94.25	37.59	-36.3	-37.9	17.3	0.00e+00	0	60	0	966787072	43	4517
2026-01-18 11:13:33.94	93.88	37.72	-36.4	-38.0	17.2	0.00e+00	0	60	0	972029952	43	4579
2026-01-18 11:13:34.95	93.51	37.86	-36.4	-38.0	17.2	0.00e+00	0	60	0	978321408	43	4584
2026-01-18 11:13:35.96	93.13	37.99	-36.4	-38.0	17.2	0.00e+00	0	60	0	983564288	43	4570
2026-01-18 11:13:36.97	92.76	38.12	-36.3	-37.8	17.3	0.00e+00	0	60	0	989855744	43	4493
2026-01-18 11:13:37.98	92.38	38.26	-36.2	-37.8	17.4	0.00e+00	0	60	0	995098624	43	4458
2026-01-18 11:13:38.98	92.00	38.39	-36.3	-37.9	17.3	0.00e+00	0	60	0	1001390080	43	4518
2026-01-18 11:13:39.99	91.61	38.52	-36.4	-38.0	17.2	0.00e+00	0	60	0	1006632960	43	4568
2026-01-18 11:13:41.00	91.22	38.65	-36.5	-38.2	17.1	0.00e+00	0	61	0	1012924416	43	4660
2026-01-18 11:13:42.01	90.83	38.78	-36.5	-38.1	17.1	0.00e+00	0	60	0	1018167296	43	4620
2026-01-18 11:13:43.02	90.43	38.90	-36.3	-37.9	17.3	0.00e+00	0	60	0	1023410176	43	4523
2026-01-18 11:13:44.03	90.03	39.03	-36.2	-37.8	17.5	0.00e+00	0	61	0	1029701632	43	4459
2026-01-18 11:13:45.04	89.63	39.15	-36.3	-37.9	17.4	0.00e+00	0	61	0	1034944512	43	4533
2026-01-18 11:13:46.05	89.23	39.28	-36.3	-37.9	17.4	0.00e+00	0	60	0	1040187392	43	4505
2026-01-18 11:13:47.06	88.82	39.40	-36.2	-37.8	17.4	0.00e+00	0	60	0	1046478848	43	4469
2026-01-18 11:13:48.07	88.41	39.52	-36.1	-37.7	17.6	0.00e+00	0	61	0	1051721728	43	4399
2026-01-18 11:13:49.08	87.99	39.64	-36.1	-37.7	17.6	0.00e+00	0	60	0	1058013184	43	4392
2026-01-18 11:13:50.09	87.57	39.76	-36.1	-37.6	17.6	0.00e+00	0	61	0	1063256064	43	4369
2026-01-18 11:13:51.10	87.15	39.88	-36.0	-37.5	17.7	0.00e+00	0	60	0	1068498944	43	4313
2026-01-18 11:13:52.11	86.73	39.99	-36.1	-37.6	17.6	0.00e+00	0	61	0	1074790400	43	4376
2026-01-18 11:13:53.11	86.31	40.11	-36.2	-37.7	17.5	0.00e+00	0	60	0	1080033280	43	4432
2026-01-18 11:13:54.12	85.88	40.22	-36.2	-37.7	17.6	0.00e+00	0	61	0	1086324736	43	4423
2026-01-18 11:13:55.13	85.44	40.33	-36.1	-37.7	17.6	0.00e+00	0	61	0	1091567616	43	4397
2026-01-18 11:13:56.14	85.01	40.44	-36.1	-37.6	17.7	0.00e+00	0	60	0	1097859072	43	4381
2026-01-18 11:13:57.15	84.57	40.55	-36.0	-37.5	17.8	0.00e+00	0	60	0	1103101952	43	4311
2026-01-18 11:13:58.16	84.13	40.66	-36.0	-37.5	17.8	0.00e+00	0	60	0	1109393408	43	4302
2026-01-18 11:13:59.17	83.68	40.76	-35.9	-37.5	17.8	0.00e+00	0	61	0	1114636288	43	4296
2026-01-18 11:14:00.18	83.24	40.87	-35.8	-37.3	18.0	0.00e+00	0	60	0	1119879168	43	4215
2026-01-18 11:14:01.19	82.79	40.97	-35.9	-37.4	17.9	0.00e+00	0	61	0	1126170624	43	4249
2026-01-18 11:14:02.20	82.33	41.07	-36.0	-37.6	17.7	0.00e+00	0	61	0	1131413504	43	4345
2026-01-18 11:14:03.21	81.88	41.17	-36.1	-37.7	17.6	0.00e+00	0	61	0	1137704960	43	4402
2026-01-18 11:14:04.22	81.42	41.27	-36.0	-37.6	17.7	0.00e+00	0	61	0	1142947840	43	4343
2026-01-18 11:14:05.23	80.96	41.36	-36.0	-37.5	17.8	0.00e+00	0	61	0	1148190720	43	4314
2026-01-18 11:14:06.24	80.49	41.45	-36.0	-37.6	17.7	0.00e+00	0	61	0	1154482176	43	4347
2026-01-18 11:14:07.25	80.03	41.55	-36.1	-37.6	17.7	0.00e+00	0	61	0	1159725056	43	4362
2026-01-18 11:14:08.26	79.56	41.64	-36.1	-37.6	17.7	0.00e+00	0	61	0	1166016512	43	4366
2026-01-18 11:14:09.27	79.09	41.72	-35.9	-37.4	17.9	0.00e+00	0	61	0	1171259392	43	4289
2026-01-18 11:14:10.28	78.61	41.81	-35.8	-37.3	18.0	0.00e+00	0	61	0	1176502272	43	4198
2026-01-18 11:14:11.28	78.14	41.89	-35.7	-37.2	18.1	0.00e+00	0	61	0	1182793728	43	4169
2026-01-18 11:14:12.29	77.66	41.97	-35.8	-37.3	18.0	0.00e+00	0	61	0	1188036608	43	4210
2026-01-18 11:14:13.30	77.18	42.05	-35.8	-37.3	18.0	0.00e+00	0	61	0	1194328064	43	4200
2026-01-18 11:14:14.31	76.70	42.13	-35.8	-37.3	18.0	0.00e+00	0	61	0	1199570944	43	4202
2026-01-18 11:14:15.32	76.21	42.20	-35.8	-37.3	18.0	0.00e+00	0	61	0	1205862400	43	4199
2026-01-18 11:14:16.33	75.72	42.27	-35.7	-37.2	18.1	0.00e+00	0	61	0	1211105280	43	4172
2026-01-18 11:14:17.34	75.23	42.35	-35.8	-37.3	18.1	0.00e+00	0	61	0	1216348160	43	4194
2026-01-18 11:14:18.35	74.74	42.41	-35.8	-37.3	18.1	0.00e+00	0	61	0	1222639616	43	4213
2026-01-18 11:14:19.36	74.24	42.48	-36.1	-37.6	17.8	0.00e+00	0	61	0	1227882496	43	4356
2026-01-18 11:14:20.37	73.75	42.54	-36.1	-37.7	17.7	0.00e+00	0	61	0	1234173952	43	4393
2026-01-18 11:14:21.38	73.25	42.60	-36.2	-37.7	17.6	0.00e+00	0	61	0	1239416832	43	4437
2026-01-18 11:14:22.39	72.75	42.66	-36.3	-37.9	17.5	0.00e+00	0	61	0	1244659712	43	4495
2026-01-18 11:14:23.40	72.24	42.72	-36.2	-37.7	17.6	0.00e+00	0	61	0	1250951168	43	4425
2026-01-18 11:14:24.41	71.74	42.77	-36.0	-37.5	17.8	0.00e+00	0	61	0	1256194048	43	4337
2026-01-18 11:14:25.42	71.23	42.83	-36.0	-37.5	17.8	0.00e+00	0	61	0	1262485504	43	4331
2026-01-18 11:14:26.43	70.73	42.87	-36.1	-37.6	17.7	0.00e+00	0	61	0	1267728384	43	4391
2026-01-18 11:14:27.44	70.22	42.92	-36.1	-37.6	17.8	0.00e+00	0	61	0	1272971264	43	4364
2026-01-18 11:14:28.44	69.71	42.96	-36.1	-37.6	17.8	0.00e+00	0	61	0	1279262720	43	4369
2026-01-18 11:14:29.45	69.20	43.01	-36.1	-37.6	17.7	0.00e+00	0	61	0	1284505600	43	4383
2026-01-18 11:14:30.46	68.69	43.05	-36.3	-37.8	17.6	0.00e+00	0	61	0	1290797056	43	4468
2026-01-18 11:14:31.47	68.17	43.08	-36.2	-37.7	17.7	0.00e+00	0	60	0	1296039936	43	4418
2026-01-18 11:14:32.48	67.66	43.12	-36.0	-37.6	17.8	0.00e+00	0	61	0	1302331392	43	4356
2026-01-18 11:14:33.49	67.14	43.15	-36.1	-37.6	17.8	0.00e+00	0	61	0	1307574272	43	4364
2026-01-18 11:14:34.50	66.63	43.18	-36.2	-37.8	17.6	0.00e+00	0	61	0	1313865728	43	4454
2026-01-18 11:14:35.51	66.11	43.20	-36.2	-37.7	17.7	0.00e+00	0	61	0	1319108608	43	4421
2026-01-18 11:14:36.52	65.59	43.23	-36.5	-38.0	17.3	0.00e+00	0	61	0	1324351488	43	4596
2026-01-18 11:14:37.53	65.07	43.25	-36.2	-37.8	17.6	0.00e+00	0	61	0	1330642944	43	4468
2026-01-18 11:14:38.54	64.55	43.27	-35.9	-37.4	17.9	0.00e+00	0	61	0	1335885824	43	4277
2026-01-18 11:14:39.55	64.03	43.28	-35.9	-37.3	18.0	0.00e+00	0	61	0	1342177280	43	4228
2026-01-18 11:14:40.56	63.51	43.30	-35.8	-37.2	18.1	0.00e+00	0	61	0	1347420160	43	4179
2026-01-18 11:14:41.57	62.99	43.31	-35.7	-37.1	18.3	0.00e+00	0	61	0	1352663040	43	4131
2026-01-18 11:14:42.58	62.46	43.31	-35.6	-37.0	18.3	0.00e+00	0	61	0	1358954496	43	4078
2026-01-18 11:14:43.59	61.94	43.32	-35.6	-37.1	18.3	0.00e+00	0	60	0	1364197376	43	4102
2026-01-18 11:14:44.60	61.42	43.32	-35.7	-37.1	18.2	0.00e+00	0	61	0	1370488832	43	4130
2026-01-18 11:14:45.61	60.90	43.32	-35.7	-37.1	18.2	0.00e+00	0	61	0	1375731712	43	4134
2026-01-18 11:14:46.62	60.37	43.32	-35.9	-37.4	18.0	0.00e+00	0	61	0	1380974592	43	4246
2026-01-18 11:14:47.63	59.85	43.31	-36.1	-37.6	17.7	0.00e+00	0	61	0	1387266048	43	4382
2026-01-18 11:14:48.64	59.33	43.30	-36.0	-37.6	17.8	0.00e+00	0	60	0	1392508928	43	4348
2026-01-18 11:14:49.64	58.81	43.29	-35.8	-37.3	18.1	0.00e+00	0	61	0	1398800384	43	4221
2026-01-18 11:14:50.65	58.29	43.28	-35.7	-37.1	18.2	0.00e+00	0	61	0	1404043264	43	4129
2026-01-18 11:14:51.67	57.77	43.26	-35.8	-37.3	18.1	0.00e+00	0	61	0	1410334720	43	4211
2026-01-18 11:14:52.68	57.25	43.25	-36.0	-37.5	17.9	0.00e+00	0	61	0	1415577600	43	4298
2026-01-18 11:14:53.69	56.73	43.22	-35.9	-37.4	18.0	0.00e+00	0	61	0	1420820480	43	4246
2026-01-18 11:14:54.69	56.21	43.20	-35.8	-37.3	18.1	0.00e+00	0	61	0	1427111936	43	4208
2026-01-18 11:14:55.71	55.69	43.17	-35.9	-37.4	18.0	0.00e+00	0	61	0	1432354816	43	4247
2026-01-18 11:14:56.72	55.17	43.14	-35.8	-37.3	18.1	0.00e+00	0	61	0	1438646272	43	4194
2026-01-18 11:14:57.72	54.66	43.11	-35.7	-37.1	18.3	0.00e+00	0	61	0	1443889152	43	4128
2026-01-18 11:14:58.73	54.15	43.08	-35.7	-37.2	18.2	0.00e+00	0	61	0	1449132032	43	4163
2026-01-18 11:14:59.74	53.64	43.04	-35.8	-37.3	18.1	0.00e+00	0	61	0	1455423488	43	4221
2026-01-18 11:15:00.75	53.12	43.00	-36.0	-37.5	17.8	0.00e+00	0	61	0	1460666368	43	4333
2026-01-18 11:15:01.76	52.61	42.96	-36.0	-37.5	17.9	0.00e+00	0	61	0	1466957824	43	4300
2026-01-18 11:15:02.77	52.10	42.92	-36.0	-37.5	17.9	0.00e+00	0	61	0	1472200704	43	4307
2026-01-18 11:15:03.78	51.59	42.87	-36.0	-37.4	17.9	0.00e+00	0	61	0	1477443584	43	4284
2026-01-18 11:15:04.79	51.09	42.82	-35.9	-37.4	18.0	0.00e+00	0	61	0	1483735040	43	4260
2026-01-18 11:15:05.80	50.58	42.77	-36.0	-37.4	17.9	0.00e+00	0	61	0	1488977920	43	4289
2026-01-18 11:15:06.81	50.08	42.71	-36.0	-37.5	17.9	0.00e+00	0	61	0	1495269376	43	4305
2026-01-18 11:15:07.81	49.58	42.66	-35.9	-37.4	17.9	0.00e+00	0	61	0	1500512256	43	4275
2026-01-18 11:15:08.82	49.08	42.60	-36.1	-37.5	17.8	0.00e+00	0	61	0	1506803712	43	4339
2026-01-18 11:15:09.83	48.58	42.54	-36.1	-37.7	17.7	0.00e+00	0	61	0	1512046592	43	4398
2026-01-18 11:15:10.84	48.09	42.47	-36.1	-37.6	17.7	0.00e+00	0	61	0	1517289472	43	4386
2026-01-18 11:15:11.85	47.59	42.41	-36.0	-37.5	17.8	0.00e+00	0	61	0	1523580928	43	4327
2026-01-18 11:15:12.86	47.10	42.34	-36.1	-37.5	17.8	0.00e+00	0	61	0	1528823808	43	4334
2026-01-18 11:15:13.87	46.61	42.27	-36.2	-37.6	17.7	0.00e+00	0	61	0	1535115264	43	4382
2026-01-18 11:15:14.88	46.13	42.19	-36.0	-37.5	17.9	0.00e+00	0	61	0	1540358144	43	4307
2026-01-18 11:15:15.89	45.64	42.12	-36.1	-37.6	17.8	0.00e+00	0	61	0	1545601024	43	4359
2026-01-18 11:15:16.90	45.16	42.04	-36.1	-37.6	17.7	0.00e+00	0	61	0	1551892480	43	4367
2026-01-18 11:15:17.91	44.68	41.96	-36.1	-37.6	17.8	0.00e+00	0	61	0	1557135360	43	4342
2026-01-18 11:15:18.92	44.20	41.88	-35.8	-37.3	18.0	0.00e+00	0	61	0	1563426816	43	4205
2026-01-18 11:15:19.93	43.72	41.80	-35.7	-37.1	18.2	0.00e+00	0	61	0	1568669696	43	4129
2026-01-18 11:15:20.95	43.25	41.71	-35.7	-37.1	18.2	0.00e+00	0	61	0	1573912576	43	4128
2026-01-18 11:15:21.95	42.78	41.63	-35.7	-37.2	18.1	0.00e+00	0	61	0	1580204032	43	4165
2026-01-18 11:15:22.97	42.31	41.54	-35.8	-37.2	18.1	0.00e+00	0	61	0	1585446912	43	4189
2026-01-18 11:15:23.97	41.85	41.44	-35.9	-37.4	17.9	0.00e+00	0	61	0	1591738368	43	4256
2026-01-18 11:15:24.98	41.38	41.35	-35.9	-37.3	18.0	0.00e+00	0	61	0	1596981248	43	4240
2026-01-18 11:15:25.99	40.92	41.26	-35.9	-37.3	18.0	0.00e+00	0	61	0	1603272704	43	4229
2026-01-18 11:15:27.00	40.47	41.16	-35.8	-37.3	18.0	0.00e+00	0	61	0	1608515584	43	4201
2026-01-18 11:15:28.01	40.01	41.06	-35.7	-37.2	18.2	0.00e+00	0	61	0	1614807040	43	4172
2026-01-18 11:15:29.02	39.56	40.96	-35.8	-37.2	18.1	0.00e+00	0	61	0	1620049920	43	4182
2026-01-18 11:15:30.03	39.11	40.86	-35.8	-37.2	18.1	0.00e+00	0	61	0	1625292800	43	4171
2026-01-18 11:15:31.04	38.66	40.75	-35.7	-37.2	18.1	0.00e+00	0	61	0	1631584256	43	4160
2026-01-18 11:15:32.05	38.22	40.65	-35.9	-37.3	18.0	0.00e+00	0	61	0	1636827136	43	4232
2026-01-18 11:15:33.06	37.78	40.54	-35.9	-37.4	17.9	0.00e+00	0	61	0	1643118592	43	4283
2026-01-18 11:15:34.07	37.34	40.43	-36.0	-37.5	17.8	0.00e+00	0	61	0	1648361472	43	4315
2026-01-18 11:15:35.08	36.91	40.32	-36.1	-37.6	17.8	0.00e+00	0	61	0	1653604352	43	4348
2026-01-18 11:15:36.09	36.48	40.21	-36.0	-37.4	17.8	0.00e+00	0	61	0	1659895808	43	4290
2026-01-18 11:15:37.10	36.05	40.10	-35.9	-37.4	17.9	0.00e+00	0	61	0	1665138688	43	4246
2026-01-18 11:15:38.12	35.62	39.98	-36.1	-37.6	17.7	0.00e+00	0	61	0	1671430144	43	4353
2026-01-18 11:15:39.13	35.20	39.87	-36.1	-37.6	17.7	0.00e+00	0	61	0	1676673024	43	4383
2026-01-18 11:15:40.14	34.78	39.75	-36.1	-37.6	17.7	0.00e+00	0	61	0	1681915904	43	4372
2026-01-18 11:15:41.15	34.36	39.63	-36.1	-37.6	17.7	0.00e+00	0	61	0	1688207360	43	4374
2026-01-18 11:15:42.15	33.95	39.51	-36.2	-37.7	17.6	0.00e+00	0	61	0	1693450240	43	4418
2026-01-18 11:15:43.17	33.54	39.39	-36.1	-37.6	17.6	0.00e+00	0	61	0	1699741696	43	4388
2026-01-18 11:15:44.18	33.13	39.27	-36.1	-37.6	17.6	0.00e+00	0	61	0	1704984576	43	4371
2026-01-18 11:15:45.19	32.73	39.14	-36.0	-37.5	17.7	0.00e+00	0	61	0	1711276032	43	4330
2026-01-18 11:15:46.20	32.33	39.02	-35.9	-37.4	17.9	0.00e+00	0	61	0	1716518912	43	4266
2026-01-18 11:15:47.21	31.93	38.89	-35.9	-37.3	17.9	0.00e+00	0	61	0	1722810368	43	4238
2026-01-18 11:15:48.22	31.54	38.77	-35.8	-37.3	18.0	0.00e+00	0	61	0	1728053248	43	4201
2026-01-18 11:15:49.23	31.15	38.64	-35.9	-37.4	17.8	0.00e+00	0	61	0	1733296128	43	4266
2026-01-18 11:15:50.24	30.76	38.51	-36.1	-37.5	18.0	0.00e+00	0	61	0	1739587584	43	4324
2026-01-18 11:15:51.25	30.37	38.38	-36.2	-37.6	18.0	0.00e+00	0	61	0	1744830464	43	4343
2026-01-18 11:15:52.26	29.99	38.25	-36.1	-37.5	18.1	0.00e+00	0	61	0	1751121920	43	4300
2026-01-18 11:15:53.26	29.62	38.12	-36.1	-37.5	18.1	0.00e+00	0	61	0	1756364800	43	4299
2026-01-18 11:15:54.27	29.24	37.98	-36.1	-37.4	18.1	0.00e+00	0	61	0	1761607680	43	4277
2026-01-18 11:15:55.28	28.87	37.85	-36.1	-37.4	18.0	0.00e+00	0	61	0	1767899136	43	4284
2026-01-18 11:15:56.29	28.50	37.72	-36.1	-37.5	18.0	0.00e+00	0	61	0	1773142016	43	4304
2026-01-18 11:15:57.30	28.13	37.58	-36.2	-37.6	17.9	0.00e+00	0	61	0	1779433472	43	4361
2026-01-18 11:15:58.31	27.77	37.44	-36.1	-37.5	18.0	0.00e+00	0	61	0	1784676352	43	4325
2026-01-18 11:15:59.32	27.41	37.31	-36.2	-37.5	18.0	0.00e+00	0	61	0	1789919232	43	4336
2026-01-18 11:16:00.33	27.05	37.17	-36.2	-37.6	17.9	0.00e+00	0	61	0	1796210688	43	4361
2026-01-18 11:16:01.34	26.70	37.03	-36.1	-37.5	18.0	0.00e+00	0	61	0	1801453568	43	4315
2026-01-18 11:16:02.35	26.34	36.89	-36.1	-37.5	18.1	0.00e+00	0	61	0	1807745024	43	4295
2026-01-18 11:16:03.36	26.00	36.75	-36.1	-37.4	18.1	0.00e+00	0	61	0	1812987904	43	4285
2026-01-18 11:16:04.37	25.65	36.61	-36.0	-37.3	18.1	0.00e+00	0	61	0	1819279360	43	4240
2026-01-18 11:16:05.38	25.31	36.47	-35.9	-37.3	18.2	0.00e+00	0	61	0	1824522240	43	4201
2026-01-18 11:16:06.39	24.97	36.33	-35.9	-37.3	18.2	0.00e+00	0	61	0	1829765120	43	4197
2026-01-18 11:16:07.40	24.63	36.19	-36.0	-37.4	18.1	0.00e+00	0	61	0	1836056576	43	4259
2026-01-18 11:16:08.41	24.30	36.05	-36.1	-37.5	18.0	0.00e+00	0	61	0	1841299456	43	4298
2026-01-18 11:16:09.42	23.97	35.90	-36.0	-37.4	18.1	0.00e+00	0	61	0	1847590912	43	4276
2026-01-18 11:16:10.43	23.64	35.76	-36.1	-37.5	18.1	0.00e+00	0	61	0	1852833792	43	4296
2026-01-18 11:16:11.44	23.32	35.62	-36.1	-37.5	18.0	0.00e+00	0	61	0	1858076672	43	4298
2026-01-18 11:16:12.44	23.00	35.47	-36.1	-37.5	18.0	0.00e+00	0	61	0	1864368128	43	4329
2026-01-18 11:16:13.45	22.68	35.33	-36.1	-37.5	18.0	0.00e+00	0	61	0	1869611008	43	4298
2026-01-18 11:16:14.47	22.36	35.18	-36.1	-37.5	18.1	0.00e+00	0	61	0	1875902464	43	4295
2026-01-18 11:16:15.47	22.05	35.04	-35.9	-37.3	18.2	0.00e+00	0	61	0	1881145344	43	4196
2026-01-18 11:16:16.48	21.74	34.89	-35.9	-37.3	18.2	0.00e+00	0	61	0	1886388224	43	4216
2026-01-18 11:16:17.49	21.43	34.75	-36.0	-37.4	18.1	0.00e+00	0	61	0	1892679680	43	4245
2026-01-18 11:16:18.50	21.13	34.60	-35.9	-37.3	18.2	0.00e+00	0	61	0	1897922560	43	4198
2026-01-18 11:16:19.51	20.83	34.46	-35.9	-37.2	18.2	0.00e+00	0	61	0	1904214016	43	4182
2026-01-18 11:16:20.52	20.53	34.31	-35.9	-37.2	18.3	0.00e+00	0	61	0	1909456896	43	4174
2026-01-18 11:16:21.53	20.23	34.16	-35.9	-37.2	18.2	0.00e+00	0	61	0	1915748352	43	4190
2026-01-18 11:16:22.54	19.93	34.02	-36.0	-37.4	18.0	0.00e+00	0	61	0	1920991232	43	4268
2026-01-18 11:16:23.55	19.64	33.87	-36.1	-37.5	18.0	0.00e+00	0	61	0	1927282688	43	4310
2026-01-18 11:16:24.56	19.35	33.72	-36.2	-37.6	17.9	0.00e+00	0	61	0	1932525568	43	4348
2026-01-18 11:16:25.57	19.07	33.58	-36.1	-37.5	17.9	0.00e+00	0	61	0	1937768448	43	4318
2026-01-18 11:16:26.58	18.79	33.43	-36.1	-37.5	17.9	0.00e+00	0	61	0	1944059904	43	4316
2026-01-18 11:16:27.59	18.50	33.28	-36.1	-37.5	17.9	0.00e+00	0	61	0	1949302784	43	4315
2026-01-18 11:16:28.60	18.23	33.13	-36.1	-37.4	17.9	0.00e+00	0	61	0	1954545664	43	4290
2026-01-18 11:16:29.60	17.95	32.99	-36.0	-37.3	18.1	0.00e+00	0	61	0	1960837120	43	4227
2026-01-18 11:16:30.61	17.68	32.84	-36.0	-37.3	18.1	0.00e+00	0	61	0	1966080000	43	4233
2026-01-18 11:16:31.63	17.41	32.69	-36.0	-37.4	18.1	0.00e+00	0	61	0	1972371456	43	4244
2026-01-18 11:16:32.63	17.14	32.55	-36.0	-37.4	18.1	0.00e+00	0	61	0	1977614336	43	4255
2026-01-18 11:16:33.64	16.87	32.40	-36.0	-37.3	18.0	0.00e+00	0	61	0	1982857216	43	4237
2026-01-18 11:16:34.66	16.61	32.25	-35.9	-37.3	18.1	0.00e+00	0	61	0	1989148672	43	4225
2026-01-18 11:16:35.67	16.35	32.10	-36.0	-37.3	18.0	0.00e+00	0	61	0	1994391552	43	4234
2026-01-18 11:16:36.68	16.09	31.96	-36.0	-37.4	18.0	0.00e+00	0	61	0	2000683008	43	4265
2026-01-18 11:16:37.68	15.84	31.81	-36.2	-37.6	17.8	0.00e+00	0	61	0	2005925888	43	4349
2026-01-18 11:16:38.69	15.58	31.66	-36.3	-37.7	17.7	0.00e+00	0	61	0	2012217344	43	4411
2026-01-18 11:16:39.70	15.33	31.52	-36.4	-37.8	17.6	0.00e+00	0	61	0	2017460224	43	4483
2026-01-18 11:16:40.71	15.08	31.37	-36.5	-37.9	17.4	0.00e+00	0	61	0	2023751680	43	4528
2026-01-18 11:16:41.72	14.83	31.22	-36.5	-37.9	17.5	0.00e+00	0	61	0	2028994560	43	4542
2026-01-18 11:16:42.73	14.59	31.08	-36.4	-37.9	17.5	0.00e+00	0	61	0	2034237440	43	4525
2026-01-18 11:16:43.74	14.35	30.93	-36.4	-37.8	17.6	0.00e+00	0	61	0	2040528896	43	4486
2026-01-18 11:16:44.75	14.11	30.78	-36.4	-37.8	17.6	0.00e+00	0	61	0	2045771776	43	4483
2026-01-18 11:16:45.76	13.87	30.64	-36.3	-37.7	17.7	0.00e+00	0	61	0	2052063232	43	4426
2026-01-18 11:16:46.77	13.63	30.49	-36.3	-37.7	17.7	0.00e+00	0	61	0	2057306112	43	4418
2026-01-18 11:16:47.78	13.40	30.35	-36.2	-37.7	17.7	0.00e+00	0	61	0	2062548992	43	4397
2026-01-18 11:16:48.79	13.17	30.20	-36.2	-37.6	17.8	0.00e+00	0	61	0	2068840448	43	4360
2026-01-18 11:16:49.80	12.94	30.05	-36.2	-37.6	17.7	0.00e+00	0	61	0	2074083328	43	4387
2026-01-18 11:16:50.81	12.71	29.91	-36.3	-37.7	17.6	0.00e+00	0	61	0	2080374784	43	4421
2026-01-18 11:16:51.82	12.48	29.76	-36.4	-37.8	17.6	0.00e+00	0	61	0	2085617664	43	4472
2026-01-18 11:16:52.83	12.26	29.62	-36.5	-37.9	17.4	0.00e+00	0	61	0	2090860544	43	4539
2026-01-18 11:16:53.84	12.04	29.48	-36.6	-38.1	17.3	0.00e+00	0	61	0	2097152000	43	4619
2026-01-18 11:16:54.86	11.82	29.33	-36.6	-38.1	17.3	0.00e+00	0	61	0	2102394880	43	4617
2026-01-18 11:16:55.87	11.60	29.19	-36.7	-38.2	17.2	0.00e+00	0	61	0	2108686336	43	4661
2026-01-18 11:16:56.88	11.39	29.04	-36.6	-38.0	17.3	0.00e+00	0	61	0	2113929216	43	4587
2026-01-18 11:16:57.89	11.17	28.90	-36.5	-38.0	17.3	0.00e+00	0	61	0	2120220672	43	4571
2026-01-18 11:16:58.90	10.96	28.76	-36.6	-38.1	17.2	0.00e+00	0	61	0	2125463552	43	4608
2026-01-18 11:16:59.91	10.75	28.61	-36.6	-38.1	17.2	0.00e+00	0	61	0	2131755008	43	4624
2026-01-18 11:17:00.92	10.54	28.47	-36.9	-38.4	17.1	0.00e+00	0	61	0	2136997888	44	4521
2026-01-18 11:17:01.93	10.34	28.33	-37.0	-38.5	17.0	0.00e+00	0	61	0	2142240768	44	4575
2026-01-18 11:17:02.94	10.13	28.19	-37.0	-38.5	16.9	0.00e+00	0	61	0	2148532224	44	4591
2026-01-18 11:17:03.95	9.93	28.05	-36.9	-38.5	17.0	0.00e+00	0	61	0	2153775104	44	4554
2026-01-18 11:17:04.96	9.73	27.90	-36.9	-38.4	17.1	0.00e+00	0	61	0	2160066560	44	4528
2026-01-18 11:17:05.97	9.53	27.76	-36.9	-38.5	17.0	0.00e+00	0	61	0	2165309440	44	4550
2026-01-18 11:17:06.98	9.33	27.62	-36.9	-38.4	17.1	0.00e+00	0	61	0	2170552320	44	4526
2026-01-18 11:17:07.99	9.14	27.48	-36.9	-38.4	17.1	0.00e+00	0	61	0	2176843776	44	4526
2026-01-18 11:17:09.00	8.95	27.34	-36.9	-38.3	17.1	0.00e+00	0	61	0	2182086656	44	4493
2026-01-18 11:17:10.01	8.75	27.20	-36.8	-38.4	17.1	0.00e+00	0	61	0	2188378112	44	4497
2026-01-18 11:17:11.02	8.56	27.07	-36.8	-38.3	17.2	0.00e+00	0	61	0	2193620992	44	4459
2026-01-18 11:17:12.03	8.38	26.93	-36.9	-38.3	17.1	0.00e+00	0	61	0	2198863872	44	4489
2026-01-18 11:17:13.04	8.19	26.79	-36.8	-38.3	17.1	0.00e+00	0	61	0	2205155328	44	4491
2026-01-18 11:17:14.05	8.01	26.65	-37.0	-38.5	17.0	0.00e+00	0	61	0	2210398208	44	4574
2026-01-18 11:17:15.06	7.82	26.51	-37.0	-38.5	16.9	0.00e+00	0	61	0	2216689664	44	4577
2026-01-18 11:17:16.07	7.64	26.38	-36.9	-38.5	17.0	0.00e+00	0	61	0	2221932544	44	4549
2026-01-18 11:17:17.08	7.46	26.24	-36.9	-38.4	17.0	0.00e+00	0	61	0	2228224000	44	4523
2026-01-18 11:17:18.09	7.28	26.10	-36.9	-38.4	17.0	0.00e+00	0	61	0	2233466880	44	4525
2026-01-18 11:17:19.10	7.10	25.97	-36.9	-38.4	17.1	0.00e+00	0	61	0	2239758336	44	4505
2026-01-18 11:17:20.11	6.93	25.83	-36.9	-38.4	17.0	0.00e+00	0	61	0	2245001216	44	4531
2026-01-18 11:17:21.12	6.76	25.70	-36.9	-38.4	17.0	0.00e+00	0	61	0	2250244096	44	4523
2026-01-18 11:17:22.13	6.58	25.56	-36.9	-38.4	17.0	0.00e+00	0	61	0	2256535552	44	4505
2026-01-18 11:17:23.14	6.41	25.43	-36.8	-38.3	17.1	0.00e+00	0	61	0	2261778432	44	4480
2026-01-18 11:17:24.16	6.24	25.29	-36.8	-38.3	17.2	0.00e+00	0	61	0	2268069888	44	4448
2026-01-18 11:17:25.17	6.07	25.16	-36.8	-38.3	17.0	0.00e+00	0	61	0	2273312768	44	4489
2026-01-18 11:17:26.18	5.91	25.02	-36.8	-38.3	17.1	0.00e+00	0	61	0	2278555648	44	4480
2026-01-18 11:17:27.19	5.74	24.89	-36.8	-38.4	17.0	0.00e+00	0	61	0	2284847104	44	4500
2026-01-18 11:17:28.20	5.58	24.76	-36.9	-38.4	17.0	0.00e+00	0	61	0	2290089984	44	4515
2026-01-18 11:17:29.21	5.41	24.63	-37.0	-38.5	16.8	0.00e+00	0	61	0	2296381440	44	4575
2026-01-18 11:17:30.22	5.25	24.49	-37.0	-38.5	16.8	0.00e+00	0	61	0	2301624320	44	4594
2026-01-18 11:17:31.22	5.10	24.36	-37.1	-38.6	16.7	0.00e+00	0	61	0	2306867200	44	4634
2026-01-18 11:17:32.23	4.94	24.23	-37.1	-38.6	16.7	0.00e+00	0	61	0	2313158656	44	4646
2026-01-18 11:17:33.24	4.78	24.10	-37.0	-38.5	16.8	0.00e+00	0	61	0	2318401536	44	4569
2026-01-18 11:17:34.25	4.63	23.97	-36.9	-38.5	16.9	0.00e+00	0	61	0	2324692992	44	4549
2026-01-18 11:17:35.26	4.47	23.84	-37.0	-38.5	16.8	0.00e+00	0	61	0	2329935872	44	4589
2026-01-18 11:17:36.27	4.32	23.71	-36.9	-38.5	16.8	0.00e+00	0	61	0	2336227328	44	4554
2026-01-18 11:17:37.28	4.17	23.59	-36.9	-38.4	16.9	0.00e+00	0	61	0	2341470208	44	4537
2026-01-18 11:17:38.29	4.02	23.46	-36.8	-38.3	16.9	0.00e+00	0	61	0	2346713088	44	4489
2026-01-18 11:17:39.30	3.87	23.33	-36.9	-38.4	16.9	0.00e+00	0	61	0	2353004544	44	4537
2026-01-18 11:17:40.31	3.72	23.20	-36.9	-38.5	16.8	0.00e+00	0	61	0	2358247424	44	4576
2026-01-18 11:17:41.32	3.57	23.08	-37.0	-38.5	16.7	0.00e+00	0	61	0	2364538880	44	4596
2026-01-18 11:17:42.33	3.43	22.95	-36.9	-38.5	16.8	0.00e+00	0	61	0	2369781760	44	4572
2026-01-18 11:17:43.34	3.28	22.82	-36.9	-38.4	16.8	0.00e+00	0	61	0	2375024640	44	4544
2026-01-18 11:17:44.36	3.14	22.70	-37.0	-38.5	16.7	0.00e+00	0	61	0	2381316096	44	4588
2026-01-18 11:17:45.37	3.00	22.57	-37.0	-38.5	16.7	0.00e+00	0	61	0	2386558976	44	4588
2026-01-18 11:17:46.38	2.86	22.45	-36.9	-38.4	16.8	0.00e+00	0	61	0	2392850432	44	4539
2026-01-18 11:17:47.38	2.72	22.32	-37.0	-38.5	16.7	0.00e+00	0	61	0	2398093312	44	4595
2026-01-18 11:17:48.39	2.58	22.20	-37.1	-38.6	16.6	0.00e+00	0	61	0	2403336192	44	4649
2026-01-18 11:17:49.40	2.44	22.07	-37.0	-38.6	16.6	0.00e+00	0	61	0	2409627648	44	4624
2026-01-18 11:17:50.41	2.30	21.95	-37.1	-38.7	16.5	0.00e+00	0	61	0	2414870528	44	4690
2026-01-18 11:17:51.42	2.17	21.83	-37.3	-38.9	16.3	0.00e+00	0	61	0	2421161984	45	4517
2026-01-18 11:17:52.43	2.04	21.71	-37.3	-38.9	16.2	0.00e+00	0	61	0	2426404864	45	4541
2026-01-18 11:17:53.44	1.90	21.58	-37.3	-39.0	16.2	0.00e+00	0	61	0	2432696320	45	4549
2026-01-18 11:17:54.45	1.77	21.46	-37.3	-39.0	16.1	0.00e+00	0	61	0	2437939200	45	4577
2026-01-18 11:17:55.46	1.64	21.34	-37.3	-39.0	16.2	0.00e+00	0	61	0	2444230656	45	4548
2026-01-18 11:17:56.47	1.51	21.22	-37.3	-39.0	16.2	0.00e+00	0	61	0	2449473536	45	4551
2026-01-18 11:17:57.48	1.38	21.10	-37.3	-39.0	16.1	0.00e+00	0	61	0	2454716416	45	4567
2026-01-18 11:17:58.49	1.25	20.98	-37.3	-39.0	16.1	0.00e+00	0	61	0	2461007872	45	4571
2026-01-18 11:17:59.50	1.13	20.86	-37.3	-39.0	16.1	0.00e+00	0	61	0	2466250752	45	4568
2026-01-18 11:18:00.49	1.00	20.74	-37.4	-39.0	16.0	0.00e+00	0	61	0	2471493632	45	4592
2026-01-18 11:18:01.50	0.88	20.63	-37.4	-39.1	16.0	0.00e+00	0	61	0	2477785088	45	4619
2026-01-18 11:18:02.51	0.76	20.51	-37.5	-39.2	15.9	0.00e+00	0	61	0	2483027968	45	4658
2026-01-18 11:18:03.51	0.63	20.39	-37.5	-39.2	15.8	0.00e+00	0	61	0	2489319424	45	4675
2026-01-18 11:18:04.52	0.51	20.27	-37.5	-39.3	15.7	0.00e+00	0	61	0	2494562304	45	4713
2026-01-18 11:18:05.53	0.39	20.16	-37.5	-39.3	15.7	0.00e+00	0	61	0	2499805184	45	4712
2026-01-18 11:18:06.54	0.27	20.04	-37.5	-39.3	15.7	0.00e+00	0	61	0	2506096640	45	4713
2026-01-18 11:18:07.55	0.15	19.92	-37.6	-39.4	15.6	0.00e+00	0	61	0	2511339520	45	4761
2026-01-18 11:18:08.56	0.03	19.81	-37.5	-39.3	15.7	0.00e+00	0	61	0	2517630976	45	4714
2026-01-18 11:18:09.57	359.92	19.69	-37.5	-39.2	15.7	0.00e+00	0	61	0	2522873856	45	4703
2026-01-18 11:18:10.58	359.80	19.58	-37.6	-39.4	15.5	0.00e+00	0	61	0	2529165312	45	4770
2026-01-18 11:18:11.59	359.69	19.46	-37.5	-39.3	15.5	0.00e+00	0	61	0	2534408192	45	4738
2026-01-18 11:18:12.60	359.57	19.35	-37.5	-39.2	15.6	1.10e-06	0	61	0	2540699648	45	4681
2026-01-18 11:18:13.61	359.46	19.24	-37.6	-39.3	15.5	0.00e+00	0	61	0	2545942528	45	4751
2026-01-18 11:18:14.62	359.34	19.12	-37.5	-39.2	15.5	0.00e+00	0	61	0	2551185408	45	4699
2026-01-18 11:18:15.63	359.23	19.01	-37.4	-39.2	15.6	0.00e+00	0	61	0	2557476864	45	4660
2026-01-18 11:18:16.64	359.12	18.90	-37.5	-39.3	15.4	0.00e+00	0	61	0	2562719744	45	4706
2026-01-18 11:18:17.65	359.01	18.78	-37.6	-39.4	15.3	1.10e-06	0	61	0	2569011200	45	4770
2026-01-18 11:18:18.66	358.90	18.67	-37.6	-39.4	15.2	0.00e+00	0	61	0	2574254080	45	4786
2026-01-18 11:18:19.67	358.79	18.56	-37.6	-39.5	15.1	1.10e-06	0	61	0	2579496960	45	4825
2026-01-18 11:18:20.68	358.69	18.45	-37.6	-39.5	15.0	0.00e+00	0	61	0	2585788416	45	4851
2026-01-18 11:18:21.69	358.58	18.34	-37.9	-39.9	14.7	0.00e+00	0	61	0	2591031296	46	4761
2026-01-18 11:18:22.70	358.47	18.23	-37.8	-39.7	14.7	2.20e-06	0	61	0	2597322752	46	4703
2026-01-18 11:18:23.71	358.37	18.12	-37.7	-39.6	14.8	1.10e-06	0	61	0	2602565632	46	4647
2026-01-18 11:18:24.72	358.26	18.01	-37.7	-39.7	14.7	1.10e-06	0	61	0	2607808512	46	4656
2026-01-18 11:18:25.73	358.16	17.90	-37.6	-39.5	14.7	0.00e+00	0	61	0	2614099968	46	4590
2026-01-18 11:18:26.74	358.06	17.79	-37.8	-39.8	14.4	4.50e-06	0	61	0	2619342848	46	4720
2026-01-18 11:18:27.75	357.95	17.69	-38.1	-40.1	14.0	3.40e-06	0	61	0	2625634304	46	4916
2026-01-18 11:18:28.76	357.85	17.58	-38.0	-40.2	13.8	4.50e-06	0	61	0	2630877184	46	4942
2026-01-18 11:18:29.77	357.75	17.47	-37.9	-40.1	13.9	1.14e-05	0	61	0	2637168640	46	4872
2026-01-18 11:18:30.78	357.65	17.36	-37.7	-39.8	14.1	4.50e-06	0	61	0	2642411520	46	4728
2026-01-18 11:18:31.79	357.55	17.26	-37.7	-39.7	14.2	2.20e-06	0	61	0	2647654400	46	4683
2026-01-18 11:18:32.80	357.45	17.15	-37.7	-39.8	14.0	5.70e-06	0	61	0	2653945856	46	4743
2026-01-18 11:18:33.81	357.36	17.04	-37.8	-39.9	13.9	8.00e-06	0	61	0	2659188736	46	4767
2026-01-18 11:18:34.82	357.26	16.94	-37.9	-40.1	13.6	1.02e-05	0	61	0	2665480192	46	4886
2026-01-18 11:18:35.83	357.16	16.83	-37.8	-39.9	13.6	1.60e-05	0	61	0	2670723072	46	4808
2026-01-18 11:18:36.84	357.07	16.73	-37.8	-40.0	13.5	1.48e-05	0	61	0	2675965952	46	4841
2026-01-18 11:18:37.85	356.97	16.62	-37.8	-40.1	13.4	2.05e-05	0	61	0	2682257408	46	4876
2026-01-18 11:18:38.86	356.88	16.52	-37.6	-39.8	13.5	2.05e-05	0	61	0	2687500288	46	4742
2026-01-18 11:18:39.87	356.79	16.42	-37.5	-39.7	13.5	1.83e-05	0	61	0	2693791744	46	4682
2026-01-18 11:18:40.88	356.69	16.31	-37.7	-40.0	13.2	2.51e-05	0	61	0	2699034624	46	4836
2026-01-18 11:18:41.89	356.60	16.21	-37.8	-40.3	12.7	7.32e-05	0	61	0	2704277504	46	4997
2026-01-18 11:18:42.90	356.51	16.11	-38.0	-40.5	12.4	2.63e-04	0	61	0	2710568960	46	5144
2026-01-18 11:18:43.91	356.42	16.00	-38.5	-41.5	11.2	1.29e-03	0	61	0	2715811840	47	5416
2026-01-18 11:18:44.92	356.33	15.90	-38.9	-42.1	10.6	3.04e-03	0	61	0	2722103296	48	5487
2026-01-18 11:18:45.93	356.24	15.80	-39.4	-43.0	9.5	1.46e-02	0	61	0	2727346176	49	5771
2026-01-18 11:18:46.94	356.15	15.70	-39.8	-43.9	8.5	3.53e-02	0	61	0	2733637632	50	6014
2026-01-18 11:18:47.95	356.06	15.60	-40.1	-44.7	7.6	1.05e-01	0	61	0	2738880512	50	6609
2026-01-18 11:18:48.96	355.97	15.50	-40.4	-45.8	6.5	2.03e-01	0	61	0	2745171968	51	7108
2026-01-18 11:18:49.97	355.88	15.40	-40.6	-46.6	5.8	3.80e-01	0	61	0	2750414848	51	7741
2026-01-18 11:18:50.98	355.80	15.30	-40.7	-47.5	5.1	7.31e-01	0	61	0	2753560576	52	8116
2026-01-18 11:18:51.99	355.71	15.20	-40.8	-48.4	4.6	8.00e-01	0	61	0	2753560576	52	8976
2026-01-18 11:18:53.00	355.63	15.10	-40.9	-49.0	4.3	8.28e-01	0	61	0	2753560576	52	9677
2026-01-18 11:18:54.01	355.54	15.00	-41.0	-51.4	3.8	8.45e-01	0	61	104	2753560576	52	12783
2026-01-18 11:18:55.02	355.46	14.90	-41.8	-52.0	3.8	8.44e-01	0	61	104	2753560576	54	12096
2026-01-18 11:18:56.02	355.37	14.80	-41.0	-52.7	3.8	8.45e-01	0	61	104	2753560576	54	13152
2026-01-18 11:18:57.03	355.29	14.71	-41.8	-51.4	3.9	8.44e-01	0	61	104	2753560576	54	11289
2026-01-18 11:18:58.04	355.21	14.61	-41.2	-50.9	3.8	8.43e-01	0	61	104	2753560576	54	10664
2026-01-18 11:18:59.05	355.13	14.51	-41.2	-51.3	3.8	8.46e-01	0	61	104	2753560576	54	11194
2026-01-18 11:19:00.06	355.05	14.41	-41.1	-51.4	3.8	8.45e-01	0	61	104	2753560576	54	11355
2026-01-18 11:19:01.07	354.96	14.32	-41.0	-51.8	3.8	8.46e-01	0	61	104	2753560576	54	11932
2026-01-18 11:19:02.08	354.88	14.22	-41.3	-52.1	3.8	8.45e-01	0	61	104	2753560576	54	12253
2026-01-18 11:19:03.09	354.80	14.13	-40.6	-52.4	3.8	8.46e-01	0	61	104	2753560576	53	13500
2026-01-18 11:19:04.10	354.73	14.03	-40.8	-52.4	3.8	8.45e-01	0	61	104	2753560576	53	13463
2026-01-18 11:19:05.11	354.65	13.94	-41.2	-52.5	3.8	8.46e-01	0	61	104	2753560576	53	13666
2026-01-18 11:19:06.12	354.57	13.84	-41.0	-52.5	3.8	8.45e-01	0	61	104	2753560576	53	13575
2026-01-18 11:19:07.13	354.49	13.75	-40.9	-52.5	3.8	8.47e-01	0	61	104	2753560576	53	13697
2026-01-18 11:19:08.14	354.41	13.65	-40.9	-52.5	3.8	8.47e-01	0	61	104	2753560576	53	13681
2026-01-18 11:19:09.15	354.34	13.56	-40.7	-52.4	3.8	8.45e-01	0	61	104	2753560576	53	13436
2026-01-18 11:19:10.16	354.26	13.46	-40.9	-52.6	3.8	8.46e-01	0	61	104	2753560576	53	13754
2026-01-18 11:19:11.17	354.19	13.37	-40.5	-52.2	3.8	8.45e-01	0	61	104	2753560576	53	13156
2026-01-18 11:19:12.18	354.11	13.28	-40.7	-52.3	3.8	8.46e-01	0	61	104	2753560576	53	13380
2026-01-18 11:19:13.19	354.04	13.18	-40.6	-52.3	3.8	8.46e-01	0	61	104	2753560576	53	13401
2026-01-18 11:19:14.20	353.96	13.09	-40.5	-52.2	3.8	8.47e-01	0	61	104	2753560576	53	13172
2026-01-18 11:19:15.21	353.89	13.00	-40.7	-52.4	3.8	8.46e-01	0	61	104	2753560576	53	13569
2026-01-18 11:19:16.22	353.82	12.91	-40.6	-52.2	3.8	8.47e-01	0	61	104	2753560576	53	13256
2026-01-18 11:19:17.23	353.74	12.82	-40.6	-52.3	3.8	8.46e-01	0	61	104	2753560576	53	13289
2026-01-18 11:19:18.24	353.67	12.73	-40.4	-52.2	3.8	8.46e-01	0	61	104	2753560576	52	13910
2026-01-18 11:19:19.25	353.60	12.63	-40.6	-52.3	3.8	8.45e-01	0	61	104	2753560576	52	14160
2026-01-18 11:19:20.26	353.53	12.54	-40.6	-52.3	3.8	8.47e-01	0	61	104	2753560576	52	14076
2026-01-18 11:19:21.27	353.46	12.45	-40.4	-52.1	3.8	8.46e-01	0	61	104	2753560576	52	13838
2026-01-18 11:19:22.28	353.39	12.36	-40.4	-52.2	3.8	8.47e-01	0	61	104	2753560576	52	13978
2026-01-18 11:19:23.29	353.32	12.27	-40.5	-52.2	3.8	8.45e-01	0	61	104	2753560576	52	13987
2026-01-18 11:19:24.30	353.25	12.18	-40.6	-52.3	3.8	8.46e-01	0	61	104	2753560576	52	14073
2026-01-18 11:19:25.30	353.18	12.10	-40.2	-52.0	3.8	8.47e-01	0	61	104	2753560576	52	13720
2026-01-18 11:19:26.31	353.11	12.01	-40.5	-52.3	3.8	8.46e-01	0	61	104	2753560576	52	14090
2026-01-18 11:19:27.32	353.04	11.92	-40.5	-52.2	3.8	8.46e-01	0	61	104	2753560576	52	13942
2026-01-18 11:19:28.33	352.97	11.83	-40.6	-52.3	3.8	8.47e-01	0	61	104	2753560576	52	14098
2026-01-18 11:19:29.34	352.91	11.74	-40.2	-52.0	3.8	8.46e-01	0	61	104	2753560576	52	13681
2026-01-18 11:19:30.35	352.84	11.65	-40.6	-52.3	3.8	8.46e-01	0	61	104	2753560576	52	14113
2026-01-18 11:19:31.36	352.77	11.57	-40.4	-52.2	3.8	8.45e-01	0	61	104	2753560576	52	13937
2026-01-18 11:19:32.37	352.71	11.48	-40.7	-52.4	3.8	8.47e-01	0	61	104	2753560576	52	14250
