passes_logs/2026/01/18/R2.0S_Moscow/R2.0S_Moscow__20260118_093915_NOAA_21_JPSS-2_rec.log

#Pass ID: 20260118_093915_NOAA 21 (JPSS-2)
#Satellite: NOAA 21 (JPSS-2)
#Configuration: NOAA-21
#almurnet v.1.7.20251203
#Start time: 2026-01-18 09:39:15

#Version: 2.2.20231116
#Station: R2.0S_Moscow
#Location: 37.707566 lon 55.798166 lat
#TLE: 1 54234U 22150A   26017.26823908  .00000042  00000+0  40962-4 0  9992
#TLE: 2 54234  98.7501 318.1405 0000613 274.2947  85.8159 14.19535194165131

#Time	Az	El	Level	Level2	SNR	BER	BlckErr	Temp	State	Recorded	gain1	gain2
2026-01-18 09:39:15.74	152.87	2.03	-43.7	-56.2	3.8	1.49e+00	0	51	0	0	59	14759
2026-01-18 09:39:16.74	152.86	2.10	-43.9	-56.3	3.8	1.49e+00	0	51	104	0	59	14923
2026-01-18 09:39:17.75	152.85	2.16	-43.9	-56.2	3.8	1.49e+00	0	51	104	0	59	14849
2026-01-18 09:39:18.76	152.84	2.23	-43.9	-56.3	3.8	1.49e+00	0	51	104	0	59	14884
2026-01-18 09:39:19.78	152.83	2.29	-43.9	-56.2	3.8	1.49e+00	0	52	104	0	59	14868
2026-01-18 09:39:20.79	152.83	2.36	-43.9	-56.2	3.8	1.49e+00	0	52	104	0	59	14869
2026-01-18 09:39:21.80	152.82	2.42	-43.9	-56.3	3.8	1.49e+00	0	52	104	0	59	14892
2026-01-18 09:39:22.81	152.81	2.49	-43.9	-56.2	3.8	1.49e+00	0	52	104	0	59	14872
2026-01-18 09:39:23.82	152.80	2.56	-43.9	-56.2	3.8	1.49e+00	0	52	104	0	59	14859
2026-01-18 09:39:24.83	152.79	2.62	-43.9	-56.2	3.8	1.49e+00	0	52	104	0	59	14866
2026-01-18 09:39:25.84	152.78	2.69	-43.9	-56.2	3.8	1.49e+00	0	52	104	0	59	14839
2026-01-18 09:39:26.85	152.77	2.76	-43.9	-56.2	3.8	1.49e+00	0	52	104	0	59	14781
2026-01-18 09:39:27.86	152.76	2.82	-43.9	-56.2	3.8	1.49e+00	0	52	104	0	59	14816
2026-01-18 09:39:28.88	152.75	2.89	-43.9	-56.2	3.8	1.49e+00	0	52	104	0	59	14866
2026-01-18 09:39:29.89	152.73	2.96	-43.9	-56.2	3.8	1.49e+00	0	52	104	0	59	14821
2026-01-18 09:39:30.90	152.72	3.02	-43.9	-56.2	3.8	1.49e+00	0	52	104	0	59	14868
2026-01-18 09:39:31.91	152.71	3.09	-43.9	-56.3	3.8	1.49e+00	0	53	104	0	59	14926
2026-01-18 09:39:32.92	152.70	3.16	-43.9	-56.2	3.8	1.49e+00	0	53	104	0	59	14864
2026-01-18 09:39:33.93	152.69	3.23	-43.8	-56.2	3.8	1.49e+00	0	52	104	0	59	14750
2026-01-18 09:39:34.94	152.68	3.29	-43.9	-56.2	3.8	1.49e+00	0	53	104	0	59	14855
2026-01-18 09:39:35.95	152.67	3.36	-43.9	-56.2	3.8	1.49e+00	0	53	104	0	59	14837
2026-01-18 09:39:36.96	152.66	3.43	-43.9	-56.2	3.8	1.49e+00	0	53	104	0	59	14868
2026-01-18 09:39:37.97	152.65	3.50	-43.9	-56.2	3.8	1.49e+00	0	53	104	0	59	14870
2026-01-18 09:39:38.98	152.64	3.57	-43.9	-56.2	3.8	1.49e+00	0	53	104	0	59	14878
2026-01-18 09:39:40.00	152.63	3.64	-43.9	-56.2	3.8	1.49e+00	0	53	104	0	59	14854
2026-01-18 09:39:41.01	152.62	3.71	-43.9	-56.2	3.8	1.49e+00	0	53	104	0	59	14797
2026-01-18 09:39:42.02	152.61	3.77	-43.9	-56.2	3.8	1.49e+00	0	53	104	0	59	14812
2026-01-18 09:39:43.03	152.60	3.84	-43.9	-56.2	3.8	1.49e+00	0	53	104	0	59	14851
2026-01-18 09:39:44.04	152.59	3.91	-43.9	-56.2	3.8	1.49e+00	0	53	104	0	59	14823
2026-01-18 09:39:45.05	152.57	3.98	-43.9	-56.2	3.8	1.49e+00	0	53	104	0	59	14857
2026-01-18 09:39:46.06	152.56	4.05	-43.9	-56.2	3.8	1.49e+00	0	53	104	0	59	14868
2026-01-18 09:39:47.07	152.55	4.12	-43.9	-56.2	3.8	1.49e+00	0	53	104	0	59	14827
2026-01-18 09:39:48.08	152.54	4.19	-43.9	-56.2	3.8	1.49e+00	0	53	104	0	59	14788
2026-01-18 09:39:49.09	152.53	4.26	-43.9	-56.2	3.8	1.49e+00	0	53	104	0	59	14864
2026-01-18 09:39:50.11	152.52	4.33	-43.9	-56.3	3.8	1.49e+00	0	53	104	0	59	14883
2026-01-18 09:39:51.12	152.51	4.40	-43.9	-56.2	3.8	1.49e+00	0	54	104	0	59	14844
2026-01-18 09:39:52.13	152.49	4.48	-43.9	-56.2	3.8	1.49e+00	0	54	104	0	59	14836
2026-01-18 09:39:53.14	152.48	4.55	-43.9	-56.3	3.8	1.49e+00	0	54	104	0	59	14889
2026-01-18 09:39:54.15	152.47	4.62	-43.9	-56.3	3.8	1.49e+00	0	54	104	0	59	14882
2026-01-18 09:39:55.16	152.46	4.69	-43.9	-56.3	3.8	1.49e+00	0	54	104	0	59	14880
2026-01-18 09:39:56.17	152.45	4.76	-43.9	-56.2	3.8	1.49e+00	0	54	104	0	59	14817
2026-01-18 09:39:57.18	152.43	4.83	-43.9	-56.2	3.8	1.49e+00	0	54	104	0	59	14819
2026-01-18 09:39:58.19	152.42	4.90	-43.9	-56.2	3.8	1.49e+00	0	54	104	0	59	14861
2026-01-18 09:39:59.20	152.41	4.98	-43.9	-56.2	3.8	1.49e+00	0	54	104	0	59	14808
2026-01-18 09:40:00.21	152.40	5.05	-43.9	-56.2	3.8	1.49e+00	0	54	104	0	59	14848
2026-01-18 09:40:01.23	152.39	5.12	-43.9	-56.2	3.8	1.49e+00	0	54	104	0	59	14766
2026-01-18 09:40:02.24	152.37	5.19	-43.9	-56.2	3.8	1.49e+00	0	54	104	0	59	14730
2026-01-18 09:40:03.25	152.36	5.27	-43.9	-56.1	3.8	1.49e+00	0	54	104	0	59	14666
2026-01-18 09:40:04.26	152.35	5.34	-43.9	-56.1	3.8	1.49e+00	0	54	104	0	59	14552
2026-01-18 09:40:05.27	152.34	5.41	-43.9	-56.0	3.8	1.49e+00	0	54	104	0	59	14405
2026-01-18 09:40:06.28	152.32	5.49	-43.9	-55.9	3.8	1.49e+00	0	54	104	0	59	14312
2026-01-18 09:40:07.29	152.31	5.56	-43.8	-55.7	3.8	1.49e+00	0	54	104	0	59	13942
2026-01-18 09:40:08.30	152.30	5.63	-43.8	-55.5	3.8	1.49e+00	0	55	104	0	59	13600
2026-01-18 09:40:09.31	152.29	5.71	-43.8	-55.1	3.8	1.49e+00	0	55	104	0	59	13081
2026-01-18 09:40:10.32	152.27	5.78	-43.8	-55.0	3.8	1.49e+00	0	55	104	0	59	12811
2026-01-18 09:40:11.34	152.26	5.86	-43.7	-54.7	3.8	1.49e+00	0	55	104	0	59	12497
2026-01-18 09:40:12.35	152.25	5.93	-43.7	-54.3	3.8	1.49e+00	0	55	104	0	59	11902
2026-01-18 09:40:13.36	152.23	6.01	-43.7	-53.8	3.9	1.48e+00	0	55	104	0	59	11218
2026-01-18 09:40:14.37	152.22	6.08	-43.6	-53.9	3.9	1.48e+00	0	55	104	0	59	11397
2026-01-18 09:40:15.38	152.21	6.16	-43.6	-53.1	4.1	1.48e+00	0	55	104	0	59	10404
2026-01-18 09:40:16.39	152.19	6.23	-43.6	-53.5	3.9	1.48e+00	0	55	104	0	59	10782
2026-01-18 09:40:17.40	152.18	6.31	-43.6	-53.0	4.1	1.47e+00	0	55	104	0	59	10212
2026-01-18 09:40:18.41	152.17	6.39	-43.5	-52.9	3.9	1.46e+00	0	55	104	0	59	10144
2026-01-18 09:40:19.42	152.15	6.46	-43.6	-52.9	4.1	1.47e+00	0	55	104	0	58	10663
2026-01-18 09:40:20.43	152.14	6.54	-43.6	-53.5	3.9	1.47e+00	0	55	104	0	58	11448
2026-01-18 09:40:21.45	152.12	6.62	-43.6	-53.8	3.8	1.48e+00	0	55	104	0	58	11856
2026-01-18 09:40:22.46	152.11	6.69	-43.7	-54.0	3.9	1.48e+00	0	55	104	0	58	12138
2026-01-18 09:40:23.47	152.10	6.77	-43.8	-54.9	3.8	1.49e+00	0	55	104	0	58	13491
2026-01-18 09:40:24.48	152.08	6.85	-43.8	-55.3	3.8	1.49e+00	0	55	104	0	58	14194
2026-01-18 09:40:25.49	152.07	6.93	-43.8	-55.7	3.8	1.49e+00	0	55	104	0	58	14735
2026-01-18 09:40:26.50	152.05	7.00	-43.9	-56.1	3.8	1.49e+00	0	55	104	0	58	15413
2026-01-18 09:40:27.51	152.04	7.08	-43.9	-56.1	3.8	1.49e+00	0	55	104	0	58	15433
2026-01-18 09:40:28.52	152.03	7.16	-43.8	-55.6	3.8	1.49e+00	0	56	104	0	58	14682
2026-01-18 09:40:29.54	152.01	7.24	-43.7	-54.8	3.8	1.49e+00	0	56	104	0	58	13323
2026-01-18 09:40:30.55	152.00	7.32	-43.6	-53.2	3.9	1.48e+00	0	56	104	0	58	11135
2026-01-18 09:40:31.56	151.98	7.40	-43.3	-51.6	4.6	1.46e+00	0	56	104	0	58	9183
2026-01-18 09:40:32.57	151.97	7.48	-43.2	-50.5	5.1	7.23e-01	0	56	0	1048576	58	8151
2026-01-18 09:40:33.58	151.95	7.56	-42.9	-49.3	5.9	4.34e-01	0	56	0	4194304	57	7488
2026-01-18 09:40:34.59	151.94	7.64	-42.6	-48.3	6.7	2.29e-01	0	56	0	7340032	57	6699
2026-01-18 09:40:35.60	151.92	7.72	-42.2	-47.4	7.5	1.15e-01	0	56	0	10485760	56	6373
2026-01-18 09:40:36.61	151.91	7.80	-42.1	-46.9	8.0	7.58e-02	0	56	0	13631488	56	6013
2026-01-18 09:40:37.62	151.89	7.88	-41.6	-46.0	8.8	3.92e-02	0	56	0	16777216	55	5729
2026-01-18 09:40:38.63	151.88	7.96	-41.5	-45.7	9.1	2.40e-02	0	56	0	19922944	55	5549
2026-01-18 09:40:39.64	151.86	8.04	-41.3	-45.2	9.5	1.69e-02	0	56	0	23068672	54	5574
2026-01-18 09:40:40.65	151.84	8.12	-41.1	-44.9	9.9	1.01e-02	0	56	0	26214400	54	5361
2026-01-18 09:40:41.66	151.83	8.20	-43.6	-51.8	4.7	7.58e-02	0	56	0	29360128	57	10051
2026-01-18 09:40:42.67	151.81	8.28	-41.5	-45.6	9.3	3.45e-01	0	56	104	29360128	54	5811
2026-01-18 09:40:43.68	151.80	8.37	-43.1	-50.2	5.3	6.13e-01	0	56	0	29360128	57	8284
2026-01-18 09:40:44.69	151.78	8.45	-41.0	-44.7	10.1	4.16e-01	0	56	0	30408704	54	5246
2026-01-18 09:40:45.70	151.76	8.53	-41.0	-44.7	10.0	1.88e-02	0	56	0	33554432	54	5260
2026-01-18 09:40:46.71	151.75	8.61	-40.8	-44.4	10.4	4.35e-03	0	56	0	36700160	53	5357
2026-01-18 09:40:47.72	151.73	8.70	-40.7	-44.1	10.7	3.28e-03	0	56	0	39845888	53	5183
2026-01-18 09:40:48.73	151.72	8.78	-40.6	-44.0	11.0	2.23e-03	0	56	0	42991616	53	5111
2026-01-18 09:40:49.74	151.70	8.87	-40.7	-44.0	11.0	1.75e-03	0	56	0	46137344	53	5111
2026-01-18 09:40:50.75	151.68	8.95	-40.7	-44.0	11.0	2.10e-03	0	57	0	49283072	53	5130
2026-01-18 09:40:51.76	151.67	9.03	-40.7	-43.9	11.1	1.67e-03	0	57	0	52428800	53	5080
2026-01-18 09:40:52.77	151.65	9.12	-40.6	-43.9	11.1	1.65e-03	0	56	0	55574528	53	5079
2026-01-18 09:40:53.77	151.63	9.20	-40.6	-43.9	11.1	1.72e-03	0	57	0	58720256	53	5064
2026-01-18 09:40:54.78	151.61	9.29	-40.6	-43.8	11.2	1.52e-03	0	56	0	61865984	53	5035
2026-01-18 09:40:55.79	151.60	9.37	-40.7	-43.9	11.1	1.77e-03	0	56	0	65011712	53	5086
2026-01-18 09:40:56.81	151.58	9.46	-40.6	-43.7	11.3	1.21e-03	0	57	0	68157440	53	4973
2026-01-18 09:40:57.82	151.56	9.55	-40.7	-43.9	11.1	1.41e-03	0	57	0	71303168	53	5072
2026-01-18 09:40:58.83	151.54	9.63	-40.6	-43.8	11.3	1.12e-03	0	57	0	74448896	53	5010
2026-01-18 09:40:59.84	151.53	9.72	-40.6	-43.8	11.3	1.20e-03	0	57	0	77594624	53	4993
2026-01-18 09:41:00.85	151.51	9.81	-40.6	-43.7	11.4	8.64e-04	0	57	0	80740352	53	4974
2026-01-18 09:41:01.86	151.49	9.89	-40.7	-43.8	11.3	1.21e-03	0	57	0	83886080	53	5023
2026-01-18 09:41:02.87	151.47	9.98	-40.7	-43.8	11.3	1.08e-03	0	57	0	87031808	53	5040
2026-01-18 09:41:03.88	151.46	10.07	-40.6	-43.8	11.4	1.03e-03	0	57	0	90177536	53	4990
2026-01-18 09:41:04.89	151.44	10.16	-40.6	-43.7	11.5	7.91e-04	0	57	0	93323264	53	4944
2026-01-18 09:41:05.90	151.42	10.25	-40.6	-43.7	11.5	8.72e-04	0	57	0	96468992	53	4959
2026-01-18 09:41:06.91	151.40	10.33	-40.7	-43.8	11.5	8.53e-04	0	57	0	99614720	53	5001
2026-01-18 09:41:07.92	151.38	10.42	-40.7	-43.8	11.4	9.51e-04	0	57	0	102760448	53	5021
2026-01-18 09:41:08.93	151.36	10.51	-40.5	-43.6	11.7	6.70e-04	0	57	0	105906176	53	4871
2026-01-18 09:41:09.94	151.34	10.60	-40.5	-43.5	11.8	5.65e-04	0	57	0	109051904	53	4856
2026-01-18 09:41:10.95	151.32	10.69	-40.5	-43.5	11.8	5.26e-04	0	57	0	112197632	53	4842
2026-01-18 09:41:11.96	151.30	10.78	-40.5	-43.5	11.9	4.88e-04	0	57	0	115343360	52	5106
2026-01-18 09:41:12.97	151.29	10.87	-40.5	-43.5	11.9	4.53e-04	0	57	0	118489088	52	5113
2026-01-18 09:41:13.98	151.27	10.97	-40.5	-43.5	11.8	5.25e-04	0	57	0	122683392	52	5122
2026-01-18 09:41:15.00	151.25	11.06	-40.5	-43.4	11.9	3.93e-04	0	57	0	125829120	52	5084
2026-01-18 09:41:16.01	151.23	11.15	-40.5	-43.5	11.9	4.58e-04	0	57	0	128974848	52	5134
2026-01-18 09:41:17.02	151.21	11.24	-40.5	-43.5	11.9	4.40e-04	0	57	0	131072000	52	5132
2026-01-18 09:41:18.03	151.19	11.33	-40.5	-43.4	11.9	3.94e-04	0	57	0	134217728	52	5087
2026-01-18 09:41:19.04	151.17	11.43	-40.5	-43.4	12.0	3.35e-04	0	57	0	138412032	52	5072
2026-01-18 09:41:20.05	151.15	11.52	-40.5	-43.3	12.1	3.24e-04	0	57	0	141557760	52	5027
2026-01-18 09:41:21.06	151.13	11.61	-40.4	-43.2	12.2	2.27e-04	0	57	0	144703488	52	4963
2026-01-18 09:41:22.07	151.10	11.71	-40.4	-43.3	12.1	2.60e-04	0	57	0	147849216	52	4988
2026-01-18 09:41:23.08	151.08	11.80	-40.4	-43.2	12.2	2.01e-04	0	57	0	150994944	52	4950
2026-01-18 09:41:24.09	151.06	11.90	-40.4	-43.2	12.3	2.10e-04	0	57	0	154140672	52	4945
2026-01-18 09:41:25.10	151.04	11.99	-40.3	-43.1	12.4	1.76e-04	0	57	0	157286400	52	4907
2026-01-18 09:41:26.11	151.02	12.09	-40.3	-43.1	12.4	1.73e-04	0	57	0	160432128	52	4903
2026-01-18 09:41:27.13	151.00	12.18	-40.4	-43.2	12.3	1.43e-04	0	58	0	163577856	52	4963
2026-01-18 09:41:28.14	150.98	12.28	-40.3	-43.1	12.4	1.94e-04	0	57	0	166723584	52	4912
2026-01-18 09:41:29.15	150.96	12.38	-40.3	-43.1	12.4	1.89e-04	0	57	0	169869312	52	4899
2026-01-18 09:41:30.16	150.93	12.47	-40.4	-43.2	12.3	1.91e-04	0	57	0	173015040	52	4947
2026-01-18 09:41:31.17	150.91	12.57	-40.4	-43.2	12.3	1.44e-04	0	58	0	176160768	52	4954
2026-01-18 09:41:32.18	150.89	12.67	-40.3	-43.0	12.5	1.65e-04	0	58	0	179306496	52	4867
2026-01-18 09:41:33.19	150.87	12.77	-40.3	-43.0	12.5	1.18e-04	0	58	0	182452224	52	4867
2026-01-18 09:41:34.20	150.84	12.86	-40.3	-42.9	12.7	1.07e-04	0	58	0	185597952	52	4798
2026-01-18 09:41:35.21	150.82	12.96	-40.3	-43.0	12.6	1.04e-04	0	58	0	188743680	52	4829
2026-01-18 09:41:36.22	150.80	13.06	-40.3	-43.0	12.5	1.01e-04	0	58	0	191889408	52	4858
2026-01-18 09:41:37.23	150.78	13.16	-40.2	-42.9	12.7	8.54e-05	0	58	0	195035136	52	4763
2026-01-18 09:41:38.24	150.75	13.26	-40.3	-42.9	12.7	7.17e-05	0	57	0	198180864	52	4810
2026-01-18 09:41:39.25	150.73	13.36	-40.3	-42.9	12.7	6.94e-05	0	58	0	201326592	52	4812
2026-01-18 09:41:40.26	150.71	13.46	-40.3	-42.9	12.7	6.33e-05	0	58	0	204472320	52	4811
2026-01-18 09:41:41.28	150.68	13.56	-40.1	-42.7	12.9	5.72e-05	0	58	0	207618048	52	4701
2026-01-18 09:41:42.29	150.66	13.67	-40.1	-42.7	13.0	3.35e-05	0	58	0	210763776	52	4676
2026-01-18 09:41:43.30	150.63	13.77	-40.2	-42.8	12.9	5.26e-05	0	58	0	213909504	52	4724
2026-01-18 09:41:44.31	150.61	13.87	-40.2	-42.7	13.0	3.96e-05	0	58	0	217055232	52	4696
2026-01-18 09:41:45.32	150.58	13.97	-40.2	-42.8	12.9	4.50e-05	0	58	0	220200960	52	4733
2026-01-18 09:41:46.33	150.56	14.08	-40.2	-42.8	12.9	6.48e-05	0	58	0	223346688	52	4758
2026-01-18 09:41:47.34	150.53	14.18	-40.2	-42.8	12.9	5.64e-05	0	58	0	226492416	52	4752
2026-01-18 09:41:48.35	150.51	14.29	-40.2	-42.8	12.9	3.43e-05	0	58	0	229638144	52	4734
2026-01-18 09:41:49.36	150.48	14.39	-40.2	-42.8	13.0	2.74e-05	0	58	0	232783872	52	4721
2026-01-18 09:41:50.37	150.46	14.50	-40.2	-42.7	13.0	3.35e-05	0	58	0	235929600	52	4690
2026-01-18 09:41:51.38	150.43	14.60	-40.1	-42.7	13.0	2.36e-05	0	58	0	239075328	52	4671
2026-01-18 09:41:52.40	150.41	14.71	-40.2	-42.7	13.0	3.89e-05	0	58	0	242221056	52	4700
2026-01-18 09:41:53.41	150.38	14.81	-40.2	-42.7	13.1	3.58e-05	0	58	0	245366784	52	4700
2026-01-18 09:41:54.42	150.35	14.92	-40.2	-42.7	13.1	3.50e-05	0	58	0	248512512	52	4665
2026-01-18 09:41:55.43	150.33	15.03	-40.2	-42.8	13.0	2.82e-05	0	58	0	251658240	52	4712
2026-01-18 09:41:56.44	150.30	15.14	-40.2	-42.7	13.0	3.35e-05	0	58	0	254803968	52	4695
2026-01-18 09:41:57.45	150.27	15.24	-40.1	-42.7	13.1	3.12e-05	0	58	0	257949696	52	4659
2026-01-18 09:41:58.46	150.25	15.35	-40.1	-42.7	13.1	3.05e-05	0	58	0	261095424	52	4655
2026-01-18 09:41:59.48	150.22	15.46	-40.2	-42.7	13.0	2.67e-05	0	58	0	264241152	52	4694
2026-01-18 09:42:00.48	150.19	15.57	-40.2	-42.8	13.0	3.28e-05	0	58	0	267386880	52	4710
2026-01-18 09:42:01.49	150.16	15.68	-40.2	-42.7	13.1	2.82e-05	0	58	0	270532608	52	4681
2026-01-18 09:42:02.51	150.14	15.79	-40.2	-42.8	13.0	3.89e-05	0	58	0	273678336	52	4717
2026-01-18 09:42:03.52	150.11	15.91	-40.2	-42.7	13.1	3.50e-05	0	58	0	276824064	52	4705
2026-01-18 09:42:04.53	150.08	16.02	-40.2	-42.7	13.1	3.35e-05	0	58	0	279969792	52	4700
2026-01-18 09:42:05.54	150.05	16.13	-40.2	-42.7	13.1	3.81e-05	0	58	0	283115520	52	4696
2026-01-18 09:42:06.55	150.02	16.24	-40.3	-42.9	13.0	2.82e-05	0	58	0	286261248	52	4763
2026-01-18 09:42:07.56	149.99	16.36	-40.3	-42.8	13.0	4.42e-05	0	58	0	289406976	52	4759
2026-01-18 09:42:08.57	149.96	16.47	-40.3	-42.8	13.0	4.73e-05	0	58	0	292552704	52	4758
2026-01-18 09:42:09.58	149.93	16.58	-40.2	-42.8	13.1	3.28e-05	0	58	0	295698432	52	4722
2026-01-18 09:42:10.59	149.90	16.70	-40.2	-42.7	13.2	2.82e-05	0	58	0	298844160	52	4686
2026-01-18 09:42:11.61	149.87	16.82	-40.3	-42.9	13.0	3.50e-05	0	58	0	301989888	52	4780
2026-01-18 09:42:12.62	149.84	16.93	-40.3	-42.8	13.1	3.20e-05	0	58	0	305135616	52	4740
2026-01-18 09:42:13.63	149.81	17.05	-40.3	-42.8	13.1	3.81e-05	0	58	0	308281344	52	4755
2026-01-18 09:42:14.64	149.78	17.17	-40.3	-42.9	13.0	3.43e-05	0	58	0	311427072	52	4779
2026-01-18 09:42:15.65	149.75	17.28	-40.4	-43.0	12.9	4.11e-05	0	58	0	314572800	52	4840
2026-01-18 09:42:16.66	149.72	17.40	-40.3	-42.9	13.0	4.04e-05	0	58	0	317718528	52	4791
2026-01-18 09:42:17.67	149.69	17.52	-40.4	-42.9	13.0	3.73e-05	0	58	0	320864256	52	4797
2026-01-18 09:42:18.68	149.65	17.64	-40.3	-42.9	13.0	3.28e-05	0	59	0	324009984	52	4779
2026-01-18 09:42:19.69	149.62	17.76	-40.4	-43.0	12.9	3.96e-05	0	58	0	327155712	52	4833
2026-01-18 09:42:20.70	149.59	17.88	-40.3	-42.9	13.1	2.74e-05	0	58	0	330301440	52	4780
2026-01-18 09:42:21.71	149.56	18.00	-40.4	-42.9	13.0	2.13e-05	0	59	0	333447168	52	4793
2026-01-18 09:42:22.72	149.52	18.12	-40.4	-42.9	13.0	3.81e-05	0	59	0	336592896	52	4802
2026-01-18 09:42:23.73	149.49	18.24	-40.4	-42.9	13.0	3.89e-05	0	59	0	339738624	52	4800
2026-01-18 09:42:24.74	149.46	18.37	-40.4	-42.9	13.0	2.97e-05	0	58	0	342884352	52	4814
2026-01-18 09:42:25.75	149.42	18.49	-40.4	-42.9	13.0	3.50e-05	0	59	0	346030080	52	4803
2026-01-18 09:42:26.76	149.39	18.61	-40.3	-42.8	13.2	3.50e-05	0	58	0	349175808	52	4731
2026-01-18 09:42:27.77	149.35	18.74	-40.3	-42.8	13.2	1.75e-05	0	59	0	352321536	52	4738
2026-01-18 09:42:28.78	149.32	18.86	-40.3	-42.8	13.2	2.59e-05	0	59	0	355467264	52	4741
2026-01-18 09:42:29.79	149.28	18.99	-40.3	-42.8	13.2	2.21e-05	0	58	0	358612992	52	4745
2026-01-18 09:42:30.81	149.25	19.12	-40.3	-42.8	13.2	2.36e-05	0	59	0	361758720	52	4754
2026-01-18 09:42:31.82	149.21	19.25	-40.3	-42.7	13.3	2.36e-05	0	59	0	364904448	52	4695
2026-01-18 09:42:32.83	149.18	19.37	-40.2	-42.6	13.4	1.67e-05	0	59	0	368050176	52	4627
2026-01-18 09:42:33.84	149.14	19.50	-40.2	-42.7	13.3	1.37e-05	0	59	0	372244480	52	4661
2026-01-18 09:42:34.84	149.10	19.63	-40.3	-42.8	13.2	1.60e-05	0	59	0	374341632	52	4728
2026-01-18 09:42:35.86	149.06	19.76	-40.2	-42.7	13.3	2.05e-05	0	59	0	377487360	52	4654
2026-01-18 09:42:36.87	149.03	19.89	-40.1	-42.5	13.5	1.37e-05	0	59	0	380633088	52	4577
2026-01-18 09:42:37.88	148.99	20.02	-40.0	-42.4	13.6	1.22e-05	0	59	0	383778816	52	4511
2026-01-18 09:42:38.89	148.95	20.15	-40.1	-42.4	13.6	6.80e-06	0	59	0	387973120	52	4533
2026-01-18 09:42:39.89	148.91	20.28	-40.0	-42.3	13.8	6.10e-06	0	59	0	391118848	51	4744
2026-01-18 09:42:40.90	148.87	20.42	-40.0	-42.3	13.8	4.50e-06	0	59	0	394264576	51	4709
2026-01-18 09:42:41.92	148.83	20.55	-40.0	-42.3	13.8	5.30e-06	0	59	0	397410304	51	4751
2026-01-18 09:42:42.93	148.79	20.69	-39.9	-42.2	13.9	3.80e-06	0	59	0	399507456	51	4689
2026-01-18 09:42:43.94	148.75	20.82	-39.9	-42.1	14.0	3.80e-06	0	59	0	403701760	51	4643
2026-01-18 09:42:44.95	148.71	20.96	-39.8	-42.0	14.1	1.50e-06	0	59	0	406847488	51	4566
2026-01-18 09:42:45.96	148.67	21.10	-39.7	-41.9	14.2	1.50e-06	0	59	0	409993216	51	4522
2026-01-18 09:42:46.97	148.63	21.23	-39.7	-41.9	14.2	1.50e-06	0	59	0	413138944	51	4526
2026-01-18 09:42:47.98	148.59	21.37	-39.8	-42.0	14.2	1.50e-06	0	59	0	416284672	51	4552
2026-01-18 09:42:48.99	148.55	21.51	-39.7	-41.9	14.2	2.20e-06	0	59	0	419430400	51	4508
2026-01-18 09:42:50.00	148.51	21.65	-39.6	-41.7	14.4	1.50e-06	0	59	0	422576128	51	4440
2026-01-18 09:42:51.01	148.46	21.79	-39.5	-41.5	14.6	7.00e-07	0	59	0	425721856	51	4340
2026-01-18 09:42:52.02	148.42	21.93	-39.5	-41.6	14.6	0.00e+00	0	59	0	428867584	50	4604
2026-01-18 09:42:53.03	148.38	22.07	-39.5	-41.6	14.6	0.00e+00	0	59	0	432013312	50	4599
2026-01-18 09:42:54.04	148.33	22.22	-39.5	-41.6	14.6	7.00e-07	0	59	0	435159040	50	4607
2026-01-18 09:42:55.05	148.29	22.36	-39.4	-41.4	14.7	0.00e+00	0	59	0	438304768	50	4535
2026-01-18 09:42:56.06	148.24	22.50	-39.4	-41.4	14.7	7.00e-07	0	59	0	441450496	50	4537
2026-01-18 09:42:57.08	148.20	22.65	-39.5	-41.5	14.6	7.00e-07	0	59	0	444596224	50	4596
2026-01-18 09:42:58.09	148.15	22.80	-39.5	-41.5	14.7	7.00e-07	0	59	0	447741952	50	4575
2026-01-18 09:42:59.10	148.11	22.94	-39.4	-41.4	14.8	0.00e+00	0	59	0	450887680	50	4525
2026-01-18 09:43:00.11	148.06	23.09	-39.4	-41.4	14.8	0.00e+00	0	59	0	454033408	50	4516
2026-01-18 09:43:01.12	148.01	23.24	-39.3	-41.3	15.0	0.00e+00	0	59	0	457179136	50	4442
2026-01-18 09:43:02.13	147.96	23.39	-39.2	-41.2	15.0	0.00e+00	0	59	0	460324864	50	4412
2026-01-18 09:43:03.14	147.92	23.54	-39.2	-41.2	15.0	0.00e+00	0	59	0	463470592	50	4430
2026-01-18 09:43:04.15	147.87	23.69	-39.3	-41.3	14.9	0.00e+00	0	59	0	466616320	50	4482
2026-01-18 09:43:05.16	147.82	23.84	-39.3	-41.3	14.9	0.00e+00	0	59	0	469762048	50	4451
2026-01-18 09:43:06.17	147.77	23.99	-39.3	-41.3	14.9	0.00e+00	0	59	0	472907776	50	4478
2026-01-18 09:43:07.18	147.72	24.15	-39.3	-41.3	14.9	0.00e+00	0	59	0	476053504	50	4476
2026-01-18 09:43:08.19	147.67	24.30	-39.3	-41.3	14.9	0.00e+00	0	59	0	479199232	50	4462
2026-01-18 09:43:09.20	147.62	24.46	-39.3	-41.2	15.0	0.00e+00	0	59	0	482344960	50	4439
2026-01-18 09:43:10.21	147.56	24.61	-39.3	-41.3	15.0	0.00e+00	0	59	0	485490688	50	4454
2026-01-18 09:43:11.22	147.51	24.77	-39.4	-41.4	14.8	0.00e+00	0	59	0	488636416	50	4522
2026-01-18 09:43:12.23	147.46	24.93	-39.4	-41.4	14.8	0.00e+00	0	59	0	491782144	50	4530
2026-01-18 09:43:13.24	147.41	25.09	-39.4	-41.5	14.8	7.00e-07	0	59	0	494927872	50	4548
2026-01-18 09:43:14.25	147.35	25.25	-39.5	-41.5	14.7	0.00e+00	0	59	0	498073600	50	4580
2026-01-18 09:43:15.26	147.30	25.41	-39.5	-41.6	14.7	0.00e+00	0	59	0	501219328	50	4630
2026-01-18 09:43:16.28	147.24	25.57	-39.6	-41.7	14.5	7.00e-07	0	59	0	504365056	50	4688
2026-01-18 09:43:17.29	147.19	25.73	-39.7	-41.8	14.5	0.00e+00	0	59	0	507510784	50	4754
2026-01-18 09:43:18.30	147.13	25.90	-39.8	-42.0	14.3	1.50e-06	0	59	0	510656512	50	4816
2026-01-18 09:43:19.31	147.07	26.06	-39.8	-42.0	14.3	7.00e-07	0	59	0	513802240	50	4827
2026-01-18 09:43:20.32	147.01	26.23	-39.9	-42.1	14.2	2.20e-06	0	59	0	516947968	50	4915
2026-01-18 09:43:21.33	146.96	26.39	-40.0	-42.2	14.1	1.50e-06	0	59	0	520093696	50	4933
2026-01-18 09:43:22.34	146.90	26.56	-39.9	-42.1	14.1	0.00e+00	0	59	0	523239424	50	4916
2026-01-18 09:43:23.35	146.84	26.73	-40.0	-42.2	14.1	2.20e-06	0	59	0	526385152	50	4932
2026-01-18 09:43:24.36	146.78	26.90	-40.1	-42.3	14.0	7.00e-07	0	59	0	529530880	50	5014
2026-01-18 09:43:25.37	146.72	27.07	-40.0	-42.3	14.0	2.20e-06	0	59	0	532676608	50	5008
2026-01-18 09:43:26.38	146.66	27.24	-40.0	-42.3	14.0	5.30e-06	0	59	0	535822336	50	5002
2026-01-18 09:43:27.39	146.59	27.41	-40.2	-42.5	13.8	5.30e-06	0	59	0	538968064	50	5116
2026-01-18 09:43:28.40	146.53	27.59	-40.2	-42.5	13.8	4.50e-06	0	59	0	542113792	50	5128
2026-01-18 09:43:29.41	146.47	27.76	-40.3	-42.6	13.7	4.50e-06	0	59	0	545259520	51	4885
2026-01-18 09:43:30.42	146.40	27.94	-40.3	-42.7	13.6	8.30e-06	0	59	0	548405248	51	4949
2026-01-18 09:43:31.43	146.34	28.12	-40.4	-42.7	13.6	6.80e-06	0	59	0	551550976	51	4980
2026-01-18 09:43:32.45	146.27	28.30	-40.4	-42.8	13.5	1.14e-05	0	59	0	554696704	51	5000
2026-01-18 09:43:33.46	146.20	28.47	-40.4	-42.8	13.5	1.14e-05	0	59	0	557842432	51	5037
2026-01-18 09:43:34.47	146.14	28.66	-40.5	-43.0	13.3	1.22e-05	0	59	0	560988160	51	5116
2026-01-18 09:43:35.48	146.07	28.84	-40.4	-42.8	13.5	1.37e-05	0	59	0	564133888	51	5039
2026-01-18 09:43:36.49	146.00	29.02	-40.4	-42.8	13.5	1.06e-05	0	59	0	567279616	51	4996
2026-01-18 09:43:37.50	145.93	29.20	-40.5	-42.9	13.4	1.60e-05	0	59	0	570425344	51	5073
2026-01-18 09:43:38.51	145.86	29.39	-40.4	-42.9	13.4	9.10e-06	0	60	0	573571072	51	5050
2026-01-18 09:43:39.52	145.79	29.57	-40.4	-42.8	13.5	1.06e-05	0	59	0	576716800	51	5021
2026-01-18 09:43:40.53	145.71	29.76	-40.3	-42.6	13.7	7.60e-06	0	59	0	579862528	51	4908
2026-01-18 09:43:41.54	145.64	29.95	-40.2	-42.5	13.8	6.10e-06	0	59	0	583008256	51	4862
2026-01-18 09:43:42.55	145.57	30.14	-40.2	-42.5	13.9	4.50e-06	0	59	0	586153984	51	4835
2026-01-18 09:43:43.56	145.49	30.33	-40.1	-42.4	13.9	3.00e-06	0	59	0	589299712	51	4805
2026-01-18 09:43:44.57	145.42	30.52	-40.2	-42.5	13.9	3.00e-06	0	59	0	592445440	51	4820
2026-01-18 09:43:45.58	145.34	30.71	-40.2	-42.5	13.9	8.30e-06	0	59	0	595591168	51	4823
2026-01-18 09:43:46.59	145.26	30.91	-40.3	-42.6	13.8	3.00e-06	0	59	0	598736896	51	4910
2026-01-18 09:43:47.60	145.18	31.10	-40.2	-42.5	13.8	4.50e-06	0	60	0	601882624	51	4865
2026-01-18 09:43:48.61	145.10	31.30	-40.3	-42.6	13.8	7.60e-06	0	59	0	605028352	51	4900
2026-01-18 09:43:49.62	145.02	31.50	-40.3	-42.7	13.7	5.30e-06	0	59	0	608174080	51	4929
2026-01-18 09:43:50.63	144.94	31.70	-40.3	-42.7	13.7	6.80e-06	0	59	0	611319808	51	4927
2026-01-18 09:43:51.64	144.86	31.90	-40.3	-42.7	13.7	6.80e-06	0	59	0	614465536	51	4929
2026-01-18 09:43:52.66	144.77	32.10	-40.4	-42.8	13.6	8.30e-06	0	59	0	617611264	51	4986
2026-01-18 09:43:53.67	144.69	32.31	-40.4	-42.8	13.5	1.22e-05	0	59	0	620756992	51	5021
2026-01-18 09:43:54.68	144.60	32.51	-40.5	-43.0	13.3	1.52e-05	0	59	0	623902720	51	5141
2026-01-18 09:43:55.69	144.51	32.72	-40.5	-43.0	13.3	1.52e-05	0	59	0	627048448	51	5134
2026-01-18 09:43:56.70	144.42	32.93	-40.6	-43.1	13.2	2.67e-05	0	59	0	630194176	51	5206
2026-01-18 09:43:57.71	144.33	33.13	-40.7	-43.2	13.2	2.28e-05	0	59	0	633339904	51	5229
2026-01-18 09:43:58.72	144.24	33.34	-40.7	-43.2	13.2	2.82e-05	0	59	0	636485632	51	5239
2026-01-18 09:43:59.73	144.15	33.56	-40.6	-43.1	13.1	3.20e-05	0	60	0	639631360	52	4914
2026-01-18 09:44:00.74	144.06	33.77	-40.6	-43.1	13.1	2.51e-05	0	60	0	643825664	52	4906
2026-01-18 09:44:01.75	143.96	33.98	-40.7	-43.2	13.1	3.05e-05	0	59	0	645922816	52	4952
2026-01-18 09:44:02.76	143.87	34.20	-40.7	-43.2	13.0	3.35e-05	0	60	0	649068544	52	4956
2026-01-18 09:44:03.77	143.77	34.42	-40.7	-43.2	13.0	3.50e-05	0	60	0	652214272	52	4963
2026-01-18 09:44:04.78	143.67	34.63	-40.8	-43.4	12.9	4.88e-05	0	60	0	655360000	52	5051
2026-01-18 09:44:05.79	143.57	34.85	-40.8	-43.4	12.9	4.73e-05	0	60	0	659554304	52	5070
2026-01-18 09:44:06.80	143.47	35.08	-40.9	-43.5	12.7	8.31e-05	0	60	0	662700032	52	5147
2026-01-18 09:44:07.81	143.37	35.30	-41.0	-43.8	12.5	9.07e-05	0	60	0	665845760	52	5291
2026-01-18 09:44:08.82	143.26	35.52	-41.2	-44.0	12.3	1.31e-04	0	60	0	667942912	52	5412
2026-01-18 09:44:09.83	143.16	35.75	-41.3	-44.2	12.1	2.69e-04	0	59	0	671088640	53	5233
2026-01-18 09:44:10.84	143.05	35.98	-41.4	-44.4	11.8	4.48e-04	0	59	0	675282944	53	5392
2026-01-18 09:44:11.85	142.94	36.20	-41.5	-44.5	11.7	5.29e-04	0	60	0	678428672	53	5435
2026-01-18 09:44:12.86	142.83	36.43	-41.5	-44.6	11.7	6.40e-04	0	59	0	681574400	53	5489
2026-01-18 09:44:13.87	142.72	36.67	-41.6	-44.7	11.5	6.71e-04	0	60	0	684720128	53	5559
2026-01-18 09:44:14.88	142.60	36.90	-41.6	-44.7	11.5	7.28e-04	0	60	0	687865856	53	5573
2026-01-18 09:44:15.89	142.49	37.13	-41.6	-44.8	11.5	8.26e-04	0	59	0	691011584	53	5614
2026-01-18 09:44:16.90	142.37	37.37	-41.8	-44.9	11.3	9.25e-04	0	60	0	694157312	54	5400
2026-01-18 09:44:17.92	142.25	37.61	-41.7	-44.8	11.5	8.84e-04	0	60	0	697303040	54	5286
2026-01-18 09:44:18.93	142.13	37.85	-41.7	-44.8	11.4	8.54e-04	0	60	0	700448768	54	5320
2026-01-18 09:44:19.94	142.01	38.09	-41.7	-44.8	11.5	9.05e-04	0	60	0	703594496	54	5283
2026-01-18 09:44:20.95	141.88	38.33	-41.6	-44.6	11.6	7.55e-04	0	60	0	706740224	54	5214
2026-01-18 09:44:21.96	141.76	38.58	-41.6	-44.6	11.6	6.61e-04	0	59	0	709885952	54	5184
2026-01-18 09:44:22.97	141.63	38.82	-41.5	-44.5	11.7	6.17e-04	0	60	0	713031680	54	5143
2026-01-18 09:44:23.98	141.50	39.07	-41.6	-44.6	11.7	6.51e-04	0	60	0	716177408	54	5186
2026-01-18 09:44:24.99	141.37	39.32	-41.5	-44.5	11.7	6.12e-04	0	60	0	719323136	54	5148
2026-01-18 09:44:26.00	141.23	39.57	-41.6	-44.6	11.7	5.84e-04	0	60	0	722468864	54	5186
2026-01-18 09:44:27.01	141.10	39.82	-41.7	-44.8	11.4	9.04e-04	0	60	0	725614592	54	5331
2026-01-18 09:44:28.03	140.96	40.08	-41.7	-44.9	11.4	9.28e-04	0	60	0	728760320	54	5367
2026-01-18 09:44:29.04	140.82	40.33	-41.7	-44.9	11.4	1.03e-03	0	59	0	731906048	54	5351
2026-01-18 09:44:30.05	140.67	40.59	-41.6	-44.8	11.5	9.11e-04	0	60	0	735051776	54	5287
2026-01-18 09:44:31.06	140.53	40.85	-41.6	-44.7	11.6	7.78e-04	0	60	0	738197504	54	5232
2026-01-18 09:44:32.07	140.38	41.11	-41.6	-44.6	11.7	5.70e-04	0	60	0	741343232	54	5183
2026-01-18 09:44:33.08	140.23	41.37	-41.5	-44.5	11.9	4.87e-04	0	60	0	744488960	54	5116
2026-01-18 09:44:34.09	140.08	41.64	-41.4	-44.3	12.0	2.88e-04	0	60	0	747634688	54	4997
2026-01-18 09:44:35.10	139.92	41.90	-41.4	-44.3	12.0	3.23e-04	0	60	0	750780416	54	5030
2026-01-18 09:44:36.11	139.76	42.17	-41.2	-44.0	12.3	1.88e-04	0	60	0	753926144	54	4842
2026-01-18 09:44:37.12	139.60	42.44	-41.3	-44.1	12.2	2.05e-04	0	60	0	757071872	54	4902
2026-01-18 09:44:38.13	139.44	42.71	-41.3	-44.1	12.2	1.98e-04	0	60	0	760217600	54	4880
2026-01-18 09:44:39.14	139.27	42.98	-41.4	-44.2	12.1	2.67e-04	0	60	0	763363328	54	4943
2026-01-18 09:44:40.16	139.10	43.26	-41.5	-44.4	11.9	3.46e-04	0	60	0	766509056	54	5053
2026-01-18 09:44:41.17	138.93	43.53	-41.5	-44.5	11.7	6.00e-04	0	60	0	769654784	54	5147
2026-01-18 09:44:42.18	138.75	43.81	-41.7	-44.9	11.3	7.26e-04	0	60	0	772800512	54	5357
2026-01-18 09:44:43.19	138.58	44.09	-42.0	-45.3	10.9	1.61e-03	0	60	0	775946240	54	5602
2026-01-18 09:44:44.20	138.40	44.37	-42.0	-45.3	11.0	1.90e-03	0	60	0	779091968	54	5615
2026-01-18 09:44:45.21	138.21	44.65	-42.1	-45.5	10.7	2.53e-03	0	60	0	782237696	54	5735
2026-01-18 09:44:46.22	138.02	44.94	-42.2	-45.6	10.6	3.14e-03	0	60	0	785383424	54	5830
2026-01-18 09:44:47.23	137.83	45.22	-42.1	-45.5	10.8	2.75e-03	0	60	0	788529152	54	5732
2026-01-18 09:44:48.24	137.64	45.51	-42.0	-45.3	10.9	2.32e-03	0	60	0	791674880	54	5637
2026-01-18 09:44:49.25	137.44	45.80	-42.0	-45.2	11.1	1.72e-03	0	60	0	794820608	54	5569
2026-01-18 09:44:50.26	137.23	46.09	-41.9	-45.1	11.2	1.44e-03	0	60	0	797966336	54	5465
2026-01-18 09:44:51.27	137.03	46.38	-41.7	-44.7	11.5	9.37e-04	0	60	0	801112064	54	5275
2026-01-18 09:44:52.29	136.82	46.68	-41.6	-44.6	11.7	5.58e-04	0	60	0	804257792	54	5166
2026-01-18 09:44:53.30	136.60	46.97	-41.6	-44.7	11.7	6.44e-04	0	60	0	807403520	54	5227
2026-01-18 09:44:54.31	136.38	47.27	-41.6	-44.6	11.7	6.45e-04	0	60	0	810549248	54	5215
2026-01-18 09:44:55.32	136.16	47.57	-41.7	-44.7	11.6	7.39e-04	0	60	0	813694976	54	5275
2026-01-18 09:44:56.33	135.93	47.87	-41.8	-44.9	11.4	9.76e-04	0	60	0	816840704	54	5360
2026-01-18 09:44:57.34	135.70	48.17	-41.8	-45.0	11.3	1.06e-03	0	60	0	819986432	54	5411
2026-01-18 09:44:58.35	135.46	48.47	-41.8	-44.9	11.4	9.87e-04	0	60	0	823132160	54	5341
2026-01-18 09:44:59.36	135.22	48.78	-41.6	-44.6	11.7	6.48e-04	0	60	0	826277888	54	5196
2026-01-18 09:45:00.37	134.98	49.09	-41.6	-44.5	11.7	4.31e-04	0	60	0	829423616	54	5138
2026-01-18 09:45:01.38	134.73	49.40	-41.6	-44.6	11.7	5.56e-04	0	60	0	832569344	54	5211
2026-01-18 09:45:02.39	134.47	49.70	-41.7	-44.7	11.6	7.64e-04	0	60	0	835715072	54	5267
2026-01-18 09:45:03.40	134.21	50.02	-41.6	-44.5	11.7	5.71e-04	0	60	0	838860800	54	5158
2026-01-18 09:45:04.41	133.94	50.33	-41.5	-44.4	11.9	5.23e-04	0	60	0	842006528	54	5046
2026-01-18 09:45:05.43	133.67	50.65	-41.3	-44.1	12.2	2.08e-04	0	60	0	845152256	54	4902
2026-01-18 09:45:06.44	133.39	50.96	-41.1	-43.8	12.5	1.09e-04	0	60	0	848297984	54	4720
2026-01-18 09:45:07.45	133.10	51.28	-41.2	-43.9	12.4	1.56e-04	0	60	0	851443712	54	4800
2026-01-18 09:45:08.46	132.81	51.60	-41.2	-43.9	12.4	1.85e-04	0	60	0	854589440	54	4804
2026-01-18 09:45:09.47	132.52	51.92	-41.2	-43.9	12.4	1.40e-04	0	60	0	857735168	54	4784
2026-01-18 09:45:10.48	132.21	52.24	-41.2	-43.9	12.4	1.69e-04	0	60	0	860880896	54	4786
2026-01-18 09:45:11.49	131.90	52.56	-40.9	-43.5	12.8	1.03e-04	0	60	0	864026624	53	4865
2026-01-18 09:45:12.50	131.58	52.88	-40.8	-43.4	13.0	5.34e-05	0	60	0	867172352	53	4787
2026-01-18 09:45:13.51	131.26	53.21	-40.6	-43.1	13.2	2.67e-05	0	60	0	870318080	53	4621
2026-01-18 09:45:14.52	130.93	53.54	-40.6	-43.0	13.3	2.36e-05	0	60	0	873463808	53	4564
2026-01-18 09:45:15.53	130.59	53.86	-40.7	-43.2	13.1	2.89e-05	0	60	0	876609536	53	4675
2026-01-18 09:45:16.54	130.24	54.19	-41.0	-43.6	12.7	7.55e-05	0	60	0	879755264	53	4902
2026-01-18 09:45:17.55	129.89	54.52	-41.0	-43.7	12.5	1.21e-04	0	60	0	882900992	53	4982
2026-01-18 09:45:18.56	129.52	54.85	-41.0	-43.6	12.7	8.92e-05	0	60	0	886046720	53	4903
2026-01-18 09:45:19.57	129.15	55.18	-40.9	-43.4	12.8	8.08e-05	0	60	0	889192448	53	4810
2026-01-18 09:45:20.58	128.77	55.51	-40.6	-43.0	13.3	3.05e-05	0	60	0	892338176	53	4588
2026-01-18 09:45:21.59	128.38	55.84	-40.4	-42.8	13.5	8.30e-06	0	60	0	895483904	52	4745
2026-01-18 09:45:22.59	127.99	56.17	-40.5	-42.9	13.4	1.06e-05	0	60	0	898629632	52	4811
2026-01-18 09:45:23.61	127.57	56.51	-40.6	-43.1	13.2	2.44e-05	0	60	0	901775360	52	4919
2026-01-18 09:45:24.62	127.15	56.84	-40.7	-43.3	13.1	3.50e-05	0	60	0	904921088	52	4997
2026-01-18 09:45:25.63	126.72	57.18	-40.6	-43.1	13.2	2.28e-05	0	60	0	908066816	52	4902
2026-01-18 09:45:26.63	126.29	57.51	-40.5	-42.9	13.4	1.37e-05	0	60	0	912261120	52	4776
2026-01-18 09:45:27.64	125.83	57.85	-40.5	-42.9	13.4	9.10e-06	0	60	0	914358272	52	4786
2026-01-18 09:45:28.65	125.37	58.18	-40.3	-42.6	13.7	1.14e-05	0	60	0	917504000	52	4617
2026-01-18 09:45:29.66	124.90	58.52	-40.4	-42.7	13.5	9.90e-06	0	60	0	920649728	52	4686
2026-01-18 09:45:30.67	124.41	58.85	-40.6	-43.1	13.2	1.60e-05	0	60	0	923795456	52	4885
2026-01-18 09:45:31.68	123.91	59.19	-40.5	-42.9	13.4	2.44e-05	0	60	0	927989760	52	4791
2026-01-18 09:45:32.69	123.40	59.52	-40.2	-42.4	13.9	4.50e-06	0	60	0	931135488	52	4536
2026-01-18 09:45:33.70	122.87	59.86	-40.2	-42.4	13.9	7.60e-06	0	60	0	934281216	52	4534
2026-01-18 09:45:34.71	122.33	60.19	-40.2	-42.5	13.9	3.80e-06	0	60	0	937426944	52	4565
2026-01-18 09:45:35.72	121.78	60.53	-40.1	-42.3	14.0	2.20e-06	0	60	0	939524096	52	4484
2026-01-18 09:45:36.73	121.21	60.86	-40.0	-42.2	14.1	7.00e-07	0	60	0	942669824	52	4416
2026-01-18 09:45:37.74	120.62	61.19	-39.8	-41.9	14.5	7.00e-07	0	60	0	946864128	51	4498
2026-01-18 09:45:38.75	120.02	61.52	-39.7	-41.7	14.6	2.20e-06	0	60	0	950009856	51	4420
2026-01-18 09:45:39.76	119.41	61.85	-39.6	-41.7	14.7	0.00e+00	0	60	0	953155584	51	4401
2026-01-18 09:45:40.77	118.78	62.18	-39.8	-41.8	14.6	7.00e-07	0	60	0	956301312	51	4480
2026-01-18 09:45:41.78	118.13	62.51	-39.8	-41.8	14.6	7.00e-07	0	60	0	959447040	51	4488
2026-01-18 09:45:42.80	117.45	62.84	-39.4	-41.4	15.0	7.00e-07	0	60	0	962592768	50	4515
2026-01-18 09:45:43.81	116.76	63.16	-39.1	-40.9	15.5	0.00e+00	0	60	0	965738496	50	4259
2026-01-18 09:45:44.82	116.06	63.48	-39.1	-40.9	15.4	7.00e-07	0	60	0	968884224	50	4283
2026-01-18 09:45:45.83	115.33	63.80	-39.3	-41.2	15.1	0.00e+00	0	60	0	972029952	50	4408
2026-01-18 09:45:46.84	114.59	64.12	-39.4	-41.3	15.1	0.00e+00	0	60	0	975175680	50	4471
2026-01-18 09:45:47.85	113.82	64.43	-39.5	-41.5	14.9	0.00e+00	0	60	0	978321408	50	4562
2026-01-18 09:45:48.86	113.03	64.74	-39.4	-41.4	15.0	0.00e+00	0	60	0	981467136	50	4523
2026-01-18 09:45:49.87	112.22	65.05	-39.5	-41.5	14.9	0.00e+00	0	60	0	984612864	50	4551
2026-01-18 09:45:50.88	111.39	65.36	-39.3	-41.2	15.2	0.00e+00	0	60	0	987758592	50	4411
2026-01-18 09:45:51.89	110.54	65.66	-39.5	-41.5	14.9	0.00e+00	0	60	0	990904320	50	4548
2026-01-18 09:45:52.90	109.66	65.95	-39.5	-41.5	14.8	0.00e+00	0	60	0	994050048	50	4591
2026-01-18 09:45:53.91	108.76	66.25	-39.6	-41.6	14.8	0.00e+00	0	60	0	997195776	50	4631
2026-01-18 09:45:54.92	107.83	66.53	-39.7	-41.7	14.6	0.00e+00	0	60	0	1000341504	50	4693
2026-01-18 09:45:55.93	106.88	66.82	-39.3	-41.2	15.1	0.00e+00	0	60	0	1003487232	50	4427
2026-01-18 09:45:56.94	105.90	67.10	-39.2	-41.1	15.3	0.00e+00	0	60	0	1006632960	50	4355
2026-01-18 09:45:57.95	104.89	67.37	-39.3	-41.2	15.2	0.00e+00	0	60	0	1009778688	50	4415
2026-01-18 09:45:58.96	103.86	67.64	-39.3	-41.3	15.1	0.00e+00	0	60	0	1012924416	50	4442
2026-01-18 09:45:59.97	102.81	67.90	-39.4	-41.3	15.1	0.00e+00	0	60	0	1016070144	50	4492
2026-01-18 09:46:00.98	101.72	68.15	-39.4	-41.3	15.1	0.00e+00	0	60	0	1019215872	50	4468
2026-01-18 09:46:01.99	100.61	68.40	-39.2	-41.1	15.3	0.00e+00	0	60	0	1022361600	50	4345
2026-01-18 09:46:03.00	99.47	68.64	-39.1	-41.0	15.4	0.00e+00	0	60	0	1025507328	50	4296
2026-01-18 09:46:04.01	98.30	68.87	-39.1	-41.0	15.4	0.00e+00	0	60	0	1028653056	50	4320
2026-01-18 09:46:05.02	97.11	69.10	-38.9	-40.7	15.7	0.00e+00	0	60	0	1031798784	49	4410
2026-01-18 09:46:06.03	95.88	69.32	-38.9	-40.8	15.6	0.00e+00	0	60	0	1034944512	49	4443
2026-01-18 09:46:07.04	94.63	69.53	-39.1	-41.0	15.3	0.00e+00	0	60	0	1038090240	49	4578
2026-01-18 09:46:08.05	93.35	69.73	-39.3	-41.2	15.1	0.00e+00	0	60	0	1041235968	49	4683
2026-01-18 09:46:09.06	92.05	69.92	-39.2	-41.1	15.2	0.00e+00	0	60	0	1044381696	49	4626
2026-01-18 09:46:10.07	90.72	70.10	-39.0	-40.9	15.4	0.00e+00	0	60	0	1047527424	49	4523
2026-01-18 09:46:11.08	89.36	70.27	-39.4	-41.4	14.9	0.00e+00	0	60	0	1050673152	49	4781
2026-01-18 09:46:12.09	87.98	70.43	-39.7	-41.7	14.6	7.00e-07	0	60	0	1053818880	49	4958
2026-01-18 09:46:13.10	86.58	70.58	-39.7	-41.8	14.5	1.50e-06	0	60	0	1056964608	50	4734
2026-01-18 09:46:14.11	85.15	70.72	-39.6	-41.7	14.6	1.50e-06	0	60	0	1060110336	50	4671
2026-01-18 09:46:15.13	83.69	70.85	-39.7	-41.7	14.6	7.00e-07	0	60	0	1063256064	50	4684
2026-01-18 09:46:16.14	82.22	70.97	-39.5	-41.4	14.9	0.00e+00	0	60	0	1066401792	50	4533
2026-01-18 09:46:17.15	80.73	71.07	-39.1	-41.0	15.4	0.00e+00	0	60	0	1069547520	50	4308
2026-01-18 09:46:18.16	79.23	71.16	-39.8	-41.9	14.4	7.00e-07	0	60	0	1072693248	50	4785
2026-01-18 09:46:19.17	77.71	71.25	-39.9	-42.0	14.2	2.20e-06	0	60	0	1075838976	50	4864
2026-01-18 09:46:20.18	76.18	71.31	-39.3	-41.2	15.0	0.00e+00	0	60	0	1078984704	50	4398
2026-01-18 09:46:21.19	74.64	71.37	-38.6	-40.4	15.8	0.00e+00	0	60	0	1082130432	49	4251
2026-01-18 09:46:22.20	73.09	71.41	-39.0	-40.8	15.4	0.00e+00	0	60	0	1085276160	49	4468
2026-01-18 09:46:23.21	71.54	71.44	-39.4	-41.4	14.8	0.00e+00	0	60	0	1088421888	49	4779
2026-01-18 09:46:24.22	69.98	71.46	-39.5	-41.5	14.7	0.00e+00	0	60	0	1091567616	49	4864
2026-01-18 09:46:25.23	68.42	71.46	-39.6	-41.6	14.6	7.00e-07	0	60	0	1094713344	49	4906
2026-01-18 09:46:26.24	66.85	71.45	-39.4	-41.4	14.7	0.00e+00	0	60	0	1097859072	49	4801
2026-01-18 09:46:27.25	65.30	71.43	-39.2	-41.1	15.0	0.00e+00	0	60	0	1101004800	49	4646
2026-01-18 09:46:28.26	63.74	71.39	-39.0	-40.8	15.3	0.00e+00	0	60	0	1104150528	49	4490
2026-01-18 09:46:29.27	62.20	71.34	-39.2	-41.0	15.2	0.00e+00	0	60	0	1107296256	49	4588
2026-01-18 09:46:30.28	60.66	71.28	-39.4	-41.4	14.7	0.00e+00	0	60	0	1110441984	49	4809
2026-01-18 09:46:31.29	59.14	71.21	-39.3	-41.3	14.8	0.00e+00	0	60	0	1113587712	49	4717
2026-01-18 09:46:32.30	57.63	71.12	-39.4	-41.3	14.8	0.00e+00	0	60	0	1116733440	49	4755
2026-01-18 09:46:33.31	56.13	71.02	-39.4	-41.4	14.8	0.00e+00	0	60	0	1119879168	49	4772
2026-01-18 09:46:34.32	54.66	70.91	-39.7	-41.8	14.5	7.00e-07	0	60	0	1123024896	49	4991
2026-01-18 09:46:35.33	53.20	70.79	-39.8	-41.9	14.4	7.00e-07	0	60	0	1126170624	50	4793
2026-01-18 09:46:36.34	51.76	70.66	-39.9	-42.1	14.2	1.50e-06	0	60	0	1129316352	50	4891
2026-01-18 09:46:37.35	50.34	70.51	-40.0	-42.2	14.1	1.50e-06	0	60	0	1132462080	50	4969
2026-01-18 09:46:38.36	48.95	70.36	-39.6	-41.6	14.7	0.00e+00	0	60	0	1135607808	50	4622
2026-01-18 09:46:39.37	47.58	70.19	-39.5	-41.4	14.9	0.00e+00	0	60	0	1138753536	50	4541
2026-01-18 09:46:40.38	46.24	70.02	-39.4	-41.3	15.0	0.00e+00	0	60	0	1141899264	50	4457
2026-01-18 09:46:41.39	44.92	69.83	-39.7	-41.8	14.5	0.00e+00	0	60	0	1145044992	50	4737
2026-01-18 09:46:42.40	43.63	69.64	-39.4	-41.3	14.9	0.00e+00	0	60	0	1148190720	50	4492
2026-01-18 09:46:43.41	42.37	69.43	-39.3	-41.3	15.0	0.00e+00	0	60	0	1151336448	50	4442
2026-01-18 09:46:44.42	41.13	69.22	-39.2	-41.0	15.2	0.00e+00	0	60	0	1154482176	50	4335
2026-01-18 09:46:45.43	39.92	69.00	-39.3	-41.2	15.1	0.00e+00	0	60	0	1157627904	50	4413
2026-01-18 09:46:46.44	38.74	68.77	-39.3	-41.3	15.1	0.00e+00	0	60	0	1160773632	50	4444
2026-01-18 09:46:47.46	37.58	68.53	-39.7	-41.8	14.6	7.00e-07	0	60	0	1163919360	50	4709
2026-01-18 09:46:48.47	36.45	68.29	-40.0	-42.2	14.0	7.00e-07	0	60	0	1167065088	50	4960
2026-01-18 09:46:49.48	35.35	68.04	-39.7	-41.8	14.3	2.20e-06	0	60	0	1170210816	50	4725
2026-01-18 09:46:50.49	34.28	67.78	-39.1	-41.0	15.2	0.00e+00	0	60	0	1173356544	50	4316
2026-01-18 09:46:51.50	33.24	67.52	-39.2	-41.0	15.2	0.00e+00	0	60	0	1176502272	50	4319
2026-01-18 09:46:52.51	32.22	67.25	-39.8	-41.8	14.4	0.00e+00	0	61	0	1179648000	50	4756
2026-01-18 09:46:53.52	31.23	66.97	-40.3	-42.6	13.6	2.20e-06	0	60	0	1182793728	51	4912
2026-01-18 09:46:54.53	30.26	66.69	-40.3	-42.6	13.6	1.22e-05	0	60	0	1185939456	51	4912
2026-01-18 09:46:55.55	29.32	66.40	-39.7	-41.7	14.5	2.20e-06	0	60	0	1189085184	51	4432
2026-01-18 09:46:56.56	28.40	66.11	-39.4	-41.3	14.9	0.00e+00	0	60	0	1192230912	50	4461
2026-01-18 09:46:57.57	27.51	65.82	-39.3	-41.2	15.0	0.00e+00	0	60	0	1195376640	50	4433
2026-01-18 09:46:58.58	26.65	65.52	-39.9	-42.0	14.3	0.00e+00	0	60	0	1198522368	50	4834
2026-01-18 09:46:59.59	25.80	65.22	-40.3	-42.6	13.7	0.00e+00	0	60	0	1202716672	51	4886
2026-01-18 09:47:00.60	24.98	64.92	-40.5	-42.9	13.4	1.98e-05	0	60	0	1205862400	51	5089
2026-01-18 09:47:01.61	24.19	64.61	-40.1	-42.3	14.0	1.50e-06	0	60	0	1207959552	51	4723
2026-01-18 09:47:02.62	23.41	64.29	-39.5	-41.4	14.8	0.00e+00	0	60	0	1211105280	50	4528
2026-01-18 09:47:03.63	22.65	63.98	-39.3	-41.2	15.1	0.00e+00	0	60	0	1215299584	50	4427
2026-01-18 09:47:04.64	21.92	63.66	-39.4	-41.3	15.0	0.00e+00	0	61	0	1218445312	50	4467
2026-01-18 09:47:05.65	21.20	63.34	-40.0	-42.1	14.2	7.00e-07	0	60	0	1221591040	50	4921
2026-01-18 09:47:06.67	20.50	63.02	-40.5	-42.9	13.5	9.10e-06	0	60	0	1224736768	51	5051
2026-01-18 09:47:07.68	19.82	62.70	-40.3	-42.6	13.7	9.10e-06	0	60	0	1227882496	51	4880
2026-01-18 09:47:08.69	19.17	62.37	-39.7	-41.7	14.5	1.50e-06	0	60	0	1231028224	51	4422
2026-01-18 09:47:09.70	18.52	62.04	-39.4	-41.3	15.0	0.00e+00	0	60	0	1234173952	50	4444
2026-01-18 09:47:10.71	17.90	61.71	-39.2	-41.1	15.2	0.00e+00	0	60	0	1237319680	50	4353
2026-01-18 09:47:11.72	17.29	61.39	-39.9	-42.0	14.4	0.00e+00	0	60	0	1240465408	50	4823
2026-01-18 09:47:12.73	16.70	61.05	-40.4	-42.7	13.6	3.00e-06	0	60	0	1243611136	51	4958
2026-01-18 09:47:13.74	16.12	60.72	-40.6	-42.9	13.4	1.37e-05	0	60	0	1246756864	51	5095
2026-01-18 09:47:14.75	15.56	60.39	-40.3	-42.6	13.8	9.90e-06	0	60	0	1249902592	51	4875
2026-01-18 09:47:15.76	15.02	60.06	-39.8	-41.8	14.5	2.20e-06	0	61	0	1253048320	51	4473
2026-01-18 09:47:16.77	14.48	59.72	-39.7	-41.7	14.6	7.00e-07	0	60	0	1256194048	51	4400
2026-01-18 09:47:17.78	13.97	59.39	-39.5	-41.4	14.9	0.00e+00	0	60	0	1259339776	50	4516
2026-01-18 09:47:18.80	13.46	59.05	-39.6	-41.6	14.7	0.00e+00	0	60	0	1262485504	50	4625
2026-01-18 09:47:19.81	12.96	58.72	-40.2	-42.4	14.0	2.20e-06	0	60	0	1265631232	50	5092
2026-01-18 09:47:20.82	12.48	58.38	-40.8	-43.3	12.9	3.50e-05	0	60	0	1268776960	52	5032
2026-01-18 09:47:21.83	12.01	58.05	-40.9	-43.5	12.7	9.00e-05	0	60	0	1271922688	52	5117
2026-01-18 09:47:22.84	11.56	57.71	-40.4	-42.7	13.4	2.51e-05	0	60	0	1275068416	52	4703
2026-01-18 09:47:23.85	11.11	57.38	-40.2	-42.5	13.6	6.80e-06	0	60	0	1278214144	52	4565
2026-01-18 09:47:24.86	10.68	57.05	-40.1	-42.3	14.0	1.50e-06	0	60	0	1281359872	51	4713
2026-01-18 09:47:25.87	10.25	56.71	-40.1	-42.2	14.0	2.20e-06	0	61	0	1284505600	51	4704
2026-01-18 09:47:26.88	9.84	56.38	-40.5	-42.9	13.4	1.29e-05	0	60	0	1287651328	51	5084
2026-01-18 09:47:27.89	9.44	56.05	-40.6	-43.0	13.2	2.13e-05	0	60	0	1290797056	52	4859
2026-01-18 09:47:28.91	9.04	55.71	-40.4	-42.9	13.4	1.29e-05	0	61	0	1293942784	52	4791
2026-01-18 09:47:29.92	8.65	55.38	-40.7	-43.1	13.1	3.12e-05	0	60	0	1297088512	52	4925
2026-01-18 09:47:30.93	8.28	55.05	-41.0	-43.7	12.5	9.46e-05	0	61	0	1300234240	52	5221
2026-01-18 09:47:31.93	7.91	54.73	-41.1	-43.8	12.2	2.62e-04	0	60	0	1303379968	52	5295
2026-01-18 09:47:32.94	7.56	54.40	-40.8	-43.4	12.7	1.07e-04	0	60	0	1306525696	52	5056
2026-01-18 09:47:33.95	7.20	54.07	-40.7	-43.2	12.9	4.34e-05	0	61	0	1309671424	52	4939
2026-01-18 09:47:34.96	6.86	53.74	-40.7	-43.2	12.9	3.50e-05	0	61	0	1312817152	52	4980
2026-01-18 09:47:35.97	6.53	53.42	-40.9	-43.5	12.7	7.01e-05	0	60	0	1315962880	52	5158
2026-01-18 09:47:36.98	6.20	53.10	-41.3	-44.1	12.1	2.05e-04	0	60	0	1319108608	53	5186
2026-01-18 09:47:37.99	5.88	52.77	-41.6	-44.7	11.4	8.45e-04	0	61	0	1322254336	53	5553
2026-01-18 09:47:39.00	5.57	52.45	-41.4	-44.3	11.8	5.31e-04	0	60	0	1325400064	53	5303
2026-01-18 09:47:40.01	5.26	52.13	-41.2	-43.9	12.3	2.20e-04	0	60	0	1328545792	53	5061
2026-01-18 09:47:41.02	4.96	51.81	-41.1	-43.8	12.4	1.25e-04	0	60	0	1331691520	53	4991
2026-01-18 09:47:42.03	4.67	51.49	-41.1	-43.8	12.4	1.69e-04	0	60	0	1334837248	53	5003
2026-01-18 09:47:43.04	4.38	51.18	-40.8	-43.4	12.8	8.46e-05	0	61	0	1337982976	53	4789
2026-01-18 09:47:44.05	4.10	50.86	-40.6	-43.0	13.2	2.28e-05	0	61	0	1341128704	53	4557
2026-01-18 09:47:45.06	3.82	50.55	-40.8	-43.3	12.9	3.58e-05	0	60	0	1344274432	53	4750
2026-01-18 09:47:46.07	3.55	50.23	-41.3	-44.1	12.1	1.55e-04	0	60	0	1347420160	53	5201
2026-01-18 09:47:47.08	3.29	49.92	-41.8	-45.0	11.2	1.07e-03	0	60	0	1350565888	54	5404
2026-01-18 09:47:48.09	3.03	49.61	-42.3	-45.9	10.3	4.26e-03	0	61	0	1353711616	55	5700
2026-01-18 09:47:49.11	2.78	49.30	-42.5	-46.4	9.7	1.09e-02	0	60	0	1356857344	55	6027
2026-01-18 09:47:50.11	2.53	49.00	-42.4	-46.1	9.9	1.04e-02	0	60	0	1360003072	55	5815
2026-01-18 09:47:51.12	2.29	48.69	-42.1	-45.4	10.6	4.69e-03	0	61	0	1363148800	55	5360
2026-01-18 09:47:52.14	2.05	48.39	-41.8	-45.0	11.1	2.05e-03	0	60	0	1366294528	55	5139
2026-01-18 09:47:53.15	1.81	48.09	-41.8	-44.9	11.2	1.26e-03	0	61	0	1369440256	55	5053
2026-01-18 09:47:54.16	1.59	47.79	-41.8	-44.9	11.3	1.21e-03	0	60	0	1372585984	55	5043
2026-01-18 09:47:55.17	1.36	47.49	-41.7	-44.7	11.4	1.09e-03	0	60	0	1375731712	55	4949
2026-01-18 09:47:56.18	1.14	47.19	-41.2	-43.9	12.2	3.56e-04	0	61	0	1378877440	54	4812
2026-01-18 09:47:57.19	0.92	46.90	-41.0	-43.7	12.5	1.19e-04	0	60	0	1382023168	54	4653
2026-01-18 09:47:58.20	0.71	46.60	-41.1	-43.8	12.3	1.14e-04	0	61	0	1385168896	53	5003
2026-01-18 09:47:59.22	0.50	46.31	-41.3	-44.1	12.1	2.46e-04	0	60	0	1388314624	53	5177
2026-01-18 09:48:00.22	0.30	46.02	-41.5	-44.4	11.7	4.69e-04	0	60	0	1391460352	53	5389
2026-01-18 09:48:01.23	0.10	45.73	-41.7	-44.8	11.3	8.99e-04	0	60	0	1394606080	54	5332
2026-01-18 09:48:02.24	359.90	45.44	-42.1	-45.5	10.7	2.58e-03	0	60	0	1397751808	54	5765
2026-01-18 09:48:03.25	359.71	45.16	-42.3	-45.8	10.3	5.29e-03	0	60	0	1400897536	55	5613
2026-01-18 09:48:04.26	359.52	44.88	-42.2	-45.7	10.2	6.02e-03	0	60	0	1404043264	55	5560
2026-01-18 09:48:05.27	359.34	44.59	-42.1	-45.5	10.4	5.43e-03	0	60	0	1407188992	55	5413
2026-01-18 09:48:06.28	359.15	44.31	-42.0	-45.3	10.6	4.23e-03	0	61	0	1410334720	55	5280
2026-01-18 09:48:07.29	358.97	44.03	-41.9	-45.1	10.8	2.60e-03	0	61	0	1413480448	55	5184
2026-01-18 09:48:08.30	358.80	43.76	-42.0	-45.3	10.7	2.99e-03	0	60	0	1416626176	55	5313
2026-01-18 09:48:09.32	358.62	43.48	-42.2	-45.6	10.3	4.64e-03	0	60	0	1419771904	55	5522
2026-01-18 09:48:10.33	358.45	43.21	-42.2	-45.7	10.4	5.55e-03	0	60	0	1422917632	55	5541
2026-01-18 09:48:11.34	358.28	42.93	-42.0	-45.3	10.7	3.79e-03	0	60	0	1426063360	55	5338
2026-01-18 09:48:12.35	358.12	42.66	-41.8	-45.0	11.0	2.02e-03	0	60	0	1429209088	55	5156
2026-01-18 09:48:13.36	357.96	42.39	-41.9	-45.2	10.9	2.29e-03	0	61	0	1432354816	55	5244
2026-01-18 09:48:14.37	357.80	42.13	-41.8	-44.9	11.2	1.65e-03	0	60	0	1435500544	55	5090
2026-01-18 09:48:15.38	357.64	41.86	-41.5	-44.5	11.7	7.15e-04	0	60	0	1438646272	55	4815
2026-01-18 09:48:16.39	357.49	41.60	-41.5	-44.5	11.6	6.42e-04	0	61	0	1441792000	54	5106
2026-01-18 09:48:17.40	357.34	41.34	-41.7	-44.8	11.3	8.37e-04	0	60	0	1444937728	54	5297
2026-01-18 09:48:18.41	357.19	41.08	-41.9	-45.2	10.9	1.73e-03	0	60	0	1448083456	54	5585
2026-01-18 09:48:19.42	357.04	40.82	-42.0	-45.4	10.7	3.03e-03	0	60	0	1451229184	54	5672
2026-01-18 09:48:20.43	356.90	40.56	-42.2	-45.7	10.4	4.64e-03	0	60	0	1454374912	54	5916
2026-01-18 09:48:21.44	356.76	40.31	-42.1	-45.7	10.4	4.91e-03	0	60	0	1457520640	54	5880
2026-01-18 09:48:22.46	356.62	40.05	-42.1	-45.6	10.3	5.42e-03	0	60	0	1460666368	54	5855
2026-01-18 09:48:23.47	356.48	39.80	-42.0	-45.4	10.6	3.80e-03	0	60	0	1463812096	54	5662
2026-01-18 09:48:24.48	356.34	39.55	-41.7	-44.9	11.0	2.46e-03	0	61	0	1466957824	54	5382
2026-01-18 09:48:25.49	356.21	39.30	-41.6	-44.6	11.3	1.16e-03	0	61	0	1471152128	54	5214
2026-01-18 09:48:26.50	356.08	39.05	-41.6	-44.6	11.4	1.13e-03	0	60	0	1474297856	54	5206
2026-01-18 09:48:27.51	355.95	38.81	-41.6	-44.6	11.4	9.02e-04	0	61	0	1476395008	54	5195
2026-01-18 09:48:28.52	355.83	38.56	-41.6	-44.6	11.4	9.64e-04	0	60	0	1479540736	54	5194
2026-01-18 09:48:29.53	355.70	38.32	-41.6	-44.6	11.4	9.71e-04	0	61	0	1483735040	54	5209
2026-01-18 09:48:30.54	355.58	38.08	-41.5	-44.6	11.5	7.70e-04	0	60	0	1486880768	54	5163
2026-01-18 09:48:31.55	355.46	37.84	-41.5	-44.5	11.6	7.39e-04	0	60	0	1490026496	54	5127
2026-01-18 09:48:32.57	355.34	37.60	-41.4	-44.3	11.7	5.83e-04	0	60	0	1493172224	54	5037
2026-01-18 09:48:33.58	355.22	37.36	-41.2	-44.0	12.1	4.11e-04	0	61	0	1496317952	54	4823
2026-01-18 09:48:34.58	355.10	37.13	-41.1	-43.8	12.3	1.87e-04	0	60	0	1499463680	54	4708
2026-01-18 09:48:35.60	354.99	36.89	-40.9	-43.5	12.6	1.34e-04	0	60	0	1502609408	53	4851
2026-01-18 09:48:36.61	354.88	36.66	-40.8	-43.4	12.8	6.33e-05	0	61	0	1505755136	53	4760
2026-01-18 09:48:37.62	354.77	36.43	-40.7	-43.3	12.8	5.87e-05	0	60	0	1508900864	53	4709
2026-01-18 09:48:38.63	354.66	36.20	-40.7	-43.2	12.9	5.26e-05	0	60	0	1512046592	53	4674
2026-01-18 09:48:39.63	354.55	35.98	-40.9	-43.5	12.6	7.78e-05	0	60	0	1515192320	53	4841
2026-01-18 09:48:40.64	354.44	35.75	-41.0	-43.8	12.3	1.88e-04	0	60	0	1518338048	53	4991
2026-01-18 09:48:41.65	354.34	35.53	-41.2	-44.1	12.0	2.91e-04	0	61	0	1521483776	53	5169
2026-01-18 09:48:42.67	354.24	35.30	-41.2	-44.1	11.9	3.74e-04	0	61	0	1524629504	53	5215
2026-01-18 09:48:43.68	354.13	35.08	-41.3	-44.2	11.8	4.36e-04	0	60	0	1527775232	53	5242
2026-01-18 09:48:44.69	354.03	34.86	-41.3	-44.2	11.8	4.77e-04	0	61	0	1530920960	53	5254
2026-01-18 09:48:45.70	353.94	34.65	-41.2	-44.1	11.9	4.07e-04	0	60	0	1534066688	53	5181
2026-01-18 09:48:46.71	353.84	34.43	-41.1	-43.9	12.0	3.71e-04	0	60	0	1537212416	53	5100
2026-01-18 09:48:47.72	353.74	34.21	-41.1	-43.9	12.1	2.78e-04	0	60	0	1540358144	53	5069
2026-01-18 09:48:48.73	353.65	34.00	-41.1	-43.9	12.1	2.66e-04	0	60	0	1543503872	53	5087
2026-01-18 09:48:49.74	353.55	33.79	-40.9	-43.6	12.4	1.79e-04	0	61	0	1546649600	53	4912
2026-01-18 09:48:50.75	353.46	33.57	-40.9	-43.5	12.5	1.10e-04	0	61	0	1549795328	53	4850
2026-01-18 09:48:51.76	353.37	33.36	-40.8	-43.4	12.6	1.01e-04	0	61	0	1552941056	53	4803
2026-01-18 09:48:52.77	353.28	33.16	-40.8	-43.4	12.6	1.06e-04	0	60	0	1556086784	53	4792
2026-01-18 09:48:53.78	353.19	32.95	-40.8	-43.5	12.5	1.11e-04	0	60	0	1559232512	53	4835
2026-01-18 09:48:54.79	353.10	32.74	-40.9	-43.6	12.4	1.57e-04	0	61	0	1562378240	53	4903
2026-01-18 09:48:55.80	353.02	32.54	-40.9	-43.6	12.4	1.65e-04	0	60	0	1565523968	53	4893
2026-01-18 09:48:56.81	352.93	32.33	-40.9	-43.6	12.4	1.45e-04	0	61	0	1568669696	53	4891
2026-01-18 09:48:57.82	352.85	32.13	-40.9	-43.5	12.4	1.45e-04	0	61	0	1571815424	53	4869
2026-01-18 09:48:58.83	352.77	31.93	-40.9	-43.6	12.4	1.50e-04	0	61	0	1574961152	53	4881
2026-01-18 09:48:59.84	352.68	31.73	-40.9	-43.6	12.4	1.53e-04	0	61	0	1578106880	53	4889
2026-01-18 09:49:00.85	352.60	31.53	-40.9	-43.6	12.3	1.93e-04	0	61	0	1581252608	53	4910
2026-01-18 09:49:01.87	352.52	31.34	-40.8	-43.5	12.4	1.30e-04	0	61	0	1584398336	53	4851
2026-01-18 09:49:02.88	352.44	31.14	-40.8	-43.4	12.5	1.22e-04	0	61	0	1587544064	53	4793
2026-01-18 09:49:03.89	352.36	30.95	-40.7	-43.3	12.6	1.04e-04	0	61	0	1590689792	53	4750
2026-01-18 09:49:04.90	352.29	30.75	-40.5	-43.0	12.9	6.56e-05	0	61	0	1593835520	53	4593
2026-01-18 09:49:05.91	352.21	30.56	-40.5	-43.0	12.9	6.17e-05	0	61	0	1596981248	53	4593
2026-01-18 09:49:06.92	352.14	30.37	-40.5	-43.1	12.9	4.57e-05	0	61	0	1600126976	53	4600
2026-01-18 09:49:07.93	352.06	30.18	-40.3	-42.6	13.3	3.28e-05	0	61	0	1603272704	52	4639
2026-01-18 09:49:08.94	351.99	29.99	-40.1	-42.4	13.5	1.60e-05	0	61	0	1606418432	52	4509
2026-01-18 09:49:09.95	351.92	29.80	-39.9	-42.1	13.9	6.10e-06	0	61	0	1609564160	51	4619
2026-01-18 09:49:10.96	351.85	29.62	-39.7	-41.8	14.1	2.20e-06	0	61	0	1612709888	51	4492
2026-01-18 09:49:11.97	351.77	29.43	-39.7	-41.8	14.1	2.20e-06	0	61	0	1615855616	51	4491
2026-01-18 09:49:12.98	351.71	29.25	-39.6	-41.7	14.3	1.50e-06	0	61	0	1619001344	51	4431
2026-01-18 09:49:13.99	351.64	29.07	-39.6	-41.7	14.3	1.50e-06	0	61	0	1622147072	51	4408
2026-01-18 09:49:15.00	351.57	28.89	-39.7	-41.8	14.1	7.00e-07	0	60	0	1625292800	51	4476
2026-01-18 09:49:16.01	351.50	28.71	-39.7	-41.9	14.1	7.00e-07	0	60	0	1628438528	51	4503
2026-01-18 09:49:17.02	351.43	28.53	-39.8	-41.9	14.0	7.00e-07	0	60	0	1631584256	51	4539
2026-01-18 09:49:18.03	351.37	28.35	-39.9	-42.1	13.9	6.80e-06	0	61	0	1634729984	51	4615
2026-01-18 09:49:19.04	351.30	28.17	-39.9	-42.2	13.7	9.10e-06	0	61	0	1637875712	51	4672
2026-01-18 09:49:20.06	351.24	27.99	-40.0	-42.3	13.6	3.80e-06	0	60	0	1641021440	51	4737
2026-01-18 09:49:21.07	351.18	27.82	-40.0	-42.4	13.5	9.90e-06	0	61	0	1644167168	51	4779
2026-01-18 09:49:22.08	351.11	27.65	-40.1	-42.5	13.5	7.60e-06	0	61	0	1647312896	51	4817
2026-01-18 09:49:23.09	351.05	27.47	-40.1	-42.5	13.4	1.29e-05	0	60	0	1650458624	51	4823
2026-01-18 09:49:24.10	350.99	27.30	-40.1	-42.5	13.4	1.37e-05	0	61	0	1653604352	51	4837
2026-01-18 09:49:25.11	350.93	27.13	-40.1	-42.5	13.3	1.44e-05	0	60	0	1656750080	51	4861
2026-01-18 09:49:26.12	350.87	26.96	-40.1	-42.5	13.3	1.60e-05	0	61	0	1659895808	51	4853
2026-01-18 09:49:27.13	350.81	26.79	-40.0	-42.3	13.6	1.44e-05	0	60	0	1663041536	51	4737
2026-01-18 09:49:28.14	350.75	26.63	-40.0	-42.3	13.5	9.90e-06	0	60	0	1666187264	51	4731
2026-01-18 09:49:29.15	350.69	26.46	-40.0	-42.4	13.4	6.10e-06	0	61	0	1669332992	51	4774
2026-01-18 09:49:30.16	350.64	26.29	-39.9	-42.3	13.4	1.44e-05	0	60	0	1672478720	51	4727
2026-01-18 09:49:31.17	350.58	26.13	-40.0	-42.3	13.4	2.13e-05	0	61	0	1675624448	51	4757
2026-01-18 09:49:32.18	350.52	25.97	-40.0	-42.5	13.2	1.98e-05	0	60	0	1678770176	51	4836
2026-01-18 09:49:33.19	350.47	25.80	-39.9	-42.4	13.2	2.21e-05	0	61	0	1681915904	51	4770
2026-01-18 09:49:34.20	350.41	25.64	-40.0	-42.5	13.1	3.12e-05	0	61	0	1685061632	51	4843
2026-01-18 09:49:35.21	350.36	25.48	-40.1	-42.6	13.0	3.28e-05	0	60	0	1688207360	51	4905
2026-01-18 09:49:36.22	350.30	25.32	-40.0	-42.5	13.1	3.81e-05	0	61	0	1691353088	51	4824
2026-01-18 09:49:37.24	350.25	25.16	-40.0	-42.6	12.9	3.96e-05	0	61	0	1694498816	51	4894
2026-01-18 09:49:38.25	350.20	25.00	-40.1	-42.7	12.8	5.79e-05	0	60	0	1697644544	51	4950
2026-01-18 09:49:39.26	350.15	24.84	-40.1	-42.7	12.8	5.34e-05	0	61	0	1700790272	51	4964
2026-01-18 09:49:40.27	350.09	24.69	-40.2	-42.8	12.6	9.30e-05	0	61	0	1703936000	51	5020
2026-01-18 09:49:41.28	350.04	24.53	-40.2	-42.8	12.6	9.61e-05	0	61	0	1707081728	51	5038
2026-01-18 09:49:42.29	349.99	24.38	-40.3	-43.0	12.4	1.38e-04	0	61	0	1710227456	51	5117
2026-01-18 09:49:43.30	349.94	24.23	-40.2	-42.8	12.6	1.18e-04	0	61	0	1713373184	51	5015
2026-01-18 09:49:44.31	349.89	24.07	-40.2	-42.9	12.4	1.05e-04	0	61	0	1716518912	51	5060
2026-01-18 09:49:45.32	349.85	23.92	-40.2	-43.0	12.3	1.69e-04	0	61	0	1719664640	51	5109
2026-01-18 09:49:46.33	349.80	23.77	-40.1	-42.8	12.4	1.63e-04	0	61	0	1722810368	51	5034
2026-01-18 09:49:47.34	349.75	23.62	-40.2	-43.0	12.2	1.94e-04	0	61	0	1725956096	51	5115
2026-01-18 09:49:48.35	349.70	23.47	-40.2	-43.0	12.1	2.42e-04	0	61	0	1729101824	51	5105
2026-01-18 09:49:49.36	349.66	23.32	-40.0	-42.7	12.3	2.08e-04	0	60	0	1732247552	51	4956
2026-01-18 09:49:50.37	349.61	23.18	-39.8	-42.6	12.3	1.68e-04	0	61	0	1735393280	51	4879
2026-01-18 09:49:51.38	349.56	23.03	-39.9	-42.8	11.9	3.58e-04	0	60	0	1738539008	51	5016
2026-01-18 09:49:52.39	349.52	22.88	-40.0	-43.0	11.5	8.57e-04	0	61	0	1742733312	51	5113
2026-01-18 09:49:53.40	349.47	22.74	-39.7	-42.5	11.9	4.07e-04	0	61	0	1744830464	51	4865
2026-01-18 09:49:54.41	349.43	22.59	-39.4	-42.1	12.3	2.22e-04	0	61	0	1747976192	50	4909
2026-01-18 09:49:55.42	349.38	22.45	-39.3	-42.0	12.4	1.48e-04	0	61	0	1751121920	50	4844
2026-01-18 09:49:56.43	349.34	22.31	-39.2	-42.0	12.3	1.52e-04	0	60	0	1755316224	50	4827
2026-01-18 09:49:57.44	349.30	22.17	-39.2	-42.0	12.2	2.46e-04	0	61	0	1758461952	50	4820
2026-01-18 09:49:58.46	349.25	22.02	-39.1	-41.9	12.1	2.46e-04	0	61	0	1761607680	50	4796
2026-01-18 09:49:59.47	349.21	21.88	-39.1	-42.0	11.9	4.01e-04	0	61	0	1764753408	50	4856
2026-01-18 09:50:00.48	349.17	21.74	-39.3	-42.4	11.5	8.06e-04	0	61	0	1766850560	50	5081
2026-01-18 09:50:01.49	349.13	21.60	-39.7	-43.1	10.6	2.66e-03	0	61	0	1771044864	50	5484
2026-01-18 09:50:02.50	349.09	21.47	-40.0	-43.8	9.8	7.07e-03	0	61	0	1774190592	50	5988
2026-01-18 09:50:03.51	349.05	21.33	-40.5	-45.0	8.5	2.91e-02	0	61	0	1777336320	51	6480
2026-01-18 09:50:04.52	349.01	21.19	-40.8	-46.2	7.1	1.04e-01	0	61	0	1780482048	52	7007
2026-01-18 09:50:05.53	348.97	21.06	-41.1	-47.5	5.9	2.94e-01	0	61	0	1783627776	52	8154
2026-01-18 09:50:06.54	348.93	20.92	-41.3	-48.9	4.9	6.81e-01	0	60	0	1786773504	53	9047
2026-01-18 09:50:07.55	348.89	20.79	-41.4	-50.3	4.3	1.45e+00	0	61	104	1786773504	53	10607
2026-01-18 09:50:08.57	348.85	20.65	-41.4	-51.8	3.9	1.48e+00	0	61	104	1786773504	53	12621
2026-01-18 09:50:09.58	348.81	20.52	-41.5	-53.0	3.8	1.49e+00	0	61	104	1786773504	53	14484
2026-01-18 09:50:10.59	348.77	20.39	-41.1	-53.6	3.8	1.49e+00	0	61	104	1786773504	53	15557
2026-01-18 09:50:11.60	348.73	20.25	-41.2	-53.5	3.8	1.49e+00	0	61	104	1786773504	53	15230
2026-01-18 09:50:12.61	348.70	20.12	-41.2	-53.7	3.8	1.49e+00	0	61	104	1786773504	53	15586
2026-01-18 09:50:13.62	348.66	19.99	-41.4	-53.7	3.8	1.49e+00	0	61	104	1786773504	54	14738
2026-01-18 09:50:14.63	348.62	19.86	-41.1	-53.7	3.8	1.49e+00	0	61	104	1786773504	54	14745
2026-01-18 09:50:15.64	348.59	19.73	-41.2	-53.5	3.8	1.49e+00	0	61	104	1786773504	54	14470
2026-01-18 09:50:16.65	348.55	19.61	-41.1	-53.7	3.8	1.49e+00	0	61	104	1786773504	54	14825
2026-01-18 09:50:17.66	348.52	19.48	-41.3	-53.7	3.8	1.49e+00	0	61	104	1786773504	54	14824
2026-01-18 09:50:18.67	348.48	19.35	-41.3	-53.7	3.8	1.49e+00	0	61	104	1786773504	54	14724
2026-01-18 09:50:19.68	348.45	19.22	-41.0	-53.5	3.8	1.49e+00	0	61	104	1786773504	54	14430
2026-01-18 09:50:20.69	348.41	19.10	-41.2	-53.7	3.8	1.49e+00	0	61	104	1786773504	53	15689
2026-01-18 09:50:21.70	348.38	18.97	-41.3	-53.8	3.8	1.49e+00	0	61	104	1786773504	53	15763
2026-01-18 09:50:22.71	348.34	18.85	-41.1	-53.6	3.8	1.49e+00	0	61	104	1786773504	53	15406
2026-01-18 09:50:23.72	348.31	18.72	-41.0	-53.5	3.8	1.49e+00	0	61	104	1786773504	53	15287
2026-01-18 09:50:24.73	348.28	18.60	-41.2	-53.7	3.8	1.49e+00	0	61	104	1786773504	53	15638
2026-01-18 09:50:25.74	348.24	18.48	-41.0	-53.6	3.8	1.49e+00	0	61	104	1786773504	53	15526
2026-01-18 09:50:26.75	348.21	18.36	-40.9	-53.5	3.8	1.49e+00	0	61	104	1786773504	53	15228
2026-01-18 09:50:27.76	348.18	18.23	-41.4	-53.7	3.8	1.49e+00	0	61	104	1786773504	53	15655
2026-01-18 09:50:28.77	348.14	18.11	-41.0	-53.5	3.8	1.49e+00	0	61	104	1786773504	53	15355
2026-01-18 09:50:29.78	348.11	17.99	-40.8	-53.4	3.8	1.49e+00	0	61	104	1786773504	53	15191
2026-01-18 09:50:30.79	348.08	17.87	-41.2	-53.6	3.8	1.49e+00	0	61	104	1786773504	53	15470
2026-01-18 09:50:31.80	348.05	17.75	-41.5	-53.8	3.8	1.49e+00	0	61	104	1786773504	53	15821
2026-01-18 09:50:32.81	348.02	17.64	-40.9	-53.4	3.8	1.49e+00	0	61	104	1786773504	53	15148
2026-01-18 09:50:33.82	347.99	17.52	-41.1	-53.6	3.8	1.49e+00	0	61	104	1786773504	53	15428
2026-01-18 09:50:34.84	347.96	17.40	-41.4	-53.8	3.8	1.49e+00	0	61	104	1786773504	53	15797
2026-01-18 09:50:35.85	347.93	17.28	-41.4	-53.8	3.8	1.49e+00	0	61	104	1786773504	53	15808
2026-01-18 09:50:36.86	347.90	17.17	-41.1	-53.5	3.8	1.49e+00	0	61	104	1786773504	53	15278
2026-01-18 09:50:37.86	347.87	17.05	-41.4	-53.7	3.8	1.49e+00	0	61	104	1786773504	53	15715
2026-01-18 09:50:38.87	347.84	16.93	-41.5	-53.8	3.8	1.49e+00	0	61	104	1786773504	53	15852
2026-01-18 09:50:39.88	347.81	16.82	-41.4	-53.7	3.8	1.49e+00	0	61	104	1786773504	53	15721
2026-01-18 09:50:40.90	347.78	16.70	-41.3	-53.6	3.8	1.49e+00	0	61	104	1786773504	53	15559
2026-01-18 09:50:41.91	347.75	16.59	-41.5	-53.8	3.8	1.49e+00	0	61	104	1786773504	53	15865
2026-01-18 09:50:42.92	347.72	16.48	-41.4	-53.7	3.8	1.49e+00	0	61	104	1786773504	53	15726
2026-01-18 09:50:43.93	347.69	16.36	-41.4	-53.8	3.8	1.49e+00	0	61	104	1786773504	53	15891
2026-01-18 09:50:44.94	347.67	16.25	-41.4	-53.7	3.8	1.49e+00	0	61	104	1786773504	53	15725
2026-01-18 09:50:45.94	347.64	16.14	-41.5	-53.8	3.8	1.49e+00	0	61	104	1786773504	53	15781
2026-01-18 09:50:46.95	347.61	16.03	-41.3	-53.7	3.8	1.49e+00	0	61	104	1786773504	53	15741
2026-01-18 09:50:47.96	347.58	15.92	-41.5	-53.9	3.8	1.49e+00	0	61	104	1786773504	53	16011
2026-01-18 09:50:48.97	347.56	15.81	-41.4	-53.8	3.8	1.49e+00	0	61	104	1786773504	53	15793
2026-01-18 09:50:49.98	347.53	15.70	-41.4	-53.7	3.8	1.49e+00	0	61	104	1786773504	53	15623
