passes_logs/2026/01/18/R2.0S_Moscow/R2.0S_Moscow__20260118_003903_NOAA_20_JPSS-1_rec.log

#Pass ID: 20260118_003903_NOAA 20 (JPSS-1)
#Satellite: NOAA 20 (JPSS-1)
#Configuration: NOAA 20
#almurnet v.1.7.20251203
#Start time: 2026-01-18 00:39:04

#Version: 2.2.20231116
#Station: R2.0S_Moscow
#Location: 37.707566 lon 55.798166 lat
#TLE: 1 43013U 17073A   26017.30359522  .00000067  00000+0  52526-4 0  9990
#TLE: 2 43013  98.7639 318.2187 0001419  36.2087 323.9184 14.19536557423067

#Time	Az	El	Level	Level2	SNR	BER	BlckErr	Temp	State	Recorded	gain1	gain2
2026-01-18 00:39:04.46	12.34	2.09	-40.0	-54.7	3.8	1.49e+00	0	52	0	0	52	18643
2026-01-18 00:39:05.46	12.30	2.15	-40.1	-54.7	3.8	1.49e+00	0	52	104	0	52	18646
2026-01-18 00:39:06.47	12.26	2.22	-40.0	-54.7	3.8	1.49e+00	0	53	104	0	52	18642
2026-01-18 00:39:07.48	12.22	2.28	-40.1	-54.7	3.8	1.49e+00	0	52	104	0	52	18656
2026-01-18 00:39:08.49	12.18	2.34	-40.0	-54.7	3.8	1.49e+00	0	53	104	0	52	18607
2026-01-18 00:39:09.50	12.14	2.40	-40.0	-54.7	3.8	1.49e+00	0	53	104	0	52	18627
2026-01-18 00:39:10.51	12.10	2.47	-40.0	-54.7	3.8	1.49e+00	0	53	104	0	52	18646
2026-01-18 00:39:11.52	12.07	2.53	-40.0	-54.7	3.8	1.49e+00	0	53	104	0	52	18586
2026-01-18 00:39:12.53	12.03	2.59	-40.0	-54.7	3.8	1.49e+00	0	53	104	0	52	18632
2026-01-18 00:39:13.54	11.99	2.65	-40.0	-54.7	3.8	1.49e+00	0	53	104	0	52	18607
2026-01-18 00:39:14.55	11.95	2.72	-40.0	-54.7	3.8	1.49e+00	0	53	104	0	52	18576
2026-01-18 00:39:15.56	11.91	2.78	-40.0	-54.7	3.8	1.49e+00	0	53	104	0	52	18591
2026-01-18 00:39:16.57	11.87	2.84	-40.0	-54.7	3.8	1.49e+00	0	53	104	0	52	18591
2026-01-18 00:39:17.58	11.82	2.91	-40.0	-54.7	3.8	1.49e+00	0	53	104	0	52	18561
2026-01-18 00:39:18.60	11.78	2.97	-40.0	-54.7	3.8	1.49e+00	0	53	104	0	52	18585
2026-01-18 00:39:19.61	11.74	3.04	-40.0	-54.7	3.8	1.49e+00	0	53	104	0	52	18617
2026-01-18 00:39:20.62	11.70	3.10	-40.0	-54.7	3.8	1.49e+00	0	53	104	0	52	18611
2026-01-18 00:39:21.63	11.66	3.16	-40.0	-54.7	3.8	1.49e+00	0	53	104	0	52	18573
2026-01-18 00:39:22.64	11.62	3.23	-40.0	-54.7	3.8	1.49e+00	0	53	104	0	52	18579
2026-01-18 00:39:23.65	11.58	3.29	-40.0	-54.7	3.8	1.49e+00	0	54	104	0	52	18605
2026-01-18 00:39:24.66	11.54	3.36	-40.0	-54.7	3.8	1.49e+00	0	54	104	0	52	18570
2026-01-18 00:39:25.67	11.49	3.42	-40.0	-54.7	3.8	1.49e+00	0	54	104	0	52	18598
2026-01-18 00:39:26.68	11.45	3.49	-40.0	-54.7	3.8	1.49e+00	0	54	104	0	52	18557
2026-01-18 00:39:27.70	11.41	3.55	-40.0	-54.7	3.8	1.49e+00	0	53	104	0	52	18563
2026-01-18 00:39:28.71	11.36	3.62	-40.0	-54.7	3.8	1.49e+00	0	54	104	0	52	18562
2026-01-18 00:39:29.72	11.32	3.68	-40.0	-54.7	3.8	1.49e+00	0	54	104	0	52	18606
2026-01-18 00:39:30.73	11.28	3.75	-40.0	-54.7	3.8	1.49e+00	0	54	104	0	52	18557
2026-01-18 00:39:31.74	11.24	3.81	-40.0	-54.7	3.8	1.49e+00	0	54	104	0	52	18558
2026-01-18 00:39:32.75	11.19	3.88	-40.0	-54.7	3.8	1.49e+00	0	54	104	0	52	18580
2026-01-18 00:39:33.76	11.15	3.95	-40.0	-54.7	3.8	1.49e+00	0	54	104	0	52	18528
2026-01-18 00:39:34.77	11.10	4.01	-40.0	-54.7	3.8	1.49e+00	0	54	104	0	52	18589
2026-01-18 00:39:35.79	11.06	4.08	-40.0	-54.7	3.8	1.49e+00	0	54	104	0	52	18518
2026-01-18 00:39:36.80	11.01	4.15	-40.0	-54.7	3.8	1.49e+00	0	54	104	0	52	18530
2026-01-18 00:39:37.81	10.97	4.21	-40.0	-54.7	3.8	1.49e+00	0	54	104	0	52	18547
2026-01-18 00:39:38.82	10.93	4.28	-40.0	-54.6	3.8	1.49e+00	0	54	104	0	52	18506
2026-01-18 00:39:39.83	10.88	4.34	-40.0	-54.6	3.8	1.49e+00	0	55	104	0	52	18483
2026-01-18 00:39:40.84	10.83	4.41	-40.0	-54.7	3.8	1.49e+00	0	54	104	0	52	18531
2026-01-18 00:39:41.85	10.79	4.48	-40.0	-54.6	3.8	1.49e+00	0	55	104	0	52	18475
2026-01-18 00:39:42.86	10.74	4.55	-40.0	-54.7	3.8	1.49e+00	0	55	104	0	52	18556
2026-01-18 00:39:43.87	10.70	4.61	-40.0	-54.6	3.8	1.49e+00	0	55	104	0	52	18476
2026-01-18 00:39:44.88	10.65	4.68	-40.0	-54.6	3.8	1.49e+00	0	55	104	0	52	18503
2026-01-18 00:39:45.89	10.60	4.75	-40.0	-54.7	3.8	1.49e+00	0	55	104	0	52	18585
2026-01-18 00:39:46.91	10.56	4.82	-40.0	-54.7	3.8	1.49e+00	0	55	104	0	52	18527
2026-01-18 00:39:47.92	10.51	4.88	-40.0	-54.6	3.8	1.49e+00	0	55	104	0	52	18500
2026-01-18 00:39:48.93	10.46	4.95	-40.0	-54.7	3.8	1.49e+00	0	55	104	0	52	18524
2026-01-18 00:39:49.94	10.42	5.02	-40.0	-54.6	3.8	1.49e+00	0	55	104	0	52	18504
2026-01-18 00:39:50.95	10.37	5.09	-40.0	-54.6	3.8	1.49e+00	0	55	104	0	52	18493
2026-01-18 00:39:51.96	10.32	5.16	-40.0	-54.7	3.8	1.49e+00	0	55	104	0	52	18536
2026-01-18 00:39:52.97	10.27	5.23	-40.0	-54.6	3.8	1.49e+00	0	55	104	0	52	18512
2026-01-18 00:39:53.98	10.22	5.30	-40.0	-54.6	3.8	1.49e+00	0	55	104	0	52	18516
2026-01-18 00:39:55.00	10.17	5.36	-40.0	-54.6	3.8	1.49e+00	0	55	104	0	52	18514
2026-01-18 00:39:56.00	10.13	5.43	-40.0	-54.6	3.8	1.49e+00	0	55	104	0	52	18508
2026-01-18 00:39:57.02	10.08	5.50	-40.0	-54.6	3.8	1.49e+00	0	55	104	0	52	18500
2026-01-18 00:39:58.03	10.03	5.57	-40.0	-54.7	3.8	1.49e+00	0	56	104	0	52	18542
2026-01-18 00:39:59.04	9.98	5.64	-40.0	-54.7	3.8	1.49e+00	0	55	104	0	52	18526
2026-01-18 00:40:00.05	9.93	5.71	-40.0	-54.7	3.8	1.49e+00	0	55	104	0	52	18560
2026-01-18 00:40:01.06	9.88	5.78	-40.0	-54.7	3.8	1.49e+00	0	56	104	0	52	18557
2026-01-18 00:40:02.07	9.83	5.85	-40.0	-54.7	3.8	1.49e+00	0	55	104	0	52	18565
2026-01-18 00:40:03.08	9.78	5.92	-40.0	-54.7	3.8	1.49e+00	0	56	104	0	52	18594
2026-01-18 00:40:04.09	9.72	5.99	-40.0	-54.7	3.8	1.49e+00	0	56	104	0	52	18560
2026-01-18 00:40:05.10	9.67	6.06	-40.0	-54.7	3.8	1.49e+00	0	56	104	0	52	18610
2026-01-18 00:40:06.11	9.62	6.13	-40.0	-54.7	3.8	1.49e+00	0	56	104	0	52	18552
2026-01-18 00:40:07.12	9.57	6.21	-40.0	-54.7	3.8	1.49e+00	0	56	104	0	52	18526
2026-01-18 00:40:08.14	9.52	6.28	-40.0	-54.6	3.8	1.49e+00	0	56	104	0	52	18495
2026-01-18 00:40:09.15	9.46	6.35	-40.0	-54.7	3.8	1.49e+00	0	56	104	0	52	18550
2026-01-18 00:40:10.16	9.41	6.42	-40.0	-54.7	3.8	1.49e+00	0	56	104	0	52	18529
2026-01-18 00:40:11.17	9.36	6.49	-40.0	-54.7	3.8	1.49e+00	0	56	104	0	52	18541
2026-01-18 00:40:12.18	9.31	6.56	-40.0	-54.7	3.8	1.49e+00	0	56	104	0	52	18528
2026-01-18 00:40:13.19	9.25	6.64	-40.0	-54.7	3.8	1.49e+00	0	56	104	0	52	18543
2026-01-18 00:40:14.20	9.20	6.71	-40.0	-54.6	3.8	1.49e+00	0	56	104	0	52	18495
2026-01-18 00:40:15.21	9.14	6.78	-40.0	-54.6	3.8	1.49e+00	0	56	104	0	52	18499
2026-01-18 00:40:16.22	9.09	6.85	-40.0	-54.7	3.8	1.49e+00	0	56	104	0	52	18518
2026-01-18 00:40:17.24	9.04	6.93	-40.0	-54.6	3.8	1.49e+00	0	56	104	0	52	18506
2026-01-18 00:40:18.25	8.98	7.00	-40.0	-54.6	3.8	1.49e+00	0	56	104	0	52	18484
2026-01-18 00:40:19.26	8.93	7.07	-40.0	-54.6	3.8	1.49e+00	0	56	104	0	52	18491
2026-01-18 00:40:20.27	8.87	7.15	-40.0	-54.6	3.8	1.49e+00	0	56	104	0	52	18437
2026-01-18 00:40:21.28	8.81	7.22	-40.0	-54.6	3.8	1.49e+00	0	56	104	0	52	18509
2026-01-18 00:40:22.29	8.76	7.29	-40.0	-54.7	3.8	1.49e+00	0	56	104	0	52	18560
2026-01-18 00:40:23.30	8.70	7.37	-40.0	-54.7	3.8	1.49e+00	0	56	104	0	52	18523
2026-01-18 00:40:24.31	8.64	7.44	-40.0	-54.7	3.8	1.49e+00	0	56	104	0	52	18526
2026-01-18 00:40:25.32	8.59	7.51	-40.0	-54.6	3.8	1.49e+00	0	56	104	0	52	18496
2026-01-18 00:40:26.33	8.53	7.59	-40.0	-54.7	3.8	1.49e+00	0	56	104	0	52	18538
2026-01-18 00:40:27.35	8.47	7.66	-40.0	-54.6	3.8	1.49e+00	0	56	104	0	52	18513
2026-01-18 00:40:28.36	8.41	7.74	-40.0	-54.6	3.8	1.49e+00	0	57	104	0	52	18503
2026-01-18 00:40:29.37	8.36	7.81	-40.0	-54.7	3.8	1.49e+00	0	57	104	0	52	18528
2026-01-18 00:40:30.38	8.30	7.89	-40.0	-54.6	3.8	1.49e+00	0	57	104	0	52	18508
2026-01-18 00:40:31.39	8.24	7.96	-40.0	-54.6	3.8	1.49e+00	0	57	104	0	52	18497
2026-01-18 00:40:32.40	8.18	8.04	-40.1	-54.7	3.8	1.49e+00	0	57	104	0	52	18666
2026-01-18 00:40:33.41	8.12	8.12	-40.1	-54.7	3.8	1.49e+00	0	57	104	0	52	18719
2026-01-18 00:40:34.42	8.06	8.19	-40.1	-54.8	3.8	1.49e+00	0	57	104	0	52	18811
2026-01-18 00:40:35.43	8.00	8.27	-40.1	-54.7	3.8	1.49e+00	0	57	104	0	51	19726
2026-01-18 00:40:36.44	7.94	8.34	-40.1	-54.8	3.8	1.49e+00	0	57	104	0	51	19903
2026-01-18 00:40:37.45	7.88	8.42	-40.2	-54.8	3.8	1.49e+00	0	57	104	0	51	20067
2026-01-18 00:40:38.46	7.82	8.50	-40.2	-54.8	3.8	1.49e+00	0	57	104	0	51	19955
2026-01-18 00:40:39.47	7.75	8.57	-40.3	-54.9	3.8	1.49e+00	0	57	104	0	51	20124
2026-01-18 00:40:40.48	7.69	8.65	-40.1	-54.8	3.8	1.49e+00	0	57	104	0	51	19907
2026-01-18 00:40:41.49	7.63	8.73	-40.1	-54.7	3.8	1.49e+00	0	57	104	0	51	19802
2026-01-18 00:40:42.50	7.57	8.81	-40.1	-54.8	3.8	1.49e+00	0	57	104	0	51	19918
2026-01-18 00:40:43.51	7.50	8.88	-40.0	-54.7	3.8	1.49e+00	0	57	104	0	51	19649
2026-01-18 00:40:44.52	7.44	8.96	-40.1	-54.8	3.8	1.49e+00	0	57	104	0	51	19864
2026-01-18 00:40:45.53	7.38	9.04	-40.1	-54.8	3.8	1.49e+00	0	57	104	0	51	19896
2026-01-18 00:40:46.54	7.31	9.12	-40.1	-54.8	3.8	1.49e+00	0	57	104	0	51	19947
2026-01-18 00:40:47.55	7.25	9.20	-40.2	-54.9	3.8	1.49e+00	0	57	104	0	51	20136
2026-01-18 00:40:48.56	7.18	9.27	-40.1	-54.8	3.8	1.49e+00	0	57	104	0	51	19849
2026-01-18 00:40:49.56	7.12	9.35	-40.2	-54.8	3.8	1.49e+00	0	57	104	0	51	19919
2026-01-18 00:40:50.57	7.05	9.43	-40.1	-54.7	3.8	1.49e+00	0	57	104	0	51	19801
2026-01-18 00:40:51.58	6.99	9.51	-40.1	-54.8	3.8	1.49e+00	0	58	104	0	51	19910
2026-01-18 00:40:52.59	6.92	9.59	-40.2	-54.8	3.8	1.49e+00	0	57	104	0	51	20027
2026-01-18 00:40:53.60	6.85	9.67	-40.3	-55.0	3.8	1.49e+00	0	57	104	0	51	20318
2026-01-18 00:40:54.61	6.79	9.75	-40.2	-54.8	3.8	1.49e+00	0	57	104	0	51	20047
2026-01-18 00:40:55.62	6.72	9.83	-40.4	-55.0	3.8	1.49e+00	0	58	104	0	51	20519
2026-01-18 00:40:56.63	6.65	9.91	-40.1	-54.8	3.8	1.49e+00	0	58	104	0	51	19987
2026-01-18 00:40:57.63	6.58	9.99	-39.9	-54.6	3.8	1.49e+00	0	58	104	0	51	19513
2026-01-18 00:40:58.64	6.51	10.07	-40.0	-54.7	3.8	1.49e+00	0	58	104	0	51	19648
2026-01-18 00:40:59.65	6.45	10.15	-39.9	-54.6	3.8	1.49e+00	0	57	104	0	51	19572
2026-01-18 00:41:00.66	6.38	10.24	-40.0	-54.7	3.8	1.49e+00	0	58	104	0	51	19616
2026-01-18 00:41:01.67	6.31	10.32	-40.1	-54.7	3.8	1.49e+00	0	58	104	0	51	19800
2026-01-18 00:41:02.68	6.24	10.40	-40.7	-55.3	3.8	1.49e+00	0	58	104	0	51	21237
2026-01-18 00:41:03.69	6.17	10.48	-40.7	-55.3	3.8	1.49e+00	0	58	104	0	52	20023
2026-01-18 00:41:04.70	6.09	10.56	-40.0	-54.7	3.8	1.49e+00	0	58	104	0	52	18568
2026-01-18 00:41:05.71	6.02	10.65	-40.0	-54.6	3.8	1.49e+00	0	58	104	0	51	19584
2026-01-18 00:41:06.72	5.95	10.73	-40.0	-54.7	3.8	1.49e+00	0	58	104	0	51	19654
2026-01-18 00:41:07.73	5.88	10.81	-40.0	-54.7	3.8	1.49e+00	0	58	104	0	51	19781
2026-01-18 00:41:08.74	5.80	10.89	-40.1	-54.8	3.8	1.49e+00	0	58	104	0	51	20029
2026-01-18 00:41:09.76	5.73	10.98	-40.2	-54.9	3.8	1.49e+00	0	58	104	0	51	20121
2026-01-18 00:41:10.77	5.66	11.06	-41.0	-55.5	3.8	1.49e+00	0	58	104	0	52	20322
2026-01-18 00:41:11.78	5.58	11.15	-40.6	-55.2	3.8	1.49e+00	0	58	104	0	53	18678
2026-01-18 00:41:12.79	5.51	11.23	-40.2	-54.8	3.8	1.49e+00	0	58	104	0	52	18912
2026-01-18 00:41:13.80	5.43	11.31	-40.3	-55.0	3.8	1.49e+00	0	58	104	0	52	19322
2026-01-18 00:41:14.81	5.36	11.40	-40.3	-55.0	3.8	1.49e+00	0	58	104	0	52	19291
2026-01-18 00:41:15.82	5.28	11.48	-40.3	-55.0	3.8	1.49e+00	0	58	104	0	52	19284
2026-01-18 00:41:16.83	5.20	11.57	-40.5	-55.1	3.8	1.49e+00	0	58	104	0	52	19503
2026-01-18 00:41:17.84	5.13	11.65	-40.6	-55.3	3.8	1.49e+00	0	58	104	0	52	19911
2026-01-18 00:41:18.85	5.05	11.74	-41.2	-52.9	3.9	1.49e+00	0	58	104	0	52	15148
2026-01-18 00:41:19.86	4.97	11.83	-42.2	-55.3	3.8	1.41e+00	0	58	104	0	54	17887
2026-01-18 00:41:20.87	4.89	11.91	-40.8	-54.8	3.8	1.45e+00	0	58	104	0	53	17770
2026-01-18 00:41:21.88	4.81	12.00	-41.1	-51.8	4.4	1.48e+00	62	58	104	0	53	12551
2026-01-18 00:41:22.89	4.74	12.09	-41.1	-52.0	4.4	1.29e+00	56	58	0	1048576	53	12847
2026-01-18 00:41:23.90	4.66	12.17	-41.2	-52.6	4.2	1.33e+00	0	58	0	1048576	53	13743
2026-01-18 00:41:24.91	4.58	12.26	-41.3	-53.9	3.8	1.47e+00	0	58	104	1048576	53	15982
2026-01-18 00:41:25.92	4.49	12.35	-41.4	-54.4	3.8	1.49e+00	0	58	104	1048576	53	16958
2026-01-18 00:41:26.93	4.41	12.43	-41.4	-54.7	3.8	1.49e+00	0	59	104	1048576	53	17615
2026-01-18 00:41:27.94	4.33	12.52	-41.4	-54.3	3.8	1.49e+00	0	58	104	1048576	53	16729
2026-01-18 00:41:28.95	4.25	12.61	-41.3	-52.9	4.1	1.48e+00	0	58	104	1048576	53	14316
2026-01-18 00:41:29.96	4.17	12.70	-41.3	-52.0	4.4	1.36e+00	62	58	0	1048576	53	12926
2026-01-18 00:41:30.97	4.08	12.79	-41.3	-51.6	4.6	9.78e-01	0	58	0	3145728	53	12241
2026-01-18 00:41:31.98	4.00	12.88	-41.3	-51.6	4.6	9.27e-01	0	58	0	4194304	53	12248
2026-01-18 00:41:32.99	3.91	12.97	-41.4	-51.7	4.6	9.93e-01	0	59	0	6291456	53	12388
2026-01-18 00:41:34.00	3.83	13.05	-41.6	-51.6	4.7	9.34e-01	0	59	0	8388608	53	12284
2026-01-18 00:41:35.01	3.74	13.14	-41.6	-50.6	5.3	6.59e-01	0	59	0	10485760	53	10994
2026-01-18 00:41:36.02	3.66	13.23	-41.6	-49.6	6.2	3.84e-01	0	59	0	12582912	53	9740
2026-01-18 00:41:37.02	3.57	13.32	-41.6	-49.0	6.8	2.38e-01	0	59	0	13631488	53	9153
2026-01-18 00:41:38.03	3.48	13.41	-41.5	-48.4	7.4	1.35e-01	0	59	0	15728640	53	8534
2026-01-18 00:41:39.04	3.40	13.51	-41.3	-47.9	7.9	7.98e-02	0	59	0	17825792	53	8012
2026-01-18 00:41:40.05	3.31	13.60	-41.0	-46.8	9.0	4.53e-02	0	59	0	19922944	53	7088
2026-01-18 00:41:41.06	3.22	13.69	-40.7	-45.8	10.0	9.52e-03	0	59	0	22020096	53	6309
2026-01-18 00:41:42.07	3.13	13.78	-40.5	-45.4	10.5	4.71e-03	0	58	0	24117248	53	6051
2026-01-18 00:41:43.08	3.04	13.87	-40.5	-45.5	10.3	3.80e-03	0	59	0	25165824	52	6462
2026-01-18 00:41:44.09	2.95	13.96	-40.7	-45.8	10.1	5.42e-03	0	59	0	27262976	52	6705
2026-01-18 00:41:45.10	2.86	14.06	-40.8	-46.1	9.8	8.53e-03	0	59	0	29360128	52	6896
2026-01-18 00:41:46.11	2.77	14.15	-41.0	-46.4	9.5	1.12e-02	0	59	0	31457280	52	7198
2026-01-18 00:41:47.12	2.67	14.24	-41.1	-46.6	9.3	1.53e-02	0	59	0	33554432	52	7369
2026-01-18 00:41:48.13	2.58	14.33	-41.2	-46.9	9.1	2.13e-02	0	59	0	34603008	53	7180
2026-01-18 00:41:49.14	2.49	14.43	-41.3	-47.0	9.0	2.63e-02	0	59	0	36700160	53	7232
2026-01-18 00:41:50.15	2.39	14.52	-41.4	-46.8	9.4	2.27e-02	0	59	0	38797312	53	7096
2026-01-18 00:41:51.16	2.30	14.62	-41.3	-46.5	9.7	1.38e-02	0	59	0	40894464	53	6851
2026-01-18 00:41:52.17	2.20	14.71	-41.1	-46.1	10.2	6.92e-03	0	59	0	42991616	53	6520
2026-01-18 00:41:53.18	2.11	14.80	-41.2	-46.3	10.1	6.08e-03	0	59	0	44040192	53	6651
2026-01-18 00:41:54.19	2.01	14.90	-41.4	-46.6	9.7	9.58e-03	0	59	0	46137344	53	6925
2026-01-18 00:41:55.20	1.91	15.00	-41.5	-46.9	9.5	1.27e-02	0	59	0	48234496	53	7162
2026-01-18 00:41:56.21	1.81	15.09	-41.5	-46.7	9.8	1.29e-02	0	59	0	50331648	53	6982
2026-01-18 00:41:57.22	1.71	15.19	-41.4	-46.6	9.8	8.47e-03	0	59	0	52428800	53	6930
2026-01-18 00:41:58.23	1.62	15.28	-41.6	-47.0	9.5	1.08e-02	0	59	0	53477376	53	7275
2026-01-18 00:41:59.24	1.52	15.38	-41.7	-47.1	9.5	1.77e-02	0	59	0	55574528	54	6955
2026-01-18 00:42:00.25	1.41	15.48	-41.8	-47.0	9.7	1.49e-02	0	59	0	57671680	54	6871
2026-01-18 00:42:01.25	1.31	15.57	-41.8	-47.0	9.8	9.60e-03	0	59	0	59768832	54	6837
2026-01-18 00:42:02.26	1.21	15.67	-41.8	-46.9	9.9	8.58e-03	0	59	0	61865984	54	6774
2026-01-18 00:42:03.28	1.11	15.77	-41.8	-47.0	9.9	9.64e-03	0	59	0	62914560	54	6804
2026-01-18 00:42:04.29	1.01	15.87	-41.8	-46.8	10.1	7.39e-03	0	59	0	65011712	54	6716
2026-01-18 00:42:05.29	0.90	15.96	-41.8	-46.7	10.2	5.89e-03	0	59	0	67108864	54	6645
2026-01-18 00:42:06.30	0.80	16.06	-41.8	-46.8	10.2	5.05e-03	0	59	0	69206016	54	6663
2026-01-18 00:42:07.31	0.69	16.16	-41.9	-46.9	10.1	6.67e-03	0	59	0	71303168	54	6784
2026-01-18 00:42:08.32	0.59	16.26	-41.8	-46.7	10.3	6.01e-03	0	59	0	72351744	54	6611
2026-01-18 00:42:09.33	0.48	16.36	-41.8	-46.8	10.1	5.59e-03	0	59	0	74448896	54	6706
2026-01-18 00:42:10.34	0.37	16.46	-41.9	-46.9	10.0	7.88e-03	0	59	0	76546048	54	6772
2026-01-18 00:42:11.35	0.26	16.56	-41.8	-46.8	10.1	7.25e-03	0	59	0	78643200	54	6719
2026-01-18 00:42:12.36	0.15	16.66	-41.9	-46.9	10.0	6.83e-03	0	59	0	80740352	54	6799
2026-01-18 00:42:13.37	0.04	16.76	-41.9	-46.8	10.1	7.79e-03	0	59	0	81788928	54	6721
2026-01-18 00:42:14.38	359.93	16.86	-41.8	-46.5	10.5	4.32e-03	0	59	0	83886080	54	6466
2026-01-18 00:42:15.39	359.82	16.96	-41.8	-46.6	10.5	3.66e-03	0	59	0	85983232	54	6524
2026-01-18 00:42:16.40	359.71	17.06	-41.9	-46.7	10.4	4.48e-03	0	59	0	88080384	54	6613
2026-01-18 00:42:17.41	359.59	17.16	-41.9	-46.7	10.4	4.43e-03	0	59	0	90177536	54	6630
2026-01-18 00:42:18.42	359.48	17.27	-41.8	-46.6	10.5	3.91e-03	0	59	0	92274688	54	6524
2026-01-18 00:42:19.43	359.37	17.37	-41.9	-46.8	10.3	4.10e-03	0	59	0	93323264	54	6685
2026-01-18 00:42:20.43	359.25	17.47	-41.8	-46.6	10.5	4.39e-03	0	59	0	95420416	54	6558
2026-01-18 00:42:21.44	359.14	17.57	-41.8	-46.6	10.5	3.71e-03	0	59	0	97517568	54	6537
2026-01-18 00:42:22.45	359.02	17.68	-41.9	-46.8	10.3	4.54e-03	0	59	0	99614720	54	6667
2026-01-18 00:42:23.46	358.90	17.78	-41.8	-46.6	10.5	4.35e-03	0	60	0	101711872	54	6544
2026-01-18 00:42:24.47	358.78	17.88	-41.9	-46.6	10.5	4.57e-03	0	59	0	102760448	54	6567
2026-01-18 00:42:25.48	358.66	17.99	-41.9	-46.9	10.2	5.40e-03	0	59	0	104857600	54	6729
2026-01-18 00:42:26.49	358.54	18.09	-41.9	-46.9	10.1	6.56e-03	0	59	0	106954752	54	6781
2026-01-18 00:42:27.50	358.42	18.20	-41.9	-46.8	10.2	5.58e-03	0	59	0	109051904	54	6707
2026-01-18 00:42:28.51	358.30	18.30	-41.8	-46.6	10.4	4.76e-03	0	59	0	111149056	54	6538
2026-01-18 00:42:29.52	358.17	18.41	-41.8	-46.7	10.3	4.79e-03	0	60	0	112197632	54	6590
2026-01-18 00:42:30.53	358.05	18.51	-41.8	-46.7	10.2	6.00e-03	0	59	0	114294784	54	6623
2026-01-18 00:42:31.54	357.93	18.62	-41.8	-46.8	10.1	7.32e-03	0	59	0	116391936	54	6674
2026-01-18 00:42:32.55	357.80	18.73	-41.8	-46.8	10.1	7.89e-03	0	59	0	118489088	54	6665
2026-01-18 00:42:33.55	357.67	18.83	-41.6	-46.5	10.4	6.12e-03	0	59	0	120586240	54	6431
2026-01-18 00:42:34.57	357.55	18.94	-41.5	-46.2	10.5	3.85e-03	0	59	0	121634816	54	6264
2026-01-18 00:42:35.58	357.42	19.05	-41.4	-46.1	10.6	3.20e-03	0	59	0	123731968	54	6185
2026-01-18 00:42:36.59	357.29	19.15	-41.4	-46.3	10.3	4.35e-03	0	60	0	125829120	54	6305
2026-01-18 00:42:37.60	357.16	19.26	-41.4	-46.3	10.3	5.12e-03	0	59	0	127926272	54	6308
2026-01-18 00:42:38.61	357.03	19.37	-41.3	-46.2	10.4	4.57e-03	0	59	0	130023424	54	6212
2026-01-18 00:42:39.62	356.89	19.48	-41.3	-46.3	10.2	5.60e-03	0	60	0	131072000	54	6319
2026-01-18 00:42:40.63	356.76	19.59	-41.4	-46.5	9.9	8.44e-03	0	60	0	133169152	54	6483
2026-01-18 00:42:41.64	356.63	19.70	-41.5	-47.1	9.3	1.29e-02	0	59	0	135266304	54	6891
2026-01-18 00:42:42.65	356.49	19.81	-41.7	-47.8	8.4	3.99e-02	0	60	0	137363456	54	7541
2026-01-18 00:42:43.66	356.35	19.92	-41.8	-48.2	8.0	6.08e-02	0	60	0	139460608	54	7886
2026-01-18 00:42:44.67	356.22	20.03	-41.8	-48.6	7.5	8.51e-02	0	59	0	140509184	54	8246
2026-01-18 00:42:45.68	356.08	20.14	-41.8	-48.8	7.3	1.10e-01	0	60	0	142606336	54	8409
2026-01-18 00:42:46.69	355.94	20.25	-41.9	-48.8	7.3	1.31e-01	0	60	0	144703488	54	8412
2026-01-18 00:42:47.70	355.80	20.36	-41.9	-48.5	7.7	1.06e-01	0	60	0	146800640	54	8155
2026-01-18 00:42:48.71	355.66	20.47	-41.9	-48.4	7.9	8.20e-02	0	59	0	148897792	54	8043
2026-01-18 00:42:49.71	355.52	20.58	-41.9	-48.3	8.0	6.86e-02	0	60	0	149946368	54	7929
2026-01-18 00:42:50.72	355.37	20.69	-41.8	-48.0	8.4	5.52e-02	0	60	0	152043520	54	7631
2026-01-18 00:42:51.73	355.23	20.81	-41.8	-47.8	8.5	4.70e-02	0	60	0	154140672	54	7474
2026-01-18 00:42:52.74	355.08	20.92	-41.6	-47.2	9.0	3.02e-02	0	60	0	156237824	54	7040
2026-01-18 00:42:53.75	354.94	21.03	-41.4	-46.7	9.6	1.91e-02	0	60	0	158334976	54	6602
2026-01-18 00:42:54.76	354.79	21.15	-41.3	-46.6	9.7	1.36e-02	0	60	0	160432128	54	6510
2026-01-18 00:42:55.77	354.64	21.26	-41.3	-46.5	9.7	1.28e-02	0	60	0	161480704	54	6473
2026-01-18 00:42:56.78	354.49	21.37	-41.3	-46.5	9.7	9.65e-03	0	60	0	163577856	54	6424
2026-01-18 00:42:57.79	354.34	21.49	-41.3	-46.6	9.6	1.11e-02	0	60	0	165675008	54	6536
2026-01-18 00:42:58.80	354.19	21.60	-41.4	-46.6	9.6	1.19e-02	0	60	0	167772160	54	6552
2026-01-18 00:42:59.81	354.03	21.72	-41.4	-46.7	9.5	1.23e-02	0	60	0	169869312	54	6641
2026-01-18 00:43:00.82	353.88	21.83	-41.5	-47.0	9.3	1.65e-02	0	60	0	170917888	54	6844
2026-01-18 00:43:01.83	353.72	21.95	-41.5	-47.0	9.3	1.85e-02	0	60	0	173015040	54	6828
2026-01-18 00:43:02.83	353.57	22.06	-41.5	-46.9	9.4	1.68e-02	0	60	0	175112192	54	6781
2026-01-18 00:43:03.84	353.41	22.18	-41.5	-46.8	9.6	1.58e-02	0	60	0	177209344	54	6656
2026-01-18 00:43:04.85	353.25	22.29	-41.5	-46.6	10.0	9.33e-03	0	60	0	179306496	54	6496
2026-01-18 00:43:05.86	353.09	22.41	-41.6	-46.8	9.8	8.50e-03	0	60	0	180355072	54	6666
2026-01-18 00:43:06.87	352.93	22.53	-41.9	-47.3	9.3	1.45e-02	0	60	0	182452224	54	7121
2026-01-18 00:43:07.88	352.76	22.64	-42.0	-47.6	9.1	1.76e-02	0	60	0	184549376	54	7367
2026-01-18 00:43:08.89	352.60	22.76	-42.0	-47.4	9.4	1.81e-02	0	60	0	186646528	54	7179
2026-01-18 00:43:09.90	352.43	22.88	-41.9	-47.0	9.8	1.37e-02	0	60	0	188743680	54	6866
2026-01-18 00:43:10.91	352.27	23.00	-41.9	-46.8	10.1	1.09e-02	0	60	0	189792256	54	6679
2026-01-18 00:43:11.92	352.10	23.11	-41.9	-46.8	10.4	4.93e-03	0	60	0	191889408	54	6672
2026-01-18 00:43:12.93	351.93	23.23	-42.1	-47.1	10.1	5.33e-03	0	60	0	193986560	54	6886
2026-01-18 00:43:13.95	351.76	23.35	-42.2	-47.3	9.9	7.71e-03	0	60	0	196083712	54	7077
2026-01-18 00:43:14.96	351.58	23.47	-42.2	-47.3	9.9	8.81e-03	0	60	0	198180864	55	6655
2026-01-18 00:43:15.97	351.41	23.59	-42.2	-47.1	10.2	6.45e-03	0	60	0	199229440	55	6509
2026-01-18 00:43:16.97	351.24	23.71	-42.1	-47.0	10.3	4.99e-03	0	60	0	201326592	55	6488
2026-01-18 00:43:17.98	351.06	23.83	-42.2	-47.2	10.1	5.53e-03	0	60	0	203423744	55	6597
2026-01-18 00:43:19.00	350.88	23.95	-42.2	-47.1	10.2	6.09e-03	0	60	0	205520896	55	6539
2026-01-18 00:43:20.01	350.70	24.07	-42.2	-47.1	10.2	5.87e-03	0	60	0	207618048	55	6565
2026-01-18 00:43:21.02	350.52	24.19	-42.3	-47.2	10.2	5.05e-03	0	60	0	208666624	55	6598
2026-01-18 00:43:22.02	350.34	24.31	-42.2	-47.0	10.4	5.00e-03	0	60	0	210763776	55	6464
2026-01-18 00:43:23.03	350.16	24.43	-42.2	-46.9	10.5	4.72e-03	0	60	0	212860928	55	6390
2026-01-18 00:43:24.04	349.97	24.55	-42.2	-47.0	10.4	4.22e-03	0	60	0	214958080	55	6491
2026-01-18 00:43:25.05	349.79	24.68	-42.2	-46.9	10.5	4.24e-03	0	60	0	217055232	55	6418
2026-01-18 00:43:26.06	349.60	24.80	-42.2	-47.0	10.5	3.69e-03	0	60	0	218103808	55	6442
2026-01-18 00:43:27.07	349.41	24.92	-42.2	-46.9	10.6	3.70e-03	0	60	0	220200960	55	6374
2026-01-18 00:43:28.08	349.22	25.04	-42.2	-46.9	10.6	3.46e-03	0	60	0	222298112	55	6394
2026-01-18 00:43:29.09	349.03	25.16	-42.2	-46.9	10.6	3.88e-03	0	60	0	224395264	55	6408
2026-01-18 00:43:30.10	348.83	25.29	-42.2	-47.0	10.5	3.45e-03	0	60	0	226492416	55	6427
2026-01-18 00:43:31.11	348.64	25.41	-42.2	-46.8	10.7	3.77e-03	0	60	0	228589568	55	6312
2026-01-18 00:43:32.12	348.44	25.53	-42.3	-47.1	10.5	4.13e-03	0	60	0	229638144	55	6504
2026-01-18 00:43:33.13	348.24	25.66	-42.3	-47.1	10.4	4.75e-03	0	60	0	231735296	55	6511
2026-01-18 00:43:34.14	348.04	25.78	-42.4	-47.3	10.3	4.07e-03	0	60	0	233832448	55	6660
2026-01-18 00:43:35.15	347.84	25.90	-42.4	-47.3	10.3	5.86e-03	0	60	0	235929600	55	6675
2026-01-18 00:43:36.16	347.64	26.03	-42.4	-47.2	10.4	5.24e-03	0	60	0	238026752	55	6617
2026-01-18 00:43:37.17	347.44	26.15	-42.5	-47.3	10.3	4.18e-03	0	60	0	239075328	55	6694
2026-01-18 00:43:38.18	347.23	26.27	-42.5	-47.3	10.3	4.70e-03	0	60	0	241172480	55	6716
2026-01-18 00:43:39.19	347.02	26.40	-42.5	-47.3	10.4	5.32e-03	0	60	0	243269632	55	6717
2026-01-18 00:43:40.20	346.81	26.52	-42.6	-47.6	10.1	5.55e-03	0	60	0	245366784	55	6897
2026-01-18 00:43:41.21	346.60	26.65	-42.9	-47.9	9.9	7.93e-03	0	60	0	247463936	56	6771
2026-01-18 00:43:42.22	346.39	26.77	-42.9	-47.9	10.0	6.79e-03	0	60	0	248512512	56	6764
2026-01-18 00:43:43.23	346.17	26.90	-42.9	-48.1	9.9	8.63e-03	0	60	0	250609664	56	6885
2026-01-18 00:43:44.24	345.96	27.02	-43.0	-48.2	9.8	9.71e-03	0	60	0	252706816	56	6984
2026-01-18 00:43:45.25	345.74	27.15	-43.0	-48.3	9.7	1.10e-02	0	60	0	254803968	56	7042
2026-01-18 00:43:46.26	345.52	27.27	-43.1	-48.3	9.6	1.26e-02	0	60	0	256901120	56	7092
2026-01-18 00:43:47.27	345.30	27.40	-43.1	-48.4	9.6	1.40e-02	0	60	0	257949696	56	7165
2026-01-18 00:43:48.28	345.07	27.52	-43.2	-48.7	9.3	1.62e-02	0	60	0	260046848	56	7394
2026-01-18 00:43:49.29	344.85	27.65	-43.3	-48.9	9.1	2.27e-02	0	60	0	262144000	57	7148
2026-01-18 00:43:50.30	344.62	27.77	-43.4	-49.2	8.8	2.65e-02	0	60	0	264241152	57	7376
2026-01-18 00:43:51.31	344.39	27.90	-43.4	-49.2	8.7	3.37e-02	0	60	0	266338304	57	7449
2026-01-18 00:43:52.32	344.16	28.02	-43.4	-49.3	8.6	3.81e-02	0	60	0	267386880	57	7516
2026-01-18 00:43:53.33	343.93	28.15	-43.5	-49.4	8.5	4.25e-02	0	60	0	269484032	57	7623
2026-01-18 00:43:54.34	343.69	28.28	-43.5	-49.3	8.6	3.85e-02	0	60	0	271581184	57	7515
2026-01-18 00:43:55.35	343.46	28.40	-43.5	-49.3	8.6	3.24e-02	0	60	0	273678336	57	7525
2026-01-18 00:43:56.36	343.22	28.53	-43.4	-49.2	8.7	3.64e-02	0	60	0	275775488	57	7447
2026-01-18 00:43:57.37	342.98	28.65	-43.4	-49.1	8.8	2.99e-02	0	60	0	276824064	57	7367
2026-01-18 00:43:58.38	342.74	28.78	-43.5	-49.3	8.7	3.41e-02	0	60	0	278921216	57	7507
2026-01-18 00:43:59.39	342.49	28.91	-43.5	-49.3	8.7	3.20e-02	0	60	0	281018368	57	7494
2026-01-18 00:44:00.40	342.25	29.03	-43.5	-49.3	8.7	3.44e-02	0	60	0	283115520	57	7519
2026-01-18 00:44:01.41	342.00	29.16	-43.5	-49.3	8.7	3.80e-02	0	60	0	285212672	57	7515
2026-01-18 00:44:02.42	341.75	29.28	-43.5	-49.3	8.8	3.16e-02	0	60	0	286261248	57	7458
2026-01-18 00:44:03.43	341.50	29.41	-43.5	-49.2	8.9	2.98e-02	0	60	0	288358400	57	7409
2026-01-18 00:44:04.44	341.25	29.53	-43.5	-49.2	8.8	2.99e-02	0	60	0	290455552	57	7414
2026-01-18 00:44:05.45	340.99	29.66	-43.5	-49.1	9.0	2.75e-02	0	60	0	292552704	57	7322
2026-01-18 00:44:06.45	340.73	29.78	-43.4	-48.9	9.2	2.15e-02	0	60	0	294649856	57	7182
2026-01-18 00:44:07.46	340.48	29.91	-43.5	-49.0	9.1	2.33e-02	0	60	0	296747008	57	7280
2026-01-18 00:44:08.48	340.21	30.04	-43.5	-49.1	9.0	2.56e-02	0	60	0	297795584	57	7365
2026-01-18 00:44:09.49	339.95	30.16	-43.5	-49.3	8.9	2.49e-02	0	60	0	299892736	57	7458
2026-01-18 00:44:10.50	339.68	30.29	-43.6	-49.4	8.7	3.19e-02	0	60	0	301989888	57	7581
2026-01-18 00:44:11.51	339.41	30.41	-43.6	-49.5	8.6	3.81e-02	0	60	0	304087040	57	7694
2026-01-18 00:44:12.52	339.14	30.53	-43.8	-49.9	8.3	4.43e-02	0	60	0	306184192	58	7563
2026-01-18 00:44:13.53	338.87	30.66	-43.8	-50.1	8.1	6.28e-02	0	61	0	307232768	58	7728
2026-01-18 00:44:14.54	338.60	30.78	-43.9	-50.4	7.8	7.07e-02	0	60	0	309329920	58	8019
2026-01-18 00:44:15.54	338.32	30.91	-43.9	-50.4	7.7	8.37e-02	0	61	0	311427072	58	8078
2026-01-18 00:44:16.55	338.04	31.03	-43.9	-50.3	7.9	7.68e-02	0	60	0	313524224	58	7912
2026-01-18 00:44:17.56	337.76	31.15	-43.8	-49.9	8.3	6.07e-02	0	60	0	315621376	58	7579
2026-01-18 00:44:18.57	337.48	31.28	-43.7	-49.7	8.4	4.80e-02	0	60	0	316669952	58	7434
2026-01-18 00:44:19.58	337.19	31.40	-43.6	-49.4	8.7	3.56e-02	0	61	0	318767104	58	7183
2026-01-18 00:44:20.59	336.91	31.52	-43.6	-49.3	8.9	2.98e-02	0	60	0	320864256	58	7102
2026-01-18 00:44:21.60	336.62	31.64	-43.6	-49.2	9.0	2.79e-02	0	60	0	322961408	58	6993
2026-01-18 00:44:22.62	336.32	31.77	-43.5	-48.9	9.2	2.34e-02	0	60	0	325058560	58	6784
2026-01-18 00:44:23.62	336.03	31.89	-43.5	-48.9	9.3	1.66e-02	0	60	0	326107136	58	6739
2026-01-18 00:44:24.63	335.74	32.01	-43.4	-48.8	9.4	1.65e-02	0	60	0	328204288	58	6656
2026-01-18 00:44:25.64	335.44	32.13	-43.4	-48.7	9.5	1.60e-02	0	60	0	330301440	58	6636
2026-01-18 00:44:26.65	335.14	32.25	-43.5	-48.9	9.3	1.70e-02	0	60	0	332398592	58	6734
2026-01-18 00:44:27.66	334.83	32.37	-43.5	-49.1	9.1	2.10e-02	0	60	0	334495744	58	6908
2026-01-18 00:44:28.67	334.53	32.49	-43.4	-48.7	9.5	1.77e-02	0	61	0	335544320	58	6626
2026-01-18 00:44:29.68	334.22	32.61	-43.5	-48.9	9.3	1.68e-02	0	60	0	337641472	58	6754
2026-01-18 00:44:30.69	333.91	32.73	-43.5	-48.9	9.3	1.70e-02	0	60	0	339738624	58	6734
2026-01-18 00:44:31.70	333.60	32.85	-43.6	-49.2	9.1	2.26e-02	0	60	0	341835776	58	6986
2026-01-18 00:44:32.70	333.29	32.96	-43.6	-49.3	9.0	2.61e-02	0	60	0	343932928	58	7047
2026-01-18 00:44:33.72	332.97	33.08	-43.7	-49.4	8.8	2.78e-02	0	60	0	344981504	58	7202
2026-01-18 00:44:34.73	332.65	33.20	-43.7	-49.4	8.8	2.84e-02	0	60	0	347078656	58	7137
2026-01-18 00:44:35.74	332.33	33.31	-43.6	-49.2	9.0	2.22e-02	0	60	0	349175808	58	6983
2026-01-18 00:44:36.74	332.01	33.43	-43.7	-49.5	8.7	2.88e-02	0	60	0	351272960	58	7248
2026-01-18 00:44:37.75	331.68	33.54	-43.7	-49.4	8.8	3.31e-02	0	61	0	353370112	58	7199
2026-01-18 00:44:38.76	331.35	33.66	-43.8	-49.8	8.4	4.09e-02	0	60	0	354418688	58	7478
2026-01-18 00:44:39.77	331.02	33.77	-43.9	-50.1	8.1	5.71e-02	0	60	0	356515840	58	7767
2026-01-18 00:44:40.78	330.69	33.88	-43.9	-50.2	8.0	6.02e-02	0	60	0	358612992	58	7846
2026-01-18 00:44:41.80	330.35	34.00	-43.9	-50.1	8.1	6.25e-02	0	61	0	360710144	58	7760
2026-01-18 00:44:42.81	330.01	34.11	-43.9	-50.1	8.1	5.65e-02	0	60	0	362807296	58	7736
2026-01-18 00:44:43.82	329.67	34.22	-43.9	-50.0	8.2	6.22e-02	0	60	0	364904448	58	7637
2026-01-18 00:44:44.83	329.33	34.33	-43.9	-50.0	8.2	5.85e-02	0	60	0	365953024	58	7710
2026-01-18 00:44:45.84	328.99	34.44	-44.0	-50.5	7.7	8.13e-02	0	61	0	368050176	58	8157
2026-01-18 00:44:46.85	328.64	34.55	-44.1	-50.8	7.5	9.72e-02	0	61	0	370147328	58	8404
2026-01-18 00:44:47.86	328.29	34.66	-44.2	-51.3	7.0	1.44e-01	0	60	0	372244480	58	8904
2026-01-18 00:44:48.87	327.94	34.76	-44.3	-51.6	6.7	1.75e-01	0	61	0	374341632	59	8685
2026-01-18 00:44:49.88	327.58	34.87	-44.3	-51.7	6.6	2.00e-01	0	60	0	375390208	59	8762
2026-01-18 00:44:50.89	327.23	34.97	-44.1	-51.1	7.1	1.97e-01	0	60	0	377487360	59	8202
2026-01-18 00:44:51.90	326.87	35.08	-44.2	-51.2	7.1	1.47e-01	0	60	0	379584512	59	8302
2026-01-18 00:44:52.91	326.51	35.18	-44.1	-51.1	7.2	1.37e-01	0	60	0	381681664	59	8196
2026-01-18 00:44:53.92	326.14	35.28	-44.1	-50.8	7.4	1.12e-01	0	61	0	383778816	59	7909
2026-01-18 00:44:54.93	325.78	35.38	-44.0	-50.5	7.7	1.02e-01	0	60	0	384827392	59	7652
2026-01-18 00:44:55.94	325.41	35.48	-43.9	-50.1	8.0	6.97e-02	0	61	0	386924544	59	7330
2026-01-18 00:44:56.95	325.04	35.58	-43.8	-49.8	8.5	4.90e-02	0	60	0	389021696	59	7058
2026-01-18 00:44:57.96	324.67	35.68	-43.8	-49.6	8.6	4.30e-02	0	61	0	391118848	59	6931
2026-01-18 00:44:58.97	324.29	35.78	-43.9	-50.1	8.1	4.93e-02	0	60	0	393216000	59	7370
2026-01-18 00:44:59.97	323.92	35.87	-43.9	-50.1	8.2	5.61e-02	0	60	0	394264576	59	7291
2026-01-18 00:45:00.98	323.54	35.97	-43.8	-49.8	8.4	5.15e-02	0	61	0	396361728	59	7119
2026-01-18 00:45:01.99	323.16	36.06	-43.7	-49.6	8.7	4.53e-02	0	60	0	398458880	59	6886
2026-01-18 00:45:03.00	322.78	36.15	-43.7	-49.5	8.7	3.28e-02	0	61	0	400556032	59	6819
2026-01-18 00:45:04.01	322.39	36.24	-43.8	-49.6	8.6	3.73e-02	0	61	0	402653184	59	6910
2026-01-18 00:45:05.02	322.00	36.33	-43.8	-49.7	8.5	3.72e-02	0	61	0	403701760	59	7002
2026-01-18 00:45:06.03	321.61	36.42	-43.7	-49.5	8.7	3.47e-02	0	61	0	405798912	59	6844
2026-01-18 00:45:07.04	321.22	36.51	-43.5	-48.8	9.4	2.62e-02	0	61	0	407896064	59	6340
2026-01-18 00:45:08.05	320.83	36.60	-43.4	-48.6	9.7	1.57e-02	0	61	0	409993216	58	6524
2026-01-18 00:45:09.05	320.43	36.68	-43.3	-48.3	9.9	9.72e-03	0	61	0	412090368	58	6346
2026-01-18 00:45:10.06	320.04	36.76	-43.2	-48.1	10.2	6.88e-03	0	60	0	413138944	58	6150
2026-01-18 00:45:11.07	319.64	36.85	-43.1	-47.9	10.5	5.57e-03	0	60	0	415236096	58	6007
2026-01-18 00:45:12.08	319.23	36.93	-43.0	-47.6	10.7	3.12e-03	0	61	0	417333248	58	5836
2026-01-18 00:45:13.09	318.83	37.00	-43.0	-47.5	10.8	2.51e-03	0	60	0	419430400	57	6130
2026-01-18 00:45:14.10	318.42	37.08	-43.0	-47.5	10.8	2.80e-03	0	61	0	421527552	57	6067
2026-01-18 00:45:15.11	318.01	37.16	-43.0	-47.5	10.9	2.46e-03	0	61	0	422576128	57	6087
2026-01-18 00:45:16.12	317.60	37.23	-43.0	-47.5	10.9	2.22e-03	0	61	0	424673280	57	6078
2026-01-18 00:45:17.13	317.19	37.31	-42.9	-47.3	11.0	2.12e-03	0	61	0	426770432	57	5969
2026-01-18 00:45:18.14	316.78	37.38	-42.8	-47.2	11.1	1.78e-03	0	61	0	428867584	57	5866
2026-01-18 00:45:19.15	316.36	37.45	-42.7	-46.8	11.5	1.08e-03	0	60	0	430964736	57	5653
2026-01-18 00:45:20.16	315.94	37.52	-42.6	-46.7	11.6	7.19e-04	0	60	0	433061888	57	5571
2026-01-18 00:45:21.17	315.53	37.58	-42.6	-46.7	11.7	6.37e-04	0	61	0	434110464	57	5551
2026-01-18 00:45:22.18	315.10	37.65	-42.6	-46.6	11.8	5.48e-04	0	61	0	436207616	57	5509
2026-01-18 00:45:23.19	314.68	37.71	-42.5	-46.5	11.9	4.88e-04	0	61	0	438304768	57	5454
2026-01-18 00:45:24.19	314.26	37.77	-42.6	-46.6	11.8	5.00e-04	0	61	0	440401920	57	5482
2026-01-18 00:45:25.20	313.84	37.84	-42.6	-46.6	11.7	5.05e-04	0	61	0	442499072	57	5518
2026-01-18 00:45:26.21	313.41	37.89	-42.6	-46.7	11.7	6.30e-04	0	61	0	443547648	57	5552
2026-01-18 00:45:27.22	312.98	37.95	-42.5	-46.5	11.8	5.16e-04	0	60	0	445644800	57	5454
2026-01-18 00:45:28.23	312.55	38.01	-42.4	-46.3	12.1	2.95e-04	0	60	0	447741952	56	5610
2026-01-18 00:45:29.24	312.12	38.06	-42.3	-46.0	12.4	1.88e-04	0	61	0	449839104	56	5432
2026-01-18 00:45:30.25	311.68	38.11	-42.3	-45.9	12.4	1.37e-04	0	61	0	451936256	56	5395
2026-01-18 00:45:31.26	311.25	38.16	-42.3	-45.9	12.5	1.42e-04	0	61	0	452984832	56	5399
2026-01-18 00:45:32.27	310.81	38.21	-42.1	-45.7	12.8	6.25e-05	0	61	0	455081984	56	5226
2026-01-18 00:45:33.28	310.37	38.26	-42.0	-45.5	13.0	3.28e-05	0	61	0	457179136	56	5103
2026-01-18 00:45:34.29	309.93	38.30	-41.7	-45.1	13.1	2.67e-05	0	61	0	459276288	55	5189
2026-01-18 00:45:35.30	309.49	38.34	-41.9	-45.3	13.0	4.88e-05	0	61	0	461373440	55	5313
2026-01-18 00:45:36.31	309.05	38.38	-41.9	-45.4	12.8	6.40e-05	0	60	0	462422016	55	5402
2026-01-18 00:45:37.32	308.61	38.42	-41.9	-45.5	12.7	6.25e-05	0	60	0	464519168	55	5430
2026-01-18 00:45:38.33	308.17	38.46	-41.9	-45.5	12.7	6.48e-05	0	61	0	466616320	55	5425
2026-01-18 00:45:39.34	307.72	38.49	-41.9	-45.4	12.8	5.79e-05	0	61	0	468713472	55	5350
2026-01-18 00:45:40.35	307.28	38.53	-42.0	-45.6	12.7	4.34e-05	0	61	0	470810624	55	5473
2026-01-18 00:45:41.36	306.83	38.56	-41.9	-45.4	12.8	6.02e-05	0	61	0	471859200	55	5380
2026-01-18 00:45:42.37	306.39	38.59	-41.8	-45.2	13.0	4.57e-05	0	61	0	473956352	55	5274
2026-01-18 00:45:43.38	305.94	38.61	-41.7	-45.0	13.2	2.74e-05	0	61	0	476053504	55	5150
2026-01-18 00:45:44.39	305.49	38.64	-41.6	-44.8	13.5	9.90e-06	0	60	0	478150656	55	5003
2026-01-18 00:45:45.40	305.04	38.66	-41.6	-44.9	13.3	1.44e-05	0	61	0	480247808	55	5080
2026-01-18 00:45:46.41	304.59	38.68	-41.6	-44.9	13.3	1.06e-05	0	61	0	481296384	55	5100
2026-01-18 00:45:47.42	304.14	38.70	-41.5	-44.8	13.5	1.67e-05	0	61	0	483393536	55	4994
2026-01-18 00:45:48.43	303.69	38.72	-41.5	-44.7	13.5	9.10e-06	0	61	0	485490688	55	4971
2026-01-18 00:45:49.44	303.24	38.73	-41.6	-44.8	13.5	1.75e-05	0	61	0	487587840	55	4995
2026-01-18 00:45:50.45	302.79	38.75	-41.6	-44.9	13.3	9.10e-06	0	60	0	489684992	55	5084
2026-01-18 00:45:51.46	302.34	38.76	-41.8	-45.2	13.0	4.42e-05	0	61	0	490733568	55	5263
2026-01-18 00:45:52.47	301.88	38.77	-41.9	-45.3	12.9	3.81e-05	0	61	0	492830720	55	5340
2026-01-18 00:45:53.48	301.43	38.77	-42.0	-45.6	12.6	6.63e-05	0	61	0	494927872	55	5468
2026-01-18 00:45:54.49	300.98	38.78	-42.1	-45.8	12.4	1.36e-04	0	61	0	497025024	55	5628
2026-01-18 00:45:55.50	300.53	38.78	-42.1	-45.9	12.3	1.47e-04	0	61	0	499122176	55	5661
2026-01-18 00:45:56.51	300.07	38.78	-42.2	-46.0	12.2	2.43e-04	0	61	0	501219328	55	5766
2026-01-18 00:45:57.52	299.62	38.78	-42.3	-46.2	11.9	3.80e-04	0	61	0	502267904	55	5906
2026-01-18 00:45:58.53	299.17	38.78	-42.4	-46.4	11.8	4.52e-04	0	61	0	504365056	55	6047
2026-01-18 00:45:59.54	298.71	38.77	-42.4	-46.4	11.8	5.65e-04	0	61	0	506462208	55	6001
2026-01-18 00:46:00.55	298.26	38.77	-42.4	-46.5	11.7	4.65e-04	0	61	0	508559360	55	6071
2026-01-18 00:46:01.56	297.81	38.76	-42.6	-46.8	11.4	8.35e-04	0	61	0	510656512	55	6317
2026-01-18 00:46:02.57	297.36	38.75	-42.7	-47.0	11.1	1.27e-03	0	61	0	511705088	55	6488
2026-01-18 00:46:03.58	296.91	38.73	-42.9	-47.4	10.9	2.18e-03	0	61	0	513802240	56	6361
2026-01-18 00:46:04.58	296.46	38.72	-42.8	-47.2	11.1	2.12e-03	0	61	0	515899392	56	6250
2026-01-18 00:46:05.59	296.01	38.70	-42.8	-47.1	11.2	1.53e-03	0	61	0	517996544	56	6174
2026-01-18 00:46:06.60	295.56	38.68	-42.7	-47.0	11.4	1.24e-03	0	61	0	520093696	56	6064
2026-01-18 00:46:07.61	295.11	38.66	-42.7	-46.8	11.5	7.90e-04	0	61	0	521142272	56	5966
2026-01-18 00:46:08.62	294.66	38.64	-42.8	-47.0	11.3	8.91e-04	0	61	0	523239424	56	6062
2026-01-18 00:46:09.63	294.21	38.61	-42.8	-47.1	11.2	1.02e-03	0	61	0	525336576	56	6171
2026-01-18 00:46:10.63	293.77	38.59	-42.9	-47.3	11.1	1.65e-03	0	61	0	527433728	56	6277
2026-01-18 00:46:11.64	293.32	38.56	-42.9	-47.4	10.9	2.06e-03	0	61	0	529530880	56	6356
2026-01-18 00:46:12.65	292.87	38.52	-43.0	-47.5	10.9	2.07e-03	0	61	0	530579456	56	6434
2026-01-18 00:46:13.66	292.43	38.49	-43.1	-47.7	10.6	3.21e-03	0	61	0	532676608	56	6617
2026-01-18 00:46:14.67	291.98	38.46	-43.2	-48.0	10.2	5.30e-03	0	61	0	534773760	56	6870
2026-01-18 00:46:15.68	291.54	38.42	-43.3	-48.3	10.0	6.66e-03	0	61	0	536870912	57	6663
2026-01-18 00:46:16.69	291.10	38.38	-43.3	-48.2	10.0	7.82e-03	0	60	0	538968064	57	6637
2026-01-18 00:46:17.70	290.65	38.34	-43.3	-48.2	10.0	7.45e-03	0	61	0	540016640	57	6592
2026-01-18 00:46:18.71	290.21	38.30	-43.3	-48.3	9.9	8.14e-03	0	61	0	542113792	57	6655
2026-01-18 00:46:19.72	289.78	38.25	-43.3	-48.3	10.0	7.74e-03	0	61	0	544210944	57	6681
2026-01-18 00:46:20.73	289.34	38.21	-43.3	-48.3	9.9	8.87e-03	0	61	0	546308096	57	6702
2026-01-18 00:46:21.74	288.90	38.16	-43.3	-48.3	10.0	8.24e-03	0	61	0	548405248	57	6651
2026-01-18 00:46:22.75	288.47	38.11	-43.4	-48.5	9.8	8.94e-03	0	61	0	549453824	57	6838
2026-01-18 00:46:23.76	288.03	38.06	-43.5	-48.9	9.4	1.58e-02	0	61	0	551550976	57	7160
2026-01-18 00:46:24.77	287.60	38.00	-43.6	-49.3	8.9	2.46e-02	0	61	0	553648128	57	7472
2026-01-18 00:46:25.78	287.17	37.95	-43.8	-49.7	8.5	3.07e-02	0	61	0	555745280	58	7385
2026-01-18 00:46:26.79	286.74	37.89	-43.9	-50.0	8.2	5.82e-02	0	61	0	557842432	58	7695
2026-01-18 00:46:27.79	286.31	37.83	-43.9	-50.0	8.2	5.77e-02	0	61	0	558891008	58	7663
2026-01-18 00:46:28.81	285.88	37.77	-43.8	-49.7	8.5	5.21e-02	0	61	0	560988160	58	7384
2026-01-18 00:46:29.82	285.46	37.71	-43.6	-49.1	9.0	2.61e-02	0	61	0	563085312	58	6935
2026-01-18 00:46:30.83	285.03	37.65	-43.5	-48.8	9.4	1.81e-02	0	61	0	565182464	58	6694
2026-01-18 00:46:31.83	284.62	37.58	-43.4	-48.7	9.5	1.75e-02	0	61	0	567279616	58	6603
2026-01-18 00:46:32.85	284.19	37.51	-43.5	-48.8	9.4	1.45e-02	0	61	0	568328192	58	6705
2026-01-18 00:46:33.85	283.78	37.44	-43.3	-48.3	9.9	1.08e-02	0	61	0	570425344	58	6312
2026-01-18 00:46:34.86	283.36	37.37	-43.3	-48.2	10.1	8.77e-03	0	61	0	572522496	58	6250
2026-01-18 00:46:35.87	282.95	37.30	-43.3	-48.2	10.0	7.23e-03	0	61	0	574619648	58	6257
2026-01-18 00:46:36.88	282.53	37.23	-43.4	-48.5	9.7	1.07e-02	0	61	0	576716800	58	6455
2026-01-18 00:46:37.89	282.12	37.15	-43.3	-48.4	9.8	1.23e-02	0	61	0	577765376	58	6411
2026-01-18 00:46:38.90	281.71	37.08	-43.3	-48.4	9.8	1.02e-02	0	61	0	579862528	58	6379
2026-01-18 00:46:39.91	281.31	37.00	-43.1	-47.9	10.3	6.52e-03	0	61	0	581959680	58	6035
2026-01-18 00:46:40.93	280.90	36.92	-43.0	-47.6	10.7	3.69e-03	0	61	0	584056832	58	5841
2026-01-18 00:46:41.94	280.50	36.84	-42.9	-47.3	11.0	2.24e-03	0	61	0	586153984	57	5980
2026-01-18 00:46:42.95	280.09	36.76	-42.8	-47.1	11.1	2.02e-03	0	61	0	587202560	57	5849
2026-01-18 00:46:43.95	279.70	36.67	-42.5	-46.5	11.8	7.77e-04	0	61	0	589299712	57	5458
2026-01-18 00:46:44.97	279.30	36.59	-42.4	-46.3	12.0	4.32e-04	0	61	0	591396864	56	5640
2026-01-18 00:46:45.98	278.90	36.50	-42.4	-46.3	12.1	2.73e-04	0	61	0	593494016	56	5614
2026-01-18 00:46:46.99	278.51	36.41	-42.4	-46.3	12.0	2.97e-04	0	61	0	595591168	56	5637
2026-01-18 00:46:47.99	278.12	36.32	-42.5	-46.5	11.7	4.59e-04	0	61	0	597688320	56	5777
2026-01-18 00:46:49.01	277.73	36.23	-42.6	-46.6	11.7	5.34e-04	0	61	0	598736896	56	5827
2026-01-18 00:46:50.02	277.34	36.14	-42.5	-46.5	11.9	5.07e-04	0	61	0	600834048	56	5729
2026-01-18 00:46:51.03	276.96	36.05	-42.3	-46.1	12.2	3.29e-04	0	61	0	602931200	56	5503
2026-01-18 00:46:52.04	276.58	35.96	-42.2	-45.8	12.5	1.94e-04	0	61	0	605028352	56	5338
2026-01-18 00:46:53.05	276.20	35.86	-42.0	-45.5	12.8	6.33e-05	0	61	0	607125504	56	5144
2026-01-18 00:46:54.06	275.82	35.76	-41.9	-45.4	12.8	4.50e-05	0	61	0	608174080	55	5354
2026-01-18 00:46:55.07	275.45	35.67	-42.0	-45.7	12.5	7.85e-05	0	61	0	610271232	55	5530
2026-01-18 00:46:56.08	275.07	35.57	-42.3	-46.2	12.0	2.82e-04	0	61	0	612368384	55	5874
2026-01-18 00:46:57.09	274.70	35.47	-42.4	-46.5	11.6	4.74e-04	0	61	0	614465536	55	6076
2026-01-18 00:46:58.10	274.33	35.37	-42.5	-46.6	11.5	7.66e-04	0	61	0	616562688	55	6141
2026-01-18 00:46:59.11	273.97	35.27	-42.6	-46.8	11.3	1.00e-03	0	61	0	617611264	55	6335
2026-01-18 00:47:00.12	273.60	35.16	-42.6	-46.9	11.2	1.28e-03	0	61	0	619708416	55	6403
2026-01-18 00:47:01.13	273.24	35.06	-42.6	-46.8	11.3	1.34e-03	0	61	0	621805568	55	6314
2026-01-18 00:47:02.14	272.88	34.96	-42.6	-46.8	11.3	1.21e-03	0	61	0	623902720	55	6328
2026-01-18 00:47:03.15	272.52	34.85	-42.7	-47.0	11.1	1.54e-03	0	61	0	625999872	55	6463
2026-01-18 00:47:04.16	272.17	34.75	-42.9	-47.4	10.8	1.87e-03	0	61	0	627048448	56	6409
2026-01-18 00:47:05.17	271.82	34.64	-42.9	-47.4	10.9	1.94e-03	0	61	0	629145600	56	6350
2026-01-18 00:47:06.18	271.47	34.53	-42.9	-47.3	10.9	2.40e-03	0	61	0	631242752	56	6334
2026-01-18 00:47:07.19	271.12	34.42	-43.0	-47.6	10.7	2.66e-03	0	61	0	633339904	56	6516
2026-01-18 00:47:08.20	270.77	34.31	-42.9	-47.5	10.8	2.72e-03	0	61	0	635437056	56	6453
2026-01-18 00:47:09.21	270.43	34.20	-43.1	-47.8	10.5	3.87e-03	0	61	0	637534208	56	6674
2026-01-18 00:47:10.21	270.09	34.09	-43.1	-47.8	10.4	5.43e-03	0	61	0	638582784	56	6670
2026-01-18 00:47:11.22	269.75	33.98	-42.9	-47.5	10.7	3.71e-03	0	61	0	640679936	56	6440
2026-01-18 00:47:12.23	269.42	33.87	-42.9	-47.3	10.8	2.33e-03	0	61	0	642777088	56	6347
2026-01-18 00:47:13.24	269.08	33.75	-42.9	-47.5	10.8	2.33e-03	0	61	0	644874240	56	6449
2026-01-18 00:47:14.25	268.75	33.64	-42.9	-47.5	10.7	2.94e-03	0	61	0	646971392	56	6477
2026-01-18 00:47:15.26	268.42	33.52	-43.0	-47.8	10.4	4.06e-03	0	61	0	648019968	56	6657
2026-01-18 00:47:16.27	268.10	33.41	-43.1	-47.9	10.3	4.74e-03	0	61	0	650117120	56	6789
2026-01-18 00:47:17.28	267.77	33.29	-43.2	-48.3	9.9	6.90e-03	0	61	0	652214272	57	6657
2026-01-18 00:47:18.29	267.45	33.18	-43.4	-48.7	9.5	1.22e-02	0	61	0	654311424	57	7001
2026-01-18 00:47:19.30	267.13	33.06	-43.4	-48.7	9.5	1.41e-02	0	61	0	656408576	57	6996
2026-01-18 00:47:20.31	266.81	32.94	-43.3	-48.5	9.6	1.32e-02	0	61	0	657457152	57	6875
2026-01-18 00:47:21.32	266.50	32.82	-43.3	-48.3	9.9	1.01e-02	0	61	0	659554304	57	6697
2026-01-18 00:47:22.33	266.18	32.70	-43.1	-48.0	10.2	6.71e-03	0	61	0	661651456	57	6464
2026-01-18 00:47:23.34	265.87	32.59	-43.0	-47.8	10.4	4.91e-03	0	61	0	663748608	57	6281
2026-01-18 00:47:24.35	265.56	32.47	-43.1	-47.9	10.4	4.90e-03	0	61	0	665845760	57	6388
2026-01-18 00:47:25.36	265.26	32.35	-43.1	-47.9	10.2	5.27e-03	0	61	0	666894336	57	6405
2026-01-18 00:47:26.37	264.95	32.22	-43.3	-48.3	9.8	8.44e-03	0	61	0	668991488	57	6688
2026-01-18 00:47:27.38	264.65	32.10	-43.4	-48.6	9.5	1.06e-02	0	61	0	671088640	57	6942
2026-01-18 00:47:28.39	264.35	31.98	-43.5	-48.9	9.2	1.96e-02	0	61	0	673185792	57	7193
2026-01-18 00:47:29.41	264.05	31.86	-43.5	-49.1	9.0	2.26e-02	0	61	0	675282944	57	7355
2026-01-18 00:47:30.41	263.76	31.74	-43.5	-49.0	9.1	2.29e-02	0	61	0	676331520	57	7246
2026-01-18 00:47:31.42	263.47	31.62	-43.4	-48.8	9.4	1.69e-02	0	61	0	678428672	57	7045
2026-01-18 00:47:32.43	263.18	31.49	-43.3	-48.5	9.6	1.33e-02	0	61	0	680525824	57	6831
2026-01-18 00:47:33.44	262.89	31.37	-43.3	-48.5	9.6	1.23e-02	0	61	0	682622976	57	6857
2026-01-18 00:47:34.45	262.60	31.25	-43.3	-48.6	9.5	1.66e-02	0	61	0	684720128	57	6916
2026-01-18 00:47:35.46	262.32	31.12	-43.4	-48.9	9.3	1.68e-02	0	61	0	685768704	57	7135
2026-01-18 00:47:36.47	262.04	31.00	-43.5	-49.0	9.1	2.05e-02	0	61	0	687865856	57	7233
2026-01-18 00:47:37.48	261.76	30.87	-43.6	-49.2	8.9	2.35e-02	0	61	0	689963008	57	7433
2026-01-18 00:47:38.49	261.48	30.75	-43.6	-49.4	8.8	3.16e-02	0	61	0	692060160	57	7549
2026-01-18 00:47:39.50	261.21	30.63	-43.5	-49.1	8.9	2.67e-02	0	61	0	694157312	57	7350
2026-01-18 00:47:40.51	260.93	30.50	-43.5	-49.0	9.1	2.44e-02	0	61	0	695205888	57	7220
2026-01-18 00:47:41.52	260.66	30.38	-43.4	-48.8	9.4	1.71e-02	0	61	0	697303040	57	7060
2026-01-18 00:47:42.53	260.39	30.25	-43.3	-48.5	9.6	1.57e-02	0	61	0	699400192	57	6857
2026-01-18 00:47:43.54	260.13	30.12	-43.2	-48.4	9.8	1.08e-02	0	61	0	701497344	57	6747
2026-01-18 00:47:44.55	259.86	30.00	-43.1	-48.0	10.1	7.06e-03	0	61	0	703594496	57	6469
2026-01-18 00:47:45.56	259.60	29.87	-43.1	-48.0	10.2	6.97e-03	0	61	0	705691648	57	6440
2026-01-18 00:47:46.57	259.34	29.75	-43.1	-48.0	10.2	5.63e-03	0	61	0	706740224	57	6456
2026-01-18 00:47:47.58	259.08	29.62	-43.1	-48.0	10.2	6.41e-03	0	61	0	708837376	57	6426
2026-01-18 00:47:48.59	258.82	29.50	-43.0	-47.8	10.3	5.58e-03	0	61	0	710934528	57	6318
2026-01-18 00:47:49.60	258.57	29.37	-43.1	-47.9	10.3	5.65e-03	0	61	0	713031680	57	6366
2026-01-18 00:47:50.61	258.32	29.24	-43.0	-47.8	10.3	4.91e-03	0	61	0	715128832	57	6285
2026-01-18 00:47:51.62	258.07	29.12	-42.9	-47.5	10.6	3.56e-03	0	61	0	716177408	57	6104
2026-01-18 00:47:52.62	257.82	28.99	-42.8	-47.3	10.9	2.31e-03	0	61	0	718274560	57	5955
2026-01-18 00:47:53.63	257.57	28.87	-42.7	-46.9	11.3	1.81e-03	0	61	0	720371712	57	5717
2026-01-18 00:47:54.64	257.33	28.74	-42.6	-46.9	11.3	1.04e-03	0	61	0	722468864	57	5659
2026-01-18 00:47:55.65	257.09	28.61	-42.6	-46.8	11.5	8.35e-04	0	61	0	724566016	57	5602
2026-01-18 00:47:56.66	256.84	28.49	-42.6	-46.8	11.4	8.64e-04	0	61	0	725614592	57	5601
2026-01-18 00:47:57.67	256.61	28.36	-42.6	-46.9	11.3	9.86e-04	0	61	0	727711744	57	5681
2026-01-18 00:47:58.68	256.37	28.23	-42.6	-46.7	11.5	9.77e-04	0	61	0	729808896	57	5561
2026-01-18 00:47:59.69	256.13	28.11	-42.5	-46.7	11.5	7.39e-04	0	61	0	731906048	57	5546
2026-01-18 00:48:00.70	255.90	27.98	-42.5	-46.6	11.6	6.35e-04	0	61	0	734003200	56	5835
2026-01-18 00:48:01.71	255.67	27.86	-42.5	-46.6	11.7	6.58e-04	0	61	0	735051776	56	5821
2026-01-18 00:48:02.72	255.44	27.73	-42.4	-46.4	11.8	6.05e-04	0	61	0	737148928	56	5689
2026-01-18 00:48:03.73	255.21	27.60	-42.3	-46.2	12.0	3.71e-04	0	61	0	739246080	56	5559
2026-01-18 00:48:04.74	254.98	27.48	-42.3	-46.1	12.2	2.34e-04	0	61	0	741343232	56	5489
2026-01-18 00:48:05.75	254.76	27.35	-42.2	-45.9	12.3	1.53e-04	0	61	0	743440384	56	5386
2026-01-18 00:48:06.76	254.54	27.23	-42.1	-45.8	12.5	1.30e-04	0	61	0	744488960	56	5300
2026-01-18 00:48:07.77	254.32	27.10	-42.2	-45.9	12.3	1.51e-04	0	61	0	746586112	56	5400
2026-01-18 00:48:08.79	254.10	26.97	-42.3	-46.1	12.1	2.28e-04	0	61	0	748683264	56	5514
2026-01-18 00:48:09.80	253.88	26.85	-42.3	-46.2	12.1	2.85e-04	0	61	0	750780416	56	5534
2026-01-18 00:48:10.80	253.67	26.72	-42.2	-46.1	12.1	2.86e-04	0	61	0	752877568	56	5477
2026-01-18 00:48:11.81	253.45	26.60	-42.2	-46.0	12.3	1.86e-04	0	61	0	753926144	56	5407
2026-01-18 00:48:12.82	253.24	26.47	-42.1	-45.8	12.4	1.89e-04	0	61	0	756023296	56	5317
2026-01-18 00:48:13.83	253.03	26.35	-42.0	-45.6	12.6	1.07e-04	0	61	0	758120448	56	5201
2026-01-18 00:48:14.84	252.82	26.22	-41.8	-45.4	12.7	7.85e-05	0	61	0	760217600	55	5351
2026-01-18 00:48:15.85	252.61	26.10	-41.8	-45.4	12.7	7.09e-05	0	61	0	762314752	55	5347
2026-01-18 00:48:16.86	252.41	25.97	-41.8	-45.4	12.7	8.01e-05	0	61	0	763363328	55	5368
2026-01-18 00:48:17.87	252.20	25.85	-41.8	-45.3	12.8	5.79e-05	0	61	0	765460480	55	5298
2026-01-18 00:48:18.89	252.00	25.72	-41.8	-45.4	12.8	5.56e-05	0	61	0	767557632	55	5348
2026-01-18 00:48:19.90	251.80	25.60	-41.8	-45.5	12.6	7.17e-05	0	61	0	769654784	55	5408
2026-01-18 00:48:20.91	251.60	25.48	-41.9	-45.6	12.4	9.61e-05	0	61	0	771751936	55	5505
2026-01-18 00:48:21.92	251.40	25.35	-41.9	-45.6	12.5	1.40e-04	0	61	0	773849088	55	5471
2026-01-18 00:48:22.93	251.21	25.23	-41.9	-45.6	12.4	9.91e-05	0	61	0	774897664	55	5507
2026-01-18 00:48:23.93	251.01	25.11	-41.8	-45.5	12.6	1.01e-04	0	61	0	776994816	55	5422
2026-01-18 00:48:24.94	250.82	24.99	-41.8	-45.4	12.7	8.77e-05	0	61	0	779091968	55	5371
2026-01-18 00:48:25.95	250.63	24.86	-41.8	-45.4	12.6	8.31e-05	0	61	0	781189120	55	5361
2026-01-18 00:48:26.96	250.44	24.74	-41.8	-45.4	12.7	9.91e-05	0	61	0	783286272	55	5356
2026-01-18 00:48:27.97	250.25	24.62	-41.8	-45.5	12.6	9.84e-05	0	61	0	784334848	55	5403
2026-01-18 00:48:28.98	250.06	24.50	-41.9	-45.6	12.4	1.14e-04	0	61	0	786432000	55	5497
2026-01-18 00:48:29.99	249.88	24.37	-42.0	-45.8	12.2	2.28e-04	0	61	0	788529152	55	5639
2026-01-18 00:48:31.00	249.69	24.25	-42.0	-45.8	12.2	1.89e-04	0	61	0	790626304	55	5627
2026-01-18 00:48:32.01	249.51	24.13	-42.0	-45.8	12.3	2.45e-04	0	61	0	792723456	55	5604
2026-01-18 00:48:33.02	249.33	24.01	-42.0	-45.8	12.2	2.00e-04	0	61	0	793772032	55	5622
2026-01-18 00:48:34.02	249.15	23.89	-42.0	-45.8	12.2	2.11e-04	0	61	0	795869184	55	5652
2026-01-18 00:48:35.03	248.97	23.77	-41.9	-45.7	12.3	2.46e-04	0	61	0	797966336	55	5569
2026-01-18 00:48:36.04	248.80	23.65	-41.9	-45.7	12.3	1.71e-04	0	61	0	800063488	55	5569
2026-01-18 00:48:37.05	248.62	23.53	-42.0	-45.8	12.2	1.94e-04	0	61	0	802160640	55	5618
2026-01-18 00:48:38.06	248.45	23.41	-42.0	-45.8	12.2	1.74e-04	0	61	0	803209216	55	5605
2026-01-18 00:48:39.07	248.27	23.29	-41.9	-45.7	12.3	1.75e-04	0	61	0	805306368	55	5553
2026-01-18 00:48:40.08	248.10	23.17	-41.9	-45.5	12.5	1.47e-04	0	61	0	807403520	55	5454
2026-01-18 00:48:41.09	247.93	23.05	-41.9	-45.6	12.4	1.76e-04	0	61	0	809500672	55	5505
2026-01-18 00:48:42.10	247.76	22.93	-41.9	-45.5	12.5	1.09e-04	0	61	0	811597824	55	5451
2026-01-18 00:48:43.11	247.59	22.82	-41.9	-45.7	12.3	1.52e-04	0	61	0	812646400	55	5558
2026-01-18 00:48:44.12	247.43	22.70	-42.0	-45.8	12.2	2.19e-04	0	61	0	814743552	55	5628
2026-01-18 00:48:45.13	247.26	22.58	-42.0	-45.8	12.2	1.81e-04	0	61	0	816840704	55	5634
2026-01-18 00:48:46.14	247.10	22.46	-42.0	-45.9	12.1	2.80e-04	0	61	0	818937856	55	5672
2026-01-18 00:48:47.15	246.93	22.34	-42.1	-46.0	12.0	2.88e-04	0	61	0	821035008	55	5765
2026-01-18 00:48:48.16	246.77	22.23	-42.0	-45.9	12.1	3.87e-04	0	61	0	822083584	55	5685
2026-01-18 00:48:49.17	246.61	22.11	-42.1	-45.9	12.0	2.95e-04	0	61	0	824180736	55	5720
2026-01-18 00:48:50.18	246.45	21.99	-42.0	-45.9	12.1	2.76e-04	0	61	0	826277888	55	5674
2026-01-18 00:48:51.19	246.30	21.88	-42.0	-45.9	12.1	2.88e-04	0	61	0	828375040	55	5679
2026-01-18 00:48:52.20	246.14	21.76	-42.0	-45.9	12.0	3.31e-04	0	61	0	830472192	55	5709
2026-01-18 00:48:53.21	245.98	21.65	-42.1	-46.1	11.9	3.25e-04	0	61	0	831520768	55	5793
2026-01-18 00:48:54.22	245.83	21.53	-42.1	-46.2	11.7	4.66e-04	0	61	0	833617920	55	5875
2026-01-18 00:48:55.23	245.68	21.42	-42.2	-46.3	11.6	4.92e-04	0	61	0	835715072	55	5956
2026-01-18 00:48:56.24	245.52	21.30	-42.3	-46.4	11.5	6.77e-04	0	61	0	837812224	55	6055
2026-01-18 00:48:57.25	245.37	21.19	-42.3	-46.5	11.5	9.44e-04	0	61	0	839909376	55	6067
2026-01-18 00:48:58.25	245.23	21.07	-42.3	-46.6	11.3	9.37e-04	0	61	0	842006528	55	6133
2026-01-18 00:48:59.26	245.08	20.96	-42.3	-46.6	11.4	9.85e-04	0	61	0	843055104	55	6150
2026-01-18 00:49:00.27	244.93	20.85	-42.4	-46.8	11.1	1.40e-03	0	61	0	845152256	55	6289
2026-01-18 00:49:01.28	244.78	20.73	-42.4	-46.8	11.1	1.46e-03	0	61	0	847249408	55	6275
2026-01-18 00:49:02.29	244.64	20.62	-42.4	-46.7	11.2	1.24e-03	0	61	0	849346560	55	6217
2026-01-18 00:49:03.30	244.49	20.51	-42.4	-46.7	11.2	1.41e-03	0	61	0	851443712	55	6249
2026-01-18 00:49:04.31	244.35	20.40	-42.3	-46.6	11.3	1.30e-03	0	61	0	852492288	55	6183
2026-01-18 00:49:05.32	244.21	20.29	-42.4	-46.7	11.3	1.09e-03	0	61	0	854589440	55	6210
2026-01-18 00:49:06.33	244.07	20.17	-42.4	-46.7	11.2	1.30e-03	0	61	0	856686592	55	6225
2026-01-18 00:49:07.34	243.93	20.06	-42.4	-46.8	11.1	1.51e-03	0	61	0	858783744	55	6326
2026-01-18 00:49:08.35	243.79	19.95	-42.3	-46.6	11.3	1.58e-03	0	61	0	860880896	55	6190
2026-01-18 00:49:09.36	243.65	19.84	-42.4	-46.7	11.2	1.32e-03	0	61	0	861929472	55	6215
2026-01-18 00:49:10.37	243.51	19.73	-42.4	-46.8	11.0	1.66e-03	0	61	0	864026624	55	6343
2026-01-18 00:49:11.38	243.38	19.62	-42.5	-47.0	10.9	2.12e-03	0	61	0	866123776	55	6421
2026-01-18 00:49:12.39	243.24	19.51	-42.4	-46.8	11.0	1.69e-03	0	61	0	868220928	55	6332
2026-01-18 00:49:13.40	243.11	19.40	-42.4	-46.9	11.0	1.78e-03	0	61	0	870318080	55	6348
2026-01-18 00:49:14.41	242.97	19.29	-42.4	-46.7	11.1	1.78e-03	0	61	0	871366656	55	6267
2026-01-18 00:49:15.42	242.84	19.18	-42.4	-46.7	11.1	1.50e-03	0	61	0	873463808	55	6255
2026-01-18 00:49:16.43	242.71	19.08	-42.4	-46.9	11.0	1.81e-03	0	61	0	875560960	55	6372
2026-01-18 00:49:17.44	242.58	18.97	-42.5	-47.0	10.8	2.37e-03	0	61	0	877658112	55	6462
2026-01-18 00:49:18.45	242.45	18.86	-42.5	-46.9	11.0	1.94e-03	0	61	0	879755264	55	6391
2026-01-18 00:49:19.46	242.32	18.75	-42.5	-47.0	10.8	2.33e-03	0	61	0	880803840	55	6457
2026-01-18 00:49:20.47	242.19	18.65	-42.5	-47.1	10.8	2.69e-03	0	61	0	882900992	55	6510
2026-01-18 00:49:21.48	242.07	18.54	-42.5	-47.2	10.7	2.86e-03	0	61	0	884998144	55	6579
2026-01-18 00:49:22.49	241.94	18.43	-42.6	-47.2	10.6	3.35e-03	0	61	0	887095296	55	6622
2026-01-18 00:49:23.50	241.82	18.33	-42.6	-47.3	10.5	3.94e-03	0	61	0	889192448	55	6707
2026-01-18 00:49:24.51	241.69	18.22	-42.5	-47.1	10.7	3.15e-03	0	61	0	890241024	55	6540
2026-01-18 00:49:25.52	241.57	18.11	-42.5	-47.0	10.8	2.70e-03	0	61	0	892338176	55	6460
2026-01-18 00:49:26.53	241.45	18.01	-42.4	-46.8	11.0	2.46e-03	0	61	0	894435328	55	6329
2026-01-18 00:49:27.54	241.33	17.90	-42.4	-46.8	11.1	1.88e-03	0	61	0	896532480	55	6308
2026-01-18 00:49:28.55	241.21	17.80	-42.4	-46.8	11.0	2.01e-03	0	61	0	898629632	55	6298
2026-01-18 00:49:29.56	241.09	17.70	-42.4	-46.7	11.1	1.55e-03	0	61	0	899678208	55	6269
2026-01-18 00:49:30.57	240.97	17.59	-42.3	-46.7	11.2	1.61e-03	0	61	0	901775360	55	6204
2026-01-18 00:49:31.58	240.85	17.49	-42.4	-46.8	11.1	1.58e-03	0	61	0	903872512	55	6283
2026-01-18 00:49:32.59	240.73	17.38	-42.3	-46.7	11.2	1.37e-03	0	61	0	905969664	55	6212
2026-01-18 00:49:33.60	240.62	17.28	-42.4	-46.8	11.1	1.57e-03	0	61	0	908066816	55	6278
2026-01-18 00:49:34.61	240.50	17.18	-42.4	-46.9	11.0	2.05e-03	0	61	0	910163968	55	6357
2026-01-18 00:49:35.62	240.39	17.08	-42.4	-46.9	10.9	2.22e-03	0	61	0	911212544	55	6384
2026-01-18 00:49:36.63	240.27	16.97	-42.4	-46.9	10.9	2.30e-03	0	61	0	913309696	55	6393
2026-01-18 00:49:37.64	240.16	16.87	-42.5	-47.0	10.7	2.69e-03	0	61	0	915406848	55	6492
2026-01-18 00:49:38.65	240.05	16.77	-42.4	-46.9	10.8	2.85e-03	0	61	0	917504000	55	6417
2026-01-18 00:49:39.65	239.94	16.67	-42.5	-47.0	10.7	2.63e-03	0	61	0	919601152	55	6481
2026-01-18 00:49:40.66	239.83	16.57	-42.3	-46.8	11.0	2.39e-03	0	61	0	920649728	55	6284
2026-01-18 00:49:41.67	239.72	16.47	-42.4	-46.9	10.9	1.97e-03	0	61	0	922746880	55	6355
2026-01-18 00:49:42.68	239.61	16.37	-42.4	-46.8	11.0	2.36e-03	0	61	0	924844032	55	6343
2026-01-18 00:49:43.69	239.50	16.27	-42.4	-46.9	10.8	2.57e-03	0	61	0	926941184	55	6390
2026-01-18 00:49:44.70	239.39	16.17	-42.4	-46.9	10.9	2.31e-03	0	61	0	929038336	55	6397
2026-01-18 00:49:45.71	239.28	16.07	-42.4	-46.8	10.9	2.19e-03	0	61	0	930086912	55	6339
2026-01-18 00:49:46.72	239.18	15.97	-42.4	-46.8	11.0	2.60e-03	0	61	0	932184064	55	6319
2026-01-18 00:49:47.73	239.07	15.87	-42.4	-46.8	11.0	1.72e-03	0	61	0	934281216	55	6334
2026-01-18 00:49:48.74	238.96	15.77	-42.4	-46.8	10.9	2.20e-03	0	61	0	936378368	55	6346
2026-01-18 00:49:49.75	238.86	15.68	-42.4	-47.0	10.7	2.36e-03	0	61	0	938475520	55	6483
2026-01-18 00:49:50.76	238.76	15.58	-42.4	-47.0	10.7	3.08e-03	0	61	0	939524096	55	6466
2026-01-18 00:49:51.77	238.65	15.48	-42.5	-47.1	10.6	3.36e-03	0	61	0	941621248	55	6528
2026-01-18 00:49:52.78	238.55	15.38	-42.5	-47.1	10.6	3.43e-03	0	61	0	943718400	55	6534
2026-01-18 00:49:53.79	238.45	15.29	-42.5	-47.2	10.5	3.77e-03	0	61	0	945815552	55	6590
2026-01-18 00:49:54.80	238.35	15.19	-42.5	-47.2	10.5	3.66e-03	0	61	0	947912704	55	6588
2026-01-18 00:49:55.81	238.25	15.09	-42.5	-47.1	10.6	3.72e-03	0	61	0	948961280	55	6556
2026-01-18 00:49:56.82	238.15	15.00	-42.4	-47.1	10.7	3.40e-03	0	61	0	951058432	55	6509
2026-01-18 00:49:57.83	238.05	14.90	-42.4	-47.1	10.6	3.29e-03	0	61	0	953155584	55	6518
2026-01-18 00:49:58.84	237.95	14.80	-42.5	-47.1	10.6	3.25e-03	0	61	0	955252736	55	6521
2026-01-18 00:49:59.85	237.85	14.71	-42.4	-47.0	10.8	2.79e-03	0	61	0	957349888	55	6421
2026-01-18 00:50:00.86	237.76	14.61	-42.3	-46.8	10.8	2.43e-03	0	61	0	958398464	55	6346
2026-01-18 00:50:01.87	237.66	14.52	-42.4	-46.9	10.7	2.68e-03	0	61	0	960495616	55	6413
2026-01-18 00:50:02.88	237.57	14.43	-42.3	-46.7	11.0	2.53e-03	0	61	0	962592768	55	6255
2026-01-18 00:50:03.89	237.47	14.33	-42.3	-46.9	10.8	2.32e-03	0	61	0	964689920	55	6350
2026-01-18 00:50:04.89	237.38	14.24	-42.3	-46.8	10.8	2.54e-03	0	61	0	966787072	55	6337
2026-01-18 00:50:05.90	237.28	14.15	-42.3	-46.8	10.9	2.39e-03	0	61	0	967835648	55	6301
2026-01-18 00:50:06.91	237.19	14.05	-42.3	-46.9	10.8	2.44e-03	0	61	0	969932800	55	6364
2026-01-18 00:50:07.92	237.10	13.96	-42.4	-47.0	10.6	3.11e-03	0	61	0	972029952	55	6471
2026-01-18 00:50:08.93	237.00	13.87	-42.4	-47.2	10.5	3.46e-03	0	61	0	974127104	55	6574
2026-01-18 00:50:09.94	236.91	13.77	-42.5	-47.2	10.4	4.16e-03	0	61	0	976224256	55	6636
2026-01-18 00:50:10.95	236.82	13.68	-42.5	-47.3	10.2	5.61e-03	0	61	0	978321408	55	6709
2026-01-18 00:50:11.96	236.73	13.59	-42.6	-47.5	10.1	6.60e-03	0	61	0	979369984	55	6848
2026-01-18 00:50:12.97	236.64	13.50	-42.6	-47.6	10.0	7.33e-03	0	61	0	981467136	55	6902
2026-01-18 00:50:13.98	236.55	13.41	-42.6	-47.7	9.9	9.16e-03	0	61	0	983564288	55	7000
2026-01-18 00:50:14.99	236.46	13.32	-42.7	-47.8	9.7	1.08e-02	0	61	0	985661440	55	7106
2026-01-18 00:50:16.00	236.38	13.23	-42.6	-47.6	9.9	8.92e-03	0	61	0	987758592	55	6951
2026-01-18 00:50:17.01	236.29	13.13	-42.6	-47.7	9.8	9.13e-03	0	61	0	988807168	55	7029
2026-01-18 00:50:18.02	236.20	13.04	-42.6	-47.7	9.9	8.86e-03	0	61	0	990904320	55	6961
2026-01-18 00:50:19.03	236.11	12.95	-42.6	-47.7	9.8	9.50e-03	0	61	0	993001472	55	7011
2026-01-18 00:50:20.03	236.03	12.87	-42.7	-47.8	9.7	9.45e-03	0	61	0	995098624	55	7119
2026-01-18 00:50:21.04	235.94	12.78	-42.7	-47.9	9.6	1.17e-02	0	61	0	996147200	55	7175
2026-01-18 00:50:22.05	235.86	12.69	-42.7	-47.9	9.7	1.13e-02	0	61	0	998244352	55	7137
2026-01-18 00:50:23.07	235.77	12.60	-42.7	-47.9	9.6	1.19e-02	0	61	0	1000341504	55	7196
2026-01-18 00:50:24.08	235.69	12.51	-42.7	-48.0	9.5	1.40e-02	0	61	0	1002438656	55	7241
2026-01-18 00:50:25.09	235.61	12.42	-42.6	-47.8	9.7	1.20e-02	0	61	0	1004535808	55	7086
2026-01-18 00:50:26.09	235.53	12.33	-42.7	-48.0	9.5	1.28e-02	0	61	0	1006632960	55	7245
2026-01-18 00:50:27.11	235.44	12.24	-42.9	-48.3	9.4	1.61e-02	0	61	0	1007681536	56	7079
2026-01-18 00:50:28.11	235.36	12.16	-42.8	-48.2	9.4	1.50e-02	0	61	0	1009778688	56	7025
2026-01-18 00:50:29.12	235.28	12.07	-42.9	-48.4	9.3	1.63e-02	0	61	0	1011875840	56	7133
2026-01-18 00:50:30.13	235.20	11.98	-42.9	-48.4	9.3	1.75e-02	0	61	0	1013972992	56	7135
2026-01-18 00:50:31.14	235.12	11.90	-42.8	-48.2	9.4	1.83e-02	0	61	0	1016070144	56	7034
2026-01-18 00:50:32.15	235.04	11.81	-42.8	-48.3	9.4	1.99e-02	0	61	0	1017118720	56	7052
2026-01-18 00:50:33.16	234.96	11.72	-42.8	-48.3	9.4	1.79e-02	0	61	0	1019215872	56	7059
2026-01-18 00:50:34.17	234.88	11.64	-42.8	-48.3	9.3	1.74e-02	0	61	0	1021313024	56	7067
2026-01-18 00:50:35.18	234.80	11.55	-42.8	-48.3	9.3	1.66e-02	0	61	0	1023410176	56	7075
2026-01-18 00:50:36.19	234.72	11.47	-42.8	-48.3	9.4	1.88e-02	0	61	0	1025507328	56	7043
2026-01-18 00:50:37.20	234.65	11.38	-42.8	-48.1	9.5	1.63e-02	0	61	0	1026555904	56	6895
2026-01-18 00:50:38.21	234.57	11.29	-42.8	-48.1	9.5	1.47e-02	0	61	0	1028653056	56	6910
2026-01-18 00:50:39.22	234.49	11.21	-42.8	-48.0	9.6	1.24e-02	0	61	0	1030750208	56	6868
2026-01-18 00:50:40.23	234.42	11.13	-42.8	-48.2	9.4	1.54e-02	0	61	0	1032847360	56	7012
2026-01-18 00:50:41.24	234.34	11.04	-42.8	-48.2	9.4	1.50e-02	0	61	0	1034944512	56	7012
2026-01-18 00:50:42.25	234.27	10.96	-42.8	-48.1	9.5	1.47e-02	0	61	0	1035993088	56	6921
2026-01-18 00:50:43.26	234.19	10.87	-42.8	-48.3	9.3	1.74e-02	0	61	0	1038090240	56	7046
2026-01-18 00:50:44.27	234.12	10.79	-42.9	-48.4	9.2	2.03e-02	0	61	0	1040187392	56	7134
2026-01-18 00:50:45.28	234.04	10.71	-42.9	-48.5	9.1	2.00e-02	0	61	0	1042284544	56	7244
2026-01-18 00:50:46.29	233.97	10.62	-42.9	-48.7	8.9	2.74e-02	0	60	0	1044381696	56	7383
2026-01-18 00:50:47.29	233.90	10.54	-43.0	-48.8	8.7	3.20e-02	0	61	0	1045430272	56	7491
2026-01-18 00:50:48.30	233.83	10.46	-43.0	-48.8	8.8	3.16e-02	0	61	0	1047527424	56	7477
2026-01-18 00:50:49.31	233.75	10.38	-42.9	-48.7	8.8	3.13e-02	0	61	0	1049624576	56	7440
2026-01-18 00:50:50.32	233.68	10.29	-43.0	-49.0	8.5	4.01e-02	0	61	0	1051721728	56	7643
2026-01-18 00:50:51.33	233.61	10.21	-43.0	-49.0	8.5	3.77e-02	0	61	0	1053818880	56	7654
