passes_logs/2026/01/18/R2.0S_Moscow/R2.0S_Moscow__20260118_115113_SUOMI_NPP_rec.log

#Pass ID: 20260118_115113_SUOMI NPP
#Satellite: SUOMI NPP
#Configuration: NPP
#almurnet v.1.7.20251203
#Start time: 2026-01-18 11:51:13

#Version: 2.2.20231116
#Station: R2.0S_Moscow
#Location: 37.707566 lon 55.798166 lat
#TLE: 1 37849U 11061A   26017.28905266  .00000074  00000+0  55894-4 0  9999
#TLE: 2 37849  98.7814 319.3179 0002408  59.7048 300.4366 14.19525847737038

#Time	Az	El	Level	Level2	SNR	BER	BlckErr	Temp	State	Recorded	gain1	gain2
2026-01-18 11:51:13.48	218.00	2.00	-44.1	-58.9	3.8	1.49e+00	0	51	0	0	60	19049
2026-01-18 11:51:14.49	218.09	2.05	-44.1	-58.9	3.8	1.49e+00	0	51	104	0	60	19090
2026-01-18 11:51:15.51	218.18	2.11	-44.1	-58.9	3.8	1.49e+00	0	51	104	0	60	19007
2026-01-18 11:51:16.52	218.26	2.16	-44.1	-58.9	3.8	1.49e+00	0	52	104	0	60	19102
2026-01-18 11:51:17.53	218.35	2.21	-44.1	-58.9	3.8	1.49e+00	0	52	104	0	60	18994
2026-01-18 11:51:18.54	218.44	2.26	-44.1	-58.9	3.8	1.49e+00	0	52	104	0	60	19008
2026-01-18 11:51:19.55	218.53	2.31	-44.1	-58.9	3.8	1.49e+00	0	52	104	0	60	19012
2026-01-18 11:51:20.56	218.61	2.36	-44.1	-58.9	3.8	1.49e+00	0	52	104	0	60	19040
2026-01-18 11:51:21.57	218.70	2.41	-44.1	-58.9	3.8	1.49e+00	0	52	104	0	60	19014
2026-01-18 11:51:22.58	218.79	2.47	-44.1	-58.9	3.8	1.49e+00	0	52	104	0	60	18993
2026-01-18 11:51:23.59	218.88	2.52	-44.1	-58.9	3.8	1.49e+00	0	52	104	0	60	19040
2026-01-18 11:51:24.60	218.97	2.57	-44.1	-58.9	3.8	1.49e+00	0	52	104	0	60	19025
2026-01-18 11:51:25.61	219.06	2.62	-44.1	-58.9	3.8	1.49e+00	0	52	104	0	60	18963
2026-01-18 11:51:26.63	219.15	2.67	-44.1	-58.9	3.8	1.49e+00	0	52	104	0	60	18999
2026-01-18 11:51:27.64	219.24	2.72	-44.1	-58.9	3.8	1.49e+00	0	52	104	0	60	19017
2026-01-18 11:51:28.65	219.33	2.78	-44.1	-58.9	3.8	1.49e+00	0	53	104	0	60	19083
2026-01-18 11:51:29.66	219.42	2.83	-44.1	-58.9	3.8	1.49e+00	0	52	104	0	60	18990
2026-01-18 11:51:30.67	219.51	2.88	-44.1	-58.9	3.8	1.49e+00	0	53	104	0	60	18982
2026-01-18 11:51:31.68	219.60	2.93	-44.1	-58.9	3.8	1.49e+00	0	53	104	0	60	18991
2026-01-18 11:51:32.69	219.69	2.98	-44.1	-58.9	3.8	1.49e+00	0	53	104	0	60	19019
2026-01-18 11:51:33.70	219.79	3.03	-44.1	-58.9	3.8	1.49e+00	0	52	104	0	60	18980
2026-01-18 11:51:34.71	219.88	3.09	-44.1	-58.9	3.8	1.49e+00	0	53	104	0	60	19002
2026-01-18 11:51:35.72	219.97	3.14	-44.1	-58.9	3.8	1.49e+00	0	53	104	0	60	19022
2026-01-18 11:51:36.74	220.07	3.19	-44.1	-58.9	3.8	1.49e+00	0	53	104	0	60	19034
2026-01-18 11:51:37.75	220.16	3.24	-44.1	-58.9	3.8	1.49e+00	0	53	104	0	60	18981
2026-01-18 11:51:38.76	220.25	3.29	-44.1	-58.9	3.8	1.49e+00	0	53	104	0	60	19003
2026-01-18 11:51:39.77	220.35	3.35	-44.1	-58.9	3.8	1.49e+00	0	53	104	0	60	19017
2026-01-18 11:51:40.78	220.44	3.40	-44.1	-58.9	3.8	1.49e+00	0	53	104	0	60	19025
2026-01-18 11:51:41.79	220.53	3.45	-44.1	-58.9	3.8	1.49e+00	0	53	104	0	60	18975
2026-01-18 11:51:42.80	220.63	3.50	-44.1	-58.9	3.8	1.49e+00	0	53	104	0	60	19008
2026-01-18 11:51:43.81	220.72	3.55	-44.1	-58.9	3.8	1.49e+00	0	53	104	0	60	18999
2026-01-18 11:51:44.82	220.82	3.61	-44.1	-58.9	3.8	1.49e+00	0	54	104	0	60	18965
2026-01-18 11:51:45.83	220.92	3.66	-44.1	-58.9	3.8	1.49e+00	0	54	104	0	60	19032
2026-01-18 11:51:46.84	221.01	3.71	-44.1	-58.9	3.8	1.49e+00	0	54	104	0	60	18969
2026-01-18 11:51:47.85	221.11	3.76	-44.1	-58.9	3.8	1.49e+00	0	54	104	0	60	18990
2026-01-18 11:51:48.86	221.21	3.82	-44.1	-58.8	3.8	1.49e+00	0	54	104	0	60	18946
2026-01-18 11:51:49.87	221.30	3.87	-44.1	-58.9	3.8	1.49e+00	0	54	104	0	60	18998
2026-01-18 11:51:50.89	221.40	3.92	-44.1	-58.9	3.8	1.49e+00	0	54	104	0	60	18983
2026-01-18 11:51:51.90	221.50	3.97	-44.1	-58.9	3.8	1.49e+00	0	54	104	0	60	18966
2026-01-18 11:51:52.91	221.60	4.03	-44.1	-58.9	3.8	1.49e+00	0	54	104	0	60	18998
2026-01-18 11:51:53.92	221.70	4.08	-44.1	-58.9	3.8	1.49e+00	0	54	104	0	60	18969
2026-01-18 11:51:54.93	221.79	4.13	-44.1	-58.9	3.8	1.49e+00	0	54	104	0	60	18995
2026-01-18 11:51:55.94	221.89	4.18	-44.1	-58.9	3.8	1.49e+00	0	54	104	0	60	19016
2026-01-18 11:51:56.96	221.99	4.24	-44.1	-58.9	3.8	1.49e+00	0	54	104	0	60	19011
2026-01-18 11:51:57.97	222.09	4.29	-44.1	-58.8	3.8	1.49e+00	0	54	104	0	60	18912
2026-01-18 11:51:58.98	222.19	4.34	-44.1	-58.9	3.8	1.49e+00	0	54	104	0	60	19036
2026-01-18 11:51:59.99	222.29	4.40	-44.1	-58.9	3.8	1.49e+00	0	54	104	0	60	18975
2026-01-18 11:52:01.00	222.40	4.45	-44.1	-58.9	3.8	1.49e+00	0	54	104	0	60	18965
2026-01-18 11:52:02.01	222.50	4.50	-44.1	-58.8	3.8	1.49e+00	0	55	104	0	60	18922
2026-01-18 11:52:03.02	222.60	4.55	-44.1	-58.9	3.8	1.49e+00	0	55	104	0	60	18978
2026-01-18 11:52:04.03	222.70	4.61	-44.1	-58.9	3.8	1.49e+00	0	55	104	0	60	19001
2026-01-18 11:52:05.04	222.80	4.66	-44.1	-58.9	3.8	1.49e+00	0	55	104	0	60	18985
2026-01-18 11:52:06.05	222.91	4.71	-44.1	-58.9	3.8	1.49e+00	0	55	104	0	60	18965
2026-01-18 11:52:07.06	223.01	4.77	-44.1	-58.9	3.8	1.49e+00	0	55	104	0	60	18969
2026-01-18 11:52:08.07	223.11	4.82	-44.1	-58.9	3.8	1.49e+00	0	55	104	0	60	18984
2026-01-18 11:52:09.08	223.22	4.87	-44.1	-58.9	3.8	1.49e+00	0	55	104	0	60	19049
2026-01-18 11:52:10.09	223.32	4.93	-44.1	-58.9	3.8	1.49e+00	0	55	104	0	60	18957
2026-01-18 11:52:11.11	223.42	4.98	-44.1	-58.9	3.8	1.49e+00	0	55	104	0	60	19044
2026-01-18 11:52:12.12	223.53	5.03	-44.1	-58.9	3.8	1.49e+00	0	55	104	0	60	19011
2026-01-18 11:52:13.13	223.64	5.08	-44.1	-58.8	3.8	1.49e+00	0	55	104	0	60	18939
2026-01-18 11:52:14.14	223.74	5.14	-44.1	-58.8	3.8	1.49e+00	0	55	104	0	60	18935
2026-01-18 11:52:15.15	223.85	5.19	-44.1	-58.8	3.8	1.49e+00	0	55	104	0	60	18860
2026-01-18 11:52:16.16	223.95	5.24	-44.1	-58.8	3.8	1.49e+00	0	55	104	0	60	18916
2026-01-18 11:52:17.17	224.06	5.30	-44.1	-58.8	3.8	1.49e+00	0	55	104	0	60	18821
2026-01-18 11:52:18.18	224.17	5.35	-44.1	-58.8	3.8	1.49e+00	0	55	104	0	60	18859
2026-01-18 11:52:19.19	224.27	5.40	-44.1	-58.8	3.8	1.49e+00	0	55	104	0	60	18880
2026-01-18 11:52:20.20	224.38	5.46	-44.1	-58.8	3.8	1.49e+00	0	55	104	0	60	18785
2026-01-18 11:52:21.22	224.49	5.51	-44.1	-58.8	3.8	1.49e+00	0	55	104	0	60	18794
2026-01-18 11:52:22.23	224.60	5.56	-44.1	-58.8	3.8	1.49e+00	0	55	104	0	60	18744
2026-01-18 11:52:23.24	224.71	5.62	-44.1	-58.8	3.8	1.49e+00	0	55	104	0	60	18740
2026-01-18 11:52:24.25	224.82	5.67	-44.1	-58.7	3.8	1.49e+00	0	55	104	0	60	18678
2026-01-18 11:52:25.26	224.93	5.72	-44.1	-58.8	3.8	1.49e+00	0	55	104	0	60	18732
2026-01-18 11:52:26.27	225.04	5.78	-44.1	-58.8	3.8	1.49e+00	0	56	104	0	60	18751
2026-01-18 11:52:27.28	225.15	5.83	-44.1	-58.7	3.8	1.49e+00	0	56	104	0	60	18589
2026-01-18 11:52:28.30	225.26	5.89	-44.1	-58.7	3.8	1.49e+00	0	56	104	0	60	18521
2026-01-18 11:52:29.31	225.37	5.94	-44.1	-58.7	3.8	1.49e+00	0	56	104	0	60	18569
2026-01-18 11:52:30.32	225.48	5.99	-44.1	-58.7	3.8	1.49e+00	0	56	104	0	60	18538
2026-01-18 11:52:31.33	225.60	6.05	-44.1	-58.6	3.8	1.49e+00	0	56	104	0	60	18350
2026-01-18 11:52:32.34	225.71	6.10	-44.1	-58.5	3.8	1.49e+00	0	56	104	0	60	18236
2026-01-18 11:52:33.35	225.82	6.15	-44.1	-58.5	3.8	1.49e+00	0	56	104	0	60	18128
2026-01-18 11:52:34.36	225.94	6.21	-44.1	-58.3	3.8	1.49e+00	0	56	104	0	60	17887
2026-01-18 11:52:35.37	226.05	6.26	-44.1	-58.2	3.8	1.49e+00	0	56	104	0	60	17610
2026-01-18 11:52:36.38	226.16	6.31	-44.1	-58.1	3.8	1.49e+00	0	56	104	0	60	17340
2026-01-18 11:52:37.39	226.28	6.37	-44.1	-58.0	3.8	1.49e+00	0	56	104	0	60	17167
2026-01-18 11:52:38.40	226.39	6.42	-44.1	-57.8	3.8	1.49e+00	0	56	104	0	60	16802
2026-01-18 11:52:39.41	226.51	6.48	-44.0	-57.5	3.8	1.49e+00	0	56	104	0	60	16256
2026-01-18 11:52:40.42	226.62	6.53	-44.0	-57.2	3.8	1.49e+00	0	56	104	0	60	15607
2026-01-18 11:52:41.44	226.74	6.58	-44.0	-57.0	3.8	1.49e+00	0	56	104	0	60	15269
2026-01-18 11:52:42.45	226.86	6.64	-44.0	-56.5	3.9	1.48e+00	0	56	104	0	60	14468
2026-01-18 11:52:43.46	226.97	6.69	-44.1	-56.0	3.9	1.48e+00	0	56	104	0	59	14440
2026-01-18 11:52:44.47	227.09	6.74	-44.0	-55.4	4.1	1.43e+00	0	56	0	0	59	13540
2026-01-18 11:52:45.48	227.21	6.80	-44.0	-54.9	4.3	1.36e+00	0	56	0	0	59	12767
2026-01-18 11:52:46.49	227.33	6.85	-43.9	-54.0	4.6	1.08e+00	0	56	0	1048576	59	11484
2026-01-18 11:52:47.50	227.45	6.91	-43.8	-53.6	4.8	9.27e-01	0	56	0	3145728	59	10935
2026-01-18 11:52:48.51	227.57	6.96	-43.8	-53.6	4.8	8.12e-01	0	57	0	5242880	59	11017
2026-01-18 11:52:49.52	227.69	7.01	-43.8	-53.1	5.0	7.32e-01	0	56	0	6291456	59	10364
2026-01-18 11:52:50.53	227.81	7.07	-43.8	-53.0	5.1	6.60e-01	0	56	0	8388608	59	10240
2026-01-18 11:52:51.54	227.93	7.12	-43.7	-52.9	5.1	6.42e-01	0	57	0	10485760	59	10170
2026-01-18 11:52:52.55	228.05	7.18	-43.7	-52.9	5.2	6.17e-01	0	57	0	12582912	59	10103
2026-01-18 11:52:53.56	228.17	7.23	-43.8	-53.1	5.0	6.44e-01	0	57	0	14680064	59	10411
2026-01-18 11:52:54.57	228.29	7.28	-43.8	-53.7	4.7	7.71e-01	0	57	0	15728640	59	11110
2026-01-18 11:52:55.58	228.41	7.34	-43.9	-54.0	4.6	8.92e-01	0	57	0	17825792	59	11525
2026-01-18 11:52:56.59	228.53	7.39	-43.9	-54.1	4.6	9.58e-01	0	57	0	19922944	59	11661
2026-01-18 11:52:57.60	228.66	7.44	-43.9	-54.4	4.5	1.11e+00	0	57	0	22020096	59	12017
2026-01-18 11:52:58.61	228.78	7.50	-43.9	-54.0	4.6	1.02e+00	0	57	0	24117248	59	11430
2026-01-18 11:52:59.62	228.90	7.55	-43.8	-53.2	5.0	8.22e-01	0	57	0	25165824	59	10454
2026-01-18 11:53:00.63	229.03	7.61	-43.6	-52.2	5.6	6.23e-01	0	57	0	27262976	59	9325
2026-01-18 11:53:01.64	229.15	7.66	-43.5	-51.2	6.3	3.36e-01	0	57	0	29360128	58	8848
2026-01-18 11:53:02.65	229.28	7.71	-43.3	-50.5	7.0	2.08e-01	0	57	0	31457280	58	8130
2026-01-18 11:53:03.66	229.40	7.77	-43.2	-49.9	7.5	1.51e-01	0	57	0	33554432	58	7583
2026-01-18 11:53:04.67	229.53	7.82	-42.9	-49.1	8.3	7.13e-02	0	57	0	34603008	57	7316
2026-01-18 11:53:05.68	229.66	7.88	-42.8	-48.8	8.7	3.71e-02	0	57	0	36700160	57	7078
2026-01-18 11:53:06.69	229.78	7.93	-42.9	-49.1	8.3	4.07e-02	0	57	0	38797312	57	7294
2026-01-18 11:53:07.70	229.91	7.98	-42.8	-48.8	8.6	2.98e-02	0	57	0	40894464	57	7120
2026-01-18 11:53:08.71	230.04	8.04	-42.9	-49.1	8.3	4.23e-02	0	58	0	42991616	57	7331
2026-01-18 11:53:09.72	230.17	8.09	-44.4	-56.4	3.9	4.04e-02	0	57	104	44040192	59	15118
2026-01-18 11:53:10.74	230.30	8.14	-43.4	-50.3	4.8	1.43e+00	0	57	104	44040192	58	7956
2026-01-18 11:53:11.75	230.43	8.20	-43.7	-52.5	5.7	6.08e-02	0	57	0	45088768	57	10831
2026-01-18 11:53:12.76	230.56	8.25	-44.1	-57.6	3.8	1.40e+00	0	58	104	45088768	58	18447
2026-01-18 11:53:13.77	230.69	8.31	-43.0	-48.8	5.5	1.49e+00	0	57	104	45088768	57	7117
2026-01-18 11:53:14.78	230.82	8.36	-43.0	-48.8	8.6	1.26e-01	0	58	0	46137344	57	7094
2026-01-18 11:53:15.78	230.95	8.41	-42.9	-48.5	9.0	2.38e-02	0	58	0	48234496	57	6863
2026-01-18 11:53:16.79	231.08	8.47	-42.8	-48.4	9.1	2.57e-02	0	58	0	49283072	57	6782
2026-01-18 11:53:17.80	231.21	8.52	-42.7	-48.2	9.3	1.87e-02	0	57	0	51380224	57	6584
2026-01-18 11:53:18.81	231.35	8.57	-42.8	-48.2	9.3	1.71e-02	0	58	0	53477376	57	6637
2026-01-18 11:53:19.82	231.48	8.63	-42.8	-48.3	9.2	1.67e-02	0	58	0	55574528	57	6719
2026-01-18 11:53:20.83	231.61	8.68	-42.8	-48.2	9.4	1.64e-02	0	58	0	57671680	57	6603
2026-01-18 11:53:21.84	231.75	8.74	-42.7	-47.9	9.7	1.31e-02	0	58	0	59768832	57	6413
2026-01-18 11:53:22.85	231.88	8.79	-42.6	-47.7	9.9	1.12e-02	0	57	0	60817408	57	6233
2026-01-18 11:53:23.85	232.01	8.84	-42.6	-47.7	9.9	8.30e-03	0	58	0	62914560	57	6226
2026-01-18 11:53:24.86	232.15	8.90	-42.6	-47.6	10.1	6.86e-03	0	58	0	65011712	57	6141
2026-01-18 11:53:25.87	232.29	8.95	-42.6	-47.5	10.1	8.79e-03	0	58	0	67108864	57	6131
2026-01-18 11:53:26.88	232.42	9.00	-42.6	-47.6	10.0	6.37e-03	0	58	0	69206016	57	6184
2026-01-18 11:53:27.89	232.56	9.06	-42.5	-47.4	10.3	8.17e-03	0	58	0	70254592	57	5995
2026-01-18 11:53:28.91	232.70	9.11	-42.5	-47.3	10.3	6.94e-03	0	58	0	72351744	57	5979
2026-01-18 11:53:29.92	232.84	9.16	-42.6	-47.5	10.1	5.11e-03	0	58	0	74448896	57	6107
2026-01-18 11:53:30.93	232.97	9.22	-42.6	-47.5	10.1	7.93e-03	0	58	0	76546048	57	6099
2026-01-18 11:53:31.94	233.11	9.27	-42.5	-47.4	10.2	6.09e-03	0	58	0	78643200	57	6027
2026-01-18 11:53:32.95	233.25	9.32	-42.5	-47.5	10.2	5.69e-03	0	58	0	79691776	57	6066
2026-01-18 11:53:33.96	233.39	9.38	-42.6	-47.5	10.2	6.74e-03	0	58	0	81788928	57	6093
2026-01-18 11:53:34.97	233.53	9.43	-42.5	-47.4	10.3	5.59e-03	0	58	0	83886080	57	5995
2026-01-18 11:53:35.98	233.67	9.48	-42.6	-47.7	9.9	6.01e-03	0	58	0	85983232	57	6241
2026-01-18 11:53:36.99	233.81	9.54	-42.6	-47.5	10.1	6.17e-03	0	58	0	88080384	57	6125
2026-01-18 11:53:38.00	233.96	9.59	-42.5	-47.4	10.3	5.54e-03	0	58	0	89128960	57	6034
2026-01-18 11:53:39.01	234.10	9.64	-42.6	-47.5	10.2	6.15e-03	0	58	0	91226112	57	6083
2026-01-18 11:53:40.01	234.24	9.70	-42.6	-47.6	10.1	6.59e-03	0	58	0	93323264	57	6153
2026-01-18 11:53:41.02	234.38	9.75	-42.6	-47.7	9.9	8.60e-03	0	58	0	95420416	57	6237
2026-01-18 11:53:42.03	234.53	9.80	-42.6	-47.6	10.1	6.58e-03	0	58	0	97517568	57	6152
2026-01-18 11:53:43.04	234.67	9.85	-42.7	-47.7	9.9	6.94e-03	0	58	0	98566144	57	6260
2026-01-18 11:53:44.05	234.82	9.91	-42.7	-47.7	9.9	5.76e-03	0	58	0	100663296	57	6268
2026-01-18 11:53:45.06	234.96	9.96	-42.7	-47.8	9.9	9.87e-03	0	58	0	102760448	57	6307
2026-01-18 11:53:46.07	235.11	10.01	-42.6	-47.5	10.1	7.04e-03	0	58	0	104857600	57	6131
2026-01-18 11:53:47.08	235.25	10.07	-42.8	-47.9	9.8	6.27e-03	0	58	0	106954752	57	6382
2026-01-18 11:53:48.09	235.40	10.12	-42.6	-47.6	10.1	8.70e-03	0	59	0	108003328	57	6136
2026-01-18 11:53:49.10	235.55	10.17	-42.6	-47.4	10.2	7.14e-03	0	59	0	110100480	57	6058
2026-01-18 11:53:50.11	235.70	10.22	-42.7	-47.8	9.9	8.13e-03	0	58	0	112197632	57	6314
2026-01-18 11:53:51.12	235.84	10.28	-42.7	-47.9	9.8	8.72e-03	0	58	0	114294784	57	6361
2026-01-18 11:53:52.13	235.99	10.33	-42.7	-47.8	9.9	1.06e-02	0	58	0	116391936	57	6322
2026-01-18 11:53:53.14	236.14	10.38	-42.7	-47.7	10.0	8.50e-03	0	58	0	117440512	57	6217
2026-01-18 11:53:54.15	236.29	10.43	-42.7	-47.7	10.0	7.04e-03	0	58	0	119537664	57	6229
2026-01-18 11:53:55.16	236.44	10.49	-42.6	-47.5	10.2	8.47e-03	0	58	0	121634816	57	6108
2026-01-18 11:53:56.17	236.59	10.54	-42.6	-47.5	10.2	5.95e-03	0	58	0	123731968	57	6083
2026-01-18 11:53:57.18	236.75	10.59	-42.5	-47.3	10.5	4.68e-03	0	58	0	125829120	57	5943
2026-01-18 11:53:58.18	236.90	10.64	-42.5	-47.1	10.6	3.81e-03	0	58	0	127926272	57	5849
2026-01-18 11:53:59.19	237.05	10.69	-42.4	-47.1	10.7	3.73e-03	0	58	0	128974848	56	6136
2026-01-18 11:54:00.20	237.20	10.75	-42.3	-46.7	11.0	2.34e-03	0	59	0	131072000	56	5923
2026-01-18 11:54:01.21	237.36	10.80	-42.4	-46.9	10.9	2.04e-03	0	59	0	133169152	56	6029
2026-01-18 11:54:02.22	237.51	10.85	-42.3	-46.8	10.9	1.94e-03	0	58	0	135266304	56	5941
2026-01-18 11:54:03.23	237.67	10.90	-42.4	-47.0	10.8	2.03e-03	0	59	0	136314880	56	6084
2026-01-18 11:54:04.24	237.82	10.95	-42.3	-46.7	11.0	1.83e-03	0	59	0	138412032	56	5922
2026-01-18 11:54:05.25	237.98	11.01	-42.4	-46.8	11.0	1.75e-03	0	59	0	140509184	56	5974
2026-01-18 11:54:06.26	238.13	11.06	-42.3	-46.7	11.1	1.35e-03	0	59	0	142606336	56	5895
2026-01-18 11:54:07.26	238.29	11.11	-42.1	-46.3	11.5	1.32e-03	0	59	0	144703488	56	5601
2026-01-18 11:54:08.27	238.45	11.16	-42.1	-46.1	11.7	5.08e-04	0	58	0	145752064	56	5508
2026-01-18 11:54:09.28	238.60	11.21	-41.9	-45.9	11.7	3.85e-04	0	59	0	147849216	55	5698
2026-01-18 11:54:10.29	238.76	11.26	-41.8	-45.7	12.0	4.10e-04	0	59	0	149946368	55	5536
2026-01-18 11:54:11.30	238.92	11.31	-41.8	-45.6	12.1	3.32e-04	0	59	0	152043520	55	5512
2026-01-18 11:54:12.31	239.08	11.36	-41.8	-45.6	12.1	2.49e-04	0	59	0	154140672	55	5509
2026-01-18 11:54:13.32	239.24	11.41	-41.8	-45.7	12.0	3.00e-04	0	59	0	156237824	55	5584
2026-01-18 11:54:14.33	239.40	11.47	-41.9	-45.9	11.8	3.65e-04	0	59	0	157286400	55	5700
2026-01-18 11:54:15.34	239.56	11.52	-41.9	-46.1	11.6	4.83e-04	0	59	0	159383552	55	5795
2026-01-18 11:54:16.35	239.72	11.57	-42.1	-46.4	11.3	9.10e-04	0	59	0	161480704	55	5995
2026-01-18 11:54:17.36	239.89	11.62	-42.1	-46.5	11.1	1.14e-03	0	59	0	163577856	55	6086
2026-01-18 11:54:18.37	240.05	11.67	-42.2	-46.5	11.2	1.13e-03	0	59	0	165675008	55	6104
2026-01-18 11:54:19.38	240.21	11.72	-42.1	-46.3	11.4	1.23e-03	0	59	0	166723584	55	5945
2026-01-18 11:54:20.39	240.38	11.77	-42.0	-46.1	11.5	8.18e-04	0	59	0	168820736	55	5847
2026-01-18 11:54:21.40	240.54	11.82	-42.0	-46.0	11.7	7.35e-04	0	59	0	170917888	55	5783
2026-01-18 11:54:22.41	240.70	11.87	-41.9	-45.9	11.7	6.60e-04	0	59	0	173015040	55	5716
2026-01-18 11:54:23.42	240.87	11.92	-41.9	-46.0	11.7	5.06e-04	0	59	0	175112192	55	5748
2026-01-18 11:54:24.42	241.03	11.97	-41.9	-45.9	11.8	6.16e-04	0	59	0	176160768	55	5683
2026-01-18 11:54:25.43	241.20	12.02	-41.9	-46.0	11.7	5.54e-04	0	59	0	178257920	55	5729
2026-01-18 11:54:26.44	241.37	12.07	-41.9	-45.9	11.8	5.55e-04	0	59	0	180355072	55	5674
2026-01-18 11:54:27.45	241.54	12.12	-41.9	-45.9	11.8	4.41e-04	0	59	0	182452224	55	5663
2026-01-18 11:54:28.46	241.70	12.17	-41.8	-45.8	12.0	4.32e-04	0	59	0	184549376	55	5626
2026-01-18 11:54:29.47	241.87	12.21	-41.9	-45.9	11.8	4.45e-04	0	59	0	185597952	55	5705
2026-01-18 11:54:30.48	242.04	12.26	-41.7	-45.6	12.1	4.71e-04	0	59	0	187695104	55	5488
2026-01-18 11:54:31.49	242.21	12.31	-41.9	-45.9	11.8	2.58e-04	0	59	0	189792256	55	5693
2026-01-18 11:54:32.50	242.38	12.36	-42.0	-46.1	11.6	5.27e-04	0	59	0	191889408	55	5829
2026-01-18 11:54:33.51	242.55	12.41	-41.9	-46.0	11.7	4.55e-04	0	59	0	193986560	55	5745
2026-01-18 11:54:34.52	242.72	12.46	-42.0	-46.1	11.6	5.07e-04	0	59	0	195035136	55	5854
2026-01-18 11:54:35.53	242.90	12.51	-42.0	-46.1	11.6	6.06e-04	0	59	0	197132288	55	5843
2026-01-18 11:54:36.54	243.07	12.56	-42.0	-46.2	11.5	7.29e-04	0	59	0	199229440	55	5862
2026-01-18 11:54:37.55	243.24	12.60	-42.0	-46.1	11.6	7.12e-04	0	59	0	201326592	55	5807
2026-01-18 11:54:38.56	243.42	12.65	-41.9	-45.9	11.8	6.25e-04	0	59	0	203423744	55	5681
2026-01-18 11:54:39.57	243.59	12.70	-42.0	-46.0	11.7	6.04e-04	0	59	0	204472320	55	5773
2026-01-18 11:54:40.58	243.77	12.75	-41.9	-46.0	11.7	6.26e-04	0	59	0	206569472	55	5755
2026-01-18 11:54:41.59	243.94	12.79	-42.0	-46.0	11.6	5.18e-04	0	59	0	208666624	55	5775
2026-01-18 11:54:42.60	244.12	12.84	-41.9	-45.8	11.9	3.49e-04	0	59	0	210763776	55	5656
2026-01-18 11:54:43.61	244.29	12.89	-42.0	-46.0	11.7	4.52e-04	0	59	0	212860928	55	5745
2026-01-18 11:54:44.62	244.47	12.94	-42.0	-46.1	11.7	4.21e-04	0	59	0	213909504	55	5802
2026-01-18 11:54:45.63	244.65	12.98	-41.9	-45.9	11.9	4.21e-04	0	59	0	216006656	55	5657
2026-01-18 11:54:46.64	244.83	13.03	-41.9	-45.9	11.8	3.70e-04	0	59	0	218103808	55	5707
2026-01-18 11:54:47.65	245.00	13.08	-42.1	-46.2	11.5	7.23e-04	0	59	0	220200960	55	5908
2026-01-18 11:54:48.66	245.18	13.12	-42.2	-46.5	11.2	1.34e-03	0	59	0	222298112	55	6107
2026-01-18 11:54:49.67	245.36	13.17	-42.2	-46.4	11.3	1.26e-03	0	59	0	224395264	55	6048
2026-01-18 11:54:50.68	245.54	13.22	-42.2	-46.5	11.2	1.24e-03	0	59	0	225443840	55	6096
2026-01-18 11:54:51.69	245.72	13.26	-42.3	-46.7	11.0	1.48e-03	0	59	0	227540992	55	6219
2026-01-18 11:54:52.70	245.91	13.31	-42.2	-46.5	11.2	1.34e-03	0	59	0	229638144	55	6129
2026-01-18 11:54:53.70	246.09	13.35	-42.1	-46.3	11.4	1.32e-03	0	59	0	231735296	55	5970
2026-01-18 11:54:54.71	246.27	13.40	-42.1	-46.3	11.5	1.07e-03	0	59	0	233832448	55	5940
2026-01-18 11:54:55.72	246.45	13.44	-42.2	-46.4	11.3	1.05e-03	0	59	0	234881024	55	6028
2026-01-18 11:54:56.73	246.63	13.49	-42.2	-46.4	11.3	1.28e-03	0	59	0	236978176	55	6041
2026-01-18 11:54:57.74	246.82	13.53	-42.3	-46.7	11.0	1.49e-03	0	59	0	239075328	55	6248
2026-01-18 11:54:58.75	247.00	13.58	-42.4	-47.0	10.8	2.50e-03	0	59	0	241172480	55	6427
2026-01-18 11:54:59.76	247.19	13.62	-42.4	-47.0	10.7	2.91e-03	0	59	0	243269632	55	6444
2026-01-18 11:55:00.77	247.37	13.67	-42.4	-47.0	10.7	3.59e-03	0	59	0	244318208	55	6479
2026-01-18 11:55:01.78	247.56	13.71	-42.4	-46.9	10.8	3.49e-03	0	59	0	246415360	55	6403
2026-01-18 11:55:02.79	247.75	13.75	-42.3	-46.8	10.9	2.63e-03	0	59	0	248512512	55	6319
2026-01-18 11:55:03.80	247.93	13.80	-42.3	-46.8	10.9	2.32e-03	0	59	0	250609664	55	6327
2026-01-18 11:55:04.81	248.12	13.84	-42.3	-46.8	10.9	2.63e-03	0	59	0	252706816	55	6318
2026-01-18 11:55:05.82	248.31	13.88	-42.3	-46.7	10.9	1.92e-03	0	59	0	253755392	55	6265
2026-01-18 11:55:06.83	248.50	13.93	-42.3	-46.7	11.0	1.86e-03	0	59	0	255852544	55	6246
2026-01-18 11:55:07.84	248.69	13.97	-42.3	-46.8	10.9	2.12e-03	0	59	0	257949696	55	6343
2026-01-18 11:55:08.85	248.88	14.01	-42.4	-46.9	10.9	2.26e-03	0	59	0	260046848	55	6353
2026-01-18 11:55:09.86	249.07	14.05	-42.4	-46.9	10.8	2.47e-03	0	60	0	262144000	55	6393
2026-01-18 11:55:10.87	249.26	14.10	-42.3	-46.7	11.0	2.34e-03	0	60	0	263192576	55	6271
2026-01-18 11:55:11.87	249.45	14.14	-42.4	-46.9	10.8	2.41e-03	0	59	0	265289728	55	6381
2026-01-18 11:55:12.88	249.64	14.18	-42.4	-47.0	10.7	2.58e-03	0	60	0	267386880	55	6484
2026-01-18 11:55:13.90	249.84	14.22	-42.5	-47.1	10.6	3.10e-03	0	60	0	269484032	55	6530
2026-01-18 11:55:14.91	250.03	14.26	-42.6	-47.3	10.4	3.40e-03	0	59	0	271581184	55	6709
2026-01-18 11:55:15.91	250.22	14.30	-42.7	-47.6	10.1	6.27e-03	0	60	0	272629760	55	6933
2026-01-18 11:55:16.92	250.41	14.34	-42.6	-47.5	10.2	6.04e-03	0	60	0	274726912	55	6841
2026-01-18 11:55:17.93	250.61	14.39	-42.9	-47.8	10.0	7.53e-03	0	60	0	276824064	56	6707
2026-01-18 11:55:18.94	250.80	14.43	-42.8	-47.6	10.3	8.14e-03	0	60	0	278921216	56	6543
2026-01-18 11:55:19.95	251.00	14.47	-42.7	-47.4	10.6	5.09e-03	0	60	0	281018368	56	6350
2026-01-18 11:55:20.96	251.20	14.51	-42.7	-47.4	10.5	4.00e-03	0	60	0	282066944	56	6383
2026-01-18 11:55:21.97	251.39	14.55	-42.6	-47.3	10.6	3.29e-03	0	60	0	284164096	56	6284
2026-01-18 11:55:22.98	251.59	14.58	-42.7	-47.3	10.6	3.26e-03	0	60	0	286261248	56	6346
2026-01-18 11:55:23.99	251.79	14.62	-42.8	-47.6	10.4	5.00e-03	0	59	0	288358400	56	6495
2026-01-18 11:55:25.00	251.98	14.66	-42.8	-47.6	10.3	5.89e-03	0	60	0	290455552	56	6502
2026-01-18 11:55:26.01	252.18	14.70	-42.8	-47.7	10.2	6.20e-03	0	60	0	292552704	56	6576
2026-01-18 11:55:27.02	252.38	14.74	-42.8	-47.8	10.1	6.61e-03	0	60	0	293601280	56	6666
2026-01-18 11:55:28.03	252.58	14.78	-42.9	-47.9	9.9	7.98e-03	0	60	0	295698432	56	6771
2026-01-18 11:55:29.04	252.78	14.82	-42.9	-47.8	10.0	7.67e-03	0	60	0	297795584	56	6712
2026-01-18 11:55:30.05	252.98	14.85	-42.9	-47.9	10.0	8.73e-03	0	60	0	299892736	56	6725
2026-01-18 11:55:31.06	253.18	14.89	-42.8	-47.8	10.1	7.31e-03	0	60	0	301989888	56	6665
2026-01-18 11:55:32.06	253.38	14.93	-43.0	-48.1	9.8	9.46e-03	0	60	0	303038464	56	6925
2026-01-18 11:55:33.08	253.59	14.96	-43.1	-48.4	9.5	1.14e-02	0	60	0	305135616	56	7132
2026-01-18 11:55:34.08	253.79	15.00	-43.1	-48.3	9.5	1.54e-02	0	60	0	307232768	56	7116
2026-01-18 11:55:35.10	253.99	15.04	-43.1	-48.6	9.3	1.52e-02	0	60	0	309329920	56	7295
2026-01-18 11:55:36.10	254.20	15.07	-43.0	-48.3	9.5	1.67e-02	0	60	0	311427072	56	7088
2026-01-18 11:55:37.12	254.40	15.11	-43.0	-48.1	9.7	1.11e-02	0	60	0	312475648	56	6927
2026-01-18 11:55:38.13	254.61	15.14	-42.9	-47.8	10.1	7.80e-03	0	60	0	314572800	56	6676
2026-01-18 11:55:39.14	254.81	15.18	-42.7	-47.5	10.4	5.35e-03	0	60	0	316669952	56	6422
2026-01-18 11:55:40.15	255.02	15.21	-42.7	-47.4	10.5	4.46e-03	0	60	0	318767104	56	6376
2026-01-18 11:55:41.15	255.22	15.25	-42.8	-47.5	10.4	4.27e-03	0	60	0	320864256	56	6480
2026-01-18 11:55:42.16	255.43	15.28	-42.7	-47.4	10.5	3.52e-03	0	60	0	321912832	56	6352
2026-01-18 11:55:43.17	255.63	15.31	-42.8	-47.7	10.1	4.33e-03	0	60	0	324009984	56	6646
2026-01-18 11:55:44.18	255.84	15.35	-42.9	-47.9	10.0	6.72e-03	0	60	0	326107136	56	6767
2026-01-18 11:55:45.19	256.05	15.38	-42.8	-47.8	10.1	7.90e-03	0	60	0	328204288	56	6655
2026-01-18 11:55:46.20	256.26	15.41	-42.8	-47.8	10.1	7.55e-03	0	60	0	330301440	56	6691
2026-01-18 11:55:47.21	256.46	15.45	-42.8	-47.6	10.3	6.20e-03	0	60	0	331350016	56	6511
2026-01-18 11:55:48.22	256.67	15.48	-42.7	-47.4	10.5	5.57e-03	0	60	0	333447168	56	6363
2026-01-18 11:55:49.23	256.88	15.51	-42.7	-47.3	10.6	3.66e-03	0	60	0	335544320	56	6338
2026-01-18 11:55:50.24	257.09	15.54	-42.6	-47.1	10.8	2.23e-03	0	60	0	337641472	56	6183
2026-01-18 11:55:51.25	257.30	15.57	-42.6	-47.2	10.7	2.74e-03	0	60	0	339738624	56	6268
2026-01-18 11:55:52.26	257.51	15.60	-42.6	-47.1	10.8	3.06e-03	0	60	0	340787200	56	6138
2026-01-18 11:55:53.27	257.72	15.64	-42.5	-46.9	11.1	1.74e-03	0	60	0	342884352	56	6009
2026-01-18 11:55:54.28	257.94	15.67	-42.4	-46.6	11.3	1.41e-03	0	60	0	344981504	56	5847
2026-01-18 11:55:55.29	258.15	15.70	-42.3	-46.6	11.4	1.07e-03	0	60	0	347078656	56	5797
2026-01-18 11:55:56.30	258.36	15.73	-42.3	-46.4	11.6	6.96e-04	0	60	0	349175808	56	5664
2026-01-18 11:55:57.31	258.57	15.75	-42.2	-46.2	11.8	4.94e-04	0	60	0	350224384	56	5548
2026-01-18 11:55:58.32	258.79	15.78	-42.1	-46.1	11.8	5.11e-04	0	60	0	352321536	56	5528
2026-01-18 11:55:59.32	259.00	15.81	-42.2	-46.2	11.8	5.30e-04	0	60	0	354418688	56	5544
2026-01-18 11:56:00.33	259.21	15.84	-42.2	-46.2	11.7	5.01e-04	0	60	0	356515840	56	5557
2026-01-18 11:56:01.34	259.43	15.87	-42.1	-46.1	11.9	6.77e-04	0	60	0	358612992	56	5480
2026-01-18 11:56:02.35	259.64	15.90	-42.2	-46.2	11.8	3.93e-04	0	60	0	360710144	56	5534
2026-01-18 11:56:03.36	259.86	15.92	-42.1	-46.1	11.8	4.16e-04	0	60	0	361758720	56	5502
2026-01-18 11:56:04.37	260.07	15.95	-42.2	-46.1	11.8	4.23e-04	0	60	0	363855872	56	5521
2026-01-18 11:56:05.38	260.29	15.98	-42.2	-46.2	11.7	5.52e-04	0	60	0	365953024	56	5555
2026-01-18 11:56:06.39	260.50	16.00	-42.2	-46.2	11.7	5.75e-04	0	60	0	368050176	56	5576
2026-01-18 11:56:07.40	260.72	16.03	-42.2	-46.3	11.6	7.27e-04	0	60	0	370147328	56	5651
2026-01-18 11:56:08.41	260.94	16.05	-42.4	-46.6	11.3	8.41e-04	0	60	0	371195904	56	5843
2026-01-18 11:56:09.41	261.15	16.08	-42.3	-46.5	11.4	1.04e-03	0	60	0	373293056	56	5787
2026-01-18 11:56:10.42	261.37	16.10	-42.4	-46.7	11.2	1.25e-03	0	60	0	375390208	56	5880
2026-01-18 11:56:11.43	261.59	16.13	-42.4	-46.8	11.2	1.46e-03	0	60	0	377487360	56	5930
2026-01-18 11:56:12.44	261.81	16.15	-42.4	-46.8	11.1	1.59e-03	0	60	0	379584512	56	5967
2026-01-18 11:56:13.45	262.02	16.18	-42.5	-47.1	10.9	2.01e-03	0	60	0	380633088	56	6132
2026-01-18 11:56:14.46	262.24	16.20	-42.6	-47.1	10.9	2.43e-03	0	60	0	382730240	56	6138
2026-01-18 11:56:15.47	262.46	16.22	-42.6	-47.2	10.7	2.86e-03	0	60	0	384827392	56	6265
2026-01-18 11:56:16.48	262.68	16.24	-42.6	-47.2	10.7	3.24e-03	0	60	0	386924544	56	6210
2026-01-18 11:56:17.49	262.90	16.27	-42.5	-47.0	10.9	2.19e-03	0	60	0	389021696	56	6082
2026-01-18 11:56:18.50	263.12	16.29	-42.4	-46.8	11.1	1.73e-03	0	60	0	390070272	56	5939
2026-01-18 11:56:19.51	263.34	16.31	-42.2	-46.3	11.6	8.51e-04	0	60	0	392167424	56	5618
2026-01-18 11:56:20.52	263.56	16.33	-42.1	-46.0	12.0	4.19e-04	0	60	0	394264576	56	5450
2026-01-18 11:56:21.53	263.79	16.35	-42.0	-45.8	12.2	2.98e-04	0	60	0	396361728	56	5306
2026-01-18 11:56:22.53	264.00	16.37	-42.1	-46.0	11.9	3.45e-04	0	60	0	398458880	56	5424
2026-01-18 11:56:23.55	264.23	16.39	-42.2	-46.3	11.7	4.07e-04	0	60	0	399507456	56	5607
2026-01-18 11:56:24.56	264.45	16.41	-42.4	-46.7	11.2	8.22e-04	0	60	0	401604608	56	5899
2026-01-18 11:56:25.57	264.67	16.43	-42.5	-47.0	11.0	1.52e-03	0	60	0	403701760	56	6081
2026-01-18 11:56:26.57	264.89	16.45	-42.6	-47.1	10.8	2.36e-03	0	60	0	405798912	56	6140
2026-01-18 11:56:27.58	265.12	16.47	-42.6	-47.1	10.8	2.26e-03	0	60	0	407896064	56	6162
2026-01-18 11:56:28.59	265.34	16.48	-42.6	-47.1	10.9	2.63e-03	0	60	0	408944640	56	6140
2026-01-18 11:56:29.60	265.56	16.50	-42.5	-46.9	11.0	2.02e-03	0	60	0	411041792	56	6022
2026-01-18 11:56:30.61	265.79	16.52	-42.5	-47.0	11.0	1.90e-03	0	60	0	413138944	56	6089
2026-01-18 11:56:31.62	266.01	16.54	-42.6	-47.3	10.7	2.64e-03	0	60	0	415236096	56	6288
2026-01-18 11:56:32.63	266.23	16.55	-42.7	-47.5	10.4	4.17e-03	0	60	0	417333248	56	6445
2026-01-18 11:56:33.64	266.46	16.57	-42.8	-47.7	10.2	5.82e-03	0	60	0	418381824	56	6601
2026-01-18 11:56:34.65	266.68	16.58	-42.7	-47.4	10.5	4.93e-03	0	60	0	420478976	56	6382
2026-01-18 11:56:35.65	266.90	16.60	-42.6	-47.1	10.8	2.67e-03	0	60	0	422576128	56	6180
2026-01-18 11:56:36.66	267.13	16.61	-42.4	-46.8	11.2	1.71e-03	0	60	0	424673280	56	5939
2026-01-18 11:56:37.67	267.35	16.63	-42.3	-46.5	11.4	1.43e-03	0	60	0	426770432	56	5769
2026-01-18 11:56:38.69	267.58	16.64	-42.3	-46.5	11.4	9.54e-04	0	60	0	428867584	56	5774
2026-01-18 11:56:39.69	267.81	16.65	-42.3	-46.4	11.6	9.08e-04	0	60	0	429916160	56	5692
2026-01-18 11:56:40.70	268.03	16.67	-42.5	-46.9	11.0	1.07e-03	0	60	0	432013312	56	6014
2026-01-18 11:56:41.71	268.26	16.68	-42.5	-47.0	10.9	2.00e-03	0	60	0	434110464	56	6116
2026-01-18 11:56:42.72	268.48	16.69	-42.5	-46.9	11.0	2.52e-03	0	60	0	436207616	56	6044
2026-01-18 11:56:43.73	268.71	16.70	-42.3	-46.6	11.4	1.76e-03	0	60	0	438304768	56	5805
2026-01-18 11:56:44.74	268.94	16.71	-42.2	-46.3	11.7	8.36e-04	0	60	0	439353344	56	5607
2026-01-18 11:56:45.75	269.16	16.73	-42.1	-46.0	12.0	3.69e-04	0	60	0	441450496	56	5440
2026-01-18 11:56:46.76	269.39	16.74	-42.0	-45.8	12.2	3.04e-04	0	60	0	443547648	56	5338
2026-01-18 11:56:47.77	269.62	16.75	-42.1	-46.1	11.9	2.82e-04	0	60	0	445644800	56	5476
2026-01-18 11:56:48.78	269.84	16.76	-42.3	-46.4	11.5	7.20e-04	0	60	0	446693376	56	5699
2026-01-18 11:56:49.79	270.07	16.76	-42.5	-46.9	11.0	1.36e-03	0	60	0	448790528	56	6018
2026-01-18 11:56:50.80	270.30	16.77	-42.6	-47.1	10.8	2.17e-03	0	60	0	450887680	56	6178
2026-01-18 11:56:51.81	270.52	16.78	-42.6	-47.1	10.7	2.59e-03	0	60	0	452984832	56	6196
2026-01-18 11:56:52.82	270.75	16.79	-42.6	-47.1	10.8	2.62e-03	0	60	0	455081984	56	6197
2026-01-18 11:56:53.82	270.98	16.80	-42.6	-47.2	10.7	2.44e-03	0	60	0	457179136	56	6257
2026-01-18 11:56:54.83	271.20	16.80	-42.6	-47.3	10.6	2.83e-03	0	60	0	458227712	56	6285
2026-01-18 11:56:55.84	271.43	16.81	-42.8	-47.6	10.3	4.31e-03	0	60	0	460324864	56	6529
2026-01-18 11:56:56.85	271.66	16.82	-42.8	-47.8	10.1	6.56e-03	0	60	0	462422016	56	6686
2026-01-18 11:56:57.86	271.89	16.82	-42.9	-48.0	9.8	7.85e-03	0	61	0	464519168	56	6851
2026-01-18 11:56:58.87	272.12	16.83	-42.9	-48.0	9.9	9.84e-03	0	60	0	466616320	56	6811
2026-01-18 11:56:59.88	272.34	16.83	-42.9	-48.1	9.8	9.72e-03	0	61	0	467664896	56	6894
2026-01-18 11:57:00.89	272.57	16.84	-42.8	-47.7	10.2	8.09e-03	0	60	0	469762048	56	6627
2026-01-18 11:57:01.90	272.80	16.84	-42.8	-47.6	10.2	6.34e-03	0	61	0	471859200	56	6529
2026-01-18 11:57:02.91	273.03	16.85	-42.8	-47.6	10.1	6.11e-03	0	60	0	473956352	56	6566
2026-01-18 11:57:03.92	273.26	16.85	-42.9	-47.8	10.1	5.82e-03	0	60	0	476053504	56	6712
2026-01-18 11:57:04.93	273.49	16.85	-42.8	-47.8	10.1	7.88e-03	0	60	0	477102080	56	6686
2026-01-18 11:57:05.94	273.71	16.85	-42.8	-47.7	10.2	7.11e-03	0	61	0	479199232	56	6587
2026-01-18 11:57:06.95	273.94	16.86	-42.7	-47.6	10.2	6.15e-03	0	60	0	481296384	56	6509
2026-01-18 11:57:07.96	274.17	16.86	-42.6	-47.3	10.6	4.70e-03	0	60	0	483393536	56	6301
2026-01-18 11:57:08.97	274.40	16.86	-42.6	-47.1	10.8	3.09e-03	0	60	0	485490688	56	6165
2026-01-18 11:57:09.98	274.63	16.86	-42.5	-47.1	10.8	2.77e-03	0	60	0	486539264	56	6136
2026-01-18 11:57:10.99	274.86	16.86	-42.6	-47.2	10.7	2.52e-03	0	61	0	488636416	56	6209
2026-01-18 11:57:12.00	275.08	16.86	-42.6	-47.3	10.6	2.89e-03	0	60	0	490733568	56	6290
2026-01-18 11:57:13.00	275.31	16.86	-42.7	-47.4	10.5	4.14e-03	0	61	0	492830720	56	6374
2026-01-18 11:57:14.01	275.54	16.86	-42.6	-47.3	10.5	3.98e-03	0	60	0	494927872	56	6327
2026-01-18 11:57:15.02	275.77	16.85	-42.6	-47.2	10.7	2.95e-03	0	60	0	495976448	56	6203
2026-01-18 11:57:16.03	276.00	16.85	-42.5	-46.9	11.0	2.19e-03	0	60	0	498073600	56	6051
2026-01-18 11:57:17.04	276.22	16.85	-42.4	-46.8	11.0	1.55e-03	0	60	0	500170752	56	5973
2026-01-18 11:57:18.05	276.45	16.85	-42.4	-46.7	11.2	1.29e-03	0	60	0	502267904	56	5883
2026-01-18 11:57:19.06	276.68	16.84	-42.5	-46.9	11.0	1.43e-03	0	60	0	504365056	56	6023
2026-01-18 11:57:20.07	276.91	16.84	-42.5	-47.0	10.9	2.16e-03	0	60	0	505413632	56	6075
2026-01-18 11:57:21.08	277.14	16.84	-42.6	-47.2	10.6	2.90e-03	0	60	0	507510784	56	6210
2026-01-18 11:57:22.09	277.36	16.83	-42.5	-47.0	10.9	2.59e-03	0	60	0	509607936	56	6078
2026-01-18 11:57:23.10	277.59	16.83	-42.3	-46.5	11.4	1.47e-03	0	60	0	511705088	56	5757
2026-01-18 11:57:24.11	277.82	16.82	-42.2	-46.4	11.5	1.00e-03	0	61	0	513802240	56	5685
2026-01-18 11:57:25.12	278.05	16.81	-42.2	-46.4	11.5	7.67e-04	0	61	0	514850816	56	5675
2026-01-18 11:57:26.13	278.28	16.81	-42.2	-46.3	11.6	5.90e-04	0	60	0	516947968	56	5615
2026-01-18 11:57:27.14	278.50	16.80	-42.3	-46.5	11.4	7.48e-04	0	60	0	519045120	56	5753
2026-01-18 11:57:28.15	278.73	16.79	-42.4	-46.7	11.2	1.25e-03	0	61	0	521142272	56	5904
2026-01-18 11:57:29.16	278.96	16.79	-42.4	-46.9	11.0	1.76e-03	0	60	0	523239424	56	5995
2026-01-18 11:57:30.17	279.19	16.78	-42.4	-46.8	11.1	1.75e-03	0	61	0	525336576	56	5936
2026-01-18 11:57:31.17	279.41	16.77	-42.4	-46.7	11.1	1.61e-03	0	60	0	526385152	56	5921
2026-01-18 11:57:32.18	279.64	16.76	-42.3	-46.5	11.4	1.04e-03	0	61	0	528482304	56	5752
2026-01-18 11:57:33.19	279.86	16.75	-42.4	-46.7	11.2	1.06e-03	0	60	0	530579456	56	5907
2026-01-18 11:57:34.20	280.09	16.74	-42.3	-46.5	11.4	8.79e-04	0	61	0	532676608	56	5753
2026-01-18 11:57:35.21	280.32	16.73	-42.4	-46.7	11.1	1.35e-03	0	60	0	534773760	56	5916
2026-01-18 11:57:36.22	280.54	16.72	-42.5	-47.1	10.8	1.93e-03	0	61	0	535822336	56	6133
2026-01-18 11:57:37.22	280.77	16.71	-42.5	-47.1	10.7	2.48e-03	0	60	0	537919488	56	6177
2026-01-18 11:57:38.23	280.99	16.70	-42.5	-47.0	10.8	2.91e-03	0	60	0	540016640	56	6072
2026-01-18 11:57:39.24	281.22	16.69	-42.4	-46.9	10.9	2.05e-03	0	61	0	542113792	56	6043
2026-01-18 11:57:40.25	281.44	16.67	-42.4	-46.9	10.9	2.03e-03	0	60	0	544210944	56	6020
2026-01-18 11:57:41.26	281.67	16.66	-42.4	-46.7	11.1	1.57e-03	0	60	0	545259520	56	5896
2026-01-18 11:57:42.27	281.90	16.65	-42.3	-46.5	11.3	1.35e-03	0	60	0	547356672	56	5780
2026-01-18 11:57:43.28	282.12	16.64	-42.4	-46.7	11.1	1.17e-03	0	60	0	549453824	56	5909
2026-01-18 11:57:44.29	282.35	16.62	-42.4	-46.9	10.9	1.91e-03	0	60	0	551550976	56	5997
2026-01-18 11:57:45.30	282.57	16.61	-42.5	-47.1	10.7	2.60e-03	0	60	0	553648128	56	6189
2026-01-18 11:57:46.31	282.79	16.59	-42.6	-47.3	10.5	3.46e-03	0	60	0	554696704	56	6320
2026-01-18 11:57:47.32	283.02	16.58	-42.6	-47.2	10.6	3.56e-03	0	61	0	556793856	56	6264
2026-01-18 11:57:48.33	283.24	16.56	-42.6	-47.4	10.4	3.85e-03	0	61	0	558891008	56	6383
2026-01-18 11:57:49.34	283.47	16.55	-42.5	-47.2	10.6	3.68e-03	0	61	0	560988160	56	6240
2026-01-18 11:57:50.35	283.69	16.53	-42.4	-46.9	10.9	2.47e-03	0	60	0	563085312	56	6028
2026-01-18 11:57:51.35	283.91	16.51	-42.3	-46.7	11.1	1.90e-03	0	61	0	564133888	56	5922
2026-01-18 11:57:52.36	284.13	16.50	-42.2	-46.4	11.4	1.77e-03	0	61	0	566231040	56	5710
2026-01-18 11:57:53.37	284.36	16.48	-42.2	-46.4	11.4	8.28e-04	0	61	0	568328192	56	5707
2026-01-18 11:57:54.39	284.58	16.46	-42.2	-46.4	11.4	9.09e-04	0	61	0	570425344	56	5692
2026-01-18 11:57:55.40	284.80	16.44	-42.2	-46.5	11.3	1.09e-03	0	61	0	572522496	56	5743
2026-01-18 11:57:56.40	285.02	16.42	-42.1	-46.3	11.5	7.80e-04	0	60	0	573571072	56	5637
2026-01-18 11:57:57.41	285.25	16.40	-42.2	-46.4	11.3	1.11e-03	0	61	0	575668224	56	5716
2026-01-18 11:57:58.42	285.47	16.38	-42.2	-46.4	11.4	8.37e-04	0	61	0	577765376	56	5680
2026-01-18 11:57:59.43	285.69	16.36	-42.2	-46.5	11.2	9.15e-04	0	60	0	579862528	56	5764
2026-01-18 11:58:00.44	285.91	16.34	-42.2	-46.5	11.2	1.33e-03	0	61	0	581959680	56	5767
2026-01-18 11:58:01.45	286.13	16.32	-42.3	-46.6	11.1	1.56e-03	0	61	0	583008256	56	5849
2026-01-18 11:58:02.46	286.35	16.30	-42.3	-46.6	11.2	1.27e-03	0	61	0	585105408	56	5838
2026-01-18 11:58:03.47	286.57	16.28	-42.2	-46.5	11.3	1.30e-03	0	61	0	587202560	56	5759
2026-01-18 11:58:04.48	286.79	16.26	-42.3	-46.6	11.1	1.41e-03	0	61	0	589299712	56	5836
2026-01-18 11:58:05.49	287.01	16.24	-42.3	-46.7	11.1	1.27e-03	0	61	0	591396864	56	5859
2026-01-18 11:58:06.50	287.23	16.21	-42.2	-46.5	11.3	1.23e-03	0	61	0	593494016	56	5759
2026-01-18 11:58:07.51	287.45	16.19	-42.2	-46.5	11.3	1.23e-03	0	61	0	594542592	56	5748
2026-01-18 11:58:08.52	287.66	16.17	-42.2	-46.4	11.4	1.05e-03	0	61	0	596639744	56	5666
2026-01-18 11:58:09.53	287.88	16.14	-42.1	-46.3	11.5	7.56e-04	0	60	0	598736896	56	5597
2026-01-18 11:58:10.53	288.10	16.12	-41.7	-45.6	12.0	3.48e-04	0	61	0	600834048	55	5528
2026-01-18 11:58:11.54	288.31	16.10	-41.7	-45.7	12.0	2.97e-04	0	61	0	602931200	55	5530
2026-01-18 11:58:12.55	288.53	16.07	-41.6	-45.4	12.2	2.17e-04	0	61	0	603979776	55	5378
2026-01-18 11:58:13.56	288.75	16.05	-41.6	-45.4	12.2	2.08e-04	0	60	0	606076928	55	5365
2026-01-18 11:58:14.57	288.96	16.02	-41.6	-45.4	12.2	2.17e-04	0	61	0	608174080	55	5385
2026-01-18 11:58:15.58	289.18	15.99	-41.6	-45.4	12.2	2.01e-04	0	61	0	610271232	55	5374
2026-01-18 11:58:16.59	289.39	15.97	-41.6	-45.4	12.3	2.11e-04	0	61	0	612368384	55	5341
2026-01-18 11:58:17.60	289.61	15.94	-41.6	-45.3	12.3	2.00e-04	0	61	0	613416960	55	5310
2026-01-18 11:58:18.61	289.82	15.92	-41.6	-45.4	12.2	1.48e-04	0	61	0	615514112	55	5358
2026-01-18 11:58:19.62	290.04	15.89	-41.6	-45.4	12.3	1.84e-04	0	61	0	617611264	55	5370
2026-01-18 11:58:20.63	290.25	15.86	-41.6	-45.5	12.2	2.02e-04	0	60	0	619708416	55	5407
2026-01-18 11:58:21.64	290.47	15.83	-41.7	-45.6	12.0	2.74e-04	0	61	0	621805568	55	5526
2026-01-18 11:58:22.65	290.68	15.80	-41.8	-45.7	11.9	3.44e-04	0	61	0	622854144	55	5585
2026-01-18 11:58:23.66	290.89	15.78	-41.9	-46.0	11.6	6.61e-04	0	61	0	624951296	55	5746
2026-01-18 11:58:24.67	291.10	15.75	-42.0	-46.1	11.4	8.44e-04	0	61	0	627048448	55	5839
2026-01-18 11:58:25.67	291.31	15.72	-41.9	-46.1	11.5	1.01e-03	0	61	0	629145600	55	5814
2026-01-18 11:58:26.69	291.53	15.69	-41.8	-45.9	11.7	6.77e-04	0	61	0	631242752	55	5697
2026-01-18 11:58:27.70	291.74	15.66	-41.9	-46.0	11.5	6.03e-04	0	61	0	632291328	55	5759
2026-01-18 11:58:28.71	291.95	15.63	-41.7	-45.6	11.9	4.90e-04	0	61	0	634388480	55	5511
2026-01-18 11:58:29.72	292.16	15.60	-41.7	-45.7	11.8	4.68e-04	0	60	0	636485632	55	5587
2026-01-18 11:58:30.73	292.37	15.57	-41.8	-45.8	11.8	5.07e-04	0	61	0	638582784	55	5596
2026-01-18 11:58:31.74	292.58	15.53	-41.8	-45.8	11.7	5.62e-04	0	61	0	640679936	55	5627
2026-01-18 11:58:32.75	292.79	15.50	-41.9	-46.0	11.5	6.75e-04	0	60	0	641728512	55	5764
2026-01-18 11:58:33.76	293.00	15.47	-41.8	-46.0	11.5	7.94e-04	0	61	0	643825664	55	5736
2026-01-18 11:58:34.77	293.20	15.44	-41.8	-45.9	11.6	8.46e-04	0	61	0	645922816	55	5722
2026-01-18 11:58:35.78	293.41	15.41	-41.6	-45.6	12.0	5.71e-04	0	61	0	648019968	55	5466
2026-01-18 11:58:36.79	293.62	15.37	-41.6	-45.4	12.2	2.27e-04	0	61	0	650117120	55	5347
2026-01-18 11:58:37.80	293.83	15.34	-41.4	-45.0	12.6	1.97e-04	0	61	0	651165696	54	5429
2026-01-18 11:58:38.81	294.03	15.31	-41.2	-44.7	12.8	9.38e-05	0	61	0	653262848	54	5269
2026-01-18 11:58:39.82	294.24	15.27	-41.2	-44.7	12.9	5.95e-05	0	61	0	655360000	54	5266
2026-01-18 11:58:40.83	294.44	15.24	-41.1	-44.6	13.0	3.89e-05	0	61	0	657457152	54	5176
2026-01-18 11:58:41.84	294.65	15.21	-41.1	-44.5	13.1	2.82e-05	0	61	0	659554304	54	5142
2026-01-18 11:58:42.85	294.85	15.17	-41.2	-44.7	12.9	4.04e-05	0	61	0	661651456	54	5243
2026-01-18 11:58:43.86	295.06	15.14	-41.3	-44.8	12.8	4.34e-05	0	61	0	662700032	54	5310
2026-01-18 11:58:44.87	295.26	15.10	-41.3	-44.9	12.6	8.77e-05	0	61	0	664797184	54	5376
2026-01-18 11:58:45.88	295.46	15.07	-41.5	-45.2	12.4	1.01e-04	0	61	0	666894336	54	5539
2026-01-18 11:58:46.89	295.66	15.03	-41.4	-45.1	12.4	1.34e-04	0	61	0	668991488	54	5510
2026-01-18 11:58:47.89	295.86	14.99	-41.5	-45.2	12.4	1.59e-04	0	61	0	671088640	54	5548
2026-01-18 11:58:48.90	296.07	14.96	-41.5	-45.2	12.4	1.46e-04	0	61	0	672137216	54	5529
2026-01-18 11:58:49.91	296.27	14.92	-41.3	-44.9	12.7	9.84e-05	0	61	0	674234368	54	5391
2026-01-18 11:58:50.92	296.47	14.88	-41.4	-45.1	12.4	9.61e-05	0	61	0	676331520	54	5509
2026-01-18 11:58:51.93	296.67	14.85	-41.5	-45.2	12.3	1.71e-04	0	61	0	678428672	54	5588
2026-01-18 11:58:52.94	296.87	14.81	-41.5	-45.3	12.2	1.81e-04	0	61	0	680525824	54	5654
2026-01-18 11:58:53.95	297.07	14.77	-41.7	-45.6	12.0	3.40e-04	0	61	0	681574400	54	5794
2026-01-18 11:58:54.96	297.27	14.73	-41.7	-45.7	11.9	3.15e-04	0	61	0	683671552	54	5859
2026-01-18 11:58:55.97	297.46	14.70	-41.7	-45.7	11.9	3.48e-04	0	61	0	685768704	54	5877
2026-01-18 11:58:56.98	297.66	14.66	-41.7	-45.6	12.0	3.27e-04	0	61	0	687865856	54	5818
2026-01-18 11:58:57.99	297.86	14.62	-41.7	-45.6	12.0	3.22e-04	0	61	0	689963008	54	5814
2026-01-18 11:58:59.00	298.05	14.58	-41.7	-45.5	12.1	3.04e-04	0	61	0	691011584	54	5775
2026-01-18 11:59:00.01	298.25	14.54	-41.6	-45.5	12.1	2.75e-04	0	61	0	693108736	54	5730
2026-01-18 11:59:01.02	298.45	14.50	-41.7	-45.6	12.0	2.59e-04	0	61	0	695205888	54	5829
2026-01-18 11:59:02.03	298.64	14.46	-41.7	-45.6	12.0	2.96e-04	0	61	0	697303040	54	5845
2026-01-18 11:59:03.04	298.84	14.42	-41.6	-45.4	12.2	2.39e-04	0	61	0	699400192	54	5710
2026-01-18 11:59:04.05	299.03	14.38	-41.6	-45.4	12.2	1.81e-04	0	61	0	700448768	54	5677
2026-01-18 11:59:05.05	299.22	14.34	-41.4	-45.0	12.7	1.41e-04	0	61	0	702545920	54	5432
2026-01-18 11:59:06.06	299.41	14.30	-41.5	-45.2	12.5	1.14e-04	0	60	0	704643072	54	5551
2026-01-18 11:59:07.07	299.61	14.26	-41.5	-45.2	12.5	1.13e-04	0	61	0	706740224	54	5549
2026-01-18 11:59:08.09	299.80	14.22	-41.6	-45.4	12.3	1.27e-04	0	61	0	708837376	54	5673
2026-01-18 11:59:09.09	299.99	14.18	-41.6	-45.3	12.3	1.59e-04	0	61	0	709885952	54	5655
2026-01-18 11:59:10.10	300.18	14.14	-41.7	-45.5	12.1	1.94e-04	0	61	0	711983104	54	5742
2026-01-18 11:59:11.11	300.37	14.10	-41.7	-45.7	11.9	2.47e-04	0	61	0	714080256	54	5860
2026-01-18 11:59:12.12	300.56	14.05	-41.7	-45.7	11.9	4.17e-04	0	61	0	716177408	54	5873
2026-01-18 11:59:13.13	300.75	14.01	-41.8	-45.8	11.8	4.50e-04	0	61	0	718274560	54	5977
2026-01-18 11:59:14.14	300.94	13.97	-41.8	-45.8	11.8	5.26e-04	0	61	0	719323136	54	5968
2026-01-18 11:59:15.15	301.13	13.93	-41.9	-46.0	11.6	6.63e-04	0	61	0	721420288	54	6104
2026-01-18 11:59:16.16	301.32	13.88	-41.9	-46.1	11.5	8.99e-04	0	61	0	723517440	54	6132
2026-01-18 11:59:17.17	301.50	13.84	-42.0	-46.3	11.3	9.07e-04	0	61	0	725614592	54	6292
2026-01-18 11:59:18.18	301.69	13.80	-42.2	-46.6	11.0	1.55e-03	0	61	0	727711744	54	6523
2026-01-18 11:59:19.19	301.88	13.75	-42.2	-46.8	10.9	2.32e-03	0	61	0	729808896	55	6282
2026-01-18 11:59:20.20	302.06	13.71	-42.3	-46.9	10.7	2.92e-03	0	61	0	730857472	55	6378
2026-01-18 11:59:21.21	302.25	13.67	-42.3	-46.9	10.7	2.93e-03	0	61	0	732954624	55	6373
2026-01-18 11:59:22.22	302.43	13.62	-42.3	-46.9	10.7	3.08e-03	0	61	0	735051776	55	6355
2026-01-18 11:59:23.22	302.61	13.58	-42.3	-46.9	10.7	3.87e-03	0	61	0	737148928	55	6372
2026-01-18 11:59:24.23	302.80	13.54	-42.3	-47.0	10.6	3.53e-03	0	61	0	739246080	55	6426
2026-01-18 11:59:25.24	302.98	13.49	-42.3	-46.9	10.7	2.63e-03	0	61	0	740294656	55	6380
2026-01-18 11:59:26.25	303.16	13.45	-42.3	-46.8	10.7	2.73e-03	0	61	0	742391808	55	6311
2026-01-18 11:59:27.26	303.34	13.40	-42.3	-46.8	10.7	2.83e-03	0	61	0	744488960	55	6313
2026-01-18 11:59:28.27	303.53	13.36	-42.3	-47.0	10.5	3.32e-03	0	61	0	746586112	55	6484
2026-01-18 11:59:29.28	303.71	13.31	-42.4	-47.2	10.4	4.31e-03	0	61	0	748683264	55	6574
2026-01-18 11:59:30.29	303.89	13.27	-42.5	-47.3	10.2	4.59e-03	0	61	0	749731840	55	6694
2026-01-18 11:59:31.30	304.07	13.22	-42.6	-47.6	10.0	7.06e-03	0	61	0	751828992	55	6918
2026-01-18 11:59:32.31	304.25	13.17	-42.6	-47.7	9.8	7.72e-03	0	61	0	753926144	55	6997
2026-01-18 11:59:33.32	304.42	13.13	-42.6	-47.6	9.8	9.55e-03	0	61	0	756023296	55	6956
2026-01-18 11:59:34.33	304.60	13.08	-42.5	-47.5	10.0	1.02e-02	0	61	0	758120448	55	6810
2026-01-18 11:59:35.34	304.78	13.04	-42.5	-47.5	10.0	7.27e-03	0	61	0	759169024	55	6824
2026-01-18 11:59:36.35	304.96	12.99	-42.4	-47.2	10.3	4.96e-03	0	61	0	761266176	55	6625
2026-01-18 11:59:37.36	305.13	12.94	-42.5	-47.3	10.2	4.56e-03	0	61	0	763363328	55	6719
2026-01-18 11:59:38.37	305.31	12.90	-42.4	-47.1	10.4	4.98e-03	0	61	0	765460480	55	6531
2026-01-18 11:59:39.38	305.49	12.85	-42.3	-47.0	10.5	4.26e-03	0	61	0	767557632	55	6471
2026-01-18 11:59:40.38	305.66	12.80	-42.3	-47.0	10.5	3.73e-03	0	61	0	768606208	55	6464
2026-01-18 11:59:41.39	305.83	12.76	-42.4	-47.2	10.3	5.21e-03	0	61	0	770703360	55	6622
2026-01-18 11:59:42.40	306.01	12.71	-42.4	-47.3	10.3	5.70e-03	0	61	0	772800512	55	6648
2026-01-18 11:59:43.41	306.18	12.66	-42.5	-47.4	10.1	6.03e-03	0	61	0	774897664	55	6785
2026-01-18 11:59:44.42	306.35	12.61	-42.6	-47.8	9.6	1.08e-02	0	61	0	776994816	55	7105
2026-01-18 11:59:45.43	306.52	12.57	-42.7	-47.9	9.6	1.33e-02	0	61	0	778043392	55	7162
2026-01-18 11:59:46.44	306.70	12.52	-42.9	-48.4	9.2	1.37e-02	0	61	0	780140544	56	7169
2026-01-18 11:59:47.45	306.87	12.47	-43.0	-48.6	9.0	2.26e-02	0	61	0	782237696	56	7328
2026-01-18 11:59:48.46	307.04	12.42	-43.0	-48.5	9.1	2.34e-02	0	61	0	784334848	56	7267
2026-01-18 11:59:49.47	307.21	12.37	-43.1	-49.0	8.6	3.62e-02	0	61	0	786432000	56	7687
2026-01-18 11:59:50.48	307.38	12.33	-43.1	-48.9	8.7	4.01e-02	0	61	0	787480576	56	7565
2026-01-18 11:59:51.49	307.55	12.28	-43.1	-49.1	8.5	3.87e-02	0	61	0	789577728	56	7762
2026-01-18 11:59:52.50	307.71	12.23	-43.1	-48.9	8.7	4.27e-02	0	61	0	791674880	56	7591
2026-01-18 11:59:53.51	307.88	12.18	-43.1	-48.9	8.7	3.31e-02	0	61	0	793772032	56	7616
2026-01-18 11:59:54.52	308.05	12.13	-42.9	-48.5	9.1	2.15e-02	0	61	0	795869184	56	7219
2026-01-18 11:59:55.53	308.22	12.08	-42.8	-48.2	9.4	1.57e-02	0	61	0	796917760	56	6986
2026-01-18 11:59:56.53	308.38	12.03	-42.8	-48.0	9.6	1.53e-02	0	61	0	799014912	56	6817
2026-01-18 11:59:57.54	308.55	11.98	-42.7	-47.7	10.0	9.59e-03	0	61	0	801112064	56	6586
2026-01-18 11:59:58.55	308.71	11.94	-42.6	-47.5	10.1	5.62e-03	0	61	0	803209216	56	6448
2026-01-18 11:59:59.56	308.88	11.89	-42.7	-47.7	9.9	8.27e-03	0	61	0	805306368	56	6597
2026-01-18 12:00:00.57	309.04	11.84	-42.6	-47.4	10.2	7.35e-03	0	61	0	806354944	56	6414
2026-01-18 12:00:01.58	309.20	11.79	-42.7	-47.7	9.9	8.02e-03	0	61	0	808452096	56	6609
2026-01-18 12:00:02.59	309.37	11.74	-42.7	-47.9	9.8	9.65e-03	0	61	0	810549248	56	6725
2026-01-18 12:00:03.60	309.53	11.69	-42.8	-48.0	9.7	8.98e-03	0	61	0	812646400	56	6832
2026-01-18 12:00:04.61	309.69	11.64	-42.8	-48.0	9.5	1.11e-02	0	61	0	814743552	56	6870
2026-01-18 12:00:05.62	309.85	11.59	-42.6	-47.6	9.9	8.45e-03	0	61	0	815792128	56	6569
2026-01-18 12:00:06.62	310.01	11.54	-42.6	-47.5	10.1	6.58e-03	0	61	0	817889280	56	6457
2026-01-18 12:00:07.63	310.17	11.49	-42.6	-47.7	9.9	7.93e-03	0	61	0	819986432	56	6584
2026-01-18 12:00:08.64	310.33	11.44	-42.5	-47.5	10.2	8.54e-03	0	61	0	822083584	56	6424
2026-01-18 12:00:09.65	310.49	11.39	-42.7	-47.8	9.7	1.00e-02	0	61	0	824180736	56	6717
2026-01-18 12:00:10.66	310.65	11.34	-42.8	-48.1	9.5	1.42e-02	0	61	0	826277888	56	6937
2026-01-18 12:00:11.67	310.81	11.29	-42.8	-48.1	9.4	1.64e-02	0	61	0	827326464	56	6945
2026-01-18 12:00:12.68	310.96	11.23	-42.9	-48.4	9.2	1.89e-02	0	61	0	829423616	56	7151
2026-01-18 12:00:13.69	311.12	11.18	-42.9	-48.6	9.0	2.27e-02	0	61	0	831520768	56	7337
2026-01-18 12:00:14.70	311.28	11.13	-43.0	-48.7	8.8	3.02e-02	0	61	0	833617920	56	7423
2026-01-18 12:00:15.71	311.43	11.08	-42.9	-48.5	9.0	2.62e-02	0	61	0	835715072	56	7233
2026-01-18 12:00:16.72	311.59	11.03	-42.9	-48.4	9.1	2.40e-02	0	61	0	836763648	56	7195
2026-01-18 12:00:17.73	311.74	10.98	-42.8	-48.3	9.2	2.34e-02	0	61	0	838860800	56	7073
2026-01-18 12:00:18.74	311.90	10.93	-42.8	-48.3	9.3	2.20e-02	0	61	0	840957952	56	7063
2026-01-18 12:00:19.75	312.05	10.88	-42.8	-48.3	9.2	1.97e-02	0	61	0	843055104	56	7056
2026-01-18 12:00:20.76	312.21	10.83	-42.7	-47.9	9.7	1.77e-02	0	61	0	845152256	56	6740
2026-01-18 12:00:21.77	312.36	10.77	-42.7	-48.0	9.5	1.19e-02	0	61	0	846200832	56	6855
2026-01-18 12:00:22.78	312.51	10.72	-42.6	-47.8	9.7	1.39e-02	0	61	0	848297984	56	6686
2026-01-18 12:00:23.78	312.66	10.67	-42.5	-47.6	10.0	8.53e-03	0	61	0	850395136	56	6517
2026-01-18 12:00:24.79	312.81	10.62	-42.6	-47.7	9.9	8.08e-03	0	61	0	852492288	56	6583
2026-01-18 12:00:25.80	312.96	10.57	-42.4	-47.2	10.3	7.04e-03	0	61	0	854589440	56	6269
2026-01-18 12:00:26.81	313.11	10.52	-42.5	-47.4	10.2	5.12e-03	0	61	0	855638016	56	6382
2026-01-18 12:00:27.82	313.26	10.47	-42.4	-47.2	10.4	5.01e-03	0	61	0	857735168	56	6207
2026-01-18 12:00:28.83	313.41	10.41	-42.3	-46.9	10.6	4.61e-03	0	61	0	859832320	56	6022
2026-01-18 12:00:29.84	313.56	10.36	-42.4	-47.2	10.4	3.77e-03	0	61	0	861929472	56	6243
2026-01-18 12:00:30.85	313.71	10.31	-42.3	-47.0	10.5	4.30e-03	0	61	0	864026624	56	6126
2026-01-18 12:00:31.86	313.86	10.26	-42.3	-47.1	10.4	3.55e-03	0	61	0	865075200	56	6148
2026-01-18 12:00:32.87	314.00	10.21	-42.3	-47.1	10.4	4.49e-03	0	61	0	867172352	56	6135
2026-01-18 12:00:33.88	314.15	10.15	-42.3	-47.0	10.6	3.43e-03	0	61	0	869269504	56	6074
2026-01-18 12:00:34.89	314.30	10.10	-42.3	-47.0	10.5	4.29e-03	0	61	0	871366656	56	6085
2026-01-18 12:00:35.90	314.44	10.05	-42.3	-47.0	10.5	3.21e-03	0	61	0	873463808	56	6071
2026-01-18 12:00:36.91	314.59	10.00	-42.4	-47.2	10.3	4.68e-03	0	61	0	874512384	56	6257
2026-01-18 12:00:37.92	314.73	9.95	-42.3	-47.0	10.5	5.31e-03	0	61	0	876609536	56	6092
2026-01-18 12:00:38.93	314.88	9.89	-42.2	-46.8	10.8	2.57e-03	0	61	0	878706688	56	5924
2026-01-18 12:00:39.94	315.02	9.84	-42.2	-46.8	10.7	2.53e-03	0	61	0	880803840	56	5950
2026-01-18 12:00:40.95	315.16	9.79	-42.2	-46.7	10.8	2.95e-03	0	61	0	882900992	56	5921
2026-01-18 12:00:41.96	315.31	9.74	-42.2	-46.8	10.7	2.60e-03	0	61	0	883949568	56	5941
2026-01-18 12:00:42.97	315.45	9.68	-42.1	-46.5	11.0	2.07e-03	0	61	0	886046720	56	5756
2026-01-18 12:00:43.98	315.59	9.63	-42.1	-46.5	11.0	2.03e-03	0	61	0	888143872	56	5761
2026-01-18 12:00:44.99	315.73	9.58	-42.3	-47.0	10.4	3.58e-03	0	61	0	890241024	56	6119
2026-01-18 12:00:46.00	315.87	9.53	-42.3	-47.1	10.4	5.32e-03	0	61	0	892338176	56	6173
2026-01-18 12:00:47.01	316.01	9.47	-42.4	-47.4	10.0	6.36e-03	0	61	0	894435328	56	6419
2026-01-18 12:00:48.02	316.15	9.42	-42.3	-47.1	10.3	7.17e-03	0	61	0	895483904	56	6170
2026-01-18 12:00:49.03	316.29	9.37	-42.4	-47.3	10.1	5.37e-03	0	61	0	897581056	56	6332
2026-01-18 12:00:50.03	316.43	9.31	-42.5	-47.5	9.9	8.23e-03	0	61	0	899678208	56	6478
2026-01-18 12:00:51.04	316.57	9.26	-42.5	-47.5	9.8	8.14e-03	0	61	0	901775360	56	6487
2026-01-18 12:00:52.05	316.70	9.21	-42.5	-47.8	9.6	9.30e-03	0	61	0	903872512	56	6655
2026-01-18 12:00:53.06	316.84	9.16	-42.3	-47.2	10.2	7.93e-03	0	61	0	904921088	56	6271
2026-01-18 12:00:54.07	316.98	9.10	-42.1	-46.7	10.8	3.89e-03	0	61	0	907018240	56	5872
2026-01-18 12:00:55.08	317.11	9.05	-42.1	-46.7	10.8	2.58e-03	0	61	0	909115392	56	5864
2026-01-18 12:00:56.09	317.25	9.00	-42.1	-46.5	10.9	2.45e-03	0	61	0	911212544	56	5764
2026-01-18 12:00:57.10	317.39	8.94	-42.1	-46.6	10.9	2.06e-03	0	61	0	913309696	56	5810
2026-01-18 12:00:58.11	317.52	8.89	-42.1	-46.6	10.8	2.52e-03	0	61	0	914358272	56	5818
2026-01-18 12:00:59.12	317.65	8.84	-42.0	-46.5	11.0	1.90e-03	0	61	0	916455424	56	5731
2026-01-18 12:01:00.13	317.79	8.79	-42.1	-46.8	10.7	2.48e-03	0	61	0	918552576	56	5935
2026-01-18 12:01:01.14	317.92	8.73	-42.2	-46.9	10.6	3.62e-03	0	61	0	920649728	56	6006
2026-01-18 12:01:02.14	318.05	8.68	-42.1	-46.8	10.6	2.84e-03	0	61	0	922746880	56	5925
2026-01-18 12:01:03.15	318.19	8.63	-42.2	-46.9	10.4	4.11e-03	0	61	0	923795456	56	6058
2026-01-18 12:01:04.16	318.32	8.57	-42.2	-47.0	10.4	5.24e-03	0	61	0	925892608	56	6104
2026-01-18 12:01:05.17	318.45	8.52	-42.3	-47.2	10.2	5.72e-03	0	61	0	927989760	56	6241
2026-01-18 12:01:06.18	318.58	8.47	-42.3	-47.2	10.2	5.84e-03	0	61	0	930086912	56	6253
2026-01-18 12:01:07.19	318.71	8.41	-42.3	-47.3	10.1	4.77e-03	0	61	0	932184064	56	6317
2026-01-18 12:01:08.20	318.84	8.36	-42.4	-47.5	9.9	7.06e-03	0	61	0	933232640	56	6439
2026-01-18 12:01:09.21	318.97	8.31	-42.4	-47.5	9.8	9.83e-03	0	61	0	935329792	56	6491
2026-01-18 12:01:10.22	319.10	8.26	-42.3	-47.3	10.0	8.35e-03	0	61	0	937426944	56	6331
2026-01-18 12:01:11.23	319.23	8.20	-42.5	-47.7	9.6	7.43e-03	0	61	0	939524096	56	6640
2026-01-18 12:01:12.24	319.36	8.15	-42.5	-47.7	9.7	1.09e-02	0	61	0	941621248	56	6579
2026-01-18 12:01:13.25	319.49	8.10	-42.4	-47.6	9.7	1.39e-02	0	61	0	942669824	56	6555
2026-01-18 12:01:14.26	319.61	8.04	-42.4	-47.6	9.7	1.04e-02	0	61	0	944766976	56	6560
2026-01-18 12:01:15.27	319.74	7.99	-42.4	-47.6	9.7	1.19e-02	0	61	0	946864128	56	6524
2026-01-18 12:01:16.28	319.87	7.94	-44.5	-58.7	3.8	1.45e+00	0	61	104	947912704	59	19754
2026-01-18 12:01:17.29	319.99	7.88	-44.7	-59.3	3.8	1.49e+00	0	61	104	947912704	60	20047
2026-01-18 12:01:18.30	320.12	7.83	-44.9	-59.5	3.8	1.49e+00	0	61	104	947912704	60	20339
2026-01-18 12:01:19.31	320.24	7.78	-45.1	-59.7	3.8	1.49e+00	0	61	104	947912704	60	20850
2026-01-18 12:01:20.32	320.37	7.72	-45.2	-59.8	3.8	1.49e+00	0	61	104	947912704	60	21150
2026-01-18 12:01:21.33	320.49	7.67	-45.3	-59.8	3.8	1.49e+00	0	61	104	947912704	61	20039
2026-01-18 12:01:22.34	320.62	7.62	-45.3	-59.9	3.8	1.49e+00	0	61	104	947912704	61	20164
2026-01-18 12:01:23.35	320.74	7.56	-45.3	-59.9	3.8	1.49e+00	0	61	104	947912704	61	20227
2026-01-18 12:01:24.36	320.86	7.51	-45.3	-59.9	3.8	1.49e+00	0	61	104	947912704	61	20162
2026-01-18 12:01:25.37	320.99	7.46	-45.3	-59.9	3.8	1.49e+00	0	61	104	947912704	61	20144
2026-01-18 12:01:26.38	321.11	7.40	-45.2	-59.8	3.8	1.49e+00	0	61	104	947912704	61	20062
2026-01-18 12:01:27.39	321.23	7.35	-45.0	-60.1	3.8	1.49e+00	0	61	104	947912704	61	20656
2026-01-18 12:01:28.40	321.35	7.30	-45.2	-59.8	3.8	1.49e+00	0	61	104	947912704	61	20006
2026-01-18 12:01:29.41	321.47	7.24	-45.3	-59.8	3.8	1.49e+00	0	61	104	947912704	61	19978
2026-01-18 12:01:30.42	321.59	7.19	-45.2	-59.8	3.8	1.49e+00	0	61	104	947912704	61	19996
2026-01-18 12:01:31.43	321.71	7.14	-45.2	-59.8	3.8	1.49e+00	0	61	104	947912704	61	19900
2026-01-18 12:01:32.44	321.83	7.08	-45.1	-59.8	3.8	1.49e+00	0	61	104	947912704	61	19877
2026-01-18 12:01:33.46	321.95	7.03	-45.2	-59.8	3.8	1.49e+00	0	61	104	947912704	61	19877
2026-01-18 12:01:34.47	322.07	6.98	-45.2	-59.8	3.8	1.49e+00	0	61	104	947912704	61	19899
2026-01-18 12:01:35.48	322.19	6.92	-45.2	-59.8	3.8	1.49e+00	0	61	104	947912704	61	19917
2026-01-18 12:01:36.49	322.31	6.87	-45.2	-59.8	3.8	1.49e+00	0	61	104	947912704	61	19881
2026-01-18 12:01:37.50	322.43	6.82	-45.2	-59.8	3.8	1.49e+00	0	61	104	947912704	61	19878
2026-01-18 12:01:38.51	322.54	6.77	-45.2	-59.8	3.8	1.49e+00	0	61	104	947912704	61	19868
2026-01-18 12:01:39.52	322.66	6.71	-45.2	-59.7	3.8	1.49e+00	0	61	104	947912704	61	19793
2026-01-18 12:01:40.53	322.78	6.66	-45.2	-59.8	3.8	1.49e+00	0	61	104	947912704	61	19844
2026-01-18 12:01:41.54	322.89	6.61	-45.1	-59.7	3.8	1.49e+00	0	61	104	947912704	61	19815
2026-01-18 12:01:42.55	323.01	6.55	-45.2	-59.7	3.8	1.49e+00	0	61	104	947912704	61	19819
2026-01-18 12:01:43.56	323.12	6.50	-45.2	-59.8	3.8	1.49e+00	0	61	104	947912704	61	19854
2026-01-18 12:01:44.57	323.24	6.45	-45.2	-59.8	3.8	1.49e+00	0	61	104	947912704	61	19849
2026-01-18 12:01:45.58	323.35	6.39	-45.2	-59.7	3.8	1.49e+00	0	61	104	947912704	61	19804
2026-01-18 12:01:46.59	323.47	6.34	-45.1	-59.8	3.8	1.49e+00	0	61	104	947912704	61	19842
2026-01-18 12:01:47.61	323.58	6.29	-45.2	-59.7	3.8	1.49e+00	0	61	104	947912704	61	19801
2026-01-18 12:01:48.62	323.70	6.23	-45.2	-59.7	3.8	1.49e+00	0	61	104	947912704	61	19829
2026-01-18 12:01:49.63	323.81	6.18	-45.2	-59.7	3.8	1.49e+00	0	61	104	947912704	61	19814
2026-01-18 12:01:50.64	323.92	6.13	-45.2	-59.7	3.8	1.49e+00	0	61	104	947912704	61	19811
2026-01-18 12:01:51.65	324.03	6.08	-45.2	-59.7	3.8	1.49e+00	0	61	104	947912704	60	20983
2026-01-18 12:01:52.66	324.14	6.02	-45.2	-59.7	3.8	1.49e+00	0	61	104	947912704	60	20987
2026-01-18 12:01:53.67	324.26	5.97	-45.2	-59.8	3.8	1.49e+00	0	61	104	947912704	60	21019
2026-01-18 12:01:54.68	324.37	5.92	-45.1	-59.8	3.8	1.49e+00	0	61	104	947912704	60	21061
2026-01-18 12:01:55.69	324.48	5.86	-45.0	-59.7	3.8	1.49e+00	0	61	104	947912704	60	20967
2026-01-18 12:01:56.70	324.59	5.81	-44.7	-59.6	3.8	1.49e+00	0	61	104	947912704	59	21907
2026-01-18 12:01:57.71	324.70	5.76	-45.2	-59.7	3.8	1.49e+00	0	61	104	947912704	60	20984
2026-01-18 12:01:58.73	324.81	5.71	-45.2	-59.7	3.8	1.49e+00	0	61	104	947912704	60	21000
2026-01-18 12:01:59.74	324.92	5.65	-45.1	-59.7	3.8	1.49e+00	0	61	104	947912704	60	20966
2026-01-18 12:02:00.75	325.02	5.60	-45.2	-59.8	3.8	1.49e+00	0	61	104	947912704	60	21020
2026-01-18 12:02:01.76	325.13	5.55	-45.2	-59.8	3.8	1.49e+00	0	61	104	947912704	60	21074
2026-01-18 12:02:02.77	325.24	5.49	-45.2	-59.7	3.8	1.49e+00	0	61	104	947912704	60	20965
2026-01-18 12:02:03.78	325.35	5.44	-45.2	-59.7	3.8	1.49e+00	0	61	104	947912704	60	20975
2026-01-18 12:02:04.79	325.45	5.39	-45.2	-59.7	3.8	1.49e+00	0	61	104	947912704	60	20997
2026-01-18 12:02:05.80	325.56	5.34	-45.2	-59.8	3.8	1.49e+00	0	61	104	947912704	60	21018
2026-01-18 12:02:06.82	325.67	5.28	-45.2	-59.7	3.8	1.49e+00	0	61	104	947912704	60	20965
2026-01-18 12:02:07.83	325.77	5.23	-45.2	-59.7	3.8	1.49e+00	0	61	104	947912704	60	20972
2026-01-18 12:02:08.84	325.88	5.18	-45.2	-59.7	3.8	1.49e+00	0	61	104	947912704	60	20977
2026-01-18 12:02:09.85	325.99	5.13	-45.2	-59.7	3.8	1.49e+00	0	61	104	947912704	60	20985
2026-01-18 12:02:10.86	326.09	5.07	-45.2	-59.7	3.8	1.49e+00	0	61	104	947912704	60	20993
2026-01-18 12:02:11.87	326.19	5.02	-45.2	-59.7	3.8	1.49e+00	0	61	104	947912704	60	20975
2026-01-18 12:02:12.88	326.30	4.97	-45.2	-59.7	3.8	1.49e+00	0	61	104	947912704	60	20946
2026-01-18 12:02:13.89	326.40	4.92	-45.2	-59.7	3.8	1.49e+00	0	61	104	947912704	60	20969
2026-01-18 12:02:14.90	326.51	4.86	-45.2	-59.7	3.8	1.49e+00	0	61	104	947912704	60	20886
2026-01-18 12:02:15.91	326.61	4.81	-45.2	-59.7	3.8	1.49e+00	0	61	104	947912704	60	20970
2026-01-18 12:02:16.92	326.71	4.76	-45.2	-59.7	3.8	1.49e+00	0	61	104	947912704	60	20998
2026-01-18 12:02:17.94	326.81	4.71	-45.2	-59.7	3.8	1.49e+00	0	61	104	947912704	60	20922
2026-01-18 12:02:18.95	326.92	4.65	-45.2	-59.7	3.8	1.49e+00	0	61	104	947912704	60	20893
2026-01-18 12:02:19.96	327.02	4.60	-45.2	-59.7	3.8	1.49e+00	0	61	104	947912704	60	20911
2026-01-18 12:02:20.97	327.12	4.55	-45.2	-59.7	3.8	1.49e+00	0	61	104	947912704	60	20958
2026-01-18 12:02:21.98	327.22	4.50	-45.2	-59.7	3.8	1.49e+00	0	61	104	947912704	60	20898
2026-01-18 12:02:22.99	327.32	4.45	-45.2	-59.7	3.8	1.49e+00	0	61	104	947912704	60	20931
2026-01-18 12:02:24.00	327.42	4.39	-45.2	-59.7	3.8	1.49e+00	0	61	104	947912704	60	20862
2026-01-18 12:02:25.01	327.52	4.34	-45.2	-59.7	3.8	1.49e+00	0	61	104	947912704	60	20968
2026-01-18 12:02:26.03	327.62	4.29	-45.2	-59.7	3.8	1.49e+00	0	61	104	947912704	60	20892
2026-01-18 12:02:27.04	327.72	4.24	-45.2	-59.7	3.8	1.49e+00	0	61	104	947912704	60	20959
2026-01-18 12:02:28.05	327.82	4.19	-45.2	-59.7	3.8	1.49e+00	0	61	104	947912704	60	20937
2026-01-18 12:02:29.06	327.92	4.13	-45.2	-59.7	3.8	1.49e+00	0	61	104	947912704	60	20912
2026-01-18 12:02:30.07	328.02	4.08	-45.2	-59.7	3.8	1.49e+00	0	61	104	947912704	60	20982
2026-01-18 12:02:31.08	328.12	4.03	-45.2	-59.7	3.8	1.49e+00	0	61	104	947912704	60	20956
2026-01-18 12:02:32.09	328.21	3.98	-45.2	-59.7	3.8	1.49e+00	0	61	104	947912704	60	20878
2026-01-18 12:02:33.10	328.31	3.93	-45.2	-59.7	3.8	1.49e+00	0	61	104	947912704	60	20909
2026-01-18 12:02:34.11	328.41	3.87	-44.9	-59.7	3.8	1.49e+00	0	62	104	947912704	60	20909
2026-01-18 12:02:35.13	328.50	3.82	-45.2	-59.7	3.8	1.49e+00	0	61	104	947912704	60	20869
2026-01-18 12:02:36.14	328.60	3.77	-45.2	-59.7	3.8	1.49e+00	0	61	104	947912704	60	20974
2026-01-18 12:02:37.15	328.70	3.72	-45.2	-59.7	3.8	1.49e+00	0	61	104	947912704	60	20997
2026-01-18 12:02:38.16	328.79	3.67	-45.2	-59.7	3.8	1.49e+00	0	61	104	947912704	60	20856
2026-01-18 12:02:39.17	328.89	3.62	-45.2	-59.7	3.8	1.49e+00	0	61	104	947912704	60	20881
2026-01-18 12:02:40.18	328.98	3.56	-45.2	-59.7	3.8	1.49e+00	0	61	104	947912704	60	20836
2026-01-18 12:02:41.19	329.08	3.51	-45.2	-59.7	3.8	1.49e+00	0	61	104	947912704	60	20815
2026-01-18 12:02:42.20	329.17	3.46	-45.2	-59.7	3.8	1.49e+00	0	61	104	947912704	60	20870
2026-01-18 12:02:43.21	329.27	3.41	-45.2	-59.7	3.8	1.49e+00	0	61	104	947912704	60	20915
2026-01-18 12:02:44.22	329.36	3.36	-45.2	-59.7	3.8	1.49e+00	0	61	104	947912704	60	20896
2026-01-18 12:02:45.23	329.45	3.31	-45.1	-59.7	3.8	1.49e+00	0	61	104	947912704	60	20856
2026-01-18 12:02:46.24	329.55	3.26	-45.2	-59.7	3.8	1.49e+00	0	62	104	947912704	60	20835
2026-01-18 12:02:47.26	329.64	3.20	-45.2	-59.7	3.8	1.49e+00	0	61	104	947912704	60	20875
2026-01-18 12:02:48.27	329.73	3.15	-45.2	-59.7	3.8	1.49e+00	0	61	104	947912704	60	20856
2026-01-18 12:02:49.28	329.83	3.10	-45.2	-59.7	3.8	1.49e+00	0	61	104	947912704	60	20857
2026-01-18 12:02:50.29	329.92	3.05	-45.2	-59.7	3.8	1.49e+00	0	61	104	947912704	60	20862
2026-01-18 12:02:51.30	330.01	3.00	-45.1	-59.7	3.8	1.49e+00	0	61	104	947912704	60	20804
2026-01-18 12:02:52.31	330.10	2.95	-45.1	-59.7	3.8	1.49e+00	0	62	104	947912704	60	20865
