passes_logs/2026/01/18/R2.0S_Moscow/R2.0S_Moscow__20260118_001820_SUOMI_NPP_rec.log

#Pass ID: 20260118_001820_SUOMI NPP
#Satellite: SUOMI NPP
#Configuration: NPP
#almurnet v.1.7.20251203
#Start time: 2026-01-18 00:18:20

#Version: 2.2.20231116
#Station: R2.0S_Moscow
#Location: 37.707566 lon 55.798166 lat
#TLE: 1 37849U 11061A   26017.28905266  .00000074  00000+0  55894-4 0  9999
#TLE: 2 37849  98.7814 319.3179 0002408  59.7048 300.4366 14.19525847737038

#Time	Az	El	Level	Level2	SNR	BER	BlckErr	Temp	State	Recorded	gain1	gain2
2026-01-18 00:18:20.97	13.92	2.01	-42.2	-56.7	3.8	1.49e+00	0	51	0	0	56	18570
2026-01-18 00:18:21.98	13.90	2.08	-42.0	-56.5	3.8	1.49e+00	0	52	104	0	55	19281
2026-01-18 00:18:22.99	13.87	2.14	-42.0	-56.5	3.8	1.49e+00	0	52	104	0	55	19279
2026-01-18 00:18:24.00	13.85	2.21	-42.0	-56.5	3.8	1.49e+00	0	52	104	0	55	19329
2026-01-18 00:18:25.01	13.83	2.27	-42.0	-56.5	3.8	1.49e+00	0	51	104	0	55	19353
2026-01-18 00:18:26.02	13.81	2.33	-42.0	-56.5	3.8	1.49e+00	0	52	104	0	55	19295
2026-01-18 00:18:27.03	13.79	2.40	-42.0	-56.5	3.8	1.49e+00	0	52	104	0	55	19327
2026-01-18 00:18:28.05	13.77	2.46	-42.0	-56.5	3.8	1.49e+00	0	52	104	0	55	19334
2026-01-18 00:18:29.06	13.75	2.53	-42.0	-56.5	3.8	1.49e+00	0	52	104	0	55	19295
2026-01-18 00:18:30.07	13.73	2.59	-42.0	-56.5	3.8	1.49e+00	0	52	104	0	55	19287
2026-01-18 00:18:31.08	13.71	2.66	-42.0	-56.5	3.8	1.49e+00	0	52	104	0	55	19326
2026-01-18 00:18:32.09	13.68	2.72	-42.0	-56.5	3.8	1.49e+00	0	52	104	0	55	19220
2026-01-18 00:18:33.10	13.66	2.79	-42.0	-56.5	3.8	1.49e+00	0	52	104	0	55	19272
2026-01-18 00:18:34.11	13.64	2.85	-42.0	-56.5	3.8	1.49e+00	0	53	104	0	55	19322
2026-01-18 00:18:35.12	13.62	2.92	-42.0	-56.5	3.8	1.49e+00	0	52	104	0	55	19304
2026-01-18 00:18:36.13	13.60	2.99	-42.0	-56.5	3.8	1.49e+00	0	53	104	0	55	19266
2026-01-18 00:18:37.14	13.57	3.05	-42.0	-56.5	3.8	1.49e+00	0	53	104	0	55	19269
2026-01-18 00:18:38.16	13.55	3.12	-42.0	-56.5	3.8	1.49e+00	0	52	104	0	55	19270
2026-01-18 00:18:39.17	13.53	3.18	-42.0	-56.5	3.8	1.49e+00	0	53	104	0	55	19240
2026-01-18 00:18:40.17	13.51	3.25	-42.0	-56.5	3.8	1.49e+00	0	53	104	0	55	19339
2026-01-18 00:18:41.19	13.48	3.32	-42.0	-56.5	3.8	1.49e+00	0	53	104	0	55	19267
2026-01-18 00:18:42.20	13.46	3.38	-42.0	-56.5	3.8	1.49e+00	0	53	104	0	55	19211
2026-01-18 00:18:43.21	13.44	3.45	-42.0	-56.5	3.8	1.49e+00	0	53	104	0	55	19226
2026-01-18 00:18:44.22	13.42	3.52	-42.0	-56.5	3.8	1.49e+00	0	53	104	0	55	19213
2026-01-18 00:18:45.23	13.39	3.59	-42.0	-56.5	3.8	1.49e+00	0	53	104	0	55	19231
2026-01-18 00:18:46.24	13.37	3.65	-42.0	-56.5	3.8	1.49e+00	0	53	104	0	55	19262
2026-01-18 00:18:47.25	13.35	3.72	-42.0	-56.5	3.8	1.49e+00	0	53	104	0	55	19188
2026-01-18 00:18:48.26	13.32	3.79	-42.0	-56.4	3.8	1.49e+00	0	53	104	0	55	19162
2026-01-18 00:18:49.27	13.30	3.86	-42.0	-56.5	3.8	1.49e+00	0	53	104	0	55	19200
2026-01-18 00:18:50.28	13.28	3.92	-42.0	-56.4	3.8	1.49e+00	0	54	104	0	55	19094
2026-01-18 00:18:51.29	13.25	3.99	-42.0	-56.4	3.8	1.49e+00	0	53	104	0	55	19068
2026-01-18 00:18:52.31	13.23	4.06	-42.0	-56.3	3.8	1.49e+00	0	54	104	0	55	18940
2026-01-18 00:18:53.32	13.20	4.13	-42.0	-56.2	3.8	1.49e+00	0	54	104	0	55	18697
2026-01-18 00:18:54.33	13.18	4.20	-42.0	-56.2	3.8	1.49e+00	0	54	104	0	55	18581
2026-01-18 00:18:55.34	13.15	4.27	-42.0	-56.1	3.8	1.49e+00	0	54	104	0	55	18479
2026-01-18 00:18:56.35	13.13	4.34	-42.0	-56.1	3.8	1.49e+00	0	54	104	0	55	18452
2026-01-18 00:18:57.36	13.10	4.41	-42.0	-56.1	3.8	1.49e+00	0	54	104	0	55	18357
2026-01-18 00:18:58.38	13.08	4.48	-42.0	-56.0	3.8	1.49e+00	0	54	104	0	55	18280
2026-01-18 00:18:59.39	13.05	4.55	-42.0	-56.0	3.8	1.49e+00	0	54	104	0	55	18188
2026-01-18 00:19:00.40	13.03	4.62	-42.0	-56.0	3.8	1.49e+00	0	54	104	0	55	18162
2026-01-18 00:19:01.40	13.00	4.68	-42.0	-56.0	3.8	1.49e+00	0	54	104	0	55	18247
2026-01-18 00:19:02.41	12.98	4.75	-42.0	-55.9	3.8	1.49e+00	0	54	104	0	55	17968
2026-01-18 00:19:03.42	12.95	4.82	-41.9	-55.9	3.8	1.49e+00	0	54	104	0	55	17942
2026-01-18 00:19:04.43	12.93	4.90	-42.0	-56.0	3.8	1.49e+00	0	54	104	0	55	18183
2026-01-18 00:19:05.44	12.90	4.97	-42.0	-56.1	3.8	1.49e+00	0	54	104	0	55	18417
2026-01-18 00:19:06.46	12.88	5.04	-42.0	-56.2	3.8	1.49e+00	0	55	104	0	55	18589
2026-01-18 00:19:07.47	12.85	5.11	-42.0	-56.0	3.8	1.49e+00	0	55	104	0	55	18293
2026-01-18 00:19:08.48	12.82	5.18	-42.0	-55.9	3.8	1.49e+00	0	55	104	0	55	17922
2026-01-18 00:19:09.49	12.80	5.25	-41.9	-55.7	3.8	1.49e+00	0	55	104	0	55	17620
2026-01-18 00:19:10.50	12.77	5.32	-41.9	-55.3	3.8	1.49e+00	0	55	104	0	55	16848
2026-01-18 00:19:11.51	12.74	5.39	-41.9	-55.2	3.8	1.49e+00	0	55	104	0	55	16619
2026-01-18 00:19:12.52	12.72	5.47	-41.9	-55.0	3.8	1.49e+00	0	55	104	0	55	16169
2026-01-18 00:19:13.53	12.69	5.54	-41.9	-54.8	3.8	1.49e+00	0	55	104	0	55	15942
2026-01-18 00:19:14.54	12.66	5.61	-41.9	-54.6	3.8	1.49e+00	0	55	104	0	55	15514
2026-01-18 00:19:15.55	12.63	5.68	-41.9	-54.5	3.8	1.49e+00	0	55	104	0	55	15369
2026-01-18 00:19:16.56	12.61	5.76	-41.9	-54.5	3.8	1.49e+00	0	55	104	0	55	15229
2026-01-18 00:19:17.57	12.58	5.83	-41.8	-54.3	3.9	1.48e+00	0	55	104	0	55	14905
2026-01-18 00:19:18.58	12.55	5.90	-41.9	-54.4	3.8	1.48e+00	0	55	104	0	55	15079
2026-01-18 00:19:19.59	12.52	5.97	-41.9	-54.6	3.8	1.48e+00	0	55	104	0	55	15463
2026-01-18 00:19:20.60	12.50	6.05	-41.9	-54.8	3.8	1.49e+00	0	55	104	0	55	15831
2026-01-18 00:19:21.61	12.47	6.12	-41.9	-55.2	3.8	1.49e+00	0	55	104	0	55	16613
2026-01-18 00:19:22.63	12.44	6.20	-41.9	-55.6	3.8	1.49e+00	0	55	104	0	55	17474
2026-01-18 00:19:23.64	12.41	6.27	-42.0	-56.1	3.8	1.49e+00	0	55	104	0	55	18422
2026-01-18 00:19:24.65	12.38	6.34	-42.0	-56.3	3.8	1.49e+00	0	56	104	0	55	18891
2026-01-18 00:19:25.66	12.35	6.42	-42.0	-56.5	3.8	1.49e+00	0	55	104	0	55	19244
2026-01-18 00:19:26.67	12.32	6.49	-42.0	-56.4	3.8	1.49e+00	0	55	104	0	55	18953
2026-01-18 00:19:27.68	12.29	6.57	-41.9	-55.9	3.8	1.49e+00	0	55	104	0	55	17917
2026-01-18 00:19:28.69	12.26	6.64	-41.9	-55.2	3.8	1.49e+00	0	56	104	0	55	16515
2026-01-18 00:19:29.70	12.23	6.72	-41.8	-54.2	3.8	1.49e+00	0	56	104	0	55	14729
2026-01-18 00:19:30.71	12.20	6.79	-41.7	-52.8	4.2	1.42e+00	0	56	0	0	55	12520
2026-01-18 00:19:31.73	12.17	6.87	-41.6	-51.6	4.7	1.07e+00	0	56	0	1048576	55	10928
2026-01-18 00:19:32.74	12.14	6.95	-41.4	-50.0	5.5	7.09e-01	0	56	0	3145728	54	9675
2026-01-18 00:19:33.75	12.11	7.02	-41.2	-48.9	6.3	2.87e-01	0	56	0	5242880	54	8554
2026-01-18 00:19:34.76	12.08	7.10	-41.1	-48.2	7.0	1.77e-01	0	56	0	6291456	54	7891
2026-01-18 00:19:35.77	12.05	7.18	-40.9	-47.6	7.6	1.16e-01	0	56	0	8388608	53	7752
2026-01-18 00:19:36.78	12.02	7.25	-40.7	-47.0	8.1	6.86e-02	0	56	0	10485760	53	7253
2026-01-18 00:19:37.79	11.99	7.33	-40.6	-46.6	8.5	4.29e-02	0	56	0	12582912	53	6957
2026-01-18 00:19:38.80	11.96	7.41	-40.5	-46.2	8.9	3.37e-02	0	56	0	14680064	53	6623
2026-01-18 00:19:39.81	11.93	7.49	-40.5	-46.1	9.1	2.06e-02	0	56	0	15728640	52	6939
2026-01-18 00:19:40.83	11.90	7.56	-40.5	-46.1	9.1	2.63e-02	0	56	0	17825792	52	6940
2026-01-18 00:19:41.83	11.86	7.64	-40.4	-46.1	9.1	2.23e-02	0	56	0	19922944	52	6904
2026-01-18 00:19:42.85	11.83	7.72	-40.5	-46.2	9.0	2.65e-02	0	56	0	22020096	52	6963
2026-01-18 00:19:43.86	11.80	7.80	-40.5	-46.2	8.9	2.79e-02	0	56	0	24117248	52	7029
2026-01-18 00:19:44.87	11.77	7.88	-40.7	-47.0	8.1	4.34e-02	0	56	0	26214400	52	7686
2026-01-18 00:19:45.87	11.73	7.95	-40.8	-47.3	7.8	7.12e-02	0	56	0	27262976	52	7981
2026-01-18 00:19:46.89	11.70	8.03	-41.0	-48.3	6.9	1.29e-01	0	56	0	29360128	52	8888
2026-01-18 00:19:47.90	11.67	8.11	-40.9	-48.9	6.2	1.82e-01	0	56	0	31457280	52	9519
2026-01-18 00:19:48.91	11.63	8.19	-41.8	-50.7	5.4	2.01e-01	0	56	0	33554432	54	10509
2026-01-18 00:19:49.92	11.60	8.27	-41.2	-52.5	4.2	3.90e-01	0	56	0	34603008	54	12896
2026-01-18 00:19:50.93	11.57	8.35	-41.1	-48.5	6.8	4.05e-01	0	56	0	36700160	53	8600
2026-01-18 00:19:51.94	11.53	8.43	-42.0	-55.6	3.8	1.15e-01	0	56	104	37748736	54	18420
2026-01-18 00:19:52.95	11.50	8.51	-41.0	-47.8	7.5	5.37e-01	0	57	0	37748736	54	7484
2026-01-18 00:19:53.96	11.46	8.60	-41.0	-47.9	7.4	1.04e-01	0	57	0	39845888	53	8002
2026-01-18 00:19:54.97	11.43	8.68	-41.0	-48.0	7.1	1.37e-01	0	57	0	41943040	53	8162
2026-01-18 00:19:55.98	11.40	8.76	-41.0	-48.0	7.1	1.47e-01	0	57	0	42991616	53	8174
2026-01-18 00:19:56.99	11.36	8.84	-41.0	-48.2	6.9	1.58e-01	0	57	0	45088768	53	8316
2026-01-18 00:19:57.99	11.33	8.92	-41.0	-48.4	6.7	1.82e-01	0	57	0	47185920	53	8555
2026-01-18 00:19:59.01	11.29	9.00	-41.0	-48.5	6.7	1.85e-01	0	57	0	49283072	53	8635
2026-01-18 00:20:00.02	11.25	9.09	-41.0	-48.6	6.5	2.26e-01	0	57	0	51380224	53	8751
2026-01-18 00:20:01.02	11.22	9.17	-41.1	-48.9	6.3	2.61e-01	0	57	0	52428800	53	9044
2026-01-18 00:20:02.03	11.18	9.25	-41.0	-48.7	6.4	2.52e-01	0	57	0	54525952	53	8857
2026-01-18 00:20:03.04	11.15	9.33	-41.1	-48.8	6.4	2.32e-01	0	57	0	56623104	53	8936
2026-01-18 00:20:04.05	11.11	9.42	-41.0	-48.8	6.4	2.64e-01	0	57	0	58720256	53	8889
2026-01-18 00:20:05.06	11.07	9.50	-41.1	-49.0	6.1	2.93e-01	0	57	0	59768832	53	9153
2026-01-18 00:20:06.07	11.04	9.58	-41.1	-49.3	6.0	3.23e-01	0	57	0	61865984	53	9394
2026-01-18 00:20:07.08	11.00	9.67	-41.1	-49.4	5.9	3.28e-01	0	57	0	63963136	53	9586
2026-01-18 00:20:08.09	10.96	9.75	-41.1	-49.5	5.8	3.92e-01	0	57	0	66060288	53	9650
2026-01-18 00:20:09.10	10.92	9.84	-41.2	-49.8	5.6	4.39e-01	0	57	0	68157440	53	10058
2026-01-18 00:20:10.11	10.89	9.92	-41.2	-50.1	5.4	5.13e-01	0	57	0	70254592	53	10377
2026-01-18 00:20:11.12	10.85	10.01	-41.3	-50.3	5.3	5.09e-01	0	57	0	71303168	53	10625
2026-01-18 00:20:12.13	10.81	10.09	-41.3	-50.7	5.0	6.31e-01	0	57	0	73400320	53	11126
2026-01-18 00:20:13.14	10.77	10.18	-41.3	-50.9	4.9	7.34e-01	0	57	0	75497472	53	11397
2026-01-18 00:20:14.14	10.73	10.27	-41.4	-51.4	4.7	8.14e-01	0	57	0	77594624	53	11987
2026-01-18 00:20:15.15	10.69	10.35	-41.3	-51.2	4.7	9.08e-01	0	57	0	79691776	53	11783
2026-01-18 00:20:16.16	10.65	10.44	-41.2	-50.5	5.1	7.02e-01	0	57	0	80740352	53	10893
2026-01-18 00:20:17.17	10.61	10.53	-41.2	-50.4	5.2	6.09e-01	0	57	0	82837504	53	10695
2026-01-18 00:20:18.18	10.57	10.61	-41.2	-49.9	5.6	5.52e-01	0	57	0	84934656	53	10171
2026-01-18 00:20:19.19	10.53	10.70	-41.2	-49.6	5.8	3.90e-01	0	57	0	87031808	53	9741
2026-01-18 00:20:20.20	10.49	10.79	-41.2	-49.4	6.0	3.68e-01	0	57	0	89128960	53	9565
2026-01-18 00:20:21.21	10.45	10.88	-41.3	-49.4	6.0	3.35e-01	0	57	0	90177536	53	9578
2026-01-18 00:20:22.22	10.41	10.97	-41.4	-49.6	5.9	3.35e-01	0	57	0	92274688	53	9796
2026-01-18 00:20:23.23	10.37	11.05	-41.5	-49.7	5.9	3.30e-01	0	58	0	94371840	53	9857
2026-01-18 00:20:24.24	10.33	11.14	-41.5	-49.4	6.3	3.10e-01	0	58	0	96468992	53	9536
2026-01-18 00:20:25.25	10.29	11.23	-41.4	-48.8	6.7	2.09e-01	0	57	0	98566144	53	8948
2026-01-18 00:20:26.26	10.24	11.32	-41.3	-48.2	7.3	1.44e-01	0	57	0	99614720	53	8364
2026-01-18 00:20:27.26	10.20	11.41	-41.1	-47.6	7.9	9.43e-02	0	57	0	101711872	53	7726
2026-01-18 00:20:28.27	10.16	11.50	-41.0	-47.1	8.4	4.89e-02	0	57	0	103809024	53	7334
2026-01-18 00:20:29.28	10.12	11.59	-40.8	-46.4	9.1	3.10e-02	0	57	0	105906176	53	6779
2026-01-18 00:20:30.29	10.07	11.68	-40.6	-45.8	9.7	1.68e-02	0	58	0	108003328	53	6309
2026-01-18 00:20:31.30	10.03	11.78	-40.4	-45.4	10.2	8.80e-03	0	57	0	109051904	52	6357
2026-01-18 00:20:32.31	9.98	11.87	-40.5	-45.2	10.5	4.11e-03	0	58	0	111149056	52	6263
2026-01-18 00:20:33.32	9.94	11.96	-40.4	-45.2	10.6	3.29e-03	0	58	0	113246208	52	6208
2026-01-18 00:20:34.33	9.90	12.05	-40.4	-44.8	11.1	2.29e-03	0	58	0	115343360	52	5941
2026-01-18 00:20:35.34	9.85	12.14	-40.2	-44.4	11.6	7.92e-04	0	58	0	117440512	52	5668
2026-01-18 00:20:36.35	9.81	12.24	-40.2	-44.4	11.7	5.90e-04	0	58	0	118489088	52	5659
2026-01-18 00:20:37.36	9.76	12.33	-40.2	-44.4	11.7	6.38e-04	0	58	0	120586240	52	5668
2026-01-18 00:20:38.37	9.71	12.42	-40.3	-44.5	11.6	7.80e-04	0	58	0	122683392	52	5733
2026-01-18 00:20:39.38	9.67	12.52	-40.4	-44.6	11.5	5.45e-04	0	58	0	124780544	52	5833
2026-01-18 00:20:40.39	9.62	12.61	-40.5	-44.8	11.3	1.09e-03	0	58	0	126877696	52	5973
2026-01-18 00:20:41.40	9.57	12.71	-40.7	-45.1	11.1	1.69e-03	0	58	0	127926272	52	6155
2026-01-18 00:20:42.41	9.53	12.80	-40.8	-45.3	11.0	1.76e-03	0	58	0	130023424	52	6292
2026-01-18 00:20:43.42	9.48	12.90	-40.8	-45.3	11.1	1.71e-03	0	58	0	132120576	52	6276
2026-01-18 00:20:44.43	9.43	12.99	-40.7	-45.0	11.5	1.18e-03	0	58	0	134217728	52	6072
2026-01-18 00:20:45.44	9.38	13.09	-40.7	-44.8	11.7	7.41e-04	0	58	0	136314880	52	5958
2026-01-18 00:20:46.44	9.34	13.19	-40.6	-44.7	11.9	4.82e-04	0	58	0	138412032	52	5872
2026-01-18 00:20:47.45	9.29	13.28	-40.7	-44.7	12.0	4.00e-04	0	58	0	139460608	52	5860
2026-01-18 00:20:48.46	9.24	13.38	-40.9	-45.0	11.7	5.58e-04	0	58	0	141557760	52	6077
2026-01-18 00:20:49.48	9.19	13.48	-41.1	-45.4	11.2	9.60e-04	0	58	0	143654912	52	6418
2026-01-18 00:20:50.48	9.14	13.57	-41.2	-45.6	11.1	1.50e-03	0	58	0	145752064	52	6539
2026-01-18 00:20:51.49	9.09	13.67	-41.0	-45.0	11.8	6.48e-04	0	58	0	147849216	52	6104
2026-01-18 00:20:52.50	9.04	13.77	-40.9	-44.8	12.1	3.62e-04	0	58	0	148897792	52	5976
2026-01-18 00:20:53.52	8.99	13.87	-40.9	-44.9	12.0	3.49e-04	0	58	0	150994944	52	6054
2026-01-18 00:20:54.52	8.94	13.97	-40.9	-44.9	12.1	3.99e-04	0	58	0	153092096	52	5994
2026-01-18 00:20:55.53	8.89	14.07	-41.0	-45.0	11.9	3.63e-04	0	58	0	155189248	52	6101
2026-01-18 00:20:56.54	8.83	14.17	-41.0	-45.0	12.0	3.71e-04	0	58	0	157286400	52	6112
2026-01-18 00:20:57.55	8.78	14.27	-41.0	-45.0	12.0	3.75e-04	0	58	0	158334976	52	6090
2026-01-18 00:20:58.56	8.73	14.37	-41.0	-45.0	12.1	2.88e-04	0	58	0	160432128	52	6063
2026-01-18 00:20:59.57	8.67	14.47	-41.0	-44.9	12.1	2.55e-04	0	58	0	162529280	52	6061
2026-01-18 00:21:00.58	8.62	14.58	-41.0	-44.9	12.2	2.21e-04	0	58	0	164626432	52	6042
2026-01-18 00:21:01.59	8.57	14.68	-41.0	-44.8	12.2	2.94e-04	0	58	0	166723584	52	5970
2026-01-18 00:21:02.60	8.51	14.78	-41.0	-44.7	12.4	1.47e-04	0	58	0	167772160	52	5905
2026-01-18 00:21:03.61	8.46	14.88	-41.1	-45.0	12.2	1.31e-04	0	58	0	169869312	52	6095
2026-01-18 00:21:04.62	8.40	14.99	-41.1	-44.9	12.3	1.88e-04	0	58	0	171966464	52	6011
2026-01-18 00:21:05.63	8.35	15.09	-40.9	-44.6	12.6	1.34e-04	0	58	0	174063616	52	5831
2026-01-18 00:21:06.64	8.29	15.19	-41.0	-44.8	12.4	8.85e-05	0	58	0	176160768	52	5972
2026-01-18 00:21:07.65	8.24	15.30	-41.0	-44.7	12.5	1.10e-04	0	58	0	177209344	52	5894
2026-01-18 00:21:08.66	8.18	15.40	-41.0	-44.7	12.6	8.62e-05	0	58	0	179306496	52	5856
2026-01-18 00:21:09.67	8.12	15.51	-41.0	-44.6	12.7	1.03e-04	0	59	0	181403648	52	5827
2026-01-18 00:21:10.68	8.06	15.62	-41.1	-44.8	12.5	1.19e-04	0	59	0	183500800	52	5948
2026-01-18 00:21:11.69	8.01	15.72	-41.1	-44.9	12.4	1.23e-04	0	59	0	185597952	52	6021
2026-01-18 00:21:12.70	7.95	15.83	-41.0	-44.6	12.8	8.39e-05	0	59	0	186646528	52	5817
2026-01-18 00:21:13.71	7.89	15.94	-41.0	-44.7	12.8	7.32e-05	0	59	0	188743680	52	5861
2026-01-18 00:21:14.71	7.83	16.04	-41.1	-44.7	12.7	5.72e-05	0	59	0	190840832	52	5880
2026-01-18 00:21:15.72	7.77	16.15	-41.1	-44.7	12.7	5.11e-05	0	59	0	192937984	52	5884
2026-01-18 00:21:16.73	7.71	16.26	-41.1	-44.7	12.8	7.01e-05	0	58	0	195035136	52	5903
2026-01-18 00:21:17.74	7.65	16.37	-41.1	-44.7	12.7	6.86e-05	0	59	0	196083712	52	5899
2026-01-18 00:21:18.75	7.59	16.48	-41.1	-44.7	12.8	8.69e-05	0	59	0	198180864	52	5863
2026-01-18 00:21:19.76	7.52	16.59	-41.2	-45.0	12.5	7.78e-05	0	58	0	200278016	53	5738
2026-01-18 00:21:20.77	7.46	16.70	-41.2	-44.8	12.7	7.17e-05	0	59	0	202375168	53	5656
2026-01-18 00:21:21.78	7.40	16.81	-41.1	-44.7	12.8	8.46e-05	0	59	0	204472320	53	5561
2026-01-18 00:21:22.79	7.34	16.92	-41.1	-44.7	12.8	6.48e-05	0	59	0	206569472	53	5576
2026-01-18 00:21:23.80	7.27	17.03	-41.1	-44.7	12.9	5.87e-05	0	59	0	207618048	53	5557
2026-01-18 00:21:24.81	7.21	17.15	-41.2	-44.7	12.8	5.26e-05	0	59	0	209715200	53	5580
2026-01-18 00:21:25.82	7.14	17.26	-41.1	-44.7	12.9	4.50e-05	0	58	0	211812352	53	5556
2026-01-18 00:21:26.83	7.08	17.37	-41.1	-44.6	13.0	3.73e-05	0	59	0	213909504	53	5496
2026-01-18 00:21:27.84	7.01	17.48	-41.3	-45.0	12.7	5.95e-05	0	59	0	216006656	53	5731
2026-01-18 00:21:28.84	6.95	17.60	-41.2	-44.8	12.8	5.34e-05	0	59	0	217055232	53	5654
2026-01-18 00:21:29.85	6.88	17.71	-41.2	-44.8	12.9	4.80e-05	0	59	0	219152384	53	5601
2026-01-18 00:21:30.86	6.81	17.83	-41.2	-44.7	12.9	4.04e-05	0	59	0	221249536	53	5590
2026-01-18 00:21:31.87	6.74	17.94	-41.2	-44.7	12.9	5.79e-05	0	59	0	223346688	53	5584
2026-01-18 00:21:32.88	6.68	18.06	-41.3	-44.8	12.9	5.03e-05	0	59	0	225443840	53	5636
2026-01-18 00:21:33.89	6.61	18.18	-41.3	-44.9	12.8	4.95e-05	0	59	0	226492416	53	5678
2026-01-18 00:21:34.91	6.54	18.29	-41.3	-44.9	12.8	5.72e-05	0	59	0	228589568	53	5721
2026-01-18 00:21:35.91	6.47	18.41	-41.3	-44.9	12.8	6.71e-05	0	59	0	230686720	53	5695
2026-01-18 00:21:36.92	6.40	18.53	-41.2	-44.7	13.0	2.74e-05	0	59	0	232783872	53	5586
2026-01-18 00:21:37.93	6.32	18.65	-41.3	-44.9	12.8	4.95e-05	0	59	0	234881024	53	5682
2026-01-18 00:21:38.95	6.25	18.77	-41.2	-44.7	13.1	7.40e-05	0	59	0	235929600	53	5536
2026-01-18 00:21:39.95	6.18	18.89	-41.3	-44.8	13.0	3.73e-05	0	59	0	238026752	53	5597
2026-01-18 00:21:40.97	6.11	19.01	-41.3	-44.9	12.9	4.34e-05	0	59	0	240123904	53	5669
2026-01-18 00:21:41.98	6.03	19.13	-41.4	-45.0	12.8	5.56e-05	0	59	0	242221056	53	5764
2026-01-18 00:21:42.99	5.96	19.25	-41.3	-44.9	12.9	4.57e-05	0	59	0	244318208	53	5680
2026-01-18 00:21:44.00	5.88	19.37	-41.4	-45.1	12.6	7.32e-05	0	59	0	245366784	53	5834
2026-01-18 00:21:45.00	5.81	19.50	-41.4	-44.9	12.9	6.17e-05	0	59	0	247463936	53	5711
2026-01-18 00:21:46.01	5.73	19.62	-41.3	-44.9	12.9	4.34e-05	0	59	0	249561088	53	5699
2026-01-18 00:21:47.02	5.66	19.74	-41.3	-44.7	13.0	4.57e-05	0	59	0	251658240	53	5589
2026-01-18 00:21:48.03	5.58	19.87	-41.4	-45.0	12.8	4.95e-05	0	59	0	253755392	53	5728
2026-01-18 00:21:49.04	5.50	19.99	-41.3	-44.9	12.9	4.65e-05	0	59	0	254803968	53	5658
2026-01-18 00:21:50.05	5.42	20.12	-41.3	-44.8	13.0	3.96e-05	0	59	0	256901120	53	5643
2026-01-18 00:21:51.06	5.34	20.24	-41.4	-45.0	12.8	5.87e-05	0	59	0	258998272	53	5734
2026-01-18 00:21:52.07	5.26	20.37	-41.4	-44.9	12.9	6.17e-05	0	59	0	261095424	53	5680
2026-01-18 00:21:53.08	5.18	20.50	-41.4	-45.0	12.9	4.95e-05	0	59	0	263192576	53	5768
2026-01-18 00:21:54.09	5.10	20.62	-41.6	-45.3	12.6	7.24e-05	0	59	0	264241152	53	5968
2026-01-18 00:21:55.10	5.02	20.75	-41.6	-45.3	12.6	9.68e-05	0	59	0	266338304	53	5931
2026-01-18 00:21:56.11	4.93	20.88	-41.6	-45.2	12.6	7.62e-05	0	59	0	268435456	53	5913
2026-01-18 00:21:57.12	4.85	21.01	-41.6	-45.4	12.4	1.36e-04	0	59	0	270532608	53	6018
2026-01-18 00:21:58.13	4.76	21.14	-41.7	-45.5	12.4	1.36e-04	0	59	0	272629760	53	6082
2026-01-18 00:21:59.14	4.68	21.27	-41.8	-45.7	12.1	2.46e-04	0	59	0	274726912	54	5900
2026-01-18 00:22:00.15	4.59	21.40	-41.8	-45.6	12.2	2.18e-04	0	59	0	275775488	54	5853
2026-01-18 00:22:01.16	4.51	21.53	-41.8	-45.7	12.1	3.25e-04	0	59	0	277872640	54	5901
2026-01-18 00:22:02.17	4.42	21.67	-41.8	-45.7	12.0	2.10e-04	0	59	0	279969792	54	5921
2026-01-18 00:22:03.17	4.33	21.80	-41.8	-45.7	12.2	2.48e-04	0	59	0	282066944	54	5858
2026-01-18 00:22:04.18	4.24	21.93	-41.8	-45.7	12.2	2.43e-04	0	59	0	284164096	54	5856
2026-01-18 00:22:05.19	4.15	22.07	-41.6	-45.2	12.7	2.00e-04	0	59	0	285212672	54	5564
2026-01-18 00:22:06.20	4.06	22.20	-41.7	-45.4	12.5	1.15e-04	0	59	0	287309824	54	5699
2026-01-18 00:22:07.21	3.97	22.34	-41.7	-45.5	12.5	1.32e-04	0	59	0	289406976	54	5753
2026-01-18 00:22:08.22	3.88	22.47	-41.6	-45.2	12.7	8.85e-05	0	59	0	291504128	54	5580
2026-01-18 00:22:09.23	3.78	22.61	-41.7	-45.4	12.5	9.53e-05	0	59	0	293601280	54	5680
2026-01-18 00:22:10.24	3.69	22.75	-41.6	-45.1	12.8	9.76e-05	0	59	0	294649856	54	5525
2026-01-18 00:22:11.25	3.59	22.89	-41.6	-45.2	12.8	7.62e-05	0	59	0	296747008	54	5532
2026-01-18 00:22:12.26	3.50	23.03	-41.8	-45.6	12.3	9.91e-05	0	59	0	298844160	54	5820
2026-01-18 00:22:13.27	3.40	23.17	-41.7	-45.4	12.5	1.52e-04	0	59	0	300941312	54	5705
2026-01-18 00:22:14.28	3.30	23.31	-41.8	-45.6	12.4	1.85e-04	0	59	0	303038464	54	5794
2026-01-18 00:22:15.29	3.20	23.45	-41.9	-45.9	12.1	2.01e-04	0	59	0	304087040	54	6018
2026-01-18 00:22:16.30	3.11	23.59	-42.0	-46.1	11.8	2.87e-04	0	60	0	306184192	54	6155
2026-01-18 00:22:17.31	3.00	23.73	-42.0	-46.1	11.8	3.48e-04	0	59	0	308281344	54	6145
2026-01-18 00:22:18.32	2.90	23.87	-42.0	-46.0	11.9	4.34e-04	0	59	0	310378496	54	6112
2026-01-18 00:22:19.32	2.80	24.02	-42.2	-46.5	11.4	7.43e-04	0	59	0	312475648	55	6111
2026-01-18 00:22:20.33	2.70	24.16	-42.2	-46.4	11.5	9.85e-04	0	59	0	313524224	55	6018
2026-01-18 00:22:21.34	2.59	24.31	-42.2	-46.5	11.5	8.59e-04	0	59	0	315621376	55	6066
2026-01-18 00:22:22.35	2.49	24.45	-42.4	-46.8	11.2	1.34e-03	0	59	0	317718528	55	6278
2026-01-18 00:22:23.36	2.38	24.60	-42.4	-46.7	11.2	1.65e-03	0	59	0	319815680	55	6268
2026-01-18 00:22:24.37	2.27	24.74	-42.4	-46.9	11.0	1.21e-03	0	59	0	321912832	55	6387
2026-01-18 00:22:25.38	2.17	24.89	-42.4	-46.9	11.1	2.05e-03	0	59	0	322961408	55	6357
2026-01-18 00:22:26.39	2.06	25.04	-42.3	-46.5	11.4	1.88e-03	0	59	0	325058560	55	6119
2026-01-18 00:22:27.40	1.95	25.19	-42.4	-46.9	11.1	1.78e-03	0	59	0	327155712	55	6352
2026-01-18 00:22:28.41	1.83	25.34	-42.4	-46.7	11.2	1.65e-03	0	59	0	329252864	55	6265
2026-01-18 00:22:29.41	1.72	25.49	-42.3	-46.6	11.3	9.45e-04	0	60	0	331350016	55	6186
2026-01-18 00:22:30.42	1.61	25.64	-42.3	-46.6	11.4	1.06e-03	0	59	0	332398592	55	6178
2026-01-18 00:22:31.43	1.49	25.79	-42.4	-46.7	11.2	1.11e-03	0	59	0	334495744	55	6254
2026-01-18 00:22:32.44	1.38	25.95	-42.3	-46.5	11.4	8.90e-04	0	59	0	336592896	55	6078
2026-01-18 00:22:33.45	1.26	26.10	-42.4	-46.8	11.2	8.11e-04	0	59	0	338690048	55	6281
2026-01-18 00:22:34.47	1.14	26.26	-42.2	-46.3	11.7	1.09e-03	0	60	0	340787200	55	5952
2026-01-18 00:22:35.48	1.02	26.41	-42.3	-46.5	11.4	1.11e-03	0	60	0	342884352	55	6123
2026-01-18 00:22:36.49	0.90	26.57	-42.4	-46.7	11.4	9.51e-04	0	60	0	343932928	55	6209
2026-01-18 00:22:37.50	0.78	26.72	-42.5	-47.0	10.9	1.03e-03	0	59	0	346030080	55	6492
2026-01-18 00:22:38.51	0.65	26.88	-42.5	-47.0	11.0	1.89e-03	0	60	0	348127232	55	6448
2026-01-18 00:22:39.52	0.53	27.04	-42.5	-47.1	11.0	1.65e-03	0	59	0	350224384	55	6515
2026-01-18 00:22:40.52	0.40	27.20	-42.7	-47.4	10.5	2.30e-03	0	60	0	352321536	55	6798
2026-01-18 00:22:41.54	0.28	27.36	-42.7	-47.4	10.6	3.46e-03	0	60	0	353370112	55	6730
2026-01-18 00:22:42.55	0.15	27.52	-42.4	-46.8	11.2	2.03e-03	0	59	0	355467264	55	6294
2026-01-18 00:22:43.55	0.02	27.68	-42.8	-47.4	10.8	3.07e-03	0	60	0	357564416	56	6353
2026-01-18 00:22:44.57	359.89	27.84	-42.8	-47.5	10.6	3.05e-03	0	59	0	359661568	56	6467
2026-01-18 00:22:45.57	359.75	28.01	-42.8	-47.3	10.8	1.58e-03	0	60	0	361758720	56	6316
2026-01-18 00:22:46.58	359.62	28.17	-42.7	-47.2	11.0	2.35e-03	0	60	0	362807296	56	6213
2026-01-18 00:22:47.59	359.49	28.33	-42.7	-47.2	11.0	2.42e-03	0	60	0	364904448	56	6212
2026-01-18 00:22:48.60	359.35	28.50	-42.8	-47.5	10.7	3.44e-03	0	59	0	367001600	56	6448
2026-01-18 00:22:49.61	359.21	28.67	-43.0	-47.9	10.4	3.60e-03	0	60	0	369098752	56	6731
2026-01-18 00:22:50.62	359.07	28.83	-43.0	-47.8	10.5	5.41e-03	0	60	0	371195904	56	6657
2026-01-18 00:22:51.63	358.93	29.00	-43.1	-48.2	10.0	7.15e-03	0	60	0	372244480	56	7028
2026-01-18 00:22:52.64	358.79	29.17	-43.3	-48.5	9.6	1.06e-02	0	60	0	374341632	57	6867
2026-01-18 00:22:53.65	358.64	29.34	-43.3	-48.6	9.5	5.71e-03	0	59	0	376438784	57	6886
2026-01-18 00:22:54.66	358.50	29.51	-43.3	-48.5	9.6	1.25e-02	0	60	0	378535936	57	6868
2026-01-18 00:22:55.66	358.35	29.68	-43.1	-48.0	10.2	1.26e-02	0	60	0	380633088	57	6430
2026-01-18 00:22:56.67	358.20	29.85	-43.2	-48.3	9.9	1.08e-02	0	60	0	381681664	57	6712
2026-01-18 00:22:57.68	358.05	30.02	-43.1	-48.1	10.0	6.65e-03	0	60	0	383778816	57	6541
2026-01-18 00:22:58.70	357.90	30.20	-42.9	-47.7	10.7	3.25e-03	0	60	0	385875968	57	6209
2026-01-18 00:22:59.70	357.74	30.37	-42.9	-47.6	10.6	4.14e-03	0	60	0	387973120	57	6167
2026-01-18 00:23:00.72	357.59	30.55	-42.8	-47.4	10.9	2.32e-03	0	60	0	390070272	57	6047
2026-01-18 00:23:01.73	357.43	30.72	-42.9	-47.6	10.7	2.23e-03	0	60	0	391118848	57	6140
2026-01-18 00:23:02.74	357.27	30.90	-42.9	-47.4	10.8	2.84e-03	0	60	0	393216000	57	6038
2026-01-18 00:23:03.75	357.11	31.08	-42.4	-46.5	11.8	1.56e-03	0	60	0	395313152	56	5751
2026-01-18 00:23:04.76	356.94	31.26	-42.7	-47.1	11.1	1.30e-03	0	60	0	397410304	56	6187
2026-01-18 00:23:05.77	356.78	31.44	-42.6	-46.8	11.4	1.19e-03	0	59	0	399507456	56	5973
2026-01-18 00:23:06.78	356.61	31.62	-42.5	-46.6	11.7	6.71e-04	0	60	0	400556032	56	5837
2026-01-18 00:23:07.79	356.44	31.80	-42.4	-46.5	11.8	5.87e-04	0	60	0	402653184	56	5728
2026-01-18 00:23:08.80	356.27	31.98	-42.5	-46.7	11.6	6.29e-04	0	60	0	404750336	56	5875
2026-01-18 00:23:09.81	356.10	32.16	-42.5	-46.7	11.7	3.03e-04	0	60	0	406847488	56	5863
2026-01-18 00:23:10.81	355.93	32.34	-42.7	-47.0	11.3	1.40e-03	0	60	0	408944640	56	6065
2026-01-18 00:23:11.82	355.75	32.53	-42.7	-47.0	11.3	2.37e-03	0	60	0	411041792	56	6064
2026-01-18 00:23:12.83	355.57	32.71	-43.1	-47.9	10.3	3.38e-03	0	60	0	412090368	56	6791
2026-01-18 00:23:13.84	355.39	32.90	-43.2	-48.3	9.9	5.93e-03	0	60	0	414187520	57	6708
2026-01-18 00:23:14.85	355.21	33.08	-43.3	-48.6	9.7	5.96e-03	0	60	0	416284672	57	6883
2026-01-18 00:23:15.86	355.02	33.27	-43.4	-48.7	9.5	1.49e-02	0	60	0	418381824	57	7031
2026-01-18 00:23:16.87	354.84	33.46	-43.6	-49.3	8.9	1.80e-02	0	60	0	420478976	57	7480
2026-01-18 00:23:17.88	354.65	33.65	-43.5	-48.9	9.3	1.98e-02	0	59	0	421527552	57	7196
2026-01-18 00:23:18.89	354.46	33.84	-43.4	-48.7	9.6	1.48e-02	0	60	0	423624704	57	6968
2026-01-18 00:23:19.90	354.26	34.03	-43.2	-48.1	10.1	1.40e-02	0	60	0	425721856	57	6543
2026-01-18 00:23:20.91	354.07	34.22	-43.3	-48.4	9.8	1.30e-02	0	60	0	427819008	57	6795
2026-01-18 00:23:21.92	353.87	34.41	-43.2	-48.2	10.0	8.93e-03	0	60	0	429916160	57	6635
2026-01-18 00:23:22.93	353.67	34.61	-43.4	-48.7	9.5	7.97e-03	0	60	0	430964736	57	7025
2026-01-18 00:23:23.94	353.46	34.80	-43.4	-48.8	9.5	1.25e-02	0	60	0	433061888	57	7055
2026-01-18 00:23:24.94	353.26	34.99	-43.5	-48.8	9.4	1.41e-02	0	60	0	435159040	57	7087
2026-01-18 00:23:25.95	353.05	35.19	-43.5	-48.9	9.3	1.18e-02	0	60	0	437256192	57	7165
2026-01-18 00:23:26.96	352.84	35.39	-43.3	-48.5	9.8	1.16e-02	0	60	0	439353344	57	6832
2026-01-18 00:23:27.97	352.63	35.58	-43.3	-48.6	9.7	1.55e-02	0	60	0	440401920	57	6894
2026-01-18 00:23:28.98	352.41	35.78	-43.6	-49.3	9.0	2.27e-02	0	60	0	442499072	57	7501
2026-01-18 00:23:29.99	352.19	35.98	-43.8	-49.9	8.3	3.62e-02	0	60	0	444596224	58	7592
2026-01-18 00:23:31.00	351.97	36.18	-44.1	-50.9	7.4	6.59e-02	0	60	0	446693376	58	8495
2026-01-18 00:23:32.01	351.74	36.38	-44.3	-52.0	6.3	1.45e-01	0	60	0	448790528	59	9149
2026-01-18 00:23:33.02	351.52	36.58	-44.1	-51.1	7.1	1.84e-01	0	60	0	449839104	59	8259
2026-01-18 00:23:34.03	351.29	36.78	-44.2	-51.7	6.7	2.18e-01	0	60	0	451936256	59	8766
2026-01-18 00:23:35.04	351.05	36.98	-44.2	-51.4	6.9	1.81e-01	0	60	0	454033408	59	8509
2026-01-18 00:23:36.05	350.82	37.19	-43.9	-50.3	8.0	1.30e-01	0	60	0	456130560	59	7495
2026-01-18 00:23:37.06	350.58	37.39	-43.8	-49.6	8.7	4.72e-02	0	60	0	458227712	59	6939
2026-01-18 00:23:38.06	350.34	37.59	-43.5	-48.9	9.3	2.40e-02	0	60	0	459276288	59	6393
2026-01-18 00:23:39.08	350.09	37.80	-43.5	-48.7	9.5	1.11e-02	0	60	0	461373440	58	6624
2026-01-18 00:23:40.09	349.84	38.00	-43.4	-48.4	9.9	8.91e-03	0	60	0	463470592	58	6382
2026-01-18 00:23:41.09	349.59	38.21	-43.3	-48.2	10.1	7.23e-03	0	60	0	465567744	58	6226
2026-01-18 00:23:42.10	349.34	38.42	-43.2	-48.1	10.2	7.90e-03	0	60	0	467664896	58	6171
2026-01-18 00:23:43.11	349.08	38.62	-43.3	-48.2	10.2	6.61e-03	0	60	0	468713472	58	6245
2026-01-18 00:23:44.12	348.82	38.83	-43.3	-48.2	10.1	9.83e-03	0	60	0	470810624	58	6251
2026-01-18 00:23:45.13	348.55	39.04	-43.2	-48.0	10.4	7.03e-03	0	60	0	472907776	58	6068
2026-01-18 00:23:46.14	348.29	39.25	-43.4	-48.6	9.9	7.34e-03	0	60	0	475004928	58	6520
2026-01-18 00:23:47.15	348.01	39.46	-43.6	-49.0	9.3	1.82e-02	0	60	0	477102080	58	6837
2026-01-18 00:23:48.16	347.74	39.67	-43.8	-49.6	8.7	3.39e-02	0	60	0	478150656	58	7337
2026-01-18 00:23:49.17	347.46	39.88	-44.3	-51.6	6.7	5.91e-02	0	60	0	480247808	59	8718
2026-01-18 00:23:50.18	347.18	40.09	-44.1	-50.8	7.5	8.23e-02	0	60	0	482344960	59	7919
2026-01-18 00:23:51.19	346.89	40.30	-44.2	-51.1	7.1	1.28e-01	0	60	0	484442112	59	8252
2026-01-18 00:23:52.20	346.60	40.51	-44.2	-51.2	7.1	2.17e-01	0	60	0	486539264	59	8307
2026-01-18 00:23:53.21	346.31	40.73	-44.4	-52.1	6.3	2.16e-01	0	60	0	487587840	59	9202
2026-01-18 00:23:54.22	346.01	40.94	-44.4	-52.2	6.2	3.00e-01	0	60	0	489684992	59	9354
2026-01-18 00:23:55.22	345.71	41.15	-44.5	-52.8	5.8	3.28e-01	0	60	0	491782144	59	10039
2026-01-18 00:23:56.23	345.40	41.37	-44.6	-53.3	5.5	4.59e-01	0	60	0	493879296	59	10619
2026-01-18 00:23:57.24	345.09	41.58	-44.4	-52.1	6.4	3.61e-01	0	60	0	495976448	59	9180
2026-01-18 00:23:58.25	344.78	41.79	-44.2	-50.9	7.4	2.27e-01	0	60	0	497025024	59	8078
2026-01-18 00:23:59.26	344.46	42.01	-44.3	-51.4	7.0	1.77e-01	0	60	0	499122176	59	8516
2026-01-18 00:24:00.27	344.14	42.22	-44.2	-50.9	7.3	1.16e-01	0	60	0	501219328	59	8066
2026-01-18 00:24:01.28	343.81	42.44	-44.1	-50.7	7.6	9.64e-02	0	60	0	503316480	59	7835
2026-01-18 00:24:02.29	343.48	42.65	-43.8	-49.8	8.4	7.44e-02	0	60	0	505413632	59	7077
2026-01-18 00:24:03.30	343.14	42.87	-43.6	-48.9	9.4	2.64e-02	0	60	0	507510784	59	6412
2026-01-18 00:24:04.31	342.80	43.08	-43.3	-48.3	10.1	9.82e-03	0	60	0	508559360	58	6301
2026-01-18 00:24:05.32	342.45	43.30	-43.3	-48.3	10.1	9.77e-03	0	60	0	510656512	58	6290
2026-01-18 00:24:06.33	342.10	43.51	-43.2	-48.0	10.4	5.70e-03	0	60	0	512753664	58	6127
2026-01-18 00:24:07.34	341.75	43.73	-43.3	-48.3	10.1	5.60e-03	0	60	0	514850816	58	6282
2026-01-18 00:24:08.35	341.39	43.95	-43.4	-48.5	9.9	7.32e-03	0	60	0	516947968	58	6456
2026-01-18 00:24:09.36	341.02	44.16	-43.3	-48.2	10.2	5.83e-03	0	60	0	517996544	58	6206
2026-01-18 00:24:10.37	340.65	44.38	-43.4	-48.5	10.0	9.56e-03	0	60	0	520093696	58	6439
2026-01-18 00:24:11.38	340.28	44.59	-43.5	-48.7	9.7	1.33e-02	0	60	0	522190848	58	6615
2026-01-18 00:24:12.39	339.90	44.81	-43.6	-49.0	9.3	1.75e-02	0	60	0	524288000	58	6860
2026-01-18 00:24:13.39	339.52	45.02	-43.7	-49.2	9.2	2.32e-02	0	60	0	526385152	58	6966
2026-01-18 00:24:14.40	339.13	45.23	-43.5	-48.7	9.6	1.72e-02	0	60	0	527433728	58	6618
2026-01-18 00:24:15.41	338.73	45.45	-43.6	-48.9	9.6	1.02e-02	0	60	0	529530880	58	6731
2026-01-18 00:24:16.42	338.33	45.66	-43.4	-48.3	10.0	1.04e-02	0	60	0	531628032	58	6341
2026-01-18 00:24:17.43	337.92	45.87	-43.3	-48.1	10.3	6.27e-03	0	60	0	533725184	58	6174
2026-01-18 00:24:18.44	337.51	46.09	-43.3	-48.0	10.4	5.51e-03	0	60	0	535822336	58	6095
2026-01-18 00:24:19.45	337.09	46.30	-42.9	-47.2	11.2	2.00e-03	0	60	0	536870912	57	5865
2026-01-18 00:24:20.46	336.67	46.51	-42.9	-47.2	11.3	1.46e-03	0	60	0	538968064	57	5863
2026-01-18 00:24:21.47	336.24	46.72	-43.1	-47.5	10.8	1.78e-03	0	60	0	541065216	57	6119
2026-01-18 00:24:22.48	335.80	46.93	-43.3	-48.1	10.3	3.95e-03	0	60	0	543162368	57	6509
2026-01-18 00:24:23.49	335.36	47.14	-43.4	-48.3	10.2	7.87e-03	0	60	0	545259520	57	6670
2026-01-18 00:24:24.50	334.92	47.35	-43.1	-47.5	11.0	3.34e-03	0	60	0	546308096	57	6127
2026-01-18 00:24:25.50	334.47	47.55	-42.7	-46.6	11.9	9.63e-04	0	60	0	548405248	57	5509
2026-01-18 00:24:26.52	334.00	47.76	-42.2	-45.8	12.6	2.37e-04	0	60	0	550502400	56	5298
2026-01-18 00:24:27.52	333.54	47.96	-42.4	-46.2	12.3	1.55e-04	0	60	0	552599552	56	5571
2026-01-18 00:24:28.53	333.07	48.17	-42.7	-46.9	11.5	3.27e-04	0	60	0	554696704	56	6010
2026-01-18 00:24:29.54	332.59	48.37	-43.1	-47.7	10.7	2.46e-03	0	60	0	555745280	56	6593
2026-01-18 00:24:30.55	332.11	48.57	-43.2	-48.0	10.5	3.95e-03	0	60	0	557842432	57	6443
2026-01-18 00:24:31.56	331.62	48.77	-43.2	-47.9	10.2	3.53e-03	0	60	0	559939584	57	6393
2026-01-18 00:24:32.57	331.12	48.97	-43.3	-48.2	10.3	6.00e-03	0	60	0	562036736	57	6573
2026-01-18 00:24:33.58	330.61	49.17	-43.1	-47.8	10.7	4.68e-03	0	60	0	564133888	57	6291
2026-01-18 00:24:34.59	330.10	49.37	-43.4	-48.4	9.9	4.98e-03	0	60	0	565182464	57	6770
2026-01-18 00:24:35.60	329.59	49.56	-43.3	-48.2	10.2	8.54e-03	0	60	0	567279616	57	6612
2026-01-18 00:24:36.61	329.06	49.75	-43.3	-48.2	10.2	9.02e-03	0	60	0	569376768	57	6576
2026-01-18 00:24:37.62	328.53	49.95	-42.6	-46.5	11.7	2.65e-03	0	60	0	571473920	57	5457
2026-01-18 00:24:38.63	328.00	50.14	-42.2	-45.8	12.7	1.94e-04	0	60	0	573571072	56	5289
2026-01-18 00:24:39.64	327.45	50.32	-41.9	-45.3	13.0	2.44e-05	0	60	0	575668224	55	5317
2026-01-18 00:24:40.65	326.90	50.51	-42.0	-45.4	13.0	2.28e-05	0	60	0	576716800	55	5379
2026-01-18 00:24:41.66	326.34	50.69	-42.1	-45.7	12.6	9.07e-05	0	60	0	578813952	55	5574
2026-01-18 00:24:42.67	325.78	50.87	-42.0	-45.6	12.8	5.26e-05	0	60	0	580911104	55	5474
2026-01-18 00:24:43.67	325.21	51.05	-42.0	-45.5	12.8	5.72e-05	0	60	0	583008256	55	5456
2026-01-18 00:24:44.68	324.64	51.22	-41.9	-45.2	13.0	4.19e-05	0	60	0	585105408	55	5276
2026-01-18 00:24:45.69	324.05	51.40	-42.1	-45.7	12.6	6.33e-05	0	60	0	586153984	55	5562
2026-01-18 00:24:46.70	323.46	51.57	-42.4	-46.3	11.9	2.31e-04	0	60	0	588251136	55	5957
2026-01-18 00:24:47.71	322.86	51.74	-42.7	-47.0	11.3	5.87e-04	0	60	0	590348288	55	6434
2026-01-18 00:24:48.72	322.26	51.90	-42.6	-46.7	11.6	5.61e-04	0	60	0	592445440	55	6265
2026-01-18 00:24:49.73	321.64	52.07	-42.4	-46.4	11.9	6.12e-04	0	60	0	594542592	55	6006
2026-01-18 00:24:50.74	321.02	52.23	-42.4	-46.2	12.0	6.51e-04	0	60	0	595591168	55	5923
2026-01-18 00:24:51.75	320.40	52.39	-42.3	-46.1	12.1	2.87e-04	0	60	0	597688320	55	5829
2026-01-18 00:24:52.76	319.77	52.54	-42.3	-46.2	12.1	3.02e-04	0	60	0	599785472	55	5867
2026-01-18 00:24:53.77	319.13	52.69	-42.6	-46.7	11.5	3.43e-04	0	60	0	601882624	55	6239
2026-01-18 00:24:54.78	318.48	52.84	-42.8	-47.1	11.2	1.64e-03	0	60	0	603979776	56	6176
2026-01-18 00:24:55.79	317.83	52.98	-42.7	-46.8	11.6	6.87e-04	0	60	0	605028352	56	5992
2026-01-18 00:24:56.80	317.17	53.12	-42.3	-46.0	12.4	3.21e-04	0	60	0	607125504	56	5458
2026-01-18 00:24:57.80	316.51	53.26	-42.3	-45.9	12.5	1.47e-04	0	60	0	609222656	56	5370
2026-01-18 00:24:58.81	315.84	53.39	-41.5	-44.6	13.6	1.22e-05	0	60	0	611319808	55	4915
2026-01-18 00:24:59.82	315.17	53.52	-41.3	-44.2	14.1	3.00e-06	0	60	0	613416960	54	4978
2026-01-18 00:25:00.83	314.48	53.65	-41.9	-45.3	13.1	3.00e-06	0	60	0	614465536	54	5635
2026-01-18 00:25:01.84	313.79	53.77	-42.1	-45.8	12.6	5.18e-05	0	60	0	616562688	54	5954
2026-01-18 00:25:02.85	313.10	53.89	-42.5	-46.6	11.7	2.39e-04	0	60	0	618659840	55	6142
2026-01-18 00:25:03.86	312.40	54.01	-42.5	-46.5	11.7	4.55e-04	0	60	0	620756992	55	6091
2026-01-18 00:25:04.87	311.69	54.12	-42.5	-46.5	11.7	3.07e-04	0	60	0	622854144	55	6112
2026-01-18 00:25:05.88	310.98	54.22	-42.6	-46.8	11.5	5.53e-04	0	60	0	623902720	55	6288
2026-01-18 00:25:06.89	310.26	54.33	-42.1	-45.8	12.4	5.25e-04	0	60	0	625999872	55	5639
2026-01-18 00:25:07.90	309.54	54.42	-41.7	-44.9	13.3	1.83e-05	0	60	0	628097024	55	5081
2026-01-18 00:25:08.90	308.82	54.52	-41.8	-45.1	13.0	1.52e-05	0	60	0	630194176	55	5215
2026-01-18 00:25:09.91	308.09	54.60	-42.1	-45.6	12.5	6.25e-05	0	60	0	632291328	55	5519
2026-01-18 00:25:10.92	307.36	54.69	-41.9	-45.3	12.9	6.40e-05	0	60	0	633339904	55	5293
2026-01-18 00:25:11.93	306.62	54.77	-41.9	-45.3	13.0	7.24e-05	0	60	0	635437056	55	5326
2026-01-18 00:25:12.94	305.87	54.84	-41.9	-45.4	12.9	6.40e-05	0	60	0	637534208	55	5396
2026-01-18 00:25:13.95	305.12	54.91	-41.7	-45.1	13.2	2.97e-05	0	60	0	639631360	55	5171
2026-01-18 00:25:14.96	304.37	54.98	-41.3	-44.3	14.0	5.30e-06	0	60	0	641728512	54	4992
2026-01-18 00:25:15.97	303.62	55.04	-40.8	-43.5	14.7	1.50e-06	0	60	0	643825664	53	4861
2026-01-18 00:25:16.98	302.86	55.10	-40.4	-42.9	15.3	0.00e+00	0	60	0	644874240	52	4795
2026-01-18 00:25:17.98	302.11	55.15	-40.4	-42.9	15.4	0.00e+00	0	60	0	646971392	52	4777
2026-01-18 00:25:18.99	301.34	55.19	-40.8	-43.6	14.7	0.00e+00	0	60	0	649068544	52	5185
2026-01-18 00:25:20.00	300.58	55.23	-40.9	-43.7	14.6	0.00e+00	0	60	0	651165696	52	5250
2026-01-18 00:25:21.01	299.81	55.27	-41.2	-44.2	14.0	7.00e-07	0	61	0	652214272	53	5265
2026-01-18 00:25:22.02	299.04	55.30	-41.3	-44.4	13.9	1.50e-06	0	61	0	654311424	53	5396
2026-01-18 00:25:23.03	298.27	55.32	-41.0	-43.9	14.3	3.00e-06	0	60	0	656408576	53	5086
2026-01-18 00:25:24.04	297.50	55.34	-40.4	-43.0	15.3	0.00e+00	0	60	0	658505728	52	4827
2026-01-18 00:25:25.05	296.72	55.36	-40.2	-42.5	15.8	0.00e+00	0	61	0	660602880	51	4870
2026-01-18 00:25:26.06	295.95	55.37	-40.3	-42.7	15.7	0.00e+00	0	60	0	661651456	51	4936
2026-01-18 00:25:27.06	295.18	55.37	-40.7	-43.3	15.0	0.00e+00	0	61	0	663748608	51	5339
2026-01-18 00:25:28.07	294.41	55.37	-41.0	-43.8	14.4	0.00e+00	0	61	0	665845760	52	5322
2026-01-18 00:25:29.09	293.62	55.37	-41.1	-44.1	14.2	2.20e-06	0	60	0	667942912	53	5171
2026-01-18 00:25:30.10	292.85	55.36	-40.7	-43.3	14.8	0.00e+00	0	60	0	670040064	53	4736
2026-01-18 00:25:31.10	292.08	55.34	-40.3	-42.8	15.5	0.00e+00	0	60	0	672137216	52	4727
2026-01-18 00:25:32.11	291.31	55.32	-40.5	-43.0	15.2	0.00e+00	0	61	0	673185792	52	4869
2026-01-18 00:25:33.12	290.54	55.30	-40.7	-43.4	14.9	0.00e+00	0	60	0	675282944	52	5071
2026-01-18 00:25:34.13	289.77	55.26	-40.9	-43.7	14.6	0.00e+00	0	61	0	677380096	52	5238
2026-01-18 00:25:35.14	289.00	55.23	-40.9	-43.8	14.5	7.00e-07	0	60	0	679477248	52	5280
2026-01-18 00:25:36.15	288.23	55.19	-41.0	-43.9	14.3	1.50e-06	0	60	0	681574400	52	5374
2026-01-18 00:25:37.16	287.47	55.14	-40.8	-43.6	14.7	7.00e-07	0	61	0	682622976	52	5185
2026-01-18 00:25:38.17	286.71	55.09	-40.9	-43.8	14.5	7.00e-07	0	61	0	684720128	52	5282
2026-01-18 00:25:39.18	285.95	55.03	-41.4	-44.6	13.8	4.50e-06	0	61	0	686817280	53	5474
2026-01-18 00:25:40.19	285.20	54.97	-41.3	-44.3	13.9	7.60e-06	0	60	0	688914432	53	5315
2026-01-18 00:25:41.20	284.45	54.91	-41.1	-44.0	14.3	1.50e-06	0	61	0	691011584	53	5114
2026-01-18 00:25:42.21	283.70	54.83	-40.6	-43.2	15.0	7.00e-07	0	60	0	692060160	53	4691
2026-01-18 00:25:43.22	282.95	54.76	-40.4	-43.0	15.3	0.00e+00	0	61	0	694157312	52	4840
2026-01-18 00:25:44.23	282.21	54.68	-40.2	-42.7	15.6	0.00e+00	0	61	0	696254464	52	4652
2026-01-18 00:25:45.23	281.48	54.59	-40.2	-42.7	15.6	0.00e+00	0	61	0	698351616	52	4666
2026-01-18 00:25:46.24	280.75	54.50	-40.3	-42.7	15.5	0.00e+00	0	61	0	700448768	52	4697
2026-01-18 00:25:47.25	280.03	54.41	-40.1	-42.4	15.8	0.00e+00	0	61	0	701497344	52	4520
2026-01-18 00:25:48.26	279.30	54.31	-40.2	-42.6	15.8	0.00e+00	0	60	0	703594496	51	4878
2026-01-18 00:25:49.27	278.59	54.21	-39.9	-42.2	16.2	0.00e+00	0	60	0	705691648	51	4701
2026-01-18 00:25:50.28	277.88	54.10	-39.7	-41.8	16.5	0.00e+00	0	60	0	707788800	51	4471
2026-01-18 00:25:51.29	277.17	53.99	-39.7	-41.9	16.4	0.00e+00	0	61	0	709885952	51	4537
2026-01-18 00:25:52.30	276.47	53.88	-39.9	-42.2	16.2	0.00e+00	0	60	0	710934528	51	4667
2026-01-18 00:25:53.31	275.77	53.76	-40.0	-42.3	16.1	0.00e+00	0	61	0	713031680	51	4706
2026-01-18 00:25:54.32	275.09	53.63	-39.9	-42.1	16.2	0.00e+00	0	60	0	715128832	51	4631
2026-01-18 00:25:55.33	274.40	53.51	-40.7	-43.3	15.0	0.00e+00	0	61	0	717225984	51	5320
2026-01-18 00:25:56.34	273.72	53.38	-40.7	-43.4	14.9	0.00e+00	0	60	0	719323136	52	5051
2026-01-18 00:25:57.35	273.05	53.24	-40.5	-43.1	15.2	0.00e+00	0	60	0	720371712	52	4875
2026-01-18 00:25:58.35	272.40	53.10	-40.2	-42.6	15.6	7.00e-07	0	60	0	722468864	52	4632
2026-01-18 00:25:59.37	271.73	52.96	-40.5	-43.1	15.2	0.00e+00	0	61	0	724566016	52	4904
2026-01-18 00:26:00.38	271.08	52.82	-41.1	-44.1	14.2	1.50e-06	0	60	0	726663168	52	5465
2026-01-18 00:26:01.39	270.43	52.67	-41.7	-45.1	13.1	9.10e-06	0	60	0	728760320	53	5825
2026-01-18 00:26:02.39	269.80	52.52	-41.8	-45.1	13.1	2.05e-05	0	61	0	729808896	54	5512
2026-01-18 00:26:03.40	269.17	52.36	-41.7	-45.1	13.2	2.05e-05	0	61	0	731906048	54	5479
2026-01-18 00:26:04.41	268.54	52.20	-41.8	-45.3	13.0	4.04e-05	0	61	0	734003200	54	5606
2026-01-18 00:26:05.42	267.92	52.04	-41.8	-45.3	12.9	5.64e-05	0	60	0	736100352	54	5594
2026-01-18 00:26:06.43	267.31	51.88	-41.8	-45.1	13.2	2.36e-05	0	61	0	738197504	54	5495
2026-01-18 00:26:07.44	266.71	51.71	-42.4	-46.3	12.0	1.53e-04	0	60	0	740294656	55	5929
2026-01-18 00:26:08.45	266.11	51.54	-42.5	-46.6	11.6	4.30e-04	0	60	0	741343232	55	6202
2026-01-18 00:26:09.46	265.52	51.37	-42.5	-46.6	11.5	6.23e-04	0	60	0	743440384	55	6196
2026-01-18 00:26:10.47	264.93	51.20	-42.9	-47.3	11.1	1.62e-03	0	60	0	745537536	56	6345
2026-01-18 00:26:11.48	264.35	51.02	-42.9	-47.2	11.1	1.82e-03	0	61	0	747634688	56	6239
2026-01-18 00:26:12.49	263.78	50.84	-42.7	-46.8	11.6	1.41e-03	0	60	0	749731840	56	5965
2026-01-18 00:26:13.50	263.22	50.66	-42.5	-46.4	12.0	2.75e-04	0	61	0	750780416	56	5672
2026-01-18 00:26:14.51	262.66	50.47	-42.3	-46.0	12.4	2.74e-04	0	61	0	752877568	56	5428
2026-01-18 00:26:15.52	262.11	50.29	-42.4	-46.1	12.0	2.64e-04	0	61	0	754974720	56	5486
2026-01-18 00:26:16.53	261.56	50.10	-42.7	-46.8	11.5	7.35e-04	0	61	0	757071872	56	5985
2026-01-18 00:26:17.54	261.03	49.91	-42.9	-47.4	10.9	1.73e-03	0	61	0	759169024	56	6386
2026-01-18 00:26:18.55	260.50	49.72	-42.4	-46.2	12.2	1.27e-03	0	61	0	760217600	56	5544
2026-01-18 00:26:19.56	259.97	49.52	-42.3	-46.0	12.4	2.35e-04	0	61	0	762314752	56	5451
2026-01-18 00:26:20.57	259.46	49.33	-42.2	-45.9	12.5	1.25e-04	0	60	0	764411904	56	5369
2026-01-18 00:26:21.58	258.94	49.13	-42.3	-46.0	12.3	2.84e-04	0	61	0	766509056	56	5437
2026-01-18 00:26:22.59	258.44	48.93	-42.3	-45.9	12.4	1.31e-04	0	61	0	768606208	56	5387
2026-01-18 00:26:23.60	257.94	48.73	-42.4	-46.1	12.1	2.50e-04	0	60	0	769654784	56	5518
2026-01-18 00:26:24.61	257.45	48.53	-42.7	-46.8	11.5	3.39e-04	0	61	0	771751936	56	5954
2026-01-18 00:26:25.62	256.97	48.33	-42.9	-47.3	11.1	8.28e-04	0	61	0	773849088	56	6284
2026-01-18 00:26:26.63	256.49	48.13	-43.2	-47.9	10.4	3.12e-03	0	61	0	775946240	56	6789
2026-01-18 00:26:27.64	256.02	47.92	-42.9	-47.3	11.1	2.86e-03	0	60	0	778043392	56	6289
2026-01-18 00:26:28.64	255.56	47.72	-42.5	-46.5	11.8	6.33e-04	0	61	0	779091968	56	5747
2026-01-18 00:26:29.65	255.10	47.51	-42.5	-46.4	12.0	1.89e-04	0	60	0	781189120	56	5690
2026-01-18 00:26:30.66	254.64	47.30	-42.7	-46.9	11.4	4.97e-04	0	60	0	783286272	56	6059
2026-01-18 00:26:31.67	254.19	47.09	-43.1	-47.7	10.6	1.38e-03	0	61	0	785383424	56	6619
2026-01-18 00:26:32.68	253.75	46.88	-43.6	-49.2	9.1	1.20e-02	0	60	0	787480576	57	7457
2026-01-18 00:26:33.69	253.32	46.67	-44.3	-51.6	6.7	1.26e-01	0	61	0	788529152	59	8703
2026-01-18 00:26:34.70	252.89	46.46	-44.6	-53.2	5.5	3.22e-01	0	60	0	790626304	59	10514
2026-01-18 00:26:35.71	252.46	46.25	-44.3	-51.3	6.9	2.82e-01	0	60	0	792723456	59	8435
2026-01-18 00:26:36.72	252.05	46.04	-44.3	-51.7	6.6	1.83e-01	0	61	0	794820608	59	8794
2026-01-18 00:26:37.73	251.63	45.82	-44.3	-51.5	6.8	2.23e-01	0	61	0	796917760	59	8638
2026-01-18 00:26:38.74	251.23	45.61	-44.2	-51.2	7.1	2.52e-01	0	61	0	797966336	59	8344
2026-01-18 00:26:39.75	250.82	45.39	-44.0	-50.4	7.8	8.99e-02	0	61	0	800063488	59	7566
2026-01-18 00:26:40.76	250.43	45.18	-43.6	-49.2	9.1	4.77e-02	0	60	0	802160640	59	6573
2026-01-18 00:26:41.77	250.04	44.96	-43.4	-48.5	9.8	1.80e-02	0	61	0	804257792	58	6426
2026-01-18 00:26:42.79	249.65	44.75	-43.3	-48.2	10.1	1.12e-02	0	61	0	806354944	58	6249
2026-01-18 00:26:43.80	249.27	44.53	-42.9	-47.3	11.0	3.77e-03	0	60	0	808452096	57	5952
2026-01-18 00:26:44.81	248.89	44.31	-42.7	-46.8	11.4	2.74e-03	0	61	0	809500672	57	5620
2026-01-18 00:26:45.82	248.52	44.10	-42.3	-45.9	12.5	1.84e-04	0	61	0	811597824	56	5391
2026-01-18 00:26:46.83	248.16	43.88	-42.2	-45.8	12.5	8.08e-05	0	61	0	813694976	56	5314
2026-01-18 00:26:47.83	247.80	43.67	-42.5	-46.4	11.9	1.81e-04	0	60	0	815792128	56	5684
2026-01-18 00:26:48.84	247.45	43.45	-42.6	-46.5	11.8	6.10e-04	0	60	0	817889280	56	5775
2026-01-18 00:26:49.86	247.09	43.23	-43.2	-47.9	10.5	2.19e-03	0	61	0	818937856	56	6750
2026-01-18 00:26:50.86	246.75	43.02	-43.3	-48.3	9.8	7.32e-03	0	61	0	821035008	57	6707
2026-01-18 00:26:51.88	246.41	42.80	-43.2	-48.0	10.2	7.88e-03	0	60	0	823132160	57	6450
2026-01-18 00:26:52.89	246.07	42.59	-43.1	-47.7	10.4	4.66e-03	0	61	0	825229312	57	6230
2026-01-18 00:26:53.90	245.74	42.37	-43.3	-48.3	9.9	6.48e-03	0	61	0	827326464	57	6696
2026-01-18 00:26:54.91	245.41	42.15	-43.8	-49.6	8.5	2.23e-02	0	61	0	828375040	58	7357
2026-01-18 00:26:55.91	245.09	41.94	-43.6	-49.1	9.0	5.84e-02	0	61	0	830472192	58	6943
2026-01-18 00:26:56.93	244.77	41.72	-43.6	-49.0	9.3	2.22e-02	0	60	0	832569344	58	6818
2026-01-18 00:26:57.94	244.45	41.51	-43.6	-49.2	9.1	2.20e-02	0	61	0	834666496	58	7008
2026-01-18 00:26:58.95	244.14	41.29	-43.8	-49.9	8.2	3.52e-02	0	61	0	836763648	58	7601
2026-01-18 00:26:59.96	243.84	41.08	-43.7	-49.5	8.6	3.33e-02	0	61	0	837812224	58	7276
2026-01-18 00:27:00.97	243.53	40.86	-43.6	-49.2	9.0	3.94e-02	0	60	0	839909376	58	7013
2026-01-18 00:27:01.98	243.24	40.65	-43.5	-48.9	9.3	2.39e-02	0	61	0	842006528	58	6780
2026-01-18 00:27:02.99	242.94	40.44	-43.7	-49.5	8.7	2.47e-02	0	61	0	844103680	58	7277
2026-01-18 00:27:04.00	242.65	40.22	-43.7	-49.6	8.6	3.71e-02	0	61	0	846200832	58	7291
2026-01-18 00:27:05.01	242.36	40.01	-43.9	-50.2	8.0	6.34e-02	0	60	0	847249408	58	7845
2026-01-18 00:27:06.02	242.08	39.80	-43.9	-50.0	8.2	4.39e-02	0	61	0	849346560	58	7646
2026-01-18 00:27:07.03	241.80	39.59	-43.6	-49.3	9.0	3.28e-02	0	61	0	851443712	58	7069
2026-01-18 00:27:08.04	241.53	39.38	-43.6	-49.2	8.9	3.54e-02	0	61	0	853540864	58	7011
2026-01-18 00:27:09.05	241.25	39.17	-43.5	-49.0	9.0	2.79e-02	0	60	0	855638016	58	6851
2026-01-18 00:27:10.06	240.99	38.96	-43.3	-48.4	9.9	1.59e-02	0	61	0	856686592	58	6354
2026-01-18 00:27:11.07	240.72	38.75	-43.2	-48.1	10.2	7.21e-03	0	61	0	858783744	58	6165
2026-01-18 00:27:12.08	240.46	38.54	-43.3	-48.3	10.0	9.86e-03	0	61	0	860880896	58	6292
2026-01-18 00:27:13.09	240.20	38.33	-43.2	-48.2	10.1	6.75e-03	0	61	0	862978048	58	6218
2026-01-18 00:27:14.10	239.95	38.12	-43.4	-48.5	9.7	8.67e-03	0	61	0	865075200	58	6460
2026-01-18 00:27:15.11	239.69	37.92	-43.3	-48.5	9.8	7.92e-03	0	61	0	866123776	58	6433
2026-01-18 00:27:16.12	239.45	37.71	-43.2	-48.2	10.1	8.09e-03	0	61	0	868220928	58	6228
2026-01-18 00:27:17.13	239.20	37.51	-43.0	-47.6	10.7	6.14e-03	0	61	0	870318080	57	6183
2026-01-18 00:27:18.14	238.96	37.30	-43.1	-47.9	10.3	7.00e-03	0	61	0	872415232	57	6389
2026-01-18 00:27:19.15	238.72	37.10	-43.4	-48.7	9.6	7.88e-03	0	61	0	874512384	57	6964
2026-01-18 00:27:20.16	238.48	36.89	-43.6	-49.3	8.8	2.80e-02	0	60	0	875560960	57	7505
2026-01-18 00:27:21.17	238.25	36.69	-43.6	-49.2	9.0	2.33e-02	0	61	0	877658112	57	7398
2026-01-18 00:27:22.18	238.02	36.49	-43.6	-49.4	8.6	2.84e-02	0	60	0	879755264	57	7597
2026-01-18 00:27:23.19	237.79	36.29	-43.7	-49.4	8.7	3.43e-02	0	61	0	881852416	58	7193
2026-01-18 00:27:24.20	237.57	36.09	-43.8	-50.0	8.1	7.30e-02	0	61	0	883949568	58	7652
2026-01-18 00:27:25.21	237.35	35.89	-43.6	-49.3	8.8	4.25e-02	0	61	0	886046720	58	7071
2026-01-18 00:27:26.22	237.13	35.69	-43.4	-48.5	9.7	2.44e-02	0	60	0	887095296	58	6460
2026-01-18 00:27:27.23	236.91	35.49	-43.2	-48.1	10.1	1.07e-02	0	61	0	889192448	58	6132
2026-01-18 00:27:28.24	236.70	35.29	-43.2	-48.0	10.1	5.07e-03	0	61	0	891289600	58	6128
2026-01-18 00:27:29.25	236.48	35.09	-43.1	-47.8	10.4	3.36e-03	0	60	0	893386752	57	6342
2026-01-18 00:27:30.25	236.28	34.90	-43.1	-47.9	10.4	4.04e-03	0	61	0	895483904	57	6365
2026-01-18 00:27:31.26	236.07	34.70	-43.4	-48.5	9.7	8.18e-03	0	61	0	896532480	57	6873
2026-01-18 00:27:32.27	235.87	34.51	-43.6	-49.3	8.8	1.53e-02	0	61	0	898629632	57	7504
2026-01-18 00:27:33.29	235.66	34.31	-43.8	-49.8	8.3	4.77e-02	0	61	0	900726784	58	7495
2026-01-18 00:27:34.29	235.47	34.12	-44.0	-50.5	7.7	6.98e-02	0	61	0	902823936	58	8091
2026-01-18 00:27:35.31	235.27	33.93	-43.8	-49.8	8.3	6.68e-02	0	61	0	904921088	58	7504
2026-01-18 00:27:36.31	235.08	33.74	-43.4	-48.9	9.4	2.42e-02	0	61	0	905969664	58	6732
2026-01-18 00:27:37.32	234.88	33.55	-43.1	-47.8	10.4	7.74e-03	0	61	0	908066816	58	5943
2026-01-18 00:27:38.33	234.70	33.36	-43.2	-48.1	10.1	3.57e-03	0	61	0	910163968	58	6163
2026-01-18 00:27:39.34	234.51	33.17	-43.0	-47.7	10.6	5.62e-03	0	61	0	912261120	58	5872
2026-01-18 00:27:40.35	234.32	32.98	-43.1	-47.9	10.3	3.60e-03	0	61	0	914358272	57	6388
2026-01-18 00:27:41.36	234.14	32.79	-43.3	-48.4	9.8	7.82e-03	0	61	0	915406848	57	6726
2026-01-18 00:27:42.37	233.96	32.61	-43.4	-48.8	9.4	1.08e-02	0	61	0	917504000	57	7082
2026-01-18 00:27:43.38	233.78	32.42	-43.4	-48.8	9.4	1.24e-02	0	60	0	919601152	57	7049
2026-01-18 00:27:44.39	233.60	32.24	-43.2	-48.2	10.0	8.92e-03	0	61	0	921698304	57	6627
2026-01-18 00:27:45.40	233.43	32.05	-43.4	-48.7	9.4	1.65e-02	0	61	0	923795456	57	6993
2026-01-18 00:27:46.41	233.25	31.87	-43.4	-48.8	9.3	2.03e-02	0	61	0	924844032	57	7120
2026-01-18 00:27:47.42	233.08	31.69	-43.6	-49.4	8.7	3.50e-02	0	61	0	926941184	57	7574
2026-01-18 00:27:48.42	232.92	31.51	-43.6	-49.4	8.7	3.43e-02	0	61	0	929038336	57	7619
2026-01-18 00:27:49.43	232.75	31.33	-43.7	-49.7	8.3	3.91e-02	0	61	0	931135488	58	7404
2026-01-18 00:27:50.44	232.58	31.15	-43.5	-49.1	9.1	2.52e-02	0	61	0	933232640	58	6901
2026-01-18 00:27:51.45	232.42	30.97	-43.6	-49.3	8.9	2.53e-02	0	61	0	934281216	58	7086
2026-01-18 00:27:52.46	232.26	30.79	-43.7	-49.6	8.5	4.80e-02	0	61	0	936378368	58	7358
2026-01-18 00:27:53.47	232.10	30.61	-43.9	-50.3	7.9	7.10e-02	0	61	0	938475520	58	7938
2026-01-18 00:27:54.48	231.94	30.44	-43.9	-50.4	7.8	7.91e-02	0	61	0	940572672	58	7992
2026-01-18 00:27:55.49	231.78	30.26	-43.7	-49.8	8.3	6.10e-02	0	61	0	942669824	58	7517
2026-01-18 00:27:56.50	231.63	30.09	-43.6	-49.2	8.9	4.54e-02	0	61	0	943718400	58	7011
2026-01-18 00:27:57.51	231.48	29.91	-43.1	-47.9	10.3	7.78e-03	0	61	0	945815552	58	5999
2026-01-18 00:27:58.52	231.33	29.74	-42.8	-47.2	11.1	3.67e-03	0	61	0	947912704	57	5858
2026-01-18 00:27:59.53	231.18	29.57	-42.5	-46.5	11.8	7.92e-04	0	61	0	950009856	56	5736
2026-01-18 00:28:00.54	231.03	29.40	-42.2	-46.0	12.2	3.16e-04	0	61	0	952107008	56	5410
2026-01-18 00:28:01.54	230.88	29.23	-42.1	-45.8	12.4	1.23e-04	0	61	0	954204160	56	5310
2026-01-18 00:28:02.56	230.74	29.06	-42.3	-46.2	12.1	1.90e-04	0	61	0	955252736	56	5533
2026-01-18 00:28:03.57	230.59	28.89	-42.4	-46.3	11.9	3.54e-04	0	61	0	957349888	56	5649
2026-01-18 00:28:04.58	230.45	28.72	-42.5	-46.7	11.5	5.96e-04	0	61	0	959447040	56	5892
2026-01-18 00:28:05.58	230.31	28.55	-42.6	-46.9	11.3	1.31e-03	0	61	0	961544192	56	6015
2026-01-18 00:28:06.59	230.17	28.39	-42.8	-47.3	10.8	2.42e-03	0	61	0	963641344	56	6315
2026-01-18 00:28:07.60	230.04	28.22	-42.9	-47.5	10.7	3.90e-03	0	61	0	964689920	56	6424
2026-01-18 00:28:08.61	229.90	28.05	-43.2	-48.3	9.9	4.07e-03	0	61	0	966787072	56	7046
2026-01-18 00:28:09.62	229.77	27.89	-43.2	-48.4	9.7	1.05e-02	0	61	0	968884224	57	6747
2026-01-18 00:28:10.63	229.63	27.73	-43.3	-48.6	9.6	1.05e-02	0	61	0	970981376	57	6903
2026-01-18 00:28:11.64	229.50	27.56	-43.1	-48.1	10.0	1.25e-02	0	61	0	973078528	57	6540
2026-01-18 00:28:12.65	229.37	27.40	-43.0	-47.7	10.5	6.37e-03	0	61	0	974127104	57	6223
2026-01-18 00:28:13.66	229.24	27.24	-42.8	-47.2	10.9	2.73e-03	0	61	0	976224256	57	5910
2026-01-18 00:28:14.67	229.12	27.08	-42.6	-46.8	11.3	1.20e-03	0	61	0	978321408	57	5642
2026-01-18 00:28:15.68	228.99	26.92	-42.6	-46.9	11.3	7.22e-04	0	61	0	980418560	56	6028
2026-01-18 00:28:16.69	228.86	26.76	-42.4	-46.5	11.7	5.97e-04	0	61	0	982515712	56	5730
2026-01-18 00:28:17.69	228.74	26.61	-42.5	-46.7	11.5	7.32e-04	0	61	0	983564288	56	5895
2026-01-18 00:28:18.70	228.62	26.45	-42.6	-46.8	11.4	9.63e-04	0	61	0	985661440	56	5934
2026-01-18 00:28:19.72	228.50	26.29	-42.5	-46.7	11.5	9.08e-04	0	61	0	987758592	56	5877
2026-01-18 00:28:20.72	228.38	26.14	-42.4	-46.5	11.8	6.10e-04	0	61	0	989855744	56	5737
2026-01-18 00:28:21.73	228.26	25.98	-42.3	-46.3	11.9	4.28e-04	0	61	0	991952896	56	5627
2026-01-18 00:28:22.74	228.14	25.83	-42.3	-46.2	11.9	4.73e-04	0	61	0	993001472	56	5590
2026-01-18 00:28:23.75	228.02	25.67	-42.3	-46.1	12.0	2.90e-04	0	61	0	995098624	56	5525
2026-01-18 00:28:24.76	227.91	25.52	-42.4	-46.5	11.7	4.54e-04	0	61	0	997195776	56	5745
2026-01-18 00:28:25.77	227.79	25.37	-42.5	-46.7	11.5	6.44e-04	0	61	0	999292928	56	5893
2026-01-18 00:28:26.78	227.68	25.22	-42.7	-47.2	11.0	1.41e-03	0	61	0	1001390080	56	6208
2026-01-18 00:28:27.79	227.57	25.07	-42.8	-47.3	10.8	2.03e-03	0	61	0	1002438656	56	6329
2026-01-18 00:28:28.79	227.46	24.92	-42.7	-47.2	10.9	3.09e-03	0	61	0	1004535808	56	6255
2026-01-18 00:28:29.81	227.35	24.77	-42.8	-47.4	10.8	2.83e-03	0	61	0	1006632960	56	6361
2026-01-18 00:28:30.81	227.24	24.62	-42.7	-47.0	11.1	1.99e-03	0	61	0	1008730112	56	6129
2026-01-18 00:28:31.83	227.13	24.47	-42.6	-46.8	11.3	1.45e-03	0	61	0	1010827264	56	5991
2026-01-18 00:28:32.83	227.02	24.33	-42.4	-46.4	11.8	6.46e-04	0	61	0	1011875840	56	5691
2026-01-18 00:28:33.84	226.92	24.18	-42.4	-46.3	11.9	3.98e-04	0	61	0	1013972992	56	5650
2026-01-18 00:28:34.85	226.81	24.04	-42.2	-45.9	12.2	2.95e-04	0	61	0	1016070144	56	5396
2026-01-18 00:28:35.86	226.71	23.89	-42.2	-46.0	12.2	2.16e-04	0	61	0	1018167296	56	5407
2026-01-18 00:28:36.87	226.61	23.75	-42.3	-46.1	12.1	2.48e-04	0	61	0	1020264448	56	5509
2026-01-18 00:28:37.88	226.50	23.60	-42.2	-46.0	12.1	2.75e-04	0	61	0	1022361600	56	5451
2026-01-18 00:28:38.89	226.40	23.46	-42.1	-45.9	12.2	2.04e-04	0	61	0	1023410176	56	5365
2026-01-18 00:28:39.90	226.30	23.32	-42.1	-45.8	12.3	1.50e-04	0	61	0	1025507328	56	5331
2026-01-18 00:28:40.91	226.20	23.18	-42.0	-45.7	12.5	1.93e-04	0	61	0	1027604480	56	5231
2026-01-18 00:28:41.92	226.11	23.04	-41.8	-45.4	12.5	1.05e-04	0	61	0	1029701632	55	5398
2026-01-18 00:28:42.93	226.01	22.90	-41.8	-45.5	12.5	9.23e-05	0	61	0	1031798784	55	5418
2026-01-18 00:28:43.94	225.91	22.76	-41.9	-45.7	12.3	1.11e-04	0	61	0	1032847360	55	5537
2026-01-18 00:28:44.95	225.82	22.62	-42.0	-45.9	12.1	2.06e-04	0	61	0	1034944512	55	5667
2026-01-18 00:28:45.96	225.72	22.48	-42.2	-46.3	11.7	5.43e-04	0	61	0	1037041664	55	5924
2026-01-18 00:28:46.97	225.63	22.35	-42.4	-46.6	11.3	9.41e-04	0	60	0	1039138816	55	6193
2026-01-18 00:28:47.98	225.53	22.21	-42.5	-46.9	11.0	1.60e-03	0	61	0	1041235968	55	6414
2026-01-18 00:28:48.99	225.44	22.07	-42.8	-47.5	10.6	4.39e-03	0	61	0	1042284544	56	6464
2026-01-18 00:28:49.99	225.35	21.94	-42.9	-47.7	10.4	5.24e-03	0	61	0	1044381696	56	6613
2026-01-18 00:28:51.00	225.26	21.80	-43.0	-47.8	10.2	5.56e-03	0	61	0	1046478848	56	6702
2026-01-18 00:28:52.01	225.17	21.67	-42.9	-47.8	10.3	5.60e-03	0	61	0	1048576000	56	6678
2026-01-18 00:28:53.02	225.08	21.54	-42.8	-47.5	10.5	4.35e-03	0	61	0	1050673152	56	6492
2026-01-18 00:28:54.03	224.99	21.40	-42.6	-47.1	11.0	2.29e-03	0	61	0	1051721728	56	6142
2026-01-18 00:28:55.04	224.91	21.27	-42.5	-46.6	11.3	1.47e-03	0	61	0	1053818880	56	5850
2026-01-18 00:28:56.05	224.82	21.14	-42.6	-46.9	11.1	1.41e-03	0	61	0	1055916032	56	6036
2026-01-18 00:28:57.06	224.73	21.01	-42.4	-46.5	11.5	1.15e-03	0	61	0	1058013184	56	5779
2026-01-18 00:28:58.07	224.65	20.88	-42.5	-46.6	11.4	8.26e-04	0	61	0	1060110336	56	5854
2026-01-18 00:28:59.08	224.56	20.75	-42.6	-46.9	11.2	1.26e-03	0	61	0	1061158912	56	6017
2026-01-18 00:29:00.09	224.48	20.62	-42.6	-46.9	11.1	1.39e-03	0	61	0	1063256064	56	6011
2026-01-18 00:29:01.10	224.40	20.49	-42.7	-47.2	10.9	1.63e-03	0	61	0	1065353216	56	6205
2026-01-18 00:29:02.11	224.31	20.36	-42.7	-47.1	10.9	2.49e-03	0	61	0	1067450368	56	6189
2026-01-18 00:29:03.12	224.23	20.24	-42.8	-47.4	10.7	2.77e-03	0	61	0	1069547520	56	6352
2026-01-18 00:29:04.12	224.15	20.11	-42.7	-47.3	10.8	2.64e-03	0	61	0	1070596096	56	6298
2026-01-18 00:29:05.13	224.07	19.98	-42.7	-47.3	10.7	2.84e-03	0	61	0	1072693248	56	6319
2026-01-18 00:29:06.14	223.99	19.86	-42.7	-47.2	10.8	3.02e-03	0	61	0	1074790400	56	6249
2026-01-18 00:29:07.15	223.91	19.73	-42.6	-47.0	11.0	2.03e-03	0	61	0	1076887552	56	6117
2026-01-18 00:29:08.16	223.84	19.61	-42.6	-47.0	11.1	2.00e-03	0	61	0	1078984704	56	6073
2026-01-18 00:29:09.17	223.76	19.48	-42.3	-46.5	11.6	1.23e-03	0	61	0	1080033280	56	5730
2026-01-18 00:29:10.18	223.68	19.36	-42.4	-46.6	11.4	7.16e-04	0	61	0	1082130432	56	5828
2026-01-18 00:29:11.19	223.61	19.24	-42.4	-46.5	11.6	7.24e-04	0	61	0	1084227584	56	5746
2026-01-18 00:29:12.20	223.53	19.12	-42.2	-46.2	11.9	4.51e-04	0	61	0	1086324736	56	5549
2026-01-18 00:29:13.21	223.45	18.99	-42.1	-46.0	12.1	3.08e-04	0	61	0	1088421888	56	5434
2026-01-18 00:29:14.22	223.38	18.87	-42.1	-46.0	12.1	3.23e-04	0	61	0	1090519040	56	5435
2026-01-18 00:29:15.23	223.31	18.75	-42.0	-45.8	12.3	2.21e-04	0	61	0	1091567616	56	5284
2026-01-18 00:29:16.24	223.23	18.63	-41.8	-45.5	12.4	1.67e-04	0	61	0	1093664768	55	5432
2026-01-18 00:29:17.24	223.16	18.51	-41.8	-45.6	12.3	1.62e-04	0	61	0	1095761920	55	5478
2026-01-18 00:29:18.25	223.09	18.39	-41.8	-45.6	12.3	1.52e-04	0	61	0	1097859072	55	5475
2026-01-18 00:29:19.26	223.02	18.28	-41.7	-45.4	12.4	1.29e-04	0	61	0	1099956224	55	5382
2026-01-18 00:29:20.27	222.95	18.16	-41.9	-45.7	12.1	2.16e-04	0	61	0	1101004800	55	5590
2026-01-18 00:29:21.28	222.88	18.04	-41.8	-45.5	12.3	1.62e-04	0	61	0	1103101952	55	5450
2026-01-18 00:29:22.29	222.81	17.92	-41.9	-45.8	12.0	1.91e-04	0	61	0	1105199104	55	5650
2026-01-18 00:29:23.30	222.74	17.81	-41.9	-45.8	12.0	3.04e-04	0	61	0	1107296256	55	5625
2026-01-18 00:29:24.31	222.67	17.69	-41.9	-45.9	12.0	4.29e-04	0	61	0	1109393408	55	5658
2026-01-18 00:29:25.32	222.60	17.58	-42.0	-46.0	11.8	5.12e-04	0	61	0	1110441984	55	5770
2026-01-18 00:29:26.33	222.53	17.46	-42.2	-46.4	11.4	7.57e-04	0	61	0	1112539136	55	6060
2026-01-18 00:29:27.34	222.47	17.35	-42.3	-46.6	11.2	9.30e-04	0	61	0	1114636288	55	6164
2026-01-18 00:29:28.35	222.40	17.23	-42.3	-46.7	11.0	1.73e-03	0	61	0	1116733440	55	6257
2026-01-18 00:29:29.36	222.33	17.12	-42.5	-47.1	10.7	2.23e-03	0	61	0	1118830592	55	6506
2026-01-18 00:29:30.37	222.27	17.01	-42.5	-47.2	10.6	3.72e-03	0	61	0	1119879168	55	6585
2026-01-18 00:29:31.38	222.20	16.89	-42.7	-47.6	10.2	5.10e-03	0	61	0	1121976320	55	6916
2026-01-18 00:29:32.39	222.14	16.78	-42.9	-48.1	9.8	7.54e-03	0	61	0	1124073472	56	6885
2026-01-18 00:29:33.40	222.08	16.67	-42.9	-47.9	10.0	9.63e-03	0	61	0	1126170624	56	6770
2026-01-18 00:29:34.41	222.01	16.56	-43.0	-48.3	9.6	9.52e-03	0	61	0	1128267776	56	7096
2026-01-18 00:29:35.41	221.95	16.45	-43.1	-48.4	9.4	1.80e-02	0	61	0	1129316352	56	7158
2026-01-18 00:29:36.42	221.89	16.34	-43.1	-48.4	9.5	1.52e-02	0	61	0	1131413504	56	7154
2026-01-18 00:29:37.43	221.82	16.23	-43.2	-48.7	9.2	1.58e-02	0	61	0	1133510656	56	7387
2026-01-18 00:29:38.44	221.76	16.12	-43.1	-48.5	9.3	1.95e-02	0	61	0	1135607808	56	7216
2026-01-18 00:29:39.45	221.70	16.01	-43.0	-48.3	9.5	1.57e-02	0	61	0	1137704960	56	7096
2026-01-18 00:29:40.46	221.64	15.90	-42.9	-48.1	9.7	1.09e-02	0	61	0	1138753536	56	6899
2026-01-18 00:29:41.47	221.58	15.79	-43.0	-48.1	9.7	1.29e-02	0	61	0	1140850688	56	6921
2026-01-18 00:29:42.48	221.52	15.69	-42.9	-47.9	9.9	9.78e-03	0	61	0	1142947840	56	6769
2026-01-18 00:29:43.49	221.46	15.58	-42.8	-47.7	10.2	6.76e-03	0	61	0	1145044992	56	6590
2026-01-18 00:29:44.50	221.40	15.47	-42.8	-47.7	10.1	7.60e-03	0	61	0	1147142144	56	6623
2026-01-18 00:29:45.51	221.34	15.37	-42.8	-47.6	10.2	6.42e-03	0	61	0	1148190720	56	6561
2026-01-18 00:29:46.52	221.29	15.26	-42.7	-47.5	10.4	4.94e-03	0	61	0	1150287872	56	6444
2026-01-18 00:29:47.53	221.23	15.16	-42.7	-47.5	10.3	5.22e-03	0	61	0	1152385024	56	6433
2026-01-18 00:29:48.54	221.17	15.05	-42.7	-47.5	10.3	5.42e-03	0	61	0	1154482176	56	6481
2026-01-18 00:29:49.55	221.11	14.95	-42.7	-47.5	10.3	6.05e-03	0	61	0	1156579328	56	6439
2026-01-18 00:29:50.56	221.06	14.84	-42.7	-47.6	10.2	4.85e-03	0	61	0	1157627904	56	6527
2026-01-18 00:29:51.57	221.00	14.74	-42.7	-47.4	10.4	5.65e-03	0	61	0	1159725056	56	6400
2026-01-18 00:29:52.58	220.95	14.64	-42.8	-47.7	10.0	6.32e-03	0	61	0	1161822208	56	6628
2026-01-18 00:29:53.58	220.89	14.53	-42.6	-47.4	10.5	4.76e-03	0	61	0	1163919360	56	6377
2026-01-18 00:29:54.59	220.84	14.43	-42.7	-47.5	10.3	5.68e-03	0	60	0	1166016512	56	6456
2026-01-18 00:29:55.60	220.78	14.33	-42.8	-47.8	10.0	6.58e-03	0	61	0	1167065088	56	6654
2026-01-18 00:29:56.61	220.73	14.23	-42.8	-47.9	9.9	6.51e-03	0	61	0	1169162240	56	6763
2026-01-18 00:29:57.62	220.68	14.13	-42.8	-47.8	10.0	8.72e-03	0	61	0	1171259392	56	6692
2026-01-18 00:29:58.63	220.62	14.03	-42.9	-48.2	9.6	1.23e-02	0	61	0	1173356544	56	6969
2026-01-18 00:29:59.64	220.57	13.93	-42.8	-47.8	9.9	1.44e-02	0	61	0	1175453696	56	6698
2026-01-18 00:30:00.65	220.52	13.83	-43.0	-48.3	9.4	1.39e-02	0	61	0	1176502272	56	7118
2026-01-18 00:30:01.66	220.47	13.73	-43.0	-48.5	9.2	1.86e-02	0	61	0	1178599424	56	7251
2026-01-18 00:30:02.66	220.41	13.63	-43.0	-48.4	9.3	1.49e-02	0	61	0	1180696576	56	7132
