passes_logs/2026/01/18/R2.0S_Moscow/R2.0S_Moscow__20260118_084956_NOAA_20_JPSS-1_rec.log

#Pass ID: 20260118_084956_NOAA 20 (JPSS-1)
#Satellite: NOAA 20 (JPSS-1)
#Configuration: NOAA 20
#almurnet v.1.7.20251203
#Start time: 2026-01-18 08:49:56

#Version: 2.2.20231116
#Station: R2.0S_Moscow
#Location: 37.707566 lon 55.798166 lat
#TLE: 1 43013U 17073A   26017.30359522  .00000067  00000+0  52526-4 0  9990
#TLE: 2 43013  98.7639 318.2187 0001419  36.2087 323.9184 14.19536557423067

#Time	Az	El	Level	Level2	SNR	BER	BlckErr	Temp	State	Recorded	gain1	gain2
2026-01-18 08:49:56.76	128.81	2.02	-29.6	-46.5	4.1	1.51e+00	0	52	0	0	31	24390
2026-01-18 08:49:57.76	128.77	2.08	-30.6	-46.6	4.2	1.51e+00	0	52	104	0	34	20643
2026-01-18 08:49:58.77	128.72	2.14	-30.4	-42.1	3.9	1.51e+00	0	52	104	0	28	17351
2026-01-18 08:49:59.78	128.67	2.21	-28.3	-40.6	4.0	1.51e+00	0	52	104	0	24	18418
2026-01-18 08:50:00.78	128.63	2.27	-22.3	-39.8	4.6	1.50e+00	0	52	104	0	21	19872
2026-01-18 08:50:01.79	128.58	2.33	-24.8	-39.6	4.5	1.51e+00	0	52	104	0	25	15503
2026-01-18 08:50:02.80	128.54	2.39	-34.1	-52.4	4.0	1.51e+00	0	52	104	0	38	32046
2026-01-18 08:50:03.81	128.49	2.45	-35.2	-44.4	3.8	1.50e+00	0	53	104	0	28	22609
2026-01-18 08:50:04.82	128.45	2.52	-33.5	-45.0	4.0	1.51e+00	0	52	104	0	28	24316
2026-01-18 08:50:05.83	128.40	2.58	-26.3	-38.2	3.7	1.51e+00	0	53	104	0	13	26431
2026-01-18 08:50:06.84	128.35	2.64	-25.4	-39.1	3.7	1.51e+00	0	53	104	0	15	25889
2026-01-18 08:50:07.85	128.30	2.70	-30.8	-45.3	3.7	1.51e+00	0	53	104	0	22	35546
2026-01-18 08:50:08.86	128.26	2.77	-25.7	-46.9	4.1	1.51e+00	0	53	104	0	28	30103
2026-01-18 08:50:09.87	128.21	2.83	-21.9	-43.4	3.2	1.51e+00	0	53	104	0	17	38212
2026-01-18 08:50:10.88	128.16	2.89	-23.0	-41.0	3.5	1.51e+00	0	53	104	0	15	32204
2026-01-18 08:50:11.89	128.11	2.96	-34.3	-48.9	3.9	1.50e+00	0	53	104	0	31	32055
2026-01-18 08:50:12.91	128.07	3.02	-22.3	-37.7	4.4	1.51e+00	0	53	104	0	30	9379
2026-01-18 08:50:13.92	128.02	3.08	-34.4	-49.5	3.9	1.50e+00	0	53	104	0	28	40834
2026-01-18 08:50:14.93	127.97	3.15	-26.0	-44.3	3.8	1.51e+00	0	53	104	0	30	19923
2026-01-18 08:50:15.94	127.92	3.21	-32.2	-48.3	4.1	1.51e+00	0	53	104	0	34	25117
2026-01-18 08:50:16.95	127.87	3.28	-21.5	-38.0	3.8	1.51e+00	0	53	104	0	16	21538
2026-01-18 08:50:17.96	127.82	3.34	-21.0	-36.1	-4.4	1.51e+00	0	53	104	0	15	18416
2026-01-18 08:50:18.97	127.77	3.40	-26.0	-38.8	3.4	1.51e+00	0	53	104	0	16	23664
2026-01-18 08:50:19.98	127.72	3.47	-28.2	-42.0	3.6	1.51e+00	0	53	0	0	27	18125
2026-01-18 08:50:20.99	127.67	3.53	-21.6	-36.5	3.5	1.51e+00	0	53	104	0	14	20382
2026-01-18 08:50:22.00	127.62	3.60	-26.5	-41.5	3.3	1.50e+00	0	53	104	0	23	21617
2026-01-18 08:50:23.02	127.57	3.66	-29.1	-44.5	4.0	1.51e+00	0	53	104	0	27	24335
2026-01-18 08:50:24.02	127.52	3.73	-29.0	-44.6	3.8	1.51e+00	0	54	104	0	25	27564
2026-01-18 08:50:25.04	127.47	3.79	-33.8	-49.9	4.3	1.51e+00	0	54	104	0	35	28563
2026-01-18 08:50:26.05	127.42	3.86	-32.4	-49.4	4.0	1.50e+00	0	54	104	0	34	28549
2026-01-18 08:50:27.06	127.37	3.92	-32.4	-48.9	4.1	1.50e+00	0	54	104	0	33	28429
2026-01-18 08:50:28.07	127.32	3.99	-32.8	-49.2	4.1	1.51e+00	0	54	104	0	34	27908
2026-01-18 08:50:29.08	127.27	4.05	-33.3	-51.8	3.8	1.51e+00	0	54	104	0	37	31479
2026-01-18 08:50:30.09	127.21	4.12	-30.2	-50.2	4.2	1.50e+00	0	54	104	0	32	35025
2026-01-18 08:50:31.10	127.16	4.18	-28.0	-47.4	4.1	1.51e+00	0	54	104	0	31	26805
2026-01-18 08:50:32.11	127.11	4.25	-29.6	-45.4	4.0	1.51e+00	0	54	104	0	27	27041
2026-01-18 08:50:33.12	127.06	4.32	-24.1	-45.0	3.8	1.51e+00	0	54	104	0	24	30419
2026-01-18 08:50:34.13	127.00	4.38	-28.2	-48.4	3.8	1.51e+00	0	54	104	0	28	36096
2026-01-18 08:50:35.14	126.95	4.45	-23.4	-40.7	3.8	1.51e+00	0	54	104	0	18	26404
2026-01-18 08:50:36.15	126.90	4.52	-27.4	-47.6	3.7	1.52e+00	0	54	104	0	21	49235
2026-01-18 08:50:37.17	126.84	4.58	-20.6	-36.0	3.8	1.51e+00	0	54	104	0	19	14425
2026-01-18 08:50:38.18	126.79	4.65	-29.5	-47.5	3.9	1.51e+00	0	55	104	0	30	28813
2026-01-18 08:50:39.19	126.73	4.72	-21.4	-37.6	3.5	1.51e+00	0	54	104	0	23	13829
2026-01-18 08:50:40.20	126.68	4.78	-34.5	-50.8	4.1	1.50e+00	0	55	104	0	39	25089
2026-01-18 08:50:41.21	126.62	4.85	-34.3	-43.2	-3.9	1.51e+00	0	55	104	0	23	26254
2026-01-18 08:50:42.22	126.57	4.92	-24.6	-43.9	4.1	1.51e+00	0	55	104	0	30	19140
2026-01-18 08:50:43.23	126.51	4.99	-33.4	-50.3	4.2	1.51e+00	0	55	104	0	38	25225
2026-01-18 08:50:44.24	126.46	5.05	-35.1	-48.5	4.2	1.51e+00	0	55	104	0	37	21540
2026-01-18 08:50:45.25	126.40	5.12	-31.2	-47.2	3.7	1.51e+00	0	55	104	0	22	44374
2026-01-18 08:50:46.26	126.35	5.19	-23.6	-41.5	3.7	1.51e+00	0	55	104	0	23	21753
2026-01-18 08:50:47.27	126.29	5.26	-24.6	-42.7	3.9	1.51e+00	0	55	104	0	36	11689
2026-01-18 08:50:48.28	126.23	5.33	-34.2	-47.3	4.2	1.50e+00	0	55	104	0	28	31785
2026-01-18 08:50:49.29	126.18	5.39	-34.4	-49.2	4.3	1.50e+00	0	55	104	0	34	27948
2026-01-18 08:50:50.30	126.12	5.46	-35.7	-51.9	4.1	1.50e+00	0	55	104	0	39	28660
2026-01-18 08:50:51.32	126.06	5.53	-35.1	-51.5	4.2	1.51e+00	0	55	104	0	40	25580
2026-01-18 08:50:52.33	126.00	5.60	-36.0	-49.9	4.1	1.51e+00	0	55	104	0	38	23936
2026-01-18 08:50:53.34	125.94	5.67	-22.2	-40.2	4.6	1.51e+00	0	55	104	0	21	20974
2026-01-18 08:50:54.35	125.89	5.74	-22.7	-39.2	4.0	1.51e+00	0	55	104	0	18	22033
2026-01-18 08:50:55.36	125.83	5.81	-31.4	-43.9	3.8	1.51e+00	0	55	104	0	26	23951
2026-01-18 08:50:56.37	125.77	5.88	-30.0	-49.6	4.0	1.51e+00	0	55	104	0	35	27573
2026-01-18 08:50:57.38	125.71	5.95	-30.8	-49.1	4.1	1.50e+00	0	55	104	0	32	31084
2026-01-18 08:50:58.39	125.65	6.02	-32.4	-46.1	4.3	1.51e+00	0	55	104	0	32	21805
2026-01-18 08:50:59.40	125.59	6.09	-31.8	-47.4	3.9	1.51e+00	0	56	104	0	29	30253
2026-01-18 08:51:00.41	125.53	6.16	-30.7	-46.6	3.9	1.51e+00	0	55	104	0	27	30875
2026-01-18 08:51:01.43	125.47	6.23	-30.6	-45.2	4.1	1.51e+00	0	56	104	0	32	19684
2026-01-18 08:51:02.44	125.41	6.30	-25.9	-42.8	4.3	1.51e+00	0	55	104	0	28	18843
2026-01-18 08:51:03.45	125.35	6.37	-33.9	-48.5	4.3	1.51e+00	0	56	104	0	37	21677
2026-01-18 08:51:04.46	125.29	6.44	-33.4	-49.9	4.0	1.50e+00	0	56	104	0	38	23882
2026-01-18 08:51:05.47	125.22	6.51	-33.1	-49.9	4.1	1.51e+00	0	56	104	0	30	37925
2026-01-18 08:51:06.48	125.16	6.58	-36.0	-50.2	4.1	1.51e+00	0	56	104	0	39	23328
2026-01-18 08:51:07.49	125.10	6.65	-31.4	-48.7	4.1	1.51e+00	0	56	104	0	34	26182
2026-01-18 08:51:08.50	125.04	6.72	-27.7	-51.0	3.7	1.51e+00	0	56	104	0	35	32187
2026-01-18 08:51:09.51	124.97	6.80	-36.5	-52.7	4.2	1.51e+00	0	56	104	0	39	31312
2026-01-18 08:51:10.52	124.91	6.87	-37.6	-50.7	4.3	1.50e+00	0	56	104	0	37	27746
2026-01-18 08:51:11.53	124.85	6.94	-28.0	-45.6	4.0	1.50e+00	0	56	104	0	29	24508
2026-01-18 08:51:12.54	124.78	7.01	-23.8	-47.7	4.0	1.51e+00	0	56	104	0	31	27842
2026-01-18 08:51:13.55	124.72	7.08	-37.2	-51.5	4.5	1.51e+00	0	56	104	0	39	27201
2026-01-18 08:51:14.56	124.65	7.16	-36.7	-52.2	4.0	1.51e+00	0	56	104	0	37	33283
2026-01-18 08:51:15.57	124.59	7.23	-32.0	-47.7	4.1	1.51e+00	0	56	104	0	29	31424
2026-01-18 08:51:16.58	124.52	7.30	-34.9	-51.9	4.2	1.50e+00	0	56	104	0	42	24000
2026-01-18 08:51:17.59	124.46	7.37	-30.2	-44.0	4.2	1.50e+00	0	56	104	0	31	18173
2026-01-18 08:51:18.60	124.39	7.45	-35.1	-52.1	4.4	1.50e+00	0	56	104	0	42	24634
2026-01-18 08:51:19.61	124.33	7.52	-32.8	-49.4	4.1	1.50e+00	0	56	104	0	38	22596
2026-01-18 08:51:20.62	124.26	7.59	-25.5	-47.6	4.1	1.50e+00	0	56	104	0	25	39101
2026-01-18 08:51:21.63	124.19	7.67	-26.7	-49.4	3.8	1.50e+00	0	56	104	0	33	30145
2026-01-18 08:51:22.64	124.13	7.74	-33.5	-49.3	4.2	1.50e+00	0	57	104	0	39	21110
2026-01-18 08:51:23.66	124.06	7.82	-30.4	-45.7	4.5	1.50e+00	0	57	104	0	30	23433
2026-01-18 08:51:24.66	123.99	7.89	-33.2	-49.3	4.3	1.48e+00	0	57	104	0	40	20008
2026-01-18 08:51:25.68	123.92	7.96	-37.5	-49.0	4.9	1.34e+00	64	57	0	0	43	16311
2026-01-18 08:51:26.69	123.85	8.04	-36.1	-45.9	4.6	9.62e-01	0	57	0	0	27	28611
2026-01-18 08:51:27.70	123.78	8.11	-26.5	-47.3	4.3	1.47e+00	0	57	104	0	24	39753
2026-01-18 08:51:28.71	123.71	8.19	-25.8	-47.9	3.9	1.50e+00	0	57	104	0	31	28607
2026-01-18 08:51:29.72	123.64	8.26	-25.0	-43.9	4.3	1.49e+00	0	57	104	0	22	30230
2026-01-18 08:51:30.73	123.57	8.34	-34.2	-48.9	4.2	1.44e+00	0	57	104	0	36	23954
2026-01-18 08:51:31.74	123.50	8.41	-33.5	-46.3	4.1	1.50e+00	0	57	104	0	30	25023
2026-01-18 08:51:32.75	123.43	8.49	-24.9	-45.1	4.0	1.50e+00	0	57	104	0	18	43588
2026-01-18 08:51:33.76	123.36	8.56	-33.8	-49.3	4.0	1.50e+00	0	57	0	0	34	28316
2026-01-18 08:51:34.77	123.29	8.64	-33.0	-49.2	4.7	1.50e+00	0	57	104	0	33	29539
2026-01-18 08:51:35.78	123.22	8.72	-27.9	-48.2	4.1	1.51e+00	0	57	104	0	24	44100
2026-01-18 08:51:36.79	123.14	8.79	-28.2	-48.3	3.8	1.50e+00	0	57	104	0	25	42117
2026-01-18 08:51:37.80	123.07	8.87	-27.7	-43.8	4.0	1.50e+00	0	57	104	0	30	18740
2026-01-18 08:51:38.81	123.00	8.95	-28.2	-47.5	4.5	1.50e+00	0	57	104	0	28	32301
2026-01-18 08:51:39.82	122.92	9.02	-30.7	-47.4	4.1	1.50e+00	0	57	104	0	30	28382
2026-01-18 08:51:40.83	122.85	9.10	-36.1	-51.8	4.0	1.50e+00	0	57	104	0	40	26532
2026-01-18 08:51:41.84	122.78	9.18	-31.1	-46.3	3.9	1.51e+00	0	57	104	0	28	28039
2026-01-18 08:51:42.85	122.70	9.26	-26.3	-43.7	3.9	1.50e+00	0	57	104	0	27	22215
2026-01-18 08:51:43.86	122.63	9.33	-31.9	-48.0	3.9	1.50e+00	0	57	104	0	30	30413
2026-01-18 08:51:44.87	122.55	9.41	-28.5	-49.0	4.0	1.51e+00	0	57	104	0	27	40940
2026-01-18 08:51:45.88	122.47	9.49	-32.7	-51.8	3.9	1.50e+00	0	57	104	0	34	37762
2026-01-18 08:51:46.89	122.40	9.57	-36.0	-48.8	4.7	1.48e+00	0	57	104	0	39	19895
2026-01-18 08:51:47.90	122.32	9.65	-34.1	-51.0	4.0	1.23e+00	0	57	104	0	32	38368
2026-01-18 08:51:48.91	122.24	9.72	-31.4	-49.5	4.4	1.42e+00	0	57	104	0	40	20482
2026-01-18 08:51:49.92	122.16	9.80	-25.7	-43.1	3.8	1.50e+00	0	57	104	0	22	27449
2026-01-18 08:51:50.93	122.09	9.88	-36.1	-52.0	4.2	1.49e+00	0	57	104	0	40	27330
2026-01-18 08:51:51.94	122.01	9.96	-36.3	-51.4	3.9	1.50e+00	0	58	104	0	44	20101
2026-01-18 08:51:52.95	121.93	10.04	-28.1	-44.8	4.2	1.50e+00	0	57	104	0	33	17720
2026-01-18 08:51:53.96	121.85	10.12	-35.8	-49.1	4.6	1.50e+00	0	58	104	0	33	29079
2026-01-18 08:51:54.97	121.77	10.20	-33.9	-48.2	4.2	1.50e+00	0	57	104	0	36	22064
2026-01-18 08:51:55.98	121.69	10.28	-36.0	-49.8	4.5	1.48e+00	0	57	104	0	42	18750
2026-01-18 08:51:56.99	121.61	10.36	-26.5	-43.0	3.9	1.47e+00	0	58	104	0	25	22956
2026-01-18 08:51:58.00	121.53	10.44	-33.7	-50.2	4.5	1.49e+00	0	58	104	0	41	20839
2026-01-18 08:51:59.01	121.44	10.52	-32.2	-48.3	4.5	1.44e+00	0	58	104	0	39	18853
2026-01-18 08:52:00.02	121.36	10.60	-33.3	-47.0	4.1	1.50e+00	0	58	104	0	30	27184
2026-01-18 08:52:01.03	121.28	10.68	-31.3	-47.6	3.7	1.50e+00	0	58	104	0	38	18424
2026-01-18 08:52:02.04	121.20	10.76	-37.9	-51.8	4.4	1.49e+00	0	58	104	0	46	18927
2026-01-18 08:52:03.05	121.11	10.85	-33.2	-48.2	4.2	1.49e+00	0	58	104	0	38	19661
2026-01-18 08:52:04.06	121.03	10.93	-40.6	-53.2	4.4	9.86e-01	0	58	104	0	45	23538
2026-01-18 08:52:05.06	120.94	11.01	-36.9	-54.3	3.4	1.50e+00	0	58	104	0	47	23607
2026-01-18 08:52:06.07	120.86	11.09	-38.3	-48.7	4.8	1.43e+00	0	58	104	0	37	22261
2026-01-18 08:52:07.08	120.77	11.17	-37.3	-47.9	5.6	8.66e-01	51	58	0	0	40	16984
2026-01-18 08:52:08.09	120.69	11.26	-38.8	-49.5	6.3	5.98e-01	39	58	0	2097152	47	13641
2026-01-18 08:52:09.11	120.60	11.34	-36.6	-48.2	5.5	8.36e-01	2	58	0	3145728	41	16524
2026-01-18 08:52:10.12	120.51	11.42	-37.6	-48.2	5.6	8.96e-01	40	58	104	3145728	40	17678
2026-01-18 08:52:11.13	120.42	11.51	-36.1	-48.7	5.6	8.17e-01	61	58	0	3145728	45	14029
2026-01-18 08:52:12.14	120.34	11.59	-36.9	-47.7	4.7	1.45e+00	0	58	104	3145728	40	16519
2026-01-18 08:52:13.15	120.25	11.67	-38.5	-48.9	4.5	1.41e+00	0	58	104	3145728	46	13524
2026-01-18 08:52:14.16	120.16	11.76	-37.5	-49.1	5.9	9.43e-01	34	58	0	3145728	43	16448
2026-01-18 08:52:15.17	120.07	11.84	-32.8	-46.0	4.9	1.18e+00	27	58	0	3145728	37	16228
2026-01-18 08:52:16.18	119.98	11.93	-28.8	-43.6	4.4	1.08e+00	0	58	0	3145728	30	18411
2026-01-18 08:52:17.19	119.89	12.01	-31.3	-46.8	4.2	1.43e+00	0	58	104	3145728	37	17871
2026-01-18 08:52:18.20	119.79	12.09	-33.1	-47.6	4.1	1.44e+00	0	58	104	3145728	34	23266
2026-01-18 08:52:19.21	119.70	12.18	-36.8	-48.6	4.7	1.39e+00	37	59	104	3145728	38	20636
2026-01-18 08:52:20.22	119.61	12.26	-38.9	-48.9	6.7	6.46e-01	13	58	0	4194304	49	11311
2026-01-18 08:52:21.23	119.52	12.35	-39.7	-49.8	5.9	6.12e-01	54	59	0	5242880	47	14075
2026-01-18 08:52:22.24	119.42	12.44	-28.2	-45.4	4.5	1.15e+00	0	58	104	6291456	32	20216
2026-01-18 08:52:23.25	119.33	12.52	-39.6	-49.7	5.9	8.03e-01	29	58	0	6291456	49	12455
2026-01-18 08:52:24.26	119.23	12.61	-39.5	-49.0	4.5	8.20e-01	0	58	104	8388608	44	15288
2026-01-18 08:52:25.27	119.14	12.69	-38.8	-49.3	6.0	7.12e-01	48	58	0	8388608	48	12637
2026-01-18 08:52:26.28	119.04	12.78	-37.6	-49.7	5.8	5.41e-01	51	59	0	10485760	44	16693
2026-01-18 08:52:27.29	118.95	12.87	-37.5	-49.0	5.6	7.60e-01	53	58	0	11534336	44	15277
2026-01-18 08:52:28.30	118.85	12.95	-37.4	-49.1	6.2	4.92e-01	28	58	0	13631488	46	13796
2026-01-18 08:52:29.30	118.75	13.04	-33.9	-47.6	5.7	4.51e-01	21	58	0	14680064	43	13760
2026-01-18 08:52:30.31	118.66	13.13	-37.8	-48.7	6.7	6.71e-01	25	58	0	16777216	44	14866
2026-01-18 08:52:31.32	118.56	13.22	-37.6	-48.8	5.0	7.94e-01	10	58	0	17825792	41	17774
2026-01-18 08:52:32.33	118.46	13.30	-37.2	-49.0	6.0	8.37e-01	37	58	0	18874368	43	16252
2026-01-18 08:52:33.34	118.36	13.39	-38.1	-49.4	6.3	6.32e-01	17	58	0	19922944	45	15088
2026-01-18 08:52:34.35	118.26	13.48	-37.8	-49.1	6.7	4.96e-01	12	59	0	22020096	47	13068
2026-01-18 08:52:35.36	118.16	13.57	-38.4	-49.4	5.7	4.09e-01	45	58	0	24117248	45	15073
2026-01-18 08:52:36.37	118.05	13.66	-37.8	-49.2	6.3	4.57e-01	35	58	0	25165824	43	16693
2026-01-18 08:52:37.38	117.95	13.75	-40.1	-48.9	7.5	2.54e-01	7	59	0	27262976	49	11398
2026-01-18 08:52:38.39	117.85	13.84	-35.5	-48.1	7.1	2.29e-01	8	59	0	29360128	48	11006
2026-01-18 08:52:39.40	117.74	13.93	-39.6	-49.1	6.9	2.46e-01	16	59	0	30408704	48	12237
2026-01-18 08:52:40.40	117.64	14.01	-39.7	-49.0	7.5	2.42e-01	5	58	0	32505856	50	10793
2026-01-18 08:52:41.41	117.54	14.10	-37.4	-48.2	6.6	2.89e-01	16	59	0	34603008	45	13237
2026-01-18 08:52:42.42	117.43	14.19	-32.7	-48.1	7.5	2.61e-01	12	59	0	36700160	45	13001
2026-01-18 08:52:43.43	117.32	14.29	-41.4	-49.0	8.0	2.02e-01	0	59	0	38797312	52	9712
2026-01-18 08:52:44.44	117.22	14.38	-40.0	-48.6	7.4	1.34e-01	3	59	0	39845888	49	10951
2026-01-18 08:52:45.45	117.11	14.47	-38.5	-48.5	7.7	1.75e-01	1	59	0	41943040	49	10874
2026-01-18 08:52:46.46	117.00	14.56	-42.3	-48.9	8.5	9.50e-02	0	59	0	44040192	53	9027
2026-01-18 08:52:47.47	116.89	14.65	-41.9	-48.5	8.4	6.96e-02	0	59	0	46137344	53	8587
2026-01-18 08:52:48.48	116.78	14.74	-39.9	-48.8	7.8	1.45e-01	0	59	0	48234496	52	9445
2026-01-18 08:52:49.49	116.67	14.83	-42.5	-48.5	8.7	6.79e-02	0	59	0	49283072	55	7660
2026-01-18 08:52:50.50	116.56	14.93	-41.9	-48.5	7.6	4.74e-02	2	59	0	51380224	54	8094
2026-01-18 08:52:51.51	116.45	15.02	-42.4	-48.3	8.9	7.15e-02	0	59	0	53477376	55	7521
2026-01-18 08:52:52.51	116.34	15.11	-42.3	-47.9	9.5	3.48e-02	0	59	0	55574528	55	7201
2026-01-18 08:52:53.52	116.22	15.20	-41.8	-47.8	9.3	3.06e-02	0	59	0	57671680	55	7088
2026-01-18 08:52:54.53	116.11	15.30	-42.4	-47.8	9.7	5.61e-02	0	59	0	58720256	55	7065
2026-01-18 08:52:55.54	115.99	15.39	-42.3	-47.8	9.5	2.41e-02	0	59	0	60817408	54	7541
2026-01-18 08:52:56.55	115.88	15.48	-42.4	-47.9	9.5	1.91e-02	0	59	0	62914560	55	7173
2026-01-18 08:52:57.56	115.76	15.58	-42.0	-47.6	9.9	2.09e-02	0	59	0	65011712	55	6919
2026-01-18 08:52:58.57	115.65	15.67	-42.4	-47.6	10.0	1.42e-02	0	59	0	67108864	55	6901
2026-01-18 08:52:59.58	115.53	15.76	-42.1	-47.3	10.0	1.59e-02	0	59	0	68157440	54	7064
2026-01-18 08:53:00.59	115.41	15.86	-42.2	-47.3	10.2	1.74e-02	0	59	0	70254592	55	6690
2026-01-18 08:53:01.60	115.29	15.95	-42.0	-47.4	10.1	1.19e-02	0	59	0	72351744	55	6725
2026-01-18 08:53:02.61	115.17	16.05	-42.1	-47.6	9.6	1.31e-02	0	59	0	74448896	54	7311
2026-01-18 08:53:03.62	115.05	16.14	-42.0	-47.4	10.0	9.37e-03	0	59	0	76546048	55	6746
2026-01-18 08:53:04.63	114.93	16.24	-41.8	-47.2	10.1	9.63e-03	0	59	0	77594624	54	7020
2026-01-18 08:53:05.64	114.81	16.34	-42.2	-47.3	10.3	8.24e-03	0	59	0	79691776	54	7048
2026-01-18 08:53:06.65	114.68	16.43	-42.3	-47.1	10.6	8.74e-03	0	59	0	81788928	55	6558
2026-01-18 08:53:07.66	114.56	16.53	-41.3	-46.9	10.2	4.99e-03	0	59	0	83886080	53	7171
2026-01-18 08:53:08.67	114.43	16.62	-42.3	-47.2	10.5	4.43e-03	0	59	0	85983232	55	6584
2026-01-18 08:53:09.68	114.31	16.72	-42.2	-47.3	10.4	4.85e-03	0	59	0	88080384	55	6662
2026-01-18 08:53:10.68	114.18	16.82	-42.3	-47.2	10.5	4.59e-03	0	59	0	89128960	55	6626
2026-01-18 08:53:11.69	114.06	16.91	-42.3	-47.4	10.2	5.01e-03	0	59	0	91226112	55	6730
2026-01-18 08:53:12.70	113.93	17.01	-42.4	-47.3	10.5	4.50e-03	0	59	0	93323264	55	6697
2026-01-18 08:53:13.71	113.80	17.11	-42.5	-47.3	10.5	4.30e-03	0	59	0	95420416	55	6687
2026-01-18 08:53:14.72	113.67	17.21	-42.4	-47.4	10.3	3.89e-03	0	59	0	97517568	55	6736
2026-01-18 08:53:15.73	113.54	17.31	-42.4	-47.2	10.6	3.82e-03	0	59	0	98566144	55	6637
2026-01-18 08:53:16.74	113.41	17.40	-42.5	-47.3	10.5	3.87e-03	0	59	0	100663296	55	6718
2026-01-18 08:53:17.75	113.28	17.50	-42.5	-47.5	10.3	4.30e-03	0	59	0	102760448	55	6821
2026-01-18 08:53:18.76	113.14	17.60	-42.5	-47.4	10.5	3.76e-03	0	59	0	104857600	55	6725
2026-01-18 08:53:19.77	113.01	17.70	-42.4	-47.3	10.6	3.58e-03	0	59	0	106954752	55	6669
2026-01-18 08:53:20.78	112.87	17.80	-42.5	-47.4	10.5	4.21e-03	0	59	0	108003328	55	6773
2026-01-18 08:53:21.79	112.74	17.90	-42.6	-47.5	10.3	4.48e-03	0	59	0	110100480	55	6850
2026-01-18 08:53:22.80	112.60	18.00	-42.5	-47.4	10.5	5.09e-03	0	59	0	112197632	55	6739
2026-01-18 08:53:23.81	112.46	18.10	-41.9	-47.1	10.6	3.52e-03	0	59	0	114294784	55	6553
2026-01-18 08:53:24.82	112.32	18.20	-42.4	-47.1	10.8	2.81e-03	0	59	0	116391936	55	6499
2026-01-18 08:53:25.83	112.19	18.30	-42.4	-47.1	10.7	2.60e-03	0	59	0	117440512	55	6565
2026-01-18 08:53:26.84	112.04	18.40	-42.5	-47.2	10.7	3.04e-03	0	59	0	119537664	55	6612
2026-01-18 08:53:27.85	111.90	18.50	-42.5	-47.2	10.7	2.82e-03	0	59	0	121634816	55	6588
2026-01-18 08:53:28.86	111.76	18.60	-42.4	-47.2	10.8	2.66e-03	0	59	0	123731968	55	6573
2026-01-18 08:53:29.87	111.62	18.70	-42.4	-47.0	11.0	2.06e-03	0	59	0	125829120	55	6431
2026-01-18 08:53:30.88	111.47	18.81	-42.5	-47.1	10.8	2.24e-03	0	59	0	126877696	55	6561
2026-01-18 08:53:31.88	111.33	18.91	-42.5	-47.3	10.6	3.26e-03	0	59	0	128974848	55	6688
2026-01-18 08:53:32.89	111.18	19.01	-42.5	-47.3	10.7	3.82e-03	0	59	0	131072000	55	6654
2026-01-18 08:53:33.90	111.04	19.11	-42.4	-47.0	10.9	2.38e-03	0	59	0	133169152	55	6492
2026-01-18 08:53:34.91	110.89	19.21	-42.4	-46.8	11.1	1.86e-03	0	59	0	135266304	55	6346
2026-01-18 08:53:35.93	110.74	19.32	-42.3	-46.7	11.3	1.33e-03	0	59	0	136314880	55	6263
2026-01-18 08:53:36.93	110.59	19.42	-42.3	-46.8	11.2	1.33e-03	0	59	0	138412032	55	6290
2026-01-18 08:53:37.94	110.44	19.52	-42.4	-47.0	11.0	1.58e-03	0	60	0	140509184	55	6491
2026-01-18 08:53:38.95	110.28	19.63	-42.5	-47.1	10.9	2.02e-03	0	59	0	142606336	55	6513
2026-01-18 08:53:39.96	110.13	19.73	-42.4	-46.8	11.2	1.79e-03	0	59	0	144703488	55	6334
2026-01-18 08:53:40.97	109.98	19.83	-42.3	-46.6	11.4	1.09e-03	0	59	0	145752064	55	6162
2026-01-18 08:53:41.98	109.82	19.94	-42.2	-46.5	11.6	8.67e-04	0	59	0	147849216	55	6065
2026-01-18 08:53:42.99	109.66	20.04	-42.3	-46.5	11.5	7.12e-04	0	59	0	149946368	55	6130
2026-01-18 08:53:44.00	109.51	20.15	-42.3	-46.6	11.4	9.52e-04	0	59	0	152043520	55	6201
2026-01-18 08:53:45.01	109.35	20.25	-42.3	-46.6	11.4	1.06e-03	0	60	0	154140672	55	6180
2026-01-18 08:53:46.01	109.19	20.36	-42.3	-46.6	11.5	9.12e-04	0	59	0	156237824	55	6150
2026-01-18 08:53:47.02	109.03	20.46	-42.2	-46.5	11.6	7.24e-04	0	59	0	157286400	55	6088
2026-01-18 08:53:48.03	108.87	20.57	-42.2	-46.3	11.8	6.68e-04	0	59	0	159383552	55	5951
2026-01-18 08:53:49.04	108.70	20.67	-42.1	-46.3	11.8	5.49e-04	0	60	0	161480704	55	5956
2026-01-18 08:53:50.05	108.54	20.78	-42.1	-46.2	11.8	5.38e-04	0	60	0	163577856	55	5920
2026-01-18 08:53:51.06	108.37	20.88	-42.1	-46.2	11.9	4.45e-04	0	60	0	165675008	55	5908
2026-01-18 08:53:52.07	108.21	20.99	-42.1	-46.3	11.8	4.50e-04	0	59	0	166723584	55	5944
2026-01-18 08:53:53.08	108.04	21.10	-42.1	-46.2	11.9	4.16e-04	0	60	0	168820736	55	5880
2026-01-18 08:53:54.09	107.87	21.20	-42.0	-46.0	12.0	3.84e-04	0	59	0	170917888	55	5788
2026-01-18 08:53:55.10	107.70	21.31	-42.1	-46.1	12.0	3.26e-04	0	60	0	173015040	55	5792
2026-01-18 08:53:56.11	107.53	21.42	-42.1	-46.1	12.0	2.91e-04	0	60	0	175112192	55	5804
2026-01-18 08:53:57.12	107.35	21.52	-42.2	-46.3	11.8	4.28e-04	0	60	0	176160768	55	5934
2026-01-18 08:53:58.13	107.18	21.63	-42.2	-46.4	11.8	5.38e-04	0	60	0	178257920	55	5993
2026-01-18 08:53:59.14	107.01	21.74	-42.2	-46.4	11.7	6.59e-04	0	60	0	180355072	55	6040
2026-01-18 08:54:00.15	106.83	21.85	-42.2	-46.4	11.6	6.26e-04	0	60	0	182452224	55	6034
2026-01-18 08:54:01.16	106.65	21.95	-42.2	-46.5	11.6	6.38e-04	0	60	0	184549376	55	6086
2026-01-18 08:54:02.17	106.47	22.06	-42.2	-46.4	11.6	6.03e-04	0	60	0	185597952	55	6041
2026-01-18 08:54:03.18	106.29	22.17	-42.3	-46.6	11.5	6.16e-04	0	60	0	187695104	55	6139
2026-01-18 08:54:04.18	106.11	22.28	-42.3	-46.5	11.6	7.68e-04	0	60	0	189792256	55	6097
2026-01-18 08:54:05.19	105.93	22.38	-42.3	-46.5	11.6	6.74e-04	0	60	0	191889408	55	6099
2026-01-18 08:54:06.20	105.75	22.49	-42.3	-46.6	11.4	7.68e-04	0	60	0	193986560	55	6179
2026-01-18 08:54:07.21	105.56	22.60	-42.4	-46.8	11.3	9.82e-04	0	60	0	195035136	55	6314
2026-01-18 08:54:08.22	105.38	22.71	-42.4	-46.9	11.2	1.31e-03	0	60	0	197132288	55	6393
2026-01-18 08:54:09.23	105.19	22.82	-42.5	-47.0	11.1	1.53e-03	0	60	0	199229440	55	6473
2026-01-18 08:54:10.24	105.00	22.93	-42.4	-46.9	11.2	1.40e-03	0	59	0	201326592	55	6357
2026-01-18 08:54:11.25	104.81	23.04	-42.5	-47.0	11.2	1.43e-03	0	60	0	203423744	55	6423
2026-01-18 08:54:12.26	104.62	23.15	-42.5	-47.1	11.0	1.74e-03	0	60	0	204472320	55	6510
2026-01-18 08:54:13.27	104.42	23.26	-42.6	-47.3	10.8	2.23e-03	0	60	0	206569472	55	6694
2026-01-18 08:54:14.28	104.23	23.37	-42.6	-47.3	10.8	2.54e-03	0	60	0	208666624	55	6693
2026-01-18 08:54:15.29	104.03	23.48	-42.6	-47.2	10.9	2.56e-03	0	60	0	210763776	55	6631
2026-01-18 08:54:16.29	103.84	23.58	-42.6	-47.3	10.8	2.50e-03	0	60	0	212860928	55	6687
2026-01-18 08:54:17.30	103.64	23.69	-42.6	-47.3	10.8	2.26e-03	0	60	0	213909504	55	6709
2026-01-18 08:54:18.31	103.44	23.80	-42.7	-47.4	10.7	2.84e-03	0	60	0	216006656	55	6751
2026-01-18 08:54:19.32	103.24	23.91	-42.9	-47.6	10.7	3.27e-03	0	60	0	218103808	56	6512
2026-01-18 08:54:20.33	103.03	24.02	-42.8	-47.5	10.9	2.38e-03	0	60	0	220200960	56	6423
2026-01-18 08:54:21.34	102.83	24.13	-42.8	-47.4	10.9	2.18e-03	0	60	0	222298112	56	6416
2026-01-18 08:54:22.35	102.62	24.24	-42.8	-47.4	10.9	2.16e-03	0	60	0	223346688	56	6415
2026-01-18 08:54:23.36	102.42	24.35	-42.8	-47.5	10.8	2.48e-03	0	60	0	225443840	56	6484
2026-01-18 08:54:24.37	102.21	24.46	-42.8	-47.5	10.9	2.31e-03	0	60	0	227540992	56	6431
2026-01-18 08:54:25.38	102.00	24.57	-42.8	-47.3	11.0	2.26e-03	0	60	0	229638144	56	6343
2026-01-18 08:54:26.39	101.79	24.68	-42.7	-47.2	11.1	1.68e-03	0	60	0	231735296	56	6273
2026-01-18 08:54:27.40	101.57	24.80	-42.7	-47.1	11.2	1.44e-03	0	60	0	232783872	56	6189
2026-01-18 08:54:28.41	101.36	24.91	-42.7	-47.3	11.1	1.53e-03	0	60	0	234881024	56	6279
2026-01-18 08:54:29.42	101.14	25.02	-42.8	-47.3	11.1	1.77e-03	0	60	0	236978176	56	6311
2026-01-18 08:54:30.43	100.92	25.13	-42.7	-47.1	11.2	1.44e-03	0	60	0	239075328	56	6187
2026-01-18 08:54:31.43	100.71	25.24	-42.7	-47.1	11.3	1.16e-03	0	60	0	241172480	56	6159
2026-01-18 08:54:32.44	100.49	25.35	-42.7	-47.1	11.3	1.22e-03	0	60	0	242221056	56	6148
2026-01-18 08:54:33.45	100.26	25.46	-42.6	-47.0	11.4	1.04e-03	0	60	0	244318208	56	6100
2026-01-18 08:54:34.47	100.04	25.57	-42.6	-46.9	11.5	9.05e-04	0	60	0	246415360	56	6005
2026-01-18 08:54:35.47	99.81	25.68	-42.5	-46.8	11.6	7.26e-04	0	60	0	248512512	56	5941
2026-01-18 08:54:36.48	99.59	25.79	-42.5	-46.7	11.7	6.32e-04	0	60	0	250609664	56	5887
2026-01-18 08:54:37.49	99.36	25.90	-42.5	-46.7	11.7	5.22e-04	0	60	0	252706816	56	5890
2026-01-18 08:54:38.50	99.13	26.01	-42.5	-46.8	11.6	6.27e-04	0	60	0	253755392	56	5960
2026-01-18 08:54:39.51	98.90	26.12	-42.5	-46.8	11.7	6.09e-04	0	60	0	255852544	56	5934
2026-01-18 08:54:40.52	98.66	26.23	-42.6	-46.8	11.6	6.13e-04	0	60	0	257949696	56	5973
2026-01-18 08:54:41.53	98.43	26.34	-42.6	-46.9	11.6	7.32e-04	0	60	0	260046848	56	6007
2026-01-18 08:54:42.54	98.19	26.45	-42.5	-46.8	11.6	6.79e-04	0	60	0	262144000	56	5946
2026-01-18 08:54:43.55	97.95	26.56	-42.6	-46.8	11.5	7.48e-04	0	60	0	263192576	56	5984
2026-01-18 08:54:44.55	97.71	26.67	-42.5	-46.7	11.7	6.11e-04	0	60	0	265289728	56	5903
2026-01-18 08:54:45.56	97.47	26.78	-42.5	-46.7	11.7	5.72e-04	0	60	0	267386880	56	5898
2026-01-18 08:54:46.57	97.23	26.89	-42.5	-46.7	11.8	5.14e-04	0	60	0	269484032	56	5861
2026-01-18 08:54:47.58	96.98	27.00	-42.5	-46.5	11.9	4.52e-04	0	60	0	271581184	56	5782
2026-01-18 08:54:48.59	96.74	27.10	-42.4	-46.5	11.9	4.24e-04	0	60	0	272629760	56	5782
2026-01-18 08:54:49.60	96.49	27.21	-42.5	-46.7	11.8	3.87e-04	0	60	0	274726912	56	5859
2026-01-18 08:54:50.61	96.24	27.32	-42.6	-46.8	11.6	5.42e-04	0	60	0	276824064	56	5986
2026-01-18 08:54:51.62	95.99	27.43	-42.6	-46.8	11.6	5.90e-04	0	60	0	278921216	56	5977
2026-01-18 08:54:52.63	95.73	27.54	-42.6	-47.0	11.5	7.69e-04	0	60	0	281018368	56	6069
2026-01-18 08:54:53.64	95.48	27.65	-42.6	-46.9	11.5	9.06e-04	0	60	0	282066944	56	6031
2026-01-18 08:54:54.65	95.22	27.76	-42.6	-46.9	11.6	7.34e-04	0	60	0	284164096	56	6015
2026-01-18 08:54:55.66	94.96	27.86	-42.6	-46.9	11.5	6.96e-04	0	60	0	286261248	56	6023
2026-01-18 08:54:56.67	94.70	27.97	-42.7	-47.1	11.4	8.44e-04	0	60	0	288358400	56	6164
2026-01-18 08:54:57.68	94.44	28.08	-42.8	-47.2	11.2	1.27e-03	0	60	0	290455552	56	6268
2026-01-18 08:54:58.69	94.17	28.19	-42.8	-47.4	11.1	1.44e-03	0	60	0	291504128	56	6350
2026-01-18 08:54:59.70	93.91	28.29	-42.9	-47.6	10.8	1.83e-03	0	60	0	293601280	56	6522
2026-01-18 08:55:00.71	93.64	28.40	-43.0	-47.9	10.5	3.31e-03	0	60	0	295698432	56	6776
2026-01-18 08:55:01.72	93.37	28.51	-43.0	-47.9	10.5	3.71e-03	0	60	0	297795584	56	6757
2026-01-18 08:55:02.73	93.10	28.61	-43.1	-48.0	10.4	4.01e-03	0	60	0	299892736	56	6835
2026-01-18 08:55:03.74	92.82	28.72	-43.2	-48.3	10.1	6.27e-03	0	60	0	300941312	56	7112
2026-01-18 08:55:04.75	92.55	28.82	-43.4	-48.7	9.6	1.03e-02	0	60	0	303038464	57	7029
2026-01-18 08:55:05.76	92.27	28.93	-43.5	-49.1	9.3	1.44e-02	0	60	0	305135616	57	7311
2026-01-18 08:55:06.77	91.99	29.03	-43.5	-49.2	9.0	2.52e-02	0	60	0	307232768	57	7452
2026-01-18 08:55:07.77	91.72	29.14	-43.6	-49.3	9.0	2.45e-02	0	60	0	309329920	57	7493
2026-01-18 08:55:08.78	91.43	29.24	-43.6	-49.4	8.9	2.68e-02	0	60	0	310378496	57	7617
2026-01-18 08:55:09.79	91.15	29.34	-43.7	-49.9	8.4	3.98e-02	0	60	0	312475648	58	7591
2026-01-18 08:55:10.80	90.86	29.45	-43.8	-49.9	8.4	4.53e-02	0	60	0	314572800	58	7606
2026-01-18 08:55:11.81	90.58	29.55	-43.8	-50.0	8.4	4.76e-02	0	60	0	316669952	58	7679
2026-01-18 08:55:12.82	90.29	29.65	-43.8	-49.9	8.4	4.72e-02	0	60	0	318767104	58	7616
2026-01-18 08:55:13.83	90.00	29.75	-43.9	-50.2	8.2	5.26e-02	0	60	0	320864256	58	7849
2026-01-18 08:55:14.84	89.70	29.85	-43.8	-50.2	8.2	5.34e-02	0	60	0	321912832	58	7844
2026-01-18 08:55:15.85	89.41	29.95	-43.8	-50.1	8.3	4.96e-02	0	60	0	324009984	58	7743
2026-01-18 08:55:16.86	89.11	30.05	-43.8	-50.1	8.2	5.23e-02	0	60	0	326107136	58	7791
2026-01-18 08:55:17.87	88.81	30.15	-43.9	-50.2	8.2	5.36e-02	0	60	0	328204288	58	7867
2026-01-18 08:55:18.88	88.51	30.25	-44.0	-50.6	7.7	7.02e-02	0	60	0	330301440	58	8229
2026-01-18 08:55:19.89	88.21	30.35	-44.0	-50.8	7.6	9.55e-02	0	60	0	331350016	58	8435
2026-01-18 08:55:20.90	87.90	30.45	-44.1	-51.2	7.2	1.17e-01	0	60	0	333447168	58	8790
2026-01-18 08:55:21.91	87.60	30.55	-44.2	-51.5	7.0	1.42e-01	0	60	0	335544320	58	9120
2026-01-18 08:55:22.92	87.29	30.64	-44.2	-51.8	6.7	1.79e-01	0	60	0	337641472	59	8924
2026-01-18 08:55:23.93	86.98	30.74	-44.2	-51.8	6.7	1.91e-01	0	60	0	339738624	59	8869
2026-01-18 08:55:24.94	86.67	30.84	-44.2	-51.5	7.0	1.87e-01	0	60	0	340787200	59	8593
2026-01-18 08:55:25.95	86.35	30.93	-44.0	-50.9	7.5	1.29e-01	0	60	0	342884352	59	8044
2026-01-18 08:55:26.95	86.04	31.02	-44.0	-50.7	7.7	9.70e-02	0	60	0	344981504	59	7862
2026-01-18 08:55:27.96	85.72	31.12	-44.0	-50.6	7.7	9.47e-02	0	60	0	347078656	59	7802
2026-01-18 08:55:28.97	85.40	31.21	-43.9	-50.2	8.2	5.96e-02	0	60	0	349175808	59	7444
2026-01-18 08:55:29.98	85.08	31.30	-43.9	-50.2	8.2	5.19e-02	0	60	0	350224384	59	7439
2026-01-18 08:55:30.99	84.76	31.39	-43.8	-50.0	8.4	5.70e-02	0	60	0	352321536	59	7220
2026-01-18 08:55:32.00	84.44	31.48	-43.8	-49.8	8.6	4.84e-02	0	60	0	354418688	59	7101
2026-01-18 08:55:33.01	84.11	31.57	-43.8	-49.9	8.5	4.09e-02	0	60	0	356515840	59	7204
2026-01-18 08:55:34.02	83.78	31.66	-43.8	-50.1	8.3	4.71e-02	0	60	0	358612992	59	7304
2026-01-18 08:55:35.03	83.45	31.75	-43.8	-50.0	8.5	4.79e-02	0	60	0	359661568	59	7220
2026-01-18 08:55:36.04	83.12	31.84	-43.8	-49.9	8.5	3.88e-02	0	60	0	361758720	59	7147
2026-01-18 08:55:37.05	82.79	31.93	-43.8	-49.8	8.6	3.56e-02	0	60	0	363855872	59	7119
2026-01-18 08:55:38.06	82.45	32.01	-43.8	-49.8	8.6	4.05e-02	0	60	0	365953024	59	7081
2026-01-18 08:55:39.07	82.11	32.10	-43.7	-49.7	8.7	3.57e-02	0	60	0	368050176	59	6969
2026-01-18 08:55:40.08	81.77	32.18	-43.7	-49.4	8.9	2.70e-02	0	61	0	369098752	59	6785
2026-01-18 08:55:41.09	81.43	32.26	-43.6	-49.4	9.0	2.76e-02	0	60	0	371195904	59	6760
2026-01-18 08:55:42.10	81.09	32.35	-43.7	-49.4	9.0	2.39e-02	0	60	0	373293056	59	6794
2026-01-18 08:55:43.11	80.75	32.43	-43.6	-49.3	9.1	2.27e-02	0	60	0	375390208	59	6689
2026-01-18 08:55:44.12	80.40	32.51	-43.5	-49.1	9.4	1.76e-02	0	60	0	377487360	59	6503
2026-01-18 08:55:45.12	80.06	32.59	-43.5	-48.8	9.7	1.32e-02	0	61	0	378535936	58	6707
2026-01-18 08:55:46.13	79.71	32.66	-43.5	-48.8	9.7	1.19e-02	0	60	0	380633088	58	6685
2026-01-18 08:55:47.14	79.36	32.74	-43.4	-48.6	9.9	1.04e-02	0	61	0	382730240	58	6544
2026-01-18 08:55:48.15	79.00	32.82	-43.4	-48.4	10.1	9.05e-03	0	60	0	384827392	58	6397
2026-01-18 08:55:49.16	78.65	32.89	-43.3	-48.4	10.1	6.10e-03	0	61	0	386924544	58	6364
2026-01-18 08:55:50.17	78.29	32.97	-43.3	-48.4	10.1	6.05e-03	0	60	0	389021696	58	6388
2026-01-18 08:55:51.18	77.94	33.04	-43.3	-48.2	10.3	5.58e-03	0	60	0	390070272	58	6254
2026-01-18 08:55:52.19	77.58	33.11	-43.3	-48.2	10.3	4.64e-03	0	61	0	392167424	58	6244
2026-01-18 08:55:53.20	77.22	33.18	-43.2	-48.2	10.3	4.57e-03	0	60	0	394264576	58	6211
2026-01-18 08:55:54.21	76.85	33.25	-43.2	-48.2	10.4	4.63e-03	0	60	0	396361728	58	6204
2026-01-18 08:55:55.22	76.49	33.32	-43.2	-48.1	10.4	5.42e-03	0	61	0	398458880	58	6197
2026-01-18 08:55:56.23	76.12	33.39	-43.2	-47.9	10.6	3.25e-03	0	60	0	399507456	58	6057
2026-01-18 08:55:57.24	75.76	33.46	-43.0	-47.6	10.9	2.61e-03	0	61	0	401604608	58	5847
2026-01-18 08:55:58.25	75.39	33.52	-43.0	-47.5	11.1	2.03e-03	0	60	0	403701760	57	6104
2026-01-18 08:55:59.26	75.02	33.58	-42.9	-47.5	11.1	1.61e-03	0	60	0	405798912	57	6077
2026-01-18 08:56:00.27	74.65	33.65	-43.0	-47.6	10.9	1.89e-03	0	60	0	407896064	57	6178
2026-01-18 08:56:01.28	74.28	33.71	-43.1	-47.8	10.7	2.24e-03	0	60	0	408944640	57	6329
2026-01-18 08:56:02.29	73.90	33.77	-43.1	-47.8	10.7	2.94e-03	0	60	0	411041792	57	6335
2026-01-18 08:56:03.30	73.53	33.83	-43.1	-47.7	10.8	2.57e-03	0	60	0	413138944	57	6266
2026-01-18 08:56:04.31	73.15	33.89	-43.1	-47.8	10.8	2.22e-03	0	60	0	415236096	57	6296
2026-01-18 08:56:05.32	72.77	33.94	-43.1	-47.7	10.8	2.46e-03	0	61	0	417333248	57	6234
2026-01-18 08:56:06.33	72.39	34.00	-42.9	-47.4	11.2	1.70e-03	0	61	0	418381824	57	6055
2026-01-18 08:56:07.34	72.01	34.05	-42.8	-47.2	11.4	1.31e-03	0	60	0	420478976	57	5907
2026-01-18 08:56:08.34	71.63	34.10	-42.8	-47.0	11.5	6.54e-04	0	60	0	422576128	57	5765
2026-01-18 08:56:09.35	71.25	34.15	-42.7	-46.8	11.8	5.77e-04	0	60	0	424673280	57	5623
2026-01-18 08:56:10.36	70.87	34.20	-42.6	-46.6	12.0	4.12e-04	0	60	0	426770432	57	5494
2026-01-18 08:56:11.37	70.48	34.25	-42.5	-46.4	12.1	3.11e-04	0	61	0	427819008	57	5377
2026-01-18 08:56:12.38	70.09	34.30	-42.5	-46.3	12.3	2.20e-04	0	61	0	429916160	56	5643
2026-01-18 08:56:13.39	69.71	34.34	-42.5	-46.5	12.1	2.04e-04	0	61	0	432013312	56	5766
2026-01-18 08:56:14.40	69.32	34.39	-42.6	-46.7	11.8	2.88e-04	0	60	0	434110464	56	5921
2026-01-18 08:56:15.41	68.93	34.43	-42.6	-46.6	12.0	3.17e-04	0	61	0	436207616	56	5807
2026-01-18 08:56:16.42	68.54	34.47	-42.5	-46.5	12.1	2.73e-04	0	61	0	437256192	56	5778
2026-01-18 08:56:17.43	68.15	34.51	-42.7	-46.8	11.8	3.99e-04	0	60	0	439353344	56	5934
2026-01-18 08:56:18.44	67.75	34.55	-42.7	-46.8	11.9	4.96e-04	0	60	0	441450496	56	5953
2026-01-18 08:56:19.45	67.36	34.58	-42.6	-46.7	12.0	3.75e-04	0	61	0	443547648	56	5922
2026-01-18 08:56:20.46	66.97	34.62	-43.2	-48.2	10.4	6.70e-04	0	60	0	445644800	57	6591
2026-01-18 08:56:21.47	66.57	34.65	-45.1	-56.8	3.9	1.07e+00	0	61	104	446693376	61	14200
2026-01-18 08:56:22.48	66.18	34.68	-45.5	-60.3	3.8	1.49e+00	0	61	104	446693376	61	21024
2026-01-18 08:56:23.49	65.78	34.72	-45.6	-60.4	3.8	1.49e+00	0	61	104	446693376	61	21443
2026-01-18 08:56:24.50	65.38	34.74	-45.7	-60.5	3.8	1.49e+00	0	61	104	446693376	61	21544
2026-01-18 08:56:25.51	64.98	34.77	-45.7	-60.5	3.8	1.49e+00	0	61	104	446693376	61	21592
2026-01-18 08:56:26.52	64.58	34.80	-45.6	-60.4	3.8	1.49e+00	0	61	104	446693376	61	21306
2026-01-18 08:56:27.53	64.19	34.82	-45.5	-60.2	3.8	1.49e+00	0	61	104	446693376	61	20987
2026-01-18 08:56:28.54	63.79	34.84	-45.5	-60.1	3.8	1.49e+00	0	61	104	446693376	61	20650
2026-01-18 08:56:29.55	63.38	34.87	-45.4	-60.0	3.8	1.49e+00	0	60	104	446693376	61	20431
2026-01-18 08:56:30.56	62.98	34.89	-45.4	-60.0	3.8	1.49e+00	0	60	104	446693376	61	20353
2026-01-18 08:56:31.56	62.59	34.90	-45.4	-60.0	3.8	1.49e+00	0	61	104	446693376	61	20363
2026-01-18 08:56:32.57	62.18	34.92	-45.3	-59.8	3.8	1.49e+00	0	61	104	446693376	61	20068
2026-01-18 08:56:33.59	61.78	34.93	-45.3	-59.8	3.8	1.49e+00	0	60	104	446693376	61	19924
2026-01-18 08:56:34.59	61.38	34.95	-45.2	-59.8	3.8	1.49e+00	0	61	104	446693376	61	19994
2026-01-18 08:56:35.60	60.98	34.96	-45.3	-59.8	3.8	1.49e+00	0	61	104	446693376	61	19897
2026-01-18 08:56:36.62	60.57	34.97	-45.2	-59.8	3.8	1.49e+00	0	61	104	446693376	61	19937
2026-01-18 08:56:37.63	60.17	34.98	-45.2	-59.8	3.8	1.49e+00	0	61	104	446693376	61	19903
2026-01-18 08:56:38.64	59.76	34.98	-45.2	-59.8	3.8	1.49e+00	0	61	104	446693376	61	19886
2026-01-18 08:56:39.65	59.36	34.99	-45.2	-59.8	3.8	1.49e+00	0	61	104	446693376	61	19929
2026-01-18 08:56:40.66	58.96	34.99	-45.2	-59.8	3.8	1.49e+00	0	60	104	446693376	61	19913
2026-01-18 08:56:41.67	58.55	34.99	-45.2	-59.8	3.8	1.49e+00	0	61	104	446693376	61	19892
2026-01-18 08:56:42.68	58.15	35.00	-45.2	-59.7	3.8	1.49e+00	0	61	104	446693376	61	19837
2026-01-18 08:56:43.69	57.75	34.99	-45.2	-59.8	3.8	1.49e+00	0	61	104	446693376	61	19842
2026-01-18 08:56:44.70	57.34	34.99	-45.2	-59.8	3.8	1.49e+00	0	61	104	446693376	61	19860
2026-01-18 08:56:45.71	56.94	34.99	-45.2	-59.8	3.8	1.49e+00	0	60	104	446693376	61	19862
2026-01-18 08:56:46.73	56.53	34.98	-45.2	-59.8	3.8	1.49e+00	0	61	104	446693376	61	19857
2026-01-18 08:56:47.74	56.13	34.97	-45.2	-59.7	3.8	1.49e+00	0	61	104	446693376	61	19818
2026-01-18 08:56:48.75	55.72	34.96	-45.1	-59.7	3.8	1.49e+00	0	61	104	446693376	61	19682
2026-01-18 08:56:49.76	55.32	34.95	-45.1	-59.7	3.8	1.49e+00	0	61	104	446693376	61	19704
2026-01-18 08:56:50.77	54.92	34.94	-45.1	-59.7	3.8	1.49e+00	0	61	104	446693376	61	19777
2026-01-18 08:56:51.78	54.52	34.93	-45.1	-59.7	3.8	1.49e+00	0	61	104	446693376	61	19664
2026-01-18 08:56:52.79	54.12	34.91	-45.2	-59.7	3.8	1.49e+00	0	61	104	446693376	61	19758
2026-01-18 08:56:53.80	53.71	34.89	-45.2	-59.7	3.8	1.49e+00	0	61	104	446693376	61	19683
2026-01-18 08:56:54.81	53.31	34.87	-45.2	-59.7	3.8	1.49e+00	0	61	104	446693376	61	19679
2026-01-18 08:56:55.82	52.91	34.85	-45.1	-59.7	3.8	1.49e+00	0	61	104	446693376	61	19669
2026-01-18 08:56:56.83	52.51	34.83	-45.1	-59.7	3.8	1.49e+00	0	61	104	446693376	61	19660
2026-01-18 08:56:57.84	52.11	34.81	-45.2	-59.7	3.8	1.49e+00	0	61	104	446693376	61	19685
2026-01-18 08:56:58.86	51.71	34.78	-45.2	-59.7	3.8	1.49e+00	0	61	104	446693376	61	19701
2026-01-18 08:56:59.87	51.31	34.75	-45.2	-59.7	3.8	1.49e+00	0	61	104	446693376	61	19665
2026-01-18 08:57:00.88	50.92	34.73	-45.1	-59.7	3.8	1.49e+00	0	61	104	446693376	61	19697
2026-01-18 08:57:01.89	50.52	34.70	-45.2	-59.7	3.8	1.49e+00	0	61	104	446693376	61	19680
2026-01-18 08:57:02.90	50.12	34.66	-45.1	-59.7	3.8	1.49e+00	0	61	104	446693376	61	19620
2026-01-18 08:57:03.91	49.73	34.63	-45.1	-59.7	3.8	1.49e+00	0	61	104	446693376	61	19689
2026-01-18 08:57:04.92	49.34	34.60	-45.2	-59.7	3.8	1.49e+00	0	60	104	446693376	61	19719
2026-01-18 08:57:05.93	48.94	34.56	-45.1	-59.7	3.8	1.49e+00	0	61	104	446693376	61	19623
2026-01-18 08:57:06.94	48.55	34.52	-45.1	-59.7	3.8	1.49e+00	0	61	104	446693376	61	19714
2026-01-18 08:57:07.95	48.16	34.48	-45.1	-59.7	3.8	1.49e+00	0	61	104	446693376	61	19623
2026-01-18 08:57:08.96	47.77	34.44	-45.1	-59.7	3.8	1.49e+00	0	61	104	446693376	61	19623
2026-01-18 08:57:09.97	47.38	34.40	-45.1	-59.7	3.8	1.49e+00	0	61	104	446693376	61	19616
2026-01-18 08:57:10.99	46.99	34.36	-45.1	-59.7	3.8	1.49e+00	0	61	104	446693376	61	19623
2026-01-18 08:57:12.00	46.60	34.31	-45.1	-59.6	3.8	1.49e+00	0	61	104	446693376	61	19519
2026-01-18 08:57:13.01	46.21	34.27	-45.1	-59.6	3.8	1.49e+00	0	61	104	446693376	61	19593
2026-01-18 08:57:14.02	45.83	34.22	-45.1	-59.6	3.8	1.49e+00	0	61	104	446693376	61	19603
2026-01-18 08:57:15.03	45.44	34.17	-45.1	-59.6	3.8	1.49e+00	0	61	104	446693376	61	19579
2026-01-18 08:57:16.04	45.06	34.12	-45.1	-59.6	3.8	1.49e+00	0	61	104	446693376	61	19605
2026-01-18 08:57:17.05	44.68	34.07	-45.1	-59.7	3.8	1.49e+00	0	61	104	446693376	61	19615
2026-01-18 08:57:18.06	44.30	34.02	-45.1	-59.7	3.8	1.49e+00	0	61	104	446693376	61	19616
2026-01-18 08:57:19.07	43.92	33.96	-45.1	-59.6	3.8	1.49e+00	0	61	104	446693376	61	19588
2026-01-18 08:57:20.08	43.54	33.91	-45.1	-59.6	3.8	1.49e+00	0	61	104	446693376	61	19610
2026-01-18 08:57:21.09	43.17	33.85	-45.1	-59.6	3.8	1.49e+00	0	61	104	446693376	61	19610
2026-01-18 08:57:22.10	42.79	33.79	-45.1	-59.6	3.8	1.49e+00	0	61	104	446693376	61	19580
2026-01-18 08:57:23.11	42.42	33.73	-45.1	-59.6	3.8	1.49e+00	0	61	104	446693376	61	19550
2026-01-18 08:57:24.13	42.04	33.67	-45.1	-59.6	3.8	1.49e+00	0	61	104	446693376	61	19594
2026-01-18 08:57:25.14	41.67	33.61	-45.1	-59.6	3.8	1.49e+00	0	61	104	446693376	61	19541
2026-01-18 08:57:26.15	41.30	33.54	-45.1	-59.6	3.8	1.49e+00	0	61	104	446693376	61	19548
2026-01-18 08:57:27.16	40.93	33.48	-45.1	-59.6	3.8	1.49e+00	0	61	104	446693376	61	19602
2026-01-18 08:57:28.17	40.57	33.41	-45.1	-59.6	3.8	1.49e+00	0	61	104	446693376	61	19595
2026-01-18 08:57:29.17	40.20	33.35	-45.1	-59.6	3.8	1.49e+00	0	61	104	446693376	61	19570
2026-01-18 08:57:30.17	39.84	33.28	-45.1	-59.6	3.8	1.49e+00	0	61	104	446693376	61	19598
2026-01-18 08:57:31.18	39.48	33.21	-45.1	-59.6	3.8	1.49e+00	0	61	104	446693376	61	19544
2026-01-18 08:57:32.18	39.13	33.14	-45.1	-59.6	3.8	1.49e+00	0	61	104	446693376	61	19561
2026-01-18 08:57:33.19	38.77	33.07	-45.1	-59.6	3.8	1.49e+00	0	61	104	446693376	61	19518
2026-01-18 08:57:34.20	38.41	33.00	-45.1	-59.6	3.8	1.49e+00	0	61	104	446693376	61	19581
2026-01-18 08:57:35.21	38.05	32.92	-45.1	-59.6	3.8	1.49e+00	0	61	104	446693376	61	19553
2026-01-18 08:57:36.22	37.70	32.85	-45.1	-59.6	3.8	1.49e+00	0	61	104	446693376	61	19583
2026-01-18 08:57:37.23	37.35	32.77	-45.1	-59.6	3.8	1.49e+00	0	61	104	446693376	61	19475
2026-01-18 08:57:38.23	37.00	32.70	-45.1	-59.6	3.8	1.49e+00	0	61	104	446693376	61	19492
2026-01-18 08:57:39.25	36.65	32.62	-45.1	-59.6	3.8	1.49e+00	0	61	104	446693376	61	19476
2026-01-18 08:57:40.26	36.30	32.54	-45.1	-59.6	3.8	1.49e+00	0	61	104	446693376	61	19432
2026-01-18 08:57:41.26	35.96	32.46	-45.1	-59.6	3.8	1.49e+00	0	61	104	446693376	61	19422
2026-01-18 08:57:42.27	35.62	32.38	-45.1	-59.6	3.8	1.49e+00	0	61	104	446693376	60	20673
2026-01-18 08:57:43.28	35.27	32.30	-45.1	-59.6	3.8	1.49e+00	0	61	104	446693376	60	20661
2026-01-18 08:57:44.29	34.93	32.22	-45.1	-59.6	3.8	1.49e+00	0	61	104	446693376	60	20680
2026-01-18 08:57:45.30	34.59	32.13	-45.1	-59.6	3.8	1.49e+00	0	61	104	446693376	60	20632
2026-01-18 08:57:46.30	34.26	32.05	-45.1	-59.6	3.8	1.49e+00	0	61	104	446693376	60	20663
2026-01-18 08:57:47.31	33.93	31.96	-45.1	-59.6	3.8	1.49e+00	0	61	104	446693376	60	20647
2026-01-18 08:57:48.32	33.59	31.88	-45.1	-59.6	3.8	1.49e+00	0	61	104	446693376	60	20660
2026-01-18 08:57:49.33	33.26	31.79	-45.1	-59.6	3.8	1.49e+00	0	61	104	446693376	60	20630
2026-01-18 08:57:50.33	32.93	31.71	-45.1	-59.6	3.8	1.49e+00	0	61	104	446693376	60	20697
2026-01-18 08:57:51.33	32.61	31.62	-45.1	-59.6	3.8	1.49e+00	0	61	104	446693376	60	20710
2026-01-18 08:57:52.34	32.28	31.53	-45.1	-59.6	3.8	1.49e+00	0	61	104	446693376	60	20633
2026-01-18 08:57:53.35	31.96	31.44	-45.1	-59.5	3.8	1.49e+00	0	61	104	446693376	60	20536
2026-01-18 08:57:54.35	31.64	31.35	-45.0	-59.6	3.8	1.49e+00	0	61	104	446693376	60	20566
2026-01-18 08:57:55.36	31.32	31.26	-45.0	-59.6	3.8	1.49e+00	0	61	104	446693376	60	20636
2026-01-18 08:57:56.36	31.00	31.17	-45.0	-59.6	3.8	1.49e+00	0	61	104	446693376	60	20548
2026-01-18 08:57:57.37	30.69	31.07	-45.0	-59.6	3.8	1.49e+00	0	61	104	446693376	60	20591
2026-01-18 08:57:58.38	30.37	30.98	-45.0	-59.6	3.8	1.49e+00	0	61	104	446693376	60	20548
2026-01-18 08:57:59.38	30.06	30.89	-45.0	-59.6	3.8	1.49e+00	0	61	104	446693376	60	20545
2026-01-18 08:58:00.39	29.75	30.79	-45.0	-59.6	3.8	1.49e+00	0	61	104	446693376	60	20584
2026-01-18 08:58:01.40	29.44	30.70	-45.0	-59.6	3.8	1.49e+00	0	61	104	446693376	60	20562
2026-01-18 08:58:02.40	29.14	30.60	-45.0	-59.5	3.8	1.49e+00	0	61	104	446693376	60	20520
2026-01-18 08:58:03.40	28.83	30.50	-45.0	-59.6	3.8	1.49e+00	0	61	104	446693376	60	20571
2026-01-18 08:58:04.41	28.53	30.41	-45.0	-59.6	3.8	1.49e+00	0	61	104	446693376	60	20626
2026-01-18 08:58:05.42	28.23	30.31	-45.0	-59.6	3.8	1.49e+00	0	61	104	446693376	60	20541
2026-01-18 08:58:06.42	27.93	30.21	-45.0	-59.6	3.8	1.49e+00	0	61	104	446693376	60	20554
2026-01-18 08:58:07.43	27.63	30.11	-45.0	-59.6	3.8	1.49e+00	0	61	104	446693376	60	20550
2026-01-18 08:58:08.43	27.34	30.01	-45.0	-59.5	3.8	1.49e+00	0	61	104	446693376	60	20531
2026-01-18 08:58:09.44	27.04	29.91	-45.0	-59.6	3.8	1.49e+00	0	61	104	446693376	60	20541
2026-01-18 08:58:10.44	26.75	29.81	-45.0	-59.5	3.8	1.49e+00	0	61	104	446693376	60	20498
2026-01-18 08:58:11.45	26.46	29.71	-45.0	-59.5	3.8	1.49e+00	0	61	104	446693376	60	20534
2026-01-18 08:58:12.46	26.17	29.61	-45.0	-59.6	3.8	1.49e+00	0	61	104	446693376	60	20564
2026-01-18 08:58:13.47	25.88	29.51	-44.8	-59.6	3.8	1.49e+00	0	61	104	446693376	60	20556
2026-01-18 08:58:14.48	25.60	29.41	-45.0	-59.6	3.8	1.49e+00	0	61	104	446693376	60	20585
2026-01-18 08:58:15.49	25.31	29.30	-45.0	-59.5	3.8	1.49e+00	0	61	104	446693376	60	20505
2026-01-18 08:58:16.49	25.03	29.20	-45.0	-59.6	3.8	1.49e+00	0	61	104	446693376	60	20576
2026-01-18 08:58:17.50	24.75	29.10	-45.0	-59.6	3.8	1.49e+00	0	61	104	446693376	60	20564
2026-01-18 08:58:18.51	24.48	29.00	-45.0	-59.6	3.8	1.49e+00	0	61	104	446693376	60	20543
2026-01-18 08:58:19.51	24.20	28.89	-45.0	-59.6	3.8	1.49e+00	0	61	104	446693376	60	20610
2026-01-18 08:58:20.52	23.93	28.79	-45.0	-59.6	3.8	1.49e+00	0	61	104	446693376	60	20604
2026-01-18 08:58:21.53	23.65	28.68	-45.0	-59.6	3.8	1.49e+00	0	61	104	446693376	60	20579
2026-01-18 08:58:22.53	23.39	28.58	-44.9	-59.6	3.8	1.49e+00	0	61	104	446693376	60	20602
2026-01-18 08:58:23.53	23.12	28.47	-45.0	-59.6	3.8	1.49e+00	0	61	104	446693376	60	20573
2026-01-18 08:58:24.54	22.85	28.37	-45.0	-59.6	3.8	1.49e+00	0	61	104	446693376	60	20625
2026-01-18 08:58:25.55	22.59	28.26	-45.0	-59.5	3.8	1.49e+00	0	61	104	446693376	60	20533
2026-01-18 08:58:26.56	22.32	28.15	-45.0	-59.6	3.8	1.49e+00	0	61	104	446693376	60	20547
2026-01-18 08:58:27.56	22.06	28.05	-45.0	-59.5	3.8	1.49e+00	0	61	104	446693376	60	20498
2026-01-18 08:58:28.57	21.80	27.94	-45.0	-59.6	3.8	1.49e+00	0	61	104	446693376	60	20564
2026-01-18 08:58:29.57	21.55	27.84	-45.0	-59.6	3.8	1.49e+00	0	61	104	446693376	60	20606
2026-01-18 08:58:30.58	21.29	27.73	-45.0	-59.6	3.8	1.49e+00	0	61	104	446693376	60	20542
2026-01-18 08:58:31.58	21.04	27.62	-45.0	-59.6	3.8	1.49e+00	0	61	104	446693376	60	20563
2026-01-18 08:58:32.59	20.78	27.51	-45.0	-59.6	3.8	1.49e+00	0	61	104	446693376	60	20587
2026-01-18 08:58:33.59	20.53	27.41	-45.0	-59.5	3.8	1.49e+00	0	61	104	446693376	60	20508
2026-01-18 08:58:34.60	20.28	27.30	-45.0	-59.6	3.8	1.49e+00	0	61	104	446693376	60	20540
2026-01-18 08:58:35.60	20.04	27.19	-45.0	-59.6	3.8	1.49e+00	0	61	104	446693376	60	20616
2026-01-18 08:58:36.61	19.79	27.08	-45.0	-59.5	3.8	1.49e+00	0	61	104	446693376	60	20521
2026-01-18 08:58:37.62	19.55	26.97	-45.0	-59.5	3.8	1.49e+00	0	61	104	446693376	60	20525
2026-01-18 08:58:38.63	19.30	26.86	-45.0	-59.5	3.8	1.49e+00	0	61	104	446693376	60	20519
2026-01-18 08:58:39.64	19.06	26.76	-45.0	-59.5	3.8	1.49e+00	0	61	104	446693376	60	20498
2026-01-18 08:58:40.64	18.82	26.65	-45.0	-59.5	3.8	1.49e+00	0	61	104	446693376	60	20537
2026-01-18 08:58:41.65	18.59	26.54	-45.0	-59.5	3.8	1.49e+00	0	61	104	446693376	60	20483
2026-01-18 08:58:42.66	18.35	26.43	-45.0	-59.5	3.8	1.49e+00	0	61	104	446693376	60	20528
2026-01-18 08:58:43.67	18.11	26.32	-45.0	-59.5	3.8	1.49e+00	0	61	104	446693376	60	20486
2026-01-18 08:58:44.68	17.88	26.21	-45.0	-59.6	3.8	1.49e+00	0	61	104	446693376	60	20571
2026-01-18 08:58:45.68	17.65	26.10	-45.0	-59.6	3.8	1.49e+00	0	61	104	446693376	60	20615
2026-01-18 08:58:46.69	17.42	25.99	-45.0	-59.6	3.8	1.49e+00	0	61	104	446693376	60	20542
2026-01-18 08:58:47.70	17.19	25.88	-45.0	-59.5	3.8	1.49e+00	0	61	104	446693376	60	20513
2026-01-18 08:58:48.71	16.97	25.77	-45.0	-59.5	3.8	1.49e+00	0	61	104	446693376	60	20524
2026-01-18 08:58:49.72	16.74	25.66	-45.0	-59.5	3.8	1.49e+00	0	61	104	446693376	60	20515
2026-01-18 08:58:50.73	16.52	25.55	-45.0	-59.5	3.8	1.49e+00	0	61	104	446693376	60	20526
2026-01-18 08:58:51.73	16.30	25.44	-45.0	-59.6	3.8	1.49e+00	0	61	104	446693376	60	20562
2026-01-18 08:58:52.74	16.08	25.33	-44.9	-59.5	3.8	1.49e+00	0	61	104	446693376	60	20468
2026-01-18 08:58:53.74	15.86	25.23	-45.0	-59.6	3.8	1.49e+00	0	61	104	446693376	60	20588
2026-01-18 08:58:54.75	15.64	25.12	-45.0	-59.6	3.8	1.49e+00	0	61	104	446693376	60	20539
2026-01-18 08:58:55.75	15.43	25.01	-45.0	-59.6	3.8	1.49e+00	0	61	104	446693376	60	20552
2026-01-18 08:58:56.76	15.21	24.90	-45.0	-59.5	3.8	1.49e+00	0	61	104	446693376	60	20522
2026-01-18 08:58:57.77	15.00	24.79	-45.0	-59.5	3.8	1.49e+00	0	61	104	446693376	60	20509
2026-01-18 08:58:58.77	14.79	24.68	-45.0	-59.6	3.8	1.49e+00	0	61	104	446693376	60	20597
2026-01-18 08:58:59.78	14.58	24.57	-45.0	-59.6	3.8	1.49e+00	0	61	104	446693376	60	20577
2026-01-18 08:59:00.79	14.37	24.46	-45.0	-59.6	3.8	1.49e+00	0	61	104	446693376	60	20583
2026-01-18 08:59:01.80	14.17	24.35	-45.0	-59.5	3.8	1.49e+00	0	61	104	446693376	60	20511
2026-01-18 08:59:02.80	13.96	24.24	-45.0	-59.5	3.8	1.49e+00	0	61	104	446693376	60	20508
2026-01-18 08:59:03.81	13.76	24.13	-45.0	-59.6	3.8	1.49e+00	0	61	104	446693376	60	20552
2026-01-18 08:59:04.81	13.56	24.02	-45.0	-59.6	3.8	1.49e+00	0	61	104	446693376	60	20557
2026-01-18 08:59:05.82	13.36	23.91	-45.0	-59.5	3.8	1.49e+00	0	61	104	446693376	60	20505
2026-01-18 08:59:06.82	13.16	23.81	-45.0	-59.5	3.8	1.49e+00	0	61	104	446693376	60	20478
2026-01-18 08:59:07.83	12.96	23.70	-44.8	-59.5	3.8	1.49e+00	0	61	104	446693376	60	20505
2026-01-18 08:59:08.84	12.76	23.59	-45.0	-59.5	3.8	1.49e+00	0	61	104	446693376	60	20463
2026-01-18 08:59:09.85	12.57	23.48	-45.0	-59.5	3.8	1.49e+00	0	61	104	446693376	60	20506
2026-01-18 08:59:10.85	12.37	23.37	-45.0	-59.5	3.8	1.49e+00	0	61	104	446693376	60	20399
2026-01-18 08:59:11.85	12.18	23.26	-45.0	-59.5	3.8	1.49e+00	0	61	104	446693376	60	20507
2026-01-18 08:59:12.86	11.99	23.15	-45.0	-59.6	3.8	1.49e+00	0	61	104	446693376	60	20546
2026-01-18 08:59:13.86	11.80	23.05	-45.0	-59.5	3.8	1.49e+00	0	61	104	446693376	60	20521
2026-01-18 08:59:14.86	11.62	22.94	-45.0	-59.6	3.8	1.49e+00	0	61	104	446693376	60	20591
2026-01-18 08:59:15.86	11.43	22.83	-45.0	-59.5	3.8	1.49e+00	0	61	104	446693376	60	20500
2026-01-18 08:59:16.86	11.25	22.72	-45.0	-59.5	3.8	1.49e+00	0	61	104	446693376	60	20508
2026-01-18 08:59:17.86	11.06	22.62	-45.0	-59.6	3.8	1.49e+00	0	61	104	446693376	60	20571
2026-01-18 08:59:18.86	10.88	22.51	-45.0	-59.6	3.8	1.49e+00	0	61	104	446693376	60	20559
2026-01-18 08:59:19.87	10.70	22.40	-45.0	-59.5	3.8	1.49e+00	0	61	104	446693376	60	20460
2026-01-18 08:59:20.87	10.52	22.29	-45.0	-59.5	3.8	1.49e+00	0	61	104	446693376	60	20513
2026-01-18 08:59:21.87	10.34	22.19	-45.0	-59.5	3.8	1.49e+00	0	61	104	446693376	60	20513
2026-01-18 08:59:22.87	10.16	22.08	-45.0	-59.5	3.8	1.49e+00	0	61	104	446693376	60	20508
2026-01-18 08:59:23.88	9.99	21.97	-44.9	-59.5	3.8	1.49e+00	0	61	104	446693376	60	20501
2026-01-18 08:59:24.89	9.81	21.87	-45.0	-59.5	3.8	1.49e+00	0	61	104	446693376	60	20454
2026-01-18 08:59:25.89	9.64	21.76	-45.0	-59.5	3.8	1.49e+00	0	61	104	446693376	60	20434
2026-01-18 08:59:26.88	9.47	21.66	-45.0	-59.5	3.8	1.49e+00	0	61	104	446693376	60	20456
2026-01-18 08:59:27.88	9.30	21.55	-45.0	-59.5	3.8	1.49e+00	0	61	104	446693376	60	20402
2026-01-18 08:59:28.89	9.13	21.44	-45.0	-59.5	3.8	1.49e+00	0	61	104	446693376	60	20450
2026-01-18 08:59:29.90	8.96	21.34	-45.0	-59.5	3.8	1.49e+00	0	61	104	446693376	60	20442
2026-01-18 08:59:30.90	8.79	21.23	-45.0	-59.5	3.8	1.49e+00	0	61	104	446693376	60	20457
2026-01-18 08:59:31.91	8.62	21.13	-45.0	-59.5	3.8	1.49e+00	0	61	104	446693376	60	20395
2026-01-18 08:59:32.93	8.45	21.02	-44.9	-59.5	3.8	1.49e+00	0	61	104	446693376	60	20342
2026-01-18 08:59:33.93	8.29	20.92	-45.0	-59.5	3.8	1.49e+00	0	61	104	446693376	60	20417
2026-01-18 08:59:34.94	8.12	20.81	-44.9	-59.5	3.8	1.49e+00	0	61	104	446693376	60	20403
2026-01-18 08:59:35.95	7.96	20.71	-45.0	-59.5	3.8	1.49e+00	0	61	104	446693376	60	20356
2026-01-18 08:59:36.96	7.80	20.60	-45.0	-59.5	3.8	1.49e+00	0	61	104	446693376	60	20394
2026-01-18 08:59:37.97	7.64	20.50	-45.0	-59.5	3.8	1.49e+00	0	61	104	446693376	60	20441
2026-01-18 08:59:38.97	7.48	20.39	-45.0	-59.5	3.8	1.49e+00	0	61	104	446693376	60	20416
2026-01-18 08:59:39.99	7.32	20.29	-45.0	-59.5	3.8	1.49e+00	0	61	104	446693376	60	20427
2026-01-18 08:59:41.00	7.16	20.18	-45.0	-59.5	3.8	1.49e+00	0	61	104	446693376	60	20382
2026-01-18 08:59:42.01	7.01	20.08	-45.0	-59.5	3.8	1.49e+00	0	61	104	446693376	60	20359
2026-01-18 08:59:43.01	6.85	19.98	-45.0	-59.5	3.8	1.49e+00	0	61	104	446693376	60	20387
2026-01-18 08:59:44.02	6.70	19.87	-45.0	-59.5	3.8	1.49e+00	0	61	104	446693376	60	20360
2026-01-18 08:59:45.03	6.54	19.77	-45.0	-59.5	3.8	1.49e+00	0	61	104	446693376	60	20353
2026-01-18 08:59:46.03	6.39	19.67	-45.0	-59.5	3.8	1.49e+00	0	61	104	446693376	60	20357
2026-01-18 08:59:47.04	6.24	19.56	-45.0	-59.5	3.8	1.49e+00	0	61	104	446693376	60	20422
2026-01-18 08:59:48.04	6.09	19.46	-45.0	-59.5	3.8	1.49e+00	0	61	104	446693376	60	20371
2026-01-18 08:59:49.05	5.95	19.36	-44.9	-59.5	3.8	1.49e+00	0	61	104	446693376	60	20332
2026-01-18 08:59:50.05	5.80	19.26	-45.0	-59.5	3.8	1.49e+00	0	61	104	446693376	60	20391
2026-01-18 08:59:51.06	5.65	19.16	-45.0	-59.5	3.8	1.49e+00	0	61	104	446693376	60	20438
2026-01-18 08:59:52.06	5.51	19.06	-44.9	-59.5	3.8	1.49e+00	0	61	104	446693376	60	20351
2026-01-18 08:59:53.07	5.36	18.95	-45.0	-59.5	3.8	1.49e+00	0	61	104	446693376	60	20449
2026-01-18 08:59:54.08	5.22	18.85	-44.9	-59.5	3.8	1.49e+00	0	61	104	446693376	60	20390
2026-01-18 08:59:55.09	5.07	18.75	-45.0	-59.5	3.8	1.49e+00	0	61	104	446693376	60	20422
2026-01-18 08:59:56.10	4.93	18.65	-45.0	-59.5	3.8	1.49e+00	0	61	104	446693376	60	20378
2026-01-18 08:59:57.11	4.79	18.55	-44.8	-59.5	3.8	1.49e+00	0	61	104	446693376	60	20332
2026-01-18 08:59:58.12	4.65	18.45	-44.9	-59.5	3.8	1.49e+00	0	61	104	446693376	60	20376
2026-01-18 08:59:59.13	4.51	18.35	-44.9	-59.5	3.8	1.49e+00	0	61	104	446693376	60	20397
2026-01-18 09:00:00.14	4.37	18.25	-44.9	-59.5	3.8	1.49e+00	0	61	104	446693376	60	20404
2026-01-18 09:00:01.15	4.24	18.15	-44.9	-59.5	3.8	1.49e+00	0	61	104	446693376	60	20413
2026-01-18 09:00:02.15	4.10	18.05	-45.0	-59.5	3.8	1.49e+00	0	61	104	446693376	60	20344
2026-01-18 09:00:03.16	3.97	17.95	-44.9	-59.5	3.8	1.49e+00	0	61	104	446693376	60	20372
2026-01-18 09:00:04.16	3.83	17.85	-44.9	-59.5	3.8	1.49e+00	0	61	104	446693376	60	20388
2026-01-18 09:00:05.17	3.70	17.75	-45.0	-59.5	3.8	1.49e+00	0	61	104	446693376	60	20399
2026-01-18 09:00:06.18	3.57	17.66	-44.9	-59.5	3.8	1.49e+00	0	61	104	446693376	60	20382
2026-01-18 09:00:07.19	3.43	17.56	-44.9	-59.5	3.8	1.49e+00	0	61	104	446693376	60	20387
2026-01-18 09:00:08.19	3.30	17.46	-44.9	-59.5	3.8	1.49e+00	0	61	104	446693376	60	20351
2026-01-18 09:00:09.20	3.17	17.36	-44.9	-59.5	3.8	1.49e+00	0	61	104	446693376	60	20347
2026-01-18 09:00:10.21	3.04	17.26	-44.9	-59.5	3.8	1.49e+00	0	61	104	446693376	60	20360
2026-01-18 09:00:11.22	2.92	17.17	-44.9	-59.5	3.8	1.49e+00	0	61	104	446693376	60	20425
2026-01-18 09:00:12.22	2.79	17.07	-45.0	-59.5	3.8	1.49e+00	0	61	104	446693376	60	20391
2026-01-18 09:00:13.23	2.66	16.97	-45.0	-59.5	3.8	1.49e+00	0	61	104	446693376	60	20422
2026-01-18 09:00:14.24	2.54	16.88	-44.9	-59.5	3.8	1.49e+00	0	61	104	446693376	60	20394
2026-01-18 09:00:15.25	2.41	16.78	-45.0	-59.5	3.8	1.49e+00	0	61	104	446693376	60	20338
2026-01-18 09:00:16.25	2.29	16.69	-45.0	-59.5	3.8	1.49e+00	0	61	104	446693376	60	20363
2026-01-18 09:00:17.26	2.16	16.59	-44.9	-59.5	3.8	1.49e+00	0	61	104	446693376	60	20342
2026-01-18 09:00:18.27	2.04	16.49	-45.0	-59.5	3.8	1.49e+00	0	61	104	446693376	60	20437
2026-01-18 09:00:19.28	1.92	16.40	-45.0	-59.5	3.8	1.49e+00	0	61	104	446693376	60	20404
2026-01-18 09:00:20.28	1.80	16.30	-44.9	-59.5	3.8	1.49e+00	0	61	104	446693376	60	20333
2026-01-18 09:00:21.29	1.68	16.21	-45.0	-59.5	3.8	1.49e+00	0	61	104	446693376	60	20322
2026-01-18 09:00:22.30	1.56	16.11	-44.9	-59.5	3.8	1.49e+00	0	61	104	446693376	60	20356
2026-01-18 09:00:23.31	1.44	16.02	-44.9	-59.4	3.8	1.49e+00	0	61	104	446693376	60	20299
2026-01-18 09:00:24.31	1.32	15.93	-45.0	-59.5	3.8	1.49e+00	0	61	104	446693376	60	20439
2026-01-18 09:00:25.32	1.21	15.83	-44.9	-59.5	3.8	1.49e+00	0	61	104	446693376	60	20453
2026-01-18 09:00:26.33	1.09	15.74	-44.9	-59.5	3.8	1.49e+00	0	61	104	446693376	60	20391
2026-01-18 09:00:27.33	0.97	15.65	-44.9	-59.5	3.8	1.49e+00	0	61	104	446693376	60	20336
2026-01-18 09:00:28.34	0.86	15.55	-44.9	-59.5	3.8	1.49e+00	0	61	104	446693376	60	20434
2026-01-18 09:00:29.34	0.75	15.46	-45.0	-59.5	3.8	1.49e+00	0	61	104	446693376	60	20334
2026-01-18 09:00:30.35	0.63	15.37	-44.9	-59.5	3.8	1.49e+00	0	61	104	446693376	60	20375
2026-01-18 09:00:31.35	0.52	15.27	-44.9	-59.5	3.8	1.49e+00	0	61	104	446693376	60	20323
2026-01-18 09:00:32.36	0.41	15.18	-45.0	-59.4	3.8	1.49e+00	0	61	104	446693376	60	20294
2026-01-18 09:00:33.37	0.30	15.09	-45.0	-59.5	3.8	1.49e+00	0	61	104	446693376	60	20395
2026-01-18 09:00:34.38	0.19	15.00	-44.9	-59.5	3.8	1.49e+00	0	62	104	446693376	60	20397
2026-01-18 09:00:35.39	0.08	14.91	-45.0	-59.5	3.8	1.49e+00	0	61	104	446693376	60	20392
2026-01-18 09:00:36.39	359.97	14.82	-45.0	-59.5	3.8	1.49e+00	0	61	104	446693376	60	20350
2026-01-18 09:00:37.39	359.86	14.73	-44.9	-59.5	3.8	1.49e+00	0	61	104	446693376	60	20373
2026-01-18 09:00:38.40	359.75	14.63	-44.9	-59.5	3.8	1.49e+00	0	61	104	446693376	60	20358
2026-01-18 09:00:39.41	359.65	14.54	-44.9	-59.5	3.8	1.49e+00	0	61	104	446693376	60	20362
2026-01-18 09:00:40.42	359.54	14.45	-45.0	-59.5	3.8	1.49e+00	0	61	104	446693376	60	20381
2026-01-18 09:00:41.43	359.43	14.36	-44.9	-59.5	3.8	1.49e+00	0	61	104	446693376	60	20392
2026-01-18 09:00:42.44	359.33	14.27	-44.9	-59.5	3.8	1.49e+00	0	61	104	446693376	60	20434
2026-01-18 09:00:43.44	359.22	14.18	-45.0	-59.5	3.8	1.49e+00	0	61	104	446693376	60	20382
2026-01-18 09:00:44.45	359.12	14.09	-45.0	-59.5	3.8	1.49e+00	0	61	104	446693376	60	20371
2026-01-18 09:00:45.46	359.02	14.00	-44.9	-59.5	3.8	1.49e+00	0	61	104	446693376	60	20377
2026-01-18 09:00:46.46	358.92	13.92	-44.9	-59.5	3.8	1.49e+00	0	61	104	446693376	60	20382
2026-01-18 09:00:47.47	358.81	13.83	-44.9	-59.5	3.8	1.49e+00	0	61	104	446693376	60	20397
2026-01-18 09:00:48.47	358.71	13.74	-44.9	-59.5	3.8	1.49e+00	0	61	104	446693376	60	20341
2026-01-18 09:00:49.48	358.61	13.65	-44.9	-59.5	3.8	1.49e+00	0	61	104	446693376	60	20378
2026-01-18 09:00:50.48	358.51	13.56	-44.9	-59.5	3.8	1.49e+00	0	61	104	446693376	60	20329
2026-01-18 09:00:51.48	358.41	13.48	-45.0	-59.5	3.8	1.49e+00	0	61	104	446693376	60	20394
2026-01-18 09:00:52.49	358.32	13.39	-44.9	-59.5	3.8	1.49e+00	0	61	104	446693376	60	20389
2026-01-18 09:00:53.49	358.22	13.30	-44.9	-59.5	3.8	1.49e+00	0	61	104	446693376	60	20346
2026-01-18 09:00:54.50	358.12	13.22	-44.9	-59.5	3.8	1.49e+00	0	61	104	446693376	60	20360
2026-01-18 09:00:55.50	358.02	13.13	-44.8	-59.5	3.8	1.49e+00	0	61	104	446693376	60	20354
2026-01-18 09:00:56.51	357.93	13.04	-44.9	-59.4	3.8	1.49e+00	0	61	104	446693376	60	20289
2026-01-18 09:00:57.51	357.83	12.96	-44.9	-59.5	3.8	1.49e+00	0	61	104	446693376	60	20369
2026-01-18 09:00:58.51	357.74	12.87	-44.9	-59.5	3.8	1.49e+00	0	61	104	446693376	60	20411
2026-01-18 09:00:59.52	357.64	12.78	-44.9	-59.5	3.8	1.49e+00	0	61	104	446693376	60	20309
2026-01-18 09:01:00.52	357.55	12.70	-44.9	-59.4	3.8	1.49e+00	0	61	104	446693376	60	20303
2026-01-18 09:01:01.53	357.46	12.61	-44.9	-59.5	3.8	1.49e+00	0	61	104	446693376	60	20358
2026-01-18 09:01:02.53	357.36	12.53	-44.9	-59.5	3.8	1.49e+00	0	61	104	446693376	60	20316
2026-01-18 09:01:03.54	357.27	12.44	-44.9	-59.5	3.8	1.49e+00	0	61	104	446693376	60	20343
2026-01-18 09:01:04.54	357.18	12.36	-44.9	-59.5	3.8	1.49e+00	0	61	104	446693376	60	20362
2026-01-18 09:01:05.55	357.09	12.27	-44.9	-59.4	3.8	1.49e+00	0	61	104	446693376	60	20295
2026-01-18 09:01:06.55	357.00	12.19	-44.9	-59.5	3.8	1.49e+00	0	61	104	446693376	60	20345
2026-01-18 09:01:07.56	356.91	12.11	-44.9	-59.5	3.8	1.49e+00	0	61	104	446693376	60	20322
2026-01-18 09:01:08.57	356.82	12.02	-44.9	-59.5	3.8	1.49e+00	0	61	104	446693376	60	20334
2026-01-18 09:01:09.58	356.73	11.94	-44.9	-59.5	3.8	1.49e+00	0	61	104	446693376	60	20337
2026-01-18 09:01:10.59	356.64	11.85	-44.9	-59.5	3.8	1.49e+00	0	61	104	446693376	60	20337
2026-01-18 09:01:11.59	356.55	11.77	-44.9	-59.4	3.8	1.49e+00	0	61	104	446693376	60	20296
2026-01-18 09:01:12.60	356.46	11.69	-44.9	-59.5	3.8	1.49e+00	0	61	104	446693376	60	20320
2026-01-18 09:01:13.61	356.38	11.61	-44.9	-59.5	3.8	1.49e+00	0	61	104	446693376	60	20344
2026-01-18 09:01:14.62	356.29	11.52	-44.9	-59.5	3.8	1.49e+00	0	61	104	446693376	60	20368
2026-01-18 09:01:15.62	356.21	11.44	-44.9	-59.4	3.8	1.49e+00	0	61	104	446693376	60	20245
2026-01-18 09:01:16.62	356.12	11.36	-44.9	-59.5	3.8	1.49e+00	0	61	104	446693376	60	20318
2026-01-18 09:01:17.63	356.04	11.28	-44.9	-59.4	3.8	1.49e+00	0	61	104	446693376	60	20277
2026-01-18 09:01:18.64	355.95	11.19	-44.9	-59.5	3.8	1.49e+00	0	61	104	446693376	60	20328
2026-01-18 09:01:19.64	355.87	11.11	-44.9	-59.5	3.8	1.49e+00	0	61	104	446693376	60	20398
2026-01-18 09:01:20.65	355.78	11.03	-44.9	-59.5	3.8	1.49e+00	0	61	104	446693376	60	20332
2026-01-18 09:01:21.66	355.70	10.95	-44.9	-59.5	3.8	1.49e+00	0	61	104	446693376	60	20321
2026-01-18 09:01:22.67	355.62	10.87	-44.9	-59.5	3.8	1.49e+00	0	61	104	446693376	60	20344
2026-01-18 09:01:23.68	355.54	10.79	-44.9	-59.4	3.8	1.49e+00	0	61	104	446693376	60	20297
2026-01-18 09:01:24.69	355.45	10.71	-44.9	-59.5	3.8	1.49e+00	0	61	104	446693376	60	20386
2026-01-18 09:01:25.70	355.37	10.63	-44.9	-59.4	3.8	1.49e+00	0	61	104	446693376	60	20267
2026-01-18 09:01:26.71	355.29	10.55	-44.9	-59.4	3.8	1.49e+00	0	61	104	446693376	60	20264
2026-01-18 09:01:27.72	355.21	10.47	-44.9	-59.5	3.8	1.49e+00	0	61	104	446693376	60	20313
2026-01-18 09:01:28.73	355.13	10.39	-44.9	-59.4	3.8	1.49e+00	0	61	104	446693376	60	20246
2026-01-18 09:01:29.73	355.05	10.31	-44.9	-59.4	3.8	1.49e+00	0	61	104	446693376	60	20257
2026-01-18 09:01:30.74	354.97	10.23	-44.9	-59.4	3.8	1.49e+00	0	61	104	446693376	60	20296
2026-01-18 09:01:31.74	354.90	10.15	-44.9	-59.4	3.8	1.49e+00	0	61	104	446693376	60	20296
2026-01-18 09:01:32.75	354.82	10.07	-44.9	-59.4	3.8	1.49e+00	0	61	104	446693376	60	20291
2026-01-18 09:01:33.75	354.74	9.99	-44.9	-59.4	3.8	1.49e+00	0	61	104	446693376	60	20282
2026-01-18 09:01:34.75	354.66	9.91	-44.9	-59.4	3.8	1.49e+00	0	61	104	446693376	60	20300
