passes_logs/2026/01/18/R2.0S_Moscow/R2.0S_Moscow__20260118_220642_FENGYUN_3G_rec.log

#Pass ID: 20260118_220642_FENGYUN 3G
#Satellite: FENGYUN 3G
#Configuration: FENGYUN 3G
#almurnet v.1.7.20251203
#Start time: 2026-01-18 22:06:43

#Version: 2.2.20231116
#Station: R2.0S_Moscow
#Location: 37.707566 lon 55.798166 lat
#TLE: 1 56232U 23055A   26017.94343179  .00026793  00000+0  41706-3 0  9996
#TLE: 2 56232  49.9938  40.7454 0004132  42.1181 318.0104 15.53646528156658

#Time	Az	El	Level	Level2	SNR	BER	BlckErr	Temp	State	Recorded	gain1	gain2
2026-01-18 22:06:43.86	253.85	2.07	-44.1	-62.1	3.8	8.47e-01	0	54	0	0	60	27623
2026-01-18 22:06:44.86	253.79	2.13	-44.1	-62.2	3.8	8.44e-01	0	54	104	0	60	27808
2026-01-18 22:06:45.87	253.72	2.20	-44.1	-62.2	3.8	8.46e-01	0	54	104	0	60	27858
2026-01-18 22:06:46.88	253.66	2.27	-44.1	-62.2	3.8	8.46e-01	0	54	104	0	60	27745
2026-01-18 22:06:47.89	253.60	2.33	-44.1	-62.2	3.8	8.46e-01	0	54	104	0	60	27856
2026-01-18 22:06:48.90	253.53	2.40	-44.1	-62.2	3.8	8.45e-01	0	54	104	0	60	27826
2026-01-18 22:06:49.91	253.47	2.47	-44.1	-62.2	3.8	8.46e-01	0	54	104	0	60	27882
2026-01-18 22:06:50.92	253.40	2.54	-44.1	-62.2	3.8	8.46e-01	0	54	104	0	60	27887
2026-01-18 22:06:51.94	253.34	2.61	-44.1	-62.2	3.8	8.48e-01	0	54	104	0	60	27843
2026-01-18 22:06:52.94	253.27	2.67	-44.1	-62.2	3.8	8.46e-01	0	54	104	0	60	27803
2026-01-18 22:06:53.96	253.21	2.74	-44.1	-62.2	3.8	8.46e-01	0	54	104	0	60	27873
2026-01-18 22:06:54.97	253.14	2.81	-44.1	-62.2	3.8	8.47e-01	0	54	104	0	60	27764
2026-01-18 22:06:55.98	253.07	2.88	-44.1	-62.2	3.8	8.46e-01	0	54	104	0	60	27889
2026-01-18 22:06:56.99	253.01	2.95	-44.1	-62.2	3.8	8.46e-01	0	54	104	0	60	27804
2026-01-18 22:06:58.00	252.94	3.02	-44.1	-62.2	3.8	8.46e-01	0	54	104	0	60	27771
2026-01-18 22:06:59.01	252.87	3.09	-44.1	-62.2	3.8	8.45e-01	0	55	104	0	60	27748
2026-01-18 22:07:00.02	252.80	3.16	-44.1	-62.2	3.8	8.46e-01	0	55	104	0	60	27780
2026-01-18 22:07:01.03	252.73	3.23	-44.1	-62.1	3.8	8.46e-01	0	55	104	0	60	27665
2026-01-18 22:07:02.04	252.66	3.30	-44.1	-62.1	3.8	8.47e-01	0	55	104	0	60	27646
2026-01-18 22:07:03.05	252.59	3.37	-44.1	-62.1	3.8	8.46e-01	0	55	104	0	60	27615
2026-01-18 22:07:04.06	252.52	3.44	-44.1	-62.1	3.8	8.46e-01	0	55	104	0	60	27625
2026-01-18 22:07:05.07	252.45	3.51	-44.1	-62.1	3.8	8.46e-01	0	55	104	0	60	27614
2026-01-18 22:07:06.08	252.38	3.58	-44.1	-62.0	3.8	8.47e-01	0	55	104	0	60	27349
2026-01-18 22:07:07.10	252.30	3.65	-44.1	-62.1	3.8	8.47e-01	0	55	104	0	60	27496
2026-01-18 22:07:08.11	252.23	3.72	-44.1	-62.1	3.8	8.46e-01	0	55	104	0	60	27654
2026-01-18 22:07:09.12	252.16	3.80	-44.1	-62.2	3.8	8.46e-01	0	55	104	0	60	27788
2026-01-18 22:07:10.13	252.08	3.87	-44.1	-62.2	3.8	8.45e-01	0	55	104	0	60	27708
2026-01-18 22:07:11.14	252.01	3.94	-44.1	-62.1	3.8	8.45e-01	0	55	104	0	60	27590
2026-01-18 22:07:12.15	251.93	4.01	-44.1	-62.1	3.8	8.47e-01	0	55	104	0	60	27432
2026-01-18 22:07:13.16	251.86	4.09	-44.1	-61.9	3.8	8.46e-01	0	56	104	0	60	27008
2026-01-18 22:07:14.17	251.78	4.16	-44.1	-61.6	3.8	8.46e-01	0	56	104	0	60	26026
2026-01-18 22:07:15.18	251.70	4.23	-44.0	-61.7	3.8	8.46e-01	0	56	104	0	60	26168
2026-01-18 22:07:16.19	251.63	4.31	-44.1	-61.4	3.8	8.46e-01	0	56	104	0	60	25293
2026-01-18 22:07:17.20	251.55	4.38	-44.1	-61.4	3.8	8.46e-01	0	56	104	0	60	25386
2026-01-18 22:07:18.21	251.47	4.45	-44.1	-61.3	3.8	8.46e-01	0	55	104	0	60	25155
2026-01-18 22:07:19.22	251.39	4.53	-44.1	-61.3	3.8	8.45e-01	0	55	104	0	60	25238
2026-01-18 22:07:20.23	251.31	4.60	-44.0	-61.3	3.8	8.45e-01	0	55	104	0	60	25176
2026-01-18 22:07:21.24	251.23	4.68	-44.1	-61.5	3.8	8.46e-01	0	56	104	0	60	25769
2026-01-18 22:07:22.25	251.15	4.75	-44.1	-61.7	3.8	8.47e-01	0	56	104	0	60	26405
2026-01-18 22:07:23.26	251.07	4.83	-44.1	-61.8	3.8	8.47e-01	0	56	104	0	60	26746
2026-01-18 22:07:24.27	250.99	4.91	-44.1	-61.8	3.8	8.47e-01	0	56	104	0	60	26756
2026-01-18 22:07:25.28	250.90	4.98	-44.1	-61.7	3.8	8.46e-01	0	56	104	0	60	26444
2026-01-18 22:07:26.29	250.82	5.06	-44.1	-61.6	3.8	8.47e-01	0	56	104	0	60	26040
2026-01-18 22:07:27.30	250.74	5.14	-44.0	-61.2	3.8	8.47e-01	0	56	104	0	60	24765
2026-01-18 22:07:28.31	250.65	5.21	-44.0	-60.8	3.8	8.45e-01	0	56	104	0	60	23728
2026-01-18 22:07:29.32	250.57	5.29	-44.0	-60.5	3.8	8.46e-01	0	56	104	0	60	22976
2026-01-18 22:07:30.34	250.48	5.37	-44.0	-59.9	3.8	8.46e-01	0	56	104	0	60	21490
2026-01-18 22:07:31.35	250.39	5.45	-44.0	-59.5	3.9	8.45e-01	0	56	104	0	60	20362
2026-01-18 22:07:32.36	250.31	5.53	-44.1	-58.9	4.1	8.44e-01	0	56	104	0	59	20123
2026-01-18 22:07:33.37	250.22	5.60	-44.0	-59.0	4.1	8.44e-01	0	56	0	0	59	20410
2026-01-18 22:07:34.38	250.13	5.68	-44.0	-58.4	4.2	8.42e-01	0	56	0	0	59	19102
2026-01-18 22:07:35.39	250.04	5.76	-44.0	-58.5	4.2	8.37e-01	0	56	0	0	59	19179
2026-01-18 22:07:36.40	249.95	5.84	-44.0	-58.5	4.2	8.35e-01	0	57	0	0	59	19208
2026-01-18 22:07:37.41	249.86	5.92	-44.0	-57.9	4.4	8.35e-01	0	57	0	0	59	18034
2026-01-18 22:07:38.42	249.77	6.00	-44.0	-57.6	4.5	8.31e-01	0	57	0	0	59	17310
2026-01-18 22:07:39.43	249.67	6.08	-44.0	-57.4	4.7	8.17e-01	0	57	0	0	59	16973
2026-01-18 22:07:40.44	249.58	6.16	-43.9	-56.7	5.0	8.17e-01	0	57	0	0	59	15590
2026-01-18 22:07:41.45	249.49	6.24	-43.9	-55.6	5.6	7.95e-01	0	57	0	0	59	13861
2026-01-18 22:07:42.46	249.39	6.33	-43.8	-54.7	6.3	5.81e-01	0	57	0	1048576	59	12376
2026-01-18 22:07:43.48	249.30	6.41	-43.7	-53.9	7.1	5.81e-01	0	57	0	2097152	59	11378
2026-01-18 22:07:44.48	249.20	6.49	-43.0	-51.9	8.4	2.41e-01	0	57	0	3145728	58	9519
2026-01-18 22:07:45.49	249.10	6.57	-43.4	-52.2	8.7	9.93e-02	0	57	0	4194304	58	9895
2026-01-18 22:07:46.51	249.01	6.66	-43.3	-51.2	9.7	9.93e-02	0	57	0	5242880	58	8823
2026-01-18 22:07:47.52	248.91	6.74	-43.2	-50.9	9.9	3.29e-02	0	57	0	6291456	58	8545
2026-01-18 22:07:48.53	248.81	6.82	-43.2	-50.8	10.1	1.21e-02	0	57	0	7864320	58	8417
2026-01-18 22:07:49.54	248.71	6.91	-43.3	-51.3	9.7	1.12e-02	0	57	0	8912896	58	8928
2026-01-18 22:07:50.55	248.61	6.99	-43.4	-52.2	8.8	1.12e-02	0	57	0	9961472	58	9847
2026-01-18 22:07:51.56	248.51	7.08	-43.7	-53.8	7.1	3.27e-02	0	57	0	11010048	58	11937
2026-01-18 22:07:52.57	248.40	7.16	-43.9	-55.8	5.6	2.01e-01	0	57	0	12058624	58	14912
2026-01-18 22:07:53.58	248.30	7.25	-44.1	-59.5	4.0	2.01e-01	0	57	104	12058624	58	22888
2026-01-18 22:07:54.59	248.20	7.33	-44.1	-61.3	3.8	7.70e-01	0	57	104	12058624	58	28069
2026-01-18 22:07:55.60	248.09	7.42	-44.0	-57.6	4.5	8.46e-01	0	57	104	12058624	58	18369
2026-01-18 22:07:56.61	247.98	7.50	-43.7	-53.5	7.2	8.46e-01	0	57	0	12582912	58	11539
2026-01-18 22:07:57.62	247.88	7.59	-43.3	-51.2	9.6	5.53e-01	0	57	0	13631488	58	8836
2026-01-18 22:07:58.63	247.77	7.68	-42.8	-49.2	11.7	2.63e-02	0	57	0	14680064	57	7396
2026-01-18 22:07:59.64	247.66	7.77	-42.4	-48.0	13.1	2.63e-02	0	57	0	15728640	56	6811
2026-01-18 22:08:00.65	247.55	7.85	-42.1	-47.3	13.8	6.53e-04	0	57	0	16777216	56	6344
2026-01-18 22:08:01.66	247.44	7.94	-41.7	-46.6	14.4	1.25e-05	0	57	0	17825792	55	6162
2026-01-18 22:08:02.67	247.33	8.03	-41.8	-46.6	14.3	0.00e+00	0	57	0	19398656	55	6201
2026-01-18 22:08:03.68	247.22	8.12	-42.6	-48.6	13.7	0.00e+00	0	58	0	20447232	55	7729
2026-01-18 22:08:04.69	247.10	8.21	-43.1	-50.0	10.9	2.47e-02	0	57	0	21495808	58	7658
2026-01-18 22:08:05.70	246.99	8.30	-43.2	-51.5	10.7	5.16e-02	0	58	0	22544384	57	9615
2026-01-18 22:08:06.71	246.87	8.39	-41.1	-45.1	16.0	5.16e-02	0	58	0	23592960	54	5516
2026-01-18 22:08:07.72	246.76	8.48	-43.7	-53.8	8.7	2.05e-01	0	58	0	24641536	57	12562
2026-01-18 22:08:08.73	246.64	8.57	-41.8	-46.4	13.9	2.73e-01	0	58	0	25165824	55	6008
2026-01-18 22:08:09.74	246.52	8.66	-41.2	-45.2	15.9	2.73e-01	0	58	0	26214400	54	5587
2026-01-18 22:08:10.75	246.40	8.76	-41.0	-44.9	16.2	3.09e-02	0	57	0	27787264	53	5710
2026-01-18 22:08:11.76	246.28	8.85	-40.9	-44.7	16.4	0.00e+00	0	58	0	28835840	53	5571
2026-01-18 22:08:12.77	246.16	8.94	-40.9	-44.6	16.6	0.00e+00	0	57	0	29884416	53	5466
2026-01-18 22:08:13.78	246.04	9.04	-40.8	-44.5	16.6	0.00e+00	0	58	0	30932992	53	5432
2026-01-18 22:08:14.79	245.91	9.13	-40.7	-44.2	16.9	0.00e+00	0	58	0	31981568	53	5276
2026-01-18 22:08:15.80	245.79	9.22	-40.6	-44.0	17.1	0.00e+00	0	58	0	33030144	53	5141
2026-01-18 22:08:16.81	245.66	9.32	-40.4	-43.8	17.4	0.00e+00	0	58	0	34603008	52	5313
2026-01-18 22:08:17.82	245.53	9.41	-40.5	-43.8	17.4	0.00e+00	0	58	0	35651584	52	5339
2026-01-18 22:08:18.83	245.40	9.51	-40.4	-43.8	17.4	0.00e+00	0	58	0	36700160	52	5287
2026-01-18 22:08:19.84	245.28	9.60	-40.6	-44.0	17.2	0.00e+00	0	58	0	37748736	52	5448
2026-01-18 22:08:20.85	245.14	9.70	-40.5	-43.8	17.4	0.00e+00	0	58	0	38797312	52	5318
2026-01-18 22:08:21.86	245.01	9.80	-40.3	-43.6	17.7	0.00e+00	0	58	0	39845888	52	5185
2026-01-18 22:08:22.87	244.88	9.89	-40.5	-43.8	17.4	0.00e+00	0	58	0	41418752	52	5320
2026-01-18 22:08:23.88	244.75	9.99	-40.5	-43.8	17.5	0.00e+00	0	58	0	42467328	52	5311
2026-01-18 22:08:24.89	244.61	10.09	-40.5	-43.9	17.4	0.00e+00	0	58	0	43515904	52	5371
2026-01-18 22:08:25.89	244.47	10.19	-40.5	-43.9	17.4	0.00e+00	0	58	0	44564480	52	5370
2026-01-18 22:08:26.90	244.34	10.29	-40.6	-44.0	17.3	0.00e+00	0	58	0	45613056	52	5404
2026-01-18 22:08:27.91	244.20	10.39	-40.5	-43.8	17.5	0.00e+00	0	58	0	46661632	52	5317
2026-01-18 22:08:28.92	244.06	10.49	-40.3	-43.5	17.8	0.00e+00	0	58	0	48234496	52	5123
2026-01-18 22:08:29.93	243.91	10.59	-40.2	-43.3	17.9	0.00e+00	0	58	0	49283072	52	5038
2026-01-18 22:08:30.94	243.77	10.69	-40.4	-43.6	17.7	0.00e+00	0	58	0	50331648	52	5193
2026-01-18 22:08:31.95	243.63	10.79	-40.2	-43.3	18.0	0.00e+00	0	58	0	51380224	52	5018
2026-01-18 22:08:32.96	243.48	10.89	-40.4	-43.7	17.7	0.00e+00	0	58	0	52428800	52	5223
2026-01-18 22:08:33.97	243.33	11.00	-40.1	-43.2	18.1	0.00e+00	0	58	0	53477376	52	4962
2026-01-18 22:08:34.97	243.19	11.10	-40.2	-43.3	18.0	0.00e+00	0	58	0	55050240	52	5028
2026-01-18 22:08:35.98	243.03	11.20	-40.2	-43.3	18.0	0.00e+00	0	58	0	56098816	52	5034
2026-01-18 22:08:36.99	242.88	11.30	-40.2	-43.4	18.0	0.00e+00	0	58	0	57147392	52	5043
2026-01-18 22:08:38.00	242.73	11.41	-40.3	-43.5	17.9	0.00e+00	0	58	0	58195968	52	5128
2026-01-18 22:08:39.01	242.58	11.51	-40.2	-43.3	18.0	0.00e+00	0	58	0	59244544	52	5037
2026-01-18 22:08:40.02	242.42	11.62	-40.2	-43.3	18.1	0.00e+00	0	58	0	60293120	52	4999
2026-01-18 22:08:41.03	242.26	11.73	-40.0	-43.0	18.4	0.00e+00	0	58	0	61865984	52	4824
2026-01-18 22:08:42.04	242.10	11.83	-40.0	-42.9	18.5	0.00e+00	0	58	0	62914560	51	5087
2026-01-18 22:08:43.05	241.94	11.94	-40.2	-43.2	18.3	0.00e+00	0	58	0	63963136	51	5225
2026-01-18 22:08:44.06	241.78	12.05	-40.2	-43.2	18.3	0.00e+00	0	59	0	65011712	51	5240
2026-01-18 22:08:45.07	241.62	12.16	-40.1	-43.0	18.4	0.00e+00	0	59	0	66060288	51	5145
2026-01-18 22:08:46.08	241.45	12.26	-40.0	-42.9	18.6	0.00e+00	0	58	0	67108864	51	5047
2026-01-18 22:08:47.09	241.28	12.37	-40.1	-43.0	18.5	0.00e+00	0	59	0	68681728	51	5130
2026-01-18 22:08:48.10	241.11	12.48	-40.0	-42.9	18.6	0.00e+00	0	58	0	69730304	51	5070
2026-01-18 22:08:49.11	240.94	12.59	-40.0	-42.9	18.6	0.00e+00	0	59	0	70778880	51	5044
2026-01-18 22:08:50.12	240.77	12.70	-40.0	-42.9	18.7	0.00e+00	0	58	0	71827456	51	5059
2026-01-18 22:08:51.13	240.60	12.82	-40.2	-43.1	18.4	0.00e+00	0	58	0	72876032	51	5190
2026-01-18 22:08:52.14	240.42	12.93	-40.3	-43.4	18.2	0.00e+00	0	59	0	73924608	51	5346
2026-01-18 22:08:53.14	240.25	13.04	-40.1	-43.0	18.5	0.00e+00	0	59	0	75497472	51	5157
2026-01-18 22:08:54.15	240.07	13.15	-40.0	-42.9	18.7	0.00e+00	0	59	0	76546048	51	5075
2026-01-18 22:08:55.16	239.89	13.27	-40.0	-42.9	18.7	0.00e+00	0	59	0	77594624	51	5060
2026-01-18 22:08:56.18	239.70	13.38	-40.0	-42.8	18.8	0.00e+00	0	59	0	78643200	51	5033
2026-01-18 22:08:57.18	239.52	13.49	-39.8	-42.6	19.0	0.00e+00	0	59	0	79691776	51	4885
2026-01-18 22:08:58.19	239.33	13.61	-39.7	-42.4	19.2	0.00e+00	0	59	0	80740352	51	4793
2026-01-18 22:08:59.20	239.14	13.73	-39.6	-42.2	19.3	0.00e+00	0	59	0	82313216	51	4695
2026-01-18 22:09:00.21	238.95	13.84	-39.8	-42.5	19.1	0.00e+00	0	59	0	83361792	51	4835
2026-01-18 22:09:01.22	238.76	13.96	-39.6	-42.3	19.3	0.00e+00	0	59	0	84410368	51	4712
2026-01-18 22:09:02.23	238.57	14.08	-39.6	-42.2	19.4	0.00e+00	0	59	0	85458944	51	4680
2026-01-18 22:09:03.24	238.37	14.19	-39.5	-42.1	19.5	0.00e+00	0	59	0	86507520	51	4645
2026-01-18 22:09:04.25	238.17	14.31	-39.5	-42.1	19.5	0.00e+00	0	59	0	87556096	51	4645
2026-01-18 22:09:05.26	237.97	14.43	-39.7	-42.4	19.2	0.00e+00	0	59	0	89128960	51	4808
2026-01-18 22:09:06.27	237.77	14.55	-39.6	-42.3	19.3	0.00e+00	0	59	0	90177536	51	4729
2026-01-18 22:09:07.27	237.57	14.67	-39.7	-42.4	19.3	0.00e+00	0	59	0	91226112	51	4761
2026-01-18 22:09:08.28	237.36	14.79	-39.6	-42.3	19.4	0.00e+00	0	59	0	92274688	51	4713
2026-01-18 22:09:09.29	237.15	14.91	-39.7	-42.4	19.3	0.00e+00	0	59	0	93323264	51	4773
2026-01-18 22:09:10.30	236.94	15.03	-39.5	-42.0	19.7	0.00e+00	0	59	0	94371840	50	4851
2026-01-18 22:09:11.31	236.73	15.16	-39.5	-42.0	19.6	0.00e+00	0	59	0	95944704	50	4862
2026-01-18 22:09:12.32	236.51	15.28	-39.2	-41.7	20.0	0.00e+00	0	59	0	96993280	50	4681
2026-01-18 22:09:13.33	236.29	15.40	-39.2	-41.7	20.0	0.00e+00	0	59	0	98041856	50	4666
2026-01-18 22:09:14.34	236.07	15.53	-39.2	-41.7	20.1	0.00e+00	0	59	0	99090432	50	4658
2026-01-18 22:09:15.35	235.85	15.65	-39.1	-41.5	20.2	0.00e+00	0	59	0	100139008	50	4592
2026-01-18 22:09:16.36	235.62	15.78	-39.2	-41.6	20.1	0.00e+00	0	59	0	101187584	50	4625
2026-01-18 22:09:17.37	235.40	15.90	-39.3	-41.7	20.0	0.00e+00	0	59	0	102760448	50	4675
2026-01-18 22:09:18.38	235.17	16.03	-39.2	-41.6	20.0	0.00e+00	0	59	0	103809024	50	4646
2026-01-18 22:09:19.39	234.93	16.16	-39.2	-41.6	20.1	0.00e+00	0	59	0	104857600	50	4644
2026-01-18 22:09:20.40	234.70	16.29	-39.1	-41.5	20.2	0.00e+00	0	59	0	105906176	50	4594
2026-01-18 22:09:21.41	234.46	16.41	-39.0	-41.4	20.3	0.00e+00	0	59	0	106954752	50	4515
2026-01-18 22:09:22.42	234.22	16.54	-39.0	-41.4	20.4	0.00e+00	0	59	0	108003328	50	4494
2026-01-18 22:09:23.43	233.98	16.67	-38.8	-41.1	20.6	0.00e+00	0	59	0	109576192	49	4645
2026-01-18 22:09:24.43	233.74	16.80	-38.7	-40.9	20.8	0.00e+00	0	59	0	110624768	49	4537
2026-01-18 22:09:25.44	233.49	16.93	-38.7	-41.0	20.8	0.00e+00	0	59	0	111673344	49	4565
2026-01-18 22:09:26.45	233.24	17.06	-38.8	-41.1	20.6	0.00e+00	0	59	0	112721920	49	4617
2026-01-18 22:09:27.46	232.98	17.19	-38.8	-41.2	20.6	0.00e+00	0	59	0	113770496	49	4654
2026-01-18 22:09:28.47	232.73	17.32	-38.9	-41.2	20.5	0.00e+00	0	59	0	114819072	49	4690
2026-01-18 22:09:29.48	232.47	17.46	-38.9	-41.2	20.5	0.00e+00	0	59	0	116391936	49	4681
2026-01-18 22:09:30.49	232.21	17.59	-38.9	-41.3	20.5	0.00e+00	0	59	0	117440512	49	4718
2026-01-18 22:09:31.50	231.94	17.72	-38.9	-41.2	20.5	0.00e+00	0	59	0	118489088	49	4704
2026-01-18 22:09:32.51	231.68	17.86	-38.9	-41.2	20.5	0.00e+00	0	59	0	119537664	49	4699
2026-01-18 22:09:33.53	231.40	17.99	-38.8	-41.1	20.6	0.00e+00	0	59	0	120586240	49	4640
2026-01-18 22:09:34.53	231.13	18.13	-38.9	-41.2	20.6	0.00e+00	0	59	0	121634816	49	4700
2026-01-18 22:09:35.54	230.85	18.26	-39.0	-41.4	20.4	0.00e+00	0	59	0	122683392	49	4781
2026-01-18 22:09:36.55	230.58	18.40	-38.7	-41.0	20.8	0.00e+00	0	59	0	124256256	49	4563
2026-01-18 22:09:37.56	230.29	18.53	-38.8	-41.0	20.8	0.00e+00	0	59	0	125304832	49	4590
2026-01-18 22:09:38.57	230.01	18.67	-38.7	-40.9	20.9	0.00e+00	0	59	0	126353408	49	4522
2026-01-18 22:09:39.58	229.72	18.81	-38.5	-40.7	21.1	0.00e+00	0	60	0	127401984	49	4423
2026-01-18 22:09:40.59	229.43	18.95	-38.3	-40.5	21.3	0.00e+00	0	59	0	128450560	48	4567
2026-01-18 22:09:41.60	229.13	19.08	-38.3	-40.4	21.4	0.00e+00	0	59	0	129499136	48	4544
2026-01-18 22:09:42.61	228.83	19.22	-38.4	-40.6	21.2	0.00e+00	0	59	0	131072000	48	4610
2026-01-18 22:09:43.62	228.53	19.36	-38.7	-40.9	20.9	0.00e+00	0	59	0	132120576	48	4790
2026-01-18 22:09:44.63	228.22	19.50	-38.6	-40.9	21.0	0.00e+00	0	59	0	133169152	48	4765
2026-01-18 22:09:45.64	227.91	19.64	-38.4	-40.5	21.3	0.00e+00	0	60	0	134217728	48	4587
2026-01-18 22:09:46.65	227.60	19.78	-38.5	-40.7	21.1	0.00e+00	0	60	0	135266304	48	4660
2026-01-18 22:09:47.66	227.29	19.92	-38.6	-40.8	21.0	0.00e+00	0	59	0	136839168	48	4730
2026-01-18 22:09:48.67	226.97	20.06	-38.3	-40.4	21.5	0.00e+00	0	59	0	137887744	48	4512
2026-01-18 22:09:49.67	226.65	20.20	-38.1	-40.2	21.7	0.00e+00	0	59	0	138936320	48	4413
2026-01-18 22:09:50.69	226.32	20.34	-37.9	-40.0	21.8	0.00e+00	0	60	0	139984896	47	4563
2026-01-18 22:09:51.69	225.99	20.48	-37.8	-39.9	21.9	0.00e+00	0	59	0	141033472	47	4505
2026-01-18 22:09:52.70	225.66	20.62	-37.9	-40.0	21.9	0.00e+00	0	59	0	142082048	47	4547
2026-01-18 22:09:53.71	225.32	20.76	-38.1	-40.2	21.7	0.00e+00	0	59	0	143654912	47	4661
2026-01-18 22:09:54.73	224.97	20.91	-38.2	-40.3	21.5	0.00e+00	0	60	0	144703488	47	4756
2026-01-18 22:09:55.73	224.63	21.05	-38.2	-40.3	21.6	0.00e+00	0	59	0	145752064	47	4719
2026-01-18 22:09:56.75	224.28	21.19	-38.2	-40.3	21.5	0.00e+00	0	60	0	146800640	47	4746
2026-01-18 22:09:57.75	223.93	21.33	-38.1	-40.2	21.7	0.00e+00	0	59	0	147849216	47	4652
2026-01-18 22:09:58.76	223.57	21.47	-37.9	-40.0	21.8	0.00e+00	0	60	0	148897792	47	4572
2026-01-18 22:09:59.77	223.21	21.62	-37.8	-39.8	22.1	0.00e+00	0	59	0	150470656	47	4451
2026-01-18 22:10:00.78	222.85	21.76	-37.8	-39.8	22.1	0.00e+00	0	59	0	151519232	47	4482
2026-01-18 22:10:01.79	222.48	21.90	-37.7	-39.6	22.2	0.00e+00	0	59	0	152567808	47	4376
2026-01-18 22:10:02.80	222.10	22.04	-37.6	-39.5	22.3	0.00e+00	0	60	0	153616384	47	4338
2026-01-18 22:10:03.81	221.73	22.19	-37.7	-39.6	22.2	0.00e+00	0	60	0	154664960	47	4382
2026-01-18 22:10:04.82	221.35	22.33	-37.7	-39.7	22.2	0.00e+00	0	60	0	155713536	47	4424
2026-01-18 22:10:05.83	220.96	22.47	-37.9	-39.9	22.0	0.00e+00	0	60	0	157286400	47	4527
2026-01-18 22:10:06.84	220.57	22.61	-38.1	-40.1	21.8	0.00e+00	0	60	0	158334976	47	4628
2026-01-18 22:10:07.85	220.18	22.75	-37.9	-40.0	21.9	0.00e+00	0	60	0	159383552	47	4559
2026-01-18 22:10:08.86	219.78	22.90	-37.8	-39.8	22.1	0.00e+00	0	59	0	160432128	47	4486
2026-01-18 22:10:09.87	219.38	23.04	-37.8	-39.9	22.1	0.00e+00	0	60	0	161480704	47	4494
2026-01-18 22:10:10.88	218.97	23.18	-37.6	-39.6	22.3	0.00e+00	0	60	0	162529280	47	4363
2026-01-18 22:10:11.89	218.56	23.32	-37.4	-39.3	22.6	0.00e+00	0	60	0	163577856	46	4486
2026-01-18 22:10:12.90	218.15	23.46	-37.5	-39.5	22.5	0.00e+00	0	60	0	165150720	46	4549
2026-01-18 22:10:13.91	217.73	23.60	-37.4	-39.4	22.5	0.00e+00	0	60	0	166199296	46	4497
2026-01-18 22:10:14.92	217.30	23.74	-37.6	-39.5	22.4	0.00e+00	0	60	0	167247872	46	4585
2026-01-18 22:10:15.93	216.87	23.88	-37.6	-39.6	22.3	0.00e+00	0	60	0	168296448	46	4601
2026-01-18 22:10:16.94	216.44	24.02	-37.5	-39.4	22.6	0.00e+00	0	60	0	169345024	46	4505
2026-01-18 22:10:17.95	216.00	24.15	-37.5	-39.4	22.5	0.00e+00	0	60	0	170393600	46	4512
2026-01-18 22:10:18.96	215.56	24.29	-37.7	-39.7	22.2	0.00e+00	0	60	0	171966464	46	4693
2026-01-18 22:10:19.97	215.11	24.43	-37.7	-39.7	22.2	0.00e+00	0	60	0	173015040	46	4685
2026-01-18 22:10:20.98	214.66	24.56	-37.8	-39.8	22.1	0.00e+00	0	60	0	174063616	46	4751
2026-01-18 22:10:21.99	214.21	24.70	-37.8	-39.8	22.1	0.00e+00	0	60	0	175112192	46	4725
2026-01-18 22:10:22.99	213.75	24.83	-37.6	-39.6	22.3	0.00e+00	0	60	0	176160768	46	4620
2026-01-18 22:10:24.00	213.29	24.97	-37.5	-39.4	22.5	0.00e+00	0	60	0	177733632	46	4545
2026-01-18 22:10:25.01	212.82	25.10	-37.4	-39.3	22.7	0.00e+00	0	60	0	178782208	46	4459
2026-01-18 22:10:26.02	212.35	25.23	-37.2	-39.1	22.9	0.00e+00	0	60	0	179830784	46	4345
2026-01-18 22:10:27.03	211.87	25.36	-37.3	-39.2	22.8	0.00e+00	0	60	0	180879360	46	4402
2026-01-18 22:10:28.04	211.38	25.49	-37.4	-39.4	22.6	0.00e+00	0	60	0	181927936	46	4499
2026-01-18 22:10:29.05	210.90	25.62	-37.6	-39.5	22.5	0.00e+00	0	60	0	182976512	46	4571
2026-01-18 22:10:30.06	210.40	25.74	-37.6	-39.6	22.4	0.00e+00	0	60	0	184549376	46	4615
2026-01-18 22:10:31.07	209.91	25.87	-37.5	-39.4	22.5	0.00e+00	0	60	0	185597952	46	4541
2026-01-18 22:10:32.08	209.41	25.99	-37.5	-39.5	22.5	0.00e+00	0	60	0	186646528	46	4554
2026-01-18 22:10:33.08	208.91	26.12	-37.2	-39.1	22.9	0.00e+00	0	60	0	187695104	46	4358
2026-01-18 22:10:34.09	208.40	26.24	-37.2	-39.0	22.9	0.00e+00	0	60	0	188743680	46	4332
2026-01-18 22:10:35.10	207.88	26.36	-37.2	-39.1	22.9	0.00e+00	0	60	0	189792256	46	4356
2026-01-18 22:10:36.11	207.36	26.48	-37.3	-39.1	22.8	0.00e+00	0	60	0	191365120	46	4381
2026-01-18 22:10:37.12	206.84	26.59	-37.4	-39.3	22.7	0.00e+00	0	60	0	192413696	46	4452
2026-01-18 22:10:38.13	206.31	26.71	-37.3	-39.2	22.8	0.00e+00	0	60	0	193462272	46	4411
2026-01-18 22:10:39.14	205.78	26.82	-37.1	-38.9	23.0	0.00e+00	0	60	0	194510848	46	4288
2026-01-18 22:10:40.15	205.25	26.93	-37.2	-39.1	22.9	0.00e+00	0	60	0	195559424	46	4350
2026-01-18 22:10:41.16	204.70	27.04	-36.9	-38.6	23.3	0.00e+00	0	60	0	196608000	45	4390
2026-01-18 22:10:42.17	204.16	27.15	-37.0	-38.8	23.1	0.00e+00	0	60	0	198180864	45	4463
2026-01-18 22:10:43.18	203.61	27.25	-37.0	-38.9	23.0	0.00e+00	0	60	0	199229440	45	4503
2026-01-18 22:10:44.19	203.06	27.36	-37.0	-38.8	23.0	0.00e+00	0	60	0	200278016	45	4482
2026-01-18 22:10:45.20	202.50	27.46	-37.0	-38.8	23.1	0.00e+00	0	60	0	201326592	45	4458
2026-01-18 22:10:46.21	201.94	27.56	-36.7	-38.5	23.4	0.00e+00	0	60	0	202375168	45	4300
2026-01-18 22:10:47.22	201.38	27.65	-36.8	-38.6	23.3	0.00e+00	0	60	0	203423744	45	4347
2026-01-18 22:10:48.23	200.81	27.75	-36.9	-38.8	23.1	0.00e+00	0	60	0	204472320	45	4449
2026-01-18 22:10:49.24	200.23	27.84	-37.0	-38.8	23.2	0.00e+00	0	60	0	206045184	45	4453
2026-01-18 22:10:50.24	199.66	27.93	-37.1	-38.9	23.0	0.00e+00	0	60	0	207093760	45	4541
2026-01-18 22:10:51.25	199.08	28.02	-37.0	-38.8	23.2	0.00e+00	0	60	0	208142336	45	4462
2026-01-18 22:10:52.26	198.50	28.10	-36.8	-38.5	23.3	0.00e+00	0	60	0	209190912	45	4330
2026-01-18 22:10:53.27	197.91	28.18	-36.7	-38.5	23.4	0.00e+00	0	60	0	210239488	45	4306
2026-01-18 22:10:54.27	197.33	28.26	-36.8	-38.6	23.3	0.00e+00	0	60	0	211288064	45	4368
2026-01-18 22:10:55.28	196.74	28.34	-37.0	-38.9	23.0	0.00e+00	0	60	0	212860928	45	4496
2026-01-18 22:10:56.29	196.14	28.41	-37.0	-38.8	23.1	0.00e+00	0	60	0	213909504	45	4485
2026-01-18 22:10:57.30	195.54	28.48	-36.8	-38.6	23.2	0.00e+00	0	60	0	214958080	45	4385
2026-01-18 22:10:58.31	194.94	28.55	-36.9	-38.7	23.2	0.00e+00	0	60	0	216006656	45	4433
2026-01-18 22:10:59.32	194.33	28.61	-36.9	-38.7	23.2	0.00e+00	0	60	0	217055232	45	4398
2026-01-18 22:11:00.32	193.73	28.68	-37.1	-39.0	22.9	0.00e+00	0	60	0	218103808	45	4566
2026-01-18 22:11:01.34	193.11	28.73	-37.3	-39.2	22.7	0.00e+00	0	60	0	219676672	45	4654
2026-01-18 22:11:02.35	192.50	28.79	-37.5	-39.5	22.4	0.00e+00	0	60	0	220725248	45	4832
2026-01-18 22:11:03.35	191.89	28.84	-37.6	-39.6	22.4	0.00e+00	0	60	0	221773824	45	4876
2026-01-18 22:11:04.37	191.27	28.89	-37.6	-39.5	22.4	0.00e+00	0	60	0	222822400	45	4843
2026-01-18 22:11:05.38	190.65	28.94	-37.5	-39.4	22.5	0.00e+00	0	60	0	223870976	45	4793
2026-01-18 22:11:06.38	190.03	28.98	-37.5	-39.5	22.4	0.00e+00	0	60	0	224919552	45	4836
2026-01-18 22:11:07.39	189.41	29.02	-37.7	-39.6	22.3	0.00e+00	0	60	0	226492416	45	4898
2026-01-18 22:11:08.40	188.78	29.06	-37.5	-39.4	22.4	0.00e+00	0	60	0	227540992	45	4804
2026-01-18 22:11:09.41	188.16	29.09	-37.1	-38.9	23.0	0.00e+00	0	60	0	228589568	45	4532
2026-01-18 22:11:10.42	187.53	29.12	-37.0	-38.8	23.1	0.00e+00	0	60	0	229638144	45	4480
2026-01-18 22:11:11.43	186.90	29.14	-36.9	-38.8	23.1	0.00e+00	0	60	0	230686720	45	4449
2026-01-18 22:11:12.44	186.27	29.17	-37.2	-39.1	22.8	0.00e+00	0	60	0	232259584	45	4626
2026-01-18 22:11:13.45	185.64	29.19	-37.2	-39.1	22.7	0.00e+00	0	60	0	233308160	45	4630
2026-01-18 22:11:14.46	185.01	29.20	-37.4	-39.3	22.6	0.00e+00	0	60	0	234356736	45	4751
2026-01-18 22:11:15.47	184.38	29.21	-37.4	-39.3	22.5	0.00e+00	0	60	0	235405312	45	4724
2026-01-18 22:11:16.48	183.74	29.22	-37.4	-39.3	22.6	0.00e+00	0	60	0	236453888	45	4706
2026-01-18 22:11:17.48	183.12	29.23	-37.3	-39.2	22.7	0.00e+00	0	60	0	237502464	45	4654
2026-01-18 22:11:18.49	182.48	29.23	-37.2	-39.1	22.7	0.00e+00	0	60	0	239075328	45	4636
2026-01-18 22:11:19.51	181.84	29.23	-37.3	-39.2	22.7	0.00e+00	0	60	0	240123904	45	4686
2026-01-18 22:11:20.52	181.21	29.22	-37.6	-39.6	22.4	0.00e+00	0	60	0	241172480	45	4898
2026-01-18 22:11:21.53	180.58	29.21	-37.5	-39.4	22.4	0.00e+00	0	60	0	242221056	45	4796
2026-01-18 22:11:22.54	179.95	29.20	-37.6	-39.5	22.4	0.00e+00	0	60	0	243269632	45	4864
2026-01-18 22:11:23.55	179.32	29.18	-37.4	-39.3	22.5	0.00e+00	0	60	0	244318208	45	4749
2026-01-18 22:11:24.55	178.69	29.16	-37.3	-39.2	22.7	0.00e+00	0	60	0	245366784	45	4689
2026-01-18 22:11:25.56	178.06	29.14	-37.5	-39.4	22.6	0.00e+00	0	60	0	246939648	45	4782
2026-01-18 22:11:26.57	177.43	29.11	-37.4	-39.3	22.6	0.00e+00	0	60	0	247988224	45	4715
2026-01-18 22:11:27.58	176.80	29.08	-37.4	-39.2	22.7	0.00e+00	0	60	0	249036800	45	4689
2026-01-18 22:11:28.59	176.18	29.05	-37.6	-39.5	22.7	0.00e+00	0	60	0	250085376	46	4557
2026-01-18 22:11:29.60	175.55	29.01	-37.7	-39.7	22.3	0.00e+00	0	60	0	251133952	46	4682
2026-01-18 22:11:30.61	174.93	28.97	-37.7	-39.6	22.4	0.00e+00	0	60	0	252182528	46	4644
2026-01-18 22:11:31.62	174.31	28.93	-37.4	-39.3	22.7	0.00e+00	0	60	0	253755392	46	4487
2026-01-18 22:11:32.63	173.69	28.89	-36.9	-38.7	23.3	0.00e+00	0	60	0	254803968	45	4413
2026-01-18 22:11:33.64	173.07	28.84	-36.8	-38.6	23.3	0.00e+00	0	60	0	255852544	45	4372
2026-01-18 22:11:34.65	172.46	28.78	-37.0	-38.9	23.0	0.00e+00	0	60	0	256901120	45	4517
2026-01-18 22:11:35.65	171.85	28.73	-37.2	-39.1	22.9	0.00e+00	0	60	0	257949696	44	4884
2026-01-18 22:11:36.66	171.24	28.67	-37.3	-39.2	22.7	0.00e+00	0	60	0	258998272	45	4701
2026-01-18 22:11:37.67	170.64	28.61	-37.5	-39.4	22.5	0.00e+00	0	60	0	260571136	45	4805
2026-01-18 22:11:38.68	170.03	28.54	-37.4	-39.3	22.7	0.00e+00	0	60	0	261619712	45	4726
2026-01-18 22:11:39.69	169.43	28.47	-37.3	-39.1	22.8	0.00e+00	0	60	0	262668288	45	4649
2026-01-18 22:11:40.70	168.83	28.40	-37.1	-38.9	23.0	0.00e+00	0	60	0	263716864	45	4544
2026-01-18 22:11:41.71	168.23	28.33	-37.1	-38.9	23.1	0.00e+00	0	60	0	264765440	45	4544
2026-01-18 22:11:42.72	167.64	28.25	-37.1	-39.0	23.1	0.00e+00	0	60	0	265814016	45	4558
2026-01-18 22:11:43.73	167.05	28.17	-37.2	-39.0	23.0	0.00e+00	0	60	0	267386880	45	4595
2026-01-18 22:11:44.74	166.47	28.09	-37.2	-39.1	23.0	0.00e+00	0	60	0	268435456	45	4603
2026-01-18 22:11:45.75	165.88	28.00	-37.0	-38.8	23.3	0.00e+00	0	60	0	269484032	45	4463
2026-01-18 22:11:46.76	165.30	27.92	-37.0	-38.8	23.3	0.00e+00	0	60	0	270532608	45	4463
2026-01-18 22:11:47.77	164.73	27.83	-37.0	-38.9	23.2	0.00e+00	0	60	0	271581184	45	4497
2026-01-18 22:11:48.77	164.16	27.74	-36.8	-38.6	23.5	0.00e+00	0	60	0	272629760	45	4350
2026-01-18 22:11:49.78	163.59	27.64	-36.8	-38.6	23.4	0.00e+00	0	60	0	274202624	45	4375
2026-01-18 22:11:50.79	163.03	27.54	-36.6	-38.4	23.6	0.00e+00	0	60	0	275251200	45	4267
2026-01-18 22:11:51.80	162.47	27.44	-36.6	-38.4	23.6	0.00e+00	0	60	0	276299776	45	4266
2026-01-18 22:11:52.81	161.91	27.34	-36.8	-38.6	23.5	0.00e+00	0	60	0	277348352	45	4369
2026-01-18 22:11:53.82	161.36	27.24	-37.1	-38.9	23.2	0.00e+00	0	60	0	278396928	45	4516
2026-01-18 22:11:54.83	160.81	27.13	-37.5	-39.4	22.6	0.00e+00	0	60	0	279445504	45	4793
2026-01-18 22:11:55.84	160.27	27.03	-37.6	-39.6	22.5	0.00e+00	0	60	0	281018368	45	4896
2026-01-18 22:11:56.85	159.73	26.92	-37.5	-39.4	22.7	0.00e+00	0	60	0	282066944	45	4801
2026-01-18 22:11:57.86	159.20	26.80	-37.2	-39.0	23.0	0.00e+00	0	60	0	283115520	45	4587
2026-01-18 22:11:58.87	158.66	26.69	-37.1	-39.0	23.0	0.00e+00	0	60	0	284164096	45	4570
2026-01-18 22:11:59.88	158.14	26.58	-37.0	-38.8	23.3	0.00e+00	0	60	0	285212672	45	4474
2026-01-18 22:12:00.89	157.62	26.46	-37.2	-39.1	23.0	0.00e+00	0	60	0	286261248	45	4617
2026-01-18 22:12:01.90	157.10	26.34	-37.4	-39.3	22.7	0.00e+00	0	60	0	287834112	45	4747
2026-01-18 22:12:02.90	156.59	26.22	-37.4	-39.3	22.8	0.00e+00	0	61	0	288882688	45	4727
2026-01-18 22:12:03.91	156.08	26.10	-37.8	-39.8	22.3	0.00e+00	0	60	0	289931264	46	4714
2026-01-18 22:12:04.92	155.58	25.98	-37.9	-40.0	22.1	0.00e+00	0	60	0	290979840	46	4825
2026-01-18 22:12:05.93	155.08	25.85	-37.9	-39.9	22.3	0.00e+00	0	60	0	292028416	46	4778
2026-01-18 22:12:06.94	154.58	25.73	-37.8	-39.8	22.4	0.00e+00	0	60	0	293076992	46	4724
2026-01-18 22:12:07.95	154.09	25.60	-37.9	-39.9	22.3	0.00e+00	0	60	0	294649856	46	4786
2026-01-18 22:12:08.96	153.60	25.47	-37.7	-39.7	22.5	0.00e+00	0	60	0	295698432	46	4696
2026-01-18 22:12:09.97	153.12	25.34	-37.5	-39.5	22.7	0.00e+00	0	60	0	296747008	46	4546
2026-01-18 22:12:10.98	152.64	25.21	-37.6	-39.6	22.6	0.00e+00	0	60	0	297795584	46	4618
2026-01-18 22:12:11.99	152.17	25.08	-37.7	-39.6	22.5	0.00e+00	0	60	0	298844160	46	4636
2026-01-18 22:12:13.00	151.70	24.95	-37.7	-39.7	22.5	0.00e+00	0	60	0	299892736	46	4674
2026-01-18 22:12:14.01	151.24	24.82	-37.8	-39.8	22.4	0.00e+00	0	60	0	301465600	46	4752
2026-01-18 22:12:15.02	150.78	24.68	-37.6	-39.5	22.7	0.00e+00	0	61	0	302514176	46	4583
2026-01-18 22:12:16.03	150.33	24.55	-37.5	-39.4	22.8	0.00e+00	0	61	0	303562752	46	4512
2026-01-18 22:12:17.04	149.88	24.41	-37.4	-39.4	22.8	0.00e+00	0	61	0	304611328	46	4497
2026-01-18 22:12:18.05	149.43	24.27	-37.5	-39.4	22.8	0.00e+00	0	61	0	305659904	46	4525
2026-01-18 22:12:19.06	148.99	24.14	-37.6	-39.5	22.7	0.00e+00	0	61	0	306708480	46	4574
2026-01-18 22:12:20.06	148.56	24.00	-37.9	-39.9	22.4	0.00e+00	0	60	0	308281344	46	4793
2026-01-18 22:12:21.07	148.13	23.86	-38.0	-40.0	22.2	0.00e+00	0	60	0	309329920	46	4863
2026-01-18 22:12:22.09	147.69	23.72	-38.1	-40.2	21.9	0.00e+00	0	60	0	310378496	46	4971
2026-01-18 22:12:23.10	147.27	23.58	-38.0	-40.0	22.2	0.00e+00	0	60	0	311427072	46	4854
2026-01-18 22:12:24.11	146.85	23.44	-37.8	-39.9	22.3	0.00e+00	0	60	0	312475648	46	4762
2026-01-18 22:12:25.12	146.44	23.30	-37.6	-39.5	22.7	0.00e+00	0	60	0	313524224	46	4582
2026-01-18 22:12:26.13	146.03	23.16	-37.6	-39.5	22.7	0.00e+00	0	60	0	315097088	46	4574
2026-01-18 22:12:27.14	145.62	23.02	-37.8	-39.8	22.4	0.00e+00	0	61	0	316145664	46	4719
2026-01-18 22:12:28.15	145.22	22.88	-37.9	-39.9	22.2	0.00e+00	0	60	0	317194240	46	4795
2026-01-18 22:12:29.16	144.82	22.74	-37.9	-40.0	22.2	0.00e+00	0	60	0	318242816	46	4826
2026-01-18 22:12:30.17	144.43	22.60	-38.0	-40.1	22.1	0.00e+00	0	61	0	319291392	46	4871
2026-01-18 22:12:31.18	144.04	22.45	-38.0	-40.1	22.1	0.00e+00	0	60	0	320339968	46	4891
2026-01-18 22:12:32.19	143.66	22.31	-38.1	-40.1	22.0	0.00e+00	0	61	0	321912832	46	4924
2026-01-18 22:12:33.20	143.28	22.17	-38.1	-40.1	22.1	0.00e+00	0	61	0	322961408	46	4906
2026-01-18 22:12:34.21	142.90	22.03	-38.1	-40.2	22.0	0.00e+00	0	60	0	324009984	46	4954
2026-01-18 22:12:35.22	142.53	21.88	-38.1	-40.2	22.0	0.00e+00	0	60	0	325058560	46	4933
2026-01-18 22:12:36.22	142.17	21.74	-38.0	-40.1	22.1	0.00e+00	0	60	0	326107136	46	4874
2026-01-18 22:12:37.23	141.80	21.60	-38.1	-40.2	22.0	0.00e+00	0	61	0	327155712	46	4934
2026-01-18 22:12:38.24	141.44	21.46	-38.3	-40.5	21.7	0.00e+00	0	60	0	328728576	47	4842
2026-01-18 22:12:39.25	141.09	21.32	-38.5	-40.7	21.5	0.00e+00	0	61	0	329777152	47	4948
2026-01-18 22:12:40.26	140.73	21.17	-38.4	-40.6	21.5	0.00e+00	0	61	0	330825728	47	4912
2026-01-18 22:12:41.27	140.39	21.03	-38.5	-40.8	21.4	0.00e+00	0	61	0	331874304	47	4994
2026-01-18 22:12:42.28	140.04	20.89	-38.3	-40.4	21.6	0.00e+00	0	61	0	332922880	47	4814
2026-01-18 22:12:43.29	139.70	20.75	-38.2	-40.4	21.8	0.00e+00	0	61	0	333971456	47	4766
2026-01-18 22:12:44.30	139.36	20.61	-38.2	-40.4	21.8	0.00e+00	0	60	0	335544320	47	4769
2026-01-18 22:12:45.31	139.03	20.47	-38.3	-40.4	21.7	0.00e+00	0	61	0	336592896	47	4790
2026-01-18 22:12:46.32	138.70	20.33	-38.3	-40.5	21.6	0.00e+00	0	61	0	337641472	47	4853
2026-01-18 22:12:47.33	138.37	20.18	-38.3	-40.4	21.6	0.00e+00	0	61	0	338690048	47	4809
2026-01-18 22:12:48.34	138.05	20.04	-38.3	-40.5	21.6	0.00e+00	0	61	0	339738624	47	4818
2026-01-18 22:12:49.35	137.73	19.90	-38.4	-40.6	21.5	0.00e+00	0	60	0	340787200	47	4891
2026-01-18 22:12:50.36	137.42	19.76	-38.4	-40.6	21.4	0.00e+00	0	61	0	342360064	47	4899
2026-01-18 22:12:51.37	137.11	19.62	-38.4	-40.6	21.4	0.00e+00	0	60	0	343408640	47	4899
2026-01-18 22:12:52.38	136.80	19.48	-38.5	-40.8	21.3	0.00e+00	0	60	0	344457216	47	4999
2026-01-18 22:12:53.39	136.49	19.35	-38.6	-40.9	21.2	0.00e+00	0	61	0	345505792	47	5048
2026-01-18 22:12:54.40	136.19	19.21	-38.6	-40.8	21.3	0.00e+00	0	61	0	346554368	47	5010
2026-01-18 22:12:55.41	135.89	19.07	-38.5	-40.8	21.2	0.00e+00	0	61	0	347602944	47	5009
2026-01-18 22:12:56.42	135.60	18.93	-38.4	-40.5	21.5	0.00e+00	0	61	0	349175808	47	4856
2026-01-18 22:12:57.43	135.31	18.79	-38.5	-40.7	21.3	0.00e+00	0	61	0	350224384	47	4960
2026-01-18 22:12:58.44	135.02	18.66	-38.6	-40.9	21.1	0.00e+00	0	61	0	351272960	47	5069
2026-01-18 22:12:59.45	134.73	18.52	-38.6	-40.9	21.1	0.00e+00	0	61	0	352321536	47	5054
2026-01-18 22:13:00.46	134.45	18.38	-38.8	-41.0	21.0	9.10e-06	0	60	0	353370112	48	4867
2026-01-18 22:13:01.47	134.17	18.25	-38.7	-41.0	21.0	3.40e-06	0	61	0	354418688	48	4825
2026-01-18 22:13:02.48	133.90	18.11	-38.6	-40.9	21.1	3.40e-06	0	61	0	355991552	48	4792
2026-01-18 22:13:03.49	133.62	17.98	-38.8	-41.2	20.8	1.10e-06	0	61	0	357040128	48	4936
2026-01-18 22:13:04.49	133.36	17.85	-38.8	-41.1	20.8	1.69e-04	0	61	0	358088704	48	4921
2026-01-18 22:13:05.50	133.09	17.71	-38.9	-41.3	20.6	1.21e-04	0	61	0	359137280	48	5020
2026-01-18 22:13:06.52	132.82	17.58	-38.9	-41.2	20.7	1.21e-04	0	61	0	360185856	48	4967
2026-01-18 22:13:07.52	132.56	17.45	-38.9	-41.3	18.0	1.14e-05	0	61	0	361234432	48	5009
2026-01-18 22:13:08.53	132.31	17.31	-38.9	-41.3	20.6	2.47e-04	0	61	0	362807296	48	4998
2026-01-18 22:13:09.54	132.05	17.18	-39.0	-41.4	20.4	2.47e-04	0	61	0	363855872	48	5095
2026-01-18 22:13:10.55	131.80	17.05	-39.2	-41.6	20.3	6.86e-05	0	61	0	364904448	48	5213
2026-01-18 22:13:11.56	131.55	16.92	-39.1	-41.7	20.2	2.78e-04	0	61	0	365953024	49	4941
2026-01-18 22:13:12.57	131.30	16.79	-39.1	-41.8	20.0	2.78e-04	0	61	0	367001600	49	5008
2026-01-18 22:13:13.58	131.06	16.66	-39.1	-41.7	20.1	1.48e-05	0	60	0	368050176	49	4966
2026-01-18 22:13:14.59	130.81	16.53	-39.2	-41.8	20.0	1.37e-05	0	60	0	369623040	49	5006
2026-01-18 22:13:15.60	130.57	16.40	-39.1	-41.6	20.2	1.37e-05	0	60	0	370671616	49	4893
2026-01-18 22:13:16.61	130.34	16.28	-39.0	-41.4	20.3	9.10e-06	0	61	0	371720192	48	5096
2026-01-18 22:13:17.62	130.10	16.15	-39.1	-41.6	20.1	0.00e+00	0	61	0	372768768	48	5196
2026-01-18 22:13:18.63	129.87	16.02	-38.9	-41.6	19.9	4.57e-05	0	61	0	373817344	48	5191
2026-01-18 22:13:19.64	129.64	15.90	-39.1	-41.6	19.9	4.57e-05	0	60	0	374865920	48	5200
2026-01-18 22:13:20.65	129.41	15.77	-39.3	-41.8	19.9	1.10e-06	0	60	0	376438784	49	5021
2026-01-18 22:13:21.66	129.19	15.65	-38.5	-41.9	19.6	9.10e-06	0	61	0	377487360	49	5074
2026-01-18 22:13:22.67	128.97	15.52	-39.1	-42.0	19.6	9.10e-06	0	61	0	378535936	49	5147
2026-01-18 22:13:23.68	128.75	15.40	-39.4	-42.3	18.8	1.56e-04	0	61	0	379584512	49	5292
2026-01-18 22:13:24.69	128.53	15.27	-39.7	-42.5	19.1	2.73e-04	0	61	0	380633088	49	5454
2026-01-18 22:13:25.70	128.32	15.15	-39.7	-42.7	18.9	2.73e-04	0	60	0	381681664	50	5240
2026-01-18 22:13:26.71	128.10	15.03	-39.7	-42.7	18.7	3.72e-04	0	61	0	383254528	50	5226
2026-01-18 22:13:27.72	127.89	14.91	-39.3	-42.5	18.5	6.35e-03	0	61	0	384303104	49	5419
2026-01-18 22:13:28.73	127.68	14.78	-39.4	-42.3	18.7	6.35e-03	0	61	0	385351680	49	5282
2026-01-18 22:13:29.74	127.48	14.66	-32.0	-42.5	17.3	4.39e-03	0	61	0	386400256	48	5765
2026-01-18 22:13:30.75	127.27	14.54	-38.9	-42.4	17.1	1.64e-03	0	61	0	387448832	49	5355
2026-01-18 22:13:31.76	127.07	14.42	-37.3	-42.4	15.5	1.18e-03	0	61	0	388497408	48	5713
2026-01-18 22:13:32.77	126.87	14.31	-37.9	-42.5	17.5	1.18e-03	0	61	0	390070272	48	5746
2026-01-18 22:13:33.78	126.67	14.19	-38.0	-42.6	17.3	9.94e-03	0	61	0	391118848	48	5855
2026-01-18 22:13:34.79	126.48	14.07	-39.2	-43.0	16.4	1.26e-02	0	61	0	392167424	49	5733
2026-01-18 22:13:35.80	126.28	13.95	-38.9	-43.0	17.1	1.26e-02	0	61	0	393216000	48	6064
2026-01-18 22:13:36.81	126.09	13.84	-39.5	-43.0	16.3	1.90e-02	0	61	0	394264576	49	5761
2026-01-18 22:13:37.82	125.90	13.72	-29.4	-42.9	16.4	2.95e-02	0	61	0	395313152	47	6354
2026-01-18 22:13:38.83	125.71	13.60	-38.7	-42.4	16.6	2.95e-02	0	61	0	396361728	47	5994
2026-01-18 22:13:39.84	125.53	13.49	-38.6	-42.6	15.7	3.10e-02	0	61	0	397410304	47	6187
2026-01-18 22:13:40.84	125.34	13.38	-37.3	-42.9	15.9	1.05e-01	0	61	0	398458880	48	6021
2026-01-18 22:13:41.85	125.16	13.26	-36.9	-42.4	16.0	1.05e-01	0	61	0	400031744	46	6379
2026-01-18 22:13:42.86	124.98	13.15	-37.3	-43.0	14.7	1.76e-02	0	61	0	400556032	48	6095
2026-01-18 22:13:43.87	124.80	13.04	-36.1	-42.7	14.1	1.03e-01	0	61	0	402128896	41	8827
2026-01-18 22:13:44.88	124.63	12.92	-37.5	-43.2	15.4	1.87e-02	0	61	0	403177472	49	5884
2026-01-18 22:13:45.89	124.45	12.81	-38.9	-43.0	16.1	1.87e-02	0	61	0	404226048	48	6095
2026-01-18 22:13:46.90	124.28	12.70	-35.1	-42.9	13.7	6.16e-03	0	61	0	405274624	44	7551
2026-01-18 22:13:47.91	124.11	12.59	-38.3	-43.2	15.8	7.53e-02	0	61	0	406323200	48	6261
2026-01-18 22:13:48.92	123.94	12.48	-38.9	-43.1	16.3	7.53e-02	0	61	0	407371776	48	6132
2026-01-18 22:13:49.93	123.77	12.37	-38.7	-43.1	16.4	4.28e-03	0	61	0	408420352	48	6197
2026-01-18 22:13:50.94	123.60	12.26	-39.1	-43.3	15.4	3.56e-02	0	61	0	409468928	48	6275
2026-01-18 22:13:51.95	123.43	12.15	-30.1	-42.2	11.9	3.56e-02	0	61	0	410517504	37	10529
2026-01-18 22:13:52.96	123.27	12.04	-32.2	-43.4	7.8	1.02e-01	0	61	0	411566080	35	13534
2026-01-18 22:13:53.97	123.11	11.94	-38.2	-43.8	14.7	1.35e-01	0	61	0	412614656	50	5961
2026-01-18 22:13:54.98	122.95	11.83	-36.5	-43.3	13.8	1.35e-01	0	61	0	413663232	47	6702
2026-01-18 22:13:55.99	122.79	11.72	-38.5	-43.5	15.5	7.33e-02	0	61	0	415236096	47	6858
2026-01-18 22:13:57.00	122.63	11.62	-39.3	-43.5	16.0	1.13e-02	0	61	0	416284672	48	6441
2026-01-18 22:13:58.01	122.48	11.51	-39.3	-43.1	15.6	7.70e-03	0	61	0	417333248	49	5836
2026-01-18 22:13:59.01	122.32	11.41	-37.0	-43.5	15.8	7.70e-03	0	61	0	418381824	47	6858
2026-01-18 22:14:00.02	122.17	11.30	-38.9	-44.2	15.6	9.08e-03	0	61	0	419430400	50	6207
2026-01-18 22:14:01.03	122.02	11.20	-39.1	-44.0	15.0	1.71e-03	0	61	0	420478976	49	6432
2026-01-18 22:14:02.04	121.87	11.10	-35.2	-43.9	15.1	1.71e-03	0	61	0	422051840	47	7176
2026-01-18 22:14:03.05	121.72	10.99	-38.2	-44.7	14.5	4.29e-03	0	61	0	423100416	49	6967
2026-01-18 22:14:04.06	121.57	10.89	-37.6	-44.1	14.7	3.08e-03	0	61	0	424148992	49	6553
2026-01-18 22:14:05.07	121.43	10.79	-38.0	-44.4	15.3	3.08e-03	0	61	0	425197568	48	7195
2026-01-18 22:14:06.08	121.28	10.69	-36.1	-43.9	14.8	1.55e-03	0	61	0	426246144	47	7186
2026-01-18 22:14:07.09	121.14	10.59	-38.2	-43.4	16.2	7.24e-03	0	61	0	427819008	48	6358
2026-01-18 22:14:08.10	121.00	10.49	-35.3	-43.0	14.0	1.60e-03	0	61	0	428867584	43	8114
2026-01-18 22:14:09.11	120.86	10.39	-36.6	-44.6	14.0	1.60e-03	0	61	0	429916160	47	7767
2026-01-18 22:14:10.12	120.72	10.29	-35.9	-45.8	10.5	9.53e-03	0	61	0	430964736	40	13407
2026-01-18 22:14:11.12	120.58	10.19	-36.2	-47.1	9.8	4.72e-02	0	61	0	432013312	47	10412
2026-01-18 22:14:12.13	120.45	10.09	-37.9	-48.9	8.7	4.72e-02	0	61	0	433061888	47	12755
2026-01-18 22:14:13.14	120.31	9.99	-37.0	-49.3	9.5	8.24e-02	0	61	0	434110464	49	11876
2026-01-18 22:14:14.15	120.18	9.90	-34.4	-49.7	6.7	8.00e-02	0	61	0	435159040	40	20779
2026-01-18 22:14:15.17	120.04	9.80	-39.4	-49.8	8.0	8.00e-02	0	61	0	436207616	48	13326
2026-01-18 22:14:16.18	119.91	9.70	-31.0	-47.0	7.6	2.37e-01	0	61	0	437256192	41	14463
2026-01-18 22:14:17.18	119.78	9.61	-34.8	-46.1	9.4	2.09e-01	0	60	0	438304768	42	12352
2026-01-18 22:14:18.19	119.65	9.51	-34.5	-46.0	10.2	2.09e-01	0	61	0	439353344	44	10805
2026-01-18 22:14:19.20	119.52	9.41	-35.4	-45.7	9.1	6.51e-02	0	61	0	440401920	39	13982
2026-01-18 22:14:20.21	119.40	9.32	-32.8	-44.2	10.0	7.67e-02	0	61	0	441974784	37	13229
2026-01-18 22:14:21.22	119.27	9.22	-35.3	-45.8	8.9	1.64e-01	0	61	0	442499072	40	13397
2026-01-18 22:14:22.23	119.15	9.13	-31.7	-45.2	9.8	1.64e-01	0	61	0	443547648	40	12509
2026-01-18 22:14:23.24	119.02	9.04	-33.1	-44.1	6.7	1.05e-01	0	61	0	445120512	30	19406
2026-01-18 22:14:24.25	118.90	8.94	-31.8	-44.6	8.2	1.94e-01	0	61	0	446169088	36	14586
2026-01-18 22:14:25.26	118.78	8.85	-31.3	-45.1	7.5	1.94e-01	0	61	0	446693376	37	14672
2026-01-18 22:14:26.27	118.66	8.76	-29.4	-43.3	7.3	2.62e-01	0	61	0	447741952	31	16778
2026-01-18 22:14:27.28	118.54	8.67	-30.1	-43.4	7.2	3.98e-01	0	61	0	448790528	32	16084
2026-01-18 22:14:28.29	118.42	8.58	-28.5	-43.2	6.6	3.98e-01	0	61	0	449314816	32	15670
2026-01-18 22:14:29.30	118.30	8.48	-28.5	-43.4	6.3	4.39e-01	0	61	0	450363392	31	16923
2026-01-18 22:14:30.31	118.19	8.39	-30.0	-43.0	6.5	4.98e-01	0	61	0	450887680	30	17185
2026-01-18 22:14:31.32	118.07	8.30	-29.8	-42.6	6.0	4.98e-01	0	61	0	451936256	30	16404
2026-01-18 22:14:32.33	117.96	8.21	-29.1	-43.0	6.0	5.09e-01	0	61	0	451936256	28	19287
2026-01-18 22:14:33.34	117.84	8.12	-32.2	-50.6	4.3	6.68e-01	0	61	104	452460544	36	29075
2026-01-18 22:14:34.35	117.73	8.03	-30.3	-50.9	3.8	8.35e-01	0	61	104	452460544	34	33962
2026-01-18 22:14:35.36	117.62	7.95	-44.6	-62.2	3.8	8.35e-01	0	61	104	452460544	59	29508
2026-01-18 22:14:36.37	117.51	7.86	-44.9	-63.1	3.8	8.43e-01	0	61	104	452460544	60	30909
2026-01-18 22:14:37.38	117.40	7.77	-45.2	-63.3	3.8	8.46e-01	0	61	104	452460544	60	31719
2026-01-18 22:14:38.39	117.29	7.68	-45.4	-63.5	3.8	8.46e-01	0	61	104	452460544	61	30499
2026-01-18 22:14:39.40	117.19	7.60	-45.5	-63.6	3.8	8.46e-01	0	61	104	452460544	61	30890
2026-01-18 22:14:40.41	117.08	7.51	-45.6	-63.7	3.8	8.46e-01	0	61	104	452460544	61	31407
2026-01-18 22:14:41.42	116.97	7.42	-45.7	-63.9	3.8	8.46e-01	0	61	104	452460544	61	31884
2026-01-18 22:14:42.43	116.87	7.34	-45.8	-64.0	3.8	8.47e-01	0	61	104	452460544	62	30529
2026-01-18 22:14:43.44	116.76	7.25	-45.9	-64.0	3.8	8.46e-01	0	61	104	452460544	62	30610
2026-01-18 22:14:44.45	116.66	7.17	-45.8	-64.0	3.8	8.46e-01	0	61	104	452460544	62	30496
2026-01-18 22:14:45.46	116.56	7.08	-45.7	-63.9	3.8	8.47e-01	0	61	104	452460544	62	30262
2026-01-18 22:14:46.47	116.46	7.00	-45.7	-63.8	3.8	8.46e-01	0	61	104	452460544	62	29975
2026-01-18 22:14:47.48	116.36	6.91	-45.6	-63.7	3.8	8.46e-01	0	61	104	452460544	62	29685
2026-01-18 22:14:48.49	116.26	6.83	-45.6	-63.7	3.8	8.46e-01	0	61	104	452460544	62	29570
2026-01-18 22:14:49.50	116.16	6.74	-45.6	-63.7	3.8	8.46e-01	0	61	104	452460544	62	29444
2026-01-18 22:14:50.51	116.06	6.66	-45.4	-63.6	3.8	8.46e-01	0	61	104	452460544	62	29032
2026-01-18 22:14:51.52	115.96	6.58	-45.4	-63.5	3.8	8.46e-01	0	61	104	452460544	62	28962
2026-01-18 22:14:52.53	115.86	6.50	-45.4	-63.5	3.8	8.47e-01	0	61	104	452460544	62	28941
2026-01-18 22:14:53.54	115.77	6.41	-45.4	-63.5	3.8	8.45e-01	0	61	104	452460544	62	28951
2026-01-18 22:14:54.55	115.67	6.33	-45.4	-63.5	3.8	8.45e-01	0	61	104	452460544	62	28837
2026-01-18 22:14:55.56	115.58	6.25	-45.4	-63.5	3.8	8.45e-01	0	61	104	452460544	62	28871
2026-01-18 22:14:56.57	115.48	6.17	-45.4	-63.5	3.8	8.46e-01	0	61	104	452460544	62	28842
2026-01-18 22:14:57.59	115.39	6.09	-45.4	-63.5	3.8	8.46e-01	0	61	104	452460544	62	28855
2026-01-18 22:14:58.60	115.30	6.01	-45.4	-63.5	3.8	8.46e-01	0	61	104	452460544	62	28829
2026-01-18 22:14:59.61	115.21	5.93	-45.4	-63.5	3.8	8.46e-01	0	61	104	452460544	62	28870
2026-01-18 22:15:00.62	115.12	5.85	-45.4	-63.5	3.8	8.47e-01	0	61	104	452460544	62	28847
2026-01-18 22:15:01.63	115.03	5.77	-45.4	-63.5	3.8	8.47e-01	0	61	104	452460544	62	28763
2026-01-18 22:15:02.64	114.94	5.69	-45.4	-63.5	3.8	8.46e-01	0	61	104	452460544	62	28857
2026-01-18 22:15:03.65	114.85	5.61	-45.4	-63.5	3.8	8.45e-01	0	61	104	452460544	62	28849
2026-01-18 22:15:04.66	114.76	5.53	-45.4	-63.5	3.8	8.45e-01	0	61	104	452460544	62	28872
2026-01-18 22:15:05.67	114.67	5.45	-45.4	-63.5	3.8	8.45e-01	0	61	104	452460544	62	28753
2026-01-18 22:15:06.68	114.59	5.38	-45.4	-63.5	3.8	8.45e-01	0	61	104	452460544	62	28727
2026-01-18 22:15:07.69	114.50	5.30	-45.4	-63.5	3.8	8.45e-01	0	61	104	452460544	62	28777
2026-01-18 22:15:08.70	114.42	5.22	-45.4	-63.5	3.8	8.46e-01	0	61	104	452460544	62	28731
2026-01-18 22:15:09.71	114.33	5.14	-45.4	-63.5	3.8	8.47e-01	0	61	104	452460544	62	28691
2026-01-18 22:15:10.72	114.25	5.07	-45.4	-63.5	3.8	8.47e-01	0	61	104	452460544	62	28751
2026-01-18 22:15:11.73	114.16	4.99	-45.4	-63.5	3.8	8.46e-01	0	61	104	452460544	62	28740
2026-01-18 22:15:12.74	114.08	4.91	-45.4	-63.5	3.8	8.45e-01	0	61	104	452460544	62	28742
2026-01-18 22:15:13.75	114.00	4.84	-45.4	-63.5	3.8	8.44e-01	0	61	104	452460544	62	28735
2026-01-18 22:15:14.76	113.92	4.76	-45.4	-63.5	3.8	8.44e-01	0	61	104	452460544	62	28689
2026-01-18 22:15:15.77	113.84	4.69	-45.4	-63.4	3.8	8.47e-01	0	61	104	452460544	62	28678
2026-01-18 22:15:16.79	113.76	4.61	-45.4	-63.5	3.8	8.46e-01	0	61	104	452460544	62	28794
2026-01-18 22:15:17.80	113.68	4.54	-45.4	-63.5	3.8	8.46e-01	0	61	104	452460544	62	28707
2026-01-18 22:15:18.81	113.60	4.46	-45.3	-63.5	3.8	8.47e-01	0	61	104	452460544	62	28683
2026-01-18 22:15:19.82	113.52	4.39	-45.4	-63.4	3.8	8.47e-01	0	61	104	452460544	62	28675
2026-01-18 22:15:20.83	113.44	4.31	-45.4	-63.5	3.8	8.47e-01	0	61	104	452460544	62	28686
2026-01-18 22:15:21.84	113.36	4.24	-45.3	-63.5	3.8	8.46e-01	0	61	104	452460544	62	28706
2026-01-18 22:15:22.85	113.29	4.17	-45.3	-63.4	3.8	8.46e-01	0	61	104	452460544	62	28661
2026-01-18 22:15:23.86	113.21	4.09	-45.3	-63.5	3.8	8.45e-01	0	61	104	452460544	62	28699
2026-01-18 22:15:24.87	113.14	4.02	-45.3	-63.4	3.8	8.45e-01	0	61	104	452460544	62	28606
2026-01-18 22:15:25.88	113.06	3.95	-45.3	-63.5	3.8	8.46e-01	0	61	104	452460544	62	28712
2026-01-18 22:15:26.89	112.99	3.88	-45.3	-63.5	3.8	8.45e-01	0	61	104	452460544	62	28740
2026-01-18 22:15:27.90	112.91	3.80	-45.4	-63.4	3.8	8.45e-01	0	61	104	452460544	62	28568
2026-01-18 22:15:28.91	112.84	3.73	-45.3	-63.4	3.8	8.44e-01	0	61	104	452460544	62	28641
2026-01-18 22:15:29.92	112.77	3.66	-45.3	-63.4	3.8	8.46e-01	0	61	104	452460544	62	28636
2026-01-18 22:15:30.93	112.69	3.59	-45.3	-63.4	3.8	8.46e-01	0	61	104	452460544	62	28619
2026-01-18 22:15:31.94	112.62	3.52	-45.3	-63.4	3.8	8.47e-01	0	61	104	452460544	62	28548
2026-01-18 22:15:32.96	112.55	3.45	-45.3	-63.4	3.8	8.46e-01	0	61	104	452460544	62	28630
2026-01-18 22:15:33.97	112.48	3.38	-45.3	-63.4	3.8	8.46e-01	0	61	104	452460544	62	28591
2026-01-18 22:15:34.98	112.41	3.31	-45.3	-63.4	3.8	8.46e-01	0	61	104	452460544	62	28657
2026-01-18 22:15:35.99	112.34	3.24	-45.3	-63.4	3.8	8.46e-01	0	61	104	452460544	62	28613
2026-01-18 22:15:37.00	112.27	3.17	-45.3	-63.4	3.8	8.44e-01	0	61	104	452460544	62	28516
2026-01-18 22:15:38.01	112.20	3.10	-45.3	-63.4	3.8	8.44e-01	0	61	104	452460544	62	28549
2026-01-18 22:15:39.02	112.13	3.03	-45.3	-63.4	3.8	8.47e-01	0	61	104	452460544	62	28601
2026-01-18 22:15:40.03	112.06	2.96	-45.3	-63.4	3.8	8.47e-01	0	61	104	452460544	62	28588
2026-01-18 22:15:41.04	112.00	2.89	-45.3	-63.4	3.8	8.47e-01	0	61	104	452460544	62	28590
2026-01-18 22:15:42.05	111.93	2.82	-45.3	-63.4	3.8	8.46e-01	0	61	104	452460544	62	28643
2026-01-18 22:15:43.06	111.86	2.75	-45.3	-63.4	3.8	8.45e-01	0	61	104	452460544	62	28447
2026-01-18 22:15:44.07	111.80	2.68	-45.3	-63.4	3.8	8.45e-01	0	61	104	452460544	62	28643
2026-01-18 22:15:45.08	111.73	2.62	-45.3	-63.4	3.8	8.46e-01	0	61	104	452460544	62	28561
2026-01-18 22:15:46.09	111.67	2.55	-45.3	-63.4	3.8	8.46e-01	0	61	104	452460544	62	28554
2026-01-18 22:15:47.10	111.60	2.48	-45.3	-63.4	3.8	8.46e-01	0	61	104	452460544	62	28578
2026-01-18 22:15:48.11	111.54	2.41	-45.3	-63.4	3.8	8.47e-01	0	61	104	452460544	62	28596
2026-01-18 22:15:49.12	111.47	2.35	-45.3	-63.4	3.8	8.45e-01	0	61	104	452460544	62	28539
2026-01-18 22:15:50.13	111.41	2.28	-45.3	-63.4	3.8	8.47e-01	0	61	104	452460544	62	28506
2026-01-18 22:15:51.14	111.35	2.21	-45.3	-63.4	3.8	8.47e-01	0	61	104	452460544	62	28549
2026-01-18 22:15:52.15	111.29	2.14	-45.3	-63.4	3.8	8.46e-01	0	61	104	452460544	62	28581
2026-01-18 22:15:53.17	111.22	2.08	-45.3	-63.4	3.8	8.45e-01	0	61	104	452460544	62	28514
2026-01-18 22:15:54.18	111.16	2.01	-45.3	-63.4	3.8	8.45e-01	0	61	104	452460544	62	28533

#Closed at: 2026-01-18 22:15:54
#Recorded file [452 MB]: D:/lorett/data/31039_260119_010643.dat