passes_logs/2026/01/18/R2.0S_Moscow/R2.0S_Moscow__20260118_044133_FENGYUN_3E_rec.log

#Pass ID: 20260118_044133_FENGYUN 3E
#Satellite: FENGYUN 3E
#Configuration: FENGYUN 3E
#almurnet v.1.7.20251203
#Start time: 2026-01-18 04:41:33

#Version: 2.2.20231116
#Station: R2.0S_Moscow
#Location: 37.707566 lon 55.798166 lat
#TLE: 1 49008U 21062A   26017.26067429  .00000278  00000+0  15192-3 0  9991
#TLE: 2 49008  98.7484  22.3628 0002125 132.6872 227.4483 14.19886454235162

#Time	Az	El	Level	Level2	SNR	BER	BlckErr	Temp	State	Recorded	gain1	gain2
2026-01-18 04:41:33.71	13.15	2.04	-40.9	-51.7	3.8	8.46e-01	0	51	0	0	52	12515
2026-01-18 04:41:34.72	13.12	2.10	-40.9	-51.7	3.8	8.46e-01	0	52	104	0	52	12503
2026-01-18 04:41:35.73	13.09	2.16	-40.9	-51.7	3.8	8.46e-01	0	52	104	0	52	12514
2026-01-18 04:41:36.74	13.06	2.23	-40.9	-51.7	3.8	8.46e-01	0	52	104	0	52	12461
2026-01-18 04:41:37.75	13.04	2.29	-40.9	-51.7	3.8	8.46e-01	0	52	104	0	52	12447
2026-01-18 04:41:38.76	13.01	2.36	-40.9	-51.7	3.8	8.46e-01	0	52	104	0	52	12487
2026-01-18 04:41:39.78	12.98	2.42	-40.9	-51.7	3.8	8.46e-01	0	52	104	0	52	12432
2026-01-18 04:41:40.79	12.95	2.48	-40.9	-51.7	3.8	8.46e-01	0	52	104	0	52	12436
2026-01-18 04:41:41.80	12.92	2.55	-40.9	-51.7	3.8	8.46e-01	0	52	104	0	52	12468
2026-01-18 04:41:42.81	12.89	2.61	-40.9	-51.7	3.8	8.46e-01	0	53	104	0	52	12482
2026-01-18 04:41:43.82	12.86	2.68	-40.9	-51.7	3.8	8.46e-01	0	52	104	0	52	12452
2026-01-18 04:41:44.83	12.83	2.74	-40.9	-51.7	3.8	8.47e-01	0	53	104	0	52	12448
2026-01-18 04:41:45.84	12.80	2.81	-40.9	-51.7	3.8	8.47e-01	0	53	104	0	52	12501
2026-01-18 04:41:46.85	12.77	2.87	-40.9	-51.7	3.8	8.46e-01	0	53	104	0	52	12515
2026-01-18 04:41:47.86	12.74	2.94	-40.9	-51.7	3.8	8.45e-01	0	53	104	0	52	12413
2026-01-18 04:41:48.87	12.71	3.00	-40.9	-51.7	3.8	8.46e-01	0	53	104	0	52	12499
2026-01-18 04:41:49.88	12.68	3.07	-40.9	-51.7	3.8	8.46e-01	0	53	104	0	52	12436
2026-01-18 04:41:50.89	12.65	3.13	-40.9	-51.7	3.8	8.47e-01	0	53	104	0	52	12409
2026-01-18 04:41:51.90	12.62	3.20	-40.9	-51.7	3.8	8.46e-01	0	53	104	0	52	12441
2026-01-18 04:41:52.91	12.58	3.26	-40.9	-51.7	3.8	8.46e-01	0	53	104	0	52	12442
2026-01-18 04:41:53.93	12.55	3.33	-40.9	-51.7	3.8	8.46e-01	0	53	104	0	52	12443
2026-01-18 04:41:54.94	12.52	3.39	-40.9	-51.7	3.8	8.46e-01	0	53	104	0	52	12458
2026-01-18 04:41:55.95	12.49	3.46	-40.9	-51.7	3.8	8.47e-01	0	54	104	0	52	12437
2026-01-18 04:41:56.96	12.46	3.53	-40.9	-51.7	3.8	8.46e-01	0	53	104	0	52	12416
2026-01-18 04:41:57.97	12.43	3.59	-40.9	-51.7	3.8	8.45e-01	0	54	104	0	52	12418
2026-01-18 04:41:58.98	12.39	3.66	-40.9	-51.7	3.8	8.46e-01	0	54	104	0	52	12424
2026-01-18 04:41:59.99	12.36	3.73	-40.9	-51.7	3.8	8.46e-01	0	54	104	0	52	12420
2026-01-18 04:42:01.01	12.33	3.79	-40.9	-51.7	3.8	8.46e-01	0	54	104	0	52	12422
2026-01-18 04:42:02.02	12.30	3.86	-40.9	-51.7	3.8	8.46e-01	0	54	104	0	52	12493
2026-01-18 04:42:03.03	12.26	3.93	-40.9	-51.7	3.8	8.46e-01	0	54	104	0	52	12454
2026-01-18 04:42:04.04	12.23	4.00	-40.9	-51.7	3.8	8.47e-01	0	54	104	0	52	12388
2026-01-18 04:42:05.05	12.20	4.06	-40.9	-51.7	3.8	8.47e-01	0	54	104	0	52	12382
2026-01-18 04:42:06.06	12.16	4.13	-40.9	-51.6	3.8	8.47e-01	0	54	104	0	52	12288
2026-01-18 04:42:07.07	12.13	4.20	-40.9	-51.6	3.8	8.47e-01	0	54	104	0	52	12239
2026-01-18 04:42:08.08	12.10	4.27	-40.9	-51.5	3.8	8.45e-01	0	54	104	0	52	12125
2026-01-18 04:42:09.09	12.06	4.34	-40.8	-51.3	3.8	8.47e-01	0	54	104	0	52	11890
2026-01-18 04:42:10.10	12.03	4.40	-40.8	-51.2	3.8	8.47e-01	0	54	104	0	52	11746
2026-01-18 04:42:11.11	11.99	4.47	-40.8	-51.1	3.8	8.45e-01	0	55	104	0	52	11659
2026-01-18 04:42:12.12	11.96	4.54	-40.8	-51.0	3.8	8.47e-01	0	55	104	0	52	11467
2026-01-18 04:42:13.13	11.93	4.61	-40.8	-51.0	3.8	8.47e-01	0	55	104	0	52	11431
2026-01-18 04:42:14.14	11.89	4.68	-40.8	-50.9	3.8	8.46e-01	0	55	104	0	52	11348
2026-01-18 04:42:15.16	11.86	4.75	-40.8	-50.9	3.8	8.46e-01	0	55	104	0	52	11405
2026-01-18 04:42:16.17	11.82	4.82	-40.8	-50.9	3.8	8.45e-01	0	55	104	0	52	11391
2026-01-18 04:42:17.18	11.79	4.89	-40.8	-51.1	3.8	8.46e-01	0	55	104	0	52	11656
2026-01-18 04:42:18.19	11.75	4.96	-40.8	-51.1	3.8	8.47e-01	0	55	104	0	52	11628
2026-01-18 04:42:19.20	11.71	5.03	-40.8	-51.1	3.8	8.46e-01	0	55	104	0	52	11645
2026-01-18 04:42:20.21	11.68	5.10	-40.8	-51.1	3.8	8.46e-01	0	55	104	0	52	11671
2026-01-18 04:42:21.22	11.64	5.17	-40.8	-51.3	3.8	8.47e-01	0	55	104	0	52	11898
2026-01-18 04:42:22.23	11.61	5.24	-40.8	-51.2	3.8	8.45e-01	0	55	104	0	52	11748
2026-01-18 04:42:23.25	11.57	5.31	-40.8	-51.2	3.8	8.47e-01	0	55	104	0	52	11705
2026-01-18 04:42:24.26	11.53	5.38	-40.8	-51.1	3.8	8.46e-01	0	55	104	0	52	11560
2026-01-18 04:42:25.27	11.50	5.45	-40.8	-50.9	3.8	8.47e-01	0	55	104	0	52	11369
2026-01-18 04:42:26.28	11.46	5.52	-40.8	-50.7	3.8	8.46e-01	0	55	104	0	52	11094
2026-01-18 04:42:27.29	11.42	5.59	-40.8	-50.5	3.8	8.47e-01	0	55	104	0	52	10894
2026-01-18 04:42:28.30	11.38	5.66	-40.8	-50.6	3.8	8.46e-01	0	55	104	0	52	10921
2026-01-18 04:42:29.31	11.35	5.74	-40.7	-50.4	3.8	8.45e-01	0	56	104	0	52	10740
2026-01-18 04:42:30.32	11.31	5.81	-40.7	-50.3	3.8	8.44e-01	0	56	104	0	52	10612
2026-01-18 04:42:31.33	11.27	5.88	-40.7	-50.3	3.8	8.45e-01	0	56	104	0	52	10604
2026-01-18 04:42:32.34	11.23	5.95	-40.7	-50.5	3.8	8.45e-01	0	56	104	0	52	10782
2026-01-18 04:42:33.36	11.19	6.02	-40.7	-50.5	3.8	8.46e-01	0	56	104	0	52	10830
2026-01-18 04:42:34.37	11.15	6.10	-40.7	-50.5	3.8	8.46e-01	0	56	104	0	52	10867
2026-01-18 04:42:35.38	11.12	6.17	-40.8	-50.7	3.8	8.45e-01	0	56	104	0	52	11108
2026-01-18 04:42:36.39	11.08	6.24	-40.8	-50.8	3.8	8.46e-01	0	56	104	0	52	11272
2026-01-18 04:42:37.40	11.04	6.32	-40.8	-51.1	3.8	8.46e-01	0	56	104	0	52	11585
2026-01-18 04:42:38.41	11.00	6.39	-40.8	-51.3	3.8	8.46e-01	0	56	104	0	52	11827
2026-01-18 04:42:39.42	10.96	6.46	-40.8	-51.3	3.8	8.46e-01	0	56	104	0	52	11888
2026-01-18 04:42:40.43	10.92	6.54	-40.8	-51.5	3.8	8.46e-01	0	56	104	0	52	12108
2026-01-18 04:42:41.44	10.88	6.61	-40.9	-51.6	3.8	8.46e-01	0	56	104	0	52	12318
2026-01-18 04:42:42.45	10.84	6.68	-40.9	-51.6	3.8	8.46e-01	0	56	104	0	52	12344
2026-01-18 04:42:43.47	10.80	6.76	-40.9	-51.7	3.8	8.47e-01	0	56	104	0	52	12378
2026-01-18 04:42:44.48	10.76	6.83	-40.9	-51.7	3.8	8.47e-01	0	56	104	0	52	12407
2026-01-18 04:42:45.49	10.71	6.91	-40.9	-51.7	3.8	8.47e-01	0	56	104	0	52	12398
2026-01-18 04:42:46.50	10.67	6.98	-40.9	-51.6	3.8	8.47e-01	0	56	104	0	52	12297
2026-01-18 04:42:47.51	10.63	7.06	-40.9	-51.6	3.8	8.46e-01	0	57	104	0	52	12245
2026-01-18 04:42:48.52	10.59	7.13	-40.9	-51.5	3.8	8.46e-01	0	56	104	0	52	12163
2026-01-18 04:42:49.53	10.55	7.21	-40.8	-51.5	3.8	8.46e-01	0	56	104	0	52	12156
2026-01-18 04:42:50.55	10.50	7.28	-40.8	-51.5	3.8	8.47e-01	0	56	104	0	52	12128
2026-01-18 04:42:51.56	10.46	7.36	-40.8	-51.4	3.8	8.48e-01	0	57	104	0	52	12053
2026-01-18 04:42:52.57	10.42	7.44	-40.8	-51.3	3.8	8.46e-01	0	57	104	0	52	11842
2026-01-18 04:42:53.58	10.38	7.51	-40.8	-51.2	3.8	8.45e-01	0	57	104	0	52	11814
2026-01-18 04:42:54.59	10.33	7.59	-40.8	-51.3	3.8	8.45e-01	0	57	104	0	52	11849
2026-01-18 04:42:55.60	10.29	7.67	-40.8	-51.4	3.8	8.46e-01	0	57	104	0	52	12005
2026-01-18 04:42:56.61	10.25	7.74	-40.8	-51.4	3.8	8.46e-01	0	57	104	0	52	12071
2026-01-18 04:42:57.61	10.20	7.82	-40.8	-51.4	3.8	8.46e-01	0	57	104	0	52	12019
2026-01-18 04:42:58.63	10.16	7.90	-40.8	-51.4	3.8	8.46e-01	0	57	104	0	52	12003
2026-01-18 04:42:59.64	10.11	7.98	-40.8	-51.4	3.8	8.46e-01	0	57	104	0	52	11986
2026-01-18 04:43:00.65	10.07	8.05	-40.8	-51.5	3.8	8.44e-01	0	57	104	0	52	12204
2026-01-18 04:43:01.66	10.02	8.13	-40.9	-51.7	3.8	8.46e-01	0	57	104	0	52	12456
2026-01-18 04:43:02.67	9.98	8.21	-41.0	-51.7	3.8	8.47e-01	0	57	104	0	52	12498
2026-01-18 04:43:03.68	9.93	8.29	-41.3	-51.7	3.8	8.46e-01	0	57	104	0	52	12497
2026-01-18 04:43:04.69	9.89	8.37	-40.8	-51.6	3.8	8.47e-01	0	57	104	0	52	12350
2026-01-18 04:43:05.70	9.84	8.45	-41.0	-51.6	3.8	8.45e-01	0	57	104	0	52	12366
2026-01-18 04:43:06.71	9.79	8.53	-40.7	-51.5	3.8	8.46e-01	0	57	104	0	52	12201
2026-01-18 04:43:07.72	9.75	8.60	-40.8	-51.6	3.8	8.46e-01	0	57	104	0	52	12241
2026-01-18 04:43:08.74	9.70	8.69	-40.9	-51.7	3.8	8.46e-01	0	57	104	0	52	12377
2026-01-18 04:43:09.75	9.65	8.77	-40.9	-51.7	3.8	8.46e-01	0	57	104	0	52	12475
2026-01-18 04:43:10.76	9.60	8.85	-40.9	-51.6	3.8	8.46e-01	0	57	104	0	52	12334
2026-01-18 04:43:11.77	9.56	8.93	-41.2	-51.8	3.8	8.46e-01	0	57	104	0	52	12560
2026-01-18 04:43:12.78	9.51	9.01	-40.6	-51.5	3.8	8.47e-01	0	57	104	0	52	12101
2026-01-18 04:43:13.79	9.46	9.09	-41.1	-51.9	3.8	8.46e-01	0	58	104	0	52	12709
2026-01-18 04:43:14.79	9.41	9.17	-40.6	-51.4	3.8	8.45e-01	0	57	104	0	52	12085
2026-01-18 04:43:15.80	9.36	9.25	-40.6	-51.3	3.8	8.46e-01	0	57	104	0	52	11938
2026-01-18 04:43:16.81	9.31	9.33	-40.6	-51.5	3.8	8.47e-01	0	58	104	0	52	12234
2026-01-18 04:43:17.82	9.26	9.41	-40.6	-51.4	3.8	8.46e-01	0	57	104	0	52	12020
2026-01-18 04:43:18.83	9.21	9.49	-40.5	-51.3	3.8	8.46e-01	0	57	104	0	52	11931
2026-01-18 04:43:19.84	9.16	9.58	-40.5	-51.3	3.8	8.45e-01	0	58	104	0	52	11919
2026-01-18 04:43:20.85	9.11	9.66	-40.6	-51.4	3.8	8.45e-01	0	58	104	0	52	12022
2026-01-18 04:43:21.86	9.06	9.74	-40.5	-51.3	3.8	8.46e-01	0	58	104	0	52	11854
2026-01-18 04:43:22.87	9.01	9.83	-41.1	-51.9	3.8	8.45e-01	0	58	104	0	52	12746
2026-01-18 04:43:23.88	8.96	9.91	-40.7	-51.6	3.8	8.46e-01	0	58	104	0	52	12262
2026-01-18 04:43:24.88	8.91	9.99	-40.6	-51.4	3.8	8.45e-01	0	58	104	0	52	12046
2026-01-18 04:43:25.90	8.85	10.08	-40.5	-51.2	3.8	8.46e-01	0	58	104	0	52	11744
2026-01-18 04:43:26.91	8.80	10.16	-40.5	-51.1	3.8	8.47e-01	0	58	104	0	52	11601
2026-01-18 04:43:27.92	8.75	10.24	-40.5	-51.2	3.8	8.46e-01	0	58	104	0	52	11727
2026-01-18 04:43:28.92	8.70	10.33	-40.8	-51.6	3.8	8.46e-01	0	58	104	0	52	12371
2026-01-18 04:43:29.93	8.64	10.41	-41.2	-51.1	3.8	8.46e-01	0	58	104	0	52	11563
2026-01-18 04:43:30.94	8.59	10.50	-40.9	-51.7	3.8	8.47e-01	0	58	104	0	52	12434
2026-01-18 04:43:31.95	8.54	10.58	-42.0	-51.7	3.8	8.46e-01	0	58	104	0	53	11802
2026-01-18 04:43:32.96	8.48	10.67	-40.9	-51.6	3.8	8.46e-01	0	58	104	0	52	12244
2026-01-18 04:43:33.97	8.43	10.76	-41.3	-50.7	3.8	8.47e-01	0	58	104	0	52	11102
2026-01-18 04:43:34.98	8.37	10.84	-41.3	-49.9	3.9	8.43e-01	0	58	104	0	52	10168
2026-01-18 04:43:35.99	8.32	10.93	-41.4	-49.2	4.2	8.39e-01	0	58	0	0	52	9381
2026-01-18 04:43:37.00	8.26	11.02	-41.4	-48.8	4.4	8.31e-01	0	58	0	0	52	8948
2026-01-18 04:43:38.01	8.20	11.10	-41.5	-48.6	4.6	8.21e-01	0	58	0	0	52	8690
2026-01-18 04:43:39.02	8.15	11.19	-41.5	-47.9	4.9	7.94e-01	0	58	0	0	52	8077
2026-01-18 04:43:40.03	8.09	11.28	-41.2	-46.8	5.6	7.13e-01	0	58	0	0	52	7077
2026-01-18 04:43:41.04	8.03	11.37	-40.8	-45.8	6.4	2.98e-01	0	58	0	6291456	52	6279
2026-01-18 04:43:42.04	7.98	11.45	-40.5	-44.8	7.3	1.51e-01	0	58	0	13631488	52	5631
2026-01-18 04:43:43.05	7.92	11.54	-40.1	-44.0	8.2	7.88e-02	0	58	0	20971520	51	5414
2026-01-18 04:43:44.06	7.86	11.63	-39.9	-43.4	8.8	3.58e-02	0	58	0	28311552	50	5357
2026-01-18 04:43:45.07	7.80	11.72	-39.5	-42.7	9.5	1.88e-02	0	58	0	35651584	50	4954
2026-01-18 04:43:46.08	7.74	11.81	-39.1	-42.0	10.2	8.19e-03	0	58	0	42991616	49	4841
2026-01-18 04:43:47.09	7.68	11.90	-38.8	-41.6	10.6	4.40e-03	0	58	0	50331648	48	4918
2026-01-18 04:43:48.11	7.62	11.99	-38.3	-40.8	11.3	1.46e-03	0	58	0	57671680	47	4725
2026-01-18 04:43:49.12	7.56	12.08	-37.9	-40.2	11.9	5.45e-04	0	58	0	65011712	46	4681
2026-01-18 04:43:50.13	7.50	12.17	-37.3	-39.3	12.8	5.37e-05	0	58	0	72351744	45	4493
2026-01-18 04:43:51.14	7.44	12.26	-37.2	-39.3	13.0	6.40e-05	0	59	0	79691776	45	4443
2026-01-18 04:43:52.15	7.38	12.35	-37.4	-39.4	12.9	5.83e-05	0	59	0	87031808	45	4537
2026-01-18 04:43:53.16	7.32	12.44	-37.5	-39.6	12.8	6.98e-05	0	59	0	94371840	45	4601
2026-01-18 04:43:54.17	7.25	12.54	-37.4	-39.4	13.1	4.46e-05	0	59	0	101711872	45	4521
2026-01-18 04:43:55.18	7.19	12.63	-37.2	-39.1	13.6	1.60e-05	0	58	0	109051904	45	4374
2026-01-18 04:43:56.19	7.13	12.72	-37.3	-39.2	13.5	1.02e-05	0	59	0	115343360	45	4425
2026-01-18 04:43:57.20	7.06	12.81	-37.5	-39.5	13.1	2.28e-05	0	59	0	122683392	45	4585
2026-01-18 04:43:58.20	7.00	12.91	-37.9	-40.0	12.7	5.49e-05	0	59	0	131072000	45	4848
2026-01-18 04:43:59.21	6.94	13.00	-37.8	-39.9	12.9	6.52e-05	0	59	0	137363456	45	4791
2026-01-18 04:44:00.22	6.87	13.09	-37.8	-39.8	13.1	3.31e-05	0	59	0	144703488	45	4733
2026-01-18 04:44:01.23	6.81	13.19	-37.6	-39.6	13.4	2.17e-05	0	59	0	152043520	45	4626
2026-01-18 04:44:02.24	6.74	13.28	-37.6	-39.6	13.5	1.71e-05	0	59	0	159383552	45	4612
2026-01-18 04:44:03.25	6.67	13.38	-37.4	-39.3	13.9	2.20e-06	0	59	0	166723584	45	4452
2026-01-18 04:44:04.26	6.61	13.47	-37.2	-39.0	14.2	5.70e-06	0	59	0	174063616	45	4316
2026-01-18 04:44:05.27	6.54	13.57	-37.5	-39.3	14.0	5.70e-06	0	59	0	181403648	45	4464
2026-01-18 04:44:06.28	6.47	13.66	-37.7	-39.6	13.8	5.70e-06	0	59	0	188743680	45	4634
2026-01-18 04:44:07.28	6.41	13.76	-37.7	-39.5	13.9	4.50e-06	0	59	0	196083712	45	4596
2026-01-18 04:44:08.29	6.34	13.85	-37.4	-39.2	14.3	2.20e-06	0	59	0	203423744	45	4407
2026-01-18 04:44:09.30	6.27	13.95	-37.4	-39.1	14.4	1.10e-06	0	59	0	210763776	45	4376
2026-01-18 04:44:10.31	6.20	14.05	-37.5	-39.3	14.2	0.00e+00	0	59	0	218103808	45	4480
2026-01-18 04:44:11.32	6.13	14.14	-37.6	-39.4	14.2	1.10e-06	0	59	0	225443840	45	4511
2026-01-18 04:44:12.33	6.06	14.24	-37.4	-39.1	14.5	1.10e-06	0	59	0	232783872	45	4366
2026-01-18 04:44:13.34	5.99	14.34	-37.2	-38.9	14.8	0.00e+00	0	59	0	239075328	45	4291
2026-01-18 04:44:14.35	5.92	14.44	-37.3	-39.0	14.7	0.00e+00	0	59	0	246415360	45	4325
2026-01-18 04:44:15.36	5.84	14.54	-37.6	-39.3	14.4	1.10e-06	0	59	0	254803968	45	4483
2026-01-18 04:44:16.37	5.77	14.64	-37.5	-39.2	14.6	0.00e+00	0	59	0	261095424	45	4431
2026-01-18 04:44:17.38	5.70	14.74	-37.4	-39.1	14.7	0.00e+00	0	59	0	268435456	45	4370
2026-01-18 04:44:18.39	5.62	14.84	-37.3	-39.0	14.8	0.00e+00	0	59	0	275775488	45	4329
2026-01-18 04:44:19.40	5.55	14.94	-37.3	-38.9	15.0	0.00e+00	0	59	0	283115520	45	4282
2026-01-18 04:44:20.41	5.48	15.04	-37.3	-38.9	15.0	0.00e+00	0	59	0	290455552	45	4274
2026-01-18 04:44:21.42	5.40	15.14	-37.2	-38.9	15.1	0.00e+00	0	59	0	297795584	45	4248
2026-01-18 04:44:22.43	5.33	15.24	-37.4	-39.1	14.9	0.00e+00	0	59	0	305135616	45	4350
2026-01-18 04:44:23.44	5.25	15.34	-37.2	-38.8	15.2	0.00e+00	0	59	0	312475648	45	4221
2026-01-18 04:44:24.44	5.17	15.44	-37.2	-38.8	15.2	0.00e+00	0	59	0	319815680	45	4224
2026-01-18 04:44:25.45	5.10	15.54	-37.2	-38.8	15.2	0.00e+00	0	59	0	327155712	45	4201
2026-01-18 04:44:26.46	5.02	15.65	-37.1	-38.6	15.4	0.00e+00	0	59	0	334495744	45	4145
2026-01-18 04:44:27.47	4.94	15.75	-37.2	-38.8	15.2	0.00e+00	0	59	0	341835776	45	4239
2026-01-18 04:44:28.48	4.86	15.85	-37.1	-38.7	15.4	0.00e+00	0	59	0	349175808	45	4177
2026-01-18 04:44:29.49	4.78	15.96	-37.1	-38.7	15.5	0.00e+00	0	59	0	356515840	45	4149
2026-01-18 04:44:30.50	4.70	16.06	-37.1	-38.7	15.4	0.00e+00	0	59	0	363855872	45	4167
2026-01-18 04:44:31.51	4.62	16.17	-37.1	-38.7	15.5	0.00e+00	0	59	0	371195904	45	4151
2026-01-18 04:44:32.52	4.54	16.27	-37.1	-38.6	15.5	0.00e+00	0	59	0	378535936	45	4129
2026-01-18 04:44:33.53	4.46	16.38	-36.9	-38.4	15.7	0.00e+00	0	59	0	385875968	44	4289
2026-01-18 04:44:34.54	4.38	16.48	-36.9	-38.5	15.7	0.00e+00	0	59	0	392167424	44	4307
2026-01-18 04:44:35.55	4.29	16.59	-36.9	-38.4	15.8	0.00e+00	0	59	0	400556032	44	4284
2026-01-18 04:44:36.56	4.21	16.70	-37.0	-38.5	15.7	0.00e+00	0	59	0	407896064	44	4330
2026-01-18 04:44:37.58	4.12	16.81	-36.8	-38.3	16.0	0.00e+00	0	59	0	414187520	44	4216
2026-01-18 04:44:38.59	4.04	16.91	-37.1	-38.6	15.7	0.00e+00	0	59	0	421527552	44	4349
2026-01-18 04:44:39.60	3.95	17.02	-37.1	-38.6	15.7	0.00e+00	0	59	0	428867584	44	4357
2026-01-18 04:44:40.60	3.87	17.13	-37.1	-38.6	15.7	0.00e+00	0	59	0	436207616	44	4373
2026-01-18 04:44:41.61	3.78	17.24	-37.0	-38.5	15.8	0.00e+00	0	60	0	443547648	44	4315
2026-01-18 04:44:42.62	3.69	17.35	-37.1	-38.6	15.7	0.00e+00	0	59	0	450887680	44	4376
2026-01-18 04:44:43.63	3.61	17.46	-36.9	-38.4	16.0	0.00e+00	0	59	0	458227712	44	4245
2026-01-18 04:44:44.64	3.52	17.57	-37.0	-38.5	15.9	0.00e+00	0	59	0	465567744	44	4311
2026-01-18 04:44:45.65	3.43	17.68	-37.1	-38.5	15.9	0.00e+00	0	60	0	472907776	44	4335
2026-01-18 04:44:46.66	3.34	17.79	-37.0	-38.4	16.0	0.00e+00	0	59	0	480247808	44	4286
2026-01-18 04:44:47.67	3.25	17.90	-36.9	-38.3	16.1	0.00e+00	0	60	0	487587840	44	4223
2026-01-18 04:44:48.68	3.15	18.01	-36.8	-38.2	16.3	0.00e+00	0	59	0	494927872	44	4160
2026-01-18 04:44:49.69	3.06	18.12	-36.7	-38.1	16.4	0.00e+00	0	60	0	502267904	44	4115
2026-01-18 04:44:50.70	2.97	18.24	-36.7	-38.1	16.4	0.00e+00	0	59	0	509607936	44	4127
2026-01-18 04:44:51.71	2.88	18.35	-36.7	-38.0	16.5	0.00e+00	0	59	0	516947968	44	4090
2026-01-18 04:44:52.72	2.78	18.46	-36.6	-37.9	16.6	0.00e+00	0	60	0	524288000	44	4048
2026-01-18 04:44:53.73	2.69	18.58	-36.3	-37.6	16.7	0.00e+00	0	60	0	531628032	43	4122
2026-01-18 04:44:54.74	2.59	18.69	-36.4	-37.7	16.6	0.00e+00	0	59	0	537919488	43	4192
2026-01-18 04:44:55.75	2.49	18.81	-36.3	-37.7	16.7	0.00e+00	0	59	0	546308096	43	4168
2026-01-18 04:44:56.76	2.40	18.92	-36.1	-37.5	16.9	0.00e+00	0	60	0	553648128	43	4060
2026-01-18 04:44:57.77	2.30	19.04	-36.1	-37.4	17.0	0.00e+00	0	59	0	559939584	43	4044
2026-01-18 04:44:58.78	2.20	19.15	-36.2	-37.5	16.9	0.00e+00	0	60	0	567279616	43	4071
2026-01-18 04:44:59.79	2.10	19.27	-36.0	-37.3	17.1	0.00e+00	0	59	0	574619648	42	4231
2026-01-18 04:45:00.80	2.00	19.39	-36.0	-37.3	17.1	0.00e+00	0	60	0	581959680	42	4219
2026-01-18 04:45:01.81	1.90	19.50	-36.0	-37.3	17.2	0.00e+00	0	60	0	589299712	42	4211
2026-01-18 04:45:02.82	1.79	19.62	-36.0	-37.3	17.2	0.00e+00	0	60	0	596639744	42	4213
2026-01-18 04:45:03.83	1.69	19.74	-36.0	-37.3	17.2	0.00e+00	0	60	0	603979776	42	4217
2026-01-18 04:45:04.84	1.59	19.86	-36.1	-37.4	17.1	0.00e+00	0	60	0	611319808	42	4265
2026-01-18 04:45:05.85	1.48	19.98	-36.0	-37.3	17.1	0.00e+00	0	60	0	618659840	42	4229
2026-01-18 04:45:06.86	1.38	20.10	-36.1	-37.4	17.1	0.00e+00	0	60	0	625999872	42	4254
2026-01-18 04:45:07.87	1.27	20.22	-36.0	-37.3	17.2	0.00e+00	0	60	0	633339904	42	4214
2026-01-18 04:45:08.88	1.16	20.34	-36.1	-37.4	17.1	0.00e+00	0	59	0	640679936	42	4263
2026-01-18 04:45:09.89	1.05	20.46	-36.0	-37.3	17.1	0.00e+00	0	60	0	648019968	42	4235
2026-01-18 04:45:10.90	0.95	20.58	-36.0	-37.3	17.2	0.00e+00	0	60	0	655360000	42	4211
2026-01-18 04:45:11.91	0.84	20.71	-36.0	-37.3	17.2	0.00e+00	0	60	0	662700032	42	4224
2026-01-18 04:45:12.92	0.73	20.83	-36.0	-37.3	17.2	0.00e+00	0	60	0	670040064	42	4233
2026-01-18 04:45:13.93	0.61	20.95	-36.0	-37.3	17.2	0.00e+00	0	60	0	677380096	42	4226
2026-01-18 04:45:14.94	0.50	21.08	-35.7	-36.9	17.6	0.00e+00	0	60	0	684720128	42	4027
2026-01-18 04:45:15.95	0.39	21.20	-36.0	-37.3	17.3	0.00e+00	0	60	0	691011584	42	4198
2026-01-18 04:45:16.96	0.27	21.33	-35.9	-37.2	17.3	0.00e+00	0	60	0	699400192	42	4181
2026-01-18 04:45:17.97	0.16	21.45	-35.9	-37.2	17.3	0.00e+00	0	60	0	706740224	42	4157
2026-01-18 04:45:18.98	0.04	21.58	-35.9	-37.1	17.3	0.00e+00	0	60	0	713031680	42	4145
2026-01-18 04:45:19.99	359.92	21.70	-36.0	-37.3	17.2	0.00e+00	0	60	0	720371712	42	4218
2026-01-18 04:45:21.01	359.80	21.83	-35.9	-37.2	17.3	0.00e+00	0	60	0	728760320	42	4168
2026-01-18 04:45:22.02	359.68	21.96	-35.9	-37.2	17.3	0.00e+00	0	60	0	735051776	42	4154
2026-01-18 04:45:23.03	359.56	22.09	-35.9	-37.2	17.3	0.00e+00	0	60	0	742391808	42	4169
2026-01-18 04:45:24.04	359.44	22.21	-35.9	-37.2	17.3	0.00e+00	0	60	0	749731840	42	4179
2026-01-18 04:45:25.05	359.32	22.34	-36.0	-37.3	17.2	0.00e+00	0	60	0	757071872	42	4199
2026-01-18 04:45:26.06	359.19	22.47	-36.0	-37.3	17.2	0.00e+00	0	60	0	764411904	42	4207
2026-01-18 04:45:27.06	359.07	22.60	-36.0	-37.3	17.2	0.00e+00	0	60	0	771751936	42	4213
2026-01-18 04:45:28.07	358.95	22.73	-36.0	-37.3	17.2	0.00e+00	0	60	0	779091968	42	4233
2026-01-18 04:45:29.08	358.82	22.86	-36.0	-37.3	17.1	0.00e+00	0	60	0	786432000	42	4238
2026-01-18 04:45:30.09	358.69	22.99	-36.2	-37.5	17.0	0.00e+00	0	60	0	793772032	42	4338
2026-01-18 04:45:31.10	358.56	23.12	-36.1	-37.5	17.1	0.00e+00	0	60	0	801112064	42	4294
2026-01-18 04:45:32.11	358.43	23.26	-36.2	-37.5	17.0	0.00e+00	0	60	0	808452096	42	4293
2026-01-18 04:45:33.12	358.30	23.39	-36.2	-37.5	17.0	0.00e+00	0	60	0	815792128	42	4321
2026-01-18 04:45:34.13	358.17	23.52	-36.2	-37.5	17.0	0.00e+00	0	60	0	823132160	42	4303
2026-01-18 04:45:35.14	358.03	23.66	-36.0	-37.3	17.2	0.00e+00	0	60	0	830472192	42	4235
2026-01-18 04:45:36.15	357.90	23.79	-36.1	-37.4	17.1	0.00e+00	0	60	0	837812224	42	4264
2026-01-18 04:45:37.16	357.76	23.93	-36.2	-37.5	17.0	0.00e+00	0	60	0	845152256	42	4302
2026-01-18 04:45:38.18	357.62	24.06	-36.1	-37.4	17.1	0.00e+00	0	60	0	852492288	42	4287
2026-01-18 04:45:39.19	357.49	24.20	-36.2	-37.5	17.0	0.00e+00	0	60	0	858783744	42	4317
2026-01-18 04:45:40.20	357.35	24.34	-36.2	-37.5	17.0	0.00e+00	0	60	0	866123776	42	4311
2026-01-18 04:45:41.21	357.20	24.47	-36.3	-37.6	16.9	0.00e+00	0	60	0	874512384	42	4373
2026-01-18 04:45:42.22	357.06	24.61	-36.1	-37.4	17.1	0.00e+00	0	60	0	880803840	42	4289
2026-01-18 04:45:43.22	356.92	24.75	-36.2	-37.5	17.0	0.00e+00	0	60	0	888143872	42	4333
2026-01-18 04:45:44.23	356.78	24.89	-36.2	-37.5	17.0	0.00e+00	0	60	0	895483904	42	4335
2026-01-18 04:45:45.24	356.63	25.03	-36.3	-37.6	17.0	0.00e+00	0	60	0	902823936	42	4356
2026-01-18 04:45:46.25	356.48	25.17	-35.8	-37.1	17.5	0.00e+00	0	60	0	910163968	42	4099
2026-01-18 04:45:47.26	356.33	25.31	-36.3	-37.7	16.9	0.00e+00	0	60	0	917504000	42	4393
2026-01-18 04:45:48.27	356.18	25.45	-36.2	-37.5	17.0	0.00e+00	0	60	0	924844032	42	4329
2026-01-18 04:45:49.28	356.03	25.59	-36.3	-37.6	17.0	0.00e+00	0	60	0	932184064	42	4387
2026-01-18 04:45:50.29	355.88	25.73	-36.3	-37.6	17.1	0.00e+00	0	60	0	939524096	42	4349
2026-01-18 04:45:51.30	355.72	25.87	-36.6	-38.0	16.6	0.00e+00	0	60	0	946864128	42	4563
2026-01-18 04:45:52.31	355.57	26.02	-36.3	-37.6	17.1	0.00e+00	0	60	0	954204160	42	4359
2026-01-18 04:45:53.32	355.41	26.16	-36.1	-37.4	17.3	0.00e+00	0	60	0	961544192	42	4264
2026-01-18 04:45:54.33	355.25	26.30	-36.1	-37.4	17.3	0.00e+00	0	60	0	968884224	42	4260
2026-01-18 04:45:55.34	355.09	26.45	-36.0	-37.3	17.4	0.00e+00	0	60	0	976224256	42	4207
2026-01-18 04:45:56.35	354.93	26.59	-35.9	-37.2	17.5	0.00e+00	0	60	0	983564288	42	4150
2026-01-18 04:45:57.36	354.77	26.74	-35.8	-37.1	17.7	0.00e+00	0	60	0	990904320	42	4099
2026-01-18 04:45:58.37	354.60	26.88	-35.7	-36.9	17.8	0.00e+00	0	60	0	998244352	42	4042
2026-01-18 04:45:59.38	354.44	27.03	-35.6	-36.8	18.0	0.00e+00	0	60	0	1005584384	42	3972
2026-01-18 04:46:00.38	354.27	27.18	-35.5	-36.7	18.1	0.00e+00	0	60	0	1011875840	42	3927
2026-01-18 04:46:01.39	354.10	27.32	-35.4	-36.5	18.2	0.00e+00	0	60	0	1019215872	41	4087
2026-01-18 04:46:02.40	353.93	27.47	-35.1	-36.3	18.5	0.00e+00	0	60	0	1027604480	41	3967
2026-01-18 04:46:03.42	353.75	27.62	-35.1	-36.3	18.5	0.00e+00	0	60	0	1033895936	41	3959
2026-01-18 04:46:04.42	353.58	27.77	-35.1	-36.3	18.5	0.00e+00	0	60	0	1041235968	41	3960
2026-01-18 04:46:05.43	353.41	27.92	-35.0	-36.1	18.7	0.00e+00	0	60	0	1048576000	40	4125
2026-01-18 04:46:06.44	353.23	28.07	-35.0	-36.2	18.6	0.00e+00	0	60	0	1055916032	40	4158
2026-01-18 04:46:07.45	353.05	28.22	-35.0	-36.1	18.7	0.00e+00	0	60	0	1063256064	40	4124
2026-01-18 04:46:08.46	352.87	28.37	-35.1	-36.2	18.6	0.00e+00	0	60	0	1070596096	40	4178
2026-01-18 04:46:09.47	352.69	28.52	-35.1	-36.2	18.6	0.00e+00	0	60	0	1077936128	40	4172
2026-01-18 04:46:10.48	352.50	28.68	-35.1	-36.3	18.5	0.00e+00	0	60	0	1085276160	40	4207
2026-01-18 04:46:11.49	352.31	28.83	-35.2	-36.3	18.5	0.00e+00	0	61	0	1092616192	40	4228
2026-01-18 04:46:12.50	352.13	28.98	-35.3	-36.5	18.3	0.00e+00	0	60	0	1099956224	40	4323
2026-01-18 04:46:13.51	351.94	29.14	-35.2	-36.4	18.4	0.00e+00	0	60	0	1107296256	40	4258
2026-01-18 04:46:14.52	351.74	29.29	-35.2	-36.4	18.5	0.00e+00	0	60	0	1114636288	40	4243
2026-01-18 04:46:15.53	351.55	29.44	-35.2	-36.4	18.5	0.00e+00	0	60	0	1121976320	40	4248
2026-01-18 04:46:16.54	351.35	29.60	-35.1	-36.2	18.6	0.00e+00	0	60	0	1129316352	40	4185
2026-01-18 04:46:17.55	351.16	29.76	-34.9	-36.0	18.8	0.00e+00	0	60	0	1136656384	40	4078
2026-01-18 04:46:18.56	350.96	29.91	-35.1	-36.2	18.6	0.00e+00	0	61	0	1143996416	40	4189
2026-01-18 04:46:19.57	350.76	30.07	-35.2	-36.3	18.5	0.00e+00	0	60	0	1151336448	40	4235
2026-01-18 04:46:20.58	350.55	30.23	-35.3	-36.5	18.4	0.00e+00	0	60	0	1158676480	40	4292
2026-01-18 04:46:21.59	350.35	30.38	-35.4	-36.5	18.4	0.00e+00	0	60	0	1164967936	40	4333
2026-01-18 04:46:22.60	350.14	30.54	-35.6	-36.8	18.1	0.00e+00	0	60	0	1172307968	40	4462
2026-01-18 04:46:23.61	349.93	30.70	-35.6	-36.7	18.2	0.00e+00	0	61	0	1180696576	41	4182
2026-01-18 04:46:24.62	349.72	30.86	-35.6	-36.8	18.1	0.00e+00	0	60	0	1186988032	41	4195
2026-01-18 04:46:25.63	349.50	31.02	-35.6	-36.8	18.1	0.00e+00	0	61	0	1194328064	41	4220
2026-01-18 04:46:26.64	349.29	31.18	-35.7	-36.9	18.0	0.00e+00	0	60	0	1201668096	41	4243
2026-01-18 04:46:27.65	349.07	31.34	-35.7	-36.9	18.0	0.00e+00	0	60	0	1209008128	41	4266
2026-01-18 04:46:28.66	348.85	31.50	-35.5	-36.7	18.2	0.00e+00	0	61	0	1216348160	41	4159
2026-01-18 04:46:29.66	348.63	31.66	-35.6	-36.8	18.1	0.00e+00	0	60	0	1223688192	41	4230
2026-01-18 04:46:30.67	348.40	31.82	-35.6	-36.8	18.1	0.00e+00	0	60	0	1231028224	41	4228
2026-01-18 04:46:31.68	348.17	31.98	-35.5	-36.7	18.2	0.00e+00	0	60	0	1238368256	41	4165
2026-01-18 04:46:32.69	347.94	32.14	-35.4	-36.5	18.4	0.00e+00	0	61	0	1245708288	41	4080
2026-01-18 04:46:33.70	347.71	32.30	-35.5	-36.6	18.3	0.00e+00	0	61	0	1253048320	41	4135
2026-01-18 04:46:34.71	347.48	32.47	-35.4	-36.6	18.3	0.00e+00	0	61	0	1260388352	41	4111
2026-01-18 04:46:35.72	347.24	32.63	-35.4	-36.5	18.4	0.00e+00	0	61	0	1267728384	41	4083
2026-01-18 04:46:36.73	347.00	32.79	-35.3	-36.5	18.5	0.00e+00	0	60	0	1275068416	41	4063
2026-01-18 04:46:37.74	346.76	32.96	-35.2	-36.4	18.6	0.00e+00	0	60	0	1282408448	41	4005
2026-01-18 04:46:38.75	346.52	33.12	-35.2	-36.3	18.6	0.00e+00	0	61	0	1289748480	41	3990
2026-01-18 04:46:39.76	346.27	33.28	-35.1	-36.2	18.7	0.00e+00	0	60	0	1297088512	41	3934
2026-01-18 04:46:40.77	346.02	33.45	-35.1	-36.2	18.8	0.00e+00	0	60	0	1304428544	40	4164
2026-01-18 04:46:41.79	345.77	33.62	-35.0	-36.1	18.8	0.00e+00	0	61	0	1310720000	40	4135
2026-01-18 04:46:42.80	345.51	33.78	-35.0	-36.1	18.9	0.00e+00	0	61	0	1318060032	40	4131
2026-01-18 04:46:43.81	345.26	33.95	-35.0	-36.1	18.8	0.00e+00	0	60	0	1326448640	40	4119
2026-01-18 04:46:44.82	345.00	34.11	-35.0	-36.1	18.9	0.00e+00	0	61	0	1332740096	40	4125
2026-01-18 04:46:45.83	344.73	34.28	-35.1	-36.2	18.8	0.00e+00	0	61	0	1340080128	40	4155
2026-01-18 04:46:46.84	344.47	34.44	-35.1	-36.2	18.7	0.00e+00	0	61	0	1347420160	40	4183
2026-01-18 04:46:47.85	344.20	34.61	-35.2	-36.3	18.7	0.00e+00	0	61	0	1354760192	40	4211
2026-01-18 04:46:48.86	343.93	34.78	-35.5	-36.6	18.3	0.00e+00	0	61	0	1362100224	40	4390
2026-01-18 04:46:49.87	343.66	34.94	-35.2	-36.4	18.6	0.00e+00	0	61	0	1369440256	40	4246
2026-01-18 04:46:50.88	343.38	35.11	-35.4	-36.6	18.5	0.00e+00	0	61	0	1376780288	40	4342
2026-01-18 04:46:51.89	343.10	35.27	-35.4	-36.5	18.5	0.00e+00	0	61	0	1384120320	40	4313
2026-01-18 04:46:52.90	342.82	35.44	-35.4	-36.6	18.4	0.00e+00	0	61	0	1391460352	40	4351
2026-01-18 04:46:53.90	342.54	35.61	-35.4	-36.6	18.5	0.00e+00	0	61	0	1398800384	40	4345
2026-01-18 04:46:54.92	342.25	35.78	-35.5	-36.6	18.4	0.00e+00	0	61	0	1406140416	41	4128
2026-01-18 04:46:55.93	341.96	35.94	-35.5	-36.6	18.4	0.00e+00	0	61	0	1413480448	41	4138
2026-01-18 04:46:56.93	341.66	36.11	-35.6	-36.8	18.2	0.00e+00	0	61	0	1420820480	41	4208
2026-01-18 04:46:57.94	341.37	36.27	-35.6	-36.7	18.3	0.00e+00	0	60	0	1428160512	41	4182
2026-01-18 04:46:58.95	341.07	36.44	-35.7	-36.9	18.1	0.00e+00	0	61	0	1435500544	41	4265
2026-01-18 04:46:59.97	340.76	36.61	-35.7	-36.9	18.2	0.00e+00	0	61	0	1442840576	41	4245
2026-01-18 04:47:00.97	340.46	36.77	-35.5	-36.6	18.4	0.00e+00	0	61	0	1450180608	41	4145
2026-01-18 04:47:01.98	340.15	36.94	-35.5	-36.6	18.4	0.00e+00	0	61	0	1457520640	41	4144
2026-01-18 04:47:02.99	339.84	37.11	-35.4	-36.5	18.5	0.00e+00	0	60	0	1463812096	41	4088
2026-01-18 04:47:04.00	339.52	37.27	-35.4	-36.6	18.5	0.00e+00	0	61	0	1471152128	41	4120
2026-01-18 04:47:05.01	339.20	37.44	-35.3	-36.4	18.6	0.00e+00	0	61	0	1479540736	41	4047
2026-01-18 04:47:06.02	338.88	37.61	-35.4	-36.5	18.5	0.00e+00	0	61	0	1485832192	41	4093
2026-01-18 04:47:07.03	338.55	37.77	-35.4	-36.6	18.5	0.00e+00	0	61	0	1493172224	41	4105
2026-01-18 04:47:08.04	338.22	37.94	-35.5	-36.6	18.4	0.00e+00	0	61	0	1500512256	41	4144
2026-01-18 04:47:09.05	337.89	38.10	-35.6	-36.8	18.3	0.00e+00	0	61	0	1507852288	41	4218
2026-01-18 04:47:10.06	337.55	38.27	-35.6	-36.7	18.3	0.00e+00	0	61	0	1515192320	41	4182
2026-01-18 04:47:11.07	337.21	38.43	-35.5	-36.7	18.4	0.00e+00	0	61	0	1522532352	41	4147
2026-01-18 04:47:12.08	336.87	38.60	-35.5	-36.7	18.4	0.00e+00	0	61	0	1529872384	41	4159
2026-01-18 04:47:13.09	336.52	38.76	-35.5	-36.6	18.5	0.00e+00	0	61	0	1537212416	41	4132
2026-01-18 04:47:14.10	336.17	38.92	-35.4	-36.6	18.5	0.00e+00	0	61	0	1544552448	41	4102
2026-01-18 04:47:15.11	335.82	39.09	-35.4	-36.6	18.5	0.00e+00	0	61	0	1551892480	41	4118
2026-01-18 04:47:16.12	335.46	39.25	-35.4	-36.5	18.5	0.00e+00	0	61	0	1559232512	41	4095
2026-01-18 04:47:17.13	335.10	39.41	-35.3	-36.4	18.7	0.00e+00	0	61	0	1566572544	41	4023
2026-01-18 04:47:18.14	334.74	39.57	-35.3	-36.4	18.7	0.00e+00	0	61	0	1573912576	41	4041
2026-01-18 04:47:19.15	334.37	39.74	-35.2	-36.4	18.7	0.00e+00	0	61	0	1581252608	41	4018
2026-01-18 04:47:20.16	334.00	39.90	-35.2	-36.4	18.7	0.00e+00	0	61	0	1588592640	41	4011
2026-01-18 04:47:21.17	333.62	40.06	-35.4	-36.5	18.6	0.00e+00	0	61	0	1595932672	41	4094
2026-01-18 04:47:22.18	333.24	40.21	-35.6	-36.8	18.3	0.00e+00	0	61	0	1603272704	41	4204
2026-01-18 04:47:23.19	332.86	40.37	-36.0	-37.2	17.9	0.00e+00	0	61	0	1609564160	41	4403
2026-01-18 04:47:24.20	332.47	40.53	-36.1	-37.4	17.8	0.00e+00	0	61	0	1616904192	42	4249
2026-01-18 04:47:25.21	332.08	40.69	-36.5	-37.8	17.3	0.00e+00	0	61	0	1625292800	42	4492
2026-01-18 04:47:26.22	331.69	40.84	-36.5	-37.8	17.4	0.00e+00	0	61	0	1631584256	42	4469
2026-01-18 04:47:27.23	331.29	41.00	-36.3	-37.5	17.6	0.00e+00	0	61	0	1638924288	42	4326
2026-01-18 04:47:28.24	330.89	41.15	-36.1	-37.3	17.8	0.00e+00	0	61	0	1646264320	42	4210
2026-01-18 04:47:29.25	330.48	41.30	-35.7	-36.9	18.2	0.00e+00	0	61	0	1653604352	42	4011
2026-01-18 04:47:30.26	330.07	41.46	-35.5	-36.7	18.4	0.00e+00	0	61	0	1660944384	42	3924
2026-01-18 04:47:31.27	329.66	41.61	-35.6	-36.8	18.3	0.00e+00	0	61	0	1668284416	42	3978
2026-01-18 04:47:32.28	329.24	41.76	-35.5	-36.6	18.5	0.00e+00	0	61	0	1675624448	42	3904
2026-01-18 04:47:33.29	328.82	41.91	-35.6	-36.7	18.4	0.00e+00	0	61	0	1682964480	42	3948
2026-01-18 04:47:34.30	328.39	42.05	-35.5	-36.7	18.4	0.00e+00	0	61	0	1690304512	42	3934
2026-01-18 04:47:35.31	327.96	42.20	-35.5	-36.7	18.4	0.00e+00	0	61	0	1697644544	41	4160
2026-01-18 04:47:36.32	327.53	42.35	-35.4	-36.5	18.5	0.00e+00	0	61	0	1704984576	41	4084
2026-01-18 04:47:37.33	327.09	42.49	-35.3	-36.4	18.7	0.00e+00	0	61	0	1712324608	41	4026
2026-01-18 04:47:38.33	326.65	42.63	-35.3	-36.5	18.7	0.00e+00	0	61	0	1719664640	41	4052
2026-01-18 04:47:39.34	326.21	42.77	-35.4	-36.6	18.5	0.00e+00	0	61	0	1727004672	41	4107
2026-01-18 04:47:40.36	325.76	42.91	-35.4	-36.5	18.6	0.00e+00	0	61	0	1734344704	41	4090
2026-01-18 04:47:41.37	325.30	43.05	-35.4	-36.5	18.6	0.00e+00	0	61	0	1741684736	41	4063
2026-01-18 04:47:42.38	324.85	43.19	-35.4	-36.5	18.6	0.00e+00	0	61	0	1749024768	41	4067
2026-01-18 04:47:43.39	324.38	43.32	-35.4	-36.6	18.5	0.00e+00	0	61	0	1756364800	41	4114
2026-01-18 04:47:44.40	323.92	43.46	-35.4	-36.6	18.5	0.00e+00	0	61	0	1762656256	41	4105
2026-01-18 04:47:45.41	323.45	43.59	-35.3	-36.5	18.6	0.00e+00	0	61	0	1771044864	41	4057
2026-01-18 04:47:46.41	322.98	43.72	-35.3	-36.4	18.7	0.00e+00	0	61	0	1778384896	41	4048
2026-01-18 04:47:47.42	322.51	43.84	-35.3	-36.4	18.7	0.00e+00	0	61	0	1784676352	41	4021
2026-01-18 04:47:48.43	322.03	43.97	-35.1	-36.2	18.8	0.00e+00	0	61	0	1792016384	41	3947
2026-01-18 04:47:49.44	321.54	44.10	-35.3	-36.4	18.7	0.00e+00	0	61	0	1799356416	41	4024
2026-01-18 04:47:50.46	321.05	44.22	-35.4	-36.6	18.5	0.00e+00	0	61	0	1806696448	41	4111
2026-01-18 04:47:51.47	320.56	44.34	-35.4	-36.6	18.5	0.00e+00	0	61	0	1814036480	41	4100
2026-01-18 04:47:52.47	320.07	44.46	-35.6	-36.7	18.4	0.00e+00	0	61	0	1821376512	41	4179
2026-01-18 04:47:53.49	319.56	44.58	-35.6	-36.8	18.3	0.00e+00	0	61	0	1828716544	41	4219
2026-01-18 04:47:54.49	319.06	44.69	-35.6	-36.8	18.3	0.00e+00	0	61	0	1836056576	41	4195
2026-01-18 04:47:55.50	318.56	44.80	-35.7	-36.9	18.2	0.00e+00	0	61	0	1843396608	41	4258
2026-01-18 04:47:56.51	318.05	44.91	-35.8	-36.9	18.2	0.00e+00	0	61	0	1850736640	41	4288
2026-01-18 04:47:57.52	317.53	45.02	-35.8	-37.0	18.1	0.00e+00	0	61	0	1858076672	41	4309
2026-01-18 04:47:58.53	317.02	45.12	-35.7	-36.9	18.2	0.00e+00	0	61	0	1865416704	41	4276
2026-01-18 04:47:59.54	316.49	45.23	-35.7	-36.9	18.2	0.00e+00	0	61	0	1872756736	41	4284
2026-01-18 04:48:00.55	315.97	45.33	-35.5	-36.6	18.4	0.00e+00	0	61	0	1880096768	41	4136
2026-01-18 04:48:01.56	315.44	45.43	-35.5	-36.6	18.5	0.00e+00	0	61	0	1887436800	41	4121
2026-01-18 04:48:02.57	314.91	45.52	-35.2	-36.3	18.7	0.00e+00	0	61	0	1894776832	41	3991
2026-01-18 04:48:03.58	314.38	45.62	-35.4	-36.5	18.6	0.00e+00	0	61	0	1902116864	41	4071
2026-01-18 04:48:04.59	313.84	45.71	-35.6	-36.8	18.3	0.00e+00	0	61	0	1908408320	41	4212
2026-01-18 04:48:05.60	313.30	45.80	-36.0	-37.3	17.8	0.00e+00	0	61	0	1916796928	41	4443
2026-01-18 04:48:06.61	312.76	45.88	-36.2	-37.5	17.7	0.00e+00	0	61	0	1924136960	42	4312
2026-01-18 04:48:07.62	312.21	45.97	-36.3	-37.5	17.6	0.00e+00	0	61	0	1930428416	42	4337
2026-01-18 04:48:08.63	311.66	46.05	-36.2	-37.4	17.8	0.00e+00	0	61	0	1937768448	42	4256
2026-01-18 04:48:09.64	311.11	46.12	-35.9	-37.1	18.0	0.00e+00	0	61	0	1945108480	42	4134
2026-01-18 04:48:10.65	310.56	46.20	-35.8	-36.9	18.2	0.00e+00	0	61	0	1952448512	42	4040
2026-01-18 04:48:11.66	310.00	46.27	-35.6	-36.8	18.4	0.00e+00	0	61	0	1959788544	42	3963
2026-01-18 04:48:12.67	309.44	46.34	-35.8	-37.0	18.2	0.00e+00	0	61	0	1967128576	42	4060
2026-01-18 04:48:13.68	308.88	46.41	-36.1	-37.3	17.8	0.00e+00	0	61	0	1974468608	42	4226
2026-01-18 04:48:14.69	308.31	46.47	-36.2	-37.5	17.7	0.00e+00	0	61	0	1981808640	42	4293
2026-01-18 04:48:15.70	307.75	46.53	-36.1	-37.4	17.8	0.00e+00	0	61	0	1989148672	42	4253
2026-01-18 04:48:16.71	307.18	46.59	-36.0	-37.2	18.0	0.00e+00	0	61	0	1996488704	42	4149
2026-01-18 04:48:17.72	306.61	46.64	-36.0	-37.2	18.0	0.00e+00	0	61	0	2003828736	42	4182
2026-01-18 04:48:18.73	306.03	46.69	-35.8	-37.0	18.2	0.00e+00	0	61	0	2011168768	42	4057
2026-01-18 04:48:19.74	305.46	46.74	-35.7	-36.9	18.2	0.00e+00	0	61	0	2018508800	42	4032
2026-01-18 04:48:20.75	304.88	46.78	-35.9	-37.1	18.0	0.00e+00	0	61	0	2025848832	42	4115
2026-01-18 04:48:21.76	304.30	46.83	-35.9	-37.1	18.0	0.00e+00	0	61	0	2033188864	42	4145
2026-01-18 04:48:22.77	303.72	46.86	-35.9	-37.0	18.1	0.00e+00	0	61	0	2040528896	42	4092
2026-01-18 04:48:23.78	303.14	46.90	-36.0	-37.2	18.0	0.00e+00	0	61	0	2047868928	42	4154
2026-01-18 04:48:24.79	302.56	46.93	-35.9	-37.1	18.0	0.00e+00	0	61	0	2055208960	42	4128
2026-01-18 04:48:25.80	301.98	46.96	-36.0	-37.2	18.0	0.00e+00	0	61	0	2061500416	42	4170
2026-01-18 04:48:26.81	301.39	46.99	-35.9	-37.1	18.0	0.00e+00	0	61	0	2069889024	42	4123
2026-01-18 04:48:27.81	300.81	47.01	-35.8	-37.0	18.1	0.00e+00	0	61	0	2077229056	42	4077
2026-01-18 04:48:28.82	300.23	47.03	-35.8	-37.0	18.1	0.00e+00	0	61	0	2083520512	42	4085
2026-01-18 04:48:29.83	299.64	47.04	-36.0	-37.2	17.9	0.00e+00	0	61	0	2090860544	42	4170
2026-01-18 04:48:30.84	299.05	47.06	-36.2	-37.4	17.7	0.00e+00	0	61	0	2098200576	42	4283
2026-01-18 04:48:31.85	298.47	47.07	-36.2	-37.5	17.7	0.00e+00	0	61	0	2105540608	42	4294
2026-01-18 04:48:32.86	297.88	47.07	-35.8	-37.0	18.1	0.00e+00	0	61	0	2112880640	42	4090
2026-01-18 04:48:33.87	297.29	47.07	-35.7	-36.9	18.3	0.00e+00	0	61	0	2120220672	42	4008
2026-01-18 04:48:34.88	296.70	47.07	-35.9	-37.1	18.1	0.00e+00	0	61	0	2127560704	42	4101
2026-01-18 04:48:35.89	296.11	47.07	-36.1	-37.3	17.9	0.00e+00	0	61	0	2134900736	42	4199
2026-01-18 04:48:36.90	295.52	47.06	-36.0	-37.2	17.9	0.00e+00	0	61	0	2142240768	42	4169
2026-01-18 04:48:37.91	294.94	47.05	-36.0	-37.1	18.0	0.00e+00	0	61	0	2149580800	42	4142
2026-01-18 04:48:38.92	294.35	47.04	-35.9	-37.1	18.0	0.00e+00	0	61	0	2156920832	42	4117
2026-01-18 04:48:39.93	293.76	47.02	-36.0	-37.1	18.0	0.00e+00	0	61	0	2164260864	42	4142
2026-01-18 04:48:40.93	293.18	47.00	-36.0	-37.2	18.0	0.00e+00	0	61	0	2171600896	42	4166
2026-01-18 04:48:41.94	292.60	46.98	-36.0	-37.2	17.9	0.00e+00	0	61	0	2178940928	42	4164
2026-01-18 04:48:42.96	292.01	46.95	-36.0	-37.3	17.9	0.00e+00	0	61	0	2186280960	42	4194
2026-01-18 04:48:43.96	291.43	46.92	-36.0	-37.2	17.9	0.00e+00	0	61	0	2193620992	42	4160
2026-01-18 04:48:44.97	290.85	46.89	-35.9	-37.1	18.1	0.00e+00	0	61	0	2200961024	42	4107
2026-01-18 04:48:45.98	290.27	46.85	-35.9	-37.1	18.0	0.00e+00	0	61	0	2207252480	42	4121
2026-01-18 04:48:46.99	289.69	46.81	-35.9	-37.0	18.1	0.00e+00	0	61	0	2214592512	42	4097
2026-01-18 04:48:48.00	289.11	46.77	-35.9	-37.0	18.1	0.00e+00	0	61	0	2221932544	42	4088
2026-01-18 04:48:49.01	288.53	46.72	-35.9	-37.1	18.1	0.00e+00	0	61	0	2229272576	42	4118
2026-01-18 04:48:50.02	287.96	46.67	-36.0	-37.2	18.0	0.00e+00	0	61	0	2236612608	42	4151
2026-01-18 04:48:51.03	287.39	46.62	-36.0	-37.2	18.0	0.00e+00	0	61	0	2243952640	42	4148
2026-01-18 04:48:52.04	286.81	46.57	-36.0	-37.2	18.0	0.00e+00	0	61	0	2251292672	42	4159
2026-01-18 04:48:53.05	286.25	46.51	-36.0	-37.2	17.9	0.00e+00	0	61	0	2258632704	42	4184
2026-01-18 04:48:54.06	285.68	46.45	-36.0	-37.2	18.0	0.00e+00	0	61	0	2265972736	42	4164
2026-01-18 04:48:55.07	285.11	46.38	-35.9	-37.1	18.0	0.00e+00	0	61	0	2273312768	42	4129
2026-01-18 04:48:56.08	284.55	46.31	-35.9	-37.1	18.1	0.00e+00	0	61	0	2280652800	42	4102
2026-01-18 04:48:57.09	283.99	46.24	-35.8	-37.0	18.2	0.00e+00	0	61	0	2287992832	42	4064
2026-01-18 04:48:58.10	283.44	46.17	-35.7	-36.8	18.3	0.00e+00	0	61	0	2295332864	42	3994
2026-01-18 04:48:59.10	282.89	46.10	-35.6	-36.7	18.4	0.00e+00	0	61	0	2302672896	42	3949
2026-01-18 04:49:00.12	282.33	46.02	-35.5	-36.6	18.5	0.00e+00	0	61	0	2310012928	41	4111
2026-01-18 04:49:01.12	281.79	45.94	-35.5	-36.7	18.4	0.00e+00	0	61	0	2317352960	41	4156
2026-01-18 04:49:02.13	281.24	45.85	-35.7	-36.9	18.2	0.00e+00	0	61	0	2324692992	41	4252
2026-01-18 04:49:03.14	280.70	45.77	-35.8	-37.0	18.1	0.00e+00	0	61	0	2332033024	41	4326
2026-01-18 04:49:04.15	280.16	45.68	-35.9	-37.1	18.1	0.00e+00	0	61	0	2338324480	41	4352
2026-01-18 04:49:05.16	279.62	45.58	-36.0	-37.2	17.9	0.00e+00	0	61	0	2346713088	41	4403
2026-01-18 04:49:06.17	279.09	45.49	-35.8	-37.0	18.1	0.00e+00	0	61	0	2354053120	41	4309
2026-01-18 04:49:07.18	278.56	45.39	-35.7	-36.9	18.2	0.00e+00	0	61	0	2360344576	41	4260
2026-01-18 04:49:08.19	278.03	45.29	-35.7	-36.9	18.2	0.00e+00	0	61	0	2367684608	41	4263
2026-01-18 04:49:09.20	277.51	45.19	-35.9	-37.1	18.0	0.00e+00	0	61	0	2375024640	41	4357
2026-01-18 04:49:10.21	276.98	45.09	-35.9	-37.1	18.0	0.00e+00	0	61	0	2382364672	41	4354
2026-01-18 04:49:11.22	276.47	44.98	-35.8	-37.0	18.1	0.00e+00	0	61	0	2389704704	41	4316
2026-01-18 04:49:12.23	275.95	44.87	-35.8	-36.9	18.2	0.00e+00	0	61	0	2397044736	41	4281
2026-01-18 04:49:13.24	275.44	44.76	-35.7	-36.9	18.2	0.00e+00	0	61	0	2404384768	41	4258
2026-01-18 04:49:14.25	274.94	44.65	-35.7	-36.9	18.2	0.00e+00	0	61	0	2411724800	41	4279
2026-01-18 04:49:15.26	274.43	44.53	-35.7	-36.8	18.2	0.00e+00	0	61	0	2419064832	41	4233
2026-01-18 04:49:16.27	273.94	44.41	-35.7	-36.8	18.3	0.00e+00	0	61	0	2426404864	41	4227
2026-01-18 04:49:17.28	273.44	44.29	-35.6	-36.7	18.4	0.00e+00	0	61	0	2433744896	41	4178
2026-01-18 04:49:18.29	272.95	44.17	-35.5	-36.7	18.4	0.00e+00	0	61	0	2441084928	41	4159
2026-01-18 04:49:19.30	272.46	44.05	-35.6	-36.7	18.4	0.00e+00	0	61	0	2448424960	41	4191
2026-01-18 04:49:20.31	271.98	43.92	-35.8	-37.0	18.1	0.00e+00	0	61	0	2455764992	41	4322
2026-01-18 04:49:21.32	271.50	43.79	-35.7	-36.9	18.2	0.00e+00	0	61	0	2463105024	41	4277
2026-01-18 04:49:22.33	271.02	43.66	-35.6	-36.7	18.4	0.00e+00	0	61	0	2470445056	41	4181
2026-01-18 04:49:23.34	270.55	43.53	-35.5	-36.7	18.5	0.00e+00	0	61	0	2477785088	41	4154
2026-01-18 04:49:24.35	270.08	43.40	-35.5	-36.6	18.5	0.00e+00	0	61	0	2484076544	41	4123
2026-01-18 04:49:25.36	269.61	43.27	-35.4	-36.6	18.5	0.00e+00	0	61	0	2492465152	41	4117
2026-01-18 04:49:26.37	269.15	43.13	-35.4	-36.6	18.5	0.00e+00	0	61	0	2499805184	41	4107
2026-01-18 04:49:27.38	268.70	42.99	-35.4	-36.5	18.5	0.00e+00	0	61	0	2506096640	41	4094
2026-01-18 04:49:28.39	268.24	42.85	-35.5	-36.6	18.4	0.00e+00	0	61	0	2513436672	41	4131
2026-01-18 04:49:29.40	267.79	42.71	-35.5	-36.7	18.4	0.00e+00	0	61	0	2520776704	41	4164
2026-01-18 04:49:30.41	267.35	42.57	-35.6	-36.8	18.3	0.00e+00	0	61	0	2528116736	41	4194
2026-01-18 04:49:31.41	266.91	42.43	-35.6	-36.8	18.3	0.00e+00	0	61	0	2535456768	41	4204
2026-01-18 04:49:32.43	266.47	42.28	-35.6	-36.7	18.4	0.00e+00	0	61	0	2542796800	41	4176
2026-01-18 04:49:33.43	266.04	42.14	-35.4	-36.5	18.5	0.00e+00	0	61	0	2550136832	41	4098
2026-01-18 04:49:34.44	265.61	41.99	-35.4	-36.5	18.6	0.00e+00	0	61	0	2557476864	41	4078
2026-01-18 04:49:35.45	265.19	41.84	-35.4	-36.5	18.6	0.00e+00	0	61	0	2564816896	41	4081
2026-01-18 04:49:36.46	264.76	41.69	-35.4	-36.5	18.6	0.00e+00	0	61	0	2572156928	41	4092
2026-01-18 04:49:37.47	264.35	41.54	-35.3	-36.5	18.6	0.00e+00	0	61	0	2579496960	41	4068
2026-01-18 04:49:38.48	263.93	41.39	-35.3	-36.4	18.7	0.00e+00	0	61	0	2586836992	41	4034
2026-01-18 04:49:39.49	263.52	41.24	-35.2	-36.4	18.7	0.00e+00	0	61	0	2594177024	41	4010
2026-01-18 04:49:40.50	263.12	41.08	-35.2	-36.3	18.7	0.00e+00	0	61	0	2601517056	41	3995
2026-01-18 04:49:41.51	262.72	40.93	-35.3	-36.4	18.7	0.00e+00	0	61	0	2608857088	41	4036
2026-01-18 04:49:42.53	262.31	40.77	-35.3	-36.4	18.7	0.00e+00	0	61	0	2616197120	41	4014
2026-01-18 04:49:43.54	261.92	40.61	-35.2	-36.3	18.7	0.00e+00	0	61	0	2623537152	41	3971
2026-01-18 04:49:44.55	261.53	40.46	-35.2	-36.3	18.8	0.00e+00	0	61	0	2630877184	41	3982
2026-01-18 04:49:45.56	261.14	40.30	-35.2	-36.3	18.8	0.00e+00	0	61	0	2638217216	41	3986
2026-01-18 04:49:46.57	260.76	40.14	-35.1	-36.2	18.8	0.00e+00	0	61	0	2645557248	41	3940
2026-01-18 04:49:47.58	260.38	39.98	-35.2	-36.3	18.8	0.00e+00	0	61	0	2652897280	41	3993
2026-01-18 04:49:48.59	260.00	39.82	-35.1	-36.2	18.8	0.00e+00	0	61	0	2659188736	41	3934
2026-01-18 04:49:49.60	259.63	39.66	-34.9	-36.0	19.0	0.00e+00	0	61	0	2666528768	40	4083
2026-01-18 04:49:50.61	259.26	39.50	-34.8	-35.9	19.1	0.00e+00	0	61	0	2674917376	40	4024
2026-01-18 04:49:51.61	258.90	39.33	-35.0	-36.1	19.0	0.00e+00	0	61	0	2681208832	40	4104
2026-01-18 04:49:52.62	258.54	39.17	-35.1	-36.2	18.9	0.00e+00	0	61	0	2688548864	40	4172
2026-01-18 04:49:53.63	258.19	39.01	-35.3	-36.5	18.6	0.00e+00	0	61	0	2695888896	40	4298
2026-01-18 04:49:54.64	257.83	38.84	-35.4	-36.5	18.6	0.00e+00	0	61	0	2703228928	40	4333
2026-01-18 04:49:55.65	257.48	38.68	-35.3	-36.4	18.7	0.00e+00	0	61	0	2710568960	40	4257
2026-01-18 04:49:56.66	257.14	38.51	-35.3	-36.4	18.6	0.00e+00	0	61	0	2717908992	40	4275
2026-01-18 04:49:57.67	256.79	38.35	-35.1	-36.2	18.8	0.00e+00	0	61	0	2725249024	40	4172
2026-01-18 04:49:58.68	256.45	38.18	-35.1	-36.2	18.8	0.00e+00	0	61	0	2732589056	40	4187
2026-01-18 04:49:59.69	256.12	38.02	-35.1	-36.3	18.8	0.00e+00	0	61	0	2739929088	40	4197
2026-01-18 04:50:00.70	255.78	37.85	-35.2	-36.3	18.7	0.00e+00	0	61	0	2747269120	40	4237
2026-01-18 04:50:01.71	255.46	37.69	-35.2	-36.4	18.7	0.00e+00	0	61	0	2754609152	40	4255
2026-01-18 04:50:02.72	255.13	37.52	-35.3	-36.4	18.7	0.00e+00	0	61	0	2761949184	40	4263
2026-01-18 04:50:03.73	254.81	37.35	-35.3	-36.4	18.6	0.00e+00	0	61	0	2769289216	40	4280
2026-01-18 04:50:04.74	254.49	37.19	-35.3	-36.4	18.6	0.00e+00	0	61	0	2776629248	40	4267
2026-01-18 04:50:05.75	254.17	37.02	-35.3	-36.5	18.6	0.00e+00	0	61	0	2782920704	40	4295
2026-01-18 04:50:06.76	253.86	36.85	-35.3	-36.5	18.6	0.00e+00	0	61	0	2791309312	40	4306
2026-01-18 04:50:07.77	253.55	36.68	-35.4	-36.6	18.4	0.00e+00	0	61	0	2798649344	40	4351
2026-01-18 04:50:08.78	253.24	36.52	-35.4	-36.6	18.4	0.00e+00	0	61	0	2804940800	40	4364
2026-01-18 04:50:09.79	252.94	36.35	-35.4	-36.6	18.4	0.00e+00	0	61	0	2812280832	40	4352
2026-01-18 04:50:10.80	252.64	36.18	-35.2	-36.4	18.6	0.00e+00	0	61	0	2819620864	40	4258
2026-01-18 04:50:11.81	252.34	36.01	-35.0	-36.1	18.9	0.00e+00	0	61	0	2826960896	40	4140
2026-01-18 04:50:12.82	252.05	35.84	-34.8	-35.9	19.1	0.00e+00	0	61	0	2834300928	40	4036
2026-01-18 04:50:13.83	251.76	35.68	-34.7	-35.8	19.2	0.00e+00	0	61	0	2841640960	40	3976
2026-01-18 04:50:14.84	251.47	35.51	-34.7	-35.8	19.2	0.00e+00	0	61	0	2848980992	40	3985
2026-01-18 04:50:15.85	251.19	35.34	-34.9	-35.9	19.0	0.00e+00	0	61	0	2856321024	40	4042
2026-01-18 04:50:16.86	250.90	35.17	-35.0	-36.1	18.9	0.00e+00	0	61	0	2863661056	40	4136
2026-01-18 04:50:17.87	250.62	35.01	-35.0	-36.1	18.8	0.00e+00	0	61	0	2871001088	40	4123
2026-01-18 04:50:18.88	250.35	34.84	-35.1	-36.2	18.8	0.00e+00	0	61	0	2878341120	40	4168
2026-01-18 04:50:19.89	250.07	34.67	-35.0	-36.1	18.9	0.00e+00	0	61	0	2885681152	40	4108
2026-01-18 04:50:20.90	249.80	34.51	-34.9	-36.0	19.0	0.00e+00	0	61	0	2893021184	40	4062
2026-01-18 04:50:21.91	249.54	34.34	-34.8	-35.9	19.1	0.00e+00	0	61	0	2900361216	40	4034
2026-01-18 04:50:22.92	249.27	34.17	-34.9	-36.0	19.0	0.00e+00	0	61	0	2907701248	40	4066
2026-01-18 04:50:23.93	249.01	34.01	-35.0	-36.0	19.0	0.00e+00	0	61	0	2915041280	40	4091
2026-01-18 04:50:24.94	248.75	33.84	-35.1	-36.2	18.8	0.00e+00	0	61	0	2922381312	40	4154
2026-01-18 04:50:25.95	248.49	33.67	-35.1	-36.2	18.8	0.00e+00	0	61	0	2929721344	40	4163
2026-01-18 04:50:26.96	248.24	33.51	-35.1	-36.2	18.8	0.00e+00	0	61	0	2937061376	40	4193
2026-01-18 04:50:27.97	247.99	33.34	-35.2	-36.3	18.7	0.00e+00	0	61	0	2944401408	40	4227
2026-01-18 04:50:28.98	247.74	33.18	-35.1	-36.2	18.8	0.00e+00	0	61	0	2951741440	40	4188
2026-01-18 04:50:29.99	247.49	33.01	-35.2	-36.3	18.7	0.00e+00	0	61	0	2958032896	40	4224
2026-01-18 04:50:31.00	247.25	32.85	-35.2	-36.3	18.7	0.00e+00	0	61	0	2965372928	40	4242
2026-01-18 04:50:32.01	247.00	32.68	-35.2	-36.3	18.7	0.00e+00	0	61	0	2973761536	40	4216
2026-01-18 04:50:33.02	246.76	32.52	-35.1	-36.2	18.8	0.00e+00	0	61	0	2980052992	40	4187
2026-01-18 04:50:34.03	246.53	32.36	-35.0	-36.2	18.8	0.00e+00	0	61	0	2987393024	40	4148
2026-01-18 04:50:35.04	246.29	32.19	-34.9	-36.0	19.0	0.00e+00	0	61	0	2994733056	40	4067
2026-01-18 04:50:36.05	246.06	32.03	-34.9	-35.9	19.0	0.00e+00	0	61	0	3002073088	40	4047
2026-01-18 04:50:37.05	245.83	31.87	-34.9	-36.0	19.0	0.00e+00	0	61	0	3009413120	40	4072
2026-01-18 04:50:38.06	245.61	31.71	-34.9	-36.0	18.9	0.00e+00	0	61	0	3016753152	40	4095
2026-01-18 04:50:39.07	245.38	31.54	-35.0	-36.1	18.9	0.00e+00	0	61	0	3024093184	40	4107
2026-01-18 04:50:40.08	245.16	31.38	-35.0	-36.1	18.9	0.00e+00	0	61	0	3031433216	40	4111
2026-01-18 04:50:41.09	244.94	31.22	-35.0	-36.1	18.8	0.00e+00	0	61	0	3038773248	40	4139
2026-01-18 04:50:42.10	244.72	31.06	-35.1	-36.3	18.7	0.00e+00	0	61	0	3046113280	40	4197
2026-01-18 04:50:43.11	244.50	30.90	-35.2	-36.3	18.7	0.00e+00	0	61	0	3053453312	40	4231
2026-01-18 04:50:44.12	244.29	30.74	-35.4	-36.5	18.5	0.00e+00	0	61	0	3060793344	40	4328
2026-01-18 04:50:45.13	244.08	30.58	-35.5	-36.7	18.3	0.00e+00	0	61	0	3068133376	40	4408
2026-01-18 04:50:46.14	243.87	30.42	-35.6	-36.8	18.2	0.00e+00	0	61	0	3075473408	40	4456
2026-01-18 04:50:47.15	243.66	30.26	-35.6	-36.8	18.2	0.00e+00	0	61	0	3082813440	40	4457
2026-01-18 04:50:48.16	243.45	30.11	-35.5	-36.7	18.3	1.10e-06	0	61	0	3090153472	40	4420
2026-01-18 04:50:49.17	243.25	29.95	-35.4	-36.6	18.4	0.00e+00	0	61	0	3097493504	40	4341
2026-01-18 04:50:50.18	243.05	29.79	-35.4	-36.5	18.5	0.00e+00	0	61	0	3103784960	40	4322
2026-01-18 04:50:51.19	242.85	29.63	-35.3	-36.5	18.5	0.00e+00	0	61	0	3111124992	40	4302
2026-01-18 04:50:52.20	242.65	29.48	-35.4	-36.5	18.4	0.00e+00	0	61	0	3118465024	40	4333
2026-01-18 04:50:53.21	242.45	29.32	-35.6	-36.7	18.2	0.00e+00	0	61	0	3126853632	40	4431
2026-01-18 04:50:54.22	242.26	29.17	-35.7	-36.8	18.1	0.00e+00	0	61	0	3133145088	40	4493
2026-01-18 04:50:55.23	242.07	29.01	-35.7	-36.9	18.0	0.00e+00	0	61	0	3140485120	41	4272
2026-01-18 04:50:56.24	241.88	28.86	-35.7	-36.9	18.1	0.00e+00	0	61	0	3147825152	41	4256
2026-01-18 04:50:57.25	241.69	28.70	-35.6	-36.8	18.2	0.00e+00	0	61	0	3155165184	41	4197
2026-01-18 04:50:58.25	241.50	28.55	-35.4	-36.6	18.3	1.10e-06	0	61	0	3162505216	41	4127
2026-01-18 04:50:59.26	241.32	28.40	-35.4	-36.6	18.3	0.00e+00	0	61	0	3169845248	41	4117
2026-01-18 04:51:00.27	241.13	28.25	-35.4	-36.5	18.4	0.00e+00	0	61	0	3177185280	41	4081
2026-01-18 04:51:01.28	240.95	28.10	-35.3	-36.4	18.5	1.10e-06	0	61	0	3184525312	41	4040
2026-01-18 04:51:02.29	240.77	27.94	-35.3	-36.5	18.5	0.00e+00	0	61	0	3191865344	41	4070
2026-01-18 04:51:03.30	240.59	27.79	-35.3	-36.5	18.4	0.00e+00	0	61	0	3199205376	41	4076
2026-01-18 04:51:04.31	240.42	27.64	-35.4	-36.5	18.4	0.00e+00	0	61	0	3206545408	41	4079
2026-01-18 04:51:05.32	240.24	27.49	-35.4	-36.5	18.4	0.00e+00	0	61	0	3213885440	41	4088
2026-01-18 04:51:06.33	240.07	27.34	-35.4	-36.5	18.4	0.00e+00	0	61	0	3221225472	41	4075
2026-01-18 04:51:07.34	239.90	27.20	-35.4	-36.5	18.4	0.00e+00	0	61	0	3228565504	41	4090
2026-01-18 04:51:08.35	239.73	27.05	-35.4	-36.6	18.3	0.00e+00	0	61	0	3234856960	41	4106
2026-01-18 04:51:09.36	239.56	26.90	-35.5	-36.6	18.3	0.00e+00	0	61	0	3243245568	41	4131
2026-01-18 04:51:10.37	239.39	26.75	-35.5	-36.6	18.3	0.00e+00	0	61	0	3250585600	41	4126
2026-01-18 04:51:11.38	239.23	26.61	-35.5	-36.7	18.3	0.00e+00	0	61	0	3256877056	41	4154
2026-01-18 04:51:12.39	239.07	26.46	-35.5	-36.7	18.2	0.00e+00	0	61	0	3264217088	41	4178
2026-01-18 04:51:13.40	238.90	26.32	-35.5	-36.7	18.3	0.00e+00	0	61	0	3271557120	41	4156
2026-01-18 04:51:14.41	238.74	26.17	-35.4	-36.5	18.4	0.00e+00	0	61	0	3278897152	41	4096
2026-01-18 04:51:15.41	238.59	26.03	-35.4	-36.5	18.4	0.00e+00	0	61	0	3286237184	41	4080
2026-01-18 04:51:16.42	238.43	25.88	-35.3	-36.4	18.5	0.00e+00	0	61	0	3293577216	41	4034
2026-01-18 04:51:17.43	238.27	25.74	-35.3	-36.4	18.5	0.00e+00	0	61	0	3300917248	41	4038
2026-01-18 04:51:18.44	238.12	25.60	-35.4	-36.5	18.4	0.00e+00	0	61	0	3308257280	41	4081
2026-01-18 04:51:19.45	237.96	25.45	-35.4	-36.6	18.3	0.00e+00	0	61	0	3315597312	41	4115
2026-01-18 04:51:20.46	237.81	25.31	-35.6	-36.7	18.2	0.00e+00	0	61	0	3322937344	41	4186
2026-01-18 04:51:21.47	237.66	25.17	-35.6	-36.8	18.1	0.00e+00	0	61	0	3330277376	41	4228
2026-01-18 04:51:22.48	237.51	25.03	-35.8	-37.0	17.9	0.00e+00	0	61	0	3337617408	41	4329
2026-01-18 04:51:23.49	237.36	24.89	-35.9	-37.1	17.8	0.00e+00	0	61	0	3344957440	41	4376
2026-01-18 04:51:24.50	237.22	24.75	-35.9	-37.2	17.8	0.00e+00	0	61	0	3352297472	41	4398
2026-01-18 04:51:25.51	237.07	24.61	-35.9	-37.2	17.8	0.00e+00	0	61	0	3359637504	41	4399
2026-01-18 04:51:26.52	236.93	24.47	-35.8	-37.0	17.8	0.00e+00	0	61	0	3366977536	41	4339
2026-01-18 04:51:27.53	236.79	24.34	-35.8	-37.0	17.9	0.00e+00	0	61	0	3374317568	41	4307
2026-01-18 04:51:28.54	236.64	24.20	-35.8	-37.0	17.9	0.00e+00	0	61	0	3381657600	41	4326
2026-01-18 04:51:29.55	236.50	24.06	-35.6	-36.8	18.0	0.00e+00	0	61	0	3387949056	41	4229
2026-01-18 04:51:30.56	236.37	23.92	-35.7	-36.9	18.0	0.00e+00	0	61	0	3396337664	41	4244
2026-01-18 04:51:31.57	236.23	23.79	-35.6	-36.8	18.1	0.00e+00	0	61	0	3403677696	41	4215
2026-01-18 04:51:32.58	236.09	23.65	-35.6	-36.8	18.1	0.00e+00	0	61	0	3409969152	41	4211
2026-01-18 04:51:33.58	235.96	23.52	-35.5	-36.7	18.2	0.00e+00	0	61	0	3417309184	41	4170
2026-01-18 04:51:34.59	235.82	23.38	-35.5	-36.6	18.2	0.00e+00	0	61	0	3424649216	41	4145
2026-01-18 04:51:35.60	235.69	23.25	-35.5	-36.6	18.2	0.00e+00	0	61	0	3431989248	41	4128
2026-01-18 04:51:36.61	235.56	23.12	-35.4	-36.6	18.2	0.00e+00	0	61	0	3439329280	41	4123
2026-01-18 04:51:37.62	235.43	22.98	-35.4	-36.5	18.3	0.00e+00	0	61	0	3446669312	41	4097
2026-01-18 04:51:38.63	235.30	22.85	-35.3	-36.4	18.4	0.00e+00	0	61	0	3454009344	41	4037
2026-01-18 04:51:39.64	235.17	22.72	-35.4	-36.6	18.3	0.00e+00	0	61	0	3461349376	41	4107
2026-01-18 04:51:40.65	235.04	22.59	-35.3	-36.5	18.4	0.00e+00	0	61	0	3468689408	41	4061
2026-01-18 04:51:41.66	234.92	22.46	-35.4	-36.6	18.3	0.00e+00	0	61	0	3476029440	41	4099
2026-01-18 04:51:42.67	234.79	22.33	-35.5	-36.7	18.2	0.00e+00	0	61	0	3483369472	41	4156
2026-01-18 04:51:43.68	234.67	22.20	-35.5	-36.7	18.2	0.00e+00	0	61	0	3490709504	41	4152
2026-01-18 04:51:44.69	234.54	22.07	-35.6	-36.8	18.1	0.00e+00	0	61	0	3498049536	41	4212
2026-01-18 04:51:45.70	234.42	21.94	-35.7	-36.9	18.0	0.00e+00	0	61	0	3505389568	41	4268
2026-01-18 04:51:46.70	234.30	21.81	-35.7	-36.9	17.9	0.00e+00	0	61	0	3512729600	41	4291
2026-01-18 04:51:47.72	234.18	21.69	-35.7	-37.0	17.9	0.00e+00	0	61	0	3520069632	41	4294
2026-01-18 04:51:48.73	234.06	21.56	-35.9	-37.1	17.8	0.00e+00	0	61	0	3527409664	41	4359
2026-01-18 04:51:49.74	233.94	21.43	-35.9	-37.1	17.7	0.00e+00	0	61	0	3533701120	41	4378
2026-01-18 04:51:50.74	233.83	21.31	-36.0	-37.2	17.7	0.00e+00	0	61	0	3541041152	41	4414
2026-01-18 04:51:51.75	233.71	21.18	-36.0	-37.2	17.6	0.00e+00	0	61	0	3549429760	41	4436
2026-01-18 04:51:52.76	233.60	21.06	-36.1	-37.3	17.5	0.00e+00	0	61	0	3555721216	41	4485
2026-01-18 04:51:53.77	233.48	20.93	-36.1	-37.4	17.4	0.00e+00	0	61	0	3563061248	41	4527
2026-01-18 04:51:54.78	233.37	20.81	-36.2	-37.5	17.4	0.00e+00	0	61	0	3570401280	42	4313
2026-01-18 04:51:55.79	233.26	20.68	-36.3	-37.6	17.3	0.00e+00	0	61	0	3577741312	42	4370
2026-01-18 04:51:56.80	233.14	20.56	-36.4	-37.7	17.2	0.00e+00	0	61	0	3585081344	42	4419
2026-01-18 04:51:57.81	233.03	20.44	-36.4	-37.7	17.2	0.00e+00	0	61	0	3592421376	42	4394
2026-01-18 04:51:58.82	232.92	20.32	-36.4	-37.7	17.1	0.00e+00	0	61	0	3599761408	42	4424
2026-01-18 04:51:59.83	232.82	20.19	-36.4	-37.7	17.1	0.00e+00	0	61	0	3607101440	42	4423
2026-01-18 04:52:00.83	232.71	20.07	-36.4	-37.7	17.1	0.00e+00	0	61	0	3614441472	42	4425
2026-01-18 04:52:01.84	232.60	19.95	-36.4	-37.7	17.1	0.00e+00	0	61	0	3621781504	42	4423
2026-01-18 04:52:02.85	232.50	19.83	-36.4	-37.7	17.1	0.00e+00	0	61	0	3629121536	42	4421
2026-01-18 04:52:03.86	232.39	19.71	-36.3	-37.6	17.3	0.00e+00	0	61	0	3636461568	42	4348
2026-01-18 04:52:04.87	232.29	19.59	-36.1	-37.4	17.4	0.00e+00	0	61	0	3643801600	42	4271
2026-01-18 04:52:05.88	232.18	19.47	-36.1	-37.4	17.4	0.00e+00	0	61	0	3651141632	42	4255
2026-01-18 04:52:06.89	232.08	19.36	-36.0	-37.3	17.5	0.00e+00	0	61	0	3658481664	42	4202
2026-01-18 04:52:07.90	231.98	19.24	-36.0	-37.2	17.5	0.00e+00	0	61	0	3664773120	42	4192
2026-01-18 04:52:08.91	231.88	19.12	-36.0	-37.3	17.5	0.00e+00	0	61	0	3673161728	42	4212
2026-01-18 04:52:09.92	231.78	19.00	-36.0	-37.2	17.6	0.00e+00	0	62	0	3680501760	42	4170
2026-01-18 04:52:10.93	231.68	18.89	-36.0	-37.2	17.6	0.00e+00	0	62	0	3686793216	42	4162
2026-01-18 04:52:11.94	231.58	18.77	-36.0	-37.2	17.5	0.00e+00	0	61	0	3694133248	42	4185
2026-01-18 04:52:12.95	231.48	18.66	-36.0	-37.3	17.5	0.00e+00	0	61	0	3701473280	42	4197
2026-01-18 04:52:13.96	231.38	18.54	-36.0	-37.3	17.5	0.00e+00	0	61	0	3708813312	42	4211
2026-01-18 04:52:14.97	231.29	18.43	-36.1	-37.3	17.4	0.00e+00	0	61	0	3716153344	42	4239
2026-01-18 04:52:15.98	231.19	18.31	-36.2	-37.4	17.3	0.00e+00	0	61	0	3723493376	42	4289
2026-01-18 04:52:16.99	231.09	18.20	-36.3	-37.6	17.2	0.00e+00	0	61	0	3730833408	42	4366
2026-01-18 04:52:17.99	231.00	18.09	-36.3	-37.6	17.2	0.00e+00	0	61	0	3738173440	42	4373
2026-01-18 04:52:19.00	230.91	17.97	-36.5	-37.8	17.0	0.00e+00	0	62	0	3745513472	42	4467
2026-01-18 04:52:20.01	230.81	17.86	-36.5	-37.8	17.0	0.00e+00	0	61	0	3752853504	42	4483
2026-01-18 04:52:21.02	230.72	17.75	-36.5	-37.8	16.9	0.00e+00	0	61	0	3760193536	42	4481
2026-01-18 04:52:22.03	230.63	17.64	-36.6	-37.9	16.9	0.00e+00	0	61	0	3767533568	42	4531
2026-01-18 04:52:23.04	230.54	17.53	-36.7	-38.1	16.7	0.00e+00	0	61	0	3774873600	42	4599
2026-01-18 04:52:24.05	230.45	17.41	-36.6	-38.0	16.8	0.00e+00	0	61	0	3782213632	43	4306
2026-01-18 04:52:25.06	230.36	17.30	-36.7	-38.0	16.7	0.00e+00	0	61	0	3789553664	43	4334
2026-01-18 04:52:26.07	230.27	17.19	-36.8	-38.2	16.5	0.00e+00	0	61	0	3796893696	43	4401
2026-01-18 04:52:27.08	230.18	17.08	-36.6	-37.9	16.8	0.00e+00	0	61	0	3804233728	43	4275
2026-01-18 04:52:28.09	230.10	16.98	-36.6	-37.9	16.8	0.00e+00	0	61	0	3810525184	43	4291
2026-01-18 04:52:29.10	230.01	16.87	-36.6	-38.0	16.8	0.00e+00	0	61	0	3817865216	43	4297
2026-01-18 04:52:30.11	229.92	16.76	-36.6	-37.9	16.8	0.00e+00	0	61	0	3826253824	43	4273
2026-01-18 04:52:31.12	229.84	16.65	-36.6	-38.0	16.8	0.00e+00	0	61	0	3832545280	43	4295
2026-01-18 04:52:32.13	229.75	16.54	-36.7	-38.0	16.7	0.00e+00	0	61	0	3839885312	43	4339
2026-01-18 04:52:33.14	229.67	16.44	-36.6	-38.0	16.8	0.00e+00	0	61	0	3847225344	43	4306
2026-01-18 04:52:34.15	229.58	16.33	-36.7	-38.1	16.7	0.00e+00	0	61	0	3854565376	43	4343
2026-01-18 04:52:35.16	229.50	16.22	-36.7	-38.0	16.7	0.00e+00	0	62	0	3861905408	43	4339
2026-01-18 04:52:36.16	229.42	16.12	-36.8	-38.2	16.5	0.00e+00	0	62	0	3869245440	43	4398
2026-01-18 04:52:37.17	229.34	16.01	-36.8	-38.1	16.6	0.00e+00	0	62	0	3876585472	43	4372
2026-01-18 04:52:38.18	229.26	15.91	-36.8	-38.2	16.5	0.00e+00	0	61	0	3883925504	43	4396
2026-01-18 04:52:39.19	229.18	15.80	-36.8	-38.2	16.5	0.00e+00	0	61	0	3891265536	43	4409
2026-01-18 04:52:40.20	229.10	15.70	-36.8	-38.2	16.5	0.00e+00	0	61	0	3898605568	43	4417
2026-01-18 04:52:41.21	229.02	15.59	-37.0	-38.4	16.3	0.00e+00	0	61	0	3905945600	43	4513
2026-01-18 04:52:42.22	228.94	15.49	-37.0	-38.4	16.3	0.00e+00	0	61	0	3913285632	43	4499
2026-01-18 04:52:43.23	228.86	15.39	-37.1	-38.6	16.1	0.00e+00	0	61	0	3920625664	43	4610
2026-01-18 04:52:44.24	228.78	15.29	-37.1	-38.5	16.1	0.00e+00	0	61	0	3927965696	43	4588
2026-01-18 04:52:45.25	228.70	15.18	-37.1	-38.6	16.0	0.00e+00	0	61	0	3935305728	43	4618
2026-01-18 04:52:46.26	228.63	15.08	-37.3	-38.8	16.0	0.00e+00	0	61	0	3942645760	44	4447
2026-01-18 04:52:47.27	228.55	14.98	-37.4	-38.9	15.9	0.00e+00	0	61	0	3949985792	44	4529
2026-01-18 04:52:48.28	228.47	14.88	-37.6	-39.1	15.8	0.00e+00	0	61	0	3957325824	44	4607
2026-01-18 04:52:49.29	228.40	14.78	-37.4	-38.9	15.9	0.00e+00	0	61	0	3963617280	44	4521
2026-01-18 04:52:50.30	228.32	14.68	-37.5	-39.0	15.8	0.00e+00	0	61	0	3970957312	44	4583
2026-01-18 04:52:51.30	228.25	14.58	-37.6	-39.2	15.6	0.00e+00	0	61	0	3979345920	44	4656
2026-01-18 04:52:52.32	228.18	14.48	-37.6	-39.1	15.6	0.00e+00	0	62	0	3985637376	44	4636
2026-01-18 04:52:53.33	228.10	14.38	-37.5	-39.0	15.8	0.00e+00	0	61	0	3992977408	44	4580
2026-01-18 04:52:54.33	228.03	14.28	-37.6	-39.2	15.6	0.00e+00	0	62	0	4000317440	44	4656
2026-01-18 04:52:55.34	227.96	14.18	-37.7	-39.2	15.6	0.00e+00	0	62	0	4007657472	44	4681
2026-01-18 04:52:56.35	227.89	14.08	-37.7	-39.2	15.6	0.00e+00	0	62	0	4014997504	44	4680
2026-01-18 04:52:57.36	227.82	13.98	-37.6	-39.2	15.6	0.00e+00	0	61	0	4022337536	44	4675
2026-01-18 04:52:58.37	227.74	13.89	-37.7	-39.3	15.4	0.00e+00	0	61	0	4029677568	45	4469
2026-01-18 04:52:59.38	227.67	13.79	-37.7	-39.3	15.4	0.00e+00	0	61	0	4037017600	45	4462
2026-01-18 04:53:00.39	227.60	13.69	-37.8	-39.4	15.4	0.00e+00	0	61	0	4044357632	45	4495
2026-01-18 04:53:01.40	227.54	13.60	-37.8	-39.4	15.4	0.00e+00	0	61	0	4051697664	45	4521
2026-01-18 04:53:02.41	227.47	13.50	-37.7	-39.3	15.4	0.00e+00	0	61	0	4059037696	45	4483
2026-01-18 04:53:03.42	227.40	13.40	-37.9	-39.5	15.2	0.00e+00	0	61	0	4066377728	45	4570
2026-01-18 04:53:04.43	227.33	13.31	-37.9	-39.6	15.1	0.00e+00	0	61	0	4073717760	45	4600
2026-01-18 04:53:05.44	227.26	13.21	-37.9	-39.6	15.1	0.00e+00	0	61	0	4081057792	45	4605
2026-01-18 04:53:06.45	227.20	13.12	-38.0	-39.7	15.0	0.00e+00	0	61	0	4087349248	45	4654
2026-01-18 04:53:07.46	227.13	13.02	-38.0	-39.6	15.0	0.00e+00	0	62	0	4095737856	45	4651
2026-01-18 04:53:08.47	227.06	12.93	-38.0	-39.6	15.1	0.00e+00	0	61	0	4103077888	45	4645
2026-01-18 04:53:09.48	227.00	12.84	-38.0	-39.7	15.0	1.10e-06	0	62	0	4109369344	45	4683
2026-01-18 04:53:10.49	226.93	12.74	-38.1	-39.7	14.9	0.00e+00	0	61	0	4116709376	45	4688
2026-01-18 04:53:11.50	226.87	12.65	-38.1	-39.7	14.9	0.00e+00	0	61	0	4124049408	45	4705
2026-01-18 04:53:12.51	226.80	12.56	-38.2	-39.9	14.8	0.00e+00	0	61	0	4131389440	45	4791
