passes_logs/2026/01/18/R2.0S_Moscow/R2.0S_Moscow__20260118_010229_AQUA_rec.log

#Pass ID: 20260118_010229_AQUA
#Satellite: AQUA
#Configuration: AQUA
#almurnet v.1.7.20251203
#Start time: 2026-01-18 01:02:29

#Version: 2.2.20231116
#Station: R2.0S_Moscow
#Location: 37.707566 lon 55.798166 lat
#TLE: 1 27424U 02022A   26017.29152041  .00000842  00000+0  17841-3 0  9992
#TLE: 2 27424  98.4085 343.7574 0002011  75.4099  30.6811 14.61825797261228

#Time	Az	El	Level	Level2	SNR	BER	BlckErr	Temp	State	Recorded	gain1	gain2
2026-01-18 01:02:29.98	17.70	2.01	-42.4	-62.0	3.8	7.45e-01	0	52	0	0	56	34471
2026-01-18 01:02:30.99	17.72	2.08	-42.2	-62.0	3.8	7.47e-01	0	52	104	0	55	36347
2026-01-18 01:02:32.00	17.74	2.15	-42.2	-62.0	3.8	7.46e-01	0	52	104	0	55	36243
2026-01-18 01:02:33.01	17.76	2.21	-42.2	-61.9	3.8	7.46e-01	0	52	104	0	55	36085
2026-01-18 01:02:34.02	17.79	2.28	-42.2	-62.0	3.8	7.45e-01	0	52	104	0	55	36203
2026-01-18 01:02:35.03	17.81	2.35	-42.3	-62.0	3.8	7.45e-01	0	52	104	0	55	36180
2026-01-18 01:02:36.04	17.83	2.41	-42.2	-62.0	3.8	7.47e-01	0	52	104	0	55	36203
2026-01-18 01:02:37.05	17.85	2.48	-42.2	-61.9	3.8	7.43e-01	0	52	104	0	55	36090
2026-01-18 01:02:38.06	17.87	2.55	-42.2	-62.0	3.8	7.45e-01	0	52	104	0	55	36293
2026-01-18 01:02:39.08	17.89	2.62	-42.2	-62.0	3.8	7.46e-01	0	52	104	0	55	36247
2026-01-18 01:02:40.09	17.92	2.69	-42.2	-62.0	3.8	7.47e-01	0	52	104	0	55	36271
2026-01-18 01:02:41.10	17.94	2.75	-42.2	-62.0	3.8	7.46e-01	0	52	104	0	55	36176
2026-01-18 01:02:42.11	17.96	2.82	-42.2	-62.0	3.8	7.45e-01	0	53	104	0	55	36159
2026-01-18 01:02:43.12	17.98	2.89	-42.2	-61.9	3.8	7.46e-01	0	53	104	0	55	35930
2026-01-18 01:02:44.13	18.00	2.96	-42.2	-61.9	3.8	7.44e-01	0	53	104	0	55	36048
2026-01-18 01:02:45.14	18.03	3.03	-42.2	-61.9	3.8	7.46e-01	0	53	104	0	55	36068
2026-01-18 01:02:46.15	18.05	3.10	-42.2	-61.9	3.8	7.48e-01	0	53	104	0	55	35981
2026-01-18 01:02:47.16	18.07	3.16	-42.2	-61.9	3.8	7.46e-01	0	53	104	0	55	35960
2026-01-18 01:02:48.18	18.09	3.23	-42.2	-61.9	3.8	7.44e-01	0	53	104	0	55	36037
2026-01-18 01:02:49.19	18.12	3.30	-42.2	-61.9	3.8	7.46e-01	0	53	104	0	55	36000
2026-01-18 01:02:50.20	18.14	3.37	-42.2	-61.9	3.8	7.45e-01	0	53	104	0	55	35984
2026-01-18 01:02:51.21	18.16	3.44	-42.2	-61.9	3.8	7.44e-01	0	53	104	0	55	35990
2026-01-18 01:02:52.22	18.18	3.51	-42.2	-61.9	3.8	7.48e-01	0	53	104	0	55	35911
2026-01-18 01:02:53.23	18.21	3.58	-42.2	-61.9	3.8	7.48e-01	0	53	104	0	55	36008
2026-01-18 01:02:54.24	18.23	3.65	-42.2	-61.9	3.8	7.45e-01	0	53	104	0	55	36008
2026-01-18 01:02:55.25	18.25	3.72	-42.2	-62.0	3.8	7.44e-01	0	53	104	0	55	36118
2026-01-18 01:02:56.26	18.28	3.80	-42.2	-62.0	3.8	7.47e-01	0	53	104	0	55	36163
2026-01-18 01:02:57.27	18.30	3.87	-42.2	-62.0	3.8	7.45e-01	0	54	104	0	55	36192
2026-01-18 01:02:58.28	18.32	3.94	-42.3	-62.0	3.8	7.44e-01	0	54	104	0	55	36226
2026-01-18 01:02:59.30	18.35	4.01	-42.2	-62.0	3.8	7.45e-01	0	54	104	0	55	36169
2026-01-18 01:03:00.31	18.37	4.08	-42.2	-62.0	3.8	7.43e-01	0	53	104	0	55	36205
2026-01-18 01:03:01.32	18.39	4.15	-42.2	-62.0	3.8	7.46e-01	0	54	104	0	55	36119
2026-01-18 01:03:02.33	18.42	4.23	-42.2	-61.9	3.8	7.42e-01	0	54	104	0	55	36097
2026-01-18 01:03:03.34	18.44	4.30	-42.2	-61.9	3.8	7.45e-01	0	54	104	0	55	36046
2026-01-18 01:03:04.35	18.47	4.37	-42.2	-61.9	3.8	7.44e-01	0	54	104	0	55	36089
2026-01-18 01:03:05.36	18.49	4.44	-42.2	-61.9	3.8	7.42e-01	0	54	104	0	55	36101
2026-01-18 01:03:06.37	18.51	4.52	-42.2	-61.9	3.8	7.46e-01	0	54	104	0	55	36078
2026-01-18 01:03:07.39	18.54	4.59	-42.2	-61.9	3.8	7.44e-01	0	54	104	0	55	35998
2026-01-18 01:03:08.40	18.56	4.66	-42.2	-61.9	3.8	7.44e-01	0	54	104	0	55	35770
2026-01-18 01:03:09.41	18.59	4.74	-42.2	-61.8	3.8	7.43e-01	0	54	104	0	55	35380
2026-01-18 01:03:10.42	18.61	4.81	-42.1	-61.7	3.8	7.46e-01	0	54	104	0	55	35236
2026-01-18 01:03:11.43	18.64	4.89	-42.2	-61.8	3.8	7.48e-01	0	54	104	0	55	35318
2026-01-18 01:03:12.44	18.66	4.96	-42.2	-61.8	3.8	7.45e-01	0	54	104	0	55	35667
2026-01-18 01:03:13.45	18.69	5.03	-42.2	-61.8	3.8	7.45e-01	0	54	104	0	55	35569
2026-01-18 01:03:14.46	18.71	5.11	-42.2	-61.9	3.8	7.47e-01	0	54	104	0	55	35694
2026-01-18 01:03:15.47	18.74	5.18	-42.2	-61.9	3.8	7.46e-01	0	55	104	0	55	35772
2026-01-18 01:03:16.48	18.76	5.26	-42.2	-61.9	3.8	7.46e-01	0	55	104	0	55	35904
2026-01-18 01:03:17.49	18.79	5.33	-42.2	-61.9	3.8	7.48e-01	0	55	104	0	55	35885
2026-01-18 01:03:18.50	18.81	5.41	-42.2	-61.9	3.8	7.44e-01	0	55	104	0	55	35871
2026-01-18 01:03:19.52	18.84	5.49	-42.2	-61.9	3.8	7.44e-01	0	55	104	0	55	35893
2026-01-18 01:03:20.53	18.87	5.56	-42.2	-61.9	3.8	7.47e-01	0	55	104	0	55	36000
2026-01-18 01:03:21.54	18.89	5.64	-42.2	-61.9	3.8	7.46e-01	0	55	104	0	55	35994
2026-01-18 01:03:22.55	18.92	5.72	-42.2	-62.0	3.8	7.45e-01	0	55	104	0	55	36141
2026-01-18 01:03:23.56	18.95	5.79	-42.2	-61.9	3.8	7.42e-01	0	55	104	0	55	36042
2026-01-18 01:03:24.57	18.97	5.87	-42.2	-62.0	3.8	7.45e-01	0	55	104	0	55	36146
2026-01-18 01:03:25.58	19.00	5.95	-42.2	-61.9	3.8	7.46e-01	0	55	104	0	55	36034
2026-01-18 01:03:26.59	19.02	6.02	-42.2	-61.9	3.8	7.44e-01	0	55	104	0	55	36029
2026-01-18 01:03:27.60	19.05	6.10	-42.2	-62.0	3.8	7.46e-01	0	55	104	0	55	36111
2026-01-18 01:03:28.61	19.08	6.18	-42.2	-62.0	3.8	7.48e-01	0	55	104	0	55	36138
2026-01-18 01:03:29.63	19.11	6.26	-42.2	-61.9	3.8	7.45e-01	0	55	104	0	55	36101
2026-01-18 01:03:30.64	19.13	6.34	-42.2	-61.9	3.8	7.44e-01	0	55	104	0	55	36078
2026-01-18 01:03:31.65	19.16	6.42	-42.2	-62.0	3.8	7.46e-01	0	56	104	0	55	36133
2026-01-18 01:03:32.66	19.19	6.50	-42.2	-62.0	3.8	7.46e-01	0	55	104	0	55	36150
2026-01-18 01:03:33.67	19.22	6.58	-42.2	-61.9	3.8	7.47e-01	0	55	104	0	55	36089
2026-01-18 01:03:34.68	19.24	6.66	-42.2	-61.9	3.8	7.44e-01	0	56	104	0	55	35969
2026-01-18 01:03:35.69	19.27	6.74	-42.2	-61.9	3.8	7.41e-01	0	55	104	0	55	35890
2026-01-18 01:03:36.70	19.30	6.82	-42.2	-61.9	3.8	7.44e-01	0	56	104	0	55	35847
2026-01-18 01:03:37.72	19.33	6.90	-42.2	-61.9	3.8	7.47e-01	0	56	104	0	55	35882
2026-01-18 01:03:38.72	19.36	6.98	-42.2	-61.9	3.8	7.44e-01	0	56	104	0	55	35896
2026-01-18 01:03:39.74	19.38	7.06	-42.2	-62.0	3.8	7.45e-01	0	56	104	0	55	36159
2026-01-18 01:03:40.75	19.41	7.14	-42.2	-61.9	3.8	7.47e-01	0	56	104	0	55	36061
2026-01-18 01:03:41.76	19.44	7.22	-42.2	-61.9	3.8	7.43e-01	0	56	104	0	55	35806
2026-01-18 01:03:42.77	19.47	7.31	-42.2	-61.8	3.8	7.44e-01	0	56	104	0	55	35421
2026-01-18 01:03:43.78	19.50	7.39	-42.2	-61.7	3.8	7.46e-01	0	56	104	0	55	35109
2026-01-18 01:03:44.79	19.53	7.47	-42.2	-61.7	3.8	7.43e-01	0	56	104	0	55	34912
2026-01-18 01:03:45.80	19.56	7.55	-42.2	-61.4	3.8	7.45e-01	0	56	104	0	55	33952
2026-01-18 01:03:46.81	19.59	7.64	-42.2	-60.8	3.8	7.43e-01	0	56	104	0	55	31695
2026-01-18 01:03:47.83	19.62	7.72	-42.2	-59.7	4.0	7.42e-01	0	56	104	0	55	27967
2026-01-18 01:03:48.84	19.65	7.80	-42.2	-58.4	4.2	7.30e-01	0	56	104	0	55	23919
2026-01-18 01:03:49.85	19.68	7.89	-42.1	-58.0	3.9	7.38e-01	0	56	104	0	55	22882
2026-01-18 01:03:50.86	19.71	7.97	-42.1	-56.2	5.1	7.05e-01	0	56	0	0	55	18591
2026-01-18 01:03:51.87	19.74	8.06	-42.0	-55.3	5.7	6.93e-01	68	56	0	0	55	16775
2026-01-18 01:03:52.88	19.77	8.14	-42.9	-56.2	5.7	6.95e-01	90	56	0	1572864	56	17569
2026-01-18 01:03:53.89	19.80	8.23	-43.1	-53.0	8.8	6.31e-01	1	56	0	3145728	56	12115
2026-01-18 01:03:54.90	19.83	8.31	-41.9	-61.1	3.7	7.50e-01	0	56	104	4718592	55	32602
2026-01-18 01:03:55.91	19.86	8.40	-42.1	-59.7	3.9	7.45e-01	0	56	104	4718592	55	28004
2026-01-18 01:03:56.92	19.89	8.49	-42.6	-49.8	12.4	6.08e-01	0	56	0	5242880	55	8891
2026-01-18 01:03:57.93	19.92	8.57	-41.4	-46.2	15.7	6.03e-01	0	57	0	7340032	54	6230
2026-01-18 01:03:58.94	19.95	8.66	-41.4	-46.1	15.9	6.05e-01	0	57	0	8912896	54	6193
2026-01-18 01:03:59.94	19.99	8.75	-41.3	-45.9	16.1	6.05e-01	0	57	0	11010048	54	6008
2026-01-18 01:04:00.95	20.02	8.83	-41.4	-46.0	16.1	6.02e-01	0	57	0	12582912	54	6068
2026-01-18 01:04:01.96	20.05	8.92	-41.6	-46.5	15.6	6.04e-01	0	56	0	14680064	54	6483
2026-01-18 01:04:02.97	20.08	9.01	-41.9	-47.0	15.1	6.05e-01	0	57	0	16777216	54	6849
2026-01-18 01:04:03.98	20.11	9.10	-41.9	-46.9	15.3	6.03e-01	0	56	0	18350080	54	6798
2026-01-18 01:04:04.99	20.15	9.19	-41.7	-46.5	15.8	6.04e-01	0	57	0	20447232	54	6424
2026-01-18 01:04:06.00	20.18	9.28	-41.6	-46.2	16.1	6.06e-01	0	57	0	22020096	54	6205
2026-01-18 01:04:07.01	20.21	9.37	-41.7	-46.3	16.0	6.05e-01	0	57	0	24117248	54	6321
2026-01-18 01:04:08.01	20.25	9.46	-41.8	-46.4	15.9	6.02e-01	0	57	0	26214400	54	6379
2026-01-18 01:04:09.03	20.28	9.55	-41.5	-45.8	16.5	6.00e-01	0	57	0	27787264	54	5961
2026-01-18 01:04:10.03	20.31	9.64	-41.7	-46.2	16.2	6.03e-01	0	57	0	29884416	54	6258
2026-01-18 01:04:11.04	20.35	9.73	-41.7	-46.0	16.3	6.04e-01	0	57	0	31981568	54	6128
2026-01-18 01:04:12.05	20.38	9.82	-41.6	-45.7	16.7	6.00e-01	0	57	0	33554432	54	5917
2026-01-18 01:04:13.06	20.41	9.91	-41.9	-46.3	16.2	6.06e-01	0	57	0	35651584	54	6330
2026-01-18 01:04:14.07	20.45	10.00	-41.6	-45.7	16.8	6.06e-01	0	57	0	37224448	54	5922
2026-01-18 01:04:15.08	20.48	10.10	-41.8	-46.0	16.5	6.03e-01	0	57	0	39321600	54	6119
2026-01-18 01:04:16.09	20.52	10.19	-41.7	-45.9	16.7	6.04e-01	0	57	0	41418752	54	6006
2026-01-18 01:04:17.10	20.55	10.28	-41.9	-46.0	16.6	6.05e-01	0	57	0	42991616	54	6123
2026-01-18 01:04:18.11	20.59	10.38	-41.8	-45.9	16.7	6.02e-01	0	57	0	45088768	54	6038
2026-01-18 01:04:19.12	20.62	10.47	-41.9	-46.0	16.7	6.02e-01	0	57	0	46661632	54	6102
2026-01-18 01:04:20.13	20.66	10.57	-41.8	-45.8	16.9	6.05e-01	0	57	0	48758784	54	5957
2026-01-18 01:04:21.14	20.69	10.66	-41.8	-45.9	16.8	6.01e-01	0	57	0	50855936	54	5999
2026-01-18 01:04:22.15	20.73	10.76	-41.9	-45.9	16.9	6.01e-01	0	57	0	52428800	54	6011
2026-01-18 01:04:23.16	20.77	10.85	-42.0	-46.0	16.8	6.03e-01	0	57	0	54525952	54	6098
2026-01-18 01:04:24.17	20.80	10.95	-41.9	-45.9	16.9	6.04e-01	0	57	0	56098816	54	6021
2026-01-18 01:04:25.18	20.84	11.04	-42.0	-46.1	16.8	6.03e-01	0	57	0	58195968	54	6152
2026-01-18 01:04:26.19	20.88	11.14	-41.9	-45.8	17.1	6.02e-01	0	57	0	60293120	54	5957
2026-01-18 01:04:27.19	20.91	11.24	-41.9	-45.7	17.2	6.04e-01	0	57	0	61865984	54	5914
2026-01-18 01:04:28.20	20.95	11.34	-42.0	-45.9	17.0	6.02e-01	0	57	0	63963136	54	6054
2026-01-18 01:04:29.21	20.99	11.43	-41.8	-45.6	17.3	6.03e-01	0	57	0	65536000	54	5809
2026-01-18 01:04:30.22	21.03	11.53	-41.9	-45.7	17.3	6.03e-01	0	57	0	67633152	54	5881
2026-01-18 01:04:31.23	21.06	11.63	-41.8	-45.5	17.4	6.03e-01	0	58	0	69730304	54	5774
2026-01-18 01:04:32.24	21.10	11.73	-41.8	-45.5	17.5	6.04e-01	0	57	0	71303168	54	5732
2026-01-18 01:04:33.25	21.14	11.83	-41.8	-45.4	17.6	6.02e-01	0	58	0	73400320	54	5683
2026-01-18 01:04:34.26	21.18	11.93	-41.7	-45.4	17.7	6.04e-01	0	57	0	74973184	54	5658
2026-01-18 01:04:35.27	21.22	12.03	-41.8	-45.4	17.6	6.01e-01	0	58	0	77070336	54	5674
2026-01-18 01:04:36.28	21.26	12.14	-41.8	-45.5	17.6	6.03e-01	0	57	0	79167488	54	5737
2026-01-18 01:04:37.29	21.30	12.24	-41.8	-45.4	17.6	6.01e-01	0	57	0	80740352	54	5670
2026-01-18 01:04:38.30	21.34	12.34	-41.8	-45.4	17.7	6.04e-01	0	57	0	82837504	54	5672
2026-01-18 01:04:39.31	21.38	12.44	-41.8	-45.4	17.7	6.04e-01	0	58	0	84934656	54	5660
2026-01-18 01:04:40.32	21.42	12.55	-41.8	-45.4	17.7	6.05e-01	0	58	0	86507520	54	5657
2026-01-18 01:04:41.33	21.46	12.65	-41.8	-45.4	17.7	6.02e-01	0	58	0	88604672	54	5665
2026-01-18 01:04:42.34	21.50	12.75	-41.9	-45.5	17.6	6.05e-01	0	58	0	90177536	54	5756
2026-01-18 01:04:43.35	21.54	12.86	-41.9	-45.6	17.5	6.02e-01	0	58	0	92274688	54	5813
2026-01-18 01:04:44.36	21.58	12.96	-41.9	-45.6	17.6	6.04e-01	0	58	0	94371840	54	5794
2026-01-18 01:04:45.37	21.63	13.07	-41.9	-45.5	17.6	6.05e-01	0	58	0	95944704	54	5754
2026-01-18 01:04:46.38	21.67	13.18	-41.9	-45.5	17.6	6.02e-01	0	58	0	98041856	54	5784
2026-01-18 01:04:47.39	21.71	13.28	-41.8	-45.4	17.7	6.05e-01	0	58	0	100139008	54	5675
2026-01-18 01:04:48.40	21.75	13.39	-41.8	-45.3	17.9	6.04e-01	0	58	0	101711872	54	5631
2026-01-18 01:04:49.41	21.80	13.50	-41.8	-45.3	17.8	6.01e-01	0	58	0	103809024	54	5648
2026-01-18 01:04:50.42	21.84	13.61	-41.8	-45.3	17.9	6.04e-01	0	58	0	105381888	54	5644
2026-01-18 01:04:51.42	21.88	13.71	-41.8	-45.3	17.9	6.04e-01	0	58	0	107479040	54	5594
2026-01-18 01:04:52.44	21.93	13.82	-41.7	-45.2	18.0	6.02e-01	0	58	0	109576192	54	5561
2026-01-18 01:04:53.45	21.97	13.93	-41.8	-45.2	18.0	6.03e-01	0	58	0	111149056	54	5570
2026-01-18 01:04:54.46	22.02	14.05	-41.7	-45.1	18.1	6.03e-01	0	58	0	113246208	54	5482
2026-01-18 01:04:55.47	22.06	14.16	-41.7	-45.0	18.2	6.05e-01	0	58	0	114819072	54	5461
2026-01-18 01:04:56.48	22.11	14.27	-41.7	-45.0	18.2	6.04e-01	0	58	0	116916224	54	5463
2026-01-18 01:04:57.49	22.15	14.38	-41.7	-45.0	18.2	6.03e-01	0	58	0	119013376	54	5464
2026-01-18 01:04:58.50	22.20	14.49	-41.7	-45.1	18.1	6.03e-01	0	58	0	120586240	54	5519
2026-01-18 01:04:59.51	22.25	14.61	-41.7	-45.0	18.2	6.03e-01	0	58	0	122683392	54	5462
2026-01-18 01:05:00.52	22.29	14.72	-41.7	-45.1	18.2	6.04e-01	0	58	0	124256256	54	5471
2026-01-18 01:05:01.53	22.34	14.83	-41.7	-45.1	18.2	6.02e-01	0	58	0	126353408	54	5493
2026-01-18 01:05:02.54	22.39	14.95	-41.8	-45.2	18.1	6.02e-01	0	58	0	128450560	54	5577
2026-01-18 01:05:03.55	22.43	15.06	-41.8	-45.2	18.1	6.04e-01	0	58	0	130023424	54	5577
2026-01-18 01:05:04.56	22.48	15.18	-41.8	-45.3	18.0	6.02e-01	0	58	0	132120576	54	5612
2026-01-18 01:05:05.56	22.53	15.30	-41.8	-45.3	18.0	6.04e-01	0	58	0	133693440	54	5625
2026-01-18 01:05:06.57	22.58	15.41	-41.8	-45.2	18.1	6.06e-01	0	58	0	135790592	54	5592
2026-01-18 01:05:07.58	22.63	15.53	-41.8	-45.2	18.2	6.04e-01	0	58	0	137887744	54	5572
2026-01-18 01:05:08.59	22.68	15.65	-41.8	-45.1	18.2	6.04e-01	0	58	0	139460608	54	5514
2026-01-18 01:05:09.60	22.73	15.77	-41.8	-45.2	18.2	6.03e-01	0	58	0	141557760	54	5531
2026-01-18 01:05:10.61	22.78	15.89	-41.7	-45.1	18.3	6.01e-01	0	58	0	143130624	54	5482
2026-01-18 01:05:11.62	22.83	16.01	-41.7	-45.0	18.3	6.03e-01	0	58	0	145227776	54	5463
2026-01-18 01:05:12.63	22.88	16.13	-41.7	-45.0	18.4	6.03e-01	0	58	0	147324928	54	5441
2026-01-18 01:05:13.64	22.93	16.25	-41.6	-44.9	18.5	6.02e-01	0	58	0	148897792	54	5366
2026-01-18 01:05:14.65	22.98	16.38	-41.7	-45.0	18.5	6.04e-01	0	58	0	150994944	54	5413
2026-01-18 01:05:15.66	23.04	16.50	-41.6	-44.8	18.6	6.03e-01	0	58	0	153092096	54	5336
2026-01-18 01:05:16.67	23.09	16.62	-41.7	-44.9	18.5	6.04e-01	0	58	0	154664960	54	5383
2026-01-18 01:05:17.68	23.14	16.75	-41.7	-45.0	18.4	6.02e-01	0	58	0	156762112	54	5429
2026-01-18 01:05:18.69	23.20	16.87	-41.7	-44.9	18.5	6.04e-01	0	58	0	158334976	54	5395
2026-01-18 01:05:19.71	23.25	17.00	-41.7	-45.0	18.5	6.02e-01	0	58	0	160432128	54	5406
2026-01-18 01:05:20.71	23.30	17.13	-41.7	-45.0	18.5	6.04e-01	0	58	0	162529280	54	5425
2026-01-18 01:05:21.73	23.36	17.25	-41.7	-44.9	18.5	6.02e-01	0	58	0	164102144	54	5402
2026-01-18 01:05:22.73	23.41	17.38	-41.8	-45.0	18.5	6.04e-01	0	59	0	166199296	54	5456
2026-01-18 01:05:23.75	23.47	17.51	-41.8	-45.0	18.5	6.03e-01	0	58	0	168296448	54	5457
2026-01-18 01:05:24.75	23.53	17.64	-41.8	-45.1	18.4	6.04e-01	0	59	0	169869312	54	5483
2026-01-18 01:05:25.77	23.58	17.77	-41.8	-45.1	18.5	6.04e-01	0	59	0	171966464	54	5476
2026-01-18 01:05:26.78	23.64	17.90	-41.8	-45.0	18.6	6.03e-01	0	58	0	173539328	54	5416
2026-01-18 01:05:27.79	23.70	18.03	-41.8	-45.0	18.5	6.04e-01	0	59	0	175636480	54	5419
2026-01-18 01:05:28.80	23.76	18.17	-41.7	-44.9	18.6	6.04e-01	0	59	0	177733632	54	5401
2026-01-18 01:05:29.81	23.82	18.30	-41.7	-44.9	18.6	6.04e-01	0	59	0	179306496	54	5371
2026-01-18 01:05:30.82	23.88	18.43	-41.7	-44.9	18.7	6.03e-01	0	59	0	181403648	54	5352
2026-01-18 01:05:31.82	23.94	18.57	-41.7	-44.8	18.7	6.04e-01	0	59	0	182976512	54	5333
2026-01-18 01:05:32.83	24.00	18.70	-41.7	-44.8	18.8	6.05e-01	0	59	0	185073664	54	5303
2026-01-18 01:05:33.84	24.06	18.84	-41.7	-44.9	18.7	6.03e-01	0	58	0	187170816	54	5348
2026-01-18 01:05:34.85	24.12	18.98	-41.6	-44.7	18.9	6.04e-01	0	59	0	188743680	54	5244
2026-01-18 01:05:35.86	24.18	19.11	-41.6	-44.7	18.9	6.03e-01	0	59	0	190840832	54	5249
2026-01-18 01:05:36.87	24.24	19.25	-41.7	-44.8	18.8	6.01e-01	0	59	0	192413696	54	5312
2026-01-18 01:05:37.88	24.31	19.39	-41.7	-44.9	18.7	6.04e-01	0	59	0	194510848	54	5351
2026-01-18 01:05:38.89	24.37	19.53	-41.8	-45.0	18.6	6.03e-01	0	59	0	196608000	54	5424
2026-01-18 01:05:39.90	24.43	19.67	-41.8	-45.0	18.7	6.01e-01	0	59	0	198180864	54	5410
2026-01-18 01:05:40.91	24.50	19.82	-41.8	-44.9	18.7	6.02e-01	0	58	0	200278016	54	5402
2026-01-18 01:05:41.92	24.56	19.96	-41.8	-44.9	18.7	6.04e-01	0	58	0	201850880	54	5394
2026-01-18 01:05:42.93	24.63	20.10	-41.8	-44.9	18.8	6.04e-01	0	59	0	203948032	54	5353
2026-01-18 01:05:43.94	24.70	20.25	-41.7	-44.8	18.8	6.01e-01	0	59	0	206045184	54	5320
2026-01-18 01:05:44.95	24.76	20.39	-41.7	-44.7	18.9	6.03e-01	0	59	0	207618048	54	5264
2026-01-18 01:05:45.96	24.83	20.54	-41.7	-44.7	18.9	6.03e-01	0	59	0	209715200	54	5259
2026-01-18 01:05:46.97	24.90	20.69	-41.6	-44.7	18.9	6.03e-01	0	59	0	211288064	54	5237
2026-01-18 01:05:47.98	24.97	20.84	-41.6	-44.7	19.0	6.03e-01	0	59	0	213385216	54	5237
2026-01-18 01:05:48.99	25.04	20.99	-41.7	-44.8	18.9	6.01e-01	0	59	0	215482368	54	5308
2026-01-18 01:05:50.00	25.11	21.14	-41.7	-44.8	18.9	6.04e-01	0	59	0	217055232	54	5306
2026-01-18 01:05:51.01	25.18	21.29	-41.8	-44.9	18.8	6.04e-01	0	59	0	219152384	54	5375
2026-01-18 01:05:52.02	25.25	21.44	-41.8	-45.0	18.7	6.03e-01	0	59	0	221249536	54	5417
2026-01-18 01:05:53.03	25.33	21.59	-41.9	-45.0	18.7	6.03e-01	0	59	0	222822400	54	5458
2026-01-18 01:05:54.03	25.40	21.75	-41.9	-45.0	18.7	6.02e-01	0	59	0	224919552	54	5421
2026-01-18 01:05:55.04	25.47	21.90	-41.9	-45.0	18.7	6.02e-01	0	59	0	226492416	54	5449
2026-01-18 01:05:56.05	25.55	22.06	-41.9	-45.0	18.7	6.01e-01	0	59	0	228589568	54	5452
2026-01-18 01:05:57.06	25.62	22.21	-41.9	-45.0	18.7	6.02e-01	0	59	0	230686720	54	5444
2026-01-18 01:05:58.07	25.70	22.37	-42.0	-45.1	18.5	6.04e-01	0	59	0	232259584	54	5524
2026-01-18 01:05:59.08	25.78	22.53	-41.9	-45.0	18.7	6.02e-01	0	59	0	234356736	54	5461
2026-01-18 01:06:00.09	25.86	22.69	-41.9	-45.0	18.6	6.03e-01	0	59	0	236453888	54	5461
2026-01-18 01:06:01.10	25.94	22.85	-41.9	-45.1	18.7	6.06e-01	0	59	0	238026752	54	5469
2026-01-18 01:06:02.11	26.01	23.02	-41.9	-45.1	18.6	6.05e-01	0	59	0	240123904	54	5476
2026-01-18 01:06:03.12	26.10	23.18	-42.0	-45.1	18.6	6.04e-01	0	59	0	241696768	54	5502
2026-01-18 01:06:04.13	26.18	23.34	-41.9	-45.0	18.7	6.05e-01	0	59	0	243793920	54	5436
2026-01-18 01:06:05.14	26.26	23.51	-41.9	-45.1	18.7	6.03e-01	0	59	0	245891072	54	5480
2026-01-18 01:06:06.15	26.34	23.68	-41.9	-45.1	18.6	6.04e-01	0	59	0	247463936	54	5491
2026-01-18 01:06:07.16	26.43	23.84	-41.9	-45.1	18.7	6.05e-01	0	59	0	249561088	54	5478
2026-01-18 01:06:08.17	26.51	24.01	-42.0	-45.2	18.6	6.03e-01	0	59	0	251133952	54	5539
2026-01-18 01:06:09.18	26.60	24.18	-42.0	-45.1	18.6	6.04e-01	0	59	0	253231104	54	5515
2026-01-18 01:06:10.19	26.68	24.35	-41.9	-45.0	18.7	6.04e-01	0	59	0	255328256	54	5440
2026-01-18 01:06:11.20	26.77	24.53	-41.9	-45.1	18.7	6.03e-01	0	59	0	256901120	54	5467
2026-01-18 01:06:12.21	26.86	24.70	-41.9	-45.0	18.8	6.03e-01	0	59	0	258998272	54	5439
2026-01-18 01:06:13.22	26.95	24.88	-41.9	-45.0	18.7	6.03e-01	0	59	0	260571136	54	5442
2026-01-18 01:06:14.23	27.04	25.05	-42.0	-45.1	18.7	6.01e-01	0	59	0	262668288	54	5495
2026-01-18 01:06:15.23	27.13	25.23	-42.0	-45.2	18.6	6.04e-01	0	59	0	264765440	54	5549
2026-01-18 01:06:16.24	27.22	25.41	-42.1	-45.2	18.5	6.03e-01	0	59	0	266338304	54	5589
2026-01-18 01:06:17.25	27.32	25.59	-42.1	-45.4	18.4	6.05e-01	0	59	0	268435456	54	5672
2026-01-18 01:06:18.27	27.41	25.77	-42.1	-45.4	18.4	6.05e-01	0	59	0	270008320	54	5676
2026-01-18 01:06:19.27	27.51	25.95	-42.0	-45.2	18.6	6.05e-01	0	59	0	272105472	54	5557
2026-01-18 01:06:20.28	27.60	26.13	-41.9	-45.0	18.8	6.04e-01	0	59	0	274202624	54	5455
2026-01-18 01:06:21.29	27.70	26.32	-41.9	-45.0	18.9	6.03e-01	0	59	0	275775488	54	5403
2026-01-18 01:06:22.30	27.80	26.50	-41.8	-44.8	19.0	6.05e-01	0	59	0	277872640	54	5333
2026-01-18 01:06:23.31	27.90	26.69	-41.9	-44.9	18.9	6.03e-01	0	59	0	279445504	54	5371
2026-01-18 01:06:24.32	28.00	26.88	-41.9	-45.0	18.8	6.01e-01	0	59	0	281542656	54	5440
2026-01-18 01:06:25.33	28.11	27.07	-42.0	-45.1	18.7	6.03e-01	0	59	0	283639808	54	5514
2026-01-18 01:06:26.34	28.21	27.26	-42.0	-45.1	18.7	6.02e-01	0	59	0	285212672	54	5520
2026-01-18 01:06:27.35	28.31	27.45	-41.9	-44.9	18.9	6.04e-01	0	59	0	287309824	54	5367
2026-01-18 01:06:28.36	28.42	27.65	-41.8	-44.7	19.1	6.05e-01	0	59	0	289406976	54	5279
2026-01-18 01:06:29.37	28.53	27.84	-41.7	-44.6	19.3	6.02e-01	0	59	0	290979840	54	5184
2026-01-18 01:06:30.37	28.64	28.04	-41.6	-44.5	19.3	6.00e-01	0	59	0	293076992	54	5147
2026-01-18 01:06:31.38	28.75	28.24	-41.6	-44.5	19.4	6.02e-01	0	59	0	294649856	54	5137
2026-01-18 01:06:32.39	28.86	28.44	-41.7	-44.6	19.2	6.04e-01	0	59	0	296747008	54	5215
2026-01-18 01:06:33.40	28.97	28.64	-41.8	-44.7	19.1	6.01e-01	0	59	0	298844160	54	5277
2026-01-18 01:06:34.41	29.09	28.84	-41.8	-44.8	19.1	6.03e-01	0	59	0	300417024	54	5298
2026-01-18 01:06:35.42	29.20	29.05	-41.8	-44.7	19.1	6.01e-01	0	59	0	302514176	54	5278
2026-01-18 01:06:36.43	29.32	29.25	-41.8	-44.8	19.1	6.03e-01	0	59	0	304611328	54	5288
2026-01-18 01:06:37.44	29.44	29.46	-41.8	-44.7	19.2	6.04e-01	0	60	0	306184192	54	5244
2026-01-18 01:06:38.45	29.56	29.67	-41.7	-44.5	19.4	6.05e-01	0	60	0	308281344	54	5151
2026-01-18 01:06:39.46	29.68	29.88	-41.6	-44.4	19.5	6.03e-01	0	59	0	309854208	54	5072
2026-01-18 01:06:40.47	29.81	30.09	-41.5	-44.3	19.5	6.03e-01	0	59	0	311951360	54	5040
2026-01-18 01:06:41.48	29.93	30.30	-41.6	-44.5	19.4	6.03e-01	0	59	0	314048512	54	5116
2026-01-18 01:06:42.48	30.06	30.52	-41.7	-44.6	19.3	6.05e-01	0	60	0	315621376	54	5218
2026-01-18 01:06:43.50	30.19	30.73	-41.7	-44.6	19.3	6.04e-01	0	59	0	317718528	54	5204
2026-01-18 01:06:44.51	30.32	30.95	-41.7	-44.6	19.3	6.05e-01	0	59	0	319291392	54	5168
2026-01-18 01:06:45.52	30.45	31.17	-41.6	-44.5	19.5	6.03e-01	0	59	0	321388544	54	5109
2026-01-18 01:06:46.53	30.59	31.39	-41.7	-44.5	19.4	6.03e-01	0	59	0	323485696	54	5149
2026-01-18 01:06:47.53	30.72	31.62	-41.8	-44.7	19.2	6.02e-01	0	59	0	325058560	54	5278
2026-01-18 01:06:48.54	30.86	31.84	-42.0	-45.0	18.9	6.01e-01	0	60	0	327155712	54	5448
2026-01-18 01:06:49.55	31.00	32.07	-41.9	-45.0	19.0	6.05e-01	0	59	0	328728576	54	5418
2026-01-18 01:06:50.56	31.14	32.29	-41.9	-44.8	19.1	6.04e-01	0	59	0	330825728	54	5336
2026-01-18 01:06:51.57	31.28	32.52	-41.9	-44.8	19.1	6.02e-01	0	59	0	332922880	54	5315
2026-01-18 01:06:52.58	31.43	32.76	-41.9	-44.9	19.0	6.03e-01	0	59	0	334495744	54	5397
2026-01-18 01:06:53.59	31.58	32.99	-42.0	-45.1	18.9	6.04e-01	0	59	0	336592896	54	5503
2026-01-18 01:06:54.60	31.73	33.22	-42.1	-45.1	18.9	6.02e-01	0	59	0	338165760	54	5510
2026-01-18 01:06:55.61	31.88	33.46	-42.1	-45.1	18.9	6.05e-01	0	60	0	340262912	54	5515
2026-01-18 01:06:56.62	32.04	33.70	-42.2	-45.4	18.6	6.05e-01	0	60	0	342360064	54	5672
2026-01-18 01:06:57.63	32.19	33.94	-42.2	-45.4	18.5	6.03e-01	0	59	0	343932928	55	5390
2026-01-18 01:06:58.64	32.35	34.18	-42.3	-45.5	18.5	6.04e-01	0	60	0	346030080	55	5432
2026-01-18 01:06:59.65	32.51	34.43	-42.3	-45.5	18.5	6.05e-01	0	59	0	347602944	55	5427
2026-01-18 01:07:00.65	32.68	34.67	-42.4	-45.6	18.4	6.02e-01	0	60	0	349700096	55	5483
2026-01-18 01:07:01.66	32.84	34.92	-42.4	-45.7	18.3	6.02e-01	0	60	0	351797248	55	5555
2026-01-18 01:07:02.67	33.01	35.17	-42.6	-46.0	18.0	6.00e-01	0	59	0	353370112	55	5744
2026-01-18 01:07:03.68	33.18	35.42	-42.8	-46.4	17.7	6.02e-01	0	60	0	355467264	56	5664
2026-01-18 01:07:04.69	33.36	35.67	-42.8	-46.4	17.7	6.06e-01	0	60	0	357564416	56	5661
2026-01-18 01:07:05.70	33.54	35.93	-42.7	-46.2	17.9	6.04e-01	0	60	0	359137280	56	5534
2026-01-18 01:07:06.71	33.72	36.18	-42.7	-46.2	18.0	6.05e-01	0	60	0	361234432	56	5529
2026-01-18 01:07:07.72	33.90	36.44	-43.0	-46.6	17.5	6.02e-01	0	59	0	362807296	56	5805
2026-01-18 01:07:08.73	34.09	36.70	-43.2	-47.0	17.1	6.04e-01	0	59	0	364904448	56	6104
2026-01-18 01:07:09.74	34.27	36.96	-43.1	-46.9	17.2	6.01e-01	0	60	0	367001600	57	5697
2026-01-18 01:07:10.75	34.47	37.23	-43.0	-46.6	17.5	6.02e-01	0	60	0	368574464	57	5521
2026-01-18 01:07:11.76	34.66	37.50	-43.1	-46.8	17.3	6.03e-01	0	60	0	370671616	57	5644
2026-01-18 01:07:12.77	34.86	37.76	-43.3	-47.1	17.0	6.02e-01	0	60	0	372244480	57	5823
2026-01-18 01:07:13.78	35.06	38.03	-43.3	-47.2	16.9	6.02e-01	0	60	0	374341632	57	5918
2026-01-18 01:07:14.79	35.27	38.31	-43.3	-47.3	16.9	6.04e-01	0	60	0	376438784	57	5934
2026-01-18 01:07:15.80	35.48	38.58	-43.3	-47.1	17.0	6.02e-01	0	60	0	378011648	57	5822
2026-01-18 01:07:16.81	35.69	38.86	-43.3	-47.2	16.9	6.04e-01	0	60	0	380108800	57	5890
2026-01-18 01:07:17.81	35.90	39.13	-43.3	-47.2	16.9	6.04e-01	0	59	0	381681664	57	5912
2026-01-18 01:07:18.82	36.12	39.41	-43.3	-47.1	17.0	6.04e-01	0	60	0	383778816	57	5815
2026-01-18 01:07:19.83	36.34	39.69	-43.1	-46.9	17.3	6.01e-01	0	59	0	385875968	57	5659
2026-01-18 01:07:20.84	36.57	39.98	-43.1	-46.8	17.3	6.03e-01	0	60	0	387448832	57	5656
2026-01-18 01:07:21.85	36.80	40.26	-43.1	-46.8	17.4	6.04e-01	0	60	0	389545984	57	5604
2026-01-18 01:07:22.86	37.04	40.55	-43.0	-46.6	17.6	6.03e-01	0	60	0	391118848	57	5467
2026-01-18 01:07:23.87	37.28	40.84	-42.9	-46.4	17.8	6.03e-01	0	60	0	393216000	57	5360
2026-01-18 01:07:24.88	37.52	41.13	-42.9	-46.3	17.8	6.03e-01	0	60	0	395313152	57	5331
2026-01-18 01:07:25.89	37.77	41.43	-42.7	-46.1	18.1	6.03e-01	0	60	0	396886016	57	5160
2026-01-18 01:07:26.90	38.02	41.72	-42.6	-45.9	18.3	6.04e-01	0	60	0	398983168	57	5046
2026-01-18 01:07:27.91	38.28	42.02	-42.5	-45.7	18.5	6.02e-01	0	60	0	401080320	57	4952
2026-01-18 01:07:28.92	38.54	42.32	-42.4	-45.6	18.6	6.03e-01	0	60	0	402653184	56	5202
2026-01-18 01:07:29.93	38.81	42.62	-42.2	-45.2	18.9	6.05e-01	0	60	0	404750336	56	4969
2026-01-18 01:07:30.94	39.08	42.92	-42.3	-45.3	18.9	6.03e-01	0	60	0	406323200	56	5009
2026-01-18 01:07:31.95	39.36	43.23	-42.3	-45.4	18.8	6.01e-01	0	60	0	408420352	56	5080
2026-01-18 01:07:32.96	39.64	43.54	-42.1	-45.1	19.1	6.04e-01	0	59	0	410517504	56	4921
2026-01-18 01:07:33.97	39.93	43.84	-42.1	-45.1	18.8	6.05e-01	0	60	0	412090368	56	4885
2026-01-18 01:07:34.98	40.23	44.15	-42.0	-44.9	19.3	6.04e-01	0	60	0	414187520	56	4804
2026-01-18 01:07:35.99	40.53	44.47	-42.1	-45.0	19.2	6.02e-01	0	60	0	415760384	56	4831
2026-01-18 01:07:37.00	40.83	44.78	-42.2	-45.2	19.1	6.04e-01	0	60	0	417857536	56	4943
2026-01-18 01:07:38.01	41.15	45.10	-42.0	-44.9	19.2	6.02e-01	0	60	0	419954688	56	4811
2026-01-18 01:07:39.02	41.46	45.42	-41.8	-44.7	19.4	6.04e-01	0	60	0	421527552	55	4949
2026-01-18 01:07:40.03	41.79	45.73	-41.9	-44.7	19.4	6.05e-01	0	60	0	423624704	55	4966
2026-01-18 01:07:41.04	42.12	46.06	-41.9	-44.8	19.3	6.06e-01	0	60	0	425721856	55	5021
2026-01-18 01:07:42.05	42.46	46.38	-41.8	-44.7	19.4	6.04e-01	0	60	0	427294720	55	4955
2026-01-18 01:07:43.05	42.80	46.70	-41.9	-44.7	19.4	6.05e-01	0	60	0	429391872	55	4974
2026-01-18 01:07:44.06	43.16	47.03	-42.0	-44.9	19.2	6.03e-01	0	60	0	430964736	55	5080
2026-01-18 01:07:45.07	43.52	47.35	-41.9	-44.8	19.4	6.02e-01	0	60	0	433061888	55	4986
2026-01-18 01:07:46.08	43.88	47.68	-41.8	-44.6	19.5	6.04e-01	0	60	0	435159040	55	4918
2026-01-18 01:07:47.09	44.26	48.01	-42.0	-44.9	19.3	6.02e-01	0	60	0	436731904	55	5047
2026-01-18 01:07:48.10	44.64	48.34	-41.8	-44.6	19.6	6.02e-01	0	60	0	438829056	55	4877
2026-01-18 01:07:49.11	45.04	48.68	-41.8	-44.6	19.5	6.05e-01	0	60	0	440401920	55	4923
2026-01-18 01:07:50.12	45.44	49.01	-41.8	-44.6	19.6	6.01e-01	0	60	0	442499072	55	4898
2026-01-18 01:07:51.13	45.85	49.35	-41.7	-44.5	19.7	6.04e-01	0	60	0	444596224	55	4855
2026-01-18 01:07:52.14	46.27	49.68	-41.9	-44.7	19.5	6.06e-01	0	60	0	446169088	55	4956
2026-01-18 01:07:53.15	46.70	50.02	-41.8	-44.6	19.5	6.03e-01	0	60	0	448266240	55	4906
2026-01-18 01:07:54.16	47.13	50.36	-41.7	-44.4	19.8	6.05e-01	0	60	0	449839104	55	4787
2026-01-18 01:07:55.17	47.58	50.70	-41.8	-44.6	19.5	6.03e-01	0	60	0	451936256	55	4919
2026-01-18 01:07:56.18	48.04	51.04	-41.7	-44.5	19.7	6.03e-01	0	60	0	454033408	55	4846
2026-01-18 01:07:57.19	48.51	51.38	-41.8	-44.7	19.5	6.03e-01	0	60	0	455606272	55	4942
2026-01-18 01:07:58.20	48.99	51.72	-41.6	-44.4	19.8	6.03e-01	0	60	0	457703424	55	4766
2026-01-18 01:07:59.21	49.48	52.06	-41.8	-44.6	19.6	6.02e-01	0	60	0	459276288	55	4909
2026-01-18 01:08:00.22	49.98	52.40	-41.7	-44.4	19.7	6.05e-01	0	60	0	461373440	55	4814
2026-01-18 01:08:01.23	50.50	52.75	-41.8	-44.6	19.6	6.04e-01	0	60	0	463470592	55	4913
2026-01-18 01:08:02.24	51.02	53.09	-41.5	-44.1	20.0	6.04e-01	0	60	0	465043456	55	4642
2026-01-18 01:08:03.25	51.56	53.43	-41.8	-44.6	19.6	6.02e-01	0	60	0	467140608	55	4914
2026-01-18 01:08:04.26	52.11	53.77	-41.7	-44.5	19.7	6.03e-01	0	60	0	469237760	55	4830
2026-01-18 01:08:05.27	52.68	54.12	-41.7	-44.4	19.8	6.03e-01	0	60	0	470810624	55	4787
2026-01-18 01:08:06.28	53.26	54.46	-41.9	-44.8	19.4	6.04e-01	0	60	0	472907776	55	5007
2026-01-18 01:08:07.28	53.84	54.79	-42.0	-44.9	19.3	6.02e-01	0	60	0	474480640	55	5062
2026-01-18 01:08:08.29	54.45	55.14	-41.8	-44.6	19.6	6.03e-01	0	60	0	476577792	55	4896
2026-01-18 01:08:09.30	55.07	55.47	-41.9	-44.7	19.5	6.03e-01	0	60	0	478674944	55	4974
2026-01-18 01:08:10.31	55.71	55.81	-42.2	-45.1	19.1	6.03e-01	0	60	0	480247808	55	5216
2026-01-18 01:08:11.32	56.36	56.15	-42.3	-45.3	18.9	6.03e-01	0	60	0	482344960	55	5289
2026-01-18 01:08:12.33	57.03	56.49	-42.3	-45.3	18.9	6.02e-01	0	60	0	483917824	55	5320
2026-01-18 01:08:13.34	57.71	56.82	-42.6	-45.9	18.3	6.04e-01	0	60	0	486014976	55	5704
2026-01-18 01:08:14.35	58.41	57.15	-42.9	-46.3	18.0	6.04e-01	0	60	0	488112128	56	5637
2026-01-18 01:08:15.36	59.13	57.48	-42.9	-46.3	18.1	6.03e-01	0	60	0	489684992	56	5597
2026-01-18 01:08:16.37	59.87	57.81	-43.1	-46.7	17.6	6.05e-01	0	60	0	491782144	56	5888
2026-01-18 01:08:17.38	60.62	58.13	-43.2	-46.9	17.4	6.02e-01	0	60	0	493879296	57	5693
2026-01-18 01:08:18.39	61.40	58.46	-43.3	-47.1	17.3	6.02e-01	0	60	0	495452160	57	5794
2026-01-18 01:08:19.40	62.19	58.78	-43.3	-47.0	17.3	6.03e-01	0	60	0	497549312	57	5769
2026-01-18 01:08:20.41	63.00	59.09	-43.5	-47.4	16.9	6.02e-01	0	60	0	499122176	57	6059
2026-01-18 01:08:21.42	63.83	59.40	-43.4	-47.2	17.1	6.07e-01	0	60	0	501219328	57	5897
2026-01-18 01:08:22.43	64.68	59.71	-43.5	-47.4	16.9	6.04e-01	0	60	0	503316480	57	6060
2026-01-18 01:08:23.44	65.55	60.02	-43.3	-47.1	17.2	6.04e-01	0	60	0	504889344	57	5796
2026-01-18 01:08:24.44	66.44	60.31	-43.5	-47.4	16.9	6.05e-01	0	60	0	506986496	57	6028
2026-01-18 01:08:25.46	67.36	60.61	-43.6	-47.5	16.8	6.02e-01	0	60	0	508559360	57	6111
2026-01-18 01:08:26.46	68.28	60.90	-43.6	-47.6	16.7	6.02e-01	0	60	0	510656512	57	6188
2026-01-18 01:08:27.47	69.24	61.18	-43.7	-47.8	16.5	6.03e-01	0	60	0	512753664	58	5934
2026-01-18 01:08:28.48	70.22	61.46	-44.0	-48.3	16.1	6.04e-01	0	60	0	514326528	58	6296
2026-01-18 01:08:29.49	71.22	61.73	-44.1	-48.5	15.8	6.05e-01	0	60	0	516423680	58	6491
2026-01-18 01:08:30.50	72.24	62.00	-43.8	-48.1	16.2	6.04e-01	0	60	0	517996544	58	6136
2026-01-18 01:08:31.51	73.28	62.26	-44.1	-48.6	15.7	6.01e-01	0	60	0	520093696	58	6553
2026-01-18 01:08:32.52	74.35	62.51	-44.3	-49.0	15.3	6.03e-01	0	60	0	522190848	59	6445
2026-01-18 01:08:33.53	75.44	62.76	-44.1	-48.5	15.8	6.04e-01	0	60	0	523763712	59	6115
2026-01-18 01:08:34.54	76.55	62.99	-44.3	-49.0	15.3	6.04e-01	0	60	0	525860864	59	6448
2026-01-18 01:08:35.55	77.68	63.22	-44.2	-48.9	15.4	6.02e-01	0	60	0	527433728	59	6360
2026-01-18 01:08:36.56	78.84	63.44	-44.3	-49.1	15.2	6.05e-01	0	60	0	529530880	59	6502
2026-01-18 01:08:37.57	80.01	63.65	-44.0	-48.5	15.8	6.03e-01	0	60	0	531628032	59	6074
2026-01-18 01:08:38.58	81.21	63.86	-44.4	-49.4	14.9	6.04e-01	0	60	0	533200896	59	6736
2026-01-18 01:08:39.59	82.43	64.05	-44.2	-48.8	15.5	6.03e-01	0	60	0	535298048	59	6284
2026-01-18 01:08:40.59	83.65	64.23	-44.2	-48.8	15.5	6.05e-01	0	60	0	537395200	59	6293
2026-01-18 01:08:41.61	84.92	64.40	-44.5	-49.7	14.6	6.03e-01	0	60	0	538968064	59	6965
2026-01-18 01:08:42.62	86.19	64.56	-44.3	-49.1	15.2	6.05e-01	0	60	0	541065216	59	6518
2026-01-18 01:08:43.63	87.49	64.71	-44.3	-49.1	15.2	6.02e-01	0	61	0	542638080	59	6536
2026-01-18 01:08:44.64	88.80	64.85	-44.6	-49.9	14.4	6.05e-01	0	60	0	544735232	59	7150
2026-01-18 01:08:45.65	90.12	64.98	-44.4	-49.4	14.8	6.04e-01	0	60	0	546832384	59	6744
2026-01-18 01:08:46.66	91.46	65.10	-44.4	-49.3	14.9	6.02e-01	0	60	0	548405248	59	6656
2026-01-18 01:08:47.66	92.80	65.20	-44.6	-50.0	14.1	6.06e-01	0	60	0	550502400	59	7247
2026-01-18 01:08:48.67	94.16	65.29	-44.5	-49.7	14.5	6.06e-01	0	60	0	552075264	59	7031
2026-01-18 01:08:49.68	95.54	65.37	-44.2	-48.8	15.4	6.05e-01	0	60	0	554172416	59	6334
2026-01-18 01:08:50.69	96.92	65.43	-44.3	-49.3	15.0	6.06e-01	0	60	0	556269568	59	6657
2026-01-18 01:08:51.70	98.31	65.49	-44.3	-49.1	15.1	6.03e-01	0	60	0	557842432	59	6554
2026-01-18 01:08:52.71	99.71	65.53	-44.1	-48.7	15.5	6.03e-01	0	60	0	559939584	59	6272
2026-01-18 01:08:53.72	101.11	65.56	-44.3	-49.1	15.1	6.03e-01	0	60	0	562036736	59	6522
2026-01-18 01:08:54.73	102.51	65.57	-44.2	-48.8	15.4	6.03e-01	0	60	0	563609600	59	6336
2026-01-18 01:08:55.74	103.92	65.57	-44.3	-49.2	15.0	6.04e-01	0	60	0	565706752	59	6604
2026-01-18 01:08:56.75	105.32	65.56	-44.2	-49.0	15.3	6.05e-01	0	60	0	567279616	59	6468
2026-01-18 01:08:57.76	106.73	65.53	-44.3	-49.1	15.1	6.02e-01	0	60	0	569376768	59	6495
2026-01-18 01:08:58.77	108.12	65.49	-44.1	-48.7	15.5	6.05e-01	0	60	0	571473920	59	6222
2026-01-18 01:08:59.78	109.52	65.44	-44.4	-49.4	14.9	6.05e-01	0	60	0	573046784	59	6734
2026-01-18 01:09:00.79	110.90	65.38	-44.2	-48.9	15.3	6.03e-01	0	60	0	575143936	59	6352
2026-01-18 01:09:01.80	112.28	65.30	-44.2	-48.8	15.4	6.06e-01	0	60	0	576716800	59	6343
2026-01-18 01:09:02.81	113.64	65.21	-44.4	-49.4	14.8	6.02e-01	0	60	0	578813952	59	6725
2026-01-18 01:09:03.82	115.00	65.11	-44.0	-48.5	15.8	6.04e-01	0	60	0	580386816	59	6085
2026-01-18 01:09:04.83	116.34	65.00	-44.0	-48.4	15.7	6.02e-01	0	60	0	582483968	59	6059
2026-01-18 01:09:05.84	117.67	64.87	-43.8	-48.0	16.2	6.05e-01	0	60	0	584581120	59	5782
2026-01-18 01:09:06.85	118.98	64.74	-44.0	-48.5	15.7	6.02e-01	0	60	0	586153984	59	6118
2026-01-18 01:09:07.86	120.28	64.59	-43.8	-48.0	16.2	6.02e-01	0	60	0	588251136	59	5735
2026-01-18 01:09:08.87	121.56	64.43	-43.6	-47.7	16.6	6.04e-01	0	60	0	590348288	58	5860
2026-01-18 01:09:09.87	122.80	64.26	-44.1	-48.8	15.4	6.03e-01	0	60	0	591921152	58	6704
2026-01-18 01:09:10.88	124.05	64.08	-43.6	-47.6	16.6	6.04e-01	0	60	0	594018304	58	5830
2026-01-18 01:09:11.89	125.27	63.89	-43.8	-48.0	16.2	6.03e-01	0	60	0	595591168	58	6117
2026-01-18 01:09:12.90	126.47	63.69	-43.8	-48.1	16.1	6.05e-01	0	60	0	597688320	58	6155
2026-01-18 01:09:13.91	127.65	63.48	-43.9	-48.2	16.0	6.03e-01	0	60	0	599785472	58	6241
2026-01-18 01:09:14.92	128.81	63.26	-43.7	-47.8	16.4	6.03e-01	0	60	0	601358336	58	5944
2026-01-18 01:09:15.93	129.95	63.03	-43.6	-47.5	16.7	6.03e-01	0	60	0	603455488	58	5779
2026-01-18 01:09:16.94	131.06	62.79	-43.8	-48.0	16.2	6.05e-01	0	60	0	605552640	58	6127
2026-01-18 01:09:17.95	132.16	62.55	-43.3	-47.0	17.2	6.03e-01	0	60	0	607125504	58	5464
2026-01-18 01:09:18.96	133.23	62.30	-43.4	-47.3	17.0	6.06e-01	0	60	0	609222656	58	5600
2026-01-18 01:09:19.97	134.28	62.04	-43.4	-47.3	16.9	6.03e-01	0	60	0	610795520	58	5635
2026-01-18 01:09:20.98	135.30	61.77	-43.1	-46.6	17.6	6.02e-01	0	60	0	612892672	58	5162
2026-01-18 01:09:21.99	136.31	61.50	-43.3	-47.0	17.2	6.03e-01	0	60	0	614989824	58	5464
2026-01-18 01:09:23.00	137.29	61.22	-43.4	-47.3	17.0	6.04e-01	0	60	0	616562688	58	5642
2026-01-18 01:09:24.01	138.25	60.94	-43.1	-46.7	17.6	6.04e-01	0	60	0	618659840	58	5222
2026-01-18 01:09:25.02	139.19	60.65	-43.2	-46.9	17.4	6.03e-01	0	60	0	620232704	58	5353
2026-01-18 01:09:26.02	140.10	60.36	-43.3	-47.0	17.1	6.03e-01	0	60	0	622329856	58	5449
2026-01-18 01:09:27.03	141.00	60.06	-43.3	-47.1	17.2	6.04e-01	0	60	0	624427008	58	5485
2026-01-18 01:09:28.04	141.87	59.75	-43.2	-46.8	17.4	6.02e-01	0	60	0	625999872	58	5325
2026-01-18 01:09:29.05	142.73	59.44	-43.1	-46.6	17.6	6.02e-01	0	61	0	628097024	58	5198
2026-01-18 01:09:30.06	143.56	59.13	-43.0	-46.5	17.7	6.02e-01	0	60	0	629669888	58	5157
2026-01-18 01:09:31.07	144.38	58.81	-43.2	-46.9	17.4	6.03e-01	0	60	0	631767040	58	5379
2026-01-18 01:09:32.08	145.17	58.50	-43.1	-46.7	17.5	6.03e-01	0	60	0	633864192	58	5264
2026-01-18 01:09:33.09	145.95	58.17	-42.6	-45.9	18.4	6.04e-01	0	60	0	635437056	57	5044
2026-01-18 01:09:34.10	146.71	57.85	-42.8	-46.2	18.1	6.03e-01	0	60	0	637534208	57	5219
2026-01-18 01:09:35.11	147.45	57.52	-42.8	-46.2	18.1	6.06e-01	0	60	0	639107072	57	5245
2026-01-18 01:09:36.12	148.17	57.19	-42.9	-46.3	17.9	6.01e-01	0	60	0	641204224	57	5328
2026-01-18 01:09:37.13	148.88	56.85	-42.4	-45.5	18.7	6.03e-01	0	60	0	643301376	56	5118
2026-01-18 01:09:38.14	149.57	56.52	-42.3	-45.4	18.9	6.03e-01	0	60	0	644874240	56	5042
2026-01-18 01:09:39.15	150.24	56.18	-42.4	-45.4	18.8	6.04e-01	0	60	0	646971392	56	5095
2026-01-18 01:09:40.16	150.90	55.85	-42.4	-45.5	18.7	6.02e-01	0	60	0	648544256	56	5155
2026-01-18 01:09:41.17	151.54	55.51	-42.5	-45.8	18.5	6.04e-01	0	60	0	650641408	56	5291
2026-01-18 01:09:42.18	152.16	55.17	-42.2	-45.2	19.0	6.03e-01	0	60	0	652738560	56	4970
2026-01-18 01:09:43.19	152.77	54.82	-42.1	-45.1	19.1	6.04e-01	0	60	0	654311424	56	4908
2026-01-18 01:09:44.20	153.37	54.48	-42.1	-45.1	19.2	6.03e-01	0	60	0	656408576	56	4880
2026-01-18 01:09:45.21	153.95	54.14	-42.1	-45.1	19.1	6.02e-01	0	60	0	658505728	56	4890
2026-01-18 01:09:46.22	154.51	53.80	-42.3	-45.5	18.8	6.04e-01	0	60	0	660078592	56	5117
2026-01-18 01:09:47.23	155.07	53.45	-42.3	-45.4	18.8	6.04e-01	0	60	0	662175744	56	5072
2026-01-18 01:09:48.24	155.61	53.11	-41.9	-44.8	19.3	6.03e-01	0	60	0	663748608	55	5017
2026-01-18 01:09:49.25	156.14	52.76	-41.9	-44.9	19.2	6.04e-01	0	60	0	665845760	55	5074
2026-01-18 01:09:50.26	156.66	52.42	-41.9	-44.8	19.3	6.01e-01	0	60	0	667942912	55	5015
2026-01-18 01:09:51.27	157.16	52.08	-42.1	-45.1	19.0	6.04e-01	0	60	0	669515776	55	5188
2026-01-18 01:09:52.28	157.65	51.73	-42.2	-45.2	18.9	6.04e-01	0	60	0	671612928	55	5254
2026-01-18 01:09:53.29	158.14	51.39	-42.2	-45.2	18.9	6.03e-01	0	60	0	673185792	55	5261
2026-01-18 01:09:54.30	158.61	51.05	-42.0	-45.0	19.1	6.04e-01	0	60	0	675282944	55	5128
2026-01-18 01:09:55.30	159.06	50.71	-42.4	-45.7	18.5	6.04e-01	0	60	0	677380096	55	5531
2026-01-18 01:09:56.32	159.52	50.37	-42.3	-45.5	18.4	6.03e-01	0	60	0	678952960	55	5461
2026-01-18 01:09:57.32	159.95	50.03	-42.1	-45.1	18.9	6.03e-01	0	60	0	681050112	55	5206
2026-01-18 01:09:58.33	160.38	49.69	-42.4	-45.6	18.5	6.06e-01	0	60	0	683147264	55	5514
2026-01-18 01:09:59.34	160.80	49.35	-42.4	-45.6	18.5	6.04e-01	0	60	0	684720128	55	5473
2026-01-18 01:10:00.35	161.22	49.02	-42.4	-45.6	18.5	6.04e-01	0	60	0	686817280	55	5479
2026-01-18 01:10:01.36	161.62	48.68	-42.6	-46.0	18.1	6.04e-01	0	61	0	688390144	55	5755
2026-01-18 01:10:02.37	162.01	48.35	-42.5	-45.9	18.2	6.04e-01	0	60	0	690487296	55	5686
2026-01-18 01:10:03.38	162.40	48.01	-42.3	-45.5	18.5	6.05e-01	0	60	0	692584448	55	5457
2026-01-18 01:10:04.39	162.78	47.68	-42.4	-45.8	18.3	6.01e-01	0	60	0	694157312	55	5594
2026-01-18 01:10:05.40	163.15	47.35	-42.6	-45.9	18.1	6.03e-01	0	60	0	696254464	55	5700
2026-01-18 01:10:06.41	163.51	47.02	-42.5	-45.8	18.3	6.03e-01	0	60	0	697827328	55	5614
2026-01-18 01:10:07.42	163.86	46.69	-42.3	-45.5	18.5	6.05e-01	0	60	0	699924480	55	5438
2026-01-18 01:10:08.43	164.21	46.37	-42.3	-45.6	18.5	6.02e-01	0	60	0	702021632	55	5468
2026-01-18 01:10:09.44	164.55	46.04	-42.4	-45.7	18.3	6.04e-01	0	60	0	703594496	55	5566
2026-01-18 01:10:10.45	164.88	45.72	-42.4	-45.7	18.4	6.03e-01	0	60	0	705691648	55	5572
2026-01-18 01:10:11.46	165.21	45.40	-42.3	-45.4	18.6	6.04e-01	0	60	0	707264512	55	5399
2026-01-18 01:10:12.47	165.53	45.08	-42.2	-45.4	18.7	6.03e-01	0	60	0	709361664	55	5363
2026-01-18 01:10:13.48	165.84	44.76	-42.4	-45.6	18.4	6.03e-01	0	60	0	711458816	55	5490
2026-01-18 01:10:14.49	166.15	44.45	-42.2	-45.4	18.6	6.04e-01	0	61	0	713031680	55	5360
2026-01-18 01:10:15.49	166.45	44.14	-42.1	-45.2	18.8	6.02e-01	0	61	0	715128832	55	5255
2026-01-18 01:10:16.51	166.75	43.82	-42.2	-45.3	18.7	6.04e-01	0	60	0	716701696	55	5331
2026-01-18 01:10:17.51	167.03	43.51	-42.3	-45.6	18.5	6.04e-01	0	60	0	718798848	55	5465
2026-01-18 01:10:18.53	167.32	43.20	-42.4	-45.7	18.3	6.02e-01	0	60	0	720896000	55	5572
2026-01-18 01:10:19.54	167.60	42.90	-42.4	-45.7	18.3	6.03e-01	0	60	0	722468864	55	5571
2026-01-18 01:10:20.55	167.87	42.59	-42.5	-45.7	18.3	6.02e-01	0	60	0	724566016	55	5588
2026-01-18 01:10:21.55	168.14	42.29	-42.6	-46.1	17.9	6.03e-01	0	60	0	726663168	55	5809
2026-01-18 01:10:22.57	168.40	41.99	-42.6	-46.1	18.0	6.03e-01	0	60	0	728236032	55	5789
2026-01-18 01:10:23.58	168.66	41.69	-42.6	-45.9	18.1	6.02e-01	0	61	0	730333184	55	5698
2026-01-18 01:10:24.59	168.92	41.39	-42.5	-45.9	18.1	6.01e-01	0	60	0	731906048	55	5698
2026-01-18 01:10:25.59	169.16	41.10	-42.8	-46.3	17.8	6.03e-01	0	60	0	734003200	56	5600
2026-01-18 01:10:26.60	169.41	40.81	-42.8	-46.4	17.7	6.05e-01	0	60	0	736100352	56	5658
2026-01-18 01:10:27.61	169.65	40.51	-42.9	-46.4	17.7	6.04e-01	0	61	0	737673216	56	5685
2026-01-18 01:10:28.62	169.88	40.22	-43.0	-46.7	17.4	6.06e-01	0	60	0	739770368	56	5892
2026-01-18 01:10:29.63	170.12	39.94	-43.0	-46.8	17.3	6.03e-01	0	60	0	741343232	56	5924
2026-01-18 01:10:30.64	170.34	39.65	-43.0	-46.6	17.4	6.04e-01	0	60	0	743440384	56	5844
2026-01-18 01:10:31.65	170.57	39.37	-43.0	-46.6	17.5	6.02e-01	0	60	0	745537536	56	5814
2026-01-18 01:10:32.66	170.79	39.09	-43.1	-46.8	17.3	6.05e-01	0	60	0	747110400	56	5962
2026-01-18 01:10:33.67	171.00	38.81	-43.1	-46.8	17.2	6.05e-01	0	60	0	749207552	56	5963
2026-01-18 01:10:34.67	171.21	38.53	-42.9	-46.5	17.5	6.03e-01	0	60	0	751304704	56	5775
2026-01-18 01:10:35.68	171.42	38.26	-42.8	-46.3	17.7	6.03e-01	0	60	0	752877568	56	5656
2026-01-18 01:10:36.69	171.63	37.98	-42.8	-46.2	17.8	6.05e-01	0	60	0	754974720	56	5559
2026-01-18 01:10:37.71	171.83	37.71	-42.7	-46.2	17.9	6.05e-01	0	60	0	756547584	56	5554
2026-01-18 01:10:38.71	172.03	37.44	-42.7	-46.1	17.9	6.02e-01	0	61	0	758644736	56	5514
2026-01-18 01:10:39.72	172.23	37.17	-42.7	-46.2	17.8	6.04e-01	0	61	0	760741888	56	5568
2026-01-18 01:10:40.73	172.42	36.91	-42.7	-46.0	18.0	6.03e-01	0	60	0	762314752	56	5462
2026-01-18 01:10:41.74	172.61	36.64	-42.7	-46.1	18.0	6.04e-01	0	60	0	764411904	56	5497
2026-01-18 01:10:42.75	172.79	36.38	-42.6	-46.0	18.1	6.02e-01	0	60	0	765984768	56	5433
2026-01-18 01:10:43.76	172.98	36.12	-42.5	-45.8	18.2	6.01e-01	0	60	0	768081920	56	5330
2026-01-18 01:10:44.77	173.16	35.86	-42.4	-45.6	18.4	6.02e-01	0	60	0	769654784	56	5210
2026-01-18 01:10:45.78	173.33	35.61	-42.2	-45.4	18.1	6.03e-01	0	61	0	771751936	56	5046
2026-01-18 01:10:46.79	173.51	35.35	-42.1	-45.2	18.8	6.02e-01	0	60	0	773849088	56	4947
2026-01-18 01:10:47.79	173.68	35.10	-42.1	-45.2	18.8	6.05e-01	0	61	0	775421952	56	4943
2026-01-18 01:10:48.79	173.85	34.85	-41.9	-44.8	19.1	6.01e-01	0	60	0	777519104	55	5003
2026-01-18 01:10:49.80	174.01	34.61	-41.8	-44.7	19.2	6.03e-01	0	60	0	779616256	55	4966
2026-01-18 01:10:50.81	174.18	34.36	-41.8	-44.8	19.1	6.05e-01	0	60	0	781189120	55	4991
2026-01-18 01:10:51.82	174.34	34.11	-41.8	-44.8	19.1	6.05e-01	0	60	0	783286272	55	4999
2026-01-18 01:10:52.83	174.50	33.87	-41.8	-44.8	19.1	6.03e-01	0	60	0	784859136	55	4986
2026-01-18 01:10:53.84	174.66	33.63	-41.7	-44.7	19.2	6.04e-01	0	60	0	786956288	55	4938
2026-01-18 01:10:54.85	174.81	33.39	-41.7	-44.6	19.3	6.03e-01	0	61	0	789053440	55	4889
2026-01-18 01:10:55.86	174.96	33.15	-41.6	-44.5	19.4	6.03e-01	0	60	0	790626304	55	4832
2026-01-18 01:10:56.87	175.12	32.91	-41.5	-44.4	19.5	6.03e-01	0	60	0	792723456	55	4768
2026-01-18 01:10:57.88	175.26	32.68	-41.5	-44.3	19.5	6.04e-01	0	60	0	794820608	55	4743
2026-01-18 01:10:58.89	175.41	32.45	-41.4	-44.1	19.8	6.03e-01	0	61	0	796393472	54	4902
2026-01-18 01:10:59.90	175.55	32.22	-41.3	-44.0	19.8	6.02e-01	0	61	0	798490624	54	4860
2026-01-18 01:11:00.91	175.70	31.99	-41.3	-44.0	19.8	6.03e-01	0	61	0	800063488	54	4861
2026-01-18 01:11:01.92	175.84	31.76	-41.2	-43.9	19.9	6.03e-01	0	61	0	802160640	54	4801
2026-01-18 01:11:02.93	175.97	31.53	-41.3	-44.0	19.9	6.04e-01	0	60	0	804257792	54	4816
2026-01-18 01:11:03.94	176.11	31.31	-41.3	-44.0	19.8	6.05e-01	0	60	0	805830656	54	4850
2026-01-18 01:11:04.95	176.24	31.09	-41.3	-44.0	19.8	6.03e-01	0	60	0	807927808	54	4866
2026-01-18 01:11:05.96	176.38	30.86	-41.1	-43.8	20.0	6.05e-01	0	60	0	809500672	54	4731
2026-01-18 01:11:06.97	176.51	30.65	-41.2	-43.9	19.9	6.05e-01	0	60	0	811597824	54	4779
2026-01-18 01:11:07.98	176.64	30.43	-41.2	-43.9	19.9	6.02e-01	0	60	0	813694976	54	4783
2026-01-18 01:11:08.99	176.76	30.21	-41.3	-44.0	19.8	6.03e-01	0	61	0	815267840	54	4870
2026-01-18 01:11:10.00	176.89	30.00	-41.3	-44.0	19.8	6.04e-01	0	60	0	817364992	54	4836
2026-01-18 01:11:11.00	177.01	29.79	-41.3	-44.1	19.8	6.04e-01	0	60	0	818937856	54	4877
2026-01-18 01:11:12.01	177.13	29.57	-41.3	-44.1	19.7	6.02e-01	0	60	0	821035008	54	4898
2026-01-18 01:11:13.02	177.25	29.36	-41.4	-44.2	19.6	6.01e-01	0	60	0	823132160	54	4954
2026-01-18 01:11:14.03	177.37	29.16	-41.5	-44.3	19.5	6.03e-01	0	60	0	824705024	54	5027
2026-01-18 01:11:15.04	177.49	28.95	-41.6	-44.5	19.3	6.04e-01	0	60	0	826802176	54	5135
2026-01-18 01:11:16.05	177.61	28.74	-41.6	-44.5	19.3	6.03e-01	0	60	0	828375040	54	5159
2026-01-18 01:11:17.06	177.72	28.54	-41.6	-44.6	19.2	6.05e-01	0	60	0	830472192	54	5181
2026-01-18 01:11:18.07	177.83	28.34	-41.6	-44.5	19.3	6.03e-01	0	60	0	832569344	54	5115
2026-01-18 01:11:19.08	177.95	28.14	-41.6	-44.5	19.3	6.04e-01	0	61	0	834142208	54	5124
2026-01-18 01:11:20.09	178.06	27.94	-41.6	-44.5	19.2	6.03e-01	0	60	0	836239360	54	5143
2026-01-18 01:11:21.10	178.17	27.74	-41.6	-44.5	19.3	6.02e-01	0	60	0	837812224	54	5111
2026-01-18 01:11:22.11	178.27	27.54	-41.5	-44.4	19.4	6.04e-01	0	61	0	839909376	54	5060
2026-01-18 01:11:23.12	178.38	27.35	-41.6	-44.4	19.3	6.04e-01	0	60	0	842006528	54	5099
2026-01-18 01:11:24.13	178.48	27.15	-41.6	-44.5	19.3	6.04e-01	0	60	0	843579392	54	5132
2026-01-18 01:11:25.13	178.59	26.96	-41.7	-44.6	19.1	6.02e-01	0	61	0	845676544	54	5190
2026-01-18 01:11:26.14	178.69	26.77	-41.7	-44.7	19.0	6.03e-01	0	60	0	847773696	54	5273
2026-01-18 01:11:27.15	178.79	26.58	-41.8	-44.8	18.9	6.03e-01	0	61	0	849346560	54	5315
2026-01-18 01:11:28.16	178.89	26.39	-41.9	-45.0	18.8	6.04e-01	0	60	0	851443712	54	5426
2026-01-18 01:11:29.17	178.99	26.21	-42.0	-45.1	18.6	6.04e-01	0	60	0	853016576	54	5522
2026-01-18 01:11:30.18	179.09	26.02	-42.1	-45.3	18.4	6.03e-01	0	60	0	855113728	54	5623
2026-01-18 01:11:31.19	179.18	25.84	-42.1	-45.4	18.3	6.04e-01	0	61	0	857210880	54	5682
2026-01-18 01:11:32.20	179.28	25.65	-42.1	-45.4	18.4	6.05e-01	0	61	0	858783744	54	5678
2026-01-18 01:11:33.21	179.37	25.47	-42.1	-45.3	18.4	6.03e-01	0	60	0	860880896	54	5641
2026-01-18 01:11:34.22	179.47	25.29	-42.1	-45.3	18.4	6.02e-01	0	60	0	862978048	54	5656
2026-01-18 01:11:35.23	179.56	25.11	-42.1	-45.3	18.4	6.03e-01	0	60	0	864550912	54	5618
2026-01-18 01:11:36.24	179.65	24.93	-42.0	-45.1	18.5	6.04e-01	0	60	0	866648064	54	5519
2026-01-18 01:11:37.24	179.74	24.76	-42.0	-45.2	18.5	6.02e-01	0	60	0	868220928	54	5530
2026-01-18 01:11:38.25	179.83	24.58	-42.0	-45.1	18.5	6.03e-01	0	60	0	870318080	54	5519
2026-01-18 01:11:39.26	179.92	24.41	-42.0	-45.1	18.6	6.04e-01	0	60	0	872415232	54	5504
2026-01-18 01:11:40.27	180.01	24.23	-42.0	-45.2	18.5	6.03e-01	0	61	0	873988096	54	5529
2026-01-18 01:11:41.28	180.09	24.06	-42.0	-45.2	18.5	6.02e-01	0	60	0	876085248	54	5552
2026-01-18 01:11:42.29	180.18	23.89	-41.9	-45.1	18.5	6.03e-01	0	60	0	877658112	54	5511
2026-01-18 01:11:43.30	180.26	23.72	-42.0	-45.1	18.5	6.02e-01	0	61	0	879755264	54	5522
2026-01-18 01:11:44.31	180.35	23.55	-41.9	-45.0	18.6	6.03e-01	0	60	0	881328128	54	5463
2026-01-18 01:11:45.32	180.43	23.39	-41.9	-45.0	18.7	6.03e-01	0	60	0	883425280	54	5403
2026-01-18 01:11:46.33	180.51	23.22	-41.9	-45.0	18.6	6.04e-01	0	61	0	885522432	54	5460
2026-01-18 01:11:47.34	180.59	23.05	-41.9	-45.0	18.6	6.01e-01	0	61	0	887095296	54	5440
2026-01-18 01:11:48.35	180.67	22.89	-41.8	-44.9	18.7	6.04e-01	0	60	0	889192448	54	5398
2026-01-18 01:11:49.36	180.75	22.73	-41.9	-45.0	18.6	6.04e-01	0	60	0	891289600	54	5446
2026-01-18 01:11:50.37	180.83	22.56	-41.9	-45.1	18.5	6.02e-01	0	61	0	892862464	54	5478
2026-01-18 01:11:51.38	180.91	22.40	-41.9	-45.0	18.6	6.03e-01	0	61	0	894959616	54	5439
2026-01-18 01:11:52.39	180.98	22.24	-41.9	-45.1	18.5	6.06e-01	0	60	0	896532480	54	5484
2026-01-18 01:11:53.40	181.06	22.08	-41.9	-45.0	18.6	6.03e-01	0	60	0	898629632	54	5439
2026-01-18 01:11:54.41	181.13	21.93	-41.8	-45.0	18.6	6.04e-01	0	61	0	900726784	54	5429
2026-01-18 01:11:55.42	181.21	21.77	-41.8	-44.9	18.7	6.04e-01	0	61	0	902299648	54	5369
2026-01-18 01:11:56.43	181.28	21.61	-41.7	-44.8	18.8	6.01e-01	0	60	0	904396800	54	5309
2026-01-18 01:11:57.44	181.36	21.46	-41.8	-44.8	18.8	6.04e-01	0	61	0	905969664	54	5321
2026-01-18 01:11:58.45	181.43	21.30	-41.7	-44.8	18.8	6.03e-01	0	61	0	908066816	54	5304
2026-01-18 01:11:59.46	181.50	21.15	-41.8	-44.8	18.7	6.05e-01	0	61	0	910163968	54	5334
2026-01-18 01:12:00.47	181.57	21.00	-41.8	-44.9	18.6	6.05e-01	0	61	0	911736832	54	5401
2026-01-18 01:12:01.48	181.64	20.85	-41.8	-44.9	18.7	6.02e-01	0	61	0	913833984	54	5377
2026-01-18 01:12:02.49	181.71	20.70	-41.8	-44.9	18.6	6.03e-01	0	60	0	915931136	54	5383
2026-01-18 01:12:03.50	181.78	20.55	-41.8	-44.9	18.6	6.03e-01	0	60	0	917504000	54	5371
2026-01-18 01:12:04.51	181.85	20.40	-41.8	-45.0	18.5	6.02e-01	0	61	0	919601152	54	5407
2026-01-18 01:12:05.52	181.91	20.25	-41.8	-44.9	18.7	6.04e-01	0	61	0	921174016	54	5348
2026-01-18 01:12:06.52	181.98	20.11	-41.7	-44.8	18.7	6.03e-01	0	60	0	923271168	54	5340
2026-01-18 01:12:07.53	182.05	19.96	-41.7	-44.8	18.7	6.02e-01	0	60	0	925368320	54	5325
2026-01-18 01:12:08.54	182.11	19.82	-41.7	-44.8	18.7	6.03e-01	0	61	0	926941184	54	5314
2026-01-18 01:12:09.55	182.18	19.68	-41.7	-44.8	18.7	6.02e-01	0	61	0	929038336	54	5311
2026-01-18 01:12:10.56	182.24	19.53	-41.7	-44.8	18.7	6.02e-01	0	61	0	931135488	54	5323
2026-01-18 01:12:11.57	182.31	19.39	-41.7	-44.7	18.8	6.02e-01	0	61	0	932708352	54	5246
2026-01-18 01:12:12.58	182.37	19.25	-41.6	-44.7	18.8	6.03e-01	0	60	0	934805504	54	5225
2026-01-18 01:12:13.59	182.43	19.11	-41.7	-44.9	18.6	6.02e-01	0	61	0	936378368	54	5342
2026-01-18 01:12:14.60	182.49	18.97	-41.6	-44.6	18.9	6.03e-01	0	61	0	938475520	54	5176
2026-01-18 01:12:15.61	182.56	18.83	-41.6	-44.6	18.9	6.05e-01	0	61	0	940048384	54	5167
2026-01-18 01:12:16.62	182.62	18.69	-41.7	-44.7	18.8	6.03e-01	0	60	0	942145536	54	5261
2026-01-18 01:12:17.63	182.68	18.56	-41.7	-44.8	18.6	6.05e-01	0	61	0	944242688	54	5310
2026-01-18 01:12:18.64	182.74	18.42	-41.7	-44.7	18.8	6.03e-01	0	60	0	945815552	54	5256
2026-01-18 01:12:19.65	182.80	18.29	-41.8	-45.0	18.5	6.04e-01	0	60	0	947912704	54	5406
2026-01-18 01:12:20.65	182.85	18.15	-41.6	-44.6	18.8	6.04e-01	0	61	0	949485568	54	5215
2026-01-18 01:12:21.66	182.91	18.02	-41.5	-44.5	19.0	6.04e-01	0	61	0	951582720	54	5133
2026-01-18 01:12:22.67	182.97	17.89	-41.6	-44.7	18.8	6.01e-01	0	60	0	953679872	54	5248
2026-01-18 01:12:23.69	183.03	17.75	-41.5	-44.5	18.9	6.03e-01	0	61	0	955252736	54	5134
2026-01-18 01:12:24.69	183.08	17.62	-41.5	-44.5	18.9	6.03e-01	0	60	0	957349888	54	5145
2026-01-18 01:12:25.70	183.14	17.49	-41.5	-44.6	19.0	6.02e-01	0	61	0	959447040	54	5160
2026-01-18 01:12:26.71	183.20	17.36	-41.6	-44.6	19.0	6.03e-01	0	60	0	961019904	54	5162
2026-01-18 01:12:27.72	183.25	17.23	-41.6	-44.6	18.8	6.02e-01	0	60	0	963117056	54	5206
2026-01-18 01:12:28.73	183.31	17.10	-41.5	-44.5	19.0	6.05e-01	0	60	0	964689920	54	5103
2026-01-18 01:12:29.74	183.36	16.97	-41.5	-44.5	18.9	6.03e-01	0	61	0	966787072	54	5142
2026-01-18 01:12:30.75	183.42	16.85	-41.5	-44.5	19.0	6.04e-01	0	60	0	968884224	54	5122
2026-01-18 01:12:31.76	183.47	16.72	-41.5	-44.5	18.9	6.03e-01	0	60	0	970457088	54	5155
2026-01-18 01:12:32.77	183.52	16.60	-41.6	-44.7	18.8	6.04e-01	0	60	0	972554240	54	5224
2026-01-18 01:12:33.78	183.57	16.47	-41.6	-44.6	18.8	6.04e-01	0	60	0	974127104	54	5188
2026-01-18 01:12:34.79	183.63	16.35	-41.5	-44.5	18.9	6.02e-01	0	61	0	976224256	54	5138
2026-01-18 01:12:35.80	183.68	16.22	-41.5	-44.5	18.9	6.03e-01	0	60	0	978321408	54	5150
2026-01-18 01:12:36.81	183.73	16.10	-41.6	-44.6	18.8	6.04e-01	0	60	0	979894272	54	5191
2026-01-18 01:12:37.82	183.78	15.98	-41.5	-44.6	18.8	6.05e-01	0	61	0	981991424	54	5178
2026-01-18 01:12:38.83	183.83	15.86	-41.5	-44.6	18.9	6.03e-01	0	60	0	984088576	54	5169
2026-01-18 01:12:39.84	183.88	15.73	-41.6	-44.7	18.7	6.03e-01	0	61	0	985661440	54	5268
2026-01-18 01:12:40.85	183.93	15.61	-41.6	-44.7	18.8	6.02e-01	0	61	0	987758592	54	5230
2026-01-18 01:12:41.86	183.98	15.49	-41.6	-44.8	18.6	6.04e-01	0	61	0	989331456	54	5289
2026-01-18 01:12:42.87	184.03	15.38	-41.5	-44.6	18.8	6.05e-01	0	60	0	991428608	54	5191
2026-01-18 01:12:43.88	184.08	15.26	-41.5	-44.5	18.8	6.01e-01	0	60	0	993525760	54	5154
2026-01-18 01:12:44.89	184.13	15.14	-41.6	-44.7	18.7	6.05e-01	0	61	0	995098624	54	5228
2026-01-18 01:12:45.90	184.17	15.02	-41.7	-44.8	18.6	6.05e-01	0	61	0	997195776	54	5310
2026-01-18 01:12:46.91	184.22	14.90	-41.6	-44.8	18.6	6.02e-01	0	61	0	998768640	54	5283
2026-01-18 01:12:47.92	184.27	14.79	-41.7	-44.8	18.6	6.04e-01	0	61	0	1000865792	54	5331
2026-01-18 01:12:48.93	184.31	14.67	-41.7	-44.9	18.5	6.03e-01	0	60	0	1002962944	54	5363
2026-01-18 01:12:49.94	184.36	14.56	-41.6	-44.8	18.6	6.05e-01	0	60	0	1004535808	54	5309
2026-01-18 01:12:50.95	184.41	14.44	-41.6	-44.8	18.6	6.04e-01	0	61	0	1006632960	54	5314
2026-01-18 01:12:51.96	184.45	14.33	-41.7	-44.9	18.4	6.04e-01	0	60	0	1008205824	54	5391
2026-01-18 01:12:52.97	184.50	14.22	-41.7	-44.9	18.5	6.03e-01	0	61	0	1010302976	54	5357
2026-01-18 01:12:53.98	184.54	14.10	-41.6	-44.7	18.6	6.05e-01	0	61	0	1012400128	54	5277
2026-01-18 01:12:54.99	184.59	13.99	-41.6	-44.8	18.5	6.03e-01	0	61	0	1013972992	54	5329
2026-01-18 01:12:56.00	184.63	13.88	-41.6	-44.8	18.5	6.05e-01	0	61	0	1016070144	54	5337
2026-01-18 01:12:57.01	184.68	13.77	-41.8	-45.1	18.3	6.03e-01	0	60	0	1017643008	54	5474
2026-01-18 01:12:58.01	184.72	13.66	-41.7	-45.0	18.3	6.03e-01	0	61	0	1019740160	54	5428
2026-01-18 01:12:59.03	184.76	13.55	-41.8	-45.1	18.3	6.06e-01	0	61	0	1021837312	54	5487
2026-01-18 01:13:00.04	184.81	13.44	-41.8	-45.0	18.3	6.02e-01	0	61	0	1023410176	54	5440
2026-01-18 01:13:01.05	184.85	13.33	-41.7	-44.9	18.4	6.03e-01	0	61	0	1025507328	54	5366
2026-01-18 01:13:02.05	184.89	13.23	-41.8	-45.1	18.2	6.05e-01	0	61	0	1027604480	54	5474
2026-01-18 01:13:03.06	184.93	13.12	-41.8	-45.0	18.2	6.05e-01	0	61	0	1029177344	54	5453
2026-01-18 01:13:04.07	184.97	13.01	-41.7	-45.0	18.3	6.04e-01	0	60	0	1031274496	54	5430
2026-01-18 01:13:05.08	185.02	12.90	-41.8	-45.1	18.2	6.03e-01	0	60	0	1032847360	54	5469
2026-01-18 01:13:06.09	185.06	12.80	-41.8	-45.2	18.1	6.04e-01	0	60	0	1034944512	54	5550
2026-01-18 01:13:07.10	185.10	12.69	-41.8	-45.1	18.2	6.04e-01	0	61	0	1037041664	54	5507
2026-01-18 01:13:08.11	185.14	12.59	-41.8	-45.1	18.2	6.02e-01	0	61	0	1038614528	54	5503
2026-01-18 01:13:09.12	185.18	12.48	-41.8	-45.1	18.1	6.02e-01	0	61	0	1040711680	54	5528
2026-01-18 01:13:10.13	185.22	12.38	-41.7	-45.0	18.2	6.00e-01	0	61	0	1042284544	54	5451
2026-01-18 01:13:11.14	185.26	12.27	-41.8	-45.1	18.2	6.02e-01	0	61	0	1044381696	54	5494
2026-01-18 01:13:12.15	185.30	12.17	-41.8	-45.1	18.1	6.03e-01	0	60	0	1046478848	54	5509
2026-01-18 01:13:13.16	185.34	12.07	-41.7	-45.0	18.2	6.05e-01	0	60	0	1048051712	54	5454
2026-01-18 01:13:14.17	185.38	11.97	-41.8	-45.1	18.1	6.04e-01	0	61	0	1050148864	54	5522
2026-01-18 01:13:15.18	185.41	11.86	-41.8	-45.2	18.1	6.03e-01	0	61	0	1052246016	54	5535
2026-01-18 01:13:16.19	185.45	11.76	-41.8	-45.2	18.1	6.04e-01	0	61	0	1053818880	54	5543
2026-01-18 01:13:17.20	185.49	11.66	-41.7	-45.1	18.2	6.03e-01	0	60	0	1055916032	54	5471
2026-01-18 01:13:18.21	185.53	11.56	-41.7	-45.0	18.2	6.03e-01	0	60	0	1057488896	54	5444
2026-01-18 01:13:19.21	185.57	11.46	-41.8	-45.1	18.1	6.04e-01	0	60	0	1059586048	54	5482
2026-01-18 01:13:20.22	185.60	11.36	-41.8	-45.2	18.0	6.04e-01	0	60	0	1061683200	54	5563
2026-01-18 01:13:21.23	185.64	11.26	-41.8	-45.1	18.1	6.02e-01	0	60	0	1063256064	54	5514
2026-01-18 01:13:22.24	185.68	11.16	-41.8	-45.2	18.0	6.03e-01	0	61	0	1065353216	54	5581
2026-01-18 01:13:23.25	185.71	11.07	-41.8	-45.2	18.0	6.04e-01	0	60	0	1066926080	54	5583
2026-01-18 01:13:24.26	185.75	10.97	-41.9	-45.4	17.8	6.05e-01	0	61	0	1069023232	54	5708
2026-01-18 01:13:25.27	185.79	10.87	-41.8	-45.2	17.9	6.05e-01	0	61	0	1071120384	54	5583
2026-01-18 01:13:26.28	185.82	10.77	-41.8	-45.3	17.9	6.02e-01	0	60	0	1072693248	54	5606
2026-01-18 01:13:27.29	185.86	10.68	-41.9	-45.4	17.8	6.03e-01	0	60	0	1074790400	54	5666
2026-01-18 01:13:28.30	185.89	10.58	-41.9	-45.3	17.8	6.05e-01	0	60	0	1076363264	54	5653
2026-01-18 01:13:29.31	185.93	10.49	-41.9	-45.4	17.8	5.99e-01	0	61	0	1078460416	54	5661
2026-01-18 01:13:30.32	185.96	10.39	-41.8	-45.3	17.9	6.04e-01	0	61	0	1080557568	54	5628
2026-01-18 01:13:31.33	186.00	10.30	-42.1	-45.7	17.4	6.02e-01	0	60	0	1082130432	54	5892
2026-01-18 01:13:32.34	186.03	10.20	-42.0	-45.7	17.5	6.02e-01	0	61	0	1084227584	54	5856
2026-01-18 01:13:33.35	186.07	10.11	-42.0	-45.7	17.4	6.04e-01	0	61	0	1085800448	54	5882
2026-01-18 01:13:34.36	186.10	10.01	-42.0	-45.6	17.5	6.03e-01	0	61	0	1087897600	54	5841
2026-01-18 01:13:35.37	186.13	9.92	-42.1	-45.8	17.3	6.04e-01	0	61	0	1089994752	54	5964
2026-01-18 01:13:36.38	186.17	9.83	-42.0	-45.6	17.5	6.04e-01	0	61	0	1091567616	54	5844
2026-01-18 01:13:37.39	186.20	9.73	-42.0	-45.7	17.4	6.04e-01	0	61	0	1093664768	54	5891
2026-01-18 01:13:38.40	186.23	9.64	-42.0	-45.7	17.3	6.04e-01	0	61	0	1095761920	54	5901
2026-01-18 01:13:39.41	186.27	9.55	-42.0	-45.7	17.4	6.03e-01	0	61	0	1097334784	54	5906
2026-01-18 01:13:40.42	186.30	9.46	-42.1	-45.8	17.2	6.05e-01	0	61	0	1099431936	54	5971
2026-01-18 01:13:41.43	186.33	9.37	-42.1	-45.9	17.1	6.04e-01	0	61	0	1101004800	54	6019
2026-01-18 01:13:42.44	186.37	9.28	-42.1	-46.0	17.1	6.02e-01	0	60	0	1103101952	54	6079
2026-01-18 01:13:43.45	186.40	9.19	-42.2	-46.0	17.0	6.04e-01	0	61	0	1105199104	55	5756
2026-01-18 01:13:44.45	186.43	9.10	-42.1	-45.8	17.2	6.02e-01	0	60	0	1106771968	55	5629
2026-01-18 01:13:45.46	186.46	9.01	-42.1	-45.9	17.1	6.03e-01	0	61	0	1108869120	55	5711
2026-01-18 01:13:46.47	186.49	8.92	-42.0	-45.7	17.3	6.03e-01	0	61	0	1110441984	55	5547
2026-01-18 01:13:47.48	186.52	8.83	-42.1	-45.8	17.2	6.04e-01	0	60	0	1112539136	55	5615
2026-01-18 01:13:48.49	186.56	8.74	-42.1	-45.9	17.1	6.04e-01	0	61	0	1114636288	55	5663
2026-01-18 01:13:49.50	186.59	8.65	-42.0	-45.8	17.2	6.05e-01	0	60	0	1116209152	55	5608
2026-01-18 01:13:50.51	186.62	8.56	-42.1	-45.9	17.0	6.04e-01	0	61	0	1118306304	55	5713
2026-01-18 01:13:51.52	186.65	8.48	-42.1	-46.0	17.0	6.04e-01	0	61	0	1120403456	55	5735
2026-01-18 01:13:52.53	186.68	8.39	-42.1	-45.9	17.1	6.04e-01	0	61	0	1121976320	55	5657
2026-01-18 01:13:53.54	186.71	8.30	-42.1	-46.0	16.9	6.04e-01	0	61	0	1124073472	55	5745
2026-01-18 01:13:54.55	186.74	8.22	-42.1	-45.9	17.0	6.05e-01	0	60	0	1125646336	55	5697
2026-01-18 01:13:55.56	186.77	8.13	-42.1	-46.0	16.9	6.03e-01	0	61	0	1127743488	55	5727
2026-01-18 01:13:56.57	186.80	8.04	-42.1	-46.1	16.8	6.02e-01	0	61	0	1129840640	55	5806
2026-01-18 01:13:57.58	186.83	7.96	-44.0	-50.6	13.5	6.05e-01	0	61	0	1131413504	58	8184
2026-01-18 01:13:58.59	186.86	7.87	-45.5	-63.7	3.8	7.43e-01	0	60	104	1132462080	61	31239
2026-01-18 01:13:59.60	186.89	7.79	-45.8	-64.3	3.8	7.45e-01	0	61	104	1132462080	62	31770
2026-01-18 01:14:00.61	186.92	7.70	-46.0	-64.5	3.8	7.45e-01	0	61	104	1132462080	62	32435
2026-01-18 01:14:01.62	186.95	7.62	-46.1	-64.7	3.8	7.47e-01	0	60	104	1132462080	62	33029
2026-01-18 01:14:02.63	186.97	7.53	-46.2	-64.8	3.8	7.43e-01	0	61	104	1132462080	62	33356
2026-01-18 01:14:03.64	187.00	7.45	-46.3	-64.8	3.8	7.45e-01	0	60	104	1132462080	63	31724
2026-01-18 01:14:04.65	187.03	7.37	-46.3	-64.9	3.8	7.45e-01	0	61	104	1132462080	63	31943
2026-01-18 01:14:05.67	187.06	7.28	-46.4	-64.9	3.8	7.47e-01	0	61	104	1132462080	63	32030
2026-01-18 01:14:06.68	187.09	7.20	-46.5	-65.0	3.8	7.47e-01	0	60	104	1132462080	63	32319
2026-01-18 01:14:07.69	187.12	7.12	-46.4	-65.0	3.8	7.45e-01	0	61	104	1132462080	63	32185
2026-01-18 01:14:08.70	187.14	7.04	-46.4	-64.9	3.8	7.46e-01	0	60	104	1132462080	63	32045
2026-01-18 01:14:09.71	187.17	6.95	-46.4	-64.9	3.8	7.49e-01	0	61	104	1132462080	63	32019
2026-01-18 01:14:10.72	187.20	6.87	-46.4	-64.9	3.8	7.45e-01	0	61	104	1132462080	63	32053
