passes_logs/2026/01/18/R2.0S_Moscow/R2.0S_Moscow__20260118_030114_FENGYUN_3E_rec.log

#Pass ID: 20260118_030114_FENGYUN 3E
#Satellite: FENGYUN 3E
#Configuration: FENGYUN 3E
#almurnet v.1.7.20251203
#Start time: 2026-01-18 03:01:16

#Version: 2.2.20231116
#Station: R2.0S_Moscow
#Location: 37.707566 lon 55.798166 lat
#TLE: 1 49008U 21062A   26017.26067429  .00000278  00000+0  15192-3 0  9991
#TLE: 2 49008  98.7484  22.3628 0002125 132.6872 227.4483 14.19886454235162

#Time	Az	El	Level	Level2	SNR	BER	BlckErr	Temp	State	Recorded	gain1	gain2
2026-01-18 03:01:16.20	21.13	2.09	-42.2	-53.6	3.8	8.46e-01	0	52	0	0	55	12988
2026-01-18 03:01:17.21	21.18	2.15	-42.2	-53.6	3.8	8.47e-01	0	52	104	0	55	13020
2026-01-18 03:01:18.22	21.23	2.21	-42.3	-53.6	3.8	8.46e-01	0	52	104	0	55	13025
2026-01-18 03:01:19.23	21.27	2.27	-42.2	-53.6	3.8	8.45e-01	0	52	104	0	55	12982
2026-01-18 03:01:20.25	21.32	2.33	-42.2	-53.6	3.8	8.46e-01	0	52	104	0	55	13010
2026-01-18 03:01:21.26	21.37	2.39	-42.3	-53.6	3.8	8.46e-01	0	52	104	0	55	13017
2026-01-18 03:01:22.27	21.42	2.45	-42.2	-53.6	3.8	8.47e-01	0	53	104	0	55	13036
2026-01-18 03:01:23.28	21.46	2.52	-42.2	-53.6	3.8	8.45e-01	0	53	104	0	55	13030
2026-01-18 03:01:24.29	21.51	2.58	-42.2	-53.6	3.8	8.46e-01	0	53	104	0	55	12976
2026-01-18 03:01:25.30	21.56	2.64	-42.2	-53.6	3.8	8.46e-01	0	53	104	0	55	13009
2026-01-18 03:01:26.31	21.61	2.70	-42.3	-53.6	3.8	8.46e-01	0	53	104	0	55	13009
2026-01-18 03:01:27.32	21.65	2.76	-42.3	-53.6	3.8	8.45e-01	0	53	104	0	55	13004
2026-01-18 03:01:28.33	21.70	2.83	-42.3	-53.5	3.8	8.46e-01	0	53	104	0	55	12951
2026-01-18 03:01:29.34	21.75	2.89	-42.2	-53.6	3.8	8.46e-01	0	53	104	0	55	13025
2026-01-18 03:01:30.36	21.80	2.95	-42.2	-53.6	3.8	8.46e-01	0	53	104	0	55	12999
2026-01-18 03:01:31.37	21.85	3.01	-42.3	-53.6	3.8	8.46e-01	0	54	104	0	55	13026
2026-01-18 03:01:32.38	21.90	3.08	-42.2	-53.6	3.8	8.47e-01	0	54	104	0	55	13022
2026-01-18 03:01:33.39	21.95	3.14	-42.3	-53.6	3.8	8.46e-01	0	53	104	0	55	13028
2026-01-18 03:01:34.40	22.00	3.20	-42.2	-53.6	3.8	8.45e-01	0	53	104	0	55	13018
2026-01-18 03:01:35.41	22.05	3.27	-42.2	-53.6	3.8	8.46e-01	0	54	104	0	55	13000
2026-01-18 03:01:36.42	22.10	3.33	-42.2	-53.6	3.8	8.45e-01	0	54	104	0	55	12992
2026-01-18 03:01:37.43	22.15	3.39	-42.2	-53.6	3.8	8.47e-01	0	54	104	0	55	12994
2026-01-18 03:01:38.44	22.20	3.46	-42.2	-53.6	3.8	8.46e-01	0	54	104	0	55	12990
2026-01-18 03:01:39.45	22.25	3.52	-42.2	-53.6	3.8	8.45e-01	0	54	104	0	55	12988
2026-01-18 03:01:40.46	22.30	3.58	-42.3	-53.6	3.8	8.46e-01	0	54	104	0	55	13053
2026-01-18 03:01:41.47	22.35	3.65	-42.3	-53.6	3.8	8.45e-01	0	54	104	0	55	13045
2026-01-18 03:01:42.48	22.40	3.71	-42.2	-53.6	3.8	8.46e-01	0	54	104	0	55	13049
2026-01-18 03:01:43.49	22.45	3.78	-42.2	-53.6	3.8	8.46e-01	0	54	104	0	55	13008
2026-01-18 03:01:44.51	22.50	3.84	-42.2	-53.6	3.8	8.46e-01	0	54	104	0	55	12973
2026-01-18 03:01:45.52	22.55	3.90	-42.2	-53.6	3.8	8.47e-01	0	54	104	0	55	13020
2026-01-18 03:01:46.53	22.61	3.97	-42.3	-53.6	3.8	8.46e-01	0	54	104	0	55	13032
2026-01-18 03:01:47.54	22.66	4.03	-42.2	-53.6	3.8	8.45e-01	0	54	104	0	55	13002
2026-01-18 03:01:48.55	22.71	4.10	-42.2	-53.6	3.8	8.46e-01	0	54	104	0	55	13063
2026-01-18 03:01:49.56	22.76	4.16	-42.3	-53.6	3.8	8.45e-01	0	55	104	0	55	12975
2026-01-18 03:01:50.57	22.82	4.23	-42.3	-53.6	3.8	8.46e-01	0	54	104	0	55	13047
2026-01-18 03:01:51.58	22.87	4.29	-42.2	-53.6	3.8	8.45e-01	0	55	104	0	55	12973
2026-01-18 03:01:52.59	22.92	4.36	-42.2	-53.6	3.8	8.47e-01	0	55	104	0	55	13022
2026-01-18 03:01:53.61	22.98	4.43	-42.2	-53.6	3.8	8.47e-01	0	55	104	0	55	12967
2026-01-18 03:01:54.62	23.03	4.49	-42.2	-53.5	3.8	8.46e-01	0	55	104	0	55	12944
2026-01-18 03:01:55.63	23.08	4.56	-42.2	-53.6	3.8	8.46e-01	0	55	104	0	55	12995
2026-01-18 03:01:56.64	23.14	4.62	-42.2	-53.6	3.8	8.45e-01	0	55	104	0	55	13046
2026-01-18 03:01:57.65	23.19	4.69	-42.2	-53.6	3.8	8.45e-01	0	55	104	0	55	12987
2026-01-18 03:01:58.66	23.25	4.76	-42.2	-53.6	3.8	8.45e-01	0	55	104	0	55	13015
2026-01-18 03:01:59.67	23.30	4.82	-42.2	-53.6	3.8	8.47e-01	0	55	104	0	55	13042
2026-01-18 03:02:00.68	23.36	4.89	-42.2	-53.5	3.8	8.47e-01	0	55	104	0	55	12950
2026-01-18 03:02:01.69	23.41	4.96	-42.2	-53.6	3.8	8.47e-01	0	55	104	0	55	13020
2026-01-18 03:02:02.70	23.47	5.02	-42.3	-53.6	3.8	8.47e-01	0	55	104	0	55	12998
2026-01-18 03:02:03.72	23.52	5.09	-42.3	-53.6	3.8	8.46e-01	0	55	104	0	55	13049
2026-01-18 03:02:04.73	23.58	5.16	-42.2	-53.6	3.8	8.47e-01	0	55	104	0	55	13012
2026-01-18 03:02:05.73	23.63	5.22	-42.2	-53.6	3.8	8.47e-01	0	55	104	0	55	12981
2026-01-18 03:02:06.75	23.69	5.29	-42.2	-53.6	3.8	8.46e-01	0	55	104	0	55	12977
2026-01-18 03:02:07.76	23.75	5.36	-42.2	-53.6	3.8	8.45e-01	0	55	104	0	55	13005
2026-01-18 03:02:08.77	23.80	5.43	-42.2	-53.5	3.8	8.46e-01	0	56	104	0	55	12936
2026-01-18 03:02:09.78	23.86	5.50	-42.2	-53.5	3.8	8.47e-01	0	56	104	0	55	12957
2026-01-18 03:02:10.79	23.92	5.56	-42.2	-53.6	3.8	8.47e-01	0	56	104	0	55	12997
2026-01-18 03:02:11.80	23.98	5.63	-42.2	-53.5	3.8	8.48e-01	0	56	104	0	55	12907
2026-01-18 03:02:12.81	24.03	5.70	-42.2	-53.6	3.8	8.46e-01	0	56	104	0	55	13002
2026-01-18 03:02:13.82	24.09	5.77	-42.2	-53.5	3.8	8.46e-01	0	56	104	0	55	12943
2026-01-18 03:02:14.83	24.15	5.84	-42.2	-53.6	3.8	8.45e-01	0	56	104	0	55	13015
2026-01-18 03:02:15.84	24.21	5.91	-42.2	-53.5	3.8	8.46e-01	0	56	104	0	55	12948
2026-01-18 03:02:16.86	24.27	5.98	-42.3	-53.6	3.8	8.46e-01	0	56	104	0	55	13022
2026-01-18 03:02:17.87	24.33	6.05	-42.2	-53.6	3.8	8.47e-01	0	56	104	0	55	12964
2026-01-18 03:02:18.88	24.39	6.12	-42.2	-53.5	3.8	8.46e-01	0	56	104	0	55	12926
2026-01-18 03:02:19.89	24.45	6.18	-42.2	-53.5	3.8	8.45e-01	0	56	104	0	55	12909
2026-01-18 03:02:20.90	24.51	6.25	-42.2	-53.5	3.8	8.46e-01	0	56	104	0	55	12821
2026-01-18 03:02:21.91	24.57	6.32	-42.2	-53.5	3.8	8.45e-01	0	56	104	0	55	12815
2026-01-18 03:02:22.92	24.63	6.39	-42.2	-53.5	3.8	8.47e-01	0	56	104	0	55	12946
2026-01-18 03:02:23.93	24.69	6.46	-42.2	-53.5	3.8	8.47e-01	0	56	104	0	55	12957
2026-01-18 03:02:24.94	24.75	6.54	-42.2	-53.6	3.8	8.46e-01	0	56	104	0	55	13000
2026-01-18 03:02:25.96	24.81	6.61	-42.3	-53.6	3.8	8.46e-01	0	57	104	0	55	13076
2026-01-18 03:02:26.97	24.87	6.68	-42.2	-53.6	3.8	8.45e-01	0	57	104	0	55	12979
2026-01-18 03:02:27.98	24.93	6.75	-42.2	-53.5	3.8	8.46e-01	0	57	104	0	55	12945
2026-01-18 03:02:28.99	24.99	6.82	-42.2	-53.6	3.8	8.46e-01	0	57	104	0	55	13051
2026-01-18 03:02:30.00	25.06	6.89	-42.2	-53.6	3.8	8.46e-01	0	57	104	0	55	12994
2026-01-18 03:02:31.01	25.12	6.96	-42.2	-53.5	3.8	8.47e-01	0	57	104	0	55	12857
2026-01-18 03:02:32.02	25.18	7.03	-42.2	-53.3	3.8	8.45e-01	0	57	104	0	55	12620
2026-01-18 03:02:33.03	25.25	7.10	-42.2	-53.3	3.8	8.46e-01	0	57	104	0	55	12657
2026-01-18 03:02:34.04	25.31	7.18	-42.2	-53.3	3.8	8.45e-01	0	57	104	0	55	12536
2026-01-18 03:02:35.05	25.37	7.25	-42.2	-53.2	3.8	8.45e-01	0	57	104	0	55	12418
2026-01-18 03:02:36.06	25.44	7.32	-42.1	-52.3	3.8	8.47e-01	0	57	104	0	55	11254
2026-01-18 03:02:37.07	25.50	7.39	-42.0	-51.2	3.9	8.45e-01	0	57	104	0	54	10448
2026-01-18 03:02:38.08	25.57	7.47	-41.8	-50.1	4.2	8.44e-01	0	57	104	0	54	9266
2026-01-18 03:02:39.10	25.63	7.54	-41.5	-48.9	4.6	8.21e-01	0	57	0	0	54	8008
2026-01-18 03:02:40.11	25.70	7.61	-41.2	-47.3	5.4	7.52e-01	0	57	0	0	53	7075
2026-01-18 03:02:41.12	25.76	7.69	-40.7	-45.8	6.5	2.71e-01	0	57	0	4194304	52	6320
2026-01-18 03:02:42.13	25.83	7.76	-40.2	-44.3	8.0	9.64e-02	0	57	0	11534336	51	5652
2026-01-18 03:02:43.14	25.89	7.83	-39.4	-42.8	9.5	2.93e-02	0	57	0	18874368	49	5326
2026-01-18 03:02:44.15	25.96	7.91	-38.8	-41.8	10.7	5.05e-03	0	57	0	26214400	48	4989
2026-01-18 03:02:45.16	26.03	7.98	-38.0	-40.5	11.8	6.99e-04	0	57	0	33554432	47	4583
2026-01-18 03:02:46.17	26.09	8.05	-37.8	-40.2	12.2	3.23e-04	0	57	0	40894464	46	4675
2026-01-18 03:02:47.18	26.16	8.13	-40.5	-43.9	9.2	4.11e-02	0	57	0	48234496	52	5075
2026-01-18 03:02:48.19	26.23	8.20	-41.0	-49.1	4.4	8.37e-01	0	57	0	52428800	51	9828
2026-01-18 03:02:49.20	26.30	8.28	-39.9	-42.8	10.6	1.75e-03	0	57	0	58720256	49	5280
2026-01-18 03:02:50.21	26.37	8.35	-40.4	-43.6	9.7	3.84e-02	0	57	0	66060288	51	5201
2026-01-18 03:02:51.22	26.43	8.43	-40.6	-44.8	7.8	7.45e-02	0	57	0	73400320	51	5940
2026-01-18 03:02:52.23	26.50	8.50	-38.7	-41.0	12.3	1.85e-04	0	57	0	80740352	48	4551
2026-01-18 03:02:53.24	26.57	8.58	-38.6	-40.9	12.4	1.29e-04	0	57	0	88080384	48	4526
2026-01-18 03:02:54.25	26.64	8.65	-38.9	-41.2	12.1	1.46e-04	0	58	0	95420416	48	4691
2026-01-18 03:02:55.26	26.71	8.73	-38.9	-41.2	12.2	2.54e-04	0	57	0	102760448	48	4687
2026-01-18 03:02:56.27	26.78	8.81	-39.0	-41.4	12.0	2.47e-04	0	58	0	110100480	48	4783
2026-01-18 03:02:57.28	26.85	8.88	-38.6	-40.9	12.6	9.84e-05	0	58	0	117440512	48	4499
2026-01-18 03:02:58.29	26.92	8.96	-38.2	-40.4	13.0	3.66e-05	0	58	0	124780544	47	4496
2026-01-18 03:02:59.30	27.00	9.04	-38.4	-40.6	12.8	3.43e-05	0	58	0	132120576	47	4631
2026-01-18 03:03:00.31	27.07	9.11	-38.6	-40.8	12.7	7.66e-05	0	58	0	139460608	47	4725
2026-01-18 03:03:01.32	27.14	9.19	-38.3	-40.4	13.1	2.97e-05	0	58	0	146800640	47	4510
2026-01-18 03:03:02.34	27.21	9.27	-38.5	-40.7	12.8	2.97e-05	0	57	0	154140672	47	4700
2026-01-18 03:03:03.34	27.29	9.34	-38.4	-40.5	13.0	3.89e-05	0	58	0	160432128	47	4581
2026-01-18 03:03:04.35	27.36	9.42	-38.4	-40.5	13.1	2.05e-05	0	58	0	168820736	47	4566
2026-01-18 03:03:05.36	27.43	9.50	-38.5	-40.6	13.0	4.11e-05	0	58	0	176160768	47	4644
2026-01-18 03:03:06.38	27.51	9.58	-38.3	-40.4	13.3	1.48e-05	0	58	0	182452224	47	4518
2026-01-18 03:03:07.39	27.58	9.66	-38.4	-40.5	13.2	2.05e-05	0	58	0	189792256	47	4583
2026-01-18 03:03:08.40	27.66	9.74	-38.4	-40.4	13.3	1.71e-05	0	58	0	197132288	47	4524
2026-01-18 03:03:09.41	27.73	9.81	-38.4	-40.5	13.3	2.40e-05	0	58	0	204472320	47	4555
2026-01-18 03:03:10.42	27.81	9.89	-38.3	-40.3	13.6	4.50e-06	0	58	0	211812352	47	4450
2026-01-18 03:03:11.43	27.88	9.97	-38.2	-40.1	13.7	5.70e-06	0	58	0	219152384	47	4391
2026-01-18 03:03:12.44	27.96	10.05	-38.4	-40.5	13.4	1.25e-05	0	58	0	226492416	47	4550
2026-01-18 03:03:13.45	28.04	10.13	-38.3	-40.3	13.6	8.00e-06	0	58	0	233832448	47	4450
2026-01-18 03:03:14.46	28.11	10.21	-38.3	-40.2	13.7	6.80e-06	0	58	0	241172480	47	4424
2026-01-18 03:03:15.47	28.19	10.29	-38.4	-40.4	13.6	6.80e-06	0	58	0	248512512	47	4506
2026-01-18 03:03:16.48	28.27	10.37	-38.3	-40.2	13.8	2.20e-06	0	58	0	255852544	47	4411
2026-01-18 03:03:17.49	28.35	10.45	-38.3	-40.2	13.8	6.80e-06	0	58	0	263192576	47	4433
2026-01-18 03:03:18.50	28.42	10.53	-38.4	-40.3	13.8	4.50e-06	0	58	0	270532608	47	4450
2026-01-18 03:03:19.51	28.50	10.61	-38.3	-40.2	13.8	1.10e-06	0	58	0	277872640	47	4434
2026-01-18 03:03:20.52	28.58	10.69	-38.2	-40.1	14.0	1.10e-06	0	58	0	285212672	47	4352
2026-01-18 03:03:21.53	28.66	10.78	-38.3	-40.2	13.9	3.40e-06	0	58	0	292552704	47	4424
2026-01-18 03:03:22.53	28.74	10.86	-38.3	-40.1	14.0	2.20e-06	0	58	0	299892736	47	4380
2026-01-18 03:03:23.55	28.82	10.94	-38.2	-40.0	14.1	2.20e-06	0	58	0	306184192	47	4331
2026-01-18 03:03:24.56	28.91	11.02	-38.4	-40.3	13.9	3.40e-06	0	58	0	314572800	47	4454
2026-01-18 03:03:25.57	28.99	11.10	-38.2	-40.1	14.1	5.70e-06	0	59	0	321912832	47	4357
2026-01-18 03:03:26.57	29.07	11.18	-38.2	-40.0	14.1	1.10e-06	0	58	0	328204288	47	4335
2026-01-18 03:03:27.59	29.15	11.27	-38.1	-39.9	14.2	0.00e+00	0	58	0	335544320	47	4290
2026-01-18 03:03:28.60	29.23	11.35	-38.1	-39.9	14.3	2.20e-06	0	58	0	342884352	47	4277
2026-01-18 03:03:29.61	29.32	11.43	-38.1	-39.9	14.2	2.20e-06	0	59	0	350224384	47	4289
2026-01-18 03:03:30.61	29.40	11.52	-38.2	-40.0	14.2	0.00e+00	0	58	0	357564416	47	4316
2026-01-18 03:03:31.62	29.48	11.60	-38.0	-39.7	14.5	0.00e+00	0	59	0	364904448	46	4419
2026-01-18 03:03:32.63	29.57	11.68	-38.0	-39.7	14.6	1.10e-06	0	58	0	372244480	46	4402
2026-01-18 03:03:33.64	29.65	11.77	-38.1	-39.8	14.5	0.00e+00	0	59	0	379584512	46	4480
2026-01-18 03:03:34.65	29.74	11.85	-38.1	-39.9	14.4	0.00e+00	0	59	0	386924544	46	4502
2026-01-18 03:03:35.66	29.83	11.94	-38.0	-39.7	14.6	0.00e+00	0	59	0	394264576	46	4407
2026-01-18 03:03:36.67	29.91	12.02	-37.9	-39.6	14.8	0.00e+00	0	58	0	401604608	46	4352
2026-01-18 03:03:37.68	30.00	12.11	-38.0	-39.8	14.5	0.00e+00	0	59	0	408944640	46	4450
2026-01-18 03:03:38.69	30.09	12.19	-38.0	-39.7	14.7	0.00e+00	0	59	0	416284672	46	4401
2026-01-18 03:03:39.70	30.18	12.28	-38.0	-39.7	14.6	0.00e+00	0	59	0	423624704	46	4435
2026-01-18 03:03:40.71	30.26	12.36	-38.0	-39.7	14.6	0.00e+00	0	59	0	430964736	46	4414
2026-01-18 03:03:41.72	30.35	12.45	-38.0	-39.7	14.7	0.00e+00	0	59	0	438304768	46	4399
2026-01-18 03:03:42.73	30.44	12.54	-38.0	-39.7	14.7	0.00e+00	0	59	0	445644800	46	4419
2026-01-18 03:03:43.73	30.53	12.62	-38.0	-39.7	14.6	0.00e+00	0	59	0	452984832	46	4435
2026-01-18 03:03:44.75	30.62	12.71	-37.9	-39.5	14.9	0.00e+00	0	59	0	459276288	46	4330
2026-01-18 03:03:45.76	30.71	12.80	-37.9	-39.6	14.8	0.00e+00	0	59	0	467664896	46	4361
2026-01-18 03:03:46.77	30.81	12.88	-37.8	-39.5	14.9	0.00e+00	0	59	0	475004928	46	4295
2026-01-18 03:03:47.78	30.90	12.97	-37.9	-39.6	14.8	0.00e+00	0	59	0	481296384	46	4373
2026-01-18 03:03:48.78	30.99	13.06	-37.9	-39.6	14.8	1.10e-06	0	59	0	488636416	46	4366
2026-01-18 03:03:49.79	31.08	13.14	-37.8	-39.4	15.0	0.00e+00	0	59	0	495976448	46	4283
2026-01-18 03:03:50.80	31.18	13.23	-37.8	-39.4	15.0	0.00e+00	0	59	0	503316480	46	4291
2026-01-18 03:03:51.81	31.27	13.32	-37.9	-39.6	14.8	0.00e+00	0	59	0	510656512	46	4390
2026-01-18 03:03:52.82	31.36	13.41	-37.8	-39.5	15.0	0.00e+00	0	59	0	517996544	46	4301
2026-01-18 03:03:53.83	31.46	13.50	-37.8	-39.5	15.0	0.00e+00	0	59	0	525336576	46	4301
2026-01-18 03:03:54.84	31.56	13.59	-37.8	-39.4	15.0	0.00e+00	0	59	0	532676608	46	4283
2026-01-18 03:03:55.85	31.65	13.68	-37.8	-39.5	14.9	0.00e+00	0	59	0	540016640	46	4310
2026-01-18 03:03:56.86	31.75	13.77	-37.8	-39.4	15.0	0.00e+00	0	59	0	547356672	46	4288
2026-01-18 03:03:57.86	31.85	13.86	-37.7	-39.3	15.1	0.00e+00	0	59	0	554696704	46	4240
2026-01-18 03:03:58.87	31.94	13.95	-37.7	-39.4	15.1	0.00e+00	0	59	0	562036736	46	4255
2026-01-18 03:03:59.89	32.04	14.04	-37.7	-39.3	15.2	0.00e+00	0	59	0	569376768	46	4219
2026-01-18 03:04:00.90	32.14	14.13	-37.7	-39.3	15.3	0.00e+00	0	59	0	576716800	46	4197
2026-01-18 03:04:01.91	32.24	14.22	-37.7	-39.3	15.2	0.00e+00	0	59	0	584056832	46	4217
2026-01-18 03:04:02.92	32.34	14.31	-37.6	-39.2	15.3	0.00e+00	0	59	0	591396864	46	4170
2026-01-18 03:04:03.93	32.44	14.40	-37.6	-39.2	15.3	0.00e+00	0	59	0	598736896	46	4185
2026-01-18 03:04:04.94	32.54	14.50	-37.7	-39.3	15.2	0.00e+00	0	59	0	605028352	46	4204
2026-01-18 03:04:05.95	32.65	14.59	-37.6	-39.2	15.3	0.00e+00	0	59	0	613416960	46	4179
2026-01-18 03:04:06.96	32.75	14.68	-37.7	-39.3	15.2	0.00e+00	0	59	0	620756992	46	4242
2026-01-18 03:04:07.97	32.85	14.77	-37.6	-39.2	15.4	0.00e+00	0	59	0	627048448	46	4171
2026-01-18 03:04:08.98	32.96	14.87	-37.6	-39.1	15.4	0.00e+00	0	59	0	634388480	46	4140
2026-01-18 03:04:09.99	33.06	14.96	-37.7	-39.3	15.3	0.00e+00	0	60	0	641728512	46	4218
2026-01-18 03:04:11.00	33.17	15.05	-37.6	-39.2	15.4	0.00e+00	0	59	0	649068544	46	4175
2026-01-18 03:04:12.01	33.27	15.15	-37.6	-39.2	15.4	0.00e+00	0	59	0	656408576	46	4155
2026-01-18 03:04:13.02	33.38	15.24	-37.7	-39.2	15.3	0.00e+00	0	59	0	663748608	46	4193
2026-01-18 03:04:14.03	33.49	15.34	-37.5	-39.1	15.5	0.00e+00	0	59	0	671088640	45	4355
2026-01-18 03:04:15.04	33.59	15.43	-37.6	-39.1	15.5	0.00e+00	0	59	0	678428672	45	4379
2026-01-18 03:04:16.05	33.70	15.53	-37.5	-39.0	15.6	0.00e+00	0	59	0	685768704	45	4326
2026-01-18 03:04:17.06	33.81	15.62	-37.5	-39.0	15.6	0.00e+00	0	59	0	693108736	45	4328
2026-01-18 03:04:18.07	33.92	15.72	-37.5	-39.0	15.6	0.00e+00	0	59	0	700448768	45	4336
2026-01-18 03:04:19.08	34.03	15.81	-37.4	-38.9	15.7	0.00e+00	0	59	0	707788800	45	4254
2026-01-18 03:04:20.09	34.14	15.91	-37.3	-38.8	15.8	0.00e+00	0	59	0	715128832	45	4225
2026-01-18 03:04:21.10	34.26	16.00	-37.4	-38.9	15.8	0.00e+00	0	59	0	722468864	45	4253
2026-01-18 03:04:22.11	34.37	16.10	-37.5	-39.0	15.6	0.00e+00	0	60	0	729808896	45	4318
2026-01-18 03:04:23.12	34.48	16.20	-37.4	-38.9	15.8	0.00e+00	0	59	0	737148928	45	4250
2026-01-18 03:04:24.13	34.59	16.30	-37.3	-38.7	15.9	0.00e+00	0	59	0	744488960	45	4184
2026-01-18 03:04:25.14	34.71	16.39	-37.2	-38.7	16.0	0.00e+00	0	59	0	751828992	45	4172
2026-01-18 03:04:26.15	34.82	16.49	-37.3	-38.7	15.9	0.00e+00	0	60	0	759169024	45	4189
2026-01-18 03:04:27.16	34.94	16.59	-37.1	-38.6	16.1	0.00e+00	0	60	0	766509056	45	4124
2026-01-18 03:04:28.17	35.06	16.69	-37.2	-38.6	16.1	0.00e+00	0	59	0	773849088	45	4138
2026-01-18 03:04:29.18	35.18	16.79	-37.0	-38.5	16.2	0.00e+00	0	59	0	780140544	45	4062
2026-01-18 03:04:30.19	35.29	16.89	-37.0	-38.5	16.2	0.00e+00	0	59	0	787480576	44	4315
2026-01-18 03:04:31.20	35.41	16.98	-37.0	-38.4	16.3	0.00e+00	0	59	0	795869184	44	4263
2026-01-18 03:04:32.21	35.53	17.08	-36.8	-38.2	16.5	0.00e+00	0	59	0	802160640	44	4180
2026-01-18 03:04:33.22	35.65	17.18	-36.8	-38.2	16.5	0.00e+00	0	59	0	809500672	44	4186
2026-01-18 03:04:34.23	35.77	17.28	-36.8	-38.2	16.5	0.00e+00	0	59	0	816840704	44	4170
2026-01-18 03:04:35.24	35.90	17.38	-36.8	-38.2	16.5	0.00e+00	0	60	0	824180736	44	4156
2026-01-18 03:04:36.25	36.02	17.49	-36.8	-38.2	16.5	0.00e+00	0	60	0	831520768	44	4163
2026-01-18 03:04:37.26	36.14	17.59	-36.8	-38.1	16.6	0.00e+00	0	60	0	838860800	44	4136
2026-01-18 03:04:38.27	36.27	17.69	-36.8	-38.2	16.6	0.00e+00	0	60	0	846200832	44	4158
2026-01-18 03:04:39.28	36.39	17.79	-36.8	-38.1	16.6	0.00e+00	0	59	0	853540864	44	4129
2026-01-18 03:04:40.29	36.52	17.89	-36.8	-38.1	16.6	0.00e+00	0	59	0	860880896	44	4137
2026-01-18 03:04:41.30	36.65	17.99	-36.8	-38.2	16.5	0.00e+00	0	59	0	868220928	44	4174
2026-01-18 03:04:42.31	36.77	18.10	-36.9	-38.3	16.5	0.00e+00	0	59	0	875560960	44	4197
2026-01-18 03:04:43.32	36.90	18.20	-37.0	-38.4	16.3	0.00e+00	0	60	0	882900992	44	4289
2026-01-18 03:04:44.33	37.03	18.30	-37.1	-38.5	16.2	0.00e+00	0	59	0	890241024	44	4327
2026-01-18 03:04:45.34	37.16	18.41	-37.0	-38.5	16.3	0.00e+00	0	60	0	897581056	44	4299
2026-01-18 03:04:46.35	37.29	18.51	-37.0	-38.4	16.4	0.00e+00	0	60	0	903872512	44	4270
2026-01-18 03:04:47.36	37.43	18.61	-37.0	-38.4	16.4	0.00e+00	0	59	0	912261120	44	4257
2026-01-18 03:04:48.37	37.56	18.72	-36.9	-38.3	16.5	0.00e+00	0	60	0	919601152	44	4200
2026-01-18 03:04:49.38	37.69	18.82	-36.9	-38.3	16.5	0.00e+00	0	60	0	925892608	44	4221
2026-01-18 03:04:50.39	37.83	18.93	-36.9	-38.3	16.5	0.00e+00	0	60	0	933232640	44	4208
2026-01-18 03:04:51.40	37.96	19.03	-36.8	-38.1	16.6	0.00e+00	0	60	0	941621248	44	4145
2026-01-18 03:04:52.41	38.10	19.14	-36.8	-38.2	16.6	0.00e+00	0	60	0	947912704	44	4184
2026-01-18 03:04:53.42	38.24	19.24	-36.8	-38.2	16.6	0.00e+00	0	60	0	955252736	44	4174
2026-01-18 03:04:54.43	38.38	19.35	-36.7	-38.1	16.7	0.00e+00	0	60	0	962592768	44	4110
2026-01-18 03:04:55.44	38.52	19.46	-36.6	-38.0	16.8	0.00e+00	0	60	0	969932800	44	4063
2026-01-18 03:04:56.45	38.66	19.56	-36.6	-37.9	16.9	0.00e+00	0	60	0	977272832	44	4030
2026-01-18 03:04:57.46	38.80	19.67	-36.6	-37.9	16.9	0.00e+00	0	60	0	984612864	44	4021
2026-01-18 03:04:58.47	38.94	19.78	-36.2	-37.5	17.2	0.00e+00	0	60	0	991952896	43	4054
2026-01-18 03:04:59.48	39.08	19.88	-36.3	-37.6	17.1	0.00e+00	0	60	0	999292928	43	4107
2026-01-18 03:05:00.49	39.23	19.99	-36.2	-37.5	17.2	0.00e+00	0	60	0	1006632960	43	4058
2026-01-18 03:05:01.50	39.37	20.10	-36.1	-37.4	17.3	0.00e+00	0	60	0	1013972992	43	4024
2026-01-18 03:05:02.51	39.52	20.21	-36.2	-37.5	17.2	0.00e+00	0	60	0	1021313024	43	4073
2026-01-18 03:05:03.52	39.67	20.32	-36.2	-37.5	17.2	0.00e+00	0	60	0	1028653056	43	4081
2026-01-18 03:05:04.53	39.81	20.43	-36.1	-37.4	17.3	0.00e+00	0	60	0	1035993088	43	4037
2026-01-18 03:05:05.54	39.96	20.54	-36.2	-37.5	17.2	0.00e+00	0	60	0	1043333120	43	4061
2026-01-18 03:05:06.55	40.11	20.65	-36.2	-37.5	17.2	0.00e+00	0	60	0	1050673152	43	4064
2026-01-18 03:05:07.56	40.26	20.76	-36.2	-37.5	17.3	0.00e+00	0	60	0	1058013184	43	4057
2026-01-18 03:05:08.57	40.42	20.87	-36.1	-37.4	17.3	0.00e+00	0	60	0	1065353216	43	4037
2026-01-18 03:05:09.58	40.57	20.98	-36.2	-37.5	17.2	0.00e+00	0	60	0	1072693248	43	4069
2026-01-18 03:05:10.59	40.72	21.09	-36.3	-37.6	17.2	0.00e+00	0	60	0	1078984704	43	4107
2026-01-18 03:05:11.60	40.88	21.20	-36.3	-37.6	17.2	0.00e+00	0	60	0	1087373312	43	4111
2026-01-18 03:05:12.61	41.04	21.31	-36.3	-37.6	17.2	0.00e+00	0	60	0	1094713344	43	4106
2026-01-18 03:05:13.62	41.19	21.42	-36.3	-37.6	17.2	0.00e+00	0	60	0	1101004800	43	4113
2026-01-18 03:05:14.63	41.35	21.53	-36.3	-37.6	17.2	0.00e+00	0	60	0	1108344832	43	4100
2026-01-18 03:05:15.64	41.51	21.65	-36.3	-37.6	17.1	0.00e+00	0	60	0	1115684864	43	4138
2026-01-18 03:05:16.64	41.67	21.76	-36.3	-37.6	17.2	0.00e+00	0	60	0	1123024896	43	4100
2026-01-18 03:05:17.65	41.84	21.87	-36.2	-37.5	17.3	0.00e+00	0	60	0	1130364928	43	4061
2026-01-18 03:05:18.66	42.00	21.98	-36.2	-37.5	17.3	0.00e+00	0	60	0	1137704960	43	4064
2026-01-18 03:05:19.67	42.16	22.10	-36.2	-37.5	17.3	0.00e+00	0	60	0	1145044992	43	4069
2026-01-18 03:05:20.68	42.33	22.21	-36.3	-37.6	17.2	0.00e+00	0	60	0	1152385024	43	4105
2026-01-18 03:05:21.69	42.50	22.32	-36.2	-37.5	17.3	0.00e+00	0	60	0	1159725056	43	4084
2026-01-18 03:05:22.70	42.66	22.44	-36.2	-37.5	17.3	0.00e+00	0	60	0	1167065088	43	4072
2026-01-18 03:05:23.71	42.83	22.55	-36.2	-37.5	17.2	0.00e+00	0	60	0	1174405120	43	4086
2026-01-18 03:05:24.72	43.00	22.67	-36.1	-37.4	17.4	0.00e+00	0	60	0	1181745152	43	4006
2026-01-18 03:05:25.73	43.18	22.78	-36.0	-37.3	17.4	0.00e+00	0	60	0	1189085184	43	3985
2026-01-18 03:05:26.74	43.35	22.90	-36.0	-37.3	17.5	0.00e+00	0	60	0	1196425216	42	4211
2026-01-18 03:05:27.75	43.52	23.01	-35.9	-37.1	17.7	0.00e+00	0	60	0	1203765248	42	4126
2026-01-18 03:05:28.76	43.70	23.13	-35.9	-37.1	17.7	0.00e+00	0	60	0	1211105280	42	4123
2026-01-18 03:05:29.77	43.88	23.24	-35.8	-37.1	17.7	0.00e+00	0	60	0	1218445312	42	4099
2026-01-18 03:05:30.78	44.05	23.36	-35.8	-37.1	17.7	0.00e+00	0	60	0	1224736768	42	4099
2026-01-18 03:05:31.79	44.23	23.48	-35.8	-37.1	17.7	0.00e+00	0	60	0	1232076800	42	4108
2026-01-18 03:05:32.80	44.41	23.59	-35.8	-37.0	17.8	0.00e+00	0	60	0	1239416832	42	4082
2026-01-18 03:05:33.80	44.59	23.71	-35.7	-37.0	17.8	0.00e+00	0	60	0	1246756864	42	4055
2026-01-18 03:05:34.81	44.78	23.83	-35.7	-36.9	17.9	0.00e+00	0	60	0	1254096896	42	4017
2026-01-18 03:05:35.82	44.96	23.94	-35.6	-36.8	18.0	0.00e+00	0	60	0	1261436928	42	3999
2026-01-18 03:05:36.83	45.15	24.06	-35.6	-36.8	18.0	0.00e+00	0	60	0	1268776960	42	3991
2026-01-18 03:05:37.84	45.34	24.18	-35.5	-36.7	18.1	0.00e+00	0	60	0	1276116992	41	4159
2026-01-18 03:05:38.85	45.52	24.30	-35.5	-36.7	18.1	0.00e+00	0	60	0	1283457024	41	4160
2026-01-18 03:05:39.86	45.71	24.42	-35.5	-36.7	18.1	0.00e+00	0	60	0	1290797056	41	4163
2026-01-18 03:05:40.87	45.91	24.53	-35.5	-36.6	18.1	0.00e+00	0	60	0	1298137088	41	4139
2026-01-18 03:05:41.88	46.10	24.65	-35.6	-36.8	18.0	0.00e+00	0	61	0	1305477120	41	4222
2026-01-18 03:05:42.89	46.29	24.77	-35.5	-36.7	18.1	0.00e+00	0	60	0	1312817152	41	4158
2026-01-18 03:05:43.90	46.49	24.89	-35.6	-36.8	18.0	0.00e+00	0	60	0	1320157184	41	4209
2026-01-18 03:05:44.91	46.69	25.01	-35.6	-36.8	18.0	0.00e+00	0	61	0	1327497216	41	4209
2026-01-18 03:05:45.92	46.89	25.13	-35.7	-36.9	17.9	0.00e+00	0	60	0	1334837248	41	4259
2026-01-18 03:05:46.93	47.09	25.25	-35.7	-37.0	17.9	0.00e+00	0	60	0	1342177280	41	4294
2026-01-18 03:05:47.94	47.29	25.37	-35.7	-36.9	17.9	0.00e+00	0	61	0	1349517312	41	4284
2026-01-18 03:05:48.95	47.49	25.49	-35.6	-36.8	18.0	0.00e+00	0	61	0	1356857344	41	4231
2026-01-18 03:05:49.96	47.70	25.61	-35.7	-36.9	18.0	0.00e+00	0	60	0	1364197376	41	4271
2026-01-18 03:05:50.97	47.90	25.73	-35.6	-36.8	18.0	0.00e+00	0	60	0	1371537408	41	4231
2026-01-18 03:05:51.98	48.11	25.85	-35.6	-36.8	18.0	0.00e+00	0	60	0	1377828864	41	4235
2026-01-18 03:05:52.99	48.32	25.97	-35.7	-36.9	17.9	0.00e+00	0	60	0	1385168896	41	4256
2026-01-18 03:05:54.00	48.53	26.09	-35.7	-36.9	18.0	0.00e+00	0	60	0	1393557504	41	4249
2026-01-18 03:05:55.01	48.74	26.21	-35.7	-36.9	17.9	0.00e+00	0	60	0	1399848960	41	4260
2026-01-18 03:05:56.02	48.96	26.34	-35.6	-36.8	18.0	0.00e+00	0	60	0	1407188992	41	4201
2026-01-18 03:05:57.03	49.17	26.46	-35.6	-36.8	18.0	0.00e+00	0	60	0	1414529024	41	4220
2026-01-18 03:05:58.04	49.39	26.58	-35.5	-36.6	18.2	0.00e+00	0	61	0	1421869056	41	4141
2026-01-18 03:05:59.05	49.61	26.70	-35.4	-36.6	18.2	0.00e+00	0	61	0	1429209088	41	4121
2026-01-18 03:06:00.07	49.83	26.82	-35.4	-36.5	18.3	0.00e+00	0	60	0	1436549120	41	4076
2026-01-18 03:06:01.08	50.06	26.94	-35.4	-36.5	18.3	0.00e+00	0	61	0	1443889152	41	4094
2026-01-18 03:06:02.09	50.28	27.07	-35.5	-36.6	18.2	0.00e+00	0	60	0	1451229184	41	4142
2026-01-18 03:06:03.10	50.51	27.19	-35.4	-36.6	18.3	0.00e+00	0	60	0	1458569216	41	4115
2026-01-18 03:06:04.11	50.73	27.31	-35.4	-36.6	18.3	0.00e+00	0	60	0	1465909248	41	4109
2026-01-18 03:06:05.12	50.96	27.43	-35.4	-36.6	18.3	0.00e+00	0	60	0	1473249280	41	4108
2026-01-18 03:06:06.13	51.19	27.55	-35.3	-36.5	18.4	0.00e+00	0	61	0	1480589312	41	4070
2026-01-18 03:06:07.14	51.43	27.68	-35.4	-36.6	18.3	0.00e+00	0	60	0	1487929344	41	4104
2026-01-18 03:06:08.15	51.66	27.80	-35.3	-36.4	18.5	0.00e+00	0	61	0	1495269376	41	4038
2026-01-18 03:06:09.16	51.90	27.92	-35.4	-36.6	18.3	0.00e+00	0	60	0	1502609408	41	4112
2026-01-18 03:06:10.17	52.14	28.04	-35.4	-36.5	18.4	0.00e+00	0	61	0	1509949440	41	4084
2026-01-18 03:06:11.18	52.38	28.17	-35.3	-36.5	18.4	0.00e+00	0	61	0	1517289472	41	4056
2026-01-18 03:06:12.18	52.61	28.29	-35.3	-36.5	18.4	0.00e+00	0	60	0	1524629504	41	4061
2026-01-18 03:06:13.20	52.86	28.41	-35.3	-36.5	18.4	0.00e+00	0	61	0	1530920960	41	4076
2026-01-18 03:06:14.21	53.11	28.53	-35.3	-36.5	18.4	0.00e+00	0	61	0	1539309568	41	4072
2026-01-18 03:06:15.22	53.35	28.66	-35.2	-36.4	18.5	0.00e+00	0	61	0	1546649600	41	4015
2026-01-18 03:06:16.22	53.60	28.78	-35.2	-36.3	18.5	0.00e+00	0	61	0	1552941056	41	3998
2026-01-18 03:06:17.23	53.85	28.90	-35.2	-36.4	18.5	0.00e+00	0	61	0	1560281088	41	4019
2026-01-18 03:06:18.24	54.10	29.02	-35.2	-36.3	18.6	0.00e+00	0	61	0	1567621120	41	3982
2026-01-18 03:06:19.26	54.36	29.15	-35.3	-36.4	18.5	0.00e+00	0	60	0	1574961152	41	4042
2026-01-18 03:06:20.26	54.61	29.27	-35.3	-36.5	18.5	0.00e+00	0	61	0	1582301184	41	4055
2026-01-18 03:06:21.27	54.87	29.39	-35.3	-36.5	18.4	0.00e+00	0	60	0	1589641216	41	4070
2026-01-18 03:06:22.28	55.13	29.51	-35.3	-36.4	18.5	0.00e+00	0	61	0	1596981248	41	4032
2026-01-18 03:06:23.29	55.40	29.63	-35.3	-36.5	18.5	0.00e+00	0	60	0	1604321280	41	4055
2026-01-18 03:06:24.30	55.66	29.75	-35.3	-36.5	18.5	0.00e+00	0	61	0	1611661312	41	4054
2026-01-18 03:06:25.31	55.93	29.88	-35.4	-36.5	18.4	0.00e+00	0	61	0	1619001344	41	4093
2026-01-18 03:06:26.32	56.19	30.00	-35.4	-36.6	18.4	0.00e+00	0	61	0	1626341376	41	4102
2026-01-18 03:06:27.33	56.46	30.12	-35.4	-36.6	18.4	0.00e+00	0	61	0	1633681408	41	4114
2026-01-18 03:06:28.33	56.73	30.24	-35.4	-36.6	18.3	0.00e+00	0	61	0	1641021440	41	4112
2026-01-18 03:06:29.34	57.01	30.36	-35.3	-36.4	18.5	0.00e+00	0	61	0	1648361472	41	4029
2026-01-18 03:06:30.35	57.28	30.48	-35.4	-36.6	18.4	0.00e+00	0	61	0	1655701504	41	4104
2026-01-18 03:06:31.36	57.56	30.60	-35.3	-36.4	18.5	0.00e+00	0	61	0	1663041536	41	4042
2026-01-18 03:06:32.37	57.84	30.72	-35.3	-36.4	18.5	0.00e+00	0	61	0	1670381568	41	4044
2026-01-18 03:06:33.38	58.13	30.84	-35.3	-36.5	18.5	0.00e+00	0	61	0	1676673024	41	4052
2026-01-18 03:06:34.39	58.41	30.96	-35.4	-36.5	18.4	0.00e+00	0	61	0	1684013056	41	4077
2026-01-18 03:06:35.40	58.70	31.08	-35.4	-36.6	18.3	0.00e+00	0	61	0	1692401664	41	4117
2026-01-18 03:06:36.41	58.99	31.20	-35.3	-36.4	18.5	0.00e+00	0	61	0	1698693120	41	4046
2026-01-18 03:06:37.42	59.28	31.32	-35.3	-36.4	18.5	0.00e+00	0	61	0	1706033152	41	4035
2026-01-18 03:06:38.43	59.57	31.44	-35.1	-36.3	18.7	0.00e+00	0	61	0	1713373184	41	3964
2026-01-18 03:06:39.44	59.87	31.56	-35.1	-36.3	18.7	0.00e+00	0	61	0	1720713216	41	3968
2026-01-18 03:06:40.45	60.16	31.68	-35.2	-36.3	18.7	0.00e+00	0	61	0	1728053248	41	3976
2026-01-18 03:06:41.46	60.46	31.79	-35.2	-36.3	18.7	0.00e+00	0	61	0	1735393280	41	3983
2026-01-18 03:06:42.47	60.76	31.91	-35.2	-36.3	18.6	0.00e+00	0	61	0	1742733312	41	3983
2026-01-18 03:06:43.48	61.07	32.03	-35.3	-36.4	18.5	0.00e+00	0	61	0	1750073344	41	4025
2026-01-18 03:06:44.49	61.37	32.14	-35.3	-36.4	18.6	0.00e+00	0	61	0	1757413376	41	4034
2026-01-18 03:06:45.50	61.68	32.26	-35.1	-36.3	18.7	0.00e+00	0	61	0	1764753408	41	3971
2026-01-18 03:06:46.51	61.99	32.38	-35.2	-36.4	18.6	0.00e+00	0	61	0	1772093440	41	4008
2026-01-18 03:06:47.52	62.30	32.49	-35.2	-36.3	18.6	0.00e+00	0	61	0	1779433472	41	3997
2026-01-18 03:06:48.53	62.62	32.61	-35.2	-36.3	18.6	0.00e+00	0	61	0	1786773504	41	3992
2026-01-18 03:06:49.54	62.94	32.72	-35.3	-36.4	18.5	0.00e+00	0	61	0	1794113536	41	4047
2026-01-18 03:06:50.55	63.25	32.83	-35.4	-36.5	18.5	0.00e+00	0	61	0	1801453568	41	4088
2026-01-18 03:06:51.56	63.58	32.95	-35.4	-36.6	18.4	0.00e+00	0	61	0	1808793600	41	4126
2026-01-18 03:06:52.57	63.90	33.06	-35.4	-36.6	18.4	0.00e+00	0	61	0	1816133632	41	4108
2026-01-18 03:06:53.59	64.23	33.17	-35.4	-36.6	18.4	0.00e+00	0	60	0	1823473664	41	4106
2026-01-18 03:06:54.59	64.55	33.28	-35.4	-36.5	18.5	0.00e+00	0	61	0	1829765120	41	4076
2026-01-18 03:06:55.60	64.88	33.39	-35.4	-36.5	18.4	0.00e+00	0	61	0	1838153728	41	4089
2026-01-18 03:06:56.61	65.21	33.50	-35.2	-36.3	18.7	0.00e+00	0	61	0	1845493760	41	3995
2026-01-18 03:06:57.62	65.55	33.61	-35.2	-36.3	18.7	0.00e+00	0	61	0	1851785216	41	4004
2026-01-18 03:06:58.63	65.89	33.72	-35.2	-36.3	18.7	0.00e+00	0	61	0	1859125248	41	3994
2026-01-18 03:06:59.64	66.23	33.83	-35.2	-36.3	18.7	0.00e+00	0	61	0	1866465280	41	3995
2026-01-18 03:07:00.65	66.57	33.94	-35.1	-36.3	18.7	0.00e+00	0	61	0	1873805312	41	3966
2026-01-18 03:07:01.66	66.91	34.04	-35.2	-36.3	18.7	0.00e+00	0	61	0	1881145344	40	4216
2026-01-18 03:07:02.66	67.25	34.15	-35.3	-36.4	18.6	0.00e+00	0	61	0	1888485376	40	4280
2026-01-18 03:07:03.67	67.60	34.25	-35.4	-36.6	18.4	0.00e+00	0	61	0	1895825408	40	4366
2026-01-18 03:07:04.69	67.95	34.36	-35.5	-36.6	18.4	0.00e+00	0	61	0	1903165440	40	4370
2026-01-18 03:07:05.70	68.31	34.46	-35.4	-36.5	18.5	0.00e+00	0	61	0	1910505472	40	4331
2026-01-18 03:07:06.71	68.66	34.57	-35.3	-36.4	18.6	0.00e+00	0	61	0	1917845504	40	4291
2026-01-18 03:07:07.71	69.01	34.67	-35.2	-36.3	18.7	0.00e+00	0	61	0	1925185536	40	4235
2026-01-18 03:07:08.72	69.37	34.77	-35.2	-36.3	18.7	0.00e+00	0	61	0	1932525568	40	4211
2026-01-18 03:07:09.73	69.73	34.87	-35.1	-36.2	18.8	0.00e+00	0	61	0	1939865600	40	4170
2026-01-18 03:07:10.74	70.10	34.97	-35.3	-36.4	18.7	0.00e+00	0	61	0	1947205632	40	4267
2026-01-18 03:07:11.75	70.46	35.06	-35.4	-36.6	18.5	0.00e+00	0	61	0	1954545664	40	4352
2026-01-18 03:07:12.77	70.83	35.16	-35.5	-36.6	18.4	0.00e+00	0	61	0	1961885696	40	4374
2026-01-18 03:07:13.78	71.20	35.26	-35.5	-36.6	18.4	0.00e+00	0	61	0	1969225728	40	4384
2026-01-18 03:07:14.79	71.58	35.35	-35.4	-36.6	18.5	0.00e+00	0	61	0	1975517184	40	4350
2026-01-18 03:07:15.80	71.95	35.45	-35.5	-36.7	18.4	0.00e+00	0	61	0	1982857216	40	4405
2026-01-18 03:07:16.81	72.33	35.54	-35.5	-36.7	18.3	0.00e+00	0	61	0	1991245824	40	4425
2026-01-18 03:07:17.82	72.71	35.63	-35.4	-36.6	18.5	0.00e+00	0	61	0	1997537280	40	4346
2026-01-18 03:07:18.83	73.09	35.72	-35.2	-36.4	18.7	0.00e+00	0	61	0	2004877312	40	4247
2026-01-18 03:07:19.84	73.47	35.81	-35.2	-36.3	18.7	0.00e+00	0	61	0	2012217344	40	4229
2026-01-18 03:07:20.85	73.85	35.90	-35.2	-36.3	18.8	0.00e+00	0	61	0	2019557376	40	4205
2026-01-18 03:07:21.86	74.24	35.99	-35.2	-36.3	18.8	0.00e+00	0	61	0	2026897408	40	4196
2026-01-18 03:07:22.87	74.63	36.07	-35.3	-36.5	18.6	0.00e+00	0	61	0	2034237440	40	4295
2026-01-18 03:07:23.88	75.02	36.16	-35.3	-36.4	18.6	0.00e+00	0	61	0	2041577472	40	4267
2026-01-18 03:07:24.89	75.41	36.24	-35.2	-36.3	18.7	0.00e+00	0	61	0	2048917504	40	4231
2026-01-18 03:07:25.90	75.81	36.33	-35.2	-36.3	18.7	0.00e+00	0	61	0	2056257536	40	4221
2026-01-18 03:07:26.91	76.20	36.41	-35.2	-36.3	18.8	0.00e+00	0	61	0	2063597568	40	4216
2026-01-18 03:07:27.92	76.60	36.49	-35.1	-36.2	18.9	0.00e+00	0	61	0	2070937600	40	4162
2026-01-18 03:07:28.93	77.00	36.56	-35.1	-36.2	18.8	0.00e+00	0	61	0	2078277632	40	4155
2026-01-18 03:07:29.95	77.41	36.64	-35.0	-36.1	19.0	0.00e+00	0	61	0	2085617664	40	4107
2026-01-18 03:07:30.96	77.82	36.72	-34.9	-36.0	19.0	0.00e+00	0	61	0	2092957696	40	4087
2026-01-18 03:07:31.97	78.22	36.79	-35.0	-36.1	19.0	0.00e+00	0	61	0	2100297728	40	4110
2026-01-18 03:07:32.98	78.63	36.87	-35.0	-36.1	19.0	0.00e+00	0	61	0	2107637760	40	4125
2026-01-18 03:07:33.99	79.04	36.94	-35.1	-36.2	18.9	0.00e+00	0	61	0	2114977792	40	4171
2026-01-18 03:07:35.00	79.45	37.01	-40.9	-43.4	13.9	0.00e+00	0	61	0	2122317824	46	6748
2026-01-18 03:07:36.01	79.86	37.07	-35.6	-36.8	18.5	0.00e+00	0	61	0	2129657856	42	3984
2026-01-18 03:07:37.02	80.28	37.14	-35.6	-36.7	18.3	0.00e+00	0	61	0	2136997888	42	3956
2026-01-18 03:07:38.03	80.70	37.21	-35.6	-36.7	18.3	0.00e+00	0	61	0	2144337920	42	3958
2026-01-18 03:07:39.04	81.12	37.27	-35.5	-36.6	18.4	0.00e+00	0	61	0	2150629376	42	3908
2026-01-18 03:07:40.04	81.53	37.33	-35.4	-36.5	18.6	0.00e+00	0	61	0	2157969408	41	4087
2026-01-18 03:07:41.05	81.95	37.39	-35.3	-36.4	18.6	0.00e+00	0	61	0	2166358016	41	4046
2026-01-18 03:07:42.06	82.38	37.45	-35.4	-36.6	18.5	0.00e+00	0	61	0	2172649472	41	4101
2026-01-18 03:07:43.07	82.80	37.51	-35.5	-36.6	18.4	0.00e+00	0	61	0	2179989504	41	4139
2026-01-18 03:07:44.08	83.23	37.57	-35.4	-36.5	18.6	0.00e+00	0	61	0	2187329536	41	4092
2026-01-18 03:07:45.09	83.66	37.62	-35.4	-36.5	18.6	0.00e+00	0	61	0	2194669568	41	4079
2026-01-18 03:07:46.10	84.08	37.67	-35.2	-36.4	18.7	0.00e+00	0	61	0	2202009600	41	4008
2026-01-18 03:07:47.11	84.52	37.72	-35.2	-36.3	18.8	0.00e+00	0	61	0	2209349632	41	3995
2026-01-18 03:07:48.12	84.95	37.77	-35.2	-36.3	18.8	0.00e+00	0	61	0	2216689664	41	3971
2026-01-18 03:07:49.13	85.38	37.82	-35.1	-36.1	18.9	0.00e+00	0	61	0	2224029696	41	3911
2026-01-18 03:07:50.14	85.81	37.86	-35.1	-36.2	18.8	0.00e+00	0	61	0	2231369728	41	3947
2026-01-18 03:07:51.15	86.25	37.91	-35.1	-36.2	18.9	0.00e+00	0	61	0	2238709760	41	3936
2026-01-18 03:07:52.16	86.69	37.95	-35.2	-36.3	18.8	0.00e+00	0	61	0	2246049792	41	3963
2026-01-18 03:07:53.17	87.12	37.99	-35.2	-36.3	18.8	0.00e+00	0	61	0	2253389824	41	3962
2026-01-18 03:07:54.18	87.56	38.03	-35.3	-36.4	18.7	0.00e+00	0	61	0	2260729856	41	4018
2026-01-18 03:07:55.19	88.00	38.07	-35.2	-36.3	18.8	0.00e+00	0	61	0	2268069888	41	4000
2026-01-18 03:07:56.20	88.44	38.10	-35.1	-36.2	18.9	0.00e+00	0	61	0	2275409920	41	3932
2026-01-18 03:07:57.21	88.89	38.13	-34.9	-36.0	19.1	0.00e+00	0	61	0	2282749952	40	4058
2026-01-18 03:07:58.22	89.33	38.16	-34.9	-36.0	19.1	0.00e+00	0	61	0	2290089984	40	4059
2026-01-18 03:07:59.23	89.77	38.19	-35.0	-36.0	19.0	0.00e+00	0	61	0	2296381440	40	4089
2026-01-18 03:08:00.24	90.22	38.22	-35.1	-36.2	18.9	0.00e+00	0	61	0	2303721472	40	4193
2026-01-18 03:08:01.25	90.66	38.25	-35.1	-36.3	18.8	0.00e+00	0	61	0	2312110080	40	4197
2026-01-18 03:08:02.26	91.11	38.27	-35.2	-36.3	18.7	0.00e+00	0	61	0	2318401536	40	4235
2026-01-18 03:08:03.27	91.55	38.29	-35.2	-36.3	18.8	0.00e+00	0	61	0	2325741568	40	4215
2026-01-18 03:08:04.28	92.00	38.31	-35.2	-36.3	18.8	0.00e+00	0	61	0	2333081600	40	4203
2026-01-18 03:08:05.29	92.45	38.33	-35.2	-36.3	18.8	0.00e+00	0	61	0	2340421632	40	4226
2026-01-18 03:08:06.29	92.89	38.35	-35.2	-36.3	18.7	0.00e+00	0	61	0	2347761664	40	4236
2026-01-18 03:08:07.30	93.34	38.36	-35.3	-36.4	18.7	0.00e+00	0	61	0	2355101696	40	4275
2026-01-18 03:08:08.32	93.79	38.37	-35.3	-36.5	18.6	0.00e+00	0	61	0	2362441728	40	4293
2026-01-18 03:08:09.32	94.24	38.38	-35.3	-36.4	18.7	0.00e+00	0	61	0	2369781760	40	4290
2026-01-18 03:08:10.33	94.68	38.39	-35.3	-36.4	18.7	0.00e+00	0	61	0	2377121792	40	4252
2026-01-18 03:08:11.34	95.13	38.40	-35.3	-36.4	18.7	0.00e+00	0	61	0	2384461824	40	4273
2026-01-18 03:08:12.36	95.59	38.40	-35.3	-36.4	18.7	0.00e+00	0	61	0	2391801856	40	4277
2026-01-18 03:08:13.37	96.04	38.40	-35.3	-36.4	18.7	0.00e+00	0	61	0	2399141888	40	4269
2026-01-18 03:08:14.37	96.48	38.40	-35.2	-36.3	18.8	0.00e+00	0	61	0	2406481920	40	4201
2026-01-18 03:08:15.38	96.93	38.40	-35.1	-36.2	18.9	0.00e+00	0	61	0	2413821952	40	4155
2026-01-18 03:08:16.39	97.38	38.40	-35.0	-36.1	19.0	0.00e+00	0	61	0	2421161984	40	4131
2026-01-18 03:08:17.40	97.83	38.39	-35.0	-36.1	19.0	0.00e+00	0	61	0	2428502016	40	4112
2026-01-18 03:08:18.41	98.28	38.39	-35.0	-36.1	19.0	0.00e+00	0	61	0	2435842048	40	4138
2026-01-18 03:08:19.42	98.73	38.38	-35.1	-36.2	18.9	0.00e+00	0	61	0	2443182080	40	4152
2026-01-18 03:08:20.43	99.18	38.37	-35.2	-36.3	18.7	0.00e+00	0	61	0	2449473536	40	4223
2026-01-18 03:08:21.44	99.63	38.35	-35.3	-36.4	18.7	0.00e+00	0	61	0	2456813568	40	4254
2026-01-18 03:08:22.45	100.08	38.34	-35.2	-36.4	18.7	0.00e+00	0	61	0	2464153600	40	4256
2026-01-18 03:08:23.46	100.52	38.32	-35.2	-36.3	18.8	0.00e+00	0	61	0	2471493632	40	4214
2026-01-18 03:08:24.47	100.97	38.30	-35.1	-36.2	18.9	0.00e+00	0	61	0	2478833664	40	4186
2026-01-18 03:08:25.48	101.42	38.28	-35.1	-36.2	18.8	0.00e+00	0	61	0	2486173696	40	4176
2026-01-18 03:08:26.49	101.86	38.26	-35.3	-36.4	18.7	0.00e+00	0	61	0	2493513728	40	4255
2026-01-18 03:08:27.50	102.31	38.23	-35.4	-36.6	18.5	0.00e+00	0	61	0	2500853760	40	4343
2026-01-18 03:08:28.51	102.76	38.21	-35.6	-36.8	18.4	0.00e+00	0	61	0	2508193792	40	4442
2026-01-18 03:08:29.52	103.20	38.18	-35.6	-36.8	18.3	0.00e+00	0	61	0	2515533824	40	4484
2026-01-18 03:08:30.53	103.64	38.15	-35.5	-36.7	18.4	0.00e+00	0	61	0	2522873856	40	4406
2026-01-18 03:08:31.54	104.09	38.12	-35.4	-36.5	18.6	0.00e+00	0	61	0	2530213888	40	4309
2026-01-18 03:08:32.55	104.53	38.08	-35.3	-36.4	18.7	0.00e+00	0	61	0	2537553920	40	4263
2026-01-18 03:08:33.56	104.97	38.05	-35.3	-36.4	18.7	0.00e+00	0	61	0	2544893952	40	4260
2026-01-18 03:08:34.57	105.41	38.01	-35.3	-36.4	18.6	0.00e+00	0	61	0	2552233984	40	4282
2026-01-18 03:08:35.58	105.85	37.97	-35.4	-36.5	18.6	0.00e+00	0	61	0	2559574016	40	4340
2026-01-18 03:08:36.59	106.28	37.93	-35.5	-36.6	18.5	0.00e+00	0	61	0	2566914048	40	4387
2026-01-18 03:08:37.60	106.72	37.89	-35.6	-36.8	18.4	0.00e+00	0	61	0	2574254080	40	4447
2026-01-18 03:08:38.61	107.16	37.84	-35.5	-36.7	18.5	0.00e+00	0	61	0	2581594112	40	4406
2026-01-18 03:08:39.62	107.59	37.80	-35.4	-36.6	18.6	0.00e+00	0	61	0	2588934144	40	4347
2026-01-18 03:08:40.63	108.02	37.75	-35.4	-36.6	18.5	0.00e+00	0	61	0	2595225600	40	4352
2026-01-18 03:08:41.64	108.46	37.70	-35.3	-36.5	18.7	0.00e+00	0	61	0	2602565632	40	4292
2026-01-18 03:08:42.65	108.89	37.65	-35.4	-36.5	18.6	0.00e+00	0	61	0	2610954240	40	4319
2026-01-18 03:08:43.66	109.32	37.59	-35.4	-36.5	18.4	0.00e+00	0	61	0	2617245696	40	4327
2026-01-18 03:08:44.67	109.74	37.54	-35.5	-36.6	18.4	0.00e+00	0	61	0	2624585728	40	4391
2026-01-18 03:08:45.68	110.17	37.48	-35.5	-36.7	18.4	0.00e+00	0	61	0	2631925760	40	4395
2026-01-18 03:08:46.69	110.60	37.42	-35.5	-36.6	18.5	0.00e+00	0	61	0	2639265792	40	4368
2026-01-18 03:08:47.70	111.02	37.36	-35.4	-36.5	18.6	0.00e+00	0	61	0	2646605824	40	4333
2026-01-18 03:08:48.71	111.44	37.30	-35.2	-36.3	18.8	0.00e+00	0	61	0	2653945856	40	4216
2026-01-18 03:08:49.72	111.86	37.24	-35.1	-36.2	18.9	0.00e+00	0	61	0	2661285888	40	4158
2026-01-18 03:08:50.73	112.28	37.17	-35.1	-36.1	18.9	0.00e+00	0	61	0	2668625920	40	4141
2026-01-18 03:08:51.74	112.70	37.11	-35.0	-36.1	19.0	0.00e+00	0	61	0	2675965952	40	4115
2026-01-18 03:08:52.75	113.11	37.04	-35.0	-36.1	18.9	0.00e+00	0	61	0	2683305984	40	4130
2026-01-18 03:08:53.76	113.53	36.97	-35.1	-36.2	18.9	0.00e+00	0	61	0	2690646016	40	4176
2026-01-18 03:08:54.77	113.94	36.90	-35.2	-36.3	18.7	0.00e+00	0	61	0	2697986048	40	4238
2026-01-18 03:08:55.78	114.35	36.83	-35.4	-36.5	18.6	0.00e+00	0	61	0	2705326080	40	4308
2026-01-18 03:08:56.79	114.76	36.75	-35.4	-36.6	18.5	0.00e+00	0	61	0	2712666112	40	4342
2026-01-18 03:08:57.80	115.16	36.68	-35.4	-36.6	18.5	0.00e+00	0	61	0	2720006144	40	4360
2026-01-18 03:08:58.81	115.57	36.60	-35.4	-36.6	18.5	0.00e+00	0	61	0	2727346176	40	4359
2026-01-18 03:08:59.82	115.97	36.52	-35.4	-36.6	18.5	0.00e+00	0	61	0	2734686208	40	4346
2026-01-18 03:09:00.83	116.37	36.44	-35.5	-36.6	18.4	0.00e+00	0	61	0	2742026240	40	4374
2026-01-18 03:09:01.84	116.77	36.36	-35.5	-36.6	18.4	0.00e+00	0	62	0	2748317696	40	4380
2026-01-18 03:09:02.84	117.16	36.28	-35.4	-36.5	18.5	0.00e+00	0	61	0	2755657728	40	4326
2026-01-18 03:09:03.85	117.56	36.20	-35.4	-36.5	18.5	0.00e+00	0	61	0	2764046336	40	4338
2026-01-18 03:09:04.86	117.95	36.11	-35.4	-36.6	18.4	0.00e+00	0	61	0	2770337792	40	4346
2026-01-18 03:09:05.87	118.34	36.03	-35.4	-36.5	18.6	0.00e+00	0	61	0	2777677824	40	4325
2026-01-18 03:09:06.89	118.73	35.94	-35.2	-36.3	18.7	0.00e+00	0	61	0	2785017856	40	4242
2026-01-18 03:09:07.89	119.12	35.85	-35.1	-36.2	18.8	0.00e+00	0	61	0	2792357888	40	4188
2026-01-18 03:09:08.90	119.50	35.76	-35.0	-36.1	18.9	0.00e+00	0	61	0	2799697920	40	4139
2026-01-18 03:09:09.91	119.88	35.67	-35.2	-36.3	18.8	0.00e+00	0	61	0	2807037952	40	4207
2026-01-18 03:09:10.92	120.26	35.58	-35.3	-36.4	18.7	0.00e+00	0	61	0	2814377984	40	4265
2026-01-18 03:09:11.93	120.64	35.49	-35.4	-36.6	18.4	0.00e+00	0	61	0	2821718016	40	4355
2026-01-18 03:09:12.94	121.02	35.39	-35.4	-36.5	18.5	0.00e+00	0	61	0	2829058048	40	4312
2026-01-18 03:09:13.95	121.39	35.30	-35.3	-36.4	18.6	0.00e+00	0	61	0	2836398080	40	4288
2026-01-18 03:09:14.96	121.77	35.20	-35.4	-36.5	18.5	0.00e+00	0	61	0	2843738112	40	4332
2026-01-18 03:09:15.97	122.14	35.11	-35.3	-36.4	18.6	0.00e+00	0	61	0	2851078144	40	4289
2026-01-18 03:09:16.98	122.50	35.01	-35.3	-36.4	18.6	0.00e+00	0	61	0	2858418176	40	4268
2026-01-18 03:09:17.99	122.87	34.91	-35.3	-36.4	18.7	0.00e+00	0	61	0	2865758208	40	4270
2026-01-18 03:09:19.00	123.23	34.81	-35.3	-36.5	18.6	0.00e+00	0	61	0	2873098240	40	4296
2026-01-18 03:09:20.01	123.59	34.71	-35.4	-36.5	18.5	0.00e+00	0	61	0	2880438272	40	4311
2026-01-18 03:09:21.02	123.95	34.61	-35.3	-36.5	18.6	0.00e+00	0	61	0	2887778304	40	4303
2026-01-18 03:09:22.03	124.31	34.50	-35.3	-36.4	18.7	0.00e+00	0	61	0	2894069760	40	4272
2026-01-18 03:09:23.04	124.66	34.40	-35.3	-36.4	18.6	0.00e+00	0	61	0	2901409792	40	4252
2026-01-18 03:09:24.05	125.02	34.30	-35.2	-36.3	18.7	0.00e+00	0	61	0	2909798400	40	4224
2026-01-18 03:09:25.06	125.37	34.19	-35.2	-36.3	18.7	0.00e+00	0	61	0	2916089856	40	4222
2026-01-18 03:09:26.07	125.72	34.08	-35.2	-36.3	18.7	0.00e+00	0	61	0	2923429888	40	4226
2026-01-18 03:09:27.08	126.06	33.98	-35.2	-36.4	18.7	0.00e+00	0	61	0	2930769920	40	4251
2026-01-18 03:09:28.09	126.40	33.87	-35.2	-36.4	18.7	0.00e+00	0	61	0	2938109952	40	4251
2026-01-18 03:09:29.10	126.75	33.76	-35.3	-36.4	18.6	0.00e+00	0	61	0	2945449984	40	4270
2026-01-18 03:09:30.11	127.09	33.65	-35.3	-36.5	18.6	0.00e+00	0	61	0	2952790016	40	4298
2026-01-18 03:09:31.12	127.42	33.54	-35.4	-36.5	18.5	0.00e+00	0	61	0	2960130048	40	4317
2026-01-18 03:09:32.13	127.76	33.43	-35.5	-36.7	18.3	0.00e+00	0	61	0	2967470080	40	4425
2026-01-18 03:09:33.14	128.09	33.32	-35.7	-36.9	18.1	0.00e+00	0	61	0	2974810112	40	4494
2026-01-18 03:09:34.15	128.42	33.21	-35.6	-36.7	18.3	0.00e+00	0	61	0	2982150144	41	4183
2026-01-18 03:09:35.16	128.75	33.10	-35.5	-36.7	18.3	0.00e+00	0	61	0	2989490176	41	4162
2026-01-18 03:09:36.17	129.07	32.98	-35.4	-36.6	18.5	0.00e+00	0	61	0	2996830208	41	4111
2026-01-18 03:09:37.18	129.40	32.87	-35.3	-36.4	18.6	0.00e+00	0	61	0	3004170240	41	4041
2026-01-18 03:09:38.19	129.72	32.76	-35.3	-36.4	18.7	0.00e+00	0	61	0	3011510272	41	4024
2026-01-18 03:09:39.20	130.04	32.64	-35.3	-36.4	18.7	0.00e+00	0	61	0	3018850304	41	4014
2026-01-18 03:09:40.21	130.35	32.53	-35.4	-36.5	18.5	0.00e+00	0	61	0	3026190336	41	4065
2026-01-18 03:09:41.22	130.67	32.41	-35.4	-36.5	18.5	0.00e+00	0	61	0	3033530368	41	4084
2026-01-18 03:09:42.23	130.98	32.29	-35.4	-36.5	18.5	0.00e+00	0	61	0	3040870400	41	4078
2026-01-18 03:09:43.24	131.29	32.18	-35.4	-36.5	18.5	0.00e+00	0	61	0	3047161856	41	4071
2026-01-18 03:09:44.24	131.60	32.06	-35.4	-36.6	18.4	0.00e+00	0	62	0	3054501888	41	4105
2026-01-18 03:09:45.25	131.90	31.94	-35.5	-36.6	18.4	0.00e+00	0	61	0	3062890496	41	4121
2026-01-18 03:09:46.26	132.20	31.83	-35.5	-36.7	18.3	0.00e+00	0	61	0	3069181952	41	4161
2026-01-18 03:09:47.28	132.51	31.71	-35.6	-36.7	18.3	0.00e+00	0	61	0	3076521984	41	4181
2026-01-18 03:09:48.29	132.81	31.59	-35.7	-36.9	18.2	0.00e+00	0	61	0	3083862016	41	4244
2026-01-18 03:09:49.30	133.11	31.47	-35.7	-36.9	18.1	0.00e+00	0	61	0	3091202048	41	4282
2026-01-18 03:09:50.31	133.40	31.35	-35.8	-37.0	18.1	0.00e+00	0	61	0	3098542080	41	4307
2026-01-18 03:09:51.32	133.69	31.23	-35.7	-36.9	18.2	0.00e+00	0	61	0	3105882112	41	4264
2026-01-18 03:09:52.33	133.98	31.11	-35.6	-36.8	18.3	0.00e+00	0	61	0	3113222144	41	4226
2026-01-18 03:09:53.34	134.27	30.99	-35.5	-36.7	18.4	0.00e+00	0	61	0	3120562176	41	4174
2026-01-18 03:09:54.35	134.56	30.87	-35.4	-36.5	18.4	0.00e+00	0	61	0	3127902208	41	4072
2026-01-18 03:09:55.36	134.84	30.75	-35.4	-36.5	18.5	0.00e+00	0	61	0	3135242240	41	4079
2026-01-18 03:09:56.37	135.13	30.63	-35.4	-36.5	18.5	0.00e+00	0	61	0	3142582272	41	4090
2026-01-18 03:09:57.38	135.41	30.51	-35.4	-36.6	18.5	0.00e+00	0	61	0	3149922304	41	4099
2026-01-18 03:09:58.39	135.69	30.38	-35.6	-36.8	18.3	0.00e+00	0	61	0	3157262336	41	4206
2026-01-18 03:09:59.40	135.96	30.26	-35.8	-36.9	18.0	0.00e+00	0	61	0	3164602368	41	4286
2026-01-18 03:10:00.41	136.24	30.14	-35.8	-37.0	18.0	0.00e+00	0	61	0	3171942400	41	4304
2026-01-18 03:10:01.42	136.51	30.02	-35.8	-37.0	18.0	0.00e+00	0	61	0	3179282432	41	4330
2026-01-18 03:10:02.43	136.78	29.90	-35.9	-37.1	18.0	0.00e+00	0	61	0	3186622464	41	4353
2026-01-18 03:10:03.44	137.05	29.77	-35.8	-37.0	18.1	0.00e+00	0	61	0	3192913920	41	4294
2026-01-18 03:10:04.45	137.31	29.65	-35.8	-37.0	18.1	0.00e+00	0	61	0	3200253952	41	4293
2026-01-18 03:10:05.46	137.58	29.53	-35.6	-36.8	18.2	0.00e+00	0	61	0	3208642560	41	4222
2026-01-18 03:10:06.46	137.84	29.41	-35.7	-36.8	18.2	0.00e+00	0	61	0	3214934016	41	4238
2026-01-18 03:10:07.48	138.10	29.28	-35.6	-36.8	18.2	0.00e+00	0	61	0	3222274048	41	4214
2026-01-18 03:10:08.49	138.36	29.16	-35.6	-36.7	18.3	0.00e+00	0	61	0	3229614080	41	4174
2026-01-18 03:10:09.50	138.61	29.04	-35.5	-36.7	18.3	0.00e+00	0	61	0	3236954112	41	4161
2026-01-18 03:10:10.51	138.87	28.91	-35.6	-36.8	18.2	0.00e+00	0	61	0	3244294144	41	4215
2026-01-18 03:10:11.52	139.12	28.79	-35.7	-36.9	18.2	0.00e+00	0	61	0	3251634176	41	4244
2026-01-18 03:10:12.53	139.37	28.67	-35.7	-36.9	18.1	0.00e+00	0	61	0	3258974208	41	4274
2026-01-18 03:10:13.54	139.62	28.54	-35.8	-37.0	18.0	0.00e+00	0	61	0	3266314240	41	4303
2026-01-18 03:10:14.55	139.87	28.42	-35.8	-37.0	17.9	0.00e+00	0	61	0	3273654272	41	4320
2026-01-18 03:10:15.56	140.11	28.30	-35.8	-37.0	18.0	0.00e+00	0	61	0	3280994304	41	4318
2026-01-18 03:10:16.57	140.36	28.17	-35.8	-37.0	18.0	0.00e+00	0	61	0	3288334336	41	4328
2026-01-18 03:10:17.58	140.60	28.05	-35.9	-37.1	17.9	0.00e+00	0	62	0	3295674368	41	4375
2026-01-18 03:10:18.59	140.84	27.93	-35.8	-37.0	18.0	0.00e+00	0	61	0	3303014400	41	4302
2026-01-18 03:10:19.60	141.08	27.80	-35.7	-36.9	18.1	0.00e+00	0	61	0	3310354432	41	4282
2026-01-18 03:10:20.61	141.31	27.68	-35.7	-36.9	18.1	0.00e+00	0	61	0	3317694464	41	4261
2026-01-18 03:10:21.62	141.55	27.56	-35.7	-36.9	18.1	0.00e+00	0	61	0	3325034496	41	4263
2026-01-18 03:10:22.63	141.78	27.43	-35.7	-36.9	18.1	0.00e+00	0	61	0	3332374528	41	4246
2026-01-18 03:10:23.64	142.01	27.31	-35.6	-36.8	18.2	0.00e+00	0	61	0	3339714560	41	4204
2026-01-18 03:10:24.65	142.24	27.19	-35.6	-36.8	18.2	0.00e+00	0	61	0	3347054592	41	4219
2026-01-18 03:10:25.66	142.47	27.06	-35.7	-36.9	18.1	0.00e+00	0	61	0	3354394624	41	4244
2026-01-18 03:10:26.67	142.69	26.94	-35.6	-36.8	18.1	0.00e+00	0	62	0	3361734656	41	4221
2026-01-18 03:10:27.68	142.91	26.82	-35.6	-36.7	18.1	0.00e+00	0	61	0	3368026112	41	4190
2026-01-18 03:10:28.69	143.14	26.70	-35.6	-36.8	18.1	0.00e+00	0	61	0	3375366144	41	4211
2026-01-18 03:10:29.70	143.36	26.57	-35.6	-36.8	18.1	0.00e+00	0	61	0	3383754752	41	4220
2026-01-18 03:10:30.71	143.58	26.45	-35.6	-36.8	18.1	0.00e+00	0	61	0	3390046208	41	4228
2026-01-18 03:10:31.72	143.79	26.33	-35.7	-36.9	18.1	0.00e+00	0	61	0	3397386240	41	4258
2026-01-18 03:10:32.73	144.01	26.21	-35.7	-36.8	18.1	0.00e+00	0	61	0	3404726272	41	4237
2026-01-18 03:10:33.74	144.22	26.08	-35.7	-36.9	18.0	0.00e+00	0	61	0	3412066304	41	4254
2026-01-18 03:10:34.75	144.44	25.96	-35.7	-36.9	18.0	0.00e+00	0	62	0	3419406336	41	4271
2026-01-18 03:10:35.76	144.65	25.84	-35.7	-36.9	18.1	0.00e+00	0	61	0	3426746368	41	4244
2026-01-18 03:10:36.77	144.86	25.72	-35.7	-36.8	18.1	0.00e+00	0	61	0	3434086400	41	4242
2026-01-18 03:10:37.79	145.07	25.60	-35.7	-36.8	18.1	0.00e+00	0	61	0	3441426432	41	4241
2026-01-18 03:10:38.80	145.27	25.47	-35.7	-36.9	18.1	0.00e+00	0	61	0	3448766464	41	4245
2026-01-18 03:10:39.81	145.48	25.35	-35.7	-36.8	18.0	0.00e+00	0	61	0	3456106496	41	4237
2026-01-18 03:10:40.82	145.68	25.23	-35.8	-37.0	17.9	0.00e+00	0	62	0	3463446528	41	4307
2026-01-18 03:10:41.83	145.88	25.11	-35.8	-37.0	17.9	0.00e+00	0	62	0	3470786560	41	4321
2026-01-18 03:10:42.84	146.08	24.99	-35.9	-37.0	17.9	0.00e+00	0	61	0	3478126592	41	4337
2026-01-18 03:10:43.85	146.28	24.87	-35.8	-37.0	17.9	0.00e+00	0	61	0	3485466624	41	4327
2026-01-18 03:10:44.85	146.47	24.75	-35.8	-37.0	17.9	0.00e+00	0	61	0	3492806656	41	4296
2026-01-18 03:10:45.86	146.67	24.63	-35.8	-36.9	17.9	0.00e+00	0	61	0	3500146688	41	4291
2026-01-18 03:10:46.87	146.86	24.51	-35.6	-36.8	18.1	0.00e+00	0	61	0	3507486720	41	4216
2026-01-18 03:10:47.88	147.06	24.39	-35.6	-36.8	18.1	0.00e+00	0	62	0	3513778176	41	4210
2026-01-18 03:10:48.88	147.25	24.27	-35.6	-36.8	18.1	0.00e+00	0	61	0	3521118208	41	4196
2026-01-18 03:10:49.89	147.44	24.15	-35.6	-36.8	18.1	0.00e+00	0	61	0	3529506816	41	4196
2026-01-18 03:10:50.90	147.62	24.04	-35.6	-36.7	18.1	0.00e+00	0	61	0	3535798272	41	4187
2026-01-18 03:10:51.91	147.81	23.92	-35.7	-36.9	18.0	0.00e+00	0	61	0	3543138304	41	4258
2026-01-18 03:10:52.92	148.00	23.80	-35.8	-37.0	17.9	0.00e+00	0	61	0	3550478336	41	4298
2026-01-18 03:10:53.93	148.18	23.68	-35.9	-37.1	17.8	0.00e+00	0	61	0	3557818368	41	4383
2026-01-18 03:10:54.94	148.36	23.56	-36.0	-37.2	17.7	0.00e+00	0	61	0	3565158400	41	4427
2026-01-18 03:10:55.95	148.55	23.44	-36.2	-37.4	17.5	0.00e+00	0	61	0	3572498432	41	4523
2026-01-18 03:10:56.96	148.73	23.33	-36.2	-37.5	17.4	0.00e+00	0	61	0	3579838464	42	4308
2026-01-18 03:10:57.97	148.91	23.21	-36.3	-37.6	17.3	0.00e+00	0	61	0	3587178496	42	4346
2026-01-18 03:10:58.98	149.08	23.09	-36.4	-37.7	17.2	0.00e+00	0	62	0	3594518528	42	4396
2026-01-18 03:10:59.99	149.26	22.98	-36.3	-37.6	17.3	0.00e+00	0	61	0	3601858560	42	4359
2026-01-18 03:11:01.00	149.44	22.86	-36.3	-37.5	17.4	0.00e+00	0	61	0	3609198592	42	4334
2026-01-18 03:11:02.01	149.61	22.74	-36.2	-37.5	17.4	0.00e+00	0	61	0	3616538624	42	4320
2026-01-18 03:11:03.02	149.78	22.63	-36.2	-37.4	17.5	0.00e+00	0	61	0	3623878656	42	4276
2026-01-18 03:11:04.03	149.95	22.51	-36.1	-37.3	17.6	0.00e+00	0	61	0	3631218688	42	4216
2026-01-18 03:11:05.04	150.12	22.40	-36.0	-37.2	17.7	0.00e+00	0	61	0	3638558720	42	4166
2026-01-18 03:11:06.05	150.29	22.28	-35.9	-37.1	17.8	0.00e+00	0	61	0	3645898752	42	4137
2026-01-18 03:11:07.06	150.46	22.17	-35.9	-37.1	17.8	0.00e+00	0	61	0	3653238784	42	4124
2026-01-18 03:11:08.07	150.63	22.05	-35.9	-37.1	17.8	0.00e+00	0	62	0	3660578816	42	4102
2026-01-18 03:11:09.08	150.79	21.94	-35.9	-37.1	17.7	0.00e+00	0	61	0	3666870272	42	4131
2026-01-18 03:11:10.09	150.96	21.82	-36.0	-37.2	17.6	0.00e+00	0	61	0	3675258880	42	4172
2026-01-18 03:11:11.10	151.12	21.71	-36.0	-37.3	17.5	0.00e+00	0	62	0	3682598912	42	4204
2026-01-18 03:11:12.11	151.28	21.60	-36.1	-37.3	17.5	0.00e+00	0	61	0	3688890368	42	4220
2026-01-18 03:11:13.12	151.44	21.48	-36.2	-37.4	17.4	0.00e+00	0	61	0	3696230400	42	4273
2026-01-18 03:11:14.13	151.60	21.37	-36.3	-37.5	17.3	0.00e+00	0	61	0	3703570432	42	4320
2026-01-18 03:11:15.14	151.76	21.26	-36.3	-37.6	17.2	0.00e+00	0	61	0	3710910464	42	4351
2026-01-18 03:11:16.15	151.92	21.15	-36.3	-37.6	17.3	0.00e+00	0	61	0	3718250496	42	4346
2026-01-18 03:11:17.16	152.07	21.03	-36.3	-37.6	17.1	0.00e+00	0	61	0	3725590528	42	4364
2026-01-18 03:11:18.17	152.23	20.92	-36.3	-37.6	17.2	0.00e+00	0	61	0	3732930560	42	4372
2026-01-18 03:11:19.18	152.38	20.81	-36.4	-37.7	17.1	0.00e+00	0	61	0	3740270592	42	4425
2026-01-18 03:11:20.19	152.53	20.70	-36.4	-37.7	17.1	0.00e+00	0	61	0	3747610624	42	4424
2026-01-18 03:11:21.20	152.69	20.59	-36.4	-37.7	17.2	0.00e+00	0	61	0	3754950656	42	4401
2026-01-18 03:11:22.21	152.84	20.48	-36.3	-37.6	17.2	0.00e+00	0	61	0	3762290688	42	4361
2026-01-18 03:11:23.22	152.99	20.37	-36.3	-37.5	17.3	0.00e+00	0	61	0	3769630720	42	4334
2026-01-18 03:11:24.23	153.14	20.26	-36.2	-37.5	17.4	0.00e+00	0	61	0	3776970752	42	4300
2026-01-18 03:11:25.24	153.28	20.15	-36.2	-37.5	17.4	0.00e+00	0	61	0	3784310784	42	4293
2026-01-18 03:11:26.25	153.43	20.04	-36.2	-37.4	17.3	0.00e+00	0	61	0	3791650816	42	4273
2026-01-18 03:11:27.26	153.58	19.93	-36.2	-37.5	17.3	0.00e+00	0	61	0	3798990848	42	4315
2026-01-18 03:11:28.27	153.72	19.82	-36.2	-37.5	17.3	0.00e+00	0	61	0	3806330880	42	4322
2026-01-18 03:11:29.28	153.86	19.71	-36.3	-37.6	17.2	0.00e+00	0	61	0	3812622336	42	4353
2026-01-18 03:11:30.29	154.01	19.60	-36.4	-37.7	17.1	0.00e+00	0	61	0	3819962368	42	4427
2026-01-18 03:11:31.30	154.15	19.50	-36.4	-37.8	17.1	0.00e+00	0	61	0	3828350976	42	4444
2026-01-18 03:11:32.31	154.29	19.39	-36.5	-37.9	17.0	0.00e+00	0	61	0	3834642432	42	4498
2026-01-18 03:11:33.32	154.43	19.28	-36.7	-38.0	16.8	0.00e+00	0	61	0	3841982464	42	4567
2026-01-18 03:11:34.33	154.57	19.17	-36.6	-37.9	16.9	0.00e+00	0	62	0	3849322496	42	4535
2026-01-18 03:11:35.34	154.71	19.07	-36.6	-38.0	16.8	0.00e+00	0	61	0	3856662528	42	4557
2026-01-18 03:11:36.35	154.84	18.96	-36.7	-38.0	16.8	0.00e+00	0	61	0	3864002560	42	4574
2026-01-18 03:11:37.36	154.98	18.85	-36.7	-38.0	16.8	0.00e+00	0	61	0	3871342592	42	4576
2026-01-18 03:11:38.37	155.11	18.75	-36.7	-38.1	16.7	0.00e+00	0	62	0	3878682624	43	4365
2026-01-18 03:11:39.38	155.25	18.64	-36.7	-38.1	16.7	0.00e+00	0	61	0	3886022656	43	4343
2026-01-18 03:11:40.39	155.38	18.54	-36.7	-38.0	16.8	0.00e+00	0	61	0	3893362688	43	4335
2026-01-18 03:11:41.40	155.51	18.43	-36.8	-38.1	16.6	0.00e+00	0	61	0	3900702720	43	4383
2026-01-18 03:11:42.41	155.64	18.33	-36.7	-38.0	16.7	0.00e+00	0	61	0	3908042752	43	4331
2026-01-18 03:11:43.42	155.78	18.22	-36.7	-38.0	16.7	0.00e+00	0	61	0	3915382784	43	4328
2026-01-18 03:11:44.43	155.91	18.12	-36.7	-38.0	16.7	0.00e+00	0	62	0	3922722816	43	4319
2026-01-18 03:11:45.44	156.03	18.02	-36.7	-38.1	16.7	0.00e+00	0	61	0	3930062848	43	4348
2026-01-18 03:11:46.45	156.16	17.91	-36.7	-38.1	16.7	0.00e+00	0	61	0	3937402880	43	4351
2026-01-18 03:11:47.46	156.29	17.81	-36.8	-38.1	16.6	0.00e+00	0	61	0	3944742912	43	4372
2026-01-18 03:11:48.47	156.42	17.71	-36.8	-38.1	16.6	0.00e+00	0	61	0	3952082944	43	4375
2026-01-18 03:11:49.48	156.54	17.60	-36.8	-38.1	16.6	0.00e+00	0	61	0	3959422976	43	4374
2026-01-18 03:11:50.49	156.67	17.50	-36.8	-38.1	16.6	0.00e+00	0	61	0	3965714432	43	4382
2026-01-18 03:11:51.50	156.79	17.40	-36.8	-38.2	16.5	0.00e+00	0	61	0	3974103040	43	4424
2026-01-18 03:11:52.51	156.91	17.30	-36.8	-38.2	16.6	0.00e+00	0	61	0	3981443072	43	4410
2026-01-18 03:11:53.52	157.04	17.20	-36.9	-38.3	16.5	0.00e+00	0	61	0	3987734528	43	4452
2026-01-18 03:11:54.53	157.16	17.10	-36.8	-38.2	16.5	0.00e+00	0	61	0	3995074560	43	4424
2026-01-18 03:11:55.54	157.28	17.00	-36.9	-38.3	16.4	0.00e+00	0	61	0	4003463168	43	4443
2026-01-18 03:11:56.55	157.40	16.89	-36.9	-38.3	16.4	0.00e+00	0	61	0	4009754624	43	4452
2026-01-18 03:11:57.56	157.52	16.79	-36.9	-38.3	16.4	0.00e+00	0	61	0	4017094656	43	4473
2026-01-18 03:11:58.57	157.64	16.69	-37.0	-38.4	16.3	0.00e+00	0	61	0	4024434688	43	4507
2026-01-18 03:11:59.58	157.75	16.60	-37.0	-38.4	16.3	0.00e+00	0	61	0	4031774720	43	4543
2026-01-18 03:12:00.59	157.87	16.50	-37.0	-38.4	16.3	0.00e+00	0	61	0	4039114752	43	4529
2026-01-18 03:12:01.60	157.99	16.40	-37.0	-38.4	16.3	0.00e+00	0	61	0	4046454784	43	4534
2026-01-18 03:12:02.61	158.10	16.30	-37.1	-38.5	16.2	0.00e+00	0	61	0	4053794816	43	4587
2026-01-18 03:12:03.62	158.22	16.20	-37.2	-38.6	16.1	0.00e+00	0	61	0	4061134848	43	4620
2026-01-18 03:12:04.62	158.33	16.10	-37.4	-38.8	16.0	0.00e+00	0	61	0	4068474880	44	4493
2026-01-18 03:12:05.63	158.44	16.01	-37.3	-38.7	16.1	0.00e+00	0	61	0	4075814912	44	4410
2026-01-18 03:12:06.64	158.56	15.91	-37.2	-38.7	16.2	0.00e+00	0	61	0	4083154944	44	4400
2026-01-18 03:12:07.65	158.67	15.81	-37.4	-38.8	16.0	0.00e+00	0	61	0	4090494976	44	4480
2026-01-18 03:12:08.66	158.78	15.71	-37.3	-38.8	16.1	0.00e+00	0	61	0	4097835008	44	4442
2026-01-18 03:12:09.67	158.89	15.62	-37.3	-38.7	16.0	0.00e+00	0	61	0	4105175040	44	4439
2026-01-18 03:12:10.68	159.00	15.52	-37.4	-38.8	16.0	0.00e+00	0	61	0	4111466496	44	4477
2026-01-18 03:12:11.69	159.11	15.42	-37.4	-38.9	16.0	0.00e+00	0	61	0	4119855104	44	4506
2026-01-18 03:12:12.70	159.22	15.33	-37.5	-38.9	15.9	0.00e+00	0	61	0	4127195136	44	4541
2026-01-18 03:12:13.71	159.32	15.23	-37.4	-38.9	15.9	0.00e+00	0	61	0	4133486592	44	4513
2026-01-18 03:12:14.72	159.43	15.14	-37.4	-38.9	15.9	0.00e+00	0	61	0	4140826624	44	4511
2026-01-18 03:12:15.73	159.54	15.04	-37.4	-38.9	15.9	0.00e+00	0	61	0	4148166656	44	4507
2026-01-18 03:12:16.74	159.64	14.95	-37.4	-38.9	15.9	0.00e+00	0	61	0	4155506688	44	4516
2026-01-18 03:12:17.76	159.75	14.85	-37.5	-39.0	15.8	0.00e+00	0	61	0	4162846720	44	4589
2026-01-18 03:12:18.77	159.85	14.76	-37.6	-39.1	15.7	0.00e+00	0	61	0	4170186752	44	4643
2026-01-18 03:12:19.77	159.96	14.67	-37.6	-39.0	15.7	0.00e+00	0	61	0	4177526784	44	4597
2026-01-18 03:12:20.78	160.06	14.57	-37.6	-39.1	15.6	0.00e+00	0	62	0	4184866816	44	4634
2026-01-18 03:12:21.79	160.16	14.48	-37.7	-39.2	15.6	0.00e+00	0	61	0	4192206848	45	4424
2026-01-18 03:12:22.80	160.26	14.39	-37.8	-39.3	15.5	0.00e+00	0	61	0	4199546880	45	4482
2026-01-18 03:12:23.81	160.37	14.29	-37.8	-39.3	15.4	0.00e+00	0	61	0	4206886912	45	4479
2026-01-18 03:12:24.82	160.47	14.20	-37.8	-39.4	15.4	0.00e+00	0	61	0	4214226944	45	4496
2026-01-18 03:12:25.83	160.57	14.11	-37.9	-39.5	15.3	0.00e+00	0	62	0	4221566976	45	4548
2026-01-18 03:12:26.84	160.67	14.02	-37.9	-39.5	15.2	0.00e+00	0	61	0	4228907008	45	4572
2026-01-18 03:12:27.85	160.77	13.93	-37.9	-39.5	15.2	0.00e+00	0	61	0	4236247040	45	4576
2026-01-18 03:12:28.86	160.86	13.83	-38.0	-39.6	15.1	0.00e+00	0	61	0	4243587072	45	4629
2026-01-18 03:12:29.87	160.96	13.74	-38.0	-39.6	15.1	0.00e+00	0	61	0	4250927104	45	4644
2026-01-18 03:12:30.88	161.06	13.65	-38.0	-39.6	15.1	0.00e+00	0	61	0	4258267136	45	4650
2026-01-18 03:12:31.89	161.16	13.56	-37.9	-39.5	15.2	2.20e-06	0	61	0	4264558592	45	4584
2026-01-18 03:12:32.90	161.25	13.47	-38.1	-39.8	14.9	0.00e+00	0	61	0	4272947200	45	4707
2026-01-18 03:12:33.91	161.35	13.38	-38.1	-39.7	15.0	0.00e+00	0	61	0	4280287232	45	4686
2026-01-18 03:12:34.92	161.44	13.29	-38.1	-39.7	14.9	0.00e+00	0	61	0	4286578688	45	4687
2026-01-18 03:12:35.93	161.54	13.20	-38.1	-39.8	14.9	0.00e+00	0	61	0	4293918720	45	4706
2026-01-18 03:12:36.94	161.63	13.11	-38.2	-39.9	14.8	0.00e+00	0	61	0	4302307328	46	4519
2026-01-18 03:12:37.95	161.72	13.02	-38.3	-40.0	14.6	0.00e+00	0	61	0	4308598784	46	4592
2026-01-18 03:12:38.96	161.82	12.93	-38.4	-40.1	14.6	0.00e+00	0	62	0	4315938816	46	4615
2026-01-18 03:12:39.97	161.91	12.85	-38.5	-40.2	14.4	0.00e+00	0	62	0	4323278848	46	4697
2026-01-18 03:12:40.98	162.00	12.76	-38.3	-40.0	14.6	0.00e+00	0	61	0	4330618880	46	4596
2026-01-18 03:12:41.99	162.09	12.67	-38.1	-39.8	14.9	0.00e+00	0	61	0	4337958912	46	4454
2026-01-18 03:12:43.00	162.18	12.58	-38.1	-39.8	14.8	2.20e-06	0	62	0	4345298944	46	4456
2026-01-18 03:12:44.01	162.27	12.50	-38.1	-39.7	14.9	1.10e-06	0	61	0	4352638976	46	4425
2026-01-18 03:12:45.02	162.36	12.41	-38.0	-39.7	15.0	0.00e+00	0	61	0	4359979008	46	4394
2026-01-18 03:12:46.03	162.45	12.32	-38.0	-39.7	15.0	0.00e+00	0	61	0	4367319040	46	4396
2026-01-18 03:12:47.04	162.54	12.23	-38.0	-39.6	15.0	0.00e+00	0	61	0	4374659072	46	4386
2026-01-18 03:12:48.05	162.63	12.15	-38.0	-39.6	15.0	0.00e+00	0	61	0	4381999104	46	4380
2026-01-18 03:12:49.07	162.72	12.06	-37.9	-39.5	15.1	1.10e-06	0	61	0	4389339136	46	4330
2026-01-18 03:12:50.08	162.80	11.97	-38.1	-39.7	14.9	0.00e+00	0	61	0	4396679168	46	4422
2026-01-18 03:12:51.09	162.89	11.89	-38.0	-39.6	14.9	1.10e-06	0	61	0	4404019200	46	4383
2026-01-18 03:12:52.10	162.98	11.80	-38.1	-39.7	14.8	0.00e+00	0	61	0	4411359232	46	4437
2026-01-18 03:12:53.11	163.06	11.72	-38.2	-39.9	14.6	0.00e+00	0	61	0	4418699264	46	4519
