passes_logs/2026/01/18/R2.0S_Moscow/R2.0S_Moscow__20260118_100853_SUOMI_NPP_rec.log

#Pass ID: 20260118_100853_SUOMI NPP
#Satellite: SUOMI NPP
#Configuration: NPP
#almurnet v.1.7.20251203
#Start time: 2026-01-18 10:08:55

#Version: 2.2.20231116
#Station: R2.0S_Moscow
#Location: 37.707566 lon 55.798166 lat
#TLE: 1 37849U 11061A   26017.28905266  .00000074  00000+0  55894-4 0  9999
#TLE: 2 37849  98.7814 319.3179 0002408  59.7048 300.4366 14.19525847737038

#Time	Az	El	Level	Level2	SNR	BER	BlckErr	Temp	State	Recorded	gain1	gain2
2026-01-18 10:08:55.29	165.06	2.14	-44.0	-58.4	3.8	1.49e+00	0	51	0	0	59	19161
2026-01-18 10:08:56.29	165.07	2.21	-44.0	-58.5	3.8	1.49e+00	0	52	104	0	59	19246
2026-01-18 10:08:57.30	165.08	2.27	-44.0	-58.5	3.8	1.49e+00	0	52	104	0	59	19271
2026-01-18 10:08:58.31	165.09	2.34	-44.0	-58.5	3.8	1.49e+00	0	52	104	0	59	19181
2026-01-18 10:08:59.33	165.10	2.41	-44.0	-58.4	3.8	1.49e+00	0	52	104	0	59	19151
2026-01-18 10:09:00.34	165.11	2.47	-44.0	-58.5	3.8	1.49e+00	0	52	104	0	59	19192
2026-01-18 10:09:01.35	165.12	2.54	-44.0	-58.5	3.8	1.49e+00	0	52	104	0	59	19175
2026-01-18 10:09:02.36	165.13	2.60	-44.0	-58.5	3.8	1.49e+00	0	52	104	0	59	19260
2026-01-18 10:09:03.37	165.14	2.67	-44.0	-58.5	3.8	1.49e+00	0	52	104	0	59	19214
2026-01-18 10:09:04.38	165.15	2.74	-44.0	-58.5	3.8	1.49e+00	0	52	104	0	59	19215
2026-01-18 10:09:05.39	165.16	2.80	-44.0	-58.5	3.8	1.49e+00	0	52	104	0	59	19228
2026-01-18 10:09:06.41	165.17	2.87	-44.0	-58.5	3.8	1.49e+00	0	53	104	0	59	19264
2026-01-18 10:09:07.42	165.18	2.94	-44.0	-58.5	3.8	1.49e+00	0	53	104	0	59	19282
2026-01-18 10:09:08.43	165.19	3.00	-44.0	-58.5	3.8	1.49e+00	0	53	104	0	59	19217
2026-01-18 10:09:09.44	165.20	3.07	-44.0	-58.5	3.8	1.49e+00	0	53	104	0	59	19245
2026-01-18 10:09:10.45	165.21	3.14	-43.9	-58.4	3.8	1.49e+00	0	53	104	0	59	19161
2026-01-18 10:09:11.46	165.22	3.21	-44.0	-58.5	3.8	1.49e+00	0	53	104	0	59	19228
2026-01-18 10:09:12.47	165.23	3.28	-43.9	-58.5	3.8	1.49e+00	0	53	104	0	59	19189
2026-01-18 10:09:13.48	165.24	3.34	-44.0	-58.5	3.8	1.49e+00	0	53	104	0	59	19221
2026-01-18 10:09:14.50	165.25	3.41	-44.0	-58.4	3.8	1.49e+00	0	53	104	0	59	19129
2026-01-18 10:09:15.51	165.26	3.48	-44.0	-58.5	3.8	1.49e+00	0	53	104	0	59	19220
2026-01-18 10:09:16.52	165.27	3.55	-44.0	-58.5	3.8	1.49e+00	0	53	104	0	59	19230
2026-01-18 10:09:17.53	165.28	3.62	-44.0	-58.5	3.8	1.49e+00	0	53	104	0	59	19198
2026-01-18 10:09:18.54	165.29	3.69	-44.0	-58.5	3.8	1.49e+00	0	53	104	0	59	19183
2026-01-18 10:09:19.55	165.30	3.76	-44.0	-58.4	3.8	1.49e+00	0	53	104	0	59	19130
2026-01-18 10:09:20.56	165.31	3.82	-44.0	-58.5	3.8	1.49e+00	0	53	104	0	59	19230
2026-01-18 10:09:21.57	165.32	3.89	-44.0	-58.5	3.8	1.49e+00	0	53	104	0	59	19180
2026-01-18 10:09:22.58	165.33	3.96	-44.0	-58.4	3.8	1.49e+00	0	53	104	0	59	19162
2026-01-18 10:09:23.60	165.34	4.03	-44.0	-58.4	3.8	1.49e+00	0	54	104	0	59	19151
2026-01-18 10:09:24.61	165.35	4.10	-43.9	-58.5	3.8	1.49e+00	0	54	104	0	59	19201
2026-01-18 10:09:25.62	165.36	4.17	-44.0	-58.5	3.8	1.49e+00	0	54	104	0	59	19176
2026-01-18 10:09:26.63	165.37	4.24	-44.0	-58.5	3.8	1.49e+00	0	54	104	0	59	19169
2026-01-18 10:09:27.64	165.38	4.31	-44.0	-58.4	3.8	1.49e+00	0	54	104	0	59	19150
2026-01-18 10:09:28.65	165.39	4.39	-44.0	-58.4	3.8	1.49e+00	0	54	104	0	59	19096
2026-01-18 10:09:29.66	165.40	4.46	-43.9	-58.4	3.8	1.49e+00	0	54	104	0	59	19075
2026-01-18 10:09:30.67	165.41	4.53	-44.0	-58.4	3.8	1.49e+00	0	54	104	0	59	19141
2026-01-18 10:09:31.68	165.42	4.60	-43.9	-58.4	3.8	1.49e+00	0	54	104	0	59	19102
2026-01-18 10:09:32.69	165.44	4.67	-44.0	-58.4	3.8	1.49e+00	0	54	104	0	59	19158
2026-01-18 10:09:33.70	165.45	4.74	-44.0	-58.4	3.8	1.49e+00	0	54	104	0	59	19044
2026-01-18 10:09:34.72	165.46	4.81	-43.9	-58.4	3.8	1.49e+00	0	54	104	0	59	19131
2026-01-18 10:09:35.73	165.47	4.89	-43.9	-58.4	3.8	1.49e+00	0	54	104	0	59	19085
2026-01-18 10:09:36.74	165.48	4.96	-43.9	-58.4	3.8	1.49e+00	0	54	104	0	59	19068
2026-01-18 10:09:37.75	165.49	5.03	-43.9	-58.3	3.8	1.49e+00	0	54	104	0	59	18935
2026-01-18 10:09:38.76	165.50	5.10	-43.9	-58.3	3.8	1.49e+00	0	54	104	0	59	18903
2026-01-18 10:09:39.77	165.51	5.18	-43.9	-58.3	3.8	1.49e+00	0	54	104	0	59	18788
2026-01-18 10:09:40.78	165.52	5.25	-43.8	-58.2	3.8	1.49e+00	0	54	104	0	59	18557
2026-01-18 10:09:41.79	165.53	5.32	-43.9	-58.1	3.8	1.49e+00	0	54	104	0	59	18313
2026-01-18 10:09:42.81	165.55	5.40	-43.9	-57.7	3.8	1.49e+00	0	54	104	0	59	17496
2026-01-18 10:09:43.81	165.56	5.47	-43.9	-57.5	3.8	1.49e+00	0	55	104	0	59	17146
2026-01-18 10:09:44.82	165.57	5.54	-43.8	-56.9	3.8	1.49e+00	0	55	104	0	59	16028
2026-01-18 10:09:45.83	165.58	5.62	-43.8	-56.6	3.8	1.49e+00	0	55	104	0	59	15422
2026-01-18 10:09:46.85	165.59	5.69	-43.7	-56.1	3.8	1.49e+00	0	55	104	0	59	14573
2026-01-18 10:09:47.86	165.60	5.77	-43.8	-55.8	4.0	1.48e+00	0	55	104	0	59	14116
2026-01-18 10:09:48.87	165.61	5.84	-43.8	-55.9	3.8	1.47e+00	0	55	104	0	59	14296
2026-01-18 10:09:49.88	165.63	5.92	-43.8	-55.9	3.8	1.48e+00	0	55	104	0	59	14275
2026-01-18 10:09:50.89	165.64	5.99	-43.8	-56.4	3.9	1.49e+00	0	55	104	0	59	15175
2026-01-18 10:09:51.90	165.65	6.07	-43.8	-56.7	3.8	1.49e+00	0	55	104	0	59	15623
2026-01-18 10:09:52.91	165.66	6.14	-43.8	-56.1	3.9	1.49e+00	0	55	104	0	59	14685
2026-01-18 10:09:53.92	165.67	6.22	-43.8	-55.7	4.0	1.48e+00	0	55	104	0	59	13988
2026-01-18 10:09:54.94	165.68	6.29	-43.8	-56.5	3.9	1.48e+00	0	55	104	0	59	15258
2026-01-18 10:09:55.95	165.69	6.37	-43.8	-56.9	3.8	1.49e+00	0	55	104	0	59	16055
2026-01-18 10:09:56.96	165.71	6.45	-43.8	-56.9	3.8	1.49e+00	0	55	104	0	59	16092
2026-01-18 10:09:57.97	165.72	6.52	-43.8	-56.8	3.8	1.49e+00	0	55	104	0	59	15936
2026-01-18 10:09:58.98	165.73	6.60	-43.9	-57.3	3.8	1.49e+00	0	55	104	0	59	16876
2026-01-18 10:09:59.99	165.74	6.68	-43.9	-57.8	3.8	1.49e+00	0	55	104	0	59	17726
2026-01-18 10:10:01.00	165.75	6.75	-43.9	-57.6	3.8	1.49e+00	0	55	104	0	59	17307
2026-01-18 10:10:02.01	165.77	6.83	-43.9	-57.6	3.8	1.49e+00	0	55	104	0	59	17422
2026-01-18 10:10:03.03	165.78	6.91	-43.9	-57.7	3.8	1.49e+00	0	55	104	0	59	17586
2026-01-18 10:10:04.04	165.79	6.99	-43.8	-56.9	3.8	1.49e+00	0	56	104	0	59	16106
2026-01-18 10:10:05.05	165.80	7.07	-43.8	-56.6	3.8	1.49e+00	0	56	104	0	59	15519
2026-01-18 10:10:06.06	165.82	7.14	-43.7	-55.8	4.0	1.49e+00	0	56	104	0	59	14125
2026-01-18 10:10:07.07	165.83	7.22	-43.6	-54.7	4.2	1.46e+00	0	56	0	0	59	12411
2026-01-18 10:10:08.08	165.84	7.30	-43.6	-54.1	4.4	1.28e+00	0	56	0	0	59	11652
2026-01-18 10:10:09.09	165.85	7.38	-43.5	-53.6	4.6	9.40e-01	0	56	0	2097152	59	10955
2026-01-18 10:10:10.10	165.86	7.46	-43.4	-52.3	5.3	7.54e-01	0	56	0	4194304	58	10055
2026-01-18 10:10:11.11	165.88	7.54	-43.3	-51.7	5.7	4.74e-01	0	56	0	6291456	58	9387
2026-01-18 10:10:12.12	165.89	7.62	-43.3	-51.5	5.9	3.73e-01	0	56	0	8388608	58	9102
2026-01-18 10:10:13.13	165.90	7.70	-43.1	-50.9	6.3	3.27e-01	0	56	0	9437184	58	8505
2026-01-18 10:10:14.14	165.92	7.78	-43.1	-50.6	6.5	2.27e-01	0	56	0	11534336	58	8252
2026-01-18 10:10:15.15	165.93	7.86	-43.0	-50.3	6.9	2.05e-01	0	56	0	13631488	58	7925
2026-01-18 10:10:16.16	165.94	7.94	-43.0	-50.3	6.8	1.99e-01	0	56	0	15728640	58	7923
2026-01-18 10:10:17.18	165.95	8.03	-43.1	-50.6	6.6	2.03e-01	0	56	0	17825792	58	8182
2026-01-18 10:10:18.19	165.97	8.11	-44.3	-58.0	3.8	1.48e+00	0	56	104	17825792	59	18140
2026-01-18 10:10:19.20	165.98	8.19	-44.0	-54.8	3.9	1.49e+00	0	56	104	17825792	59	12627
2026-01-18 10:10:20.21	165.99	8.27	-43.7	-57.8	3.8	4.82e-01	0	56	104	17825792	58	18752
2026-01-18 10:10:21.22	166.01	8.35	-43.8	-55.2	3.9	1.46e+00	0	56	104	17825792	58	13999
2026-01-18 10:10:22.23	166.02	8.44	-43.2	-50.3	7.1	1.08e-01	0	56	0	18874368	58	7961
2026-01-18 10:10:23.24	166.03	8.52	-43.1	-49.8	7.5	1.20e-01	0	56	0	20971520	58	7520
2026-01-18 10:10:24.25	166.05	8.60	-43.1	-49.6	7.7	1.15e-01	0	56	0	22020096	58	7359
2026-01-18 10:10:25.26	166.06	8.69	-43.1	-49.8	7.5	9.71e-02	0	56	0	24117248	58	7499
2026-01-18 10:10:26.27	166.07	8.77	-43.0	-49.5	7.8	8.80e-02	0	56	0	26214400	58	7284
2026-01-18 10:10:27.28	166.09	8.85	-43.1	-49.8	7.5	9.35e-02	0	57	0	28311552	58	7472
2026-01-18 10:10:28.29	166.10	8.94	-43.0	-49.4	8.0	8.79e-02	0	56	0	30408704	58	7127
2026-01-18 10:10:29.30	166.11	9.02	-43.1	-49.6	7.7	8.60e-02	0	57	0	31457280	58	7308
2026-01-18 10:10:30.31	166.13	9.11	-43.0	-49.4	8.0	6.54e-02	0	57	0	33554432	58	7154
2026-01-18 10:10:31.32	166.14	9.19	-43.0	-49.4	8.0	7.10e-02	0	57	0	35651584	58	7163
2026-01-18 10:10:32.33	166.15	9.28	-43.0	-49.3	8.1	7.54e-02	0	56	0	37748736	58	7071
2026-01-18 10:10:33.34	166.17	9.36	-43.0	-49.3	8.0	6.52e-02	0	57	0	39845888	58	7096
2026-01-18 10:10:34.35	166.18	9.45	-43.1	-49.4	8.0	6.34e-02	0	57	0	40894464	58	7163
2026-01-18 10:10:35.36	166.20	9.53	-43.0	-49.2	8.2	6.09e-02	0	57	0	42991616	58	6989
2026-01-18 10:10:36.37	166.21	9.62	-43.0	-49.1	8.3	5.05e-02	0	57	0	45088768	57	7289
2026-01-18 10:10:37.38	166.22	9.71	-43.0	-49.1	8.2	6.17e-02	0	57	0	47185920	57	7355
2026-01-18 10:10:38.39	166.24	9.80	-43.0	-49.0	8.4	4.53e-02	0	57	0	49283072	57	7269
2026-01-18 10:10:39.40	166.25	9.88	-43.0	-49.1	8.3	5.20e-02	0	57	0	50331648	57	7296
2026-01-18 10:10:40.41	166.27	9.97	-43.0	-49.0	8.4	4.39e-02	0	57	0	52428800	57	7269
2026-01-18 10:10:41.42	166.28	10.06	-42.9	-48.9	8.6	4.24e-02	0	57	0	54525952	57	7141
2026-01-18 10:10:42.43	166.29	10.15	-42.9	-48.8	8.6	4.15e-02	0	57	0	56623104	57	7080
2026-01-18 10:10:43.44	166.31	10.24	-42.9	-48.8	8.6	4.14e-02	0	57	0	58720256	57	7105
2026-01-18 10:10:44.46	166.32	10.33	-42.9	-48.8	8.6	4.23e-02	0	57	0	60817408	57	7118
2026-01-18 10:10:45.47	166.34	10.42	-42.9	-48.8	8.6	3.90e-02	0	57	0	61865984	57	7098
2026-01-18 10:10:46.48	166.35	10.51	-42.9	-48.7	8.7	3.36e-02	0	57	0	63963136	57	6989
2026-01-18 10:10:47.49	166.37	10.60	-42.9	-48.8	8.7	3.60e-02	0	57	0	66060288	57	7045
2026-01-18 10:10:48.50	166.38	10.69	-42.9	-48.5	9.0	2.32e-02	0	57	0	68157440	57	6827
2026-01-18 10:10:49.51	166.40	10.78	-42.9	-48.5	9.0	2.81e-02	0	57	0	70254592	57	6849
2026-01-18 10:10:50.52	166.41	10.87	-42.8	-48.3	9.2	2.47e-02	0	57	0	71303168	57	6676
2026-01-18 10:10:51.53	166.43	10.96	-42.8	-48.2	9.3	1.92e-02	0	57	0	73400320	57	6615
2026-01-18 10:10:52.54	166.44	11.05	-42.8	-48.1	9.4	1.96e-02	0	57	0	75497472	57	6564
2026-01-18 10:10:53.54	166.46	11.14	-42.7	-47.9	9.6	1.47e-02	0	57	0	77594624	57	6409
2026-01-18 10:10:54.54	166.47	11.23	-42.7	-47.8	9.7	1.23e-02	0	57	0	79691776	57	6334
2026-01-18 10:10:55.55	166.49	11.33	-42.6	-47.8	9.9	1.04e-02	0	57	0	80740352	57	6280
2026-01-18 10:10:56.56	166.50	11.42	-42.7	-47.8	9.7	1.07e-02	0	57	0	82837504	57	6307
2026-01-18 10:10:57.57	166.52	11.51	-42.7	-47.8	9.8	9.06e-03	0	57	0	84934656	57	6311
2026-01-18 10:10:58.58	166.54	11.61	-42.6	-47.5	10.1	8.57e-03	0	57	0	87031808	57	6097
2026-01-18 10:10:59.59	166.55	11.70	-42.6	-47.7	9.9	7.85e-03	0	57	0	89128960	57	6235
2026-01-18 10:11:00.60	166.57	11.80	-42.6	-47.5	10.1	7.35e-03	0	57	0	90177536	57	6106
2026-01-18 10:11:01.61	166.58	11.89	-42.6	-47.5	10.2	6.16e-03	0	57	0	92274688	57	6070
2026-01-18 10:11:02.62	166.60	11.99	-42.6	-47.5	10.1	6.77e-03	0	58	0	94371840	57	6106
2026-01-18 10:11:03.63	166.62	12.08	-42.6	-47.4	10.2	6.23e-03	0	58	0	96468992	57	6039
2026-01-18 10:11:04.64	166.63	12.18	-42.5	-47.4	10.3	5.02e-03	0	58	0	98566144	57	5995
2026-01-18 10:11:05.65	166.65	12.27	-42.6	-47.5	10.2	6.31e-03	0	57	0	99614720	57	6083
2026-01-18 10:11:06.66	166.66	12.37	-42.5	-47.2	10.5	5.27e-03	0	57	0	101711872	56	6212
2026-01-18 10:11:07.67	166.68	12.47	-42.5	-47.3	10.3	5.21e-03	0	58	0	103809024	56	6347
2026-01-18 10:11:08.68	166.70	12.57	-42.5	-47.3	10.4	5.28e-03	0	58	0	105906176	56	6298
2026-01-18 10:11:09.69	166.71	12.66	-42.6	-47.4	10.4	3.46e-03	0	58	0	108003328	56	6364
2026-01-18 10:11:10.69	166.73	12.76	-42.5	-47.3	10.4	4.91e-03	0	57	0	109051904	56	6326
2026-01-18 10:11:11.70	166.75	12.86	-42.5	-47.2	10.5	4.03e-03	0	58	0	111149056	56	6250
2026-01-18 10:11:12.71	166.76	12.96	-42.4	-47.0	10.8	3.15e-03	0	58	0	113246208	56	6096
2026-01-18 10:11:13.72	166.78	13.06	-42.4	-46.9	10.9	2.66e-03	0	58	0	115343360	56	6014
2026-01-18 10:11:14.73	166.80	13.16	-42.4	-46.9	10.9	2.46e-03	0	58	0	117440512	56	6009
2026-01-18 10:11:15.74	166.82	13.26	-42.3	-46.8	11.0	2.26e-03	0	58	0	118489088	56	5955
2026-01-18 10:11:16.75	166.83	13.36	-42.3	-46.7	11.1	1.69e-03	0	58	0	120586240	56	5891
2026-01-18 10:11:17.76	166.85	13.46	-42.3	-46.7	11.1	1.52e-03	0	58	0	122683392	56	5860
2026-01-18 10:11:18.77	166.87	13.56	-42.3	-46.7	11.2	1.56e-03	0	58	0	124780544	56	5870
2026-01-18 10:11:19.78	166.88	13.66	-42.2	-46.6	11.2	1.51e-03	0	58	0	126877696	56	5797
2026-01-18 10:11:20.79	166.90	13.77	-42.2	-46.4	11.4	1.38e-03	0	58	0	128974848	56	5690
2026-01-18 10:11:21.80	166.92	13.87	-42.2	-46.5	11.3	9.96e-04	0	58	0	130023424	56	5763
2026-01-18 10:11:22.81	166.94	13.97	-42.2	-46.4	11.4	7.61e-04	0	58	0	132120576	56	5709
2026-01-18 10:11:23.81	166.96	14.08	-42.2	-46.5	11.4	8.70e-04	0	58	0	134217728	56	5725
2026-01-18 10:11:24.82	166.97	14.18	-42.2	-46.4	11.5	8.14e-04	0	58	0	136314880	56	5666
2026-01-18 10:11:25.83	166.99	14.29	-42.2	-46.4	11.5	7.71e-04	0	58	0	137363456	56	5658
2026-01-18 10:11:26.84	167.01	14.39	-42.1	-46.2	11.6	7.63e-04	0	58	0	139460608	56	5588
2026-01-18 10:11:27.85	167.03	14.50	-42.1	-46.2	11.7	6.23e-04	0	58	0	141557760	56	5562
2026-01-18 10:11:28.86	167.05	14.60	-42.0	-46.0	11.8	4.94e-04	0	58	0	143654912	56	5439
2026-01-18 10:11:29.87	167.07	14.71	-42.0	-46.0	11.9	4.39e-04	0	58	0	145752064	56	5433
2026-01-18 10:11:30.88	167.08	14.82	-42.0	-46.0	11.9	3.68e-04	0	58	0	146800640	56	5427
2026-01-18 10:11:31.89	167.10	14.92	-42.0	-45.9	11.9	3.46e-04	0	58	0	148897792	56	5392
2026-01-18 10:11:32.90	167.12	15.03	-41.8	-45.7	12.1	3.17e-04	0	58	0	150994944	55	5545
2026-01-18 10:11:33.91	167.14	15.14	-41.7	-45.5	12.2	2.33e-04	0	58	0	153092096	55	5462
2026-01-18 10:11:34.92	167.16	15.25	-41.7	-45.4	12.3	2.43e-04	0	58	0	155189248	55	5397
2026-01-18 10:11:35.93	167.18	15.36	-41.7	-45.4	12.4	1.65e-04	0	58	0	157286400	55	5380
2026-01-18 10:11:36.94	167.20	15.47	-41.7	-45.4	12.4	1.70e-04	0	58	0	158334976	55	5351
2026-01-18 10:11:37.95	167.22	15.58	-41.7	-45.4	12.3	1.58e-04	0	58	0	160432128	55	5385
2026-01-18 10:11:38.96	167.24	15.69	-41.7	-45.5	12.3	1.85e-04	0	58	0	162529280	55	5408
2026-01-18 10:11:39.97	167.26	15.80	-41.7	-45.5	12.3	1.98e-04	0	58	0	164626432	55	5418
2026-01-18 10:11:40.98	167.28	15.91	-41.8	-45.5	12.2	1.98e-04	0	58	0	166723584	55	5462
2026-01-18 10:11:41.99	167.30	16.03	-41.8	-45.7	12.1	2.08e-04	0	58	0	167772160	55	5568
2026-01-18 10:11:43.00	167.32	16.14	-41.6	-45.3	12.4	1.88e-04	0	58	0	169869312	55	5334
2026-01-18 10:11:44.01	167.34	16.25	-41.8	-45.6	12.2	1.71e-04	0	58	0	171966464	55	5467
2026-01-18 10:11:45.02	167.36	16.37	-41.7	-45.4	12.4	2.31e-04	0	59	0	174063616	55	5398
2026-01-18 10:11:46.03	167.38	16.48	-41.7	-45.5	12.3	2.10e-04	0	58	0	176160768	55	5422
2026-01-18 10:11:47.04	167.40	16.60	-41.6	-45.2	12.6	1.62e-04	0	58	0	177209344	55	5259
2026-01-18 10:11:48.04	167.42	16.71	-41.6	-45.3	12.6	9.00e-05	0	58	0	179306496	55	5282
2026-01-18 10:11:49.05	167.44	16.83	-41.6	-45.2	12.6	9.46e-05	0	58	0	181403648	55	5244
2026-01-18 10:11:50.06	167.46	16.94	-41.6	-45.2	12.6	8.16e-05	0	58	0	183500800	55	5240
2026-01-18 10:11:51.07	167.49	17.06	-41.6	-45.1	12.7	7.09e-05	0	58	0	185597952	55	5194
2026-01-18 10:11:52.08	167.51	17.18	-41.6	-45.2	12.6	8.08e-05	0	59	0	186646528	55	5245
2026-01-18 10:11:53.09	167.53	17.30	-41.5	-44.9	12.9	4.80e-05	0	58	0	188743680	54	5387
2026-01-18 10:11:54.10	167.55	17.42	-41.6	-45.2	12.7	5.56e-05	0	59	0	190840832	54	5546
2026-01-18 10:11:55.11	167.57	17.54	-41.5	-45.0	12.9	5.11e-05	0	59	0	192937984	54	5450
2026-01-18 10:11:56.12	167.59	17.66	-41.6	-45.2	12.6	5.95e-05	0	58	0	195035136	54	5561
2026-01-18 10:11:57.13	167.62	17.78	-41.6	-45.2	12.7	4.73e-05	0	59	0	196083712	54	5567
2026-01-18 10:11:58.14	167.64	17.90	-41.6	-45.2	12.6	8.31e-05	0	58	0	198180864	54	5585
2026-01-18 10:11:59.15	167.66	18.02	-41.6	-45.2	12.7	6.56e-05	0	59	0	200278016	54	5560
2026-01-18 10:12:00.16	167.68	18.14	-41.6	-45.1	12.8	1.13e-04	0	59	0	202375168	54	5511
2026-01-18 10:12:01.17	167.71	18.27	-41.7	-45.3	12.6	8.62e-05	0	59	0	204472320	54	5617
2026-01-18 10:12:02.18	167.73	18.39	-41.8	-45.5	12.4	1.45e-04	0	58	0	205520896	54	5743
2026-01-18 10:12:03.18	167.75	18.51	-41.8	-45.5	12.4	1.65e-04	0	58	0	207618048	54	5743
2026-01-18 10:12:04.19	167.78	18.64	-41.7	-45.4	12.5	1.44e-04	0	59	0	209715200	54	5718
2026-01-18 10:12:05.20	167.80	18.76	-41.8	-45.6	12.4	1.54e-04	0	59	0	211812352	54	5790
2026-01-18 10:12:06.21	167.82	18.89	-41.7	-45.3	12.6	1.40e-04	0	59	0	213909504	54	5634
2026-01-18 10:12:07.22	167.85	19.02	-41.8	-45.5	12.4	1.57e-04	0	59	0	214958080	54	5745
2026-01-18 10:12:08.23	167.87	19.14	-41.8	-45.6	12.3	1.59e-04	0	59	0	217055232	54	5814
2026-01-18 10:12:09.24	167.89	19.27	-41.9	-45.8	12.1	1.89e-04	0	59	0	219152384	54	5929
2026-01-18 10:12:10.25	167.92	19.40	-41.9	-45.7	12.2	1.54e-04	0	59	0	221249536	54	5875
2026-01-18 10:12:11.26	167.94	19.53	-41.7	-45.3	12.6	1.37e-04	0	59	0	223346688	54	5654
2026-01-18 10:12:12.27	167.97	19.66	-41.7	-45.4	12.6	9.99e-05	0	59	0	225443840	54	5675
2026-01-18 10:12:13.28	167.99	19.79	-41.7	-45.4	12.5	1.25e-04	0	59	0	226492416	54	5697
2026-01-18 10:12:14.29	168.02	19.92	-41.8	-45.4	12.5	9.00e-05	0	59	0	228589568	54	5722
2026-01-18 10:12:15.29	168.04	20.05	-41.8	-45.5	12.4	1.14e-04	0	59	0	230686720	54	5772
2026-01-18 10:12:16.31	168.07	20.19	-41.9	-45.6	12.4	1.71e-04	0	59	0	232783872	54	5830
2026-01-18 10:12:17.32	168.09	20.32	-41.9	-45.7	12.2	1.95e-04	0	59	0	234881024	54	5864
2026-01-18 10:12:18.33	168.12	20.46	-41.9	-45.8	12.2	1.68e-04	0	59	0	235929600	54	5961
2026-01-18 10:12:19.33	168.15	20.59	-41.8	-45.6	12.3	2.16e-04	0	59	0	238026752	54	5799
2026-01-18 10:12:20.34	168.17	20.73	-42.0	-45.9	12.0	2.45e-04	0	59	0	240123904	54	6042
2026-01-18 10:12:21.35	168.20	20.86	-42.1	-46.1	11.9	4.47e-04	0	59	0	242221056	54	6154
2026-01-18 10:12:22.36	168.22	21.00	-42.1	-46.2	11.8	4.97e-04	0	59	0	244318208	54	6223
2026-01-18 10:12:23.37	168.25	21.14	-42.2	-46.2	11.8	6.55e-04	0	59	0	245366784	55	5888
2026-01-18 10:12:24.38	168.28	21.28	-42.2	-46.4	11.6	7.22e-04	0	59	0	247463936	55	5995
2026-01-18 10:12:25.39	168.31	21.42	-42.3	-46.5	11.5	7.54e-04	0	59	0	249561088	55	6064
2026-01-18 10:12:26.39	168.33	21.56	-42.3	-46.5	11.5	6.77e-04	0	59	0	251658240	55	6070
2026-01-18 10:12:27.40	168.36	21.70	-42.3	-46.5	11.4	9.13e-04	0	59	0	253755392	55	6093
2026-01-18 10:12:28.41	168.39	21.84	-42.3	-46.5	11.4	9.82e-04	0	59	0	254803968	55	6085
2026-01-18 10:12:29.42	168.42	21.98	-42.3	-46.6	11.3	9.89e-04	0	59	0	256901120	55	6160
2026-01-18 10:12:30.43	168.45	22.13	-42.3	-46.6	11.3	1.11e-03	0	59	0	258998272	55	6169
2026-01-18 10:12:31.44	168.47	22.27	-42.2	-46.4	11.6	9.22e-04	0	59	0	261095424	55	6013
2026-01-18 10:12:32.45	168.50	22.42	-42.3	-46.5	11.4	9.94e-04	0	59	0	263192576	55	6090
2026-01-18 10:12:33.46	168.53	22.56	-42.3	-46.5	11.4	1.04e-03	0	59	0	264241152	55	6104
2026-01-18 10:12:34.47	168.56	22.71	-42.3	-46.5	11.5	9.56e-04	0	59	0	266338304	55	6098
2026-01-18 10:12:35.48	168.59	22.86	-42.3	-46.6	11.3	1.06e-03	0	59	0	268435456	55	6147
2026-01-18 10:12:36.49	168.62	23.01	-42.4	-46.6	11.2	1.34e-03	0	59	0	270532608	55	6188
2026-01-18 10:12:37.50	168.65	23.16	-42.4	-46.6	11.4	9.46e-04	0	59	0	272629760	55	6157
2026-01-18 10:12:38.51	168.68	23.31	-42.4	-46.6	11.3	1.22e-03	0	59	0	273678336	55	6190
2026-01-18 10:12:39.52	168.71	23.46	-42.3	-46.5	11.4	1.12e-03	0	59	0	275775488	55	6115
2026-01-18 10:12:40.53	168.74	23.61	-42.5	-46.9	11.1	1.31e-03	0	59	0	277872640	55	6356
2026-01-18 10:12:41.54	168.77	23.76	-42.5	-46.8	11.1	1.26e-03	0	59	0	279969792	55	6324
2026-01-18 10:12:42.55	168.81	23.92	-42.4	-46.7	11.2	1.47e-03	0	59	0	282066944	55	6274
2026-01-18 10:12:43.55	168.84	24.07	-42.4	-46.8	11.2	1.43e-03	0	59	0	283115520	55	6276
2026-01-18 10:12:44.56	168.87	24.22	-42.4	-46.7	11.2	1.49e-03	0	59	0	285212672	55	6271
2026-01-18 10:12:45.57	168.90	24.38	-42.3	-46.5	11.4	8.66e-04	0	59	0	287309824	55	6111
2026-01-18 10:12:46.58	168.93	24.54	-42.3	-46.5	11.4	1.28e-03	0	59	0	289406976	55	6092
2026-01-18 10:12:47.59	168.97	24.70	-42.3	-46.4	11.6	9.49e-04	0	59	0	291504128	55	5997
2026-01-18 10:12:48.60	169.00	24.86	-42.4	-46.7	11.2	7.60e-04	0	59	0	293601280	55	6245
2026-01-18 10:12:49.61	169.03	25.02	-42.4	-46.8	11.2	9.12e-04	0	59	0	294649856	55	6276
2026-01-18 10:12:50.62	169.07	25.18	-42.3	-46.5	11.5	9.93e-04	0	59	0	296747008	55	6111
2026-01-18 10:12:51.63	169.10	25.34	-42.4	-46.7	11.3	1.09e-03	0	59	0	298844160	55	6227
2026-01-18 10:12:52.64	169.14	25.50	-42.4	-46.6	11.3	1.30e-03	0	59	0	300941312	55	6180
2026-01-18 10:12:53.65	169.17	25.67	-42.4	-46.7	11.2	1.27e-03	0	59	0	303038464	55	6247
2026-01-18 10:12:54.66	169.21	25.83	-42.4	-46.7	11.2	1.29e-03	0	59	0	304087040	55	6203
2026-01-18 10:12:55.67	169.24	26.00	-42.4	-46.6	11.3	1.66e-03	0	59	0	306184192	55	6199
2026-01-18 10:12:56.67	169.28	26.17	-42.4	-46.7	11.3	1.08e-03	0	59	0	308281344	55	6213
2026-01-18 10:12:57.68	169.31	26.33	-42.3	-46.4	11.5	8.36e-04	0	59	0	310378496	55	6058
2026-01-18 10:12:58.69	169.35	26.50	-42.3	-46.5	11.4	9.28e-04	0	59	0	312475648	55	6097
2026-01-18 10:12:59.70	169.39	26.67	-42.1	-45.9	12.0	4.16e-04	0	59	0	313524224	55	5722
2026-01-18 10:13:00.71	169.42	26.85	-42.1	-45.9	12.1	3.68e-04	0	59	0	315621376	55	5721
2026-01-18 10:13:01.72	169.46	27.02	-42.1	-46.0	12.0	4.93e-04	0	59	0	317718528	55	5775
2026-01-18 10:13:02.73	169.50	27.19	-42.1	-45.9	12.1	2.98e-04	0	59	0	319815680	55	5666
2026-01-18 10:13:03.74	169.54	27.37	-42.3	-46.3	11.7	3.97e-04	0	60	0	321912832	55	5948
2026-01-18 10:13:04.75	169.58	27.54	-42.2	-46.3	11.7	5.92e-04	0	59	0	322961408	55	5924
2026-01-18 10:13:05.76	169.62	27.72	-42.3	-46.3	11.7	5.70e-04	0	59	0	325058560	55	5974
2026-01-18 10:13:06.77	169.66	27.90	-42.6	-46.9	11.0	1.10e-03	0	59	0	327155712	55	6402
2026-01-18 10:13:07.78	169.70	28.08	-42.4	-46.6	11.4	1.02e-03	0	59	0	329252864	55	6199
2026-01-18 10:13:08.79	169.74	28.26	-42.3	-46.4	11.6	6.96e-04	0	59	0	331350016	55	6059
2026-01-18 10:13:09.80	169.78	28.44	-42.4	-46.6	11.4	1.18e-03	0	59	0	332398592	55	6143
2026-01-18 10:13:10.81	169.82	28.62	-42.3	-46.4	11.6	8.33e-04	0	60	0	334495744	55	6048
2026-01-18 10:13:11.82	169.86	28.81	-42.3	-46.4	11.6	5.39e-04	0	59	0	336592896	55	6040
2026-01-18 10:13:12.82	169.90	28.99	-42.2	-46.1	12.0	5.13e-04	0	59	0	338690048	55	5795
2026-01-18 10:13:13.83	169.94	29.18	-42.3	-46.4	11.6	5.48e-04	0	59	0	340787200	55	6010
2026-01-18 10:13:14.84	169.99	29.37	-42.3	-46.4	11.5	5.89e-04	0	60	0	341835776	55	6049
2026-01-18 10:13:15.85	170.03	29.55	-42.4	-46.6	11.4	7.59e-04	0	59	0	343932928	55	6179
2026-01-18 10:13:16.86	170.07	29.75	-42.4	-46.7	11.5	1.04e-03	0	59	0	346030080	55	6206
2026-01-18 10:13:17.87	170.12	29.94	-42.5	-46.9	11.1	1.06e-03	0	59	0	348127232	55	6382
2026-01-18 10:13:18.88	170.16	30.13	-42.5	-46.9	11.1	1.78e-03	0	60	0	350224384	55	6380
2026-01-18 10:13:19.89	170.21	30.32	-42.6	-46.8	11.3	2.19e-03	0	59	0	351272960	56	5971
2026-01-18 10:13:20.90	170.25	30.52	-42.9	-47.6	10.5	2.67e-03	0	60	0	353370112	56	6540
2026-01-18 10:13:21.91	170.30	30.72	-43.0	-47.8	10.4	3.73e-03	0	60	0	355467264	56	6673
2026-01-18 10:13:22.92	170.35	30.91	-42.8	-47.3	10.9	2.27e-03	0	60	0	357564416	56	6314
2026-01-18 10:13:23.93	170.40	31.11	-42.9	-47.5	10.6	3.54e-03	0	60	0	359661568	56	6476
2026-01-18 10:13:24.94	170.44	31.31	-42.9	-47.5	10.6	3.52e-03	0	60	0	361758720	56	6472
2026-01-18 10:13:25.95	170.49	31.52	-43.0	-47.7	10.5	2.83e-03	0	59	0	362807296	56	6595
2026-01-18 10:13:26.96	170.54	31.72	-43.0	-47.8	10.4	3.56e-03	0	60	0	364904448	56	6653
2026-01-18 10:13:27.97	170.59	31.92	-43.1	-47.9	10.3	4.68e-03	0	60	0	367001600	56	6753
2026-01-18 10:13:28.98	170.64	32.13	-43.2	-48.1	9.9	1.24e-02	0	59	0	369098752	57	6543
2026-01-18 10:13:29.99	170.69	32.34	-43.3	-48.5	9.6	1.16e-02	0	60	0	371195904	57	6859
2026-01-18 10:13:31.00	170.74	32.55	-43.4	-48.7	9.4	1.53e-02	0	60	0	372244480	57	6977
2026-01-18 10:13:32.01	170.80	32.76	-43.5	-49.0	9.2	2.15e-02	0	60	0	374341632	57	7226
2026-01-18 10:13:33.02	170.85	32.97	-43.4	-48.9	9.2	2.73e-02	0	59	0	376438784	57	7122
2026-01-18 10:13:34.03	170.90	33.18	-43.4	-48.9	9.2	1.57e-02	0	60	0	378535936	57	7124
2026-01-18 10:13:35.04	170.96	33.40	-43.3	-48.5	9.6	1.49e-02	0	60	0	380633088	57	6841
2026-01-18 10:13:36.05	171.01	33.62	-43.3	-48.6	9.4	1.88e-02	0	60	0	381681664	57	6936
2026-01-18 10:13:37.05	171.07	33.83	-43.3	-48.6	9.5	1.60e-02	0	60	0	383778816	57	6902
2026-01-18 10:13:38.07	171.12	34.05	-43.4	-48.7	9.4	1.37e-02	0	60	0	385875968	57	7006
2026-01-18 10:13:39.08	171.18	34.27	-43.4	-48.7	9.5	2.05e-02	0	60	0	387973120	57	7005
2026-01-18 10:13:40.08	171.24	34.49	-43.2	-48.2	9.9	1.05e-02	0	60	0	390070272	57	6596
2026-01-18 10:13:41.09	171.30	34.72	-43.1	-48.1	10.1	6.82e-03	0	60	0	391118848	57	6499
2026-01-18 10:13:42.10	171.35	34.94	-43.0	-47.8	10.3	5.16e-03	0	60	0	393216000	57	6316
2026-01-18 10:13:43.11	171.41	35.17	-42.8	-47.3	11.0	2.67e-03	0	60	0	395313152	57	5949
2026-01-18 10:13:44.12	171.48	35.40	-42.8	-47.2	11.0	1.15e-03	0	60	0	397410304	57	5874
2026-01-18 10:13:45.13	171.54	35.63	-42.6	-46.9	11.4	1.02e-03	0	60	0	399507456	57	5697
2026-01-18 10:13:46.14	171.60	35.86	-42.5	-46.6	11.6	7.45e-04	0	60	0	400556032	56	5830
2026-01-18 10:13:47.15	171.66	36.10	-42.5	-46.6	11.6	6.44e-04	0	60	0	402653184	56	5832
2026-01-18 10:13:48.16	171.73	36.33	-42.4	-46.4	11.8	5.25e-04	0	60	0	404750336	56	5712
2026-01-18 10:13:49.17	171.79	36.57	-42.3	-46.1	12.2	2.04e-04	0	60	0	406847488	56	5499
2026-01-18 10:13:50.18	171.86	36.81	-42.1	-45.7	12.6	1.33e-04	0	60	0	408944640	56	5248
2026-01-18 10:13:51.19	171.92	37.05	-42.0	-45.5	12.8	7.85e-05	0	60	0	409993216	56	5137
2026-01-18 10:13:52.20	171.99	37.29	-41.5	-44.8	13.3	2.89e-05	0	60	0	412090368	55	5024
2026-01-18 10:13:53.20	172.06	37.53	-41.5	-44.8	13.4	1.22e-05	0	60	0	414187520	54	5283
2026-01-18 10:13:54.21	172.13	37.78	-41.5	-44.7	13.5	1.29e-05	0	60	0	416284672	54	5238
2026-01-18 10:13:55.22	172.20	38.03	-41.3	-44.3	13.8	7.00e-07	0	60	0	418381824	54	5029
2026-01-18 10:13:56.23	172.27	38.28	-41.3	-44.5	13.6	8.30e-06	0	60	0	419430400	54	5116
2026-01-18 10:13:57.24	172.35	38.53	-41.4	-44.7	13.5	1.06e-05	0	60	0	421527552	54	5225
2026-01-18 10:13:58.25	172.42	38.78	-41.5	-44.7	13.4	1.06e-05	0	60	0	423624704	54	5276
2026-01-18 10:13:59.26	172.49	39.04	-41.5	-44.8	13.4	1.83e-05	0	60	0	425721856	54	5281
2026-01-18 10:14:00.27	172.57	39.29	-41.4	-44.6	13.5	1.14e-05	0	60	0	427819008	54	5174
2026-01-18 10:14:01.28	172.65	39.55	-41.4	-44.6	13.6	7.60e-06	0	60	0	428867584	54	5194
2026-01-18 10:14:02.29	172.73	39.81	-41.6	-45.0	13.2	2.05e-05	0	60	0	430964736	54	5423
2026-01-18 10:14:03.30	172.81	40.08	-41.8	-45.3	12.8	6.63e-05	0	60	0	433061888	54	5644
2026-01-18 10:14:04.31	172.89	40.34	-41.8	-45.2	12.9	4.73e-05	0	60	0	435159040	54	5580
2026-01-18 10:14:05.32	172.97	40.61	-42.0	-45.5	12.6	9.30e-05	0	60	0	437256192	54	5786
2026-01-18 10:14:06.33	173.05	40.87	-42.0	-45.6	12.5	1.09e-04	0	60	0	438304768	54	5823
2026-01-18 10:14:07.34	173.14	41.14	-42.1	-45.7	12.4	8.92e-05	0	60	0	440401920	54	5907
2026-01-18 10:14:08.35	173.22	41.42	-42.2	-46.1	12.1	3.26e-04	0	60	0	442499072	55	5817
2026-01-18 10:14:09.36	173.31	41.69	-42.3	-46.2	11.9	2.41e-04	0	60	0	444596224	55	5901
2026-01-18 10:14:10.37	173.40	41.97	-42.3	-46.3	11.9	2.64e-04	0	60	0	446693376	55	5941
2026-01-18 10:14:11.38	173.49	42.25	-42.3	-46.1	12.0	5.30e-04	0	60	0	447741952	55	5853
2026-01-18 10:14:12.38	173.58	42.52	-42.3	-46.3	11.8	4.15e-04	0	60	0	449839104	55	5944
2026-01-18 10:14:13.39	173.68	42.80	-42.2	-46.0	12.0	6.35e-04	0	60	0	451936256	55	5761
2026-01-18 10:14:14.40	173.77	43.09	-42.2	-46.1	12.0	3.23e-04	0	60	0	454033408	55	5806
2026-01-18 10:14:15.41	173.87	43.38	-41.9	-45.5	12.6	1.94e-04	0	60	0	456130560	55	5423
2026-01-18 10:14:16.42	173.97	43.66	-41.9	-45.5	12.7	8.77e-05	0	60	0	458227712	55	5416
2026-01-18 10:14:17.43	174.07	43.95	-42.0	-45.6	12.6	8.85e-05	0	60	0	459276288	55	5467
2026-01-18 10:14:18.44	174.17	44.25	-42.0	-45.6	12.5	6.48e-05	0	60	0	461373440	55	5516
2026-01-18 10:14:19.45	174.27	44.54	-42.1	-45.8	12.3	9.46e-05	0	60	0	463470592	55	5625
2026-01-18 10:14:20.46	174.38	44.84	-42.3	-46.2	12.1	2.21e-04	0	60	0	465567744	55	5883
2026-01-18 10:14:21.47	174.49	45.14	-42.7	-47.1	11.1	5.47e-04	0	60	0	467664896	55	6510
2026-01-18 10:14:22.48	174.60	45.44	-43.0	-47.5	10.7	2.65e-03	0	60	0	468713472	56	6487
2026-01-18 10:14:23.49	174.71	45.74	-43.5	-48.9	9.4	5.72e-03	0	60	0	470810624	57	7197
2026-01-18 10:14:24.50	174.82	46.05	-43.6	-49.1	9.0	2.46e-02	0	60	0	472907776	57	7336
2026-01-18 10:14:25.51	174.94	46.35	-43.7	-49.6	8.6	3.40e-02	0	60	0	475004928	58	7297
2026-01-18 10:14:26.52	175.06	46.66	-43.8	-49.8	8.4	4.26e-02	0	60	0	477102080	58	7536
2026-01-18 10:14:27.53	175.18	46.98	-43.8	-49.6	8.6	4.41e-02	0	60	0	478150656	58	7328
2026-01-18 10:14:28.54	175.30	47.29	-43.7	-49.5	8.7	4.42e-02	0	60	0	480247808	58	7247
2026-01-18 10:14:29.55	175.43	47.61	-43.6	-49.2	9.0	4.67e-02	0	60	0	482344960	58	6998
2026-01-18 10:14:30.56	175.55	47.92	-43.7	-49.5	8.8	3.19e-02	0	60	0	484442112	58	7206
2026-01-18 10:14:31.57	175.68	48.25	-43.4	-48.6	9.7	3.39e-02	0	60	0	486539264	58	6566
2026-01-18 10:14:32.58	175.82	48.57	-43.5	-49.0	9.2	1.39e-02	0	60	0	487587840	58	6848
2026-01-18 10:14:33.59	175.95	48.89	-43.4	-48.5	9.7	1.53e-02	0	60	0	489684992	58	6427
2026-01-18 10:14:34.60	176.09	49.22	-42.7	-46.9	11.4	2.28e-03	0	60	0	491782144	57	5690
2026-01-18 10:14:35.61	176.23	49.55	-42.5	-46.5	11.9	4.33e-04	0	60	0	493879296	56	5738
2026-01-18 10:14:36.62	176.38	49.88	-41.8	-45.2	13.0	1.07e-04	0	60	0	495976448	55	5235
2026-01-18 10:14:37.63	176.53	50.22	-41.8	-45.2	13.0	4.42e-05	0	60	0	497025024	55	5251
2026-01-18 10:14:38.64	176.68	50.55	-41.6	-44.9	13.3	2.51e-05	0	60	0	499122176	55	5061
2026-01-18 10:14:39.65	176.83	50.89	-41.7	-45.1	13.0	1.60e-05	0	60	0	501219328	55	5218
2026-01-18 10:14:40.66	176.99	51.23	-41.9	-45.4	12.8	6.10e-05	0	60	0	503316480	55	5348
2026-01-18 10:14:41.67	177.15	51.58	-42.0	-45.6	12.6	8.92e-05	0	60	0	505413632	55	5491
2026-01-18 10:14:42.68	177.32	51.92	-41.6	-44.9	13.3	4.95e-05	0	60	0	506462208	55	5047
2026-01-18 10:14:43.69	177.48	52.27	-41.5	-44.7	13.6	1.22e-05	0	60	0	508559360	54	5221
2026-01-18 10:14:44.70	177.66	52.62	-41.0	-43.8	14.3	1.50e-06	0	60	0	510656512	54	4759
2026-01-18 10:14:45.71	177.83	52.97	-40.9	-43.8	14.4	1.50e-06	0	60	0	512753664	53	5005
2026-01-18 10:14:46.72	178.02	53.33	-40.8	-43.6	14.6	0.00e+00	0	60	0	514850816	53	4905
2026-01-18 10:14:47.73	178.20	53.68	-41.0	-43.8	14.4	7.00e-07	0	60	0	515899392	53	5037
2026-01-18 10:14:48.74	178.39	54.04	-41.2	-44.2	14.0	1.50e-06	0	60	0	517996544	53	5222
2026-01-18 10:14:49.75	178.59	54.40	-41.0	-43.9	14.3	1.50e-06	0	60	0	520093696	53	5087
2026-01-18 10:14:50.75	178.78	54.76	-41.0	-43.8	14.4	7.00e-07	0	60	0	522190848	53	5035
2026-01-18 10:14:51.76	178.99	55.13	-40.8	-43.6	14.6	0.00e+00	0	60	0	524288000	53	4873
2026-01-18 10:14:52.77	179.20	55.50	-40.4	-43.0	15.2	0.00e+00	0	60	0	526385152	52	4853
2026-01-18 10:14:53.78	179.41	55.87	-40.2	-42.7	15.6	0.00e+00	0	60	0	527433728	52	4664
2026-01-18 10:14:54.79	179.64	56.24	-40.4	-43.0	15.3	0.00e+00	0	60	0	529530880	52	4818
2026-01-18 10:14:55.80	179.86	56.61	-40.8	-43.6	14.7	0.00e+00	0	60	0	531628032	52	5168
2026-01-18 10:14:56.81	180.10	56.99	-41.1	-44.1	14.1	1.50e-06	0	60	0	533725184	52	5473
2026-01-18 10:14:57.82	180.34	57.37	-40.7	-43.5	14.8	0.00e+00	0	60	0	535822336	52	5124
2026-01-18 10:14:58.83	180.58	57.75	-40.6	-43.3	14.9	0.00e+00	0	60	0	536870912	52	5019
2026-01-18 10:14:59.84	180.83	58.13	-40.3	-42.8	15.4	0.00e+00	0	60	0	538968064	52	4751
2026-01-18 10:15:00.85	181.10	58.51	-40.6	-43.2	14.9	0.00e+00	0	60	0	541065216	52	4948
2026-01-18 10:15:01.86	181.36	58.90	-41.1	-44.0	14.3	1.50e-06	0	60	0	543162368	52	5410
2026-01-18 10:15:02.86	181.64	59.28	-41.1	-44.1	14.1	1.50e-06	0	60	0	545259520	52	5489
2026-01-18 10:15:03.87	181.92	59.67	-41.1	-44.0	14.2	0.00e+00	0	60	0	546308096	52	5428
2026-01-18 10:15:04.88	182.21	60.06	-41.0	-43.9	14.3	2.20e-06	0	60	0	548405248	52	5348
2026-01-18 10:15:05.89	182.51	60.46	-41.1	-44.1	14.1	2.20e-06	0	60	0	550502400	53	5175
2026-01-18 10:15:06.90	182.83	60.85	-41.3	-44.4	13.7	9.10e-06	0	60	0	552599552	53	5390
2026-01-18 10:15:07.91	183.15	61.25	-41.2	-44.2	14.0	3.80e-06	0	60	0	554696704	53	5243
2026-01-18 10:15:08.92	183.48	61.65	-40.6	-43.2	15.0	0.00e+00	0	60	0	555745280	53	4687
2026-01-18 10:15:09.93	183.82	62.05	-40.6	-43.2	15.0	0.00e+00	0	60	0	557842432	53	4701
2026-01-18 10:15:10.94	184.17	62.45	-40.8	-43.6	14.7	0.00e+00	0	60	0	559939584	53	4892
2026-01-18 10:15:11.95	184.54	62.85	-41.2	-44.2	14.0	7.00e-07	0	60	0	562036736	53	5279
2026-01-18 10:15:12.96	184.91	63.25	-41.0	-43.9	14.4	3.00e-06	0	60	0	564133888	53	5044
2026-01-18 10:15:13.97	185.30	63.66	-41.0	-43.9	14.3	7.00e-07	0	60	0	565182464	53	5080
2026-01-18 10:15:14.98	185.71	64.07	-41.1	-44.0	14.2	0.00e+00	0	60	0	567279616	53	5134
2026-01-18 10:15:15.99	186.13	64.47	-41.1	-44.1	14.1	2.20e-06	0	60	0	569376768	53	5202
2026-01-18 10:15:17.00	186.56	64.88	-41.1	-44.0	14.1	4.50e-06	0	60	0	571473920	53	5136
2026-01-18 10:15:18.01	187.01	65.29	-40.8	-43.6	14.7	7.00e-07	0	60	0	573571072	53	4871
2026-01-18 10:15:19.02	187.47	65.70	-40.9	-43.6	14.6	0.00e+00	0	60	0	574619648	53	4919
2026-01-18 10:15:20.02	187.95	66.11	-41.1	-44.0	14.2	7.00e-07	0	60	0	576716800	53	5146
2026-01-18 10:15:21.03	188.45	66.52	-41.1	-43.9	14.3	1.50e-06	0	60	0	578813952	53	5097
2026-01-18 10:15:22.04	188.97	66.93	-41.6	-44.9	13.3	2.20e-06	0	60	0	580911104	53	5669
2026-01-18 10:15:23.05	189.52	67.34	-42.0	-45.5	12.7	2.36e-05	0	60	0	583008256	54	5760
2026-01-18 10:15:24.06	190.08	67.76	-42.0	-45.5	12.6	1.65e-04	0	60	0	584056832	54	5780
2026-01-18 10:15:25.07	190.67	68.17	-41.6	-44.9	13.2	5.49e-05	0	60	0	586153984	54	5363
2026-01-18 10:15:26.08	191.28	68.58	-41.7	-45.0	13.1	1.67e-05	0	60	0	588251136	54	5434
2026-01-18 10:15:27.09	191.91	68.99	-42.4	-46.4	11.8	2.55e-04	0	60	0	590348288	55	6001
2026-01-18 10:15:28.10	192.58	69.40	-43.1	-47.9	10.4	3.02e-03	0	60	0	592445440	56	6738
2026-01-18 10:15:29.11	193.27	69.81	-43.3	-48.3	9.8	9.50e-03	0	60	0	594542592	57	6710
2026-01-18 10:15:30.12	193.99	70.22	-43.3	-48.2	10.0	9.03e-03	0	60	0	595591168	57	6599
2026-01-18 10:15:31.13	194.75	70.63	-43.4	-48.5	9.7	1.74e-02	0	60	0	597688320	57	6809
2026-01-18 10:15:32.14	195.54	71.03	-43.3	-48.4	9.7	1.23e-02	0	60	0	599785472	57	6776
2026-01-18 10:15:33.15	196.36	71.44	-43.0	-47.6	10.6	5.19e-03	0	60	0	601882624	57	6148
2026-01-18 10:15:34.16	197.23	71.84	-43.2	-48.0	10.3	4.33e-03	0	60	0	603979776	57	6448
2026-01-18 10:15:35.17	198.14	72.24	-43.5	-49.1	9.2	9.61e-03	0	60	0	605028352	57	7322
2026-01-18 10:15:36.18	199.09	72.63	-43.9	-50.2	8.0	5.54e-02	0	60	0	607125504	58	7826
2026-01-18 10:15:37.18	200.07	73.02	-44.0	-50.7	7.5	7.86e-02	0	60	0	609222656	58	8349
2026-01-18 10:15:38.19	201.12	73.41	-44.1	-50.7	7.4	1.25e-01	0	60	0	611319808	58	8341
2026-01-18 10:15:39.20	202.21	73.80	-43.7	-49.3	8.9	8.22e-02	0	60	0	613416960	58	7095
2026-01-18 10:15:40.21	203.37	74.18	-42.8	-47.3	11.0	6.22e-03	0	60	0	614465536	57	5931
2026-01-18 10:15:41.22	204.58	74.55	-42.5	-46.4	11.8	4.33e-04	0	60	0	616562688	56	5715
2026-01-18 10:15:42.23	205.85	74.92	-42.5	-46.4	11.9	3.21e-04	0	60	0	618659840	56	5688
2026-01-18 10:15:43.24	207.19	75.28	-42.9	-47.4	10.9	1.07e-03	0	60	0	620756992	56	6402
2026-01-18 10:15:44.25	208.60	75.64	-43.5	-49.0	9.1	4.53e-03	0	60	0	622854144	57	7255
2026-01-18 10:15:45.26	210.08	75.99	-43.6	-49.2	9.0	4.08e-02	0	60	0	623902720	58	6985
2026-01-18 10:15:46.27	211.63	76.33	-42.8	-47.0	11.3	3.12e-03	0	60	0	625999872	57	5732
2026-01-18 10:15:47.28	213.27	76.66	-41.9	-45.3	12.9	2.17e-04	0	60	0	628097024	55	5335
2026-01-18 10:15:48.29	214.99	76.97	-42.2	-46.0	12.1	1.29e-04	0	61	0	630194176	55	5747
2026-01-18 10:15:49.30	216.80	77.28	-41.9	-45.3	12.8	9.07e-05	0	60	0	632291328	55	5294
2026-01-18 10:15:50.31	218.70	77.58	-42.2	-46.0	12.1	6.56e-05	0	60	0	633339904	55	5751
2026-01-18 10:15:51.31	220.67	77.86	-43.2	-48.1	10.1	8.89e-04	0	60	0	635437056	56	6905
2026-01-18 10:15:52.33	222.78	78.13	-43.4	-48.5	9.6	1.81e-02	0	60	0	637534208	57	6859
2026-01-18 10:15:53.34	224.96	78.38	-42.9	-47.6	10.7	6.03e-03	0	60	0	639631360	57	6137
2026-01-18 10:15:54.35	227.24	78.61	-42.8	-47.1	11.3	1.86e-03	0	60	0	641728512	57	5799
2026-01-18 10:15:55.36	229.61	78.83	-42.6	-46.6	11.6	9.38e-04	0	60	0	642777088	57	5505
2026-01-18 10:15:56.37	232.07	79.03	-42.2	-45.8	12.5	2.29e-04	0	60	0	644874240	56	5309
2026-01-18 10:15:57.38	234.62	79.21	-42.2	-45.9	12.3	6.94e-05	0	60	0	646971392	55	5677
2026-01-18 10:15:58.38	237.22	79.36	-42.7	-47.0	11.2	2.95e-04	0	61	0	649068544	55	6422
2026-01-18 10:15:59.40	239.95	79.50	-43.1	-47.8	10.4	3.87e-03	0	61	0	651165696	56	6723
2026-01-18 10:16:00.41	242.72	79.61	-43.3	-48.2	10.0	8.17e-03	0	60	0	652214272	57	6591
2026-01-18 10:16:01.42	245.55	79.69	-43.8	-49.7	8.4	1.32e-02	0	60	0	654311424	58	7437
2026-01-18 10:16:02.42	248.38	79.75	-44.0	-50.6	7.7	6.84e-02	0	60	0	656408576	58	8216
2026-01-18 10:16:03.43	251.28	79.79	-44.0	-50.6	7.6	9.41e-02	0	60	0	658505728	58	8238
2026-01-18 10:16:04.44	254.18	79.80	-43.8	-49.7	8.6	5.05e-02	0	60	0	660602880	58	7420
2026-01-18 10:16:05.45	257.08	79.79	-43.9	-49.9	8.3	3.72e-02	0	60	0	662700032	58	7587
2026-01-18 10:16:06.46	259.97	79.75	-43.9	-50.0	8.0	4.73e-02	0	60	0	663748608	58	7707
2026-01-18 10:16:07.47	262.83	79.68	-43.5	-48.8	9.4	2.53e-02	0	60	0	665845760	58	6662
2026-01-18 10:16:08.49	265.67	79.59	-43.1	-47.8	10.5	4.54e-03	0	60	0	667942912	58	5944
2026-01-18 10:16:09.50	268.43	79.47	-43.8	-49.7	8.6	2.02e-02	0	61	0	670040064	58	7405
2026-01-18 10:16:10.50	271.09	79.34	-43.8	-49.5	8.7	4.69e-02	0	60	0	672137216	58	7279
2026-01-18 10:16:11.51	273.71	79.18	-43.7	-49.4	8.7	4.60e-02	0	60	0	673185792	58	7184
2026-01-18 10:16:12.52	276.24	79.00	-43.9	-50.2	8.0	4.94e-02	0	60	0	675282944	58	7826
2026-01-18 10:16:13.53	278.69	78.79	-44.0	-50.2	7.9	9.21e-02	0	60	0	677380096	58	7849
2026-01-18 10:16:14.54	281.04	78.57	-43.8	-49.6	8.6	5.97e-02	0	60	0	679477248	58	7320
2026-01-18 10:16:15.55	283.30	78.34	-43.7	-49.3	9.2	2.74e-02	0	60	0	681574400	58	7088
2026-01-18 10:16:16.56	285.46	78.08	-43.5	-48.7	9.5	2.66e-02	0	60	0	682622976	58	6637
2026-01-18 10:16:17.57	287.53	77.81	-43.2	-47.8	10.4	4.56e-03	0	60	0	684720128	58	5985
2026-01-18 10:16:18.58	289.50	77.53	-43.9	-50.1	8.1	2.34e-02	0	60	0	686817280	58	7768
2026-01-18 10:16:19.58	291.36	77.23	-44.3	-51.8	6.5	1.75e-01	0	60	0	688914432	59	8914
2026-01-18 10:16:20.59	293.15	76.92	-43.6	-49.1	9.1	1.05e-01	0	60	0	691011584	59	6525
2026-01-18 10:16:21.60	294.86	76.60	-43.5	-48.8	9.4	1.08e-02	0	60	0	692060160	58	6659
2026-01-18 10:16:22.61	296.48	76.27	-43.4	-48.3	9.9	1.51e-02	0	60	0	694157312	58	6342
2026-01-18 10:16:23.62	298.03	75.93	-42.8	-47.0	11.4	3.68e-03	0	61	0	696254464	57	5723
2026-01-18 10:16:24.63	299.49	75.58	-42.5	-46.5	11.9	6.81e-04	0	60	0	698351616	56	5778
2026-01-18 10:16:25.64	300.89	75.23	-42.7	-47.1	11.3	2.03e-03	0	61	0	700448768	56	6149
2026-01-18 10:16:26.65	302.21	74.86	-42.9	-47.5	10.8	1.68e-03	0	60	0	701497344	56	6448
2026-01-18 10:16:27.66	303.47	74.49	-43.9	-50.3	7.8	5.43e-02	0	61	0	703594496	58	7981
2026-01-18 10:16:28.67	304.67	74.12	-43.6	-49.1	9.1	6.94e-02	0	60	0	705691648	58	6920
2026-01-18 10:16:29.68	305.82	73.74	-43.3	-48.2	10.0	8.19e-03	0	61	0	707788800	58	6252
2026-01-18 10:16:30.69	306.90	73.35	-43.5	-49.0	9.2	1.13e-02	0	60	0	709885952	58	6848
2026-01-18 10:16:31.70	307.94	72.97	-43.3	-48.2	10.1	1.14e-02	0	60	0	710934528	58	6203
2026-01-18 10:16:32.71	308.93	72.57	-42.6	-46.6	11.8	7.70e-04	0	61	0	713031680	57	5465
2026-01-18 10:16:33.72	309.87	72.18	-43.1	-47.8	10.3	6.35e-04	0	61	0	715128832	56	6666
2026-01-18 10:16:34.73	310.77	71.78	-43.9	-50.0	8.3	3.48e-02	0	60	0	717225984	58	7635
2026-01-18 10:16:35.74	311.62	71.38	-44.2	-51.4	6.9	1.37e-01	0	61	0	719323136	59	8464
2026-01-18 10:16:36.75	312.44	70.97	-44.6	-53.3	5.3	3.30e-01	0	61	0	720371712	59	10653
2026-01-18 10:16:37.76	313.23	70.57	-44.1	-50.9	7.4	2.64e-01	0	61	0	722468864	60	7547
2026-01-18 10:16:38.77	313.97	70.16	-43.4	-48.3	9.9	3.67e-02	0	60	0	724566016	58	6344
2026-01-18 10:16:39.78	314.69	69.75	-43.2	-47.8	10.6	4.92e-03	0	61	0	726663168	58	5947
2026-01-18 10:16:40.79	315.38	69.34	-43.5	-48.6	9.7	1.18e-02	0	60	0	728760320	58	6564
2026-01-18 10:16:41.80	316.04	68.93	-43.2	-47.8	10.5	7.03e-03	0	60	0	730857472	58	5948
2026-01-18 10:16:42.81	316.67	68.52	-43.4	-48.3	10.0	4.78e-03	0	60	0	731906048	58	6309
2026-01-18 10:16:43.82	317.27	68.11	-43.5	-48.7	9.5	8.91e-03	0	61	0	734003200	58	6596
2026-01-18 10:16:44.83	317.86	67.70	-43.1	-47.6	10.8	4.33e-03	0	60	0	736100352	58	5808
2026-01-18 10:16:45.84	318.42	67.29	-42.6	-47.0	11.2	9.64e-04	0	61	0	738197504	57	5753
2026-01-18 10:16:46.85	318.95	66.88	-42.4	-46.1	12.3	7.00e-04	0	61	0	740294656	56	5512
2026-01-18 10:16:47.86	319.47	66.47	-40.9	-43.6	14.6	1.50e-06	0	61	0	741343232	53	4913
2026-01-18 10:16:48.87	319.97	66.06	-40.6	-43.2	15.1	0.00e+00	0	61	0	743440384	52	4947
2026-01-18 10:16:49.88	320.45	65.65	-41.3	-44.3	14.1	0.00e+00	0	60	0	745537536	53	5290
2026-01-18 10:16:50.88	320.91	65.25	-41.3	-44.2	14.1	2.20e-06	0	61	0	747634688	53	5276
2026-01-18 10:16:51.89	321.35	64.84	-40.7	-43.3	15.0	7.00e-07	0	61	0	749731840	53	4739
2026-01-18 10:16:52.90	321.78	64.43	-40.2	-42.5	16.0	0.00e+00	0	61	0	750780416	51	4847
2026-01-18 10:16:53.91	322.20	64.02	-40.3	-42.7	15.7	0.00e+00	0	61	0	752877568	51	4969
2026-01-18 10:16:54.92	322.60	63.62	-40.8	-43.5	14.9	7.00e-07	0	61	0	754974720	52	5117
2026-01-18 10:16:55.93	322.99	63.21	-41.4	-44.5	13.8	7.00e-07	0	60	0	757071872	53	5461
2026-01-18 10:16:56.94	323.36	62.81	-41.7	-45.0	13.4	1.75e-05	0	60	0	759169024	53	5727
2026-01-18 10:16:57.95	323.72	62.41	-41.4	-44.4	13.9	8.30e-06	0	60	0	760217600	54	5076
2026-01-18 10:16:58.96	324.07	62.01	-41.0	-43.8	14.5	7.00e-07	0	61	0	762314752	54	4717
2026-01-18 10:16:59.97	324.41	61.61	-40.8	-43.5	14.8	7.00e-07	0	61	0	764411904	53	4851
2026-01-18 10:17:00.98	324.74	61.22	-41.4	-44.5	13.9	1.50e-06	0	61	0	766509056	53	5417
2026-01-18 10:17:01.99	325.06	60.82	-42.2	-45.8	12.5	2.97e-05	0	61	0	768606208	54	5980
2026-01-18 10:17:03.00	325.37	60.43	-42.8	-47.0	11.5	4.55e-04	0	60	0	769654784	56	6066
2026-01-18 10:17:04.01	325.67	60.04	-42.6	-46.5	11.9	4.62e-04	0	61	0	771751936	56	5738
2026-01-18 10:17:05.02	325.96	59.65	-42.2	-45.7	12.8	7.62e-05	0	61	0	773849088	56	5228
2026-01-18 10:17:06.03	326.24	59.26	-42.4	-46.2	12.3	5.87e-05	0	61	0	775946240	56	5551
2026-01-18 10:17:07.04	326.52	58.87	-42.6	-46.4	12.0	1.92e-04	0	60	0	778043392	56	5695
2026-01-18 10:17:08.05	326.79	58.49	-42.4	-46.0	12.4	6.56e-05	0	61	0	779091968	56	5464
2026-01-18 10:17:09.06	327.05	58.10	-43.0	-47.3	11.1	4.40e-04	0	61	0	781189120	56	6324
2026-01-18 10:17:10.07	327.30	57.72	-43.0	-47.3	11.2	1.38e-03	0	60	0	783286272	56	6322
2026-01-18 10:17:11.08	327.54	57.34	-42.1	-45.5	13.1	3.22e-04	0	60	0	785383424	56	5104
2026-01-18 10:17:12.09	327.78	56.97	-41.0	-43.8	14.5	2.20e-06	0	60	0	787480576	54	4727
2026-01-18 10:17:13.10	328.01	56.59	-40.9	-43.6	14.8	0.00e+00	0	61	0	788529152	53	4874
2026-01-18 10:17:14.11	328.24	56.22	-40.4	-42.9	15.4	0.00e+00	0	60	0	790626304	52	4793
2026-01-18 10:17:15.12	328.46	55.85	-41.0	-43.8	14.6	0.00e+00	0	61	0	792723456	52	5297
2026-01-18 10:17:16.13	328.67	55.48	-41.8	-45.2	13.1	1.50e-06	0	60	0	794820608	54	5585
2026-01-18 10:17:17.14	328.88	55.12	-42.6	-46.7	11.7	7.06e-04	0	61	0	796917760	56	5903
2026-01-18 10:17:18.15	329.09	54.75	-42.3	-46.1	12.4	5.66e-04	0	61	0	799014912	56	5518
2026-01-18 10:17:19.16	329.29	54.39	-41.6	-44.9	13.4	5.56e-05	0	61	0	800063488	55	5063
2026-01-18 10:17:20.16	329.48	54.04	-41.5	-44.6	13.6	1.14e-05	0	61	0	802160640	54	5205
2026-01-18 10:17:21.17	329.67	53.68	-41.9	-45.3	13.1	1.67e-05	0	60	0	804257792	54	5597
2026-01-18 10:17:22.18	329.85	53.32	-41.8	-45.0	13.3	3.58e-05	0	61	0	806354944	54	5433
2026-01-18 10:17:23.19	330.03	52.97	-41.7	-44.8	13.5	9.90e-06	0	61	0	808452096	54	5340
2026-01-18 10:17:24.20	330.21	52.62	-41.7	-44.9	13.4	2.97e-05	0	61	0	809500672	54	5376
2026-01-18 10:17:25.21	330.38	52.27	-42.6	-46.8	11.6	1.07e-04	0	61	0	811597824	55	6279
2026-01-18 10:17:26.22	330.55	51.93	-43.4	-48.4	9.9	7.26e-03	0	60	0	813694976	57	6793
2026-01-18 10:17:27.23	330.71	51.58	-43.5	-48.8	9.5	1.81e-02	0	61	0	815792128	57	7052
2026-01-18 10:17:28.24	330.87	51.24	-43.2	-47.8	10.6	7.15e-03	0	60	0	817889280	57	6335
2026-01-18 10:17:29.24	331.03	50.91	-42.8	-46.8	11.5	1.31e-03	0	61	0	818937856	57	5641
2026-01-18 10:17:30.25	331.18	50.57	-42.7	-46.6	11.9	5.26e-04	0	61	0	821035008	57	5490
2026-01-18 10:17:31.26	331.34	50.23	-42.8	-47.0	11.5	9.31e-04	0	61	0	823132160	57	5724
2026-01-18 10:17:32.28	331.48	49.90	-43.0	-47.3	11.0	1.40e-03	0	60	0	825229312	57	5991
2026-01-18 10:17:33.29	331.63	49.57	-42.9	-47.1	11.3	1.44e-03	0	61	0	827326464	57	5806
2026-01-18 10:17:34.30	331.77	49.24	-43.4	-48.2	10.1	2.37e-03	0	61	0	828375040	57	6630
2026-01-18 10:17:35.31	331.91	48.91	-43.7	-49.1	9.3	1.11e-02	0	61	0	830472192	57	7290
2026-01-18 10:17:36.32	332.04	48.59	-43.8	-49.5	9.0	2.74e-02	0	60	0	832569344	58	7216
2026-01-18 10:17:37.32	332.18	48.27	-43.8	-49.2	9.1	2.54e-02	0	61	0	834666496	58	7018
2026-01-18 10:17:38.33	332.31	47.95	-43.3	-48.1	10.3	1.57e-02	0	61	0	836763648	58	6168
2026-01-18 10:17:39.34	332.43	47.64	-42.4	-46.0	12.5	1.21e-03	0	61	0	837812224	56	5437
2026-01-18 10:17:40.35	332.56	47.32	-42.2	-45.6	12.8	8.39e-05	0	61	0	839909376	56	5199
2026-01-18 10:17:41.36	332.68	47.01	-42.8	-46.9	11.6	1.10e-04	0	61	0	842006528	56	6029
2026-01-18 10:17:42.37	332.80	46.70	-43.8	-49.4	9.0	2.91e-03	0	61	0	844103680	58	7155
2026-01-18 10:17:43.38	332.92	46.39	-44.3	-51.2	7.2	9.72e-02	0	61	0	846200832	59	8329
2026-01-18 10:17:44.39	333.04	46.08	-43.9	-49.9	8.4	8.16e-02	0	60	0	847249408	59	7192
2026-01-18 10:17:45.40	333.15	45.78	-43.7	-49.2	9.0	5.00e-02	0	61	0	849346560	59	6608
2026-01-18 10:17:46.41	333.26	45.48	-43.2	-47.9	10.5	1.72e-02	0	61	0	851443712	58	6006
2026-01-18 10:17:47.41	333.37	45.18	-42.9	-47.1	11.3	3.18e-03	0	61	0	853540864	57	5815
2026-01-18 10:17:48.42	333.48	44.88	-42.4	-46.0	12.4	4.13e-04	0	61	0	855638016	56	5462
2026-01-18 10:17:49.43	333.58	44.59	-42.2	-45.6	12.8	7.47e-05	0	61	0	856686592	56	5207
2026-01-18 10:17:50.44	333.69	44.30	-41.5	-44.6	13.8	6.10e-06	0	61	0	858783744	54	5172
2026-01-18 10:17:51.45	333.79	44.00	-41.5	-44.6	13.7	4.50e-06	0	61	0	860880896	54	5180
2026-01-18 10:17:52.46	333.89	43.72	-42.0	-45.5	12.8	8.08e-05	0	61	0	862978048	54	5745
2026-01-18 10:17:53.47	333.99	43.43	-43.1	-47.7	10.7	8.38e-04	0	61	0	865075200	56	6586
2026-01-18 10:17:54.48	334.09	43.14	-43.7	-49.3	9.0	1.14e-02	0	61	0	866123776	58	7113
2026-01-18 10:17:55.49	334.18	42.86	-44.1	-50.7	7.6	6.84e-02	0	61	0	868220928	58	8318
2026-01-18 10:17:56.50	334.28	42.58	-43.9	-50.0	8.3	1.10e-01	0	61	0	870318080	58	7688
2026-01-18 10:17:57.51	334.37	42.30	-43.0	-47.3	11.0	2.12e-02	0	61	0	872415232	58	5649
2026-01-18 10:17:58.52	334.46	42.03	-42.2	-45.8	12.7	9.38e-04	0	61	0	874512384	56	5280
2026-01-18 10:17:59.53	334.55	41.75	-41.2	-44.0	14.1	1.29e-05	0	61	0	875560960	54	4867
2026-01-18 10:18:00.52	334.63	41.48	-40.8	-43.6	14.8	1.50e-06	0	61	0	877658112	53	4871
2026-01-18 10:18:01.53	334.72	41.21	-40.9	-43.6	14.7	0.00e+00	0	60	0	879755264	53	4910
2026-01-18 10:18:02.54	334.80	40.94	-41.2	-44.1	14.2	7.00e-07	0	61	0	881852416	53	5213
2026-01-18 10:18:03.55	334.89	40.68	-41.5	-44.6	13.7	6.10e-06	0	61	0	883949568	53	5466
2026-01-18 10:18:04.56	334.97	40.41	-41.6	-44.7	13.6	3.80e-06	0	61	0	884998144	53	5592
2026-01-18 10:18:05.57	335.05	40.15	-42.2	-46.0	12.3	1.15e-04	0	60	0	887095296	55	5746
2026-01-18 10:18:06.57	335.13	39.89	-42.6	-46.8	11.5	4.13e-04	0	61	0	889192448	55	6275
2026-01-18 10:18:07.59	335.21	39.63	-43.0	-47.6	10.8	1.51e-03	0	61	0	891289600	56	6559
2026-01-18 10:18:08.59	335.29	39.37	-43.2	-48.1	10.2	6.05e-03	0	61	0	893386752	57	6557
2026-01-18 10:18:09.60	335.36	39.12	-43.6	-49.0	9.2	1.44e-02	0	61	0	895483904	57	7258
2026-01-18 10:18:10.61	335.44	38.86	-43.3	-48.3	9.9	1.13e-02	0	61	0	896532480	57	6723
2026-01-18 10:18:11.62	335.51	38.61	-43.3	-48.2	10.1	5.78e-03	0	60	0	898629632	57	6605
2026-01-18 10:18:12.63	335.59	38.36	-42.8	-47.1	11.3	2.86e-03	0	61	0	900726784	57	5799
2026-01-18 10:18:13.64	335.66	38.11	-42.2	-45.8	12.6	2.75e-04	0	61	0	902823936	56	5330
2026-01-18 10:18:14.65	335.73	37.87	-42.0	-45.4	13.0	6.86e-05	0	61	0	904921088	56	5069
2026-01-18 10:18:15.66	335.80	37.62	-41.8	-45.2	13.1	2.67e-05	0	60	0	905969664	55	5233
2026-01-18 10:18:16.67	335.87	37.38	-42.0	-45.5	12.7	3.73e-05	0	61	0	908066816	55	5445
2026-01-18 10:18:17.68	335.94	37.14	-42.1	-45.8	12.6	2.89e-05	0	61	0	910163968	55	5621
2026-01-18 10:18:18.69	336.00	36.90	-42.7	-46.9	11.4	8.03e-04	0	61	0	912261120	55	6397
2026-01-18 10:18:19.70	336.07	36.66	-43.4	-48.4	9.9	6.13e-03	0	61	0	914358272	57	6751
2026-01-18 10:18:20.71	336.13	36.42	-43.8	-49.6	8.6	2.01e-02	0	61	0	915406848	58	7337
2026-01-18 10:18:21.71	336.20	36.19	-44.2	-51.2	7.1	1.13e-01	0	61	0	917504000	58	8849
2026-01-18 10:18:22.72	336.26	35.96	-44.0	-50.5	7.8	1.13e-01	0	61	0	919601152	58	8116
2026-01-18 10:18:23.73	336.32	35.73	-43.8	-49.8	8.5	6.38e-02	0	60	0	921698304	58	7478
2026-01-18 10:18:24.74	336.39	35.50	-43.5	-48.9	9.2	2.09e-02	0	60	0	923795456	58	6800
2026-01-18 10:18:25.75	336.45	35.27	-43.2	-48.2	10.1	1.24e-02	0	61	0	924844032	58	6219
2026-01-18 10:18:26.76	336.51	35.04	-42.7	-46.9	11.4	3.02e-03	0	61	0	926941184	57	5695
2026-01-18 10:18:27.77	336.57	34.82	-42.4	-46.2	12.1	4.04e-04	0	61	0	929038336	56	5564
2026-01-18 10:18:28.78	336.63	34.60	-42.3	-46.0	12.4	1.57e-04	0	61	0	931135488	56	5406
2026-01-18 10:18:29.79	336.68	34.38	-42.3	-46.1	12.3	1.46e-04	0	61	0	933232640	56	5475
2026-01-18 10:18:30.80	336.74	34.16	-42.8	-47.0	11.5	6.78e-04	0	61	0	934281216	56	6105
2026-01-18 10:18:31.81	336.80	33.94	-43.1	-47.9	10.4	3.18e-03	0	61	0	936378368	56	6763
2026-01-18 10:18:32.82	336.85	33.72	-43.5	-48.8	9.3	7.62e-03	0	61	0	938475520	57	7120
2026-01-18 10:18:33.83	336.91	33.50	-43.7	-49.6	8.6	2.19e-02	0	61	0	940572672	58	7341
2026-01-18 10:18:34.84	336.96	33.29	-43.9	-50.1	8.0	6.59e-02	0	61	0	942669824	58	7778
2026-01-18 10:18:35.84	337.02	33.08	-43.8	-49.7	8.4	5.26e-02	0	61	0	943718400	58	7422
2026-01-18 10:18:36.85	337.07	32.87	-43.7	-49.5	8.7	4.51e-02	0	61	0	945815552	58	7231
2026-01-18 10:18:37.86	337.12	32.66	-43.8	-49.8	8.3	5.89e-02	0	61	0	947912704	58	7542
2026-01-18 10:18:38.87	337.17	32.45	-43.6	-49.2	9.0	2.59e-02	0	60	0	950009856	58	6966
2026-01-18 10:18:39.88	337.23	32.24	-43.7	-49.8	8.4	2.03e-02	0	61	0	952107008	58	7479
2026-01-18 10:18:40.89	337.28	32.04	-43.4	-48.8	9.4	3.88e-02	0	61	0	953155584	58	6707
2026-01-18 10:18:41.90	337.33	31.84	-43.4	-48.8	9.4	1.71e-02	0	61	0	955252736	58	6677
2026-01-18 10:18:42.91	337.38	31.63	-43.4	-48.8	9.4	1.55e-02	0	61	0	957349888	58	6717
2026-01-18 10:18:43.92	337.42	31.43	-43.4	-48.6	9.5	8.93e-03	0	61	0	959447040	58	6556
2026-01-18 10:18:44.93	337.47	31.23	-43.3	-48.4	9.8	1.22e-02	0	61	0	961544192	58	6400
2026-01-18 10:18:45.94	337.52	31.03	-43.3	-48.5	9.7	1.69e-02	0	61	0	963641344	58	6491
2026-01-18 10:18:46.95	337.57	30.84	-43.5	-48.9	9.2	1.98e-02	0	61	0	964689920	58	6755
2026-01-18 10:18:47.96	337.62	30.64	-43.4	-48.8	9.4	1.81e-02	0	61	0	966787072	58	6656
2026-01-18 10:18:48.97	337.66	30.45	-43.5	-49.0	9.1	1.91e-02	0	61	0	968884224	58	6849
2026-01-18 10:18:49.97	337.71	30.25	-43.3	-48.5	9.6	1.68e-02	0	60	0	970981376	58	6490
2026-01-18 10:18:50.98	337.75	30.06	-42.9	-47.4	10.5	3.66e-03	0	61	0	972029952	57	6035
2026-01-18 10:18:51.99	337.80	29.87	-42.9	-47.4	10.8	3.80e-03	0	61	0	974127104	57	6039
2026-01-18 10:18:53.00	337.84	29.68	-42.6	-46.7	11.4	2.16e-03	0	61	0	976224256	57	5575
2026-01-18 10:18:54.01	337.89	29.49	-42.5	-46.6	11.6	6.65e-04	0	61	0	978321408	56	5830
2026-01-18 10:18:55.02	337.93	29.31	-42.4	-46.5	11.7	4.10e-04	0	61	0	980418560	56	5742
2026-01-18 10:18:56.03	337.97	29.12	-42.4	-46.5	11.8	6.88e-04	0	61	0	981467136	56	5736
2026-01-18 10:18:57.04	338.01	28.94	-42.5	-46.6	11.5	7.89e-04	0	61	0	983564288	56	5812
2026-01-18 10:18:58.05	338.06	28.75	-42.7	-47.0	11.1	1.01e-03	0	61	0	985661440	56	6127
2026-01-18 10:18:59.06	338.10	28.57	-42.8	-47.4	10.8	1.98e-03	0	61	0	987758592	56	6374
2026-01-18 10:19:00.07	338.14	28.39	-42.9	-47.5	10.7	2.31e-03	0	61	0	989855744	56	6441
2026-01-18 10:19:01.08	338.18	28.21	-43.1	-48.1	10.0	4.38e-03	0	61	0	991952896	56	6948
2026-01-18 10:19:02.09	338.22	28.03	-42.9	-47.5	10.6	4.50e-03	0	61	0	993001472	56	6454
2026-01-18 10:19:03.10	338.26	27.85	-42.9	-47.6	10.5	4.06e-03	0	61	0	995098624	56	6528
2026-01-18 10:19:04.11	338.30	27.68	-43.0	-47.8	10.2	6.92e-03	0	61	0	997195776	56	6721
2026-01-18 10:19:05.12	338.34	27.50	-42.8	-47.5	10.6	3.42e-03	0	61	0	999292928	56	6481
2026-01-18 10:19:06.13	338.38	27.33	-42.8	-47.4	10.8	2.89e-03	0	61	0	1001390080	56	6356
2026-01-18 10:19:07.13	338.42	27.16	-42.7	-47.1	11.0	2.75e-03	0	61	0	1002438656	56	6163
2026-01-18 10:19:08.14	338.45	26.99	-42.5	-46.7	11.4	1.61e-03	0	61	0	1004535808	56	5886
2026-01-18 10:19:09.15	338.49	26.81	-42.4	-46.5	11.6	7.02e-04	0	61	0	1006632960	56	5751
2026-01-18 10:19:10.17	338.53	26.64	-42.2	-46.1	12.0	4.58e-04	0	61	0	1008730112	56	5493
2026-01-18 10:19:11.18	338.57	26.47	-41.8	-45.5	12.4	1.94e-04	0	61	0	1010827264	55	5422
2026-01-18 10:19:12.18	338.60	26.31	-41.6	-45.0	12.9	6.17e-05	0	61	0	1011875840	55	5155
2026-01-18 10:19:13.20	338.64	26.14	-41.4	-44.8	13.2	3.96e-05	0	61	0	1013972992	54	5295
2026-01-18 10:19:14.21	338.68	25.97	-41.3	-44.5	13.4	1.29e-05	0	61	0	1016070144	54	5156
2026-01-18 10:19:15.22	338.71	25.81	-41.1	-44.2	13.8	6.80e-06	0	61	0	1018167296	54	4944
2026-01-18 10:19:16.23	338.75	25.65	-40.9	-44.0	13.9	4.50e-06	0	61	0	1020264448	53	5118
2026-01-18 10:19:17.24	338.78	25.48	-40.6	-43.5	14.3	1.50e-06	0	61	0	1021313024	53	4870
2026-01-18 10:19:18.24	338.82	25.32	-40.8	-43.8	14.0	0.00e+00	0	61	0	1023410176	53	5009
2026-01-18 10:19:19.25	338.85	25.16	-40.7	-43.7	14.2	1.50e-06	0	61	0	1025507328	53	4934
2026-01-18 10:19:20.26	338.89	25.00	-40.6	-43.4	14.4	7.00e-07	0	61	0	1027604480	52	5093
2026-01-18 10:19:21.27	338.92	24.84	-40.6	-43.5	14.3	0.00e+00	0	61	0	1029701632	52	5103
2026-01-18 10:19:22.28	338.95	24.69	-40.5	-43.4	14.3	1.50e-06	0	61	0	1030750208	52	5081
2026-01-18 10:19:23.29	338.99	24.53	-40.5	-43.4	14.3	7.00e-07	0	61	0	1032847360	52	5082
2026-01-18 10:19:24.30	339.02	24.37	-40.6	-43.5	14.2	7.00e-07	0	61	0	1034944512	52	5126
2026-01-18 10:19:25.31	339.05	24.22	-40.7	-43.7	14.0	3.00e-06	0	61	0	1037041664	52	5254
2026-01-18 10:19:26.32	339.08	24.06	-40.7	-43.8	13.9	4.50e-06	0	61	0	1039138816	52	5324
2026-01-18 10:19:27.33	339.12	23.91	-40.7	-43.8	13.8	6.80e-06	0	61	0	1040187392	52	5322
2026-01-18 10:19:28.34	339.15	23.76	-40.8	-44.0	13.6	7.60e-06	0	61	0	1042284544	52	5440
2026-01-18 10:19:29.35	339.18	23.61	-40.9	-44.1	13.5	1.29e-05	0	61	0	1044381696	52	5516
2026-01-18 10:19:30.36	339.21	23.46	-41.0	-44.4	13.2	1.52e-05	0	61	0	1046478848	52	5703
2026-01-18 10:19:31.37	339.24	23.31	-41.0	-44.4	13.2	2.36e-05	0	61	0	1048576000	52	5662
2026-01-18 10:19:32.38	339.27	23.16	-41.1	-44.5	13.0	3.35e-05	0	61	0	1049624576	52	5754
2026-01-18 10:19:33.39	339.30	23.01	-41.2	-44.8	12.7	7.09e-05	0	61	0	1051721728	53	5612
2026-01-18 10:19:34.40	339.33	22.86	-41.3	-44.9	12.5	9.30e-05	0	61	0	1053818880	53	5707
2026-01-18 10:19:35.41	339.36	22.72	-41.3	-45.1	12.3	1.09e-04	0	61	0	1055916032	53	5803
2026-01-18 10:19:36.41	339.39	22.57	-41.3	-45.1	12.1	2.39e-04	0	61	0	1058013184	53	5840
2026-01-18 10:19:37.42	339.42	22.43	-41.3	-45.1	12.1	3.30e-04	0	61	0	1060110336	53	5838
2026-01-18 10:19:38.43	339.45	22.28	-41.3	-45.3	11.8	2.66e-04	0	61	0	1061158912	53	5935
2026-01-18 10:19:39.44	339.48	22.14	-41.4	-45.5	11.6	5.95e-04	0	61	0	1063256064	53	6086
2026-01-18 10:19:40.45	339.51	22.00	-41.4	-45.7	11.1	1.24e-03	0	61	0	1065353216	53	6257
2026-01-18 10:19:41.46	339.54	21.86	-41.1	-45.2	11.5	1.25e-03	0	61	0	1067450368	53	5920
2026-01-18 10:19:42.47	339.57	21.72	-41.0	-45.0	11.7	5.87e-04	0	61	0	1069547520	53	5758
2026-01-18 10:19:43.48	339.59	21.58	-41.0	-45.3	11.2	1.19e-03	0	61	0	1070596096	53	5979
2026-01-18 10:19:44.49	339.62	21.44	-40.9	-45.1	11.4	1.40e-03	0	61	0	1072693248	53	5849
2026-01-18 10:19:45.50	339.65	21.30	-40.9	-45.2	11.3	1.30e-03	0	61	0	1074790400	53	5860
2026-01-18 10:19:46.51	339.68	21.16	-40.8	-45.0	11.4	9.91e-04	0	61	0	1076887552	53	5772
2026-01-18 10:19:47.52	339.70	21.02	-40.8	-45.2	11.2	1.09e-03	0	61	0	1078984704	53	5866
2026-01-18 10:19:48.53	339.73	20.89	-40.7	-45.1	11.1	1.32e-03	0	61	0	1080033280	53	5837
2026-01-18 10:19:49.54	339.76	20.75	-41.0	-46.0	10.2	3.55e-03	0	61	0	1082130432	53	6423
2026-01-18 10:19:50.55	339.79	20.62	-41.2	-46.9	9.0	1.28e-02	0	60	0	1084227584	53	7184
2026-01-18 10:19:51.56	339.81	20.48	-41.3	-47.7	8.0	3.57e-02	0	61	0	1086324736	53	7865
2026-01-18 10:19:52.57	339.84	20.35	-41.4	-48.6	7.1	8.13e-02	0	61	0	1088421888	53	8755
2026-01-18 10:19:53.58	339.86	20.22	-41.4	-49.8	6.0	2.54e-01	0	61	0	1089470464	53	9949
2026-01-18 10:19:54.58	339.89	20.09	-41.4	-50.5	5.4	4.21e-01	0	61	0	1091567616	53	10822
2026-01-18 10:19:55.59	339.92	19.96	-41.4	-51.3	4.9	6.23e-01	0	61	0	1093664768	53	11868
2026-01-18 10:19:56.60	339.94	19.83	-41.4	-51.9	4.5	9.21e-01	0	61	0	1095761920	53	12791
2026-01-18 10:19:57.61	339.97	19.70	-41.5	-52.6	4.4	1.10e+00	0	61	0	1097859072	53	13727
2026-01-18 10:19:58.62	339.99	19.57	-42.1	-54.1	4.0	1.36e+00	0	61	0	1097859072	54	15455
2026-01-18 10:19:59.63	340.02	19.44	-41.4	-54.8	3.8	1.45e+00	0	61	104	1097859072	54	16715
2026-01-18 10:20:00.63	340.04	19.31	-41.3	-56.0	3.8	1.49e+00	0	61	104	1097859072	54	19204
2026-01-18 10:20:01.64	340.07	19.19	-41.7	-54.5	3.8	1.49e+00	0	61	104	1097859072	54	16196
2026-01-18 10:20:02.65	340.09	19.06	-41.9	-55.7	3.8	1.49e+00	0	61	104	1097859072	54	18536
2026-01-18 10:20:03.66	340.12	18.93	-41.8	-56.0	3.8	1.49e+00	0	61	104	1097859072	54	19192
2026-01-18 10:20:04.67	340.14	18.81	-41.7	-55.7	3.8	1.49e+00	0	61	104	1097859072	54	18657
2026-01-18 10:20:05.68	340.16	18.68	-41.5	-55.0	3.8	1.49e+00	0	61	104	1097859072	54	17178
2026-01-18 10:20:06.69	340.19	18.56	-41.9	-54.7	3.8	1.49e+00	0	61	104	1097859072	54	16514
2026-01-18 10:20:07.70	340.21	18.44	-41.2	-55.9	3.8	1.49e+00	0	61	104	1097859072	54	19072
2026-01-18 10:20:08.71	340.23	18.31	-41.4	-55.9	3.8	1.49e+00	0	61	104	1097859072	54	19000
2026-01-18 10:20:09.72	340.26	18.19	-41.9	-55.2	3.8	1.49e+00	0	61	104	1097859072	54	17580
2026-01-18 10:20:10.73	340.28	18.07	-41.9	-55.1	3.8	1.49e+00	0	61	104	1097859072	54	17328
2026-01-18 10:20:11.74	340.30	17.95	-41.8	-54.9	3.8	1.49e+00	0	61	104	1097859072	54	16956
2026-01-18 10:20:12.75	340.33	17.83	-41.8	-55.4	3.8	1.49e+00	0	60	104	1097859072	54	18020
2026-01-18 10:20:13.76	340.35	17.71	-41.8	-55.7	3.8	1.49e+00	0	61	104	1097859072	54	18641
2026-01-18 10:20:14.77	340.37	17.59	-41.8	-55.4	3.8	1.49e+00	0	61	104	1097859072	54	17966
2026-01-18 10:20:15.78	340.40	17.47	-41.1	-55.7	3.8	1.49e+00	0	61	104	1097859072	54	18705
2026-01-18 10:20:16.79	340.42	17.35	-41.1	-55.7	3.8	1.49e+00	0	61	104	1097859072	53	19622
2026-01-18 10:20:17.80	340.44	17.24	-41.8	-56.2	3.8	1.49e+00	0	61	104	1097859072	54	19667
2026-01-18 10:20:18.81	340.46	17.12	-41.6	-55.6	3.8	1.49e+00	0	61	104	1097859072	54	18424
2026-01-18 10:20:19.82	340.48	17.00	-41.5	-55.4	3.8	1.49e+00	0	61	104	1097859072	54	17954
2026-01-18 10:20:20.83	340.51	16.89	-41.5	-55.6	3.8	1.49e+00	0	61	104	1097859072	54	18438
2026-01-18 10:20:21.84	340.53	16.77	-41.3	-55.6	3.8	1.49e+00	0	61	104	1097859072	54	18315
2026-01-18 10:20:22.85	340.55	16.66	-41.3	-55.5	3.8	1.49e+00	0	61	104	1097859072	54	18278
2026-01-18 10:20:23.86	340.57	16.54	-40.5	-55.4	3.8	1.49e+00	0	61	104	1097859072	53	19075
2026-01-18 10:20:24.87	340.59	16.43	-40.7	-55.6	3.8	1.49e+00	0	61	104	1097859072	53	19436
2026-01-18 10:20:25.88	340.61	16.32	-41.1	-55.7	3.8	1.49e+00	0	61	104	1097859072	53	19691
2026-01-18 10:20:26.89	340.63	16.20	-41.3	-55.8	3.8	1.49e+00	0	61	104	1097859072	53	19888
2026-01-18 10:20:27.90	340.65	16.09	-40.5	-55.4	3.8	1.49e+00	0	61	104	1097859072	53	18971
2026-01-18 10:20:28.91	340.68	15.98	-40.7	-55.4	3.8	1.49e+00	0	61	104	1097859072	53	19077
2026-01-18 10:20:29.92	340.70	15.87	-40.8	-55.6	3.8	1.49e+00	0	61	104	1097859072	53	19475
2026-01-18 10:20:30.93	340.72	15.76	-41.2	-55.8	3.8	1.49e+00	0	61	104	1097859072	53	19886
2026-01-18 10:20:31.94	340.74	15.65	-40.6	-55.4	3.8	1.49e+00	0	61	104	1097859072	53	19037
