passes_logs/2026/01/18/R2.0S_Moscow/R2.0S_Moscow__20260118_214958_NOAA_21_JPSS-2_rec.log

#Pass ID: 20260118_214958_NOAA 21 (JPSS-2)
#Satellite: NOAA 21 (JPSS-2)
#Configuration: NOAA-21
#almurnet v.1.7.20251203
#Start time: 2026-01-18 21:49:57

#Version: 2.2.20231116
#Station: R2.0S_Moscow
#Location: 37.707566 lon 55.798166 lat
#TLE: 1 54234U 22150A   26017.90260625  .00000050  00000+0  44518-4 0  9994
#TLE: 2 54234  98.7502 318.7672 0000612 269.1755  90.9351 14.19535344165221

#Time	Az	El	Level	Level2	SNR	BER	BlckErr	Temp	State	Recorded	gain1	gain2
2026-01-18 21:49:57.91	28.34	2.00	-42.9	-55.4	3.8	1.49e+00	0	52	0	0	57	15217
2026-01-18 21:49:58.91	28.42	2.05	-42.9	-55.4	3.8	1.49e+00	0	52	104	0	57	15202
2026-01-18 21:49:59.92	28.51	2.10	-42.9	-55.4	3.8	1.49e+00	0	52	104	0	57	15209
2026-01-18 21:50:00.93	28.60	2.15	-42.9	-55.5	3.8	1.49e+00	0	52	104	0	57	15250
2026-01-18 21:50:01.94	28.69	2.20	-42.9	-55.4	3.8	1.49e+00	0	52	104	0	57	15216
2026-01-18 21:50:02.95	28.77	2.25	-42.9	-55.4	3.8	1.49e+00	0	52	104	0	57	15218
2026-01-18 21:50:03.96	28.86	2.30	-42.9	-55.4	3.8	1.49e+00	0	53	104	0	57	15220
2026-01-18 21:50:04.97	28.95	2.35	-42.9	-55.4	3.8	1.49e+00	0	53	104	0	57	15183
2026-01-18 21:50:05.98	29.04	2.40	-42.9	-55.4	3.8	1.49e+00	0	53	104	0	57	15182
2026-01-18 21:50:06.99	29.13	2.45	-42.9	-55.4	3.8	1.49e+00	0	53	104	0	57	15208
2026-01-18 21:50:08.01	29.22	2.50	-42.9	-55.4	3.8	1.49e+00	0	53	104	0	57	15179
2026-01-18 21:50:09.02	29.31	2.55	-42.9	-55.5	3.8	1.49e+00	0	53	104	0	57	15230
2026-01-18 21:50:10.03	29.40	2.60	-42.9	-55.5	3.8	1.49e+00	0	53	104	0	57	15243
2026-01-18 21:50:11.04	29.49	2.65	-42.9	-55.5	3.8	1.49e+00	0	53	104	0	57	15228
2026-01-18 21:50:12.05	29.58	2.70	-42.9	-55.4	3.8	1.49e+00	0	53	104	0	57	15203
2026-01-18 21:50:13.06	29.67	2.75	-42.9	-55.4	3.8	1.49e+00	0	53	104	0	57	15210
2026-01-18 21:50:14.07	29.76	2.80	-42.9	-55.5	3.8	1.49e+00	0	53	104	0	57	15251
2026-01-18 21:50:15.08	29.85	2.85	-42.9	-55.4	3.8	1.49e+00	0	53	104	0	57	15165
2026-01-18 21:50:16.09	29.94	2.90	-42.8	-55.4	3.8	1.49e+00	0	53	104	0	57	15181
2026-01-18 21:50:17.10	30.03	2.95	-42.9	-55.4	3.8	1.49e+00	0	53	104	0	57	15181
2026-01-18 21:50:18.11	30.12	3.00	-42.9	-55.5	3.8	1.49e+00	0	54	104	0	57	15241
2026-01-18 21:50:19.12	30.22	3.05	-42.9	-55.4	3.8	1.49e+00	0	54	104	0	57	15220
2026-01-18 21:50:20.13	30.31	3.11	-42.9	-55.4	3.8	1.49e+00	0	54	104	0	57	15196
2026-01-18 21:50:21.14	30.40	3.16	-42.9	-55.4	3.8	1.49e+00	0	54	104	0	57	15165
2026-01-18 21:50:22.15	30.50	3.21	-42.9	-55.4	3.8	1.49e+00	0	54	104	0	57	15177
2026-01-18 21:50:23.16	30.59	3.26	-42.9	-55.4	3.8	1.49e+00	0	54	104	0	57	15173
2026-01-18 21:50:24.17	30.68	3.31	-42.9	-55.4	3.8	1.49e+00	0	54	104	0	57	15188
2026-01-18 21:50:25.18	30.78	3.36	-42.9	-55.4	3.8	1.49e+00	0	54	104	0	57	15224
2026-01-18 21:50:26.19	30.87	3.41	-42.9	-55.4	3.8	1.49e+00	0	54	104	0	57	15172
2026-01-18 21:50:27.20	30.97	3.46	-42.9	-55.4	3.8	1.49e+00	0	54	104	0	57	15168
2026-01-18 21:50:28.21	31.06	3.51	-42.9	-55.4	3.8	1.49e+00	0	54	104	0	57	15196
2026-01-18 21:50:29.22	31.16	3.56	-42.8	-55.4	3.8	1.49e+00	0	54	104	0	57	15143
2026-01-18 21:50:30.23	31.25	3.62	-42.9	-55.4	3.8	1.49e+00	0	55	104	0	57	15168
2026-01-18 21:50:31.24	31.35	3.67	-42.9	-55.4	3.8	1.49e+00	0	54	104	0	57	15216
2026-01-18 21:50:32.25	31.45	3.72	-42.9	-55.4	3.8	1.49e+00	0	55	104	0	57	15157
2026-01-18 21:50:33.26	31.54	3.77	-42.8	-55.4	3.8	1.49e+00	0	55	104	0	57	15223
2026-01-18 21:50:34.27	31.64	3.82	-42.9	-55.4	3.8	1.49e+00	0	55	104	0	57	15185
2026-01-18 21:50:35.29	31.74	3.87	-42.9	-55.4	3.8	1.49e+00	0	55	104	0	57	15213
2026-01-18 21:50:36.30	31.83	3.92	-42.8	-55.4	3.8	1.49e+00	0	55	104	0	57	15165
2026-01-18 21:50:37.31	31.93	3.97	-42.8	-55.4	3.8	1.49e+00	0	55	104	0	57	15141
2026-01-18 21:50:38.32	32.03	4.03	-42.9	-55.4	3.8	1.49e+00	0	55	104	0	57	15191
2026-01-18 21:50:39.33	32.13	4.08	-42.8	-55.4	3.8	1.49e+00	0	55	104	0	57	15222
2026-01-18 21:50:40.34	32.23	4.13	-42.9	-55.4	3.8	1.49e+00	0	55	104	0	57	15204
2026-01-18 21:50:41.35	32.33	4.18	-42.9	-55.4	3.8	1.49e+00	0	55	104	0	57	15183
2026-01-18 21:50:42.36	32.43	4.23	-42.9	-55.4	3.8	1.49e+00	0	55	104	0	57	15159
2026-01-18 21:50:43.37	32.53	4.28	-42.8	-55.4	3.8	1.49e+00	0	55	104	0	57	15157
2026-01-18 21:50:44.38	32.63	4.33	-42.9	-55.4	3.8	1.49e+00	0	55	104	0	57	15181
2026-01-18 21:50:45.39	32.73	4.39	-42.9	-55.4	3.8	1.49e+00	0	55	104	0	57	15221
2026-01-18 21:50:46.40	32.83	4.44	-42.9	-55.4	3.8	1.49e+00	0	55	104	0	57	15193
2026-01-18 21:50:47.41	32.93	4.49	-42.9	-55.4	3.8	1.49e+00	0	55	104	0	57	15187
2026-01-18 21:50:48.42	33.03	4.54	-42.9	-55.4	3.8	1.49e+00	0	56	104	0	57	15216
2026-01-18 21:50:49.44	33.14	4.59	-42.9	-55.4	3.8	1.49e+00	0	55	104	0	57	15178
2026-01-18 21:50:50.45	33.24	4.65	-42.9	-55.4	3.8	1.49e+00	0	55	104	0	57	15169
2026-01-18 21:50:51.46	33.34	4.70	-42.8	-55.4	3.8	1.49e+00	0	56	104	0	57	15210
2026-01-18 21:50:52.47	33.44	4.75	-42.8	-55.4	3.8	1.49e+00	0	56	104	0	57	15202
2026-01-18 21:50:53.48	33.55	4.80	-42.9	-55.4	3.8	1.49e+00	0	55	104	0	57	15210
2026-01-18 21:50:54.49	33.65	4.85	-42.9	-55.4	3.8	1.49e+00	0	56	104	0	57	15133
2026-01-18 21:50:55.50	33.76	4.90	-42.9	-55.4	3.8	1.49e+00	0	56	104	0	57	15211
2026-01-18 21:50:56.51	33.86	4.96	-42.8	-55.4	3.8	1.49e+00	0	56	104	0	57	15157
2026-01-18 21:50:57.52	33.96	5.01	-42.9	-55.4	3.8	1.49e+00	0	56	104	0	57	15177
2026-01-18 21:50:58.53	34.07	5.06	-42.9	-55.4	3.8	1.49e+00	0	56	104	0	57	15185
2026-01-18 21:50:59.54	34.18	5.11	-42.8	-55.4	3.8	1.49e+00	0	56	104	0	57	15169
2026-01-18 21:51:00.55	34.28	5.16	-42.8	-55.4	3.8	1.49e+00	0	56	104	0	57	15167
2026-01-18 21:51:01.56	34.39	5.22	-42.9	-55.4	3.8	1.49e+00	0	56	104	0	57	15158
2026-01-18 21:51:02.57	34.49	5.27	-42.8	-55.4	3.8	1.49e+00	0	56	104	0	57	15142
2026-01-18 21:51:03.58	34.60	5.32	-42.8	-55.4	3.8	1.49e+00	0	56	104	0	57	15163
2026-01-18 21:51:04.59	34.71	5.37	-42.8	-55.4	3.8	1.49e+00	0	56	104	0	57	15169
2026-01-18 21:51:05.60	34.82	5.42	-42.9	-55.4	3.8	1.49e+00	0	56	104	0	57	15179
2026-01-18 21:51:06.61	34.92	5.48	-42.8	-55.4	3.8	1.49e+00	0	56	104	0	57	15148
2026-01-18 21:51:07.62	35.03	5.53	-42.8	-55.4	3.8	1.49e+00	0	56	104	0	57	15163
2026-01-18 21:51:08.63	35.14	5.58	-42.8	-55.4	3.8	1.49e+00	0	57	104	0	57	15183
2026-01-18 21:51:09.64	35.25	5.63	-42.8	-55.4	3.8	1.49e+00	0	56	104	0	57	15125
2026-01-18 21:51:10.65	35.36	5.69	-42.8	-55.4	3.8	1.49e+00	0	56	104	0	57	15183
2026-01-18 21:51:11.67	35.47	5.74	-42.8	-55.4	3.8	1.49e+00	0	56	104	0	57	15128
2026-01-18 21:51:12.68	35.58	5.79	-42.8	-55.4	3.8	1.49e+00	0	57	104	0	57	15170
2026-01-18 21:51:13.69	35.69	5.84	-42.8	-55.4	3.8	1.49e+00	0	57	104	0	57	15172
2026-01-18 21:51:14.70	35.80	5.90	-42.8	-55.4	3.8	1.49e+00	0	57	104	0	57	15203
2026-01-18 21:51:15.71	35.92	5.95	-42.9	-55.4	3.8	1.49e+00	0	56	104	0	57	15193
2026-01-18 21:51:16.72	36.03	6.00	-42.8	-55.4	3.8	1.49e+00	0	57	104	0	57	15188
2026-01-18 21:51:17.73	36.14	6.05	-42.9	-55.4	3.8	1.49e+00	0	57	104	0	57	15103
2026-01-18 21:51:18.74	36.25	6.10	-42.8	-55.4	3.8	1.49e+00	0	57	104	0	57	15155
2026-01-18 21:51:19.75	36.37	6.16	-42.8	-55.4	3.8	1.49e+00	0	57	104	0	57	15171
2026-01-18 21:51:20.76	36.48	6.21	-42.9	-55.4	3.8	1.49e+00	0	57	104	0	57	15129
2026-01-18 21:51:21.77	36.59	6.26	-42.8	-55.4	3.8	1.49e+00	0	57	104	0	57	15171
2026-01-18 21:51:22.78	36.71	6.31	-42.8	-55.4	3.8	1.49e+00	0	57	104	0	57	15203
2026-01-18 21:51:23.79	36.82	6.37	-42.8	-55.4	3.8	1.49e+00	0	57	104	0	57	15177
2026-01-18 21:51:24.80	36.94	6.42	-42.8	-55.4	3.8	1.49e+00	0	57	104	0	57	15140
2026-01-18 21:51:25.81	37.05	6.47	-42.8	-55.4	3.8	1.49e+00	0	57	104	0	57	15157
2026-01-18 21:51:26.82	37.17	6.52	-42.9	-55.4	3.8	1.49e+00	0	57	104	0	57	15124
2026-01-18 21:51:27.83	37.28	6.58	-42.8	-55.4	3.8	1.49e+00	0	57	104	0	57	15127
2026-01-18 21:51:28.85	37.40	6.63	-42.8	-55.4	3.8	1.49e+00	0	57	104	0	57	15164
2026-01-18 21:51:29.86	37.52	6.68	-42.8	-55.3	3.8	1.49e+00	0	57	104	0	57	15051
2026-01-18 21:51:30.87	37.64	6.73	-42.9	-55.4	3.8	1.49e+00	0	57	104	0	57	15074
2026-01-18 21:51:31.88	37.75	6.79	-42.9	-55.4	3.8	1.49e+00	0	57	104	0	57	15142
2026-01-18 21:51:32.89	37.87	6.84	-42.8	-55.3	3.8	1.49e+00	0	57	104	0	57	15034
2026-01-18 21:51:33.90	37.99	6.89	-42.8	-55.3	3.8	1.49e+00	0	57	104	0	57	14890
2026-01-18 21:51:34.91	38.11	6.94	-42.8	-55.2	3.8	1.49e+00	0	57	104	0	57	14845
2026-01-18 21:51:35.92	38.23	7.00	-42.8	-55.3	3.8	1.49e+00	0	58	104	0	57	14898
2026-01-18 21:51:36.93	38.35	7.05	-42.8	-55.3	3.8	1.49e+00	0	57	104	0	57	14934
2026-01-18 21:51:37.94	38.47	7.10	-42.8	-55.1	3.8	1.49e+00	0	58	104	0	57	14689
2026-01-18 21:51:38.95	38.59	7.15	-42.8	-54.8	3.8	1.49e+00	0	58	104	0	57	14152
2026-01-18 21:51:39.96	38.71	7.21	-42.7	-54.3	3.8	1.49e+00	0	57	104	0	57	13408
2026-01-18 21:51:40.97	38.83	7.26	-42.7	-53.8	3.8	1.49e+00	0	58	104	0	57	12636
2026-01-18 21:51:41.98	38.95	7.31	-42.6	-52.9	4.0	1.48e+00	0	57	104	0	57	11337
2026-01-18 21:51:42.99	39.08	7.36	-42.5	-52.8	3.9	1.48e+00	0	58	104	0	57	11181
2026-01-18 21:51:44.00	39.20	7.42	-42.5	-52.3	4.1	1.47e+00	0	58	104	0	57	10539
2026-01-18 21:51:45.01	39.32	7.47	-42.6	-52.8	3.9	1.46e+00	0	58	104	0	57	11283
2026-01-18 21:51:46.02	39.45	7.52	-42.7	-53.3	3.9	1.48e+00	0	58	104	0	57	11869
2026-01-18 21:51:47.03	39.57	7.57	-42.8	-54.8	3.8	1.49e+00	0	57	104	0	57	14183
2026-01-18 21:51:48.04	39.70	7.63	-42.8	-55.2	3.8	1.49e+00	0	58	104	0	57	14740
2026-01-18 21:51:49.05	39.82	7.68	-42.7	-53.9	3.8	1.49e+00	0	58	104	0	57	12709
2026-01-18 21:51:50.06	39.95	7.73	-42.4	-51.8	3.9	1.47e+00	0	58	104	0	56	10629
2026-01-18 21:51:51.07	40.07	7.79	-42.0	-49.1	5.4	6.41e-01	0	58	0	0	56	7779
2026-01-18 21:51:52.08	40.20	7.84	-41.5	-47.6	6.4	2.68e-01	0	58	0	3145728	55	6882
2026-01-18 21:51:53.10	40.33	7.89	-41.2	-46.6	7.3	1.38e-01	0	58	0	6291456	54	6551
2026-01-18 21:51:54.11	40.45	7.94	-41.1	-46.2	7.8	9.29e-02	0	58	0	9437184	54	6203
2026-01-18 21:51:55.12	40.58	8.00	-40.9	-45.7	8.2	6.15e-02	0	58	0	12582912	53	6261
2026-01-18 21:51:56.13	40.71	8.05	-40.8	-45.5	8.4	5.22e-02	0	58	0	15728640	53	6089
2026-01-18 21:51:57.14	40.84	8.10	-41.4	-46.8	7.3	1.05e-01	0	58	0	18874368	53	7113
2026-01-18 21:51:58.15	40.97	8.15	-42.2	-54.6	3.8	1.49e+00	0	58	104	19922944	55	15473
2026-01-18 21:51:59.16	41.10	8.21	-42.5	-49.3	5.6	2.94e-01	0	58	0	19922944	55	8404
2026-01-18 21:52:00.17	41.22	8.26	-42.7	-50.7	4.1	1.43e+00	0	58	104	22020096	56	9372
2026-01-18 21:52:01.18	41.36	8.31	-41.8	-47.7	6.6	9.16e-02	0	58	0	24117248	54	7436
2026-01-18 21:52:02.19	41.49	8.36	-41.1	-45.6	8.8	3.60e-02	0	58	0	27262976	54	5824
2026-01-18 21:52:03.20	41.62	8.42	-41.1	-45.6	8.7	3.43e-02	0	58	0	30408704	54	5834
2026-01-18 21:52:04.20	41.75	8.47	-41.0	-45.4	8.9	2.91e-02	0	58	0	33554432	53	6024
2026-01-18 21:52:05.21	41.88	8.52	-40.8	-45.1	9.2	2.20e-02	0	58	0	36700160	53	5827
2026-01-18 21:52:06.22	42.01	8.57	-40.9	-45.1	9.3	2.00e-02	0	58	0	39845888	53	5818
2026-01-18 21:52:07.23	42.15	8.62	-40.8	-45.1	9.3	1.72e-02	0	58	0	42991616	53	5807
2026-01-18 21:52:08.24	42.28	8.68	-40.8	-44.9	9.5	1.62e-02	0	58	0	46137344	53	5686
2026-01-18 21:52:09.25	42.41	8.73	-40.8	-44.7	9.8	1.09e-02	0	58	0	49283072	53	5558
2026-01-18 21:52:10.26	42.55	8.78	-40.8	-44.7	9.8	1.01e-02	0	58	0	52428800	53	5586
2026-01-18 21:52:11.27	42.68	8.83	-40.7	-44.6	10.0	8.71e-03	0	58	0	55574528	53	5475
2026-01-18 21:52:12.28	42.82	8.89	-40.8	-44.6	10.0	8.04e-03	0	58	0	58720256	53	5512
2026-01-18 21:52:13.29	42.95	8.94	-40.8	-44.6	10.0	8.08e-03	0	58	0	61865984	53	5472
2026-01-18 21:52:14.29	43.09	8.99	-40.7	-44.4	10.1	6.47e-03	0	58	0	65011712	53	5400
2026-01-18 21:52:15.30	43.22	9.04	-40.7	-44.4	10.2	5.69e-03	0	58	0	68157440	53	5377
2026-01-18 21:52:16.31	43.36	9.09	-40.8	-44.4	10.2	5.91e-03	0	58	0	71303168	53	5398
2026-01-18 21:52:17.32	43.50	9.15	-40.8	-44.3	10.4	4.52e-03	0	58	0	74448896	53	5320
2026-01-18 21:52:18.33	43.64	9.20	-40.8	-44.3	10.5	4.64e-03	0	59	0	77594624	53	5320
2026-01-18 21:52:19.34	43.78	9.25	-40.7	-44.1	10.7	3.20e-03	0	59	0	80740352	53	5205
2026-01-18 21:52:20.35	43.92	9.30	-40.6	-43.9	10.9	2.43e-03	0	59	0	83886080	53	5098
2026-01-18 21:52:21.36	44.06	9.35	-40.5	-43.8	11.0	1.91e-03	0	59	0	87031808	53	5018
2026-01-18 21:52:22.37	44.20	9.41	-40.5	-43.7	11.2	1.41e-03	0	59	0	90177536	52	5246
2026-01-18 21:52:23.38	44.34	9.46	-40.5	-43.7	11.2	1.48e-03	0	59	0	93323264	52	5259
2026-01-18 21:52:24.39	44.48	9.51	-40.5	-43.7	11.3	1.26e-03	0	59	0	96468992	52	5231
2026-01-18 21:52:25.40	44.62	9.56	-40.5	-43.7	11.2	1.38e-03	0	59	0	99614720	52	5247
2026-01-18 21:52:26.41	44.76	9.61	-40.6	-43.9	11.1	1.63e-03	0	59	0	102760448	52	5341
2026-01-18 21:52:27.42	44.90	9.66	-40.6	-44.0	10.9	2.02e-03	0	59	0	105906176	52	5425
2026-01-18 21:52:28.43	45.05	9.72	-40.6	-43.8	11.1	1.49e-03	0	59	0	109051904	52	5321
2026-01-18 21:52:29.44	45.19	9.77	-40.6	-43.8	11.1	1.45e-03	0	59	0	112197632	52	5340
2026-01-18 21:52:30.45	45.33	9.82	-40.5	-43.8	11.2	1.40e-03	0	59	0	115343360	52	5296
2026-01-18 21:52:31.45	45.48	9.87	-40.6	-43.8	11.1	1.48e-03	0	59	0	118489088	52	5333
2026-01-18 21:52:32.46	45.62	9.92	-40.6	-43.8	11.1	1.62e-03	0	59	0	121634816	52	5325
2026-01-18 21:52:33.47	45.77	9.97	-40.6	-43.8	11.2	1.45e-03	0	59	0	124780544	52	5328
2026-01-18 21:52:34.48	45.91	10.02	-40.5	-43.7	11.3	1.27e-03	0	59	0	127926272	52	5267
2026-01-18 21:52:35.49	46.06	10.08	-40.6	-43.7	11.3	1.15e-03	0	59	0	131072000	52	5270
2026-01-18 21:52:36.50	46.21	10.13	-40.6	-43.7	11.4	1.16e-03	0	59	0	134217728	52	5260
2026-01-18 21:52:37.51	46.35	10.18	-40.5	-43.6	11.5	8.73e-04	0	59	0	137363456	52	5181
2026-01-18 21:52:38.53	46.50	10.23	-40.6	-43.7	11.4	1.06e-03	0	59	0	140509184	52	5255
2026-01-18 21:52:39.53	46.65	10.28	-40.6	-43.8	11.3	1.08e-03	0	59	0	143654912	52	5280
2026-01-18 21:52:40.54	46.80	10.33	-40.5	-43.7	11.4	9.42e-04	0	59	0	146800640	52	5221
2026-01-18 21:52:41.55	46.95	10.38	-40.5	-43.5	11.6	7.24e-04	0	59	0	149946368	52	5151
2026-01-18 21:52:42.56	47.10	10.43	-40.5	-43.6	11.6	7.58e-04	0	59	0	153092096	52	5160
2026-01-18 21:52:43.58	47.25	10.48	-40.4	-43.5	11.7	6.17e-04	0	59	0	156237824	52	5102
2026-01-18 21:52:44.59	47.40	10.53	-40.4	-43.5	11.6	7.47e-04	0	59	0	159383552	52	5110
2026-01-18 21:52:45.60	47.55	10.59	-40.4	-43.4	11.7	5.89e-04	0	59	0	162529280	52	5079
2026-01-18 21:52:46.61	47.71	10.64	-40.4	-43.4	11.8	5.24e-04	0	59	0	165675008	52	5068
2026-01-18 21:52:47.61	47.86	10.69	-40.5	-43.5	11.7	6.79e-04	0	59	0	168820736	52	5118
2026-01-18 21:52:48.62	48.01	10.74	-40.5	-43.5	11.7	6.35e-04	0	59	0	171966464	52	5113
2026-01-18 21:52:49.63	48.16	10.79	-40.5	-43.4	11.7	5.46e-04	0	59	0	175112192	52	5097
2026-01-18 21:52:50.64	48.32	10.84	-40.4	-43.3	11.8	5.09e-04	0	59	0	178257920	52	5020
2026-01-18 21:52:51.65	48.47	10.89	-40.4	-43.3	11.9	3.61e-04	0	59	0	181403648	52	5021
2026-01-18 21:52:52.66	48.63	10.94	-40.5	-43.4	11.7	4.99e-04	0	59	0	184549376	52	5091
2026-01-18 21:52:53.67	48.78	10.99	-40.4	-43.4	11.8	5.19e-04	0	59	0	187695104	52	5089
2026-01-18 21:52:54.68	48.94	11.04	-40.4	-43.3	11.8	4.24e-04	0	59	0	190840832	52	5029
2026-01-18 21:52:55.69	49.09	11.09	-40.4	-43.3	11.9	4.73e-04	0	59	0	193986560	52	5041
2026-01-18 21:52:56.70	49.25	11.14	-40.5	-43.5	11.7	5.20e-04	0	59	0	197132288	52	5101
2026-01-18 21:52:57.71	49.41	11.19	-40.5	-43.5	11.7	5.04e-04	0	59	0	200278016	52	5123
2026-01-18 21:52:58.72	49.57	11.24	-40.4	-43.4	11.8	4.78e-04	0	59	0	203423744	52	5049
2026-01-18 21:52:59.73	49.73	11.29	-40.5	-43.4	11.8	4.96e-04	0	59	0	206569472	52	5090
2026-01-18 21:53:00.74	49.89	11.34	-40.5	-43.5	11.7	6.19e-04	0	59	0	209715200	52	5152
2026-01-18 21:53:01.75	50.05	11.38	-40.5	-43.4	11.8	5.13e-04	0	59	0	212860928	52	5094
2026-01-18 21:53:02.76	50.21	11.43	-40.4	-43.4	11.8	5.00e-04	0	59	0	216006656	52	5060
2026-01-18 21:53:03.77	50.37	11.48	-40.4	-43.3	11.9	3.91e-04	0	59	0	219152384	52	5033
2026-01-18 21:53:04.78	50.53	11.53	-40.4	-43.4	11.9	4.08e-04	0	59	0	222298112	52	5069
2026-01-18 21:53:05.79	50.69	11.58	-40.5	-43.4	11.8	4.47e-04	0	59	0	225443840	52	5084
2026-01-18 21:53:06.80	50.85	11.63	-40.4	-43.4	11.9	3.95e-04	0	59	0	228589568	52	5067
2026-01-18 21:53:07.81	51.02	11.68	-40.5	-43.4	11.9	4.50e-04	0	59	0	231735296	52	5087
2026-01-18 21:53:08.82	51.18	11.73	-40.4	-43.3	12.0	3.81e-04	0	60	0	234881024	52	5015
2026-01-18 21:53:09.83	51.34	11.78	-40.4	-43.4	11.9	3.68e-04	0	59	0	238026752	52	5060
2026-01-18 21:53:10.84	51.51	11.82	-40.5	-43.4	11.8	3.91e-04	0	60	0	241172480	52	5096
2026-01-18 21:53:11.85	51.67	11.87	-40.6	-43.6	11.7	5.32e-04	0	59	0	244318208	52	5171
2026-01-18 21:53:12.86	51.84	11.92	-40.6	-43.6	11.7	6.47e-04	0	59	0	247463936	52	5181
2026-01-18 21:53:13.86	52.00	11.97	-40.6	-43.6	11.6	7.22e-04	0	59	0	250609664	52	5218
2026-01-18 21:53:14.87	52.17	12.02	-40.6	-43.7	11.6	8.13e-04	0	59	0	253755392	52	5251
2026-01-18 21:53:15.88	52.34	12.06	-40.7	-43.8	11.5	9.06e-04	0	60	0	256901120	52	5296
2026-01-18 21:53:16.89	52.50	12.11	-40.7	-43.8	11.5	7.51e-04	0	60	0	260046848	52	5302
2026-01-18 21:53:17.91	52.67	12.16	-40.6	-43.6	11.6	7.03e-04	0	60	0	263192576	52	5217
2026-01-18 21:53:18.92	52.84	12.21	-40.7	-43.8	11.5	7.17e-04	0	59	0	266338304	52	5311
2026-01-18 21:53:19.93	53.01	12.25	-40.7	-43.9	11.4	8.34e-04	0	60	0	269484032	52	5348
2026-01-18 21:53:20.94	53.18	12.30	-40.6	-43.7	11.6	8.38e-04	0	59	0	272629760	52	5248
2026-01-18 21:53:21.95	53.35	12.35	-40.5	-43.5	11.8	4.82e-04	0	60	0	275775488	52	5118
2026-01-18 21:53:22.96	53.52	12.40	-40.5	-43.5	11.8	4.70e-04	0	60	0	278921216	52	5132
2026-01-18 21:53:23.97	53.69	12.44	-40.5	-43.5	11.8	4.68e-04	0	59	0	282066944	52	5141
2026-01-18 21:53:24.98	53.87	12.49	-40.5	-43.5	11.8	4.73e-04	0	60	0	285212672	52	5119
2026-01-18 21:53:25.99	54.04	12.53	-40.5	-43.4	11.9	3.68e-04	0	59	0	288358400	52	5059
2026-01-18 21:53:27.00	54.21	12.58	-40.5	-43.4	11.9	3.71e-04	0	60	0	291504128	52	5052
2026-01-18 21:53:28.01	54.38	12.63	-40.5	-43.4	11.9	3.86e-04	0	60	0	294649856	52	5076
2026-01-18 21:53:29.01	54.56	12.67	-40.4	-43.3	12.0	3.27e-04	0	60	0	297795584	52	5006
2026-01-18 21:53:30.02	54.73	12.72	-40.4	-43.4	12.0	3.28e-04	0	60	0	300941312	52	5042
2026-01-18 21:53:31.03	54.91	12.76	-40.4	-43.3	12.0	3.20e-04	0	60	0	304087040	52	5022
2026-01-18 21:53:32.04	55.08	12.81	-40.4	-43.3	12.0	3.46e-04	0	60	0	307232768	52	5031
2026-01-18 21:53:33.05	55.26	12.86	-40.5	-43.4	11.9	4.02e-04	0	60	0	310378496	52	5073
2026-01-18 21:53:34.06	55.44	12.90	-40.5	-43.4	11.9	3.52e-04	0	60	0	313524224	52	5092
2026-01-18 21:53:35.07	55.61	12.95	-40.6	-43.5	11.8	4.78e-04	0	60	0	316669952	52	5149
2026-01-18 21:53:36.08	55.79	12.99	-40.6	-43.6	11.8	4.58e-04	0	60	0	319815680	52	5164
2026-01-18 21:53:37.09	55.97	13.04	-40.5	-43.5	11.9	4.91e-04	0	59	0	322961408	52	5102
2026-01-18 21:53:38.10	56.15	13.08	-40.5	-43.5	11.8	3.73e-04	0	60	0	326107136	52	5113
2026-01-18 21:53:39.11	56.33	13.12	-40.5	-43.4	11.9	4.09e-04	0	60	0	329252864	52	5078
2026-01-18 21:53:40.12	56.51	13.17	-40.5	-43.4	11.9	3.69e-04	0	60	0	332398592	52	5097
2026-01-18 21:53:41.13	56.69	13.21	-40.6	-43.6	11.7	5.32e-04	0	60	0	335544320	52	5194
2026-01-18 21:53:42.13	56.87	13.26	-40.6	-43.5	11.8	5.29e-04	0	60	0	338690048	52	5146
2026-01-18 21:53:43.14	57.05	13.30	-40.5	-43.5	11.8	4.73e-04	0	60	0	341835776	52	5114
2026-01-18 21:53:44.15	57.23	13.34	-40.6	-43.6	11.7	5.00e-04	0	60	0	344981504	52	5170
2026-01-18 21:53:45.16	57.41	13.39	-40.5	-43.5	11.8	4.80e-04	0	60	0	349175808	52	5121
2026-01-18 21:53:46.17	57.59	13.43	-40.5	-43.4	12.0	3.53e-04	0	60	0	351272960	52	5062
2026-01-18 21:53:47.18	57.78	13.47	-40.4	-43.3	12.0	3.30e-04	0	60	0	354418688	52	5027
2026-01-18 21:53:48.19	57.96	13.52	-40.5	-43.3	11.9	3.81e-04	0	60	0	357564416	52	5041
2026-01-18 21:53:49.20	58.15	13.56	-40.5	-43.5	11.8	4.55e-04	0	60	0	360710144	52	5106
2026-01-18 21:53:50.21	58.33	13.60	-40.5	-43.5	11.8	4.45e-04	0	60	0	364904448	52	5128
2026-01-18 21:53:51.22	58.52	13.64	-40.4	-43.2	12.1	3.39e-04	0	60	0	368050176	52	4976
2026-01-18 21:53:52.24	58.71	13.69	-40.4	-43.3	12.0	2.79e-04	0	60	0	371195904	52	5004
2026-01-18 21:53:53.25	58.89	13.73	-40.4	-43.2	12.1	2.58e-04	0	60	0	373293056	52	4965
2026-01-18 21:53:54.25	59.08	13.77	-40.4	-43.3	12.0	2.53e-04	0	60	0	376438784	52	4996
2026-01-18 21:53:55.26	59.26	13.81	-40.4	-43.2	12.1	2.54e-04	0	60	0	380633088	52	4979
2026-01-18 21:53:56.27	59.45	13.85	-40.4	-43.2	12.2	2.50e-04	0	60	0	383778816	52	4942
2026-01-18 21:53:57.28	59.64	13.89	-40.3	-43.1	12.2	1.76e-04	0	60	0	386924544	52	4878
2026-01-18 21:53:58.29	59.83	13.93	-40.3	-43.2	12.2	2.04e-04	0	60	0	390070272	52	4930
2026-01-18 21:53:59.30	60.02	13.97	-40.3	-43.1	12.1	1.88e-04	0	60	0	393216000	52	4926
2026-01-18 21:54:00.31	60.21	14.01	-40.3	-43.2	12.1	2.30e-04	0	60	0	396361728	52	4933
2026-01-18 21:54:01.32	60.40	14.05	-40.3	-43.2	12.1	2.72e-04	0	60	0	399507456	52	4929
2026-01-18 21:54:02.33	60.59	14.09	-40.3	-43.1	12.1	2.76e-04	0	60	0	402653184	52	4897
2026-01-18 21:54:03.34	60.78	14.13	-40.2	-43.0	12.2	2.11e-04	0	60	0	405798912	52	4864
2026-01-18 21:54:04.34	60.97	14.17	-40.2	-43.0	12.2	2.46e-04	0	60	0	408944640	52	4826
2026-01-18 21:54:05.35	61.17	14.21	-40.2	-43.1	12.1	3.00e-04	0	60	0	412090368	52	4875
2026-01-18 21:54:06.36	61.36	14.25	-40.1	-42.8	12.4	1.30e-04	0	60	0	415236096	52	4728
2026-01-18 21:54:07.37	61.55	14.29	-40.1	-42.9	12.3	1.91e-04	0	60	0	418381824	52	4784
2026-01-18 21:54:08.38	61.75	14.33	-40.1	-43.0	12.1	2.27e-04	0	60	0	421527552	52	4820
2026-01-18 21:54:09.39	61.94	14.36	-40.0	-42.8	12.3	1.74e-04	0	60	0	424673280	52	4716
2026-01-18 21:54:10.41	62.14	14.40	-40.0	-42.7	12.3	1.94e-04	0	60	0	427819008	52	4697
2026-01-18 21:54:11.41	62.33	14.44	-40.1	-42.9	12.2	1.98e-04	0	60	0	430964736	51	5066
2026-01-18 21:54:12.42	62.53	14.48	-40.2	-43.0	12.1	2.77e-04	0	60	0	434110464	51	5147
2026-01-18 21:54:13.43	62.73	14.52	-40.2	-43.2	12.0	3.83e-04	0	60	0	437256192	51	5219
2026-01-18 21:54:14.44	62.92	14.55	-40.2	-43.1	12.0	2.94e-04	0	60	0	440401920	51	5170
2026-01-18 21:54:15.45	63.12	14.59	-40.2	-43.0	12.0	3.13e-04	0	60	0	443547648	51	5149
2026-01-18 21:54:16.46	63.32	14.63	-40.2	-43.0	12.0	3.30e-04	0	60	0	446693376	51	5154
2026-01-18 21:54:17.47	63.52	14.66	-40.2	-43.2	11.8	3.98e-04	0	60	0	449839104	51	5239
2026-01-18 21:54:18.48	63.72	14.70	-40.1	-43.0	11.9	3.65e-04	0	60	0	452984832	51	5139
2026-01-18 21:54:19.49	63.92	14.73	-40.1	-43.1	11.8	4.00e-04	0	60	0	456130560	51	5160
2026-01-18 21:54:20.50	64.12	14.77	-40.2	-43.2	11.7	6.18e-04	0	60	0	459276288	51	5227
2026-01-18 21:54:21.51	64.32	14.80	-40.2	-43.2	11.7	5.73e-04	0	60	0	462422016	51	5226
2026-01-18 21:54:22.52	64.52	14.84	-40.0	-43.0	11.7	5.03e-04	0	60	0	465567744	51	5125
2026-01-18 21:54:23.53	64.72	14.87	-39.9	-42.9	11.7	5.65e-04	0	60	0	468713472	51	5074
2026-01-18 21:54:24.54	64.92	14.91	-39.9	-42.8	11.8	5.52e-04	0	60	0	471859200	51	5037
2026-01-18 21:54:25.55	65.12	14.94	-40.0	-43.0	11.6	5.87e-04	0	60	0	475004928	51	5148
2026-01-18 21:54:26.56	65.33	14.97	-40.1	-43.3	11.3	7.56e-04	0	60	0	478150656	51	5281
2026-01-18 21:54:27.57	65.53	15.01	-40.2	-43.4	11.2	1.18e-03	0	60	0	481296384	51	5350
2026-01-18 21:54:28.58	65.73	15.04	-40.0	-43.1	11.5	9.73e-04	0	61	0	484442112	51	5167
2026-01-18 21:54:29.59	65.94	15.07	-39.9	-43.0	11.7	6.24e-04	0	60	0	487587840	51	5103
2026-01-18 21:54:30.60	66.14	15.11	-39.8	-42.8	11.8	5.52e-04	0	60	0	490733568	51	5004
2026-01-18 21:54:31.61	66.35	15.14	-39.9	-43.0	11.5	6.52e-04	0	60	0	493879296	51	5110
2026-01-18 21:54:32.62	66.55	15.17	-39.9	-43.0	11.5	8.25e-04	0	60	0	497025024	51	5140
2026-01-18 21:54:33.63	66.76	15.20	-39.9	-43.0	11.4	1.05e-03	0	60	0	500170752	51	5128
2026-01-18 21:54:34.64	66.96	15.23	-40.0	-43.1	11.2	1.12e-03	0	60	0	503316480	51	5217
2026-01-18 21:54:35.65	67.17	15.26	-40.0	-43.2	11.1	1.62e-03	0	60	0	506462208	51	5253
2026-01-18 21:54:36.66	67.38	15.29	-39.9	-43.1	11.2	1.56e-03	0	60	0	509607936	51	5195
2026-01-18 21:54:37.66	67.58	15.32	-40.1	-43.5	10.7	2.06e-03	0	61	0	512753664	51	5442
2026-01-18 21:54:38.67	67.79	15.35	-40.2	-43.8	10.4	3.73e-03	0	60	0	515899392	51	5635
2026-01-18 21:54:39.68	68.00	15.38	-40.3	-43.9	10.2	6.33e-03	0	61	0	519045120	51	5716
2026-01-18 21:54:40.69	68.21	15.41	-40.3	-44.0	10.0	6.96e-03	0	61	0	522190848	51	5754
2026-01-18 21:54:41.70	68.42	15.44	-40.3	-44.1	9.8	1.02e-02	0	61	0	525336576	51	5840
2026-01-18 21:54:42.71	68.63	15.47	-40.4	-44.4	9.4	1.52e-02	0	61	0	528482304	51	6022
2026-01-18 21:54:43.72	68.84	15.50	-40.3	-44.4	9.2	1.91e-02	0	60	0	531628032	51	6055
2026-01-18 21:54:44.73	69.05	15.53	-40.3	-44.5	9.1	2.24e-02	0	61	0	534773760	51	6088
2026-01-18 21:54:45.74	69.26	15.56	-40.3	-44.6	9.0	2.08e-02	0	60	0	537919488	51	6168
2026-01-18 21:54:46.76	69.47	15.58	-40.4	-44.8	8.7	3.40e-02	0	60	0	541065216	51	6344
2026-01-18 21:54:47.77	69.68	15.61	-40.4	-44.9	8.6	3.69e-02	0	61	0	544210944	51	6348
2026-01-18 21:54:48.78	69.90	15.64	-40.4	-44.9	8.6	3.45e-02	0	60	0	547356672	51	6358
2026-01-18 21:54:49.79	70.11	15.66	-40.5	-45.2	8.2	5.19e-02	0	61	0	550502400	51	6601
2026-01-18 21:54:50.80	70.32	15.69	-40.5	-45.4	7.9	6.09e-02	0	60	0	553648128	51	6769
2026-01-18 21:54:51.81	70.53	15.72	-40.5	-45.6	7.7	7.97e-02	0	61	0	556793856	51	6947
2026-01-18 21:54:52.81	70.74	15.74	-40.5	-45.7	7.6	9.95e-02	0	60	0	559939584	51	6991
2026-01-18 21:54:53.82	70.96	15.77	-40.5	-45.9	7.3	1.14e-01	0	61	0	563085312	51	7142
2026-01-18 21:54:54.83	71.17	15.79	-40.5	-46.2	6.9	1.51e-01	0	61	0	566231040	51	7456
2026-01-18 21:54:55.84	71.39	15.82	-40.6	-46.6	6.5	2.19e-01	0	60	0	569376768	51	7725
2026-01-18 21:54:56.85	71.60	15.84	-40.6	-46.7	6.4	2.44e-01	0	61	0	572522496	51	7849
2026-01-18 21:54:57.86	71.82	15.86	-41.0	-48.1	5.4	4.47e-01	0	61	0	575668224	52	8723
2026-01-18 21:54:58.87	72.03	15.89	-41.4	-51.3	3.9	3.14e-01	0	60	104	578813952	53	11896
2026-01-18 21:54:59.88	72.25	15.91	-41.4	-52.6	3.8	1.45e+00	0	61	104	578813952	53	13848
2026-01-18 21:55:00.89	72.46	15.93	-41.7	-52.2	3.8	2.82e-01	0	61	104	578813952	53	13200
2026-01-18 21:55:01.90	72.68	15.95	-40.5	-46.5	6.4	5.06e-01	0	60	0	578813952	53	6846
2026-01-18 21:55:02.91	72.90	15.98	-40.4	-45.9	7.0	1.57e-01	0	60	0	581959680	52	6758
2026-01-18 21:55:03.92	73.11	16.00	-40.3	-45.6	7.3	1.32e-01	0	60	0	585105408	52	6546
2026-01-18 21:55:04.93	73.33	16.02	-40.4	-45.9	7.1	1.27e-01	0	61	0	588251136	52	6729
2026-01-18 21:55:05.94	73.55	16.04	-40.4	-45.9	7.0	1.56e-01	0	60	0	591396864	52	6799
2026-01-18 21:55:06.95	73.77	16.06	-40.5	-46.2	6.8	1.78e-01	0	61	0	594542592	52	6982
2026-01-18 21:55:07.96	73.98	16.08	-41.5	-51.0	3.9	9.60e-01	0	61	104	596639744	53	11497
2026-01-18 21:55:08.97	74.20	16.10	-42.0	-54.2	3.8	1.49e+00	0	61	104	596639744	54	15760
2026-01-18 21:55:09.98	74.42	16.12	-41.4	-52.6	3.8	1.18e+00	0	61	104	596639744	53	13836
2026-01-18 21:55:10.98	74.64	16.14	-41.7	-52.7	3.8	1.49e+00	0	61	104	596639744	53	13930
2026-01-18 21:55:11.99	74.86	16.16	-40.9	-48.1	5.3	2.47e-01	0	61	0	597688320	52	8686
2026-01-18 21:55:13.00	75.08	16.17	-40.3	-46.0	6.8	2.26e-01	0	61	0	600834048	52	6868
2026-01-18 21:55:14.01	75.30	16.19	-40.3	-46.0	6.9	1.88e-01	0	61	0	603979776	52	6824
2026-01-18 21:55:15.02	75.52	16.21	-40.3	-45.7	7.2	1.41e-01	0	61	0	607125504	52	6594
2026-01-18 21:55:16.03	75.74	16.23	-40.3	-45.4	7.5	1.05e-01	0	61	0	610271232	52	6398
2026-01-18 21:55:17.04	75.96	16.24	-40.3	-45.3	7.8	8.57e-02	0	61	0	613416960	52	6285
2026-01-18 21:55:18.05	76.18	16.26	-40.3	-45.1	8.0	7.42e-02	0	61	0	616562688	52	6181
2026-01-18 21:55:19.06	76.40	16.28	-40.2	-45.0	8.1	5.99e-02	0	61	0	619708416	52	6083
2026-01-18 21:55:20.06	76.62	16.29	-40.3	-45.1	8.0	6.74e-02	0	61	0	622854144	52	6168
2026-01-18 21:55:21.08	76.84	16.31	-40.3	-45.4	7.7	8.20e-02	0	61	0	625999872	52	6349
2026-01-18 21:55:22.08	77.06	16.32	-40.3	-45.5	7.5	1.00e-01	0	61	0	629145600	52	6475
2026-01-18 21:55:23.10	77.29	16.33	-40.3	-45.4	7.6	9.97e-02	0	61	0	632291328	52	6374
2026-01-18 21:55:24.10	77.51	16.35	-40.2	-45.2	7.8	8.82e-02	0	61	0	635437056	52	6228
2026-01-18 21:55:25.11	77.73	16.36	-40.3	-45.3	7.7	8.58e-02	0	61	0	638582784	52	6344
2026-01-18 21:55:26.12	77.95	16.37	-40.3	-45.3	7.8	8.69e-02	0	61	0	641728512	52	6315
2026-01-18 21:55:27.13	78.18	16.39	-40.4	-45.4	7.8	7.95e-02	0	61	0	644874240	52	6369
2026-01-18 21:55:28.14	78.40	16.40	-40.4	-45.2	8.0	6.57e-02	0	61	0	648019968	52	6256
2026-01-18 21:55:29.16	78.62	16.41	-40.4	-45.0	8.3	5.40e-02	0	61	0	651165696	52	6113
2026-01-18 21:55:30.17	78.85	16.42	-40.4	-44.9	8.5	4.33e-02	0	61	0	654311424	52	6054
2026-01-18 21:55:31.18	79.07	16.43	-40.4	-45.0	8.4	4.52e-02	0	61	0	657457152	52	6131
2026-01-18 21:55:32.19	79.29	16.44	-40.5	-45.2	8.3	5.21e-02	0	61	0	660602880	52	6258
2026-01-18 21:55:33.20	79.52	16.45	-40.5	-45.3	8.1	5.92e-02	0	61	0	663748608	52	6293
2026-01-18 21:55:34.21	79.74	16.46	-40.5	-45.3	8.0	6.47e-02	0	61	0	666894336	52	6327
2026-01-18 21:55:35.22	79.97	16.47	-40.5	-45.4	7.9	7.21e-02	0	61	0	670040064	52	6413
2026-01-18 21:55:36.22	80.19	16.48	-40.4	-45.2	8.1	6.62e-02	0	61	0	673185792	52	6233
2026-01-18 21:55:37.23	80.41	16.49	-40.2	-44.8	8.6	4.17e-02	0	61	0	676331520	52	5936
2026-01-18 21:55:38.24	80.64	16.50	-40.2	-44.5	8.9	2.84e-02	0	61	0	679477248	52	5778
2026-01-18 21:55:39.25	80.86	16.51	-40.3	-44.4	9.1	2.37e-02	0	61	0	682622976	52	5722
2026-01-18 21:55:40.26	81.09	16.51	-40.3	-44.3	9.4	1.80e-02	0	61	0	685768704	52	5656
2026-01-18 21:55:41.27	81.31	16.52	-40.4	-44.4	9.4	1.51e-02	0	61	0	688914432	52	5671
2026-01-18 21:55:42.28	81.54	16.53	-40.4	-44.5	9.3	1.78e-02	0	61	0	692060160	52	5751
2026-01-18 21:55:43.29	81.76	16.53	-40.5	-44.6	9.2	2.06e-02	0	61	0	695205888	52	5801
2026-01-18 21:55:44.30	81.99	16.54	-40.5	-44.7	9.1	2.35e-02	0	61	0	698351616	52	5857
2026-01-18 21:55:45.31	82.21	16.54	-40.5	-44.8	8.9	2.85e-02	0	61	0	701497344	52	5933
2026-01-18 21:55:46.32	82.44	16.55	-40.4	-44.6	9.1	2.34e-02	0	61	0	704643072	52	5804
2026-01-18 21:55:47.33	82.66	16.55	-40.3	-44.4	9.3	1.90e-02	0	61	0	707788800	52	5686
2026-01-18 21:55:48.34	82.89	16.56	-40.3	-44.3	9.3	1.77e-02	0	61	0	710934528	52	5645
2026-01-18 21:55:49.35	83.11	16.56	-40.3	-44.3	9.5	1.48e-02	0	61	0	714080256	52	5610
2026-01-18 21:55:50.36	83.34	16.56	-40.5	-44.5	9.4	1.71e-02	0	61	0	717225984	52	5748
2026-01-18 21:55:51.37	83.56	16.57	-40.6	-44.8	9.1	2.13e-02	0	61	0	720371712	52	5939
2026-01-18 21:55:52.38	83.79	16.57	-40.6	-44.8	9.1	2.28e-02	0	61	0	723517440	52	5961
2026-01-18 21:55:53.38	84.01	16.57	-40.6	-44.7	9.2	2.02e-02	0	61	0	726663168	52	5923
2026-01-18 21:55:54.39	84.24	16.57	-40.6	-44.8	9.0	2.48e-02	0	61	0	729808896	52	5964
2026-01-18 21:55:55.40	84.47	16.57	-40.5	-44.6	9.1	2.08e-02	0	61	0	732954624	52	5852
2026-01-18 21:55:56.41	84.69	16.57	-40.4	-44.6	9.1	2.18e-02	0	61	0	736100352	52	5827
2026-01-18 21:55:57.42	84.92	16.57	-40.3	-44.4	9.3	1.87e-02	0	61	0	739246080	52	5713
2026-01-18 21:55:58.43	85.14	16.57	-40.3	-44.3	9.4	1.61e-02	0	61	0	742391808	52	5624
2026-01-18 21:55:59.44	85.37	16.57	-40.3	-44.4	9.4	1.62e-02	0	61	0	745537536	52	5679
2026-01-18 21:56:00.45	85.59	16.57	-40.4	-44.6	9.1	1.87e-02	0	61	0	748683264	52	5838
2026-01-18 21:56:01.46	85.82	16.57	-40.4	-44.6	9.3	2.01e-02	0	61	0	751828992	52	5816
2026-01-18 21:56:02.47	86.05	16.57	-40.4	-44.6	9.3	1.80e-02	0	61	0	754974720	52	5796
2026-01-18 21:56:03.48	86.27	16.57	-40.3	-44.4	9.4	1.62e-02	0	61	0	758120448	52	5678
2026-01-18 21:56:04.49	86.50	16.56	-40.4	-44.6	9.2	1.94e-02	0	61	0	761266176	52	5832
2026-01-18 21:56:05.50	86.72	16.56	-40.5	-44.8	8.9	2.60e-02	0	61	0	764411904	52	5976
2026-01-18 21:56:06.51	86.95	16.56	-40.5	-44.9	8.7	3.60e-02	0	61	0	767557632	52	6052
2026-01-18 21:56:07.52	87.17	16.55	-40.4	-44.7	8.9	2.95e-02	0	61	0	770703360	52	5908
2026-01-18 21:56:08.53	87.40	16.55	-40.4	-44.6	9.1	2.20e-02	0	61	0	773849088	52	5808
2026-01-18 21:56:09.54	87.62	16.54	-40.6	-44.7	9.2	2.01e-02	0	61	0	776994816	52	5867
2026-01-18 21:56:10.55	87.85	16.54	-40.7	-44.7	9.3	1.91e-02	0	61	0	780140544	52	5913
2026-01-18 21:56:11.56	88.08	16.53	-40.7	-44.6	9.7	1.31e-02	0	61	0	783286272	52	5796
2026-01-18 21:56:12.57	88.30	16.52	-40.5	-44.2	10.2	6.98e-03	0	61	0	786432000	52	5543
2026-01-18 21:56:13.58	88.53	16.52	-40.5	-44.0	10.4	4.88e-03	0	61	0	789577728	52	5458
2026-01-18 21:56:14.59	88.75	16.51	-40.5	-44.0	10.5	4.18e-03	0	61	0	792723456	52	5452
2026-01-18 21:56:15.60	88.98	16.50	-40.4	-43.7	10.8	3.06e-03	0	61	0	795869184	52	5262
2026-01-18 21:56:16.61	89.20	16.50	-40.3	-43.5	11.1	1.83e-03	0	61	0	799014912	52	5113
2026-01-18 21:56:17.62	89.43	16.49	-40.1	-43.1	11.5	8.40e-04	0	61	0	802160640	52	4910
2026-01-18 21:56:18.63	89.65	16.48	-40.2	-43.3	11.3	1.04e-03	0	61	0	805306368	52	5017
2026-01-18 21:56:19.64	89.87	16.47	-40.2	-43.3	11.4	1.05e-03	0	61	0	808452096	52	5041
2026-01-18 21:56:20.65	90.10	16.46	-40.3	-43.3	11.5	8.91e-04	0	61	0	811597824	52	5026
2026-01-18 21:56:21.66	90.32	16.45	-40.3	-43.4	11.5	7.26e-04	0	61	0	815792128	52	5065
2026-01-18 21:56:22.67	90.55	16.44	-40.4	-43.4	11.6	7.49e-04	0	61	0	818937856	52	5061
2026-01-18 21:56:23.68	90.77	16.43	-40.3	-43.2	11.9	5.17e-04	0	61	0	821035008	52	4949
2026-01-18 21:56:24.69	90.99	16.42	-40.3	-43.2	11.9	3.70e-04	0	61	0	824180736	52	4956
2026-01-18 21:56:25.70	91.22	16.41	-40.3	-43.2	11.9	4.10e-04	0	61	0	827326464	52	4981
2026-01-18 21:56:26.71	91.44	16.39	-40.2	-43.1	12.1	2.94e-04	0	61	0	831520768	52	4881
2026-01-18 21:56:27.72	91.66	16.38	-40.2	-42.9	12.2	1.93e-04	0	61	0	834666496	52	4804
2026-01-18 21:56:28.73	91.89	16.37	-40.1	-42.8	12.5	1.64e-04	0	61	0	837812224	52	4711
2026-01-18 21:56:29.74	92.11	16.36	-40.1	-42.7	12.5	1.26e-04	0	61	0	840957952	52	4703
2026-01-18 21:56:30.75	92.33	16.34	-40.1	-42.7	12.5	1.26e-04	0	61	0	844103680	52	4704
2026-01-18 21:56:31.76	92.56	16.33	-40.0	-42.7	12.6	8.69e-05	0	61	0	847249408	52	4670
2026-01-18 21:56:32.77	92.78	16.31	-40.0	-42.7	12.6	6.94e-05	0	61	0	850395136	52	4660
2026-01-18 21:56:33.78	93.00	16.30	-40.1	-42.8	12.6	9.15e-05	0	61	0	853540864	51	5000
2026-01-18 21:56:34.79	93.22	16.28	-40.2	-42.9	12.4	1.16e-04	0	61	0	856686592	51	5078
2026-01-18 21:56:35.80	93.44	16.27	-40.2	-42.9	12.4	1.41e-04	0	61	0	859832320	51	5097
2026-01-18 21:56:36.81	93.66	16.25	-40.2	-42.9	12.4	1.36e-04	0	61	0	862978048	51	5090
2026-01-18 21:56:37.83	93.89	16.24	-40.2	-42.9	12.5	1.33e-04	0	61	0	866123776	51	5090
2026-01-18 21:56:38.84	94.11	16.22	-40.3	-43.0	12.5	1.14e-04	0	61	0	869269504	51	5114
2026-01-18 21:56:39.84	94.33	16.20	-40.2	-42.9	12.6	9.15e-05	0	61	0	872415232	51	5058
2026-01-18 21:56:40.85	94.55	16.18	-40.2	-42.8	12.6	7.55e-05	0	61	0	875560960	51	5017
2026-01-18 21:56:41.86	94.77	16.17	-40.1	-42.7	12.8	8.01e-05	0	61	0	878706688	51	4980
2026-01-18 21:56:42.87	94.99	16.15	-40.2	-42.8	12.6	9.46e-05	0	61	0	881852416	51	5041
2026-01-18 21:56:43.88	95.21	16.13	-40.2	-42.9	12.6	7.70e-05	0	61	0	884998144	51	5043
2026-01-18 21:56:44.89	95.43	16.11	-40.2	-42.9	12.6	1.10e-04	0	61	0	888143872	51	5048
2026-01-18 21:56:45.90	95.65	16.09	-40.1	-42.7	12.8	7.40e-05	0	61	0	891289600	51	4966
2026-01-18 21:56:46.91	95.87	16.07	-40.2	-42.9	12.6	7.40e-05	0	61	0	894435328	51	5050
2026-01-18 21:56:47.93	96.09	16.05	-40.2	-42.9	12.7	8.23e-05	0	61	0	897581056	51	5044
2026-01-18 21:56:48.93	96.30	16.03	-40.2	-42.8	12.7	8.23e-05	0	61	0	900726784	51	5002
2026-01-18 21:56:49.95	96.52	16.01	-40.2	-42.8	12.7	9.30e-05	0	61	0	903872512	51	5003
2026-01-18 21:56:50.96	96.74	15.99	-40.2	-42.9	12.6	9.99e-05	0	61	0	907018240	51	5059
2026-01-18 21:56:51.97	96.96	15.96	-40.3	-42.9	12.6	7.40e-05	0	61	0	910163968	51	5100
2026-01-18 21:56:52.98	97.18	15.94	-40.3	-43.0	12.6	8.77e-05	0	61	0	913309696	51	5118
2026-01-18 21:56:53.99	97.39	15.92	-40.2	-42.8	12.8	8.46e-05	0	61	0	916455424	51	5002
2026-01-18 21:56:55.00	97.61	15.90	-40.1	-42.7	12.9	8.16e-05	0	61	0	919601152	51	4950
2026-01-18 21:56:56.00	97.82	15.87	-40.0	-42.5	13.1	3.73e-05	0	61	0	922746880	51	4820
2026-01-18 21:56:57.01	98.04	15.85	-40.0	-42.5	13.0	4.04e-05	0	61	0	925892608	51	4870
2026-01-18 21:56:58.02	98.25	15.83	-40.1	-42.6	12.9	3.35e-05	0	61	0	929038336	51	4910
2026-01-18 21:56:59.03	98.47	15.80	-40.1	-42.6	13.0	4.73e-05	0	61	0	932184064	51	4920
2026-01-18 21:57:00.04	98.68	15.78	-40.2	-42.8	12.7	7.55e-05	0	61	0	935329792	51	5022
2026-01-18 21:57:01.05	98.90	15.75	-40.3	-42.9	12.7	4.34e-05	0	61	0	938475520	51	5091
2026-01-18 21:57:02.06	99.11	15.73	-40.1	-42.7	12.9	6.10e-05	0	61	0	941621248	51	4946
2026-01-18 21:57:03.07	99.33	15.70	-40.1	-42.6	12.9	4.57e-05	0	61	0	944766976	51	4910
2026-01-18 21:57:04.08	99.54	15.68	-40.1	-42.7	12.9	5.26e-05	0	61	0	947912704	51	4954
2026-01-18 21:57:05.09	99.75	15.65	-40.1	-42.7	12.9	4.11e-05	0	61	0	951058432	51	4928
2026-01-18 21:57:06.10	99.97	15.62	-40.0	-42.5	13.0	4.42e-05	0	61	0	954204160	51	4857
2026-01-18 21:57:07.11	100.18	15.59	-39.9	-42.4	13.1	2.74e-05	0	61	0	957349888	51	4807
2026-01-18 21:57:08.12	100.39	15.57	-40.0	-42.5	13.0	3.58e-05	0	61	0	960495616	51	4856
2026-01-18 21:57:09.13	100.60	15.54	-40.0	-42.6	13.0	2.51e-05	0	61	0	963641344	51	4875
2026-01-18 21:57:10.14	100.81	15.51	-40.0	-42.5	13.1	3.28e-05	0	61	0	966787072	51	4835
2026-01-18 21:57:11.15	101.02	15.48	-39.9	-42.5	13.1	3.43e-05	0	61	0	969932800	51	4819
2026-01-18 21:57:12.16	101.24	15.45	-40.0	-42.6	13.0	3.73e-05	0	61	0	973078528	51	4888
2026-01-18 21:57:13.17	101.45	15.43	-40.1	-42.6	12.9	3.96e-05	0	61	0	976224256	51	4896
2026-01-18 21:57:14.18	101.65	15.40	-40.1	-42.6	12.9	5.34e-05	0	61	0	979369984	51	4921
2026-01-18 21:57:15.19	101.86	15.37	-40.0	-42.6	12.9	5.64e-05	0	61	0	982515712	51	4900
2026-01-18 21:57:16.20	102.07	15.34	-40.1	-42.6	12.9	6.63e-05	0	61	0	985661440	51	4922
2026-01-18 21:57:17.21	102.28	15.31	-40.1	-42.7	12.8	8.46e-05	0	61	0	988807168	51	4964
2026-01-18 21:57:18.22	102.49	15.27	-40.0	-42.5	13.0	4.34e-05	0	61	0	991952896	50	5159
2026-01-18 21:57:19.23	102.70	15.24	-40.0	-42.5	13.0	4.19e-05	0	61	0	995098624	50	5119
2026-01-18 21:57:20.24	102.90	15.21	-40.0	-42.5	13.0	4.34e-05	0	61	0	998244352	50	5114
2026-01-18 21:57:21.24	103.11	15.18	-40.0	-42.6	13.0	5.03e-05	0	61	0	1001390080	50	5168
2026-01-18 21:57:22.25	103.32	15.15	-40.0	-42.6	12.9	6.17e-05	0	61	0	1004535808	50	5180
2026-01-18 21:57:23.26	103.52	15.12	-40.1	-42.6	12.9	5.72e-05	0	61	0	1007681536	50	5188
2026-01-18 21:57:24.27	103.73	15.08	-40.2	-42.8	12.7	9.07e-05	0	61	0	1010827264	50	5336
2026-01-18 21:57:25.28	103.93	15.05	-40.0	-42.5	13.0	5.87e-05	0	61	0	1013972992	50	5148
2026-01-18 21:57:26.29	104.14	15.02	-40.0	-42.5	13.0	6.56e-05	0	61	0	1017118720	50	5134
2026-01-18 21:57:27.30	104.34	14.98	-40.0	-42.5	13.0	6.48e-05	0	61	0	1020264448	50	5152
2026-01-18 21:57:28.31	104.54	14.95	-39.7	-42.7	12.7	6.58e-03	0	61	0	1023410176	50	5234
2026-01-18 21:57:29.32	104.75	14.92	-40.1	-42.8	12.7	5.07e-03	0	61	0	1026555904	50	5304
2026-01-18 21:57:30.33	104.95	14.88	-40.1	-42.8	12.7	1.65e-04	0	61	0	1029701632	50	5319
2026-01-18 21:57:31.34	105.15	14.85	-40.1	-42.7	12.9	6.25e-05	0	61	0	1032847360	50	5231
2026-01-18 21:57:32.35	105.36	14.81	-40.0	-42.6	12.9	5.87e-05	0	61	0	1035993088	50	5189
2026-01-18 21:57:33.36	105.56	14.78	-40.0	-42.6	13.0	4.04e-05	0	61	0	1039138816	50	5163
2026-01-18 21:57:34.37	105.76	14.74	-40.1	-42.7	12.9	4.50e-05	0	61	0	1042284544	50	5238
2026-01-18 21:57:35.38	105.96	14.71	-40.0	-42.5	13.0	5.11e-05	0	61	0	1045430272	50	5153
2026-01-18 21:57:36.39	106.16	14.67	-40.0	-42.6	12.9	2.27e-03	0	61	0	1048576000	50	5162
2026-01-18 21:57:37.40	106.36	14.63	-40.1	-42.7	12.9	1.17e-04	0	61	0	1051721728	50	5228
2026-01-18 21:57:38.41	106.56	14.60	-40.0	-42.8	12.7	1.49e-04	0	61	0	1054867456	50	5303
2026-01-18 21:57:39.41	106.75	14.56	-40.1	-42.9	12.6	8.62e-05	0	61	0	1058013184	51	5045
2026-01-18 21:57:40.42	106.95	14.52	-40.2	-42.9	12.6	9.07e-05	0	61	0	1061158912	51	5070
2026-01-18 21:57:41.43	107.15	14.49	-40.2	-43.0	12.4	9.13e-04	0	61	0	1064304640	51	5110
2026-01-18 21:57:42.44	107.35	14.45	-40.3	-43.0	12.5	3.48e-04	0	61	0	1067450368	51	5106
2026-01-18 21:57:43.45	107.54	14.41	-40.3	-43.1	12.3	2.74e-04	0	61	0	1070596096	51	5179
2026-01-18 21:57:44.46	107.74	14.37	-40.3	-43.0	12.5	2.72e-04	0	61	0	1073741824	51	5107
2026-01-18 21:57:45.47	107.94	14.34	-40.1	-42.8	12.7	1.20e-04	0	61	0	1076887552	51	5023
2026-01-18 21:57:46.48	108.13	14.30	-40.2	-42.9	12.5	1.18e-04	0	61	0	1080033280	51	5074
2026-01-18 21:57:47.49	108.33	14.26	-40.2	-42.8	12.7	1.39e-04	0	61	0	1083179008	51	5008
2026-01-18 21:57:48.50	108.52	14.22	-40.2	-42.8	12.7	6.17e-05	0	61	0	1086324736	51	5036
2026-01-18 21:57:49.51	108.71	14.18	-40.2	-42.9	12.6	2.53e-04	0	61	0	1089470464	51	5065
2026-01-18 21:57:50.52	108.91	14.14	-40.3	-43.0	12.6	9.00e-05	0	61	0	1092616192	51	5109
2026-01-18 21:57:51.53	109.10	14.10	-40.3	-43.0	12.5	1.36e-04	0	61	0	1095761920	51	5157
2026-01-18 21:57:52.54	109.29	14.06	-40.4	-43.2	12.3	1.50e-04	0	61	0	1098907648	51	5261
2026-01-18 21:57:53.55	109.49	14.02	-40.4	-43.1	12.4	1.50e-04	0	61	0	1102053376	51	5210
2026-01-18 21:57:54.56	109.68	13.98	-40.4	-43.1	12.4	1.40e-04	0	61	0	1105199104	51	5179
2026-01-18 21:57:55.57	109.87	13.94	-40.4	-43.2	12.3	1.72e-04	0	61	0	1108344832	51	5240
2026-01-18 21:57:56.58	110.06	13.90	-40.5	-43.3	12.2	2.18e-04	0	61	0	1111490560	51	5304
2026-01-18 21:57:57.59	110.25	13.86	-40.5	-43.4	12.1	3.07e-04	0	61	0	1114636288	51	5370
2026-01-18 21:57:58.60	110.44	13.81	-40.5	-43.4	12.1	2.83e-04	0	61	0	1117782016	51	5371
2026-01-18 21:57:59.61	110.63	13.77	-40.4	-43.2	12.3	2.20e-04	0	61	0	1120927744	51	5261
2026-01-18 21:58:00.62	110.81	13.73	-40.4	-43.2	12.2	2.03e-04	0	61	0	1124073472	51	5222
2026-01-18 21:58:01.63	111.00	13.69	-40.3	-43.1	12.4	1.83e-04	0	61	0	1127219200	51	5183
2026-01-18 21:58:02.64	111.19	13.65	-40.4	-43.1	12.4	1.84e-04	0	61	0	1130364928	51	5190
2026-01-18 21:58:03.65	111.38	13.60	-40.3	-42.9	12.5	1.44e-04	0	61	0	1133510656	51	5093
2026-01-18 21:58:04.65	111.56	13.56	-40.4	-43.2	12.3	1.28e-04	0	61	0	1136656384	51	5235
2026-01-18 21:58:05.66	111.75	13.52	-40.3	-43.1	12.4	1.69e-04	0	61	0	1139802112	51	5176
2026-01-18 21:58:06.67	111.93	13.48	-40.4	-43.2	12.3	1.61e-04	0	61	0	1142947840	51	5237
2026-01-18 21:58:07.68	112.12	13.43	-40.5	-43.4	12.0	2.69e-04	0	61	0	1146093568	51	5392
2026-01-18 21:58:08.70	112.30	13.39	-40.4	-43.3	12.2	2.80e-04	0	61	0	1149239296	51	5288
2026-01-18 21:58:09.71	112.49	13.35	-40.5	-43.4	12.1	2.81e-04	0	61	0	1152385024	51	5365
2026-01-18 21:58:10.72	112.67	13.30	-40.5	-43.4	12.1	3.17e-04	0	61	0	1156579328	51	5350
2026-01-18 21:58:11.73	112.85	13.26	-40.6	-43.5	12.0	4.23e-04	0	61	0	1159725056	51	5404
2026-01-18 21:58:12.74	113.03	13.21	-40.7	-43.7	11.8	4.21e-04	0	61	0	1161822208	51	5538
2026-01-18 21:58:13.75	113.21	13.17	-40.6	-43.5	11.9	3.78e-04	0	61	0	1164967936	51	5429
2026-01-18 21:58:14.76	113.40	13.12	-40.6	-43.5	11.9	3.87e-04	0	62	0	1169162240	51	5431
2026-01-18 21:58:15.77	113.58	13.08	-40.5	-43.4	12.0	3.45e-04	0	61	0	1172307968	51	5391
2026-01-18 21:58:16.78	113.76	13.03	-40.6	-43.5	11.9	3.44e-04	0	61	0	1175453696	51	5458
2026-01-18 21:58:17.79	113.94	12.99	-40.7	-43.7	11.7	4.97e-04	0	61	0	1178599424	51	5538
2026-01-18 21:58:18.79	114.11	12.94	-40.6	-43.5	11.9	3.94e-04	0	62	0	1181745152	51	5418
2026-01-18 21:58:19.80	114.29	12.90	-40.6	-43.5	11.9	4.60e-04	0	61	0	1184890880	51	5416
2026-01-18 21:58:20.81	114.47	12.85	-40.6	-43.6	11.7	5.77e-04	0	61	0	1188036608	51	5489
2026-01-18 21:58:21.82	114.65	12.81	-40.5	-43.4	11.9	4.82e-04	0	61	0	1191182336	51	5380
2026-01-18 21:58:22.83	114.82	12.76	-40.4	-43.4	12.0	4.33e-04	0	61	0	1194328064	51	5343
2026-01-18 21:58:23.84	115.00	12.72	-40.3	-43.4	11.8	5.88e-04	0	61	0	1197473792	51	5348
2026-01-18 21:58:24.85	115.17	12.67	-40.4	-43.6	11.6	8.99e-04	0	61	0	1200619520	51	5528
2026-01-18 21:58:25.86	115.35	12.62	-39.8	-43.5	11.1	1.25e-02	0	61	0	1203765248	51	5430
2026-01-18 21:58:26.87	115.52	12.58	-40.7	-43.8	11.4	3.25e-02	0	61	0	1206910976	52	5309
2026-01-18 21:58:27.88	115.70	12.53	-40.3	-43.3	11.7	9.06e-04	0	61	0	1210056704	52	5039
2026-01-18 21:58:28.89	115.87	12.48	-40.5	-43.7	11.4	6.86e-03	0	61	0	1213202432	51	5563
2026-01-18 21:58:29.90	116.04	12.44	-40.4	-43.7	11.3	3.67e-03	0	61	0	1216348160	51	5554
2026-01-18 21:58:30.91	116.22	12.39	-40.0	-43.5	11.4	4.52e-03	0	61	0	1219493888	51	5460
2026-01-18 21:58:31.92	116.39	12.34	-40.1	-43.1	12.0	7.77e-03	0	61	0	1222639616	51	5186
2026-01-18 21:58:32.93	116.56	12.29	-38.5	-42.8	10.2	2.11e-02	0	61	0	1225785344	48	5970
2026-01-18 21:58:33.94	116.73	12.25	-40.5	-43.9	10.8	1.60e-02	0	61	0	1228931072	51	5680
2026-01-18 21:58:34.95	116.90	12.20	-38.2	-44.2	8.2	1.13e-01	0	61	0	1232076800	47	7415
2026-01-18 21:58:35.96	117.07	12.15	-40.1	-44.1	10.5	1.78e-02	0	62	0	1235222528	51	5819
2026-01-18 21:58:36.97	117.24	12.10	-40.2	-43.7	11.0	1.33e-02	0	61	0	1238368256	51	5540
2026-01-18 21:58:37.98	117.41	12.06	-39.6	-43.8	9.6	4.12e-01	27	62	0	1241513984	40	10620
2026-01-18 21:58:38.99	117.58	12.01	-39.5	-43.6	10.5	1.87e-02	0	61	0	1244659712	50	5848
2026-01-18 21:58:40.00	117.75	11.96	-39.5	-43.2	10.5	3.74e-02	0	61	0	1247805440	49	5897
2026-01-18 21:58:41.01	117.91	11.91	-39.8	-43.4	11.0	4.52e-02	0	61	0	1250951168	50	5700
2026-01-18 21:58:42.02	118.08	11.86	-38.3	-43.4	9.8	2.64e-02	0	61	0	1254096896	48	6366
2026-01-18 21:58:43.03	118.24	11.81	-39.2	-43.4	10.6	2.31e-02	0	61	0	1257242624	50	5690
2026-01-18 21:58:44.04	118.41	11.76	-39.9	-43.7	10.8	5.14e-02	0	61	0	1260388352	50	5877
2026-01-18 21:58:45.05	118.58	11.72	-40.0	-43.4	11.1	1.24e-02	0	61	0	1263534080	50	5717
2026-01-18 21:58:46.06	118.74	11.67	-39.9	-43.4	10.8	3.62e-01	0	61	0	1266679808	43	8479
2026-01-18 21:58:47.07	118.90	11.62	-39.1	-43.6	10.1	7.80e-02	0	61	0	1269825536	49	6148
2026-01-18 21:58:48.07	119.07	11.57	-40.1	-43.6	11.0	4.09e-02	0	61	0	1272971264	51	5506
2026-01-18 21:58:49.09	119.23	11.52	-39.9	-43.5	10.9	1.17e-01	0	62	0	1276116992	50	5769
2026-01-18 21:58:50.10	119.39	11.47	-39.2	-43.6	10.7	1.27e-02	0	61	0	1279262720	50	5832
2026-01-18 21:58:51.11	119.55	11.42	-38.8	-43.4	9.8	1.85e-02	0	61	0	1282408448	48	6385
2026-01-18 21:58:52.12	119.72	11.37	-39.9	-43.1	11.2	3.07e-01	0	61	0	1285554176	50	5512
2026-01-18 21:58:53.13	119.88	11.32	-40.0	-43.3	11.3	7.46e-03	0	62	0	1288699904	50	5640
2026-01-18 21:58:54.13	120.03	11.27	-40.3	-43.9	10.1	4.86e-02	0	61	0	1291845632	50	6015
2026-01-18 21:58:55.14	120.19	11.22	-40.4	-44.3	10.2	5.12e-02	0	61	0	1294991360	51	5987
2026-01-18 21:58:56.15	120.35	11.17	-40.2	-44.2	8.4	1.88e-01	2	61	0	1297088512	44	8784
2026-01-18 21:58:57.16	120.51	11.12	-40.8	-44.5	10.0	1.77e-01	0	61	0	1300234240	52	5761
2026-01-18 21:58:58.17	120.67	11.07	-40.4	-44.4	10.1	4.16e-02	0	62	0	1303379968	51	6041
2026-01-18 21:58:59.18	120.83	11.02	-40.0	-43.8	9.9	4.85e-02	0	61	0	1306525696	50	5975
2026-01-18 21:59:00.19	120.99	10.97	-39.2	-43.6	10.5	2.71e-01	0	61	0	1309671424	50	5803
2026-01-18 21:59:01.20	121.14	10.92	-39.7	-43.8	9.9	4.23e-02	0	61	0	1312817152	49	6324
2026-01-18 21:59:02.21	121.30	10.87	-40.0	-43.8	9.3	4.56e-02	0	62	0	1315962880	49	6337
2026-01-18 21:59:03.22	121.45	10.82	-39.9	-43.7	10.4	1.41e-01	0	61	0	1319108608	50	5900
2026-01-18 21:59:04.23	121.61	10.77	-39.7	-43.2	10.1	2.35e-01	2	61	0	1322254336	42	8822
2026-01-18 21:59:05.24	121.76	10.71	-37.5	-43.3	7.8	3.59e-01	8	61	0	1324351488	47	6647
2026-01-18 21:59:06.25	121.92	10.66	-33.5	-41.9	4.6	1.45e+00	0	61	104	1325400064	31	14254
2026-01-18 21:59:07.26	122.07	10.61	-39.0	-43.8	9.3	1.40e+00	2	61	104	1325400064	49	6338
2026-01-18 21:59:08.27	122.22	10.56	-39.7	-43.8	9.8	6.61e-02	0	61	0	1327497216	49	6342
2026-01-18 21:59:09.28	122.38	10.51	-38.3	-44.4	8.4	9.90e-02	0	61	0	1329594368	48	7180
2026-01-18 21:59:10.29	122.53	10.46	-39.9	-45.2	7.4	1.93e-01	6	61	0	1332740096	49	7435
2026-01-18 21:59:11.30	122.68	10.41	-40.9	-46.1	7.7	5.27e-01	6	62	0	1335885824	52	6915
2026-01-18 21:59:12.31	122.83	10.36	-39.0	-46.8	4.2	8.53e-01	0	61	104	1336934400	48	9445
2026-01-18 21:59:13.32	122.98	10.31	-38.3	-45.4	6.3	4.30e-01	20	62	0	1337982976	43	10735
2026-01-18 21:59:14.33	123.13	10.25	-39.0	-45.6	6.8	3.12e-01	10	62	0	1340080128	47	8676
2026-01-18 21:59:15.34	123.28	10.20	-37.5	-45.3	6.8	3.84e-01	10	62	0	1341128704	47	8402
2026-01-18 21:59:16.35	123.43	10.15	-39.6	-46.0	4.5	1.48e+00	0	61	104	1341128704	25	32487
2026-01-18 21:59:17.36	123.58	10.10	-38.0	-47.1	4.4	1.49e+00	0	61	104	1341128704	44	12322
2026-01-18 21:59:18.37	123.72	10.05	-35.2	-45.0	4.2	1.47e+00	0	61	104	1341128704	43	10268
2026-01-18 21:59:19.38	123.87	9.99	-34.7	-49.9	3.7	1.50e+00	0	61	104	1341128704	41	20080
2026-01-18 21:59:20.39	124.02	9.94	-36.4	-46.1	4.3	1.49e+00	0	62	104	1341128704	38	15451
2026-01-18 21:59:21.40	124.16	9.89	-36.0	-44.2	7.8	4.31e-01	13	62	0	1341128704	47	7434
2026-01-18 21:59:22.41	124.31	9.84	-30.8	-44.2	4.1	1.52e+00	0	61	104	1341128704	28	22133
2026-01-18 21:59:23.42	124.46	9.79	-33.0	-45.1	4.0	1.51e+00	0	62	104	1341128704	25	29092
2026-01-18 21:59:24.43	124.60	9.73	-24.1	-39.8	3.7	1.52e+00	0	61	104	1341128704	20	21158
2026-01-18 21:59:25.44	124.74	9.68	-21.6	-34.6	3.8	1.50e+00	0	61	104	1341128704	14	16355
2026-01-18 21:59:26.44	124.89	9.63	-31.9	-41.9	4.1	1.51e+00	0	61	104	1341128704	20	26996
2026-01-18 21:59:27.45	125.03	9.58	-36.5	-43.8	4.8	1.46e+00	0	62	104	1341128704	40	10613
2026-01-18 21:59:28.46	125.17	9.53	-22.5	-39.7	4.8	1.47e+00	0	61	104	1341128704	29	12403
2026-01-18 21:59:29.47	125.32	9.47	-26.1	-41.7	4.1	1.51e+00	0	61	104	1341128704	27	17524
2026-01-18 21:59:30.48	125.46	9.42	-26.9	-38.5	4.3	1.48e+00	0	62	104	1341128704	22	16146
2026-01-18 21:59:31.49	125.60	9.37	-23.7	-35.7	3.9	1.49e+00	0	61	104	1341128704	16	16519
2026-01-18 21:59:32.50	125.74	9.32	-23.3	-37.8	4.2	1.50e+00	0	62	104	1341128704	17	19901
2026-01-18 21:59:33.51	125.88	9.26	-25.2	-38.1	3.9	1.51e+00	0	61	104	1341128704	19	18505
2026-01-18 21:59:34.52	126.02	9.21	-19.5	-31.9	3.7	1.51e+00	0	62	104	1341128704	8	16949
2026-01-18 21:59:35.53	126.16	9.16	-27.3	-38.5	3.6	1.49e+00	0	61	104	1341128704	10	32346
2026-01-18 21:59:36.54	126.30	9.11	-19.1	-31.3	3.9	1.51e+00	0	61	104	1341128704	4	19888
2026-01-18 21:59:37.55	126.44	9.05	-16.6	-33.6	3.8	1.51e+00	0	61	104	1341128704	11	17364
2026-01-18 21:59:38.56	126.57	9.00	-24.1	-36.7	3.3	1.50e+00	0	62	104	1341128704	10	26248
2026-01-18 21:59:39.57	126.71	8.95	-20.8	-33.5	3.6	1.51e+00	0	61	104	1341128704	15	13662
2026-01-18 21:59:40.58	126.85	8.90	-20.4	-32.1	3.6	1.50e+00	0	61	104	1341128704	7	18445
2026-01-18 21:59:41.59	126.98	8.84	-22.2	-34.1	3.5	1.50e+00	0	61	104	1341128704	12	17378
2026-01-18 21:59:42.60	127.12	8.79	-15.9	-27.7	4.0	1.50e+00	0	62	104	1341128704	9	9840
2026-01-18 21:59:43.61	127.26	8.74	-22.4	-36.9	3.7	1.50e+00	0	61	104	1341128704	14	21445
2026-01-18 21:59:44.61	127.39	8.68	-18.8	-32.2	3.7	1.50e+00	0	62	104	1341128704	8	17620
2026-01-18 21:59:45.62	127.52	8.63	-17.3	-26.8	3.8	1.50e+00	0	61	104	1341128704	2	13275
2026-01-18 21:59:46.63	127.66	8.58	-19.7	-31.3	3.8	1.49e+00	0	61	104	1341128704	9	14884
2026-01-18 21:59:47.64	127.79	8.53	-23.9	-35.1	3.3	1.50e+00	0	61	104	1341128704	7	26081
2026-01-18 21:59:48.65	127.93	8.47	-15.4	-28.8	3.6	1.49e+00	0	61	104	1341128704	6	13276
2026-01-18 21:59:49.66	128.06	8.42	-22.8	-35.9	2.9	1.50e+00	0	62	104	1341128704	10	23978
2026-01-18 21:59:50.67	128.19	8.37	-16.7	-29.9	3.5	1.49e+00	0	62	104	1341128704	5	16043
2026-01-18 21:59:51.68	128.32	8.31	-15.7	-29.2	3.5	1.50e+00	0	62	104	1341128704	1	18709
2026-01-18 21:59:52.69	128.45	8.26	-15.7	-32.3	3.6	1.50e+00	0	62	104	1341128704	4	22335
2026-01-18 21:59:53.70	128.58	8.21	-16.2	-26.3	3.8	1.50e+00	0	62	104	1341128704	0	14151
2026-01-18 21:59:54.71	128.71	8.16	-13.9	-28.1	3.8	1.51e+00	0	62	104	1341128704	1	16450
2026-01-18 21:59:55.72	128.84	8.10	-14.8	-28.6	3.6	1.50e+00	0	62	104	1341128704	0	18456
2026-01-18 21:59:56.73	128.97	8.05	-13.5	-25.9	3.8	1.50e+00	0	62	104	1341128704	1	12729
2026-01-18 21:59:57.74	129.10	8.00	-15.4	-31.9	3.6	1.52e+00	0	62	104	1341128704	1	25503
2026-01-18 21:59:58.75	129.23	7.94	-40.6	-54.5	4.1	1.52e+00	0	62	104	1341128704	46	25637
2026-01-18 21:59:59.76	129.36	7.89	-44.7	-57.3	3.8	1.49e+00	0	62	104	1341128704	60	15834
2026-01-18 22:00:00.77	129.49	7.84	-45.1	-57.6	3.8	1.49e+00	0	61	104	1341128704	60	16464
2026-01-18 22:00:01.78	129.61	7.78	-45.3	-57.9	3.8	1.49e+00	0	62	104	1341128704	61	15974
2026-01-18 22:00:02.79	129.74	7.73	-45.4	-58.0	3.8	1.49e+00	0	62	104	1341128704	61	16184
2026-01-18 22:00:03.80	129.87	7.68	-45.5	-58.1	3.8	1.49e+00	0	61	104	1341128704	61	16351
2026-01-18 22:00:04.81	129.99	7.62	-45.6	-58.2	3.8	1.49e+00	0	62	104	1341128704	61	16554
2026-01-18 22:00:05.82	130.12	7.57	-45.7	-58.3	3.8	1.49e+00	0	62	104	1341128704	61	16765
2026-01-18 22:00:06.83	130.24	7.52	-45.7	-58.3	3.8	1.49e+00	0	62	104	1341128704	61	16735
2026-01-18 22:00:07.84	130.37	7.46	-45.7	-58.3	3.8	1.49e+00	0	62	104	1341128704	62	15769
2026-01-18 22:00:08.85	130.49	7.41	-45.6	-58.1	3.8	1.49e+00	0	62	104	1341128704	62	15417
2026-01-18 22:00:09.86	130.62	7.36	-45.5	-58.0	3.8	1.49e+00	0	62	104	1341128704	62	15240
2026-01-18 22:00:10.87	130.74	7.30	-45.5	-57.9	3.8	1.49e+00	0	62	104	1341128704	62	15099
2026-01-18 22:00:11.88	130.86	7.25	-45.5	-57.8	3.8	1.49e+00	0	62	104	1341128704	62	15041
2026-01-18 22:00:12.89	130.99	7.20	-45.4	-57.8	3.8	1.49e+00	0	62	104	1341128704	62	14938
2026-01-18 22:00:13.90	131.11	7.15	-45.3	-57.6	3.8	1.49e+00	0	62	104	1341128704	62	14689
2026-01-18 22:00:14.92	131.23	7.09	-45.3	-57.7	3.8	1.49e+00	0	62	104	1341128704	62	14710
2026-01-18 22:00:15.93	131.35	7.04	-45.3	-57.6	3.8	1.49e+00	0	62	104	1341128704	62	14635
2026-01-18 22:00:16.94	131.47	6.98	-45.3	-57.6	3.8	1.49e+00	0	62	104	1341128704	62	14681
2026-01-18 22:00:17.95	131.59	6.93	-45.3	-57.6	3.8	1.49e+00	0	62	104	1341128704	62	14681
2026-01-18 22:00:18.96	131.71	6.88	-45.3	-57.7	3.8	1.49e+00	0	62	104	1341128704	62	14720
2026-01-18 22:00:19.97	131.83	6.83	-45.3	-57.6	3.8	1.49e+00	0	62	104	1341128704	62	14617
2026-01-18 22:00:20.98	131.95	6.77	-45.3	-57.7	3.8	1.49e+00	0	62	104	1341128704	62	14737
2026-01-18 22:00:21.99	132.07	6.72	-45.3	-57.6	3.8	1.49e+00	0	62	104	1341128704	62	14673
2026-01-18 22:00:23.00	132.19	6.67	-45.3	-57.7	3.8	1.49e+00	0	62	104	1341128704	62	14727
2026-01-18 22:00:24.01	132.30	6.61	-45.3	-57.6	3.8	1.49e+00	0	62	104	1341128704	62	14652
2026-01-18 22:00:25.02	132.42	6.56	-45.3	-57.6	3.8	1.49e+00	0	62	104	1341128704	62	14645
2026-01-18 22:00:26.04	132.54	6.51	-45.3	-57.6	3.8	1.49e+00	0	62	104	1341128704	62	14595
2026-01-18 22:00:27.05	132.66	6.45	-45.3	-57.6	3.8	1.49e+00	0	62	104	1341128704	62	14612
2026-01-18 22:00:28.06	132.77	6.40	-45.3	-57.6	3.8	1.49e+00	0	62	104	1341128704	62	14656
2026-01-18 22:00:29.07	132.89	6.35	-45.3	-57.6	3.8	1.49e+00	0	62	104	1341128704	62	14681
2026-01-18 22:00:30.08	133.00	6.29	-45.3	-57.6	3.8	1.49e+00	0	62	104	1341128704	62	14579
2026-01-18 22:00:31.09	133.12	6.24	-45.3	-57.6	3.8	1.49e+00	0	62	104	1341128704	62	14643
2026-01-18 22:00:32.10	133.23	6.19	-45.3	-57.6	3.8	1.49e+00	0	62	104	1341128704	62	14631
2026-01-18 22:00:33.11	133.35	6.13	-45.3	-57.6	3.8	1.49e+00	0	62	104	1341128704	62	14585
2026-01-18 22:00:34.12	133.46	6.08	-45.3	-57.6	3.8	1.49e+00	0	62	104	1341128704	62	14664
2026-01-18 22:00:35.13	133.57	6.03	-45.3	-57.6	3.8	1.49e+00	0	62	104	1341128704	62	14622
2026-01-18 22:00:36.14	133.69	5.98	-45.3	-57.6	3.8	1.49e+00	0	62	104	1341128704	62	14621
2026-01-18 22:00:37.15	133.80	5.92	-45.3	-57.6	3.8	1.49e+00	0	62	104	1341128704	62	14586
2026-01-18 22:00:38.16	133.91	5.87	-45.3	-57.6	3.8	1.49e+00	0	62	104	1341128704	62	14650
2026-01-18 22:00:39.17	134.02	5.82	-45.3	-57.6	3.8	1.49e+00	0	62	104	1341128704	62	14543
2026-01-18 22:00:40.18	134.13	5.76	-45.3	-57.6	3.8	1.49e+00	0	62	104	1341128704	62	14620
2026-01-18 22:00:41.19	134.25	5.71	-45.3	-57.6	3.8	1.49e+00	0	62	104	1341128704	62	14625
2026-01-18 22:00:42.21	134.36	5.66	-45.3	-57.6	3.8	1.49e+00	0	62	104	1341128704	62	14582
2026-01-18 22:00:43.21	134.47	5.60	-45.3	-57.6	3.8	1.49e+00	0	62	104	1341128704	62	14610
2026-01-18 22:00:44.23	134.58	5.55	-45.2	-57.6	3.8	1.49e+00	0	62	104	1341128704	62	14577
2026-01-18 22:00:45.24	134.69	5.50	-45.3	-57.6	3.8	1.49e+00	0	62	104	1341128704	62	14623
2026-01-18 22:00:46.25	134.80	5.45	-45.3	-57.6	3.8	1.49e+00	0	62	104	1341128704	62	14597
2026-01-18 22:00:47.26	134.90	5.39	-45.3	-57.6	3.8	1.49e+00	0	62	104	1341128704	62	14561
2026-01-18 22:00:48.27	135.01	5.34	-45.3	-57.6	3.8	1.49e+00	0	62	104	1341128704	62	14626
2026-01-18 22:00:49.28	135.12	5.29	-45.3	-57.6	3.8	1.49e+00	0	62	104	1341128704	62	14554
2026-01-18 22:00:50.29	135.23	5.23	-45.3	-57.6	3.8	1.49e+00	0	62	104	1341128704	62	14564
2026-01-18 22:00:51.30	135.33	5.18	-45.3	-57.6	3.8	1.49e+00	0	62	104	1341128704	62	14600
2026-01-18 22:00:52.31	135.44	5.13	-45.2	-57.6	3.8	1.49e+00	0	62	104	1341128704	62	14575
2026-01-18 22:00:53.32	135.55	5.08	-45.3	-57.6	3.8	1.49e+00	0	62	104	1341128704	62	14615
2026-01-18 22:00:54.33	135.65	5.02	-45.3	-57.6	3.8	1.49e+00	0	62	104	1341128704	62	14545
2026-01-18 22:00:55.34	135.76	4.97	-45.3	-57.6	3.8	1.49e+00	0	62	104	1341128704	62	14596
2026-01-18 22:00:56.35	135.86	4.92	-45.2	-57.5	3.8	1.49e+00	0	62	104	1341128704	62	14539
2026-01-18 22:00:57.36	135.97	4.87	-45.3	-57.5	3.8	1.49e+00	0	62	104	1341128704	62	14517
2026-01-18 22:00:58.37	136.07	4.81	-45.2	-57.6	3.8	1.49e+00	0	62	104	1341128704	62	14609
2026-01-18 22:00:59.39	136.18	4.76	-45.2	-57.6	3.8	1.49e+00	0	62	104	1341128704	62	14545
2026-01-18 22:01:00.39	136.28	4.71	-45.2	-57.5	3.8	1.49e+00	0	62	104	1341128704	62	14516
2026-01-18 22:01:01.41	136.39	4.66	-45.3	-57.6	3.8	1.49e+00	0	62	104	1341128704	62	14576
2026-01-18 22:01:02.42	136.49	4.60	-45.2	-57.6	3.8	1.49e+00	0	62	104	1341128704	62	14579
2026-01-18 22:01:03.43	136.59	4.55	-45.2	-57.6	3.8	1.49e+00	0	62	104	1341128704	62	14573
2026-01-18 22:01:04.44	136.69	4.50	-45.2	-57.6	3.8	1.49e+00	0	62	104	1341128704	62	14542
2026-01-18 22:01:05.45	136.80	4.45	-45.2	-57.5	3.8	1.49e+00	0	62	104	1341128704	62	14533
2026-01-18 22:01:06.46	136.90	4.39	-45.2	-57.6	3.8	1.49e+00	0	62	104	1341128704	62	14542
2026-01-18 22:01:07.47	137.00	4.34	-45.2	-57.5	3.8	1.49e+00	0	62	104	1341128704	62	14525
2026-01-18 22:01:08.48	137.10	4.29	-45.2	-57.5	3.8	1.49e+00	0	62	104	1341128704	62	14539
2026-01-18 22:01:09.49	137.20	4.24	-45.2	-57.6	3.8	1.49e+00	0	62	104	1341128704	62	14542
2026-01-18 22:01:10.50	137.30	4.18	-45.2	-57.5	3.8	1.49e+00	0	62	104	1341128704	62	14507
2026-01-18 22:01:11.51	137.40	4.13	-45.2	-57.5	3.8	1.49e+00	0	61	104	1341128704	62	14442
2026-01-18 22:01:12.52	137.50	4.08	-45.2	-57.5	3.8	1.49e+00	0	62	104	1341128704	62	14502
2026-01-18 22:01:13.53	137.60	4.03	-45.2	-57.6	3.8	1.49e+00	0	62	104	1341128704	62	14574
2026-01-18 22:01:14.54	137.70	3.98	-45.2	-57.5	3.8	1.49e+00	0	62	104	1341128704	62	14536
2026-01-18 22:01:15.55	137.80	3.92	-45.2	-57.5	3.8	1.49e+00	0	62	104	1341128704	62	14515
2026-01-18 22:01:16.56	137.90	3.87	-45.2	-57.6	3.8	1.49e+00	0	62	104	1341128704	62	14544
2026-01-18 22:01:17.57	137.99	3.82	-45.2	-57.5	3.8	1.49e+00	0	62	104	1341128704	62	14512
2026-01-18 22:01:18.58	138.09	3.77	-45.2	-57.5	3.8	1.49e+00	0	62	104	1341128704	62	14488
2026-01-18 22:01:19.59	138.19	3.72	-45.2	-57.5	3.8	1.49e+00	0	62	104	1341128704	62	14506
2026-01-18 22:01:20.60	138.29	3.66	-45.2	-57.5	3.8	1.49e+00	0	62	104	1341128704	62	14516
2026-01-18 22:01:21.61	138.38	3.61	-45.2	-57.5	3.8	1.49e+00	0	62	104	1341128704	62	14530
2026-01-18 22:01:22.62	138.48	3.56	-45.2	-57.5	3.8	1.49e+00	0	62	104	1341128704	62	14491
2026-01-18 22:01:23.63	138.57	3.51	-45.2	-57.6	3.8	1.49e+00	0	62	104	1341128704	62	14561
2026-01-18 22:01:24.65	138.67	3.46	-45.2	-57.5	3.8	1.49e+00	0	62	104	1341128704	62	14491
2026-01-18 22:01:25.66	138.77	3.40	-45.2	-57.5	3.8	1.49e+00	0	62	104	1341128704	62	14466
2026-01-18 22:01:26.67	138.86	3.35	-45.2	-57.5	3.8	1.49e+00	0	62	104	1341128704	62	14505
2026-01-18 22:01:27.68	138.96	3.30	-45.2	-57.5	3.8	1.49e+00	0	62	104	1341128704	62	14461
2026-01-18 22:01:28.69	139.05	3.25	-45.2	-57.5	3.8	1.49e+00	0	62	104	1341128704	62	14508
2026-01-18 22:01:29.70	139.14	3.20	-45.2	-57.5	3.8	1.49e+00	0	62	104	1341128704	62	14523
2026-01-18 22:01:30.71	139.24	3.15	-45.2	-57.5	3.8	1.49e+00	0	62	104	1341128704	62	14435
2026-01-18 22:01:31.72	139.33	3.09	-45.2	-57.5	3.8	1.49e+00	0	62	104	1341128704	62	14506
2026-01-18 22:01:32.73	139.42	3.04	-45.2	-57.5	3.8	1.49e+00	0	62	104	1341128704	62	14514
2026-01-18 22:01:33.74	139.52	2.99	-45.2	-57.5	3.8	1.49e+00	0	62	104	1341128704	62	14506
2026-01-18 22:01:34.75	139.61	2.94	-45.2	-57.5	3.8	1.49e+00	0	62	104	1341128704	62	14493
2026-01-18 22:01:35.76	139.70	2.89	-45.2	-57.5	3.8	1.49e+00	0	62	104	1341128704	62	14484
2026-01-18 22:01:36.77	139.79	2.84	-45.2	-57.5	3.8	1.49e+00	0	62	104	1341128704	62	14420
2026-01-18 22:01:37.78	139.89	2.79	-45.2	-57.5	3.8	1.49e+00	0	62	104	1341128704	62	14411
2026-01-18 22:01:38.79	139.98	2.73	-45.2	-57.5	3.8	1.49e+00	0	62	104	1341128704	62	14494
