passes_logs/2026/01/18/R2.0S_Moscow/R2.0S_Moscow__20260118_223954_NOAA_20_JPSS-1_rec.log

#Pass ID: 20260118_223954_NOAA 20 (JPSS-1)
#Satellite: NOAA 20 (JPSS-1)
#Configuration: NOAA 20
#almurnet v.1.7.20251203
#Start time: 2026-01-18 22:39:54

#Version: 2.2.20231116
#Station: R2.0S_Moscow
#Location: 37.707566 lon 55.798166 lat
#TLE: 1 43013U 17073A   26017.93796159  .00000077  00000+0  57252-4 0  9992
#TLE: 2 43013  98.7639 318.8464 0001390  34.9771 325.1496 14.19536703423157

#Time	Az	El	Level	Level2	SNR	BER	BlckErr	Temp	State	Recorded	gain1	gain2
2026-01-18 22:39:54.49	21.59	2.02	-42.4	-57.4	3.8	1.49e+00	0	53	0	0	56	20230
2026-01-18 22:39:55.49	21.64	2.08	-42.3	-57.2	3.8	1.49e+00	0	53	104	0	55	21012
2026-01-18 22:39:56.50	21.69	2.14	-42.3	-57.2	3.8	1.49e+00	0	53	104	0	55	21014
2026-01-18 22:39:57.51	21.74	2.20	-42.2	-57.2	3.8	1.49e+00	0	53	104	0	55	20942
2026-01-18 22:39:58.52	21.79	2.26	-42.2	-57.2	3.8	1.49e+00	0	53	104	0	55	20975
2026-01-18 22:39:59.53	21.84	2.32	-42.2	-57.2	3.8	1.49e+00	0	53	104	0	55	21006
2026-01-18 22:40:00.54	21.89	2.38	-42.2	-57.2	3.8	1.49e+00	0	53	104	0	55	20919
2026-01-18 22:40:01.55	21.94	2.45	-42.2	-57.2	3.8	1.49e+00	0	53	104	0	55	21014
2026-01-18 22:40:02.56	21.99	2.51	-42.3	-57.2	3.8	1.49e+00	0	53	104	0	55	20984
2026-01-18 22:40:03.58	22.05	2.57	-42.2	-57.2	3.8	1.49e+00	0	54	104	0	55	20945
2026-01-18 22:40:04.59	22.10	2.63	-42.2	-57.2	3.8	1.49e+00	0	54	104	0	55	20979
2026-01-18 22:40:05.60	22.15	2.69	-42.3	-57.2	3.8	1.49e+00	0	53	104	0	55	20960
2026-01-18 22:40:06.61	22.20	2.75	-42.2	-57.2	3.8	1.49e+00	0	54	104	0	55	20975
2026-01-18 22:40:07.62	22.25	2.81	-42.2	-57.2	3.8	1.49e+00	0	54	104	0	55	20893
2026-01-18 22:40:08.63	22.30	2.88	-42.2	-57.2	3.8	1.49e+00	0	54	104	0	55	20907
2026-01-18 22:40:09.64	22.36	2.94	-42.2	-57.2	3.8	1.49e+00	0	54	104	0	55	20930
2026-01-18 22:40:10.65	22.41	3.00	-42.3	-57.2	3.8	1.49e+00	0	54	104	0	55	20950
2026-01-18 22:40:11.66	22.46	3.06	-42.2	-57.2	3.8	1.49e+00	0	54	104	0	55	20910
2026-01-18 22:40:12.67	22.51	3.12	-42.2	-57.2	3.8	1.49e+00	0	54	104	0	55	20904
2026-01-18 22:40:13.68	22.57	3.19	-42.2	-57.2	3.8	1.49e+00	0	54	104	0	55	20946
2026-01-18 22:40:14.69	22.62	3.25	-42.3	-57.2	3.8	1.49e+00	0	54	104	0	55	20911
2026-01-18 22:40:15.70	22.67	3.31	-42.2	-57.2	3.8	1.49e+00	0	54	104	0	55	20998
2026-01-18 22:40:16.71	22.73	3.37	-42.2	-57.2	3.8	1.49e+00	0	54	104	0	55	20943
2026-01-18 22:40:17.72	22.78	3.44	-42.2	-57.2	3.8	1.49e+00	0	54	104	0	55	20926
2026-01-18 22:40:18.73	22.84	3.50	-42.2	-57.2	3.8	1.49e+00	0	54	104	0	55	20961
2026-01-18 22:40:19.74	22.89	3.56	-42.3	-57.2	3.8	1.49e+00	0	54	104	0	55	20894
2026-01-18 22:40:20.76	22.95	3.63	-42.2	-57.2	3.8	1.49e+00	0	55	104	0	55	20914
2026-01-18 22:40:21.77	23.00	3.69	-42.2	-57.2	3.8	1.49e+00	0	55	104	0	55	20882
2026-01-18 22:40:22.78	23.06	3.75	-42.2	-57.2	3.8	1.49e+00	0	55	104	0	55	20889
2026-01-18 22:40:23.79	23.11	3.82	-42.2	-57.2	3.8	1.49e+00	0	55	104	0	55	20896
2026-01-18 22:40:24.80	23.17	3.88	-42.2	-57.2	3.8	1.49e+00	0	55	104	0	55	20880
2026-01-18 22:40:25.81	23.22	3.94	-42.2	-57.2	3.8	1.49e+00	0	55	104	0	55	20894
2026-01-18 22:40:26.82	23.28	4.01	-42.2	-57.2	3.8	1.49e+00	0	55	104	0	55	20973
2026-01-18 22:40:27.83	23.33	4.07	-42.2	-57.2	3.8	1.49e+00	0	55	104	0	55	20892
2026-01-18 22:40:28.84	23.39	4.14	-42.2	-57.2	3.8	1.49e+00	0	55	104	0	55	20932
2026-01-18 22:40:29.85	23.45	4.20	-42.2	-57.2	3.8	1.49e+00	0	55	104	0	55	20863
2026-01-18 22:40:30.86	23.50	4.26	-42.2	-57.2	3.8	1.49e+00	0	55	104	0	55	20881
2026-01-18 22:40:31.87	23.56	4.33	-42.2	-57.2	3.8	1.49e+00	0	55	104	0	55	20899
2026-01-18 22:40:32.88	23.62	4.39	-42.2	-57.2	3.8	1.49e+00	0	55	104	0	55	20902
2026-01-18 22:40:33.89	23.68	4.46	-42.2	-57.2	3.8	1.49e+00	0	55	104	0	55	20806
2026-01-18 22:40:34.90	23.73	4.52	-42.2	-57.2	3.8	1.49e+00	0	56	104	0	55	20862
2026-01-18 22:40:35.91	23.79	4.59	-42.2	-57.2	3.8	1.49e+00	0	55	104	0	55	20881
2026-01-18 22:40:36.92	23.85	4.65	-42.2	-57.2	3.8	1.49e+00	0	56	104	0	55	20922
2026-01-18 22:40:37.93	23.91	4.72	-42.2	-57.2	3.8	1.49e+00	0	55	104	0	55	20956
2026-01-18 22:40:38.94	23.97	4.78	-42.3	-57.2	3.8	1.49e+00	0	56	104	0	55	20950
2026-01-18 22:40:39.95	24.02	4.85	-42.3	-57.2	3.8	1.49e+00	0	56	104	0	55	20913
2026-01-18 22:40:40.97	24.08	4.92	-42.2	-57.2	3.8	1.49e+00	0	56	104	0	55	20927
2026-01-18 22:40:41.98	24.14	4.98	-42.2	-57.2	3.8	1.49e+00	0	56	104	0	55	20912
2026-01-18 22:40:42.99	24.20	5.05	-42.2	-57.2	3.8	1.49e+00	0	56	104	0	55	20854
2026-01-18 22:40:44.00	24.26	5.11	-42.2	-57.2	3.8	1.49e+00	0	56	104	0	55	20915
2026-01-18 22:40:45.01	24.32	5.18	-42.2	-57.2	3.8	1.49e+00	0	56	104	0	55	20891
2026-01-18 22:40:46.02	24.38	5.25	-42.2	-57.2	3.8	1.49e+00	0	56	104	0	55	20860
2026-01-18 22:40:47.03	24.44	5.31	-42.3	-57.2	3.8	1.49e+00	0	56	104	0	55	20881
2026-01-18 22:40:48.04	24.51	5.38	-42.2	-57.2	3.8	1.49e+00	0	56	104	0	55	20884
2026-01-18 22:40:49.05	24.57	5.45	-42.2	-57.2	3.8	1.49e+00	0	56	104	0	55	20903
2026-01-18 22:40:50.06	24.63	5.52	-42.2	-57.2	3.8	1.49e+00	0	56	104	0	55	20927
2026-01-18 22:40:51.07	24.69	5.58	-42.2	-57.2	3.8	1.49e+00	0	56	104	0	55	20820
2026-01-18 22:40:52.08	24.75	5.65	-42.2	-57.2	3.8	1.49e+00	0	56	104	0	55	20894
2026-01-18 22:40:53.09	24.81	5.72	-42.2	-57.2	3.8	1.49e+00	0	57	104	0	55	20888
2026-01-18 22:40:54.09	24.88	5.78	-42.2	-57.2	3.8	1.49e+00	0	56	104	0	55	20864
2026-01-18 22:40:55.11	24.94	5.85	-42.2	-57.2	3.8	1.49e+00	0	56	104	0	55	20864
2026-01-18 22:40:56.12	25.00	5.92	-42.2	-57.2	3.8	1.49e+00	0	56	104	0	55	20871
2026-01-18 22:40:57.13	25.07	5.99	-42.2	-57.2	3.8	1.49e+00	0	56	104	0	55	20903
2026-01-18 22:40:58.14	25.13	6.06	-42.2	-57.2	3.8	1.49e+00	0	56	104	0	55	20889
2026-01-18 22:40:59.15	25.19	6.13	-42.2	-57.2	3.8	1.49e+00	0	56	104	0	55	20950
2026-01-18 22:41:00.16	25.26	6.19	-42.2	-57.2	3.8	1.49e+00	0	57	104	0	55	20889
2026-01-18 22:41:01.17	25.32	6.26	-42.2	-57.2	3.8	1.49e+00	0	57	104	0	55	20861
2026-01-18 22:41:02.18	25.39	6.33	-42.2	-57.2	3.8	1.49e+00	0	57	104	0	55	20785
2026-01-18 22:41:03.19	25.45	6.40	-42.2	-57.2	3.8	1.49e+00	0	57	104	0	55	20903
2026-01-18 22:41:04.20	25.52	6.47	-42.3	-57.2	3.8	1.49e+00	0	57	104	0	55	20864
2026-01-18 22:41:05.21	25.58	6.54	-42.3	-57.2	3.8	1.49e+00	0	57	104	0	55	20861
2026-01-18 22:41:06.22	25.65	6.61	-42.2	-57.2	3.8	1.49e+00	0	57	104	0	55	20879
2026-01-18 22:41:07.23	25.71	6.68	-42.2	-57.2	3.8	1.49e+00	0	57	104	0	55	20891
2026-01-18 22:41:08.24	25.78	6.75	-42.2	-57.2	3.8	1.49e+00	0	57	104	0	55	20843
2026-01-18 22:41:09.25	25.85	6.82	-42.2	-57.2	3.8	1.49e+00	0	57	104	0	55	20924
2026-01-18 22:41:10.26	25.91	6.89	-42.2	-57.2	3.8	1.49e+00	0	57	104	0	55	20861
2026-01-18 22:41:11.27	25.98	6.96	-42.2	-57.2	3.8	1.49e+00	0	57	104	0	55	20895
2026-01-18 22:41:12.28	26.05	7.03	-42.2	-57.2	3.8	1.49e+00	0	57	104	0	55	20855
2026-01-18 22:41:13.29	26.12	7.10	-42.2	-57.2	3.8	1.49e+00	0	57	104	0	55	20870
2026-01-18 22:41:14.31	26.19	7.17	-42.2	-57.1	3.8	1.49e+00	0	57	104	0	55	20659
2026-01-18 22:41:15.32	26.25	7.24	-42.2	-57.1	3.8	1.49e+00	0	57	104	0	55	20665
2026-01-18 22:41:16.33	26.32	7.31	-42.2	-57.0	3.8	1.49e+00	0	57	104	0	55	20446
2026-01-18 22:41:17.33	26.39	7.39	-42.2	-56.7	3.8	1.49e+00	0	57	104	0	55	19638
2026-01-18 22:41:18.35	26.46	7.46	-42.2	-56.3	3.8	1.49e+00	0	57	104	0	55	18803
2026-01-18 22:41:19.36	26.53	7.53	-42.1	-55.4	3.8	1.49e+00	0	58	104	0	55	16985
2026-01-18 22:41:20.37	26.60	7.60	-42.1	-54.2	3.9	1.48e+00	0	57	104	0	55	14877
2026-01-18 22:41:21.38	26.67	7.67	-41.9	-52.5	4.6	1.29e+00	0	57	0	0	55	12144
2026-01-18 22:41:22.39	26.74	7.75	-41.7	-51.1	5.3	7.62e-01	0	57	0	2097152	55	10313
2026-01-18 22:41:23.40	26.81	7.82	-41.6	-49.8	6.2	3.42e-01	0	57	0	4194304	55	8941
2026-01-18 22:41:24.41	26.89	7.89	-41.4	-49.1	6.9	1.91e-01	0	57	0	6291456	54	8663
2026-01-18 22:41:25.42	26.96	7.96	-41.3	-48.5	7.4	1.43e-01	0	57	0	8388608	54	8090
2026-01-18 22:41:26.43	27.03	8.04	-41.5	-48.5	7.6	8.60e-02	0	57	0	9437184	54	8159
2026-01-18 22:41:27.44	27.10	8.11	-42.0	-52.4	4.8	3.03e-01	0	57	0	11534336	54	12700
2026-01-18 22:41:28.45	27.18	8.18	-41.9	-52.9	4.0	1.49e+00	0	58	104	11534336	54	13438
2026-01-18 22:41:29.46	27.25	8.26	-42.6	-51.4	5.7	3.39e-01	0	58	0	11534336	55	10675
2026-01-18 22:41:30.47	27.32	8.33	-42.4	-50.0	6.7	1.19e+00	0	58	0	13631488	56	8591
2026-01-18 22:41:31.48	27.40	8.40	-42.2	-49.9	6.5	3.82e-01	0	58	0	14680064	56	8503
2026-01-18 22:41:32.49	27.47	8.48	-42.1	-49.0	7.5	1.09e-01	0	58	0	16777216	56	7707
2026-01-18 22:41:33.50	27.54	8.55	-42.1	-49.0	7.6	9.86e-02	0	58	0	18874368	56	7683
2026-01-18 22:41:34.51	27.62	8.62	-42.2	-49.1	7.5	1.23e-01	0	58	0	20971520	56	7808
2026-01-18 22:41:35.52	27.69	8.70	-41.8	-48.2	8.2	7.37e-02	0	58	0	23068672	55	7375
2026-01-18 22:41:36.53	27.77	8.77	-41.8	-48.4	8.0	6.92e-02	0	58	0	24117248	55	7584
2026-01-18 22:41:37.54	27.85	8.85	-41.8	-48.3	8.2	5.63e-02	0	58	0	26214400	55	7491
2026-01-18 22:41:38.55	27.92	8.92	-41.8	-47.9	8.8	4.81e-02	0	58	0	28311552	55	7132
2026-01-18 22:41:39.56	28.00	9.00	-41.9	-47.9	8.8	2.78e-02	0	58	0	30408704	55	7129
2026-01-18 22:41:40.57	28.08	9.07	-41.7	-47.5	9.1	2.78e-02	0	58	0	32505856	55	6862
2026-01-18 22:41:41.58	28.15	9.15	-41.9	-47.8	8.9	2.11e-02	0	58	0	33554432	55	7048
2026-01-18 22:41:42.59	28.23	9.23	-41.8	-47.6	9.1	2.14e-02	0	58	0	35651584	55	6887
2026-01-18 22:41:43.60	28.31	9.30	-41.8	-47.5	9.3	2.07e-02	0	58	0	37748736	55	6806
2026-01-18 22:41:44.61	28.39	9.38	-41.8	-47.4	9.4	1.59e-02	0	58	0	39845888	55	6796
2026-01-18 22:41:45.62	28.47	9.45	-41.9	-47.5	9.3	1.82e-02	0	58	0	41943040	55	6858
2026-01-18 22:41:46.63	28.55	9.53	-41.9	-47.4	9.5	1.57e-02	0	58	0	42991616	55	6738
2026-01-18 22:41:47.64	28.63	9.61	-41.8	-47.1	9.9	1.08e-02	0	58	0	45088768	55	6531
2026-01-18 22:41:48.65	28.71	9.68	-41.8	-47.2	9.8	1.14e-02	0	59	0	47185920	55	6589
2026-01-18 22:41:49.66	28.79	9.76	-41.8	-47.1	9.9	1.06e-02	0	58	0	49283072	55	6505
2026-01-18 22:41:50.66	28.87	9.84	-41.8	-47.1	9.8	9.53e-03	0	58	0	51380224	55	6570
2026-01-18 22:41:51.67	28.95	9.92	-41.8	-47.0	10.1	8.64e-03	0	58	0	52428800	55	6438
2026-01-18 22:41:52.68	29.03	9.99	-41.9	-47.1	10.0	8.56e-03	0	58	0	54525952	55	6505
2026-01-18 22:41:53.69	29.11	10.07	-41.8	-46.9	10.1	7.21e-03	0	58	0	56623104	55	6416
2026-01-18 22:41:54.70	29.20	10.15	-41.8	-46.8	10.2	6.47e-03	0	59	0	58720256	55	6315
2026-01-18 22:41:55.71	29.28	10.23	-41.8	-46.8	10.3	5.07e-03	0	58	0	60817408	55	6323
2026-01-18 22:41:56.72	29.36	10.31	-41.8	-46.6	10.6	3.85e-03	0	59	0	61865984	55	6135
2026-01-18 22:41:57.73	29.45	10.39	-41.8	-46.6	10.6	3.52e-03	0	59	0	63963136	55	6162
2026-01-18 22:41:58.74	29.53	10.46	-41.7	-46.4	10.8	3.31e-03	0	58	0	66060288	55	6003
2026-01-18 22:41:59.75	29.62	10.54	-41.8	-46.4	10.8	2.78e-03	0	59	0	68157440	55	6047
2026-01-18 22:42:00.76	29.70	10.62	-41.8	-46.5	10.8	2.57e-03	0	59	0	70254592	55	6078
2026-01-18 22:42:01.77	29.79	10.70	-41.8	-46.4	10.9	2.46e-03	0	59	0	71303168	55	6035
2026-01-18 22:42:02.78	29.87	10.78	-41.8	-46.4	10.9	2.14e-03	0	58	0	73400320	55	6022
2026-01-18 22:42:03.79	29.96	10.86	-41.8	-46.5	10.8	2.29e-03	0	58	0	75497472	55	6077
2026-01-18 22:42:04.80	30.05	10.94	-41.8	-46.5	10.9	2.19e-03	0	59	0	77594624	55	6063
2026-01-18 22:42:05.81	30.13	11.02	-41.8	-46.3	11.0	1.87e-03	0	59	0	79691776	55	5986
2026-01-18 22:42:06.82	30.22	11.10	-41.8	-46.3	11.0	1.75e-03	0	59	0	81788928	55	5985
2026-01-18 22:42:07.83	30.31	11.18	-41.8	-46.3	11.1	1.72e-03	0	59	0	82837504	55	5937
2026-01-18 22:42:08.83	30.40	11.26	-41.8	-46.3	11.1	1.74e-03	0	59	0	84934656	55	5986
2026-01-18 22:42:09.84	30.49	11.34	-41.7	-46.2	11.2	1.66e-03	0	59	0	87031808	55	5888
2026-01-18 22:42:10.85	30.58	11.43	-41.8	-46.3	11.1	1.41e-03	0	59	0	89128960	55	5946
2026-01-18 22:42:11.86	30.67	11.51	-41.8	-46.2	11.2	1.32e-03	0	59	0	91226112	55	5873
2026-01-18 22:42:12.87	30.76	11.59	-41.8	-46.3	11.2	1.34e-03	0	59	0	92274688	55	5935
2026-01-18 22:42:13.88	30.85	11.67	-41.8	-46.3	11.1	1.52e-03	0	59	0	94371840	55	5947
2026-01-18 22:42:14.89	30.94	11.75	-41.8	-46.2	11.3	1.30e-03	0	59	0	96468992	55	5876
2026-01-18 22:42:15.90	31.03	11.84	-41.8	-46.1	11.4	1.08e-03	0	59	0	98566144	55	5833
2026-01-18 22:42:16.91	31.13	11.92	-41.8	-46.1	11.4	1.11e-03	0	59	0	100663296	55	5838
2026-01-18 22:42:17.92	31.22	12.00	-41.9	-46.3	11.2	1.09e-03	0	59	0	101711872	55	5948
2026-01-18 22:42:18.93	31.31	12.08	-41.9	-46.3	11.2	1.40e-03	0	59	0	103809024	55	5975
2026-01-18 22:42:19.94	31.41	12.17	-41.9	-46.4	11.1	1.53e-03	0	59	0	105906176	55	6005
2026-01-18 22:42:20.95	31.50	12.25	-41.9	-46.4	11.1	1.43e-03	0	59	0	108003328	55	5996
2026-01-18 22:42:21.95	31.60	12.33	-41.9	-46.2	11.3	1.10e-03	0	59	0	110100480	55	5913
2026-01-18 22:42:22.96	31.69	12.42	-41.9	-46.2	11.3	1.04e-03	0	59	0	111149056	55	5914
2026-01-18 22:42:23.97	31.79	12.50	-41.8	-46.2	11.4	1.04e-03	0	59	0	113246208	55	5866
2026-01-18 22:42:24.99	31.88	12.59	-41.9	-46.3	11.3	1.09e-03	0	59	0	115343360	55	5942
2026-01-18 22:42:26.00	31.98	12.67	-41.8	-46.1	11.5	1.05e-03	0	59	0	117440512	55	5821
2026-01-18 22:42:27.00	32.08	12.76	-41.8	-46.1	11.5	8.88e-04	0	59	0	119537664	55	5794
2026-01-18 22:42:28.01	32.18	12.84	-41.8	-46.1	11.5	8.20e-04	0	59	0	120586240	55	5803
2026-01-18 22:42:29.02	32.28	12.93	-41.8	-46.0	11.6	6.14e-04	0	59	0	122683392	55	5760
2026-01-18 22:42:30.03	32.38	13.01	-41.8	-46.1	11.5	7.84e-04	0	59	0	124780544	55	5815
2026-01-18 22:42:31.04	32.48	13.10	-41.8	-46.1	11.6	7.65e-04	0	59	0	126877696	55	5790
2026-01-18 22:42:32.05	32.58	13.18	-41.9	-46.2	11.6	7.11e-04	0	59	0	128974848	55	5869
2026-01-18 22:42:33.06	32.68	13.27	-41.9	-46.1	11.6	8.39e-04	0	59	0	130023424	55	5838
2026-01-18 22:42:34.07	32.78	13.36	-41.9	-46.1	11.6	7.86e-04	0	59	0	132120576	55	5831
2026-01-18 22:42:35.08	32.88	13.44	-41.8	-46.0	11.7	6.19e-04	0	59	0	134217728	55	5756
2026-01-18 22:42:36.09	32.98	13.53	-41.8	-46.0	11.7	5.29e-04	0	59	0	136314880	55	5778
2026-01-18 22:42:37.10	33.09	13.62	-41.8	-45.9	11.8	5.42e-04	0	59	0	138412032	55	5685
2026-01-18 22:42:38.11	33.19	13.71	-41.8	-45.9	11.8	4.36e-04	0	59	0	139460608	55	5698
2026-01-18 22:42:39.12	33.30	13.79	-41.7	-45.8	12.0	3.81e-04	0	59	0	141557760	55	5600
2026-01-18 22:42:40.13	33.40	13.88	-41.7	-45.8	11.9	4.06e-04	0	59	0	143654912	55	5626
2026-01-18 22:42:41.14	33.51	13.97	-41.7	-45.7	12.0	3.43e-04	0	59	0	145752064	55	5592
2026-01-18 22:42:42.15	33.61	14.06	-41.6	-45.6	12.2	2.90e-04	0	59	0	147849216	55	5480
2026-01-18 22:42:43.16	33.72	14.15	-41.6	-45.6	12.1	2.33e-04	0	59	0	149946368	55	5506
2026-01-18 22:42:44.17	33.83	14.23	-41.7	-45.6	12.1	2.49e-04	0	60	0	150994944	55	5526
2026-01-18 22:42:45.18	33.94	14.32	-41.7	-45.8	12.0	2.72e-04	0	60	0	153092096	55	5604
2026-01-18 22:42:46.19	34.04	14.41	-41.7	-45.8	11.9	3.07e-04	0	59	0	155189248	55	5620
2026-01-18 22:42:47.20	34.15	14.50	-41.8	-45.9	11.9	3.93e-04	0	60	0	157286400	55	5670
2026-01-18 22:42:48.21	34.26	14.59	-41.9	-46.0	11.7	4.99e-04	0	60	0	159383552	55	5776
2026-01-18 22:42:49.22	34.37	14.68	-41.8	-46.0	11.7	5.23e-04	0	60	0	160432128	55	5761
2026-01-18 22:42:50.23	34.49	14.77	-41.9	-46.1	11.7	4.78e-04	0	60	0	162529280	55	5801
2026-01-18 22:42:51.24	34.60	14.86	-41.9	-46.2	11.5	6.23e-04	0	60	0	164626432	55	5902
2026-01-18 22:42:52.25	34.71	14.95	-42.0	-46.4	11.4	8.15e-04	0	60	0	166723584	55	6005
2026-01-18 22:42:53.26	34.82	15.04	-42.0	-46.4	11.4	8.67e-04	0	60	0	168820736	55	6020
2026-01-18 22:42:54.27	34.94	15.14	-42.0	-46.3	11.4	1.00e-03	0	59	0	169869312	55	5989
2026-01-18 22:42:55.28	35.05	15.23	-42.0	-46.4	11.5	9.72e-04	0	59	0	171966464	55	5993
2026-01-18 22:42:56.29	35.17	15.32	-42.0	-46.3	11.5	8.28e-04	0	60	0	174063616	55	5973
2026-01-18 22:42:57.30	35.28	15.41	-42.0	-46.3	11.5	7.74e-04	0	60	0	176160768	55	5970
2026-01-18 22:42:58.31	35.40	15.50	-42.1	-46.4	11.4	1.02e-03	0	60	0	178257920	55	6046
2026-01-18 22:42:59.32	35.52	15.60	-42.2	-46.5	11.3	1.14e-03	0	60	0	179306496	55	6131
2026-01-18 22:43:00.33	35.64	15.69	-42.2	-46.7	11.1	1.35e-03	0	60	0	181403648	55	6229
2026-01-18 22:43:01.34	35.76	15.78	-42.3	-46.8	11.0	1.73e-03	0	60	0	183500800	55	6311
2026-01-18 22:43:02.35	35.87	15.87	-42.3	-46.9	11.0	2.02e-03	0	60	0	185597952	55	6359
2026-01-18 22:43:03.36	35.99	15.97	-42.3	-46.9	10.9	2.01e-03	0	60	0	187695104	55	6383
2026-01-18 22:43:04.37	36.12	16.06	-42.4	-47.0	10.8	2.44e-03	0	60	0	188743680	55	6489
2026-01-18 22:43:05.38	36.24	16.15	-42.4	-47.1	10.8	2.38e-03	0	60	0	190840832	55	6496
2026-01-18 22:43:06.39	36.36	16.25	-42.4	-47.0	10.8	2.50e-03	0	60	0	192937984	55	6459
2026-01-18 22:43:07.40	36.48	16.34	-42.3	-46.9	10.9	2.25e-03	0	60	0	195035136	55	6411
2026-01-18 22:43:08.41	36.61	16.44	-42.3	-46.9	10.9	2.59e-03	0	60	0	197132288	55	6416
2026-01-18 22:43:09.41	36.73	16.53	-42.3	-46.9	10.9	2.02e-03	0	60	0	198180864	55	6400
2026-01-18 22:43:10.42	36.86	16.63	-42.4	-47.0	10.8	2.35e-03	0	60	0	200278016	55	6477
2026-01-18 22:43:11.43	36.98	16.72	-42.4	-47.1	10.8	2.36e-03	0	60	0	202375168	55	6502
2026-01-18 22:43:12.44	37.11	16.82	-42.4	-47.0	10.9	2.51e-03	0	60	0	204472320	55	6433
2026-01-18 22:43:13.45	37.24	16.91	-42.3	-46.7	11.1	1.58e-03	0	60	0	206569472	55	6255
2026-01-18 22:43:14.46	37.37	17.01	-42.3	-46.8	11.1	1.44e-03	0	60	0	207618048	55	6292
2026-01-18 22:43:15.47	37.49	17.11	-42.3	-46.7	11.2	1.50e-03	0	60	0	209715200	55	6251
2026-01-18 22:43:16.48	37.63	17.20	-42.3	-46.8	11.1	1.62e-03	0	60	0	211812352	55	6288
2026-01-18 22:43:17.48	37.75	17.30	-42.3	-46.8	11.1	1.57e-03	0	60	0	213909504	55	6300
2026-01-18 22:43:18.49	37.89	17.40	-42.4	-46.8	11.1	1.57e-03	0	60	0	216006656	55	6345
2026-01-18 22:43:19.51	38.02	17.49	-42.4	-47.0	10.9	1.79e-03	0	60	0	218103808	55	6443
2026-01-18 22:43:20.52	38.15	17.59	-42.4	-47.1	10.9	2.17e-03	0	60	0	219152384	55	6505
2026-01-18 22:43:21.53	38.29	17.69	-42.5	-47.1	10.8	2.51e-03	0	60	0	221249536	55	6535
2026-01-18 22:43:22.54	38.42	17.79	-42.5	-47.1	10.8	2.61e-03	0	60	0	223346688	55	6537
2026-01-18 22:43:23.55	38.56	17.89	-42.5	-47.1	10.8	2.76e-03	0	60	0	225443840	55	6548
2026-01-18 22:43:24.55	38.69	17.98	-42.5	-47.1	10.8	2.70e-03	0	60	0	227540992	55	6552
2026-01-18 22:43:25.56	38.83	18.08	-42.5	-47.0	10.9	2.10e-03	0	60	0	228589568	55	6485
2026-01-18 22:43:26.57	38.97	18.18	-42.5	-47.1	10.8	2.46e-03	0	60	0	230686720	55	6522
2026-01-18 22:43:27.58	39.11	18.28	-42.5	-47.2	10.7	2.69e-03	0	60	0	232783872	55	6591
2026-01-18 22:43:28.59	39.25	18.38	-42.5	-47.2	10.7	3.15e-03	0	60	0	234881024	55	6617
2026-01-18 22:43:29.60	39.39	18.48	-42.5	-47.2	10.8	2.60e-03	0	60	0	236978176	55	6584
2026-01-18 22:43:30.61	39.53	18.58	-42.5	-47.2	10.7	2.83e-03	0	60	0	238026752	55	6593
2026-01-18 22:43:31.62	39.68	18.68	-42.5	-47.2	10.7	2.90e-03	0	60	0	240123904	55	6591
2026-01-18 22:43:32.63	39.82	18.78	-42.5	-47.2	10.8	2.47e-03	0	60	0	242221056	55	6589
2026-01-18 22:43:33.64	39.97	18.88	-42.5	-47.2	10.7	2.70e-03	0	60	0	244318208	55	6615
2026-01-18 22:43:34.64	40.11	18.98	-42.5	-47.2	10.7	2.95e-03	0	60	0	246415360	55	6618
2026-01-18 22:43:35.65	40.26	19.08	-42.5	-47.1	10.9	2.47e-03	0	60	0	247463936	55	6507
2026-01-18 22:43:36.66	40.40	19.18	-42.4	-46.9	11.1	1.72e-03	0	60	0	249561088	55	6403
2026-01-18 22:43:37.67	40.55	19.28	-42.4	-46.9	11.1	1.64e-03	0	60	0	251658240	55	6380
2026-01-18 22:43:38.68	40.70	19.39	-42.4	-46.9	11.1	1.69e-03	0	60	0	253755392	55	6374
2026-01-18 22:43:39.69	40.85	19.49	-42.4	-46.8	11.2	1.61e-03	0	60	0	255852544	55	6308
2026-01-18 22:43:40.70	41.00	19.59	-42.3	-46.6	11.4	1.17e-03	0	60	0	256901120	55	6188
2026-01-18 22:43:41.71	41.16	19.69	-42.3	-46.6	11.5	9.77e-04	0	60	0	258998272	55	6139
2026-01-18 22:43:42.72	41.31	19.80	-42.3	-46.6	11.4	1.02e-03	0	60	0	261095424	55	6186
2026-01-18 22:43:43.73	41.46	19.90	-42.3	-46.6	11.4	1.05e-03	0	60	0	263192576	55	6197
2026-01-18 22:43:44.74	41.62	20.00	-42.3	-46.6	11.5	9.49e-04	0	60	0	265289728	55	6138
2026-01-18 22:43:45.75	41.78	20.11	-42.3	-46.7	11.4	1.03e-03	0	60	0	266338304	55	6209
2026-01-18 22:43:46.76	41.93	20.21	-42.3	-46.7	11.4	8.78e-04	0	60	0	268435456	55	6204
2026-01-18 22:43:47.77	42.09	20.31	-42.3	-46.5	11.5	8.57e-04	0	60	0	270532608	55	6097
2026-01-18 22:43:48.78	42.25	20.42	-42.3	-46.5	11.6	7.12e-04	0	60	0	272629760	55	6104
2026-01-18 22:43:49.79	42.41	20.52	-42.2	-46.4	11.7	6.79e-04	0	60	0	274726912	55	6029
2026-01-18 22:43:50.80	42.58	20.63	-42.2	-46.4	11.7	6.34e-04	0	60	0	275775488	55	5997
2026-01-18 22:43:51.81	42.74	20.73	-42.2	-46.3	11.8	4.33e-04	0	60	0	277872640	55	5953
2026-01-18 22:43:52.81	42.90	20.84	-42.1	-46.2	11.9	3.91e-04	0	60	0	279969792	55	5863
2026-01-18 22:43:53.82	43.07	20.94	-42.1	-46.2	11.9	3.70e-04	0	60	0	282066944	55	5861
2026-01-18 22:43:54.83	43.23	21.05	-42.2	-46.2	11.9	3.68e-04	0	60	0	284164096	55	5876
2026-01-18 22:43:55.84	43.40	21.15	-42.1	-46.1	12.0	3.20e-04	0	60	0	286261248	55	5821
2026-01-18 22:43:56.85	43.57	21.26	-42.1	-46.2	11.9	3.28e-04	0	60	0	287309824	55	5870
2026-01-18 22:43:57.86	43.74	21.36	-42.2	-46.2	11.9	4.21e-04	0	60	0	289406976	55	5872
2026-01-18 22:43:58.87	43.91	21.47	-42.1	-46.1	12.1	2.74e-04	0	60	0	291504128	55	5805
2026-01-18 22:43:59.88	44.08	21.58	-42.1	-46.0	12.1	2.94e-04	0	60	0	293601280	55	5762
2026-01-18 22:44:00.88	44.25	21.68	-42.0	-45.9	12.2	2.20e-04	0	60	0	295698432	55	5670
2026-01-18 22:44:01.90	44.43	21.79	-41.9	-45.7	12.4	2.08e-04	0	61	0	296747008	55	5570
2026-01-18 22:44:02.90	44.60	21.90	-41.9	-45.6	12.5	1.29e-04	0	61	0	298844160	55	5518
2026-01-18 22:44:03.91	44.78	22.00	-41.8	-45.5	12.7	8.01e-05	0	60	0	300941312	55	5415
2026-01-18 22:44:04.92	44.95	22.11	-41.7	-45.3	12.8	6.94e-05	0	61	0	303038464	55	5327
2026-01-18 22:44:05.93	45.13	22.22	-41.8	-45.3	12.8	4.50e-05	0	60	0	305135616	55	5340
2026-01-18 22:44:06.94	45.31	22.33	-41.7	-45.3	12.9	4.88e-05	0	61	0	306184192	55	5306
2026-01-18 22:44:07.95	45.49	22.43	-41.8	-45.3	12.8	5.34e-05	0	60	0	308281344	55	5339
2026-01-18 22:44:08.96	45.68	22.54	-41.8	-45.4	12.8	6.79e-05	0	60	0	310378496	55	5354
2026-01-18 22:44:09.97	45.86	22.65	-41.8	-45.5	12.7	5.64e-05	0	60	0	312475648	55	5417
2026-01-18 22:44:10.98	46.05	22.76	-41.8	-45.5	12.7	7.09e-05	0	61	0	314572800	55	5449
2026-01-18 22:44:11.99	46.23	22.87	-41.8	-45.5	12.7	7.24e-05	0	61	0	315621376	55	5408
2026-01-18 22:44:13.00	46.42	22.98	-41.8	-45.4	12.8	6.86e-05	0	61	0	317718528	55	5364
2026-01-18 22:44:14.01	46.61	23.08	-41.8	-45.3	12.9	5.56e-05	0	61	0	319815680	55	5338
2026-01-18 22:44:15.02	46.80	23.19	-41.6	-45.1	13.0	5.79e-05	0	60	0	321912832	55	5210
2026-01-18 22:44:16.03	46.99	23.30	-41.5	-45.0	13.3	1.90e-05	0	60	0	324009984	55	5103
2026-01-18 22:44:17.04	47.18	23.41	-41.6	-45.1	13.1	2.13e-05	0	61	0	325058560	55	5191
2026-01-18 22:44:18.05	47.38	23.52	-41.5	-44.8	13.4	2.89e-05	0	61	0	327155712	54	5329
2026-01-18 22:44:19.05	47.57	23.63	-41.5	-44.8	13.4	1.75e-05	0	61	0	329252864	54	5330
2026-01-18 22:44:20.06	47.77	23.74	-41.5	-44.9	13.3	1.22e-05	0	61	0	331350016	54	5366
2026-01-18 22:44:21.07	47.96	23.85	-41.4	-44.8	13.4	1.67e-05	0	61	0	333447168	54	5300
2026-01-18 22:44:22.09	48.17	23.96	-41.5	-44.8	13.4	1.67e-05	0	61	0	334495744	54	5327
2026-01-18 22:44:23.10	48.37	24.07	-41.5	-44.9	13.3	1.06e-05	0	61	0	336592896	54	5364
2026-01-18 22:44:24.11	48.57	24.18	-41.4	-44.7	13.5	1.60e-05	0	61	0	338690048	54	5250
2026-01-18 22:44:25.12	48.77	24.29	-41.4	-44.7	13.5	9.90e-06	0	60	0	340787200	54	5277
2026-01-18 22:44:26.13	48.98	24.40	-41.3	-44.6	13.6	6.10e-06	0	61	0	342884352	54	5189
2026-01-18 22:44:27.14	49.18	24.51	-41.3	-44.6	13.7	1.50e-06	0	61	0	343932928	54	5161
2026-01-18 22:44:28.14	49.39	24.62	-41.4	-44.7	13.6	8.30e-06	0	61	0	346030080	54	5235
2026-01-18 22:44:29.15	49.60	24.73	-41.5	-44.8	13.4	1.60e-05	0	61	0	348127232	54	5332
2026-01-18 22:44:30.16	49.81	24.84	-41.5	-44.9	13.4	1.83e-05	0	61	0	350224384	54	5355
2026-01-18 22:44:31.17	50.02	24.95	-41.6	-45.0	13.2	1.37e-05	0	61	0	352321536	54	5463
2026-01-18 22:44:32.18	50.23	25.06	-41.7	-45.2	13.0	3.66e-05	0	61	0	354418688	54	5569
2026-01-18 22:44:33.19	50.45	25.17	-41.7	-45.2	13.1	3.28e-05	0	61	0	355467264	54	5560
2026-01-18 22:44:34.20	50.67	25.29	-41.7	-45.2	13.1	3.66e-05	0	61	0	357564416	54	5580
2026-01-18 22:44:35.20	50.88	25.40	-41.7	-45.1	13.2	3.28e-05	0	61	0	359661568	54	5511
2026-01-18 22:44:36.21	51.10	25.51	-41.6	-45.0	13.2	2.21e-05	0	61	0	361758720	54	5448
2026-01-18 22:44:37.22	51.32	25.62	-41.6	-45.0	13.3	1.60e-05	0	61	0	362807296	54	5412
2026-01-18 22:44:38.23	51.55	25.73	-41.6	-45.0	13.3	1.22e-05	0	61	0	364904448	54	5431
2026-01-18 22:44:39.24	51.77	25.84	-41.7	-45.2	13.1	2.13e-05	0	61	0	367001600	54	5545
2026-01-18 22:44:40.25	52.00	25.95	-41.7	-45.2	13.0	3.20e-05	0	61	0	369098752	54	5590
2026-01-18 22:44:41.26	52.22	26.06	-41.9	-45.4	12.8	5.18e-05	0	61	0	371195904	54	5717
2026-01-18 22:44:42.27	52.45	26.17	-41.9	-45.6	12.6	8.01e-05	0	61	0	372244480	54	5849
2026-01-18 22:44:43.28	52.68	26.28	-42.0	-45.6	12.7	1.15e-04	0	61	0	374341632	54	5845
2026-01-18 22:44:44.29	52.91	26.40	-42.0	-45.8	12.5	1.05e-04	0	61	0	376438784	54	5944
2026-01-18 22:44:45.30	53.15	26.51	-42.1	-45.9	12.4	1.63e-04	0	61	0	378535936	54	6009
2026-01-18 22:44:46.31	53.38	26.62	-42.2	-46.1	12.2	2.06e-04	0	61	0	380633088	54	6140
2026-01-18 22:44:47.32	53.62	26.73	-42.2	-46.2	12.1	2.36e-04	0	61	0	382730240	54	6203
2026-01-18 22:44:48.33	53.86	26.84	-42.3	-46.4	11.8	3.53e-04	0	61	0	383778816	55	6056
2026-01-18 22:44:49.34	54.10	26.95	-42.4	-46.6	11.7	5.71e-04	0	61	0	385875968	55	6165
2026-01-18 22:44:50.35	54.34	27.06	-42.5	-46.8	11.5	7.19e-04	0	61	0	387973120	55	6302
2026-01-18 22:44:51.36	54.58	27.17	-42.5	-46.8	11.4	9.48e-04	0	61	0	390070272	55	6328
2026-01-18 22:44:52.37	54.83	27.28	-42.6	-46.9	11.3	1.04e-03	0	61	0	392167424	55	6402
2026-01-18 22:44:53.38	55.07	27.39	-42.6	-47.1	11.2	1.29e-03	0	61	0	393216000	55	6498
2026-01-18 22:44:54.39	55.32	27.50	-42.6	-47.0	11.2	1.27e-03	0	61	0	395313152	55	6461
2026-01-18 22:44:55.39	55.57	27.61	-42.7	-47.1	11.2	1.32e-03	0	61	0	397410304	55	6504
2026-01-18 22:44:56.40	55.82	27.72	-42.7	-47.2	11.1	1.61e-03	0	61	0	399507456	55	6589
2026-01-18 22:44:57.41	56.08	27.83	-43.0	-47.6	10.7	2.67e-03	0	61	0	401604608	56	6562
2026-01-18 22:44:58.42	56.33	27.94	-43.1	-47.9	10.5	3.26e-03	0	61	0	402653184	56	6743
2026-01-18 22:44:59.43	56.59	28.05	-43.2	-48.1	10.3	4.48e-03	0	61	0	404750336	56	6882
2026-01-18 22:45:00.44	56.85	28.16	-43.2	-48.2	10.2	5.69e-03	0	61	0	406847488	56	6976
2026-01-18 22:45:01.45	57.11	28.27	-43.1	-48.0	10.4	4.85e-03	0	61	0	408944640	56	6869
2026-01-18 22:45:02.46	57.37	28.38	-43.0	-47.8	10.6	4.70e-03	0	61	0	411041792	56	6658
2026-01-18 22:45:03.47	57.63	28.49	-43.0	-47.7	10.7	3.49e-03	0	61	0	412090368	56	6611
2026-01-18 22:45:04.48	57.90	28.60	-43.0	-47.7	10.7	2.83e-03	0	61	0	414187520	56	6574
2026-01-18 22:45:05.49	58.17	28.71	-43.1	-47.9	10.5	3.57e-03	0	61	0	416284672	56	6754
2026-01-18 22:45:06.50	58.43	28.81	-43.2	-48.2	10.2	4.95e-03	0	61	0	418381824	57	6639
2026-01-18 22:45:07.51	58.71	28.92	-43.4	-48.8	9.6	1.08e-02	0	61	0	420478976	57	7047
2026-01-18 22:45:08.52	58.98	29.03	-43.6	-49.2	9.1	1.86e-02	0	61	0	421527552	57	7444
2026-01-18 22:45:09.53	59.25	29.14	-43.7	-49.7	8.6	2.94e-02	0	61	0	423624704	58	7440
2026-01-18 22:45:10.54	59.53	29.24	-43.9	-50.1	8.2	5.37e-02	0	61	0	425721856	58	7803
2026-01-18 22:45:11.55	59.81	29.35	-44.0	-50.5	7.8	7.54e-02	0	61	0	427819008	58	8136
2026-01-18 22:45:12.56	60.09	29.46	-44.0	-50.5	7.8	7.77e-02	0	61	0	429916160	58	8127
2026-01-18 22:45:13.57	60.37	29.56	-44.0	-50.6	7.7	8.05e-02	0	61	0	430964736	58	8225
2026-01-18 22:45:14.58	60.65	29.67	-44.0	-50.5	7.8	8.22e-02	0	61	0	433061888	58	8158
2026-01-18 22:45:15.59	60.94	29.77	-44.0	-50.7	7.6	9.18e-02	0	61	0	435159040	58	8332
2026-01-18 22:45:16.60	61.23	29.88	-44.0	-50.7	7.6	9.47e-02	0	61	0	437256192	58	8360
2026-01-18 22:45:17.61	61.52	29.98	-44.0	-50.7	7.7	1.03e-01	0	61	0	439353344	58	8314
2026-01-18 22:45:18.62	61.81	30.09	-44.1	-50.9	7.5	9.82e-02	0	61	0	440401920	58	8480
2026-01-18 22:45:19.62	62.10	30.19	-44.1	-50.8	7.5	9.98e-02	0	61	0	442499072	58	8448
2026-01-18 22:45:20.63	62.39	30.30	-44.4	-52.5	6.0	1.56e-01	0	61	0	444596224	59	9706
2026-01-18 22:45:21.64	62.69	30.40	-44.4	-52.0	6.7	4.87e-01	0	61	0	446693376	59	9129
2026-01-18 22:45:22.65	62.99	30.50	-44.9	-57.1	4.0	1.44e+00	0	61	0	446693376	60	15550
2026-01-18 22:45:23.66	63.29	30.60	-44.5	-53.0	6.0	1.10e+00	0	61	104	446693376	60	9648
2026-01-18 22:45:24.67	63.59	30.70	-44.7	-54.5	4.3	1.48e+00	1	61	104	446693376	60	11427
2026-01-18 22:45:25.68	63.89	30.81	-44.3	-52.4	6.1	3.56e-01	0	61	0	447741952	60	9062
2026-01-18 22:45:26.69	64.20	30.91	-44.2	-51.9	6.6	2.20e-01	0	61	0	449839104	60	8551
2026-01-18 22:45:27.70	64.51	31.01	-44.1	-51.4	7.1	1.72e-01	0	61	0	450887680	60	8076
2026-01-18 22:45:28.71	64.82	31.11	-44.0	-51.0	7.5	1.19e-01	0	61	0	452984832	60	7636
2026-01-18 22:45:29.72	65.13	31.20	-44.0	-50.5	7.9	8.82e-02	0	61	0	455081984	59	7638
2026-01-18 22:45:30.73	65.44	31.30	-43.9	-50.3	8.0	7.26e-02	0	61	0	457179136	59	7497
2026-01-18 22:45:31.74	65.76	31.40	-43.9	-50.0	8.3	5.42e-02	0	61	0	459276288	59	7257
2026-01-18 22:45:32.75	66.08	31.50	-43.8	-49.9	8.5	4.08e-02	0	61	0	461373440	59	7155
2026-01-18 22:45:33.75	66.39	31.59	-43.8	-49.9	8.6	4.52e-02	0	61	0	462422016	59	7126
2026-01-18 22:45:34.77	66.72	31.69	-43.8	-49.7	8.7	3.70e-02	0	61	0	464519168	59	7005
2026-01-18 22:45:35.78	67.04	31.78	-43.7	-49.5	8.9	3.26e-02	0	61	0	466616320	59	6829
2026-01-18 22:45:36.79	67.36	31.88	-43.5	-48.9	9.5	1.73e-02	0	61	0	468713472	59	6399
2026-01-18 22:45:37.79	67.69	31.97	-43.4	-48.4	10.0	1.04e-02	0	61	0	470810624	58	6404
2026-01-18 22:45:38.80	68.02	32.07	-43.3	-48.2	10.2	6.61e-03	0	61	0	471859200	58	6241
2026-01-18 22:45:39.81	68.35	32.16	-43.2	-48.0	10.5	4.45e-03	0	61	0	473956352	58	6105
2026-01-18 22:45:40.82	68.68	32.25	-43.1	-47.8	10.8	3.12e-03	0	61	0	476053504	58	5936
2026-01-18 22:45:41.83	69.01	32.34	-43.1	-47.7	10.8	2.75e-03	0	61	0	478150656	58	5907
2026-01-18 22:45:42.84	69.35	32.43	-43.1	-47.8	10.7	3.00e-03	0	61	0	480247808	58	5976
2026-01-18 22:45:43.85	69.69	32.52	-43.2	-48.0	10.5	3.65e-03	0	61	0	481296384	58	6123
2026-01-18 22:45:44.86	70.03	32.61	-43.2	-48.1	10.4	4.50e-03	0	61	0	483393536	58	6136
2026-01-18 22:45:45.87	70.37	32.70	-43.2	-48.0	10.4	4.79e-03	0	61	0	485490688	58	6093
2026-01-18 22:45:46.88	70.71	32.78	-43.3	-48.1	10.4	4.06e-03	0	61	0	487587840	58	6165
2026-01-18 22:45:47.89	71.06	32.87	-43.1	-47.8	10.7	3.51e-03	0	61	0	489684992	58	5960
2026-01-18 22:45:48.90	71.40	32.95	-43.0	-47.6	11.0	2.44e-03	0	61	0	490733568	58	5801
2026-01-18 22:45:49.91	71.75	33.04	-42.9	-47.4	11.1	1.73e-03	0	61	0	492830720	57	6017
2026-01-18 22:45:50.92	72.10	33.12	-42.9	-47.3	11.3	1.41e-03	0	61	0	494927872	57	5957
2026-01-18 22:45:51.93	72.45	33.20	-42.9	-47.3	11.2	1.03e-03	0	61	0	497025024	57	5961
2026-01-18 22:45:52.94	72.81	33.28	-42.9	-47.3	11.2	1.31e-03	0	61	0	499122176	57	5967
2026-01-18 22:45:53.95	73.16	33.36	-43.0	-47.5	11.0	1.72e-03	0	61	0	500170752	57	6076
2026-01-18 22:45:54.96	73.52	33.44	-43.0	-47.6	11.0	1.81e-03	0	61	0	502267904	57	6138
2026-01-18 22:45:55.96	73.88	33.52	-43.0	-47.5	11.0	1.90e-03	0	61	0	504365056	57	6114
2026-01-18 22:45:56.97	74.24	33.60	-43.1	-47.7	10.8	2.50e-03	0	61	0	506462208	57	6260
2026-01-18 22:45:57.98	74.60	33.67	-43.3	-48.2	10.4	3.67e-03	0	61	0	508559360	57	6594
2026-01-18 22:45:58.99	74.96	33.75	-43.4	-48.5	10.0	7.30e-03	0	61	0	509607936	57	6820
2026-01-18 22:46:00.00	75.33	33.82	-43.5	-48.8	9.7	1.11e-02	0	61	0	511705088	57	7103
2026-01-18 22:46:01.01	75.70	33.89	-43.6	-49.0	9.5	1.51e-02	0	61	0	513802240	57	7224
2026-01-18 22:46:02.02	76.07	33.97	-43.7	-49.3	9.1	1.69e-02	0	61	0	515899392	57	7538
2026-01-18 22:46:03.03	76.44	34.04	-43.7	-49.3	9.1	2.33e-02	0	61	0	517996544	58	7110
2026-01-18 22:46:04.04	76.81	34.11	-43.8	-49.8	8.7	2.86e-02	0	61	0	519045120	58	7472
2026-01-18 22:46:05.05	77.18	34.17	-43.9	-50.1	8.4	4.25e-02	0	61	0	521142272	58	7747
2026-01-18 22:46:06.06	77.56	34.24	-44.0	-50.3	8.2	5.68e-02	0	61	0	523239424	58	7939
2026-01-18 22:46:07.07	77.94	34.31	-44.0	-50.2	8.3	6.23e-02	0	61	0	525336576	58	7821
2026-01-18 22:46:08.08	78.31	34.37	-44.0	-50.1	8.3	5.57e-02	0	61	0	527433728	58	7789
2026-01-18 22:46:09.08	78.69	34.43	-43.9	-50.0	8.5	4.39e-02	0	61	0	529530880	58	7702
2026-01-18 22:46:10.09	79.07	34.50	-43.9	-50.0	8.5	4.45e-02	0	61	0	530579456	58	7650
2026-01-18 22:46:11.10	79.45	34.56	-43.9	-49.8	8.8	3.64e-02	0	61	0	532676608	58	7502
2026-01-18 22:46:12.11	79.84	34.62	-43.6	-49.1	9.4	2.33e-02	0	61	0	534773760	58	6958
2026-01-18 22:46:13.12	80.22	34.68	-43.6	-49.1	9.4	1.81e-02	0	61	0	536870912	58	6902
2026-01-18 22:46:14.13	80.61	34.73	-43.6	-49.1	9.4	1.58e-02	0	61	0	538968064	58	6914
2026-01-18 22:46:15.14	81.00	34.79	-43.6	-49.1	9.4	1.71e-02	0	61	0	540016640	58	6904
2026-01-18 22:46:16.15	81.39	34.84	-43.6	-48.9	9.5	1.65e-02	0	61	0	542113792	58	6788
2026-01-18 22:46:17.16	81.78	34.90	-43.5	-48.7	9.8	1.09e-02	0	61	0	544210944	58	6614
2026-01-18 22:46:18.17	82.17	34.95	-43.4	-48.4	10.1	7.23e-03	0	61	0	546308096	58	6390
2026-01-18 22:46:19.18	82.57	35.00	-43.3	-48.2	10.3	5.69e-03	0	61	0	548405248	58	6266
2026-01-18 22:46:20.19	82.96	35.05	-43.2	-47.8	10.8	3.83e-03	0	61	0	549453824	58	5949
2026-01-18 22:46:21.20	83.36	35.09	-43.0	-47.4	11.2	1.99e-03	0	61	0	551550976	58	5715
2026-01-18 22:46:22.21	83.75	35.14	-43.0	-47.4	11.2	1.30e-03	0	62	0	553648128	58	5694
2026-01-18 22:46:23.22	84.15	35.18	-43.1	-47.6	11.0	1.64e-03	0	61	0	555745280	57	6199
2026-01-18 22:46:24.23	84.55	35.23	-43.3	-48.2	10.3	3.25e-03	0	61	0	557842432	57	6609
2026-01-18 22:46:25.24	84.95	35.27	-43.5	-48.7	9.9	7.70e-03	0	61	0	558891008	57	6984
2026-01-18 22:46:26.25	85.35	35.31	-43.5	-48.8	9.8	9.85e-03	0	61	0	560988160	57	7054
2026-01-18 22:46:27.26	85.75	35.35	-43.5	-48.7	9.9	1.06e-02	0	61	0	563085312	57	6962
2026-01-18 22:46:28.27	86.16	35.38	-43.4	-48.4	10.2	8.11e-03	0	61	0	565182464	57	6736
2026-01-18 22:46:29.28	86.56	35.42	-43.4	-48.6	10.0	7.31e-03	0	61	0	567279616	57	6891
2026-01-18 22:46:30.28	86.96	35.45	-43.6	-48.9	9.6	1.10e-02	0	61	0	568328192	57	7190
2026-01-18 22:46:31.29	87.37	35.48	-43.7	-49.3	9.2	1.43e-02	0	61	0	570425344	57	7465
2026-01-18 22:46:32.30	87.77	35.52	-43.8	-49.6	8.9	2.35e-02	0	61	0	572522496	58	7337
2026-01-18 22:46:33.32	88.18	35.55	-43.7	-49.4	9.1	2.38e-02	0	61	0	574619648	58	7131
2026-01-18 22:46:34.32	88.59	35.57	-43.7	-49.3	9.2	2.12e-02	0	61	0	576716800	58	7076
2026-01-18 22:46:35.33	88.99	35.60	-43.7	-49.3	9.3	1.98e-02	0	61	0	577765376	58	7046
2026-01-18 22:46:36.34	89.40	35.62	-43.7	-49.1	9.4	1.92e-02	0	61	0	579862528	58	6938
2026-01-18 22:46:37.35	89.81	35.65	-43.8	-49.5	9.0	1.78e-02	0	61	0	581959680	58	7219
2026-01-18 22:46:38.37	90.23	35.67	-43.8	-49.5	9.0	2.45e-02	0	61	0	584056832	58	7259
2026-01-18 22:46:39.37	90.63	35.69	-43.9	-49.7	8.8	3.07e-02	0	61	0	586153984	58	7444
2026-01-18 22:46:40.38	91.05	35.71	-43.9	-49.8	8.8	3.27e-02	0	61	0	587202560	58	7485
2026-01-18 22:46:41.39	91.46	35.72	-43.8	-49.5	9.0	2.69e-02	0	61	0	589299712	58	7240
2026-01-18 22:46:42.40	91.87	35.74	-43.7	-49.1	9.4	2.03e-02	0	61	0	591396864	58	6920
2026-01-18 22:46:43.41	92.28	35.75	-43.6	-48.9	9.6	1.42e-02	0	61	0	593494016	58	6781
2026-01-18 22:46:44.42	92.69	35.76	-43.5	-48.8	9.8	1.20e-02	0	61	0	595591168	58	6661
2026-01-18 22:46:45.43	93.11	35.77	-43.5	-48.6	10.0	8.30e-03	0	61	0	596639744	58	6509
2026-01-18 22:46:46.44	93.52	35.78	-43.4	-48.4	10.2	6.45e-03	0	61	0	598736896	58	6372
2026-01-18 22:46:47.45	93.93	35.79	-43.4	-48.2	10.3	6.06e-03	0	61	0	600834048	58	6274
2026-01-18 22:46:48.45	94.34	35.79	-43.4	-48.4	10.2	5.82e-03	0	61	0	602931200	58	6414
2026-01-18 22:46:49.46	94.76	35.80	-43.5	-48.7	10.0	7.88e-03	0	61	0	605028352	58	6575
2026-01-18 22:46:50.47	95.17	35.80	-43.5	-48.7	9.9	9.07e-03	0	61	0	606076928	58	6615
2026-01-18 22:46:51.49	95.59	35.80	-43.4	-48.5	10.1	8.08e-03	0	61	0	608174080	58	6468
2026-01-18 22:46:52.49	96.00	35.80	-43.4	-48.3	10.3	6.11e-03	0	61	0	610271232	58	6299
2026-01-18 22:46:53.50	96.41	35.79	-43.2	-47.8	10.8	3.80e-03	0	61	0	612368384	58	5992
2026-01-18 22:46:54.51	96.83	35.79	-43.1	-47.6	11.0	2.05e-03	0	61	0	614465536	58	5854
2026-01-18 22:46:55.52	97.24	35.78	-43.1	-47.7	10.9	1.80e-03	0	61	0	615514112	58	5904
2026-01-18 22:46:56.53	97.65	35.78	-43.3	-48.2	10.4	3.03e-03	0	61	0	617611264	58	6242
2026-01-18 22:46:57.54	98.07	35.77	-43.5	-48.6	10.0	8.24e-03	0	61	0	619708416	58	6546
2026-01-18 22:46:58.55	98.48	35.75	-43.6	-48.9	9.7	1.16e-02	0	61	0	621805568	58	6783
2026-01-18 22:46:59.56	98.89	35.74	-43.5	-48.5	10.1	8.68e-03	0	61	0	623902720	58	6464
2026-01-18 22:47:00.57	99.31	35.73	-43.2	-47.8	10.8	4.55e-03	0	61	0	625999872	58	5968
2026-01-18 22:47:01.58	99.72	35.71	-43.1	-47.5	11.2	1.72e-03	0	61	0	627048448	58	5762
2026-01-18 22:47:02.59	100.13	35.69	-43.1	-47.6	11.1	1.42e-03	0	62	0	629145600	58	5823
2026-01-18 22:47:03.60	100.54	35.67	-43.3	-48.0	10.6	2.09e-03	0	61	0	631242752	58	6113
2026-01-18 22:47:04.60	100.95	35.65	-43.4	-48.5	10.2	5.06e-03	0	61	0	633339904	58	6427
2026-01-18 22:47:05.61	101.36	35.63	-43.6	-49.0	9.6	1.08e-02	0	62	0	635437056	58	6826
2026-01-18 22:47:06.62	101.77	35.61	-43.9	-49.7	8.9	1.95e-02	0	61	0	636485632	58	7413
2026-01-18 22:47:07.63	102.18	35.58	-44.0	-50.1	8.5	3.82e-02	0	61	0	638582784	58	7753
2026-01-18 22:47:08.64	102.58	35.55	-44.0	-50.2	8.3	4.50e-02	0	61	0	640679936	58	7885
2026-01-18 22:47:09.65	102.99	35.52	-44.2	-50.7	7.9	5.85e-02	0	61	0	642777088	58	8315
2026-01-18 22:47:10.66	103.40	35.49	-44.3	-51.2	7.4	1.10e-01	0	62	0	644874240	59	8330
2026-01-18 22:47:11.67	103.80	35.46	-44.3	-51.5	7.0	1.37e-01	0	61	0	645922816	59	8645
2026-01-18 22:47:12.69	104.21	35.43	-44.2	-51.0	7.5	1.29e-01	0	62	0	648019968	59	8148
2026-01-18 22:47:13.69	104.61	35.39	-44.0	-50.0	8.5	7.83e-02	0	61	0	650117120	59	7275
2026-01-18 22:47:14.70	105.02	35.36	-43.7	-49.3	9.3	2.45e-02	0	61	0	652214272	59	6713
2026-01-18 22:47:15.71	105.42	35.32	-43.8	-49.4	9.1	1.81e-02	0	61	0	654311424	59	6744
2026-01-18 22:47:16.72	105.82	35.28	-43.8	-49.3	9.2	1.93e-02	0	61	0	655360000	59	6717
2026-01-18 22:47:17.73	106.22	35.24	-43.6	-49.0	9.6	1.52e-02	0	61	0	657457152	59	6477
2026-01-18 22:47:18.74	106.62	35.20	-43.5	-48.8	9.9	1.13e-02	0	61	0	659554304	59	6280
2026-01-18 22:47:19.75	107.02	35.15	-43.5	-48.6	10.0	8.97e-03	0	62	0	661651456	59	6177
2026-01-18 22:47:20.76	107.42	35.11	-43.5	-48.5	10.1	6.91e-03	0	62	0	663748608	58	6451
2026-01-18 22:47:21.77	107.82	35.06	-43.5	-48.7	9.9	7.19e-03	0	61	0	664797184	58	6618
2026-01-18 22:47:22.78	108.21	35.01	-43.7	-49.2	9.4	1.16e-02	0	61	0	666894336	58	7017
2026-01-18 22:47:23.79	108.61	34.96	-43.8	-49.4	9.2	1.89e-02	0	61	0	668991488	58	7145
2026-01-18 22:47:24.80	109.00	34.91	-43.6	-49.0	9.6	1.53e-02	0	61	0	671088640	58	6830
2026-01-18 22:47:25.81	109.39	34.86	-43.4	-48.3	10.3	8.80e-03	0	61	0	673185792	58	6334
2026-01-18 22:47:26.82	109.78	34.80	-43.2	-47.9	10.8	3.58e-03	0	61	0	674234368	58	6033
2026-01-18 22:47:27.83	110.17	34.75	-43.2	-47.9	10.8	2.42e-03	0	61	0	676331520	58	6005
2026-01-18 22:47:28.84	110.56	34.69	-43.3	-48.2	10.4	2.99e-03	0	61	0	678428672	58	6255
2026-01-18 22:47:29.85	110.95	34.63	-43.5	-48.6	10.0	6.01e-03	0	61	0	680525824	58	6537
2026-01-18 22:47:30.86	111.33	34.57	-43.4	-48.5	10.2	7.00e-03	0	62	0	682622976	58	6437
2026-01-18 22:47:31.87	111.72	34.51	-43.2	-47.8	10.8	4.25e-03	0	62	0	683671552	58	5991
2026-01-18 22:47:32.89	112.10	34.45	-43.0	-47.4	11.2	1.70e-03	0	61	0	685768704	58	5698
2026-01-18 22:47:33.89	112.48	34.39	-43.0	-47.3	11.4	1.10e-03	0	62	0	687865856	58	5648
2026-01-18 22:47:34.90	112.86	34.32	-42.9	-47.2	11.5	1.00e-03	0	62	0	689963008	57	5875
2026-01-18 22:47:35.91	113.24	34.26	-42.8	-47.0	11.7	6.71e-04	0	62	0	692060160	57	5768
2026-01-18 22:47:36.92	113.62	34.19	-42.7	-46.8	11.9	4.37e-04	0	62	0	694157312	57	5611
2026-01-18 22:47:37.93	113.99	34.12	-42.7	-46.8	11.9	4.10e-04	0	62	0	695205888	57	5618
2026-01-18 22:47:38.94	114.36	34.05	-42.8	-46.9	11.8	4.03e-04	0	62	0	697303040	57	5705
2026-01-18 22:47:39.95	114.74	33.98	-43.0	-47.4	11.3	9.72e-04	0	62	0	699400192	57	6024
2026-01-18 22:47:40.96	115.11	33.91	-43.2	-47.8	10.9	1.79e-03	0	61	0	701497344	57	6305
2026-01-18 22:47:41.97	115.48	33.84	-43.3	-48.0	10.6	2.72e-03	0	61	0	703594496	57	6462
2026-01-18 22:47:42.98	115.84	33.76	-43.2	-48.0	10.7	3.19e-03	0	62	0	704643072	57	6427
2026-01-18 22:47:43.99	116.21	33.69	-43.1	-47.8	10.9	2.48e-03	0	62	0	706740224	57	6283
2026-01-18 22:47:45.00	116.57	33.61	-43.2	-47.8	10.8	2.17e-03	0	62	0	708837376	57	6331
2026-01-18 22:47:46.01	116.93	33.54	-43.1	-47.8	10.9	1.82e-03	0	62	0	710934528	57	6286
2026-01-18 22:47:47.01	117.29	33.46	-43.2	-48.0	10.6	2.82e-03	0	62	0	713031680	57	6446
2026-01-18 22:47:48.02	117.65	33.38	-43.2	-48.0	10.7	3.11e-03	0	62	0	714080256	57	6426
2026-01-18 22:47:49.03	118.01	33.30	-43.2	-47.8	10.9	2.97e-03	0	62	0	716177408	57	6319
2026-01-18 22:47:50.04	118.36	33.22	-43.0	-47.5	11.2	1.66e-03	0	61	0	718274560	57	6097
2026-01-18 22:47:51.05	118.72	33.13	-43.0	-47.4	11.3	1.23e-03	0	62	0	720371712	57	6050
2026-01-18 22:47:52.06	119.07	33.05	-43.1	-47.8	10.9	1.29e-03	0	61	0	722468864	57	6284
2026-01-18 22:47:53.07	119.42	32.97	-43.4	-48.5	10.2	4.79e-03	0	61	0	723517440	57	6810
2026-01-18 22:47:54.08	119.77	32.88	-43.5	-48.8	9.8	9.31e-03	0	62	0	725614592	57	7061
2026-01-18 22:47:55.09	120.11	32.80	-43.5	-48.7	9.9	1.03e-02	0	61	0	727711744	57	7028
2026-01-18 22:47:56.10	120.46	32.71	-43.4	-48.5	10.2	6.77e-03	0	62	0	729808896	57	6809
2026-01-18 22:47:57.10	120.80	32.62	-43.4	-48.5	10.1	7.37e-03	0	62	0	731906048	57	6868
2026-01-18 22:47:58.11	121.14	32.53	-43.5	-48.8	9.8	7.11e-03	0	62	0	732954624	57	7078
2026-01-18 22:47:59.13	121.48	32.44	-43.8	-49.6	9.0	1.55e-02	0	61	0	735051776	58	7320
2026-01-18 22:48:00.14	121.82	32.35	-44.1	-50.5	8.1	5.33e-02	0	62	0	737148928	58	8138
2026-01-18 22:48:01.15	122.15	32.26	-44.1	-50.5	8.0	7.08e-02	0	61	0	739246080	58	8127
2026-01-18 22:48:02.16	122.49	32.17	-43.9	-49.8	8.7	5.43e-02	0	62	0	741343232	58	7520
2026-01-18 22:48:03.17	122.82	32.08	-43.6	-49.1	9.5	1.73e-02	0	62	0	742391808	58	6901
2026-01-18 22:48:04.17	123.15	31.99	-43.5	-48.8	9.8	1.18e-02	0	62	0	744488960	58	6677
2026-01-18 22:48:05.18	123.48	31.89	-43.6	-48.9	9.7	1.04e-02	0	62	0	746586112	58	6763
2026-01-18 22:48:06.19	123.80	31.80	-43.8	-49.7	8.8	2.45e-02	0	62	0	748683264	58	7451
2026-01-18 22:48:07.20	124.13	31.70	-43.9	-50.0	8.5	4.04e-02	0	62	0	750780416	58	7709
2026-01-18 22:48:08.21	124.45	31.61	-43.8	-49.5	9.0	3.51e-02	0	62	0	751828992	58	7268
2026-01-18 22:48:09.22	124.77	31.51	-43.6	-49.0	9.6	1.44e-02	0	61	0	753926144	58	6823
2026-01-18 22:48:10.23	125.09	31.41	-43.4	-48.4	10.2	8.31e-03	0	62	0	756023296	58	6403
2026-01-18 22:48:11.24	125.41	31.31	-43.5	-48.6	10.0	5.85e-03	0	62	0	758120448	58	6550
2026-01-18 22:48:12.25	125.72	31.21	-43.7	-49.3	9.3	1.49e-02	0	62	0	760217600	58	7050
2026-01-18 22:48:13.26	126.03	31.11	-43.9	-50.0	8.5	3.53e-02	0	61	0	762314752	58	7717
2026-01-18 22:48:14.26	126.34	31.02	-44.1	-50.5	8.0	5.50e-02	0	62	0	763363328	58	8138
2026-01-18 22:48:15.27	126.65	30.92	-44.0	-50.1	8.4	6.61e-02	0	62	0	765460480	58	7770
2026-01-18 22:48:16.28	126.96	30.81	-43.6	-49.1	9.4	2.21e-02	0	62	0	767557632	58	6926
2026-01-18 22:48:17.29	127.26	30.71	-43.6	-49.1	9.5	1.36e-02	0	62	0	769654784	58	6886
2026-01-18 22:48:18.30	127.57	30.61	-43.8	-49.6	9.0	1.80e-02	0	62	0	771751936	58	7334
2026-01-18 22:48:19.31	127.87	30.51	-44.1	-50.6	7.9	5.46e-02	0	61	0	772800512	58	8247
2026-01-18 22:48:20.32	128.17	30.41	-44.2	-51.1	7.5	1.18e-01	0	62	0	774897664	59	8201
2026-01-18 22:48:21.33	128.47	30.30	-43.8	-49.6	9.0	6.56e-02	0	61	0	776994816	59	6899
2026-01-18 22:48:22.34	128.76	30.20	-43.3	-48.2	10.4	6.89e-03	0	61	0	779091968	58	6227
2026-01-18 22:48:23.35	129.06	30.09	-42.9	-47.3	11.4	1.50e-03	0	62	0	781189120	57	5954
2026-01-18 22:48:24.36	129.35	29.99	-43.0	-47.5	11.1	9.35e-04	0	62	0	782237696	57	6082
2026-01-18 22:48:25.37	129.64	29.88	-43.3	-48.2	10.4	2.11e-03	0	62	0	784334848	57	6614
2026-01-18 22:48:26.38	129.93	29.78	-43.6	-49.1	9.4	1.11e-02	0	61	0	786432000	57	7350
2026-01-18 22:48:27.38	130.21	29.67	-43.6	-49.1	9.4	1.87e-02	0	62	0	788529152	57	7326
2026-01-18 22:48:28.40	130.50	29.57	-43.4	-48.5	10.1	1.17e-02	0	62	0	790626304	57	6865
2026-01-18 22:48:29.40	130.78	29.46	-43.4	-48.3	10.2	6.25e-03	0	62	0	791674880	57	6717
2026-01-18 22:48:30.41	131.06	29.35	-43.2	-48.0	10.6	4.06e-03	0	62	0	793772032	57	6460
2026-01-18 22:48:31.42	131.34	29.25	-43.5	-48.7	9.9	5.13e-03	0	62	0	795869184	57	6978
2026-01-18 22:48:32.43	131.62	29.14	-43.9	-49.9	8.6	2.86e-02	0	62	0	797966336	58	7607
2026-01-18 22:48:33.44	131.90	29.03	-44.2	-51.2	7.4	8.15e-02	0	61	0	800063488	58	8795
2026-01-18 22:48:34.45	132.17	28.92	-44.1	-50.8	7.7	1.27e-01	0	61	0	801112064	59	7958
2026-01-18 22:48:35.46	132.44	28.81	-43.7	-49.4	9.2	3.34e-02	0	62	0	803209216	59	6742
2026-01-18 22:48:36.47	132.72	28.70	-43.3	-48.1	10.5	7.42e-03	0	62	0	805306368	58	6182
2026-01-18 22:48:37.48	132.98	28.59	-43.1	-47.6	11.1	2.11e-03	0	62	0	807403520	58	5801
2026-01-18 22:48:38.49	133.25	28.49	-43.2	-47.9	10.7	2.37e-03	0	61	0	809500672	58	6047
2026-01-18 22:48:39.50	133.52	28.38	-43.4	-48.6	10.0	6.10e-03	0	62	0	810549248	58	6514
2026-01-18 22:48:40.51	133.78	28.27	-43.7	-49.3	9.2	1.38e-02	0	62	0	812646400	58	7117
2026-01-18 22:48:41.52	134.04	28.16	-43.6	-49.0	9.5	2.23e-02	0	62	0	814743552	58	6833
2026-01-18 22:48:42.53	134.30	28.05	-43.1	-47.6	10.9	4.30e-03	0	62	0	816840704	58	5848
2026-01-18 22:48:43.54	134.56	27.94	-42.7	-46.7	11.9	8.12e-04	0	62	0	818937856	57	5586
2026-01-18 22:48:44.55	134.82	27.82	-42.6	-46.6	12.0	2.87e-04	0	62	0	819986432	57	5493
2026-01-18 22:48:45.56	135.07	27.71	-42.7	-46.9	11.8	4.61e-04	0	62	0	822083584	57	5681
2026-01-18 22:48:46.56	135.32	27.60	-43.1	-47.8	10.8	1.24e-03	0	62	0	824180736	57	6293
2026-01-18 22:48:47.57	135.57	27.49	-43.5	-48.8	9.7	5.21e-03	0	62	0	826277888	57	7101
2026-01-18 22:48:48.58	135.82	27.38	-43.6	-49.0	9.4	1.56e-02	0	62	0	828375040	57	7287
2026-01-18 22:48:49.59	136.07	27.27	-43.3	-48.3	10.2	9.38e-03	0	62	0	830472192	57	6713
2026-01-18 22:48:50.60	136.32	27.16	-43.0	-47.6	11.0	3.43e-03	0	62	0	831520768	57	6144
2026-01-18 22:48:51.61	136.56	27.05	-42.9	-47.3	11.2	1.33e-03	0	62	0	833617920	57	5980
2026-01-18 22:48:52.62	136.80	26.94	-42.8	-47.1	11.5	8.41e-04	0	62	0	835715072	57	5806
2026-01-18 22:48:53.63	137.04	26.83	-42.9	-47.4	11.2	8.48e-04	0	62	0	837812224	57	6011
2026-01-18 22:48:54.64	137.28	26.71	-43.1	-47.8	10.8	2.45e-03	0	62	0	839909376	57	6317
2026-01-18 22:48:55.65	137.52	26.60	-43.1	-47.8	10.8	2.79e-03	0	62	0	840957952	57	6281
2026-01-18 22:48:56.66	137.76	26.49	-42.8	-47.2	11.4	1.74e-03	0	62	0	843055104	57	5866
2026-01-18 22:48:57.67	137.99	26.38	-42.4	-46.3	12.3	5.82e-04	0	62	0	845152256	56	5637
2026-01-18 22:48:58.67	138.22	26.27	-42.1	-45.7	12.9	7.01e-05	0	62	0	847249408	56	5243
2026-01-18 22:48:59.68	138.46	26.16	-42.1	-45.6	13.1	3.28e-05	0	62	0	849346560	56	5171
2026-01-18 22:49:00.69	138.69	26.04	-42.0	-45.5	13.1	3.20e-05	0	62	0	850395136	56	5156
2026-01-18 22:49:01.71	138.92	25.93	-42.2	-45.8	12.8	4.73e-05	0	62	0	852492288	56	5301
2026-01-18 22:49:02.71	139.14	25.82	-42.3	-46.1	12.5	8.85e-05	0	62	0	854589440	56	5508
2026-01-18 22:49:03.72	139.37	25.71	-42.5	-46.4	12.1	2.01e-04	0	62	0	856686592	56	5714
2026-01-18 22:49:04.73	139.59	25.60	-42.4	-46.4	12.3	2.81e-04	0	62	0	858783744	56	5659
2026-01-18 22:49:05.74	139.81	25.48	-42.2	-45.8	12.8	9.23e-05	0	62	0	859832320	56	5312
2026-01-18 22:49:06.75	140.03	25.37	-41.7	-45.1	13.3	3.28e-05	0	62	0	861929472	55	5206
2026-01-18 22:49:07.76	140.25	25.26	-41.7	-45.1	13.4	1.37e-05	0	62	0	864026624	55	5189
2026-01-18 22:49:08.77	140.47	25.15	-41.6	-44.9	13.6	1.60e-05	0	62	0	866123776	55	5081
2026-01-18 22:49:09.78	140.68	25.04	-41.6	-44.8	13.6	7.60e-06	0	62	0	868220928	55	5034
2026-01-18 22:49:10.79	140.90	24.93	-41.8	-45.2	13.3	7.60e-06	0	62	0	869269504	55	5254
2026-01-18 22:49:11.80	141.11	24.81	-42.0	-45.6	12.9	3.66e-05	0	61	0	871366656	55	5471
2026-01-18 22:49:12.81	141.32	24.70	-42.0	-45.6	12.8	5.34e-05	0	62	0	873463808	55	5512
2026-01-18 22:49:13.82	141.53	24.59	-42.0	-45.6	12.8	5.03e-05	0	62	0	875560960	55	5504
2026-01-18 22:49:14.83	141.74	24.48	-41.9	-45.5	13.0	5.64e-05	0	62	0	877658112	55	5420
2026-01-18 22:49:15.84	141.95	24.37	-41.6	-45.0	13.5	1.98e-05	0	62	0	878706688	55	5115
2026-01-18 22:49:16.84	142.15	24.26	-41.5	-44.7	13.8	5.30e-06	0	62	0	880803840	55	4963
2026-01-18 22:49:17.85	142.36	24.15	-41.5	-44.7	13.8	3.00e-06	0	62	0	882900992	55	4971
2026-01-18 22:49:18.86	142.56	24.04	-41.4	-44.6	13.9	2.20e-06	0	62	0	884998144	54	5160
2026-01-18 22:49:19.87	142.76	23.92	-41.4	-44.6	13.9	4.50e-06	0	62	0	887095296	54	5193
2026-01-18 22:49:20.88	142.96	23.81	-41.7	-45.0	13.5	1.14e-05	0	62	0	888143872	54	5416
2026-01-18 22:49:21.89	143.16	23.70	-41.7	-45.1	13.3	1.37e-05	0	62	0	890241024	54	5527
2026-01-18 22:49:22.90	143.36	23.59	-41.7	-45.1	13.3	2.05e-05	0	62	0	892338176	54	5468
2026-01-18 22:49:23.91	143.55	23.48	-41.5	-44.7	13.7	1.14e-05	0	62	0	894435328	54	5276
2026-01-18 22:49:24.92	143.75	23.37	-41.4	-44.6	13.8	6.10e-06	0	61	0	896532480	54	5193
2026-01-18 22:49:25.93	143.94	23.26	-41.3	-44.4	14.0	3.00e-06	0	62	0	898629632	54	5078
2026-01-18 22:49:26.94	144.14	23.15	-41.3	-44.3	14.1	2.20e-06	0	62	0	899678208	54	5034
2026-01-18 22:49:27.95	144.33	23.04	-41.2	-44.2	14.3	2.20e-06	0	62	0	901775360	54	4935
2026-01-18 22:49:28.96	144.52	22.93	-41.2	-44.3	14.2	1.50e-06	0	61	0	903872512	54	5004
2026-01-18 22:49:29.97	144.70	22.82	-41.5	-44.7	13.8	2.20e-06	0	61	0	905969664	54	5242
2026-01-18 22:49:30.98	144.89	22.71	-41.7	-45.0	13.4	2.20e-06	0	62	0	908066816	54	5446
2026-01-18 22:49:31.99	145.08	22.60	-41.8	-45.2	13.2	2.21e-05	0	62	0	909115392	54	5573
2026-01-18 22:49:33.00	145.26	22.49	-41.8	-45.4	13.1	3.58e-05	0	62	0	911212544	54	5664
2026-01-18 22:49:34.01	145.44	22.39	-41.7	-45.1	13.4	2.36e-05	0	62	0	913309696	54	5468
2026-01-18 22:49:35.02	145.63	22.28	-41.5	-44.7	13.7	1.22e-05	0	62	0	915406848	54	5266
2026-01-18 22:49:36.03	145.81	22.17	-41.4	-44.6	13.9	6.80e-06	0	62	0	917504000	54	5176
2026-01-18 22:49:37.04	145.99	22.06	-41.3	-44.4	14.0	7.00e-07	0	61	0	918552576	54	5088
2026-01-18 22:49:38.05	146.16	21.95	-41.3	-44.4	14.1	2.20e-06	0	62	0	920649728	54	5076
2026-01-18 22:49:39.06	146.34	21.84	-41.4	-44.5	13.9	3.00e-06	0	62	0	922746880	54	5158
2026-01-18 22:49:40.07	146.52	21.74	-41.5	-44.7	13.7	4.50e-06	0	62	0	924844032	54	5250
2026-01-18 22:49:41.08	146.69	21.63	-41.5	-44.8	13.6	5.30e-06	0	61	0	926941184	54	5325
2026-01-18 22:49:42.09	146.86	21.52	-41.7	-45.1	13.3	1.52e-05	0	62	0	927989760	54	5514
2026-01-18 22:49:43.10	147.04	21.41	-41.7	-45.2	13.2	2.44e-05	0	62	0	930086912	54	5568
2026-01-18 22:49:44.11	147.21	21.31	-41.6	-45.0	13.4	8.30e-06	0	62	0	932184064	54	5422
2026-01-18 22:49:45.12	147.38	21.20	-41.6	-44.9	13.5	1.14e-05	0	62	0	934281216	54	5378
2026-01-18 22:49:46.12	147.55	21.09	-41.5	-44.8	13.6	1.22e-05	0	62	0	936378368	54	5306
2026-01-18 22:49:47.13	147.71	20.99	-41.6	-45.0	13.4	7.60e-06	0	62	0	937426944	54	5438
2026-01-18 22:49:48.14	147.88	20.88	-41.7	-45.1	13.3	1.44e-05	0	62	0	939524096	54	5511
2026-01-18 22:49:49.16	148.05	20.77	-41.8	-45.3	13.1	2.82e-05	0	61	0	941621248	54	5615
2026-01-18 22:49:50.16	148.21	20.67	-41.8	-45.4	13.0	2.51e-05	0	61	0	943718400	54	5693
2026-01-18 22:49:51.17	148.37	20.56	-41.9	-45.5	12.8	5.79e-05	0	62	0	945815552	54	5784
2026-01-18 22:49:52.18	148.54	20.46	-42.0	-45.7	12.7	5.64e-05	0	62	0	946864128	54	5872
2026-01-18 22:49:53.19	148.70	20.35	-42.0	-45.7	12.7	1.01e-04	0	62	0	948961280	54	5877
2026-01-18 22:49:54.20	148.86	20.25	-41.9	-45.5	12.9	5.87e-05	0	61	0	951058432	54	5742
2026-01-18 22:49:55.21	149.02	20.14	-41.9	-45.5	12.9	3.89e-05	0	62	0	953155584	54	5764
2026-01-18 22:49:56.22	149.17	20.04	-41.8	-45.4	12.9	5.72e-05	0	62	0	955252736	54	5687
2026-01-18 22:49:57.23	149.33	19.93	-41.8	-45.3	13.0	3.73e-05	0	62	0	956301312	54	5626
2026-01-18 22:49:58.24	149.49	19.83	-41.8	-45.4	12.9	2.74e-05	0	62	0	958398464	54	5694
2026-01-18 22:49:59.25	149.64	19.73	-41.7	-45.2	13.2	4.34e-05	0	62	0	960495616	54	5563
2026-01-18 22:50:00.26	149.79	19.62	-41.9	-45.5	12.9	3.96e-05	0	62	0	962592768	54	5730
2026-01-18 22:50:01.27	149.95	19.52	-42.0	-45.8	12.6	6.02e-05	0	62	0	964689920	54	5941
2026-01-18 22:50:02.28	150.10	19.42	-42.1	-46.0	12.3	1.45e-04	0	62	0	966787072	54	6106
2026-01-18 22:50:03.29	150.25	19.31	-42.2	-46.2	12.1	2.41e-04	0	62	0	967835648	55	5877
2026-01-18 22:50:04.30	150.40	19.21	-42.4	-46.5	11.7	4.77e-04	0	62	0	969932800	55	6113
2026-01-18 22:50:05.31	150.55	19.11	-42.3	-46.5	11.8	5.00e-04	0	62	0	972029952	55	6062
2026-01-18 22:50:06.32	150.70	19.01	-42.3	-46.4	11.9	3.45e-04	0	62	0	974127104	55	5994
2026-01-18 22:50:07.33	150.84	18.90	-42.2	-46.1	12.2	2.15e-04	0	62	0	976224256	55	5836
2026-01-18 22:50:08.34	150.99	18.80	-42.1	-45.9	12.4	2.22e-04	0	62	0	977272832	55	5712
2026-01-18 22:50:09.35	151.13	18.70	-42.2	-46.1	12.2	2.08e-04	0	62	0	979369984	55	5821
2026-01-18 22:50:10.36	151.28	18.60	-42.2	-46.2	12.1	2.88e-04	0	62	0	981467136	55	5906
2026-01-18 22:50:11.37	151.42	18.50	-42.3	-46.4	11.9	3.23e-04	0	62	0	983564288	55	6021
2026-01-18 22:50:12.38	151.56	18.40	-42.4	-46.6	11.7	5.67e-04	0	62	0	985661440	55	6159
2026-01-18 22:50:13.39	151.71	18.30	-42.5	-46.9	11.4	9.94e-04	0	62	0	986710016	55	6372
2026-01-18 22:50:14.40	151.85	18.20	-42.7	-47.3	10.9	1.50e-03	0	62	0	988807168	55	6666
2026-01-18 22:50:15.41	151.99	18.10	-42.9	-47.7	10.7	2.15e-03	0	62	0	990904320	56	6581
2026-01-18 22:50:16.42	152.12	18.00	-42.9	-47.5	10.9	2.53e-03	0	62	0	993001472	56	6484
2026-01-18 22:50:17.43	152.26	17.90	-42.8	-47.4	11.0	2.68e-03	0	62	0	995098624	56	6355
2026-01-18 22:50:18.44	152.40	17.80	-42.7	-47.1	11.2	1.66e-03	0	61	0	996147200	56	6174
2026-01-18 22:50:19.45	152.54	17.70	-42.5	-46.8	11.6	7.62e-04	0	62	0	998244352	56	5951
2026-01-18 22:50:20.46	152.67	17.60	-42.5	-46.7	11.7	6.34e-04	0	62	0	1000341504	56	5909
2026-01-18 22:50:21.47	152.80	17.50	-42.4	-46.5	11.9	5.40e-04	0	62	0	1002438656	56	5756
2026-01-18 22:50:22.48	152.94	17.40	-42.3	-46.3	12.1	2.81e-04	0	61	0	1004535808	56	5629
2026-01-18 22:50:23.48	153.07	17.31	-42.3	-46.3	12.1	2.42e-04	0	61	0	1005584384	56	5625
2026-01-18 22:50:24.49	153.20	17.21	-42.3	-46.3	12.2	2.76e-04	0	62	0	1007681536	56	5594
2026-01-18 22:50:25.50	153.33	17.11	-42.4	-46.5	11.9	2.91e-04	0	62	0	1009778688	56	5754
2026-01-18 22:50:26.51	153.46	17.01	-42.5	-46.6	11.8	5.00e-04	0	62	0	1011875840	56	5851
2026-01-18 22:50:27.52	153.59	16.92	-42.6	-46.9	11.4	5.97e-04	0	62	0	1013972992	56	6054
2026-01-18 22:50:28.53	153.72	16.82	-42.6	-47.0	11.4	9.19e-04	0	62	0	1015021568	56	6080
2026-01-18 22:50:29.54	153.85	16.72	-42.6	-47.0	11.3	1.07e-03	0	62	0	1017118720	56	6103
2026-01-18 22:50:30.55	153.98	16.63	-42.7	-47.1	11.2	1.44e-03	0	62	0	1019215872	56	6187
2026-01-18 22:50:31.56	154.10	16.53	-42.7	-47.3	11.1	1.32e-03	0	62	0	1021313024	56	6287
2026-01-18 22:50:32.57	154.23	16.44	-42.6	-47.0	11.3	1.38e-03	0	62	0	1023410176	56	6108
2026-01-18 22:50:33.58	154.35	16.34	-42.6	-47.0	11.3	1.25e-03	0	61	0	1024458752	56	6080
2026-01-18 22:50:34.59	154.48	16.24	-42.6	-46.9	11.4	8.97e-04	0	62	0	1026555904	56	6025
2026-01-18 22:50:35.60	154.60	16.15	-42.6	-46.9	11.4	8.78e-04	0	62	0	1028653056	56	6012
2026-01-18 22:50:36.61	154.72	16.05	-42.5	-46.8	11.6	7.60e-04	0	61	0	1030750208	56	5942
2026-01-18 22:50:37.62	154.84	15.96	-42.5	-46.8	11.5	7.26e-04	0	62	0	1032847360	56	5957
2026-01-18 22:50:38.63	154.96	15.87	-42.5	-46.8	11.5	7.66e-04	0	61	0	1033895936	56	5957
2026-01-18 22:50:39.64	155.08	15.77	-42.5	-46.9	11.4	8.77e-04	0	62	0	1035993088	56	5994
2026-01-18 22:50:40.65	155.20	15.68	-42.4	-46.5	11.8	7.92e-04	0	62	0	1038090240	56	5751
2026-01-18 22:50:41.65	155.32	15.58	-42.4	-46.6	11.8	5.15e-04	0	62	0	1040187392	56	5797
2026-01-18 22:50:42.66	155.44	15.49	-42.4	-46.6	11.6	7.21e-04	0	62	0	1042284544	56	5847
2026-01-18 22:50:43.67	155.56	15.40	-42.5	-46.7	11.6	6.02e-04	0	62	0	1043333120	56	5891
2026-01-18 22:50:44.68	155.67	15.31	-42.5	-46.9	11.4	7.51e-04	0	62	0	1045430272	56	6023
2026-01-18 22:50:45.69	155.79	15.21	-42.5	-46.9	11.4	1.04e-03	0	62	0	1047527424	56	6040
2026-01-18 22:50:46.70	155.90	15.12	-42.6	-47.0	11.3	1.16e-03	0	61	0	1049624576	56	6093
2026-01-18 22:50:47.71	156.02	15.03	-42.6	-47.1	11.1	1.39e-03	0	62	0	1051721728	56	6191
2026-01-18 22:50:48.72	156.13	14.94	-42.5	-46.9	11.3	1.34e-03	0	62	0	1052770304	56	6035
2026-01-18 22:50:49.73	156.25	14.84	-42.5	-46.9	11.3	1.26e-03	0	62	0	1054867456	56	6051
2026-01-18 22:50:50.74	156.36	14.75	-42.6	-47.0	11.2	1.34e-03	0	62	0	1056964608	56	6126
2026-01-18 22:50:51.75	156.47	14.66	-42.5	-46.9	11.3	1.05e-03	0	62	0	1059061760	56	6014
2026-01-18 22:50:52.76	156.58	14.57	-42.4	-46.7	11.5	9.64e-04	0	61	0	1061158912	56	5893
2026-01-18 22:50:53.77	156.69	14.48	-42.4	-46.6	11.7	8.16e-04	0	62	0	1063256064	56	5810
2026-01-18 22:50:54.78	156.80	14.39	-42.4	-46.6	11.7	6.43e-04	0	62	0	1064304640	56	5814
2026-01-18 22:50:55.79	156.91	14.30	-42.4	-46.6	11.7	6.74e-04	0	61	0	1066401792	56	5797
2026-01-18 22:50:56.80	157.02	14.21	-42.4	-46.6	11.6	6.91e-04	0	62	0	1068498944	56	5838
2026-01-18 22:50:57.80	157.13	14.12	-42.4	-46.6	11.6	6.49e-04	0	62	0	1070596096	56	5842
2026-01-18 22:50:58.81	157.23	14.03	-42.4	-46.7	11.5	7.52e-04	0	62	0	1072693248	56	5865
2026-01-18 22:50:59.82	157.34	13.94	-42.4	-46.7	11.5	8.41e-04	0	62	0	1073741824	56	5886
2026-01-18 22:51:00.83	157.45	13.85	-42.5	-46.8	11.3	9.49e-04	0	62	0	1075838976	56	5983
2026-01-18 22:51:01.84	157.55	13.76	-42.5	-46.9	11.3	1.26e-03	0	62	0	1077936128	56	6023
2026-01-18 22:51:02.85	157.66	13.68	-42.6	-47.1	11.1	1.39e-03	0	62	0	1080033280	56	6144
2026-01-18 22:51:03.86	157.76	13.59	-42.6	-47.3	10.9	2.21e-03	0	62	0	1082130432	56	6277
2026-01-18 22:51:04.87	157.86	13.50	-42.7	-47.3	10.8	2.36e-03	0	62	0	1083179008	56	6347
2026-01-18 22:51:05.88	157.97	13.41	-42.7	-47.4	10.8	2.70e-03	0	62	0	1085276160	56	6358
2026-01-18 22:51:06.89	158.07	13.32	-42.7	-47.5	10.6	3.05e-03	0	62	0	1087373312	56	6466
2026-01-18 22:51:07.90	158.17	13.24	-42.7	-47.5	10.6	3.57e-03	0	61	0	1089470464	56	6443
2026-01-18 22:51:08.91	158.27	13.15	-42.8	-47.7	10.4	4.38e-03	0	62	0	1091567616	56	6581
2026-01-18 22:51:09.92	158.37	13.06	-42.7	-47.5	10.5	4.25e-03	0	62	0	1092616192	56	6459
2026-01-18 22:51:10.93	158.47	12.98	-42.7	-47.6	10.5	3.42e-03	0	62	0	1094713344	56	6499
2026-01-18 22:51:11.94	158.57	12.89	-42.7	-47.5	10.6	3.21e-03	0	62	0	1096810496	56	6421
2026-01-18 22:51:12.95	158.67	12.80	-42.6	-47.3	10.7	2.79e-03	0	61	0	1098907648	56	6324
2026-01-18 22:51:13.96	158.77	12.72	-42.6	-47.3	10.7	2.60e-03	0	61	0	1101004800	56	6303
2026-01-18 22:51:14.97	158.87	12.63	-42.6	-47.2	10.8	2.81e-03	0	62	0	1102053376	56	6260
2026-01-18 22:51:15.98	158.97	12.55	-42.6	-47.2	10.8	2.28e-03	0	62	0	1104150528	56	6244
2026-01-18 22:51:16.99	159.06	12.46	-42.5	-47.1	11.0	2.06e-03	0	62	0	1106247680	56	6155
2026-01-18 22:51:18.00	159.16	12.38	-42.5	-47.0	11.0	1.84e-03	0	62	0	1108344832	56	6100
2026-01-18 22:51:19.00	159.25	12.29	-42.5	-47.1	10.9	1.70e-03	0	62	0	1110441984	56	6172
2026-01-18 22:51:20.01	159.35	12.21	-42.5	-47.1	10.9	2.10e-03	0	62	0	1111490560	56	6192
2026-01-18 22:51:21.02	159.44	12.12	-42.6	-47.2	10.8	2.28e-03	0	62	0	1113587712	56	6236
2026-01-18 22:51:22.03	159.54	12.04	-42.5	-47.2	10.8	2.42e-03	0	62	0	1115684864	56	6214
2026-01-18 22:51:23.04	159.63	11.95	-42.5	-47.1	10.9	2.34e-03	0	62	0	1117782016	56	6182
2026-01-18 22:51:24.05	159.73	11.87	-42.5	-47.2	10.8	2.23e-03	0	62	0	1119879168	56	6207
2026-01-18 22:51:25.06	159.82	11.79	-42.5	-47.2	10.8	2.68e-03	0	62	0	1120927744	56	6225
2026-01-18 22:51:26.07	159.91	11.70	-42.5	-47.2	10.7	3.06e-03	0	62	0	1123024896	56	6271
2026-01-18 22:51:27.08	160.00	11.62	-42.6	-47.5	10.4	3.79e-03	0	61	0	1125122048	56	6450
2026-01-18 22:51:28.09	160.09	11.54	-42.6	-47.4	10.5	4.92e-03	0	62	0	1127219200	56	6368
2026-01-18 22:51:29.10	160.18	11.46	-42.6	-47.4	10.5	3.66e-03	0	62	0	1129316352	56	6369
2026-01-18 22:51:30.11	160.27	11.37	-42.6	-47.5	10.4	5.24e-03	0	62	0	1131413504	56	6444
2026-01-18 22:51:31.12	160.36	11.29	-42.6	-47.5	10.4	4.25e-03	0	62	0	1132462080	56	6454
2026-01-18 22:51:32.13	160.45	11.21	-42.6	-47.6	10.3	5.51e-03	0	62	0	1134559232	56	6515
2026-01-18 22:51:33.14	160.54	11.13	-42.6	-47.6	10.2	5.31e-03	0	62	0	1136656384	56	6540
2026-01-18 22:51:34.15	160.63	11.05	-42.7	-47.7	10.1	6.06e-03	0	61	0	1138753536	56	6638
2026-01-18 22:51:35.16	160.72	10.96	-42.7	-47.7	10.0	7.19e-03	0	62	0	1140850688	56	6633
2026-01-18 22:51:36.17	160.81	10.88	-42.7	-47.8	10.0	8.17e-03	0	62	0	1141899264	56	6693
2026-01-18 22:51:37.18	160.89	10.80	-42.7	-47.7	10.1	7.25e-03	0	62	0	1143996416	56	6632
