passes_logs/2026/01/18/R2.0S_Moscow/R2.0S_Moscow__20260118_121349_AQUA_rec.log

#Pass ID: 20260118_121349_AQUA
#Satellite: AQUA
#Configuration: AQUA
#almurnet v.1.7.20251203
#Start time: 2026-01-18 12:13:50

#Version: 2.2.20231116
#Station: R2.0S_Moscow
#Location: 37.707566 lon 55.798166 lat
#TLE: 1 27424U 02022A   26017.29152041  .00000842  00000+0  17841-3 0  9992
#TLE: 2 27424  98.4085 343.7574 0002011  75.4099  30.6811 14.61825797261228

#Time	Az	El	Level	Level2	SNR	BER	BlckErr	Temp	State	Recorded	gain1	gain2
2026-01-18 12:13:50.37	178.76	2.09	-45.1	-63.7	3.8	7.46e-01	0	52	0	0	62	29377
2026-01-18 12:13:51.38	178.79	2.16	-45.0	-63.7	3.8	7.48e-01	0	52	104	0	60	32958
2026-01-18 12:13:52.39	178.82	2.22	-45.0	-63.6	3.8	7.47e-01	0	52	104	0	60	32906
2026-01-18 12:13:53.40	178.86	2.29	-45.0	-63.6	3.8	7.45e-01	0	52	104	0	60	32857
2026-01-18 12:13:54.41	178.89	2.36	-45.0	-63.6	3.8	7.50e-01	0	52	104	0	60	32874
2026-01-18 12:13:55.42	178.92	2.42	-45.0	-63.6	3.8	7.43e-01	0	52	104	0	60	32786
2026-01-18 12:13:56.43	178.96	2.49	-45.0	-63.6	3.8	7.44e-01	0	53	104	0	60	32761
2026-01-18 12:13:57.44	178.99	2.56	-45.0	-63.6	3.8	7.46e-01	0	53	104	0	60	32866
2026-01-18 12:13:58.45	179.03	2.63	-45.0	-63.6	3.8	7.46e-01	0	53	104	0	60	32884
2026-01-18 12:13:59.46	179.06	2.69	-45.0	-63.6	3.8	7.45e-01	0	53	104	0	60	32910
2026-01-18 12:14:00.47	179.10	2.76	-45.0	-63.6	3.8	7.45e-01	0	53	104	0	60	32911
2026-01-18 12:14:01.48	179.13	2.83	-45.0	-63.6	3.8	7.45e-01	0	53	104	0	60	32864
2026-01-18 12:14:02.50	179.17	2.90	-45.0	-63.6	3.8	7.47e-01	0	53	104	0	60	32865
2026-01-18 12:14:03.51	179.20	2.97	-45.0	-63.6	3.8	7.46e-01	0	53	104	0	60	32862
2026-01-18 12:14:04.52	179.24	3.03	-45.0	-63.6	3.8	7.52e-01	0	53	104	0	60	32866
2026-01-18 12:14:05.53	179.27	3.10	-45.0	-63.6	3.8	7.47e-01	0	53	104	0	60	32739
2026-01-18 12:14:06.54	179.31	3.17	-45.0	-63.6	3.8	7.45e-01	0	53	104	0	60	32770
2026-01-18 12:14:07.55	179.35	3.24	-45.0	-63.6	3.8	7.46e-01	0	53	104	0	60	32790
2026-01-18 12:14:08.56	179.38	3.31	-45.0	-63.6	3.8	7.43e-01	0	54	104	0	60	32801
2026-01-18 12:14:09.57	179.42	3.38	-45.0	-63.6	3.8	7.46e-01	0	53	104	0	60	32793
2026-01-18 12:14:10.58	179.46	3.45	-45.0	-63.6	3.8	7.44e-01	0	53	104	0	60	32679
2026-01-18 12:14:11.59	179.49	3.52	-45.0	-63.6	3.8	7.45e-01	0	53	104	0	60	32770
2026-01-18 12:14:12.61	179.53	3.59	-45.0	-63.6	3.8	7.43e-01	0	54	104	0	60	32759
2026-01-18 12:14:13.62	179.57	3.66	-45.0	-63.6	3.8	7.43e-01	0	54	104	0	60	32644
2026-01-18 12:14:14.63	179.60	3.73	-45.0	-63.6	3.8	7.44e-01	0	54	104	0	60	32665
2026-01-18 12:14:15.64	179.64	3.80	-45.0	-63.5	3.8	7.45e-01	0	54	104	0	60	32517
2026-01-18 12:14:16.65	179.68	3.87	-45.0	-63.6	3.8	7.46e-01	0	54	104	0	60	32679
2026-01-18 12:14:17.66	179.72	3.94	-45.0	-63.6	3.8	7.44e-01	0	54	104	0	60	32696
2026-01-18 12:14:18.67	179.75	4.01	-45.0	-63.5	3.8	7.43e-01	0	54	104	0	60	32525
2026-01-18 12:14:19.68	179.79	4.08	-45.0	-63.6	3.8	7.45e-01	0	54	104	0	60	32576
2026-01-18 12:14:20.69	179.83	4.16	-45.0	-63.5	3.8	7.46e-01	0	54	104	0	60	32508
2026-01-18 12:14:21.71	179.87	4.23	-45.0	-63.3	3.8	7.47e-01	0	54	104	0	60	31753
2026-01-18 12:14:22.72	179.91	4.30	-45.0	-63.4	3.8	7.44e-01	0	54	104	0	60	31981
2026-01-18 12:14:23.73	179.95	4.37	-45.0	-63.4	3.8	7.44e-01	0	54	104	0	60	32164
2026-01-18 12:14:24.74	179.99	4.44	-45.0	-63.5	3.8	7.45e-01	0	54	104	0	60	32272
2026-01-18 12:14:25.75	180.03	4.52	-45.0	-63.1	3.8	7.44e-01	0	54	104	0	60	30859
2026-01-18 12:14:26.76	180.07	4.59	-45.0	-63.2	3.8	7.47e-01	0	55	104	0	60	31435
2026-01-18 12:14:27.77	180.11	4.66	-45.0	-63.3	3.8	7.46e-01	0	54	104	0	60	31723
2026-01-18 12:14:28.78	180.15	4.74	-45.0	-63.2	3.8	7.44e-01	0	55	104	0	60	31361
2026-01-18 12:14:29.79	180.19	4.81	-45.0	-62.9	3.8	7.47e-01	0	55	104	0	60	30047
2026-01-18 12:14:30.80	180.23	4.88	-45.0	-62.4	3.8	7.45e-01	0	55	104	0	60	28426
2026-01-18 12:14:31.81	180.27	4.96	-45.0	-62.0	3.8	7.43e-01	0	55	104	0	60	27150
2026-01-18 12:14:32.82	180.31	5.03	-44.9	-60.9	3.9	7.39e-01	0	55	104	0	60	23868
2026-01-18 12:14:33.83	180.35	5.10	-44.9	-59.8	4.2	7.32e-01	0	55	104	0	60	21171
2026-01-18 12:14:34.85	180.39	5.18	-44.8	-58.5	4.5	7.17e-01	0	55	104	0	60	18229
2026-01-18 12:14:35.86	180.43	5.25	-44.8	-57.3	5.4	6.97e-01	39	55	0	0	60	15818
2026-01-18 12:14:36.87	180.47	5.33	-44.7	-56.1	6.3	6.78e-01	92	55	0	1572864	60	13820
2026-01-18 12:14:37.88	180.52	5.40	-44.5	-54.3	8.0	6.45e-01	88	55	0	3145728	60	11173
2026-01-18 12:14:38.89	180.56	5.48	-44.5	-54.5	7.8	6.49e-01	91	55	0	5242880	60	11500
2026-01-18 12:14:39.90	180.60	5.56	-44.4	-53.8	8.4	6.39e-01	19	55	0	6815744	60	10636
2026-01-18 12:14:40.91	180.64	5.63	-44.4	-53.8	8.6	6.42e-01	14	55	0	8912896	60	10638
2026-01-18 12:14:41.92	180.68	5.71	-44.4	-53.4	9.0	6.35e-01	0	55	0	11010048	60	10101
2026-01-18 12:14:42.93	180.73	5.78	-44.3	-53.0	9.3	6.32e-01	0	55	0	12582912	60	9670
2026-01-18 12:14:43.94	180.77	5.86	-44.0	-51.7	10.6	6.18e-01	0	55	0	14680064	60	8325
2026-01-18 12:14:44.95	180.81	5.94	-44.2	-52.3	10.1	6.24e-01	0	55	0	16777216	60	8947
2026-01-18 12:14:45.96	180.86	6.01	-44.1	-51.9	10.5	6.24e-01	0	55	0	18350080	60	8537
2026-01-18 12:14:46.97	180.90	6.09	-44.3	-51.4	11.1	6.18e-01	0	55	0	20447232	59	8518
2026-01-18 12:14:47.98	180.95	6.17	-44.3	-52.2	10.6	6.19e-01	0	56	0	22020096	59	9293
2026-01-18 12:14:49.00	180.99	6.25	-44.3	-51.9	10.9	6.18e-01	0	56	0	24117248	59	9006
2026-01-18 12:14:50.00	181.03	6.32	-44.4	-52.7	10.1	6.23e-01	0	56	0	26214400	59	9859
2026-01-18 12:14:51.02	181.08	6.40	-44.4	-52.4	10.3	6.24e-01	0	56	0	27787264	59	9600
2026-01-18 12:14:52.03	181.13	6.48	-44.4	-52.3	10.5	6.21e-01	0	56	0	29884416	59	9416
2026-01-18 12:14:53.04	181.17	6.56	-44.4	-52.7	10.0	6.25e-01	0	56	0	31457280	59	9929
2026-01-18 12:14:54.05	181.22	6.64	-44.5	-52.8	9.9	6.28e-01	0	56	0	33554432	59	9993
2026-01-18 12:14:55.06	181.26	6.72	-44.5	-53.3	9.4	6.32e-01	0	56	0	35651584	59	10555
2026-01-18 12:14:56.07	181.31	6.80	-44.5	-53.2	9.6	6.29e-01	0	56	0	37224448	59	10434
2026-01-18 12:14:57.08	181.35	6.88	-44.4	-52.4	10.3	6.20e-01	0	56	0	39321600	59	9606
2026-01-18 12:14:58.09	181.40	6.96	-44.3	-52.2	10.6	6.20e-01	0	56	0	41418752	59	9330
2026-01-18 12:14:59.10	181.45	7.04	-44.0	-51.0	11.8	6.14e-01	0	56	0	42991616	59	8112
2026-01-18 12:15:00.11	181.50	7.12	-43.9	-50.6	12.2	6.12e-01	0	56	0	45088768	59	7766
2026-01-18 12:15:01.12	181.54	7.20	-43.7	-49.7	13.2	6.10e-01	0	56	0	46661632	59	7004
2026-01-18 12:15:02.13	181.59	7.28	-43.4	-49.0	13.9	6.09e-01	0	56	0	48758784	58	6819
2026-01-18 12:15:03.14	181.64	7.36	-43.3	-48.7	14.3	6.06e-01	0	56	0	50855936	58	6606
2026-01-18 12:15:04.15	181.69	7.44	-42.9	-47.6	15.3	6.08e-01	0	56	0	52428800	57	6197
2026-01-18 12:15:05.16	181.74	7.53	-43.0	-47.7	15.2	6.07e-01	0	56	0	54525952	57	6270
2026-01-18 12:15:06.17	181.78	7.61	-42.8	-47.3	15.7	6.07e-01	0	56	0	56623104	57	5927
2026-01-18 12:15:07.18	181.83	7.69	-42.4	-46.5	16.4	6.08e-01	0	56	0	58195968	56	5780
2026-01-18 12:15:08.19	181.88	7.77	-42.3	-46.4	16.5	6.06e-01	0	56	0	60293120	56	5694
2026-01-18 12:15:09.20	181.93	7.86	-42.6	-47.0	16.0	6.05e-01	0	57	0	61865984	56	6082
2026-01-18 12:15:10.21	181.98	7.94	-42.7	-47.2	15.8	6.07e-01	0	57	0	63963136	56	6215
2026-01-18 12:15:11.22	182.03	8.02	-42.9	-47.7	15.2	6.06e-01	0	57	0	66060288	56	6592
2026-01-18 12:15:12.23	182.08	8.11	-42.6	-46.8	16.3	6.05e-01	0	56	0	67633152	56	5978
2026-01-18 12:15:13.24	182.13	8.19	-44.5	-55.6	4.2	7.22e-01	0	57	104	69206016	60	13039
2026-01-18 12:15:14.25	182.19	8.28	-44.1	-50.7	12.1	6.13e-01	0	57	0	70254592	59	7821
2026-01-18 12:15:15.26	182.24	8.36	-43.1	-47.7	15.3	6.07e-01	0	57	0	71827456	58	5893
2026-01-18 12:15:16.27	182.29	8.45	-44.5	-54.6	7.7	6.51e-01	90	57	0	73924608	60	11575
2026-01-18 12:15:17.28	182.34	8.53	-42.4	-46.4	16.6	6.06e-01	0	57	0	76021760	56	5682
2026-01-18 12:15:18.29	182.39	8.62	-42.6	-46.8	16.4	6.07e-01	0	56	0	77594624	56	5924
2026-01-18 12:15:19.30	182.45	8.70	-42.6	-46.7	16.4	6.08e-01	0	57	0	79691776	56	5890
2026-01-18 12:15:20.31	182.50	8.79	-42.7	-46.9	16.2	6.07e-01	0	57	0	81264640	56	6016
2026-01-18 12:15:21.32	182.55	8.88	-42.6	-46.7	16.4	6.05e-01	0	57	0	83361792	56	5891
2026-01-18 12:15:22.33	182.61	8.96	-42.5	-46.4	16.7	6.09e-01	0	57	0	85458944	56	5716
2026-01-18 12:15:23.34	182.66	9.05	-42.7	-46.9	16.2	6.05e-01	0	57	0	87031808	56	6044
2026-01-18 12:15:24.34	182.71	9.14	-42.6	-46.7	16.5	6.06e-01	0	57	0	89128960	56	5892
2026-01-18 12:15:25.35	182.77	9.23	-42.8	-47.0	16.2	6.08e-01	0	57	0	90701824	56	6074
2026-01-18 12:15:26.36	182.82	9.32	-42.6	-46.6	16.6	6.05e-01	0	57	0	92798976	56	5797
2026-01-18 12:15:27.37	182.88	9.40	-42.6	-46.7	16.5	6.08e-01	0	57	0	94896128	56	5906
2026-01-18 12:15:28.38	182.93	9.49	-42.6	-46.6	16.7	6.05e-01	0	57	0	96468992	56	5835
2026-01-18 12:15:29.39	182.99	9.58	-42.4	-46.3	16.9	6.04e-01	0	57	0	98566144	56	5595
2026-01-18 12:15:30.40	183.05	9.67	-42.5	-46.4	16.9	6.07e-01	0	57	0	100139008	56	5673
2026-01-18 12:15:31.41	183.10	9.76	-42.6	-46.5	16.7	6.09e-01	0	57	0	102236160	56	5771
2026-01-18 12:15:32.42	183.16	9.85	-42.5	-46.3	17.0	6.08e-01	0	57	0	104333312	56	5650
2026-01-18 12:15:33.43	183.22	9.94	-42.5	-46.4	16.9	6.07e-01	0	57	0	105906176	56	5682
2026-01-18 12:15:34.44	183.28	10.03	-42.5	-46.3	17.0	6.07e-01	0	57	0	108003328	56	5635
2026-01-18 12:15:35.45	183.33	10.13	-42.4	-46.1	17.2	6.07e-01	0	57	0	109576192	56	5522
2026-01-18 12:15:36.46	183.39	10.22	-42.3	-46.0	17.3	6.08e-01	0	57	0	111673344	56	5443
2026-01-18 12:15:37.47	183.45	10.31	-42.3	-45.9	17.4	6.05e-01	0	57	0	113770496	56	5386
2026-01-18 12:15:38.48	183.51	10.40	-42.4	-46.2	17.1	6.08e-01	0	57	0	115343360	56	5582
2026-01-18 12:15:39.49	183.57	10.49	-42.4	-46.1	17.3	6.06e-01	0	57	0	117440512	56	5498
2026-01-18 12:15:40.50	183.63	10.59	-42.3	-46.0	17.4	6.07e-01	0	57	0	119013376	56	5417
2026-01-18 12:15:41.51	183.69	10.68	-42.3	-46.0	17.4	6.06e-01	0	57	0	121110528	56	5435
2026-01-18 12:15:42.52	183.75	10.78	-42.4	-46.1	17.3	6.06e-01	0	58	0	123207680	56	5498
2026-01-18 12:15:43.53	183.81	10.87	-42.4	-46.0	17.4	6.08e-01	0	58	0	124780544	56	5448
2026-01-18 12:15:44.54	183.87	10.96	-42.4	-46.0	17.4	6.06e-01	0	57	0	126877696	56	5448
2026-01-18 12:15:45.55	183.94	11.06	-42.3	-46.0	17.4	6.09e-01	0	57	0	128974848	56	5427
2026-01-18 12:15:46.56	184.00	11.16	-42.3	-45.9	17.5	6.07e-01	0	58	0	130547712	56	5363
2026-01-18 12:15:47.57	184.06	11.25	-42.3	-45.9	17.5	6.04e-01	0	57	0	132644864	56	5387
2026-01-18 12:15:48.58	184.13	11.35	-42.4	-46.1	17.4	6.06e-01	0	57	0	134217728	56	5469
2026-01-18 12:15:49.59	184.19	11.44	-42.3	-46.0	17.5	6.08e-01	0	57	0	136314880	56	5408
2026-01-18 12:15:50.60	184.25	11.54	-42.5	-46.2	17.3	6.05e-01	0	57	0	138412032	56	5564
2026-01-18 12:15:51.61	184.32	11.64	-42.3	-45.9	17.5	6.07e-01	0	58	0	139984896	56	5373
2026-01-18 12:15:52.62	184.38	11.74	-42.3	-45.9	17.5	6.06e-01	0	58	0	142082048	56	5387
2026-01-18 12:15:53.63	184.45	11.84	-42.3	-45.9	17.6	6.06e-01	0	58	0	144179200	56	5379
2026-01-18 12:15:54.64	184.52	11.93	-42.3	-45.8	17.6	6.05e-01	0	58	0	145752064	56	5340
2026-01-18 12:15:55.64	184.58	12.03	-42.3	-45.8	17.7	6.06e-01	0	58	0	147849216	56	5330
2026-01-18 12:15:56.65	184.65	12.13	-42.3	-45.8	17.8	6.04e-01	0	58	0	149422080	56	5281
2026-01-18 12:15:57.66	184.72	12.23	-42.3	-45.9	17.6	6.05e-01	0	58	0	151519232	56	5362
2026-01-18 12:15:58.68	184.78	12.33	-42.3	-45.8	17.6	6.04e-01	0	58	0	153616384	56	5339
2026-01-18 12:15:59.68	184.85	12.43	-42.4	-46.0	17.5	6.06e-01	0	58	0	155189248	56	5458
2026-01-18 12:16:00.70	184.92	12.54	-42.3	-45.8	17.7	6.06e-01	0	58	0	157286400	56	5305
2026-01-18 12:16:01.70	184.99	12.64	-42.3	-45.8	17.7	6.06e-01	0	58	0	158859264	56	5328
2026-01-18 12:16:02.71	185.06	12.74	-42.3	-45.8	17.7	6.06e-01	0	58	0	160956416	56	5313
2026-01-18 12:16:03.72	185.13	12.84	-42.2	-45.7	17.9	6.07e-01	0	58	0	163053568	56	5247
2026-01-18 12:16:04.73	185.20	12.94	-42.3	-45.8	17.8	6.07e-01	0	58	0	164626432	56	5298
2026-01-18 12:16:05.74	185.27	13.05	-42.2	-45.6	17.9	6.05e-01	0	58	0	166723584	56	5204
2026-01-18 12:16:06.75	185.34	13.15	-42.3	-45.7	17.8	6.05e-01	0	58	0	168296448	56	5256
2026-01-18 12:16:07.76	185.42	13.26	-42.2	-45.7	18.0	6.04e-01	0	58	0	170393600	56	5225
2026-01-18 12:16:08.77	185.49	13.36	-42.2	-45.5	18.0	6.07e-01	0	58	0	172490752	56	5152
2026-01-18 12:16:09.79	185.56	13.47	-42.1	-45.5	18.1	6.06e-01	0	58	0	174063616	56	5138
2026-01-18 12:16:10.80	185.64	13.57	-42.2	-45.6	18.0	6.05e-01	0	58	0	176160768	56	5200
2026-01-18 12:16:11.80	185.71	13.68	-42.2	-45.6	18.0	6.08e-01	0	58	0	177733632	56	5164
2026-01-18 12:16:12.81	185.79	13.78	-42.1	-45.5	18.2	6.06e-01	0	58	0	179830784	56	5108
2026-01-18 12:16:13.82	185.86	13.89	-42.1	-45.5	18.1	6.06e-01	0	58	0	181927936	56	5112
2026-01-18 12:16:14.83	185.94	14.00	-42.2	-45.5	18.1	6.06e-01	0	58	0	183500800	56	5153
2026-01-18 12:16:15.84	186.01	14.11	-42.1	-45.5	18.2	6.06e-01	0	58	0	185597952	56	5112
2026-01-18 12:16:16.85	186.09	14.22	-42.2	-45.5	18.2	6.07e-01	0	58	0	187170816	56	5122
2026-01-18 12:16:17.86	186.17	14.33	-42.2	-45.6	18.0	6.04e-01	0	58	0	189267968	56	5209
2026-01-18 12:16:18.87	186.25	14.44	-42.2	-45.6	18.1	6.06e-01	0	58	0	191365120	56	5166
2026-01-18 12:16:19.88	186.33	14.55	-42.2	-45.6	18.1	6.07e-01	0	58	0	192937984	56	5184
2026-01-18 12:16:20.89	186.41	14.66	-42.1	-45.4	18.3	6.06e-01	0	58	0	195035136	56	5070
2026-01-18 12:16:21.90	186.49	14.77	-42.2	-45.6	18.0	6.07e-01	0	58	0	197132288	56	5190
2026-01-18 12:16:22.91	186.57	14.88	-42.1	-45.4	18.2	6.07e-01	0	58	0	198705152	56	5097
2026-01-18 12:16:23.92	186.65	14.99	-42.1	-45.3	18.4	6.07e-01	0	59	0	200802304	56	5031
2026-01-18 12:16:24.93	186.73	15.10	-42.1	-45.3	18.3	6.09e-01	0	58	0	202375168	56	5038
2026-01-18 12:16:25.94	186.81	15.22	-42.0	-45.3	18.4	6.06e-01	0	58	0	204472320	56	4993
2026-01-18 12:16:26.95	186.90	15.33	-42.0	-45.3	18.4	6.06e-01	0	58	0	206569472	56	4995
2026-01-18 12:16:27.96	186.98	15.45	-42.0	-45.2	18.5	6.06e-01	0	59	0	208142336	56	4961
2026-01-18 12:16:28.97	187.07	15.56	-42.1	-45.3	18.4	6.07e-01	0	59	0	210239488	56	4997
2026-01-18 12:16:29.98	187.15	15.68	-42.1	-45.3	18.4	6.06e-01	0	59	0	212336640	56	5011
2026-01-18 12:16:30.98	187.24	15.79	-42.2	-45.5	18.2	6.07e-01	0	58	0	213909504	56	5135
2026-01-18 12:16:31.99	187.32	15.91	-42.1	-45.3	18.4	6.06e-01	0	59	0	216006656	56	4997
2026-01-18 12:16:33.00	187.41	16.02	-42.1	-45.3	18.4	6.04e-01	0	58	0	217579520	56	5001
2026-01-18 12:16:34.01	187.50	16.14	-42.1	-45.3	18.4	6.05e-01	0	58	0	219676672	56	5013
2026-01-18 12:16:35.02	187.59	16.26	-42.1	-45.4	18.4	6.05e-01	0	59	0	221773824	56	5042
2026-01-18 12:16:36.03	187.68	16.38	-42.1	-45.4	18.4	6.06e-01	0	58	0	223346688	56	5052
2026-01-18 12:16:37.04	187.77	16.50	-42.1	-45.3	18.4	6.07e-01	0	59	0	225443840	56	5036
2026-01-18 12:16:38.05	187.86	16.62	-42.1	-45.3	18.4	6.07e-01	0	59	0	227016704	56	5023
2026-01-18 12:16:39.06	187.95	16.74	-42.1	-45.3	18.5	6.06e-01	0	59	0	229113856	56	4998
2026-01-18 12:16:40.07	188.04	16.86	-42.0	-45.2	18.6	6.08e-01	0	59	0	231211008	56	4932
2026-01-18 12:16:41.08	188.14	16.98	-41.9	-45.0	18.6	6.05e-01	0	58	0	232783872	55	5126
2026-01-18 12:16:42.09	188.23	17.11	-41.8	-44.9	18.7	6.04e-01	0	59	0	234881024	55	5088
2026-01-18 12:16:43.10	188.33	17.23	-41.8	-44.9	18.8	6.06e-01	0	59	0	236453888	55	5073
2026-01-18 12:16:44.10	188.42	17.35	-41.8	-44.9	18.8	6.03e-01	0	59	0	238551040	55	5075
2026-01-18 12:16:45.11	188.52	17.47	-41.8	-44.9	18.8	6.07e-01	0	58	0	240648192	55	5055
2026-01-18 12:16:46.12	188.61	17.60	-41.9	-45.0	18.7	6.06e-01	0	59	0	242221056	55	5123
2026-01-18 12:16:47.13	188.71	17.73	-41.9	-45.1	18.6	6.07e-01	0	59	0	244318208	55	5183
2026-01-18 12:16:48.14	188.81	17.85	-42.0	-45.2	18.5	6.07e-01	0	59	0	245891072	55	5229
2026-01-18 12:16:49.15	188.91	17.98	-42.0	-45.2	18.5	6.05e-01	0	59	0	247988224	55	5219
2026-01-18 12:16:50.16	189.01	18.11	-42.0	-45.2	18.5	6.06e-01	0	59	0	250085376	55	5261
2026-01-18 12:16:51.17	189.11	18.23	-42.0	-45.1	18.6	6.08e-01	0	59	0	251658240	55	5211
2026-01-18 12:16:52.18	189.22	18.36	-42.0	-45.2	18.5	6.06e-01	0	59	0	253755392	55	5233
2026-01-18 12:16:53.19	189.32	18.49	-41.9	-45.0	18.7	6.07e-01	0	59	0	255328256	55	5141
2026-01-18 12:16:54.20	189.42	18.62	-41.9	-45.0	18.7	6.07e-01	0	59	0	257425408	55	5147
2026-01-18 12:16:55.21	189.53	18.75	-41.9	-45.1	18.7	6.07e-01	0	59	0	259522560	55	5161
2026-01-18 12:16:56.22	189.63	18.88	-41.9	-45.0	18.8	6.07e-01	0	59	0	261095424	55	5106
2026-01-18 12:16:57.23	189.74	19.02	-42.0	-45.1	18.6	6.05e-01	0	59	0	263192576	55	5192
2026-01-18 12:16:58.24	189.85	19.15	-42.0	-45.2	18.6	6.09e-01	0	59	0	265289728	55	5229
2026-01-18 12:16:59.25	189.96	19.28	-42.0	-45.2	18.5	6.05e-01	0	59	0	266862592	55	5265
2026-01-18 12:17:00.26	190.07	19.42	-42.0	-45.2	18.5	6.06e-01	0	59	0	268959744	55	5262
2026-01-18 12:17:01.27	190.18	19.55	-42.0	-45.2	18.5	6.07e-01	0	59	0	270532608	55	5246
2026-01-18 12:17:02.28	190.29	19.69	-41.9	-45.0	18.8	6.06e-01	0	59	0	272629760	55	5115
2026-01-18 12:17:03.29	190.40	19.82	-41.9	-44.9	18.8	6.08e-01	0	59	0	274726912	55	5088
2026-01-18 12:17:04.30	190.52	19.96	-41.9	-45.0	18.7	6.06e-01	0	59	0	276299776	55	5158
2026-01-18 12:17:05.31	190.63	20.10	-41.9	-44.9	18.8	6.06e-01	0	59	0	278396928	55	5098
2026-01-18 12:17:06.32	190.75	20.24	-42.0	-45.1	18.7	6.06e-01	0	59	0	280494080	55	5168
2026-01-18 12:17:07.33	190.87	20.38	-42.1	-45.3	18.4	6.06e-01	0	59	0	282066944	55	5335
2026-01-18 12:17:08.34	190.98	20.52	-42.1	-45.4	18.4	6.10e-01	0	59	0	284164096	55	5356
2026-01-18 12:17:09.35	191.10	20.66	-42.2	-45.5	18.2	6.07e-01	0	59	0	285736960	55	5456
2026-01-18 12:17:10.36	191.22	20.80	-42.2	-45.4	18.4	6.05e-01	0	59	0	287834112	55	5385
2026-01-18 12:17:11.37	191.35	20.94	-42.1	-45.3	18.5	6.08e-01	0	59	0	289931264	55	5312
2026-01-18 12:17:12.38	191.47	21.08	-42.1	-45.3	18.5	6.08e-01	0	59	0	291504128	55	5303
2026-01-18 12:17:13.38	191.59	21.23	-42.1	-45.2	18.6	6.03e-01	0	59	0	293601280	55	5255
2026-01-18 12:17:14.39	191.72	21.37	-42.1	-45.3	18.6	6.06e-01	0	59	0	295174144	55	5284
2026-01-18 12:17:15.40	191.84	21.52	-42.0	-45.2	18.6	6.07e-01	0	59	0	297271296	55	5241
2026-01-18 12:17:16.41	191.97	21.66	-42.1	-45.3	18.5	6.07e-01	0	59	0	299368448	55	5312
2026-01-18 12:17:17.42	192.10	21.81	-42.2	-45.4	18.5	6.04e-01	0	59	0	300941312	55	5351
2026-01-18 12:17:18.43	192.23	21.96	-42.1	-45.3	18.5	6.06e-01	0	59	0	303038464	55	5324
2026-01-18 12:17:19.44	192.36	22.10	-42.2	-45.4	18.5	6.06e-01	0	59	0	304611328	55	5358
2026-01-18 12:17:20.45	192.49	22.25	-42.1	-45.3	18.5	6.09e-01	0	59	0	306708480	55	5318
2026-01-18 12:17:21.46	192.63	22.40	-42.2	-45.4	18.4	6.05e-01	0	59	0	308805632	55	5400
2026-01-18 12:17:22.47	192.76	22.55	-42.2	-45.5	18.4	6.09e-01	0	59	0	310378496	55	5422
2026-01-18 12:17:23.47	192.90	22.70	-42.1	-45.3	18.5	6.07e-01	0	59	0	312475648	55	5337
2026-01-18 12:17:24.48	193.03	22.86	-42.2	-45.4	18.4	6.06e-01	0	59	0	314048512	55	5387
2026-01-18 12:17:25.49	193.17	23.01	-42.2	-45.4	18.5	6.07e-01	0	59	0	316145664	55	5379
2026-01-18 12:17:26.51	193.31	23.17	-42.2	-45.5	18.4	6.07e-01	0	59	0	318242816	55	5427
2026-01-18 12:17:27.51	193.46	23.32	-42.3	-45.5	18.3	6.09e-01	0	59	0	319815680	55	5434
2026-01-18 12:17:28.52	193.60	23.48	-42.2	-45.5	18.4	6.07e-01	0	59	0	321912832	55	5419
2026-01-18 12:17:29.53	193.74	23.63	-42.3	-45.6	18.3	6.07e-01	0	59	0	323485696	55	5472
2026-01-18 12:17:30.54	193.89	23.79	-42.3	-45.5	18.4	6.06e-01	0	59	0	325582848	55	5453
2026-01-18 12:17:31.55	194.04	23.95	-42.3	-45.6	18.3	6.06e-01	0	59	0	327680000	55	5470
2026-01-18 12:17:32.56	194.19	24.11	-42.4	-45.7	18.2	6.05e-01	0	60	0	329252864	55	5537
2026-01-18 12:17:33.57	194.34	24.27	-42.3	-45.6	18.3	6.08e-01	0	59	0	331350016	55	5493
2026-01-18 12:17:34.58	194.49	24.43	-42.3	-45.6	18.3	6.05e-01	0	59	0	333447168	55	5490
2026-01-18 12:17:35.59	194.65	24.59	-42.3	-45.6	18.3	6.06e-01	0	59	0	335020032	55	5510
2026-01-18 12:17:36.60	194.80	24.75	-42.3	-45.5	18.4	6.06e-01	0	59	0	337117184	55	5425
2026-01-18 12:17:37.61	194.96	24.92	-42.3	-45.5	18.4	6.08e-01	0	59	0	338690048	55	5450
2026-01-18 12:17:38.62	195.12	25.08	-42.3	-45.5	18.3	6.07e-01	0	59	0	340787200	55	5464
2026-01-18 12:17:39.63	195.28	25.25	-42.3	-45.6	18.3	6.06e-01	0	59	0	342884352	55	5523
2026-01-18 12:17:40.63	195.44	25.41	-42.3	-45.6	18.3	6.06e-01	0	59	0	344457216	55	5519
2026-01-18 12:17:41.64	195.60	25.58	-42.2	-45.4	18.5	6.05e-01	0	59	0	346554368	55	5400
2026-01-18 12:17:42.65	195.77	25.75	-42.2	-45.3	18.5	6.05e-01	0	59	0	348127232	55	5330
2026-01-18 12:17:43.66	195.94	25.92	-42.2	-45.4	18.5	6.07e-01	0	60	0	350224384	55	5360
2026-01-18 12:17:44.67	196.11	26.09	-42.3	-45.5	18.4	6.08e-01	0	59	0	352321536	55	5451
2026-01-18 12:17:45.68	196.28	26.26	-42.4	-45.7	18.2	6.07e-01	0	59	0	353894400	55	5546
2026-01-18 12:17:46.69	196.45	26.43	-42.4	-45.7	18.2	6.08e-01	0	59	0	355991552	55	5585
2026-01-18 12:17:47.70	196.63	26.60	-42.3	-45.5	18.4	6.06e-01	0	59	0	357564416	55	5464
2026-01-18 12:17:48.71	196.80	26.78	-42.2	-45.3	18.6	6.07e-01	0	59	0	359661568	55	5318
2026-01-18 12:17:49.72	196.98	26.95	-42.1	-45.3	18.7	6.07e-01	0	59	0	361758720	55	5283
2026-01-18 12:17:50.73	197.17	27.13	-42.1	-45.3	18.7	6.05e-01	0	59	0	363331584	55	5285
2026-01-18 12:17:51.74	197.35	27.30	-42.3	-45.5	18.4	6.07e-01	0	59	0	365428736	55	5458
2026-01-18 12:17:52.74	197.53	27.48	-42.2	-45.3	18.6	6.06e-01	0	60	0	367001600	55	5335
2026-01-18 12:17:53.75	197.72	27.66	-42.1	-45.1	18.8	6.06e-01	0	60	0	369098752	55	5217
2026-01-18 12:17:54.76	197.91	27.83	-42.0	-45.1	18.9	6.08e-01	0	60	0	371195904	55	5161
2026-01-18 12:17:55.77	198.10	28.01	-42.1	-45.2	18.7	6.07e-01	0	59	0	372768768	55	5259
2026-01-18 12:17:56.78	198.29	28.20	-42.2	-45.3	18.6	6.07e-01	0	60	0	374865920	55	5337
2026-01-18 12:17:57.79	198.49	28.38	-42.2	-45.3	18.6	6.05e-01	0	60	0	376963072	55	5322
2026-01-18 12:17:58.80	198.69	28.56	-42.1	-45.3	18.7	6.08e-01	0	59	0	378535936	55	5284
2026-01-18 12:17:59.81	198.89	28.74	-42.0	-45.1	18.9	6.07e-01	0	59	0	380633088	55	5166
2026-01-18 12:18:00.80	199.09	28.93	-42.1	-45.1	18.9	6.07e-01	0	59	0	382205952	55	5190
2026-01-18 12:18:01.81	199.29	29.11	-42.1	-45.1	18.9	6.08e-01	0	60	0	384303104	55	5178
2026-01-18 12:18:02.82	199.50	29.30	-42.1	-45.1	18.9	6.07e-01	0	60	0	386400256	55	5181
2026-01-18 12:18:03.83	199.71	29.49	-42.1	-45.2	18.8	6.07e-01	0	60	0	387973120	55	5250
2026-01-18 12:18:04.84	199.93	29.67	-42.1	-45.2	18.8	6.07e-01	0	59	0	390070272	55	5274
2026-01-18 12:18:05.85	200.14	29.86	-42.2	-45.3	18.7	6.08e-01	0	60	0	391643136	55	5325
2026-01-18 12:18:06.86	200.36	30.05	-42.2	-45.3	18.7	6.06e-01	0	60	0	393740288	55	5295
2026-01-18 12:18:07.87	200.58	30.25	-42.1	-45.1	18.9	6.07e-01	0	60	0	395837440	55	5212
2026-01-18 12:18:08.88	200.80	30.44	-42.1	-45.2	18.8	6.04e-01	0	60	0	397410304	55	5237
2026-01-18 12:18:09.89	201.03	30.63	-42.2	-45.3	18.7	6.07e-01	0	60	0	399507456	55	5313
2026-01-18 12:18:10.90	201.26	30.83	-42.1	-45.1	18.9	6.06e-01	0	60	0	401080320	55	5204
2026-01-18 12:18:11.91	201.49	31.02	-42.2	-45.3	18.8	6.05e-01	0	60	0	403177472	55	5285
2026-01-18 12:18:12.92	201.72	31.22	-42.2	-45.4	18.6	6.08e-01	0	59	0	405274624	55	5366
2026-01-18 12:18:13.93	201.96	31.41	-42.3	-45.5	18.5	6.06e-01	0	60	0	406847488	55	5428
2026-01-18 12:18:14.94	202.20	31.61	-42.4	-45.7	18.4	6.08e-01	0	60	0	408944640	55	5532
2026-01-18 12:18:15.94	202.44	31.81	-42.4	-45.7	18.4	6.06e-01	0	60	0	410517504	55	5532
2026-01-18 12:18:16.95	202.69	32.01	-42.3	-45.5	18.6	6.06e-01	0	60	0	412614656	55	5411
2026-01-18 12:18:17.96	202.94	32.21	-42.2	-45.3	18.7	6.06e-01	0	60	0	414711808	55	5338
2026-01-18 12:18:18.98	203.19	32.41	-42.2	-45.4	18.7	6.06e-01	0	60	0	416284672	55	5355
2026-01-18 12:18:19.98	203.45	32.61	-42.4	-45.7	18.4	6.06e-01	0	60	0	418381824	55	5543
2026-01-18 12:18:20.99	203.70	32.81	-42.4	-45.7	18.3	6.07e-01	0	60	0	419954688	55	5581
2026-01-18 12:18:22.00	203.97	33.02	-42.5	-45.7	18.3	6.04e-01	0	60	0	422051840	55	5592
2026-01-18 12:18:23.01	204.23	33.22	-42.6	-46.0	18.0	6.04e-01	0	60	0	424148992	55	5754
2026-01-18 12:18:24.02	204.50	33.43	-42.6	-46.0	18.0	6.06e-01	0	60	0	425721856	55	5774
2026-01-18 12:18:25.03	204.77	33.63	-42.6	-45.9	18.2	6.07e-01	0	60	0	427819008	55	5680
2026-01-18 12:18:26.04	205.05	33.84	-42.6	-46.0	18.1	6.07e-01	0	60	0	429916160	55	5747
2026-01-18 12:18:27.05	205.33	34.05	-42.7	-46.1	17.9	6.05e-01	0	60	0	431489024	55	5830
2026-01-18 12:18:28.05	205.61	34.25	-42.7	-46.2	17.9	6.05e-01	0	60	0	433586176	55	5883
2026-01-18 12:18:29.07	205.90	34.47	-43.0	-46.6	17.6	6.06e-01	0	59	0	435159040	56	5811
2026-01-18 12:18:30.08	206.19	34.68	-42.9	-46.4	17.7	6.07e-01	0	60	0	437256192	56	5708
2026-01-18 12:18:31.09	206.48	34.89	-43.0	-46.5	17.7	6.08e-01	0	60	0	439353344	56	5754
2026-01-18 12:18:32.10	206.78	35.10	-43.2	-46.9	17.3	6.07e-01	0	60	0	440926208	56	6034
2026-01-18 12:18:33.11	207.08	35.31	-43.1	-46.8	17.4	6.05e-01	0	60	0	443023360	56	5936
2026-01-18 12:18:34.12	207.39	35.52	-43.0	-46.6	17.6	6.06e-01	0	59	0	445120512	56	5838
2026-01-18 12:18:35.12	207.70	35.73	-43.1	-46.7	17.4	6.07e-01	0	60	0	446693376	56	5915
2026-01-18 12:18:36.13	208.01	35.95	-43.2	-46.9	17.3	6.07e-01	0	60	0	448790528	56	6034
2026-01-18 12:18:37.14	208.33	36.16	-43.3	-47.1	17.0	6.06e-01	0	60	0	450363392	57	5839
2026-01-18 12:18:38.15	208.65	36.38	-43.3	-47.1	17.1	6.04e-01	0	60	0	452460544	57	5803
2026-01-18 12:18:39.16	208.98	36.59	-43.2	-46.9	17.2	6.06e-01	0	60	0	454557696	57	5722
2026-01-18 12:18:40.17	209.31	36.81	-43.2	-46.9	17.3	6.06e-01	0	60	0	456130560	57	5666
2026-01-18 12:18:41.18	209.65	37.02	-43.3	-47.2	17.0	6.05e-01	0	60	0	458227712	57	5876
2026-01-18 12:18:42.19	209.99	37.24	-43.3	-47.1	17.0	6.07e-01	0	60	0	459800576	57	5841
2026-01-18 12:18:43.20	210.33	37.46	-43.3	-47.1	17.0	6.09e-01	0	60	0	461897728	57	5838
2026-01-18 12:18:44.21	210.68	37.68	-43.3	-47.2	16.9	6.07e-01	0	60	0	463470592	57	5873
2026-01-18 12:18:45.22	211.04	37.89	-43.3	-47.2	17.0	6.08e-01	0	60	0	465567744	57	5901
2026-01-18 12:18:46.23	211.39	38.11	-43.3	-47.2	17.0	6.05e-01	0	60	0	467664896	57	5864
2026-01-18 12:18:47.23	211.75	38.33	-43.3	-47.0	17.2	6.06e-01	0	60	0	469237760	57	5772
2026-01-18 12:18:48.24	212.12	38.55	-43.3	-47.1	17.1	6.07e-01	0	60	0	471334912	57	5808
2026-01-18 12:18:49.25	212.50	38.77	-43.4	-47.2	17.0	6.05e-01	0	60	0	473432064	57	5905
2026-01-18 12:18:50.26	212.88	38.99	-43.4	-47.3	16.8	6.08e-01	0	60	0	475004928	57	5989
2026-01-18 12:18:51.27	213.26	39.20	-43.1	-46.7	17.5	6.07e-01	0	60	0	477102080	57	5582
2026-01-18 12:18:52.28	213.65	39.42	-43.2	-47.0	17.3	6.09e-01	0	60	0	478674944	57	5730
2026-01-18 12:18:53.29	214.05	39.64	-43.3	-47.1	17.1	6.06e-01	0	60	0	480772096	57	5798
2026-01-18 12:18:54.30	214.45	39.86	-43.1	-46.8	17.4	6.04e-01	0	60	0	482869248	57	5608
2026-01-18 12:18:55.31	214.85	40.08	-43.1	-46.8	17.4	6.07e-01	0	60	0	484442112	57	5618
2026-01-18 12:18:56.32	215.26	40.30	-43.1	-46.7	17.5	6.05e-01	0	60	0	486539264	57	5562
2026-01-18 12:18:57.33	215.68	40.52	-42.9	-46.3	17.9	6.06e-01	0	60	0	488112128	57	5338
2026-01-18 12:18:58.34	216.10	40.74	-42.9	-46.4	17.9	6.07e-01	0	60	0	490209280	57	5343
2026-01-18 12:18:59.35	216.53	40.96	-42.8	-46.2	18.0	6.06e-01	0	60	0	492306432	57	5277
2026-01-18 12:19:00.36	216.96	41.17	-43.1	-46.7	17.5	6.06e-01	0	60	0	493879296	57	5571
2026-01-18 12:19:01.37	217.40	41.39	-42.6	-45.9	18.3	6.07e-01	0	60	0	495976448	57	5073
2026-01-18 12:19:02.37	217.85	41.61	-42.6	-45.8	18.3	6.06e-01	0	59	0	498073600	56	5329
2026-01-18 12:19:03.38	218.30	41.82	-42.5	-45.7	18.5	6.05e-01	0	60	0	499646464	56	5266
2026-01-18 12:19:04.39	218.76	42.04	-42.5	-45.7	18.5	6.06e-01	0	60	0	501743616	56	5234
2026-01-18 12:19:05.40	219.22	42.25	-42.6	-45.8	18.4	6.04e-01	0	60	0	503316480	56	5334
2026-01-18 12:19:06.41	219.69	42.47	-42.6	-45.8	18.4	6.05e-01	0	60	0	505413632	56	5323
2026-01-18 12:19:07.42	220.17	42.68	-42.4	-45.5	18.7	6.04e-01	0	60	0	507510784	56	5137
2026-01-18 12:19:08.43	220.65	42.89	-42.4	-45.5	18.7	6.08e-01	0	60	0	509083648	56	5138
2026-01-18 12:19:09.44	221.14	43.10	-42.2	-45.3	19.0	6.06e-01	0	60	0	511180800	56	4984
2026-01-18 12:19:10.45	221.64	43.31	-42.2	-45.2	19.0	6.07e-01	0	60	0	512753664	56	4948
2026-01-18 12:19:11.46	222.14	43.52	-42.2	-45.2	19.0	6.06e-01	0	60	0	514850816	56	4957
2026-01-18 12:19:12.47	222.65	43.73	-42.1	-45.1	19.1	6.09e-01	0	60	0	516947968	56	4900
2026-01-18 12:19:13.48	223.16	43.94	-42.1	-45.1	19.1	6.05e-01	0	60	0	518520832	56	4897
2026-01-18 12:19:14.49	223.69	44.14	-42.1	-45.1	19.1	6.05e-01	0	60	0	520617984	56	4894
2026-01-18 12:19:15.50	224.22	44.35	-42.1	-45.1	19.1	6.06e-01	0	60	0	522190848	56	4893
2026-01-18 12:19:16.51	224.75	44.55	-42.1	-45.1	19.1	6.06e-01	0	60	0	524288000	56	4894
2026-01-18 12:19:17.52	225.30	44.75	-42.1	-45.0	19.3	6.06e-01	0	60	0	526385152	56	4832
2026-01-18 12:19:18.53	225.85	44.95	-42.2	-45.1	19.1	6.06e-01	0	60	0	527958016	56	4922
2026-01-18 12:19:19.54	226.40	45.15	-42.1	-45.1	19.1	6.08e-01	0	60	0	530055168	56	4873
2026-01-18 12:19:20.55	226.97	45.34	-41.9	-44.8	19.4	6.07e-01	0	60	0	531628032	55	4987
2026-01-18 12:19:21.56	227.54	45.54	-42.0	-45.0	19.1	6.05e-01	0	60	0	533725184	55	5105
2026-01-18 12:19:22.57	228.12	45.73	-41.9	-44.9	19.3	6.05e-01	0	60	0	535822336	55	5043
2026-01-18 12:19:23.58	228.70	45.92	-42.0	-44.9	19.2	6.02e-01	0	60	0	537395200	55	5065
2026-01-18 12:19:24.59	229.29	46.10	-42.0	-45.0	19.2	6.06e-01	0	60	0	539492352	55	5104
2026-01-18 12:19:25.60	229.89	46.29	-41.8	-44.7	19.4	6.07e-01	0	60	0	541589504	55	4959
2026-01-18 12:19:26.61	230.50	46.47	-42.0	-44.9	19.2	6.04e-01	0	60	0	543162368	55	5069
2026-01-18 12:19:27.62	231.11	46.65	-42.1	-45.1	19.0	6.07e-01	0	60	0	545259520	55	5169
2026-01-18 12:19:28.63	231.73	46.82	-42.1	-45.1	19.0	6.06e-01	0	60	0	546832384	55	5211
2026-01-18 12:19:29.63	232.35	46.99	-42.0	-44.9	19.2	6.07e-01	0	60	0	548929536	55	5080
2026-01-18 12:19:30.64	232.99	47.16	-42.1	-45.1	19.0	6.07e-01	0	60	0	551026688	55	5201
2026-01-18 12:19:31.65	233.63	47.33	-42.2	-45.2	18.8	6.07e-01	0	60	0	552599552	55	5279
2026-01-18 12:19:32.66	234.28	47.50	-42.0	-44.9	19.1	6.07e-01	0	60	0	554696704	55	5089
2026-01-18 12:19:33.67	234.93	47.66	-42.2	-45.3	18.8	6.06e-01	0	60	0	556269568	55	5308
2026-01-18 12:19:34.68	235.59	47.81	-42.1	-45.1	19.0	6.04e-01	0	60	0	558366720	55	5212
2026-01-18 12:19:35.69	236.26	47.97	-42.2	-45.2	18.8	6.07e-01	0	60	0	560463872	55	5253
2026-01-18 12:19:36.70	236.94	48.12	-42.2	-45.4	18.8	6.07e-01	0	60	0	562036736	55	5351
2026-01-18 12:19:37.71	237.62	48.27	-42.2	-45.3	18.8	6.06e-01	0	60	0	564133888	55	5330
2026-01-18 12:19:38.72	238.30	48.41	-42.3	-45.4	18.8	6.07e-01	0	60	0	566231040	55	5352
2026-01-18 12:19:39.73	239.00	48.55	-42.2	-45.3	18.8	6.04e-01	0	60	0	567803904	55	5338
2026-01-18 12:19:40.74	239.70	48.68	-42.2	-45.3	18.9	6.07e-01	0	60	0	569901056	55	5297
2026-01-18 12:19:41.75	240.40	48.81	-42.3	-45.4	18.7	6.07e-01	0	60	0	571473920	55	5367
2026-01-18 12:19:42.76	241.12	48.94	-42.3	-45.5	18.7	6.06e-01	0	60	0	573571072	55	5419
2026-01-18 12:19:43.77	241.83	49.06	-42.3	-45.4	18.8	6.07e-01	0	60	0	575668224	55	5350
2026-01-18 12:19:44.78	242.56	49.18	-42.2	-45.3	18.8	6.07e-01	0	60	0	577241088	55	5310
2026-01-18 12:19:45.79	243.29	49.30	-42.3	-45.4	18.8	6.05e-01	0	60	0	579338240	55	5353
2026-01-18 12:19:46.80	244.02	49.40	-42.4	-45.7	18.5	6.03e-01	0	60	0	580911104	55	5534
2026-01-18 12:19:47.80	244.75	49.51	-42.3	-45.3	18.8	6.07e-01	0	60	0	583008256	55	5338
2026-01-18 12:19:48.81	245.50	49.61	-42.4	-45.6	18.7	6.08e-01	0	60	0	585105408	55	5481
2026-01-18 12:19:49.82	246.25	49.70	-42.5	-45.8	18.3	6.08e-01	0	60	0	586678272	55	5640
2026-01-18 12:19:50.83	247.00	49.79	-42.4	-45.6	18.5	6.07e-01	0	60	0	588775424	55	5500
2026-01-18 12:19:51.84	247.76	49.88	-42.3	-45.3	18.8	6.07e-01	0	60	0	590348288	55	5335
2026-01-18 12:19:52.85	248.52	49.96	-42.6	-46.0	18.2	6.05e-01	0	60	0	592445440	55	5740
2026-01-18 12:19:53.86	249.29	50.03	-42.5	-45.8	18.4	6.06e-01	0	60	0	594542592	55	5607
2026-01-18 12:19:54.87	250.06	50.10	-42.4	-45.7	18.4	6.08e-01	0	60	0	596115456	55	5531
2026-01-18 12:19:55.88	250.83	50.17	-42.4	-45.5	18.6	6.06e-01	0	60	0	598212608	55	5460
2026-01-18 12:19:56.89	251.61	50.22	-42.5	-45.8	18.3	6.07e-01	0	60	0	599785472	55	5620
2026-01-18 12:19:57.90	252.39	50.28	-42.4	-45.6	18.5	6.06e-01	0	60	0	601882624	55	5515
2026-01-18 12:19:58.91	253.17	50.33	-42.6	-45.9	18.2	6.06e-01	0	60	0	603979776	55	5714
2026-01-18 12:19:59.92	253.95	50.37	-42.6	-45.9	18.2	6.03e-01	0	60	0	605552640	55	5720
2026-01-18 12:20:00.92	254.73	50.41	-42.6	-46.0	18.2	6.08e-01	0	60	0	607649792	55	5727
2026-01-18 12:20:01.93	255.52	50.44	-42.6	-45.9	18.3	6.07e-01	0	60	0	609746944	55	5658
2026-01-18 12:20:02.94	256.31	50.46	-42.5	-45.8	18.4	6.06e-01	0	60	0	611319808	55	5615
2026-01-18 12:20:03.94	257.09	50.48	-42.6	-46.0	18.2	6.05e-01	0	60	0	613416960	55	5731
2026-01-18 12:20:04.95	257.88	50.50	-42.6	-46.0	18.2	6.06e-01	0	60	0	614989824	55	5763
2026-01-18 12:20:05.96	258.67	50.51	-42.8	-46.1	18.1	6.07e-01	0	60	0	617086976	56	5523
2026-01-18 12:20:06.97	259.47	50.51	-42.8	-46.1	18.1	6.06e-01	0	60	0	619184128	56	5528
2026-01-18 12:20:07.98	260.26	50.51	-43.0	-46.5	17.7	6.05e-01	0	60	0	620756992	56	5757
2026-01-18 12:20:08.99	261.05	50.50	-42.7	-46.0	18.3	6.07e-01	0	60	0	622854144	56	5416
2026-01-18 12:20:10.00	261.84	50.49	-42.7	-46.1	18.2	6.06e-01	0	60	0	624427008	56	5480
2026-01-18 12:20:11.01	262.63	50.47	-42.9	-46.3	17.9	6.08e-01	0	60	0	626524160	56	5651
2026-01-18 12:20:12.02	263.42	50.44	-42.9	-46.4	17.8	6.04e-01	0	60	0	628621312	56	5695
2026-01-18 12:20:13.03	264.21	50.41	-42.9	-46.4	17.8	6.04e-01	0	60	0	630194176	56	5685
2026-01-18 12:20:14.04	264.99	50.38	-42.9	-46.3	17.9	6.08e-01	0	60	0	632291328	56	5636
2026-01-18 12:20:15.05	265.78	50.34	-42.9	-46.3	17.9	6.08e-01	0	60	0	633864192	56	5621
2026-01-18 12:20:16.06	266.56	50.29	-42.9	-46.3	17.9	6.06e-01	0	60	0	635961344	56	5646
2026-01-18 12:20:17.07	267.34	50.24	-42.9	-46.4	17.9	6.06e-01	0	60	0	638058496	56	5659
2026-01-18 12:20:18.08	268.12	50.18	-42.8	-46.1	18.1	6.07e-01	0	60	0	639631360	56	5506
2026-01-18 12:20:19.09	268.89	50.12	-42.8	-46.3	17.9	6.07e-01	0	60	0	641728512	56	5608
2026-01-18 12:20:20.10	269.66	50.05	-43.0	-46.6	17.6	6.07e-01	0	60	0	643301376	56	5837
2026-01-18 12:20:21.11	270.43	49.98	-42.8	-46.2	18.0	6.08e-01	0	60	0	645398528	56	5564
2026-01-18 12:20:22.12	271.19	49.90	-42.8	-46.2	18.1	6.06e-01	0	60	0	647495680	56	5545
2026-01-18 12:20:23.13	271.95	49.82	-43.0	-46.6	17.6	6.06e-01	0	60	0	649068544	56	5815
2026-01-18 12:20:24.14	272.70	49.73	-43.1	-46.7	17.5	6.06e-01	0	60	0	651165696	56	5889
2026-01-18 12:20:25.15	273.45	49.63	-42.8	-46.3	17.9	6.05e-01	0	60	0	652738560	56	5614
2026-01-18 12:20:26.16	274.20	49.54	-42.9	-46.3	18.0	6.07e-01	0	60	0	654835712	56	5614
2026-01-18 12:20:27.17	274.93	49.43	-43.1	-46.8	17.5	6.08e-01	0	60	0	656932864	56	5926
2026-01-18 12:20:28.18	275.67	49.32	-43.0	-46.6	17.6	6.07e-01	0	60	0	658505728	56	5800
2026-01-18 12:20:29.19	276.40	49.21	-43.0	-46.4	17.8	6.07e-01	0	60	0	660602880	56	5720
2026-01-18 12:20:30.20	277.12	49.10	-43.0	-46.6	17.6	6.06e-01	0	60	0	662700032	56	5808
2026-01-18 12:20:31.21	277.84	48.97	-43.0	-46.5	17.7	6.06e-01	0	60	0	664272896	56	5744
2026-01-18 12:20:32.21	278.55	48.85	-43.1	-46.9	17.3	6.07e-01	0	60	0	666370048	56	6007
2026-01-18 12:20:33.22	279.25	48.72	-43.1	-46.7	17.5	6.04e-01	0	60	0	667942912	56	5914
2026-01-18 12:20:34.23	279.95	48.59	-43.0	-46.5	17.7	6.07e-01	0	60	0	670040064	56	5744
2026-01-18 12:20:35.24	280.65	48.45	-43.1	-46.8	17.3	6.04e-01	0	60	0	672137216	56	5985
2026-01-18 12:20:36.25	281.34	48.31	-43.2	-47.0	17.3	6.06e-01	0	60	0	673710080	56	6089
2026-01-18 12:20:37.26	282.02	48.16	-43.0	-46.6	17.5	6.07e-01	0	60	0	675807232	57	5526
2026-01-18 12:20:38.27	282.69	48.01	-42.8	-46.1	18.1	6.07e-01	0	60	0	677904384	57	5213
2026-01-18 12:20:39.28	283.36	47.86	-43.0	-46.6	17.6	6.06e-01	0	60	0	679477248	57	5514
2026-01-18 12:20:40.29	284.02	47.70	-43.2	-46.9	17.3	6.05e-01	0	60	0	681574400	57	5709
2026-01-18 12:20:41.29	284.67	47.55	-43.0	-46.6	17.5	6.05e-01	0	60	0	683147264	57	5509
2026-01-18 12:20:42.31	285.33	47.38	-42.8	-46.2	18.0	6.07e-01	0	60	0	685244416	57	5263
2026-01-18 12:20:43.31	285.96	47.22	-43.1	-46.7	17.5	6.08e-01	0	60	0	687341568	57	5574
2026-01-18 12:20:44.32	286.60	47.05	-43.1	-46.7	17.6	6.07e-01	0	60	0	688914432	57	5542
2026-01-18 12:20:45.33	287.22	46.88	-43.2	-46.9	17.3	6.07e-01	0	60	0	691011584	57	5705
2026-01-18 12:20:46.34	287.84	46.70	-43.0	-46.6	17.6	6.05e-01	0	60	0	692584448	57	5478
2026-01-18 12:20:47.35	288.46	46.53	-42.9	-46.4	17.8	6.06e-01	0	60	0	694681600	57	5344
2026-01-18 12:20:48.37	289.07	46.34	-43.1	-46.8	17.5	6.08e-01	0	60	0	696778752	57	5605
2026-01-18 12:20:49.37	289.66	46.16	-43.0	-46.6	17.6	6.05e-01	0	60	0	698351616	57	5507
2026-01-18 12:20:50.39	290.26	45.98	-42.9	-46.4	17.8	6.06e-01	0	60	0	700448768	57	5381
2026-01-18 12:20:51.39	290.84	45.79	-42.8	-46.2	18.0	6.07e-01	0	60	0	702021632	57	5278
2026-01-18 12:20:52.40	291.42	45.60	-42.7	-46.1	18.1	6.05e-01	0	60	0	704118784	57	5189
2026-01-18 12:20:53.41	291.99	45.41	-42.8	-46.2	18.1	6.07e-01	0	60	0	706215936	57	5229
2026-01-18 12:20:54.42	292.56	45.21	-42.9	-46.4	17.8	6.05e-01	0	60	0	707788800	57	5363
2026-01-18 12:20:55.43	293.11	45.02	-42.7	-46.1	18.1	6.06e-01	0	61	0	709885952	57	5194
2026-01-18 12:20:56.44	293.66	44.82	-42.7	-46.1	18.1	6.05e-01	0	60	0	711458816	57	5195
2026-01-18 12:20:57.45	294.21	44.62	-42.8	-46.3	17.9	6.05e-01	0	60	0	713555968	57	5298
2026-01-18 12:20:58.46	294.75	44.42	-42.8	-46.2	18.0	6.07e-01	0	60	0	715653120	57	5256
2026-01-18 12:20:59.46	295.27	44.22	-42.7	-46.1	18.1	6.05e-01	0	60	0	717225984	57	5195
2026-01-18 12:21:00.47	295.79	44.02	-42.9	-46.4	17.8	6.06e-01	0	60	0	719323136	57	5396
2026-01-18 12:21:01.48	296.31	43.81	-42.8	-46.2	17.9	6.06e-01	0	60	0	720896000	57	5264
2026-01-18 12:21:02.49	296.82	43.60	-42.8	-46.2	18.0	6.05e-01	0	61	0	722993152	57	5237
2026-01-18 12:21:03.50	297.32	43.40	-42.7	-46.1	18.2	6.07e-01	0	60	0	725090304	57	5164
2026-01-18 12:21:04.51	297.82	43.19	-43.0	-46.6	17.7	6.08e-01	0	60	0	726663168	57	5485
2026-01-18 12:21:05.52	298.31	42.98	-42.9	-46.5	17.8	6.08e-01	0	60	0	728760320	57	5404
2026-01-18 12:21:06.53	298.79	42.77	-42.8	-46.3	17.9	6.06e-01	0	60	0	730857472	57	5298
2026-01-18 12:21:07.54	299.27	42.55	-42.9	-46.4	17.9	6.05e-01	0	60	0	732430336	57	5341
2026-01-18 12:21:08.55	299.74	42.34	-42.8	-46.2	18.0	6.09e-01	0	61	0	734527488	57	5238
2026-01-18 12:21:09.56	300.21	42.13	-42.8	-46.2	18.1	6.06e-01	0	60	0	736100352	57	5220
2026-01-18 12:21:10.57	300.67	41.91	-42.8	-46.2	18.0	6.05e-01	0	60	0	738197504	57	5254
2026-01-18 12:21:11.58	301.12	41.70	-43.0	-46.6	17.6	6.05e-01	0	60	0	740294656	57	5480
2026-01-18 12:21:12.59	301.57	41.48	-42.9	-46.4	17.8	6.06e-01	0	60	0	741867520	57	5401
2026-01-18 12:21:13.60	302.01	41.27	-42.8	-46.2	18.0	6.07e-01	0	60	0	743964672	57	5277
2026-01-18 12:21:14.61	302.44	41.05	-42.9	-46.4	17.8	6.06e-01	0	60	0	745537536	57	5365
2026-01-18 12:21:15.62	302.87	40.83	-42.9	-46.5	17.8	6.06e-01	0	61	0	747634688	57	5435
2026-01-18 12:21:16.63	303.29	40.62	-42.9	-46.5	17.7	6.06e-01	0	60	0	749731840	57	5433
2026-01-18 12:21:17.64	303.71	40.40	-42.8	-46.3	17.9	6.05e-01	0	60	0	751304704	57	5290
2026-01-18 12:21:18.65	304.12	40.18	-42.9	-46.5	17.7	6.06e-01	0	60	0	753401856	57	5416
2026-01-18 12:21:19.66	304.53	39.96	-43.1	-46.8	17.4	6.06e-01	0	60	0	754974720	57	5653
2026-01-18 12:21:20.67	304.93	39.74	-43.0	-46.6	17.5	6.05e-01	0	60	0	757071872	57	5518
2026-01-18 12:21:21.68	305.32	39.53	-42.9	-46.4	17.8	6.07e-01	0	60	0	759169024	57	5377
2026-01-18 12:21:22.69	305.71	39.31	-43.0	-46.5	17.7	6.08e-01	0	60	0	760741888	57	5452
2026-01-18 12:21:23.70	306.10	39.09	-42.9	-46.4	17.7	6.04e-01	0	60	0	762839040	57	5388
2026-01-18 12:21:24.71	306.48	38.87	-42.9	-46.4	17.8	6.07e-01	0	60	0	764936192	57	5391
2026-01-18 12:21:25.72	306.85	38.65	-42.9	-46.4	17.8	6.07e-01	0	60	0	766509056	57	5356
2026-01-18 12:21:26.73	307.22	38.44	-43.0	-46.6	17.6	6.06e-01	0	60	0	768606208	57	5486
2026-01-18 12:21:27.74	307.59	38.22	-42.8	-46.2	17.9	6.06e-01	0	61	0	770179072	57	5279
2026-01-18 12:21:28.75	307.95	38.00	-42.7	-46.0	18.1	6.05e-01	0	60	0	772276224	57	5155
2026-01-18 12:21:29.76	308.30	37.79	-42.7	-46.1	18.1	6.08e-01	0	61	0	774373376	57	5192
2026-01-18 12:21:30.77	308.65	37.57	-42.7	-46.1	18.0	6.07e-01	0	60	0	775946240	57	5211
2026-01-18 12:21:31.78	309.00	37.35	-42.8	-46.2	18.0	6.07e-01	0	60	0	778043392	57	5234
2026-01-18 12:21:32.79	309.34	37.14	-42.9	-46.4	17.8	6.07e-01	0	60	0	779616256	57	5374
2026-01-18 12:21:33.79	309.67	36.92	-42.9	-46.4	17.8	6.06e-01	0	60	0	781713408	57	5360
2026-01-18 12:21:34.80	310.00	36.71	-42.7	-46.1	18.0	6.04e-01	0	61	0	783810560	57	5199
2026-01-18 12:21:35.81	310.33	36.50	-42.6	-45.9	18.3	6.06e-01	0	61	0	785383424	57	5049
2026-01-18 12:21:36.82	310.65	36.28	-42.4	-45.6	18.6	6.08e-01	0	61	0	787480576	56	5160
2026-01-18 12:21:37.83	310.97	36.07	-42.3	-45.4	18.8	6.05e-01	0	60	0	789053440	56	5052
2026-01-18 12:21:38.84	311.29	35.86	-42.3	-45.3	18.8	6.04e-01	0	60	0	791150592	56	5037
2026-01-18 12:21:39.85	311.60	35.64	-42.3	-45.5	18.7	6.05e-01	0	60	0	793247744	56	5120
2026-01-18 12:21:40.86	311.90	35.43	-42.4	-45.6	18.5	6.05e-01	0	60	0	794820608	56	5214
2026-01-18 12:21:41.87	312.21	35.22	-42.3	-45.5	18.6	6.06e-01	0	60	0	796917760	56	5139
2026-01-18 12:21:42.87	312.50	35.01	-42.3	-45.4	18.7	6.06e-01	0	60	0	799014912	56	5079
2026-01-18 12:21:43.88	312.80	34.80	-42.2	-45.3	18.8	6.07e-01	0	61	0	800587776	56	5026
2026-01-18 12:21:44.89	313.09	34.59	-42.2	-45.3	18.8	6.06e-01	0	61	0	802684928	56	5027
2026-01-18 12:21:45.90	313.37	34.39	-42.1	-45.0	19.1	6.05e-01	0	61	0	804257792	56	4861
2026-01-18 12:21:46.91	313.66	34.18	-42.0	-45.0	19.2	6.07e-01	0	61	0	806354944	56	4834
2026-01-18 12:21:47.92	313.94	33.97	-42.1	-45.1	19.0	6.05e-01	0	61	0	808452096	56	4909
2026-01-18 12:21:48.93	314.21	33.77	-42.0	-44.9	19.2	6.07e-01	0	61	0	810024960	56	4800
2026-01-18 12:21:49.94	314.49	33.56	-41.8	-44.7	19.3	6.06e-01	0	61	0	812122112	55	4961
2026-01-18 12:21:50.95	314.76	33.36	-41.9	-44.9	19.1	6.07e-01	0	61	0	813694976	55	5087
2026-01-18 12:21:51.96	315.02	33.15	-41.8	-44.7	19.3	6.07e-01	0	61	0	815792128	55	4978
2026-01-18 12:21:52.97	315.29	32.95	-41.8	-44.7	19.4	6.07e-01	0	61	0	817889280	55	4954
2026-01-18 12:21:53.98	315.54	32.75	-41.8	-44.7	19.3	6.07e-01	0	61	0	819462144	55	4962
2026-01-18 12:21:54.99	315.80	32.55	-41.8	-44.7	19.3	6.07e-01	0	60	0	821559296	55	4937
2026-01-18 12:21:56.00	316.05	32.35	-41.8	-44.7	19.3	6.07e-01	0	61	0	823132160	55	4972
2026-01-18 12:21:57.01	316.30	32.15	-41.8	-44.8	19.3	6.02e-01	0	61	0	825229312	55	4989
2026-01-18 12:21:58.03	316.55	31.95	-41.8	-44.6	19.4	6.08e-01	0	61	0	827326464	55	4925
2026-01-18 12:21:59.03	316.79	31.75	-41.8	-44.6	19.4	6.06e-01	0	61	0	828899328	55	4923
2026-01-18 12:22:00.04	317.03	31.55	-41.8	-44.7	19.3	6.07e-01	0	60	0	830996480	55	4966
2026-01-18 12:22:01.05	317.27	31.36	-41.7	-44.6	19.5	6.05e-01	0	61	0	832569344	55	4886
2026-01-18 12:22:02.06	317.51	31.16	-41.7	-44.6	19.4	6.09e-01	0	60	0	834666496	55	4912
2026-01-18 12:22:03.07	317.74	30.97	-41.7	-44.5	19.5	6.06e-01	0	61	0	836763648	55	4850
2026-01-18 12:22:04.08	317.97	30.78	-41.6	-44.4	19.6	6.05e-01	0	60	0	838336512	55	4802
2026-01-18 12:22:05.09	318.20	30.58	-41.6	-44.4	19.6	6.08e-01	0	60	0	840433664	55	4773
2026-01-18 12:22:06.10	318.42	30.39	-41.6	-44.4	19.5	6.05e-01	0	61	0	842530816	55	4809
2026-01-18 12:22:07.11	318.64	30.20	-41.7	-44.6	19.5	6.06e-01	0	60	0	844103680	55	4886
2026-01-18 12:22:08.12	318.86	30.01	-41.8	-44.7	19.3	6.06e-01	0	60	0	846200832	55	4951
2026-01-18 12:22:09.13	319.07	29.82	-41.9	-44.9	19.1	6.04e-01	0	61	0	847773696	55	5059
2026-01-18 12:22:10.14	319.29	29.63	-41.9	-44.9	19.1	6.05e-01	0	61	0	849870848	55	5082
2026-01-18 12:22:11.15	319.50	29.45	-41.9	-45.0	19.1	6.06e-01	0	61	0	851968000	55	5103
2026-01-18 12:22:12.15	319.71	29.26	-42.0	-45.0	19.0	6.06e-01	0	61	0	853540864	55	5143
2026-01-18 12:22:13.17	319.91	29.08	-42.1	-45.2	18.8	6.05e-01	0	60	0	855638016	55	5233
2026-01-18 12:22:14.18	320.12	28.89	-42.1	-45.2	18.8	6.04e-01	0	61	0	857210880	55	5254
2026-01-18 12:22:15.19	320.32	28.71	-42.0	-45.1	18.9	6.07e-01	0	61	0	859308032	55	5207
2026-01-18 12:22:16.19	320.52	28.53	-41.9	-44.9	19.1	6.07e-01	0	61	0	861405184	55	5080
2026-01-18 12:22:17.20	320.71	28.35	-42.0	-45.0	19.0	6.06e-01	0	61	0	862978048	55	5144
2026-01-18 12:22:18.21	320.91	28.17	-42.0	-45.0	19.0	6.08e-01	0	61	0	865075200	55	5147
2026-01-18 12:22:19.22	321.10	27.99	-41.9	-45.0	19.0	6.06e-01	0	61	0	867172352	55	5103
2026-01-18 12:22:20.23	321.29	27.81	-42.0	-45.0	19.0	6.08e-01	0	60	0	868745216	55	5119
2026-01-18 12:22:21.24	321.48	27.63	-41.9	-44.9	19.0	6.05e-01	0	61	0	870842368	55	5090
2026-01-18 12:22:22.25	321.66	27.46	-42.0	-45.1	18.9	6.05e-01	0	60	0	872415232	55	5168
2026-01-18 12:22:23.26	321.85	27.28	-42.1	-45.3	18.7	6.04e-01	0	61	0	874512384	55	5306
2026-01-18 12:22:24.26	322.03	27.11	-42.2	-45.5	18.5	6.06e-01	0	61	0	876609536	55	5407
2026-01-18 12:22:25.28	322.21	26.93	-42.2	-45.4	18.6	6.06e-01	0	60	0	878182400	55	5342
2026-01-18 12:22:26.28	322.38	26.76	-42.2	-45.5	18.5	6.06e-01	0	61	0	880279552	55	5409
2026-01-18 12:22:27.29	322.56	26.59	-42.2	-45.4	18.5	6.07e-01	0	61	0	881852416	55	5386
2026-01-18 12:22:28.30	322.73	26.42	-42.2	-45.4	18.5	6.07e-01	0	61	0	883949568	55	5396
2026-01-18 12:22:29.31	322.91	26.25	-42.3	-45.5	18.4	6.08e-01	0	61	0	886046720	55	5445
2026-01-18 12:22:30.32	323.08	26.08	-42.3	-45.6	18.4	6.09e-01	0	61	0	887619584	55	5467
2026-01-18 12:22:31.33	323.24	25.91	-42.2	-45.5	18.5	6.07e-01	0	61	0	889716736	55	5416
2026-01-18 12:22:32.34	323.41	25.74	-42.3	-45.6	18.3	6.08e-01	0	61	0	891289600	55	5494
2026-01-18 12:22:33.35	323.58	25.58	-42.3	-45.7	18.2	6.05e-01	0	60	0	893386752	55	5546
2026-01-18 12:22:34.36	323.74	25.41	-42.4	-45.7	18.2	6.07e-01	0	61	0	895483904	55	5557
2026-01-18 12:22:35.37	323.90	25.25	-42.3	-45.6	18.3	6.05e-01	0	61	0	897056768	55	5524
2026-01-18 12:22:36.38	324.06	25.08	-42.3	-45.7	18.2	6.07e-01	0	60	0	899153920	55	5556
2026-01-18 12:22:37.39	324.22	24.92	-42.4	-45.7	18.2	6.08e-01	0	61	0	900726784	55	5579
2026-01-18 12:22:38.40	324.37	24.76	-42.3	-45.7	18.2	6.05e-01	0	60	0	902823936	55	5555
2026-01-18 12:22:39.41	324.53	24.60	-42.4	-45.7	18.2	6.04e-01	0	61	0	904921088	55	5578
2026-01-18 12:22:40.42	324.68	24.44	-42.3	-45.6	18.3	6.07e-01	0	61	0	906493952	55	5515
2026-01-18 12:22:41.43	324.83	24.28	-42.3	-45.7	18.2	6.08e-01	0	61	0	908591104	55	5560
2026-01-18 12:22:42.44	324.98	24.12	-42.4	-45.8	18.1	6.06e-01	0	61	0	910688256	55	5598
2026-01-18 12:22:43.44	325.13	23.96	-42.4	-45.8	18.1	6.07e-01	0	61	0	912261120	55	5623
2026-01-18 12:22:44.45	325.28	23.80	-42.3	-45.7	18.2	6.06e-01	0	61	0	914358272	55	5556
2026-01-18 12:22:45.47	325.42	23.65	-42.3	-45.6	18.2	6.07e-01	0	61	0	915931136	55	5510
2026-01-18 12:22:46.48	325.57	23.49	-42.3	-45.7	18.2	6.06e-01	0	61	0	918028288	55	5549
2026-01-18 12:22:47.49	325.71	23.34	-42.2	-45.5	18.3	6.06e-01	0	61	0	920125440	55	5445
2026-01-18 12:22:48.49	325.85	23.18	-42.3	-45.6	18.3	6.07e-01	0	61	0	921698304	55	5485
2026-01-18 12:22:49.50	325.99	23.03	-42.3	-45.6	18.2	6.06e-01	0	61	0	923795456	55	5528
2026-01-18 12:22:50.51	326.13	22.88	-42.2	-45.5	18.3	6.07e-01	0	61	0	925368320	55	5440
2026-01-18 12:22:51.52	326.27	22.73	-42.3	-45.6	18.2	6.06e-01	0	61	0	927465472	55	5500
2026-01-18 12:22:52.54	326.40	22.58	-42.3	-45.7	18.1	6.06e-01	0	60	0	929562624	55	5543
2026-01-18 12:22:53.55	326.54	22.43	-42.3	-45.6	18.2	6.06e-01	0	61	0	931135488	55	5517
2026-01-18 12:22:54.56	326.67	22.28	-42.3	-45.7	18.1	6.06e-01	0	61	0	933232640	55	5550
2026-01-18 12:22:55.56	326.80	22.13	-42.2	-45.6	18.2	6.06e-01	0	61	0	935329792	55	5491
2026-01-18 12:22:56.58	326.93	21.98	-42.3	-45.7	18.1	6.06e-01	0	61	0	936902656	55	5559
2026-01-18 12:22:57.59	327.06	21.84	-42.4	-45.8	18.0	6.08e-01	0	61	0	938999808	55	5626
2026-01-18 12:22:58.59	327.19	21.69	-42.3	-45.7	18.1	6.06e-01	0	60	0	940572672	55	5531
2026-01-18 12:22:59.60	327.32	21.55	-42.3	-45.7	18.1	6.06e-01	0	61	0	942669824	55	5557
2026-01-18 12:23:00.61	327.44	21.41	-42.3	-45.6	18.1	6.05e-01	0	61	0	944766976	55	5522
2026-01-18 12:23:01.62	327.57	21.26	-42.2	-45.6	18.2	6.07e-01	0	61	0	946339840	55	5474
2026-01-18 12:23:02.63	327.69	21.12	-42.2	-45.5	18.3	6.06e-01	0	61	0	948436992	55	5424
2026-01-18 12:23:03.64	327.81	20.98	-42.2	-45.5	18.3	6.07e-01	0	61	0	950009856	55	5427
2026-01-18 12:23:04.65	327.93	20.84	-42.2	-45.5	18.3	6.06e-01	0	61	0	952107008	55	5458
2026-01-18 12:23:05.66	328.05	20.70	-42.2	-45.5	18.2	6.07e-01	0	61	0	953679872	55	5452
2026-01-18 12:23:06.67	328.17	20.56	-42.2	-45.6	18.1	6.06e-01	0	61	0	955777024	55	5503
2026-01-18 12:23:07.68	328.29	20.42	-42.2	-45.6	18.2	6.07e-01	0	61	0	957874176	55	5487
2026-01-18 12:23:08.69	328.40	20.28	-42.1	-45.5	18.3	6.08e-01	0	61	0	959447040	55	5404
2026-01-18 12:23:09.70	328.52	20.14	-42.1	-45.5	18.2	6.08e-01	0	61	0	961544192	55	5426
2026-01-18 12:23:10.71	328.64	20.01	-42.0	-45.3	18.4	6.07e-01	0	61	0	963641344	55	5310
2026-01-18 12:23:11.72	328.75	19.87	-42.0	-45.3	18.4	6.06e-01	0	61	0	965214208	55	5289
2026-01-18 12:23:12.73	328.86	19.74	-42.0	-45.3	18.4	6.05e-01	0	61	0	967311360	55	5325
2026-01-18 12:23:13.74	328.97	19.60	-42.1	-45.4	18.3	6.04e-01	0	61	0	968884224	55	5350
2026-01-18 12:23:14.75	329.08	19.47	-42.1	-45.5	18.2	6.07e-01	0	61	0	970981376	55	5408
2026-01-18 12:23:15.75	329.19	19.34	-42.0	-45.2	18.5	6.07e-01	0	60	0	973078528	55	5258
2026-01-18 12:23:16.77	329.30	19.20	-41.9	-45.2	18.5	6.05e-01	0	60	0	974651392	55	5242
2026-01-18 12:23:17.77	329.41	19.07	-42.0	-45.3	18.4	6.07e-01	0	61	0	976748544	55	5332
2026-01-18 12:23:18.78	329.51	18.94	-42.0	-45.3	18.4	6.06e-01	0	60	0	978845696	55	5284
2026-01-18 12:23:19.79	329.62	18.81	-42.0	-45.2	18.4	6.07e-01	0	61	0	980418560	55	5275
2026-01-18 12:23:20.80	329.73	18.68	-42.0	-45.3	18.4	6.06e-01	0	61	0	982515712	55	5280
2026-01-18 12:23:21.81	329.83	18.55	-41.9	-45.1	18.5	6.05e-01	0	61	0	984088576	55	5199
2026-01-18 12:23:22.82	329.93	18.42	-41.9	-45.2	18.5	6.08e-01	0	61	0	986185728	55	5234
2026-01-18 12:23:23.83	330.03	18.30	-41.9	-45.2	18.5	6.04e-01	0	60	0	988282880	55	5219
2026-01-18 12:23:24.84	330.14	18.17	-41.9	-45.2	18.5	6.08e-01	0	61	0	989855744	55	5230
2026-01-18 12:23:25.85	330.24	18.04	-41.9	-45.2	18.4	6.07e-01	0	61	0	991952896	55	5220
2026-01-18 12:23:26.85	330.33	17.92	-42.0	-45.3	18.3	6.06e-01	0	61	0	993525760	55	5283
2026-01-18 12:23:27.86	330.43	17.79	-41.9	-45.1	18.4	6.06e-01	0	61	0	995622912	55	5211
2026-01-18 12:23:28.87	330.53	17.67	-41.9	-45.2	18.4	6.03e-01	0	61	0	997720064	55	5229
2026-01-18 12:23:29.88	330.63	17.55	-41.9	-45.2	18.4	6.05e-01	0	61	0	999292928	55	5222
2026-01-18 12:23:30.89	330.73	17.42	-41.9	-45.1	18.4	6.08e-01	0	61	0	1001390080	55	5202
2026-01-18 12:23:31.90	330.82	17.30	-41.9	-45.2	18.4	6.05e-01	0	61	0	1002962944	55	5235
2026-01-18 12:23:32.91	330.92	17.18	-41.9	-45.2	18.3	6.06e-01	0	60	0	1005060096	55	5255
2026-01-18 12:23:33.92	331.01	17.06	-41.8	-45.0	18.5	6.06e-01	0	61	0	1007157248	55	5157
2026-01-18 12:23:34.93	331.10	16.94	-41.8	-45.1	18.4	6.07e-01	0	61	0	1008730112	55	5194
2026-01-18 12:23:35.94	331.20	16.82	-41.8	-45.1	18.4	6.08e-01	0	61	0	1010827264	55	5172
2026-01-18 12:23:36.95	331.29	16.70	-41.9	-45.3	18.2	6.05e-01	0	61	0	1012400128	55	5284
2026-01-18 12:23:37.96	331.38	16.58	-41.8	-45.0	18.5	6.09e-01	0	61	0	1014497280	55	5159
2026-01-18 12:23:38.97	331.47	16.46	-41.8	-45.1	18.4	6.07e-01	0	61	0	1016594432	55	5183
2026-01-18 12:23:39.98	331.56	16.34	-41.9	-45.2	18.3	6.08e-01	0	61	0	1018167296	55	5241
2026-01-18 12:23:40.98	331.65	16.22	-41.9	-45.2	18.3	6.07e-01	0	61	0	1020264448	55	5235
2026-01-18 12:23:41.99	331.73	16.11	-41.8	-45.1	18.4	6.08e-01	0	61	0	1021837312	55	5171
2026-01-18 12:23:43.00	331.82	15.99	-41.8	-45.2	18.3	6.06e-01	0	61	0	1023934464	55	5219
2026-01-18 12:23:44.01	331.91	15.88	-41.9	-45.3	18.2	6.05e-01	0	61	0	1026031616	55	5304
2026-01-18 12:23:45.02	331.99	15.76	-41.8	-45.2	18.2	6.06e-01	0	61	0	1027604480	55	5231
2026-01-18 12:23:46.03	332.08	15.65	-41.8	-45.2	18.2	6.08e-01	0	61	0	1029701632	55	5236
2026-01-18 12:23:47.04	332.17	15.53	-41.8	-45.1	18.3	6.08e-01	0	61	0	1031798784	55	5201
2026-01-18 12:23:48.05	332.25	15.42	-41.8	-45.2	18.2	6.05e-01	0	61	0	1033371648	55	5246
2026-01-18 12:23:49.06	332.33	15.31	-41.8	-45.1	18.2	6.04e-01	0	60	0	1035468800	55	5218
2026-01-18 12:23:50.07	332.42	15.19	-41.9	-45.3	18.1	6.08e-01	0	61	0	1037041664	55	5293
2026-01-18 12:23:51.08	332.50	15.08	-41.8	-45.2	18.2	6.07e-01	0	61	0	1039138816	55	5244
2026-01-18 12:23:52.09	332.58	14.97	-41.8	-45.2	18.2	6.08e-01	0	61	0	1041235968	55	5226
2026-01-18 12:23:53.10	332.66	14.86	-41.9	-45.2	18.1	6.05e-01	0	61	0	1042808832	55	5271
2026-01-18 12:23:54.11	332.74	14.75	-41.9	-45.3	18.0	6.06e-01	0	61	0	1044905984	55	5301
2026-01-18 12:23:55.12	332.82	14.64	-41.8	-45.2	18.1	6.06e-01	0	60	0	1046478848	55	5220
2026-01-18 12:23:56.13	332.90	14.53	-41.9	-45.4	17.9	6.06e-01	0	60	0	1048576000	55	5357
2026-01-18 12:23:57.14	332.98	14.42	-41.9	-45.3	17.9	6.06e-01	0	61	0	1050673152	55	5340
2026-01-18 12:23:58.15	333.06	14.31	-41.9	-45.4	17.9	6.07e-01	0	61	0	1052246016	55	5376
2026-01-18 12:23:59.16	333.13	14.20	-41.9	-45.4	17.8	6.05e-01	0	60	0	1054343168	55	5366
2026-01-18 12:24:00.17	333.21	14.10	-41.9	-45.5	17.7	6.07e-01	0	61	0	1056440320	55	5420
2026-01-18 12:24:01.18	333.29	13.99	-41.9	-45.5	17.7	6.06e-01	0	61	0	1058013184	55	5433
2026-01-18 12:24:02.19	333.36	13.88	-41.9	-45.4	17.8	6.05e-01	0	61	0	1060110336	55	5369
2026-01-18 12:24:03.20	333.44	13.78	-41.9	-45.4	17.8	6.02e-01	0	61	0	1061683200	55	5353
2026-01-18 12:24:04.21	333.51	13.67	-41.8	-45.3	17.8	6.01e-01	0	61	0	1063780352	55	5314
2026-01-18 12:24:05.22	333.59	13.57	-41.9	-45.4	17.7	6.00e-01	0	61	0	1065877504	55	5368
2026-01-18 12:24:06.23	333.66	13.46	-41.9	-45.4	17.7	6.01e-01	0	61	0	1067450368	55	5370
2026-01-18 12:24:07.24	333.73	13.36	-41.9	-45.4	17.7	6.01e-01	0	61	0	1069547520	55	5367
2026-01-18 12:24:08.25	333.81	13.25	-41.8	-45.3	17.8	6.03e-01	0	61	0	1071120384	55	5312
2026-01-18 12:24:09.26	333.88	13.15	-41.9	-45.4	17.7	6.00e-01	0	61	0	1073217536	55	5377
2026-01-18 12:24:10.27	333.95	13.05	-41.8	-45.4	17.7	6.02e-01	0	61	0	1075314688	55	5354
2026-01-18 12:24:11.28	334.02	12.95	-41.9	-45.5	17.6	6.03e-01	0	61	0	1076887552	55	5420
2026-01-18 12:24:12.29	334.09	12.85	-41.8	-45.3	17.7	6.00e-01	0	61	0	1078984704	55	5332
2026-01-18 12:24:13.30	334.16	12.74	-41.9	-45.5	17.5	6.04e-01	0	61	0	1080557568	55	5464
2026-01-18 12:24:14.30	334.23	12.64	-41.9	-45.6	17.4	6.01e-01	0	61	0	1082654720	55	5497
2026-01-18 12:24:15.31	334.30	12.54	-41.9	-45.5	17.4	6.01e-01	0	61	0	1084751872	55	5455
2026-01-18 12:24:16.32	334.37	12.44	-42.0	-45.7	17.3	6.01e-01	0	61	0	1086324736	55	5556
2026-01-18 12:24:17.33	334.44	12.34	-41.9	-45.5	17.5	6.02e-01	0	61	0	1088421888	55	5448
2026-01-18 12:24:18.34	334.51	12.24	-41.9	-45.6	17.4	6.04e-01	0	61	0	1089994752	55	5508
2026-01-18 12:24:19.35	334.57	12.15	-41.9	-45.6	17.4	6.01e-01	0	61	0	1092091904	55	5481
2026-01-18 12:24:20.36	334.64	12.05	-41.9	-45.6	17.4	6.00e-01	0	61	0	1094189056	55	5487
2026-01-18 12:24:21.37	334.71	11.95	-41.9	-45.6	17.3	6.02e-01	0	61	0	1095761920	55	5519
2026-01-18 12:24:22.38	334.77	11.85	-42.0	-45.8	17.1	6.00e-01	0	61	0	1097859072	55	5613
2026-01-18 12:24:23.40	334.84	11.75	-41.9	-45.6	17.3	5.98e-01	0	61	0	1099956224	55	5493
2026-01-18 12:24:24.40	334.90	11.66	-42.0	-45.8	17.1	6.04e-01	0	60	0	1101529088	55	5617
2026-01-18 12:24:25.41	334.97	11.56	-41.9	-45.7	17.2	6.00e-01	0	61	0	1103626240	55	5590
2026-01-18 12:24:26.42	335.03	11.47	-42.0	-45.8	17.1	6.02e-01	0	61	0	1105199104	55	5613
2026-01-18 12:24:27.43	335.10	11.37	-42.0	-45.8	17.0	6.02e-01	0	60	0	1107296256	55	5651
2026-01-18 12:24:28.44	335.16	11.27	-42.1	-46.2	16.7	6.02e-01	0	61	0	1109393408	55	5869
2026-01-18 12:24:29.45	335.22	11.18	-42.0	-45.9	16.9	6.02e-01	0	61	0	1110966272	55	5689
2026-01-18 12:24:30.46	335.28	11.09	-42.0	-45.9	16.9	6.00e-01	0	61	0	1113063424	55	5681
2026-01-18 12:24:31.47	335.35	10.99	-41.9	-45.8	16.9	6.03e-01	0	61	0	1114636288	55	5646
2026-01-18 12:24:32.48	335.41	10.90	-41.9	-45.7	17.0	6.02e-01	0	61	0	1116733440	55	5559
2026-01-18 12:24:33.49	335.47	10.80	-42.0	-45.9	16.8	6.03e-01	0	61	0	1118830592	55	5722
2026-01-18 12:24:34.50	335.53	10.71	-42.0	-46.1	16.6	6.03e-01	0	61	0	1120403456	55	5808
2026-01-18 12:24:35.51	335.59	10.62	-42.0	-46.1	16.5	6.01e-01	0	61	0	1122500608	55	5848
2026-01-18 12:24:36.52	335.65	10.53	-41.9	-45.9	16.8	6.01e-01	0	61	0	1124597760	55	5701
2026-01-18 12:24:37.53	335.71	10.43	-41.8	-45.6	17.0	6.01e-01	0	61	0	1126170624	55	5527
2026-01-18 12:24:38.54	335.77	10.34	-42.0	-46.1	16.5	5.97e-01	0	61	0	1128267776	55	5828
2026-01-18 12:24:39.55	335.83	10.25	-42.0	-46.3	16.3	6.01e-01	0	61	0	1129840640	55	5956
2026-01-18 12:24:40.56	335.89	10.16	-42.0	-46.3	16.3	6.01e-01	0	61	0	1131937792	55	5940
2026-01-18 12:24:41.57	335.95	10.07	-42.1	-46.4	16.1	6.01e-01	0	61	0	1134034944	55	6013
2026-01-18 12:24:42.58	336.01	9.98	-42.0	-46.2	16.3	6.00e-01	0	61	0	1135607808	55	5887
2026-01-18 12:24:43.58	336.06	9.89	-41.9	-46.1	16.4	6.00e-01	0	61	0	1137704960	55	5812
2026-01-18 12:24:44.59	336.12	9.80	-41.9	-46.1	16.4	6.00e-01	0	61	0	1139277824	55	5838
2026-01-18 12:24:45.60	336.18	9.71	-41.8	-46.0	16.5	6.00e-01	0	61	0	1141374976	55	5746
2026-01-18 12:24:46.61	336.23	9.62	-42.0	-46.2	16.2	6.00e-01	0	61	0	1143472128	55	5912
2026-01-18 12:24:47.62	336.29	9.54	-42.0	-46.3	16.1	6.01e-01	0	61	0	1145044992	55	5990
2026-01-18 12:24:48.63	336.35	9.45	-42.0	-46.4	16.0	6.02e-01	0	61	0	1147142144	55	6057
2026-01-18 12:24:49.64	336.40	9.36	-42.0	-46.5	15.9	6.02e-01	0	61	0	1148715008	55	6068
2026-01-18 12:24:50.65	336.46	9.27	-42.0	-46.4	16.0	6.01e-01	0	61	0	1150812160	55	6020
2026-01-18 12:24:51.66	336.51	9.19	-41.9	-46.2	16.2	6.01e-01	0	61	0	1152909312	55	5900
2026-01-18 12:24:52.67	336.57	9.10	-41.9	-46.3	16.0	6.01e-01	0	61	0	1154482176	55	5963
2026-01-18 12:24:53.68	336.62	9.01	-41.9	-46.3	16.1	6.01e-01	0	61	0	1156579328	55	5928
2026-01-18 12:24:54.69	336.67	8.93	-41.9	-46.3	16.1	6.02e-01	0	61	0	1158152192	55	5953
2026-01-18 12:24:55.69	336.73	8.84	-42.0	-46.5	15.8	6.01e-01	0	61	0	1160249344	55	6086
2026-01-18 12:24:56.71	336.78	8.75	-41.9	-46.4	15.9	6.00e-01	0	61	0	1162346496	55	5998
2026-01-18 12:24:57.72	336.83	8.67	-42.0	-46.6	15.7	6.01e-01	0	61	0	1163919360	55	6143
2026-01-18 12:24:58.73	336.89	8.58	-42.1	-46.8	15.5	6.02e-01	0	61	0	1166016512	55	6285
2026-01-18 12:24:59.74	336.94	8.50	-42.0	-46.7	15.5	6.02e-01	0	61	0	1168113664	55	6238
2026-01-18 12:25:00.74	336.99	8.42	-42.0	-46.8	15.4	6.04e-01	0	61	0	1169686528	55	6279
2026-01-18 12:25:01.75	337.04	8.33	-42.0	-46.6	15.5	6.04e-01	0	61	0	1171783680	55	6191
2026-01-18 12:25:02.76	337.09	8.25	-42.0	-46.9	15.3	6.02e-01	0	61	0	1173356544	55	6355
2026-01-18 12:25:03.77	337.15	8.17	-41.9	-46.6	15.5	6.01e-01	0	61	0	1175453696	55	6179
2026-01-18 12:25:04.78	337.20	8.08	-41.8	-46.3	15.7	6.00e-01	0	61	0	1177550848	55	5961
2026-01-18 12:25:05.79	337.25	8.00	-44.0	-53.1	4.9	7.18e-01	0	61	104	1178599424	59	10395
2026-01-18 12:25:06.80	337.30	7.92	-45.3	-63.3	3.9	7.44e-01	0	61	104	1178599424	61	29926
2026-01-18 12:25:07.81	337.35	7.83	-45.7	-64.1	3.8	7.43e-01	0	61	104	1178599424	61	32743
2026-01-18 12:25:08.82	337.40	7.75	-46.0	-64.6	3.8	7.44e-01	0	61	104	1178599424	62	32874
2026-01-18 12:25:09.83	337.45	7.67	-46.2	-64.8	3.8	7.46e-01	0	61	104	1178599424	62	33322
2026-01-18 12:25:10.84	337.50	7.59	-46.3	-64.9	3.8	7.44e-01	0	61	104	1178599424	63	31858
2026-01-18 12:25:11.85	337.55	7.51	-46.3	-65.0	3.8	7.43e-01	0	61	104	1178599424	63	32227
2026-01-18 12:25:12.86	337.59	7.43	-46.4	-65.0	3.8	7.43e-01	0	61	104	1178599424	63	32453
2026-01-18 12:25:13.87	337.64	7.35	-46.4	-65.1	3.8	7.47e-01	0	61	104	1178599424	63	32564
2026-01-18 12:25:14.88	337.69	7.27	-46.4	-65.0	3.8	7.48e-01	0	61	104	1178599424	63	32486
2026-01-18 12:25:15.89	337.74	7.19	-46.0	-65.0	3.8	7.41e-01	0	61	104	1178599424	63	32308
2026-01-18 12:25:16.90	337.79	7.11	-46.2	-64.9	3.8	7.46e-01	0	61	104	1178599424	63	31999
2026-01-18 12:25:17.91	337.83	7.03	-46.4	-65.0	3.8	7.46e-01	0	61	104	1178599424	63	32213
2026-01-18 12:25:18.92	337.88	6.95	-46.4	-65.0	3.8	7.41e-01	0	61	104	1178599424	63	32220
2026-01-18 12:25:19.93	337.93	6.87	-46.4	-65.0	3.8	7.46e-01	0	61	104	1178599424	63	32189
2026-01-18 12:25:20.94	337.98	6.79	-46.3	-64.9	3.8	7.45e-01	0	61	104	1178599424	63	32024
2026-01-18 12:25:21.95	338.02	6.71	-46.2	-64.9	3.8	7.43e-01	0	61	104	1178599424	63	31860
2026-01-18 12:25:22.96	338.07	6.63	-46.3	-64.9	3.8	7.44e-01	0	61	104	1178599424	63	31927
2026-01-18 12:25:23.98	338.11	6.55	-46.3	-64.9	3.8	7.43e-01	0	61	104	1178599424	63	31918
