passes_logs/2026/01/18/R2.0S_Moscow/R2.0S_Moscow__20260118_080059_NOAA_21_JPSS-2_rec.log

#Pass ID: 20260118_080059_NOAA 21 (JPSS-2)
#Satellite: NOAA 21 (JPSS-2)
#Configuration: NOAA-21
#almurnet v.1.7.20251203
#Start time: 2026-01-18 08:01:00

#Version: 2.2.20231116
#Station: R2.0S_Moscow
#Location: 37.707566 lon 55.798166 lat
#TLE: 1 54234U 22150A   26017.26823908  .00000042  00000+0  40962-4 0  9992
#TLE: 2 54234  98.7501 318.1405 0000613 274.2947  85.8159 14.19535194165131

#Time	Az	El	Level	Level2	SNR	BER	BlckErr	Temp	State	Recorded	gain1	gain2
2026-01-18 08:01:00.71	104.48	2.06	-38.9	-52.0	4.0	1.49e+00	0	51	0	0	47	18187
2026-01-18 08:01:01.71	104.40	2.11	-39.1	-52.5	3.8	1.49e+00	0	52	104	0	50	16170
2026-01-18 08:01:02.73	104.32	2.17	-39.9	-52.7	3.9	1.49e+00	0	52	104	0	50	16542
2026-01-18 08:01:03.74	104.25	2.22	-40.0	-52.7	3.8	1.49e+00	0	52	104	0	50	16601
2026-01-18 08:01:04.75	104.17	2.28	-35.6	-50.8	3.9	1.49e+00	0	52	104	0	42	21085
2026-01-18 08:01:05.76	104.09	2.33	-39.9	-52.8	3.7	1.49e+00	0	52	104	0	47	20024
2026-01-18 08:01:06.77	104.02	2.39	-39.9	-52.4	3.8	1.49e+00	0	52	104	0	50	16082
2026-01-18 08:01:07.78	103.94	2.44	-39.0	-52.5	3.8	1.49e+00	0	52	104	0	50	16245
2026-01-18 08:01:08.79	103.86	2.50	-39.5	-52.5	3.8	1.49e+00	0	52	104	0	50	16308
2026-01-18 08:01:09.80	103.78	2.55	-38.8	-51.8	3.8	1.49e+00	0	52	104	0	49	15871
2026-01-18 08:01:10.81	103.70	2.61	-40.1	-52.8	3.8	1.49e+00	0	52	104	0	50	16767
2026-01-18 08:01:11.82	103.62	2.66	-40.0	-52.7	3.8	1.49e+00	0	53	104	0	50	16598
2026-01-18 08:01:12.83	103.54	2.72	-40.0	-52.6	3.8	1.49e+00	0	53	104	0	50	16364
2026-01-18 08:01:13.84	103.46	2.77	-39.8	-52.6	4.0	1.49e+00	0	52	104	0	50	16424
2026-01-18 08:01:14.86	103.38	2.83	-39.9	-52.7	3.8	1.49e+00	0	53	104	0	50	16653
2026-01-18 08:01:15.87	103.30	2.88	-40.1	-52.7	3.8	1.49e+00	0	53	104	0	50	16619
2026-01-18 08:01:16.88	103.22	2.94	-40.1	-52.7	3.8	1.49e+00	0	53	104	0	50	16659
2026-01-18 08:01:17.89	103.14	2.99	-40.1	-52.7	3.8	1.49e+00	0	53	104	0	50	16674
2026-01-18 08:01:18.90	103.06	3.05	-40.0	-52.7	3.8	1.49e+00	0	53	104	0	50	16601
2026-01-18 08:01:19.91	102.98	3.10	-40.1	-52.7	3.8	1.49e+00	0	53	104	0	50	16687
2026-01-18 08:01:20.92	102.89	3.16	-40.0	-52.7	3.8	1.49e+00	0	53	104	0	50	16681
2026-01-18 08:01:21.93	102.81	3.21	-40.0	-52.8	3.8	1.49e+00	0	53	104	0	50	16759
2026-01-18 08:01:22.94	102.73	3.27	-40.1	-52.7	3.8	1.49e+00	0	53	104	0	50	16683
2026-01-18 08:01:23.95	102.64	3.33	-39.9	-52.7	3.8	1.49e+00	0	53	104	0	50	16545
2026-01-18 08:01:24.96	102.56	3.38	-40.0	-52.7	3.8	1.49e+00	0	53	104	0	50	16555
2026-01-18 08:01:25.97	102.48	3.44	-40.0	-52.6	3.8	1.49e+00	0	53	104	0	50	16491
2026-01-18 08:01:26.98	102.39	3.49	-39.6	-52.7	3.8	1.49e+00	0	53	104	0	50	16513
2026-01-18 08:01:27.99	102.31	3.55	-38.1	-51.8	3.7	1.49e+00	0	53	104	0	47	17808
2026-01-18 08:01:29.01	102.22	3.60	-40.0	-52.7	3.8	1.49e+00	0	54	104	0	50	16641
2026-01-18 08:01:30.02	102.14	3.66	-39.4	-52.6	3.8	1.49e+00	0	53	104	0	50	16448
2026-01-18 08:01:31.03	102.05	3.72	-39.7	-52.4	3.8	1.49e+00	0	54	104	0	50	16033
2026-01-18 08:01:32.04	101.97	3.77	-39.8	-52.7	3.8	1.49e+00	0	54	104	0	50	16522
2026-01-18 08:01:33.05	101.88	3.83	-40.0	-52.7	3.8	1.49e+00	0	54	104	0	50	16651
2026-01-18 08:01:34.06	101.80	3.88	-40.1	-52.7	3.8	1.49e+00	0	54	104	0	50	16667
2026-01-18 08:01:35.07	101.71	3.94	-39.9	-52.7	3.8	1.49e+00	0	54	104	0	50	16505
2026-01-18 08:01:36.08	101.62	4.00	-40.0	-52.6	3.8	1.49e+00	0	54	104	0	50	16468
2026-01-18 08:01:37.10	101.53	4.05	-39.3	-52.4	3.8	1.49e+00	0	54	104	0	50	15953
2026-01-18 08:01:38.11	101.45	4.11	-39.6	-52.6	3.8	1.49e+00	0	54	104	0	50	16390
2026-01-18 08:01:39.12	101.36	4.17	-38.7	-52.1	3.8	1.49e+00	0	54	104	0	49	16341
2026-01-18 08:01:40.13	101.27	4.22	-39.8	-52.5	3.8	1.49e+00	0	54	104	0	50	16222
2026-01-18 08:01:41.14	101.18	4.28	-40.0	-52.8	3.8	1.49e+00	0	54	104	0	50	16704
2026-01-18 08:01:42.15	101.09	4.34	-39.6	-52.4	3.8	1.49e+00	0	54	104	0	50	15961
2026-01-18 08:01:43.16	101.00	4.39	-39.8	-52.6	3.8	1.49e+00	0	54	104	0	50	16454
2026-01-18 08:01:44.17	100.91	4.45	-39.6	-52.6	4.0	1.49e+00	0	55	104	0	49	17365
2026-01-18 08:01:45.18	100.82	4.51	-39.9	-52.7	3.8	1.49e+00	0	55	104	0	50	16660
2026-01-18 08:01:46.19	100.73	4.56	-39.2	-52.4	3.8	1.49e+00	0	54	104	0	50	16031
2026-01-18 08:01:47.20	100.64	4.62	-39.3	-52.4	3.8	1.49e+00	0	54	104	0	50	16090
2026-01-18 08:01:48.21	100.55	4.68	-39.9	-52.6	3.8	1.49e+00	0	54	104	0	50	16443
2026-01-18 08:01:49.22	100.46	4.73	-40.4	-52.9	4.0	1.49e+00	0	55	104	0	49	17981
2026-01-18 08:01:50.24	100.36	4.79	-40.1	-52.7	3.8	1.49e+00	0	55	104	0	50	16635
2026-01-18 08:01:51.25	100.27	4.85	-39.9	-52.6	3.8	1.49e+00	0	55	104	0	50	16466
2026-01-18 08:01:52.26	100.18	4.91	-40.1	-52.7	3.8	1.49e+00	0	55	104	0	50	16677
2026-01-18 08:01:53.27	100.09	4.96	-40.0	-52.7	3.8	1.49e+00	0	55	104	0	50	16529
2026-01-18 08:01:54.28	99.99	5.02	-38.0	-51.5	3.9	1.49e+00	0	55	104	0	48	16150
2026-01-18 08:01:55.29	99.90	5.08	-39.3	-52.1	3.9	1.49e+00	0	55	104	0	46	19449
2026-01-18 08:01:56.30	99.80	5.14	-40.0	-52.5	3.7	1.49e+00	0	55	104	0	49	17192
2026-01-18 08:01:57.31	99.71	5.19	-34.6	-49.3	4.2	1.49e+00	0	55	104	0	43	16841
2026-01-18 08:01:58.32	99.61	5.25	-39.2	-52.2	3.8	1.49e+00	0	55	104	0	49	16579
2026-01-18 08:01:59.34	99.52	5.31	-37.3	-51.0	4.1	1.49e+00	0	55	104	0	47	16204
2026-01-18 08:02:00.35	99.42	5.37	-36.5	-50.7	3.8	1.49e+00	0	55	104	0	44	18682
2026-01-18 08:02:01.36	99.33	5.42	-36.5	-50.3	4.0	1.50e+00	0	55	104	0	42	19867
2026-01-18 08:02:02.37	99.23	5.48	-39.9	-52.6	3.8	1.49e+00	0	55	104	0	50	16431
2026-01-18 08:02:03.38	99.13	5.54	-39.9	-52.6	3.8	1.49e+00	0	56	104	0	50	16486
2026-01-18 08:02:04.39	99.03	5.60	-39.9	-52.7	3.8	1.49e+00	0	55	104	0	50	16671
2026-01-18 08:02:05.40	98.94	5.66	-40.1	-52.7	3.8	1.49e+00	0	55	104	0	50	16524
2026-01-18 08:02:06.41	98.84	5.71	-40.0	-52.7	3.8	1.49e+00	0	55	104	0	50	16588
2026-01-18 08:02:07.42	98.74	5.77	-38.4	-51.9	3.8	1.49e+00	0	55	104	0	50	15200
2026-01-18 08:02:08.43	98.64	5.83	-40.0	-52.7	3.8	1.49e+00	0	56	104	0	50	16628
2026-01-18 08:02:09.45	98.54	5.89	-40.1	-52.6	3.8	1.49e+00	0	56	104	0	50	16382
2026-01-18 08:02:10.46	98.44	5.95	-38.4	-52.1	3.8	1.49e+00	0	56	104	0	50	15467
2026-01-18 08:02:11.47	98.34	6.00	-37.9	-51.6	3.8	1.49e+00	0	56	104	0	48	16411
2026-01-18 08:02:12.48	98.24	6.06	-39.8	-52.6	3.8	1.49e+00	0	56	104	0	50	16316
2026-01-18 08:02:13.49	98.14	6.12	-40.0	-52.6	3.8	1.49e+00	0	56	104	0	50	16480
2026-01-18 08:02:14.50	98.04	6.18	-40.0	-52.7	3.8	1.49e+00	0	56	104	0	50	16604
2026-01-18 08:02:15.51	97.94	6.24	-40.1	-52.7	3.8	1.49e+00	0	56	104	0	50	16562
2026-01-18 08:02:16.52	97.83	6.29	-40.0	-52.8	3.8	1.49e+00	0	56	104	0	50	16715
2026-01-18 08:02:17.53	97.73	6.35	-40.1	-52.7	3.8	1.49e+00	0	56	104	0	50	16627
2026-01-18 08:02:18.54	97.63	6.41	-39.8	-52.6	3.8	1.49e+00	0	56	104	0	50	16433
2026-01-18 08:02:19.55	97.52	6.47	-36.3	-50.6	3.8	1.49e+00	0	56	104	0	45	17346
2026-01-18 08:02:20.56	97.42	6.53	-39.1	-52.5	3.8	1.49e+00	0	56	104	0	50	16253
2026-01-18 08:02:21.58	97.31	6.59	-38.0	-51.8	3.8	1.49e+00	0	56	104	0	50	14922
2026-01-18 08:02:22.59	97.21	6.65	-39.9	-52.7	3.8	1.49e+00	0	56	104	0	50	16577
2026-01-18 08:02:23.60	97.10	6.71	-40.0	-52.7	3.8	1.49e+00	0	56	104	0	50	16543
2026-01-18 08:02:24.61	97.00	6.76	-39.7	-52.6	3.8	1.49e+00	0	56	104	0	50	16405
2026-01-18 08:02:25.62	96.89	6.82	-40.0	-52.7	3.8	1.49e+00	0	56	104	0	50	16604
2026-01-18 08:02:26.63	96.79	6.88	-40.0	-52.6	3.8	1.49e+00	0	56	104	0	50	16447
2026-01-18 08:02:27.64	96.68	6.94	-39.9	-52.6	3.8	1.49e+00	0	57	104	0	50	16428
2026-01-18 08:02:28.65	96.57	7.00	-39.9	-52.6	3.8	1.49e+00	0	56	104	0	50	16448
2026-01-18 08:02:29.66	96.46	7.06	-39.5	-52.2	3.9	1.49e+00	0	56	104	0	50	15599
2026-01-18 08:02:30.67	96.36	7.12	-39.9	-52.7	3.8	1.49e+00	0	57	104	0	50	16614
2026-01-18 08:02:31.69	96.25	7.18	-39.9	-52.7	3.8	1.49e+00	0	56	104	0	50	16537
2026-01-18 08:02:32.70	96.14	7.24	-39.9	-52.7	3.8	1.49e+00	0	56	104	0	50	16590
2026-01-18 08:02:33.71	96.03	7.29	-40.0	-52.7	3.8	1.49e+00	0	57	104	0	50	16586
2026-01-18 08:02:34.72	95.92	7.35	-40.0	-52.7	3.8	1.49e+00	0	57	104	0	50	16570
2026-01-18 08:02:35.73	95.81	7.41	-40.1	-52.8	3.8	1.49e+00	0	57	104	0	50	16724
2026-01-18 08:02:36.74	95.69	7.47	-39.7	-52.6	3.8	1.49e+00	0	57	104	0	50	16483
2026-01-18 08:02:37.75	95.58	7.53	-39.7	-52.4	3.8	1.49e+00	0	57	104	0	50	16043
2026-01-18 08:02:38.76	95.47	7.59	-39.5	-52.6	3.8	1.49e+00	0	57	104	0	50	16463
2026-01-18 08:02:39.77	95.36	7.65	-39.3	-52.5	3.8	1.49e+00	0	57	104	0	50	16141
2026-01-18 08:02:40.79	95.24	7.71	-39.9	-52.6	3.8	1.49e+00	0	57	104	0	50	16461
2026-01-18 08:02:41.79	95.13	7.77	-39.8	-52.5	3.7	1.49e+00	0	57	104	0	50	16233
2026-01-18 08:02:42.81	95.02	7.83	-39.7	-52.5	3.8	1.49e+00	0	57	104	0	50	16189
2026-01-18 08:02:43.82	94.90	7.89	-39.8	-52.6	3.9	1.49e+00	0	57	104	0	50	16360
2026-01-18 08:02:44.83	94.79	7.95	-40.0	-52.7	3.8	1.49e+00	0	57	104	0	50	16536
2026-01-18 08:02:45.84	94.67	8.01	-39.9	-52.6	3.8	1.49e+00	0	57	104	0	50	16469
2026-01-18 08:02:46.85	94.56	8.07	-39.3	-52.6	3.8	1.49e+00	0	57	104	0	51	15408
2026-01-18 08:02:47.86	94.44	8.13	-40.5	-53.1	3.8	1.49e+00	0	57	104	0	51	16403
2026-01-18 08:02:48.87	94.32	8.19	-40.0	-52.6	3.8	1.49e+00	0	57	104	0	50	16450
2026-01-18 08:02:49.88	94.21	8.24	-40.1	-52.6	3.8	1.49e+00	0	57	104	0	50	16426
2026-01-18 08:02:50.90	94.09	8.31	-39.9	-52.6	3.8	1.49e+00	0	57	104	0	50	16327
2026-01-18 08:02:51.91	93.97	8.36	-40.0	-52.5	3.8	1.49e+00	0	57	104	0	50	16310
2026-01-18 08:02:52.92	93.85	8.42	-39.9	-52.5	3.8	1.49e+00	0	57	104	0	50	16209
2026-01-18 08:02:53.93	93.73	8.48	-39.9	-52.4	3.8	1.49e+00	0	57	104	0	50	16124
2026-01-18 08:02:54.94	93.61	8.54	-40.2	-52.6	3.8	1.49e+00	0	57	104	0	50	16501
2026-01-18 08:02:55.95	93.49	8.60	-40.4	-53.0	3.8	1.49e+00	0	57	104	0	51	16134
2026-01-18 08:02:56.96	93.37	8.66	-40.1	-52.8	3.8	1.49e+00	0	57	104	0	51	15834
2026-01-18 08:02:57.97	93.25	8.72	-40.9	-53.4	3.8	1.49e+00	0	58	104	0	52	16054
2026-01-18 08:02:58.98	93.13	8.78	-40.1	-52.6	3.8	1.49e+00	0	58	104	0	52	14559
2026-01-18 08:02:59.99	93.01	8.84	-40.1	-52.6	3.8	1.49e+00	0	58	104	0	51	15495
2026-01-18 08:03:01.00	92.88	8.90	-40.2	-52.7	3.8	1.49e+00	0	57	104	0	51	15601
2026-01-18 08:03:02.01	92.76	8.96	-40.2	-52.6	3.8	1.49e+00	0	57	104	0	50	16429
2026-01-18 08:03:03.02	92.64	9.02	-39.9	-52.2	3.9	1.49e+00	0	58	104	0	49	16564
2026-01-18 08:03:04.03	92.51	9.08	-40.2	-52.7	3.8	1.49e+00	0	57	104	0	51	15681
2026-01-18 08:03:05.04	92.39	9.14	-40.8	-53.5	3.8	1.49e+00	0	58	104	0	52	16222
2026-01-18 08:03:06.05	92.26	9.20	-40.2	-52.8	3.8	1.49e+00	0	58	104	0	52	14927
2026-01-18 08:03:07.06	92.14	9.26	-40.2	-52.7	3.8	1.49e+00	0	58	104	0	52	14727
2026-01-18 08:03:08.07	92.01	9.32	-40.3	-52.8	3.8	1.49e+00	0	58	104	0	51	15913
2026-01-18 08:03:09.08	91.88	9.38	-40.3	-52.8	3.8	1.49e+00	0	58	104	0	51	15877
2026-01-18 08:03:10.09	91.76	9.44	-40.2	-52.8	3.8	1.49e+00	0	58	104	0	51	15835
2026-01-18 08:03:11.10	91.63	9.50	-40.3	-52.9	3.8	1.49e+00	0	58	104	0	51	15988
2026-01-18 08:03:12.11	91.50	9.56	-40.7	-52.6	3.8	1.49e+00	0	58	104	0	52	14569
2026-01-18 08:03:13.12	91.37	9.62	-40.4	-52.5	3.8	1.49e+00	0	58	104	0	52	14477
2026-01-18 08:03:14.13	91.24	9.68	-41.4	-53.5	3.8	1.49e+00	0	58	104	0	53	15237
2026-01-18 08:03:15.14	91.11	9.74	-40.2	-52.7	3.8	1.49e+00	0	58	104	0	52	14849
2026-01-18 08:03:16.15	90.98	9.80	-40.3	-50.8	3.9	1.49e+00	0	58	104	0	52	11913
2026-01-18 08:03:17.16	90.85	9.86	-40.3	-50.1	4.1	1.47e+00	0	58	104	0	52	10979
2026-01-18 08:03:18.17	90.72	9.92	-40.4	-50.0	4.1	1.47e+00	0	58	104	0	51	11503
2026-01-18 08:03:19.18	90.59	9.98	-40.3	-51.2	3.9	1.49e+00	0	58	104	0	51	13205
2026-01-18 08:03:20.18	90.45	10.04	-40.5	-51.4	3.8	1.49e+00	0	58	104	0	51	13565
2026-01-18 08:03:21.19	90.32	10.10	-41.0	-52.8	3.8	1.49e+00	0	58	104	0	52	15044
2026-01-18 08:03:22.20	90.19	10.16	-41.5	-53.8	3.8	1.49e+00	0	58	104	0	53	15821
2026-01-18 08:03:23.21	90.05	10.22	-40.5	-52.6	3.8	1.49e+00	0	58	104	0	52	14691
2026-01-18 08:03:24.22	89.92	10.28	-40.6	-52.8	3.8	1.49e+00	0	58	104	0	52	14897
2026-01-18 08:03:25.23	89.78	10.34	-40.8	-53.2	3.8	1.49e+00	0	58	104	0	52	15629
2026-01-18 08:03:26.24	89.65	10.40	-40.7	-53.0	3.8	1.49e+00	0	58	104	0	52	15326
2026-01-18 08:03:27.25	89.51	10.46	-41.0	-53.5	3.8	1.49e+00	0	58	104	0	52	16308
2026-01-18 08:03:28.26	89.37	10.52	-40.2	-53.0	3.8	1.49e+00	0	58	104	0	51	16300
2026-01-18 08:03:29.26	89.23	10.58	-41.0	-53.5	3.8	1.49e+00	0	58	104	0	52	16167
2026-01-18 08:03:30.27	89.10	10.64	-41.1	-53.6	3.8	1.49e+00	0	58	104	0	52	16463
2026-01-18 08:03:31.28	88.96	10.70	-40.7	-53.1	3.8	1.49e+00	0	58	104	0	52	15574
2026-01-18 08:03:32.29	88.82	10.76	-40.7	-53.1	3.8	1.49e+00	0	58	104	0	52	15546
2026-01-18 08:03:33.30	88.68	10.82	-40.7	-53.0	3.8	1.49e+00	0	58	104	0	51	16220
2026-01-18 08:03:34.31	88.54	10.88	-40.6	-53.1	3.8	1.49e+00	0	58	104	0	52	15580
2026-01-18 08:03:35.32	88.40	10.94	-40.6	-53.1	3.8	1.49e+00	0	58	104	0	52	15460
2026-01-18 08:03:36.33	88.25	11.00	-40.6	-53.2	3.8	1.49e+00	0	58	104	0	52	15751
2026-01-18 08:03:37.34	88.11	11.06	-41.1	-53.6	3.8	1.49e+00	0	58	104	0	52	16391
2026-01-18 08:03:38.35	87.97	11.12	-40.6	-53.2	3.8	1.49e+00	0	58	104	0	52	15683
2026-01-18 08:03:39.36	87.82	11.18	-40.8	-53.4	3.8	1.49e+00	0	58	104	0	52	15990
2026-01-18 08:03:40.37	87.68	11.24	-40.7	-53.2	3.8	1.49e+00	0	58	104	0	52	15666
2026-01-18 08:03:41.38	87.54	11.30	-40.7	-53.3	3.8	1.49e+00	0	58	104	0	52	15867
2026-01-18 08:03:42.39	87.39	11.36	-40.8	-53.3	3.8	1.49e+00	0	58	104	0	52	15854
2026-01-18 08:03:43.40	87.24	11.42	-40.6	-53.2	3.8	1.49e+00	0	58	104	0	51	16532
2026-01-18 08:03:44.41	87.10	11.48	-40.8	-53.3	3.8	1.49e+00	0	59	104	0	52	15874
2026-01-18 08:03:45.42	86.95	11.54	-40.7	-53.2	3.8	1.49e+00	0	58	104	0	51	16588
2026-01-18 08:03:46.43	86.80	11.59	-40.6	-53.2	3.8	1.49e+00	0	59	104	0	52	15632
2026-01-18 08:03:47.44	86.65	11.65	-40.7	-53.2	3.8	1.49e+00	0	58	104	0	52	15661
2026-01-18 08:03:48.44	86.51	11.71	-40.6	-53.2	3.8	1.49e+00	0	59	104	0	52	15671
2026-01-18 08:03:49.45	86.36	11.77	-40.8	-53.3	3.8	1.49e+00	0	59	104	0	52	15776
2026-01-18 08:03:50.46	86.21	11.83	-40.6	-53.3	3.8	1.49e+00	0	59	104	0	52	15782
2026-01-18 08:03:51.47	86.05	11.89	-40.4	-53.1	3.8	1.49e+00	0	59	104	0	52	15486
2026-01-18 08:03:52.48	85.90	11.95	-40.6	-53.2	3.8	1.49e+00	0	59	104	0	52	15652
2026-01-18 08:03:53.49	85.75	12.01	-40.3	-53.0	3.8	1.49e+00	0	59	104	0	52	15270
2026-01-18 08:03:54.51	85.60	12.07	-40.4	-53.1	3.8	1.49e+00	0	59	104	0	52	15410
2026-01-18 08:03:55.52	85.44	12.13	-40.4	-53.1	3.8	1.49e+00	0	59	104	0	52	15423
2026-01-18 08:03:56.53	85.29	12.19	-40.4	-53.0	3.8	1.49e+00	0	59	104	0	52	15340
2026-01-18 08:03:57.54	85.13	12.24	-40.6	-53.2	3.8	1.49e+00	0	59	104	0	52	15618
2026-01-18 08:03:58.54	84.98	12.30	-40.4	-53.0	3.8	1.49e+00	0	59	104	0	52	15366
2026-01-18 08:03:59.55	84.82	12.36	-40.4	-53.0	3.8	1.49e+00	0	59	104	0	52	15311
2026-01-18 08:04:00.56	84.67	12.42	-40.5	-53.0	3.8	1.49e+00	0	59	104	0	52	15295
2026-01-18 08:04:01.58	84.51	12.48	-40.5	-53.0	3.8	1.49e+00	0	59	104	0	52	15368
2026-01-18 08:04:02.59	84.35	12.54	-40.5	-53.0	3.8	1.49e+00	0	59	104	0	52	15368
2026-01-18 08:04:03.59	84.19	12.60	-40.5	-53.1	3.8	1.49e+00	0	59	104	0	52	15433
2026-01-18 08:04:04.60	84.04	12.65	-40.5	-53.1	3.8	1.49e+00	0	59	104	0	52	15447
2026-01-18 08:04:05.61	83.88	12.71	-40.8	-53.3	3.8	1.49e+00	0	59	104	0	52	15909
2026-01-18 08:04:06.62	83.72	12.77	-40.6	-53.0	3.8	1.49e+00	0	59	104	0	52	15387
2026-01-18 08:04:07.64	83.55	12.83	-40.7	-53.2	3.8	1.49e+00	0	59	104	0	52	15723
2026-01-18 08:04:08.65	83.39	12.89	-40.6	-53.1	3.8	1.49e+00	0	59	104	0	52	15428
2026-01-18 08:04:09.66	83.23	12.95	-40.4	-53.0	3.8	1.49e+00	0	59	104	0	52	15252
2026-01-18 08:04:10.67	83.07	13.00	-40.5	-52.9	3.8	1.49e+00	0	59	104	0	52	15169
2026-01-18 08:04:11.68	82.90	13.06	-40.4	-52.9	3.8	1.49e+00	0	59	104	0	52	15142
2026-01-18 08:04:12.69	82.74	13.12	-40.4	-52.9	3.8	1.49e+00	0	59	104	0	52	15134
2026-01-18 08:04:13.70	82.57	13.18	-40.4	-52.9	3.8	1.49e+00	0	59	104	0	52	15149
2026-01-18 08:04:14.71	82.41	13.23	-40.5	-52.9	3.8	1.49e+00	0	59	104	0	52	15193
2026-01-18 08:04:15.72	82.24	13.29	-40.5	-53.0	3.8	1.49e+00	0	59	104	0	52	15297
2026-01-18 08:04:16.73	82.08	13.35	-40.8	-52.9	3.8	1.49e+00	0	59	104	0	52	15133
2026-01-18 08:04:17.74	81.91	13.41	-41.3	-53.3	3.8	1.49e+00	0	59	104	0	53	14892
2026-01-18 08:04:18.75	81.74	13.46	-40.6	-53.1	3.8	1.49e+00	0	59	104	0	53	14629
2026-01-18 08:04:19.76	81.57	13.52	-40.7	-53.0	3.8	1.49e+00	0	59	104	0	53	14422
2026-01-18 08:04:20.77	81.40	13.58	-40.8	-53.0	3.8	1.49e+00	0	59	104	0	53	14415
2026-01-18 08:04:21.78	81.23	13.63	-40.9	-52.7	3.8	1.49e+00	0	59	104	0	53	14042
2026-01-18 08:04:22.79	81.06	13.69	-41.4	-53.1	3.8	1.49e+00	0	59	104	0	53	14667
2026-01-18 08:04:23.80	80.89	13.75	-40.9	-53.4	3.8	1.49e+00	0	59	104	0	53	15160
2026-01-18 08:04:24.81	80.72	13.80	-41.0	-52.7	3.8	1.49e+00	0	59	104	0	53	13890
2026-01-18 08:04:25.82	80.54	13.86	-41.5	-53.1	3.8	1.49e+00	0	59	104	0	53	14562
2026-01-18 08:04:26.82	80.37	13.91	-40.7	-52.5	3.8	1.48e+00	0	59	104	0	53	13574
2026-01-18 08:04:27.83	80.20	13.97	-40.7	-50.7	4.0	1.49e+00	0	59	104	0	53	11122
2026-01-18 08:04:28.84	80.02	14.03	-40.8	-50.4	3.9	1.47e+00	0	59	104	0	53	10757
2026-01-18 08:04:29.85	79.85	14.08	-40.6	-48.5	4.8	1.16e+00	0	59	104	0	53	8562
2026-01-18 08:04:30.86	79.67	14.14	-40.7	-51.2	3.9	1.48e+00	0	60	104	0	53	11794
2026-01-18 08:04:31.87	79.50	14.19	-41.1	-49.5	4.5	1.40e+00	4	59	104	0	53	9688
2026-01-18 08:04:32.88	79.32	14.25	-40.9	-51.2	3.9	1.09e+00	0	59	104	1048576	53	11699
2026-01-18 08:04:33.89	79.14	14.30	-41.6	-50.9	3.9	9.26e-01	0	59	104	1048576	53	11403
2026-01-18 08:04:34.90	78.96	14.36	-40.6	-50.6	3.9	2.97e-01	0	59	104	2097152	52	11619
2026-01-18 08:04:35.91	78.78	14.41	-40.1	-45.3	7.4	4.23e-01	0	60	0	2097152	52	6300
2026-01-18 08:04:36.92	78.60	14.47	-39.9	-44.7	8.0	7.29e-02	0	60	0	5242880	51	6226
2026-01-18 08:04:37.93	78.42	14.52	-39.7	-44.4	8.3	5.81e-02	0	59	0	8388608	51	6038
2026-01-18 08:04:38.94	78.24	14.58	-39.8	-44.6	8.1	6.10e-02	0	59	0	11534336	51	6158
2026-01-18 08:04:39.95	78.06	14.63	-39.9	-44.9	7.8	6.82e-02	0	59	0	14680064	51	6351
2026-01-18 08:04:40.96	77.88	14.68	-39.9	-44.8	7.8	8.06e-02	0	59	0	17825792	51	6322
2026-01-18 08:04:41.97	77.69	14.74	-39.8	-44.7	8.0	6.48e-02	0	59	0	20971520	51	6245
2026-01-18 08:04:42.98	77.51	14.79	-39.9	-44.7	8.0	6.93e-02	0	59	0	24117248	51	6260
2026-01-18 08:04:43.99	77.32	14.85	-40.0	-45.0	7.6	8.38e-02	0	59	0	27262976	51	6493
2026-01-18 08:04:45.00	77.14	14.90	-40.1	-45.5	7.2	1.27e-01	0	59	0	30408704	51	6844
2026-01-18 08:04:46.01	76.95	14.95	-40.3	-46.0	6.8	1.76e-01	0	59	0	33554432	51	7242
2026-01-18 08:04:47.02	76.77	15.00	-40.3	-45.9	6.9	1.64e-01	0	59	0	36700160	51	7139
2026-01-18 08:04:48.03	76.58	15.06	-40.3	-45.8	7.1	1.51e-01	0	59	0	39845888	51	7068
2026-01-18 08:04:49.04	76.39	15.11	-40.3	-45.8	7.1	1.50e-01	0	60	0	42991616	51	7064
2026-01-18 08:04:50.05	76.20	15.16	-40.3	-46.0	6.9	1.63e-01	0	59	0	46137344	51	7208
2026-01-18 08:04:51.06	76.01	15.21	-40.4	-46.2	6.7	1.90e-01	0	59	0	49283072	51	7417
2026-01-18 08:04:52.07	75.82	15.27	-40.6	-46.7	6.3	2.46e-01	0	59	0	52428800	51	7811
2026-01-18 08:04:53.07	75.63	15.32	-40.7	-47.2	5.8	3.71e-01	0	60	0	55574528	51	8334
2026-01-18 08:04:54.08	75.44	15.37	-40.7	-47.4	5.7	4.19e-01	0	60	0	58720256	51	8481
2026-01-18 08:04:55.09	75.25	15.42	-40.5	-46.8	6.0	3.58e-01	0	60	0	61865984	51	7984
2026-01-18 08:04:56.10	75.06	15.47	-40.3	-46.5	6.2	2.97e-01	0	59	0	65011712	51	7688
2026-01-18 08:04:57.12	74.86	15.52	-40.4	-46.6	6.1	3.00e-01	0	60	0	68157440	51	7807
2026-01-18 08:04:58.13	74.67	15.57	-40.4	-46.7	6.1	3.02e-01	0	60	0	71303168	51	7840
2026-01-18 08:04:59.14	74.47	15.62	-40.4	-46.8	6.0	3.21e-01	0	59	0	74448896	51	7948
2026-01-18 08:05:00.15	74.28	15.67	-40.5	-47.0	5.9	3.46e-01	0	60	0	77594624	51	8109
2026-01-18 08:05:01.16	74.08	15.72	-40.5	-46.8	6.1	3.23e-01	0	60	0	80740352	51	7939
2026-01-18 08:05:02.17	73.89	15.77	-40.5	-46.5	6.4	2.67e-01	0	59	0	83886080	51	7673
2026-01-18 08:05:03.18	73.69	15.82	-40.5	-46.4	6.6	2.21e-01	0	60	0	87031808	51	7550
2026-01-18 08:05:04.19	73.49	15.87	-40.3	-45.9	7.0	1.76e-01	0	60	0	90177536	51	7168
2026-01-18 08:05:05.20	73.29	15.92	-40.2	-45.5	7.3	1.26e-01	0	59	0	93323264	51	6865
2026-01-18 08:05:06.21	73.09	15.97	-40.2	-45.7	7.2	1.35e-01	0	60	0	96468992	51	6985
2026-01-18 08:05:07.22	72.89	16.02	-40.3	-45.9	7.0	1.61e-01	0	60	0	99614720	51	7127
2026-01-18 08:05:08.22	72.70	16.06	-40.3	-46.1	6.8	1.77e-01	0	59	0	102760448	51	7298
2026-01-18 08:05:09.23	72.49	16.11	-40.3	-46.2	6.6	1.97e-01	0	60	0	105906176	51	7418
2026-01-18 08:05:10.24	72.29	16.16	-40.3	-46.0	6.7	2.17e-01	0	60	0	109051904	51	7277
2026-01-18 08:05:11.25	72.09	16.21	-40.3	-46.2	6.7	1.93e-01	0	60	0	112197632	51	7380
2026-01-18 08:05:12.26	71.89	16.25	-40.4	-46.4	6.5	2.27e-01	0	60	0	115343360	51	7600
2026-01-18 08:05:13.27	71.68	16.30	-40.4	-46.4	6.6	2.30e-01	0	60	0	118489088	51	7547
2026-01-18 08:05:14.28	71.48	16.35	-40.3	-45.8	7.2	1.61e-01	0	60	0	121634816	51	7050
2026-01-18 08:05:15.29	71.27	16.39	-40.3	-45.6	7.4	1.13e-01	0	60	0	124780544	51	6908
2026-01-18 08:05:16.30	71.07	16.44	-40.3	-45.5	7.6	9.85e-02	0	60	0	127926272	51	6873
2026-01-18 08:05:17.31	70.86	16.49	-40.3	-45.2	8.0	7.49e-02	0	60	0	131072000	51	6611
2026-01-18 08:05:18.32	70.66	16.53	-40.1	-44.7	8.6	4.25e-02	0	59	0	134217728	51	6213
2026-01-18 08:05:19.33	70.45	16.58	-40.1	-44.6	8.8	3.20e-02	0	60	0	137363456	51	6145
2026-01-18 08:05:20.34	70.24	16.62	-40.2	-44.6	8.8	3.09e-02	0	60	0	140509184	51	6156
2026-01-18 08:05:21.35	70.03	16.67	-40.3	-44.6	8.8	2.89e-02	0	60	0	143654912	51	6193
2026-01-18 08:05:22.36	69.82	16.71	-40.3	-44.5	9.1	2.24e-02	0	60	0	146800640	51	6114
2026-01-18 08:05:23.37	69.61	16.75	-40.2	-44.1	9.7	1.42e-02	0	60	0	149946368	51	5812
2026-01-18 08:05:24.38	69.40	16.80	-40.1	-43.8	10.0	8.51e-03	0	60	0	153092096	51	5651
2026-01-18 08:05:25.38	69.19	16.84	-40.1	-43.8	10.2	6.12e-03	0	60	0	156237824	51	5604
2026-01-18 08:05:26.39	68.98	16.88	-40.1	-43.5	10.6	3.74e-03	0	60	0	159383552	51	5447
2026-01-18 08:05:27.41	68.77	16.93	-40.0	-43.3	10.9	2.66e-03	0	60	0	162529280	51	5324
2026-01-18 08:05:28.42	68.55	16.97	-39.9	-43.1	11.2	1.51e-03	0	60	0	165675008	51	5194
2026-01-18 08:05:29.43	68.34	17.01	-39.9	-43.0	11.4	9.47e-04	0	60	0	168820736	51	5138
2026-01-18 08:05:30.44	68.12	17.05	-39.9	-42.9	11.6	7.41e-04	0	60	0	171966464	51	5097
2026-01-18 08:05:31.44	67.91	17.09	-40.0	-43.1	11.5	7.90e-04	0	60	0	175112192	51	5160
2026-01-18 08:05:32.45	67.70	17.13	-39.9	-42.9	11.8	5.49e-04	0	60	0	178257920	51	5053
2026-01-18 08:05:33.46	67.48	17.17	-39.9	-42.8	12.0	3.25e-04	0	60	0	181403648	51	4996
2026-01-18 08:05:34.47	67.26	17.21	-40.0	-42.8	12.1	2.46e-04	0	60	0	184549376	51	5030
2026-01-18 08:05:35.48	67.05	17.25	-39.9	-42.7	12.3	2.18e-04	0	60	0	187695104	51	4945
2026-01-18 08:05:36.50	66.83	17.29	-39.9	-42.7	12.4	1.76e-04	0	60	0	190840832	51	4933
2026-01-18 08:05:37.50	66.61	17.33	-39.9	-42.6	12.5	1.26e-04	0	60	0	193986560	51	4897
2026-01-18 08:05:38.52	66.39	17.37	-40.0	-42.7	12.4	1.29e-04	0	60	0	197132288	51	4978
2026-01-18 08:05:39.53	66.17	17.41	-40.0	-42.8	12.5	1.25e-04	0	60	0	200278016	51	4990
2026-01-18 08:05:40.54	65.95	17.45	-39.9	-42.6	12.7	8.62e-05	0	60	0	203423744	51	4912
2026-01-18 08:05:41.55	65.73	17.49	-39.8	-42.4	12.9	4.50e-05	0	60	0	206569472	51	4778
2026-01-18 08:05:42.56	65.51	17.52	-39.7	-42.2	13.2	2.82e-05	0	60	0	209715200	51	4654
2026-01-18 08:05:43.57	65.29	17.56	-39.6	-42.0	13.3	2.67e-05	0	60	0	213909504	51	4589
2026-01-18 08:05:44.58	65.07	17.60	-39.6	-42.0	13.4	1.60e-05	0	60	0	217055232	51	4570
2026-01-18 08:05:45.59	64.84	17.63	-39.6	-42.0	13.4	1.75e-05	0	60	0	219152384	51	4572
2026-01-18 08:05:46.60	64.62	17.67	-39.6	-42.0	13.4	1.44e-05	0	60	0	222298112	51	4587
2026-01-18 08:05:47.61	64.40	17.70	-39.6	-42.0	13.5	9.10e-06	0	60	0	225443840	51	4547
2026-01-18 08:05:48.61	64.17	17.74	-39.7	-42.1	13.4	1.90e-05	0	60	0	229638144	51	4610
2026-01-18 08:05:49.62	63.95	17.77	-39.6	-42.0	13.4	1.75e-05	0	60	0	232783872	51	4595
2026-01-18 08:05:50.63	63.72	17.81	-39.6	-42.0	13.4	1.06e-05	0	60	0	235929600	51	4578
2026-01-18 08:05:51.64	63.50	17.84	-39.7	-42.1	13.4	1.44e-05	0	60	0	239075328	51	4624
2026-01-18 08:05:52.65	63.27	17.87	-39.7	-42.1	13.3	1.37e-05	0	60	0	242221056	51	4639
2026-01-18 08:05:53.66	63.04	17.91	-39.7	-42.1	13.3	1.06e-05	0	60	0	245366784	51	4645
2026-01-18 08:05:54.67	62.82	17.94	-39.7	-42.1	13.4	1.52e-05	0	60	0	248512512	51	4604
2026-01-18 08:05:55.69	62.59	17.97	-39.8	-42.2	13.3	2.05e-05	0	60	0	251658240	51	4677
2026-01-18 08:05:56.69	62.36	18.00	-39.9	-42.3	13.2	1.14e-05	0	60	0	254803968	51	4759
2026-01-18 08:05:57.71	62.13	18.03	-39.9	-42.3	13.2	2.13e-05	0	60	0	257949696	51	4752
2026-01-18 08:05:58.72	61.90	18.06	-39.9	-42.3	13.2	2.89e-05	0	60	0	261095424	51	4755
2026-01-18 08:05:59.73	61.67	18.10	-39.9	-42.4	13.1	2.89e-05	0	60	0	264241152	51	4808
2026-01-18 08:06:00.74	61.44	18.13	-40.0	-42.5	13.1	3.12e-05	0	60	0	267386880	51	4851
2026-01-18 08:06:01.75	61.21	18.15	-40.0	-42.5	13.1	4.11e-05	0	60	0	270532608	51	4859
2026-01-18 08:06:02.76	60.98	18.18	-40.1	-42.6	13.0	4.04e-05	0	60	0	273678336	51	4919
2026-01-18 08:06:03.77	60.75	18.21	-40.0	-42.5	13.1	4.34e-05	0	60	0	276824064	51	4848
2026-01-18 08:06:04.77	60.52	18.24	-40.0	-42.5	13.1	3.20e-05	0	60	0	279969792	51	4852
2026-01-18 08:06:05.78	60.29	18.27	-40.0	-42.5	13.2	2.51e-05	0	60	0	283115520	51	4837
2026-01-18 08:06:06.79	60.05	18.29	-39.9	-42.4	13.2	1.75e-05	0	60	0	286261248	51	4776
2026-01-18 08:06:07.80	59.82	18.32	-39.9	-42.4	13.3	2.28e-05	0	60	0	289406976	51	4784
2026-01-18 08:06:08.81	59.59	18.35	-39.9	-42.3	13.3	1.67e-05	0	60	0	292552704	51	4754
2026-01-18 08:06:09.82	59.35	18.37	-39.9	-42.4	13.3	2.28e-05	0	60	0	295698432	51	4769
2026-01-18 08:06:10.83	59.12	18.40	-39.9	-42.4	13.3	1.44e-05	0	60	0	298844160	51	4767
2026-01-18 08:06:11.84	58.89	18.42	-40.0	-42.5	13.2	1.75e-05	0	60	0	301989888	51	4838
2026-01-18 08:06:12.85	58.65	18.45	-39.9	-42.4	13.2	2.44e-05	0	60	0	305135616	51	4794
2026-01-18 08:06:13.86	58.41	18.47	-40.0	-42.4	13.2	1.52e-05	0	60	0	308281344	51	4807
2026-01-18 08:06:14.86	58.18	18.49	-39.9	-42.4	13.3	1.44e-05	0	60	0	311427072	51	4787
2026-01-18 08:06:15.87	57.95	18.52	-39.9	-42.4	13.3	1.44e-05	0	60	0	314572800	51	4767
2026-01-18 08:06:16.89	57.71	18.54	-40.0	-42.4	13.2	1.75e-05	0	60	0	317718528	51	4813
2026-01-18 08:06:17.89	57.47	18.56	-40.0	-42.5	13.2	2.05e-05	0	60	0	320864256	51	4820
2026-01-18 08:06:18.91	57.23	18.58	-40.0	-42.5	13.1	2.59e-05	0	60	0	324009984	51	4862
2026-01-18 08:06:19.92	56.99	18.60	-40.2	-42.8	12.9	4.65e-05	0	60	0	327155712	51	4986
2026-01-18 08:06:20.93	56.76	18.63	-40.2	-42.8	12.9	5.56e-05	0	60	0	330301440	51	4996
2026-01-18 08:06:21.93	56.52	18.65	-40.2	-42.8	12.9	5.34e-05	0	60	0	333447168	51	5003
2026-01-18 08:06:22.94	56.28	18.66	-40.1	-42.7	13.0	3.66e-05	0	60	0	336592896	51	4939
2026-01-18 08:06:23.96	56.04	18.68	-40.0	-42.5	13.2	2.05e-05	0	60	0	339738624	51	4843
2026-01-18 08:06:24.96	55.80	18.70	-40.0	-42.4	13.3	1.75e-05	0	60	0	342884352	51	4789
2026-01-18 08:06:25.97	55.57	18.72	-40.0	-42.5	13.2	2.05e-05	0	60	0	346030080	51	4820
2026-01-18 08:06:26.99	55.32	18.74	-40.0	-42.4	13.3	2.05e-05	0	60	0	349175808	51	4800
2026-01-18 08:06:28.00	55.08	18.75	-40.0	-42.4	13.3	1.67e-05	0	60	0	352321536	51	4786
2026-01-18 08:06:29.01	54.84	18.77	-40.0	-42.4	13.3	1.44e-05	0	60	0	355467264	51	4789
2026-01-18 08:06:30.01	54.61	18.79	-40.0	-42.4	13.3	9.10e-06	0	60	0	358612992	51	4797
2026-01-18 08:06:31.02	54.36	18.80	-40.0	-42.5	13.3	1.60e-05	0	60	0	361758720	51	4817
2026-01-18 08:06:32.03	54.12	18.82	-40.0	-42.5	13.3	2.67e-05	0	60	0	364904448	51	4827
2026-01-18 08:06:33.04	53.88	18.83	-40.0	-42.5	13.3	2.51e-05	0	60	0	368050176	51	4829
2026-01-18 08:06:34.05	53.64	18.85	-40.0	-42.5	13.3	1.67e-05	0	60	0	371195904	51	4817
2026-01-18 08:06:35.06	53.40	18.86	-40.0	-42.4	13.3	1.37e-05	0	60	0	374341632	51	4767
2026-01-18 08:06:36.07	53.16	18.87	-40.0	-42.4	13.3	1.60e-05	0	60	0	377487360	51	4802
2026-01-18 08:06:37.08	52.92	18.88	-40.0	-42.4	13.3	2.05e-05	0	60	0	380633088	51	4790
2026-01-18 08:06:38.09	52.67	18.90	-40.0	-42.4	13.3	1.22e-05	0	60	0	383778816	51	4799
2026-01-18 08:06:39.10	52.43	18.91	-39.9	-42.3	13.4	1.75e-05	0	60	0	386924544	51	4749
2026-01-18 08:06:40.11	52.19	18.92	-39.9	-42.3	13.4	1.29e-05	0	60	0	390070272	51	4757
2026-01-18 08:06:41.12	51.95	18.93	-40.0	-42.4	13.4	1.75e-05	0	60	0	393216000	51	4767
2026-01-18 08:06:42.13	51.70	18.94	-40.0	-42.4	13.3	1.83e-05	0	60	0	396361728	51	4781
2026-01-18 08:06:43.14	51.46	18.95	-40.0	-42.5	13.3	2.67e-05	0	60	0	399507456	51	4818
2026-01-18 08:06:44.15	51.22	18.96	-40.1	-42.5	13.2	2.67e-05	0	60	0	402653184	51	4858
2026-01-18 08:06:45.16	50.97	18.96	-40.1	-42.6	13.1	2.59e-05	0	60	0	405798912	51	4909
2026-01-18 08:06:46.17	50.73	18.97	-40.2	-42.7	13.1	3.66e-05	0	61	0	408944640	51	4941
2026-01-18 08:06:47.18	50.49	18.98	-40.1	-42.6	13.1	3.05e-05	0	60	0	412090368	51	4903
2026-01-18 08:06:48.19	50.24	18.99	-40.1	-42.5	13.2	2.36e-05	0	60	0	415236096	51	4859
2026-01-18 08:06:49.20	50.00	18.99	-40.0	-42.5	13.3	2.21e-05	0	60	0	418381824	51	4841
2026-01-18 08:06:50.21	49.76	19.00	-40.1	-42.5	13.2	2.13e-05	0	60	0	421527552	51	4856
2026-01-18 08:06:51.22	49.51	19.00	-39.9	-42.3	13.4	1.83e-05	0	60	0	424673280	51	4747
2026-01-18 08:06:52.23	49.27	19.01	-39.9	-42.2	13.5	1.37e-05	0	60	0	427819008	51	4680
2026-01-18 08:06:53.24	49.03	19.01	-39.8	-42.2	13.6	8.30e-06	0	60	0	430964736	51	4658
2026-01-18 08:06:54.25	48.78	19.01	-39.8	-42.2	13.6	5.30e-06	0	60	0	434110464	51	4657
2026-01-18 08:06:55.25	48.54	19.02	-39.9	-42.2	13.6	4.50e-06	0	60	0	437256192	51	4697
2026-01-18 08:06:56.26	48.30	19.02	-39.9	-42.3	13.5	1.37e-05	0	60	0	440401920	51	4728
2026-01-18 08:06:57.28	48.05	19.02	-39.9	-42.3	13.5	8.30e-06	0	60	0	443547648	51	4712
2026-01-18 08:06:58.29	47.81	19.02	-39.9	-42.3	13.5	8.30e-06	0	60	0	446693376	51	4725
2026-01-18 08:06:59.30	47.56	19.02	-40.0	-42.4	13.4	1.98e-05	0	60	0	449839104	51	4806
2026-01-18 08:07:00.31	47.32	19.02	-40.1	-42.5	13.2	1.98e-05	0	60	0	452984832	51	4867
2026-01-18 08:07:01.31	47.08	19.02	-40.0	-42.5	13.3	2.28e-05	0	60	0	456130560	51	4841
2026-01-18 08:07:02.33	46.83	19.02	-40.0	-42.4	13.4	2.05e-05	0	60	0	459276288	51	4787
2026-01-18 08:07:03.33	46.59	19.02	-40.0	-42.4	13.4	1.67e-05	0	60	0	462422016	51	4793
2026-01-18 08:07:04.34	46.34	19.02	-40.0	-42.4	13.3	1.29e-05	0	60	0	465567744	51	4804
2026-01-18 08:07:05.35	46.10	19.01	-40.0	-42.4	13.3	1.83e-05	0	60	0	468713472	51	4809
2026-01-18 08:07:06.36	45.86	19.01	-40.0	-42.4	13.3	1.14e-05	0	60	0	471859200	51	4808
2026-01-18 08:07:07.38	45.61	19.01	-40.0	-42.4	13.3	1.44e-05	0	60	0	475004928	51	4800
2026-01-18 08:07:08.39	45.37	19.00	-40.0	-42.4	13.3	1.44e-05	0	60	0	478150656	51	4800
2026-01-18 08:07:09.40	45.12	19.00	-40.1	-42.5	13.2	1.52e-05	0	60	0	481296384	51	4843
2026-01-18 08:07:10.40	44.88	18.99	-40.1	-42.6	13.2	2.36e-05	0	60	0	484442112	51	4894
2026-01-18 08:07:11.41	44.64	18.99	-40.1	-42.5	13.2	2.59e-05	0	60	0	487587840	51	4867
2026-01-18 08:07:12.42	44.39	18.98	-40.0	-42.5	13.3	1.98e-05	0	60	0	490733568	51	4830
2026-01-18 08:07:13.43	44.15	18.97	-40.0	-42.4	13.3	2.36e-05	0	60	0	493879296	51	4775
2026-01-18 08:07:14.44	43.91	18.97	-39.9	-42.3	13.4	1.29e-05	0	60	0	497025024	51	4744
2026-01-18 08:07:15.45	43.66	18.96	-39.9	-42.3	13.4	1.44e-05	0	60	0	500170752	51	4749
2026-01-18 08:07:16.46	43.42	18.95	-39.9	-42.3	13.4	1.60e-05	0	60	0	503316480	51	4730
2026-01-18 08:07:17.47	43.18	18.94	-39.9	-42.3	13.5	9.90e-06	0	60	0	506462208	51	4718
2026-01-18 08:07:18.49	42.93	18.93	-39.9	-42.4	13.4	1.29e-05	0	60	0	509607936	51	4767
2026-01-18 08:07:19.50	42.69	18.92	-40.0	-42.4	13.4	1.52e-05	0	60	0	512753664	51	4763
2026-01-18 08:07:20.51	42.45	18.91	-39.9	-42.3	13.5	1.37e-05	0	60	0	515899392	51	4746
2026-01-18 08:07:21.52	42.21	18.90	-40.0	-42.4	13.4	1.52e-05	0	60	0	519045120	51	4784
2026-01-18 08:07:22.52	41.97	18.89	-40.0	-42.4	13.4	1.29e-05	0	60	0	522190848	51	4798
2026-01-18 08:07:23.53	41.72	18.87	-40.0	-42.5	13.3	1.60e-05	0	60	0	525336576	51	4836
2026-01-18 08:07:24.55	41.48	18.86	-40.1	-42.6	13.2	2.05e-05	0	60	0	528482304	51	4896
2026-01-18 08:07:25.56	41.24	18.85	-40.2	-42.7	13.1	2.13e-05	0	60	0	531628032	51	4955
2026-01-18 08:07:26.57	41.00	18.83	-40.2	-42.7	13.1	3.35e-05	0	60	0	535822336	51	4938
2026-01-18 08:07:27.57	40.76	18.82	-40.1	-42.5	13.2	2.13e-05	0	60	0	537919488	51	4864
2026-01-18 08:07:28.58	40.52	18.80	-40.0	-42.5	13.3	2.28e-05	0	60	0	541065216	51	4844
2026-01-18 08:07:29.59	40.28	18.79	-40.0	-42.5	13.3	1.90e-05	0	60	0	544210944	51	4822
2026-01-18 08:07:30.60	40.04	18.77	-40.0	-42.4	13.3	2.05e-05	0	61	0	547356672	51	4799
2026-01-18 08:07:31.61	39.80	18.76	-39.9	-42.4	13.4	2.05e-05	0	60	0	550502400	51	4765
2026-01-18 08:07:32.62	39.56	18.74	-39.9	-42.3	13.5	1.60e-05	0	60	0	554696704	51	4715
2026-01-18 08:07:33.63	39.32	18.72	-39.9	-42.3	13.4	1.14e-05	0	60	0	557842432	51	4744
2026-01-18 08:07:34.64	39.08	18.70	-39.9	-42.3	13.4	1.60e-05	0	60	0	559939584	51	4731
2026-01-18 08:07:35.65	38.84	18.69	-39.9	-42.3	13.4	1.52e-05	0	61	0	563085312	51	4747
2026-01-18 08:07:36.66	38.60	18.67	-39.9	-42.4	13.4	1.67e-05	0	60	0	566231040	51	4772
2026-01-18 08:07:37.66	38.37	18.65	-39.9	-42.3	13.4	1.44e-05	0	61	0	570425344	51	4748
2026-01-18 08:07:38.67	38.13	18.63	-39.9	-42.3	13.5	1.22e-05	0	60	0	573571072	51	4707
2026-01-18 08:07:39.68	37.89	18.61	-39.8	-42.1	13.6	8.30e-06	0	60	0	576716800	51	4627
2026-01-18 08:07:40.69	37.66	18.59	-39.7	-42.0	13.7	6.10e-06	0	60	0	579862528	51	4583
2026-01-18 08:07:41.70	37.42	18.57	-39.7	-42.0	13.7	6.10e-06	0	60	0	583008256	51	4594
2026-01-18 08:07:42.71	37.18	18.54	-39.7	-42.1	13.7	6.10e-06	0	60	0	586153984	51	4605
2026-01-18 08:07:43.72	36.95	18.52	-39.8	-42.2	13.6	8.30e-06	0	60	0	589299712	51	4666
2026-01-18 08:07:44.73	36.71	18.50	-39.8	-42.2	13.5	9.10e-06	0	61	0	592445440	51	4686
2026-01-18 08:07:45.74	36.48	18.48	-39.8	-42.2	13.6	5.30e-06	0	60	0	595591168	51	4663
2026-01-18 08:07:46.75	36.24	18.45	-39.8	-42.2	13.6	1.14e-05	0	60	0	598736896	51	4675
2026-01-18 08:07:47.76	36.01	18.43	-39.9	-42.2	13.5	7.60e-06	0	60	0	601882624	51	4699
2026-01-18 08:07:48.77	35.77	18.40	-39.9	-42.2	13.5	8.30e-06	0	60	0	605028352	51	4692
2026-01-18 08:07:49.78	35.54	18.38	-39.9	-42.3	13.5	1.06e-05	0	60	0	608174080	51	4729
2026-01-18 08:07:50.79	35.30	18.35	-39.9	-42.3	13.5	1.52e-05	0	60	0	611319808	51	4707
2026-01-18 08:07:51.80	35.07	18.33	-39.9	-42.2	13.5	9.90e-06	0	60	0	614465536	51	4705
2026-01-18 08:07:52.81	34.84	18.30	-39.8	-42.2	13.6	6.10e-06	0	61	0	617611264	51	4667
2026-01-18 08:07:53.81	34.61	18.27	-39.8	-42.2	13.6	9.10e-06	0	60	0	620756992	51	4657
2026-01-18 08:07:54.83	34.37	18.24	-39.9	-42.3	13.5	1.29e-05	0	60	0	623902720	51	4720
2026-01-18 08:07:55.84	34.14	18.22	-39.9	-42.3	13.4	9.90e-06	0	61	0	627048448	51	4719
2026-01-18 08:07:56.85	33.91	18.19	-40.0	-42.4	13.3	1.98e-05	0	60	0	630194176	51	4789
2026-01-18 08:07:57.86	33.68	18.16	-40.0	-42.5	13.3	1.14e-05	0	60	0	633339904	51	4828
2026-01-18 08:07:58.87	33.45	18.13	-40.0	-42.4	13.3	1.90e-05	0	60	0	636485632	51	4814
2026-01-18 08:07:59.88	33.22	18.10	-39.9	-42.3	13.4	7.60e-06	0	61	0	639631360	51	4748
2026-01-18 08:08:00.89	32.99	18.07	-39.9	-42.3	13.5	9.90e-06	0	61	0	642777088	51	4722
2026-01-18 08:08:01.90	32.76	18.04	-39.9	-42.2	13.5	1.22e-05	0	60	0	645922816	51	4700
2026-01-18 08:08:02.91	32.54	18.01	-39.9	-42.3	13.5	1.22e-05	0	60	0	649068544	51	4715
2026-01-18 08:08:03.92	32.31	17.98	-40.0	-42.4	13.4	1.29e-05	0	60	0	652214272	51	4778
2026-01-18 08:08:04.93	32.08	17.94	-40.0	-42.5	13.3	2.28e-05	0	60	0	655360000	51	4839
2026-01-18 08:08:05.94	31.85	17.91	-40.1	-42.5	13.2	2.36e-05	0	60	0	658505728	51	4858
2026-01-18 08:08:06.95	31.63	17.88	-40.0	-42.5	13.3	2.44e-05	0	60	0	661651456	51	4840
2026-01-18 08:08:07.96	31.40	17.85	-40.1	-42.5	13.2	2.51e-05	0	60	0	664797184	51	4852
2026-01-18 08:08:08.97	31.18	17.81	-40.0	-42.5	13.3	1.90e-05	0	60	0	667942912	51	4821
2026-01-18 08:08:09.98	30.95	17.78	-40.0	-42.4	13.3	1.83e-05	0	61	0	671088640	51	4813
2026-01-18 08:08:10.99	30.73	17.74	-39.9	-42.3	13.4	1.60e-05	0	60	0	674234368	51	4750
2026-01-18 08:08:12.00	30.50	17.71	-39.9	-42.3	13.4	1.22e-05	0	60	0	677380096	51	4745
2026-01-18 08:08:13.01	30.28	17.67	-39.9	-42.4	13.4	1.06e-05	0	60	0	680525824	51	4766
2026-01-18 08:08:14.02	30.06	17.64	-40.0	-42.4	13.4	1.14e-05	0	60	0	683671552	51	4786
2026-01-18 08:08:15.03	29.84	17.60	-39.9	-42.4	13.4	1.83e-05	0	60	0	686817280	51	4773
2026-01-18 08:08:16.04	29.61	17.57	-40.0	-42.4	13.4	1.52e-05	0	60	0	689963008	51	4775
2026-01-18 08:08:17.05	29.39	17.53	-40.0	-42.4	13.3	1.67e-05	0	61	0	693108736	51	4800
2026-01-18 08:08:18.06	29.17	17.49	-40.0	-42.4	13.3	2.05e-05	0	60	0	696254464	51	4812
2026-01-18 08:08:19.07	28.95	17.46	-40.0	-42.5	13.3	1.37e-05	0	60	0	699400192	51	4825
2026-01-18 08:08:20.08	28.73	17.42	-40.1	-42.5	13.2	2.82e-05	0	61	0	702545920	51	4863
2026-01-18 08:08:21.09	28.52	17.38	-40.1	-42.6	13.1	3.12e-05	0	60	0	705691648	51	4884
2026-01-18 08:08:22.10	28.30	17.34	-40.1	-42.6	13.2	2.51e-05	0	60	0	708837376	51	4890
2026-01-18 08:08:23.11	28.08	17.30	-40.0	-42.4	13.3	2.21e-05	0	60	0	711983104	51	4811
2026-01-18 08:08:24.12	27.86	17.26	-40.0	-42.4	13.3	2.44e-05	0	60	0	715128832	51	4813
2026-01-18 08:08:25.13	27.65	17.22	-39.9	-42.4	13.4	1.37e-05	0	60	0	718274560	51	4763
2026-01-18 08:08:26.14	27.43	17.18	-39.9	-42.3	13.4	1.22e-05	0	60	0	721420288	51	4741
2026-01-18 08:08:27.15	27.21	17.14	-39.9	-42.4	13.4	7.60e-06	0	61	0	724566016	51	4768
2026-01-18 08:08:28.16	27.00	17.10	-39.9	-42.3	13.4	1.60e-05	0	61	0	727711744	51	4731
2026-01-18 08:08:29.17	26.79	17.06	-39.9	-42.4	13.4	1.67e-05	0	61	0	730857472	51	4770
2026-01-18 08:08:30.18	26.57	17.02	-39.9	-42.3	13.4	1.60e-05	0	60	0	734003200	51	4741
2026-01-18 08:08:31.19	26.36	16.98	-39.9	-42.2	13.5	1.29e-05	0	61	0	737148928	51	4695
2026-01-18 08:08:32.20	26.15	16.94	-39.9	-42.2	13.5	1.60e-05	0	60	0	740294656	51	4696
2026-01-18 08:08:33.21	25.94	16.89	-39.9	-42.3	13.4	1.75e-05	0	61	0	743440384	51	4724
2026-01-18 08:08:34.22	25.72	16.85	-39.9	-42.3	13.4	9.10e-06	0	61	0	746586112	51	4740
2026-01-18 08:08:35.23	25.51	16.81	-39.9	-42.4	13.3	9.10e-06	0	61	0	749731840	51	4771
2026-01-18 08:08:36.24	25.30	16.76	-39.9	-42.4	13.3	1.22e-05	0	61	0	752877568	51	4772
2026-01-18 08:08:37.25	25.09	16.72	-40.0	-42.5	13.2	1.98e-05	0	61	0	756023296	51	4826
2026-01-18 08:08:38.26	24.89	16.68	-40.0	-42.5	13.2	2.59e-05	0	61	0	759169024	51	4855
2026-01-18 08:08:39.27	24.68	16.63	-40.1	-42.7	13.0	3.50e-05	0	60	0	762314752	51	4943
2026-01-18 08:08:40.28	24.47	16.59	-40.2	-42.8	12.9	4.88e-05	0	60	0	765460480	51	4991
2026-01-18 08:08:41.29	24.26	16.54	-40.2	-42.8	12.8	4.57e-05	0	60	0	768606208	51	5009
2026-01-18 08:08:42.30	24.06	16.50	-40.2	-42.7	12.9	4.88e-05	0	61	0	771751936	51	4953
2026-01-18 08:08:43.31	23.85	16.45	-40.1	-42.7	13.0	3.28e-05	0	60	0	774897664	51	4952
2026-01-18 08:08:44.32	23.65	16.41	-40.1	-42.7	13.0	3.73e-05	0	61	0	778043392	51	4929
2026-01-18 08:08:45.33	23.44	16.36	-40.1	-42.6	13.0	2.44e-05	0	60	0	781189120	51	4898
2026-01-18 08:08:46.34	23.24	16.31	-40.1	-42.6	13.1	3.73e-05	0	60	0	784334848	51	4880
2026-01-18 08:08:47.35	23.04	16.27	-40.1	-42.7	13.0	2.89e-05	0	60	0	787480576	51	4938
2026-01-18 08:08:48.36	22.83	16.22	-40.2	-42.8	12.8	4.95e-05	0	61	0	790626304	51	5001
2026-01-18 08:08:49.36	22.63	16.17	-40.3	-43.0	12.7	7.85e-05	0	60	0	793772032	51	5115
2026-01-18 08:08:50.37	22.43	16.13	-40.4	-43.1	12.6	9.30e-05	0	61	0	796917760	51	5178
2026-01-18 08:08:51.38	22.23	16.08	-40.4	-43.1	12.5	1.04e-04	0	61	0	800063488	51	5205
2026-01-18 08:08:52.39	22.03	16.03	-40.4	-43.1	12.6	1.16e-04	0	60	0	803209216	51	5169
2026-01-18 08:08:53.40	21.83	15.98	-40.3	-43.0	12.6	9.38e-05	0	61	0	806354944	51	5125
2026-01-18 08:08:54.41	21.63	15.93	-40.3	-42.9	12.7	8.62e-05	0	61	0	809500672	51	5063
2026-01-18 08:08:55.42	21.44	15.88	-40.2	-42.8	12.8	6.02e-05	0	60	0	812646400	51	4992
2026-01-18 08:08:56.43	21.24	15.84	-40.2	-42.7	12.8	6.10e-05	0	61	0	815792128	51	4977
2026-01-18 08:08:57.44	21.04	15.79	-40.1	-42.7	12.9	5.11e-05	0	61	0	818937856	51	4955
2026-01-18 08:08:58.45	20.85	15.74	-40.2	-42.8	12.8	5.56e-05	0	61	0	822083584	51	4985
2026-01-18 08:08:59.46	20.65	15.69	-40.2	-42.8	12.8	5.64e-05	0	60	0	825229312	51	4984
2026-01-18 08:09:00.47	20.46	15.64	-40.2	-42.8	12.8	5.64e-05	0	60	0	828375040	51	5028
2026-01-18 08:09:01.48	20.26	15.59	-40.2	-42.9	12.7	4.19e-05	0	60	0	831520768	51	5044
2026-01-18 08:09:02.49	20.07	15.54	-40.2	-42.8	12.8	5.79e-05	0	60	0	834666496	51	4989
2026-01-18 08:09:03.50	19.88	15.49	-40.2	-42.7	12.8	6.48e-05	0	61	0	837812224	51	4979
2026-01-18 08:09:04.51	19.69	15.43	-40.2	-42.7	12.8	5.95e-05	0	61	0	840957952	51	4974
2026-01-18 08:09:05.52	19.50	15.38	-40.1	-42.7	12.9	5.03e-05	0	61	0	844103680	51	4951
2026-01-18 08:09:06.53	19.30	15.33	-40.3	-42.9	12.7	6.56e-05	0	61	0	847249408	51	5057
2026-01-18 08:09:07.54	19.12	15.28	-40.2	-42.8	12.7	6.79e-05	0	60	0	850395136	51	5038
2026-01-18 08:09:08.55	18.93	15.23	-40.2	-42.8	12.7	8.46e-05	0	60	0	853540864	51	5036
2026-01-18 08:09:09.56	18.74	15.18	-40.2	-42.8	12.7	7.40e-05	0	61	0	856686592	51	5029
2026-01-18 08:09:10.58	18.55	15.12	-40.3	-42.9	12.6	9.15e-05	0	61	0	859832320	51	5077
2026-01-18 08:09:11.59	18.36	15.07	-40.2	-42.8	12.7	9.38e-05	0	60	0	862978048	51	5037
2026-01-18 08:09:12.60	18.17	15.02	-40.2	-42.9	12.6	8.08e-05	0	61	0	866123776	51	5061
2026-01-18 08:09:13.60	17.99	14.97	-40.3	-43.0	12.5	1.02e-04	0	61	0	869269504	51	5101
2026-01-18 08:09:14.61	17.80	14.92	-40.2	-42.9	12.6	9.15e-05	0	61	0	873463808	51	5079
2026-01-18 08:09:15.62	17.62	14.86	-40.3	-43.0	12.5	9.00e-05	0	61	0	875560960	51	5131
2026-01-18 08:09:16.63	17.44	14.81	-40.4	-43.1	12.4	1.64e-04	0	61	0	878706688	51	5175
2026-01-18 08:09:17.64	17.25	14.76	-40.4	-43.1	12.3	1.54e-04	0	60	0	881852416	51	5193
2026-01-18 08:09:18.65	17.07	14.70	-40.4	-43.2	12.3	1.75e-04	0	60	0	884998144	51	5259
2026-01-18 08:09:19.66	16.89	14.65	-40.5	-43.3	12.2	2.20e-04	0	61	0	888143872	51	5302
2026-01-18 08:09:20.67	16.71	14.59	-40.5	-43.3	12.2	2.44e-04	0	60	0	892338176	51	5294
2026-01-18 08:09:21.68	16.53	14.54	-40.5	-43.3	12.1	2.59e-04	0	61	0	895483904	51	5337
2026-01-18 08:09:22.69	16.35	14.49	-40.6	-43.4	12.0	2.82e-04	0	60	0	898629632	51	5393
2026-01-18 08:09:23.70	16.17	14.43	-40.5	-43.3	12.1	2.39e-04	0	60	0	900726784	51	5308
2026-01-18 08:09:24.71	15.99	14.38	-40.4	-43.3	12.2	2.41e-04	0	61	0	904921088	51	5288
2026-01-18 08:09:25.72	15.81	14.32	-40.4	-43.2	12.2	1.75e-04	0	60	0	908066816	51	5236
2026-01-18 08:09:26.73	15.63	14.27	-40.4	-43.3	12.1	2.20e-04	0	61	0	911212544	51	5298
2026-01-18 08:09:27.74	15.46	14.21	-40.4	-43.2	12.2	2.39e-04	0	60	0	914358272	51	5265
2026-01-18 08:09:28.75	15.28	14.16	-40.4	-43.2	12.1	2.22e-04	0	61	0	917504000	51	5276
2026-01-18 08:09:29.76	15.11	14.10	-40.4	-43.2	12.2	2.92e-04	0	60	0	920649728	51	5238
2026-01-18 08:09:30.77	14.93	14.05	-40.4	-43.2	12.2	2.19e-04	0	61	0	923795456	51	5232
2026-01-18 08:09:31.78	14.76	13.99	-40.4	-43.2	12.1	2.65e-04	0	60	0	926941184	51	5240
2026-01-18 08:09:32.79	14.59	13.93	-40.4	-43.2	12.1	2.19e-04	0	61	0	930086912	51	5241
2026-01-18 08:09:33.80	14.41	13.88	-40.4	-43.2	12.1	2.42e-04	0	60	0	933232640	51	5277
2026-01-18 08:09:34.81	14.24	13.82	-40.3	-43.2	12.1	2.77e-04	0	60	0	936378368	51	5222
2026-01-18 08:09:35.82	14.07	13.77	-40.2	-43.0	12.2	2.28e-04	0	60	0	939524096	51	5158
2026-01-18 08:09:36.83	13.90	13.71	-40.2	-43.1	12.1	2.36e-04	0	61	0	942669824	51	5172
2026-01-18 08:09:37.84	13.73	13.65	-40.1	-42.9	12.2	2.18e-04	0	61	0	945815552	51	5087
2026-01-18 08:09:38.85	13.56	13.60	-40.2	-43.1	12.1	3.33e-04	0	61	0	948961280	51	5164
2026-01-18 08:09:39.86	13.39	13.54	-40.2	-43.1	12.1	2.94e-04	0	60	0	952107008	51	5161
2026-01-18 08:09:40.87	13.22	13.48	-40.2	-43.1	12.0	3.16e-04	0	61	0	955252736	51	5186
2026-01-18 08:09:41.88	13.06	13.43	-40.2	-43.0	12.1	2.94e-04	0	60	0	958398464	51	5123
2026-01-18 08:09:42.89	12.89	13.37	-40.2	-43.1	12.0	3.48e-04	0	61	0	961544192	51	5169
2026-01-18 08:09:43.90	12.72	13.31	-40.1	-43.0	12.0	3.01e-04	0	61	0	964689920	51	5108
2026-01-18 08:09:44.91	12.56	13.26	-40.1	-42.9	12.1	2.68e-04	0	61	0	967835648	51	5079
2026-01-18 08:09:45.92	12.39	13.20	-40.1	-42.9	12.0	3.32e-04	0	60	0	970981376	51	5087
2026-01-18 08:09:46.94	12.23	13.14	-40.1	-42.9	12.0	3.49e-04	0	61	0	974127104	51	5097
2026-01-18 08:09:47.95	12.07	13.08	-40.2	-43.2	11.6	4.73e-04	0	60	0	977272832	51	5270
2026-01-18 08:09:48.96	11.90	13.03	-40.2	-43.2	11.6	6.16e-04	0	61	0	980418560	51	5264
2026-01-18 08:09:49.97	11.74	12.97	-40.2	-43.2	11.5	7.27e-04	0	61	0	983564288	51	5279
2026-01-18 08:09:50.98	11.58	12.91	-40.1	-43.1	11.6	6.99e-04	0	61	0	986710016	51	5216
2026-01-18 08:09:51.99	11.42	12.85	-40.1	-43.1	11.6	6.74e-04	0	61	0	989855744	51	5176
2026-01-18 08:09:53.00	11.26	12.80	-40.1	-43.2	11.4	8.53e-04	0	61	0	993001472	51	5246
2026-01-18 08:09:54.01	11.10	12.74	-40.1	-43.3	11.2	1.37e-03	0	61	0	996147200	51	5305
2026-01-18 08:09:55.02	10.94	12.68	-40.0	-43.2	11.3	1.34e-03	0	61	0	999292928	51	5226
2026-01-18 08:09:56.03	10.78	12.62	-40.0	-43.1	11.2	1.41e-03	0	61	0	1002438656	51	5212
2026-01-18 08:09:57.04	10.63	12.56	-39.8	-42.9	11.4	1.09e-03	0	60	0	1005584384	51	5046
2026-01-18 08:09:58.05	10.47	12.50	-39.7	-42.7	11.4	9.31e-04	0	61	0	1008730112	51	4978
2026-01-18 08:09:59.05	10.31	12.45	-39.8	-42.9	11.2	1.51e-03	0	61	0	1011875840	51	5083
2026-01-18 08:10:00.06	10.16	12.39	-39.7	-42.8	11.2	1.22e-03	0	60	0	1015021568	51	5006
2026-01-18 08:10:01.07	10.00	12.33	-39.6	-42.8	11.2	1.33e-03	0	61	0	1018167296	51	5004
2026-01-18 08:10:02.08	9.85	12.27	-39.7	-43.0	10.9	1.55e-03	0	60	0	1021313024	51	5111
2026-01-18 08:10:03.09	9.70	12.21	-39.7	-43.0	10.8	2.40e-03	0	60	0	1024458752	51	5157
2026-01-18 08:10:04.10	9.54	12.15	-39.7	-43.1	10.7	3.03e-03	0	61	0	1027604480	51	5199
2026-01-18 08:10:05.11	9.39	12.10	-39.6	-43.0	10.7	2.91e-03	0	61	0	1030750208	51	5117
2026-01-18 08:10:06.12	9.24	12.04	-39.8	-43.4	10.3	4.65e-03	0	61	0	1033895936	51	5348
2026-01-18 08:10:07.13	9.09	11.98	-39.8	-43.5	10.0	7.22e-03	0	61	0	1037041664	51	5435
2026-01-18 08:10:08.15	8.93	11.92	-40.0	-44.0	9.4	1.18e-02	0	61	0	1040187392	51	5742
2026-01-18 08:10:09.16	8.78	11.86	-40.1	-44.4	8.9	2.34e-02	0	61	0	1043333120	51	6037
2026-01-18 08:10:10.17	8.63	11.80	-40.2	-44.7	8.5	3.41e-02	0	61	0	1046478848	51	6261
2026-01-18 08:10:11.18	8.49	11.74	-40.3	-45.3	7.8	6.76e-02	0	60	0	1049624576	51	6672
2026-01-18 08:10:12.19	8.34	11.68	-40.5	-45.9	7.2	1.14e-01	0	60	0	1052770304	51	7126
2026-01-18 08:10:13.20	8.19	11.62	-40.6	-46.4	6.6	1.96e-01	0	60	0	1055916032	51	7610
2026-01-18 08:10:14.21	8.04	11.56	-40.7	-47.0	6.0	2.72e-01	0	61	0	1059061760	51	8156
2026-01-18 08:10:15.21	7.90	11.50	-40.7	-47.5	5.6	3.93e-01	0	61	0	1062207488	52	8138
2026-01-18 08:10:16.22	7.75	11.45	-40.8	-48.3	5.0	6.09e-01	0	61	0	1065353216	52	8948
2026-01-18 08:10:17.23	7.61	11.39	-40.9	-49.0	4.7	1.38e+00	0	61	104	1066401792	52	9626
2026-01-18 08:10:18.24	7.46	11.33	-40.9	-49.7	4.0	1.42e+00	0	61	104	1066401792	52	10524
2026-01-18 08:10:19.25	7.32	11.27	-41.0	-50.8	4.0	1.48e+00	0	61	104	1066401792	52	11861
2026-01-18 08:10:20.26	7.18	11.21	-40.9	-52.0	3.8	1.49e+00	0	61	104	1066401792	52	13590
2026-01-18 08:10:21.27	7.03	11.15	-40.7	-53.0	3.8	1.49e+00	0	61	104	1066401792	52	15392
2026-01-18 08:10:22.28	6.89	11.09	-41.2	-53.2	3.8	1.49e+00	0	61	104	1066401792	52	15616
2026-01-18 08:10:23.29	6.75	11.03	-41.3	-52.9	3.8	1.49e+00	0	61	104	1066401792	53	14237
2026-01-18 08:10:24.30	6.61	10.97	-40.4	-52.9	3.8	1.49e+00	0	61	104	1066401792	52	15077
2026-01-18 08:10:25.31	6.47	10.91	-41.1	-52.8	3.8	1.49e+00	0	61	104	1066401792	53	14152
2026-01-18 08:10:26.32	6.33	10.85	-40.3	-52.7	3.8	1.49e+00	0	61	104	1066401792	52	14743
2026-01-18 08:10:27.33	6.19	10.79	-40.5	-52.9	3.8	1.49e+00	0	61	104	1066401792	52	15125
2026-01-18 08:10:28.34	6.05	10.73	-40.7	-53.1	3.8	1.49e+00	0	61	104	1066401792	52	15548
2026-01-18 08:10:29.35	5.91	10.67	-40.4	-52.8	3.8	1.49e+00	0	61	104	1066401792	52	15035
2026-01-18 08:10:30.36	5.77	10.61	-40.8	-53.2	3.8	1.49e+00	0	61	104	1066401792	52	15675
2026-01-18 08:10:31.37	5.64	10.55	-40.7	-53.1	3.8	1.49e+00	0	61	104	1066401792	52	15480
2026-01-18 08:10:32.38	5.50	10.49	-40.0	-52.5	3.8	1.49e+00	0	61	104	1066401792	52	14388
2026-01-18 08:10:33.39	5.37	10.43	-40.0	-52.4	3.8	1.49e+00	0	61	104	1066401792	52	14371
2026-01-18 08:10:34.40	5.23	10.37	-40.1	-52.5	3.8	1.49e+00	0	61	104	1066401792	51	15288
2026-01-18 08:10:35.41	5.10	10.31	-40.0	-52.4	3.8	1.49e+00	0	61	104	1066401792	51	15203
2026-01-18 08:10:36.42	4.96	10.25	-40.2	-52.6	3.8	1.49e+00	0	61	104	1066401792	51	15509
2026-01-18 08:10:37.43	4.83	10.19	-40.3	-52.8	3.8	1.49e+00	0	61	104	1066401792	51	15860
2026-01-18 08:10:38.44	4.69	10.13	-40.3	-52.7	3.8	1.49e+00	0	61	104	1066401792	51	15739
2026-01-18 08:10:39.45	4.56	10.07	-40.4	-52.8	3.8	1.49e+00	0	61	104	1066401792	51	15866
2026-01-18 08:10:40.46	4.43	10.01	-40.0	-52.4	3.8	1.49e+00	0	61	104	1066401792	51	15179
2026-01-18 08:10:41.46	4.30	9.96	-40.0	-52.4	3.8	1.49e+00	0	61	104	1066401792	51	15139
2026-01-18 08:10:42.48	4.17	9.90	-39.9	-52.4	3.8	1.49e+00	0	61	104	1066401792	51	15114
2026-01-18 08:10:43.49	4.04	9.84	-39.9	-52.4	3.8	1.49e+00	0	61	104	1066401792	51	15133
2026-01-18 08:10:44.50	3.91	9.78	-39.9	-52.4	3.8	1.49e+00	0	61	104	1066401792	51	15148
2026-01-18 08:10:45.51	3.78	9.72	-40.1	-52.6	3.8	1.49e+00	0	61	104	1066401792	51	15453
2026-01-18 08:10:46.52	3.65	9.66	-40.1	-52.6	3.8	1.49e+00	0	61	104	1066401792	51	15540
2026-01-18 08:10:47.53	3.52	9.60	-40.0	-52.6	3.8	1.49e+00	0	61	104	1066401792	51	15403
2026-01-18 08:10:48.54	3.40	9.54	-40.0	-52.5	3.8	1.49e+00	0	61	104	1066401792	51	15353
2026-01-18 08:10:49.55	3.27	9.48	-39.9	-52.5	3.8	1.49e+00	0	61	104	1066401792	51	15247
2026-01-18 08:10:50.56	3.14	9.42	-40.2	-52.6	3.8	1.49e+00	0	61	104	1066401792	51	15555
2026-01-18 08:10:51.57	3.02	9.36	-39.9	-52.5	3.8	1.49e+00	0	61	104	1066401792	51	15282
2026-01-18 08:10:52.58	2.89	9.30	-40.0	-52.5	3.8	1.49e+00	0	61	104	1066401792	51	15350
2026-01-18 08:10:53.59	2.77	9.24	-39.9	-52.4	3.8	1.49e+00	0	61	104	1066401792	51	15163
2026-01-18 08:10:54.59	2.64	9.18	-39.9	-52.4	3.8	1.49e+00	0	61	104	1066401792	51	15183
2026-01-18 08:10:55.60	2.52	9.12	-39.9	-52.4	3.8	1.49e+00	0	61	104	1066401792	51	15165
2026-01-18 08:10:56.61	2.40	9.06	-39.9	-52.4	3.8	1.49e+00	0	61	104	1066401792	51	15201
2026-01-18 08:10:57.62	2.27	9.00	-39.9	-52.4	3.8	1.49e+00	0	61	104	1066401792	51	15125
2026-01-18 08:10:58.63	2.15	8.94	-40.0	-52.5	3.8	1.49e+00	0	61	104	1066401792	51	15360
2026-01-18 08:10:59.64	2.03	8.88	-40.0	-52.5	3.8	1.49e+00	0	61	104	1066401792	51	15282
2026-01-18 08:11:00.65	1.91	8.82	-40.0	-52.5	3.8	1.49e+00	0	61	104	1066401792	51	15320
2026-01-18 08:11:01.66	1.79	8.76	-40.0	-52.5	3.8	1.49e+00	0	61	104	1066401792	51	15247
2026-01-18 08:11:02.67	1.67	8.70	-39.8	-52.4	3.8	1.49e+00	0	61	104	1066401792	51	15098
2026-01-18 08:11:03.68	1.55	8.64	-40.0	-52.5	3.8	1.49e+00	0	61	104	1066401792	51	15244
2026-01-18 08:11:04.69	1.43	8.58	-39.8	-52.4	3.8	1.49e+00	0	61	104	1066401792	51	15075
2026-01-18 08:11:05.70	1.31	8.52	-39.9	-52.4	3.8	1.49e+00	0	61	104	1066401792	51	15149
2026-01-18 08:11:06.71	1.19	8.46	-39.9	-52.4	3.8	1.49e+00	0	61	104	1066401792	51	15223
2026-01-18 08:11:07.72	1.07	8.40	-39.7	-52.4	3.8	1.49e+00	0	61	104	1066401792	51	15111
2026-01-18 08:11:08.73	0.96	8.35	-39.8	-52.4	3.8	1.49e+00	0	61	104	1066401792	51	15097
2026-01-18 08:11:09.74	0.84	8.29	-39.7	-52.4	3.8	1.49e+00	0	61	104	1066401792	51	15117
2026-01-18 08:11:10.75	0.72	8.23	-39.7	-52.3	3.8	1.49e+00	0	61	104	1066401792	51	15045
2026-01-18 08:11:11.76	0.61	8.17	-39.8	-52.4	3.8	1.49e+00	0	61	104	1066401792	51	15070
2026-01-18 08:11:12.77	0.49	8.11	-39.5	-52.4	3.8	1.49e+00	0	61	104	1066401792	51	15060
2026-01-18 08:11:13.78	0.38	8.05	-39.7	-52.3	3.8	1.49e+00	0	61	104	1066401792	50	15888
2026-01-18 08:11:14.79	0.26	7.99	-40.0	-52.6	3.8	1.49e+00	0	61	104	1066401792	50	16347
2026-01-18 08:11:15.80	0.15	7.93	-43.5	-55.9	3.8	1.49e+00	0	61	104	1066401792	57	15967
2026-01-18 08:11:16.81	0.04	7.87	-44.8	-57.2	3.8	1.49e+00	0	61	104	1066401792	60	15747
2026-01-18 08:11:17.82	359.92	7.81	-45.1	-57.6	3.8	1.49e+00	0	61	104	1066401792	60	16336
2026-01-18 08:11:18.83	359.81	7.75	-45.2	-57.7	3.8	1.49e+00	0	61	104	1066401792	61	15673
2026-01-18 08:11:19.84	359.70	7.69	-45.3	-57.8	3.8	1.49e+00	0	61	104	1066401792	61	15870
2026-01-18 08:11:20.86	359.59	7.63	-45.4	-57.9	3.8	1.49e+00	0	61	104	1066401792	61	15960
2026-01-18 08:11:21.87	359.48	7.57	-45.5	-58.0	3.8	1.49e+00	0	61	104	1066401792	61	16131
2026-01-18 08:11:22.88	359.36	7.52	-45.5	-57.9	3.8	1.49e+00	0	61	104	1066401792	61	16056
2026-01-18 08:11:23.89	359.25	7.46	-45.5	-57.9	3.8	1.49e+00	0	61	104	1066401792	61	16008
2026-01-18 08:11:24.90	359.15	7.40	-45.4	-57.8	3.8	1.49e+00	0	61	104	1066401792	61	15836
2026-01-18 08:11:25.91	359.04	7.34	-45.4	-57.7	3.8	1.49e+00	0	61	104	1066401792	61	15758
2026-01-18 08:11:26.92	358.93	7.28	-45.4	-57.7	3.8	1.49e+00	0	61	104	1066401792	61	15691
2026-01-18 08:11:27.93	358.82	7.22	-45.4	-57.7	3.8	1.49e+00	0	61	104	1066401792	61	15666
2026-01-18 08:11:28.94	358.71	7.16	-45.4	-57.7	3.8	1.49e+00	0	61	104	1066401792	61	15625
2026-01-18 08:11:29.96	358.60	7.10	-45.3	-57.6	3.8	1.49e+00	0	61	104	1066401792	61	15508
2026-01-18 08:11:30.97	358.50	7.04	-45.3	-57.6	3.8	1.49e+00	0	61	104	1066401792	61	15417
2026-01-18 08:11:31.98	358.39	6.99	-45.2	-57.5	3.8	1.49e+00	0	61	104	1066401792	61	15394
2026-01-18 08:11:32.99	358.28	6.93	-45.2	-57.5	3.8	1.49e+00	0	61	104	1066401792	61	15394
2026-01-18 08:11:34.00	358.18	6.87	-45.3	-57.6	3.8	1.49e+00	0	61	104	1066401792	61	15417
2026-01-18 08:11:35.01	358.07	6.81	-45.2	-57.6	3.8	1.49e+00	0	61	104	1066401792	61	15437
2026-01-18 08:11:36.02	357.97	6.75	-45.2	-57.6	3.8	1.49e+00	0	61	104	1066401792	61	15429
2026-01-18 08:11:37.03	357.86	6.69	-45.2	-57.5	3.8	1.49e+00	0	61	104	1066401792	61	15400
2026-01-18 08:11:38.05	357.76	6.63	-45.2	-57.6	3.8	1.49e+00	0	61	104	1066401792	61	15435
2026-01-18 08:11:39.06	357.66	6.57	-45.2	-57.5	3.8	1.49e+00	0	61	104	1066401792	61	15378
2026-01-18 08:11:40.07	357.55	6.52	-45.2	-57.5	3.8	1.49e+00	0	61	104	1066401792	61	15391
2026-01-18 08:11:41.08	357.45	6.46	-45.2	-57.5	3.8	1.49e+00	0	61	104	1066401792	61	15390
2026-01-18 08:11:42.09	357.35	6.40	-45.2	-57.5	3.8	1.49e+00	0	61	104	1066401792	61	15376
2026-01-18 08:11:43.10	357.25	6.34	-45.2	-57.5	3.8	1.49e+00	0	61	104	1066401792	61	15307
2026-01-18 08:11:44.11	357.15	6.28	-45.2	-57.5	3.8	1.49e+00	0	61	104	1066401792	61	15336
2026-01-18 08:11:45.12	357.04	6.23	-45.2	-57.5	3.8	1.49e+00	0	61	104	1066401792	61	15335
2026-01-18 08:11:46.13	356.94	6.17	-45.2	-57.5	3.8	1.49e+00	0	61	104	1066401792	61	15324
2026-01-18 08:11:47.14	356.84	6.11	-45.2	-57.5	3.8	1.49e+00	0	61	104	1066401792	61	15337
2026-01-18 08:11:48.15	356.74	6.05	-45.2	-57.5	3.8	1.49e+00	0	61	104	1066401792	61	15305
2026-01-18 08:11:49.16	356.64	5.99	-45.2	-57.5	3.8	1.49e+00	0	61	104	1066401792	61	15371
2026-01-18 08:11:50.17	356.55	5.94	-45.2	-57.5	3.8	1.49e+00	0	61	104	1066401792	61	15295
2026-01-18 08:11:51.18	356.45	5.88	-45.2	-57.5	3.8	1.49e+00	0	61	104	1066401792	61	15280
2026-01-18 08:11:52.20	356.35	5.82	-45.2	-57.5	3.8	1.49e+00	0	61	104	1066401792	61	15335
2026-01-18 08:11:53.21	356.25	5.76	-45.2	-57.5	3.8	1.49e+00	0	61	104	1066401792	61	15312
2026-01-18 08:11:54.22	356.15	5.70	-45.2	-57.5	3.8	1.49e+00	0	61	104	1066401792	61	15333
2026-01-18 08:11:55.23	356.06	5.65	-45.2	-57.5	3.8	1.49e+00	0	61	104	1066401792	61	15306
2026-01-18 08:11:56.24	355.96	5.59	-45.2	-57.5	3.8	1.49e+00	0	61	104	1066401792	61	15279
2026-01-18 08:11:57.25	355.87	5.53	-45.2	-57.5	3.8	1.49e+00	0	61	104	1066401792	61	15277
2026-01-18 08:11:58.26	355.77	5.47	-45.2	-57.5	3.8	1.49e+00	0	61	104	1066401792	61	15294
2026-01-18 08:11:59.28	355.67	5.42	-45.2	-57.5	3.8	1.49e+00	0	61	104	1066401792	61	15347
2026-01-18 08:12:00.28	355.58	5.36	-45.2	-57.5	3.8	1.49e+00	0	61	104	1066401792	61	15304
2026-01-18 08:12:01.30	355.48	5.30	-45.2	-57.5	3.8	1.49e+00	0	61	104	1066401792	61	15275
2026-01-18 08:12:02.31	355.39	5.24	-45.1	-57.5	3.8	1.49e+00	0	61	104	1066401792	61	15290
2026-01-18 08:12:03.32	355.30	5.19	-45.1	-57.5	3.8	1.49e+00	0	61	104	1066401792	60	16141
2026-01-18 08:12:04.33	355.20	5.13	-44.9	-57.5	3.8	1.49e+00	0	61	104	1066401792	60	16149
2026-01-18 08:12:05.34	355.11	5.07	-44.6	-57.4	3.8	1.49e+00	0	61	104	1066401792	60	16096
2026-01-18 08:12:06.35	355.02	5.01	-45.2	-57.5	3.8	1.49e+00	0	61	104	1066401792	60	16142
2026-01-18 08:12:07.36	354.93	4.96	-45.1	-57.5	3.8	1.49e+00	0	61	104	1066401792	60	16176
2026-01-18 08:12:08.37	354.83	4.90	-45.2	-57.5	3.8	1.49e+00	0	61	104	1066401792	60	16169
2026-01-18 08:12:09.38	354.74	4.84	-45.2	-57.5	3.8	1.49e+00	0	61	104	1066401792	60	16175
2026-01-18 08:12:10.39	354.65	4.79	-45.1	-57.5	3.8	1.49e+00	0	61	104	1066401792	60	16146
2026-01-18 08:12:11.40	354.56	4.73	-45.2	-57.4	3.8	1.49e+00	0	61	104	1066401792	60	16127
2026-01-18 08:12:12.41	354.47	4.67	-45.1	-57.5	3.8	1.49e+00	0	61	104	1066401792	60	16137
2026-01-18 08:12:13.42	354.38	4.62	-45.2	-57.4	3.8	1.49e+00	0	61	104	1066401792	60	16117
2026-01-18 08:12:14.43	354.29	4.56	-45.1	-57.4	3.8	1.49e+00	0	61	104	1066401792	60	16056
2026-01-18 08:12:15.45	354.20	4.50	-45.2	-57.5	3.8	1.49e+00	0	61	104	1066401792	60	16164
2026-01-18 08:12:16.46	354.11	4.45	-45.2	-57.4	3.8	1.49e+00	0	61	104	1066401792	60	16110
2026-01-18 08:12:17.47	354.02	4.39	-45.1	-57.5	3.8	1.49e+00	0	61	104	1066401792	60	16131
2026-01-18 08:12:18.48	353.94	4.33	-45.2	-57.4	3.8	1.49e+00	0	61	104	1066401792	60	16119
2026-01-18 08:12:19.49	353.85	4.28	-45.1	-57.4	3.8	1.49e+00	0	61	104	1066401792	60	16095
2026-01-18 08:12:20.50	353.76	4.22	-45.1	-57.4	3.8	1.49e+00	0	61	104	1066401792	60	16127
2026-01-18 08:12:21.51	353.67	4.16	-45.1	-57.4	3.8	1.49e+00	0	61	104	1066401792	60	16074
2026-01-18 08:12:22.52	353.59	4.11	-45.2	-57.5	3.8	1.49e+00	0	61	104	1066401792	60	16173
2026-01-18 08:12:23.53	353.50	4.05	-45.2	-57.5	3.8	1.49e+00	0	61	104	1066401792	60	16174
2026-01-18 08:12:24.54	353.41	3.99	-45.2	-57.5	3.8	1.49e+00	0	61	104	1066401792	60	16146
2026-01-18 08:12:25.56	353.33	3.94	-45.1	-57.4	3.8	1.49e+00	0	61	104	1066401792	60	16127
2026-01-18 08:12:26.57	353.24	3.88	-45.1	-57.4	3.8	1.49e+00	0	61	104	1066401792	60	16106
2026-01-18 08:12:27.58	353.16	3.83	-45.2	-57.5	3.8	1.49e+00	0	61	104	1066401792	60	16152
2026-01-18 08:12:28.59	353.07	3.77	-45.1	-57.4	3.8	1.49e+00	0	61	104	1066401792	60	16099
2026-01-18 08:12:29.60	352.99	3.71	-45.2	-57.4	3.8	1.49e+00	0	61	104	1066401792	60	16107
2026-01-18 08:12:30.61	352.90	3.66	-45.1	-57.4	3.8	1.49e+00	0	61	104	1066401792	60	16090
2026-01-18 08:12:31.62	352.82	3.60	-45.2	-57.5	3.8	1.49e+00	0	61	104	1066401792	60	16150
2026-01-18 08:12:32.63	352.74	3.55	-45.1	-57.4	3.8	1.49e+00	0	61	104	1066401792	60	16074
2026-01-18 08:12:33.64	352.65	3.49	-45.1	-57.4	3.8	1.49e+00	0	61	104	1066401792	60	16115
2026-01-18 08:12:34.65	352.57	3.44	-45.1	-57.5	3.8	1.49e+00	0	61	104	1066401792	60	16208
2026-01-18 08:12:35.66	352.49	3.38	-45.1	-57.4	3.8	1.49e+00	0	61	104	1066401792	60	16082
2026-01-18 08:12:36.67	352.41	3.32	-45.1	-57.4	3.8	1.49e+00	0	61	104	1066401792	60	16098
2026-01-18 08:12:37.69	352.33	3.27	-45.2	-57.4	3.8	1.49e+00	0	61	104	1066401792	60	16092
2026-01-18 08:12:38.70	352.24	3.21	-45.1	-57.4	3.8	1.49e+00	0	61	104	1066401792	60	16064
2026-01-18 08:12:39.71	352.16	3.16	-45.1	-57.4	3.8	1.49e+00	0	61	104	1066401792	60	16062
2026-01-18 08:12:40.72	352.08	3.10	-45.1	-57.4	3.8	1.49e+00	0	61	104	1066401792	60	16096
2026-01-18 08:12:41.73	352.00	3.05	-45.1	-57.4	3.8	1.49e+00	0	61	104	1066401792	60	16047
2026-01-18 08:12:42.74	351.92	2.99	-45.1	-57.5	3.8	1.49e+00	0	61	104	1066401792	60	16128
2026-01-18 08:12:43.75	351.84	2.94	-45.1	-57.4	3.8	1.49e+00	0	61	104	1066401792	60	16101
2026-01-18 08:12:44.76	351.76	2.88	-45.1	-57.4	3.8	1.49e+00	0	61	104	1066401792	60	16078
2026-01-18 08:12:45.77	351.68	2.83	-45.1	-57.4	3.8	1.49e+00	0	61	104	1066401792	60	16094
2026-01-18 08:12:46.79	351.60	2.77	-45.1	-57.4	3.8	1.49e+00	0	61	104	1066401792	60	16112
2026-01-18 08:12:47.80	351.52	2.72	-45.1	-57.4	3.8	1.49e+00	0	61	104	1066401792	60	16096
2026-01-18 08:12:48.81	351.45	2.66	-45.1	-57.4	3.8	1.49e+00	0	61	104	1066401792	60	16094
2026-01-18 08:12:49.82	351.37	2.61	-45.1	-57.4	3.8	1.49e+00	0	62	104	1066401792	60	16061
2026-01-18 08:12:50.83	351.29	2.55	-45.1	-57.4	3.8	1.49e+00	0	61	104	1066401792	60	16067
