passes_logs/2026/01/18/R2.0S_Moscow/R2.0S_Moscow__20260118_082954_SUOMI_NPP_rec.log

#Pass ID: 20260118_082954_SUOMI NPP
#Satellite: SUOMI NPP
#Configuration: NPP
#almurnet v.1.7.20251203
#Start time: 2026-01-18 08:29:55

#Version: 2.2.20231116
#Station: R2.0S_Moscow
#Location: 37.707566 lon 55.798166 lat
#TLE: 1 37849U 11061A   26017.28905266  .00000074  00000+0  55894-4 0  9999
#TLE: 2 37849  98.7814 319.3179 0002408  59.7048 300.4366 14.19525847737038

#Time	Az	El	Level	Level2	SNR	BER	BlckErr	Temp	State	Recorded	gain1	gain2
2026-01-18 08:29:55.68	116.69	2.06	-37.8	-56.1	4.0	1.50e+00	0	51	0	0	49	26041
2026-01-18 08:29:56.69	116.63	2.12	-38.0	-56.2	4.0	1.50e+00	0	52	104	0	47	29411
2026-01-18 08:29:57.70	116.57	2.18	-37.0	-55.6	4.1	1.50e+00	0	52	104	0	46	29138
2026-01-18 08:29:58.71	116.50	2.24	-35.5	-54.6	3.9	1.50e+00	0	52	104	0	47	24447
2026-01-18 08:29:59.72	116.44	2.29	-36.9	-55.7	3.9	1.50e+00	0	52	104	0	49	24887
2026-01-18 08:30:00.73	116.38	2.35	-38.7	-56.0	4.1	1.50e+00	0	52	104	0	49	25643
2026-01-18 08:30:01.74	116.32	2.41	-35.6	-54.1	4.2	1.50e+00	0	52	104	0	46	24549
2026-01-18 08:30:02.75	116.25	2.47	-35.8	-54.6	3.9	1.50e+00	0	52	104	0	47	24471
2026-01-18 08:30:03.76	116.19	2.53	-37.7	-56.3	4.2	1.50e+00	0	52	104	0	49	26578
2026-01-18 08:30:04.78	116.13	2.59	-38.5	-56.4	3.9	1.50e+00	0	52	104	0	43	37954
2026-01-18 08:30:05.78	116.06	2.65	-37.9	-56.4	3.9	1.50e+00	0	52	104	0	48	28469
2026-01-18 08:30:06.79	116.00	2.71	-38.1	-56.0	3.4	1.50e+00	0	52	104	0	46	30401
2026-01-18 08:30:07.80	115.94	2.77	-37.9	-55.9	4.0	1.50e+00	0	53	104	0	48	26879
2026-01-18 08:30:08.82	115.87	2.83	-34.9	-54.1	4.1	1.50e+00	0	53	104	0	45	25950
2026-01-18 08:30:09.83	115.81	2.89	-38.4	-55.6	4.2	1.50e+00	0	53	104	0	47	27642
2026-01-18 08:30:10.84	115.74	2.95	-38.0	-55.5	4.1	1.50e+00	0	53	104	0	46	28830
2026-01-18 08:30:11.85	115.68	3.01	-37.5	-55.5	4.3	1.50e+00	0	53	104	0	47	27347
2026-01-18 08:30:12.86	115.61	3.07	-37.5	-55.5	4.2	1.50e+00	0	53	104	0	47	27353
2026-01-18 08:30:13.87	115.54	3.13	-38.3	-55.3	3.9	1.50e+00	0	53	104	0	47	26608
2026-01-18 08:30:14.88	115.48	3.19	-34.7	-54.1	4.2	1.50e+00	0	53	104	0	43	29024
2026-01-18 08:30:15.89	115.41	3.25	-38.4	-56.0	4.0	1.50e+00	0	53	104	0	49	25572
2026-01-18 08:30:16.90	115.34	3.31	-38.5	-56.0	4.0	1.50e+00	0	53	104	0	48	27272
2026-01-18 08:30:17.91	115.28	3.37	-36.5	-55.5	4.1	1.50e+00	0	53	104	0	49	24131
2026-01-18 08:30:18.92	115.21	3.43	-38.0	-55.4	4.1	1.50e+00	0	53	104	0	47	26830
2026-01-18 08:30:19.93	115.14	3.49	-38.6	-55.4	3.9	1.50e+00	0	53	104	0	47	26769
2026-01-18 08:30:20.94	115.08	3.55	-36.4	-54.8	4.0	1.50e+00	0	53	104	0	46	26592
2026-01-18 08:30:21.96	115.01	3.61	-32.7	-53.6	4.1	1.50e+00	0	53	104	0	44	25976
2026-01-18 08:30:22.97	114.94	3.67	-37.6	-55.2	4.1	1.50e+00	0	54	104	0	47	26236
2026-01-18 08:30:23.98	114.87	3.73	-36.8	-54.9	4.0	1.50e+00	0	54	104	0	45	28456
2026-01-18 08:30:24.99	114.80	3.80	-36.9	-55.4	3.9	1.50e+00	0	54	104	0	47	26919
2026-01-18 08:30:26.00	114.73	3.86	-36.4	-53.6	4.2	1.50e+00	0	54	104	0	44	25919
2026-01-18 08:30:27.01	114.66	3.92	-25.8	-51.5	3.9	1.50e+00	0	54	104	0	36	32346
2026-01-18 08:30:28.02	114.59	3.98	-34.8	-53.6	4.2	1.50e+00	0	54	104	0	46	23143
2026-01-18 08:30:29.03	114.52	4.04	-37.9	-55.1	3.9	1.50e+00	0	54	104	0	44	30931
2026-01-18 08:30:30.04	114.45	4.10	-38.5	-56.0	4.2	1.50e+00	0	54	104	0	49	25733
2026-01-18 08:30:31.05	114.38	4.16	-38.3	-55.7	4.0	1.50e+00	0	54	0	0	46	29469
2026-01-18 08:30:32.07	114.31	4.23	-38.8	-55.3	4.1	1.50e+00	0	54	104	0	46	28217
2026-01-18 08:30:33.08	114.24	4.29	-34.5	-53.0	4.1	1.50e+00	0	54	104	0	45	22939
2026-01-18 08:30:34.09	114.16	4.35	-35.1	-54.8	4.2	1.50e+00	0	54	104	0	45	28084
2026-01-18 08:30:35.10	114.09	4.41	-38.1	-55.6	4.0	1.50e+00	0	54	104	0	47	27634
2026-01-18 08:30:36.11	114.02	4.47	-36.9	-53.9	4.1	1.50e+00	0	54	104	0	44	26888
2026-01-18 08:30:37.12	113.95	4.54	-34.9	-54.5	4.2	1.50e+00	0	54	104	0	46	25749
2026-01-18 08:30:38.13	113.87	4.60	-37.9	-55.3	4.1	1.50e+00	0	54	104	0	48	25005
2026-01-18 08:30:39.14	113.80	4.66	-37.8	-54.6	4.0	1.50e+00	0	54	104	0	45	27609
2026-01-18 08:30:40.15	113.73	4.72	-35.9	-52.7	3.9	1.50e+00	0	54	104	0	42	26264
2026-01-18 08:30:41.16	113.65	4.79	-34.4	-52.6	3.9	1.50e+00	0	54	104	0	42	26010
2026-01-18 08:30:42.18	113.58	4.85	-35.3	-54.2	3.9	1.50e+00	0	54	104	0	46	24978
2026-01-18 08:30:43.19	113.50	4.91	-37.3	-55.3	4.0	1.50e+00	0	54	104	0	47	26568
2026-01-18 08:30:44.20	113.43	4.98	-30.5	-50.3	4.2	1.50e+00	0	55	104	0	43	18786
2026-01-18 08:30:45.21	113.35	5.04	-38.9	-56.0	4.1	1.50e+00	0	55	104	0	49	25844
2026-01-18 08:30:46.22	113.28	5.10	-38.6	-55.9	4.0	1.50e+00	0	55	104	0	48	26886
2026-01-18 08:30:47.23	113.20	5.17	-38.4	-56.0	4.0	1.49e+00	0	55	104	0	48	27359
2026-01-18 08:30:48.24	113.12	5.23	-38.3	-56.2	4.2	1.50e+00	0	55	104	0	49	26390
2026-01-18 08:30:49.25	113.05	5.29	-36.9	-55.2	3.9	1.50e+00	0	55	104	0	48	24829
2026-01-18 08:30:50.26	112.97	5.36	-38.2	-55.1	4.1	1.50e+00	0	55	104	0	45	29212
2026-01-18 08:30:51.27	112.89	5.42	-36.6	-53.7	4.1	1.50e+00	0	55	104	0	44	26356
2026-01-18 08:30:52.29	112.81	5.49	-37.0	-55.3	4.0	1.50e+00	0	55	104	0	49	23768
2026-01-18 08:30:53.30	112.74	5.55	-35.1	-54.5	4.1	1.50e+00	0	55	104	0	47	24312
2026-01-18 08:30:54.31	112.66	5.61	-35.8	-52.8	4.0	1.50e+00	0	55	104	0	42	26638
2026-01-18 08:30:55.32	112.58	5.68	-38.1	-55.9	3.8	1.50e+00	0	55	104	0	49	25372
2026-01-18 08:30:56.33	112.50	5.74	-38.7	-56.1	3.9	1.50e+00	0	55	104	0	49	25950
2026-01-18 08:30:57.34	112.42	5.81	-37.7	-55.3	4.1	1.50e+00	0	55	104	0	48	25008
2026-01-18 08:30:58.35	112.34	5.87	-38.5	-55.6	3.9	1.50e+00	0	55	104	0	49	24464
2026-01-18 08:30:59.36	112.26	5.94	-36.3	-54.0	4.1	1.50e+00	0	56	104	0	47	22994
2026-01-18 08:31:00.37	112.18	6.00	-37.8	-54.5	4.2	1.50e+00	0	55	104	0	45	27357
2026-01-18 08:31:01.38	112.10	6.07	-36.7	-54.8	4.0	1.50e+00	0	56	104	0	46	26536
2026-01-18 08:31:02.40	112.01	6.13	-37.4	-54.1	4.1	1.50e+00	0	55	104	0	46	24501
2026-01-18 08:31:03.41	111.93	6.20	-36.7	-54.9	4.0	1.50e+00	0	56	104	0	46	26853
2026-01-18 08:31:04.42	111.85	6.26	-39.1	-56.0	4.1	1.49e+00	0	55	104	0	49	25717
2026-01-18 08:31:05.43	111.77	6.33	-35.4	-53.0	4.3	1.50e+00	0	56	104	0	46	21539
2026-01-18 08:31:06.44	111.69	6.39	-38.1	-54.9	3.8	1.50e+00	0	56	104	0	47	25519
2026-01-18 08:31:07.45	111.60	6.46	-38.3	-55.1	4.0	1.50e+00	0	56	104	0	47	25975
2026-01-18 08:31:08.46	111.52	6.52	-36.1	-53.3	4.1	1.50e+00	0	56	104	0	47	21127
2026-01-18 08:31:09.47	111.43	6.59	-34.8	-52.7	4.3	1.50e+00	0	56	104	0	45	22054
2026-01-18 08:31:10.48	111.35	6.65	-37.0	-52.8	4.1	1.50e+00	0	56	104	0	43	25261
2026-01-18 08:31:11.49	111.26	6.72	-37.3	-52.9	4.1	1.49e+00	0	56	104	0	45	22587
2026-01-18 08:31:12.51	111.18	6.79	-34.9	-52.2	4.1	1.49e+00	0	56	104	0	45	20875
2026-01-18 08:31:13.52	111.09	6.85	-36.5	-52.7	4.1	1.49e+00	0	56	104	0	40	29411
2026-01-18 08:31:14.53	111.01	6.92	-33.2	-50.3	4.2	1.49e+00	0	56	104	0	42	19860
2026-01-18 08:31:15.54	110.92	6.99	-37.6	-53.5	3.5	1.49e+00	0	56	104	0	45	24296
2026-01-18 08:31:16.55	110.83	7.05	-33.7	-51.8	3.9	1.50e+00	0	56	104	0	43	22357
2026-01-18 08:31:17.56	110.75	7.12	-33.0	-51.1	4.1	1.50e+00	0	56	104	0	42	21932
2026-01-18 08:31:18.57	110.66	7.19	-32.2	-50.6	4.1	1.50e+00	0	56	104	0	39	24667
2026-01-18 08:31:19.58	110.57	7.25	-36.2	-54.7	3.8	1.50e+00	0	56	104	0	48	23508
2026-01-18 08:31:20.59	110.48	7.32	-38.2	-54.2	4.0	1.50e+00	0	56	104	0	47	23396
2026-01-18 08:31:21.60	110.39	7.39	-36.3	-53.7	4.1	1.49e+00	0	56	104	0	44	26351
2026-01-18 08:31:22.62	110.30	7.45	-39.1	-54.4	3.9	1.49e+00	0	56	104	0	48	22541
2026-01-18 08:31:23.63	110.21	7.52	-37.4	-53.6	3.9	1.49e+00	0	56	104	0	47	21828
2026-01-18 08:31:24.64	110.12	7.59	-36.9	-52.3	4.2	1.49e+00	0	56	104	0	45	21153
2026-01-18 08:31:25.65	110.03	7.66	-38.2	-52.7	4.1	1.48e+00	0	56	104	0	47	19725
2026-01-18 08:31:26.66	109.94	7.72	-35.5	-51.5	4.2	1.48e+00	0	56	104	0	43	21528
2026-01-18 08:31:27.67	109.85	7.79	-37.2	-50.5	5.1	1.11e+00	0	57	0	0	47	15398
2026-01-18 08:31:28.68	109.76	7.86	-37.5	-49.3	5.8	6.52e-01	0	57	0	2097152	47	13348
2026-01-18 08:31:29.69	109.66	7.93	-37.7	-48.0	6.6	3.94e-01	0	56	0	4194304	47	11505
2026-01-18 08:31:30.70	109.57	7.99	-34.4	-47.4	6.5	3.31e-01	0	57	0	5242880	46	11317
2026-01-18 08:31:31.71	109.48	8.06	-36.0	-52.0	4.5	3.29e-01	0	57	0	7340032	47	18131
2026-01-18 08:31:32.72	109.38	8.13	-37.7	-54.4	4.0	1.48e+00	0	57	104	7340032	47	24011
2026-01-18 08:31:33.73	109.29	8.20	-38.0	-49.1	4.6	1.39e+00	0	57	104	7340032	47	13060
2026-01-18 08:31:34.74	109.20	8.27	-38.8	-50.0	5.5	7.49e-01	0	57	0	7340032	49	12857
2026-01-18 08:31:35.75	109.10	8.34	-38.2	-51.1	4.9	8.00e-01	0	57	0	9437184	47	16379
2026-01-18 08:31:36.76	109.01	8.41	-36.4	-50.1	5.3	1.49e+00	0	57	104	9437184	47	14544
2026-01-18 08:31:37.77	108.91	8.47	-33.4	-47.9	5.4	7.99e-01	0	57	0	10485760	43	14279
2026-01-18 08:31:38.78	108.81	8.54	-37.7	-47.9	6.8	3.22e-01	0	57	0	12582912	46	12072
2026-01-18 08:31:39.79	108.72	8.61	-38.4	-48.1	6.7	4.09e-01	0	57	0	13631488	48	10915
2026-01-18 08:31:40.80	108.62	8.68	-36.8	-47.8	6.7	2.53e-01	0	57	0	15728640	46	11920
2026-01-18 08:31:41.81	108.52	8.75	-38.5	-48.7	6.5	3.23e-01	0	57	0	17825792	49	11077
2026-01-18 08:31:42.81	108.42	8.82	-39.5	-48.9	6.5	2.87e-01	0	57	0	19922944	49	11328
2026-01-18 08:31:43.82	108.32	8.89	-39.4	-49.2	6.3	3.11e-01	0	57	0	22020096	50	11048
2026-01-18 08:31:44.83	108.22	8.96	-39.6	-48.6	6.7	2.83e-01	0	57	0	24117248	50	10393
2026-01-18 08:31:45.84	108.12	9.03	-38.8	-48.4	7.1	3.44e-01	0	57	0	25165824	50	10174
2026-01-18 08:31:46.85	108.02	9.10	-38.8	-48.3	7.0	2.54e-01	0	57	0	27262976	49	10645
2026-01-18 08:31:47.86	107.92	9.17	-38.8	-47.8	7.4	2.44e-01	0	57	0	29360128	49	10036
2026-01-18 08:31:48.87	107.82	9.24	-39.5	-48.3	7.3	1.89e-01	0	57	0	31457280	49	10556
2026-01-18 08:31:49.88	107.72	9.31	-38.3	-48.6	7.0	2.13e-01	0	57	0	33554432	50	10334
2026-01-18 08:31:50.89	107.62	9.38	-39.1	-48.8	6.4	2.58e-01	0	57	0	34603008	51	9987
2026-01-18 08:31:51.90	107.52	9.45	-40.1	-49.8	6.2	4.71e-01	0	57	0	36700160	51	11212
2026-01-18 08:31:52.91	107.41	9.52	-40.2	-48.9	7.0	2.90e-01	0	57	0	38797312	52	9590
2026-01-18 08:31:53.92	107.31	9.59	-40.3	-48.3	7.6	1.28e-01	0	57	0	40894464	52	8867
2026-01-18 08:31:54.93	107.20	9.66	-40.8	-48.6	6.9	1.72e-01	0	58	0	42991616	50	10372
2026-01-18 08:31:55.94	107.10	9.73	-40.4	-48.0	7.4	1.73e-01	0	57	0	44040192	51	9129
2026-01-18 08:31:56.95	106.99	9.80	-39.5	-48.1	7.3	1.23e-01	0	57	0	46137344	51	9198
2026-01-18 08:31:57.96	106.89	9.87	-40.8	-48.6	7.7	1.13e-01	0	57	0	48234496	52	9209
2026-01-18 08:31:58.97	106.78	9.94	-40.0	-48.4	7.8	1.16e-01	0	57	0	50331648	53	8518
2026-01-18 08:31:59.98	106.67	10.02	-40.8	-48.4	7.4	1.67e-01	0	57	0	52428800	52	9047
2026-01-18 08:32:00.98	106.57	10.09	-38.7	-47.9	6.5	1.83e-01	0	58	0	53477376	49	10091
2026-01-18 08:32:01.99	106.46	10.16	-41.5	-47.9	8.4	1.17e-01	0	57	0	55574528	53	8048
2026-01-18 08:32:03.00	106.35	10.23	-40.7	-47.5	8.3	9.76e-02	0	58	0	57671680	53	7657
2026-01-18 08:32:04.01	106.24	10.30	-40.5	-47.5	8.2	7.25e-02	0	58	0	59768832	51	8605
2026-01-18 08:32:05.02	106.13	10.37	-40.1	-47.6	7.5	9.86e-02	0	58	0	61865984	52	8216
2026-01-18 08:32:06.03	106.02	10.44	-40.2	-48.2	7.3	1.18e-01	0	58	0	62914560	52	8788
2026-01-18 08:32:07.04	105.91	10.52	-40.9	-48.2	7.4	1.39e-01	0	58	0	65011712	53	8314
2026-01-18 08:32:08.05	105.80	10.59	-40.7	-48.4	7.5	1.60e-01	0	58	0	67108864	53	8556
2026-01-18 08:32:09.06	105.69	10.66	-41.2	-48.8	7.6	1.80e-01	0	58	0	69206016	54	8387
2026-01-18 08:32:10.07	105.58	10.73	-40.1	-48.0	7.5	2.29e-01	0	58	0	71303168	53	8098
2026-01-18 08:32:11.08	105.46	10.81	-40.8	-48.4	6.8	3.17e-01	0	58	0	72351744	51	9600
2026-01-18 08:32:12.09	105.35	10.88	-35.5	-47.8	5.9	4.39e-01	0	58	0	74448896	48	10618
2026-01-18 08:32:13.10	105.23	10.95	-39.1	-48.6	6.6	2.92e-01	0	58	0	76546048	52	9209
2026-01-18 08:32:14.11	105.12	11.02	-40.8	-48.6	6.3	6.84e-01	0	58	0	78643200	52	9185
2026-01-18 08:32:15.12	105.00	11.10	-39.9	-48.5	6.4	4.67e-01	0	58	0	79691776	52	9154
2026-01-18 08:32:16.13	104.89	11.17	-40.0	-48.6	6.4	3.78e-01	0	58	0	81788928	50	10328
2026-01-18 08:32:17.14	104.77	11.24	-41.3	-48.5	6.5	2.71e-01	0	58	0	83886080	52	9091
2026-01-18 08:32:18.15	104.65	11.32	-39.6	-47.9	7.0	4.21e-01	0	58	0	85983232	53	8068
2026-01-18 08:32:19.16	104.54	11.39	-40.6	-48.0	7.2	1.67e-01	0	58	0	88080384	52	8648
2026-01-18 08:32:20.16	104.42	11.46	-40.1	-48.2	7.2	2.38e-01	0	58	0	89128960	51	9330
2026-01-18 08:32:21.17	104.30	11.53	-41.0	-48.6	7.0	2.47e-01	0	58	0	91226112	53	8727
2026-01-18 08:32:22.19	104.18	11.61	-39.5	-47.9	7.0	3.61e-01	0	58	0	93323264	52	8523
2026-01-18 08:32:23.19	104.06	11.68	-40.9	-47.9	7.5	2.57e-01	0	58	0	95420416	51	8977
2026-01-18 08:32:24.20	103.94	11.76	-40.5	-47.5	7.4	2.83e-01	0	58	0	97517568	51	8620
2026-01-18 08:32:25.21	103.82	11.83	-40.3	-47.1	8.1	2.02e-01	0	58	0	98566144	52	7752
2026-01-18 08:32:26.22	103.70	11.90	-35.0	-46.2	5.4	2.25e-01	0	58	0	100663296	46	9840
2026-01-18 08:32:27.23	103.57	11.98	-39.1	-47.0	5.6	5.07e-01	0	58	0	102760448	47	10247
2026-01-18 08:32:28.24	103.45	12.05	-39.3	-47.8	4.8	4.96e-01	0	58	104	104857600	49	10032
2026-01-18 08:32:29.25	103.33	12.13	-32.0	-46.1	5.1	1.11e+00	0	58	0	104857600	39	14564
2026-01-18 08:32:30.26	103.20	12.20	-38.8	-46.9	6.3	8.36e-01	0	58	0	106954752	40	15128
2026-01-18 08:32:31.27	103.08	12.27	-29.3	-45.1	4.3	8.37e-01	0	58	104	108003328	35	16381
2026-01-18 08:32:32.28	102.95	12.35	-30.9	-45.5	5.3	7.88e-01	0	58	0	108003328	37	15240
2026-01-18 08:32:33.29	102.83	12.42	-34.5	-46.1	5.1	4.49e-01	0	58	0	110100480	41	13005
2026-01-18 08:32:34.30	102.70	12.50	-38.3	-47.7	5.5	8.03e-01	0	58	0	112197632	43	13969
2026-01-18 08:32:35.31	102.57	12.57	-34.9	-47.5	5.3	7.93e-01	0	59	0	114294784	41	15244
2026-01-18 08:32:36.32	102.44	12.65	-38.7	-50.0	5.6	7.01e-01	0	58	0	115343360	50	12217
2026-01-18 08:32:37.33	102.31	12.72	-40.3	-51.2	5.0	8.69e-01	0	58	0	117440512	49	14793
2026-01-18 08:32:38.34	102.18	12.80	-39.4	-50.1	5.1	1.11e+00	0	58	104	118489088	45	16346
2026-01-18 08:32:39.35	102.05	12.87	-39.3	-49.3	5.9	6.43e-01	0	59	0	119537664	49	11851
2026-01-18 08:32:40.36	101.92	12.95	-38.9	-47.4	7.0	3.51e-01	0	58	0	121634816	48	10097
2026-01-18 08:32:41.37	101.79	13.02	-39.2	-48.1	6.5	4.34e-01	0	58	0	123731968	50	9797
2026-01-18 08:32:42.38	101.66	13.10	-40.5	-49.0	6.6	5.12e-01	0	58	0	124780544	52	9678
2026-01-18 08:32:43.38	101.53	13.17	-37.8	-48.1	5.5	2.72e-01	0	58	0	126877696	43	14591
2026-01-18 08:32:44.39	101.39	13.25	-40.4	-48.7	6.1	4.26e-01	0	58	0	128974848	49	11154
2026-01-18 08:32:45.40	101.26	13.32	-32.4	-48.5	4.9	7.90e-01	0	59	0	131072000	38	20457
2026-01-18 08:32:46.41	101.12	13.40	-40.3	-50.3	5.7	6.33e-01	0	58	0	132120576	52	11189
2026-01-18 08:32:47.42	100.99	13.48	-38.0	-49.3	5.1	7.84e-01	0	58	0	134217728	48	12547
2026-01-18 08:32:48.43	100.85	13.55	-39.4	-50.7	5.2	8.60e-01	0	59	0	136314880	50	13246
2026-01-18 08:32:49.44	100.71	13.63	-39.2	-49.6	5.5	9.19e-01	0	59	0	137363456	41	19614
2026-01-18 08:32:50.45	100.57	13.70	-40.8	-49.9	5.2	5.33e-01	0	59	0	139460608	44	16890
2026-01-18 08:32:51.46	100.44	13.78	-38.4	-49.6	5.3	5.67e-01	0	59	0	141557760	46	14695
2026-01-18 08:32:52.47	100.30	13.86	-40.3	-49.2	6.7	5.90e-01	0	59	0	142606336	52	9888
2026-01-18 08:32:53.48	100.16	13.93	-40.0	-46.9	8.8	1.34e-01	0	59	0	144703488	52	7579
2026-01-18 08:32:54.49	100.02	14.01	-40.7	-46.1	10.1	5.35e-02	0	59	0	146800640	52	6891
2026-01-18 08:32:55.50	99.87	14.08	-40.8	-46.7	9.3	1.48e-01	0	59	0	148897792	51	7868
2026-01-18 08:32:56.51	99.73	14.16	-40.4	-47.3	8.4	7.42e-02	0	59	0	150994944	53	7497
2026-01-18 08:32:57.52	99.59	14.24	-41.5	-47.7	8.8	1.20e-01	0	59	0	152043520	54	7426
2026-01-18 08:32:58.53	99.44	14.31	-42.1	-48.2	8.6	5.03e-02	0	59	0	154140672	55	7447
2026-01-18 08:32:59.54	99.30	14.39	-42.2	-48.0	8.7	4.69e-02	0	59	0	156237824	55	7223
2026-01-18 08:33:00.55	99.15	14.47	-42.1	-47.5	9.6	5.83e-02	0	59	0	158334976	55	6865
2026-01-18 08:33:01.56	99.01	14.54	-42.0	-46.9	10.2	7.16e-03	0	59	0	160432128	54	6801
2026-01-18 08:33:02.57	98.86	14.62	-42.0	-47.2	10.0	9.40e-03	0	59	0	161480704	54	6972
2026-01-18 08:33:03.58	98.71	14.70	-42.3	-48.0	9.2	1.43e-02	0	59	0	163577856	55	7232
2026-01-18 08:33:04.59	98.56	14.77	-41.6	-47.5	9.5	1.31e-02	0	59	0	165675008	54	7256
2026-01-18 08:33:05.60	98.41	14.85	-42.2	-47.5	9.8	1.07e-02	0	59	0	167772160	55	6833
2026-01-18 08:33:06.61	98.26	14.93	-42.2	-47.5	9.7	1.67e-02	0	59	0	169869312	55	6864
2026-01-18 08:33:07.62	98.11	15.00	-42.2	-47.4	9.9	1.05e-02	0	59	0	170917888	55	6755
2026-01-18 08:33:08.63	97.96	15.08	-42.1	-47.2	10.1	6.30e-03	0	59	0	173015040	55	6585
2026-01-18 08:33:09.64	97.81	15.16	-42.3	-47.5	9.8	9.48e-03	0	59	0	175112192	55	6843
2026-01-18 08:33:10.65	97.66	15.24	-42.5	-48.2	9.1	1.47e-02	0	59	0	177209344	55	7372
2026-01-18 08:33:11.66	97.50	15.31	-42.4	-48.0	9.4	1.79e-02	0	59	0	179306496	55	7213
2026-01-18 08:33:12.67	97.35	15.39	-42.4	-47.8	9.5	1.57e-02	0	59	0	180355072	55	7093
2026-01-18 08:33:13.67	97.19	15.47	-42.4	-47.9	9.5	1.06e-02	0	59	0	182452224	55	7161
2026-01-18 08:33:14.68	97.04	15.54	-42.4	-47.8	9.6	1.48e-02	0	59	0	184549376	55	7050
2026-01-18 08:33:15.69	96.88	15.62	-42.2	-47.3	10.2	9.27e-03	0	59	0	186646528	55	6657
2026-01-18 08:33:16.70	96.72	15.70	-42.3	-47.3	10.1	5.21e-03	0	59	0	188743680	55	6678
2026-01-18 08:33:17.71	96.56	15.78	-42.5	-47.8	9.6	9.27e-03	0	59	0	189792256	55	7096
2026-01-18 08:33:18.72	96.40	15.85	-42.4	-47.6	9.8	1.08e-02	0	59	0	191889408	55	6914
2026-01-18 08:33:19.73	96.24	15.93	-42.4	-47.6	9.8	9.50e-03	0	59	0	193986560	55	6933
2026-01-18 08:33:20.74	96.08	16.01	-42.5	-48.0	9.4	1.61e-02	0	59	0	196083712	55	7251
2026-01-18 08:33:21.75	95.92	16.09	-42.5	-47.9	9.5	1.62e-02	0	59	0	198180864	55	7174
2026-01-18 08:33:22.76	95.76	16.16	-42.5	-48.1	9.3	1.71e-02	0	59	0	199229440	55	7310
2026-01-18 08:33:23.78	95.59	16.24	-42.4	-47.8	9.6	1.44e-02	0	59	0	201326592	55	7055
2026-01-18 08:33:24.78	95.43	16.32	-42.6	-48.2	9.3	1.66e-02	0	59	0	203423744	55	7376
2026-01-18 08:33:25.79	95.26	16.39	-42.4	-47.7	9.6	1.71e-02	0	59	0	205520896	55	7040
2026-01-18 08:33:26.81	95.09	16.47	-42.4	-47.7	9.7	1.15e-02	0	59	0	207618048	55	7003
2026-01-18 08:33:27.82	94.92	16.55	-42.4	-47.6	9.9	1.10e-02	0	59	0	208666624	55	6884
2026-01-18 08:33:28.82	94.76	16.63	-42.4	-47.6	9.8	8.73e-03	0	59	0	210763776	55	6913
2026-01-18 08:33:29.83	94.59	16.70	-42.4	-47.5	9.9	8.15e-03	0	59	0	212860928	55	6818
2026-01-18 08:33:30.84	94.42	16.78	-42.3	-47.3	10.1	7.68e-03	0	59	0	214958080	55	6675
2026-01-18 08:33:31.85	94.25	16.86	-42.2	-47.0	10.5	4.03e-03	0	59	0	217055232	55	6436
2026-01-18 08:33:32.86	94.08	16.94	-42.2	-47.0	10.5	4.32e-03	0	59	0	219152384	55	6447
2026-01-18 08:33:33.87	93.90	17.01	-42.0	-46.6	10.9	2.50e-03	0	59	0	220200960	55	6162
2026-01-18 08:33:34.88	93.73	17.09	-42.2	-46.9	10.5	2.96e-03	0	59	0	222298112	55	6416
2026-01-18 08:33:35.89	93.55	17.17	-42.3	-47.2	10.2	5.31e-03	0	59	0	224395264	55	6644
2026-01-18 08:33:36.90	93.38	17.25	-42.4	-47.6	9.9	7.13e-03	0	59	0	226492416	55	6902
2026-01-18 08:33:37.91	93.20	17.32	-42.2	-47.1	10.4	5.97e-03	0	59	0	228589568	55	6537
2026-01-18 08:33:38.92	93.03	17.40	-42.2	-46.9	10.6	3.54e-03	0	59	0	229638144	55	6391
2026-01-18 08:33:39.93	92.85	17.48	-42.1	-46.7	10.8	2.54e-03	0	59	0	231735296	55	6235
2026-01-18 08:33:40.94	92.67	17.55	-42.1	-46.7	10.8	2.99e-03	0	59	0	233832448	55	6227
2026-01-18 08:33:41.95	92.49	17.63	-42.1	-46.9	10.5	4.78e-03	0	59	0	235929600	55	6409
2026-01-18 08:33:42.96	92.31	17.71	-42.3	-47.3	10.1	7.03e-03	0	59	0	238026752	55	6685
2026-01-18 08:33:43.97	92.13	17.78	-42.3	-47.4	9.9	6.84e-03	0	59	0	239075328	55	6799
2026-01-18 08:33:44.98	91.94	17.86	-42.2	-47.2	10.2	6.21e-03	0	60	0	241172480	55	6594
2026-01-18 08:33:45.99	91.76	17.94	-42.1	-47.0	10.3	4.59e-03	0	59	0	243269632	55	6478
2026-01-18 08:33:47.00	91.57	18.02	-42.1	-47.1	10.1	7.02e-03	0	59	0	245366784	55	6521
2026-01-18 08:33:48.00	91.39	18.09	-42.2	-47.5	9.7	9.12e-03	0	59	0	247463936	55	6842
2026-01-18 08:33:49.01	91.20	18.17	-42.3	-47.8	9.3	1.30e-02	0	59	0	248512512	55	7104
2026-01-18 08:33:50.02	91.02	18.24	-42.3	-48.0	9.2	2.28e-02	0	59	0	250609664	55	7211
2026-01-18 08:33:51.03	90.83	18.32	-42.4	-48.1	9.0	2.75e-02	0	59	0	252706816	55	7322
2026-01-18 08:33:52.04	90.64	18.40	-42.3	-48.0	9.1	2.12e-02	0	59	0	254803968	55	7225
2026-01-18 08:33:53.05	90.45	18.47	-42.2	-47.7	9.4	2.06e-02	0	59	0	256901120	55	6982
2026-01-18 08:33:54.06	90.26	18.55	-42.1	-47.4	9.5	1.37e-02	0	60	0	257949696	55	6773
2026-01-18 08:33:55.07	90.06	18.63	-42.0	-47.5	9.5	1.49e-02	0	60	0	260046848	55	6817
2026-01-18 08:33:56.08	89.87	18.70	-41.9	-47.1	9.8	9.75e-03	0	59	0	262144000	55	6527
2026-01-18 08:33:57.09	89.68	18.78	-41.8	-47.0	9.8	9.53e-03	0	59	0	264241152	55	6470
2026-01-18 08:33:58.10	89.48	18.85	-41.8	-47.0	9.8	9.70e-03	0	59	0	266338304	55	6430
2026-01-18 08:33:59.11	89.28	18.93	-41.7	-47.0	9.8	1.15e-02	0	60	0	267386880	55	6440
2026-01-18 08:34:00.12	89.09	19.00	-41.7	-46.9	9.8	1.03e-02	0	59	0	269484032	55	6405
2026-01-18 08:34:01.12	88.89	19.08	-41.7	-47.1	9.6	1.15e-02	0	59	0	271581184	55	6554
2026-01-18 08:34:02.14	88.69	19.15	-41.7	-47.2	9.3	1.48e-02	0	59	0	273678336	55	6635
2026-01-18 08:34:03.15	88.49	19.23	-41.7	-47.4	9.2	1.84e-02	0	60	0	275775488	55	6741
2026-01-18 08:34:04.16	88.29	19.31	-41.7	-47.5	9.1	2.17e-02	0	59	0	276824064	55	6807
2026-01-18 08:34:05.17	88.09	19.38	-41.7	-47.7	8.7	2.70e-02	0	59	0	278921216	55	6961
2026-01-18 08:34:06.18	87.88	19.45	-41.7	-47.9	8.5	4.24e-02	0	60	0	281018368	55	7124
2026-01-18 08:34:07.19	87.68	19.53	-41.7	-47.9	8.5	4.38e-02	0	59	0	283115520	55	7160
2026-01-18 08:34:08.20	87.47	19.60	-41.5	-47.5	8.8	3.38e-02	0	60	0	285212672	55	6836
2026-01-18 08:34:09.20	87.27	19.68	-41.4	-47.3	9.0	2.97e-02	0	59	0	287309824	54	7060
2026-01-18 08:34:10.21	87.06	19.75	-41.4	-46.9	9.4	2.36e-02	0	60	0	288358400	54	6798
2026-01-18 08:34:11.22	86.85	19.82	-41.5	-47.3	9.1	2.04e-02	0	60	0	290455552	54	7059
2026-01-18 08:34:12.23	86.64	19.90	-41.5	-47.1	9.3	1.83e-02	0	60	0	292552704	54	6950
2026-01-18 08:34:13.24	86.43	19.97	-41.3	-46.4	10.2	1.05e-02	0	60	0	294649856	54	6350
2026-01-18 08:34:14.25	86.22	20.05	-41.3	-46.3	10.3	5.85e-03	0	60	0	296747008	54	6330
2026-01-18 08:34:15.26	86.01	20.12	-41.4	-46.4	10.2	5.80e-03	0	60	0	297795584	54	6393
2026-01-18 08:34:16.27	85.80	20.19	-41.5	-46.7	10.0	7.18e-03	0	60	0	299892736	54	6602
2026-01-18 08:34:17.28	85.58	20.26	-41.5	-46.7	10.0	7.47e-03	0	60	0	301989888	54	6590
2026-01-18 08:34:18.29	85.37	20.34	-41.5	-46.6	10.1	7.32e-03	0	60	0	304087040	54	6497
2026-01-18 08:34:19.30	85.15	20.41	-41.3	-46.1	10.6	4.13e-03	0	60	0	306184192	54	6173
2026-01-18 08:34:20.31	84.93	20.48	-41.2	-45.9	10.8	3.33e-03	0	60	0	307232768	54	6033
2026-01-18 08:34:21.32	84.72	20.55	-41.2	-45.9	10.8	3.34e-03	0	60	0	309329920	54	6046
2026-01-18 08:34:22.33	84.50	20.62	-41.3	-46.0	10.8	2.78e-03	0	60	0	311427072	54	6065
2026-01-18 08:34:23.34	84.28	20.70	-41.4	-46.0	10.7	2.49e-03	0	60	0	313524224	54	6125
2026-01-18 08:34:24.35	84.05	20.77	-41.3	-45.7	11.2	1.40e-03	0	60	0	315621376	54	5880
2026-01-18 08:34:25.36	83.83	20.84	-41.2	-45.6	11.4	1.18e-03	0	60	0	316669952	54	5791
2026-01-18 08:34:26.37	83.61	20.91	-41.2	-45.5	11.5	8.38e-04	0	60	0	318767104	54	5727
2026-01-18 08:34:27.38	83.38	20.98	-41.3	-45.6	11.5	7.20e-04	0	60	0	320864256	54	5800
2026-01-18 08:34:28.39	83.16	21.05	-41.3	-45.6	11.5	8.41e-04	0	59	0	322961408	54	5796
2026-01-18 08:34:29.40	82.93	21.12	-41.3	-45.4	11.8	5.00e-04	0	60	0	325058560	54	5679
2026-01-18 08:34:30.41	82.70	21.19	-41.3	-45.4	11.8	5.15e-04	0	60	0	326107136	54	5700
2026-01-18 08:34:31.42	82.47	21.26	-41.3	-45.4	11.9	4.46e-04	0	60	0	328204288	54	5665
2026-01-18 08:34:32.43	82.25	21.33	-41.3	-45.5	11.8	3.32e-04	0	60	0	330301440	54	5733
2026-01-18 08:34:33.44	82.01	21.39	-41.3	-45.4	11.8	4.01e-04	0	60	0	332398592	54	5703
2026-01-18 08:34:34.45	81.78	21.46	-41.3	-45.4	12.0	3.54e-04	0	60	0	334495744	54	5661
2026-01-18 08:34:35.46	81.55	21.53	-41.3	-45.2	12.1	3.62e-04	0	60	0	335544320	54	5592
2026-01-18 08:34:36.47	81.32	21.60	-41.4	-45.5	11.8	3.74e-04	0	60	0	337641472	54	5765
2026-01-18 08:34:37.48	81.08	21.67	-41.4	-45.4	11.9	4.31e-04	0	60	0	339738624	54	5714
2026-01-18 08:34:38.48	80.85	21.73	-41.2	-45.0	12.4	2.02e-04	0	60	0	341835776	54	5407
2026-01-18 08:34:39.49	80.61	21.80	-41.1	-45.0	12.4	1.33e-04	0	60	0	343932928	54	5443
2026-01-18 08:34:40.50	80.37	21.86	-41.1	-45.0	12.4	1.52e-04	0	60	0	344981504	54	5440
2026-01-18 08:34:41.51	80.13	21.93	-41.1	-44.9	12.5	1.07e-04	0	60	0	347078656	54	5367
2026-01-18 08:34:42.52	79.89	22.00	-40.9	-44.6	12.7	9.07e-05	0	60	0	349175808	53	5500
2026-01-18 08:34:43.53	79.65	22.06	-40.9	-44.6	12.8	6.63e-05	0	60	0	351272960	53	5513
2026-01-18 08:34:44.54	79.41	22.13	-41.0	-44.7	12.8	5.95e-05	0	60	0	353370112	53	5565
2026-01-18 08:34:45.55	79.17	22.19	-41.0	-44.6	12.8	6.86e-05	0	60	0	355467264	53	5520
2026-01-18 08:34:46.56	78.92	22.25	-41.1	-44.9	12.6	7.40e-05	0	60	0	356515840	53	5670
2026-01-18 08:34:47.57	78.68	22.32	-41.1	-44.9	12.6	1.10e-04	0	60	0	358612992	53	5692
2026-01-18 08:34:48.58	78.43	22.38	-40.9	-44.5	13.0	4.42e-05	0	60	0	360710144	53	5461
2026-01-18 08:34:49.59	78.19	22.44	-40.9	-44.5	13.0	3.28e-05	0	60	0	362807296	53	5455
2026-01-18 08:34:50.60	77.94	22.51	-40.9	-44.5	13.0	3.35e-05	0	60	0	364904448	53	5455
2026-01-18 08:34:51.61	77.69	22.57	-40.9	-44.6	13.0	5.49e-05	0	60	0	365953024	53	5468
2026-01-18 08:34:52.62	77.44	22.63	-41.0	-44.6	12.9	5.18e-05	0	60	0	368050176	53	5496
2026-01-18 08:34:53.63	77.19	22.69	-41.0	-44.7	12.9	6.17e-05	0	60	0	370147328	53	5539
2026-01-18 08:34:54.64	76.94	22.75	-41.0	-44.6	12.9	5.56e-05	0	60	0	372244480	53	5498
2026-01-18 08:34:55.65	76.68	22.81	-41.0	-44.7	12.9	3.20e-05	0	60	0	374341632	53	5552
2026-01-18 08:34:56.66	76.43	22.87	-41.2	-45.0	12.6	5.87e-05	0	60	0	375390208	53	5753
2026-01-18 08:34:57.67	76.17	22.93	-41.2	-45.0	12.6	9.38e-05	0	60	0	377487360	53	5760
2026-01-18 08:34:58.68	75.92	22.99	-41.1	-44.8	12.7	9.30e-05	0	60	0	379584512	53	5642
2026-01-18 08:34:59.69	75.66	23.05	-41.2	-45.0	12.6	1.06e-04	0	60	0	381681664	53	5751
2026-01-18 08:35:00.70	75.40	23.11	-41.4	-45.4	12.2	1.58e-04	0	60	0	383778816	53	6008
2026-01-18 08:35:01.71	75.14	23.16	-41.5	-45.5	12.2	2.45e-04	0	60	0	384827392	53	6070
2026-01-18 08:35:02.72	74.89	23.22	-41.3	-45.2	12.5	1.69e-04	0	60	0	386924544	53	5887
2026-01-18 08:35:03.73	74.62	23.28	-41.3	-45.1	12.5	1.09e-04	0	60	0	389021696	53	5837
2026-01-18 08:35:04.74	74.36	23.33	-41.2	-45.0	12.7	8.01e-05	0	60	0	391118848	53	5732
2026-01-18 08:35:05.75	74.10	23.39	-41.3	-45.0	12.6	9.23e-05	0	60	0	393216000	53	5776
2026-01-18 08:35:06.76	73.84	23.44	-41.3	-45.2	12.5	1.14e-04	0	60	0	394264576	53	5876
2026-01-18 08:35:07.77	73.57	23.50	-41.2	-44.9	12.8	6.10e-05	0	60	0	396361728	53	5711
2026-01-18 08:35:08.78	73.31	23.55	-41.1	-44.7	13.0	2.82e-05	0	60	0	398458880	53	5558
2026-01-18 08:35:09.79	73.04	23.60	-41.2	-44.8	12.9	2.82e-05	0	60	0	400556032	53	5605
2026-01-18 08:35:10.79	72.78	23.65	-41.1	-44.7	13.0	3.66e-05	0	60	0	402653184	53	5587
2026-01-18 08:35:11.80	72.51	23.71	-41.1	-44.6	13.3	2.89e-05	0	60	0	403701760	53	5477
2026-01-18 08:35:12.81	72.24	23.76	-41.1	-44.6	13.2	2.21e-05	0	60	0	405798912	53	5466
2026-01-18 08:35:13.82	71.97	23.81	-41.0	-44.4	13.3	1.29e-05	0	60	0	407896064	53	5380
2026-01-18 08:35:14.83	71.70	23.86	-41.1	-44.6	13.2	1.83e-05	0	60	0	409993216	53	5487
2026-01-18 08:35:15.84	71.43	23.91	-41.1	-44.5	13.3	1.98e-05	0	60	0	412090368	53	5464
2026-01-18 08:35:16.85	71.16	23.96	-40.9	-44.2	13.7	9.90e-06	0	60	0	413138944	53	5225
2026-01-18 08:35:17.86	70.88	24.01	-40.8	-44.0	13.9	2.20e-06	0	60	0	415236096	53	5120
2026-01-18 08:35:18.87	70.61	24.05	-40.8	-44.0	13.9	3.80e-06	0	60	0	417333248	53	5121
2026-01-18 08:35:19.88	70.33	24.10	-41.0	-44.3	13.6	6.10e-06	0	60	0	419430400	53	5311
2026-01-18 08:35:20.89	70.06	24.15	-41.1	-44.5	13.4	1.52e-05	0	60	0	421527552	53	5439
2026-01-18 08:35:21.90	69.78	24.19	-41.1	-44.6	13.3	6.80e-06	0	60	0	423624704	53	5494
2026-01-18 08:35:22.91	69.50	24.24	-41.3	-44.8	13.1	3.12e-05	0	60	0	424673280	53	5635
2026-01-18 08:35:23.92	69.23	24.28	-41.5	-45.2	12.7	4.19e-05	0	60	0	426770432	53	5901
2026-01-18 08:35:24.93	68.95	24.33	-41.5	-45.3	12.5	9.84e-05	0	60	0	428867584	53	5992
2026-01-18 08:35:25.93	68.67	24.37	-41.7	-45.7	12.2	1.47e-04	0	60	0	430964736	53	6204
2026-01-18 08:35:26.94	68.39	24.41	-41.8	-46.0	11.9	2.75e-04	0	60	0	433061888	54	6064
2026-01-18 08:35:27.95	68.11	24.45	-42.2	-46.7	11.3	6.00e-04	0	60	0	434110464	54	6575
2026-01-18 08:35:28.96	67.83	24.49	-42.4	-47.1	10.8	2.21e-03	0	60	0	436207616	55	6567
2026-01-18 08:35:29.97	67.54	24.54	-42.5	-47.5	10.4	4.49e-03	0	60	0	438304768	55	6810
2026-01-18 08:35:30.98	67.26	24.57	-42.4	-47.3	10.5	4.20e-03	0	60	0	440401920	55	6703
2026-01-18 08:35:31.99	66.98	24.61	-42.3	-47.0	10.9	2.27e-03	0	60	0	442499072	55	6448
2026-01-18 08:35:33.00	66.69	24.65	-42.3	-46.9	10.9	1.61e-03	0	60	0	443547648	55	6403
2026-01-18 08:35:34.01	66.41	24.69	-42.2	-46.7	11.2	1.15e-03	0	60	0	445644800	55	6230
2026-01-18 08:35:35.02	66.12	24.73	-42.1	-46.5	11.5	7.62e-04	0	60	0	447741952	55	6078
2026-01-18 08:35:36.03	65.83	24.76	-41.9	-46.1	11.9	7.48e-04	0	60	0	449839104	55	5798
2026-01-18 08:35:37.04	65.55	24.80	-42.0	-46.2	11.7	4.49e-04	0	60	0	451936256	55	5905
2026-01-18 08:35:38.05	65.26	24.83	-42.1	-46.4	11.5	7.21e-04	0	60	0	452984832	55	6060
2026-01-18 08:35:39.06	64.97	24.87	-42.2	-46.7	11.3	1.07e-03	0	60	0	455081984	55	6231
2026-01-18 08:35:40.07	64.68	24.90	-42.1	-46.5	11.4	1.11e-03	0	60	0	457179136	55	6124
2026-01-18 08:35:41.08	64.39	24.93	-42.2	-46.7	11.2	9.15e-04	0	60	0	459276288	55	6259
2026-01-18 08:35:42.09	64.10	24.97	-42.1	-46.6	11.4	1.10e-03	0	60	0	461373440	55	6133
2026-01-18 08:35:43.10	63.81	25.00	-42.2	-46.7	11.2	1.15e-03	0	60	0	462422016	55	6254
2026-01-18 08:35:44.11	63.52	25.03	-42.3	-46.9	11.0	1.67e-03	0	60	0	464519168	55	6405
2026-01-18 08:35:45.12	63.23	25.06	-42.2	-46.9	11.0	1.56e-03	0	60	0	466616320	55	6387
2026-01-18 08:35:46.13	62.93	25.08	-42.2	-46.8	11.1	1.39e-03	0	60	0	468713472	55	6346
2026-01-18 08:35:47.14	62.64	25.11	-42.4	-47.2	10.7	2.37e-03	0	60	0	470810624	55	6626
2026-01-18 08:35:48.15	62.35	25.14	-42.5	-47.6	10.3	3.86e-03	0	60	0	471859200	55	6934
2026-01-18 08:35:49.16	62.05	25.17	-42.5	-47.4	10.4	5.90e-03	0	60	0	473956352	55	6783
2026-01-18 08:35:50.17	61.76	25.19	-42.4	-47.3	10.6	4.96e-03	0	60	0	476053504	55	6692
2026-01-18 08:35:51.18	61.46	25.22	-42.4	-47.1	10.7	2.55e-03	0	60	0	478150656	55	6555
2026-01-18 08:35:52.19	61.17	25.24	-42.4	-47.2	10.7	2.51e-03	0	60	0	480247808	55	6575
2026-01-18 08:35:53.20	60.87	25.26	-42.3	-47.1	10.9	2.29e-03	0	60	0	481296384	55	6527
2026-01-18 08:35:54.21	60.57	25.29	-42.2	-46.9	11.1	2.15e-03	0	60	0	483393536	55	6388
2026-01-18 08:35:55.22	60.28	25.31	-42.1	-46.6	11.3	1.63e-03	0	60	0	485490688	55	6189
2026-01-18 08:35:56.23	59.98	25.33	-42.0	-46.2	11.7	7.49e-04	0	60	0	487587840	55	5914
2026-01-18 08:35:57.24	59.68	25.35	-42.0	-46.3	11.7	5.09e-04	0	60	0	489684992	55	5928
2026-01-18 08:35:58.25	59.38	25.37	-42.1	-46.5	11.4	7.06e-04	0	60	0	491782144	55	6103
2026-01-18 08:35:59.26	59.09	25.38	-42.2	-46.8	11.1	1.14e-03	0	60	0	492830720	55	6326
2026-01-18 08:36:00.26	58.79	25.40	-42.3	-47.0	10.9	1.91e-03	0	60	0	494927872	55	6491
2026-01-18 08:36:01.27	58.49	25.42	-42.4	-47.2	10.7	2.85e-03	0	60	0	497025024	55	6646
2026-01-18 08:36:02.28	58.19	25.43	-42.3	-47.0	10.9	2.94e-03	0	60	0	499122176	55	6490
2026-01-18 08:36:03.29	57.89	25.45	-42.3	-47.1	10.9	2.28e-03	0	60	0	501219328	55	6518
2026-01-18 08:36:04.30	57.59	25.46	-42.3	-47.1	10.9	2.16e-03	0	60	0	502267904	55	6509
2026-01-18 08:36:05.31	57.29	25.47	-42.4	-47.2	10.7	2.12e-03	0	60	0	504365056	55	6577
2026-01-18 08:36:06.32	56.99	25.49	-42.2	-46.8	11.1	1.86e-03	0	60	0	506462208	55	6316
2026-01-18 08:36:07.33	56.69	25.50	-42.1	-46.5	11.4	1.23e-03	0	60	0	508559360	55	6110
2026-01-18 08:36:08.34	56.39	25.51	-42.0	-46.3	11.7	8.25e-04	0	60	0	510656512	55	5951
2026-01-18 08:36:09.35	56.09	25.52	-41.8	-45.8	12.1	4.03e-04	0	60	0	511705088	55	5654
2026-01-18 08:36:10.36	55.79	25.53	-41.7	-45.6	12.4	1.76e-04	0	60	0	513802240	55	5508
2026-01-18 08:36:11.37	55.49	25.54	-41.8	-45.7	12.3	2.00e-04	0	60	0	515899392	55	5576
2026-01-18 08:36:12.38	55.19	25.54	-41.9	-46.1	11.9	2.72e-04	0	60	0	517996544	55	5840
2026-01-18 08:36:13.39	54.88	25.55	-42.1	-46.6	11.4	6.64e-04	0	60	0	520093696	55	6165
2026-01-18 08:36:14.40	54.58	25.55	-42.4	-47.1	10.8	1.97e-03	0	60	0	521142272	55	6570
2026-01-18 08:36:15.40	54.28	25.56	-42.4	-47.3	10.6	2.62e-03	0	60	0	523239424	55	6709
2026-01-18 08:36:16.41	53.98	25.56	-42.4	-47.2	10.8	2.91e-03	0	60	0	525336576	55	6621
2026-01-18 08:36:17.42	53.68	25.56	-42.3	-47.2	10.8	2.23e-03	0	60	0	527433728	55	6572
2026-01-18 08:36:18.43	53.38	25.57	-42.3	-47.1	10.8	2.77e-03	0	60	0	529530880	55	6545
2026-01-18 08:36:19.44	53.08	25.57	-42.3	-47.1	10.9	2.43e-03	0	60	0	530579456	55	6502
2026-01-18 08:36:20.45	52.78	25.57	-42.2	-46.7	11.3	1.85e-03	0	60	0	532676608	55	6217
2026-01-18 08:36:21.46	52.47	25.57	-42.1	-46.4	11.6	9.83e-04	0	60	0	534773760	55	6049
2026-01-18 08:36:22.47	52.17	25.56	-42.0	-46.1	11.9	6.48e-04	0	60	0	536870912	55	5849
2026-01-18 08:36:23.48	51.87	25.56	-41.8	-45.9	12.1	2.60e-04	0	60	0	538968064	55	5697
2026-01-18 08:36:24.49	51.57	25.56	-41.6	-45.3	12.7	1.81e-04	0	60	0	540016640	55	5339
2026-01-18 08:36:25.50	51.27	25.55	-41.5	-45.2	12.8	4.95e-05	0	60	0	542113792	55	5247
2026-01-18 08:36:26.51	50.96	25.55	-41.5	-45.1	13.0	5.56e-05	0	60	0	544210944	54	5488
2026-01-18 08:36:27.52	50.66	25.54	-41.5	-45.1	13.0	4.19e-05	0	60	0	546308096	54	5473
2026-01-18 08:36:28.53	50.36	25.54	-41.6	-45.3	12.8	3.50e-05	0	60	0	548405248	54	5597
2026-01-18 08:36:29.54	50.06	25.53	-41.6	-45.3	12.8	6.10e-05	0	60	0	549453824	54	5600
2026-01-18 08:36:30.55	49.76	25.52	-41.7	-45.5	12.6	6.25e-05	0	60	0	551550976	54	5745
2026-01-18 08:36:31.56	49.46	25.51	-41.5	-45.1	13.0	8.62e-05	0	60	0	553648128	54	5496
2026-01-18 08:36:32.57	49.16	25.50	-41.4	-45.0	13.1	3.12e-05	0	60	0	555745280	54	5447
2026-01-18 08:36:33.58	48.86	25.49	-41.1	-44.4	13.7	1.29e-05	0	60	0	557842432	54	5056
2026-01-18 08:36:34.59	48.56	25.48	-41.0	-44.2	13.9	3.00e-06	0	60	0	559939584	54	4953
2026-01-18 08:36:35.60	48.26	25.46	-40.9	-44.0	14.1	1.50e-06	0	60	0	560988160	53	5108
2026-01-18 08:36:36.61	47.96	25.45	-40.7	-43.7	14.4	2.20e-06	0	60	0	563085312	53	4979
2026-01-18 08:36:37.62	47.66	25.44	-40.8	-43.8	14.4	7.00e-07	0	60	0	565182464	53	4993
2026-01-18 08:36:38.63	47.36	25.42	-40.9	-43.9	14.2	2.20e-06	0	60	0	567279616	53	5072
2026-01-18 08:36:39.64	47.06	25.40	-40.7	-43.7	14.3	0.00e+00	0	60	0	569376768	53	4936
2026-01-18 08:36:40.65	46.76	25.39	-40.8	-43.8	14.3	7.00e-07	0	60	0	570425344	53	5011
2026-01-18 08:36:41.65	46.47	25.37	-40.7	-43.7	14.5	7.00e-07	0	60	0	572522496	53	4939
2026-01-18 08:36:42.66	46.17	25.35	-40.8	-43.9	14.3	7.00e-07	0	60	0	574619648	53	5065
2026-01-18 08:36:43.67	45.87	25.33	-41.0	-44.1	14.1	1.50e-06	0	61	0	576716800	53	5178
2026-01-18 08:36:44.68	45.58	25.31	-41.0	-44.3	13.8	1.50e-06	0	60	0	578813952	53	5281
2026-01-18 08:36:45.70	45.28	25.29	-41.1	-44.4	13.7	9.10e-06	0	60	0	579862528	53	5387
2026-01-18 08:36:46.70	44.98	25.27	-41.2	-44.5	13.6	5.30e-06	0	61	0	581959680	53	5419
2026-01-18 08:36:47.71	44.69	25.25	-41.4	-44.9	13.1	7.60e-06	0	60	0	584056832	53	5710
2026-01-18 08:36:48.72	44.39	25.22	-41.4	-44.9	13.2	2.21e-05	0	60	0	586153984	53	5692
2026-01-18 08:36:49.73	44.10	25.20	-41.4	-44.8	13.3	1.98e-05	0	60	0	588251136	53	5631
2026-01-18 08:36:50.74	43.80	25.17	-41.3	-44.7	13.4	9.10e-06	0	61	0	589299712	53	5533
2026-01-18 08:36:51.75	43.51	25.15	-41.4	-44.8	13.2	1.22e-05	0	60	0	591396864	53	5649
2026-01-18 08:36:52.76	43.21	25.12	-41.5	-45.0	13.2	1.52e-05	0	60	0	593494016	53	5726
2026-01-18 08:36:53.77	42.92	25.09	-41.6	-45.1	13.0	1.83e-05	0	61	0	595591168	53	5829
2026-01-18 08:36:54.78	42.63	25.06	-41.7	-45.4	12.7	4.27e-05	0	61	0	597688320	53	5999
2026-01-18 08:36:55.79	42.34	25.03	-41.7	-45.5	12.6	1.11e-04	0	61	0	598736896	54	5725
2026-01-18 08:36:56.80	42.05	25.00	-41.7	-45.3	12.9	7.55e-05	0	60	0	600834048	54	5600
2026-01-18 08:36:57.81	41.76	24.97	-41.8	-45.5	12.6	5.49e-05	0	60	0	602931200	54	5748
2026-01-18 08:36:58.81	41.47	24.94	-42.0	-46.0	12.1	2.00e-04	0	60	0	605028352	54	6104
2026-01-18 08:36:59.82	41.18	24.91	-42.2	-46.5	11.6	4.48e-04	0	60	0	607125504	55	6077
2026-01-18 08:37:00.84	40.89	24.88	-42.3	-46.7	11.2	7.04e-04	0	60	0	608174080	55	6249
2026-01-18 08:37:01.85	40.60	24.84	-42.1	-46.2	11.8	4.93e-04	0	60	0	610271232	55	5922
2026-01-18 08:37:02.86	40.31	24.81	-41.9	-45.8	12.3	2.33e-04	0	60	0	612368384	55	5627
2026-01-18 08:37:03.87	40.02	24.77	-41.7	-45.4	12.7	1.27e-04	0	60	0	614465536	55	5374
2026-01-18 08:37:04.88	39.74	24.74	-41.9	-45.7	12.4	1.17e-04	0	60	0	616562688	55	5559
2026-01-18 08:37:05.89	39.45	24.70	-41.9	-45.9	12.2	1.25e-04	0	60	0	617611264	55	5674
2026-01-18 08:37:06.90	39.17	24.66	-42.2	-46.5	11.5	2.47e-04	0	60	0	619708416	55	6100
2026-01-18 08:37:07.91	38.88	24.62	-42.2	-46.5	11.7	5.10e-04	0	61	0	621805568	55	6069
2026-01-18 08:37:08.92	38.60	24.59	-42.4	-47.0	11.0	1.06e-03	0	60	0	623902720	55	6489
2026-01-18 08:37:09.93	38.32	24.55	-42.4	-47.0	11.0	1.52e-03	0	60	0	625999872	55	6446
2026-01-18 08:37:10.94	38.03	24.51	-42.4	-47.1	10.9	1.81e-03	0	60	0	628097024	55	6509
2026-01-18 08:37:11.95	37.75	24.46	-42.4	-46.9	11.1	1.15e-03	0	61	0	629145600	55	6405
2026-01-18 08:37:12.96	37.47	24.42	-42.4	-46.9	11.1	1.22e-03	0	60	0	631242752	55	6384
2026-01-18 08:37:13.97	37.19	24.38	-42.4	-47.0	11.1	1.04e-03	0	60	0	633339904	55	6429
2026-01-18 08:37:14.98	36.91	24.34	-42.5	-47.2	10.9	1.98e-03	0	61	0	635437056	55	6582
2026-01-18 08:37:15.99	36.64	24.29	-42.5	-47.3	10.7	2.49e-03	0	61	0	637534208	55	6689
2026-01-18 08:37:17.00	36.36	24.25	-42.6	-47.6	10.4	3.44e-03	0	61	0	638582784	55	6880
2026-01-18 08:37:18.01	36.08	24.20	-42.6	-47.5	10.5	4.08e-03	0	61	0	640679936	55	6868
2026-01-18 08:37:19.02	35.81	24.16	-42.5	-47.2	10.8	2.23e-03	0	61	0	642777088	55	6625
2026-01-18 08:37:20.03	35.53	24.11	-42.4	-47.1	10.9	1.65e-03	0	60	0	644874240	55	6531
2026-01-18 08:37:21.04	35.26	24.07	-42.3	-46.8	11.2	1.29e-03	0	61	0	646971392	55	6307
2026-01-18 08:37:22.05	34.98	24.02	-42.3	-46.8	11.2	1.35e-03	0	61	0	648019968	55	6317
2026-01-18 08:37:23.06	34.71	23.97	-42.3	-46.9	11.2	1.21e-03	0	61	0	650117120	55	6351
2026-01-18 08:37:24.07	34.44	23.92	-42.4	-47.1	10.9	1.42e-03	0	61	0	652214272	55	6533
2026-01-18 08:37:25.08	34.17	23.87	-42.4	-47.2	10.8	2.18e-03	0	61	0	654311424	55	6597
2026-01-18 08:37:26.09	33.90	23.82	-42.5	-47.3	10.7	2.76e-03	0	60	0	656408576	55	6680
2026-01-18 08:37:27.10	33.63	23.77	-42.4	-47.1	10.9	2.10e-03	0	61	0	657457152	55	6515
2026-01-18 08:37:28.11	33.36	23.72	-42.3	-46.8	11.1	1.62e-03	0	60	0	659554304	55	6341
2026-01-18 08:37:29.12	33.09	23.67	-42.1	-46.4	11.6	7.29e-04	0	60	0	661651456	55	5998
2026-01-18 08:37:30.13	32.83	23.62	-42.0	-46.2	11.8	4.75e-04	0	60	0	663748608	55	5900
2026-01-18 08:37:31.14	32.56	23.56	-42.1	-46.4	11.7	5.73e-04	0	60	0	665845760	55	6010
2026-01-18 08:37:32.15	32.30	23.51	-42.1	-46.3	11.8	5.39e-04	0	60	0	666894336	55	5953
2026-01-18 08:37:33.16	32.03	23.46	-42.2	-46.7	11.3	6.29e-04	0	60	0	668991488	55	6234
2026-01-18 08:37:34.17	31.77	23.40	-42.1	-46.4	11.6	7.03e-04	0	60	0	671088640	55	6049
2026-01-18 08:37:35.18	31.51	23.35	-42.2	-46.8	11.3	9.26e-04	0	61	0	673185792	55	6285
2026-01-18 08:37:36.19	31.25	23.29	-42.4	-47.2	10.9	1.60e-03	0	60	0	675282944	55	6576
2026-01-18 08:37:37.19	30.99	23.24	-42.6	-47.7	10.3	3.80e-03	0	60	0	676331520	55	7013
2026-01-18 08:37:38.20	30.73	23.18	-42.5	-47.5	10.3	7.00e-03	0	60	0	678428672	55	6813
2026-01-18 08:37:39.21	30.47	23.12	-42.6	-47.5	10.5	6.00e-03	0	60	0	680525824	55	6846
2026-01-18 08:37:40.22	30.21	23.07	-42.3	-46.9	11.1	2.58e-03	0	60	0	682622976	55	6379
2026-01-18 08:37:41.23	29.96	23.01	-42.2	-46.6	11.4	1.20e-03	0	60	0	684720128	55	6143
2026-01-18 08:37:42.24	29.70	22.95	-42.0	-46.1	11.9	5.33e-04	0	61	0	685768704	55	5844
2026-01-18 08:37:43.25	29.45	22.89	-42.1	-46.3	11.7	4.10e-04	0	61	0	687865856	55	5982
2026-01-18 08:37:44.26	29.20	22.83	-42.2	-46.7	11.3	9.22e-04	0	61	0	689963008	55	6213
2026-01-18 08:37:45.27	28.94	22.77	-42.3	-46.9	11.1	1.66e-03	0	60	0	692060160	55	6402
2026-01-18 08:37:46.28	28.69	22.71	-42.3	-47.0	11.0	2.33e-03	0	60	0	694157312	55	6433
2026-01-18 08:37:47.29	28.44	22.65	-42.5	-47.3	10.6	3.12e-03	0	60	0	696254464	55	6705
2026-01-18 08:37:48.30	28.19	22.59	-42.5	-47.5	10.5	3.48e-03	0	60	0	697303040	55	6852
2026-01-18 08:37:49.31	27.94	22.53	-42.5	-47.3	10.7	3.71e-03	0	60	0	699400192	55	6700
2026-01-18 08:37:50.32	27.70	22.46	-42.3	-47.0	11.0	2.62e-03	0	61	0	701497344	55	6454
2026-01-18 08:37:51.33	27.45	22.40	-42.0	-46.3	11.8	1.00e-03	0	61	0	703594496	55	5935
2026-01-18 08:37:52.34	27.21	22.34	-41.8	-45.8	12.2	4.87e-04	0	60	0	705691648	55	5653
2026-01-18 08:37:53.35	26.96	22.28	-41.6	-45.4	12.6	1.36e-04	0	61	0	706740224	55	5384
2026-01-18 08:37:54.36	26.72	22.21	-41.5	-45.3	12.8	6.02e-05	0	61	0	708837376	55	5283
2026-01-18 08:37:55.37	26.48	22.15	-41.6	-45.4	12.7	5.26e-05	0	60	0	710934528	55	5369
2026-01-18 08:37:56.38	26.23	22.08	-41.7	-45.5	12.5	1.11e-04	0	61	0	713031680	55	5444
2026-01-18 08:37:57.39	25.99	22.02	-41.8	-45.8	12.2	1.50e-04	0	61	0	715128832	55	5636
2026-01-18 08:37:58.40	25.76	21.95	-42.1	-46.5	11.4	6.71e-04	0	60	0	716177408	55	6091
2026-01-18 08:37:59.41	25.52	21.89	-42.3	-47.0	11.0	1.31e-03	0	61	0	718274560	55	6486
2026-01-18 08:38:00.42	25.28	21.82	-42.4	-47.1	10.8	2.35e-03	0	60	0	720371712	55	6559
2026-01-18 08:38:01.43	25.04	21.76	-42.2	-46.7	11.3	1.72e-03	0	61	0	722468864	55	6212
2026-01-18 08:38:02.44	24.81	21.69	-42.0	-46.3	11.7	8.03e-04	0	61	0	724566016	55	5965
2026-01-18 08:38:03.45	24.57	21.62	-41.8	-45.9	12.1	3.46e-04	0	61	0	725614592	55	5677
2026-01-18 08:38:04.46	24.34	21.56	-41.6	-45.3	12.7	1.45e-04	0	60	0	727711744	55	5329
2026-01-18 08:38:05.47	24.11	21.49	-41.4	-45.0	13.1	5.34e-05	0	61	0	729808896	54	5438
2026-01-18 08:38:06.48	23.88	21.42	-41.2	-44.7	13.3	2.13e-05	0	61	0	731906048	54	5270
2026-01-18 08:38:07.49	23.65	21.35	-41.3	-44.8	13.2	2.28e-05	0	61	0	734003200	54	5303
2026-01-18 08:38:08.50	23.42	21.28	-41.3	-44.8	13.2	1.37e-05	0	61	0	735051776	54	5333
2026-01-18 08:38:09.51	23.19	21.21	-41.4	-45.1	12.9	3.66e-05	0	61	0	737148928	54	5494
2026-01-18 08:38:10.52	22.96	21.15	-41.5	-45.2	12.9	5.41e-05	0	61	0	739246080	54	5550
2026-01-18 08:38:11.53	22.74	21.08	-41.6	-45.3	12.7	8.85e-05	0	61	0	741343232	54	5654
2026-01-18 08:38:12.54	22.51	21.01	-41.6	-45.4	12.6	9.84e-05	0	60	0	743440384	54	5699
2026-01-18 08:38:13.54	22.29	20.94	-41.6	-45.4	12.6	8.54e-05	0	61	0	744488960	54	5667
2026-01-18 08:38:14.55	22.07	20.87	-41.5	-45.3	12.7	7.40e-05	0	60	0	746586112	54	5600
2026-01-18 08:38:15.56	21.85	20.80	-41.6	-45.4	12.6	6.48e-05	0	60	0	748683264	54	5685
2026-01-18 08:38:16.58	21.62	20.72	-41.5	-45.3	12.7	7.24e-05	0	61	0	750780416	54	5655
2026-01-18 08:38:17.59	21.41	20.65	-41.5	-45.3	12.7	7.17e-05	0	60	0	752877568	54	5645
2026-01-18 08:38:18.60	21.19	20.58	-41.3	-44.9	13.0	6.10e-05	0	61	0	753926144	54	5354
2026-01-18 08:38:19.60	20.97	20.51	-41.4	-45.2	12.8	4.80e-05	0	61	0	756023296	54	5534
2026-01-18 08:38:20.61	20.75	20.44	-41.4	-45.2	12.8	5.49e-05	0	60	0	758120448	54	5537
2026-01-18 08:38:21.62	20.54	20.37	-41.4	-45.1	12.9	4.11e-05	0	61	0	760217600	54	5493
2026-01-18 08:38:22.63	20.32	20.30	-41.5	-45.3	12.7	6.10e-05	0	61	0	762314752	54	5593
2026-01-18 08:38:23.64	20.11	20.22	-41.6	-45.6	12.4	8.54e-05	0	61	0	764411904	54	5806
2026-01-18 08:38:24.65	19.90	20.15	-41.5	-45.4	12.6	1.36e-04	0	61	0	765460480	54	5685
2026-01-18 08:38:25.66	19.69	20.08	-41.5	-45.4	12.6	1.18e-04	0	61	0	767557632	54	5684
2026-01-18 08:38:26.67	19.48	20.01	-41.6	-45.6	12.4	1.66e-04	0	61	0	769654784	54	5817
2026-01-18 08:38:27.68	19.27	19.93	-41.7	-45.8	12.1	1.46e-04	0	61	0	771751936	54	5984
2026-01-18 08:38:28.68	19.06	19.86	-41.9	-46.1	11.8	3.39e-04	0	61	0	773849088	54	6170
2026-01-18 08:38:29.69	18.85	19.79	-42.0	-46.4	11.6	4.92e-04	0	61	0	774897664	54	6349
2026-01-18 08:38:30.70	18.65	19.71	-41.9	-46.1	11.8	5.73e-04	0	61	0	776994816	54	6171
2026-01-18 08:38:31.71	18.44	19.64	-41.8	-45.8	12.1	4.08e-04	0	61	0	779091968	54	5966
2026-01-18 08:38:32.72	18.24	19.56	-41.6	-45.4	12.5	1.75e-04	0	60	0	781189120	54	5689
2026-01-18 08:38:33.73	18.03	19.49	-41.5	-45.2	12.7	8.69e-05	0	61	0	783286272	54	5576
2026-01-18 08:38:34.74	17.83	19.42	-41.5	-45.2	12.7	6.10e-05	0	61	0	784334848	54	5576
2026-01-18 08:38:35.75	17.63	19.34	-41.5	-45.3	12.6	6.48e-05	0	61	0	786432000	54	5631
2026-01-18 08:38:36.76	17.43	19.27	-41.6	-45.5	12.4	1.21e-04	0	61	0	788529152	54	5746
2026-01-18 08:38:37.77	17.23	19.19	-41.7	-45.7	12.2	2.17e-04	0	61	0	790626304	54	5890
2026-01-18 08:38:38.78	17.03	19.12	-41.7	-45.6	12.3	2.27e-04	0	60	0	792723456	54	5815
2026-01-18 08:38:39.79	16.83	19.04	-41.5	-45.3	12.6	1.20e-04	0	61	0	793772032	54	5629
2026-01-18 08:38:40.80	16.64	18.97	-41.2	-44.7	13.2	4.04e-05	0	61	0	795869184	54	5262
2026-01-18 08:38:41.81	16.44	18.89	-41.1	-44.5	13.5	1.44e-05	0	60	0	797966336	54	5124
2026-01-18 08:38:42.81	16.25	18.82	-41.0	-44.3	13.6	9.90e-06	0	60	0	800063488	54	5032
2026-01-18 08:38:43.82	16.06	18.74	-41.0	-44.3	13.5	1.22e-05	0	60	0	802160640	54	5039
2026-01-18 08:38:44.83	15.86	18.67	-41.0	-44.3	13.6	6.10e-06	0	61	0	803209216	54	4998
2026-01-18 08:38:45.84	15.67	18.59	-41.0	-44.2	13.7	4.50e-06	0	61	0	805306368	53	5266
2026-01-18 08:38:46.85	15.48	18.51	-41.0	-44.3	13.6	3.80e-06	0	61	0	807403520	53	5300
2026-01-18 08:38:47.86	15.29	18.44	-41.0	-44.3	13.6	7.60e-06	0	61	0	809500672	53	5305
2026-01-18 08:38:48.87	15.10	18.36	-41.1	-44.5	13.4	1.06e-05	0	61	0	811597824	53	5458
2026-01-18 08:38:49.88	14.92	18.29	-41.2	-44.7	13.2	1.37e-05	0	61	0	812646400	53	5545
2026-01-18 08:38:50.89	14.73	18.21	-41.3	-45.0	12.9	3.20e-05	0	61	0	814743552	53	5728
2026-01-18 08:38:51.90	14.54	18.13	-41.3	-45.0	12.9	5.11e-05	0	61	0	816840704	53	5761
2026-01-18 08:38:52.91	14.36	18.06	-41.3	-45.0	12.8	6.63e-05	0	61	0	818937856	53	5743
2026-01-18 08:38:53.92	14.17	17.98	-41.4	-45.0	12.9	6.25e-05	0	61	0	821035008	53	5742
2026-01-18 08:38:54.93	13.99	17.91	-41.2	-44.7	13.2	3.58e-05	0	61	0	822083584	53	5546
2026-01-18 08:38:55.94	13.81	17.83	-41.1	-44.5	13.3	1.67e-05	0	60	0	824180736	53	5432
2026-01-18 08:38:56.95	13.63	17.75	-41.0	-44.4	13.5	1.37e-05	0	61	0	826277888	53	5385
2026-01-18 08:38:57.96	13.45	17.68	-41.1	-44.5	13.3	1.60e-05	0	60	0	828375040	53	5438
2026-01-18 08:38:58.97	13.27	17.60	-41.2	-44.7	13.1	2.51e-05	0	61	0	830472192	53	5546
2026-01-18 08:38:59.98	13.09	17.52	-41.2	-44.7	13.1	3.05e-05	0	61	0	831520768	53	5551
2026-01-18 08:39:00.99	12.91	17.45	-41.3	-44.9	13.0	3.96e-05	0	61	0	833617920	53	5668
2026-01-18 08:39:02.00	12.74	17.37	-41.3	-44.9	12.9	4.57e-05	0	61	0	835715072	53	5680
2026-01-18 08:39:03.01	12.56	17.29	-41.4	-45.2	12.6	9.23e-05	0	61	0	837812224	53	5860
2026-01-18 08:39:04.01	12.39	17.22	-41.5	-45.4	12.4	1.01e-04	0	61	0	839909376	53	6031
2026-01-18 08:39:05.02	12.22	17.14	-41.5	-45.4	12.4	1.12e-04	0	61	0	840957952	53	6010
2026-01-18 08:39:06.03	12.04	17.06	-41.6	-45.5	12.2	1.40e-04	0	61	0	843055104	53	6110
2026-01-18 08:39:07.04	11.87	16.98	-41.5	-45.3	12.5	1.69e-04	0	61	0	845152256	53	5961
2026-01-18 08:39:08.05	11.70	16.91	-41.4	-45.1	12.6	1.25e-04	0	61	0	847249408	53	5836
2026-01-18 08:39:09.06	11.53	16.83	-41.3	-44.9	12.7	8.16e-05	0	61	0	849346560	53	5698
2026-01-18 08:39:10.07	11.36	16.75	-41.1	-44.7	13.0	2.89e-05	0	61	0	850395136	53	5546
2026-01-18 08:39:11.08	11.19	16.68	-41.0	-44.4	13.2	1.90e-05	0	61	0	852492288	53	5393
2026-01-18 08:39:12.09	11.02	16.60	-40.9	-44.4	13.3	7.60e-06	0	60	0	854589440	53	5344
2026-01-18 08:39:13.10	10.86	16.52	-41.0	-44.4	13.3	1.98e-05	0	60	0	856686592	52	5687
2026-01-18 08:39:14.11	10.69	16.45	-41.1	-44.7	13.0	3.28e-05	0	61	0	858783744	52	5895
2026-01-18 08:39:15.12	10.53	16.37	-41.3	-45.0	12.6	9.00e-05	0	61	0	860880896	53	5784
2026-01-18 08:39:16.12	10.36	16.29	-41.4	-45.3	12.3	1.37e-04	0	61	0	861929472	53	5971
2026-01-18 08:39:17.14	10.20	16.21	-41.5	-45.6	11.9	2.66e-04	0	61	0	864026624	53	6192
2026-01-18 08:39:18.14	10.04	16.14	-41.6	-45.7	11.8	4.55e-04	0	61	0	866123776	53	6261
2026-01-18 08:39:19.15	9.88	16.06	-41.6	-45.8	11.7	5.17e-04	0	61	0	868220928	53	6321
2026-01-18 08:39:20.16	9.72	15.98	-41.6	-45.9	11.5	6.00e-04	0	61	0	870318080	53	6395
2026-01-18 08:39:21.17	9.56	15.91	-41.5	-45.6	11.9	4.95e-04	0	61	0	871366656	53	6133
2026-01-18 08:39:22.18	9.40	15.83	-41.4	-45.5	12.0	2.92e-04	0	61	0	873463808	53	6107
2026-01-18 08:39:23.19	9.24	15.75	-41.3	-45.3	12.2	3.87e-04	0	61	0	875560960	53	5934
2026-01-18 08:39:24.20	9.08	15.68	-41.2	-45.1	12.3	1.95e-04	0	61	0	877658112	53	5828
2026-01-18 08:39:25.21	8.93	15.60	-41.3	-45.3	12.1	2.05e-04	0	61	0	879755264	53	5965
2026-01-18 08:39:26.22	8.77	15.52	-41.3	-45.3	12.0	2.29e-04	0	61	0	880803840	53	5968
2026-01-18 08:39:27.23	8.62	15.45	-41.1	-45.0	12.3	2.25e-04	0	61	0	882900992	53	5752
2026-01-18 08:39:28.24	8.46	15.37	-41.1	-45.0	12.3	1.29e-04	0	61	0	884998144	53	5743
2026-01-18 08:39:29.25	8.31	15.29	-41.3	-45.4	11.8	3.68e-04	0	61	0	887095296	53	6052
2026-01-18 08:39:30.26	8.16	15.22	-41.2	-45.3	11.9	4.23e-04	0	61	0	889192448	53	5953
2026-01-18 08:39:31.27	8.00	15.14	-41.3	-45.5	11.7	4.87e-04	0	61	0	890241024	53	6119
2026-01-18 08:39:32.28	7.85	15.06	-41.5	-45.9	11.2	1.04e-03	0	61	0	892338176	53	6411
2026-01-18 08:39:33.29	7.70	14.99	-41.7	-46.5	10.6	2.48e-03	0	61	0	894435328	53	6840
2026-01-18 08:39:34.30	7.55	14.91	-41.7	-46.5	10.6	3.81e-03	0	61	0	896532480	54	6450
2026-01-18 08:39:35.31	7.41	14.83	-41.8	-46.9	10.1	5.35e-03	0	61	0	898629632	54	6778
2026-01-18 08:39:36.32	7.26	14.76	-41.9	-47.0	9.9	1.01e-02	0	61	0	899678208	54	6868
2026-01-18 08:39:37.33	7.11	14.68	-41.7	-46.5	10.4	6.90e-03	0	61	0	901775360	54	6480
2026-01-18 08:39:38.33	6.97	14.60	-41.6	-46.3	10.6	3.68e-03	0	61	0	903872512	54	6347
2026-01-18 08:39:39.34	6.82	14.53	-41.5	-46.2	10.8	2.72e-03	0	61	0	905969664	54	6232
2026-01-18 08:39:40.35	6.68	14.45	-41.4	-45.9	11.0	2.10e-03	0	61	0	908066816	54	6007
2026-01-18 08:39:41.36	6.53	14.37	-41.1	-45.3	11.6	9.10e-04	0	61	0	909115392	54	5600
2026-01-18 08:39:42.37	6.39	14.30	-41.0	-45.1	11.7	6.41e-04	0	61	0	911212544	54	5515
2026-01-18 08:39:43.38	6.25	14.22	-41.2	-45.5	11.3	8.09e-04	0	61	0	913309696	54	5787
2026-01-18 08:39:44.39	6.11	14.15	-41.1	-45.5	11.3	9.52e-04	0	61	0	915406848	54	5743
2026-01-18 08:39:45.40	5.97	14.07	-41.0	-45.5	11.1	1.39e-03	0	61	0	917504000	54	5751
2026-01-18 08:39:46.41	5.83	13.99	-40.9	-45.3	11.2	1.52e-03	0	61	0	918552576	53	5941
2026-01-18 08:39:47.42	5.69	13.92	-40.9	-45.6	10.8	1.50e-03	0	61	0	920649728	53	6144
2026-01-18 08:39:48.43	5.55	13.84	-41.0	-45.9	10.4	3.61e-03	0	61	0	922746880	53	6410
2026-01-18 08:39:49.44	5.41	13.77	-41.2	-46.5	9.6	7.32e-03	0	61	0	924844032	53	6862
2026-01-18 08:39:50.45	5.27	13.69	-40.9	-45.7	10.5	8.15e-03	0	61	0	926941184	53	6250
2026-01-18 08:39:51.46	5.14	13.62	-40.7	-45.4	10.8	2.69e-03	0	61	0	929038336	53	6002
2026-01-18 08:39:52.47	5.00	13.54	-40.6	-45.4	10.7	2.92e-03	0	61	0	930086912	53	6005
2026-01-18 08:39:53.48	4.87	13.46	-40.6	-45.3	10.6	3.26e-03	0	61	0	932184064	53	5978
2026-01-18 08:39:54.49	4.73	13.39	-40.8	-45.9	10.0	5.92e-03	0	61	0	934281216	53	6408
2026-01-18 08:39:55.50	4.60	13.31	-41.0	-46.6	9.2	1.19e-02	0	60	0	936378368	53	6913
2026-01-18 08:39:56.51	4.46	13.24	-41.1	-47.3	8.4	3.01e-02	0	60	0	938475520	53	7473
2026-01-18 08:39:57.52	4.33	13.16	-41.1	-47.7	8.0	6.40e-02	0	61	0	939524096	53	7820
2026-01-18 08:39:58.53	4.20	13.09	-41.3	-48.9	6.6	1.56e-01	0	61	0	941621248	53	9007
2026-01-18 08:39:59.53	4.07	13.01	-41.4	-49.8	5.8	2.92e-01	0	61	0	943718400	53	9962
2026-01-18 08:40:00.55	3.94	12.94	-41.5	-50.8	5.1	5.54e-01	0	61	0	945815552	53	11198
2026-01-18 08:40:01.56	3.81	12.86	-41.5	-52.2	4.4	9.23e-01	0	61	0	947912704	53	13185
2026-01-18 08:40:02.57	3.68	12.79	-41.5	-53.2	4.1	1.39e+00	0	61	0	947912704	53	14780
2026-01-18 08:40:03.58	3.55	12.71	-41.4	-54.1	3.8	1.48e+00	0	61	104	947912704	53	16397
2026-01-18 08:40:04.58	3.43	12.64	-41.3	-54.7	3.8	1.49e+00	0	61	104	947912704	53	17653
2026-01-18 08:40:05.59	3.30	12.57	-41.2	-55.0	3.8	1.49e+00	0	61	104	947912704	53	18198
2026-01-18 08:40:06.60	3.17	12.49	-41.1	-55.0	3.8	1.49e+00	0	61	104	947912704	53	18185
2026-01-18 08:40:07.61	3.05	12.42	-41.1	-55.4	3.8	1.49e+00	0	61	104	947912704	53	19134
2026-01-18 08:40:08.62	2.92	12.34	-41.0	-55.6	3.8	1.49e+00	0	61	104	947912704	53	19501
2026-01-18 08:40:09.63	2.80	12.27	-41.2	-55.7	3.8	1.49e+00	0	61	104	947912704	53	19643
2026-01-18 08:40:10.64	2.68	12.19	-40.5	-55.5	3.8	1.49e+00	0	61	104	947912704	53	19255
2026-01-18 08:40:11.65	2.55	12.12	-40.4	-55.3	3.8	1.49e+00	0	61	104	947912704	52	19863
2026-01-18 08:40:12.66	2.43	12.05	-40.6	-55.5	3.8	1.49e+00	0	61	104	947912704	52	20516
2026-01-18 08:40:13.67	2.31	11.97	-40.5	-55.3	3.8	1.49e+00	0	61	104	947912704	52	19954
2026-01-18 08:40:14.68	2.19	11.90	-40.5	-55.5	3.8	1.49e+00	0	61	104	947912704	52	20341
2026-01-18 08:40:15.69	2.07	11.83	-40.9	-55.6	3.8	1.49e+00	0	61	104	947912704	52	20653
2026-01-18 08:40:16.70	1.95	11.75	-40.4	-55.1	3.8	1.49e+00	0	61	104	947912704	52	19526
2026-01-18 08:40:17.71	1.83	11.68	-40.2	-54.9	3.8	1.49e+00	0	61	104	947912704	52	19018
2026-01-18 08:40:18.72	1.71	11.61	-40.1	-54.8	3.8	1.49e+00	0	61	104	947912704	52	18926
2026-01-18 08:40:19.73	1.59	11.53	-40.0	-54.8	3.8	1.49e+00	0	61	104	947912704	52	18819
2026-01-18 08:40:20.74	1.47	11.46	-40.1	-54.8	3.8	1.49e+00	0	61	104	947912704	51	19963
2026-01-18 08:40:21.74	1.36	11.39	-40.2	-54.9	3.8	1.49e+00	0	61	104	947912704	51	20227
2026-01-18 08:40:22.75	1.24	11.31	-40.5	-55.2	3.8	1.49e+00	0	61	104	947912704	51	20910
2026-01-18 08:40:23.76	1.13	11.24	-40.7	-55.5	3.8	1.49e+00	0	61	104	947912704	51	21576
2026-01-18 08:40:24.77	1.01	11.17	-40.1	-54.9	3.8	1.49e+00	0	61	104	947912704	51	20167
2026-01-18 08:40:25.78	0.90	11.10	-40.0	-54.8	3.8	1.49e+00	0	61	104	947912704	51	19910
2026-01-18 08:40:26.79	0.78	11.02	-39.9	-54.7	3.8	1.49e+00	0	61	104	947912704	51	19829
2026-01-18 08:40:27.80	0.67	10.95	-39.9	-54.7	3.8	1.49e+00	0	61	104	947912704	51	19757
2026-01-18 08:40:28.81	0.56	10.88	-39.9	-54.7	3.8	1.49e+00	0	61	104	947912704	51	19799
2026-01-18 08:40:29.82	0.45	10.81	-39.9	-54.8	3.8	1.49e+00	0	61	104	947912704	51	19996
2026-01-18 08:40:30.83	0.33	10.74	-40.2	-55.0	3.8	1.49e+00	0	61	104	947912704	51	20332
2026-01-18 08:40:31.84	0.22	10.66	-40.4	-55.3	3.8	1.49e+00	0	61	104	947912704	51	21038
2026-01-18 08:40:32.85	0.11	10.59	-39.9	-54.8	3.8	1.49e+00	0	61	104	947912704	51	19932
2026-01-18 08:40:33.87	0.00	10.52	-40.3	-55.1	3.8	1.49e+00	0	61	104	947912704	51	20694
2026-01-18 08:40:34.88	359.89	10.45	-39.8	-54.8	3.8	1.49e+00	0	61	104	947912704	51	19870
2026-01-18 08:40:35.89	359.78	10.38	-39.4	-54.7	3.8	1.49e+00	0	61	104	947912704	50	21008
2026-01-18 08:40:36.90	359.67	10.30	-40.1	-54.9	3.8	1.49e+00	0	61	104	947912704	50	21279
2026-01-18 08:40:37.91	359.57	10.23	-39.4	-54.7	3.8	1.49e+00	0	61	104	947912704	50	20853
2026-01-18 08:40:38.92	359.46	10.16	-40.0	-54.8	3.8	1.49e+00	0	61	104	947912704	50	21159
2026-01-18 08:40:39.93	359.35	10.09	-39.9	-55.0	3.8	1.49e+00	0	61	104	947912704	50	21581
2026-01-18 08:40:40.93	359.25	10.02	-39.5	-54.7	3.8	1.49e+00	0	61	104	947912704	50	20956
2026-01-18 08:40:41.94	359.14	9.95	-39.8	-54.9	3.8	1.49e+00	0	61	104	947912704	50	21452
2026-01-18 08:40:42.95	359.04	9.88	-39.5	-54.7	3.8	1.49e+00	0	61	104	947912704	50	21004
2026-01-18 08:40:43.97	358.93	9.81	-39.7	-54.6	3.8	1.49e+00	0	61	104	947912704	50	20766
2026-01-18 08:40:44.98	358.83	9.74	-39.5	-54.7	3.8	1.49e+00	0	61	104	947912704	50	20985
2026-01-18 08:40:45.98	358.73	9.67	-39.6	-54.6	3.8	1.49e+00	0	61	104	947912704	50	20683
2026-01-18 08:40:46.99	358.62	9.60	-39.4	-54.7	3.8	1.49e+00	0	61	104	947912704	50	20858
2026-01-18 08:40:48.00	358.52	9.53	-39.8	-54.8	3.8	1.49e+00	0	61	104	947912704	50	21226
2026-01-18 08:40:49.01	358.42	9.46	-39.5	-54.6	3.8	1.49e+00	0	61	104	947912704	50	20762
2026-01-18 08:40:50.02	358.32	9.39	-39.8	-54.8	3.8	1.49e+00	0	61	104	947912704	50	21196
2026-01-18 08:40:51.03	358.22	9.32	-39.6	-54.6	3.8	1.49e+00	0	61	104	947912704	50	20747
2026-01-18 08:40:52.04	358.12	9.25	-39.4	-54.6	3.8	1.49e+00	0	61	104	947912704	50	20755
2026-01-18 08:40:53.05	358.02	9.18	-39.6	-54.6	3.8	1.49e+00	0	61	104	947912704	50	20726
2026-01-18 08:40:54.05	357.92	9.11	-39.4	-54.6	3.8	1.49e+00	0	61	104	947912704	50	20663
2026-01-18 08:40:55.06	357.82	9.04	-39.6	-54.6	3.8	1.49e+00	0	61	104	947912704	50	20707
2026-01-18 08:40:56.07	357.72	8.97	-39.5	-54.7	3.8	1.49e+00	0	61	104	947912704	50	20918
2026-01-18 08:40:57.08	357.62	8.90	-39.5	-54.6	3.8	1.49e+00	0	61	104	947912704	50	20603
2026-01-18 08:40:58.09	357.53	8.83	-39.4	-54.7	3.8	1.49e+00	0	61	104	947912704	50	20876
2026-01-18 08:40:59.10	357.43	8.76	-39.4	-54.6	3.8	1.49e+00	0	61	104	947912704	50	20658
2026-01-18 08:41:00.11	357.33	8.69	-39.4	-54.5	3.8	1.49e+00	0	61	104	947912704	50	20525
2026-01-18 08:41:01.12	357.24	8.62	-39.4	-54.6	3.8	1.49e+00	0	61	104	947912704	50	20699
2026-01-18 08:41:02.13	357.14	8.56	-39.3	-54.5	3.8	1.49e+00	0	61	104	947912704	50	20470
2026-01-18 08:41:03.14	357.05	8.49	-39.4	-54.6	3.8	1.49e+00	0	61	104	947912704	50	20690
2026-01-18 08:41:04.15	356.95	8.42	-39.4	-54.6	3.8	1.49e+00	0	61	104	947912704	50	20744
2026-01-18 08:41:05.16	356.86	8.35	-39.5	-54.6	3.8	1.49e+00	0	61	104	947912704	50	20556
2026-01-18 08:41:06.17	356.76	8.28	-39.5	-54.7	3.8	1.49e+00	0	61	104	947912704	50	20795
2026-01-18 08:41:07.18	356.67	8.21	-39.6	-54.5	3.8	1.49e+00	0	61	104	947912704	50	20499
2026-01-18 08:41:08.19	356.58	8.15	-39.4	-54.6	3.8	1.49e+00	0	61	104	947912704	50	20570
2026-01-18 08:41:09.20	356.48	8.08	-39.4	-54.6	3.8	1.49e+00	0	61	104	947912704	50	20657
2026-01-18 08:41:10.21	356.39	8.01	-39.5	-54.6	3.8	1.49e+00	0	61	104	947912704	50	20550
2026-01-18 08:41:11.22	356.30	7.94	-40.1	-55.1	3.8	1.49e+00	0	61	104	947912704	50	21778
2026-01-18 08:41:12.23	356.21	7.87	-43.8	-58.3	3.8	1.49e+00	0	61	104	947912704	58	20051
2026-01-18 08:41:13.24	356.12	7.81	-44.7	-59.4	3.8	1.49e+00	0	61	104	947912704	60	20138
2026-01-18 08:41:14.25	356.03	7.74	-45.0	-59.7	3.8	1.49e+00	0	61	104	947912704	60	20813
2026-01-18 08:41:15.26	355.94	7.67	-45.1	-59.8	3.8	1.49e+00	0	61	104	947912704	60	21170
2026-01-18 08:41:16.27	355.85	7.61	-45.3	-60.0	3.8	1.49e+00	0	61	104	947912704	61	20376
2026-01-18 08:41:17.29	355.76	7.54	-45.4	-60.0	3.8	1.49e+00	0	61	104	947912704	61	20492
2026-01-18 08:41:18.30	355.67	7.47	-45.4	-60.0	3.8	1.49e+00	0	61	104	947912704	61	20477
2026-01-18 08:41:19.31	355.58	7.40	-45.4	-60.0	3.8	1.49e+00	0	61	104	947912704	61	20466
2026-01-18 08:41:20.32	355.50	7.34	-45.4	-60.0	3.8	1.49e+00	0	61	104	947912704	61	20340
2026-01-18 08:41:21.33	355.41	7.27	-45.2	-60.0	3.8	1.49e+00	0	61	104	947912704	61	20314
2026-01-18 08:41:22.34	355.32	7.20	-44.7	-59.8	3.8	1.49e+00	0	61	104	947912704	61	20069
2026-01-18 08:41:23.35	355.24	7.14	-45.3	-59.9	3.8	1.49e+00	0	61	104	947912704	61	20095
2026-01-18 08:41:24.36	355.15	7.07	-45.6	-60.2	3.8	1.49e+00	0	61	104	947912704	61	20972
2026-01-18 08:41:25.37	355.07	7.01	-45.3	-59.8	3.8	1.49e+00	0	61	104	947912704	61	19942
2026-01-18 08:41:26.38	354.98	6.94	-44.6	-59.8	3.8	1.49e+00	0	61	104	947912704	61	19894
2026-01-18 08:41:27.39	354.90	6.87	-45.2	-59.7	3.8	1.49e+00	0	61	104	947912704	60	20979
2026-01-18 08:41:28.41	354.81	6.81	-45.2	-59.7	3.8	1.49e+00	0	61	104	947912704	60	20913
2026-01-18 08:41:29.42	354.73	6.74	-45.2	-59.7	3.8	1.49e+00	0	61	104	947912704	60	20918
2026-01-18 08:41:30.43	354.64	6.68	-45.2	-59.7	3.8	1.49e+00	0	61	104	947912704	60	20925
2026-01-18 08:41:31.44	354.56	6.61	-45.2	-59.7	3.8	1.49e+00	0	61	104	947912704	60	20924
2026-01-18 08:41:32.45	354.48	6.54	-45.2	-59.7	3.8	1.49e+00	0	61	104	947912704	60	20846
2026-01-18 08:41:33.46	354.39	6.48	-45.2	-59.7	3.8	1.49e+00	0	61	104	947912704	60	20887
2026-01-18 08:41:34.47	354.31	6.41	-45.2	-59.7	3.8	1.49e+00	0	61	104	947912704	60	20884
2026-01-18 08:41:35.48	354.23	6.35	-45.2	-59.7	3.8	1.49e+00	0	61	104	947912704	60	20848
2026-01-18 08:41:36.50	354.15	6.28	-45.1	-59.7	3.8	1.49e+00	0	61	104	947912704	60	20904
2026-01-18 08:41:37.51	354.07	6.22	-45.2	-59.7	3.8	1.49e+00	0	61	104	947912704	60	20944
2026-01-18 08:41:38.52	353.99	6.15	-45.2	-59.7	3.8	1.49e+00	0	61	104	947912704	60	20836
2026-01-18 08:41:39.53	353.91	6.09	-45.1	-59.7	3.8	1.49e+00	0	61	104	947912704	60	20779
