passes_logs/2026/01/18/R2.0S_Moscow/R2.0S_Moscow__20260118_011652_FENGYUN_3D_rec.log

#Pass ID: 20260118_011652_FENGYUN 3D
#Satellite: FENGYUN 3D
#Configuration: FENGYUN 3D
#almurnet v.1.7.20251203
#Start time: 2026-01-18 01:16:51

#Version: 2.2.20231116
#Station: R2.0S_Moscow
#Location: 37.707566 lon 55.798166 lat
#TLE: 1 43010U 17072A   26017.25882587  .00000461  00000+0  23963-3 0  9992
#TLE: 2 43010  98.9934 349.1096 0002357 104.0487 256.0951 14.19697152423579

#Time	Az	El	Level	Level2	SNR	BER	BlckErr	Temp	State	Recorded	gain1	gain2
2026-01-18 01:16:51.47	18.88	1.96	-42.0	-53.9	3.8	8.47e-01	0	57	0	0	56	13431
2026-01-18 01:16:52.48	18.90	2.02	-41.8	-53.7	3.8	8.45e-01	0	57	104	0	55	13930
2026-01-18 01:16:53.50	18.93	2.09	-41.9	-53.7	3.8	8.46e-01	0	57	104	0	55	13942
2026-01-18 01:16:54.51	18.95	2.15	-41.8	-53.7	3.8	8.47e-01	0	57	104	0	55	13940
2026-01-18 01:16:55.52	18.98	2.22	-41.8	-53.7	3.8	8.46e-01	0	57	104	0	55	13913
2026-01-18 01:16:56.53	19.00	2.28	-41.8	-53.7	3.8	8.46e-01	0	57	104	0	55	13897
2026-01-18 01:16:57.54	19.03	2.34	-41.8	-53.7	3.8	8.47e-01	0	57	104	0	55	13900
2026-01-18 01:16:58.55	19.06	2.41	-41.8	-53.7	3.8	8.46e-01	0	57	104	0	55	13904
2026-01-18 01:16:59.56	19.08	2.47	-41.8	-53.6	3.8	8.46e-01	0	57	104	0	55	13881
2026-01-18 01:17:00.55	19.11	2.53	-41.8	-53.7	3.8	8.47e-01	0	58	104	0	55	13906
2026-01-18 01:17:01.56	19.13	2.60	-41.8	-53.6	3.8	8.46e-01	0	57	104	0	55	13850
2026-01-18 01:17:02.57	19.16	2.66	-41.8	-53.7	3.8	8.47e-01	0	57	104	0	55	13919
2026-01-18 01:17:03.58	19.19	2.73	-41.8	-53.6	3.8	8.46e-01	0	58	104	0	55	13868
2026-01-18 01:17:04.59	19.21	2.79	-41.8	-53.7	3.8	8.46e-01	0	57	104	0	55	13924
2026-01-18 01:17:05.60	19.24	2.86	-41.8	-53.6	3.8	8.46e-01	0	57	104	0	55	13879
2026-01-18 01:17:06.61	19.27	2.92	-41.8	-53.7	3.8	8.46e-01	0	57	104	0	55	13889
2026-01-18 01:17:07.62	19.29	2.99	-41.8	-53.7	3.8	8.46e-01	0	58	104	0	55	13916
2026-01-18 01:17:08.64	19.32	3.06	-41.8	-53.7	3.8	8.45e-01	0	58	104	0	55	13913
2026-01-18 01:17:09.65	19.35	3.12	-41.8	-53.7	3.8	8.46e-01	0	57	104	0	55	13941
2026-01-18 01:17:10.66	19.38	3.19	-41.8	-53.7	3.8	8.46e-01	0	58	104	0	55	13904
2026-01-18 01:17:11.67	19.40	3.25	-41.8	-53.7	3.8	8.47e-01	0	58	104	0	55	13892
2026-01-18 01:17:12.68	19.43	3.32	-41.8	-53.7	3.8	8.47e-01	0	58	104	0	55	13910
2026-01-18 01:17:13.69	19.46	3.39	-41.8	-53.7	3.8	8.47e-01	0	58	104	0	55	13948
2026-01-18 01:17:14.70	19.49	3.45	-41.8	-53.6	3.8	8.46e-01	0	58	104	0	55	13832
2026-01-18 01:17:15.71	19.51	3.52	-41.8	-53.7	3.8	8.45e-01	0	58	104	0	55	13892
2026-01-18 01:17:16.72	19.54	3.59	-41.8	-53.6	3.8	8.47e-01	0	58	104	0	55	13879
2026-01-18 01:17:17.73	19.57	3.65	-41.8	-53.6	3.8	8.46e-01	0	58	104	0	55	13884
2026-01-18 01:17:18.74	19.60	3.72	-41.8	-53.6	3.8	8.47e-01	0	58	104	0	55	13868
2026-01-18 01:17:19.75	19.63	3.79	-41.8	-53.7	3.8	8.45e-01	0	58	104	0	55	13911
2026-01-18 01:17:20.76	19.65	3.86	-41.8	-53.6	3.8	8.44e-01	0	58	104	0	55	13873
2026-01-18 01:17:21.77	19.68	3.92	-41.8	-53.6	3.8	8.46e-01	0	58	104	0	55	13883
2026-01-18 01:17:22.78	19.71	3.99	-41.8	-53.7	3.8	8.46e-01	0	58	104	0	55	13892
2026-01-18 01:17:23.79	19.74	4.06	-41.8	-53.6	3.8	8.45e-01	0	58	104	0	55	13846
2026-01-18 01:17:24.80	19.77	4.13	-41.8	-53.6	3.8	8.45e-01	0	58	104	0	55	13876
2026-01-18 01:17:25.81	19.80	4.19	-41.8	-53.6	3.8	8.47e-01	0	58	104	0	55	13861
2026-01-18 01:17:26.82	19.83	4.26	-41.8	-53.7	3.8	8.45e-01	0	58	104	0	55	13909
2026-01-18 01:17:27.84	19.85	4.33	-41.8	-53.6	3.8	8.46e-01	0	58	104	0	55	13882
2026-01-18 01:17:28.85	19.88	4.40	-41.8	-53.7	3.8	8.46e-01	0	58	104	0	55	13889
2026-01-18 01:17:29.86	19.91	4.47	-41.8	-53.6	3.8	8.46e-01	0	58	104	0	55	13857
2026-01-18 01:17:30.87	19.94	4.54	-41.8	-53.7	3.8	8.46e-01	0	58	104	0	55	13897
2026-01-18 01:17:31.88	19.97	4.61	-41.8	-53.6	3.8	8.47e-01	0	58	104	0	55	13863
2026-01-18 01:17:32.89	20.00	4.68	-41.8	-53.6	3.8	8.46e-01	0	58	104	0	55	13852
2026-01-18 01:17:33.90	20.03	4.75	-41.8	-53.7	3.8	8.46e-01	0	59	104	0	55	13892
2026-01-18 01:17:34.91	20.06	4.82	-41.8	-53.6	3.8	8.47e-01	0	58	104	0	55	13854
2026-01-18 01:17:35.92	20.09	4.89	-41.8	-53.7	3.8	8.46e-01	0	58	104	0	55	13902
2026-01-18 01:17:36.93	20.12	4.96	-41.8	-53.6	3.8	8.47e-01	0	58	104	0	55	13861
2026-01-18 01:17:37.94	20.15	5.03	-41.8	-53.6	3.8	8.46e-01	0	58	104	0	55	13868
2026-01-18 01:17:38.96	20.18	5.10	-41.8	-53.7	3.8	8.46e-01	0	58	104	0	55	13894
2026-01-18 01:17:39.97	20.21	5.17	-41.8	-53.7	3.8	8.46e-01	0	58	104	0	55	13913
2026-01-18 01:17:40.98	20.24	5.24	-41.8	-53.7	3.8	8.47e-01	0	59	104	0	55	13910
2026-01-18 01:17:41.99	20.27	5.31	-41.8	-53.6	3.8	8.46e-01	0	59	104	0	55	13817
2026-01-18 01:17:43.00	20.30	5.38	-41.8	-53.6	3.8	8.47e-01	0	59	104	0	55	13853
2026-01-18 01:17:44.01	20.34	5.46	-41.8	-53.6	3.8	8.46e-01	0	59	104	0	55	13865
2026-01-18 01:17:45.02	20.37	5.53	-41.8	-53.6	3.8	8.47e-01	0	58	104	0	55	13869
2026-01-18 01:17:46.03	20.40	5.60	-41.8	-53.7	3.8	8.46e-01	0	59	104	0	55	13903
2026-01-18 01:17:47.04	20.43	5.67	-41.8	-53.7	3.8	8.47e-01	0	59	104	0	55	13927
2026-01-18 01:17:48.05	20.46	5.74	-41.8	-53.6	3.8	8.46e-01	0	59	104	0	55	13846
2026-01-18 01:17:49.06	20.49	5.82	-41.8	-53.7	3.8	8.47e-01	0	59	104	0	55	13886
2026-01-18 01:17:50.07	20.52	5.89	-41.8	-53.6	3.8	8.46e-01	0	59	104	0	55	13806
2026-01-18 01:17:51.08	20.56	5.96	-41.8	-53.6	3.8	8.46e-01	0	59	104	0	55	13821
2026-01-18 01:17:52.09	20.59	6.04	-41.8	-53.6	3.8	8.46e-01	0	59	104	0	55	13787
2026-01-18 01:17:53.11	20.62	6.11	-41.8	-53.6	3.8	8.46e-01	0	59	104	0	55	13879
2026-01-18 01:17:54.12	20.65	6.18	-41.8	-53.6	3.8	8.46e-01	0	59	104	0	55	13851
2026-01-18 01:17:55.13	20.69	6.26	-41.8	-53.6	3.8	8.47e-01	0	59	104	0	55	13870
2026-01-18 01:17:56.14	20.72	6.33	-41.8	-53.6	3.8	8.46e-01	0	59	104	0	55	13841
2026-01-18 01:17:57.15	20.75	6.40	-41.8	-53.6	3.8	8.47e-01	0	59	104	0	55	13849
2026-01-18 01:17:58.16	20.78	6.48	-41.8	-53.6	3.8	8.46e-01	0	59	104	0	55	13824
2026-01-18 01:17:59.17	20.82	6.55	-41.8	-53.6	3.8	8.46e-01	0	59	104	0	55	13777
2026-01-18 01:18:00.18	20.85	6.63	-41.8	-53.6	3.8	8.46e-01	0	59	104	0	55	13826
2026-01-18 01:18:01.19	20.88	6.70	-41.8	-53.6	3.8	8.46e-01	0	59	104	0	55	13849
2026-01-18 01:18:02.20	20.92	6.78	-41.8	-53.6	3.8	8.45e-01	0	59	104	0	55	13760
2026-01-18 01:18:03.21	20.95	6.85	-41.8	-53.5	3.8	8.46e-01	0	59	104	0	55	13675
2026-01-18 01:18:04.22	20.98	6.93	-41.8	-53.4	3.8	8.46e-01	0	59	104	0	55	13558
2026-01-18 01:18:05.23	21.02	7.00	-41.8	-53.3	3.8	8.46e-01	0	59	104	0	55	13353
2026-01-18 01:18:06.25	21.05	7.08	-41.8	-53.2	3.8	8.46e-01	0	59	104	0	55	13177
2026-01-18 01:18:07.26	21.09	7.16	-41.7	-52.9	3.8	8.46e-01	0	59	104	0	55	12785
2026-01-18 01:18:08.27	21.12	7.23	-41.7	-52.6	3.8	8.46e-01	0	59	104	0	55	12369
2026-01-18 01:18:09.28	21.16	7.31	-41.7	-52.3	3.8	8.45e-01	0	59	104	0	55	11951
2026-01-18 01:18:10.29	21.19	7.39	-41.6	-51.9	3.8	8.46e-01	0	59	104	0	55	11376
2026-01-18 01:18:11.30	21.23	7.47	-41.5	-51.2	3.8	8.45e-01	0	60	104	0	55	10474
2026-01-18 01:18:12.31	21.26	7.54	-41.4	-50.0	4.2	8.38e-01	0	59	0	0	54	9639
2026-01-18 01:18:13.32	21.30	7.62	-41.2	-48.9	4.6	8.28e-01	0	59	0	0	54	8560
2026-01-18 01:18:14.33	21.33	7.70	-40.9	-47.9	5.1	7.80e-01	0	59	0	0	53	8038
2026-01-18 01:18:15.35	21.37	7.78	-40.5	-46.2	6.2	4.42e-01	0	59	0	2097152	53	6642
2026-01-18 01:18:16.36	21.40	7.86	-39.9	-44.5	7.9	1.07e-01	0	59	0	7340032	51	6105
2026-01-18 01:18:17.37	21.44	7.93	-39.5	-43.4	8.9	4.00e-02	0	59	0	13631488	50	5719
2026-01-18 01:18:18.38	21.47	8.01	-38.9	-42.3	10.1	9.77e-03	0	59	0	18874368	49	5324
2026-01-18 01:18:19.39	21.51	8.09	-38.5	-41.7	10.9	5.63e-03	0	59	0	25165824	49	4941
2026-01-18 01:18:20.40	21.55	8.17	-39.1	-42.6	10.2	9.63e-04	0	59	0	30408704	48	5812
2026-01-18 01:18:21.41	21.58	8.25	-39.9	-44.8	7.1	8.41e-01	0	60	104	32505856	52	5959
2026-01-18 01:18:22.42	21.62	8.33	-40.1	-43.6	9.8	1.40e-02	0	59	0	36700160	50	5843
2026-01-18 01:18:23.43	21.66	8.41	-39.4	-42.4	11.0	3.55e-02	0	59	0	42991616	50	5075
2026-01-18 01:18:24.44	21.69	8.49	-41.0	-47.8	5.2	8.27e-01	0	59	0	45088768	52	8405
2026-01-18 01:18:25.45	21.73	8.57	-39.4	-42.5	10.9	3.53e-03	0	59	0	50331648	50	5120
2026-01-18 01:18:26.46	21.77	8.65	-39.1	-42.0	11.3	2.07e-03	0	59	0	55574528	50	4835
2026-01-18 01:18:27.47	21.81	8.73	-39.1	-41.9	11.4	1.40e-03	0	60	0	61865984	50	4811
2026-01-18 01:18:28.48	21.84	8.81	-39.1	-42.0	11.4	9.99e-04	0	59	0	67108864	50	4819
2026-01-18 01:18:29.49	21.88	8.90	-39.2	-42.1	11.3	1.21e-03	0	59	0	73400320	50	4924
2026-01-18 01:18:30.50	21.92	8.98	-39.1	-41.9	11.6	1.18e-03	0	59	0	78643200	50	4767
2026-01-18 01:18:31.51	21.96	9.06	-39.1	-41.9	11.6	1.02e-03	0	59	0	83886080	50	4813
2026-01-18 01:18:32.52	22.00	9.14	-39.2	-42.1	11.5	1.25e-03	0	60	0	90177536	50	4893
2026-01-18 01:18:33.53	22.04	9.22	-39.2	-42.0	11.6	1.15e-03	0	60	0	95420416	50	4851
2026-01-18 01:18:34.54	22.07	9.31	-39.1	-41.9	11.7	7.39e-04	0	59	0	101711872	50	4775
2026-01-18 01:18:35.55	22.11	9.39	-39.3	-42.1	11.5	1.16e-03	0	60	0	106954752	50	4926
2026-01-18 01:18:36.56	22.15	9.47	-38.9	-41.5	12.3	3.52e-04	0	60	0	112197632	49	4832
2026-01-18 01:18:37.57	22.19	9.56	-39.1	-41.8	12.0	4.23e-04	0	60	0	118489088	49	5021
2026-01-18 01:18:38.58	22.23	9.64	-39.0	-41.5	12.4	2.73e-04	0	60	0	123731968	49	4855
2026-01-18 01:18:39.59	22.27	9.72	-39.0	-41.5	12.6	1.69e-04	0	60	0	130023424	49	4834
2026-01-18 01:18:40.60	22.31	9.81	-38.9	-41.5	12.6	1.34e-04	0	60	0	135266304	49	4822
2026-01-18 01:18:41.61	22.35	9.89	-39.0	-41.6	12.5	1.81e-04	0	60	0	141557760	49	4872
2026-01-18 01:18:42.62	22.39	9.98	-38.8	-41.2	12.9	9.38e-05	0	60	0	146800640	49	4705
2026-01-18 01:18:43.63	22.43	10.06	-39.2	-41.7	12.4	1.36e-04	0	60	0	153092096	49	4964
2026-01-18 01:18:44.64	22.48	10.15	-38.9	-41.3	12.8	9.95e-05	0	60	0	158334976	49	4745
2026-01-18 01:18:45.65	22.52	10.24	-39.1	-41.6	12.6	1.15e-04	0	60	0	163577856	49	4876
2026-01-18 01:18:46.66	22.56	10.32	-39.1	-41.5	12.6	1.25e-04	0	60	0	169869312	49	4864
2026-01-18 01:18:47.67	22.60	10.41	-38.9	-41.3	13.0	8.46e-05	0	60	0	175112192	49	4736
2026-01-18 01:18:48.68	22.64	10.49	-38.9	-41.3	12.9	9.38e-05	0	60	0	181403648	49	4756
2026-01-18 01:18:49.69	22.68	10.58	-39.1	-41.5	12.8	6.40e-05	0	59	0	186646528	49	4839
2026-01-18 01:18:50.70	22.73	10.67	-39.1	-41.5	12.8	1.15e-04	0	60	0	191889408	49	4841
2026-01-18 01:18:51.71	22.77	10.76	-39.0	-41.4	13.0	6.06e-05	0	60	0	198180864	49	4791
2026-01-18 01:18:52.72	22.81	10.84	-39.0	-41.3	13.1	3.43e-05	0	60	0	203423744	49	4735
2026-01-18 01:18:53.73	22.85	10.93	-39.1	-41.5	12.9	7.32e-05	0	60	0	209715200	49	4815
2026-01-18 01:18:54.74	22.90	11.02	-38.9	-41.1	13.3	4.23e-05	0	60	0	214958080	49	4646
2026-01-18 01:18:55.75	22.94	11.11	-39.1	-41.4	13.0	4.69e-05	0	60	0	220200960	49	4779
2026-01-18 01:18:56.76	22.99	11.20	-39.0	-41.3	13.2	4.46e-05	0	60	0	226492416	49	4724
2026-01-18 01:18:57.77	23.03	11.29	-39.0	-41.3	13.2	3.54e-05	0	60	0	231735296	49	4737
2026-01-18 01:18:58.78	23.07	11.38	-39.1	-41.4	13.2	4.00e-05	0	60	0	238026752	49	4777
2026-01-18 01:18:59.79	23.12	11.47	-39.2	-41.5	13.0	3.43e-05	0	60	0	243269632	49	4860
2026-01-18 01:19:00.79	23.16	11.56	-39.2	-41.5	13.1	4.00e-05	0	60	0	249561088	49	4868
2026-01-18 01:19:01.80	23.21	11.65	-39.2	-41.5	13.1	4.80e-05	0	60	0	254803968	49	4863
2026-01-18 01:19:02.81	23.25	11.74	-39.2	-41.6	12.9	6.06e-05	0	60	0	260046848	49	4901
2026-01-18 01:19:03.82	23.30	11.83	-39.0	-41.3	13.3	2.51e-05	0	60	0	266338304	49	4736
2026-01-18 01:19:04.84	23.34	11.92	-38.9	-41.1	13.4	3.08e-05	0	60	0	271581184	49	4636
2026-01-18 01:19:05.84	23.39	12.02	-38.9	-41.2	13.4	1.25e-05	0	60	0	277872640	49	4682
2026-01-18 01:19:06.85	23.44	12.11	-39.0	-41.2	13.4	3.20e-05	0	60	0	283115520	49	4681
2026-01-18 01:19:07.86	23.48	12.20	-39.0	-41.2	13.4	3.08e-05	0	60	0	288358400	49	4702
2026-01-18 01:19:08.87	23.53	12.29	-39.0	-41.3	13.3	4.11e-05	0	60	0	294649856	49	4737
2026-01-18 01:19:09.88	23.58	12.39	-39.1	-41.4	13.2	3.43e-05	0	60	0	299892736	49	4801
2026-01-18 01:19:10.89	23.62	12.48	-39.1	-41.4	13.3	3.43e-05	0	60	0	306184192	49	4772
2026-01-18 01:19:11.90	23.67	12.58	-39.0	-41.3	13.3	2.97e-05	0	60	0	311427072	49	4749
2026-01-18 01:19:12.91	23.72	12.67	-39.0	-41.2	13.5	2.40e-05	0	60	0	316669952	49	4670
2026-01-18 01:19:13.92	23.77	12.76	-38.9	-41.1	13.5	1.83e-05	0	60	0	322961408	49	4643
2026-01-18 01:19:14.93	23.81	12.86	-38.9	-41.1	13.7	1.48e-05	0	60	0	328204288	49	4613
2026-01-18 01:19:15.94	23.86	12.96	-38.9	-41.0	13.8	1.02e-05	0	60	0	334495744	49	4585
2026-01-18 01:19:16.95	23.91	13.05	-39.0	-41.2	13.6	1.71e-05	0	60	0	339738624	49	4681
2026-01-18 01:19:17.96	23.96	13.15	-38.8	-40.9	13.9	6.80e-06	0	60	0	346030080	49	4512
2026-01-18 01:19:18.98	24.01	13.25	-38.8	-40.9	13.9	5.70e-06	0	60	0	351272960	49	4502
2026-01-18 01:19:19.98	24.06	13.34	-38.8	-41.0	13.9	9.10e-06	0	60	0	357564416	49	4564
2026-01-18 01:19:20.99	24.11	13.44	-38.7	-40.8	14.0	4.50e-06	0	60	0	362807296	49	4466
2026-01-18 01:19:22.00	24.16	13.54	-38.6	-40.7	14.2	5.70e-06	0	60	0	368050176	49	4393
2026-01-18 01:19:23.01	24.21	13.63	-38.6	-40.6	14.2	2.20e-06	0	60	0	374341632	49	4383
2026-01-18 01:19:24.02	24.26	13.73	-38.7	-40.7	14.1	2.20e-06	0	60	0	379584512	49	4435
2026-01-18 01:19:25.03	24.32	13.83	-38.6	-40.6	14.3	3.40e-06	0	60	0	385875968	49	4368
2026-01-18 01:19:26.04	24.37	13.93	-38.6	-40.6	14.3	2.20e-06	0	60	0	391118848	49	4364
2026-01-18 01:19:27.05	24.42	14.03	-38.5	-40.5	14.3	1.10e-06	0	60	0	396361728	49	4333
2026-01-18 01:19:28.06	24.47	14.13	-38.5	-40.5	14.4	1.10e-06	0	60	0	402653184	48	4553
2026-01-18 01:19:29.07	24.52	14.23	-38.5	-40.5	14.4	2.20e-06	0	60	0	407896064	48	4565
2026-01-18 01:19:30.08	24.58	14.33	-38.6	-40.6	14.2	4.50e-06	0	60	0	414187520	48	4630
2026-01-18 01:19:31.09	24.63	14.43	-38.6	-40.6	14.3	5.70e-06	0	60	0	419430400	48	4614
2026-01-18 01:19:32.10	24.68	14.54	-38.5	-40.5	14.3	1.10e-06	0	60	0	424673280	48	4586
2026-01-18 01:19:33.11	24.74	14.64	-38.6	-40.6	14.3	2.20e-06	0	60	0	430964736	48	4613
2026-01-18 01:19:34.12	24.79	14.74	-38.5	-40.6	14.4	1.10e-06	0	60	0	436207616	48	4607
2026-01-18 01:19:35.12	24.85	14.84	-38.5	-40.5	14.4	1.10e-06	0	60	0	442499072	48	4563
2026-01-18 01:19:36.13	24.90	14.95	-38.5	-40.5	14.4	1.10e-06	0	60	0	447741952	48	4584
2026-01-18 01:19:37.14	24.96	15.05	-38.5	-40.5	14.4	2.20e-06	0	60	0	454033408	48	4593
2026-01-18 01:19:38.16	25.01	15.15	-38.5	-40.5	14.5	0.00e+00	0	60	0	459276288	48	4563
2026-01-18 01:19:39.16	25.07	15.26	-38.6	-40.6	14.4	1.10e-06	0	60	0	464519168	48	4623
2026-01-18 01:19:40.17	25.13	15.36	-38.5	-40.5	14.4	2.20e-06	0	60	0	470810624	48	4593
2026-01-18 01:19:41.18	25.18	15.47	-38.4	-40.4	14.6	0.00e+00	0	60	0	476053504	48	4522
2026-01-18 01:19:42.19	25.24	15.57	-38.3	-40.2	14.7	1.10e-06	0	60	0	482344960	48	4440
2026-01-18 01:19:43.20	25.30	15.68	-38.2	-40.0	14.9	0.00e+00	0	60	0	487587840	48	4338
2026-01-18 01:19:44.21	25.36	15.79	-38.2	-40.1	14.9	0.00e+00	0	60	0	492830720	48	4342
2026-01-18 01:19:45.22	25.41	15.90	-38.1	-40.0	15.0	2.20e-06	0	60	0	499122176	48	4303
2026-01-18 01:19:46.23	25.47	16.00	-38.1	-40.0	15.1	0.00e+00	0	60	0	504365056	48	4296
2026-01-18 01:19:47.24	25.53	16.11	-38.1	-39.9	15.1	0.00e+00	0	61	0	510656512	48	4267
2026-01-18 01:19:48.26	25.59	16.22	-37.9	-39.8	15.1	0.00e+00	0	60	0	515899392	47	4443
2026-01-18 01:19:49.27	25.65	16.33	-37.8	-39.7	15.2	0.00e+00	0	60	0	521142272	47	4403
2026-01-18 01:19:50.28	25.71	16.44	-37.8	-39.7	15.2	0.00e+00	0	60	0	527433728	47	4403
2026-01-18 01:19:51.29	25.77	16.55	-37.8	-39.7	15.3	0.00e+00	0	60	0	532676608	47	4409
2026-01-18 01:19:52.29	25.83	16.66	-37.8	-39.6	15.3	0.00e+00	0	60	0	538968064	47	4389
2026-01-18 01:19:53.30	25.90	16.77	-37.9	-39.7	15.3	0.00e+00	0	60	0	544210944	47	4410
2026-01-18 01:19:54.31	25.96	16.88	-37.8	-39.6	15.4	0.00e+00	0	60	0	550502400	47	4367
2026-01-18 01:19:55.32	26.02	16.99	-37.7	-39.6	15.4	0.00e+00	0	60	0	555745280	47	4363
2026-01-18 01:19:56.33	26.08	17.11	-37.8	-39.7	15.3	0.00e+00	0	60	0	562036736	47	4396
2026-01-18 01:19:57.34	26.15	17.22	-37.8	-39.6	15.4	1.10e-06	0	60	0	567279616	47	4387
2026-01-18 01:19:58.35	26.21	17.33	-37.8	-39.6	15.4	0.00e+00	0	60	0	572522496	47	4390
2026-01-18 01:19:59.36	26.27	17.45	-37.7	-39.5	15.5	0.00e+00	0	60	0	578813952	47	4326
2026-01-18 01:20:00.37	26.34	17.56	-37.7	-39.5	15.5	1.10e-06	0	61	0	584056832	47	4313
2026-01-18 01:20:01.38	26.40	17.68	-37.7	-39.5	15.5	0.00e+00	0	60	0	590348288	47	4303
2026-01-18 01:20:02.39	26.47	17.79	-37.6	-39.4	15.6	0.00e+00	0	60	0	595591168	47	4287
2026-01-18 01:20:03.40	26.54	17.91	-37.6	-39.4	15.6	0.00e+00	0	60	0	600834048	47	4273
2026-01-18 01:20:04.41	26.60	18.02	-37.6	-39.4	15.7	0.00e+00	0	60	0	607125504	47	4256
2026-01-18 01:20:05.42	26.67	18.14	-37.6	-39.3	15.7	0.00e+00	0	60	0	612368384	47	4231
2026-01-18 01:20:06.43	26.74	18.26	-37.6	-39.3	15.7	0.00e+00	0	60	0	618659840	47	4228
2026-01-18 01:20:07.44	26.81	18.38	-37.7	-39.4	15.7	0.00e+00	0	61	0	623902720	47	4259
2026-01-18 01:20:08.45	26.87	18.49	-37.6	-39.4	15.7	0.00e+00	0	60	0	629145600	47	4253
2026-01-18 01:20:09.46	26.94	18.61	-37.6	-39.3	15.8	1.10e-06	0	60	0	635437056	47	4215
2026-01-18 01:20:10.47	27.01	18.73	-37.6	-39.3	15.8	0.00e+00	0	61	0	640679936	47	4241
2026-01-18 01:20:11.48	27.08	18.85	-37.6	-39.3	15.8	0.00e+00	0	60	0	646971392	47	4220
2026-01-18 01:20:12.49	27.15	18.97	-37.6	-39.3	15.8	0.00e+00	0	61	0	652214272	47	4239
2026-01-18 01:20:13.50	27.22	19.09	-37.6	-39.4	15.7	0.00e+00	0	60	0	658505728	47	4263
2026-01-18 01:20:14.51	27.30	19.22	-37.7	-39.4	15.7	0.00e+00	0	60	0	663748608	47	4272
2026-01-18 01:20:15.52	27.37	19.34	-37.6	-39.4	15.8	0.00e+00	0	60	0	670040064	47	4247
2026-01-18 01:20:16.53	27.44	19.46	-37.6	-39.3	15.8	0.00e+00	0	61	0	675282944	47	4218
2026-01-18 01:20:17.54	27.51	19.59	-37.5	-39.2	15.9	0.00e+00	0	60	0	680525824	47	4182
2026-01-18 01:20:18.55	27.59	19.71	-37.4	-39.1	16.0	0.00e+00	0	60	0	686817280	46	4387
2026-01-18 01:20:19.56	27.66	19.83	-37.4	-39.1	16.0	0.00e+00	0	60	0	692060160	46	4366
2026-01-18 01:20:20.57	27.74	19.96	-37.3	-39.0	16.1	0.00e+00	0	60	0	698351616	46	4319
2026-01-18 01:20:21.58	27.81	20.09	-37.3	-38.9	16.2	0.00e+00	0	60	0	703594496	46	4289
2026-01-18 01:20:22.59	27.89	20.21	-37.3	-38.9	16.3	0.00e+00	0	60	0	708837376	46	4271
2026-01-18 01:20:23.60	27.97	20.34	-37.2	-38.9	16.3	0.00e+00	0	60	0	715128832	46	4248
2026-01-18 01:20:24.62	28.04	20.47	-37.2	-38.8	16.4	0.00e+00	0	61	0	720371712	46	4206
2026-01-18 01:20:25.62	28.12	20.60	-37.1	-38.8	16.4	0.00e+00	0	60	0	726663168	46	4201
2026-01-18 01:20:26.63	28.20	20.72	-37.2	-38.8	16.4	0.00e+00	0	60	0	731906048	46	4217
2026-01-18 01:20:27.64	28.28	20.85	-37.2	-38.8	16.4	0.00e+00	0	60	0	737148928	46	4211
2026-01-18 01:20:28.65	28.36	20.98	-37.1	-38.7	16.5	0.00e+00	0	61	0	743440384	46	4192
2026-01-18 01:20:29.66	28.44	21.12	-37.2	-38.8	16.4	0.00e+00	0	61	0	748683264	46	4221
2026-01-18 01:20:30.67	28.52	21.25	-37.2	-38.7	16.5	0.00e+00	0	61	0	754974720	46	4193
2026-01-18 01:20:31.68	28.60	21.38	-37.2	-38.8	16.4	0.00e+00	0	61	0	760217600	46	4217
2026-01-18 01:20:32.69	28.68	21.51	-37.2	-38.8	16.4	0.00e+00	0	61	0	766509056	46	4210
2026-01-18 01:20:33.70	28.77	21.64	-37.1	-38.7	16.5	0.00e+00	0	60	0	771751936	46	4148
2026-01-18 01:20:34.72	28.85	21.78	-37.0	-38.6	16.7	0.00e+00	0	60	0	776994816	46	4109
2026-01-18 01:20:35.73	28.94	21.91	-37.0	-38.5	16.7	0.00e+00	0	61	0	783286272	46	4095
2026-01-18 01:20:36.74	29.02	22.05	-37.0	-38.5	16.7	0.00e+00	0	61	0	788529152	45	4330
2026-01-18 01:20:37.75	29.11	22.19	-36.9	-38.4	16.8	0.00e+00	0	60	0	794820608	45	4291
2026-01-18 01:20:38.76	29.20	22.32	-36.9	-38.4	16.8	0.00e+00	0	61	0	800063488	45	4266
2026-01-18 01:20:39.77	29.28	22.46	-36.9	-38.4	16.8	0.00e+00	0	61	0	805306368	45	4268
2026-01-18 01:20:40.78	29.37	22.60	-36.8	-38.3	16.9	0.00e+00	0	60	0	811597824	45	4228
2026-01-18 01:20:41.79	29.46	22.74	-36.8	-38.3	16.9	0.00e+00	0	60	0	816840704	45	4220
2026-01-18 01:20:42.80	29.55	22.88	-36.8	-38.3	16.9	0.00e+00	0	60	0	823132160	45	4234
2026-01-18 01:20:43.81	29.64	23.02	-36.8	-38.3	17.0	0.00e+00	0	61	0	828375040	45	4222
2026-01-18 01:20:44.82	29.73	23.16	-36.8	-38.3	16.9	0.00e+00	0	60	0	834666496	45	4226
2026-01-18 01:20:45.83	29.82	23.30	-36.8	-38.3	17.0	0.00e+00	0	60	0	839909376	45	4224
2026-01-18 01:20:46.84	29.92	23.44	-36.9	-38.4	16.8	0.00e+00	0	61	0	845152256	45	4286
2026-01-18 01:20:47.84	30.01	23.58	-37.0	-38.5	16.8	0.00e+00	0	61	0	851443712	45	4327
2026-01-18 01:20:48.85	30.10	23.73	-37.0	-38.6	16.7	0.00e+00	0	61	0	856686592	45	4351
2026-01-18 01:20:49.86	30.20	23.87	-36.9	-38.5	16.8	0.00e+00	0	60	0	862978048	45	4323
2026-01-18 01:20:50.87	30.29	24.02	-36.9	-38.5	16.8	0.00e+00	0	61	0	868220928	45	4305
2026-01-18 01:20:51.89	30.39	24.16	-36.9	-38.5	16.8	0.00e+00	0	61	0	874512384	45	4293
2026-01-18 01:20:52.90	30.49	24.31	-36.8	-38.3	17.0	0.00e+00	0	61	0	879755264	45	4236
2026-01-18 01:20:53.91	30.59	24.46	-36.7	-38.2	17.1	0.00e+00	0	60	0	884998144	45	4169
2026-01-18 01:20:54.92	30.69	24.61	-36.7	-38.2	17.1	0.00e+00	0	60	0	891289600	45	4148
2026-01-18 01:20:55.93	30.79	24.75	-36.6	-38.1	17.2	0.00e+00	0	60	0	896532480	45	4110
2026-01-18 01:20:56.94	30.89	24.90	-36.6	-38.1	17.2	0.00e+00	0	60	0	902823936	45	4117
2026-01-18 01:20:57.95	30.99	25.05	-36.5	-38.0	17.3	0.00e+00	0	61	0	908066816	45	4093
2026-01-18 01:20:58.96	31.10	25.21	-36.6	-38.1	17.2	0.00e+00	0	61	0	913309696	45	4110
2026-01-18 01:20:59.96	31.20	25.36	-36.6	-38.1	17.2	0.00e+00	0	61	0	919601152	45	4110
2026-01-18 01:21:00.97	31.30	25.51	-36.5	-38.0	17.4	0.00e+00	0	60	0	924844032	45	4063
2026-01-18 01:21:01.98	31.41	25.66	-36.4	-37.9	17.5	0.00e+00	0	61	0	931135488	44	4262
2026-01-18 01:21:02.99	31.52	25.82	-36.4	-37.8	17.5	0.00e+00	0	60	0	936378368	44	4225
2026-01-18 01:21:04.00	31.63	25.97	-36.4	-37.8	17.5	0.00e+00	0	61	0	941621248	44	4232
2026-01-18 01:21:05.01	31.74	26.13	-36.3	-37.8	17.6	0.00e+00	0	61	0	947912704	44	4202
2026-01-18 01:21:06.02	31.85	26.29	-36.3	-37.7	17.6	0.00e+00	0	60	0	953155584	44	4182
2026-01-18 01:21:07.03	31.96	26.44	-36.2	-37.7	17.7	0.00e+00	0	60	0	959447040	44	4155
2026-01-18 01:21:08.04	32.07	26.60	-36.3	-37.8	17.6	0.00e+00	0	61	0	964689920	44	4200
2026-01-18 01:21:09.05	32.18	26.76	-36.4	-37.8	17.5	0.00e+00	0	60	0	970981376	44	4229
2026-01-18 01:21:10.06	32.30	26.92	-36.4	-37.8	17.5	0.00e+00	0	61	0	976224256	44	4226
2026-01-18 01:21:11.07	32.41	27.08	-36.3	-37.8	17.6	0.00e+00	0	61	0	981467136	44	4209
2026-01-18 01:21:12.08	32.53	27.24	-36.4	-37.8	17.5	0.00e+00	0	61	0	987758592	44	4237
2026-01-18 01:21:13.09	32.65	27.41	-36.3	-37.8	17.6	0.00e+00	0	61	0	993001472	44	4197
2026-01-18 01:21:14.10	32.77	27.57	-36.3	-37.7	17.6	0.00e+00	0	61	0	999292928	44	4189
2026-01-18 01:21:15.11	32.89	27.73	-36.3	-37.8	17.6	0.00e+00	0	61	0	1004535808	44	4212
2026-01-18 01:21:16.12	33.01	27.90	-36.4	-37.8	17.5	0.00e+00	0	61	0	1010827264	44	4238
2026-01-18 01:21:17.13	33.13	28.06	-36.4	-37.9	17.5	0.00e+00	0	61	0	1016070144	44	4258
2026-01-18 01:21:18.14	33.26	28.23	-36.4	-37.8	17.6	0.00e+00	0	60	0	1021313024	44	4217
2026-01-18 01:21:19.15	33.38	28.40	-36.4	-37.8	17.6	0.00e+00	0	61	0	1027604480	44	4217
2026-01-18 01:21:20.16	33.51	28.57	-36.4	-37.8	17.5	0.00e+00	0	61	0	1032847360	44	4238
2026-01-18 01:21:21.17	33.64	28.74	-36.3	-37.8	17.7	0.00e+00	0	61	0	1039138816	44	4194
2026-01-18 01:21:22.18	33.76	28.91	-36.2	-37.6	17.8	0.00e+00	0	61	0	1044381696	44	4127
2026-01-18 01:21:23.19	33.90	29.08	-36.1	-37.4	17.9	0.00e+00	0	61	0	1049624576	44	4048
2026-01-18 01:21:24.20	34.03	29.25	-36.0	-37.4	18.0	0.00e+00	0	61	0	1055916032	44	4011
2026-01-18 01:21:25.21	34.16	29.43	-35.7	-37.1	18.1	0.00e+00	0	61	0	1061158912	43	4119
2026-01-18 01:21:26.22	34.29	29.60	-35.8	-37.1	18.1	0.00e+00	0	61	0	1067450368	43	4126
2026-01-18 01:21:27.23	34.43	29.77	-35.9	-37.2	18.0	0.00e+00	0	60	0	1072693248	43	4187
2026-01-18 01:21:28.24	34.57	29.95	-36.0	-37.4	17.8	0.00e+00	0	61	0	1078984704	43	4279
2026-01-18 01:21:29.25	34.71	30.13	-36.2	-37.6	17.6	0.00e+00	0	61	0	1084227584	43	4372
2026-01-18 01:21:30.25	34.85	30.30	-36.3	-37.8	17.5	0.00e+00	0	61	0	1089470464	43	4460
2026-01-18 01:21:31.26	34.99	30.48	-36.4	-37.8	17.4	0.00e+00	0	61	0	1095761920	43	4491
2026-01-18 01:21:32.27	35.13	30.66	-36.4	-37.9	17.4	0.00e+00	0	61	0	1101004800	43	4498
2026-01-18 01:21:33.28	35.28	30.84	-36.3	-37.7	17.5	0.00e+00	0	61	0	1107296256	43	4441
2026-01-18 01:21:34.29	35.42	31.02	-36.3	-37.8	17.5	0.00e+00	0	61	0	1112539136	43	4455
2026-01-18 01:21:35.30	35.57	31.21	-36.3	-37.7	17.5	0.00e+00	0	61	0	1117782016	43	4434
2026-01-18 01:21:36.31	35.72	31.39	-36.2	-37.6	17.6	0.00e+00	0	61	0	1124073472	43	4372
2026-01-18 01:21:37.32	35.87	31.57	-36.1	-37.5	17.7	0.00e+00	0	61	0	1129316352	43	4318
2026-01-18 01:21:38.33	36.03	31.76	-35.9	-37.3	17.9	0.00e+00	0	61	0	1135607808	43	4237
2026-01-18 01:21:39.34	36.18	31.94	-35.8	-37.2	18.1	0.00e+00	0	61	0	1140850688	43	4150
2026-01-18 01:21:40.35	36.34	32.13	-35.7	-37.0	18.2	0.00e+00	0	61	0	1146093568	43	4095
2026-01-18 01:21:41.36	36.50	32.32	-35.7	-37.0	18.3	0.00e+00	0	61	0	1152385024	43	4090
2026-01-18 01:21:42.37	36.66	32.51	-35.8	-37.1	18.2	0.00e+00	0	61	0	1157627904	43	4141
2026-01-18 01:21:43.38	36.82	32.70	-35.9	-37.3	18.0	0.00e+00	0	61	0	1163919360	43	4220
2026-01-18 01:21:44.39	36.98	32.89	-36.1	-37.5	17.8	0.00e+00	0	61	0	1169162240	43	4299
2026-01-18 01:21:45.40	37.15	33.08	-36.2	-37.6	17.7	0.00e+00	0	61	0	1175453696	43	4370
2026-01-18 01:21:46.42	37.32	33.28	-36.1	-37.6	17.7	0.00e+00	0	61	0	1180696576	43	4344
2026-01-18 01:21:47.43	37.49	33.47	-36.0	-37.4	17.9	0.00e+00	0	61	0	1186988032	43	4262
2026-01-18 01:21:48.43	37.66	33.66	-35.8	-37.2	18.1	0.00e+00	0	61	0	1192230912	43	4175
2026-01-18 01:21:49.45	37.83	33.86	-35.8	-37.1	18.2	0.00e+00	0	61	0	1197473792	43	4135
2026-01-18 01:21:50.46	38.01	34.06	-35.7	-37.0	18.3	0.00e+00	0	61	0	1203765248	43	4090
2026-01-18 01:21:51.47	38.19	34.26	-35.7	-37.0	18.3	0.00e+00	0	61	0	1209008128	43	4083
2026-01-18 01:21:52.48	38.37	34.46	-35.7	-37.0	18.3	0.00e+00	0	61	0	1215299584	43	4096
2026-01-18 01:21:53.48	38.55	34.65	-35.7	-37.1	18.2	0.00e+00	0	61	0	1220542464	43	4128
2026-01-18 01:21:54.49	38.73	34.85	-35.8	-37.1	18.2	0.00e+00	0	61	0	1225785344	43	4127
2026-01-18 01:21:55.50	38.92	35.06	-35.8	-37.2	18.2	0.00e+00	0	61	0	1232076800	43	4151
2026-01-18 01:21:56.51	39.11	35.26	-35.8	-37.2	18.1	0.00e+00	0	61	0	1237319680	43	4153
2026-01-18 01:21:57.53	39.30	35.46	-35.8	-37.2	18.1	0.00e+00	0	61	0	1243611136	43	4166
2026-01-18 01:21:58.53	39.49	35.67	-35.7	-37.3	17.7	0.00e+00	0	61	0	1248854016	43	4196
2026-01-18 01:21:59.55	39.69	35.88	-35.7	-37.2	17.8	0.00e+00	0	61	0	1254096896	43	4178
2026-01-18 01:22:00.56	39.89	36.08	-35.6	-37.1	17.9	0.00e+00	0	61	0	1260388352	43	4115
2026-01-18 01:22:01.56	40.09	36.29	-35.6	-37.0	17.9	0.00e+00	0	61	0	1265631232	43	4097
2026-01-18 01:22:02.57	40.29	36.50	-35.6	-37.1	17.9	0.00e+00	0	61	0	1271922688	43	4117
2026-01-18 01:22:03.58	40.50	36.71	-35.5	-37.0	18.0	0.00e+00	0	61	0	1277165568	43	4085
2026-01-18 01:22:04.60	40.71	36.92	-35.5	-37.0	18.0	0.00e+00	0	61	0	1283457024	43	4087
2026-01-18 01:22:05.61	40.92	37.13	-35.5	-37.0	18.0	0.00e+00	0	61	0	1288699904	43	4058
2026-01-18 01:22:06.61	41.13	37.34	-35.5	-36.9	18.1	0.00e+00	0	61	0	1293942784	43	4045
2026-01-18 01:22:07.63	41.35	37.56	-35.5	-37.0	18.1	0.00e+00	0	61	0	1300234240	42	4297
2026-01-18 01:22:08.64	41.57	37.77	-35.7	-37.2	17.9	0.00e+00	0	61	0	1305477120	42	4396
2026-01-18 01:22:09.64	41.79	37.98	-35.7	-37.3	17.8	0.00e+00	0	61	0	1311768576	42	4448
2026-01-18 01:22:10.65	42.02	38.20	-35.7	-37.2	17.8	0.00e+00	0	61	0	1317011456	42	4436
2026-01-18 01:22:11.66	42.25	38.42	-35.7	-37.3	17.8	0.00e+00	0	61	0	1322254336	42	4447
2026-01-18 01:22:12.67	42.48	38.63	-35.6	-37.1	17.9	0.00e+00	0	61	0	1328545792	42	4377
2026-01-18 01:22:13.68	42.71	38.85	-35.5	-37.0	18.1	0.00e+00	0	61	0	1333788672	42	4296
2026-01-18 01:22:14.69	42.95	39.07	-35.5	-36.9	18.2	0.00e+00	0	61	0	1340080128	42	4271
2026-01-18 01:22:15.70	43.19	39.29	-35.5	-37.0	18.1	0.00e+00	0	61	0	1345323008	42	4305
2026-01-18 01:22:16.71	43.43	39.51	-35.5	-37.0	18.1	0.00e+00	0	61	0	1350565888	42	4318
2026-01-18 01:22:17.72	43.68	39.74	-35.6	-37.1	18.0	0.00e+00	0	61	0	1356857344	42	4348
2026-01-18 01:22:18.73	43.93	39.96	-35.6	-37.1	18.0	0.00e+00	0	61	0	1362100224	42	4363
2026-01-18 01:22:19.74	44.19	40.18	-35.5	-36.9	18.1	0.00e+00	0	61	0	1368391680	42	4288
2026-01-18 01:22:20.75	44.44	40.41	-35.4	-36.9	18.2	0.00e+00	0	61	0	1373634560	42	4245
2026-01-18 01:22:21.76	44.70	40.63	-35.6	-37.0	18.1	0.00e+00	0	61	0	1379926016	42	4325
2026-01-18 01:22:22.77	44.97	40.86	-35.6	-37.1	18.0	0.00e+00	0	61	0	1385168896	42	4373
2026-01-18 01:22:23.78	45.24	41.09	-35.6	-37.1	18.0	0.00e+00	0	61	0	1391460352	42	4368
2026-01-18 01:22:24.79	45.51	41.32	-35.6	-37.1	18.0	0.00e+00	0	61	0	1396703232	42	4346
2026-01-18 01:22:25.80	45.79	41.54	-35.7	-37.2	17.9	0.00e+00	0	61	0	1401946112	42	4411
2026-01-18 01:22:26.81	46.07	41.77	-35.8	-37.3	17.8	0.00e+00	0	61	0	1408237568	42	4475
2026-01-18 01:22:27.82	46.35	42.00	-36.0	-37.5	17.6	0.00e+00	0	61	0	1413480448	42	4576
2026-01-18 01:22:28.83	46.64	42.23	-35.9	-37.5	17.7	0.00e+00	0	61	0	1419771904	42	4548
2026-01-18 01:22:29.84	46.93	42.46	-35.8	-37.2	17.9	0.00e+00	0	61	0	1425014784	42	4436
2026-01-18 01:22:30.85	47.23	42.70	-35.7	-37.2	18.0	0.00e+00	0	61	0	1430257664	42	4404
2026-01-18 01:22:31.86	47.53	42.93	-35.9	-37.4	17.7	0.00e+00	0	61	0	1436549120	42	4541
2026-01-18 01:22:32.87	47.83	43.16	-36.1	-37.7	17.4	0.00e+00	0	61	0	1441792000	42	4687
2026-01-18 01:22:33.88	48.14	43.40	-36.1	-37.7	17.5	0.00e+00	0	61	0	1448083456	42	4657
2026-01-18 01:22:34.89	48.45	43.63	-35.9	-37.4	17.7	0.00e+00	0	61	0	1453326336	42	4541
2026-01-18 01:22:35.90	48.77	43.87	-35.8	-37.3	17.8	0.00e+00	0	61	0	1458569216	42	4477
2026-01-18 01:22:36.92	49.10	44.10	-35.8	-37.2	17.9	0.00e+00	0	61	0	1464860672	42	4430
2026-01-18 01:22:37.93	49.43	44.34	-36.0	-37.5	17.6	0.00e+00	0	61	0	1470103552	42	4571
2026-01-18 01:22:38.94	49.76	44.57	-36.2	-37.7	17.5	0.00e+00	0	61	0	1476395008	42	4698
2026-01-18 01:22:39.95	50.10	44.81	-36.2	-37.7	17.4	0.00e+00	0	61	0	1481637888	42	4697
2026-01-18 01:22:40.96	50.44	45.05	-36.0	-37.5	17.6	0.00e+00	0	61	0	1487929344	42	4593
2026-01-18 01:22:41.97	50.79	45.28	-36.0	-37.5	17.6	0.00e+00	0	61	0	1493172224	42	4588
2026-01-18 01:22:42.98	51.14	45.52	-36.1	-37.7	17.5	0.00e+00	0	61	0	1499463680	42	4659
2026-01-18 01:22:43.99	51.50	45.76	-36.1	-37.6	17.5	0.00e+00	0	61	0	1504706560	42	4637
2026-01-18 01:22:45.00	51.86	46.00	-35.9	-37.4	17.7	0.00e+00	0	61	0	1509949440	42	4533
2026-01-18 01:22:46.01	52.23	46.23	-35.9	-37.4	17.8	0.00e+00	0	61	0	1516240896	42	4507
2026-01-18 01:22:47.02	52.60	46.47	-36.1	-37.6	17.6	0.00e+00	0	61	0	1521483776	42	4610
2026-01-18 01:22:48.03	52.98	46.71	-36.3	-37.9	17.3	0.00e+00	0	61	0	1527775232	43	4498
2026-01-18 01:22:49.04	53.37	46.95	-36.5	-38.1	17.1	0.00e+00	0	60	0	1533018112	43	4613
2026-01-18 01:22:50.05	53.76	47.19	-36.6	-38.2	17.0	0.00e+00	0	61	0	1538260992	43	4699
2026-01-18 01:22:51.06	54.16	47.42	-36.4	-38.0	17.2	0.00e+00	0	61	0	1544552448	43	4597
2026-01-18 01:22:52.07	54.56	47.66	-36.2	-37.7	17.5	0.00e+00	0	61	0	1549795328	43	4419
2026-01-18 01:22:53.08	54.97	47.90	-35.9	-37.4	17.8	0.00e+00	0	61	0	1556086784	43	4264
2026-01-18 01:22:54.09	55.39	48.14	-36.0	-37.4	17.8	0.00e+00	0	61	0	1561329664	43	4281
2026-01-18 01:22:55.10	55.81	48.37	-36.2	-37.8	17.5	0.00e+00	0	61	0	1566572544	43	4449
2026-01-18 01:22:56.11	56.24	48.61	-36.5	-38.1	17.2	0.00e+00	0	61	0	1572864000	43	4637
2026-01-18 01:22:57.12	56.67	48.85	-36.7	-38.3	16.9	0.00e+00	0	61	0	1578106880	43	4742
2026-01-18 01:22:58.13	57.12	49.08	-36.8	-38.5	16.9	0.00e+00	0	61	0	1584398336	44	4554
2026-01-18 01:22:59.14	57.57	49.32	-36.7	-38.3	17.1	0.00e+00	0	61	0	1589641216	44	4465
2026-01-18 01:23:00.15	58.02	49.55	-36.6	-38.1	17.3	0.00e+00	0	61	0	1595932672	44	4379
2026-01-18 01:23:01.16	58.48	49.79	-36.5	-38.1	17.3	0.00e+00	0	61	0	1601175552	44	4367
2026-01-18 01:23:02.17	58.95	50.02	-36.5	-38.1	17.3	0.00e+00	0	61	0	1606418432	44	4358
2026-01-18 01:23:03.18	59.43	50.25	-36.3	-37.8	17.6	0.00e+00	0	61	0	1612709888	44	4215
2026-01-18 01:23:04.19	59.92	50.48	-36.5	-38.0	17.4	0.00e+00	0	61	0	1617952768	44	4322
2026-01-18 01:23:05.20	60.41	50.71	-36.7	-38.2	17.2	0.00e+00	0	61	0	1624244224	44	4435
2026-01-18 01:23:06.21	60.91	50.94	-36.7	-38.3	17.2	0.00e+00	0	61	0	1629487104	44	4449
2026-01-18 01:23:07.22	61.41	51.17	-36.6	-38.1	17.3	0.00e+00	0	61	0	1635778560	44	4372
2026-01-18 01:23:08.23	61.93	51.40	-36.6	-38.1	17.3	0.00e+00	0	61	0	1641021440	44	4384
2026-01-18 01:23:09.24	62.45	51.62	-36.6	-38.2	17.3	0.00e+00	0	61	0	1646264320	44	4405
2026-01-18 01:23:10.25	62.98	51.85	-36.6	-38.2	17.3	0.00e+00	0	61	0	1652555776	44	4415
2026-01-18 01:23:11.25	63.51	52.07	-36.4	-37.9	17.5	0.00e+00	0	61	0	1657798656	44	4264
2026-01-18 01:23:12.26	64.06	52.29	-36.5	-38.0	17.4	0.00e+00	0	61	0	1663041536	44	4322
2026-01-18 01:23:13.27	64.62	52.51	-36.8	-38.5	17.0	0.00e+00	0	61	0	1669332992	44	4556
2026-01-18 01:23:14.28	65.18	52.73	-37.0	-38.7	16.7	0.00e+00	0	61	0	1674575872	44	4669
2026-01-18 01:23:15.29	65.75	52.94	-37.0	-38.6	16.8	0.00e+00	0	61	0	1680867328	44	4642
2026-01-18 01:23:16.30	66.33	53.16	-37.1	-38.7	16.7	0.00e+00	0	61	0	1686110208	44	4702
2026-01-18 01:23:17.31	66.92	53.37	-36.9	-38.6	16.8	0.00e+00	0	61	0	1692401664	44	4612
2026-01-18 01:23:18.32	67.51	53.58	-36.7	-38.3	17.1	0.00e+00	0	61	0	1697644544	44	4461
2026-01-18 01:23:19.33	68.12	53.79	-36.8	-38.5	17.0	0.00e+00	0	61	0	1703936000	44	4549
2026-01-18 01:23:20.34	68.73	53.99	-36.9	-38.5	17.0	0.00e+00	0	61	0	1709178880	44	4557
2026-01-18 01:23:21.35	69.35	54.19	-36.7	-38.3	17.2	0.00e+00	0	61	0	1714421760	44	4449
2026-01-18 01:23:22.37	69.99	54.40	-36.7	-38.2	17.2	0.00e+00	0	61	0	1720713216	44	4439
2026-01-18 01:23:23.38	70.63	54.59	-36.9	-38.5	16.9	0.00e+00	0	61	0	1725956096	44	4590
2026-01-18 01:23:24.39	71.28	54.79	-37.2	-39.0	16.5	0.00e+00	0	61	0	1732247552	45	4553
2026-01-18 01:23:25.40	71.94	54.98	-37.3	-39.0	16.4	0.00e+00	0	61	0	1737490432	45	4571
2026-01-18 01:23:26.41	72.60	55.17	-37.1	-38.8	16.7	0.00e+00	0	61	0	1742733312	45	4444
2026-01-18 01:23:27.42	73.28	55.35	-36.9	-38.5	17.0	0.00e+00	0	61	0	1749024768	45	4300
2026-01-18 01:23:28.43	73.96	55.53	-37.0	-38.6	16.9	0.00e+00	0	61	0	1754267648	45	4348
2026-01-18 01:23:29.44	74.66	55.71	-37.2	-38.9	16.6	0.00e+00	0	61	0	1760559104	45	4505
2026-01-18 01:23:30.45	75.36	55.89	-37.0	-38.6	16.8	0.00e+00	0	61	0	1765801984	45	4365
2026-01-18 01:23:31.46	76.07	56.06	-36.9	-38.5	16.9	0.00e+00	0	61	0	1771044864	45	4330
2026-01-18 01:23:32.47	76.79	56.23	-37.0	-38.6	16.9	0.00e+00	0	61	0	1777336320	45	4368
2026-01-18 01:23:33.48	77.52	56.39	-36.8	-38.4	17.1	0.00e+00	0	61	0	1782579200	45	4268
2026-01-18 01:23:34.49	78.25	56.55	-36.6	-38.1	17.3	0.00e+00	0	61	0	1788870656	45	4132
2026-01-18 01:23:35.50	79.00	56.71	-36.9	-38.5	17.0	0.00e+00	0	61	0	1794113536	45	4324
2026-01-18 01:23:36.51	79.75	56.86	-37.1	-38.9	16.6	0.00e+00	0	61	0	1800404992	45	4497
2026-01-18 01:23:37.52	80.51	57.01	-37.1	-38.7	16.7	0.00e+00	0	61	0	1805647872	45	4427
2026-01-18 01:23:38.53	81.28	57.15	-36.9	-38.6	16.9	0.00e+00	0	61	0	1811939328	45	4342
2026-01-18 01:23:39.54	82.06	57.29	-36.9	-38.5	16.9	0.00e+00	0	61	0	1817182208	45	4321
2026-01-18 01:23:40.55	82.84	57.42	-36.6	-38.1	17.3	0.00e+00	0	61	0	1822425088	45	4124
2026-01-18 01:23:41.56	83.63	57.55	-36.6	-38.1	17.3	0.00e+00	0	61	0	1828716544	45	4129
2026-01-18 01:23:42.57	84.43	57.67	-36.5	-38.1	17.4	0.00e+00	0	61	0	1833959424	45	4100
2026-01-18 01:23:43.58	85.24	57.79	-36.5	-38.0	17.4	0.00e+00	0	61	0	1840250880	44	4333
2026-01-18 01:23:44.59	86.06	57.91	-36.7	-38.3	17.1	0.00e+00	0	61	0	1845493760	44	4473
2026-01-18 01:23:45.60	86.88	58.02	-36.6	-38.1	17.3	0.00e+00	0	61	0	1850736640	44	4381
2026-01-18 01:23:46.61	87.70	58.12	-36.2	-37.7	17.7	0.00e+00	0	61	0	1857028096	44	4188
2026-01-18 01:23:47.62	88.54	58.22	-36.3	-37.7	17.7	0.00e+00	0	61	0	1862270976	44	4192
2026-01-18 01:23:48.63	89.38	58.31	-36.6	-38.2	17.2	0.00e+00	0	61	0	1868562432	44	4409
2026-01-18 01:23:49.64	90.22	58.40	-37.0	-38.7	16.8	0.00e+00	0	61	0	1873805312	44	4652
2026-01-18 01:23:50.65	91.07	58.48	-36.7	-38.3	17.1	0.00e+00	0	61	0	1879048192	44	4452
2026-01-18 01:23:51.65	91.92	58.55	-36.8	-38.4	17.1	0.00e+00	0	61	0	1885339648	44	4498
2026-01-18 01:23:52.66	92.78	58.62	-36.9	-38.6	16.9	0.00e+00	0	61	0	1890582528	44	4603
2026-01-18 01:23:53.67	93.65	58.69	-36.6	-38.1	17.2	0.00e+00	0	61	0	1896873984	44	4391
2026-01-18 01:23:54.68	94.51	58.74	-36.3	-37.8	17.6	0.00e+00	0	61	0	1902116864	44	4210
2026-01-18 01:23:55.70	95.40	58.80	-36.5	-38.0	17.4	0.00e+00	0	61	0	1908408320	44	4316
2026-01-18 01:23:56.71	96.27	58.84	-36.6	-38.1	17.3	0.00e+00	0	61	0	1913651200	44	4376
2026-01-18 01:23:57.72	97.15	58.88	-36.3	-37.8	17.6	0.00e+00	0	61	0	1918894080	44	4219
2026-01-18 01:23:58.72	98.02	58.92	-36.2	-37.7	17.7	0.00e+00	0	61	0	1925185536	44	4182
2026-01-18 01:23:59.73	98.90	58.94	-36.4	-38.0	17.4	0.00e+00	0	61	0	1930428416	44	4299
2026-01-18 01:24:00.74	99.79	58.97	-36.6	-38.2	17.2	0.00e+00	0	61	0	1936719872	44	4413
2026-01-18 01:24:01.75	100.68	58.98	-36.6	-38.2	17.2	0.00e+00	0	61	0	1941962752	44	4413
2026-01-18 01:24:02.76	101.56	58.99	-36.5	-38.0	17.4	0.00e+00	0	61	0	1947205632	44	4329
2026-01-18 01:24:03.77	102.45	58.99	-36.6	-38.1	17.3	0.00e+00	0	61	0	1953497088	44	4384
2026-01-18 01:24:04.78	103.34	58.99	-36.7	-38.3	17.1	0.00e+00	0	61	0	1958739968	44	4475
2026-01-18 01:24:05.79	104.22	58.98	-36.5	-38.1	17.3	0.00e+00	0	61	0	1965031424	44	4344
2026-01-18 01:24:06.80	105.11	58.96	-36.5	-38.1	17.3	0.00e+00	0	61	0	1970274304	44	4353
2026-01-18 01:24:07.81	105.99	58.94	-36.4	-38.0	17.4	0.00e+00	0	61	0	1975517184	44	4308
2026-01-18 01:24:08.82	106.88	58.91	-36.4	-37.9	17.5	0.00e+00	0	61	0	1981808640	44	4257
2026-01-18 01:24:09.83	107.76	58.88	-36.4	-37.9	17.5	0.00e+00	0	61	0	1987051520	44	4263
2026-01-18 01:24:10.84	108.64	58.84	-36.5	-38.0	17.4	0.00e+00	0	61	0	1993342976	44	4321
2026-01-18 01:24:11.85	109.51	58.79	-36.5	-38.0	17.4	0.00e+00	0	61	0	1998585856	44	4323
2026-01-18 01:24:12.86	110.38	58.74	-36.5	-38.0	17.4	0.00e+00	0	61	0	2004877312	44	4320
2026-01-18 01:24:13.87	111.25	58.68	-36.5	-38.0	17.4	0.00e+00	0	61	0	2010120192	44	4330
2026-01-18 01:24:14.88	112.12	58.62	-36.5	-38.1	17.3	0.00e+00	0	61	0	2016411648	44	4343
2026-01-18 01:24:15.89	112.98	58.55	-36.8	-38.4	16.9	0.00e+00	0	61	0	2021654528	44	4545
2026-01-18 01:24:16.90	113.83	58.47	-37.0	-38.7	16.7	0.00e+00	0	61	0	2026897408	44	4678
2026-01-18 01:24:17.91	114.69	58.39	-36.8	-38.4	17.0	0.00e+00	0	61	0	2033188864	44	4506
2026-01-18 01:24:18.92	115.53	58.30	-36.7	-38.3	17.1	0.00e+00	0	61	0	2038431744	44	4459
2026-01-18 01:24:19.93	116.37	58.21	-36.8	-38.4	17.0	0.00e+00	0	61	0	2044723200	44	4500
2026-01-18 01:24:20.95	117.21	58.11	-36.8	-38.4	17.0	0.00e+00	0	61	0	2049966080	44	4504
2026-01-18 01:24:21.95	118.03	58.00	-36.6	-38.2	17.2	0.00e+00	0	61	0	2055208960	44	4396
2026-01-18 01:24:22.96	118.85	57.89	-36.6	-38.2	17.1	0.00e+00	0	61	0	2061500416	44	4430
2026-01-18 01:24:23.97	119.67	57.78	-36.7	-38.3	17.1	0.00e+00	0	61	0	2066743296	44	4477
2026-01-18 01:24:24.98	120.47	57.66	-36.7	-38.3	17.1	0.00e+00	0	61	0	2073034752	44	4466
2026-01-18 01:24:25.99	121.28	57.54	-36.7	-38.3	17.1	0.00e+00	0	61	0	2078277632	44	4449
2026-01-18 01:24:27.00	122.07	57.41	-36.9	-38.6	16.8	0.00e+00	0	61	0	2083520512	44	4608
2026-01-18 01:24:28.01	122.85	57.27	-36.9	-38.6	16.8	0.00e+00	0	61	0	2089811968	44	4610
2026-01-18 01:24:29.02	123.63	57.13	-36.8	-38.3	17.1	0.00e+00	0	61	0	2095054848	44	4471
2026-01-18 01:24:30.03	124.40	56.99	-36.7	-38.2	17.2	0.00e+00	0	61	0	2101346304	44	4417
2026-01-18 01:24:31.03	125.15	56.84	-36.8	-38.4	17.0	0.00e+00	0	61	0	2106589184	44	4505
2026-01-18 01:24:32.04	125.91	56.69	-37.0	-38.7	16.7	0.00e+00	0	61	0	2112880640	44	4656
2026-01-18 01:24:33.05	126.65	56.53	-37.0	-38.7	16.7	0.00e+00	0	61	0	2118123520	44	4668
2026-01-18 01:24:34.06	127.39	56.37	-36.7	-38.3	17.1	0.00e+00	0	61	0	2123366400	44	4454
2026-01-18 01:24:35.07	128.12	56.21	-36.7	-38.2	17.1	0.00e+00	0	61	0	2129657856	44	4438
2026-01-18 01:24:36.09	128.84	56.04	-37.1	-38.8	16.6	0.00e+00	0	61	0	2134900736	44	4720
2026-01-18 01:24:37.10	129.55	55.87	-37.1	-38.8	16.5	0.00e+00	0	61	0	2141192192	44	4743
2026-01-18 01:24:38.11	130.26	55.69	-36.9	-38.5	16.9	0.00e+00	0	61	0	2146435072	44	4555
2026-01-18 01:24:39.12	130.95	55.51	-36.8	-38.4	17.0	0.00e+00	0	61	0	2151677952	44	4528
2026-01-18 01:24:40.12	131.63	55.33	-36.8	-38.5	16.9	0.00e+00	0	61	0	2157969408	44	4553
2026-01-18 01:24:41.13	132.30	55.14	-36.8	-38.4	16.9	0.00e+00	0	61	0	2163212288	44	4522
2026-01-18 01:24:42.14	132.97	54.95	-36.7	-38.3	17.0	0.00e+00	0	61	0	2169503744	44	4455
2026-01-18 01:24:43.15	133.63	54.76	-36.7	-38.3	17.1	0.00e+00	0	61	0	2174746624	44	4462
2026-01-18 01:24:44.16	134.28	54.57	-36.8	-38.3	17.0	0.00e+00	0	61	0	2179989504	44	4488
2026-01-18 01:24:45.17	134.92	54.37	-37.0	-38.7	16.7	0.00e+00	0	61	0	2186280960	44	4653
2026-01-18 01:24:46.18	135.55	54.17	-37.0	-38.6	16.7	0.00e+00	0	61	0	2191523840	44	4643
2026-01-18 01:24:47.19	136.17	53.96	-36.8	-38.4	16.9	0.00e+00	0	61	0	2197815296	44	4534
2026-01-18 01:24:48.20	136.78	53.76	-36.8	-38.3	17.0	0.00e+00	0	61	0	2203058176	44	4483
2026-01-18 01:24:49.21	137.39	53.55	-36.9	-38.5	16.9	0.00e+00	0	61	0	2209349632	44	4567
2026-01-18 01:24:50.22	137.99	53.34	-36.9	-38.5	16.8	0.00e+00	0	61	0	2214592512	44	4578
2026-01-18 01:24:51.23	138.57	53.13	-37.0	-38.7	16.7	0.00e+00	0	61	0	2220883968	44	4659
2026-01-18 01:24:52.24	139.15	52.91	-37.0	-38.6	16.7	0.00e+00	0	61	0	2226126848	44	4631
2026-01-18 01:24:53.25	139.73	52.69	-36.8	-38.4	16.9	0.00e+00	0	61	0	2231369728	44	4495
2026-01-18 01:24:54.26	140.29	52.48	-36.6	-38.2	17.1	0.00e+00	0	61	0	2237661184	44	4417
2026-01-18 01:24:55.27	140.84	52.25	-36.8	-38.4	16.9	0.00e+00	0	61	0	2242904064	44	4509
2026-01-18 01:24:56.28	141.39	52.03	-36.8	-38.5	16.8	0.00e+00	0	61	0	2249195520	44	4563
2026-01-18 01:24:57.29	141.93	51.81	-36.7	-38.3	17.0	0.00e+00	0	61	0	2254438400	44	4485
2026-01-18 01:24:58.30	142.46	51.58	-36.5	-38.1	17.2	0.00e+00	0	61	0	2259681280	44	4352
2026-01-18 01:24:59.31	142.98	51.36	-36.4	-38.0	17.3	0.00e+00	0	61	0	2265972736	44	4295
2026-01-18 01:25:00.32	143.50	51.13	-36.4	-37.9	17.4	0.00e+00	0	61	0	2271215616	44	4276
2026-01-18 01:25:01.33	144.00	50.90	-36.4	-37.9	17.4	0.00e+00	0	61	0	2277507072	44	4280
2026-01-18 01:25:02.34	144.50	50.67	-36.4	-38.0	17.3	0.00e+00	0	61	0	2282749952	44	4300
2026-01-18 01:25:03.35	145.00	50.44	-36.4	-38.0	17.3	0.00e+00	0	61	0	2287992832	44	4293
2026-01-18 01:25:04.36	145.48	50.21	-36.4	-38.0	17.3	0.00e+00	0	61	0	2294284288	44	4299
2026-01-18 01:25:05.36	145.95	49.97	-36.4	-37.9	17.4	0.00e+00	0	61	0	2299527168	44	4280
2026-01-18 01:25:06.37	146.42	49.74	-36.3	-37.9	17.4	0.00e+00	0	61	0	2305818624	44	4255
2026-01-18 01:25:07.38	146.89	49.51	-36.3	-37.8	17.5	0.00e+00	0	61	0	2311061504	44	4212
2026-01-18 01:25:08.40	147.35	49.27	-36.2	-37.7	17.6	0.00e+00	0	61	0	2317352960	44	4157
2026-01-18 01:25:09.41	147.80	49.03	-36.1	-37.6	17.6	0.00e+00	0	61	0	2322595840	44	4133
2026-01-18 01:25:10.42	148.24	48.79	-36.3	-37.8	17.4	0.00e+00	0	61	0	2327838720	44	4234
2026-01-18 01:25:11.43	148.67	48.56	-36.4	-38.0	17.3	0.00e+00	0	61	0	2334130176	44	4295
2026-01-18 01:25:12.44	149.10	48.32	-36.3	-37.8	17.4	0.00e+00	0	61	0	2339373056	44	4223
2026-01-18 01:25:13.45	149.53	48.08	-36.0	-37.4	17.7	0.00e+00	0	61	0	2345664512	44	4051
2026-01-18 01:25:14.46	149.94	47.84	-35.7	-37.1	17.9	0.00e+00	0	61	0	2350907392	43	4132
2026-01-18 01:25:15.47	150.35	47.60	-35.6	-37.1	18.0	0.00e+00	0	61	0	2357198848	43	4110
2026-01-18 01:25:16.48	150.76	47.37	-35.7	-37.1	18.0	0.00e+00	0	61	0	2362441728	43	4122
2026-01-18 01:25:17.49	151.15	47.13	-35.6	-37.0	18.0	0.00e+00	0	61	0	2367684608	43	4096
2026-01-18 01:25:18.50	151.54	46.89	-35.7	-37.1	18.0	0.00e+00	0	61	0	2373976064	43	4131
2026-01-18 01:25:19.51	151.93	46.65	-35.9	-37.3	17.8	0.00e+00	0	61	0	2379218944	43	4232
2026-01-18 01:25:20.52	152.31	46.41	-36.0	-37.5	17.6	0.00e+00	0	61	0	2385510400	43	4308
2026-01-18 01:25:21.53	152.69	46.17	-36.0	-37.5	17.6	0.00e+00	0	61	0	2390753280	43	4319
2026-01-18 01:25:22.54	153.05	45.93	-35.9	-37.4	17.7	0.00e+00	0	61	0	2395996160	43	4250
2026-01-18 01:25:23.55	153.42	45.69	-35.9	-37.4	17.7	0.00e+00	0	61	0	2402287616	43	4249
2026-01-18 01:25:24.56	153.78	45.45	-35.9	-37.4	17.6	0.00e+00	0	61	0	2407530496	43	4259
2026-01-18 01:25:25.57	154.13	45.22	-35.9	-37.4	17.7	0.00e+00	0	61	0	2413821952	43	4268
2026-01-18 01:25:26.59	154.48	44.97	-35.8	-37.4	17.6	0.00e+00	0	61	0	2419064832	43	4245
2026-01-18 01:25:27.59	154.82	44.74	-35.8	-37.3	17.7	0.00e+00	0	61	0	2425356288	43	4239
2026-01-18 01:25:28.61	155.16	44.50	-35.9	-37.4	17.6	0.00e+00	0	61	0	2430599168	43	4264
2026-01-18 01:25:29.62	155.49	44.26	-35.9	-37.4	17.6	0.00e+00	0	61	0	2435842048	43	4279
2026-01-18 01:25:30.63	155.82	44.03	-35.9	-37.4	17.6	0.00e+00	0	61	0	2442133504	43	4260
2026-01-18 01:25:31.64	156.14	43.79	-36.0	-37.6	17.4	0.00e+00	0	61	0	2447376384	43	4342
2026-01-18 01:25:32.65	156.46	43.55	-36.0	-37.6	17.4	0.00e+00	0	61	0	2453667840	43	4371
2026-01-18 01:25:33.65	156.77	43.32	-36.0	-37.6	17.4	0.00e+00	0	61	0	2458910720	43	4345
2026-01-18 01:25:34.66	157.08	43.09	-35.8	-37.3	17.7	0.00e+00	0	61	0	2464153600	43	4216
2026-01-18 01:25:35.67	157.38	42.85	-35.6	-37.1	17.9	0.00e+00	0	61	0	2470445056	43	4113
2026-01-18 01:25:36.69	157.69	42.62	-35.6	-37.1	17.9	0.00e+00	0	61	0	2475687936	43	4102
2026-01-18 01:25:37.70	157.98	42.38	-35.7	-37.2	17.8	0.00e+00	0	61	0	2481979392	43	4149
2026-01-18 01:25:38.70	158.27	42.15	-35.8	-37.3	17.7	0.00e+00	0	61	0	2487222272	43	4212
2026-01-18 01:25:39.71	158.56	41.92	-35.8	-37.4	17.6	0.00e+00	0	61	0	2492465152	43	4257
2026-01-18 01:25:40.72	158.84	41.69	-35.8	-37.3	17.6	0.00e+00	0	61	0	2498756608	43	4222
2026-01-18 01:25:41.73	159.12	41.46	-35.8	-37.3	17.6	0.00e+00	0	61	0	2503999488	43	4225
2026-01-18 01:25:42.74	159.40	41.23	-35.8	-37.3	17.6	0.00e+00	0	61	0	2510290944	43	4228
2026-01-18 01:25:43.75	159.67	41.00	-35.8	-37.3	17.6	0.00e+00	0	61	0	2515533824	43	4214
2026-01-18 01:25:44.76	159.94	40.77	-35.7	-37.2	17.7	0.00e+00	0	61	0	2521825280	43	4173
2026-01-18 01:25:45.77	160.20	40.55	-35.6	-37.1	17.8	0.00e+00	0	61	0	2527068160	43	4105
2026-01-18 01:25:46.78	160.47	40.32	-35.5	-37.0	17.9	0.00e+00	0	61	0	2533359616	43	4067
2026-01-18 01:25:47.79	160.72	40.09	-35.5	-37.0	17.9	0.00e+00	0	61	0	2538602496	43	4069
2026-01-18 01:25:48.80	160.98	39.87	-35.5	-36.9	18.0	0.00e+00	0	61	0	2543845376	42	4272
2026-01-18 01:25:49.81	161.23	39.64	-35.5	-37.0	17.9	0.00e+00	0	61	0	2550136832	42	4296
2026-01-18 01:25:50.82	161.47	39.42	-35.5	-37.0	17.8	0.00e+00	0	61	0	2555379712	42	4323
2026-01-18 01:25:51.82	161.72	39.20	-35.5	-37.0	17.9	0.00e+00	0	61	0	2561671168	42	4317
2026-01-18 01:25:52.83	161.96	38.98	-35.5	-37.0	17.9	0.00e+00	0	61	0	2566914048	42	4303
2026-01-18 01:25:53.84	162.19	38.76	-35.4	-36.9	18.0	0.00e+00	0	61	0	2572156928	42	4267
2026-01-18 01:25:54.85	162.43	38.54	-35.4	-36.9	18.0	0.00e+00	0	61	0	2578448384	42	4243
2026-01-18 01:25:55.86	162.66	38.32	-35.4	-36.8	18.0	0.00e+00	0	61	0	2583691264	42	4218
2026-01-18 01:25:56.87	162.89	38.10	-35.3	-36.7	18.1	0.00e+00	0	61	0	2589982720	42	4184
2026-01-18 01:25:57.88	163.11	37.88	-35.3	-36.7	18.1	0.00e+00	0	61	0	2595225600	42	4192
2026-01-18 01:25:58.89	163.34	37.67	-35.3	-36.7	18.1	0.00e+00	0	61	0	2600468480	42	4191
2026-01-18 01:25:59.90	163.56	37.45	-35.4	-36.8	18.0	0.00e+00	0	61	0	2606759936	42	4225
2026-01-18 01:26:00.91	163.77	37.24	-35.4	-36.9	17.9	0.00e+00	0	61	0	2612002816	42	4282
2026-01-18 01:26:01.93	163.99	37.02	-35.4	-36.9	17.9	0.00e+00	0	61	0	2618294272	42	4270
2026-01-18 01:26:02.94	164.20	36.81	-35.5	-37.0	17.8	0.00e+00	0	61	0	2623537152	42	4308
2026-01-18 01:26:03.94	164.41	36.60	-35.5	-37.0	17.9	0.00e+00	0	61	0	2629828608	42	4296
2026-01-18 01:26:04.95	164.61	36.39	-35.5	-37.0	17.8	0.00e+00	0	61	0	2635071488	42	4318
2026-01-18 01:26:05.97	164.82	36.18	-35.6	-37.1	17.7	0.00e+00	0	61	0	2640314368	42	4352
2026-01-18 01:26:06.97	165.02	35.97	-35.6	-37.1	17.7	0.00e+00	0	61	0	2646605824	42	4347
2026-01-18 01:26:07.98	165.21	35.76	-35.6	-37.1	17.7	0.00e+00	0	61	0	2651848704	42	4350
2026-01-18 01:26:08.99	165.41	35.56	-35.6	-37.1	17.7	0.00e+00	0	61	0	2658140160	42	4369
2026-01-18 01:26:10.01	165.60	35.35	-35.6	-37.1	17.7	0.00e+00	0	61	0	2663383040	42	4368
2026-01-18 01:26:11.01	165.79	35.15	-35.5	-37.0	17.7	0.00e+00	0	61	0	2668625920	42	4335
2026-01-18 01:26:12.02	165.98	34.94	-35.5	-37.0	17.8	0.00e+00	0	61	0	2674917376	42	4306
2026-01-18 01:26:13.03	166.17	34.74	-35.5	-37.0	17.7	0.00e+00	0	61	0	2680160256	42	4330
2026-01-18 01:26:14.04	166.35	34.54	-35.4	-36.9	17.8	0.00e+00	0	61	0	2686451712	42	4284
2026-01-18 01:26:15.05	166.54	34.34	-35.4	-36.9	17.9	0.00e+00	0	61	0	2691694592	42	4265
2026-01-18 01:26:16.06	166.71	34.14	-35.4	-36.9	17.9	0.00e+00	0	61	0	2696937472	42	4246
2026-01-18 01:26:17.07	166.89	33.94	-35.4	-36.9	17.9	0.00e+00	0	61	0	2703228928	42	4248
2026-01-18 01:26:18.08	167.07	33.74	-35.4	-36.8	17.9	0.00e+00	0	61	0	2708471808	42	4225
2026-01-18 01:26:19.09	167.24	33.55	-35.4	-36.8	17.9	0.00e+00	0	61	0	2714763264	42	4240
2026-01-18 01:26:20.10	167.41	33.35	-35.4	-36.9	17.9	0.00e+00	0	61	0	2720006144	42	4269
2026-01-18 01:26:21.11	167.58	33.16	-35.5	-37.0	17.8	0.00e+00	0	61	0	2726297600	42	4313
2026-01-18 01:26:22.12	167.75	32.96	-35.6	-37.1	17.6	0.00e+00	0	61	0	2731540480	42	4390
2026-01-18 01:26:23.13	167.92	32.77	-35.7	-37.3	17.5	0.00e+00	0	61	0	2737831936	42	4443
2026-01-18 01:26:24.14	168.08	32.58	-35.8	-37.4	17.4	0.00e+00	0	61	0	2743074816	42	4496
2026-01-18 01:26:25.15	168.24	32.39	-35.8	-37.3	17.4	0.00e+00	0	61	0	2748317696	42	4491
2026-01-18 01:26:26.16	168.40	32.20	-35.8	-37.3	17.5	0.00e+00	0	61	0	2754609152	42	4477
2026-01-18 01:26:27.17	168.56	32.01	-35.8	-37.3	17.4	0.00e+00	0	61	0	2759852032	42	4467
2026-01-18 01:26:28.18	168.72	31.82	-35.8	-37.3	17.5	0.00e+00	0	61	0	2766143488	42	4464
2026-01-18 01:26:29.19	168.87	31.63	-35.7	-37.2	17.5	0.00e+00	0	61	0	2771386368	42	4422
2026-01-18 01:26:30.20	169.02	31.45	-35.7	-37.2	17.5	0.00e+00	0	61	0	2776629248	42	4422
2026-01-18 01:26:31.21	169.17	31.26	-35.7	-37.2	17.6	0.00e+00	0	61	0	2782920704	42	4399
2026-01-18 01:26:32.22	169.32	31.08	-35.7	-37.2	17.5	0.00e+00	0	61	0	2788163584	42	4417
2026-01-18 01:26:33.23	169.47	30.89	-35.7	-37.2	17.5	0.00e+00	0	61	0	2794455040	42	4436
2026-01-18 01:26:34.24	169.62	30.71	-35.7	-37.2	17.5	0.00e+00	0	61	0	2799697920	42	4420
2026-01-18 01:26:35.25	169.76	30.53	-35.7	-37.2	17.5	0.00e+00	0	61	0	2804940800	42	4433
2026-01-18 01:26:36.26	169.91	30.35	-35.7	-37.2	17.5	0.00e+00	0	61	0	2811232256	42	4427
2026-01-18 01:26:37.27	170.05	30.17	-35.7	-37.3	17.5	0.00e+00	0	61	0	2816475136	42	4454
2026-01-18 01:26:38.28	170.19	29.99	-35.8	-37.3	17.5	0.00e+00	0	61	0	2822766592	42	4462
2026-01-18 01:26:39.29	170.33	29.81	-35.8	-37.3	17.4	0.00e+00	0	61	0	2828009472	42	4467
2026-01-18 01:26:40.30	170.46	29.64	-35.8	-37.4	17.4	0.00e+00	0	61	0	2834300928	42	4495
2026-01-18 01:26:41.31	170.60	29.46	-35.8	-37.4	17.4	0.00e+00	0	61	0	2839543808	42	4506
2026-01-18 01:26:42.32	170.73	29.29	-35.8	-37.4	17.4	0.00e+00	0	61	0	2844786688	42	4511
2026-01-18 01:26:43.33	170.87	29.11	-36.0	-37.5	17.2	0.00e+00	0	61	0	2851078144	42	4591
2026-01-18 01:26:44.34	171.00	28.94	-35.9	-37.5	17.2	0.00e+00	0	61	0	2856321024	42	4551
2026-01-18 01:26:45.35	171.13	28.77	-36.0	-37.6	17.2	0.00e+00	0	61	0	2862612480	42	4614
2026-01-18 01:26:46.36	171.26	28.60	-35.9	-37.5	17.2	0.00e+00	0	61	0	2867855360	42	4578
2026-01-18 01:26:47.37	171.38	28.43	-36.0	-37.6	17.2	0.00e+00	0	61	0	2873098240	42	4606
2026-01-18 01:26:48.37	171.51	28.26	-35.9	-37.5	17.3	0.00e+00	0	61	0	2879389696	42	4552
2026-01-18 01:26:49.38	171.63	28.09	-35.9	-37.4	17.3	0.00e+00	0	61	0	2884632576	42	4541
2026-01-18 01:26:50.39	171.76	27.92	-35.7	-37.2	17.5	0.00e+00	0	61	0	2890924032	42	4439
2026-01-18 01:26:51.40	171.88	27.75	-35.7	-37.2	17.5	0.00e+00	0	61	0	2896166912	42	4406
2026-01-18 01:26:52.41	172.00	27.59	-35.6	-37.1	17.6	0.00e+00	0	61	0	2901409792	42	4368
2026-01-18 01:26:53.42	172.12	27.42	-35.5	-37.0	17.7	0.00e+00	0	61	0	2907701248	42	4310
2026-01-18 01:26:54.43	172.24	27.26	-35.5	-37.0	17.7	0.00e+00	0	61	0	2912944128	42	4296
2026-01-18 01:26:55.44	172.36	27.10	-35.5	-37.0	17.7	0.00e+00	0	61	0	2919235584	42	4312
2026-01-18 01:26:56.45	172.47	26.93	-35.6	-37.0	17.7	0.00e+00	0	61	0	2924478464	42	4330
2026-01-18 01:26:57.46	172.59	26.77	-35.6	-37.1	17.6	0.00e+00	0	61	0	2930769920	42	4365
2026-01-18 01:26:58.47	172.70	26.61	-35.7	-37.1	17.5	0.00e+00	0	61	0	2936012800	42	4389
2026-01-18 01:26:59.48	172.81	26.45	-35.8	-37.3	17.4	0.00e+00	0	61	0	2942304256	42	4461
2026-01-18 01:27:00.49	172.93	26.29	-35.8	-37.4	17.3	0.00e+00	0	61	0	2947547136	42	4512
2026-01-18 01:27:01.50	173.04	26.13	-35.9	-37.4	17.3	0.00e+00	0	61	0	2952790016	42	4522
2026-01-18 01:27:02.51	173.15	25.98	-35.9	-37.4	17.2	0.00e+00	0	61	0	2959081472	42	4532
2026-01-18 01:27:03.52	173.26	25.82	-36.0	-37.5	17.2	0.00e+00	0	61	0	2964324352	42	4586
2026-01-18 01:27:04.53	173.36	25.66	-36.0	-37.5	17.2	0.00e+00	0	61	0	2970615808	42	4583
2026-01-18 01:27:05.54	173.47	25.51	-36.0	-37.5	17.2	0.00e+00	0	61	0	2975858688	42	4579
2026-01-18 01:27:06.55	173.58	25.36	-36.0	-37.5	17.1	0.00e+00	0	61	0	2981101568	42	4598
2026-01-18 01:27:07.56	173.68	25.20	-36.0	-37.5	17.2	0.00e+00	0	61	0	2987393024	42	4576
2026-01-18 01:27:08.57	173.78	25.05	-36.0	-37.5	17.2	0.00e+00	0	61	0	2992635904	42	4582
2026-01-18 01:27:09.58	173.89	24.90	-36.0	-37.5	17.2	0.00e+00	0	61	0	2998927360	42	4575
2026-01-18 01:27:10.59	173.99	24.75	-35.9	-37.5	17.3	0.00e+00	0	61	0	3004170240	42	4546
2026-01-18 01:27:11.60	174.09	24.60	-35.9	-37.4	17.3	0.00e+00	0	61	0	3009413120	42	4542
2026-01-18 01:27:12.61	174.19	24.45	-35.9	-37.4	17.3	0.00e+00	0	61	0	3015704576	42	4538
2026-01-18 01:27:13.62	174.29	24.30	-35.9	-37.4	17.3	0.00e+00	0	61	0	3020947456	42	4539
2026-01-18 01:27:14.63	174.39	24.15	-35.9	-37.5	17.2	0.00e+00	0	61	0	3027238912	42	4564
2026-01-18 01:27:15.64	174.48	24.00	-36.0	-37.5	17.2	0.00e+00	0	61	0	3032481792	42	4578
2026-01-18 01:27:16.65	174.58	23.86	-36.0	-37.5	17.1	0.00e+00	0	61	0	3038773248	42	4594
2026-01-18 01:27:17.66	174.68	23.71	-36.0	-37.6	17.1	0.00e+00	0	61	0	3044016128	42	4609
2026-01-18 01:27:18.67	174.77	23.57	-36.0	-37.6	17.1	0.00e+00	0	61	0	3049259008	42	4638
2026-01-18 01:27:19.68	174.87	23.42	-36.1	-37.6	17.0	0.00e+00	0	61	0	3055550464	42	4640
2026-01-18 01:27:20.69	174.96	23.28	-36.1	-37.7	17.0	0.00e+00	0	61	0	3060793344	42	4694
2026-01-18 01:27:21.70	175.05	23.14	-36.1	-37.7	17.0	0.00e+00	0	61	0	3067084800	42	4665
2026-01-18 01:27:22.71	175.14	22.99	-36.2	-37.8	16.9	0.00e+00	0	61	0	3072327680	42	4744
2026-01-18 01:27:23.72	175.23	22.85	-36.2	-37.9	16.8	0.00e+00	0	61	0	3078619136	43	4494
2026-01-18 01:27:24.73	175.32	22.71	-36.3	-37.9	16.7	0.00e+00	0	61	0	3083862016	43	4543
2026-01-18 01:27:25.74	175.41	22.57	-36.3	-38.0	16.7	0.00e+00	0	61	0	3089104896	43	4546
2026-01-18 01:27:26.75	175.50	22.43	-36.4	-38.0	16.7	0.00e+00	0	61	0	3095396352	43	4571
2026-01-18 01:27:27.76	175.59	22.29	-36.4	-38.1	16.6	0.00e+00	0	61	0	3100639232	43	4609
2026-01-18 01:27:28.77	175.67	22.16	-36.4	-38.0	16.6	0.00e+00	0	61	0	3106930688	43	4592
2026-01-18 01:27:29.78	175.76	22.02	-36.4	-38.0	16.6	0.00e+00	0	61	0	3112173568	43	4586
2026-01-18 01:27:30.79	175.85	21.88	-36.5	-38.1	16.6	0.00e+00	0	61	0	3117416448	43	4621
2026-01-18 01:27:31.80	175.93	21.75	-36.5	-38.1	16.5	0.00e+00	0	61	0	3123707904	43	4647
2026-01-18 01:27:32.81	176.01	21.61	-36.5	-38.2	16.5	0.00e+00	0	61	0	3128950784	43	4661
2026-01-18 01:27:33.82	176.10	21.48	-36.5	-38.2	16.4	0.00e+00	0	61	0	3135242240	43	4678
2026-01-18 01:27:34.83	176.18	21.34	-36.6	-38.3	16.4	0.00e+00	0	61	0	3140485120	43	4714
2026-01-18 01:27:35.84	176.26	21.21	-36.6	-38.3	16.4	0.00e+00	0	61	0	3146776576	43	4733
2026-01-18 01:27:36.85	176.34	21.08	-36.6	-38.3	16.4	0.00e+00	0	61	0	3152019456	43	4707
2026-01-18 01:27:37.86	176.42	20.94	-36.7	-38.4	16.2	0.00e+00	0	61	0	3157262336	43	4773
2026-01-18 01:27:38.87	176.50	20.81	-36.9	-38.6	16.2	0.00e+00	0	61	0	3163553792	44	4630
2026-01-18 01:27:39.88	176.58	20.68	-36.9	-38.7	16.1	0.00e+00	0	61	0	3168796672	44	4657
2026-01-18 01:27:40.90	176.66	20.55	-37.0	-38.8	16.0	0.00e+00	0	61	0	3175088128	44	4706
2026-01-18 01:27:41.91	176.74	20.42	-37.1	-38.9	15.9	0.00e+00	0	61	0	3180331008	44	4789
2026-01-18 01:27:42.92	176.82	20.29	-37.1	-38.9	15.9	0.00e+00	0	61	0	3185573888	44	4796
2026-01-18 01:27:43.93	176.89	20.16	-37.2	-39.0	15.8	0.00e+00	0	61	0	3191865344	44	4824
2026-01-18 01:27:44.94	176.97	20.04	-37.2	-39.0	15.8	0.00e+00	0	61	0	3197108224	44	4826
2026-01-18 01:27:45.95	177.05	19.91	-37.3	-39.1	15.7	0.00e+00	0	61	0	3203399680	45	4612
2026-01-18 01:27:46.96	177.12	19.78	-37.2	-39.0	15.8	0.00e+00	0	61	0	3208642560	45	4569
2026-01-18 01:27:47.97	177.19	19.66	-37.3	-39.1	15.6	0.00e+00	0	61	0	3214934016	45	4641
2026-01-18 01:27:48.98	177.27	19.53	-37.3	-39.1	15.7	0.00e+00	0	61	0	3220176896	45	4615
2026-01-18 01:27:49.99	177.34	19.41	-37.3	-39.1	15.6	0.00e+00	0	61	0	3225419776	45	4637
2026-01-18 01:27:51.00	177.41	19.28	-37.3	-39.1	15.6	0.00e+00	0	61	0	3231711232	45	4631
2026-01-18 01:27:52.01	177.49	19.16	-37.2	-39.0	15.7	0.00e+00	0	61	0	3236954112	45	4583
2026-01-18 01:27:53.02	177.56	19.04	-37.1	-38.9	15.8	0.00e+00	0	61	0	3243245568	45	4527
2026-01-18 01:27:54.03	177.63	18.91	-37.2	-39.0	15.7	0.00e+00	0	61	0	3248488448	45	4595
2026-01-18 01:27:55.04	177.70	18.79	-37.1	-38.9	15.9	0.00e+00	0	61	0	3254779904	45	4503
2026-01-18 01:27:56.05	177.77	18.67	-37.2	-39.0	15.8	0.00e+00	0	61	0	3260022784	45	4558
2026-01-18 01:27:57.06	177.84	18.55	-37.2	-39.0	15.8	0.00e+00	0	61	0	3265265664	45	4560
2026-01-18 01:27:58.07	177.91	18.43	-37.1	-38.9	15.8	0.00e+00	0	61	0	3271557120	45	4515
2026-01-18 01:27:59.08	177.98	18.31	-37.3	-39.1	15.7	0.00e+00	0	61	0	3276800000	45	4600
2026-01-18 01:28:00.09	178.04	18.19	-37.2	-39.0	15.8	0.00e+00	0	61	0	3283091456	45	4553
2026-01-18 01:28:01.10	178.11	18.07	-37.3	-39.1	15.7	0.00e+00	0	61	0	3288334336	45	4617
2026-01-18 01:28:02.11	178.18	17.96	-37.3	-39.0	15.7	0.00e+00	0	61	0	3293577216	45	4597
2026-01-18 01:28:03.12	178.24	17.84	-37.3	-39.1	15.6	0.00e+00	0	61	0	3299868672	45	4628
2026-01-18 01:28:04.13	178.31	17.72	-37.3	-39.2	15.6	0.00e+00	0	61	0	3305111552	45	4655
2026-01-18 01:28:05.14	178.37	17.61	-37.4	-39.3	15.5	1.10e-06	0	61	0	3311403008	45	4714
2026-01-18 01:28:06.15	178.44	17.49	-37.5	-39.3	15.4	0.00e+00	0	61	0	3316645888	45	4753
2026-01-18 01:28:07.16	178.50	17.37	-37.5	-39.3	15.4	0.00e+00	0	61	0	3321888768	45	4745
2026-01-18 01:28:08.17	178.57	17.26	-37.6	-39.4	15.3	0.00e+00	0	61	0	3328180224	45	4805
2026-01-18 01:28:09.18	178.63	17.15	-37.6	-39.5	15.2	0.00e+00	0	61	0	3333423104	45	4859
2026-01-18 01:28:10.19	178.69	17.03	-37.7	-39.6	15.1	0.00e+00	0	61	0	3339714560	46	4651
2026-01-18 01:28:11.20	178.76	16.92	-37.7	-39.7	15.1	0.00e+00	0	61	0	3344957440	46	4662
2026-01-18 01:28:12.21	178.82	16.81	-37.8	-39.8	15.0	1.10e-06	0	61	0	3351248896	46	4712
2026-01-18 01:28:13.22	178.88	16.69	-37.9	-39.9	14.8	0.00e+00	0	61	0	3356491776	46	4780
2026-01-18 01:28:14.23	178.94	16.58	-38.0	-39.9	14.8	0.00e+00	0	61	0	3362783232	46	4801
2026-01-18 01:28:15.24	179.00	16.47	-37.9	-39.8	14.9	0.00e+00	0	61	0	3368026112	46	4742
2026-01-18 01:28:16.24	179.06	16.36	-38.0	-40.0	14.8	0.00e+00	0	61	0	3373268992	46	4823
2026-01-18 01:28:17.26	179.12	16.25	-37.9	-39.9	14.8	0.00e+00	0	61	0	3379560448	46	4797
2026-01-18 01:28:18.27	179.18	16.14	-38.0	-40.0	14.7	0.00e+00	0	61	0	3384803328	46	4825
2026-01-18 01:28:19.27	179.24	16.03	-37.9	-39.8	14.9	0.00e+00	0	61	0	3391094784	46	4752
2026-01-18 01:28:20.28	179.30	15.92	-37.9	-39.9	14.9	1.10e-06	0	61	0	3396337664	46	4766
2026-01-18 01:28:21.29	179.36	15.81	-38.0	-40.0	14.7	0.00e+00	0	61	0	3401580544	46	4840
2026-01-18 01:28:22.30	179.42	15.70	-37.9	-39.9	14.8	2.20e-06	0	61	0	3407872000	46	4798
2026-01-18 01:28:23.31	179.47	15.60	-37.9	-39.8	14.9	0.00e+00	0	61	0	3413114880	46	4750
2026-01-18 01:28:24.32	179.53	15.49	-38.1	-40.1	14.7	0.00e+00	0	61	0	3419406336	46	4873
2026-01-18 01:28:25.33	179.59	15.38	-37.9	-39.9	14.8	1.10e-06	0	61	0	3424649216	46	4793
2026-01-18 01:28:26.34	179.64	15.28	-37.8	-39.7	15.0	0.00e+00	0	61	0	3429892096	46	4673
2026-01-18 01:28:27.35	179.70	15.17	-37.8	-39.7	15.0	0.00e+00	0	61	0	3436183552	46	4683
2026-01-18 01:28:28.36	179.76	15.07	-37.9	-39.9	14.8	0.00e+00	0	61	0	3441426432	46	4778
