passes_logs/2026/01/18/R2.0S_Moscow/R2.0S_Moscow__20260118_024012_AQUA_rec.log

#Pass ID: 20260118_024012_AQUA
#Satellite: AQUA
#Configuration: AQUA
#almurnet v.1.7.20251203
#Start time: 2026-01-18 02:40:12

#Version: 2.2.20231116
#Station: R2.0S_Moscow
#Location: 37.707566 lon 55.798166 lat
#TLE: 1 27424U 02022A   26017.29152041  .00000842  00000+0  17841-3 0  9992
#TLE: 2 27424  98.4085 343.7574 0002011  75.4099  30.6811 14.61825797261228

#Time	Az	El	Level	Level2	SNR	BER	BlckErr	Temp	State	Recorded	gain1	gain2
2026-01-18 02:40:12.36	8.29	1.98	-40.3	-59.9	3.8	7.45e-01	0	51	0	0	52	33862
2026-01-18 02:40:13.37	8.23	2.04	-40.2	-59.9	3.8	7.42e-01	0	51	104	0	51	35838
2026-01-18 02:40:14.38	8.16	2.10	-40.2	-59.9	3.8	7.41e-01	0	51	104	0	51	35826
2026-01-18 02:40:15.39	8.10	2.16	-40.2	-59.9	3.8	7.49e-01	0	51	104	0	51	35815
2026-01-18 02:40:16.40	8.03	2.22	-40.2	-59.9	3.8	7.47e-01	0	51	104	0	51	35810
2026-01-18 02:40:17.41	7.97	2.28	-40.2	-59.9	3.8	7.45e-01	0	51	104	0	51	35801
2026-01-18 02:40:18.43	7.90	2.34	-40.2	-59.9	3.8	7.44e-01	0	52	104	0	51	35755
2026-01-18 02:40:19.44	7.84	2.41	-40.2	-59.8	3.8	7.44e-01	0	51	104	0	51	35689
2026-01-18 02:40:20.45	7.77	2.47	-40.2	-59.8	3.8	7.47e-01	0	52	104	0	51	35683
2026-01-18 02:40:21.46	7.70	2.53	-40.2	-59.8	3.8	7.45e-01	0	52	104	0	51	35684
2026-01-18 02:40:22.47	7.64	2.59	-40.2	-59.9	3.8	7.47e-01	0	52	104	0	51	35802
2026-01-18 02:40:23.48	7.57	2.65	-40.2	-59.9	3.8	7.47e-01	0	52	104	0	51	35726
2026-01-18 02:40:24.49	7.50	2.71	-40.2	-59.9	3.8	7.45e-01	0	52	104	0	51	35722
2026-01-18 02:40:25.50	7.43	2.78	-40.3	-59.9	3.8	7.44e-01	0	52	104	0	51	35733
2026-01-18 02:40:26.51	7.37	2.84	-40.2	-59.8	3.8	7.47e-01	0	52	104	0	51	35639
2026-01-18 02:40:27.52	7.30	2.90	-40.2	-59.9	3.8	7.47e-01	0	52	104	0	51	35733
2026-01-18 02:40:28.53	7.23	2.96	-40.2	-59.8	3.8	7.45e-01	0	52	104	0	51	35679
2026-01-18 02:40:29.54	7.16	3.03	-40.2	-59.8	3.8	7.44e-01	0	52	104	0	51	35638
2026-01-18 02:40:30.55	7.09	3.09	-40.2	-59.9	3.8	7.45e-01	0	52	104	0	51	35722
2026-01-18 02:40:31.56	7.02	3.15	-40.2	-59.9	3.8	7.44e-01	0	53	104	0	51	35730
2026-01-18 02:40:32.58	6.95	3.22	-40.2	-59.9	3.8	7.46e-01	0	53	104	0	51	35693
2026-01-18 02:40:33.59	6.88	3.28	-40.2	-59.9	3.8	7.43e-01	0	53	104	0	51	35706
2026-01-18 02:40:34.60	6.81	3.34	-40.2	-59.8	3.8	7.46e-01	0	53	104	0	51	35652
2026-01-18 02:40:35.61	6.74	3.40	-40.2	-59.9	3.8	7.48e-01	0	53	104	0	51	35714
2026-01-18 02:40:36.62	6.67	3.47	-40.2	-59.9	3.8	7.46e-01	0	53	104	0	51	35711
2026-01-18 02:40:37.63	6.59	3.53	-40.2	-59.8	3.8	7.47e-01	0	53	104	0	51	35690
2026-01-18 02:40:38.64	6.52	3.60	-40.2	-59.8	3.8	7.44e-01	0	53	104	0	51	35669
2026-01-18 02:40:39.65	6.45	3.66	-40.2	-59.8	3.8	7.47e-01	0	53	104	0	51	35634
2026-01-18 02:40:40.66	6.38	3.72	-40.2	-59.8	3.8	7.44e-01	0	53	104	0	51	35625
2026-01-18 02:40:41.68	6.30	3.79	-40.2	-59.9	3.8	7.47e-01	0	53	104	0	51	35764
2026-01-18 02:40:42.69	6.23	3.85	-40.2	-59.8	3.8	7.46e-01	0	53	104	0	51	35644
2026-01-18 02:40:43.70	6.16	3.92	-40.2	-59.9	3.8	7.46e-01	0	53	104	0	51	35712
2026-01-18 02:40:44.71	6.08	3.98	-40.2	-59.8	3.8	7.46e-01	0	53	104	0	51	35673
2026-01-18 02:40:45.72	6.01	4.05	-40.2	-59.9	3.8	7.45e-01	0	53	104	0	51	35718
2026-01-18 02:40:46.73	5.93	4.11	-40.2	-59.8	3.8	7.45e-01	0	53	104	0	51	35687
2026-01-18 02:40:47.74	5.86	4.17	-40.2	-59.9	3.8	7.46e-01	0	53	104	0	51	35710
2026-01-18 02:40:48.74	5.78	4.24	-40.2	-59.9	3.8	7.49e-01	0	54	104	0	51	35760
2026-01-18 02:40:49.75	5.70	4.30	-40.2	-59.8	3.8	7.46e-01	0	53	104	0	51	35681
2026-01-18 02:40:50.76	5.63	4.37	-40.2	-59.9	3.8	7.47e-01	0	54	104	0	51	35754
2026-01-18 02:40:51.77	5.55	4.43	-40.2	-59.8	3.8	7.45e-01	0	54	104	0	51	35689
2026-01-18 02:40:52.78	5.47	4.50	-40.2	-59.8	3.8	7.48e-01	0	54	104	0	51	35662
2026-01-18 02:40:53.79	5.40	4.57	-40.2	-59.9	3.8	7.48e-01	0	54	104	0	51	35714
2026-01-18 02:40:54.81	5.32	4.63	-40.2	-59.9	3.8	7.44e-01	0	54	104	0	51	35700
2026-01-18 02:40:55.82	5.24	4.70	-40.2	-59.9	3.8	7.48e-01	0	54	104	0	51	35746
2026-01-18 02:40:56.83	5.16	4.76	-40.2	-59.9	3.8	7.47e-01	0	54	104	0	51	35725
2026-01-18 02:40:57.84	5.08	4.83	-40.2	-59.9	3.8	7.45e-01	0	54	104	0	51	35703
2026-01-18 02:40:58.85	5.00	4.90	-40.2	-59.8	3.8	7.47e-01	0	54	104	0	51	35684
2026-01-18 02:40:59.86	4.92	4.96	-40.2	-59.8	3.8	7.46e-01	0	54	104	0	51	35638
2026-01-18 02:41:00.87	4.84	5.03	-40.2	-59.8	3.8	7.45e-01	0	54	104	0	51	35687
2026-01-18 02:41:01.88	4.76	5.10	-40.2	-59.8	3.8	7.43e-01	0	54	104	0	51	35578
2026-01-18 02:41:02.89	4.67	5.16	-40.2	-59.8	3.8	7.45e-01	0	54	104	0	51	35647
2026-01-18 02:41:03.91	4.59	5.23	-40.2	-59.8	3.8	7.46e-01	0	54	104	0	51	35612
2026-01-18 02:41:04.92	4.51	5.30	-40.2	-59.8	3.8	7.43e-01	0	55	104	0	51	35585
2026-01-18 02:41:05.93	4.43	5.36	-40.2	-59.8	3.8	7.46e-01	0	55	104	0	51	35564
2026-01-18 02:41:06.94	4.34	5.43	-40.2	-59.8	3.8	7.42e-01	0	55	104	0	51	35653
2026-01-18 02:41:07.95	4.26	5.50	-40.2	-59.8	3.8	7.46e-01	0	54	104	0	51	35613
2026-01-18 02:41:08.96	4.17	5.57	-40.2	-59.8	3.8	7.46e-01	0	55	104	0	51	35614
2026-01-18 02:41:09.97	4.09	5.63	-40.2	-59.8	3.8	7.45e-01	0	55	104	0	51	35628
2026-01-18 02:41:10.98	4.00	5.70	-40.2	-59.8	3.8	7.45e-01	0	55	104	0	51	35629
2026-01-18 02:41:11.99	3.92	5.77	-40.2	-59.9	3.8	7.45e-01	0	55	104	0	51	35698
2026-01-18 02:41:13.01	3.83	5.84	-40.2	-59.8	3.8	7.44e-01	0	55	104	0	51	35637
2026-01-18 02:41:14.02	3.75	5.91	-40.2	-59.8	3.8	7.46e-01	0	55	104	0	51	35628
2026-01-18 02:41:15.03	3.66	5.98	-40.2	-59.8	3.8	7.45e-01	0	55	104	0	51	35519
2026-01-18 02:41:16.04	3.57	6.04	-40.2	-59.8	3.8	7.44e-01	0	55	104	0	51	35650
2026-01-18 02:41:17.05	3.48	6.11	-40.2	-59.8	3.8	7.46e-01	0	55	104	0	51	35590
2026-01-18 02:41:18.06	3.40	6.18	-40.2	-59.8	3.8	7.44e-01	0	55	104	0	51	35556
2026-01-18 02:41:19.07	3.31	6.25	-40.2	-59.8	3.8	7.47e-01	0	55	104	0	51	35582
2026-01-18 02:41:20.08	3.22	6.32	-40.2	-59.8	3.8	7.46e-01	0	55	104	0	51	35570
2026-01-18 02:41:21.09	3.13	6.39	-40.2	-59.8	3.8	7.46e-01	0	55	104	0	51	35626
2026-01-18 02:41:22.10	3.04	6.46	-40.2	-59.8	3.8	7.45e-01	0	55	104	0	51	35612
2026-01-18 02:41:23.11	2.95	6.53	-40.2	-59.8	3.8	7.44e-01	0	55	104	0	51	35580
2026-01-18 02:41:24.13	2.85	6.60	-40.2	-59.8	3.8	7.46e-01	0	55	104	0	51	35552
2026-01-18 02:41:25.14	2.76	6.67	-40.2	-59.8	3.8	7.45e-01	0	55	104	0	51	35552
2026-01-18 02:41:26.15	2.67	6.74	-40.2	-59.8	3.8	7.45e-01	0	55	104	0	51	35486
2026-01-18 02:41:27.16	2.58	6.81	-40.2	-59.8	3.8	7.47e-01	0	55	104	0	51	35518
2026-01-18 02:41:28.17	2.48	6.88	-40.2	-59.8	3.8	7.51e-01	0	55	104	0	51	35566
2026-01-18 02:41:29.18	2.39	6.95	-40.1	-59.8	3.8	7.45e-01	0	55	104	0	51	35505
2026-01-18 02:41:30.19	2.30	7.02	-40.1	-59.8	3.8	7.41e-01	0	56	104	0	51	35483
2026-01-18 02:41:31.20	2.20	7.09	-40.2	-59.8	3.8	7.42e-01	0	56	104	0	51	35429
2026-01-18 02:41:32.21	2.10	7.16	-40.1	-59.8	3.8	7.45e-01	0	56	104	0	51	35487
2026-01-18 02:41:33.22	2.01	7.23	-40.1	-59.8	3.8	7.46e-01	0	56	104	0	51	35488
2026-01-18 02:41:34.23	1.91	7.30	-40.2	-59.8	3.8	7.43e-01	0	56	104	0	51	35484
2026-01-18 02:41:35.24	1.82	7.37	-40.1	-59.8	3.8	7.46e-01	0	56	104	0	51	35458
2026-01-18 02:41:36.25	1.72	7.45	-40.1	-59.8	3.8	7.44e-01	0	56	104	0	51	35403
2026-01-18 02:41:37.27	1.62	7.52	-40.1	-59.8	3.8	7.46e-01	0	56	104	0	51	35372
2026-01-18 02:41:38.28	1.52	7.59	-40.2	-59.8	3.8	7.47e-01	0	56	104	0	51	35482
2026-01-18 02:41:39.29	1.42	7.66	-40.1	-59.8	3.8	7.44e-01	0	56	104	0	51	35384
2026-01-18 02:41:40.30	1.32	7.73	-40.1	-59.8	3.8	7.49e-01	0	56	104	0	51	35548
2026-01-18 02:41:41.31	1.22	7.81	-40.2	-59.8	3.8	7.45e-01	0	56	104	0	51	35401
2026-01-18 02:41:42.32	1.12	7.88	-40.2	-59.8	3.8	7.46e-01	0	56	104	0	51	35392
2026-01-18 02:41:43.33	1.02	7.95	-40.1	-59.8	3.8	7.42e-01	0	56	104	0	51	35368
2026-01-18 02:41:44.34	0.92	8.02	-40.2	-59.8	3.8	7.42e-01	0	56	104	0	51	35456
2026-01-18 02:41:45.35	0.81	8.10	-40.2	-59.8	3.8	7.48e-01	0	56	104	0	51	35397
2026-01-18 02:41:46.36	0.71	8.17	-40.2	-59.9	3.8	7.44e-01	0	56	104	0	51	35824
2026-01-18 02:41:47.37	0.61	8.24	-40.2	-60.0	3.8	7.41e-01	0	56	104	0	51	36205
2026-01-18 02:41:48.38	0.50	8.32	-40.4	-60.0	3.8	7.44e-01	0	56	104	0	51	36189
2026-01-18 02:41:49.39	0.40	8.39	-40.3	-60.0	3.8	7.42e-01	0	56	104	0	51	36364
2026-01-18 02:41:50.40	0.29	8.46	-40.1	-60.0	3.8	7.43e-01	0	56	104	0	51	36193
2026-01-18 02:41:51.41	0.19	8.54	-40.2	-60.0	3.8	7.45e-01	0	56	104	0	51	36387
2026-01-18 02:41:52.42	0.08	8.61	-39.7	-60.0	3.8	7.43e-01	0	56	104	0	51	36244
2026-01-18 02:41:53.43	359.97	8.68	-39.7	-60.0	3.8	7.46e-01	0	56	104	0	50	38670
2026-01-18 02:41:54.43	359.87	8.76	-40.0	-60.0	3.8	7.42e-01	0	56	104	0	51	36350
2026-01-18 02:41:55.44	359.76	8.83	-39.6	-60.1	3.8	7.46e-01	0	57	104	0	51	36573
2026-01-18 02:41:56.45	359.65	8.91	-40.2	-60.0	3.8	7.46e-01	0	56	104	0	51	36372
2026-01-18 02:41:57.46	359.54	8.98	-39.7	-60.0	3.8	7.43e-01	0	56	104	0	51	36464
2026-01-18 02:41:58.47	359.43	9.06	-39.4	-60.0	3.8	7.47e-01	0	57	104	0	50	38440
2026-01-18 02:41:59.48	359.32	9.13	-39.5	-60.0	3.8	7.46e-01	0	57	104	0	50	38555
2026-01-18 02:42:00.49	359.20	9.21	-39.8	-60.0	3.8	7.46e-01	0	56	104	0	50	38254
2026-01-18 02:42:01.50	359.09	9.28	-39.6	-60.0	3.8	7.47e-01	0	57	104	0	50	38680
2026-01-18 02:42:02.51	358.98	9.36	-39.7	-60.0	3.8	7.45e-01	0	57	104	0	50	38510
2026-01-18 02:42:03.51	358.87	9.43	-39.8	-60.0	3.8	7.48e-01	0	57	104	0	51	36455
2026-01-18 02:42:04.53	358.75	9.51	-39.6	-60.0	3.8	7.43e-01	0	57	104	0	51	36474
2026-01-18 02:42:05.54	358.64	9.58	-40.0	-60.0	3.8	7.45e-01	0	57	104	0	51	36355
2026-01-18 02:42:06.55	358.52	9.66	-40.1	-60.0	3.8	7.46e-01	0	57	104	0	51	36320
2026-01-18 02:42:07.56	358.40	9.73	-40.1	-60.0	3.8	7.46e-01	0	57	104	0	51	36319
2026-01-18 02:42:08.57	358.29	9.81	-39.9	-60.0	3.8	7.46e-01	0	57	104	0	51	36370
2026-01-18 02:42:09.58	358.17	9.89	-40.2	-60.0	3.8	7.46e-01	0	57	104	0	51	36483
2026-01-18 02:42:10.59	358.05	9.96	-40.2	-60.1	3.8	7.47e-01	0	57	104	0	51	36575
2026-01-18 02:42:11.60	357.93	10.04	-40.2	-60.0	3.8	7.46e-01	0	57	104	0	51	36512
2026-01-18 02:42:12.61	357.81	10.12	-40.2	-60.1	3.8	7.49e-01	0	57	104	0	51	36892
2026-01-18 02:42:13.62	357.69	10.19	-40.0	-60.0	3.8	7.46e-01	0	57	104	0	51	36409
2026-01-18 02:42:14.63	357.57	10.27	-40.5	-60.1	3.8	7.41e-01	0	57	104	0	51	36680
2026-01-18 02:42:15.64	357.45	10.35	-40.0	-60.0	3.8	7.45e-01	0	57	104	0	51	36309
2026-01-18 02:42:16.65	357.33	10.43	-40.1	-60.1	3.8	7.46e-01	0	57	104	0	51	36865
2026-01-18 02:42:17.65	357.20	10.50	-40.4	-60.1	3.8	7.44e-01	0	57	104	0	51	36786
2026-01-18 02:42:18.66	357.08	10.58	-40.7	-60.3	3.8	7.47e-01	0	57	104	0	51	37488
2026-01-18 02:42:19.68	356.95	10.66	-40.5	-60.2	3.8	7.45e-01	0	57	104	0	51	37006
2026-01-18 02:42:20.69	356.83	10.74	-40.7	-60.3	3.8	7.45e-01	0	57	104	0	52	35619
2026-01-18 02:42:21.70	356.70	10.82	-39.8	-60.1	3.7	7.45e-01	0	57	104	0	51	36741
2026-01-18 02:42:22.71	356.58	10.89	-39.7	-60.0	3.8	7.46e-01	0	57	104	0	51	36491
2026-01-18 02:42:23.72	356.45	10.97	-39.9	-60.1	3.8	7.45e-01	0	57	104	0	51	36723
2026-01-18 02:42:24.72	356.32	11.05	-40.1	-60.0	3.8	7.43e-01	0	57	104	0	51	36253
2026-01-18 02:42:25.74	356.19	11.13	-40.3	-60.0	3.8	7.45e-01	0	57	104	0	51	36394
2026-01-18 02:42:26.75	356.06	11.21	-40.7	-60.5	3.8	7.43e-01	0	57	104	0	52	36271
2026-01-18 02:42:27.76	355.93	11.29	-40.5	-60.1	3.8	7.45e-01	0	58	104	0	52	34874
2026-01-18 02:42:28.77	355.80	11.37	-40.8	-60.5	3.8	7.45e-01	0	58	104	0	52	36181
2026-01-18 02:42:29.78	355.66	11.45	-40.5	-60.3	3.8	7.47e-01	0	58	104	0	52	35503
2026-01-18 02:42:30.79	355.53	11.53	-40.9	-60.6	3.8	7.45e-01	0	57	104	0	52	36600
2026-01-18 02:42:31.80	355.40	11.61	-40.6	-60.2	3.8	7.41e-01	0	57	104	0	53	33229
2026-01-18 02:42:32.81	355.26	11.69	-41.2	-60.5	3.8	7.43e-01	0	58	104	0	53	34274
2026-01-18 02:42:33.81	355.13	11.77	-40.5	-60.5	3.8	7.44e-01	0	58	104	0	53	34220
2026-01-18 02:42:34.82	354.99	11.85	-41.3	-60.5	3.9	7.47e-01	0	58	104	0	53	34359
2026-01-18 02:42:35.83	354.85	11.93	-40.8	-60.6	3.8	7.45e-01	0	58	104	0	53	34682
2026-01-18 02:42:36.84	354.72	12.01	-41.1	-60.6	3.8	7.44e-01	0	58	104	0	53	34536
2026-01-18 02:42:37.85	354.58	12.09	-41.1	-60.3	3.8	7.41e-01	0	57	104	0	53	33313
2026-01-18 02:42:38.86	354.44	12.17	-40.8	-60.5	3.8	7.46e-01	0	58	104	0	53	34260
2026-01-18 02:42:39.87	354.30	12.25	-41.0	-60.2	3.8	7.45e-01	0	58	104	0	53	33295
2026-01-18 02:42:40.88	354.15	12.33	-41.3	-60.4	3.8	7.45e-01	0	58	104	0	53	34078
2026-01-18 02:42:41.90	354.01	12.41	-41.3	-60.5	3.8	7.41e-01	0	58	104	0	53	34451
2026-01-18 02:42:42.90	353.87	12.49	-41.3	-60.5	3.8	7.44e-01	0	58	104	0	53	34246
2026-01-18 02:42:43.92	353.72	12.57	-41.3	-60.5	3.8	7.48e-01	0	58	104	0	53	34438
2026-01-18 02:42:44.93	353.58	12.65	-41.2	-60.5	3.8	7.46e-01	0	58	104	0	53	34259
2026-01-18 02:42:45.94	353.43	12.74	-40.6	-60.3	3.8	7.43e-01	0	58	104	0	53	33695
2026-01-18 02:42:46.94	353.29	12.82	-41.2	-60.5	3.8	7.47e-01	0	58	104	0	53	34103
2026-01-18 02:42:47.95	353.14	12.90	-40.7	-60.4	3.8	7.45e-01	0	58	104	0	53	34024
2026-01-18 02:42:48.96	352.99	12.98	-41.5	-60.8	3.8	7.48e-01	0	58	104	0	53	35327
2026-01-18 02:42:49.97	352.84	13.06	-41.3	-60.5	3.8	7.44e-01	0	58	104	0	53	34174
2026-01-18 02:42:50.98	352.69	13.15	-41.5	-60.8	3.8	7.46e-01	0	58	104	0	53	35388
2026-01-18 02:42:51.99	352.54	13.23	-41.3	-60.5	3.8	7.45e-01	0	58	104	0	53	34246
2026-01-18 02:42:53.00	352.39	13.31	-41.4	-60.6	3.8	7.47e-01	0	58	104	0	53	34848
2026-01-18 02:42:54.01	352.23	13.39	-41.3	-60.6	3.8	7.48e-01	0	58	104	0	53	34596
2026-01-18 02:42:55.02	352.08	13.48	-41.4	-60.7	3.8	7.43e-01	0	58	104	0	53	35110
2026-01-18 02:42:56.03	351.93	13.56	-41.2	-60.6	3.8	7.45e-01	0	58	104	0	53	34668
2026-01-18 02:42:57.04	351.77	13.64	-41.3	-60.8	3.8	7.44e-01	0	58	104	0	53	35293
2026-01-18 02:42:58.05	351.61	13.72	-41.5	-60.8	3.8	7.47e-01	0	58	104	0	53	35436
2026-01-18 02:42:59.06	351.45	13.81	-41.2	-60.8	3.8	7.43e-01	0	58	104	0	53	35608
2026-01-18 02:43:00.07	351.30	13.89	-41.4	-60.8	3.8	7.46e-01	0	58	104	0	53	35326
2026-01-18 02:43:01.08	351.14	13.97	-40.4	-60.7	3.7	7.47e-01	0	58	104	0	52	37308
2026-01-18 02:43:02.09	350.97	14.06	-41.8	-60.9	3.8	7.44e-01	0	58	104	0	54	33934
2026-01-18 02:43:03.10	350.81	14.14	-40.5	-60.9	3.8	7.44e-01	0	58	104	0	52	37903
2026-01-18 02:43:04.11	350.65	14.22	-41.8	-60.9	3.8	7.45e-01	0	58	104	0	54	34005
2026-01-18 02:43:05.12	350.49	14.31	-41.3	-60.9	3.8	7.43e-01	0	58	104	0	54	33898
2026-01-18 02:43:06.13	350.32	14.39	-41.2	-60.8	3.8	7.40e-01	0	58	104	0	54	33433
2026-01-18 02:43:07.14	350.16	14.48	-41.3	-61.1	3.8	7.46e-01	0	58	104	0	54	34565
2026-01-18 02:43:08.15	349.99	14.56	-41.2	-60.8	3.8	7.45e-01	0	58	104	0	54	33645
2026-01-18 02:43:09.16	349.82	14.64	-41.7	-61.0	3.8	7.45e-01	0	58	104	0	54	34241
2026-01-18 02:43:10.17	349.65	14.73	-41.4	-60.9	3.8	7.43e-01	0	58	104	0	54	33772
2026-01-18 02:43:11.18	349.48	14.81	-41.3	-60.9	3.8	7.48e-01	0	59	104	0	54	34010
2026-01-18 02:43:12.19	349.31	14.90	-41.6	-61.0	3.8	7.47e-01	0	59	104	0	54	34401
2026-01-18 02:43:13.20	349.14	14.98	-41.9	-61.3	3.8	7.45e-01	0	58	104	0	54	35338
2026-01-18 02:43:14.21	348.96	15.07	-41.1	-61.0	3.8	7.45e-01	0	58	104	0	54	34300
2026-01-18 02:43:15.22	348.79	15.15	-42.2	-61.3	3.8	7.43e-01	0	59	104	0	54	35344
2026-01-18 02:43:16.23	348.61	15.23	-41.2	-61.1	3.8	7.45e-01	0	58	104	0	54	34851
2026-01-18 02:43:17.24	348.44	15.32	-41.7	-61.3	3.8	7.43e-01	0	59	104	0	54	35314
2026-01-18 02:43:18.25	348.26	15.40	-42.0	-61.2	3.8	7.42e-01	0	58	104	0	54	35149
2026-01-18 02:43:19.26	348.08	15.49	-42.1	-61.3	3.8	7.44e-01	0	59	104	0	54	35345
2026-01-18 02:43:20.27	347.90	15.57	-42.2	-61.3	3.8	7.46e-01	0	59	104	0	55	33691
2026-01-18 02:43:21.28	347.72	15.66	-42.1	-61.4	3.8	7.45e-01	0	59	104	0	55	33703
2026-01-18 02:43:22.29	347.54	15.74	-42.2	-61.2	3.8	7.44e-01	0	58	104	0	55	33276
2026-01-18 02:43:23.30	347.36	15.83	-42.2	-61.3	3.8	7.45e-01	0	59	104	0	55	33494
2026-01-18 02:43:24.31	347.17	15.91	-42.1	-61.3	3.8	7.44e-01	0	58	104	0	55	33364
2026-01-18 02:43:25.32	346.99	16.00	-42.1	-61.3	3.8	7.47e-01	0	58	104	0	55	33684
2026-01-18 02:43:26.33	346.80	16.08	-42.0	-61.3	3.8	7.43e-01	0	59	104	0	55	33651
2026-01-18 02:43:27.34	346.61	16.17	-42.3	-61.3	3.8	7.45e-01	0	59	104	0	55	33556
2026-01-18 02:43:28.35	346.42	16.25	-42.0	-61.1	3.8	7.47e-01	0	59	104	0	55	32802
2026-01-18 02:43:29.36	346.23	16.34	-41.9	-61.0	3.8	7.46e-01	0	59	104	0	55	32545
2026-01-18 02:43:30.37	346.04	16.43	-42.1	-61.2	3.8	7.47e-01	0	59	104	0	55	33068
2026-01-18 02:43:31.38	345.85	16.51	-41.8	-60.9	3.8	7.45e-01	0	59	104	0	55	32139
2026-01-18 02:43:32.39	345.66	16.60	-42.1	-61.2	3.8	7.45e-01	0	59	104	0	55	33061
2026-01-18 02:43:33.40	345.46	16.68	-41.7	-61.0	3.8	7.42e-01	0	59	104	0	55	32387
2026-01-18 02:43:34.41	345.27	16.77	-41.7	-60.9	3.8	7.48e-01	0	59	104	0	55	31848
2026-01-18 02:43:35.42	345.07	16.85	-41.7	-61.0	3.8	7.45e-01	0	59	104	0	55	32317
2026-01-18 02:43:36.43	344.87	16.94	-41.2	-60.8	3.8	7.46e-01	0	59	104	0	54	33677
2026-01-18 02:43:37.44	344.67	17.02	-41.5	-61.0	3.8	7.42e-01	0	59	104	0	54	34383
2026-01-18 02:43:38.45	344.47	17.11	-41.6	-61.0	3.8	7.49e-01	0	59	104	0	54	34334
2026-01-18 02:43:39.46	344.27	17.19	-41.3	-61.0	3.8	7.42e-01	0	59	104	0	54	34097
2026-01-18 02:43:40.46	344.07	17.28	-41.7	-61.0	3.8	7.47e-01	0	59	104	0	54	34399
2026-01-18 02:43:41.47	343.86	17.36	-41.3	-60.9	3.8	7.45e-01	0	59	104	0	54	33730
2026-01-18 02:43:42.48	343.66	17.45	-40.7	-60.8	3.8	7.43e-01	0	59	104	0	53	35354
2026-01-18 02:43:43.49	343.45	17.53	-41.1	-60.7	3.8	7.46e-01	0	59	104	0	53	35254
2026-01-18 02:43:44.50	343.24	17.62	-41.1	-60.9	3.8	7.48e-01	0	59	104	0	53	35948
2026-01-18 02:43:45.51	343.03	17.70	-41.1	-60.8	3.8	7.45e-01	0	59	104	0	53	35657
2026-01-18 02:43:46.52	342.82	17.79	-41.1	-60.8	3.8	7.44e-01	0	59	104	0	53	35661
2026-01-18 02:43:47.53	342.61	17.87	-41.4	-60.9	3.8	7.48e-01	0	59	104	0	53	35889
2026-01-18 02:43:48.54	342.39	17.96	-41.4	-60.7	3.8	7.42e-01	0	59	104	0	53	35174
2026-01-18 02:43:49.55	342.18	18.04	-41.4	-60.8	3.8	7.45e-01	0	59	104	0	54	33478
2026-01-18 02:43:50.56	341.96	18.13	-41.5	-60.9	3.8	7.44e-01	0	59	104	0	53	35776
2026-01-18 02:43:51.57	341.75	18.21	-41.4	-60.9	3.8	7.46e-01	0	59	104	0	53	36002
2026-01-18 02:43:52.58	341.53	18.30	-41.8	-60.9	3.9	7.46e-01	0	59	104	0	54	33868
2026-01-18 02:43:53.59	341.31	18.38	-41.4	-60.7	3.8	7.45e-01	0	59	104	0	54	32988
2026-01-18 02:43:54.60	341.09	18.46	-41.4	-60.5	3.8	7.45e-01	0	59	104	0	54	32323
2026-01-18 02:43:55.61	340.86	18.55	-41.3	-60.5	3.8	7.46e-01	0	59	104	0	54	32471
2026-01-18 02:43:56.62	340.64	18.63	-41.5	-60.8	3.8	7.47e-01	0	59	104	0	54	33319
2026-01-18 02:43:57.63	340.42	18.72	-41.7	-61.0	3.8	7.43e-01	0	59	104	0	54	34362
2026-01-18 02:43:58.63	340.19	18.80	-42.1	-60.8	3.8	7.45e-01	0	59	104	0	54	33564
2026-01-18 02:43:59.64	339.96	18.88	-42.2	-59.9	3.9	7.42e-01	0	59	104	0	55	28387
2026-01-18 02:44:00.65	339.73	18.97	-43.3	-57.2	4.1	7.32e-01	0	59	104	0	57	18662
2026-01-18 02:44:01.66	339.50	19.05	-42.4	-56.1	5.5	7.07e-01	38	59	0	1048576	56	17461
2026-01-18 02:44:02.67	339.27	19.13	-42.5	-51.9	8.4	6.34e-01	7	59	104	1048576	56	10716
2026-01-18 02:44:03.68	339.04	19.22	-42.6	-48.8	13.1	6.02e-01	0	59	0	2621440	56	7459
2026-01-18 02:44:04.69	338.80	19.30	-42.4	-47.9	14.3	6.03e-01	0	59	0	4194304	56	6726
2026-01-18 02:44:05.70	338.57	19.38	-42.3	-47.2	15.0	6.04e-01	0	59	0	6291456	56	6259
2026-01-18 02:44:06.71	338.33	19.47	-41.6	-45.9	16.4	6.02e-01	0	59	0	8388608	55	5663
2026-01-18 02:44:07.72	338.09	19.55	-41.1	-44.7	17.7	6.02e-01	0	59	0	9961472	54	5277
2026-01-18 02:44:08.73	337.85	19.63	-41.0	-44.4	18.1	6.01e-01	0	59	0	12058624	53	5392
2026-01-18 02:44:09.74	337.61	19.71	-41.6	-45.3	17.4	6.02e-01	0	59	0	14155776	53	5978
2026-01-18 02:44:10.75	337.37	19.79	-41.8	-45.5	17.3	6.05e-01	0	59	0	15728640	54	5742
2026-01-18 02:44:11.76	337.12	19.88	-41.5	-45.0	18.0	6.04e-01	0	59	0	17825792	54	5416
2026-01-18 02:44:12.77	336.88	19.96	-41.7	-45.2	17.8	6.00e-01	0	59	0	19398656	54	5568
2026-01-18 02:44:13.78	336.63	20.04	-41.6	-45.0	18.0	6.01e-01	0	59	0	21495808	54	5454
2026-01-18 02:44:14.78	336.38	20.12	-41.5	-44.9	18.1	5.99e-01	0	59	0	23592960	54	5398
2026-01-18 02:44:15.79	336.13	20.20	-41.6	-45.1	18.0	6.04e-01	0	59	0	25165824	54	5480
2026-01-18 02:44:16.80	335.88	20.28	-41.6	-45.1	18.1	6.00e-01	0	59	0	27262976	54	5493
2026-01-18 02:44:17.81	335.63	20.36	-41.7	-45.1	18.1	6.04e-01	0	59	0	28835840	54	5507
2026-01-18 02:44:18.82	335.38	20.44	-41.8	-45.2	18.0	6.00e-01	0	59	0	30932992	54	5589
2026-01-18 02:44:19.83	335.12	20.52	-41.8	-45.2	18.1	6.03e-01	0	59	0	33030144	54	5531
2026-01-18 02:44:20.84	334.86	20.60	-41.8	-45.2	18.2	6.03e-01	0	59	0	34603008	54	5543
2026-01-18 02:44:21.85	334.61	20.68	-41.7	-45.0	18.3	6.02e-01	0	59	0	36700160	54	5464
2026-01-18 02:44:22.86	334.35	20.75	-41.8	-45.1	18.2	6.04e-01	0	59	0	38797312	54	5526
2026-01-18 02:44:23.87	334.08	20.83	-41.9	-45.3	18.1	6.03e-01	0	59	0	40370176	54	5602
2026-01-18 02:44:24.88	333.82	20.91	-41.9	-45.3	18.2	6.01e-01	0	59	0	42467328	54	5597
2026-01-18 02:44:25.89	333.56	20.99	-41.9	-45.3	18.2	6.04e-01	0	59	0	44040192	54	5596
2026-01-18 02:44:26.90	333.29	21.06	-41.9	-45.3	18.2	6.01e-01	0	59	0	46137344	54	5600
2026-01-18 02:44:27.91	333.03	21.14	-41.8	-45.1	18.4	6.04e-01	0	59	0	48234496	54	5496
2026-01-18 02:44:28.92	332.76	21.22	-41.9	-45.2	18.3	6.02e-01	0	59	0	49807360	54	5572
2026-01-18 02:44:29.93	332.49	21.29	-42.0	-45.4	18.2	6.03e-01	0	59	0	51904512	54	5668
2026-01-18 02:44:30.94	332.22	21.37	-41.8	-45.1	18.4	6.02e-01	0	59	0	53477376	54	5489
2026-01-18 02:44:31.95	331.94	21.44	-41.9	-45.1	18.5	6.01e-01	0	59	0	55574528	54	5492
2026-01-18 02:44:32.96	331.67	21.52	-41.9	-45.3	18.4	6.03e-01	0	59	0	57671680	54	5596
2026-01-18 02:44:33.97	331.40	21.59	-42.1	-45.4	18.2	6.03e-01	0	59	0	59244544	54	5718
2026-01-18 02:44:34.98	331.12	21.67	-42.0	-45.4	18.2	6.04e-01	0	59	0	61341696	54	5684
2026-01-18 02:44:35.99	330.84	21.74	-42.1	-45.4	18.2	6.02e-01	0	59	0	62914560	54	5710
2026-01-18 02:44:37.00	330.56	21.81	-42.0	-45.4	18.2	6.03e-01	0	59	0	65011712	54	5675
2026-01-18 02:44:38.01	330.28	21.89	-42.1	-45.4	18.2	6.03e-01	0	59	0	67108864	54	5716
2026-01-18 02:44:39.02	330.00	21.96	-42.1	-45.5	18.1	6.02e-01	0	59	0	68681728	54	5755
2026-01-18 02:44:40.03	329.71	22.03	-42.0	-45.3	18.3	6.04e-01	0	59	0	70778880	54	5655
2026-01-18 02:44:41.04	329.43	22.10	-42.0	-45.3	18.3	6.03e-01	0	59	0	72351744	54	5648
2026-01-18 02:44:42.05	329.14	22.17	-42.2	-45.6	18.1	6.03e-01	0	59	0	74448896	54	5804
2026-01-18 02:44:43.06	328.86	22.24	-42.1	-45.5	18.2	6.01e-01	0	59	0	76546048	54	5732
2026-01-18 02:44:44.07	328.57	22.31	-42.1	-45.5	18.2	6.03e-01	0	59	0	78118912	54	5759
2026-01-18 02:44:45.07	328.28	22.38	-42.0	-45.3	18.3	6.00e-01	0	59	0	80216064	54	5635
2026-01-18 02:44:46.08	327.99	22.45	-42.1	-45.4	18.2	6.02e-01	0	59	0	82313216	54	5686
2026-01-18 02:44:47.09	327.69	22.51	-42.2	-45.6	18.1	6.01e-01	0	59	0	83886080	54	5838
2026-01-18 02:44:48.10	327.40	22.58	-42.1	-45.5	18.1	6.05e-01	0	59	0	85983232	54	5765
2026-01-18 02:44:49.11	327.10	22.65	-42.2	-45.6	18.1	6.00e-01	0	59	0	87556096	54	5826
2026-01-18 02:44:50.12	326.81	22.71	-42.2	-45.7	18.0	5.99e-01	0	59	0	89653248	55	5553
2026-01-18 02:44:51.13	326.51	22.78	-42.3	-45.8	17.8	6.04e-01	0	59	0	91750400	55	5620
2026-01-18 02:44:52.14	326.21	22.84	-42.2	-45.6	18.1	6.01e-01	0	59	0	93323264	55	5512
2026-01-18 02:44:53.15	325.91	22.91	-42.2	-45.5	18.2	6.01e-01	0	60	0	95420416	55	5459
2026-01-18 02:44:54.16	325.60	22.97	-42.1	-45.4	18.3	6.03e-01	0	59	0	96993280	55	5375
2026-01-18 02:44:55.17	325.30	23.03	-42.0	-45.4	18.3	6.03e-01	0	59	0	99090432	55	5341
2026-01-18 02:44:56.18	325.00	23.10	-42.1	-45.5	18.1	6.06e-01	0	59	0	101187584	55	5457
2026-01-18 02:44:57.19	324.69	23.16	-42.1	-45.5	18.2	6.03e-01	0	59	0	102760448	55	5420
2026-01-18 02:44:58.19	324.38	23.22	-42.1	-45.5	18.2	6.03e-01	0	59	0	104857600	55	5444
2026-01-18 02:44:59.20	324.08	23.28	-42.1	-45.4	18.3	6.01e-01	0	59	0	106954752	55	5355
2026-01-18 02:45:00.21	323.77	23.34	-42.1	-45.4	18.3	6.03e-01	0	59	0	108527616	55	5375
2026-01-18 02:45:01.22	323.45	23.39	-42.1	-45.4	18.3	5.99e-01	0	59	0	110624768	55	5381
2026-01-18 02:45:02.23	323.14	23.45	-42.1	-45.5	18.2	6.03e-01	0	60	0	112197632	55	5432
2026-01-18 02:45:03.24	322.83	23.51	-42.2	-45.5	18.1	6.03e-01	0	59	0	114294784	55	5462
2026-01-18 02:45:04.25	322.51	23.57	-42.1	-45.5	18.2	6.01e-01	0	59	0	116391936	55	5420
2026-01-18 02:45:05.26	322.20	23.62	-42.0	-45.3	18.4	6.02e-01	0	60	0	117964800	55	5328
2026-01-18 02:45:06.27	321.88	23.68	-42.2	-45.5	18.2	6.01e-01	0	60	0	120061952	55	5460
2026-01-18 02:45:07.28	321.56	23.73	-42.2	-45.5	18.1	6.04e-01	0	59	0	121634816	55	5457
2026-01-18 02:45:08.29	321.24	23.78	-42.0	-45.3	18.4	5.99e-01	0	59	0	123731968	55	5310
2026-01-18 02:45:09.29	320.92	23.83	-42.1	-45.4	18.3	6.00e-01	0	59	0	125304832	55	5360
2026-01-18 02:45:10.30	320.60	23.89	-42.1	-45.4	18.3	6.02e-01	0	60	0	127401984	55	5368
2026-01-18 02:45:11.31	320.28	23.94	-42.2	-45.6	18.1	6.04e-01	0	60	0	129499136	55	5479
2026-01-18 02:45:12.32	319.95	23.99	-42.2	-45.7	18.1	6.02e-01	0	60	0	131072000	55	5533
2026-01-18 02:45:13.33	319.63	24.04	-42.3	-45.7	18.0	6.04e-01	0	60	0	133169152	55	5555
2026-01-18 02:45:14.34	319.30	24.08	-42.2	-45.6	18.0	6.01e-01	0	59	0	135266304	55	5524
2026-01-18 02:45:15.35	318.97	24.13	-42.1	-45.3	18.4	6.03e-01	0	59	0	136839168	55	5332
2026-01-18 02:45:16.36	318.65	24.18	-42.2	-45.5	18.2	6.03e-01	0	59	0	138936320	55	5448
2026-01-18 02:45:17.37	318.32	24.22	-42.2	-45.6	18.1	6.02e-01	0	59	0	140509184	55	5490
2026-01-18 02:45:18.38	317.99	24.27	-42.2	-45.6	18.0	6.04e-01	0	60	0	142606336	55	5519
2026-01-18 02:45:19.39	317.65	24.31	-42.1	-45.4	18.3	6.02e-01	0	59	0	144703488	55	5381
2026-01-18 02:45:20.40	317.32	24.35	-42.1	-45.4	18.3	6.04e-01	0	60	0	146276352	55	5372
2026-01-18 02:45:21.41	316.99	24.40	-42.1	-45.5	18.3	6.01e-01	0	60	0	148373504	55	5416
2026-01-18 02:45:22.42	316.65	24.44	-42.1	-45.4	18.3	6.02e-01	0	60	0	150470656	55	5401
2026-01-18 02:45:23.43	316.32	24.48	-42.1	-45.5	18.2	6.03e-01	0	59	0	152043520	55	5440
2026-01-18 02:45:24.44	315.98	24.51	-42.1	-45.4	18.3	6.03e-01	0	60	0	154140672	55	5378
2026-01-18 02:45:25.45	315.65	24.55	-42.0	-45.3	18.4	6.00e-01	0	60	0	155713536	55	5326
2026-01-18 02:45:26.45	315.31	24.59	-42.1	-45.4	18.3	6.02e-01	0	59	0	157810688	55	5378
2026-01-18 02:45:27.46	314.97	24.63	-42.1	-45.4	18.3	6.00e-01	0	60	0	159907840	55	5400
2026-01-18 02:45:28.47	314.63	24.66	-42.2	-45.7	18.0	6.02e-01	0	59	0	161480704	55	5532
2026-01-18 02:45:29.48	314.29	24.69	-42.1	-45.4	18.3	6.03e-01	0	60	0	163577856	55	5348
2026-01-18 02:45:30.49	313.95	24.73	-42.1	-45.4	18.3	6.03e-01	0	60	0	165150720	55	5376
2026-01-18 02:45:31.50	313.61	24.76	-42.1	-45.5	18.2	6.05e-01	0	59	0	167247872	55	5414
2026-01-18 02:45:32.51	313.27	24.79	-42.2	-45.5	18.2	6.00e-01	0	60	0	169345024	55	5449
2026-01-18 02:45:33.52	312.92	24.82	-42.3	-45.8	17.9	5.98e-01	0	60	0	170917888	55	5613
2026-01-18 02:45:34.53	312.58	24.85	-42.1	-45.5	18.2	6.02e-01	0	60	0	173015040	55	5410
2026-01-18 02:45:35.54	312.24	24.88	-42.1	-45.4	18.3	6.01e-01	0	60	0	174587904	55	5362
2026-01-18 02:45:36.55	311.89	24.90	-42.2	-45.6	18.1	6.05e-01	0	60	0	176685056	55	5526
2026-01-18 02:45:37.56	311.54	24.93	-42.1	-45.5	18.2	6.00e-01	0	60	0	178782208	55	5434
2026-01-18 02:45:38.57	311.20	24.95	-42.2	-45.6	18.2	6.04e-01	0	60	0	180355072	55	5466
2026-01-18 02:45:39.58	310.85	24.98	-42.3	-45.7	18.0	6.00e-01	0	60	0	182452224	55	5570
2026-01-18 02:45:40.59	310.50	25.00	-42.2	-45.6	18.1	6.05e-01	0	60	0	184025088	55	5528
2026-01-18 02:45:41.60	310.16	25.02	-42.4	-45.9	17.7	6.02e-01	0	60	0	186122240	55	5679
2026-01-18 02:45:42.61	309.81	25.04	-42.2	-45.6	18.1	6.01e-01	0	60	0	188219392	55	5491
2026-01-18 02:45:43.62	309.46	25.06	-42.0	-45.3	18.4	6.02e-01	0	60	0	189792256	55	5285
2026-01-18 02:45:44.63	309.11	25.08	-42.3	-45.8	17.9	6.02e-01	0	60	0	191889408	55	5631
2026-01-18 02:45:45.64	308.76	25.09	-42.1	-45.5	18.3	6.04e-01	0	60	0	193462272	55	5423
2026-01-18 02:45:46.65	308.41	25.11	-42.0	-45.2	18.5	5.99e-01	0	60	0	195559424	55	5266
2026-01-18 02:45:47.65	308.06	25.12	-42.2	-45.6	18.2	6.02e-01	0	60	0	197656576	55	5484
2026-01-18 02:45:48.66	307.71	25.14	-42.2	-45.6	18.1	6.00e-01	0	60	0	199229440	55	5521
2026-01-18 02:45:49.67	307.36	25.15	-42.3	-45.8	17.9	6.02e-01	0	60	0	201326592	55	5631
2026-01-18 02:45:50.68	307.01	25.16	-42.4	-45.9	17.8	6.01e-01	0	60	0	203423744	55	5686
2026-01-18 02:45:51.69	306.66	25.17	-42.1	-45.5	18.2	6.02e-01	0	60	0	204996608	55	5413
2026-01-18 02:45:52.70	306.30	25.18	-42.3	-45.7	18.0	6.02e-01	0	60	0	207093760	55	5550
2026-01-18 02:45:53.71	305.95	25.19	-42.1	-45.4	18.3	5.99e-01	0	60	0	208666624	55	5398
2026-01-18 02:45:54.72	305.60	25.20	-42.2	-45.6	18.1	6.04e-01	0	60	0	210763776	55	5477
2026-01-18 02:45:55.73	305.25	25.20	-42.4	-45.9	17.8	6.01e-01	0	60	0	212860928	55	5690
2026-01-18 02:45:56.74	304.89	25.21	-42.1	-45.5	18.2	6.03e-01	0	60	0	214433792	55	5422
2026-01-18 02:45:57.76	304.54	25.21	-42.3	-45.7	17.9	6.01e-01	0	60	0	216530944	55	5554
2026-01-18 02:45:58.77	304.19	25.21	-42.1	-45.5	18.3	6.01e-01	0	60	0	218628096	55	5418
2026-01-18 02:45:59.78	303.83	25.21	-42.2	-45.6	18.1	5.99e-01	0	60	0	220200960	55	5496
2026-01-18 02:46:00.78	303.48	25.21	-42.4	-46.0	17.7	6.02e-01	0	60	0	222298112	55	5781
2026-01-18 02:46:01.79	303.13	25.21	-42.0	-45.2	18.4	6.03e-01	0	60	0	223870976	55	5257
2026-01-18 02:46:02.80	302.78	25.21	-42.9	-46.9	16.8	6.02e-01	0	60	0	225968128	56	6061
2026-01-18 02:46:03.81	302.43	25.21	-41.9	-45.0	18.8	6.04e-01	0	60	0	228065280	55	5131
2026-01-18 02:46:04.82	302.07	25.20	-42.4	-45.8	17.8	6.03e-01	0	60	0	229638144	56	5315
2026-01-18 02:46:05.83	301.72	25.19	-42.7	-46.5	17.3	6.00e-01	0	60	0	231735296	55	6088
2026-01-18 02:46:06.84	301.37	25.19	-42.3	-45.7	18.1	6.04e-01	0	60	0	233308160	56	5249
2026-01-18 02:46:07.85	301.02	25.18	-42.9	-46.9	17.0	6.04e-01	0	60	0	235405312	56	5997
2026-01-18 02:46:08.86	300.66	25.17	-42.4	-45.8	17.9	6.02e-01	0	60	0	237502464	56	5340
2026-01-18 02:46:09.87	300.31	25.16	-43.3	-47.7	16.1	6.01e-01	0	60	0	239075328	57	6264
2026-01-18 02:46:10.88	299.96	25.15	-42.3	-45.7	18.2	6.04e-01	0	60	0	241172480	56	5235
2026-01-18 02:46:11.89	299.61	25.14	-43.2	-47.5	16.1	6.05e-01	0	60	0	242745344	57	6104
2026-01-18 02:46:12.89	299.26	25.12	-43.1	-47.1	16.8	6.00e-01	0	60	0	244842496	57	5839
2026-01-18 02:46:13.90	298.91	25.11	-43.1	-47.1	16.5	6.03e-01	0	60	0	246939648	57	5801
2026-01-18 02:46:14.91	298.56	25.09	-43.3	-47.7	16.1	6.02e-01	0	60	0	248512512	57	6235
2026-01-18 02:46:15.92	298.21	25.07	-43.3	-47.6	16.1	6.03e-01	0	60	0	250609664	57	6142
2026-01-18 02:46:16.93	297.86	25.06	-43.7	-48.5	15.4	6.00e-01	0	60	0	252182528	57	6829
2026-01-18 02:46:17.94	297.51	25.04	-43.0	-46.9	16.8	6.02e-01	0	60	0	254279680	58	5364
2026-01-18 02:46:18.95	297.16	25.02	-43.9	-49.1	14.6	6.04e-01	0	60	0	256376832	58	6947
2026-01-18 02:46:19.96	296.81	24.99	-42.6	-46.1	17.7	6.01e-01	0	60	0	257949696	57	5208
2026-01-18 02:46:20.97	296.47	24.97	-43.4	-47.9	15.8	6.00e-01	0	60	0	260046848	57	6385
2026-01-18 02:46:21.98	296.12	24.95	-43.1	-47.2	16.6	6.04e-01	0	60	0	261619712	57	5890
2026-01-18 02:46:22.99	295.77	24.92	-43.2	-47.4	16.4	6.03e-01	0	60	0	263716864	57	6044
2026-01-18 02:46:24.00	295.43	24.90	-42.6	-46.1	17.6	6.02e-01	0	60	0	265814016	57	5212
2026-01-18 02:46:25.01	295.08	24.87	-43.1	-47.1	16.7	6.02e-01	0	60	0	267386880	57	5851
2026-01-18 02:46:26.01	294.74	24.84	-42.4	-45.8	18.0	6.03e-01	0	60	0	269484032	56	5331
2026-01-18 02:46:27.02	294.39	24.81	-43.0	-47.0	16.8	6.02e-01	0	60	0	271581184	56	6098
2026-01-18 02:46:28.03	294.05	24.78	-42.8	-46.6	17.1	6.02e-01	0	60	0	273154048	56	5840
2026-01-18 02:46:29.04	293.71	24.75	-42.8	-46.5	17.3	6.02e-01	0	60	0	275251200	56	5756
2026-01-18 02:46:30.05	293.37	24.72	-42.8	-46.6	17.2	6.04e-01	0	60	0	276824064	56	5817
2026-01-18 02:46:31.06	293.02	24.69	-43.1	-47.1	16.6	6.05e-01	0	60	0	278921216	56	6196
2026-01-18 02:46:32.07	292.68	24.65	-42.7	-46.3	17.4	6.01e-01	0	60	0	281018368	57	5322
2026-01-18 02:46:33.08	292.34	24.62	-43.0	-47.0	16.8	5.99e-01	0	60	0	282591232	57	5775
2026-01-18 02:46:34.09	292.01	24.58	-42.8	-46.5	17.3	6.04e-01	0	60	0	284688384	57	5445
2026-01-18 02:46:35.10	291.67	24.55	-42.9	-46.8	16.9	6.02e-01	0	60	0	286261248	57	5640
2026-01-18 02:46:36.11	291.33	24.51	-42.9	-46.7	17.0	6.03e-01	0	60	0	288358400	57	5567
2026-01-18 02:46:37.12	290.99	24.47	-42.6	-46.2	17.6	6.03e-01	0	60	0	290455552	57	5241
2026-01-18 02:46:38.13	290.66	24.43	-42.9	-46.9	16.9	6.02e-01	0	60	0	292028416	57	5680
2026-01-18 02:46:39.14	290.32	24.39	-42.5	-46.0	17.7	6.03e-01	0	60	0	294125568	57	5147
2026-01-18 02:46:40.15	289.99	24.34	-42.8	-46.5	17.3	6.04e-01	0	60	0	296222720	56	5785
2026-01-18 02:46:41.16	289.66	24.30	-42.2	-45.5	18.3	6.01e-01	0	60	0	297795584	56	5115
2026-01-18 02:46:42.17	289.32	24.26	-42.4	-46.0	17.8	6.02e-01	0	60	0	299892736	56	5412
2026-01-18 02:46:43.18	288.99	24.21	-42.5	-46.0	17.7	6.03e-01	0	60	0	301465600	56	5438
2026-01-18 02:46:44.19	288.66	24.17	-42.3	-45.8	18.0	6.01e-01	0	60	0	303562752	56	5292
2026-01-18 02:46:45.20	288.33	24.12	-42.8	-46.6	17.0	6.01e-01	0	60	0	305659904	56	5855
2026-01-18 02:46:46.21	288.01	24.07	-42.4	-45.9	17.9	6.01e-01	0	60	0	307232768	56	5342
2026-01-18 02:46:47.22	287.68	24.03	-42.8	-46.6	17.1	6.02e-01	0	60	0	309329920	56	5834
2026-01-18 02:46:48.23	287.35	23.98	-42.3	-45.6	18.1	6.04e-01	0	60	0	310902784	56	5207
2026-01-18 02:46:49.24	287.03	23.93	-42.8	-46.7	17.0	6.00e-01	0	60	0	312999936	56	5879
2026-01-18 02:46:50.25	286.70	23.87	-42.5	-46.0	17.8	6.04e-01	0	60	0	315097088	56	5441
2026-01-18 02:46:51.26	286.38	23.82	-43.0	-47.1	16.6	6.04e-01	0	60	0	316669952	56	6191
2026-01-18 02:46:52.27	286.06	23.77	-42.4	-45.8	18.0	6.01e-01	0	60	0	318767104	56	5298
2026-01-18 02:46:53.28	285.74	23.72	-43.1	-47.4	16.4	6.03e-01	0	60	0	320339968	56	6367
2026-01-18 02:46:54.29	285.42	23.66	-42.3	-45.6	18.1	6.00e-01	0	60	0	322437120	56	5188
2026-01-18 02:46:55.29	285.10	23.61	-42.5	-46.2	17.6	6.01e-01	0	60	0	324534272	56	5556
2026-01-18 02:46:56.31	284.78	23.55	-42.3	-45.7	17.9	6.01e-01	0	60	0	326107136	56	5257
2026-01-18 02:46:57.31	284.47	23.50	-42.3	-45.7	18.1	6.04e-01	0	60	0	328204288	56	5239
2026-01-18 02:46:58.32	284.16	23.44	-43.0	-47.1	16.7	6.01e-01	0	60	0	329777152	56	6142
2026-01-18 02:46:59.33	283.84	23.38	-42.1	-45.4	18.3	6.04e-01	0	60	0	331874304	56	5051
2026-01-18 02:47:00.34	283.53	23.32	-42.9	-46.9	16.9	6.03e-01	0	60	0	333971456	56	6009
2026-01-18 02:47:01.35	283.22	23.26	-42.5	-46.0	17.6	6.01e-01	0	60	0	335544320	56	5460
2026-01-18 02:47:02.36	282.91	23.20	-42.7	-46.5	17.3	6.03e-01	0	60	0	337641472	56	5743
2026-01-18 02:47:03.37	282.60	23.14	-43.1	-47.2	16.5	6.04e-01	0	60	0	339738624	56	6266
2026-01-18 02:47:04.38	282.30	23.08	-42.9	-46.8	16.9	6.01e-01	0	60	0	341311488	56	5937
2026-01-18 02:47:05.39	281.99	23.02	-43.1	-47.2	16.5	6.04e-01	0	60	0	343408640	56	6264
2026-01-18 02:47:06.40	281.69	22.95	-42.8	-46.7	17.0	6.02e-01	0	60	0	344981504	56	5869
2026-01-18 02:47:07.41	281.38	22.89	-42.8	-46.6	17.1	5.99e-01	0	60	0	347078656	56	5825
2026-01-18 02:47:08.42	281.08	22.83	-42.9	-46.9	16.7	6.03e-01	0	60	0	349175808	56	6037
2026-01-18 02:47:09.42	280.78	22.76	-42.8	-46.7	17.0	6.02e-01	0	60	0	350748672	56	5869
2026-01-18 02:47:10.43	280.48	22.70	-43.2	-47.4	16.3	6.02e-01	0	60	0	352845824	56	6373
2026-01-18 02:47:11.44	280.19	22.63	-43.0	-47.0	16.6	6.03e-01	0	60	0	354418688	57	5746
2026-01-18 02:47:12.45	279.89	22.56	-42.8	-46.6	17.1	6.02e-01	0	60	0	356515840	57	5477
2026-01-18 02:47:13.46	279.59	22.49	-43.1	-47.2	16.5	6.01e-01	0	60	0	358612992	57	5889
2026-01-18 02:47:14.47	279.30	22.43	-42.8	-46.6	17.1	6.01e-01	0	60	0	360185856	57	5489
2026-01-18 02:47:15.48	279.01	22.36	-42.3	-45.7	17.9	6.02e-01	0	60	0	362283008	56	5271
2026-01-18 02:47:16.49	278.72	22.29	-42.6	-46.3	17.4	6.00e-01	0	60	0	363855872	56	5642
2026-01-18 02:47:17.50	278.43	22.22	-42.7	-46.5	17.1	6.02e-01	0	60	0	365953024	56	5769
2026-01-18 02:47:18.51	278.14	22.15	-42.3	-45.7	18.0	6.03e-01	0	60	0	368050176	56	5246
2026-01-18 02:47:19.52	277.85	22.08	-42.5	-46.1	17.6	6.03e-01	0	60	0	369623040	56	5506
2026-01-18 02:47:20.53	277.56	22.01	-42.3	-45.9	17.8	6.01e-01	0	60	0	371720192	56	5342
2026-01-18 02:47:21.54	277.28	21.94	-42.3	-45.8	17.9	6.02e-01	0	60	0	373293056	56	5313
2026-01-18 02:47:22.55	277.00	21.86	-42.5	-46.1	17.6	6.03e-01	0	60	0	375390208	56	5508
2026-01-18 02:47:23.56	276.72	21.79	-42.5	-46.0	17.6	6.01e-01	0	60	0	377487360	56	5456
2026-01-18 02:47:24.57	276.43	21.72	-42.4	-45.9	17.7	6.04e-01	0	60	0	379060224	56	5385
2026-01-18 02:47:25.58	276.16	21.64	-42.5	-46.1	17.6	6.01e-01	0	60	0	381157376	56	5489
2026-01-18 02:47:26.59	275.88	21.57	-42.6	-46.2	17.4	6.02e-01	0	60	0	382730240	56	5581
2026-01-18 02:47:27.60	275.60	21.49	-42.4	-45.9	17.8	6.02e-01	0	60	0	384827392	56	5347
2026-01-18 02:47:28.61	275.33	21.42	-42.1	-45.4	18.2	6.03e-01	0	60	0	386924544	56	5086
2026-01-18 02:47:29.62	275.05	21.34	-42.4	-45.9	17.8	6.01e-01	0	60	0	388497408	56	5380
2026-01-18 02:47:30.63	274.78	21.27	-42.5	-46.0	17.6	6.02e-01	0	60	0	390594560	56	5463
2026-01-18 02:47:31.64	274.51	21.19	-42.3	-45.8	17.9	6.00e-01	0	60	0	392691712	56	5304
2026-01-18 02:47:32.65	274.24	21.11	-42.3	-45.8	17.9	6.01e-01	0	60	0	394264576	56	5300
2026-01-18 02:47:33.66	273.98	21.04	-42.3	-45.8	17.9	6.04e-01	0	60	0	396361728	56	5317
2026-01-18 02:47:34.66	273.71	20.96	-42.4	-45.9	17.8	6.04e-01	0	60	0	397934592	56	5367
2026-01-18 02:47:35.67	273.45	20.88	-42.2	-45.6	18.0	6.01e-01	0	60	0	400031744	56	5213
2026-01-18 02:47:36.68	273.18	20.80	-42.2	-45.6	18.0	6.03e-01	0	60	0	402128896	56	5215
2026-01-18 02:47:37.69	272.92	20.73	-42.3	-45.7	17.9	6.01e-01	0	60	0	403701760	56	5262
2026-01-18 02:47:38.70	272.66	20.65	-42.4	-46.0	17.6	6.02e-01	0	60	0	405798912	56	5441
2026-01-18 02:47:39.72	272.40	20.57	-42.4	-45.9	17.7	6.00e-01	0	60	0	407896064	56	5368
2026-01-18 02:47:40.73	272.14	20.49	-42.3	-45.8	17.8	6.03e-01	0	60	0	409468928	56	5340
2026-01-18 02:47:41.74	271.89	20.41	-42.4	-46.0	17.7	6.02e-01	0	60	0	411566080	56	5420
2026-01-18 02:47:42.74	271.63	20.33	-42.5	-46.1	17.5	6.00e-01	0	60	0	413138944	56	5517
2026-01-18 02:47:43.75	271.38	20.25	-42.4	-46.0	17.7	6.02e-01	0	60	0	415236096	56	5432
2026-01-18 02:47:44.76	271.13	20.17	-42.3	-45.7	17.9	6.03e-01	0	60	0	417333248	56	5247
2026-01-18 02:47:45.77	270.88	20.09	-42.2	-45.5	18.1	6.01e-01	0	60	0	418906112	56	5159
2026-01-18 02:47:46.78	270.63	20.01	-42.2	-45.6	18.1	6.04e-01	0	60	0	421003264	56	5160
2026-01-18 02:47:47.79	270.38	19.92	-42.2	-45.7	18.0	6.04e-01	0	60	0	422576128	56	5227
2026-01-18 02:47:48.80	270.13	19.84	-42.3	-45.8	17.9	6.02e-01	0	60	0	424673280	56	5285
2026-01-18 02:47:49.81	269.89	19.76	-42.3	-45.7	17.9	6.01e-01	0	60	0	426770432	56	5259
2026-01-18 02:47:50.82	269.64	19.68	-42.2	-45.6	18.1	6.02e-01	0	60	0	428343296	56	5172
2026-01-18 02:47:51.83	269.40	19.60	-42.2	-45.6	18.1	6.00e-01	0	60	0	430440448	56	5180
2026-01-18 02:47:52.83	269.16	19.51	-42.4	-45.9	17.7	6.01e-01	0	60	0	432013312	56	5385
2026-01-18 02:47:53.84	268.92	19.43	-42.4	-45.9	17.7	6.00e-01	0	60	0	434110464	56	5401
2026-01-18 02:47:54.85	268.68	19.35	-42.3	-45.8	17.8	6.04e-01	0	60	0	436207616	56	5329
2026-01-18 02:47:55.86	268.45	19.27	-42.2	-45.6	18.0	6.02e-01	0	60	0	437780480	56	5180
2026-01-18 02:47:56.87	268.21	19.18	-42.2	-45.5	18.1	6.03e-01	0	60	0	439877632	56	5148
2026-01-18 02:47:57.88	267.98	19.10	-42.2	-45.6	18.0	6.02e-01	0	60	0	441450496	56	5174
2026-01-18 02:47:58.89	267.75	19.01	-42.2	-45.6	18.0	6.02e-01	0	60	0	443547648	56	5175
2026-01-18 02:47:59.90	267.51	18.93	-42.3	-45.7	17.9	5.99e-01	0	60	0	445644800	56	5265
2026-01-18 02:48:00.91	267.28	18.85	-42.2	-45.6	18.0	6.02e-01	0	60	0	447217664	56	5202
2026-01-18 02:48:01.92	267.06	18.76	-42.1	-45.5	18.1	6.00e-01	0	60	0	449314816	56	5143
2026-01-18 02:48:02.93	266.83	18.68	-42.1	-45.5	18.1	6.00e-01	0	60	0	450887680	56	5127
2026-01-18 02:48:03.94	266.60	18.59	-42.2	-45.6	18.0	6.02e-01	0	60	0	452984832	56	5164
2026-01-18 02:48:04.95	266.38	18.51	-42.1	-45.4	18.2	6.00e-01	0	60	0	455081984	56	5084
2026-01-18 02:48:05.96	266.15	18.43	-42.1	-45.4	18.1	6.04e-01	0	60	0	456654848	56	5097
2026-01-18 02:48:06.97	265.93	18.34	-42.2	-45.6	18.0	6.02e-01	0	60	0	458752000	56	5194
2026-01-18 02:48:07.98	265.71	18.26	-42.2	-45.7	17.9	6.04e-01	0	60	0	460849152	56	5231
2026-01-18 02:48:08.99	265.49	18.17	-42.2	-45.6	18.0	6.03e-01	0	60	0	462422016	56	5171
2026-01-18 02:48:09.99	265.27	18.09	-42.0	-45.3	18.3	6.02e-01	0	60	0	464519168	56	4998
2026-01-18 02:48:11.00	265.06	18.00	-42.0	-45.3	18.3	6.03e-01	0	60	0	466092032	56	4992
2026-01-18 02:48:12.01	264.84	17.92	-42.1	-45.4	18.1	6.00e-01	0	60	0	468189184	56	5095
2026-01-18 02:48:13.02	264.63	17.83	-42.2	-45.7	17.9	6.02e-01	0	60	0	470286336	56	5226
2026-01-18 02:48:14.03	264.42	17.75	-42.3	-45.8	17.7	6.04e-01	0	60	0	471859200	56	5340
2026-01-18 02:48:15.04	264.20	17.66	-42.1	-45.5	18.0	6.02e-01	0	60	0	473956352	56	5141
2026-01-18 02:48:16.05	263.99	17.57	-42.0	-45.4	18.2	6.03e-01	0	60	0	476053504	56	5064
2026-01-18 02:48:17.06	263.78	17.49	-42.0	-45.3	18.3	6.01e-01	0	60	0	477626368	56	5010
2026-01-18 02:48:18.07	263.58	17.40	-42.1	-45.4	18.1	6.03e-01	0	60	0	479723520	56	5096
2026-01-18 02:48:19.08	263.37	17.32	-42.1	-45.6	18.0	6.02e-01	0	60	0	481296384	56	5169
2026-01-18 02:48:20.09	263.16	17.23	-42.1	-45.6	18.0	5.99e-01	0	60	0	483393536	56	5182
2026-01-18 02:48:21.10	262.96	17.15	-42.1	-45.5	18.0	6.02e-01	0	60	0	485490688	56	5148
2026-01-18 02:48:22.11	262.76	17.06	-42.1	-45.5	18.1	6.02e-01	0	60	0	487063552	56	5107
2026-01-18 02:48:23.12	262.55	16.98	-42.0	-45.4	18.1	6.05e-01	0	60	0	489160704	56	5079
2026-01-18 02:48:24.13	262.35	16.89	-42.1	-45.6	18.0	6.01e-01	0	60	0	490733568	56	5170
2026-01-18 02:48:25.14	262.15	16.80	-42.1	-45.5	18.0	6.03e-01	0	60	0	492830720	56	5125
2026-01-18 02:48:26.15	261.96	16.72	-41.9	-45.2	18.2	6.02e-01	0	60	0	494927872	55	5258
2026-01-18 02:48:27.16	261.76	16.63	-41.9	-45.3	18.2	6.03e-01	0	60	0	496500736	55	5289
2026-01-18 02:48:28.17	261.56	16.55	-41.9	-45.2	18.2	6.03e-01	0	60	0	498597888	55	5259
2026-01-18 02:48:29.18	261.37	16.46	-42.0	-45.4	18.0	6.01e-01	0	60	0	500170752	55	5391
2026-01-18 02:48:30.19	261.18	16.38	-42.0	-45.5	18.0	6.00e-01	0	60	0	502267904	55	5404
2026-01-18 02:48:31.20	260.98	16.29	-42.0	-45.4	17.9	6.01e-01	0	60	0	504365056	55	5400
2026-01-18 02:48:32.21	260.79	16.20	-41.9	-45.3	18.1	6.03e-01	0	60	0	505937920	55	5309
2026-01-18 02:48:33.22	260.60	16.12	-41.9	-45.2	18.2	6.01e-01	0	60	0	508035072	55	5232
2026-01-18 02:48:34.23	260.41	16.03	-41.8	-45.0	18.4	6.05e-01	0	60	0	509607936	55	5147
2026-01-18 02:48:35.23	260.23	15.95	-41.9	-45.3	18.1	6.01e-01	0	60	0	511705088	55	5311
2026-01-18 02:48:36.24	260.04	15.86	-42.0	-45.5	17.9	6.04e-01	0	60	0	513802240	55	5429
2026-01-18 02:48:37.25	259.86	15.78	-42.1	-45.6	17.8	6.01e-01	0	60	0	515375104	55	5510
2026-01-18 02:48:38.26	259.67	15.69	-42.0	-45.4	18.0	6.03e-01	0	60	0	517472256	55	5381
2026-01-18 02:48:39.27	259.49	15.61	-42.0	-45.4	18.0	6.03e-01	0	60	0	519045120	55	5390
2026-01-18 02:48:40.28	259.31	15.52	-41.9	-45.3	18.1	6.00e-01	0	60	0	521142272	55	5315
2026-01-18 02:48:41.29	259.13	15.44	-41.9	-45.2	18.1	6.01e-01	0	60	0	523239424	55	5273
2026-01-18 02:48:42.30	258.95	15.35	-42.1	-45.6	17.8	6.00e-01	0	60	0	524812288	55	5472
2026-01-18 02:48:43.31	258.77	15.27	-42.1	-45.6	17.8	6.03e-01	0	60	0	526909440	55	5472
2026-01-18 02:48:44.32	258.59	15.18	-42.0	-45.5	17.9	6.03e-01	0	60	0	529006592	55	5414
2026-01-18 02:48:45.33	258.42	15.10	-42.0	-45.6	17.8	6.01e-01	0	60	0	530579456	55	5468
2026-01-18 02:48:46.34	258.24	15.01	-42.1	-45.7	17.7	6.02e-01	0	60	0	532676608	55	5573
2026-01-18 02:48:47.35	258.07	14.93	-42.0	-45.5	17.8	6.02e-01	0	60	0	534249472	55	5445
2026-01-18 02:48:48.36	257.89	14.84	-41.9	-45.3	18.0	6.04e-01	0	60	0	536346624	55	5338
2026-01-18 02:48:49.37	257.72	14.76	-42.0	-45.4	17.9	6.01e-01	0	60	0	538443776	55	5383
2026-01-18 02:48:50.38	257.55	14.67	-42.0	-45.4	17.9	6.02e-01	0	60	0	540016640	55	5401
2026-01-18 02:48:51.39	257.38	14.59	-42.0	-45.5	17.8	6.01e-01	0	60	0	542113792	55	5437
2026-01-18 02:48:52.40	257.21	14.50	-42.1	-45.6	17.7	6.04e-01	0	60	0	543686656	55	5521
2026-01-18 02:48:53.40	257.05	14.42	-42.1	-45.7	17.7	6.04e-01	0	60	0	545783808	55	5539
2026-01-18 02:48:54.41	256.88	14.34	-42.0	-45.5	17.8	6.02e-01	0	60	0	547880960	55	5442
2026-01-18 02:48:55.42	256.71	14.25	-42.0	-45.6	17.8	6.01e-01	0	60	0	549453824	55	5471
2026-01-18 02:48:56.43	256.55	14.17	-42.0	-45.6	17.8	6.04e-01	0	60	0	551550976	55	5472
2026-01-18 02:48:57.44	256.38	14.08	-42.0	-45.4	17.9	6.04e-01	0	60	0	553123840	55	5396
2026-01-18 02:48:58.45	256.22	14.00	-42.0	-45.5	17.8	6.04e-01	0	60	0	555220992	55	5431
2026-01-18 02:48:59.46	256.06	13.92	-42.0	-45.5	17.8	6.01e-01	0	60	0	557318144	55	5410
2026-01-18 02:49:00.47	255.90	13.83	-42.0	-45.5	17.8	6.03e-01	0	60	0	558891008	55	5403
2026-01-18 02:49:01.48	255.74	13.75	-42.0	-45.6	17.7	6.01e-01	0	60	0	560988160	55	5499
2026-01-18 02:49:02.49	255.58	13.66	-42.1	-45.8	17.5	6.03e-01	0	60	0	562561024	55	5598
2026-01-18 02:49:03.50	255.42	13.58	-42.0	-45.5	17.8	6.01e-01	0	60	0	564658176	55	5437
2026-01-18 02:49:04.51	255.26	13.50	-42.0	-45.6	17.7	6.04e-01	0	60	0	566755328	55	5478
2026-01-18 02:49:05.52	255.11	13.41	-42.1	-45.7	17.5	6.04e-01	0	60	0	568328192	55	5586
2026-01-18 02:49:06.52	254.96	13.33	-42.0	-45.6	17.7	6.03e-01	0	60	0	570425344	55	5500
2026-01-18 02:49:07.53	254.80	13.25	-42.1	-45.6	17.7	6.03e-01	0	60	0	572522496	55	5516
2026-01-18 02:49:08.54	254.65	13.17	-42.1	-45.7	17.6	6.04e-01	0	60	0	574095360	55	5558
2026-01-18 02:49:09.56	254.49	13.08	-42.1	-45.8	17.5	6.04e-01	0	60	0	576192512	55	5607
2026-01-18 02:49:10.57	254.34	13.00	-42.0	-45.6	17.7	6.00e-01	0	60	0	577765376	55	5492
2026-01-18 02:49:11.57	254.19	12.92	-42.0	-45.6	17.6	6.03e-01	0	60	0	579862528	55	5515
2026-01-18 02:49:12.58	254.04	12.84	-42.1	-45.7	17.5	6.01e-01	0	60	0	581959680	55	5570
2026-01-18 02:49:13.59	253.90	12.75	-42.0	-45.6	17.7	6.02e-01	0	60	0	583532544	55	5497
2026-01-18 02:49:14.60	253.75	12.67	-42.1	-45.8	17.4	6.05e-01	0	60	0	585629696	55	5632
2026-01-18 02:49:15.61	253.60	12.59	-42.3	-46.1	17.2	6.02e-01	0	60	0	587202560	55	5804
2026-01-18 02:49:16.62	253.46	12.51	-42.1	-45.7	17.5	6.02e-01	0	60	0	589299712	55	5558
2026-01-18 02:49:17.63	253.31	12.43	-42.1	-45.8	17.5	6.03e-01	0	60	0	591396864	55	5607
2026-01-18 02:49:18.64	253.17	12.35	-42.1	-45.8	17.5	6.01e-01	0	60	0	592969728	55	5615
2026-01-18 02:49:19.65	253.02	12.26	-42.1	-45.8	17.4	6.01e-01	0	60	0	595066880	55	5635
2026-01-18 02:49:20.66	252.88	12.18	-42.1	-45.7	17.5	6.01e-01	0	60	0	597164032	55	5544
2026-01-18 02:49:21.67	252.74	12.10	-42.1	-45.7	17.5	6.03e-01	0	60	0	598736896	55	5550
2026-01-18 02:49:22.68	252.60	12.02	-42.1	-45.8	17.4	6.01e-01	0	60	0	600834048	55	5647
2026-01-18 02:49:23.68	252.46	11.94	-42.1	-45.8	17.4	6.01e-01	0	60	0	602406912	55	5629
2026-01-18 02:49:24.69	252.32	11.86	-42.3	-46.1	17.1	6.00e-01	0	60	0	604504064	55	5796
2026-01-18 02:49:25.70	252.18	11.78	-42.1	-45.8	17.4	6.01e-01	0	60	0	606601216	55	5634
2026-01-18 02:49:26.71	252.04	11.70	-42.1	-45.8	17.4	6.00e-01	0	60	0	608174080	55	5625
2026-01-18 02:49:27.72	251.91	11.62	-42.3	-46.1	17.1	6.06e-01	0	60	0	610271232	55	5851
2026-01-18 02:49:28.73	251.77	11.54	-42.2	-46.0	17.1	6.02e-01	0	60	0	611844096	55	5780
2026-01-18 02:49:29.74	251.64	11.46	-42.2	-45.9	17.2	6.01e-01	0	60	0	613941248	55	5706
2026-01-18 02:49:30.75	251.50	11.38	-42.1	-45.9	17.3	6.03e-01	0	60	0	616038400	55	5662
2026-01-18 02:49:31.76	251.37	11.30	-42.1	-45.8	17.4	6.02e-01	0	60	0	617611264	55	5610
2026-01-18 02:49:32.77	251.24	11.22	-42.0	-45.7	17.5	6.03e-01	0	60	0	619708416	55	5544
2026-01-18 02:49:33.78	251.10	11.14	-42.1	-45.8	17.4	6.03e-01	0	60	0	621281280	55	5593
2026-01-18 02:49:34.79	250.97	11.06	-42.1	-45.8	17.4	6.04e-01	0	60	0	623378432	55	5649
2026-01-18 02:49:35.80	250.84	10.98	-42.2	-46.0	17.2	6.04e-01	0	60	0	625475584	55	5735
2026-01-18 02:49:36.81	250.71	10.90	-42.2	-46.0	17.2	6.03e-01	0	60	0	627048448	55	5752
2026-01-18 02:49:37.82	250.59	10.82	-42.3	-46.3	16.9	6.02e-01	0	60	0	629145600	55	5935
2026-01-18 02:49:38.83	250.46	10.75	-42.2	-46.0	17.1	6.02e-01	0	60	0	630718464	55	5751
2026-01-18 02:49:39.84	250.33	10.67	-42.3	-46.1	17.0	6.03e-01	0	60	0	632815616	55	5845
2026-01-18 02:49:40.85	250.20	10.59	-42.4	-46.4	16.7	6.03e-01	0	60	0	634912768	55	6023
2026-01-18 02:49:41.86	250.08	10.51	-42.3	-46.2	16.9	6.00e-01	0	60	0	636485632	55	5899
2026-01-18 02:49:42.87	249.95	10.43	-42.2	-46.0	17.1	6.06e-01	0	60	0	638582784	55	5757
2026-01-18 02:49:43.88	249.83	10.35	-42.2	-46.0	17.1	6.02e-01	0	60	0	640679936	55	5770
2026-01-18 02:49:44.89	249.70	10.28	-42.3	-46.1	16.9	6.02e-01	0	60	0	642252800	55	5853
2026-01-18 02:49:45.90	249.58	10.20	-42.2	-46.0	17.1	6.02e-01	0	60	0	644349952	55	5771
2026-01-18 02:49:46.91	249.46	10.12	-42.3	-46.2	16.8	6.03e-01	0	60	0	645922816	55	5918
2026-01-18 02:49:47.92	249.34	10.04	-42.2	-46.1	17.0	6.03e-01	0	60	0	648019968	55	5793
2026-01-18 02:49:48.93	249.22	9.97	-42.2	-46.1	16.9	6.02e-01	0	60	0	650117120	55	5849
2026-01-18 02:49:49.94	249.10	9.89	-42.2	-46.0	17.0	6.03e-01	0	60	0	651689984	55	5781
2026-01-18 02:49:50.95	248.98	9.81	-42.2	-46.1	17.1	6.06e-01	0	60	0	653787136	55	5794
2026-01-18 02:49:51.96	248.86	9.74	-42.3	-46.3	16.8	6.03e-01	0	60	0	655360000	55	5979
2026-01-18 02:49:52.97	248.74	9.66	-42.2	-46.1	16.9	6.02e-01	0	60	0	657457152	55	5839
2026-01-18 02:49:53.98	248.62	9.58	-42.2	-46.1	17.0	6.00e-01	0	60	0	659554304	55	5807
2026-01-18 02:49:54.99	248.51	9.51	-42.1	-45.9	17.1	6.04e-01	0	60	0	661127168	55	5718
2026-01-18 02:49:56.00	248.39	9.43	-42.2	-46.2	16.8	6.02e-01	0	60	0	663224320	55	5900
2026-01-18 02:49:57.01	248.28	9.36	-42.2	-46.0	17.0	6.01e-01	0	60	0	665321472	55	5767
2026-01-18 02:49:58.02	248.16	9.28	-42.3	-46.4	16.6	6.02e-01	0	60	0	666894336	55	6019
2026-01-18 02:49:59.03	248.05	9.20	-42.3	-46.4	16.6	6.02e-01	0	60	0	668991488	55	6002
2026-01-18 02:50:00.04	247.93	9.13	-42.2	-46.2	16.7	6.03e-01	0	60	0	670564352	55	5915
2026-01-18 02:50:01.04	247.82	9.05	-42.4	-46.5	16.5	6.01e-01	0	60	0	672661504	55	6096
2026-01-18 02:50:02.05	247.71	8.98	-42.3	-46.4	16.5	6.02e-01	0	60	0	674758656	55	6055
2026-01-18 02:50:03.06	247.60	8.90	-42.2	-46.2	16.7	6.02e-01	0	60	0	676331520	55	5882
2026-01-18 02:50:04.07	247.49	8.83	-42.4	-46.5	16.4	6.02e-01	0	60	0	678428672	55	6129
2026-01-18 02:50:05.08	247.38	8.75	-42.4	-46.5	16.4	6.04e-01	0	60	0	680001536	55	6112
2026-01-18 02:50:06.09	247.27	8.68	-42.4	-46.6	16.4	6.03e-01	0	60	0	682098688	55	6161
2026-01-18 02:50:07.10	247.16	8.61	-42.4	-46.7	16.2	6.04e-01	0	60	0	684195840	55	6241
2026-01-18 02:50:08.11	247.05	8.53	-42.5	-46.8	16.1	6.00e-01	0	60	0	685768704	55	6344
2026-01-18 02:50:09.12	246.94	8.46	-42.5	-46.7	16.2	6.03e-01	0	60	0	687865856	55	6269
2026-01-18 02:50:10.13	246.84	8.38	-42.4	-46.7	16.2	6.02e-01	0	60	0	689438720	55	6241
2026-01-18 02:50:11.14	246.73	8.31	-42.2	-46.3	16.6	6.01e-01	0	60	0	691535872	55	5966
2026-01-18 02:50:12.15	246.62	8.24	-42.4	-46.6	16.3	6.02e-01	0	60	0	693633024	55	6165
2026-01-18 02:50:13.16	246.52	8.16	-42.3	-46.5	16.4	6.02e-01	0	60	0	695205888	55	6118
2026-01-18 02:50:14.17	246.41	8.09	-42.3	-46.5	16.3	6.01e-01	0	60	0	697303040	55	6112
2026-01-18 02:50:15.18	246.31	8.02	-42.3	-46.5	16.4	6.01e-01	0	60	0	698875904	55	6086
2026-01-18 02:50:16.19	246.21	7.94	-45.4	-63.9	3.6	7.46e-01	0	60	104	700448768	61	32066
2026-01-18 02:50:17.20	246.10	7.87	-45.7	-64.3	3.8	7.47e-01	0	60	104	700448768	61	33530
2026-01-18 02:50:18.21	246.00	7.80	-45.9	-64.5	3.8	7.46e-01	0	60	104	700448768	62	32390
2026-01-18 02:50:19.22	245.90	7.72	-46.0	-64.6	3.8	7.44e-01	0	60	104	700448768	62	32883
2026-01-18 02:50:20.23	245.80	7.65	-46.1	-64.8	3.8	7.45e-01	0	60	104	700448768	62	33322
2026-01-18 02:50:21.24	245.70	7.58	-46.2	-64.8	3.8	7.46e-01	0	60	104	700448768	62	33473
2026-01-18 02:50:22.25	245.60	7.51	-46.2	-64.8	3.8	7.45e-01	0	60	104	700448768	62	33555
2026-01-18 02:50:23.26	245.50	7.44	-46.2	-64.9	3.8	7.46e-01	0	60	104	700448768	63	31813
2026-01-18 02:50:24.27	245.40	7.36	-46.3	-64.9	3.8	7.47e-01	0	60	104	700448768	63	31958
2026-01-18 02:50:25.28	245.30	7.29	-46.3	-64.9	3.8	7.45e-01	0	60	104	700448768	63	31899
2026-01-18 02:50:26.30	245.20	7.22	-46.2	-64.8	3.8	7.47e-01	0	61	104	700448768	63	31702
2026-01-18 02:50:27.31	245.10	7.15	-46.2	-64.8	3.8	7.46e-01	0	60	104	700448768	63	31520
2026-01-18 02:50:28.32	245.01	7.08	-46.2	-64.7	3.8	7.43e-01	0	60	104	700448768	63	31436
2026-01-18 02:50:29.33	244.91	7.01	-46.2	-64.7	3.8	7.45e-01	0	60	104	700448768	63	31344
2026-01-18 02:50:30.34	244.81	6.94	-46.2	-64.8	3.8	7.43e-01	0	60	104	700448768	63	31478
2026-01-18 02:50:31.35	244.72	6.86	-46.2	-64.7	3.8	7.47e-01	0	60	104	700448768	63	31402
2026-01-18 02:50:32.36	244.62	6.79	-46.1	-64.7	3.8	7.45e-01	0	61	104	700448768	63	31197
2026-01-18 02:50:33.37	244.53	6.72	-46.1	-64.7	3.8	7.43e-01	0	60	104	700448768	63	31196
2026-01-18 02:50:34.38	244.44	6.65	-46.1	-64.7	3.8	7.42e-01	0	60	104	700448768	63	31235
2026-01-18 02:50:35.40	244.34	6.58	-46.1	-64.7	3.8	7.46e-01	0	60	104	700448768	63	31186
2026-01-18 02:50:36.41	244.25	6.51	-46.1	-64.7	3.8	7.44e-01	0	61	104	700448768	63	31212
2026-01-18 02:50:37.42	244.16	6.44	-46.1	-64.7	3.8	7.45e-01	0	60	104	700448768	63	31169
2026-01-18 02:50:38.43	244.07	6.37	-46.1	-64.7	3.8	7.45e-01	0	60	104	700448768	63	31220
2026-01-18 02:50:39.44	243.97	6.30	-46.1	-64.7	3.8	7.41e-01	0	60	104	700448768	63	31149
2026-01-18 02:50:40.45	243.88	6.23	-46.1	-64.7	3.8	7.50e-01	0	60	104	700448768	63	31094
2026-01-18 02:50:41.46	243.79	6.16	-46.1	-64.7	3.8	7.42e-01	0	60	104	700448768	63	31161
2026-01-18 02:50:42.47	243.70	6.10	-46.1	-64.7	3.8	7.47e-01	0	60	104	700448768	63	31152
2026-01-18 02:50:43.48	243.61	6.03	-46.1	-64.7	3.8	7.43e-01	0	60	104	700448768	63	31142
2026-01-18 02:50:44.49	243.52	5.96	-46.1	-64.7	3.8	7.43e-01	0	60	104	700448768	63	31119
2026-01-18 02:50:45.50	243.44	5.89	-46.1	-64.6	3.8	7.47e-01	0	60	104	700448768	63	31059
2026-01-18 02:50:46.52	243.35	5.82	-46.1	-64.6	3.8	7.46e-01	0	60	104	700448768	63	31062
2026-01-18 02:50:47.53	243.26	5.75	-46.1	-64.6	3.8	7.43e-01	0	60	104	700448768	63	31022
2026-01-18 02:50:48.54	243.17	5.68	-46.1	-64.6	3.8	7.45e-01	0	60	104	700448768	63	31050
2026-01-18 02:50:49.55	243.09	5.61	-46.1	-64.6	3.8	7.50e-01	0	60	104	700448768	63	30995
2026-01-18 02:50:50.56	243.00	5.55	-46.1	-64.6	3.8	7.45e-01	0	60	104	700448768	63	31049
2026-01-18 02:50:51.57	242.91	5.48	-46.1	-64.6	3.8	7.44e-01	0	60	104	700448768	63	30991
2026-01-18 02:50:52.58	242.83	5.41	-46.1	-64.6	3.8	7.44e-01	0	60	104	700448768	63	30977
2026-01-18 02:50:53.59	242.74	5.34	-46.1	-64.6	3.8	7.44e-01	0	61	104	700448768	63	31058
2026-01-18 02:50:54.60	242.66	5.28	-46.1	-64.6	3.8	7.49e-01	0	61	104	700448768	63	31031
2026-01-18 02:50:55.61	242.58	5.21	-46.1	-64.6	3.8	7.45e-01	0	60	104	700448768	63	30978
2026-01-18 02:50:56.63	242.49	5.14	-46.1	-64.6	3.8	7.44e-01	0	60	104	700448768	63	30972
2026-01-18 02:50:57.64	242.41	5.07	-46.1	-64.6	3.8	7.41e-01	0	60	104	700448768	63	31011
2026-01-18 02:50:58.65	242.33	5.01	-46.1	-64.6	3.8	7.45e-01	0	60	104	700448768	63	31049
2026-01-18 02:50:59.66	242.24	4.94	-46.1	-64.6	3.8	7.46e-01	0	61	104	700448768	63	31024
2026-01-18 02:51:00.67	242.16	4.87	-46.1	-64.6	3.8	7.46e-01	0	61	104	700448768	63	31040
2026-01-18 02:51:01.68	242.08	4.81	-46.1	-64.7	3.8	7.49e-01	0	60	104	700448768	63	31092
2026-01-18 02:51:02.69	242.00	4.74	-46.1	-64.6	3.8	7.45e-01	0	60	104	700448768	63	31059
2026-01-18 02:51:03.70	241.92	4.67	-46.1	-64.6	3.8	7.46e-01	0	60	104	700448768	63	31018
2026-01-18 02:51:04.71	241.84	4.61	-46.1	-64.6	3.8	7.43e-01	0	61	104	700448768	63	31005
2026-01-18 02:51:05.72	241.76	4.54	-46.1	-64.6	3.8	7.45e-01	0	60	104	700448768	63	31001
2026-01-18 02:51:06.74	241.68	4.47	-46.1	-64.6	3.8	7.42e-01	0	61	104	700448768	63	30984
2026-01-18 02:51:07.75	241.60	4.41	-46.1	-64.6	3.8	7.42e-01	0	60	104	700448768	63	31002
2026-01-18 02:51:08.76	241.52	4.34	-46.1	-64.6	3.8	7.44e-01	0	60	104	700448768	63	30978
2026-01-18 02:51:09.77	241.44	4.28	-46.1	-64.7	3.8	7.47e-01	0	60	104	700448768	63	31111
2026-01-18 02:51:10.78	241.36	4.21	-46.1	-64.6	3.8	7.44e-01	0	60	104	700448768	63	31017
2026-01-18 02:51:11.79	241.29	4.15	-46.1	-64.6	3.8	7.45e-01	0	61	104	700448768	63	30991
2026-01-18 02:51:12.80	241.21	4.08	-46.1	-64.6	3.8	7.46e-01	0	61	104	700448768	63	31038
2026-01-18 02:51:13.81	241.13	4.02	-46.0	-64.6	3.8	7.45e-01	0	60	104	700448768	63	30909
2026-01-18 02:51:14.83	241.06	3.95	-46.1	-64.6	3.8	7.43e-01	0	61	104	700448768	63	30997
2026-01-18 02:51:15.84	240.98	3.89	-46.0	-64.6	3.8	7.45e-01	0	60	104	700448768	63	31015
2026-01-18 02:51:16.85	240.91	3.82	-46.0	-64.6	3.8	7.44e-01	0	61	104	700448768	63	30991
2026-01-18 02:51:17.86	240.83	3.76	-46.0	-64.6	3.8	7.45e-01	0	61	104	700448768	63	31018
2026-01-18 02:51:18.87	240.76	3.69	-46.0	-64.6	3.8	7.43e-01	0	61	104	700448768	63	30984
2026-01-18 02:51:19.88	240.68	3.63	-46.1	-64.6	3.8	7.42e-01	0	61	104	700448768	63	30951
2026-01-18 02:51:20.89	240.61	3.57	-46.0	-64.6	3.8	7.46e-01	0	61	104	700448768	63	30979
2026-01-18 02:51:21.90	240.53	3.50	-46.0	-64.6	3.8	7.48e-01	0	61	104	700448768	63	30954
2026-01-18 02:51:22.91	240.46	3.44	-46.0	-64.6	3.8	7.44e-01	0	61	104	700448768	63	30982
2026-01-18 02:51:23.92	240.39	3.37	-46.0	-64.6	3.8	7.48e-01	0	60	104	700448768	63	31029
2026-01-18 02:51:24.93	240.31	3.31	-46.0	-64.6	3.8	7.48e-01	0	61	104	700448768	63	30966
2026-01-18 02:51:25.94	240.24	3.25	-46.0	-64.6	3.8	7.46e-01	0	60	104	700448768	63	30906
2026-01-18 02:51:26.95	240.17	3.18	-46.0	-64.6	3.8	7.44e-01	0	61	104	700448768	63	31022
2026-01-18 02:51:27.97	240.10	3.12	-46.0	-64.6	3.8	7.45e-01	0	61	104	700448768	63	30917
2026-01-18 02:51:28.98	240.03	3.06	-46.0	-64.6	3.8	7.43e-01	0	61	104	700448768	63	30932
2026-01-18 02:51:29.99	239.96	2.99	-46.0	-64.6	3.8	7.46e-01	0	60	104	700448768	63	30933
2026-01-18 02:51:31.00	239.89	2.93	-46.0	-64.6	3.8	7.47e-01	0	61	104	700448768	63	30930
2026-01-18 02:51:32.01	239.82	2.87	-46.0	-64.6	3.8	7.48e-01	0	61	104	700448768	63	30908
2026-01-18 02:51:33.02	239.75	2.81	-46.0	-64.6	3.8	7.46e-01	0	61	104	700448768	63	30903
2026-01-18 02:51:34.03	239.68	2.74	-46.0	-64.6	3.8	7.46e-01	0	61	104	700448768	63	30946
2026-01-18 02:51:35.04	239.61	2.68	-46.0	-64.6	3.8	7.48e-01	0	60	104	700448768	63	30932
2026-01-18 02:51:36.06	239.54	2.62	-46.0	-64.6	3.8	7.45e-01	0	61	104	700448768	63	30955
2026-01-18 02:51:37.07	239.47	2.56	-46.0	-64.6	3.8	7.46e-01	0	61	104	700448768	63	30898
2026-01-18 02:51:38.08	239.40	2.49	-46.0	-64.6	3.8	7.46e-01	0	61	104	700448768	63	30944
2026-01-18 02:51:39.09	239.33	2.43	-46.0	-64.6	3.8	7.46e-01	0	61	104	700448768	63	31008
2026-01-18 02:51:40.10	239.27	2.37	-46.0	-64.6	3.8	7.47e-01	0	60	104	700448768	63	30885
2026-01-18 02:51:41.11	239.20	2.31	-46.0	-64.6	3.8	7.44e-01	0	61	104	700448768	63	30899
2026-01-18 02:51:42.12	239.13	2.25	-46.0	-64.6	3.8	7.48e-01	0	60	104	700448768	63	30878
2026-01-18 02:51:43.13	239.07	2.19	-46.0	-64.6	3.8	7.46e-01	0	61	104	700448768	63	30850
2026-01-18 02:51:44.14	239.00	2.12	-46.0	-64.6	3.8	7.46e-01	0	61	104	700448768	63	30871
2026-01-18 02:51:45.16	238.93	2.06	-46.0	-64.6	3.8	7.47e-01	0	61	104	700448768	63	30886
2026-01-18 02:51:46.17	238.87	2.00	-46.0	-64.6	3.8	7.44e-01	0	61	104	700448768	63	30809
2026-01-18 02:51:47.18	238.80	1.94	-46.0	-64.6	3.8	7.47e-01	0	60	104	700448768	63	30870

#Closed at: 2026-01-18 02:51:47
#Recorded file [700 MB]: D:/lorett/data/31039_260118_054012.dat