passes_logs/2026/01/18/R2.0S_Moscow/R2.0S_Moscow__20260118_203047_FENGYUN_3G_rec.log

#Pass ID: 20260118_203047_FENGYUN 3G
#Satellite: FENGYUN 3G
#Configuration: FENGYUN 3G
#almurnet v.1.7.20251203
#Start time: 2026-01-18 20:30:47

#Version: 2.2.20231116
#Station: R2.0S_Moscow
#Location: 37.707566 lon 55.798166 lat
#TLE: 1 56232U 23055A   26017.62185216  .00029849  00000+0  46390-3 0  9996
#TLE: 2 56232  49.9938  42.4053 0004170  40.2836 319.8440 15.53630283156608

#Time	Az	El	Level	Level2	SNR	BER	BlckErr	Temp	State	Recorded	gain1	gain2
2026-01-18 20:30:47.62	228.97	2.03	-43.7	-61.9	3.8	8.45e-01	0	52	0	0	59	28352
2026-01-18 20:30:48.63	228.89	2.10	-43.7	-61.8	3.8	8.44e-01	0	52	104	0	59	28270
2026-01-18 20:30:49.64	228.81	2.16	-43.7	-61.8	3.8	8.46e-01	0	52	104	0	59	28095
2026-01-18 20:30:50.65	228.73	2.23	-43.7	-61.8	3.8	8.46e-01	0	52	104	0	59	28078
2026-01-18 20:30:51.66	228.64	2.29	-43.7	-61.6	3.8	8.46e-01	0	52	104	0	59	27455
2026-01-18 20:30:52.67	228.56	2.36	-43.7	-61.6	3.8	8.46e-01	0	53	104	0	59	27502
2026-01-18 20:30:53.68	228.48	2.42	-43.7	-61.3	3.8	8.46e-01	0	52	104	0	59	26748
2026-01-18 20:30:54.69	228.39	2.49	-43.7	-61.6	3.8	8.46e-01	0	53	104	0	59	27482
2026-01-18 20:30:55.71	228.30	2.55	-43.7	-61.4	3.8	8.46e-01	0	53	104	0	59	26946
2026-01-18 20:30:56.72	228.22	2.62	-43.7	-61.2	3.8	8.45e-01	0	53	104	0	59	26362
2026-01-18 20:30:57.73	228.13	2.68	-43.7	-61.4	3.8	8.45e-01	0	53	104	0	59	27015
2026-01-18 20:30:58.74	228.05	2.75	-43.7	-61.3	3.8	8.45e-01	0	53	104	0	59	26572
2026-01-18 20:30:59.75	227.96	2.81	-43.7	-61.4	3.8	8.48e-01	0	53	104	0	59	26813
2026-01-18 20:31:00.76	227.87	2.88	-43.7	-61.6	3.8	8.48e-01	0	53	104	0	59	27560
2026-01-18 20:31:01.77	227.78	2.95	-43.7	-61.5	3.8	8.47e-01	0	53	104	0	59	27264
2026-01-18 20:31:02.78	227.69	3.01	-43.7	-61.6	3.8	8.45e-01	0	53	104	0	59	27579
2026-01-18 20:31:03.79	227.60	3.08	-43.7	-61.6	3.8	8.46e-01	0	53	104	0	59	27670
2026-01-18 20:31:04.80	227.51	3.15	-43.7	-61.7	3.8	8.46e-01	0	53	104	0	59	27960
2026-01-18 20:31:05.81	227.42	3.21	-43.7	-61.8	3.8	8.47e-01	0	53	104	0	59	28166
2026-01-18 20:31:06.82	227.33	3.28	-43.7	-61.8	3.8	8.46e-01	0	53	104	0	59	28294
2026-01-18 20:31:07.83	227.24	3.35	-43.7	-61.8	3.8	8.46e-01	0	53	104	0	59	28220
2026-01-18 20:31:08.84	227.14	3.42	-43.7	-61.8	3.8	8.46e-01	0	54	104	0	59	28232
2026-01-18 20:31:09.85	227.05	3.48	-43.7	-61.8	3.8	8.47e-01	0	54	104	0	59	28126
2026-01-18 20:31:10.86	226.96	3.55	-43.7	-61.7	3.8	8.47e-01	0	54	104	0	59	27896
2026-01-18 20:31:11.87	226.86	3.62	-43.7	-61.7	3.8	8.46e-01	0	54	104	0	59	27788
2026-01-18 20:31:12.88	226.76	3.69	-43.7	-61.6	3.8	8.46e-01	0	54	104	0	59	27663
2026-01-18 20:31:13.90	226.67	3.76	-43.7	-61.5	3.8	8.46e-01	0	54	104	0	59	27194
2026-01-18 20:31:14.91	226.57	3.83	-43.7	-61.6	3.8	8.46e-01	0	54	104	0	59	27418
2026-01-18 20:31:15.92	226.47	3.90	-43.7	-61.6	3.8	8.47e-01	0	54	104	0	59	27463
2026-01-18 20:31:16.93	226.37	3.97	-43.7	-61.6	3.8	8.46e-01	0	54	104	0	59	27472
2026-01-18 20:31:17.94	226.28	4.04	-43.7	-61.7	3.8	8.46e-01	0	54	104	0	59	27728
2026-01-18 20:31:18.95	226.18	4.11	-43.7	-61.7	3.8	8.46e-01	0	54	104	0	59	27918
2026-01-18 20:31:19.96	226.08	4.18	-43.7	-61.8	3.8	8.47e-01	0	54	104	0	59	28280
2026-01-18 20:31:20.97	225.98	4.25	-43.7	-61.8	3.8	8.47e-01	0	54	104	0	59	28235
2026-01-18 20:31:21.98	225.87	4.32	-43.7	-61.8	3.8	8.46e-01	0	54	104	0	59	28299
2026-01-18 20:31:22.99	225.77	4.39	-43.7	-61.8	3.8	8.47e-01	0	54	104	0	59	28255
2026-01-18 20:31:24.00	225.67	4.46	-43.7	-61.8	3.8	8.47e-01	0	54	104	0	59	28202
2026-01-18 20:31:25.01	225.56	4.53	-43.7	-61.8	3.8	8.45e-01	0	55	104	0	59	28053
2026-01-18 20:31:26.02	225.46	4.60	-43.7	-61.8	3.8	8.46e-01	0	55	104	0	59	28206
2026-01-18 20:31:27.03	225.35	4.67	-43.7	-61.8	3.8	8.44e-01	0	55	104	0	59	28245
2026-01-18 20:31:28.04	225.25	4.74	-43.7	-61.8	3.8	8.44e-01	0	54	104	0	59	28210
2026-01-18 20:31:29.05	225.14	4.81	-43.7	-61.7	3.8	8.47e-01	0	55	104	0	59	27868
2026-01-18 20:31:30.06	225.03	4.89	-43.7	-61.5	3.8	8.46e-01	0	55	104	0	59	27136
2026-01-18 20:31:31.07	224.93	4.96	-43.7	-61.2	3.8	8.46e-01	0	55	104	0	59	26163
2026-01-18 20:31:32.08	224.82	5.03	-43.7	-61.1	3.8	8.47e-01	0	55	104	0	59	26086
2026-01-18 20:31:33.09	224.71	5.10	-43.7	-60.9	3.8	8.46e-01	0	55	104	0	59	25388
2026-01-18 20:31:34.10	224.60	5.18	-43.7	-60.3	3.8	8.46e-01	0	55	104	0	59	23770
2026-01-18 20:31:35.11	224.48	5.25	-43.7	-60.7	3.8	8.47e-01	0	55	104	0	59	24812
2026-01-18 20:31:36.12	224.37	5.32	-43.7	-61.3	3.8	8.46e-01	0	55	104	0	59	26474
2026-01-18 20:31:37.13	224.26	5.40	-43.7	-61.2	3.8	8.46e-01	0	55	104	0	59	26165
2026-01-18 20:31:38.14	224.14	5.47	-43.7	-61.5	3.8	8.46e-01	0	55	104	0	59	27263
2026-01-18 20:31:39.15	224.03	5.55	-43.7	-61.6	3.8	8.46e-01	0	55	104	0	59	27564
2026-01-18 20:31:40.17	223.91	5.62	-43.7	-61.6	3.8	8.47e-01	0	55	104	0	59	27503
2026-01-18 20:31:41.18	223.80	5.70	-43.7	-61.5	3.8	8.47e-01	0	55	104	0	59	27172
2026-01-18 20:31:42.19	223.68	5.77	-43.7	-61.0	3.8	8.46e-01	0	56	104	0	59	25784
2026-01-18 20:31:43.20	223.56	5.85	-43.7	-60.1	3.8	8.44e-01	0	56	104	0	59	23158
2026-01-18 20:31:44.21	223.44	5.92	-43.7	-60.1	3.8	8.44e-01	0	56	104	0	59	23174
2026-01-18 20:31:45.22	223.32	6.00	-43.6	-59.2	3.8	8.45e-01	0	56	104	0	59	20858
2026-01-18 20:31:46.23	223.20	6.07	-43.6	-59.2	3.9	8.44e-01	0	55	104	0	59	20858
2026-01-18 20:31:47.24	223.08	6.15	-43.6	-59.0	3.9	8.44e-01	0	56	104	0	59	20363
2026-01-18 20:31:48.25	222.96	6.23	-43.6	-58.8	4.1	8.44e-01	0	56	104	0	59	20067
2026-01-18 20:31:49.26	222.83	6.30	-43.6	-58.8	4.1	8.46e-01	0	56	104	0	59	19988
2026-01-18 20:31:50.27	222.71	6.38	-43.6	-58.4	4.1	8.46e-01	0	56	0	0	59	19086
2026-01-18 20:31:51.28	222.58	6.46	-43.6	-58.4	4.2	8.42e-01	0	56	0	0	59	19090
2026-01-18 20:31:52.29	222.46	6.53	-43.6	-57.7	4.3	8.38e-01	0	56	0	0	59	17544
2026-01-18 20:31:53.30	222.33	6.61	-43.5	-56.8	4.7	8.27e-01	0	56	0	0	59	15885
2026-01-18 20:31:54.31	222.20	6.69	-43.4	-55.5	5.4	8.27e-01	0	56	0	0	58	14532
2026-01-18 20:31:55.32	222.07	6.77	-43.3	-54.3	6.3	7.44e-01	0	56	0	524288	58	12521
2026-01-18 20:31:56.33	221.94	6.85	-43.2	-52.9	7.6	2.69e-01	0	56	0	1572864	58	10686
2026-01-18 20:31:57.34	221.81	6.92	-43.1	-52.4	8.3	2.69e-01	0	56	0	2621440	58	10147
2026-01-18 20:31:58.35	221.68	7.00	-43.0	-51.8	8.7	8.02e-02	0	56	0	3670016	58	9487
2026-01-18 20:31:59.36	221.55	7.08	-43.0	-51.8	8.7	5.26e-02	0	56	0	5242880	58	9448
2026-01-18 20:32:00.38	221.41	7.16	-43.1	-52.2	8.4	5.26e-02	0	56	0	6291456	58	9883
2026-01-18 20:32:01.39	221.27	7.24	-43.2	-52.8	7.9	4.66e-02	0	56	0	7340032	58	10636
2026-01-18 20:32:02.40	221.14	7.32	-43.4	-54.6	6.1	1.15e-01	0	56	0	8388608	58	13102
2026-01-18 20:32:03.41	221.00	7.40	-43.6	-58.2	4.3	1.15e-01	0	56	0	8912896	58	19674
2026-01-18 20:32:04.41	220.86	7.48	-43.7	-61.5	3.8	5.77e-01	0	56	104	8912896	58	29007
2026-01-18 20:32:05.43	220.72	7.56	-43.6	-58.0	4.2	8.45e-01	0	56	104	8912896	58	19331
2026-01-18 20:32:06.44	220.58	7.65	-43.2	-53.1	7.4	6.70e-01	0	57	0	9437184	58	10950
2026-01-18 20:32:07.44	220.44	7.73	-42.8	-51.0	9.4	6.70e-01	0	57	0	10485760	57	9128
2026-01-18 20:32:08.46	220.30	7.81	-42.2	-48.3	12.2	5.55e-02	0	57	0	11534336	56	7105
2026-01-18 20:32:09.47	220.15	7.89	-41.8	-47.4	13.1	8.37e-04	0	57	0	12582912	55	6781
2026-01-18 20:32:10.48	220.01	7.97	-41.6	-46.8	13.6	8.37e-04	0	56	0	13631488	55	6341
2026-01-18 20:32:11.49	219.86	8.05	-41.7	-47.3	13.7	2.51e-05	0	57	0	14680064	55	6671
2026-01-18 20:32:12.50	219.71	8.14	-42.4	-48.7	11.6	5.18e-02	0	57	0	16252928	56	7443
2026-01-18 20:32:13.51	219.57	8.22	-41.3	-46.1	15.0	5.18e-02	0	57	0	17301504	54	6180
2026-01-18 20:32:14.51	219.42	8.30	-42.7	-50.7	8.7	7.32e-03	0	57	0	17825792	56	9286
2026-01-18 20:32:15.53	219.26	8.39	-40.9	-45.2	15.4	3.33e-01	0	57	0	18874368	53	5859
2026-01-18 20:32:16.54	219.11	8.47	-41.5	-46.8	13.6	5.12e-03	0	57	0	19922944	55	6314
2026-01-18 20:32:17.55	218.96	8.55	-40.9	-45.1	15.7	5.12e-03	0	57	0	21495808	53	5815
2026-01-18 20:32:18.56	218.80	8.64	-40.7	-44.6	16.1	0.00e+00	0	57	0	22544384	53	5521
2026-01-18 20:32:19.57	218.65	8.72	-40.9	-45.0	15.8	0.00e+00	0	57	0	23592960	53	5758
2026-01-18 20:32:20.57	218.49	8.81	-40.8	-44.9	16.0	0.00e+00	0	57	0	24641536	53	5663
2026-01-18 20:32:21.58	218.33	8.89	-41.0	-45.2	15.6	0.00e+00	0	57	0	25690112	53	5909
2026-01-18 20:32:22.59	218.17	8.98	-40.8	-44.8	16.0	0.00e+00	0	57	0	26738688	53	5640
2026-01-18 20:32:23.60	218.01	9.06	-40.8	-44.9	16.0	0.00e+00	0	57	0	28311552	53	5659
2026-01-18 20:32:24.61	217.85	9.15	-41.0	-45.1	15.9	0.00e+00	0	57	0	29360128	53	5805
2026-01-18 20:32:25.62	217.69	9.24	-40.9	-45.0	16.0	0.00e+00	0	57	0	30408704	53	5732
2026-01-18 20:32:26.63	217.52	9.32	-41.0	-45.1	15.8	0.00e+00	0	57	0	31457280	53	5819
2026-01-18 20:32:27.64	217.36	9.41	-40.9	-44.9	16.0	0.00e+00	0	57	0	32505856	53	5693
2026-01-18 20:32:28.64	217.19	9.50	-40.8	-44.7	16.2	0.00e+00	0	57	0	33554432	53	5581
2026-01-18 20:32:29.65	217.02	9.58	-40.8	-44.8	16.2	0.00e+00	0	57	0	35127296	53	5629
2026-01-18 20:32:30.66	216.85	9.67	-40.9	-44.9	16.1	0.00e+00	0	57	0	36175872	53	5684
2026-01-18 20:32:31.67	216.68	9.76	-40.7	-44.6	16.4	0.00e+00	0	57	0	37224448	53	5513
2026-01-18 20:32:32.68	216.51	9.85	-40.8	-44.7	16.3	0.00e+00	0	57	0	38273024	53	5553
2026-01-18 20:32:33.69	216.33	9.94	-40.6	-44.3	16.6	0.00e+00	0	57	0	39321600	53	5340
2026-01-18 20:32:34.70	216.16	10.02	-40.7	-44.6	16.4	0.00e+00	0	57	0	40370176	53	5484
2026-01-18 20:32:35.71	215.98	10.11	-40.7	-44.6	16.4	0.00e+00	0	57	0	41943040	53	5472
2026-01-18 20:32:36.72	215.80	10.20	-40.6	-44.3	16.7	0.00e+00	0	57	0	42991616	53	5320
2026-01-18 20:32:37.73	215.62	10.29	-40.6	-44.3	16.7	0.00e+00	0	57	0	44040192	53	5316
2026-01-18 20:32:38.74	215.44	10.38	-40.7	-44.3	16.7	0.00e+00	0	57	0	45088768	53	5326
2026-01-18 20:32:39.75	215.25	10.47	-40.7	-44.4	16.6	0.00e+00	0	58	0	46137344	53	5399
2026-01-18 20:32:40.76	215.07	10.56	-40.8	-44.6	16.4	0.00e+00	0	57	0	47185920	53	5511
2026-01-18 20:32:41.77	214.88	10.65	-40.6	-44.1	17.0	0.00e+00	0	57	0	48758784	52	5489
2026-01-18 20:32:42.78	214.69	10.74	-40.6	-44.2	16.9	0.00e+00	0	58	0	49807360	52	5580
2026-01-18 20:32:43.79	214.50	10.83	-40.6	-44.1	17.0	0.00e+00	0	57	0	50855936	52	5505
2026-01-18 20:32:44.80	214.31	10.93	-40.2	-43.5	17.5	0.00e+00	0	58	0	51904512	52	5152
2026-01-18 20:32:45.81	214.12	11.02	-40.3	-43.6	17.6	0.00e+00	0	58	0	52953088	52	5174
2026-01-18 20:32:46.81	213.93	11.11	-40.4	-43.8	17.3	0.00e+00	0	57	0	54001664	52	5294
2026-01-18 20:32:47.82	213.73	11.20	-40.4	-43.8	17.4	0.00e+00	0	58	0	55574528	52	5298
2026-01-18 20:32:48.83	213.53	11.29	-40.2	-43.4	17.7	0.00e+00	0	58	0	56623104	52	5074
2026-01-18 20:32:49.84	213.33	11.39	-40.2	-43.3	17.9	0.00e+00	0	58	0	57671680	51	5322
2026-01-18 20:32:50.85	213.13	11.48	-40.2	-43.4	17.9	0.00e+00	0	58	0	58720256	51	5363
2026-01-18 20:32:51.86	212.93	11.57	-40.0	-43.1	18.1	0.00e+00	0	58	0	59768832	51	5179
2026-01-18 20:32:52.87	212.72	11.67	-40.2	-43.3	18.0	0.00e+00	0	58	0	60817408	51	5332
2026-01-18 20:32:53.88	212.52	11.76	-40.1	-43.2	18.1	0.00e+00	0	58	0	62390272	51	5223
2026-01-18 20:32:54.89	212.31	11.85	-40.3	-43.5	17.8	0.00e+00	0	58	0	63438848	51	5427
2026-01-18 20:32:55.90	212.10	11.95	-40.3	-43.5	17.9	0.00e+00	0	58	0	64487424	51	5428
2026-01-18 20:32:56.91	211.89	12.04	-40.4	-43.6	17.7	0.00e+00	0	58	0	65536000	51	5497
2026-01-18 20:32:57.92	211.67	12.14	-40.3	-43.5	17.8	0.00e+00	0	58	0	66584576	51	5430
2026-01-18 20:32:58.93	211.46	12.23	-40.3	-43.5	17.8	0.00e+00	0	58	0	67633152	51	5460
2026-01-18 20:32:59.94	211.24	12.33	-40.2	-43.3	18.0	0.00e+00	0	58	0	69206016	51	5327
2026-01-18 20:33:00.95	211.02	12.42	-40.0	-43.0	18.3	0.00e+00	0	58	0	70254592	51	5125
2026-01-18 20:33:01.96	210.80	12.52	-40.1	-43.2	18.2	0.00e+00	0	58	0	71303168	51	5220
2026-01-18 20:33:02.97	210.58	12.62	-40.1	-43.1	18.2	0.00e+00	0	58	0	72351744	51	5184
2026-01-18 20:33:03.97	210.36	12.71	-39.8	-42.7	18.7	0.00e+00	0	58	0	73400320	51	4931
2026-01-18 20:33:04.98	210.13	12.81	-39.9	-42.8	18.6	0.00e+00	0	58	0	74448896	51	4992
2026-01-18 20:33:05.99	209.90	12.90	-39.9	-42.9	18.4	0.00e+00	0	58	0	76021760	51	5082
2026-01-18 20:33:07.00	209.67	13.00	-40.0	-43.0	18.3	0.00e+00	0	58	0	77070336	51	5135
2026-01-18 20:33:08.01	209.44	13.10	-40.0	-43.0	18.4	0.00e+00	0	58	0	78118912	51	5114
2026-01-18 20:33:09.02	209.20	13.19	-40.0	-43.0	18.3	0.00e+00	0	58	0	79167488	51	5139
2026-01-18 20:33:10.03	208.97	13.29	-40.1	-43.1	18.2	0.00e+00	0	58	0	80216064	51	5209
2026-01-18 20:33:11.04	208.73	13.39	-40.1	-43.1	18.3	0.00e+00	0	58	0	81264640	51	5205
2026-01-18 20:33:12.05	208.49	13.49	-40.1	-43.1	18.2	0.00e+00	0	58	0	82837504	51	5214
2026-01-18 20:33:13.06	208.24	13.58	-39.8	-42.6	18.8	0.00e+00	0	58	0	83886080	51	4919
2026-01-18 20:33:14.06	208.00	13.68	-39.6	-42.4	19.0	0.00e+00	0	58	0	84934656	51	4765
2026-01-18 20:33:15.07	207.76	13.78	-39.4	-42.1	19.4	0.00e+00	0	58	0	85983232	50	4876
2026-01-18 20:33:16.08	207.51	13.88	-39.3	-42.0	19.5	0.00e+00	0	58	0	87031808	50	4818
2026-01-18 20:33:17.10	207.25	13.98	-39.5	-42.2	19.3	0.00e+00	0	58	0	88080384	50	4928
2026-01-18 20:33:18.11	207.00	14.08	-39.4	-42.0	19.4	0.00e+00	0	58	0	89653248	50	4870
2026-01-18 20:33:19.11	206.75	14.17	-39.6	-42.3	19.1	0.00e+00	0	58	0	90701824	50	5040
2026-01-18 20:33:20.12	206.49	14.27	-39.7	-42.4	19.0	0.00e+00	0	58	0	91750400	50	5083
2026-01-18 20:33:21.14	206.23	14.37	-39.8	-42.6	18.8	0.00e+00	0	58	0	92798976	50	5190
2026-01-18 20:33:22.14	205.97	14.47	-39.8	-42.7	18.8	0.00e+00	0	58	0	93847552	50	5256
2026-01-18 20:33:23.16	205.70	14.57	-39.7	-42.5	18.9	0.00e+00	0	58	0	94896128	50	5120
2026-01-18 20:33:24.17	205.43	14.67	-39.5	-42.2	19.3	0.00e+00	0	59	0	96468992	50	4938
2026-01-18 20:33:25.18	205.16	14.77	-39.4	-42.1	19.4	0.00e+00	0	58	0	97517568	50	4888
2026-01-18 20:33:26.19	204.89	14.87	-39.3	-41.9	19.5	0.00e+00	0	58	0	98566144	50	4796
2026-01-18 20:33:27.20	204.62	14.97	-39.1	-41.7	19.8	0.00e+00	0	59	0	99614720	50	4663
2026-01-18 20:33:28.21	204.34	15.07	-39.1	-41.6	19.9	0.00e+00	0	59	0	100663296	50	4649
2026-01-18 20:33:29.22	204.06	15.17	-39.2	-41.8	19.7	0.00e+00	0	59	0	101711872	50	4713
2026-01-18 20:33:30.22	203.79	15.27	-39.2	-41.8	19.7	0.00e+00	0	59	0	103284736	50	4728
2026-01-18 20:33:31.23	203.50	15.37	-39.3	-41.9	19.7	0.00e+00	0	59	0	104333312	50	4772
2026-01-18 20:33:32.24	203.22	15.47	-39.4	-42.0	19.5	0.00e+00	0	59	0	105381888	50	4838
2026-01-18 20:33:33.25	202.93	15.57	-39.4	-42.0	19.5	0.00e+00	0	59	0	106430464	50	4851
2026-01-18 20:33:34.26	202.64	15.67	-39.3	-41.9	19.6	0.00e+00	0	59	0	107479040	50	4760
2026-01-18 20:33:35.27	202.34	15.76	-39.1	-41.7	19.8	0.00e+00	0	58	0	108527616	50	4659
2026-01-18 20:33:36.28	202.05	15.86	-39.1	-41.7	19.9	0.00e+00	0	59	0	110100480	50	4653
2026-01-18 20:33:37.29	201.75	15.96	-39.0	-41.5	20.0	0.00e+00	0	59	0	111149056	50	4591
2026-01-18 20:33:38.30	201.45	16.06	-39.0	-41.5	20.0	0.00e+00	0	59	0	112197632	49	4828
2026-01-18 20:33:39.31	201.15	16.16	-38.8	-41.2	20.3	0.00e+00	0	59	0	113246208	49	4676
2026-01-18 20:33:40.32	200.84	16.26	-38.6	-40.9	20.6	0.00e+00	0	59	0	114294784	49	4527
2026-01-18 20:33:41.33	200.53	16.36	-38.6	-40.9	20.6	0.00e+00	0	59	0	115343360	49	4511
2026-01-18 20:33:42.34	200.22	16.46	-38.7	-41.0	20.5	0.00e+00	0	59	0	116916224	49	4564
2026-01-18 20:33:43.34	199.91	16.56	-38.7	-41.1	20.4	0.00e+00	0	59	0	117964800	49	4616
2026-01-18 20:33:44.35	199.60	16.66	-38.7	-41.1	20.4	0.00e+00	0	59	0	119013376	49	4626
2026-01-18 20:33:45.36	199.28	16.76	-38.9	-41.3	20.3	0.00e+00	0	59	0	120061952	49	4732
2026-01-18 20:33:46.37	198.96	16.85	-39.2	-41.7	19.8	0.00e+00	0	59	0	121110528	49	4974
2026-01-18 20:33:47.38	198.64	16.95	-39.1	-41.7	19.9	0.00e+00	0	59	0	122159104	49	4935
2026-01-18 20:33:48.39	198.31	17.05	-39.2	-41.7	19.8	0.00e+00	0	59	0	123731968	49	4975
2026-01-18 20:33:49.40	197.98	17.15	-39.2	-41.8	19.7	0.00e+00	0	59	0	124780544	49	4997
2026-01-18 20:33:50.41	197.65	17.25	-39.1	-41.5	20.0	0.00e+00	0	59	0	125829120	49	4865
2026-01-18 20:33:51.42	197.31	17.34	-38.8	-41.2	20.3	0.00e+00	0	59	0	126877696	49	4703
2026-01-18 20:33:52.43	196.98	17.44	-38.8	-41.2	20.3	0.00e+00	0	59	0	127926272	49	4671
2026-01-18 20:33:53.44	196.64	17.54	-38.5	-40.8	20.8	0.00e+00	0	59	0	128974848	49	4458
2026-01-18 20:33:54.45	196.30	17.63	-38.4	-40.7	20.9	0.00e+00	0	59	0	130547712	48	4652
2026-01-18 20:33:55.46	195.95	17.73	-38.4	-40.6	20.9	0.00e+00	0	59	0	131596288	48	4619
2026-01-18 20:33:56.47	195.60	17.82	-38.2	-40.4	21.1	0.00e+00	0	59	0	132644864	48	4503
2026-01-18 20:33:57.47	195.26	17.92	-38.3	-40.4	21.1	0.00e+00	0	59	0	133693440	48	4544
2026-01-18 20:33:58.48	194.90	18.01	-38.2	-40.3	21.2	0.00e+00	0	59	0	134742016	48	4493
2026-01-18 20:33:59.49	194.55	18.11	-38.4	-40.6	21.0	0.00e+00	0	59	0	135790592	48	4650
2026-01-18 20:34:00.50	194.19	18.20	-38.6	-40.9	20.7	0.00e+00	0	59	0	137363456	48	4771
2026-01-18 20:34:01.51	193.83	18.29	-38.9	-41.3	20.3	0.00e+00	0	59	0	138412032	48	4992
2026-01-18 20:34:02.52	193.46	18.39	-39.0	-41.4	20.2	0.00e+00	0	59	0	139460608	48	5093
2026-01-18 20:34:03.53	193.10	18.48	-39.0	-41.5	20.1	0.00e+00	0	59	0	140509184	48	5118
2026-01-18 20:34:04.54	192.73	18.57	-39.1	-41.5	20.0	0.00e+00	0	59	0	141557760	48	5154
2026-01-18 20:34:05.55	192.35	18.66	-38.9	-41.3	20.3	0.00e+00	0	59	0	142606336	48	5013
2026-01-18 20:34:06.55	191.98	18.75	-38.6	-41.0	20.6	0.00e+00	0	59	0	144179200	48	4822
2026-01-18 20:34:07.56	191.61	18.84	-38.5	-40.8	20.8	0.00e+00	0	59	0	145227776	48	4727
2026-01-18 20:34:08.57	191.22	18.93	-38.4	-40.7	20.8	0.00e+00	0	59	0	146276352	48	4671
2026-01-18 20:34:09.58	190.84	19.02	-38.4	-40.6	21.0	0.00e+00	0	59	0	147324928	48	4639
2026-01-18 20:34:10.59	190.46	19.11	-38.2	-40.3	21.2	0.00e+00	0	59	0	148373504	48	4484
2026-01-18 20:34:11.60	190.07	19.20	-38.2	-40.4	21.1	0.00e+00	0	59	0	149422080	48	4519
2026-01-18 20:34:12.61	189.68	19.28	-38.3	-40.5	21.1	0.00e+00	0	59	0	150994944	48	4552
2026-01-18 20:34:13.62	189.28	19.37	-38.1	-40.3	21.3	0.00e+00	0	59	0	152043520	48	4462
2026-01-18 20:34:14.63	188.88	19.45	-37.9	-40.1	21.5	0.00e+00	0	59	0	153092096	47	4620
2026-01-18 20:34:15.64	188.49	19.54	-37.9	-40.0	21.6	0.00e+00	0	59	0	154140672	47	4574
2026-01-18 20:34:16.65	188.08	19.62	-37.8	-39.8	21.7	0.00e+00	0	59	0	155189248	47	4492
2026-01-18 20:34:17.66	187.68	19.70	-38.1	-40.2	21.3	0.00e+00	0	59	0	156237824	47	4696
2026-01-18 20:34:18.67	187.27	19.79	-38.1	-40.3	21.3	0.00e+00	0	59	0	157810688	47	4710
2026-01-18 20:34:19.68	186.86	19.87	-38.3	-40.6	21.0	0.00e+00	0	59	0	158859264	47	4895
2026-01-18 20:34:20.69	186.45	19.95	-38.5	-40.8	20.7	0.00e+00	0	59	0	159907840	47	5041
2026-01-18 20:34:21.70	186.03	20.03	-38.7	-41.0	20.6	0.00e+00	0	59	0	160956416	48	4854
2026-01-18 20:34:22.71	185.62	20.10	-38.7	-41.1	20.5	0.00e+00	0	59	0	162004992	48	4875
2026-01-18 20:34:23.72	185.20	20.18	-38.6	-40.9	20.7	0.00e+00	0	59	0	163053568	48	4779
2026-01-18 20:34:24.72	184.78	20.26	-38.6	-41.0	20.6	0.00e+00	0	59	0	164626432	48	4816
2026-01-18 20:34:25.73	184.35	20.33	-38.6	-40.9	20.7	0.00e+00	0	59	0	165675008	48	4775
2026-01-18 20:34:26.75	183.92	20.40	-38.6	-40.9	20.7	0.00e+00	0	59	0	166723584	48	4786
2026-01-18 20:34:27.76	183.49	20.48	-38.4	-40.6	20.9	0.00e+00	0	59	0	167772160	48	4651
2026-01-18 20:34:28.77	183.06	20.55	-38.4	-40.6	21.0	0.00e+00	0	59	0	168820736	48	4623
2026-01-18 20:34:29.77	182.63	20.62	-38.2	-40.4	21.2	0.00e+00	0	59	0	169869312	48	4499
2026-01-18 20:34:30.78	182.19	20.69	-38.2	-40.3	21.3	0.00e+00	0	59	0	171442176	48	4476
2026-01-18 20:34:31.79	181.75	20.75	-37.9	-40.0	21.5	0.00e+00	0	59	0	172490752	47	4576
2026-01-18 20:34:32.80	181.31	20.82	-38.0	-40.1	21.4	0.00e+00	0	59	0	173539328	47	4639
2026-01-18 20:34:33.81	180.86	20.89	-38.2	-40.3	21.3	0.00e+00	0	59	0	174587904	47	4751
2026-01-18 20:34:34.82	180.42	20.95	-38.3	-40.5	21.0	0.00e+00	0	59	0	175636480	47	4862
2026-01-18 20:34:35.83	179.97	21.01	-38.4	-40.6	21.0	0.00e+00	0	59	0	176685056	47	4906
2026-01-18 20:34:36.84	179.52	21.07	-38.3	-40.5	21.1	0.00e+00	0	59	0	178257920	47	4828
2026-01-18 20:34:37.85	179.06	21.13	-38.4	-40.6	20.9	0.00e+00	0	59	0	179306496	47	4919
2026-01-18 20:34:38.86	178.61	21.19	-38.2	-40.4	21.1	0.00e+00	0	59	0	180355072	47	4806
2026-01-18 20:34:39.87	178.15	21.25	-38.3	-40.5	21.1	0.00e+00	0	59	0	181403648	47	4840
2026-01-18 20:34:40.88	177.69	21.30	-38.2	-40.4	21.1	0.00e+00	0	59	0	182452224	47	4789
2026-01-18 20:34:41.89	177.23	21.36	-38.2	-40.4	21.2	0.00e+00	0	59	0	183500800	47	4791
2026-01-18 20:34:42.90	176.77	21.41	-38.1	-40.3	21.1	0.00e+00	0	59	0	184549376	47	4740
2026-01-18 20:34:43.91	176.31	21.46	-38.2	-40.3	21.3	0.00e+00	0	59	0	186122240	47	4744
2026-01-18 20:34:44.92	175.84	21.51	-38.3	-40.5	21.1	0.00e+00	0	59	0	187170816	47	4850
2026-01-18 20:34:45.92	175.38	21.55	-38.3	-40.5	21.1	0.00e+00	0	59	0	188219392	47	4822
2026-01-18 20:34:46.93	174.91	21.60	-38.4	-40.6	21.2	0.00e+00	0	59	0	189267968	47	4887
2026-01-18 20:34:47.94	174.43	21.64	-38.3	-40.4	21.4	0.00e+00	0	59	0	190316544	48	4533
2026-01-18 20:34:48.95	173.96	21.69	-38.3	-40.4	21.4	0.00e+00	0	59	0	191365120	48	4537
2026-01-18 20:34:49.96	173.49	21.73	-38.3	-40.4	21.4	0.00e+00	0	60	0	192937984	48	4524
2026-01-18 20:34:50.97	173.01	21.77	-38.2	-40.3	21.5	0.00e+00	0	59	0	193986560	48	4446
2026-01-18 20:34:51.98	172.53	21.80	-38.2	-40.3	21.4	0.00e+00	0	60	0	195035136	48	4490
2026-01-18 20:34:52.99	172.06	21.84	-38.0	-40.1	21.6	0.00e+00	0	60	0	196083712	48	4357
2026-01-18 20:34:54.00	171.58	21.87	-37.8	-39.9	21.8	0.00e+00	0	59	0	197132288	47	4515
2026-01-18 20:34:55.01	171.10	21.90	-37.7	-39.8	21.9	0.00e+00	0	59	0	198180864	47	4444
2026-01-18 20:34:56.02	170.61	21.93	-37.7	-39.7	22.0	0.00e+00	0	59	0	199753728	47	4417
2026-01-18 20:34:57.03	170.13	21.96	-37.5	-39.5	22.2	0.00e+00	0	60	0	200802304	47	4324
2026-01-18 20:34:58.04	169.65	21.99	-37.5	-39.4	22.2	0.00e+00	0	59	0	201850880	47	4280
2026-01-18 20:34:59.05	169.16	22.01	-37.4	-39.4	22.3	0.00e+00	0	59	0	202899456	46	4512
2026-01-18 20:35:00.05	168.68	22.04	-37.2	-39.1	22.6	0.00e+00	0	60	0	203948032	46	4363
2026-01-18 20:35:01.06	168.19	22.06	-37.2	-39.1	22.7	0.00e+00	0	60	0	205520896	46	4367
2026-01-18 20:35:02.08	167.70	22.08	-37.3	-39.2	22.6	0.00e+00	0	60	0	206569472	46	4411
2026-01-18 20:35:03.09	167.21	22.09	-37.4	-39.3	22.5	0.00e+00	0	60	0	207618048	46	4453
2026-01-18 20:35:04.09	166.73	22.11	-37.7	-39.7	22.1	0.00e+00	0	60	0	208666624	46	4680
2026-01-18 20:35:05.11	166.23	22.12	-37.9	-39.9	21.9	0.00e+00	0	60	0	209715200	46	4795
2026-01-18 20:35:06.12	165.74	22.13	-38.0	-40.0	21.8	0.00e+00	0	59	0	210763776	46	4841
2026-01-18 20:35:07.13	165.25	22.14	-38.1	-40.2	21.6	0.00e+00	0	60	0	212336640	46	4964
2026-01-18 20:35:08.13	164.77	22.15	-38.0	-40.1	21.7	0.00e+00	0	60	0	213385216	46	4895
2026-01-18 20:35:09.15	164.27	22.16	-38.2	-40.3	21.6	0.00e+00	0	60	0	214433792	46	5031
2026-01-18 20:35:10.15	163.79	22.16	-38.1	-40.2	21.6	0.00e+00	0	60	0	215482368	46	4952
2026-01-18 20:35:11.16	163.30	22.16	-37.9	-39.9	21.9	0.00e+00	0	60	0	216530944	46	4777
2026-01-18 20:35:12.17	162.80	22.16	-37.8	-39.7	22.1	0.00e+00	0	60	0	217579520	46	4705
2026-01-18 20:35:13.18	162.31	22.16	-37.7	-39.6	22.2	0.00e+00	0	60	0	219152384	46	4647
2026-01-18 20:35:14.19	161.82	22.16	-37.4	-39.4	22.5	0.00e+00	0	60	0	220200960	46	4524
2026-01-18 20:35:15.20	161.33	22.15	-37.4	-39.3	22.5	0.00e+00	0	60	0	221249536	46	4492
2026-01-18 20:35:16.21	160.84	22.14	-37.5	-39.5	22.4	0.00e+00	0	60	0	222298112	46	4583
2026-01-18 20:35:17.22	160.35	22.14	-37.6	-39.6	22.3	0.00e+00	0	60	0	223346688	45	4882
2026-01-18 20:35:18.23	159.86	22.12	-37.8	-39.8	22.0	0.00e+00	0	60	0	224395264	46	4743
2026-01-18 20:35:19.24	159.37	22.11	-38.0	-40.1	21.8	0.00e+00	0	60	0	225443840	46	4888
2026-01-18 20:35:20.25	158.88	22.09	-38.3	-40.4	21.4	0.00e+00	0	60	0	227016704	47	4799
2026-01-18 20:35:21.26	158.40	22.08	-38.3	-40.5	21.4	0.00e+00	0	60	0	228065280	47	4864
2026-01-18 20:35:22.27	157.91	22.06	-38.3	-40.5	21.4	0.00e+00	0	60	0	229113856	47	4864
2026-01-18 20:35:23.28	157.42	22.04	-38.2	-40.4	21.4	0.00e+00	0	60	0	230162432	47	4802
2026-01-18 20:35:24.28	156.94	22.02	-38.1	-40.2	21.6	0.00e+00	0	60	0	231211008	47	4688
2026-01-18 20:35:25.29	156.46	21.99	-37.9	-40.0	21.9	0.00e+00	0	60	0	232259584	47	4559
2026-01-18 20:35:26.30	155.97	21.96	-37.8	-39.9	22.1	0.00e+00	0	60	0	233832448	47	4514
2026-01-18 20:35:27.31	155.49	21.94	-37.4	-39.4	22.5	0.00e+00	0	60	0	234881024	46	4523
2026-01-18 20:35:28.32	155.01	21.91	-37.3	-39.3	22.6	0.00e+00	0	60	0	235929600	46	4465
2026-01-18 20:35:29.33	154.53	21.87	-37.4	-39.4	22.5	0.00e+00	0	60	0	236978176	46	4532
2026-01-18 20:35:30.35	154.04	21.84	-37.7	-39.8	22.2	0.00e+00	0	60	0	238026752	46	4707
2026-01-18 20:35:31.35	153.57	21.80	-37.9	-40.0	22.0	0.00e+00	0	60	0	239075328	46	4827
2026-01-18 20:35:32.36	153.09	21.77	-38.2	-40.4	21.6	0.00e+00	0	60	0	240648192	46	5053
2026-01-18 20:35:33.37	152.62	21.73	-38.1	-40.3	21.7	0.00e+00	0	60	0	241696768	46	4994
2026-01-18 20:35:34.38	152.14	21.69	-38.0	-40.1	21.8	0.00e+00	0	60	0	242745344	46	4902
2026-01-18 20:35:35.39	151.67	21.65	-37.8	-39.8	22.0	0.00e+00	0	60	0	243793920	46	4752
2026-01-18 20:35:36.40	151.20	21.60	-37.6	-39.6	22.4	0.00e+00	0	60	0	244842496	46	4633
2026-01-18 20:35:37.41	150.73	21.56	-37.8	-39.9	22.1	0.00e+00	0	60	0	245891072	46	4790
2026-01-18 20:35:38.42	150.26	21.51	-38.1	-40.2	21.7	0.00e+00	0	60	0	247463936	46	4977
2026-01-18 20:35:39.43	149.80	21.46	-38.5	-40.8	21.2	0.00e+00	0	60	0	248512512	47	4986
2026-01-18 20:35:40.44	149.33	21.41	-38.6	-40.8	21.1	0.00e+00	0	60	0	249561088	47	5034
2026-01-18 20:35:41.45	148.87	21.36	-38.8	-41.1	20.9	0.00e+00	0	60	0	250609664	48	4921
2026-01-18 20:35:42.46	148.41	21.30	-38.7	-41.0	21.0	0.00e+00	0	60	0	251658240	48	4830
2026-01-18 20:35:43.46	147.96	21.25	-38.5	-40.7	21.3	0.00e+00	0	60	0	253231104	48	4689
2026-01-18 20:35:44.47	147.50	21.19	-38.4	-40.6	21.4	0.00e+00	0	60	0	254279680	48	4614
2026-01-18 20:35:45.48	147.05	21.14	-38.2	-40.3	21.7	0.00e+00	0	60	0	255328256	48	4472
2026-01-18 20:35:46.49	146.59	21.08	-38.2	-40.3	21.7	0.00e+00	0	60	0	256376832	48	4466
2026-01-18 20:35:47.50	146.14	21.02	-38.2	-40.3	21.7	0.00e+00	0	60	0	257425408	48	4480
2026-01-18 20:35:48.51	145.70	20.95	-38.5	-40.7	21.3	0.00e+00	0	60	0	258473984	48	4692
2026-01-18 20:35:49.52	145.25	20.89	-38.6	-40.8	21.2	0.00e+00	0	60	0	260046848	48	4731
2026-01-18 20:35:50.53	144.81	20.82	-38.6	-40.9	21.2	0.00e+00	0	60	0	261095424	48	4761
2026-01-18 20:35:51.54	144.37	20.76	-38.5	-40.7	21.3	0.00e+00	0	60	0	262144000	48	4664
2026-01-18 20:35:52.55	143.93	20.69	-38.5	-40.7	21.3	0.00e+00	0	60	0	263192576	48	4671
2026-01-18 20:35:53.56	143.49	20.62	-38.4	-40.6	21.4	0.00e+00	0	60	0	264241152	48	4646
2026-01-18 20:35:54.57	143.06	20.55	-38.6	-40.8	21.2	0.00e+00	0	60	0	265289728	48	4749
2026-01-18 20:35:55.58	142.62	20.48	-38.7	-40.9	21.1	0.00e+00	0	60	0	266338304	48	4788
2026-01-18 20:35:56.59	142.19	20.41	-38.5	-40.8	21.2	0.00e+00	0	60	0	267911168	48	4709
2026-01-18 20:35:57.60	141.77	20.34	-38.4	-40.5	21.5	0.00e+00	0	60	0	268959744	48	4588
2026-01-18 20:35:58.61	141.34	20.26	-38.2	-40.3	21.7	0.00e+00	0	60	0	270008320	48	4483
2026-01-18 20:35:59.62	140.92	20.19	-38.3	-40.4	21.6	0.00e+00	0	60	0	271056896	48	4533
2026-01-18 20:36:00.63	140.50	20.11	-38.4	-40.5	21.4	0.00e+00	0	60	0	272105472	48	4597
2026-01-18 20:36:01.63	140.09	20.03	-38.3	-40.5	21.5	0.00e+00	0	60	0	273154048	48	4561
2026-01-18 20:36:02.64	139.68	19.95	-38.3	-40.5	21.4	0.00e+00	0	60	0	274726912	48	4574
2026-01-18 20:36:03.65	139.26	19.87	-38.3	-40.4	21.5	0.00e+00	0	60	0	275775488	48	4542
2026-01-18 20:36:04.66	138.85	19.79	-38.4	-40.6	21.4	0.00e+00	0	60	0	276824064	48	4646
2026-01-18 20:36:05.67	138.45	19.71	-38.5	-40.7	21.3	0.00e+00	0	60	0	277872640	48	4696
2026-01-18 20:36:06.68	138.04	19.63	-38.6	-40.8	21.2	0.00e+00	0	60	0	278921216	48	4746
2026-01-18 20:36:07.69	137.64	19.55	-38.7	-41.0	21.0	0.00e+00	0	60	0	279969792	48	4836
2026-01-18 20:36:08.70	137.24	19.46	-38.9	-41.2	20.8	0.00e+00	0	60	0	281542656	48	4957
2026-01-18 20:36:09.71	136.85	19.38	-38.8	-41.1	21.0	0.00e+00	0	60	0	282591232	48	4877
2026-01-18 20:36:10.71	136.46	19.29	-38.6	-40.9	21.2	0.00e+00	0	60	0	283639808	48	4768
2026-01-18 20:36:11.72	136.07	19.21	-38.5	-40.7	21.3	0.00e+00	0	60	0	284688384	48	4693
2026-01-18 20:36:12.73	135.68	19.12	-38.5	-40.7	21.3	0.00e+00	0	60	0	285736960	48	4681
2026-01-18 20:36:13.74	135.30	19.03	-38.3	-40.4	21.6	0.00e+00	0	60	0	286785536	48	4538
2026-01-18 20:36:14.75	134.91	18.94	-38.6	-40.9	21.1	0.00e+00	0	60	0	288358400	48	4765
2026-01-18 20:36:15.76	134.53	18.85	-38.8	-41.1	20.9	0.00e+00	0	60	0	289406976	48	4910
2026-01-18 20:36:16.77	134.16	18.76	-38.8	-41.1	20.8	0.00e+00	0	60	0	290455552	48	4925
2026-01-18 20:36:17.78	133.78	18.67	-38.8	-41.2	20.7	1.10e-06	0	60	0	291504128	48	4946
2026-01-18 20:36:18.79	133.41	18.58	-38.7	-41.0	20.9	0.00e+00	0	60	0	292552704	48	4843
2026-01-18 20:36:19.80	133.04	18.49	-37.9	-41.1	20.5	1.10e-06	0	60	0	293601280	47	5171
2026-01-18 20:36:20.81	132.68	18.40	-38.5	-40.8	21.0	1.10e-06	0	60	0	295174144	47	5020
2026-01-18 20:36:21.81	132.32	18.31	-36.1	-40.5	20.1	2.28e-05	0	60	0	296222720	44	5779
2026-01-18 20:36:22.82	131.96	18.21	-38.3	-40.6	21.0	4.57e-05	0	60	0	297271296	47	4883
2026-01-18 20:36:23.83	131.60	18.12	-38.4	-40.6	21.1	4.57e-05	0	60	0	298319872	47	4915
2026-01-18 20:36:24.84	131.24	18.03	-38.3	-40.6	21.0	4.50e-06	0	60	0	299368448	47	4886
2026-01-18 20:36:25.85	130.89	17.93	-38.1	-40.8	20.8	2.20e-06	0	60	0	300417024	47	5018
2026-01-18 20:36:26.86	130.54	17.84	-38.7	-41.0	19.5	2.20e-06	0	60	0	301989888	47	5133
2026-01-18 20:36:27.87	130.20	17.74	-38.7	-41.0	20.6	4.40e-04	0	60	0	303038464	47	5152
2026-01-18 20:36:28.88	129.85	17.65	-38.5	-40.9	20.7	2.20e-06	0	60	0	304087040	47	5054
2026-01-18 20:36:29.89	129.51	17.55	-38.6	-41.0	20.7	2.20e-06	0	60	0	305135616	47	5117
2026-01-18 20:36:30.90	129.17	17.45	-38.6	-40.9	20.6	0.00e+00	0	60	0	306184192	47	5087
2026-01-18 20:36:31.91	128.84	17.36	-38.2	-40.9	20.6	4.50e-06	0	60	0	307232768	46	5346
2026-01-18 20:36:32.92	128.50	17.26	-38.6	-40.9	20.8	0.00e+00	0	60	0	308805632	47	5067
2026-01-18 20:36:33.93	128.17	17.16	-38.8	-41.2	20.6	0.00e+00	0	60	0	309854208	48	4934
2026-01-18 20:36:34.94	127.84	17.07	-38.8	-41.2	20.5	0.00e+00	0	60	0	310902784	48	4973
2026-01-18 20:36:35.95	127.52	16.97	-38.9	-41.3	20.5	0.00e+00	0	60	0	311951360	48	4987
2026-01-18 20:36:36.96	127.20	16.87	-38.9	-41.3	20.4	0.00e+00	0	60	0	312999936	48	5004
2026-01-18 20:36:37.97	126.88	16.77	-38.8	-41.3	20.1	1.10e-06	0	60	0	314048512	48	5006
2026-01-18 20:36:38.98	126.56	16.68	-38.9	-41.3	20.4	0.00e+00	0	60	0	315621376	48	5041
2026-01-18 20:36:39.99	126.24	16.58	-39.0	-41.5	20.3	0.00e+00	0	60	0	316669952	48	5111
2026-01-18 20:36:41.00	125.93	16.48	-39.1	-41.6	20.1	0.00e+00	0	60	0	317718528	48	5187
2026-01-18 20:36:42.01	125.62	16.38	-39.1	-41.6	20.0	0.00e+00	0	60	0	318767104	48	5187
2026-01-18 20:36:43.02	125.31	16.28	-39.0	-41.5	20.1	0.00e+00	0	60	0	319815680	48	5145
2026-01-18 20:36:44.03	125.01	16.18	-38.9	-41.4	20.1	0.00e+00	0	60	0	320864256	48	5098
2026-01-18 20:36:45.03	124.71	16.08	-38.9	-41.4	20.3	0.00e+00	0	60	0	322437120	48	5052
2026-01-18 20:36:46.04	124.41	15.98	-39.0	-41.5	20.2	0.00e+00	0	60	0	323485696	48	5105
2026-01-18 20:36:47.05	124.11	15.89	-37.3	-41.5	19.0	0.00e+00	0	60	0	324534272	47	5444
2026-01-18 20:36:48.06	123.82	15.79	-38.2	-41.7	18.9	6.80e-06	0	60	0	325582848	47	5530
2026-01-18 20:36:49.07	123.53	15.69	-39.3	-42.0	19.7	1.10e-06	0	60	0	326631424	49	5114
2026-01-18 20:36:50.08	123.24	15.59	-38.9	-41.9	19.0	1.10e-06	0	60	0	327680000	48	5368
2026-01-18 20:36:51.09	122.95	15.49	-39.3	-42.2	17.8	3.40e-06	0	60	0	329252864	47	5860
2026-01-18 20:36:52.10	122.66	15.39	-39.2	-41.9	19.4	4.57e-05	0	60	0	330301440	48	5393
2026-01-18 20:36:53.11	122.38	15.29	-38.7	-41.8	18.3	4.57e-05	0	60	0	331350016	48	5307
2026-01-18 20:36:54.12	122.10	15.19	-38.4	-42.0	18.2	1.49e-04	0	60	0	332398592	48	5427
2026-01-18 20:36:55.13	121.82	15.09	-38.2	-42.1	18.8	1.38e-04	0	60	0	333447168	48	5510
2026-01-18 20:36:56.14	121.55	14.99	-38.3	-42.2	18.6	5.83e-05	0	60	0	334495744	48	5565
2026-01-18 20:36:57.15	121.28	14.89	-37.9	-42.2	18.0	5.83e-05	0	60	0	336068608	46	6242
2026-01-18 20:36:58.16	121.01	14.79	-38.8	-42.2	18.1	1.98e-04	0	60	0	337117184	48	5532
2026-01-18 20:36:59.17	120.74	14.70	-38.9	-42.0	18.5	3.15e-04	0	60	0	338165760	48	5458
2026-01-18 20:37:00.18	120.47	14.60	-38.8	-42.2	17.8	3.15e-04	0	60	0	339214336	48	5556
2026-01-18 20:37:01.19	120.21	14.50	-38.7	-42.1	17.4	1.72e-03	0	60	0	340262912	48	5524
2026-01-18 20:37:02.20	119.95	14.40	-36.5	-41.8	15.1	1.31e-03	0	60	0	341311488	41	7900
2026-01-18 20:37:03.21	119.69	14.30	-35.2	-41.9	13.5	1.31e-03	0	60	0	342884352	41	8025
2026-01-18 20:37:04.22	119.43	14.20	-37.4	-42.4	15.6	7.42e-03	0	60	0	343932928	47	6040
2026-01-18 20:37:05.23	119.18	14.10	-35.1	-42.4	16.0	5.64e-03	0	60	0	344981504	46	6420
2026-01-18 20:37:06.24	118.92	14.00	-35.3	-42.6	12.7	5.64e-03	0	60	0	346030080	39	9805
2026-01-18 20:37:07.25	118.67	13.91	-38.6	-42.5	16.2	6.34e-03	0	60	0	347078656	47	6128
2026-01-18 20:37:08.26	118.42	13.81	-25.8	-40.1	8.0	1.68e-03	0	60	0	348127232	25	16349
2026-01-18 20:37:09.27	118.18	13.71	-37.3	-42.2	12.1	1.13e-01	0	60	0	349175808	36	11130
2026-01-18 20:37:10.27	117.94	13.61	-33.7	-42.4	16.0	1.13e-01	0	60	0	350224384	45	6783
2026-01-18 20:37:11.28	117.69	13.52	-38.1	-42.8	16.6	5.83e-03	0	60	0	351797248	47	6298
2026-01-18 20:37:12.29	117.45	13.42	-34.1	-42.7	15.6	4.66e-03	0	60	0	352845824	43	7889
2026-01-18 20:37:13.30	117.22	13.32	-35.9	-43.0	14.2	4.66e-03	0	60	0	353894400	44	7698
2026-01-18 20:37:14.31	116.98	13.23	-36.4	-42.5	15.5	2.58e-03	0	61	0	354942976	43	7666
2026-01-18 20:37:15.32	116.75	13.13	-35.9	-42.5	16.7	1.14e-02	0	60	0	355991552	44	7261
2026-01-18 20:37:16.33	116.51	13.03	-37.2	-42.8	15.1	1.14e-02	0	60	0	357040128	41	8887
2026-01-18 20:37:17.34	116.28	12.94	-37.4	-43.1	16.6	1.24e-03	0	60	0	358612992	46	6905
2026-01-18 20:37:18.35	116.06	12.84	-32.3	-43.1	15.1	4.94e-03	0	60	0	359661568	42	8751
2026-01-18 20:37:19.36	115.83	12.74	-37.9	-43.3	16.8	4.94e-03	0	60	0	360710144	45	7534
2026-01-18 20:37:20.37	115.61	12.65	-26.4	-43.7	11.0	1.39e-03	0	60	0	361758720	38	11770
2026-01-18 20:37:21.37	115.39	12.55	-37.1	-43.7	12.7	9.24e-02	0	60	0	362807296	41	9855
2026-01-18 20:37:22.38	115.17	12.46	-36.4	-42.8	16.5	8.56e-03	0	60	0	363855872	46	6717
2026-01-18 20:37:23.39	114.95	12.36	-24.7	-42.3	8.5	8.56e-03	0	60	0	364904448	21	26545
2026-01-18 20:37:24.40	114.73	12.27	-37.4	-43.5	16.2	3.30e-02	0	60	0	366477312	48	6470
2026-01-18 20:37:25.41	114.52	12.17	-39.1	-43.7	16.8	6.93e-04	0	60	0	367525888	48	6593
2026-01-18 20:37:26.42	114.30	12.08	-38.8	-43.5	16.4	6.93e-04	0	60	0	368574464	48	6457
2026-01-18 20:37:27.43	114.09	11.98	-38.9	-44.0	12.2	1.29e-02	0	60	0	369623040	45	8154
2026-01-18 20:37:28.44	113.88	11.89	-37.2	-42.1	17.4	2.03e-02	0	60	0	370671616	46	6182
2026-01-18 20:37:29.45	113.68	11.80	-39.1	-44.1	15.7	2.03e-02	0	60	0	371720192	48	6935
2026-01-18 20:37:30.45	113.47	11.70	-39.6	-45.7	13.4	2.75e-03	0	60	0	372768768	50	7396
2026-01-18 20:37:31.46	113.27	11.61	-39.1	-45.1	14.4	8.29e-03	0	61	0	374341632	49	7317
2026-01-18 20:37:32.47	113.07	11.52	-38.7	-46.1	12.8	8.29e-03	0	61	0	375390208	47	9215
2026-01-18 20:37:33.48	112.87	11.42	-38.3	-45.3	12.7	1.97e-02	0	60	0	376438784	47	8378
2026-01-18 20:37:34.49	112.67	11.33	-35.3	-42.7	15.0	1.99e-02	0	60	0	377487360	44	7424
2026-01-18 20:37:35.50	112.47	11.24	-37.4	-43.4	14.3	2.61e-02	0	61	0	378535936	45	7599
2026-01-18 20:37:36.51	112.27	11.15	-35.8	-43.3	14.0	2.61e-02	0	60	0	379584512	44	7917
2026-01-18 20:37:37.52	112.08	11.06	-37.1	-43.8	11.9	1.95e-02	0	60	0	381157376	42	9482
2026-01-18 20:37:38.53	111.89	10.97	-25.8	-42.7	8.3	5.43e-02	0	60	0	382205952	22	26178
2026-01-18 20:37:39.54	111.70	10.87	-36.0	-43.6	12.7	5.43e-02	0	61	0	383254528	43	8695
2026-01-18 20:37:40.55	111.51	10.78	-36.6	-44.2	13.2	6.99e-02	0	60	0	384303104	43	9364
2026-01-18 20:37:41.56	111.32	10.69	-37.0	-43.6	13.5	3.18e-02	0	60	0	385351680	44	8258
2026-01-18 20:37:42.57	111.13	10.60	-35.4	-43.4	10.5	3.18e-02	0	60	0	386400256	35	13555
2026-01-18 20:37:43.58	110.95	10.51	-37.2	-44.2	12.6	5.91e-02	0	60	0	387973120	44	8789
2026-01-18 20:37:44.59	110.77	10.42	-35.2	-44.2	13.4	3.35e-02	0	60	0	389021696	45	8318
2026-01-18 20:37:45.60	110.59	10.33	-35.6	-43.6	13.0	3.35e-02	0	61	0	390070272	42	9194
2026-01-18 20:37:46.61	110.41	10.24	-35.5	-44.3	12.2	2.38e-02	0	61	0	391118848	43	9463
2026-01-18 20:37:47.62	110.23	10.15	-37.5	-44.5	13.1	3.96e-02	0	60	0	392167424	44	9125
2026-01-18 20:37:48.63	110.05	10.07	-35.3	-44.3	9.8	2.83e-02	0	60	0	393216000	41	10611
2026-01-18 20:37:49.64	109.88	9.98	-37.3	-44.4	12.4	2.83e-02	0	60	0	394264576	44	9065
2026-01-18 20:37:50.65	109.70	9.89	-37.2	-44.5	12.4	3.79e-02	0	61	0	395837440	44	9169
2026-01-18 20:37:51.66	109.53	9.80	-36.9	-44.7	13.4	4.40e-02	0	61	0	396886016	46	8340
2026-01-18 20:37:52.67	109.36	9.71	-35.5	-44.3	11.5	4.40e-02	0	61	0	397934592	41	10619
2026-01-18 20:37:53.68	109.19	9.63	-27.6	-43.0	8.5	3.51e-02	0	60	0	398983168	25	22799
2026-01-18 20:37:54.69	109.02	9.54	-35.3	-44.2	14.0	1.03e-01	0	61	0	400031744	45	8354
2026-01-18 20:37:55.69	108.85	9.45	-36.5	-44.3	13.3	1.03e-01	0	60	0	401080320	43	9412
2026-01-18 20:37:56.70	108.69	9.37	-37.4	-44.8	13.5	1.48e-02	0	60	0	402128896	47	7957
2026-01-18 20:37:57.71	108.52	9.28	-38.8	-45.0	14.2	4.02e-02	0	61	0	403701760	48	7652
2026-01-18 20:37:58.72	108.36	9.19	-38.3	-45.2	13.6	4.02e-02	0	61	0	404750336	47	8282
2026-01-18 20:37:59.73	108.20	9.11	-38.9	-45.1	14.0	7.13e-03	0	60	0	405798912	48	7730
2026-01-18 20:38:00.74	108.04	9.02	-37.3	-44.9	13.7	4.71e-03	0	60	0	406847488	46	8554
2026-01-18 20:38:01.75	107.88	8.94	-38.9	-45.3	12.1	5.30e-03	0	61	0	407896064	48	7981
2026-01-18 20:38:02.76	107.72	8.85	-35.7	-44.3	13.3	5.30e-03	0	61	0	408944640	45	8373
2026-01-18 20:38:03.77	107.57	8.77	-37.6	-45.0	14.3	7.94e-03	0	61	0	410517504	48	7643
2026-01-18 20:38:04.78	107.41	8.68	-37.7	-45.0	10.4	1.42e-02	0	60	0	411566080	32	19201
2026-01-18 20:38:05.79	107.26	8.60	-39.3	-45.0	14.1	1.42e-02	0	60	0	412614656	49	7216
2026-01-18 20:38:06.80	107.10	8.52	-35.4	-45.2	12.9	2.17e-02	0	61	0	413663232	46	8817
2026-01-18 20:38:07.81	106.95	8.43	-38.7	-45.5	13.6	1.44e-02	0	60	0	414711808	50	7229
2026-01-18 20:38:08.82	106.80	8.35	-39.3	-45.6	13.5	1.44e-02	0	60	0	415760384	49	7742
2026-01-18 20:38:09.83	106.65	8.27	-38.5	-46.1	12.7	6.42e-03	0	60	0	417333248	49	8190
2026-01-18 20:38:10.84	106.50	8.18	-35.6	-46.0	12.6	1.72e-03	0	61	0	418381824	50	7678
2026-01-18 20:38:11.85	106.36	8.10	-36.9	-46.2	11.8	1.72e-03	0	61	0	419430400	44	11129
2026-01-18 20:38:12.86	106.21	8.02	-39.9	-46.7	11.8	7.85e-03	0	60	0	420478976	50	8356
2026-01-18 20:38:13.87	106.07	7.94	-38.7	-55.1	4.5	8.56e-03	0	61	0	421527552	47	25857
2026-01-18 20:38:14.88	105.92	7.86	-44.4	-62.5	3.8	7.11e-01	0	61	104	421527552	59	30442
2026-01-18 20:38:15.89	105.78	7.77	-44.8	-63.0	3.8	7.11e-01	0	60	104	421527552	60	30448
2026-01-18 20:38:16.90	105.64	7.69	-45.0	-63.2	3.8	8.46e-01	0	61	104	421527552	60	31233
2026-01-18 20:38:17.91	105.50	7.61	-45.3	-63.5	3.8	8.47e-01	0	61	104	421527552	61	30402
2026-01-18 20:38:18.92	105.36	7.53	-45.5	-63.6	3.8	8.47e-01	0	60	104	421527552	61	31067
2026-01-18 20:38:19.93	105.22	7.45	-45.6	-63.8	3.8	8.47e-01	0	61	104	421527552	61	31540
2026-01-18 20:38:20.94	105.09	7.37	-45.7	-63.9	3.8	8.46e-01	0	61	104	421527552	61	31839
2026-01-18 20:38:21.95	104.95	7.29	-45.8	-63.9	3.8	8.46e-01	0	61	104	421527552	62	30374
2026-01-18 20:38:22.96	104.81	7.21	-45.8	-64.0	3.8	8.46e-01	0	61	104	421527552	62	30520
2026-01-18 20:38:23.97	104.68	7.13	-45.7	-63.9	3.8	8.47e-01	0	61	104	421527552	62	30188
2026-01-18 20:38:24.98	104.55	7.05	-45.6	-63.8	3.8	8.47e-01	0	61	104	421527552	62	29878
2026-01-18 20:38:25.99	104.42	6.98	-45.6	-63.7	3.8	8.47e-01	0	61	104	421527552	62	29526
2026-01-18 20:38:27.00	104.29	6.90	-45.4	-63.6	3.8	8.46e-01	0	61	104	421527552	62	29247
2026-01-18 20:38:28.02	104.15	6.82	-45.6	-63.7	3.8	8.47e-01	0	61	104	421527552	62	29467
2026-01-18 20:38:29.03	104.03	6.74	-45.5	-63.6	3.8	8.47e-01	0	61	104	421527552	62	29041
2026-01-18 20:38:30.04	103.90	6.66	-45.4	-63.5	3.8	8.46e-01	0	61	104	421527552	62	28766
2026-01-18 20:38:31.05	103.77	6.58	-45.3	-63.4	3.8	8.47e-01	0	61	104	421527552	62	28610
2026-01-18 20:38:32.06	103.65	6.51	-45.3	-63.4	3.8	8.47e-01	0	61	104	421527552	62	28614
2026-01-18 20:38:33.07	103.52	6.43	-45.3	-63.4	3.8	8.45e-01	0	61	104	421527552	62	28632
2026-01-18 20:38:34.08	103.40	6.35	-45.3	-63.4	3.8	8.47e-01	0	60	104	421527552	62	28559
2026-01-18 20:38:35.09	103.27	6.28	-45.3	-63.4	3.8	8.47e-01	0	61	104	421527552	62	28560
2026-01-18 20:38:36.10	103.15	6.20	-45.3	-63.4	3.8	8.46e-01	0	61	104	421527552	62	28573
2026-01-18 20:38:37.11	103.03	6.13	-45.3	-63.4	3.8	8.46e-01	0	61	104	421527552	62	28535
2026-01-18 20:38:38.12	102.91	6.05	-45.3	-63.4	3.8	8.47e-01	0	61	104	421527552	62	28571
2026-01-18 20:38:39.13	102.79	5.97	-45.3	-63.4	3.8	8.47e-01	0	61	104	421527552	62	28556
2026-01-18 20:38:40.14	102.67	5.90	-45.3	-63.4	3.8	8.45e-01	0	61	104	421527552	62	28527
2026-01-18 20:38:41.15	102.55	5.82	-45.3	-63.4	3.8	8.46e-01	0	61	104	421527552	62	28570
2026-01-18 20:38:42.16	102.44	5.75	-45.3	-63.4	3.8	8.46e-01	0	61	104	421527552	62	28556
2026-01-18 20:38:43.17	102.32	5.67	-45.3	-63.4	3.8	8.45e-01	0	60	104	421527552	62	28502
2026-01-18 20:38:44.18	102.21	5.60	-45.3	-63.4	3.8	8.47e-01	0	61	104	421527552	62	28489
2026-01-18 20:38:45.19	102.09	5.53	-45.2	-63.4	3.8	8.47e-01	0	61	104	421527552	61	30095
2026-01-18 20:38:46.20	101.98	5.45	-45.3	-63.4	3.8	8.46e-01	0	61	104	421527552	61	30130
2026-01-18 20:38:47.21	101.87	5.38	-45.3	-63.4	3.8	8.47e-01	0	61	104	421527552	60	31951
2026-01-18 20:38:48.22	101.75	5.31	-45.3	-63.3	3.8	8.47e-01	0	61	104	421527552	61	30031
2026-01-18 20:38:49.23	101.64	5.23	-45.2	-63.4	3.8	8.46e-01	0	61	104	421527552	61	30165
2026-01-18 20:38:50.24	101.53	5.16	-45.1	-63.4	3.8	8.46e-01	0	61	104	421527552	61	30088
2026-01-18 20:38:51.25	101.42	5.09	-45.3	-63.4	3.8	8.46e-01	0	61	104	421527552	61	30051
2026-01-18 20:38:52.26	101.31	5.01	-45.1	-63.3	3.8	8.46e-01	0	60	104	421527552	61	29954
2026-01-18 20:38:53.27	101.21	4.94	-45.3	-63.4	3.8	8.46e-01	0	61	104	421527552	61	30077
2026-01-18 20:38:54.28	101.10	4.87	-45.2	-63.4	3.8	8.46e-01	0	61	104	421527552	61	30111
2026-01-18 20:38:55.29	100.99	4.80	-45.3	-63.3	3.8	8.46e-01	0	61	104	421527552	61	30031
2026-01-18 20:38:56.31	100.89	4.73	-44.7	-63.4	3.8	8.46e-01	0	61	104	421527552	61	30065
2026-01-18 20:38:57.32	100.78	4.66	-45.2	-63.4	3.8	8.46e-01	0	61	104	421527552	61	30080
2026-01-18 20:38:58.33	100.68	4.58	-45.3	-63.3	3.8	8.46e-01	0	61	104	421527552	61	30009
2026-01-18 20:38:59.34	100.57	4.51	-45.2	-63.4	3.8	8.45e-01	0	61	104	421527552	61	30035
2026-01-18 20:39:00.35	100.47	4.44	-45.3	-63.3	3.8	8.46e-01	0	61	104	421527552	61	30007
2026-01-18 20:39:01.35	100.37	4.37	-45.2	-63.4	3.8	8.46e-01	0	61	104	421527552	61	30049
2026-01-18 20:39:02.36	100.27	4.30	-44.8	-63.4	3.8	8.47e-01	0	61	104	421527552	61	30117
2026-01-18 20:39:03.37	100.17	4.23	-45.1	-63.3	3.8	8.46e-01	0	61	104	421527552	61	29992
2026-01-18 20:39:04.38	100.07	4.16	-45.2	-63.3	3.8	8.46e-01	0	61	104	421527552	61	29948
2026-01-18 20:39:05.39	99.97	4.09	-44.1	-63.1	3.9	8.46e-01	0	61	104	421527552	59	32728
2026-01-18 20:39:06.40	99.87	4.02	-45.2	-63.4	3.8	8.45e-01	0	61	104	421527552	60	31844
2026-01-18 20:39:07.41	99.77	3.96	-45.2	-63.3	3.8	8.46e-01	0	61	104	421527552	61	29969
2026-01-18 20:39:08.42	99.68	3.89	-45.2	-63.4	3.9	8.46e-01	0	61	104	421527552	61	30051
2026-01-18 20:39:09.43	99.58	3.82	-45.1	-63.3	3.8	8.47e-01	0	61	104	421527552	61	29956
2026-01-18 20:39:10.44	99.48	3.75	-45.2	-63.3	3.9	8.46e-01	0	61	104	421527552	61	29882
2026-01-18 20:39:11.45	99.39	3.68	-45.2	-63.3	3.8	8.46e-01	0	61	104	421527552	61	29911
2026-01-18 20:39:12.46	99.29	3.61	-45.2	-63.3	3.8	8.47e-01	0	61	104	421527552	61	29907
2026-01-18 20:39:13.47	99.20	3.54	-45.2	-63.3	3.8	8.47e-01	0	61	104	421527552	61	29919
2026-01-18 20:39:14.48	99.11	3.48	-45.2	-63.3	3.8	8.47e-01	0	61	104	421527552	61	29902
2026-01-18 20:39:15.49	99.01	3.41	-45.2	-63.3	3.8	8.46e-01	0	61	104	421527552	61	29874
2026-01-18 20:39:16.50	98.92	3.34	-45.2	-63.3	3.8	8.46e-01	0	61	104	421527552	61	29950
2026-01-18 20:39:17.51	98.83	3.28	-45.2	-63.3	3.8	8.47e-01	0	61	104	421527552	61	29835
2026-01-18 20:39:18.52	98.74	3.21	-45.2	-63.3	3.8	8.47e-01	0	61	104	421527552	61	29878
2026-01-18 20:39:19.54	98.65	3.14	-45.2	-63.3	3.8	8.45e-01	0	61	104	421527552	61	29872
2026-01-18 20:39:20.55	98.56	3.07	-45.2	-63.3	3.8	8.47e-01	0	61	104	421527552	61	29837
2026-01-18 20:39:21.56	98.47	3.01	-45.2	-63.3	3.8	8.47e-01	0	61	104	421527552	61	29810
2026-01-18 20:39:22.57	98.38	2.94	-45.2	-63.3	3.8	8.45e-01	0	61	104	421527552	61	29818
2026-01-18 20:39:23.58	98.30	2.88	-45.1	-63.3	3.8	8.45e-01	0	61	104	421527552	60	31769
2026-01-18 20:39:24.59	98.21	2.81	-45.2	-63.3	3.9	8.45e-01	0	61	104	421527552	61	29876
2026-01-18 20:39:25.60	98.12	2.74	-45.2	-63.3	3.8	8.46e-01	0	61	104	421527552	61	29942
2026-01-18 20:39:26.61	98.04	2.68	-45.2	-63.3	3.8	8.45e-01	0	61	104	421527552	61	29875
2026-01-18 20:39:27.62	97.95	2.61	-45.2	-63.3	3.8	8.46e-01	0	61	104	421527552	61	29832
2026-01-18 20:39:28.63	97.87	2.55	-45.2	-63.3	3.8	8.46e-01	0	61	104	421527552	61	29767
2026-01-18 20:39:29.64	97.78	2.48	-45.2	-63.3	3.8	8.46e-01	0	61	104	421527552	61	29751
2026-01-18 20:39:30.65	97.70	2.42	-45.2	-63.3	3.8	8.46e-01	0	61	104	421527552	61	29790
2026-01-18 20:39:31.66	97.61	2.35	-45.2	-63.3	3.8	8.46e-01	0	61	104	421527552	61	29793
2026-01-18 20:39:32.67	97.53	2.29	-45.2	-63.3	3.8	8.46e-01	0	61	104	421527552	61	29776
2026-01-18 20:39:33.68	97.45	2.23	-45.2	-63.3	3.8	8.46e-01	0	61	104	421527552	61	29801
2026-01-18 20:39:34.69	97.37	2.16	-45.2	-63.2	3.8	8.46e-01	0	61	104	421527552	61	29681
2026-01-18 20:39:35.70	97.29	2.10	-45.1	-63.2	3.8	8.45e-01	0	61	104	421527552	61	29674
2026-01-18 20:39:36.71	97.21	2.03	-45.2	-63.3	3.8	8.47e-01	0	61	104	421527552	61	29771

#Closed at: 2026-01-18 20:39:37
#Recorded file [421 MB]: D:/lorett/data/31039_260118_233047.dat