passes_logs/2026/01/25/R4.6S_Anadyr/R4.6S_Anadyr__20260125_183526_AQUA_rec.log

#Pass ID: 20260125_183526_AQUA
#Satellite: AQUA
#Configuration: AQUA
#almurnet v.1.7.20251203
#Start time: 2026-01-25 18:35:29

#Version: 2.2.20231116
#Station: R4.6S_Anadyr
#Location: 177.4865 lon 64.73178 lat
#TLE: 1 27424U 02022A   26025.30011081  .00001897  00000+0  38942-3 0  9997
#TLE: 2 27424  98.4099 351.9015 0001901  65.9773  41.4489 14.61858120262390

#Time	Az	El	Level	Level2	SNR	BER	BlckErr	Temp	State	Recorded	gain1	gain2
2026-01-25 18:35:29.48	25.11	0.16	-51.1	-67.4	3.2	3.02e+01	0	40	0	0	60	90627
2026-01-25 18:35:30.49	25.05	0.22	-51.2	-68.9	3.5	3.02e+01	0	40	104	0	60	107807
2026-01-25 18:35:31.50	24.99	0.27	-51.2	-69.0	3.5	3.02e+01	0	40	104	0	60	108388
2026-01-25 18:35:32.51	24.93	0.33	-51.2	-69.0	3.5	3.02e+01	0	40	104	0	60	108987
2026-01-25 18:35:33.53	24.86	0.39	-51.2	-69.0	3.5	3.02e+01	0	40	104	0	60	108404
2026-01-25 18:35:34.53	24.80	0.44	-51.1	-69.0	3.5	3.02e+01	0	40	104	0	60	108843
2026-01-25 18:35:35.54	24.74	0.50	-51.1	-69.0	3.5	3.02e+01	0	40	104	0	60	108935
2026-01-25 18:35:36.55	24.67	0.56	-51.2	-69.0	3.5	3.02e+01	0	40	104	0	60	109022
2026-01-25 18:35:37.56	24.61	0.61	-50.9	-69.0	3.5	3.02e+01	0	40	104	0	60	108095
2026-01-25 18:35:38.57	24.55	0.67	-51.1	-69.0	3.5	3.02e+01	0	40	104	0	60	108367
2026-01-25 18:35:39.57	24.48	0.73	-51.0	-69.0	3.5	3.02e+01	0	40	104	0	60	108174
2026-01-25 18:35:40.58	24.42	0.78	-51.0	-69.0	3.5	3.02e+01	0	40	104	0	60	107868
2026-01-25 18:35:41.60	24.35	0.84	-51.0	-68.8	3.5	3.02e+01	0	40	104	0	60	106172
2026-01-25 18:35:42.61	24.29	0.90	-50.9	-68.8	3.5	3.02e+01	0	40	104	0	60	105853
2026-01-25 18:35:43.62	24.22	0.96	-50.9	-68.7	3.5	3.02e+01	0	40	104	0	60	105097
2026-01-25 18:35:44.62	24.16	1.01	-50.7	-68.5	3.5	3.02e+01	0	40	104	0	60	102276
2026-01-25 18:35:45.63	24.09	1.07	-50.5	-68.5	3.5	3.02e+01	0	40	104	0	60	102682
2026-01-25 18:35:46.65	24.02	1.13	-50.6	-68.4	3.5	3.02e+01	0	40	104	0	60	101263
2026-01-25 18:35:47.66	23.96	1.19	-50.4	-67.7	3.5	3.02e+01	0	40	104	0	60	93400
2026-01-25 18:35:48.67	23.89	1.25	-50.3	-68.0	3.5	3.02e+01	0	40	104	0	60	96553
2026-01-25 18:35:49.68	23.82	1.30	-50.0	-67.6	3.5	3.02e+01	0	40	104	0	60	92602
2026-01-25 18:35:50.69	23.76	1.36	-49.7	-65.5	3.6	3.02e+01	0	40	104	0	60	72412
2026-01-25 18:35:51.70	23.69	1.42	-49.6	-66.6	3.5	3.02e+01	0	40	104	0	60	82566
2026-01-25 18:35:52.70	23.62	1.48	-49.6	-66.4	3.5	3.02e+01	0	40	104	0	60	80349
2026-01-25 18:35:53.72	23.55	1.54	-49.6	-66.3	3.5	3.02e+01	0	40	104	0	60	79564
2026-01-25 18:35:54.73	23.48	1.60	-49.6	-66.3	3.5	3.02e+01	0	40	104	0	60	79052
2026-01-25 18:35:55.74	23.41	1.65	-49.5	-66.2	3.5	3.02e+01	0	40	104	0	60	78462
2026-01-25 18:35:56.75	23.34	1.71	-49.5	-66.2	3.5	3.02e+01	0	40	104	0	60	78501
2026-01-25 18:35:57.75	23.28	1.77	-49.6	-66.3	3.5	3.02e+01	0	40	104	0	60	79843
2026-01-25 18:35:58.76	23.21	1.83	-49.5	-66.6	3.5	3.02e+01	0	40	104	0	60	82145
2026-01-25 18:35:59.78	23.13	1.89	-49.5	-66.3	3.5	3.02e+01	0	41	104	0	60	79406
2026-01-25 18:36:00.79	23.06	1.95	-49.5	-66.0	3.5	3.02e+01	0	40	104	0	60	77152
2026-01-25 18:36:01.80	22.99	2.01	-49.5	-66.1	3.5	3.02e+01	0	40	104	0	60	77626
2026-01-25 18:36:02.81	22.92	2.07	-49.5	-66.1	3.5	3.02e+01	0	40	104	0	60	77873
2026-01-25 18:36:03.82	22.85	2.13	-49.6	-66.5	3.5	3.02e+01	0	40	104	0	60	81060
2026-01-25 18:36:04.82	22.78	2.19	-49.5	-66.4	3.5	3.02e+01	0	41	104	0	60	80084
2026-01-25 18:36:05.84	22.70	2.25	-49.5	-66.7	3.5	3.02e+01	0	40	104	0	60	82865
2026-01-25 18:36:06.85	22.63	2.31	-49.5	-66.9	3.5	3.02e+01	0	40	104	0	60	85138
2026-01-25 18:36:07.86	22.56	2.37	-49.5	-67.2	3.5	3.02e+01	0	41	104	0	60	88296
2026-01-25 18:36:08.87	22.49	2.43	-49.5	-67.1	3.5	3.02e+01	0	41	104	0	60	86985
2026-01-25 18:36:09.88	22.41	2.49	-49.5	-67.1	3.5	3.02e+01	0	41	104	0	60	87027
2026-01-25 18:36:10.89	22.34	2.55	-49.5	-67.0	3.5	3.02e+01	0	41	104	0	60	85878
2026-01-25 18:36:11.90	22.26	2.61	-49.5	-66.5	3.5	3.02e+01	0	41	104	0	60	81702
2026-01-25 18:36:12.91	22.19	2.67	-49.5	-66.5	3.5	3.02e+01	0	40	104	0	60	81739
2026-01-25 18:36:13.92	22.11	2.73	-49.6	-66.9	3.5	3.02e+01	0	41	104	0	60	85604
2026-01-25 18:36:14.93	22.04	2.79	-49.5	-67.3	3.5	3.02e+01	0	40	104	0	60	89469
2026-01-25 18:36:15.93	21.96	2.85	-49.5	-66.9	3.5	3.02e+01	0	41	104	0	60	85390
2026-01-25 18:36:16.94	21.89	2.91	-49.4	-66.0	3.5	3.02e+01	0	41	104	0	60	76680
2026-01-25 18:36:17.96	21.81	2.97	-49.4	-65.8	3.5	3.02e+01	0	41	104	0	60	75054
2026-01-25 18:36:18.97	21.73	3.03	-49.5	-66.4	3.5	3.02e+01	0	41	104	0	60	80204
2026-01-25 18:36:19.97	21.66	3.09	-49.5	-66.6	3.5	3.02e+01	0	41	104	0	60	82648
2026-01-25 18:36:20.99	21.58	3.15	-48.7	-63.6	3.5	3.02e+01	0	41	104	0	60	58230
2026-01-25 18:36:22.00	21.50	3.21	-47.4	-60.3	3.5	3.02e+01	0	41	104	0	60	39773
2026-01-25 18:36:23.01	21.42	3.27	-46.4	-58.4	3.5	3.02e+01	0	41	104	0	60	32193
2026-01-25 18:36:24.02	21.34	3.34	-44.5	-55.8	3.5	3.02e+01	0	41	104	0	60	23741
2026-01-25 18:36:25.03	21.26	3.40	-47.5	-60.5	3.5	3.02e+01	0	40	104	0	60	40682
2026-01-25 18:36:26.04	21.18	3.46	-44.2	-55.3	3.5	3.02e+01	0	41	104	0	60	22499
2026-01-25 18:36:27.05	21.10	3.52	-49.6	-66.6	3.5	3.02e+01	0	41	104	0	60	82089
2026-01-25 18:36:28.06	21.02	3.58	-49.5	-65.7	3.5	3.02e+01	0	41	104	0	60	74159
2026-01-25 18:36:29.07	20.94	3.64	-44.7	-56.1	3.5	3.02e+01	0	41	104	0	60	24601
2026-01-25 18:36:30.08	20.86	3.71	-44.4	-55.7	3.5	3.02e+01	0	41	104	0	60	23386
2026-01-25 18:36:31.09	20.78	3.77	-45.0	-56.5	3.5	3.02e+01	0	41	104	0	60	25676
2026-01-25 18:36:32.10	20.70	3.83	-44.3	-55.6	3.5	3.02e+01	0	41	104	0	60	23062
2026-01-25 18:36:33.10	20.62	3.89	-48.2	-62.2	3.5	3.02e+01	0	41	104	0	60	49502
2026-01-25 18:36:34.11	20.53	3.95	-46.5	-58.8	3.5	3.02e+01	0	41	104	0	60	33515
2026-01-25 18:36:35.12	20.45	4.02	-49.2	-64.6	3.5	3.02e+01	0	41	104	0	60	65641
2026-01-25 18:36:36.13	20.37	4.08	-43.8	-54.8	3.5	3.02e+01	0	41	104	0	60	21204
2026-01-25 18:36:37.14	20.28	4.14	-49.7	-67.3	3.5	3.02e+01	0	41	104	0	60	89577
2026-01-25 18:36:38.15	20.20	4.21	-41.3	-51.9	3.5	3.02e+01	0	41	104	0	58	16952
2026-01-25 18:36:39.16	20.11	4.27	-41.5	-52.1	3.5	3.02e+01	0	41	104	0	58	17313
2026-01-25 18:36:40.17	20.03	4.33	-41.2	-51.7	3.5	3.02e+01	0	41	104	0	56	18650
2026-01-25 18:36:41.18	19.94	4.39	-49.6	-66.5	3.5	3.02e+01	0	41	104	0	60	80870
2026-01-25 18:36:42.19	19.86	4.46	-42.5	-53.3	3.5	3.02e+01	0	41	104	0	56	22301
2026-01-25 18:36:43.20	19.77	4.52	-49.8	-67.3	3.5	3.02e+01	0	41	104	0	60	89537
2026-01-25 18:36:44.21	19.68	4.58	-49.9	-67.3	3.5	3.02e+01	0	41	104	0	60	89339
2026-01-25 18:36:45.22	19.60	4.65	-44.6	-55.8	3.5	3.02e+01	0	41	104	0	60	23766
2026-01-25 18:36:46.22	19.51	4.71	-44.2	-55.4	3.5	3.02e+01	0	41	104	0	60	22668
2026-01-25 18:36:47.23	19.42	4.78	-45.5	-57.1	3.5	3.02e+01	0	41	104	0	60	27462
2026-01-25 18:36:48.24	19.33	4.84	-45.2	-56.6	3.5	3.02e+01	0	41	104	0	60	26061
2026-01-25 18:36:49.25	19.24	4.90	-42.0	-52.6	3.5	3.02e+01	0	41	104	0	60	16470
2026-01-25 18:36:50.02	19.18	4.95	-45.5	-57.0	3.5	3.02e+01	0	41	104	0	60	27175
2026-01-25 18:36:51.32	19.06	5.03	-49.6	-65.6	3.5	3.02e+01	0	41	104	0	60	73417
2026-01-25 18:36:52.04	19.00	5.08	-46.7	-58.9	3.5	3.02e+01	0	41	104	0	60	33983
2026-01-25 18:36:53.34	18.88	5.16	-49.8	-66.6	3.5	3.02e+01	0	41	104	0	60	82245
2026-01-25 18:36:54.06	18.81	5.21	-45.5	-57.0	3.5	3.02e+01	0	41	104	0	60	27123
2026-01-25 18:36:55.36	18.70	5.29	-45.4	-56.9	3.5	3.02e+01	0	41	104	0	60	26908
2026-01-25 18:36:56.08	18.63	5.34	-45.3	-56.8	3.5	3.02e+01	0	41	104	0	60	26475
2026-01-25 18:36:57.38	18.51	5.42	-50.0	-67.7	3.5	3.02e+01	0	41	104	0	60	93118
2026-01-25 18:36:58.10	18.44	5.47	-50.0	-67.6	3.5	3.02e+01	0	41	104	0	60	92141
2026-01-25 18:36:59.40	18.32	5.55	-43.6	-54.5	3.6	3.02e+01	0	41	104	0	60	20317
2026-01-25 18:37:00.12	18.26	5.60	-40.8	-51.3	3.6	3.02e+01	0	41	104	0	56	17735
2026-01-25 18:37:01.42	18.14	5.68	-49.9	-67.0	3.5	3.02e+01	0	41	104	0	60	86216
2026-01-25 18:37:02.13	18.07	5.73	-40.4	-50.8	3.5	3.02e+01	0	41	104	0	56	16828
2026-01-25 18:37:03.43	17.95	5.81	-39.3	-49.6	3.6	3.02e+01	0	41	104	0	54	16509
2026-01-25 18:37:04.15	17.88	5.86	-39.2	-49.5	3.5	3.02e+01	0	41	104	0	54	16238
2026-01-25 18:37:05.45	17.75	5.95	-40.6	-51.1	3.2	3.02e+01	0	41	104	0	60	13762
2026-01-25 18:37:06.17	17.68	5.99	-44.6	-55.9	3.5	3.02e+01	0	41	104	0	60	23966
2026-01-25 18:37:07.47	17.56	6.08	-47.9	-61.1	3.5	3.02e+01	0	41	104	0	60	43506
2026-01-25 18:37:08.19	17.49	6.12	-43.0	-53.8	3.5	3.02e+01	0	41	104	0	60	18889
2026-01-25 18:37:09.49	17.36	6.21	-49.9	-67.2	3.5	3.02e+01	0	41	104	0	60	88609
2026-01-25 18:37:10.21	17.29	6.26	-46.7	-58.7	3.5	3.02e+01	0	41	104	0	60	33005
2026-01-25 18:37:11.50	17.16	6.34	-47.5	-60.3	3.5	3.02e+01	0	41	104	0	60	39668
2026-01-25 18:37:12.22	17.09	6.39	-47.9	-61.1	3.5	3.02e+01	0	41	104	0	60	43504
2026-01-25 18:37:13.52	16.96	6.47	-49.8	-66.6	3.5	3.02e+01	0	41	104	0	60	82102
2026-01-25 18:37:14.24	16.89	6.52	-49.8	-67.0	3.5	3.02e+01	0	41	104	0	60	86612
2026-01-25 18:37:15.54	16.76	6.61	-47.0	-59.5	3.5	3.02e+01	0	41	104	0	60	36351
2026-01-25 18:37:16.26	16.69	6.66	-49.4	-64.8	3.5	3.02e+01	0	41	104	0	60	66612
2026-01-25 18:37:17.56	16.56	6.74	-39.6	-49.9	3.5	3.02e+01	0	41	104	0	54	17042
2026-01-25 18:37:18.28	16.48	6.79	-39.8	-50.2	3.5	3.02e+01	0	41	104	0	54	17535
2026-01-25 18:37:19.58	16.35	6.88	-39.3	-49.6	3.5	3.02e+01	0	41	104	0	54	16382
2026-01-25 18:37:20.30	16.27	6.93	-38.7	-49.0	3.5	3.02e+01	0	41	104	0	52	17096
2026-01-25 18:37:21.60	16.14	7.01	-40.0	-50.4	3.5	3.02e+01	0	41	104	0	52	20220
2026-01-25 18:37:22.32	16.06	7.06	-43.0	-53.7	3.6	3.02e+01	0	41	104	0	60	18735
2026-01-25 18:37:23.62	15.93	7.15	-44.5	-55.6	3.5	3.02e+01	0	41	104	0	60	23213
2026-01-25 18:37:24.34	15.85	7.20	-40.0	-50.3	3.5	3.02e+01	0	41	104	0	56	15892
2026-01-25 18:37:25.63	15.72	7.28	-48.2	-61.4	3.6	3.02e+01	0	41	104	0	60	45061
2026-01-25 18:37:26.35	15.64	7.33	-42.4	-53.1	3.5	3.02e+01	0	41	104	0	60	17445
2026-01-25 18:37:27.65	15.50	7.42	-41.4	-51.9	3.6	3.02e+01	0	41	104	0	58	17074
2026-01-25 18:37:28.38	15.42	7.47	-41.3	-51.8	3.5	3.02e+01	0	41	104	0	56	18951
2026-01-25 18:37:29.67	15.28	7.56	-39.8	-50.1	3.5	3.02e+01	0	41	104	0	56	15462
2026-01-25 18:37:30.39	15.20	7.61	-40.9	-51.4	3.5	3.02e+01	0	41	104	0	58	16038
2026-01-25 18:37:31.69	15.06	7.69	-49.9	-66.6	3.5	3.02e+01	0	41	104	0	60	81820
2026-01-25 18:37:32.41	14.98	7.74	-45.6	-57.0	3.5	3.02e+01	0	41	104	0	60	27377
2026-01-25 18:37:33.71	14.84	7.83	-42.0	-52.6	3.5	3.02e+01	0	41	104	0	60	16417
2026-01-25 18:37:34.43	14.76	7.88	-42.3	-53.0	3.5	3.02e+01	0	41	104	0	58	19182
2026-01-25 18:37:35.73	14.61	7.97	-40.0	-50.4	3.6	3.02e+01	0	41	104	0	56	15992
2026-01-25 18:37:36.45	14.53	8.02	-39.1	-49.5	3.5	3.02e+01	0	41	104	0	54	16158
2026-01-25 18:37:37.75	14.38	8.11	-40.9	-51.4	3.5	3.02e+01	0	41	104	0	52	22560
2026-01-25 18:37:38.47	14.30	8.16	-41.6	-52.2	3.5	3.02e+01	0	41	104	0	58	17517
2026-01-25 18:37:39.76	14.16	8.25	-46.6	-58.7	3.5	3.02e+01	0	41	104	0	60	33262
2026-01-25 18:37:40.49	14.07	8.30	-43.2	-54.0	3.5	3.02e+01	0	41	104	0	60	19274
2026-01-25 18:37:41.78	13.92	8.39	-47.2	-59.5	3.5	3.02e+01	0	41	104	0	60	36493
2026-01-25 18:37:42.50	13.84	8.44	-44.0	-55.0	3.5	3.02e+01	0	41	104	0	60	21531
2026-01-25 18:37:43.80	13.69	8.53	-43.4	-54.3	3.5	3.02e+01	0	41	104	0	60	20035
2026-01-25 18:37:44.52	13.60	8.58	-44.7	-55.9	3.5	3.02e+01	0	41	104	0	60	24024
2026-01-25 18:37:45.82	13.45	8.67	-50.2	-67.1	3.5	3.02e+01	0	41	104	0	60	86714
2026-01-25 18:37:46.54	13.37	8.72	-44.8	-55.8	3.5	3.02e+01	0	41	104	0	60	23855
2026-01-25 18:37:47.84	13.21	8.81	-39.4	-49.7	3.5	3.02e+01	0	41	104	0	52	18588
2026-01-25 18:37:48.56	13.12	8.86	-40.8	-51.3	3.3	3.02e+01	0	41	104	0	52	22299
2026-01-25 18:37:49.86	12.97	8.95	-40.5	-51.0	3.5	3.02e+01	0	41	104	0	60	13617
2026-01-25 18:37:50.58	12.88	9.00	-39.2	-49.5	3.5	3.02e+01	0	41	104	0	54	16299
2026-01-25 18:37:51.88	12.72	9.09	-38.7	-49.0	3.5	3.02e+01	0	41	104	0	52	17098
2026-01-25 18:37:52.60	12.63	9.14	-39.1	-49.3	3.5	3.02e+01	0	41	104	0	52	17893
2026-01-25 18:37:53.89	12.48	9.23	-42.2	-52.8	3.5	3.02e+01	0	41	104	0	56	21259
2026-01-25 18:37:54.61	12.39	9.28	-45.3	-56.5	3.5	3.02e+01	0	41	104	0	58	28887
2026-01-25 18:37:55.91	12.22	9.37	-43.5	-54.4	3.5	3.02e+01	0	41	104	0	60	20113
2026-01-25 18:37:56.63	12.13	9.42	-46.4	-58.1	3.5	3.02e+01	0	41	104	0	58	34505
2026-01-25 18:37:57.93	11.97	9.52	-42.5	-53.1	3.6	3.02e+01	0	41	104	0	60	17336
2026-01-25 18:37:58.65	11.88	9.57	-41.8	-52.3	3.5	3.02e+01	0	41	104	0	58	17805
2026-01-25 18:37:59.95	11.71	9.66	-40.3	-50.7	3.5	3.02e+01	0	41	104	0	56	16667
2026-01-25 18:38:00.67	11.62	9.71	-47.1	-59.6	3.5	3.02e+01	0	41	104	0	60	36553
2026-01-25 18:38:01.97	11.46	9.80	-43.8	-54.7	3.5	3.02e+01	0	41	104	0	60	20893
2026-01-25 18:38:02.69	11.36	9.85	-47.1	-59.8	3.4	3.02e+01	0	41	104	0	60	37548
2026-01-25 18:38:03.99	11.19	9.95	-50.0	-68.0	3.5	3.02e+01	0	41	104	0	60	96628
2026-01-25 18:38:04.71	11.10	10.00	-40.7	-51.1	3.5	3.02e+01	0	41	104	0	58	15535
2026-01-25 18:38:06.00	10.93	10.09	-42.3	-53.0	3.5	3.02e+01	0	41	104	0	60	17235
2026-01-25 18:38:06.73	10.83	10.14	-42.6	-53.3	3.5	3.02e+01	0	41	104	0	60	17801
2026-01-25 18:38:08.02	10.66	10.23	-43.0	-53.8	3.5	3.02e+01	0	41	104	0	60	18866
2026-01-25 18:38:08.75	10.57	10.29	-42.4	-53.0	3.5	3.02e+01	0	41	104	0	60	17234
2026-01-25 18:38:10.04	10.39	10.38	-43.6	-54.5	3.5	3.02e+01	0	41	104	0	60	20375
2026-01-25 18:38:10.76	10.29	10.43	-49.1	-62.9	3.5	3.02e+01	0	41	104	0	60	53460
2026-01-25 18:38:12.06	10.12	10.53	-45.9	-57.4	3.5	3.02e+01	0	41	104	0	60	28536
2026-01-25 18:38:12.78	10.02	10.58	-50.3	-67.0	3.5	3.02e+01	0	41	104	0	60	86647
2026-01-25 18:38:14.08	9.84	10.67	-44.3	-55.2	3.5	3.02e+01	0	41	104	0	60	22026
2026-01-25 18:38:14.80	9.74	10.72	-44.1	-54.9	3.5	3.02e+01	0	41	104	0	60	21365
2026-01-25 18:38:16.10	9.56	10.82	-44.6	-55.6	3.5	3.02e+01	0	41	104	0	60	23178
2026-01-25 18:38:16.82	9.46	10.87	-45.8	-57.3	3.5	3.02e+01	0	41	104	0	60	28174
2026-01-25 18:38:18.12	9.28	10.96	-50.5	-67.9	3.5	3.02e+01	0	41	104	0	60	95312
2026-01-25 18:38:18.84	9.18	11.02	-42.2	-52.7	3.5	3.02e+01	0	41	104	0	58	18572
2026-01-25 18:38:20.14	8.99	11.11	-39.9	-50.2	3.5	3.02e+01	0	41	104	0	54	17632
2026-01-25 18:38:20.86	8.89	11.16	-50.5	-68.1	3.5	3.02e+01	0	41	104	0	60	97644
2026-01-25 18:38:22.15	8.71	11.26	-38.6	-48.9	3.5	3.02e+01	0	41	104	0	52	16898
2026-01-25 18:38:22.88	8.60	11.31	-38.1	-48.4	3.5	3.02e+01	0	41	104	0	52	15991
2026-01-25 18:38:24.17	8.41	11.40	-38.2	-48.4	3.5	3.02e+01	0	41	104	0	50	17991
2026-01-25 18:38:24.89	8.31	11.46	-44.2	-55.0	3.5	3.02e+01	0	41	104	0	60	21562
2026-01-25 18:38:26.19	8.12	11.55	-44.3	-55.3	3.6	3.02e+01	0	41	104	0	60	22325
2026-01-25 18:38:26.91	8.01	11.60	-50.5	-67.6	3.5	3.02e+01	0	41	104	0	60	92632
2026-01-25 18:38:28.21	7.82	11.70	-40.2	-50.5	3.5	3.02e+01	0	41	104	0	58	14449
2026-01-25 18:38:28.93	7.71	11.75	-50.3	-66.6	3.5	3.02e+01	0	41	104	0	60	82721
2026-01-25 18:38:30.23	7.52	11.85	-39.3	-49.6	3.5	3.02e+01	0	41	104	0	54	16343
2026-01-25 18:38:30.95	7.41	11.90	-39.1	-49.3	3.5	3.02e+01	0	41	104	0	54	15937
2026-01-25 18:38:32.25	7.21	12.00	-38.7	-49.0	3.5	3.02e+01	0	41	104	0	52	17108
2026-01-25 18:38:32.97	7.10	12.05	-50.6	-67.9	3.5	3.02e+01	0	41	104	0	60	95509
2026-01-25 18:38:34.26	6.90	12.14	-40.0	-50.4	3.5	3.02e+01	0	41	104	0	56	16038
2026-01-25 18:38:34.98	6.79	12.20	-50.3	-66.2	3.5	3.02e+01	0	41	104	0	60	78379
2026-01-25 18:38:36.28	6.59	12.29	-48.6	-61.7	3.6	3.02e+01	0	41	104	0	60	46602
2026-01-25 18:38:37.00	6.48	12.35	-43.1	-53.7	3.5	3.02e+01	0	41	104	0	58	20985
2026-01-25 18:38:38.30	6.27	12.44	-41.8	-52.2	3.5	3.02e+01	0	41	104	0	58	17617
2026-01-25 18:38:39.02	6.16	12.49	-42.0	-52.4	3.5	3.02e+01	0	41	104	0	58	18094
2026-01-25 18:38:40.32	5.95	12.59	-41.7	-52.1	3.5	3.02e+01	0	41	104	0	58	17394
2026-01-25 18:38:41.04	5.84	12.64	-38.3	-48.4	3.5	3.02e+01	0	41	104	0	52	16116
2026-01-25 18:38:42.34	5.63	12.74	-42.9	-53.6	3.6	3.02e+01	0	41	104	0	60	18317
2026-01-25 18:38:43.06	5.52	12.79	-50.6	-67.6	3.6	3.02e+01	0	41	104	0	60	92015
2026-01-25 18:38:44.36	5.30	12.89	-41.7	-52.2	3.5	3.02e+01	0	41	104	0	60	15636
2026-01-25 18:38:45.08	5.19	12.94	-50.2	-66.5	3.5	3.02e+01	0	41	104	0	60	80896
2026-01-25 18:38:46.37	4.98	13.04	-43.7	-54.4	3.5	3.02e+01	0	41	104	0	60	20133
2026-01-25 18:38:47.09	4.86	13.09	-42.4	-53.0	3.6	3.02e+01	0	41	104	0	60	17200
2026-01-25 18:38:48.39	4.64	13.19	-43.4	-54.1	3.5	3.02e+01	0	41	104	0	58	21904
2026-01-25 18:38:49.11	4.52	13.24	-50.6	-67.3	3.5	3.02e+01	0	41	104	0	60	89401
2026-01-25 18:38:50.41	4.30	13.34	-39.2	-49.5	3.5	3.02e+01	0	41	104	0	54	16259
2026-01-25 18:38:51.12	4.18	13.39	-50.3	-66.3	3.5	3.02e+01	0	41	104	0	60	79687
2026-01-25 18:38:52.42	3.96	13.49	-41.7	-52.2	3.5	3.02e+01	0	41	104	0	60	15665
2026-01-25 18:38:53.14	3.84	13.54	-40.9	-51.3	3.5	3.02e+01	0	41	104	0	56	17827
2026-01-25 18:38:54.44	3.62	13.64	-39.3	-49.6	3.5	3.02e+01	0	41	104	0	52	18375
2026-01-25 18:38:55.16	3.50	13.69	-38.6	-48.9	3.5	3.02e+01	0	41	104	0	52	16914
2026-01-25 18:38:56.45	3.27	13.79	-38.1	-48.3	3.5	3.02e+01	0	41	104	0	52	15886
2026-01-25 18:38:57.18	3.14	13.84	-38.5	-48.8	3.6	3.02e+01	0	41	104	0	50	18781
2026-01-25 18:38:58.48	2.92	13.94	-41.6	-52.0	3.6	3.02e+01	0	41	104	0	60	15357
2026-01-25 18:38:59.19	2.79	13.99	-50.4	-66.2	3.6	3.02e+01	0	41	104	0	60	78191
2026-01-25 18:39:00.49	2.56	14.09	-41.6	-52.1	3.5	3.02e+01	0	41	104	0	56	19499
2026-01-25 18:39:01.21	2.43	14.14	-50.6	-67.1	3.5	3.02e+01	0	41	104	0	60	86751
2026-01-25 18:39:02.50	2.20	14.24	-44.4	-55.2	3.6	3.02e+01	0	41	104	0	60	22246
2026-01-25 18:39:03.23	2.07	14.29	-43.8	-54.5	3.5	3.02e+01	0	41	104	0	60	20434
2026-01-25 18:39:04.52	1.84	14.39	-47.9	-60.1	3.5	3.02e+01	0	41	104	0	60	38777
2026-01-25 18:39:05.24	1.71	14.44	-50.9	-68.2	3.5	3.02e+01	0	41	104	0	60	99353
2026-01-25 18:39:06.54	1.47	14.53	-43.9	-54.6	3.5	3.02e+01	0	41	104	0	60	20776
2026-01-25 18:39:07.26	1.34	14.59	-44.0	-54.8	3.6	3.02e+01	0	41	104	0	60	21137
2026-01-25 18:39:08.55	1.10	14.68	-39.8	-50.1	3.5	3.02e+01	0	41	104	0	50	21969
2026-01-25 18:39:09.27	0.96	14.74	-50.5	-66.5	3.5	3.02e+01	0	41	104	0	60	81544
2026-01-25 18:39:10.57	0.72	14.83	-38.7	-48.9	3.5	3.02e+01	0	41	104	0	52	16920
2026-01-25 18:39:11.29	0.59	14.89	-38.0	-48.1	3.6	3.02e+01	0	41	104	0	52	15571
2026-01-25 18:39:12.59	0.34	14.98	-38.5	-48.7	3.4	3.02e+01	0	41	104	0	50	18580
2026-01-25 18:39:13.31	0.20	15.04	-46.9	-58.5	3.5	3.02e+01	0	41	104	0	60	32434
2026-01-25 18:39:14.61	359.95	15.13	-46.1	-57.3	3.5	3.02e+01	0	41	104	0	56	35684
2026-01-25 18:39:15.33	359.82	15.18	-50.7	-67.4	3.5	3.02e+01	0	41	104	0	60	90500
2026-01-25 18:39:16.63	359.57	15.28	-38.1	-48.4	3.5	3.02e+01	0	41	104	0	54	14250
2026-01-25 18:39:17.35	359.43	15.33	-41.4	-51.8	3.5	3.02e+01	0	41	104	0	56	18908
2026-01-25 18:39:18.65	359.17	15.43	-38.2	-48.4	3.5	3.02e+01	0	41	104	0	52	16085
2026-01-25 18:39:19.37	359.03	15.48	-38.4	-48.6	3.5	3.02e+01	0	41	104	0	52	16386
2026-01-25 18:39:20.67	358.77	15.58	-38.3	-48.5	3.5	3.02e+01	0	41	104	0	50	18247
2026-01-25 18:39:21.39	358.63	15.63	-39.4	-49.6	3.6	3.02e+01	0	41	104	0	52	18514
2026-01-25 18:39:22.69	358.37	15.72	-47.4	-59.3	3.5	3.02e+01	0	41	104	0	58	39712
2026-01-25 18:39:23.41	358.23	15.78	-50.8	-67.8	3.5	3.02e+01	0	41	104	0	60	94616
2026-01-25 18:39:24.70	357.97	15.87	-38.1	-48.4	3.5	3.02e+01	0	41	104	0	52	16006
2026-01-25 18:39:25.43	357.82	15.92	-42.3	-52.9	3.5	3.02e+01	0	41	104	0	58	19024
2026-01-25 18:39:26.72	357.56	16.02	-40.0	-50.3	3.5	3.02e+01	0	41	104	0	54	17752
2026-01-25 18:39:27.44	357.41	16.07	-39.8	-50.1	3.5	3.02e+01	0	41	104	0	54	17483
2026-01-25 18:39:28.74	357.14	16.17	-37.9	-48.2	3.5	3.02e+01	0	41	104	0	52	15628
2026-01-25 18:39:29.47	356.99	16.22	-38.6	-48.8	3.5	3.02e+01	0	41	104	0	50	18826
2026-01-25 18:39:30.76	356.72	16.31	-47.2	-59.3	3.5	3.02e+01	0	41	104	0	60	35457
2026-01-25 18:39:31.48	356.57	16.36	-44.8	-56.0	3.5	3.02e+01	0	41	104	0	60	24307
2026-01-25 18:39:32.78	356.30	16.46	-50.6	-68.7	3.5	3.02e+01	0	41	104	0	60	105291
2026-01-25 18:39:33.50	356.14	16.51	-50.9	-68.5	3.5	3.02e+01	0	41	104	0	60	102043
2026-01-25 18:39:34.80	355.87	16.60	-41.3	-51.7	3.5	3.02e+01	0	41	104	0	58	16565
2026-01-25 18:39:35.52	355.71	16.65	-40.7	-51.0	3.5	3.02e+01	0	41	104	0	56	17283
2026-01-25 18:39:36.82	355.44	16.75	-41.5	-52.0	3.5	3.02e+01	0	41	104	0	54	21609
2026-01-25 18:39:37.54	355.28	16.80	-41.2	-51.6	3.5	3.02e+01	0	41	104	0	58	16500
2026-01-25 18:39:38.84	355.00	16.89	-50.7	-68.3	3.5	3.02e+01	0	41	104	0	60	100605
2026-01-25 18:39:39.56	354.84	16.94	-50.7	-68.0	3.5	3.02e+01	0	41	104	0	60	96427
2026-01-25 18:39:40.85	354.56	17.03	-43.2	-53.9	3.5	3.02e+01	0	41	104	0	56	24135
2026-01-25 18:39:41.57	354.40	17.08	-44.7	-55.8	3.5	3.02e+01	0	41	104	0	60	23678
2026-01-25 18:39:42.87	354.11	17.17	-42.2	-52.6	3.5	3.02e+01	0	41	104	0	60	16406
2026-01-25 18:39:43.59	353.95	17.22	-40.4	-50.7	3.5	3.02e+01	0	41	104	0	56	16526
2026-01-25 18:39:44.89	353.66	17.32	-38.4	-48.6	3.5	3.02e+01	0	41	104	0	52	16473
2026-01-25 18:39:45.61	353.50	17.37	-41.2	-51.7	3.5	3.02e+01	0	41	104	0	52	23334
2026-01-25 18:39:46.91	353.21	17.46	-47.8	-60.2	3.5	3.02e+01	0	41	104	0	60	39434
2026-01-25 18:39:47.63	353.04	17.51	-42.2	-52.8	3.5	3.02e+01	0	41	104	0	60	16817
2026-01-25 18:39:48.93	352.75	17.60	-50.7	-67.7	3.5	3.02e+01	0	41	104	0	60	93796
2026-01-25 18:39:49.64	352.58	17.64	-44.5	-55.5	3.5	3.02e+01	0	41	104	0	60	22898
2026-01-25 18:39:50.94	352.28	17.73	-38.9	-49.2	3.5	3.02e+01	0	42	104	0	54	15705
2026-01-25 18:39:51.66	352.12	17.78	-38.3	-48.5	3.5	3.02e+01	0	41	104	0	52	16318
2026-01-25 18:39:52.96	351.81	17.87	-47.3	-59.4	3.5	3.02e+01	0	41	104	0	60	35721
2026-01-25 18:39:53.68	351.65	17.92	-42.5	-53.1	3.5	3.02e+01	0	41	104	0	60	17420
2026-01-25 18:39:54.98	351.34	18.01	-50.6	-67.8	3.5	3.02e+01	0	41	104	0	60	94151
2026-01-25 18:39:55.70	351.17	18.06	-49.3	-63.1	3.5	3.02e+01	0	41	104	0	60	55066
2026-01-25 18:39:57.00	350.86	18.14	-46.0	-57.4	3.5	3.02e+01	0	41	104	0	60	28559
2026-01-25 18:39:57.72	350.69	18.19	-44.6	-55.6	3.6	3.02e+01	0	41	104	0	60	23067
2026-01-25 18:39:59.02	350.38	18.28	-43.2	-53.9	3.6	3.02e+01	0	41	104	0	60	18997
2026-01-25 18:39:59.74	350.20	18.32	-43.1	-53.8	3.5	3.02e+01	0	41	104	0	60	18842
2026-01-25 18:40:01.03	349.89	18.41	-39.5	-49.7	3.6	3.02e+01	0	41	104	0	54	16657
2026-01-25 18:40:01.76	349.72	18.46	-43.8	-54.6	3.5	3.02e+01	0	41	104	0	60	20615
2026-01-25 18:40:03.05	349.40	18.54	-48.7	-61.9	3.5	3.02e+01	0	41	104	0	60	47945
2026-01-25 18:40:03.78	349.22	18.59	-41.5	-52.0	3.6	3.02e+01	0	41	104	0	58	17223
2026-01-25 18:40:05.07	348.90	18.67	-50.6	-67.4	3.5	3.02e+01	0	41	104	0	60	90397
2026-01-25 18:40:05.79	348.73	18.72	-45.9	-57.2	3.5	3.02e+01	0	41	104	0	60	27840
2026-01-25 18:40:07.09	348.40	18.80	-41.0	-51.4	3.5	3.02e+01	0	41	104	0	58	16027
2026-01-25 18:40:07.81	348.22	18.84	-39.9	-50.2	3.6	3.02e+01	0	41	104	0	56	15692
2026-01-25 18:40:09.11	347.90	18.93	-47.6	-59.8	3.5	3.02e+01	0	41	104	0	60	37760
2026-01-25 18:40:09.83	347.72	18.97	-41.3	-51.6	3.5	3.02e+01	0	41	104	0	58	16498
2026-01-25 18:40:11.13	347.39	19.05	-50.6	-67.6	3.5	3.02e+01	0	41	104	0	60	92388
2026-01-25 18:40:11.85	347.20	19.10	-48.4	-61.3	3.5	3.02e+01	0	41	104	0	60	44809
2026-01-25 18:40:13.14	346.87	19.18	-47.6	-60.0	3.6	3.02e+01	0	41	104	0	60	38566
2026-01-25 18:40:13.86	346.69	19.22	-41.1	-51.4	3.5	3.02e+01	0	41	104	0	56	18086
2026-01-25 18:40:15.16	346.36	19.30	-39.9	-50.2	3.5	3.02e+01	0	41	104	0	56	15745
2026-01-25 18:40:15.88	346.17	19.34	-38.8	-49.0	3.5	3.02e+01	0	41	104	0	52	17242
2026-01-25 18:40:17.17	345.83	19.42	-42.0	-52.5	3.5	3.02e+01	0	41	104	0	58	18250
2026-01-25 18:40:17.89	345.65	19.46	-40.2	-50.5	3.6	3.02e+01	0	41	104	0	54	18208
2026-01-25 18:40:19.19	345.31	19.54	-50.6	-67.6	3.5	3.02e+01	0	41	104	0	60	92439
2026-01-25 18:40:19.91	345.12	19.58	-46.6	-58.4	3.5	3.02e+01	0	41	104	0	60	31946
2026-01-25 18:40:21.21	344.77	19.66	-45.1	-56.3	3.5	3.02e+01	0	41	104	0	60	25215
2026-01-25 18:40:21.93	344.58	19.70	-39.7	-50.0	3.6	3.02e+01	0	41	104	0	56	15356
2026-01-25 18:40:23.23	344.24	19.77	-39.2	-49.5	3.5	3.02e+01	0	41	104	0	54	16198
2026-01-25 18:40:23.95	344.04	19.81	-38.5	-48.7	3.5	3.02e+01	0	41	104	0	52	16666
2026-01-25 18:40:25.25	343.70	19.88	-39.5	-49.8	3.5	3.02e+01	0	41	104	0	52	18925
2026-01-25 18:40:25.97	343.50	19.92	-40.7	-51.0	3.5	3.02e+01	0	41	104	0	54	19314
2026-01-25 18:40:27.27	343.15	20.00	-50.6	-67.7	3.5	3.02e+01	0	41	104	0	60	93545
2026-01-25 18:40:27.98	342.96	20.03	-48.5	-61.5	3.5	3.02e+01	0	41	104	0	60	45983
2026-01-25 18:40:29.28	342.60	20.10	-47.1	-59.0	3.5	3.02e+01	0	41	104	0	60	34195
2026-01-25 18:40:30.01	342.40	20.14	-40.7	-51.0	3.5	3.02e+01	0	41	104	0	56	17243
2026-01-25 18:40:31.30	342.05	20.21	-40.2	-50.5	3.5	3.02e+01	0	41	104	0	56	16214
2026-01-25 18:40:32.02	341.85	20.25	-40.2	-50.5	3.5	3.02e+01	0	41	104	0	56	16138
2026-01-25 18:40:33.32	341.49	20.32	-41.7	-52.2	3.5	3.02e+01	0	41	104	0	60	15612
2026-01-25 18:40:34.04	341.29	20.35	-47.5	-59.7	3.5	3.02e+01	0	41	104	0	60	36985
2026-01-25 18:40:35.34	340.93	20.42	-45.6	-57.1	3.6	3.02e+01	0	42	104	0	60	27463
2026-01-25 18:40:36.06	340.73	20.45	-42.2	-52.8	3.5	3.02e+01	0	42	104	0	56	21113
2026-01-25 18:40:37.36	340.36	20.52	-50.5	-67.5	3.5	3.02e+01	0	42	104	0	60	91033
2026-01-25 18:40:38.08	340.16	20.55	-41.3	-51.7	3.5	3.02e+01	0	41	104	0	60	14843
2026-01-25 18:40:39.38	339.79	20.62	-40.3	-50.6	3.5	3.02e+01	0	41	104	0	56	16408
2026-01-25 18:40:40.10	339.59	20.65	-40.2	-50.5	3.5	3.02e+01	0	41	104	0	56	16256
2026-01-25 18:40:41.40	339.22	20.71	-48.1	-60.8	3.5	3.02e+01	0	41	104	0	60	42201
2026-01-25 18:40:42.12	339.02	20.75	-47.8	-60.5	3.5	3.02e+01	0	41	104	0	60	40845
2026-01-25 18:40:43.42	338.64	20.80	-42.7	-53.4	3.6	3.02e+01	0	41	104	0	60	18035
2026-01-25 18:40:44.14	338.44	20.84	-40.7	-51.1	3.5	3.02e+01	0	41	104	0	56	17369
2026-01-25 18:40:45.44	338.06	20.89	-50.6	-68.0	3.5	3.02e+01	0	41	104	0	60	96193
2026-01-25 18:40:46.16	337.85	20.93	-40.5	-50.8	3.6	3.02e+01	0	41	104	0	56	16795
2026-01-25 18:40:47.45	337.48	20.98	-38.7	-48.9	3.5	3.02e+01	0	42	104	0	52	17068
2026-01-25 18:40:48.17	337.27	21.01	-38.2	-48.4	3.5	3.02e+01	0	41	104	0	52	16049
2026-01-25 18:40:49.47	336.89	21.07	-41.7	-52.2	3.5	3.02e+01	0	41	104	0	60	15589
2026-01-25 18:40:50.19	336.68	21.10	-40.1	-50.4	3.6	3.02e+01	0	42	104	0	58	14277
2026-01-25 18:40:51.48	336.30	21.15	-50.3	-66.5	3.5	3.02e+01	0	42	104	0	60	81538
2026-01-25 18:40:52.20	336.09	21.18	-46.7	-58.6	3.5	3.02e+01	0	42	104	0	60	32594
2026-01-25 18:40:53.50	335.71	21.23	-45.7	-57.1	3.5	3.02e+01	0	41	104	0	60	27498
2026-01-25 18:40:54.22	335.50	21.25	-42.2	-52.7	3.5	3.02e+01	0	41	104	0	60	16575
2026-01-25 18:40:55.52	335.11	21.30	-42.3	-52.9	3.5	3.02e+01	0	41	104	0	58	19051
2026-01-25 18:40:56.24	334.90	21.33	-41.0	-51.5	3.5	3.02e+01	0	41	104	0	58	16152
2026-01-25 18:40:57.54	334.51	21.38	-39.5	-49.7	3.5	3.02e+01	0	41	104	0	52	18601
2026-01-25 18:40:58.26	334.30	21.40	-45.3	-56.5	3.5	3.02e+01	0	41	104	0	60	25835
2026-01-25 18:40:59.56	333.91	21.45	-41.6	-52.0	3.6	3.02e+01	0	41	104	0	60	15376
2026-01-25 18:41:00.28	333.69	21.47	-40.4	-50.8	3.5	3.02e+01	0	41	104	0	58	14936
2026-01-25 18:41:01.58	333.30	21.51	-49.7	-65.2	3.5	3.02e+01	0	41	104	0	60	69770
2026-01-25 18:41:02.30	333.08	21.54	-41.3	-51.7	3.4	3.02e+01	0	42	104	0	56	18699
2026-01-25 18:41:03.59	332.69	21.58	-40.0	-41.7	23.3	3.02e+01	60	41	104	0	54	6640
2026-01-25 18:41:04.32	332.47	21.60	-40.1	-41.5	26.6	3.02e+01	60	41	0	524288	54	6467
2026-01-25 18:41:05.61	332.08	21.64	-39.3	-40.7	26.9	3.02e+01	58	41	0	3145728	54	5888
2026-01-25 18:41:06.33	331.86	21.66	-39.2	-40.5	27.2	3.02e+01	60	41	0	4194304	52	6489
2026-01-25 18:41:07.63	331.47	21.70	-38.9	-40.2	27.5	3.02e+01	48	41	0	6815744	52	6274
2026-01-25 18:41:08.35	331.25	21.72	-38.9	-40.2	27.5	3.02e+01	59	41	0	8388608	52	6240
2026-01-25 18:41:09.65	330.85	21.75	-38.5	-39.8	27.9	3.02e+01	63	41	0	10485760	52	5932
2026-01-25 18:41:10.37	330.63	21.77	-38.6	-39.9	27.6	3.02e+01	47	41	0	12058624	52	6062
2026-01-25 18:41:11.67	330.23	21.80	-38.2	-39.5	28.2	3.02e+01	58	42	0	14155776	52	5755
2026-01-25 18:41:12.39	330.01	21.82	-38.1	-39.3	28.1	3.02e+01	59	42	0	15728640	52	5636
2026-01-25 18:41:13.69	329.61	21.85	-38.1	-39.4	28.3	3.02e+01	62	41	0	18350080	52	5690
2026-01-25 18:41:14.41	329.39	21.87	-38.2	-39.5	28.3	3.02e+01	60	41	0	19398656	52	5726
2026-01-25 18:41:15.71	328.99	21.90	-37.6	-38.8	28.7	3.02e+01	54	41	0	22020096	50	5981
2026-01-25 18:41:16.43	328.76	21.91	-37.6	-38.8	28.7	3.02e+01	61	41	0	23068672	50	5977
2026-01-25 18:41:17.73	328.36	21.94	-37.8	-39.0	28.6	3.02e+01	55	41	0	25690112	50	6100
2026-01-25 18:41:18.45	328.14	21.95	-37.7	-38.9	28.6	3.02e+01	57	42	0	27262976	50	6057
2026-01-25 18:41:19.75	327.73	21.97	-37.6	-38.8	28.7	3.02e+01	61	41	0	29360128	50	5957
2026-01-25 18:41:20.47	327.51	21.99	-37.5	-38.7	28.8	3.02e+01	59	41	0	30932992	50	5926
2026-01-25 18:41:21.77	327.11	22.01	-37.4	-38.6	28.9	3.02e+01	60	41	0	33554432	50	5853
2026-01-25 18:41:22.49	326.88	22.02	-37.4	-38.7	28.8	3.02e+01	58	41	0	34603008	50	5867
2026-01-25 18:41:23.78	326.48	22.04	-37.6	-38.8	28.7	3.02e+01	56	41	0	37224448	50	5982
2026-01-25 18:41:24.51	326.25	22.05	-37.6	-38.9	28.6	3.02e+01	59	41	0	38273024	50	6003
2026-01-25 18:41:25.80	325.85	22.07	-37.7	-38.9	28.6	3.02e+01	62	41	0	40894464	50	6039
2026-01-25 18:41:26.52	325.62	22.08	-37.6	-38.9	28.6	3.02e+01	52	41	0	42467328	50	6003
2026-01-25 18:41:27.82	325.22	22.09	-37.5	-38.8	28.7	3.02e+01	61	41	0	44564480	50	5936
2026-01-25 18:41:28.54	324.99	22.10	-37.4	-38.7	28.8	3.02e+01	60	41	0	46137344	50	5871
2026-01-25 18:41:29.84	324.58	22.11	-37.7	-39.0	28.6	3.02e+01	59	41	0	48234496	50	6079
2026-01-25 18:41:30.56	324.36	22.12	-37.7	-39.0	28.6	3.02e+01	61	41	0	49807360	50	6066
2026-01-25 18:41:31.86	323.95	22.13	-37.7	-39.0	28.5	3.02e+01	50	41	0	52428800	50	6078
2026-01-25 18:41:32.59	323.72	22.13	-37.7	-38.9	28.6	3.02e+01	57	41	0	53477376	50	6024
2026-01-25 18:41:33.89	323.31	22.14	-37.6	-38.9	28.7	3.02e+01	60	41	0	56098816	50	5999
2026-01-25 18:41:34.61	323.08	22.14	-37.7	-38.9	28.6	3.02e+01	48	41	0	57671680	50	6027
2026-01-25 18:41:35.91	322.67	22.15	-37.6	-38.9	28.6	3.02e+01	59	41	0	59768832	50	6025
2026-01-25 18:41:36.63	322.45	22.15	-37.8	-39.0	28.6	3.02e+01	56	41	0	61341696	50	6114
2026-01-25 18:41:37.93	322.04	22.16	-37.7	-38.9	28.6	3.02e+01	59	41	0	63438848	50	6050
2026-01-25 18:41:38.65	321.81	22.16	-37.7	-39.0	28.6	3.02e+01	59	41	0	65011712	50	6077
2026-01-25 18:41:39.94	321.41	22.16	-37.6	-38.8	28.7	3.02e+01	48	41	0	67633152	50	5962
2026-01-25 18:41:40.67	321.18	22.16	-37.6	-38.8	28.6	3.02e+01	60	41	0	68681728	50	5993
2026-01-25 18:41:41.96	320.77	22.16	-37.5	-38.8	28.7	3.02e+01	63	41	0	71303168	50	5932
2026-01-25 18:41:42.68	320.54	22.15	-37.6	-38.8	28.7	3.02e+01	50	41	0	72351744	50	5966
2026-01-25 18:41:43.98	320.14	22.15	-37.5	-38.7	28.7	3.02e+01	60	41	0	74973184	50	5926
2026-01-25 18:41:44.70	319.91	22.15	-37.6	-38.9	28.6	3.02e+01	59	41	0	76546048	50	6018
2026-01-25 18:41:46.00	319.50	22.14	-37.6	-38.9	28.7	3.02e+01	56	41	0	78643200	50	6004
2026-01-25 18:41:46.72	319.27	22.14	-37.6	-38.8	28.6	3.02e+01	60	41	0	80216064	50	5985
2026-01-25 18:41:48.02	318.86	22.13	-37.7	-39.0	28.4	3.02e+01	51	41	0	82313216	50	6073
2026-01-25 18:41:48.74	318.64	22.12	-37.7	-38.9	28.6	3.02e+01	56	41	0	83886080	50	6063
2026-01-25 18:41:50.04	318.23	22.11	-37.7	-38.9	28.6	3.02e+01	61	41	0	86507520	50	6025
2026-01-25 18:41:50.76	318.00	22.11	-37.7	-39.0	28.5	3.02e+01	45	41	0	87556096	50	6080
2026-01-25 18:41:52.05	317.60	22.09	-37.5	-38.7	28.7	3.02e+01	61	41	0	90177536	50	5897
2026-01-25 18:41:52.77	317.37	22.09	-37.4	-38.6	28.8	3.02e+01	62	41	0	91226112	50	5850
2026-01-25 18:41:54.07	316.97	22.07	-37.7	-38.9	28.5	3.02e+01	60	41	0	93847552	50	6037
2026-01-25 18:41:54.79	316.74	22.06	-37.6	-38.9	28.6	3.02e+01	62	41	0	95420416	50	6007
2026-01-25 18:41:56.09	316.34	22.04	-37.6	-38.8	28.6	3.02e+01	47	41	0	97517568	50	5984
2026-01-25 18:41:56.81	316.11	22.03	-37.6	-38.9	28.4	3.02e+01	59	41	0	99090432	50	6018
2026-01-25 18:41:58.11	315.71	22.01	-37.7	-39.0	28.3	3.02e+01	59	41	0	101711872	50	6090
2026-01-25 18:41:58.83	315.48	22.00	-37.5	-38.7	28.5	3.02e+01	39	41	0	102760448	50	5905
2026-01-25 18:42:00.13	315.08	21.98	-37.7	-39.0	28.4	3.02e+01	60	41	0	105381888	50	6068
2026-01-25 18:42:00.85	314.85	21.97	-38.0	-39.3	28.1	3.02e+01	51	41	0	106430464	50	6289
2026-01-25 18:42:02.15	314.45	21.94	-37.7	-38.9	28.3	3.02e+01	60	41	0	109051904	50	6044
2026-01-25 18:42:02.87	314.22	21.93	-38.0	-39.3	28.0	3.02e+01	62	41	0	110624768	50	6328
2026-01-25 18:42:04.17	313.82	21.90	-37.9	-39.2	28.1	3.02e+01	59	41	0	112721920	50	6237
2026-01-25 18:42:04.88	313.60	21.89	-37.6	-38.8	28.4	3.02e+01	58	41	0	114294784	50	5985
2026-01-25 18:42:06.18	313.20	21.86	-38.1	-39.3	28.2	3.02e+01	38	41	0	116391936	50	6349
2026-01-25 18:42:06.90	312.98	21.84	-38.1	-39.4	28.0	3.02e+01	60	41	0	117964800	50	6378
2026-01-25 18:42:08.20	312.58	21.81	-37.8	-39.1	28.2	3.02e+01	59	41	0	120586240	50	6166
2026-01-25 18:42:08.92	312.36	21.79	-37.9	-39.2	28.3	3.02e+01	53	41	0	121634816	50	6214
2026-01-25 18:42:10.22	311.96	21.76	-38.3	-39.6	27.9	3.02e+01	59	41	0	124256256	50	6549
2026-01-25 18:42:10.94	311.74	21.74	-38.3	-39.5	28.0	3.02e+01	58	41	0	125304832	50	6494
2026-01-25 18:42:12.24	311.34	21.71	-37.9	-39.1	28.4	3.02e+01	59	41	0	127926272	50	6191
2026-01-25 18:42:12.96	311.12	21.69	-37.7	-38.9	28.6	3.02e+01	59	41	0	129499136	50	6027
2026-01-25 18:42:14.25	310.73	21.65	-37.8	-39.1	28.5	3.02e+01	43	41	0	131596288	50	6144
2026-01-25 18:42:14.98	310.51	21.63	-37.5	-38.8	28.7	3.02e+01	60	41	0	133169152	50	5930
2026-01-25 18:42:16.27	310.11	21.59	-37.3	-38.5	28.9	3.02e+01	58	41	0	135790592	50	5740
2026-01-25 18:42:16.99	309.90	21.57	-38.3	-39.6	28.0	3.02e+01	53	41	0	136839168	50	6557
2026-01-25 18:42:18.29	309.50	21.53	-38.0	-39.4	28.3	3.02e+01	59	41	0	139460608	50	6351
2026-01-25 18:42:19.01	309.29	21.50	-37.3	-38.5	29.0	3.02e+01	59	41	0	140509184	50	5776
2026-01-25 18:42:20.31	308.90	21.46	-37.6	-38.9	28.7	3.02e+01	60	41	0	143130624	50	6002
2026-01-25 18:42:21.03	308.68	21.44	-37.5	-38.7	28.8	3.02e+01	57	41	0	144703488	50	5894
2026-01-25 18:42:22.33	308.29	21.39	-37.6	-38.8	28.6	3.02e+01	62	41	0	146800640	50	5952
2026-01-25 18:42:23.05	308.08	21.36	-38.1	-39.4	28.1	3.02e+01	55	41	0	148373504	50	6380
2026-01-25 18:42:24.35	307.69	21.32	-37.8	-39.1	28.1	3.02e+01	56	41	0	150470656	50	6156
2026-01-25 18:42:25.07	307.47	21.29	-38.2	-39.5	27.9	3.02e+01	53	41	0	152043520	50	6480
2026-01-25 18:42:26.37	307.09	21.24	-38.6	-39.9	27.4	3.02e+01	61	41	0	154664960	50	6773
2026-01-25 18:42:27.09	306.88	21.21	-37.2	-38.4	28.7	3.02e+01	58	41	0	155713536	50	5690
2026-01-25 18:42:28.38	306.50	21.16	-37.8	-39.0	28.4	3.02e+01	58	41	0	158334976	50	6133
2026-01-25 18:42:29.10	306.28	21.13	-38.3	-39.5	27.9	3.02e+01	58	41	0	159383552	50	6493
2026-01-25 18:42:30.40	305.90	21.08	-37.1	-38.3	29.1	3.02e+01	45	41	0	162004992	50	5595
2026-01-25 18:42:31.12	305.69	21.05	-38.8	-40.2	26.9	3.02e+01	59	41	0	163577856	50	7018
2026-01-25 18:42:32.42	305.31	21.00	-39.2	-40.7	26.7	3.02e+01	61	41	0	165675008	50	7436
2026-01-25 18:42:33.14	305.10	20.97	-37.5	-38.7	28.5	3.02e+01	51	41	0	167247872	50	5925
2026-01-25 18:42:34.44	304.73	20.91	-38.2	-39.5	28.0	3.02e+01	61	41	0	169345024	52	5772
2026-01-25 18:42:35.16	304.52	20.88	-38.1	-39.3	28.4	3.02e+01	59	41	0	170917888	52	5643
2026-01-25 18:42:36.46	304.14	20.82	-38.0	-39.4	28.1	3.02e+01	60	41	0	173539328	50	6352
2026-01-25 18:42:37.18	303.94	20.79	-37.3	-38.5	28.6	3.02e+01	55	41	0	174587904	50	5769
2026-01-25 18:42:38.48	303.57	20.73	-37.0	-38.1	29.1	3.02e+01	57	41	0	177209344	48	6190
2026-01-25 18:42:39.20	303.36	20.69	-38.5	-39.9	27.5	3.02e+01	59	41	0	178257920	50	6768
2026-01-25 18:42:40.50	302.99	20.63	-37.8	-39.1	28.4	3.02e+01	57	41	0	180879360	48	6917
2026-01-25 18:42:41.22	302.79	20.60	-37.7	-39.0	28.6	3.02e+01	52	41	0	182452224	50	6084
2026-01-25 18:42:42.52	302.42	20.54	-38.1	-39.4	28.1	3.02e+01	62	41	0	184549376	50	6404
2026-01-25 18:42:43.24	302.22	20.50	-38.1	-39.4	28.0	3.02e+01	60	41	0	186122240	50	6403
2026-01-25 18:42:44.53	301.85	20.44	-39.0	-40.4	27.3	3.02e+01	59	41	0	188743680	52	6369
2026-01-25 18:42:45.25	301.65	20.40	-37.1	-38.3	29.2	3.02e+01	60	41	0	189792256	50	5606
2026-01-25 18:42:46.55	301.29	20.33	-37.6	-38.9	28.7	3.02e+01	48	41	0	192413696	50	6015
2026-01-25 18:42:47.27	301.09	20.30	-38.3	-39.6	28.1	3.02e+01	58	41	0	193462272	50	6518
2026-01-25 18:42:48.57	300.73	20.23	-38.0	-39.3	28.2	3.02e+01	62	41	0	196083712	50	6326
2026-01-25 18:42:49.29	300.53	20.19	-37.2	-38.4	29.0	3.02e+01	46	41	0	197656576	50	5700
2026-01-25 18:42:50.58	300.18	20.12	-37.5	-38.7	28.8	3.02e+01	61	41	0	199753728	50	5897
2026-01-25 18:42:51.31	299.98	20.08	-37.5	-38.8	28.7	3.02e+01	58	41	0	201326592	50	5931
2026-01-25 18:42:52.60	299.63	20.01	-37.3	-38.6	28.9	3.02e+01	60	41	0	203423744	50	5793
2026-01-25 18:42:53.32	299.43	19.97	-37.8	-39.1	28.5	3.02e+01	60	41	0	204996608	50	6174
2026-01-25 18:42:54.62	299.08	19.90	-37.2	-38.4	29.1	3.02e+01	48	41	0	207618048	50	5666
2026-01-25 18:42:55.34	298.88	19.86	-37.9	-39.1	28.5	3.02e+01	60	41	0	208666624	50	6205
2026-01-25 18:42:56.64	298.54	19.79	-37.7	-38.9	28.7	3.02e+01	59	41	0	211288064	50	6035
2026-01-25 18:42:57.36	298.34	19.75	-37.9	-39.2	28.4	3.02e+01	44	41	0	212860928	50	6241
2026-01-25 18:42:58.65	298.00	19.67	-37.5	-38.7	28.8	3.02e+01	61	41	0	214958080	50	5910
2026-01-25 18:42:59.38	297.81	19.63	-37.7	-38.9	28.5	3.02e+01	52	41	0	216530944	50	6058
2026-01-25 18:43:00.67	297.47	19.56	-38.0	-39.2	28.3	3.02e+01	58	41	0	218628096	50	6238
2026-01-25 18:43:01.39	297.28	19.51	-38.4	-39.7	27.8	3.02e+01	63	41	0	220200960	50	6617
2026-01-25 18:43:02.69	296.93	19.44	-38.1	-39.4	28.1	3.02e+01	48	41	0	222298112	50	6379
2026-01-25 18:43:03.41	296.75	19.40	-38.7	-40.1	27.4	3.02e+01	59	41	0	223870976	50	6906
2026-01-25 18:43:04.71	296.41	19.32	-38.0	-39.2	28.2	3.02e+01	58	41	0	226492416	50	6238
2026-01-25 18:43:05.43	296.22	19.27	-38.3	-39.7	27.9	3.02e+01	46	41	0	227540992	50	6588
2026-01-25 18:43:06.72	295.89	19.20	-37.3	-38.6	28.6	3.02e+01	58	41	0	230162432	48	6518
2026-01-25 18:43:07.45	295.70	19.15	-37.6	-38.9	28.4	3.02e+01	58	41	0	231211008	48	6748
2026-01-25 18:43:08.74	295.37	19.07	-37.9	-39.2	28.3	3.02e+01	61	41	0	233832448	48	7027
2026-01-25 18:43:09.46	295.19	19.03	-37.4	-38.6	28.7	3.02e+01	61	41	0	235405312	50	5841
2026-01-25 18:43:10.76	294.86	18.95	-37.9	-39.2	28.0	3.02e+01	44	41	0	237502464	50	6233
2026-01-25 18:43:11.48	294.68	18.90	-37.0	-38.2	29.2	3.02e+01	59	41	0	239075328	50	5551
2026-01-25 18:43:12.78	294.35	18.82	-37.8	-39.1	28.0	3.02e+01	60	41	0	241696768	50	6154
2026-01-25 18:43:13.50	294.17	18.77	-36.8	-38.0	29.0	3.02e+01	54	41	0	242745344	48	6098
2026-01-25 18:43:14.80	293.85	18.69	-37.8	-39.0	27.3	3.02e+01	58	41	0	245366784	50	6125
2026-01-25 18:43:15.52	293.67	18.64	-36.9	-38.0	28.8	3.02e+01	55	41	0	246415360	48	6100
2026-01-25 18:43:16.81	293.35	18.56	-37.6	-38.8	27.9	3.02e+01	58	41	0	249036800	50	5982
2026-01-25 18:43:17.53	293.18	18.51	-36.9	-38.0	28.8	3.02e+01	56	41	0	250609664	48	6111
2026-01-25 18:43:18.83	292.86	18.43	-38.0	-39.3	27.7	3.02e+01	46	41	0	252706816	50	6328
2026-01-25 18:43:19.55	292.68	18.38	-37.4	-38.5	28.6	3.02e+01	58	41	0	254279680	50	5791
2026-01-25 18:43:20.85	292.37	18.29	-38.1	-39.4	27.7	3.02e+01	61	41	0	256376832	50	6376
2026-01-25 18:43:21.58	292.19	18.25	-37.8	-39.0	28.0	3.02e+01	57	41	0	257949696	50	6134
2026-01-25 18:43:22.87	291.88	18.16	-38.9	-40.2	26.8	3.02e+01	56	41	0	260571136	52	6275
2026-01-25 18:43:23.59	291.71	18.11	-38.5	-39.7	27.3	3.02e+01	44	41	0	261619712	52	5925
2026-01-25 18:43:24.89	291.40	18.03	-38.3	-39.6	27.9	3.02e+01	61	41	0	264241152	52	5793
2026-01-25 18:43:25.61	291.23	17.98	-37.6	-38.8	28.5	3.02e+01	59	41	0	265814016	50	5946
2026-01-25 18:43:26.91	290.93	17.89	-37.8	-39.1	27.8	3.02e+01	57	41	0	267911168	50	6142
2026-01-25 18:43:27.63	290.76	17.84	-37.9	-39.1	27.8	3.02e+01	57	41	0	269484032	50	6184
2026-01-25 18:43:28.93	290.46	17.75	-38.8	-40.1	26.9	3.02e+01	52	41	0	271581184	52	6195
2026-01-25 18:43:29.65	290.29	17.70	-37.4	-38.6	28.8	3.02e+01	59	41	0	273154048	50	5817
2026-01-25 18:43:30.94	289.99	17.61	-38.3	-39.7	27.6	3.02e+01	57	41	0	275251200	50	6596
2026-01-25 18:43:31.66	289.83	17.56	-36.9	-38.1	28.9	3.02e+01	54	41	0	276824064	50	5495
2026-01-25 18:43:32.96	289.53	17.47	-37.5	-38.7	28.6	3.02e+01	57	41	0	279445504	48	6613
2026-01-25 18:43:33.68	289.36	17.42	-37.5	-38.7	28.5	3.02e+01	60	41	0	280494080	48	6621
2026-01-25 18:43:34.98	289.07	17.33	-37.2	-38.4	28.9	3.02e+01	57	41	0	283115520	48	6408
2026-01-25 18:43:35.70	288.91	17.28	-37.2	-38.4	28.7	3.02e+01	57	41	0	284164096	48	6386
2026-01-25 18:43:37.00	288.62	17.19	-37.4	-38.6	28.6	3.02e+01	57	41	0	286785536	48	6573
2026-01-25 18:43:37.72	288.46	17.14	-37.6	-38.8	28.5	3.02e+01	60	41	0	288358400	48	6712
2026-01-25 18:43:39.02	288.17	17.05	-37.6	-38.8	28.6	3.02e+01	57	41	0	290455552	48	6678
2026-01-25 18:43:39.74	288.01	17.00	-37.3	-38.5	28.8	3.02e+01	44	41	0	292028416	48	6448
2026-01-25 18:43:41.04	287.72	16.91	-37.5	-38.8	28.5	3.02e+01	60	41	0	294649856	48	6664
2026-01-25 18:43:41.76	287.57	16.85	-37.4	-38.6	28.5	3.02e+01	57	41	0	295698432	48	6519
2026-01-25 18:43:43.05	287.29	16.76	-37.1	-38.3	28.8	3.02e+01	59	41	0	298319872	48	6293
2026-01-25 18:43:43.77	287.13	16.71	-37.2	-38.4	28.7	3.02e+01	61	41	0	299368448	48	6378
2026-01-25 18:43:45.07	286.85	16.62	-37.7	-39.0	28.2	3.02e+01	53	41	0	301989888	48	6845
2026-01-25 18:43:45.80	286.70	16.57	-37.5	-38.7	28.4	3.02e+01	59	41	0	303562752	48	6595
2026-01-25 18:43:47.09	286.42	16.47	-37.4	-38.6	28.3	3.02e+01	57	41	0	305659904	48	6507
2026-01-25 18:43:47.81	286.27	16.42	-37.9	-39.2	27.9	3.02e+01	58	41	0	307232768	48	7018
2026-01-25 18:43:49.11	285.99	16.33	-37.3	-38.5	28.5	3.02e+01	58	41	0	309854208	48	6438
2026-01-25 18:43:49.83	285.84	16.27	-37.3	-38.5	28.6	3.02e+01	62	41	0	310902784	48	6453
2026-01-25 18:43:51.13	285.57	16.18	-37.3	-38.5	28.6	3.02e+01	57	41	0	313524224	48	6453
2026-01-25 18:43:51.84	285.43	16.13	-37.4	-38.6	28.6	3.02e+01	60	41	0	314572800	48	6548
2026-01-25 18:43:53.14	285.16	16.03	-37.4	-38.7	28.5	3.02e+01	51	41	0	317194240	48	6588
2026-01-25 18:43:53.86	285.01	15.98	-37.4	-38.6	28.4	3.02e+01	57	41	0	318767104	48	6538
2026-01-25 18:43:55.16	284.74	15.89	-37.7	-39.0	28.4	3.02e+01	59	41	0	320864256	48	6814
2026-01-25 18:43:55.88	284.60	15.83	-37.7	-38.9	28.5	3.02e+01	43	41	0	322437120	48	6795
2026-01-25 18:43:57.18	284.33	15.74	-37.6	-38.8	28.5	3.02e+01	64	41	0	324534272	48	6707
2026-01-25 18:43:57.90	284.19	15.69	-37.5	-38.7	28.6	3.02e+01	58	41	0	326107136	48	6608
2026-01-25 18:43:59.20	283.93	15.59	-37.4	-38.7	28.7	3.02e+01	58	41	0	328728576	48	6575
2026-01-25 18:43:59.92	283.79	15.54	-37.4	-38.6	28.7	3.02e+01	56	41	0	329777152	48	6559
2026-01-25 18:44:01.24	283.53	15.44	-37.5	-38.7	28.6	3.02e+01	46	41	0	332398592	48	6631
2026-01-25 18:44:01.96	283.38	15.39	-37.6	-38.8	28.5	3.02e+01	61	41	0	333447168	48	6710
2026-01-25 18:44:03.25	283.13	15.29	-37.3	-38.5	28.7	3.02e+01	60	41	0	336068608	48	6439
2026-01-25 18:44:03.97	282.99	15.24	-37.6	-38.9	28.4	3.02e+01	49	41	0	337641472	48	6769
2026-01-25 18:44:05.27	282.74	15.14	-37.6	-38.9	28.2	3.02e+01	57	41	0	339738624	50	6027
2026-01-25 18:44:05.99	282.60	15.09	-37.4	-38.6	28.5	3.02e+01	60	41	0	341311488	50	5851
2026-01-25 18:44:07.28	282.36	14.99	-37.3	-38.5	28.7	3.02e+01	52	41	0	343408640	50	5765
2026-01-25 18:44:08.00	282.22	14.94	-37.6	-38.8	28.5	3.02e+01	60	41	0	344981504	50	5963
2026-01-25 18:44:09.30	281.97	14.85	-37.6	-38.9	28.2	3.02e+01	45	41	0	347602944	50	6018
2026-01-25 18:44:10.02	281.84	14.79	-37.7	-38.9	28.4	3.02e+01	56	41	0	348651520	50	6028
2026-01-25 18:44:11.32	281.59	14.70	-37.5	-38.7	28.6	3.02e+01	59	41	0	351272960	50	5882
2026-01-25 18:44:12.04	281.46	14.64	-37.6	-38.9	28.4	3.02e+01	51	41	0	352321536	50	6037
2026-01-25 18:44:13.34	281.22	14.55	-37.6	-38.8	28.4	3.02e+01	61	41	0	354942976	50	5972
2026-01-25 18:44:14.06	281.09	14.49	-37.7	-38.9	28.4	3.02e+01	60	41	0	356515840	50	6045
2026-01-25 18:44:15.36	280.85	14.39	-37.8	-39.0	28.2	3.02e+01	62	40	0	358612992	50	6096
2026-01-25 18:44:16.08	280.72	14.34	-38.1	-39.4	27.8	3.02e+01	61	41	0	360185856	50	6363
2026-01-25 18:44:17.37	280.48	14.25	-38.0	-39.3	28.1	3.02e+01	45	41	0	362807296	50	6339
2026-01-25 18:44:18.09	280.35	14.19	-37.4	-38.6	28.6	3.02e+01	56	41	0	363855872	50	5847
2026-01-25 18:44:19.39	280.12	14.10	-37.0	-38.2	28.9	3.02e+01	58	41	0	366477312	50	5576
2026-01-25 18:44:20.11	279.99	14.04	-37.2	-38.4	28.8	3.02e+01	45	41	0	367525888	50	5708
2026-01-25 18:44:21.41	279.76	13.94	-37.8	-39.1	28.3	3.02e+01	58	41	0	370147328	50	6151
2026-01-25 18:44:22.13	279.63	13.89	-37.7	-39.0	28.2	3.02e+01	55	41	0	371720192	50	6095
2026-01-25 18:44:23.43	279.40	13.79	-37.8	-39.0	28.2	3.02e+01	57	41	0	373817344	50	6120
2026-01-25 18:44:24.15	279.28	13.74	-37.2	-38.4	28.9	3.02e+01	58	41	0	375390208	50	5714
2026-01-25 18:44:25.45	279.05	13.64	-37.7	-38.9	28.3	3.02e+01	47	41	0	377487360	50	6051
2026-01-25 18:44:26.17	278.93	13.59	-37.8	-39.1	28.1	3.02e+01	58	41	0	379060224	50	6164
2026-01-25 18:44:27.46	278.71	13.49	-37.7	-39.0	28.2	3.02e+01	53	41	0	381681664	50	6086
2026-01-25 18:44:28.19	278.58	13.44	-37.3	-38.5	28.5	3.02e+01	50	41	0	382730240	50	5784
2026-01-25 18:44:29.49	278.36	13.34	-37.7	-38.9	28.2	3.02e+01	59	40	0	385351680	50	6064
2026-01-25 18:44:30.20	278.24	13.29	-37.9	-39.2	28.1	3.02e+01	44	41	0	386400256	50	6213
2026-01-25 18:44:31.50	278.02	13.19	-38.2	-39.5	27.5	3.02e+01	57	41	0	389021696	50	6468
2026-01-25 18:44:32.22	277.90	13.14	-37.8	-39.1	27.9	3.02e+01	60	41	0	390594560	50	6190
2026-01-25 18:44:33.52	277.69	13.04	-37.3	-38.5	28.4	3.02e+01	61	41	0	392691712	50	5784
2026-01-25 18:44:34.24	277.57	12.99	-37.6	-38.8	28.2	3.02e+01	58	41	0	394264576	50	5943
2026-01-25 18:44:35.54	277.36	12.89	-37.2	-38.5	28.5	3.02e+01	46	40	0	396886016	50	5731
2026-01-25 18:44:36.26	277.24	12.84	-37.7	-39.0	28.2	3.02e+01	59	41	0	397934592	50	6083
2026-01-25 18:44:37.56	277.03	12.74	-38.0	-39.3	28.0	3.02e+01	59	41	0	400556032	50	6339
2026-01-25 18:44:38.28	276.91	12.69	-37.9	-39.2	27.8	3.02e+01	46	41	0	401604608	50	6264
2026-01-25 18:44:39.58	276.70	12.59	-37.8	-39.0	28.1	3.02e+01	61	41	0	404226048	50	6128
2026-01-25 18:44:40.30	276.59	12.54	-37.6	-38.8	28.3	3.02e+01	59	41	0	405798912	50	5968
2026-01-25 18:44:41.60	276.38	12.44	-37.6	-38.8	28.4	3.02e+01	60	41	0	407896064	50	5974
2026-01-25 18:44:42.32	276.27	12.39	-37.7	-38.9	28.3	3.02e+01	63	41	0	409468928	50	6024
2026-01-25 18:44:43.61	276.06	12.30	-38.1	-39.4	28.0	3.02e+01	60	41	0	411566080	50	6363
2026-01-25 18:44:44.33	275.95	12.24	-38.2	-39.5	27.8	3.02e+01	61	40	0	413138944	50	6493
2026-01-25 18:44:45.63	275.75	12.15	-37.9	-39.2	27.9	3.02e+01	57	41	0	415760384	50	6275
2026-01-25 18:44:46.35	275.64	12.09	-37.9	-39.2	27.9	3.02e+01	60	41	0	416808960	50	6219
2026-01-25 18:44:47.65	275.44	12.00	-37.6	-38.9	28.2	3.02e+01	61	41	0	419430400	50	5999
2026-01-25 18:44:48.37	275.33	11.94	-37.5	-38.7	28.3	3.02e+01	58	41	0	420478976	50	5883
2026-01-25 18:44:49.67	275.13	11.85	-37.5	-38.8	28.3	3.02e+01	60	41	0	423100416	50	5942
2026-01-25 18:44:50.39	275.02	11.80	-37.7	-39.0	28.1	3.02e+01	61	41	0	424673280	50	6094
2026-01-25 18:44:51.69	274.83	11.70	-38.0	-39.3	27.8	3.02e+01	52	41	0	426770432	50	6323
2026-01-25 18:44:52.41	274.72	11.65	-38.0	-39.3	27.7	3.02e+01	60	41	0	428343296	50	6343
2026-01-25 18:44:53.70	274.53	11.55	-38.1	-39.4	27.7	3.02e+01	60	41	0	430440448	50	6360
2026-01-25 18:44:54.43	274.42	11.50	-38.1	-39.4	27.7	3.02e+01	58	41	0	432013312	50	6383
2026-01-25 18:44:55.72	274.23	11.40	-37.7	-39.0	28.0	3.02e+01	60	41	0	434634752	50	6101
2026-01-25 18:44:56.45	274.12	11.35	-37.8	-39.0	28.0	3.02e+01	60	41	0	435683328	50	6128
2026-01-25 18:44:57.74	273.94	11.26	-37.7	-38.9	28.2	3.02e+01	58	41	0	438304768	50	6037
2026-01-25 18:44:58.47	273.83	11.20	-37.7	-38.9	28.2	3.02e+01	55	41	0	439877632	50	6063
2026-01-25 18:44:59.76	273.64	11.11	-37.8	-39.0	28.1	3.02e+01	58	41	0	441974784	50	6123
2026-01-25 18:45:00.48	273.54	11.06	-37.8	-39.1	28.1	3.02e+01	58	41	0	443547648	50	6178
2026-01-25 18:45:01.78	273.36	10.96	-37.9	-39.2	28.0	3.02e+01	58	41	0	445644800	50	6221
2026-01-25 18:45:02.50	273.25	10.91	-38.2	-39.5	27.7	3.02e+01	56	41	0	447217664	50	6457
2026-01-25 18:45:03.80	273.07	10.81	-38.1	-39.4	27.9	3.02e+01	59	41	0	449839104	50	6363
2026-01-25 18:45:04.52	272.97	10.76	-38.1	-39.4	27.8	3.02e+01	58	41	0	450887680	50	6394
2026-01-25 18:45:05.82	272.79	10.67	-38.1	-39.4	27.7	3.02e+01	59	41	0	453509120	50	6412
2026-01-25 18:45:06.54	272.69	10.62	-37.9	-39.1	28.0	3.02e+01	58	41	0	454557696	50	6189
2026-01-25 18:45:07.84	272.51	10.52	-37.9	-39.2	28.0	3.02e+01	56	41	0	457179136	50	6236
2026-01-25 18:45:08.56	272.41	10.47	-37.9	-39.2	28.0	3.02e+01	64	41	0	458752000	50	6232
2026-01-25 18:45:09.86	272.24	10.38	-38.0	-39.3	27.9	3.02e+01	56	41	0	460849152	50	6317
2026-01-25 18:45:10.58	272.14	10.32	-38.1	-39.3	27.8	3.02e+01	50	41	0	462422016	50	6346
2026-01-25 18:45:11.87	271.96	10.23	-38.0	-39.3	27.9	3.02e+01	57	41	0	465043456	50	6323
2026-01-25 18:45:12.60	271.87	10.18	-38.1	-39.4	27.8	3.02e+01	58	40	0	466092032	50	6386
2026-01-25 18:45:13.89	271.70	10.09	-38.3	-39.6	27.5	3.02e+01	58	41	0	468713472	50	6539
2026-01-25 18:45:14.62	271.60	10.03	-38.3	-39.6	27.5	3.02e+01	60	41	0	469762048	50	6562
2026-01-25 18:45:15.91	271.43	9.94	-38.2	-39.5	27.6	3.02e+01	47	41	0	472383488	50	6483
2026-01-25 18:45:16.63	271.33	9.89	-38.1	-39.5	27.7	3.02e+01	60	41	0	473432064	50	6426
2026-01-25 18:45:17.93	271.16	9.80	-38.0	-39.3	27.8	3.02e+01	60	41	0	476053504	50	6321
2026-01-25 18:45:18.65	271.07	9.75	-38.1	-39.4	27.7	3.02e+01	47	40	0	477626368	50	6369
2026-01-25 18:45:19.95	270.90	9.65	-38.2	-39.5	27.7	3.02e+01	59	41	0	479723520	50	6489
2026-01-25 18:45:20.67	270.81	9.60	-38.2	-39.5	27.7	3.02e+01	57	41	0	481296384	50	6473
2026-01-25 18:45:21.97	270.65	9.51	-38.1	-39.4	27.8	3.02e+01	57	41	0	483917824	50	6366
2026-01-25 18:45:22.69	270.55	9.46	-38.3	-39.6	27.5	3.02e+01	54	41	0	484966400	50	6523
2026-01-25 18:45:23.99	270.39	9.37	-38.5	-39.8	27.3	3.02e+01	51	41	0	487587840	50	6677
2026-01-25 18:45:24.71	270.30	9.32	-38.6	-39.9	27.2	3.02e+01	57	41	0	488636416	50	6776
2026-01-25 18:45:26.00	270.14	9.22	-38.5	-39.9	27.2	3.02e+01	60	41	0	491257856	50	6746
2026-01-25 18:45:26.73	270.05	9.17	-38.4	-39.7	27.5	3.02e+01	45	41	0	492830720	50	6590
2026-01-25 18:45:28.03	269.89	9.08	-38.4	-39.7	27.4	3.02e+01	61	41	0	494927872	50	6611
2026-01-25 18:45:28.75	269.80	9.03	-38.4	-39.7	27.4	3.02e+01	57	41	0	496500736	50	6587
2026-01-25 18:45:30.04	269.64	8.94	-38.2	-39.5	27.5	3.02e+01	54	41	0	498597888	50	6490
2026-01-25 18:45:30.76	269.55	8.89	-38.0	-39.3	27.7	3.02e+01	59	41	0	500170752	50	6337
2026-01-25 18:45:32.06	269.40	8.80	-38.2	-39.5	27.6	3.02e+01	44	41	0	502792192	50	6457
2026-01-25 18:45:32.78	269.31	8.75	-38.4	-39.7	27.3	3.02e+01	59	41	0	503840768	50	6595
2026-01-25 18:45:34.08	269.16	8.66	-38.5	-39.8	27.3	3.02e+01	63	41	0	506462208	50	6672
2026-01-25 18:45:34.80	269.07	8.61	-38.7	-40.0	27.1	3.02e+01	45	41	0	507510784	50	6857
2026-01-25 18:45:36.10	268.92	8.52	-38.5	-39.9	27.2	3.02e+01	63	41	0	510132224	50	6734
2026-01-25 18:45:36.82	268.83	8.47	-38.7	-40.1	27.1	3.02e+01	53	41	0	511705088	50	6894
2026-01-25 18:45:38.12	268.68	8.38	-38.6	-40.0	27.0	3.02e+01	60	41	0	513802240	50	6841
2026-01-25 18:45:38.84	268.60	8.33	-38.8	-40.1	26.9	3.02e+01	58	41	0	515375104	50	6941
2026-01-25 18:45:40.14	268.44	8.24	-38.5	-39.8	27.1	3.02e+01	49	41	0	517996544	50	6715
2026-01-25 18:45:40.86	268.36	8.19	-38.4	-39.7	27.3	3.02e+01	58	41	0	519045120	50	6637
2026-01-25 18:45:42.15	268.21	8.10	-38.4	-39.7	27.3	3.02e+01	58	41	0	521666560	50	6628
2026-01-25 18:45:42.88	268.13	8.05	-38.3	-39.6	27.3	3.02e+01	60	41	0	522715136	50	6564
2026-01-25 18:45:44.17	267.98	7.96	-38.8	-40.1	27.0	3.02e+01	59	41	0	525336576	50	6938
2026-01-25 18:45:44.89	267.90	7.91	-38.6	-39.9	27.1	3.02e+01	52	40	0	526909440	50	6755
2026-01-25 18:45:46.19	267.76	7.82	-38.6	-39.9	27.1	3.02e+01	58	41	0	529006592	50	6763
2026-01-25 18:45:46.91	267.68	7.77	-38.5	-39.8	27.2	3.02e+01	59	41	0	530579456	50	6715
2026-01-25 18:45:48.21	267.53	7.68	-38.4	-39.8	27.2	3.02e+01	58	41	0	533200896	50	6661
2026-01-25 18:45:48.93	267.45	7.63	-38.6	-39.9	27.0	3.02e+01	61	41	0	534249472	50	6790
2026-01-25 18:45:50.23	267.31	7.54	-38.8	-40.2	26.9	3.02e+01	44	41	0	536870912	52	6229
2026-01-25 18:45:50.95	267.23	7.50	-38.5	-39.8	27.3	3.02e+01	60	41	0	537919488	52	5964
2026-01-25 18:45:52.24	267.09	7.41	-38.6	-39.9	27.1	3.02e+01	54	41	0	540540928	52	6045
2026-01-25 18:45:52.96	267.01	7.36	-38.9	-40.2	26.9	3.02e+01	57	40	0	541589504	52	6277
2026-01-25 18:45:54.26	266.87	7.27	-38.9	-40.2	26.8	3.02e+01	58	41	0	544210944	52	6267
2026-01-25 18:45:54.98	266.80	7.22	-39.1	-40.5	26.6	3.02e+01	59	41	0	545783808	52	6435
2026-01-25 18:45:56.28	266.66	7.13	-39.2	-40.5	26.4	3.02e+01	61	41	0	547880960	52	6485
2026-01-25 18:45:57.01	266.58	7.09	-38.9	-40.3	26.9	3.02e+01	59	41	0	549453824	52	6318
2026-01-25 18:45:58.30	266.45	7.00	-38.5	-39.9	26.9	3.02e+01	45	41	0	551550976	52	6021
2026-01-25 18:45:59.03	266.37	6.95	-39.0	-40.3	26.7	3.02e+01	57	41	0	553123840	52	6336
2026-01-25 18:46:00.32	266.23	6.86	-39.1	-40.5	26.4	3.02e+01	57	41	0	555745280	52	6469
2026-01-25 18:46:01.05	266.16	6.81	-38.7	-40.1	26.9	3.02e+01	43	41	0	556793856	52	6159
2026-01-25 18:46:02.35	266.03	6.73	-39.1	-40.4	26.6	3.02e+01	63	41	0	559415296	52	6404
2026-01-25 18:46:03.07	265.95	6.68	-39.0	-40.4	26.7	3.02e+01	59	41	0	560988160	52	6354
2026-01-25 18:46:04.36	265.82	6.59	-39.0	-40.4	26.6	3.02e+01	62	40	0	563085312	52	6377
2026-01-25 18:46:05.09	265.75	6.55	-39.0	-40.4	26.6	3.02e+01	55	41	0	564658176	52	6375
2026-01-25 18:46:06.38	265.62	6.46	-39.1	-40.5	26.4	3.02e+01	62	41	0	566755328	52	6436
2026-01-25 18:46:07.10	265.54	6.41	-39.3	-40.8	26.2	3.02e+01	60	41	0	568328192	52	6655
2026-01-25 18:46:08.40	265.41	6.33	-39.4	-40.8	26.2	3.02e+01	60	40	0	570949632	52	6671
2026-01-25 18:46:09.12	265.34	6.28	-39.5	-41.0	26.0	3.02e+01	54	41	0	571998208	52	6811
2026-01-25 18:46:10.42	265.21	6.19	-39.4	-40.8	26.1	3.02e+01	60	40	0	574619648	52	6710
2026-01-25 18:46:11.14	265.14	6.15	-39.3	-40.7	26.3	3.02e+01	57	41	0	575668224	52	6596
2026-01-25 18:46:12.44	265.01	6.06	-39.1	-40.5	26.4	3.02e+01	59	41	0	578289664	52	6428
2026-01-25 18:46:13.16	264.94	6.01	-39.3	-40.7	26.2	3.02e+01	59	41	0	579862528	52	6597
2026-01-25 18:46:14.46	264.82	5.93	-39.1	-40.5	26.4	3.02e+01	52	41	0	581959680	52	6487
2026-01-25 18:46:15.18	264.75	5.88	-39.1	-40.5	26.5	3.02e+01	58	40	0	583532544	52	6448
2026-01-25 18:46:16.47	264.62	5.80	-39.1	-40.5	26.4	3.02e+01	61	41	0	586153984	52	6482
2026-01-25 18:46:17.19	264.56	5.75	-39.2	-40.6	26.3	3.02e+01	52	41	0	587202560	52	6537
2026-01-25 18:46:18.49	264.43	5.67	-39.9	-41.3	25.2	3.02e+01	58	41	0	589824000	54	6335
2026-01-25 18:46:19.21	264.36	5.62	-39.4	-40.8	25.8	3.02e+01	59	41	0	590872576	54	5985
2026-01-25 18:46:20.51	264.24	5.53	-39.7	-41.2	25.9	3.02e+01	59	41	0	593494016	54	6223
2026-01-25 18:46:21.23	264.17	5.49	-39.6	-41.0	25.7	3.02e+01	61	40	0	595066880	54	6117
2026-01-25 18:46:22.53	264.05	5.40	-39.1	-40.5	26.1	3.02e+01	53	41	0	597164032	54	5728
2026-01-25 18:46:23.25	263.99	5.36	-39.6	-41.1	25.7	3.02e+01	59	41	0	598736896	54	6155
2026-01-25 18:46:24.55	263.87	5.27	-39.5	-41.0	25.9	3.02e+01	59	41	0	600834048	52	6805
2026-01-25 18:46:25.27	263.80	5.23	-39.3	-40.7	26.0	3.02e+01	46	41	0	602406912	52	6610
2026-01-25 18:46:26.56	263.68	5.14	-39.4	-40.9	25.9	3.02e+01	60	41	0	605028352	52	6732
2026-01-25 18:46:27.29	263.62	5.10	-39.7	-41.2	25.6	3.02e+01	61	41	0	606076928	52	7016
2026-01-25 18:46:28.58	263.50	5.02	-39.2	-40.6	26.0	3.02e+01	60	41	0	608698368	54	5809
2026-01-25 18:46:29.31	263.43	4.97	-39.7	-41.2	25.6	3.02e+01	60	41	0	609746944	54	6254
2026-01-25 18:46:30.60	263.32	4.89	-38.9	-40.3	26.3	3.02e+01	40	41	0	612368384	52	6343
2026-01-25 18:46:31.33	263.25	4.84	-39.8	-41.3	25.5	3.02e+01	60	40	0	613941248	52	7060
2026-01-25 18:46:32.62	263.14	4.76	-39.7	-41.2	25.5	3.02e+01	60	41	0	616038400	52	7011
2026-01-25 18:46:33.35	263.07	4.71	-39.4	-40.9	25.8	3.02e+01	56	41	0	617611264	52	6753
2026-01-25 18:46:34.64	262.96	4.63	-39.8	-41.3	25.4	3.02e+01	58	40	0	619708416	54	6312
2026-01-25 18:46:35.36	262.90	4.59	-39.5	-40.9	25.9	3.02e+01	58	41	0	621281280	54	6061
2026-01-25 18:46:36.66	262.79	4.50	-39.6	-41.0	25.6	3.02e+01	56	41	0	623902720	54	6111
2026-01-25 18:46:37.38	262.72	4.46	-39.7	-41.2	25.5	3.02e+01	61	41	0	624951296	54	6228
2026-01-25 18:46:38.68	262.61	4.38	-39.5	-40.9	25.7	3.02e+01	50	41	0	627572736	54	6046
2026-01-25 18:46:39.40	262.55	4.33	-39.9	-41.4	25.2	3.02e+01	63	40	0	628621312	54	6375
2026-01-25 18:46:40.69	262.44	4.25	-39.7	-41.2	25.5	3.02e+01	58	41	0	631242752	54	6255
2026-01-25 18:46:41.41	262.38	4.21	-39.8	-41.3	25.4	3.02e+01	45	40	0	632815616	54	6290
2026-01-25 18:46:42.71	262.27	4.12	-40.1	-41.6	25.2	3.02e+01	56	41	0	634912768	54	6563
2026-01-25 18:46:43.43	262.21	4.08	-40.1	-41.6	25.3	3.02e+01	59	41	0	636485632	54	6518
2026-01-25 18:46:44.73	262.10	4.00	-39.9	-41.5	25.0	3.02e+01	56	41	0	639107072	54	6428
2026-01-25 18:46:45.45	262.04	3.95	-39.5	-40.9	25.3	3.02e+01	60	40	0	640155648	54	6053
2026-01-25 18:46:46.75	261.93	3.87	-39.9	-41.4	25.1	3.02e+01	50	40	0	642777088	54	6405
2026-01-25 18:46:47.47	261.87	3.83	-40.3	-41.9	24.7	3.02e+01	62	40	0	643825664	54	6759
2026-01-25 18:46:48.77	261.77	3.75	-40.3	-41.9	24.8	3.02e+01	59	40	0	646447104	54	6760
2026-01-25 18:46:49.49	261.71	3.70	-40.6	-42.2	24.3	3.02e+01	53	40	0	648019968	54	7008
2026-01-25 18:46:50.79	261.60	3.62	-40.4	-42.1	24.5	3.02e+01	58	41	0	650117120	54	6884
2026-01-25 18:46:51.51	261.54	3.58	-40.7	-42.3	24.0	3.02e+01	55	41	0	651689984	54	7083
2026-01-25 18:46:52.81	261.44	3.50	-39.8	-41.4	25.1	3.02e+01	59	41	0	654311424	54	6354
2026-01-25 18:46:53.53	261.38	3.46	-40.7	-42.4	24.0	3.02e+01	60	41	0	655360000	54	7163
2026-01-25 18:46:54.83	261.28	3.38	-39.3	-40.8	25.4	3.02e+01	59	40	0	657981440	52	6660
2026-01-25 18:46:55.55	261.22	3.33	-40.6	-42.3	24.2	3.02e+01	59	40	0	659030016	54	7050
2026-01-25 18:46:56.85	261.12	3.25	-39.4	-40.9	25.5	3.02e+01	53	41	0	661651456	52	6770
2026-01-25 18:46:57.57	261.06	3.21	-40.6	-42.3	24.2	3.02e+01	60	41	0	663224320	54	7050
2026-01-25 18:46:58.87	260.96	3.13	-39.7	-41.2	25.3	3.02e+01	59	41	0	665321472	54	6277
2026-01-25 18:46:59.59	260.90	3.09	-40.2	-41.7	24.4	3.02e+01	44	41	0	666894336	54	6637
2026-01-25 18:47:00.89	260.80	3.01	-40.1	-41.7	24.4	3.02e+01	58	41	0	668991488	56	5886
2026-01-25 18:47:01.61	260.75	2.96	-49.5	-66.7	3.5	3.02e+01	0	41	104	670040064	60	83618
2026-01-25 18:47:02.91	260.65	2.89	-50.1	-67.8	3.5	3.02e+01	0	41	104	670040064	60	94770
2026-01-25 18:47:03.63	260.59	2.84	-50.2	-68.0	3.5	3.02e+01	0	41	104	670040064	60	96650
2026-01-25 18:47:04.93	260.50	2.76	-50.4	-68.1	3.5	3.02e+01	0	41	104	670040064	60	98274
2026-01-25 18:47:05.65	260.44	2.72	-50.5	-68.3	3.5	3.02e+01	0	41	104	670040064	60	100195
2026-01-25 18:47:06.95	260.34	2.64	-50.6	-68.3	3.5	3.02e+01	0	41	104	670040064	60	100476
2026-01-25 18:47:07.67	260.29	2.60	-50.6	-68.4	3.5	3.02e+01	0	41	104	670040064	60	101020
2026-01-25 18:47:08.97	260.19	2.52	-50.6	-68.4	3.5	3.02e+01	0	41	104	670040064	60	101582
2026-01-25 18:47:09.69	260.14	2.48	-50.7	-68.4	3.5	3.02e+01	0	41	104	670040064	60	101603
2026-01-25 18:47:10.99	260.04	2.40	-50.7	-68.5	3.5	3.02e+01	0	41	104	670040064	60	101817
2026-01-25 18:47:11.71	259.99	2.36	-50.7	-68.5	3.5	3.02e+01	0	41	104	670040064	60	102423
2026-01-25 18:47:13.01	259.89	2.28	-50.7	-68.5	3.5	3.02e+01	0	41	104	670040064	60	102097
2026-01-25 18:47:13.73	259.84	2.24	-50.7	-68.5	3.5	3.02e+01	0	41	104	670040064	60	102512
2026-01-25 18:47:15.03	259.75	2.16	-50.7	-68.5	3.5	3.02e+01	0	41	104	670040064	60	102313
2026-01-25 18:47:15.75	259.70	2.12	-50.6	-68.5	3.5	3.02e+01	0	41	104	670040064	60	102047
2026-01-25 18:47:17.05	259.60	2.04	-50.5	-68.4	3.6	3.02e+01	0	41	104	670040064	60	101756
2026-01-25 18:47:17.77	259.55	2.00	-50.3	-68.5	3.5	3.02e+01	0	41	104	670040064	60	102030
2026-01-25 18:47:19.07	259.46	1.92	-50.5	-68.4	3.5	3.02e+01	0	41	104	670040064	60	101130
2026-01-25 18:47:19.79	259.41	1.88	-50.5	-68.4	3.5	3.02e+01	0	41	104	670040064	60	101501
2026-01-25 18:47:21.09	259.32	1.81	-50.5	-68.3	3.5	3.02e+01	0	41	104	670040064	60	100422
2026-01-25 18:47:21.81	259.27	1.76	-50.5	-68.3	3.5	3.02e+01	0	41	104	670040064	60	100298
2026-01-25 18:47:23.11	259.17	1.69	-50.5	-68.4	3.5	3.02e+01	0	41	104	670040064	60	100788
2026-01-25 18:47:23.83	259.12	1.65	-50.5	-68.3	3.5	3.02e+01	0	41	104	670040064	60	100340
