passes_logs/2026/01/25/R4.6S_Anadyr/R4.6S_Anadyr__20260125_231240_SUOMI_NPP_rec.log

#Pass ID: 20260125_231240_SUOMI NPP
#Satellite: SUOMI NPP
#Configuration: NPP
#almurnet v.1.7.20251203
#Start time: 2026-01-25 23:12:43

#Version: 2.2.20231116
#Station: R4.6S_Anadyr
#Location: 177.4865 lon 64.73178 lat
#TLE: 1 37849U 11061A   26025.53586395  .00000179  00000+0  10601-3 0  9996
#TLE: 2 37849  98.7821 327.4943 0002169  45.6246 314.5108 14.19529815738202

#Time	Az	El	Level	Level2	SNR	BER	BlckErr	Temp	State	Recorded	gain1	gain2
2026-01-25 23:12:43.11	129.64	0.18	-51.0	-64.7	3.3	1.54e+00	0	35	0	0	60	62416
2026-01-25 23:12:44.10	129.61	0.23	-50.9	-66.2	3.6	1.51e+00	0	35	104	0	60	73477
2026-01-25 23:12:45.11	129.59	0.29	-51.5	-66.7	3.6	1.51e+00	0	35	104	0	60	78291
2026-01-25 23:12:46.12	129.56	0.35	-50.6	-65.8	3.6	1.51e+00	0	35	104	0	60	70336
2026-01-25 23:12:47.13	129.53	0.41	-50.3	-65.4	3.6	1.51e+00	0	35	104	0	60	67313
2026-01-25 23:12:48.14	129.51	0.47	-50.3	-65.5	3.6	1.51e+00	0	35	104	0	60	68122
2026-01-25 23:12:49.15	129.48	0.53	-50.1	-65.3	3.6	1.51e+00	0	35	104	0	60	66874
2026-01-25 23:12:50.16	129.45	0.59	-50.3	-65.5	3.6	1.51e+00	0	35	104	0	60	68105
2026-01-25 23:12:51.17	129.42	0.66	-50.2	-65.4	3.6	1.51e+00	0	35	104	0	60	67216
2026-01-25 23:12:52.18	129.40	0.72	-50.0	-65.3	3.6	1.51e+00	0	36	104	0	60	66167
2026-01-25 23:12:53.19	129.37	0.78	-50.0	-65.2	3.6	1.51e+00	0	35	104	0	60	65588
2026-01-25 23:12:54.20	129.34	0.84	-50.1	-65.3	3.6	1.51e+00	0	35	104	0	60	66401
2026-01-25 23:12:55.21	129.31	0.90	-49.3	-65.3	3.6	1.51e+00	0	35	104	0	60	66374
2026-01-25 23:12:56.23	129.29	0.96	-49.6	-65.1	3.6	1.51e+00	0	35	104	0	60	64893
2026-01-25 23:12:57.24	129.26	1.02	-49.8	-65.1	3.6	1.51e+00	0	36	104	0	60	65133
2026-01-25 23:12:58.25	129.23	1.08	-49.7	-65.0	3.6	1.51e+00	0	36	104	0	60	64399
2026-01-25 23:12:59.26	129.20	1.14	-49.8	-65.1	3.6	1.51e+00	0	36	104	0	60	64935
2026-01-25 23:13:00.27	129.17	1.21	-49.8	-65.1	3.6	1.51e+00	0	36	104	0	60	64937
2026-01-25 23:13:01.28	129.14	1.27	-49.5	-64.8	3.6	1.51e+00	0	36	104	0	60	63090
2026-01-25 23:13:02.29	129.12	1.33	-49.2	-64.5	3.6	1.51e+00	0	36	104	0	60	60893
2026-01-25 23:13:03.30	129.09	1.39	-49.0	-64.4	3.6	1.51e+00	0	36	104	0	60	60153
2026-01-25 23:13:04.31	129.06	1.45	-48.8	-64.0	3.6	1.51e+00	0	36	104	0	60	57587
2026-01-25 23:13:05.32	129.03	1.52	-48.3	-63.7	3.6	1.51e+00	0	36	104	0	60	55388
2026-01-25 23:13:06.33	129.00	1.58	-48.4	-63.7	3.6	1.51e+00	0	36	104	0	60	55378
2026-01-25 23:13:07.34	128.97	1.64	-48.6	-63.9	3.6	1.51e+00	0	36	104	0	60	56549
2026-01-25 23:13:08.35	128.94	1.70	-48.7	-64.0	3.6	1.51e+00	0	36	104	0	60	57254
2026-01-25 23:13:09.36	128.91	1.77	-48.6	-64.0	3.6	1.51e+00	0	36	104	0	60	56987
2026-01-25 23:13:10.37	128.88	1.83	-48.8	-64.1	3.6	1.51e+00	0	36	104	0	60	57919
2026-01-25 23:13:11.38	128.85	1.89	-48.6	-63.9	3.6	1.51e+00	0	36	104	0	60	56826
2026-01-25 23:13:12.39	128.82	1.96	-48.6	-64.0	3.6	1.51e+00	0	36	104	0	60	57506
2026-01-25 23:13:13.40	128.79	2.02	-48.5	-63.9	3.6	1.51e+00	0	36	104	0	60	56465
2026-01-25 23:13:14.41	128.76	2.08	-48.7	-64.0	3.6	1.51e+00	0	36	104	0	60	57053
2026-01-25 23:13:15.42	128.73	2.15	-48.6	-63.9	3.6	1.51e+00	0	36	104	0	60	56562
2026-01-25 23:13:16.43	128.70	2.21	-48.5	-63.8	3.6	1.51e+00	0	36	104	0	60	55915
2026-01-25 23:13:17.44	128.67	2.27	-48.4	-63.7	3.6	1.51e+00	0	36	104	0	60	55184
2026-01-25 23:13:18.45	128.64	2.34	-48.3	-63.8	3.6	1.51e+00	0	36	104	0	60	55706
2026-01-25 23:13:19.45	128.61	2.40	-48.3	-63.8	3.6	1.51e+00	0	36	104	0	60	55747
2026-01-25 23:13:20.47	128.58	2.47	-48.3	-63.8	3.6	1.51e+00	0	36	104	0	60	55867
2026-01-25 23:13:21.48	128.54	2.53	-48.3	-63.7	3.6	1.51e+00	0	36	104	0	60	55482
2026-01-25 23:13:22.49	128.51	2.60	-48.3	-63.9	3.6	1.51e+00	0	36	104	0	60	56471
2026-01-25 23:13:23.50	128.48	2.66	-48.4	-63.8	3.6	1.51e+00	0	36	104	0	60	56168
2026-01-25 23:13:24.51	128.45	2.73	-48.4	-63.6	3.6	1.51e+00	0	36	104	0	60	54812
2026-01-25 23:13:25.52	128.42	2.79	-48.4	-63.5	3.6	1.51e+00	0	36	104	0	60	54294
2026-01-25 23:13:26.53	128.39	2.86	-48.4	-63.0	3.6	1.51e+00	0	36	104	0	60	51312
2026-01-25 23:13:27.54	128.35	2.92	-48.3	-62.6	3.6	1.51e+00	0	36	104	0	60	48777
2026-01-25 23:13:28.55	128.32	2.99	-48.5	-63.4	3.6	1.51e+00	0	36	104	0	60	53577
2026-01-25 23:13:29.56	128.29	3.05	-48.5	-63.8	3.6	1.51e+00	0	36	104	0	60	56092
2026-01-25 23:13:30.57	128.26	3.12	-48.5	-63.2	3.6	1.51e+00	0	36	104	0	60	52324
2026-01-25 23:13:31.58	128.22	3.18	-48.2	-59.2	4.8	1.50e+00	0	36	104	0	60	32778
2026-01-25 23:13:32.59	128.19	3.25	-48.1	-57.3	4.3	7.27e-01	0	36	0	0	60	26524
2026-01-25 23:13:33.60	128.16	3.31	-47.4	-53.3	10.5	2.75e-01	0	36	0	2097152	60	16783
2026-01-25 23:13:34.61	128.12	3.38	-46.8	-51.9	11.4	4.67e-03	0	36	0	4194304	60	14248
2026-01-25 23:13:35.62	128.09	3.45	-44.7	-47.5	15.0	5.38e-04	0	36	0	6291456	60	8523
2026-01-25 23:13:36.63	128.06	3.51	-43.6	-45.8	16.8	0.00e+00	0	36	0	7340032	60	7078
2026-01-25 23:13:37.64	128.02	3.58	-43.5	-45.7	17.0	0.00e+00	0	36	0	9437184	60	6955
2026-01-25 23:13:38.65	127.99	3.65	-47.8	-62.6	3.6	0.00e+00	0	36	104	11534336	60	48922
2026-01-25 23:13:39.66	127.95	3.71	-48.4	-63.4	3.6	1.51e+00	0	36	104	11534336	60	53763
2026-01-25 23:13:40.67	127.92	3.78	-43.3	-45.6	15.9	1.50e+00	0	36	104	11534336	60	6908
2026-01-25 23:13:41.68	127.88	3.85	-41.9	-43.6	18.8	1.98e-05	0	36	0	11534336	58	6140
2026-01-25 23:13:42.69	127.85	3.92	-46.9	-53.7	6.0	6.80e-06	0	36	0	13631488	60	17529
2026-01-25 23:13:43.70	127.82	3.98	-42.6	-44.5	6.1	1.49e+00	0	36	104	13631488	60	6093
2026-01-25 23:13:44.71	127.78	4.05	-41.5	-43.0	18.1	5.09e-01	0	36	104	13631488	56	6418
2026-01-25 23:13:45.72	127.74	4.12	-40.8	-42.2	20.4	0.00e+00	0	36	0	14680064	56	5836
2026-01-25 23:13:46.73	127.71	4.19	-41.1	-42.5	20.0	0.00e+00	0	36	0	16777216	54	6776
2026-01-25 23:13:47.74	127.67	4.26	-41.4	-42.8	19.4	0.00e+00	0	36	0	18874368	54	7047
2026-01-25 23:13:48.75	127.64	4.33	-40.3	-41.5	20.8	0.00e+00	0	36	0	20971520	54	6057
2026-01-25 23:13:49.76	127.60	4.39	-40.4	-41.6	20.8	0.00e+00	0	36	0	22020096	54	6166
2026-01-25 23:13:50.77	127.57	4.46	-40.5	-41.7	20.6	0.00e+00	0	36	0	24117248	54	6231
2026-01-25 23:13:51.78	127.53	4.53	-40.6	-41.9	20.6	0.00e+00	0	36	0	26214400	54	6327
2026-01-25 23:13:52.79	127.49	4.60	-41.6	-43.1	19.4	0.00e+00	0	36	0	28311552	54	7335
2026-01-25 23:13:53.80	127.46	4.67	-40.9	-42.2	20.1	0.00e+00	0	36	0	30408704	54	6589
2026-01-25 23:13:54.81	127.42	4.74	-41.6	-43.2	18.8	0.00e+00	0	36	0	31457280	54	7357
2026-01-25 23:13:55.82	127.38	4.81	-42.0	-43.6	19.1	0.00e+00	0	36	0	33554432	56	6874
2026-01-25 23:13:56.83	127.35	4.88	-42.0	-43.6	19.3	0.00e+00	0	36	0	35651584	56	6852
2026-01-25 23:13:57.84	127.31	4.95	-41.7	-43.2	19.6	0.00e+00	0	36	0	37748736	56	6561
2026-01-25 23:13:58.84	127.27	5.02	-41.7	-43.2	19.5	0.00e+00	0	36	0	39845888	56	6548
2026-01-25 23:13:59.85	127.23	5.09	-41.6	-43.0	19.8	0.00e+00	0	36	0	40894464	56	6432
2026-01-25 23:14:00.87	127.19	5.16	-41.3	-42.6	20.2	0.00e+00	0	36	0	42991616	56	6145
2026-01-25 23:14:01.87	127.16	5.23	-40.8	-42.1	20.7	0.00e+00	0	36	0	45088768	56	5788
2026-01-25 23:14:02.89	127.12	5.30	-41.0	-42.2	20.4	0.00e+00	0	36	0	47185920	56	5874
2026-01-25 23:14:03.89	127.08	5.37	-40.9	-42.1	20.7	0.00e+00	0	36	0	49283072	56	5797
2026-01-25 23:14:04.90	127.04	5.44	-40.3	-41.4	21.0	0.00e+00	0	36	0	50331648	54	5992
2026-01-25 23:14:05.91	127.00	5.51	-40.2	-41.4	21.0	0.00e+00	0	36	0	52428800	54	5974
2026-01-25 23:14:06.92	126.96	5.59	-40.9	-42.1	20.4	0.00e+00	0	36	0	54525952	54	6527
2026-01-25 23:14:07.93	126.92	5.66	-40.6	-41.8	20.7	0.00e+00	0	36	0	56623104	54	6272
2026-01-25 23:14:08.94	126.88	5.73	-41.3	-42.6	19.8	0.00e+00	0	36	0	58720256	54	6905
2026-01-25 23:14:09.95	126.84	5.80	-41.1	-42.5	20.2	0.00e+00	0	36	0	60817408	54	6803
2026-01-25 23:14:10.95	126.80	5.87	-41.3	-42.7	19.8	0.00e+00	0	36	0	61865984	54	6960
2026-01-25 23:14:11.96	126.76	5.95	-41.2	-42.7	20.0	0.00e+00	0	36	0	63963136	54	6954
2026-01-25 23:14:12.98	126.72	6.02	-42.0	-43.6	19.2	0.00e+00	0	36	0	66060288	56	6917
2026-01-25 23:14:13.98	126.68	6.09	-41.3	-42.8	20.1	0.00e+00	0	36	0	68157440	56	6269
2026-01-25 23:14:14.99	126.64	6.16	-41.7	-43.5	19.6	0.00e+00	0	36	0	70254592	56	6779
2026-01-25 23:14:16.00	126.60	6.24	-41.0	-42.6	20.3	0.00e+00	0	36	0	71303168	56	6122
2026-01-25 23:14:17.01	126.56	6.31	-40.6	-42.0	20.8	0.00e+00	0	36	0	73400320	54	6451
2026-01-25 23:14:18.02	126.52	6.38	-40.3	-41.7	20.9	0.00e+00	0	36	0	75497472	54	6209
2026-01-25 23:14:19.03	126.47	6.46	-41.7	-43.4	19.4	0.00e+00	0	36	0	77594624	56	6709
2026-01-25 23:14:20.04	126.43	6.53	-40.2	-41.6	21.3	0.00e+00	0	36	0	79691776	54	6123
2026-01-25 23:14:21.05	126.39	6.61	-40.3	-41.7	21.0	0.00e+00	0	36	0	80740352	54	6221
2026-01-25 23:14:22.06	126.35	6.68	-40.3	-41.7	20.6	0.00e+00	0	36	0	82837504	54	6188
2026-01-25 23:14:23.07	126.30	6.76	-41.0	-42.4	20.6	0.00e+00	0	36	0	84934656	54	6718
2026-01-25 23:14:24.08	126.26	6.83	-41.0	-42.4	20.3	0.00e+00	0	36	0	87031808	54	6769
2026-01-25 23:14:25.09	126.22	6.91	-41.3	-42.6	20.5	0.00e+00	0	36	0	89128960	54	6924
2026-01-25 23:14:26.10	126.17	6.98	-43.0	-44.9	18.4	0.00e+00	0	36	0	90177536	58	7147
2026-01-25 23:14:27.11	126.13	7.06	-42.5	-44.1	18.6	0.00e+00	0	36	0	92274688	58	6537
2026-01-25 23:14:28.12	126.09	7.13	-42.2	-43.7	19.2	0.00e+00	0	36	0	94371840	58	6241
2026-01-25 23:14:29.13	126.04	7.21	-42.6	-44.3	19.0	0.00e+00	0	36	0	96468992	58	6636
2026-01-25 23:14:30.14	126.00	7.28	-42.4	-44.0	19.1	0.00e+00	0	36	0	98566144	58	6395
2026-01-25 23:14:31.15	125.95	7.36	-41.6	-42.9	20.1	0.00e+00	0	36	0	99614720	56	6377
2026-01-25 23:14:32.16	125.91	7.44	-41.1	-42.3	20.5	0.00e+00	0	36	0	101711872	56	5952
2026-01-25 23:14:33.17	125.86	7.51	-41.3	-42.6	20.2	0.00e+00	0	36	0	103809024	56	6131
2026-01-25 23:14:34.18	125.82	7.59	-40.8	-42.0	20.8	0.00e+00	0	36	0	105906176	56	5715
2026-01-25 23:14:35.19	125.77	7.67	-40.6	-41.8	20.8	0.00e+00	0	36	0	108003328	54	6304
2026-01-25 23:14:36.20	125.73	7.74	-40.3	-41.4	21.3	0.00e+00	0	36	0	109051904	54	6011
2026-01-25 23:14:37.21	125.68	7.82	-40.5	-41.7	21.2	0.00e+00	0	36	0	111149056	54	6181
2026-01-25 23:14:38.23	125.63	7.90	-40.8	-42.0	21.0	0.00e+00	0	36	0	113246208	54	6455
2026-01-25 23:14:39.23	125.59	7.98	-41.0	-42.3	20.8	0.00e+00	0	36	0	115343360	54	6643
2026-01-25 23:14:40.25	125.54	8.06	-40.8	-42.1	20.9	0.00e+00	0	36	0	117440512	54	6493
2026-01-25 23:14:41.26	125.49	8.13	-41.0	-42.3	20.7	0.00e+00	0	36	0	118489088	54	6680
2026-01-25 23:14:42.27	125.44	8.21	-40.8	-42.2	20.6	0.00e+00	0	36	0	120586240	54	6564
2026-01-25 23:14:43.28	125.40	8.29	-41.2	-42.7	20.4	0.00e+00	0	36	0	122683392	54	6936
2026-01-25 23:14:44.29	125.35	8.37	-41.0	-42.3	20.6	0.00e+00	0	36	0	124780544	54	6670
2026-01-25 23:14:45.30	125.30	8.45	-41.4	-42.8	20.3	0.00e+00	0	36	0	126877696	56	6282
2026-01-25 23:14:46.31	125.25	8.53	-40.3	-41.5	21.4	0.00e+00	0	36	0	128974848	54	6056
2026-01-25 23:14:47.32	125.20	8.61	-40.2	-41.3	21.3	0.00e+00	0	36	0	130023424	54	5962
2026-01-25 23:14:48.33	125.15	8.69	-40.2	-41.3	21.2	0.00e+00	0	36	0	132120576	54	5929
2026-01-25 23:14:49.34	125.10	8.77	-40.2	-41.3	21.6	0.00e+00	0	36	0	134217728	54	5916
2026-01-25 23:14:50.35	125.05	8.85	-40.4	-41.5	21.4	0.00e+00	0	36	0	136314880	54	6093
2026-01-25 23:14:51.36	125.00	8.93	-41.4	-42.6	20.8	0.00e+00	0	36	0	138412032	56	6170
2026-01-25 23:14:52.36	124.95	9.01	-40.5	-41.6	21.1	0.00e+00	0	36	0	139460608	54	6156
2026-01-25 23:14:53.37	124.90	9.09	-40.9	-42.1	21.4	0.00e+00	0	36	0	141557760	54	6493
2026-01-25 23:14:54.38	124.85	9.17	-40.7	-41.9	20.9	0.00e+00	0	36	0	143654912	54	6381
2026-01-25 23:14:55.39	124.80	9.26	-40.7	-41.9	21.4	0.00e+00	0	36	0	145752064	54	6325
2026-01-25 23:14:56.39	124.75	9.34	-40.6	-41.8	21.2	0.00e+00	0	36	0	147849216	54	6285
2026-01-25 23:14:57.40	124.70	9.42	-41.1	-42.4	20.7	0.00e+00	0	36	0	148897792	54	6741
2026-01-25 23:14:58.41	124.64	9.50	-40.6	-41.7	21.2	0.00e+00	0	36	0	150994944	54	6243
2026-01-25 23:14:59.42	124.59	9.58	-40.2	-41.3	21.5	0.00e+00	0	36	0	153092096	54	5949
2026-01-25 23:15:00.43	124.54	9.67	-40.2	-41.3	21.6	0.00e+00	0	36	0	155189248	54	5915
2026-01-25 23:15:01.44	124.48	9.75	-39.9	-41.0	21.9	0.00e+00	0	36	0	157286400	54	5718
2026-01-25 23:15:02.45	124.43	9.83	-40.2	-41.3	20.7	0.00e+00	0	36	0	158334976	54	5960
2026-01-25 23:15:03.45	124.38	9.92	-39.9	-41.0	21.6	0.00e+00	0	36	0	160432128	54	5726
2026-01-25 23:15:04.46	124.32	10.00	-40.2	-41.2	22.0	0.00e+00	0	36	0	162529280	54	5876
2026-01-25 23:15:05.47	124.27	10.08	-39.7	-40.7	22.3	0.00e+00	0	36	0	164626432	52	6209
2026-01-25 23:15:06.48	124.21	10.17	-40.7	-41.9	21.3	0.00e+00	0	36	0	166723584	54	6343
2026-01-25 23:15:07.49	124.16	10.25	-40.4	-41.5	21.5	0.00e+00	0	36	0	167772160	54	6089
2026-01-25 23:15:08.50	124.10	10.34	-40.3	-41.4	21.7	0.00e+00	0	36	0	169869312	54	5975
2026-01-25 23:15:09.52	124.05	10.42	-40.1	-41.2	21.9	0.00e+00	0	36	0	171966464	54	5831
2026-01-25 23:15:10.53	123.99	10.51	-40.5	-41.6	21.4	0.00e+00	0	36	0	174063616	54	6145
2026-01-25 23:15:11.54	123.93	10.60	-40.2	-41.4	21.8	0.00e+00	0	36	0	176160768	54	5965
2026-01-25 23:15:12.55	123.88	10.68	-40.3	-41.4	21.7	0.00e+00	0	36	0	177209344	54	5988
2026-01-25 23:15:13.56	123.82	10.77	-40.3	-41.4	21.5	0.00e+00	0	36	0	179306496	54	6030
2026-01-25 23:15:14.57	123.76	10.85	-40.4	-41.5	21.6	0.00e+00	0	36	0	181403648	54	6053
2026-01-25 23:15:15.58	123.70	10.94	-40.3	-41.4	21.6	0.00e+00	0	36	0	183500800	54	5981
2026-01-25 23:15:16.59	123.65	11.03	-40.8	-42.0	21.4	0.00e+00	0	36	0	185597952	54	6423
2026-01-25 23:15:17.60	123.59	11.12	-40.6	-41.7	21.3	0.00e+00	0	36	0	186646528	54	6217
2026-01-25 23:15:18.61	123.53	11.20	-39.8	-40.8	22.0	0.00e+00	0	36	0	188743680	54	5595
2026-01-25 23:15:19.62	123.47	11.29	-39.7	-40.7	22.3	0.00e+00	0	36	0	190840832	52	6228
2026-01-25 23:15:20.63	123.41	11.38	-40.3	-41.4	21.6	0.00e+00	0	36	0	192937984	52	6728
2026-01-25 23:15:21.64	123.35	11.47	-40.3	-41.4	21.6	0.00e+00	0	36	0	195035136	52	6723
2026-01-25 23:15:22.65	123.29	11.56	-40.9	-42.1	20.9	0.00e+00	0	36	0	197132288	54	6512
2026-01-25 23:15:23.66	123.23	11.65	-41.2	-42.4	20.8	0.00e+00	0	36	0	198180864	54	6767
2026-01-25 23:15:24.67	123.17	11.74	-40.8	-42.0	21.2	0.00e+00	0	36	0	200278016	56	5721
2026-01-25 23:15:25.68	123.10	11.83	-41.7	-43.1	20.4	0.00e+00	0	36	0	202375168	56	6479
2026-01-25 23:15:26.69	123.04	11.92	-41.1	-42.2	21.3	0.00e+00	0	36	0	204472320	56	5889
2026-01-25 23:15:27.70	122.98	12.01	-40.2	-41.3	21.6	0.00e+00	0	36	0	206569472	54	5956
2026-01-25 23:15:28.71	122.92	12.10	-39.8	-40.9	22.0	0.00e+00	0	36	0	207618048	54	5644
2026-01-25 23:15:29.72	122.85	12.19	-39.7	-40.7	22.0	0.00e+00	0	36	0	209715200	52	6243
2026-01-25 23:15:30.73	122.79	12.28	-39.7	-40.8	22.2	0.00e+00	0	36	0	211812352	52	6264
2026-01-25 23:15:31.74	122.72	12.37	-39.5	-40.5	22.2	0.00e+00	0	36	0	213909504	52	6074
2026-01-25 23:15:32.74	122.66	12.46	-39.6	-40.6	22.1	0.00e+00	0	36	0	216006656	52	6143
2026-01-25 23:15:33.75	122.60	12.55	-39.7	-40.8	22.0	0.00e+00	0	36	0	217055232	52	6280
2026-01-25 23:15:34.76	122.53	12.65	-39.5	-40.6	22.3	0.00e+00	0	36	0	219152384	52	6126
2026-01-25 23:15:35.77	122.46	12.74	-39.6	-40.7	22.2	0.00e+00	0	36	0	221249536	52	6207
2026-01-25 23:15:36.78	122.40	12.83	-39.7	-40.7	22.1	0.00e+00	0	36	0	223346688	52	6228
2026-01-25 23:15:37.79	122.33	12.93	-40.1	-41.2	21.7	0.00e+00	0	36	0	225443840	52	6610
2026-01-25 23:15:38.80	122.26	13.02	-39.8	-40.9	22.1	0.00e+00	0	36	0	226492416	52	6358
2026-01-25 23:15:39.81	122.20	13.11	-39.8	-40.9	22.3	0.00e+00	0	36	0	228589568	52	6328
2026-01-25 23:15:40.82	122.13	13.21	-40.3	-41.4	22.0	0.00e+00	0	36	0	230686720	52	6704
2026-01-25 23:15:41.83	122.06	13.30	-39.4	-40.4	22.6	0.00e+00	0	36	0	232783872	52	5991
2026-01-25 23:15:42.84	121.99	13.40	-39.6	-40.6	22.5	0.00e+00	0	36	0	234881024	52	6161
2026-01-25 23:15:43.85	121.92	13.49	-39.6	-40.6	22.4	0.00e+00	0	36	0	235929600	52	6167
2026-01-25 23:15:44.86	121.85	13.59	-39.6	-40.6	22.6	0.00e+00	0	36	0	238026752	52	6117
2026-01-25 23:15:45.87	121.78	13.69	-39.6	-40.7	22.4	0.00e+00	0	36	0	240123904	52	6188
2026-01-25 23:15:46.88	121.71	13.78	-39.6	-40.6	22.5	0.00e+00	0	36	0	242221056	52	6149
2026-01-25 23:15:47.89	121.64	13.88	-39.9	-40.9	22.2	0.00e+00	0	36	0	244318208	52	6346
2026-01-25 23:15:48.90	121.57	13.98	-39.5	-40.5	22.5	0.00e+00	0	36	0	245366784	52	6063
2026-01-25 23:15:49.92	121.49	14.07	-39.4	-40.3	22.7	0.00e+00	0	36	0	247463936	52	5949
2026-01-25 23:15:50.92	121.42	14.17	-39.4	-40.3	22.7	0.00e+00	0	36	0	249561088	52	5957
2026-01-25 23:15:51.93	121.35	14.27	-39.3	-40.2	22.8	0.00e+00	0	36	0	251658240	52	5888
2026-01-25 23:15:52.95	121.27	14.37	-39.3	-40.3	22.5	0.00e+00	0	36	0	253755392	52	5927
2026-01-25 23:15:53.95	121.20	14.47	-39.0	-39.9	23.0	0.00e+00	0	36	0	254803968	52	5692
2026-01-25 23:15:54.96	121.12	14.56	-39.1	-40.1	23.0	0.00e+00	0	36	0	256901120	52	5762
2026-01-25 23:15:55.97	121.05	14.66	-39.8	-40.9	22.3	0.00e+00	0	36	0	258998272	52	6334
2026-01-25 23:15:56.98	120.97	14.76	-41.2	-42.5	22.1	0.00e+00	0	36	0	261095424	52	7598
2026-01-25 23:15:57.99	120.90	14.86	-41.0	-42.2	21.7	0.00e+00	0	36	0	263192576	54	6577
2026-01-25 23:15:59.00	120.82	14.96	-39.7	-40.8	22.2	0.00e+00	0	36	0	265289728	52	6256
2026-01-25 23:16:00.01	120.74	15.07	-39.8	-40.9	22.4	0.00e+00	0	36	0	266338304	52	6326
2026-01-25 23:16:01.02	120.66	15.17	-39.6	-40.7	22.3	0.00e+00	0	36	0	268435456	52	6223
2026-01-25 23:16:02.03	120.59	15.27	-39.5	-40.6	22.5	0.00e+00	0	36	0	270532608	52	6114
2026-01-25 23:16:03.04	120.51	15.37	-39.1	-40.1	22.8	0.00e+00	0	36	0	272629760	52	5803
2026-01-25 23:16:04.05	120.43	15.47	-39.1	-40.2	22.8	0.00e+00	0	36	0	274726912	52	5830
2026-01-25 23:16:05.06	120.35	15.58	-39.7	-40.8	22.5	0.00e+00	0	36	0	275775488	52	6257
2026-01-25 23:16:06.07	120.27	15.68	-39.9	-40.9	22.4	0.00e+00	0	36	0	277872640	52	6359
2026-01-25 23:16:07.08	120.18	15.78	-39.4	-40.5	22.8	0.00e+00	0	36	0	279969792	52	6034
2026-01-25 23:16:08.09	120.10	15.89	-39.4	-40.5	22.7	0.00e+00	0	36	0	282066944	52	6043
2026-01-25 23:16:09.10	120.02	15.99	-39.6	-40.7	22.5	0.00e+00	0	36	0	284164096	52	6214
2026-01-25 23:16:10.11	119.94	16.10	-39.3	-40.4	22.6	0.00e+00	0	36	0	285212672	52	6022
2026-01-25 23:16:11.12	119.85	16.20	-39.6	-40.7	22.6	0.00e+00	0	36	0	287309824	52	6217
2026-01-25 23:16:12.13	119.77	16.31	-39.9	-40.9	22.3	0.00e+00	0	36	0	289406976	52	6383
2026-01-25 23:16:13.14	119.68	16.41	-39.6	-40.6	22.7	0.00e+00	0	36	0	291504128	52	6151
2026-01-25 23:16:14.15	119.60	16.52	-39.7	-40.8	22.2	0.00e+00	0	36	0	293601280	52	6254
2026-01-25 23:16:15.16	119.51	16.62	-39.2	-40.2	22.9	0.00e+00	0	36	0	294649856	52	5853
2026-01-25 23:16:16.17	119.42	16.73	-39.5	-40.5	22.5	0.00e+00	0	36	0	296747008	52	6089
2026-01-25 23:16:17.18	119.34	16.84	-40.0	-41.1	22.3	0.00e+00	0	36	0	298844160	52	6471
2026-01-25 23:16:18.19	119.25	16.95	-40.9	-42.1	21.3	0.00e+00	0	36	0	300941312	52	7318
2026-01-25 23:16:19.20	119.16	17.06	-40.1	-41.2	22.0	0.00e+00	0	36	0	303038464	54	5847
2026-01-25 23:16:20.21	119.07	17.16	-39.7	-40.7	22.3	0.00e+00	0	36	0	304087040	52	6216
2026-01-25 23:16:21.22	118.98	17.27	-40.5	-41.6	21.8	0.00e+00	0	36	0	306184192	52	6874
2026-01-25 23:16:22.23	118.89	17.38	-40.5	-41.6	21.7	0.00e+00	0	36	0	308281344	54	6157
2026-01-25 23:16:23.24	118.80	17.49	-40.6	-41.7	21.7	0.00e+00	0	36	0	310378496	54	6190
2026-01-25 23:16:24.25	118.70	17.60	-39.9	-40.9	22.0	0.00e+00	0	36	0	312475648	54	5683
2026-01-25 23:16:25.26	118.61	17.71	-39.8	-40.9	22.2	0.00e+00	0	36	0	313524224	52	6346
2026-01-25 23:16:26.27	118.52	17.82	-40.1	-41.3	22.0	0.00e+00	0	36	0	315621376	52	6657
2026-01-25 23:16:27.28	118.42	17.94	-40.2	-41.3	22.1	0.00e+00	0	36	0	317718528	52	6691
2026-01-25 23:16:28.29	118.33	18.05	-40.1	-41.3	21.8	0.00e+00	0	36	0	319815680	52	6681
2026-01-25 23:16:29.30	118.23	18.16	-40.2	-41.5	21.9	0.00e+00	0	36	0	321912832	54	6047
2026-01-25 23:16:30.31	118.13	18.27	-41.1	-42.3	21.7	0.00e+00	0	36	0	322961408	54	6687
2026-01-25 23:16:31.32	118.04	18.39	-40.1	-41.2	22.3	0.00e+00	0	36	0	325058560	54	5877
2026-01-25 23:16:32.33	117.94	18.50	-40.2	-41.3	21.9	0.00e+00	0	36	0	327155712	54	5926
2026-01-25 23:16:33.34	117.84	18.61	-39.6	-40.7	22.5	0.00e+00	0	36	0	329252864	52	6199
2026-01-25 23:16:34.35	117.74	18.73	-40.0	-41.1	22.2	0.00e+00	0	36	0	331350016	52	6474
2026-01-25 23:16:35.36	117.64	18.84	-39.4	-40.4	22.7	0.00e+00	0	36	0	333447168	52	5999
2026-01-25 23:16:36.37	117.54	18.96	-40.9	-42.1	21.4	0.00e+00	0	36	0	334495744	54	6503
2026-01-25 23:16:37.38	117.44	19.07	-40.0	-41.0	22.2	0.00e+00	0	36	0	336592896	54	5730
2026-01-25 23:16:38.39	117.33	19.19	-39.8	-40.9	22.2	0.00e+00	0	36	0	338690048	52	6356
2026-01-25 23:16:39.40	117.23	19.31	-39.9	-41.0	21.9	0.00e+00	0	36	0	340787200	52	6443
2026-01-25 23:16:40.41	117.13	19.43	-40.3	-41.4	21.9	0.00e+00	0	36	0	342884352	54	6028
2026-01-25 23:16:41.42	117.02	19.54	-40.0	-41.0	22.4	0.00e+00	0	36	0	343932928	54	5748
2026-01-25 23:16:42.43	116.92	19.66	-40.2	-41.3	22.2	0.00e+00	0	36	0	346030080	54	5921
2026-01-25 23:16:43.44	116.81	19.78	-40.1	-41.2	22.4	0.00e+00	0	36	0	348127232	52	6548
2026-01-25 23:16:44.45	116.70	19.90	-39.8	-40.8	22.5	0.00e+00	0	36	0	350224384	52	6289
2026-01-25 23:16:45.46	116.59	20.02	-39.8	-40.8	22.5	0.00e+00	0	36	0	352321536	52	6295
2026-01-25 23:16:46.47	116.48	20.14	-40.1	-41.2	22.2	0.00e+00	0	36	0	353370112	52	6583
2026-01-25 23:16:47.48	116.37	20.26	-40.9	-42.1	21.5	0.00e+00	0	36	0	355467264	54	6499
2026-01-25 23:16:48.49	116.26	20.38	-40.3	-41.3	22.1	0.00e+00	0	36	0	357564416	54	5953
2026-01-25 23:16:49.50	116.15	20.50	-40.1	-41.1	22.1	0.00e+00	0	36	0	359661568	54	5816
2026-01-25 23:16:50.51	116.04	20.62	-40.5	-41.5	22.4	0.00e+00	0	36	0	361758720	54	6099
2026-01-25 23:16:51.52	115.92	20.75	-39.9	-40.9	22.1	0.00e+00	0	36	0	362807296	54	5651
2026-01-25 23:16:52.53	115.81	20.87	-39.6	-40.6	22.7	0.00e+00	0	36	0	364904448	52	6112
2026-01-25 23:16:53.54	115.69	20.99	-39.2	-40.2	23.0	0.00e+00	0	36	0	367001600	52	5844
2026-01-25 23:16:54.55	115.57	21.11	-39.4	-40.4	22.6	0.00e+00	0	36	0	369098752	52	5987
2026-01-25 23:16:55.56	115.46	21.24	-39.8	-40.8	22.4	0.00e+00	0	36	0	371195904	52	6302
2026-01-25 23:16:56.57	115.34	21.36	-39.8	-40.9	22.5	0.00e+00	0	36	0	373293056	52	6339
2026-01-25 23:16:57.58	115.22	21.49	-40.0	-41.1	22.3	0.00e+00	0	36	0	374341632	52	6493
2026-01-25 23:16:58.59	115.10	21.61	-40.0	-41.1	22.4	0.00e+00	0	36	0	376438784	52	6489
2026-01-25 23:16:59.60	114.97	21.74	-40.0	-41.1	22.4	0.00e+00	0	36	0	378535936	52	6489
2026-01-25 23:17:00.61	114.85	21.87	-40.4	-41.6	22.2	0.00e+00	0	36	0	380633088	54	6125
2026-01-25 23:17:01.62	114.73	21.99	-40.1	-41.3	22.3	0.00e+00	0	36	0	382730240	54	5919
2026-01-25 23:17:02.63	114.60	22.12	-40.0	-41.1	22.4	0.00e+00	0	36	0	383778816	52	6465
2026-01-25 23:17:03.64	114.48	22.25	-40.1	-41.2	22.4	0.00e+00	0	36	0	385875968	52	6546
2026-01-25 23:17:04.65	114.35	22.38	-40.1	-41.2	22.3	0.00e+00	0	36	0	387973120	52	6559
2026-01-25 23:17:05.66	114.22	22.51	-39.9	-41.0	22.3	0.00e+00	0	36	0	390070272	52	6429
2026-01-25 23:17:06.67	114.09	22.64	-40.2	-41.3	22.2	0.00e+00	0	36	0	392167424	52	6635
2026-01-25 23:17:07.68	113.96	22.77	-40.3	-41.4	21.9	0.00e+00	0	36	0	393216000	52	6751
2026-01-25 23:17:08.69	113.83	22.90	-40.1	-41.1	22.3	0.00e+00	0	36	0	395313152	52	6513
2026-01-25 23:17:09.70	113.70	23.03	-40.1	-41.1	22.2	0.00e+00	0	36	0	397410304	52	6509
2026-01-25 23:17:10.71	113.57	23.16	-39.9	-40.9	22.4	0.00e+00	0	36	0	399507456	52	6353
2026-01-25 23:17:11.72	113.43	23.29	-39.9	-40.9	22.3	0.00e+00	0	36	0	401604608	52	6343
2026-01-25 23:17:12.73	113.30	23.43	-39.6	-40.6	22.7	0.00e+00	0	36	0	402653184	52	6138
2026-01-25 23:17:13.74	113.16	23.56	-39.7	-40.7	22.6	0.00e+00	0	36	0	404750336	52	6189
2026-01-25 23:17:14.75	113.02	23.69	-39.8	-40.8	22.4	0.00e+00	0	36	0	406847488	52	6307
2026-01-25 23:17:15.76	112.88	23.83	-40.2	-41.2	22.1	0.00e+00	0	36	0	408944640	52	6596
2026-01-25 23:17:16.77	112.74	23.96	-40.4	-41.6	22.0	0.00e+00	0	36	0	411041792	52	6853
2026-01-25 23:17:17.78	112.60	24.10	-40.4	-41.5	21.6	0.00e+00	0	36	0	412090368	52	6818
2026-01-25 23:17:18.79	112.45	24.23	-40.6	-41.8	21.7	0.00e+00	0	36	0	414187520	54	6255
2026-01-25 23:17:19.80	112.31	24.37	-40.7	-41.9	21.6	0.00e+00	0	36	0	416284672	54	6363
2026-01-25 23:17:20.81	112.16	24.50	-40.6	-41.7	21.8	0.00e+00	0	36	0	418381824	54	6190
2026-01-25 23:17:21.82	112.02	24.64	-40.6	-41.6	21.7	0.00e+00	0	37	0	420478976	54	6171
2026-01-25 23:17:22.83	111.87	24.78	-40.5	-41.6	21.9	0.00e+00	0	36	0	421527552	54	6155
2026-01-25 23:17:23.84	111.72	24.92	-40.1	-41.1	22.2	0.00e+00	0	36	0	423624704	54	5786
2026-01-25 23:17:24.85	111.57	25.06	-39.8	-40.8	22.5	0.00e+00	0	36	0	425721856	54	5601
2026-01-25 23:17:25.86	111.42	25.19	-40.0	-41.1	22.4	0.00e+00	0	36	0	427819008	54	5771
2026-01-25 23:17:26.87	111.26	25.33	-39.6	-40.6	22.9	0.00e+00	0	36	0	429916160	52	6126
2026-01-25 23:17:27.89	111.10	25.48	-39.6	-40.6	22.7	0.00e+00	0	36	0	430964736	52	6140
2026-01-25 23:17:28.90	110.95	25.62	-39.4	-40.4	22.9	0.00e+00	0	36	0	433061888	52	5974
2026-01-25 23:17:29.91	110.79	25.76	-39.7	-40.7	22.6	0.00e+00	0	36	0	435159040	52	6228
2026-01-25 23:17:30.91	110.63	25.90	-40.1	-41.1	22.2	0.00e+00	0	36	0	437256192	52	6528
2026-01-25 23:17:31.92	110.47	26.04	-40.1	-41.1	22.2	0.00e+00	0	36	0	439353344	52	6510
2026-01-25 23:17:32.94	110.31	26.18	-40.9	-42.1	21.2	0.00e+00	0	36	0	441450496	52	7300
2026-01-25 23:17:33.94	110.15	26.33	-41.1	-42.3	21.3	0.00e+00	0	36	0	442499072	54	6632
2026-01-25 23:17:34.95	109.98	26.47	-40.8	-42.0	21.3	0.00e+00	0	36	0	444596224	54	6432
2026-01-25 23:17:35.96	109.81	26.61	-40.3	-41.4	21.9	0.00e+00	0	36	0	446693376	54	5972
2026-01-25 23:17:36.98	109.64	26.76	-40.1	-41.1	22.0	0.00e+00	0	36	0	448790528	54	5825
2026-01-25 23:17:37.99	109.47	26.91	-39.9	-40.9	22.3	0.00e+00	0	36	0	450887680	54	5692
2026-01-25 23:17:39.00	109.30	27.05	-39.9	-40.9	22.2	0.00e+00	0	36	0	451936256	52	6363
2026-01-25 23:17:40.01	109.13	27.20	-40.1	-41.1	22.2	0.00e+00	0	36	0	454033408	52	6534
2026-01-25 23:17:41.02	108.95	27.34	-40.5	-41.6	21.7	0.00e+00	0	36	0	456130560	52	6890
2026-01-25 23:17:42.02	108.78	27.49	-40.3	-41.3	22.0	0.00e+00	0	36	0	458227712	54	5957
2026-01-25 23:17:43.04	108.60	27.64	-40.1	-41.1	22.3	0.00e+00	0	36	0	460324864	54	5817
2026-01-25 23:17:44.05	108.42	27.79	-40.0	-41.0	22.4	0.00e+00	0	36	0	461373440	54	5716
2026-01-25 23:17:45.06	108.24	27.94	-40.6	-41.7	21.9	0.00e+00	0	36	0	463470592	54	6212
2026-01-25 23:17:46.07	108.05	28.08	-40.6	-41.7	21.5	0.00e+00	0	36	0	465567744	54	6189
2026-01-25 23:17:47.08	107.87	28.23	-41.0	-42.1	21.4	0.00e+00	0	36	0	467664896	54	6509
2026-01-25 23:17:48.09	107.68	28.38	-41.0	-42.2	21.7	0.00e+00	0	36	0	469762048	54	6580
2026-01-25 23:17:49.10	107.49	28.53	-41.2	-42.5	20.9	0.00e+00	0	36	0	470810624	54	6828
2026-01-25 23:17:50.11	107.30	28.69	-40.6	-41.8	21.6	0.00e+00	0	36	0	472907776	54	6291
2026-01-25 23:17:51.13	107.11	28.84	-40.8	-42.0	21.5	0.00e+00	0	36	0	475004928	54	6430
2026-01-25 23:17:52.14	106.92	28.99	-41.0	-42.2	21.5	0.00e+00	0	36	0	477102080	54	6585
2026-01-25 23:17:53.14	106.72	29.14	-41.5	-42.8	20.9	0.00e+00	0	37	0	479199232	54	7056
2026-01-25 23:17:54.15	106.52	29.29	-42.3	-43.6	20.4	0.00e+00	0	37	0	480247808	56	6909
2026-01-25 23:17:55.17	106.32	29.45	-42.0	-43.4	20.2	0.00e+00	0	36	0	482344960	58	6028
2026-01-25 23:17:56.17	106.12	29.60	-42.2	-43.6	20.4	0.00e+00	0	36	0	484442112	56	6870
2026-01-25 23:17:57.18	105.92	29.75	-42.9	-44.4	19.9	0.00e+00	0	36	0	486539264	58	6766
2026-01-25 23:17:58.19	105.71	29.91	-41.9	-43.2	20.6	0.00e+00	0	37	0	488636416	58	5836
2026-01-25 23:17:59.20	105.51	30.06	-41.6	-42.9	21.0	0.00e+00	0	36	0	489684992	56	6324
2026-01-25 23:18:00.21	105.30	30.22	-41.9	-43.2	20.7	0.00e+00	0	36	0	491782144	56	6570
2026-01-25 23:18:01.22	105.09	30.37	-41.8	-43.0	20.6	0.00e+00	0	36	0	493879296	56	6462
2026-01-25 23:18:02.24	104.87	30.53	-42.5	-43.9	19.9	0.00e+00	0	36	0	495976448	56	7152
2026-01-25 23:18:03.25	104.65	30.69	-42.0	-43.3	20.5	0.00e+00	0	36	0	498073600	58	5960
2026-01-25 23:18:04.26	104.44	30.84	-41.9	-43.2	20.7	0.00e+00	0	36	0	499122176	56	6563
2026-01-25 23:18:05.27	104.22	31.00	-41.7	-43.0	20.9	0.00e+00	0	36	0	501219328	56	6427
2026-01-25 23:18:06.27	104.00	31.16	-41.9	-43.2	20.6	0.00e+00	0	36	0	503316480	56	6581
2026-01-25 23:18:07.29	103.77	31.32	-41.9	-43.2	20.0	0.00e+00	0	36	0	505413632	56	6597
2026-01-25 23:18:08.30	103.54	31.48	-41.4	-42.6	20.9	0.00e+00	0	36	0	507510784	56	6137
2026-01-25 23:18:09.31	103.32	31.63	-41.2	-42.4	21.0	0.00e+00	0	36	0	509607936	56	6005
2026-01-25 23:18:10.32	103.08	31.79	-41.7	-43.0	20.5	0.00e+00	0	36	0	510656512	56	6435
2026-01-25 23:18:11.33	102.85	31.95	-41.7	-43.0	20.7	0.00e+00	0	37	0	512753664	56	6392
2026-01-25 23:18:12.34	102.62	32.11	-41.5	-42.8	20.9	0.00e+00	0	36	0	514850816	56	6254
2026-01-25 23:18:13.35	102.38	32.27	-41.7	-43.0	20.7	0.00e+00	0	37	0	516947968	56	6428
2026-01-25 23:18:14.36	102.14	32.43	-41.9	-43.2	20.4	0.00e+00	0	36	0	519045120	56	6607
2026-01-25 23:18:15.37	101.89	32.59	-42.1	-43.5	20.1	0.00e+00	0	36	0	520093696	56	6797
2026-01-25 23:18:16.38	101.65	32.75	-42.1	-43.4	20.0	0.00e+00	0	36	0	522190848	56	6766
2026-01-25 23:18:17.39	101.40	32.91	-42.4	-43.9	19.9	0.00e+00	0	36	0	524288000	56	7118
2026-01-25 23:18:18.40	101.15	33.07	-41.9	-43.2	20.4	0.00e+00	0	36	0	526385152	56	6558
2026-01-25 23:18:19.41	100.90	33.24	-41.8	-43.0	20.6	0.00e+00	0	36	0	528482304	56	6457
2026-01-25 23:18:20.42	100.64	33.40	-41.4	-42.6	21.0	0.00e+00	0	36	0	529530880	56	6105
2026-01-25 23:18:21.43	100.38	33.56	-41.7	-42.9	20.7	0.00e+00	0	36	0	531628032	56	6376
2026-01-25 23:18:22.44	100.12	33.72	-42.3	-43.6	20.0	0.00e+00	0	36	0	533725184	56	6922
2026-01-25 23:18:23.45	99.86	33.88	-43.0	-44.6	19.2	0.00e+00	0	36	0	535822336	58	6874
2026-01-25 23:18:24.46	99.60	34.05	-43.0	-44.6	18.9	0.00e+00	0	37	0	537919488	58	6898
2026-01-25 23:18:25.47	99.33	34.21	-42.7	-44.3	19.5	0.00e+00	0	36	0	538968064	58	6628
2026-01-25 23:18:26.48	99.06	34.37	-42.5	-44.0	19.8	0.00e+00	0	36	0	541065216	58	6424
2026-01-25 23:18:27.49	98.78	34.53	-42.5	-44.0	19.8	0.00e+00	0	37	0	543162368	58	6437
2026-01-25 23:18:28.50	98.51	34.70	-42.2	-43.6	20.2	0.00e+00	0	37	0	545259520	58	6164
2026-01-25 23:18:29.51	98.23	34.86	-42.4	-43.8	20.1	0.00e+00	0	36	0	547356672	58	6310
2026-01-25 23:18:30.52	97.94	35.02	-41.2	-42.4	21.1	0.00e+00	0	36	0	549453824	56	6006
2026-01-25 23:18:31.53	97.66	35.18	-40.7	-41.9	21.8	0.00e+00	0	36	0	550502400	54	6318
2026-01-25 23:18:32.54	97.37	35.35	-40.2	-41.2	22.2	0.00e+00	0	36	0	552599552	54	5896
2026-01-25 23:18:33.55	97.08	35.51	-40.4	-41.4	21.9	0.00e+00	0	36	0	554696704	54	6018
2026-01-25 23:18:34.56	96.79	35.67	-40.3	-41.3	22.2	0.00e+00	0	36	0	556793856	54	5927
2026-01-25 23:18:35.57	96.49	35.84	-40.3	-41.3	22.2	0.00e+00	0	36	0	558891008	54	5922
2026-01-25 23:18:36.58	96.19	36.00	-39.9	-40.9	22.6	0.00e+00	0	36	0	559939584	54	5689
2026-01-25 23:18:37.59	95.89	36.16	-39.7	-40.7	22.5	0.00e+00	0	37	0	562036736	52	6195
2026-01-25 23:18:38.60	95.58	36.32	-40.2	-41.3	22.1	0.00e+00	0	37	0	564133888	52	6632
2026-01-25 23:18:39.61	95.27	36.49	-40.6	-41.7	21.9	0.00e+00	0	36	0	566231040	54	6223
2026-01-25 23:18:40.62	94.96	36.65	-41.0	-42.1	21.4	0.00e+00	0	36	0	568328192	54	6520
2026-01-25 23:18:41.63	94.65	36.81	-41.6	-42.8	20.8	0.00e+00	0	36	0	569376768	54	7048
2026-01-25 23:18:42.64	94.33	36.97	-41.7	-43.0	20.6	0.00e+00	0	36	0	571473920	56	6409
2026-01-25 23:18:43.66	94.00	37.13	-41.9	-43.3	20.3	0.00e+00	0	36	0	573571072	56	6622
2026-01-25 23:18:44.67	93.68	37.30	-42.0	-43.4	20.6	0.00e+00	0	36	0	575668224	56	6709
2026-01-25 23:18:45.68	93.35	37.46	-42.5	-44.0	19.8	0.00e+00	0	36	0	577765376	58	6404
2026-01-25 23:18:46.69	93.02	37.62	-42.8	-44.4	19.7	0.00e+00	0	36	0	578813952	58	6730
2026-01-25 23:18:47.70	92.68	37.78	-42.3	-43.8	20.1	0.00e+00	0	36	0	580911104	58	6252
2026-01-25 23:18:48.71	92.35	37.94	-42.0	-43.4	20.6	0.00e+00	0	36	0	583008256	58	5994
2026-01-25 23:18:49.72	92.00	38.10	-41.2	-42.4	21.6	0.00e+00	0	36	0	585105408	56	6003
2026-01-25 23:18:50.73	91.66	38.26	-40.8	-41.9	21.3	0.00e+00	0	36	0	587202560	56	5672
2026-01-25 23:18:51.74	91.31	38.42	-40.9	-42.0	21.8	0.00e+00	0	36	0	588251136	56	5761
2026-01-25 23:18:52.75	90.96	38.57	-41.9	-43.2	21.4	0.00e+00	0	36	0	590348288	56	6578
2026-01-25 23:18:53.76	90.60	38.73	-42.1	-43.4	20.7	0.00e+00	0	36	0	592445440	56	6740
2026-01-25 23:18:54.77	90.25	38.89	-42.8	-44.3	19.7	0.00e+00	0	36	0	594542592	58	6662
2026-01-25 23:18:55.78	89.88	39.05	-42.6	-44.1	19.9	0.00e+00	0	36	0	596639744	58	6514
2026-01-25 23:18:56.79	89.52	39.20	-42.8	-44.4	19.5	0.00e+00	0	36	0	597688320	58	6715
2026-01-25 23:18:57.80	89.15	39.36	-42.2	-43.6	20.2	0.00e+00	0	37	0	599785472	58	6126
2026-01-25 23:18:58.81	88.78	39.51	-41.4	-42.6	21.3	0.00e+00	0	36	0	601882624	56	6165
2026-01-25 23:18:59.82	88.40	39.67	-40.9	-42.0	21.8	0.00e+00	0	36	0	603979776	56	5696
2026-01-25 23:19:00.84	88.02	39.82	-40.2	-41.2	22.2	0.00e+00	0	37	0	606076928	54	5885
2026-01-25 23:19:01.84	87.64	39.97	-40.3	-41.3	22.1	0.00e+00	0	36	0	607125504	54	5920
2026-01-25 23:19:02.85	87.25	40.12	-40.7	-41.8	21.8	0.00e+00	0	36	0	609222656	54	6292
2026-01-25 23:19:03.86	86.86	40.28	-41.6	-42.9	20.8	0.00e+00	0	36	0	611319808	54	7116
2026-01-25 23:19:04.87	86.47	40.43	-41.3	-42.6	21.1	0.00e+00	0	36	0	613416960	54	6861
2026-01-25 23:19:05.87	86.07	40.57	-41.3	-42.5	21.8	0.00e+00	0	36	0	615514112	54	6773
2026-01-25 23:19:06.88	85.67	40.72	-39.7	-40.6	22.7	0.00e+00	0	36	0	617611264	54	5499
2026-01-25 23:19:07.89	85.27	40.87	-39.2	-40.2	23.1	0.00e+00	0	36	0	618659840	52	5831
2026-01-25 23:19:08.90	84.86	41.01	-39.4	-40.3	22.7	0.00e+00	0	36	0	620756992	52	5959
2026-01-25 23:19:09.91	84.45	41.16	-40.3	-41.4	22.2	0.00e+00	0	36	0	622854144	52	6767
2026-01-25 23:19:10.92	84.03	41.30	-39.9	-41.0	22.3	0.00e+00	0	36	0	624951296	52	6445
2026-01-25 23:19:11.93	83.61	41.45	-40.0	-41.0	22.6	0.00e+00	0	36	0	627048448	52	6460
2026-01-25 23:19:12.94	83.19	41.59	-40.2	-41.3	22.2	0.00e+00	0	37	0	628097024	52	6647
2026-01-25 23:19:13.95	82.76	41.73	-41.6	-42.9	22.0	0.00e+00	0	36	0	630194176	54	7106
2026-01-25 23:19:14.96	82.33	41.87	-40.2	-41.2	22.8	0.00e+00	0	36	0	632291328	52	6610
2026-01-25 23:19:15.97	81.89	42.00	-39.6	-40.6	22.9	0.00e+00	0	36	0	634388480	52	6126
2026-01-25 23:19:16.98	81.45	42.14	-40.3	-41.3	22.2	0.00e+00	0	36	0	636485632	52	6686
2026-01-25 23:19:17.99	81.01	42.27	-40.0	-41.0	22.5	0.00e+00	0	36	0	637534208	52	6433
2026-01-25 23:19:19.00	80.56	42.41	-40.1	-41.1	22.4	0.00e+00	0	36	0	639631360	52	6534
2026-01-25 23:19:20.01	80.12	42.54	-39.2	-40.2	23.0	0.00e+00	0	36	0	641728512	52	5855
2026-01-25 23:19:21.02	79.66	42.67	-39.2	-40.2	23.3	0.00e+00	0	36	0	643825664	50	6564
2026-01-25 23:19:22.03	79.20	42.80	-39.1	-40.0	22.9	0.00e+00	0	36	0	645922816	50	6442
2026-01-25 23:19:23.04	78.74	42.92	-39.5	-40.5	23.2	0.00e+00	0	36	0	646971392	50	6779
2026-01-25 23:19:24.05	78.28	43.05	-40.6	-41.7	22.3	0.00e+00	0	36	0	649068544	52	6945
2026-01-25 23:19:25.06	77.81	43.17	-39.1	-40.0	23.5	0.00e+00	0	37	0	651165696	52	5733
2026-01-25 23:19:26.07	77.34	43.30	-38.6	-39.4	23.5	7.00e-07	0	36	0	653262848	52	5368
2026-01-25 23:19:27.08	76.86	43.42	-38.7	-39.6	23.3	0.00e+00	0	36	0	655360000	50	6124
2026-01-25 23:19:28.09	76.39	43.53	-40.0	-41.1	23.2	0.00e+00	0	37	0	656408576	50	7257
2026-01-25 23:19:29.10	75.90	43.65	-39.8	-40.8	22.7	0.00e+00	0	36	0	658505728	52	6290
2026-01-25 23:19:30.11	75.42	43.76	-40.1	-41.2	22.4	0.00e+00	0	36	0	660602880	52	6597
2026-01-25 23:19:31.12	74.93	43.88	-40.3	-41.3	22.4	0.00e+00	0	36	0	662700032	52	6675
2026-01-25 23:19:32.13	74.44	43.99	-40.6	-41.7	22.0	0.00e+00	0	36	0	664797184	54	6244
2026-01-25 23:19:33.14	73.94	44.09	-41.0	-42.2	21.6	0.00e+00	0	36	0	665845760	54	6561
2026-01-25 23:19:34.15	73.44	44.20	-40.9	-42.0	21.6	0.00e+00	0	36	0	667942912	54	6453
2026-01-25 23:19:35.16	72.94	44.30	-42.0	-43.3	20.8	0.00e+00	0	36	0	670040064	56	6660
2026-01-25 23:19:36.17	72.43	44.41	-42.0	-43.4	20.5	0.00e+00	0	36	0	672137216	56	6740
2026-01-25 23:19:37.18	71.92	44.51	-41.6	-42.8	21.1	0.00e+00	0	36	0	674234368	56	6294
2026-01-25 23:19:38.19	71.41	44.60	-40.7	-41.8	21.9	0.00e+00	0	36	0	675282944	56	5591
2026-01-25 23:19:39.20	70.90	44.70	-40.0	-41.0	22.5	0.00e+00	0	36	0	677380096	54	5732
2026-01-25 23:19:40.21	70.38	44.79	-39.5	-40.4	23.2	0.00e+00	0	36	0	679477248	54	5336
2026-01-25 23:19:41.22	69.86	44.88	-40.3	-41.3	23.2	0.00e+00	0	36	0	681574400	52	6646
2026-01-25 23:19:42.23	69.33	44.97	-39.9	-40.9	22.3	0.00e+00	0	36	0	683671552	52	6374
2026-01-25 23:19:43.24	68.80	45.05	-40.4	-41.5	22.1	0.00e+00	0	36	0	685768704	52	6819
2026-01-25 23:19:44.25	68.27	45.13	-40.5	-41.6	22.4	0.00e+00	0	36	0	686817280	54	6121
2026-01-25 23:19:45.26	67.74	45.21	-39.8	-40.8	22.8	0.00e+00	0	36	0	688914432	52	6256
2026-01-25 23:19:46.27	67.21	45.29	-40.0	-40.9	22.8	0.00e+00	0	36	0	691011584	52	6375
2026-01-25 23:19:47.28	66.67	45.37	-41.7	-43.0	21.0	0.00e+00	0	36	0	693108736	56	6424
2026-01-25 23:19:48.29	66.13	45.44	-42.7	-44.2	20.1	0.00e+00	0	36	0	695205888	56	7395
2026-01-25 23:19:49.30	65.59	45.51	-42.4	-43.9	20.4	0.00e+00	0	36	0	696254464	58	6329
2026-01-25 23:19:50.31	65.04	45.57	-42.4	-43.8	20.5	0.00e+00	0	36	0	698351616	58	6260
2026-01-25 23:19:51.32	64.49	45.64	-42.1	-43.4	20.3	0.00e+00	0	37	0	700448768	56	6739
2026-01-25 23:19:52.33	63.94	45.70	-40.7	-41.9	22.1	0.00e+00	0	36	0	702545920	54	6319
2026-01-25 23:19:53.34	63.39	45.76	-39.8	-40.8	22.7	0.00e+00	0	36	0	704643072	54	5623
2026-01-25 23:19:54.35	62.84	45.81	-40.0	-41.0	22.3	0.00e+00	0	36	0	705691648	52	6447
2026-01-25 23:19:55.36	62.28	45.86	-40.2	-41.3	22.2	0.00e+00	0	36	0	707788800	54	5948
2026-01-25 23:19:56.37	61.73	45.91	-39.8	-40.9	22.3	0.00e+00	0	36	0	709885952	54	5635
2026-01-25 23:19:57.38	61.17	45.96	-40.2	-41.2	22.2	0.00e+00	0	36	0	711983104	54	5867
2026-01-25 23:19:58.40	60.60	46.00	-41.1	-42.3	21.7	0.00e+00	0	36	0	714080256	54	6652
2026-01-25 23:19:59.41	60.04	46.04	-42.1	-43.4	20.3	0.00e+00	0	36	0	715128832	56	6768
2026-01-25 23:20:00.42	59.47	46.08	-42.6	-44.1	20.3	0.00e+00	0	36	0	717225984	58	6497
2026-01-25 23:20:01.43	58.91	46.11	-41.6	-42.9	21.1	0.00e+00	0	36	0	719323136	58	5684
2026-01-25 23:20:02.44	58.34	46.14	-41.4	-42.6	21.2	0.00e+00	0	36	0	721420288	56	6169
2026-01-25 23:20:03.45	57.78	46.17	-40.8	-41.9	22.0	0.00e+00	0	36	0	723517440	56	5646
2026-01-25 23:20:04.46	57.21	46.20	-40.9	-42.1	21.8	0.00e+00	0	36	0	724566016	54	6470
2026-01-25 23:20:05.47	56.64	46.22	-40.7	-41.8	21.8	0.00e+00	0	36	0	726663168	54	6315
2026-01-25 23:20:06.47	56.08	46.24	-41.4	-42.7	21.0	0.00e+00	0	36	0	728760320	54	6956
2026-01-25 23:20:07.48	55.51	46.25	-41.2	-42.4	21.8	0.00e+00	0	36	0	730857472	56	5989
2026-01-25 23:20:08.50	54.93	46.27	-40.6	-41.8	22.3	0.00e+00	0	36	0	732954624	54	6275
2026-01-25 23:20:09.51	54.36	46.28	-40.8	-42.0	21.8	0.00e+00	0	36	0	734003200	54	6428
2026-01-25 23:20:10.51	53.79	46.28	-41.0	-42.1	21.8	0.00e+00	0	36	0	736100352	54	6522
2026-01-25 23:20:11.52	53.22	46.29	-39.7	-40.7	22.6	0.00e+00	0	36	0	738197504	54	5556
2026-01-25 23:20:12.53	52.65	46.29	-38.9	-39.8	23.4	0.00e+00	0	36	0	740294656	52	5577
2026-01-25 23:20:13.54	52.08	46.28	-38.8	-39.7	23.2	0.00e+00	0	36	0	742391808	50	6181
2026-01-25 23:20:14.55	51.51	46.28	-39.2	-40.1	23.1	0.00e+00	0	36	0	743440384	50	6537
2026-01-25 23:20:15.56	50.94	46.27	-39.3	-40.3	22.8	0.00e+00	0	36	0	745537536	50	6624
2026-01-25 23:20:16.57	50.37	46.25	-40.1	-41.2	22.3	0.00e+00	0	36	0	747634688	52	6557
2026-01-25 23:20:17.58	49.80	46.24	-40.7	-41.8	21.6	0.00e+00	0	36	0	749731840	54	6316
2026-01-25 23:20:18.59	49.23	46.22	-40.5	-41.6	21.8	0.00e+00	0	36	0	751828992	54	6172
2026-01-25 23:20:19.60	48.66	46.20	-39.7	-40.7	22.7	0.00e+00	0	36	0	753926144	52	6219
2026-01-25 23:20:20.61	48.09	46.17	-39.7	-40.6	22.6	0.00e+00	0	36	0	754974720	52	6165
2026-01-25 23:20:21.62	47.53	46.15	-39.4	-40.4	22.8	0.00e+00	0	36	0	757071872	52	5976
2026-01-25 23:20:22.64	46.96	46.11	-39.7	-40.7	22.6	0.00e+00	0	36	0	759169024	52	6238
2026-01-25 23:20:23.65	46.39	46.08	-40.1	-41.1	22.1	0.00e+00	0	36	0	761266176	52	6525
2026-01-25 23:20:24.65	45.83	46.04	-41.2	-42.5	21.2	0.00e+00	0	36	0	763363328	52	7600
2026-01-25 23:20:25.67	45.27	46.00	-41.1	-42.4	21.2	0.00e+00	0	36	0	764411904	54	6732
2026-01-25 23:20:26.68	44.71	45.96	-41.5	-42.8	21.3	0.00e+00	0	36	0	766509056	54	7081
2026-01-25 23:20:27.69	44.15	45.91	-41.4	-42.7	21.3	0.00e+00	0	36	0	768606208	56	6184
2026-01-25 23:20:28.69	43.60	45.86	-41.7	-43.0	21.6	0.00e+00	0	36	0	770703360	56	6408
2026-01-25 23:20:29.71	43.04	45.81	-40.7	-41.8	20.7	0.00e+00	0	36	0	772800512	56	5577
2026-01-25 23:20:30.72	42.48	45.76	-41.0	-42.0	22.6	0.00e+00	0	36	0	773849088	54	6447
2026-01-25 23:20:31.73	41.93	45.70	-41.4	-42.5	22.0	0.00e+00	0	36	0	775946240	54	6821
2026-01-25 23:20:32.74	41.38	45.64	-42.1	-43.4	19.6	7.00e-07	0	36	0	778043392	58	5978
2026-01-25 23:20:33.75	40.83	45.57	-41.3	-42.5	21.7	0.00e+00	0	36	0	780140544	56	6047
2026-01-25 23:20:34.76	40.29	45.51	-40.5	-41.6	22.1	0.00e+00	0	36	0	782237696	54	6108
2026-01-25 23:20:35.77	39.75	45.44	-39.4	-40.4	22.9	0.00e+00	0	36	0	783286272	52	5983
2026-01-25 23:20:36.78	39.21	45.37	-39.7	-40.7	22.5	0.00e+00	0	36	0	785383424	52	6240
2026-01-25 23:20:37.79	38.67	45.29	-39.9	-40.9	22.5	0.00e+00	0	36	0	787480576	52	6358
2026-01-25 23:20:38.80	38.14	45.22	-40.2	-41.2	22.2	0.00e+00	0	36	0	789577728	52	6600
2026-01-25 23:20:39.81	37.60	45.14	-40.0	-41.0	22.6	0.00e+00	0	36	0	791674880	54	5703
2026-01-25 23:20:40.82	37.07	45.05	-41.4	-42.6	21.2	0.00e+00	0	36	0	793772032	54	6884
2026-01-25 23:20:41.83	36.55	44.97	-41.4	-42.7	21.2	0.00e+00	0	36	0	794820608	54	6941
2026-01-25 23:20:42.84	36.02	44.88	-41.8	-43.2	21.0	0.00e+00	0	36	0	796917760	56	6545
2026-01-25 23:20:43.85	35.50	44.79	-41.7	-42.9	21.2	0.00e+00	0	36	0	799014912	56	6377
2026-01-25 23:20:44.86	34.99	44.70	-40.9	-42.1	21.7	0.00e+00	0	36	0	801112064	56	5770
2026-01-25 23:20:45.87	34.47	44.61	-41.6	-42.9	20.6	0.00e+00	0	36	0	802160640	54	7116
2026-01-25 23:20:46.88	33.96	44.51	-41.6	-42.9	21.1	0.00e+00	0	36	0	804257792	56	6330
2026-01-25 23:20:47.89	33.45	44.41	-40.3	-41.3	22.4	0.00e+00	0	36	0	806354944	54	5954
2026-01-25 23:20:48.90	32.95	44.31	-39.2	-40.1	23.3	0.00e+00	0	36	0	808452096	52	5817
2026-01-25 23:20:49.91	32.44	44.21	-38.5	-39.4	23.8	0.00e+00	0	36	0	810549248	50	5967
2026-01-25 23:20:50.92	31.95	44.10	-39.0	-40.0	23.2	0.00e+00	0	36	0	812646400	50	6396
2026-01-25 23:20:51.93	31.45	43.99	-39.2	-40.2	23.0	0.00e+00	0	36	0	813694976	50	6575
2026-01-25 23:20:52.94	30.96	43.88	-39.6	-40.7	22.7	0.00e+00	0	36	0	815792128	50	6945
2026-01-25 23:20:53.95	30.47	43.77	-40.1	-41.2	22.2	0.00e+00	0	36	0	817889280	52	6610
2026-01-25 23:20:54.96	29.98	43.66	-39.8	-40.8	22.8	0.00e+00	0	36	0	819986432	52	6292
2026-01-25 23:20:55.97	29.50	43.54	-39.2	-40.2	23.3	0.00e+00	0	36	0	822083584	52	5831
2026-01-25 23:20:56.98	29.03	43.42	-39.3	-40.2	23.2	0.00e+00	0	36	0	823132160	52	5896
2026-01-25 23:20:57.99	28.55	43.30	-39.8	-40.9	22.5	0.00e+00	0	36	0	825229312	52	6323
2026-01-25 23:20:59.00	28.08	43.18	-40.0	-41.1	22.5	0.00e+00	0	36	0	827326464	52	6490
2026-01-25 23:21:00.01	27.61	43.06	-39.1	-40.1	23.5	0.00e+00	0	36	0	829423616	52	5765
2026-01-25 23:21:01.03	27.14	42.93	-38.8	-39.7	23.8	0.00e+00	0	36	0	831520768	50	6198
2026-01-25 23:21:02.03	26.69	42.81	-38.8	-39.7	24.0	0.00e+00	0	36	0	832569344	50	6230
2026-01-25 23:21:03.04	26.23	42.68	-38.2	-39.1	24.0	0.00e+00	0	36	0	834666496	50	5792
2026-01-25 23:21:04.06	25.78	42.55	-37.2	-38.0	25.0	0.00e+00	0	36	0	836763648	48	5750
2026-01-25 23:21:05.07	25.33	42.42	-36.8	-37.6	24.6	0.00e+00	0	36	0	838860800	48	5467
2026-01-25 23:21:06.08	24.88	42.28	-36.8	-37.6	25.0	0.00e+00	0	36	0	840957952	46	6157
2026-01-25 23:21:07.09	24.44	42.15	-36.7	-37.5	25.1	0.00e+00	0	36	0	842006528	46	6048
2026-01-25 23:21:08.10	24.00	42.01	-36.7	-37.5	25.2	0.00e+00	0	36	0	844103680	46	6034
2026-01-25 23:21:09.11	23.57	41.88	-36.8	-37.6	25.0	0.00e+00	0	36	0	846200832	46	6140
2026-01-25 23:21:10.12	23.14	41.74	-36.9	-37.7	25.0	0.00e+00	0	36	0	848297984	46	6185
2026-01-25 23:21:11.13	22.71	41.60	-37.3	-38.1	24.7	0.00e+00	0	36	0	850395136	46	6491
2026-01-25 23:21:12.13	22.29	41.46	-37.3	-38.1	24.7	0.00e+00	0	36	0	851443712	46	6497
2026-01-25 23:21:13.14	21.87	41.32	-37.2	-38.0	24.7	0.00e+00	0	36	0	853540864	46	6416
2026-01-25 23:21:14.15	21.46	41.17	-37.6	-38.4	24.4	0.00e+00	0	36	0	855638016	46	6755
2026-01-25 23:21:15.16	21.05	41.03	-37.7	-38.5	24.3	0.00e+00	0	36	0	857735168	48	6069
2026-01-25 23:21:16.17	20.64	40.88	-37.9	-38.7	24.3	0.00e+00	0	36	0	859832320	48	6217
2026-01-25 23:21:17.18	20.23	40.74	-38.5	-39.4	23.6	0.00e+00	0	36	0	861929472	48	6695
2026-01-25 23:21:18.19	19.83	40.59	-39.8	-40.8	22.8	0.00e+00	0	36	0	862978048	50	7067
2026-01-25 23:21:19.20	19.44	40.44	-40.0	-41.1	22.6	0.00e+00	0	36	0	865075200	52	6500
2026-01-25 23:21:20.21	19.04	40.29	-39.2	-40.1	23.4	0.00e+00	0	36	0	867172352	52	5826
2026-01-25 23:21:21.22	18.65	40.14	-38.2	-39.0	24.2	0.00e+00	0	36	0	869269504	50	5737
2026-01-25 23:21:22.23	18.27	39.99	-38.0	-38.8	24.1	0.00e+00	0	36	0	871366656	50	5608
2026-01-25 23:21:23.24	17.89	39.84	-38.6	-39.5	23.8	0.00e+00	0	36	0	872415232	50	6085
2026-01-25 23:21:24.25	17.51	39.68	-38.6	-39.5	23.6	0.00e+00	0	36	0	874512384	50	6044
2026-01-25 23:21:25.26	17.13	39.53	-38.7	-39.6	23.7	0.00e+00	0	36	0	876609536	50	6161
2026-01-25 23:21:26.27	16.76	39.38	-38.9	-39.8	23.3	0.00e+00	0	36	0	878706688	50	6292
2026-01-25 23:21:27.28	16.39	39.22	-39.2	-40.2	23.1	0.00e+00	0	36	0	880803840	50	6542
2026-01-25 23:21:28.29	16.03	39.07	-38.6	-39.5	23.7	0.00e+00	0	36	0	881852416	50	6087
2026-01-25 23:21:29.30	15.67	38.91	-38.4	-39.3	23.7	0.00e+00	0	36	0	883949568	50	5900
2026-01-25 23:21:30.30	15.31	38.75	-39.0	-39.9	23.4	0.00e+00	0	36	0	886046720	50	6390
2026-01-25 23:21:31.31	14.96	38.60	-39.8	-40.9	22.4	0.00e+00	0	36	0	888143872	52	6348
2026-01-25 23:21:32.32	14.61	38.44	-40.7	-41.9	21.9	0.00e+00	0	36	0	890241024	52	7098
2026-01-25 23:21:33.33	14.26	38.28	-40.8	-41.9	22.2	0.00e+00	0	36	0	891289600	56	5687
2026-01-25 23:21:34.34	13.92	38.12	-40.0	-41.0	22.7	0.00e+00	0	36	0	893386752	52	6420
2026-01-25 23:21:35.35	13.58	37.96	-39.6	-40.5	22.6	0.00e+00	0	36	0	895483904	52	6103
2026-01-25 23:21:36.36	13.24	37.80	-39.7	-40.7	23.0	0.00e+00	0	36	0	897581056	52	6199
2026-01-25 23:21:37.37	12.91	37.64	-40.2	-41.2	22.5	0.00e+00	0	36	0	899678208	52	6555
2026-01-25 23:21:38.38	12.57	37.48	-40.6	-41.6	22.2	0.00e+00	0	36	0	900726784	52	6859
2026-01-25 23:21:39.39	12.25	37.32	-40.9	-42.0	21.6	0.00e+00	0	36	0	902823936	54	6444
2026-01-25 23:21:40.40	11.92	37.16	-41.7	-42.9	21.6	0.00e+00	0	36	0	904921088	56	6386
2026-01-25 23:21:41.41	11.60	37.00	-43.0	-44.3	20.8	0.00e+00	0	36	0	907018240	58	6635
2026-01-25 23:21:42.42	11.29	36.84	-42.5	-43.8	20.7	0.00e+00	0	36	0	909115392	58	6301
2026-01-25 23:21:43.43	10.97	36.68	-41.2	-42.3	21.4	0.00e+00	0	36	0	910163968	56	5956
2026-01-25 23:21:44.44	10.66	36.52	-41.7	-42.9	21.1	0.00e+00	0	36	0	912261120	56	6327
2026-01-25 23:21:45.45	10.35	36.36	-42.1	-43.4	20.6	0.00e+00	0	36	0	914358272	56	6732
2026-01-25 23:21:46.46	10.05	36.19	-42.5	-44.0	19.9	0.00e+00	0	36	0	916455424	58	6420
2026-01-25 23:21:47.47	9.74	36.03	-43.4	-45.1	19.1	0.00e+00	0	36	0	918552576	60	6467
2026-01-25 23:21:48.48	9.45	35.87	-43.6	-45.3	19.2	0.00e+00	0	36	0	919601152	60	6692
2026-01-25 23:21:49.49	9.15	35.71	-44.3	-46.2	18.1	0.00e+00	0	36	0	921698304	60	7347
2026-01-25 23:21:50.50	8.86	35.55	-44.2	-46.1	18.0	0.00e+00	0	36	0	923795456	60	7288
2026-01-25 23:21:51.51	8.57	35.38	-44.8	-47.0	18.2	0.00e+00	0	36	0	925892608	60	8065
2026-01-25 23:21:52.52	8.28	35.22	-42.5	-43.9	20.3	0.00e+00	0	36	0	927989760	60	5651
2026-01-25 23:21:53.53	7.99	35.06	-41.9	-43.1	20.5	0.00e+00	0	36	0	930086912	58	5768
2026-01-25 23:21:54.54	7.71	34.90	-41.5	-42.7	21.1	0.00e+00	0	36	0	931135488	56	6210
2026-01-25 23:21:55.55	7.43	34.73	-42.9	-44.4	19.2	0.00e+00	0	36	0	933232640	56	7567
2026-01-25 23:21:56.56	7.16	34.57	-44.2	-46.0	17.9	0.00e+00	0	36	0	935329792	60	7211
2026-01-25 23:21:57.57	6.89	34.41	-45.2	-47.4	17.3	0.00e+00	0	36	0	937426944	60	8489
2026-01-25 23:21:58.58	6.61	34.25	-43.5	-45.1	19.0	0.00e+00	0	36	0	939524096	60	6521
2026-01-25 23:21:59.59	6.35	34.09	-43.4	-45.0	19.3	0.00e+00	0	36	0	940572672	60	6396
2026-01-25 23:22:00.60	6.08	33.92	-42.2	-43.5	20.3	0.00e+00	0	36	0	942669824	58	6070
2026-01-25 23:22:01.61	5.82	33.76	-42.3	-43.7	20.1	0.00e+00	0	36	0	944766976	58	6243
2026-01-25 23:22:02.62	5.56	33.60	-42.1	-43.5	20.3	0.00e+00	0	36	0	946864128	58	6053
2026-01-25 23:22:03.63	5.30	33.44	-42.4	-43.9	20.1	0.00e+00	0	36	0	948961280	58	6324
2026-01-25 23:22:04.64	5.05	33.28	-43.2	-44.7	19.3	0.00e+00	0	36	0	950009856	58	7007
2026-01-25 23:22:05.65	4.80	33.12	-42.7	-44.1	20.0	0.00e+00	0	36	0	952107008	58	6527
2026-01-25 23:22:06.66	4.55	32.96	-42.3	-43.7	20.5	0.00e+00	0	36	0	954204160	58	6183
2026-01-25 23:22:07.67	4.30	32.80	-41.7	-42.9	21.1	0.00e+00	0	36	0	956301312	56	6387
2026-01-25 23:22:08.68	4.06	32.64	-40.6	-41.7	22.0	0.00e+00	0	36	0	958398464	56	5532
2026-01-25 23:22:09.69	3.81	32.48	-39.8	-40.8	22.4	0.00e+00	0	36	0	959447040	54	5581
2026-01-25 23:22:10.70	3.57	32.32	-40.1	-41.1	22.4	0.00e+00	0	36	0	961544192	52	6530
2026-01-25 23:22:11.71	3.34	32.16	-40.9	-42.1	21.5	0.00e+00	0	36	0	963641344	54	6508
2026-01-25 23:22:12.72	3.10	32.00	-42.5	-43.9	20.3	0.00e+00	0	36	0	965738496	56	7102
2026-01-25 23:22:13.73	2.87	31.84	-43.4	-45.1	19.0	0.00e+00	0	36	0	967835648	58	7310
2026-01-25 23:22:14.74	2.64	31.68	-43.5	-45.3	18.7	0.00e+00	0	36	0	968884224	58	7468
2026-01-25 23:22:15.76	2.41	31.52	-43.4	-45.1	18.9	0.00e+00	0	36	0	970981376	60	6499
2026-01-25 23:22:16.77	2.18	31.37	-42.4	-43.9	20.0	0.00e+00	0	36	0	973078528	58	6371
2026-01-25 23:22:17.78	1.96	31.21	-42.3	-43.8	20.1	0.00e+00	0	36	0	975175680	58	6250
2026-01-25 23:22:18.79	1.74	31.05	-42.4	-43.9	19.9	0.00e+00	0	36	0	977272832	58	6374
2026-01-25 23:22:19.80	1.52	30.90	-42.3	-43.8	20.2	0.00e+00	0	36	0	978321408	58	6286
2026-01-25 23:22:20.81	1.30	30.74	-41.9	-43.3	20.8	0.00e+00	0	36	0	980418560	58	5926
2026-01-25 23:22:21.82	1.08	30.58	-41.3	-42.5	21.2	0.00e+00	0	36	0	982515712	56	6082
2026-01-25 23:22:22.83	0.87	30.43	-40.9	-42.0	21.6	0.00e+00	0	36	0	984612864	56	5761
2026-01-25 23:22:23.84	0.66	30.27	-40.1	-41.1	22.1	0.00e+00	0	36	0	986710016	54	5814
2026-01-25 23:22:24.85	0.45	30.12	-40.4	-41.4	21.8	0.00e+00	0	36	0	987758592	54	6032
2026-01-25 23:22:25.86	0.25	29.96	-41.5	-42.7	21.1	0.00e+00	0	36	0	989855744	54	6952
2026-01-25 23:22:26.87	0.04	29.81	-42.2	-43.5	20.2	0.00e+00	0	36	0	991952896	56	6836
2026-01-25 23:22:27.88	359.84	29.66	-42.3	-43.7	20.0	0.00e+00	0	36	0	994050048	56	6960
2026-01-25 23:22:28.90	359.63	29.50	-42.4	-43.8	19.9	0.00e+00	0	36	0	996147200	56	7055
2026-01-25 23:22:29.91	359.44	29.35	-42.2	-43.5	20.3	0.00e+00	0	36	0	998244352	56	6834
2026-01-25 23:22:30.92	359.24	29.20	-41.7	-43.0	20.7	0.00e+00	0	36	0	999292928	56	6413
2026-01-25 23:22:31.93	359.04	29.05	-39.9	-40.9	22.3	0.00e+00	0	36	0	1001390080	54	5674
2026-01-25 23:22:32.94	358.85	28.90	-39.7	-40.7	22.5	0.00e+00	0	36	0	1003487232	52	6230
2026-01-25 23:22:33.94	358.66	28.75	-39.2	-40.1	23.1	0.00e+00	0	36	0	1005584384	52	5792
2026-01-25 23:22:34.95	358.47	28.60	-40.3	-41.4	21.8	0.00e+00	0	36	0	1007681536	52	6716
2026-01-25 23:22:35.96	358.28	28.45	-40.5	-41.6	22.1	0.00e+00	0	36	0	1008730112	52	6884
2026-01-25 23:22:36.97	358.10	28.30	-41.0	-42.1	21.4	0.00e+00	0	36	0	1010827264	54	6515
2026-01-25 23:22:37.98	357.91	28.15	-41.5	-42.7	20.9	0.00e+00	0	36	0	1012924416	54	6967
2026-01-25 23:22:38.99	357.73	28.00	-42.2	-43.5	20.0	0.00e+00	0	36	0	1015021568	56	6835
2026-01-25 23:22:40.01	357.55	27.85	-43.7	-45.5	17.9	0.00e+00	0	36	0	1017118720	60	6830
2026-01-25 23:22:41.02	357.37	27.70	-43.7	-45.5	19.0	0.00e+00	0	36	0	1018167296	60	6804
2026-01-25 23:22:42.03	357.19	27.56	-43.0	-44.6	19.5	0.00e+00	0	36	0	1020264448	58	6899
2026-01-25 23:22:43.03	357.02	27.41	-41.1	-42.3	21.3	0.00e+00	0	36	0	1022361600	56	5925
2026-01-25 23:22:44.04	356.84	27.26	-41.6	-42.9	20.3	0.00e+00	0	36	0	1024458752	56	6338
2026-01-25 23:22:45.05	356.67	27.12	-40.2	-41.2	22.5	0.00e+00	0	36	0	1026555904	54	5850
2026-01-25 23:22:46.06	356.50	26.97	-40.9	-42.1	21.6	0.00e+00	0	36	0	1027604480	56	5770
2026-01-25 23:22:47.07	356.33	26.83	-41.2	-42.4	21.6	0.00e+00	0	36	0	1029701632	56	5983
2026-01-25 23:22:48.08	356.16	26.68	-41.2	-42.4	21.2	0.00e+00	0	36	0	1031798784	56	6012
2026-01-25 23:22:49.09	356.00	26.54	-41.0	-42.2	21.8	0.00e+00	0	36	0	1033895936	56	5840
2026-01-25 23:22:50.10	355.83	26.40	-41.2	-42.3	21.1	0.00e+00	0	36	0	1035993088	56	5944
2026-01-25 23:22:51.11	355.67	26.26	-41.2	-42.3	21.6	0.00e+00	0	36	0	1037041664	56	5938
2026-01-25 23:22:52.12	355.51	26.11	-41.8	-43.1	20.8	0.00e+00	0	36	0	1039138816	56	6504
2026-01-25 23:22:53.14	355.34	25.97	-42.5	-43.9	20.7	0.00e+00	0	36	0	1041235968	56	7155
2026-01-25 23:22:54.15	355.19	25.83	-42.0	-43.3	21.0	0.00e+00	0	36	0	1043333120	56	6666
2026-01-25 23:22:55.16	355.03	25.69	-42.1	-43.4	20.7	0.00e+00	0	36	0	1045430272	56	6717
2026-01-25 23:22:56.17	354.87	25.55	-41.1	-42.2	21.5	0.00e+00	0	36	0	1047527424	56	5874
2026-01-25 23:22:57.18	354.72	25.41	-40.8	-42.0	21.6	0.00e+00	0	36	0	1048576000	56	5720
2026-01-25 23:22:58.19	354.56	25.27	-40.5	-41.6	21.7	0.00e+00	0	36	0	1050673152	54	6155
2026-01-25 23:22:59.20	354.41	25.13	-40.8	-42.1	21.3	0.00e+00	0	36	0	1052770304	54	6471
2026-01-25 23:23:00.21	354.26	24.99	-41.1	-42.4	21.1	0.00e+00	0	36	0	1054867456	54	6695
2026-01-25 23:23:01.22	354.11	24.85	-41.7	-43.1	20.5	0.00e+00	0	36	0	1056964608	54	7278
2026-01-25 23:23:02.22	353.97	24.72	-41.7	-43.0	20.5	0.00e+00	0	36	0	1058013184	56	6455
2026-01-25 23:23:03.23	353.82	24.58	-41.5	-42.9	20.8	0.00e+00	0	36	0	1060110336	56	6327
2026-01-25 23:23:04.24	353.67	24.45	-41.7	-43.0	20.6	0.00e+00	0	36	0	1062207488	56	6435
2026-01-25 23:23:05.25	353.53	24.31	-41.0	-42.2	21.3	0.00e+00	0	36	0	1064304640	56	5878
2026-01-25 23:23:06.27	353.39	24.17	-40.9	-42.1	21.3	0.00e+00	0	36	0	1066401792	56	5768
2026-01-25 23:23:07.27	353.25	24.04	-40.7	-41.8	21.8	0.00e+00	0	36	0	1067450368	54	6314
2026-01-25 23:23:08.29	353.11	23.91	-40.6	-41.7	21.5	0.00e+00	0	36	0	1069547520	54	6223
2026-01-25 23:23:09.30	352.97	23.77	-40.4	-41.5	22.0	0.00e+00	0	36	0	1071644672	54	6087
2026-01-25 23:23:10.31	352.83	23.64	-40.5	-41.6	21.9	0.00e+00	0	36	0	1073741824	54	6147
2026-01-25 23:23:11.31	352.69	23.51	-40.3	-41.3	22.0	0.00e+00	0	36	0	1075838976	54	5948
2026-01-25 23:23:12.32	352.56	23.38	-40.3	-41.3	21.9	0.00e+00	0	36	0	1076887552	54	5958
2026-01-25 23:23:13.33	352.42	23.24	-40.1	-41.1	22.1	0.00e+00	0	36	0	1078984704	54	5817
2026-01-25 23:23:14.34	352.29	23.11	-40.1	-41.1	22.2	0.00e+00	0	36	0	1081081856	54	5827
2026-01-25 23:23:15.35	352.16	22.98	-40.0	-41.0	22.3	0.00e+00	0	36	0	1083179008	54	5755
2026-01-25 23:23:16.36	352.03	22.85	-40.0	-41.1	22.2	0.00e+00	0	36	0	1085276160	54	5762
2026-01-25 23:23:17.37	351.90	22.72	-40.2	-41.4	22.0	0.00e+00	0	36	0	1086324736	54	5966
2026-01-25 23:23:18.38	351.77	22.59	-40.4	-41.5	21.9	0.00e+00	0	36	0	1088421888	54	6084
2026-01-25 23:23:19.39	351.64	22.46	-40.1	-41.2	22.1	0.00e+00	0	36	0	1090519040	54	5882
2026-01-25 23:23:20.40	351.52	22.34	-39.7	-40.8	22.4	0.00e+00	0	36	0	1092616192	54	5610
2026-01-25 23:23:21.41	351.39	22.21	-39.9	-41.0	22.4	0.00e+00	0	36	0	1094713344	52	6392
2026-01-25 23:23:22.42	351.27	22.08	-39.6	-40.6	22.6	0.00e+00	0	36	0	1095761920	52	6129
2026-01-25 23:23:23.43	351.14	21.95	-39.8	-40.8	22.7	0.00e+00	0	36	0	1097859072	52	6304
2026-01-25 23:23:24.44	351.02	21.83	-39.4	-40.4	22.9	0.00e+00	0	36	0	1099956224	52	5965
2026-01-25 23:23:25.45	350.90	21.70	-39.6	-40.6	22.7	0.00e+00	0	36	0	1102053376	52	6117
2026-01-25 23:23:26.46	350.78	21.58	-39.8	-40.8	22.5	0.00e+00	0	36	0	1104150528	52	6248
2026-01-25 23:23:27.47	350.66	21.45	-40.2	-41.3	22.2	0.00e+00	0	36	0	1106247680	52	6630
2026-01-25 23:23:28.48	350.54	21.33	-40.6	-41.7	21.8	0.00e+00	0	36	0	1107296256	52	6962
2026-01-25 23:23:29.49	350.42	21.20	-41.2	-42.3	21.0	0.00e+00	0	36	0	1109393408	54	6687
2026-01-25 23:23:30.50	350.31	21.08	-41.9	-43.2	20.7	0.00e+00	0	36	0	1111490560	54	7386
2026-01-25 23:23:31.52	350.19	20.96	-42.0	-43.2	20.5	0.00e+00	0	36	0	1113587712	56	6609
2026-01-25 23:23:32.53	350.08	20.83	-41.9	-43.3	20.5	0.00e+00	0	36	0	1115684864	56	6617
2026-01-25 23:23:33.54	349.96	20.71	-41.4	-42.7	20.9	0.00e+00	0	36	0	1116733440	56	6183
2026-01-25 23:23:34.55	349.85	20.59	-41.4	-42.6	21.1	0.00e+00	0	36	0	1118830592	56	6132
2026-01-25 23:23:35.56	349.74	20.47	-41.3	-42.5	20.9	0.00e+00	0	36	0	1120927744	56	6088
2026-01-25 23:23:36.57	349.63	20.35	-41.2	-42.4	21.2	0.00e+00	0	36	0	1123024896	56	5991
2026-01-25 23:23:37.58	349.52	20.23	-41.0	-42.2	21.3	0.00e+00	0	36	0	1125122048	56	5844
2026-01-25 23:23:38.59	349.41	20.11	-40.9	-42.0	21.3	0.00e+00	0	36	0	1126170624	56	5758
2026-01-25 23:23:39.60	349.30	19.99	-40.4	-41.6	21.8	0.00e+00	0	36	0	1128267776	54	6115
2026-01-25 23:23:40.61	349.20	19.87	-40.6	-41.7	21.5	0.00e+00	0	36	0	1130364928	54	6234
2026-01-25 23:23:41.62	349.09	19.75	-40.4	-41.5	21.7	0.00e+00	0	36	0	1132462080	54	6082
2026-01-25 23:23:42.63	348.98	19.64	-40.3	-41.4	21.7	0.00e+00	0	36	0	1134559232	54	6031
2026-01-25 23:23:43.64	348.88	19.52	-40.2	-41.3	21.8	0.00e+00	0	36	0	1135607808	54	5940
2026-01-25 23:23:44.65	348.78	19.40	-40.4	-41.5	21.8	0.00e+00	0	36	0	1137704960	54	6075
2026-01-25 23:23:45.66	348.67	19.29	-40.1	-41.1	22.1	0.00e+00	0	36	0	1139802112	54	5808
2026-01-25 23:23:46.67	348.57	19.17	-40.1	-41.2	22.0	0.00e+00	0	36	0	1141899264	54	5862
2026-01-25 23:23:47.68	348.47	19.05	-40.2	-41.3	21.9	0.00e+00	0	36	0	1143996416	54	5920
2026-01-25 23:23:48.69	348.37	18.94	-40.5	-41.6	21.7	0.00e+00	0	36	0	1145044992	54	6120
2026-01-25 23:23:49.70	348.27	18.82	-40.1	-41.2	22.2	0.00e+00	0	36	0	1147142144	54	5829
2026-01-25 23:23:50.71	348.17	18.71	-39.9	-40.9	22.3	0.00e+00	0	36	0	1149239296	54	5691
2026-01-25 23:23:51.72	348.07	18.60	-40.2	-41.3	22.0	0.00e+00	0	36	0	1151336448	54	5909
2026-01-25 23:23:52.73	347.97	18.48	-40.0	-41.1	22.1	0.00e+00	0	36	0	1153433600	54	5779
2026-01-25 23:23:53.74	347.88	18.37	-39.9	-41.0	22.3	0.00e+00	0	36	0	1154482176	54	5709
2026-01-25 23:23:54.75	347.78	18.26	-40.2	-41.2	22.2	0.00e+00	0	36	0	1156579328	54	5884
2026-01-25 23:23:55.76	347.69	18.15	-40.3	-41.4	21.8	0.00e+00	0	36	0	1158676480	54	6001
2026-01-25 23:23:56.77	347.59	18.03	-39.7	-40.7	22.4	0.00e+00	0	36	0	1160773632	54	5561
2026-01-25 23:23:57.78	347.50	17.92	-40.0	-41.0	22.4	0.00e+00	0	36	0	1162870784	52	6464
2026-01-25 23:23:58.79	347.40	17.81	-40.0	-41.1	22.2	0.00e+00	0	36	0	1163919360	52	6490
2026-01-25 23:23:59.80	347.31	17.70	-40.0	-41.1	22.0	0.00e+00	0	36	0	1166016512	52	6516
2026-01-25 23:24:00.81	347.22	17.59	-40.1	-41.2	22.1	0.00e+00	0	36	0	1168113664	52	6577
2026-01-25 23:24:01.82	347.13	17.48	-40.4	-41.5	21.8	0.00e+00	0	36	0	1170210816	52	6825
2026-01-25 23:24:02.83	347.04	17.37	-40.6	-41.7	21.6	0.00e+00	0	36	0	1172307968	52	6987
2026-01-25 23:24:03.84	346.95	17.26	-40.4	-41.5	21.6	0.00e+00	0	36	0	1173356544	52	6841
2026-01-25 23:24:04.85	346.86	17.16	-40.5	-41.7	21.7	0.00e+00	0	36	0	1175453696	52	6931
2026-01-25 23:24:05.86	346.77	17.05	-40.6	-41.8	21.4	0.00e+00	0	36	0	1177550848	52	7012
2026-01-25 23:24:06.87	346.68	16.94	-40.5	-41.6	21.6	0.00e+00	0	36	0	1179648000	54	6117
2026-01-25 23:24:07.88	346.60	16.83	-40.3	-41.4	21.9	0.00e+00	0	36	0	1181745152	54	5980
2026-01-25 23:24:08.89	346.51	16.73	-40.5	-41.6	21.7	0.00e+00	0	36	0	1183842304	54	6111
2026-01-25 23:24:09.90	346.42	16.62	-40.3	-41.4	21.8	0.00e+00	0	36	0	1184890880	54	6015
2026-01-25 23:24:10.91	346.34	16.51	-40.4	-41.5	21.8	0.00e+00	0	36	0	1186988032	54	6067
2026-01-25 23:24:11.92	346.25	16.41	-40.1	-41.1	22.2	0.00e+00	0	36	0	1189085184	54	5828
2026-01-25 23:24:12.93	346.17	16.30	-39.8	-40.8	22.1	0.00e+00	0	36	0	1191182336	54	5620
2026-01-25 23:24:13.94	346.09	16.20	-39.9	-40.9	22.2	0.00e+00	0	36	0	1193279488	52	6344
2026-01-25 23:24:14.95	346.00	16.09	-39.6	-40.6	22.5	0.00e+00	0	36	0	1194328064	52	6133
2026-01-25 23:24:15.96	345.92	15.99	-40.0	-41.0	22.2	0.00e+00	0	36	0	1196425216	52	6397
2026-01-25 23:24:25.47	345.18	15.03	-40.7	-41.8	21.4	0.00e+00	0	36	0	1214251008	54	6272
2026-01-25 23:24:26.48	345.10	14.93	-41.0	-42.3	21.1	0.00e+00	0	36	0	1216348160	54	6616
2026-01-25 23:24:27.49	345.03	14.83	-41.2	-42.4	21.0	0.00e+00	0	36	0	1218445312	54	6751
2026-01-25 23:24:28.50	344.95	14.73	-41.5	-42.7	20.8	0.00e+00	0	36	0	1220542464	54	6977
2026-01-25 23:24:29.51	344.88	14.63	-41.6	-42.9	20.5	0.00e+00	0	36	0	1221591040	54	7123
