passes_logs/2026/01/25/R4.6S_Anadyr/R4.6S_Anadyr__20260125_113637_SUOMI_NPP_rec.log

#Pass ID: 20260125_113637_SUOMI NPP
#Satellite: SUOMI NPP
#Configuration: NPP
#almurnet v.1.7.20251203
#Start time: 2026-01-25 11:36:38

#Version: 2.2.20231116
#Station: R4.6S_Anadyr
#Location: 177.4865 lon 64.73178 lat
#TLE: 1 37849U 11061A   26024.97198022  .00000188  00000+0  11029-3 0  9994
#TLE: 2 37849  98.7821 326.9352 0002187  46.6646 313.4712 14.19529581738125

#Time	Az	El	Level	Level2	SNR	BER	BlckErr	Temp	State	Recorded	gain1	gain2
2026-01-25 11:36:38.87	21.00	0.07	-50.7	-62.4	3.5	8.45e-01	0	39	0	0	60	47496
2026-01-25 11:36:39.88	21.09	0.11	-52.5	-67.6	3.6	1.51e+00	0	40	104	0	60	87129
2026-01-25 11:36:40.89	21.19	0.15	-52.2	-67.4	3.6	1.51e+00	0	40	104	0	60	84907
2026-01-25 11:36:41.90	21.29	0.19	-51.8	-67.0	3.6	1.51e+00	0	40	104	0	60	81307
2026-01-25 11:36:42.91	21.39	0.23	-51.6	-66.9	3.6	1.51e+00	0	40	104	0	60	79947
2026-01-25 11:36:43.92	21.49	0.27	-51.7	-67.0	3.6	1.51e+00	0	40	104	0	60	80614
2026-01-25 11:36:44.93	21.59	0.31	-51.6	-66.8	3.6	1.51e+00	0	40	104	0	60	78955
2026-01-25 11:36:45.94	21.69	0.34	-51.5	-66.7	3.6	1.51e+00	0	40	104	0	60	78384
2026-01-25 11:36:46.95	21.79	0.38	-51.5	-66.7	3.6	1.51e+00	0	40	104	0	60	78625
2026-01-25 11:36:47.96	21.88	0.42	-51.5	-66.7	3.6	1.51e+00	0	40	104	0	60	78007
2026-01-25 11:36:48.68	21.96	0.45	-51.5	-66.7	3.6	1.51e+00	0	40	104	0	60	78184
2026-01-25 11:36:49.98	22.09	0.50	-51.4	-66.7	3.6	1.51e+00	0	40	104	0	60	77783
2026-01-25 11:36:50.70	22.16	0.53	-51.4	-66.6	3.6	1.51e+00	0	40	104	0	60	77045
2026-01-25 11:36:52.00	22.29	0.58	-51.4	-66.6	3.6	1.51e+00	0	40	104	0	60	77123
2026-01-25 11:36:52.72	22.36	0.61	-51.3	-66.5	3.6	1.51e+00	0	40	104	0	60	76256
2026-01-25 11:36:54.02	22.49	0.66	-51.1	-66.4	3.6	1.51e+00	0	40	104	0	60	75512
2026-01-25 11:36:54.74	22.56	0.69	-51.1	-66.3	3.6	1.51e+00	0	40	104	0	60	74689
2026-01-25 11:36:56.04	22.69	0.74	-51.0	-66.2	3.6	1.51e+00	0	40	104	0	60	73532
2026-01-25 11:36:56.76	22.76	0.76	-51.0	-66.1	3.6	1.51e+00	0	40	104	0	60	73327
2026-01-25 11:36:58.06	22.90	0.82	-50.9	-66.1	3.6	1.51e+00	0	40	104	0	60	72758
2026-01-25 11:36:58.78	22.97	0.84	-50.8	-66.0	3.6	1.51e+00	0	40	104	0	60	72112
2026-01-25 11:37:00.08	23.10	0.89	-50.7	-65.9	3.6	1.51e+00	0	40	104	0	60	71133
2026-01-25 11:37:00.80	23.17	0.92	-50.6	-65.8	3.6	1.51e+00	0	40	104	0	60	70181
2026-01-25 11:37:02.10	23.31	0.97	-50.2	-65.4	3.6	1.51e+00	0	40	104	0	60	67667
2026-01-25 11:37:02.82	23.38	1.00	-50.0	-65.2	3.6	1.51e+00	0	40	104	0	60	65785
2026-01-25 11:37:04.12	23.52	1.05	-49.4	-64.6	3.6	1.51e+00	0	40	104	0	60	61160
2026-01-25 11:37:04.83	23.59	1.08	-49.3	-64.5	3.6	1.51e+00	0	40	104	0	60	60893
2026-01-25 11:37:06.13	23.72	1.13	-49.3	-64.5	3.5	1.51e+00	0	40	104	0	60	60725
2026-01-25 11:37:06.85	23.80	1.15	-49.3	-64.4	3.6	1.51e+00	0	40	104	0	60	60269
2026-01-25 11:37:08.15	23.93	1.20	-49.3	-64.4	3.6	1.51e+00	0	40	104	0	60	60326
2026-01-25 11:37:08.87	24.01	1.23	-49.3	-64.5	3.6	1.51e+00	0	40	104	0	60	60670
2026-01-25 11:37:10.17	24.14	1.28	-49.3	-64.5	3.6	1.51e+00	0	40	104	0	60	60539
2026-01-25 11:37:10.89	24.22	1.31	-49.3	-64.5	3.6	1.51e+00	0	40	104	0	60	60340
2026-01-25 11:37:12.19	24.35	1.36	-49.3	-64.5	3.6	1.51e+00	0	41	104	0	60	60999
2026-01-25 11:37:12.91	24.43	1.39	-49.3	-64.5	3.6	1.51e+00	0	41	104	0	60	60844
2026-01-25 11:37:14.21	24.57	1.44	-49.3	-64.5	3.6	1.51e+00	0	41	104	0	60	60641
2026-01-25 11:37:14.93	24.64	1.47	-49.3	-64.5	3.6	1.51e+00	0	40	104	0	60	60496
2026-01-25 11:37:16.23	24.78	1.52	-49.3	-64.5	3.6	1.51e+00	0	41	104	0	60	60576
2026-01-25 11:37:16.95	24.86	1.54	-49.3	-64.5	3.5	1.51e+00	0	41	104	0	60	60661
2026-01-25 11:37:18.25	24.99	1.59	-49.3	-64.5	3.6	1.51e+00	0	41	104	0	60	60497
2026-01-25 11:37:18.97	25.07	1.62	-49.3	-64.5	3.6	1.51e+00	0	40	104	0	60	60768
2026-01-25 11:37:20.27	25.21	1.67	-49.3	-64.4	3.6	1.51e+00	0	41	104	0	60	60291
2026-01-25 11:37:20.99	25.29	1.70	-49.3	-64.5	3.6	1.51e+00	0	41	104	0	60	60421
2026-01-25 11:37:22.29	25.43	1.75	-49.3	-64.5	3.6	1.51e+00	0	41	104	0	60	60745
2026-01-25 11:37:23.01	25.50	1.77	-49.3	-64.5	3.6	1.51e+00	0	41	104	0	60	60637
2026-01-25 11:37:24.31	25.65	1.82	-49.3	-64.5	3.6	1.51e+00	0	41	104	0	60	60843
2026-01-25 11:37:25.03	25.72	1.85	-49.3	-64.4	3.6	1.51e+00	0	41	104	0	60	60087
2026-01-25 11:37:26.33	25.86	1.90	-49.3	-64.5	3.5	1.51e+00	0	41	104	0	60	60490
2026-01-25 11:37:27.05	25.94	1.93	-49.3	-64.5	3.6	1.51e+00	0	41	104	0	60	60346
2026-01-25 11:37:28.35	26.08	1.98	-49.3	-64.5	3.6	1.51e+00	0	41	104	0	60	60663
2026-01-25 11:37:29.07	26.16	2.00	-49.3	-64.5	3.6	1.51e+00	0	41	104	0	60	60407
2026-01-25 11:37:30.37	26.31	2.05	-49.3	-64.5	3.6	1.51e+00	0	41	104	0	60	60548
2026-01-25 11:37:31.09	26.38	2.08	-49.3	-64.5	3.6	1.51e+00	0	41	104	0	60	60726
2026-01-25 11:37:32.39	26.53	2.13	-49.3	-64.5	3.6	1.51e+00	0	41	104	0	60	60674
2026-01-25 11:37:33.11	26.61	2.16	-49.3	-64.5	3.6	1.51e+00	0	41	104	0	60	60514
2026-01-25 11:37:34.41	26.75	2.21	-49.3	-64.5	3.6	1.51e+00	0	41	104	0	60	60783
2026-01-25 11:37:35.13	26.83	2.23	-49.3	-64.5	3.6	1.51e+00	0	41	104	0	60	60378
2026-01-25 11:37:36.43	26.98	2.28	-49.3	-64.4	3.6	1.51e+00	0	41	104	0	60	59698
2026-01-25 11:37:37.15	27.06	2.31	-49.3	-64.2	3.6	1.51e+00	0	41	104	0	60	58687
2026-01-25 11:37:38.45	27.20	2.36	-49.3	-64.3	3.6	1.51e+00	0	41	104	0	60	59388
2026-01-25 11:37:39.17	27.28	2.39	-49.3	-64.3	3.6	1.51e+00	0	41	104	0	60	59199
2026-01-25 11:37:40.47	27.43	2.44	-49.3	-64.5	3.6	1.51e+00	0	41	104	0	60	60386
2026-01-25 11:37:41.19	27.51	2.46	-49.3	-64.4	3.6	1.51e+00	0	41	104	0	60	60272
2026-01-25 11:37:42.49	27.66	2.51	-49.3	-64.5	3.6	1.51e+00	0	41	104	0	60	60475
2026-01-25 11:37:43.21	27.74	2.54	-49.3	-64.5	3.6	1.51e+00	0	41	104	0	60	60660
2026-01-25 11:37:44.51	27.88	2.59	-49.2	-63.7	3.6	1.51e+00	0	41	104	0	60	55159
2026-01-25 11:37:45.23	27.97	2.61	-49.2	-63.4	3.6	1.51e+00	0	41	104	0	60	53604
2026-01-25 11:37:46.53	28.11	2.66	-49.2	-63.6	3.6	1.51e+00	0	41	104	0	60	54479
2026-01-25 11:37:47.25	28.20	2.69	-49.3	-64.0	3.6	1.51e+00	0	41	104	0	60	57052
2026-01-25 11:37:48.55	28.35	2.74	-48.9	-58.4	5.7	1.11e+00	0	41	104	0	60	30147
2026-01-25 11:37:49.27	28.43	2.77	-48.4	-55.0	8.1	3.26e-01	0	41	0	0	60	20384
2026-01-25 11:37:50.57	28.58	2.81	-46.7	-50.3	13.6	2.34e-03	0	41	0	3145728	60	11844
2026-01-25 11:37:51.29	28.66	2.84	-45.3	-48.0	15.3	0.00e+00	0	41	0	4194304	60	9037
2026-01-25 11:37:52.58	28.81	2.89	-43.6	-45.4	18.2	0.00e+00	0	41	0	6291456	60	6726
2026-01-25 11:37:53.31	28.89	2.92	-43.2	-44.9	18.7	0.00e+00	0	41	0	7340032	60	6380
2026-01-25 11:37:54.61	29.05	2.96	-43.6	-45.4	17.5	0.00e+00	0	41	0	9437184	58	7582
2026-01-25 11:37:55.33	29.13	2.99	-47.2	-51.4	11.9	6.10e-05	0	41	0	11534336	60	13391
2026-01-25 11:37:56.63	29.28	3.04	-45.0	-47.5	16.2	2.20e-06	0	41	0	13631488	60	8530
2026-01-25 11:37:57.35	29.37	3.06	-46.2	-49.5	12.9	0.00e+00	0	41	0	14680064	60	10776
2026-01-25 11:37:58.65	29.52	3.11	-45.7	-48.5	5.8	1.29e+00	53	41	104	15728640	60	9569
2026-01-25 11:37:59.37	29.60	3.14	-47.4	-51.7	13.1	9.74e-01	0	41	104	15728640	60	13903
2026-01-25 11:38:00.67	29.76	3.19	-47.8	-53.0	8.2	0.00e+00	0	41	0	16777216	60	16165
2026-01-25 11:38:01.39	29.84	3.21	-48.9	-57.2	8.5	1.28e+00	0	41	104	17825792	60	26088
2026-01-25 11:38:02.69	29.99	3.26	-45.6	-48.2	15.5	0.00e+00	0	41	0	18874368	60	9258
2026-01-25 11:38:03.41	30.08	3.29	-45.7	-48.3	16.0	0.00e+00	0	41	0	19922944	60	9380
2026-01-25 11:38:04.71	30.24	3.34	-44.1	-46.0	17.8	0.00e+00	0	41	0	22020096	60	7181
2026-01-25 11:38:05.43	30.32	3.36	-44.1	-46.0	18.1	0.00e+00	0	41	0	24117248	60	7235
2026-01-25 11:38:06.72	30.48	3.41	-45.6	-48.1	15.8	0.00e+00	0	41	0	26214400	60	9186
2026-01-25 11:38:07.44	30.56	3.43	-46.0	-48.8	16.0	0.00e+00	0	41	0	27262976	60	9979
2026-01-25 11:38:08.74	30.72	3.48	-46.1	-48.9	15.1	0.00e+00	0	41	0	30408704	60	10106
2026-01-25 11:38:09.46	30.80	3.51	-47.2	-50.9	12.9	0.00e+00	0	41	0	31457280	60	12727
2026-01-25 11:38:10.76	30.96	3.56	-46.2	-49.0	14.9	4.50e-06	0	41	0	33554432	60	10196
2026-01-25 11:38:11.48	31.05	3.58	-46.7	-49.8	14.3	3.00e-06	0	41	0	35651584	60	11151
2026-01-25 11:38:12.78	31.21	3.63	-46.4	-49.5	14.4	0.00e+00	0	41	0	37748736	60	10740
2026-01-25 11:38:13.50	31.29	3.65	-47.2	-50.8	12.9	1.50e-06	0	41	0	38797312	60	12517
2026-01-25 11:38:14.80	31.45	3.70	-47.8	-52.0	11.6	9.41e-04	0	41	0	41943040	60	14400
2026-01-25 11:38:15.52	31.54	3.73	-46.8	-50.0	14.0	4.45e-04	0	41	0	42991616	60	11389
2026-01-25 11:38:16.82	31.70	3.77	-46.9	-50.2	13.4	1.22e-05	0	41	0	45088768	60	11661
2026-01-25 11:38:17.54	31.79	3.80	-47.7	-51.8	11.3	9.84e-05	0	41	0	46137344	60	14084
2026-01-25 11:38:18.84	31.95	3.85	-46.1	-48.8	15.4	1.50e-06	0	41	0	49283072	60	9920
2026-01-25 11:38:19.56	32.04	3.87	-44.8	-46.8	16.9	0.00e+00	0	41	0	50331648	60	7884
2026-01-25 11:38:20.85	32.20	3.92	-45.2	-47.4	17.2	0.00e+00	0	41	0	52428800	60	8497
2026-01-25 11:38:21.58	32.29	3.94	-43.7	-45.4	18.4	0.00e+00	0	41	0	54525952	60	6696
2026-01-25 11:38:22.87	32.45	3.99	-46.3	-49.0	15.3	0.00e+00	0	41	0	56623104	60	10211
2026-01-25 11:38:23.59	32.54	4.02	-46.5	-49.4	15.4	0.00e+00	0	41	0	57671680	60	10716
2026-01-25 11:38:24.89	32.70	4.06	-45.9	-48.4	16.3	0.00e+00	0	41	0	60817408	60	9513
2026-01-25 11:38:25.61	32.79	4.09	-46.1	-48.7	15.4	0.00e+00	0	41	0	61865984	60	9866
2026-01-25 11:38:26.91	32.95	4.13	-47.0	-50.2	14.0	3.80e-06	0	41	0	63963136	60	11646
2026-01-25 11:38:27.63	33.04	4.16	-46.5	-49.3	14.9	1.50e-06	0	41	0	65011712	60	10567
2026-01-25 11:38:28.93	33.21	4.20	-46.3	-49.1	14.7	3.80e-06	0	41	0	68157440	60	10291
2026-01-25 11:38:29.65	33.30	4.23	-46.4	-49.3	15.0	0.00e+00	0	41	0	69206016	60	10504
2026-01-25 11:38:30.95	33.46	4.28	-46.3	-48.9	15.2	0.00e+00	0	41	0	71303168	60	10123
2026-01-25 11:38:31.67	33.55	4.30	-46.2	-48.8	15.4	7.00e-07	0	41	0	73400320	60	9899
2026-01-25 11:38:32.96	33.72	4.35	-47.1	-50.4	13.7	7.00e-07	0	41	0	75497472	60	11951
2026-01-25 11:38:33.68	33.81	4.37	-47.1	-50.4	13.6	1.50e-06	0	41	0	76546048	60	11943
2026-01-25 11:38:34.98	33.98	4.42	-45.3	-47.5	16.7	0.00e+00	0	41	0	79691776	60	8600
2026-01-25 11:38:35.70	34.07	4.44	-45.3	-47.5	16.4	0.00e+00	0	41	0	80740352	60	8570
2026-01-25 11:38:37.00	34.23	4.49	-46.1	-48.7	15.4	0.00e+00	0	41	0	82837504	60	9823
2026-01-25 11:38:37.72	34.33	4.51	-46.1	-48.6	15.9	0.00e+00	0	41	0	83886080	60	9783
2026-01-25 11:38:39.01	34.49	4.56	-45.8	-48.2	16.0	0.00e+00	0	41	0	87031808	60	9336
2026-01-25 11:38:39.73	34.59	4.58	-46.7	-49.6	15.1	0.00e+00	0	41	0	88080384	60	10926
2026-01-25 11:38:41.03	34.76	4.62	-47.1	-50.3	13.9	1.67e-05	0	41	0	90177536	60	11829
2026-01-25 11:38:41.75	34.85	4.65	-46.3	-49.0	14.7	7.00e-07	0	41	0	92274688	60	10209
2026-01-25 11:38:43.05	35.02	4.69	-46.2	-48.8	15.5	7.00e-07	0	41	0	94371840	60	9950
2026-01-25 11:38:43.77	35.11	4.72	-46.3	-49.0	15.2	0.00e+00	0	41	0	95420416	60	10135
2026-01-25 11:38:45.07	35.28	4.76	-44.3	-46.0	18.4	0.00e+00	0	41	0	98566144	60	7253
2026-01-25 11:38:45.79	35.38	4.79	-44.1	-45.8	17.7	0.00e+00	0	41	0	99614720	60	7035
2026-01-25 11:38:47.09	35.55	4.83	-44.9	-46.8	17.6	0.00e+00	0	41	0	101711872	60	7947
2026-01-25 11:38:47.81	35.64	4.86	-44.3	-46.1	17.8	0.00e+00	0	41	0	103809024	60	7333
2026-01-25 11:38:49.11	35.81	4.90	-44.6	-46.4	17.9	0.00e+00	0	41	0	105906176	60	7572
2026-01-25 11:38:49.83	35.91	4.92	-45.2	-47.2	17.1	0.00e+00	0	41	0	106954752	60	8323
2026-01-25 11:38:51.12	36.08	4.97	-46.0	-48.4	15.9	0.00e+00	0	41	0	109051904	60	9555
2026-01-25 11:38:51.84	36.17	4.99	-45.7	-48.0	16.2	0.00e+00	0	41	0	111149056	60	9101
2026-01-25 11:38:53.14	36.35	5.03	-45.7	-48.1	16.1	0.00e+00	0	41	0	113246208	60	9192
2026-01-25 11:38:53.86	36.44	5.06	-45.4	-47.6	16.1	0.00e+00	0	41	0	114294784	60	8671
2026-01-25 11:38:55.16	36.62	5.10	-43.7	-45.3	19.2	0.00e+00	0	41	0	117440512	60	6656
2026-01-25 11:38:55.88	36.71	5.13	-43.3	-44.8	19.4	0.00e+00	0	41	0	118489088	60	6281
2026-01-25 11:38:57.18	36.89	5.17	-44.3	-46.1	18.0	0.00e+00	0	41	0	120586240	60	7274
2026-01-25 11:38:57.90	36.99	5.19	-44.2	-45.9	18.3	0.00e+00	0	41	0	122683392	60	7142
2026-01-25 11:38:59.20	37.16	5.24	-44.0	-45.6	18.5	0.00e+00	0	41	0	124780544	60	6925
2026-01-25 11:38:59.92	37.26	5.26	-44.3	-46.1	18.1	0.00e+00	0	41	0	125829120	60	7332
2026-01-25 11:39:01.21	37.43	5.30	-44.6	-46.5	17.9	0.00e+00	0	41	0	128974848	60	7624
2026-01-25 11:39:01.93	37.53	5.32	-43.9	-45.6	18.5	0.00e+00	0	41	0	130023424	60	6894
2026-01-25 11:39:03.23	37.71	5.37	-44.8	-46.7	17.6	0.00e+00	0	41	0	132120576	60	7808
2026-01-25 11:39:03.95	37.81	5.39	-44.4	-46.2	18.1	0.00e+00	0	41	0	133169152	60	7416
2026-01-25 11:39:05.25	37.98	5.43	-44.3	-46.1	18.3	0.00e+00	0	41	0	136314880	60	7297
2026-01-25 11:39:05.97	38.08	5.46	-44.3	-46.1	18.1	0.00e+00	0	41	0	137363456	60	7255
2026-01-25 11:39:07.27	38.26	5.50	-44.0	-45.8	18.5	0.00e+00	0	41	0	139460608	60	7018
2026-01-25 11:39:07.99	38.36	5.52	-43.5	-45.1	19.2	0.00e+00	0	41	0	141557760	60	6481
2026-01-25 11:39:09.28	38.54	5.56	-43.8	-45.4	19.0	0.00e+00	0	41	0	143654912	60	6745
2026-01-25 11:39:10.01	38.64	5.59	-44.3	-46.1	18.2	0.00e+00	0	41	0	144703488	60	7291
2026-01-25 11:39:11.30	38.82	5.63	-44.5	-46.3	18.0	0.00e+00	0	41	0	147849216	60	7461
2026-01-25 11:39:12.02	38.92	5.65	-43.9	-45.6	18.7	0.00e+00	0	41	0	148897792	60	6869
2026-01-25 11:39:13.32	39.10	5.69	-43.0	-44.5	19.7	0.00e+00	0	41	0	150994944	58	6791
2026-01-25 11:39:14.04	39.20	5.71	-43.2	-44.7	19.6	0.00e+00	0	41	0	152043520	58	6934
2026-01-25 11:39:15.34	39.38	5.75	-44.2	-45.9	18.5	0.00e+00	0	41	0	155189248	60	7106
2026-01-25 11:39:16.06	39.48	5.78	-43.6	-45.2	19.1	0.00e+00	0	41	0	156237824	60	6561
2026-01-25 11:39:17.36	39.66	5.82	-43.4	-44.9	19.1	0.00e+00	0	41	0	158334976	60	6364
2026-01-25 11:39:18.08	39.76	5.84	-44.2	-46.0	18.3	0.00e+00	0	41	0	160432128	60	7171
2026-01-25 11:39:19.38	39.95	5.88	-43.5	-45.1	19.3	0.00e+00	0	41	0	162529280	60	6465
2026-01-25 11:39:20.10	40.05	5.90	-43.5	-45.0	19.2	0.00e+00	0	41	0	163577856	60	6423
2026-01-25 11:39:21.40	40.23	5.94	-43.7	-45.3	18.7	0.00e+00	0	41	0	166723584	60	6671
2026-01-25 11:39:22.12	40.33	5.96	-43.3	-44.8	19.5	0.00e+00	0	41	0	167772160	60	6276
2026-01-25 11:39:23.41	40.52	6.00	-43.2	-44.7	19.6	0.00e+00	0	41	0	169869312	60	6189
2026-01-25 11:39:24.13	40.62	6.02	-43.1	-44.5	19.7	0.00e+00	0	41	0	170917888	60	6090
2026-01-25 11:39:25.43	40.80	6.06	-43.4	-45.0	19.2	0.00e+00	0	41	0	174063616	60	6398
2026-01-25 11:39:26.15	40.91	6.09	-43.9	-45.5	18.9	0.00e+00	0	41	0	175112192	60	6843
2026-01-25 11:39:27.45	41.09	6.12	-43.7	-45.2	19.3	0.00e+00	0	41	0	177209344	60	6615
2026-01-25 11:39:28.17	41.20	6.15	-43.7	-45.3	19.2	0.00e+00	0	41	0	179306496	60	6620
2026-01-25 11:39:29.46	41.38	6.18	-43.5	-45.0	19.2	0.00e+00	0	41	0	181403648	60	6430
2026-01-25 11:39:30.18	41.48	6.21	-43.3	-44.8	19.5	0.00e+00	0	41	0	182452224	60	6250
2026-01-25 11:39:31.48	41.67	6.24	-43.7	-45.3	19.0	0.00e+00	0	41	0	185597952	60	6667
2026-01-25 11:39:32.20	41.78	6.27	-43.8	-45.5	18.7	0.00e+00	0	41	0	186646528	60	6780
2026-01-25 11:39:33.50	41.96	6.30	-43.8	-45.4	19.0	0.00e+00	0	41	0	188743680	60	6705
2026-01-25 11:39:34.22	42.07	6.32	-43.5	-45.0	19.4	0.00e+00	0	41	0	190840832	60	6425
2026-01-25 11:39:35.52	42.26	6.36	-44.1	-45.9	18.5	0.00e+00	0	41	0	192937984	60	7089
2026-01-25 11:39:36.24	42.36	6.38	-44.1	-45.8	18.6	0.00e+00	0	41	0	193986560	60	7038
2026-01-25 11:39:37.54	42.55	6.42	-43.6	-45.2	19.3	0.00e+00	0	41	0	196083712	60	6554
2026-01-25 11:39:38.26	42.66	6.44	-43.0	-44.4	19.8	0.00e+00	0	41	0	198180864	60	5997
2026-01-25 11:39:39.56	42.85	6.48	-44.3	-46.0	18.6	0.00e+00	0	41	0	200278016	60	7184
2026-01-25 11:39:40.28	42.95	6.50	-43.4	-44.9	19.5	0.00e+00	0	41	0	201326592	60	6383
2026-01-25 11:39:41.58	43.14	6.54	-43.6	-45.1	19.2	0.00e+00	0	41	0	204472320	60	6507
2026-01-25 11:39:42.30	43.25	6.56	-43.2	-44.6	19.6	0.00e+00	0	41	0	205520896	60	6159
2026-01-25 11:39:43.59	43.44	6.59	-43.4	-44.9	19.4	0.00e+00	0	41	0	207618048	60	6325
2026-01-25 11:39:44.31	43.55	6.61	-44.0	-45.7	18.7	0.00e+00	0	41	0	209715200	60	6929
2026-01-25 11:39:45.61	43.74	6.65	-43.5	-45.0	19.4	0.00e+00	0	41	0	211812352	60	6416
2026-01-25 11:39:46.33	43.85	6.67	-44.4	-46.2	18.2	0.00e+00	0	41	0	212860928	60	7360
2026-01-25 11:39:47.63	44.04	6.71	-43.7	-45.3	19.2	0.00e+00	0	41	0	214958080	60	6664
2026-01-25 11:39:48.35	44.15	6.73	-44.4	-46.2	18.2	0.00e+00	0	41	0	217055232	60	7386
2026-01-25 11:39:49.65	44.34	6.76	-44.3	-46.0	18.5	0.00e+00	0	41	0	219152384	60	7229
2026-01-25 11:39:50.37	44.45	6.78	-44.3	-46.0	18.5	0.00e+00	0	41	0	220200960	60	7194
2026-01-25 11:39:51.66	44.64	6.82	-44.2	-45.9	18.6	0.00e+00	0	41	0	223346688	60	7113
2026-01-25 11:39:52.39	44.75	6.83	-44.4	-46.1	18.3	0.00e+00	0	41	0	224395264	60	7330
2026-01-25 11:39:53.68	44.95	6.87	-43.8	-45.4	19.0	0.00e+00	0	41	0	226492416	60	6725
2026-01-25 11:39:54.40	45.05	6.89	-43.5	-45.0	19.3	0.00e+00	0	41	0	228589568	60	6460
2026-01-25 11:39:55.70	45.25	6.92	-44.0	-45.6	18.8	0.00e+00	0	41	0	230686720	60	6920
2026-01-25 11:39:56.42	45.36	6.94	-43.7	-45.3	19.2	0.00e+00	0	41	0	231735296	60	6657
2026-01-25 11:39:57.72	45.56	6.98	-43.7	-45.3	19.1	0.00e+00	0	41	0	234881024	60	6621
2026-01-25 11:39:58.44	45.66	7.00	-44.1	-45.8	18.6	0.00e+00	0	41	0	235929600	60	7061
2026-01-25 11:39:59.74	45.86	7.03	-44.3	-46.0	18.5	0.00e+00	0	41	0	238026752	60	7191
2026-01-25 11:40:00.46	45.97	7.05	-44.0	-45.6	18.7	0.00e+00	0	41	0	239075328	60	6920
2026-01-25 11:40:01.76	46.17	7.08	-43.8	-45.3	19.0	0.00e+00	0	41	0	242221056	60	6692
2026-01-25 11:40:02.48	46.28	7.10	-44.0	-45.6	18.9	0.00e+00	0	41	0	243269632	60	6918
2026-01-25 11:40:03.78	46.48	7.13	-44.1	-45.8	18.9	0.00e+00	0	41	0	245366784	60	7013
2026-01-25 11:40:04.50	46.59	7.15	-43.5	-45.0	19.4	0.00e+00	0	41	0	247463936	60	6448
2026-01-25 11:40:05.80	46.79	7.18	-43.3	-44.8	19.6	0.00e+00	0	41	0	249561088	60	6258
2026-01-25 11:40:06.52	46.90	7.20	-43.4	-44.8	19.7	0.00e+00	0	41	0	250609664	60	6297
2026-01-25 11:40:07.82	47.10	7.23	-43.6	-45.1	19.3	0.00e+00	0	41	0	253755392	60	6526
2026-01-25 11:40:08.54	47.21	7.25	-43.2	-44.6	19.7	0.00e+00	0	41	0	254803968	60	6151
2026-01-25 11:40:09.84	47.41	7.28	-43.7	-45.3	19.2	0.00e+00	0	41	0	256901120	60	6622
2026-01-25 11:40:10.56	47.52	7.30	-43.5	-45.1	19.4	0.00e+00	0	41	0	258998272	60	6468
2026-01-25 11:40:11.85	47.72	7.33	-44.3	-46.0	18.4	0.00e+00	0	41	0	261095424	60	7212
2026-01-25 11:40:12.58	47.84	7.35	-44.0	-45.7	18.7	0.00e+00	0	41	0	262144000	60	6956
2026-01-25 11:40:13.87	48.04	7.38	-44.3	-46.0	18.6	0.00e+00	0	42	0	264241152	60	7188
2026-01-25 11:40:14.59	48.15	7.40	-44.4	-46.1	18.4	0.00e+00	0	41	0	266338304	60	7297
2026-01-25 11:40:15.89	48.35	7.43	-44.7	-46.6	18.1	0.00e+00	0	41	0	268435456	60	7691
2026-01-25 11:40:16.61	48.46	7.44	-44.6	-46.5	18.0	0.00e+00	0	42	0	269484032	60	7607
2026-01-25 11:40:17.91	48.67	7.47	-44.8	-46.6	18.0	0.00e+00	0	42	0	272629760	60	7740
2026-01-25 11:40:18.63	48.78	7.49	-44.3	-46.1	18.3	0.00e+00	0	41	0	273678336	60	7268
2026-01-25 11:40:19.93	48.99	7.52	-43.9	-45.5	19.1	0.00e+00	0	41	0	275775488	60	6794
2026-01-25 11:40:20.65	49.10	7.54	-43.9	-45.5	18.9	0.00e+00	0	42	0	277872640	60	6829
2026-01-25 11:40:21.95	49.30	7.57	-43.3	-44.8	19.6	0.00e+00	0	41	0	279969792	60	6275
2026-01-25 11:40:22.67	49.42	7.58	-43.3	-44.7	19.6	0.00e+00	0	41	0	281018368	60	6200
2026-01-25 11:40:23.97	49.62	7.61	-43.2	-44.7	19.6	0.00e+00	0	41	0	283115520	60	6202
2026-01-25 11:40:24.69	49.74	7.63	-43.5	-45.0	19.4	0.00e+00	0	41	0	285212672	60	6456
2026-01-25 11:40:25.99	49.94	7.66	-43.9	-45.5	19.0	0.00e+00	0	41	0	287309824	60	6812
2026-01-25 11:40:26.71	50.06	7.67	-43.9	-45.4	19.1	0.00e+00	0	41	0	288358400	60	6752
2026-01-25 11:40:28.01	50.26	7.70	-43.7	-45.3	19.3	0.00e+00	0	41	0	291504128	60	6657
2026-01-25 11:40:28.73	50.38	7.71	-43.9	-45.5	19.1	0.00e+00	0	41	0	292552704	60	6789
2026-01-25 11:40:30.03	50.58	7.74	-44.0	-45.5	19.0	0.00e+00	0	41	0	294649856	60	6847
2026-01-25 11:40:30.75	50.70	7.76	-43.5	-45.0	19.4	0.00e+00	0	41	0	296747008	60	6455
2026-01-25 11:40:32.05	50.91	7.78	-43.2	-44.6	19.8	0.00e+00	0	41	0	298844160	60	6155
2026-01-25 11:40:32.77	51.02	7.80	-43.4	-44.8	19.7	0.00e+00	0	41	0	299892736	60	6284
2026-01-25 11:40:34.07	51.23	7.83	-43.1	-44.5	19.9	0.00e+00	0	41	0	303038464	60	6036
2026-01-25 11:40:34.79	51.35	7.84	-43.1	-44.4	20.0	0.00e+00	0	41	0	304087040	60	6033
2026-01-25 11:40:36.09	51.56	7.87	-43.4	-44.9	19.5	0.00e+00	0	41	0	306184192	60	6320
2026-01-25 11:40:36.81	51.67	7.88	-43.6	-45.1	19.3	0.00e+00	0	41	0	307232768	60	6504
2026-01-25 11:40:38.11	51.88	7.91	-44.0	-45.6	18.9	0.00e+00	0	41	0	310378496	60	6870
2026-01-25 11:40:38.83	52.00	7.92	-44.3	-46.0	18.5	0.00e+00	0	41	0	311427072	60	7190
2026-01-25 11:40:40.12	52.21	7.95	-44.5	-46.3	18.2	0.00e+00	0	41	0	313524224	60	7461
2026-01-25 11:40:40.84	52.32	7.96	-44.2	-45.9	18.7	0.00e+00	0	41	0	315621376	60	7089
2026-01-25 11:40:42.14	52.53	7.99	-44.1	-45.8	18.8	0.00e+00	0	41	0	317718528	60	7015
2026-01-25 11:40:42.86	52.65	8.00	-43.8	-45.3	19.1	0.00e+00	0	41	0	318767104	60	6679
2026-01-25 11:40:44.16	52.86	8.02	-43.5	-45.0	19.5	0.00e+00	0	42	0	321912832	60	6394
2026-01-25 11:40:44.88	52.98	8.04	-43.2	-44.5	19.9	0.00e+00	0	41	0	322961408	60	6090
2026-01-25 11:40:46.18	53.19	8.06	-43.3	-44.8	19.6	0.00e+00	0	41	0	325058560	60	6270
2026-01-25 11:40:46.90	53.31	8.07	-43.1	-44.4	20.0	0.00e+00	0	41	0	327155712	60	6025
2026-01-25 11:40:48.20	53.52	8.10	-43.0	-44.4	19.9	0.00e+00	0	41	0	329252864	60	5989
2026-01-25 11:40:48.92	53.64	8.11	-43.0	-44.4	20.0	0.00e+00	0	41	0	330301440	60	5977
2026-01-25 11:40:50.22	53.85	8.13	-43.4	-44.9	19.4	0.00e+00	0	41	0	332398592	60	6326
2026-01-25 11:40:50.94	53.97	8.14	-43.4	-44.9	19.5	0.00e+00	0	41	0	334495744	60	6354
2026-01-25 11:40:52.23	54.18	8.17	-43.1	-44.5	19.9	0.00e+00	0	42	0	336592896	60	6079
2026-01-25 11:40:52.95	54.30	8.18	-42.9	-44.3	20.2	0.00e+00	0	41	0	337641472	60	5935
2026-01-25 11:40:54.25	54.51	8.20	-42.5	-43.8	20.5	0.00e+00	0	41	0	340787200	58	6272
2026-01-25 11:40:54.98	54.63	8.21	-42.6	-43.9	20.4	0.00e+00	0	41	0	341835776	58	6363
2026-01-25 11:40:56.27	54.84	8.23	-42.5	-43.8	20.4	0.00e+00	0	41	0	343932928	58	6287
2026-01-25 11:40:57.00	54.96	8.25	-42.3	-43.6	20.5	0.00e+00	0	41	0	344981504	58	6113
2026-01-25 11:40:58.29	55.18	8.27	-42.7	-44.0	20.3	0.00e+00	0	41	0	348127232	58	6413
2026-01-25 11:40:59.02	55.30	8.28	-42.7	-44.0	20.3	0.00e+00	0	41	0	349175808	58	6451
2026-01-25 11:41:00.31	55.51	8.30	-42.7	-44.1	20.4	0.00e+00	0	41	0	351272960	58	6472
2026-01-25 11:41:01.03	55.63	8.31	-42.9	-44.3	20.0	0.00e+00	0	42	0	353370112	58	6621
2026-01-25 11:41:02.33	55.85	8.33	-42.8	-44.2	20.1	0.00e+00	0	41	0	355467264	58	6555
2026-01-25 11:41:03.05	55.97	8.34	-42.7	-44.0	20.3	0.00e+00	0	41	0	356515840	58	6422
2026-01-25 11:41:04.34	56.18	8.36	-42.7	-44.0	20.3	0.00e+00	0	41	0	359661568	58	6436
2026-01-25 11:41:05.06	56.30	8.37	-42.9	-44.2	20.3	0.00e+00	0	41	0	360710144	58	6575
2026-01-25 11:41:06.36	56.52	8.39	-42.8	-44.1	20.2	0.00e+00	0	41	0	362807296	58	6484
2026-01-25 11:41:07.08	56.64	8.40	-42.9	-44.3	20.1	0.00e+00	0	42	0	364904448	58	6644
2026-01-25 11:41:08.38	56.85	8.42	-43.2	-44.7	19.8	0.00e+00	0	41	0	367001600	58	6966
2026-01-25 11:41:09.10	56.97	8.43	-43.5	-45.0	19.5	0.00e+00	0	41	0	368050176	58	7217
2026-01-25 11:41:10.40	57.19	8.45	-44.0	-45.6	18.9	0.00e+00	0	42	0	370147328	60	6910
2026-01-25 11:41:11.11	57.31	8.46	-44.0	-45.7	18.8	0.00e+00	0	41	0	372244480	60	6947
2026-01-25 11:41:12.41	57.53	8.47	-44.2	-45.8	18.6	0.00e+00	0	41	0	374341632	60	7074
2026-01-25 11:41:13.13	57.65	8.48	-44.2	-45.9	18.6	0.00e+00	0	41	0	375390208	60	7135
2026-01-25 11:41:14.43	57.87	8.50	-44.1	-45.8	18.8	0.00e+00	0	42	0	378535936	60	7027
2026-01-25 11:41:15.15	57.99	8.51	-43.9	-45.5	19.1	0.00e+00	0	41	0	379584512	60	6807
2026-01-25 11:41:16.45	58.20	8.52	-43.8	-45.4	19.1	0.00e+00	0	42	0	381681664	60	6723
2026-01-25 11:41:17.17	58.33	8.53	-43.9	-45.4	19.0	0.00e+00	0	42	0	383778816	60	6746
2026-01-25 11:41:18.47	58.54	8.55	-43.8	-45.4	19.1	0.00e+00	0	42	0	385875968	60	6725
2026-01-25 11:41:19.19	58.67	8.56	-44.2	-45.8	18.8	0.00e+00	0	42	0	386924544	60	7055
2026-01-25 11:41:20.49	58.88	8.57	-44.2	-45.8	18.8	0.00e+00	0	41	0	389021696	60	7040
2026-01-25 11:41:21.21	59.01	8.58	-43.9	-45.4	19.2	0.00e+00	0	42	0	391118848	60	6747
2026-01-25 11:41:22.51	59.23	8.60	-43.6	-45.2	19.3	0.00e+00	0	42	0	393216000	60	6549
2026-01-25 11:41:23.23	59.35	8.60	-43.7	-45.2	19.1	0.00e+00	0	41	0	394264576	60	6613
2026-01-25 11:41:24.52	59.57	8.62	-44.2	-45.9	18.6	0.00e+00	0	41	0	397410304	60	7147
2026-01-25 11:41:25.25	59.69	8.63	-44.1	-45.7	18.8	0.00e+00	0	42	0	398458880	60	6984
2026-01-25 11:41:26.54	59.91	8.64	-44.1	-45.7	18.8	0.00e+00	0	41	0	400556032	60	6993
2026-01-25 11:41:27.26	60.03	8.65	-43.9	-45.5	19.1	0.00e+00	0	41	0	402653184	60	6773
2026-01-25 11:41:28.56	60.25	8.66	-43.7	-45.2	19.4	0.00e+00	0	42	0	404750336	60	6580
2026-01-25 11:41:29.28	60.37	8.67	-43.7	-45.2	19.3	0.00e+00	0	42	0	405798912	60	6611
2026-01-25 11:41:30.58	60.59	8.68	-44.7	-46.5	18.0	0.00e+00	0	41	0	408944640	60	7643
2026-01-25 11:41:31.30	60.72	8.69	-44.7	-46.5	18.1	0.00e+00	0	42	0	409993216	60	7623
2026-01-25 11:41:32.60	60.94	8.70	-44.6	-46.5	18.2	0.00e+00	0	42	0	412090368	60	7601
2026-01-25 11:41:33.32	61.06	8.70	-44.5	-46.3	18.3	0.00e+00	0	42	0	413138944	60	7425
2026-01-25 11:41:34.62	61.28	8.71	-44.5	-46.2	18.4	0.00e+00	0	42	0	416284672	60	7381
2026-01-25 11:41:35.34	61.40	8.72	-44.3	-46.0	18.5	0.00e+00	0	42	0	417333248	60	7222
2026-01-25 11:41:36.64	61.62	8.73	-44.3	-46.0	18.5	0.00e+00	0	42	0	419430400	60	7223
2026-01-25 11:41:37.36	61.75	8.74	-44.4	-46.1	18.5	0.00e+00	0	42	0	421527552	60	7280
2026-01-25 11:41:38.66	61.97	8.75	-44.5	-46.3	18.3	0.00e+00	0	41	0	423624704	60	7451
2026-01-25 11:41:39.38	62.09	8.75	-44.6	-46.3	18.3	0.00e+00	0	42	0	424673280	60	7500
2026-01-25 11:41:40.68	62.31	8.76	-44.0	-45.6	19.0	0.00e+00	0	42	0	427819008	60	6927
2026-01-25 11:41:41.40	62.44	8.77	-44.1	-45.7	18.9	0.00e+00	0	42	0	428867584	60	6966
2026-01-25 11:41:42.70	62.66	8.78	-44.2	-45.9	18.8	0.00e+00	0	42	0	430964736	60	7091
2026-01-25 11:41:43.42	62.78	8.78	-44.2	-45.9	18.7	0.00e+00	0	42	0	433061888	60	7125
2026-01-25 11:41:44.72	63.00	8.79	-44.0	-45.6	18.8	0.00e+00	0	42	0	435159040	60	6898
2026-01-25 11:41:45.44	63.13	8.79	-44.3	-46.0	18.3	0.00e+00	0	42	0	436207616	60	7223
2026-01-25 11:41:46.74	63.35	8.80	-44.4	-46.1	18.4	0.00e+00	0	42	0	438304768	60	7295
2026-01-25 11:41:47.46	63.47	8.81	-44.1	-45.7	18.9	0.00e+00	0	41	0	440401920	60	7000
2026-01-25 11:41:48.76	63.70	8.81	-44.5	-46.2	18.3	0.00e+00	0	42	0	442499072	60	7397
2026-01-25 11:41:49.48	63.82	8.82	-44.5	-46.2	18.4	0.00e+00	0	42	0	443547648	60	7374
2026-01-25 11:41:50.77	64.04	8.82	-44.1	-45.8	18.7	0.00e+00	0	41	0	446693376	60	7020
2026-01-25 11:41:51.50	64.17	8.83	-44.1	-45.8	18.7	0.00e+00	0	41	0	447741952	60	7020
2026-01-25 11:41:52.79	64.39	8.83	-44.2	-45.9	18.6	0.00e+00	0	42	0	449839104	60	7130
2026-01-25 11:41:53.52	64.51	8.84	-44.1	-45.7	18.8	0.00e+00	0	42	0	451936256	60	6972
2026-01-25 11:41:54.81	64.74	8.84	-44.5	-46.2	18.5	0.00e+00	0	42	0	454033408	60	7414
2026-01-25 11:41:55.53	64.86	8.85	-44.0	-45.6	19.0	0.00e+00	0	41	0	455081984	60	6911
2026-01-25 11:41:56.83	65.08	8.85	-44.1	-45.8	18.9	0.00e+00	0	42	0	457179136	60	7027
2026-01-25 11:41:57.55	65.21	8.85	-44.1	-45.7	19.0	0.00e+00	0	42	0	459276288	60	6977
2026-01-25 11:41:58.85	65.43	8.86	-43.7	-45.2	19.3	0.00e+00	0	42	0	461373440	60	6594
2026-01-25 11:41:59.57	65.55	8.86	-43.3	-44.8	19.9	0.00e+00	0	41	0	462422016	60	6250
2026-01-25 11:42:00.87	65.78	8.86	-43.1	-44.5	20.1	0.00e+00	0	42	0	465567744	60	6068
2026-01-25 11:42:01.59	65.90	8.87	-42.9	-44.2	20.2	0.00e+00	0	41	0	466616320	60	5882
2026-01-25 11:42:02.89	66.13	8.87	-42.9	-44.3	20.1	0.00e+00	0	42	0	468713472	60	5914
2026-01-25 11:42:03.61	66.25	8.87	-42.9	-44.3	20.1	0.00e+00	0	42	0	470810624	60	5928
2026-01-25 11:42:04.90	66.47	8.87	-42.9	-44.2	20.2	0.00e+00	0	42	0	472907776	60	5862
2026-01-25 11:42:05.63	66.60	8.87	-43.0	-44.3	20.1	0.00e+00	0	41	0	473956352	60	5953
2026-01-25 11:42:06.92	66.82	8.88	-43.2	-44.7	19.9	0.00e+00	0	42	0	477102080	60	6187
2026-01-25 11:42:07.64	66.94	8.88	-42.7	-44.0	20.3	0.00e+00	0	42	0	478150656	58	6456
2026-01-25 11:42:08.94	67.17	8.88	-42.3	-43.5	20.8	0.00e+00	0	42	0	480247808	58	6085
2026-01-25 11:42:09.66	67.29	8.88	-42.3	-43.5	20.9	0.00e+00	0	42	0	481296384	58	6071
2026-01-25 11:42:10.96	67.51	8.88	-42.2	-43.4	20.9	0.00e+00	0	42	0	484442112	58	5975
2026-01-25 11:42:11.68	67.64	8.88	-42.1	-43.3	21.0	0.00e+00	0	42	0	485490688	58	5937
2026-01-25 11:42:12.98	67.86	8.88	-42.5	-43.8	20.6	0.00e+00	0	42	0	487587840	58	6273
2026-01-25 11:42:13.70	67.99	8.88	-42.7	-44.0	20.3	0.00e+00	0	42	0	489684992	58	6427
2026-01-25 11:42:15.00	68.21	8.88	-42.5	-43.8	20.5	0.00e+00	0	42	0	491782144	58	6282
2026-01-25 11:42:15.72	68.33	8.88	-42.5	-43.7	20.4	0.00e+00	0	42	0	492830720	58	6245
2026-01-25 11:42:17.02	68.56	8.88	-42.7	-44.0	20.3	0.00e+00	0	42	0	495976448	58	6418
2026-01-25 11:42:17.74	68.68	8.88	-42.8	-44.2	20.1	0.00e+00	0	41	0	497025024	58	6550
2026-01-25 11:42:19.04	68.91	8.88	-42.7	-44.0	20.4	0.00e+00	0	42	0	499122176	58	6421
2026-01-25 11:42:19.76	69.03	8.88	-42.7	-44.0	20.4	0.00e+00	0	42	0	501219328	58	6406
2026-01-25 11:42:21.05	69.25	8.87	-42.3	-43.6	20.6	0.00e+00	0	41	0	503316480	58	6106
2026-01-25 11:42:21.78	69.38	8.87	-42.3	-43.5	20.8	0.00e+00	0	42	0	504365056	58	6080
2026-01-25 11:42:23.07	69.60	8.87	-42.3	-43.5	20.8	0.00e+00	0	42	0	506462208	58	6080
2026-01-25 11:42:23.79	69.72	8.87	-42.1	-43.3	20.8	0.00e+00	0	42	0	508559360	58	5911
2026-01-25 11:42:25.09	69.95	8.87	-42.3	-43.6	20.8	0.00e+00	0	42	0	510656512	58	6111
2026-01-25 11:42:25.81	70.07	8.86	-42.3	-43.6	20.7	0.00e+00	0	42	0	511705088	58	6115
2026-01-25 11:42:27.11	70.30	8.86	-42.7	-44.0	20.4	0.00e+00	0	41	0	514850816	58	6448
2026-01-25 11:42:27.83	70.42	8.86	-42.6	-43.9	20.5	0.00e+00	0	42	0	515899392	58	6342
2026-01-25 11:42:29.13	70.64	8.85	-42.5	-43.8	20.5	0.00e+00	0	42	0	517996544	58	6257
2026-01-25 11:42:29.85	70.77	8.85	-42.4	-43.7	20.7	0.00e+00	0	42	0	520093696	58	6184
2026-01-25 11:42:31.15	70.99	8.85	-42.4	-43.7	20.7	0.00e+00	0	42	0	522190848	58	6175
2026-01-25 11:42:31.87	71.11	8.84	-42.3	-43.6	20.8	0.00e+00	0	42	0	523239424	58	6125
2026-01-25 11:42:33.17	71.34	8.84	-42.0	-43.2	20.8	0.00e+00	0	41	0	525336576	58	5864
2026-01-25 11:42:33.89	71.46	8.83	-41.9	-43.1	20.5	0.00e+00	0	42	0	527433728	58	5819
2026-01-25 11:42:35.19	71.69	8.83	-42.1	-43.3	20.8	0.00e+00	0	42	0	529530880	58	5934
2026-01-25 11:42:35.91	71.81	8.82	-41.9	-43.2	21.1	0.00e+00	0	42	0	530579456	58	5832
2026-01-25 11:42:37.20	72.03	8.82	-42.1	-43.4	20.7	0.00e+00	0	41	0	533725184	58	5972
2026-01-25 11:42:37.92	72.15	8.81	-42.2	-43.5	20.4	0.00e+00	0	41	0	534773760	58	6053
2026-01-25 11:42:39.22	72.38	8.81	-42.0	-43.3	20.7	0.00e+00	0	41	0	536870912	58	5901
2026-01-25 11:42:39.94	72.50	8.80	-42.0	-43.2	20.8	0.00e+00	0	42	0	538968064	58	5893
2026-01-25 11:42:41.24	72.72	8.79	-42.0	-43.2	20.8	0.00e+00	0	42	0	541065216	58	5881
2026-01-25 11:42:41.96	72.85	8.79	-42.0	-43.2	20.9	0.00e+00	0	42	0	542113792	58	5862
2026-01-25 11:42:43.26	73.07	8.78	-41.9	-43.2	21.0	0.00e+00	0	42	0	545259520	56	6540
2026-01-25 11:42:43.98	73.19	8.78	-41.8	-43.0	21.1	0.00e+00	0	42	0	546308096	56	6447
2026-01-25 11:42:45.28	73.42	8.77	-41.7	-42.9	21.2	0.00e+00	0	42	0	548405248	56	6331
2026-01-25 11:42:46.00	73.54	8.76	-41.3	-42.3	21.6	0.00e+00	0	42	0	549453824	56	5961
2026-01-25 11:42:47.30	73.76	8.75	-41.1	-42.2	21.9	0.00e+00	0	42	0	552599552	56	5831
2026-01-25 11:42:48.02	73.88	8.75	-41.2	-42.2	21.8	0.00e+00	0	41	0	553648128	56	5879
2026-01-25 11:42:49.32	74.11	8.74	-41.2	-42.3	21.8	0.00e+00	0	42	0	555745280	56	5922
2026-01-25 11:42:50.03	74.23	8.73	-41.1	-42.1	21.9	0.00e+00	0	41	0	557842432	56	5815
2026-01-25 11:42:51.33	74.45	8.72	-41.2	-42.3	21.7	0.00e+00	0	42	0	559939584	56	5924
2026-01-25 11:42:52.05	74.57	8.71	-41.3	-42.4	21.7	0.00e+00	0	42	0	560988160	56	5987
2026-01-25 11:42:53.35	74.79	8.70	-41.4	-42.5	21.6	0.00e+00	0	41	0	564133888	56	6087
2026-01-25 11:42:54.07	74.92	8.70	-41.5	-42.7	21.4	0.00e+00	0	41	0	565182464	56	6181
2026-01-25 11:42:55.37	75.14	8.68	-41.5	-42.7	21.5	0.00e+00	0	41	0	567279616	56	6178
2026-01-25 11:42:56.09	75.26	8.68	-41.4	-42.5	21.6	0.00e+00	0	41	0	568328192	56	6103
2026-01-25 11:42:57.39	75.48	8.67	-41.6	-42.8	21.4	0.00e+00	0	42	0	571473920	56	6261
2026-01-25 11:42:58.11	75.60	8.66	-41.7	-42.8	21.3	0.00e+00	0	42	0	572522496	56	6313
2026-01-25 11:42:59.41	75.82	8.65	-42.0	-43.2	21.0	0.00e+00	0	42	0	574619648	56	6547
2026-01-25 11:43:00.13	75.95	8.64	-41.9	-43.1	21.0	0.00e+00	0	42	0	576716800	56	6485
2026-01-25 11:43:01.43	76.17	8.62	-42.2	-43.4	20.8	0.00e+00	0	41	0	578813952	56	6738
2026-01-25 11:43:02.15	76.29	8.62	-42.2	-43.4	20.8	0.00e+00	0	41	0	579862528	56	6761
2026-01-25 11:43:03.44	76.51	8.60	-41.9	-43.1	21.1	0.00e+00	0	41	0	583008256	56	6499
2026-01-25 11:43:04.17	76.63	8.59	-41.9	-43.1	21.1	0.00e+00	0	42	0	584056832	56	6509
2026-01-25 11:43:05.46	76.85	8.58	-42.1	-43.4	20.8	0.00e+00	0	42	0	586153984	56	6756
2026-01-25 11:43:06.18	76.97	8.57	-42.3	-43.6	20.6	0.00e+00	0	41	0	588251136	56	6881
2026-01-25 11:43:07.48	77.19	8.56	-42.0	-43.2	21.0	0.00e+00	0	42	0	590348288	56	6590
2026-01-25 11:43:08.20	77.31	8.55	-42.1	-43.4	20.8	0.00e+00	0	42	0	591396864	56	6725
2026-01-25 11:43:09.50	77.53	8.53	-42.0	-43.3	21.2	0.00e+00	0	41	0	593494016	56	6643
2026-01-25 11:43:10.22	77.65	8.52	-41.9	-43.2	20.9	0.00e+00	0	41	0	595591168	56	6546
2026-01-25 11:43:11.52	77.87	8.51	-42.0	-43.3	20.9	0.00e+00	0	41	0	597688320	56	6657
2026-01-25 11:43:12.24	77.99	8.50	-42.0	-43.2	21.0	0.00e+00	0	42	0	598736896	56	6574
2026-01-25 11:43:13.54	78.21	8.48	-41.7	-42.9	21.1	0.00e+00	0	41	0	601882624	56	6380
2026-01-25 11:43:14.26	78.33	8.47	-42.0	-43.3	20.9	0.00e+00	0	42	0	602931200	56	6629
2026-01-25 11:43:15.56	78.55	8.45	-42.3	-43.7	20.6	0.00e+00	0	42	0	605028352	56	6956
2026-01-25 11:43:16.28	78.67	8.44	-42.3	-43.7	20.4	0.00e+00	0	42	0	607125504	56	6946
2026-01-25 11:43:17.58	78.89	8.43	-42.1	-43.4	20.8	0.00e+00	0	41	0	609222656	56	6769
2026-01-25 11:43:18.30	79.01	8.42	-42.4	-43.7	20.6	0.00e+00	0	42	0	610271232	56	6984
2026-01-25 11:43:19.59	79.22	8.40	-42.4	-43.7	20.8	0.00e+00	0	42	0	612368384	56	6956
2026-01-25 11:43:20.31	79.34	8.39	-42.8	-44.2	20.1	0.00e+00	0	42	0	614465536	56	7366
2026-01-25 11:43:21.61	79.56	8.37	-42.6	-44.0	20.3	0.00e+00	0	42	0	616562688	58	6395
2026-01-25 11:43:22.33	79.68	8.36	-42.5	-43.8	20.4	0.00e+00	0	41	0	617611264	58	6292
2026-01-25 11:43:23.63	79.90	8.34	-42.2	-43.4	20.7	0.00e+00	0	41	0	620756992	58	6027
2026-01-25 11:43:24.35	80.02	8.33	-42.5	-43.8	20.4	0.00e+00	0	42	0	621805568	58	6296
2026-01-25 11:43:25.64	80.23	8.31	-42.3	-43.6	20.6	0.00e+00	0	41	0	623902720	58	6125
2026-01-25 11:43:26.36	80.35	8.30	-42.1	-43.3	20.8	0.00e+00	0	41	0	625999872	58	5928
2026-01-25 11:43:27.66	80.57	8.28	-41.7	-42.9	21.4	0.00e+00	0	42	0	628097024	56	6326
2026-01-25 11:43:28.38	80.68	8.27	-41.8	-42.9	21.3	0.00e+00	0	42	0	629145600	56	6376
2026-01-25 11:43:29.68	80.90	8.24	-41.5	-42.6	21.7	0.00e+00	0	41	0	632291328	56	6148
2026-01-25 11:43:30.40	81.02	8.23	-41.3	-42.3	21.8	0.00e+00	0	41	0	633339904	56	5956
2026-01-25 11:43:31.70	81.23	8.21	-40.9	-42.0	22.1	0.00e+00	0	41	0	635437056	56	5709
2026-01-25 11:43:32.42	81.35	8.20	-40.4	-41.4	22.4	0.00e+00	0	41	0	636485632	54	6031
2026-01-25 11:43:33.71	81.56	8.18	-40.2	-41.2	22.5	0.00e+00	0	42	0	639631360	54	5855
2026-01-25 11:43:34.43	81.68	8.16	-40.1	-41.1	22.7	0.00e+00	0	41	0	640679936	54	5781
2026-01-25 11:43:35.73	81.90	8.14	-40.7	-41.7	22.3	0.00e+00	0	41	0	642777088	54	6223
2026-01-25 11:43:36.45	82.01	8.13	-40.5	-41.6	22.3	0.00e+00	0	42	0	644874240	54	6130
2026-01-25 11:43:37.75	82.23	8.11	-40.9	-42.0	22.0	0.00e+00	0	41	0	646971392	54	6448
2026-01-25 11:43:38.47	82.35	8.09	-41.2	-42.3	21.7	0.00e+00	0	42	0	648019968	54	6687
2026-01-25 11:43:39.77	82.56	8.07	-41.2	-42.4	21.5	0.00e+00	0	41	0	651165696	54	6701
2026-01-25 11:43:40.49	82.68	8.06	-41.3	-42.4	21.5	0.00e+00	0	42	0	652214272	54	6728
2026-01-25 11:43:41.79	82.89	8.03	-41.6	-42.8	21.3	0.00e+00	0	41	0	654311424	54	7079
2026-01-25 11:43:42.51	83.01	8.02	-41.2	-42.3	21.7	0.00e+00	0	41	0	656408576	54	6657
2026-01-25 11:43:43.81	83.22	8.00	-40.8	-41.9	22.0	0.00e+00	0	41	0	658505728	54	6321
2026-01-25 11:43:44.53	83.33	7.98	-41.0	-42.0	22.0	0.00e+00	0	41	0	659554304	54	6455
2026-01-25 11:43:45.83	83.55	7.96	-40.9	-42.0	21.9	0.00e+00	0	41	0	661651456	54	6426
2026-01-25 11:43:46.55	83.66	7.94	-41.0	-42.1	21.6	0.00e+00	0	41	0	663748608	54	6476
2026-01-25 11:43:47.85	83.87	7.92	-41.7	-42.8	21.2	0.00e+00	0	41	0	665845760	54	7068
2026-01-25 11:43:48.57	83.99	7.90	-41.4	-42.5	21.6	0.00e+00	0	41	0	666894336	54	6818
2026-01-25 11:43:49.86	84.20	7.88	-41.5	-42.7	21.3	0.00e+00	0	41	0	670040064	54	6973
2026-01-25 11:43:50.58	84.31	7.86	-41.1	-42.1	21.8	0.00e+00	0	41	0	671088640	54	6537
2026-01-25 11:43:51.88	84.52	7.84	-40.8	-41.8	21.9	0.00e+00	0	41	0	673185792	54	6314
2026-01-25 11:43:52.60	84.64	7.82	-41.2	-42.3	21.5	0.00e+00	0	41	0	675282944	54	6628
2026-01-25 11:43:53.90	84.85	7.79	-41.4	-42.6	21.3	0.00e+00	0	41	0	677380096	54	6849
2026-01-25 11:43:54.62	84.96	7.78	-41.7	-42.8	21.0	0.00e+00	0	41	0	678428672	54	7086
2026-01-25 11:43:55.92	85.17	7.75	-41.8	-42.9	21.0	0.00e+00	0	41	0	680525824	56	6376
2026-01-25 11:43:56.64	85.29	7.74	-41.9	-43.1	20.9	0.00e+00	0	41	0	682622976	56	6498
2026-01-25 11:43:57.93	85.49	7.71	-41.3	-42.4	21.5	0.00e+00	0	41	0	684720128	56	6022
2026-01-25 11:43:58.65	85.61	7.69	-40.7	-41.8	22.0	0.00e+00	0	41	0	685768704	56	5595
2026-01-25 11:43:59.95	85.82	7.67	-40.8	-41.9	22.0	0.00e+00	0	41	0	688914432	54	6350
2026-01-25 11:44:00.67	85.93	7.65	-40.4	-41.4	22.2	0.00e+00	0	41	0	689963008	54	6009
2026-01-25 11:44:01.97	86.14	7.62	-40.8	-41.9	21.9	0.00e+00	0	41	0	692060160	54	6351
2026-01-25 11:44:02.69	86.25	7.61	-40.7	-41.8	22.2	0.00e+00	0	41	0	694157312	54	6249
2026-01-25 11:44:03.99	86.46	7.58	-41.0	-42.0	21.9	0.00e+00	0	41	0	696254464	54	6440
2026-01-25 11:44:04.71	86.57	7.56	-41.0	-42.0	22.0	0.00e+00	0	41	0	697303040	54	6459
2026-01-25 11:44:06.01	86.78	7.53	-40.9	-42.0	21.9	0.00e+00	0	41	0	700448768	54	6398
2026-01-25 11:44:06.73	86.89	7.51	-40.9	-42.0	21.8	0.00e+00	0	41	0	701497344	54	6447
2026-01-25 11:44:08.03	87.09	7.48	-41.1	-42.2	21.7	0.00e+00	0	41	0	703594496	54	6607
2026-01-25 11:44:08.75	87.21	7.47	-41.1	-42.2	21.7	0.00e+00	0	41	0	704643072	54	6587
2026-01-25 11:44:10.04	87.41	7.44	-41.3	-42.5	21.5	0.00e+00	0	41	0	707788800	54	6786
2026-01-25 11:44:10.76	87.52	7.42	-41.4	-42.6	21.4	0.00e+00	0	41	0	708837376	54	6873
2026-01-25 11:44:12.06	87.73	7.39	-41.3	-42.5	21.5	0.00e+00	0	41	0	710934528	54	6792
2026-01-25 11:44:12.78	87.84	7.37	-41.0	-42.1	21.8	0.00e+00	0	41	0	713031680	54	6469
2026-01-25 11:44:14.08	88.04	7.34	-41.1	-42.3	21.6	0.00e+00	0	41	0	715128832	54	6620
2026-01-25 11:44:14.80	88.15	7.32	-41.4	-42.5	21.4	0.00e+00	0	41	0	716177408	54	6837
2026-01-25 11:44:16.10	88.36	7.29	-41.5	-42.6	21.3	0.00e+00	0	41	0	719323136	54	6912
2026-01-25 11:44:16.82	88.47	7.28	-41.5	-42.6	21.3	0.00e+00	0	41	0	720371712	54	6927
2026-01-25 11:44:18.12	88.67	7.24	-41.4	-42.6	21.4	0.00e+00	0	41	0	722468864	54	6891
2026-01-25 11:44:18.84	88.78	7.23	-41.7	-42.9	21.0	0.00e+00	0	41	0	723517440	54	7132
2026-01-25 11:44:20.14	88.98	7.19	-41.5	-42.7	21.3	0.00e+00	0	41	0	726663168	54	6947
2026-01-25 11:44:20.86	89.09	7.17	-41.9	-43.2	21.0	0.00e+00	0	41	0	727711744	56	6544
2026-01-25 11:44:22.15	89.29	7.14	-42.2	-43.5	20.6	0.00e+00	0	41	0	729808896	56	6808
2026-01-25 11:44:22.87	89.40	7.12	-42.4	-43.7	20.4	0.00e+00	0	41	0	731906048	56	6928
2026-01-25 11:44:24.17	89.60	7.09	-42.8	-44.2	20.0	0.00e+00	0	41	0	734003200	58	6585
2026-01-25 11:44:24.89	89.71	7.07	-43.3	-44.7	19.7	0.00e+00	0	41	0	735051776	58	6995
2026-01-25 11:44:26.19	89.91	7.04	-43.5	-45.0	19.1	0.00e+00	0	41	0	738197504	58	7189
2026-01-25 11:44:26.91	90.02	7.02	-43.0	-44.4	20.0	0.00e+00	0	41	0	739246080	60	6000
2026-01-25 11:44:28.21	90.22	6.99	-43.2	-44.7	19.4	0.00e+00	0	41	0	741343232	58	6966
2026-01-25 11:44:28.93	90.33	6.97	-43.1	-44.5	19.6	0.00e+00	0	41	0	742391808	58	6833
2026-01-25 11:44:30.23	90.52	6.93	-42.6	-44.0	20.3	0.00e+00	0	41	0	745537536	58	6422
2026-01-25 11:44:30.95	90.63	6.91	-42.9	-44.3	19.8	0.00e+00	0	41	0	746586112	58	6669
2026-01-25 11:44:32.24	90.83	6.88	-43.6	-45.2	18.9	0.00e+00	0	41	0	748683264	58	7359
2026-01-25 11:44:32.97	90.94	6.86	-44.1	-45.8	18.6	0.00e+00	0	41	0	750780416	60	7052
2026-01-25 11:44:34.26	91.13	6.82	-43.2	-44.7	19.3	0.00e+00	0	41	0	752877568	60	6233
2026-01-25 11:44:34.99	91.24	6.81	-43.0	-44.5	19.6	0.00e+00	0	41	0	753926144	60	6072
2026-01-25 11:44:36.28	91.44	6.77	-43.8	-45.5	18.7	0.00e+00	0	41	0	757071872	60	6793
2026-01-25 11:44:37.00	91.55	6.75	-43.9	-45.5	18.9	0.00e+00	0	41	0	758120448	60	6836
2026-01-25 11:44:38.30	91.74	6.71	-43.6	-45.2	18.9	0.00e+00	0	41	0	760217600	60	6572
2026-01-25 11:44:39.02	91.85	6.69	-43.5	-45.1	19.1	0.00e+00	0	41	0	762314752	60	6512
2026-01-25 11:44:40.32	92.04	6.66	-43.0	-44.5	19.7	0.00e+00	0	41	0	764411904	60	6091
2026-01-25 11:44:41.04	92.15	6.64	-43.1	-44.6	19.5	0.00e+00	0	41	0	765460480	60	6153
2026-01-25 11:44:42.34	92.34	6.60	-42.5	-43.9	20.2	0.00e+00	0	41	0	767557632	58	6382
2026-01-25 11:44:43.06	92.45	6.58	-42.7	-44.1	20.0	0.00e+00	0	41	0	769654784	58	6475
2026-01-25 11:44:44.36	92.64	6.54	-42.9	-44.3	19.7	0.00e+00	0	41	0	771751936	58	6683
2026-01-25 11:44:45.08	92.75	6.52	-43.1	-44.6	19.4	0.00e+00	0	41	0	772800512	58	6924
2026-01-25 11:44:46.38	92.94	6.49	-43.2	-44.7	19.4	0.00e+00	0	41	0	775946240	58	6981
2026-01-25 11:44:47.10	93.05	6.47	-43.4	-45.0	19.2	0.00e+00	0	41	0	776994816	58	7177
2026-01-25 11:44:48.40	93.24	6.43	-43.5	-45.1	19.0	0.00e+00	0	41	0	779091968	58	7300
2026-01-25 11:44:49.12	93.34	6.41	-43.7	-45.4	18.9	0.00e+00	0	41	0	781189120	60	6716
2026-01-25 11:44:50.41	93.53	6.37	-43.8	-45.4	18.8	0.00e+00	0	41	0	783286272	60	6766
2026-01-25 11:44:51.14	93.64	6.35	-43.6	-45.2	18.9	0.00e+00	0	41	0	784334848	60	6614
2026-01-25 11:44:52.43	93.83	6.31	-43.6	-45.2	18.8	0.00e+00	0	41	0	786432000	60	6582
2026-01-25 11:44:53.15	93.93	6.29	-43.8	-45.4	18.7	0.00e+00	0	41	0	788529152	60	6720
2026-01-25 11:44:54.45	94.12	6.25	-44.0	-45.7	18.3	0.00e+00	0	41	0	790626304	60	6994
2026-01-25 11:44:55.17	94.22	6.23	-44.3	-46.2	18.0	0.00e+00	0	41	0	791674880	60	7360
2026-01-25 11:44:56.47	94.41	6.19	-44.5	-46.5	17.8	0.00e+00	0	41	0	794820608	60	7657
2026-01-25 11:44:57.19	94.52	6.17	-44.5	-46.5	17.7	0.00e+00	0	41	0	795869184	60	7650
2026-01-25 11:44:58.49	94.70	6.13	-44.5	-46.7	17.4	0.00e+00	0	41	0	797966336	60	7807
2026-01-25 11:44:59.21	94.81	6.11	-44.9	-47.1	17.0	0.00e+00	0	41	0	800063488	60	8222
2026-01-25 11:45:00.50	94.99	6.07	-45.0	-47.3	16.9	0.00e+00	0	41	0	802160640	60	8387
2026-01-25 11:45:01.22	95.09	6.05	-44.9	-47.2	17.0	0.00e+00	0	41	0	803209216	60	8268
2026-01-25 11:45:02.52	95.28	6.01	-44.7	-46.8	17.6	0.00e+00	0	41	0	806354944	60	7869
2026-01-25 11:45:03.24	95.38	5.99	-44.8	-46.9	17.3	0.00e+00	0	41	0	807403520	60	7970
2026-01-25 11:45:04.54	95.57	5.95	-44.5	-46.6	17.6	0.00e+00	0	41	0	809500672	60	7694
2026-01-25 11:45:05.26	95.67	5.92	-44.1	-46.0	18.2	0.00e+00	0	41	0	810549248	60	7201
2026-01-25 11:45:06.56	95.85	5.88	-44.0	-46.0	18.2	0.00e+00	0	41	0	813694976	60	7192
2026-01-25 11:45:07.28	95.96	5.86	-44.0	-46.0	18.2	0.00e+00	0	41	0	814743552	60	7213
2026-01-25 11:45:08.58	96.14	5.82	-44.2	-46.3	17.9	0.00e+00	0	41	0	816840704	60	7474
2026-01-25 11:45:09.30	96.24	5.80	-43.8	-45.7	18.4	0.00e+00	0	41	0	818937856	60	6994
2026-01-25 11:45:10.60	96.42	5.76	-44.0	-45.9	18.3	0.00e+00	0	41	0	821035008	60	7120
2026-01-25 11:45:11.32	96.53	5.73	-43.9	-45.7	18.4	0.00e+00	0	41	0	822083584	60	6971
2026-01-25 11:45:12.61	96.71	5.69	-43.9	-45.7	18.4	0.00e+00	0	41	0	825229312	60	6976
2026-01-25 11:45:13.34	96.81	5.67	-44.0	-45.8	18.2	0.00e+00	0	41	0	826277888	60	7041
2026-01-25 11:45:14.63	96.99	5.63	-44.2	-46.1	17.7	0.00e+00	0	41	0	828375040	60	7324
2026-01-25 11:45:15.35	97.09	5.61	-44.7	-46.8	17.1	0.00e+00	0	41	0	830472192	60	7893
2026-01-25 11:45:16.65	97.27	5.57	-44.5	-46.5	17.3	0.00e+00	0	41	0	832569344	60	7620
2026-01-25 11:45:17.37	97.37	5.54	-44.5	-46.5	17.4	0.00e+00	0	41	0	833617920	60	7617
2026-01-25 11:45:18.67	97.55	5.50	-44.6	-46.7	17.5	0.00e+00	0	41	0	835715072	60	7826
2026-01-25 11:45:19.39	97.65	5.48	-44.3	-46.2	18.0	0.00e+00	0	41	0	837812224	60	7374
2026-01-25 11:45:20.68	97.82	5.43	-44.9	-47.1	17.1	0.00e+00	0	41	0	839909376	60	8139
2026-01-25 11:45:21.41	97.92	5.41	-44.6	-46.7	17.4	0.00e+00	0	41	0	840957952	60	7816
2026-01-25 11:45:22.70	98.10	5.37	-44.5	-46.6	17.5	0.00e+00	0	41	0	844103680	60	7700
2026-01-25 11:45:23.43	98.20	5.35	-45.4	-47.8	16.3	0.00e+00	0	41	0	845152256	60	8885
2026-01-25 11:45:24.72	98.38	5.30	-44.6	-46.7	17.6	0.00e+00	0	41	0	847249408	60	7809
2026-01-25 11:45:25.44	98.48	5.28	-43.7	-45.4	18.7	0.00e+00	0	41	0	848297984	60	6743
2026-01-25 11:45:26.74	98.65	5.24	-42.8	-44.4	19.5	0.00e+00	0	41	0	851443712	58	6713
2026-01-25 11:45:27.46	98.75	5.21	-43.3	-44.9	19.0	0.00e+00	0	41	0	852492288	58	7147
2026-01-25 11:45:28.75	98.92	5.17	-42.4	-43.8	20.2	0.00e+00	0	41	0	854589440	58	6287
2026-01-25 11:45:29.48	99.02	5.15	-42.7	-44.2	19.7	0.00e+00	0	41	0	856686592	58	6603
2026-01-25 11:45:30.78	99.20	5.10	-44.4	-46.5	17.5	0.00e+00	0	41	0	858783744	60	7602
2026-01-25 11:45:31.50	99.29	5.08	-44.8	-47.0	17.4	0.00e+00	0	41	0	859832320	60	8096
2026-01-25 11:45:32.80	99.47	5.03	-43.1	-44.8	19.3	0.00e+00	0	41	0	862978048	60	6296
2026-01-25 11:45:33.52	99.57	5.01	-43.9	-45.9	18.0	0.00e+00	0	41	0	864026624	60	7097
2026-01-25 11:45:34.81	99.74	4.97	-44.5	-46.7	17.3	0.00e+00	0	41	0	866123776	60	7787
2026-01-25 11:45:35.54	99.83	4.94	-44.1	-46.1	17.6	0.00e+00	0	41	0	868220928	60	7319
2026-01-25 11:45:36.83	100.01	4.90	-44.4	-46.5	16.9	0.00e+00	0	41	0	870318080	60	7597
2026-01-25 11:45:37.55	100.10	4.87	-44.8	-47.1	16.2	0.00e+00	0	41	0	871366656	60	8151
2026-01-25 11:45:38.85	100.27	4.83	-44.3	-46.3	17.5	0.00e+00	0	41	0	874512384	60	7451
2026-01-25 11:45:39.57	100.37	4.80	-43.5	-45.2	18.7	0.00e+00	0	41	0	875560960	60	6561
2026-01-25 11:45:40.86	100.54	4.76	-43.9	-45.7	18.2	0.00e+00	0	41	0	877658112	60	6979
2026-01-25 11:45:41.58	100.63	4.74	-44.1	-46.0	17.9	0.00e+00	0	41	0	878706688	60	7252
2026-01-25 11:45:42.88	100.80	4.69	-43.2	-44.9	18.9	0.00e+00	0	41	0	881852416	60	6337
2026-01-25 11:45:43.60	100.90	4.67	-42.8	-44.5	19.1	0.00e+00	0	41	0	882900992	58	6770
2026-01-25 11:45:44.90	101.07	4.62	-42.9	-44.6	19.1	0.00e+00	0	41	0	884998144	58	6877
2026-01-25 11:45:45.62	101.16	4.60	-43.4	-45.3	18.7	0.00e+00	0	41	0	887095296	58	7431
2026-01-25 11:45:46.92	101.33	4.55	-42.7	-44.4	19.4	0.00e+00	0	41	0	889192448	58	6697
2026-01-25 11:45:47.64	101.42	4.53	-42.3	-44.0	19.7	0.00e+00	0	41	0	890241024	58	6431
2026-01-25 11:45:48.94	101.59	4.48	-41.8	-43.5	20.0	0.00e+00	0	41	0	893386752	58	6074
2026-01-25 11:45:49.66	101.68	4.46	-42.3	-44.2	19.4	0.00e+00	0	41	0	894435328	58	6600
2026-01-25 11:45:50.96	101.85	4.41	-43.4	-45.8	18.0	0.00e+00	0	41	0	896532480	58	7950
2026-01-25 11:45:51.68	101.94	4.39	-42.9	-44.9	18.9	0.00e+00	0	41	0	897581056	58	7141
2026-01-25 11:45:52.98	102.11	4.34	-43.1	-45.0	18.9	0.00e+00	0	41	0	900726784	58	7199
2026-01-25 11:45:53.70	102.20	4.31	-43.6	-45.5	18.3	0.00e+00	0	41	0	901775360	58	7683
2026-01-25 11:45:54.99	102.37	4.27	-44.2	-46.2	17.6	0.00e+00	0	41	0	903872512	60	7419
2026-01-25 11:45:55.71	102.46	4.24	-43.4	-45.3	18.4	0.00e+00	0	41	0	905969664	60	6620
2026-01-25 11:45:57.01	102.62	4.20	-41.0	-42.4	20.4	0.00e+00	0	41	0	908066816	56	5977
2026-01-25 11:45:57.73	102.71	4.17	-43.7	-46.1	16.8	0.00e+00	0	41	0	909115392	58	8215
2026-01-25 11:45:59.03	102.88	4.13	-44.4	-47.1	16.8	0.00e+00	0	41	0	912261120	60	8171
2026-01-25 11:45:59.75	102.97	4.10	-42.7	-44.6	19.2	0.00e+00	0	41	0	913309696	60	6110
2026-01-25 11:46:01.05	103.13	4.05	-42.9	-44.7	18.7	0.00e+00	0	41	0	915406848	56	7796
2026-01-25 11:46:01.77	103.22	4.03	-44.9	-47.2	16.4	0.00e+00	0	41	0	916455424	60	8307
2026-01-25 11:46:03.06	103.39	3.98	-44.5	-46.6	17.1	0.00e+00	0	41	0	919601152	60	7730
2026-01-25 11:46:03.78	103.47	3.96	-44.9	-47.1	16.4	0.00e+00	0	41	0	920649728	60	8223
2026-01-25 11:46:05.07	103.64	3.91	-43.1	-44.8	18.4	0.00e+00	0	41	0	922746880	60	6270
2026-01-25 11:46:05.79	103.73	3.88	-43.3	-45.3	18.2	0.00e+00	0	41	0	924844032	60	6656
2026-01-25 11:46:07.09	103.89	3.84	-43.8	-46.2	17.3	0.00e+00	0	41	0	926941184	60	7412
2026-01-25 11:46:07.81	103.98	3.81	-43.8	-46.1	17.6	0.00e+00	0	41	0	927989760	60	7296
2026-01-25 11:46:09.11	104.14	3.76	-43.2	-45.1	18.5	0.00e+00	0	41	0	931135488	60	6525
2026-01-25 11:46:09.83	104.22	3.74	-43.0	-44.9	18.6	0.00e+00	0	41	0	932184064	60	6378
2026-01-25 11:46:11.13	104.38	3.69	-42.9	-44.8	18.5	0.00e+00	0	41	0	934281216	60	6249
2026-01-25 11:46:11.85	104.47	3.66	-43.3	-45.2	18.2	0.00e+00	0	41	0	936378368	60	6582
2026-01-25 11:46:13.15	104.63	3.62	-42.5	-44.0	19.4	0.00e+00	0	41	0	938475520	58	6424
2026-01-25 11:46:13.87	104.72	3.59	-42.5	-44.0	19.4	0.00e+00	0	41	0	939524096	58	6453
2026-01-25 11:46:15.16	104.88	3.54	-42.9	-44.7	18.7	0.00e+00	0	41	0	941621248	58	6997
2026-01-25 11:46:15.88	104.96	3.52	-42.6	-44.7	18.6	0.00e+00	0	41	0	943718400	58	6985
2026-01-25 11:46:17.18	105.12	3.47	-41.5	-43.4	19.8	0.00e+00	0	41	0	945815552	56	6709
2026-01-25 11:46:17.90	105.21	3.44	-41.4	-43.3	19.7	0.00e+00	0	41	0	946864128	56	6644
2026-01-25 11:46:19.20	105.36	3.40	-42.6	-44.4	18.8	0.00e+00	0	41	0	950009856	56	7528
2026-01-25 11:46:19.92	105.45	3.37	-42.8	-44.5	18.8	0.00e+00	0	41	0	951058432	58	6795
2026-01-25 11:46:21.22	105.61	3.32	-41.9	-43.3	19.5	0.00e+00	0	41	0	953155584	56	6688
2026-01-25 11:46:21.94	105.69	3.29	-43.0	-44.7	18.4	0.00e+00	0	41	0	955252736	58	6963
2026-01-25 11:46:23.24	105.85	3.25	-43.2	-45.0	17.9	0.00e+00	0	41	0	957349888	58	7221
2026-01-25 11:46:23.96	105.93	3.22	-43.3	-45.1	17.7	0.00e+00	0	41	0	958398464	58	7331
2026-01-25 11:46:25.26	106.09	3.17	-43.7	-45.8	16.5	0.00e+00	0	41	0	961544192	58	7913
2026-01-25 11:46:25.98	106.17	3.15	-43.4	-45.6	17.6	0.00e+00	0	41	0	962592768	60	6883
2026-01-25 11:46:27.28	106.33	3.10	-43.1	-45.1	17.5	0.00e+00	0	41	0	964689920	58	7270
2026-01-25 11:46:28.00	106.41	3.07	-44.1	-46.5	16.2	0.00e+00	0	41	0	965738496	60	7674
2026-01-25 11:46:29.29	106.56	3.02	-45.3	-48.2	14.4	7.00e-07	0	41	0	968884224	60	9322
2026-01-25 11:46:30.01	106.65	3.00	-50.0	-65.3	3.6	1.51e+00	0	41	104	968884224	60	66161
2026-01-25 11:46:31.31	106.80	2.95	-50.5	-65.8	3.6	1.51e+00	0	41	104	968884224	60	70354
2026-01-25 11:46:32.03	106.88	2.92	-50.6	-65.9	3.6	1.51e+00	0	41	104	968884224	60	71253
2026-01-25 11:46:33.33	107.03	2.87	-50.8	-66.0	3.6	1.51e+00	0	41	104	968884224	60	72229
2026-01-25 11:46:34.05	107.12	2.84	-50.8	-66.2	3.6	1.51e+00	0	41	104	968884224	60	73576
2026-01-25 11:46:35.35	107.27	2.80	-51.1	-66.3	3.6	1.51e+00	0	41	104	968884224	60	74494
2026-01-25 11:46:36.07	107.35	2.77	-51.1	-66.3	3.6	1.51e+00	0	41	104	968884224	60	74889
2026-01-25 11:46:37.37	107.50	2.72	-51.2	-66.4	3.6	1.51e+00	0	41	104	968884224	60	75394
2026-01-25 11:46:38.09	107.58	2.69	-51.0	-66.4	3.6	1.51e+00	0	41	104	968884224	60	75212
2026-01-25 11:46:39.39	107.73	2.64	-51.2	-66.4	3.6	1.51e+00	0	41	104	968884224	60	75419
2026-01-25 11:46:40.11	107.82	2.62	-51.2	-66.4	3.6	1.51e+00	0	41	104	968884224	60	75802
2026-01-25 11:46:41.40	107.96	2.57	-51.2	-66.4	3.6	1.51e+00	0	41	104	968884224	60	75293
2026-01-25 11:46:42.13	108.05	2.54	-51.2	-66.4	3.6	1.51e+00	0	41	104	968884224	60	75903
2026-01-25 11:46:43.42	108.19	2.49	-51.3	-66.5	3.6	1.51e+00	0	41	104	968884224	60	76169
2026-01-25 11:46:44.15	108.28	2.46	-51.3	-66.5	3.6	1.51e+00	0	41	104	968884224	60	76652
2026-01-25 11:46:45.44	108.42	2.41	-51.3	-66.5	3.6	1.51e+00	0	41	104	968884224	60	76423
2026-01-25 11:46:46.17	108.50	2.39	-51.3	-66.5	3.6	1.51e+00	0	41	104	968884224	60	76591
2026-01-25 11:46:47.46	108.65	2.34	-51.3	-66.5	3.6	1.51e+00	0	41	104	968884224	60	76374
2026-01-25 11:46:48.18	108.73	2.31	-51.2	-66.5	3.6	1.51e+00	0	41	104	968884224	60	76128
2026-01-25 11:46:49.48	108.88	2.26	-51.3	-66.4	3.6	1.51e+00	0	41	104	968884224	60	75757
2026-01-25 11:46:50.20	108.96	2.23	-51.4	-66.6	3.6	1.51e+00	0	41	104	968884224	60	76945
2026-01-25 11:46:51.50	109.10	2.18	-51.4	-66.6	3.6	1.51e+00	0	41	104	968884224	60	76863
2026-01-25 11:46:52.22	109.18	2.16	-51.4	-66.6	3.6	1.51e+00	0	41	104	968884224	60	77232
2026-01-25 11:46:53.52	109.32	2.11	-51.4	-66.6	3.6	1.51e+00	0	41	104	968884224	60	77062
2026-01-25 11:46:54.24	109.40	2.08	-51.4	-66.6	3.6	1.51e+00	0	41	104	968884224	60	76886
2026-01-25 11:46:55.54	109.55	2.03	-51.4	-66.6	3.6	1.51e+00	0	41	104	968884224	60	77033
2026-01-25 11:46:56.26	109.63	2.00	-51.4	-66.6	3.6	1.51e+00	0	41	104	968884224	60	77413
2026-01-25 11:46:57.56	109.77	1.95	-51.4	-66.6	3.6	1.51e+00	0	41	104	968884224	60	77432
2026-01-25 11:46:58.28	109.85	1.92	-51.4	-66.6	3.6	1.51e+00	0	41	104	968884224	60	77707
2026-01-25 11:46:59.58	109.99	1.87	-51.4	-66.6	3.6	1.51e+00	0	41	104	968884224	60	77675
2026-01-25 11:47:00.30	110.07	1.85	-51.4	-66.6	3.6	1.51e+00	0	41	104	968884224	60	77427
2026-01-25 11:47:01.60	110.21	1.80	-51.5	-66.7	3.6	1.51e+00	0	41	104	968884224	60	78603
2026-01-25 11:47:02.32	110.29	1.77	-51.5	-66.8	3.5	1.51e+00	0	41	104	968884224	60	78961
2026-01-25 11:47:03.62	110.43	1.72	-51.6	-66.8	3.6	1.51e+00	0	41	104	968884224	60	79247
2026-01-25 11:47:04.34	110.51	1.69	-51.5	-66.8	3.6	1.51e+00	0	41	104	968884224	60	78715
2026-01-25 11:47:05.64	110.65	1.64	-51.5	-66.8	3.6	1.51e+00	0	41	104	968884224	60	78917
2026-01-25 11:47:06.36	110.72	1.61	-51.5	-66.7	3.6	1.51e+00	0	41	104	968884224	60	78564
2026-01-25 11:47:07.66	110.86	1.56	-51.5	-66.8	3.6	1.51e+00	0	41	104	968884224	60	78953
2026-01-25 11:47:08.38	110.94	1.54	-51.5	-66.8	3.6	1.51e+00	0	41	104	968884224	60	78632
2026-01-25 11:47:09.68	111.08	1.48	-51.6	-66.8	3.6	1.51e+00	0	41	104	968884224	60	79284
2026-01-25 11:47:10.40	111.15	1.46	-51.6	-66.9	3.6	1.51e+00	0	41	104	968884224	60	79557
2026-01-25 11:47:11.70	111.29	1.41	-51.7	-66.9	3.6	1.51e+00	0	41	104	968884224	60	80337
2026-01-25 11:47:12.42	111.37	1.38	-51.8	-67.0	3.6	1.51e+00	0	41	104	968884224	60	81201
2026-01-25 11:47:13.72	111.50	1.33	-51.7	-66.8	3.6	1.51e+00	0	41	104	968884224	60	79450
2026-01-25 11:47:14.44	111.58	1.30	-51.7	-66.9	3.6	1.51e+00	0	41	104	968884224	60	80246
2026-01-25 11:47:15.74	111.72	1.25	-51.7	-66.9	3.6	1.51e+00	0	41	104	968884224	60	80258
2026-01-25 11:47:16.46	111.79	1.22	-51.7	-66.9	3.6	1.51e+00	0	41	104	968884224	60	80362
2026-01-25 11:47:17.76	111.93	1.17	-51.5	-66.8	3.6	1.51e+00	0	41	104	968884224	60	78671
2026-01-25 11:47:18.48	112.00	1.14	-51.7	-66.9	3.6	1.51e+00	0	41	104	968884224	60	80156
2026-01-25 11:47:19.78	112.14	1.09	-51.8	-67.0	3.6	1.51e+00	0	41	104	968884224	60	80522
2026-01-25 11:47:20.50	112.21	1.06	-51.6	-66.8	3.6	1.51e+00	0	41	104	968884224	60	79412
2026-01-25 11:47:21.80	112.35	1.01	-52.0	-67.2	3.6	1.51e+00	0	41	104	968884224	60	83094
2026-01-25 11:47:22.52	112.42	0.99	-51.9	-67.2	3.6	1.51e+00	0	41	104	968884224	60	82395
2026-01-25 11:47:23.82	112.55	0.94	-51.7	-67.0	3.6	1.51e+00	0	41	104	968884224	60	80561
2026-01-25 11:47:24.54	112.63	0.91	-51.8	-67.0	3.6	1.51e+00	0	41	104	968884224	60	80711
2026-01-25 11:47:25.84	112.76	0.86	-51.7	-67.0	3.5	1.51e+00	0	41	104	968884224	60	80558
2026-01-25 11:47:26.56	112.83	0.83	-51.7	-66.9	3.6	1.51e+00	0	41	104	968884224	60	80237
2026-01-25 11:47:27.86	112.97	0.78	-51.9	-67.1	3.6	1.51e+00	0	41	104	968884224	60	82090
2026-01-25 11:47:28.58	113.04	0.75	-52.2	-67.4	3.5	1.51e+00	0	41	104	968884224	60	84847
2026-01-25 11:47:29.88	113.17	0.70	-51.5	-66.8	3.6	1.51e+00	0	41	104	968884224	60	78728
2026-01-25 11:47:30.60	113.24	0.67	-51.8	-67.0	3.6	1.51e+00	0	41	104	968884224	60	80946
2026-01-25 11:47:31.90	113.37	0.62	-51.8	-67.0	3.6	1.51e+00	0	41	104	968884224	60	81184
2026-01-25 11:47:32.62	113.45	0.59	-52.0	-67.3	3.6	1.51e+00	0	41	104	968884224	60	83499
2026-01-25 11:47:33.92	113.58	0.54	-52.1	-67.3	3.6	1.51e+00	0	41	104	968884224	60	84109
2026-01-25 11:47:34.64	113.65	0.51	-52.0	-67.2	3.5	1.51e+00	0	41	104	968884224	60	82555
2026-01-25 11:47:35.94	113.78	0.46	-51.8	-67.0	3.6	1.51e+00	0	41	104	968884224	60	81154
2026-01-25 11:47:36.66	113.85	0.43	-51.9	-67.1	3.6	1.51e+00	0	41	104	968884224	60	81680
2026-01-25 11:47:37.96	113.98	0.38	-51.8	-67.1	3.6	1.51e+00	0	41	104	968884224	60	81584
2026-01-25 11:47:38.68	114.05	0.35	-51.8	-67.1	3.6	1.51e+00	0	41	104	968884224	60	81475
2026-01-25 11:47:39.98	114.18	0.30	-52.1	-67.2	3.6	1.51e+00	0	41	104	968884224	60	83236
2026-01-25 11:47:40.70	114.25	0.27	-52.0	-67.2	3.6	1.51e+00	0	41	104	968884224	60	83120
2026-01-25 11:47:42.00	114.38	0.22	-51.8	-67.1	3.6	1.51e+00	0	41	104	968884224	60	81673
2026-01-25 11:47:42.72	114.45	0.19	-51.8	-67.1	3.6	1.51e+00	0	41	104	968884224	60	81592
2026-01-25 11:47:44.02	114.57	0.14	-51.8	-67.1	3.6	1.51e+00	0	41	104	968884224	60	81483
2026-01-25 11:47:44.74	114.64	0.11	-52.3	-67.5	3.6	1.51e+00	0	41	104	968884224	60	86115
2026-01-25 11:47:46.04	114.77	0.06	-52.0	-67.2	3.6	1.51e+00	0	41	104	968884224	60	82671
2026-01-25 11:47:46.76	114.84	0.04	-52.3	-67.5	3.6	1.51e+00	0	41	104	968884224	60	85899
2026-01-25 11:47:48.05	114.97	-0.02	-51.7	-66.9	3.6	1.51e+00	0	41	104	968884224	60	79920
2026-01-25 11:47:48.77	115.03	-0.04	-51.8	-67.0	3.6	1.51e+00	0	41	104	968884224	60	80971

#Closed at: 2026-01-25 11:47:49
#Recorded file [968 MB]: D:/lorett/data/35029_260125_233638.dat