passes_logs/2026/01/25/R4.6S_Anadyr/R4.6S_Anadyr__20260125_115705_NOAA_20_JPSS-1_rec.log

#Pass ID: 20260125_115705_NOAA 20 (JPSS-1)
#Satellite: NOAA 20 (JPSS-1)
#Configuration: NOAA 20
#almurnet v.1.7.20251203
#Start time: 2026-01-25 11:57:07

#Version: 2.2.20231116
#Station: R4.6S_Anadyr
#Location: 177.4865 lon 64.73178 lat
#TLE: 1 43013U 17073A   26024.91598314  .00000178  00000+0  10511-3 0  9999
#TLE: 2 43013  98.7646 325.7511 0001081  25.0859 335.0369 14.19539982424141

#Time	Az	El	Level	Level2	SNR	BER	BlckErr	Temp	State	Recorded	gain1	gain2
2026-01-25 11:57:07.55	19.78	0.07	-52.5	-67.4	3.5	1.51e+00	0	39	0	0	60	85131
2026-01-25 11:57:08.56	19.87	0.12	-51.9	-67.1	3.6	1.51e+00	0	40	104	0	60	82127
2026-01-25 11:57:09.57	19.95	0.16	-51.7	-66.9	3.6	1.51e+00	0	40	104	0	60	79876
2026-01-25 11:57:10.58	20.04	0.21	-51.8	-67.0	3.6	1.51e+00	0	40	104	0	60	81225
2026-01-25 11:57:11.59	20.13	0.25	-51.6	-66.8	3.6	1.51e+00	0	40	104	0	60	79183
2026-01-25 11:57:12.60	20.22	0.30	-51.6	-66.8	3.6	1.51e+00	0	40	104	0	60	78985
2026-01-25 11:57:13.61	20.30	0.34	-51.5	-66.8	3.6	1.51e+00	0	40	104	0	60	78966
2026-01-25 11:57:14.62	20.39	0.39	-51.6	-66.8	3.6	1.51e+00	0	40	104	0	60	79341
2026-01-25 11:57:15.63	20.48	0.43	-51.6	-66.8	3.6	1.51e+00	0	40	104	0	60	78657
2026-01-25 11:57:16.64	20.57	0.48	-51.5	-66.8	3.6	1.51e+00	0	40	104	0	60	78765
2026-01-25 11:57:17.65	20.66	0.52	-51.4	-66.7	3.6	1.51e+00	0	40	104	0	60	77782
2026-01-25 11:57:18.66	20.75	0.57	-51.4	-66.6	3.6	1.51e+00	0	40	104	0	60	77107
2026-01-25 11:57:19.67	20.84	0.61	-51.3	-66.6	3.6	1.51e+00	0	40	104	0	60	77075
2026-01-25 11:57:20.68	20.93	0.66	-51.3	-66.5	3.6	1.51e+00	0	40	104	0	60	76801
2026-01-25 11:57:21.68	21.01	0.70	-51.3	-66.5	3.6	1.51e+00	0	40	104	0	60	76425
2026-01-25 11:57:22.70	21.11	0.75	-51.2	-66.4	3.6	1.51e+00	0	41	104	0	60	75201
2026-01-25 11:57:23.71	21.20	0.79	-51.1	-66.3	3.6	1.51e+00	0	41	104	0	60	74712
2026-01-25 11:57:24.71	21.28	0.84	-51.0	-66.2	3.6	1.51e+00	0	41	104	0	60	74142
2026-01-25 11:57:25.72	21.38	0.88	-50.9	-66.1	3.6	1.51e+00	0	41	104	0	60	72592
2026-01-25 11:57:26.74	21.47	0.93	-50.8	-66.1	3.6	1.51e+00	0	40	104	0	60	72610
2026-01-25 11:57:27.74	21.56	0.97	-50.7	-65.9	3.6	1.51e+00	0	41	104	0	60	71590
2026-01-25 11:57:28.76	21.65	1.02	-50.7	-65.8	3.6	1.51e+00	0	41	104	0	60	70556
2026-01-25 11:57:29.76	21.74	1.06	-50.5	-65.7	3.6	1.51e+00	0	41	104	0	60	69446
2026-01-25 11:57:30.77	21.83	1.11	-50.2	-65.4	3.5	1.51e+00	0	41	104	0	60	67369
2026-01-25 11:57:31.78	21.93	1.15	-49.9	-65.1	3.6	1.51e+00	0	41	104	0	60	65043
2026-01-25 11:57:32.79	22.02	1.20	-49.5	-64.6	3.6	1.51e+00	0	41	104	0	60	61585
2026-01-25 11:57:33.80	22.11	1.24	-49.5	-64.6	3.6	1.51e+00	0	41	104	0	60	61421
2026-01-25 11:57:34.81	22.20	1.29	-49.5	-64.6	3.6	1.51e+00	0	41	104	0	60	61445
2026-01-25 11:57:35.82	22.30	1.33	-49.5	-64.6	3.6	1.51e+00	0	41	104	0	60	61601
2026-01-25 11:57:36.83	22.39	1.38	-49.5	-64.7	3.6	1.51e+00	0	41	104	0	60	61811
2026-01-25 11:57:37.84	22.49	1.42	-49.4	-64.7	3.6	1.51e+00	0	41	104	0	60	61750
2026-01-25 11:57:38.85	22.58	1.47	-49.5	-64.6	3.6	1.51e+00	0	41	104	0	60	61667
2026-01-25 11:57:39.86	22.67	1.51	-49.5	-64.7	3.6	1.51e+00	0	41	104	0	60	62015
2026-01-25 11:57:40.87	22.77	1.56	-49.5	-64.6	3.6	1.51e+00	0	41	104	0	60	61533
2026-01-25 11:57:41.88	22.86	1.60	-49.5	-64.6	3.6	1.51e+00	0	41	104	0	60	61738
2026-01-25 11:57:42.89	22.96	1.65	-49.5	-64.6	3.6	1.51e+00	0	41	104	0	60	61451
2026-01-25 11:57:43.90	23.05	1.70	-49.5	-64.6	3.6	1.51e+00	0	41	104	0	60	61620
2026-01-25 11:57:44.91	23.15	1.74	-49.5	-64.7	3.6	1.51e+00	0	41	104	0	60	61780
2026-01-25 11:57:45.92	23.25	1.79	-49.5	-64.7	3.6	1.51e+00	0	41	104	0	60	61785
2026-01-25 11:57:46.92	23.34	1.83	-49.5	-64.7	3.6	1.51e+00	0	41	104	0	60	61900
2026-01-25 11:57:47.94	23.44	1.88	-49.5	-64.7	3.6	1.51e+00	0	41	104	0	60	61887
2026-01-25 11:57:48.94	23.54	1.92	-49.5	-64.7	3.6	1.51e+00	0	41	104	0	60	62081
2026-01-25 11:57:49.96	23.63	1.97	-49.5	-64.7	3.6	1.51e+00	0	41	104	0	60	61887
2026-01-25 11:57:50.97	23.73	2.01	-49.5	-64.6	3.6	1.51e+00	0	41	104	0	60	61505
2026-01-25 11:57:51.97	23.83	2.06	-49.5	-64.6	3.5	1.51e+00	0	41	104	0	60	61188
2026-01-25 11:57:52.98	23.93	2.10	-49.5	-64.4	3.6	1.51e+00	0	41	104	0	60	60123
2026-01-25 11:57:53.99	24.02	2.15	-49.5	-64.4	3.6	1.51e+00	0	41	104	0	60	59735
2026-01-25 11:57:55.00	24.12	2.19	-49.5	-64.5	3.6	1.51e+00	0	41	104	0	60	61005
2026-01-25 11:57:56.01	24.22	2.24	-49.5	-64.6	3.6	1.51e+00	0	41	104	0	60	61421
2026-01-25 11:57:57.02	24.32	2.28	-49.5	-64.7	3.6	1.51e+00	0	41	104	0	60	61831
2026-01-25 11:57:58.03	24.42	2.33	-49.5	-64.6	3.6	1.51e+00	0	41	104	0	60	61586
2026-01-25 11:57:59.04	24.52	2.37	-49.5	-64.5	3.6	1.51e+00	0	41	104	0	60	60751
2026-01-25 11:58:00.05	24.62	2.42	-49.5	-63.8	3.6	1.51e+00	0	41	104	0	60	55718
2026-01-25 11:58:01.06	24.72	2.47	-49.4	-62.7	3.6	1.51e+00	0	41	104	0	60	49413
2026-01-25 11:58:02.07	24.82	2.51	-49.5	-64.0	3.6	1.51e+00	0	41	104	0	60	57525
2026-01-25 11:58:03.08	24.92	2.56	-49.4	-63.8	3.6	1.51e+00	0	41	104	0	60	56025
2026-01-25 11:58:04.09	25.02	2.60	-49.1	-59.4	4.0	1.50e+00	0	41	104	0	60	33563
2026-01-25 11:58:05.10	25.13	2.65	-48.8	-56.8	6.4	4.07e-01	0	41	0	0	60	24946
2026-01-25 11:58:06.11	25.23	2.69	-47.5	-51.8	12.2	7.17e-03	0	41	0	2097152	60	14020
2026-01-25 11:58:07.12	25.33	2.74	-46.6	-49.8	13.7	1.55e-03	0	41	0	4194304	60	11221
2026-01-25 11:58:08.13	25.43	2.78	-43.4	-45.0	18.8	0.00e+00	0	41	0	5242880	60	6442
2026-01-25 11:58:09.14	25.54	2.83	-44.1	-46.0	17.5	0.00e+00	0	41	0	7340032	60	7247
2026-01-25 11:58:10.15	25.64	2.87	-43.8	-45.5	18.2	0.00e+00	0	41	0	9437184	60	6845
2026-01-25 11:58:11.16	25.74	2.92	-42.9	-44.5	19.4	0.00e+00	0	41	0	11534336	60	6038
2026-01-25 11:58:12.17	25.85	2.96	-44.1	-46.1	17.3	0.00e+00	0	41	0	13631488	60	7255
2026-01-25 11:58:13.18	25.95	3.01	-45.8	-48.5	15.2	0.00e+00	0	41	0	14680064	60	9596
2026-01-25 11:58:14.19	26.05	3.06	-43.9	-45.7	18.1	0.00e+00	0	41	0	16777216	60	6933
2026-01-25 11:58:15.20	26.16	3.10	-43.9	-45.6	18.0	0.00e+00	0	41	0	18874368	60	6916
2026-01-25 11:58:16.21	26.26	3.15	-49.4	-64.3	3.6	1.27e+00	0	41	104	19922944	60	59141
2026-01-25 11:58:17.21	26.37	3.19	-48.5	-55.4	10.6	1.40e+00	0	41	104	19922944	60	21399
2026-01-25 11:58:18.22	26.47	3.24	-48.8	-54.8	9.6	4.70e-04	0	41	0	19922944	60	19954
2026-01-25 11:58:19.23	26.58	3.28	-43.1	-44.6	19.5	0.00e+00	0	41	0	22020096	60	6146
2026-01-25 11:58:20.24	26.68	3.33	-44.9	-47.1	17.0	0.00e+00	0	41	0	24117248	60	8185
2026-01-25 11:58:21.25	26.79	3.37	-44.2	-46.1	18.2	0.00e+00	0	41	0	26214400	60	7255
2026-01-25 11:58:22.26	26.90	3.42	-44.2	-46.0	17.1	0.00e+00	0	41	0	28311552	60	7244
2026-01-25 11:58:23.26	27.00	3.46	-40.7	-41.8	21.2	0.00e+00	0	41	0	29360128	54	6268
2026-01-25 11:58:24.27	27.11	3.51	-45.1	-47.2	16.7	0.00e+00	0	41	0	31457280	60	8321
2026-01-25 11:58:25.28	27.22	3.55	-44.9	-47.0	17.0	0.00e+00	0	41	0	33554432	60	8077
2026-01-25 11:58:26.29	27.33	3.60	-42.9	-44.3	19.9	0.00e+00	0	41	0	35651584	60	5957
2026-01-25 11:58:27.30	27.44	3.64	-44.6	-46.7	17.4	0.00e+00	0	41	0	37748736	60	7782
2026-01-25 11:58:28.31	27.54	3.69	-44.3	-46.2	17.9	0.00e+00	0	41	0	38797312	60	7354
2026-01-25 11:58:29.32	27.65	3.74	-43.8	-45.5	18.6	0.00e+00	0	41	0	40894464	60	6798
2026-01-25 11:58:30.33	27.76	3.78	-44.2	-46.0	18.0	0.00e+00	0	41	0	42991616	60	7229
2026-01-25 11:58:31.34	27.87	3.83	-44.7	-46.7	17.0	0.00e+00	0	41	0	45088768	60	7841
2026-01-25 11:58:32.35	27.98	3.87	-43.6	-45.2	19.1	0.00e+00	0	41	0	47185920	60	6556
2026-01-25 11:58:33.36	28.09	3.92	-43.0	-44.4	19.8	0.00e+00	0	41	0	48234496	60	6029
2026-01-25 11:58:34.37	28.20	3.96	-44.7	-46.6	17.5	0.00e+00	0	41	0	50331648	60	7769
2026-01-25 11:58:35.38	28.31	4.01	-43.9	-45.5	18.4	0.00e+00	0	41	0	52428800	60	6813
2026-01-25 11:58:36.39	28.42	4.05	-43.7	-45.4	19.3	0.00e+00	0	41	0	54525952	60	6701
2026-01-25 11:58:37.39	28.54	4.10	-43.3	-44.8	19.4	0.00e+00	0	41	0	56623104	60	6290
2026-01-25 11:58:38.40	28.65	4.14	-43.1	-44.6	19.2	0.00e+00	0	41	0	57671680	58	6915
2026-01-25 11:58:39.41	28.76	4.19	-43.5	-45.0	18.8	0.00e+00	0	41	0	59768832	58	7236
2026-01-25 11:58:40.42	28.87	4.23	-42.8	-44.2	19.8	0.00e+00	0	41	0	61865984	58	6541
2026-01-25 11:58:41.43	28.98	4.28	-43.3	-44.8	19.3	0.00e+00	0	41	0	63963136	58	7048
2026-01-25 11:58:42.44	29.10	4.32	-43.4	-45.0	19.0	0.00e+00	0	41	0	66060288	58	7242
2026-01-25 11:58:43.45	29.21	4.37	-42.1	-43.4	20.6	0.00e+00	0	41	0	68157440	58	6022
2026-01-25 11:58:44.46	29.33	4.41	-44.2	-46.0	18.2	0.00e+00	0	41	0	69206016	60	7180
2026-01-25 11:58:45.47	29.44	4.46	-43.5	-45.1	19.0	0.00e+00	0	41	0	71303168	60	6511
2026-01-25 11:58:46.48	29.55	4.51	-42.5	-43.9	20.2	0.00e+00	0	41	0	73400320	58	6337
2026-01-25 11:58:47.49	29.67	4.55	-42.9	-44.3	19.7	0.00e+00	0	41	0	75497472	58	6681
2026-01-25 11:58:48.50	29.78	4.60	-42.9	-44.3	20.1	0.00e+00	0	41	0	77594624	58	6624
2026-01-25 11:58:49.51	29.90	4.64	-43.5	-45.0	19.2	0.00e+00	0	41	0	78643200	58	7224
2026-01-25 11:58:50.52	30.02	4.69	-43.4	-44.9	19.0	0.00e+00	0	41	0	80740352	58	7151
2026-01-25 11:58:51.53	30.13	4.73	-43.3	-44.7	19.6	0.00e+00	0	41	0	82837504	58	7000
2026-01-25 11:58:52.54	30.25	4.78	-43.5	-45.1	18.9	0.00e+00	0	41	0	84934656	58	7266
2026-01-25 11:58:53.55	30.37	4.82	-43.3	-44.8	19.7	0.00e+00	0	41	0	87031808	58	7077
2026-01-25 11:58:54.56	30.48	4.87	-42.8	-44.2	19.9	0.00e+00	0	41	0	88080384	58	6564
2026-01-25 11:58:55.57	30.60	4.91	-43.7	-45.3	18.8	0.00e+00	0	41	0	90177536	58	7481
2026-01-25 11:58:56.57	30.72	4.96	-44.2	-45.9	18.5	0.00e+00	0	41	0	92274688	60	7117
2026-01-25 11:58:57.58	30.84	5.00	-43.1	-44.5	19.9	0.00e+00	0	41	0	94371840	60	6056
2026-01-25 11:58:58.59	30.95	5.05	-42.0	-43.2	21.0	0.00e+00	0	41	0	96468992	56	6591
2026-01-25 11:58:59.60	31.07	5.09	-43.0	-44.5	19.8	0.00e+00	0	41	0	97517568	58	6776
2026-01-25 11:59:00.61	31.19	5.14	-43.3	-44.8	19.8	0.00e+00	0	41	0	99614720	58	7023
2026-01-25 11:59:01.62	31.31	5.18	-42.0	-43.2	21.1	0.00e+00	0	41	0	101711872	58	5836
2026-01-25 11:59:02.63	31.43	5.23	-42.6	-43.9	20.5	0.00e+00	0	41	0	103809024	58	6332
2026-01-25 11:59:03.64	31.55	5.27	-42.8	-44.2	20.2	0.00e+00	0	41	0	105906176	58	6574
2026-01-25 11:59:04.64	31.67	5.31	-43.3	-44.8	19.5	0.00e+00	0	41	0	106954752	58	7056
2026-01-25 11:59:05.65	31.79	5.36	-42.2	-43.5	20.8	0.00e+00	0	41	0	109051904	58	6036
2026-01-25 11:59:06.66	31.92	5.40	-42.6	-43.9	20.5	0.00e+00	0	41	0	111149056	58	6367
2026-01-25 11:59:07.67	32.04	5.45	-42.8	-44.2	20.4	0.00e+00	0	41	0	113246208	58	6542
2026-01-25 11:59:08.68	32.16	5.49	-40.8	-41.9	22.3	0.00e+00	0	41	0	115343360	56	5633
2026-01-25 11:59:09.69	32.28	5.54	-43.0	-44.4	19.6	0.00e+00	0	41	0	116391936	56	7589
2026-01-25 11:59:10.70	32.41	5.58	-43.3	-44.8	19.5	0.00e+00	0	41	0	118489088	58	7023
2026-01-25 11:59:11.71	32.53	5.63	-42.7	-44.1	20.3	0.00e+00	0	41	0	120586240	58	6495
2026-01-25 11:59:12.72	32.65	5.67	-43.2	-44.6	19.7	0.00e+00	0	41	0	122683392	58	6907
2026-01-25 11:59:13.73	32.78	5.72	-41.8	-43.0	21.3	0.00e+00	0	41	0	124780544	58	5699
2026-01-25 11:59:14.74	32.90	5.76	-42.8	-44.2	20.2	0.00e+00	0	41	0	125829120	58	6575
2026-01-25 11:59:15.75	33.03	5.81	-43.5	-45.0	19.5	0.00e+00	0	41	0	127926272	58	7244
2026-01-25 11:59:16.76	33.15	5.85	-43.2	-44.6	19.6	0.00e+00	0	41	0	130023424	58	6925
2026-01-25 11:59:17.77	33.28	5.89	-43.3	-44.8	19.7	0.00e+00	0	41	0	132120576	58	7059
2026-01-25 11:59:18.78	33.40	5.94	-43.9	-45.4	19.2	0.00e+00	0	41	0	134217728	60	6761
2026-01-25 11:59:19.79	33.53	5.98	-43.4	-44.8	19.6	0.00e+00	0	41	0	136314880	60	6282
2026-01-25 11:59:20.80	33.65	6.03	-43.8	-45.4	19.2	0.00e+00	0	41	0	137363456	60	6710
2026-01-25 11:59:21.81	33.78	6.07	-43.7	-45.2	19.4	0.00e+00	0	41	0	139460608	60	6554
2026-01-25 11:59:22.82	33.91	6.12	-42.5	-43.7	20.6	0.00e+00	0	41	0	141557760	58	6241
2026-01-25 11:59:23.82	34.04	6.16	-43.3	-44.8	19.9	0.00e+00	0	41	0	143654912	58	7045
2026-01-25 11:59:24.83	34.16	6.20	-43.4	-44.9	19.8	0.00e+00	0	41	0	145752064	58	7093
2026-01-25 11:59:25.84	34.29	6.25	-44.6	-46.3	18.1	0.00e+00	0	41	0	146800640	60	7504
2026-01-25 11:59:26.85	34.42	6.29	-43.8	-45.3	19.2	0.00e+00	0	41	0	148897792	60	6677
2026-01-25 11:59:27.86	34.55	6.34	-43.1	-44.5	19.9	0.00e+00	0	41	0	150994944	60	6076
2026-01-25 11:59:28.87	34.68	6.38	-43.3	-44.7	20.1	0.00e+00	0	41	0	153092096	60	6192
2026-01-25 11:59:29.88	34.81	6.42	-42.1	-43.4	21.0	0.00e+00	0	41	0	155189248	58	5970
2026-01-25 11:59:30.89	34.94	6.47	-42.8	-44.1	20.3	0.00e+00	0	41	0	156237824	58	6497
2026-01-25 11:59:31.90	35.07	6.51	-43.8	-45.4	19.0	0.00e+00	0	41	0	158334976	60	6731
2026-01-25 11:59:32.91	35.20	6.56	-44.3	-46.0	18.4	0.00e+00	0	41	0	160432128	60	7187
2026-01-25 11:59:33.92	35.33	6.60	-42.7	-44.0	20.6	0.00e+00	0	41	0	162529280	60	5729
2026-01-25 11:59:34.93	35.47	6.64	-42.2	-43.4	21.0	0.00e+00	0	41	0	164626432	58	6002
2026-01-25 11:59:35.94	35.60	6.69	-41.9	-43.1	21.4	0.00e+00	0	41	0	165675008	58	5801
2026-01-25 11:59:36.95	35.73	6.73	-42.5	-43.7	20.8	0.00e+00	0	41	0	167772160	56	6968
2026-01-25 11:59:37.96	35.86	6.77	-43.0	-44.3	20.2	0.00e+00	0	41	0	169869312	58	6684
2026-01-25 11:59:38.97	36.00	6.82	-42.4	-43.6	20.8	0.00e+00	0	41	0	171966464	58	6137
2026-01-25 11:59:39.98	36.13	6.86	-42.3	-43.5	20.9	0.00e+00	0	41	0	174063616	58	6101
2026-01-25 11:59:40.99	36.26	6.90	-41.8	-43.0	21.4	0.00e+00	0	41	0	175112192	58	5696
2026-01-25 11:59:42.00	36.40	6.95	-42.1	-43.3	21.1	0.00e+00	0	41	0	177209344	56	6667
2026-01-25 11:59:43.01	36.53	6.99	-42.7	-43.9	20.5	0.00e+00	0	41	0	179306496	56	7167
2026-01-25 11:59:44.01	36.67	7.03	-42.6	-43.8	20.6	0.00e+00	0	41	0	181403648	58	6306
2026-01-25 11:59:45.02	36.80	7.08	-42.2	-43.4	21.1	0.00e+00	0	41	0	183500800	58	5989
2026-01-25 11:59:46.03	36.94	7.12	-42.1	-43.3	20.9	0.00e+00	0	41	0	184549376	58	5933
2026-01-25 11:59:47.03	37.07	7.16	-42.4	-43.6	20.9	0.00e+00	0	41	0	186646528	58	6129
2026-01-25 11:59:48.04	37.21	7.20	-42.0	-43.2	21.2	0.00e+00	0	41	0	188743680	58	5878
2026-01-25 11:59:49.05	37.35	7.25	-41.9	-43.1	21.3	0.00e+00	0	41	0	190840832	56	6503
2026-01-25 11:59:50.06	37.49	7.29	-42.5	-43.7	20.9	0.00e+00	0	41	0	192937984	56	6979
2026-01-25 11:59:51.07	37.62	7.33	-42.0	-43.2	21.2	0.00e+00	0	41	0	193986560	58	5886
2026-01-25 11:59:52.08	37.76	7.38	-42.1	-43.3	21.1	0.00e+00	0	41	0	196083712	58	5903
2026-01-25 11:59:53.09	37.90	7.42	-42.0	-43.2	21.2	0.00e+00	0	41	0	198180864	58	5864
2026-01-25 11:59:54.10	38.04	7.46	-42.1	-43.2	21.1	0.00e+00	0	41	0	200278016	58	5891
2026-01-25 11:59:55.11	38.18	7.50	-42.3	-43.5	21.0	0.00e+00	0	41	0	202375168	58	6058
2026-01-25 11:59:56.12	38.32	7.55	-41.9	-43.0	21.5	0.00e+00	0	41	0	204472320	58	5761
2026-01-25 11:59:57.13	38.46	7.59	-42.1	-43.3	21.2	0.00e+00	0	41	0	205520896	58	5911
2026-01-25 11:59:58.14	38.60	7.63	-42.5	-43.8	20.9	0.00e+00	0	41	0	207618048	58	6286
2026-01-25 11:59:59.15	38.74	7.67	-41.8	-42.9	21.6	0.00e+00	0	41	0	209715200	56	6379
2026-01-25 12:00:00.15	38.88	7.71	-42.5	-43.7	20.8	0.00e+00	0	41	0	211812352	56	6960
2026-01-25 12:00:01.16	39.02	7.76	-42.7	-44.0	20.5	0.00e+00	0	41	0	212860928	58	6416
2026-01-25 12:00:02.17	39.17	7.80	-43.0	-44.3	20.4	0.00e+00	0	41	0	214958080	58	6673
2026-01-25 12:00:03.18	39.31	7.84	-42.2	-43.4	21.1	0.00e+00	0	41	0	217055232	58	5996
2026-01-25 12:00:04.19	39.45	7.88	-42.1	-43.3	21.2	0.00e+00	0	41	0	219152384	58	5922
2026-01-25 12:00:05.20	39.60	7.92	-42.4	-43.7	20.9	0.00e+00	0	41	0	221249536	58	6174
2026-01-25 12:00:06.21	39.74	7.96	-42.5	-43.7	20.8	0.00e+00	0	41	0	222298112	58	6210
2026-01-25 12:00:07.22	39.88	8.01	-42.3	-43.5	21.1	0.00e+00	0	41	0	224395264	58	6096
2026-01-25 12:00:08.22	40.03	8.05	-42.1	-43.3	21.4	0.00e+00	0	41	0	226492416	58	5908
2026-01-25 12:00:09.23	40.17	8.09	-42.5	-43.7	20.9	0.00e+00	0	41	0	228589568	58	6243
2026-01-25 12:00:10.24	40.32	8.13	-42.5	-43.7	20.8	0.00e+00	0	41	0	230686720	58	6244
2026-01-25 12:00:11.25	40.46	8.17	-42.6	-43.8	20.8	0.00e+00	0	41	0	232783872	58	6279
2026-01-25 12:00:12.26	40.61	8.21	-42.4	-43.6	21.1	0.00e+00	0	41	0	233832448	58	6126
2026-01-25 12:00:13.27	40.76	8.25	-42.3	-43.5	21.1	0.00e+00	0	41	0	235929600	58	6092
2026-01-25 12:00:14.28	40.90	8.29	-42.5	-43.7	20.9	0.00e+00	0	41	0	238026752	58	6224
2026-01-25 12:00:15.29	41.05	8.33	-42.6	-43.9	20.7	0.00e+00	0	41	0	240123904	58	6338
2026-01-25 12:00:16.29	41.20	8.38	-42.6	-43.8	20.8	0.00e+00	0	41	0	242221056	58	6285
2026-01-25 12:00:17.30	41.35	8.42	-42.6	-43.9	20.8	0.00e+00	0	41	0	243269632	58	6344
2026-01-25 12:00:18.31	41.49	8.46	-42.7	-44.0	20.7	0.00e+00	0	41	0	245366784	58	6395
2026-01-25 12:00:19.32	41.64	8.50	-42.7	-44.0	20.7	0.00e+00	0	41	0	247463936	58	6420
2026-01-25 12:00:20.33	41.79	8.54	-42.2	-43.4	21.2	0.00e+00	0	41	0	249561088	58	5999
2026-01-25 12:00:21.34	41.94	8.58	-41.7	-42.8	21.8	0.00e+00	0	41	0	251658240	56	6288
2026-01-25 12:00:22.35	42.09	8.62	-41.9	-43.0	21.5	0.00e+00	0	41	0	252706816	56	6427
2026-01-25 12:00:23.36	42.24	8.66	-42.8	-44.0	20.6	0.00e+00	0	41	0	254803968	56	7236
2026-01-25 12:00:24.37	42.39	8.70	-42.4	-43.6	21.1	0.00e+00	0	41	0	256901120	58	6119
2026-01-25 12:00:25.38	42.55	8.74	-42.5	-43.8	20.8	0.00e+00	0	41	0	258998272	58	6247
2026-01-25 12:00:26.39	42.70	8.78	-42.8	-44.1	20.6	0.00e+00	0	41	0	261095424	58	6489
2026-01-25 12:00:27.40	42.85	8.82	-42.6	-43.9	20.9	0.00e+00	0	41	0	262144000	58	6319
2026-01-25 12:00:28.41	43.00	8.86	-42.4	-43.6	21.0	0.00e+00	0	41	0	264241152	58	6140
2026-01-25 12:00:29.41	43.15	8.89	-42.4	-43.6	21.0	0.00e+00	0	41	0	266338304	58	6163
2026-01-25 12:00:30.42	43.31	8.93	-42.5	-43.8	20.8	0.00e+00	0	41	0	268435456	58	6252
2026-01-25 12:00:31.43	43.46	8.97	-42.4	-43.6	21.0	0.00e+00	0	41	0	270532608	58	6133
2026-01-25 12:00:32.44	43.62	9.01	-42.5	-43.7	20.9	0.00e+00	0	41	0	271581184	58	6219
2026-01-25 12:00:33.45	43.77	9.05	-42.4	-43.6	21.1	0.00e+00	0	41	0	273678336	58	6116
2026-01-25 12:00:34.46	43.93	9.09	-42.4	-43.6	21.1	0.00e+00	0	41	0	275775488	58	6171
2026-01-25 12:00:35.47	44.08	9.13	-42.7	-44.0	20.3	0.00e+00	0	41	0	277872640	58	6427
2026-01-25 12:00:36.48	44.24	9.17	-42.7	-43.9	20.5	0.00e+00	0	41	0	279969792	58	6373
2026-01-25 12:00:37.49	44.39	9.21	-42.5	-43.7	20.9	0.00e+00	0	41	0	281018368	58	6193
2026-01-25 12:00:38.50	44.55	9.24	-42.4	-43.6	21.1	0.00e+00	0	41	0	283115520	58	6164
2026-01-25 12:00:39.50	44.71	9.28	-42.5	-43.7	21.0	0.00e+00	0	41	0	285212672	58	6200
2026-01-25 12:00:40.51	44.86	9.32	-42.5	-43.7	21.0	0.00e+00	0	41	0	287309824	58	6232
2026-01-25 12:00:41.52	45.02	9.36	-42.6	-43.9	20.8	0.00e+00	0	41	0	289406976	58	6328
2026-01-25 12:00:42.53	45.18	9.40	-42.7	-44.0	20.6	0.00e+00	0	41	0	290455552	58	6435
2026-01-25 12:00:43.54	45.34	9.43	-42.6	-43.8	20.9	0.00e+00	0	41	0	292552704	58	6278
2026-01-25 12:00:44.55	45.50	9.47	-42.8	-44.1	20.7	0.00e+00	0	41	0	294649856	58	6476
2026-01-25 12:00:45.56	45.66	9.51	-43.0	-44.3	20.5	0.00e+00	0	41	0	296747008	58	6653
2026-01-25 12:00:46.57	45.82	9.54	-42.8	-44.0	20.7	0.00e+00	0	41	0	298844160	58	6463
2026-01-25 12:00:47.58	45.98	9.58	-43.0	-44.3	20.5	0.00e+00	0	41	0	300941312	58	6657
2026-01-25 12:00:48.59	46.14	9.62	-42.2	-43.4	21.3	0.00e+00	0	41	0	301989888	58	5993
2026-01-25 12:00:49.60	46.30	9.66	-42.6	-43.9	20.9	0.00e+00	0	41	0	304087040	58	6355
2026-01-25 12:00:50.61	46.46	9.69	-42.4	-43.6	21.1	0.00e+00	0	41	0	306184192	58	6171
2026-01-25 12:00:51.62	46.62	9.73	-42.6	-43.9	20.9	0.00e+00	0	41	0	308281344	58	6320
2026-01-25 12:00:52.63	46.78	9.77	-42.6	-43.8	21.0	0.00e+00	0	41	0	310378496	58	6289
2026-01-25 12:00:53.64	46.95	9.80	-42.3	-43.5	21.2	0.00e+00	0	41	0	311427072	58	6084
2026-01-25 12:00:54.65	47.11	9.84	-42.2	-43.4	21.1	0.00e+00	0	41	0	313524224	58	6008
2026-01-25 12:00:55.66	47.27	9.87	-42.2	-43.4	21.3	0.00e+00	0	41	0	315621376	58	5988
2026-01-25 12:00:56.67	47.44	9.91	-42.1	-43.2	21.4	0.00e+00	0	41	0	317718528	58	5860
2026-01-25 12:00:57.68	47.60	9.95	-42.1	-43.2	21.5	0.00e+00	0	41	0	319815680	58	5880
2026-01-25 12:00:58.69	47.77	9.98	-42.2	-43.4	21.2	0.00e+00	0	41	0	320864256	58	6017
2026-01-25 12:00:59.70	47.93	10.02	-42.4	-43.6	21.0	0.00e+00	0	41	0	322961408	58	6150
2026-01-25 12:01:00.71	48.10	10.05	-42.3	-43.5	21.2	0.00e+00	0	41	0	325058560	58	6086
2026-01-25 12:01:01.72	48.26	10.09	-42.5	-43.7	21.2	0.00e+00	0	41	0	327155712	58	6185
2026-01-25 12:01:02.73	48.43	10.12	-42.4	-43.6	21.1	0.00e+00	0	41	0	329252864	58	6128
2026-01-25 12:01:03.74	48.59	10.16	-42.4	-43.6	21.0	0.00e+00	0	41	0	330301440	58	6158
2026-01-25 12:01:04.75	48.76	10.19	-42.6	-43.8	20.8	0.00e+00	0	41	0	332398592	58	6289
2026-01-25 12:01:05.76	48.93	10.22	-42.4	-43.6	20.9	0.00e+00	0	41	0	334495744	58	6173
2026-01-25 12:01:06.77	49.10	10.26	-42.5	-43.7	21.1	0.00e+00	0	41	0	336592896	58	6192
2026-01-25 12:01:07.78	49.26	10.29	-42.6	-43.8	20.9	0.00e+00	0	41	0	338690048	58	6291
2026-01-25 12:01:08.79	49.43	10.33	-42.7	-43.9	20.9	0.00e+00	0	41	0	339738624	58	6388
2026-01-25 12:01:09.80	49.60	10.36	-42.7	-43.9	20.8	0.00e+00	0	41	0	341835776	58	6388
2026-01-25 12:01:10.81	49.77	10.39	-42.9	-44.2	20.6	0.00e+00	0	41	0	343932928	58	6592
2026-01-25 12:01:11.82	49.94	10.43	-42.7	-43.9	20.8	0.00e+00	0	41	0	346030080	58	6354
2026-01-25 12:01:12.83	50.11	10.46	-42.7	-43.9	20.7	0.00e+00	0	41	0	348127232	58	6344
2026-01-25 12:01:13.84	50.28	10.49	-42.7	-44.0	20.8	0.00e+00	0	41	0	349175808	58	6414
2026-01-25 12:01:14.84	50.45	10.53	-42.7	-43.9	20.8	0.00e+00	0	41	0	351272960	58	6358
2026-01-25 12:01:15.85	50.62	10.56	-42.6	-43.9	20.9	0.00e+00	0	41	0	353370112	58	6324
2026-01-25 12:01:16.86	50.79	10.59	-42.7	-43.9	20.9	0.00e+00	0	41	0	355467264	58	6375
2026-01-25 12:01:17.87	50.96	10.62	-42.7	-44.0	20.8	0.00e+00	0	41	0	357564416	58	6432
2026-01-25 12:01:18.88	51.13	10.66	-42.4	-43.6	21.2	0.00e+00	0	41	0	358612992	58	6107
2026-01-25 12:01:19.89	51.31	10.69	-42.3	-43.4	21.3	0.00e+00	0	41	0	360710144	58	6031
2026-01-25 12:01:20.90	51.48	10.72	-42.4	-43.6	21.2	0.00e+00	0	41	0	362807296	58	6112
2026-01-25 12:01:21.91	51.65	10.75	-42.4	-43.6	21.2	0.00e+00	0	41	0	364904448	58	6114
2026-01-25 12:01:22.92	51.83	10.78	-42.5	-43.7	21.2	0.00e+00	0	41	0	367001600	58	6200
2026-01-25 12:01:23.93	52.00	10.81	-42.7	-43.9	20.9	0.00e+00	0	41	0	369098752	58	6351
2026-01-25 12:01:24.94	52.17	10.85	-42.7	-44.0	20.8	0.00e+00	0	41	0	370147328	58	6422
2026-01-25 12:01:25.95	52.35	10.88	-42.9	-44.2	20.6	0.00e+00	0	41	0	372244480	58	6570
2026-01-25 12:01:26.96	52.52	10.91	-42.6	-43.8	20.9	0.00e+00	0	41	0	374341632	58	6290
2026-01-25 12:01:27.97	52.70	10.94	-42.6	-43.9	20.9	0.00e+00	0	41	0	376438784	58	6322
2026-01-25 12:01:28.98	52.88	10.97	-42.7	-44.0	20.6	0.00e+00	0	41	0	378535936	58	6407
2026-01-25 12:01:29.99	53.05	11.00	-42.8	-44.1	20.3	0.00e+00	0	41	0	379584512	58	6486
2026-01-25 12:01:31.00	53.23	11.03	-42.8	-44.0	20.8	0.00e+00	0	41	0	381681664	58	6449
2026-01-25 12:01:32.01	53.40	11.06	-42.4	-43.6	21.1	0.00e+00	0	41	0	383778816	58	6135
2026-01-25 12:01:33.02	53.58	11.09	-42.5	-43.7	21.0	0.00e+00	0	41	0	385875968	58	6227
2026-01-25 12:01:34.02	53.76	11.11	-42.5	-43.7	21.0	0.00e+00	0	41	0	387973120	58	6193
2026-01-25 12:01:35.03	53.94	11.14	-42.2	-43.4	21.4	0.00e+00	0	41	0	389021696	58	6012
2026-01-25 12:01:36.04	54.11	11.17	-42.2	-43.4	21.4	0.00e+00	0	41	0	391118848	58	6012
2026-01-25 12:01:37.05	54.29	11.20	-42.2	-43.3	21.4	0.00e+00	0	41	0	393216000	58	5955
2026-01-25 12:01:38.06	54.47	11.23	-42.1	-43.3	21.4	0.00e+00	0	41	0	395313152	58	5929
2026-01-25 12:01:39.07	54.65	11.26	-42.1	-43.2	21.5	0.00e+00	0	41	0	397410304	58	5878
2026-01-25 12:01:40.08	54.83	11.29	-42.1	-43.2	21.5	0.00e+00	0	41	0	398458880	58	5892
2026-01-25 12:01:41.09	55.01	11.31	-42.1	-43.3	21.4	0.00e+00	0	41	0	400556032	58	5925
2026-01-25 12:01:42.09	55.19	11.34	-42.2	-43.3	21.4	0.00e+00	0	41	0	402653184	58	5962
2026-01-25 12:01:43.10	55.37	11.37	-42.1	-43.2	21.5	0.00e+00	0	41	0	404750336	58	5878
2026-01-25 12:01:44.11	55.55	11.39	-42.1	-43.2	21.5	0.00e+00	0	41	0	406847488	58	5875
2026-01-25 12:01:45.12	55.73	11.42	-41.9	-43.0	21.7	0.00e+00	0	41	0	407896064	58	5752
2026-01-25 12:01:46.13	55.91	11.45	-42.1	-43.2	21.5	0.00e+00	0	41	0	409993216	58	5883
2026-01-25 12:01:47.14	56.09	11.47	-42.0	-43.2	21.5	0.00e+00	0	41	0	412090368	58	5852
2026-01-25 12:01:48.15	56.28	11.50	-42.0	-43.1	21.6	0.00e+00	0	41	0	414187520	58	5814
2026-01-25 12:01:49.15	56.46	11.53	-42.2	-43.4	21.3	0.00e+00	0	41	0	416284672	58	6012
2026-01-25 12:01:50.16	56.64	11.55	-41.9	-43.1	21.6	0.00e+00	0	41	0	417333248	58	5771
2026-01-25 12:01:51.17	56.82	11.58	-41.9	-43.1	21.8	0.00e+00	0	41	0	419430400	58	5769
2026-01-25 12:01:52.18	57.01	11.60	-41.8	-42.9	21.8	0.00e+00	0	41	0	421527552	58	5633
2026-01-25 12:01:53.19	57.19	11.63	-41.7	-42.7	22.0	0.00e+00	0	41	0	423624704	56	6240
2026-01-25 12:01:54.20	57.37	11.65	-41.7	-42.8	21.9	0.00e+00	0	41	0	425721856	56	6287
2026-01-25 12:01:55.21	57.56	11.68	-41.8	-42.9	21.9	0.00e+00	0	41	0	426770432	56	6339
2026-01-25 12:01:56.22	57.74	11.70	-41.6	-42.7	22.0	0.00e+00	0	41	0	428867584	56	6225
2026-01-25 12:01:57.23	57.93	11.72	-41.6	-42.7	22.1	0.00e+00	0	41	0	430964736	56	6188
2026-01-25 12:01:58.23	58.11	11.75	-41.6	-42.7	22.0	0.00e+00	0	41	0	433061888	56	6196
2026-01-25 12:01:59.24	58.30	11.77	-42.0	-43.2	21.5	0.00e+00	0	41	0	435159040	56	6557
2026-01-25 12:02:00.25	58.48	11.80	-41.9	-43.0	21.8	0.00e+00	0	41	0	436207616	56	6437
2026-01-25 12:02:01.26	58.67	11.82	-42.1	-43.2	21.3	0.00e+00	0	41	0	438304768	56	6595
2026-01-25 12:02:02.27	58.85	11.84	-42.7	-43.9	20.9	0.00e+00	0	41	0	440401920	56	7132
2026-01-25 12:02:03.28	59.04	11.86	-42.3	-43.5	21.3	0.00e+00	0	41	0	442499072	58	6077
2026-01-25 12:02:04.29	59.23	11.89	-42.3	-43.5	21.3	0.00e+00	0	41	0	444596224	58	6051
2026-01-25 12:02:05.30	59.41	11.91	-42.5	-43.7	21.1	0.00e+00	0	41	0	445644800	58	6217
2026-01-25 12:02:06.31	59.60	11.93	-42.3	-43.5	21.2	0.00e+00	0	41	0	447741952	58	6061
2026-01-25 12:02:07.32	59.79	11.95	-42.4	-43.6	21.1	0.00e+00	0	41	0	449839104	58	6148
2026-01-25 12:02:08.33	59.98	11.97	-42.3	-43.5	21.2	0.00e+00	0	41	0	451936256	58	6055
2026-01-25 12:02:09.34	60.17	11.99	-42.3	-43.5	21.2	0.00e+00	0	41	0	454033408	58	6054
2026-01-25 12:02:10.35	60.35	12.01	-42.1	-43.3	21.4	0.00e+00	0	41	0	455081984	58	5935
2026-01-25 12:02:11.36	60.54	12.03	-42.4	-43.6	21.2	0.00e+00	0	41	0	457179136	58	6139
2026-01-25 12:02:12.37	60.73	12.06	-42.4	-43.6	21.1	0.00e+00	0	41	0	459276288	58	6170
2026-01-25 12:02:13.37	60.92	12.07	-42.5	-43.8	21.1	0.00e+00	0	41	0	461373440	58	6256
2026-01-25 12:02:14.38	61.11	12.09	-42.7	-43.9	20.9	0.00e+00	0	41	0	463470592	58	6390
2026-01-25 12:02:15.39	61.30	12.11	-42.8	-44.0	20.7	0.00e+00	0	41	0	465567744	58	6447
2026-01-25 12:02:16.40	61.49	12.13	-42.8	-44.1	20.6	0.00e+00	0	41	0	466616320	58	6514
2026-01-25 12:02:17.41	61.68	12.15	-43.1	-44.4	20.5	0.00e+00	0	41	0	468713472	58	6733
2026-01-25 12:02:18.42	61.87	12.17	-43.0	-44.3	20.4	0.00e+00	0	41	0	470810624	58	6671
2026-01-25 12:02:19.43	62.06	12.19	-43.1	-44.5	20.3	0.00e+00	0	41	0	472907776	58	6800
2026-01-25 12:02:20.44	62.25	12.21	-43.1	-44.4	20.4	0.00e+00	0	41	0	475004928	58	6768
2026-01-25 12:02:21.45	62.44	12.23	-43.0	-44.3	20.5	0.00e+00	0	41	0	476053504	58	6692
2026-01-25 12:02:22.46	62.63	12.24	-42.9	-44.2	20.6	0.00e+00	0	41	0	478150656	58	6549
2026-01-25 12:02:23.47	62.83	12.26	-42.9	-44.2	20.6	0.00e+00	0	41	0	480247808	58	6561
2026-01-25 12:02:24.47	63.02	12.28	-42.9	-44.2	20.6	0.00e+00	0	41	0	482344960	58	6578
2026-01-25 12:02:25.49	63.21	12.29	-43.0	-44.3	20.4	0.00e+00	0	41	0	484442112	58	6656
2026-01-25 12:02:26.49	63.40	12.31	-42.7	-44.0	20.7	0.00e+00	0	41	0	485490688	58	6425
2026-01-25 12:02:27.51	63.59	12.33	-42.8	-44.1	20.8	0.00e+00	0	41	0	487587840	58	6477
2026-01-25 12:02:28.51	63.78	12.34	-42.9	-44.1	20.7	0.00e+00	0	41	0	489684992	58	6535
2026-01-25 12:02:29.52	63.98	12.36	-42.7	-44.0	20.9	0.00e+00	0	41	0	491782144	58	6398
2026-01-25 12:02:30.53	64.17	12.37	-42.6	-43.9	20.9	0.00e+00	0	41	0	493879296	58	6338
2026-01-25 12:02:31.54	64.36	12.39	-42.8	-44.0	20.7	0.00e+00	0	41	0	494927872	58	6449
2026-01-25 12:02:32.55	64.56	12.40	-42.4	-43.7	21.0	0.00e+00	0	41	0	497025024	58	6180
2026-01-25 12:02:33.56	64.75	12.42	-42.5	-43.7	21.0	0.00e+00	0	41	0	499122176	58	6201
2026-01-25 12:02:34.57	64.95	12.43	-42.5	-43.7	21.0	0.00e+00	0	41	0	501219328	58	6211
2026-01-25 12:02:35.57	65.14	12.45	-42.5	-43.7	21.0	0.00e+00	0	41	0	503316480	58	6201
2026-01-25 12:02:36.58	65.33	12.46	-42.6	-43.8	21.0	0.00e+00	0	41	0	504365056	58	6268
2026-01-25 12:02:37.59	65.53	12.47	-42.5	-43.7	21.0	0.00e+00	0	41	0	506462208	58	6199
2026-01-25 12:02:38.61	65.72	12.49	-42.5	-43.7	21.0	0.00e+00	0	41	0	508559360	58	6214
2026-01-25 12:02:39.62	65.92	12.50	-42.4	-43.7	21.0	0.00e+00	0	41	0	510656512	58	6182
2026-01-25 12:02:40.63	66.11	12.51	-42.4	-43.7	20.9	0.00e+00	0	41	0	512753664	58	6179
2026-01-25 12:02:41.64	66.31	12.52	-42.4	-43.6	21.1	0.00e+00	0	41	0	513802240	58	6173
2026-01-25 12:02:42.65	66.50	12.53	-42.4	-43.6	21.0	0.00e+00	0	41	0	515899392	58	6120
2026-01-25 12:02:43.66	66.70	12.55	-42.4	-43.6	21.2	0.00e+00	0	41	0	517996544	58	6107
2026-01-25 12:02:44.67	66.89	12.56	-42.4	-43.6	20.9	0.00e+00	0	41	0	520093696	58	6164
2026-01-25 12:02:45.68	67.09	12.57	-42.3	-43.5	21.3	0.00e+00	0	41	0	522190848	58	6046
2026-01-25 12:02:46.68	67.28	12.58	-42.3	-43.5	21.2	0.00e+00	0	41	0	523239424	58	6062
2026-01-25 12:02:47.69	67.48	12.59	-42.2	-43.4	21.3	0.00e+00	0	41	0	525336576	58	5999
2026-01-25 12:02:48.70	67.68	12.60	-42.1	-43.2	21.5	0.00e+00	0	41	0	527433728	58	5896
2026-01-25 12:02:49.71	67.87	12.61	-42.1	-43.3	21.4	0.00e+00	0	41	0	529530880	58	5903
2026-01-25 12:02:50.71	68.07	12.62	-42.0	-43.2	21.6	0.00e+00	0	41	0	531628032	58	5868
2026-01-25 12:02:51.72	68.26	12.63	-42.0	-43.1	21.6	0.00e+00	0	41	0	533725184	58	5799
2026-01-25 12:02:52.73	68.46	12.64	-41.8	-42.9	21.3	0.00e+00	0	41	0	534773760	58	5677
2026-01-25 12:02:53.74	68.66	12.65	-42.0	-43.2	21.5	0.00e+00	0	41	0	536870912	56	6588
2026-01-25 12:02:54.75	68.85	12.65	-42.3	-43.5	21.2	0.00e+00	0	41	0	538968064	58	6094
2026-01-25 12:02:55.76	69.05	12.66	-42.5	-43.7	21.1	0.00e+00	0	41	0	541065216	58	6224
2026-01-25 12:02:56.77	69.25	12.67	-42.3	-43.5	21.1	0.00e+00	0	41	0	543162368	58	6068
2026-01-25 12:02:57.78	69.44	12.68	-42.2	-43.4	21.4	0.00e+00	0	41	0	544210944	58	5999
2026-01-25 12:02:58.79	69.64	12.68	-42.1	-43.3	21.3	0.00e+00	0	41	0	546308096	58	5944
2026-01-25 12:02:59.80	69.84	12.69	-42.3	-43.5	21.2	0.00e+00	0	41	0	548405248	58	6052
2026-01-25 12:03:00.81	70.04	12.70	-41.9	-43.0	21.7	0.00e+00	0	41	0	550502400	58	5743
2026-01-25 12:03:01.82	70.23	12.70	-41.8	-43.0	21.9	0.00e+00	0	41	0	552599552	56	6391
2026-01-25 12:03:02.83	70.43	12.71	-41.8	-43.0	21.9	0.00e+00	0	41	0	553648128	56	6402
2026-01-25 12:03:03.84	70.63	12.71	-41.9	-43.0	21.7	0.00e+00	0	41	0	555745280	56	6456
2026-01-25 12:03:04.85	70.83	12.72	-41.7	-42.8	21.9	0.00e+00	0	41	0	557842432	56	6298
2026-01-25 12:03:05.85	71.02	12.72	-41.6	-42.7	21.9	0.00e+00	0	41	0	559939584	56	6214
2026-01-25 12:03:06.86	71.22	12.73	-41.8	-42.9	21.7	0.00e+00	0	41	0	562036736	56	6379
2026-01-25 12:03:07.87	71.42	12.73	-41.6	-42.7	22.0	0.00e+00	0	41	0	563085312	56	6213
2026-01-25 12:03:08.88	71.62	12.74	-41.7	-42.8	21.9	0.00e+00	0	41	0	565182464	56	6290
2026-01-25 12:03:09.89	71.81	12.74	-41.4	-42.5	22.2	0.00e+00	0	41	0	567279616	56	6056
2026-01-25 12:03:10.90	72.01	12.74	-41.5	-42.6	22.1	0.00e+00	0	41	0	569376768	56	6136
2026-01-25 12:03:11.91	72.21	12.75	-41.4	-42.5	22.1	0.00e+00	0	41	0	571473920	56	6054
2026-01-25 12:03:12.92	72.41	12.75	-41.4	-42.4	22.3	0.00e+00	0	41	0	572522496	56	5998
2026-01-25 12:03:13.93	72.61	12.75	-41.2	-42.2	22.4	0.00e+00	0	41	0	574619648	56	5890
2026-01-25 12:03:14.94	72.80	12.75	-41.1	-42.1	22.5	0.00e+00	0	41	0	576716800	56	5808
2026-01-25 12:03:15.95	73.00	12.76	-41.0	-42.0	22.5	0.00e+00	0	41	0	578813952	56	5759
2026-01-25 12:03:16.96	73.20	12.76	-41.0	-42.0	22.6	0.00e+00	0	41	0	580911104	56	5729
2026-01-25 12:03:17.97	73.40	12.76	-41.1	-42.1	22.5	0.00e+00	0	41	0	581959680	56	5789
2026-01-25 12:03:18.98	73.60	12.76	-41.1	-42.2	22.4	0.00e+00	0	41	0	584056832	56	5851
2026-01-25 12:03:19.99	73.80	12.76	-41.2	-42.2	22.4	0.00e+00	0	41	0	586153984	56	5878
2026-01-25 12:03:21.00	73.99	12.76	-41.3	-42.3	22.4	0.00e+00	0	41	0	588251136	56	5943
2026-01-25 12:03:22.01	74.19	12.76	-41.4	-42.5	22.2	0.00e+00	0	41	0	590348288	56	6050
2026-01-25 12:03:23.02	74.39	12.76	-41.5	-42.6	22.1	0.00e+00	0	41	0	591396864	56	6118
2026-01-25 12:03:24.03	74.59	12.76	-41.5	-42.5	22.2	0.00e+00	0	41	0	593494016	56	6085
2026-01-25 12:03:25.04	74.79	12.76	-41.0	-42.0	22.6	0.00e+00	0	41	0	595591168	56	5731
2026-01-25 12:03:26.05	74.99	12.76	-41.0	-42.0	22.3	0.00e+00	0	41	0	597688320	56	5719
2026-01-25 12:03:27.06	75.19	12.76	-40.8	-41.8	22.8	0.00e+00	0	41	0	599785472	56	5611
2026-01-25 12:03:28.06	75.38	12.75	-40.5	-41.5	22.9	0.00e+00	0	41	0	600834048	54	6081
2026-01-25 12:03:29.07	75.58	12.75	-40.6	-41.7	22.8	0.00e+00	0	41	0	602931200	54	6178
2026-01-25 12:03:30.08	75.78	12.75	-40.8	-41.8	22.5	0.00e+00	0	41	0	605028352	54	6284
2026-01-25 12:03:31.09	75.98	12.75	-40.8	-41.8	22.6	0.00e+00	0	41	0	607125504	54	6290
2026-01-25 12:03:32.10	76.17	12.74	-41.0	-42.0	22.5	0.00e+00	0	41	0	609222656	54	6411
2026-01-25 12:03:33.11	76.37	12.74	-40.6	-41.6	22.8	0.00e+00	0	41	0	610271232	54	6156
2026-01-25 12:03:34.12	76.57	12.74	-40.7	-41.7	22.8	0.00e+00	0	41	0	612368384	54	6216
2026-01-25 12:03:35.12	76.77	12.73	-40.8	-41.7	22.6	0.00e+00	0	41	0	614465536	54	6238
2026-01-25 12:03:36.13	76.97	12.73	-40.7	-41.7	22.8	0.00e+00	0	41	0	616562688	54	6177
2026-01-25 12:03:37.14	77.16	12.72	-40.6	-41.6	22.8	0.00e+00	0	41	0	618659840	54	6104
2026-01-25 12:03:38.15	77.36	12.72	-40.4	-41.4	22.9	0.00e+00	0	41	0	619708416	54	5992
2026-01-25 12:03:39.16	77.56	12.71	-40.5	-41.5	23.0	0.00e+00	0	41	0	621805568	54	6054
2026-01-25 12:03:40.17	77.76	12.71	-40.5	-41.5	22.9	0.00e+00	0	41	0	623902720	54	6056
2026-01-25 12:03:41.18	77.95	12.70	-40.4	-41.4	23.1	0.00e+00	0	41	0	625999872	54	5980
2026-01-25 12:03:42.19	78.15	12.70	-40.5	-41.4	23.0	0.00e+00	0	41	0	628097024	54	6009
2026-01-25 12:03:43.19	78.35	12.69	-40.6	-41.5	22.9	0.00e+00	0	41	0	630194176	54	6087
2026-01-25 12:03:44.21	78.55	12.68	-40.5	-41.4	23.0	0.00e+00	0	41	0	631242752	54	6029
2026-01-25 12:03:45.21	78.74	12.68	-40.6	-41.6	22.9	0.00e+00	0	41	0	633339904	54	6115
2026-01-25 12:03:46.22	78.94	12.67	-40.8	-41.8	22.6	0.00e+00	0	41	0	635437056	54	6283
2026-01-25 12:03:47.23	79.14	12.66	-40.8	-41.8	22.8	0.00e+00	0	41	0	637534208	54	6292
2026-01-25 12:03:48.24	79.33	12.65	-41.1	-42.1	22.5	0.00e+00	0	41	0	639631360	54	6495
2026-01-25 12:03:49.25	79.53	12.64	-40.8	-41.8	22.8	0.00e+00	0	41	0	640679936	54	6282
2026-01-25 12:03:50.26	79.73	12.64	-41.2	-42.2	22.3	0.00e+00	0	41	0	642777088	54	6576
2026-01-25 12:03:51.27	79.93	12.63	-40.8	-41.9	22.7	0.00e+00	0	41	0	644874240	54	6329
2026-01-25 12:03:52.27	80.12	12.62	-41.0	-42.0	22.5	0.00e+00	0	41	0	646971392	54	6443
2026-01-25 12:03:53.28	80.32	12.61	-41.2	-42.2	22.3	0.00e+00	0	41	0	649068544	54	6615
2026-01-25 12:03:54.29	80.51	12.60	-41.0	-42.0	22.4	0.00e+00	0	41	0	650117120	54	6456
2026-01-25 12:03:55.30	80.71	12.59	-41.2	-42.3	22.3	0.00e+00	0	41	0	652214272	54	6631
2026-01-25 12:03:56.31	80.91	12.58	-41.0	-42.1	22.5	0.00e+00	0	41	0	654311424	54	6491
2026-01-25 12:03:57.32	81.10	12.57	-40.8	-41.8	22.7	0.00e+00	0	41	0	656408576	54	6293
2026-01-25 12:03:58.33	81.30	12.56	-40.8	-41.8	22.6	0.00e+00	0	41	0	658505728	54	6297
2026-01-25 12:03:59.34	81.49	12.54	-41.0	-42.1	22.4	0.00e+00	0	41	0	659554304	54	6472
2026-01-25 12:04:00.35	81.69	12.53	-40.9	-41.9	22.6	0.00e+00	0	41	0	661651456	54	6319
2026-01-25 12:04:01.36	81.88	12.52	-41.1	-42.2	22.4	0.00e+00	0	41	0	663748608	54	6568
2026-01-25 12:04:02.37	82.08	12.51	-41.1	-42.1	22.4	0.00e+00	0	41	0	665845760	54	6511
2026-01-25 12:04:03.38	82.27	12.50	-41.3	-42.4	22.1	0.00e+00	0	41	0	667942912	54	6702
2026-01-25 12:04:04.39	82.47	12.48	-41.8	-43.0	21.7	0.00e+00	0	41	0	668991488	54	7180
2026-01-25 12:04:05.39	82.66	12.47	-41.8	-43.0	21.6	0.00e+00	0	41	0	671088640	56	6394
2026-01-25 12:04:06.41	82.86	12.46	-41.2	-42.3	22.3	0.00e+00	0	41	0	673185792	56	5935
2026-01-25 12:04:07.42	83.05	12.44	-41.4	-42.5	22.2	0.00e+00	0	41	0	675282944	56	6037
2026-01-25 12:04:08.43	83.25	12.43	-41.5	-42.6	22.1	0.00e+00	0	41	0	677380096	56	6125
2026-01-25 12:04:09.43	83.44	12.41	-41.5	-42.5	22.1	0.00e+00	0	41	0	678428672	56	6094
2026-01-25 12:04:10.44	83.63	12.40	-41.4	-42.4	22.3	0.00e+00	0	41	0	680525824	56	6011
2026-01-25 12:04:11.45	83.83	12.38	-41.1	-42.1	22.5	0.00e+00	0	41	0	682622976	56	5789
2026-01-25 12:04:12.46	84.02	12.37	-41.1	-42.1	22.7	0.00e+00	0	41	0	684720128	56	5779
2026-01-25 12:04:13.47	84.22	12.35	-40.8	-41.8	22.8	0.00e+00	0	41	0	686817280	56	5623
2026-01-25 12:04:14.48	84.41	12.34	-40.6	-41.6	22.9	0.00e+00	0	41	0	687865856	54	6117
2026-01-25 12:04:15.49	84.60	12.32	-40.7	-41.7	22.7	0.00e+00	0	41	0	689963008	54	6223
2026-01-25 12:04:16.50	84.79	12.31	-40.7	-41.6	22.9	0.00e+00	0	41	0	692060160	54	6163
2026-01-25 12:04:17.51	84.99	12.29	-40.7	-41.7	22.8	0.00e+00	0	41	0	694157312	54	6225
2026-01-25 12:04:18.52	85.18	12.27	-40.6	-41.5	22.9	0.00e+00	0	41	0	696254464	54	6094
2026-01-25 12:04:19.53	85.37	12.26	-40.5	-41.5	23.0	0.00e+00	0	41	0	698351616	54	6044
2026-01-25 12:04:20.54	85.56	12.24	-40.5	-41.4	23.0	0.00e+00	0	41	0	699400192	54	6004
2026-01-25 12:04:21.55	85.76	12.22	-40.6	-41.6	23.0	0.00e+00	0	41	0	701497344	54	6122
2026-01-25 12:04:22.55	85.94	12.20	-40.2	-41.1	23.4	0.00e+00	0	41	0	703594496	54	5799
2026-01-25 12:04:23.56	86.14	12.18	-40.3	-41.2	23.2	0.00e+00	0	41	0	705691648	54	5860
2026-01-25 12:04:24.57	86.33	12.17	-40.4	-41.3	23.1	0.00e+00	0	41	0	707788800	54	5952
2026-01-25 12:04:25.58	86.52	12.15	-40.5	-41.5	23.1	0.00e+00	0	41	0	708837376	54	6047
2026-01-25 12:04:26.59	86.71	12.13	-40.3	-41.3	23.1	0.00e+00	0	41	0	710934528	54	5905
2026-01-25 12:04:27.60	86.90	12.11	-40.5	-41.5	23.0	0.00e+00	0	41	0	713031680	54	6040
2026-01-25 12:04:28.61	87.09	12.09	-40.6	-41.6	22.8	0.00e+00	0	41	0	715128832	54	6148
2026-01-25 12:04:29.62	87.28	12.07	-40.5	-41.4	23.1	0.00e+00	0	41	0	717225984	54	6008
2026-01-25 12:04:30.63	87.47	12.05	-40.5	-41.5	23.0	0.00e+00	0	41	0	718274560	54	6042
2026-01-25 12:04:31.64	87.66	12.03	-40.5	-41.5	23.0	0.00e+00	0	41	0	720371712	54	6034
2026-01-25 12:04:32.65	87.85	12.01	-40.5	-41.4	23.1	0.00e+00	0	41	0	722468864	54	6012
2026-01-25 12:04:33.65	88.03	11.99	-40.4	-41.4	23.1	0.00e+00	0	41	0	724566016	54	5981
2026-01-25 12:04:34.66	88.22	11.97	-40.3	-41.3	23.2	0.00e+00	0	41	0	726663168	54	5936
2026-01-25 12:04:35.67	88.41	11.95	-40.1	-41.1	23.4	0.00e+00	0	41	0	727711744	54	5781
2026-01-25 12:04:36.68	88.60	11.92	-40.0	-40.9	23.5	0.00e+00	0	41	0	729808896	54	5692
2026-01-25 12:04:37.69	88.79	11.90	-40.2	-41.2	23.1	0.00e+00	0	41	0	731906048	54	5830
2026-01-25 12:04:38.70	88.98	11.88	-40.2	-41.2	23.2	0.00e+00	0	41	0	734003200	54	5889
2026-01-25 12:04:39.71	89.16	11.86	-40.3	-41.3	23.1	0.00e+00	0	41	0	736100352	54	5962
2026-01-25 12:04:40.72	89.35	11.83	-40.2	-41.2	23.2	0.00e+00	0	41	0	737148928	54	5893
2026-01-25 12:04:41.73	89.54	11.81	-40.4	-41.4	23.1	0.00e+00	0	41	0	739246080	54	6024
2026-01-25 12:04:42.74	89.72	11.79	-40.1	-41.1	23.3	0.00e+00	0	41	0	741343232	54	5764
2026-01-25 12:04:43.75	89.91	11.77	-40.2	-41.2	23.2	0.00e+00	0	41	0	743440384	54	5862
2026-01-25 12:04:44.76	90.09	11.74	-40.3	-41.2	23.1	0.00e+00	0	41	0	745537536	54	5867
2026-01-25 12:04:45.77	90.28	11.72	-40.4	-41.3	23.1	0.00e+00	0	41	0	746586112	54	5940
2026-01-25 12:04:46.78	90.47	11.69	-40.5	-41.5	22.9	0.00e+00	0	41	0	748683264	54	6064
2026-01-25 12:04:47.78	90.65	11.67	-40.5	-41.5	22.9	0.00e+00	0	41	0	750780416	54	6073
2026-01-25 12:04:48.79	90.83	11.64	-40.4	-41.4	23.1	0.00e+00	0	41	0	752877568	54	5970
2026-01-25 12:04:49.80	91.02	11.62	-40.4	-41.4	23.1	0.00e+00	0	41	0	754974720	54	5996
2026-01-25 12:04:50.81	91.20	11.59	-40.5	-41.4	23.1	0.00e+00	0	41	0	756023296	54	6033
2026-01-25 12:04:51.82	91.39	11.57	-40.3	-41.3	23.1	0.00e+00	0	41	0	758120448	54	5925
2026-01-25 12:04:52.83	91.57	11.54	-40.3	-41.3	23.2	0.00e+00	0	41	0	760217600	54	5941
2026-01-25 12:04:53.84	91.75	11.52	-40.3	-41.2	23.3	0.00e+00	0	41	0	762314752	54	5875
2026-01-25 12:04:54.85	91.94	11.49	-40.1	-41.1	23.4	0.00e+00	0	41	0	764411904	54	5772
2026-01-25 12:04:55.85	92.12	11.47	-40.1	-41.1	23.4	0.00e+00	0	41	0	765460480	54	5772
2026-01-25 12:04:56.86	92.30	11.44	-40.2	-41.2	23.3	0.00e+00	0	41	0	767557632	54	5843
2026-01-25 12:04:57.87	92.48	11.41	-40.1	-41.0	23.4	0.00e+00	0	41	0	769654784	54	5751
2026-01-25 12:04:58.88	92.66	11.39	-40.3	-41.2	23.3	0.00e+00	0	41	0	771751936	54	5854
2026-01-25 12:04:59.89	92.84	11.36	-40.2	-41.1	23.3	0.00e+00	0	41	0	773849088	54	5828
2026-01-25 12:05:00.90	93.02	11.33	-40.3	-41.2	23.2	0.00e+00	0	41	0	774897664	54	5878
2026-01-25 12:05:01.91	93.21	11.30	-40.3	-41.3	23.1	0.00e+00	0	41	0	776994816	54	5912
2026-01-25 12:05:02.92	93.39	11.27	-40.2	-41.2	23.2	0.00e+00	0	41	0	779091968	54	5854
2026-01-25 12:05:03.93	93.57	11.25	-40.4	-41.4	23.0	0.00e+00	0	41	0	781189120	54	5965
2026-01-25 12:05:04.94	93.75	11.22	-40.2	-41.2	23.1	0.00e+00	0	41	0	783286272	54	5845
2026-01-25 12:05:05.95	93.92	11.19	-40.5	-41.4	22.9	0.00e+00	0	41	0	784334848	54	6023
2026-01-25 12:05:06.95	94.10	11.16	-40.7	-41.7	22.7	0.00e+00	0	41	0	786432000	54	6208
2026-01-25 12:05:07.96	94.28	11.13	-40.7	-41.7	22.6	0.00e+00	0	41	0	788529152	54	6200
2026-01-25 12:05:08.98	94.46	11.10	-41.1	-42.2	22.3	0.00e+00	0	41	0	790626304	54	6559
2026-01-25 12:05:09.99	94.64	11.07	-41.1	-42.1	22.3	0.00e+00	0	41	0	792723456	54	6493
2026-01-25 12:05:11.00	94.82	11.04	-41.1	-42.2	22.3	0.00e+00	0	41	0	794820608	54	6551
2026-01-25 12:05:12.01	94.99	11.01	-41.3	-42.4	21.9	0.00e+00	0	41	0	795869184	54	6744
2026-01-25 12:05:13.01	95.17	10.98	-41.2	-42.2	22.1	0.00e+00	0	41	0	797966336	54	6604
2026-01-25 12:05:14.03	95.35	10.95	-41.2	-42.3	22.3	0.00e+00	0	41	0	800063488	54	6644
2026-01-25 12:05:15.03	95.52	10.92	-41.5	-42.6	22.0	0.00e+00	0	41	0	802160640	54	6864
2026-01-25 12:05:16.04	95.70	10.89	-41.5	-42.5	22.1	0.00e+00	0	41	0	804257792	54	6837
2026-01-25 12:05:17.05	95.87	10.86	-41.8	-43.0	21.6	0.00e+00	0	41	0	805306368	56	6395
2026-01-25 12:05:18.06	96.05	10.83	-42.0	-43.1	21.6	0.00e+00	0	41	0	807403520	56	6536
2026-01-25 12:05:19.07	96.22	10.80	-42.2	-43.3	21.3	0.00e+00	0	41	0	809500672	56	6678
2026-01-25 12:05:20.08	96.40	10.77	-42.3	-43.4	21.3	0.00e+00	0	41	0	811597824	56	6762
2026-01-25 12:05:21.09	96.57	10.74	-42.6	-43.8	20.7	0.00e+00	0	41	0	813694976	56	7052
2026-01-25 12:05:22.10	96.75	10.71	-42.6	-43.9	20.9	0.00e+00	0	41	0	814743552	56	7110
2026-01-25 12:05:23.11	96.92	10.67	-42.1	-43.3	21.4	0.00e+00	0	41	0	816840704	56	6644
2026-01-25 12:05:24.12	97.09	10.64	-42.4	-43.6	21.1	0.00e+00	0	41	0	818937856	56	6854
2026-01-25 12:05:25.13	97.26	10.61	-41.9	-43.1	21.5	0.00e+00	0	41	0	821035008	56	6494
2026-01-25 12:05:26.14	97.44	10.58	-41.9	-43.0	21.6	0.00e+00	0	41	0	823132160	56	6427
2026-01-25 12:05:27.15	97.61	10.54	-42.0	-43.2	21.3	0.00e+00	0	41	0	824180736	56	6579
2026-01-25 12:05:28.16	97.78	10.51	-42.5	-43.8	20.8	0.00e+00	0	41	0	826277888	56	7017
2026-01-25 12:05:29.17	97.95	10.48	-42.5	-43.7	20.6	0.00e+00	0	41	0	828375040	56	7006
2026-01-25 12:05:30.18	98.12	10.44	-42.6	-43.9	20.5	0.00e+00	0	41	0	830472192	58	6372
2026-01-25 12:05:31.18	98.29	10.41	-42.5	-43.8	20.5	0.00e+00	0	41	0	832569344	58	6279
2026-01-25 12:05:32.20	98.46	10.38	-42.8	-44.1	20.4	0.00e+00	0	41	0	833617920	58	6501
2026-01-25 12:05:33.21	98.63	10.34	-43.1	-44.5	20.2	0.00e+00	0	41	0	835715072	58	6812
2026-01-25 12:05:34.21	98.80	10.31	-43.0	-44.4	20.3	0.00e+00	0	41	0	837812224	58	6699
2026-01-25 12:05:35.22	98.97	10.28	-42.9	-44.3	20.3	0.00e+00	0	41	0	839909376	58	6617
2026-01-25 12:05:36.23	99.14	10.24	-43.0	-44.4	20.1	0.00e+00	0	41	0	842006528	58	6767
2026-01-25 12:05:37.24	99.31	10.21	-43.3	-44.7	19.6	0.00e+00	0	41	0	843055104	58	6997
2026-01-25 12:05:38.25	99.47	10.17	-43.6	-45.1	19.5	0.00e+00	0	41	0	845152256	58	7298
2026-01-25 12:05:39.26	99.64	10.14	-44.0	-45.6	18.9	0.00e+00	0	41	0	847249408	60	6924
2026-01-25 12:05:40.27	99.81	10.10	-44.2	-45.9	18.7	0.00e+00	0	41	0	849346560	60	7121
2026-01-25 12:05:41.28	99.97	10.07	-44.4	-46.2	18.5	0.00e+00	0	41	0	851443712	60	7343
2026-01-25 12:05:42.29	100.14	10.03	-44.6	-46.3	18.5	0.00e+00	0	41	0	852492288	60	7466
2026-01-25 12:05:43.30	100.31	10.00	-44.6	-46.4	18.4	0.00e+00	0	41	0	854589440	60	7511
2026-01-25 12:05:44.31	100.47	9.96	-44.1	-45.8	18.9	0.00e+00	0	41	0	856686592	60	7011
2026-01-25 12:05:45.32	100.64	9.92	-43.7	-45.2	19.6	0.00e+00	0	41	0	858783744	60	6563
2026-01-25 12:05:46.33	100.80	9.89	-43.7	-45.2	19.4	0.00e+00	0	41	0	860880896	60	6598
2026-01-25 12:05:47.34	100.97	9.85	-43.5	-45.1	19.7	0.00e+00	0	41	0	862978048	60	6470
2026-01-25 12:05:48.35	101.13	9.82	-43.4	-45.0	19.7	0.00e+00	0	41	0	864026624	60	6394
2026-01-25 12:05:49.36	101.29	9.78	-43.1	-44.6	20.1	0.00e+00	0	41	0	866123776	60	6107
2026-01-25 12:05:50.37	101.46	9.74	-43.3	-44.8	19.9	0.00e+00	0	41	0	868220928	60	6256
2026-01-25 12:05:51.37	101.62	9.71	-43.5	-44.9	19.8	0.00e+00	0	41	0	870318080	60	6387
2026-01-25 12:05:52.39	101.78	9.67	-43.5	-45.0	19.8	0.00e+00	0	41	0	872415232	60	6405
2026-01-25 12:05:53.40	101.94	9.63	-43.4	-44.9	19.8	0.00e+00	0	41	0	873463808	60	6331
2026-01-25 12:05:54.41	102.10	9.60	-43.3	-44.8	19.9	0.00e+00	0	41	0	875560960	60	6296
2026-01-25 12:05:55.41	102.26	9.56	-43.2	-44.8	19.9	0.00e+00	0	41	0	877658112	60	6275
2026-01-25 12:05:56.42	102.42	9.52	-43.5	-45.2	19.5	0.00e+00	0	41	0	879755264	60	6553
2026-01-25 12:05:57.43	102.59	9.48	-43.5	-45.3	19.4	0.00e+00	0	41	0	881852416	60	6640
2026-01-25 12:05:58.44	102.75	9.45	-43.8	-45.6	19.1	0.00e+00	0	41	0	882900992	60	6911
2026-01-25 12:05:59.45	102.90	9.41	-43.7	-45.4	19.2	0.00e+00	0	41	0	884998144	60	6747
2026-01-25 12:06:00.46	103.06	9.37	-43.7	-45.5	19.2	0.00e+00	0	41	0	887095296	60	6812
2026-01-25 12:06:01.47	103.22	9.33	-43.9	-45.8	18.9	0.00e+00	0	41	0	889192448	60	7025
2026-01-25 12:06:02.48	103.38	9.29	-43.8	-45.7	18.9	0.00e+00	0	41	0	891289600	60	6962
2026-01-25 12:06:03.49	103.54	9.26	-43.7	-45.7	19.0	0.00e+00	0	41	0	892338176	60	6936
2026-01-25 12:06:04.49	103.69	9.22	-43.4	-45.3	19.2	0.00e+00	0	41	0	894435328	60	6647
2026-01-25 12:06:05.51	103.85	9.18	-43.1	-45.0	19.4	0.00e+00	0	41	0	896532480	60	6453
2026-01-25 12:06:06.51	104.01	9.14	-42.9	-44.6	19.9	0.00e+00	0	41	0	898629632	60	6168
2026-01-25 12:06:07.52	104.17	9.10	-43.0	-44.6	19.9	0.00e+00	0	41	0	900726784	60	6134
2026-01-25 12:06:08.53	104.32	9.06	-43.2	-44.7	19.7	0.00e+00	0	41	0	901775360	60	6235
2026-01-25 12:06:09.54	104.48	9.02	-43.0	-44.5	20.0	0.00e+00	0	41	0	903872512	60	6046
2026-01-25 12:06:10.55	104.63	8.98	-42.9	-44.4	20.2	0.00e+00	0	41	0	905969664	60	5977
2026-01-25 12:06:11.56	104.79	8.94	-43.1	-44.6	20.0	0.00e+00	0	41	0	908066816	60	6117
2026-01-25 12:06:12.57	104.94	8.90	-43.3	-44.8	19.6	0.00e+00	0	41	0	910163968	60	6287
2026-01-25 12:06:13.58	105.09	8.87	-43.4	-44.9	19.5	0.00e+00	0	41	0	911212544	60	6363
2026-01-25 12:06:14.59	105.25	8.83	-43.5	-45.0	19.5	0.00e+00	0	41	0	913309696	60	6453
2026-01-25 12:06:15.60	105.40	8.79	-43.4	-44.8	19.8	0.00e+00	0	41	0	915406848	60	6300
2026-01-25 12:06:16.61	105.55	8.75	-43.0	-44.3	20.4	0.00e+00	0	41	0	917504000	60	5941
2026-01-25 12:06:17.62	105.71	8.71	-43.0	-44.3	20.2	0.00e+00	0	41	0	919601152	60	5956
2026-01-25 12:06:18.63	105.86	8.67	-42.4	-43.6	20.8	0.00e+00	0	41	0	920649728	58	6170
2026-01-25 12:06:19.64	106.01	8.63	-42.2	-43.5	20.9	0.00e+00	0	41	0	922746880	58	6035
2026-01-25 12:06:20.65	106.16	8.58	-42.2	-43.4	21.0	0.00e+00	0	41	0	924844032	58	6030
2026-01-25 12:06:21.66	106.31	8.54	-42.4	-43.7	20.8	0.00e+00	0	41	0	926941184	58	6181
2026-01-25 12:06:22.67	106.46	8.50	-42.5	-43.8	20.7	0.00e+00	0	41	0	929038336	58	6266
2026-01-25 12:06:23.68	106.61	8.46	-42.4	-43.6	20.8	0.00e+00	0	41	0	931135488	58	6152
2026-01-25 12:06:24.69	106.76	8.42	-42.5	-43.8	20.6	0.00e+00	0	41	0	932184064	58	6256
2026-01-25 12:06:25.70	106.91	8.38	-42.5	-43.7	20.6	0.00e+00	0	41	0	934281216	58	6230
2026-01-25 12:06:26.71	107.06	8.34	-42.2	-43.5	20.9	0.00e+00	0	41	0	936378368	58	6074
2026-01-25 12:06:27.72	107.21	8.30	-42.7	-44.1	20.3	0.00e+00	0	41	0	938475520	58	6507
2026-01-25 12:06:28.72	107.35	8.26	-42.7	-44.2	20.2	0.00e+00	0	41	0	940572672	58	6585
2026-01-25 12:06:29.73	107.50	8.22	-42.9	-44.4	20.0	0.00e+00	0	41	0	941621248	58	6758
2026-01-25 12:06:30.74	107.65	8.18	-43.1	-44.5	20.0	0.00e+00	0	41	0	943718400	58	6795
2026-01-25 12:06:31.75	107.80	8.13	-42.9	-44.2	20.2	0.00e+00	0	41	0	945815552	58	6608
2026-01-25 12:06:32.76	107.94	8.09	-42.6	-44.1	20.4	0.00e+00	0	41	0	947912704	58	6512
2026-01-25 12:06:33.77	108.09	8.05	-42.5	-44.2	20.3	0.00e+00	0	41	0	950009856	58	6542
2026-01-25 12:06:34.78	108.23	8.01	-42.5	-44.0	20.4	0.00e+00	0	41	0	951058432	58	6463
2026-01-25 12:06:35.79	108.38	7.97	-42.7	-44.0	20.4	0.00e+00	0	41	0	953155584	58	6432
2026-01-25 12:06:36.80	108.52	7.93	-42.7	-44.0	20.4	0.00e+00	0	41	0	955252736	58	6437
2026-01-25 12:06:37.81	108.67	7.88	-42.6	-43.9	20.5	0.00e+00	0	41	0	957349888	58	6370
2026-01-25 12:06:38.82	108.81	7.84	-42.3	-43.8	20.7	0.00e+00	0	41	0	959447040	58	6258
2026-01-25 12:06:39.83	108.95	7.80	-42.4	-43.8	20.7	0.00e+00	0	41	0	960495616	58	6292
2026-01-25 12:06:40.84	109.10	7.76	-42.2	-43.5	21.0	0.00e+00	0	41	0	962592768	58	6051
2026-01-25 12:06:41.85	109.24	7.72	-42.0	-43.2	21.1	0.00e+00	0	41	0	964689920	58	5853
2026-01-25 12:06:42.85	109.38	7.67	-41.7	-42.9	21.4	0.00e+00	0	41	0	966787072	58	5657
2026-01-25 12:06:43.86	109.52	7.63	-41.8	-42.9	21.3	0.00e+00	0	41	0	968884224	56	6365
2026-01-25 12:06:44.87	109.66	7.59	-41.9	-43.1	21.1	0.00e+00	0	41	0	969932800	56	6522
2026-01-25 12:06:45.88	109.81	7.55	-41.7	-42.9	21.5	0.00e+00	0	41	0	972029952	56	6319
2026-01-25 12:06:46.89	109.95	7.50	-41.9	-43.1	21.1	0.00e+00	0	41	0	974127104	56	6497
2026-01-25 12:06:47.90	110.09	7.46	-42.2	-43.5	20.9	0.00e+00	0	41	0	976224256	56	6777
2026-01-25 12:06:48.91	110.23	7.42	-41.9	-43.1	21.3	0.00e+00	0	41	0	978321408	56	6482
2026-01-25 12:06:49.92	110.37	7.37	-42.2	-43.4	21.1	0.00e+00	0	41	0	979369984	56	6722
2026-01-25 12:06:50.92	110.50	7.33	-42.0	-43.1	21.3	0.00e+00	0	41	0	981467136	56	6533
2026-01-25 12:06:51.93	110.64	7.29	-41.8	-43.0	21.4	0.00e+00	0	41	0	983564288	56	6438
2026-01-25 12:06:52.94	110.78	7.25	-42.0	-43.2	21.2	0.00e+00	0	41	0	985661440	56	6573
2026-01-25 12:06:53.95	110.92	7.20	-42.0	-43.2	21.1	0.00e+00	0	41	0	987758592	56	6562
2026-01-25 12:06:54.96	111.06	7.16	-42.0	-43.2	21.2	0.00e+00	0	41	0	988807168	56	6577
2026-01-25 12:06:55.97	111.19	7.12	-41.9	-43.1	21.3	0.00e+00	0	41	0	990904320	56	6472
2026-01-25 12:06:56.98	111.33	7.07	-41.7	-42.8	21.5	0.00e+00	0	41	0	993001472	56	6307
2026-01-25 12:06:57.99	111.47	7.03	-41.9	-43.1	21.2	0.00e+00	0	41	0	995098624	56	6478
2026-01-25 12:06:59.00	111.60	6.99	-41.9	-43.0	21.2	0.00e+00	0	41	0	997195776	56	6463
2026-01-25 12:07:00.01	111.74	6.94	-42.0	-43.2	21.1	0.00e+00	0	41	0	998244352	56	6549
2026-01-25 12:07:01.02	111.87	6.90	-42.1	-43.3	21.1	0.00e+00	0	41	0	1000341504	56	6671
2026-01-25 12:07:02.03	112.01	6.85	-42.0	-43.2	21.1	0.00e+00	0	41	0	1002438656	56	6607
2026-01-25 12:07:03.04	112.14	6.81	-42.3	-43.6	20.7	0.00e+00	0	41	0	1004535808	56	6868
2026-01-25 12:07:04.05	112.28	6.77	-42.1	-43.3	20.9	0.00e+00	0	41	0	1006632960	56	6672
2026-01-25 12:07:05.05	112.41	6.72	-42.1	-43.3	21.0	0.00e+00	0	41	0	1007681536	56	6678
2026-01-25 12:07:06.06	112.54	6.68	-42.0	-43.2	21.2	0.00e+00	0	41	0	1009778688	56	6544
2026-01-25 12:07:07.07	112.68	6.64	-42.0	-43.2	21.1	0.00e+00	0	41	0	1011875840	56	6559
2026-01-25 12:07:08.08	112.81	6.59	-41.9	-43.2	21.2	0.00e+00	0	41	0	1013972992	56	6544
2026-01-25 12:07:09.09	112.94	6.55	-41.8	-43.0	21.3	0.00e+00	0	41	0	1016070144	56	6425
2026-01-25 12:07:10.10	113.07	6.50	-41.6	-42.7	21.5	0.00e+00	0	41	0	1017118720	56	6204
2026-01-25 12:07:11.11	113.20	6.46	-41.6	-42.7	21.4	0.00e+00	0	41	0	1019215872	56	6238
2026-01-25 12:07:12.12	113.33	6.41	-42.0	-43.2	21.1	0.00e+00	0	41	0	1021313024	56	6571
2026-01-25 12:07:13.13	113.47	6.37	-42.3	-43.6	20.8	0.00e+00	0	41	0	1023410176	56	6868
2026-01-25 12:07:14.14	113.60	6.33	-42.2	-43.4	20.8	0.00e+00	0	41	0	1025507328	56	6753
2026-01-25 12:07:15.15	113.73	6.28	-42.6	-43.9	20.4	0.00e+00	0	41	0	1027604480	56	7122
2026-01-25 12:07:16.16	113.85	6.24	-42.5	-43.8	20.5	0.00e+00	0	41	0	1028653056	58	6296
2026-01-25 12:07:17.17	113.98	6.19	-41.7	-42.9	21.4	0.00e+00	0	41	0	1030750208	56	6340
2026-01-25 12:07:18.18	114.11	6.15	-42.2	-43.4	20.9	0.00e+00	0	41	0	1032847360	56	6749
2026-01-25 12:07:19.19	114.24	6.10	-42.3	-43.6	20.7	0.00e+00	0	41	0	1034944512	56	6901
2026-01-25 12:07:20.20	114.37	6.06	-42.1	-43.4	20.9	0.00e+00	0	41	0	1037041664	56	6720
2026-01-25 12:07:21.21	114.50	6.01	-42.1	-43.4	20.9	0.00e+00	0	41	0	1038090240	56	6708
2026-01-25 12:07:22.22	114.62	5.97	-42.0	-43.3	20.9	0.00e+00	0	42	0	1040187392	56	6673
2026-01-25 12:07:23.23	114.75	5.92	-41.4	-42.6	21.6	0.00e+00	0	42	0	1042284544	56	6156
2026-01-25 12:07:24.24	114.88	5.88	-41.2	-42.4	21.8	0.00e+00	0	41	0	1044381696	56	5990
2026-01-25 12:07:25.25	115.00	5.84	-41.3	-42.5	21.6	0.00e+00	0	41	0	1046478848	56	6081
2026-01-25 12:07:26.25	115.13	5.79	-41.8	-43.0	21.3	0.00e+00	0	41	0	1047527424	56	6452
2026-01-25 12:07:27.26	115.25	5.75	-41.9	-43.1	21.1	0.00e+00	0	41	0	1049624576	56	6499
2026-01-25 12:07:28.27	115.38	5.70	-42.0	-43.2	21.1	0.00e+00	0	41	0	1051721728	56	6572
2026-01-25 12:07:29.28	115.50	5.66	-41.9	-43.1	21.2	0.00e+00	0	42	0	1053818880	56	6510
2026-01-25 12:07:30.29	115.63	5.61	-42.1	-43.3	20.9	0.00e+00	0	41	0	1055916032	56	6646
2026-01-25 12:07:31.30	115.75	5.57	-42.4	-43.7	20.5	0.00e+00	0	41	0	1056964608	56	6941
2026-01-25 12:07:32.31	115.87	5.52	-42.7	-44.1	20.1	0.00e+00	0	42	0	1059061760	58	6482
2026-01-25 12:07:33.32	116.00	5.48	-42.0	-43.3	20.8	0.00e+00	0	41	0	1061158912	58	5916
2026-01-25 12:07:34.33	116.12	5.43	-42.5	-43.8	20.3	0.00e+00	0	42	0	1063256064	58	6301
2026-01-25 12:07:35.34	116.24	5.39	-42.6	-43.9	20.4	0.00e+00	0	42	0	1065353216	58	6367
2026-01-25 12:07:36.35	116.36	5.34	-42.4	-43.7	20.4	0.00e+00	0	41	0	1066401792	58	6205
2026-01-25 12:07:37.36	116.49	5.30	-42.3	-43.6	20.4	0.00e+00	0	41	0	1068498944	58	6167
2026-01-25 12:07:38.37	116.61	5.25	-42.2	-43.5	20.5	0.00e+00	0	41	0	1070596096	58	6066
2026-01-25 12:07:39.38	116.73	5.20	-42.4	-43.7	20.3	0.00e+00	0	41	0	1072693248	58	6215
2026-01-25 12:07:40.39	116.85	5.16	-42.9	-44.4	19.5	0.00e+00	0	41	0	1074790400	58	6697
2026-01-25 12:07:41.40	116.97	5.11	-42.1	-43.5	20.5	0.00e+00	0	41	0	1075838976	58	6044
2026-01-25 12:07:42.41	117.09	5.07	-42.2	-43.6	20.3	0.00e+00	0	41	0	1077936128	58	6110
2026-01-25 12:07:43.41	117.21	5.02	-42.1	-43.4	20.4	0.00e+00	0	42	0	1080033280	58	6031
2026-01-25 12:07:44.42	117.33	4.98	-42.8	-44.3	19.8	0.00e+00	0	41	0	1082130432	58	6651
2026-01-25 12:07:45.43	117.45	4.93	-42.5	-44.1	20.0	0.00e+00	0	41	0	1084227584	58	6490
2026-01-25 12:07:46.44	117.56	4.89	-42.7	-44.3	19.7	0.00e+00	0	41	0	1085276160	58	6683
2026-01-25 12:07:47.45	117.68	4.84	-43.1	-44.9	19.1	0.00e+00	0	41	0	1087373312	58	7118
2026-01-25 12:07:48.46	117.80	4.80	-43.3	-45.1	19.0	0.00e+00	0	41	0	1089470464	58	7286
2026-01-25 12:07:49.47	117.92	4.75	-43.2	-44.8	19.3	0.00e+00	0	41	0	1091567616	58	7060
2026-01-25 12:07:50.48	118.03	4.71	-42.8	-44.3	19.9	0.00e+00	0	41	0	1093664768	58	6634
2026-01-25 12:07:51.49	118.15	4.66	-42.7	-44.1	19.9	0.00e+00	0	41	0	1095761920	58	6516
2026-01-25 12:07:52.50	118.27	4.61	-42.9	-44.4	19.7	0.00e+00	0	41	0	1096810496	58	6697
2026-01-25 12:07:53.50	118.38	4.57	-42.6	-44.0	20.0	0.00e+00	0	41	0	1098907648	58	6422
2026-01-25 12:07:54.52	118.50	4.52	-42.4	-43.8	20.2	0.00e+00	0	41	0	1101004800	58	6294
2026-01-25 12:07:55.52	118.61	4.48	-42.6	-44.0	19.8	0.00e+00	0	41	0	1103101952	58	6436
2026-01-25 12:07:56.53	118.73	4.43	-43.1	-44.7	19.2	0.00e+00	0	42	0	1105199104	58	6934
2026-01-25 12:07:57.54	118.84	4.39	-43.5	-45.1	18.9	0.00e+00	0	41	0	1106247680	58	7314
2026-01-25 12:07:58.55	118.96	4.34	-42.5	-44.0	20.0	0.00e+00	0	41	0	1108344832	58	6395
2026-01-25 12:07:59.56	119.07	4.30	-42.6	-44.0	19.8	0.00e+00	0	41	0	1110441984	58	6442
2026-01-25 12:08:00.57	119.19	4.25	-43.4	-45.0	19.0	0.00e+00	0	41	0	1112539136	58	7253
2026-01-25 12:08:01.58	119.30	4.20	-43.0	-44.4	19.5	0.00e+00	0	41	0	1114636288	58	6739
2026-01-25 12:08:02.59	119.41	4.16	-43.4	-44.9	19.1	0.00e+00	0	41	0	1115684864	58	7162
2026-01-25 12:08:03.60	119.52	4.11	-43.4	-45.0	19.0	0.00e+00	0	41	0	1117782016	58	7244
2026-01-25 12:08:04.61	119.64	4.07	-43.4	-45.0	19.2	0.00e+00	0	41	0	1119879168	58	7222
2026-01-25 12:08:05.62	119.75	4.02	-42.7	-44.3	19.5	0.00e+00	0	42	0	1121976320	58	6636
2026-01-25 12:08:06.63	119.86	3.98	-42.7	-44.3	19.6	0.00e+00	0	42	0	1124073472	58	6681
2026-01-25 12:08:07.64	119.97	3.93	-43.4	-45.2	18.8	0.00e+00	0	41	0	1125122048	58	7417
2026-01-25 12:08:08.65	120.08	3.88	-43.5	-45.3	18.4	0.00e+00	0	42	0	1127219200	58	7488
2026-01-25 12:08:09.66	120.19	3.84	-44.3	-46.4	17.6	0.00e+00	0	42	0	1129316352	60	7583
2026-01-25 12:08:10.67	120.30	3.79	-43.5	-45.2	18.7	0.00e+00	0	42	0	1131413504	60	6576
2026-01-25 12:08:11.68	120.41	3.75	-44.6	-46.7	17.4	0.00e+00	0	41	0	1133510656	60	7829
2026-01-25 12:08:12.68	120.52	3.70	-44.5	-46.6	17.3	0.00e+00	0	41	0	1134559232	60	7687
2026-01-25 12:08:13.69	120.63	3.66	-43.9	-45.6	18.8	0.00e+00	0	42	0	1136656384	60	6907
2026-01-25 12:08:14.70	120.74	3.61	-43.7	-45.4	18.5	0.00e+00	0	42	0	1138753536	60	6722
2026-01-25 12:08:15.71	120.85	3.56	-45.0	-47.3	16.4	0.00e+00	0	41	0	1140850688	60	8358
2026-01-25 12:08:16.72	120.96	3.52	-45.0	-47.2	16.6	0.00e+00	0	41	0	1142947840	60	8276
2026-01-25 12:08:17.73	121.06	3.47	-44.6	-46.6	17.1	0.00e+00	0	42	0	1143996416	60	7728
2026-01-25 12:08:18.74	121.17	3.43	-44.1	-45.9	18.0	0.00e+00	0	41	0	1146093568	60	7166
2026-01-25 12:08:19.75	121.28	3.38	-44.2	-46.1	17.6	0.00e+00	0	42	0	1148190720	60	7299
2026-01-25 12:08:20.76	121.39	3.33	-44.2	-46.1	17.7	0.00e+00	0	42	0	1150287872	60	7319
2026-01-25 12:08:21.77	121.49	3.29	-44.1	-46.0	17.8	0.00e+00	0	42	0	1152385024	60	7175
2026-01-25 12:08:22.78	121.60	3.24	-44.0	-45.9	17.9	0.00e+00	0	42	0	1153433600	60	7148
2026-01-25 12:08:23.79	121.71	3.20	-43.4	-45.0	18.5	0.00e+00	0	42	0	1155530752	60	6464
2026-01-25 12:08:24.80	121.81	3.15	-44.6	-46.7	16.9	0.00e+00	0	42	0	1157627904	60	7846
2026-01-25 12:08:25.80	121.92	3.11	-43.8	-45.7	18.1	0.00e+00	0	42	0	1159725056	60	6930
2026-01-25 12:08:26.81	122.02	3.06	-43.4	-45.2	18.4	0.00e+00	0	42	0	1161822208	60	6566
2026-01-25 12:08:27.82	122.13	3.01	-43.5	-45.3	18.3	0.00e+00	0	42	0	1163919360	60	6621
2026-01-25 12:08:28.83	122.23	2.97	-49.7	-65.1	3.6	1.24e-01	0	42	104	1164967936	60	65309
2026-01-25 12:08:29.84	122.33	2.92	-50.4	-65.6	3.6	1.51e+00	0	42	104	1164967936	60	68774
2026-01-25 12:08:30.85	122.44	2.88	-50.5	-65.8	3.6	1.51e+00	0	42	104	1164967936	60	70458
2026-01-25 12:08:31.86	122.54	2.83	-50.8	-66.0	3.6	1.51e+00	0	42	104	1164967936	60	71938
2026-01-25 12:08:32.87	122.65	2.78	-50.8	-66.1	3.6	1.51e+00	0	42	104	1164967936	60	72872
2026-01-25 12:08:33.88	122.75	2.74	-50.8	-66.2	3.6	1.51e+00	0	42	104	1164967936	60	73601
2026-01-25 12:08:34.89	122.85	2.69	-51.1	-66.3	3.6	1.51e+00	0	42	104	1164967936	60	74562
2026-01-25 12:08:35.90	122.95	2.65	-51.1	-66.3	3.6	1.51e+00	0	42	104	1164967936	60	74674
2026-01-25 12:08:36.91	123.06	2.60	-51.1	-66.3	3.6	1.51e+00	0	42	104	1164967936	60	74540
2026-01-25 12:08:37.92	123.16	2.55	-51.2	-66.4	3.6	1.51e+00	0	42	104	1164967936	60	75300
2026-01-25 12:08:38.93	123.26	2.51	-51.2	-66.4	3.6	1.51e+00	0	42	104	1164967936	60	75428
2026-01-25 12:08:39.94	123.36	2.46	-51.2	-66.5	3.6	1.51e+00	0	42	104	1164967936	60	75964
2026-01-25 12:08:40.95	123.46	2.42	-51.3	-66.4	3.6	1.51e+00	0	42	104	1164967936	60	75728
2026-01-25 12:08:41.96	123.56	2.37	-51.2	-66.4	3.6	1.51e+00	0	42	104	1164967936	60	75655
2026-01-25 12:08:42.97	123.66	2.33	-51.2	-66.4	3.6	1.51e+00	0	42	104	1164967936	60	75825
2026-01-25 12:08:43.98	123.76	2.28	-51.3	-66.5	3.6	1.51e+00	0	42	104	1164967936	60	76143
2026-01-25 12:08:44.99	123.86	2.23	-51.2	-66.4	3.6	1.51e+00	0	42	104	1164967936	60	75922
2026-01-25 12:08:46.00	123.96	2.19	-51.2	-66.4	3.6	1.51e+00	0	42	104	1164967936	60	75945
2026-01-25 12:08:47.01	124.06	2.14	-51.2	-66.4	3.6	1.51e+00	0	42	104	1164967936	60	75624
2026-01-25 12:08:48.02	124.16	2.10	-51.3	-66.4	3.6	1.51e+00	0	42	104	1164967936	60	75557
2026-01-25 12:08:49.03	124.26	2.05	-51.2	-66.4	3.6	1.51e+00	0	42	104	1164967936	60	75568
2026-01-25 12:08:50.04	124.36	2.00	-51.3	-66.5	3.6	1.51e+00	0	42	104	1164967936	60	76565
