passes_logs/2026/01/25/R4.6S_Anadyr/R4.6S_Anadyr__20260125_022346_NOAA_21_JPSS-2_rec.log

#Pass ID: 20260125_022346_NOAA 21 (JPSS-2)
#Satellite: NOAA 21 (JPSS-2)
#Configuration: NOAA-21
#almurnet v.1.7.20251203
#Start time: 2026-01-25 02:23:48

#Version: 2.2.20231116
#Station: R4.6S_Anadyr
#Location: 177.4865 lon 64.73178 lat
#TLE: 1 54234U 22150A   26024.45772595  .00000201  00000+0  11607-3 0  9996
#TLE: 2 54234  98.7508 325.2435 0000728 220.7365 139.3757 14.19538765166156

#Time	Az	El	Level	Level2	SNR	BER	BlckErr	Temp	State	Recorded	gain1	gain2
2026-01-25 02:23:48.85	213.18	0.11	-51.6	-69.2	3.5	3.01e+01	0	39	0	0	60	111272
2026-01-25 02:23:49.85	213.25	0.16	-51.7	-64.6	3.5	1.52e+00	0	40	104	0	60	59272
2026-01-25 02:23:50.85	213.32	0.21	-51.3	-64.2	3.5	1.52e+00	0	40	104	0	60	56662
2026-01-25 02:23:51.86	213.39	0.27	-51.4	-64.2	3.5	1.52e+00	0	40	104	0	60	57177
2026-01-25 02:23:52.87	213.45	0.32	-51.8	-64.7	3.5	1.51e+00	0	41	104	0	60	60431
2026-01-25 02:23:53.88	213.52	0.37	-51.6	-64.4	3.5	1.52e+00	0	41	104	0	60	58355
2026-01-25 02:23:54.89	213.59	0.42	-51.3	-64.1	3.5	1.52e+00	0	41	104	0	60	56134
2026-01-25 02:23:55.90	213.66	0.47	-51.2	-64.0	3.6	1.51e+00	0	41	104	0	60	55601
2026-01-25 02:23:56.91	213.74	0.52	-51.0	-63.9	3.5	1.52e+00	0	41	104	0	60	54683
2026-01-25 02:23:57.92	213.81	0.58	-50.9	-63.8	3.5	1.52e+00	0	41	104	0	60	54388
2026-01-25 02:23:58.93	213.88	0.63	-50.9	-63.8	3.5	1.52e+00	0	41	104	0	60	54094
2026-01-25 02:23:59.94	213.95	0.68	-50.9	-63.7	3.5	1.52e+00	0	41	104	0	60	54041
2026-01-25 02:24:00.95	214.02	0.73	-50.9	-63.8	3.5	1.52e+00	0	41	104	0	60	54134
2026-01-25 02:24:01.96	214.09	0.79	-50.9	-63.7	3.5	1.52e+00	0	41	104	0	60	53836
2026-01-25 02:24:02.97	214.16	0.84	-50.7	-63.7	3.5	1.52e+00	0	41	104	0	60	53654
2026-01-25 02:24:03.98	214.24	0.89	-50.8	-63.6	3.5	1.51e+00	0	41	104	0	60	53384
2026-01-25 02:24:04.99	214.31	0.94	-50.6	-63.6	3.5	1.52e+00	0	41	104	0	60	53146
2026-01-25 02:24:06.00	214.38	1.00	-50.6	-63.6	3.5	1.51e+00	0	41	104	0	60	53138
2026-01-25 02:24:07.01	214.45	1.05	-50.7	-63.5	3.5	1.52e+00	0	41	104	0	60	52649
2026-01-25 02:24:08.01	214.53	1.10	-50.6	-63.5	3.5	1.52e+00	0	41	104	0	60	52339
2026-01-25 02:24:09.02	214.60	1.15	-50.5	-63.4	3.5	1.52e+00	0	41	104	0	60	51791
2026-01-25 02:24:10.03	214.67	1.21	-50.5	-63.3	3.5	1.52e+00	0	41	104	0	60	51075
2026-01-25 02:24:11.04	214.75	1.26	-50.3	-63.1	3.5	1.52e+00	0	41	104	0	60	50254
2026-01-25 02:24:12.05	214.82	1.31	-50.0	-62.9	3.5	1.52e+00	0	41	104	0	60	48856
2026-01-25 02:24:13.06	214.90	1.37	-49.6	-62.4	3.5	1.52e+00	0	41	104	0	60	46366
2026-01-25 02:24:14.07	214.97	1.42	-49.2	-62.0	3.5	1.52e+00	0	41	104	0	60	44233
2026-01-25 02:24:15.08	215.04	1.47	-49.2	-62.0	3.5	1.52e+00	0	41	104	0	60	44073
2026-01-25 02:24:16.09	215.12	1.53	-49.2	-61.9	3.5	1.52e+00	0	41	104	0	60	43791
2026-01-25 02:24:17.10	215.20	1.58	-49.2	-62.0	3.5	1.52e+00	0	41	104	0	60	44153
2026-01-25 02:24:18.11	215.27	1.63	-49.2	-62.0	3.5	1.52e+00	0	41	104	0	60	44053
2026-01-25 02:24:19.12	215.35	1.69	-49.2	-62.0	3.5	1.52e+00	0	41	104	0	60	44250
2026-01-25 02:24:20.13	215.42	1.74	-49.2	-62.0	3.5	1.52e+00	0	41	104	0	60	44023
2026-01-25 02:24:21.14	215.50	1.79	-49.2	-61.9	3.5	1.52e+00	0	41	104	0	60	43812
2026-01-25 02:24:22.15	215.58	1.85	-49.2	-62.0	3.5	1.52e+00	0	41	104	0	60	44161
2026-01-25 02:24:23.16	215.65	1.90	-49.2	-61.9	3.5	1.52e+00	0	41	104	0	60	43913
2026-01-25 02:24:24.17	215.73	1.95	-49.2	-62.0	3.5	1.52e+00	0	41	104	0	60	44033
2026-01-25 02:24:25.18	215.81	2.01	-49.2	-61.9	3.5	1.51e+00	0	41	104	0	60	43835
2026-01-25 02:24:26.19	215.89	2.06	-49.2	-61.9	3.5	1.52e+00	0	41	104	0	60	43908
2026-01-25 02:24:27.19	215.96	2.11	-49.2	-61.9	3.5	1.52e+00	0	41	104	0	60	43716
2026-01-25 02:24:28.21	216.04	2.17	-49.1	-61.9	3.5	1.52e+00	0	41	104	0	60	43661
2026-01-25 02:24:29.22	216.12	2.22	-49.1	-61.8	3.5	1.52e+00	0	41	104	0	60	43070
2026-01-25 02:24:30.23	216.20	2.28	-49.1	-61.7	3.5	1.52e+00	0	41	104	0	60	42864
2026-01-25 02:24:31.24	216.28	2.33	-49.1	-61.8	3.5	1.52e+00	0	41	104	0	60	43068
2026-01-25 02:24:32.25	216.36	2.39	-49.1	-61.9	3.5	1.52e+00	0	41	104	0	60	43488
2026-01-25 02:24:33.26	216.44	2.44	-49.1	-61.8	3.5	1.52e+00	0	41	104	0	60	43225
2026-01-25 02:24:34.27	216.52	2.49	-49.1	-61.6	3.5	1.52e+00	0	41	104	0	60	42050
2026-01-25 02:24:35.28	216.60	2.55	-49.0	-60.5	3.5	1.51e+00	0	41	104	0	60	36997
2026-01-25 02:24:36.29	216.68	2.60	-49.0	-60.3	3.5	1.51e+00	0	41	104	0	60	36422
2026-01-25 02:24:37.30	216.76	2.66	-49.0	-60.8	3.6	1.51e+00	0	41	104	0	60	38292
2026-01-25 02:24:38.31	216.84	2.71	-49.1	-61.5	3.5	1.51e+00	0	41	104	0	60	41871
2026-01-25 02:24:39.32	216.92	2.77	-49.0	-60.9	3.5	1.51e+00	0	41	104	0	60	38815
2026-01-25 02:24:40.33	217.00	2.82	-48.6	-57.1	3.8	8.49e-01	0	41	104	0	60	25045
2026-01-25 02:24:41.34	217.09	2.88	-47.4	-52.4	8.6	8.54e-02	123	41	0	0	60	14621
2026-01-25 02:24:42.35	217.17	2.93	-46.6	-50.2	10.7	1.35e-02	123	41	0	3145728	60	11415
2026-01-25 02:24:43.36	217.25	2.99	-45.3	-48.0	13.1	1.19e-04	123	41	0	6291456	60	8863
2026-01-25 02:24:44.37	217.33	3.04	-45.4	-48.2	12.9	3.73e-05	122	41	0	9437184	60	9001
2026-01-25 02:24:45.38	217.42	3.10	-45.0	-47.6	13.7	5.30e-06	123	41	0	12582912	60	8377
2026-01-25 02:24:46.39	217.50	3.15	-46.4	-49.9	11.0	5.62e-04	122	41	0	15728640	60	11012
2026-01-25 02:24:47.40	217.58	3.21	-44.6	-46.9	14.4	1.61e-04	120	41	0	18874368	60	7763
2026-01-25 02:24:48.41	217.67	3.26	-48.4	-55.0	4.4	1.06e-01	122	41	0	22020096	60	19728
2026-01-25 02:24:49.42	217.75	3.32	-48.6	-57.6	4.2	1.51e+00	0	41	104	22020096	60	26482
2026-01-25 02:24:50.43	217.84	3.37	-41.3	-42.7	18.3	0.00e+00	122	41	0	22020096	54	6771
2026-01-25 02:24:51.44	217.92	3.43	-41.1	-42.4	19.0	0.00e+00	122	41	0	25165824	56	5850
2026-01-25 02:24:52.45	218.01	3.48	-43.9	-45.8	17.1	5.89e-03	120	41	0	28311552	60	6830
2026-01-25 02:24:53.46	218.09	3.54	-41.1	-42.5	18.9	0.00e+00	123	41	0	31457280	54	6624
2026-01-25 02:24:54.47	218.18	3.59	-41.0	-42.3	18.8	0.00e+00	123	41	0	34603008	54	6483
2026-01-25 02:24:55.48	218.26	3.65	-40.4	-41.6	19.6	0.00e+00	122	41	0	37748736	54	5980
2026-01-25 02:24:56.50	218.35	3.70	-40.9	-42.2	19.1	0.00e+00	122	41	0	40894464	54	6415
2026-01-25 02:24:57.51	218.44	3.76	-40.5	-41.7	19.5	0.00e+00	123	41	0	44040192	54	6054
2026-01-25 02:24:58.51	218.52	3.82	-40.5	-41.8	19.4	0.00e+00	123	41	0	47185920	54	6098
2026-01-25 02:24:59.52	218.61	3.87	-40.6	-41.9	19.3	0.00e+00	123	41	0	50331648	54	6190
2026-01-25 02:25:00.53	218.70	3.93	-40.6	-41.9	19.4	0.00e+00	123	41	0	53477376	54	6145
2026-01-25 02:25:01.54	218.79	3.98	-40.5	-41.8	19.5	0.00e+00	123	41	0	56623104	54	6072
2026-01-25 02:25:02.55	218.88	4.04	-40.3	-41.6	19.7	0.00e+00	122	41	0	59768832	54	5936
2026-01-25 02:25:03.56	218.96	4.10	-40.5	-41.8	19.4	0.00e+00	122	41	0	62914560	54	6101
2026-01-25 02:25:04.57	219.05	4.15	-40.6	-41.9	19.4	0.00e+00	123	41	0	66060288	54	6160
2026-01-25 02:25:05.58	219.14	4.21	-40.7	-42.0	19.3	0.00e+00	123	41	0	69206016	54	6268
2026-01-25 02:25:06.59	219.23	4.26	-40.8	-42.1	19.1	0.00e+00	122	42	0	72351744	54	6287
2026-01-25 02:25:07.60	219.32	4.32	-40.8	-42.2	19.1	0.00e+00	121	41	0	75497472	54	6355
2026-01-25 02:25:08.61	219.41	4.38	-40.8	-42.1	19.0	0.00e+00	123	41	0	78643200	54	6334
2026-01-25 02:25:09.62	219.50	4.43	-40.7	-42.0	19.2	0.00e+00	123	41	0	81788928	54	6270
2026-01-25 02:25:10.63	219.59	4.49	-40.6	-41.9	19.5	0.00e+00	122	41	0	84934656	54	6172
2026-01-25 02:25:11.64	219.69	4.55	-40.5	-41.8	19.5	0.00e+00	123	41	0	88080384	54	6114
2026-01-25 02:25:12.65	219.78	4.60	-40.6	-41.9	19.4	0.00e+00	122	41	0	91226112	54	6168
2026-01-25 02:25:13.66	219.87	4.66	-40.8	-42.1	19.3	0.00e+00	123	41	0	94371840	54	6297
2026-01-25 02:25:14.67	219.96	4.72	-40.7	-41.9	19.4	0.00e+00	122	41	0	97517568	54	6198
2026-01-25 02:25:15.69	220.05	4.77	-40.6	-41.9	19.5	0.00e+00	123	42	0	100663296	54	6194
2026-01-25 02:25:16.70	220.15	4.83	-40.4	-41.7	19.7	0.00e+00	120	41	0	103809024	54	6016
2026-01-25 02:25:17.71	220.24	4.89	-40.7	-42.0	19.3	0.00e+00	122	41	0	106954752	54	6269
2026-01-25 02:25:18.72	220.33	4.94	-40.9	-42.2	19.3	0.00e+00	122	41	0	110100480	54	6419
2026-01-25 02:25:19.73	220.43	5.00	-40.6	-41.8	19.6	0.00e+00	123	41	0	113246208	54	6110
2026-01-25 02:25:20.74	220.52	5.06	-40.9	-42.2	19.3	0.00e+00	123	41	0	116391936	54	6386
2026-01-25 02:25:21.75	220.62	5.12	-40.5	-41.7	19.7	0.00e+00	122	41	0	119537664	54	6058
2026-01-25 02:25:22.76	220.71	5.17	-40.8	-42.1	19.4	0.00e+00	123	41	0	122683392	54	6333
2026-01-25 02:25:23.77	220.81	5.23	-41.0	-42.3	19.2	0.00e+00	122	41	0	125829120	54	6439
2026-01-25 02:25:24.78	220.90	5.29	-40.5	-41.8	19.7	0.00e+00	123	41	0	128974848	54	6076
2026-01-25 02:25:25.79	221.00	5.35	-40.7	-42.0	19.5	0.00e+00	122	41	0	132120576	54	6276
2026-01-25 02:25:26.80	221.10	5.40	-40.5	-41.8	19.7	0.00e+00	123	41	0	135266304	54	6070
2026-01-25 02:25:27.82	221.20	5.46	-40.7	-42.0	19.5	0.00e+00	123	42	0	138412032	54	6235
2026-01-25 02:25:28.82	221.29	5.52	-40.9	-42.2	19.3	0.00e+00	122	41	0	141557760	54	6422
2026-01-25 02:25:29.83	221.39	5.58	-40.8	-42.1	19.6	0.00e+00	123	41	0	144703488	54	6304
2026-01-25 02:25:30.85	221.49	5.63	-40.7	-42.0	19.7	0.00e+00	123	41	0	147849216	54	6210
2026-01-25 02:25:31.86	221.59	5.69	-40.8	-42.1	19.4	0.00e+00	120	42	0	150994944	54	6332
2026-01-25 02:25:32.86	221.68	5.75	-41.0	-42.3	19.3	0.00e+00	123	41	0	154140672	54	6459
2026-01-25 02:25:33.87	221.78	5.81	-41.2	-42.6	18.9	0.00e+00	122	41	0	157286400	54	6670
2026-01-25 02:25:34.89	221.88	5.87	-40.8	-42.1	19.5	0.00e+00	123	42	0	160432128	54	6300
2026-01-25 02:25:35.90	221.98	5.92	-41.1	-42.4	19.1	0.00e+00	123	42	0	163577856	54	6573
2026-01-25 02:25:36.91	222.08	5.98	-41.1	-42.5	19.3	0.00e+00	122	42	0	166723584	54	6596
2026-01-25 02:25:37.91	222.18	6.04	-40.7	-42.0	19.5	0.00e+00	122	41	0	169869312	54	6255
2026-01-25 02:25:38.93	222.29	6.10	-41.2	-42.5	19.1	0.00e+00	122	41	0	173015040	54	6630
2026-01-25 02:25:39.94	222.39	6.16	-41.2	-42.5	19.1	0.00e+00	123	41	0	176160768	54	6613
2026-01-25 02:25:40.95	222.49	6.21	-41.3	-42.6	19.0	0.00e+00	123	41	0	179306496	54	6684
2026-01-25 02:25:41.96	222.59	6.27	-40.6	-41.8	19.8	0.00e+00	122	41	0	182452224	54	6127
2026-01-25 02:25:42.97	222.69	6.33	-41.0	-42.4	19.3	0.00e+00	122	41	0	185597952	54	6504
2026-01-25 02:25:43.98	222.80	6.39	-40.8	-42.1	19.5	0.00e+00	122	42	0	188743680	54	6302
2026-01-25 02:25:44.99	222.90	6.45	-41.0	-42.3	19.2	0.00e+00	123	42	0	191889408	54	6485
2026-01-25 02:25:46.00	223.00	6.51	-40.8	-42.1	19.5	0.00e+00	122	41	0	195035136	54	6333
2026-01-25 02:25:47.01	223.11	6.56	-41.3	-42.6	19.0	0.00e+00	123	41	0	198180864	54	6710
2026-01-25 02:25:48.02	223.21	6.62	-41.1	-42.4	19.3	0.00e+00	122	41	0	201326592	54	6529
2026-01-25 02:25:49.03	223.32	6.68	-41.2	-42.5	19.2	0.00e+00	122	41	0	204472320	54	6577
2026-01-25 02:25:50.04	223.42	6.74	-40.9	-42.2	19.5	0.00e+00	123	41	0	207618048	54	6399
2026-01-25 02:25:51.05	223.53	6.80	-41.0	-42.2	19.5	0.00e+00	122	41	0	210763776	54	6414
2026-01-25 02:25:52.06	223.64	6.86	-41.1	-42.4	19.4	0.00e+00	122	41	0	213909504	54	6506
2026-01-25 02:25:53.07	223.74	6.92	-41.1	-42.4	19.4	0.00e+00	122	42	0	217055232	54	6499
2026-01-25 02:25:54.08	223.85	6.98	-41.4	-42.7	19.1	0.00e+00	123	41	0	220200960	54	6765
2026-01-25 02:25:55.09	223.96	7.04	-41.0	-42.3	19.4	0.00e+00	123	41	0	223346688	54	6474
2026-01-25 02:25:56.10	224.07	7.09	-41.1	-42.3	19.4	0.00e+00	120	41	0	227540992	54	6493
2026-01-25 02:25:57.11	224.17	7.15	-40.9	-42.2	19.5	0.00e+00	123	42	0	230686720	54	6401
2026-01-25 02:25:58.12	224.28	7.21	-41.4	-42.8	19.1	0.00e+00	123	42	0	233832448	54	6818
2026-01-25 02:25:59.13	224.39	7.27	-41.0	-42.2	19.5	0.00e+00	123	41	0	235929600	54	6421
2026-01-25 02:26:00.14	224.50	7.33	-41.1	-42.3	19.4	0.00e+00	122	41	0	239075328	54	6495
2026-01-25 02:26:01.16	224.61	7.39	-41.2	-42.5	19.3	0.00e+00	121	41	0	243269632	54	6591
2026-01-25 02:26:02.17	224.72	7.45	-40.9	-42.2	19.6	0.00e+00	123	41	0	246415360	54	6394
2026-01-25 02:26:03.18	224.83	7.51	-41.3	-42.6	19.2	0.00e+00	123	41	0	249561088	54	6675
2026-01-25 02:26:04.18	224.94	7.57	-41.0	-42.3	19.4	0.00e+00	122	41	0	252706816	54	6482
2026-01-25 02:26:05.20	225.06	7.63	-41.2	-42.5	19.3	0.00e+00	120	42	0	255852544	54	6640
2026-01-25 02:26:06.20	225.17	7.69	-41.0	-42.3	19.5	0.00e+00	122	42	0	258998272	54	6448
2026-01-25 02:26:07.21	225.28	7.75	-41.0	-42.3	19.5	0.00e+00	122	42	0	262144000	54	6462
2026-01-25 02:26:08.22	225.39	7.81	-41.4	-42.7	19.2	0.00e+00	122	41	0	265289728	54	6753
2026-01-25 02:26:09.23	225.51	7.87	-41.0	-42.3	19.5	0.00e+00	120	41	0	268435456	54	6461
2026-01-25 02:26:10.24	225.62	7.93	-41.1	-42.4	19.4	0.00e+00	122	41	0	271581184	54	6514
2026-01-25 02:26:11.25	225.74	7.99	-41.2	-42.5	19.4	0.00e+00	120	42	0	274726912	54	6600
2026-01-25 02:26:12.26	225.85	8.05	-41.0	-42.3	19.5	0.00e+00	123	41	0	277872640	54	6448
2026-01-25 02:26:13.27	225.97	8.11	-41.1	-42.4	19.4	0.00e+00	123	41	0	281018368	54	6500
2026-01-25 02:26:14.28	226.08	8.17	-41.3	-42.6	19.3	0.00e+00	123	42	0	284164096	54	6701
2026-01-25 02:26:15.29	226.20	8.23	-41.2	-42.5	19.4	0.00e+00	120	41	0	287309824	54	6575
2026-01-25 02:26:16.30	226.31	8.29	-41.2	-42.5	19.3	0.00e+00	123	41	0	290455552	54	6639
2026-01-25 02:26:17.31	226.43	8.35	-41.0	-42.3	19.5	0.00e+00	120	41	0	293601280	54	6458
2026-01-25 02:26:18.32	226.55	8.41	-41.1	-42.4	19.4	0.00e+00	123	41	0	296747008	54	6524
2026-01-25 02:26:19.33	226.67	8.47	-40.9	-42.1	19.7	0.00e+00	123	41	0	299892736	54	6330
2026-01-25 02:26:20.33	226.79	8.53	-41.2	-42.5	19.4	0.00e+00	122	41	0	303038464	54	6601
2026-01-25 02:26:21.35	226.91	8.59	-41.3	-42.6	19.3	0.00e+00	123	41	0	306184192	54	6666
2026-01-25 02:26:22.35	227.02	8.65	-41.1	-42.4	19.4	0.00e+00	123	41	0	309329920	54	6563
2026-01-25 02:26:23.36	227.14	8.71	-41.2	-42.5	19.4	0.00e+00	120	42	0	312475648	54	6636
2026-01-25 02:26:24.37	227.26	8.77	-41.5	-42.8	19.0	0.00e+00	123	41	0	315621376	54	6871
2026-01-25 02:26:25.38	227.39	8.83	-41.0	-42.3	19.6	0.00e+00	123	41	0	318767104	54	6428
2026-01-25 02:26:26.39	227.51	8.89	-41.0	-42.2	19.7	0.00e+00	122	42	0	321912832	54	6419
2026-01-25 02:26:27.40	227.63	8.95	-41.2	-42.4	19.5	0.00e+00	123	42	0	325058560	54	6572
2026-01-25 02:26:28.41	227.75	9.01	-41.1	-42.3	19.6	0.00e+00	123	41	0	328204288	54	6474
2026-01-25 02:26:29.42	227.87	9.07	-41.2	-42.5	19.4	0.00e+00	123	42	0	331350016	54	6641
2026-01-25 02:26:30.43	228.00	9.13	-41.4	-42.7	19.3	0.00e+00	122	41	0	334495744	54	6762
2026-01-25 02:26:31.44	228.12	9.19	-41.0	-42.3	19.6	0.00e+00	123	41	0	337641472	54	6475
2026-01-25 02:26:32.46	228.25	9.25	-40.9	-42.2	19.7	0.00e+00	123	42	0	340787200	54	6364
2026-01-25 02:26:33.47	228.37	9.31	-41.4	-42.7	19.2	0.00e+00	123	42	0	343932928	54	6757
2026-01-25 02:26:34.48	228.50	9.37	-41.2	-42.4	19.5	0.00e+00	122	42	0	347078656	54	6564
2026-01-25 02:26:35.49	228.62	9.44	-40.9	-42.2	19.7	0.00e+00	120	41	0	350224384	54	6368
2026-01-25 02:26:36.50	228.75	9.50	-41.1	-42.4	19.6	0.00e+00	122	41	0	353370112	54	6519
2026-01-25 02:26:37.51	228.88	9.56	-41.0	-42.3	19.6	0.00e+00	122	41	0	356515840	54	6452
2026-01-25 02:26:38.52	229.00	9.62	-41.1	-42.4	19.6	0.00e+00	122	41	0	359661568	54	6523
2026-01-25 02:26:39.53	229.13	9.68	-41.2	-42.4	19.6	0.00e+00	120	41	0	362807296	54	6571
2026-01-25 02:26:40.54	229.26	9.74	-40.9	-42.2	19.8	0.00e+00	123	41	0	365953024	54	6372
2026-01-25 02:26:41.55	229.39	9.80	-40.8	-42.1	19.9	0.00e+00	123	42	0	369098752	54	6284
2026-01-25 02:26:42.56	229.52	9.86	-41.0	-42.3	19.7	0.00e+00	122	41	0	372244480	54	6437
2026-01-25 02:26:43.57	229.65	9.92	-41.0	-42.3	19.8	0.00e+00	120	41	0	375390208	54	6438
2026-01-25 02:26:44.58	229.78	9.98	-40.9	-42.1	19.8	0.00e+00	123	41	0	378535936	54	6341
2026-01-25 02:26:45.59	229.91	10.04	-40.8	-42.1	19.9	0.00e+00	120	41	0	381681664	54	6288
2026-01-25 02:26:46.60	230.04	10.11	-40.8	-42.0	20.0	0.00e+00	123	42	0	384827392	54	6237
2026-01-25 02:26:47.61	230.17	10.17	-40.8	-42.1	19.9	0.00e+00	123	42	0	387973120	54	6279
2026-01-25 02:26:48.62	230.31	10.23	-40.9	-42.1	19.8	0.00e+00	123	41	0	391118848	54	6315
2026-01-25 02:26:49.63	230.44	10.29	-40.9	-42.1	19.8	0.00e+00	122	41	0	394264576	54	6348
2026-01-25 02:26:50.64	230.57	10.35	-40.6	-41.9	20.1	0.00e+00	120	41	0	397410304	54	6136
2026-01-25 02:26:51.65	230.71	10.41	-40.6	-41.8	20.1	0.00e+00	123	41	0	400556032	54	6068
2026-01-25 02:26:52.66	230.84	10.47	-40.5	-41.7	20.2	0.00e+00	123	41	0	403701760	54	6033
2026-01-25 02:26:53.67	230.98	10.53	-40.6	-41.8	20.1	0.00e+00	122	41	0	406847488	54	6099
2026-01-25 02:26:54.67	231.11	10.59	-40.6	-41.8	20.2	0.00e+00	122	41	0	409993216	54	6090
2026-01-25 02:26:55.68	231.25	10.65	-40.6	-41.8	20.1	0.00e+00	123	41	0	413138944	54	6084
2026-01-25 02:26:56.69	231.39	10.72	-40.8	-42.0	19.9	0.00e+00	123	41	0	416284672	54	6220
2026-01-25 02:26:57.70	231.52	10.78	-40.5	-41.7	20.2	0.00e+00	122	41	0	419430400	54	5997
2026-01-25 02:26:58.71	231.66	10.84	-40.3	-41.5	20.3	0.00e+00	122	41	0	422576128	54	5911
2026-01-25 02:26:59.72	231.80	10.90	-40.5	-41.7	20.2	0.00e+00	122	41	0	425721856	54	6015
2026-01-25 02:27:00.73	231.94	10.96	-40.5	-41.6	20.2	0.00e+00	120	41	0	428867584	54	5994
2026-01-25 02:27:01.74	232.08	11.02	-40.3	-41.4	20.5	0.00e+00	123	41	0	432013312	54	5841
2026-01-25 02:27:02.75	232.22	11.08	-40.3	-41.5	20.3	0.00e+00	123	41	0	435159040	54	5912
2026-01-25 02:27:03.76	232.36	11.14	-40.3	-41.5	20.4	0.00e+00	122	41	0	438304768	54	5889
2026-01-25 02:27:04.77	232.50	11.20	-40.5	-41.7	20.3	0.00e+00	122	41	0	441450496	54	6014
2026-01-25 02:27:05.78	232.64	11.27	-40.4	-41.6	20.3	0.00e+00	123	41	0	444596224	54	5968
2026-01-25 02:27:06.79	232.79	11.33	-40.2	-41.3	20.6	0.00e+00	120	41	0	447741952	54	5769
2026-01-25 02:27:07.80	232.93	11.39	-40.3	-41.4	20.4	0.00e+00	123	41	0	450887680	54	5848
2026-01-25 02:27:08.81	233.07	11.45	-40.3	-41.4	20.5	0.00e+00	122	41	0	454033408	54	5850
2026-01-25 02:27:09.82	233.22	11.51	-40.3	-41.4	20.5	0.00e+00	122	41	0	457179136	54	5846
2026-01-25 02:27:10.83	233.36	11.57	-40.3	-41.5	20.5	0.00e+00	122	41	0	460324864	54	5890
2026-01-25 02:27:11.84	233.51	11.63	-40.3	-41.5	20.4	0.00e+00	122	41	0	463470592	54	5908
2026-01-25 02:27:12.85	233.65	11.69	-40.3	-41.5	20.4	0.00e+00	123	41	0	466616320	54	5863
2026-01-25 02:27:13.86	233.80	11.75	-40.2	-41.4	20.6	0.00e+00	122	41	0	469762048	54	5811
2026-01-25 02:27:14.87	233.95	11.82	-40.1	-41.2	20.7	0.00e+00	121	42	0	472907776	54	5716
2026-01-25 02:27:15.88	234.09	11.88	-40.2	-41.3	20.7	0.00e+00	123	41	0	476053504	54	5779
2026-01-25 02:27:16.89	234.24	11.94	-40.1	-41.2	20.7	0.00e+00	122	41	0	479199232	54	5712
2026-01-25 02:27:17.90	234.39	12.00	-40.0	-41.2	20.8	0.00e+00	120	41	0	482344960	54	5665
2026-01-25 02:27:18.91	234.54	12.06	-40.0	-41.2	20.7	0.00e+00	123	42	0	485490688	54	5689
2026-01-25 02:27:19.93	234.69	12.12	-40.0	-41.1	20.8	0.00e+00	122	41	0	488636416	54	5636
2026-01-25 02:27:20.94	234.84	12.18	-39.8	-41.0	20.9	0.00e+00	122	41	0	491782144	54	5536
2026-01-25 02:27:21.95	235.00	12.24	-39.9	-41.0	20.9	0.00e+00	123	42	0	494927872	54	5562
2026-01-25 02:27:22.95	235.15	12.30	-39.8	-40.9	21.0	0.00e+00	122	41	0	498073600	52	6167
2026-01-25 02:27:23.97	235.30	12.37	-39.8	-40.9	21.1	0.00e+00	123	41	0	501219328	52	6145
2026-01-25 02:27:24.97	235.45	12.43	-39.6	-40.7	21.2	0.00e+00	120	41	0	504365056	52	5996
2026-01-25 02:27:25.98	235.61	12.49	-39.6	-40.7	21.2	0.00e+00	122	41	0	507510784	52	6052
2026-01-25 02:27:26.99	235.76	12.55	-39.5	-40.6	21.3	0.00e+00	121	41	0	510656512	52	5992
2026-01-25 02:27:28.00	235.92	12.61	-39.5	-40.5	21.3	0.00e+00	122	41	0	513802240	52	5920
2026-01-25 02:27:29.01	236.07	12.67	-39.2	-40.3	21.5	0.00e+00	122	41	0	516947968	52	5771
2026-01-25 02:27:30.02	236.23	12.73	-39.3	-40.4	21.4	0.00e+00	122	41	0	520093696	52	5797
2026-01-25 02:27:31.03	236.38	12.79	-39.2	-40.3	21.5	0.00e+00	123	41	0	523239424	52	5733
2026-01-25 02:27:32.04	236.54	12.85	-39.2	-40.2	21.6	0.00e+00	123	41	0	526385152	52	5707
2026-01-25 02:27:33.05	236.70	12.91	-39.0	-40.0	21.7	0.00e+00	120	41	0	529530880	52	5593
2026-01-25 02:27:34.07	236.86	12.97	-39.0	-40.0	21.8	0.00e+00	123	41	0	532676608	52	5581
2026-01-25 02:27:35.08	237.02	13.03	-39.1	-40.2	21.7	0.00e+00	120	41	0	535822336	52	5662
2026-01-25 02:27:36.09	237.18	13.09	-38.9	-39.9	21.9	0.00e+00	122	41	0	538968064	52	5506
2026-01-25 02:27:37.10	237.34	13.15	-38.9	-39.9	21.9	0.00e+00	123	41	0	542113792	52	5508
2026-01-25 02:27:38.11	237.50	13.21	-38.8	-39.9	22.0	0.00e+00	122	41	0	546308096	52	5489
2026-01-25 02:27:39.12	237.66	13.27	-38.7	-39.7	22.0	0.00e+00	121	41	0	549453824	50	6052
2026-01-25 02:27:40.13	237.83	13.33	-38.5	-39.5	22.2	0.00e+00	123	41	0	551550976	50	5926
2026-01-25 02:27:41.14	237.99	13.39	-38.5	-39.5	22.3	0.00e+00	123	41	0	554696704	50	5898
2026-01-25 02:27:42.15	238.15	13.45	-38.4	-39.4	22.3	0.00e+00	123	41	0	558891008	50	5817
2026-01-25 02:27:43.16	238.32	13.51	-38.4	-39.4	22.4	0.00e+00	120	41	0	562036736	50	5837
2026-01-25 02:27:44.17	238.48	13.57	-38.4	-39.4	22.5	0.00e+00	122	41	0	565182464	50	5809
2026-01-25 02:27:45.18	238.65	13.63	-38.1	-39.1	22.6	0.00e+00	120	41	0	568328192	50	5643
2026-01-25 02:27:46.19	238.82	13.69	-38.2	-39.2	22.6	0.00e+00	122	41	0	571473920	50	5701
2026-01-25 02:27:47.21	238.98	13.75	-38.3	-39.3	22.5	0.00e+00	123	41	0	574619648	50	5745
2026-01-25 02:27:48.22	239.15	13.81	-38.2	-39.2	22.5	0.00e+00	122	41	0	577765376	50	5716
2026-01-25 02:27:49.23	239.32	13.87	-37.9	-38.9	22.8	0.00e+00	120	41	0	580911104	50	5497
2026-01-25 02:27:50.24	239.49	13.93	-38.1	-39.1	22.6	0.00e+00	123	41	0	584056832	50	5608
2026-01-25 02:27:51.25	239.66	13.99	-38.0	-39.0	22.7	0.00e+00	123	41	0	587202560	50	5543
2026-01-25 02:27:52.26	239.83	14.05	-38.0	-39.0	22.7	0.00e+00	123	41	0	590348288	50	5579
2026-01-25 02:27:53.27	240.00	14.11	-38.2	-39.2	22.6	0.00e+00	123	41	0	593494016	50	5676
2026-01-25 02:27:54.28	240.17	14.17	-38.1	-39.1	22.6	0.00e+00	123	41	0	596639744	50	5616
2026-01-25 02:27:55.29	240.35	14.23	-38.0	-39.0	22.7	0.00e+00	122	41	0	599785472	50	5557
2026-01-25 02:27:56.30	240.52	14.29	-38.0	-39.0	22.8	0.00e+00	122	41	0	602931200	50	5540
2026-01-25 02:27:57.32	240.69	14.35	-37.9	-38.9	22.8	0.00e+00	122	41	0	606076928	50	5512
2026-01-25 02:27:58.33	240.87	14.41	-37.9	-38.9	22.9	0.00e+00	122	41	0	609222656	50	5471
2026-01-25 02:27:59.34	241.04	14.46	-37.9	-38.9	22.9	0.00e+00	123	42	0	612368384	50	5479
2026-01-25 02:28:00.35	241.22	14.52	-37.8	-38.8	22.9	0.00e+00	122	41	0	615514112	50	5446
2026-01-25 02:28:01.36	241.40	14.58	-38.0	-39.0	22.9	0.00e+00	123	41	0	618659840	50	5532
2026-01-25 02:28:02.37	241.57	14.64	-37.9	-38.9	23.0	0.00e+00	123	41	0	621805568	50	5486
2026-01-25 02:28:03.38	241.75	14.70	-37.8	-38.8	23.1	0.00e+00	120	41	0	624951296	50	5429
2026-01-25 02:28:04.39	241.93	14.75	-37.6	-38.6	23.2	0.00e+00	122	42	0	628097024	48	5961
2026-01-25 02:28:05.40	242.11	14.81	-37.8	-38.7	23.1	0.00e+00	123	41	0	631242752	48	6060
2026-01-25 02:28:06.41	242.29	14.87	-37.6	-38.5	23.3	0.00e+00	122	41	0	634388480	48	5911
2026-01-25 02:28:07.42	242.47	14.93	-37.5	-38.4	23.4	0.00e+00	122	41	0	637534208	48	5845
2026-01-25 02:28:08.44	242.65	14.99	-37.5	-38.4	23.4	0.00e+00	123	42	0	640679936	48	5829
2026-01-25 02:28:09.45	242.83	15.04	-37.5	-38.4	23.3	0.00e+00	120	41	0	643825664	48	5853
2026-01-25 02:28:10.46	243.02	15.10	-37.4	-38.3	23.5	0.00e+00	123	41	0	646971392	48	5763
2026-01-25 02:28:11.47	243.20	15.16	-37.4	-38.4	23.4	0.00e+00	123	41	0	650117120	48	5795
2026-01-25 02:28:12.48	243.38	15.22	-37.4	-38.4	23.5	0.00e+00	123	41	0	653262848	48	5799
2026-01-25 02:28:13.49	243.57	15.27	-37.4	-38.4	23.5	0.00e+00	120	41	0	656408576	48	5811
2026-01-25 02:28:14.50	243.75	15.33	-37.7	-38.7	23.2	0.00e+00	122	42	0	659554304	48	5998
2026-01-25 02:28:15.51	243.94	15.39	-37.5	-38.4	23.3	0.00e+00	123	42	0	662700032	48	5851
2026-01-25 02:28:16.52	244.12	15.44	-37.7	-38.7	23.1	0.00e+00	120	41	0	665845760	48	6050
2026-01-25 02:28:17.53	244.31	15.50	-37.7	-38.6	23.2	0.00e+00	122	41	0	668991488	48	5973
2026-01-25 02:28:18.54	244.50	15.55	-37.7	-38.7	23.2	0.00e+00	123	41	0	672137216	48	6008
2026-01-25 02:28:19.55	244.69	15.61	-37.8	-38.8	23.2	0.00e+00	120	42	0	675282944	48	6080
2026-01-25 02:28:20.57	244.88	15.67	-37.6	-38.5	23.4	0.00e+00	123	41	0	678428672	48	5920
2026-01-25 02:28:21.58	245.07	15.72	-37.6	-38.5	23.4	0.00e+00	122	41	0	681574400	48	5893
2026-01-25 02:28:22.59	245.26	15.78	-37.4	-38.4	23.4	0.00e+00	122	41	0	684720128	48	5805
2026-01-25 02:28:23.60	245.45	15.83	-37.6	-38.5	23.3	0.00e+00	123	41	0	687865856	48	5903
2026-01-25 02:28:24.61	245.64	15.89	-37.5	-38.4	23.4	0.00e+00	123	41	0	691011584	48	5851
2026-01-25 02:28:25.62	245.84	15.94	-37.4	-38.4	23.5	0.00e+00	120	41	0	694157312	48	5828
2026-01-25 02:28:26.63	246.03	16.00	-37.5	-38.4	23.3	0.00e+00	123	41	0	697303040	48	5851
2026-01-25 02:28:27.64	246.22	16.05	-37.5	-38.5	23.4	0.00e+00	120	41	0	700448768	48	5869
2026-01-25 02:28:28.65	246.42	16.11	-37.5	-38.5	23.4	0.00e+00	123	42	0	703594496	48	5876
2026-01-25 02:28:29.66	246.61	16.16	-37.5	-38.4	23.4	0.00e+00	122	41	0	706740224	48	5822
2026-01-25 02:28:30.67	246.81	16.21	-37.3	-38.2	23.5	0.00e+00	123	42	0	709885952	48	5696
2026-01-25 02:28:31.68	247.01	16.27	-37.2	-38.2	23.6	0.00e+00	120	41	0	713031680	48	5683
2026-01-25 02:28:32.69	247.20	16.32	-37.3	-38.3	23.5	0.00e+00	123	41	0	716177408	48	5737
2026-01-25 02:28:33.70	247.40	16.37	-37.3	-38.2	23.5	0.00e+00	123	41	0	719323136	48	5703
2026-01-25 02:28:34.71	247.60	16.43	-37.4	-38.4	23.5	0.00e+00	122	42	0	722468864	48	5794
2026-01-25 02:28:35.72	247.80	16.48	-37.4	-38.4	23.6	0.00e+00	123	41	0	725614592	48	5800
2026-01-25 02:28:36.73	248.00	16.53	-37.5	-38.5	23.5	0.00e+00	120	41	0	728760320	48	5863
2026-01-25 02:28:37.74	248.20	16.59	-37.5	-38.5	23.4	0.00e+00	123	42	0	731906048	48	5879
2026-01-25 02:28:38.75	248.40	16.64	-37.6	-38.6	23.3	0.00e+00	123	41	0	735051776	48	5956
2026-01-25 02:28:39.75	248.60	16.69	-37.6	-38.6	23.4	0.00e+00	121	41	0	738197504	48	5938
2026-01-25 02:28:40.76	248.81	16.74	-37.5	-38.4	23.5	0.00e+00	123	41	0	741343232	48	5832
2026-01-25 02:28:41.77	249.01	16.79	-37.4	-38.3	23.5	0.00e+00	120	42	0	744488960	48	5765
2026-01-25 02:28:42.78	249.21	16.84	-37.3	-38.2	23.6	0.00e+00	123	41	0	747634688	48	5723
2026-01-25 02:28:43.79	249.42	16.90	-37.3	-38.2	23.5	0.00e+00	123	41	0	750780416	48	5695
2026-01-25 02:28:44.80	249.62	16.95	-37.2	-38.1	23.6	0.00e+00	122	41	0	753926144	48	5642
2026-01-25 02:28:45.81	249.83	17.00	-37.2	-38.1	23.7	0.00e+00	120	41	0	757071872	48	5618
2026-01-25 02:28:46.82	250.04	17.05	-37.3	-38.2	23.6	0.00e+00	123	41	0	760217600	48	5703
2026-01-25 02:28:47.84	250.25	17.10	-37.4	-38.3	23.4	0.00e+00	123	41	0	763363328	48	5785
2026-01-25 02:28:48.85	250.46	17.15	-37.3	-38.2	23.5	0.00e+00	123	41	0	766509056	48	5702
2026-01-25 02:28:49.86	250.67	17.20	-37.3	-38.2	23.6	0.00e+00	123	41	0	769654784	48	5716
2026-01-25 02:28:50.87	250.87	17.25	-37.4	-38.3	23.5	0.00e+00	122	41	0	772800512	48	5786
2026-01-25 02:28:51.88	251.09	17.30	-37.3	-38.3	23.7	0.00e+00	120	41	0	775946240	48	5730
2026-01-25 02:28:52.89	251.30	17.34	-37.4	-38.3	23.6	0.00e+00	122	41	0	779091968	48	5762
2026-01-25 02:28:53.90	251.51	17.39	-37.4	-38.3	23.5	0.00e+00	120	42	0	782237696	48	5763
2026-01-25 02:28:54.91	251.72	17.44	-37.3	-38.2	23.7	0.00e+00	123	41	0	785383424	48	5677
2026-01-25 02:28:55.92	251.93	17.49	-37.1	-38.0	23.8	0.00e+00	122	41	0	788529152	48	5560
2026-01-25 02:28:56.94	252.15	17.54	-37.0	-37.9	23.9	0.00e+00	123	41	0	791674880	48	5526
2026-01-25 02:28:57.95	252.36	17.58	-37.0	-37.9	23.9	0.00e+00	122	41	0	794820608	48	5516
2026-01-25 02:28:58.96	252.58	17.63	-36.9	-37.8	23.9	0.00e+00	122	41	0	797966336	48	5429
2026-01-25 02:28:59.97	252.79	17.68	-36.8	-37.7	23.9	0.00e+00	120	41	0	801112064	48	5398
2026-01-25 02:29:00.98	253.01	17.72	-37.0	-37.9	23.9	0.00e+00	123	41	0	804257792	48	5522
2026-01-25 02:29:01.99	253.23	17.77	-37.0	-38.0	23.8	0.00e+00	120	41	0	807403520	48	5537
2026-01-25 02:29:03.00	253.44	17.82	-37.1	-38.0	23.7	0.00e+00	123	42	0	810549248	48	5591
2026-01-25 02:29:04.01	253.66	17.86	-37.1	-38.1	23.8	0.00e+00	123	41	0	814743552	48	5605
2026-01-25 02:29:05.02	253.88	17.91	-37.0	-38.0	23.8	0.00e+00	120	42	0	817889280	48	5549
2026-01-25 02:29:06.03	254.10	17.95	-37.0	-37.9	23.9	0.00e+00	123	42	0	819986432	48	5502
2026-01-25 02:29:07.04	254.32	18.00	-37.0	-37.9	23.9	0.00e+00	120	42	0	823132160	48	5519
2026-01-25 02:29:08.05	254.54	18.04	-37.1	-38.0	23.7	0.00e+00	122	42	0	826277888	48	5569
2026-01-25 02:29:09.06	254.76	18.08	-37.1	-38.0	23.8	0.00e+00	123	42	0	830472192	48	5555
2026-01-25 02:29:10.07	254.98	18.13	-36.8	-37.7	24.0	0.00e+00	120	42	0	833617920	48	5394
2026-01-25 02:29:11.08	255.21	18.17	-36.8	-37.7	23.9	0.00e+00	123	42	0	836763648	48	5359
2026-01-25 02:29:12.09	255.43	18.21	-36.7	-37.6	24.0	0.00e+00	120	42	0	839909376	46	5969
2026-01-25 02:29:13.10	255.65	18.26	-36.8	-37.8	23.9	0.00e+00	123	42	0	843055104	46	6069
2026-01-25 02:29:14.11	255.88	18.30	-36.9	-37.8	23.9	0.00e+00	122	42	0	846200832	46	6102
2026-01-25 02:29:15.12	256.10	18.34	-36.8	-37.7	24.0	0.00e+00	123	42	0	849346560	46	6015
2026-01-25 02:29:16.12	256.33	18.38	-36.8	-37.7	24.1	0.00e+00	123	41	0	852492288	46	6016
2026-01-25 02:29:17.13	256.55	18.42	-36.9	-37.8	24.1	0.00e+00	120	42	0	855638016	46	6080
2026-01-25 02:29:18.14	256.78	18.46	-36.7	-37.6	24.1	0.00e+00	122	41	0	858783744	46	5969
2026-01-25 02:29:19.15	257.01	18.50	-36.8	-37.7	24.0	0.00e+00	122	41	0	861929472	46	6021
2026-01-25 02:29:20.16	257.23	18.54	-36.8	-37.8	24.0	0.00e+00	123	41	0	865075200	46	6065
2026-01-25 02:29:21.17	257.46	18.58	-36.8	-37.7	24.0	0.00e+00	123	42	0	868220928	46	6031
2026-01-25 02:29:22.18	257.69	18.62	-36.8	-37.7	24.0	0.00e+00	123	42	0	871366656	46	6032
2026-01-25 02:29:23.19	257.92	18.66	-36.6	-37.5	24.2	0.00e+00	123	41	0	874512384	46	5881
2026-01-25 02:29:24.20	258.15	18.70	-36.6	-37.5	24.1	0.00e+00	123	41	0	877658112	46	5896
2026-01-25 02:29:25.21	258.38	18.74	-36.5	-37.4	24.2	0.00e+00	121	41	0	880803840	46	5838
2026-01-25 02:29:26.22	258.61	18.78	-36.6	-37.5	24.1	0.00e+00	122	41	0	883949568	46	5891
2026-01-25 02:29:27.23	258.84	18.81	-36.7	-37.6	24.2	0.00e+00	122	41	0	887095296	46	5943
2026-01-25 02:29:28.24	259.08	18.85	-36.7	-37.6	24.2	0.00e+00	122	42	0	890241024	46	5940
2026-01-25 02:29:29.24	259.31	18.89	-36.5	-37.4	24.2	0.00e+00	122	41	0	893386752	46	5849
2026-01-25 02:29:30.25	259.54	18.92	-36.6	-37.5	24.1	0.00e+00	122	42	0	896532480	46	5902
2026-01-25 02:29:31.26	259.77	18.96	-36.6	-37.5	24.1	0.00e+00	123	41	0	899678208	46	5876
2026-01-25 02:29:32.27	260.01	18.99	-36.6	-37.5	24.1	0.00e+00	122	41	0	902823936	46	5892
2026-01-25 02:29:33.28	260.24	19.03	-36.5	-37.4	24.3	0.00e+00	120	41	0	905969664	46	5806
2026-01-25 02:29:34.29	260.48	19.06	-36.6	-37.5	24.1	0.00e+00	122	41	0	909115392	46	5880
2026-01-25 02:29:35.30	260.72	19.10	-36.6	-37.5	24.2	0.00e+00	123	41	0	912261120	46	5863
2026-01-25 02:29:36.31	260.95	19.13	-36.4	-37.3	24.3	0.00e+00	120	41	0	915406848	46	5776
2026-01-25 02:29:37.32	261.19	19.16	-36.4	-37.3	24.4	0.00e+00	123	41	0	918552576	46	5749
2026-01-25 02:29:38.33	261.43	19.20	-36.3	-37.2	24.5	0.00e+00	122	41	0	921698304	46	5673
2026-01-25 02:29:39.34	261.66	19.23	-36.2	-37.1	24.5	0.00e+00	122	41	0	924844032	46	5645
2026-01-25 02:29:40.35	261.90	19.26	-36.2	-37.1	24.4	0.00e+00	123	41	0	927989760	46	5637
2026-01-25 02:29:41.36	262.14	19.29	-36.3	-37.2	24.4	0.00e+00	123	42	0	931135488	46	5704
2026-01-25 02:29:42.37	262.38	19.32	-36.5	-37.3	24.3	0.00e+00	122	41	0	934281216	46	5791
2026-01-25 02:29:43.38	262.62	19.35	-36.5	-37.4	24.3	0.00e+00	123	42	0	937426944	46	5809
2026-01-25 02:29:44.39	262.86	19.38	-36.6	-37.5	24.3	0.00e+00	120	42	0	940572672	46	5893
2026-01-25 02:29:45.40	263.10	19.41	-36.5	-37.4	24.3	0.00e+00	123	42	0	943718400	46	5831
2026-01-25 02:29:46.41	263.34	19.44	-36.5	-37.4	24.3	0.00e+00	122	41	0	946864128	46	5805
2026-01-25 02:29:47.42	263.59	19.47	-36.3	-37.2	24.5	0.00e+00	122	41	0	950009856	46	5708
2026-01-25 02:29:48.43	263.83	19.50	-36.4	-37.3	24.5	0.00e+00	120	41	0	953155584	46	5754
2026-01-25 02:29:49.44	264.07	19.53	-36.2	-37.1	24.5	0.00e+00	122	41	0	956301312	46	5599
2026-01-25 02:29:50.45	264.31	19.55	-36.2	-37.1	24.4	0.00e+00	122	41	0	959447040	46	5599
2026-01-25 02:29:51.46	264.56	19.58	-36.4	-37.3	24.3	0.00e+00	123	41	0	962592768	46	5757
2026-01-25 02:29:52.47	264.80	19.61	-36.5	-37.4	24.2	0.00e+00	121	41	0	965738496	46	5806
2026-01-25 02:29:53.48	265.05	19.63	-36.6	-37.5	24.2	0.00e+00	122	42	0	968884224	46	5924
2026-01-25 02:29:54.49	265.29	19.66	-36.6	-37.5	24.2	0.00e+00	122	42	0	972029952	46	5914
2026-01-25 02:29:55.50	265.53	19.68	-36.5	-37.4	24.3	0.00e+00	120	42	0	975175680	46	5834
2026-01-25 02:29:56.50	265.78	19.71	-36.3	-37.2	24.5	0.00e+00	122	42	0	978321408	46	5702
2026-01-25 02:29:57.51	266.02	19.73	-36.4	-37.2	24.4	0.00e+00	123	42	0	981467136	46	5723
2026-01-25 02:29:58.52	266.27	19.75	-36.3	-37.2	24.4	0.00e+00	123	41	0	984612864	46	5698
2026-01-25 02:29:59.53	266.52	19.78	-36.4	-37.3	24.4	0.00e+00	122	41	0	987758592	46	5784
2026-01-25 02:30:00.54	266.76	19.80	-36.5	-37.4	24.3	0.00e+00	122	42	0	990904320	46	5811
2026-01-25 02:30:01.55	267.01	19.82	-36.6	-37.5	24.3	0.00e+00	122	42	0	994050048	46	5914
2026-01-25 02:30:02.56	267.26	19.84	-36.5	-37.4	24.4	0.00e+00	123	41	0	997195776	46	5822
2026-01-25 02:30:03.57	267.51	19.86	-36.5	-37.3	24.4	0.00e+00	123	41	0	1000341504	46	5784
2026-01-25 02:30:04.58	267.75	19.88	-36.4	-37.3	24.5	0.00e+00	122	42	0	1003487232	46	5774
2026-01-25 02:30:05.59	268.00	19.90	-36.4	-37.2	24.5	0.00e+00	124	42	0	1006632960	46	5722
2026-01-25 02:30:06.60	268.25	19.92	-36.4	-37.3	24.4	0.00e+00	123	42	0	1009778688	46	5755
2026-01-25 02:30:07.61	268.50	19.94	-36.5	-37.4	24.4	0.00e+00	120	42	0	1012924416	46	5852
2026-01-25 02:30:08.62	268.75	19.96	-36.4	-37.4	24.4	0.00e+00	122	42	0	1016070144	46	5792
2026-01-25 02:30:09.63	269.00	19.98	-36.6	-37.5	24.2	0.00e+00	123	42	0	1019215872	46	5916
2026-01-25 02:30:10.64	269.25	19.99	-36.7	-37.6	24.1	0.00e+00	123	42	0	1022361600	46	5963
2026-01-25 02:30:11.65	269.50	20.01	-36.6	-37.5	24.3	0.00e+00	123	42	0	1025507328	46	5906
2026-01-25 02:30:12.66	269.75	20.03	-36.7	-37.6	24.2	0.00e+00	121	41	0	1028653056	46	5946
2026-01-25 02:30:13.67	270.00	20.04	-36.7	-37.7	24.1	0.00e+00	123	42	0	1031798784	46	5996
2026-01-25 02:30:14.68	270.25	20.06	-36.8	-37.7	24.2	0.00e+00	123	42	0	1034944512	46	6003
2026-01-25 02:30:15.69	270.50	20.07	-36.8	-37.7	24.1	0.00e+00	123	42	0	1038090240	46	6058
2026-01-25 02:30:16.70	270.75	20.08	-36.7	-37.6	24.1	0.00e+00	120	42	0	1041235968	46	5955
2026-01-25 02:30:17.71	271.00	20.10	-36.6	-37.5	24.2	0.00e+00	123	42	0	1044381696	46	5909
2026-01-25 02:30:18.72	271.26	20.11	-36.7	-37.6	24.1	0.00e+00	122	42	0	1047527424	46	5970
2026-01-25 02:30:19.73	271.51	20.12	-36.8	-37.7	24.2	0.00e+00	120	42	0	1050673152	46	6028
2026-01-25 02:30:20.75	271.76	20.13	-36.6	-37.6	24.2	0.00e+00	122	42	0	1053818880	46	5931
2026-01-25 02:30:21.75	272.01	20.15	-36.7	-37.6	24.2	0.00e+00	123	42	0	1056964608	46	5945
2026-01-25 02:30:22.76	272.27	20.16	-36.5	-37.4	24.3	0.00e+00	122	42	0	1060110336	46	5824
2026-01-25 02:30:23.77	272.52	20.17	-36.6	-37.5	24.2	0.00e+00	121	42	0	1063256064	46	5907
2026-01-25 02:30:24.78	272.77	20.18	-36.6	-37.5	24.3	0.00e+00	122	42	0	1066401792	46	5893
2026-01-25 02:30:25.79	273.02	20.19	-36.5	-37.4	24.4	0.00e+00	122	42	0	1069547520	46	5796
2026-01-25 02:30:26.80	273.28	20.19	-36.5	-37.4	24.2	0.00e+00	120	42	0	1072693248	46	5854
2026-01-25 02:30:27.80	273.53	20.20	-36.6	-37.5	24.2	0.00e+00	120	42	0	1075838976	46	5884
2026-01-25 02:30:28.82	273.78	20.21	-36.6	-37.5	24.2	0.00e+00	122	42	0	1078984704	46	5912
2026-01-25 02:30:29.82	274.03	20.22	-36.6	-37.5	24.3	0.00e+00	120	42	0	1082130432	46	5865
2026-01-25 02:30:30.84	274.29	20.22	-36.6	-37.5	24.3	0.00e+00	122	42	0	1085276160	46	5884
2026-01-25 02:30:31.84	274.54	20.23	-36.7	-37.6	24.2	0.00e+00	123	42	0	1088421888	46	5985
2026-01-25 02:30:32.85	274.80	20.23	-36.7	-37.6	24.1	0.00e+00	123	42	0	1091567616	46	5989
2026-01-25 02:30:33.87	275.05	20.24	-36.8	-37.7	24.1	0.00e+00	123	42	0	1094713344	46	6020
2026-01-25 02:30:34.87	275.30	20.24	-36.7	-37.6	24.2	0.00e+00	123	42	0	1097859072	46	5989
2026-01-25 02:30:35.88	275.56	20.25	-36.7	-37.6	24.1	0.00e+00	124	42	0	1101004800	46	5976
2026-01-25 02:30:36.89	275.81	20.25	-36.6	-37.5	24.2	0.00e+00	122	42	0	1104150528	46	5907
2026-01-25 02:30:37.90	276.06	20.25	-36.7	-37.6	24.1	0.00e+00	122	42	0	1107296256	46	5981
2026-01-25 02:30:38.91	276.32	20.25	-36.7	-37.6	24.3	0.00e+00	123	42	0	1110441984	46	5942
2026-01-25 02:30:39.92	276.57	20.25	-36.8	-37.7	24.1	0.00e+00	122	42	0	1113587712	46	6019
2026-01-25 02:30:40.93	276.83	20.26	-36.9	-37.8	24.0	0.00e+00	122	42	0	1116733440	46	6097
2026-01-25 02:30:41.94	277.08	20.26	-36.8	-37.7	24.1	0.00e+00	123	42	0	1119879168	46	6047
2026-01-25 02:30:42.95	277.34	20.26	-36.6	-37.5	24.2	0.00e+00	123	42	0	1123024896	46	5906
2026-01-25 02:30:43.96	277.59	20.25	-36.6	-37.5	24.2	0.00e+00	123	42	0	1126170624	46	5884
2026-01-25 02:30:44.97	277.84	20.25	-36.5	-37.3	24.3	0.00e+00	122	42	0	1129316352	46	5791
2026-01-25 02:30:45.98	278.10	20.25	-36.4	-37.3	24.3	0.00e+00	123	42	0	1132462080	46	5785
2026-01-25 02:30:46.99	278.35	20.25	-36.6	-37.5	24.2	0.00e+00	123	42	0	1135607808	46	5878
2026-01-25 02:30:48.00	278.60	20.24	-36.6	-37.5	24.3	0.00e+00	122	42	0	1138753536	46	5881
2026-01-25 02:30:49.01	278.86	20.24	-36.6	-37.5	24.3	0.00e+00	123	42	0	1141899264	46	5893
2026-01-25 02:30:50.02	279.11	20.24	-36.6	-37.5	24.3	0.00e+00	121	42	0	1145044992	46	5873
2026-01-25 02:30:51.03	279.37	20.23	-36.7	-37.6	24.1	0.00e+00	122	42	0	1148190720	46	5956
2026-01-25 02:30:52.04	279.62	20.23	-36.7	-37.6	24.2	0.00e+00	122	42	0	1151336448	46	5952
2026-01-25 02:30:53.05	279.87	20.22	-36.8	-37.7	24.0	0.00e+00	121	42	0	1154482176	46	6058
2026-01-25 02:30:54.06	280.13	20.21	-36.7	-37.6	24.1	0.00e+00	122	42	0	1158676480	46	5993
2026-01-25 02:30:55.07	280.38	20.21	-36.9	-37.8	24.0	0.00e+00	123	42	0	1160773632	46	6091
2026-01-25 02:30:56.08	280.63	20.20	-36.8	-37.8	24.0	0.00e+00	122	42	0	1163919360	46	6088
2026-01-25 02:30:57.09	280.89	20.19	-36.8	-37.7	24.1	0.00e+00	123	42	0	1167065088	46	6036
2026-01-25 02:30:58.10	281.14	20.18	-36.8	-37.8	24.1	0.00e+00	123	42	0	1170210816	46	6083
2026-01-25 02:30:59.11	281.39	20.17	-36.7	-37.6	24.2	0.00e+00	123	42	0	1174405120	46	5931
2026-01-25 02:31:00.12	281.64	20.16	-36.6	-37.5	24.2	0.00e+00	122	42	0	1177550848	46	5883
2026-01-25 02:31:01.13	281.90	20.15	-36.6	-37.5	24.1	0.00e+00	123	42	0	1180696576	46	5913
2026-01-25 02:31:02.14	282.15	20.14	-36.7	-37.6	24.0	0.00e+00	122	42	0	1183842304	46	5991
2026-01-25 02:31:03.15	282.40	20.13	-36.7	-37.6	24.1	0.00e+00	123	42	0	1185939456	46	5985
2026-01-25 02:31:04.16	282.65	20.12	-36.7	-37.6	24.2	0.00e+00	122	42	0	1190133760	46	5946
2026-01-25 02:31:05.17	282.90	20.11	-36.6	-37.5	24.2	0.00e+00	122	42	0	1193279488	46	5909
2026-01-25 02:31:06.18	283.16	20.09	-36.8	-37.7	24.1	0.00e+00	123	42	0	1196425216	46	6052
2026-01-25 02:31:07.18	283.40	20.08	-36.5	-37.4	24.3	0.00e+00	122	42	0	1199570944	46	5835
2026-01-25 02:31:08.19	283.66	20.07	-36.4	-37.3	24.4	0.00e+00	123	42	0	1202716672	46	5751
2026-01-25 02:31:09.20	283.91	20.05	-36.5	-37.4	24.3	0.00e+00	123	42	0	1205862400	46	5852
2026-01-25 02:31:10.21	284.16	20.04	-36.5	-37.4	24.3	0.00e+00	122	42	0	1209008128	46	5800
2026-01-25 02:31:11.22	284.41	20.02	-36.7	-37.6	24.2	0.00e+00	120	42	0	1212153856	46	5965
2026-01-25 02:31:12.23	284.66	20.01	-36.8	-37.7	24.1	0.00e+00	120	42	0	1215299584	46	6012
2026-01-25 02:31:13.24	284.91	19.99	-36.7	-37.6	24.2	0.00e+00	123	42	0	1218445312	46	5972
2026-01-25 02:31:14.24	285.15	19.97	-36.6	-37.5	24.2	0.00e+00	122	42	0	1221591040	46	5864
2026-01-25 02:31:15.26	285.41	19.95	-36.8	-37.7	24.1	0.00e+00	123	42	0	1224736768	46	5997
2026-01-25 02:31:16.26	285.65	19.94	-36.4	-37.3	24.3	0.00e+00	122	42	0	1227882496	46	5778
2026-01-25 02:31:17.27	285.90	19.92	-36.7	-37.6	24.1	0.00e+00	123	42	0	1231028224	46	5938
2026-01-25 02:31:18.29	286.15	19.90	-36.7	-37.6	24.2	0.00e+00	123	42	0	1234173952	46	5948
2026-01-25 02:31:19.29	286.40	19.88	-36.7	-37.7	24.1	0.00e+00	123	42	0	1237319680	46	6001
2026-01-25 02:31:20.31	286.65	19.86	-36.6	-37.5	24.3	0.00e+00	120	42	0	1240465408	46	5866
2026-01-25 02:31:21.31	286.89	19.84	-36.4	-37.3	24.4	0.00e+00	123	42	0	1243611136	46	5767
2026-01-25 02:31:22.32	287.14	19.82	-36.4	-37.3	24.4	0.00e+00	120	42	0	1246756864	46	5739
2026-01-25 02:31:23.33	287.39	19.79	-36.4	-37.3	24.3	0.00e+00	123	42	0	1249902592	46	5748
2026-01-25 02:31:24.34	287.63	19.77	-36.5	-37.4	24.3	0.00e+00	120	42	0	1253048320	46	5803
2026-01-25 02:31:25.34	287.88	19.75	-36.5	-37.4	24.3	0.00e+00	122	42	0	1256194048	46	5849
2026-01-25 02:31:26.35	288.12	19.72	-36.5	-37.4	24.3	0.00e+00	122	42	0	1259339776	46	5847
2026-01-25 02:31:27.36	288.37	19.70	-36.6	-37.5	24.3	0.00e+00	124	42	0	1262485504	46	5887
2026-01-25 02:31:28.37	288.61	19.68	-36.4	-37.3	24.4	0.00e+00	122	42	0	1265631232	46	5791
2026-01-25 02:31:29.38	288.86	19.65	-36.5	-37.4	24.4	0.00e+00	123	42	0	1268776960	46	5828
2026-01-25 02:31:30.38	289.10	19.63	-36.6	-37.5	24.2	0.00e+00	122	42	0	1271922688	46	5901
2026-01-25 02:31:31.39	289.34	19.60	-36.4	-37.3	24.3	0.00e+00	122	42	0	1275068416	46	5764
2026-01-25 02:31:32.40	289.58	19.57	-36.5	-37.4	24.3	0.00e+00	123	42	0	1278214144	46	5815
2026-01-25 02:31:33.41	289.83	19.55	-36.4	-37.3	24.3	0.00e+00	121	42	0	1281359872	46	5778
2026-01-25 02:31:34.42	290.07	19.52	-36.4	-37.3	24.4	0.00e+00	123	42	0	1284505600	46	5763
2026-01-25 02:31:35.43	290.31	19.49	-36.5	-37.4	24.3	0.00e+00	120	42	0	1287651328	46	5803
2026-01-25 02:31:36.44	290.55	19.47	-36.3	-37.2	24.4	0.00e+00	123	42	0	1290797056	46	5715
2026-01-25 02:31:37.45	290.79	19.44	-36.4	-37.3	24.3	0.00e+00	123	42	0	1293942784	46	5742
2026-01-25 02:31:38.46	291.03	19.41	-36.3	-37.2	24.4	0.00e+00	123	42	0	1297088512	46	5716
2026-01-25 02:31:39.47	291.27	19.38	-36.4	-37.3	24.3	0.00e+00	121	42	0	1300234240	46	5739
2026-01-25 02:31:40.48	291.51	19.35	-36.3	-37.2	24.4	0.00e+00	123	42	0	1303379968	46	5706
2026-01-25 02:31:41.49	291.75	19.32	-36.3	-37.3	24.4	0.00e+00	123	42	0	1306525696	46	5730
2026-01-25 02:31:42.50	291.99	19.29	-36.4	-37.2	24.3	0.00e+00	123	42	0	1309671424	46	5723
2026-01-25 02:31:43.51	292.23	19.26	-36.4	-37.3	24.4	0.00e+00	122	42	0	1312817152	46	5736
2026-01-25 02:31:44.51	292.47	19.22	-36.3	-37.2	24.3	0.00e+00	123	42	0	1315962880	46	5715
2026-01-25 02:31:45.52	292.70	19.19	-36.5	-37.4	24.2	0.00e+00	122	42	0	1319108608	46	5797
2026-01-25 02:31:46.53	292.94	19.16	-36.5	-37.4	24.2	0.00e+00	123	42	0	1322254336	46	5843
2026-01-25 02:31:47.54	293.18	19.13	-36.5	-37.4	24.2	0.00e+00	123	42	0	1325400064	46	5820
2026-01-25 02:31:48.55	293.41	19.09	-36.6	-37.5	24.1	0.00e+00	122	42	0	1328545792	46	5891
2026-01-25 02:31:49.56	293.65	19.06	-36.7	-37.6	24.1	0.00e+00	122	42	0	1331691520	46	5946
2026-01-25 02:31:50.57	293.88	19.02	-36.7	-37.6	24.1	0.00e+00	123	42	0	1334837248	46	5960
2026-01-25 02:31:51.58	294.12	18.99	-36.7	-37.6	24.2	0.00e+00	123	42	0	1337982976	46	5956
2026-01-25 02:31:52.59	294.35	18.95	-36.5	-37.4	24.3	0.00e+00	123	42	0	1341128704	46	5842
2026-01-25 02:31:53.60	294.58	18.92	-36.5	-37.3	24.4	0.00e+00	122	42	0	1344274432	46	5784
2026-01-25 02:31:54.61	294.82	18.88	-36.3	-37.2	24.4	0.00e+00	122	42	0	1347420160	46	5694
2026-01-25 02:31:55.62	295.05	18.85	-36.5	-37.4	24.3	0.00e+00	120	42	0	1350565888	46	5814
2026-01-25 02:31:56.63	295.28	18.81	-36.5	-37.4	24.4	0.00e+00	123	42	0	1353711616	46	5845
2026-01-25 02:31:57.64	295.51	18.77	-36.5	-37.4	24.3	0.00e+00	123	42	0	1356857344	46	5804
2026-01-25 02:31:58.65	295.74	18.73	-36.4	-37.3	24.4	0.00e+00	122	42	0	1360003072	46	5787
2026-01-25 02:31:59.67	295.97	18.70	-36.4	-37.3	24.4	0.00e+00	123	42	0	1363148800	46	5745
2026-01-25 02:32:00.67	296.20	18.66	-36.4	-37.3	24.5	0.00e+00	120	42	0	1366294528	46	5726
2026-01-25 02:32:01.68	296.43	18.62	-36.4	-37.3	24.4	0.00e+00	123	42	0	1369440256	46	5747
2026-01-25 02:32:02.69	296.66	18.58	-36.6	-37.5	24.3	0.00e+00	120	42	0	1372585984	46	5906
2026-01-25 02:32:03.70	296.89	18.54	-36.8	-37.7	24.2	0.00e+00	123	42	0	1375731712	46	6024
2026-01-25 02:32:04.72	297.11	18.50	-36.6	-37.5	24.3	0.00e+00	120	42	0	1378877440	46	5868
2026-01-25 02:32:05.72	297.34	18.46	-36.5	-37.4	24.4	0.00e+00	123	42	0	1382023168	46	5831
2026-01-25 02:32:06.73	297.56	18.42	-36.4	-37.3	24.4	0.00e+00	123	42	0	1385168896	46	5771
2026-01-25 02:32:07.74	297.79	18.38	-36.4	-37.3	24.4	0.00e+00	123	42	0	1388314624	46	5729
2026-01-25 02:32:08.75	298.01	18.34	-36.5	-37.4	24.3	0.00e+00	123	42	0	1391460352	46	5842
2026-01-25 02:32:09.76	298.24	18.30	-36.3	-37.2	24.5	0.00e+00	123	42	0	1394606080	46	5681
2026-01-25 02:32:10.77	298.46	18.25	-36.5	-37.4	24.4	0.00e+00	122	42	0	1397751808	46	5814
2026-01-25 02:32:11.78	298.68	18.21	-36.5	-37.4	24.3	0.00e+00	123	42	0	1400897536	46	5819
2026-01-25 02:32:12.79	298.91	18.17	-36.5	-37.5	24.3	0.00e+00	122	42	0	1404043264	46	5863
2026-01-25 02:32:13.80	299.13	18.13	-36.8	-37.7	24.0	0.00e+00	123	42	0	1407188992	46	5996
2026-01-25 02:32:14.81	299.35	18.08	-36.7	-37.6	24.1	0.00e+00	122	42	0	1410334720	46	5975
2026-01-25 02:32:15.82	299.57	18.04	-36.6	-37.5	24.2	0.00e+00	121	42	0	1413480448	46	5877
2026-01-25 02:32:16.83	299.79	18.00	-36.8	-37.7	24.1	0.00e+00	123	42	0	1416626176	46	6016
2026-01-25 02:32:17.84	300.01	17.95	-36.6	-37.5	24.2	0.00e+00	123	42	0	1419771904	46	5893
2026-01-25 02:32:18.85	300.23	17.91	-36.7	-37.7	24.1	0.00e+00	122	42	0	1422917632	46	5999
2026-01-25 02:32:19.86	300.44	17.86	-36.6	-37.6	24.1	0.00e+00	120	42	0	1426063360	46	5928
2026-01-25 02:32:20.87	300.66	17.82	-36.8	-37.7	24.0	0.00e+00	123	42	0	1429209088	46	6025
2026-01-25 02:32:21.88	300.88	17.77	-36.6	-37.5	24.1	0.00e+00	121	42	0	1432354816	46	5912
2026-01-25 02:32:22.89	301.09	17.72	-36.6	-37.5	24.1	0.00e+00	123	42	0	1435500544	46	5920
2026-01-25 02:32:23.90	301.31	17.68	-36.6	-37.6	24.1	0.00e+00	123	42	0	1438646272	46	5927
2026-01-25 02:32:24.91	301.52	17.63	-36.8	-37.8	24.0	0.00e+00	122	42	0	1441792000	46	6068
2026-01-25 02:32:25.92	301.74	17.58	-36.7	-37.6	24.1	0.00e+00	123	42	0	1444937728	46	5934
2026-01-25 02:32:26.93	301.95	17.54	-36.8	-37.7	24.0	0.00e+00	121	42	0	1448083456	46	6021
2026-01-25 02:32:27.93	302.16	17.49	-36.9	-37.8	23.9	0.00e+00	123	42	0	1451229184	46	6081
2026-01-25 02:32:28.94	302.37	17.44	-37.0	-38.0	23.8	0.00e+00	123	42	0	1454374912	46	6233
2026-01-25 02:32:29.95	302.59	17.39	-37.1	-38.0	23.7	0.00e+00	122	42	0	1457520640	46	6274
2026-01-25 02:32:30.96	302.80	17.35	-37.1	-38.0	23.8	0.00e+00	123	42	0	1460666368	46	6250
2026-01-25 02:32:31.97	303.01	17.30	-37.0	-38.0	23.8	0.00e+00	123	42	0	1463812096	46	6223
2026-01-25 02:32:32.98	303.22	17.25	-37.1	-38.1	23.7	0.00e+00	123	42	0	1466957824	46	6289
2026-01-25 02:32:33.98	303.42	17.20	-37.1	-38.0	23.7	0.00e+00	120	42	0	1470103552	46	6272
2026-01-25 02:32:34.99	303.63	17.15	-37.0	-38.0	23.7	0.00e+00	123	42	0	1473249280	46	6231
2026-01-25 02:32:36.00	303.84	17.10	-37.0	-37.9	23.8	0.00e+00	122	42	0	1476395008	46	6196
2026-01-25 02:32:37.01	304.05	17.05	-37.0	-37.9	23.8	0.00e+00	122	42	0	1479540736	46	6202
2026-01-25 02:32:38.02	304.25	17.00	-37.0	-38.0	23.8	0.00e+00	123	42	0	1482686464	46	6225
2026-01-25 02:32:39.03	304.46	16.95	-37.1	-38.0	23.6	0.00e+00	122	42	0	1485832192	46	6276
2026-01-25 02:32:40.04	304.66	16.90	-37.1	-38.0	23.7	0.00e+00	122	42	0	1488977920	46	6242
2026-01-25 02:32:41.05	304.87	16.85	-37.3	-38.2	23.6	0.00e+00	120	42	0	1492123648	46	6387
2026-01-25 02:32:42.06	305.07	16.80	-37.3	-38.2	23.5	0.00e+00	123	42	0	1495269376	46	6394
2026-01-25 02:32:43.07	305.27	16.75	-37.3	-38.3	23.4	0.00e+00	120	42	0	1498415104	46	6427
2026-01-25 02:32:44.08	305.47	16.70	-37.4	-38.4	23.3	0.00e+00	123	42	0	1501560832	46	6518
2026-01-25 02:32:45.09	305.67	16.65	-37.4	-38.3	23.3	0.00e+00	120	42	0	1504706560	46	6482
2026-01-25 02:32:46.10	305.88	16.59	-37.4	-38.4	23.3	0.00e+00	122	42	0	1507852288	46	6539
2026-01-25 02:32:47.11	306.08	16.54	-37.2	-38.2	23.5	0.00e+00	122	42	0	1510998016	46	6366
2026-01-25 02:32:48.12	306.27	16.49	-37.3	-38.3	23.4	0.00e+00	122	42	0	1514143744	46	6448
2026-01-25 02:32:49.13	306.47	16.44	-37.2	-38.1	23.6	0.00e+00	122	42	0	1517289472	46	6306
2026-01-25 02:32:50.14	306.67	16.38	-36.9	-37.9	23.8	0.00e+00	123	42	0	1520435200	46	6157
2026-01-25 02:32:51.15	306.87	16.33	-36.9	-37.8	23.8	0.00e+00	120	42	0	1523580928	46	6081
2026-01-25 02:32:52.16	307.07	16.28	-37.0	-37.9	23.7	0.00e+00	123	42	0	1526726656	46	6169
2026-01-25 02:32:53.16	307.26	16.22	-37.1	-38.1	23.6	0.00e+00	123	42	0	1529872384	46	6297
2026-01-25 02:32:54.17	307.45	16.17	-37.1	-38.0	23.7	0.00e+00	123	42	0	1533018112	46	6251
2026-01-25 02:32:55.19	307.65	16.12	-37.2	-38.1	23.6	0.00e+00	123	42	0	1536163840	46	6307
2026-01-25 02:32:56.20	307.85	16.06	-37.3	-38.3	23.5	0.00e+00	123	42	0	1539309568	46	6437
2026-01-25 02:32:57.21	308.04	16.01	-37.4	-38.4	23.4	0.00e+00	123	42	0	1543503872	46	6532
2026-01-25 02:32:58.21	308.23	15.95	-37.4	-38.4	23.5	0.00e+00	123	42	0	1546649600	46	6526
2026-01-25 02:32:59.22	308.42	15.90	-37.5	-38.5	23.5	0.00e+00	122	42	0	1548746752	46	6579
2026-01-25 02:33:00.23	308.61	15.85	-37.7	-38.6	23.3	0.00e+00	123	42	0	1551892480	46	6701
2026-01-25 02:33:01.23	308.80	15.79	-37.6	-38.5	23.4	0.00e+00	123	42	0	1555038208	46	6636
2026-01-25 02:33:02.24	308.99	15.74	-37.5	-38.4	23.4	0.00e+00	120	42	0	1558183936	46	6547
2026-01-25 02:33:03.25	309.18	15.68	-37.3	-38.2	23.6	0.00e+00	122	42	0	1562378240	46	6408
2026-01-25 02:33:04.26	309.37	15.63	-37.1	-38.1	23.7	0.00e+00	123	42	0	1565523968	46	6297
2026-01-25 02:33:05.27	309.56	15.57	-37.2	-38.1	23.7	0.00e+00	123	42	0	1568669696	46	6306
2026-01-25 02:33:06.28	309.74	15.51	-37.2	-38.1	23.7	0.00e+00	123	42	0	1570766848	46	6312
2026-01-25 02:33:07.29	309.93	15.46	-37.1	-38.0	23.8	0.00e+00	123	42	0	1573912576	46	6237
2026-01-25 02:33:08.30	310.12	15.40	-37.0	-37.9	23.8	0.00e+00	122	42	0	1578106880	46	6176
2026-01-25 02:33:09.31	310.30	15.35	-37.0	-37.9	23.8	0.00e+00	122	42	0	1581252608	46	6160
2026-01-25 02:33:10.32	310.48	15.29	-37.1	-38.0	23.8	0.00e+00	123	42	0	1584398336	46	6243
2026-01-25 02:33:11.34	310.67	15.23	-37.2	-38.2	23.6	0.00e+00	122	42	0	1587544064	46	6374
2026-01-25 02:33:12.34	310.85	15.18	-37.3	-38.2	23.6	0.00e+00	123	42	0	1590689792	46	6416
2026-01-25 02:33:13.35	311.03	15.12	-37.4	-38.4	23.5	0.00e+00	122	42	0	1593835520	46	6501
2026-01-25 02:33:14.36	311.22	15.06	-37.5	-38.4	23.4	0.00e+00	123	42	0	1596981248	46	6534
2026-01-25 02:33:15.37	311.40	15.01	-37.4	-38.3	23.5	0.00e+00	122	42	0	1600126976	46	6482
2026-01-25 02:33:16.38	311.58	14.95	-37.3	-38.3	23.6	0.00e+00	122	42	0	1603272704	46	6449
2026-01-25 02:33:17.39	311.76	14.89	-37.4	-38.3	23.5	0.00e+00	123	42	0	1606418432	46	6497
2026-01-25 02:33:18.40	311.94	14.83	-37.5	-38.4	23.5	0.00e+00	122	42	0	1609564160	46	6532
2026-01-25 02:33:19.41	312.11	14.78	-37.3	-38.3	23.5	0.00e+00	123	42	0	1612709888	46	6429
2026-01-25 02:33:20.42	312.29	14.72	-37.4	-38.3	23.4	0.00e+00	121	42	0	1615855616	46	6488
2026-01-25 02:33:21.43	312.47	14.66	-37.2	-38.2	23.6	0.00e+00	123	42	0	1619001344	46	6370
2026-01-25 02:33:22.44	312.64	14.60	-37.3	-38.2	23.6	0.00e+00	123	42	0	1622147072	46	6376
2026-01-25 02:33:23.45	312.82	14.55	-37.3	-38.2	23.6	0.00e+00	123	42	0	1625292800	46	6422
2026-01-25 02:33:24.46	313.00	14.49	-37.2	-38.2	23.7	0.00e+00	123	42	0	1628438528	46	6363
2026-01-25 02:33:25.47	313.17	14.43	-37.3	-38.3	23.6	0.00e+00	120	42	0	1631584256	46	6429
2026-01-25 02:33:26.47	313.34	14.37	-37.5	-38.4	23.4	0.00e+00	122	42	0	1634729984	46	6521
2026-01-25 02:33:27.49	313.52	14.31	-37.4	-38.4	23.5	0.00e+00	123	42	0	1637875712	46	6502
2026-01-25 02:33:28.50	313.69	14.26	-37.4	-38.3	23.5	0.00e+00	120	42	0	1641021440	46	6486
2026-01-25 02:33:29.51	313.86	14.20	-37.6	-38.5	23.3	0.00e+00	123	42	0	1644167168	46	6623
2026-01-25 02:33:30.52	314.03	14.14	-37.7	-38.7	23.2	0.00e+00	123	42	0	1647312896	46	6748
2026-01-25 02:33:31.53	314.20	14.08	-37.7	-38.6	23.1	0.00e+00	123	42	0	1650458624	48	5969
2026-01-25 02:33:32.54	314.37	14.02	-37.5	-38.4	23.5	0.00e+00	123	42	0	1653604352	48	5848
2026-01-25 02:33:33.55	314.54	13.96	-37.6	-38.5	23.3	0.00e+00	123	42	0	1656750080	48	5895
2026-01-25 02:33:34.56	314.71	13.90	-37.8	-38.8	23.1	0.00e+00	123	42	0	1659895808	48	6079
2026-01-25 02:33:35.57	314.88	13.84	-37.6	-38.5	23.3	0.00e+00	122	42	0	1663041536	48	5899
2026-01-25 02:33:36.58	315.04	13.78	-37.6	-38.5	23.3	0.00e+00	123	42	0	1666187264	48	5913
2026-01-25 02:33:37.59	315.21	13.73	-37.6	-38.6	23.2	0.00e+00	122	42	0	1669332992	48	5946
2026-01-25 02:33:38.60	315.38	13.67	-37.4	-38.3	23.4	0.00e+00	123	42	0	1672478720	48	5789
2026-01-25 02:33:39.61	315.54	13.61	-37.6	-38.5	23.3	0.00e+00	123	42	0	1675624448	48	5909
2026-01-25 02:33:40.62	315.71	13.55	-37.7	-38.6	23.2	0.00e+00	120	42	0	1678770176	48	5977
2026-01-25 02:33:41.63	315.87	13.49	-37.6	-38.5	23.3	0.00e+00	122	42	0	1681915904	48	5920
2026-01-25 02:33:42.64	316.03	13.43	-37.4	-38.3	23.4	0.00e+00	122	42	0	1685061632	48	5791
2026-01-25 02:33:43.65	316.20	13.37	-37.3	-38.2	23.6	0.00e+00	123	42	0	1688207360	48	5695
2026-01-25 02:33:44.66	316.36	13.31	-37.2	-38.1	23.6	0.00e+00	123	42	0	1691353088	48	5631
2026-01-25 02:33:45.67	316.52	13.25	-37.2	-38.1	23.6	0.00e+00	123	42	0	1694498816	48	5621
2026-01-25 02:33:46.68	316.68	13.19	-37.2	-38.2	23.5	0.00e+00	123	42	0	1697644544	48	5686
2026-01-25 02:33:47.69	316.84	13.13	-37.4	-38.3	23.4	0.00e+00	122	42	0	1700790272	48	5778
2026-01-25 02:33:48.70	317.00	13.07	-37.5	-38.5	23.3	0.00e+00	123	42	0	1703936000	48	5884
2026-01-25 02:33:49.71	317.16	13.01	-37.5	-38.5	23.4	0.00e+00	123	42	0	1707081728	48	5874
2026-01-25 02:33:50.72	317.32	12.95	-37.5	-38.5	23.3	0.00e+00	120	42	0	1710227456	48	5867
2026-01-25 02:33:51.73	317.47	12.89	-37.5	-38.5	23.3	0.00e+00	122	42	0	1713373184	48	5886
2026-01-25 02:33:52.74	317.63	12.83	-37.5	-38.5	23.4	0.00e+00	120	42	0	1716518912	48	5882
2026-01-25 02:33:53.75	317.79	12.77	-37.6	-38.6	23.3	0.00e+00	122	42	0	1719664640	48	5936
2026-01-25 02:33:54.76	317.94	12.71	-37.6	-38.5	23.3	0.00e+00	120	42	0	1722810368	48	5920
2026-01-25 02:33:55.77	318.10	12.65	-37.5	-38.5	23.4	0.00e+00	123	42	0	1725956096	48	5878
2026-01-25 02:33:56.78	318.25	12.59	-37.4	-38.4	23.4	0.00e+00	120	42	0	1729101824	48	5829
2026-01-25 02:33:57.79	318.41	12.53	-37.5	-38.4	23.4	0.00e+00	120	42	0	1732247552	48	5856
2026-01-25 02:33:58.80	318.56	12.47	-37.5	-38.4	23.5	0.00e+00	122	42	0	1735393280	48	5842
2026-01-25 02:33:59.81	318.71	12.41	-37.3	-38.2	23.5	0.00e+00	123	42	0	1738539008	48	5685
2026-01-25 02:34:00.82	318.86	12.35	-37.4	-38.3	23.4	0.00e+00	122	42	0	1741684736	48	5791
2026-01-25 02:34:01.83	319.02	12.29	-37.3	-38.2	23.5	0.00e+00	120	42	0	1744830464	48	5710
2026-01-25 02:34:02.84	319.17	12.23	-37.3	-38.2	23.5	0.00e+00	123	42	0	1747976192	48	5699
2026-01-25 02:34:03.85	319.32	12.17	-37.5	-38.4	23.4	0.00e+00	123	42	0	1751121920	48	5849
2026-01-25 02:34:04.86	319.47	12.11	-37.4	-38.4	23.4	0.00e+00	122	42	0	1754267648	48	5802
2026-01-25 02:34:05.87	319.62	12.05	-37.4	-38.4	23.5	0.00e+00	123	42	0	1757413376	48	5795
2026-01-25 02:34:06.88	319.76	11.99	-37.4	-38.3	23.4	0.00e+00	123	42	0	1760559104	48	5759
2026-01-25 02:34:07.89	319.91	11.93	-37.5	-38.4	23.4	0.00e+00	122	42	0	1763704832	48	5845
2026-01-25 02:34:08.90	320.06	11.86	-37.5	-38.5	23.4	0.00e+00	123	42	0	1766850560	48	5860
2026-01-25 02:34:09.91	320.21	11.80	-37.3	-38.2	23.5	0.00e+00	121	42	0	1769996288	48	5683
2026-01-25 02:34:10.92	320.35	11.74	-37.3	-38.3	23.5	0.00e+00	122	42	0	1773142016	48	5730
2026-01-25 02:34:11.93	320.50	11.68	-37.6	-38.5	23.3	0.00e+00	120	42	0	1776287744	48	5905
2026-01-25 02:34:12.94	320.64	11.62	-37.7	-38.6	23.2	0.00e+00	123	42	0	1779433472	48	5950
2026-01-25 02:34:13.95	320.79	11.56	-37.6	-38.5	23.3	0.00e+00	123	42	0	1782579200	48	5896
2026-01-25 02:34:14.95	320.93	11.50	-37.6	-38.5	23.3	0.00e+00	122	42	0	1785724928	48	5914
2026-01-25 02:34:15.96	321.07	11.44	-37.7	-38.7	23.1	0.00e+00	123	42	0	1788870656	48	6008
2026-01-25 02:34:16.97	321.22	11.38	-37.8	-38.7	23.1	0.00e+00	122	42	0	1792016384	48	6034
2026-01-25 02:34:17.98	321.36	11.32	-37.9	-38.9	23.0	0.00e+00	120	42	0	1795162112	48	6170
2026-01-25 02:34:18.99	321.50	11.26	-37.8	-38.7	23.1	0.00e+00	122	42	0	1798307840	48	6045
2026-01-25 02:34:20.00	321.64	11.20	-38.0	-39.0	22.9	0.00e+00	120	42	0	1801453568	48	6231
2026-01-25 02:34:21.01	321.78	11.14	-38.2	-39.2	22.7	0.00e+00	122	42	0	1804599296	48	6368
2026-01-25 02:34:22.02	321.92	11.08	-38.2	-39.2	22.7	0.00e+00	122	42	0	1807745024	48	6381
2026-01-25 02:34:23.03	322.06	11.02	-38.0	-39.0	22.8	0.00e+00	122	42	0	1810890752	48	6246
2026-01-25 02:34:24.04	322.20	10.96	-38.0	-39.0	22.8	0.00e+00	120	42	0	1814036480	48	6241
2026-01-25 02:34:25.05	322.34	10.90	-38.0	-39.0	22.8	0.00e+00	122	42	0	1817182208	48	6233
2026-01-25 02:34:26.06	322.48	10.83	-38.1	-39.1	22.7	0.00e+00	121	42	0	1820327936	48	6321
2026-01-25 02:34:27.07	322.61	10.77	-38.2	-39.1	22.6	0.00e+00	123	42	0	1823473664	48	6348
2026-01-25 02:34:28.08	322.75	10.71	-38.2	-39.2	22.6	0.00e+00	120	42	0	1826619392	48	6403
2026-01-25 02:34:29.09	322.89	10.65	-38.3	-39.3	22.5	0.00e+00	123	42	0	1829765120	48	6481
2026-01-25 02:34:30.10	323.02	10.59	-38.4	-39.3	22.4	0.00e+00	120	42	0	1832910848	48	6495
2026-01-25 02:34:31.11	323.16	10.53	-38.4	-39.4	22.3	0.00e+00	123	42	0	1836056576	48	6543
2026-01-25 02:34:32.12	323.29	10.47	-38.5	-39.5	22.3	0.00e+00	122	42	0	1839202304	48	6597
2026-01-25 02:34:33.13	323.42	10.41	-38.6	-39.6	22.2	0.00e+00	120	42	0	1842348032	48	6719
2026-01-25 02:34:34.14	323.56	10.35	-38.7	-39.7	22.2	0.00e+00	122	42	0	1845493760	50	6010
2026-01-25 02:34:35.15	323.69	10.29	-38.7	-39.7	22.1	0.00e+00	122	42	0	1848639488	50	6046
2026-01-25 02:34:36.15	323.82	10.23	-38.7	-39.7	22.2	0.00e+00	123	42	0	1851785216	50	6032
2026-01-25 02:34:37.16	323.95	10.17	-38.7	-39.8	22.1	0.00e+00	120	42	0	1854930944	50	6082
2026-01-25 02:34:38.17	324.08	10.11	-38.6	-39.7	22.2	0.00e+00	122	42	0	1858076672	50	5998
2026-01-25 02:34:39.18	324.22	10.05	-38.9	-39.9	22.1	0.00e+00	123	42	0	1861222400	50	6193
2026-01-25 02:34:40.19	324.35	9.99	-38.6	-39.7	22.2	0.00e+00	122	42	0	1864368128	50	5998
2026-01-25 02:34:41.20	324.48	9.93	-38.6	-39.6	22.2	0.00e+00	122	42	0	1867513856	50	5962
2026-01-25 02:34:42.21	324.60	9.87	-38.4	-39.4	22.5	0.00e+00	122	42	0	1870659584	50	5814
2026-01-25 02:34:43.22	324.73	9.81	-38.5	-39.5	22.4	0.00e+00	122	42	0	1873805312	50	5885
2026-01-25 02:34:44.23	324.86	9.75	-38.3	-39.2	22.5	0.00e+00	123	42	0	1876951040	50	5715
2026-01-25 02:34:45.24	324.99	9.69	-38.3	-39.3	22.5	0.00e+00	122	42	0	1880096768	50	5758
2026-01-25 02:34:46.25	325.12	9.63	-38.5	-39.5	22.3	0.00e+00	120	42	0	1883242496	50	5892
2026-01-25 02:34:47.26	325.24	9.57	-38.4	-39.4	22.4	0.00e+00	122	42	0	1886388224	50	5841
2026-01-25 02:34:48.27	325.37	9.51	-38.5	-39.6	22.4	0.00e+00	123	42	0	1889533952	50	5932
2026-01-25 02:34:49.28	325.49	9.45	-38.6	-39.7	22.2	0.00e+00	122	42	0	1892679680	50	5999
2026-01-25 02:34:50.29	325.62	9.39	-38.7	-39.7	22.0	0.00e+00	120	42	0	1895825408	50	6030
2026-01-25 02:34:51.30	325.74	9.33	-38.8	-39.8	22.0	0.00e+00	120	42	0	1898971136	50	6130
2026-01-25 02:34:52.30	325.87	9.27	-38.6	-39.6	22.3	0.00e+00	123	42	0	1903165440	50	5927
2026-01-25 02:34:53.31	325.99	9.21	-38.5	-39.6	22.3	0.00e+00	120	42	0	1906311168	50	5931
2026-01-25 02:34:54.32	326.11	9.15	-38.9	-39.9	22.1	0.00e+00	122	42	0	1909456896	50	6162
2026-01-25 02:34:55.33	326.24	9.09	-38.8	-39.9	22.0	0.00e+00	120	42	0	1911554048	50	6156
2026-01-25 02:34:56.34	326.36	9.03	-38.8	-39.8	22.0	0.00e+00	123	42	0	1914699776	50	6083
2026-01-25 02:34:57.34	326.48	8.97	-38.9	-39.9	21.9	0.00e+00	123	42	0	1917845504	50	6164
2026-01-25 02:34:58.35	326.60	8.91	-39.1	-40.2	21.7	0.00e+00	121	42	0	1922039808	50	6379
2026-01-25 02:34:59.36	326.72	8.85	-39.1	-40.2	21.6	0.00e+00	122	42	0	1925185536	50	6370
2026-01-25 02:35:00.37	326.84	8.79	-38.7	-39.8	22.1	0.00e+00	122	42	0	1928331264	50	6068
2026-01-25 02:35:01.37	326.96	8.73	-38.7	-39.7	22.1	0.00e+00	123	42	0	1931476992	50	6046
2026-01-25 02:35:02.38	327.08	8.67	-38.7	-39.7	22.1	0.00e+00	123	42	0	1933574144	50	6018
2026-01-25 02:35:03.39	327.20	8.61	-38.5	-39.5	22.2	0.00e+00	122	42	0	1936719872	50	5914
2026-01-25 02:35:04.40	327.32	8.55	-38.6	-39.6	22.1	0.00e+00	120	42	0	1939865600	50	5988
2026-01-25 02:35:05.41	327.44	8.49	-38.6	-39.6	22.1	0.00e+00	122	42	0	1944059904	50	5952
2026-01-25 02:35:06.41	327.55	8.43	-38.7	-39.7	22.0	0.00e+00	122	42	0	1947205632	50	6020
