passes_logs/2026/01/25/R4.6S_Anadyr/R4.6S_Anadyr__20260125_015813_AQUA_rec.log

#Pass ID: 20260125_015813_AQUA
#Satellite: AQUA
#Configuration: AQUA
#almurnet v.1.7.20251203
#Start time: 2026-01-25 01:58:16

#Version: 2.2.20231116
#Station: R4.6S_Anadyr
#Location: 177.4865 lon 64.73178 lat
#TLE: 1 27424U 02022A   26024.53919639  .00001970  00000+0  40397-3 0  9996
#TLE: 2 27424  98.4098 351.1277 0001915  66.8561 358.4840 14.61855303262281

#Time	Az	El	Level	Level2	SNR	BER	BlckErr	Temp	State	Recorded	gain1	gain2
2026-01-25 01:58:16.55	156.41	0.22	-51.7	-68.1	3.2	3.01e+01	0	40	0	0	60	97586
2026-01-25 01:58:17.55	156.41	0.28	-51.5	-69.3	3.5	3.01e+01	0	40	104	0	60	112826
2026-01-25 01:58:18.56	156.42	0.34	-51.5	-69.3	3.5	3.01e+01	0	40	104	0	60	112115
2026-01-25 01:58:19.57	156.42	0.40	-51.4	-69.2	3.5	3.01e+01	0	40	104	0	60	110954
2026-01-25 01:58:20.58	156.42	0.47	-51.4	-69.2	3.5	3.01e+01	0	40	104	0	60	111503
2026-01-25 01:58:21.59	156.42	0.53	-51.4	-69.2	3.5	3.01e+01	0	40	104	0	60	110887
2026-01-25 01:58:22.60	156.43	0.59	-51.4	-69.2	3.5	3.01e+01	0	40	104	0	60	110465
2026-01-25 01:58:23.61	156.43	0.66	-51.3	-69.2	3.5	3.01e+01	0	40	104	0	60	110719
2026-01-25 01:58:24.62	156.43	0.72	-51.2	-69.1	3.5	3.01e+01	0	40	104	0	60	109278
2026-01-25 01:58:25.63	156.43	0.79	-51.2	-69.0	3.5	3.01e+01	0	40	104	0	60	108445
2026-01-25 01:58:26.64	156.43	0.85	-51.2	-69.0	3.5	3.01e+01	0	40	104	0	60	108244
2026-01-25 01:58:27.65	156.44	0.92	-51.1	-68.9	3.5	3.01e+01	0	40	104	0	60	107634
2026-01-25 01:58:28.66	156.44	0.98	-51.0	-68.8	3.5	3.01e+01	0	40	104	0	60	105997
2026-01-25 01:58:29.67	156.44	1.05	-50.8	-68.7	3.5	3.01e+01	0	40	104	0	60	104852
2026-01-25 01:58:30.68	156.44	1.11	-50.8	-68.7	3.5	3.01e+01	0	40	104	0	60	104339
2026-01-25 01:58:31.69	156.45	1.18	-50.7	-68.5	3.5	3.01e+01	0	40	104	0	60	102765
2026-01-25 01:58:32.70	156.45	1.24	-50.6	-68.4	3.5	3.01e+01	0	40	104	0	60	101548
2026-01-25 01:58:33.71	156.45	1.31	-49.7	-67.4	3.5	3.01e+01	0	40	104	0	60	90152
2026-01-25 01:58:34.72	156.45	1.37	-50.0	-67.4	3.5	3.01e+01	0	40	104	0	60	90702
2026-01-25 01:58:35.74	156.46	1.44	-49.7	-66.7	3.5	3.01e+01	0	40	104	0	60	82800
2026-01-25 01:58:36.74	156.46	1.50	-49.4	-67.3	3.5	3.01e+01	0	40	104	0	60	89586
2026-01-25 01:58:37.75	156.46	1.57	-49.4	-67.3	3.5	3.01e+01	0	40	104	0	60	89066
2026-01-25 01:58:38.77	156.46	1.64	-49.4	-67.2	3.5	3.01e+01	0	40	104	0	60	88610
2026-01-25 01:58:39.77	156.47	1.70	-49.4	-66.2	3.5	3.01e+01	0	40	104	0	60	78341
2026-01-25 01:58:40.79	156.47	1.77	-49.4	-66.7	3.5	3.01e+01	0	40	104	0	60	83664
2026-01-25 01:58:41.80	156.47	1.84	-49.4	-66.9	3.5	3.01e+01	0	40	104	0	60	85272
2026-01-25 01:58:42.81	156.47	1.90	-49.4	-67.2	3.5	3.01e+01	0	40	104	0	60	88247
2026-01-25 01:58:43.82	156.48	1.97	-49.4	-67.2	3.5	3.01e+01	0	40	104	0	60	88250
2026-01-25 01:58:44.83	156.48	2.04	-49.4	-67.3	3.5	3.01e+01	0	40	104	0	60	88685
2026-01-25 01:58:45.84	156.48	2.11	-49.4	-67.1	3.5	3.01e+01	0	40	104	0	60	86976
2026-01-25 01:58:46.85	156.48	2.17	-49.4	-67.2	3.5	3.01e+01	0	40	104	0	60	87680
2026-01-25 01:58:47.86	156.49	2.24	-49.4	-67.2	3.5	3.01e+01	0	40	104	0	60	88318
2026-01-25 01:58:48.87	156.49	2.31	-49.4	-67.3	3.5	3.01e+01	0	40	104	0	60	89494
2026-01-25 01:58:49.88	156.49	2.38	-49.4	-67.1	3.5	3.01e+01	0	40	104	0	60	86769
2026-01-25 01:58:50.89	156.49	2.45	-49.4	-66.6	3.5	3.01e+01	0	41	104	0	60	82686
2026-01-25 01:58:51.90	156.49	2.51	-49.4	-66.7	3.5	3.01e+01	0	40	104	0	60	83258
2026-01-25 01:58:52.91	156.50	2.58	-49.4	-67.4	3.5	3.01e+01	0	40	104	0	60	89733
2026-01-25 01:58:53.92	156.50	2.65	-49.4	-67.3	3.5	3.01e+01	0	40	104	0	60	89247
2026-01-25 01:58:54.93	156.50	2.72	-49.4	-66.8	3.5	3.01e+01	0	40	104	0	60	83845
2026-01-25 01:58:55.94	156.50	2.79	-49.3	-65.6	3.5	3.01e+01	0	40	104	0	60	73712
2026-01-25 01:58:56.95	156.51	2.86	-49.4	-65.9	3.5	3.01e+01	0	40	104	0	60	75489
2026-01-25 01:58:57.96	156.51	2.93	-49.4	-66.3	3.5	3.01e+01	0	40	104	0	60	79407
2026-01-25 01:58:58.97	156.51	3.00	-49.4	-66.9	3.5	3.01e+01	0	41	104	0	60	85006
2026-01-25 01:58:59.98	156.51	3.07	-49.4	-66.0	3.6	3.01e+01	0	41	104	0	60	77018
2026-01-25 01:59:00.98	156.52	3.14	-49.0	-60.4	6.8	3.01e+01	91	41	104	0	60	40145
2026-01-25 01:59:01.99	156.52	3.21	-48.6	-56.6	9.6	3.01e+01	92	41	0	1572864	60	25956
2026-01-25 01:59:03.00	156.52	3.28	-47.8	-53.5	13.1	3.01e+01	91	41	0	3145728	60	18304
2026-01-25 01:59:04.01	156.52	3.35	-46.6	-50.5	16.2	3.01e+01	91	41	0	5242880	60	12962
2026-01-25 01:59:05.02	156.52	3.42	-45.9	-49.4	17.8	3.01e+01	91	41	0	7340032	60	11378
2026-01-25 01:59:06.03	156.53	3.49	-44.4	-47.0	19.9	3.01e+01	88	41	0	8912896	60	8620
2026-01-25 01:59:07.04	156.53	3.56	-44.1	-46.6	20.3	3.01e+01	92	41	0	11010048	60	8182
2026-01-25 01:59:08.05	156.53	3.64	-43.5	-45.8	21.2	3.01e+01	91	40	0	12582912	60	7488
2026-01-25 01:59:09.06	156.53	3.71	-44.3	-46.9	20.2	3.01e+01	92	40	0	14680064	60	8532
2026-01-25 01:59:10.07	156.54	3.78	-43.8	-46.1	20.8	3.01e+01	90	40	0	16777216	60	7754
2026-01-25 01:59:11.08	156.54	3.85	-44.6	-47.3	19.6	3.01e+01	91	41	0	18350080	60	8893
2026-01-25 01:59:12.09	156.54	3.93	-49.6	-63.9	4.2	3.01e+01	0	41	104	19398656	60	60027
2026-01-25 01:59:13.10	156.54	4.00	-42.5	-44.5	22.5	3.01e+01	91	41	0	19922944	58	7244
2026-01-25 01:59:14.11	156.55	4.07	-49.2	-62.6	4.1	3.01e+01	0	40	104	21495808	60	52013
2026-01-25 01:59:15.12	156.55	4.14	-47.8	-53.2	15.9	3.01e+01	91	41	0	21495808	60	17553
2026-01-25 01:59:16.13	156.55	4.22	-49.4	-62.9	3.8	3.01e+01	0	41	104	23068672	60	53474
2026-01-25 01:59:17.14	156.55	4.29	-45.7	-49.2	17.4	3.01e+01	92	41	0	23068672	60	11111
2026-01-25 01:59:18.15	156.55	4.37	-46.7	-50.8	16.0	3.01e+01	92	41	0	24641536	60	13371
2026-01-25 01:59:19.16	156.56	4.44	-46.5	-50.7	16.8	3.01e+01	92	41	0	26738688	60	13189
2026-01-25 01:59:20.17	156.56	4.51	-44.9	-47.9	20.1	3.01e+01	92	41	0	28835840	60	9549
2026-01-25 01:59:21.18	156.56	4.59	-44.6	-47.4	20.5	3.01e+01	91	41	0	30408704	60	8971
2026-01-25 01:59:22.20	156.56	4.66	-44.1	-46.5	20.5	3.01e+01	92	41	0	32505856	60	8176
2026-01-25 01:59:23.20	156.57	4.74	-44.2	-46.6	20.8	3.01e+01	92	41	0	34078720	60	8268
2026-01-25 01:59:24.21	156.57	4.81	-42.4	-44.3	22.9	3.01e+01	92	41	0	36175872	60	6305
2026-01-25 01:59:25.22	156.57	4.89	-42.8	-44.7	22.5	3.01e+01	91	41	0	38273024	60	6634
2026-01-25 01:59:26.24	156.57	4.97	-42.5	-44.3	22.9	3.01e+01	92	41	0	39845888	60	6308
2026-01-25 01:59:27.25	156.57	5.04	-42.1	-43.9	23.4	3.01e+01	91	41	0	41943040	60	6039
2026-01-25 01:59:28.26	156.58	5.12	-41.3	-42.9	24.3	3.01e+01	92	41	0	43515904	58	6033
2026-01-25 01:59:29.27	156.58	5.20	-41.9	-43.6	23.7	3.01e+01	92	41	0	45613056	58	6567
2026-01-25 01:59:30.27	156.58	5.27	-41.9	-43.6	23.6	3.01e+01	92	41	0	47710208	58	6550
2026-01-25 01:59:31.28	156.58	5.35	-41.9	-43.6	23.8	3.01e+01	91	41	0	49283072	58	6515
2026-01-25 01:59:32.29	156.58	5.43	-42.0	-43.8	23.5	3.01e+01	91	41	0	51380224	58	6677
2026-01-25 01:59:33.30	156.59	5.50	-41.7	-43.3	24.1	3.01e+01	90	41	0	53477376	58	6331
2026-01-25 01:59:34.31	156.59	5.58	-41.5	-43.2	24.3	3.01e+01	92	41	0	55050240	58	6223
2026-01-25 01:59:35.32	156.59	5.66	-41.4	-43.0	24.3	3.01e+01	92	41	0	57147392	58	6098
2026-01-25 01:59:36.34	156.59	5.74	-41.1	-42.7	24.9	3.01e+01	91	41	0	58720256	58	5861
2026-01-25 01:59:37.34	156.60	5.82	-41.9	-43.6	24.0	3.01e+01	91	41	0	60817408	56	7354
2026-01-25 01:59:38.35	156.60	5.89	-41.0	-42.6	24.9	3.01e+01	91	41	0	62914560	56	6509
2026-01-25 01:59:39.36	156.60	5.97	-41.0	-42.5	25.0	3.01e+01	92	41	0	64487424	56	6493
2026-01-25 01:59:40.37	156.60	6.05	-40.9	-42.5	25.0	3.01e+01	90	41	0	66584576	56	6433
2026-01-25 01:59:41.38	156.60	6.13	-40.8	-42.4	25.1	3.01e+01	91	41	0	68681728	56	6356
2026-01-25 01:59:42.39	156.61	6.21	-40.8	-42.3	25.3	3.01e+01	91	41	0	70254592	56	6301
2026-01-25 01:59:43.40	156.61	6.29	-40.8	-42.3	25.2	3.01e+01	89	41	0	72351744	56	6339
2026-01-25 01:59:44.41	156.61	6.37	-40.7	-42.2	25.2	3.01e+01	92	41	0	73924608	56	6207
2026-01-25 01:59:45.42	156.61	6.45	-41.0	-42.5	25.0	3.01e+01	91	41	0	76021760	56	6487
2026-01-25 01:59:46.43	156.61	6.53	-40.5	-42.0	25.5	3.01e+01	91	41	0	78118912	56	6089
2026-01-25 01:59:47.44	156.62	6.62	-40.6	-42.2	25.4	3.01e+01	92	41	0	79691776	56	6210
2026-01-25 01:59:48.46	156.62	6.70	-40.4	-41.9	25.6	3.01e+01	85	41	0	81788928	56	6035
2026-01-25 01:59:49.47	156.62	6.78	-40.4	-41.8	25.8	3.01e+01	91	41	0	83361792	56	5976
2026-01-25 01:59:50.48	156.62	6.86	-40.4	-41.8	25.8	3.01e+01	92	41	0	85458944	56	5991
2026-01-25 01:59:51.49	156.62	6.94	-40.4	-41.9	25.6	3.01e+01	91	41	0	87556096	56	6010
2026-01-25 01:59:52.50	156.63	7.03	-40.4	-41.8	25.9	3.01e+01	92	41	0	89128960	56	5975
2026-01-25 01:59:53.51	156.63	7.11	-40.3	-41.8	25.8	3.01e+01	92	41	0	91226112	56	5938
2026-01-25 01:59:54.52	156.63	7.19	-40.2	-41.7	25.9	3.01e+01	91	41	0	93323264	56	5859
2026-01-25 01:59:55.53	156.63	7.28	-40.0	-41.4	26.2	3.01e+01	92	41	0	94896128	56	5687
2026-01-25 01:59:56.54	156.63	7.36	-40.5	-42.0	25.6	3.01e+01	92	41	0	96993280	54	6806
2026-01-25 01:59:57.55	156.64	7.45	-39.9	-41.4	26.2	3.01e+01	92	41	0	98566144	54	6356
2026-01-25 01:59:58.56	156.64	7.53	-40.2	-41.6	25.9	3.01e+01	92	41	0	100663296	54	6552
2026-01-25 01:59:59.57	156.64	7.62	-40.0	-41.4	26.1	3.01e+01	91	41	0	102760448	54	6401
2026-01-25 02:00:00.58	156.64	7.70	-39.9	-41.3	26.2	3.01e+01	91	41	0	104333312	54	6337
2026-01-25 02:00:01.59	156.64	7.79	-40.1	-41.5	26.1	3.01e+01	91	41	0	106430464	54	6453
2026-01-25 02:00:02.60	156.65	7.87	-39.9	-41.3	26.2	3.01e+01	91	41	0	108003328	54	6317
2026-01-25 02:00:03.61	156.65	7.96	-40.0	-41.4	26.2	3.01e+01	92	41	0	110100480	54	6416
2026-01-25 02:00:04.62	156.65	8.04	-39.7	-41.0	26.6	3.01e+01	91	41	0	112197632	54	6125
2026-01-25 02:00:05.63	156.65	8.13	-39.9	-41.3	26.4	3.01e+01	92	41	0	113770496	54	6294
2026-01-25 02:00:06.64	156.65	8.22	-39.9	-41.3	26.4	3.01e+01	91	41	0	115867648	54	6316
2026-01-25 02:00:07.65	156.66	8.31	-39.9	-41.3	26.1	3.01e+01	88	41	0	117440512	54	6330
2026-01-25 02:00:08.66	156.66	8.39	-39.8	-41.2	26.6	3.01e+01	92	41	0	119537664	54	6234
2026-01-25 02:00:09.67	156.66	8.48	-39.7	-41.1	26.5	3.01e+01	92	41	0	121634816	54	6187
2026-01-25 02:00:10.68	156.66	8.57	-40.1	-41.5	26.2	3.01e+01	91	41	0	123207680	54	6449
2026-01-25 02:00:11.69	156.66	8.66	-39.7	-41.1	26.5	3.01e+01	92	41	0	125304832	54	6167
2026-01-25 02:00:12.70	156.67	8.75	-39.6	-41.0	26.7	3.01e+01	92	41	0	126877696	54	6106
2026-01-25 02:00:13.71	156.67	8.84	-39.7	-41.1	26.5	3.01e+01	92	41	0	128974848	54	6135
2026-01-25 02:00:14.72	156.67	8.93	-39.6	-41.0	26.6	3.01e+01	92	41	0	131072000	54	6105
2026-01-25 02:00:15.73	156.67	9.02	-39.4	-40.7	26.8	3.01e+01	92	41	0	132644864	54	5919
2026-01-25 02:00:16.74	156.67	9.11	-39.3	-40.6	27.0	3.01e+01	92	41	0	134742016	54	5820
2026-01-25 02:00:17.75	156.67	9.20	-39.8	-41.2	26.4	3.01e+01	92	41	0	136839168	54	6244
2026-01-25 02:00:18.76	156.68	9.29	-39.4	-40.8	26.7	3.01e+01	90	41	0	138412032	54	5966
2026-01-25 02:00:19.77	156.68	9.38	-39.6	-41.0	26.7	3.01e+01	92	41	0	140509184	54	6067
2026-01-25 02:00:20.78	156.68	9.48	-39.9	-41.3	26.5	3.01e+01	92	41	0	142082048	54	6337
2026-01-25 02:00:21.79	156.68	9.57	-39.7	-41.1	26.5	3.01e+01	92	41	0	144179200	54	6173
2026-01-25 02:00:22.80	156.68	9.66	-39.7	-41.1	26.6	3.01e+01	92	41	0	146276352	54	6167
2026-01-25 02:00:23.81	156.68	9.76	-39.2	-40.6	26.9	3.01e+01	92	41	0	147849216	54	5816
2026-01-25 02:00:24.82	156.69	9.85	-39.1	-40.4	27.1	3.01e+01	91	41	0	149946368	54	5696
2026-01-25 02:00:25.83	156.69	9.94	-39.3	-40.6	26.9	3.01e+01	92	41	0	151519232	54	5829
2026-01-25 02:00:26.83	156.69	10.04	-39.1	-40.4	27.0	3.01e+01	88	41	0	153616384	54	5705
2026-01-25 02:00:27.84	156.69	10.13	-39.0	-40.3	27.2	3.01e+01	90	41	0	155713536	54	5622
2026-01-25 02:00:28.86	156.69	10.23	-39.0	-40.3	26.3	3.01e+01	92	41	0	157286400	54	5643
2026-01-25 02:00:29.87	156.70	10.32	-39.0	-40.3	27.3	3.01e+01	88	41	0	159383552	52	6309
2026-01-25 02:00:30.87	156.70	10.42	-38.9	-40.2	27.4	3.01e+01	91	41	0	161480704	52	6255
2026-01-25 02:00:31.88	156.70	10.52	-38.9	-40.2	27.4	3.01e+01	91	41	0	163053568	52	6268
2026-01-25 02:00:32.89	156.70	10.61	-38.9	-40.2	27.4	3.01e+01	91	41	0	165150720	52	6235
2026-01-25 02:00:33.90	156.70	10.71	-38.8	-40.1	27.5	3.01e+01	91	41	0	166723584	52	6192
2026-01-25 02:00:34.91	156.70	10.81	-38.8	-40.1	27.6	3.01e+01	91	41	0	168820736	52	6148
2026-01-25 02:00:35.92	156.70	10.91	-38.7	-40.0	27.6	3.01e+01	91	41	0	170917888	52	6116
2026-01-25 02:00:36.93	156.71	11.01	-38.8	-40.1	27.5	3.01e+01	90	41	0	172490752	52	6145
2026-01-25 02:00:37.94	156.71	11.11	-38.7	-40.0	27.6	3.01e+01	91	41	0	174587904	52	6097
2026-01-25 02:00:38.95	156.71	11.20	-38.7	-40.0	27.6	3.01e+01	92	41	0	176160768	52	6092
2026-01-25 02:00:39.97	156.71	11.31	-38.5	-39.8	27.8	3.01e+01	90	41	0	178257920	52	5947
2026-01-25 02:00:40.98	156.71	11.41	-38.8	-40.1	27.7	3.01e+01	90	41	0	180355072	52	6137
2026-01-25 02:00:41.99	156.71	11.51	-38.9	-40.2	27.4	3.01e+01	91	41	0	181927936	52	6268
2026-01-25 02:00:42.99	156.72	11.61	-38.6	-39.9	27.7	3.01e+01	90	41	0	184025088	52	6019
2026-01-25 02:00:44.01	156.72	11.71	-38.8	-40.1	27.5	3.01e+01	92	41	0	185597952	52	6202
2026-01-25 02:00:45.02	156.72	11.81	-38.7	-40.0	27.6	3.01e+01	90	41	0	187695104	52	6088
2026-01-25 02:00:46.03	156.72	11.92	-38.7	-40.0	27.7	3.01e+01	89	41	0	189792256	52	6084
2026-01-25 02:00:47.04	156.72	12.02	-38.8	-40.1	27.6	3.01e+01	92	41	0	191365120	52	6148
2026-01-25 02:00:48.05	156.72	12.12	-38.4	-39.7	28.0	3.01e+01	91	41	0	193462272	52	5870
2026-01-25 02:00:49.06	156.72	12.23	-38.2	-39.5	28.0	3.01e+01	86	41	0	195035136	52	5762
2026-01-25 02:00:50.07	156.73	12.33	-38.3	-39.6	28.0	3.01e+01	92	41	0	197132288	52	5844
2026-01-25 02:00:51.08	156.73	12.44	-38.2	-39.5	28.0	3.01e+01	92	41	0	199229440	52	5775
2026-01-25 02:00:52.09	156.73	12.54	-38.3	-39.6	28.0	3.01e+01	92	41	0	200802304	52	5844
2026-01-25 02:00:53.10	156.73	12.65	-38.3	-39.5	28.0	3.01e+01	92	41	0	202899456	52	5778
2026-01-25 02:00:54.10	156.73	12.76	-38.0	-39.3	28.3	3.01e+01	92	41	0	204996608	52	5614
2026-01-25 02:00:55.11	156.73	12.86	-38.3	-39.6	28.1	3.01e+01	91	41	0	206569472	52	5811
2026-01-25 02:00:56.12	156.73	12.97	-38.0	-39.2	28.3	3.01e+01	92	41	0	208666624	52	5585
2026-01-25 02:00:57.13	156.74	13.08	-38.1	-39.3	28.2	3.01e+01	92	41	0	210239488	52	5638
2026-01-25 02:00:58.14	156.74	13.19	-38.0	-39.3	28.2	3.01e+01	92	41	0	212336640	52	5633
2026-01-25 02:00:59.16	156.74	13.30	-38.0	-39.3	28.2	3.01e+01	92	41	0	214433792	50	6287
2026-01-25 02:01:00.16	156.74	13.41	-38.0	-39.2	28.2	3.01e+01	92	41	0	216006656	50	6265
2026-01-25 02:01:01.17	156.74	13.52	-37.9	-39.2	28.3	3.01e+01	92	41	0	218103808	50	6225
2026-01-25 02:01:02.18	156.74	13.63	-37.8	-39.1	28.5	3.01e+01	90	41	0	219676672	50	6157
2026-01-25 02:01:03.19	156.74	13.74	-38.0	-39.2	28.3	3.01e+01	91	41	0	221773824	50	6241
2026-01-25 02:01:04.20	156.74	13.86	-38.0	-39.2	28.3	3.01e+01	90	41	0	223870976	50	6262
2026-01-25 02:01:05.21	156.75	13.97	-38.0	-39.2	28.3	3.01e+01	92	41	0	225443840	50	6276
2026-01-25 02:01:06.22	156.75	14.08	-37.7	-38.9	28.6	3.01e+01	92	41	0	227540992	50	6050
2026-01-25 02:01:07.23	156.75	14.20	-37.8	-39.1	28.4	3.01e+01	92	41	0	229638144	50	6166
2026-01-25 02:01:08.24	156.75	14.31	-37.7	-39.0	28.5	3.01e+01	92	41	0	231211008	50	6068
2026-01-25 02:01:09.25	156.75	14.43	-37.7	-39.0	28.6	3.01e+01	92	41	0	233308160	50	6088
2026-01-25 02:01:10.26	156.75	14.54	-37.9	-39.1	28.4	3.01e+01	90	41	0	234881024	50	6175
2026-01-25 02:01:11.27	156.75	14.66	-37.9	-39.2	28.3	3.01e+01	92	41	0	236978176	50	6234
2026-01-25 02:01:12.28	156.75	14.78	-37.8	-39.1	28.4	3.01e+01	90	41	0	239075328	50	6141
2026-01-25 02:01:13.29	156.75	14.90	-37.8	-39.1	28.4	3.01e+01	92	41	0	240648192	50	6154
2026-01-25 02:01:14.30	156.76	15.01	-37.9	-39.1	28.4	3.01e+01	90	41	0	242745344	50	6197
2026-01-25 02:01:15.31	156.76	15.13	-37.8	-39.0	28.5	3.01e+01	92	41	0	244318208	50	6113
2026-01-25 02:01:16.32	156.76	15.25	-38.0	-39.3	28.2	3.01e+01	90	41	0	246415360	50	6308
2026-01-25 02:01:17.33	156.76	15.37	-38.1	-39.4	28.2	3.01e+01	92	41	0	248512512	50	6357
2026-01-25 02:01:18.34	156.76	15.50	-37.9	-39.1	28.4	3.01e+01	92	41	0	250085376	50	6184
2026-01-25 02:01:19.35	156.76	15.62	-37.8	-39.1	28.3	3.01e+01	92	41	0	252182528	50	6172
2026-01-25 02:01:20.36	156.76	15.74	-37.9	-39.2	28.3	3.01e+01	90	41	0	253755392	50	6219
2026-01-25 02:01:21.37	156.76	15.86	-37.7	-38.9	28.5	3.01e+01	92	41	0	255852544	50	6063
2026-01-25 02:01:22.38	156.76	15.99	-37.8	-39.1	28.4	3.01e+01	90	41	0	257949696	50	6169
2026-01-25 02:01:23.39	156.76	16.11	-37.6	-38.8	28.6	3.01e+01	92	41	0	259522560	50	5991
2026-01-25 02:01:24.40	156.76	16.24	-37.7	-39.0	28.5	3.01e+01	90	41	0	261619712	50	6077
2026-01-25 02:01:25.41	156.76	16.36	-37.6	-38.8	28.6	3.01e+01	92	41	0	263192576	50	5970
2026-01-25 02:01:26.42	156.77	16.49	-37.6	-38.8	28.6	3.01e+01	92	41	0	265289728	50	5963
2026-01-25 02:01:27.43	156.77	16.62	-37.6	-38.9	28.7	3.01e+01	92	41	0	267386880	50	5995
2026-01-25 02:01:28.44	156.77	16.74	-37.6	-38.8	28.6	3.01e+01	92	41	0	268959744	50	5988
2026-01-25 02:01:29.45	156.77	16.87	-37.7	-38.9	28.7	3.01e+01	92	41	0	271056896	50	6030
2026-01-25 02:01:30.46	156.77	17.00	-37.5	-38.7	28.7	3.01e+01	90	41	0	273154048	50	5899
2026-01-25 02:01:31.47	156.77	17.13	-37.5	-38.7	28.8	3.01e+01	92	41	0	274726912	50	5903
2026-01-25 02:01:32.48	156.77	17.27	-37.5	-38.8	28.7	3.01e+01	90	41	0	276824064	50	5933
2026-01-25 02:01:33.49	156.77	17.40	-37.4	-38.6	28.9	3.01e+01	92	41	0	278396928	50	5850
2026-01-25 02:01:34.50	156.77	17.53	-37.6	-38.8	28.7	3.01e+01	90	41	0	280494080	50	5980
2026-01-25 02:01:35.52	156.77	17.66	-37.6	-38.9	28.7	3.01e+01	92	41	0	282591232	50	6001
2026-01-25 02:01:36.52	156.77	17.80	-37.5	-38.7	28.9	3.01e+01	91	41	0	284164096	50	5881
2026-01-25 02:01:37.53	156.77	17.93	-37.5	-38.8	28.7	3.01e+01	92	41	0	286261248	50	5936
2026-01-25 02:01:38.54	156.77	18.07	-37.6	-38.9	28.7	3.01e+01	92	41	0	287834112	50	5999
2026-01-25 02:01:39.55	156.77	18.21	-37.6	-38.8	28.8	3.01e+01	92	41	0	289931264	50	5958
2026-01-25 02:01:40.56	156.77	18.34	-37.5	-38.8	28.8	3.01e+01	91	41	0	292028416	50	5934
2026-01-25 02:01:41.57	156.77	18.48	-37.5	-38.7	28.8	3.01e+01	91	41	0	293601280	50	5893
2026-01-25 02:01:42.58	156.77	18.62	-37.4	-38.7	28.9	3.01e+01	90	41	0	295698432	50	5876
2026-01-25 02:01:43.59	156.77	18.76	-37.4	-38.7	29.0	3.01e+01	91	41	0	297795584	50	5868
2026-01-25 02:01:44.60	156.77	18.90	-37.4	-38.6	28.9	3.01e+01	92	41	0	299368448	50	5850
2026-01-25 02:01:45.61	156.77	19.05	-37.4	-38.6	28.9	3.01e+01	92	41	0	301465600	50	5825
2026-01-25 02:01:46.62	156.77	19.19	-37.5	-38.8	28.9	3.01e+01	87	41	0	303038464	50	5933
2026-01-25 02:01:47.63	156.78	19.33	-37.3	-38.5	29.1	3.01e+01	92	41	0	305135616	50	5770
2026-01-25 02:01:48.64	156.78	19.48	-37.5	-38.7	28.9	3.01e+01	92	41	0	307232768	50	5886
2026-01-25 02:01:49.65	156.78	19.62	-37.5	-38.8	28.8	3.01e+01	92	41	0	308805632	50	5928
2026-01-25 02:01:50.66	156.78	19.77	-37.6	-38.9	28.7	3.01e+01	92	41	0	310902784	50	5997
2026-01-25 02:01:51.67	156.78	19.92	-37.6	-38.8	28.8	3.01e+01	92	41	0	312999936	50	5972
2026-01-25 02:01:52.68	156.78	20.07	-37.5	-38.8	28.8	3.01e+01	90	41	0	314572800	50	5933
2026-01-25 02:01:53.70	156.78	20.22	-37.5	-38.7	28.8	3.01e+01	92	41	0	316669952	50	5926
2026-01-25 02:01:54.70	156.78	20.37	-37.6	-38.8	28.8	3.01e+01	90	41	0	318242816	50	5960
2026-01-25 02:01:55.71	156.78	20.52	-37.6	-38.9	28.8	3.01e+01	92	41	0	320339968	50	6001
2026-01-25 02:01:56.73	156.77	20.67	-37.6	-38.8	28.8	3.01e+01	92	41	0	322437120	50	5964
2026-01-25 02:01:57.74	156.77	20.83	-37.7	-38.9	28.7	3.01e+01	90	41	0	324009984	50	6015
2026-01-25 02:01:58.74	156.77	20.98	-37.7	-38.9	28.7	3.01e+01	92	41	0	326107136	50	6040
2026-01-25 02:01:59.75	156.77	21.13	-37.6	-38.9	28.8	3.01e+01	92	41	0	327680000	50	6018
2026-01-25 02:02:00.76	156.77	21.29	-37.7	-38.9	28.7	3.01e+01	92	41	0	329777152	50	6025
2026-01-25 02:02:01.77	156.77	21.45	-37.8	-39.1	28.7	3.01e+01	92	41	0	331874304	50	6155
2026-01-25 02:02:02.78	156.77	21.61	-37.8	-39.1	28.6	3.01e+01	92	41	0	333447168	50	6135
2026-01-25 02:02:03.79	156.77	21.77	-37.8	-39.0	28.7	3.01e+01	90	41	0	335544320	50	6101
2026-01-25 02:02:04.80	156.77	21.93	-37.8	-39.0	28.7	3.01e+01	92	41	0	337117184	50	6108
2026-01-25 02:02:05.81	156.77	22.09	-37.8	-39.1	28.7	3.01e+01	88	41	0	339214336	50	6167
2026-01-25 02:02:06.82	156.77	22.25	-37.8	-39.0	28.7	3.01e+01	92	41	0	341311488	50	6092
2026-01-25 02:02:07.83	156.77	22.42	-38.0	-39.2	28.5	3.01e+01	90	41	0	342884352	50	6244
2026-01-25 02:02:08.84	156.77	22.58	-37.7	-39.0	28.7	3.01e+01	91	41	0	344981504	50	6070
2026-01-25 02:02:09.85	156.77	22.75	-37.7	-38.9	28.8	3.01e+01	91	41	0	346554368	50	6057
2026-01-25 02:02:10.86	156.77	22.92	-37.8	-39.1	28.6	3.01e+01	92	41	0	348651520	50	6136
2026-01-25 02:02:11.87	156.77	23.09	-37.5	-38.8	28.9	3.01e+01	91	41	0	350748672	50	5942
2026-01-25 02:02:12.88	156.77	23.26	-37.6	-38.8	28.8	3.01e+01	91	41	0	352321536	50	5987
2026-01-25 02:02:13.89	156.77	23.43	-37.6	-38.8	28.9	3.01e+01	89	41	0	354418688	50	5955
2026-01-25 02:02:14.90	156.77	23.60	-37.5	-38.8	28.9	3.01e+01	89	41	0	355991552	50	5931
2026-01-25 02:02:15.91	156.76	23.78	-37.4	-38.6	29.0	3.01e+01	92	41	0	358088704	50	5850
2026-01-25 02:02:16.92	156.76	23.95	-37.4	-38.6	29.0	3.01e+01	92	41	0	360185856	50	5855
2026-01-25 02:02:17.93	156.76	24.13	-37.5	-38.8	28.9	3.01e+01	92	41	0	361758720	50	5943
2026-01-25 02:02:18.94	156.76	24.31	-37.6	-38.9	28.9	3.01e+01	92	41	0	363855872	50	6011
2026-01-25 02:02:19.95	156.76	24.49	-37.6	-38.9	28.8	3.01e+01	92	41	0	365953024	50	6002
2026-01-25 02:02:20.96	156.76	24.67	-37.7	-39.0	28.8	3.01e+01	91	41	0	367525888	50	6092
2026-01-25 02:02:21.97	156.76	24.85	-37.6	-38.8	28.9	3.01e+01	92	41	0	369623040	50	5991
2026-01-25 02:02:22.98	156.76	25.03	-37.5	-38.7	28.9	3.01e+01	91	41	0	371195904	50	5907
2026-01-25 02:02:23.99	156.75	25.22	-37.3	-38.6	29.1	3.01e+01	90	41	0	373293056	50	5802
2026-01-25 02:02:25.00	156.75	25.40	-37.3	-38.5	29.2	3.01e+01	85	41	0	375390208	50	5786
2026-01-25 02:02:26.01	156.75	25.59	-37.2	-38.4	29.3	3.01e+01	90	41	0	376963072	50	5697
2026-01-25 02:02:27.02	156.75	25.78	-37.3	-38.5	29.2	3.01e+01	91	41	0	379060224	50	5776
2026-01-25 02:02:28.03	156.75	25.97	-37.3	-38.5	29.1	3.01e+01	91	41	0	381157376	50	5751
2026-01-25 02:02:29.04	156.75	26.16	-37.4	-38.6	29.1	3.01e+01	90	41	0	382730240	50	5794
2026-01-25 02:02:30.05	156.74	26.36	-37.3	-38.5	29.1	3.01e+01	91	41	0	384827392	50	5790
2026-01-25 02:02:31.06	156.74	26.55	-37.4	-38.6	29.1	3.01e+01	91	41	0	386400256	50	5834
2026-01-25 02:02:32.07	156.74	26.75	-37.4	-38.6	29.1	3.01e+01	91	41	0	388497408	50	5833
2026-01-25 02:02:33.08	156.74	26.95	-37.2	-38.4	29.2	3.01e+01	91	41	0	390594560	50	5719
2026-01-25 02:02:34.09	156.74	27.15	-37.4	-38.6	29.2	3.01e+01	91	41	0	392167424	50	5794
2026-01-25 02:02:35.10	156.73	27.35	-37.2	-38.4	29.3	3.01e+01	92	41	0	394264576	50	5690
2026-01-25 02:02:36.11	156.73	27.55	-37.2	-38.4	29.4	3.01e+01	91	41	0	395837440	50	5666
2026-01-25 02:02:37.12	156.73	27.75	-37.1	-38.4	29.3	3.01e+01	92	41	0	397934592	50	5660
2026-01-25 02:02:38.13	156.73	27.96	-37.0	-38.2	29.4	3.01e+01	91	41	0	400031744	50	5590
2026-01-25 02:02:39.14	156.72	28.17	-36.7	-37.9	29.7	3.01e+01	92	41	0	401604608	48	6039
2026-01-25 02:02:40.15	156.72	28.38	-36.8	-38.0	29.7	3.01e+01	91	41	0	403701760	48	6099
2026-01-25 02:02:41.16	156.72	28.59	-36.7	-37.9	29.8	3.01e+01	92	41	0	405798912	48	6047
2026-01-25 02:02:42.17	156.72	28.80	-36.9	-38.1	29.6	3.01e+01	91	41	0	407371776	48	6156
2026-01-25 02:02:43.18	156.71	29.02	-37.0	-38.2	29.5	3.01e+01	92	41	0	409468928	48	6242
2026-01-25 02:02:44.19	156.71	29.23	-37.2	-38.4	29.3	3.01e+01	85	41	0	411041792	48	6400
2026-01-25 02:02:45.21	156.71	29.45	-37.3	-38.5	29.2	3.01e+01	92	41	0	413138944	48	6426
2026-01-25 02:02:46.21	156.70	29.67	-37.0	-38.2	29.6	3.01e+01	91	41	0	415236096	48	6232
2026-01-25 02:02:47.22	156.70	29.89	-36.8	-38.0	29.6	3.01e+01	92	41	0	416808960	48	6121
2026-01-25 02:02:48.23	156.70	30.12	-36.8	-38.0	29.7	3.01e+01	92	41	0	418906112	48	6107
2026-01-25 02:02:49.25	156.70	30.34	-36.8	-38.0	29.7	3.01e+01	92	41	0	420478976	48	6077
2026-01-25 02:02:50.25	156.69	30.57	-36.7	-37.9	29.7	3.01e+01	92	41	0	422576128	48	6028
2026-01-25 02:02:51.27	156.69	30.80	-36.9	-38.1	29.6	3.01e+01	91	41	0	424673280	48	6178
2026-01-25 02:02:52.28	156.68	31.03	-37.0	-38.2	29.5	3.01e+01	90	41	0	426246144	48	6224
2026-01-25 02:02:53.29	156.68	31.27	-37.0	-38.2	29.5	3.01e+01	92	41	0	428343296	48	6262
2026-01-25 02:02:54.30	156.68	31.50	-37.1	-38.3	29.5	3.01e+01	92	41	0	429916160	48	6313
2026-01-25 02:02:55.31	156.67	31.74	-37.0	-38.2	29.5	3.01e+01	92	41	0	432013312	48	6246
2026-01-25 02:02:56.32	156.67	31.98	-37.1	-38.3	29.5	3.01e+01	91	41	0	434110464	48	6293
2026-01-25 02:02:57.33	156.66	32.22	-37.1	-38.3	29.4	3.01e+01	91	41	0	435683328	48	6326
2026-01-25 02:02:58.33	156.66	32.46	-37.1	-38.3	29.5	3.01e+01	92	41	0	437780480	48	6325
2026-01-25 02:02:59.35	156.66	32.71	-36.9	-38.1	29.6	3.01e+01	92	41	0	439353344	48	6190
2026-01-25 02:03:00.36	156.65	32.96	-37.1	-38.3	29.5	3.01e+01	92	41	0	441450496	48	6305
2026-01-25 02:03:01.36	156.65	33.21	-37.2	-38.4	29.4	3.01e+01	90	41	0	443547648	48	6416
2026-01-25 02:03:02.37	156.64	33.46	-37.4	-38.6	29.2	3.01e+01	91	41	0	445120512	48	6528
2026-01-25 02:03:03.38	156.64	33.71	-37.5	-38.7	29.1	3.01e+01	88	41	0	447217664	48	6617
2026-01-25 02:03:04.39	156.63	33.97	-37.6	-38.8	29.0	3.01e+01	91	41	0	449314816	48	6720
2026-01-25 02:03:05.40	156.63	34.23	-37.6	-38.9	29.1	3.01e+01	90	41	0	450887680	48	6742
2026-01-25 02:03:06.41	156.62	34.49	-37.8	-39.0	28.9	3.01e+01	86	41	0	452984832	48	6831
2026-01-25 02:03:07.42	156.61	34.75	-38.0	-39.2	28.7	3.01e+01	92	41	0	454557696	48	7026
2026-01-25 02:03:08.43	156.61	35.02	-38.2	-39.4	28.5	3.01e+01	92	41	0	456654848	50	6379
2026-01-25 02:03:09.44	156.60	35.29	-38.3	-39.5	28.4	3.01e+01	90	41	0	458752000	50	6480
2026-01-25 02:03:10.45	156.60	35.56	-38.4	-39.7	28.4	3.01e+01	92	41	0	460324864	50	6585
2026-01-25 02:03:11.46	156.59	35.83	-38.5	-39.8	28.2	3.01e+01	92	41	0	462422016	50	6662
2026-01-25 02:03:12.47	156.58	36.11	-38.7	-39.9	28.1	3.01e+01	92	41	0	463994880	50	6802
2026-01-25 02:03:13.48	156.58	36.39	-38.7	-40.0	28.0	3.01e+01	90	41	0	466092032	50	6860
2026-01-25 02:03:14.49	156.57	36.67	-38.9	-40.2	27.9	3.01e+01	92	41	0	468189184	52	6236
2026-01-25 02:03:15.50	156.56	36.95	-39.0	-40.3	27.8	3.01e+01	90	41	0	469762048	52	6336
2026-01-25 02:03:16.51	156.56	37.24	-39.3	-40.7	27.4	3.01e+01	92	41	0	471859200	52	6589
2026-01-25 02:03:17.51	156.55	37.53	-39.3	-40.6	27.5	3.01e+01	90	41	0	473956352	52	6556
2026-01-25 02:03:18.52	156.54	37.82	-39.4	-40.8	27.4	3.01e+01	91	41	0	475529216	52	6650
2026-01-25 02:03:19.53	156.53	38.11	-39.2	-40.6	27.6	3.01e+01	92	41	0	477626368	52	6499
2026-01-25 02:03:20.54	156.53	38.41	-39.3	-40.6	27.5	3.01e+01	90	41	0	479199232	52	6513
2026-01-25 02:03:21.55	156.52	38.71	-39.3	-40.6	27.5	3.01e+01	92	41	0	481296384	52	6549
2026-01-25 02:03:22.56	156.51	39.01	-39.5	-40.8	27.4	3.01e+01	91	41	0	482869248	52	6683
2026-01-25 02:03:23.57	156.50	39.32	-39.5	-40.8	27.3	3.01e+01	91	41	0	484966400	52	6695
2026-01-25 02:03:24.58	156.49	39.62	-39.3	-40.6	27.6	3.01e+01	91	41	0	487063552	52	6512
2026-01-25 02:03:25.59	156.48	39.94	-38.9	-40.2	27.9	3.01e+01	87	41	0	488636416	52	6212
2026-01-25 02:03:26.60	156.47	40.25	-39.1	-40.4	27.7	3.01e+01	92	41	0	490733568	52	6374
2026-01-25 02:03:27.61	156.46	40.57	-38.7	-39.9	28.1	3.01e+01	91	41	0	492306432	52	6035
2026-01-25 02:03:28.62	156.45	40.89	-38.8	-40.1	27.9	3.01e+01	90	41	0	494403584	52	6181
2026-01-25 02:03:29.63	156.44	41.21	-38.9	-40.2	27.9	3.01e+01	92	41	0	496500736	52	6231
2026-01-25 02:03:30.64	156.43	41.54	-39.0	-40.2	27.8	3.01e+01	92	41	0	498073600	52	6274
2026-01-25 02:03:31.65	156.42	41.87	-38.7	-40.0	28.1	3.01e+01	92	41	0	500170752	52	6102
2026-01-25 02:03:32.65	156.41	42.19	-38.3	-39.5	28.5	3.01e+01	92	41	0	502267904	52	5778
2026-01-25 02:03:33.66	156.40	42.53	-38.8	-40.1	28.0	3.01e+01	92	41	0	503840768	52	6143
2026-01-25 02:03:34.67	156.39	42.87	-39.0	-40.3	27.7	3.01e+01	92	41	0	505937920	52	6342
2026-01-25 02:03:35.68	156.38	43.21	-38.8	-40.1	28.0	3.01e+01	92	41	0	507510784	52	6152
2026-01-25 02:03:36.69	156.36	43.56	-38.5	-39.8	28.4	3.01e+01	92	41	0	509607936	52	5930
2026-01-25 02:03:37.70	156.35	43.90	-37.9	-39.1	28.9	3.01e+01	92	41	0	511705088	50	6164
2026-01-25 02:03:38.71	156.34	44.26	-37.7	-38.9	29.1	3.01e+01	90	41	0	513277952	50	6049
2026-01-25 02:03:39.72	156.33	44.61	-38.3	-39.5	28.5	3.01e+01	90	41	0	515375104	50	6464
2026-01-25 02:03:40.73	156.31	44.97	-37.9	-39.2	28.8	3.01e+01	92	41	0	517472256	50	6222
2026-01-25 02:03:41.74	156.30	45.33	-37.5	-38.7	29.1	3.01e+01	90	41	0	519045120	50	5912
2026-01-25 02:03:42.75	156.28	45.70	-37.5	-38.7	29.3	3.01e+01	92	41	0	521142272	50	5887
2026-01-25 02:03:43.75	156.27	46.06	-37.4	-38.6	29.2	3.01e+01	90	41	0	522715136	50	5833
2026-01-25 02:03:44.76	156.25	46.43	-37.2	-38.4	29.4	3.01e+01	89	41	0	524812288	50	5706
2026-01-25 02:03:45.77	156.24	46.81	-37.4	-38.7	29.2	3.01e+01	92	41	0	526909440	50	5860
2026-01-25 02:03:46.78	156.22	47.19	-37.8	-39.0	28.9	3.01e+01	92	41	0	528482304	50	6121
2026-01-25 02:03:47.79	156.20	47.57	-37.6	-38.8	29.1	3.01e+01	92	41	0	530579456	50	5933
2026-01-25 02:03:48.80	156.19	47.96	-37.2	-38.4	29.4	3.01e+01	92	41	0	532152320	50	5719
2026-01-25 02:03:49.81	156.17	48.35	-37.3	-38.5	29.4	3.01e+01	90	41	0	534249472	50	5739
2026-01-25 02:03:50.82	156.15	48.74	-37.4	-38.6	29.2	3.01e+01	91	41	0	536346624	50	5842
2026-01-25 02:03:51.83	156.13	49.14	-37.7	-38.9	28.9	3.01e+01	90	41	0	537919488	50	6053
2026-01-25 02:03:52.84	156.11	49.54	-37.8	-39.0	28.9	3.01e+01	91	41	0	540016640	50	6115
2026-01-25 02:03:53.85	156.09	49.95	-37.4	-38.6	29.3	3.01e+01	92	41	0	541589504	50	5855
2026-01-25 02:03:54.86	156.07	50.36	-37.2	-38.4	29.4	3.01e+01	91	41	0	543686656	50	5714
2026-01-25 02:03:55.87	156.05	50.77	-37.0	-38.2	29.6	3.01e+01	89	41	0	545783808	50	5567
2026-01-25 02:03:56.88	156.02	51.19	-36.9	-38.1	29.7	3.01e+01	92	41	0	547356672	48	6174
2026-01-25 02:03:57.89	156.00	51.61	-36.8	-38.0	29.8	3.01e+01	92	41	0	549453824	48	6084
2026-01-25 02:03:58.90	155.98	52.03	-36.8	-38.0	29.7	3.01e+01	91	41	0	551026688	48	6108
2026-01-25 02:03:59.91	155.95	52.46	-36.7	-37.8	29.9	3.01e+01	92	41	0	553123840	48	5977
2026-01-25 02:04:00.92	155.93	52.89	-36.6	-37.7	30.0	3.01e+01	90	41	0	555220992	48	5921
2026-01-25 02:04:01.93	155.90	53.33	-36.7	-37.9	29.8	3.01e+01	92	41	0	556793856	48	6007
2026-01-25 02:04:02.94	155.87	53.77	-36.7	-37.9	29.9	3.01e+01	92	41	0	558891008	48	5997
2026-01-25 02:04:03.95	155.84	54.21	-37.0	-38.2	29.6	3.01e+01	86	41	0	560463872	48	6225
2026-01-25 02:04:04.96	155.81	54.66	-36.9	-38.1	29.7	3.01e+01	92	41	0	562561024	48	6194
2026-01-25 02:04:05.97	155.78	55.11	-36.7	-37.9	29.9	3.01e+01	92	41	0	564658176	48	6042
2026-01-25 02:04:06.98	155.75	55.57	-37.1	-38.4	29.5	3.01e+01	87	41	0	566231040	48	6352
2026-01-25 02:04:07.99	155.72	56.03	-37.2	-38.4	29.3	3.01e+01	91	41	0	568328192	48	6395
2026-01-25 02:04:09.00	155.69	56.49	-37.6	-38.8	29.1	3.01e+01	89	41	0	570425344	48	6675
2026-01-25 02:04:10.01	155.65	56.96	-37.7	-38.9	29.0	3.01e+01	91	41	0	571998208	48	6804
2026-01-25 02:04:11.02	155.61	57.43	-37.5	-38.7	29.1	3.01e+01	89	41	0	574095360	48	6638
2026-01-25 02:04:12.03	155.57	57.91	-38.1	-39.4	28.6	3.01e+01	92	41	0	575668224	50	6354
2026-01-25 02:04:13.03	155.54	58.39	-38.1	-39.4	28.6	3.01e+01	92	41	0	577765376	50	6376
2026-01-25 02:04:14.04	155.49	58.87	-38.2	-39.4	28.5	3.01e+01	91	41	0	579862528	50	6409
2026-01-25 02:04:15.05	155.45	59.36	-38.2	-39.5	28.5	3.01e+01	90	41	0	581435392	50	6443
2026-01-25 02:04:16.06	155.41	59.85	-38.6	-39.9	28.2	3.01e+01	91	41	0	583532544	50	6779
2026-01-25 02:04:17.07	155.36	60.35	-38.7	-40.0	28.1	3.01e+01	90	41	0	585629696	50	6857
2026-01-25 02:04:18.08	155.31	60.85	-38.9	-40.1	28.0	3.01e+01	92	41	0	587202560	50	6958
2026-01-25 02:04:19.09	155.26	61.35	-38.8	-40.1	28.0	3.01e+01	92	41	0	589299712	50	6945
2026-01-25 02:04:20.10	155.21	61.86	-39.3	-40.6	27.6	3.01e+01	92	41	0	590872576	52	6513
2026-01-25 02:04:21.11	155.15	62.37	-39.5	-40.8	27.4	3.01e+01	90	41	0	592969728	52	6683
2026-01-25 02:04:22.12	155.09	62.89	-39.8	-41.1	27.1	3.01e+01	92	41	0	595066880	52	6951
2026-01-25 02:04:23.13	155.03	63.41	-40.0	-41.4	26.8	3.01e+01	90	41	0	596639744	54	6414
2026-01-25 02:04:24.13	154.97	63.93	-40.2	-41.5	26.7	3.01e+01	92	41	0	598736896	54	6485
2026-01-25 02:04:25.14	154.90	64.46	-40.5	-41.9	26.3	3.01e+01	92	41	0	600309760	54	6800
2026-01-25 02:04:26.15	154.83	64.99	-40.9	-42.3	26.0	3.01e+01	90	41	0	602406912	54	7093
2026-01-25 02:04:27.16	154.76	65.52	-41.3	-42.8	25.6	3.01e+01	90	41	0	603979776	56	6657
2026-01-25 02:04:28.17	154.68	66.06	-41.2	-42.6	25.6	3.01e+01	92	41	0	606076928	56	6559
2026-01-25 02:04:29.18	154.60	66.61	-42.1	-43.7	24.7	3.01e+01	92	41	0	608174080	58	6633
2026-01-25 02:04:30.18	154.51	67.15	-41.9	-43.4	25.0	3.01e+01	92	41	0	609746944	58	6403
2026-01-25 02:04:31.19	154.42	67.70	-41.7	-43.3	25.1	3.01e+01	90	41	0	611844096	58	6287
2026-01-25 02:04:32.20	154.32	68.25	-42.1	-43.7	24.8	3.01e+01	92	41	0	613941248	58	6575
2026-01-25 02:04:33.20	154.22	68.80	-42.4	-44.0	24.4	3.01e+01	92	41	0	615514112	58	6833
2026-01-25 02:04:34.21	154.11	69.36	-42.2	-43.8	24.7	3.01e+01	92	41	0	617611264	58	6684
2026-01-25 02:04:35.22	154.00	69.93	-42.1	-43.6	24.8	3.01e+01	90	41	0	619184128	58	6566
2026-01-25 02:04:36.22	153.88	70.49	-42.4	-44.0	24.4	3.01e+01	92	41	0	621281280	58	6839
2026-01-25 02:04:37.23	153.75	71.06	-41.8	-43.4	25.0	3.01e+01	92	41	0	623378432	58	6388
2026-01-25 02:04:38.24	153.61	71.64	-41.5	-43.0	25.4	3.01e+01	92	41	0	624951296	58	6065
2026-01-25 02:04:39.25	153.46	72.21	-41.5	-43.0	25.4	3.01e+01	92	41	0	627048448	58	6122
2026-01-25 02:04:40.26	153.30	72.79	-41.5	-43.1	25.3	3.01e+01	92	41	0	628621312	58	6137
2026-01-25 02:04:41.27	153.12	73.38	-40.9	-42.3	26.0	3.01e+01	91	41	0	630718464	58	5625
2026-01-25 02:04:42.28	152.94	73.96	-41.7	-43.2	25.2	3.01e+01	92	41	0	632815616	56	7043
2026-01-25 02:04:43.29	152.74	74.55	-41.2	-42.7	25.7	3.01e+01	91	41	0	634388480	56	6613
2026-01-25 02:04:44.30	152.52	75.14	-40.5	-41.9	26.4	3.01e+01	92	41	0	636485632	56	6032
2026-01-25 02:04:45.31	152.28	75.74	-40.9	-42.3	26.1	3.01e+01	92	41	0	638058496	56	6350
2026-01-25 02:04:46.32	152.02	76.33	-40.7	-42.1	26.2	3.01e+01	92	41	0	640155648	56	6180
2026-01-25 02:04:47.32	151.74	76.92	-40.1	-41.4	26.9	3.01e+01	91	41	0	642252800	56	5687
2026-01-25 02:04:48.33	151.43	77.53	-40.2	-41.5	26.8	3.01e+01	88	41	0	643825664	56	5789
2026-01-25 02:04:49.34	151.08	78.13	-40.0	-41.3	26.9	3.01e+01	91	41	0	645922816	56	5657
2026-01-25 02:04:50.35	150.70	78.73	-39.7	-41.0	27.3	3.01e+01	92	41	0	647495680	54	6123
2026-01-25 02:04:51.36	150.27	79.34	-39.5	-40.9	27.4	3.01e+01	92	41	0	649592832	54	6017
2026-01-25 02:04:52.37	149.79	79.95	-38.6	-39.8	28.3	3.01e+01	92	41	0	651689984	52	5977
2026-01-25 02:04:53.38	149.24	80.55	-38.6	-39.9	28.2	3.01e+01	92	41	0	653262848	52	6015
2026-01-25 02:04:54.39	148.62	81.16	-38.4	-39.6	28.5	3.01e+01	92	41	0	655360000	52	5827
2026-01-25 02:04:55.40	147.90	81.77	-38.7	-40.0	28.3	3.01e+01	89	41	0	656932864	52	6099
2026-01-25 02:04:56.41	147.07	82.38	-38.8	-40.0	28.1	3.01e+01	92	41	0	659030016	52	6128
2026-01-25 02:04:57.42	146.09	82.99	-38.9	-40.2	28.1	3.01e+01	90	41	0	661127168	52	6235
2026-01-25 02:04:58.43	144.92	83.60	-38.8	-40.1	28.1	3.01e+01	91	41	0	662700032	52	6139
2026-01-25 02:04:59.43	143.52	84.20	-39.1	-40.4	27.9	3.01e+01	90	41	0	664797184	52	6353
2026-01-25 02:05:00.44	141.77	84.80	-39.2	-40.4	27.8	3.01e+01	92	41	0	666894336	52	6415
2026-01-25 02:05:01.45	139.56	85.40	-39.4	-40.7	27.6	3.01e+01	92	41	0	668467200	52	6622
2026-01-25 02:05:02.46	136.70	85.99	-39.1	-40.4	27.9	3.01e+01	91	41	0	670564352	52	6410
2026-01-25 02:05:03.47	132.86	86.57	-38.7	-39.9	28.5	3.01e+01	91	41	0	672137216	52	6036
2026-01-25 02:05:04.48	127.49	87.12	-38.5	-39.8	28.5	3.01e+01	92	41	0	674234368	52	5952
2026-01-25 02:05:05.49	119.65	87.64	-37.6	-38.8	29.4	3.01e+01	91	41	0	676331520	50	5949
2026-01-25 02:05:06.49	107.91	88.09	-37.4	-38.6	29.6	3.01e+01	91	41	0	677904384	50	5813
2026-01-25 02:05:07.50	90.06	88.42	-36.9	-38.1	29.9	3.01e+01	92	41	0	680001536	48	6137
2026-01-25 02:05:08.51	66.59	88.53	-36.7	-37.9	30.0	3.01e+01	92	41	0	682098688	48	6027
2026-01-25 02:05:09.52	43.60	88.39	-36.6	-37.8	29.9	3.01e+01	90	41	0	683671552	48	5958
2026-01-25 02:05:10.53	26.61	88.04	-37.3	-38.5	29.4	3.01e+01	92	41	0	685768704	48	6438
2026-01-25 02:05:11.54	15.40	87.58	-37.5	-38.7	29.5	3.01e+01	92	41	0	687341568	48	6598
2026-01-25 02:05:12.55	7.99	87.05	-37.9	-39.1	28.9	3.01e+01	90	41	0	689438720	50	6199
2026-01-25 02:05:13.56	2.87	86.49	-38.4	-39.7	28.6	3.01e+01	92	41	0	691011584	50	6575
2026-01-25 02:05:14.57	359.19	85.91	-38.4	-39.7	28.4	3.01e+01	89	41	0	693108736	50	6620
2026-01-25 02:05:15.58	356.43	85.32	-38.9	-40.2	28.0	3.01e+01	91	41	0	695205888	50	6990
2026-01-25 02:05:16.59	354.30	84.72	-38.7	-40.0	28.2	3.01e+01	92	41	0	696778752	50	6844
2026-01-25 02:05:17.60	352.61	84.12	-38.7	-40.0	28.1	3.01e+01	91	41	0	698875904	50	6840
2026-01-25 02:05:18.61	351.23	83.51	-38.9	-40.2	28.0	3.01e+01	92	41	0	700448768	52	6242
2026-01-25 02:05:19.62	350.09	82.90	-38.6	-39.9	28.4	3.01e+01	92	41	0	702545920	52	6033
2026-01-25 02:05:20.62	349.14	82.30	-38.2	-39.4	28.7	3.01e+01	92	41	0	704643072	52	5697
2026-01-25 02:05:21.63	348.33	81.69	-39.0	-40.3	27.9	3.01e+01	92	41	0	706215936	52	6329
2026-01-25 02:05:22.64	347.63	81.08	-38.2	-39.4	28.7	3.01e+01	90	41	0	708313088	52	5678
2026-01-25 02:05:23.65	347.02	80.47	-38.3	-39.5	28.6	3.01e+01	92	41	0	710410240	50	6498
2026-01-25 02:05:24.66	346.48	79.87	-39.2	-40.5	27.6	3.01e+01	90	41	0	711983104	52	6475
2026-01-25 02:05:25.67	346.01	79.26	-39.2	-40.5	27.6	3.01e+01	92	41	0	714080256	52	6472
2026-01-25 02:05:26.68	345.58	78.65	-39.5	-40.8	27.5	3.01e+01	86	41	0	715653120	52	6659
2026-01-25 02:05:27.69	345.21	78.05	-41.0	-42.4	26.0	3.01e+01	92	41	0	717750272	54	7194
2026-01-25 02:05:28.70	344.87	77.45	-41.3	-42.8	25.8	3.01e+01	92	41	0	719847424	56	6715
2026-01-25 02:05:29.71	344.56	76.85	-40.5	-41.8	26.6	3.01e+01	88	41	0	721420288	56	5992
2026-01-25 02:05:30.72	344.28	76.25	-41.2	-42.6	25.9	3.01e+01	90	41	0	723517440	56	6569
2026-01-25 02:05:31.73	344.02	75.66	-41.8	-43.4	25.1	3.01e+01	91	41	0	725090304	56	7163
2026-01-25 02:05:32.74	343.79	75.07	-40.8	-42.2	26.1	3.01e+01	91	42	0	727187456	56	6263
2026-01-25 02:05:33.75	343.57	74.48	-40.7	-42.1	26.4	3.01e+01	91	42	0	729284608	56	6146
2026-01-25 02:05:34.76	343.37	73.89	-41.6	-43.2	25.3	3.01e+01	91	42	0	730857472	56	6967
2026-01-25 02:05:35.77	343.19	73.30	-41.0	-42.4	26.1	3.01e+01	92	42	0	732954624	56	6373
2026-01-25 02:05:36.78	343.02	72.72	-41.3	-42.7	25.7	3.01e+01	90	41	0	735051776	56	6642
2026-01-25 02:05:37.79	342.86	72.14	-41.7	-43.2	25.3	3.01e+01	92	41	0	736624640	56	7007
2026-01-25 02:05:38.80	342.71	71.57	-41.4	-42.8	25.6	3.01e+01	90	41	0	738721792	56	6687
2026-01-25 02:05:39.81	342.57	70.99	-42.0	-43.6	24.8	3.01e+01	92	41	0	740294656	58	6542
2026-01-25 02:05:40.82	342.44	70.42	-41.9	-43.4	25.0	3.01e+01	91	41	0	742391808	58	6414
2026-01-25 02:05:41.83	342.32	69.86	-42.4	-44.0	24.5	3.01e+01	90	41	0	744488960	58	6858
2026-01-25 02:05:42.84	342.21	69.30	-42.5	-44.1	24.4	3.01e+01	90	41	0	746061824	58	6916
2026-01-25 02:05:43.85	342.10	68.74	-42.5	-44.0	24.3	3.01e+01	90	41	0	748158976	58	6878
2026-01-25 02:05:44.86	342.00	68.18	-42.3	-43.9	24.6	3.01e+01	91	41	0	749731840	58	6764
2026-01-25 02:05:45.87	341.90	67.63	-41.9	-43.4	25.0	3.01e+01	88	41	0	751828992	58	6419
2026-01-25 02:05:46.88	341.81	67.08	-41.7	-43.2	25.1	3.01e+01	92	41	0	753926144	58	6274
2026-01-25 02:05:47.89	341.73	66.54	-42.0	-43.5	24.9	3.01e+01	92	41	0	755499008	58	6492
2026-01-25 02:05:48.90	341.65	65.99	-41.0	-42.4	25.9	3.01e+01	92	41	0	757596160	58	5723
2026-01-25 02:05:49.91	341.57	65.46	-40.7	-42.0	26.3	3.01e+01	89	42	0	759169024	56	6100
2026-01-25 02:05:50.92	341.50	64.92	-41.2	-42.7	25.9	3.01e+01	92	41	0	761266176	56	6616
2026-01-25 02:05:51.93	341.43	64.39	-41.1	-42.5	25.9	3.01e+01	92	41	0	763363328	56	6495
2026-01-25 02:05:52.94	341.36	63.87	-40.0	-41.4	27.0	3.01e+01	92	41	0	764936192	56	5668
2026-01-25 02:05:53.95	341.30	63.34	-39.8	-41.1	27.2	3.01e+01	90	41	0	767033344	54	6186
2026-01-25 02:05:54.96	341.24	62.83	-38.9	-40.2	28.0	3.01e+01	91	41	0	768606208	54	5558
2026-01-25 02:05:55.97	341.18	62.31	-39.3	-40.6	27.7	3.01e+01	90	41	0	770703360	52	6530
2026-01-25 02:05:56.98	341.12	61.80	-39.3	-40.6	27.7	3.01e+01	91	41	0	772800512	52	6531
2026-01-25 02:05:57.99	341.07	61.29	-38.9	-40.1	28.0	3.01e+01	90	41	0	774373376	52	6203
2026-01-25 02:05:59.00	341.02	60.79	-38.4	-39.6	28.5	3.01e+01	92	41	0	776470528	52	5820
2026-01-25 02:06:00.01	340.97	60.29	-38.6	-39.9	28.2	3.01e+01	91	41	0	778567680	52	6029
2026-01-25 02:06:01.02	340.93	59.80	-39.1	-40.4	27.8	3.01e+01	92	41	0	780140544	52	6399
2026-01-25 02:06:02.03	340.88	59.31	-38.8	-40.1	28.0	3.01e+01	92	41	0	782237696	52	6155
2026-01-25 02:06:03.03	340.84	58.83	-38.2	-39.4	28.8	3.01e+01	91	42	0	783810560	52	5687
2026-01-25 02:06:04.04	340.80	58.35	-37.9	-39.1	28.9	3.01e+01	92	41	0	785907712	50	6195
2026-01-25 02:06:05.05	340.76	57.87	-38.2	-39.4	28.6	3.01e+01	90	41	0	788004864	50	6420
2026-01-25 02:06:06.07	340.72	57.39	-38.1	-39.4	28.7	3.01e+01	91	41	0	789577728	50	6372
2026-01-25 02:06:07.07	340.69	56.92	-37.5	-38.6	29.3	3.01e+01	92	42	0	791674880	50	5856
2026-01-25 02:06:08.09	340.65	56.45	-37.2	-38.4	29.6	3.01e+01	92	41	0	793247744	50	5664
2026-01-25 02:06:09.09	340.62	55.99	-37.2	-38.4	29.6	3.01e+01	90	41	0	795344896	50	5662
2026-01-25 02:06:10.10	340.58	55.54	-37.1	-38.3	29.6	3.01e+01	92	41	0	797442048	50	5596
2026-01-25 02:06:11.11	340.55	55.08	-36.7	-37.9	30.0	3.01e+01	92	41	0	799014912	48	5995
2026-01-25 02:06:12.12	340.52	54.63	-36.4	-37.5	30.2	3.01e+01	92	41	0	801112064	48	5755
2026-01-25 02:06:13.13	340.49	54.19	-36.7	-37.9	30.0	3.01e+01	92	41	0	803209216	48	6037
2026-01-25 02:06:14.13	340.47	53.75	-36.7	-37.9	29.9	3.01e+01	92	41	0	804782080	48	6014
2026-01-25 02:06:15.15	340.44	53.31	-36.7	-37.9	29.8	3.01e+01	92	41	0	806879232	48	5997
2026-01-25 02:06:16.16	340.41	52.87	-36.7	-37.9	29.9	3.01e+01	92	41	0	808452096	48	5996
2026-01-25 02:06:17.17	340.39	52.44	-36.7	-37.9	30.0	3.01e+01	92	41	0	810549248	48	5997
2026-01-25 02:06:18.18	340.36	52.02	-37.2	-38.4	29.5	3.01e+01	91	41	0	812646400	48	6398
2026-01-25 02:06:19.19	340.34	51.59	-37.1	-38.3	29.5	3.01e+01	91	41	0	814219264	48	6324
2026-01-25 02:06:20.20	340.32	51.17	-37.1	-38.3	29.7	3.01e+01	91	41	0	816316416	48	6286
2026-01-25 02:06:21.20	340.29	50.76	-37.5	-38.7	29.4	3.01e+01	91	41	0	817889280	48	6625
2026-01-25 02:06:22.21	340.27	50.35	-38.1	-39.3	28.8	3.01e+01	90	41	0	819986432	50	6346
2026-01-25 02:06:23.22	340.25	49.95	-38.3	-39.5	28.4	3.01e+01	91	41	0	822083584	50	6486
2026-01-25 02:06:24.23	340.23	49.54	-37.7	-38.9	29.0	3.01e+01	90	41	0	823656448	50	6043
2026-01-25 02:06:25.24	340.21	49.14	-37.8	-39.0	29.1	3.01e+01	92	41	0	825753600	50	6108
2026-01-25 02:06:26.25	340.19	48.75	-37.9	-39.1	28.9	3.01e+01	92	41	0	827326464	50	6192
2026-01-25 02:06:27.26	340.17	48.35	-37.9	-39.1	29.0	3.01e+01	89	41	0	829423616	50	6167
2026-01-25 02:06:28.27	340.16	47.97	-37.7	-39.0	29.1	3.01e+01	92	41	0	831520768	50	6067
2026-01-25 02:06:29.28	340.14	47.58	-37.9	-39.2	29.0	3.01e+01	92	41	0	833093632	50	6212
2026-01-25 02:06:30.29	340.12	47.20	-37.8	-39.1	29.0	3.01e+01	92	41	0	835190784	50	6141
2026-01-25 02:06:31.30	340.11	46.82	-37.7	-38.9	29.1	3.01e+01	92	41	0	836763648	50	6011
2026-01-25 02:06:32.31	340.09	46.45	-37.7	-38.9	29.2	3.01e+01	89	42	0	838860800	50	6014
2026-01-25 02:06:33.32	340.08	46.08	-37.6	-38.8	29.3	3.01e+01	91	41	0	840957952	50	5948
2026-01-25 02:06:34.33	340.06	45.71	-37.7	-38.9	29.2	3.01e+01	89	42	0	842530816	50	6063
2026-01-25 02:06:35.35	340.05	45.34	-37.9	-39.1	29.1	3.01e+01	92	42	0	844627968	50	6165
2026-01-25 02:06:36.36	340.03	44.98	-37.9	-39.1	29.0	3.01e+01	90	41	0	846725120	50	6172
2026-01-25 02:06:37.37	340.02	44.63	-37.7	-38.9	29.2	3.01e+01	91	41	0	848297984	50	6053
2026-01-25 02:06:38.38	340.01	44.27	-37.9	-39.1	29.1	3.01e+01	91	41	0	850395136	50	6155
2026-01-25 02:06:39.39	339.99	43.92	-37.7	-38.9	29.2	3.01e+01	92	42	0	851968000	50	6025
2026-01-25 02:06:40.40	339.98	43.58	-37.8	-39.0	29.2	3.01e+01	92	42	0	854065152	50	6076
2026-01-25 02:06:41.41	339.97	43.23	-37.7	-38.9	29.3	3.01e+01	91	41	0	856162304	50	6022
2026-01-25 02:06:42.42	339.96	42.89	-37.8	-39.0	29.2	3.01e+01	91	41	0	857735168	50	6067
2026-01-25 02:06:43.43	339.95	42.55	-38.1	-39.3	28.9	3.01e+01	92	41	0	859832320	50	6308
2026-01-25 02:06:44.44	339.93	42.22	-38.4	-39.7	28.5	3.01e+01	90	41	0	861405184	50	6616
2026-01-25 02:06:45.45	339.92	41.89	-38.6	-39.9	28.3	3.01e+01	56	41	0	863502336	50	6754
2026-01-25 02:06:46.46	339.91	41.56	-38.8	-40.0	28.2	3.01e+01	46	41	0	865599488	50	6883
2026-01-25 02:06:47.47	339.90	41.24	-38.9	-40.2	28.1	3.01e+01	61	41	0	867172352	50	7023
2026-01-25 02:06:48.47	339.89	40.92	-39.0	-40.3	27.9	3.01e+01	58	41	0	869269504	52	6325
2026-01-25 02:06:49.48	339.88	40.60	-39.1	-40.4	27.9	3.01e+01	57	41	0	871366656	52	6351
2026-01-25 02:06:50.49	339.87	40.29	-39.0	-40.3	28.0	3.01e+01	61	41	0	872939520	52	6279
2026-01-25 02:06:51.50	339.87	39.97	-38.9	-40.2	28.1	3.01e+01	51	41	0	875036672	52	6248
2026-01-25 02:06:52.51	339.86	39.66	-38.7	-40.0	28.2	3.01e+01	59	41	0	876609536	52	6069
2026-01-25 02:06:53.52	339.85	39.36	-38.7	-40.0	28.3	3.01e+01	59	41	0	878706688	52	6097
2026-01-25 02:06:54.52	339.84	39.05	-38.8	-40.0	28.3	3.01e+01	46	41	0	880803840	52	6106
2026-01-25 02:06:55.53	339.83	38.75	-39.0	-40.3	28.1	3.01e+01	59	42	0	882376704	52	6302
2026-01-25 02:06:56.54	339.82	38.46	-39.0	-40.3	28.0	3.01e+01	60	41	0	884473856	52	6335
2026-01-25 02:06:57.55	339.82	38.16	-39.1	-40.4	27.9	3.01e+01	58	41	0	886046720	52	6386
2026-01-25 02:06:58.56	339.81	37.87	-39.2	-40.5	27.8	3.01e+01	59	41	0	888143872	52	6445
2026-01-25 02:06:59.57	339.80	37.58	-39.1	-40.4	27.9	3.01e+01	58	41	0	890241024	52	6369
2026-01-25 02:07:00.57	339.79	37.29	-38.8	-40.1	28.1	3.01e+01	61	41	0	891813888	52	6163
2026-01-25 02:07:01.58	339.79	37.01	-38.6	-39.9	28.4	3.01e+01	58	42	0	893911040	52	6008
2026-01-25 02:07:02.59	339.78	36.72	-38.4	-39.6	28.6	3.01e+01	47	41	0	895483904	52	5818
2026-01-25 02:07:03.60	339.78	36.44	-38.5	-39.7	28.5	3.01e+01	59	42	0	897581056	52	5889
2026-01-25 02:07:04.61	339.77	36.17	-38.1	-39.3	28.9	3.01e+01	60	41	0	899678208	52	5614
2026-01-25 02:07:05.62	339.76	35.89	-37.8	-39.0	29.1	3.01e+01	62	41	0	901251072	50	6097
2026-01-25 02:07:06.63	339.76	35.62	-37.7	-38.9	29.2	3.01e+01	57	42	0	903348224	50	6061
2026-01-25 02:07:07.64	339.75	35.35	-37.7	-39.0	29.1	3.01e+01	58	41	0	904921088	50	6075
2026-01-25 02:07:08.66	339.75	35.08	-37.8	-39.0	29.1	3.01e+01	61	41	0	907018240	50	6105
2026-01-25 02:07:09.66	339.74	34.82	-37.9	-39.1	29.0	3.01e+01	58	41	0	909115392	50	6193
2026-01-25 02:07:10.67	339.73	34.56	-37.6	-38.9	29.2	3.01e+01	45	41	0	910688256	50	6004
2026-01-25 02:07:11.68	339.73	34.29	-37.7	-38.9	29.0	3.01e+01	59	41	0	912785408	50	6036
2026-01-25 02:07:12.69	339.72	34.04	-37.5	-38.7	29.2	3.01e+01	57	41	0	914358272	50	5914
2026-01-25 02:07:13.70	339.72	33.78	-37.8	-39.0	29.2	3.01e+01	58	41	0	916455424	50	6072
2026-01-25 02:07:14.71	339.72	33.53	-36.9	-38.0	29.8	3.01e+01	60	42	0	918552576	50	5459
2026-01-25 02:07:15.72	339.71	33.28	-36.6	-37.7	30.1	3.01e+01	47	41	0	920125440	48	5914
2026-01-25 02:07:16.73	339.71	33.03	-36.6	-37.8	30.0	3.01e+01	59	42	0	922222592	48	5959
2026-01-25 02:07:17.74	339.70	32.78	-36.5	-37.7	30.1	3.01e+01	59	41	0	924319744	48	5860
2026-01-25 02:07:18.75	339.70	32.54	-36.5	-37.7	30.1	3.01e+01	44	42	0	925892608	48	5897
2026-01-25 02:07:19.76	339.69	32.29	-36.7	-37.9	30.0	3.01e+01	60	41	0	927989760	48	6010
2026-01-25 02:07:20.77	339.69	32.05	-36.7	-37.8	30.0	3.01e+01	58	41	0	929562624	48	5982
2026-01-25 02:07:21.78	339.69	31.81	-36.9	-38.1	29.8	3.01e+01	59	41	0	931659776	48	6139
2026-01-25 02:07:22.78	339.68	31.58	-36.7	-37.9	30.0	3.01e+01	61	41	0	933756928	48	6023
2026-01-25 02:07:23.79	339.68	31.35	-36.8	-38.0	29.9	3.01e+01	52	42	0	935329792	48	6079
2026-01-25 02:07:24.80	339.68	31.11	-36.8	-38.0	29.8	3.01e+01	59	42	0	937426944	48	6094
2026-01-25 02:07:25.81	339.67	30.88	-36.6	-37.8	29.9	3.01e+01	57	42	0	939524096	48	5951
2026-01-25 02:07:26.82	339.67	30.65	-36.6	-37.8	29.9	3.01e+01	57	41	0	941096960	48	5927
2026-01-25 02:07:27.83	339.67	30.43	-36.5	-37.7	30.1	3.01e+01	53	41	0	943194112	48	5869
2026-01-25 02:07:28.84	339.66	30.20	-36.5	-37.6	30.1	3.01e+01	50	41	0	944766976	48	5858
2026-01-25 02:07:29.85	339.66	29.98	-36.5	-37.7	30.0	3.01e+01	58	41	0	946864128	48	5898
2026-01-25 02:07:30.86	339.66	29.76	-36.7	-37.9	29.8	3.01e+01	61	41	0	948436992	48	6035
2026-01-25 02:07:31.87	339.65	29.54	-36.7	-37.9	29.8	3.01e+01	45	41	0	950534144	48	6011
2026-01-25 02:07:32.88	339.65	29.32	-36.7	-37.9	29.9	3.01e+01	58	42	0	952631296	48	5995
2026-01-25 02:07:33.88	339.65	29.11	-36.8	-38.0	29.8	3.01e+01	57	41	0	954204160	48	6086
2026-01-25 02:07:34.89	339.65	28.90	-36.7	-37.9	29.9	3.01e+01	59	41	0	956301312	48	6024
2026-01-25 02:07:35.90	339.64	28.68	-36.7	-37.8	29.9	3.01e+01	58	41	0	957874176	48	5977
2026-01-25 02:07:36.91	339.64	28.47	-36.7	-37.8	29.8	3.01e+01	46	41	0	959971328	48	5971
2026-01-25 02:07:37.92	339.64	28.26	-36.7	-37.9	29.8	3.01e+01	57	42	0	962068480	48	6010
2026-01-25 02:07:38.93	339.64	28.06	-36.8	-38.0	29.8	3.01e+01	59	42	0	963641344	48	6115
2026-01-25 02:07:39.94	339.64	27.85	-36.9	-38.1	29.8	3.01e+01	47	41	0	965738496	48	6137
2026-01-25 02:07:40.95	339.63	27.65	-37.0	-38.2	29.7	3.01e+01	58	42	0	967835648	48	6225
2026-01-25 02:07:41.96	339.63	27.45	-37.1	-38.3	29.6	3.01e+01	62	41	0	969408512	48	6290
2026-01-25 02:07:42.96	339.63	27.25	-37.2	-38.4	29.5	3.01e+01	61	42	0	971505664	48	6411
2026-01-25 02:07:43.98	339.63	27.05	-37.2	-38.4	29.5	3.01e+01	59	42	0	973078528	48	6385
2026-01-25 02:07:44.99	339.63	26.85	-37.2	-38.4	29.3	3.01e+01	59	41	0	975175680	48	6408
2026-01-25 02:07:45.99	339.62	26.66	-37.2	-38.4	29.3	3.01e+01	61	42	0	977272832	48	6410
2026-01-25 02:07:47.00	339.62	26.46	-37.3	-38.5	29.3	3.01e+01	52	42	0	978845696	48	6476
2026-01-25 02:07:48.02	339.62	26.27	-37.3	-38.5	29.3	3.01e+01	45	42	0	980942848	48	6460
2026-01-25 02:07:49.03	339.62	26.08	-37.5	-38.7	29.3	3.01e+01	62	42	0	982515712	48	6604
2026-01-25 02:07:50.03	339.62	25.89	-37.5	-38.7	29.3	3.01e+01	59	42	0	984612864	48	6613
2026-01-25 02:07:51.04	339.62	25.70	-37.5	-38.7	29.3	3.01e+01	62	42	0	986710016	48	6604
2026-01-25 02:07:52.05	339.62	25.51	-37.7	-38.9	29.1	3.01e+01	57	42	0	988282880	48	6754
2026-01-25 02:07:53.06	339.62	25.33	-37.6	-38.9	29.0	3.01e+01	51	42	0	990380032	48	6739
2026-01-25 02:07:54.07	339.61	25.14	-37.7	-38.9	28.9	3.01e+01	60	42	0	992477184	48	6764
2026-01-25 02:07:55.08	339.61	24.96	-37.6	-38.8	29.0	3.01e+01	60	42	0	994050048	48	6688
2026-01-25 02:07:56.09	339.61	24.78	-37.7	-38.9	28.9	3.01e+01	52	42	0	996147200	48	6755
2026-01-25 02:07:57.10	339.61	24.60	-37.7	-38.9	28.9	3.01e+01	57	42	0	997720064	48	6748
2026-01-25 02:07:58.11	339.61	24.42	-37.9	-39.1	28.7	3.01e+01	45	42	0	999817216	48	6956
2026-01-25 02:07:59.12	339.61	24.24	-37.7	-38.9	28.9	3.01e+01	59	42	0	1001914368	48	6754
2026-01-25 02:08:00.13	339.61	24.07	-37.9	-39.1	28.8	3.01e+01	60	42	0	1003487232	48	6936
2026-01-25 02:08:01.14	339.61	23.89	-37.6	-38.8	29.0	3.01e+01	51	42	0	1005584384	48	6717
2026-01-25 02:08:02.15	339.61	23.72	-37.7	-38.9	28.8	3.01e+01	56	41	0	1007157248	48	6767
2026-01-25 02:08:03.16	339.61	23.55	-37.8	-39.0	28.7	3.01e+01	59	42	0	1009254400	48	6870
2026-01-25 02:08:04.17	339.61	23.37	-37.7	-38.9	28.8	3.01e+01	59	42	0	1011351552	48	6755
2026-01-25 02:08:05.18	339.61	23.21	-37.8	-39.0	28.8	3.01e+01	60	42	0	1012924416	48	6844
2026-01-25 02:08:06.19	339.61	23.04	-37.8	-39.0	28.8	3.01e+01	38	42	0	1015021568	48	6836
2026-01-25 02:08:07.20	339.61	22.87	-37.7	-38.9	28.9	3.01e+01	59	42	0	1016594432	48	6778
2026-01-25 02:08:08.20	339.61	22.70	-37.5	-38.8	29.0	3.01e+01	58	42	0	1018691584	48	6655
2026-01-25 02:08:09.21	339.61	22.54	-37.6	-38.8	29.0	3.01e+01	44	42	0	1020788736	48	6706
2026-01-25 02:08:10.22	339.61	22.38	-37.5	-38.7	29.1	3.01e+01	57	42	0	1022361600	48	6646
2026-01-25 02:08:11.23	339.61	22.21	-37.5	-38.7	29.0	3.01e+01	62	42	0	1024458752	48	6644
2026-01-25 02:08:12.24	339.61	22.05	-37.6	-38.8	28.9	3.01e+01	58	42	0	1026031616	48	6701
2026-01-25 02:08:13.25	339.61	21.89	-37.5	-38.7	29.0	3.01e+01	57	42	0	1028128768	48	6643
2026-01-25 02:08:14.26	339.61	21.73	-37.6	-38.8	28.9	3.01e+01	59	41	0	1030225920	48	6711
2026-01-25 02:08:15.27	339.61	21.57	-37.6	-38.8	29.0	3.01e+01	58	42	0	1031798784	48	6707
2026-01-25 02:08:16.28	339.61	21.42	-37.5	-38.7	29.1	3.01e+01	60	42	0	1033895936	48	6619
2026-01-25 02:08:17.29	339.61	21.26	-37.4	-38.6	29.2	3.01e+01	47	42	0	1035993088	48	6569
2026-01-25 02:08:18.30	339.61	21.10	-37.6	-38.8	29.0	3.01e+01	60	42	0	1037565952	48	6675
2026-01-25 02:08:19.31	339.61	20.95	-37.4	-38.7	29.1	3.01e+01	58	42	0	1039663104	48	6575
2026-01-25 02:08:20.32	339.61	20.80	-37.4	-38.6	29.1	3.01e+01	58	42	0	1041235968	48	6559
2026-01-25 02:08:21.32	339.61	20.65	-37.5	-38.7	29.0	3.01e+01	60	42	0	1043333120	48	6609
2026-01-25 02:08:22.33	339.61	20.50	-37.4	-38.7	29.1	3.01e+01	59	41	0	1045430272	48	6577
2026-01-25 02:08:23.34	339.61	20.35	-37.5	-38.7	29.1	3.01e+01	62	42	0	1047003136	48	6615
2026-01-25 02:08:24.35	339.61	20.20	-37.6	-38.8	29.1	3.01e+01	59	42	0	1049100288	48	6695
2026-01-25 02:08:25.36	339.61	20.05	-37.4	-38.6	29.2	3.01e+01	46	42	0	1050673152	48	6563
2026-01-25 02:08:26.37	339.61	19.90	-37.4	-38.6	29.2	3.01e+01	60	41	0	1052770304	48	6553
2026-01-25 02:08:27.38	339.61	19.75	-37.5	-38.7	29.1	3.01e+01	60	42	0	1054867456	48	6643
2026-01-25 02:08:28.39	339.61	19.61	-37.4	-38.6	29.2	3.01e+01	56	42	0	1056440320	48	6560
2026-01-25 02:08:29.40	339.61	19.47	-37.4	-38.6	29.2	3.01e+01	57	41	0	1058537472	48	6569
2026-01-25 02:08:30.41	339.61	19.32	-37.5	-38.7	29.1	3.01e+01	48	42	0	1060110336	48	6637
2026-01-25 02:08:31.42	339.61	19.18	-37.5	-38.7	29.2	3.01e+01	58	41	0	1062207488	48	6603
2026-01-25 02:08:32.43	339.61	19.04	-37.6	-38.9	29.0	3.01e+01	59	42	0	1064304640	48	6745
2026-01-25 02:08:33.44	339.61	18.90	-37.5	-38.7	29.1	3.01e+01	47	42	0	1065877504	48	6630
2026-01-25 02:08:34.45	339.61	18.76	-37.5	-38.8	29.1	3.01e+01	59	42	0	1067974656	48	6653
2026-01-25 02:08:35.45	339.62	18.62	-37.5	-38.7	29.1	3.01e+01	60	42	0	1069547520	48	6634
2026-01-25 02:08:36.46	339.62	18.48	-37.4	-38.6	29.2	3.01e+01	59	42	0	1071644672	48	6542
2026-01-25 02:08:37.47	339.62	18.34	-37.5	-38.7	29.1	3.01e+01	58	42	0	1073741824	48	6636
2026-01-25 02:08:38.48	339.62	18.21	-37.4	-38.6	29.2	3.01e+01	47	42	0	1075314688	48	6530
2026-01-25 02:08:39.49	339.62	18.07	-37.5	-38.8	29.0	3.01e+01	61	42	0	1077411840	48	6653
2026-01-25 02:08:40.50	339.62	17.94	-37.4	-38.6	29.2	3.01e+01	61	42	0	1078984704	48	6543
2026-01-25 02:08:41.51	339.62	17.80	-37.5	-38.7	29.1	3.01e+01	56	42	0	1081081856	48	6611
2026-01-25 02:08:42.52	339.62	17.67	-37.7	-39.0	28.7	3.01e+01	61	42	0	1083179008	48	6811
2026-01-25 02:08:43.53	339.62	17.54	-37.6	-38.8	28.8	3.01e+01	45	42	0	1084751872	48	6681
2026-01-25 02:08:44.54	339.62	17.41	-37.7	-38.9	28.7	3.01e+01	60	42	0	1086849024	48	6783
2026-01-25 02:08:45.55	339.63	17.27	-37.4	-38.6	29.0	3.01e+01	60	42	0	1088946176	48	6558
2026-01-25 02:08:46.56	339.63	17.14	-37.4	-38.6	28.9	3.01e+01	49	42	0	1090519040	48	6560
2026-01-25 02:08:47.57	339.63	17.02	-37.5	-38.7	28.9	3.01e+01	58	42	0	1092616192	48	6612
2026-01-25 02:08:48.58	339.63	16.89	-37.5	-38.7	28.9	3.01e+01	60	42	0	1094189056	48	6645
2026-01-25 02:08:49.59	339.63	16.76	-37.4	-38.6	29.1	3.01e+01	58	42	0	1096286208	48	6542
2026-01-25 02:08:50.60	339.63	16.63	-37.5	-38.7	28.9	3.01e+01	54	42	0	1098383360	48	6632
2026-01-25 02:08:51.61	339.63	16.51	-37.5	-38.7	29.0	3.01e+01	55	42	0	1099956224	48	6643
2026-01-25 02:08:52.62	339.63	16.38	-37.5	-38.7	29.1	3.01e+01	59	42	0	1102053376	48	6645
2026-01-25 02:08:53.63	339.64	16.25	-37.5	-38.8	29.1	3.01e+01	57	42	0	1104150528	48	6665
2026-01-25 02:08:54.64	339.64	16.13	-37.4	-38.6	29.1	3.01e+01	51	42	0	1105723392	48	6573
2026-01-25 02:08:55.65	339.64	16.01	-37.5	-38.7	28.9	3.01e+01	59	42	0	1107820544	48	6606
2026-01-25 02:08:56.66	339.64	15.88	-37.5	-38.7	29.0	3.01e+01	62	42	0	1109393408	48	6612
2026-01-25 02:08:57.67	339.64	15.76	-37.5	-38.7	28.9	3.01e+01	58	42	0	1111490560	48	6624
2026-01-25 02:08:58.68	339.64	15.64	-37.5	-38.7	29.0	3.01e+01	60	42	0	1113587712	48	6598
2026-01-25 02:08:59.69	339.64	15.52	-37.6	-38.8	28.9	3.01e+01	45	42	0	1115160576	48	6706
2026-01-25 02:09:00.70	339.65	15.40	-37.5	-38.8	29.0	3.01e+01	59	42	0	1117257728	48	6657
2026-01-25 02:09:01.71	339.65	15.28	-37.5	-38.7	29.0	3.01e+01	58	42	0	1118830592	48	6631
2026-01-25 02:09:02.72	339.65	15.16	-37.4	-38.6	29.1	3.01e+01	48	42	0	1120927744	48	6518
2026-01-25 02:09:03.73	339.65	15.04	-37.4	-38.6	29.0	3.01e+01	58	42	0	1123024896	48	6527
2026-01-25 02:09:04.74	339.65	14.93	-37.4	-38.6	28.9	3.01e+01	59	42	0	1124597760	48	6559
2026-01-25 02:09:05.75	339.65	14.81	-37.4	-38.6	29.0	3.01e+01	58	42	0	1126694912	48	6528
2026-01-25 02:09:06.76	339.65	14.69	-37.3	-38.6	29.0	3.01e+01	59	42	0	1128267776	48	6503
2026-01-25 02:09:07.77	339.66	14.58	-37.5	-38.7	28.8	3.01e+01	56	42	0	1130364928	48	6600
2026-01-25 02:09:08.77	339.66	14.46	-37.4	-38.6	28.9	3.01e+01	59	42	0	1132462080	48	6517
2026-01-25 02:09:09.78	339.66	14.35	-37.3	-38.6	28.9	3.01e+01	52	42	0	1134034944	48	6506
2026-01-25 02:09:10.79	339.66	14.23	-37.3	-38.6	28.8	3.01e+01	48	42	0	1136132096	48	6505
2026-01-25 02:09:11.80	339.66	14.12	-37.2	-38.4	29.1	3.01e+01	57	42	0	1137704960	48	6418
2026-01-25 02:09:12.82	339.66	14.01	-37.3	-38.5	29.0	3.01e+01	50	42	0	1139802112	48	6471
2026-01-25 02:09:13.82	339.67	13.90	-37.3	-38.5	29.0	3.01e+01	60	42	0	1141899264	48	6446
2026-01-25 02:09:14.83	339.67	13.78	-37.2	-38.5	29.1	3.01e+01	58	42	0	1143472128	48	6433
2026-01-25 02:09:15.84	339.67	13.67	-37.4	-38.6	29.0	3.01e+01	45	42	0	1145569280	48	6507
2026-01-25 02:09:16.86	339.67	13.56	-37.5	-38.7	28.8	3.01e+01	60	42	0	1147142144	48	6611
2026-01-25 02:09:17.87	339.67	13.45	-37.4	-38.7	28.7	3.01e+01	60	42	0	1149239296	48	6577
2026-01-25 02:09:18.88	339.68	13.34	-37.5	-38.7	28.9	3.01e+01	59	42	0	1151336448	48	6593
2026-01-25 02:09:19.89	339.68	13.23	-37.3	-38.5	29.0	3.01e+01	62	42	0	1152909312	48	6454
2026-01-25 02:09:20.90	339.68	13.12	-37.1	-38.3	29.2	3.01e+01	54	42	0	1155006464	48	6339
2026-01-25 02:09:21.91	339.68	13.02	-37.3	-38.5	29.0	3.01e+01	57	42	0	1157103616	48	6471
2026-01-25 02:09:22.92	339.68	12.91	-37.3	-38.5	29.1	3.01e+01	59	42	0	1158676480	48	6471
2026-01-25 02:09:23.93	339.69	12.80	-37.3	-38.5	29.1	3.01e+01	44	42	0	1160773632	48	6429
2026-01-25 02:09:24.94	339.69	12.70	-37.3	-38.5	29.1	3.01e+01	59	42	0	1162346496	48	6486
2026-01-25 02:09:25.95	339.69	12.59	-38.0	-47.9	3.6	3.01e+01	0	42	104	1162870784	50	16950
2026-01-25 02:09:26.96	339.69	12.49	-38.0	-47.9	3.6	3.01e+01	0	42	104	1162870784	50	17013
2026-01-25 02:09:27.97	339.69	12.38	-38.1	-48.0	3.6	3.01e+01	0	42	104	1162870784	50	17179
2026-01-25 02:09:28.97	339.70	12.28	-41.7	-52.0	3.4	3.01e+01	0	42	104	1162870784	56	19242
2026-01-25 02:09:29.98	339.70	12.17	-50.6	-66.9	3.5	3.01e+01	0	42	104	1162870784	60	85555
2026-01-25 02:09:30.99	339.70	12.07	-47.6	-59.4	3.6	3.01e+01	0	42	104	1162870784	60	35775
2026-01-25 02:09:31.99	339.70	11.97	-45.4	-56.3	3.5	3.01e+01	0	42	104	1162870784	60	25077
2026-01-25 02:09:33.00	339.70	11.87	-40.0	-50.0	3.6	3.01e+01	0	42	104	1162870784	56	15243
2026-01-25 02:09:34.02	339.71	11.76	-39.8	-49.9	3.4	3.01e+01	0	42	104	1162870784	54	16912
2026-01-25 02:09:35.03	339.71	11.66	-38.7	-48.7	3.6	3.01e+01	0	42	104	1162870784	52	16544
2026-01-25 02:09:36.03	339.71	11.56	-39.0	-49.0	3.6	3.01e+01	0	42	104	1162870784	52	17099
2026-01-25 02:09:37.05	339.71	11.46	-42.1	-52.3	3.6	3.01e+01	0	42	104	1162870784	56	20038
2026-01-25 02:09:38.05	339.71	11.36	-50.3	-67.0	3.5	3.01e+01	0	42	104	1162870784	60	85815
2026-01-25 02:09:39.06	339.72	11.26	-49.6	-64.4	3.5	3.01e+01	0	42	104	1162870784	60	63823
2026-01-25 02:09:40.07	339.72	11.16	-48.9	-62.1	3.5	3.01e+01	0	42	104	1162870784	60	49196
2026-01-25 02:09:41.08	339.72	11.07	-45.5	-56.5	3.5	3.01e+01	0	42	104	1162870784	60	25771
2026-01-25 02:09:42.09	339.72	10.97	-46.0	-57.3	3.4	3.01e+01	0	42	104	1162870784	60	28095
2026-01-25 02:09:43.10	339.73	10.87	-45.5	-56.6	4.0	3.01e+01	0	42	104	1162870784	60	25921
