passes_logs/2026/01/25/R4.6S_Anadyr/R4.6S_Anadyr__20260125_151754_NOAA_20_JPSS-1_rec.log

#Pass ID: 20260125_151754_NOAA 20 (JPSS-1)
#Satellite: NOAA 20 (JPSS-1)
#Configuration: NOAA 20
#almurnet v.1.7.20251203
#Start time: 2026-01-25 15:17:54

#Version: 2.2.20231116
#Station: R4.6S_Anadyr
#Location: 177.4865 lon 64.73178 lat
#TLE: 1 43013U 17073A   26025.26840802  .00000166  00000+0  99658-4 0  9997
#TLE: 2 43013  98.7646 326.0999 0001063  24.6905 335.4321 14.19540119424193

#Time	Az	El	Level	Level2	SNR	BER	BlckErr	Temp	State	Recorded	gain1	gain2
2026-01-25 15:17:54.65	21.90	0.04	-50.3	-65.2	3.5	1.51e+00	0	38	0	0	60	65475
2026-01-25 15:17:55.66	21.88	0.10	-50.3	-65.5	3.6	1.51e+00	0	39	104	0	60	68085
2026-01-25 15:17:56.67	21.87	0.16	-50.3	-65.4	3.6	1.51e+00	0	39	104	0	60	67679
2026-01-25 15:17:57.68	21.86	0.22	-50.3	-65.5	3.6	1.51e+00	0	40	104	0	60	68051
2026-01-25 15:17:58.69	21.85	0.28	-50.2	-65.4	3.6	1.51e+00	0	39	104	0	60	67626
2026-01-25 15:17:59.70	21.84	0.34	-50.3	-65.4	3.6	1.51e+00	0	40	104	0	60	67339
2026-01-25 15:18:00.71	21.83	0.40	-50.3	-65.5	3.6	1.51e+00	0	40	104	0	60	67875
2026-01-25 15:18:01.72	21.81	0.46	-50.3	-65.5	3.6	1.51e+00	0	40	104	0	60	67752
2026-01-25 15:18:02.73	21.80	0.52	-50.3	-65.5	3.6	1.51e+00	0	40	104	0	60	67976
2026-01-25 15:18:03.74	21.79	0.58	-50.3	-65.5	3.6	1.51e+00	0	40	104	0	60	68029
2026-01-25 15:18:04.75	21.78	0.64	-50.3	-65.4	3.6	1.51e+00	0	40	104	0	60	67680
2026-01-25 15:18:05.76	21.77	0.71	-50.3	-65.5	3.6	1.51e+00	0	40	104	0	60	68215
2026-01-25 15:18:06.77	21.75	0.77	-50.2	-65.4	3.6	1.51e+00	0	40	104	0	60	67641
2026-01-25 15:18:07.78	21.74	0.83	-50.2	-65.4	3.6	1.51e+00	0	40	104	0	60	67310
2026-01-25 15:18:08.79	21.73	0.89	-50.2	-65.4	3.6	1.51e+00	0	40	104	0	60	67460
2026-01-25 15:18:09.80	21.72	0.95	-50.1	-65.3	3.6	1.51e+00	0	40	104	0	60	66775
2026-01-25 15:18:10.80	21.71	1.01	-50.0	-65.3	3.6	1.51e+00	0	40	104	0	60	66338
2026-01-25 15:18:11.82	21.69	1.08	-50.0	-65.2	3.6	1.51e+00	0	40	104	0	60	65708
2026-01-25 15:18:12.83	21.68	1.14	-49.8	-65.0	3.6	1.51e+00	0	40	104	0	60	64229
2026-01-25 15:18:13.84	21.67	1.20	-49.7	-64.9	3.6	1.51e+00	0	40	104	0	60	63901
2026-01-25 15:18:14.85	21.66	1.26	-49.6	-64.9	3.6	1.51e+00	0	40	104	0	60	63281
2026-01-25 15:18:15.86	21.64	1.33	-49.5	-64.8	3.6	1.51e+00	0	40	104	0	60	62534
2026-01-25 15:18:16.87	21.63	1.39	-49.3	-64.5	3.6	1.51e+00	0	40	104	0	60	60556
2026-01-25 15:18:17.88	21.62	1.45	-49.1	-64.3	3.6	1.51e+00	0	40	104	0	60	59253
2026-01-25 15:18:18.89	21.60	1.51	-48.8	-63.8	3.6	1.51e+00	0	40	104	0	60	55823
2026-01-25 15:18:19.90	21.59	1.58	-48.8	-63.7	3.6	1.51e+00	0	40	104	0	60	55237
2026-01-25 15:18:20.91	21.58	1.64	-48.8	-63.6	3.5	1.51e+00	0	40	104	0	60	54583
2026-01-25 15:18:21.92	21.56	1.70	-48.8	-63.7	3.6	1.51e+00	0	40	104	0	60	55367
2026-01-25 15:18:22.93	21.55	1.77	-48.8	-63.7	3.6	1.51e+00	0	40	104	0	60	55027
2026-01-25 15:18:23.94	21.54	1.83	-48.8	-63.7	3.6	1.51e+00	0	40	104	0	60	55522
2026-01-25 15:18:24.95	21.52	1.89	-48.8	-63.8	3.6	1.51e+00	0	40	104	0	60	55815
2026-01-25 15:18:25.96	21.51	1.96	-48.8	-63.9	3.6	1.51e+00	0	40	104	0	60	56410
2026-01-25 15:18:26.97	21.50	2.02	-48.8	-64.0	3.6	1.51e+00	0	40	104	0	60	57226
2026-01-25 15:18:27.98	21.48	2.09	-48.8	-63.9	3.6	1.51e+00	0	40	104	0	60	56945
2026-01-25 15:18:28.99	21.47	2.15	-48.8	-64.0	3.6	1.51e+00	0	40	104	0	60	56996
2026-01-25 15:18:30.00	21.46	2.22	-48.8	-63.9	3.6	1.51e+00	0	40	104	0	60	56367
2026-01-25 15:18:31.01	21.44	2.28	-48.8	-63.8	3.6	1.51e+00	0	40	104	0	60	56012
2026-01-25 15:18:32.02	21.43	2.35	-48.8	-63.6	3.6	1.51e+00	0	40	104	0	60	54909
2026-01-25 15:18:33.03	21.41	2.41	-48.7	-63.0	3.6	1.51e+00	0	40	104	0	60	50901
2026-01-25 15:18:34.04	21.40	2.48	-48.7	-62.9	3.6	1.51e+00	0	40	104	0	60	50267
2026-01-25 15:18:35.05	21.39	2.54	-48.7	-62.7	3.6	1.51e+00	0	40	104	0	60	49449
2026-01-25 15:18:36.06	21.37	2.61	-48.7	-62.2	3.6	1.51e+00	0	40	104	0	60	46741
2026-01-25 15:18:37.07	21.36	2.67	-48.7	-62.2	3.6	1.51e+00	0	40	104	0	60	46752
2026-01-25 15:18:38.08	21.34	2.74	-48.7	-62.8	3.6	1.51e+00	0	40	104	0	60	50143
2026-01-25 15:18:39.09	21.33	2.80	-48.7	-63.2	3.6	1.51e+00	0	40	104	0	60	52070
2026-01-25 15:18:40.10	21.31	2.87	-48.7	-63.5	3.6	1.51e+00	0	40	104	0	60	54118
2026-01-25 15:18:41.11	21.30	2.94	-48.7	-62.1	3.6	1.51e+00	0	40	104	0	60	45844
2026-01-25 15:18:42.12	21.28	3.00	-48.6	-60.0	4.2	1.46e+00	0	40	104	0	60	36315
2026-01-25 15:18:43.13	21.27	3.07	-48.2	-56.3	5.9	5.78e-01	0	40	0	1048576	60	23492
2026-01-25 15:18:44.14	21.25	3.13	-47.8	-54.1	8.5	1.74e-01	0	40	0	2097152	60	18259
2026-01-25 15:18:45.15	21.24	3.20	-47.7	-53.8	8.5	4.20e-02	0	40	0	4194304	60	17616
2026-01-25 15:18:46.16	21.22	3.27	-46.4	-50.2	12.6	7.16e-04	0	40	0	6291456	60	11697
2026-01-25 15:18:47.17	21.21	3.34	-46.2	-49.9	13.0	9.91e-05	0	40	0	8388608	60	11246
2026-01-25 15:18:48.18	21.19	3.40	-46.1	-49.6	13.2	2.97e-05	0	40	0	10485760	60	10964
2026-01-25 15:18:49.19	21.18	3.47	-45.0	-47.6	15.3	0.00e+00	0	40	0	11534336	60	8689
2026-01-25 15:18:50.21	21.16	3.54	-45.6	-48.7	14.2	3.80e-06	0	40	0	13631488	60	9800
2026-01-25 15:18:51.21	21.15	3.61	-46.0	-49.4	13.5	8.08e-05	0	40	0	15728640	60	10670
2026-01-25 15:18:52.22	21.13	3.67	-46.6	-50.8	10.9	1.50e-06	0	40	0	17825792	60	12603
2026-01-25 15:18:53.24	21.11	3.74	-48.7	-62.2	3.6	1.51e+00	0	40	104	17825792	60	46630
2026-01-25 15:18:54.25	21.10	3.81	-47.3	-51.7	12.1	1.66e-01	0	40	0	18874368	60	13837
2026-01-25 15:18:55.25	21.08	3.88	-48.6	-62.4	3.6	1.31e+00	0	40	104	19922944	60	47473
2026-01-25 15:18:56.26	21.07	3.95	-43.6	-45.6	16.4	1.35e+00	0	40	104	19922944	60	6855
2026-01-25 15:18:57.27	21.05	4.02	-48.8	-63.6	3.6	1.52e+00	0	40	104	19922944	60	54657
2026-01-25 15:18:58.28	21.03	4.08	-44.8	-47.3	15.6	0.00e+00	0	40	0	19922944	60	8332
2026-01-25 15:18:59.29	21.02	4.15	-44.1	-46.2	16.6	0.00e+00	0	40	0	22020096	60	7402
2026-01-25 15:19:00.30	21.00	4.22	-43.4	-45.3	17.5	0.00e+00	0	40	0	24117248	60	6653
2026-01-25 15:19:01.31	20.98	4.29	-42.9	-44.6	19.0	0.00e+00	0	40	0	26214400	60	6113
2026-01-25 15:19:02.32	20.97	4.36	-43.1	-44.9	18.3	0.00e+00	0	40	0	28311552	58	7104
2026-01-25 15:19:03.32	20.95	4.43	-42.5	-44.0	19.1	0.00e+00	0	40	0	29360128	58	6449
2026-01-25 15:19:04.33	20.93	4.50	-43.6	-45.5	17.8	0.00e+00	0	40	0	31457280	58	7620
2026-01-25 15:19:05.34	20.92	4.57	-43.6	-45.5	17.6	0.00e+00	0	40	0	33554432	58	7655
2026-01-25 15:19:06.35	20.90	4.64	-43.5	-45.4	17.3	0.00e+00	0	40	0	35651584	58	7567
2026-01-25 15:19:07.36	20.88	4.71	-43.9	-45.8	17.4	0.00e+00	0	40	0	37748736	60	7079
2026-01-25 15:19:08.37	20.87	4.78	-44.0	-46.1	17.2	0.00e+00	0	40	0	39845888	60	7291
2026-01-25 15:19:09.38	20.85	4.85	-44.1	-46.1	17.3	0.00e+00	0	40	0	40894464	60	7329
2026-01-25 15:19:10.39	20.83	4.92	-43.2	-44.9	18.2	0.00e+00	0	40	0	42991616	60	6383
2026-01-25 15:19:11.40	20.81	5.00	-44.1	-46.1	16.9	0.00e+00	0	40	0	45088768	60	7310
2026-01-25 15:19:12.41	20.79	5.07	-44.2	-46.3	16.8	0.00e+00	0	40	0	47185920	60	7475
2026-01-25 15:19:13.42	20.78	5.14	-43.2	-44.9	18.5	0.00e+00	0	40	0	49283072	60	6357
2026-01-25 15:19:14.43	20.76	5.21	-43.2	-45.0	18.6	0.00e+00	0	40	0	50331648	60	6414
2026-01-25 15:19:15.44	20.74	5.28	-42.7	-44.3	18.9	0.00e+00	0	40	0	52428800	58	6630
2026-01-25 15:19:16.45	20.72	5.35	-42.0	-43.5	19.9	0.00e+00	0	40	0	54525952	58	6036
2026-01-25 15:19:17.45	20.70	5.43	-41.9	-43.2	20.0	0.00e+00	0	40	0	56623104	56	6604
2026-01-25 15:19:18.46	20.69	5.50	-41.9	-43.3	20.0	0.00e+00	0	40	0	58720256	56	6658
2026-01-25 15:19:19.47	20.67	5.57	-41.9	-43.3	19.9	0.00e+00	0	40	0	59768832	56	6672
2026-01-25 15:19:20.48	20.65	5.64	-41.7	-43.1	20.0	0.00e+00	0	40	0	61865984	56	6483
2026-01-25 15:19:21.49	20.63	5.72	-41.8	-43.1	20.4	0.00e+00	0	40	0	63963136	56	6512
2026-01-25 15:19:22.50	20.61	5.79	-41.9	-43.2	20.3	0.00e+00	0	40	0	66060288	56	6605
2026-01-25 15:19:23.51	20.59	5.86	-41.6	-42.9	20.6	0.00e+00	0	40	0	68157440	56	6364
2026-01-25 15:19:24.52	20.57	5.94	-41.9	-43.2	20.3	0.00e+00	0	40	0	69206016	56	6578
2026-01-25 15:19:25.53	20.55	6.01	-42.5	-44.0	19.4	0.00e+00	0	40	0	71303168	56	7176
2026-01-25 15:19:26.54	20.53	6.09	-41.5	-42.7	20.8	0.00e+00	0	40	0	73400320	56	6229
2026-01-25 15:19:27.55	20.52	6.16	-41.6	-42.9	20.5	0.00e+00	0	40	0	75497472	56	6341
2026-01-25 15:19:28.56	20.50	6.24	-42.2	-43.6	19.9	0.00e+00	0	40	0	77594624	56	6853
2026-01-25 15:19:29.57	20.48	6.31	-42.1	-43.5	19.8	0.00e+00	0	40	0	78643200	56	6824
2026-01-25 15:19:30.58	20.46	6.39	-41.5	-42.7	20.6	0.00e+00	0	40	0	80740352	56	6236
2026-01-25 15:19:31.59	20.44	6.46	-41.7	-43.0	20.3	0.00e+00	0	40	0	82837504	56	6463
2026-01-25 15:19:32.59	20.42	6.54	-42.1	-43.5	20.0	0.00e+00	0	40	0	84934656	56	6817
2026-01-25 15:19:33.60	20.40	6.61	-41.7	-43.0	20.5	0.00e+00	0	40	0	87031808	56	6423
2026-01-25 15:19:34.61	20.38	6.69	-41.8	-43.2	20.4	0.00e+00	0	40	0	88080384	56	6544
2026-01-25 15:19:35.62	20.36	6.76	-42.2	-43.6	20.1	0.00e+00	0	40	0	90177536	56	6901
2026-01-25 15:19:36.63	20.33	6.84	-41.2	-42.4	21.2	0.00e+00	0	40	0	92274688	56	5994
2026-01-25 15:19:37.64	20.31	6.92	-41.8	-43.0	20.3	0.00e+00	0	40	0	94371840	56	6462
2026-01-25 15:19:38.65	20.29	6.99	-41.6	-42.8	20.7	0.00e+00	0	40	0	96468992	56	6291
2026-01-25 15:19:39.66	20.27	7.07	-41.6	-42.8	20.7	0.00e+00	0	40	0	97517568	56	6299
2026-01-25 15:19:40.66	20.25	7.15	-41.5	-42.7	20.8	0.00e+00	0	40	0	99614720	56	6202
2026-01-25 15:19:41.67	20.23	7.22	-41.4	-42.6	20.9	0.00e+00	0	40	0	101711872	56	6169
2026-01-25 15:19:42.68	20.21	7.30	-41.1	-42.3	21.1	0.00e+00	0	40	0	103809024	56	5939
2026-01-25 15:19:43.69	20.19	7.38	-41.2	-42.4	21.1	0.00e+00	0	40	0	105906176	56	6030
2026-01-25 15:19:44.70	20.17	7.46	-41.4	-42.6	20.9	0.00e+00	0	40	0	106954752	56	6139
2026-01-25 15:19:45.71	20.14	7.54	-40.9	-42.1	21.4	0.00e+00	0	40	0	109051904	56	5774
2026-01-25 15:19:46.72	20.12	7.61	-41.4	-42.6	21.0	0.00e+00	0	41	0	111149056	56	6165
2026-01-25 15:19:47.73	20.10	7.69	-40.9	-42.0	21.4	0.00e+00	0	40	0	113246208	54	6439
2026-01-25 15:19:48.74	20.08	7.77	-41.3	-42.5	21.0	0.00e+00	0	40	0	115343360	54	6792
2026-01-25 15:19:49.75	20.06	7.85	-41.6	-42.8	20.8	0.00e+00	0	40	0	116391936	54	7048
2026-01-25 15:19:50.76	20.03	7.93	-41.4	-42.6	20.9	0.00e+00	0	40	0	118489088	54	6892
2026-01-25 15:19:51.77	20.01	8.01	-41.7	-43.0	20.7	0.00e+00	0	40	0	120586240	54	7207
2026-01-25 15:19:52.78	19.99	8.09	-41.7	-42.9	20.5	0.00e+00	0	40	0	122683392	54	7164
2026-01-25 15:19:53.78	19.96	8.17	-41.4	-42.6	20.9	0.00e+00	0	40	0	124780544	56	6123
2026-01-25 15:19:54.79	19.94	8.25	-41.2	-42.4	21.0	0.00e+00	0	40	0	125829120	56	6009
2026-01-25 15:19:55.80	19.92	8.33	-41.3	-42.5	21.2	0.00e+00	0	40	0	127926272	56	6094
2026-01-25 15:19:56.81	19.89	8.41	-41.5	-42.7	21.1	0.00e+00	0	40	0	130023424	56	6198
2026-01-25 15:19:57.82	19.87	8.49	-41.3	-42.5	21.2	0.00e+00	0	40	0	132120576	56	6038
2026-01-25 15:19:58.83	19.85	8.58	-41.6	-42.8	20.9	0.00e+00	0	41	0	134217728	56	6298
2026-01-25 15:19:59.84	19.82	8.66	-41.1	-42.3	21.2	0.00e+00	0	40	0	136314880	56	5932
2026-01-25 15:20:00.85	19.80	8.74	-40.3	-41.4	22.1	0.00e+00	0	40	0	137363456	54	5989
2026-01-25 15:20:01.86	19.78	8.82	-40.8	-41.9	21.6	0.00e+00	0	40	0	139460608	54	6322
2026-01-25 15:20:02.86	19.75	8.90	-40.9	-42.1	21.6	0.00e+00	0	40	0	141557760	54	6471
2026-01-25 15:20:03.88	19.73	8.99	-40.6	-41.7	21.9	0.00e+00	0	40	0	143654912	54	6213
2026-01-25 15:20:04.88	19.70	9.07	-40.4	-41.5	22.0	0.00e+00	0	41	0	145752064	54	6040
2026-01-25 15:20:05.89	19.68	9.15	-40.6	-41.7	21.8	0.00e+00	0	41	0	146800640	54	6241
2026-01-25 15:20:06.90	19.65	9.24	-40.4	-41.5	22.1	0.00e+00	0	40	0	148897792	54	6039
2026-01-25 15:20:07.91	19.63	9.32	-40.5	-41.6	22.0	0.00e+00	0	41	0	150994944	54	6135
2026-01-25 15:20:08.92	19.60	9.41	-40.5	-41.6	22.1	0.00e+00	0	40	0	153092096	54	6112
2026-01-25 15:20:09.93	19.58	9.49	-40.0	-41.0	22.5	0.00e+00	0	40	0	155189248	54	5711
2026-01-25 15:20:10.94	19.55	9.58	-40.3	-41.3	22.3	0.00e+00	0	40	0	156237824	54	5962
2026-01-25 15:20:11.95	19.52	9.66	-40.5	-41.6	22.0	0.00e+00	0	40	0	158334976	54	6105
2026-01-25 15:20:12.96	19.50	9.75	-40.6	-41.6	22.0	0.00e+00	0	40	0	160432128	54	6173
2026-01-25 15:20:13.97	19.47	9.83	-40.3	-41.3	22.4	0.00e+00	0	40	0	162529280	54	5943
2026-01-25 15:20:14.98	19.45	9.92	-40.2	-41.3	22.4	0.00e+00	0	41	0	164626432	54	5918
2026-01-25 15:20:15.99	19.42	10.00	-40.2	-41.2	22.5	0.00e+00	0	40	0	165675008	54	5878
2026-01-25 15:20:17.00	19.39	10.09	-40.0	-41.0	22.7	0.00e+00	0	40	0	167772160	54	5698
2026-01-25 15:20:18.01	19.37	10.18	-39.8	-40.8	22.7	0.00e+00	0	40	0	169869312	54	5597
2026-01-25 15:20:19.02	19.34	10.26	-40.0	-41.0	22.6	0.00e+00	0	41	0	171966464	54	5725
2026-01-25 15:20:20.03	19.31	10.35	-40.1	-41.1	22.5	0.00e+00	0	40	0	174063616	54	5807
2026-01-25 15:20:21.04	19.28	10.44	-40.1	-41.1	22.5	0.00e+00	0	40	0	175112192	54	5803
2026-01-25 15:20:22.05	19.26	10.53	-39.7	-40.7	22.9	0.00e+00	0	40	0	177209344	52	6218
2026-01-25 15:20:23.06	19.23	10.62	-39.8	-40.8	22.8	0.00e+00	0	40	0	179306496	52	6279
2026-01-25 15:20:24.07	19.20	10.71	-40.0	-41.0	22.7	0.00e+00	0	41	0	181403648	52	6403
2026-01-25 15:20:25.08	19.17	10.79	-39.9	-40.9	22.7	0.00e+00	0	40	0	183500800	52	6319
2026-01-25 15:20:26.09	19.14	10.88	-40.2	-41.2	22.3	0.00e+00	0	40	0	184549376	52	6611
2026-01-25 15:20:27.09	19.11	10.97	-39.8	-40.8	22.8	0.00e+00	0	41	0	186646528	52	6274
2026-01-25 15:20:28.10	19.09	11.06	-39.8	-40.8	22.9	0.00e+00	0	41	0	188743680	52	6247
2026-01-25 15:20:29.11	19.06	11.15	-40.1	-41.1	22.7	0.00e+00	0	41	0	190840832	52	6476
2026-01-25 15:20:30.12	19.03	11.24	-39.5	-40.4	23.2	0.00e+00	0	41	0	192937984	52	6023
2026-01-25 15:20:31.13	19.00	11.33	-39.5	-40.5	23.2	0.00e+00	0	40	0	193986560	52	6034
2026-01-25 15:20:32.14	18.97	11.43	-39.6	-40.5	23.2	0.00e+00	0	41	0	196083712	52	6087
2026-01-25 15:20:33.15	18.94	11.52	-39.5	-40.4	23.2	0.00e+00	0	41	0	198180864	52	6031
2026-01-25 15:20:34.16	18.91	11.61	-39.5	-40.5	23.2	0.00e+00	0	41	0	200278016	52	6039
2026-01-25 15:20:35.17	18.88	11.70	-39.2	-40.1	23.5	0.00e+00	0	41	0	202375168	52	5806
2026-01-25 15:20:36.18	18.85	11.79	-39.5	-40.4	23.2	0.00e+00	0	41	0	204472320	52	6004
2026-01-25 15:20:37.19	18.82	11.89	-39.5	-40.4	23.2	0.00e+00	0	41	0	205520896	52	5990
2026-01-25 15:20:38.20	18.78	11.98	-39.5	-40.4	23.2	0.00e+00	0	41	0	207618048	52	6032
2026-01-25 15:20:39.21	18.75	12.07	-39.6	-40.5	23.1	0.00e+00	0	41	0	209715200	52	6063
2026-01-25 15:20:40.22	18.72	12.17	-39.4	-40.3	23.4	0.00e+00	0	41	0	211812352	52	5948
2026-01-25 15:20:41.23	18.69	12.26	-39.5	-40.4	23.3	0.00e+00	0	41	0	213909504	52	5997
2026-01-25 15:20:42.24	18.66	12.36	-39.6	-40.5	23.1	0.00e+00	0	41	0	214958080	52	6076
2026-01-25 15:20:43.25	18.63	12.45	-39.5	-40.4	23.2	0.00e+00	0	41	0	217055232	52	5989
2026-01-25 15:20:44.26	18.59	12.55	-39.5	-40.4	23.2	0.00e+00	0	41	0	219152384	52	6013
2026-01-25 15:20:45.26	18.56	12.64	-39.3	-40.3	23.4	0.00e+00	0	41	0	221249536	52	5899
2026-01-25 15:20:46.27	18.53	12.74	-39.3	-40.2	23.4	0.00e+00	0	40	0	223346688	52	5849
2026-01-25 15:20:47.28	18.50	12.84	-39.5	-40.4	23.2	0.00e+00	0	40	0	224395264	52	6001
2026-01-25 15:20:48.29	18.46	12.93	-39.5	-40.4	23.3	0.00e+00	0	41	0	226492416	52	6008
2026-01-25 15:20:49.30	18.43	13.03	-39.4	-40.3	23.2	0.00e+00	0	41	0	228589568	52	5959
2026-01-25 15:20:50.31	18.39	13.13	-39.4	-40.3	23.4	0.00e+00	0	40	0	230686720	52	5953
2026-01-25 15:20:51.32	18.36	13.22	-39.1	-40.0	23.7	0.00e+00	0	41	0	232783872	52	5703
2026-01-25 15:20:52.33	18.33	13.32	-39.1	-39.9	23.6	0.00e+00	0	41	0	233832448	52	5690
2026-01-25 15:20:53.34	18.29	13.42	-39.0	-39.9	23.8	0.00e+00	0	41	0	235929600	52	5653
2026-01-25 15:20:54.35	18.26	13.52	-38.9	-39.8	23.9	0.00e+00	0	41	0	238026752	52	5618
2026-01-25 15:20:55.36	18.22	13.62	-39.1	-40.0	23.7	0.00e+00	0	41	0	240123904	52	5696
2026-01-25 15:20:56.37	18.19	13.72	-39.1	-40.0	23.7	0.00e+00	0	41	0	242221056	52	5756
2026-01-25 15:20:57.38	18.15	13.82	-39.1	-40.0	23.7	0.00e+00	0	41	0	243269632	52	5697
2026-01-25 15:20:58.39	18.11	13.92	-39.0	-39.9	23.8	0.00e+00	0	41	0	245366784	52	5667
2026-01-25 15:20:59.40	18.08	14.02	-39.2	-40.1	23.6	0.00e+00	0	41	0	247463936	52	5820
2026-01-25 15:21:00.41	18.04	14.12	-39.3	-40.2	23.5	0.00e+00	0	41	0	249561088	52	5836
2026-01-25 15:21:01.41	18.01	14.23	-39.1	-39.9	23.8	0.00e+00	0	41	0	251658240	52	5692
2026-01-25 15:21:02.42	17.97	14.33	-38.9	-39.8	23.7	0.00e+00	0	41	0	252706816	52	5588
2026-01-25 15:21:03.43	17.93	14.43	-38.9	-39.8	23.8	0.00e+00	0	41	0	254803968	52	5593
2026-01-25 15:21:04.44	17.89	14.53	-39.0	-39.9	23.7	0.00e+00	0	41	0	256901120	52	5661
2026-01-25 15:21:05.45	17.86	14.64	-38.8	-39.7	23.9	0.00e+00	0	41	0	258998272	52	5523
2026-01-25 15:21:06.46	17.82	14.74	-38.7	-39.6	24.0	0.00e+00	0	41	0	261095424	50	6135
2026-01-25 15:21:07.47	17.78	14.85	-38.7	-39.5	24.0	0.00e+00	0	41	0	262144000	50	6085
2026-01-25 15:21:08.48	17.74	14.95	-38.9	-39.7	23.8	0.00e+00	0	40	0	264241152	50	6237
2026-01-25 15:21:09.49	17.70	15.06	-39.0	-39.9	23.8	0.00e+00	0	41	0	266338304	50	6333
2026-01-25 15:21:10.50	17.66	15.16	-38.8	-39.7	23.9	0.00e+00	0	40	0	268435456	50	6215
2026-01-25 15:21:11.51	17.62	15.27	-38.7	-39.6	24.0	0.00e+00	0	41	0	270532608	50	6119
2026-01-25 15:21:12.52	17.58	15.38	-39.0	-39.9	23.8	0.00e+00	0	41	0	272629760	50	6356
2026-01-25 15:21:13.53	17.54	15.48	-38.6	-39.4	24.2	0.00e+00	0	41	0	273678336	50	6004
2026-01-25 15:21:14.54	17.50	15.59	-38.6	-39.5	24.2	0.00e+00	0	41	0	275775488	50	6044
2026-01-25 15:21:15.55	17.46	15.70	-38.6	-39.5	24.2	0.00e+00	0	40	0	277872640	50	6046
2026-01-25 15:21:16.56	17.42	15.81	-38.6	-39.5	24.2	0.00e+00	0	40	0	279969792	50	6058
2026-01-25 15:21:17.57	17.38	15.92	-38.5	-39.3	24.3	0.00e+00	0	41	0	282066944	50	5961
2026-01-25 15:21:18.58	17.33	16.03	-38.5	-39.3	24.3	0.00e+00	0	40	0	283115520	50	5957
2026-01-25 15:21:19.59	17.29	16.14	-38.5	-39.3	24.3	0.00e+00	0	41	0	285212672	50	5944
2026-01-25 15:21:20.60	17.25	16.25	-38.6	-39.5	24.1	0.00e+00	0	41	0	287309824	50	6074
2026-01-25 15:21:21.61	17.21	16.36	-38.5	-39.3	24.3	0.00e+00	0	41	0	289406976	50	5932
2026-01-25 15:21:22.62	17.16	16.47	-38.6	-39.4	24.2	0.00e+00	0	41	0	291504128	50	6012
2026-01-25 15:21:23.62	17.12	16.58	-38.7	-39.5	24.2	0.00e+00	0	41	0	292552704	50	6091
2026-01-25 15:21:24.63	17.08	16.69	-38.5	-39.4	24.4	0.00e+00	0	41	0	294649856	50	5975
2026-01-25 15:21:25.64	17.03	16.81	-38.3	-39.1	24.4	0.00e+00	0	40	0	296747008	50	5825
2026-01-25 15:21:26.65	16.99	16.92	-38.5	-39.4	24.4	0.00e+00	0	41	0	298844160	50	5978
2026-01-25 15:21:27.66	16.94	17.03	-38.4	-39.2	24.4	0.00e+00	0	41	0	300941312	50	5872
2026-01-25 15:21:28.67	16.90	17.15	-38.4	-39.2	24.5	0.00e+00	0	41	0	301989888	50	5854
2026-01-25 15:21:29.68	16.85	17.26	-38.4	-39.3	24.3	0.00e+00	0	41	0	304087040	50	5913
2026-01-25 15:21:30.69	16.80	17.38	-38.2	-39.0	24.6	0.00e+00	0	41	0	306184192	50	5751
2026-01-25 15:21:31.70	16.76	17.50	-38.3	-39.2	24.4	0.00e+00	0	41	0	308281344	50	5837
2026-01-25 15:21:32.70	16.71	17.61	-38.3	-39.2	24.4	0.00e+00	0	41	0	310378496	50	5836
2026-01-25 15:21:33.71	16.66	17.73	-38.3	-39.1	24.5	0.00e+00	0	41	0	311427072	50	5820
2026-01-25 15:21:34.72	16.61	17.85	-38.3	-39.2	24.5	0.00e+00	0	41	0	313524224	50	5846
2026-01-25 15:21:35.73	16.57	17.96	-38.3	-39.1	24.6	0.00e+00	0	41	0	315621376	50	5785
2026-01-25 15:21:36.73	16.52	18.08	-38.3	-39.1	24.5	0.00e+00	0	41	0	317718528	50	5819
2026-01-25 15:21:37.74	16.47	18.20	-38.2	-39.0	24.6	0.00e+00	0	41	0	319815680	50	5752
2026-01-25 15:21:38.75	16.42	18.32	-38.2	-39.1	24.6	0.00e+00	0	41	0	320864256	50	5787
2026-01-25 15:21:39.76	16.37	18.44	-38.2	-39.1	24.6	0.00e+00	0	41	0	322961408	50	5763
2026-01-25 15:21:40.77	16.32	18.56	-38.6	-39.4	24.3	0.00e+00	0	41	0	325058560	50	6019
2026-01-25 15:21:41.78	16.27	18.68	-38.4	-39.2	24.5	0.00e+00	0	41	0	327155712	50	5876
2026-01-25 15:21:42.79	16.22	18.81	-38.5	-39.3	24.4	0.00e+00	0	41	0	329252864	50	5929
2026-01-25 15:21:43.79	16.17	18.93	-38.6	-39.4	24.3	0.00e+00	0	41	0	330301440	50	6027
2026-01-25 15:21:44.80	16.11	19.05	-38.5	-39.4	24.4	0.00e+00	0	41	0	332398592	50	5973
2026-01-25 15:21:45.81	16.06	19.17	-38.1	-38.9	24.7	0.00e+00	0	41	0	334495744	50	5683
2026-01-25 15:21:46.82	16.01	19.30	-38.1	-38.9	24.7	0.00e+00	0	41	0	336592896	50	5670
2026-01-25 15:21:47.83	15.95	19.42	-38.1	-38.9	24.7	0.00e+00	0	41	0	338690048	50	5690
2026-01-25 15:21:48.84	15.90	19.55	-38.1	-38.9	24.6	0.00e+00	0	41	0	339738624	50	5686
2026-01-25 15:21:49.85	15.85	19.68	-38.0	-38.8	24.4	0.00e+00	0	41	0	341835776	50	5628
2026-01-25 15:21:50.86	15.79	19.80	-38.1	-38.9	24.6	0.00e+00	0	41	0	343932928	50	5644
2026-01-25 15:21:51.87	15.74	19.93	-38.2	-39.0	24.6	0.00e+00	0	41	0	346030080	50	5714
2026-01-25 15:21:52.88	15.68	20.06	-38.2	-39.0	24.5	0.00e+00	0	41	0	348127232	50	5757
2026-01-25 15:21:53.89	15.62	20.19	-38.2	-39.0	24.5	0.00e+00	0	41	0	349175808	50	5761
2026-01-25 15:21:54.90	15.57	20.32	-38.1	-38.9	24.8	0.00e+00	0	41	0	351272960	50	5645
2026-01-25 15:21:55.91	15.51	20.45	-38.0	-38.8	24.8	0.00e+00	0	41	0	353370112	50	5616
2026-01-25 15:21:56.92	15.45	20.58	-38.1	-38.9	24.8	0.00e+00	0	41	0	355467264	50	5647
2026-01-25 15:21:57.93	15.39	20.71	-38.1	-38.9	24.8	0.00e+00	0	41	0	357564416	50	5644
2026-01-25 15:21:58.94	15.33	20.84	-38.0	-38.8	24.8	0.00e+00	0	41	0	358612992	50	5606
2026-01-25 15:21:59.95	15.27	20.97	-38.0	-38.8	24.8	0.00e+00	0	41	0	360710144	50	5629
2026-01-25 15:22:00.96	15.21	21.11	-37.9	-38.7	24.9	0.00e+00	0	41	0	362807296	50	5558
2026-01-25 15:22:01.96	15.15	21.24	-38.0	-38.8	24.8	0.00e+00	0	41	0	364904448	50	5601
2026-01-25 15:22:02.97	15.09	21.38	-38.0	-38.8	24.9	0.00e+00	0	41	0	367001600	50	5588
2026-01-25 15:22:03.98	15.03	21.51	-38.1	-38.9	24.8	0.00e+00	0	41	0	369098752	50	5661
2026-01-25 15:22:04.99	14.97	21.65	-38.0	-38.8	24.9	0.00e+00	0	41	0	370147328	50	5575
2026-01-25 15:22:06.00	14.90	21.78	-38.2	-39.0	24.8	0.00e+00	0	41	0	372244480	50	5705
2026-01-25 15:22:07.01	14.84	21.92	-38.1	-38.9	24.8	0.00e+00	0	41	0	374341632	50	5674
2026-01-25 15:22:08.02	14.78	22.06	-38.0	-38.8	24.9	0.00e+00	0	41	0	376438784	50	5569
2026-01-25 15:22:09.02	14.71	22.20	-38.1	-39.0	24.6	0.00e+00	0	41	0	378535936	50	5697
2026-01-25 15:22:10.03	14.65	22.34	-38.0	-38.8	24.9	0.00e+00	0	41	0	379584512	50	5576
2026-01-25 15:22:11.04	14.58	22.48	-38.0	-38.9	24.8	0.00e+00	0	41	0	381681664	50	5633
2026-01-25 15:22:12.05	14.51	22.62	-38.1	-38.9	24.8	0.00e+00	0	41	0	383778816	50	5636
2026-01-25 15:22:13.06	14.45	22.76	-38.1	-38.9	24.8	0.00e+00	0	41	0	385875968	50	5693
2026-01-25 15:22:14.07	14.38	22.90	-38.1	-38.9	24.8	0.00e+00	0	41	0	387973120	50	5672
2026-01-25 15:22:15.08	14.31	23.05	-38.2	-39.0	24.7	0.00e+00	0	41	0	389021696	50	5718
2026-01-25 15:22:16.09	14.24	23.19	-38.2	-39.0	24.6	0.00e+00	0	41	0	391118848	50	5758
2026-01-25 15:22:17.10	14.17	23.33	-38.2	-39.0	24.6	0.00e+00	0	41	0	393216000	50	5726
2026-01-25 15:22:18.11	14.10	23.48	-38.2	-39.0	24.7	0.00e+00	0	41	0	395313152	50	5755
2026-01-25 15:22:19.12	14.03	23.63	-38.3	-39.1	24.6	0.00e+00	0	41	0	397410304	50	5803
2026-01-25 15:22:20.13	13.96	23.77	-38.2	-39.1	24.7	0.00e+00	0	41	0	398458880	50	5771
2026-01-25 15:22:21.13	13.88	23.92	-38.2	-39.1	24.7	0.00e+00	0	41	0	400556032	50	5764
2026-01-25 15:22:22.14	13.81	24.07	-38.3	-39.1	24.7	0.00e+00	0	41	0	402653184	50	5809
2026-01-25 15:22:23.15	13.74	24.22	-38.4	-39.2	24.6	0.00e+00	0	41	0	404750336	50	5839
2026-01-25 15:22:24.16	13.66	24.37	-38.4	-39.3	24.5	0.00e+00	0	41	0	406847488	50	5901
2026-01-25 15:22:25.17	13.59	24.52	-38.5	-39.3	24.4	0.00e+00	0	41	0	407896064	50	5951
2026-01-25 15:22:26.18	13.51	24.67	-38.6	-39.4	24.1	0.00e+00	0	41	0	409993216	50	6024
2026-01-25 15:22:27.18	13.43	24.82	-38.8	-39.6	23.9	0.00e+00	0	41	0	412090368	50	6168
2026-01-25 15:22:28.19	13.35	24.98	-38.8	-39.6	24.1	0.00e+00	0	41	0	414187520	50	6162
2026-01-25 15:22:29.20	13.28	25.13	-39.0	-39.8	24.1	0.00e+00	0	41	0	416284672	50	6295
2026-01-25 15:22:30.21	13.20	25.29	-38.8	-39.6	24.2	0.00e+00	0	41	0	417333248	50	6155
2026-01-25 15:22:31.22	13.12	25.44	-38.9	-39.8	24.1	0.00e+00	0	41	0	419430400	50	6287
2026-01-25 15:22:32.23	13.03	25.60	-39.1	-40.0	23.9	0.00e+00	0	41	0	421527552	50	6434
2026-01-25 15:22:33.24	12.95	25.76	-39.2	-40.0	23.9	0.00e+00	0	41	0	423624704	50	6449
2026-01-25 15:22:34.25	12.87	25.92	-39.2	-40.0	23.9	0.00e+00	0	41	0	425721856	50	6457
2026-01-25 15:22:35.26	12.78	26.08	-39.3	-40.2	23.8	0.00e+00	0	41	0	426770432	50	6553
2026-01-25 15:22:36.27	12.70	26.24	-39.5	-40.4	23.5	0.00e+00	0	41	0	428867584	50	6727
2026-01-25 15:22:37.28	12.61	26.40	-39.6	-40.5	23.4	0.00e+00	0	41	0	430964736	50	6792
2026-01-25 15:22:38.28	12.53	26.56	-39.8	-40.7	23.3	0.00e+00	0	41	0	433061888	52	6206
2026-01-25 15:22:39.29	12.44	26.72	-40.0	-41.0	23.1	0.00e+00	0	41	0	435159040	52	6409
2026-01-25 15:22:40.30	12.35	26.89	-40.1	-41.1	23.0	0.00e+00	0	41	0	436207616	52	6492
2026-01-25 15:22:41.31	12.26	27.05	-40.3	-41.2	22.8	0.00e+00	0	41	0	438304768	52	6610
2026-01-25 15:22:42.32	12.17	27.22	-40.5	-41.5	22.6	0.00e+00	0	41	0	440401920	52	6830
2026-01-25 15:22:43.34	12.08	27.39	-40.8	-41.9	22.3	0.00e+00	0	41	0	442499072	54	6341
2026-01-25 15:22:44.34	11.99	27.55	-40.9	-41.9	22.1	0.00e+00	0	41	0	444596224	54	6374
2026-01-25 15:22:45.36	11.89	27.72	-41.1	-42.2	21.9	0.00e+00	0	41	0	445644800	54	6580
2026-01-25 15:22:46.37	11.80	27.89	-41.2	-42.3	21.8	0.00e+00	0	41	0	447741952	54	6690
2026-01-25 15:22:47.38	11.70	28.06	-41.3	-42.5	21.7	0.00e+00	0	41	0	449839104	54	6780
2026-01-25 15:22:48.39	11.61	28.23	-41.4	-42.5	21.7	0.00e+00	0	41	0	451936256	54	6841
2026-01-25 15:22:49.39	11.51	28.40	-41.5	-42.6	21.6	0.00e+00	0	41	0	454033408	54	6907
2026-01-25 15:22:50.40	11.41	28.58	-41.6	-42.8	21.5	0.00e+00	0	41	0	455081984	54	7018
2026-01-25 15:22:51.41	11.31	28.75	-41.3	-42.4	21.7	0.00e+00	0	41	0	457179136	54	6768
2026-01-25 15:22:52.42	11.21	28.93	-41.3	-42.4	21.5	0.00e+00	0	41	0	459276288	54	6748
2026-01-25 15:22:53.43	11.11	29.11	-41.5	-42.6	21.6	0.00e+00	0	41	0	461373440	54	6917
2026-01-25 15:22:54.44	11.00	29.28	-41.3	-42.4	21.8	0.00e+00	0	41	0	463470592	54	6747
2026-01-25 15:22:55.45	10.90	29.46	-41.3	-42.4	21.7	0.00e+00	0	41	0	465567744	54	6767
2026-01-25 15:22:56.45	10.79	29.64	-41.4	-42.5	21.8	0.00e+00	0	41	0	466616320	54	6812
2026-01-25 15:22:57.47	10.69	29.82	-41.5	-42.6	21.7	0.00e+00	0	41	0	468713472	54	6909
2026-01-25 15:22:58.47	10.58	30.00	-41.7	-42.8	21.5	0.00e+00	0	41	0	470810624	54	7068
2026-01-25 15:22:59.48	10.47	30.18	-41.6	-42.8	21.4	0.00e+00	0	41	0	472907776	54	7017
2026-01-25 15:23:00.49	10.36	30.37	-42.0	-43.2	21.1	0.00e+00	0	41	0	475004928	56	6582
2026-01-25 15:23:01.50	10.25	30.55	-42.3	-43.5	21.0	0.00e+00	0	41	0	476053504	56	6814
2026-01-25 15:23:02.51	10.13	30.74	-41.9	-43.1	21.3	0.00e+00	0	41	0	478150656	56	6473
2026-01-25 15:23:03.52	10.02	30.93	-41.9	-43.1	21.2	0.00e+00	0	41	0	480247808	56	6525
2026-01-25 15:23:04.53	9.90	31.11	-42.0	-43.2	21.2	0.00e+00	0	41	0	482344960	56	6544
2026-01-25 15:23:05.54	9.78	31.30	-42.3	-43.6	20.8	0.00e+00	0	41	0	484442112	56	6857
2026-01-25 15:23:06.55	9.66	31.49	-42.5	-43.7	20.7	0.00e+00	0	41	0	485490688	56	6990
2026-01-25 15:23:07.56	9.54	31.68	-42.5	-43.8	20.6	0.00e+00	0	41	0	487587840	56	7037
2026-01-25 15:23:08.57	9.42	31.88	-42.7	-44.0	20.4	0.00e+00	0	41	0	489684992	56	7228
2026-01-25 15:23:09.58	9.30	32.07	-42.6	-43.9	20.4	0.00e+00	0	41	0	491782144	56	7139
2026-01-25 15:23:10.59	9.17	32.26	-42.8	-44.2	20.1	0.00e+00	0	41	0	493879296	58	6558
2026-01-25 15:23:11.60	9.05	32.46	-42.8	-44.1	20.3	0.00e+00	0	41	0	494927872	58	6525
2026-01-25 15:23:12.61	8.92	32.66	-42.6	-43.9	20.4	0.00e+00	0	41	0	497025024	58	6373
2026-01-25 15:23:13.62	8.79	32.86	-42.7	-44.0	20.4	0.00e+00	0	41	0	499122176	58	6458
2026-01-25 15:23:14.63	8.66	33.05	-42.8	-44.2	20.3	0.00e+00	0	41	0	501219328	58	6582
2026-01-25 15:23:15.63	8.53	33.25	-42.9	-44.2	20.1	0.00e+00	0	41	0	503316480	58	6590
2026-01-25 15:23:16.64	8.39	33.45	-42.7	-44.0	20.4	0.00e+00	0	41	0	504365056	58	6458
2026-01-25 15:23:17.65	8.25	33.66	-42.7	-44.1	20.3	0.00e+00	0	41	0	506462208	58	6477
2026-01-25 15:23:18.66	8.12	33.86	-42.9	-44.3	20.1	0.00e+00	0	41	0	508559360	58	6625
2026-01-25 15:23:19.67	7.98	34.06	-43.0	-44.4	20.1	0.00e+00	0	41	0	510656512	58	6717
2026-01-25 15:23:20.68	7.83	34.27	-42.9	-44.3	20.1	0.00e+00	0	41	0	512753664	58	6625
2026-01-25 15:23:21.69	7.69	34.48	-43.0	-44.3	20.1	0.00e+00	0	41	0	513802240	58	6684
2026-01-25 15:23:22.69	7.55	34.68	-42.9	-44.3	20.1	0.00e+00	0	41	0	515899392	58	6616
2026-01-25 15:23:23.70	7.40	34.89	-43.1	-44.5	19.9	0.00e+00	0	41	0	517996544	58	6844
2026-01-25 15:23:24.71	7.25	35.10	-43.3	-44.8	19.7	0.00e+00	0	41	0	520093696	58	7027
2026-01-25 15:23:25.72	7.10	35.32	-43.5	-45.0	19.5	0.00e+00	0	41	0	522190848	58	7182
2026-01-25 15:23:26.73	6.94	35.53	-43.5	-45.0	19.4	0.00e+00	0	41	0	523239424	58	7185
2026-01-25 15:23:27.74	6.79	35.74	-43.3	-44.8	19.7	0.00e+00	0	41	0	525336576	58	7066
2026-01-25 15:23:28.75	6.63	35.96	-43.3	-44.8	19.7	0.00e+00	0	41	0	527433728	58	7018
2026-01-25 15:23:29.76	6.47	36.18	-43.1	-44.5	19.9	0.00e+00	0	41	0	529530880	58	6836
2026-01-25 15:23:30.77	6.31	36.39	-43.1	-44.5	20.0	0.00e+00	0	41	0	531628032	58	6794
2026-01-25 15:23:31.78	6.14	36.61	-42.9	-44.3	20.2	0.00e+00	0	41	0	533725184	58	6625
2026-01-25 15:23:32.79	5.98	36.83	-42.9	-44.2	20.2	0.00e+00	0	41	0	534773760	58	6608
2026-01-25 15:23:33.80	5.81	37.05	-43.0	-44.3	20.2	0.00e+00	0	41	0	536870912	58	6674
2026-01-25 15:23:34.81	5.64	37.28	-42.7	-44.0	20.5	0.00e+00	0	41	0	538968064	58	6398
2026-01-25 15:23:35.82	5.46	37.50	-42.4	-43.7	20.7	0.00e+00	0	41	0	541065216	58	6212
2026-01-25 15:23:36.83	5.29	37.73	-42.3	-43.6	20.8	0.00e+00	0	41	0	543162368	58	6141
2026-01-25 15:23:37.83	5.11	37.95	-42.2	-43.4	20.9	0.00e+00	0	41	0	544210944	58	6031
2026-01-25 15:23:38.84	4.93	38.18	-42.2	-43.4	20.9	0.00e+00	0	41	0	546308096	58	6030
2026-01-25 15:23:39.85	4.74	38.41	-42.3	-43.6	20.8	0.00e+00	0	41	0	548405248	58	6121
2026-01-25 15:23:40.86	4.56	38.64	-42.0	-43.1	21.2	0.00e+00	0	41	0	550502400	58	5825
2026-01-25 15:23:41.87	4.37	38.87	-41.9	-43.1	21.2	0.00e+00	0	41	0	552599552	56	6508
2026-01-25 15:23:42.88	4.18	39.10	-42.1	-43.4	21.0	0.00e+00	0	41	0	553648128	56	6706
2026-01-25 15:23:43.89	3.98	39.33	-41.7	-42.9	21.4	0.00e+00	0	41	0	555745280	56	6340
2026-01-25 15:23:44.90	3.78	39.57	-41.8	-43.0	21.4	0.00e+00	0	41	0	557842432	56	6439
2026-01-25 15:23:45.91	3.58	39.80	-41.7	-42.9	21.5	0.00e+00	0	41	0	559939584	56	6336
2026-01-25 15:23:46.92	3.38	40.04	-41.3	-42.5	21.9	0.00e+00	0	41	0	562036736	56	6034
2026-01-25 15:23:47.93	3.17	40.28	-41.3	-42.4	21.9	0.00e+00	0	41	0	563085312	56	6010
2026-01-25 15:23:48.94	2.96	40.52	-41.3	-42.3	22.0	0.00e+00	0	41	0	565182464	56	5959
2026-01-25 15:23:49.95	2.75	40.76	-41.3	-42.4	21.9	0.00e+00	0	41	0	567279616	56	5980
2026-01-25 15:23:50.96	2.54	41.00	-41.1	-42.2	22.1	0.00e+00	0	41	0	569376768	56	5866
2026-01-25 15:23:51.97	2.32	41.24	-41.1	-42.1	22.2	0.00e+00	0	41	0	571473920	56	5820
2026-01-25 15:23:52.98	2.09	41.49	-41.1	-42.1	22.2	0.00e+00	0	41	0	572522496	56	5805
2026-01-25 15:23:53.98	1.87	41.73	-40.9	-42.0	22.3	0.00e+00	0	41	0	574619648	56	5715
2026-01-25 15:23:54.99	1.64	41.98	-40.9	-42.0	22.4	0.00e+00	0	41	0	576716800	56	5721
2026-01-25 15:23:56.00	1.41	42.22	-41.0	-42.1	22.2	0.00e+00	0	41	0	578813952	56	5767
2026-01-25 15:23:57.01	1.17	42.47	-41.1	-42.1	22.1	0.00e+00	0	41	0	580911104	56	5821
2026-01-25 15:23:58.02	0.93	42.72	-41.1	-42.1	22.1	0.00e+00	0	41	0	581959680	56	5814
2026-01-25 15:23:59.03	0.68	42.97	-41.1	-42.2	22.0	0.00e+00	0	41	0	584056832	56	5860
2026-01-25 15:24:00.04	0.43	43.22	-40.9	-41.9	22.3	0.00e+00	0	41	0	586153984	56	5692
2026-01-25 15:24:01.05	0.18	43.48	-40.7	-41.8	22.4	0.00e+00	0	41	0	588251136	54	6261
2026-01-25 15:24:02.06	359.92	43.73	-40.7	-41.7	22.5	0.00e+00	0	41	0	590348288	54	6197
2026-01-25 15:24:03.07	359.66	43.99	-40.7	-41.8	22.5	0.00e+00	0	41	0	591396864	54	6263
2026-01-25 15:24:04.08	359.40	44.24	-40.7	-41.8	22.4	0.00e+00	0	41	0	593494016	54	6262
2026-01-25 15:24:05.09	359.13	44.50	-40.5	-41.5	22.7	0.00e+00	0	41	0	595591168	54	6048
2026-01-25 15:24:06.10	358.86	44.76	-40.3	-41.3	22.9	0.00e+00	0	41	0	597688320	54	5906
2026-01-25 15:24:07.11	358.58	45.02	-39.9	-40.9	23.2	0.00e+00	0	41	0	599785472	54	5655
2026-01-25 15:24:08.12	358.29	45.28	-39.8	-40.8	23.3	0.00e+00	0	41	0	601882624	54	5569
2026-01-25 15:24:09.12	358.01	45.53	-39.9	-40.8	23.3	0.00e+00	0	41	0	602931200	54	5591
2026-01-25 15:24:10.13	357.72	45.80	-39.9	-40.8	23.2	0.00e+00	0	41	0	605028352	54	5629
2026-01-25 15:24:11.14	357.42	46.06	-39.7	-40.6	23.5	0.00e+00	0	41	0	607125504	52	6153
2026-01-25 15:24:12.15	357.12	46.32	-39.5	-40.4	23.6	0.00e+00	0	41	0	609222656	52	6007
2026-01-25 15:24:13.16	356.81	46.58	-39.7	-40.6	23.1	0.00e+00	0	41	0	610271232	52	6162
2026-01-25 15:24:14.17	356.49	46.85	-40.0	-40.9	23.2	0.00e+00	0	41	0	612368384	52	6343
2026-01-25 15:24:15.18	356.18	47.11	-40.3	-41.3	22.9	0.00e+00	0	41	0	614465536	52	6663
2026-01-25 15:24:16.19	355.85	47.38	-40.6	-41.6	22.5	0.00e+00	0	41	0	616562688	52	6857
2026-01-25 15:24:17.20	355.52	47.65	-40.7	-41.7	22.5	0.00e+00	0	41	0	618659840	52	6974
2026-01-25 15:24:18.20	355.19	47.91	-40.8	-41.8	22.4	0.00e+00	0	41	0	619708416	54	6279
2026-01-25 15:24:19.21	354.85	48.18	-40.7	-41.7	22.5	0.00e+00	0	41	0	621805568	54	6228
2026-01-25 15:24:20.22	354.50	48.45	-40.5	-41.5	22.7	0.00e+00	0	41	0	623902720	54	6055
2026-01-25 15:24:21.23	354.15	48.72	-40.0	-40.9	23.1	0.00e+00	0	41	0	625999872	54	5685
2026-01-25 15:24:22.24	353.79	48.99	-40.0	-41.0	23.1	0.00e+00	0	41	0	628097024	54	5722
2026-01-25 15:24:23.25	353.42	49.26	-40.0	-41.0	23.1	0.00e+00	0	41	0	630194176	54	5724
2026-01-25 15:24:24.26	353.05	49.53	-39.8	-40.7	23.4	0.00e+00	0	41	0	631242752	54	5531
2026-01-25 15:24:25.27	352.67	49.80	-39.6	-40.5	23.6	0.00e+00	0	41	0	633339904	52	6049
2026-01-25 15:24:26.28	352.28	50.07	-39.3	-40.2	23.9	0.00e+00	0	41	0	635437056	52	5846
2026-01-25 15:24:27.28	351.89	50.34	-39.3	-40.2	23.8	0.00e+00	0	41	0	637534208	52	5884
2026-01-25 15:24:28.29	351.49	50.61	-39.3	-40.2	23.8	0.00e+00	0	41	0	639631360	52	5843
2026-01-25 15:24:29.30	351.08	50.88	-39.3	-40.2	23.8	0.00e+00	0	41	0	640679936	52	5889
2026-01-25 15:24:30.31	350.67	51.15	-39.6	-40.5	23.5	0.00e+00	0	41	0	642777088	52	6069
2026-01-25 15:24:31.32	350.25	51.42	-39.6	-40.6	23.6	0.00e+00	0	41	0	644874240	52	6109
2026-01-25 15:24:32.33	349.81	51.69	-39.6	-40.5	23.6	0.00e+00	0	41	0	646971392	52	6067
2026-01-25 15:24:33.34	349.38	51.96	-39.1	-40.0	24.0	0.00e+00	0	41	0	649068544	52	5698
2026-01-25 15:24:34.35	348.93	52.23	-39.1	-40.0	24.0	0.00e+00	0	41	0	650117120	52	5713
2026-01-25 15:24:35.36	348.47	52.50	-38.7	-39.6	24.3	0.00e+00	0	41	0	652214272	50	6113
2026-01-25 15:24:36.37	348.01	52.77	-38.6	-39.4	23.5	0.00e+00	0	41	0	654311424	50	5998
2026-01-25 15:24:37.38	347.54	53.04	-38.6	-39.4	24.4	0.00e+00	0	41	0	656408576	50	6010
2026-01-25 15:24:38.39	347.06	53.31	-38.6	-39.5	24.4	0.00e+00	0	41	0	658505728	50	6075
2026-01-25 15:24:39.40	346.57	53.58	-38.8	-39.7	24.2	0.00e+00	0	41	0	659554304	50	6213
2026-01-25 15:24:40.41	346.07	53.84	-39.1	-40.0	24.0	0.00e+00	0	41	0	661651456	50	6418
2026-01-25 15:24:41.41	345.56	54.11	-39.3	-40.2	23.8	0.00e+00	0	41	0	663748608	50	6544
2026-01-25 15:24:42.42	345.04	54.37	-39.4	-40.3	23.7	0.00e+00	0	41	0	665845760	50	6668
2026-01-25 15:24:43.43	344.52	54.64	-39.6	-40.5	23.3	0.00e+00	0	41	0	667942912	50	6818
2026-01-25 15:24:44.44	343.98	54.90	-39.6	-40.5	23.5	0.00e+00	0	41	0	668991488	50	6800
2026-01-25 15:24:45.45	343.43	55.16	-39.3	-40.2	23.7	0.00e+00	0	41	0	671088640	50	6576
2026-01-25 15:24:46.46	342.87	55.42	-39.3	-40.2	23.8	0.00e+00	0	41	0	673185792	50	6585
2026-01-25 15:24:47.47	342.30	55.68	-39.3	-40.2	23.8	0.00e+00	0	41	0	675282944	50	6573
2026-01-25 15:24:48.48	341.72	55.94	-39.3	-40.3	23.6	0.00e+00	0	41	0	677380096	50	6631
2026-01-25 15:24:49.49	341.13	56.19	-39.3	-40.2	23.4	0.00e+00	0	41	0	678428672	50	6609
2026-01-25 15:24:50.49	340.54	56.44	-39.5	-40.4	23.5	0.00e+00	0	41	0	680525824	50	6756
2026-01-25 15:24:51.50	339.93	56.70	-39.9	-40.9	23.1	0.00e+00	0	41	0	682622976	52	6330
2026-01-25 15:24:52.51	339.30	56.94	-40.5	-41.5	22.5	0.00e+00	0	41	0	684720128	52	6795
2026-01-25 15:24:53.52	338.67	57.19	-41.0	-42.0	22.1	0.00e+00	0	41	0	686817280	54	6458
2026-01-25 15:24:54.52	338.03	57.43	-41.4	-42.6	21.6	0.00e+00	0	41	0	687865856	54	6907
2026-01-25 15:24:55.53	337.37	57.68	-41.8	-43.0	21.2	0.00e+00	0	41	0	689963008	56	6455
2026-01-25 15:24:56.54	336.70	57.92	-41.7	-42.9	21.4	0.00e+00	0	41	0	692060160	56	6351
2026-01-25 15:24:57.55	336.02	58.15	-41.3	-42.4	21.9	0.00e+00	0	41	0	694157312	56	6028
2026-01-25 15:24:58.56	335.32	58.39	-41.1	-42.3	22.0	0.00e+00	0	41	0	696254464	56	5897
2026-01-25 15:24:59.57	334.61	58.62	-41.3	-42.4	21.8	0.00e+00	0	41	0	698351616	56	6020
2026-01-25 15:25:00.58	333.89	58.85	-41.1	-42.2	22.0	0.00e+00	0	41	0	699400192	56	5851
2026-01-25 15:25:01.59	333.16	59.07	-40.9	-42.0	22.1	0.00e+00	0	41	0	701497344	56	5738
2026-01-25 15:25:02.60	332.42	59.29	-41.0	-42.1	22.1	0.00e+00	0	41	0	703594496	56	5817
2026-01-25 15:25:03.61	331.66	59.51	-40.8	-41.8	22.5	0.00e+00	0	41	0	705691648	56	5624
2026-01-25 15:25:04.62	330.89	59.72	-40.6	-41.7	22.3	0.00e+00	0	41	0	707788800	54	6188
2026-01-25 15:25:05.63	330.11	59.93	-40.7	-41.7	22.5	0.00e+00	0	41	0	708837376	54	6202
2026-01-25 15:25:06.64	329.32	60.14	-40.6	-41.7	22.2	0.00e+00	0	41	0	710934528	54	6221
2026-01-25 15:25:07.65	328.51	60.34	-40.1	-41.1	22.9	0.00e+00	0	41	0	713031680	54	5809
2026-01-25 15:25:08.66	327.69	60.53	-39.2	-40.1	23.9	0.00e+00	0	41	0	715128832	52	5784
2026-01-25 15:25:09.66	326.86	60.72	-38.2	-39.0	24.7	0.00e+00	0	41	0	717225984	50	5743
2026-01-25 15:25:10.67	326.02	60.91	-38.1	-38.9	24.8	0.00e+00	0	41	0	718274560	50	5690
2026-01-25 15:25:11.68	325.16	61.09	-38.1	-38.9	24.8	0.00e+00	0	41	0	720371712	50	5641
2026-01-25 15:25:12.69	324.29	61.27	-38.0	-38.8	24.8	0.00e+00	0	41	0	722468864	50	5616
2026-01-25 15:25:13.70	323.40	61.44	-38.1	-38.9	24.8	0.00e+00	0	41	0	724566016	50	5639
2026-01-25 15:25:14.70	322.52	61.60	-38.1	-38.9	24.9	0.00e+00	0	41	0	726663168	50	5668
2026-01-25 15:25:15.71	321.61	61.76	-37.7	-38.5	25.2	0.00e+00	0	41	0	727711744	48	6066
2026-01-25 15:25:16.72	320.69	61.91	-37.7	-38.4	25.2	0.00e+00	0	41	0	729808896	48	6032
2026-01-25 15:25:17.73	319.76	62.06	-37.4	-38.2	25.4	0.00e+00	0	41	0	731906048	48	5872
2026-01-25 15:25:18.74	318.82	62.20	-37.4	-38.2	25.3	0.00e+00	0	41	0	734003200	48	5852
2026-01-25 15:25:19.75	317.87	62.34	-37.5	-38.3	25.4	0.00e+00	0	41	0	736100352	48	5905
2026-01-25 15:25:20.76	316.91	62.46	-37.3	-38.0	25.5	0.00e+00	0	41	0	737148928	48	5760
2026-01-25 15:25:21.77	315.94	62.58	-37.2	-38.0	25.6	0.00e+00	0	41	0	739246080	48	5728
2026-01-25 15:25:22.78	314.96	62.70	-37.1	-37.8	25.7	0.00e+00	0	41	0	741343232	48	5613
2026-01-25 15:25:23.79	313.97	62.81	-37.2	-38.0	25.7	0.00e+00	0	41	0	743440384	48	5720
2026-01-25 15:25:24.80	312.97	62.91	-36.6	-37.4	26.1	0.00e+00	0	41	0	745537536	46	5982
2026-01-25 15:25:25.81	311.96	63.00	-36.5	-37.3	26.1	0.00e+00	0	41	0	746586112	46	5914
2026-01-25 15:25:26.82	310.95	63.09	-36.7	-37.4	26.0	0.00e+00	0	41	0	748683264	46	6012
2026-01-25 15:25:27.83	309.92	63.17	-36.5	-37.2	26.2	0.00e+00	0	41	0	750780416	46	5859
2026-01-25 15:25:28.83	308.90	63.24	-36.4	-37.1	26.2	0.00e+00	0	41	0	752877568	46	5807
2026-01-25 15:25:29.84	307.87	63.30	-36.5	-37.2	26.3	0.00e+00	0	41	0	754974720	46	5893
2026-01-25 15:25:30.85	306.83	63.35	-36.6	-37.4	26.0	0.00e+00	0	41	0	756023296	46	5982
2026-01-25 15:25:31.86	305.79	63.40	-36.7	-37.4	26.1	0.00e+00	0	41	0	758120448	46	5989
2026-01-25 15:25:32.86	304.75	63.44	-36.6	-37.4	26.0	0.00e+00	0	41	0	760217600	46	5998
2026-01-25 15:25:33.87	303.70	63.47	-36.7	-37.4	25.9	0.00e+00	0	41	0	762314752	46	6031
2026-01-25 15:25:34.88	302.64	63.50	-36.6	-37.4	26.0	0.00e+00	0	41	0	764411904	46	5979
2026-01-25 15:25:35.89	301.59	63.51	-36.1	-36.8	26.4	0.00e+00	0	41	0	765460480	46	5587
2026-01-25 15:25:36.90	300.53	63.52	-36.1	-36.8	26.4	0.00e+00	0	41	0	767557632	46	5606
2026-01-25 15:25:37.90	299.48	63.52	-35.8	-36.5	26.7	0.00e+00	0	41	0	769654784	46	5431
2026-01-25 15:25:38.91	298.43	63.51	-35.6	-36.3	25.1	0.00e+00	0	41	0	771751936	44	5906
2026-01-25 15:25:39.92	297.37	63.50	-35.4	-36.1	27.0	0.00e+00	0	41	0	773849088	44	5781
2026-01-25 15:25:40.93	296.32	63.47	-35.4	-36.1	27.0	0.00e+00	0	41	0	774897664	44	5765
2026-01-25 15:25:41.94	295.26	63.44	-35.8	-36.5	26.6	0.00e+00	0	41	0	776994816	44	6047
2026-01-25 15:25:42.95	294.22	63.40	-36.1	-36.8	26.4	0.00e+00	0	41	0	779091968	44	6310
2026-01-25 15:25:43.96	293.17	63.35	-36.2	-36.9	26.4	0.00e+00	0	41	0	781189120	44	6347
2026-01-25 15:25:44.97	292.13	63.30	-36.4	-37.1	26.3	0.00e+00	0	41	0	783286272	44	6537
2026-01-25 15:25:45.98	291.10	63.24	-36.4	-37.1	26.3	0.00e+00	0	41	0	784334848	44	6539
2026-01-25 15:25:46.99	290.07	63.16	-36.6	-37.3	26.1	0.00e+00	0	41	0	786432000	44	6644
2026-01-25 15:25:48.00	289.05	63.09	-36.3	-37.1	26.3	0.00e+00	0	41	0	788529152	44	6482
2026-01-25 15:25:49.01	288.03	63.00	-36.6	-37.4	26.0	0.00e+00	0	41	0	790626304	44	6719
2026-01-25 15:25:50.02	287.02	62.91	-37.0	-37.8	25.9	0.00e+00	0	41	0	792723456	46	6261
2026-01-25 15:25:51.03	286.02	62.81	-37.1	-37.8	25.7	0.00e+00	0	41	0	794820608	46	6316
2026-01-25 15:25:52.04	285.03	62.70	-37.3	-38.0	25.6	0.00e+00	0	41	0	795869184	46	6445
2026-01-25 15:25:53.04	284.06	62.58	-37.0	-37.8	25.8	0.00e+00	0	41	0	797966336	46	6260
2026-01-25 15:25:54.05	283.09	62.46	-37.0	-37.7	25.8	0.00e+00	0	41	0	800063488	46	6243
2026-01-25 15:25:55.06	282.12	62.33	-36.9	-37.6	25.9	0.00e+00	0	41	0	802160640	46	6160
2026-01-25 15:25:56.07	281.17	62.20	-36.8	-37.6	26.0	0.00e+00	0	41	0	804257792	46	6126
2026-01-25 15:25:57.08	280.23	62.06	-36.8	-37.6	25.9	0.00e+00	0	41	0	805306368	46	6106
2026-01-25 15:25:58.09	279.30	61.91	-36.7	-37.5	26.0	0.00e+00	0	41	0	807403520	46	6065
2026-01-25 15:25:59.10	278.38	61.76	-36.8	-37.5	25.9	0.00e+00	0	41	0	809500672	46	6097
2026-01-25 15:26:00.11	277.47	61.60	-37.0	-37.8	25.7	0.00e+00	0	41	0	811597824	46	6286
2026-01-25 15:26:01.12	276.58	61.43	-37.1	-37.9	25.6	0.00e+00	0	41	0	813694976	46	6375
2026-01-25 15:26:02.13	275.70	61.26	-37.3	-38.1	25.5	0.00e+00	0	41	0	814743552	46	6483
2026-01-25 15:26:03.14	274.82	61.08	-37.5	-38.2	25.4	0.00e+00	0	41	0	816840704	46	6605
2026-01-25 15:26:04.15	273.97	60.90	-37.9	-38.7	25.0	0.00e+00	0	41	0	818937856	48	6210
2026-01-25 15:26:05.15	273.13	60.72	-37.9	-38.7	25.0	0.00e+00	0	41	0	821035008	48	6192
2026-01-25 15:26:06.16	272.29	60.53	-38.0	-38.8	25.0	0.00e+00	0	41	0	823132160	48	6279
2026-01-25 15:26:07.17	271.47	60.33	-38.1	-38.9	24.8	0.00e+00	0	41	0	824180736	48	6386
2026-01-25 15:26:08.18	270.66	60.13	-38.5	-39.4	24.4	0.00e+00	0	41	0	826277888	48	6714
2026-01-25 15:26:09.19	269.87	59.92	-39.3	-40.3	23.6	0.00e+00	0	41	0	828375040	50	6621
2026-01-25 15:26:10.20	269.09	59.71	-40.4	-41.4	22.6	0.00e+00	0	41	0	830472192	52	6734
2026-01-25 15:26:11.21	268.31	59.50	-40.7	-41.9	22.3	0.00e+00	0	41	0	832569344	54	6318
2026-01-25 15:26:12.22	267.56	59.28	-40.8	-41.9	22.3	0.00e+00	0	41	0	833617920	54	6369
2026-01-25 15:26:13.23	266.81	59.06	-40.9	-42.0	22.1	0.00e+00	0	41	0	835715072	54	6404
2026-01-25 15:26:14.24	266.08	58.84	-41.2	-42.4	21.9	0.00e+00	0	41	0	837812224	54	6716
2026-01-25 15:26:15.25	265.36	58.61	-41.3	-42.5	21.8	0.00e+00	0	41	0	839909376	54	6787
2026-01-25 15:26:16.25	264.66	58.38	-41.3	-42.5	21.7	0.00e+00	0	41	0	842006528	54	6770
2026-01-25 15:26:17.26	263.96	58.15	-41.2	-42.4	21.6	0.00e+00	0	41	0	843055104	54	6736
2026-01-25 15:26:18.27	263.28	57.91	-41.4	-42.6	21.3	0.00e+00	0	41	0	845152256	54	6894
2026-01-25 15:26:19.28	262.61	57.67	-41.6	-42.9	21.4	0.00e+00	0	41	0	847249408	54	7091
2026-01-25 15:26:20.29	261.95	57.42	-41.7	-42.9	21.4	0.00e+00	0	41	0	849346560	56	6356
2026-01-25 15:26:21.30	261.30	57.18	-41.2	-42.3	21.9	0.00e+00	0	41	0	851443712	56	5953
2026-01-25 15:26:22.30	260.67	56.93	-40.8	-41.9	22.3	0.00e+00	0	41	0	852492288	56	5644
2026-01-25 15:26:23.31	260.05	56.68	-40.5	-41.6	22.6	0.00e+00	0	41	0	854589440	54	6149
2026-01-25 15:26:24.33	259.43	56.43	-40.5	-41.6	22.7	0.00e+00	0	41	0	856686592	54	6134
2026-01-25 15:26:25.34	258.83	56.17	-40.3	-41.3	22.9	0.00e+00	0	41	0	858783744	54	5952
2026-01-25 15:26:26.34	258.24	55.92	-40.1	-41.2	23.0	0.00e+00	0	41	0	860880896	54	5846
2026-01-25 15:26:27.35	257.66	55.66	-39.7	-40.7	23.4	0.00e+00	0	41	0	861929472	52	6218
2026-01-25 15:26:28.36	257.09	55.40	-39.3	-40.3	23.8	0.00e+00	0	41	0	864026624	52	5921
2026-01-25 15:26:29.37	256.54	55.14	-39.1	-40.0	24.0	0.00e+00	0	41	0	866123776	52	5716
2026-01-25 15:26:30.38	255.99	54.88	-38.8	-39.7	24.3	0.00e+00	0	41	0	868220928	50	6181
2026-01-25 15:26:31.39	255.45	54.62	-38.7	-39.6	24.3	0.00e+00	0	41	0	870318080	50	6123
2026-01-25 15:26:32.40	254.92	54.35	-38.7	-39.6	24.3	0.00e+00	0	41	0	871366656	50	6141
2026-01-25 15:26:33.41	254.40	54.09	-38.8	-39.6	24.3	0.00e+00	0	41	0	873463808	50	6168
2026-01-25 15:26:34.41	253.90	53.82	-38.8	-39.6	24.3	0.00e+00	0	41	0	875560960	50	6168
2026-01-25 15:26:35.42	253.40	53.55	-39.0	-39.9	24.0	0.00e+00	0	41	0	877658112	50	6365
2026-01-25 15:26:36.43	252.91	53.29	-39.5	-40.4	23.6	0.00e+00	0	41	0	879755264	50	6755
2026-01-25 15:26:37.44	252.42	53.02	-39.6	-40.6	23.4	0.00e+00	0	41	0	880803840	50	6866
2026-01-25 15:26:38.44	251.96	52.75	-39.7	-40.7	23.5	0.00e+00	0	41	0	882900992	50	6929
2026-01-25 15:26:39.45	251.49	52.48	-39.8	-40.7	23.3	0.00e+00	0	41	0	884998144	52	6219
2026-01-25 15:26:40.46	251.04	52.21	-40.1	-41.0	23.0	0.00e+00	0	41	0	887095296	52	6453
2026-01-25 15:26:41.47	250.59	51.94	-40.3	-41.3	22.8	0.00e+00	0	41	0	889192448	52	6691
2026-01-25 15:26:42.48	250.15	51.67	-40.6	-41.6	22.6	0.00e+00	0	41	0	891289600	52	6926
2026-01-25 15:26:43.49	249.72	51.39	-40.7	-41.7	22.4	0.00e+00	0	41	0	892338176	54	6211
2026-01-25 15:26:44.50	249.29	51.12	-41.0	-42.1	22.0	0.00e+00	0	41	0	894435328	54	6517
2026-01-25 15:26:45.51	248.88	50.85	-41.0	-42.0	22.2	0.00e+00	0	41	0	896532480	54	6452
2026-01-25 15:26:46.52	248.47	50.58	-41.4	-42.5	21.7	0.00e+00	0	41	0	898629632	54	6818
2026-01-25 15:26:47.53	248.07	50.31	-41.7	-42.9	21.4	0.00e+00	0	41	0	900726784	54	7119
2026-01-25 15:26:48.54	247.67	50.04	-42.1	-43.3	21.0	0.00e+00	0	41	0	901775360	56	6675
2026-01-25 15:26:49.55	247.29	49.76	-42.5	-43.8	20.7	0.00e+00	0	41	0	903872512	56	7034
2026-01-25 15:26:50.56	246.91	49.49	-42.7	-44.1	20.4	0.00e+00	0	41	0	905969664	56	7261
2026-01-25 15:26:51.57	246.53	49.22	-42.3	-43.6	20.8	0.00e+00	0	41	0	908066816	56	6884
2026-01-25 15:26:52.57	246.17	48.95	-42.4	-43.7	20.8	0.00e+00	0	41	0	910163968	56	6946
2026-01-25 15:26:53.58	245.81	48.68	-42.0	-43.2	21.2	0.00e+00	0	41	0	911212544	56	6600
2026-01-25 15:26:54.59	245.45	48.41	-42.1	-43.3	21.2	0.00e+00	0	41	0	913309696	56	6646
2026-01-25 15:26:55.60	245.11	48.15	-41.8	-43.0	21.4	0.00e+00	0	41	0	915406848	56	6428
2026-01-25 15:26:56.61	244.76	47.88	-41.4	-42.5	21.7	0.00e+00	0	41	0	917504000	56	6090
2026-01-25 15:26:57.62	244.43	47.61	-41.1	-42.2	22.2	0.00e+00	0	41	0	919601152	56	5830
2026-01-25 15:26:58.63	244.10	47.34	-40.9	-41.9	22.3	0.00e+00	0	41	0	920649728	56	5682
2026-01-25 15:26:59.64	243.77	47.07	-40.7	-41.7	22.5	0.00e+00	0	41	0	922746880	56	5556
2026-01-25 15:27:00.64	243.46	46.81	-40.6	-41.7	22.5	0.00e+00	0	41	0	924844032	54	6175
2026-01-25 15:27:01.66	243.14	46.54	-40.4	-41.4	22.8	0.00e+00	0	41	0	926941184	54	6021
2026-01-25 15:27:02.66	242.84	46.28	-40.5	-41.5	22.6	0.00e+00	0	41	0	929038336	54	6101
2026-01-25 15:27:03.67	242.53	46.02	-40.5	-41.5	22.7	0.00e+00	0	41	0	930086912	54	6088
2026-01-25 15:27:04.68	242.23	45.75	-40.4	-41.4	22.8	0.00e+00	0	41	0	932184064	54	6009
2026-01-25 15:27:05.69	241.94	45.49	-40.1	-41.0	23.1	0.00e+00	0	41	0	934281216	54	5747
2026-01-25 15:27:06.70	241.65	45.23	-40.3	-41.2	22.9	0.00e+00	0	41	0	936378368	54	5892
2026-01-25 15:27:07.71	241.37	44.97	-40.5	-41.5	22.6	0.00e+00	0	41	0	938475520	54	6085
2026-01-25 15:27:08.72	241.09	44.71	-40.8	-41.8	22.4	0.00e+00	0	41	0	939524096	54	6303
2026-01-25 15:27:09.73	240.82	44.45	-40.9	-42.0	22.2	0.00e+00	0	41	0	941621248	54	6405
2026-01-25 15:27:10.74	240.55	44.19	-41.2	-42.3	22.0	0.00e+00	0	41	0	943718400	54	6632
2026-01-25 15:27:11.75	240.28	43.94	-41.4	-42.5	21.8	0.00e+00	0	41	0	945815552	54	6811
2026-01-25 15:27:12.76	240.02	43.68	-41.4	-42.5	21.8	0.00e+00	0	41	0	947912704	54	6803
2026-01-25 15:27:13.77	239.76	43.43	-41.2	-42.3	21.9	0.00e+00	0	41	0	948961280	54	6648
2026-01-25 15:27:14.78	239.51	43.17	-41.2	-42.3	21.8	0.00e+00	0	41	0	951058432	54	6635
2026-01-25 15:27:15.79	239.26	42.92	-41.4	-42.5	21.7	0.00e+00	0	41	0	953155584	54	6838
2026-01-25 15:27:16.80	239.02	42.67	-41.5	-42.5	21.5	0.00e+00	0	41	0	955252736	54	6841
2026-01-25 15:27:17.80	238.78	42.42	-41.8	-43.0	21.4	0.00e+00	0	41	0	957349888	56	6397
2026-01-25 15:27:18.82	238.54	42.17	-42.1	-43.3	20.8	0.00e+00	0	41	0	959447040	56	6640
2026-01-25 15:27:19.82	238.30	41.92	-42.7	-44.0	20.5	0.00e+00	0	41	0	960495616	56	7200
2026-01-25 15:27:20.83	238.07	41.68	-43.3	-44.8	19.6	0.00e+00	0	41	0	962592768	58	7019
2026-01-25 15:27:21.84	237.85	41.43	-43.6	-45.1	19.4	0.00e+00	0	41	0	964689920	58	7318
2026-01-25 15:27:22.85	237.62	41.19	-43.7	-45.3	18.9	0.00e+00	0	41	0	966787072	60	6658
2026-01-25 15:27:23.86	237.40	40.94	-43.8	-45.3	19.3	0.00e+00	0	41	0	968884224	60	6672
2026-01-25 15:27:24.87	237.19	40.70	-43.5	-45.0	19.6	0.00e+00	0	41	0	969932800	60	6409
2026-01-25 15:27:25.88	236.97	40.46	-43.5	-44.9	19.6	0.00e+00	0	41	0	972029952	60	6380
2026-01-25 15:27:26.89	236.76	40.22	-43.7	-45.2	19.4	0.00e+00	0	41	0	974127104	60	6612
2026-01-25 15:27:27.90	236.56	39.98	-43.9	-45.4	19.1	0.00e+00	0	41	0	976224256	60	6755
2026-01-25 15:27:28.91	236.35	39.74	-44.0	-45.6	19.1	0.00e+00	0	41	0	977272832	60	6857
2026-01-25 15:27:29.92	236.15	39.51	-44.2	-45.9	18.6	0.00e+00	0	41	0	979369984	60	7135
2026-01-25 15:27:30.93	235.95	39.27	-44.3	-46.0	18.5	0.00e+00	0	41	0	981467136	60	7213
2026-01-25 15:27:31.93	235.76	39.04	-44.3	-46.0	18.7	0.00e+00	0	41	0	983564288	60	7180
2026-01-25 15:27:32.94	235.57	38.81	-44.2	-45.8	18.7	0.00e+00	0	41	0	985661440	60	7075
2026-01-25 15:27:33.95	235.38	38.57	-44.3	-46.0	18.5	0.00e+00	0	41	0	987758592	60	7197
2026-01-25 15:27:34.96	235.19	38.34	-44.2	-45.9	18.8	0.00e+00	0	41	0	988807168	60	7133
2026-01-25 15:27:35.97	235.01	38.11	-44.1	-45.8	18.7	0.00e+00	0	41	0	990904320	60	7071
2026-01-25 15:27:36.98	234.83	37.89	-44.1	-45.9	18.6	0.00e+00	0	41	0	993001472	60	7100
2026-01-25 15:27:37.98	234.65	37.66	-44.2	-45.9	18.7	0.00e+00	0	41	0	995098624	60	7108
2026-01-25 15:27:38.99	234.47	37.44	-43.9	-45.5	19.1	0.00e+00	0	41	0	997195776	60	6799
2026-01-25 15:27:40.00	234.30	37.21	-43.9	-45.5	19.0	0.00e+00	0	41	0	998244352	60	6821
2026-01-25 15:27:41.01	234.13	36.99	-43.6	-45.2	19.3	0.00e+00	0	41	0	1000341504	60	6579
2026-01-25 15:27:42.02	233.96	36.77	-43.3	-44.8	19.8	0.00e+00	0	41	0	1002438656	60	6303
2026-01-25 15:27:43.03	233.79	36.54	-42.5	-43.9	20.6	0.00e+00	0	41	0	1004535808	58	6321
2026-01-25 15:27:44.04	233.63	36.33	-42.1	-43.3	21.2	0.00e+00	0	41	0	1006632960	58	5918
2026-01-25 15:27:45.05	233.46	36.11	-42.0	-43.2	21.4	0.00e+00	0	41	0	1007681536	58	5873
2026-01-25 15:27:46.06	233.30	35.89	-42.0	-43.3	21.1	0.00e+00	0	41	0	1009778688	58	5917
2026-01-25 15:27:47.07	233.14	35.67	-42.4	-43.7	20.8	0.00e+00	0	41	0	1011875840	58	6198
2026-01-25 15:27:48.08	232.99	35.46	-42.6	-43.9	20.5	0.00e+00	0	41	0	1013972992	58	6377
2026-01-25 15:27:49.09	232.83	35.24	-42.5	-43.8	20.6	0.00e+00	0	41	0	1016070144	58	6278
2026-01-25 15:27:50.10	232.68	35.03	-42.3	-43.6	20.8	0.00e+00	0	41	0	1017118720	58	6139
2026-01-25 15:27:51.11	232.53	34.82	-42.3	-43.6	20.8	0.00e+00	0	41	0	1019215872	58	6153
2026-01-25 15:27:52.12	232.38	34.61	-42.0	-43.3	21.0	0.00e+00	0	41	0	1021313024	58	5919
2026-01-25 15:27:53.12	232.24	34.40	-42.0	-43.2	21.1	0.00e+00	0	41	0	1023410176	58	5891
2026-01-25 15:27:54.14	232.09	34.19	-41.7	-42.9	21.5	0.00e+00	0	41	0	1025507328	56	6347
2026-01-25 15:27:55.14	231.95	33.99	-41.8	-43.0	21.4	0.00e+00	0	41	0	1026555904	56	6405
2026-01-25 15:27:56.15	231.81	33.78	-41.5	-42.6	21.7	0.00e+00	0	41	0	1028653056	56	6167
2026-01-25 15:27:57.16	231.67	33.58	-41.6	-42.7	21.7	0.00e+00	0	41	0	1030750208	56	6222
2026-01-25 15:27:58.17	231.54	33.38	-41.6	-42.8	21.6	0.00e+00	0	41	0	1032847360	56	6259
2026-01-25 15:27:59.18	231.40	33.17	-41.8	-42.9	21.5	0.00e+00	0	41	0	1034944512	56	6390
2026-01-25 15:28:00.19	231.27	32.97	-41.8	-43.0	21.5	0.00e+00	0	41	0	1035993088	56	6406
2026-01-25 15:28:01.20	231.14	32.77	-41.8	-43.0	21.5	0.00e+00	0	41	0	1038090240	56	6416
2026-01-25 15:28:02.21	231.01	32.58	-41.8	-43.0	21.4	0.00e+00	0	41	0	1040187392	56	6411
2026-01-25 15:28:03.22	230.88	32.38	-41.8	-43.0	21.3	0.00e+00	0	41	0	1042284544	56	6412
2026-01-25 15:28:04.23	230.75	32.18	-41.9	-43.1	21.3	0.00e+00	0	41	0	1044381696	56	6485
2026-01-25 15:28:05.23	230.63	31.99	-41.9	-43.2	21.2	0.00e+00	0	41	0	1045430272	56	6553
2026-01-25 15:28:06.24	230.50	31.79	-42.2	-43.5	20.9	0.00e+00	0	41	0	1047527424	56	6782
2026-01-25 15:28:07.25	230.38	31.60	-42.2	-43.5	21.0	0.00e+00	0	41	0	1049624576	56	6795
2026-01-25 15:28:08.26	230.26	31.41	-42.4	-43.7	20.8	0.00e+00	0	41	0	1051721728	56	6937
2026-01-25 15:28:09.27	230.14	31.22	-42.3	-43.5	20.8	0.00e+00	0	41	0	1053818880	56	6836
2026-01-25 15:28:10.28	230.02	31.03	-42.2	-43.5	20.8	0.00e+00	0	41	0	1055916032	56	6816
2026-01-25 15:28:11.29	229.90	30.84	-42.2	-43.5	20.9	0.00e+00	0	41	0	1056964608	56	6805
2026-01-25 15:28:12.30	229.79	30.65	-42.2	-43.4	21.0	0.00e+00	0	42	0	1059061760	56	6763
2026-01-25 15:28:13.31	229.68	30.47	-42.1	-43.3	21.0	0.00e+00	0	41	0	1061158912	56	6664
2026-01-25 15:28:14.31	229.56	30.28	-41.9	-43.2	21.3	0.00e+00	0	41	0	1063256064	56	6547
2026-01-25 15:28:15.32	229.45	30.10	-41.9	-43.1	21.3	0.00e+00	0	41	0	1065353216	56	6488
2026-01-25 15:28:16.33	229.34	29.92	-41.9	-43.1	21.3	0.00e+00	0	41	0	1066401792	56	6528
2026-01-25 15:28:17.34	229.23	29.73	-41.8	-42.9	21.4	0.00e+00	0	41	0	1068498944	56	6389
2026-01-25 15:28:18.35	229.13	29.55	-41.8	-43.0	21.4	0.00e+00	0	41	0	1070596096	56	6439
2026-01-25 15:28:19.36	229.02	29.37	-41.8	-43.0	21.4	0.00e+00	0	41	0	1072693248	56	6404
2026-01-25 15:28:20.37	228.92	29.19	-41.9	-43.1	21.3	0.00e+00	0	41	0	1074790400	56	6517
2026-01-25 15:28:21.38	228.81	29.02	-41.8	-43.0	21.4	0.00e+00	0	42	0	1075838976	56	6456
2026-01-25 15:28:22.38	228.71	28.84	-41.9	-43.1	21.3	0.00e+00	0	41	0	1077936128	56	6489
2026-01-25 15:28:23.39	228.61	28.66	-41.9	-43.1	21.3	0.00e+00	0	42	0	1080033280	56	6477
2026-01-25 15:28:24.40	228.51	28.49	-41.8	-43.0	21.3	0.00e+00	0	41	0	1082130432	56	6454
2026-01-25 15:28:25.41	228.41	28.32	-41.9	-43.1	21.2	0.00e+00	0	41	0	1084227584	56	6502
2026-01-25 15:28:26.42	228.31	28.14	-41.8	-43.0	21.4	0.00e+00	0	41	0	1085276160	56	6435
2026-01-25 15:28:27.43	228.21	27.97	-42.0	-43.2	21.2	0.00e+00	0	41	0	1087373312	56	6575
2026-01-25 15:28:28.44	228.12	27.80	-42.0	-43.2	21.2	0.00e+00	0	41	0	1089470464	56	6574
2026-01-25 15:28:29.45	228.02	27.63	-42.0	-43.2	21.2	0.00e+00	0	41	0	1091567616	56	6556
2026-01-25 15:28:30.46	227.93	27.46	-42.1	-43.3	21.1	0.00e+00	0	41	0	1093664768	56	6635
2026-01-25 15:28:31.47	227.84	27.29	-42.0	-43.2	21.1	0.00e+00	0	41	0	1094713344	56	6603
2026-01-25 15:28:32.48	227.74	27.12	-42.0	-43.2	21.1	0.00e+00	0	41	0	1096810496	56	6565
2026-01-25 15:28:33.49	227.65	26.96	-42.2	-43.4	21.0	0.00e+00	0	41	0	1098907648	56	6739
2026-01-25 15:28:34.50	227.56	26.79	-41.9	-43.2	21.2	0.00e+00	0	41	0	1101004800	56	6543
2026-01-25 15:28:35.51	227.47	26.63	-41.8	-43.0	21.3	0.00e+00	0	41	0	1103101952	56	6463
2026-01-25 15:28:36.52	227.39	26.46	-41.8	-43.0	21.4	0.00e+00	0	41	0	1104150528	56	6428
2026-01-25 15:28:37.53	227.30	26.30	-41.7	-42.9	21.6	0.00e+00	0	41	0	1106247680	56	6362
2026-01-25 15:28:38.54	227.21	26.14	-41.6	-42.8	21.5	0.00e+00	0	41	0	1108344832	56	6282
2026-01-25 15:28:39.55	227.13	25.98	-41.7	-42.9	21.5	0.00e+00	0	41	0	1110441984	56	6379
2026-01-25 15:28:40.56	227.04	25.82	-41.6	-42.7	21.6	0.00e+00	0	41	0	1112539136	56	6227
2026-01-25 15:28:41.57	226.96	25.66	-41.6	-42.8	21.6	0.00e+00	0	41	0	1113587712	56	6247
2026-01-25 15:28:42.58	226.88	25.50	-41.7	-42.9	21.4	0.00e+00	0	41	0	1115684864	56	6347
2026-01-25 15:28:43.59	226.79	25.34	-42.0	-43.2	21.1	0.00e+00	0	41	0	1117782016	56	6574
2026-01-25 15:28:44.60	226.71	25.19	-41.8	-43.0	21.3	0.00e+00	0	41	0	1119879168	56	6439
2026-01-25 15:28:45.60	226.63	25.03	-42.1	-43.3	21.0	0.00e+00	0	41	0	1121976320	56	6671
2026-01-25 15:28:46.61	226.55	24.88	-41.8	-43.0	21.3	0.00e+00	0	42	0	1124073472	56	6453
2026-01-25 15:28:47.62	226.48	24.72	-41.7	-42.9	21.4	0.00e+00	0	41	0	1125122048	56	6333
2026-01-25 15:28:48.63	226.40	24.57	-41.8	-43.0	21.3	0.00e+00	0	41	0	1127219200	56	6434
2026-01-25 15:28:49.64	226.32	24.42	-41.8	-43.0	21.4	0.00e+00	0	41	0	1129316352	56	6402
2026-01-25 15:28:50.65	226.24	24.27	-41.8	-43.0	21.3	0.00e+00	0	41	0	1131413504	56	6436
2026-01-25 15:28:51.66	226.17	24.12	-41.6	-42.8	21.5	0.00e+00	0	41	0	1132462080	56	6269
2026-01-25 15:28:52.67	226.09	23.97	-41.7	-42.9	21.3	0.00e+00	0	41	0	1134559232	56	6348
2026-01-25 15:28:53.68	226.02	23.82	-41.7	-42.9	21.3	0.00e+00	0	41	0	1136656384	56	6347
2026-01-25 15:28:54.69	225.95	23.67	-41.6	-42.8	21.5	0.00e+00	0	41	0	1138753536	56	6297
2026-01-25 15:28:55.70	225.87	23.52	-41.7	-42.9	21.5	0.00e+00	0	41	0	1140850688	56	6366
2026-01-25 15:28:56.70	225.80	23.38	-41.4	-42.6	21.7	0.00e+00	0	41	0	1141899264	56	6120
2026-01-25 15:28:57.71	225.73	23.23	-41.4	-42.5	21.8	0.00e+00	0	41	0	1143996416	56	6089
2026-01-25 15:28:58.72	225.66	23.09	-41.3	-42.5	21.8	0.00e+00	0	41	0	1146093568	56	6064
2026-01-25 15:28:59.73	225.59	22.94	-41.2	-42.3	21.9	0.00e+00	0	41	0	1148190720	56	5955
2026-01-25 15:29:00.74	225.52	22.80	-41.1	-42.3	22.0	0.00e+00	0	41	0	1150287872	56	5903
2026-01-25 15:29:01.75	225.45	22.65	-41.1	-42.2	22.0	0.00e+00	0	41	0	1152385024	56	5879
2026-01-25 15:29:02.75	225.39	22.51	-41.2	-42.3	22.0	0.00e+00	0	41	0	1153433600	56	5958
2026-01-25 15:29:03.76	225.32	22.37	-41.3	-42.4	21.8	0.00e+00	0	42	0	1155530752	56	6028
2026-01-25 15:29:04.77	225.25	22.23	-41.3	-42.5	21.8	0.00e+00	0	41	0	1157627904	56	6054
2026-01-25 15:29:05.78	225.19	22.09	-41.3	-42.5	21.7	0.00e+00	0	41	0	1159725056	56	6076
2026-01-25 15:29:06.79	225.12	21.95	-41.3	-42.4	21.7	0.00e+00	0	42	0	1161822208	56	6011
2026-01-25 15:29:07.80	225.06	21.81	-41.3	-42.5	21.7	0.00e+00	0	41	0	1162870784	56	6067
2026-01-25 15:29:08.81	224.99	21.68	-41.3	-42.4	21.8	0.00e+00	0	41	0	1164967936	56	6031
2026-01-25 15:29:09.82	224.93	21.54	-41.3	-42.4	21.8	0.00e+00	0	41	0	1167065088	56	6011
2026-01-25 15:29:10.83	224.87	21.40	-41.3	-42.5	21.7	0.00e+00	0	41	0	1169162240	56	6051
2026-01-25 15:29:11.84	224.80	21.27	-41.3	-42.5	21.8	0.00e+00	0	41	0	1171259392	56	6076
2026-01-25 15:29:12.85	224.74	21.13	-41.0	-42.2	22.0	0.00e+00	0	42	0	1172307968	56	5844
2026-01-25 15:29:13.86	224.68	21.00	-41.2	-42.3	21.9	0.00e+00	0	42	0	1174405120	56	5952
2026-01-25 15:29:14.86	224.62	20.86	-40.9	-42.0	22.1	0.00e+00	0	42	0	1176502272	56	5720
2026-01-25 15:29:15.87	224.56	20.73	-40.8	-41.9	22.2	0.00e+00	0	42	0	1178599424	56	5666
2026-01-25 15:29:16.88	224.50	20.60	-40.7	-41.8	22.3	0.00e+00	0	41	0	1180696576	54	6264
2026-01-25 15:29:17.89	224.44	20.47	-40.6	-41.7	22.4	0.00e+00	0	42	0	1181745152	54	6185
2026-01-25 15:29:18.90	224.38	20.34	-40.6	-41.7	22.4	0.00e+00	0	41	0	1183842304	54	6197
2026-01-25 15:29:19.91	224.33	20.21	-40.6	-41.6	22.5	0.00e+00	0	41	0	1185939456	54	6155
2026-01-25 15:29:20.92	224.27	20.08	-40.6	-41.7	22.4	0.00e+00	0	41	0	1188036608	54	6216
2026-01-25 15:29:21.93	224.21	19.95	-40.4	-41.4	22.7	0.00e+00	0	42	0	1190133760	54	6033
2026-01-25 15:29:22.94	224.15	19.82	-40.4	-41.4	22.6	0.00e+00	0	42	0	1191182336	54	6015
2026-01-25 15:29:23.95	224.10	19.69	-40.4	-41.4	22.6	0.00e+00	0	42	0	1193279488	54	6032
2026-01-25 15:29:24.96	224.04	19.56	-40.3	-41.4	22.6	0.00e+00	0	42	0	1195376640	54	5973
2026-01-25 15:29:25.97	223.99	19.44	-40.3	-41.4	22.7	0.00e+00	0	41	0	1197473792	54	5984
2026-01-25 15:29:26.98	223.93	19.31	-40.2	-41.2	22.9	0.00e+00	0	42	0	1199570944	54	5854
2026-01-25 15:29:27.99	223.88	19.19	-40.3	-41.4	22.6	0.00e+00	0	41	0	1200619520	54	5975
2026-01-25 15:29:29.00	223.83	19.06	-40.3	-41.3	22.7	0.00e+00	0	42	0	1202716672	54	5950
2026-01-25 15:29:30.00	223.77	18.94	-40.4	-41.4	22.7	0.00e+00	0	41	0	1204813824	54	5983
2026-01-25 15:29:31.01	223.72	18.81	-40.4	-41.5	22.6	0.00e+00	0	42	0	1206910976	54	6047
2026-01-25 15:29:32.02	223.67	18.69	-40.3	-41.3	22.6	0.00e+00	0	41	0	1209008128	54	5964
2026-01-25 15:29:33.03	223.62	18.57	-40.3	-41.3	22.8	0.00e+00	0	42	0	1210056704	54	5950
