passes_logs/2026/01/25/R4.6S_Anadyr/R4.6S_Anadyr__20260125_141407_FENGYUN_3D_rec.log

#Pass ID: 20260125_141407_FENGYUN 3D
#Satellite: FENGYUN 3D
#Configuration: FENGYUN 3D
#almurnet v.1.7.20251203
#Start time: 2026-01-25 14:14:10

#Version: 2.2.20231116
#Station: R4.6S_Anadyr
#Location: 177.4865 lon 64.73178 lat
#TLE: 1 43010U 17072A   26024.94080550 -.00000109  00000+0 -29577-4 0  9995
#TLE: 2 43010  98.9962 356.9116 0002509  91.7481 268.3982 14.19699259424665

#Time	Az	El	Level	Level2	SNR	BER	BlckErr	Temp	State	Recorded	gain1	gain2
2026-01-25 14:14:10.35	20.18	0.12	-50.1	-65.1	3.5	1.51e+00	0	38	0	0	60	64698
2026-01-25 14:14:11.35	20.26	0.17	-50.4	-62.5	3.6	8.45e-01	0	39	104	0	60	48438
2026-01-25 14:14:12.36	20.35	0.22	-50.4	-62.6	3.6	8.46e-01	0	39	104	0	60	48578
2026-01-25 14:14:13.37	20.43	0.26	-50.4	-62.6	3.6	8.44e-01	0	39	104	0	60	48632
2026-01-25 14:14:14.38	20.51	0.31	-50.4	-62.6	3.6	8.46e-01	0	39	104	0	60	48486
2026-01-25 14:14:15.39	20.60	0.36	-50.4	-62.5	3.6	8.47e-01	0	39	104	0	60	48269
2026-01-25 14:14:16.40	20.68	0.40	-50.4	-62.6	3.6	8.45e-01	0	39	104	0	60	48697
2026-01-25 14:14:17.42	20.76	0.45	-50.5	-62.6	3.6	8.45e-01	0	40	104	0	60	48775
2026-01-25 14:14:18.43	20.85	0.50	-50.5	-62.6	3.6	8.45e-01	0	39	104	0	60	48745
2026-01-25 14:14:19.44	20.93	0.55	-50.5	-62.6	3.6	8.46e-01	0	40	104	0	60	48987
2026-01-25 14:14:20.44	21.02	0.59	-50.5	-62.6	3.6	8.46e-01	0	40	104	0	60	48908
2026-01-25 14:14:21.45	21.10	0.64	-50.5	-62.6	3.6	8.46e-01	0	40	104	0	60	48621
2026-01-25 14:14:22.46	21.19	0.69	-50.5	-62.6	3.6	8.44e-01	0	40	104	0	60	48741
2026-01-25 14:14:23.47	21.27	0.73	-50.4	-62.5	3.6	8.45e-01	0	40	104	0	60	48393
2026-01-25 14:14:24.48	21.36	0.78	-50.4	-62.5	3.6	8.45e-01	0	40	104	0	60	48377
2026-01-25 14:14:25.49	21.44	0.83	-50.3	-62.5	3.6	8.46e-01	0	40	104	0	60	48062
2026-01-25 14:14:26.50	21.53	0.87	-50.3	-62.4	3.6	8.45e-01	0	40	104	0	60	47716
2026-01-25 14:14:27.52	21.61	0.92	-50.1	-62.3	3.6	8.45e-01	0	40	104	0	60	47048
2026-01-25 14:14:28.53	21.70	0.97	-50.1	-62.3	3.6	8.45e-01	0	40	104	0	60	46955
2026-01-25 14:14:29.53	21.79	1.02	-50.0	-62.2	3.6	8.46e-01	0	40	104	0	60	46642
2026-01-25 14:14:30.54	21.87	1.06	-50.0	-62.1	3.6	8.45e-01	0	40	104	0	60	46093
2026-01-25 14:14:31.55	21.96	1.11	-49.9	-62.0	3.6	8.46e-01	0	40	104	0	60	45585
2026-01-25 14:14:32.56	22.05	1.16	-49.7	-61.9	3.6	8.46e-01	0	40	104	0	60	44849
2026-01-25 14:14:33.57	22.14	1.20	-49.5	-61.7	3.6	8.46e-01	0	40	104	0	60	43963
2026-01-25 14:14:34.58	22.22	1.25	-49.2	-61.2	3.6	8.44e-01	0	40	104	0	60	41697
2026-01-25 14:14:35.59	22.31	1.30	-48.9	-61.0	3.6	8.46e-01	0	40	104	0	60	40444
2026-01-25 14:14:36.60	22.40	1.35	-48.9	-61.0	3.6	8.45e-01	0	40	104	0	60	40329
2026-01-25 14:14:37.61	22.49	1.39	-48.8	-60.9	3.6	8.46e-01	0	40	104	0	60	40043
2026-01-25 14:14:38.62	22.58	1.44	-48.9	-60.9	3.6	8.47e-01	0	40	104	0	60	40019
2026-01-25 14:14:39.63	22.67	1.49	-48.9	-60.9	3.6	8.46e-01	0	40	104	0	60	40037
2026-01-25 14:14:40.64	22.76	1.54	-48.9	-60.9	3.6	8.46e-01	0	40	104	0	60	40308
2026-01-25 14:14:41.65	22.85	1.58	-48.8	-60.8	3.6	8.45e-01	0	40	104	0	60	39831
2026-01-25 14:14:42.66	22.94	1.63	-48.9	-60.9	3.6	8.45e-01	0	40	104	0	60	39998
2026-01-25 14:14:43.67	23.03	1.68	-48.9	-60.9	3.6	8.45e-01	0	40	104	0	60	40189
2026-01-25 14:14:44.68	23.12	1.73	-48.9	-61.0	3.6	8.45e-01	0	40	104	0	60	40419
2026-01-25 14:14:45.69	23.21	1.77	-48.9	-61.0	3.6	8.46e-01	0	40	104	0	60	40736
2026-01-25 14:14:46.70	23.30	1.82	-48.8	-60.9	3.6	8.45e-01	0	40	104	0	60	40179
2026-01-25 14:14:47.71	23.39	1.87	-48.9	-60.9	3.6	8.45e-01	0	40	104	0	60	40315
2026-01-25 14:14:48.72	23.48	1.92	-48.8	-60.8	3.6	8.46e-01	0	40	104	0	60	39786
2026-01-25 14:14:49.73	23.58	1.97	-48.8	-60.7	3.6	8.45e-01	0	40	104	0	60	39136
2026-01-25 14:14:50.74	23.67	2.01	-48.8	-60.6	3.6	8.45e-01	0	40	104	0	60	38879
2026-01-25 14:14:51.75	23.76	2.06	-48.8	-60.7	3.6	8.46e-01	0	40	104	0	60	39091
2026-01-25 14:14:52.76	23.85	2.11	-48.8	-60.8	3.6	8.46e-01	0	40	104	0	60	39451
2026-01-25 14:14:53.77	23.95	2.16	-48.8	-60.9	3.6	8.45e-01	0	40	104	0	60	39933
2026-01-25 14:14:54.78	24.04	2.20	-48.9	-60.8	3.6	8.46e-01	0	40	104	0	60	39751
2026-01-25 14:14:55.78	24.13	2.25	-48.8	-60.9	3.6	8.45e-01	0	40	104	0	60	39902
2026-01-25 14:14:56.79	24.23	2.30	-48.9	-60.9	3.6	8.46e-01	0	40	104	0	60	40304
2026-01-25 14:14:57.80	24.32	2.35	-48.8	-60.5	3.6	8.46e-01	0	40	104	0	60	38170
2026-01-25 14:14:58.81	24.42	2.40	-48.7	-59.6	3.6	8.45e-01	0	40	104	0	60	34416
2026-01-25 14:14:59.82	24.51	2.44	-48.7	-59.1	3.7	8.45e-01	0	40	104	0	60	32524
2026-01-25 14:15:00.83	24.61	2.49	-48.8	-60.0	3.6	8.45e-01	0	40	104	0	60	36091
2026-01-25 14:15:01.84	24.70	2.54	-48.7	-59.5	3.6	8.45e-01	0	40	104	0	60	34014
2026-01-25 14:15:02.85	24.80	2.59	-48.0	-54.4	5.5	7.67e-01	0	40	0	0	60	19017
2026-01-25 14:15:03.86	24.89	2.64	-46.0	-48.9	10.6	3.60e-02	0	40	0	5242880	60	10096
2026-01-25 14:15:04.87	24.99	2.68	-43.6	-45.4	14.6	3.40e-06	0	40	0	10485760	60	6713
2026-01-25 14:15:05.88	25.09	2.73	-41.0	-42.2	17.9	0.00e+00	0	40	0	16777216	56	5866
2026-01-25 14:15:06.89	25.18	2.78	-39.3	-40.3	19.4	0.00e+00	0	40	0	22020096	52	5951
2026-01-25 14:15:07.90	25.28	2.83	-37.9	-38.8	21.1	0.00e+00	0	40	0	28311552	50	5594
2026-01-25 14:15:08.91	25.38	2.88	-38.4	-39.3	20.6	0.00e+00	0	40	0	33554432	50	5899
2026-01-25 14:15:09.92	25.48	2.92	-37.9	-38.7	21.2	0.00e+00	0	40	0	39845888	50	5539
2026-01-25 14:15:10.93	25.57	2.97	-39.5	-40.5	19.5	0.00e+00	0	40	0	45088768	50	6812
2026-01-25 14:15:11.94	25.67	3.02	-42.6	-44.2	15.7	0.00e+00	0	40	0	50331648	56	7347
2026-01-25 14:15:12.95	25.77	3.07	-39.8	-40.8	19.1	0.00e+00	0	40	0	56623104	52	6312
2026-01-25 14:15:13.96	25.87	3.12	-38.1	-39.0	20.9	0.00e+00	0	40	0	61865984	48	6420
2026-01-25 14:15:14.97	25.97	3.17	-48.8	-60.1	3.6	7.98e-02	0	40	104	66060288	60	36664
2026-01-25 14:15:15.98	26.07	3.21	-47.8	-54.3	4.2	8.20e-01	0	40	104	66060288	60	18855
2026-01-25 14:15:16.99	26.17	3.26	-45.3	-47.8	11.1	0.00e+00	0	40	0	67108864	60	8843
2026-01-25 14:15:18.00	26.27	3.31	-39.5	-40.5	20.2	0.00e+00	0	40	0	72351744	54	5385
2026-01-25 14:15:19.01	26.37	3.36	-38.7	-39.6	20.5	0.00e+00	0	40	0	78643200	50	6171
2026-01-25 14:15:20.01	26.47	3.41	-37.6	-38.4	21.7	0.00e+00	0	40	0	83886080	48	5996
2026-01-25 14:15:21.03	26.57	3.45	-37.8	-38.6	21.6	0.00e+00	0	40	0	90177536	48	6147
2026-01-25 14:15:22.03	26.67	3.50	-39.2	-40.1	20.2	0.00e+00	0	40	0	95420416	52	5810
2026-01-25 14:15:23.05	26.78	3.55	-38.7	-39.6	20.4	0.00e+00	0	40	0	100663296	50	6149
2026-01-25 14:15:24.06	26.88	3.60	-39.3	-40.3	20.1	0.00e+00	0	40	0	106954752	50	6634
2026-01-25 14:15:25.07	26.98	3.65	-39.1	-40.1	20.5	0.00e+00	0	40	0	112197632	50	6481
2026-01-25 14:15:26.08	27.09	3.70	-38.5	-39.3	21.0	0.00e+00	0	40	0	118489088	50	5955
2026-01-25 14:15:27.09	27.19	3.75	-38.8	-39.7	20.4	0.00e+00	0	40	0	123731968	50	6204
2026-01-25 14:15:28.10	27.29	3.79	-39.7	-40.8	19.7	0.00e+00	0	40	0	130023424	52	6246
2026-01-25 14:15:29.10	27.39	3.84	-39.0	-40.0	20.2	0.00e+00	0	40	0	135266304	50	6409
2026-01-25 14:15:30.11	27.50	3.89	-39.1	-40.1	19.7	0.00e+00	0	40	0	141557760	50	6507
2026-01-25 14:15:31.12	27.60	3.94	-37.7	-38.6	21.5	0.00e+00	0	40	0	146800640	48	6108
2026-01-25 14:15:32.13	27.71	3.99	-40.6	-41.7	18.4	0.00e+00	0	40	0	152043520	52	7003
2026-01-25 14:15:33.14	27.81	4.04	-38.9	-39.8	20.6	0.00e+00	0	40	0	158334976	52	5600
2026-01-25 14:15:34.15	27.92	4.08	-37.2	-38.1	22.0	0.00e+00	0	40	0	163577856	48	5766
2026-01-25 14:15:35.16	28.03	4.13	-37.7	-38.5	21.8	0.00e+00	0	40	0	168820736	48	6073
2026-01-25 14:15:36.17	28.13	4.18	-38.1	-38.9	21.3	0.00e+00	0	40	0	175112192	48	6364
2026-01-25 14:15:37.18	28.24	4.23	-37.8	-38.6	21.7	0.00e+00	0	40	0	180355072	48	6144
2026-01-25 14:15:38.19	28.34	4.28	-37.9	-38.8	21.2	0.00e+00	0	40	0	186646528	48	6250
2026-01-25 14:15:39.20	28.45	4.33	-39.9	-40.9	19.9	0.00e+00	0	40	0	191889408	50	7113
2026-01-25 14:15:40.21	28.56	4.38	-38.5	-39.3	21.1	0.00e+00	0	40	0	197132288	52	5314
2026-01-25 14:15:41.22	28.67	4.42	-37.9	-38.7	21.6	0.00e+00	0	40	0	203423744	48	6207
2026-01-25 14:15:42.23	28.78	4.47	-38.7	-39.6	20.8	0.00e+00	0	40	0	208666624	48	6882
2026-01-25 14:15:43.24	28.88	4.52	-38.1	-38.9	21.3	0.00e+00	0	40	0	214958080	48	6368
2026-01-25 14:15:44.25	28.99	4.57	-37.8	-38.7	21.7	0.00e+00	0	40	0	220200960	48	6207
2026-01-25 14:15:45.26	29.10	4.62	-37.3	-38.1	22.4	0.00e+00	0	40	0	226492416	48	5768
2026-01-25 14:15:46.27	29.21	4.67	-38.0	-38.8	21.5	0.00e+00	0	40	0	231735296	48	6292
2026-01-25 14:15:47.28	29.32	4.72	-38.4	-39.3	21.0	0.00e+00	0	40	0	238026752	48	6638
2026-01-25 14:15:48.28	29.43	4.76	-38.7	-39.5	21.1	0.00e+00	0	40	0	243269632	50	6090
2026-01-25 14:15:49.29	29.54	4.81	-36.5	-37.3	22.9	0.00e+00	0	40	0	248512512	46	5912
2026-01-25 14:15:50.30	29.65	4.86	-37.0	-37.8	22.4	0.00e+00	0	40	0	254803968	46	6295
2026-01-25 14:15:51.31	29.76	4.91	-39.2	-40.1	20.4	0.00e+00	0	40	0	260046848	50	6489
2026-01-25 14:15:52.32	29.88	4.96	-37.2	-38.0	22.3	0.00e+00	0	40	0	266338304	48	5727
2026-01-25 14:15:53.33	29.99	5.01	-37.7	-38.5	22.1	0.00e+00	0	40	0	271581184	48	6060
2026-01-25 14:15:54.34	30.10	5.06	-36.7	-37.5	22.8	0.00e+00	0	40	0	276824064	48	5400
2026-01-25 14:15:55.35	30.21	5.10	-37.0	-37.8	22.6	0.00e+00	0	40	0	283115520	46	6252
2026-01-25 14:15:56.36	30.33	5.15	-36.9	-37.7	22.7	0.00e+00	0	41	0	288358400	46	6227
2026-01-25 14:15:57.37	30.44	5.20	-37.5	-38.3	22.1	0.00e+00	0	40	0	294649856	46	6627
2026-01-25 14:15:58.38	30.55	5.25	-38.9	-39.8	20.7	0.00e+00	0	40	0	299892736	48	7018
2026-01-25 14:15:59.39	30.67	5.30	-36.6	-37.4	23.0	0.00e+00	0	41	0	305135616	46	5980
2026-01-25 14:16:00.40	30.78	5.35	-37.7	-38.6	21.8	0.00e+00	0	40	0	311427072	48	6105
2026-01-25 14:16:01.41	30.90	5.40	-37.7	-38.5	22.0	0.00e+00	0	40	0	316669952	48	6102
2026-01-25 14:16:02.42	31.01	5.44	-36.7	-37.5	22.8	0.00e+00	0	40	0	322961408	46	6092
2026-01-25 14:16:03.43	31.13	5.49	-36.7	-37.4	22.9	0.00e+00	0	40	0	328204288	46	6008
2026-01-25 14:16:04.44	31.24	5.54	-37.3	-38.1	22.3	0.00e+00	0	40	0	334495744	46	6507
2026-01-25 14:16:05.45	31.36	5.59	-36.4	-37.2	23.3	0.00e+00	0	40	0	339738624	46	5854
2026-01-25 14:16:06.45	31.48	5.64	-36.7	-37.5	22.8	0.00e+00	0	40	0	344981504	46	6044
2026-01-25 14:16:07.46	31.59	5.69	-36.8	-37.6	22.8	0.00e+00	0	40	0	351272960	46	6153
2026-01-25 14:16:08.47	31.71	5.74	-37.0	-37.8	22.7	0.00e+00	0	41	0	356515840	46	6263
2026-01-25 14:16:09.48	31.83	5.78	-37.3	-38.1	22.3	0.00e+00	0	40	0	362807296	46	6488
2026-01-25 14:16:10.49	31.95	5.83	-37.3	-38.1	22.3	0.00e+00	0	41	0	368050176	46	6535
2026-01-25 14:16:11.50	32.07	5.88	-36.5	-37.3	23.3	0.00e+00	0	41	0	373293056	46	5903
2026-01-25 14:16:12.51	32.18	5.93	-36.5	-37.3	23.1	0.00e+00	0	41	0	379584512	46	5918
2026-01-25 14:16:13.52	32.30	5.98	-37.4	-38.2	22.3	0.00e+00	0	41	0	384827392	46	6554
2026-01-25 14:16:14.53	32.42	6.03	-36.4	-37.1	23.1	0.00e+00	0	41	0	391118848	46	5804
2026-01-25 14:16:15.54	32.54	6.07	-37.3	-38.1	22.4	0.00e+00	0	41	0	396361728	46	6469
2026-01-25 14:16:16.55	32.67	6.12	-36.7	-37.5	22.8	0.00e+00	0	40	0	401604608	46	6052
2026-01-25 14:16:17.56	32.79	6.17	-36.9	-37.7	22.6	0.00e+00	0	40	0	407896064	46	6193
2026-01-25 14:16:18.56	32.91	6.22	-35.9	-36.7	23.8	0.00e+00	0	40	0	413138944	46	5504
2026-01-25 14:16:19.57	33.03	6.27	-37.1	-37.9	22.6	0.00e+00	0	41	0	419430400	46	6351
2026-01-25 14:16:20.59	33.15	6.32	-37.9	-38.7	22.0	0.00e+00	0	40	0	424673280	48	6216
2026-01-25 14:16:21.60	33.27	6.37	-36.7	-37.5	23.1	0.00e+00	0	41	0	430964736	46	6045
2026-01-25 14:16:22.60	33.40	6.41	-37.4	-38.2	22.3	0.00e+00	0	41	0	436207616	46	6562
2026-01-25 14:16:23.61	33.52	6.46	-37.0	-37.7	22.9	0.00e+00	0	41	0	442499072	46	6229
2026-01-25 14:16:24.62	33.64	6.51	-36.3	-37.0	23.4	0.00e+00	0	41	0	447741952	46	5757
2026-01-25 14:16:25.63	33.77	6.56	-37.2	-38.0	22.5	0.00e+00	0	41	0	452984832	46	6395
2026-01-25 14:16:26.64	33.89	6.61	-37.3	-38.1	22.6	0.00e+00	0	41	0	459276288	48	5789
2026-01-25 14:16:27.65	34.02	6.66	-37.4	-38.2	22.4	0.00e+00	0	41	0	464519168	48	5875
2026-01-25 14:16:28.66	34.14	6.70	-37.1	-37.9	22.4	0.00e+00	0	41	0	470810624	46	6375
2026-01-25 14:16:29.67	34.27	6.75	-37.3	-38.0	22.8	0.00e+00	0	41	0	476053504	46	6462
2026-01-25 14:16:30.68	34.39	6.80	-35.7	-36.4	24.2	0.00e+00	0	41	0	481296384	46	5347
2026-01-25 14:16:31.69	34.52	6.85	-35.2	-35.9	24.7	0.00e+00	0	41	0	487587840	44	5646
2026-01-25 14:16:32.70	34.65	6.90	-36.5	-37.2	23.0	0.00e+00	0	41	0	492830720	44	6587
2026-01-25 14:16:33.71	34.77	6.94	-37.8	-38.6	21.9	0.00e+00	0	41	0	498073600	48	6141
2026-01-25 14:16:34.72	34.90	6.99	-37.2	-37.9	22.8	0.00e+00	0	41	0	504365056	48	5690
2026-01-25 14:16:35.73	35.03	7.04	-35.2	-35.9	24.5	0.00e+00	0	41	0	509607936	44	5667
2026-01-25 14:16:36.74	35.16	7.09	-36.0	-36.7	23.8	0.00e+00	0	41	0	515899392	44	6196
2026-01-25 14:16:37.75	35.29	7.14	-36.6	-37.3	23.2	0.00e+00	0	41	0	521142272	44	6685
2026-01-25 14:16:38.76	35.42	7.19	-36.6	-37.4	23.3	0.00e+00	0	41	0	527433728	46	5973
2026-01-25 14:16:39.76	35.54	7.23	-36.4	-37.1	23.5	0.00e+00	0	41	0	532676608	46	5812
2026-01-25 14:16:40.77	35.67	7.28	-35.7	-36.4	24.2	0.00e+00	0	41	0	538968064	46	5316
2026-01-25 14:16:41.78	35.81	7.33	-36.4	-37.1	23.4	0.00e+00	0	41	0	544210944	44	6520
2026-01-25 14:16:42.79	35.94	7.38	-36.7	-37.4	23.2	0.00e+00	0	41	0	549453824	44	6752
2026-01-25 14:16:43.80	36.07	7.42	-36.4	-37.2	23.4	0.00e+00	0	41	0	555745280	46	5839
2026-01-25 14:16:44.81	36.20	7.47	-36.7	-37.5	23.0	0.00e+00	0	41	0	560988160	46	6064
2026-01-25 14:16:45.82	36.33	7.52	-36.5	-37.2	23.4	0.00e+00	0	41	0	567279616	46	5870
2026-01-25 14:16:46.83	36.46	7.57	-36.7	-37.4	23.3	0.00e+00	0	41	0	572522496	46	6008
2026-01-25 14:16:47.84	36.60	7.62	-36.6	-37.3	23.5	0.00e+00	0	41	0	577765376	46	5951
2026-01-25 14:16:48.85	36.73	7.66	-36.0	-36.7	23.8	0.00e+00	0	41	0	584056832	46	5553
2026-01-25 14:16:49.86	36.86	7.71	-36.5	-37.3	23.5	0.00e+00	0	41	0	589299712	46	5900
2026-01-25 14:16:50.87	37.00	7.76	-36.1	-36.9	23.8	0.00e+00	0	41	0	595591168	46	5643
2026-01-25 14:16:51.88	37.13	7.81	-36.0	-36.8	23.8	0.00e+00	0	41	0	600834048	46	5572
2026-01-25 14:16:52.89	37.27	7.85	-36.4	-37.1	23.5	0.00e+00	0	41	0	606076928	46	5799
2026-01-25 14:16:53.89	37.40	7.90	-36.5	-37.3	23.4	0.00e+00	0	41	0	612368384	46	5928
2026-01-25 14:16:54.91	37.54	7.95	-36.0	-36.8	23.9	0.00e+00	0	41	0	617611264	46	5580
2026-01-25 14:16:55.92	37.68	8.00	-36.3	-37.0	23.6	0.00e+00	0	41	0	623902720	46	5751
2026-01-25 14:16:56.93	37.81	8.04	-36.6	-37.4	23.3	0.00e+00	0	41	0	629145600	46	5988
2026-01-25 14:16:57.93	37.95	8.09	-36.7	-37.4	23.3	0.00e+00	0	41	0	635437056	46	6022
2026-01-25 14:16:58.94	38.09	8.14	-36.1	-36.9	23.8	0.00e+00	0	41	0	640679936	46	5641
2026-01-25 14:16:59.95	38.23	8.18	-35.6	-36.3	24.1	0.00e+00	0	41	0	645922816	44	5945
2026-01-25 14:17:00.96	38.36	8.23	-36.4	-37.1	23.3	0.00e+00	0	41	0	652214272	44	6530
2026-01-25 14:17:01.97	38.50	8.28	-36.6	-37.3	23.4	0.00e+00	0	41	0	657457152	44	6684
2026-01-25 14:17:02.98	38.64	8.33	-36.0	-36.7	23.9	0.00e+00	0	41	0	663748608	44	6218
2026-01-25 14:17:03.99	38.78	8.37	-36.1	-36.8	23.8	0.00e+00	0	41	0	668991488	44	6281
2026-01-25 14:17:05.00	38.92	8.42	-36.4	-37.2	23.5	0.00e+00	0	41	0	674234368	44	6544
2026-01-25 14:17:06.01	39.06	8.47	-35.7	-36.4	24.1	0.00e+00	0	41	0	680525824	44	5984
2026-01-25 14:17:07.02	39.21	8.51	-36.1	-36.8	23.8	0.00e+00	0	41	0	685768704	44	6287
2026-01-25 14:17:08.03	39.35	8.56	-36.2	-36.9	23.8	0.00e+00	0	41	0	692060160	44	6351
2026-01-25 14:17:09.04	39.49	8.61	-36.2	-36.9	23.7	0.00e+00	0	41	0	697303040	44	6356
2026-01-25 14:17:10.05	39.63	8.65	-36.3	-37.0	23.7	0.00e+00	0	41	0	702545920	44	6408
2026-01-25 14:17:11.06	39.77	8.70	-35.5	-36.2	24.3	0.00e+00	0	41	0	708837376	44	5850
2026-01-25 14:17:12.07	39.92	8.75	-36.2	-36.9	23.7	0.00e+00	0	41	0	714080256	44	6339
2026-01-25 14:17:13.08	40.06	8.79	-36.1	-36.9	23.8	0.00e+00	0	41	0	720371712	44	6321
2026-01-25 14:17:14.09	40.21	8.84	-35.9	-36.6	24.1	0.00e+00	0	41	0	725614592	44	6157
2026-01-25 14:17:15.10	40.35	8.89	-35.7	-36.4	24.2	0.00e+00	0	41	0	731906048	44	5982
2026-01-25 14:17:16.11	40.50	8.93	-35.2	-35.9	24.6	0.00e+00	0	41	0	737148928	44	5664
2026-01-25 14:17:17.12	40.64	8.98	-35.5	-36.2	24.3	0.00e+00	0	41	0	743440384	44	5849
2026-01-25 14:17:18.12	40.79	9.02	-35.3	-36.0	24.5	0.00e+00	0	41	0	748683264	44	5703
2026-01-25 14:17:19.13	40.93	9.07	-35.9	-36.6	24.0	0.00e+00	0	41	0	753926144	44	6145
2026-01-25 14:17:20.14	41.08	9.12	-35.9	-36.6	24.1	0.00e+00	0	41	0	760217600	44	6146
2026-01-25 14:17:21.15	41.23	9.16	-35.9	-36.6	24.1	0.00e+00	0	41	0	765460480	44	6171
2026-01-25 14:17:22.16	41.37	9.21	-36.1	-36.8	23.9	0.00e+00	0	41	0	770703360	44	6272
2026-01-25 14:17:23.17	41.52	9.25	-36.0	-36.7	24.0	0.00e+00	0	41	0	776994816	44	6191
2026-01-25 14:17:24.18	41.67	9.30	-35.7	-36.4	24.2	0.00e+00	0	41	0	782237696	44	6006
2026-01-25 14:17:25.19	41.82	9.34	-35.6	-36.3	24.4	0.00e+00	0	41	0	788529152	44	5944
2026-01-25 14:17:26.20	41.97	9.39	-35.6	-36.3	24.3	0.00e+00	0	41	0	793772032	44	5911
2026-01-25 14:17:27.20	42.12	9.43	-35.5	-36.2	24.5	0.00e+00	0	41	0	799014912	44	5854
2026-01-25 14:17:28.21	42.27	9.48	-35.6	-36.3	24.4	0.00e+00	0	41	0	805306368	44	5902
2026-01-25 14:17:29.22	42.42	9.52	-35.5	-36.2	24.4	0.00e+00	0	41	0	810549248	44	5843
2026-01-25 14:17:30.23	42.57	9.57	-35.6	-36.3	24.4	0.00e+00	0	41	0	816840704	44	5898
2026-01-25 14:17:31.24	42.72	9.61	-35.6	-36.3	24.4	0.00e+00	0	41	0	822083584	44	5933
2026-01-25 14:17:32.25	42.88	9.66	-35.5	-36.2	24.4	0.00e+00	0	41	0	828375040	44	5873
2026-01-25 14:17:33.26	43.03	9.70	-35.4	-36.1	24.5	0.00e+00	0	41	0	833617920	44	5816
2026-01-25 14:17:34.27	43.18	9.75	-35.3	-36.0	24.7	0.00e+00	0	41	0	839909376	44	5715
2026-01-25 14:17:35.28	43.34	9.79	-35.4	-36.1	24.5	0.00e+00	0	41	0	845152256	44	5783
2026-01-25 14:17:36.29	43.49	9.84	-35.4	-36.1	24.5	0.00e+00	0	41	0	850395136	44	5769
2026-01-25 14:17:37.29	43.64	9.88	-35.0	-35.7	24.9	0.00e+00	0	41	0	856686592	44	5520
2026-01-25 14:17:38.30	43.80	9.93	-35.1	-35.8	24.8	0.00e+00	0	41	0	861929472	44	5585
2026-01-25 14:17:39.31	43.95	9.97	-35.3	-36.0	24.5	0.00e+00	0	41	0	868220928	44	5748
2026-01-25 14:17:40.32	44.11	10.01	-35.3	-36.0	24.6	0.00e+00	0	41	0	873463808	44	5700
2026-01-25 14:17:41.33	44.27	10.06	-35.1	-35.8	24.8	0.00e+00	0	41	0	878706688	44	5586
2026-01-25 14:17:42.34	44.42	10.10	-35.0	-35.7	24.8	0.00e+00	0	41	0	884998144	44	5533
2026-01-25 14:17:43.35	44.58	10.15	-35.2	-35.9	24.8	0.00e+00	0	41	0	890241024	44	5640
2026-01-25 14:17:44.36	44.74	10.19	-35.1	-35.7	24.9	0.00e+00	0	41	0	896532480	44	5564
2026-01-25 14:17:45.37	44.90	10.23	-35.0	-35.7	24.9	0.00e+00	0	41	0	901775360	44	5537
2026-01-25 14:17:46.38	45.06	10.28	-35.2	-35.8	24.8	0.00e+00	0	41	0	907018240	44	5626
2026-01-25 14:17:47.39	45.22	10.32	-34.9	-35.6	25.0	0.00e+00	0	41	0	913309696	44	5474
2026-01-25 14:17:48.40	45.38	10.36	-35.2	-35.8	24.8	0.00e+00	0	41	0	918552576	44	5614
2026-01-25 14:17:49.41	45.54	10.41	-35.1	-35.8	24.8	0.00e+00	0	41	0	924844032	44	5595
2026-01-25 14:17:50.42	45.70	10.45	-35.2	-35.9	24.7	0.00e+00	0	41	0	930086912	44	5646
2026-01-25 14:17:51.43	45.86	10.49	-35.0	-35.7	24.9	0.00e+00	0	41	0	936378368	44	5535
2026-01-25 14:17:52.44	46.02	10.54	-35.0	-35.7	24.8	0.00e+00	0	41	0	941621248	44	5527
2026-01-25 14:17:53.45	46.18	10.58	-34.9	-35.6	24.9	0.00e+00	0	41	0	946864128	44	5476
2026-01-25 14:17:54.46	46.34	10.62	-35.1	-35.7	24.7	0.00e+00	0	41	0	953155584	44	5550
2026-01-25 14:17:55.47	46.51	10.66	-35.4	-36.0	24.4	0.00e+00	0	41	0	958398464	44	5754
2026-01-25 14:17:56.48	46.67	10.71	-35.6	-36.3	24.3	0.00e+00	0	41	0	964689920	44	5945
2026-01-25 14:17:57.49	46.83	10.75	-35.5	-36.2	24.3	0.00e+00	0	41	0	969932800	44	5886
2026-01-25 14:17:58.50	47.00	10.79	-34.8	-35.5	25.0	0.00e+00	0	41	0	975175680	44	5383
2026-01-25 14:17:59.51	47.16	10.83	-35.0	-35.7	24.7	0.00e+00	0	41	0	981467136	42	6198
2026-01-25 14:18:00.52	47.33	10.87	-35.2	-35.9	24.7	0.00e+00	0	41	0	986710016	42	6341
2026-01-25 14:18:01.53	47.49	10.91	-35.0	-35.6	25.1	0.00e+00	0	41	0	993001472	42	6161
2026-01-25 14:18:02.54	47.66	10.96	-35.2	-35.9	24.9	0.00e+00	0	41	0	998244352	42	6339
2026-01-25 14:18:03.54	47.82	11.00	-35.1	-35.7	24.8	0.00e+00	0	41	0	1003487232	42	6225
2026-01-25 14:18:04.56	47.99	11.04	-35.3	-36.0	24.5	0.00e+00	0	41	0	1009778688	42	6398
2026-01-25 14:18:05.57	48.16	11.08	-35.5	-36.2	24.4	0.00e+00	0	41	0	1015021568	42	6600
2026-01-25 14:18:06.58	48.33	11.12	-35.4	-36.1	24.7	0.00e+00	0	41	0	1021313024	42	6468
2026-01-25 14:18:07.58	48.49	11.16	-35.1	-35.7	25.0	0.00e+00	0	41	0	1026555904	42	6228
2026-01-25 14:18:08.59	48.66	11.20	-35.5	-36.2	24.6	0.00e+00	0	41	0	1032847360	42	6585
2026-01-25 14:18:09.60	48.83	11.24	-35.7	-36.4	24.4	0.00e+00	0	41	0	1038090240	44	6012
2026-01-25 14:18:10.61	49.00	11.28	-35.9	-36.6	24.3	0.00e+00	0	41	0	1044381696	44	6135
2026-01-25 14:18:11.62	49.17	11.32	-35.8	-36.5	24.3	0.00e+00	0	41	0	1049624576	44	6088
2026-01-25 14:18:12.63	49.34	11.36	-35.0	-35.7	24.9	0.00e+00	0	41	0	1054867456	44	5532
2026-01-25 14:18:13.64	49.51	11.40	-35.2	-35.9	24.8	0.00e+00	0	41	0	1061158912	44	5652
2026-01-25 14:18:14.65	49.69	11.44	-35.0	-35.7	24.9	0.00e+00	0	41	0	1066401792	44	5535
2026-01-25 14:18:15.66	49.86	11.48	-35.0	-35.7	24.9	0.00e+00	0	41	0	1071644672	44	5531
2026-01-25 14:18:16.67	50.03	11.52	-34.8	-35.6	25.0	0.00e+00	0	41	0	1077936128	44	5440
2026-01-25 14:18:17.68	50.20	11.56	-34.9	-35.5	25.0	0.00e+00	0	41	0	1083179008	44	5404
2026-01-25 14:18:18.69	50.38	11.60	-34.8	-35.4	25.1	0.00e+00	0	41	0	1089470464	42	6026
2026-01-25 14:18:19.70	50.55	11.64	-34.8	-35.4	25.2	0.00e+00	0	41	0	1094713344	42	6017
2026-01-25 14:18:20.71	50.72	11.68	-34.8	-35.5	25.2	0.00e+00	0	41	0	1099956224	42	6039
2026-01-25 14:18:21.72	50.90	11.71	-34.8	-35.5	25.2	0.00e+00	0	41	0	1106247680	42	6068
2026-01-25 14:18:22.73	51.07	11.75	-35.0	-35.6	25.0	0.00e+00	0	41	0	1111490560	42	6160
2026-01-25 14:18:23.74	51.25	11.79	-35.1	-35.8	24.9	0.00e+00	0	41	0	1117782016	42	6292
2026-01-25 14:18:24.75	51.43	11.83	-35.0	-35.7	25.0	0.00e+00	0	41	0	1123024896	42	6188
2026-01-25 14:18:25.76	51.60	11.87	-35.0	-35.6	25.0	0.00e+00	0	41	0	1129316352	42	6164
2026-01-25 14:18:26.77	51.78	11.90	-34.7	-35.4	25.2	0.00e+00	0	41	0	1134559232	42	5991
2026-01-25 14:18:27.78	51.96	11.94	-34.7	-35.4	25.3	0.00e+00	0	41	0	1140850688	42	6000
2026-01-25 14:18:28.79	52.13	11.98	-34.8	-35.4	25.3	0.00e+00	0	41	0	1146093568	42	6004
2026-01-25 14:18:29.80	52.31	12.01	-34.5	-35.2	25.4	0.00e+00	0	41	0	1151336448	42	5848
2026-01-25 14:18:30.81	52.49	12.05	-34.5	-35.1	25.6	0.00e+00	0	41	0	1157627904	42	5815
2026-01-25 14:18:31.82	52.67	12.09	-34.8	-35.4	25.2	0.00e+00	0	41	0	1162870784	42	6029
2026-01-25 14:18:32.83	52.85	12.12	-35.1	-35.7	24.9	0.00e+00	0	41	0	1169162240	42	6228
2026-01-25 14:18:33.84	53.03	12.16	-35.1	-35.8	24.9	0.00e+00	0	41	0	1174405120	42	6312
2026-01-25 14:18:34.85	53.21	12.20	-34.2	-34.8	25.7	0.00e+00	0	41	0	1179648000	42	5627
2026-01-25 14:18:35.85	53.39	12.23	-34.5	-35.1	25.5	0.00e+00	0	41	0	1185939456	42	5788
2026-01-25 14:18:36.86	53.57	12.27	-35.1	-35.7	25.0	0.00e+00	0	41	0	1191182336	42	6233
2026-01-25 14:18:37.87	53.75	12.30	-35.2	-35.9	24.9	0.00e+00	0	41	0	1197473792	42	6356
2026-01-25 14:18:38.88	53.93	12.34	-35.0	-35.7	25.0	0.00e+00	0	41	0	1202716672	42	6174
2026-01-25 14:18:39.89	54.12	12.37	-35.3	-36.0	24.8	0.00e+00	0	41	0	1207959552	42	6421
2026-01-25 14:18:40.90	54.30	12.41	-34.8	-35.5	25.2	0.00e+00	0	41	0	1214251008	42	6084
2026-01-25 14:18:41.91	54.48	12.44	-34.6	-35.3	25.4	0.00e+00	0	41	0	1219493888	42	5911
2026-01-25 14:18:42.92	54.67	12.48	-34.7	-35.4	25.3	0.00e+00	0	41	0	1225785344	42	5972
2026-01-25 14:18:43.93	54.85	12.51	-34.3	-35.0	25.5	0.00e+00	0	41	0	1231028224	42	5723
2026-01-25 14:18:44.94	55.04	12.55	-34.6	-35.2	25.4	0.00e+00	0	41	0	1237319680	42	5862
2026-01-25 14:18:45.95	55.22	12.58	-34.5	-35.1	25.5	0.00e+00	0	41	0	1242562560	42	5815
2026-01-25 14:18:46.96	55.41	12.61	-34.3	-34.9	25.6	0.00e+00	0	41	0	1247805440	42	5689
2026-01-25 14:18:47.97	55.59	12.65	-34.3	-35.0	25.7	0.00e+00	0	41	0	1254096896	42	5712
2026-01-25 14:18:48.98	55.78	12.68	-34.4	-35.0	25.7	0.00e+00	0	41	0	1259339776	42	5745
2026-01-25 14:18:49.99	55.96	12.71	-34.5	-35.2	25.5	0.00e+00	0	41	0	1265631232	42	5853
2026-01-25 14:18:50.99	56.15	12.74	-34.6	-35.2	25.3	0.00e+00	0	41	0	1270874112	42	5877
2026-01-25 14:18:52.00	56.34	12.78	-34.6	-35.3	25.3	0.00e+00	0	41	0	1276116992	42	5906
2026-01-25 14:18:53.01	56.53	12.81	-34.6	-35.3	25.4	0.00e+00	0	41	0	1282408448	42	5948
2026-01-25 14:18:54.02	56.71	12.84	-34.5	-35.1	25.5	0.00e+00	0	41	0	1287651328	42	5824
2026-01-25 14:18:55.03	56.90	12.87	-34.4	-35.1	25.6	0.00e+00	0	41	0	1293942784	42	5771
2026-01-25 14:18:56.04	57.09	12.90	-34.7	-35.3	25.5	0.00e+00	0	41	0	1299185664	42	5947
2026-01-25 14:18:57.05	57.28	12.93	-34.8	-35.5	25.1	0.00e+00	0	41	0	1304428544	42	6091
2026-01-25 14:18:58.06	57.47	12.96	-34.9	-35.5	25.2	0.00e+00	0	41	0	1310720000	42	6095
2026-01-25 14:18:59.07	57.66	13.00	-34.8	-35.5	25.2	0.00e+00	0	41	0	1315962880	42	6055
2026-01-25 14:19:00.08	57.85	13.03	-34.8	-35.5	25.2	0.00e+00	0	41	0	1322254336	42	6075
2026-01-25 14:19:01.08	58.04	13.06	-34.9	-35.6	25.1	0.00e+00	0	41	0	1327497216	42	6134
2026-01-25 14:19:02.09	58.23	13.09	-34.7	-35.4	25.3	0.00e+00	0	41	0	1333788672	42	5973
2026-01-25 14:19:03.10	58.42	13.12	-34.4	-35.1	25.5	0.00e+00	0	41	0	1339031552	42	5777
2026-01-25 14:19:04.11	58.62	13.14	-34.7	-35.4	25.3	0.00e+00	0	41	0	1345323008	42	6007
2026-01-25 14:19:05.12	58.81	13.17	-34.4	-35.0	25.6	0.00e+00	0	41	0	1350565888	42	5732
2026-01-25 14:19:06.13	59.00	13.20	-34.2	-34.9	25.8	0.00e+00	0	41	0	1355808768	42	5637
2026-01-25 14:19:07.14	59.19	13.23	-34.2	-34.9	25.7	0.00e+00	0	41	0	1362100224	42	5636
2026-01-25 14:19:08.15	59.39	13.26	-34.4	-35.1	25.6	0.00e+00	0	41	0	1367343104	42	5783
2026-01-25 14:19:09.16	59.58	13.29	-34.3	-34.9	25.7	0.00e+00	0	41	0	1373634560	42	5683
2026-01-25 14:19:10.17	59.78	13.32	-34.4	-35.0	25.6	0.00e+00	0	41	0	1378877440	42	5748
2026-01-25 14:19:11.18	59.97	13.34	-34.2	-34.8	25.9	0.00e+00	0	41	0	1384120320	42	5617
2026-01-25 14:19:12.19	60.17	13.37	-34.4	-35.0	25.5	0.00e+00	0	41	0	1390411776	42	5731
2026-01-25 14:19:13.20	60.36	13.40	-34.0	-34.7	25.8	0.00e+00	0	41	0	1395654656	42	5531
2026-01-25 14:19:14.21	60.56	13.42	-34.1	-34.8	25.6	0.00e+00	0	41	0	1400897536	42	5606
2026-01-25 14:19:15.22	60.75	13.45	-34.2	-34.8	25.4	0.00e+00	0	41	0	1407188992	42	5602
2026-01-25 14:19:16.22	60.95	13.48	-34.1	-34.8	25.5	0.00e+00	0	41	0	1412431872	42	5583
2026-01-25 14:19:17.23	61.14	13.50	-34.1	-34.8	25.7	0.00e+00	0	41	0	1418723328	42	5573
2026-01-25 14:19:18.24	61.34	13.53	-34.2	-34.9	25.6	0.00e+00	0	41	0	1423966208	42	5676
2026-01-25 14:19:19.25	61.54	13.55	-34.4	-35.0	25.6	0.00e+00	0	41	0	1430257664	42	5741
2026-01-25 14:19:20.26	61.74	13.58	-33.9	-34.6	26.0	0.00e+00	0	41	0	1435500544	42	5444
2026-01-25 14:19:21.27	61.93	13.60	-34.1	-34.8	25.8	0.00e+00	0	41	0	1441792000	42	5574
2026-01-25 14:19:22.28	62.13	13.63	-34.1	-34.7	25.7	0.00e+00	0	41	0	1447034880	42	5555
2026-01-25 14:19:23.29	62.33	13.65	-34.1	-34.7	25.9	0.00e+00	0	41	0	1452277760	42	5559
2026-01-25 14:19:24.30	62.53	13.68	-34.0	-34.6	25.8	0.00e+00	0	41	0	1458569216	42	5471
2026-01-25 14:19:25.31	62.73	13.70	-33.9	-34.6	26.0	0.00e+00	0	41	0	1463812096	42	5444
2026-01-25 14:19:26.32	62.93	13.72	-33.9	-34.5	25.9	0.00e+00	0	41	0	1470103552	42	5432
2026-01-25 14:19:27.33	63.13	13.75	-33.9	-34.5	26.0	0.00e+00	0	41	0	1475346432	42	5421
2026-01-25 14:19:28.34	63.33	13.77	-34.1	-34.8	25.7	0.00e+00	0	41	0	1480589312	42	5567
2026-01-25 14:19:29.35	63.53	13.79	-34.0	-34.7	25.9	0.00e+00	0	41	0	1486880768	42	5511
2026-01-25 14:19:30.36	63.73	13.81	-34.3	-35.0	25.6	0.00e+00	0	41	0	1492123648	42	5725
2026-01-25 14:19:31.37	63.93	13.83	-34.5	-35.2	25.5	0.00e+00	0	41	0	1498415104	42	5830
2026-01-25 14:19:32.38	64.13	13.86	-34.6	-35.2	25.4	0.00e+00	0	41	0	1503657984	42	5875
2026-01-25 14:19:33.39	64.34	13.88	-34.4	-35.1	25.6	0.00e+00	0	41	0	1508900864	42	5775
2026-01-25 14:19:34.39	64.54	13.90	-34.3	-35.0	25.6	0.00e+00	0	41	0	1515192320	42	5729
2026-01-25 14:19:35.40	64.74	13.92	-34.7	-35.4	25.2	0.00e+00	0	41	0	1520435200	42	6025
2026-01-25 14:19:36.41	64.94	13.94	-35.2	-35.9	25.0	0.00e+00	0	41	0	1526726656	42	6339
2026-01-25 14:19:37.42	65.14	13.96	-35.0	-35.7	25.1	0.00e+00	0	41	0	1531969536	42	6212
2026-01-25 14:19:38.43	65.35	13.98	-35.1	-35.8	24.9	0.00e+00	0	41	0	1538260992	42	6276
2026-01-25 14:19:39.44	65.55	14.00	-34.5	-35.1	25.5	0.00e+00	0	41	0	1543503872	42	5819
2026-01-25 14:19:40.45	65.75	14.02	-34.5	-35.2	25.6	0.00e+00	0	41	0	1548746752	42	5865
2026-01-25 14:19:41.46	65.96	14.04	-34.1	-34.8	25.8	0.00e+00	0	41	0	1555038208	42	5576
2026-01-25 14:19:42.47	66.16	14.05	-34.1	-34.7	25.8	0.00e+00	0	41	0	1560281088	42	5546
2026-01-25 14:19:43.48	66.37	14.07	-34.0	-34.6	25.8	0.00e+00	0	41	0	1566572544	42	5501
2026-01-25 14:19:44.49	66.57	14.09	-34.1	-34.7	25.8	0.00e+00	0	41	0	1571815424	42	5524
2026-01-25 14:19:45.50	66.78	14.11	-34.1	-34.7	25.7	0.00e+00	0	41	0	1577058304	42	5536
2026-01-25 14:19:46.51	66.98	14.12	-34.5	-35.1	25.3	0.00e+00	0	41	0	1583349760	42	5814
2026-01-25 14:19:47.52	67.19	14.14	-34.5	-35.1	25.2	0.00e+00	0	41	0	1588592640	42	5821
2026-01-25 14:19:48.53	67.39	14.16	-34.1	-34.8	25.5	0.00e+00	0	41	0	1594884096	42	5595
2026-01-25 14:19:49.53	67.60	14.17	-34.1	-34.8	25.7	0.00e+00	0	41	0	1600126976	42	5597
2026-01-25 14:19:50.55	67.80	14.19	-34.2	-34.9	25.7	0.00e+00	0	41	0	1605369856	42	5642
2026-01-25 14:19:51.56	68.01	14.20	-34.0	-34.7	25.8	0.00e+00	0	41	0	1611661312	42	5531
2026-01-25 14:19:52.57	68.22	14.22	-34.2	-34.8	25.8	0.00e+00	0	41	0	1616904192	42	5616
2026-01-25 14:19:53.57	68.42	14.23	-34.1	-34.8	25.8	0.00e+00	0	41	0	1623195648	42	5567
2026-01-25 14:19:54.58	68.63	14.25	-34.2	-34.9	25.7	0.00e+00	0	41	0	1628438528	42	5694
2026-01-25 14:19:55.60	68.84	14.26	-34.1	-34.8	25.8	0.00e+00	0	41	0	1634729984	42	5625
2026-01-25 14:19:56.61	69.04	14.28	-34.3	-35.0	25.6	0.00e+00	0	41	0	1639972864	42	5696
2026-01-25 14:19:57.61	69.25	14.29	-34.2	-34.9	25.7	0.00e+00	0	41	0	1646264320	42	5654
2026-01-25 14:19:58.62	69.46	14.30	-33.8	-34.5	26.0	0.00e+00	0	41	0	1651507200	42	5379
2026-01-25 14:19:59.64	69.67	14.32	-33.7	-34.4	26.1	0.00e+00	0	41	0	1656750080	40	5987
2026-01-25 14:20:00.64	69.87	14.33	-33.9	-34.5	25.8	0.00e+00	0	41	0	1663041536	40	6089
2026-01-25 14:20:01.65	70.08	14.34	-33.9	-34.6	25.8	0.00e+00	0	41	0	1668284416	40	6107
2026-01-25 14:20:02.66	70.29	14.35	-33.9	-34.5	25.9	0.00e+00	0	41	0	1673527296	40	6102
2026-01-25 14:20:03.67	70.50	14.36	-33.7	-34.4	25.9	0.00e+00	0	41	0	1679818752	40	6010
2026-01-25 14:20:04.68	70.71	14.38	-33.8	-34.5	25.9	0.00e+00	0	41	0	1685061632	40	6101
2026-01-25 14:20:05.69	70.92	14.39	-34.0	-34.7	25.9	0.00e+00	0	41	0	1691353088	40	6216
2026-01-25 14:20:06.70	71.13	14.40	-34.1	-34.8	25.8	0.00e+00	0	41	0	1696595968	40	6256
2026-01-25 14:20:07.71	71.33	14.41	-34.0	-34.7	26.0	0.00e+00	0	41	0	1702887424	40	6179
2026-01-25 14:20:08.72	71.54	14.42	-34.0	-34.7	25.9	0.00e+00	0	41	0	1708130304	40	6218
2026-01-25 14:20:09.73	71.75	14.43	-34.1	-34.8	25.8	0.00e+00	0	41	0	1713373184	40	6264
2026-01-25 14:20:10.74	71.96	14.43	-34.3	-35.0	25.6	0.00e+00	0	41	0	1719664640	40	6399
2026-01-25 14:20:11.75	72.17	14.44	-34.2	-34.8	25.8	0.00e+00	0	41	0	1724907520	40	6305
2026-01-25 14:20:12.76	72.38	14.45	-34.2	-34.8	25.8	0.00e+00	0	41	0	1731198976	40	6300
2026-01-25 14:20:13.77	72.59	14.46	-34.1	-34.8	25.8	0.00e+00	0	41	0	1736441856	40	6263
2026-01-25 14:20:14.78	72.80	14.47	-34.3	-35.0	25.7	0.00e+00	0	41	0	1742733312	40	6420
2026-01-25 14:20:15.79	73.01	14.47	-34.2	-34.8	25.6	0.00e+00	0	41	0	1747976192	40	6314
2026-01-25 14:20:16.80	73.22	14.48	-34.2	-34.9	25.6	0.00e+00	0	41	0	1753219072	40	6353
2026-01-25 14:20:17.81	73.43	14.49	-34.5	-35.1	25.4	0.00e+00	0	41	0	1759510528	40	6532
2026-01-25 14:20:18.82	73.64	14.49	-34.4	-35.1	25.3	0.00e+00	0	41	0	1764753408	40	6521
2026-01-25 14:20:19.83	73.85	14.50	-34.7	-35.4	25.2	0.00e+00	0	41	0	1771044864	42	5977
2026-01-25 14:20:20.84	74.06	14.50	-34.5	-35.2	25.5	0.00e+00	0	41	0	1776287744	42	5867
2026-01-25 14:20:21.85	74.27	14.51	-34.3	-34.9	25.6	0.00e+00	0	41	0	1781530624	42	5686
2026-01-25 14:20:22.86	74.48	14.51	-34.1	-34.7	25.7	0.00e+00	0	41	0	1787822080	42	5553
2026-01-25 14:20:23.86	74.69	14.52	-34.3	-35.0	25.6	0.00e+00	0	41	0	1793064960	42	5715
2026-01-25 14:20:24.87	74.90	14.52	-34.1	-34.8	25.7	0.00e+00	0	41	0	1799356416	42	5601
2026-01-25 14:20:25.88	75.12	14.53	-33.8	-34.5	26.0	0.00e+00	0	41	0	1804599296	40	6075
2026-01-25 14:20:26.89	75.33	14.53	-34.4	-35.0	25.6	0.00e+00	0	41	0	1809842176	40	6452
2026-01-25 14:20:27.90	75.54	14.53	-34.4	-35.1	25.5	0.00e+00	0	41	0	1816133632	40	6495
2026-01-25 14:20:28.91	75.75	14.54	-34.6	-35.3	25.2	0.00e+00	0	41	0	1821376512	40	6619
2026-01-25 14:20:29.92	75.96	14.54	-34.7	-35.3	25.2	0.00e+00	0	41	0	1827667968	42	5951
2026-01-25 14:20:30.93	76.17	14.54	-34.5	-35.3	25.2	0.00e+00	0	41	0	1832910848	42	5905
2026-01-25 14:20:31.94	76.38	14.54	-34.3	-35.0	25.5	0.00e+00	0	41	0	1839202304	42	5703
2026-01-25 14:20:32.95	76.59	14.54	-34.2	-34.9	25.6	0.00e+00	0	41	0	1844445184	42	5660
2026-01-25 14:20:33.96	76.80	14.54	-34.0	-34.7	25.9	0.00e+00	0	41	0	1849688064	42	5503
2026-01-25 14:20:34.97	77.01	14.54	-34.3	-35.0	25.6	0.00e+00	0	41	0	1855979520	42	5705
2026-01-25 14:20:35.97	77.22	14.54	-34.1	-34.8	25.9	0.00e+00	0	41	0	1861222400	42	5594
2026-01-25 14:20:36.98	77.43	14.54	-34.1	-34.7	25.8	0.00e+00	0	41	0	1867513856	42	5561
2026-01-25 14:20:37.99	77.65	14.54	-34.3	-35.0	25.6	0.00e+00	0	41	0	1872756736	42	5709
2026-01-25 14:20:39.00	77.86	14.54	-34.3	-34.9	25.8	0.00e+00	0	41	0	1877999616	42	5695
2026-01-25 14:20:40.01	78.07	14.54	-34.4	-35.1	25.5	0.00e+00	0	41	0	1884291072	42	5809
2026-01-25 14:20:41.02	78.28	14.54	-34.3	-35.0	25.6	0.00e+00	0	41	0	1889533952	42	5718
2026-01-25 14:20:42.03	78.49	14.54	-34.3	-35.0	25.5	0.00e+00	0	41	0	1895825408	42	5752
2026-01-25 14:20:43.04	78.70	14.53	-34.4	-35.1	25.4	0.00e+00	0	41	0	1901068288	42	5798
2026-01-25 14:20:44.05	78.91	14.53	-34.3	-35.0	25.4	0.00e+00	0	41	0	1906311168	42	5719
2026-01-25 14:20:45.06	79.12	14.53	-34.4	-35.1	25.4	0.00e+00	0	41	0	1912602624	42	5795
2026-01-25 14:20:46.07	79.33	14.52	-34.5	-35.1	25.3	0.00e+00	0	41	0	1917845504	42	5789
2026-01-25 14:20:47.08	79.55	14.52	-34.2	-34.8	25.6	0.00e+00	0	41	0	1924136960	42	5615
2026-01-25 14:20:48.09	79.76	14.52	-34.3	-34.9	25.5	0.00e+00	0	41	0	1929379840	42	5659
2026-01-25 14:20:49.10	79.97	14.51	-34.3	-35.0	25.5	0.00e+00	0	41	0	1935671296	42	5727
2026-01-25 14:20:50.11	80.18	14.51	-34.3	-35.0	25.5	0.00e+00	0	41	0	1940914176	42	5698
2026-01-25 14:20:51.12	80.39	14.50	-34.6	-35.3	25.2	0.00e+00	0	41	0	1947205632	42	5937
2026-01-25 14:20:52.13	80.60	14.50	-34.1	-34.7	25.6	0.00e+00	0	41	0	1952448512	42	5555
2026-01-25 14:20:53.14	80.81	14.49	-34.2	-34.8	25.7	0.00e+00	0	41	0	1957691392	42	5626
2026-01-25 14:20:54.15	81.02	14.48	-34.2	-34.8	25.7	0.00e+00	0	41	0	1963982848	42	5602
2026-01-25 14:20:55.16	81.23	14.48	-34.4	-35.0	25.5	0.00e+00	0	41	0	1969225728	42	5744
2026-01-25 14:20:56.17	81.44	14.47	-34.3	-34.9	25.6	0.00e+00	0	41	0	1975517184	42	5684
2026-01-25 14:20:57.18	81.65	14.46	-34.3	-35.0	25.6	0.00e+00	0	41	0	1980760064	42	5723
2026-01-25 14:20:58.19	81.86	14.45	-34.3	-35.0	25.6	0.00e+00	0	41	0	1986002944	42	5706
2026-01-25 14:20:59.20	82.07	14.45	-34.3	-35.0	25.6	0.00e+00	0	41	0	1992294400	42	5725
2026-01-25 14:21:00.21	82.28	14.44	-34.3	-34.9	25.6	0.00e+00	0	41	0	1997537280	42	5691
2026-01-25 14:21:01.22	82.49	14.43	-34.3	-35.0	25.7	0.00e+00	0	41	0	2003828736	42	5705
2026-01-25 14:21:02.23	82.70	14.42	-34.2	-34.9	25.8	0.00e+00	0	41	0	2009071616	42	5654
2026-01-25 14:21:03.24	82.91	14.41	-34.1	-34.8	25.9	0.00e+00	0	41	0	2014314496	42	5588
2026-01-25 14:21:04.25	83.12	14.40	-34.4	-35.1	25.6	0.00e+00	0	41	0	2020605952	42	5764
2026-01-25 14:21:05.26	83.33	14.39	-34.3	-35.0	25.7	0.00e+00	0	41	0	2025848832	42	5739
2026-01-25 14:21:06.27	83.54	14.38	-34.7	-35.4	25.3	0.00e+00	0	41	0	2032140288	42	5986
2026-01-25 14:21:07.28	83.75	14.37	-34.4	-35.0	25.5	0.00e+00	0	41	0	2037383168	42	5753
2026-01-25 14:21:08.29	83.96	14.36	-34.1	-34.8	25.8	0.00e+00	0	41	0	2043674624	42	5572
2026-01-25 14:21:09.30	84.16	14.35	-34.3	-34.9	25.8	0.00e+00	0	41	0	2048917504	42	5690
2026-01-25 14:21:10.31	84.37	14.33	-34.1	-34.8	25.9	0.00e+00	0	41	0	2054160384	42	5584
2026-01-25 14:21:11.32	84.58	14.32	-34.1	-34.7	25.9	0.00e+00	0	41	0	2060451840	42	5556
2026-01-25 14:21:12.33	84.79	14.31	-34.0	-34.7	25.9	0.00e+00	0	41	0	2065694720	42	5526
2026-01-25 14:21:13.34	85.00	14.30	-34.2	-34.8	25.8	0.00e+00	0	41	0	2071986176	42	5612
2026-01-25 14:21:14.35	85.21	14.28	-34.1	-34.8	25.8	0.00e+00	0	41	0	2077229056	42	5580
2026-01-25 14:21:15.36	85.41	14.27	-34.2	-34.8	25.7	0.00e+00	0	41	0	2082471936	42	5590
2026-01-25 14:21:16.37	85.62	14.25	-34.3	-34.9	25.7	0.00e+00	0	41	0	2088763392	42	5683
2026-01-25 14:21:17.38	85.83	14.24	-34.0	-34.6	25.9	0.00e+00	0	41	0	2094006272	42	5489
2026-01-25 14:21:18.39	86.03	14.23	-34.4	-35.0	25.5	0.00e+00	0	41	0	2100297728	42	5744
2026-01-25 14:21:19.39	86.24	14.21	-34.2	-34.8	25.7	0.00e+00	0	41	0	2105540608	42	5620
2026-01-25 14:21:20.40	86.45	14.19	-34.3	-35.0	25.7	0.00e+00	0	41	0	2110783488	42	5725
2026-01-25 14:21:21.41	86.65	14.18	-34.3	-35.0	25.5	0.00e+00	0	41	0	2117074944	42	5736
2026-01-25 14:21:22.42	86.86	14.16	-34.4	-35.1	25.6	0.00e+00	0	41	0	2122317824	42	5804
2026-01-25 14:21:23.43	87.06	14.15	-34.5	-35.2	25.4	0.00e+00	0	41	0	2128609280	42	5840
2026-01-25 14:21:24.44	87.27	14.13	-34.3	-34.9	25.7	0.00e+00	0	41	0	2133852160	42	5668
2026-01-25 14:21:25.45	87.48	14.11	-34.3	-35.0	25.6	0.00e+00	0	41	0	2140143616	42	5708
2026-01-25 14:21:26.46	87.68	14.10	-34.4	-35.0	25.6	0.00e+00	0	41	0	2145386496	42	5746
2026-01-25 14:21:27.47	87.89	14.08	-34.4	-35.1	25.6	0.00e+00	0	41	0	2151677952	42	5794
2026-01-25 14:21:28.48	88.09	14.06	-34.3	-35.1	25.7	0.00e+00	0	41	0	2156920832	42	5785
2026-01-25 14:21:29.49	88.30	14.04	-34.4	-35.0	25.5	0.00e+00	0	41	0	2162163712	42	5757
2026-01-25 14:21:30.49	88.50	14.02	-34.4	-35.0	25.6	0.00e+00	0	41	0	2168455168	42	5710
2026-01-25 14:21:31.50	88.70	14.00	-34.4	-35.1	25.6	0.00e+00	0	41	0	2173698048	42	5782
2026-01-25 14:21:32.51	88.91	13.98	-34.6	-35.3	25.4	0.00e+00	0	41	0	2179989504	42	5946
2026-01-25 14:21:33.52	89.11	13.97	-34.6	-35.3	25.3	0.00e+00	0	41	0	2185232384	42	5910
2026-01-25 14:21:34.53	89.31	13.95	-34.5	-35.2	25.4	0.00e+00	0	41	0	2190475264	42	5876
2026-01-25 14:21:35.54	89.52	13.93	-34.5	-35.2	25.5	0.00e+00	0	41	0	2196766720	42	5877
2026-01-25 14:21:36.55	89.72	13.90	-34.4	-35.1	25.5	0.00e+00	0	41	0	2202009600	42	5803
2026-01-25 14:21:37.56	89.92	13.88	-34.4	-35.2	25.5	0.00e+00	0	41	0	2208301056	42	5833
2026-01-25 14:21:38.57	90.12	13.86	-34.6	-35.3	25.3	0.00e+00	0	41	0	2213543936	42	5933
2026-01-25 14:21:39.58	90.33	13.84	-35.0	-35.7	25.2	0.00e+00	0	41	0	2218786816	42	6191
2026-01-25 14:21:40.59	90.53	13.82	-35.0	-35.7	25.1	0.00e+00	0	41	0	2225078272	42	6220
2026-01-25 14:21:41.60	90.73	13.80	-34.6	-35.3	25.4	0.00e+00	0	41	0	2230321152	42	5901
2026-01-25 14:21:42.61	90.93	13.77	-34.7	-35.4	25.3	0.00e+00	0	41	0	2236612608	42	5979
2026-01-25 14:21:43.62	91.13	13.75	-34.8	-35.5	25.2	0.00e+00	0	41	0	2241855488	42	6061
2026-01-25 14:21:44.63	91.33	13.73	-34.6	-35.3	25.5	0.00e+00	0	41	0	2248146944	42	5899
2026-01-25 14:21:45.63	91.53	13.71	-34.8	-35.5	25.3	0.00e+00	0	41	0	2253389824	42	6057
2026-01-25 14:21:46.64	91.73	13.68	-34.7	-35.4	25.2	0.00e+00	0	41	0	2258632704	42	5969
2026-01-25 14:21:47.65	91.93	13.66	-34.9	-35.6	25.1	0.00e+00	0	41	0	2264924160	42	6110
2026-01-25 14:21:48.67	92.13	13.63	-34.6	-35.2	25.4	0.00e+00	0	41	0	2270167040	42	5866
2026-01-25 14:21:49.68	92.33	13.61	-34.6	-35.3	25.3	0.00e+00	0	41	0	2276458496	42	5907
2026-01-25 14:21:50.69	92.53	13.58	-34.4	-35.1	25.5	0.00e+00	0	41	0	2281701376	42	5798
2026-01-25 14:21:51.69	92.73	13.56	-34.5	-35.1	25.4	0.00e+00	0	41	0	2286944256	42	5783
2026-01-25 14:21:52.70	92.92	13.53	-34.4	-35.0	25.5	0.00e+00	0	41	0	2293235712	42	5738
2026-01-25 14:21:53.71	93.12	13.51	-34.4	-35.2	25.5	0.00e+00	0	41	0	2298478592	42	5840
2026-01-25 14:21:54.72	93.32	13.48	-34.4	-35.0	25.6	0.00e+00	0	41	0	2304770048	42	5702
2026-01-25 14:21:55.73	93.52	13.46	-34.7	-35.5	25.2	0.00e+00	0	41	0	2310012928	42	6036
2026-01-25 14:21:56.74	93.71	13.43	-34.5	-35.3	25.4	0.00e+00	0	41	0	2315255808	42	5903
2026-01-25 14:21:57.75	93.91	13.40	-34.6	-35.3	25.4	0.00e+00	0	41	0	2321547264	42	5942
2026-01-25 14:21:58.76	94.11	13.38	-34.8	-35.5	25.1	0.00e+00	0	41	0	2326790144	42	6090
2026-01-25 14:21:59.77	94.30	13.35	-34.9	-35.6	25.1	0.00e+00	0	41	0	2333081600	42	6131
2026-01-25 14:22:00.78	94.50	13.32	-34.6	-35.2	25.3	0.00e+00	0	41	0	2338324480	42	5889
2026-01-25 14:22:01.79	94.69	13.29	-34.6	-35.3	25.3	0.00e+00	0	41	0	2344615936	42	5946
2026-01-25 14:22:02.80	94.89	13.27	-34.5	-35.1	25.4	0.00e+00	0	41	0	2349858816	42	5800
2026-01-25 14:22:03.81	95.08	13.24	-34.5	-35.1	25.4	0.00e+00	0	41	0	2356150272	42	5771
2026-01-25 14:22:04.82	95.27	13.21	-34.6	-35.2	25.3	0.00e+00	0	41	0	2361393152	42	5859
2026-01-25 14:22:05.83	95.47	13.18	-34.8	-35.4	25.2	0.00e+00	0	41	0	2366636032	42	6027
2026-01-25 14:22:06.84	95.66	13.15	-34.5	-35.2	25.5	0.00e+00	0	41	0	2372927488	42	5833
2026-01-25 14:22:07.85	95.85	13.12	-34.7	-35.4	25.2	0.00e+00	0	41	0	2378170368	42	5984
2026-01-25 14:22:08.86	96.05	13.09	-34.7	-35.3	25.3	0.00e+00	0	41	0	2384461824	42	5932
2026-01-25 14:22:09.87	96.24	13.06	-34.4	-35.1	25.4	0.00e+00	0	41	0	2389704704	42	5778
2026-01-25 14:22:10.88	96.43	13.03	-34.4	-35.2	25.5	0.00e+00	0	41	0	2394947584	42	5832
2026-01-25 14:22:11.89	96.62	13.00	-34.7	-35.4	25.2	0.00e+00	0	41	0	2401239040	42	6022
2026-01-25 14:22:12.90	96.81	12.97	-34.9	-35.6	25.1	0.00e+00	0	41	0	2406481920	42	6161
2026-01-25 14:22:13.91	97.00	12.94	-34.6	-35.3	25.3	0.00e+00	0	41	0	2412773376	42	5920
2026-01-25 14:22:14.92	97.19	12.91	-34.6	-35.4	25.3	0.00e+00	0	41	0	2418016256	42	5971
2026-01-25 14:22:15.93	97.38	12.88	-34.7	-35.3	25.4	0.00e+00	0	41	0	2423259136	42	5959
2026-01-25 14:22:16.94	97.57	12.84	-34.6	-35.2	25.3	0.00e+00	0	41	0	2429550592	42	5884
2026-01-25 14:22:17.95	97.76	12.81	-34.7	-35.4	25.3	0.00e+00	0	41	0	2434793472	42	6024
2026-01-25 14:22:18.96	97.95	12.78	-34.7	-35.4	25.2	0.00e+00	0	41	0	2441084928	42	5991
2026-01-25 14:22:19.97	98.14	12.75	-34.7	-35.3	25.3	0.00e+00	0	41	0	2446327808	42	5941
2026-01-25 14:22:20.98	98.33	12.72	-34.7	-35.4	25.2	0.00e+00	0	41	0	2452619264	42	5971
2026-01-25 14:22:21.99	98.51	12.68	-34.9	-35.5	25.2	0.00e+00	0	41	0	2457862144	42	6083
2026-01-25 14:22:23.00	98.70	12.65	-34.7	-35.3	25.3	0.00e+00	0	41	0	2463105024	42	5953
2026-01-25 14:22:24.01	98.89	12.62	-34.6	-35.3	25.3	0.00e+00	0	41	0	2469396480	42	5913
2026-01-25 14:22:25.02	99.07	12.58	-34.8	-35.5	25.1	0.00e+00	0	41	0	2474639360	42	6075
2026-01-25 14:22:26.02	99.26	12.55	-34.8	-35.5	25.2	0.00e+00	0	41	0	2480930816	42	6083
2026-01-25 14:22:27.04	99.45	12.51	-35.0	-35.7	25.0	0.00e+00	0	41	0	2486173696	42	6233
2026-01-25 14:22:28.05	99.63	12.48	-34.9	-35.6	25.0	0.00e+00	0	41	0	2491416576	42	6129
2026-01-25 14:22:29.05	99.81	12.45	-35.0	-35.7	24.9	0.00e+00	0	41	0	2497708032	42	6194
2026-01-25 14:22:30.06	100.00	12.41	-35.0	-35.7	25.0	0.00e+00	0	41	0	2502950912	42	6222
2026-01-25 14:22:31.07	100.18	12.38	-34.8	-35.5	25.2	0.00e+00	0	41	0	2509242368	42	6066
2026-01-25 14:22:32.09	100.37	12.34	-34.9	-35.6	25.1	0.00e+00	0	41	0	2514485248	42	6119
2026-01-25 14:22:33.10	100.55	12.31	-35.2	-35.9	24.8	0.00e+00	0	41	0	2519728128	42	6369
2026-01-25 14:22:34.10	100.73	12.27	-34.7	-35.4	25.2	0.00e+00	0	41	0	2526019584	42	5969
2026-01-25 14:22:35.11	100.91	12.24	-35.1	-35.8	24.7	0.00e+00	0	41	0	2531262464	42	6266
2026-01-25 14:22:36.12	101.09	12.20	-35.1	-35.8	24.9	0.00e+00	0	41	0	2537553920	42	6246
2026-01-25 14:22:37.13	101.27	12.16	-34.9	-35.5	25.0	0.00e+00	0	41	0	2542796800	42	6062
2026-01-25 14:22:38.14	101.45	12.13	-34.9	-35.7	25.0	0.00e+00	0	41	0	2549088256	42	6180
2026-01-25 14:22:39.15	101.63	12.09	-35.1	-35.8	24.8	0.00e+00	0	41	0	2554331136	42	6263
2026-01-25 14:22:40.16	101.81	12.05	-35.3	-35.9	24.8	0.00e+00	0	41	0	2559574016	42	6335
2026-01-25 14:22:41.17	101.99	12.02	-35.0	-35.7	25.0	0.00e+00	0	41	0	2565865472	42	6211
2026-01-25 14:22:42.18	102.17	11.98	-34.6	-35.3	25.3	0.00e+00	0	41	0	2571108352	42	5905
2026-01-25 14:22:43.19	102.35	11.94	-34.8	-35.5	25.1	0.00e+00	0	41	0	2577399808	42	6062
2026-01-25 14:22:44.20	102.53	11.90	-35.0	-35.7	24.9	0.00e+00	0	41	0	2582642688	42	6223
2026-01-25 14:22:45.21	102.71	11.87	-35.0	-35.7	24.8	0.00e+00	0	41	0	2588934144	42	6230
2026-01-25 14:22:46.22	102.88	11.83	-35.0	-35.8	24.9	0.00e+00	0	41	0	2594177024	42	6256
2026-01-25 14:22:47.23	103.06	11.79	-35.3	-36.1	24.6	0.00e+00	0	41	0	2599419904	42	6473
2026-01-25 14:22:48.24	103.24	11.75	-35.2	-36.0	24.7	0.00e+00	0	41	0	2605711360	42	6437
2026-01-25 14:22:49.25	103.41	11.71	-35.1	-35.8	24.9	0.00e+00	0	41	0	2610954240	42	6273
2026-01-25 14:22:50.26	103.59	11.68	-35.1	-35.9	24.8	0.00e+00	0	41	0	2617245696	42	6323
2026-01-25 14:22:51.27	103.76	11.64	-35.1	-35.7	24.8	0.00e+00	0	41	0	2622488576	42	6241
2026-01-25 14:22:52.28	103.94	11.60	-34.9	-35.7	25.0	0.00e+00	0	41	0	2627731456	42	6199
2026-01-25 14:22:53.29	104.11	11.56	-35.1	-35.9	24.8	0.00e+00	0	41	0	2634022912	42	6332
2026-01-25 14:22:54.30	104.29	11.52	-35.1	-35.9	24.8	0.00e+00	0	41	0	2639265792	42	6328
2026-01-25 14:22:55.31	104.46	11.48	-35.0	-35.7	25.0	0.00e+00	0	41	0	2645557248	42	6179
2026-01-25 14:22:56.32	104.63	11.44	-35.0	-35.7	24.9	0.00e+00	0	41	0	2650800128	42	6243
2026-01-25 14:22:57.33	104.81	11.40	-35.3	-35.9	24.7	0.00e+00	0	41	0	2657091584	42	6359
2026-01-25 14:22:58.34	104.98	11.36	-35.1	-35.8	24.8	0.00e+00	0	41	0	2662334464	42	6256
2026-01-25 14:22:59.35	105.15	11.32	-35.2	-36.0	24.7	0.00e+00	0	41	0	2667577344	42	6407
2026-01-25 14:23:00.36	105.32	11.28	-35.2	-35.8	24.8	0.00e+00	0	41	0	2673868800	42	6312
2026-01-25 14:23:01.37	105.49	11.24	-35.3	-36.1	24.6	0.00e+00	0	41	0	2679111680	42	6488
2026-01-25 14:23:02.38	105.66	11.20	-35.5	-36.3	24.4	0.00e+00	0	41	0	2685403136	42	6654
2026-01-25 14:23:03.39	105.83	11.16	-35.6	-36.3	24.4	0.00e+00	0	41	0	2690646016	42	6643
2026-01-25 14:23:04.40	106.00	11.12	-35.4	-36.1	24.6	0.00e+00	0	41	0	2695888896	42	6473
2026-01-25 14:23:05.41	106.17	11.08	-35.6	-36.3	24.3	0.00e+00	0	41	0	2702180352	42	6681
2026-01-25 14:23:06.42	106.34	11.03	-35.5	-36.2	24.5	0.00e+00	0	41	0	2707423232	42	6597
2026-01-25 14:23:07.43	106.50	10.99	-35.5	-36.2	24.5	0.00e+00	0	41	0	2713714688	42	6560
2026-01-25 14:23:08.44	106.67	10.95	-35.6	-36.2	24.5	0.00e+00	0	41	0	2718957568	42	6592
2026-01-25 14:23:09.45	106.84	10.91	-35.6	-36.2	24.4	0.00e+00	0	41	0	2724200448	42	6588
2026-01-25 14:23:10.45	107.00	10.87	-35.2	-35.8	24.8	0.00e+00	0	41	0	2730491904	42	6300
2026-01-25 14:23:11.46	107.17	10.83	-35.3	-36.0	24.6	0.00e+00	0	41	0	2735734784	42	6461
2026-01-25 14:23:12.47	107.33	10.78	-35.4	-36.0	24.5	0.00e+00	0	41	0	2742026240	42	6439
2026-01-25 14:23:13.48	107.50	10.74	-35.6	-36.4	24.4	0.00e+00	0	41	0	2747269120	42	6712
2026-01-25 14:23:14.49	107.66	10.70	-35.3	-36.0	24.6	0.00e+00	0	41	0	2753560576	42	6407
2026-01-25 14:23:15.50	107.83	10.66	-35.5	-36.3	24.3	0.00e+00	0	41	0	2758803456	42	6666
2026-01-25 14:23:16.51	107.99	10.61	-35.4	-36.1	24.5	0.00e+00	0	41	0	2765094912	42	6503
2026-01-25 14:23:17.52	108.15	10.57	-35.4	-36.0	24.6	0.00e+00	0	41	0	2770337792	42	6441
2026-01-25 14:23:18.53	108.32	10.53	-35.4	-36.2	24.5	0.00e+00	0	41	0	2775580672	42	6561
2026-01-25 14:23:19.53	108.48	10.49	-35.4	-36.2	24.5	0.00e+00	0	41	0	2781872128	42	6549
2026-01-25 14:23:20.55	108.64	10.44	-35.5	-36.2	24.5	0.00e+00	0	41	0	2787115008	42	6607
2026-01-25 14:23:21.55	108.80	10.40	-35.5	-36.2	24.5	0.00e+00	0	41	0	2792357888	42	6603
2026-01-25 14:23:22.56	108.96	10.36	-35.5	-36.2	24.5	0.00e+00	0	41	0	2798649344	42	6542
2026-01-25 14:23:23.57	109.12	10.31	-35.6	-36.3	24.3	0.00e+00	0	41	0	2803892224	42	6638
2026-01-25 14:23:24.58	109.28	10.27	-35.5	-36.1	24.4	0.00e+00	0	41	0	2810183680	42	6506
2026-01-25 14:23:25.59	109.44	10.22	-35.3	-36.0	24.6	0.00e+00	0	41	0	2815426560	42	6434
2026-01-25 14:23:26.60	109.60	10.18	-35.5	-36.2	24.4	0.00e+00	0	41	0	2820669440	42	6601
2026-01-25 14:23:27.61	109.76	10.14	-35.4	-36.1	24.5	0.00e+00	0	41	0	2826960896	42	6479
2026-01-25 14:23:28.62	109.92	10.09	-35.5	-36.2	24.4	0.00e+00	0	41	0	2832203776	42	6565
2026-01-25 14:23:29.63	110.07	10.05	-35.6	-36.4	24.2	0.00e+00	0	41	0	2838495232	42	6769
2026-01-25 14:23:30.64	110.23	10.00	-35.4	-36.2	24.4	0.00e+00	0	41	0	2843738112	42	6558
2026-01-25 14:23:31.65	110.39	9.96	-35.3	-36.0	24.6	0.00e+00	0	41	0	2850029568	42	6412
2026-01-25 14:23:32.66	110.55	9.91	-35.6	-36.3	24.3	0.00e+00	0	41	0	2855272448	42	6672
2026-01-25 14:23:33.67	110.70	9.87	-35.3	-36.1	24.6	0.00e+00	0	41	0	2861563904	42	6475
2026-01-25 14:23:34.68	110.86	9.83	-35.4	-36.2	24.5	0.00e+00	0	41	0	2866806784	42	6540
2026-01-25 14:23:35.69	111.01	9.78	-35.5	-36.3	24.4	0.00e+00	0	41	0	2872049664	42	6622
2026-01-25 14:23:36.69	111.16	9.74	-35.5	-36.2	24.4	0.00e+00	0	41	0	2878341120	42	6569
2026-01-25 14:23:37.71	111.32	9.69	-35.7	-36.3	24.3	0.00e+00	0	41	0	2883584000	42	6676
2026-01-25 14:23:38.72	111.47	9.65	-35.5	-36.3	24.4	0.00e+00	0	41	0	2889875456	42	6645
2026-01-25 14:23:39.73	111.63	9.60	-35.7	-36.5	24.2	0.00e+00	0	41	0	2895118336	42	6814
2026-01-25 14:23:40.74	111.78	9.55	-35.8	-36.5	24.1	0.00e+00	0	41	0	2900361216	44	6098
2026-01-25 14:23:41.75	111.93	9.51	-35.8	-36.5	24.1	0.00e+00	0	41	0	2906652672	44	6099
2026-01-25 14:23:42.75	112.08	9.46	-35.7	-36.5	24.2	0.00e+00	0	41	0	2911895552	44	6075
2026-01-25 14:23:43.76	112.23	9.42	-35.6	-36.3	24.3	0.00e+00	0	41	0	2918187008	44	5910
2026-01-25 14:23:44.77	112.38	9.37	-35.7	-36.5	24.1	0.00e+00	0	41	0	2923429888	44	6071
2026-01-25 14:23:45.78	112.53	9.33	-35.7	-36.3	24.2	0.00e+00	0	41	0	2928672768	44	5958
2026-01-25 14:23:46.79	112.68	9.28	-35.8	-36.6	24.1	0.00e+00	0	41	0	2934964224	44	6149
2026-01-25 14:23:47.80	112.83	9.24	-35.9	-36.7	23.9	0.00e+00	0	41	0	2940207104	44	6213
2026-01-25 14:23:48.81	112.98	9.19	-35.7	-36.4	24.1	0.00e+00	0	41	0	2946498560	44	6022
2026-01-25 14:23:49.82	113.13	9.14	-35.9	-36.6	24.0	0.00e+00	0	41	0	2951741440	44	6104
2026-01-25 14:23:50.83	113.28	9.10	-36.0	-36.8	23.8	0.00e+00	0	41	0	2958032896	44	6277
2026-01-25 14:23:51.83	113.42	9.05	-36.0	-36.8	23.8	0.00e+00	0	41	0	2963275776	44	6293
2026-01-25 14:23:52.84	113.57	9.00	-35.9	-36.6	24.0	0.00e+00	0	42	0	2968518656	44	6135
2026-01-25 14:23:53.85	113.72	8.96	-35.9	-36.6	23.7	0.00e+00	0	41	0	2974810112	44	6120
2026-01-25 14:23:54.86	113.86	8.91	-35.9	-36.6	23.9	0.00e+00	0	41	0	2980052992	44	6162
2026-01-25 14:23:55.87	114.01	8.86	-35.9	-36.5	24.0	0.00e+00	0	41	0	2986344448	44	6097
2026-01-25 14:23:56.88	114.16	8.82	-35.8	-36.6	23.9	0.00e+00	0	41	0	2991587328	44	6147
2026-01-25 14:23:57.89	114.30	8.77	-36.0	-36.8	23.8	0.00e+00	0	41	0	2996830208	44	6287
2026-01-25 14:23:58.90	114.45	8.72	-36.0	-36.8	23.7	0.00e+00	0	41	0	3003121664	44	6261
2026-01-25 14:23:59.91	114.59	8.68	-36.1	-36.8	23.6	0.00e+00	0	41	0	3008364544	44	6288
2026-01-25 14:24:00.92	114.73	8.63	-36.1	-36.9	23.7	0.00e+00	0	41	0	3014656000	44	6357
2026-01-25 14:24:01.93	114.88	8.58	-36.3	-37.1	23.6	0.00e+00	0	41	0	3019898880	44	6472
2026-01-25 14:24:02.94	115.02	8.54	-36.1	-36.9	23.6	0.00e+00	0	41	0	3025141760	44	6385
2026-01-25 14:24:03.95	115.16	8.49	-36.3	-37.1	23.4	0.00e+00	0	41	0	3031433216	44	6495
2026-01-25 14:24:04.96	115.30	8.44	-36.6	-37.3	23.2	0.00e+00	0	42	0	3036676096	44	6639
2026-01-25 14:24:05.97	115.44	8.40	-36.3	-37.2	23.1	0.00e+00	0	41	0	3042967552	44	6542
2026-01-25 14:24:06.97	115.58	8.35	-36.1	-36.8	23.6	0.00e+00	0	42	0	3048210432	44	6315
2026-01-25 14:24:07.98	115.72	8.30	-36.1	-36.7	23.6	0.00e+00	0	41	0	3054501888	44	6244
2026-01-25 14:24:08.99	115.86	8.25	-35.8	-36.6	24.0	0.00e+00	0	42	0	3059744768	44	6117
2026-01-25 14:24:10.00	116.00	8.21	-35.8	-36.6	23.9	0.00e+00	0	41	0	3064987648	44	6155
2026-01-25 14:24:11.01	116.14	8.16	-36.6	-37.3	23.2	0.00e+00	0	42	0	3071279104	44	6633
2026-01-25 14:24:12.02	116.28	8.11	-36.2	-36.9	23.6	0.00e+00	0	41	0	3076521984	44	6340
2026-01-25 14:24:13.03	116.42	8.06	-36.6	-37.3	23.3	0.00e+00	0	41	0	3082813440	44	6663
2026-01-25 14:24:14.04	116.56	8.02	-36.7	-37.5	23.1	0.00e+00	0	42	0	3088056320	44	6795
2026-01-25 14:24:15.05	116.70	7.97	-36.9	-37.6	23.0	0.00e+00	0	41	0	3093299200	46	6118
2026-01-25 14:24:16.06	116.83	7.92	-36.0	-36.7	23.7	0.00e+00	0	41	0	3099590656	46	5546
2026-01-25 14:24:17.07	116.97	7.87	-36.3	-37.0	23.6	0.00e+00	0	42	0	3104833536	46	5696
2026-01-25 14:24:18.08	117.10	7.82	-36.4	-37.1	23.4	0.00e+00	0	42	0	3111124992	46	5816
2026-01-25 14:24:19.09	117.24	7.78	-36.1	-36.8	23.6	0.00e+00	0	41	0	3116367872	46	5619
2026-01-25 14:24:20.10	117.38	7.73	-36.4	-37.2	23.4	0.00e+00	0	42	0	3121610752	46	5864
2026-01-25 14:24:21.11	117.51	7.68	-36.1	-36.8	23.7	0.00e+00	0	41	0	3127902208	46	5607
2026-01-25 14:24:22.12	117.64	7.63	-36.2	-37.0	23.6	0.00e+00	0	42	0	3133145088	46	5756
2026-01-25 14:24:23.13	117.78	7.58	-36.2	-37.0	23.6	0.00e+00	0	41	0	3139436544	46	5742
2026-01-25 14:24:24.13	117.91	7.54	-36.1	-36.8	23.7	0.00e+00	0	42	0	3144679424	46	5568
2026-01-25 14:24:25.14	118.04	7.49	-36.0	-36.9	23.7	0.00e+00	0	42	0	3150970880	46	5644
2026-01-25 14:24:26.15	118.18	7.44	-36.6	-37.5	23.1	0.00e+00	0	41	0	3156213760	46	6052
2026-01-25 14:24:27.16	118.31	7.39	-36.3	-37.0	23.5	0.00e+00	0	41	0	3162505216	46	5714
2026-01-25 14:24:28.17	118.44	7.34	-36.4	-37.3	23.3	0.00e+00	0	42	0	3167748096	46	5898
2026-01-25 14:24:29.18	118.57	7.29	-36.2	-37.0	23.6	0.00e+00	0	41	0	3172990976	46	5702
2026-01-25 14:24:30.19	118.70	7.25	-36.1	-36.9	23.7	0.00e+00	0	41	0	3179282432	46	5659
2026-01-25 14:24:31.20	118.83	7.20	-36.7	-37.5	23.1	0.00e+00	0	41	0	3184525312	46	6076
2026-01-25 14:24:32.21	118.96	7.15	-36.7	-37.5	23.2	0.00e+00	0	41	0	3190816768	46	6052
2026-01-25 14:24:33.22	119.09	7.10	-36.5	-37.3	23.3	0.00e+00	0	41	0	3196059648	46	5940
2026-01-25 14:24:34.23	119.22	7.05	-36.3	-37.1	23.4	0.00e+00	0	42	0	3201302528	46	5809
2026-01-25 14:24:35.24	119.35	7.00	-36.3	-37.0	23.4	0.00e+00	0	42	0	3207593984	46	5755
2026-01-25 14:24:36.25	119.48	6.96	-36.7	-37.4	23.0	0.00e+00	0	42	0	3212836864	46	6032
2026-01-25 14:24:37.26	119.61	6.91	-36.9	-37.7	22.9	0.00e+00	0	41	0	3218079744	46	6218
2026-01-25 14:24:38.26	119.74	6.86	-36.6	-37.3	23.1	0.00e+00	0	42	0	3224371200	46	5947
2026-01-25 14:24:39.27	119.86	6.81	-36.9	-37.7	22.9	0.00e+00	0	41	0	3229614080	46	6217
2026-01-25 14:24:40.28	119.99	6.76	-36.8	-37.5	23.0	0.00e+00	0	41	0	3235905536	46	6042
2026-01-25 14:24:41.29	120.12	6.71	-36.7	-37.4	23.1	0.00e+00	0	42	0	3241148416	46	5990
2026-01-25 14:24:42.30	120.24	6.66	-37.2	-37.9	22.5	0.00e+00	0	41	0	3247439872	46	6362
2026-01-25 14:24:43.31	120.37	6.62	-37.1	-37.9	22.6	0.00e+00	0	42	0	3252682752	46	6327
2026-01-25 14:24:44.33	120.49	6.57	-37.0	-37.8	22.7	0.00e+00	0	41	0	3258974208	46	6254
2026-01-25 14:24:45.34	120.62	6.52	-37.4	-38.2	22.3	0.00e+00	0	42	0	3264217088	46	6611
2026-01-25 14:24:46.34	120.74	6.47	-37.6	-38.4	22.2	0.00e+00	0	41	0	3269459968	46	6755
2026-01-25 14:24:47.35	120.87	6.42	-37.3	-38.1	22.5	0.00e+00	0	41	0	3275751424	46	6530
2026-01-25 14:24:48.36	120.99	6.37	-36.8	-37.5	22.8	0.00e+00	0	41	0	3280994304	46	6103
2026-01-25 14:24:49.37	121.11	6.32	-37.0	-37.7	22.7	0.00e+00	0	42	0	3287285760	46	6225
2026-01-25 14:24:50.38	121.24	6.27	-37.3	-38.1	22.4	0.00e+00	0	42	0	3292528640	46	6501
2026-01-25 14:24:51.39	121.36	6.22	-36.8	-37.6	22.8	0.00e+00	0	42	0	3297771520	46	6166
2026-01-25 14:24:52.40	121.48	6.18	-37.1	-37.9	22.5	0.00e+00	0	42	0	3304062976	46	6347
2026-01-25 14:24:53.41	121.60	6.13	-36.8	-37.6	22.8	0.00e+00	0	42	0	3309305856	46	6136
2026-01-25 14:24:54.42	121.72	6.08	-36.6	-37.3	22.9	0.00e+00	0	42	0	3315597312	46	5940
2026-01-25 14:24:55.43	121.85	6.03	-37.5	-38.4	22.2	0.00e+00	0	42	0	3320840192	46	6707
2026-01-25 14:24:56.44	121.97	5.98	-37.4	-38.2	22.4	0.00e+00	0	42	0	3326083072	46	6565
2026-01-25 14:24:57.45	122.09	5.93	-37.5	-38.4	22.1	0.00e+00	0	42	0	3332374528	46	6764
2026-01-25 14:24:58.46	122.21	5.88	-37.8	-38.5	22.0	0.00e+00	0	42	0	3337617408	48	6102
2026-01-25 14:24:59.46	122.32	5.83	-36.8	-37.6	22.8	0.00e+00	0	42	0	3343908864	48	5491
2026-01-25 14:25:00.48	122.44	5.78	-37.7	-38.5	21.9	0.00e+00	0	42	0	3349151744	46	6811
2026-01-25 14:25:01.49	122.56	5.73	-37.3	-38.1	22.2	0.00e+00	0	41	0	3355443200	48	5811
2026-01-25 14:25:02.50	122.68	5.69	-37.0	-37.8	22.5	0.00e+00	0	42	0	3360686080	48	5567
2026-01-25 14:25:03.51	122.80	5.64	-37.0	-37.8	22.7	0.00e+00	0	42	0	3365928960	48	5612
2026-01-25 14:25:04.51	122.91	5.59	-38.2	-39.1	21.4	0.00e+00	0	42	0	3372220416	48	6480
2026-01-25 14:25:05.52	123.03	5.54	-37.7	-38.5	22.0	0.00e+00	0	42	0	3377463296	48	6102
2026-01-25 14:25:06.53	123.15	5.49	-36.7	-37.5	22.9	0.00e+00	0	42	0	3383754752	46	6076
2026-01-25 14:25:07.54	123.26	5.44	-37.0	-37.9	22.6	0.00e+00	0	42	0	3388997632	46	6336
2026-01-25 14:25:08.55	123.38	5.39	-37.5	-38.3	22.2	0.00e+00	0	41	0	3394240512	46	6674
2026-01-25 14:25:09.56	123.50	5.34	-37.6	-38.5	22.0	0.00e+00	0	42	0	3400531968	46	6816
2026-01-25 14:25:10.57	123.61	5.29	-37.3	-38.2	22.2	0.00e+00	0	42	0	3405774848	46	6553
2026-01-25 14:25:11.58	123.73	5.24	-37.5	-38.3	22.1	0.00e+00	0	42	0	3412066304	48	5926
2026-01-25 14:25:12.59	123.84	5.20	-37.1	-37.9	22.4	0.00e+00	0	42	0	3417309184	48	5691
2026-01-25 14:25:13.60	123.95	5.15	-37.7	-38.5	21.8	0.00e+00	0	42	0	3422552064	48	6102
2026-01-25 14:25:14.61	124.07	5.10	-37.1	-37.9	22.6	0.00e+00	0	42	0	3428843520	48	5643
2026-01-25 14:25:15.62	124.18	5.05	-37.6	-38.3	21.5	0.00e+00	0	42	0	3434086400	46	6672
2026-01-25 14:25:16.63	124.29	5.00	-37.5	-38.3	22.1	0.00e+00	0	42	0	3440377856	48	5900
2026-01-25 14:25:17.63	124.41	4.95	-37.5	-38.3	21.9	0.00e+00	0	42	0	3445620736	48	5944
2026-01-25 14:25:18.64	124.52	4.90	-37.7	-38.5	21.9	0.00e+00	0	41	0	3451912192	48	6060
2026-01-25 14:25:19.65	124.63	4.85	-37.8	-38.7	21.9	0.00e+00	0	42	0	3457155072	48	6188
2026-01-25 14:25:20.66	124.74	4.80	-36.8	-37.6	22.6	0.00e+00	0	42	0	3463446528	48	5500
2026-01-25 14:25:21.67	124.85	4.75	-37.7	-38.5	21.9	0.00e+00	0	42	0	3468689408	48	6055
2026-01-25 14:25:22.68	124.96	4.70	-37.4	-38.2	22.0	0.00e+00	0	42	0	3473932288	48	5862
2026-01-25 14:25:23.69	125.07	4.66	-37.6	-38.4	21.9	0.00e+00	0	42	0	3480223744	48	5965
2026-01-25 14:25:24.70	125.18	4.61	-38.5	-39.3	21.0	0.00e+00	0	41	0	3485466624	48	6652
2026-01-25 14:25:25.71	125.29	4.56	-39.1	-39.9	20.1	0.00e+00	0	42	0	3491758080	50	6387
2026-01-25 14:25:26.72	125.40	4.51	-38.5	-39.5	20.8	0.00e+00	0	41	0	3497000960	50	6058
2026-01-25 14:25:27.73	125.51	4.46	-38.2	-39.0	21.4	0.00e+00	0	41	0	3502243840	50	5700
2026-01-25 14:25:28.74	125.62	4.41	-38.8	-39.7	20.6	0.00e+00	0	42	0	3508535296	50	6214
2026-01-25 14:25:29.75	125.73	4.36	-38.5	-39.4	20.7	0.00e+00	0	42	0	3513778176	50	6022
2026-01-25 14:25:30.76	125.84	4.31	-38.6	-39.5	20.9	0.00e+00	0	42	0	3519021056	50	6093
2026-01-25 14:25:31.77	125.95	4.26	-38.7	-39.5	20.4	0.00e+00	0	41	0	3525312512	50	6083
2026-01-25 14:25:32.78	126.05	4.21	-38.7	-39.6	20.6	0.00e+00	0	42	0	3530555392	50	6124
2026-01-25 14:25:33.78	126.16	4.17	-37.8	-38.6	21.8	0.00e+00	0	41	0	3536846848	50	5466
2026-01-25 14:25:34.79	126.27	4.12	-37.4	-38.2	22.0	0.00e+00	0	42	0	3542089728	48	5845
2026-01-25 14:25:35.81	126.37	4.07	-37.3	-38.1	22.1	0.00e+00	0	41	0	3548381184	48	5787
2026-01-25 14:25:36.81	126.48	4.02	-38.4	-39.2	20.9	0.00e+00	0	42	0	3553624064	48	6605
2026-01-25 14:25:37.83	126.58	3.97	-37.8	-38.7	21.5	0.00e+00	0	42	0	3559915520	48	6219
2026-01-25 14:25:38.83	126.69	3.92	-37.3	-38.2	22.0	0.00e+00	0	42	0	3565158400	48	5864
2026-01-25 14:25:39.85	126.79	3.87	-38.5	-39.4	20.8	0.00e+00	0	42	0	3570401280	48	6721
2026-01-25 14:25:40.85	126.90	3.82	-37.4	-38.2	21.6	0.00e+00	0	42	0	3576692736	48	5875
2026-01-25 14:25:41.86	127.00	3.77	-38.1	-39.0	21.2	0.00e+00	0	41	0	3581935616	48	6406
2026-01-25 14:25:42.87	127.11	3.72	-37.9	-38.7	21.5	0.00e+00	0	42	0	3588227072	48	6218
2026-01-25 14:25:43.88	127.21	3.68	-38.6	-39.6	20.7	0.00e+00	0	42	0	3593469952	50	6145
2026-01-25 14:25:44.89	127.31	3.63	-37.9	-38.8	21.5	0.00e+00	0	42	0	3598712832	50	5628
2026-01-25 14:25:45.90	127.42	3.58	-37.7	-38.5	21.4	0.00e+00	0	42	0	3605004288	48	6042
2026-01-25 14:25:46.91	127.52	3.53	-38.0	-38.9	21.3	0.00e+00	0	41	0	3610247168	48	6340
2026-01-25 14:25:47.92	127.62	3.48	-37.1	-37.8	22.1	0.00e+00	0	41	0	3616538624	48	5620
