passes_logs/2026/01/25/R4.6S_Anadyr/R4.6S_Anadyr__20260125_133727_NOAA_20_JPSS-1_rec.log

#Pass ID: 20260125_133727_NOAA 20 (JPSS-1)
#Satellite: NOAA 20 (JPSS-1)
#Configuration: NOAA 20
#almurnet v.1.7.20251203
#Start time: 2026-01-25 13:37:30

#Version: 2.2.20231116
#Station: R4.6S_Anadyr
#Location: 177.4865 lon 64.73178 lat
#TLE: 1 43013U 17073A   26024.91598314  .00000178  00000+0  10511-3 0  9999
#TLE: 2 43013  98.7646 325.7511 0001081  25.0859 335.0369 14.19539982424141

#Time	Az	El	Level	Level2	SNR	BER	BlckErr	Temp	State	Recorded	gain1	gain2
2026-01-25 13:37:30.21	19.04	0.16	-50.6	-65.6	3.6	1.51e+00	0	39	0	0	60	68494
2026-01-25 13:37:31.21	19.08	0.22	-50.9	-66.0	3.6	1.51e+00	0	40	104	0	60	72493
2026-01-25 13:37:32.22	19.12	0.28	-50.9	-66.1	3.6	1.51e+00	0	40	104	0	60	72760
2026-01-25 13:37:33.23	19.16	0.34	-50.9	-66.1	3.6	1.51e+00	0	40	104	0	60	73021
2026-01-25 13:37:34.24	19.19	0.39	-51.0	-66.1	3.6	1.51e+00	0	40	104	0	60	73293
2026-01-25 13:37:35.25	19.23	0.45	-51.0	-66.1	3.6	1.51e+00	0	40	104	0	60	73262
2026-01-25 13:37:36.26	19.27	0.51	-50.9	-66.1	3.6	1.51e+00	0	40	104	0	60	73300
2026-01-25 13:37:37.28	19.31	0.57	-50.8	-66.1	3.6	1.51e+00	0	40	104	0	60	73289
2026-01-25 13:37:38.28	19.35	0.63	-51.0	-66.1	3.6	1.51e+00	0	40	104	0	60	73272
2026-01-25 13:37:39.30	19.39	0.69	-51.0	-66.1	3.6	1.51e+00	0	40	104	0	60	73145
2026-01-25 13:37:40.31	19.42	0.75	-51.0	-66.1	3.6	1.51e+00	0	40	104	0	60	73249
2026-01-25 13:37:41.32	19.46	0.81	-50.9	-66.1	3.6	1.51e+00	0	40	104	0	60	73222
2026-01-25 13:37:42.32	19.50	0.86	-50.9	-66.1	3.6	1.51e+00	0	40	104	0	60	72771
2026-01-25 13:37:43.34	19.54	0.92	-50.8	-66.1	3.6	1.51e+00	0	40	104	0	60	73229
2026-01-25 13:37:44.35	19.58	0.98	-50.8	-66.0	3.6	1.51e+00	0	40	104	0	60	72430
2026-01-25 13:37:45.36	19.62	1.04	-50.8	-66.0	3.6	1.51e+00	0	40	104	0	60	72151
2026-01-25 13:37:46.36	19.66	1.10	-50.7	-65.9	3.6	1.51e+00	0	40	104	0	60	71223
2026-01-25 13:37:47.37	19.70	1.16	-50.6	-65.8	3.6	1.51e+00	0	40	104	0	60	70671
2026-01-25 13:37:48.38	19.74	1.22	-50.5	-65.7	3.6	1.51e+00	0	40	104	0	60	69620
2026-01-25 13:37:49.39	19.78	1.28	-50.4	-65.6	3.6	1.51e+00	0	40	104	0	60	68899
2026-01-25 13:37:50.40	19.82	1.34	-50.3	-65.5	3.6	1.51e+00	0	40	104	0	60	67938
2026-01-25 13:37:51.42	19.86	1.40	-50.2	-65.4	3.6	1.51e+00	0	40	104	0	60	67079
2026-01-25 13:37:52.42	19.90	1.46	-50.0	-65.3	3.6	1.51e+00	0	40	104	0	60	66264
2026-01-25 13:37:53.44	19.94	1.52	-49.8	-65.0	3.6	1.51e+00	0	40	104	0	60	64366
2026-01-25 13:37:54.44	19.98	1.58	-49.6	-64.8	3.5	1.51e+00	0	40	104	0	60	62675
2026-01-25 13:37:55.46	20.02	1.64	-49.4	-64.6	3.6	1.51e+00	0	40	104	0	60	61150
2026-01-25 13:37:56.47	20.07	1.70	-49.4	-64.5	3.6	1.51e+00	0	40	104	0	60	60579
2026-01-25 13:37:57.48	20.11	1.77	-49.4	-64.5	3.6	1.51e+00	0	40	104	0	60	60482
2026-01-25 13:37:58.48	20.15	1.83	-49.4	-64.5	3.6	1.51e+00	0	40	104	0	60	60458
2026-01-25 13:37:59.49	20.19	1.89	-49.4	-64.5	3.6	1.51e+00	0	40	104	0	60	60712
2026-01-25 13:38:00.51	20.23	1.95	-49.4	-64.5	3.6	1.51e+00	0	40	104	0	60	60689
2026-01-25 13:38:01.51	20.27	2.01	-49.4	-64.6	3.6	1.51e+00	0	41	104	0	60	61136
2026-01-25 13:38:02.52	20.31	2.07	-49.4	-64.6	3.6	1.51e+00	0	41	104	0	60	61103
2026-01-25 13:38:03.53	20.36	2.13	-49.4	-64.5	3.6	1.51e+00	0	40	104	0	60	61022
2026-01-25 13:38:04.54	20.40	2.19	-49.4	-64.6	3.6	1.51e+00	0	40	104	0	60	61472
2026-01-25 13:38:05.55	20.44	2.26	-49.4	-64.6	3.6	1.51e+00	0	41	104	0	60	61179
2026-01-25 13:38:06.56	20.48	2.32	-49.4	-64.6	3.6	1.51e+00	0	41	104	0	60	61497
2026-01-25 13:38:07.57	20.53	2.38	-49.4	-64.4	3.6	1.51e+00	0	41	104	0	60	60163
2026-01-25 13:38:08.58	20.57	2.44	-49.4	-64.1	3.6	1.51e+00	0	41	104	0	60	57887
2026-01-25 13:38:09.59	20.61	2.50	-49.4	-63.9	3.6	1.51e+00	0	41	104	0	60	56409
2026-01-25 13:38:10.60	20.66	2.57	-49.4	-63.6	3.6	1.51e+00	0	41	104	0	60	54521
2026-01-25 13:38:11.61	20.70	2.63	-49.4	-63.6	3.6	1.51e+00	0	40	104	0	60	54863
2026-01-25 13:38:12.62	20.74	2.69	-49.4	-64.3	3.6	1.51e+00	0	41	104	0	60	59374
2026-01-25 13:38:13.63	20.79	2.75	-49.4	-64.4	3.6	1.51e+00	0	40	104	0	60	60223
2026-01-25 13:38:14.64	20.83	2.82	-49.3	-62.8	3.6	1.51e+00	0	41	104	0	60	49897
2026-01-25 13:38:15.65	20.87	2.88	-49.2	-61.5	3.7	1.51e+00	0	41	104	0	60	42724
2026-01-25 13:38:16.66	20.92	2.94	-48.6	-55.9	7.0	1.18e-01	6	41	0	0	60	22588
2026-01-25 13:38:17.67	20.96	3.01	-47.9	-53.0	10.5	1.73e-02	72	41	0	2097152	60	16070
2026-01-25 13:38:18.69	21.01	3.07	-47.1	-51.0	12.7	4.67e-04	6	41	0	4194304	60	12870
2026-01-25 13:38:19.69	21.05	3.13	-46.0	-49.0	14.5	7.00e-07	7	41	0	5242880	60	10152
2026-01-25 13:38:20.70	21.10	3.20	-45.0	-47.4	15.9	7.00e-07	0	41	0	7340032	60	8439
2026-01-25 13:38:21.71	21.14	3.26	-44.5	-46.6	17.5	0.00e+00	6	41	0	9437184	60	7724
2026-01-25 13:38:22.72	21.19	3.32	-45.0	-47.3	16.3	0.00e+00	60	41	0	11534336	60	8416
2026-01-25 13:38:23.73	21.23	3.39	-43.3	-44.9	18.8	0.00e+00	81	41	0	13631488	60	6353
2026-01-25 13:38:24.74	21.28	3.45	-45.2	-47.6	16.0	0.00e+00	92	41	0	14680064	60	8686
2026-01-25 13:38:25.75	21.32	3.52	-45.2	-47.7	15.9	0.00e+00	0	41	0	16777216	60	8777
2026-01-25 13:38:26.76	21.37	3.58	-44.9	-47.2	16.6	0.00e+00	81	41	0	18874368	60	8282
2026-01-25 13:38:27.77	21.42	3.65	-46.9	-50.7	12.3	5.30e-06	0	41	0	20971520	60	12407
2026-01-25 13:38:28.78	21.46	3.71	-43.7	-45.4	18.6	2.09e-04	80	41	0	23068672	60	6734
2026-01-25 13:38:29.79	21.51	3.78	-48.5	-56.0	6.0	0.00e+00	82	41	0	24117248	60	22735
2026-01-25 13:38:30.80	21.56	3.84	-49.1	-58.6	4.4	3.07e-01	0	41	104	25165824	60	30934
2026-01-25 13:38:31.81	21.60	3.91	-46.0	-48.8	14.7	5.73e-02	90	41	0	26214400	60	9910
2026-01-25 13:38:32.82	21.65	3.97	-49.4	-64.2	3.6	3.81e-05	0	41	104	27262976	60	58693
2026-01-25 13:38:33.83	21.70	4.04	-45.4	-47.9	6.0	1.41e+00	55	41	104	27262976	60	9010
2026-01-25 13:38:34.84	21.75	4.10	-46.6	-50.0	14.2	1.98e-05	2	41	0	27262976	60	11400
2026-01-25 13:38:35.85	21.79	4.17	-45.0	-47.3	16.4	0.00e+00	0	41	0	29360128	60	8330
2026-01-25 13:38:36.85	21.84	4.23	-46.1	-48.9	14.7	3.00e-06	0	41	0	30408704	60	10096
2026-01-25 13:38:37.86	21.89	4.30	-47.5	-51.7	12.1	2.44e-04	0	41	0	32505856	60	13937
2026-01-25 13:38:38.87	21.94	4.37	-45.9	-48.6	15.2	1.90e-05	92	41	0	34603008	60	9740
2026-01-25 13:38:39.88	21.99	4.43	-46.1	-49.0	14.7	0.00e+00	2	41	0	36700160	60	10207
2026-01-25 13:38:40.89	22.03	4.50	-47.2	-50.9	12.3	3.28e-05	92	41	0	38797312	60	12715
2026-01-25 13:38:41.90	22.08	4.57	-46.9	-50.5	13.0	1.75e-05	0	41	0	40894464	60	12041
2026-01-25 13:38:42.91	22.13	4.63	-47.0	-50.6	13.1	4.33e-04	0	41	0	41943040	60	12188
2026-01-25 13:38:43.92	22.18	4.70	-46.2	-49.2	14.7	0.00e+00	6	41	0	44040192	60	10382
2026-01-25 13:38:44.93	22.23	4.77	-46.5	-49.6	13.9	3.80e-06	78	41	0	46137344	60	10899
2026-01-25 13:38:45.94	22.28	4.83	-46.3	-49.3	14.6	9.90e-06	21	41	0	48234496	60	10532
2026-01-25 13:38:46.95	22.33	4.90	-45.8	-48.4	15.6	0.00e+00	77	41	0	50331648	60	9532
2026-01-25 13:38:47.96	22.38	4.97	-45.1	-47.3	16.6	0.00e+00	92	41	0	51380224	60	8378
2026-01-25 13:38:48.97	22.43	5.04	-46.4	-49.5	14.4	0.00e+00	76	41	0	53477376	60	10761
2026-01-25 13:38:49.98	22.48	5.11	-46.2	-49.0	15.0	0.00e+00	0	41	0	55574528	60	10246
2026-01-25 13:38:50.98	22.53	5.17	-46.3	-49.3	14.6	0.00e+00	0	41	0	57671680	60	10515
2026-01-25 13:38:51.99	22.58	5.24	-46.4	-49.4	14.6	7.00e-07	82	41	0	59768832	60	10685
2026-01-25 13:38:53.00	22.63	5.31	-45.9	-48.6	15.1	0.00e+00	59	41	0	60817408	60	9710
2026-01-25 13:38:54.01	22.68	5.38	-46.0	-48.7	15.2	0.00e+00	0	41	0	62914560	60	9889
2026-01-25 13:38:55.02	22.74	5.45	-45.3	-47.5	16.6	0.00e+00	92	41	0	65011712	60	8608
2026-01-25 13:38:56.03	22.79	5.52	-46.7	-49.9	14.2	0.00e+00	0	41	0	67108864	60	11250
2026-01-25 13:38:57.04	22.84	5.59	-45.3	-47.7	16.3	0.00e+00	91	41	0	69206016	60	8761
2026-01-25 13:38:58.05	22.89	5.65	-44.9	-47.1	16.9	0.00e+00	0	41	0	70254592	60	8153
2026-01-25 13:38:59.06	22.94	5.72	-44.9	-47.1	17.0	0.00e+00	0	41	0	72351744	60	8139
2026-01-25 13:39:00.07	23.00	5.79	-44.4	-46.4	17.6	0.00e+00	0	41	0	74448896	60	7541
2026-01-25 13:39:01.08	23.05	5.86	-43.8	-45.5	18.4	0.00e+00	7	41	0	76546048	60	6815
2026-01-25 13:39:02.09	23.10	5.93	-44.3	-46.2	17.8	0.00e+00	90	41	0	78643200	60	7360
2026-01-25 13:39:03.10	23.16	6.00	-44.7	-46.7	17.4	0.00e+00	7	41	0	79691776	60	7839
2026-01-25 13:39:04.11	23.21	6.07	-43.9	-45.7	18.2	0.00e+00	88	41	0	81788928	60	6942
2026-01-25 13:39:05.12	23.26	6.14	-45.2	-47.5	16.6	0.00e+00	7	41	0	83886080	60	8544
2026-01-25 13:39:06.12	23.32	6.21	-45.0	-47.2	17.0	0.00e+00	0	41	0	85983232	60	8307
2026-01-25 13:39:07.14	23.37	6.28	-44.1	-45.9	18.1	0.00e+00	0	41	0	88080384	60	7141
2026-01-25 13:39:08.14	23.43	6.36	-44.7	-46.7	17.6	0.00e+00	8	41	0	89128960	60	7819
2026-01-25 13:39:09.15	23.48	6.43	-43.4	-45.0	19.0	0.00e+00	92	41	0	91226112	60	6408
2026-01-25 13:39:10.16	23.54	6.50	-43.7	-45.4	18.6	0.00e+00	8	41	0	93323264	60	6738
2026-01-25 13:39:11.17	23.59	6.57	-43.5	-45.1	19.3	0.00e+00	92	41	0	95420416	60	6490
2026-01-25 13:39:12.18	23.65	6.64	-43.0	-44.4	19.4	0.00e+00	0	41	0	97517568	58	6759
2026-01-25 13:39:13.19	23.70	6.71	-43.0	-44.4	19.5	0.00e+00	6	41	0	98566144	58	6757
2026-01-25 13:39:14.20	23.76	6.78	-43.5	-45.1	18.9	0.00e+00	0	41	0	100663296	58	7306
2026-01-25 13:39:15.21	23.82	6.86	-42.6	-44.0	19.8	0.00e+00	0	41	0	102760448	58	6414
2026-01-25 13:39:16.22	23.87	6.93	-43.0	-44.5	19.4	0.00e+00	0	41	0	104857600	58	6790
2026-01-25 13:39:17.23	23.93	7.00	-43.5	-45.1	19.0	0.00e+00	0	41	0	106954752	58	7276
2026-01-25 13:39:18.24	23.99	7.07	-43.3	-44.9	19.1	0.00e+00	92	41	0	109051904	58	7104
2026-01-25 13:39:19.25	24.04	7.15	-42.8	-44.2	19.8	0.00e+00	0	41	0	110100480	58	6560
2026-01-25 13:39:20.26	24.10	7.22	-42.5	-43.9	20.1	0.00e+00	41	41	0	112197632	58	6356
2026-01-25 13:39:21.27	24.16	7.29	-42.8	-44.2	19.8	0.00e+00	2	41	0	114294784	58	6611
2026-01-25 13:39:22.28	24.22	7.37	-42.6	-43.9	20.0	0.00e+00	0	41	0	116391936	58	6381
2026-01-25 13:39:23.29	24.28	7.44	-43.2	-44.7	19.3	0.00e+00	0	41	0	118489088	58	6978
2026-01-25 13:39:24.30	24.33	7.51	-42.7	-44.1	19.9	0.00e+00	0	41	0	119537664	58	6502
2026-01-25 13:39:25.30	24.39	7.59	-42.6	-44.0	20.0	0.00e+00	92	41	0	121634816	58	6444
2026-01-25 13:39:26.31	24.45	7.66	-42.4	-43.8	20.2	0.00e+00	5	41	0	123731968	58	6274
2026-01-25 13:39:27.32	24.51	7.74	-42.6	-44.0	20.1	0.00e+00	92	41	0	125829120	58	6404
2026-01-25 13:39:28.33	24.57	7.81	-42.5	-43.9	20.2	0.00e+00	73	41	0	127926272	58	6361
2026-01-25 13:39:29.34	24.63	7.89	-42.2	-43.5	20.5	0.00e+00	0	41	0	128974848	58	6071
2026-01-25 13:39:30.35	24.69	7.96	-42.4	-43.7	20.3	0.00e+00	0	41	0	131072000	58	6229
2026-01-25 13:39:31.36	24.75	8.04	-42.5	-43.9	20.1	0.00e+00	0	41	0	133169152	58	6338
2026-01-25 13:39:32.37	24.81	8.11	-42.8	-44.2	19.9	0.00e+00	91	41	0	135266304	58	6587
2026-01-25 13:39:33.38	24.87	8.19	-42.8	-44.2	19.8	0.00e+00	73	41	0	137363456	58	6608
2026-01-25 13:39:34.39	24.94	8.26	-42.8	-44.2	19.8	0.00e+00	92	41	0	138412032	58	6588
2026-01-25 13:39:35.40	25.00	8.34	-42.9	-44.3	19.7	0.00e+00	76	41	0	140509184	58	6683
2026-01-25 13:39:36.41	25.06	8.42	-42.6	-43.9	20.1	0.00e+00	24	41	0	142606336	58	6374
2026-01-25 13:39:37.42	25.12	8.49	-42.6	-44.0	20.0	0.00e+00	81	41	0	144703488	58	6416
2026-01-25 13:39:38.43	25.18	8.57	-42.0	-43.3	20.6	0.00e+00	0	41	0	146800640	58	5945
2026-01-25 13:39:39.43	25.25	8.64	-42.2	-43.5	20.5	0.00e+00	0	41	0	147849216	58	6072
2026-01-25 13:39:40.44	25.31	8.72	-42.6	-44.0	20.1	0.00e+00	5	41	0	149946368	58	6416
2026-01-25 13:39:41.45	25.37	8.80	-42.4	-43.7	20.4	0.00e+00	90	41	0	152043520	58	6234
2026-01-25 13:39:42.46	25.44	8.88	-42.4	-43.7	20.3	0.00e+00	6	41	0	154140672	58	6219
2026-01-25 13:39:43.47	25.50	8.95	-41.9	-43.2	20.9	0.00e+00	92	41	0	156237824	58	5830
2026-01-25 13:39:44.48	25.57	9.03	-42.0	-43.2	20.8	0.00e+00	6	41	0	157286400	58	5884
2026-01-25 13:39:45.49	25.63	9.11	-41.9	-43.2	20.9	0.00e+00	5	41	0	159383552	58	5831
2026-01-25 13:39:46.50	25.70	9.19	-42.1	-43.4	20.8	0.00e+00	7	41	0	161480704	58	5990
2026-01-25 13:39:47.51	25.76	9.27	-42.1	-43.4	20.7	0.00e+00	5	41	0	163577856	58	5979
2026-01-25 13:39:48.52	25.83	9.35	-42.0	-43.3	20.9	0.00e+00	92	41	0	165675008	58	5903
2026-01-25 13:39:49.53	25.89	9.42	-42.0	-43.3	20.8	0.00e+00	7	41	0	166723584	58	5903
2026-01-25 13:39:50.53	25.96	9.50	-42.1	-43.3	20.7	0.00e+00	92	41	0	168820736	58	5952
2026-01-25 13:39:51.54	26.03	9.58	-42.3	-43.5	20.6	0.00e+00	6	41	0	170917888	58	6099
2026-01-25 13:39:52.55	26.09	9.66	-41.8	-43.1	21.0	0.00e+00	8	41	0	173015040	58	5762
2026-01-25 13:39:53.56	26.16	9.74	-41.7	-42.9	21.1	0.00e+00	1	41	0	175112192	58	5651
2026-01-25 13:39:54.57	26.23	9.82	-42.1	-43.3	20.8	0.00e+00	82	41	0	177209344	56	6654
2026-01-25 13:39:55.58	26.30	9.90	-41.9	-43.2	20.9	0.00e+00	71	41	0	178257920	56	6540
2026-01-25 13:39:56.59	26.37	9.98	-42.1	-43.4	20.8	0.00e+00	0	41	0	180355072	56	6710
2026-01-25 13:39:57.60	26.44	10.06	-41.9	-43.1	21.0	0.00e+00	91	41	0	182452224	56	6524
2026-01-25 13:39:58.61	26.51	10.14	-41.8	-43.0	21.1	0.00e+00	78	41	0	184549376	56	6453
2026-01-25 13:39:59.61	26.57	10.23	-41.9	-43.1	21.0	0.00e+00	91	41	0	185597952	56	6508
2026-01-25 13:40:00.62	26.64	10.31	-41.4	-42.5	21.6	0.00e+00	0	41	0	187695104	56	6080
2026-01-25 13:40:01.63	26.71	10.39	-41.1	-42.2	21.9	0.00e+00	0	41	0	189792256	56	5847
2026-01-25 13:40:02.64	26.79	10.47	-41.4	-42.5	21.6	0.00e+00	0	41	0	191889408	56	6054
2026-01-25 13:40:03.65	26.86	10.55	-41.2	-42.3	21.8	0.00e+00	0	41	0	193986560	56	5961
2026-01-25 13:40:04.66	26.93	10.64	-41.7	-42.9	21.3	0.00e+00	92	41	0	195035136	56	6337
2026-01-25 13:40:05.67	27.00	10.72	-41.5	-42.6	21.5	0.00e+00	6	41	0	197132288	56	6155
2026-01-25 13:40:06.68	27.07	10.80	-41.1	-42.1	21.9	0.00e+00	90	41	0	199229440	56	5822
2026-01-25 13:40:07.69	27.14	10.88	-41.2	-42.2	21.8	0.00e+00	9	41	0	201326592	56	5894
2026-01-25 13:40:08.70	27.22	10.97	-41.1	-42.2	21.8	0.00e+00	6	41	0	203423744	56	5875
2026-01-25 13:40:09.70	27.29	11.05	-41.0	-42.1	21.9	0.00e+00	0	41	0	205520896	56	5764
2026-01-25 13:40:10.72	27.37	11.13	-40.8	-41.9	22.2	0.00e+00	6	41	0	206569472	56	5661
2026-01-25 13:40:11.72	27.44	11.22	-40.5	-41.5	22.4	0.00e+00	92	41	0	208666624	54	6068
2026-01-25 13:40:12.73	27.51	11.30	-40.8	-41.9	22.2	0.00e+00	8	41	0	210763776	54	6323
2026-01-25 13:40:13.74	27.59	11.39	-40.7	-41.8	22.2	0.00e+00	92	41	0	212860928	54	6254
2026-01-25 13:40:14.75	27.66	11.47	-40.5	-41.5	22.4	0.00e+00	73	41	0	214958080	54	6048
2026-01-25 13:40:15.76	27.74	11.56	-40.8	-41.9	22.1	0.00e+00	8	41	0	216006656	54	6359
2026-01-25 13:40:16.77	27.82	11.64	-40.9	-42.0	22.0	0.00e+00	9	41	0	218103808	54	6423
2026-01-25 13:40:17.78	27.89	11.73	-40.8	-41.9	22.1	0.00e+00	78	41	0	220200960	54	6354
2026-01-25 13:40:18.79	27.97	11.81	-40.8	-41.9	22.1	0.00e+00	3	41	0	222298112	54	6320
2026-01-25 13:40:19.80	28.05	11.90	-41.2	-42.3	21.6	0.00e+00	79	41	0	224395264	54	6689
2026-01-25 13:40:20.81	28.12	11.99	-41.1	-42.2	21.9	0.00e+00	92	41	0	225443840	54	6615
2026-01-25 13:40:21.81	28.20	12.07	-41.0	-42.1	21.9	0.00e+00	70	41	0	227540992	54	6517
2026-01-25 13:40:22.82	28.28	12.16	-40.8	-41.9	22.3	0.00e+00	92	41	0	229638144	54	6357
2026-01-25 13:40:23.83	28.36	12.25	-40.7	-41.7	22.4	0.00e+00	0	41	0	231735296	54	6243
2026-01-25 13:40:24.84	28.44	12.33	-40.8	-41.8	22.2	0.00e+00	0	41	0	233832448	54	6287
2026-01-25 13:40:25.85	28.52	12.42	-40.5	-41.6	22.4	0.00e+00	0	41	0	234881024	54	6115
2026-01-25 13:40:26.86	28.60	12.51	-40.9	-41.9	22.1	0.00e+00	0	41	0	236978176	54	6383
2026-01-25 13:40:27.87	28.68	12.60	-40.8	-41.8	22.2	0.00e+00	92	41	0	239075328	54	6286
2026-01-25 13:40:28.88	28.76	12.69	-40.5	-41.5	22.6	0.00e+00	9	41	0	241172480	54	6071
2026-01-25 13:40:29.89	28.85	12.78	-40.5	-41.5	22.5	0.00e+00	90	41	0	243269632	54	6055
2026-01-25 13:40:30.90	28.93	12.87	-40.6	-41.6	22.4	0.00e+00	9	41	0	244318208	54	6168
2026-01-25 13:40:31.91	29.01	12.95	-40.8	-41.8	22.4	0.00e+00	2	41	0	246415360	54	6284
2026-01-25 13:40:32.92	29.09	13.04	-40.5	-41.5	22.5	0.00e+00	6	41	0	248512512	54	6049
2026-01-25 13:40:33.93	29.18	13.13	-40.5	-41.5	22.5	0.00e+00	4	41	0	250609664	54	6053
2026-01-25 13:40:34.94	29.26	13.22	-40.7	-41.7	22.3	0.00e+00	65	41	0	252706816	54	6242
2026-01-25 13:40:35.95	29.35	13.32	-40.3	-41.3	22.8	0.00e+00	78	41	0	253755392	54	5906
2026-01-25 13:40:36.96	29.43	13.41	-40.2	-41.2	22.8	0.00e+00	92	41	0	255852544	54	5847
2026-01-25 13:40:37.97	29.52	13.50	-40.4	-41.4	22.6	0.00e+00	70	41	0	257949696	54	6028
2026-01-25 13:40:38.98	29.60	13.59	-40.3	-41.3	22.7	0.00e+00	71	41	0	260046848	54	5929
2026-01-25 13:40:39.99	29.69	13.68	-40.5	-41.5	22.5	0.00e+00	0	41	0	262144000	54	6097
2026-01-25 13:40:41.00	29.78	13.77	-40.5	-41.5	22.5	0.00e+00	0	41	0	263192576	54	6093
2026-01-25 13:40:42.00	29.87	13.86	-40.3	-41.3	22.6	0.00e+00	85	41	0	265289728	54	5943
2026-01-25 13:40:43.01	29.95	13.96	-40.3	-41.3	22.5	0.00e+00	0	41	0	267386880	54	5920
2026-01-25 13:40:44.02	30.04	14.05	-40.3	-41.3	22.8	0.00e+00	92	41	0	269484032	54	5926
2026-01-25 13:40:45.03	30.13	14.14	-40.2	-41.2	22.6	0.00e+00	0	41	0	271581184	54	5881
2026-01-25 13:40:46.04	30.22	14.24	-40.4	-41.4	22.6	0.00e+00	90	41	0	273678336	54	6003
2026-01-25 13:40:47.05	30.31	14.33	-40.3	-41.3	22.7	0.00e+00	2	41	0	274726912	54	5922
2026-01-25 13:40:48.06	30.40	14.42	-40.4	-41.4	22.7	0.00e+00	0	41	0	276824064	54	5987
2026-01-25 13:40:49.07	30.50	14.52	-40.3	-41.3	22.8	0.00e+00	2	41	0	278921216	54	5907
2026-01-25 13:40:50.08	30.59	14.61	-40.3	-41.2	22.8	0.00e+00	2	41	0	281018368	54	5889
2026-01-25 13:40:51.09	30.68	14.71	-40.4	-41.4	22.7	0.00e+00	92	41	0	283115520	54	5973
2026-01-25 13:40:52.10	30.77	14.80	-40.1	-41.1	22.9	0.00e+00	0	41	0	284164096	54	5773
2026-01-25 13:40:53.11	30.87	14.90	-40.2	-41.2	22.8	0.00e+00	92	41	0	286261248	54	5863
2026-01-25 13:40:54.12	30.96	14.99	-39.9	-40.9	23.1	0.00e+00	11	41	0	288358400	54	5648
2026-01-25 13:40:55.13	31.06	15.09	-39.8	-40.7	23.3	0.00e+00	9	41	0	290455552	54	5546
2026-01-25 13:40:56.14	31.15	15.19	-40.0	-40.9	23.1	0.00e+00	71	41	0	292552704	52	6350
2026-01-25 13:40:57.15	31.25	15.28	-40.1	-41.1	23.0	0.00e+00	10	41	0	293601280	52	6475
2026-01-25 13:40:58.15	31.34	15.38	-40.0	-40.9	23.0	0.00e+00	91	41	0	295698432	52	6376
2026-01-25 13:40:59.16	31.44	15.48	-39.9	-40.8	23.2	0.00e+00	2	41	0	297795584	52	6278
2026-01-25 13:41:00.17	31.54	15.58	-39.9	-40.8	23.1	0.00e+00	91	41	0	299892736	52	6280
2026-01-25 13:41:01.17	31.64	15.67	-39.9	-40.9	23.2	0.00e+00	0	41	0	301989888	52	6345
2026-01-25 13:41:02.18	31.74	15.77	-39.7	-40.6	23.4	0.00e+00	0	41	0	303038464	52	6124
2026-01-25 13:41:03.19	31.84	15.87	-39.9	-40.8	23.1	0.00e+00	71	41	0	305135616	52	6317
2026-01-25 13:41:04.20	31.94	15.97	-39.9	-40.9	23.1	0.00e+00	0	41	0	307232768	52	6334
2026-01-25 13:41:05.21	32.04	16.07	-39.8	-40.7	23.3	0.00e+00	10	41	0	309329920	52	6227
2026-01-25 13:41:06.21	32.14	16.17	-40.1	-41.0	23.0	0.00e+00	0	41	0	311427072	52	6461
2026-01-25 13:41:07.22	32.24	16.27	-40.1	-41.0	23.1	0.00e+00	92	41	0	312475648	52	6435
2026-01-25 13:41:08.23	32.34	16.37	-40.2	-41.2	22.9	0.00e+00	0	41	0	314572800	52	6540
2026-01-25 13:41:09.24	32.45	16.47	-40.2	-41.2	23.0	0.00e+00	55	41	0	316669952	52	6542
2026-01-25 13:41:10.25	32.55	16.57	-40.2	-41.2	22.9	0.00e+00	0	41	0	318767104	52	6588
2026-01-25 13:41:11.26	32.66	16.67	-40.2	-41.2	22.9	0.00e+00	0	41	0	320864256	52	6548
2026-01-25 13:41:12.27	32.76	16.77	-40.2	-41.2	22.9	0.00e+00	0	41	0	321912832	52	6549
2026-01-25 13:41:13.28	32.87	16.87	-40.3	-41.3	22.8	0.00e+00	0	41	0	324009984	52	6619
2026-01-25 13:41:14.29	32.98	16.98	-40.3	-41.2	22.8	0.00e+00	90	41	0	326107136	52	6612
2026-01-25 13:41:15.30	33.08	17.08	-40.4	-41.4	22.8	0.00e+00	0	41	0	328204288	52	6706
2026-01-25 13:41:16.31	33.19	17.18	-40.4	-41.4	22.7	0.00e+00	91	41	0	330301440	52	6701
2026-01-25 13:41:17.32	33.30	17.29	-40.6	-41.6	22.5	0.00e+00	0	41	0	331350016	52	6877
2026-01-25 13:41:18.33	33.41	17.39	-40.4	-41.4	22.6	0.00e+00	71	41	0	333447168	52	6755
2026-01-25 13:41:19.34	33.52	17.49	-40.5	-41.5	22.7	0.00e+00	71	41	0	335544320	52	6784
2026-01-25 13:41:20.34	33.63	17.60	-40.5	-41.5	22.5	0.00e+00	12	41	0	337641472	52	6772
2026-01-25 13:41:21.35	33.74	17.70	-40.4	-41.4	22.6	0.00e+00	4	41	0	339738624	52	6756
2026-01-25 13:41:22.36	33.86	17.81	-40.6	-41.6	22.2	0.00e+00	0	41	0	340787200	52	6873
2026-01-25 13:41:23.37	33.97	17.91	-40.4	-41.4	22.7	0.00e+00	92	41	0	342884352	52	6724
2026-01-25 13:41:24.38	34.08	18.02	-40.6	-41.6	22.5	0.00e+00	0	41	0	344981504	52	6920
2026-01-25 13:41:25.39	34.20	18.13	-40.4	-41.4	22.6	0.00e+00	92	41	0	347078656	52	6735
2026-01-25 13:41:26.40	34.32	18.23	-40.4	-41.4	22.7	0.00e+00	0	41	0	349175808	52	6761
2026-01-25 13:41:27.41	34.43	18.34	-40.4	-41.4	22.7	0.00e+00	0	41	0	350224384	52	6719
2026-01-25 13:41:28.41	34.55	18.44	-40.4	-41.4	22.7	0.00e+00	0	41	0	352321536	52	6728
2026-01-25 13:41:29.42	34.67	18.55	-40.5	-41.5	22.7	0.00e+00	4	41	0	354418688	52	6783
2026-01-25 13:41:30.43	34.79	18.66	-40.5	-41.5	22.7	0.00e+00	92	41	0	356515840	52	6795
2026-01-25 13:41:31.44	34.91	18.77	-40.7	-41.7	22.4	0.00e+00	0	41	0	358612992	52	6973
2026-01-25 13:41:32.45	35.03	18.88	-40.6	-41.6	22.5	0.00e+00	52	41	0	359661568	52	6916
2026-01-25 13:41:33.46	35.15	18.99	-40.6	-41.6	22.6	0.00e+00	0	41	0	361758720	52	6896
2026-01-25 13:41:34.47	35.27	19.10	-40.5	-41.5	22.5	0.00e+00	7	41	0	363855872	52	6837
2026-01-25 13:41:35.48	35.39	19.21	-40.7	-41.7	22.4	0.00e+00	0	41	0	365953024	52	6993
2026-01-25 13:41:36.49	35.52	19.32	-40.8	-41.8	22.3	0.00e+00	11	41	0	368050176	54	6274
2026-01-25 13:41:37.50	35.64	19.43	-40.7	-41.8	22.4	0.00e+00	92	41	0	370147328	54	6259
2026-01-25 13:41:38.51	35.77	19.54	-40.7	-41.8	22.3	0.00e+00	5	41	0	371195904	54	6260
2026-01-25 13:41:39.51	35.89	19.65	-40.8	-41.8	22.3	0.00e+00	90	41	0	373293056	54	6298
2026-01-25 13:41:40.52	36.02	19.76	-40.8	-41.9	22.3	0.00e+00	76	41	0	375390208	54	6339
2026-01-25 13:41:41.53	36.15	19.87	-40.8	-41.9	22.3	0.00e+00	74	41	0	377487360	54	6340
2026-01-25 13:41:42.54	36.28	19.98	-40.9	-41.9	22.3	0.00e+00	10	41	0	379584512	54	6383
2026-01-25 13:41:43.55	36.41	20.10	-40.8	-41.9	22.3	0.00e+00	75	41	0	380633088	54	6339
2026-01-25 13:41:44.56	36.54	20.21	-40.7	-41.7	22.4	0.00e+00	0	41	0	382730240	54	6243
2026-01-25 13:41:45.57	36.67	20.32	-40.8	-41.8	22.3	0.00e+00	3	41	0	384827392	54	6310
2026-01-25 13:41:46.58	36.81	20.44	-40.8	-41.8	22.3	0.00e+00	92	41	0	386924544	54	6298
2026-01-25 13:41:47.59	36.94	20.55	-40.7	-41.8	22.3	0.00e+00	0	41	0	389021696	54	6247
2026-01-25 13:41:48.60	37.07	20.67	-40.8	-41.8	22.3	0.00e+00	92	41	0	390070272	54	6295
2026-01-25 13:41:49.61	37.21	20.78	-40.7	-41.7	22.3	0.00e+00	75	41	0	392167424	54	6203
2026-01-25 13:41:50.61	37.35	20.89	-40.7	-41.8	22.1	0.00e+00	0	41	0	394264576	54	6256
2026-01-25 13:41:51.62	37.48	21.01	-40.8	-41.9	22.0	0.00e+00	0	41	0	396361728	54	6340
2026-01-25 13:41:52.63	37.62	21.13	-41.0	-42.0	22.1	0.00e+00	0	41	0	398458880	54	6431
2026-01-25 13:41:53.64	37.76	21.24	-41.1	-42.2	22.0	0.00e+00	90	41	0	399507456	54	6572
2026-01-25 13:41:54.65	37.90	21.36	-41.2	-42.3	21.9	0.00e+00	0	41	0	401604608	54	6687
2026-01-25 13:41:55.66	38.05	21.48	-41.2	-42.3	21.9	0.00e+00	92	41	0	403701760	54	6644
2026-01-25 13:41:56.67	38.19	21.59	-41.1	-42.2	22.0	0.00e+00	0	41	0	405798912	54	6569
2026-01-25 13:41:57.68	38.33	21.71	-41.1	-42.2	22.0	0.00e+00	13	41	0	407896064	54	6553
2026-01-25 13:41:58.68	38.48	21.83	-41.1	-42.2	21.9	0.00e+00	5	41	0	408944640	54	6572
2026-01-25 13:41:59.69	38.62	21.95	-40.9	-42.0	22.2	0.00e+00	11	41	0	411041792	54	6433
2026-01-25 13:42:00.70	38.77	22.07	-41.0	-42.0	22.2	0.00e+00	92	41	0	413138944	54	6446
2026-01-25 13:42:01.71	38.92	22.19	-40.9	-42.0	22.2	0.00e+00	7	41	0	415236096	54	6403
2026-01-25 13:42:02.72	39.07	22.31	-40.8	-41.9	22.3	0.00e+00	91	41	0	417333248	54	6347
2026-01-25 13:42:03.73	39.22	22.43	-40.6	-41.7	22.5	0.00e+00	70	41	0	418381824	54	6178
2026-01-25 13:42:04.74	39.37	22.55	-40.7	-41.7	22.6	0.00e+00	11	41	0	420478976	54	6198
2026-01-25 13:42:05.75	39.52	22.67	-40.5	-41.5	22.6	0.00e+00	70	41	0	422576128	54	6082
2026-01-25 13:42:06.76	39.68	22.79	-40.6	-41.6	22.6	0.00e+00	12	41	0	424673280	54	6116
2026-01-25 13:42:07.77	39.83	22.91	-40.3	-41.3	22.9	0.00e+00	0	41	0	426770432	54	5910
2026-01-25 13:42:08.77	39.99	23.03	-40.3	-41.3	22.9	0.00e+00	69	41	0	427819008	54	5914
2026-01-25 13:42:09.78	40.15	23.15	-40.5	-41.4	22.7	0.00e+00	90	41	0	429916160	54	6025
2026-01-25 13:42:10.79	40.31	23.28	-40.7	-41.7	22.6	0.00e+00	69	41	0	432013312	54	6189
2026-01-25 13:42:11.80	40.47	23.40	-40.4	-41.4	22.7	0.00e+00	91	41	0	434110464	54	6015
2026-01-25 13:42:12.81	40.63	23.52	-40.3	-41.3	22.8	0.00e+00	0	41	0	436207616	54	5923
2026-01-25 13:42:13.81	40.79	23.65	-40.2	-41.2	22.6	0.00e+00	67	41	0	437256192	54	5854
2026-01-25 13:42:14.82	40.95	23.77	-40.2	-41.2	22.8	0.00e+00	0	41	0	439353344	54	5865
2026-01-25 13:42:15.83	41.12	23.89	-40.3	-41.3	22.8	0.00e+00	0	41	0	441450496	54	5939
2026-01-25 13:42:16.84	41.28	24.02	-40.2	-41.1	23.0	0.00e+00	92	41	0	443547648	54	5825
2026-01-25 13:42:17.86	41.45	24.15	-40.3	-41.3	22.8	0.00e+00	0	41	0	445644800	54	5943
2026-01-25 13:42:18.86	41.62	24.27	-40.1	-41.1	23.0	0.00e+00	92	41	0	446693376	54	5792
2026-01-25 13:42:19.87	41.79	24.40	-40.0	-40.9	23.2	0.00e+00	0	41	0	448790528	54	5688
2026-01-25 13:42:20.88	41.96	24.52	-39.9	-40.8	23.2	0.00e+00	13	41	0	450887680	54	5612
2026-01-25 13:42:21.89	42.13	24.65	-40.0	-40.9	23.1	0.00e+00	2	41	0	452984832	54	5678
2026-01-25 13:42:22.90	42.31	24.78	-39.9	-40.9	23.2	0.00e+00	0	41	0	455081984	54	5644
2026-01-25 13:42:23.91	42.48	24.90	-39.8	-40.8	23.3	0.00e+00	71	41	0	456130560	54	5582
2026-01-25 13:42:24.92	42.66	25.03	-39.9	-40.8	23.3	0.00e+00	0	41	0	458227712	54	5587
2026-01-25 13:42:25.93	42.84	25.16	-39.8	-40.7	23.3	0.00e+00	92	41	0	460324864	54	5556
2026-01-25 13:42:26.94	43.02	25.29	-39.8	-40.7	23.4	0.00e+00	3	41	0	462422016	54	5517
2026-01-25 13:42:27.95	43.20	25.42	-40.0	-40.9	23.2	0.00e+00	18	41	0	464519168	54	5662
2026-01-25 13:42:28.95	43.38	25.54	-40.1	-41.0	23.1	0.00e+00	69	41	0	466616320	54	5743
2026-01-25 13:42:29.96	43.57	25.67	-40.1	-41.1	23.0	0.00e+00	14	41	0	467664896	54	5775
2026-01-25 13:42:30.97	43.75	25.80	-40.1	-41.1	23.1	0.00e+00	79	41	0	469762048	54	5765
2026-01-25 13:42:31.98	43.94	25.93	-40.1	-41.0	22.3	0.00e+00	69	41	0	471859200	54	5747
2026-01-25 13:42:32.99	44.13	26.06	-40.2	-41.2	22.9	0.00e+00	92	41	0	473956352	54	5845
2026-01-25 13:42:34.00	44.32	26.19	-40.0	-40.9	23.0	0.00e+00	0	41	0	476053504	54	5695
2026-01-25 13:42:35.01	44.51	26.33	-40.1	-41.0	23.1	0.00e+00	92	41	0	477102080	54	5753
2026-01-25 13:42:36.02	44.70	26.46	-40.0	-40.9	23.2	0.00e+00	0	41	0	479199232	54	5678
2026-01-25 13:42:37.02	44.90	26.59	-40.1	-41.0	23.1	0.00e+00	0	41	0	481296384	54	5739
2026-01-25 13:42:38.03	45.09	26.72	-40.2	-41.2	23.0	0.00e+00	0	41	0	483393536	54	5838
2026-01-25 13:42:39.04	45.29	26.85	-40.1	-41.1	23.0	0.00e+00	0	41	0	485490688	54	5778
2026-01-25 13:42:40.05	45.49	26.98	-40.3	-41.2	22.9	0.00e+00	90	41	0	486539264	54	5879
2026-01-25 13:42:41.06	45.69	27.12	-40.5	-41.6	22.6	0.00e+00	0	41	0	488636416	54	6121
2026-01-25 13:42:42.07	45.89	27.25	-40.7	-41.7	22.4	0.00e+00	90	41	0	490733568	54	6220
2026-01-25 13:42:43.08	46.10	27.38	-40.7	-41.8	22.4	0.00e+00	0	41	0	492830720	54	6257
2026-01-25 13:42:44.09	46.30	27.52	-40.6	-41.7	22.5	0.00e+00	0	41	0	494927872	54	6179
2026-01-25 13:42:45.10	46.51	27.65	-40.6	-41.6	22.6	0.00e+00	15	41	0	495976448	54	6117
2026-01-25 13:42:46.11	46.72	27.78	-40.6	-41.6	22.5	0.00e+00	0	41	0	498073600	54	6143
2026-01-25 13:42:47.12	46.93	27.92	-40.6	-41.6	22.5	0.00e+00	0	41	0	500170752	54	6151
2026-01-25 13:42:48.12	47.14	28.05	-40.7	-41.7	22.5	0.00e+00	14	41	0	502267904	54	6203
2026-01-25 13:42:49.14	47.36	28.19	-40.9	-41.9	22.2	0.00e+00	92	41	0	504365056	54	6357
2026-01-25 13:42:50.14	47.58	28.32	-40.9	-42.0	22.2	0.00e+00	0	41	0	505413632	54	6421
2026-01-25 13:42:51.15	47.79	28.46	-40.9	-41.9	22.3	0.00e+00	8	41	0	507510784	54	6370
2026-01-25 13:42:52.16	48.01	28.59	-40.9	-41.9	22.2	0.00e+00	8	41	0	509607936	54	6341
2026-01-25 13:42:53.17	48.24	28.73	-41.0	-42.1	22.2	0.00e+00	8	41	0	511705088	54	6465
2026-01-25 13:42:54.18	48.46	28.87	-40.7	-41.7	22.4	0.00e+00	1	41	0	513802240	54	6237
2026-01-25 13:42:55.19	48.69	29.00	-40.9	-41.9	22.2	0.00e+00	0	41	0	514850816	54	6345
2026-01-25 13:42:56.20	48.91	29.14	-40.9	-41.9	22.3	0.00e+00	91	41	0	516947968	54	6364
2026-01-25 13:42:57.21	49.14	29.27	-40.9	-42.0	22.3	0.00e+00	0	41	0	519045120	54	6398
2026-01-25 13:42:58.22	49.38	29.41	-41.0	-42.0	22.1	0.00e+00	92	41	0	521142272	54	6464
2026-01-25 13:42:59.23	49.61	29.55	-41.0	-42.1	22.0	0.00e+00	0	41	0	523239424	54	6489
2026-01-25 13:43:00.23	49.84	29.68	-41.1	-42.2	22.0	0.00e+00	0	41	0	524288000	54	6591
2026-01-25 13:43:01.24	50.08	29.82	-41.1	-42.2	22.0	0.00e+00	0	41	0	526385152	54	6580
2026-01-25 13:43:02.25	50.32	29.96	-41.1	-42.2	22.0	0.00e+00	0	41	0	528482304	54	6569
2026-01-25 13:43:03.25	50.56	30.09	-41.0	-42.0	22.1	0.00e+00	92	41	0	530579456	54	6463
2026-01-25 13:43:04.26	50.80	30.23	-40.7	-41.7	22.4	0.00e+00	0	41	0	532676608	54	6237
2026-01-25 13:43:05.27	51.05	30.37	-40.8	-41.8	22.4	0.00e+00	92	41	0	534773760	54	6284
2026-01-25 13:43:06.28	51.29	30.51	-40.8	-41.8	22.4	0.00e+00	0	41	0	535822336	54	6283
2026-01-25 13:43:07.29	51.54	30.65	-40.8	-41.8	22.4	0.00e+00	0	41	0	537919488	54	6313
2026-01-25 13:43:08.30	51.79	30.78	-41.1	-42.1	22.1	0.00e+00	0	41	0	540016640	54	6520
2026-01-25 13:43:09.31	52.05	30.92	-41.0	-42.1	22.1	0.00e+00	0	41	0	542113792	54	6469
2026-01-25 13:43:10.32	52.30	31.06	-41.0	-42.1	22.2	0.00e+00	0	41	0	543162368	54	6469
2026-01-25 13:43:11.33	52.56	31.20	-41.0	-42.1	22.1	0.00e+00	69	41	0	545259520	54	6511
2026-01-25 13:43:12.34	52.82	31.34	-40.9	-41.9	22.2	0.00e+00	92	41	0	547356672	54	6368
2026-01-25 13:43:13.35	53.08	31.47	-40.9	-41.9	22.2	0.00e+00	11	41	0	549453824	54	6384
2026-01-25 13:43:14.36	53.35	31.61	-41.2	-42.3	21.7	0.00e+00	46	41	0	551550976	54	6651
2026-01-25 13:43:15.37	53.62	31.75	-41.3	-42.4	21.8	0.00e+00	0	41	0	552599552	54	6721
2026-01-25 13:43:16.37	53.88	31.89	-41.6	-42.7	21.5	0.00e+00	0	41	0	554696704	54	6989
2026-01-25 13:43:17.38	54.15	32.03	-41.9	-43.0	21.2	0.00e+00	0	41	0	556793856	56	6457
2026-01-25 13:43:18.39	54.43	32.16	-42.1	-43.3	21.0	0.00e+00	69	41	0	558891008	56	6690
2026-01-25 13:43:19.40	54.70	32.30	-42.1	-43.3	21.1	0.00e+00	92	41	0	560988160	56	6644
2026-01-25 13:43:20.41	54.98	32.44	-42.3	-43.5	20.9	0.00e+00	0	41	0	563085312	56	6817
2026-01-25 13:43:21.42	55.26	32.58	-42.0	-43.2	21.2	0.00e+00	89	41	0	564133888	56	6596
2026-01-25 13:43:22.43	55.54	32.72	-42.1	-43.3	21.0	0.00e+00	0	41	0	566231040	56	6682
2026-01-25 13:43:23.44	55.83	32.85	-42.3	-43.6	20.7	0.00e+00	5	41	0	568328192	56	6870
2026-01-25 13:43:24.45	56.12	32.99	-42.5	-43.8	20.7	0.00e+00	0	41	0	570425344	56	7023
2026-01-25 13:43:25.46	56.41	33.13	-42.7	-44.0	19.8	0.00e+00	0	41	0	572522496	56	7183
2026-01-25 13:43:26.47	56.70	33.27	-42.7	-44.1	20.3	0.00e+00	91	41	0	573571072	58	6483
2026-01-25 13:43:27.48	56.99	33.40	-42.9	-44.3	20.1	0.00e+00	6	41	0	575668224	58	6665
2026-01-25 13:43:28.49	57.29	33.54	-42.8	-44.2	20.2	0.00e+00	92	41	0	577765376	58	6544
2026-01-25 13:43:29.49	57.59	33.67	-42.9	-44.3	20.2	0.00e+00	0	41	0	579862528	58	6645
2026-01-25 13:43:30.51	57.89	33.81	-42.9	-44.3	20.0	0.00e+00	13	41	0	581959680	58	6660
2026-01-25 13:43:31.51	58.20	33.95	-43.2	-44.6	19.8	0.00e+00	5	41	0	583008256	58	6890
2026-01-25 13:43:32.52	58.50	34.08	-43.3	-44.8	19.5	0.00e+00	13	41	0	585105408	58	7031
2026-01-25 13:43:33.53	58.81	34.22	-43.6	-45.2	19.2	0.00e+00	91	41	0	587202560	58	7342
2026-01-25 13:43:34.54	59.13	34.35	-44.0	-45.7	18.7	0.00e+00	13	41	0	589299712	60	6955
2026-01-25 13:43:35.55	59.44	34.49	-44.1	-45.8	18.6	0.00e+00	92	41	0	591396864	60	7017
2026-01-25 13:43:36.56	59.76	34.62	-43.8	-45.4	19.2	0.00e+00	73	41	0	592445440	60	6716
2026-01-25 13:43:37.57	60.08	34.76	-43.4	-44.9	19.7	0.00e+00	92	41	0	594542592	60	6353
2026-01-25 13:43:38.58	60.40	34.89	-43.4	-44.9	19.7	0.00e+00	0	41	0	596639744	60	6356
2026-01-25 13:43:39.59	60.73	35.02	-43.3	-44.8	19.8	0.00e+00	74	41	0	598736896	60	6260
2026-01-25 13:43:40.60	61.05	35.15	-43.3	-44.7	19.7	0.00e+00	0	41	0	600834048	60	6219
2026-01-25 13:43:41.61	61.38	35.29	-43.3	-44.7	19.8	0.00e+00	72	41	0	601882624	60	6225
2026-01-25 13:43:42.61	61.71	35.42	-43.4	-44.9	19.5	0.00e+00	92	41	0	603979776	60	6353
2026-01-25 13:43:43.62	62.05	35.55	-43.4	-44.9	19.6	0.00e+00	6	41	0	606076928	60	6347
2026-01-25 13:43:44.63	62.39	35.68	-43.5	-45.0	19.5	0.00e+00	92	41	0	608174080	60	6400
2026-01-25 13:43:45.64	62.73	35.81	-43.3	-44.8	19.3	0.00e+00	7	41	0	610271232	60	6256
2026-01-25 13:43:46.65	63.07	35.94	-43.2	-44.7	19.8	0.00e+00	6	41	0	611319808	60	6181
2026-01-25 13:43:47.66	63.42	36.07	-42.9	-44.3	20.1	0.00e+00	3	41	0	613416960	60	5937
2026-01-25 13:43:48.67	63.77	36.20	-43.1	-44.5	19.9	0.00e+00	15	41	0	615514112	60	6094
2026-01-25 13:43:49.68	64.12	36.32	-42.6	-43.9	20.5	0.00e+00	90	41	0	617611264	58	6343
2026-01-25 13:43:50.69	64.48	36.45	-42.8	-44.2	20.2	0.00e+00	7	41	0	619708416	58	6554
2026-01-25 13:43:51.70	64.83	36.58	-42.6	-43.9	20.5	0.00e+00	92	41	0	620756992	58	6322
2026-01-25 13:43:52.71	65.19	36.70	-42.5	-43.8	20.5	0.00e+00	6	41	0	622854144	58	6282
2026-01-25 13:43:53.71	65.55	36.82	-42.6	-43.9	20.5	0.00e+00	49	41	0	624951296	58	6329
2026-01-25 13:43:54.72	65.92	36.95	-42.7	-44.0	20.0	0.00e+00	71	41	0	627048448	58	6445
2026-01-25 13:43:55.73	66.29	37.07	-42.9	-44.3	20.0	0.00e+00	74	41	0	629145600	58	6677
2026-01-25 13:43:56.75	66.66	37.20	-43.2	-44.7	19.7	0.00e+00	0	41	0	631242752	58	6965
2026-01-25 13:43:57.75	67.03	37.32	-43.0	-44.4	20.1	0.00e+00	10	41	0	632291328	58	6713
2026-01-25 13:43:58.76	67.41	37.44	-42.5	-43.8	20.6	0.00e+00	92	41	0	634388480	58	6283
2026-01-25 13:43:59.77	67.79	37.56	-42.1	-43.3	21.1	0.00e+00	0	41	0	636485632	58	5942
2026-01-25 13:44:00.78	68.17	37.67	-41.9	-43.0	21.3	0.00e+00	92	41	0	638582784	58	5759
2026-01-25 13:44:01.79	68.56	37.79	-41.2	-42.3	21.9	0.00e+00	67	41	0	640679936	56	5939
2026-01-25 13:44:02.80	68.94	37.91	-41.5	-42.6	21.6	0.00e+00	2	41	0	641728512	56	6152
2026-01-25 13:44:03.81	69.33	38.02	-41.6	-42.8	21.5	0.00e+00	0	41	0	643825664	56	6253
2026-01-25 13:44:04.82	69.73	38.14	-42.1	-43.4	21.0	0.00e+00	0	41	0	645922816	56	6695
2026-01-25 13:44:05.83	70.12	38.25	-42.3	-43.5	20.8	0.00e+00	92	41	0	648019968	56	6820
2026-01-25 13:44:06.84	70.52	38.36	-42.2	-43.4	20.9	0.00e+00	2	41	0	650117120	56	6718
2026-01-25 13:44:07.85	70.92	38.47	-42.1	-43.3	21.0	0.00e+00	92	41	0	651165696	56	6659
2026-01-25 13:44:08.86	71.33	38.58	-41.9	-43.1	21.3	0.00e+00	0	41	0	653262848	56	6467
2026-01-25 13:44:09.87	71.73	38.69	-42.0	-43.2	21.1	0.00e+00	0	41	0	655360000	56	6585
2026-01-25 13:44:10.88	72.14	38.80	-42.5	-43.8	20.2	0.00e+00	0	41	0	657457152	56	7016
2026-01-25 13:44:11.89	72.55	38.91	-43.0	-44.4	19.9	0.00e+00	14	41	0	659554304	58	6738
2026-01-25 13:44:12.89	72.96	39.01	-43.1	-44.5	19.9	0.00e+00	0	41	0	660602880	58	6833
2026-01-25 13:44:13.90	73.38	39.11	-43.0	-44.4	20.1	0.00e+00	15	41	0	662700032	58	6717
2026-01-25 13:44:14.91	73.80	39.21	-42.9	-44.3	20.2	0.00e+00	92	41	0	664797184	58	6650
2026-01-25 13:44:15.92	74.22	39.32	-42.7	-44.1	20.4	0.00e+00	15	41	0	666894336	58	6465
2026-01-25 13:44:16.92	74.64	39.41	-42.5	-43.8	20.6	0.00e+00	55	41	0	668991488	58	6281
2026-01-25 13:44:17.94	75.08	39.51	-42.8	-44.1	20.3	0.00e+00	69	41	0	670040064	58	6499
2026-01-25 13:44:18.94	75.50	39.61	-42.9	-44.2	20.1	0.00e+00	4	41	0	672137216	58	6612
2026-01-25 13:44:19.95	75.94	39.70	-42.8	-44.1	20.2	0.00e+00	0	41	0	674234368	58	6524
2026-01-25 13:44:20.96	76.37	39.80	-42.8	-44.1	20.2	0.00e+00	65	41	0	676331520	58	6509
2026-01-25 13:44:21.97	76.81	39.89	-42.4	-43.7	20.7	0.00e+00	92	41	0	678428672	58	6196
2026-01-25 13:44:22.98	77.25	39.98	-41.9	-43.1	21.2	0.00e+00	0	41	0	679477248	58	5790
2026-01-25 13:44:23.99	77.69	40.07	-41.5	-42.6	21.6	0.00e+00	92	41	0	681574400	56	6144
2026-01-25 13:44:24.99	78.13	40.15	-41.2	-42.3	21.9	0.00e+00	73	41	0	683671552	56	5941
2026-01-25 13:44:26.00	78.58	40.24	-41.5	-42.6	21.5	0.00e+00	73	41	0	685768704	56	6168
2026-01-25 13:44:27.01	79.03	40.32	-41.8	-43.0	21.3	0.00e+00	0	41	0	687865856	56	6404
2026-01-25 13:44:28.02	79.48	40.40	-41.9	-43.1	21.2	0.00e+00	2	41	0	688914432	56	6492
2026-01-25 13:44:29.03	79.93	40.48	-41.8	-42.9	21.4	0.00e+00	90	41	0	691011584	56	6388
2026-01-25 13:44:30.04	80.39	40.56	-41.5	-42.6	21.8	0.00e+00	0	41	0	693108736	56	6150
2026-01-25 13:44:31.05	80.85	40.63	-41.0	-42.1	22.1	0.00e+00	92	41	0	695205888	56	5795
2026-01-25 13:44:32.06	81.31	40.71	-41.2	-42.3	22.1	0.00e+00	0	41	0	697303040	56	5911
2026-01-25 13:44:33.07	81.77	40.78	-41.4	-42.5	21.6	0.00e+00	3	41	0	698351616	56	6047
2026-01-25 13:44:34.08	82.23	40.85	-42.2	-43.4	20.9	0.00e+00	0	41	0	700448768	56	6742
2026-01-25 13:44:35.09	82.70	40.92	-42.7	-44.0	20.4	0.00e+00	0	41	0	702545920	56	7213
2026-01-25 13:44:36.10	83.17	40.99	-42.9	-44.3	20.1	0.00e+00	64	41	0	704643072	58	6619
2026-01-25 13:44:37.10	83.64	41.05	-42.6	-43.9	20.5	0.00e+00	15	41	0	706740224	58	6341
2026-01-25 13:44:38.11	84.11	41.11	-42.3	-43.6	20.6	0.00e+00	92	41	0	707788800	58	6131
2026-01-25 13:44:39.12	84.58	41.17	-42.1	-43.3	21.0	0.00e+00	68	41	0	709885952	58	5952
2026-01-25 13:44:40.13	85.06	41.23	-41.9	-43.1	21.1	0.00e+00	38	41	0	711983104	58	5787
2026-01-25 13:44:41.14	85.53	41.29	-42.3	-43.6	20.7	0.00e+00	15	41	0	714080256	58	6115
2026-01-25 13:44:42.15	86.01	41.34	-42.6	-44.0	20.4	0.00e+00	0	41	0	716177408	58	6396
2026-01-25 13:44:43.16	86.49	41.39	-43.0	-44.4	20.0	0.00e+00	0	41	0	717225984	58	6721
2026-01-25 13:44:44.17	86.98	41.44	-43.6	-45.2	18.8	0.00e+00	15	41	0	719323136	58	7370
2026-01-25 13:44:45.17	87.46	41.49	-44.2	-45.9	18.6	0.00e+00	91	41	0	721420288	60	7168
2026-01-25 13:44:46.18	87.94	41.54	-44.1	-45.8	18.6	0.00e+00	65	41	0	723517440	60	7085
2026-01-25 13:44:47.19	88.43	41.58	-43.8	-45.4	19.1	0.00e+00	92	41	0	725614592	60	6715
2026-01-25 13:44:48.20	88.91	41.62	-43.4	-44.8	19.8	0.00e+00	66	41	0	727711744	60	6313
2026-01-25 13:44:49.21	89.40	41.66	-42.7	-44.0	20.4	0.00e+00	2	41	0	728760320	60	5745
2026-01-25 13:44:50.22	89.89	41.70	-42.1	-43.3	21.0	0.00e+00	2	41	0	730857472	58	5931
2026-01-25 13:44:51.23	90.38	41.73	-42.1	-43.3	21.1	0.00e+00	2	41	0	732954624	58	5943
2026-01-25 13:44:52.24	90.88	41.77	-42.3	-43.6	20.8	0.00e+00	92	41	0	735051776	58	6132
2026-01-25 13:44:53.25	91.37	41.79	-42.5	-43.8	20.5	0.00e+00	0	41	0	737148928	58	6302
2026-01-25 13:44:54.26	91.86	41.82	-42.3	-43.5	21.0	0.00e+00	92	41	0	738197504	58	6079
2026-01-25 13:44:55.27	92.36	41.85	-41.7	-42.8	21.5	0.00e+00	8	41	0	740294656	56	6279
2026-01-25 13:44:56.28	92.85	41.87	-41.3	-42.4	21.8	0.00e+00	9	41	0	742391808	56	5997
2026-01-25 13:44:57.29	93.35	41.89	-41.3	-42.3	22.0	0.00e+00	10	41	0	744488960	56	5964
2026-01-25 13:44:58.30	93.85	41.91	-41.3	-42.4	21.8	0.00e+00	0	41	0	746586112	56	5974
2026-01-25 13:44:59.31	94.34	41.93	-41.8	-42.9	21.2	0.00e+00	6	41	0	747634688	56	6386
2026-01-25 13:45:00.31	94.84	41.94	-42.4	-43.6	20.6	0.00e+00	14	41	0	749731840	56	6910
2026-01-25 13:45:01.32	95.33	41.95	-42.5	-43.8	20.6	0.00e+00	92	41	0	751828992	56	7047
2026-01-25 13:45:02.33	95.83	41.96	-42.1	-43.3	21.0	0.00e+00	13	41	0	753926144	56	6639
2026-01-25 13:45:03.34	96.33	41.97	-41.5	-42.7	21.6	0.00e+00	92	41	0	756023296	56	6187
2026-01-25 13:45:04.35	96.83	41.97	-41.4	-42.6	21.7	0.00e+00	15	41	0	757071872	56	6114
2026-01-25 13:45:05.35	97.32	41.97	-40.8	-41.9	22.4	0.00e+00	69	41	0	759169024	56	5637
2026-01-25 13:45:06.36	97.82	41.97	-40.6	-41.6	22.4	0.00e+00	0	41	0	761266176	54	6133
2026-01-25 13:45:07.37	98.32	41.97	-40.1	-41.0	22.8	0.00e+00	0	41	0	763363328	54	5741
2026-01-25 13:45:08.38	98.82	41.96	-39.8	-40.8	23.2	0.00e+00	92	41	0	765460480	54	5574
2026-01-25 13:45:09.39	99.32	41.95	-39.6	-40.5	23.3	0.00e+00	0	41	0	766509056	52	6092
2026-01-25 13:45:10.40	99.82	41.94	-39.9	-40.9	23.2	0.00e+00	92	41	0	768606208	52	6335
2026-01-25 13:45:11.41	100.31	41.93	-40.2	-41.2	22.9	0.00e+00	69	41	0	770703360	52	6583
2026-01-25 13:45:12.42	100.81	41.92	-40.2	-41.2	22.8	0.00e+00	5	41	0	772800512	52	6587
2026-01-25 13:45:13.43	101.31	41.90	-40.2	-41.2	22.9	0.00e+00	0	41	0	774897664	52	6554
2026-01-25 13:45:14.44	101.81	41.88	-40.0	-40.9	23.1	0.00e+00	0	41	0	775946240	52	6380
2026-01-25 13:45:15.45	102.30	41.86	-40.5	-41.5	22.6	0.00e+00	45	41	0	778043392	52	6809
2026-01-25 13:45:16.46	102.80	41.83	-41.2	-42.3	21.8	0.00e+00	7	41	0	780140544	54	6643
2026-01-25 13:45:17.47	103.29	41.81	-42.0	-43.2	21.1	0.00e+00	90	41	0	782237696	56	6551
2026-01-25 13:45:18.47	103.78	41.78	-42.0	-43.2	21.2	0.00e+00	14	41	0	784334848	56	6549
2026-01-25 13:45:19.48	104.27	41.75	-41.7	-42.8	21.5	0.00e+00	13	41	0	785383424	56	6291
2026-01-25 13:45:20.49	104.76	41.71	-41.6	-42.8	21.6	0.00e+00	5	41	0	787480576	56	6258
2026-01-25 13:45:21.50	105.26	41.68	-41.9	-43.1	21.0	0.00e+00	6	41	0	789577728	56	6502
2026-01-25 13:45:22.51	105.74	41.64	-42.2	-43.4	20.7	0.00e+00	0	41	0	791674880	56	6738
2026-01-25 13:45:23.52	106.23	41.60	-42.1	-43.4	21.0	0.00e+00	7	41	0	793772032	56	6726
2026-01-25 13:45:24.53	106.72	41.56	-42.1	-43.3	21.1	0.00e+00	92	41	0	795869184	56	6656
2026-01-25 13:45:25.53	107.20	41.51	-42.2	-43.4	21.0	0.00e+00	9	41	0	796917760	56	6737
2026-01-25 13:45:26.54	107.69	41.47	-42.3	-43.6	20.7	0.00e+00	92	41	0	799014912	56	6869
2026-01-25 13:45:27.55	108.17	41.42	-43.3	-44.7	19.6	0.00e+00	7	41	0	801112064	58	6981
2026-01-25 13:45:28.56	108.65	41.37	-44.0	-45.7	18.6	0.00e+00	78	41	0	803209216	60	6980
2026-01-25 13:45:29.57	109.13	41.31	-44.2	-46.0	18.8	0.00e+00	0	41	0	805306368	60	7203
2026-01-25 13:45:30.58	109.61	41.26	-42.7	-44.1	20.4	0.00e+00	71	41	0	806354944	60	5798
2026-01-25 13:45:31.59	110.09	41.20	-41.6	-42.7	21.6	0.00e+00	90	41	0	808452096	56	6234
2026-01-25 13:45:32.60	110.56	41.14	-42.0	-43.1	21.1	0.00e+00	0	41	0	810549248	56	6524
2026-01-25 13:45:33.61	111.04	41.08	-42.7	-44.0	20.4	0.00e+00	92	41	0	812646400	56	7234
2026-01-25 13:45:34.62	111.51	41.01	-42.9	-44.3	20.2	0.00e+00	0	41	0	814743552	58	6635
2026-01-25 13:45:35.63	111.98	40.95	-42.2	-43.4	20.9	0.00e+00	7	41	0	815792128	58	5981
2026-01-25 13:45:36.64	112.45	40.88	-41.7	-42.9	21.4	0.00e+00	2	41	0	817889280	56	6344
2026-01-25 13:45:37.65	112.91	40.81	-41.6	-42.8	21.5	0.00e+00	0	41	0	819986432	56	6250
2026-01-25 13:45:38.65	113.37	40.74	-42.2	-43.4	20.9	0.00e+00	78	41	0	822083584	56	6735
2026-01-25 13:45:39.66	113.83	40.67	-42.4	-43.7	20.8	0.00e+00	0	41	0	824180736	56	6936
2026-01-25 13:45:40.67	114.29	40.59	-41.7	-42.8	21.4	0.00e+00	92	41	0	825229312	56	6300
2026-01-25 13:45:41.68	114.75	40.51	-41.2	-42.2	22.0	0.00e+00	5	41	0	827326464	56	5891
2026-01-25 13:45:42.69	115.21	40.43	-41.4	-42.5	21.7	0.00e+00	92	41	0	829423616	56	6089
2026-01-25 13:45:43.70	115.66	40.35	-42.2	-43.5	20.8	0.00e+00	13	41	0	831520768	56	6797
2026-01-25 13:45:44.71	116.11	40.27	-42.7	-44.1	20.3	0.00e+00	7	41	0	833617920	56	7291
2026-01-25 13:45:45.72	116.56	40.19	-42.1	-43.3	21.0	0.00e+00	0	41	0	834666496	58	5940
2026-01-25 13:45:46.73	117.01	40.10	-41.0	-42.1	22.2	0.00e+00	67	41	0	836763648	56	5789
2026-01-25 13:45:47.74	117.45	40.01	-40.2	-41.2	22.9	0.00e+00	92	41	0	838860800	54	5846
2026-01-25 13:45:48.75	117.89	39.92	-39.9	-40.8	23.3	0.00e+00	14	41	0	840957952	54	5623
2026-01-25 13:45:49.76	118.33	39.83	-40.0	-41.0	23.0	0.00e+00	92	41	0	843055104	54	5700
2026-01-25 13:45:50.77	118.77	39.74	-39.8	-40.8	23.3	0.00e+00	13	41	0	844103680	54	5570
2026-01-25 13:45:51.77	119.20	39.65	-39.5	-40.4	23.6	0.00e+00	72	41	0	846200832	52	6002
2026-01-25 13:45:52.79	119.64	39.55	-39.2	-40.1	24.0	0.00e+00	0	41	0	848297984	52	5800
2026-01-25 13:45:53.79	120.06	39.45	-39.1	-40.0	24.1	0.00e+00	73	41	0	850395136	52	5697
2026-01-25 13:45:54.80	120.49	39.35	-39.1	-40.0	23.8	0.00e+00	90	41	0	852492288	52	5710
2026-01-25 13:45:55.81	120.91	39.25	-39.8	-40.8	23.2	0.00e+00	74	41	0	853540864	52	6271
2026-01-25 13:45:56.82	121.34	39.15	-40.2	-41.2	22.8	0.00e+00	92	41	0	855638016	52	6551
2026-01-25 13:45:57.83	121.75	39.05	-39.6	-40.6	23.5	0.00e+00	0	41	0	857735168	52	6107
2026-01-25 13:45:58.84	122.17	38.94	-39.3	-40.2	23.7	0.00e+00	0	41	0	859832320	52	5867
2026-01-25 13:45:59.85	122.59	38.84	-39.5	-40.4	23.6	0.00e+00	0	41	0	861929472	52	5965
2026-01-25 13:46:00.86	123.00	38.73	-40.0	-40.9	23.1	0.00e+00	0	41	0	862978048	52	6375
2026-01-25 13:46:01.87	123.41	38.62	-40.0	-40.9	23.1	0.00e+00	92	41	0	865075200	52	6383
2026-01-25 13:46:02.88	123.81	38.51	-39.2	-40.1	23.9	0.00e+00	0	41	0	867172352	52	5806
2026-01-25 13:46:03.89	124.21	38.40	-38.8	-39.7	24.3	0.00e+00	90	41	0	869269504	52	5522
2026-01-25 13:46:04.90	124.62	38.29	-38.7	-39.5	24.3	0.00e+00	13	41	0	871366656	50	6063
2026-01-25 13:46:05.91	125.01	38.18	-38.6	-39.4	24.5	0.00e+00	39	41	0	872415232	50	6008
2026-01-25 13:46:06.92	125.41	38.06	-38.8	-39.6	24.3	0.00e+00	14	41	0	874512384	50	6167
2026-01-25 13:46:07.93	125.80	37.95	-39.2	-40.1	23.9	0.00e+00	70	41	0	876609536	50	6491
2026-01-25 13:46:08.93	126.19	37.83	-38.8	-39.7	24.3	0.00e+00	0	41	0	878706688	50	6215
2026-01-25 13:46:09.94	126.57	37.71	-38.2	-39.0	24.8	0.00e+00	12	41	0	880803840	50	5746
2026-01-25 13:46:10.95	126.96	37.60	-38.0	-38.8	24.9	0.00e+00	92	41	0	881852416	50	5573
2026-01-25 13:46:11.96	127.34	37.48	-38.0	-38.8	24.9	0.00e+00	69	41	0	883949568	50	5591
2026-01-25 13:46:12.97	127.72	37.36	-38.3	-39.2	24.7	0.00e+00	92	41	0	886046720	50	5836
2026-01-25 13:46:13.98	128.09	37.23	-38.5	-39.4	24.5	0.00e+00	67	41	0	888143872	50	5967
2026-01-25 13:46:14.99	128.47	37.11	-38.2	-39.0	24.8	0.00e+00	69	41	0	890241024	50	5759
2026-01-25 13:46:16.00	128.84	36.99	-38.1	-38.9	24.9	0.00e+00	0	41	0	892338176	50	5655
2026-01-25 13:46:17.01	129.21	36.86	-38.1	-38.9	24.9	0.00e+00	69	41	0	893386752	50	5680
2026-01-25 13:46:18.02	129.57	36.74	-38.2	-39.0	24.8	0.00e+00	92	41	0	895483904	50	5731
2026-01-25 13:46:19.03	129.93	36.61	-38.4	-39.2	24.7	0.00e+00	0	41	0	897581056	50	5835
2026-01-25 13:46:20.04	130.29	36.49	-38.7	-39.5	24.4	0.00e+00	92	41	0	899678208	50	6083
2026-01-25 13:46:21.04	130.65	36.36	-38.7	-39.6	24.3	0.00e+00	0	41	0	901775360	50	6128
2026-01-25 13:46:22.05	131.00	36.23	-39.0	-39.9	24.0	0.00e+00	61	41	0	902823936	50	6327
2026-01-25 13:46:23.06	131.35	36.11	-39.1	-40.0	23.9	0.00e+00	0	41	0	904921088	50	6435
2026-01-25 13:46:24.07	131.70	35.98	-39.3	-40.2	23.7	0.00e+00	9	41	0	907018240	50	6547
2026-01-25 13:46:25.08	132.04	35.85	-39.3	-40.2	23.7	0.00e+00	0	41	0	909115392	50	6595
2026-01-25 13:46:26.09	132.39	35.72	-39.2	-40.1	23.9	0.00e+00	0	41	0	911212544	50	6478
2026-01-25 13:46:27.10	132.73	35.58	-39.1	-40.0	24.0	0.00e+00	92	41	0	912261120	50	6428
2026-01-25 13:46:28.11	133.07	35.45	-38.8	-39.6	24.2	0.00e+00	0	41	0	914358272	50	6148
2026-01-25 13:46:29.12	133.40	35.32	-38.8	-39.6	24.2	0.00e+00	92	41	0	916455424	50	6138
2026-01-25 13:46:30.13	133.73	35.19	-38.9	-39.8	24.1	0.00e+00	15	41	0	918552576	50	6252
2026-01-25 13:46:31.14	134.06	35.06	-39.0	-39.9	24.0	0.00e+00	67	41	0	920649728	50	6324
2026-01-25 13:46:32.15	134.39	34.92	-38.7	-39.5	24.3	0.00e+00	0	41	0	921698304	50	6091
2026-01-25 13:46:33.16	134.72	34.79	-38.5	-39.3	24.6	0.00e+00	13	41	0	923795456	50	5939
2026-01-25 13:46:34.17	135.04	34.65	-38.5	-39.3	24.3	0.00e+00	91	41	0	925892608	50	5955
2026-01-25 13:46:35.18	135.36	34.52	-39.5	-40.4	23.5	0.00e+00	0	41	0	927989760	50	6753
2026-01-25 13:46:36.18	135.67	34.38	-40.5	-41.5	22.5	0.00e+00	91	41	0	930086912	52	6803
2026-01-25 13:46:37.19	135.98	34.25	-40.1	-41.0	23.1	0.00e+00	0	41	0	931135488	52	6456
2026-01-25 13:46:38.20	136.30	34.11	-39.7	-40.6	23.5	0.00e+00	67	41	0	933232640	52	6162
2026-01-25 13:46:39.21	136.61	33.98	-39.9	-40.8	23.3	0.00e+00	0	41	0	935329792	52	6266
2026-01-25 13:46:40.22	136.91	33.84	-39.9	-40.9	23.2	0.00e+00	0	41	0	937426944	52	6320
2026-01-25 13:46:41.23	137.22	33.70	-40.6	-41.6	22.5	0.00e+00	92	41	0	939524096	52	6851
2026-01-25 13:46:42.24	137.52	33.57	-42.0	-43.2	21.0	0.00e+00	2	41	0	940572672	56	6596
2026-01-25 13:46:43.25	137.82	33.43	-42.5	-43.8	20.6	0.00e+00	92	41	0	942669824	56	7058
2026-01-25 13:46:44.26	138.11	33.29	-42.1	-43.4	20.9	0.00e+00	0	41	0	944766976	56	6706
2026-01-25 13:46:45.27	138.41	33.15	-41.8	-43.0	21.4	0.00e+00	13	41	0	946864128	56	6394
2026-01-25 13:46:46.28	138.70	33.02	-41.8	-42.9	21.2	0.00e+00	8	41	0	948961280	56	6375
2026-01-25 13:46:47.29	138.99	32.88	-40.8	-41.8	22.3	0.00e+00	2	41	0	950009856	56	5595
2026-01-25 13:46:48.30	139.28	32.74	-40.3	-41.3	22.8	0.00e+00	0	41	0	952107008	54	5897
2026-01-25 13:46:49.31	139.56	32.60	-41.0	-42.0	22.0	0.00e+00	12	41	0	954204160	54	6460
2026-01-25 13:46:50.32	139.84	32.46	-42.0	-43.3	20.9	0.00e+00	90	41	0	956301312	56	6631
2026-01-25 13:46:51.33	140.12	32.32	-42.5	-43.8	20.5	0.00e+00	0	41	0	958398464	56	7027
2026-01-25 13:46:52.33	140.40	32.19	-41.4	-42.6	21.6	0.00e+00	92	41	0	960495616	56	6108
2026-01-25 13:46:53.34	140.67	32.05	-41.0	-42.0	22.2	0.00e+00	7	41	0	961544192	56	5729
2026-01-25 13:46:54.35	140.94	31.91	-40.2	-41.2	22.8	0.00e+00	75	41	0	963641344	54	5848
2026-01-25 13:46:55.36	141.22	31.77	-40.5	-41.5	22.5	0.00e+00	5	41	0	965738496	54	6059
2026-01-25 13:46:56.37	141.48	31.63	-41.8	-43.0	21.2	0.00e+00	75	41	0	967835648	54	7195
2026-01-25 13:46:57.38	141.75	31.49	-43.3	-44.9	19.3	0.00e+00	91	41	0	969932800	58	7105
2026-01-25 13:46:58.39	142.01	31.35	-43.9	-45.6	18.8	0.00e+00	0	41	0	970981376	60	6888
2026-01-25 13:46:59.40	142.28	31.21	-43.5	-45.0	19.4	0.00e+00	91	41	0	973078528	60	6453
2026-01-25 13:47:00.41	142.53	31.08	-42.5	-43.8	20.5	0.00e+00	69	41	0	975175680	58	6255
2026-01-25 13:47:01.42	142.79	30.94	-42.0	-43.2	21.2	0.00e+00	70	41	0	977272832	58	5841
2026-01-25 13:47:02.43	143.05	30.80	-40.6	-41.6	22.6	0.00e+00	6	41	0	979369984	54	6156
2026-01-25 13:47:03.44	143.30	30.66	-40.3	-41.3	22.8	0.00e+00	0	41	0	980418560	54	5935
2026-01-25 13:47:04.45	143.55	30.52	-40.5	-41.5	22.4	0.00e+00	91	41	0	982515712	54	6059
2026-01-25 13:47:05.46	143.80	30.38	-41.5	-42.7	21.3	0.00e+00	6	41	0	984612864	54	6991
2026-01-25 13:47:06.47	144.05	30.24	-42.4	-43.7	20.4	0.00e+00	91	41	0	986710016	56	6977
2026-01-25 13:47:07.47	144.29	30.11	-42.5	-43.8	20.6	0.00e+00	5	41	0	988807168	56	7054
2026-01-25 13:47:08.48	144.53	29.97	-40.8	-41.8	22.4	0.00e+00	5	41	0	989855744	56	5630
2026-01-25 13:47:09.49	144.77	29.83	-39.7	-40.6	23.4	0.00e+00	5	41	0	991952896	52	6117
2026-01-25 13:47:10.50	145.01	29.69	-39.3	-40.2	23.8	0.00e+00	11	41	0	994050048	52	5842
2026-01-25 13:47:11.51	145.25	29.55	-39.0	-39.9	24.0	0.00e+00	19	41	0	996147200	52	5649
2026-01-25 13:47:12.52	145.48	29.42	-39.4	-40.3	23.6	0.00e+00	73	41	0	998244352	52	5947
2026-01-25 13:47:13.53	145.71	29.28	-40.5	-41.5	22.5	0.00e+00	90	41	0	999292928	52	6784
2026-01-25 13:47:14.54	145.95	29.14	-41.4	-42.6	21.5	0.00e+00	11	41	0	1001390080	54	6880
2026-01-25 13:47:15.55	146.17	29.00	-41.7	-42.9	21.2	0.00e+00	74	41	0	1003487232	54	7103
2026-01-25 13:47:16.56	146.40	28.87	-40.7	-41.7	22.3	0.00e+00	75	41	0	1005584384	56	5548
2026-01-25 13:47:17.57	146.63	28.73	-39.1	-40.0	23.8	0.00e+00	0	41	0	1007681536	52	5740
2026-01-25 13:47:18.58	146.85	28.59	-38.4	-39.2	24.5	0.00e+00	15	41	0	1008730112	50	5893
2026-01-25 13:47:19.59	147.07	28.46	-38.4	-39.2	24.4	0.00e+00	0	41	0	1010827264	50	5844
2026-01-25 13:47:20.59	147.29	28.32	-37.9	-38.7	24.9	0.00e+00	92	41	0	1012924416	50	5527
2026-01-25 13:47:21.60	147.51	28.19	-38.3	-39.1	24.4	0.00e+00	3	41	0	1015021568	50	5818
2026-01-25 13:47:22.61	147.72	28.05	-39.0	-39.8	23.9	0.00e+00	92	41	0	1017118720	50	6300
2026-01-25 13:47:23.62	147.94	27.91	-39.9	-40.8	23.2	0.00e+00	0	41	0	1018167296	52	6295
2026-01-25 13:47:24.63	148.15	27.78	-40.2	-41.2	22.8	0.00e+00	0	41	0	1020264448	52	6558
2026-01-25 13:47:25.64	148.36	27.64	-40.0	-41.0	23.1	0.00e+00	6	41	0	1022361600	52	6419
2026-01-25 13:47:26.65	148.57	27.51	-39.7	-40.6	23.5	0.00e+00	0	41	0	1024458752	52	6155
2026-01-25 13:47:27.66	148.78	27.37	-38.9	-39.8	24.0	0.00e+00	92	41	0	1026555904	52	5580
2026-01-25 13:47:28.67	148.98	27.24	-38.8	-39.6	24.1	0.00e+00	7	41	0	1028653056	50	6166
2026-01-25 13:47:29.68	149.18	27.11	-38.2	-39.0	24.7	0.00e+00	90	41	0	1029701632	50	5731
2026-01-25 13:47:30.69	149.39	26.97	-38.3	-39.1	24.6	0.00e+00	12	41	0	1031798784	50	5820
2026-01-25 13:47:31.70	149.59	26.84	-38.6	-39.5	24.3	0.00e+00	8	41	0	1033895936	50	6036
2026-01-25 13:47:32.71	149.79	26.71	-39.1	-40.0	23.8	0.00e+00	12	41	0	1035993088	50	6450
2026-01-25 13:47:33.72	149.98	26.57	-39.6	-40.5	23.3	0.00e+00	11	41	0	1037041664	50	6827
2026-01-25 13:47:34.73	150.18	26.44	-39.8	-40.8	23.2	0.00e+00	16	41	0	1039138816	52	6260
2026-01-25 13:47:35.73	150.37	26.31	-39.5	-40.5	23.4	0.00e+00	71	41	0	1041235968	52	6036
2026-01-25 13:47:36.74	150.56	26.18	-39.3	-40.2	23.7	0.00e+00	92	41	0	1043333120	52	5866
2026-01-25 13:47:37.75	150.76	26.05	-38.9	-39.7	24.1	0.00e+00	12	41	0	1045430272	52	5544
2026-01-25 13:47:38.76	150.94	25.92	-38.3	-39.1	24.6	0.00e+00	92	41	0	1046478848	50	5775
2026-01-25 13:47:39.77	151.13	25.78	-38.0	-38.8	24.8	0.00e+00	0	41	0	1048576000	50	5608
2026-01-25 13:47:40.78	151.32	25.65	-38.0	-38.8	24.8	0.00e+00	69	41	0	1050673152	50	5627
2026-01-25 13:47:41.79	151.50	25.52	-38.3	-39.1	24.7	0.00e+00	0	41	0	1052770304	50	5780
2026-01-25 13:47:42.80	151.69	25.39	-38.6	-39.5	24.3	0.00e+00	69	41	0	1054867456	50	6042
2026-01-25 13:47:43.81	151.87	25.26	-38.7	-39.6	24.1	0.00e+00	92	41	0	1056964608	50	6117
2026-01-25 13:47:44.82	152.05	25.13	-39.2	-40.1	23.7	0.00e+00	0	41	0	1058013184	50	6494
2026-01-25 13:47:45.83	152.23	25.01	-39.4	-40.3	23.6	0.00e+00	92	41	0	1060110336	50	6692
2026-01-25 13:47:46.84	152.41	24.88	-39.5	-40.4	23.4	0.00e+00	0	41	0	1062207488	50	6759
2026-01-25 13:47:47.85	152.58	24.75	-39.7	-40.6	23.3	0.00e+00	0	41	0	1064304640	50	6925
2026-01-25 13:47:48.86	152.76	24.62	-39.4	-40.3	23.4	0.00e+00	0	41	0	1066401792	50	6662
2026-01-25 13:47:49.87	152.93	24.49	-39.5	-40.4	23.4	0.00e+00	0	41	0	1067450368	50	6713
2026-01-25 13:47:50.88	153.10	24.37	-39.2	-40.1	23.8	0.00e+00	77	41	0	1069547520	50	6468
2026-01-25 13:47:51.89	153.28	24.24	-38.9	-39.8	24.0	0.00e+00	5	41	0	1071644672	50	6294
2026-01-25 13:47:52.89	153.44	24.11	-38.8	-39.7	24.1	0.00e+00	92	41	0	1073741824	50	6213
2026-01-25 13:47:53.90	153.61	23.99	-38.7	-39.5	24.2	0.00e+00	0	41	0	1075838976	50	6101
2026-01-25 13:47:54.91	153.78	23.86	-38.4	-39.2	24.5	0.00e+00	39	41	0	1076887552	50	5867
2026-01-25 13:47:55.92	153.94	23.74	-38.5	-39.3	24.4	0.00e+00	6	41	0	1078984704	50	5956
2026-01-25 13:47:56.93	154.11	23.61	-38.7	-39.5	24.2	0.00e+00	6	41	0	1081081856	50	6059
2026-01-25 13:47:57.94	154.27	23.49	-38.8	-39.7	24.0	0.00e+00	2	41	0	1083179008	50	6198
2026-01-25 13:47:58.95	154.43	23.36	-39.3	-40.1	23.8	0.00e+00	77	41	0	1085276160	50	6539
2026-01-25 13:47:59.96	154.59	23.24	-39.0	-39.9	23.8	0.00e+00	91	41	0	1086324736	50	6342
2026-01-25 13:48:00.97	154.75	23.12	-39.1	-40.0	23.9	0.00e+00	9	41	0	1088421888	50	6395
2026-01-25 13:48:01.98	154.91	22.99	-39.2	-40.1	23.7	0.00e+00	13	41	0	1090519040	50	6511
2026-01-25 13:48:02.99	155.07	22.87	-39.1	-40.0	23.8	0.00e+00	2	41	0	1092616192	50	6424
2026-01-25 13:48:04.00	155.22	22.75	-39.1	-40.0	23.8	0.00e+00	0	41	0	1094713344	50	6423
2026-01-25 13:48:05.01	155.38	22.62	-39.3	-40.2	23.6	0.00e+00	71	41	0	1095761920	50	6584
2026-01-25 13:48:06.02	155.53	22.50	-39.4	-40.3	23.5	0.00e+00	0	41	0	1097859072	50	6648
2026-01-25 13:48:07.02	155.68	22.38	-39.2	-40.1	23.6	0.00e+00	91	41	0	1099956224	50	6519
2026-01-25 13:48:08.04	155.84	22.26	-39.4	-40.3	23.5	0.00e+00	2	41	0	1102053376	50	6678
2026-01-25 13:48:09.05	155.99	22.14	-39.4	-40.3	23.5	0.00e+00	90	41	0	1104150528	50	6648
2026-01-25 13:48:10.06	156.13	22.02	-39.3	-40.2	23.6	0.00e+00	0	41	0	1105199104	50	6545
2026-01-25 13:48:11.07	156.28	21.90	-39.2	-40.0	23.7	0.00e+00	0	41	0	1107296256	50	6459
2026-01-25 13:48:12.07	156.43	21.78	-39.3	-40.2	23.7	0.00e+00	0	41	0	1109393408	50	6547
2026-01-25 13:48:13.08	156.57	21.66	-39.5	-40.4	23.4	0.00e+00	10	41	0	1111490560	50	6758
2026-01-25 13:48:14.09	156.72	21.54	-39.5	-40.4	23.3	0.00e+00	91	41	0	1113587712	50	6730
2026-01-25 13:48:15.10	156.86	21.43	-39.7	-40.6	23.1	0.00e+00	0	41	0	1114636288	50	6924
2026-01-25 13:48:16.11	157.00	21.31	-40.0	-40.9	22.9	0.00e+00	92	41	0	1116733440	52	6386
2026-01-25 13:48:17.12	157.14	21.19	-40.0	-41.0	23.0	0.00e+00	2	41	0	1118830592	52	6412
2026-01-25 13:48:18.13	157.29	21.07	-40.3	-41.3	22.6	0.00e+00	38	41	0	1120927744	52	6636
2026-01-25 13:48:19.13	157.42	20.96	-40.0	-41.0	22.9	0.00e+00	0	41	0	1123024896	52	6434
2026-01-25 13:48:20.14	157.56	20.84	-40.0	-41.0	22.8	0.00e+00	71	41	0	1125122048	52	6420
2026-01-25 13:48:21.15	157.70	20.72	-39.9	-40.9	23.0	0.00e+00	0	41	0	1126170624	52	6345
2026-01-25 13:48:22.16	157.83	20.61	-39.8	-40.8	23.0	0.00e+00	4	41	0	1128267776	52	6254
2026-01-25 13:48:23.17	157.97	20.49	-40.0	-41.0	22.9	0.00e+00	92	41	0	1130364928	52	6403
2026-01-25 13:48:24.17	158.10	20.38	-39.7	-40.7	23.2	0.00e+00	0	41	0	1132462080	52	6187
2026-01-25 13:48:25.18	158.24	20.27	-39.7	-40.7	23.1	0.00e+00	92	41	0	1134559232	52	6185
2026-01-25 13:48:26.19	158.37	20.15	-39.6	-40.5	23.3	0.00e+00	2	41	0	1135607808	52	6071
2026-01-25 13:48:27.20	158.50	20.04	-39.5	-40.4	23.4	0.00e+00	0	41	0	1137704960	52	6006
2026-01-25 13:48:28.21	158.63	19.92	-39.5	-40.4	23.3	0.00e+00	77	41	0	1139802112	52	6033
2026-01-25 13:48:29.22	158.76	19.81	-39.7	-40.7	23.2	0.00e+00	0	41	0	1141899264	52	6179
2026-01-25 13:48:30.23	158.89	19.70	-39.7	-40.7	23.1	0.00e+00	92	41	0	1143996416	52	6180
2026-01-25 13:48:31.24	159.02	19.59	-39.8	-40.7	23.1	0.00e+00	0	41	0	1145044992	52	6215
2026-01-25 13:48:32.25	159.14	19.47	-40.0	-40.9	23.0	0.00e+00	92	41	0	1147142144	52	6378
2026-01-25 13:48:33.26	159.27	19.36	-40.1	-41.0	22.9	0.00e+00	0	41	0	1149239296	52	6451
2026-01-25 13:48:34.27	159.39	19.25	-39.8	-40.7	23.0	0.00e+00	2	41	0	1151336448	52	6241
2026-01-25 13:48:35.28	159.52	19.14	-39.7	-40.6	23.1	0.00e+00	0	41	0	1153433600	52	6163
2026-01-25 13:48:36.28	159.64	19.03	-39.6	-40.6	23.2	0.00e+00	0	41	0	1154482176	52	6114
2026-01-25 13:48:37.29	159.76	18.92	-39.7	-40.6	23.1	0.00e+00	1	41	0	1156579328	52	6171
2026-01-25 13:48:38.30	159.89	18.81	-39.6	-40.5	23.3	0.00e+00	0	41	0	1158676480	52	6095
2026-01-25 13:48:39.31	160.01	18.70	-39.4	-40.3	23.5	0.00e+00	90	41	0	1160773632	52	5906
2026-01-25 13:48:40.32	160.13	18.59	-39.2	-40.1	23.7	0.00e+00	71	41	0	1162870784	52	5779
2026-01-25 13:48:41.33	160.25	18.48	-39.3	-40.1	23.6	0.00e+00	44	41	0	1163919360	52	5828
2026-01-25 13:48:42.34	160.36	18.38	-39.0	-39.9	23.6	0.00e+00	0	41	0	1166016512	52	5667
2026-01-25 13:48:43.35	160.48	18.27	-39.2	-40.1	23.6	0.00e+00	0	41	0	1168113664	52	5787
2026-01-25 13:48:44.36	160.60	18.16	-39.2	-40.1	23.6	0.00e+00	2	41	0	1170210816	52	5801
2026-01-25 13:48:45.37	160.71	18.05	-39.3	-40.2	23.6	0.00e+00	72	41	0	1172307968	52	5848
2026-01-25 13:48:46.37	160.83	17.95	-39.5	-40.4	23.3	0.00e+00	91	41	0	1173356544	52	6004
2026-01-25 13:48:47.39	160.94	17.84	-39.7	-40.6	23.1	0.00e+00	0	41	0	1175453696	52	6168
2026-01-25 13:48:48.39	161.06	17.73	-39.8	-40.7	23.0	0.00e+00	92	41	0	1177550848	52	6234
2026-01-25 13:48:49.41	161.17	17.63	-40.1	-41.0	22.7	0.00e+00	5	41	0	1179648000	52	6459
2026-01-25 13:48:50.42	161.28	17.52	-40.2	-41.2	22.7	0.00e+00	0	41	0	1181745152	52	6549
2026-01-25 13:48:51.42	161.39	17.42	-40.3	-41.3	22.6	0.00e+00	0	41	0	1182793728	52	6623
2026-01-25 13:48:52.44	161.50	17.31	-40.4	-41.4	22.4	0.00e+00	6	41	0	1184890880	52	6714
2026-01-25 13:48:53.44	161.61	17.21	-40.4	-41.5	22.3	0.00e+00	92	41	0	1186988032	52	6773
2026-01-25 13:48:54.45	161.72	17.10	-40.3	-41.4	22.5	0.00e+00	0	41	0	1189085184	52	6710
2026-01-25 13:48:55.46	161.83	17.00	-40.3	-41.3	22.5	0.00e+00	90	41	0	1191182336	52	6667
2026-01-25 13:48:56.47	161.94	16.90	-40.5	-41.5	22.3	0.00e+00	5	41	0	1193279488	52	6834
2026-01-25 13:48:57.48	162.05	16.79	-40.3	-41.3	22.5	0.00e+00	20	41	0	1194328064	52	6691
2026-01-25 13:48:58.49	162.15	16.69	-40.2	-41.2	22.5	0.00e+00	5	41	0	1196425216	52	6559
2026-01-25 13:48:59.50	162.26	16.59	-40.2	-41.2	22.6	0.00e+00	1	41	0	1198522368	52	6562
2026-01-25 13:49:00.51	162.36	16.49	-40.2	-41.2	22.5	0.00e+00	0	41	0	1200619520	52	6560
2026-01-25 13:49:01.52	162.47	16.39	-40.1	-41.1	22.7	0.00e+00	8	41	0	1201668096	52	6490
2026-01-25 13:49:02.53	162.57	16.28	-39.9	-40.9	22.8	0.00e+00	92	41	0	1203765248	52	6342
2026-01-25 13:49:03.54	162.67	16.18	-40.0	-41.0	22.7	0.00e+00	6	41	0	1205862400	52	6447
2026-01-25 13:49:04.54	162.77	16.08	-39.8	-40.8	22.9	0.00e+00	92	41	0	1207959552	52	6276
2026-01-25 13:49:05.55	162.88	15.98	-40.0	-41.0	22.7	0.00e+00	5	41	0	1210056704	52	6442
