passes_logs/2026/01/25/R4.6S_Anadyr/R4.6S_Anadyr__20260125_165801_AQUA_rec.log

#Pass ID: 20260125_165801_AQUA
#Satellite: AQUA
#Configuration: AQUA
#almurnet v.1.7.20251203
#Start time: 2026-01-25 16:58:02

#Version: 2.2.20231116
#Station: R4.6S_Anadyr
#Location: 177.4865 lon 64.73178 lat
#TLE: 1 27424U 02022A   26025.30011081  .00001897  00000+0  38942-3 0  9997
#TLE: 2 27424  98.4099 351.9015 0001901  65.9773  41.4489 14.61858120262390

#Time	Az	El	Level	Level2	SNR	BER	BlckErr	Temp	State	Recorded	gain1	gain2
2026-01-25 16:58:02.24	20.50	0.04	-51.2	-66.0	3.5	1.51e+00	0	39	0	0	60	72312
2026-01-25 16:58:03.25	20.49	0.10	-51.6	-69.4	3.5	3.02e+01	0	40	104	0	60	113559
2026-01-25 16:58:04.26	20.47	0.17	-51.6	-69.4	3.5	3.02e+01	0	40	104	0	60	113295
2026-01-25 16:58:05.27	20.46	0.23	-51.7	-69.4	3.5	3.02e+01	0	40	104	0	60	113924
2026-01-25 16:58:06.28	20.44	0.29	-51.7	-69.5	3.5	3.02e+01	0	40	104	0	60	114311
2026-01-25 16:58:07.29	20.43	0.35	-51.7	-69.5	3.5	3.02e+01	0	40	104	0	60	114682
2026-01-25 16:58:08.30	20.41	0.42	-51.7	-69.5	3.5	3.02e+01	0	40	104	0	60	115023
2026-01-25 16:58:09.31	20.40	0.48	-51.7	-69.5	3.5	3.02e+01	0	40	104	0	60	114929
2026-01-25 16:58:10.32	20.38	0.54	-51.7	-69.5	3.5	3.02e+01	0	40	104	0	60	115064
2026-01-25 16:58:11.33	20.37	0.60	-51.7	-69.5	3.5	3.02e+01	0	40	104	0	60	114999
2026-01-25 16:58:12.34	20.35	0.67	-51.6	-69.5	3.5	3.02e+01	0	40	104	0	60	114239
2026-01-25 16:58:13.35	20.34	0.73	-51.7	-69.5	3.5	3.02e+01	0	40	104	0	60	114279
2026-01-25 16:58:14.36	20.32	0.79	-51.7	-69.4	3.5	3.02e+01	0	40	104	0	60	114020
2026-01-25 16:58:15.37	20.31	0.86	-51.6	-69.4	3.5	3.02e+01	0	40	104	0	60	113758
2026-01-25 16:58:16.38	20.29	0.92	-51.5	-69.4	3.5	3.02e+01	0	40	104	0	60	113182
2026-01-25 16:58:17.39	20.28	0.98	-51.4	-69.3	3.4	3.02e+01	0	40	104	0	60	111739
2026-01-25 16:58:18.40	20.26	1.05	-51.4	-69.1	3.5	3.02e+01	0	40	104	0	60	110204
2026-01-25 16:58:19.41	20.24	1.11	-51.1	-69.0	3.5	3.02e+01	0	40	104	0	60	108772
2026-01-25 16:58:20.42	20.23	1.18	-50.8	-68.8	3.5	3.02e+01	0	40	104	0	60	106051
2026-01-25 16:58:21.43	20.21	1.24	-51.0	-68.8	3.5	3.02e+01	0	40	104	0	60	105693
2026-01-25 16:58:22.44	20.20	1.31	-50.9	-68.2	3.5	3.02e+01	0	40	104	0	60	99090
2026-01-25 16:58:23.45	20.18	1.37	-50.7	-68.0	3.5	3.02e+01	0	40	104	0	60	96158
2026-01-25 16:58:24.46	20.16	1.44	-48.0	-52.7	5.1	3.02e+01	0	40	104	0	60	16598
2026-01-25 16:58:25.47	20.15	1.50	-50.2	-66.8	3.6	3.02e+01	0	41	104	0	60	84676
2026-01-25 16:58:26.48	20.13	1.57	-50.2	-67.4	3.5	3.02e+01	0	41	104	0	60	89903
2026-01-25 16:58:27.49	20.11	1.63	-50.1	-66.3	3.6	3.02e+01	0	40	104	0	60	79624
2026-01-25 16:58:28.50	20.10	1.70	-50.1	-65.9	3.5	3.02e+01	0	41	104	0	60	75996
2026-01-25 16:58:29.51	20.08	1.76	-50.1	-65.9	3.5	3.02e+01	0	41	104	0	60	75964
2026-01-25 16:58:30.52	20.06	1.83	-50.1	-65.8	3.7	3.02e+01	0	41	104	0	60	74778
2026-01-25 16:58:31.53	20.05	1.89	-50.1	-65.6	3.5	3.02e+01	0	40	104	0	60	73733
2026-01-25 16:58:32.54	20.03	1.96	-50.1	-64.9	3.9	3.02e+01	0	40	104	0	60	67810
2026-01-25 16:58:33.55	20.01	2.03	-50.1	-65.8	3.5	3.02e+01	0	41	104	0	60	74737
2026-01-25 16:58:34.56	19.99	2.09	-50.1	-65.9	3.7	3.02e+01	0	41	104	0	60	75963
2026-01-25 16:58:35.57	19.98	2.16	-50.2	-66.8	3.5	3.02e+01	0	41	104	0	60	84152
2026-01-25 16:58:36.58	19.96	2.23	-50.2	-67.4	3.5	3.02e+01	0	41	104	0	60	90401
2026-01-25 16:58:37.59	19.94	2.29	-50.2	-67.7	3.5	3.02e+01	0	41	104	0	60	93298
2026-01-25 16:58:38.60	19.92	2.36	-50.2	-67.9	3.5	3.02e+01	0	41	104	0	60	95115
2026-01-25 16:58:39.61	19.91	2.43	-50.2	-67.9	3.5	3.02e+01	0	41	104	0	60	96091
2026-01-25 16:58:40.62	19.89	2.49	-50.2	-67.9	3.5	3.02e+01	0	41	104	0	60	95317
2026-01-25 16:58:41.63	19.87	2.56	-50.2	-67.6	3.5	3.02e+01	0	41	104	0	60	91941
2026-01-25 16:58:42.64	19.85	2.63	-50.2	-67.3	3.5	3.02e+01	0	41	104	0	60	88711
2026-01-25 16:58:43.65	19.83	2.70	-50.1	-66.5	3.5	3.02e+01	0	41	104	0	60	81103
2026-01-25 16:58:44.66	19.81	2.77	-50.0	-66.6	3.5	3.02e+01	0	41	104	0	60	81870
2026-01-25 16:58:45.67	19.80	2.84	-50.0	-66.1	3.5	3.02e+01	0	41	104	0	60	78090
2026-01-25 16:58:46.68	19.78	2.90	-50.0	-66.6	3.5	3.02e+01	0	41	104	0	60	81880
2026-01-25 16:58:47.69	19.76	2.97	-50.0	-67.1	3.5	3.02e+01	0	41	104	0	60	87043
2026-01-25 16:58:48.70	19.74	3.04	-50.1	-67.4	3.5	3.02e+01	0	41	104	0	60	89882
2026-01-25 16:58:49.71	19.72	3.11	-49.6	-66.1	3.5	3.02e+01	0	41	104	0	60	77861
2026-01-25 16:58:50.72	19.70	3.18	-48.1	-63.5	3.5	3.02e+01	0	41	104	0	60	57343
2026-01-25 16:58:51.73	19.68	3.25	-46.5	-61.3	3.5	3.02e+01	0	41	104	0	60	44627
2026-01-25 16:58:52.74	19.66	3.32	-45.2	-59.4	3.5	3.02e+01	0	41	104	0	60	35876
2026-01-25 16:58:53.75	19.64	3.39	-44.4	-58.2	3.5	3.02e+01	0	41	104	0	60	31386
2026-01-25 16:58:54.76	19.62	3.46	-43.5	-56.5	3.5	3.02e+01	0	41	104	0	60	25786
2026-01-25 16:58:55.77	19.60	3.53	-43.6	-56.1	3.5	3.02e+01	0	41	104	0	60	24619
2026-01-25 16:58:56.78	19.58	3.60	-43.9	-55.9	3.5	3.02e+01	0	41	104	0	60	23870
2026-01-25 16:58:57.79	19.56	3.67	-44.0	-55.5	3.5	3.02e+01	0	41	104	0	60	22902
2026-01-25 16:58:58.80	19.54	3.74	-44.3	-55.5	3.5	3.02e+01	0	41	104	0	60	23049
2026-01-25 16:58:59.81	19.52	3.81	-45.0	-56.2	3.5	3.02e+01	0	41	104	0	60	24840
2026-01-25 16:59:00.82	19.50	3.88	-47.9	-61.9	3.5	3.02e+01	0	41	104	0	60	47976
2026-01-25 16:59:01.83	19.48	3.96	-40.8	-51.3	3.5	3.02e+01	0	41	104	0	56	17743
2026-01-25 16:59:02.84	19.46	4.03	-50.0	-67.3	3.5	3.02e+01	0	41	104	0	60	89663
2026-01-25 16:59:03.85	19.44	4.10	-48.2	-61.2	3.5	3.02e+01	0	41	104	0	60	44127
2026-01-25 16:59:04.86	19.42	4.17	-47.6	-60.2	3.5	3.02e+01	0	41	104	0	60	39237
2026-01-25 16:59:05.86	19.40	4.24	-44.2	-55.2	3.5	3.02e+01	0	41	104	0	60	22084
2026-01-25 16:59:06.87	19.38	4.32	-44.4	-55.5	3.5	3.02e+01	0	41	104	0	60	22936
2026-01-25 16:59:07.88	19.35	4.39	-44.1	-55.1	3.6	3.02e+01	0	41	104	0	60	21814
2026-01-25 16:59:08.89	19.33	4.46	-42.5	-53.1	3.5	3.02e+01	0	41	104	0	60	17479
2026-01-25 16:59:09.90	19.31	4.53	-40.0	-50.4	3.5	3.02e+01	0	41	104	0	56	16012
2026-01-25 16:59:10.91	19.29	4.61	-50.0	-67.0	3.5	3.02e+01	0	41	104	0	60	85843
2026-01-25 16:59:11.92	19.27	4.68	-49.3	-63.4	3.5	3.02e+01	0	41	104	0	60	57112
2026-01-25 16:59:12.93	19.24	4.76	-47.8	-60.4	3.5	3.02e+01	0	41	104	0	60	40324
2026-01-25 16:59:13.94	19.22	4.83	-41.8	-52.3	3.5	3.02e+01	0	41	104	0	60	15891
2026-01-25 16:59:14.95	19.20	4.90	-41.5	-52.0	3.5	3.02e+01	0	41	104	0	58	17289
2026-01-25 16:59:15.96	19.18	4.98	-41.4	-51.9	3.5	3.02e+01	0	41	104	0	58	16984
2026-01-25 16:59:16.97	19.15	5.05	-43.2	-53.9	3.6	3.02e+01	0	41	104	0	58	21441
2026-01-25 16:59:17.98	19.13	5.13	-39.8	-50.1	3.5	3.02e+01	0	41	104	0	54	17329
2026-01-25 16:59:18.99	19.11	5.20	-50.3	-67.1	3.5	3.02e+01	0	41	104	0	60	86993
2026-01-25 16:59:20.00	19.08	5.28	-49.2	-63.1	3.5	3.02e+01	0	41	104	0	60	54885
2026-01-25 16:59:21.01	19.06	5.35	-49.7	-64.8	3.5	3.02e+01	0	41	104	0	60	66530
2026-01-25 16:59:22.02	19.04	5.43	-42.3	-52.9	3.5	3.02e+01	0	41	104	0	60	16900
2026-01-25 16:59:23.02	19.01	5.51	-41.5	-51.9	3.5	3.02e+01	0	41	104	0	58	17051
2026-01-25 16:59:24.04	18.99	5.58	-41.0	-51.4	3.6	3.02e+01	0	41	104	0	58	16024
2026-01-25 16:59:25.05	18.97	5.66	-42.1	-52.6	3.5	3.02e+01	0	41	104	0	58	18460
2026-01-25 16:59:26.06	18.94	5.74	-40.4	-50.8	3.5	3.02e+01	0	41	104	0	56	16753
2026-01-25 16:59:27.07	18.92	5.81	-50.4	-66.8	3.5	3.02e+01	0	41	104	0	60	84220
2026-01-25 16:59:28.08	18.89	5.89	-49.5	-64.3	3.5	3.02e+01	0	41	104	0	60	63342
2026-01-25 16:59:29.09	18.87	5.97	-49.8	-65.0	3.5	3.02e+01	0	41	104	0	60	68713
2026-01-25 16:59:30.10	18.84	6.05	-44.2	-55.0	3.5	3.02e+01	0	41	104	0	60	21710
2026-01-25 16:59:31.11	18.82	6.12	-44.8	-55.9	3.6	3.02e+01	0	41	104	0	60	23971
2026-01-25 16:59:32.12	18.79	6.20	-45.0	-56.1	3.5	3.02e+01	0	41	104	0	60	24565
2026-01-25 16:59:33.13	18.77	6.28	-50.6	-68.0	3.5	3.02e+01	0	41	104	0	60	96373
2026-01-25 16:59:34.14	18.74	6.36	-50.4	-67.0	3.5	3.02e+01	0	41	104	0	60	86603
2026-01-25 16:59:35.14	18.72	6.44	-49.9	-64.8	3.5	3.02e+01	0	41	104	0	60	67033
2026-01-25 16:59:36.15	18.69	6.52	-44.2	-55.1	3.5	3.02e+01	0	41	104	0	60	21855
2026-01-25 16:59:37.16	18.67	6.60	-50.6	-67.5	3.5	3.02e+01	0	41	104	0	60	91251
2026-01-25 16:59:38.17	18.64	6.68	-44.6	-55.6	3.5	3.02e+01	0	41	104	0	60	23216
2026-01-25 16:59:39.18	18.61	6.76	-43.8	-54.7	3.5	3.02e+01	0	41	104	0	60	20885
2026-01-25 16:59:40.19	18.59	6.84	-44.0	-54.9	3.5	3.02e+01	0	41	104	0	60	21371
2026-01-25 16:59:41.20	18.56	6.92	-49.9	-64.6	3.5	3.02e+01	0	41	104	0	60	65268
2026-01-25 16:59:42.21	18.53	7.00	-49.2	-62.9	3.5	3.02e+01	0	41	104	0	60	53996
2026-01-25 16:59:43.22	18.50	7.08	-50.2	-66.2	3.5	3.02e+01	0	41	104	0	60	78331
2026-01-25 16:59:44.23	18.48	7.16	-39.8	-50.2	3.5	3.02e+01	0	41	104	0	54	17503
2026-01-25 16:59:45.24	18.45	7.24	-50.6	-67.5	3.5	3.02e+01	0	41	104	0	60	91394
2026-01-25 16:59:46.24	18.42	7.33	-39.1	-49.4	3.5	3.02e+01	0	41	104	0	54	15993
2026-01-25 16:59:47.25	18.39	7.41	-39.4	-49.7	3.6	3.02e+01	0	41	104	0	54	16615
2026-01-25 16:59:48.26	18.37	7.49	-39.3	-49.5	3.5	3.02e+01	0	41	104	0	54	16300
2026-01-25 16:59:49.27	18.34	7.57	-46.5	-58.1	3.5	3.02e+01	0	41	104	0	60	30981
2026-01-25 16:59:50.28	18.31	7.66	-39.5	-49.8	3.5	3.02e+01	0	41	104	0	54	16768
2026-01-25 16:59:51.29	18.28	7.74	-50.6	-67.1	3.5	3.02e+01	0	41	104	0	60	87505
2026-01-25 16:59:52.30	18.25	7.83	-44.5	-55.4	3.5	3.02e+01	0	41	104	0	60	22765
2026-01-25 16:59:53.31	18.22	7.91	-45.6	-56.8	3.6	3.02e+01	0	41	104	0	60	26775
2026-01-25 16:59:54.32	18.19	7.99	-39.2	-49.5	3.5	3.02e+01	0	41	104	0	54	16200
2026-01-25 16:59:55.33	18.16	8.08	-39.3	-49.6	3.5	3.02e+01	0	41	104	0	54	16349
2026-01-25 16:59:56.33	18.13	8.16	-39.3	-49.6	3.5	3.02e+01	0	41	104	0	54	16360
2026-01-25 16:59:57.34	18.10	8.25	-41.0	-51.4	3.5	3.02e+01	0	41	104	0	56	17979
2026-01-25 16:59:58.35	18.07	8.33	-39.4	-49.7	3.5	3.02e+01	0	41	104	0	54	16546
2026-01-25 16:59:59.36	18.04	8.42	-50.7	-67.5	3.5	3.02e+01	0	41	104	0	60	91141
2026-01-25 17:00:00.37	18.01	8.51	-43.5	-54.3	3.5	3.02e+01	0	41	104	0	60	19933
2026-01-25 17:00:01.38	17.98	8.59	-47.4	-59.4	3.5	3.02e+01	0	41	104	0	60	36042
2026-01-25 17:00:02.39	17.95	8.68	-42.4	-53.0	3.5	3.02e+01	0	41	104	0	60	17111
2026-01-25 17:00:03.40	17.92	8.77	-42.0	-52.4	3.5	3.02e+01	0	41	104	0	58	18101
2026-01-25 17:00:04.40	17.89	8.86	-40.6	-50.9	3.5	3.02e+01	0	41	104	0	58	15161
2026-01-25 17:00:05.41	17.86	8.94	-41.4	-51.8	3.7	3.02e+01	0	41	104	0	54	21144
2026-01-25 17:00:06.42	17.82	9.03	-43.7	-54.4	3.5	3.02e+01	0	41	104	0	60	20110
2026-01-25 17:00:07.43	17.79	9.12	-48.5	-61.5	3.5	3.02e+01	0	41	104	0	60	45504
2026-01-25 17:00:08.44	17.76	9.21	-43.7	-54.5	3.5	3.02e+01	0	41	104	0	60	20416
2026-01-25 17:00:09.45	17.73	9.30	-50.9	-67.9	3.6	3.02e+01	0	41	104	0	60	95230
2026-01-25 17:00:10.46	17.69	9.39	-43.8	-54.7	3.6	3.02e+01	0	41	104	0	60	20855
2026-01-25 17:00:11.47	17.66	9.48	-44.4	-55.4	3.5	3.02e+01	0	41	104	0	60	22535
2026-01-25 17:00:12.48	17.63	9.57	-45.3	-56.5	3.5	3.02e+01	0	41	104	0	60	25612
2026-01-25 17:00:13.49	17.59	9.66	-49.5	-63.6	3.5	3.02e+01	0	41	104	0	60	58112
2026-01-25 17:00:14.50	17.56	9.75	-42.6	-53.2	3.5	3.02e+01	0	41	104	0	60	17657
2026-01-25 17:00:15.51	17.52	9.84	-42.7	-53.3	3.5	3.02e+01	0	41	104	0	60	17821
2026-01-25 17:00:16.52	17.49	9.94	-43.6	-54.3	3.5	3.02e+01	0	41	104	0	54	28056
2026-01-25 17:00:17.53	17.45	10.03	-47.0	-58.7	3.6	3.02e+01	0	41	104	0	60	33183
2026-01-25 17:00:18.54	17.42	10.12	-38.8	-49.1	3.6	3.02e+01	0	41	104	0	52	17408
2026-01-25 17:00:19.54	17.38	10.21	-39.0	-49.2	3.5	3.02e+01	0	41	104	0	52	17609
2026-01-25 17:00:20.55	17.35	10.31	-40.5	-50.8	3.5	3.02e+01	0	41	104	0	52	21152
2026-01-25 17:00:21.56	17.31	10.40	-42.8	-53.5	3.6	3.02e+01	0	41	104	0	60	18141
2026-01-25 17:00:22.58	17.28	10.49	-43.6	-54.2	3.5	3.02e+01	0	41	104	0	54	27748
2026-01-25 17:00:23.58	17.24	10.59	-48.2	-61.1	3.5	3.02e+01	0	41	104	0	60	43507
2026-01-25 17:00:24.59	17.20	10.68	-39.4	-49.6	3.5	3.02e+01	0	41	104	0	56	14670
2026-01-25 17:00:25.60	17.17	10.78	-44.5	-55.4	3.5	3.02e+01	0	41	104	0	60	22740
2026-01-25 17:00:26.61	17.13	10.87	-41.3	-51.8	3.5	3.02e+01	0	41	104	0	58	16826
2026-01-25 17:00:27.62	17.09	10.97	-40.1	-50.4	3.5	3.02e+01	0	41	104	0	56	16017
2026-01-25 17:00:28.63	17.05	11.07	-38.7	-48.9	3.5	3.02e+01	0	41	104	0	52	17050
2026-01-25 17:00:29.64	17.01	11.16	-38.6	-48.9	3.5	3.02e+01	0	41	104	0	52	16992
2026-01-25 17:00:30.65	16.98	11.26	-49.1	-62.4	3.5	3.02e+01	0	41	104	0	60	50854
2026-01-25 17:00:31.66	16.94	11.36	-48.5	-61.0	3.5	3.02e+01	0	41	104	0	60	43198
2026-01-25 17:00:32.67	16.90	11.46	-41.0	-51.4	3.5	3.02e+01	0	41	104	0	54	20295
2026-01-25 17:00:33.68	16.86	11.56	-42.8	-53.5	3.5	3.02e+01	0	41	104	0	60	18199
2026-01-25 17:00:34.69	16.82	11.66	-41.6	-52.1	3.5	3.02e+01	0	41	104	0	58	17349
2026-01-25 17:00:35.69	16.78	11.75	-42.0	-52.5	3.5	3.02e+01	0	41	104	0	58	18203
2026-01-25 17:00:36.70	16.74	11.85	-38.8	-49.0	3.5	3.02e+01	0	41	104	0	54	15383
2026-01-25 17:00:37.71	16.70	11.96	-47.0	-58.7	3.5	3.02e+01	0	41	104	0	60	32946
2026-01-25 17:00:38.72	16.66	12.06	-46.2	-57.6	3.5	3.02e+01	0	41	104	0	60	29057
2026-01-25 17:00:39.73	16.61	12.16	-43.0	-53.6	3.5	3.02e+01	0	41	104	0	60	18521
2026-01-25 17:00:40.74	16.57	12.26	-50.5	-65.4	3.5	3.02e+01	0	41	104	0	60	71751
2026-01-25 17:00:41.75	16.53	12.36	-43.2	-53.7	3.6	3.02e+01	0	41	104	0	60	18706
2026-01-25 17:00:42.76	16.49	12.46	-40.5	-50.9	3.5	3.02e+01	0	41	104	0	56	16963
2026-01-25 17:00:43.77	16.45	12.57	-39.5	-49.8	3.5	3.02e+01	0	41	104	0	54	16854
2026-01-25 17:00:44.78	16.40	12.67	-43.0	-53.5	3.6	3.02e+01	0	41	104	0	58	20465
2026-01-25 17:00:45.79	16.36	12.78	-39.5	-49.8	3.5	3.02e+01	0	41	104	0	54	16749
2026-01-25 17:00:46.80	16.31	12.88	-50.9	-68.1	3.5	3.02e+01	0	41	104	0	60	97649
2026-01-25 17:00:47.81	16.27	12.99	-49.5	-63.0	3.5	3.02e+01	0	41	104	0	60	54163
2026-01-25 17:00:48.82	16.23	13.09	-43.0	-53.6	3.5	3.02e+01	0	41	104	0	54	26092
2026-01-25 17:00:49.83	16.18	13.20	-40.3	-50.6	3.5	3.02e+01	0	41	104	0	56	16472
2026-01-25 17:00:50.84	16.14	13.30	-40.2	-50.4	3.5	3.02e+01	0	41	104	0	56	16128
2026-01-25 17:00:51.85	16.09	13.41	-40.1	-50.3	3.5	3.02e+01	0	41	104	0	54	17853
2026-01-25 17:00:52.86	16.04	13.52	-39.1	-49.4	3.5	3.02e+01	0	41	104	0	52	18013
2026-01-25 17:00:53.87	16.00	13.63	-38.9	-49.1	3.5	3.02e+01	0	41	104	0	52	17376
2026-01-25 17:00:54.88	15.95	13.73	-51.1	-67.6	3.5	3.02e+01	0	41	104	0	60	91900
2026-01-25 17:00:55.89	15.90	13.84	-50.0	-64.1	3.5	3.02e+01	0	41	104	0	60	61391
2026-01-25 17:00:56.90	15.85	13.95	-45.6	-56.7	3.5	3.02e+01	0	41	104	0	60	26238
2026-01-25 17:00:57.91	15.81	14.06	-41.5	-51.9	3.5	3.02e+01	0	41	104	0	58	17014
2026-01-25 17:00:58.92	15.76	14.17	-41.6	-52.1	3.5	3.02e+01	0	41	104	0	58	17318
2026-01-25 17:00:59.93	15.71	14.29	-40.5	-50.8	3.5	3.02e+01	0	41	104	0	56	16724
2026-01-25 17:01:00.94	15.66	14.40	-40.7	-51.1	3.5	3.02e+01	0	41	104	0	54	19434
2026-01-25 17:01:01.95	15.61	14.51	-50.2	-64.7	3.5	3.02e+01	0	41	104	0	60	66045
2026-01-25 17:01:02.96	15.56	14.62	-50.4	-65.1	3.5	3.02e+01	0	41	104	0	60	69313
2026-01-25 17:01:03.97	15.51	14.74	-41.4	-51.8	3.5	3.02e+01	0	41	104	0	58	16869
2026-01-25 17:01:04.98	15.46	14.85	-51.1	-67.7	3.5	3.02e+01	0	41	104	0	60	92872
2026-01-25 17:01:05.99	15.41	14.97	-40.8	-51.1	3.6	3.02e+01	0	41	104	0	56	17409
2026-01-25 17:01:07.00	15.35	15.08	-40.6	-51.0	3.5	3.02e+01	0	41	104	0	56	17128
2026-01-25 17:01:08.00	15.30	15.20	-40.4	-50.7	3.5	3.02e+01	0	41	104	0	56	16669
2026-01-25 17:01:09.01	15.25	15.31	-51.3	-68.3	3.5	3.02e+01	0	41	104	0	60	100542
2026-01-25 17:01:10.02	15.19	15.43	-38.8	-49.1	3.5	3.02e+01	0	41	104	0	52	17300
2026-01-25 17:01:11.02	15.14	15.54	-51.0	-67.1	3.5	3.02e+01	0	41	104	0	60	87201
2026-01-25 17:01:12.03	15.09	15.66	-49.9	-64.3	3.5	3.02e+01	0	41	104	0	60	63021
2026-01-25 17:01:13.04	15.03	15.78	-47.9	-60.0	3.5	3.02e+01	0	41	104	0	60	38448
2026-01-25 17:01:14.05	14.98	15.90	-39.2	-49.5	3.6	3.02e+01	0	41	104	0	54	16248
2026-01-25 17:01:15.06	14.92	16.02	-39.3	-49.5	3.6	3.02e+01	0	41	104	0	54	16282
2026-01-25 17:01:16.07	14.86	16.14	-38.6	-48.8	3.5	3.02e+01	0	41	104	0	52	16820
2026-01-25 17:01:17.08	14.81	16.26	-42.4	-52.9	3.5	3.02e+01	0	41	104	0	58	19172
2026-01-25 17:01:18.09	14.75	16.38	-38.6	-48.8	3.5	3.02e+01	0	41	104	0	52	16771
2026-01-25 17:01:19.10	14.69	16.51	-50.9	-67.3	3.5	3.02e+01	0	41	104	0	60	88750
2026-01-25 17:01:20.11	14.63	16.63	-50.1	-64.5	3.6	3.02e+01	0	41	104	0	60	64392
2026-01-25 17:01:21.11	14.57	16.75	-47.8	-59.9	3.5	3.02e+01	0	41	104	0	60	38132
2026-01-25 17:01:22.12	14.51	16.88	-41.4	-51.7	3.5	3.02e+01	0	41	104	0	58	16656
2026-01-25 17:01:23.13	14.45	17.00	-40.6	-50.9	3.5	3.02e+01	0	41	104	0	56	17091
2026-01-25 17:01:24.14	14.39	17.13	-39.6	-49.9	3.5	3.02e+01	0	41	104	0	54	17016
2026-01-25 17:01:25.15	14.33	17.26	-40.3	-50.6	3.5	3.02e+01	0	41	104	0	54	18494
2026-01-25 17:01:26.16	14.27	17.38	-38.4	-48.6	3.5	3.02e+01	0	41	104	0	52	16397
2026-01-25 17:01:27.17	14.21	17.51	-51.1	-67.6	3.5	3.02e+01	0	41	104	0	60	92596
2026-01-25 17:01:28.18	14.14	17.64	-48.5	-61.1	3.5	3.02e+01	0	41	104	0	60	43748
2026-01-25 17:01:29.19	14.08	17.77	-47.9	-59.9	3.5	3.02e+01	0	41	104	0	60	38153
2026-01-25 17:01:30.20	14.01	17.90	-41.6	-52.0	3.5	3.02e+01	0	41	104	0	58	17153
2026-01-25 17:01:31.21	13.95	18.03	-41.6	-52.0	3.5	3.02e+01	0	41	104	0	58	17219
2026-01-25 17:01:32.22	13.88	18.16	-42.2	-52.8	3.5	3.02e+01	0	41	104	0	58	18826
2026-01-25 17:01:33.23	13.82	18.29	-45.2	-56.1	3.5	3.02e+01	0	41	104	0	60	24502
2026-01-25 17:01:34.24	13.75	18.43	-50.1	-64.1	3.6	3.02e+01	0	41	104	0	60	61488
2026-01-25 17:01:35.24	13.68	18.56	-49.8	-63.6	3.5	3.02e+01	0	41	104	0	60	58170
2026-01-25 17:01:36.25	13.61	18.69	-40.1	-50.3	3.5	3.02e+01	0	41	104	0	56	15930
2026-01-25 17:01:37.26	13.55	18.83	-51.5	-68.9	3.5	3.02e+01	0	41	104	0	60	107484
2026-01-25 17:01:38.27	13.48	18.96	-40.5	-50.7	3.5	3.02e+01	0	41	104	0	56	16616
2026-01-25 17:01:39.28	13.41	19.10	-39.4	-49.6	3.5	3.02e+01	0	41	104	0	54	16433
2026-01-25 17:01:40.29	13.33	19.24	-38.6	-48.8	3.5	3.02e+01	0	41	104	0	52	16861
2026-01-25 17:01:41.30	13.26	19.38	-41.2	-51.5	3.5	3.02e+01	0	41	104	0	58	16238
2026-01-25 17:01:42.31	13.19	19.52	-37.9	-48.0	3.5	3.02e+01	0	41	104	0	50	17252
2026-01-25 17:01:43.32	13.12	19.66	-51.4	-68.8	3.5	3.02e+01	0	41	104	0	60	105512
2026-01-25 17:01:44.33	13.04	19.80	-45.5	-56.4	3.5	3.02e+01	0	41	104	0	60	25475
2026-01-25 17:01:45.34	12.97	19.94	-50.2	-64.4	3.5	3.02e+01	0	41	104	0	60	63960
2026-01-25 17:01:46.35	12.89	20.08	-44.9	-55.7	3.5	3.02e+01	0	41	104	0	60	23426
2026-01-25 17:01:47.36	12.82	20.22	-44.6	-55.4	3.5	3.02e+01	0	41	104	0	60	22556
2026-01-25 17:01:48.37	12.74	20.37	-44.0	-54.7	3.5	3.02e+01	0	41	104	0	60	20980
2026-01-25 17:01:49.38	12.66	20.51	-44.5	-55.3	3.5	3.02e+01	0	41	104	0	60	22410
2026-01-25 17:01:50.39	12.58	20.66	-46.4	-57.6	3.6	3.02e+01	0	41	104	0	60	29324
2026-01-25 17:01:51.39	12.50	20.81	-48.9	-61.7	3.5	3.02e+01	0	41	104	0	60	47014
2026-01-25 17:01:52.40	12.42	20.95	-43.5	-54.1	3.5	3.02e+01	0	41	104	0	60	19590
2026-01-25 17:01:53.41	12.34	21.10	-51.4	-68.7	3.5	3.02e+01	0	41	104	0	60	104806
2026-01-25 17:01:54.42	12.26	21.25	-46.6	-58.0	3.5	3.02e+01	0	41	104	0	60	30669
2026-01-25 17:01:55.43	12.18	21.40	-47.1	-58.8	3.5	3.02e+01	0	41	104	0	60	33444
2026-01-25 17:01:56.44	12.09	21.55	-46.7	-58.1	3.5	3.02e+01	0	41	104	0	60	30826
2026-01-25 17:01:57.45	12.01	21.70	-50.1	-64.3	3.5	3.02e+01	0	41	104	0	60	63163
2026-01-25 17:01:58.46	11.92	21.86	-43.7	-54.2	3.5	3.02e+01	0	41	104	0	60	19804
2026-01-25 17:01:59.47	11.83	22.01	-43.2	-53.7	3.6	3.02e+01	0	41	104	0	60	18731
2026-01-25 17:02:00.48	11.75	22.17	-43.3	-53.8	3.5	3.02e+01	0	41	104	0	54	26516
2026-01-25 17:02:01.49	11.66	22.32	-48.6	-60.8	3.5	3.02e+01	0	41	104	0	60	42342
2026-01-25 17:02:02.50	11.57	22.48	-38.5	-48.6	3.5	3.02e+01	0	41	104	0	52	16485
2026-01-25 17:02:03.50	11.48	22.64	-38.3	-48.5	3.5	3.02e+01	0	41	104	0	52	16257
2026-01-25 17:02:04.51	11.39	22.80	-40.7	-51.0	3.5	3.02e+01	0	41	104	0	52	21560
2026-01-25 17:02:05.52	11.29	22.96	-44.0	-54.7	3.6	3.02e+01	0	41	104	0	60	20919
2026-01-25 17:02:06.53	11.20	23.12	-42.9	-53.3	3.5	3.02e+01	0	41	104	0	52	28360
2026-01-25 17:02:07.54	11.11	23.28	-49.9	-63.3	3.6	3.02e+01	0	41	104	0	60	56182
2026-01-25 17:02:08.55	11.01	23.44	-39.6	-49.9	3.5	3.02e+01	0	41	104	0	56	15161
2026-01-25 17:02:09.56	10.91	23.60	-43.1	-53.7	3.6	3.02e+01	0	41	104	0	60	18542
2026-01-25 17:02:10.57	10.81	23.77	-40.0	-50.3	3.5	3.02e+01	0	41	104	0	54	17757
2026-01-25 17:02:11.58	10.72	23.94	-40.0	-50.2	3.6	3.02e+01	0	41	104	0	54	17578
2026-01-25 17:02:12.59	10.61	24.10	-41.9	-52.3	3.5	3.02e+01	0	41	104	0	54	22338
2026-01-25 17:02:13.60	10.51	24.27	-40.9	-51.2	3.5	3.02e+01	0	41	104	0	60	14045
2026-01-25 17:02:14.61	10.41	24.44	-44.6	-55.2	3.5	3.02e+01	0	41	104	0	54	31263
2026-01-25 17:02:15.61	10.31	24.61	-48.9	-61.7	3.5	3.02e+01	0	41	104	0	60	46592
2026-01-25 17:02:16.62	10.20	24.78	-40.4	-50.6	3.5	3.02e+01	0	41	104	0	54	18520
2026-01-25 17:02:17.63	10.10	24.95	-43.2	-53.8	3.5	3.02e+01	0	41	104	0	60	18934
2026-01-25 17:02:18.64	9.99	25.13	-42.0	-52.4	3.5	3.02e+01	0	41	104	0	58	18054
2026-01-25 17:02:19.65	9.88	25.30	-40.6	-50.9	3.5	3.02e+01	0	41	104	0	56	17016
2026-01-25 17:02:20.66	9.77	25.48	-40.6	-50.9	3.5	3.02e+01	0	41	104	0	54	19115
2026-01-25 17:02:21.67	9.66	25.66	-39.5	-49.7	3.6	3.02e+01	0	41	104	0	54	16697
2026-01-25 17:02:22.68	9.55	25.83	-50.8	-65.5	3.5	3.02e+01	0	41	104	0	60	72846
2026-01-25 17:02:23.69	9.43	26.01	-48.9	-62.0	3.5	3.02e+01	0	41	104	0	60	48239
2026-01-25 17:02:24.70	9.32	26.19	-41.2	-51.5	3.5	3.02e+01	0	41	104	0	54	20453
2026-01-25 17:02:25.70	9.20	26.37	-43.1	-53.6	3.5	3.02e+01	0	41	104	0	60	18402
2026-01-25 17:02:26.71	9.08	26.56	-41.0	-51.3	3.5	3.02e+01	0	41	104	0	58	15858
2026-01-25 17:02:27.72	8.96	26.74	-40.0	-50.4	3.5	3.02e+01	0	41	104	0	56	15963
2026-01-25 17:02:28.74	8.84	26.93	-41.4	-51.8	3.5	3.02e+01	0	41	104	0	54	21156
2026-01-25 17:02:29.74	8.72	27.11	-39.3	-49.6	3.5	3.02e+01	0	41	104	0	54	16423
2026-01-25 17:02:30.75	8.59	27.30	-51.4	-67.8	3.5	3.02e+01	0	41	104	0	60	94442
2026-01-25 17:02:31.76	8.46	27.49	-49.8	-63.4	3.5	3.02e+01	0	41	104	0	60	57057
2026-01-25 17:02:32.77	8.34	27.68	-44.7	-55.5	3.6	3.02e+01	0	41	104	0	58	25661
2026-01-25 17:02:33.78	8.21	27.87	-39.8	-50.1	3.4	3.02e+01	0	41	104	0	56	15434
2026-01-25 17:02:34.79	8.08	28.07	-39.1	-49.4	3.5	3.02e+01	0	41	104	0	54	15967
2026-01-25 17:02:35.80	7.94	28.26	-39.1	-49.4	3.5	3.02e+01	0	41	104	0	54	15987
2026-01-25 17:02:36.81	7.81	28.46	-44.0	-54.8	3.5	3.02e+01	0	41	104	0	60	21110
2026-01-25 17:02:37.82	7.67	28.65	-39.5	-49.7	3.5	3.02e+01	0	41	104	0	54	16671
2026-01-25 17:02:38.83	7.53	28.85	-51.6	-69.0	3.5	3.02e+01	0	41	104	0	60	108311
2026-01-25 17:02:39.84	7.39	29.05	-50.0	-63.9	3.5	3.02e+01	0	41	104	0	60	60167
2026-01-25 17:02:40.85	7.25	29.25	-45.0	-55.9	3.5	3.02e+01	0	41	104	0	58	27058
2026-01-25 17:02:41.86	7.11	29.46	-41.8	-52.1	3.5	3.02e+01	0	41	104	0	60	15471
2026-01-25 17:02:42.87	6.96	29.66	-40.6	-50.9	3.5	3.02e+01	0	41	104	0	56	16924
2026-01-25 17:02:43.87	6.82	29.86	-40.1	-50.4	3.5	3.02e+01	0	41	104	0	56	15966
2026-01-25 17:02:44.89	6.67	30.07	-40.3	-50.7	3.5	3.02e+01	0	41	104	0	54	18535
2026-01-25 17:02:45.90	6.51	30.28	-50.5	-65.0	3.5	3.02e+01	0	41	104	0	60	68117
2026-01-25 17:02:46.90	6.36	30.49	-50.4	-65.0	3.5	3.02e+01	0	41	104	0	60	68200
2026-01-25 17:02:47.91	6.21	30.70	-44.8	-55.7	3.5	3.02e+01	0	41	104	0	60	23540
2026-01-25 17:02:48.92	6.05	30.91	-51.3	-67.2	3.5	3.02e+01	0	41	104	0	60	88543
2026-01-25 17:02:49.93	5.89	31.12	-43.3	-53.8	3.5	3.02e+01	0	41	104	0	60	18779
2026-01-25 17:02:50.94	5.73	31.34	-43.6	-54.2	3.5	3.02e+01	0	41	104	0	60	19739
2026-01-25 17:02:51.95	5.56	31.55	-42.7	-53.2	3.5	3.02e+01	0	41	104	0	60	17691
2026-01-25 17:02:52.96	5.39	31.77	-51.4	-68.1	3.5	3.02e+01	0	41	104	0	60	97890
2026-01-25 17:02:53.97	5.22	31.99	-50.9	-66.2	3.5	3.02e+01	0	41	104	0	60	78206
2026-01-25 17:02:54.98	5.05	32.21	-51.3	-67.7	3.5	3.02e+01	0	41	104	0	60	93607
2026-01-25 17:02:55.99	4.88	32.43	-38.9	-49.1	3.5	3.02e+01	0	41	104	0	52	17356
2026-01-25 17:02:57.00	4.70	32.66	-51.5	-68.5	3.5	3.02e+01	0	41	104	0	60	101888
2026-01-25 17:02:58.01	4.52	32.88	-39.4	-49.6	3.5	3.02e+01	0	41	104	0	54	16427
2026-01-25 17:02:59.02	4.34	33.11	-38.6	-48.8	3.5	3.02e+01	0	41	104	0	52	16894
2026-01-25 17:03:00.03	4.15	33.34	-38.0	-48.1	3.5	3.02e+01	0	41	104	0	52	15446
2026-01-25 17:03:01.04	3.97	33.57	-48.5	-60.7	3.5	3.02e+01	0	41	104	0	60	41915
2026-01-25 17:03:02.04	3.78	33.79	-39.5	-49.7	3.5	3.02e+01	0	41	104	0	54	16672
2026-01-25 17:03:03.05	3.59	34.03	-51.5	-68.5	3.5	3.02e+01	0	41	104	0	60	102014
2026-01-25 17:03:04.06	3.39	34.26	-50.8	-65.8	3.5	3.02e+01	0	41	104	0	60	74820
2026-01-25 17:03:05.07	3.19	34.50	-49.3	-62.1	3.5	3.02e+01	0	41	104	0	60	49171
2026-01-25 17:03:06.08	2.99	34.73	-42.2	-52.7	3.5	3.02e+01	0	41	104	0	60	16520
2026-01-25 17:03:07.09	2.78	34.97	-42.0	-52.4	3.5	3.02e+01	0	41	104	0	58	18098
2026-01-25 17:03:08.10	2.57	35.21	-41.9	-52.4	3.5	3.02e+01	0	41	104	0	58	17958
2026-01-25 17:03:09.11	2.36	35.45	-39.4	-49.6	3.5	3.02e+01	0	41	104	0	54	16490
2026-01-25 17:03:10.12	2.15	35.70	-51.2	-67.9	3.5	3.02e+01	0	41	104	0	60	96054
2026-01-25 17:03:11.13	1.93	35.94	-50.8	-65.8	3.5	3.02e+01	0	41	104	0	60	74772
2026-01-25 17:03:12.14	1.71	36.19	-44.1	-54.8	3.5	3.02e+01	0	41	104	0	60	21047
2026-01-25 17:03:13.15	1.48	36.43	-51.4	-67.8	3.5	3.02e+01	0	41	104	0	60	93986
2026-01-25 17:03:14.16	1.25	36.68	-47.2	-58.8	3.5	3.02e+01	0	41	104	0	60	33591
2026-01-25 17:03:15.17	1.02	36.93	-47.2	-58.7	3.5	3.02e+01	0	41	104	0	60	33157
2026-01-25 17:03:16.18	0.78	37.19	-46.5	-57.7	3.6	3.02e+01	0	41	104	0	60	29657
2026-01-25 17:03:17.19	0.54	37.44	-51.7	-69.3	3.5	3.02e+01	0	41	104	0	60	112313
2026-01-25 17:03:18.20	0.30	37.70	-50.3	-64.4	3.5	3.02e+01	0	41	104	0	60	63815
2026-01-25 17:03:19.21	0.05	37.95	-51.5	-68.4	3.6	3.02e+01	0	41	104	0	60	101243
2026-01-25 17:03:20.22	359.80	38.21	-43.2	-53.8	3.5	3.02e+01	0	41	104	0	60	18838
2026-01-25 17:03:21.23	359.54	38.47	-51.7	-68.9	3.5	3.02e+01	0	41	104	0	60	107764
2026-01-25 17:03:22.24	359.28	38.73	-42.4	-52.8	3.5	3.02e+01	0	41	104	0	58	18862
2026-01-25 17:03:23.25	359.02	38.99	-42.1	-52.5	3.5	3.02e+01	0	41	104	0	58	18132
2026-01-25 17:03:24.25	358.75	39.25	-41.4	-51.8	3.5	3.02e+01	0	41	104	0	58	16851
2026-01-25 17:03:25.26	358.48	39.52	-47.9	-59.8	3.5	3.02e+01	0	41	104	0	60	37460
2026-01-25 17:03:26.27	358.20	39.79	-39.8	-50.1	3.5	3.02e+01	0	41	104	0	56	15529
2026-01-25 17:03:27.28	357.92	40.05	-51.6	-68.7	3.5	3.02e+01	0	41	104	0	60	104566
2026-01-25 17:03:28.29	357.63	40.32	-45.0	-55.9	3.6	3.02e+01	0	41	104	0	60	24112
2026-01-25 17:03:29.30	357.33	40.59	-49.2	-62.1	3.5	3.02e+01	0	41	104	0	60	48914
2026-01-25 17:03:30.31	357.04	40.87	-41.4	-51.7	3.5	3.02e+01	0	41	104	0	58	16651
2026-01-25 17:03:31.32	356.73	41.14	-40.8	-50.9	3.5	3.02e+01	0	41	104	0	56	17026
2026-01-25 17:03:32.33	356.42	41.41	-39.5	-49.7	3.5	3.02e+01	0	41	104	0	54	16581
2026-01-25 17:03:33.34	356.11	41.69	-43.0	-53.7	3.6	3.02e+01	0	41	104	0	60	18645
2026-01-25 17:03:34.35	355.79	41.97	-39.4	-49.7	3.6	3.02e+01	0	41	104	0	54	16552
2026-01-25 17:03:35.36	355.46	42.25	-51.6	-68.7	3.5	3.02e+01	0	41	104	0	60	104260
2026-01-25 17:03:36.37	355.13	42.52	-46.5	-57.9	3.5	3.02e+01	0	41	104	0	60	30078
2026-01-25 17:03:37.37	354.80	42.80	-51.2	-67.3	3.6	3.02e+01	0	41	104	0	60	89211
2026-01-25 17:03:38.38	354.45	43.08	-46.3	-57.4	3.5	3.02e+01	0	41	104	0	60	28515
2026-01-25 17:03:39.39	354.10	43.37	-46.3	-57.4	3.5	3.02e+01	0	41	104	0	60	28669
2026-01-25 17:03:40.41	353.74	43.65	-43.7	-54.2	3.5	3.02e+01	0	41	104	0	60	19811
2026-01-25 17:03:41.42	353.38	43.94	-43.9	-54.5	3.5	3.02e+01	0	41	104	0	60	20508
2026-01-25 17:03:42.43	353.01	44.22	-44.6	-55.4	3.5	3.02e+01	0	41	104	0	60	22698
2026-01-25 17:03:43.44	352.63	44.51	-47.6	-59.5	3.5	3.02e+01	0	41	104	0	60	36132
2026-01-25 17:03:44.45	352.25	44.80	-45.2	-56.2	3.5	3.02e+01	0	40	104	0	60	24727
2026-01-25 17:03:45.45	351.86	45.08	-51.2	-67.3	3.5	3.02e+01	0	41	104	0	60	89484
2026-01-25 17:03:46.46	351.47	45.37	-44.5	-55.4	3.5	3.02e+01	0	41	104	0	60	22615
2026-01-25 17:03:47.47	351.06	45.66	-43.1	-53.8	3.5	3.02e+01	0	41	104	0	60	18828
2026-01-25 17:03:48.48	350.65	45.95	-49.6	-62.7	3.5	3.02e+01	0	41	104	0	60	52373
2026-01-25 17:03:49.49	350.23	46.24	-51.7	-69.4	3.5	3.02e+01	0	41	104	0	60	113590
2026-01-25 17:03:50.50	349.80	46.53	-44.4	-55.2	3.5	3.02e+01	0	41	104	0	60	22193
2026-01-25 17:03:51.51	349.36	46.82	-43.8	-54.5	3.6	3.02e+01	0	41	104	0	60	20352
2026-01-25 17:03:52.52	348.91	47.11	-44.0	-54.6	3.5	3.02e+01	0	41	104	0	54	29079
2026-01-25 17:03:53.53	348.46	47.40	-50.7	-65.3	3.5	3.02e+01	0	41	104	0	60	70743
2026-01-25 17:03:54.54	348.00	47.70	-40.3	-50.5	3.5	3.02e+01	0	41	104	0	56	16317
2026-01-25 17:03:55.55	347.53	47.99	-39.6	-49.8	3.5	3.02e+01	0	41	104	0	54	16838
2026-01-25 17:03:56.56	347.05	48.28	-41.4	-51.7	3.5	3.02e+01	0	41	104	0	54	20954
2026-01-25 17:03:57.57	346.55	48.57	-43.4	-53.9	3.5	3.02e+01	0	41	104	0	60	19018
2026-01-25 17:03:58.58	346.06	48.86	-44.4	-55.3	3.5	3.02e+01	0	40	104	0	54	31476
2026-01-25 17:03:59.58	345.55	49.15	-50.6	-65.2	3.5	3.02e+01	0	41	104	0	60	69796
2026-01-25 17:04:00.59	345.03	49.44	-39.9	-50.1	3.5	3.02e+01	0	41	104	0	56	15539
2026-01-25 17:04:01.60	344.50	49.73	-45.7	-56.8	3.6	3.02e+01	0	41	104	0	60	26607
2026-01-25 17:04:02.61	343.96	50.02	-42.4	-52.9	3.5	3.02e+01	0	41	104	0	60	16982
2026-01-25 17:04:03.62	343.41	50.31	-42.6	-53.1	3.5	3.02e+01	0	41	104	0	60	17408
2026-01-25 17:04:04.63	342.85	50.59	-41.0	-51.2	3.5	3.02e+01	0	41	104	0	54	19809
2026-01-25 17:04:05.64	342.28	50.88	-44.5	-55.3	3.5	3.02e+01	0	41	104	0	58	25037
2026-01-25 17:04:06.65	341.69	51.17	-47.1	-58.7	3.5	3.02e+01	0	41	104	0	60	33015
2026-01-25 17:04:07.66	341.10	51.45	-46.3	-57.5	3.5	3.02e+01	0	41	104	0	60	28862
2026-01-25 17:04:08.67	340.49	51.73	-50.9	-66.8	3.5	3.02e+01	0	41	104	0	60	84518
2026-01-25 17:04:09.68	339.88	52.01	-50.3	-64.8	3.5	3.02e+01	0	41	104	0	60	67216
2026-01-25 17:04:10.69	339.25	52.29	-46.9	-58.4	3.5	3.02e+01	0	41	104	0	60	31967
2026-01-25 17:04:11.69	338.61	52.56	-46.2	-57.4	3.5	3.02e+01	0	41	104	0	60	28690
2026-01-25 17:04:12.70	337.96	52.84	-51.2	-67.5	3.5	3.02e+01	0	41	104	0	60	91649
2026-01-25 17:04:13.71	337.29	53.11	-51.3	-68.2	3.5	3.02e+01	0	41	104	0	60	98819
2026-01-25 17:04:14.72	336.61	53.38	-45.1	-55.9	3.5	3.02e+01	0	41	104	0	60	24012
2026-01-25 17:04:15.73	335.92	53.65	-41.3	-51.6	3.5	3.02e+01	0	41	104	0	60	14690
2026-01-25 17:04:16.74	335.21	53.91	-51.6	-69.6	3.5	3.02e+01	0	41	104	0	60	115652
2026-01-25 17:04:17.75	334.50	54.17	-40.2	-50.5	3.5	3.02e+01	0	41	104	0	60	12884
2026-01-25 17:04:18.76	333.76	54.43	-41.7	-52.3	3.6	3.02e+01	0	41	104	0	58	17745
2026-01-25 17:04:19.77	333.02	54.68	-41.8	-52.2	3.5	3.02e+01	0	41	104	0	58	17582
2026-01-25 17:04:20.78	332.26	54.94	-48.6	-60.9	3.5	3.02e+01	0	41	104	0	60	42890
2026-01-25 17:04:21.79	331.49	55.18	-40.7	-51.0	3.5	3.02e+01	0	41	104	0	56	17265
2026-01-25 17:04:22.80	330.70	55.43	-51.3	-67.5	3.5	3.02e+01	0	41	104	0	60	91715
2026-01-25 17:04:23.81	329.90	55.66	-51.3	-68.4	3.5	3.02e+01	0	41	104	0	60	101648
2026-01-25 17:04:24.82	329.09	55.90	-43.9	-54.7	3.5	3.02e+01	0	41	104	0	56	26282
2026-01-25 17:04:25.83	328.26	56.13	-39.8	-50.0	3.6	3.02e+01	0	41	104	0	56	15269
2026-01-25 17:04:26.84	327.42	56.35	-40.4	-50.8	3.5	3.02e+01	0	41	104	0	54	18854
2026-01-25 17:04:27.85	326.57	56.57	-39.3	-49.4	3.5	3.02e+01	0	41	104	0	54	16127
2026-01-25 17:04:28.86	325.70	56.79	-47.9	-60.0	3.4	3.02e+01	0	41	104	0	60	38294
2026-01-25 17:04:29.86	324.83	56.99	-41.0	-51.3	5.2	3.02e+01	0	41	104	0	58	15940
2026-01-25 17:04:30.87	323.93	57.19	-51.2	-61.8	6.9	3.02e+01	91	41	104	0	60	47308
2026-01-25 17:04:31.88	323.02	57.39	-51.3	-62.6	3.8	3.02e+01	91	41	104	1048576	60	51914
2026-01-25 17:04:32.89	322.10	57.58	-48.5	-52.6	12.5	3.02e+01	44	41	104	1048576	60	16328
2026-01-25 17:04:33.90	321.17	57.77	-45.5	-47.6	21.2	3.02e+01	57	41	0	2621440	60	9262
2026-01-25 17:04:34.91	320.22	57.94	-45.9	-48.2	21.1	3.02e+01	60	41	0	4194304	60	9879
2026-01-25 17:04:35.92	319.26	58.11	-44.2	-46.0	22.8	3.02e+01	46	41	0	6291456	60	7714
2026-01-25 17:04:36.93	318.29	58.28	-44.8	-46.8	22.2	3.02e+01	57	41	0	8388608	60	8422
2026-01-25 17:04:37.94	317.31	58.43	-44.5	-46.4	22.6	3.02e+01	60	41	0	9961472	60	8015
2026-01-25 17:04:38.95	316.31	58.58	-44.4	-46.3	22.6	3.02e+01	61	41	0	12058624	60	7980
2026-01-25 17:04:39.96	315.30	58.72	-43.8	-45.5	24.0	3.02e+01	57	41	0	13631488	60	7287
2026-01-25 17:04:40.97	314.29	58.86	-43.3	-45.0	23.9	3.02e+01	59	41	0	15728640	60	6813
2026-01-25 17:04:41.98	313.26	58.98	-43.5	-45.2	23.9	3.02e+01	62	41	0	17825792	60	7038
2026-01-25 17:04:42.99	312.22	59.10	-43.5	-45.3	24.0	3.02e+01	58	41	0	19398656	60	7050
2026-01-25 17:04:44.00	311.18	59.20	-43.6	-45.4	23.5	3.02e+01	47	41	0	21495808	60	7142
2026-01-25 17:04:45.00	310.13	59.30	-43.9	-45.7	23.5	3.02e+01	61	41	0	23068672	60	7382
2026-01-25 17:04:46.01	309.07	59.39	-43.7	-45.5	23.4	3.02e+01	59	41	0	25165824	60	7273
2026-01-25 17:04:47.02	308.00	59.48	-43.1	-44.8	24.1	3.02e+01	61	41	0	27262976	60	6717
2026-01-25 17:04:48.03	306.93	59.55	-42.5	-44.1	24.6	3.02e+01	58	41	0	28835840	60	6176
2026-01-25 17:04:49.04	305.85	59.61	-41.6	-43.1	25.8	3.02e+01	53	41	0	30932992	58	6175
2026-01-25 17:04:50.04	304.77	59.67	-41.1	-42.6	26.2	3.02e+01	60	41	0	32505856	56	6523
2026-01-25 17:04:51.05	303.68	59.71	-40.1	-41.4	27.4	3.02e+01	59	41	0	34603008	56	5716
2026-01-25 17:04:52.06	302.59	59.75	-39.2	-40.4	28.1	3.02e+01	44	41	0	36700160	54	5724
2026-01-25 17:04:53.07	301.49	59.77	-39.2	-40.5	28.0	3.02e+01	58	41	0	38273024	54	5751
2026-01-25 17:04:54.08	300.39	59.79	-39.5	-40.9	27.6	3.02e+01	59	41	0	40370176	54	6006
2026-01-25 17:04:55.09	299.30	59.80	-39.3	-40.7	28.0	3.02e+01	58	41	0	41943040	54	5860
2026-01-25 17:04:56.10	298.20	59.80	-39.5	-40.8	27.8	3.02e+01	59	41	0	44040192	54	5927
2026-01-25 17:04:57.11	297.10	59.79	-39.7	-41.0	27.6	3.02e+01	50	41	0	46137344	54	6074
2026-01-25 17:04:58.12	296.00	59.76	-39.3	-40.5	28.1	3.02e+01	57	41	0	47710208	54	5778
2026-01-25 17:04:59.13	294.90	59.73	-40.0	-41.4	27.3	3.02e+01	58	41	0	49807360	54	6381
2026-01-25 17:05:00.14	293.81	59.69	-39.5	-40.8	27.8	3.02e+01	58	41	0	51380224	54	5933
2026-01-25 17:05:01.15	292.72	59.65	-39.6	-40.9	27.6	3.02e+01	58	41	0	53477376	54	6009
2026-01-25 17:05:02.16	291.64	59.59	-40.6	-42.0	26.6	3.02e+01	46	41	0	55574528	54	6840
2026-01-25 17:05:03.17	290.56	59.52	-39.4	-40.7	27.8	3.02e+01	60	41	0	57147392	54	5880
2026-01-25 17:05:04.18	289.49	59.44	-40.0	-41.4	27.2	3.02e+01	59	41	0	59244544	54	6360
2026-01-25 17:05:05.19	288.42	59.36	-40.3	-41.6	26.8	3.02e+01	45	41	0	61341696	54	6568
2026-01-25 17:05:06.20	287.36	59.26	-40.2	-41.6	27.2	3.02e+01	61	41	0	62914560	54	6512
2026-01-25 17:05:07.20	286.32	59.16	-39.7	-41.0	27.5	3.02e+01	58	41	0	65011712	54	6128
2026-01-25 17:05:08.21	285.28	59.05	-40.9	-42.3	26.6	3.02e+01	59	41	0	66584576	54	7114
2026-01-25 17:05:09.22	284.24	58.93	-40.9	-42.3	26.2	3.02e+01	58	41	0	68681728	56	6348
2026-01-25 17:05:10.23	283.22	58.80	-40.1	-41.4	27.5	3.02e+01	44	41	0	70778880	56	5676
2026-01-25 17:05:11.24	282.21	58.66	-40.5	-41.9	26.7	3.02e+01	59	41	0	72351744	56	6002
2026-01-25 17:05:12.25	281.20	58.52	-40.2	-41.6	26.9	3.02e+01	51	41	0	74448896	56	5829
2026-01-25 17:05:13.26	280.21	58.37	-39.8	-41.1	27.5	3.02e+01	47	41	0	76546048	54	6152
2026-01-25 17:05:14.27	279.23	58.21	-39.5	-40.8	27.8	3.02e+01	60	41	0	78118912	54	5970
2026-01-25 17:05:15.28	278.27	58.04	-39.6	-41.0	27.6	3.02e+01	59	41	0	80216064	54	6082
2026-01-25 17:05:16.29	277.31	57.87	-39.4	-40.7	27.9	3.02e+01	61	41	0	81788928	54	5916
2026-01-25 17:05:17.30	276.37	57.69	-38.8	-40.1	28.4	3.02e+01	60	41	0	83886080	52	6158
2026-01-25 17:05:18.31	275.44	57.50	-39.0	-40.3	28.2	3.02e+01	55	41	0	85983232	52	6297
2026-01-25 17:05:19.32	274.52	57.31	-39.6	-40.9	27.7	3.02e+01	58	41	0	87556096	52	6760
2026-01-25 17:05:20.32	273.62	57.11	-39.6	-41.0	27.7	3.02e+01	59	41	0	89653248	52	6807
2026-01-25 17:05:21.33	272.73	56.90	-38.5	-39.8	28.8	3.02e+01	45	41	0	91226112	52	5940
2026-01-25 17:05:22.34	271.86	56.69	-38.5	-39.7	28.8	3.02e+01	56	41	0	93323264	52	5899
2026-01-25 17:05:23.35	270.99	56.48	-38.7	-40.0	28.7	3.02e+01	60	41	0	94896128	52	6099
2026-01-25 17:05:24.36	270.14	56.25	-38.4	-39.7	28.9	3.02e+01	59	41	0	96993280	52	5871
2026-01-25 17:05:25.37	269.31	56.03	-37.7	-38.9	29.3	3.02e+01	58	41	0	99090432	50	6040
2026-01-25 17:05:26.38	268.49	55.80	-38.0	-39.1	28.9	3.02e+01	49	41	0	100663296	50	6197
2026-01-25 17:05:27.39	267.68	55.56	-38.6	-39.9	28.4	3.02e+01	61	41	0	102760448	50	6739
2026-01-25 17:05:28.40	266.88	55.32	-38.2	-39.5	28.8	3.02e+01	58	41	0	104857600	50	6431
2026-01-25 17:05:29.41	266.10	55.07	-37.9	-39.1	29.2	3.02e+01	44	41	0	106430464	50	6164
2026-01-25 17:05:30.42	265.33	54.82	-38.0	-39.2	29.1	3.02e+01	58	41	0	108527616	50	6254
2026-01-25 17:05:31.42	264.59	54.57	-37.8	-39.0	29.2	3.02e+01	55	41	0	110100480	50	6118
2026-01-25 17:05:32.43	263.85	54.32	-37.4	-38.6	29.6	3.02e+01	61	41	0	112197632	50	5808
2026-01-25 17:05:33.45	263.11	54.05	-36.9	-38.1	30.0	3.02e+01	58	41	0	114294784	48	6180
2026-01-25 17:05:34.46	262.40	53.79	-37.1	-38.3	29.9	3.02e+01	56	41	0	115867648	48	6289
2026-01-25 17:05:35.47	261.70	53.53	-37.5	-38.8	29.3	3.02e+01	59	41	0	117964800	48	6665
2026-01-25 17:05:36.47	261.02	53.26	-37.9	-39.1	29.3	3.02e+01	58	41	0	119537664	48	6932
2026-01-25 17:05:37.48	260.34	52.99	-37.5	-38.7	29.5	3.02e+01	58	41	0	121634816	50	5887
2026-01-25 17:05:38.49	259.68	52.71	-37.7	-39.0	29.6	3.02e+01	59	41	0	123731968	50	6065
2026-01-25 17:05:39.50	259.03	52.44	-37.6	-38.8	29.5	3.02e+01	53	41	0	125304832	50	5944
2026-01-25 17:05:40.51	258.39	52.16	-38.1	-39.3	29.0	3.02e+01	60	41	0	127401984	50	6305
2026-01-25 17:05:41.52	257.77	51.88	-37.1	-38.3	30.0	3.02e+01	58	41	0	129499136	50	5597
2026-01-25 17:05:42.53	257.15	51.60	-37.1	-38.3	29.8	3.02e+01	47	41	0	131072000	50	5626
2026-01-25 17:05:43.54	256.55	51.32	-37.9	-39.2	29.0	3.02e+01	60	41	0	133169152	50	6231
2026-01-25 17:05:44.55	255.96	51.03	-37.3	-38.5	29.6	3.02e+01	60	41	0	134742016	50	5776
2026-01-25 17:05:45.56	255.38	50.74	-37.0	-38.2	29.9	3.02e+01	58	41	0	136839168	48	6248
2026-01-25 17:05:46.57	254.81	50.46	-37.2	-38.4	29.9	3.02e+01	59	41	0	138936320	48	6395
2026-01-25 17:05:47.58	254.25	50.17	-37.4	-38.6	29.8	3.02e+01	57	41	0	140509184	48	6521
2026-01-25 17:05:48.58	253.71	49.88	-37.4	-38.6	29.7	3.02e+01	59	41	0	142606336	48	6532
2026-01-25 17:05:49.60	253.17	49.59	-37.6	-38.8	29.4	3.02e+01	60	41	0	144179200	48	6668
2026-01-25 17:05:50.60	252.65	49.30	-37.5	-38.7	29.4	3.02e+01	45	41	0	146276352	48	6636
2026-01-25 17:05:51.61	252.13	49.01	-37.8	-39.0	29.4	3.02e+01	61	41	0	148373504	48	6832
2026-01-25 17:05:52.62	251.63	48.72	-38.1	-39.4	29.1	3.02e+01	56	41	0	149946368	50	6373
2026-01-25 17:05:53.63	251.13	48.43	-37.5	-38.7	29.7	3.02e+01	57	41	0	152043520	50	5900
2026-01-25 17:05:54.64	250.64	48.13	-37.4	-38.5	29.6	3.02e+01	57	41	0	153616384	50	5774
2026-01-25 17:05:55.65	250.17	47.84	-37.3	-38.5	29.7	3.02e+01	57	41	0	155713536	50	5755
2026-01-25 17:05:56.66	249.70	47.55	-37.1	-38.3	29.8	3.02e+01	55	41	0	157810688	50	5616
2026-01-25 17:05:57.67	249.24	47.26	-37.2	-38.4	29.9	3.02e+01	60	41	0	159383552	50	5673
2026-01-25 17:05:58.68	248.79	46.96	-37.6	-38.8	29.5	3.02e+01	45	41	0	161480704	50	5977
2026-01-25 17:05:59.69	248.34	46.67	-37.9	-39.1	29.2	3.02e+01	59	41	0	163053568	50	6197
2026-01-25 17:06:00.70	247.91	46.38	-37.4	-38.6	29.5	3.02e+01	56	41	0	165150720	50	5810
2026-01-25 17:06:01.71	247.48	46.09	-37.3	-38.5	29.7	3.02e+01	57	41	0	167247872	50	5768
2026-01-25 17:06:02.72	247.06	45.80	-37.4	-38.6	29.7	3.02e+01	59	41	0	168820736	50	5798
2026-01-25 17:06:03.72	246.66	45.51	-37.6	-38.8	29.6	3.02e+01	53	41	0	170917888	50	5932
2026-01-25 17:06:04.73	246.25	45.22	-37.6	-38.8	29.4	3.02e+01	56	41	0	173015040	50	5950
2026-01-25 17:06:05.74	245.86	44.93	-38.0	-39.2	29.2	3.02e+01	61	41	0	174587904	50	6230
2026-01-25 17:06:06.75	245.47	44.64	-37.7	-38.9	29.4	3.02e+01	49	41	0	176685056	50	6019
2026-01-25 17:06:07.76	245.09	44.35	-37.3	-38.5	29.8	3.02e+01	58	41	0	178257920	50	5731
2026-01-25 17:06:08.77	244.72	44.07	-37.5	-38.7	29.7	3.02e+01	52	41	0	180355072	50	5874
2026-01-25 17:06:09.78	244.35	43.78	-37.8	-39.0	29.3	3.02e+01	60	41	0	182452224	50	6131
2026-01-25 17:06:10.79	243.99	43.50	-38.5	-39.7	28.8	3.02e+01	59	41	0	184025088	50	6628
2026-01-25 17:06:11.79	243.64	43.21	-38.3	-39.6	28.6	3.02e+01	53	41	0	186122240	50	6530
2026-01-25 17:06:12.80	243.29	42.93	-38.1	-39.3	29.0	3.02e+01	61	41	0	187695104	50	6293
2026-01-25 17:06:13.81	242.95	42.65	-38.0	-39.2	29.2	3.02e+01	59	41	0	189792256	50	6243
2026-01-25 17:06:14.83	242.61	42.37	-38.4	-39.6	28.9	3.02e+01	62	41	0	191889408	50	6559
2026-01-25 17:06:15.83	242.28	42.09	-38.4	-39.7	28.7	3.02e+01	60	41	0	193462272	50	6581
2026-01-25 17:06:16.84	241.96	41.81	-38.4	-39.6	28.8	3.02e+01	45	41	0	195559424	50	6513
2026-01-25 17:06:17.85	241.64	41.53	-38.6	-39.8	28.7	3.02e+01	61	41	0	197132288	50	6715
2026-01-25 17:06:18.86	241.33	41.26	-39.1	-40.4	28.2	3.02e+01	60	41	0	199229440	52	6384
2026-01-25 17:06:19.87	241.02	40.98	-38.9	-40.2	28.2	3.02e+01	45	41	0	201326592	52	6221
2026-01-25 17:06:20.88	240.72	40.71	-38.7	-39.9	28.5	3.02e+01	57	41	0	202899456	52	6062
2026-01-25 17:06:21.89	240.42	40.44	-39.3	-40.6	28.0	3.02e+01	59	41	0	204996608	52	6522
2026-01-25 17:06:22.90	240.13	40.16	-39.7	-41.0	27.5	3.02e+01	57	41	0	206569472	52	6851
2026-01-25 17:06:23.91	239.84	39.89	-39.8	-41.1	27.5	3.02e+01	59	41	0	208666624	52	6889
2026-01-25 17:06:24.92	239.56	39.63	-39.6	-40.9	27.7	3.02e+01	60	41	0	210763776	52	6795
2026-01-25 17:06:25.93	239.28	39.36	-40.1	-41.5	27.2	3.02e+01	58	41	0	212336640	54	6441
2026-01-25 17:06:26.93	239.01	39.10	-40.3	-41.7	26.9	3.02e+01	59	41	0	214433792	54	6614
2026-01-25 17:06:27.94	238.74	38.83	-40.3	-41.6	27.0	3.02e+01	46	41	0	216006656	54	6569
2026-01-25 17:06:28.95	238.48	38.57	-39.9	-41.2	27.3	3.02e+01	58	41	0	218103808	54	6272
2026-01-25 17:06:29.96	238.22	38.31	-39.6	-40.8	27.8	3.02e+01	59	41	0	220200960	54	5967
2026-01-25 17:06:30.97	237.97	38.05	-39.6	-40.9	27.7	3.02e+01	62	40	0	221773824	54	6020
2026-01-25 17:06:31.98	237.71	37.79	-39.9	-41.2	27.4	3.02e+01	56	41	0	223870976	54	6215
2026-01-25 17:06:32.99	237.47	37.53	-40.1	-41.4	27.1	3.02e+01	60	41	0	225968128	54	6405
2026-01-25 17:06:33.99	237.23	37.28	-40.4	-41.8	26.9	3.02e+01	60	40	0	227540992	54	6665
2026-01-25 17:06:35.00	236.99	37.03	-40.2	-41.6	27.0	3.02e+01	51	41	0	229638144	54	6524
2026-01-25 17:06:36.01	236.75	36.77	-39.4	-40.7	27.8	3.02e+01	47	41	0	231211008	54	5884
2026-01-25 17:06:37.02	236.52	36.52	-39.0	-40.2	28.3	3.02e+01	61	41	0	233308160	52	6236
2026-01-25 17:06:38.03	236.29	36.27	-38.8	-40.0	28.4	3.02e+01	58	41	0	235405312	52	6079
2026-01-25 17:06:39.04	236.07	36.03	-39.2	-40.5	28.0	3.02e+01	59	41	0	236978176	52	6443
2026-01-25 17:06:40.05	235.85	35.78	-39.6	-40.9	27.7	3.02e+01	60	41	0	239075328	52	6782
2026-01-25 17:06:41.06	235.63	35.54	-39.3	-40.6	27.9	3.02e+01	55	41	0	241172480	52	6509
2026-01-25 17:06:42.07	235.42	35.29	-39.2	-40.4	28.0	3.02e+01	58	41	0	242745344	52	6421
2026-01-25 17:06:43.08	235.21	35.05	-38.8	-40.1	28.4	3.02e+01	58	41	0	244842496	52	6167
2026-01-25 17:06:44.09	235.00	34.81	-38.8	-40.1	28.5	3.02e+01	55	41	0	246415360	52	6147
2026-01-25 17:06:45.10	234.79	34.57	-38.7	-40.0	28.5	3.02e+01	58	41	0	248512512	52	6080
2026-01-25 17:06:46.11	234.59	34.33	-38.9	-40.2	28.4	3.02e+01	55	41	0	250609664	52	6218
2026-01-25 17:06:47.12	234.39	34.10	-38.8	-40.0	28.4	3.02e+01	57	41	0	252182528	52	6125
2026-01-25 17:06:48.12	234.20	33.87	-38.8	-40.1	28.5	3.02e+01	59	41	0	254279680	52	6164
2026-01-25 17:06:49.13	234.01	33.63	-38.5	-39.7	28.7	3.02e+01	55	41	0	255852544	52	5896
2026-01-25 17:06:50.14	233.82	33.40	-38.6	-39.8	28.6	3.02e+01	61	41	0	257949696	52	5985
2026-01-25 17:06:51.15	233.63	33.17	-38.0	-39.2	29.1	3.02e+01	58	41	0	259522560	52	5561
2026-01-25 17:06:52.16	233.45	32.95	-38.0	-39.2	29.0	3.02e+01	59	41	0	261619712	50	6242
2026-01-25 17:06:53.17	233.26	32.72	-37.8	-39.0	29.3	3.02e+01	58	41	0	263716864	50	6098
2026-01-25 17:06:54.18	233.09	32.49	-37.6	-38.8	29.4	3.02e+01	39	41	0	265289728	50	5963
2026-01-25 17:06:55.19	232.91	32.27	-37.6	-38.8	29.4	3.02e+01	59	41	0	267386880	50	5963
2026-01-25 17:06:56.20	232.74	32.05	-37.7	-38.9	29.4	3.02e+01	57	41	0	269484032	50	6005
2026-01-25 17:06:57.21	232.56	31.83	-37.6	-38.8	29.4	3.02e+01	44	41	0	271056896	50	5992
2026-01-25 17:06:58.21	232.40	31.61	-37.6	-38.8	29.5	3.02e+01	58	41	0	273154048	50	5976
2026-01-25 17:06:59.22	232.23	31.39	-37.6	-38.8	29.4	3.02e+01	56	41	0	274726912	50	5956
2026-01-25 17:07:00.23	232.07	31.18	-37.6	-38.8	29.4	3.02e+01	60	41	0	276824064	50	5975
2026-01-25 17:07:01.24	231.90	30.96	-37.4	-38.6	29.6	3.02e+01	59	41	0	278921216	50	5814
2026-01-25 17:07:02.25	231.74	30.75	-37.2	-38.4	29.8	3.02e+01	45	41	0	280494080	50	5686
2026-01-25 17:07:03.26	231.59	30.54	-37.0	-38.1	30.0	3.02e+01	60	41	0	282591232	50	5523
2026-01-25 17:07:04.27	231.43	30.32	-37.2	-38.4	29.8	3.02e+01	59	41	0	284164096	50	5671
2026-01-25 17:07:05.28	231.28	30.12	-37.4	-38.6	29.7	3.02e+01	52	41	0	286261248	50	5798
2026-01-25 17:07:06.29	231.13	29.91	-37.4	-38.6	29.6	3.02e+01	62	41	0	288358400	50	5840
2026-01-25 17:07:07.30	230.98	29.70	-37.4	-38.6	29.7	3.02e+01	59	41	0	289931264	50	5798
2026-01-25 17:07:08.31	230.83	29.50	-37.5	-38.7	29.5	3.02e+01	57	41	0	292028416	50	5923
2026-01-25 17:07:09.32	230.68	29.29	-37.5	-38.7	29.5	3.02e+01	59	41	0	294125568	50	5919
2026-01-25 17:07:10.33	230.54	29.09	-37.4	-38.6	29.6	3.02e+01	59	41	0	295698432	50	5793
2026-01-25 17:07:11.34	230.40	28.89	-37.3	-38.4	29.7	3.02e+01	59	41	0	297795584	50	5725
2026-01-25 17:07:12.35	230.26	28.69	-37.2	-38.4	29.7	3.02e+01	61	41	0	299368448	50	5701
2026-01-25 17:07:13.36	230.12	28.49	-37.3	-38.5	29.7	3.02e+01	38	41	0	301465600	50	5755
2026-01-25 17:07:14.36	229.99	28.30	-37.4	-38.6	29.6	3.02e+01	60	41	0	303562752	50	5804
2026-01-25 17:07:15.37	229.85	28.10	-37.5	-38.7	29.5	3.02e+01	61	41	0	305135616	50	5910
2026-01-25 17:07:16.38	229.72	27.91	-37.6	-38.8	29.4	3.02e+01	58	41	0	307232768	50	5959
2026-01-25 17:07:17.39	229.59	27.71	-37.6	-38.8	29.4	3.02e+01	60	41	0	308805632	50	5949
2026-01-25 17:07:18.40	229.46	27.52	-37.6	-38.8	29.3	3.02e+01	56	41	0	310902784	50	5933
2026-01-25 17:07:19.41	229.33	27.33	-37.6	-38.8	29.4	3.02e+01	59	41	0	312999936	50	5931
2026-01-25 17:07:20.42	229.21	27.14	-37.5	-38.7	29.5	3.02e+01	60	41	0	314572800	50	5865
2026-01-25 17:07:21.43	229.08	26.95	-37.6	-38.8	29.4	3.02e+01	46	41	0	316669952	50	5959
2026-01-25 17:07:22.44	228.96	26.77	-37.4	-38.6	29.5	3.02e+01	58	41	0	318242816	50	5833
2026-01-25 17:07:23.45	228.84	26.58	-37.6	-38.8	29.4	3.02e+01	59	41	0	320339968	50	5936
2026-01-25 17:07:24.46	228.72	26.40	-37.6	-38.8	29.4	3.02e+01	58	41	0	322437120	50	5931
2026-01-25 17:07:25.47	228.60	26.21	-37.7	-38.9	29.3	3.02e+01	58	41	0	324009984	50	6019
2026-01-25 17:07:26.48	228.48	26.03	-37.9	-39.1	29.1	3.02e+01	50	41	0	326107136	50	6178
2026-01-25 17:07:27.49	228.37	25.85	-37.9	-39.1	29.1	3.02e+01	56	41	0	327680000	50	6153
2026-01-25 17:07:28.50	228.25	25.67	-38.1	-39.3	29.0	3.02e+01	59	41	0	329777152	50	6305
2026-01-25 17:07:29.51	228.14	25.49	-38.2	-39.5	28.8	3.02e+01	60	41	0	331874304	50	6426
2026-01-25 17:07:30.52	228.03	25.31	-38.3	-39.6	28.6	3.02e+01	58	41	0	333447168	50	6523
2026-01-25 17:07:31.53	227.92	25.14	-38.4	-39.6	28.7	3.02e+01	51	41	0	335544320	50	6537
2026-01-25 17:07:32.54	227.81	24.96	-38.1	-39.3	28.9	3.02e+01	59	41	0	337641472	50	6307
2026-01-25 17:07:33.55	227.70	24.79	-37.9	-39.2	29.0	3.02e+01	62	41	0	339214336	50	6209
2026-01-25 17:07:34.56	227.60	24.62	-38.0	-39.2	29.0	3.02e+01	52	41	0	341311488	50	6258
2026-01-25 17:07:35.57	227.49	24.45	-37.9	-39.2	29.0	3.02e+01	60	41	0	342884352	50	6211
2026-01-25 17:07:36.58	227.39	24.28	-37.9	-39.2	29.0	3.02e+01	60	41	0	344981504	50	6208
2026-01-25 17:07:37.59	227.28	24.11	-38.0	-39.2	29.0	3.02e+01	57	41	0	347078656	50	6231
2026-01-25 17:07:38.60	227.18	23.94	-38.0	-39.2	28.9	3.02e+01	57	41	0	348651520	50	6268
2026-01-25 17:07:39.61	227.08	23.77	-37.9	-39.2	29.0	3.02e+01	59	41	0	350748672	50	6213
2026-01-25 17:07:40.61	226.98	23.61	-38.1	-39.3	28.8	3.02e+01	60	41	0	352321536	50	6304
2026-01-25 17:07:41.62	226.89	23.44	-38.0	-39.3	28.9	3.02e+01	57	41	0	354418688	50	6282
2026-01-25 17:07:42.63	226.79	23.28	-38.1	-39.3	28.8	3.02e+01	47	41	0	356515840	50	6303
2026-01-25 17:07:43.64	226.69	23.11	-38.1	-39.3	28.9	3.02e+01	62	41	0	358088704	50	6317
2026-01-25 17:07:44.65	226.60	22.95	-38.0	-39.2	28.9	3.02e+01	58	41	0	360185856	50	6255
2026-01-25 17:07:45.66	226.50	22.79	-38.0	-39.3	28.9	3.02e+01	57	41	0	362283008	50	6287
2026-01-25 17:07:46.67	226.41	22.63	-38.0	-39.3	28.9	3.02e+01	60	41	0	363855872	50	6282
2026-01-25 17:07:47.68	226.32	22.47	-38.1	-39.3	28.8	3.02e+01	46	41	0	365953024	50	6305
2026-01-25 17:07:48.69	226.23	22.31	-38.0	-39.3	28.8	3.02e+01	58	41	0	367525888	50	6284
2026-01-25 17:07:49.70	226.14	22.16	-38.2	-39.5	28.7	3.02e+01	56	41	0	369623040	50	6435
2026-01-25 17:07:50.71	226.05	22.00	-38.2	-39.5	28.6	3.02e+01	48	41	0	371720192	50	6438
2026-01-25 17:07:51.72	225.96	21.85	-38.1	-39.4	28.7	3.02e+01	59	41	0	373293056	50	6362
2026-01-25 17:07:52.73	225.88	21.69	-38.2	-39.4	28.6	3.02e+01	62	41	0	375390208	50	6395
2026-01-25 17:07:53.74	225.79	21.54	-38.2	-39.5	28.7	3.02e+01	59	41	0	376963072	50	6434
2026-01-25 17:07:54.75	225.71	21.39	-38.2	-39.5	28.6	3.02e+01	60	41	0	379060224	50	6432
2026-01-25 17:07:55.75	225.62	21.24	-37.9	-39.1	29.0	3.02e+01	48	41	0	380633088	50	6158
2026-01-25 17:07:56.76	225.54	21.09	-38.0	-39.2	28.9	3.02e+01	58	41	0	382730240	50	6223
2026-01-25 17:07:57.78	225.46	20.94	-37.9	-39.1	29.0	3.02e+01	58	41	0	384827392	50	6164
2026-01-25 17:07:58.78	225.38	20.79	-37.9	-39.1	29.0	3.02e+01	60	41	0	386400256	50	6156
2026-01-25 17:07:59.79	225.29	20.64	-37.9	-39.1	29.0	3.02e+01	60	41	0	388497408	50	6179
2026-01-25 17:08:00.80	225.21	20.49	-38.0	-39.2	28.9	3.02e+01	61	41	0	390594560	50	6275
2026-01-25 17:08:01.81	225.14	20.35	-37.9	-39.2	29.0	3.02e+01	57	41	0	392167424	50	6225
2026-01-25 17:08:02.82	225.06	20.20	-38.0	-39.2	28.9	3.02e+01	60	41	0	394264576	50	6258
2026-01-25 17:08:03.83	224.98	20.06	-38.0	-39.2	29.0	3.02e+01	51	41	0	395837440	50	6246
2026-01-25 17:08:04.84	224.90	19.92	-38.1	-39.3	28.9	3.02e+01	60	41	0	397934592	50	6323
2026-01-25 17:08:05.85	224.83	19.77	-38.1	-39.3	28.9	3.02e+01	60	41	0	400031744	50	6312
2026-01-25 17:08:06.86	224.75	19.63	-38.0	-39.3	28.8	3.02e+01	58	41	0	401604608	50	6279
2026-01-25 17:08:07.87	224.68	19.49	-38.1	-39.3	28.8	3.02e+01	59	41	0	403701760	50	6326
2026-01-25 17:08:08.88	224.61	19.35	-38.0	-39.2	28.9	3.02e+01	45	41	0	405798912	50	6273
2026-01-25 17:08:09.89	224.53	19.21	-37.9	-39.1	28.9	3.02e+01	61	41	0	407371776	50	6189
2026-01-25 17:08:10.90	224.46	19.07	-38.0	-39.2	28.9	3.02e+01	57	41	0	409468928	50	6264
2026-01-25 17:08:11.91	224.39	18.94	-37.9	-39.2	28.9	3.02e+01	46	41	0	411041792	50	6208
2026-01-25 17:08:12.92	224.32	18.80	-38.0	-39.2	28.8	3.02e+01	59	41	0	413138944	50	6231
2026-01-25 17:08:13.93	224.25	18.66	-37.9	-39.1	28.9	3.02e+01	60	41	0	415236096	50	6183
2026-01-25 17:08:14.94	224.18	18.53	-37.9	-39.1	29.0	3.02e+01	57	41	0	416808960	50	6144
2026-01-25 17:08:15.95	224.11	18.39	-37.7	-39.0	29.1	3.02e+01	60	41	0	418906112	50	6065
2026-01-25 17:08:16.96	224.04	18.26	-37.8	-39.0	29.0	3.02e+01	45	41	0	420478976	50	6073
2026-01-25 17:08:17.97	223.98	18.13	-37.8	-39.0	29.1	3.02e+01	59	41	0	422576128	50	6105
2026-01-25 17:08:18.98	223.91	17.99	-38.1	-39.3	28.9	3.02e+01	57	41	0	424673280	50	6311
2026-01-25 17:08:19.98	223.84	17.86	-38.1	-39.3	28.8	3.02e+01	54	41	0	426246144	50	6324
2026-01-25 17:08:20.99	223.78	17.73	-37.9	-39.2	28.8	3.02e+01	59	41	0	428343296	50	6224
2026-01-25 17:08:22.00	223.71	17.60	-38.0	-39.2	28.8	3.02e+01	61	41	0	429916160	50	6273
2026-01-25 17:08:23.01	223.65	17.47	-38.1	-39.3	28.8	3.02e+01	60	41	0	432013312	50	6308
2026-01-25 17:08:24.02	223.59	17.34	-38.1	-39.3	28.7	3.02e+01	58	41	0	434110464	50	6315
2026-01-25 17:08:25.03	223.52	17.22	-38.0	-39.2	28.7	3.02e+01	49	41	0	435683328	50	6262
2026-01-25 17:08:26.04	223.46	17.09	-38.1	-39.3	28.6	3.02e+01	61	41	0	437780480	50	6347
2026-01-25 17:08:27.05	223.40	16.96	-37.9	-39.1	28.9	3.02e+01	61	41	0	439353344	50	6166
2026-01-25 17:08:28.06	223.34	16.84	-38.1	-39.3	28.7	3.02e+01	52	41	0	441450496	50	6318
2026-01-25 17:08:29.07	223.28	16.71	-37.9	-39.1	28.8	3.02e+01	57	41	0	443547648	50	6205
2026-01-25 17:08:30.08	223.22	16.59	-37.8	-39.0	29.0	3.02e+01	56	41	0	445120512	50	6082
2026-01-25 17:08:31.09	223.16	16.46	-37.8	-39.0	28.9	3.02e+01	58	41	0	447217664	50	6118
2026-01-25 17:08:32.10	223.10	16.34	-37.7	-38.9	29.1	3.02e+01	61	41	0	448790528	50	6064
2026-01-25 17:08:33.10	223.04	16.22	-37.9	-39.1	29.0	3.02e+01	51	41	0	450887680	50	6185
2026-01-25 17:08:34.11	222.98	16.10	-37.8	-39.0	29.0	3.02e+01	60	41	0	452984832	50	6082
2026-01-25 17:08:35.12	222.93	15.98	-37.8	-39.1	28.9	3.02e+01	59	41	0	454557696	50	6137
2026-01-25 17:08:36.13	222.87	15.86	-37.7	-38.9	29.1	3.02e+01	60	41	0	456654848	50	6023
2026-01-25 17:08:37.14	222.81	15.74	-37.8	-39.0	29.0	3.02e+01	61	41	0	458752000	50	6082
2026-01-25 17:08:38.15	222.76	15.62	-37.7	-38.9	29.0	3.02e+01	57	41	0	460324864	50	6060
2026-01-25 17:08:39.16	222.70	15.50	-37.7	-38.9	29.0	3.02e+01	56	41	0	462422016	50	6020
2026-01-25 17:08:40.17	222.65	15.38	-37.8	-39.0	29.1	3.02e+01	59	41	0	463994880	50	6079
2026-01-25 17:08:41.18	222.59	15.26	-37.8	-39.0	28.9	3.02e+01	52	41	0	466092032	50	6107
2026-01-25 17:08:42.19	222.54	15.14	-37.7	-38.9	29.1	3.02e+01	58	41	0	468189184	50	6039
2026-01-25 17:08:43.20	222.48	15.03	-37.9	-39.1	28.9	3.02e+01	58	41	0	469762048	50	6163
2026-01-25 17:08:44.21	222.43	14.91	-38.0	-39.2	28.8	3.02e+01	59	41	0	471859200	50	6235
2026-01-25 17:08:45.22	222.38	14.80	-38.1	-39.3	28.7	3.02e+01	59	41	0	473956352	50	6330
2026-01-25 17:08:46.23	222.33	14.68	-37.8	-39.1	29.0	3.02e+01	44	41	0	475529216	50	6139
2026-01-25 17:08:47.24	222.27	14.57	-38.0	-39.3	28.7	3.02e+01	59	41	0	477626368	50	6298
2026-01-25 17:08:48.25	222.22	14.45	-38.4	-39.6	28.5	3.02e+01	57	41	0	479199232	50	6564
2026-01-25 17:08:49.26	222.17	14.34	-38.1	-39.4	28.7	3.02e+01	45	41	0	481296384	50	6375
2026-01-25 17:08:50.27	222.12	14.23	-37.9	-39.2	28.8	3.02e+01	59	41	0	483393536	50	6214
2026-01-25 17:08:51.27	222.07	14.12	-37.7	-39.0	29.0	3.02e+01	60	41	0	484966400	50	6068
2026-01-25 17:08:52.28	222.02	14.01	-37.7	-39.0	29.0	3.02e+01	60	41	0	487063552	50	6070
2026-01-25 17:08:53.29	221.98	13.90	-37.7	-38.9	28.9	3.02e+01	57	41	0	488636416	50	6059
2026-01-25 17:08:54.30	221.93	13.79	-37.7	-38.9	29.0	3.02e+01	57	41	0	490733568	50	6061
2026-01-25 17:08:55.31	221.88	13.68	-37.9	-39.1	28.9	3.02e+01	58	41	0	492830720	50	6154
2026-01-25 17:08:56.32	221.83	13.57	-37.8	-39.0	29.0	3.02e+01	61	41	0	494403584	50	6085
2026-01-25 17:08:57.33	221.78	13.46	-37.8	-39.0	28.9	3.02e+01	46	41	0	496500736	50	6109
2026-01-25 17:08:58.34	221.74	13.35	-37.9	-39.1	28.8	3.02e+01	59	41	0	498073600	50	6152
2026-01-25 17:08:59.35	221.69	13.24	-37.9	-39.2	28.7	3.02e+01	59	41	0	500170752	50	6210
2026-01-25 17:09:00.36	221.64	13.14	-38.0	-39.2	28.7	3.02e+01	59	41	0	502267904	50	6273
2026-01-25 17:09:01.37	221.60	13.03	-38.0	-39.3	28.6	3.02e+01	56	41	0	503840768	50	6282
2026-01-25 17:09:02.38	221.55	12.92	-38.2	-39.5	28.4	3.02e+01	49	41	0	505937920	50	6447
2026-01-25 17:09:03.39	221.51	12.82	-38.1	-39.4	28.6	3.02e+01	58	41	0	507510784	50	6383
2026-01-25 17:09:04.40	221.46	12.71	-38.0	-39.2	28.7	3.02e+01	64	41	0	509607936	50	6242
2026-01-25 17:09:05.40	221.42	12.61	-38.1	-39.4	28.5	3.02e+01	45	41	0	511705088	50	6377
2026-01-25 17:09:06.42	221.37	12.50	-38.1	-39.4	28.5	3.02e+01	59	41	0	513277952	50	6363
2026-01-25 17:09:07.42	221.33	12.40	-38.4	-39.6	28.3	3.02e+01	58	41	0	515375104	50	6540
2026-01-25 17:09:08.44	221.29	12.30	-38.1	-39.4	28.5	3.02e+01	59	41	0	516947968	50	6391
2026-01-25 17:09:09.44	221.24	12.20	-38.1	-39.3	28.6	3.02e+01	61	41	0	519045120	50	6335
2026-01-25 17:09:10.45	221.20	12.09	-38.3	-39.6	28.3	3.02e+01	53	41	0	521142272	50	6527
2026-01-25 17:09:11.46	221.16	11.99	-38.2	-39.5	28.4	3.02e+01	54	41	0	522715136	50	6448
2026-01-25 17:09:12.47	221.12	11.89	-38.1	-39.4	28.4	3.02e+01	58	41	0	524812288	50	6374
2026-01-25 17:09:13.48	221.08	11.79	-38.2	-39.5	28.3	3.02e+01	56	41	0	526909440	50	6462
2026-01-25 17:09:14.49	221.03	11.69	-38.2	-39.4	28.4	3.02e+01	51	41	0	528482304	50	6389
2026-01-25 17:09:15.50	220.99	11.59	-38.4	-39.6	28.2	3.02e+01	50	41	0	530579456	50	6561
2026-01-25 17:09:16.50	220.95	11.49	-38.2	-39.4	28.4	3.02e+01	61	41	0	532152320	50	6390
2026-01-25 17:09:17.51	220.91	11.39	-38.0	-39.3	28.5	3.02e+01	61	41	0	534249472	50	6287
2026-01-25 17:09:18.52	220.87	11.29	-38.2	-39.4	28.5	3.02e+01	45	41	0	536346624	50	6386
2026-01-25 17:09:19.53	220.83	11.19	-38.1	-39.4	28.5	3.02e+01	61	41	0	537919488	50	6365
2026-01-25 17:09:20.54	220.79	11.10	-38.2	-39.5	28.4	3.02e+01	59	41	0	540016640	50	6447
2026-01-25 17:09:21.55	220.76	11.00	-38.4	-39.6	28.3	3.02e+01	59	41	0	541589504	50	6550
2026-01-25 17:09:22.56	220.72	10.90	-38.2	-39.4	28.4	3.02e+01	57	41	0	543686656	50	6418
2026-01-25 17:09:23.57	220.68	10.80	-38.2	-39.5	28.3	3.02e+01	49	41	0	545783808	50	6445
2026-01-25 17:09:24.58	220.64	10.71	-38.3	-39.5	28.3	3.02e+01	59	41	0	547356672	50	6491
2026-01-25 17:09:25.59	220.60	10.61	-38.2	-39.5	28.4	3.02e+01	58	41	0	549453824	50	6437
2026-01-25 17:09:26.60	220.56	10.52	-38.3	-39.5	28.4	3.02e+01	48	41	0	551026688	50	6483
2026-01-25 17:09:27.61	220.53	10.42	-38.4	-39.7	28.2	3.02e+01	60	41	0	553123840	50	6615
2026-01-25 17:09:28.62	220.49	10.33	-38.4	-39.6	28.2	3.02e+01	58	41	0	555220992	50	6569
2026-01-25 17:09:29.63	220.45	10.23	-38.7	-40.0	27.9	3.02e+01	61	41	0	556793856	50	6835
2026-01-25 17:09:30.64	220.42	10.14	-38.3	-39.6	28.2	3.02e+01	58	41	0	558891008	50	6520
2026-01-25 17:09:31.65	220.38	10.05	-38.6	-39.9	28.0	3.02e+01	50	41	0	560463872	50	6729
2026-01-25 17:09:32.65	220.34	9.95	-38.5	-39.7	28.1	3.02e+01	59	41	0	562561024	50	6646
2026-01-25 17:09:33.66	220.31	9.86	-39.1	-40.4	27.6	3.02e+01	59	41	0	564658176	52	6361
2026-01-25 17:09:34.67	220.27	9.77	-38.8	-40.1	27.7	3.02e+01	48	41	0	566231040	52	6190
2026-01-25 17:09:35.68	220.24	9.68	-39.0	-40.3	27.5	3.02e+01	59	41	0	568328192	52	6343
2026-01-25 17:09:36.69	220.20	9.59	-39.1	-40.4	27.5	3.02e+01	57	41	0	570425344	52	6416
2026-01-25 17:09:37.70	220.17	9.49	-38.8	-40.1	27.9	3.02e+01	60	41	0	571998208	52	6170
2026-01-25 17:09:38.71	220.13	9.40	-38.8	-40.1	27.7	3.02e+01	60	41	0	574095360	52	6198
2026-01-25 17:09:39.72	220.10	9.31	-39.0	-40.3	27.6	3.02e+01	44	41	0	575668224	52	6283
2026-01-25 17:09:40.73	220.07	9.22	-38.6	-39.9	27.8	3.02e+01	59	41	0	577765376	52	6042
2026-01-25 17:09:41.74	220.03	9.13	-38.8	-40.1	27.8	3.02e+01	59	41	0	579862528	52	6136
2026-01-25 17:09:42.74	220.00	9.04	-38.8	-40.1	27.7	3.02e+01	48	41	0	581435392	52	6157
2026-01-25 17:09:43.76	219.97	8.95	-38.7	-39.9	27.7	3.02e+01	57	41	0	583532544	52	6059
2026-01-25 17:09:44.76	219.93	8.87	-38.7	-39.9	27.8	3.02e+01	47	41	0	585105408	52	6062
2026-01-25 17:09:45.77	219.90	8.78	-38.7	-40.0	27.7	3.02e+01	62	41	0	587202560	52	6101
2026-01-25 17:09:46.79	219.87	8.69	-38.5	-39.8	27.9	3.02e+01	60	41	0	589299712	52	5971
2026-01-25 17:09:47.79	219.84	8.60	-38.7	-40.0	27.8	3.02e+01	51	41	0	590872576	52	6112
2026-01-25 17:09:48.80	219.80	8.51	-38.8	-40.1	27.7	3.02e+01	59	41	0	592969728	52	6156
2026-01-25 17:09:49.81	219.77	8.43	-38.8	-40.1	27.8	3.02e+01	61	41	0	595066880	52	6154
2026-01-25 17:09:50.82	219.74	8.34	-39.1	-40.4	27.3	3.02e+01	59	41	0	596639744	52	6398
2026-01-25 17:09:51.83	219.71	8.25	-39.0	-40.3	27.4	3.02e+01	58	41	0	598736896	52	6319
2026-01-25 17:09:52.84	219.68	8.17	-39.3	-40.6	27.1	3.02e+01	50	41	0	600309760	52	6530
2026-01-25 17:09:53.85	219.65	8.08	-38.7	-39.9	27.8	3.02e+01	57	41	0	602406912	52	6060
2026-01-25 17:09:54.85	219.62	8.00	-38.8	-40.0	27.6	3.02e+01	61	41	0	603979776	52	6126
2026-01-25 17:09:55.86	219.59	7.91	-39.2	-40.5	27.3	3.02e+01	37	41	0	606076928	52	6477
2026-01-25 17:09:56.87	219.56	7.83	-38.9	-40.2	27.5	3.02e+01	58	41	0	608174080	52	6267
2026-01-25 17:09:57.88	219.53	7.74	-39.1	-40.4	27.3	3.02e+01	60	41	0	609746944	52	6407
2026-01-25 17:09:58.89	219.50	7.66	-38.9	-40.2	27.5	3.02e+01	57	41	0	611844096	52	6264
2026-01-25 17:09:59.90	219.47	7.57	-39.1	-40.4	27.3	3.02e+01	57	41	0	613416960	52	6409
2026-01-25 17:10:00.91	219.44	7.49	-39.2	-40.5	27.4	3.02e+01	50	41	0	615514112	52	6476
