passes_logs/2026/01/25/R4.6S_Anadyr/R4.6S_Anadyr__20260125_201605_NOAA_20_JPSS-1_rec.log

#Pass ID: 20260125_201605_NOAA 20 (JPSS-1)
#Satellite: NOAA 20 (JPSS-1)
#Configuration: NOAA 20
#almurnet v.1.7.20251203
#Start time: 2026-01-25 20:16:07

#Version: 2.2.20231116
#Station: R4.6S_Anadyr
#Location: 177.4865 lon 64.73178 lat
#TLE: 1 43013U 17073A   26025.47986292  .00000161  00000+0  97249-4 0  9993
#TLE: 2 43013  98.7646 326.3091 0001052  24.2709 335.8516 14.19540188424225

#Time	Az	El	Level	Level2	SNR	BER	BlckErr	Temp	State	Recorded	gain1	gain2
2026-01-25 20:16:07.32	66.81	0.11	-50.4	-65.3	3.5	1.51e+00	0	39	0	0	60	66652
2026-01-25 20:16:08.32	66.74	0.16	-50.6	-65.9	3.6	1.51e+00	0	39	104	0	60	71272
2026-01-25 20:16:09.33	66.66	0.21	-50.6	-65.9	3.6	1.51e+00	0	39	104	0	60	71375
2026-01-25 20:16:10.34	66.59	0.26	-50.6	-65.9	3.6	1.51e+00	0	40	104	0	60	71526
2026-01-25 20:16:11.35	66.51	0.31	-50.7	-65.9	3.6	1.51e+00	0	40	104	0	60	71409
2026-01-25 20:16:12.36	66.44	0.36	-50.7	-65.9	3.6	1.51e+00	0	40	104	0	60	71656
2026-01-25 20:16:13.37	66.36	0.41	-50.7	-65.9	3.6	1.51e+00	0	40	104	0	60	71574
2026-01-25 20:16:14.38	66.29	0.46	-50.7	-65.9	3.6	1.51e+00	0	40	104	0	60	71388
2026-01-25 20:16:15.39	66.21	0.51	-50.7	-65.9	3.6	1.51e+00	0	40	104	0	60	70892
2026-01-25 20:16:16.39	66.14	0.56	-50.6	-65.8	3.6	1.51e+00	0	40	104	0	60	70870
2026-01-25 20:16:17.40	66.06	0.61	-50.7	-65.9	3.6	1.51e+00	0	40	104	0	60	71187
2026-01-25 20:16:18.41	65.98	0.66	-50.7	-65.9	3.6	1.51e+00	0	40	104	0	60	71517
2026-01-25 20:16:19.42	65.90	0.71	-50.6	-65.9	3.6	1.51e+00	0	40	104	0	60	70895
2026-01-25 20:16:20.43	65.83	0.76	-50.7	-65.9	3.6	1.51e+00	0	40	104	0	60	71082
2026-01-25 20:16:21.44	65.75	0.81	-50.5	-65.9	3.6	1.51e+00	0	40	104	0	60	71413
2026-01-25 20:16:22.45	65.67	0.86	-50.6	-65.9	3.6	1.51e+00	0	40	104	0	60	71024
2026-01-25 20:16:23.46	65.59	0.91	-50.6	-65.9	3.6	1.51e+00	0	40	104	0	60	70941
2026-01-25 20:16:24.47	65.51	0.96	-50.6	-65.8	3.6	1.51e+00	0	40	104	0	60	70629
2026-01-25 20:16:25.48	65.44	1.01	-50.6	-65.8	3.6	1.51e+00	0	40	104	0	60	70211
2026-01-25 20:16:26.49	65.36	1.06	-50.5	-65.7	3.6	1.51e+00	0	40	104	0	60	69719
2026-01-25 20:16:27.50	65.28	1.11	-50.3	-65.7	3.6	1.51e+00	0	40	104	0	60	69402
2026-01-25 20:16:28.51	65.20	1.16	-50.4	-65.6	3.6	1.51e+00	0	40	104	0	60	68940
2026-01-25 20:16:29.52	65.12	1.21	-50.3	-65.5	3.6	1.51e+00	0	40	104	0	60	67990
2026-01-25 20:16:30.53	65.04	1.26	-50.2	-65.4	3.6	1.51e+00	0	40	104	0	60	67085
2026-01-25 20:16:31.54	64.96	1.31	-49.8	-65.1	3.6	1.51e+00	0	40	104	0	60	64860
2026-01-25 20:16:32.55	64.88	1.36	-49.6	-64.8	3.6	1.51e+00	0	40	104	0	60	63132
2026-01-25 20:16:33.55	64.80	1.41	-49.2	-64.4	3.6	1.51e+00	0	40	104	0	60	59753
2026-01-25 20:16:34.56	64.72	1.46	-49.2	-64.4	3.6	1.51e+00	0	40	104	0	60	59721
2026-01-25 20:16:35.57	64.63	1.51	-49.2	-64.3	3.6	1.51e+00	0	40	104	0	60	59617
2026-01-25 20:16:36.58	64.55	1.57	-49.2	-64.4	3.6	1.51e+00	0	40	104	0	60	59748
2026-01-25 20:16:37.59	64.47	1.62	-49.2	-64.3	3.6	1.51e+00	0	40	104	0	60	59506
2026-01-25 20:16:38.60	64.39	1.67	-49.2	-64.3	3.6	1.51e+00	0	40	104	0	60	59276
2026-01-25 20:16:39.61	64.30	1.72	-49.2	-64.3	3.6	1.51e+00	0	40	104	0	60	59490
2026-01-25 20:16:40.62	64.22	1.77	-49.1	-64.3	3.6	1.51e+00	0	40	104	0	60	59357
2026-01-25 20:16:41.63	64.14	1.82	-49.2	-64.3	3.6	1.51e+00	0	40	104	0	60	59597
2026-01-25 20:16:42.64	64.05	1.87	-49.2	-64.3	3.6	1.51e+00	0	40	104	0	60	59511
2026-01-25 20:16:43.65	63.97	1.92	-49.2	-64.4	3.6	1.51e+00	0	40	104	0	60	59754
2026-01-25 20:16:44.66	63.89	1.97	-49.2	-64.3	3.6	1.51e+00	0	40	104	0	60	59422
2026-01-25 20:16:45.67	63.80	2.02	-49.2	-64.3	3.6	1.51e+00	0	40	104	0	60	59568
2026-01-25 20:16:46.68	63.72	2.07	-49.1	-64.3	3.6	1.51e+00	0	40	104	0	60	59064
2026-01-25 20:16:47.69	63.63	2.13	-49.2	-64.3	3.6	1.51e+00	0	40	104	0	60	58966
2026-01-25 20:16:48.70	63.55	2.18	-49.1	-64.1	3.6	1.51e+00	0	40	104	0	60	58232
2026-01-25 20:16:49.71	63.46	2.23	-49.1	-64.2	3.6	1.51e+00	0	40	104	0	60	58720
2026-01-25 20:16:50.72	63.37	2.28	-49.2	-64.2	3.6	1.51e+00	0	40	104	0	60	58816
2026-01-25 20:16:51.73	63.29	2.33	-49.2	-64.4	3.6	1.51e+00	0	40	104	0	60	59780
2026-01-25 20:16:52.74	63.20	2.38	-49.2	-64.3	3.6	1.51e+00	0	40	104	0	60	59433
2026-01-25 20:16:53.75	63.11	2.43	-49.1	-64.3	3.6	1.51e+00	0	40	104	0	60	59269
2026-01-25 20:16:54.75	63.03	2.48	-49.1	-64.3	3.6	1.51e+00	0	40	104	0	60	59354
2026-01-25 20:16:55.76	62.94	2.54	-49.2	-64.3	3.5	1.51e+00	0	40	104	0	60	59486
2026-01-25 20:16:56.77	62.85	2.59	-49.1	-64.2	3.6	1.51e+00	0	40	104	0	60	58758
2026-01-25 20:16:57.78	62.76	2.64	-49.1	-63.9	3.6	1.51e+00	0	40	104	0	60	56515
2026-01-25 20:16:58.79	62.68	2.69	-49.1	-63.8	3.6	1.51e+00	0	40	104	0	60	55791
2026-01-25 20:16:59.80	62.59	2.74	-49.1	-64.1	3.6	1.51e+00	0	40	104	0	60	57992
2026-01-25 20:17:00.81	62.50	2.79	-49.1	-64.0	3.6	1.51e+00	0	40	104	0	60	57052
2026-01-25 20:17:01.82	62.41	2.84	-49.0	-60.9	4.1	1.50e+00	0	40	104	0	60	40238
2026-01-25 20:17:02.83	62.32	2.90	-48.5	-55.8	6.6	6.27e-01	0	40	0	1048576	60	22172
2026-01-25 20:17:03.84	62.23	2.95	-47.6	-52.4	10.5	1.43e-02	0	40	0	2097152	60	15151
2026-01-25 20:17:04.85	62.14	3.00	-46.7	-50.3	13.1	5.28e-04	0	40	0	4194304	60	11888
2026-01-25 20:17:05.86	62.05	3.05	-48.6	-56.6	4.6	2.37e-04	0	40	0	6291456	60	24435
2026-01-25 20:17:06.87	61.96	3.10	-49.2	-63.1	3.6	1.19e+00	0	40	104	7340032	60	51387
2026-01-25 20:17:07.88	61.86	3.15	-44.9	-47.4	15.2	1.37e+00	68	40	104	7340032	60	8484
2026-01-25 20:17:08.89	61.77	3.21	-46.3	-49.6	13.5	0.00e+00	0	40	0	7340032	60	10945
2026-01-25 20:17:09.89	61.68	3.26	-49.0	-62.2	3.6	1.67e-05	0	40	104	9437184	60	46713
2026-01-25 20:17:10.90	61.59	3.31	-47.4	-52.4	5.5	1.46e+00	0	40	104	9437184	60	15076
2026-01-25 20:17:11.91	61.50	3.36	-47.1	-51.3	12.1	7.73e-04	0	40	0	9437184	60	13330
2026-01-25 20:17:12.92	61.40	3.41	-47.0	-51.1	12.2	3.51e-04	0	40	0	11534336	60	12959
2026-01-25 20:17:13.93	61.31	3.47	-47.0	-51.1	11.7	1.22e-04	0	40	0	12582912	60	12989
2026-01-25 20:17:14.94	61.21	3.52	-46.5	-49.9	13.3	2.62e-04	0	40	0	14680064	60	11318
2026-01-25 20:17:15.95	61.12	3.57	-46.2	-49.5	14.1	3.00e-06	0	40	0	16777216	60	10737
2026-01-25 20:17:16.96	61.03	3.62	-46.2	-49.4	14.0	4.50e-06	0	40	0	18874368	60	10703
2026-01-25 20:17:17.97	60.93	3.67	-45.9	-48.8	14.7	2.20e-06	0	40	0	20971520	60	9987
2026-01-25 20:17:18.98	60.84	3.73	-46.3	-49.6	14.5	1.50e-06	0	40	0	22020096	60	10883
2026-01-25 20:17:19.99	60.74	3.78	-46.0	-49.0	14.8	1.50e-06	0	40	0	24117248	60	10147
2026-01-25 20:17:20.99	60.64	3.83	-46.1	-49.2	14.4	0.00e+00	0	40	0	26214400	60	10399
2026-01-25 20:17:22.00	60.55	3.88	-46.5	-50.0	13.8	1.50e-06	0	40	0	28311552	60	11381
2026-01-25 20:17:23.01	60.45	3.93	-46.0	-49.0	14.5	1.14e-05	0	40	0	30408704	60	10228
2026-01-25 20:17:24.02	60.35	3.99	-45.8	-48.6	14.9	0.00e+00	0	40	0	31457280	60	9776
2026-01-25 20:17:25.03	60.26	4.04	-45.6	-48.3	15.4	0.00e+00	0	40	0	33554432	60	9358
2026-01-25 20:17:26.04	60.16	4.09	-45.2	-47.6	15.9	0.00e+00	0	40	0	35651584	60	8700
2026-01-25 20:17:27.05	60.06	4.14	-45.4	-48.0	15.6	0.00e+00	0	40	0	37748736	60	9053
2026-01-25 20:17:28.06	59.96	4.19	-44.7	-46.9	16.7	0.00e+00	0	40	0	39845888	60	8016
2026-01-25 20:17:29.07	59.86	4.25	-44.9	-47.2	16.3	0.00e+00	0	40	0	40894464	60	8242
2026-01-25 20:17:30.08	59.77	4.30	-45.3	-47.8	15.9	0.00e+00	0	40	0	42991616	60	8843
2026-01-25 20:17:31.09	59.67	4.35	-44.2	-46.1	17.8	0.00e+00	0	40	0	45088768	60	7325
2026-01-25 20:17:32.10	59.57	4.40	-44.2	-46.1	17.4	0.00e+00	0	40	0	47185920	60	7313
2026-01-25 20:17:33.11	59.47	4.46	-44.7	-46.9	16.7	0.00e+00	0	40	0	49283072	60	7978
2026-01-25 20:17:34.12	59.36	4.51	-44.4	-46.5	17.1	0.00e+00	0	40	0	50331648	60	7634
2026-01-25 20:17:35.13	59.26	4.56	-44.9	-47.2	16.2	0.00e+00	0	40	0	52428800	60	8307
2026-01-25 20:17:36.14	59.16	4.61	-45.0	-47.4	16.5	0.00e+00	0	40	0	54525952	60	8472
2026-01-25 20:17:37.14	59.06	4.66	-44.5	-46.6	17.2	0.00e+00	0	40	0	56623104	60	7698
2026-01-25 20:17:38.15	58.96	4.72	-44.5	-46.7	17.2	0.00e+00	0	40	0	58720256	60	7814
2026-01-25 20:17:39.16	58.86	4.77	-44.1	-46.1	17.8	0.00e+00	0	40	0	59768832	60	7268
2026-01-25 20:17:40.17	58.75	4.82	-44.1	-46.0	18.0	0.00e+00	0	40	0	61865984	60	7176
2026-01-25 20:17:41.18	58.65	4.87	-44.3	-46.3	17.4	0.00e+00	0	40	0	63963136	60	7504
2026-01-25 20:17:42.19	58.55	4.93	-44.5	-46.6	17.2	0.00e+00	0	40	0	66060288	60	7709
2026-01-25 20:17:43.20	58.44	4.98	-43.5	-45.2	18.6	0.00e+00	0	40	0	68157440	60	6588
2026-01-25 20:17:44.21	58.34	5.03	-44.0	-45.8	18.0	0.00e+00	0	40	0	69206016	60	7061
2026-01-25 20:17:45.22	58.23	5.08	-44.4	-46.3	17.7	0.00e+00	0	40	0	71303168	60	7504
2026-01-25 20:17:46.23	58.13	5.14	-44.0	-45.8	17.8	0.00e+00	0	40	0	73400320	60	7063
2026-01-25 20:17:47.23	58.02	5.19	-43.7	-45.4	18.4	0.00e+00	0	40	0	75497472	60	6735
2026-01-25 20:17:48.24	57.92	5.24	-43.9	-45.7	18.2	0.00e+00	0	40	0	77594624	60	6982
2026-01-25 20:17:49.25	57.81	5.29	-43.6	-45.3	18.6	0.00e+00	0	40	0	79691776	60	6634
2026-01-25 20:17:50.26	57.70	5.35	-43.5	-45.3	18.5	0.00e+00	0	40	0	80740352	60	6628
2026-01-25 20:17:51.27	57.60	5.40	-43.8	-45.6	18.2	0.00e+00	0	40	0	82837504	60	6909
2026-01-25 20:17:52.28	57.49	5.45	-43.7	-45.5	18.4	0.00e+00	0	40	0	84934656	60	6777
2026-01-25 20:17:53.29	57.38	5.51	-43.4	-45.0	18.8	0.00e+00	0	40	0	87031808	60	6438
2026-01-25 20:17:54.30	57.27	5.56	-43.9	-45.7	18.2	0.00e+00	0	40	0	89128960	60	6996
2026-01-25 20:17:55.31	57.16	5.61	-43.6	-45.2	18.6	0.00e+00	0	40	0	90177536	60	6605
2026-01-25 20:17:56.32	57.06	5.66	-43.7	-45.5	18.1	0.00e+00	0	40	0	92274688	60	6796
2026-01-25 20:17:57.33	56.95	5.72	-43.9	-45.6	18.3	0.00e+00	0	40	0	94371840	60	6892
2026-01-25 20:17:58.34	56.84	5.77	-43.7	-45.5	18.5	0.00e+00	0	40	0	96468992	60	6773
2026-01-25 20:17:59.35	56.73	5.82	-43.1	-44.7	19.0	0.00e+00	0	40	0	98566144	60	6205
2026-01-25 20:18:00.36	56.61	5.87	-43.4	-45.0	18.9	0.00e+00	0	40	0	99614720	60	6412
2026-01-25 20:18:01.37	56.50	5.93	-43.6	-45.3	18.8	0.00e+00	0	40	0	101711872	60	6679
2026-01-25 20:18:02.38	56.39	5.98	-43.4	-45.0	18.8	0.00e+00	0	40	0	103809024	60	6461
2026-01-25 20:18:03.39	56.28	6.03	-44.1	-46.0	18.0	0.00e+00	0	40	0	105906176	60	7229
2026-01-25 20:18:04.40	56.17	6.08	-43.3	-44.9	19.0	0.00e+00	0	40	0	108003328	60	6369
2026-01-25 20:18:05.41	56.05	6.14	-43.0	-44.6	19.4	0.00e+00	0	40	0	109051904	60	6127
2026-01-25 20:18:06.41	55.94	6.19	-43.0	-44.5	19.4	0.00e+00	0	40	0	111149056	60	6101
2026-01-25 20:18:07.42	55.83	6.24	-42.9	-44.4	19.5	0.00e+00	0	40	0	113246208	60	5965
2026-01-25 20:18:08.43	55.71	6.30	-42.9	-44.3	19.6	0.00e+00	0	40	0	115343360	60	5955
2026-01-25 20:18:09.44	55.60	6.35	-43.7	-45.5	18.4	0.00e+00	0	40	0	117440512	60	6775
2026-01-25 20:18:10.45	55.48	6.40	-43.2	-44.8	19.1	0.00e+00	0	40	0	118489088	60	6264
2026-01-25 20:18:11.46	55.37	6.45	-42.9	-44.4	19.6	0.00e+00	0	40	0	120586240	60	5981
2026-01-25 20:18:12.47	55.25	6.51	-43.0	-44.5	19.5	0.00e+00	0	40	0	122683392	60	6074
2026-01-25 20:18:13.48	55.14	6.56	-43.0	-44.5	19.4	0.00e+00	0	40	0	124780544	60	6103
2026-01-25 20:18:14.49	55.02	6.61	-43.3	-44.9	19.0	0.00e+00	0	40	0	126877696	60	6380
2026-01-25 20:18:15.50	54.90	6.66	-43.1	-44.6	19.4	0.00e+00	0	40	0	127926272	60	6170
2026-01-25 20:18:16.51	54.78	6.72	-42.9	-44.4	19.6	0.00e+00	0	40	0	130023424	60	6018
2026-01-25 20:18:17.53	54.67	6.77	-42.9	-44.4	19.5	0.00e+00	0	40	0	132120576	60	6016
2026-01-25 20:18:18.53	54.55	6.82	-43.0	-44.6	19.3	0.00e+00	0	40	0	134217728	60	6112
2026-01-25 20:18:19.54	54.43	6.87	-43.2	-44.7	19.3	0.00e+00	0	40	0	136314880	60	6207
2026-01-25 20:18:20.55	54.31	6.93	-43.1	-44.7	19.4	0.00e+00	0	40	0	137363456	60	6184
2026-01-25 20:18:21.56	54.19	6.98	-43.1	-44.6	19.4	0.00e+00	0	40	0	139460608	60	6132
2026-01-25 20:18:22.57	54.07	7.03	-43.2	-44.7	19.2	0.00e+00	0	40	0	141557760	60	6211
2026-01-25 20:18:23.58	53.95	7.09	-43.4	-45.0	19.0	0.00e+00	0	40	0	143654912	60	6458
2026-01-25 20:18:24.59	53.83	7.14	-43.2	-44.7	19.3	0.00e+00	0	40	0	145752064	60	6224
2026-01-25 20:18:25.60	53.71	7.19	-43.1	-44.7	19.3	0.00e+00	0	40	0	147849216	60	6199
2026-01-25 20:18:26.61	53.58	7.24	-43.0	-44.6	19.4	0.00e+00	0	40	0	148897792	60	6118
2026-01-25 20:18:27.62	53.46	7.30	-43.0	-44.5	19.5	0.00e+00	0	40	0	150994944	60	6035
2026-01-25 20:18:28.62	53.34	7.35	-43.1	-44.6	19.5	0.00e+00	0	40	0	153092096	60	6112
2026-01-25 20:18:29.64	53.22	7.40	-43.0	-44.5	19.5	0.00e+00	0	40	0	155189248	60	6084
2026-01-25 20:18:30.64	53.09	7.45	-43.1	-44.6	19.5	0.00e+00	0	40	0	157286400	60	6145
2026-01-25 20:18:31.65	52.97	7.51	-42.9	-44.4	19.6	0.00e+00	0	40	0	158334976	60	5966
2026-01-25 20:18:32.66	52.84	7.56	-42.9	-44.4	19.5	0.00e+00	0	40	0	160432128	60	6008
2026-01-25 20:18:33.67	52.72	7.61	-43.3	-44.8	19.0	0.00e+00	0	40	0	162529280	60	6303
2026-01-25 20:18:34.68	52.59	7.66	-43.4	-45.0	18.9	0.00e+00	0	40	0	164626432	60	6462
2026-01-25 20:18:35.69	52.47	7.71	-43.9	-45.7	18.5	0.00e+00	0	40	0	166723584	60	6929
2026-01-25 20:18:36.70	52.34	7.77	-42.8	-44.3	19.8	0.00e+00	0	40	0	167772160	60	5908
2026-01-25 20:18:37.71	52.21	7.82	-43.2	-44.8	19.3	0.00e+00	0	40	0	169869312	60	6254
2026-01-25 20:18:38.72	52.09	7.87	-43.5	-45.1	19.0	0.00e+00	0	40	0	171966464	60	6499
2026-01-25 20:18:39.73	51.96	7.92	-43.3	-44.9	19.2	0.00e+00	0	40	0	174063616	60	6342
2026-01-25 20:18:40.73	51.83	7.98	-43.0	-44.5	19.6	0.00e+00	0	40	0	176160768	60	6059
2026-01-25 20:18:41.74	51.70	8.03	-42.8	-44.2	19.9	0.00e+00	0	40	0	177209344	60	5874
2026-01-25 20:18:42.75	51.57	8.08	-42.8	-44.3	19.7	0.00e+00	0	40	0	179306496	58	6643
2026-01-25 20:18:43.76	51.44	8.13	-42.6	-44.0	20.1	0.00e+00	0	40	0	181403648	58	6415
2026-01-25 20:18:44.77	51.31	8.18	-42.5	-43.9	20.1	0.00e+00	0	40	0	183500800	58	6337
2026-01-25 20:18:45.78	51.18	8.24	-42.6	-44.0	19.8	0.00e+00	0	40	0	185597952	58	6444
2026-01-25 20:18:46.79	51.05	8.29	-42.5	-43.9	20.2	0.00e+00	0	40	0	186646528	58	6323
2026-01-25 20:18:47.80	50.92	8.34	-42.2	-43.5	20.4	0.00e+00	0	40	0	188743680	58	6096
2026-01-25 20:18:48.81	50.79	8.39	-42.8	-44.2	19.8	0.00e+00	0	40	0	190840832	58	6588
2026-01-25 20:18:49.82	50.65	8.44	-42.6	-44.0	20.2	0.00e+00	0	40	0	192937984	58	6401
2026-01-25 20:18:50.83	50.52	8.50	-42.6	-44.0	20.1	1.50e-06	0	40	0	195035136	58	6411
2026-01-25 20:18:51.84	50.39	8.55	-42.8	-44.2	19.9	0.00e+00	0	40	0	196083712	58	6556
2026-01-25 20:18:52.85	50.25	8.60	-42.5	-43.9	20.1	0.00e+00	0	40	0	198180864	58	6359
2026-01-25 20:18:53.86	50.12	8.65	-42.5	-43.9	20.1	0.00e+00	0	41	0	200278016	58	6318
2026-01-25 20:18:54.86	49.98	8.70	-42.5	-43.9	20.2	0.00e+00	0	40	0	202375168	58	6343
2026-01-25 20:18:55.87	49.85	8.76	-42.5	-43.8	20.2	0.00e+00	0	40	0	204472320	58	6295
2026-01-25 20:18:56.88	49.71	8.81	-42.7	-44.1	20.0	0.00e+00	0	40	0	205520896	58	6538
2026-01-25 20:18:57.89	49.57	8.86	-42.3	-43.6	20.4	0.00e+00	0	40	0	207618048	58	6145
2026-01-25 20:18:58.90	49.44	8.91	-42.0	-43.3	20.7	0.00e+00	0	40	0	209715200	58	5912
2026-01-25 20:18:59.91	49.30	8.96	-42.5	-43.8	20.3	2.20e-06	0	41	0	211812352	58	6263
2026-01-25 20:19:00.92	49.16	9.01	-42.3	-43.6	20.5	0.00e+00	0	40	0	213909504	58	6123
2026-01-25 20:19:01.93	49.02	9.06	-42.2	-43.5	20.6	7.00e-07	0	40	0	216006656	58	6053
2026-01-25 20:19:02.94	48.88	9.12	-42.1	-43.3	20.7	0.00e+00	0	40	0	217055232	58	5955
2026-01-25 20:19:03.95	48.74	9.17	-42.2	-43.5	20.7	0.00e+00	0	40	0	219152384	56	6822
2026-01-25 20:19:04.96	48.60	9.22	-42.1	-43.4	20.6	0.00e+00	0	40	0	221249536	56	6723
2026-01-25 20:19:05.97	48.46	9.27	-42.6	-44.0	20.2	0.00e+00	0	40	0	223346688	56	7176
2026-01-25 20:19:06.98	48.32	9.32	-42.3	-43.6	20.5	0.00e+00	0	40	0	225443840	56	6899
2026-01-25 20:19:07.99	48.18	9.37	-42.3	-43.6	20.5	0.00e+00	0	40	0	226492416	56	6916
2026-01-25 20:19:09.00	48.04	9.42	-42.4	-43.7	20.3	0.00e+00	0	40	0	228589568	56	6997
2026-01-25 20:19:10.01	47.90	9.47	-42.3	-43.6	20.5	0.00e+00	0	40	0	230686720	56	6858
2026-01-25 20:19:11.02	47.75	9.52	-42.4	-43.7	20.4	0.00e+00	0	40	0	232783872	56	6978
2026-01-25 20:19:12.03	47.61	9.57	-42.2	-43.4	20.6	0.00e+00	0	41	0	233832448	56	6759
2026-01-25 20:19:13.04	47.46	9.63	-42.1	-43.4	20.6	0.00e+00	0	40	0	235929600	56	6738
2026-01-25 20:19:14.05	47.32	9.68	-42.2	-43.5	20.6	0.00e+00	0	40	0	238026752	56	6789
2026-01-25 20:19:15.06	47.17	9.73	-42.3	-43.7	20.5	0.00e+00	0	41	0	240123904	56	6928
2026-01-25 20:19:16.06	47.03	9.78	-42.4	-43.7	20.4	0.00e+00	0	40	0	242221056	56	7007
2026-01-25 20:19:17.07	46.88	9.83	-42.3	-43.6	20.6	0.00e+00	0	40	0	244318208	56	6850
2026-01-25 20:19:18.08	46.74	9.88	-42.0	-43.2	20.9	0.00e+00	0	41	0	245366784	56	6554
2026-01-25 20:19:19.09	46.59	9.93	-42.3	-43.6	20.6	0.00e+00	0	41	0	247463936	56	6853
2026-01-25 20:19:20.10	46.44	9.98	-42.2	-43.4	20.7	0.00e+00	0	40	0	249561088	56	6743
2026-01-25 20:19:21.11	46.29	10.03	-42.0	-43.2	21.0	0.00e+00	0	40	0	251658240	56	6571
2026-01-25 20:19:22.12	46.15	10.08	-42.0	-43.2	20.9	0.00e+00	0	41	0	253755392	56	6559
2026-01-25 20:19:23.13	46.00	10.13	-41.9	-43.1	21.1	0.00e+00	0	41	0	254803968	56	6473
2026-01-25 20:19:24.14	45.85	10.18	-41.7	-42.9	21.2	0.00e+00	0	41	0	256901120	56	6371
2026-01-25 20:19:25.15	45.70	10.23	-42.0	-43.3	20.9	0.00e+00	0	41	0	258998272	56	6619
2026-01-25 20:19:26.16	45.54	10.28	-41.7	-42.9	21.2	0.00e+00	0	41	0	261095424	56	6360
2026-01-25 20:19:27.17	45.39	10.33	-41.9	-43.2	21.0	0.00e+00	0	41	0	263192576	56	6555
2026-01-25 20:19:28.17	45.24	10.37	-41.7	-42.9	21.3	0.00e+00	0	40	0	264241152	56	6321
2026-01-25 20:19:29.18	45.09	10.42	-41.5	-42.7	21.4	0.00e+00	0	41	0	266338304	56	6216
2026-01-25 20:19:30.19	44.94	10.47	-41.5	-42.6	21.5	0.00e+00	0	41	0	268435456	56	6165
2026-01-25 20:19:31.20	44.78	10.52	-41.4	-42.6	21.4	0.00e+00	0	41	0	270532608	56	6126
2026-01-25 20:19:32.21	44.63	10.57	-41.5	-42.6	21.4	0.00e+00	0	41	0	272629760	56	6165
2026-01-25 20:19:33.22	44.48	10.62	-41.2	-42.3	21.8	0.00e+00	0	41	0	273678336	56	5949
2026-01-25 20:19:34.23	44.32	10.67	-41.2	-42.4	21.7	0.00e+00	0	40	0	275775488	56	5966
2026-01-25 20:19:35.24	44.16	10.72	-41.1	-42.2	21.9	0.00e+00	0	41	0	277872640	56	5843
2026-01-25 20:19:36.25	44.01	10.77	-41.0	-42.1	22.0	0.00e+00	0	41	0	279969792	56	5775
2026-01-25 20:19:37.26	43.85	10.81	-40.9	-42.0	22.0	0.00e+00	0	41	0	282066944	56	5722
2026-01-25 20:19:38.26	43.70	10.86	-40.8	-41.9	22.2	7.00e-07	0	41	0	283115520	56	5660
2026-01-25 20:19:39.27	43.54	10.91	-41.0	-42.1	22.0	0.00e+00	0	41	0	285212672	56	5801
2026-01-25 20:19:40.28	43.38	10.96	-41.1	-42.3	21.8	0.00e+00	0	41	0	287309824	56	5899
2026-01-25 20:19:41.29	43.22	11.01	-40.9	-42.0	22.1	0.00e+00	0	41	0	289406976	56	5724
2026-01-25 20:19:42.30	43.06	11.05	-40.6	-41.6	22.3	0.00e+00	0	41	0	291504128	54	6152
2026-01-25 20:19:43.30	42.90	11.10	-40.7	-41.7	22.3	0.00e+00	0	40	0	292552704	54	6213
2026-01-25 20:19:44.31	42.74	11.15	-40.6	-41.6	22.3	0.00e+00	0	41	0	294649856	54	6136
2026-01-25 20:19:45.32	42.58	11.20	-40.6	-41.7	22.3	0.00e+00	0	41	0	296747008	54	6174
2026-01-25 20:19:46.33	42.42	11.24	-40.6	-41.6	22.3	0.00e+00	0	41	0	298844160	54	6171
2026-01-25 20:19:47.34	42.26	11.29	-40.7	-41.8	22.3	0.00e+00	0	41	0	300941312	54	6267
2026-01-25 20:19:48.35	42.10	11.34	-40.5	-41.5	22.4	0.00e+00	0	41	0	301989888	54	6068
2026-01-25 20:19:49.35	41.94	11.39	-40.6	-41.6	22.3	0.00e+00	0	41	0	304087040	54	6156
2026-01-25 20:19:50.36	41.77	11.43	-40.5	-41.5	22.4	0.00e+00	0	41	0	306184192	54	6043
2026-01-25 20:19:51.38	41.61	11.48	-40.5	-41.5	22.4	0.00e+00	0	41	0	308281344	54	6102
2026-01-25 20:19:52.39	41.44	11.53	-40.4	-41.4	22.6	0.00e+00	0	41	0	310378496	54	5989
2026-01-25 20:19:53.39	41.28	11.57	-40.3	-41.4	22.6	0.00e+00	0	40	0	312475648	54	5972
2026-01-25 20:19:54.40	41.11	11.62	-40.3	-41.3	22.7	0.00e+00	0	41	0	313524224	54	5929
2026-01-25 20:19:55.41	40.95	11.66	-40.4	-41.4	22.5	0.00e+00	0	40	0	315621376	54	6027
2026-01-25 20:19:56.42	40.78	11.71	-40.5	-41.5	22.5	0.00e+00	0	41	0	317718528	54	6065
2026-01-25 20:19:57.43	40.61	11.76	-40.3	-41.3	22.6	0.00e+00	0	41	0	319815680	54	5959
2026-01-25 20:19:58.44	40.45	11.80	-40.3	-41.3	22.6	0.00e+00	0	41	0	321912832	54	5942
2026-01-25 20:19:59.45	40.28	11.85	-40.2	-41.2	22.9	0.00e+00	0	40	0	322961408	54	5831
2026-01-25 20:20:00.46	40.11	11.89	-40.1	-41.1	22.9	0.00e+00	0	40	0	325058560	54	5788
2026-01-25 20:20:01.46	39.94	11.94	-40.4	-41.4	22.5	0.00e+00	0	41	0	327155712	54	5997
2026-01-25 20:20:02.47	39.77	11.98	-39.9	-40.9	23.0	0.00e+00	0	41	0	329252864	54	5663
2026-01-25 20:20:03.48	39.60	12.03	-39.9	-40.9	23.1	0.00e+00	0	41	0	331350016	54	5660
2026-01-25 20:20:04.49	39.43	12.07	-39.9	-40.9	23.0	0.00e+00	0	40	0	332398592	54	5643
2026-01-25 20:20:05.50	39.26	12.12	-40.0	-41.0	22.3	0.00e+00	0	41	0	334495744	54	5729
2026-01-25 20:20:06.51	39.09	12.16	-39.9	-40.9	22.9	0.00e+00	0	40	0	336592896	54	5633
2026-01-25 20:20:07.52	38.91	12.20	-39.7	-40.7	23.1	0.00e+00	0	41	0	338690048	52	6194
2026-01-25 20:20:08.53	38.74	12.25	-39.6	-40.5	23.4	0.00e+00	0	41	0	340787200	52	6052
2026-01-25 20:20:09.54	38.57	12.29	-39.8	-40.7	23.2	0.00e+00	0	40	0	341835776	52	6238
2026-01-25 20:20:10.55	38.39	12.34	-39.7	-40.7	23.2	0.00e+00	0	40	0	343932928	52	6181
2026-01-25 20:20:11.56	38.22	12.38	-39.7	-40.6	23.3	0.00e+00	0	40	0	346030080	52	6157
2026-01-25 20:20:12.57	38.04	12.42	-39.7	-40.6	23.4	0.00e+00	0	40	0	348127232	52	6151
2026-01-25 20:20:13.58	37.87	12.47	-39.8	-40.7	23.2	0.00e+00	0	41	0	350224384	52	6243
2026-01-25 20:20:14.59	37.69	12.51	-39.9	-40.9	23.1	0.00e+00	0	41	0	351272960	52	6320
2026-01-25 20:20:15.60	37.52	12.55	-39.9	-40.9	23.0	0.00e+00	0	41	0	353370112	52	6352
2026-01-25 20:20:16.61	37.34	12.59	-39.7	-40.7	23.3	0.00e+00	0	41	0	355467264	52	6189
2026-01-25 20:20:17.62	37.16	12.64	-40.0	-41.0	23.0	0.00e+00	0	41	0	357564416	52	6402
2026-01-25 20:20:18.63	36.98	12.68	-40.1	-41.1	22.9	0.00e+00	0	41	0	359661568	52	6508
2026-01-25 20:20:19.64	36.80	12.72	-40.1	-41.1	22.9	0.00e+00	0	40	0	360710144	52	6494
2026-01-25 20:20:20.65	36.62	12.76	-40.1	-41.1	22.8	0.00e+00	0	41	0	362807296	52	6518
2026-01-25 20:20:21.66	36.44	12.80	-40.4	-41.4	22.7	0.00e+00	0	41	0	364904448	52	6727
2026-01-25 20:20:22.67	36.26	12.84	-40.6	-41.7	22.4	0.00e+00	0	41	0	367001600	52	6944
2026-01-25 20:20:23.68	36.08	12.89	-40.5	-41.5	22.6	0.00e+00	0	40	0	369098752	54	6051
2026-01-25 20:20:24.69	35.90	12.93	-40.3	-41.3	22.7	0.00e+00	0	41	0	370147328	54	5934
2026-01-25 20:20:25.70	35.72	12.97	-40.4	-41.4	22.6	0.00e+00	0	41	0	372244480	54	6003
2026-01-25 20:20:26.71	35.54	13.01	-40.4	-41.4	22.6	0.00e+00	0	41	0	374341632	54	5978
2026-01-25 20:20:27.72	35.36	13.05	-40.5	-41.5	22.5	0.00e+00	0	41	0	376438784	54	6058
2026-01-25 20:20:28.73	35.17	13.09	-40.3	-41.3	22.7	0.00e+00	0	41	0	378535936	54	5910
2026-01-25 20:20:29.74	34.99	13.13	-40.4	-41.4	22.7	0.00e+00	0	41	0	380633088	54	5975
2026-01-25 20:20:30.74	34.81	13.17	-40.1	-41.1	22.9	0.00e+00	0	41	0	381681664	54	5783
2026-01-25 20:20:31.75	34.62	13.21	-40.2	-41.2	22.8	0.00e+00	0	41	0	383778816	54	5870
2026-01-25 20:20:32.76	34.44	13.25	-40.0	-40.9	23.0	0.00e+00	0	41	0	385875968	54	5687
2026-01-25 20:20:33.76	34.25	13.28	-40.0	-41.0	22.9	0.00e+00	0	41	0	387973120	54	5731
2026-01-25 20:20:34.77	34.07	13.32	-40.2	-41.1	22.9	0.00e+00	0	41	0	389021696	54	5809
2026-01-25 20:20:35.78	33.88	13.36	-40.1	-41.1	22.6	0.00e+00	0	41	0	391118848	54	5767
2026-01-25 20:20:36.79	33.69	13.40	-40.0	-41.0	23.0	0.00e+00	0	41	0	393216000	54	5713
2026-01-25 20:20:37.80	33.50	13.44	-40.0	-41.0	23.0	0.00e+00	0	41	0	395313152	54	5728
2026-01-25 20:20:38.81	33.32	13.47	-40.0	-40.9	23.1	0.00e+00	0	41	0	397410304	54	5680
2026-01-25 20:20:39.82	33.13	13.51	-40.0	-41.0	22.9	0.00e+00	0	41	0	398458880	54	5704
2026-01-25 20:20:40.83	32.94	13.55	-39.9	-40.9	23.2	0.00e+00	0	41	0	400556032	54	5638
2026-01-25 20:20:41.84	32.75	13.59	-40.0	-41.0	23.1	0.00e+00	0	41	0	402653184	54	5700
2026-01-25 20:20:42.85	32.56	13.62	-40.0	-40.9	23.0	0.00e+00	0	41	0	404750336	54	5695
2026-01-25 20:20:43.86	32.37	13.66	-40.0	-41.0	23.1	0.00e+00	0	41	0	406847488	54	5713
2026-01-25 20:20:44.86	32.18	13.69	-39.8	-40.7	23.2	0.00e+00	0	41	0	408944640	54	5564
2026-01-25 20:20:45.87	31.99	13.73	-40.0	-40.9	23.1	0.00e+00	0	41	0	409993216	54	5684
2026-01-25 20:20:46.88	31.79	13.77	-39.7	-40.6	23.4	0.00e+00	0	41	0	412090368	52	6159
2026-01-25 20:20:47.89	31.60	13.80	-39.8	-40.7	23.2	0.00e+00	0	41	0	414187520	52	6218
2026-01-25 20:20:48.90	31.41	13.84	-39.8	-40.8	23.0	0.00e+00	0	41	0	416284672	52	6269
2026-01-25 20:20:49.91	31.22	13.87	-39.9	-40.9	22.3	0.00e+00	0	41	0	418381824	52	6332
2026-01-25 20:20:50.92	31.02	13.91	-39.8	-40.7	23.1	0.00e+00	0	41	0	419430400	52	6225
2026-01-25 20:20:51.93	30.83	13.94	-39.8	-40.8	23.3	0.00e+00	0	41	0	421527552	52	6248
2026-01-25 20:20:52.94	30.63	13.97	-39.8	-40.8	23.2	0.00e+00	0	41	0	423624704	52	6252
2026-01-25 20:20:53.94	30.44	14.01	-39.8	-40.7	23.2	0.00e+00	0	40	0	425721856	52	6227
2026-01-25 20:20:54.95	30.24	14.04	-39.9	-40.8	23.2	0.00e+00	0	41	0	427819008	52	6289
2026-01-25 20:20:55.96	30.05	14.07	-39.8	-40.8	23.2	0.00e+00	0	41	0	428867584	52	6272
2026-01-25 20:20:56.97	29.85	14.11	-39.5	-40.4	23.5	0.00e+00	0	41	0	430964736	52	6031
2026-01-25 20:20:57.98	29.65	14.14	-39.8	-40.8	23.3	0.00e+00	0	41	0	433061888	52	6263
2026-01-25 20:20:58.99	29.46	14.17	-39.4	-40.2	23.6	0.00e+00	0	41	0	435159040	52	5893
2026-01-25 20:21:00.00	29.26	14.20	-39.4	-40.3	23.6	0.00e+00	0	41	0	437256192	52	5929
2026-01-25 20:21:01.01	29.06	14.23	-39.6	-40.5	23.4	0.00e+00	0	40	0	438304768	52	6076
2026-01-25 20:21:02.02	28.86	14.26	-39.6	-40.5	23.4	0.00e+00	0	41	0	440401920	52	6080
2026-01-25 20:21:03.03	28.66	14.30	-39.6	-40.6	23.4	0.00e+00	0	41	0	442499072	52	6119
2026-01-25 20:21:04.03	28.47	14.33	-39.5	-40.4	23.5	0.00e+00	0	41	0	444596224	52	5993
2026-01-25 20:21:05.04	28.27	14.36	-39.5	-40.4	23.5	0.00e+00	0	41	0	446693376	52	6028
2026-01-25 20:21:06.06	28.06	14.39	-39.6	-40.6	23.4	0.00e+00	0	41	0	447741952	52	6117
2026-01-25 20:21:07.06	27.87	14.42	-39.6	-40.5	23.5	0.00e+00	0	41	0	449839104	52	6065
2026-01-25 20:21:08.07	27.66	14.45	-39.6	-40.6	23.5	0.00e+00	0	41	0	451936256	52	6114
2026-01-25 20:21:09.08	27.46	14.47	-39.6	-40.5	23.4	0.00e+00	0	41	0	454033408	52	6095
2026-01-25 20:21:10.10	27.26	14.50	-39.7	-40.7	23.3	0.00e+00	0	41	0	456130560	52	6176
2026-01-25 20:21:11.11	27.06	14.53	-39.7	-40.6	23.3	0.00e+00	0	41	0	457179136	52	6170
2026-01-25 20:21:12.11	26.86	14.56	-39.5	-40.4	23.6	0.00e+00	0	41	0	459276288	52	5979
2026-01-25 20:21:13.13	26.65	14.59	-39.6	-40.5	23.5	0.00e+00	0	41	0	461373440	52	6090
2026-01-25 20:21:14.13	26.45	14.61	-39.6	-40.6	23.4	0.00e+00	0	41	0	463470592	52	6108
2026-01-25 20:21:15.15	26.24	14.64	-39.9	-40.8	23.2	0.00e+00	0	41	0	465567744	52	6278
2026-01-25 20:21:16.15	26.04	14.67	-40.0	-41.0	22.9	0.00e+00	0	41	0	466616320	52	6401
2026-01-25 20:21:17.16	25.84	14.70	-40.0	-41.0	23.2	0.00e+00	0	41	0	468713472	52	6424
2026-01-25 20:21:18.17	25.63	14.72	-39.8	-40.8	23.3	0.00e+00	0	41	0	470810624	52	6256
2026-01-25 20:21:19.18	25.43	14.75	-39.9	-40.8	23.2	0.00e+00	0	41	0	472907776	52	6315
2026-01-25 20:21:20.19	25.22	14.77	-40.0	-40.9	23.1	0.00e+00	0	41	0	475004928	52	6375
2026-01-25 20:21:21.20	25.01	14.80	-40.0	-41.0	23.0	0.00e+00	0	41	0	477102080	52	6438
2026-01-25 20:21:22.21	24.81	14.82	-40.0	-41.0	23.1	0.00e+00	0	41	0	478150656	52	6418
2026-01-25 20:21:23.22	24.60	14.85	-40.0	-40.9	23.1	0.00e+00	0	41	0	480247808	52	6355
2026-01-25 20:21:24.23	24.39	14.87	-40.0	-41.0	23.0	0.00e+00	0	41	0	482344960	52	6406
2026-01-25 20:21:25.24	24.19	14.89	-40.0	-41.0	23.0	0.00e+00	0	40	0	484442112	52	6420
2026-01-25 20:21:26.25	23.98	14.92	-40.1	-41.1	23.0	0.00e+00	0	41	0	486539264	52	6468
2026-01-25 20:21:27.26	23.77	14.94	-40.1	-41.1	23.0	0.00e+00	0	41	0	487587840	52	6483
2026-01-25 20:21:28.27	23.56	14.96	-40.3	-41.2	22.8	0.00e+00	0	41	0	489684992	52	6611
2026-01-25 20:21:29.28	23.35	14.99	-40.4	-41.4	22.7	0.00e+00	0	41	0	491782144	52	6698
2026-01-25 20:21:30.29	23.15	15.01	-40.3	-41.3	22.7	0.00e+00	0	41	0	493879296	52	6673
2026-01-25 20:21:31.29	22.94	15.03	-40.6	-41.6	22.6	0.00e+00	0	41	0	495976448	52	6877
2026-01-25 20:21:32.30	22.73	15.05	-40.5	-41.5	22.7	0.00e+00	0	41	0	497025024	52	6788
2026-01-25 20:21:33.31	22.52	15.07	-40.4	-41.4	22.7	0.00e+00	0	41	0	499122176	52	6709
2026-01-25 20:21:34.32	22.31	15.09	-40.4	-41.3	22.6	0.00e+00	0	41	0	501219328	52	6687
2026-01-25 20:21:35.33	22.10	15.11	-40.5	-41.5	22.5	0.00e+00	0	41	0	503316480	52	6834
2026-01-25 20:21:36.34	21.89	15.13	-40.4	-41.4	22.6	0.00e+00	0	41	0	505413632	52	6746
2026-01-25 20:21:37.35	21.68	15.15	-40.3	-41.3	22.8	0.00e+00	0	41	0	506462208	52	6642
2026-01-25 20:21:38.36	21.46	15.17	-40.2	-41.2	22.8	0.00e+00	0	41	0	508559360	52	6575
2026-01-25 20:21:39.37	21.25	15.19	-40.1	-41.1	23.0	0.00e+00	0	41	0	510656512	52	6467
2026-01-25 20:21:40.38	21.04	15.21	-40.0	-40.9	23.1	0.00e+00	0	41	0	512753664	52	6385
2026-01-25 20:21:41.38	20.83	15.22	-39.9	-40.9	23.1	0.00e+00	0	41	0	514850816	52	6337
2026-01-25 20:21:42.39	20.62	15.24	-40.1	-41.0	23.0	0.00e+00	0	41	0	515899392	52	6440
2026-01-25 20:21:43.40	20.41	15.26	-40.1	-41.0	23.0	0.00e+00	0	41	0	517996544	52	6437
2026-01-25 20:21:44.41	20.19	15.27	-40.0	-41.0	23.1	0.00e+00	0	40	0	520093696	52	6399
2026-01-25 20:21:45.42	19.98	15.29	-39.8	-40.7	23.3	0.00e+00	0	41	0	522190848	52	6224
2026-01-25 20:21:46.43	19.77	15.31	-39.9	-40.8	23.2	0.00e+00	0	41	0	524288000	52	6292
2026-01-25 20:21:47.44	19.55	15.32	-39.8	-40.8	23.3	0.00e+00	0	41	0	525336576	52	6256
2026-01-25 20:21:48.45	19.34	15.34	-40.0	-40.9	23.1	0.00e+00	0	41	0	527433728	52	6387
2026-01-25 20:21:49.46	19.13	15.35	-40.1	-41.1	23.0	0.00e+00	0	40	0	529530880	52	6501
2026-01-25 20:21:50.47	18.91	15.37	-40.1	-41.1	23.0	0.00e+00	0	41	0	531628032	52	6471
2026-01-25 20:21:51.48	18.70	15.38	-40.2	-41.2	22.9	0.00e+00	0	41	0	533725184	52	6552
2026-01-25 20:21:52.49	18.48	15.39	-40.1	-41.1	22.8	0.00e+00	0	41	0	534773760	52	6482
2026-01-25 20:21:53.50	18.27	15.41	-40.0	-40.9	23.0	0.00e+00	0	41	0	536870912	52	6354
2026-01-25 20:21:54.51	18.05	15.42	-40.1	-41.1	23.0	0.00e+00	0	41	0	538968064	52	6467
2026-01-25 20:21:55.52	17.84	15.43	-40.0	-41.0	23.0	0.00e+00	0	41	0	541065216	52	6411
2026-01-25 20:21:56.53	17.62	15.44	-40.1	-41.0	23.0	0.00e+00	0	41	0	543162368	52	6434
2026-01-25 20:21:57.54	17.41	15.45	-40.1	-41.1	22.9	0.00e+00	0	41	0	545259520	52	6503
2026-01-25 20:21:58.55	17.19	15.46	-40.2	-41.2	22.8	0.00e+00	0	41	0	546308096	52	6588
2026-01-25 20:21:59.56	16.98	15.48	-40.1	-41.0	23.0	0.00e+00	0	41	0	548405248	52	6451
2026-01-25 20:22:00.57	16.76	15.49	-40.1	-41.1	23.0	0.00e+00	0	41	0	550502400	52	6508
2026-01-25 20:22:01.58	16.54	15.50	-40.0	-40.9	23.1	0.00e+00	0	41	0	552599552	52	6380
2026-01-25 20:22:02.59	16.33	15.50	-40.0	-41.0	23.1	0.00e+00	0	41	0	554696704	52	6418
2026-01-25 20:22:03.59	16.11	15.51	-40.1	-41.1	23.0	0.00e+00	0	41	0	555745280	52	6488
2026-01-25 20:22:04.60	15.90	15.52	-40.3	-41.2	22.7	0.00e+00	0	41	0	557842432	52	6612
2026-01-25 20:22:05.61	15.68	15.53	-40.4	-41.4	22.6	0.00e+00	0	41	0	559939584	52	6728
2026-01-25 20:22:06.62	15.46	15.54	-40.3	-41.3	22.7	0.00e+00	0	41	0	562036736	52	6654
2026-01-25 20:22:07.63	15.25	15.55	-40.4	-41.3	22.7	0.00e+00	0	41	0	564133888	52	6687
2026-01-25 20:22:08.64	15.03	15.55	-40.2	-41.1	22.9	0.00e+00	0	41	0	565182464	52	6528
2026-01-25 20:22:09.65	14.81	15.56	-40.1	-41.0	23.1	0.00e+00	0	41	0	567279616	52	6444
2026-01-25 20:22:10.66	14.60	15.57	-40.1	-41.1	22.9	0.00e+00	0	41	0	569376768	52	6504
2026-01-25 20:22:11.67	14.38	15.57	-40.1	-41.1	23.0	0.00e+00	0	41	0	571473920	52	6485
2026-01-25 20:22:12.67	14.16	15.58	-40.1	-41.1	23.0	0.00e+00	0	41	0	573571072	52	6485
2026-01-25 20:22:13.68	13.95	15.58	-40.2	-41.2	22.9	0.00e+00	0	41	0	574619648	52	6583
2026-01-25 20:22:14.69	13.73	15.59	-40.2	-41.2	22.9	0.00e+00	0	41	0	576716800	52	6575
2026-01-25 20:22:15.70	13.51	15.59	-40.0	-41.0	23.0	0.00e+00	0	41	0	578813952	52	6431
2026-01-25 20:22:16.71	13.29	15.59	-40.0	-40.9	23.1	0.00e+00	0	41	0	580911104	52	6360
2026-01-25 20:22:17.72	13.08	15.60	-40.0	-41.0	23.1	0.00e+00	0	41	0	583008256	52	6397
2026-01-25 20:22:18.73	12.86	15.60	-40.0	-41.0	23.0	0.00e+00	0	41	0	584056832	52	6426
2026-01-25 20:22:19.74	12.64	15.60	-40.2	-41.1	22.9	0.00e+00	0	41	0	586153984	52	6525
2026-01-25 20:22:20.75	12.42	15.60	-40.4	-41.4	22.7	0.00e+00	0	41	0	588251136	52	6729
2026-01-25 20:22:21.75	12.21	15.61	-40.3	-41.3	22.8	0.00e+00	0	41	0	590348288	52	6640
2026-01-25 20:22:22.77	11.99	15.61	-40.4	-41.4	22.7	0.00e+00	0	41	0	592445440	52	6741
2026-01-25 20:22:23.77	11.77	15.61	-40.4	-41.4	22.7	0.00e+00	0	41	0	593494016	52	6700
2026-01-25 20:22:24.78	11.55	15.61	-40.2	-41.2	22.9	0.00e+00	0	41	0	595591168	52	6548
2026-01-25 20:22:25.79	11.34	15.61	-40.2	-41.1	23.0	0.00e+00	0	41	0	597688320	52	6516
2026-01-25 20:22:26.80	11.12	15.61	-40.2	-41.2	22.9	0.00e+00	0	41	0	599785472	52	6550
2026-01-25 20:22:27.81	10.90	15.61	-40.0	-40.9	22.4	0.00e+00	0	41	0	601882624	52	6390
2026-01-25 20:22:28.82	10.68	15.60	-40.0	-41.0	23.1	0.00e+00	0	41	0	602931200	52	6392
2026-01-25 20:22:29.83	10.47	15.60	-40.1	-41.1	22.9	0.00e+00	0	41	0	605028352	52	6510
2026-01-25 20:22:30.84	10.25	15.60	-40.1	-41.1	22.8	0.00e+00	0	41	0	607125504	52	6472
2026-01-25 20:22:31.85	10.03	15.60	-40.2	-41.2	22.8	0.00e+00	0	41	0	609222656	52	6552
2026-01-25 20:22:32.86	9.81	15.60	-40.2	-41.2	23.0	0.00e+00	0	41	0	611319808	52	6587
2026-01-25 20:22:33.87	9.60	15.59	-40.1	-41.0	23.0	0.00e+00	0	41	0	612368384	52	6460
2026-01-25 20:22:34.88	9.38	15.59	-40.1	-41.1	23.0	0.00e+00	0	41	0	614465536	52	6486
2026-01-25 20:22:35.89	9.16	15.58	-40.2	-41.2	22.9	0.00e+00	0	41	0	616562688	52	6552
2026-01-25 20:22:36.89	8.95	15.58	-40.1	-41.1	22.9	0.00e+00	0	41	0	618659840	52	6507
2026-01-25 20:22:37.90	8.73	15.57	-40.3	-41.2	22.9	0.00e+00	0	41	0	620756992	52	6599
2026-01-25 20:22:38.91	8.51	15.57	-40.4	-41.4	22.7	0.00e+00	0	41	0	621805568	52	6748
2026-01-25 20:22:39.92	8.29	15.56	-40.3	-41.3	22.8	0.00e+00	0	41	0	623902720	52	6630
2026-01-25 20:22:40.93	8.08	15.56	-40.5	-41.5	22.7	0.00e+00	0	41	0	625999872	52	6830
2026-01-25 20:22:41.94	7.86	15.55	-40.6	-41.6	22.6	0.00e+00	0	41	0	628097024	52	6901
2026-01-25 20:22:42.95	7.64	15.54	-40.4	-41.4	22.7	0.00e+00	0	41	0	630194176	52	6713
2026-01-25 20:22:43.96	7.43	15.53	-40.3	-41.3	22.8	0.00e+00	0	41	0	631242752	52	6624
2026-01-25 20:22:44.97	7.21	15.53	-40.0	-41.0	23.1	0.00e+00	0	41	0	633339904	52	6431
2026-01-25 20:22:45.98	6.99	15.52	-40.0	-41.0	23.1	0.00e+00	0	41	0	635437056	52	6415
2026-01-25 20:22:46.99	6.78	15.51	-40.1	-41.1	23.0	0.00e+00	0	41	0	637534208	52	6484
2026-01-25 20:22:48.00	6.56	15.50	-40.1	-41.0	23.2	0.00e+00	0	41	0	639631360	52	6441
2026-01-25 20:22:49.01	6.34	15.49	-40.2	-41.2	22.9	0.00e+00	0	41	0	641728512	52	6545
2026-01-25 20:22:50.02	6.13	15.48	-40.3	-41.3	22.8	0.00e+00	0	41	0	642777088	52	6623
2026-01-25 20:22:51.03	5.91	15.47	-40.3	-41.3	22.7	0.00e+00	0	41	0	644874240	52	6677
2026-01-25 20:22:52.04	5.70	15.46	-40.6	-41.6	22.5	0.00e+00	0	41	0	646971392	52	6876
2026-01-25 20:22:53.05	5.48	15.45	-40.6	-41.6	22.6	0.00e+00	0	41	0	649068544	52	6872
2026-01-25 20:22:54.06	5.27	15.44	-40.5	-41.6	22.6	0.00e+00	0	41	0	651165696	52	6857
2026-01-25 20:22:55.07	5.05	15.42	-40.3	-41.3	22.9	0.00e+00	0	41	0	652214272	52	6660
2026-01-25 20:22:56.07	4.84	15.41	-40.3	-41.3	22.9	0.00e+00	0	41	0	654311424	52	6660
2026-01-25 20:22:57.08	4.62	15.40	-40.2	-41.2	22.9	0.00e+00	0	41	0	656408576	52	6547
2026-01-25 20:22:58.09	4.41	15.39	-39.9	-40.8	23.3	0.00e+00	0	41	0	658505728	52	6296
2026-01-25 20:22:59.10	4.19	15.37	-39.9	-40.9	23.2	0.00e+00	0	41	0	660602880	52	6347
2026-01-25 20:23:00.11	3.98	15.36	-39.9	-40.9	23.2	0.00e+00	0	41	0	661651456	52	6333
2026-01-25 20:23:01.12	3.77	15.34	-40.0	-40.9	23.2	0.00e+00	0	41	0	663748608	52	6387
2026-01-25 20:23:02.13	3.55	15.33	-39.9	-40.8	23.3	0.00e+00	0	41	0	665845760	52	6307
2026-01-25 20:23:03.14	3.34	15.31	-40.0	-40.9	23.2	0.00e+00	0	41	0	667942912	52	6372
2026-01-25 20:23:04.15	3.13	15.30	-40.0	-40.9	23.1	0.00e+00	0	41	0	670040064	52	6358
2026-01-25 20:23:05.16	2.91	15.28	-40.1	-41.0	23.1	0.00e+00	0	41	0	671088640	52	6456
2026-01-25 20:23:06.17	2.70	15.27	-40.0	-41.0	23.1	0.00e+00	0	41	0	673185792	52	6414
2026-01-25 20:23:07.18	2.49	15.25	-40.0	-40.9	23.3	0.00e+00	0	41	0	675282944	52	6351
2026-01-25 20:23:08.19	2.28	15.23	-39.8	-40.7	23.3	0.00e+00	0	41	0	677380096	52	6230
2026-01-25 20:23:09.20	2.06	15.21	-39.8	-40.7	23.4	0.00e+00	0	41	0	679477248	52	6221
2026-01-25 20:23:10.20	1.85	15.20	-39.6	-40.5	23.6	0.00e+00	0	41	0	680525824	52	6068
2026-01-25 20:23:11.22	1.64	15.18	-39.6	-40.5	23.6	0.00e+00	0	41	0	682622976	52	6059
2026-01-25 20:23:12.22	1.43	15.16	-39.6	-40.5	23.6	0.00e+00	0	41	0	684720128	52	6072
2026-01-25 20:23:13.23	1.22	15.14	-39.6	-40.6	23.5	0.00e+00	0	41	0	686817280	52	6108
2026-01-25 20:23:14.24	1.01	15.12	-39.8	-40.7	23.4	0.00e+00	0	41	0	688914432	52	6223
2026-01-25 20:23:15.25	0.80	15.10	-39.9	-40.9	23.2	0.00e+00	0	41	0	689963008	52	6347
2026-01-25 20:23:16.26	0.59	15.08	-39.9	-40.9	23.2	0.00e+00	0	41	0	692060160	52	6322
2026-01-25 20:23:17.27	0.38	15.06	-39.9	-40.9	23.3	0.00e+00	0	41	0	694157312	52	6318
2026-01-25 20:23:18.28	0.17	15.04	-39.9	-40.8	23.3	0.00e+00	0	41	0	696254464	52	6281
2026-01-25 20:23:19.29	359.96	15.02	-40.0	-41.0	23.3	0.00e+00	0	41	0	698351616	52	6400
2026-01-25 20:23:20.30	359.75	15.00	-39.9	-40.9	23.3	0.00e+00	0	41	0	699400192	52	6351
2026-01-25 20:23:21.31	359.54	14.97	-39.9	-40.9	23.2	0.00e+00	0	41	0	701497344	52	6329
2026-01-25 20:23:22.32	359.33	14.95	-40.0	-40.9	23.2	0.00e+00	0	41	0	703594496	52	6348
2026-01-25 20:23:23.33	359.13	14.93	-40.1	-41.0	23.1	0.00e+00	0	41	0	705691648	52	6446
2026-01-25 20:23:24.34	358.92	14.91	-40.1	-41.1	23.0	0.00e+00	0	41	0	707788800	52	6500
2026-01-25 20:23:25.35	358.71	14.88	-40.3	-41.3	22.9	0.00e+00	0	41	0	709885952	52	6649
2026-01-25 20:23:26.36	358.50	14.86	-40.4	-41.4	22.7	0.00e+00	0	41	0	710934528	52	6765
2026-01-25 20:23:27.37	358.30	14.83	-40.5	-41.5	22.7	0.00e+00	0	41	0	713031680	52	6832
2026-01-25 20:23:28.37	358.09	14.81	-40.6	-41.6	22.5	0.00e+00	0	41	0	715128832	52	6922
2026-01-25 20:23:29.38	357.89	14.78	-40.7	-41.7	22.4	0.00e+00	0	41	0	717225984	54	6202
2026-01-25 20:23:30.39	357.68	14.76	-40.5	-41.4	22.7	0.00e+00	0	41	0	719323136	54	6025
2026-01-25 20:23:31.40	357.47	14.73	-40.4	-41.4	22.8	0.00e+00	0	41	0	720371712	54	5997
2026-01-25 20:23:32.41	357.27	14.71	-40.2	-41.1	22.9	0.00e+00	0	41	0	722468864	54	5817
2026-01-25 20:23:33.42	357.07	14.68	-40.2	-41.2	23.0	0.00e+00	0	41	0	724566016	54	5866
2026-01-25 20:23:34.43	356.86	14.65	-40.1	-41.1	23.0	0.00e+00	0	41	0	726663168	54	5783
2026-01-25 20:23:35.44	356.66	14.63	-40.2	-41.2	23.0	0.00e+00	0	41	0	728760320	54	5829
2026-01-25 20:23:36.45	356.45	14.60	-40.3	-41.2	22.9	0.00e+00	0	41	0	729808896	54	5890
2026-01-25 20:23:37.46	356.25	14.57	-40.3	-41.2	22.8	0.00e+00	0	41	0	731906048	54	5885
2026-01-25 20:23:38.47	356.05	14.55	-40.3	-41.3	22.8	0.00e+00	0	41	0	734003200	54	5921
2026-01-25 20:23:39.48	355.85	14.52	-40.2	-41.2	22.9	0.00e+00	0	41	0	736100352	54	5855
2026-01-25 20:23:40.49	355.64	14.49	-40.4	-41.3	22.8	0.00e+00	0	41	0	738197504	54	5963
2026-01-25 20:23:41.49	355.44	14.46	-40.3	-41.3	22.9	0.00e+00	0	41	0	739246080	54	5904
2026-01-25 20:23:42.50	355.24	14.43	-40.2	-41.2	23.0	0.00e+00	0	41	0	741343232	54	5829
2026-01-25 20:23:43.51	355.04	14.40	-40.3	-41.2	22.9	0.00e+00	0	41	0	743440384	54	5888
2026-01-25 20:23:44.52	354.84	14.37	-40.2	-41.2	22.8	0.00e+00	0	41	0	745537536	54	5883
2026-01-25 20:23:45.53	354.64	14.34	-40.4	-41.4	22.8	0.00e+00	0	41	0	747634688	54	5992
2026-01-25 20:23:46.54	354.44	14.31	-40.3	-41.3	22.8	0.00e+00	0	41	0	748683264	54	5951
2026-01-25 20:23:47.55	354.24	14.28	-40.2	-41.2	22.9	0.00e+00	0	41	0	750780416	54	5838
2026-01-25 20:23:48.56	354.04	14.25	-40.0	-40.9	23.1	0.00e+00	0	41	0	752877568	54	5683
2026-01-25 20:23:49.57	353.85	14.22	-39.9	-40.8	23.2	0.00e+00	0	41	0	754974720	54	5616
2026-01-25 20:23:50.58	353.65	14.19	-40.0	-40.9	23.2	0.00e+00	0	41	0	757071872	54	5662
2026-01-25 20:23:51.59	353.45	14.15	-39.9	-40.8	23.2	0.00e+00	0	41	0	758120448	54	5612
2026-01-25 20:23:52.60	353.25	14.12	-39.9	-40.9	23.1	0.00e+00	0	41	0	760217600	54	5652
2026-01-25 20:23:53.61	353.06	14.09	-39.8	-40.8	23.0	0.00e+00	0	41	0	762314752	52	6247
2026-01-25 20:23:54.61	352.86	14.06	-39.9	-40.8	23.2	0.00e+00	0	41	0	764411904	52	6279
2026-01-25 20:23:55.62	352.67	14.02	-39.8	-40.7	23.3	0.00e+00	0	41	0	766509056	52	6235
2026-01-25 20:23:56.63	352.47	13.99	-39.9	-40.8	23.2	0.00e+00	0	41	0	767557632	52	6293
2026-01-25 20:23:57.64	352.28	13.96	-40.0	-40.9	23.1	0.00e+00	0	41	0	769654784	52	6352
2026-01-25 20:23:58.65	352.08	13.92	-39.8	-40.7	23.3	0.00e+00	0	41	0	771751936	52	6229
2026-01-25 20:23:59.66	351.89	13.89	-39.9	-40.8	23.2	0.00e+00	0	41	0	773849088	52	6275
2026-01-25 20:24:00.67	351.70	13.85	-40.1	-41.0	23.1	0.00e+00	0	41	0	775946240	52	6445
2026-01-25 20:24:01.67	351.50	13.82	-39.9	-40.8	23.3	0.00e+00	0	41	0	776994816	52	6313
2026-01-25 20:24:02.68	351.31	13.78	-39.9	-40.9	23.2	0.00e+00	0	41	0	779091968	52	6320
2026-01-25 20:24:03.69	351.12	13.75	-40.0	-41.0	23.1	0.00e+00	0	41	0	781189120	52	6426
2026-01-25 20:24:04.70	350.93	13.71	-40.2	-41.2	22.9	0.00e+00	0	41	0	783286272	52	6587
2026-01-25 20:24:05.71	350.74	13.68	-40.4	-41.4	22.8	0.00e+00	0	41	0	785383424	52	6693
2026-01-25 20:24:06.72	350.55	13.64	-40.2	-41.1	22.9	0.00e+00	0	41	0	786432000	52	6525
2026-01-25 20:24:07.73	350.36	13.60	-40.3	-41.3	22.9	0.00e+00	0	41	0	788529152	52	6628
2026-01-25 20:24:08.74	350.17	13.57	-40.1	-41.1	22.9	0.00e+00	0	41	0	790626304	52	6503
2026-01-25 20:24:09.75	349.98	13.53	-40.0	-41.0	23.1	0.00e+00	0	41	0	792723456	52	6417
2026-01-25 20:24:10.76	349.79	13.49	-40.0	-40.9	23.2	0.00e+00	0	41	0	794820608	52	6378
2026-01-25 20:24:11.77	349.60	13.46	-40.0	-40.9	23.2	0.00e+00	0	41	0	795869184	52	6376
2026-01-25 20:24:12.78	349.41	13.42	-39.8	-40.8	23.3	0.00e+00	0	41	0	797966336	52	6247
2026-01-25 20:24:13.79	349.23	13.38	-40.1	-41.1	23.1	0.00e+00	0	41	0	800063488	52	6484
2026-01-25 20:24:14.80	349.04	13.34	-40.2	-41.1	23.0	0.00e+00	0	41	0	802160640	52	6519
2026-01-25 20:24:15.81	348.85	13.30	-40.0	-40.9	23.1	0.00e+00	0	41	0	804257792	52	6379
2026-01-25 20:24:16.82	348.67	13.26	-40.0	-40.9	23.2	0.00e+00	0	41	0	806354944	52	6382
2026-01-25 20:24:17.82	348.48	13.23	-39.9	-40.9	23.1	0.00e+00	0	41	0	807403520	52	6335
2026-01-25 20:24:18.83	348.30	13.19	-40.1	-41.0	23.1	0.00e+00	0	41	0	809500672	52	6448
2026-01-25 20:24:19.84	348.11	13.15	-40.1	-41.0	23.0	0.00e+00	0	41	0	811597824	52	6442
2026-01-25 20:24:20.85	347.93	13.11	-40.2	-41.2	22.9	0.00e+00	0	41	0	813694976	52	6554
2026-01-25 20:24:21.86	347.75	13.07	-40.0	-41.0	23.1	0.00e+00	0	41	0	815792128	52	6416
2026-01-25 20:24:22.87	347.57	13.03	-39.9	-40.9	23.2	0.00e+00	0	41	0	816840704	52	6330
2026-01-25 20:24:23.88	347.38	12.99	-40.1	-41.0	23.1	0.00e+00	0	41	0	818937856	52	6425
2026-01-25 20:24:24.89	347.20	12.95	-40.0	-40.9	23.1	0.00e+00	0	41	0	821035008	52	6384
2026-01-25 20:24:25.90	347.02	12.91	-40.1	-41.0	23.0	0.00e+00	0	41	0	823132160	52	6436
2026-01-25 20:24:26.91	346.84	12.87	-40.3	-41.2	22.9	0.00e+00	0	41	0	825229312	52	6595
2026-01-25 20:24:27.92	346.66	12.82	-40.2	-41.2	22.9	0.00e+00	0	41	0	826277888	52	6552
2026-01-25 20:24:28.93	346.48	12.78	-40.4	-41.3	22.7	0.00e+00	0	41	0	828375040	52	6691
2026-01-25 20:24:29.94	346.30	12.74	-40.4	-41.4	22.7	0.00e+00	0	41	0	830472192	52	6735
2026-01-25 20:24:30.94	346.12	12.70	-40.7	-41.7	22.3	0.00e+00	0	41	0	832569344	54	6232
2026-01-25 20:24:31.95	345.94	12.66	-41.0	-42.0	22.2	0.00e+00	0	41	0	834666496	54	6460
2026-01-25 20:24:32.96	345.77	12.62	-40.8	-41.9	22.2	0.00e+00	0	41	0	835715072	54	6346
2026-01-25 20:24:33.97	345.59	12.57	-41.0	-42.1	22.0	0.00e+00	0	41	0	837812224	54	6512
2026-01-25 20:24:34.98	345.41	12.53	-41.1	-42.2	22.0	0.00e+00	0	41	0	839909376	54	6575
2026-01-25 20:24:35.98	345.24	12.49	-41.2	-42.3	21.8	0.00e+00	0	41	0	842006528	54	6686
2026-01-25 20:24:36.99	345.06	12.45	-41.5	-42.6	21.5	0.00e+00	0	41	0	844103680	54	6921
2026-01-25 20:24:38.00	344.89	12.40	-41.2	-42.3	21.8	0.00e+00	0	41	0	845152256	54	6664
2026-01-25 20:24:39.02	344.71	12.36	-41.3	-42.4	21.7	0.00e+00	0	41	0	847249408	54	6732
2026-01-25 20:24:40.03	344.54	12.32	-41.2	-42.3	21.9	0.00e+00	0	41	0	849346560	54	6627
2026-01-25 20:24:41.04	344.36	12.27	-41.3	-42.4	21.7	0.00e+00	0	41	0	851443712	54	6704
2026-01-25 20:24:42.05	344.19	12.23	-41.4	-42.6	21.6	0.00e+00	0	41	0	853540864	54	6859
2026-01-25 20:24:43.06	344.02	12.18	-41.4	-42.6	21.6	0.00e+00	0	41	0	854589440	54	6861
2026-01-25 20:24:44.07	343.85	12.14	-41.4	-42.6	21.6	0.00e+00	0	41	0	856686592	54	6861
2026-01-25 20:24:45.08	343.68	12.10	-41.5	-42.7	21.5	0.00e+00	0	41	0	858783744	54	6930
2026-01-25 20:24:46.09	343.50	12.05	-41.4	-42.5	21.6	0.00e+00	0	41	0	860880896	54	6838
2026-01-25 20:24:47.10	343.33	12.01	-41.8	-43.0	21.3	0.00e+00	0	41	0	862978048	56	6438
2026-01-25 20:24:48.11	343.16	11.96	-41.9	-43.2	21.2	0.00e+00	0	41	0	864026624	56	6546
2026-01-25 20:24:49.12	342.99	11.92	-42.4	-43.7	20.7	0.00e+00	0	41	0	866123776	56	6952
2026-01-25 20:24:50.13	342.83	11.87	-42.4	-43.7	20.7	0.00e+00	0	41	0	868220928	56	6970
2026-01-25 20:24:51.13	342.66	11.83	-42.5	-43.8	20.6	0.00e+00	0	41	0	870318080	56	7069
2026-01-25 20:24:52.14	342.49	11.78	-42.3	-43.6	20.8	0.00e+00	0	41	0	872415232	56	6875
2026-01-25 20:24:53.15	342.32	11.73	-42.1	-43.4	20.8	0.00e+00	0	41	0	874512384	56	6705
2026-01-25 20:24:54.16	342.16	11.69	-42.2	-43.5	20.8	0.00e+00	0	41	0	875560960	56	6800
2026-01-25 20:24:55.17	341.99	11.64	-42.4	-43.7	20.7	0.00e+00	0	41	0	877658112	56	6991
2026-01-25 20:24:56.18	341.83	11.60	-42.1	-43.4	20.8	0.00e+00	0	41	0	879755264	56	6769
2026-01-25 20:24:57.19	341.66	11.55	-42.2	-43.5	20.9	0.00e+00	0	41	0	881852416	56	6790
2026-01-25 20:24:58.20	341.50	11.50	-42.1	-43.4	20.9	0.00e+00	0	41	0	883949568	56	6720
2026-01-25 20:24:59.20	341.33	11.46	-42.1	-43.4	20.9	0.00e+00	0	41	0	884998144	56	6759
2026-01-25 20:25:00.21	341.17	11.41	-42.2	-43.6	20.8	0.00e+00	0	41	0	887095296	56	6861
2026-01-25 20:25:01.22	341.01	11.36	-42.4	-43.8	20.5	0.00e+00	0	41	0	889192448	56	7019
2026-01-25 20:25:02.23	340.85	11.32	-42.6	-44.0	20.4	0.00e+00	0	41	0	891289600	56	7171
2026-01-25 20:25:03.23	340.68	11.27	-42.7	-44.1	20.2	0.00e+00	0	41	0	893386752	56	7303
2026-01-25 20:25:04.24	340.52	11.22	-42.7	-44.1	20.3	0.00e+00	0	41	0	894435328	58	6527
2026-01-25 20:25:05.26	340.36	11.18	-42.7	-44.2	20.1	0.00e+00	0	41	0	896532480	58	6550
2026-01-25 20:25:06.27	340.20	11.13	-42.7	-44.2	20.1	0.00e+00	0	41	0	898629632	58	6557
2026-01-25 20:25:07.27	340.04	11.08	-42.6	-44.0	20.3	0.00e+00	0	41	0	900726784	58	6425
2026-01-25 20:25:08.28	339.88	11.03	-42.6	-44.0	20.4	0.00e+00	0	41	0	902823936	58	6459
2026-01-25 20:25:09.29	339.72	10.99	-42.6	-44.1	20.1	0.00e+00	0	41	0	903872512	58	6505
2026-01-25 20:25:10.30	339.57	10.94	-42.6	-44.1	20.2	0.00e+00	0	41	0	905969664	58	6487
2026-01-25 20:25:11.31	339.41	10.89	-42.8	-44.4	20.0	0.00e+00	0	41	0	908066816	58	6703
2026-01-25 20:25:12.32	339.25	10.84	-43.0	-44.6	19.7	0.00e+00	0	41	0	910163968	58	6851
2026-01-25 20:25:13.33	339.09	10.79	-42.9	-44.4	19.8	0.00e+00	0	41	0	912261120	58	6742
2026-01-25 20:25:14.34	338.94	10.74	-42.8	-44.4	19.7	0.00e+00	0	41	0	913309696	58	6729
2026-01-25 20:25:15.35	338.78	10.70	-43.0	-44.5	19.6	0.00e+00	0	41	0	915406848	58	6838
2026-01-25 20:25:16.36	338.63	10.65	-43.1	-44.7	19.6	0.00e+00	0	41	0	917504000	58	6944
2026-01-25 20:25:17.37	338.47	10.60	-43.1	-44.6	19.7	0.00e+00	0	41	0	919601152	58	6911
2026-01-25 20:25:18.38	338.32	10.55	-43.0	-44.6	19.7	0.00e+00	0	41	0	921698304	58	6923
2026-01-25 20:25:19.39	338.17	10.50	-43.0	-44.6	19.7	0.00e+00	0	41	0	922746880	58	6858
2026-01-25 20:25:20.40	338.01	10.45	-43.1	-44.7	19.5	0.00e+00	0	41	0	924844032	58	6977
2026-01-25 20:25:21.41	337.86	10.40	-43.1	-44.7	19.6	0.00e+00	0	41	0	926941184	58	6963
2026-01-25 20:25:22.42	337.71	10.35	-42.9	-44.5	19.8	0.00e+00	0	41	0	929038336	58	6776
2026-01-25 20:25:23.43	337.56	10.30	-42.9	-44.4	19.7	0.00e+00	0	41	0	931135488	58	6735
2026-01-25 20:25:24.44	337.41	10.25	-43.0	-44.5	19.6	0.00e+00	0	41	0	932184064	58	6833
2026-01-25 20:25:25.45	337.26	10.20	-42.9	-44.4	19.8	0.00e+00	0	41	0	934281216	58	6738
2026-01-25 20:25:26.46	337.11	10.15	-42.9	-44.4	19.8	0.00e+00	0	41	0	936378368	58	6755
2026-01-25 20:25:27.47	336.96	10.10	-43.0	-44.6	19.7	0.00e+00	0	41	0	938475520	58	6859
2026-01-25 20:25:28.48	336.81	10.05	-43.1	-44.6	19.7	0.00e+00	0	41	0	940572672	58	6895
2026-01-25 20:25:29.49	336.66	10.00	-43.0	-44.6	19.5	0.00e+00	0	41	0	942669824	58	6858
2026-01-25 20:25:30.50	336.51	9.95	-42.9	-44.4	19.9	0.00e+00	0	41	0	943718400	58	6729
2026-01-25 20:25:31.51	336.36	9.90	-43.1	-44.6	19.8	0.00e+00	0	41	0	945815552	58	6871
2026-01-25 20:25:32.51	336.22	9.85	-42.7	-44.2	20.1	0.00e+00	0	41	0	947912704	58	6542
2026-01-25 20:25:33.53	336.07	9.80	-42.8	-44.3	19.9	0.00e+00	0	41	0	950009856	58	6647
2026-01-25 20:25:34.54	335.93	9.75	-42.8	-44.2	20.0	0.00e+00	0	41	0	952107008	58	6566
2026-01-25 20:25:35.54	335.78	9.70	-42.7	-44.1	20.1	0.00e+00	0	41	0	953155584	58	6533
2026-01-25 20:25:36.55	335.64	9.65	-42.7	-44.1	20.1	0.00e+00	0	41	0	955252736	58	6476
2026-01-25 20:25:37.56	335.49	9.60	-42.6	-44.0	20.2	0.00e+00	0	41	0	957349888	58	6442
2026-01-25 20:25:38.57	335.35	9.55	-42.7	-44.2	20.0	0.00e+00	0	41	0	959447040	58	6547
2026-01-25 20:25:39.58	335.21	9.50	-42.3	-43.7	20.5	0.00e+00	0	41	0	961544192	58	6188
2026-01-25 20:25:40.59	335.06	9.45	-42.4	-43.7	20.4	0.00e+00	0	41	0	962592768	58	6236
2026-01-25 20:25:41.60	334.92	9.40	-42.4	-43.7	20.4	0.00e+00	0	41	0	964689920	58	6219
2026-01-25 20:25:42.61	334.78	9.35	-42.5	-43.8	20.3	0.00e+00	0	41	0	966787072	58	6313
2026-01-25 20:25:43.62	334.64	9.30	-42.4	-43.8	20.3	0.00e+00	0	41	0	968884224	58	6278
2026-01-25 20:25:44.63	334.50	9.25	-42.2	-43.5	20.5	0.00e+00	0	41	0	970981376	58	6074
2026-01-25 20:25:45.64	334.36	9.20	-42.2	-43.5	20.6	0.00e+00	0	41	0	972029952	58	6085
2026-01-25 20:25:46.64	334.22	9.15	-42.1	-43.4	20.8	0.00e+00	0	41	0	974127104	58	5965
2026-01-25 20:25:47.65	334.08	9.09	-42.2	-43.5	20.7	0.00e+00	0	41	0	976224256	58	6085
2026-01-25 20:25:48.66	333.94	9.04	-42.0	-43.3	20.8	0.00e+00	0	41	0	978321408	58	5937
2026-01-25 20:25:49.67	333.80	8.99	-42.3	-43.6	20.6	0.00e+00	0	41	0	980418560	58	6148
2026-01-25 20:25:50.68	333.67	8.94	-42.2	-43.5	20.6	0.00e+00	0	41	0	981467136	58	6061
2026-01-25 20:25:51.69	333.53	8.89	-41.9	-43.1	20.9	0.00e+00	0	41	0	983564288	58	5828
2026-01-25 20:25:52.69	333.39	8.84	-41.9	-43.1	21.0	0.00e+00	0	41	0	985661440	58	5810
2026-01-25 20:25:53.70	333.26	8.79	-41.9	-43.2	20.9	0.00e+00	0	41	0	987758592	58	5840
2026-01-25 20:25:54.71	333.12	8.73	-41.8	-43.1	21.0	0.00e+00	0	41	0	989855744	56	6478
2026-01-25 20:25:55.72	332.99	8.68	-41.6	-42.8	21.2	0.00e+00	0	41	0	990904320	56	6249
2026-01-25 20:25:56.73	332.85	8.63	-41.9	-43.2	20.9	0.00e+00	0	41	0	993001472	56	6544
2026-01-25 20:25:57.74	332.72	8.58	-41.6	-42.8	21.4	0.00e+00	0	41	0	995098624	56	6268
2026-01-25 20:25:58.75	332.58	8.53	-41.3	-42.4	21.6	0.00e+00	0	41	0	997195776	56	6011
2026-01-25 20:25:59.76	332.45	8.48	-41.5	-42.7	21.4	0.00e+00	0	41	0	999292928	56	6187
2026-01-25 20:26:00.77	332.32	8.42	-41.5	-42.7	21.4	0.00e+00	0	41	0	1000341504	56	6196
2026-01-25 20:26:01.78	332.19	8.37	-41.4	-42.6	21.4	0.00e+00	0	41	0	1002438656	56	6144
2026-01-25 20:26:02.79	332.05	8.32	-41.4	-42.6	21.4	0.00e+00	0	41	0	1004535808	56	6126
2026-01-25 20:26:03.80	331.92	8.27	-41.4	-42.5	21.5	0.00e+00	0	41	0	1006632960	56	6092
2026-01-25 20:26:04.80	331.79	8.22	-41.3	-42.4	21.7	0.00e+00	0	41	0	1008730112	56	6000
2026-01-25 20:26:05.81	331.66	8.16	-40.9	-42.0	22.0	0.00e+00	0	41	0	1009778688	56	5745
2026-01-25 20:26:06.82	331.53	8.11	-40.8	-41.9	22.1	0.00e+00	0	41	0	1011875840	56	5669
2026-01-25 20:26:07.83	331.40	8.06	-40.8	-41.9	22.0	0.00e+00	0	41	0	1013972992	54	6321
2026-01-25 20:26:08.84	331.28	8.01	-41.0	-42.2	21.9	0.00e+00	0	41	0	1016070144	54	6546
2026-01-25 20:26:09.85	331.15	7.96	-40.9	-42.0	21.8	0.00e+00	0	41	0	1018167296	54	6416
2026-01-25 20:26:10.86	331.02	7.90	-40.9	-42.0	21.9	0.00e+00	0	41	0	1019215872	54	6403
2026-01-25 20:26:11.87	330.89	7.85	-40.8	-41.9	22.0	0.00e+00	0	41	0	1021313024	54	6324
2026-01-25 20:26:12.88	330.76	7.80	-41.0	-42.1	21.5	0.00e+00	0	41	0	1023410176	54	6524
2026-01-25 20:26:13.88	330.64	7.75	-41.2	-42.4	21.5	0.00e+00	0	41	0	1025507328	54	6703
2026-01-25 20:26:14.89	330.51	7.69	-40.9	-41.9	21.9	0.00e+00	0	41	0	1027604480	54	6384
2026-01-25 20:26:15.90	330.39	7.64	-41.0	-42.1	21.7	0.00e+00	0	41	0	1028653056	54	6532
2026-01-25 20:26:16.91	330.26	7.59	-41.2	-42.4	21.5	0.00e+00	0	41	0	1030750208	54	6718
2026-01-25 20:26:17.92	330.14	7.54	-40.9	-42.0	21.7	0.00e+00	0	41	0	1032847360	54	6429
2026-01-25 20:26:18.93	330.01	7.49	-40.7	-41.8	22.1	0.00e+00	0	41	0	1034944512	54	6265
2026-01-25 20:26:19.94	329.89	7.43	-40.7	-41.7	22.0	0.00e+00	0	41	0	1037041664	54	6237
2026-01-25 20:26:20.95	329.77	7.38	-40.8	-41.9	21.9	0.00e+00	0	41	0	1039138816	54	6363
2026-01-25 20:26:21.96	329.64	7.33	-40.9	-42.0	21.9	0.00e+00	0	41	0	1040187392	54	6442
2026-01-25 20:26:22.97	329.52	7.28	-41.1	-42.2	21.8	0.00e+00	0	41	0	1042284544	54	6614
2026-01-25 20:26:23.97	329.40	7.22	-40.8	-41.9	22.0	0.00e+00	0	41	0	1044381696	54	6365
2026-01-25 20:26:24.98	329.28	7.17	-40.8	-41.8	22.0	0.00e+00	0	41	0	1046478848	54	6304
2026-01-25 20:26:25.99	329.16	7.12	-40.9	-42.0	21.9	0.00e+00	0	41	0	1048576000	54	6405
2026-01-25 20:26:27.00	329.04	7.07	-40.7	-41.7	22.2	0.00e+00	0	41	0	1049624576	54	6228
2026-01-25 20:26:28.01	328.92	7.01	-40.8	-41.9	22.0	0.00e+00	0	41	0	1051721728	54	6338
2026-01-25 20:26:29.02	328.80	6.96	-40.8	-41.9	21.9	0.00e+00	0	41	0	1053818880	54	6371
2026-01-25 20:26:30.03	328.68	6.91	-41.0	-42.1	21.8	0.00e+00	0	41	0	1055916032	54	6513
2026-01-25 20:26:31.04	328.56	6.86	-40.7	-41.8	22.1	0.00e+00	0	41	0	1058013184	54	6248
2026-01-25 20:26:32.05	328.44	6.80	-41.1	-42.2	21.7	0.00e+00	0	41	0	1059061760	54	6581
2026-01-25 20:26:33.05	328.32	6.75	-41.2	-42.4	21.6	0.00e+00	0	41	0	1061158912	54	6720
2026-01-25 20:26:34.06	328.21	6.70	-41.2	-42.3	21.6	0.00e+00	0	41	0	1063256064	54	6663
2026-01-25 20:26:35.07	328.09	6.65	-41.0	-42.1	21.8	0.00e+00	0	41	0	1065353216	54	6492
2026-01-25 20:26:36.08	327.97	6.59	-41.2	-42.4	21.5	0.00e+00	0	41	0	1067450368	54	6699
2026-01-25 20:26:37.09	327.86	6.54	-41.3	-42.5	21.5	0.00e+00	0	41	0	1068498944	54	6806
2026-01-25 20:26:38.10	327.74	6.49	-41.2	-42.3	21.6	0.00e+00	0	41	0	1070596096	54	6654
2026-01-25 20:26:39.11	327.62	6.44	-41.3	-42.5	21.3	0.00e+00	0	41	0	1072693248	54	6804
2026-01-25 20:26:40.12	327.51	6.38	-41.7	-42.9	21.0	0.00e+00	0	41	0	1074790400	54	7103
2026-01-25 20:26:41.13	327.40	6.33	-41.7	-42.8	21.1	0.00e+00	0	41	0	1076887552	56	6316
2026-01-25 20:26:42.14	327.28	6.28	-41.8	-43.0	21.0	0.00e+00	0	41	0	1077936128	56	6411
2026-01-25 20:26:43.15	327.17	6.22	-41.6	-42.8	21.2	0.00e+00	0	41	0	1080033280	56	6291
2026-01-25 20:26:44.16	327.05	6.17	-41.7	-42.9	21.1	0.00e+00	0	41	0	1082130432	56	6343
2026-01-25 20:26:45.17	326.94	6.12	-41.2	-42.4	21.6	0.00e+00	0	41	0	1084227584	56	5967
2026-01-25 20:26:46.18	326.83	6.07	-41.5	-42.7	21.2	0.00e+00	0	41	0	1086324736	56	6240
2026-01-25 20:26:47.19	326.72	6.01	-41.3	-42.4	21.5	0.00e+00	0	41	0	1087373312	56	5994
2026-01-25 20:26:48.20	326.61	5.96	-41.3	-42.5	21.5	0.00e+00	0	41	0	1089470464	56	6058
2026-01-25 20:26:49.21	326.49	5.91	-41.7	-42.9	21.1	0.00e+00	0	41	0	1091567616	56	6360
2026-01-25 20:26:50.21	326.38	5.86	-41.5	-42.7	21.4	0.00e+00	0	41	0	1093664768	56	6213
2026-01-25 20:26:51.22	326.27	5.80	-41.7	-42.9	21.1	0.00e+00	0	41	0	1095761920	56	6352
2026-01-25 20:26:52.23	326.16	5.75	-41.5	-42.7	21.2	0.00e+00	0	41	0	1096810496	56	6212
2026-01-25 20:26:53.25	326.05	5.70	-41.4	-42.6	21.3	0.00e+00	0	41	0	1098907648	56	6132
2026-01-25 20:26:54.25	325.95	5.65	-41.3	-42.4	21.4	0.00e+00	0	41	0	1101004800	56	6024
2026-01-25 20:26:55.27	325.84	5.59	-41.5	-42.7	21.3	0.00e+00	0	41	0	1103101952	56	6181
2026-01-25 20:26:56.27	325.73	5.54	-41.3	-42.4	21.5	0.00e+00	0	41	0	1105199104	56	6011
2026-01-25 20:26:57.28	325.62	5.49	-41.7	-42.9	21.1	0.00e+00	0	41	0	1107296256	56	6378
2026-01-25 20:26:58.29	325.51	5.44	-41.5	-42.7	21.3	0.00e+00	0	41	0	1108344832	56	6192
2026-01-25 20:26:59.30	325.41	5.38	-41.9	-43.2	20.8	0.00e+00	0	41	0	1110441984	56	6578
2026-01-25 20:27:00.31	325.30	5.33	-42.1	-43.3	20.6	0.00e+00	0	41	0	1112539136	56	6690
2026-01-25 20:27:01.32	325.19	5.28	-41.8	-43.1	20.8	0.00e+00	0	41	0	1114636288	56	6496
2026-01-25 20:27:02.33	325.09	5.23	-42.1	-43.5	20.4	0.00e+00	0	41	0	1116733440	56	6777
2026-01-25 20:27:03.34	324.98	5.17	-42.2	-43.5	20.4	0.00e+00	0	41	0	1117782016	56	6815
2026-01-25 20:27:04.35	324.88	5.12	-42.6	-44.0	20.1	0.00e+00	0	41	0	1119879168	56	7203
2026-01-25 20:27:05.36	324.77	5.07	-42.8	-44.2	19.6	0.00e+00	0	41	0	1121976320	58	6600
2026-01-25 20:27:06.37	324.67	5.02	-42.9	-44.4	19.8	0.00e+00	0	41	0	1124073472	58	6717
2026-01-25 20:27:07.38	324.56	4.96	-42.1	-43.4	20.4	0.00e+00	0	41	0	1126170624	58	6031
2026-01-25 20:27:08.39	324.46	4.91	-41.7	-43.0	20.9	0.00e+00	0	41	0	1127219200	56	6391
2026-01-25 20:27:09.40	324.36	4.86	-42.3	-43.6	20.2	0.00e+00	0	41	0	1129316352	56	6914
2026-01-25 20:27:10.41	324.25	4.81	-42.3	-43.7	20.2	0.00e+00	0	41	0	1131413504	56	6944
2026-01-25 20:27:11.42	324.15	4.75	-42.0	-43.3	20.5	0.00e+00	0	41	0	1133510656	56	6672
2026-01-25 20:27:12.43	324.05	4.70	-42.5	-43.9	19.9	0.00e+00	0	41	0	1135607808	56	7104
2026-01-25 20:27:13.44	323.95	4.65	-42.2	-43.5	20.4	0.00e+00	0	41	0	1136656384	56	6809
2026-01-25 20:27:14.45	323.85	4.60	-42.0	-43.3	20.4	0.00e+00	0	41	0	1138753536	56	6647
2026-01-25 20:27:15.46	323.74	4.54	-42.7	-44.2	19.7	0.00e+00	0	41	0	1140850688	56	7349
2026-01-25 20:27:16.47	323.64	4.49	-42.8	-44.2	19.5	0.00e+00	0	41	0	1142947840	56	7406
2026-01-25 20:27:17.48	323.54	4.44	-42.8	-44.3	19.3	0.00e+00	0	41	0	1145044992	58	6677
2026-01-25 20:27:18.49	323.44	4.39	-42.8	-44.2	19.5	0.00e+00	0	41	0	1146093568	58	6598
2026-01-25 20:27:19.50	323.34	4.33	-42.9	-44.4	19.3	0.00e+00	0	41	0	1148190720	58	6751
2026-01-25 20:27:20.51	323.25	4.28	-43.4	-45.0	19.0	0.00e+00	0	41	0	1150287872	58	7214
2026-01-25 20:27:21.51	323.15	4.23	-42.6	-44.1	19.6	0.00e+00	0	41	0	1152385024	58	6472
2026-01-25 20:27:22.52	323.05	4.18	-42.7	-44.2	19.3	0.00e+00	0	41	0	1154482176	58	6579
2026-01-25 20:27:23.53	322.95	4.13	-43.2	-44.8	19.0	0.00e+00	0	41	0	1155530752	58	7041
2026-01-25 20:27:24.54	322.85	4.07	-42.4	-43.8	19.9	0.00e+00	0	41	0	1157627904	58	6280
2026-01-25 20:27:25.55	322.76	4.02	-43.4	-45.0	18.8	0.00e+00	0	41	0	1159725056	58	7215
2026-01-25 20:27:26.56	322.66	3.97	-42.9	-44.5	19.2	0.00e+00	0	41	0	1161822208	58	6783
2026-01-25 20:27:27.57	322.56	3.92	-43.6	-45.3	18.4	0.00e+00	0	41	0	1163919360	58	7455
2026-01-25 20:27:28.58	322.47	3.87	-43.3	-45.0	18.9	0.00e+00	0	41	0	1164967936	58	7179
2026-01-25 20:27:29.59	322.37	3.81	-42.7	-44.2	19.5	0.00e+00	0	41	0	1167065088	58	6575
2026-01-25 20:27:30.60	322.28	3.76	-43.3	-44.9	18.7	0.00e+00	0	41	0	1169162240	58	7117
2026-01-25 20:27:31.61	322.18	3.71	-43.5	-45.2	18.6	0.00e+00	0	41	0	1171259392	60	6582
2026-01-25 20:27:32.62	322.09	3.66	-43.6	-45.4	18.2	0.00e+00	0	41	0	1173356544	60	6726
2026-01-25 20:27:33.62	321.99	3.61	-43.3	-44.9	18.9	0.00e+00	0	41	0	1175453696	60	6368
2026-01-25 20:27:34.63	321.90	3.55	-43.5	-45.2	18.5	0.00e+00	0	41	0	1176502272	60	6548
2026-01-25 20:27:35.64	321.80	3.50	-43.5	-45.2	18.5	0.00e+00	0	41	0	1178599424	60	6574
2026-01-25 20:27:36.65	321.71	3.45	-43.9	-45.7	17.9	0.00e+00	0	41	0	1180696576	60	6973
2026-01-25 20:27:37.66	321.62	3.40	-44.5	-46.6	16.9	0.00e+00	0	41	0	1182793728	60	7718
2026-01-25 20:27:38.67	321.52	3.35	-44.3	-46.4	16.9	0.00e+00	0	41	0	1183842304	60	7541
2026-01-25 20:27:39.67	321.43	3.30	-44.5	-46.6	17.2	0.00e+00	0	41	0	1185939456	60	7687
2026-01-25 20:27:40.69	321.34	3.24	-43.2	-44.8	18.7	0.00e+00	0	41	0	1188036608	60	6307
2026-01-25 20:27:41.70	321.25	3.19	-43.8	-45.6	18.0	0.00e+00	0	41	0	1190133760	60	6887
2026-01-25 20:27:42.70	321.16	3.14	-43.9	-45.8	17.8	0.00e+00	0	41	0	1192230912	60	7054
2026-01-25 20:27:43.71	321.07	3.09	-43.5	-45.3	18.2	0.00e+00	0	41	0	1193279488	60	6654
2026-01-25 20:27:44.72	320.98	3.04	-43.8	-45.7	18.0	0.00e+00	0	41	0	1195376640	60	6955
2026-01-25 20:27:45.73	320.89	2.98	-49.6	-64.7	3.6	8.57e-02	0	41	104	1197473792	60	62351
2026-01-25 20:27:46.74	320.80	2.93	-50.0	-65.1	3.6	1.51e+00	0	41	104	1197473792	60	65298
2026-01-25 20:27:47.75	320.71	2.88	-50.3	-65.5	3.6	1.51e+00	0	41	104	1197473792	60	67896
2026-01-25 20:27:48.76	320.62	2.83	-50.4	-65.6	3.6	1.51e+00	0	41	104	1197473792	60	69195
