passes_logs/2026/01/25/R4.6S_Anadyr/R4.6S_Anadyr__20260125_142732_NOAA_21_JPSS-2_rec.log

#Pass ID: 20260125_142732_NOAA 21 (JPSS-2)
#Satellite: NOAA 21 (JPSS-2)
#Configuration: NOAA-21
#almurnet v.1.7.20251203
#Start time: 2026-01-25 14:27:35

#Version: 2.2.20231116
#Station: R4.6S_Anadyr
#Location: 177.4865 lon 64.73178 lat
#TLE: 1 54234U 22150A   26024.88063640  .00000198  00000+0  11499-3 0  9991
#TLE: 2 54234  98.7509 325.6613 0000743 218.4833 141.6291 14.19538975166219

#Time	Az	El	Level	Level2	SNR	BER	BlckErr	Temp	State	Recorded	gain1	gain2
2026-01-25 14:27:35.37	20.00	0.15	-50.5	-62.2	3.4	8.45e-01	0	39	0	0	60	46725
2026-01-25 14:27:36.38	20.02	0.22	-50.6	-63.5	3.5	1.52e+00	0	41	104	0	60	52548
2026-01-25 14:27:37.39	20.03	0.28	-50.6	-63.5	3.5	1.52e+00	0	41	104	0	60	52414
2026-01-25 14:27:38.40	20.04	0.34	-50.6	-63.5	3.5	1.52e+00	0	41	104	0	60	52659
2026-01-25 14:27:39.41	20.05	0.40	-50.6	-63.5	3.5	1.52e+00	0	41	104	0	60	52687
2026-01-25 14:27:40.42	20.06	0.46	-50.6	-63.5	3.5	1.52e+00	0	41	104	0	60	52660
2026-01-25 14:27:41.43	20.08	0.52	-50.6	-63.5	3.5	1.52e+00	0	41	104	0	60	52600
2026-01-25 14:27:42.44	20.09	0.58	-50.6	-63.5	3.5	1.52e+00	0	41	104	0	60	52698
2026-01-25 14:27:43.45	20.10	0.64	-50.7	-63.6	3.5	1.52e+00	0	41	104	0	60	52846
2026-01-25 14:27:44.46	20.11	0.70	-50.7	-63.5	3.5	1.52e+00	0	41	104	0	60	52780
2026-01-25 14:27:45.47	20.13	0.76	-50.7	-63.6	3.5	1.52e+00	0	41	104	0	60	53113
2026-01-25 14:27:46.48	20.14	0.82	-50.7	-63.5	3.5	1.52e+00	0	41	104	0	60	52721
2026-01-25 14:27:47.49	20.15	0.89	-50.6	-63.5	3.5	1.52e+00	0	41	104	0	60	52363
2026-01-25 14:27:48.50	20.17	0.95	-50.4	-63.5	3.5	1.52e+00	0	41	104	0	60	52414
2026-01-25 14:27:49.51	20.18	1.01	-50.5	-63.4	3.5	1.52e+00	0	41	104	0	60	51894
2026-01-25 14:27:50.52	20.19	1.07	-50.5	-63.4	3.5	1.52e+00	0	41	104	0	60	51684
2026-01-25 14:27:51.53	20.20	1.13	-50.4	-63.3	3.5	1.52e+00	0	41	104	0	60	51079
2026-01-25 14:27:52.54	20.22	1.20	-50.3	-63.2	3.5	1.52e+00	0	41	104	0	60	50500
2026-01-25 14:27:53.55	20.23	1.26	-50.2	-63.1	3.5	1.52e+00	0	41	104	0	60	50024
2026-01-25 14:27:54.56	20.24	1.32	-50.0	-63.0	3.5	1.52e+00	0	41	104	0	60	49346
2026-01-25 14:27:55.57	20.26	1.38	-50.0	-62.9	3.5	1.52e+00	0	41	104	0	60	48935
2026-01-25 14:27:56.58	20.27	1.45	-49.9	-62.8	3.5	1.51e+00	0	41	104	0	60	48280
2026-01-25 14:27:57.59	20.28	1.51	-49.7	-62.5	3.5	1.52e+00	0	41	104	0	60	47037
2026-01-25 14:27:58.60	20.29	1.57	-49.6	-62.4	3.5	1.52e+00	0	41	104	0	60	46375
2026-01-25 14:27:59.61	20.31	1.64	-49.2	-61.9	3.5	1.52e+00	0	41	104	0	60	43715
2026-01-25 14:28:00.62	20.32	1.70	-49.2	-62.0	3.5	1.52e+00	0	41	104	0	60	44043
2026-01-25 14:28:01.63	20.33	1.76	-49.2	-61.8	3.5	1.52e+00	0	41	104	0	60	43386
2026-01-25 14:28:02.64	20.35	1.83	-49.2	-62.0	3.5	1.51e+00	0	41	104	0	60	44174
2026-01-25 14:28:03.65	20.36	1.89	-49.2	-62.0	3.5	1.52e+00	0	41	104	0	60	44237
2026-01-25 14:28:04.66	20.37	1.95	-49.2	-62.0	3.5	1.52e+00	0	41	104	0	60	44187
2026-01-25 14:28:05.67	20.39	2.02	-49.2	-62.0	3.5	1.52e+00	0	41	104	0	60	44394
2026-01-25 14:28:06.68	20.40	2.08	-49.2	-62.0	3.5	1.52e+00	0	41	104	0	60	44386
2026-01-25 14:28:07.69	20.41	2.15	-49.2	-62.1	3.5	1.52e+00	0	41	104	0	60	44576
2026-01-25 14:28:08.70	20.43	2.21	-49.2	-62.1	3.5	1.52e+00	0	41	104	0	60	44508
2026-01-25 14:28:09.70	20.44	2.27	-49.2	-62.0	3.5	1.52e+00	0	41	104	0	60	44419
2026-01-25 14:28:10.71	20.45	2.34	-49.2	-61.9	3.5	1.52e+00	0	41	104	0	60	43456
2026-01-25 14:28:11.72	20.47	2.40	-49.2	-61.6	3.5	1.52e+00	0	41	104	0	60	42430
2026-01-25 14:28:12.73	20.48	2.47	-49.1	-61.2	3.5	1.52e+00	0	41	104	0	60	40076
2026-01-25 14:28:13.74	20.49	2.53	-49.1	-60.5	3.5	1.51e+00	0	41	104	0	60	37170
2026-01-25 14:28:14.75	20.51	2.60	-49.0	-59.8	3.5	1.51e+00	0	41	104	0	60	34413
2026-01-25 14:28:15.76	20.52	2.66	-49.0	-59.7	3.5	1.50e+00	0	41	104	0	60	33773
2026-01-25 14:28:16.77	20.54	2.73	-49.0	-60.0	3.7	1.50e+00	0	41	104	0	60	35288
2026-01-25 14:28:17.78	20.55	2.80	-49.1	-60.4	3.5	1.51e+00	0	41	104	0	60	36924
2026-01-25 14:28:18.79	20.56	2.86	-49.0	-60.0	3.8	1.50e+00	0	41	104	0	60	34924
2026-01-25 14:28:19.80	20.58	2.93	-48.7	-57.6	4.7	1.25e+00	123	41	104	0	60	26612
2026-01-25 14:28:20.81	20.59	2.99	-48.4	-55.5	5.7	6.32e-01	123	41	0	0	60	20958
2026-01-25 14:28:21.82	20.60	3.06	-47.1	-51.2	9.7	3.57e-02	123	41	0	3145728	60	12781
2026-01-25 14:28:22.83	20.62	3.13	-46.8	-50.5	10.7	6.72e-03	123	41	0	6291456	60	11793
2026-01-25 14:28:23.84	20.63	3.19	-45.2	-47.9	13.5	7.60e-06	122	41	0	9437184	60	8682
2026-01-25 14:28:24.85	20.65	3.26	-43.9	-46.0	15.7	1.50e-06	122	41	0	12582912	60	7008
2026-01-25 14:28:25.86	20.66	3.33	-42.9	-44.7	16.8	0.00e+00	122	41	0	15728640	60	6032
2026-01-25 14:28:26.86	20.67	3.40	-42.9	-44.7	16.5	0.00e+00	122	41	0	18874368	58	6757
2026-01-25 14:28:27.87	20.69	3.46	-42.8	-44.5	16.9	0.00e+00	123	41	0	22020096	58	6590
2026-01-25 14:28:28.88	20.70	3.53	-42.3	-43.9	17.3	0.00e+00	122	41	0	25165824	58	6175
2026-01-25 14:28:29.89	20.72	3.60	-41.9	-43.5	17.7	0.00e+00	122	41	0	28311552	56	6606
2026-01-25 14:28:30.91	20.73	3.67	-42.0	-43.6	17.8	0.00e+00	122	41	0	31457280	58	5939
2026-01-25 14:28:31.91	20.75	3.73	-43.2	-45.1	16.2	0.00e+00	122	41	0	34603008	58	7084
2026-01-25 14:28:32.92	20.76	3.80	-43.4	-45.3	15.7	0.00e+00	120	41	0	37748736	58	7229
2026-01-25 14:28:33.93	20.77	3.87	-40.1	-41.3	19.5	0.00e+00	123	41	0	40894464	54	5755
2026-01-25 14:28:34.94	20.79	3.94	-43.4	-45.3	15.7	0.00e+00	122	41	0	44040192	58	7218
2026-01-25 14:28:35.95	20.80	4.01	-49.1	-60.3	3.5	2.17e-02	0	41	104	46137344	60	36519
2026-01-25 14:28:36.96	20.82	4.08	-41.6	-43.1	18.3	0.00e+00	123	41	0	46137344	56	6335
2026-01-25 14:28:37.97	20.83	4.15	-48.9	-60.4	3.5	9.79e-01	0	41	104	48234496	60	36922
2026-01-25 14:28:38.98	20.85	4.22	-42.6	-44.6	16.8	1.31e+00	23	41	104	48234496	60	5967
2026-01-25 14:28:39.99	20.86	4.28	-42.9	-44.6	16.9	0.00e+00	123	41	0	49283072	58	6675
2026-01-25 14:28:41.00	20.88	4.35	-42.2	-43.7	17.7	0.00e+00	122	41	0	52428800	58	6032
2026-01-25 14:28:42.01	20.89	4.42	-42.9	-44.6	17.4	0.00e+00	123	41	0	55574528	58	6671
2026-01-25 14:28:43.02	20.91	4.49	-41.8	-43.3	18.0	0.00e+00	122	41	0	58720256	56	6483
2026-01-25 14:28:44.03	20.92	4.56	-42.8	-44.5	16.7	0.00e+00	123	41	0	61865984	58	6647
2026-01-25 14:28:45.03	20.94	4.63	-41.4	-42.8	18.5	0.00e+00	120	41	0	65011712	56	6112
2026-01-25 14:28:46.04	20.95	4.70	-43.2	-45.0	17.2	0.00e+00	123	41	0	68157440	58	7018
2026-01-25 14:28:47.05	20.97	4.78	-41.8	-43.3	17.8	0.00e+00	123	41	0	71303168	56	6480
2026-01-25 14:28:48.06	20.98	4.85	-41.3	-42.7	18.4	0.00e+00	123	41	0	74448896	56	5998
2026-01-25 14:28:49.07	21.00	4.92	-41.6	-43.0	18.4	0.00e+00	120	41	0	77594624	56	6251
2026-01-25 14:28:50.08	21.01	4.99	-41.7	-43.1	18.4	0.00e+00	123	41	0	80740352	56	6321
2026-01-25 14:28:51.09	21.03	5.06	-40.5	-41.7	19.4	0.00e+00	123	41	0	83886080	54	6058
2026-01-25 14:28:52.10	21.04	5.13	-41.7	-43.1	18.4	0.00e+00	123	41	0	87031808	56	6319
2026-01-25 14:28:53.11	21.06	5.20	-41.7	-43.2	18.3	0.00e+00	122	41	0	90177536	54	7134
2026-01-25 14:28:54.12	21.07	5.28	-41.0	-42.4	19.0	0.00e+00	123	41	0	93323264	56	5802
2026-01-25 14:28:55.13	21.09	5.35	-42.1	-43.7	17.9	0.00e+00	123	41	0	96468992	56	6733
2026-01-25 14:28:56.14	21.10	5.42	-41.9	-43.3	18.4	0.00e+00	123	41	0	99614720	56	6471
2026-01-25 14:28:57.15	21.12	5.49	-41.8	-43.3	18.4	0.00e+00	123	41	0	102760448	56	6444
2026-01-25 14:28:58.16	21.14	5.57	-39.8	-41.0	20.3	0.00e+00	123	42	0	105906176	50	6972
2026-01-25 14:28:59.17	21.15	5.64	-39.7	-40.9	20.5	0.00e+00	122	41	0	109051904	54	5500
2026-01-25 14:29:00.18	21.17	5.71	-39.4	-40.5	20.9	0.00e+00	123	41	0	112197632	52	5925
2026-01-25 14:29:01.19	21.18	5.79	-40.4	-41.7	20.1	0.00e+00	122	41	0	115343360	54	6018
2026-01-25 14:29:02.20	21.20	5.86	-41.1	-42.4	19.1	0.00e+00	123	41	0	118489088	52	7363
2026-01-25 14:29:03.21	21.21	5.93	-40.0	-41.2	20.1	0.00e+00	122	41	0	121634816	54	5714
2026-01-25 14:29:04.22	21.23	6.01	-39.1	-40.2	21.0	0.00e+00	122	41	0	124780544	52	5686
2026-01-25 14:29:05.23	21.25	6.08	-40.2	-41.4	19.6	0.00e+00	122	41	0	127926272	52	6573
2026-01-25 14:29:06.23	21.26	6.16	-39.7	-40.8	20.3	0.00e+00	123	41	0	131072000	52	6128
2026-01-25 14:29:07.24	21.28	6.23	-39.6	-40.8	20.7	0.00e+00	123	41	0	134217728	52	6098
2026-01-25 14:29:08.25	21.30	6.30	-39.9	-41.1	20.3	0.00e+00	121	41	0	137363456	50	7087
2026-01-25 14:29:09.26	21.31	6.38	-39.1	-40.2	21.1	0.00e+00	123	41	0	140509184	52	5696
2026-01-25 14:29:10.27	21.33	6.46	-38.3	-39.4	21.9	0.00e+00	123	41	0	143654912	50	5804
2026-01-25 14:29:11.28	21.34	6.53	-39.3	-40.4	21.0	0.00e+00	123	41	0	146800640	50	6569
2026-01-25 14:29:12.29	21.36	6.61	-38.5	-39.5	21.8	0.00e+00	120	42	0	149946368	50	5912
2026-01-25 14:29:13.30	21.38	6.68	-38.9	-39.9	21.4	0.00e+00	123	42	0	153092096	50	6196
2026-01-25 14:29:14.31	21.39	6.76	-38.3	-39.4	21.9	0.00e+00	123	41	0	156237824	50	5796
2026-01-25 14:29:15.32	21.41	6.84	-38.9	-39.9	21.5	0.00e+00	123	41	0	159383552	50	6186
2026-01-25 14:29:16.33	21.43	6.91	-38.7	-39.7	21.6	0.00e+00	122	41	0	162529280	50	6058
2026-01-25 14:29:17.34	21.44	6.99	-38.7	-39.8	21.5	0.00e+00	123	41	0	165675008	50	6095
2026-01-25 14:29:18.35	21.46	7.07	-38.3	-39.3	22.0	0.00e+00	122	41	0	168820736	50	5775
2026-01-25 14:29:19.36	21.48	7.14	-38.4	-39.4	21.8	0.00e+00	120	41	0	171966464	50	5830
2026-01-25 14:29:20.37	21.49	7.22	-39.0	-40.1	21.3	0.00e+00	123	42	0	175112192	50	6291
2026-01-25 14:29:21.38	21.51	7.30	-38.4	-39.4	21.9	0.00e+00	123	41	0	178257920	50	5835
2026-01-25 14:29:22.39	21.53	7.38	-38.6	-39.6	21.8	0.00e+00	122	41	0	181403648	50	5980
2026-01-25 14:29:23.40	21.55	7.46	-38.3	-39.4	22.0	0.00e+00	123	41	0	184549376	50	5794
2026-01-25 14:29:24.41	21.56	7.53	-38.7	-39.8	21.6	0.00e+00	123	41	0	187695104	50	6087
2026-01-25 14:29:25.42	21.58	7.61	-38.5	-39.5	21.9	0.00e+00	123	42	0	190840832	50	5922
2026-01-25 14:29:26.43	21.60	7.69	-38.8	-39.9	21.6	0.00e+00	122	42	0	193986560	50	6143
2026-01-25 14:29:27.43	21.62	7.77	-37.7	-38.7	22.7	0.00e+00	122	42	0	197132288	50	5370
2026-01-25 14:29:28.44	21.63	7.85	-38.5	-39.6	21.8	0.00e+00	123	42	0	200278016	48	6661
2026-01-25 14:29:29.45	21.65	7.93	-38.8	-39.8	21.6	0.00e+00	120	41	0	203423744	50	6124
2026-01-25 14:29:30.46	21.67	8.01	-38.4	-39.4	21.9	0.00e+00	123	41	0	206569472	50	5843
2026-01-25 14:29:31.47	21.69	8.09	-38.3	-39.4	22.0	0.00e+00	122	42	0	209715200	50	5803
2026-01-25 14:29:32.48	21.70	8.17	-38.3	-39.3	22.1	0.00e+00	122	41	0	212860928	50	5753
2026-01-25 14:29:33.48	21.72	8.25	-38.4	-39.4	22.0	0.00e+00	122	42	0	216006656	50	5851
2026-01-25 14:29:34.49	21.74	8.33	-38.6	-39.7	21.8	0.00e+00	120	41	0	219152384	50	6003
2026-01-25 14:29:35.50	21.76	8.41	-38.9	-39.9	21.5	0.00e+00	123	42	0	222298112	50	6197
2026-01-25 14:29:36.51	21.78	8.49	-38.3	-39.3	22.1	0.00e+00	123	42	0	225443840	50	5765
2026-01-25 14:29:37.52	21.79	8.58	-38.2	-39.2	22.2	0.00e+00	120	42	0	228589568	50	5713
2026-01-25 14:29:38.53	21.81	8.66	-38.4	-39.5	22.1	0.00e+00	123	41	0	231735296	50	5867
2026-01-25 14:29:39.54	21.83	8.74	-37.6	-38.6	22.6	0.00e+00	123	42	0	234881024	48	5970
2026-01-25 14:29:40.55	21.85	8.82	-38.0	-39.0	22.3	0.00e+00	122	42	0	238026752	48	6236
2026-01-25 14:29:41.56	21.87	8.91	-37.6	-38.6	22.6	0.00e+00	123	42	0	241172480	48	5975
2026-01-25 14:29:42.57	21.89	8.99	-38.0	-39.0	22.3	0.00e+00	121	42	0	244318208	48	6223
2026-01-25 14:29:43.58	21.90	9.07	-38.1	-39.1	22.1	0.00e+00	122	42	0	247463936	48	6281
2026-01-25 14:29:44.59	21.92	9.16	-37.9	-38.9	22.5	0.00e+00	123	42	0	250609664	48	6171
2026-01-25 14:29:45.60	21.94	9.24	-37.9	-38.9	22.5	0.00e+00	123	42	0	253755392	48	6136
2026-01-25 14:29:46.61	21.96	9.33	-37.9	-38.9	22.4	0.00e+00	123	42	0	256901120	48	6165
2026-01-25 14:29:47.61	21.98	9.41	-37.7	-38.7	22.6	0.00e+00	122	42	0	260046848	48	6048
2026-01-25 14:29:48.63	22.00	9.50	-37.7	-38.6	22.7	0.00e+00	120	42	0	263192576	48	5987
2026-01-25 14:29:49.63	22.02	9.58	-37.8	-38.8	22.6	0.00e+00	123	42	0	266338304	48	6120
2026-01-25 14:29:50.65	22.04	9.67	-37.5	-38.4	22.9	0.00e+00	120	42	0	269484032	48	5858
2026-01-25 14:29:51.65	22.06	9.75	-38.0	-39.0	22.4	0.00e+00	122	42	0	272629760	48	6275
2026-01-25 14:29:52.67	22.08	9.84	-37.4	-38.4	23.0	0.00e+00	121	42	0	275775488	48	5820
2026-01-25 14:29:53.68	22.10	9.92	-37.4	-38.4	23.0	0.00e+00	122	42	0	278921216	48	5818
2026-01-25 14:29:54.69	22.12	10.01	-37.8	-38.8	22.5	0.00e+00	123	42	0	282066944	48	6102
2026-01-25 14:29:55.70	22.14	10.10	-37.6	-38.6	22.8	0.00e+00	122	42	0	285212672	48	5937
2026-01-25 14:29:56.71	22.15	10.19	-37.8	-38.8	22.5	0.00e+00	123	41	0	288358400	48	6101
2026-01-25 14:29:57.71	22.17	10.27	-37.8	-38.8	22.6	0.00e+00	123	42	0	291504128	48	6124
2026-01-25 14:29:58.73	22.19	10.36	-37.8	-38.8	22.4	0.00e+00	123	42	0	294649856	48	6110
2026-01-25 14:29:59.73	22.21	10.45	-37.8	-38.8	22.6	0.00e+00	123	42	0	297795584	48	6066
2026-01-25 14:30:00.75	22.23	10.54	-37.6	-38.6	22.7	0.00e+00	123	42	0	300941312	48	5965
2026-01-25 14:30:01.76	22.26	10.63	-37.7	-38.7	22.7	0.00e+00	122	42	0	304087040	48	6047
2026-01-25 14:30:02.77	22.28	10.72	-37.4	-38.4	22.8	0.00e+00	123	42	0	307232768	48	5827
2026-01-25 14:30:03.78	22.30	10.81	-37.6	-38.5	22.8	0.00e+00	123	42	0	310378496	48	5920
2026-01-25 14:30:04.79	22.32	10.90	-37.6	-38.6	22.9	0.00e+00	120	42	0	313524224	48	5928
2026-01-25 14:30:05.79	22.34	10.98	-37.4	-38.4	23.0	0.00e+00	123	42	0	316669952	48	5837
2026-01-25 14:30:06.81	22.36	11.08	-37.5	-38.5	22.9	0.00e+00	122	42	0	319815680	48	5865
2026-01-25 14:30:07.82	22.38	11.17	-37.1	-38.0	23.2	0.00e+00	123	42	0	322961408	48	5580
2026-01-25 14:30:08.83	22.40	11.26	-37.3	-38.3	23.0	0.00e+00	123	42	0	326107136	48	5754
2026-01-25 14:30:09.84	22.42	11.35	-37.4	-38.3	23.1	0.00e+00	122	42	0	329252864	48	5763
2026-01-25 14:30:10.85	22.44	11.44	-37.3	-38.3	23.1	0.00e+00	123	42	0	333447168	48	5734
2026-01-25 14:30:11.86	22.46	11.53	-37.1	-38.0	23.3	0.00e+00	123	42	0	336592896	48	5592
2026-01-25 14:30:12.87	22.48	11.63	-37.3	-38.3	23.0	0.00e+00	123	42	0	339738624	48	5764
2026-01-25 14:30:13.88	22.51	11.72	-37.5	-38.5	22.9	0.00e+00	123	42	0	341835776	48	5888
2026-01-25 14:30:14.89	22.53	11.81	-37.1	-38.0	23.1	0.00e+00	123	42	0	344981504	48	5592
2026-01-25 14:30:15.90	22.55	11.91	-37.2	-38.1	23.1	0.00e+00	120	42	0	349175808	48	5641
2026-01-25 14:30:16.91	22.57	12.00	-37.1	-38.1	23.2	0.00e+00	122	42	0	352321536	48	5601
2026-01-25 14:30:17.91	22.59	12.09	-37.1	-38.1	23.2	0.00e+00	122	42	0	355467264	48	5631
2026-01-25 14:30:18.92	22.61	12.19	-37.0	-37.9	23.3	0.00e+00	123	42	0	358612992	48	5519
2026-01-25 14:30:19.93	22.64	12.28	-37.2	-38.1	23.2	0.00e+00	123	42	0	361758720	48	5659
2026-01-25 14:30:20.94	22.66	12.38	-37.0	-38.0	23.3	0.00e+00	123	42	0	364904448	48	5535
2026-01-25 14:30:21.95	22.68	12.47	-37.0	-37.9	23.4	0.00e+00	122	42	0	368050176	48	5522
2026-01-25 14:30:22.96	22.70	12.57	-37.0	-38.0	23.2	0.00e+00	120	42	0	371195904	48	5535
2026-01-25 14:30:23.97	22.73	12.67	-37.1	-38.1	23.3	0.00e+00	123	42	0	374341632	48	5597
2026-01-25 14:30:24.98	22.75	12.76	-37.4	-38.3	23.0	0.00e+00	123	42	0	377487360	48	5786
2026-01-25 14:30:25.99	22.77	12.86	-37.5	-38.5	22.9	0.00e+00	123	42	0	380633088	48	5888
2026-01-25 14:30:27.00	22.80	12.96	-37.5	-38.5	23.0	0.00e+00	123	42	0	383778816	48	5888
2026-01-25 14:30:28.01	22.82	13.06	-36.9	-37.9	23.5	0.00e+00	122	42	0	386924544	48	5479
2026-01-25 14:30:29.02	22.84	13.15	-36.8	-37.7	23.6	0.00e+00	122	42	0	390070272	48	5358
2026-01-25 14:30:30.03	22.86	13.25	-37.0	-37.9	23.6	0.00e+00	123	42	0	393216000	46	6182
2026-01-25 14:30:31.04	22.89	13.35	-36.7	-37.7	23.6	0.00e+00	122	42	0	396361728	46	6000
2026-01-25 14:30:32.05	22.91	13.45	-36.9	-37.8	23.5	0.00e+00	123	42	0	399507456	46	6123
2026-01-25 14:30:33.06	22.94	13.55	-36.9	-37.8	23.5	0.00e+00	122	42	0	402653184	46	6103
2026-01-25 14:30:34.07	22.96	13.65	-36.9	-37.8	23.5	0.00e+00	120	42	0	405798912	46	6124
2026-01-25 14:30:35.08	22.98	13.75	-36.8	-37.8	23.5	0.00e+00	122	42	0	408944640	46	6082
2026-01-25 14:30:36.09	23.01	13.86	-36.8	-37.7	23.7	0.00e+00	122	42	0	412090368	46	6044
2026-01-25 14:30:37.09	23.03	13.96	-36.9	-37.8	23.5	0.00e+00	122	42	0	415236096	46	6113
2026-01-25 14:30:38.10	23.06	14.06	-36.9	-37.8	23.6	0.00e+00	124	42	0	418381824	46	6100
2026-01-25 14:30:39.10	23.08	14.16	-36.7	-37.6	23.7	0.00e+00	120	42	0	421527552	46	5986
2026-01-25 14:30:40.11	23.10	14.26	-36.9	-37.9	23.5	0.00e+00	122	42	0	424673280	46	6139
2026-01-25 14:30:41.12	23.13	14.37	-36.7	-37.7	23.6	0.00e+00	122	42	0	427819008	46	6007
2026-01-25 14:30:42.13	23.15	14.47	-36.7	-37.6	23.7	0.00e+00	123	42	0	430964736	46	5943
2026-01-25 14:30:43.14	23.18	14.57	-36.7	-37.6	23.7	0.00e+00	123	42	0	434110464	46	5974
2026-01-25 14:30:44.15	23.20	14.68	-36.5	-37.5	23.8	0.00e+00	127	42	0	437256192	46	5864
2026-01-25 14:30:45.16	23.23	14.78	-36.6	-37.5	23.8	0.00e+00	123	42	0	440401920	46	5903
2026-01-25 14:30:46.17	23.26	14.89	-36.7	-37.6	23.8	0.00e+00	123	42	0	443547648	46	5954
2026-01-25 14:30:47.18	23.28	15.00	-36.7	-37.7	23.7	0.00e+00	120	42	0	446693376	46	6010
2026-01-25 14:30:48.19	23.31	15.10	-36.3	-37.2	24.0	0.00e+00	122	42	0	449839104	46	5709
2026-01-25 14:30:49.20	23.33	15.21	-36.5	-37.4	23.9	0.00e+00	122	42	0	452984832	46	5809
2026-01-25 14:30:50.21	23.36	15.32	-36.4	-37.3	24.0	0.00e+00	123	42	0	456130560	46	5753
2026-01-25 14:30:51.22	23.39	15.43	-36.4	-37.4	23.9	0.00e+00	123	42	0	459276288	46	5797
2026-01-25 14:30:52.23	23.41	15.53	-36.5	-37.4	23.9	0.00e+00	122	42	0	462422016	46	5798
2026-01-25 14:30:53.24	23.44	15.64	-36.7	-37.6	23.7	0.00e+00	122	42	0	465567744	46	5960
2026-01-25 14:30:54.25	23.47	15.75	-36.6	-37.5	23.8	0.00e+00	122	42	0	468713472	46	5912
2026-01-25 14:30:55.26	23.49	15.86	-36.6	-37.5	23.9	0.00e+00	123	42	0	471859200	46	5865
2026-01-25 14:30:56.27	23.52	15.97	-36.5	-37.4	23.9	0.00e+00	122	42	0	475004928	46	5822
2026-01-25 14:30:57.28	23.55	16.08	-36.4	-37.3	24.0	0.00e+00	122	42	0	478150656	46	5740
2026-01-25 14:30:58.29	23.57	16.19	-36.5	-37.4	24.0	0.00e+00	123	42	0	481296384	46	5803
2026-01-25 14:30:59.30	23.60	16.31	-36.3	-37.3	24.1	0.00e+00	123	42	0	484442112	46	5729
2026-01-25 14:31:00.31	23.63	16.42	-36.2	-37.1	24.2	0.00e+00	122	42	0	487587840	46	5654
2026-01-25 14:31:01.32	23.66	16.53	-36.4	-37.3	24.1	0.00e+00	122	42	0	490733568	46	5747
2026-01-25 14:31:02.33	23.69	16.65	-36.4	-37.3	24.1	0.00e+00	123	42	0	493879296	46	5736
2026-01-25 14:31:03.34	23.71	16.76	-36.4	-37.3	24.0	0.00e+00	122	42	0	497025024	46	5741
2026-01-25 14:31:04.35	23.74	16.87	-36.5	-37.4	24.0	0.00e+00	123	42	0	500170752	46	5802
2026-01-25 14:31:05.36	23.77	16.99	-36.3	-37.2	24.1	0.00e+00	123	42	0	503316480	46	5679
2026-01-25 14:31:06.37	23.80	17.11	-36.3	-37.2	24.1	0.00e+00	123	42	0	506462208	46	5671
2026-01-25 14:31:07.38	23.83	17.22	-36.3	-37.2	24.1	0.00e+00	123	42	0	509607936	46	5722
2026-01-25 14:31:08.39	23.86	17.34	-36.4	-37.3	24.1	0.00e+00	122	42	0	512753664	46	5727
2026-01-25 14:31:09.40	23.89	17.46	-36.3	-37.2	24.1	0.00e+00	123	42	0	515899392	46	5666
2026-01-25 14:31:10.41	23.92	17.57	-36.3	-37.2	24.1	0.00e+00	123	42	0	519045120	46	5724
2026-01-25 14:31:11.42	23.95	17.69	-36.4	-37.3	24.1	0.00e+00	123	42	0	522190848	46	5778
2026-01-25 14:31:12.43	23.98	17.81	-36.4	-37.3	24.0	0.00e+00	123	42	0	525336576	46	5788
2026-01-25 14:31:13.44	24.01	17.93	-36.2	-37.1	24.1	0.00e+00	123	42	0	528482304	46	5654
2026-01-25 14:31:14.45	24.04	18.05	-36.3	-37.2	24.1	0.00e+00	123	42	0	531628032	46	5690
2026-01-25 14:31:15.46	24.07	18.17	-36.4	-37.3	24.0	0.00e+00	122	42	0	534773760	46	5747
2026-01-25 14:31:16.47	24.10	18.29	-36.2	-37.1	24.2	0.00e+00	123	42	0	537919488	46	5638
2026-01-25 14:31:17.47	24.13	18.41	-36.4	-37.3	24.0	0.00e+00	122	42	0	541065216	46	5759
2026-01-25 14:31:18.48	24.16	18.54	-36.3	-37.2	24.2	0.00e+00	123	42	0	544210944	46	5686
2026-01-25 14:31:19.49	24.19	18.66	-36.4	-37.3	24.1	0.00e+00	123	42	0	547356672	46	5743
2026-01-25 14:31:20.50	24.23	18.78	-36.5	-37.4	24.0	0.00e+00	122	42	0	550502400	46	5840
2026-01-25 14:31:21.51	24.26	18.91	-36.4	-37.3	24.1	0.00e+00	122	42	0	553648128	46	5748
2026-01-25 14:31:22.52	24.29	19.03	-36.3	-37.2	24.2	0.00e+00	123	42	0	556793856	46	5674
2026-01-25 14:31:23.53	24.32	19.16	-36.3	-37.2	24.1	0.00e+00	122	42	0	559939584	46	5693
2026-01-25 14:31:24.54	24.35	19.28	-36.5	-37.4	24.0	0.00e+00	120	42	0	563085312	46	5808
2026-01-25 14:31:25.55	24.39	19.41	-36.4	-37.4	24.0	0.00e+00	122	42	0	566231040	46	5796
2026-01-25 14:31:26.56	24.42	19.54	-36.5	-37.4	24.0	0.00e+00	122	42	0	569376768	46	5809
2026-01-25 14:31:27.57	24.45	19.67	-36.4	-37.3	24.1	0.00e+00	123	42	0	572522496	46	5753
2026-01-25 14:31:28.58	24.49	19.80	-36.4	-37.3	24.1	0.00e+00	122	42	0	575668224	46	5742
2026-01-25 14:31:29.59	24.52	19.92	-36.3	-37.2	24.1	0.00e+00	123	42	0	578813952	46	5718
2026-01-25 14:31:30.60	24.56	20.05	-36.4	-37.3	24.1	0.00e+00	122	42	0	581959680	46	5768
2026-01-25 14:31:31.61	24.59	20.19	-36.2	-37.1	24.2	0.00e+00	120	42	0	585105408	46	5623
2026-01-25 14:31:32.62	24.62	20.32	-36.3	-37.2	24.1	0.00e+00	122	42	0	588251136	46	5678
2026-01-25 14:31:33.63	24.66	20.45	-36.3	-37.2	24.1	0.00e+00	123	42	0	591396864	46	5660
2026-01-25 14:31:34.64	24.69	20.58	-36.3	-37.2	24.1	0.00e+00	122	42	0	594542592	46	5690
2026-01-25 14:31:35.65	24.73	20.72	-36.2	-37.1	24.3	0.00e+00	123	42	0	597688320	46	5623
2026-01-25 14:31:36.65	24.77	20.85	-36.1	-37.0	24.2	0.00e+00	120	42	0	600834048	46	5559
2026-01-25 14:31:37.66	24.80	20.98	-35.9	-36.8	24.4	0.00e+00	122	42	0	603979776	46	5437
2026-01-25 14:31:38.67	24.84	21.12	-35.8	-36.7	24.4	0.00e+00	123	42	0	607125504	44	6035
2026-01-25 14:31:39.68	24.87	21.26	-35.8	-36.7	24.4	0.00e+00	123	42	0	610271232	44	6029
2026-01-25 14:31:40.69	24.91	21.39	-35.7	-36.5	24.5	0.00e+00	123	42	0	613416960	44	5922
2026-01-25 14:31:41.70	24.95	21.53	-35.6	-36.5	24.5	0.00e+00	123	42	0	616562688	44	5896
2026-01-25 14:31:42.71	24.99	21.67	-35.5	-36.4	24.6	0.00e+00	122	42	0	619708416	44	5842
2026-01-25 14:31:43.72	25.02	21.81	-35.4	-36.3	24.7	0.00e+00	123	42	0	622854144	44	5768
2026-01-25 14:31:44.73	25.06	21.95	-35.4	-36.2	24.7	0.00e+00	120	42	0	625999872	44	5723
2026-01-25 14:31:45.74	25.10	22.09	-35.3	-36.2	24.8	0.00e+00	122	42	0	629145600	44	5674
2026-01-25 14:31:46.75	25.14	22.23	-35.3	-36.2	24.7	0.00e+00	123	42	0	632291328	44	5714
2026-01-25 14:31:47.76	25.18	22.37	-35.2	-36.0	24.8	0.00e+00	120	42	0	635437056	44	5591
2026-01-25 14:31:48.77	25.22	22.52	-35.1	-36.0	24.9	0.00e+00	123	42	0	638582784	44	5562
2026-01-25 14:31:49.78	25.26	22.66	-35.1	-36.0	24.9	0.00e+00	123	42	0	641728512	44	5545
2026-01-25 14:31:50.79	25.30	22.81	-35.2	-36.0	24.9	0.00e+00	123	42	0	644874240	44	5588
2026-01-25 14:31:51.80	25.34	22.95	-35.1	-36.0	25.0	0.00e+00	123	42	0	648019968	44	5542
2026-01-25 14:31:52.81	25.38	23.10	-35.1	-36.0	24.9	0.00e+00	120	42	0	651165696	44	5559
2026-01-25 14:31:53.82	25.42	23.25	-34.9	-35.8	25.2	0.00e+00	122	42	0	654311424	44	5421
2026-01-25 14:31:54.84	25.46	23.40	-35.1	-35.9	25.0	0.00e+00	123	42	0	657457152	44	5519
2026-01-25 14:31:55.85	25.50	23.55	-35.1	-35.9	25.0	0.00e+00	124	42	0	660602880	44	5525
2026-01-25 14:31:56.86	25.54	23.70	-34.9	-35.8	25.2	0.00e+00	123	42	0	663748608	44	5408
2026-01-25 14:31:57.87	25.58	23.85	-35.0	-35.9	25.1	0.00e+00	123	42	0	666894336	44	5505
2026-01-25 14:31:58.88	25.63	24.00	-35.1	-36.0	25.0	0.00e+00	120	42	0	670040064	44	5554
2026-01-25 14:31:59.88	25.67	24.15	-34.9	-35.8	25.1	0.00e+00	123	42	0	673185792	44	5429
2026-01-25 14:32:00.90	25.71	24.30	-34.9	-35.8	25.2	0.00e+00	123	42	0	677380096	44	5436
2026-01-25 14:32:01.91	25.76	24.46	-35.0	-35.8	25.1	0.00e+00	123	42	0	680525824	44	5451
2026-01-25 14:32:02.92	25.80	24.61	-34.9	-35.8	25.2	0.00e+00	122	42	0	682622976	44	5421
2026-01-25 14:32:03.93	25.85	24.77	-35.0	-35.8	25.2	0.00e+00	123	42	0	685768704	44	5459
2026-01-25 14:32:04.94	25.89	24.93	-34.9	-35.8	25.3	0.00e+00	123	42	0	688914432	44	5428
2026-01-25 14:32:05.95	25.94	25.08	-35.1	-36.0	25.1	0.00e+00	122	42	0	693108736	44	5555
2026-01-25 14:32:06.96	25.98	25.24	-35.2	-36.1	25.0	0.00e+00	123	42	0	696254464	44	5613
2026-01-25 14:32:07.97	26.03	25.40	-35.2	-36.1	25.0	0.00e+00	122	42	0	699400192	44	5607
2026-01-25 14:32:08.98	26.08	25.56	-35.4	-36.2	24.9	0.00e+00	123	42	0	702545920	44	5709
2026-01-25 14:32:09.99	26.12	25.73	-35.4	-36.2	24.9	0.00e+00	120	42	0	704643072	44	5719
2026-01-25 14:32:10.99	26.17	25.89	-35.6	-36.5	24.6	0.00e+00	123	42	0	708837376	44	5890
2026-01-25 14:32:12.00	26.22	26.05	-35.7	-36.6	24.6	0.00e+00	120	42	0	711983104	44	5941
2026-01-25 14:32:13.01	26.27	26.22	-35.8	-36.7	24.6	0.00e+00	120	42	0	715128832	44	6029
2026-01-25 14:32:14.02	26.32	26.38	-36.0	-36.9	24.4	0.00e+00	123	42	0	718274560	44	6185
2026-01-25 14:32:15.03	26.36	26.55	-36.1	-37.0	24.3	0.00e+00	120	42	0	721420288	44	6244
2026-01-25 14:32:16.04	26.41	26.72	-36.2	-37.1	24.3	0.00e+00	123	42	0	724566016	44	6319
2026-01-25 14:32:17.05	26.47	26.88	-36.1	-37.0	24.3	0.00e+00	123	42	0	727711744	44	6215
2026-01-25 14:32:18.06	26.52	27.05	-36.3	-37.2	24.1	0.00e+00	123	42	0	730857472	44	6394
2026-01-25 14:32:19.07	26.57	27.23	-36.4	-37.3	24.1	0.00e+00	122	42	0	734003200	44	6486
2026-01-25 14:32:20.08	26.62	27.40	-36.5	-37.4	23.9	0.00e+00	123	42	0	737148928	44	6567
2026-01-25 14:32:21.09	26.67	27.57	-36.6	-37.5	24.0	0.00e+00	123	42	0	740294656	44	6612
2026-01-25 14:32:22.10	26.72	27.74	-36.8	-37.7	23.8	0.00e+00	120	42	0	743440384	44	6753
2026-01-25 14:32:23.11	26.78	27.92	-36.8	-37.7	23.9	0.00e+00	123	42	0	746586112	46	6011
2026-01-25 14:32:24.11	26.83	28.09	-36.6	-37.5	24.0	0.00e+00	123	42	0	749731840	46	5888
2026-01-25 14:32:25.13	26.89	28.27	-36.6	-37.5	24.0	0.00e+00	123	42	0	752877568	46	5862
2026-01-25 14:32:26.13	26.94	28.45	-36.4	-37.3	24.2	0.00e+00	123	42	0	756023296	46	5768
2026-01-25 14:32:27.14	27.00	28.63	-36.6	-37.5	24.0	0.00e+00	123	42	0	759169024	46	5878
2026-01-25 14:32:28.15	27.05	28.81	-36.6	-37.6	23.9	0.00e+00	123	42	0	762314752	46	5934
2026-01-25 14:32:29.16	27.11	28.99	-36.5	-37.4	23.9	0.00e+00	120	42	0	765460480	46	5810
2026-01-25 14:32:30.17	27.17	29.18	-36.5	-37.4	23.8	0.00e+00	123	42	0	768606208	46	5845
2026-01-25 14:32:31.18	27.23	29.36	-36.6	-37.5	23.7	0.00e+00	122	42	0	771751936	46	5896
2026-01-25 14:32:32.19	27.28	29.54	-36.3	-37.3	23.8	0.00e+00	122	42	0	774897664	46	5731
2026-01-25 14:32:33.20	27.34	29.73	-36.1	-37.0	24.1	0.00e+00	120	42	0	778043392	46	5564
2026-01-25 14:32:34.21	27.40	29.92	-36.2	-37.1	24.0	0.00e+00	122	42	0	781189120	46	5598
2026-01-25 14:32:35.22	27.46	30.11	-36.1	-37.0	24.0	0.00e+00	120	42	0	784334848	46	5566
2026-01-25 14:32:36.23	27.53	30.30	-36.1	-37.0	24.0	0.00e+00	123	42	0	787480576	46	5546
2026-01-25 14:32:37.24	27.59	30.49	-36.1	-37.0	23.9	0.00e+00	123	42	0	790626304	46	5581
2026-01-25 14:32:38.25	27.65	30.68	-36.2	-37.1	24.0	0.00e+00	123	42	0	793772032	46	5624
2026-01-25 14:32:39.26	27.71	30.88	-36.0	-36.9	24.0	0.00e+00	120	42	0	796917760	46	5516
2026-01-25 14:32:40.26	27.78	31.07	-36.1	-37.1	24.0	0.00e+00	122	42	0	800063488	46	5597
2026-01-25 14:32:41.27	27.84	31.27	-35.9	-36.8	24.0	0.00e+00	120	42	0	803209216	46	5449
2026-01-25 14:32:42.28	27.91	31.46	-36.1	-37.0	23.9	0.00e+00	123	42	0	806354944	46	5569
2026-01-25 14:32:43.29	27.97	31.66	-36.1	-37.0	23.9	0.00e+00	120	42	0	809500672	46	5572
2026-01-25 14:32:44.30	28.04	31.86	-36.1	-37.0	23.8	0.00e+00	123	42	0	812646400	46	5586
2026-01-25 14:32:45.31	28.11	32.07	-36.2	-37.1	23.8	0.00e+00	123	42	0	815792128	46	5639
2026-01-25 14:32:46.32	28.18	32.27	-36.2	-37.1	23.9	0.00e+00	122	42	0	818937856	46	5644
2026-01-25 14:32:47.33	28.25	32.47	-36.3	-37.2	23.8	0.00e+00	122	42	0	822083584	46	5696
2026-01-25 14:32:48.34	28.32	32.68	-36.3	-37.3	23.8	0.00e+00	120	42	0	825229312	46	5743
2026-01-25 14:32:49.35	28.39	32.89	-36.4	-37.3	23.9	0.00e+00	122	42	0	828375040	46	5769
2026-01-25 14:32:50.36	28.46	33.10	-36.5	-37.4	23.9	0.00e+00	123	42	0	831520768	46	5846
2026-01-25 14:32:51.36	28.53	33.30	-36.5	-37.4	23.9	0.00e+00	122	42	0	834666496	46	5858
2026-01-25 14:32:52.37	28.60	33.51	-36.6	-37.5	23.9	0.00e+00	120	42	0	837812224	46	5919
2026-01-25 14:32:53.38	28.68	33.73	-36.6	-37.5	23.9	0.00e+00	122	42	0	840957952	46	5920
2026-01-25 14:32:54.39	28.75	33.94	-36.9	-37.9	23.7	0.00e+00	122	42	0	844103680	46	6135
2026-01-25 14:32:55.40	28.83	34.16	-37.0	-37.9	23.7	0.00e+00	123	42	0	847249408	46	6177
2026-01-25 14:32:56.41	28.91	34.38	-37.0	-37.9	23.7	0.00e+00	122	42	0	850395136	46	6161
2026-01-25 14:32:57.42	28.99	34.59	-37.1	-38.0	23.6	0.00e+00	120	42	0	853540864	46	6249
2026-01-25 14:32:58.43	29.07	34.81	-37.5	-38.4	23.3	0.00e+00	122	42	0	856686592	46	6562
2026-01-25 14:32:59.44	29.15	35.04	-37.5	-38.5	23.2	0.00e+00	123	42	0	859832320	46	6604
2026-01-25 14:33:00.45	29.23	35.26	-37.8	-38.7	23.0	0.00e+00	123	42	0	862978048	48	6058
2026-01-25 14:33:01.46	29.31	35.48	-38.0	-39.0	22.8	0.00e+00	123	42	0	866123776	48	6267
2026-01-25 14:33:02.47	29.40	35.71	-38.2	-39.2	22.6	0.00e+00	122	42	0	869269504	48	6376
2026-01-25 14:33:03.48	29.48	35.94	-38.3	-39.4	22.5	0.00e+00	122	42	0	872415232	48	6512
2026-01-25 14:33:04.49	29.57	36.17	-38.6	-39.7	22.3	0.00e+00	123	42	0	875560960	48	6738
2026-01-25 14:33:05.50	29.65	36.40	-38.9	-40.0	22.0	0.00e+00	123	42	0	878706688	50	6229
2026-01-25 14:33:06.51	29.74	36.63	-39.1	-40.2	21.8	0.00e+00	122	42	0	881852416	50	6383
2026-01-25 14:33:07.52	29.83	36.87	-39.2	-40.3	21.7	0.00e+00	120	42	0	884998144	50	6476
2026-01-25 14:33:08.53	29.92	37.10	-39.3	-40.4	21.7	0.00e+00	123	42	0	888143872	50	6520
2026-01-25 14:33:09.54	30.01	37.34	-39.3	-40.4	21.6	0.00e+00	123	42	0	891289600	50	6570
2026-01-25 14:33:10.55	30.11	37.58	-39.4	-40.5	21.6	0.00e+00	123	42	0	894435328	50	6625
2026-01-25 14:33:11.56	30.20	37.82	-39.3	-40.4	21.6	0.00e+00	122	42	0	897581056	50	6506
2026-01-25 14:33:12.57	30.30	38.06	-39.2	-40.3	21.6	0.00e+00	122	42	0	900726784	50	6490
2026-01-25 14:33:13.58	30.39	38.31	-39.1	-40.2	21.7	0.00e+00	123	42	0	903872512	50	6391
2026-01-25 14:33:14.58	30.49	38.55	-39.2	-40.3	21.8	0.00e+00	123	42	0	907018240	50	6430
2026-01-25 14:33:15.59	30.59	38.80	-39.0	-40.1	21.9	0.00e+00	123	42	0	910163968	50	6282
2026-01-25 14:33:16.60	30.69	39.05	-38.9	-40.0	22.1	0.00e+00	123	42	0	913309696	50	6216
2026-01-25 14:33:17.61	30.80	39.30	-38.7	-39.7	22.2	0.00e+00	123	42	0	916455424	50	6046
2026-01-25 14:33:18.62	30.90	39.55	-38.5	-39.5	22.5	0.00e+00	123	42	0	919601152	50	5923
2026-01-25 14:33:19.63	31.01	39.80	-38.3	-39.3	22.5	0.00e+00	123	42	0	922746880	50	5787
2026-01-25 14:33:20.64	31.12	40.06	-38.6	-39.6	22.4	0.00e+00	123	42	0	925892608	50	5961
2026-01-25 14:33:21.65	31.23	40.32	-38.5	-39.5	22.4	0.00e+00	122	42	0	929038336	50	5915
2026-01-25 14:33:22.66	31.34	40.58	-38.6	-39.6	22.3	0.00e+00	122	42	0	932184064	50	5991
2026-01-25 14:33:23.67	31.45	40.84	-38.8	-39.9	22.1	0.00e+00	123	42	0	935329792	50	6136
2026-01-25 14:33:24.68	31.57	41.10	-38.6	-39.7	22.2	0.00e+00	123	42	0	938475520	50	6003
2026-01-25 14:33:25.69	31.68	41.37	-38.7	-39.8	22.2	0.00e+00	120	42	0	941621248	50	6074
2026-01-25 14:33:26.70	31.80	41.64	-38.5	-39.5	22.4	0.00e+00	122	42	0	944766976	50	5908
2026-01-25 14:33:27.70	31.92	41.90	-38.5	-39.5	22.4	0.00e+00	123	42	0	947912704	50	5901
2026-01-25 14:33:28.71	32.04	42.17	-38.4	-39.4	22.6	0.00e+00	123	42	0	951058432	50	5815
2026-01-25 14:33:29.72	32.17	42.44	-38.2	-39.2	22.8	0.00e+00	122	42	0	954204160	50	5660
2026-01-25 14:33:30.73	32.29	42.72	-38.1	-39.0	22.8	0.00e+00	123	42	0	957349888	50	5575
2026-01-25 14:33:31.74	32.42	43.00	-38.1	-39.1	22.7	0.00e+00	123	42	0	960495616	50	5617
2026-01-25 14:33:32.75	32.55	43.27	-38.0	-38.9	22.7	0.00e+00	123	42	0	963641344	50	5528
2026-01-25 14:33:33.76	32.68	43.55	-37.9	-38.9	22.7	0.00e+00	123	42	0	966787072	50	5500
2026-01-25 14:33:34.77	32.82	43.84	-38.2	-39.2	22.5	0.00e+00	122	42	0	969932800	50	5713
2026-01-25 14:33:35.78	32.96	44.12	-38.0	-39.0	22.7	0.00e+00	122	42	0	973078528	50	5557
2026-01-25 14:33:36.79	33.10	44.41	-38.0	-38.9	22.8	0.00e+00	123	42	0	976224256	50	5529
2026-01-25 14:33:37.80	33.24	44.69	-38.2	-39.1	22.7	0.00e+00	122	42	0	979369984	50	5649
2026-01-25 14:33:38.81	33.38	44.98	-38.2	-39.2	22.7	0.00e+00	123	42	0	982515712	50	5693
2026-01-25 14:33:39.82	33.53	45.27	-38.4	-39.4	22.6	0.00e+00	122	42	0	985661440	50	5834
2026-01-25 14:33:40.82	33.68	45.57	-38.4	-39.4	22.5	0.00e+00	122	42	0	988807168	50	5802
2026-01-25 14:33:41.83	33.83	45.86	-38.3	-39.2	22.6	0.00e+00	123	42	0	991952896	50	5725
2026-01-25 14:33:42.84	33.99	46.16	-38.2	-39.2	22.7	0.00e+00	120	42	0	995098624	50	5692
2026-01-25 14:33:43.85	34.15	46.46	-38.2	-39.1	22.8	0.00e+00	123	42	0	998244352	50	5656
2026-01-25 14:33:44.86	34.31	46.76	-38.0	-38.9	23.0	0.00e+00	120	42	0	1001390080	50	5526
2026-01-25 14:33:45.87	34.47	47.06	-38.0	-38.9	22.9	0.00e+00	122	42	0	1004535808	50	5519
2026-01-25 14:33:46.89	34.64	47.37	-37.9	-38.9	22.9	0.00e+00	122	42	0	1007681536	50	5498
2026-01-25 14:33:47.89	34.81	47.68	-37.7	-38.7	23.0	0.00e+00	123	42	0	1010827264	48	6007
2026-01-25 14:33:48.90	34.99	47.98	-37.9	-38.9	22.8	0.00e+00	122	42	0	1013972992	48	6180
2026-01-25 14:33:49.91	35.17	48.30	-38.1	-39.1	22.7	0.00e+00	123	42	0	1017118720	48	6290
2026-01-25 14:33:50.92	35.35	48.61	-38.3	-39.3	22.5	0.00e+00	123	42	0	1020264448	48	6466
2026-01-25 14:33:51.93	35.53	48.92	-38.2	-39.2	22.4	0.00e+00	123	42	0	1023410176	48	6415
2026-01-25 14:33:52.94	35.72	49.24	-38.2	-39.2	22.4	0.00e+00	123	42	0	1026555904	48	6370
2026-01-25 14:33:53.95	35.91	49.56	-38.4	-39.4	22.4	0.00e+00	122	42	0	1029701632	48	6518
2026-01-25 14:33:54.96	36.11	49.88	-38.5	-39.6	22.2	0.00e+00	122	42	0	1032847360	48	6699
2026-01-25 14:33:55.97	36.31	50.20	-38.5	-39.6	22.0	0.00e+00	120	42	0	1035993088	48	6662
2026-01-25 14:33:56.98	36.52	50.53	-38.7	-39.8	22.0	0.00e+00	122	42	0	1039138816	48	6853
2026-01-25 14:33:57.99	36.73	50.86	-38.7	-39.8	22.1	0.00e+00	122	42	0	1042284544	50	6095
2026-01-25 14:33:59.00	36.94	51.18	-38.6	-39.6	22.3	0.00e+00	122	42	0	1045430272	50	5975
2026-01-25 14:34:00.01	37.16	51.52	-38.1	-39.2	22.8	0.00e+00	123	42	0	1048576000	50	5665
2026-01-25 14:34:01.02	37.38	51.85	-37.9	-38.9	22.9	0.00e+00	122	42	0	1051721728	50	5484
2026-01-25 14:34:02.03	37.61	52.18	-37.7	-38.7	23.1	0.00e+00	123	42	0	1054867456	48	6008
2026-01-25 14:34:03.03	37.84	52.52	-37.8	-38.8	23.0	0.00e+00	123	42	0	1058013184	48	6106
2026-01-25 14:34:04.04	38.08	52.85	-37.9	-38.9	22.8	0.00e+00	122	42	0	1062207488	48	6174
2026-01-25 14:34:05.05	38.32	53.19	-37.4	-38.4	23.3	0.00e+00	123	42	0	1065353216	48	5816
2026-01-25 14:34:06.06	38.57	53.54	-37.1	-38.0	23.6	0.00e+00	123	42	0	1068498944	48	5587
2026-01-25 14:34:07.07	38.83	53.88	-36.8	-37.8	23.9	0.00e+00	122	42	0	1070596096	48	5410
2026-01-25 14:34:08.08	39.09	54.22	-36.1	-37.0	24.5	0.00e+00	123	42	0	1073741824	46	5557
2026-01-25 14:34:09.09	39.36	54.57	-36.0	-36.9	24.5	0.00e+00	123	42	0	1076887552	46	5486
2026-01-25 14:34:10.09	39.63	54.92	-36.0	-36.9	24.5	0.00e+00	122	42	0	1081081856	46	5475
2026-01-25 14:34:11.10	39.91	55.27	-35.5	-36.3	25.0	0.00e+00	123	42	0	1084227584	44	5787
2026-01-25 14:34:12.11	40.20	55.62	-35.4	-36.3	25.0	0.00e+00	124	42	0	1087373312	44	5762
2026-01-25 14:34:13.12	40.50	55.97	-35.3	-36.2	24.8	0.00e+00	123	42	0	1090519040	44	5678
2026-01-25 14:34:14.13	40.80	56.33	-35.5	-36.4	24.6	0.00e+00	123	42	0	1092616192	44	5813
2026-01-25 14:34:15.14	41.11	56.68	-35.4	-36.3	24.6	0.00e+00	121	42	0	1096810496	44	5770
2026-01-25 14:34:16.15	41.43	57.04	-35.6	-36.5	24.7	0.00e+00	122	42	0	1099956224	44	5875
2026-01-25 14:34:17.16	41.76	57.40	-35.4	-36.3	24.8	0.00e+00	123	42	0	1103101952	44	5781
2026-01-25 14:34:18.17	42.10	57.76	-35.6	-36.5	24.8	0.00e+00	123	42	0	1106247680	44	5874
2026-01-25 14:34:19.18	42.44	58.13	-35.4	-36.3	24.9	0.00e+00	122	42	0	1109393408	44	5743
2026-01-25 14:34:20.19	42.80	58.49	-35.4	-36.3	24.9	0.00e+00	123	42	0	1112539136	44	5741
2026-01-25 14:34:21.20	43.16	58.85	-35.0	-35.9	25.1	0.00e+00	122	42	0	1115684864	44	5495
2026-01-25 14:34:22.21	43.53	59.22	-35.1	-36.0	25.1	0.00e+00	122	42	0	1118830592	44	5550
2026-01-25 14:34:23.22	43.92	59.59	-34.8	-35.7	25.3	0.00e+00	123	42	0	1121976320	44	5353
2026-01-25 14:34:24.23	44.31	59.96	-34.7	-35.5	25.4	0.00e+00	123	42	0	1125122048	42	5920
2026-01-25 14:34:25.24	44.72	60.32	-34.6	-35.4	25.5	0.00e+00	122	42	0	1128267776	42	5851
2026-01-25 14:34:26.25	45.14	60.69	-34.7	-35.5	25.5	0.00e+00	122	42	0	1131413504	42	5892
2026-01-25 14:34:27.26	45.57	61.06	-34.4	-35.2	25.6	0.00e+00	122	42	0	1134559232	42	5706
2026-01-25 14:34:28.27	46.02	61.44	-34.1	-35.0	25.8	0.00e+00	123	42	0	1137704960	42	5537
2026-01-25 14:34:29.28	46.47	61.81	-34.2	-35.0	25.8	0.00e+00	120	42	0	1140850688	42	5539
2026-01-25 14:34:30.29	46.95	62.18	-34.0	-34.8	25.8	0.00e+00	123	42	0	1143996416	42	5458
2026-01-25 14:34:31.29	47.43	62.55	-34.0	-34.8	25.8	0.00e+00	120	42	0	1147142144	42	5423
2026-01-25 14:34:32.30	47.93	62.92	-33.7	-34.5	25.9	0.00e+00	122	42	0	1150287872	40	5879
2026-01-25 14:34:33.31	48.44	63.30	-33.7	-34.5	25.7	0.00e+00	120	42	0	1153433600	40	5869
2026-01-25 14:34:34.32	48.98	63.67	-33.9	-34.7	25.6	0.00e+00	123	42	0	1156579328	40	6058
2026-01-25 14:34:35.33	49.53	64.04	-34.4	-35.3	25.5	0.00e+00	122	42	0	1159725056	40	6441
2026-01-25 14:34:36.34	50.10	64.42	-34.4	-35.3	25.6	0.00e+00	120	42	0	1162870784	40	6425
2026-01-25 14:34:37.35	50.68	64.79	-34.5	-35.3	25.5	0.00e+00	122	42	0	1166016512	40	6494
2026-01-25 14:34:38.35	51.28	65.16	-34.4	-35.2	25.3	0.00e+00	120	42	0	1169162240	40	6420
2026-01-25 14:34:39.36	51.91	65.53	-34.6	-35.5	25.3	0.00e+00	123	42	0	1172307968	40	6607
2026-01-25 14:34:40.37	52.56	65.90	-34.7	-35.6	25.1	0.00e+00	123	42	0	1175453696	42	5962
2026-01-25 14:34:41.38	53.23	66.27	-34.8	-35.7	25.2	0.00e+00	122	42	0	1178599424	42	6024
2026-01-25 14:34:42.39	53.92	66.63	-34.5	-35.3	25.5	0.00e+00	123	42	0	1181745152	42	5779
2026-01-25 14:34:43.40	54.64	67.00	-34.5	-35.4	25.4	0.00e+00	122	42	0	1184890880	42	5802
2026-01-25 14:34:44.41	55.38	67.37	-34.7	-35.6	25.2	0.00e+00	123	42	0	1188036608	42	5940
2026-01-25 14:34:45.42	56.15	67.73	-34.9	-35.8	25.1	0.00e+00	120	42	0	1191182336	42	6106
2026-01-25 14:34:46.43	56.95	68.09	-34.8	-35.7	25.0	0.00e+00	123	42	0	1194328064	42	6032
2026-01-25 14:34:47.44	57.77	68.45	-34.8	-35.7	24.6	0.00e+00	122	42	0	1197473792	42	6023
2026-01-25 14:34:48.45	58.63	68.80	-34.9	-35.8	24.6	0.00e+00	121	42	0	1200619520	42	6099
2026-01-25 14:34:49.45	59.51	69.15	-34.9	-35.8	24.8	0.00e+00	123	42	0	1203765248	42	6088
2026-01-25 14:34:50.46	60.42	69.50	-35.0	-35.9	24.8	0.00e+00	123	42	0	1206910976	42	6167
2026-01-25 14:34:51.47	61.38	69.84	-34.8	-35.7	25.0	0.00e+00	123	42	0	1210056704	42	6034
2026-01-25 14:34:52.48	62.36	70.18	-34.6	-35.5	25.2	0.00e+00	123	42	0	1213202432	42	5868
2026-01-25 14:34:53.49	63.39	70.52	-34.6	-35.4	25.1	0.00e+00	121	42	0	1216348160	42	5841
2026-01-25 14:34:54.50	64.45	70.85	-34.3	-35.1	25.2	0.00e+00	123	42	0	1219493888	42	5652
2026-01-25 14:34:55.51	65.55	71.18	-34.3	-35.2	25.4	0.00e+00	120	42	0	1222639616	42	5671
2026-01-25 14:34:56.52	66.69	71.50	-34.2	-35.0	25.5	0.00e+00	123	42	0	1225785344	42	5588
2026-01-25 14:34:57.53	67.88	71.81	-34.3	-35.1	25.2	0.00e+00	123	42	0	1228931072	42	5639
2026-01-25 14:34:58.54	69.11	72.12	-34.5	-35.3	24.9	0.00e+00	123	42	0	1232076800	42	5787
2026-01-25 14:34:59.54	70.37	72.41	-34.6	-35.5	24.9	0.00e+00	122	42	0	1235222528	42	5876
2026-01-25 14:35:00.55	71.68	72.71	-34.9	-35.8	25.2	0.00e+00	123	42	0	1238368256	42	6082
2026-01-25 14:35:01.56	73.05	72.99	-34.8	-35.7	25.2	0.00e+00	123	42	0	1241513984	42	6009
2026-01-25 14:35:02.57	74.46	73.27	-34.8	-35.6	25.3	0.00e+00	122	42	0	1244659712	42	5977
2026-01-25 14:35:03.58	75.92	73.53	-34.5	-35.3	25.3	0.00e+00	120	42	0	1247805440	42	5777
2026-01-25 14:35:04.59	77.44	73.79	-34.7	-35.5	25.2	0.00e+00	122	42	0	1250951168	42	5925
2026-01-25 14:35:05.60	79.00	74.04	-34.9	-35.8	25.0	0.00e+00	122	42	0	1254096896	42	6075
2026-01-25 14:35:06.61	80.61	74.27	-35.0	-35.9	25.1	0.00e+00	122	42	0	1257242624	42	6193
2026-01-25 14:35:07.62	82.27	74.49	-35.0	-35.9	25.1	0.00e+00	123	42	0	1260388352	42	6147
2026-01-25 14:35:08.63	83.97	74.70	-34.9	-35.8	24.8	0.00e+00	123	42	0	1263534080	42	6107
2026-01-25 14:35:09.64	85.73	74.90	-35.2	-36.1	25.0	0.00e+00	122	42	0	1266679808	42	6335
2026-01-25 14:35:10.65	87.54	75.09	-35.1	-36.0	25.1	0.00e+00	122	42	0	1269825536	42	6220
2026-01-25 14:35:11.66	89.38	75.25	-35.2	-36.0	25.0	0.00e+00	122	42	0	1272971264	42	6276
2026-01-25 14:35:12.66	91.26	75.41	-35.2	-36.0	25.1	0.00e+00	122	42	0	1276116992	42	6263
2026-01-25 14:35:13.67	93.19	75.55	-34.7	-35.6	25.4	0.00e+00	123	42	0	1279262720	42	5952
2026-01-25 14:35:14.68	95.15	75.67	-34.6	-35.4	25.5	0.00e+00	122	42	0	1282408448	42	5824
2026-01-25 14:35:15.69	97.15	75.78	-34.6	-35.4	25.4	0.00e+00	120	42	0	1285554176	42	5826
2026-01-25 14:35:16.70	99.18	75.87	-34.6	-35.5	25.3	0.00e+00	122	42	0	1288699904	42	5886
2026-01-25 14:35:17.71	101.24	75.94	-34.7	-35.5	25.2	0.00e+00	122	42	0	1291845632	42	5926
2026-01-25 14:35:18.72	103.31	76.00	-34.5	-35.3	25.5	0.00e+00	123	42	0	1294991360	42	5791
2026-01-25 14:35:19.73	105.40	76.03	-34.4	-35.2	25.6	0.00e+00	123	42	0	1298137088	42	5716
2026-01-25 14:35:20.74	107.49	76.05	-34.6	-35.5	25.5	0.00e+00	122	42	0	1301282816	42	5878
2026-01-25 14:35:21.75	109.59	76.06	-34.6	-35.4	25.6	0.00e+00	123	42	0	1304428544	42	5824
2026-01-25 14:35:22.76	111.69	76.04	-34.5	-35.3	25.4	0.00e+00	122	42	0	1307574272	42	5791
2026-01-25 14:35:23.77	113.78	76.00	-34.3	-35.1	25.3	0.00e+00	123	42	0	1310720000	42	5631
2026-01-25 14:35:24.77	115.83	75.95	-34.7	-35.6	25.2	0.00e+00	123	42	0	1313865728	42	5931
2026-01-25 14:35:25.78	117.89	75.88	-34.9	-35.7	25.3	0.00e+00	123	42	0	1317011456	42	6060
2026-01-25 14:35:26.79	119.93	75.80	-34.8	-35.7	25.1	0.00e+00	120	42	0	1320157184	42	6019
2026-01-25 14:35:27.80	121.93	75.69	-35.1	-36.0	25.2	0.00e+00	122	42	0	1323302912	42	6219
2026-01-25 14:35:28.81	123.91	75.57	-34.7	-35.6	25.3	0.00e+00	122	42	0	1326448640	42	5950
2026-01-25 14:35:29.82	125.85	75.44	-34.9	-35.8	24.8	0.00e+00	122	42	0	1329594368	42	6108
2026-01-25 14:35:30.83	127.75	75.28	-34.9	-35.8	25.0	0.00e+00	123	42	0	1332740096	42	6128
2026-01-25 14:35:31.84	129.60	75.12	-34.7	-35.6	25.3	0.00e+00	123	42	0	1335885824	42	5959
2026-01-25 14:35:32.85	131.42	74.94	-34.8	-35.7	25.3	0.00e+00	123	42	0	1339031552	42	5997
2026-01-25 14:35:33.86	133.18	74.74	-35.4	-36.3	24.7	0.00e+00	121	42	0	1342177280	42	6465
2026-01-25 14:35:34.87	134.90	74.53	-35.2	-36.2	24.8	0.00e+00	122	42	0	1345323008	42	6372
2026-01-25 14:35:35.88	136.57	74.31	-35.1	-36.0	25.1	0.00e+00	123	42	0	1348468736	42	6269
2026-01-25 14:35:36.89	138.19	74.08	-34.8	-35.6	25.3	0.00e+00	122	42	0	1351614464	42	5967
2026-01-25 14:35:37.90	139.76	73.83	-34.7	-35.6	25.3	0.00e+00	120	42	0	1354760192	42	5937
2026-01-25 14:35:38.90	141.27	73.58	-34.6	-35.4	25.3	0.00e+00	123	42	0	1357905920	42	5854
2026-01-25 14:35:39.91	142.74	73.32	-34.2	-35.0	25.6	0.00e+00	121	42	0	1361051648	42	5594
2026-01-25 14:35:40.92	144.17	73.04	-34.6	-35.4	24.7	0.00e+00	122	42	0	1364197376	42	5843
2026-01-25 14:35:41.93	145.54	72.76	-34.5	-35.4	25.0	0.00e+00	123	42	0	1367343104	42	5833
2026-01-25 14:35:42.94	146.87	72.47	-34.2	-35.1	25.5	0.00e+00	123	42	0	1370488832	42	5605
2026-01-25 14:35:43.95	148.15	72.17	-34.7	-35.6	25.3	0.00e+00	122	42	0	1373634560	42	5943
2026-01-25 14:35:44.95	149.38	71.87	-35.1	-36.0	25.0	0.00e+00	120	42	0	1376780288	42	6259
2026-01-25 14:35:45.96	150.57	71.55	-35.0	-35.9	25.2	0.00e+00	122	42	0	1379926016	42	6143
2026-01-25 14:35:46.97	151.72	71.23	-34.8	-35.7	25.0	0.00e+00	120	42	0	1383071744	42	6042
2026-01-25 14:35:47.98	152.83	70.91	-34.6	-35.4	25.4	0.00e+00	123	42	0	1386217472	42	5850
2026-01-25 14:35:48.99	153.90	70.58	-34.1	-34.9	25.7	0.00e+00	120	42	0	1389363200	42	5501
2026-01-25 14:35:50.00	154.93	70.24	-34.1	-35.0	25.7	0.00e+00	123	42	0	1392508928	42	5533
2026-01-25 14:35:51.01	155.93	69.90	-34.6	-35.5	25.4	0.00e+00	122	42	0	1395654656	42	5865
2026-01-25 14:35:52.02	156.89	69.56	-35.2	-36.1	25.1	0.00e+00	120	42	0	1398800384	42	6290
2026-01-25 14:35:53.03	157.82	69.21	-34.8	-35.6	25.4	0.00e+00	123	42	0	1401946112	42	5964
2026-01-25 14:35:54.04	158.71	68.86	-34.8	-35.7	25.1	0.00e+00	122	42	0	1405091840	42	5996
2026-01-25 14:35:55.05	159.57	68.50	-34.6	-35.5	25.4	0.00e+00	120	42	0	1408237568	42	5875
2026-01-25 14:35:56.06	160.40	68.14	-34.4	-35.3	25.5	0.00e+00	123	42	0	1411383296	42	5726
2026-01-25 14:35:57.07	161.20	67.78	-34.3	-35.1	25.7	0.00e+00	120	42	0	1414529024	42	5640
2026-01-25 14:35:58.08	161.98	67.42	-34.9	-35.8	25.2	0.00e+00	122	42	0	1417674752	42	6071
2026-01-25 14:35:59.09	162.73	67.05	-35.3	-36.2	25.1	0.00e+00	120	42	0	1420820480	42	6351
2026-01-25 14:36:00.10	163.45	66.69	-35.1	-36.0	25.1	0.00e+00	123	42	0	1423966208	42	6246
2026-01-25 14:36:01.11	164.15	66.32	-34.6	-35.5	24.9	0.00e+00	122	42	0	1427111936	42	5919
2026-01-25 14:36:02.12	164.82	65.95	-34.7	-35.6	25.1	0.00e+00	120	42	0	1430257664	42	5966
2026-01-25 14:36:03.13	165.47	65.58	-34.3	-35.1	25.7	0.00e+00	123	42	0	1433403392	42	5653
2026-01-25 14:36:04.14	166.11	65.21	-34.2	-35.0	25.7	0.00e+00	121	42	0	1436549120	42	5584
2026-01-25 14:36:05.14	166.71	64.84	-34.8	-35.7	25.2	0.00e+00	123	42	0	1439694848	42	6012
2026-01-25 14:36:06.16	167.31	64.46	-35.1	-36.0	25.1	0.00e+00	121	42	0	1442840576	42	6244
2026-01-25 14:36:07.17	167.88	64.09	-34.8	-35.6	25.3	0.00e+00	122	42	0	1445986304	42	5969
2026-01-25 14:36:08.17	168.43	63.72	-34.7	-35.6	24.9	0.00e+00	120	42	0	1449132032	42	5940
2026-01-25 14:36:09.18	168.96	63.34	-34.5	-35.4	25.1	0.00e+00	122	42	0	1452277760	42	5845
2026-01-25 14:36:10.19	169.48	62.97	-34.2	-35.1	25.7	0.00e+00	120	42	0	1456472064	42	5628
2026-01-25 14:36:11.20	169.99	62.59	-34.6	-35.5	25.5	0.00e+00	122	42	0	1458569216	42	5873
2026-01-25 14:36:12.21	170.48	62.22	-35.3	-36.2	25.0	0.00e+00	120	42	0	1461714944	42	6353
2026-01-25 14:36:13.22	170.95	61.85	-35.9	-36.8	24.4	0.00e+00	122	42	0	1464860672	44	6083
2026-01-25 14:36:14.23	171.41	61.47	-35.8	-36.7	24.5	0.00e+00	122	42	0	1468006400	44	6026
2026-01-25 14:36:15.24	171.86	61.10	-35.5	-36.4	24.3	0.00e+00	123	42	0	1472200704	44	5816
2026-01-25 14:36:16.25	172.29	60.73	-35.6	-36.5	24.4	0.00e+00	122	42	0	1475346432	44	5889
2026-01-25 14:36:17.26	172.71	60.36	-35.2	-36.1	24.7	0.00e+00	120	42	0	1478492160	44	5657
2026-01-25 14:36:18.27	173.12	59.99	-34.9	-35.8	25.0	0.00e+00	122	42	0	1480589312	44	5429
2026-01-25 14:36:19.28	173.52	59.62	-34.7	-35.5	25.3	0.00e+00	123	42	0	1483735040	42	5900
2026-01-25 14:36:20.29	173.91	59.25	-35.1	-35.9	25.0	0.00e+00	120	42	0	1486880768	42	6189
2026-01-25 14:36:21.30	174.28	58.88	-35.8	-36.7	24.4	0.00e+00	123	42	0	1491075072	42	6773
2026-01-25 14:36:22.31	174.65	58.52	-36.2	-37.2	23.4	0.00e+00	123	42	0	1494220800	44	6378
2026-01-25 14:36:23.31	175.00	58.15	-36.4	-37.4	23.3	0.00e+00	122	42	0	1497366528	44	6530
2026-01-25 14:36:24.32	175.35	57.79	-36.1	-37.1	24.0	0.00e+00	122	42	0	1500512256	44	6312
2026-01-25 14:36:25.33	175.69	57.43	-35.8	-36.7	24.6	0.00e+00	123	42	0	1503657984	44	6039
2026-01-25 14:36:26.34	176.02	57.07	-35.8	-36.7	24.6	0.00e+00	123	42	0	1506803712	44	6032
2026-01-25 14:36:27.35	176.34	56.71	-36.0	-37.0	24.2	0.00e+00	123	42	0	1509949440	44	6207
2026-01-25 14:36:28.36	176.65	56.35	-36.2	-37.2	24.0	0.00e+00	123	42	0	1513095168	44	6356
2026-01-25 14:36:29.37	176.95	55.99	-36.4	-37.3	23.9	0.00e+00	123	42	0	1516240896	44	6468
2026-01-25 14:36:30.38	177.25	55.64	-36.5	-37.4	23.9	0.00e+00	121	42	0	1519386624	44	6572
2026-01-25 14:36:31.39	177.54	55.28	-36.7	-37.6	23.8	0.00e+00	123	42	0	1522532352	44	6714
2026-01-25 14:36:32.40	177.82	54.93	-37.0	-37.9	23.6	0.00e+00	123	42	0	1525678080	46	6165
2026-01-25 14:36:33.41	178.10	54.58	-36.6	-37.5	23.8	0.00e+00	120	42	0	1528823808	46	5899
2026-01-25 14:36:34.42	178.37	54.23	-36.2	-37.1	24.1	0.00e+00	122	42	0	1531969536	46	5654
2026-01-25 14:36:35.42	178.63	53.89	-36.2	-37.2	24.2	0.00e+00	120	42	0	1535115264	46	5664
2026-01-25 14:36:36.43	178.89	53.55	-36.3	-37.2	23.9	0.00e+00	123	42	0	1538260992	46	5704
2026-01-25 14:36:37.44	179.14	53.20	-37.1	-38.2	23.2	0.00e+00	123	42	0	1541406720	46	6376
2026-01-25 14:36:38.45	179.38	52.86	-37.8	-38.9	22.9	0.00e+00	122	42	0	1544552448	48	6158
2026-01-25 14:36:39.46	179.62	52.52	-37.4	-38.4	23.3	0.00e+00	122	42	0	1547698176	48	5801
2026-01-25 14:36:40.47	179.86	52.18	-37.2	-38.1	23.5	0.00e+00	122	42	0	1550843904	48	5643
2026-01-25 14:36:41.47	180.08	51.85	-37.5	-38.4	23.3	0.00e+00	123	42	0	1553989632	48	5816
2026-01-25 14:36:42.48	180.31	51.52	-37.7	-38.6	23.1	0.00e+00	123	42	0	1557135360	48	5977
2026-01-25 14:36:43.49	180.53	51.19	-38.0	-39.0	22.8	0.00e+00	123	42	0	1560281088	48	6253
2026-01-25 14:36:44.51	180.74	50.85	-38.1	-39.2	22.7	0.00e+00	123	42	0	1563426816	48	6360
2026-01-25 14:36:45.51	180.95	50.53	-37.7	-38.6	23.3	0.00e+00	122	42	0	1566572544	48	5969
2026-01-25 14:36:46.52	181.16	50.20	-37.1	-38.0	23.6	0.00e+00	123	42	0	1569718272	48	5583
2026-01-25 14:36:47.53	181.36	49.88	-37.2	-38.1	23.5	0.00e+00	122	42	0	1572864000	48	5639
2026-01-25 14:36:48.54	181.56	49.55	-37.6	-38.6	23.2	0.00e+00	123	42	0	1576009728	48	5934
2026-01-25 14:36:49.52	181.74	49.24	-38.2	-39.2	22.5	0.00e+00	123	42	0	1579155456	48	6384
2026-01-25 14:36:50.53	181.93	48.92	-38.6	-39.6	22.2	0.00e+00	123	42	0	1582301184	48	6685
2026-01-25 14:36:51.54	182.12	48.61	-38.7	-39.7	22.3	0.00e+00	123	42	0	1585446912	50	6016
2026-01-25 14:36:52.55	182.30	48.29	-38.0	-38.9	22.8	0.00e+00	122	42	0	1588592640	50	5529
2026-01-25 14:36:53.55	182.48	47.98	-37.7	-38.7	22.9	0.00e+00	122	42	0	1591738368	48	6031
2026-01-25 14:36:54.56	182.65	47.67	-37.7	-38.7	23.0	0.00e+00	122	42	0	1594884096	48	6015
2026-01-25 14:36:55.57	182.83	47.36	-37.4	-38.3	23.4	0.00e+00	122	42	0	1598029824	48	5754
2026-01-25 14:36:56.58	182.99	47.06	-37.7	-38.6	23.1	0.00e+00	122	42	0	1601175552	48	5988
2026-01-25 14:36:57.59	183.16	46.75	-38.2	-39.2	22.4	0.00e+00	122	42	0	1604321280	48	6392
2026-01-25 14:36:58.60	183.32	46.45	-38.5	-39.6	22.2	0.00e+00	123	42	0	1607467008	48	6671
2026-01-25 14:36:59.61	183.48	46.15	-38.6	-39.6	22.0	0.00e+00	123	42	0	1610612736	48	6708
2026-01-25 14:37:00.62	183.64	45.85	-38.2	-39.2	22.5	0.00e+00	122	42	0	1613758464	50	5703
2026-01-25 14:37:01.63	183.79	45.55	-38.3	-39.3	22.4	0.00e+00	123	42	0	1616904192	50	5783
2026-01-25 14:37:02.64	183.94	45.26	-38.6	-39.6	22.3	0.00e+00	120	42	0	1620049920	50	5963
2026-01-25 14:37:03.65	184.09	44.96	-38.9	-39.9	22.0	0.00e+00	123	42	0	1623195648	50	6195
2026-01-25 14:37:04.66	184.23	44.67	-39.2	-40.3	21.7	0.00e+00	123	42	0	1626341376	50	6466
2026-01-25 14:37:05.67	184.38	44.38	-39.2	-40.2	21.5	0.00e+00	120	42	0	1629487104	50	6422
2026-01-25 14:37:06.68	184.52	44.10	-39.1	-40.3	20.9	0.00e+00	120	42	0	1632632832	50	6435
2026-01-25 14:37:07.69	184.65	43.81	-39.2	-40.4	20.6	0.00e+00	123	43	0	1635778560	50	6528
2026-01-25 14:37:08.70	184.79	43.53	-38.9	-40.1	20.9	0.00e+00	123	43	0	1638924288	50	6316
2026-01-25 14:37:09.71	184.92	43.25	-38.6	-39.6	21.9	0.00e+00	121	43	0	1642070016	50	5985
2026-01-25 14:37:10.72	185.05	42.97	-38.1	-39.1	22.7	0.00e+00	123	43	0	1645215744	50	5644
2026-01-25 14:37:11.73	185.18	42.69	-37.8	-38.8	23.0	0.00e+00	122	42	0	1648361472	50	5443
2026-01-25 14:37:12.74	185.31	42.41	-37.8	-38.7	23.1	0.00e+00	120	42	0	1651507200	50	5370
2026-01-25 14:37:13.74	185.43	42.14	-38.2	-39.2	22.6	0.00e+00	120	42	0	1654652928	50	5698
2026-01-25 14:37:14.75	185.56	41.87	-38.6	-39.6	22.4	0.00e+00	123	42	0	1657798656	50	5945
2026-01-25 14:37:15.76	185.68	41.60	-38.2	-39.2	22.7	0.00e+00	122	42	0	1660944384	50	5699
2026-01-25 14:37:16.77	185.79	41.33	-38.1	-39.1	22.8	0.00e+00	123	42	0	1664090112	50	5608
2026-01-25 14:37:17.78	185.91	41.06	-38.1	-39.0	22.7	0.00e+00	123	42	0	1667235840	50	5591
2026-01-25 14:37:18.79	186.03	40.80	-38.2	-39.2	22.7	0.00e+00	123	42	0	1670381568	50	5668
2026-01-25 14:37:19.79	186.14	40.54	-38.2	-39.2	22.5	0.00e+00	122	42	0	1673527296	50	5721
2026-01-25 14:37:20.80	186.25	40.28	-39.0	-40.1	21.9	0.00e+00	123	42	0	1676673024	50	6295
2026-01-25 14:37:21.81	186.36	40.02	-39.2	-40.3	21.7	0.00e+00	121	42	0	1679818752	50	6453
2026-01-25 14:37:22.82	186.47	39.76	-39.6	-40.7	21.3	0.00e+00	123	42	0	1682964480	50	6792
2026-01-25 14:37:23.83	186.57	39.51	-39.9	-41.0	21.0	0.00e+00	120	42	0	1686110208	52	6271
2026-01-25 14:37:24.83	186.68	39.25	-39.8	-40.9	21.1	0.00e+00	122	42	0	1689255936	52	6200
2026-01-25 14:37:25.84	186.78	39.00	-39.6	-40.8	21.4	0.00e+00	122	42	0	1692401664	52	6081
2026-01-25 14:37:26.85	186.88	38.75	-39.2	-40.3	21.8	0.00e+00	122	42	0	1695547392	52	5729
2026-01-25 14:37:27.86	186.98	38.50	-38.6	-39.6	22.3	0.00e+00	122	42	0	1698693120	50	5948
2026-01-25 14:37:28.87	187.08	38.26	-38.4	-39.4	22.4	0.00e+00	123	42	0	1701838848	50	5817
2026-01-25 14:37:29.88	187.18	38.01	-37.8	-38.7	23.0	0.00e+00	123	42	0	1704984576	50	5398
2026-01-25 14:37:30.89	187.28	37.77	-37.1	-38.0	23.5	0.00e+00	123	42	0	1708130304	48	5554
2026-01-25 14:37:31.89	187.37	37.53	-36.8	-37.7	23.7	0.00e+00	123	42	0	1711276032	48	5390
2026-01-25 14:37:32.90	187.46	37.29	-36.7	-37.6	23.8	0.00e+00	122	42	0	1714421760	46	5960
2026-01-25 14:37:33.91	187.55	37.05	-36.8	-37.7	23.7	0.00e+00	122	42	0	1717567488	46	6039
2026-01-25 14:37:34.92	187.65	36.81	-37.1	-38.0	23.6	0.00e+00	122	42	0	1720713216	46	6242
2026-01-25 14:37:35.93	187.73	36.58	-37.0	-38.0	23.7	0.00e+00	123	42	0	1723858944	46	6225
2026-01-25 14:37:36.94	187.82	36.34	-37.1	-38.1	23.6	0.00e+00	123	42	0	1727004672	46	6285
2026-01-25 14:37:37.95	187.91	36.11	-37.1	-38.0	23.6	0.00e+00	123	42	0	1730150400	46	6242
2026-01-25 14:37:38.96	188.00	35.88	-36.8	-37.7	23.8	0.00e+00	122	42	0	1733296128	46	6041
2026-01-25 14:37:39.97	188.08	35.65	-36.6	-37.5	23.8	0.00e+00	120	42	0	1736441856	46	5908
2026-01-25 14:37:40.98	188.16	35.42	-36.7	-37.6	23.7	0.00e+00	123	42	0	1739587584	46	5955
2026-01-25 14:37:41.99	188.25	35.20	-36.8	-37.7	23.5	0.00e+00	121	42	0	1742733312	46	6049
2026-01-25 14:37:43.00	188.33	34.97	-37.1	-38.0	23.4	0.00e+00	122	42	0	1745879040	46	6246
2026-01-25 14:37:44.01	188.41	34.75	-37.2	-38.2	23.3	0.00e+00	123	42	0	1749024768	46	6357
2026-01-25 14:37:45.02	188.49	34.53	-37.1	-38.0	23.5	0.00e+00	120	42	0	1752170496	46	6269
2026-01-25 14:37:46.03	188.57	34.31	-37.3	-38.2	23.3	0.00e+00	123	42	0	1755316224	46	6418
2026-01-25 14:37:47.04	188.64	34.09	-37.3	-38.3	23.2	0.00e+00	123	42	0	1758461952	46	6486
2026-01-25 14:37:48.05	188.72	33.87	-37.4	-38.4	23.2	0.00e+00	123	43	0	1761607680	46	6519
2026-01-25 14:37:49.06	188.80	33.66	-37.3	-38.3	23.2	0.00e+00	120	42	0	1764753408	46	6435
2026-01-25 14:37:50.07	188.87	33.44	-37.3	-38.3	23.4	0.00e+00	123	42	0	1767899136	46	6460
2026-01-25 14:37:51.08	188.94	33.23	-36.8	-37.8	23.6	0.00e+00	122	42	0	1771044864	46	6087
2026-01-25 14:37:52.09	189.02	33.02	-36.5	-37.4	23.8	0.00e+00	122	42	0	1774190592	46	5832
2026-01-25 14:37:53.10	189.09	32.81	-36.5	-37.4	23.7	0.00e+00	123	42	0	1777336320	46	5820
2026-01-25 14:37:54.10	189.16	32.60	-36.3	-37.2	23.8	0.00e+00	122	42	0	1780482048	46	5682
2026-01-25 14:37:55.12	189.23	32.40	-36.4	-37.3	23.6	0.00e+00	122	43	0	1783627776	46	5783
2026-01-25 14:37:56.13	189.30	32.19	-36.0	-36.9	23.9	0.00e+00	122	42	0	1786773504	46	5528
2026-01-25 14:37:57.14	189.37	31.99	-36.0	-36.9	24.0	0.00e+00	120	42	0	1789919232	46	5511
2026-01-25 14:37:58.15	189.43	31.78	-35.9	-36.8	24.3	0.00e+00	121	43	0	1793064960	46	5465
2026-01-25 14:37:59.15	189.50	31.58	-35.6	-36.4	24.5	0.00e+00	123	42	0	1796210688	44	5844
2026-01-25 14:38:00.16	189.57	31.38	-35.4	-36.3	24.6	0.00e+00	123	42	0	1799356416	44	5757
2026-01-25 14:38:01.17	189.63	31.18	-35.5	-36.4	24.5	0.00e+00	123	43	0	1802502144	44	5811
2026-01-25 14:38:02.18	189.70	30.99	-35.4	-36.3	24.6	0.00e+00	120	42	0	1805647872	44	5730
2026-01-25 14:38:03.19	189.76	30.79	-35.4	-36.3	24.6	0.00e+00	122	42	0	1808793600	44	5740
2026-01-25 14:38:04.20	189.82	30.60	-35.4	-36.3	24.6	0.00e+00	120	43	0	1811939328	44	5748
2026-01-25 14:38:05.21	189.89	30.40	-35.5	-36.4	24.6	0.00e+00	123	42	0	1815085056	44	5813
2026-01-25 14:38:06.22	189.95	30.21	-35.6	-36.5	24.7	0.00e+00	120	42	0	1818230784	44	5863
2026-01-25 14:38:07.23	190.01	30.02	-35.7	-36.6	24.5	0.00e+00	122	42	0	1821376512	44	5953
2026-01-25 14:38:08.24	190.07	29.83	-35.8	-36.7	24.4	0.00e+00	120	43	0	1824522240	44	6026
2026-01-25 14:38:09.25	190.13	29.64	-36.2	-37.1	24.2	0.00e+00	122	43	0	1827667968	44	6283
2026-01-25 14:38:10.26	190.19	29.45	-36.4	-37.4	24.0	0.00e+00	122	42	0	1830813696	44	6502
2026-01-25 14:38:11.27	190.25	29.27	-36.4	-37.3	24.1	0.00e+00	120	43	0	1833959424	44	6476
2026-01-25 14:38:12.28	190.30	29.08	-36.5	-37.5	24.0	0.00e+00	122	42	0	1837105152	44	6606
2026-01-25 14:38:13.29	190.36	28.90	-36.7	-37.6	23.8	0.00e+00	120	43	0	1840250880	44	6702
2026-01-25 14:38:14.30	190.42	28.71	-36.6	-37.6	23.9	0.00e+00	122	43	0	1843396608	46	5952
2026-01-25 14:38:15.31	190.47	28.53	-36.8	-37.8	23.8	0.00e+00	122	42	0	1846542336	46	6088
2026-01-25 14:38:16.31	190.53	28.35	-36.7	-37.6	23.9	0.00e+00	123	42	0	1849688064	46	5991
2026-01-25 14:38:17.32	190.58	28.17	-36.5	-37.4	24.0	0.00e+00	123	43	0	1852833792	46	5834
2026-01-25 14:38:18.33	190.64	28.00	-36.5	-37.4	24.1	0.00e+00	123	42	0	1855979520	46	5824
2026-01-25 14:38:19.34	190.69	27.82	-36.5	-37.5	24.0	0.00e+00	123	43	0	1859125248	46	5864
2026-01-25 14:38:20.35	190.74	27.64	-36.4	-37.3	24.0	0.00e+00	123	43	0	1862270976	46	5778
2026-01-25 14:38:21.36	190.80	27.47	-36.3	-37.3	24.1	0.00e+00	123	42	0	1866465280	46	5744
2026-01-25 14:38:22.37	190.85	27.30	-36.2	-37.2	24.1	0.00e+00	122	43	0	1868562432	46	5664
2026-01-25 14:38:23.38	190.90	27.12	-36.4	-37.3	23.9	0.00e+00	123	42	0	1871708160	46	5761
2026-01-25 14:38:24.39	190.95	26.95	-36.2	-37.2	24.0	0.00e+00	123	43	0	1874853888	46	5660
2026-01-25 14:38:25.40	191.00	26.78	-36.2	-37.2	23.9	0.00e+00	122	42	0	1877999616	46	5682
2026-01-25 14:38:26.40	191.05	26.61	-36.3	-37.3	23.9	0.00e+00	122	42	0	1881145344	46	5726
2026-01-25 14:38:27.42	191.10	26.44	-36.3	-37.2	24.0	0.00e+00	122	43	0	1885339648	46	5690
2026-01-25 14:38:28.42	191.15	26.28	-36.3	-37.3	24.0	0.00e+00	123	42	0	1888485376	46	5736
2026-01-25 14:38:29.43	191.20	26.11	-36.1	-37.0	24.1	0.00e+00	123	42	0	1890582528	46	5580
2026-01-25 14:38:30.44	191.25	25.94	-36.1	-37.0	24.1	0.00e+00	123	42	0	1893728256	46	5577
2026-01-25 14:38:31.45	191.30	25.78	-36.1	-37.0	24.1	0.00e+00	123	42	0	1896873984	46	5566
2026-01-25 14:38:32.46	191.34	25.62	-36.0	-37.0	24.0	0.00e+00	123	42	0	1901068288	46	5548
2026-01-25 14:38:33.47	191.39	25.45	-36.1	-37.0	24.1	0.00e+00	122	42	0	1904214016	46	5564
2026-01-25 14:38:34.48	191.44	25.29	-36.2	-37.2	24.1	0.00e+00	123	42	0	1907359744	46	5667
2026-01-25 14:38:35.49	191.48	25.13	-35.9	-36.9	24.3	0.00e+00	122	42	0	1910505472	46	5473
2026-01-25 14:38:36.50	191.53	24.97	-35.9	-36.8	24.4	0.00e+00	122	42	0	1913651200	46	5430
2026-01-25 14:38:37.50	191.57	24.82	-35.9	-36.8	24.4	0.00e+00	122	42	0	1915748352	46	5440
2026-01-25 14:38:38.51	191.62	24.66	-35.8	-36.7	24.4	0.00e+00	120	42	0	1919942656	46	5376
2026-01-25 14:38:39.52	191.66	24.50	-35.6	-36.5	24.5	0.00e+00	122	42	0	1923088384	44	5902
2026-01-25 14:38:40.53	191.70	24.34	-35.5	-36.4	24.6	0.00e+00	120	42	0	1926234112	44	5848
2026-01-25 14:38:41.54	191.75	24.19	-35.4	-36.3	24.7	0.00e+00	123	42	0	1929379840	44	5747
2026-01-25 14:38:42.55	191.79	24.04	-35.5	-36.4	24.5	0.00e+00	122	42	0	1932525568	44	5820
2026-01-25 14:38:43.55	191.83	23.88	-35.4	-36.3	24.6	0.00e+00	123	42	0	1935671296	44	5769
2026-01-25 14:38:44.56	191.88	23.73	-35.4	-36.2	24.7	0.00e+00	123	42	0	1938817024	44	5723
2026-01-25 14:38:45.57	191.92	23.58	-35.3	-36.1	24.6	0.00e+00	123	42	0	1941962752	44	5650
2026-01-25 14:38:46.58	191.96	23.43	-35.3	-36.2	24.6	0.00e+00	123	43	0	1945108480	44	5662
2026-01-25 14:38:47.59	192.00	23.28	-35.5	-36.3	24.4	0.00e+00	122	42	0	1948254208	44	5787
2026-01-25 14:38:48.60	192.04	23.13	-35.3	-36.2	24.6	0.00e+00	122	42	0	1951399936	44	5682
2026-01-25 14:38:49.61	192.08	22.98	-35.4	-36.3	24.5	0.00e+00	120	42	0	1954545664	44	5761
2026-01-25 14:38:50.62	192.12	22.84	-35.5	-36.4	24.6	0.00e+00	122	43	0	1957691392	44	5806
2026-01-25 14:38:51.63	192.16	22.69	-35.4	-36.3	24.6	0.00e+00	120	43	0	1960837120	44	5764
2026-01-25 14:38:52.64	192.20	22.54	-35.5	-36.4	24.6	0.00e+00	122	42	0	1963982848	44	5801
2026-01-25 14:38:53.65	192.24	22.40	-35.4	-36.2	24.7	0.00e+00	122	42	0	1967128576	44	5720
2026-01-25 14:38:54.66	192.28	22.26	-35.5	-36.4	24.7	0.00e+00	123	42	0	1970274304	44	5807
2026-01-25 14:38:55.67	192.32	22.11	-35.4	-36.3	24.7	0.00e+00	123	42	0	1973420032	44	5756
2026-01-25 14:38:56.68	192.36	21.97	-35.6	-36.5	24.6	0.00e+00	123	43	0	1976565760	44	5870
