passes_logs/2026/01/25/R4.6S_Anadyr/R4.6S_Anadyr__20260125_214809_AQUA_rec.log

#Pass ID: 20260125_214809_AQUA
#Satellite: AQUA
#Configuration: AQUA
#almurnet v.1.7.20251203
#Start time: 2026-01-25 21:48:12

#Version: 2.2.20231116
#Station: R4.6S_Anadyr
#Location: 177.4865 lon 64.73178 lat
#TLE: 1 27424U 02022A   26025.50647354  .00001868  00000+0  38363-3 0  9992
#TLE: 2 27424  98.4099 352.1114 0001896  65.7986  47.0097 14.61858879262422

#Time	Az	El	Level	Level2	SNR	BER	BlckErr	Temp	State	Recorded	gain1	gain2
2026-01-25 21:48:12.92	58.40	0.16	-51.0	-67.3	3.3	3.02e+01	0	40	0	0	60	89463
2026-01-25 21:48:13.92	58.31	0.21	-50.6	-68.4	3.5	3.02e+01	0	40	104	0	60	101750
2026-01-25 21:48:14.93	58.21	0.26	-50.6	-68.4	3.5	3.02e+01	0	40	104	0	60	101189
2026-01-25 21:48:15.94	58.12	0.30	-50.6	-68.4	3.5	3.02e+01	0	40	104	0	60	101502
2026-01-25 21:48:16.95	58.03	0.35	-50.6	-68.4	3.5	3.02e+01	0	40	104	0	60	101446
2026-01-25 21:48:17.96	57.93	0.40	-50.6	-68.4	3.5	3.02e+01	0	40	104	0	60	101273
2026-01-25 21:48:18.97	57.84	0.45	-50.7	-68.5	3.5	3.02e+01	0	40	104	0	60	102009
2026-01-25 21:48:19.98	57.74	0.49	-50.7	-68.5	3.5	3.02e+01	0	40	104	0	60	101890
2026-01-25 21:48:20.99	57.64	0.54	-50.7	-68.4	3.5	3.02e+01	0	40	104	0	60	101782
2026-01-25 21:48:22.00	57.55	0.59	-50.3	-68.4	3.5	3.02e+01	0	40	104	0	60	101080
2026-01-25 21:48:23.01	57.45	0.64	-50.5	-68.4	3.5	3.02e+01	0	40	104	0	60	101264
2026-01-25 21:48:24.02	57.35	0.68	-50.6	-68.5	3.5	3.02e+01	0	40	104	0	60	102075
2026-01-25 21:48:25.03	57.26	0.73	-50.5	-68.5	3.5	3.02e+01	0	40	104	0	60	101968
2026-01-25 21:48:26.04	57.16	0.78	-50.6	-68.3	3.5	3.02e+01	0	40	104	0	60	100413
2026-01-25 21:48:27.05	57.06	0.83	-50.4	-68.4	3.5	3.02e+01	0	40	104	0	60	100700
2026-01-25 21:48:28.06	56.96	0.88	-50.0	-68.3	3.5	3.02e+01	0	40	104	0	60	100315
2026-01-25 21:48:29.07	56.86	0.92	-50.1	-68.3	3.5	3.02e+01	0	40	104	0	60	99837
2026-01-25 21:48:30.08	56.76	0.97	-50.0	-68.2	3.5	3.02e+01	0	40	104	0	60	99107
2026-01-25 21:48:31.09	56.66	1.02	-49.9	-68.2	3.5	3.02e+01	0	40	104	0	60	98653
2026-01-25 21:48:32.10	56.56	1.07	-49.8	-68.1	3.5	3.02e+01	0	40	104	0	60	97430
2026-01-25 21:48:33.11	56.46	1.11	-48.8	-67.8	3.5	3.02e+01	0	40	104	0	60	94557
2026-01-25 21:48:34.12	56.36	1.16	-48.7	-67.7	3.5	3.02e+01	0	40	104	0	60	93903
2026-01-25 21:48:35.13	56.26	1.21	-49.5	-67.4	3.5	3.02e+01	0	40	104	0	60	90040
2026-01-25 21:48:36.14	56.16	1.26	-49.1	-66.9	3.5	3.02e+01	0	40	104	0	60	84897
2026-01-25 21:48:37.16	56.06	1.31	-49.1	-66.9	3.5	3.02e+01	0	40	104	0	60	85030
2026-01-25 21:48:38.16	55.96	1.35	-49.1	-66.8	3.5	3.02e+01	0	40	104	0	60	84186
2026-01-25 21:48:39.17	55.85	1.40	-49.0	-66.7	3.5	3.02e+01	0	40	104	0	60	83188
2026-01-25 21:48:40.18	55.75	1.45	-49.0	-66.8	3.5	3.02e+01	0	40	104	0	60	84598
2026-01-25 21:48:41.20	55.65	1.50	-49.0	-66.9	3.5	3.02e+01	0	40	104	0	60	85156
2026-01-25 21:48:42.21	55.54	1.55	-49.0	-66.7	3.5	3.02e+01	0	40	104	0	60	83606
2026-01-25 21:48:43.21	55.44	1.59	-49.0	-66.7	3.5	3.02e+01	0	40	104	0	60	83068
2026-01-25 21:48:44.22	55.33	1.64	-49.1	-66.7	3.5	3.02e+01	0	40	104	0	60	83342
2026-01-25 21:48:45.24	55.23	1.69	-49.0	-66.7	3.5	3.02e+01	0	40	104	0	60	83426
2026-01-25 21:48:46.24	55.12	1.74	-49.0	-66.8	3.5	3.02e+01	0	40	104	0	60	83895
2026-01-25 21:48:47.26	55.02	1.79	-49.0	-66.8	3.5	3.02e+01	0	40	104	0	60	84620
2026-01-25 21:48:48.26	54.91	1.83	-49.0	-66.8	3.5	3.02e+01	0	40	104	0	60	84305
2026-01-25 21:48:49.27	54.81	1.88	-49.0	-66.7	3.5	3.02e+01	0	40	104	0	60	83364
2026-01-25 21:48:50.29	54.70	1.93	-49.0	-66.6	3.5	3.02e+01	0	40	104	0	60	82105
2026-01-25 21:48:51.29	54.59	1.98	-49.0	-66.5	3.5	3.02e+01	0	40	104	0	60	81134
2026-01-25 21:48:52.30	54.48	2.03	-49.0	-66.3	3.5	3.02e+01	0	40	104	0	60	79151
2026-01-25 21:48:53.31	54.38	2.07	-49.0	-66.3	3.5	3.02e+01	0	40	104	0	60	79365
2026-01-25 21:48:54.32	54.27	2.12	-49.0	-66.5	3.5	3.02e+01	0	40	104	0	60	81461
2026-01-25 21:48:55.33	54.16	2.17	-49.0	-66.7	3.5	3.02e+01	0	40	104	0	60	83401
2026-01-25 21:48:56.34	54.05	2.22	-49.1	-66.7	3.5	3.02e+01	0	40	104	0	60	82815
2026-01-25 21:48:57.35	53.94	2.27	-49.0	-66.5	3.5	3.02e+01	0	40	104	0	60	81593
2026-01-25 21:48:58.36	53.83	2.31	-49.0	-66.4	3.5	3.02e+01	0	40	104	0	60	79978
2026-01-25 21:48:59.37	53.72	2.36	-49.0	-66.5	3.5	3.02e+01	0	40	104	0	60	81121
2026-01-25 21:49:00.38	53.61	2.41	-49.0	-66.5	3.5	3.02e+01	0	40	104	0	60	81324
2026-01-25 21:49:01.39	53.50	2.46	-49.0	-66.7	3.5	3.02e+01	0	40	104	0	60	83016
2026-01-25 21:49:02.40	53.39	2.51	-49.1	-66.7	3.5	3.02e+01	0	40	104	0	60	83429
2026-01-25 21:49:03.41	53.28	2.55	-49.0	-66.7	3.5	3.02e+01	0	40	104	0	60	82886
2026-01-25 21:49:04.42	53.16	2.60	-49.0	-66.7	3.5	3.02e+01	0	40	104	0	60	82974
2026-01-25 21:49:05.43	53.05	2.65	-49.1	-66.9	3.5	3.02e+01	0	40	104	0	60	84753
2026-01-25 21:49:06.44	52.94	2.70	-49.0	-66.7	3.5	3.02e+01	0	40	104	0	60	83390
2026-01-25 21:49:07.45	52.82	2.75	-49.0	-66.2	3.5	3.02e+01	0	40	104	0	60	78516
2026-01-25 21:49:08.46	52.71	2.79	-49.0	-66.4	3.5	3.02e+01	0	40	104	0	60	80194
2026-01-25 21:49:09.47	52.59	2.84	-49.0	-66.8	3.5	3.02e+01	0	40	104	0	60	83728
2026-01-25 21:49:10.48	52.48	2.89	-48.3	-63.5	3.5	3.02e+01	0	40	104	0	60	57593
2026-01-25 21:49:11.49	52.36	2.94	-46.0	-58.3	3.5	3.02e+01	0	40	104	0	60	31817
2026-01-25 21:49:12.49	52.25	2.99	-44.8	-56.5	3.5	3.02e+01	0	40	104	0	60	25700
2026-01-25 21:49:13.50	52.13	3.03	-44.1	-55.5	3.5	3.02e+01	0	40	104	0	60	22902
2026-01-25 21:49:14.51	52.02	3.08	-45.3	-57.2	3.6	3.02e+01	0	40	104	0	60	27975
2026-01-25 21:49:15.52	51.90	3.13	-42.5	-53.4	3.5	3.02e+01	0	40	104	0	60	17913
2026-01-25 21:49:16.53	51.78	3.18	-48.3	-64.6	3.5	3.02e+01	0	40	104	0	60	65540
2026-01-25 21:49:17.54	51.66	3.22	-42.5	-53.5	3.5	3.02e+01	0	40	104	0	60	18165
2026-01-25 21:49:18.55	51.55	3.27	-40.6	-51.1	3.5	3.02e+01	0	40	104	0	56	17475
2026-01-25 21:49:19.56	51.43	3.32	-40.1	-50.5	3.5	3.02e+01	0	40	104	0	56	16311
2026-01-25 21:49:20.57	51.31	3.37	-40.1	-50.7	3.6	3.02e+01	0	40	104	0	54	18591
2026-01-25 21:49:21.58	51.19	3.42	-40.1	-50.6	3.5	3.02e+01	0	40	104	0	54	18462
2026-01-25 21:49:22.59	51.07	3.46	-40.5	-51.0	3.5	3.02e+01	0	40	104	0	54	19316
2026-01-25 21:49:23.60	50.95	3.51	-39.3	-49.8	3.5	3.02e+01	0	40	104	0	54	16770
2026-01-25 21:49:24.61	50.83	3.56	-39.6	-50.1	3.5	3.02e+01	0	40	104	0	54	17417
2026-01-25 21:49:25.62	50.71	3.61	-39.2	-49.6	3.5	3.02e+01	0	40	104	0	54	16362
2026-01-25 21:49:26.62	50.58	3.65	-40.4	-51.0	3.5	3.02e+01	0	40	104	0	54	19318
2026-01-25 21:49:27.63	50.46	3.70	-40.4	-51.0	3.5	3.02e+01	0	40	104	0	54	19263
2026-01-25 21:49:28.64	50.34	3.75	-40.4	-50.9	3.5	3.02e+01	0	40	104	0	54	19119
2026-01-25 21:49:29.65	50.22	3.80	-39.8	-50.3	3.5	3.02e+01	0	40	104	0	54	17758
2026-01-25 21:49:30.67	50.09	3.85	-39.6	-50.1	3.6	3.02e+01	0	40	104	0	54	17460
2026-01-25 21:49:31.68	49.97	3.89	-39.5	-49.9	3.5	3.02e+01	0	40	104	0	54	17016
2026-01-25 21:49:32.69	49.84	3.94	-39.5	-50.0	3.5	3.02e+01	0	40	104	0	52	19186
2026-01-25 21:49:33.70	49.72	3.99	-39.4	-49.8	3.5	3.02e+01	0	40	104	0	52	18951
2026-01-25 21:49:34.71	49.59	4.04	-39.2	-49.6	3.6	3.02e+01	0	40	104	0	52	18363
2026-01-25 21:49:35.72	49.47	4.08	-40.2	-50.7	3.5	3.02e+01	0	40	104	0	54	18665
2026-01-25 21:49:36.73	49.34	4.13	-39.8	-50.3	3.5	3.02e+01	0	40	104	0	54	17852
2026-01-25 21:49:37.74	49.21	4.18	-40.0	-50.5	3.6	3.02e+01	0	40	104	0	54	18149
2026-01-25 21:49:38.75	49.09	4.23	-40.0	-50.5	3.5	3.02e+01	0	40	104	0	54	18236
2026-01-25 21:49:39.76	48.96	4.27	-39.3	-49.8	3.5	3.02e+01	0	40	104	0	54	16860
2026-01-25 21:49:40.77	48.83	4.32	-39.4	-49.9	3.5	3.02e+01	0	40	104	0	54	17059
2026-01-25 21:49:41.78	48.70	4.37	-39.4	-49.9	3.5	3.02e+01	0	40	104	0	54	17065
2026-01-25 21:49:42.79	48.57	4.42	-39.6	-50.1	3.5	3.02e+01	0	40	104	0	54	17367
2026-01-25 21:49:43.80	48.44	4.46	-39.3	-49.7	3.5	3.02e+01	0	40	104	0	54	16587
2026-01-25 21:49:44.81	48.31	4.51	-39.5	-49.9	3.5	3.02e+01	0	40	104	0	54	16960
2026-01-25 21:49:45.82	48.18	4.56	-39.4	-49.8	3.5	3.02e+01	0	40	104	0	54	16780
2026-01-25 21:49:46.82	48.05	4.60	-39.3	-49.7	3.5	3.02e+01	0	40	104	0	54	16534
2026-01-25 21:49:47.84	47.92	4.65	-39.6	-50.0	3.5	3.02e+01	0	40	104	0	54	17266
2026-01-25 21:49:48.84	47.79	4.70	-39.2	-49.7	3.5	3.02e+01	0	40	104	0	52	18548
2026-01-25 21:49:49.85	47.66	4.75	-39.0	-49.3	3.5	3.02e+01	0	40	104	0	52	17846
2026-01-25 21:49:50.86	47.52	4.79	-39.6	-50.0	3.5	3.02e+01	0	40	104	0	52	19391
2026-01-25 21:49:51.87	47.39	4.84	-39.3	-49.7	3.5	3.02e+01	0	40	104	0	54	16669
2026-01-25 21:49:52.88	47.26	4.89	-39.2	-49.6	3.5	3.02e+01	0	40	104	0	54	16360
2026-01-25 21:49:53.89	47.12	4.93	-39.8	-50.3	3.5	3.02e+01	0	40	104	0	54	17699
2026-01-25 21:49:54.90	46.99	4.98	-39.6	-50.1	3.5	3.02e+01	0	40	104	0	52	19402
2026-01-25 21:49:55.91	46.85	5.03	-39.8	-50.2	3.5	3.02e+01	0	40	104	0	52	19671
2026-01-25 21:49:56.92	46.72	5.07	-39.4	-49.8	3.5	3.02e+01	0	40	104	0	54	16790
2026-01-25 21:49:57.93	46.58	5.12	-39.3	-49.7	3.6	3.02e+01	0	40	104	0	54	16629
2026-01-25 21:49:58.94	46.44	5.17	-39.3	-49.7	3.5	3.02e+01	0	40	104	0	54	16532
2026-01-25 21:49:59.95	46.31	5.21	-39.0	-49.4	3.5	3.02e+01	0	40	104	0	54	16076
2026-01-25 21:50:00.96	46.17	5.26	-39.2	-49.5	3.5	3.02e+01	0	40	104	0	54	16304
2026-01-25 21:50:01.97	46.03	5.31	-39.4	-49.9	3.5	3.02e+01	0	40	104	0	54	16910
2026-01-25 21:50:02.98	45.89	5.35	-38.7	-49.1	3.5	3.02e+01	0	40	104	0	52	17416
2026-01-25 21:50:03.99	45.75	5.40	-38.8	-49.1	3.5	3.02e+01	0	40	104	0	52	17463
2026-01-25 21:50:05.00	45.61	5.45	-38.9	-49.3	3.5	3.02e+01	0	40	104	0	52	17818
2026-01-25 21:50:06.01	45.47	5.49	-38.7	-49.1	3.5	3.02e+01	0	40	104	0	52	17349
2026-01-25 21:50:07.02	45.33	5.54	-39.1	-49.5	3.5	3.02e+01	0	40	104	0	52	18269
2026-01-25 21:50:08.03	45.19	5.58	-39.1	-49.5	3.5	3.02e+01	0	40	104	0	52	18225
2026-01-25 21:50:09.04	45.05	5.63	-39.2	-49.6	3.5	3.02e+01	0	40	104	0	52	18493
2026-01-25 21:50:10.05	44.91	5.68	-39.3	-49.7	3.5	3.02e+01	0	40	104	0	52	18637
2026-01-25 21:50:11.06	44.76	5.72	-39.3	-49.7	3.5	3.02e+01	0	40	104	0	52	18664
2026-01-25 21:50:12.07	44.62	5.77	-39.0	-49.4	3.5	3.02e+01	0	40	104	0	52	17919
2026-01-25 21:50:13.08	44.48	5.81	-39.0	-49.4	3.5	3.02e+01	0	40	104	0	52	17912
2026-01-25 21:50:14.09	44.33	5.86	-39.1	-49.4	3.5	3.02e+01	0	40	104	0	52	18101
2026-01-25 21:50:15.10	44.19	5.90	-38.9	-49.2	3.5	3.02e+01	0	40	104	0	52	17625
2026-01-25 21:50:16.10	44.04	5.95	-39.0	-49.4	3.5	3.02e+01	0	40	104	0	52	17950
2026-01-25 21:50:17.11	43.90	6.00	-38.7	-49.1	3.5	3.02e+01	0	40	104	0	52	17336
2026-01-25 21:50:18.12	43.75	6.04	-38.9	-49.3	3.5	3.02e+01	0	40	104	0	52	17856
2026-01-25 21:50:19.13	43.61	6.09	-38.9	-49.3	3.5	3.02e+01	0	40	104	0	52	17737
2026-01-25 21:50:20.14	43.46	6.13	-39.1	-49.5	3.5	3.02e+01	0	40	104	0	52	18153
2026-01-25 21:50:21.15	43.31	6.18	-39.1	-49.5	3.5	3.02e+01	0	40	104	0	52	18134
2026-01-25 21:50:22.15	43.16	6.22	-38.9	-49.4	3.6	3.02e+01	0	40	104	0	52	17898
2026-01-25 21:50:23.16	43.02	6.27	-39.1	-49.5	3.5	3.02e+01	0	40	104	0	52	18184
2026-01-25 21:50:24.17	42.87	6.31	-39.3	-49.7	3.5	3.02e+01	0	40	104	0	54	16636
2026-01-25 21:50:25.19	42.71	6.36	-49.2	-65.1	3.5	3.02e+01	0	40	104	0	60	69213
2026-01-25 21:50:26.19	42.57	6.40	-46.5	-59.4	3.6	3.02e+01	0	40	104	0	60	35874
2026-01-25 21:50:27.20	42.42	6.45	-49.3	-65.9	3.5	3.02e+01	0	40	104	0	60	75862
2026-01-25 21:50:28.21	42.26	6.49	-42.9	-53.7	3.5	3.02e+01	0	40	104	0	60	18674
2026-01-25 21:50:29.22	42.11	6.53	-41.6	-52.2	3.5	3.02e+01	0	40	104	0	58	17599
2026-01-25 21:50:30.23	41.96	6.58	-41.6	-52.2	3.5	3.02e+01	0	40	104	0	58	17508
2026-01-25 21:50:31.24	41.81	6.62	-43.1	-54.0	3.5	3.02e+01	0	40	104	0	60	19267
2026-01-25 21:50:32.25	41.65	6.67	-48.8	-63.9	3.5	3.02e+01	0	40	104	0	60	60420
2026-01-25 21:50:33.26	41.50	6.71	-47.6	-62.1	3.5	3.02e+01	0	40	104	0	60	49026
2026-01-25 21:50:34.27	41.35	6.76	-49.1	-66.9	3.6	3.02e+01	0	40	104	0	60	84812
2026-01-25 21:50:35.28	41.19	6.80	-40.5	-51.0	3.5	3.02e+01	0	40	104	0	54	19338
2026-01-25 21:50:36.29	41.03	6.84	-40.1	-50.6	3.5	3.02e+01	0	40	104	0	54	18320
2026-01-25 21:50:37.30	40.88	6.89	-40.9	-51.5	3.5	3.02e+01	0	40	104	0	54	20525
2026-01-25 21:50:38.31	40.72	6.93	-40.2	-50.8	3.5	3.02e+01	0	40	104	0	54	18745
2026-01-25 21:50:39.32	40.57	6.97	-40.2	-50.7	3.5	3.02e+01	0	40	104	0	56	16635
2026-01-25 21:50:40.33	40.41	7.02	-39.0	-49.3	3.5	3.02e+01	0	40	104	0	52	17857
2026-01-25 21:50:41.34	40.25	7.06	-48.6	-63.2	3.5	3.02e+01	0	40	104	0	60	55721
2026-01-25 21:50:42.35	40.09	7.10	-40.8	-51.3	3.5	3.02e+01	0	40	104	0	60	14198
2026-01-25 21:50:43.36	39.93	7.15	-47.4	-60.5	3.5	3.02e+01	0	40	104	0	60	40800
2026-01-25 21:50:44.37	39.77	7.19	-38.7	-49.0	3.5	3.02e+01	0	40	104	0	52	17176
2026-01-25 21:50:45.38	39.61	7.23	-38.7	-49.0	3.5	3.02e+01	0	40	104	0	52	17159
2026-01-25 21:50:46.39	39.45	7.28	-39.5	-50.0	3.5	3.02e+01	0	40	104	0	52	19203
2026-01-25 21:50:47.40	39.29	7.32	-43.4	-54.4	3.6	3.02e+01	0	40	104	0	60	20233
2026-01-25 21:50:48.40	39.13	7.36	-38.8	-49.1	3.5	3.02e+01	0	40	104	0	52	17359
2026-01-25 21:50:49.41	38.97	7.40	-48.8	-63.4	3.5	3.02e+01	0	40	104	0	60	57101
2026-01-25 21:50:50.42	38.81	7.45	-41.7	-52.3	3.5	3.02e+01	0	40	104	0	60	15942
2026-01-25 21:50:51.43	38.64	7.49	-47.7	-61.1	3.5	3.02e+01	0	40	104	0	60	43530
2026-01-25 21:50:52.44	38.48	7.53	-42.4	-53.2	3.5	3.02e+01	0	40	104	0	60	17582
2026-01-25 21:50:53.45	38.31	7.57	-42.4	-53.2	3.5	3.02e+01	0	40	104	0	60	17545
2026-01-25 21:50:54.46	38.15	7.61	-42.2	-53.0	3.6	3.02e+01	0	40	104	0	60	17149
2026-01-25 21:50:55.47	37.98	7.65	-44.4	-55.5	3.6	3.02e+01	0	40	104	0	58	25713
2026-01-25 21:50:56.48	37.82	7.70	-40.9	-51.4	3.5	3.02e+01	0	40	104	0	60	14361
2026-01-25 21:50:57.49	37.65	7.74	-47.9	-61.5	3.5	3.02e+01	0	40	104	0	60	45841
2026-01-25 21:50:58.50	37.49	7.78	-41.6	-52.2	3.5	3.02e+01	0	40	104	0	60	15696
2026-01-25 21:50:59.51	37.32	7.82	-38.8	-49.1	3.5	3.02e+01	0	40	104	0	52	17422
2026-01-25 21:51:00.52	37.15	7.86	-39.1	-49.5	3.5	3.02e+01	0	40	104	0	52	18119
2026-01-25 21:51:01.53	36.98	7.90	-38.9	-49.3	3.5	3.02e+01	0	40	104	0	52	17714
2026-01-25 21:51:02.54	36.81	7.94	-38.4	-48.7	3.5	3.02e+01	0	40	104	0	52	16654
2026-01-25 21:51:03.55	36.64	7.98	-38.8	-49.1	3.5	3.02e+01	0	40	104	0	52	17363
2026-01-25 21:51:04.56	36.47	8.02	-40.2	-50.6	3.5	3.02e+01	0	40	104	0	52	20774
2026-01-25 21:51:05.57	36.30	8.06	-45.9	-57.8	3.5	3.02e+01	0	40	104	0	60	29926
2026-01-25 21:51:06.58	36.13	8.10	-38.9	-49.3	3.5	3.02e+01	0	40	104	0	52	17740
2026-01-25 21:51:07.58	35.96	8.14	-40.5	-51.0	3.5	3.02e+01	0	40	104	0	60	13622
2026-01-25 21:51:08.59	35.79	8.18	-38.5	-48.8	3.5	3.02e+01	0	40	104	0	52	16727
2026-01-25 21:51:09.60	35.62	8.22	-38.2	-48.5	3.5	3.02e+01	0	40	104	0	52	16239
2026-01-25 21:51:10.62	35.44	8.26	-43.0	-53.8	3.7	3.02e+01	0	40	104	0	56	23770
2026-01-25 21:51:11.62	35.27	8.30	-40.3	-50.8	3.4	3.02e+01	0	40	104	0	58	14894
2026-01-25 21:51:12.63	35.10	8.34	-44.2	-55.4	3.5	3.02e+01	0	40	104	0	56	28677
2026-01-25 21:51:13.64	34.92	8.38	-44.7	-56.1	3.5	3.02e+01	0	40	104	0	60	24568
2026-01-25 21:51:14.65	34.75	8.42	-42.6	-53.3	3.5	3.02e+01	0	40	104	0	50	31503
2026-01-25 21:51:15.66	34.57	8.45	-43.6	-54.6	3.5	3.02e+01	0	40	104	0	60	20618
2026-01-25 21:51:16.67	34.39	8.49	-41.0	-51.6	3.5	3.02e+01	0	40	104	0	56	18362
2026-01-25 21:51:17.68	34.22	8.53	-41.3	-51.9	3.5	3.02e+01	0	40	104	0	56	19010
2026-01-25 21:51:18.69	34.04	8.57	-40.2	-50.6	3.5	3.02e+01	0	40	104	0	54	18477
2026-01-25 21:51:19.70	33.86	8.61	-37.6	-47.9	3.5	3.02e+01	0	40	104	0	50	16979
2026-01-25 21:51:20.71	33.68	8.64	-46.5	-58.7	3.5	3.02e+01	0	40	104	0	60	33100
2026-01-25 21:51:21.72	33.51	8.68	-45.5	-57.1	3.5	3.02e+01	0	40	104	0	60	27661
2026-01-25 21:51:22.73	33.33	8.72	-43.6	-54.6	3.5	3.02e+01	0	40	104	0	54	29065
2026-01-25 21:51:23.74	33.15	8.76	-41.7	-52.3	3.5	3.02e+01	0	40	104	0	60	15823
2026-01-25 21:51:24.75	32.97	8.79	-40.4	-50.9	3.5	3.02e+01	0	40	104	0	56	16924
2026-01-25 21:51:25.76	32.79	8.83	-40.7	-51.2	3.5	3.02e+01	0	40	104	0	56	17517
2026-01-25 21:51:26.77	32.60	8.87	-40.0	-50.4	3.5	3.02e+01	0	40	104	0	54	17956
2026-01-25 21:51:27.77	32.42	8.90	-38.0	-48.3	3.5	3.02e+01	0	40	104	0	50	17693
2026-01-25 21:51:28.78	32.24	8.94	-49.4	-65.3	3.5	3.02e+01	0	40	104	0	60	71249
2026-01-25 21:51:29.79	32.06	8.97	-45.7	-57.4	3.5	3.02e+01	0	40	104	0	60	28392
2026-01-25 21:51:30.81	31.88	9.01	-48.4	-62.3	3.5	3.02e+01	0	40	104	0	60	50100
2026-01-25 21:51:31.82	31.69	9.05	-42.2	-52.8	3.5	3.02e+01	0	40	104	0	60	16868
2026-01-25 21:51:32.83	31.51	9.08	-39.6	-50.0	3.5	3.02e+01	0	40	104	0	54	17235
2026-01-25 21:51:33.83	31.32	9.12	-39.3	-49.6	3.5	3.02e+01	0	40	104	0	54	16416
2026-01-25 21:51:34.84	31.14	9.15	-40.0	-50.4	3.5	3.02e+01	0	40	104	0	52	20092
2026-01-25 21:51:35.86	30.95	9.18	-38.3	-48.7	3.5	3.02e+01	0	40	104	0	50	18562
2026-01-25 21:51:36.87	30.77	9.22	-49.7	-66.6	3.5	3.02e+01	0	40	104	0	60	82502
2026-01-25 21:51:37.87	30.58	9.25	-46.1	-58.2	3.5	3.02e+01	0	40	104	0	60	31223
2026-01-25 21:51:38.88	30.39	9.29	-49.6	-66.1	3.5	3.02e+01	0	40	104	0	60	77870
2026-01-25 21:51:39.90	30.20	9.32	-38.4	-48.7	3.5	3.02e+01	0	40	104	0	52	16634
2026-01-25 21:51:40.91	30.02	9.35	-38.2	-48.4	3.5	3.02e+01	0	40	104	0	52	16092
2026-01-25 21:51:41.91	29.83	9.39	-38.0	-48.2	3.5	3.02e+01	0	40	104	0	50	17642
2026-01-25 21:51:42.92	29.64	9.42	-43.8	-54.9	3.5	3.02e+01	0	40	104	0	58	23909
2026-01-25 21:51:43.93	29.45	9.45	-38.7	-49.0	3.5	3.02e+01	0	40	104	0	50	19186
2026-01-25 21:51:44.94	29.26	9.49	-49.8	-67.4	3.5	3.02e+01	0	40	104	0	60	89849
2026-01-25 21:51:45.95	29.07	9.52	-47.9	-61.2	3.5	3.02e+01	0	40	104	0	60	44166
2026-01-25 21:51:46.96	28.88	9.55	-49.9	-67.6	3.5	3.02e+01	0	40	104	0	60	92312
2026-01-25 21:51:47.97	28.69	9.58	-43.1	-54.0	3.5	3.02e+01	0	40	104	0	60	19327
2026-01-25 21:51:48.98	28.50	9.61	-41.6	-52.2	3.5	3.02e+01	0	40	104	0	58	17658
2026-01-25 21:51:49.99	28.31	9.64	-42.5	-53.2	3.5	3.02e+01	0	40	104	0	58	19692
2026-01-25 21:51:51.00	28.11	9.68	-41.6	-52.3	3.5	3.02e+01	0	40	104	0	56	19864
2026-01-25 21:51:52.01	27.92	9.71	-49.9	-67.8	3.5	3.02e+01	0	40	104	0	60	94061
2026-01-25 21:51:53.02	27.73	9.74	-47.9	-61.3	3.5	3.02e+01	0	40	104	0	60	44821
2026-01-25 21:51:54.03	27.53	9.77	-49.9	-67.1	3.5	3.02e+01	0	40	104	0	60	87320
2026-01-25 21:51:55.04	27.34	9.80	-40.0	-50.3	3.5	3.02e+01	0	40	104	0	54	17863
2026-01-25 21:51:56.05	27.14	9.83	-40.2	-50.5	3.5	3.02e+01	0	40	104	0	54	18293
2026-01-25 21:51:57.06	26.95	9.86	-39.4	-49.7	3.5	3.02e+01	0	40	104	0	54	16528
2026-01-25 21:51:58.07	26.75	9.89	-39.7	-50.1	3.5	3.02e+01	0	40	104	0	54	17431
2026-01-25 21:51:59.08	26.56	9.92	-39.1	-49.4	3.5	3.02e+01	0	40	104	0	54	15981
2026-01-25 21:52:00.09	26.36	9.94	-38.7	-49.1	3.5	3.02e+01	0	40	104	0	50	19411
2026-01-25 21:52:01.10	26.16	9.97	-49.8	-67.2	3.5	3.02e+01	0	40	104	0	60	88161
2026-01-25 21:52:02.11	25.97	10.00	-45.3	-56.7	3.5	3.02e+01	0	40	104	0	60	26340
2026-01-25 21:52:03.12	25.77	10.03	-49.7	-66.8	3.5	3.02e+01	0	40	104	0	60	84246
2026-01-25 21:52:04.13	25.57	10.06	-38.5	-48.8	3.5	3.02e+01	0	40	104	0	52	16766
2026-01-25 21:52:05.14	25.37	10.08	-38.1	-48.3	3.5	3.02e+01	0	40	104	0	52	15860
2026-01-25 21:52:06.15	25.17	10.11	-38.4	-48.7	3.5	3.02e+01	0	40	104	0	52	16597
2026-01-25 21:52:07.16	24.97	10.14	-44.8	-56.3	3.6	3.02e+01	0	40	104	0	60	25230
2026-01-25 21:52:08.17	24.77	10.16	-38.5	-48.8	3.5	3.02e+01	0	40	104	0	50	18795
2026-01-25 21:52:09.18	24.57	10.19	-49.7	-66.6	3.5	3.02e+01	0	40	104	0	60	82261
2026-01-25 21:52:10.19	24.37	10.22	-43.5	-54.6	3.6	3.02e+01	0	40	104	0	60	20777
2026-01-25 21:52:11.20	24.17	10.24	-49.7	-67.0	3.5	3.02e+01	0	40	104	0	60	86263
2026-01-25 21:52:12.21	23.97	10.27	-41.2	-51.8	3.5	3.02e+01	0	40	104	0	58	16729
2026-01-25 21:52:13.22	23.77	10.29	-41.4	-51.9	3.5	3.02e+01	0	40	104	0	56	19142
2026-01-25 21:52:14.23	23.57	10.32	-42.1	-52.7	3.5	3.02e+01	0	40	104	0	56	20983
2026-01-25 21:52:15.24	23.36	10.34	-49.4	-64.7	3.5	3.02e+01	0	40	104	0	60	65958
2026-01-25 21:52:16.25	23.16	10.37	-38.1	-48.3	3.5	3.02e+01	0	40	104	0	52	15868
2026-01-25 21:52:17.26	22.96	10.39	-48.5	-62.7	3.6	3.02e+01	0	40	104	0	60	52510
2026-01-25 21:52:18.27	22.75	10.41	-40.9	-51.4	3.3	3.02e+01	0	40	104	0	60	14299
2026-01-25 21:52:19.28	22.55	10.44	-49.7	-66.2	3.5	3.02e+01	0	40	104	0	60	78472
2026-01-25 21:52:20.29	22.35	10.46	-41.8	-52.4	3.5	3.02e+01	0	40	104	0	58	18004
2026-01-25 21:52:21.30	22.14	10.48	-42.1	-52.8	3.5	3.02e+01	0	40	104	0	58	18766
2026-01-25 21:52:22.31	21.94	10.51	-40.0	-50.3	3.5	3.02e+01	0	40	104	0	56	15894
2026-01-25 21:52:23.32	21.73	10.53	-38.3	-48.6	3.6	3.02e+01	0	40	104	0	52	16454
2026-01-25 21:52:24.33	21.52	10.55	-38.1	-48.3	3.5	3.02e+01	0	40	104	0	50	17867
2026-01-25 21:52:25.34	21.32	10.57	-48.6	-63.2	3.5	3.02e+01	0	40	104	0	60	55839
2026-01-25 21:52:26.35	21.11	10.59	-39.8	-50.1	3.5	3.02e+01	0	40	104	0	60	12354
2026-01-25 21:52:27.36	20.91	10.61	-48.9	-63.9	3.4	3.02e+01	0	40	104	0	60	60109
2026-01-25 21:52:28.37	20.70	10.63	-37.8	-39.4	5.2	3.02e+01	0	40	104	0	50	6409
2026-01-25 21:52:29.38	20.49	10.65	-37.2	-38.6	28.1	3.02e+01	0	40	0	0	50	5796
2026-01-25 21:52:30.39	20.28	10.67	-37.3	-38.6	28.1	3.02e+01	0	40	0	2097152	50	5850
2026-01-25 21:52:31.40	20.08	10.69	-37.2	-38.5	28.2	3.02e+01	0	40	0	4194304	50	5748
2026-01-25 21:52:32.40	19.87	10.71	-37.2	-38.5	28.2	3.02e+01	0	40	0	5767168	50	5771
2026-01-25 21:52:33.41	19.66	10.73	-37.0	-38.3	28.4	3.02e+01	0	40	0	7864320	50	5631
2026-01-25 21:52:34.42	19.45	10.75	-37.1	-38.5	28.2	3.02e+01	0	40	0	9961472	50	5728
2026-01-25 21:52:35.43	19.24	10.77	-37.0	-38.3	28.5	3.02e+01	0	40	0	11534336	50	5605
2026-01-25 21:52:36.44	19.03	10.79	-37.2	-38.4	28.3	3.02e+01	0	40	0	13631488	48	6407
2026-01-25 21:52:37.45	18.82	10.80	-37.0	-38.3	28.4	3.02e+01	0	40	0	15204352	48	6307
2026-01-25 21:52:38.46	18.61	10.82	-37.1	-38.4	28.4	3.02e+01	0	40	0	17301504	48	6363
2026-01-25 21:52:39.47	18.40	10.84	-37.0	-38.3	28.5	3.02e+01	0	40	0	19398656	48	6309
2026-01-25 21:52:40.48	18.19	10.85	-37.1	-38.4	28.4	3.02e+01	0	40	0	20971520	48	6361
2026-01-25 21:52:41.49	17.98	10.87	-37.4	-38.7	28.1	3.02e+01	0	40	0	23068672	48	6615
2026-01-25 21:52:42.50	17.77	10.89	-37.3	-38.6	28.2	3.02e+01	0	40	0	25165824	48	6529
2026-01-25 21:52:43.51	17.56	10.90	-37.3	-38.6	28.2	3.02e+01	0	40	0	26738688	48	6504
2026-01-25 21:52:44.52	17.35	10.92	-37.4	-38.7	28.2	3.02e+01	0	40	0	28835840	48	6590
2026-01-25 21:52:45.53	17.14	10.93	-37.2	-38.5	28.3	3.02e+01	0	40	0	30408704	48	6461
2026-01-25 21:52:46.54	16.93	10.95	-37.2	-38.4	28.3	3.02e+01	0	40	0	32505856	48	6420
2026-01-25 21:52:47.55	16.71	10.96	-37.2	-38.5	28.3	3.02e+01	0	40	0	34603008	48	6447
2026-01-25 21:52:48.56	16.50	10.97	-37.0	-38.3	28.5	3.02e+01	0	40	0	36175872	48	6294
2026-01-25 21:52:49.57	16.29	10.99	-37.2	-38.4	28.3	3.02e+01	0	40	0	38273024	48	6411
2026-01-25 21:52:50.58	16.08	11.00	-37.2	-38.5	28.3	3.02e+01	0	40	0	39845888	48	6460
2026-01-25 21:52:51.59	15.86	11.01	-37.2	-38.5	28.3	3.02e+01	0	40	0	41943040	48	6446
2026-01-25 21:52:52.60	15.65	11.02	-37.4	-38.6	28.2	3.02e+01	0	40	0	44040192	48	6569
2026-01-25 21:52:53.61	15.44	11.04	-37.2	-38.5	28.3	3.02e+01	0	40	0	45613056	48	6442
2026-01-25 21:52:54.62	15.22	11.05	-37.3	-38.6	28.3	3.02e+01	0	40	0	47710208	48	6510
2026-01-25 21:52:55.63	15.01	11.06	-37.1	-38.3	28.5	3.02e+01	0	40	0	49807360	48	6322
2026-01-25 21:52:56.64	14.80	11.07	-37.1	-38.4	28.3	3.02e+01	0	40	0	51380224	48	6380
2026-01-25 21:52:57.65	14.58	11.08	-37.4	-38.6	28.2	3.02e+01	0	40	0	53477376	48	6563
2026-01-25 21:52:58.66	14.37	11.09	-37.1	-38.3	28.4	3.02e+01	0	40	0	55050240	48	6317
2026-01-25 21:52:59.67	14.15	11.10	-37.2	-38.5	28.4	3.02e+01	0	40	0	57147392	48	6429
2026-01-25 21:53:00.68	13.94	11.11	-37.2	-38.5	28.4	3.02e+01	0	40	0	59244544	48	6429
2026-01-25 21:53:01.69	13.72	11.12	-37.2	-38.5	28.3	3.02e+01	0	40	0	60817408	48	6458
2026-01-25 21:53:02.70	13.51	11.13	-37.2	-38.5	28.4	3.02e+01	0	40	0	62914560	48	6426
2026-01-25 21:53:03.71	13.30	11.14	-37.2	-38.4	28.4	3.02e+01	0	40	0	64487424	48	6423
2026-01-25 21:53:04.72	13.08	11.14	-37.1	-38.3	28.4	3.02e+01	0	40	0	66584576	48	6348
2026-01-25 21:53:05.73	12.86	11.15	-37.0	-38.3	28.5	3.02e+01	0	40	0	68681728	48	6306
2026-01-25 21:53:06.74	12.65	11.16	-37.2	-38.5	28.3	3.02e+01	0	40	0	70254592	48	6425
2026-01-25 21:53:07.75	12.43	11.17	-37.1	-38.4	28.5	3.02e+01	0	40	0	72351744	48	6383
2026-01-25 21:53:08.76	12.22	11.17	-37.2	-38.4	28.4	3.02e+01	0	40	0	73924608	48	6422
2026-01-25 21:53:09.77	12.00	11.18	-37.3	-38.5	28.4	3.02e+01	0	40	0	76021760	48	6466
2026-01-25 21:53:10.78	11.79	11.19	-37.3	-38.6	28.3	3.02e+01	0	40	0	78118912	48	6540
2026-01-25 21:53:11.79	11.57	11.19	-37.3	-38.5	28.4	3.02e+01	0	40	0	79691776	48	6495
2026-01-25 21:53:12.80	11.36	11.20	-37.1	-38.3	28.5	3.02e+01	0	40	0	81788928	48	6325
2026-01-25 21:53:13.80	11.14	11.20	-37.3	-38.5	28.3	3.02e+01	0	40	0	83361792	48	6483
2026-01-25 21:53:14.82	10.92	11.20	-37.4	-38.6	28.3	3.02e+01	0	40	0	85458944	48	6565
2026-01-25 21:53:15.82	10.71	11.21	-37.3	-38.6	28.3	3.02e+01	0	40	0	87556096	48	6528
2026-01-25 21:53:16.83	10.49	11.21	-37.5	-38.7	28.3	3.02e+01	0	40	0	89128960	48	6638
2026-01-25 21:53:17.84	10.28	11.22	-37.4	-38.7	28.2	3.02e+01	0	40	0	91226112	48	6611
2026-01-25 21:53:18.85	10.06	11.22	-37.4	-38.6	28.2	3.02e+01	0	40	0	93323264	48	6550
2026-01-25 21:53:19.86	9.84	11.22	-37.4	-38.6	28.3	3.02e+01	0	40	0	94896128	48	6564
2026-01-25 21:53:20.87	9.63	11.22	-37.3	-38.5	28.5	3.02e+01	0	40	0	96993280	48	6469
2026-01-25 21:53:21.88	9.41	11.22	-37.1	-38.3	28.4	3.02e+01	0	40	0	98566144	48	6346
2026-01-25 21:53:22.89	9.20	11.23	-37.2	-38.4	28.4	3.02e+01	0	40	0	100663296	48	6416
2026-01-25 21:53:23.90	8.98	11.23	-37.3	-38.5	28.3	3.02e+01	0	40	0	102760448	48	6487
2026-01-25 21:53:24.91	8.76	11.23	-37.2	-38.5	28.3	3.02e+01	0	40	0	104333312	48	6452
2026-01-25 21:53:25.92	8.55	11.23	-37.0	-38.2	28.5	3.02e+01	0	40	0	106430464	48	6225
2026-01-25 21:53:26.92	8.33	11.23	-37.1	-38.3	28.4	3.02e+01	0	40	0	108003328	48	6310
2026-01-25 21:53:27.93	8.12	11.23	-37.2	-38.4	28.3	3.02e+01	0	40	0	110100480	48	6399
2026-01-25 21:53:28.94	7.90	11.23	-37.2	-38.5	28.2	3.02e+01	0	40	0	112197632	48	6444
2026-01-25 21:53:29.95	7.68	11.23	-37.2	-38.4	28.4	3.02e+01	0	40	0	113770496	48	6396
2026-01-25 21:53:30.96	7.47	11.22	-37.3	-38.5	28.2	3.02e+01	0	40	0	115867648	48	6470
2026-01-25 21:53:31.97	7.25	11.22	-37.2	-38.4	28.2	3.02e+01	0	40	0	117440512	48	6419
2026-01-25 21:53:32.98	7.03	11.22	-37.0	-38.2	28.5	3.02e+01	0	40	0	119537664	48	6236
2026-01-25 21:53:33.99	6.82	11.22	-37.2	-38.5	28.4	3.02e+01	0	40	0	121634816	48	6435
2026-01-25 21:53:35.00	6.60	11.21	-37.0	-38.3	28.6	3.02e+01	0	40	0	123207680	48	6283
2026-01-25 21:53:36.01	6.39	11.21	-37.0	-38.3	28.5	3.02e+01	0	40	0	125304832	48	6291
2026-01-25 21:53:37.02	6.17	11.21	-37.3	-38.5	28.4	3.02e+01	0	40	0	126877696	48	6469
2026-01-25 21:53:38.03	5.95	11.20	-37.1	-38.3	28.6	3.02e+01	0	40	0	128974848	48	6344
2026-01-25 21:53:39.03	5.74	11.20	-37.3	-38.6	28.4	3.02e+01	0	40	0	131072000	48	6520
2026-01-25 21:53:40.05	5.52	11.19	-37.3	-38.5	28.3	3.02e+01	0	40	0	132644864	48	6489
2026-01-25 21:53:41.06	5.31	11.19	-37.1	-38.4	28.5	3.02e+01	0	40	0	134742016	48	6356
2026-01-25 21:53:42.06	5.09	11.18	-37.1	-38.3	28.5	3.02e+01	0	40	0	136314880	48	6326
2026-01-25 21:53:43.07	4.88	11.18	-37.3	-38.6	28.3	3.02e+01	0	40	0	138412032	48	6538
2026-01-25 21:53:44.08	4.66	11.17	-37.3	-38.6	28.3	3.02e+01	0	40	0	140509184	48	6515
2026-01-25 21:53:45.09	4.45	11.16	-37.0	-38.3	28.5	3.02e+01	0	40	0	142082048	48	6303
2026-01-25 21:53:46.10	4.23	11.15	-37.1	-38.4	28.3	3.02e+01	0	40	0	144179200	48	6354
2026-01-25 21:53:47.11	4.01	11.15	-37.1	-38.4	28.4	3.02e+01	0	40	0	146276352	48	6371
2026-01-25 21:53:48.12	3.80	11.14	-37.1	-38.4	28.5	3.02e+01	0	40	0	147849216	48	6353
2026-01-25 21:53:49.13	3.58	11.13	-37.0	-38.2	28.3	3.02e+01	0	40	0	149946368	48	6251
2026-01-25 21:53:50.13	3.37	11.12	-37.1	-38.3	28.5	3.02e+01	0	40	0	151519232	48	6311
2026-01-25 21:53:51.14	3.16	11.11	-37.1	-38.3	28.3	3.02e+01	0	40	0	153616384	48	6347
2026-01-25 21:53:52.15	2.94	11.10	-37.0	-38.3	28.5	3.02e+01	0	40	0	155713536	48	6301
2026-01-25 21:53:53.16	2.73	11.09	-37.3	-38.6	28.1	3.02e+01	0	40	0	157286400	48	6514
2026-01-25 21:53:54.18	2.51	11.08	-37.3	-38.5	28.3	3.02e+01	0	40	0	159383552	48	6465
2026-01-25 21:53:55.19	2.30	11.07	-37.4	-38.7	28.1	3.02e+01	0	40	0	161480704	48	6605
2026-01-25 21:53:56.20	2.08	11.06	-37.6	-38.9	28.0	3.02e+01	0	40	0	163053568	48	6741
2026-01-25 21:53:57.21	1.87	11.05	-37.6	-38.9	28.0	3.02e+01	0	40	0	165150720	48	6749
2026-01-25 21:53:58.22	1.66	11.04	-38.0	-39.3	27.4	3.02e+01	0	40	0	166723584	50	6312
2026-01-25 21:53:59.23	1.44	11.03	-37.9	-39.2	27.7	3.02e+01	0	40	0	168820736	50	6268
2026-01-25 21:54:00.24	1.23	11.02	-38.1	-39.4	27.5	3.02e+01	0	40	0	170917888	50	6412
2026-01-25 21:54:01.25	1.02	11.00	-38.2	-39.5	27.5	3.02e+01	0	40	0	172490752	50	6445
2026-01-25 21:54:02.26	0.81	10.99	-38.2	-39.5	27.5	3.02e+01	0	40	0	174587904	50	6463
2026-01-25 21:54:03.27	0.59	10.98	-38.0	-39.3	27.6	3.02e+01	0	40	0	176160768	50	6317
2026-01-25 21:54:04.27	0.38	10.96	-37.9	-39.2	27.7	3.02e+01	0	40	0	178257920	50	6248
2026-01-25 21:54:05.28	0.17	10.95	-39.2	-40.6	26.8	3.02e+01	0	40	0	180355072	52	6511
2026-01-25 21:54:06.29	359.96	10.93	-38.8	-40.1	26.6	3.02e+01	0	40	0	181927936	52	6189
2026-01-25 21:54:07.30	359.75	10.92	-38.8	-40.1	27.0	3.02e+01	0	40	0	184025088	52	6169
2026-01-25 21:54:08.31	359.54	10.90	-38.2	-39.5	27.3	3.02e+01	0	40	0	185597952	50	6470
2026-01-25 21:54:09.32	359.32	10.89	-38.1	-39.4	27.4	3.02e+01	0	40	0	187695104	50	6368
2026-01-25 21:54:10.33	359.11	10.87	-38.5	-39.9	27.0	3.02e+01	0	40	0	189792256	50	6747
2026-01-25 21:54:11.34	358.90	10.86	-38.6	-40.0	27.3	3.02e+01	0	40	0	191365120	50	6819
2026-01-25 21:54:12.35	358.69	10.84	-38.0	-39.3	27.3	3.02e+01	0	40	0	193462272	50	6307
2026-01-25 21:54:13.36	358.48	10.82	-38.2	-39.5	27.2	3.02e+01	0	40	0	195035136	50	6440
2026-01-25 21:54:14.37	358.27	10.81	-38.0	-39.3	27.5	3.02e+01	0	40	0	197132288	50	6300
2026-01-25 21:54:15.38	358.06	10.79	-38.3	-39.6	27.1	3.02e+01	0	40	0	199229440	50	6547
2026-01-25 21:54:16.39	357.85	10.77	-37.7	-39.0	27.9	3.02e+01	0	40	0	200802304	50	6100
2026-01-25 21:54:17.40	357.64	10.75	-37.8	-39.1	27.8	3.02e+01	0	40	0	202899456	50	6191
2026-01-25 21:54:18.41	357.44	10.74	-37.8	-39.1	27.9	3.02e+01	0	40	0	204472320	50	6144
2026-01-25 21:54:19.42	357.23	10.72	-38.1	-39.4	27.5	3.02e+01	0	40	0	206569472	50	6394
2026-01-25 21:54:20.43	357.02	10.70	-38.0	-39.3	27.7	3.02e+01	0	40	0	208666624	50	6307
2026-01-25 21:54:21.44	356.81	10.68	-37.9	-39.2	27.6	3.02e+01	0	40	0	210239488	50	6267
2026-01-25 21:54:22.44	356.61	10.66	-37.6	-38.9	27.9	3.02e+01	0	40	0	212336640	50	6044
2026-01-25 21:54:23.45	356.40	10.64	-37.9	-39.2	27.7	3.02e+01	0	40	0	214433792	50	6217
2026-01-25 21:54:24.46	356.19	10.62	-37.7	-39.0	27.8	3.02e+01	0	40	0	216006656	50	6091
2026-01-25 21:54:25.47	355.99	10.60	-37.9	-39.2	27.5	3.02e+01	0	40	0	218103808	50	6234
2026-01-25 21:54:26.48	355.78	10.58	-37.5	-38.8	27.7	3.02e+01	0	40	0	219676672	50	5935
2026-01-25 21:54:27.49	355.57	10.56	-37.5	-38.8	27.8	3.02e+01	0	40	0	221773824	50	5950
2026-01-25 21:54:28.50	355.37	10.53	-37.4	-38.7	27.9	3.02e+01	0	40	0	223870976	50	5895
2026-01-25 21:54:29.51	355.16	10.51	-37.4	-38.6	27.9	3.02e+01	0	40	0	225443840	50	5843
2026-01-25 21:54:30.52	354.96	10.49	-37.3	-38.5	28.2	3.02e+01	0	40	0	227540992	50	5781
2026-01-25 21:54:31.53	354.75	10.47	-37.4	-38.7	28.0	3.02e+01	0	40	0	229638144	50	5904
2026-01-25 21:54:32.54	354.55	10.44	-37.6	-38.8	28.1	3.02e+01	0	40	0	231211008	50	5975
2026-01-25 21:54:33.55	354.34	10.42	-37.4	-38.6	28.2	3.02e+01	0	40	0	233308160	50	5836
2026-01-25 21:54:34.56	354.14	10.40	-37.1	-38.3	28.4	3.02e+01	0	40	0	234881024	50	5650
2026-01-25 21:54:35.57	353.94	10.37	-37.4	-38.7	28.1	3.02e+01	0	40	0	236978176	50	5880
2026-01-25 21:54:36.58	353.73	10.35	-37.8	-39.0	27.8	3.02e+01	0	40	0	239075328	50	6133
2026-01-25 21:54:37.59	353.53	10.32	-37.9	-39.2	27.7	3.02e+01	0	40	0	240648192	50	6211
2026-01-25 21:54:38.60	353.33	10.30	-37.9	-39.2	27.6	3.02e+01	0	40	0	242745344	50	6259
2026-01-25 21:54:39.62	353.13	10.27	-37.6	-38.8	27.9	3.02e+01	0	40	0	244318208	50	5994
2026-01-25 21:54:40.62	352.93	10.25	-37.5	-38.8	28.0	3.02e+01	0	40	0	246415360	50	5960
2026-01-25 21:54:41.63	352.73	10.22	-37.5	-38.8	28.1	3.02e+01	0	40	0	248512512	50	5936
2026-01-25 21:54:42.64	352.53	10.20	-37.8	-39.1	27.8	3.02e+01	0	40	0	250085376	50	6181
2026-01-25 21:54:43.65	352.33	10.17	-37.9	-39.2	27.7	3.02e+01	0	40	0	252182528	50	6229
2026-01-25 21:54:44.66	352.13	10.15	-37.6	-38.9	28.0	3.02e+01	0	40	0	253755392	50	6042
2026-01-25 21:54:45.68	351.92	10.12	-37.8	-39.1	27.6	3.02e+01	0	40	0	255852544	50	6205
2026-01-25 21:54:46.69	351.73	10.09	-37.5	-38.8	27.9	3.02e+01	0	40	0	257949696	50	5962
2026-01-25 21:54:47.70	351.53	10.06	-37.6	-38.9	28.0	3.02e+01	0	40	0	259522560	50	6004
2026-01-25 21:54:48.71	351.33	10.04	-37.7	-38.9	27.9	3.02e+01	0	40	0	261619712	50	6058
2026-01-25 21:54:49.71	351.13	10.01	-37.7	-39.0	27.9	3.02e+01	0	40	0	263192576	50	6098
2026-01-25 21:54:50.73	350.93	9.98	-37.8	-39.1	27.8	3.02e+01	0	40	0	265289728	50	6158
2026-01-25 21:54:51.74	350.74	9.95	-37.7	-39.0	27.9	3.02e+01	0	40	0	267386880	50	6069
2026-01-25 21:54:52.74	350.54	9.92	-37.8	-39.1	27.8	3.02e+01	0	40	0	268959744	50	6186
2026-01-25 21:54:53.76	350.34	9.89	-38.1	-39.5	27.5	3.02e+01	0	40	0	271056896	50	6428
2026-01-25 21:54:54.77	350.15	9.87	-38.1	-39.4	27.3	3.02e+01	0	40	0	272629760	50	6423
2026-01-25 21:54:55.78	349.95	9.84	-38.2	-39.5	27.4	3.02e+01	0	40	0	274726912	50	6473
2026-01-25 21:54:56.79	349.76	9.81	-38.0	-39.3	27.5	3.02e+01	0	40	0	276824064	50	6305
2026-01-25 21:54:57.79	349.57	9.78	-37.9	-39.2	27.8	3.02e+01	0	40	0	278396928	50	6234
2026-01-25 21:54:58.80	349.37	9.75	-38.2	-39.5	27.3	3.02e+01	0	40	0	280494080	50	6447
2026-01-25 21:54:59.81	349.18	9.72	-38.2	-39.5	27.3	3.02e+01	0	40	0	282591232	50	6450
2026-01-25 21:55:00.82	348.99	9.68	-38.7	-40.0	27.0	3.02e+01	0	40	0	284164096	50	6861
2026-01-25 21:55:01.83	348.79	9.65	-38.7	-40.1	26.8	3.02e+01	0	40	0	286261248	50	6888
2026-01-25 21:55:02.84	348.60	9.62	-38.8	-40.2	26.6	3.02e+01	0	40	0	287834112	52	6244
2026-01-25 21:55:03.85	348.41	9.59	-38.6	-40.0	26.6	3.02e+01	0	40	0	289931264	52	6069
2026-01-25 21:55:04.86	348.22	9.56	-38.8	-40.2	26.5	3.02e+01	0	40	0	292028416	52	6217
2026-01-25 21:55:05.87	348.03	9.53	-38.5	-39.8	26.7	3.02e+01	0	40	0	293601280	52	5977
2026-01-25 21:55:06.88	347.84	9.50	-38.4	-39.7	26.7	3.02e+01	0	40	0	295698432	52	5878
2026-01-25 21:55:07.89	347.65	9.46	-39.0	-40.3	26.1	3.02e+01	0	40	0	297795584	52	6349
2026-01-25 21:55:08.90	347.46	9.43	-38.9	-40.3	25.9	3.02e+01	0	40	0	299368448	52	6283
2026-01-25 21:55:09.91	347.27	9.40	-39.2	-40.7	25.7	3.02e+01	0	40	0	301465600	52	6575
2026-01-25 21:55:10.92	347.08	9.36	-38.3	-39.6	27.0	3.02e+01	0	40	0	303038464	52	5834
2026-01-25 21:55:11.93	346.89	9.33	-38.5	-39.9	26.9	3.02e+01	0	40	0	305135616	52	6028
2026-01-25 21:55:12.93	346.71	9.30	-38.3	-39.7	27.0	3.02e+01	0	40	0	307232768	52	5859
2026-01-25 21:55:13.95	346.52	9.26	-38.6	-40.0	26.8	3.02e+01	0	40	0	308805632	52	6111
2026-01-25 21:55:14.95	346.33	9.23	-37.5	-38.8	28.0	3.02e+01	0	40	0	310902784	50	5963
2026-01-25 21:55:15.96	346.15	9.20	-38.2	-39.5	27.3	3.02e+01	0	40	0	312475648	50	6496
2026-01-25 21:55:16.97	345.96	9.16	-37.5	-38.8	27.9	3.02e+01	0	40	0	314572800	50	5947
2026-01-25 21:55:17.98	345.78	9.13	-38.2	-39.5	27.2	3.02e+01	0	40	0	316669952	50	6494
2026-01-25 21:55:18.99	345.59	9.09	-37.7	-38.9	27.8	3.02e+01	0	40	0	318242816	50	6038
2026-01-25 21:55:20.00	345.41	9.06	-38.4	-39.8	27.1	3.02e+01	0	40	0	320339968	50	6662
2026-01-25 21:55:21.01	345.22	9.02	-38.1	-39.3	27.5	3.02e+01	0	40	0	321912832	50	6343
2026-01-25 21:55:22.02	345.04	8.99	-38.7	-40.1	26.6	3.02e+01	0	40	0	324009984	50	6939
2026-01-25 21:55:23.03	344.86	8.95	-38.0	-39.3	27.5	3.02e+01	0	40	0	326107136	50	6316
2026-01-25 21:55:24.04	344.68	8.91	-38.3	-39.6	27.1	3.02e+01	0	40	0	327680000	50	6562
2026-01-25 21:55:25.05	344.50	8.88	-37.8	-39.1	27.6	3.02e+01	0	40	0	329777152	50	6171
2026-01-25 21:55:26.06	344.31	8.84	-38.5	-39.8	27.0	3.02e+01	0	40	0	331350016	50	6690
2026-01-25 21:55:27.07	344.13	8.80	-38.1	-39.4	27.5	3.02e+01	0	40	0	333447168	50	6380
2026-01-25 21:55:28.08	343.95	8.77	-38.4	-39.8	26.9	3.02e+01	0	40	0	335544320	50	6659
2026-01-25 21:55:29.09	343.77	8.73	-38.0	-39.2	27.5	3.02e+01	0	40	0	337117184	50	6277
2026-01-25 21:55:30.10	343.59	8.69	-38.4	-39.8	26.9	3.02e+01	0	40	0	339214336	50	6688
2026-01-25 21:55:31.10	343.42	8.66	-38.0	-39.3	27.2	3.02e+01	0	40	0	340787200	50	6327
2026-01-25 21:55:32.11	343.24	8.62	-38.6	-40.0	26.7	3.02e+01	0	40	0	342884352	52	6111
2026-01-25 21:55:33.12	343.06	8.58	-37.9	-39.2	27.3	3.02e+01	0	40	0	344981504	50	6244
2026-01-25 21:55:34.13	342.88	8.54	-38.8	-40.2	26.7	3.02e+01	0	40	0	346554368	52	6237
2026-01-25 21:55:35.14	342.71	8.51	-38.7	-40.0	26.5	3.02e+01	0	40	0	348651520	52	6106
2026-01-25 21:55:36.15	342.53	8.47	-39.2	-40.6	26.4	3.02e+01	0	40	0	350748672	52	6567
2026-01-25 21:55:37.16	342.36	8.43	-38.7	-40.0	26.9	3.02e+01	0	40	0	352321536	52	6107
2026-01-25 21:55:38.17	342.18	8.39	-39.4	-40.9	26.0	3.02e+01	0	40	0	354418688	52	6745
2026-01-25 21:55:39.18	342.01	8.35	-39.2	-40.6	26.0	3.02e+01	0	40	0	355991552	52	6551
2026-01-25 21:55:40.19	341.83	8.31	-40.3	-41.9	24.7	3.02e+01	0	40	0	358088704	54	6736
2026-01-25 21:55:41.20	341.66	8.27	-39.3	-40.8	26.0	3.02e+01	0	40	0	360185856	52	6670
2026-01-25 21:55:42.21	341.49	8.23	-39.7	-41.3	25.5	3.02e+01	0	40	0	361758720	52	7049
2026-01-25 21:55:43.22	341.31	8.19	-38.4	-39.8	27.0	3.02e+01	0	40	0	363855872	52	5956
2026-01-25 21:55:44.23	341.14	8.16	-38.9	-40.3	26.5	3.02e+01	0	40	0	365953024	52	6301
2026-01-25 21:55:45.24	340.97	8.12	-38.8	-40.2	26.5	3.02e+01	0	40	0	367525888	52	6226
2026-01-25 21:55:46.25	340.80	8.08	-38.8	-40.2	26.6	3.02e+01	0	40	0	369623040	52	6231
2026-01-25 21:55:47.26	340.63	8.04	-39.1	-40.5	26.4	3.02e+01	0	40	0	371195904	52	6474
2026-01-25 21:55:48.27	340.46	8.00	-39.0	-40.4	26.4	3.02e+01	0	40	0	373293056	52	6364
2026-01-25 21:55:49.28	340.29	7.95	-40.0	-41.5	25.7	3.02e+01	0	40	0	375390208	52	7264
2026-01-25 21:55:50.29	340.12	7.91	-39.4	-40.8	25.7	3.02e+01	0	40	0	376963072	54	5938
2026-01-25 21:55:51.30	339.95	7.87	-40.1	-41.6	25.6	3.02e+01	0	40	0	379060224	54	6557
2026-01-25 21:55:52.31	339.78	7.83	-39.7	-41.2	26.0	3.02e+01	0	40	0	380633088	54	6225
2026-01-25 21:55:53.32	339.62	7.79	-40.1	-41.6	25.0	3.02e+01	0	40	0	382730240	54	6553
2026-01-25 21:55:54.33	339.45	7.75	-40.1	-41.6	25.3	3.02e+01	0	40	0	384827392	54	6519
2026-01-25 21:55:55.34	339.28	7.71	-39.3	-40.7	26.1	3.02e+01	0	40	0	386400256	54	5916
2026-01-25 21:55:56.36	339.12	7.67	-38.6	-39.9	26.9	3.02e+01	0	40	0	388497408	52	6029
2026-01-25 21:55:57.36	338.95	7.63	-38.7	-40.1	26.7	3.02e+01	0	40	0	390070272	52	6196
2026-01-25 21:55:58.37	338.79	7.59	-38.3	-39.6	27.1	3.02e+01	0	40	0	392167424	52	5826
2026-01-25 21:55:59.38	338.62	7.54	-38.7	-40.1	26.8	3.02e+01	0	40	0	394264576	52	6160
2026-01-25 21:56:00.40	338.46	7.50	-38.6	-40.0	26.8	3.02e+01	0	40	0	395837440	52	6092
2026-01-25 21:56:01.40	338.30	7.46	-38.6	-40.0	26.8	3.02e+01	0	40	0	397934592	52	6105
2026-01-25 21:56:02.42	338.13	7.42	-38.6	-40.0	26.8	3.02e+01	0	40	0	399507456	52	6102
2026-01-25 21:56:03.43	337.97	7.37	-38.7	-40.0	26.8	3.02e+01	0	40	0	401604608	52	6113
2026-01-25 21:56:04.44	337.81	7.33	-39.0	-40.4	26.3	3.02e+01	0	40	0	403701760	52	6423
2026-01-25 21:56:05.45	337.65	7.29	-38.6	-39.9	27.0	3.02e+01	0	40	0	405274624	52	6028
2026-01-25 21:56:06.46	337.49	7.25	-38.9	-40.3	26.4	3.02e+01	0	40	0	407371776	52	6308
2026-01-25 21:56:07.47	337.33	7.20	-38.9	-40.2	26.6	3.02e+01	0	40	0	408944640	52	6265
2026-01-25 21:56:08.48	337.17	7.16	-38.9	-40.3	26.5	3.02e+01	0	40	0	411041792	52	6288
2026-01-25 21:56:09.49	337.01	7.12	-38.5	-39.9	26.8	3.02e+01	0	40	0	413138944	52	6020
2026-01-25 21:56:10.50	336.85	7.08	-39.2	-40.7	26.1	3.02e+01	0	40	0	414711808	52	6590
2026-01-25 21:56:11.51	336.69	7.03	-38.7	-40.1	26.6	3.02e+01	0	40	0	416808960	52	6173
2026-01-25 21:56:12.52	336.53	6.99	-38.7	-40.1	26.7	3.02e+01	0	40	0	418906112	52	6141
2026-01-25 21:56:13.53	336.38	6.94	-39.1	-40.5	26.4	3.02e+01	0	40	0	420478976	52	6438
2026-01-25 21:56:14.54	336.22	6.90	-39.2	-40.6	26.2	3.02e+01	0	40	0	422576128	52	6527
2026-01-25 21:56:15.55	336.07	6.86	-38.9	-40.3	26.4	3.02e+01	0	40	0	424148992	52	6323
2026-01-25 21:56:16.56	335.91	6.81	-39.0	-40.4	26.4	3.02e+01	0	40	0	426246144	52	6376
2026-01-25 21:56:17.56	335.76	6.77	-39.3	-40.8	25.9	3.02e+01	0	40	0	428343296	52	6689
2026-01-25 21:56:18.57	335.60	6.73	-38.9	-40.3	26.3	3.02e+01	0	40	0	429916160	52	6329
2026-01-25 21:56:19.58	335.45	6.68	-39.9	-41.4	25.4	3.02e+01	0	40	0	432013312	52	7189
2026-01-25 21:56:20.59	335.30	6.64	-38.6	-39.9	26.6	3.02e+01	0	40	0	434110464	52	6059
2026-01-25 21:56:21.60	335.14	6.59	-39.7	-41.2	25.5	3.02e+01	0	40	0	435683328	52	7015
2026-01-25 21:56:22.61	334.99	6.55	-38.7	-40.1	26.6	3.02e+01	0	40	0	437780480	52	6152
2026-01-25 21:56:23.62	334.84	6.51	-39.4	-40.8	25.9	3.02e+01	0	40	0	439353344	52	6720
2026-01-25 21:56:24.63	334.69	6.46	-38.6	-40.0	26.6	3.02e+01	0	40	0	441450496	52	6090
2026-01-25 21:56:25.64	334.54	6.42	-39.5	-41.0	25.7	3.02e+01	0	40	0	443547648	52	6858
2026-01-25 21:56:26.65	334.39	6.37	-39.9	-41.4	25.4	3.02e+01	0	40	0	445120512	54	6359
2026-01-25 21:56:27.66	334.24	6.33	-39.7	-41.2	25.4	3.02e+01	0	40	0	447217664	54	6215
2026-01-25 21:56:28.67	334.09	6.28	-39.4	-40.9	25.7	3.02e+01	0	40	0	448790528	54	6024
2026-01-25 21:56:29.68	333.94	6.24	-39.1	-40.5	25.9	3.02e+01	0	40	0	450887680	52	6469
2026-01-25 21:56:30.69	333.79	6.19	-40.1	-41.7	24.8	3.02e+01	0	40	0	452984832	54	6574
2026-01-25 21:56:31.70	333.64	6.15	-39.0	-40.4	26.2	3.02e+01	0	40	0	454557696	54	5716
2026-01-25 21:56:32.71	333.50	6.10	-39.4	-40.9	25.7	3.02e+01	0	40	0	456654848	52	6761
2026-01-25 21:56:33.72	333.35	6.06	-39.3	-40.7	25.8	3.02e+01	0	40	0	458227712	52	6608
2026-01-25 21:56:34.73	333.20	6.01	-39.3	-40.7	25.8	3.02e+01	0	40	0	460324864	52	6631
2026-01-25 21:56:35.74	333.06	5.97	-39.3	-40.7	25.8	3.02e+01	0	40	0	462422016	52	6624
2026-01-25 21:56:36.75	332.91	5.92	-39.3	-40.8	25.8	3.02e+01	0	40	0	463994880	52	6715
2026-01-25 21:56:37.75	332.77	5.87	-39.2	-40.7	25.8	3.02e+01	0	40	0	466092032	52	6615
2026-01-25 21:56:38.76	332.63	5.83	-39.3	-40.7	25.8	3.02e+01	0	40	0	467664896	52	6613
2026-01-25 21:56:39.77	332.48	5.78	-40.3	-41.9	24.6	3.02e+01	0	40	0	469762048	54	6792
2026-01-25 21:56:40.78	332.34	5.74	-39.3	-40.7	25.8	3.02e+01	0	40	0	471859200	54	5906
2026-01-25 21:56:41.79	332.20	5.69	-40.0	-41.5	24.5	3.02e+01	0	40	0	473432064	54	6491
2026-01-25 21:56:42.80	332.05	5.65	-41.0	-42.7	24.9	3.02e+01	0	40	0	475529216	56	6610
2026-01-25 21:56:43.81	331.91	5.60	-40.0	-41.5	25.4	3.02e+01	0	40	0	477102080	54	6434
2026-01-25 21:56:44.82	331.77	5.55	-40.7	-42.3	24.5	3.02e+01	0	40	0	479199232	54	7067
2026-01-25 21:56:45.83	331.63	5.51	-41.7	-43.5	23.1	3.02e+01	0	40	0	481296384	56	7258
2026-01-25 21:56:46.84	331.49	5.46	-41.3	-43.0	23.9	3.02e+01	0	40	0	482869248	56	6881
2026-01-25 21:56:47.85	331.35	5.41	-40.8	-42.4	24.1	3.02e+01	0	40	0	484966400	56	6399
2026-01-25 21:56:48.86	331.21	5.37	-41.0	-42.7	24.2	3.02e+01	0	40	0	487063552	56	6602
2026-01-25 21:56:49.87	331.07	5.32	-40.5	-42.1	24.7	3.02e+01	0	40	0	488636416	56	6145
2026-01-25 21:56:50.87	330.94	5.28	-40.1	-41.6	25.2	3.02e+01	0	40	0	490733568	56	5820
2026-01-25 21:56:51.88	330.80	5.23	-40.5	-42.1	24.7	3.02e+01	0	40	0	492306432	54	6939
2026-01-25 21:56:52.89	330.66	5.18	-39.7	-41.2	25.6	3.02e+01	0	40	0	494403584	54	6210
2026-01-25 21:56:53.90	330.53	5.14	-39.8	-41.3	25.6	3.02e+01	0	40	0	496500736	54	6312
2026-01-25 21:56:54.91	330.39	5.09	-39.9	-41.4	25.4	3.02e+01	0	40	0	498073600	54	6365
2026-01-25 21:56:55.92	330.25	5.04	-39.8	-41.3	25.5	3.02e+01	0	40	0	500170752	54	6287
2026-01-25 21:56:56.93	330.12	5.00	-39.4	-40.9	25.8	3.02e+01	0	40	0	502267904	54	6017
2026-01-25 21:56:57.94	329.98	4.95	-39.8	-41.3	25.4	3.02e+01	0	40	0	503840768	54	6297
2026-01-25 21:56:58.95	329.85	4.90	-40.0	-41.6	25.0	3.02e+01	0	40	0	505937920	54	6500
2026-01-25 21:56:59.96	329.72	4.86	-40.2	-41.7	25.1	3.02e+01	0	40	0	507510784	54	6647
2026-01-25 21:57:00.97	329.58	4.81	-40.0	-41.5	25.2	3.02e+01	0	40	0	509607936	54	6461
2026-01-25 21:57:01.98	329.45	4.76	-39.7	-41.3	25.4	3.02e+01	0	40	0	511705088	54	6282
2026-01-25 21:57:02.99	329.32	4.72	-40.3	-41.9	24.8	3.02e+01	0	40	0	513277952	54	6768
2026-01-25 21:57:04.00	329.18	4.67	-39.3	-40.7	25.8	3.02e+01	0	40	0	515375104	54	5872
2026-01-25 21:57:05.01	329.05	4.62	-39.4	-40.8	25.7	3.02e+01	0	40	0	516947968	54	5978
2026-01-25 21:57:06.02	328.92	4.57	-40.1	-41.7	24.9	3.02e+01	0	40	0	519045120	54	6619
2026-01-25 21:57:07.03	328.79	4.53	-39.6	-41.1	25.5	3.02e+01	0	40	0	521142272	54	6137
2026-01-25 21:57:08.04	328.66	4.48	-39.8	-41.3	25.2	3.02e+01	0	40	0	522715136	54	6312
2026-01-25 21:57:09.05	328.53	4.43	-40.5	-42.1	24.4	3.02e+01	0	40	0	524812288	54	6949
2026-01-25 21:57:10.06	328.40	4.39	-40.3	-41.9	24.8	3.02e+01	0	40	0	526385152	54	6728
2026-01-25 21:57:11.07	328.28	4.34	-40.6	-42.2	24.6	3.02e+01	0	40	0	528482304	54	6997
2026-01-25 21:57:12.07	328.15	4.29	-40.1	-41.6	24.8	3.02e+01	0	40	0	530579456	54	6566
2026-01-25 21:57:13.08	328.02	4.24	-40.1	-41.6	25.3	3.02e+01	0	40	0	532152320	54	6565
2026-01-25 21:57:14.09	327.89	4.20	-40.1	-41.6	24.8	3.02e+01	0	40	0	534249472	54	6561
2026-01-25 21:57:15.10	327.77	4.15	-40.3	-41.8	24.6	3.02e+01	0	40	0	535822336	54	6716
2026-01-25 21:57:16.11	327.64	4.10	-40.1	-41.6	24.9	3.02e+01	0	40	0	537919488	54	6538
2026-01-25 21:57:17.12	327.51	4.05	-40.1	-41.7	24.7	3.02e+01	0	40	0	540016640	54	6620
2026-01-25 21:57:18.13	327.39	4.01	-40.3	-41.9	24.6	3.02e+01	0	40	0	541589504	54	6778
2026-01-25 21:57:19.14	327.26	3.96	-40.1	-41.7	24.9	3.02e+01	0	40	0	543686656	54	6579
2026-01-25 21:57:20.15	327.14	3.91	-40.1	-41.6	25.1	3.02e+01	0	40	0	545259520	54	6562
2026-01-25 21:57:21.16	327.02	3.86	-40.3	-41.8	24.9	3.02e+01	0	40	0	547356672	54	6700
2026-01-25 21:57:22.17	326.89	3.82	-39.7	-41.2	25.3	3.02e+01	0	40	0	549453824	54	6207
2026-01-25 21:57:23.18	326.77	3.77	-40.6	-42.2	24.4	3.02e+01	0	40	0	551026688	54	7013
2026-01-25 21:57:24.19	326.65	3.72	-40.0	-41.5	25.0	3.02e+01	0	40	0	553123840	54	6490
2026-01-25 21:57:25.20	326.52	3.67	-40.8	-42.5	24.1	3.02e+01	0	40	0	555220992	54	7228
2026-01-25 21:57:26.21	326.40	3.63	-39.8	-41.3	25.0	3.02e+01	0	40	0	556793856	54	6325
2026-01-25 21:57:27.23	326.28	3.58	-39.8	-41.3	25.1	3.02e+01	0	40	0	558891008	54	6323
2026-01-25 21:57:28.24	326.16	3.53	-40.1	-41.6	24.9	3.02e+01	0	40	0	560463872	54	6555
2026-01-25 21:57:29.24	326.04	3.48	-40.6	-42.3	24.1	3.02e+01	0	40	0	562561024	54	7075
2026-01-25 21:57:30.25	325.92	3.43	-40.4	-42.1	24.4	3.02e+01	0	40	0	564658176	54	6895
2026-01-25 21:57:31.26	325.80	3.39	-39.7	-41.2	25.1	3.02e+01	0	40	0	566231040	54	6223
2026-01-25 21:57:32.27	325.68	3.34	-40.8	-42.4	23.8	3.02e+01	0	40	0	568328192	54	7157
2026-01-25 21:57:33.28	325.56	3.29	-40.8	-42.5	24.0	3.02e+01	0	40	0	569901056	56	6458
2026-01-25 21:57:34.29	325.44	3.24	-40.7	-42.3	23.8	3.02e+01	0	40	0	571998208	56	6339
2026-01-25 21:57:35.30	325.33	3.20	-39.9	-41.4	24.5	3.02e+01	0	40	0	574095360	54	6368
2026-01-25 21:57:36.31	325.21	3.15	-40.8	-42.5	22.4	3.02e+01	0	40	0	575668224	54	7221
2026-01-25 21:57:37.32	325.09	3.10	-41.2	-43.0	23.8	3.02e+01	0	40	0	577765376	58	6125
2026-01-25 21:57:38.33	324.98	3.05	-41.6	-43.4	23.1	3.02e+01	0	40	0	579862528	56	7155
2026-01-25 21:57:39.34	324.86	3.00	-40.9	-42.6	21.9	3.02e+01	0	40	0	581435392	54	7319
2026-01-25 21:57:40.35	324.74	2.96	-49.8	-67.5	3.5	3.02e+01	0	40	104	581435392	60	91738
2026-01-25 21:57:41.36	324.63	2.91	-49.7	-67.8	3.5	3.02e+01	0	40	104	581435392	60	94811
2026-01-25 21:57:42.38	324.51	2.86	-50.2	-68.0	3.5	3.02e+01	0	40	104	581435392	60	96654
2026-01-25 21:57:43.38	324.40	2.81	-50.4	-68.3	3.5	3.02e+01	0	40	104	581435392	60	99536
2026-01-25 21:57:44.39	324.29	2.76	-50.4	-68.3	3.5	3.02e+01	0	40	104	581435392	60	100377
2026-01-25 21:57:45.40	324.17	2.72	-50.3	-68.4	3.5	3.02e+01	0	40	104	581435392	60	101295
2026-01-25 21:57:46.41	324.06	2.67	-50.3	-68.4	3.5	3.02e+01	0	40	104	581435392	60	101204
2026-01-25 21:57:47.43	323.95	2.62	-50.1	-68.5	3.5	3.02e+01	0	40	104	581435392	60	102187
2026-01-25 21:57:48.43	323.83	2.57	-50.4	-68.5	3.5	3.02e+01	0	40	104	581435392	60	102896
2026-01-25 21:57:49.44	323.72	2.52	-50.1	-68.6	3.5	3.02e+01	0	40	104	581435392	60	103413
2026-01-25 21:57:50.45	323.61	2.48	-50.1	-68.5	3.5	3.02e+01	0	40	104	581435392	60	102666
2026-01-25 21:57:51.46	323.50	2.43	-50.1	-68.5	3.5	3.02e+01	0	40	104	581435392	60	102567
2026-01-25 21:57:52.47	323.39	2.38	-50.2	-68.6	3.5	3.02e+01	0	40	104	581435392	60	104165
2026-01-25 21:57:53.48	323.28	2.33	-50.1	-68.5	3.5	3.02e+01	0	40	104	581435392	60	102277
2026-01-25 21:57:54.49	323.17	2.28	-50.4	-68.4	3.5	3.02e+01	0	40	104	581435392	60	101622
2026-01-25 21:57:55.50	323.06	2.24	-50.6	-68.6	3.5	3.02e+01	0	40	104	581435392	60	103121
2026-01-25 21:57:56.51	322.95	2.19	-50.5	-68.5	3.5	3.02e+01	0	40	104	581435392	60	102173
2026-01-25 21:57:57.52	322.84	2.14	-50.6	-68.6	3.5	3.02e+01	0	40	104	581435392	60	103503
2026-01-25 21:57:58.53	322.73	2.09	-50.4	-68.5	3.5	3.02e+01	0	40	104	581435392	60	102628
2026-01-25 21:57:59.54	322.63	2.05	-50.3	-68.5	3.5	3.02e+01	0	40	104	581435392	60	102227
2026-01-25 21:58:00.55	322.52	2.00	-50.5	-68.4	3.5	3.02e+01	0	40	104	581435392	60	100895
2026-01-25 21:58:01.56	322.41	1.95	-50.7	-68.5	3.5	3.02e+01	0	40	104	581435392	60	102963
2026-01-25 21:58:02.57	322.30	1.90	-50.1	-68.4	3.5	3.02e+01	0	40	104	581435392	60	101686
2026-01-25 21:58:03.58	322.20	1.85	-50.6	-68.6	3.5	3.02e+01	0	40	104	581435392	60	103538
2026-01-25 21:58:04.59	322.09	1.81	-50.7	-68.5	3.5	3.02e+01	0	40	104	581435392	60	102797
2026-01-25 21:58:05.60	321.99	1.76	-50.8	-68.6	3.5	3.02e+01	0	40	104	581435392	60	103466
2026-01-25 21:58:06.61	321.88	1.71	-50.8	-68.6	3.5	3.02e+01	0	40	104	581435392	60	103605
2026-01-25 21:58:07.62	321.78	1.66	-50.7	-68.5	3.5	3.02e+01	0	40	104	581435392	60	102460
2026-01-25 21:58:08.63	321.67	1.61	-50.6	-68.5	3.5	3.02e+01	0	40	104	581435392	60	102238
2026-01-25 21:58:09.64	321.57	1.57	-50.6	-68.4	3.5	3.02e+01	0	40	104	581435392	60	101200
2026-01-25 21:58:10.65	321.47	1.52	-50.7	-68.5	3.5	3.02e+01	0	40	104	581435392	60	102658
2026-01-25 21:58:11.66	321.36	1.47	-50.6	-68.4	3.5	3.02e+01	0	40	104	581435392	60	101761
2026-01-25 21:58:12.67	321.26	1.42	-51.0	-68.8	3.5	3.02e+01	0	40	104	581435392	60	105945
2026-01-25 21:58:13.68	321.16	1.37	-50.8	-68.6	3.5	3.02e+01	0	40	104	581435392	60	103821
2026-01-25 21:58:14.69	321.05	1.33	-50.8	-68.7	3.5	3.02e+01	0	40	104	581435392	60	104521
2026-01-25 21:58:15.70	320.95	1.28	-50.7	-68.5	3.5	3.02e+01	0	40	104	581435392	60	102450
2026-01-25 21:58:16.71	320.85	1.23	-50.8	-68.6	3.5	3.02e+01	0	40	104	581435392	60	103790
2026-01-25 21:58:17.71	320.75	1.18	-50.7	-68.5	3.5	3.02e+01	0	40	104	581435392	60	102452
2026-01-25 21:58:18.73	320.65	1.13	-50.7	-68.5	3.5	3.02e+01	0	40	104	581435392	60	102040
2026-01-25 21:58:19.74	320.55	1.09	-51.1	-68.9	3.5	3.02e+01	0	40	104	581435392	60	107432
2026-01-25 21:58:20.75	320.45	1.04	-50.8	-68.6	3.5	3.02e+01	0	40	104	581435392	60	103947
2026-01-25 21:58:21.75	320.35	0.99	-51.0	-68.8	3.5	3.02e+01	0	40	104	581435392	60	105423
2026-01-25 21:58:22.76	320.25	0.94	-50.8	-68.6	3.5	3.02e+01	0	40	104	581435392	60	103519
2026-01-25 21:58:23.77	320.15	0.90	-51.0	-68.8	3.5	3.02e+01	0	40	104	581435392	60	106602
2026-01-25 21:58:24.78	320.06	0.85	-51.0	-68.8	3.5	3.02e+01	0	40	104	581435392	60	106212
2026-01-25 21:58:25.79	319.96	0.80	-50.7	-68.5	3.5	3.02e+01	0	40	104	581435392	60	102168
2026-01-25 21:58:26.80	319.86	0.75	-51.0	-68.8	3.5	3.02e+01	0	40	104	581435392	60	106189
2026-01-25 21:58:27.81	319.76	0.71	-51.2	-69.0	3.5	3.02e+01	0	40	104	581435392	60	108707
2026-01-25 21:58:28.82	319.67	0.66	-51.3	-69.0	3.5	3.02e+01	0	40	104	581435392	60	108809
2026-01-25 21:58:29.83	319.57	0.61	-51.0	-68.9	3.5	3.02e+01	0	40	104	581435392	60	106879
2026-01-25 21:58:30.84	319.47	0.56	-51.1	-68.9	3.5	3.02e+01	0	40	104	581435392	60	107690
2026-01-25 21:58:31.85	319.38	0.51	-51.0	-68.9	3.5	3.02e+01	0	40	104	581435392	60	106938
2026-01-25 21:58:32.86	319.28	0.47	-51.2	-69.0	3.5	3.02e+01	0	40	104	581435392	60	108016
2026-01-25 21:58:33.87	319.19	0.42	-51.0	-68.8	3.5	3.02e+01	0	40	104	581435392	60	105923
2026-01-25 21:58:34.87	319.09	0.37	-51.1	-68.9	3.5	3.02e+01	0	40	104	581435392	60	106955
2026-01-25 21:58:35.88	319.00	0.32	-51.3	-69.1	3.5	3.02e+01	0	40	104	581435392	60	109361
2026-01-25 21:58:36.89	318.90	0.28	-51.2	-69.0	3.5	3.02e+01	0	40	104	581435392	60	108127
2026-01-25 21:58:37.90	318.81	0.23	-51.2	-69.0	3.5	3.02e+01	0	40	104	581435392	60	107856
2026-01-25 21:58:38.91	318.72	0.18	-51.0	-68.8	3.5	3.02e+01	0	40	104	581435392	60	106330
2026-01-25 21:58:39.92	318.62	0.13	-50.9	-68.7	3.5	3.02e+01	0	40	104	581435392	60	105383
2026-01-25 21:58:40.93	318.53	0.09	-51.0	-68.8	3.5	3.02e+01	0	40	104	581435392	60	105719
2026-01-25 21:58:41.94	318.44	0.04	-51.0	-68.8	3.5	3.02e+01	0	40	104	581435392	60	105880
2026-01-25 21:58:42.95	318.34	-0.01	-50.8	-68.6	3.5	3.02e+01	0	40	104	581435392	60	103304

#Closed at: 2026-01-25 21:58:43
#Recorded file [581 MB]: D:/lorett/data/35029_260126_094812.dat