passes_logs/2026/01/25/R4.6S_Anadyr/R4.6S_Anadyr__20260125_195603_SUOMI_NPP_rec.log

#Pass ID: 20260125_195603_SUOMI NPP
#Satellite: SUOMI NPP
#Configuration: NPP
#almurnet v.1.7.20251203
#Start time: 2026-01-25 19:56:04

#Version: 2.2.20231116
#Station: R4.6S_Anadyr
#Location: 177.4865 lon 64.73178 lat
#TLE: 1 37849U 11061A   26025.53586395  .00000179  00000+0  10601-3 0  9996
#TLE: 2 37849  98.7821 327.4943 0002169  45.6246 314.5108 14.19529815738202

#Time	Az	El	Level	Level2	SNR	BER	BlckErr	Temp	State	Recorded	gain1	gain2
2026-01-25 19:56:04.89	59.78	0.08	-50.5	-62.2	3.5	8.45e-01	0	39	0	0	60	46689
2026-01-25 19:56:05.89	59.70	0.13	-50.8	-66.0	3.6	1.51e+00	0	40	104	0	60	72399
2026-01-25 19:56:06.90	59.62	0.18	-50.8	-66.0	3.6	1.51e+00	0	40	104	0	60	71998
2026-01-25 19:56:07.91	59.55	0.23	-50.7	-66.0	3.6	1.51e+00	0	40	104	0	60	72003
2026-01-25 19:56:08.92	59.47	0.27	-50.8	-66.1	3.6	1.51e+00	0	40	104	0	60	72599
2026-01-25 19:56:09.93	59.39	0.32	-50.8	-66.0	3.6	1.51e+00	0	40	104	0	60	72161
2026-01-25 19:56:10.94	59.32	0.37	-50.8	-66.0	3.5	1.51e+00	0	40	104	0	60	72255
2026-01-25 19:56:11.95	59.24	0.42	-50.7	-66.1	3.6	1.51e+00	0	40	104	0	60	72791
2026-01-25 19:56:12.96	59.16	0.47	-50.8	-66.0	3.6	1.51e+00	0	40	104	0	60	72302
2026-01-25 19:56:13.97	59.08	0.52	-50.7	-66.0	3.6	1.51e+00	0	40	104	0	60	71952
2026-01-25 19:56:14.98	59.01	0.57	-50.8	-66.0	3.6	1.51e+00	0	40	104	0	60	72227
2026-01-25 19:56:15.99	58.93	0.62	-50.7	-65.9	3.6	1.51e+00	0	40	104	0	60	71696
2026-01-25 19:56:17.00	58.85	0.67	-50.5	-65.9	3.6	1.51e+00	0	40	104	0	60	71135
2026-01-25 19:56:18.01	58.77	0.72	-50.6	-65.9	3.6	1.51e+00	0	40	104	0	60	71444
2026-01-25 19:56:19.02	58.69	0.77	-50.6	-65.9	3.6	1.51e+00	0	40	104	0	60	71296
2026-01-25 19:56:20.03	58.61	0.82	-50.7	-66.0	3.6	1.51e+00	0	40	104	0	60	71715
2026-01-25 19:56:21.04	58.53	0.87	-50.6	-65.9	3.6	1.51e+00	0	40	104	0	60	71098
2026-01-25 19:56:22.05	58.45	0.92	-50.0	-65.8	3.6	1.51e+00	0	40	104	0	60	70848
2026-01-25 19:56:23.06	58.37	0.97	-50.5	-65.8	3.6	1.51e+00	0	40	104	0	60	70317
2026-01-25 19:56:24.08	58.29	1.02	-50.5	-65.8	3.6	1.51e+00	0	40	104	0	60	70141
2026-01-25 19:56:25.08	58.21	1.07	-50.5	-65.7	3.6	1.51e+00	0	40	104	0	60	69342
2026-01-25 19:56:26.10	58.13	1.12	-50.4	-65.6	3.6	1.51e+00	0	40	104	0	60	68667
2026-01-25 19:56:27.11	58.04	1.17	-50.2	-65.4	3.6	1.51e+00	0	40	104	0	60	67242
2026-01-25 19:56:28.12	57.96	1.22	-50.1	-65.2	3.6	1.51e+00	0	40	104	0	60	65980
2026-01-25 19:56:29.13	57.88	1.27	-49.7	-64.9	3.6	1.51e+00	0	40	104	0	60	63827
2026-01-25 19:56:30.14	57.80	1.32	-49.3	-64.5	3.6	1.51e+00	0	40	104	0	60	60596
2026-01-25 19:56:31.15	57.71	1.37	-49.2	-64.4	3.6	1.51e+00	0	40	104	0	60	59690
2026-01-25 19:56:32.15	57.63	1.42	-49.2	-64.4	3.6	1.51e+00	0	40	104	0	60	59790
2026-01-25 19:56:33.16	57.55	1.47	-49.2	-64.4	3.6	1.51e+00	0	40	104	0	60	59956
2026-01-25 19:56:34.17	57.47	1.52	-49.2	-64.4	3.6	1.51e+00	0	40	104	0	60	59938
2026-01-25 19:56:35.18	57.38	1.57	-49.2	-64.4	3.6	1.51e+00	0	40	104	0	60	59668
2026-01-25 19:56:36.19	57.30	1.62	-49.2	-64.4	3.6	1.51e+00	0	40	104	0	60	59923
2026-01-25 19:56:37.20	57.21	1.67	-49.2	-64.4	3.6	1.51e+00	0	40	104	0	60	59645
2026-01-25 19:56:38.21	57.13	1.72	-49.2	-64.3	3.6	1.51e+00	0	40	104	0	60	59266
2026-01-25 19:56:39.22	57.04	1.77	-49.2	-64.3	3.6	1.51e+00	0	40	104	0	60	59591
2026-01-25 19:56:40.23	56.96	1.82	-49.2	-64.4	3.6	1.51e+00	0	40	104	0	60	59735
2026-01-25 19:56:41.24	56.87	1.87	-49.2	-64.4	3.6	1.51e+00	0	40	104	0	60	59804
2026-01-25 19:56:42.25	56.79	1.92	-49.2	-64.4	3.6	1.51e+00	0	40	104	0	60	59710
2026-01-25 19:56:43.26	56.70	1.97	-49.2	-64.3	3.6	1.51e+00	0	40	104	0	60	59642
2026-01-25 19:56:44.27	56.61	2.02	-49.2	-64.3	3.6	1.51e+00	0	41	104	0	60	59444
2026-01-25 19:56:45.28	56.53	2.07	-49.2	-64.3	3.6	1.51e+00	0	41	104	0	60	59199
2026-01-25 19:56:46.29	56.44	2.12	-49.2	-64.2	3.6	1.51e+00	0	40	104	0	60	58880
2026-01-25 19:56:47.30	56.35	2.17	-49.2	-64.1	3.5	1.51e+00	0	41	104	0	60	58211
2026-01-25 19:56:48.30	56.26	2.22	-49.2	-64.2	3.6	1.51e+00	0	41	104	0	60	58430
2026-01-25 19:56:49.31	56.18	2.27	-49.2	-64.2	3.6	1.51e+00	0	41	104	0	60	58857
2026-01-25 19:56:50.32	56.09	2.32	-49.2	-64.4	3.6	1.51e+00	0	41	104	0	60	59702
2026-01-25 19:56:51.33	56.00	2.37	-49.2	-64.4	3.6	1.51e+00	0	41	104	0	60	59774
2026-01-25 19:56:52.34	55.91	2.42	-49.2	-64.3	3.6	1.51e+00	0	41	104	0	60	59372
2026-01-25 19:56:53.35	55.82	2.47	-49.2	-64.3	3.6	1.51e+00	0	41	104	0	60	59453
2026-01-25 19:56:54.36	55.73	2.52	-49.2	-64.3	3.6	1.51e+00	0	41	104	0	60	59541
2026-01-25 19:56:55.37	55.64	2.57	-49.2	-64.3	3.6	1.51e+00	0	41	104	0	60	59300
2026-01-25 19:56:56.38	55.55	2.62	-49.1	-63.9	3.6	1.51e+00	0	41	104	0	60	56702
2026-01-25 19:56:57.39	55.46	2.67	-49.1	-63.7	3.6	1.51e+00	0	41	104	0	60	55209
2026-01-25 19:56:58.40	55.37	2.72	-49.1	-63.8	3.6	1.51e+00	0	40	104	0	60	56068
2026-01-25 19:56:59.41	55.28	2.77	-49.2	-64.2	3.6	1.51e+00	0	41	104	0	60	58298
2026-01-25 19:57:00.41	55.19	2.82	-49.0	-62.0	3.6	1.51e+00	0	41	104	0	60	45590
2026-01-25 19:57:01.42	55.10	2.87	-48.7	-57.4	6.3	1.06e+00	0	41	0	0	60	26863
2026-01-25 19:57:02.43	55.00	2.93	-47.9	-53.4	9.6	8.92e-02	0	41	0	2097152	60	16918
2026-01-25 19:57:03.44	54.91	2.98	-47.0	-51.1	12.2	1.32e-03	0	41	0	3145728	60	12968
2026-01-25 19:57:04.45	54.82	3.03	-47.0	-51.1	11.8	5.30e-06	0	41	0	5242880	60	13023
2026-01-25 19:57:05.46	54.72	3.08	-48.9	-58.0	4.5	8.46e-02	0	41	0	7340032	60	28803
2026-01-25 19:57:06.47	54.63	3.13	-48.0	-54.1	5.4	1.48e+00	0	41	104	7340032	60	18301
2026-01-25 19:57:07.48	54.54	3.18	-45.0	-47.5	15.3	1.85e-01	0	41	104	7340032	60	8544
2026-01-25 19:57:08.49	54.44	3.23	-44.3	-46.4	16.8	2.78e-04	0	41	0	8388608	60	7555
2026-01-25 19:57:09.50	54.35	3.28	-48.7	-58.4	4.9	1.50e+00	0	41	104	9437184	60	30127
2026-01-25 19:57:10.51	54.25	3.33	-45.8	-48.8	14.2	5.36e-01	0	41	104	9437184	60	9942
2026-01-25 19:57:11.52	54.16	3.38	-45.2	-47.7	15.8	7.00e-07	0	41	0	10485760	60	8815
2026-01-25 19:57:12.53	54.06	3.43	-44.4	-46.6	16.7	0.00e+00	0	41	0	12582912	60	7707
2026-01-25 19:57:13.54	53.97	3.48	-45.1	-47.6	15.9	0.00e+00	0	40	0	13631488	60	8688
2026-01-25 19:57:14.54	53.87	3.54	-44.9	-47.3	16.2	0.00e+00	0	41	0	15728640	60	8334
2026-01-25 19:57:15.55	53.77	3.59	-44.5	-46.8	16.5	0.00e+00	0	41	0	17825792	60	7880
2026-01-25 19:57:16.56	53.68	3.64	-44.7	-47.0	16.1	0.00e+00	0	41	0	19922944	60	8092
2026-01-25 19:57:17.57	53.58	3.69	-45.0	-47.5	15.8	0.00e+00	0	40	0	22020096	60	8582
2026-01-25 19:57:18.58	53.48	3.74	-44.6	-46.9	16.5	0.00e+00	0	41	0	23068672	60	8013
2026-01-25 19:57:19.59	53.38	3.79	-44.9	-47.3	16.0	0.00e+00	0	41	0	25165824	60	8354
2026-01-25 19:57:20.60	53.28	3.84	-44.3	-46.4	17.0	0.00e+00	0	41	0	27262976	60	7559
2026-01-25 19:57:21.61	53.19	3.89	-43.2	-44.9	18.7	0.00e+00	0	40	0	29360128	60	6348
2026-01-25 19:57:22.61	53.09	3.94	-44.3	-46.4	17.0	0.00e+00	0	40	0	31457280	60	7566
2026-01-25 19:57:23.62	52.99	3.99	-43.6	-45.4	18.1	0.00e+00	0	40	0	32505856	60	6703
2026-01-25 19:57:24.63	52.89	4.05	-44.4	-46.6	17.0	0.00e+00	0	41	0	34603008	60	7688
2026-01-25 19:57:25.64	52.79	4.10	-44.0	-46.0	17.5	0.00e+00	0	40	0	36700160	60	7219
2026-01-25 19:57:26.65	52.69	4.15	-44.5	-46.7	16.9	0.00e+00	0	40	0	38797312	60	7828
2026-01-25 19:57:27.66	52.59	4.20	-44.4	-46.5	17.1	0.00e+00	0	40	0	40894464	60	7628
2026-01-25 19:57:28.67	52.49	4.25	-44.3	-46.4	17.2	0.00e+00	0	41	0	41943040	60	7587
2026-01-25 19:57:29.68	52.38	4.30	-44.3	-46.4	17.2	0.00e+00	0	40	0	44040192	60	7549
2026-01-25 19:57:30.69	52.28	4.35	-44.2	-46.2	17.5	0.00e+00	0	41	0	46137344	60	7380
2026-01-25 19:57:31.70	52.18	4.40	-43.7	-45.6	18.0	0.00e+00	0	40	0	48234496	60	6859
2026-01-25 19:57:32.70	52.08	4.46	-43.9	-45.8	17.9	0.00e+00	0	40	0	50331648	60	7076
2026-01-25 19:57:33.71	51.97	4.51	-44.2	-46.1	17.4	0.00e+00	0	40	0	51380224	60	7305
2026-01-25 19:57:34.72	51.87	4.56	-43.8	-45.6	18.0	0.00e+00	0	40	0	53477376	60	6898
2026-01-25 19:57:35.73	51.77	4.61	-43.9	-45.8	17.9	0.00e+00	0	41	0	55574528	60	7080
2026-01-25 19:57:36.74	51.66	4.66	-43.6	-45.4	18.1	0.00e+00	0	40	0	57671680	60	6745
2026-01-25 19:57:37.75	51.56	4.71	-44.0	-46.0	17.6	0.00e+00	0	41	0	59768832	60	7171
2026-01-25 19:57:38.76	51.45	4.76	-44.1	-46.1	17.5	0.00e+00	0	40	0	61865984	60	7325
2026-01-25 19:57:39.77	51.35	4.81	-44.5	-46.6	17.0	0.00e+00	0	41	0	62914560	60	7767
2026-01-25 19:57:40.78	51.24	4.87	-43.7	-45.6	18.0	0.00e+00	0	40	0	65011712	60	6890
2026-01-25 19:57:41.79	51.14	4.92	-43.6	-45.4	18.0	0.00e+00	0	40	0	67108864	60	6714
2026-01-25 19:57:42.80	51.03	4.97	-43.9	-45.8	17.8	0.00e+00	0	40	0	69206016	60	7060
2026-01-25 19:57:43.81	50.92	5.02	-44.1	-46.0	17.8	0.00e+00	0	40	0	71303168	60	7204
2026-01-25 19:57:44.81	50.82	5.07	-43.8	-45.6	17.9	0.00e+00	0	40	0	72351744	60	6909
2026-01-25 19:57:45.82	50.71	5.12	-43.7	-45.4	18.2	0.00e+00	0	40	0	74448896	60	6755
2026-01-25 19:57:46.83	50.60	5.17	-44.4	-46.5	17.2	0.00e+00	0	41	0	76546048	60	7633
2026-01-25 19:57:47.84	50.49	5.22	-44.2	-46.2	17.5	0.00e+00	0	40	0	78643200	60	7414
2026-01-25 19:57:48.85	50.38	5.28	-44.3	-46.3	17.4	0.00e+00	0	41	0	80740352	60	7490
2026-01-25 19:57:49.86	50.27	5.33	-44.1	-46.1	17.7	0.00e+00	0	40	0	81788928	60	7259
2026-01-25 19:57:50.87	50.16	5.38	-44.3	-46.3	17.4	0.00e+00	0	40	0	83886080	60	7451
2026-01-25 19:57:51.88	50.05	5.43	-43.7	-45.5	18.3	0.00e+00	0	40	0	85983232	60	6782
2026-01-25 19:57:52.89	49.94	5.48	-44.4	-46.5	17.4	0.00e+00	0	41	0	88080384	60	7630
2026-01-25 19:57:53.90	49.83	5.53	-43.7	-45.4	18.3	0.00e+00	0	40	0	90177536	60	6769
2026-01-25 19:57:54.91	49.72	5.58	-43.3	-44.9	18.7	0.00e+00	0	40	0	91226112	60	6352
2026-01-25 19:57:55.92	49.61	5.64	-43.3	-44.9	18.7	0.00e+00	0	40	0	93323264	60	6363
2026-01-25 19:57:56.93	49.50	5.69	-43.5	-45.2	18.5	0.00e+00	0	40	0	95420416	60	6568
2026-01-25 19:57:57.94	49.38	5.74	-43.2	-44.8	18.9	0.00e+00	0	41	0	97517568	60	6309
2026-01-25 19:57:58.95	49.27	5.79	-43.2	-44.8	18.8	0.00e+00	0	40	0	99614720	60	6303
2026-01-25 19:57:59.96	49.16	5.84	-43.2	-44.8	18.9	0.00e+00	0	40	0	100663296	60	6256
2026-01-25 19:58:00.97	49.04	5.89	-42.9	-44.4	19.2	0.00e+00	0	40	0	102760448	60	6016
2026-01-25 19:58:01.98	48.93	5.94	-42.5	-44.0	19.7	0.00e+00	0	40	0	104857600	58	6391
2026-01-25 19:58:02.99	48.81	6.00	-42.6	-44.1	19.5	0.00e+00	0	40	0	106954752	58	6484
2026-01-25 19:58:03.99	48.70	6.05	-43.0	-44.5	19.2	0.00e+00	0	40	0	109051904	58	6796
2026-01-25 19:58:05.00	48.59	6.10	-42.9	-44.4	19.4	0.00e+00	0	40	0	110100480	58	6725
2026-01-25 19:58:06.01	48.47	6.15	-42.9	-44.4	19.3	0.00e+00	0	40	0	112197632	58	6719
2026-01-25 19:58:07.02	48.35	6.20	-43.0	-44.5	19.2	0.00e+00	0	40	0	114294784	58	6810
2026-01-25 19:58:08.03	48.24	6.25	-43.4	-45.1	18.6	0.00e+00	0	40	0	116391936	58	7254
2026-01-25 19:58:09.04	48.12	6.30	-42.9	-44.4	19.1	0.00e+00	0	40	0	118489088	58	6746
2026-01-25 19:58:10.05	48.00	6.35	-42.5	-44.0	19.5	0.00e+00	0	40	0	119537664	58	6400
2026-01-25 19:58:11.06	47.88	6.41	-42.5	-43.9	19.6	0.00e+00	0	40	0	121634816	58	6351
2026-01-25 19:58:12.07	47.77	6.46	-42.8	-44.3	19.2	0.00e+00	0	40	0	123731968	58	6628
2026-01-25 19:58:13.08	47.65	6.51	-42.6	-44.0	19.5	0.00e+00	0	40	0	125829120	58	6443
2026-01-25 19:58:14.09	47.53	6.56	-42.2	-43.6	20.0	0.00e+00	0	40	0	127926272	58	6136
2026-01-25 19:58:15.10	47.41	6.61	-42.5	-43.9	19.7	0.00e+00	0	40	0	130023424	58	6340
2026-01-25 19:58:16.11	47.29	6.66	-42.6	-44.1	19.6	0.00e+00	0	40	0	131072000	58	6504
2026-01-25 19:58:17.12	47.17	6.71	-42.4	-43.8	19.9	0.00e+00	0	40	0	133169152	58	6267
2026-01-25 19:58:18.12	47.05	6.76	-42.6	-44.0	19.7	0.00e+00	0	40	0	135266304	58	6449
2026-01-25 19:58:19.14	46.93	6.81	-42.4	-43.9	19.8	0.00e+00	0	40	0	137363456	58	6321
2026-01-25 19:58:20.14	46.81	6.87	-42.7	-44.2	19.5	0.00e+00	0	40	0	138412032	58	6587
2026-01-25 19:58:21.15	46.68	6.92	-42.8	-44.3	19.5	0.00e+00	0	40	0	140509184	58	6656
2026-01-25 19:58:22.16	46.56	6.97	-43.1	-44.6	19.1	0.00e+00	0	40	0	142606336	58	6905
2026-01-25 19:58:23.17	46.44	7.02	-43.0	-44.5	19.2	0.00e+00	0	40	0	144703488	58	6801
2026-01-25 19:58:24.18	46.31	7.07	-43.0	-44.5	19.3	0.00e+00	0	40	0	146800640	58	6844
2026-01-25 19:58:25.19	46.19	7.12	-42.8	-44.2	19.5	0.00e+00	0	40	0	148897792	58	6597
2026-01-25 19:58:26.20	46.06	7.17	-42.8	-44.3	19.5	0.00e+00	0	40	0	149946368	58	6651
2026-01-25 19:58:27.21	45.94	7.22	-42.8	-44.3	19.3	0.00e+00	0	40	0	152043520	58	6666
2026-01-25 19:58:28.22	45.81	7.27	-42.4	-43.9	19.7	0.00e+00	0	40	0	154140672	58	6329
2026-01-25 19:58:29.23	45.69	7.32	-42.8	-44.3	19.6	0.00e+00	0	41	0	156237824	58	6632
2026-01-25 19:58:30.23	45.56	7.37	-42.8	-44.3	19.3	0.00e+00	0	40	0	158334976	58	6679
2026-01-25 19:58:31.24	45.44	7.43	-43.1	-44.6	19.3	0.00e+00	0	40	0	159383552	58	6893
2026-01-25 19:58:32.25	45.31	7.48	-42.9	-44.5	19.4	0.00e+00	0	40	0	161480704	58	6783
2026-01-25 19:58:33.26	45.18	7.53	-43.0	-44.6	19.2	0.00e+00	0	40	0	163577856	58	6884
2026-01-25 19:58:34.27	45.05	7.58	-42.9	-44.4	19.4	0.00e+00	0	41	0	165675008	58	6719
2026-01-25 19:58:35.28	44.93	7.63	-42.6	-44.0	19.8	0.00e+00	0	40	0	167772160	58	6443
2026-01-25 19:58:36.29	44.80	7.68	-42.4	-43.8	19.9	0.00e+00	0	40	0	168820736	58	6301
2026-01-25 19:58:37.30	44.67	7.73	-42.8	-44.2	19.5	0.00e+00	0	40	0	170917888	58	6604
2026-01-25 19:58:38.31	44.54	7.78	-42.7	-44.1	19.6	0.00e+00	0	40	0	173015040	58	6507
2026-01-25 19:58:39.32	44.41	7.83	-42.7	-44.1	19.7	0.00e+00	0	40	0	175112192	58	6534
2026-01-25 19:58:40.33	44.28	7.88	-42.7	-44.1	19.7	0.00e+00	0	40	0	177209344	58	6507
2026-01-25 19:58:41.34	44.14	7.93	-42.7	-44.1	19.7	0.00e+00	0	40	0	178257920	58	6531
2026-01-25 19:58:42.35	44.01	7.98	-42.7	-44.1	19.6	0.00e+00	0	40	0	180355072	58	6537
2026-01-25 19:58:43.36	43.88	8.03	-42.7	-44.1	19.8	0.00e+00	0	40	0	182452224	58	6495
2026-01-25 19:58:44.36	43.75	8.08	-42.1	-43.5	20.3	0.00e+00	0	40	0	184549376	58	6035
2026-01-25 19:58:45.38	43.62	8.13	-42.3	-43.6	20.1	0.00e+00	0	40	0	186646528	58	6133
2026-01-25 19:58:46.39	43.48	8.18	-42.5	-43.9	19.9	0.00e+00	0	40	0	187695104	58	6332
2026-01-25 19:58:47.39	43.35	8.23	-42.3	-43.6	20.2	0.00e+00	0	40	0	189792256	58	6152
2026-01-25 19:58:48.40	43.21	8.28	-43.0	-44.5	19.4	0.00e+00	0	40	0	191889408	58	6788
2026-01-25 19:58:49.41	43.08	8.33	-43.2	-44.7	19.3	0.00e+00	0	40	0	193986560	58	6999
2026-01-25 19:58:50.42	42.94	8.38	-43.2	-44.7	19.3	0.00e+00	0	40	0	196083712	58	6989
2026-01-25 19:58:51.43	42.81	8.43	-43.1	-44.7	19.2	0.00e+00	0	40	0	197132288	58	6948
2026-01-25 19:58:52.44	42.67	8.48	-43.3	-44.9	19.1	0.00e+00	0	40	0	199229440	58	7161
2026-01-25 19:58:53.45	42.53	8.53	-42.6	-44.0	19.8	0.00e+00	0	40	0	201326592	58	6464
2026-01-25 19:58:54.46	42.40	8.58	-43.4	-45.0	18.9	0.00e+00	0	40	0	203423744	58	7225
2026-01-25 19:58:55.47	42.26	8.63	-43.4	-45.0	18.8	0.00e+00	0	40	0	205520896	58	7234
2026-01-25 19:58:56.48	42.12	8.68	-42.9	-44.4	19.5	0.00e+00	0	40	0	206569472	58	6728
2026-01-25 19:58:57.49	41.98	8.73	-42.9	-44.5	19.4	0.00e+00	0	40	0	208666624	58	6798
2026-01-25 19:58:58.50	41.84	8.78	-42.9	-44.4	19.5	0.00e+00	0	40	0	210763776	58	6767
2026-01-25 19:58:59.51	41.70	8.83	-43.0	-44.5	19.3	0.00e+00	0	40	0	212860928	58	6823
2026-01-25 19:59:00.52	41.56	8.88	-42.9	-44.4	19.7	0.00e+00	0	40	0	214958080	58	6700
2026-01-25 19:59:01.53	41.42	8.93	-42.8	-44.3	19.7	0.00e+00	0	40	0	216006656	58	6643
2026-01-25 19:59:02.54	41.28	8.98	-42.5	-43.9	19.9	0.00e+00	0	40	0	218103808	58	6364
2026-01-25 19:59:03.55	41.14	9.03	-42.6	-44.1	19.9	0.00e+00	0	40	0	220200960	58	6489
2026-01-25 19:59:04.56	41.00	9.08	-42.6	-44.0	19.9	0.00e+00	0	41	0	222298112	58	6446
2026-01-25 19:59:05.57	40.85	9.13	-42.6	-44.0	20.1	0.00e+00	0	40	0	224395264	58	6392
2026-01-25 19:59:06.58	40.71	9.18	-41.9	-43.2	20.6	0.00e+00	0	41	0	226492416	58	5856
2026-01-25 19:59:07.59	40.57	9.22	-42.4	-43.8	20.0	0.00e+00	0	41	0	227540992	58	6280
2026-01-25 19:59:08.60	40.42	9.27	-42.3	-43.6	20.3	0.00e+00	0	41	0	229638144	58	6154
2026-01-25 19:59:09.61	40.28	9.32	-42.1	-43.5	20.3	0.00e+00	0	40	0	231735296	58	6039
2026-01-25 19:59:10.62	40.13	9.37	-42.1	-43.4	20.5	0.00e+00	0	40	0	233832448	58	5977
2026-01-25 19:59:11.62	39.99	9.42	-42.0	-43.3	20.5	0.00e+00	0	41	0	235929600	58	5905
2026-01-25 19:59:12.63	39.84	9.47	-42.1	-43.4	20.5	0.00e+00	0	40	0	236978176	56	6696
2026-01-25 19:59:13.65	39.69	9.52	-42.0	-43.3	20.6	0.00e+00	0	40	0	239075328	56	6641
2026-01-25 19:59:14.65	39.55	9.56	-41.3	-42.5	21.3	0.00e+00	0	40	0	241172480	56	6053
2026-01-25 19:59:15.66	39.40	9.61	-41.6	-42.9	20.9	0.00e+00	0	40	0	243269632	56	6322
2026-01-25 19:59:16.67	39.25	9.66	-41.5	-42.7	21.0	0.00e+00	0	40	0	245366784	56	6235
2026-01-25 19:59:17.68	39.10	9.71	-41.6	-42.8	21.0	0.00e+00	0	40	0	246415360	56	6313
2026-01-25 19:59:18.70	38.95	9.76	-41.5	-42.7	21.1	0.00e+00	0	41	0	248512512	56	6175
2026-01-25 19:59:19.70	38.80	9.80	-41.5	-42.6	20.8	0.00e+00	0	40	0	250609664	56	6155
2026-01-25 19:59:20.71	38.65	9.85	-41.3	-42.4	21.3	0.00e+00	0	40	0	252706816	56	6002
2026-01-25 19:59:21.73	38.50	9.90	-41.5	-42.7	21.2	0.00e+00	0	40	0	254803968	56	6176
2026-01-25 19:59:22.73	38.35	9.95	-41.5	-42.6	21.3	0.00e+00	0	40	0	255852544	56	6169
2026-01-25 19:59:23.74	38.20	9.99	-41.1	-42.2	21.7	0.00e+00	0	40	0	257949696	56	5869
2026-01-25 19:59:24.75	38.05	10.04	-40.8	-41.9	21.8	0.00e+00	0	40	0	260046848	56	5677
2026-01-25 19:59:25.76	37.90	10.09	-40.4	-41.5	22.1	0.00e+00	0	40	0	262144000	54	6049
2026-01-25 19:59:26.77	37.74	10.14	-40.4	-41.5	22.2	0.00e+00	0	40	0	264241152	54	6046
2026-01-25 19:59:27.77	37.59	10.18	-40.6	-41.7	21.9	0.00e+00	0	40	0	265289728	54	6198
2026-01-25 19:59:28.78	37.44	10.23	-40.9	-42.0	21.7	0.00e+00	0	40	0	267386880	54	6412
2026-01-25 19:59:29.79	37.28	10.28	-40.8	-41.9	21.7	0.00e+00	0	40	0	269484032	54	6356
2026-01-25 19:59:30.80	37.13	10.32	-41.0	-42.1	21.5	0.00e+00	0	40	0	271581184	54	6538
2026-01-25 19:59:31.81	36.97	10.37	-41.2	-42.3	21.5	0.00e+00	0	40	0	273678336	54	6668
2026-01-25 19:59:32.82	36.81	10.42	-41.0	-42.2	21.5	0.00e+00	0	40	0	274726912	54	6572
2026-01-25 19:59:33.83	36.66	10.46	-41.0	-42.1	21.5	0.00e+00	0	40	0	276824064	54	6537
2026-01-25 19:59:34.84	36.50	10.51	-41.1	-42.2	21.5	0.00e+00	0	40	0	278921216	54	6599
2026-01-25 19:59:35.85	36.34	10.55	-41.1	-42.2	21.4	0.00e+00	0	40	0	281018368	54	6607
2026-01-25 19:59:36.86	36.19	10.60	-41.3	-42.4	21.2	0.00e+00	0	41	0	283115520	54	6767
2026-01-25 19:59:37.87	36.03	10.65	-40.9	-42.0	21.5	0.00e+00	0	41	0	285212672	54	6462
2026-01-25 19:59:38.88	35.87	10.69	-40.8	-41.9	21.8	0.00e+00	0	40	0	286261248	54	6319
2026-01-25 19:59:39.89	35.71	10.74	-40.8	-41.8	21.9	0.00e+00	0	41	0	288358400	54	6316
2026-01-25 19:59:40.90	35.55	10.78	-40.6	-41.7	22.1	0.00e+00	0	40	0	290455552	54	6176
2026-01-25 19:59:41.91	35.39	10.83	-40.3	-41.3	22.3	0.00e+00	0	40	0	292552704	54	5940
2026-01-25 19:59:42.92	35.23	10.87	-40.3	-41.3	22.2	0.00e+00	0	41	0	294649856	54	5958
2026-01-25 19:59:43.93	35.06	10.92	-39.8	-40.7	22.8	0.00e+00	0	40	0	295698432	54	5543
2026-01-25 19:59:44.93	34.90	10.96	-39.8	-40.8	22.8	0.00e+00	0	40	0	297795584	54	5577
2026-01-25 19:59:45.94	34.74	11.01	-39.9	-40.9	22.6	0.00e+00	0	41	0	299892736	54	5632
2026-01-25 19:59:46.95	34.58	11.05	-39.9	-40.9	22.7	0.00e+00	0	40	0	301989888	52	6377
2026-01-25 19:59:47.96	34.41	11.10	-39.9	-40.9	22.7	0.00e+00	0	40	0	304087040	52	6345
2026-01-25 19:59:48.97	34.25	11.14	-39.9	-40.9	22.7	0.00e+00	0	41	0	305135616	52	6333
2026-01-25 19:59:49.98	34.08	11.19	-39.9	-40.9	22.7	0.00e+00	0	40	0	307232768	52	6332
2026-01-25 19:59:50.99	33.92	11.23	-40.1	-41.1	22.5	0.00e+00	0	40	0	309329920	52	6503
2026-01-25 19:59:52.00	33.75	11.27	-40.1	-41.2	22.4	0.00e+00	0	40	0	311427072	52	6540
2026-01-25 19:59:53.00	33.59	11.32	-40.3	-41.3	22.3	0.00e+00	0	40	0	313524224	52	6645
2026-01-25 19:59:54.01	33.42	11.36	-40.2	-41.3	22.3	0.00e+00	0	40	0	314572800	52	6632
2026-01-25 19:59:55.02	33.25	11.40	-40.1	-41.1	22.5	0.00e+00	0	40	0	316669952	52	6478
2026-01-25 19:59:56.03	33.09	11.45	-40.1	-41.1	22.4	0.00e+00	0	40	0	318767104	52	6531
2026-01-25 19:59:57.04	32.92	11.49	-40.1	-41.1	22.5	0.00e+00	0	40	0	320864256	52	6465
2026-01-25 19:59:58.05	32.75	11.53	-39.8	-40.7	22.8	0.00e+00	0	40	0	322961408	52	6226
2026-01-25 19:59:59.06	32.58	11.58	-39.7	-40.7	22.8	0.00e+00	0	40	0	324009984	52	6204
2026-01-25 20:00:00.07	32.41	11.62	-39.5	-40.5	23.0	0.00e+00	0	40	0	326107136	52	6045
2026-01-25 20:00:01.08	32.24	11.66	-39.7	-40.7	23.0	0.00e+00	0	40	0	328204288	52	6193
2026-01-25 20:00:02.09	32.07	11.70	-39.5	-40.4	23.0	0.00e+00	0	40	0	330301440	52	6008
2026-01-25 20:00:03.10	31.90	11.74	-39.4	-40.4	23.1	0.00e+00	0	40	0	332398592	52	5966
2026-01-25 20:00:04.11	31.73	11.79	-39.8	-40.8	22.8	0.00e+00	0	40	0	333447168	52	6268
2026-01-25 20:00:05.12	31.55	11.83	-39.6	-40.6	23.0	0.00e+00	0	40	0	335544320	52	6140
2026-01-25 20:00:06.13	31.38	11.87	-40.1	-41.1	22.5	0.00e+00	0	40	0	337641472	52	6518
2026-01-25 20:00:07.13	31.21	11.91	-40.1	-41.2	22.5	0.00e+00	0	40	0	339738624	52	6562
2026-01-25 20:00:08.14	31.04	11.95	-40.1	-41.1	22.5	0.00e+00	0	40	0	341835776	52	6512
2026-01-25 20:00:09.15	30.86	11.99	-40.3	-41.4	22.3	0.00e+00	0	40	0	342884352	52	6697
2026-01-25 20:00:10.16	30.69	12.03	-40.5	-41.5	22.2	0.00e+00	0	40	0	344981504	52	6840
2026-01-25 20:00:11.17	30.51	12.07	-40.3	-41.3	21.9	0.00e+00	0	41	0	347078656	52	6658
2026-01-25 20:00:12.18	30.34	12.11	-40.4	-41.5	22.2	0.00e+00	0	40	0	349175808	52	6774
2026-01-25 20:00:13.19	30.16	12.15	-40.4	-41.4	22.2	0.00e+00	0	40	0	351272960	52	6733
2026-01-25 20:00:14.20	29.98	12.19	-40.3	-41.3	22.4	0.00e+00	0	40	0	352321536	52	6640
2026-01-25 20:00:15.21	29.81	12.23	-40.4	-41.4	22.3	0.00e+00	0	40	0	354418688	52	6750
2026-01-25 20:00:16.22	29.63	12.27	-40.4	-41.4	22.4	0.00e+00	0	40	0	356515840	52	6712
2026-01-25 20:00:17.22	29.45	12.31	-40.3	-41.4	22.3	0.00e+00	0	40	0	358612992	52	6697
2026-01-25 20:00:18.24	29.27	12.35	-40.4	-41.4	22.4	0.00e+00	0	40	0	360710144	52	6720
2026-01-25 20:00:19.25	29.09	12.39	-40.4	-41.4	22.3	0.00e+00	0	40	0	361758720	52	6743
2026-01-25 20:00:20.26	28.91	12.43	-40.5	-41.6	22.1	0.00e+00	0	40	0	363855872	52	6882
2026-01-25 20:00:21.27	28.73	12.47	-40.7	-41.8	22.0	0.00e+00	0	40	0	365953024	54	6308
2026-01-25 20:00:22.27	28.55	12.51	-40.8	-42.0	21.8	0.00e+00	0	40	0	368050176	54	6408
2026-01-25 20:00:23.29	28.37	12.54	-40.9	-42.0	21.8	0.00e+00	0	40	0	370147328	54	6414
2026-01-25 20:00:24.30	28.19	12.58	-40.8	-41.9	21.8	0.00e+00	0	40	0	371195904	54	6386
2026-01-25 20:00:25.31	28.01	12.62	-40.5	-41.6	22.2	0.00e+00	0	40	0	373293056	54	6127
2026-01-25 20:00:26.31	27.83	12.66	-40.4	-41.5	22.1	0.00e+00	0	40	0	375390208	54	6040
2026-01-25 20:00:27.32	27.64	12.69	-40.1	-41.1	22.5	0.00e+00	0	40	0	377487360	54	5817
2026-01-25 20:00:28.34	27.46	12.73	-40.0	-41.0	22.6	0.00e+00	0	40	0	379584512	54	5754
2026-01-25 20:00:29.34	27.28	12.77	-39.9	-40.8	22.8	0.00e+00	0	40	0	380633088	54	5611
2026-01-25 20:00:30.35	27.09	12.80	-40.1	-41.0	22.7	0.00e+00	0	40	0	382730240	54	5756
2026-01-25 20:00:31.37	26.91	12.84	-40.0	-41.0	22.6	0.00e+00	0	41	0	384827392	54	5747
2026-01-25 20:00:32.37	26.72	12.88	-40.2	-41.2	22.5	0.00e+00	0	41	0	386924544	54	5851
2026-01-25 20:00:33.38	26.54	12.91	-40.0	-41.0	22.6	0.00e+00	0	40	0	389021696	54	5759
2026-01-25 20:00:34.39	26.35	12.95	-40.1	-41.1	22.6	0.00e+00	0	40	0	391118848	54	5762
2026-01-25 20:00:35.40	26.16	12.98	-40.1	-41.1	22.6	0.00e+00	0	40	0	392167424	54	5804
2026-01-25 20:00:36.41	25.98	13.02	-40.1	-41.1	22.5	0.00e+00	0	40	0	394264576	54	5811
2026-01-25 20:00:37.41	25.79	13.05	-40.2	-41.2	22.5	0.00e+00	0	40	0	396361728	54	5889
2026-01-25 20:00:38.43	25.60	13.09	-40.2	-41.2	22.5	0.00e+00	0	40	0	398458880	54	5860
2026-01-25 20:00:39.43	25.42	13.12	-40.2	-41.2	22.3	0.00e+00	0	40	0	400556032	54	5896
2026-01-25 20:00:40.44	25.23	13.15	-39.9	-40.9	22.6	0.00e+00	0	40	0	401604608	54	5666
2026-01-25 20:00:41.45	25.04	13.19	-39.9	-40.8	22.8	0.00e+00	0	41	0	403701760	54	5630
2026-01-25 20:00:42.46	24.85	13.22	-39.9	-40.8	22.8	0.00e+00	0	40	0	405798912	52	6311
2026-01-25 20:00:43.47	24.66	13.25	-40.4	-41.4	22.4	0.00e+00	0	41	0	407896064	52	6735
2026-01-25 20:00:44.48	24.47	13.29	-40.5	-41.6	22.3	0.00e+00	0	41	0	409993216	52	6869
2026-01-25 20:00:45.49	24.28	13.32	-40.7	-41.9	22.0	0.00e+00	0	40	0	411041792	52	7097
2026-01-25 20:00:46.50	24.09	13.35	-40.9	-42.0	21.9	0.00e+00	0	40	0	413138944	54	6450
2026-01-25 20:00:47.51	23.89	13.38	-40.8	-42.0	21.9	0.00e+00	0	40	0	415236096	54	6408
2026-01-25 20:00:48.51	23.70	13.42	-40.6	-41.7	22.0	0.00e+00	0	40	0	417333248	54	6228
2026-01-25 20:00:49.52	23.51	13.45	-40.5	-41.6	22.2	0.00e+00	0	41	0	419430400	54	6135
2026-01-25 20:00:50.53	23.32	13.48	-40.4	-41.5	22.3	0.00e+00	0	40	0	420478976	54	6080
2026-01-25 20:00:51.54	23.12	13.51	-40.4	-41.5	22.3	0.00e+00	0	40	0	422576128	54	6067
2026-01-25 20:00:52.56	22.93	13.54	-40.2	-41.2	22.6	0.00e+00	0	40	0	424673280	54	5866
2026-01-25 20:00:53.56	22.74	13.57	-39.9	-40.9	22.4	0.00e+00	0	40	0	426770432	54	5645
2026-01-25 20:00:54.57	22.54	13.60	-39.4	-40.3	23.0	0.00e+00	0	40	0	428867584	52	5962
2026-01-25 20:00:55.58	22.35	13.63	-39.4	-40.4	23.0	0.00e+00	0	40	0	429916160	52	5968
2026-01-25 20:00:56.59	22.15	13.66	-39.4	-40.3	23.2	0.00e+00	0	41	0	432013312	52	5943
2026-01-25 20:00:57.60	21.96	13.69	-39.5	-40.5	22.9	0.00e+00	0	40	0	434110464	52	6042
2026-01-25 20:00:58.61	21.76	13.72	-39.7	-40.6	23.0	0.00e+00	0	41	0	436207616	52	6143
2026-01-25 20:00:59.62	21.56	13.75	-39.6	-40.5	23.1	0.00e+00	0	41	0	438304768	52	6088
2026-01-25 20:01:00.63	21.37	13.77	-39.6	-40.5	23.1	0.00e+00	0	40	0	439353344	52	6074
2026-01-25 20:01:01.64	21.17	13.80	-39.6	-40.5	23.1	0.00e+00	0	41	0	441450496	52	6056
2026-01-25 20:01:02.64	20.97	13.83	-39.8	-40.7	23.0	0.00e+00	0	40	0	443547648	52	6217
2026-01-25 20:01:03.65	20.77	13.86	-39.6	-40.5	23.1	0.00e+00	0	40	0	445644800	52	6079
2026-01-25 20:01:04.66	20.58	13.88	-39.8	-40.7	23.0	0.00e+00	0	41	0	447741952	52	6240
2026-01-25 20:01:05.67	20.38	13.91	-39.8	-40.7	23.0	0.00e+00	0	41	0	448790528	52	6233
2026-01-25 20:01:06.68	20.18	13.94	-39.4	-40.3	23.1	0.00e+00	0	41	0	450887680	52	5953
2026-01-25 20:01:07.69	19.98	13.96	-39.2	-40.1	23.3	0.00e+00	0	41	0	452984832	52	5781
2026-01-25 20:01:08.70	19.78	13.99	-39.3	-40.2	23.4	0.00e+00	0	41	0	455081984	52	5850
2026-01-25 20:01:09.71	19.58	14.01	-39.6	-40.5	23.0	0.00e+00	0	41	0	457179136	52	6076
2026-01-25 20:01:10.72	19.38	14.04	-40.0	-40.9	22.8	0.00e+00	0	41	0	459276288	52	6365
2026-01-25 20:01:11.73	19.18	14.06	-40.2	-41.2	22.5	0.00e+00	0	41	0	460324864	52	6577
2026-01-25 20:01:12.74	18.98	14.09	-40.6	-41.6	22.2	0.00e+00	0	41	0	462422016	52	6906
2026-01-25 20:01:13.75	18.77	14.11	-40.6	-41.6	22.1	0.00e+00	0	41	0	464519168	52	6910
2026-01-25 20:01:14.76	18.57	14.14	-40.5	-41.6	22.2	0.00e+00	0	41	0	466616320	52	6872
2026-01-25 20:01:15.76	18.37	14.16	-40.4	-41.4	22.4	0.00e+00	0	40	0	468713472	52	6713
2026-01-25 20:01:16.77	18.17	14.18	-40.5	-41.5	22.3	0.00e+00	0	40	0	469762048	52	6840
2026-01-25 20:01:17.79	17.96	14.21	-40.7	-41.7	22.1	0.00e+00	0	41	0	471859200	52	6988
2026-01-25 20:01:18.80	17.76	14.23	-41.0	-42.1	21.9	0.00e+00	0	41	0	473956352	54	6528
2026-01-25 20:01:19.80	17.56	14.25	-40.8	-41.8	21.8	0.00e+00	0	41	0	476053504	54	6289
2026-01-25 20:01:20.82	17.35	14.27	-40.8	-41.8	22.0	0.00e+00	0	41	0	478150656	54	6303
2026-01-25 20:01:21.82	17.15	14.29	-40.7	-41.8	22.1	0.00e+00	0	41	0	479199232	54	6267
2026-01-25 20:01:22.83	16.95	14.31	-41.1	-42.2	21.7	0.00e+00	0	41	0	481296384	54	6562
2026-01-25 20:01:23.84	16.74	14.34	-40.8	-41.9	22.0	0.00e+00	0	41	0	483393536	54	6333
2026-01-25 20:01:24.85	16.54	14.36	-40.6	-41.7	21.9	0.00e+00	0	40	0	485490688	54	6195
2026-01-25 20:01:25.86	16.33	14.38	-40.9	-42.0	21.8	0.00e+00	0	41	0	487587840	54	6436
2026-01-25 20:01:26.87	16.13	14.40	-40.9	-42.0	21.9	0.00e+00	0	41	0	488636416	54	6447
2026-01-25 20:01:27.88	15.92	14.42	-41.1	-42.2	21.7	0.00e+00	0	41	0	490733568	54	6577
2026-01-25 20:01:28.89	15.71	14.43	-40.6	-41.6	22.3	0.00e+00	0	41	0	492830720	54	6155
2026-01-25 20:01:29.90	15.51	14.45	-40.3	-41.3	22.5	0.00e+00	0	41	0	494927872	54	5953
2026-01-25 20:01:30.91	15.30	14.47	-40.3	-41.3	22.5	0.00e+00	0	41	0	497025024	54	5926
2026-01-25 20:01:31.92	15.10	14.49	-40.1	-41.0	22.7	0.00e+00	0	41	0	498073600	54	5752
2026-01-25 20:01:32.93	14.89	14.51	-40.0	-41.0	22.6	0.00e+00	0	41	0	500170752	54	5706
2026-01-25 20:01:33.94	14.68	14.52	-40.2	-41.2	22.7	0.00e+00	0	41	0	502267904	54	5856
2026-01-25 20:01:34.95	14.47	14.54	-40.0	-40.9	22.8	0.00e+00	0	41	0	504365056	54	5680
2026-01-25 20:01:35.96	14.27	14.56	-39.8	-40.8	22.9	0.00e+00	0	41	0	506462208	52	6278
2026-01-25 20:01:36.97	14.06	14.57	-40.3	-41.3	22.6	0.00e+00	0	41	0	507510784	52	6626
2026-01-25 20:01:37.98	13.85	14.59	-40.5	-41.5	22.3	0.00e+00	0	41	0	509607936	52	6790
2026-01-25 20:01:38.99	13.64	14.60	-40.4	-41.4	22.3	0.00e+00	0	41	0	511705088	52	6762
2026-01-25 20:01:40.00	13.43	14.62	-40.4	-41.4	22.4	0.00e+00	0	41	0	513802240	52	6713
2026-01-25 20:01:41.01	13.22	14.63	-40.5	-41.6	22.3	0.00e+00	0	41	0	515899392	52	6854
2026-01-25 20:01:42.02	13.01	14.65	-40.7	-41.7	22.1	0.00e+00	0	41	0	516947968	52	6972
2026-01-25 20:01:43.03	12.80	14.66	-40.4	-41.5	22.4	0.00e+00	0	41	0	519045120	54	6039
2026-01-25 20:01:44.04	12.59	14.68	-40.3	-41.4	22.4	0.00e+00	0	41	0	521142272	54	5966
2026-01-25 20:01:45.05	12.39	14.69	-40.1	-41.1	22.5	0.00e+00	0	41	0	523239424	54	5799
2026-01-25 20:01:46.06	12.18	14.70	-40.0	-40.9	22.7	0.00e+00	0	41	0	525336576	54	5687
2026-01-25 20:01:47.06	11.97	14.71	-39.7	-40.7	22.9	0.00e+00	0	41	0	527433728	54	5531
2026-01-25 20:01:48.07	11.76	14.73	-39.9	-40.9	22.8	0.00e+00	0	41	0	528482304	52	6361
2026-01-25 20:01:49.08	11.55	14.74	-40.0	-41.0	22.6	0.00e+00	0	41	0	530579456	52	6445
2026-01-25 20:01:50.09	11.34	14.75	-40.2	-41.2	22.5	0.00e+00	0	41	0	532676608	52	6594
2026-01-25 20:01:51.10	11.13	14.76	-40.3	-41.3	22.5	0.00e+00	0	41	0	534773760	52	6679
2026-01-25 20:01:52.11	10.91	14.77	-40.4	-41.4	22.4	0.00e+00	0	41	0	536870912	52	6716
2026-01-25 20:01:53.12	10.70	14.78	-40.5	-41.5	22.3	0.00e+00	0	40	0	537919488	52	6846
2026-01-25 20:01:54.13	10.49	14.79	-40.6	-41.6	22.3	0.00e+00	0	41	0	540016640	52	6890
2026-01-25 20:01:55.14	10.28	14.80	-40.5	-41.6	22.4	0.00e+00	0	41	0	542113792	52	6854
2026-01-25 20:01:56.15	10.07	14.81	-40.5	-41.5	22.4	0.00e+00	0	41	0	544210944	52	6820
2026-01-25 20:01:57.16	9.86	14.82	-40.4	-41.4	22.3	0.00e+00	0	41	0	546308096	52	6752
2026-01-25 20:01:58.17	9.65	14.82	-40.3	-41.4	22.4	0.00e+00	0	41	0	547356672	52	6702
2026-01-25 20:01:59.18	9.43	14.83	-40.3	-41.3	22.5	0.00e+00	0	41	0	549453824	52	6691
2026-01-25 20:02:00.19	9.22	14.84	-40.3	-41.3	22.4	0.00e+00	0	41	0	551550976	52	6648
2026-01-25 20:02:01.20	9.01	14.85	-40.2	-41.2	22.5	0.00e+00	0	41	0	553648128	52	6610
2026-01-25 20:02:02.21	8.80	14.85	-40.2	-41.2	22.6	0.00e+00	0	41	0	555745280	52	6568
2026-01-25 20:02:03.22	8.59	14.86	-40.4	-41.4	22.4	0.00e+00	0	41	0	556793856	52	6746
2026-01-25 20:02:04.22	8.38	14.86	-40.2	-41.2	22.6	0.00e+00	0	41	0	558891008	52	6595
2026-01-25 20:02:05.23	8.16	14.87	-40.3	-41.3	22.7	0.00e+00	0	40	0	560988160	52	6628
2026-01-25 20:02:06.24	7.95	14.87	-40.1	-41.1	22.7	0.00e+00	0	41	0	563085312	52	6511
2026-01-25 20:02:07.25	7.74	14.88	-40.0	-41.0	22.7	0.00e+00	0	41	0	565182464	52	6426
2026-01-25 20:02:08.26	7.53	14.88	-40.0	-41.0	22.6	0.00e+00	0	41	0	566231040	52	6455
2026-01-25 20:02:09.27	7.31	14.89	-40.1	-41.2	22.6	0.00e+00	0	41	0	568328192	52	6541
2026-01-25 20:02:10.28	7.10	14.89	-40.0	-41.0	22.7	0.00e+00	0	41	0	570425344	52	6436
2026-01-25 20:02:11.29	6.89	14.89	-40.2	-41.2	22.5	0.00e+00	0	41	0	572522496	52	6581
2026-01-25 20:02:12.30	6.68	14.90	-40.5	-41.5	22.3	0.00e+00	0	41	0	574619648	52	6807
2026-01-25 20:02:13.31	6.46	14.90	-40.6	-41.7	22.2	0.00e+00	0	41	0	575668224	52	6932
2026-01-25 20:02:14.32	6.25	14.90	-40.5	-41.6	22.1	0.00e+00	0	41	0	577765376	52	6867
2026-01-25 20:02:15.33	6.04	14.90	-40.7	-41.7	22.2	0.00e+00	0	41	0	579862528	52	6990
2026-01-25 20:02:16.34	5.82	14.90	-40.3	-41.3	22.5	0.00e+00	0	41	0	581959680	52	6680
2026-01-25 20:02:17.35	5.61	14.90	-40.1	-41.0	22.7	0.00e+00	0	41	0	584056832	52	6464
2026-01-25 20:02:18.36	5.40	14.90	-39.8	-40.8	22.8	0.00e+00	0	41	0	585105408	52	6275
2026-01-25 20:02:19.37	5.19	14.90	-39.7	-40.6	23.1	0.00e+00	0	41	0	587202560	52	6139
2026-01-25 20:02:20.38	4.97	14.90	-39.5	-40.5	23.1	0.00e+00	0	41	0	589299712	52	6044
2026-01-25 20:02:21.38	4.76	14.90	-39.6	-40.5	23.3	0.00e+00	0	41	0	591396864	52	6071
2026-01-25 20:02:22.39	4.55	14.90	-39.6	-40.5	23.1	0.00e+00	0	41	0	593494016	52	6060
2026-01-25 20:02:23.40	4.34	14.90	-39.5	-40.4	23.2	0.00e+00	0	41	0	595591168	52	6011
2026-01-25 20:02:24.41	4.12	14.90	-39.8	-40.8	22.9	0.00e+00	0	41	0	596639744	52	6259
2026-01-25 20:02:25.42	3.91	14.89	-40.0	-41.0	22.7	0.00e+00	0	41	0	598736896	52	6443
2026-01-25 20:02:26.43	3.70	14.89	-40.2	-41.2	22.5	0.00e+00	0	41	0	600834048	52	6582
2026-01-25 20:02:27.44	3.49	14.89	-40.3	-41.3	22.6	0.00e+00	0	41	0	602931200	52	6677
2026-01-25 20:02:28.45	3.27	14.88	-40.4	-41.4	22.4	0.00e+00	0	41	0	605028352	52	6759
2026-01-25 20:02:29.46	3.06	14.88	-40.5	-41.5	22.3	0.00e+00	0	41	0	606076928	52	6845
2026-01-25 20:02:30.47	2.85	14.88	-40.5	-41.5	22.3	0.00e+00	0	41	0	608174080	52	6835
2026-01-25 20:02:31.48	2.64	14.87	-40.6	-41.6	22.2	0.00e+00	0	41	0	610271232	52	6908
2026-01-25 20:02:32.49	2.42	14.87	-40.8	-41.9	21.5	0.00e+00	0	41	0	612368384	54	6348
2026-01-25 20:02:33.50	2.21	14.86	-40.8	-41.9	21.8	0.00e+00	0	41	0	613416960	54	6345
2026-01-25 20:02:34.51	2.00	14.85	-40.8	-41.9	21.8	0.00e+00	0	41	0	615514112	54	6361
2026-01-25 20:02:35.51	1.79	14.85	-41.3	-42.4	21.3	0.00e+00	0	41	0	617611264	54	6745
2026-01-25 20:02:36.52	1.58	14.84	-41.0	-42.1	21.8	0.00e+00	0	41	0	619708416	54	6532
2026-01-25 20:02:37.53	1.36	14.83	-41.3	-42.5	21.7	0.00e+00	0	41	0	621805568	54	6775
2026-01-25 20:02:38.54	1.15	14.83	-40.9	-42.0	21.8	0.00e+00	0	41	0	623902720	54	6418
2026-01-25 20:02:39.55	0.94	14.82	-40.5	-41.6	22.3	0.00e+00	0	41	0	624951296	54	6135
2026-01-25 20:02:40.56	0.73	14.81	-40.4	-41.4	22.3	0.00e+00	0	41	0	627048448	54	6021
2026-01-25 20:02:41.57	0.52	14.80	-40.4	-41.4	22.4	0.00e+00	0	41	0	629145600	54	6029
2026-01-25 20:02:42.58	0.31	14.79	-40.4	-41.4	22.3	0.00e+00	0	41	0	631242752	54	6005
2026-01-25 20:02:43.59	0.10	14.78	-40.5	-41.5	22.5	0.00e+00	0	41	0	633339904	54	6065
2026-01-25 20:02:44.60	359.88	14.77	-40.4	-41.4	22.4	0.00e+00	0	41	0	634388480	54	6020
2026-01-25 20:02:45.61	359.67	14.76	-40.3	-41.3	22.5	0.00e+00	0	41	0	636485632	54	5947
2026-01-25 20:02:46.62	359.46	14.75	-40.4	-41.4	22.5	0.00e+00	0	41	0	638582784	54	6020
2026-01-25 20:02:47.63	359.25	14.74	-40.2	-41.2	22.5	0.00e+00	0	41	0	640679936	54	5854
2026-01-25 20:02:48.64	359.04	14.73	-40.8	-41.8	22.1	0.00e+00	0	41	0	642777088	54	6308
2026-01-25 20:02:49.65	358.83	14.72	-40.4	-41.4	22.4	0.00e+00	0	41	0	643825664	54	5988
2026-01-25 20:02:50.66	358.62	14.70	-40.4	-41.4	22.4	0.00e+00	0	41	0	645922816	54	6033
2026-01-25 20:02:51.67	358.41	14.69	-40.3	-41.3	22.5	0.00e+00	0	41	0	648019968	54	5940
2026-01-25 20:02:52.68	358.20	14.68	-40.1	-41.1	22.7	0.00e+00	0	41	0	650117120	54	5768
2026-01-25 20:02:53.69	357.99	14.66	-39.9	-40.8	22.9	0.00e+00	0	41	0	652214272	54	5612
2026-01-25 20:02:54.70	357.78	14.65	-39.6	-40.6	23.0	0.00e+00	0	41	0	653262848	52	6108
2026-01-25 20:02:55.71	357.57	14.64	-39.7	-40.6	23.0	0.00e+00	0	41	0	655360000	52	6171
2026-01-25 20:02:56.71	357.37	14.62	-39.5	-40.4	23.0	0.00e+00	0	41	0	657457152	52	6020
2026-01-25 20:02:57.72	357.16	14.61	-39.6	-40.6	23.0	0.00e+00	0	41	0	659554304	52	6112
2026-01-25 20:02:58.73	356.95	14.59	-39.8	-40.7	22.9	0.00e+00	0	41	0	661651456	52	6225
2026-01-25 20:02:59.74	356.74	14.58	-40.0	-41.0	22.5	0.00e+00	0	41	0	662700032	52	6447
2026-01-25 20:03:00.75	356.53	14.56	-40.0	-41.0	22.7	0.00e+00	0	41	0	664797184	52	6442
2026-01-25 20:03:01.76	356.33	14.54	-40.1	-41.1	22.6	0.00e+00	0	41	0	666894336	52	6486
2026-01-25 20:03:02.77	356.12	14.53	-40.1	-41.1	22.6	0.00e+00	0	41	0	668991488	52	6507
2026-01-25 20:03:03.78	355.91	14.51	-40.1	-41.1	22.7	0.00e+00	0	41	0	671088640	52	6499
2026-01-25 20:03:04.79	355.70	14.49	-40.5	-41.5	22.4	0.00e+00	0	41	0	672137216	52	6825
2026-01-25 20:03:05.80	355.50	14.47	-40.6	-41.6	22.3	0.00e+00	0	41	0	674234368	52	6912
2026-01-25 20:03:06.81	355.29	14.46	-40.6	-41.6	22.2	0.00e+00	0	41	0	676331520	52	6907
2026-01-25 20:03:07.82	355.08	14.44	-40.4	-41.5	22.3	0.00e+00	0	41	0	678428672	52	6791
2026-01-25 20:03:08.83	354.88	14.42	-40.5	-41.6	22.2	0.00e+00	0	41	0	680525824	52	6853
2026-01-25 20:03:09.84	354.67	14.40	-40.6	-41.7	22.2	0.00e+00	0	41	0	681574400	52	6951
2026-01-25 20:03:10.85	354.47	14.38	-40.6	-41.6	22.3	0.00e+00	0	41	0	683671552	54	6173
2026-01-25 20:03:11.86	354.26	14.36	-40.6	-41.7	22.2	0.00e+00	0	41	0	685768704	54	6174
2026-01-25 20:03:12.87	354.06	14.34	-40.6	-41.6	22.2	0.00e+00	0	41	0	687865856	54	6170
2026-01-25 20:03:13.88	353.85	14.32	-40.5	-41.6	22.2	0.00e+00	0	41	0	689963008	54	6142
2026-01-25 20:03:14.89	353.65	14.30	-40.5	-41.6	22.3	0.00e+00	0	41	0	692060160	54	6117
2026-01-25 20:03:15.90	353.44	14.28	-40.5	-41.6	22.3	0.00e+00	0	41	0	693108736	54	6155
2026-01-25 20:03:16.91	353.24	14.26	-40.2	-41.2	22.6	0.00e+00	0	41	0	695205888	54	5865
2026-01-25 20:03:17.92	353.04	14.23	-39.8	-40.8	22.9	0.00e+00	0	41	0	697303040	54	5608
2026-01-25 20:03:18.93	352.83	14.21	-39.8	-40.7	22.9	0.00e+00	0	41	0	699400192	54	5560
2026-01-25 20:03:19.94	352.63	14.19	-39.6	-40.5	23.2	0.00e+00	0	41	0	701497344	52	6060
2026-01-25 20:03:20.95	352.43	14.16	-39.6	-40.5	23.2	0.00e+00	0	41	0	702545920	52	6077
2026-01-25 20:03:21.96	352.23	14.14	-39.8	-40.7	23.0	0.00e+00	0	41	0	704643072	52	6231
2026-01-25 20:03:22.97	352.02	14.12	-39.8	-40.8	22.9	0.00e+00	0	41	0	706740224	52	6258
2026-01-25 20:03:23.98	351.82	14.09	-39.7	-40.6	23.0	0.00e+00	0	41	0	708837376	52	6142
2026-01-25 20:03:24.99	351.62	14.07	-40.1	-41.1	22.7	0.00e+00	0	41	0	710934528	52	6483
2026-01-25 20:03:25.99	351.42	14.04	-39.7	-40.6	23.1	0.00e+00	0	41	0	711983104	52	6166
2026-01-25 20:03:27.00	351.22	14.02	-39.6	-40.5	23.2	0.00e+00	0	41	0	714080256	52	6054
2026-01-25 20:03:28.01	351.02	13.99	-39.6	-40.5	23.2	0.00e+00	0	41	0	716177408	52	6091
2026-01-25 20:03:29.02	350.82	13.97	-39.6	-40.6	23.0	0.00e+00	0	41	0	718274560	52	6115
2026-01-25 20:03:30.03	350.62	13.94	-39.8	-40.7	22.9	0.00e+00	0	41	0	720371712	52	6224
2026-01-25 20:03:31.04	350.42	13.92	-40.1	-41.1	22.7	0.00e+00	0	41	0	721420288	52	6472
2026-01-25 20:03:32.05	350.22	13.89	-40.3	-41.3	22.4	0.00e+00	0	41	0	723517440	52	6652
2026-01-25 20:03:33.06	350.03	13.86	-40.1	-41.1	22.7	0.00e+00	0	41	0	725614592	52	6532
2026-01-25 20:03:34.07	349.83	13.84	-40.2	-41.2	22.5	0.00e+00	0	41	0	727711744	52	6608
2026-01-25 20:03:35.08	349.63	13.81	-40.4	-41.4	22.4	0.00e+00	0	41	0	729808896	52	6715
2026-01-25 20:03:36.09	349.43	13.78	-40.3	-41.3	22.4	0.00e+00	0	41	0	730857472	52	6653
2026-01-25 20:03:37.10	349.24	13.75	-40.5	-41.6	22.4	0.00e+00	0	41	0	732954624	52	6850
2026-01-25 20:03:38.11	349.04	13.72	-40.6	-41.6	22.2	0.00e+00	0	41	0	735051776	52	6919
2026-01-25 20:03:39.12	348.84	13.69	-40.6	-41.7	22.2	0.00e+00	0	41	0	737148928	54	6224
2026-01-25 20:03:40.13	348.65	13.67	-40.5	-41.6	22.3	0.00e+00	0	41	0	739246080	54	6123
2026-01-25 20:03:41.13	348.45	13.64	-40.9	-42.0	22.0	0.00e+00	0	41	0	740294656	54	6411
2026-01-25 20:03:42.14	348.26	13.61	-40.7	-41.8	22.1	0.00e+00	0	41	0	742391808	54	6260
2026-01-25 20:03:43.15	348.06	13.58	-40.8	-41.9	21.8	0.00e+00	0	41	0	744488960	54	6377
2026-01-25 20:03:44.16	347.87	13.55	-40.9	-42.0	21.9	0.00e+00	0	41	0	746586112	54	6425
2026-01-25 20:03:45.17	347.68	13.52	-40.8	-41.9	22.0	0.00e+00	0	41	0	748683264	54	6354
2026-01-25 20:03:46.18	347.48	13.48	-40.8	-41.8	22.1	0.00e+00	0	41	0	749731840	54	6307
2026-01-25 20:03:47.19	347.29	13.45	-40.3	-41.3	22.6	0.00e+00	0	41	0	751828992	54	5921
2026-01-25 20:03:48.19	347.10	13.42	-40.1	-41.1	22.7	0.00e+00	0	41	0	753926144	54	5797
2026-01-25 20:03:49.20	346.91	13.39	-39.7	-40.7	23.1	0.00e+00	0	41	0	756023296	54	5504
2026-01-25 20:03:50.21	346.72	13.36	-40.0	-40.9	22.8	0.00e+00	0	41	0	758120448	52	6369
2026-01-25 20:03:51.22	346.52	13.33	-39.9	-40.9	22.8	0.00e+00	0	41	0	760217600	52	6356
2026-01-25 20:03:52.23	346.33	13.29	-39.8	-40.8	22.9	0.00e+00	0	41	0	761266176	52	6275
2026-01-25 20:03:53.24	346.14	13.26	-39.8	-40.8	22.9	0.00e+00	0	41	0	763363328	52	6260
2026-01-25 20:03:54.25	345.95	13.23	-39.7	-40.7	23.0	0.00e+00	0	41	0	765460480	52	6179
2026-01-25 20:03:55.26	345.76	13.20	-39.7	-40.6	23.1	0.00e+00	0	41	0	767557632	52	6124
2026-01-25 20:03:56.27	345.57	13.16	-39.7	-40.7	23.0	0.00e+00	0	41	0	769654784	52	6191
2026-01-25 20:03:57.28	345.38	13.13	-39.7	-40.7	23.1	0.00e+00	0	41	0	770703360	52	6196
2026-01-25 20:03:58.29	345.20	13.09	-39.7	-40.7	23.0	0.00e+00	0	41	0	772800512	52	6184
2026-01-25 20:03:59.30	345.01	13.06	-39.4	-40.3	23.2	0.00e+00	0	41	0	774897664	52	5934
2026-01-25 20:04:00.31	344.82	13.02	-39.3	-40.2	23.2	0.00e+00	0	41	0	776994816	52	5870
2026-01-25 20:04:01.32	344.63	12.99	-39.2	-40.1	23.3	0.00e+00	0	41	0	779091968	52	5769
2026-01-25 20:04:02.33	344.45	12.95	-39.5	-40.4	22.8	0.00e+00	0	41	0	780140544	52	5992
2026-01-25 20:04:03.34	344.26	12.92	-39.5	-40.4	23.1	0.00e+00	0	41	0	782237696	52	5995
2026-01-25 20:04:04.35	344.08	12.88	-40.0	-41.0	22.7	0.00e+00	0	41	0	784334848	52	6424
2026-01-25 20:04:05.36	343.89	12.85	-39.8	-40.8	22.5	0.00e+00	0	41	0	786432000	52	6276
2026-01-25 20:04:06.37	343.71	12.81	-40.1	-41.1	22.8	0.00e+00	0	41	0	788529152	52	6473
2026-01-25 20:04:07.37	343.52	12.78	-40.1	-41.1	22.7	0.00e+00	0	41	0	789577728	52	6471
2026-01-25 20:04:08.38	343.34	12.74	-40.2	-41.2	22.5	0.00e+00	0	41	0	791674880	52	6576
2026-01-25 20:04:09.39	343.16	12.70	-40.2	-41.2	22.5	0.00e+00	0	41	0	793772032	52	6563
2026-01-25 20:04:10.40	342.97	12.67	-40.6	-41.6	22.2	0.00e+00	0	41	0	795869184	52	6912
2026-01-25 20:04:11.41	342.79	12.63	-40.7	-41.7	22.2	0.00e+00	0	41	0	797966336	52	7004
2026-01-25 20:04:12.42	342.61	12.59	-40.8	-41.9	22.0	0.00e+00	0	41	0	799014912	54	6379
2026-01-25 20:04:13.43	342.43	12.55	-41.1	-42.2	21.7	0.00e+00	0	41	0	801112064	54	6603
2026-01-25 20:04:14.44	342.25	12.51	-41.0	-42.1	21.8	0.00e+00	0	41	0	803209216	54	6508
2026-01-25 20:04:15.45	342.07	12.48	-41.1	-42.3	21.6	0.00e+00	0	41	0	805306368	54	6634
2026-01-25 20:04:16.46	341.89	12.44	-40.9	-42.0	21.6	0.00e+00	0	41	0	807403520	54	6404
2026-01-25 20:04:17.47	341.71	12.40	-40.8	-41.9	21.8	0.00e+00	0	41	0	808452096	54	6377
2026-01-25 20:04:18.48	341.53	12.36	-40.5	-41.6	22.1	0.00e+00	0	41	0	810549248	54	6109
2026-01-25 20:04:19.49	341.35	12.32	-40.9	-42.0	21.8	0.00e+00	0	41	0	812646400	54	6428
2026-01-25 20:04:20.50	341.17	12.28	-40.9	-42.0	21.7	0.00e+00	0	41	0	814743552	54	6432
2026-01-25 20:04:21.51	340.99	12.24	-40.9	-42.0	21.9	0.00e+00	0	41	0	816840704	54	6412
2026-01-25 20:04:22.52	340.82	12.20	-41.1	-42.2	21.7	0.00e+00	0	41	0	817889280	54	6592
2026-01-25 20:04:23.53	340.64	12.16	-40.8	-42.0	21.7	0.00e+00	0	41	0	819986432	54	6400
2026-01-25 20:04:24.54	340.46	12.12	-41.0	-42.1	21.8	0.00e+00	0	41	0	822083584	54	6531
2026-01-25 20:04:25.55	340.29	12.08	-41.0	-42.2	21.7	0.00e+00	0	41	0	824180736	54	6545
2026-01-25 20:04:26.56	340.11	12.04	-40.9	-42.1	21.7	0.00e+00	0	41	0	826277888	54	6484
2026-01-25 20:04:27.57	339.94	12.00	-40.7	-41.9	21.9	0.00e+00	0	41	0	828375040	54	6340
2026-01-25 20:04:28.58	339.77	11.96	-40.8	-42.0	21.9	0.00e+00	0	41	0	829423616	54	6391
2026-01-25 20:04:29.59	339.59	11.92	-40.8	-42.0	21.8	0.00e+00	0	41	0	831520768	54	6392
2026-01-25 20:04:30.60	339.42	11.88	-41.1	-42.3	21.6	0.00e+00	0	41	0	833617920	54	6648
2026-01-25 20:04:31.61	339.25	11.84	-41.0	-42.1	21.9	0.00e+00	0	41	0	835715072	54	6510
2026-01-25 20:04:32.62	339.07	11.80	-40.8	-42.0	21.9	0.00e+00	0	41	0	837812224	54	6408
2026-01-25 20:04:33.63	338.90	11.75	-41.1	-42.2	21.6	0.00e+00	0	41	0	838860800	54	6610
2026-01-25 20:04:34.64	338.73	11.71	-41.3	-42.5	21.4	0.00e+00	0	41	0	840957952	54	6847
2026-01-25 20:04:35.65	338.56	11.67	-41.5	-42.7	21.2	0.00e+00	0	41	0	843055104	54	6980
2026-01-25 20:04:36.66	338.39	11.63	-41.6	-42.8	21.0	0.00e+00	0	41	0	845152256	54	7039
2026-01-25 20:04:37.67	338.22	11.59	-41.4	-42.5	21.4	0.00e+00	0	41	0	847249408	54	6832
2026-01-25 20:04:38.67	338.05	11.54	-40.9	-42.0	21.9	0.00e+00	0	41	0	848297984	54	6429
2026-01-25 20:04:39.68	337.88	11.50	-41.1	-42.3	21.7	0.00e+00	0	41	0	850395136	54	6620
2026-01-25 20:04:40.69	337.72	11.46	-40.6	-41.6	22.1	0.00e+00	0	41	0	852492288	54	6136
2026-01-25 20:04:41.70	337.55	11.41	-40.3	-41.3	22.3	0.00e+00	0	41	0	854589440	54	5931
2026-01-25 20:04:42.71	337.38	11.37	-40.6	-41.6	22.1	0.00e+00	0	41	0	856686592	54	6173
2026-01-25 20:04:43.73	337.21	11.33	-40.8	-41.9	21.9	0.00e+00	0	41	0	857735168	54	6360
2026-01-25 20:04:44.73	337.05	11.28	-40.9	-42.0	21.8	0.00e+00	0	41	0	859832320	54	6419
2026-01-25 20:04:45.74	336.88	11.24	-41.3	-42.5	21.4	0.00e+00	0	41	0	861929472	54	6801
2026-01-25 20:04:46.75	336.72	11.20	-41.9	-43.2	20.8	0.00e+00	0	41	0	864026624	56	6596
2026-01-25 20:04:47.76	336.55	11.15	-41.9	-43.2	20.8	0.00e+00	0	41	0	866123776	56	6592
2026-01-25 20:04:48.77	336.39	11.11	-42.4	-43.8	20.3	0.00e+00	0	41	0	867172352	56	7008
2026-01-25 20:04:49.78	336.22	11.06	-42.7	-44.1	20.1	0.00e+00	0	41	0	869269504	56	7257
2026-01-25 20:04:50.79	336.06	11.02	-42.8	-44.2	19.9	0.00e+00	0	41	0	871366656	58	6587
2026-01-25 20:04:51.80	335.90	10.97	-42.6	-44.0	20.1	0.00e+00	0	41	0	873463808	58	6392
2026-01-25 20:04:52.81	335.74	10.93	-42.4	-43.8	20.4	0.00e+00	0	41	0	875560960	58	6255
2026-01-25 20:04:53.81	335.58	10.88	-42.4	-43.8	20.5	0.00e+00	0	41	0	876609536	58	6247
2026-01-25 20:04:54.82	335.41	10.84	-41.9	-43.2	20.9	0.00e+00	0	41	0	878706688	58	5832
2026-01-25 20:04:55.83	335.25	10.79	-42.0	-43.3	20.7	0.00e+00	0	41	0	880803840	58	5912
2026-01-25 20:04:56.84	335.09	10.75	-41.9	-43.1	20.9	0.00e+00	0	41	0	882900992	58	5787
2026-01-25 20:04:57.85	334.93	10.70	-42.2	-43.5	20.8	0.00e+00	0	41	0	884998144	58	6039
2026-01-25 20:04:58.86	334.78	10.66	-42.2	-43.5	20.4	0.00e+00	0	41	0	886046720	58	6092
2026-01-25 20:04:59.87	334.62	10.61	-42.7	-44.1	19.8	0.00e+00	0	41	0	888143872	58	6524
2026-01-25 20:05:00.88	334.46	10.57	-43.2	-44.7	19.4	0.00e+00	0	41	0	890241024	58	7003
2026-01-25 20:05:01.89	334.30	10.52	-44.0	-45.7	18.5	0.00e+00	0	41	0	892338176	60	7006
2026-01-25 20:05:02.90	334.14	10.47	-44.1	-45.9	18.5	0.00e+00	0	41	0	894435328	60	7133
2026-01-25 20:05:03.91	333.99	10.43	-44.0	-45.7	18.5	0.00e+00	0	41	0	896532480	60	6989
2026-01-25 20:05:04.92	333.83	10.38	-44.4	-46.2	18.1	0.00e+00	0	41	0	897581056	60	7375
2026-01-25 20:05:05.93	333.68	10.33	-44.3	-46.1	18.2	0.00e+00	0	41	0	899678208	60	7271
2026-01-25 20:05:06.93	333.52	10.29	-44.1	-45.8	18.6	0.00e+00	0	41	0	901775360	60	7064
2026-01-25 20:05:07.95	333.37	10.24	-43.9	-45.6	18.8	0.00e+00	0	41	0	903872512	60	6900
2026-01-25 20:05:08.96	333.21	10.19	-43.9	-45.5	18.8	0.00e+00	0	41	0	905969664	60	6842
2026-01-25 20:05:09.97	333.06	10.15	-43.6	-45.2	19.1	0.00e+00	0	41	0	907018240	60	6576
2026-01-25 20:05:10.98	332.90	10.10	-43.4	-44.9	19.3	0.00e+00	0	41	0	909115392	60	6362
2026-01-25 20:05:11.98	332.75	10.05	-43.6	-45.2	19.1	0.00e+00	0	41	0	911212544	60	6599
2026-01-25 20:05:12.99	332.60	10.01	-43.5	-45.1	19.2	0.00e+00	0	41	0	913309696	60	6504
2026-01-25 20:05:14.00	332.45	9.96	-43.2	-44.7	19.5	0.00e+00	0	41	0	915406848	60	6224
2026-01-25 20:05:15.01	332.30	9.91	-43.3	-44.8	19.5	0.00e+00	0	41	0	916455424	60	6256
2026-01-25 20:05:16.02	332.15	9.86	-43.0	-44.4	19.7	0.00e+00	0	41	0	918552576	60	6014
2026-01-25 20:05:17.03	332.00	9.82	-43.0	-44.4	19.6	0.00e+00	0	41	0	920649728	60	5974
2026-01-25 20:05:18.04	331.85	9.77	-43.0	-44.5	19.7	0.00e+00	0	41	0	922746880	60	6050
2026-01-25 20:05:19.05	331.70	9.72	-42.8	-44.1	20.0	0.00e+00	0	41	0	924844032	58	6533
2026-01-25 20:05:20.06	331.55	9.67	-42.4	-43.7	20.3	0.00e+00	0	41	0	925892608	58	6207
2026-01-25 20:05:21.06	331.40	9.62	-42.5	-43.8	20.3	0.00e+00	0	41	0	927989760	58	6298
2026-01-25 20:05:22.07	331.26	9.58	-42.5	-43.8	20.3	0.00e+00	0	41	0	930086912	58	6280
2026-01-25 20:05:23.08	331.11	9.53	-42.5	-43.8	20.2	0.00e+00	0	41	0	932184064	58	6317
2026-01-25 20:05:24.09	330.96	9.48	-42.6	-43.9	20.2	0.00e+00	0	41	0	934281216	58	6379
2026-01-25 20:05:25.10	330.82	9.43	-42.5	-43.7	20.2	0.00e+00	0	41	0	935329792	58	6241
2026-01-25 20:05:26.11	330.67	9.38	-42.6	-43.9	20.2	0.00e+00	0	41	0	937426944	58	6370
2026-01-25 20:05:27.12	330.53	9.33	-42.4	-43.7	20.3	0.00e+00	0	41	0	939524096	58	6237
2026-01-25 20:05:28.13	330.38	9.29	-42.1	-43.3	20.8	0.00e+00	0	41	0	941621248	58	5926
2026-01-25 20:05:29.14	330.24	9.24	-42.0	-43.2	20.8	0.00e+00	0	41	0	943718400	58	5882
2026-01-25 20:05:30.15	330.09	9.19	-41.7	-42.9	21.0	0.00e+00	0	41	0	944766976	58	5679
2026-01-25 20:05:31.16	329.95	9.14	-41.8	-43.0	21.0	0.00e+00	0	41	0	946864128	56	6418
2026-01-25 20:05:32.17	329.81	9.09	-41.8	-43.0	21.0	0.00e+00	0	41	0	948961280	56	6421
2026-01-25 20:05:33.18	329.67	9.04	-41.8	-43.0	21.0	0.00e+00	0	41	0	951058432	56	6398
2026-01-25 20:05:34.19	329.52	8.99	-41.7	-42.9	21.1	0.00e+00	0	41	0	953155584	56	6331
2026-01-25 20:05:35.20	329.38	8.94	-41.9	-43.1	20.9	0.00e+00	0	41	0	954204160	56	6484
2026-01-25 20:05:36.21	329.24	8.89	-41.7	-42.9	21.1	0.00e+00	0	41	0	956301312	56	6364
2026-01-25 20:05:37.21	329.10	8.84	-41.8	-43.0	21.0	0.00e+00	0	41	0	958398464	56	6439
2026-01-25 20:05:38.22	328.96	8.80	-42.0	-43.2	20.8	0.00e+00	0	41	0	960495616	56	6598
2026-01-25 20:05:39.24	328.82	8.75	-42.3	-43.5	20.5	0.00e+00	0	41	0	962592768	56	6838
2026-01-25 20:05:40.25	328.68	8.70	-42.2	-43.5	20.6	0.00e+00	0	41	0	963641344	56	6788
2026-01-25 20:05:41.25	328.55	8.65	-42.1	-43.4	20.6	0.00e+00	0	41	0	965738496	56	6740
2026-01-25 20:05:42.27	328.41	8.60	-42.5	-43.9	20.1	0.00e+00	0	41	0	967835648	56	7112
2026-01-25 20:05:43.28	328.27	8.55	-42.5	-43.8	20.2	0.00e+00	0	41	0	969932800	56	7063
2026-01-25 20:05:44.29	328.13	8.50	-42.6	-44.0	20.1	0.00e+00	0	41	0	972029952	56	7172
2026-01-25 20:05:45.30	328.00	8.45	-42.6	-44.0	20.0	0.00e+00	0	41	0	973078528	58	6437
2026-01-25 20:05:46.31	327.86	8.40	-42.4	-43.7	20.3	0.00e+00	0	41	0	975175680	58	6201
2026-01-25 20:05:47.32	327.73	8.35	-42.2	-43.4	20.5	0.00e+00	0	41	0	977272832	58	6033
2026-01-25 20:05:48.32	327.59	8.30	-42.3	-43.6	20.3	0.00e+00	0	41	0	979369984	58	6137
2026-01-25 20:05:49.33	327.46	8.25	-42.2	-43.5	20.5	0.00e+00	0	41	0	981467136	58	6083
2026-01-25 20:05:50.34	327.32	8.20	-42.2	-43.5	20.5	0.00e+00	0	41	0	982515712	58	6056
2026-01-25 20:05:51.35	327.19	8.15	-42.0	-43.3	20.7	0.00e+00	0	41	0	984612864	58	5900
2026-01-25 20:05:52.36	327.06	8.10	-42.0	-43.3	20.6	0.00e+00	0	41	0	986710016	58	5911
2026-01-25 20:05:53.37	326.93	8.05	-42.1	-43.4	20.5	0.00e+00	0	41	0	988807168	58	6003
2026-01-25 20:05:54.38	326.79	8.00	-42.2	-43.4	20.5	0.00e+00	0	41	0	990904320	58	6029
2026-01-25 20:05:55.38	326.66	7.95	-41.9	-43.2	20.7	0.00e+00	0	41	0	993001472	58	5861
2026-01-25 20:05:56.39	326.53	7.90	-42.1	-43.3	20.6	0.00e+00	0	41	0	994050048	58	5956
2026-01-25 20:05:57.40	326.40	7.85	-42.0	-43.3	20.6	0.00e+00	0	41	0	996147200	58	5941
2026-01-25 20:05:58.41	326.27	7.80	-42.0	-43.3	20.6	0.00e+00	0	41	0	998244352	58	5902
2026-01-25 20:05:59.42	326.14	7.75	-41.7	-42.8	21.0	0.00e+00	0	41	0	1000341504	56	6313
2026-01-25 20:06:00.43	326.01	7.69	-41.4	-42.5	21.3	0.00e+00	0	41	0	1002438656	56	6096
2026-01-25 20:06:01.44	325.88	7.64	-41.3	-42.4	21.4	0.00e+00	0	41	0	1003487232	56	6024
2026-01-25 20:06:02.45	325.75	7.59	-41.2	-42.3	21.7	0.00e+00	0	41	0	1005584384	56	5924
2026-01-25 20:06:03.46	325.63	7.54	-40.7	-41.8	21.8	0.00e+00	0	41	0	1007681536	54	6260
2026-01-25 20:06:04.46	325.50	7.49	-40.7	-41.8	21.8	0.00e+00	0	41	0	1009778688	54	6295
2026-01-25 20:06:05.47	325.37	7.44	-40.8	-41.8	21.8	0.00e+00	0	41	0	1011875840	54	6301
2026-01-25 20:06:06.48	325.25	7.39	-40.7	-41.8	21.8	0.00e+00	0	41	0	1012924416	54	6271
2026-01-25 20:06:07.49	325.12	7.34	-40.8	-41.9	21.8	0.00e+00	0	41	0	1015021568	54	6363
2026-01-25 20:06:08.50	324.99	7.29	-41.1	-42.2	21.4	0.00e+00	0	41	0	1017118720	54	6578
2026-01-25 20:06:09.51	324.87	7.24	-41.4	-42.6	21.0	0.00e+00	0	41	0	1019215872	54	6905
2026-01-25 20:06:10.52	324.74	7.19	-41.3	-42.5	21.2	0.00e+00	0	41	0	1021313024	54	6817
2026-01-25 20:06:11.53	324.62	7.14	-41.1	-42.2	21.6	0.00e+00	0	41	0	1022361600	54	6563
2026-01-25 20:06:12.54	324.50	7.09	-40.8	-41.9	21.7	0.00e+00	0	41	0	1024458752	54	6388
2026-01-25 20:06:13.55	324.37	7.03	-40.9	-42.0	21.8	0.00e+00	0	41	0	1026555904	54	6411
2026-01-25 20:06:14.55	324.25	6.98	-40.7	-41.8	21.8	0.00e+00	0	41	0	1028653056	54	6256
2026-01-25 20:06:15.56	324.13	6.93	-40.6	-41.7	21.8	0.00e+00	0	41	0	1030750208	54	6201
2026-01-25 20:06:16.57	324.01	6.88	-40.8	-41.8	21.8	0.00e+00	0	41	0	1031798784	54	6317
2026-01-25 20:06:17.58	323.88	6.83	-40.8	-41.8	21.8	0.00e+00	0	41	0	1033895936	54	6316
2026-01-25 20:06:18.59	323.76	6.78	-40.4	-41.5	22.1	0.00e+00	0	41	0	1035993088	54	6040
2026-01-25 20:06:19.60	323.64	6.73	-41.0	-42.1	21.6	0.00e+00	0	41	0	1038090240	54	6486
2026-01-25 20:06:20.61	323.52	6.68	-40.7	-41.8	21.8	0.00e+00	0	41	0	1040187392	54	6288
2026-01-25 20:06:21.62	323.40	6.63	-41.2	-42.4	21.3	0.00e+00	0	41	0	1041235968	54	6703
2026-01-25 20:06:22.63	323.28	6.58	-40.9	-42.0	21.6	0.00e+00	0	41	0	1043333120	54	6424
2026-01-25 20:06:23.64	323.16	6.52	-41.2	-42.4	21.2	0.00e+00	0	41	0	1045430272	54	6734
2026-01-25 20:06:24.65	323.04	6.47	-41.2	-42.4	21.3	0.00e+00	0	41	0	1047527424	54	6706
2026-01-25 20:06:25.66	322.93	6.42	-41.3	-42.4	21.1	0.00e+00	0	41	0	1049624576	54	6761
2026-01-25 20:06:26.67	322.81	6.37	-41.5	-42.7	21.1	0.00e+00	0	41	0	1050673152	54	6976
2026-01-25 20:06:27.68	322.69	6.32	-41.5	-42.7	21.0	0.00e+00	0	41	0	1052770304	54	6932
2026-01-25 20:06:28.69	322.57	6.27	-41.4	-42.6	21.1	0.00e+00	0	41	0	1054867456	54	6898
2026-01-25 20:06:29.70	322.46	6.22	-42.0	-43.3	20.4	0.00e+00	0	41	0	1056964608	56	6648
2026-01-25 20:06:30.71	322.34	6.17	-41.7	-42.9	20.9	0.00e+00	0	41	0	1059061760	56	6347
2026-01-25 20:06:31.71	322.23	6.11	-41.6	-42.9	20.9	0.00e+00	0	41	0	1061158912	56	6331
2026-01-25 20:06:32.72	322.11	6.06	-41.4	-42.6	21.0	0.00e+00	0	41	0	1062207488	56	6133
2026-01-25 20:06:33.73	322.00	6.01	-41.6	-42.8	21.0	0.00e+00	0	41	0	1064304640	56	6286
2026-01-25 20:06:34.74	321.88	5.96	-41.4	-42.6	21.0	0.00e+00	0	41	0	1066401792	56	6105
2026-01-25 20:06:35.75	321.77	5.91	-41.7	-42.9	20.9	0.00e+00	0	41	0	1068498944	56	6344
2026-01-25 20:06:36.76	321.65	5.86	-41.7	-42.9	20.6	0.00e+00	0	41	0	1070596096	56	6360
2026-01-25 20:06:37.77	321.54	5.81	-41.5	-42.7	21.0	0.00e+00	0	41	0	1071644672	56	6198
2026-01-25 20:06:38.78	321.43	5.76	-41.8	-43.0	20.6	0.00e+00	0	41	0	1073741824	56	6427
2026-01-25 20:06:39.79	321.32	5.70	-41.6	-42.8	20.9	0.00e+00	0	41	0	1075838976	56	6260
2026-01-25 20:06:40.79	321.20	5.65	-41.5	-42.7	20.9	0.00e+00	0	41	0	1077936128	56	6196
2026-01-25 20:06:41.80	321.09	5.60	-41.5	-42.7	20.8	0.00e+00	0	41	0	1080033280	56	6184
2026-01-25 20:06:42.81	320.98	5.55	-41.4	-42.5	20.6	0.00e+00	0	41	0	1081081856	56	6088
2026-01-25 20:06:43.82	320.87	5.50	-41.0	-42.1	21.1	0.00e+00	0	41	0	1083179008	56	5795
2026-01-25 20:06:44.83	320.76	5.45	-41.1	-42.2	21.4	0.00e+00	0	41	0	1085276160	56	5853
2026-01-25 20:06:45.84	320.65	5.40	-40.9	-42.0	21.4	0.00e+00	0	41	0	1087373312	56	5747
2026-01-25 20:06:46.85	320.54	5.35	-41.3	-42.4	21.2	0.00e+00	0	41	0	1089470464	56	6021
2026-01-25 20:06:47.86	320.43	5.29	-41.4	-42.5	21.3	0.00e+00	0	41	0	1090519040	56	6090
2026-01-25 20:06:48.87	320.32	5.24	-40.6	-41.7	21.7	0.00e+00	0	41	0	1092616192	54	6197
2026-01-25 20:06:49.88	320.21	5.19	-40.7	-41.8	21.5	0.00e+00	0	41	0	1094713344	54	6258
2026-01-25 20:06:50.89	320.11	5.14	-40.3	-41.4	21.8	0.00e+00	0	41	0	1096810496	54	5971
2026-01-25 20:06:51.90	320.00	5.09	-40.9	-42.0	21.4	0.00e+00	0	41	0	1098907648	54	6456
2026-01-25 20:06:52.91	319.89	5.04	-40.9	-42.0	21.4	0.00e+00	0	41	0	1099956224	54	6402
2026-01-25 20:06:53.92	319.78	4.99	-41.0	-42.2	21.2	0.00e+00	0	41	0	1102053376	54	6563
2026-01-25 20:06:54.93	319.68	4.94	-41.0	-42.1	21.3	0.00e+00	0	41	0	1104150528	54	6511
2026-01-25 20:06:55.95	319.57	4.88	-41.2	-42.3	21.2	0.00e+00	0	41	0	1106247680	54	6668
2026-01-25 20:06:56.95	319.47	4.83	-41.4	-42.6	20.9	0.00e+00	0	41	0	1108344832	54	6888
2026-01-25 20:06:57.96	319.36	4.78	-41.7	-43.0	20.5	0.00e+00	0	41	0	1109393408	54	7199
2026-01-25 20:06:58.97	319.26	4.73	-42.1	-43.5	20.2	0.00e+00	0	41	0	1111490560	56	6796
2026-01-25 20:06:59.98	319.15	4.68	-42.2	-43.6	20.0	0.00e+00	0	41	0	1113587712	56	6859
2026-01-25 20:07:00.99	319.05	4.63	-42.3	-43.6	20.0	0.00e+00	0	41	0	1115684864	56	6913
2026-01-25 20:07:02.00	318.94	4.58	-42.1	-43.4	20.2	0.00e+00	0	41	0	1117782016	56	6739
2026-01-25 20:07:03.01	318.84	4.52	-42.7	-44.2	19.6	0.00e+00	0	41	0	1118830592	56	7339
2026-01-25 20:07:04.02	318.74	4.47	-41.9	-43.2	20.5	0.00e+00	0	41	0	1120927744	56	6557
2026-01-25 20:07:05.03	318.63	4.42	-42.0	-43.3	20.3	0.00e+00	0	41	0	1123024896	56	6661
2026-01-25 20:07:06.04	318.53	4.37	-41.9	-43.2	20.2	0.00e+00	0	41	0	1125122048	56	6596
2026-01-25 20:07:07.05	318.43	4.32	-42.2	-43.5	20.3	0.00e+00	0	41	0	1127219200	56	6801
2026-01-25 20:07:08.06	318.33	4.27	-41.8	-43.1	20.4	0.00e+00	0	41	0	1129316352	56	6495
2026-01-25 20:07:09.07	318.23	4.22	-42.0	-43.3	20.2	0.00e+00	0	41	0	1130364928	56	6678
2026-01-25 20:07:10.08	318.13	4.17	-41.7	-43.0	20.5	0.00e+00	0	41	0	1132462080	56	6417
2026-01-25 20:07:11.08	318.03	4.12	-41.2	-42.4	21.0	0.00e+00	0	41	0	1134559232	56	5992
2026-01-25 20:07:12.09	317.93	4.06	-41.6	-42.8	20.7	0.00e+00	0	41	0	1136656384	56	6301
2026-01-25 20:07:13.10	317.83	4.01	-41.4	-42.6	20.9	0.00e+00	0	41	0	1138753536	56	6108
2026-01-25 20:07:14.11	317.73	3.96	-41.1	-42.2	21.2	0.00e+00	0	41	0	1139802112	56	5867
2026-01-25 20:07:15.12	317.63	3.91	-41.4	-42.6	20.8	0.00e+00	0	41	0	1141899264	56	6118
2026-01-25 20:07:16.13	317.53	3.86	-41.2	-42.3	20.9	0.00e+00	0	41	0	1143996416	56	5943
2026-01-25 20:07:17.13	317.43	3.81	-41.2	-42.4	20.8	0.00e+00	0	41	0	1146093568	56	6025
2026-01-25 20:07:18.15	317.33	3.76	-41.4	-42.6	20.7	0.00e+00	0	41	0	1147142144	56	6153
2026-01-25 20:07:19.16	317.24	3.71	-41.5	-42.8	20.6	0.00e+00	0	41	0	1149239296	56	6250
2026-01-25 20:07:20.17	317.14	3.66	-41.5	-42.8	20.4	0.00e+00	0	41	0	1151336448	56	6259
2026-01-25 20:07:21.18	317.04	3.61	-42.4	-43.8	19.8	0.00e+00	0	41	0	1153433600	56	7019
2026-01-25 20:07:22.19	316.94	3.55	-42.7	-44.2	19.3	0.00e+00	0	41	0	1155530752	56	7343
2026-01-25 20:07:23.20	316.85	3.50	-42.3	-43.7	19.7	0.00e+00	0	41	0	1157627904	58	6213
2026-01-25 20:07:24.20	316.75	3.45	-42.8	-44.4	19.0	0.00e+00	0	41	0	1158676480	58	6703
2026-01-25 20:07:25.21	316.66	3.40	-43.4	-45.1	18.3	0.00e+00	0	41	0	1160773632	58	7285
2026-01-25 20:07:26.22	316.56	3.35	-42.9	-44.5	18.9	0.00e+00	0	41	0	1162870784	58	6793
2026-01-25 20:07:27.23	316.47	3.30	-43.9	-45.8	17.8	0.00e+00	0	41	0	1164967936	60	7040
2026-01-25 20:07:28.24	316.37	3.25	-43.8	-45.7	17.8	0.00e+00	0	41	0	1167065088	60	6981
2026-01-25 20:07:29.25	316.28	3.20	-44.1	-46.1	17.2	0.00e+00	0	41	0	1168113664	60	7286
2026-01-25 20:07:30.26	316.18	3.15	-44.3	-46.3	17.3	0.00e+00	0	41	0	1170210816	60	7469
2026-01-25 20:07:31.27	316.09	3.10	-44.3	-46.4	16.8	0.00e+00	0	41	0	1172307968	60	7569
2026-01-25 20:07:32.28	316.00	3.05	-44.0	-46.0	17.4	0.00e+00	0	41	0	1174405120	60	7232
2026-01-25 20:07:33.29	315.91	3.00	-44.9	-47.3	16.0	0.00e+00	0	41	0	1176502272	60	8379
2026-01-25 20:07:34.30	315.81	2.94	-49.9	-65.0	3.6	1.51e+00	0	41	104	1176502272	60	64304
2026-01-25 20:07:35.31	315.72	2.89	-50.1	-65.4	3.6	1.51e+00	0	41	104	1176502272	60	67159
2026-01-25 20:07:36.32	315.63	2.84	-50.4	-65.6	3.6	1.51e+00	0	41	104	1176502272	60	68494
2026-01-25 20:07:37.33	315.54	2.79	-50.5	-65.7	3.6	1.51e+00	0	41	104	1176502272	60	69680
2026-01-25 20:07:38.34	315.45	2.74	-50.6	-65.8	3.6	1.51e+00	0	41	104	1176502272	60	70091
2026-01-25 20:07:39.35	315.36	2.69	-50.6	-65.9	3.6	1.51e+00	0	41	104	1176502272	60	70899
2026-01-25 20:07:40.36	315.26	2.64	-50.7	-65.9	3.6	1.51e+00	0	41	104	1176502272	60	71200
2026-01-25 20:07:41.37	315.17	2.59	-50.7	-65.9	3.6	1.51e+00	0	41	104	1176502272	60	71334
2026-01-25 20:07:42.38	315.08	2.54	-50.7	-65.9	3.6	1.51e+00	0	41	104	1176502272	60	71155
2026-01-25 20:07:43.39	314.99	2.49	-50.8	-66.0	3.6	1.51e+00	0	41	104	1176502272	60	72138
2026-01-25 20:07:44.40	314.91	2.44	-50.8	-66.0	3.6	1.51e+00	0	41	104	1176502272	60	72113
2026-01-25 20:07:45.41	314.82	2.39	-50.8	-66.0	3.6	1.51e+00	0	41	104	1176502272	60	72507
2026-01-25 20:07:46.41	314.73	2.34	-50.8	-66.0	3.6	1.51e+00	0	41	104	1176502272	60	72016
