passes_logs/2026/01/25/R4.6S_Anadyr/R4.6S_Anadyr__20260125_031603_NOAA_20_JPSS-1_rec.log

#Pass ID: 20260125_031603_NOAA 20 (JPSS-1)
#Satellite: NOAA 20 (JPSS-1)
#Configuration: NOAA 20
#almurnet v.1.7.20251203
#Start time: 2026-01-25 03:16:06

#Version: 2.2.20231116
#Station: R4.6S_Anadyr
#Location: 177.4865 lon 64.73178 lat
#TLE: 1 43013U 17073A   26024.42258823  .00000183  00000+0  10747-3 0  9990
#TLE: 2 43013  98.7646 325.2629 0001105  25.8644 334.2587 14.19539754424075

#Time	Az	El	Level	Level2	SNR	BER	BlckErr	Temp	State	Recorded	gain1	gain2
2026-01-25 03:16:06.16	238.62	0.13	-51.6	-65.4	3.3	1.54e+00	0	40	0	0	60	67180
2026-01-25 03:16:07.17	238.72	0.17	-51.1	-66.3	3.6	1.51e+00	0	40	104	0	60	74817
2026-01-25 03:16:08.18	238.81	0.21	-51.0	-66.3	3.6	1.51e+00	0	40	104	0	60	74380
2026-01-25 03:16:09.19	238.90	0.25	-51.0	-66.2	3.6	1.51e+00	0	40	104	0	60	74042
2026-01-25 03:16:10.20	239.00	0.30	-51.0	-66.2	3.6	1.51e+00	0	40	104	0	60	73706
2026-01-25 03:16:11.21	239.09	0.34	-51.0	-66.2	3.5	1.51e+00	0	40	104	0	60	73724
2026-01-25 03:16:12.22	239.19	0.38	-50.9	-66.2	3.6	1.51e+00	0	40	104	0	60	73634
2026-01-25 03:16:13.23	239.28	0.42	-50.8	-66.1	3.6	1.51e+00	0	40	104	0	60	73343
2026-01-25 03:16:14.24	239.38	0.47	-50.7	-66.2	3.6	1.51e+00	0	40	104	0	60	73849
2026-01-25 03:16:15.25	239.47	0.51	-50.5	-66.2	3.6	1.51e+00	0	40	104	0	60	73877
2026-01-25 03:16:16.26	239.57	0.55	-50.8	-66.2	3.5	1.51e+00	0	40	104	0	60	74132
2026-01-25 03:16:17.27	239.66	0.59	-51.0	-66.2	3.6	1.51e+00	0	40	104	0	60	74102
2026-01-25 03:16:18.28	239.76	0.64	-51.0	-66.2	3.6	1.51e+00	0	40	104	0	60	73879
2026-01-25 03:16:19.29	239.85	0.68	-51.0	-66.2	3.6	1.51e+00	0	40	104	0	60	74130
2026-01-25 03:16:20.30	239.95	0.72	-51.0	-66.2	3.6	1.51e+00	0	40	104	0	60	74063
2026-01-25 03:16:21.31	240.05	0.76	-51.0	-66.2	3.6	1.51e+00	0	40	104	0	60	73747
2026-01-25 03:16:22.32	240.14	0.81	-50.9	-66.1	3.6	1.51e+00	0	40	104	0	60	73138
2026-01-25 03:16:23.33	240.24	0.85	-50.9	-66.1	3.6	1.51e+00	0	40	104	0	60	72610
2026-01-25 03:16:24.34	240.34	0.89	-50.8	-66.0	3.5	1.51e+00	0	40	104	0	60	71820
2026-01-25 03:16:25.35	240.44	0.94	-50.7	-65.9	3.6	1.51e+00	0	40	104	0	60	71127
2026-01-25 03:16:26.36	240.53	0.98	-50.5	-65.6	3.6	1.51e+00	0	40	104	0	60	69198
2026-01-25 03:16:27.37	240.63	1.02	-50.1	-65.3	3.6	1.51e+00	0	40	104	0	60	66514
2026-01-25 03:16:28.38	240.73	1.06	-49.5	-64.8	3.6	1.51e+00	0	40	104	0	60	62598
2026-01-25 03:16:29.39	240.83	1.11	-48.9	-64.1	3.6	1.51e+00	0	40	104	0	60	57910
2026-01-25 03:16:30.39	240.93	1.15	-48.9	-64.0	3.6	1.51e+00	0	40	104	0	60	57467
2026-01-25 03:16:31.40	241.03	1.19	-48.9	-64.0	3.6	1.51e+00	0	40	104	0	60	57484
2026-01-25 03:16:32.42	241.13	1.23	-48.9	-64.0	3.6	1.51e+00	0	40	104	0	60	57525
2026-01-25 03:16:33.43	241.23	1.28	-48.8	-64.0	3.6	1.51e+00	0	40	104	0	60	57385
2026-01-25 03:16:34.44	241.33	1.32	-48.8	-64.0	3.6	1.51e+00	0	40	104	0	60	57073
2026-01-25 03:16:35.45	241.43	1.36	-48.8	-64.0	3.6	1.51e+00	0	40	104	0	60	57074
2026-01-25 03:16:36.45	241.53	1.40	-48.8	-64.0	3.6	1.51e+00	0	40	104	0	60	57318
2026-01-25 03:16:37.46	241.63	1.45	-48.8	-64.0	3.6	1.51e+00	0	40	104	0	60	57115
2026-01-25 03:16:38.47	241.73	1.49	-48.8	-64.0	3.6	1.51e+00	0	40	104	0	60	57037
2026-01-25 03:16:39.48	241.83	1.53	-48.8	-63.9	3.6	1.51e+00	0	40	104	0	60	56920
2026-01-25 03:16:40.49	241.93	1.57	-48.8	-64.0	3.6	1.51e+00	0	40	104	0	60	57230
2026-01-25 03:16:41.50	242.03	1.62	-48.8	-63.9	3.6	1.51e+00	0	40	104	0	60	56869
2026-01-25 03:16:42.51	242.14	1.66	-48.8	-63.9	3.6	1.51e+00	0	40	104	0	60	56805
2026-01-25 03:16:43.52	242.24	1.70	-48.8	-64.0	3.6	1.51e+00	0	40	104	0	60	57031
2026-01-25 03:16:44.53	242.34	1.74	-48.8	-63.9	3.6	1.51e+00	0	40	104	0	60	56864
2026-01-25 03:16:45.54	242.45	1.79	-48.8	-64.0	3.6	1.51e+00	0	40	104	0	60	57036
2026-01-25 03:16:46.55	242.55	1.83	-48.8	-63.9	3.6	1.51e+00	0	40	104	0	60	56857
2026-01-25 03:16:47.56	242.65	1.87	-48.8	-64.0	3.6	1.51e+00	0	40	104	0	60	57011
2026-01-25 03:16:48.57	242.76	1.91	-48.8	-63.9	3.6	1.51e+00	0	40	104	0	60	56475
2026-01-25 03:16:49.58	242.86	1.96	-48.8	-63.9	3.6	1.51e+00	0	40	104	0	60	56465
2026-01-25 03:16:50.59	242.97	2.00	-48.8	-63.9	3.6	1.51e+00	0	40	104	0	60	56354
2026-01-25 03:16:51.60	243.07	2.04	-48.8	-63.8	3.6	1.51e+00	0	40	104	0	60	56104
2026-01-25 03:16:52.61	243.18	2.08	-48.8	-63.7	3.6	1.51e+00	0	40	104	0	60	55406
2026-01-25 03:16:53.63	243.28	2.13	-48.8	-63.8	3.6	1.51e+00	0	40	104	0	60	56215
2026-01-25 03:16:54.64	243.39	2.17	-48.8	-63.6	3.6	1.51e+00	0	41	104	0	60	54632
2026-01-25 03:16:55.64	243.49	2.21	-48.8	-63.3	3.6	1.51e+00	0	41	104	0	60	53148
2026-01-25 03:16:56.65	243.60	2.25	-48.8	-63.4	3.6	1.51e+00	0	41	104	0	60	53309
2026-01-25 03:16:57.66	243.71	2.30	-48.8	-63.4	3.6	1.51e+00	0	41	104	0	60	53624
2026-01-25 03:16:58.67	243.81	2.34	-48.8	-63.4	3.6	1.51e+00	0	41	104	0	60	53621
2026-01-25 03:16:59.68	243.92	2.38	-48.8	-63.1	3.6	1.51e+00	0	41	104	0	60	51674
2026-01-25 03:17:00.69	244.03	2.42	-48.7	-62.4	3.6	1.51e+00	0	41	104	0	60	47770
2026-01-25 03:17:01.70	244.14	2.46	-48.8	-63.1	3.6	1.51e+00	0	41	104	0	60	51507
2026-01-25 03:17:02.71	244.24	2.51	-48.8	-63.2	3.6	1.51e+00	0	41	104	0	60	52406
2026-01-25 03:17:03.72	244.35	2.55	-48.8	-63.6	3.6	1.51e+00	0	40	104	0	60	54873
2026-01-25 03:17:04.73	244.46	2.59	-48.8	-63.6	3.6	1.51e+00	0	41	104	0	60	54786
2026-01-25 03:17:05.74	244.57	2.63	-48.8	-63.2	3.6	1.51e+00	0	40	104	0	60	52340
2026-01-25 03:17:06.75	244.68	2.68	-48.8	-62.8	3.6	1.51e+00	0	41	104	0	60	49710
2026-01-25 03:17:07.76	244.79	2.72	-48.7	-62.1	3.6	1.51e+00	0	41	104	0	60	45898
2026-01-25 03:17:08.77	244.90	2.76	-48.6	-60.5	4.0	1.50e+00	0	41	104	0	60	38446
2026-01-25 03:17:09.77	245.01	2.80	-48.5	-58.2	4.3	8.24e-01	90	41	0	0	60	29383
2026-01-25 03:17:10.78	245.12	2.84	-48.4	-57.2	4.7	7.73e-01	56	41	0	2097152	60	26173
2026-01-25 03:17:11.80	245.23	2.89	-48.4	-56.9	5.2	5.70e-01	91	41	0	4194304	60	25427
2026-01-25 03:17:12.81	245.34	2.93	-48.5	-57.6	4.4	7.78e-01	91	41	0	6291456	60	27557
2026-01-25 03:17:13.81	245.45	2.97	-48.5	-57.8	4.4	8.75e-01	90	41	0	7340032	60	28184
2026-01-25 03:17:14.82	245.56	3.01	-48.5	-57.8	4.3	1.02e+00	92	41	0	9437184	60	28016
2026-01-25 03:17:15.83	245.68	3.05	-49.5	-64.6	3.6	1.14e+00	0	41	104	10485760	60	61329
2026-01-25 03:17:16.84	245.79	3.10	-48.8	-63.1	3.6	1.42e+00	0	41	104	10485760	60	51692
2026-01-25 03:17:17.85	245.90	3.14	-45.6	-48.6	14.3	1.45e+00	0	41	104	10485760	60	9739
2026-01-25 03:17:18.86	246.01	3.18	-46.2	-49.5	13.8	8.30e-06	91	41	0	11534336	60	10845
2026-01-25 03:17:19.87	246.13	3.22	-46.1	-49.5	12.7	0.00e+00	90	41	0	12582912	60	10753
2026-01-25 03:17:20.88	246.24	3.26	-45.3	-47.9	15.3	3.16e-04	91	41	0	14680064	60	8935
2026-01-25 03:17:21.88	246.35	3.30	-45.0	-47.5	15.7	0.00e+00	91	41	0	16777216	60	8614
2026-01-25 03:17:22.89	246.47	3.35	-45.1	-47.6	15.7	0.00e+00	90	41	0	18874368	60	8712
2026-01-25 03:17:23.90	246.58	3.39	-45.3	-47.9	15.4	0.00e+00	91	41	0	20971520	60	9012
2026-01-25 03:17:24.91	246.70	3.43	-45.4	-48.1	15.4	0.00e+00	89	41	0	22020096	60	9184
2026-01-25 03:17:25.92	246.81	3.47	-45.1	-47.6	15.7	0.00e+00	92	41	0	24117248	60	8670
2026-01-25 03:17:26.93	246.93	3.51	-45.0	-47.4	16.1	0.00e+00	0	41	0	26214400	60	8428
2026-01-25 03:17:27.94	247.04	3.56	-44.7	-46.9	16.7	0.00e+00	92	41	0	28311552	60	7969
2026-01-25 03:17:28.95	247.16	3.60	-44.9	-47.2	16.4	0.00e+00	92	41	0	30408704	60	8264
2026-01-25 03:17:29.95	247.28	3.64	-43.9	-45.8	17.6	0.00e+00	92	41	0	31457280	60	7063
2026-01-25 03:17:30.96	247.39	3.68	-44.8	-47.0	16.4	0.00e+00	90	41	0	33554432	60	8124
2026-01-25 03:17:31.97	247.51	3.72	-45.0	-47.4	16.4	0.00e+00	92	41	0	35651584	60	8439
2026-01-25 03:17:32.98	247.63	3.76	-44.0	-45.9	17.5	0.00e+00	92	41	0	37748736	60	7110
2026-01-25 03:17:33.99	247.74	3.80	-44.4	-46.4	17.2	0.00e+00	62	41	0	39845888	60	7564
2026-01-25 03:17:35.00	247.86	3.85	-44.5	-46.6	17.1	0.00e+00	92	41	0	40894464	60	7691
2026-01-25 03:17:36.00	247.98	3.89	-44.2	-46.2	17.4	0.00e+00	92	41	0	42991616	60	7363
2026-01-25 03:17:37.02	248.10	3.93	-43.9	-45.8	17.4	0.00e+00	90	41	0	45088768	60	7052
2026-01-25 03:17:38.02	248.22	3.97	-44.1	-45.9	17.9	0.00e+00	92	41	0	47185920	60	7161
2026-01-25 03:17:39.03	248.34	4.01	-44.6	-46.7	17.0	0.00e+00	92	41	0	49283072	60	7815
2026-01-25 03:17:40.04	248.46	4.05	-42.5	-44.0	19.6	0.00e+00	92	41	0	50331648	58	6409
2026-01-25 03:17:41.05	248.58	4.09	-42.7	-44.1	19.5	0.00e+00	90	41	0	52428800	58	6524
2026-01-25 03:17:42.06	248.70	4.13	-43.2	-44.9	18.8	0.00e+00	92	41	0	54525952	58	7104
2026-01-25 03:17:43.07	248.82	4.18	-43.6	-45.3	18.4	0.00e+00	0	41	0	56623104	60	6639
2026-01-25 03:17:44.08	248.94	4.22	-44.0	-45.9	17.9	0.00e+00	92	41	0	58720256	60	7132
2026-01-25 03:17:45.09	249.06	4.26	-43.7	-45.4	18.4	0.00e+00	90	41	0	59768832	60	6745
2026-01-25 03:17:46.10	249.18	4.30	-43.8	-45.6	18.1	0.00e+00	92	41	0	61865984	60	6909
2026-01-25 03:17:47.11	249.30	4.34	-42.8	-44.2	19.5	0.00e+00	92	41	0	63963136	60	5890
2026-01-25 03:17:48.12	249.42	4.38	-42.4	-43.8	19.8	0.00e+00	33	41	0	66060288	58	6269
2026-01-25 03:17:49.13	249.55	4.42	-43.1	-44.7	19.1	0.00e+00	90	41	0	68157440	58	6970
2026-01-25 03:17:50.14	249.67	4.46	-43.1	-44.7	19.1	0.00e+00	0	41	0	70254592	58	6943
2026-01-25 03:17:51.14	249.79	4.50	-42.6	-44.0	19.6	0.00e+00	92	41	0	71303168	58	6444
2026-01-25 03:17:52.15	249.91	4.54	-42.7	-44.2	19.3	0.00e+00	90	41	0	73400320	58	6584
2026-01-25 03:17:53.16	250.04	4.58	-42.3	-43.7	20.0	0.00e+00	91	41	0	75497472	58	6230
2026-01-25 03:17:54.17	250.16	4.62	-42.5	-43.9	19.9	0.00e+00	91	41	0	77594624	58	6333
2026-01-25 03:17:55.18	250.29	4.66	-42.6	-44.1	19.7	0.00e+00	2	41	0	79691776	58	6473
2026-01-25 03:17:56.19	250.41	4.71	-42.6	-44.0	19.7	0.00e+00	90	41	0	80740352	58	6449
2026-01-25 03:17:57.20	250.54	4.75	-43.0	-44.5	19.3	0.00e+00	0	41	0	82837504	58	6813
2026-01-25 03:17:58.21	250.66	4.79	-42.7	-44.2	19.6	0.00e+00	92	41	0	84934656	58	6553
2026-01-25 03:17:59.22	250.79	4.83	-42.2	-43.6	20.1	0.00e+00	90	41	0	87031808	58	6110
2026-01-25 03:18:00.23	250.91	4.87	-42.6	-44.0	19.8	0.00e+00	92	41	0	89128960	58	6394
2026-01-25 03:18:01.24	251.04	4.91	-42.5	-43.9	19.9	0.00e+00	92	41	0	90177536	58	6381
2026-01-25 03:18:02.25	251.17	4.95	-42.5	-43.9	20.0	0.00e+00	71	41	0	92274688	58	6326
2026-01-25 03:18:03.26	251.29	4.99	-42.8	-44.2	19.6	0.00e+00	92	41	0	94371840	58	6609
2026-01-25 03:18:04.27	251.42	5.03	-42.4	-43.8	20.0	0.00e+00	2	41	0	96468992	58	6277
2026-01-25 03:18:05.27	251.55	5.07	-42.9	-44.3	19.5	0.00e+00	92	41	0	98566144	58	6675
2026-01-25 03:18:06.28	251.68	5.11	-42.3	-43.6	20.3	0.00e+00	40	41	0	99614720	58	6150
2026-01-25 03:18:07.29	251.80	5.15	-42.0	-43.3	20.5	0.00e+00	92	41	0	101711872	58	5898
2026-01-25 03:18:08.30	251.93	5.19	-42.5	-43.9	19.9	0.00e+00	92	41	0	103809024	58	6359
2026-01-25 03:18:09.30	252.06	5.23	-42.7	-44.1	19.8	0.00e+00	92	41	0	105906176	58	6512
2026-01-25 03:18:10.31	252.19	5.27	-42.2	-43.6	20.2	0.00e+00	90	41	0	108003328	58	6104
2026-01-25 03:18:11.32	252.32	5.31	-42.3	-43.6	20.1	0.00e+00	7	41	0	109051904	58	6168
2026-01-25 03:18:12.33	252.45	5.35	-42.3	-43.6	20.4	0.00e+00	90	41	0	111149056	58	6151
2026-01-25 03:18:13.34	252.58	5.39	-42.8	-44.3	19.7	0.00e+00	0	41	0	113246208	58	6616
2026-01-25 03:18:14.35	252.71	5.43	-42.5	-43.8	20.0	0.00e+00	92	41	0	115343360	58	6302
2026-01-25 03:18:15.36	252.84	5.46	-42.5	-43.9	20.0	0.00e+00	92	41	0	117440512	58	6364
2026-01-25 03:18:16.37	252.98	5.50	-42.4	-43.7	20.1	0.00e+00	92	41	0	118489088	58	6228
2026-01-25 03:18:17.38	253.11	5.54	-42.6	-43.9	20.0	0.00e+00	92	41	0	120586240	58	6377
2026-01-25 03:18:18.38	253.24	5.58	-42.6	-44.0	19.9	0.00e+00	0	41	0	122683392	58	6425
2026-01-25 03:18:19.39	253.37	5.62	-42.4	-43.7	20.1	0.00e+00	92	41	0	124780544	58	6222
2026-01-25 03:18:20.40	253.50	5.66	-42.4	-43.7	20.2	0.00e+00	12	41	0	126877696	58	6244
2026-01-25 03:18:21.41	253.64	5.70	-42.3	-43.6	20.3	0.00e+00	92	41	0	127926272	58	6151
2026-01-25 03:18:22.42	253.77	5.74	-42.1	-43.4	20.5	0.00e+00	92	41	0	130023424	58	6016
2026-01-25 03:18:23.43	253.90	5.78	-42.0	-43.3	20.6	0.00e+00	92	41	0	132120576	58	5902
2026-01-25 03:18:24.44	254.04	5.82	-42.4	-43.7	20.2	0.00e+00	92	41	0	134217728	58	6202
2026-01-25 03:18:25.44	254.17	5.85	-42.3	-43.6	20.3	0.00e+00	92	41	0	136314880	58	6120
2026-01-25 03:18:26.45	254.31	5.89	-42.1	-43.4	20.6	0.00e+00	92	41	0	137363456	58	5993
2026-01-25 03:18:27.46	254.44	5.93	-42.2	-43.5	20.4	0.00e+00	0	41	0	139460608	58	6081
2026-01-25 03:18:28.47	254.58	5.97	-42.5	-43.9	20.2	0.00e+00	92	41	0	141557760	58	6343
2026-01-25 03:18:29.48	254.71	6.01	-42.8	-44.2	20.1	0.00e+00	39	41	0	143654912	58	6564
2026-01-25 03:18:30.49	254.85	6.05	-42.4	-43.7	20.1	0.00e+00	92	41	0	145752064	58	6213
2026-01-25 03:18:31.50	254.99	6.09	-42.2	-43.5	20.5	0.00e+00	92	41	0	146800640	58	6038
2026-01-25 03:18:32.51	255.12	6.12	-42.2	-43.5	20.4	0.00e+00	92	41	0	148897792	58	6096
2026-01-25 03:18:33.51	255.26	6.16	-42.5	-43.8	20.2	0.00e+00	92	41	0	150994944	58	6286
2026-01-25 03:18:34.52	255.40	6.20	-42.5	-43.9	20.3	0.00e+00	39	41	0	153092096	58	6327
2026-01-25 03:18:35.53	255.53	6.24	-42.1	-43.3	20.6	0.00e+00	91	41	0	155189248	58	5963
2026-01-25 03:18:36.54	255.67	6.28	-42.5	-43.8	20.2	0.00e+00	15	41	0	156237824	58	6278
2026-01-25 03:18:37.55	255.81	6.31	-42.6	-43.9	20.1	0.00e+00	91	41	0	158334976	58	6388
2026-01-25 03:18:38.56	255.95	6.35	-42.2	-43.5	20.5	0.00e+00	82	41	0	160432128	58	6057
2026-01-25 03:18:39.57	256.09	6.39	-42.5	-43.9	20.2	0.00e+00	91	41	0	162529280	58	6326
2026-01-25 03:18:40.58	256.23	6.43	-42.7	-44.1	20.0	0.00e+00	92	41	0	164626432	58	6491
2026-01-25 03:18:41.58	256.37	6.46	-42.4	-43.7	20.2	0.00e+00	92	41	0	166723584	58	6240
2026-01-25 03:18:42.59	256.51	6.50	-42.3	-43.6	20.4	0.00e+00	92	41	0	167772160	58	6138
2026-01-25 03:18:43.60	256.65	6.54	-42.4	-43.8	20.3	0.00e+00	12	41	0	169869312	58	6263
2026-01-25 03:18:44.61	256.79	6.58	-42.7	-44.1	20.0	0.00e+00	96	41	0	171966464	58	6470
2026-01-25 03:18:45.62	256.93	6.61	-42.5	-43.8	20.3	0.00e+00	92	41	0	174063616	58	6284
2026-01-25 03:18:46.63	257.07	6.65	-42.6	-44.0	20.2	0.00e+00	92	41	0	176160768	58	6406
2026-01-25 03:18:47.64	257.22	6.69	-42.7	-44.1	20.1	0.00e+00	92	41	0	177209344	58	6485
2026-01-25 03:18:48.65	257.36	6.72	-42.5	-43.8	20.2	0.00e+00	92	41	0	179306496	58	6282
2026-01-25 03:18:49.66	257.50	6.76	-43.0	-44.4	19.7	0.00e+00	92	41	0	181403648	58	6755
2026-01-25 03:18:50.67	257.65	6.80	-43.3	-44.9	19.2	0.00e+00	0	41	0	183500800	58	7089
2026-01-25 03:18:51.68	257.79	6.83	-42.9	-44.3	19.9	0.00e+00	90	41	0	185597952	58	6649
2026-01-25 03:18:52.69	257.93	6.87	-42.5	-43.8	20.3	0.00e+00	35	41	0	186646528	58	6292
2026-01-25 03:18:53.70	258.08	6.91	-42.6	-43.9	20.1	0.00e+00	90	41	0	188743680	58	6359
2026-01-25 03:18:54.71	258.22	6.94	-42.5	-43.8	20.2	0.00e+00	92	41	0	190840832	58	6310
2026-01-25 03:18:55.71	258.37	6.98	-42.9	-44.3	19.8	0.00e+00	92	41	0	192937984	58	6677
2026-01-25 03:18:56.72	258.51	7.01	-42.7	-44.0	20.2	0.00e+00	90	41	0	195035136	58	6432
2026-01-25 03:18:57.73	258.66	7.05	-42.5	-43.9	19.9	0.00e+00	53	41	0	196083712	58	6343
2026-01-25 03:18:58.74	258.80	7.09	-42.3	-43.6	20.5	0.00e+00	92	41	0	198180864	58	6134
2026-01-25 03:18:59.75	258.95	7.12	-42.6	-43.9	20.2	0.00e+00	51	41	0	200278016	58	6344
2026-01-25 03:19:00.76	259.10	7.16	-42.6	-44.0	20.1	0.00e+00	92	41	0	202375168	58	6398
2026-01-25 03:19:01.77	259.24	7.19	-42.5	-43.8	20.3	0.00e+00	90	41	0	204472320	58	6285
2026-01-25 03:19:02.78	259.39	7.23	-42.6	-43.9	20.2	0.00e+00	92	41	0	205520896	58	6359
2026-01-25 03:19:03.79	259.54	7.26	-42.6	-44.0	20.2	0.00e+00	91	41	0	207618048	58	6408
2026-01-25 03:19:04.80	259.69	7.30	-42.4	-43.7	20.4	0.00e+00	92	41	0	209715200	58	6199
2026-01-25 03:19:05.81	259.83	7.33	-42.5	-43.8	20.3	0.00e+00	91	41	0	211812352	58	6301
2026-01-25 03:19:06.82	259.98	7.37	-42.1	-43.4	20.7	0.00e+00	42	41	0	213909504	58	5999
2026-01-25 03:19:07.83	260.13	7.40	-42.6	-44.0	20.2	0.00e+00	92	41	0	214958080	58	6405
2026-01-25 03:19:08.84	260.28	7.44	-42.8	-44.2	20.0	0.00e+00	76	41	0	217055232	58	6593
2026-01-25 03:19:09.85	260.43	7.47	-42.7	-44.0	20.1	0.00e+00	92	41	0	219152384	58	6455
2026-01-25 03:19:10.86	260.58	7.51	-42.4	-43.7	20.2	0.00e+00	92	41	0	221249536	58	6201
2026-01-25 03:19:11.87	260.73	7.54	-42.5	-43.8	20.4	0.00e+00	92	41	0	223346688	58	6252
2026-01-25 03:19:12.88	260.88	7.58	-42.6	-43.9	20.2	0.00e+00	91	41	0	224395264	58	6346
2026-01-25 03:19:13.89	261.03	7.61	-42.4	-43.7	20.5	0.00e+00	41	41	0	226492416	58	6180
2026-01-25 03:19:14.90	261.18	7.64	-42.3	-43.6	20.6	0.00e+00	92	41	0	228589568	58	6161
2026-01-25 03:19:15.91	261.34	7.68	-42.4	-43.7	20.4	0.00e+00	0	41	0	230686720	58	6231
2026-01-25 03:19:16.92	261.49	7.71	-42.6	-43.9	20.3	0.00e+00	92	41	0	232783872	58	6372
2026-01-25 03:19:17.93	261.64	7.74	-42.5	-43.9	20.3	0.00e+00	92	41	0	234881024	58	6320
2026-01-25 03:19:18.94	261.79	7.78	-42.3	-43.6	20.6	0.00e+00	92	41	0	235929600	58	6148
2026-01-25 03:19:19.94	261.95	7.81	-42.6	-44.0	20.3	0.00e+00	92	41	0	238026752	58	6410
2026-01-25 03:19:20.96	262.10	7.84	-42.6	-44.0	20.2	0.00e+00	92	41	0	240123904	58	6392
2026-01-25 03:19:21.97	262.25	7.88	-42.7	-44.0	20.3	0.00e+00	92	41	0	242221056	58	6444
2026-01-25 03:19:22.98	262.41	7.91	-42.3	-43.5	20.7	0.00e+00	0	41	0	244318208	58	6087
2026-01-25 03:19:23.99	262.56	7.94	-42.6	-43.9	20.4	0.00e+00	92	41	0	245366784	58	6337
2026-01-25 03:19:25.00	262.72	7.98	-42.4	-43.7	20.6	0.00e+00	92	41	0	247463936	58	6186
2026-01-25 03:19:26.01	262.87	8.01	-42.2	-43.4	20.7	0.00e+00	92	41	0	249561088	58	5999
2026-01-25 03:19:27.01	263.03	8.04	-42.5	-43.8	20.4	0.00e+00	92	41	0	251658240	58	6263
2026-01-25 03:19:28.02	263.18	8.07	-42.4	-43.7	20.6	0.00e+00	92	41	0	252706816	58	6196
2026-01-25 03:19:29.03	263.34	8.11	-42.5	-43.8	20.5	0.00e+00	92	41	0	254803968	58	6288
2026-01-25 03:19:30.04	263.49	8.14	-42.5	-43.8	20.5	0.00e+00	0	41	0	256901120	58	6277
2026-01-25 03:19:31.05	263.65	8.17	-42.5	-43.8	20.4	0.00e+00	92	41	0	258998272	58	6272
2026-01-25 03:19:32.05	263.81	8.20	-42.5	-43.9	20.4	0.00e+00	0	41	0	261095424	58	6318
2026-01-25 03:19:33.07	263.97	8.23	-42.5	-43.8	20.5	0.00e+00	92	41	0	263192576	58	6271
2026-01-25 03:19:34.08	264.12	8.26	-42.5	-43.8	20.5	0.00e+00	92	41	0	264241152	58	6249
2026-01-25 03:19:35.09	264.28	8.29	-42.5	-43.8	20.5	0.00e+00	92	41	0	266338304	58	6282
2026-01-25 03:19:36.09	264.44	8.33	-42.9	-44.2	20.0	0.00e+00	92	41	0	268435456	58	6587
2026-01-25 03:19:37.10	264.60	8.36	-42.6	-43.9	20.4	0.00e+00	61	41	0	270532608	58	6381
2026-01-25 03:19:38.11	264.76	8.39	-42.5	-43.7	20.6	0.00e+00	92	41	0	272629760	58	6228
2026-01-25 03:19:39.12	264.92	8.42	-42.5	-43.8	20.6	0.00e+00	0	41	0	273678336	58	6279
2026-01-25 03:19:40.13	265.08	8.45	-42.5	-43.8	20.6	0.00e+00	91	41	0	275775488	58	6282
2026-01-25 03:19:41.14	265.24	8.48	-42.3	-43.6	20.7	0.00e+00	91	41	0	277872640	58	6105
2026-01-25 03:19:42.15	265.40	8.51	-42.6	-43.9	20.4	0.00e+00	92	41	0	279969792	58	6319
2026-01-25 03:19:43.16	265.56	8.54	-42.5	-43.7	20.6	0.00e+00	91	41	0	282066944	58	6239
2026-01-25 03:19:44.17	265.72	8.57	-42.4	-43.6	20.6	0.00e+00	90	41	0	283115520	58	6164
2026-01-25 03:19:45.18	265.88	8.60	-42.4	-43.6	20.7	0.00e+00	92	41	0	285212672	58	6172
2026-01-25 03:19:46.19	266.04	8.63	-42.4	-43.6	20.7	0.00e+00	0	41	0	287309824	58	6151
2026-01-25 03:19:47.20	266.20	8.66	-42.4	-43.6	20.7	0.00e+00	91	41	0	289406976	58	6165
2026-01-25 03:19:48.20	266.36	8.69	-42.4	-43.7	20.5	0.00e+00	92	41	0	291504128	58	6222
2026-01-25 03:19:49.21	266.53	8.72	-42.7	-44.0	20.3	0.00e+00	90	41	0	292552704	58	6438
2026-01-25 03:19:50.22	266.69	8.74	-42.6	-44.0	20.4	0.00e+00	92	41	0	294649856	58	6391
2026-01-25 03:19:51.23	266.85	8.77	-42.9	-44.3	20.0	0.00e+00	92	41	0	296747008	58	6633
2026-01-25 03:19:52.24	267.02	8.80	-42.9	-44.3	20.0	0.00e+00	90	41	0	298844160	58	6664
2026-01-25 03:19:53.25	267.18	8.83	-43.1	-44.5	19.8	0.00e+00	0	41	0	300941312	58	6799
2026-01-25 03:19:54.26	267.34	8.86	-42.7	-44.1	20.3	0.00e+00	92	41	0	301989888	58	6468
2026-01-25 03:19:55.27	267.51	8.89	-42.8	-44.1	20.2	0.00e+00	34	41	0	304087040	58	6530
2026-01-25 03:19:56.27	267.67	8.91	-42.6	-43.9	20.4	0.00e+00	92	41	0	306184192	58	6343
2026-01-25 03:19:57.28	267.84	8.94	-42.7	-44.1	20.3	0.00e+00	92	41	0	308281344	58	6471
2026-01-25 03:19:58.29	268.00	8.97	-42.6	-43.9	20.4	0.00e+00	92	41	0	310378496	58	6329
2026-01-25 03:19:59.30	268.17	9.00	-42.7	-44.0	20.4	0.00e+00	92	41	0	311427072	58	6419
2026-01-25 03:20:00.31	268.33	9.02	-42.7	-44.0	20.3	0.00e+00	35	41	0	313524224	58	6448
2026-01-25 03:20:01.32	268.50	9.05	-42.6	-43.9	20.4	0.00e+00	90	41	0	315621376	58	6370
2026-01-25 03:20:02.33	268.66	9.08	-42.7	-44.0	20.3	0.00e+00	2	41	0	317718528	58	6449
2026-01-25 03:20:03.34	268.83	9.10	-42.8	-44.1	20.2	0.00e+00	92	41	0	319815680	58	6527
2026-01-25 03:20:04.35	269.00	9.13	-43.0	-44.3	20.1	0.00e+00	92	41	0	320864256	58	6692
2026-01-25 03:20:05.36	269.17	9.16	-43.1	-44.5	19.9	0.00e+00	92	41	0	322961408	58	6825
2026-01-25 03:20:06.36	269.33	9.18	-42.5	-43.8	20.6	0.00e+00	92	41	0	325058560	58	6263
2026-01-25 03:20:07.38	269.50	9.21	-42.6	-43.9	20.4	0.00e+00	92	41	0	327155712	58	6379
2026-01-25 03:20:08.38	269.67	9.23	-42.3	-43.6	20.8	0.00e+00	92	41	0	329252864	58	6120
2026-01-25 03:20:09.39	269.84	9.26	-42.4	-43.6	20.8	0.00e+00	6	41	0	331350016	58	6153
2026-01-25 03:20:10.40	270.01	9.29	-42.4	-43.7	20.6	0.00e+00	92	41	0	332398592	58	6174
2026-01-25 03:20:11.41	270.17	9.31	-42.5	-43.8	20.6	0.00e+00	92	41	0	334495744	58	6292
2026-01-25 03:20:12.42	270.34	9.34	-42.7	-44.0	20.4	0.00e+00	87	41	0	336592896	58	6398
2026-01-25 03:20:13.43	270.51	9.36	-42.8	-44.1	20.3	0.00e+00	92	41	0	338690048	58	6489
2026-01-25 03:20:14.44	270.68	9.38	-43.1	-44.4	20.0	0.00e+00	92	41	0	340787200	58	6760
2026-01-25 03:20:15.45	270.85	9.41	-42.8	-44.2	20.2	0.00e+00	93	41	0	341835776	58	6580
2026-01-25 03:20:16.46	271.02	9.43	-42.9	-44.3	20.1	0.00e+00	0	41	0	343932928	58	6660
2026-01-25 03:20:17.47	271.19	9.46	-43.0	-44.4	19.9	0.00e+00	92	41	0	346030080	58	6714
2026-01-25 03:20:18.48	271.37	9.48	-42.9	-44.3	20.1	0.00e+00	56	41	0	348127232	58	6651
2026-01-25 03:20:19.49	271.54	9.50	-43.0	-44.3	20.0	0.00e+00	92	41	0	350224384	58	6677
2026-01-25 03:20:20.50	271.71	9.53	-42.8	-44.1	20.3	0.00e+00	92	41	0	351272960	58	6487
2026-01-25 03:20:21.51	271.88	9.55	-42.8	-44.2	20.2	0.00e+00	92	41	0	353370112	58	6558
2026-01-25 03:20:22.52	272.05	9.57	-42.6	-43.9	20.6	0.00e+00	90	41	0	355467264	58	6360
2026-01-25 03:20:23.53	272.22	9.60	-42.6	-43.8	20.6	0.00e+00	34	41	0	357564416	58	6304
2026-01-25 03:20:24.54	272.40	9.62	-42.5	-43.8	20.6	0.00e+00	92	41	0	359661568	58	6276
2026-01-25 03:20:25.55	272.57	9.64	-42.6	-43.8	20.6	0.00e+00	12	41	0	360710144	58	6296
2026-01-25 03:20:26.56	272.74	9.66	-42.6	-43.8	20.6	0.00e+00	92	41	0	362807296	58	6314
2026-01-25 03:20:27.57	272.92	9.69	-42.7	-44.0	20.5	0.00e+00	76	41	0	364904448	58	6407
2026-01-25 03:20:28.58	273.09	9.71	-42.6	-43.9	20.6	0.00e+00	92	41	0	367001600	58	6318
2026-01-25 03:20:29.59	273.26	9.73	-42.6	-43.9	20.5	0.00e+00	92	41	0	369098752	58	6364
2026-01-25 03:20:30.59	273.44	9.75	-42.5	-43.8	20.7	0.00e+00	92	41	0	370147328	58	6268
2026-01-25 03:20:31.60	273.61	9.77	-42.5	-43.8	20.6	0.00e+00	92	41	0	372244480	58	6265
2026-01-25 03:20:32.61	273.78	9.79	-42.4	-43.6	20.8	0.00e+00	12	41	0	374341632	58	6170
2026-01-25 03:20:33.62	273.96	9.81	-42.4	-43.6	20.8	0.00e+00	92	41	0	376438784	58	6146
2026-01-25 03:20:34.63	274.13	9.83	-42.4	-43.7	20.7	0.00e+00	92	41	0	378535936	58	6209
2026-01-25 03:20:35.64	274.31	9.85	-42.3	-43.6	20.8	0.00e+00	92	41	0	379584512	58	6107
2026-01-25 03:20:36.65	274.48	9.87	-42.3	-43.5	20.9	0.00e+00	92	41	0	381681664	58	6067
2026-01-25 03:20:37.66	274.66	9.89	-42.2	-43.4	20.9	0.00e+00	91	41	0	383778816	58	6022
2026-01-25 03:20:38.67	274.84	9.91	-42.2	-43.4	21.0	0.00e+00	90	41	0	385875968	58	6003
2026-01-25 03:20:39.68	275.01	9.93	-42.0	-43.2	21.2	0.00e+00	40	41	0	387973120	58	5851
2026-01-25 03:20:40.69	275.19	9.95	-42.1	-43.3	21.1	0.00e+00	91	41	0	389021696	58	5908
2026-01-25 03:20:41.70	275.37	9.97	-42.1	-43.3	21.1	0.00e+00	7	41	0	391118848	58	5942
2026-01-25 03:20:42.71	275.54	9.99	-42.1	-43.3	21.1	0.00e+00	91	41	0	393216000	58	5912
2026-01-25 03:20:43.72	275.72	10.01	-42.1	-43.3	21.1	0.00e+00	92	41	0	395313152	58	5924
2026-01-25 03:20:44.73	275.90	10.03	-42.0	-43.2	21.2	0.00e+00	92	41	0	397410304	58	5857
2026-01-25 03:20:45.74	276.07	10.04	-42.0	-43.2	21.2	0.00e+00	92	41	0	399507456	58	5860
2026-01-25 03:20:46.74	276.25	10.06	-41.9	-43.1	21.4	0.00e+00	44	41	0	400556032	58	5762
2026-01-25 03:20:47.75	276.43	10.08	-42.0	-43.2	21.2	0.00e+00	92	41	0	402653184	58	5860
2026-01-25 03:20:48.76	276.61	10.10	-42.2	-43.4	21.0	0.00e+00	26	41	0	404750336	58	5992
2026-01-25 03:20:49.77	276.78	10.11	-42.3	-43.5	21.0	0.00e+00	92	41	0	406847488	58	6051
2026-01-25 03:20:50.78	276.96	10.13	-42.1	-43.3	21.2	0.00e+00	92	41	0	408944640	58	5914
2026-01-25 03:20:51.79	277.14	10.15	-42.2	-43.4	21.0	0.00e+00	91	41	0	409993216	58	5999
2026-01-25 03:20:52.79	277.32	10.16	-42.2	-43.5	21.0	0.00e+00	92	41	0	412090368	58	6048
2026-01-25 03:20:53.80	277.50	10.18	-42.1	-43.3	21.1	0.00e+00	91	41	0	414187520	58	5961
2026-01-25 03:20:54.81	277.68	10.20	-42.3	-43.5	20.9	0.00e+00	91	41	0	416284672	58	6081
2026-01-25 03:20:55.82	277.86	10.21	-42.3	-43.5	20.9	0.00e+00	52	41	0	417333248	58	6096
2026-01-25 03:20:56.83	278.03	10.23	-42.3	-43.6	20.8	0.00e+00	92	41	0	419430400	58	6123
2026-01-25 03:20:57.84	278.21	10.24	-42.6	-43.9	20.6	0.00e+00	91	41	0	421527552	58	6338
2026-01-25 03:20:58.84	278.39	10.26	-42.7	-44.0	20.4	0.00e+00	90	41	0	423624704	58	6397
2026-01-25 03:20:59.85	278.57	10.27	-42.6	-43.8	20.7	0.00e+00	91	41	0	425721856	58	6295
2026-01-25 03:21:00.86	278.75	10.29	-42.3	-43.5	20.9	0.00e+00	91	41	0	427819008	58	6094
2026-01-25 03:21:01.87	278.93	10.30	-42.5	-43.7	20.7	0.00e+00	92	41	0	428867584	58	6208
2026-01-25 03:21:02.88	279.11	10.31	-42.6	-43.9	20.6	0.00e+00	34	41	0	430964736	58	6335
2026-01-25 03:21:03.89	279.29	10.33	-42.7	-44.0	20.5	0.00e+00	91	41	0	433061888	58	6457
2026-01-25 03:21:04.90	279.48	10.34	-42.8	-44.1	20.4	0.00e+00	0	41	0	435159040	58	6469
2026-01-25 03:21:05.91	279.66	10.35	-42.9	-44.2	20.3	0.00e+00	91	41	0	437256192	58	6574
2026-01-25 03:21:06.92	279.84	10.37	-42.9	-44.3	20.3	0.00e+00	91	41	0	438304768	58	6616
2026-01-25 03:21:07.93	280.02	10.38	-42.8	-44.1	20.4	0.00e+00	54	41	0	440401920	58	6468
2026-01-25 03:21:08.94	280.20	10.39	-42.9	-44.3	20.2	0.00e+00	91	41	0	442499072	58	6625
2026-01-25 03:21:09.94	280.38	10.41	-42.7	-44.0	20.6	0.00e+00	39	41	0	444596224	58	6428
2026-01-25 03:21:10.95	280.56	10.42	-42.8	-44.1	20.4	0.00e+00	90	41	0	446693376	58	6503
2026-01-25 03:21:11.96	280.74	10.43	-42.8	-44.1	20.5	0.00e+00	39	41	0	447741952	58	6471
2026-01-25 03:21:12.97	280.93	10.44	-42.9	-44.2	20.3	0.00e+00	92	41	0	449839104	58	6553
2026-01-25 03:21:13.98	281.11	10.45	-42.9	-44.2	20.4	0.00e+00	90	41	0	451936256	58	6584
2026-01-25 03:21:14.99	281.29	10.46	-42.8	-44.1	20.5	0.00e+00	92	41	0	454033408	58	6490
2026-01-25 03:21:16.00	281.47	10.47	-43.0	-44.4	20.2	0.00e+00	92	41	0	456130560	58	6709
2026-01-25 03:21:17.01	281.66	10.48	-43.1	-44.5	20.1	0.00e+00	92	41	0	457179136	58	6817
2026-01-25 03:21:18.02	281.84	10.49	-43.1	-44.5	20.1	0.00e+00	91	41	0	459276288	58	6770
2026-01-25 03:21:19.02	282.02	10.50	-43.3	-44.7	19.9	0.00e+00	42	41	0	461373440	58	6956
2026-01-25 03:21:20.03	282.20	10.51	-43.4	-44.9	19.7	0.00e+00	90	41	0	463470592	58	7119
2026-01-25 03:21:21.04	282.39	10.52	-43.5	-44.9	19.6	0.00e+00	92	41	0	465567744	58	7131
2026-01-25 03:21:22.05	282.57	10.53	-43.4	-44.8	19.9	0.00e+00	90	41	0	466616320	58	7026
2026-01-25 03:21:23.07	282.75	10.54	-43.7	-45.2	19.5	0.00e+00	90	41	0	468713472	58	7349
2026-01-25 03:21:24.07	282.94	10.55	-43.6	-45.1	19.6	0.00e+00	0	41	0	470810624	58	7261
2026-01-25 03:21:25.08	283.12	10.56	-43.4	-44.8	19.8	0.00e+00	92	41	0	472907776	58	7067
2026-01-25 03:21:26.09	283.30	10.57	-43.3	-44.7	19.8	0.00e+00	0	41	0	475004928	58	7005
2026-01-25 03:21:27.10	283.49	10.58	-43.2	-44.6	20.0	0.00e+00	92	41	0	476053504	58	6888
2026-01-25 03:21:28.11	283.67	10.58	-43.2	-44.6	20.0	0.00e+00	0	41	0	478150656	58	6888
2026-01-25 03:21:29.12	283.85	10.59	-43.3	-44.7	19.9	0.00e+00	91	41	0	480247808	58	6980
2026-01-25 03:21:30.12	284.04	10.60	-43.1	-44.4	20.2	0.00e+00	92	41	0	482344960	58	6734
2026-01-25 03:21:31.13	284.22	10.61	-43.1	-44.4	20.1	0.00e+00	21	41	0	484442112	58	6760
2026-01-25 03:21:32.14	284.41	10.61	-43.0	-44.4	20.2	0.00e+00	92	41	0	485490688	58	6693
2026-01-25 03:21:33.15	284.59	10.62	-43.1	-44.4	20.1	0.00e+00	50	41	0	487587840	58	6763
2026-01-25 03:21:34.16	284.77	10.63	-43.2	-44.6	20.1	0.00e+00	90	41	0	489684992	58	6891
2026-01-25 03:21:35.16	284.96	10.63	-43.2	-44.5	20.0	0.00e+00	35	41	0	491782144	58	6847
2026-01-25 03:21:36.18	285.14	10.64	-43.3	-44.6	20.1	0.00e+00	92	41	0	493879296	58	6901
2026-01-25 03:21:37.18	285.32	10.64	-43.2	-44.6	20.0	0.00e+00	92	41	0	495976448	58	6891
2026-01-25 03:21:38.20	285.51	10.65	-43.3	-44.8	19.9	0.00e+00	92	41	0	497025024	58	7008
2026-01-25 03:21:39.20	285.69	10.65	-43.4	-44.8	19.8	0.00e+00	92	41	0	499122176	58	7084
2026-01-25 03:21:40.21	285.88	10.66	-43.5	-44.9	19.8	0.00e+00	53	41	0	501219328	58	7121
2026-01-25 03:21:41.22	286.06	10.66	-43.3	-44.7	20.0	0.00e+00	90	41	0	503316480	58	6974
2026-01-25 03:21:42.23	286.25	10.67	-43.1	-44.5	20.2	0.00e+00	0	41	0	505413632	58	6785
2026-01-25 03:21:43.24	286.43	10.67	-43.0	-44.3	20.3	0.00e+00	92	41	0	506462208	58	6678
2026-01-25 03:21:44.25	286.62	10.67	-43.4	-44.8	19.9	0.00e+00	0	41	0	508559360	58	7044
2026-01-25 03:21:45.26	286.80	10.68	-42.6	-43.9	20.7	0.00e+00	92	41	0	510656512	58	6360
2026-01-25 03:21:46.27	286.99	10.68	-43.0	-44.3	20.3	0.00e+00	92	41	0	512753664	58	6649
2026-01-25 03:21:47.28	287.17	10.68	-43.1	-44.4	20.2	0.00e+00	0	41	0	514850816	58	6766
2026-01-25 03:21:48.29	287.36	10.68	-43.1	-44.5	20.1	0.00e+00	92	41	0	515899392	58	6802
2026-01-25 03:21:49.30	287.54	10.69	-43.3	-44.6	20.0	0.00e+00	0	41	0	517996544	58	6927
2026-01-25 03:21:50.31	287.73	10.69	-42.9	-44.2	20.4	0.00e+00	92	41	0	520093696	58	6554
2026-01-25 03:21:51.32	287.91	10.69	-43.2	-44.5	20.2	0.00e+00	0	41	0	522190848	58	6809
2026-01-25 03:21:52.33	288.10	10.69	-43.0	-44.3	20.4	0.00e+00	91	41	0	524288000	58	6661
2026-01-25 03:21:53.34	288.28	10.69	-42.8	-44.0	20.6	0.00e+00	90	41	0	525336576	58	6459
2026-01-25 03:21:54.35	288.47	10.69	-42.7	-43.9	20.7	0.00e+00	41	42	0	527433728	58	6359
2026-01-25 03:21:55.36	288.65	10.70	-42.9	-44.2	20.5	0.00e+00	92	41	0	529530880	58	6565
2026-01-25 03:21:56.36	288.84	10.70	-42.8	-44.1	20.7	0.00e+00	46	41	0	531628032	58	6487
2026-01-25 03:21:57.37	289.02	10.70	-42.8	-44.0	20.6	0.00e+00	92	41	0	533725184	58	6464
2026-01-25 03:21:58.38	289.21	10.70	-42.6	-43.9	20.9	0.00e+00	0	41	0	534773760	58	6324
2026-01-25 03:21:59.39	289.39	10.70	-42.7	-44.0	20.8	0.00e+00	90	41	0	536870912	58	6411
2026-01-25 03:22:00.40	289.58	10.70	-42.7	-44.0	20.7	0.00e+00	91	41	0	538968064	58	6429
2026-01-25 03:22:01.41	289.76	10.69	-42.7	-44.0	20.8	0.00e+00	92	41	0	541065216	58	6403
2026-01-25 03:22:02.42	289.95	10.69	-42.7	-44.0	20.8	0.00e+00	92	41	0	543162368	58	6410
2026-01-25 03:22:03.43	290.13	10.69	-42.5	-43.8	20.8	0.00e+00	13	41	0	544210944	58	6256
2026-01-25 03:22:04.44	290.32	10.69	-42.5	-43.7	21.0	0.00e+00	92	41	0	546308096	58	6217
2026-01-25 03:22:05.45	290.50	10.69	-42.2	-43.3	21.4	0.00e+00	10	41	0	548405248	58	5951
2026-01-25 03:22:06.46	290.69	10.69	-42.1	-43.2	21.5	0.00e+00	91	42	0	550502400	58	5878
2026-01-25 03:22:07.47	290.87	10.68	-42.0	-43.1	21.6	0.00e+00	0	41	0	552599552	58	5813
2026-01-25 03:22:08.48	291.06	10.68	-42.0	-43.2	21.5	0.00e+00	92	41	0	553648128	58	5852
2026-01-25 03:22:09.49	291.24	10.68	-42.1	-43.2	21.5	0.00e+00	92	41	0	555745280	58	5880
2026-01-25 03:22:10.50	291.43	10.67	-41.8	-42.9	21.7	0.00e+00	33	41	0	557842432	58	5677
2026-01-25 03:22:11.51	291.61	10.67	-41.9	-43.0	21.8	0.00e+00	91	41	0	559939584	58	5708
2026-01-25 03:22:12.51	291.79	10.67	-42.0	-43.1	21.7	0.00e+00	31	41	0	562036736	58	5796
2026-01-25 03:22:13.52	291.98	10.66	-42.1	-43.2	21.5	0.00e+00	91	41	0	563085312	58	5883
2026-01-25 03:22:14.53	292.16	10.66	-42.1	-43.3	21.4	0.00e+00	0	42	0	565182464	58	5909
2026-01-25 03:22:15.54	292.35	10.65	-41.9	-43.1	21.6	0.00e+00	92	41	0	567279616	58	5772
2026-01-25 03:22:16.55	292.53	10.65	-41.9	-43.1	21.7	0.00e+00	92	41	0	569376768	58	5764
2026-01-25 03:22:17.56	292.72	10.64	-41.9	-43.1	21.7	0.00e+00	92	41	0	571473920	58	5763
2026-01-25 03:22:18.57	292.90	10.64	-41.8	-42.8	21.9	0.00e+00	92	42	0	572522496	56	6304
2026-01-25 03:22:19.58	293.09	10.63	-41.6	-42.7	22.0	0.00e+00	7	42	0	574619648	56	6220
2026-01-25 03:22:20.59	293.27	10.63	-41.5	-42.6	22.1	0.00e+00	91	41	0	576716800	56	6117
2026-01-25 03:22:21.60	293.45	10.62	-41.5	-42.5	22.1	0.00e+00	45	41	0	578813952	56	6086
2026-01-25 03:22:22.61	293.64	10.62	-41.5	-42.5	22.1	0.00e+00	92	41	0	580911104	56	6092
2026-01-25 03:22:23.62	293.82	10.61	-41.4	-42.4	22.3	0.00e+00	92	41	0	581959680	56	5998
2026-01-25 03:22:24.62	294.00	10.60	-41.6	-42.6	22.1	0.00e+00	92	41	0	584056832	56	6162
2026-01-25 03:22:25.63	294.19	10.59	-41.6	-42.6	22.1	0.00e+00	92	41	0	586153984	56	6168
2026-01-25 03:22:26.64	294.37	10.59	-41.7	-42.7	21.9	0.00e+00	5	41	0	588251136	56	6227
2026-01-25 03:22:27.65	294.56	10.58	-41.7	-42.8	21.9	0.00e+00	92	41	0	590348288	56	6286
2026-01-25 03:22:28.65	294.74	10.57	-41.8	-42.9	21.7	0.00e+00	0	41	0	592445440	56	6370
2026-01-25 03:22:29.66	294.92	10.56	-42.0	-43.1	21.7	0.00e+00	92	42	0	593494016	56	6482
2026-01-25 03:22:30.67	295.10	10.56	-41.7	-42.8	21.9	0.00e+00	5	41	0	595591168	56	6261
2026-01-25 03:22:31.68	295.29	10.55	-41.8	-42.9	21.9	0.00e+00	92	42	0	597688320	56	6377
2026-01-25 03:22:32.69	295.47	10.54	-41.6	-42.6	22.1	0.00e+00	92	42	0	599785472	56	6171
2026-01-25 03:22:33.70	295.65	10.53	-41.5	-42.5	22.2	0.00e+00	41	41	0	601882624	56	6088
2026-01-25 03:22:34.70	295.83	10.52	-41.6	-42.7	22.1	0.00e+00	93	42	0	602931200	56	6182
2026-01-25 03:22:35.71	296.02	10.51	-41.5	-42.6	22.2	0.00e+00	0	41	0	605028352	56	6106
2026-01-25 03:22:36.72	296.20	10.50	-41.6	-42.7	22.1	0.00e+00	92	41	0	607125504	56	6200
2026-01-25 03:22:37.73	296.38	10.49	-41.8	-42.9	22.0	0.00e+00	84	41	0	609222656	56	6330
2026-01-25 03:22:38.74	296.56	10.48	-41.8	-42.9	21.8	0.00e+00	95	41	0	611319808	56	6376
2026-01-25 03:22:39.75	296.75	10.47	-42.0	-43.2	21.6	0.00e+00	91	42	0	612368384	56	6550
2026-01-25 03:22:40.76	296.93	10.46	-41.6	-42.7	22.1	0.00e+00	92	41	0	614465536	56	6187
2026-01-25 03:22:41.77	297.11	10.45	-41.9	-42.9	21.8	0.00e+00	91	42	0	616562688	56	6389
2026-01-25 03:22:42.78	297.29	10.44	-41.8	-42.9	22.0	0.00e+00	7	41	0	618659840	56	6364
2026-01-25 03:22:43.79	297.47	10.42	-42.1	-43.2	21.7	0.00e+00	91	41	0	620756992	56	6580
2026-01-25 03:22:44.80	297.66	10.41	-42.1	-43.2	21.6	0.00e+00	0	41	0	621805568	56	6555
2026-01-25 03:22:45.81	297.84	10.40	-41.8	-42.9	21.8	0.00e+00	92	42	0	623902720	56	6367
2026-01-25 03:22:46.82	298.02	10.39	-42.1	-43.2	21.6	0.00e+00	92	41	0	625999872	56	6551
2026-01-25 03:22:47.83	298.20	10.37	-41.9	-43.0	21.8	0.00e+00	92	41	0	628097024	56	6444
2026-01-25 03:22:48.84	298.38	10.36	-42.2	-43.3	21.5	0.00e+00	92	42	0	630194176	56	6631
2026-01-25 03:22:49.85	298.56	10.35	-41.9	-43.0	21.7	0.00e+00	0	42	0	631242752	56	6436
2026-01-25 03:22:50.86	298.74	10.33	-42.0	-43.1	21.8	0.00e+00	92	42	0	633339904	56	6527
2026-01-25 03:22:51.87	298.92	10.32	-42.1	-43.2	21.6	0.00e+00	0	42	0	635437056	56	6584
2026-01-25 03:22:52.88	299.10	10.31	-41.9	-43.0	21.8	0.00e+00	91	42	0	637534208	56	6428
2026-01-25 03:22:53.89	299.28	10.29	-41.8	-42.9	21.9	0.00e+00	0	42	0	639631360	56	6361
2026-01-25 03:22:54.90	299.46	10.28	-41.9	-43.0	21.8	0.00e+00	92	42	0	640679936	56	6444
2026-01-25 03:22:55.91	299.64	10.26	-41.7	-42.7	22.1	0.00e+00	91	41	0	642777088	56	6222
2026-01-25 03:22:56.92	299.82	10.25	-42.0	-43.1	21.7	0.00e+00	71	41	0	644874240	56	6474
2026-01-25 03:22:57.92	300.00	10.23	-42.0	-43.1	21.7	0.00e+00	92	42	0	646971392	56	6532
2026-01-25 03:22:58.93	300.18	10.22	-42.0	-43.1	21.8	0.00e+00	0	41	0	649068544	56	6479
2026-01-25 03:22:59.94	300.36	10.20	-42.0	-43.1	21.7	0.00e+00	92	41	0	650117120	56	6493
2026-01-25 03:23:00.95	300.54	10.19	-42.2	-43.3	21.3	0.00e+00	68	41	0	652214272	56	6656
2026-01-25 03:23:01.96	300.72	10.17	-42.3	-43.4	21.5	0.00e+00	90	41	0	654311424	56	6725
2026-01-25 03:23:02.97	300.89	10.16	-42.2	-43.3	21.5	0.00e+00	92	41	0	656408576	56	6651
2026-01-25 03:23:03.98	301.07	10.14	-42.3	-43.5	21.3	0.00e+00	92	41	0	658505728	56	6797
2026-01-25 03:23:04.99	301.25	10.12	-42.5	-43.6	21.1	0.00e+00	92	41	0	660602880	56	6927
2026-01-25 03:23:06.00	301.43	10.11	-42.6	-43.7	21.2	0.00e+00	52	41	0	661651456	56	7004
2026-01-25 03:23:07.01	301.61	10.09	-42.4	-43.6	21.2	0.00e+00	90	42	0	663748608	56	6898
2026-01-25 03:23:08.02	301.78	10.07	-42.4	-43.6	21.2	0.00e+00	8	42	0	665845760	56	6909
2026-01-25 03:23:09.03	301.96	10.05	-42.3	-43.4	21.4	0.00e+00	92	41	0	667942912	56	6738
2026-01-25 03:23:10.04	302.14	10.04	-42.3	-43.5	21.4	0.00e+00	92	41	0	670040064	56	6789
2026-01-25 03:23:11.05	302.32	10.02	-42.4	-43.6	21.2	0.00e+00	92	41	0	671088640	56	6905
2026-01-25 03:23:12.06	302.49	10.00	-42.0	-43.1	21.9	0.00e+00	92	41	0	673185792	56	6514
2026-01-25 03:23:13.07	302.67	9.98	-41.8	-42.9	21.9	0.00e+00	8	41	0	675282944	56	6329
2026-01-25 03:23:14.07	302.84	9.96	-41.8	-42.8	21.8	0.00e+00	92	42	0	677380096	56	6316
2026-01-25 03:23:15.08	303.02	9.94	-41.9	-42.9	21.9	0.00e+00	0	42	0	679477248	56	6386
2026-01-25 03:23:16.09	303.19	9.92	-41.9	-43.0	21.8	0.00e+00	92	42	0	680525824	56	6419
2026-01-25 03:23:17.10	303.37	9.90	-41.8	-42.9	21.8	0.00e+00	0	41	0	682622976	56	6372
2026-01-25 03:23:18.11	303.55	9.89	-42.0	-43.1	21.6	0.00e+00	92	41	0	684720128	56	6534
2026-01-25 03:23:19.12	303.72	9.87	-42.0	-43.1	21.7	0.00e+00	92	41	0	686817280	56	6472
2026-01-25 03:23:20.13	303.89	9.85	-41.9	-43.0	21.9	0.00e+00	52	42	0	688914432	56	6400
2026-01-25 03:23:21.14	304.07	9.83	-42.1	-43.2	21.6	0.00e+00	90	41	0	689963008	56	6600
2026-01-25 03:23:22.15	304.24	9.80	-42.2	-43.3	21.6	0.00e+00	0	42	0	692060160	56	6651
2026-01-25 03:23:23.16	304.42	9.78	-42.1	-43.3	21.5	0.00e+00	92	42	0	694157312	56	6629
2026-01-25 03:23:24.17	304.59	9.76	-42.0	-43.2	21.8	0.00e+00	36	41	0	696254464	56	6551
2026-01-25 03:23:25.18	304.77	9.74	-42.2	-43.4	21.5	0.00e+00	92	41	0	698351616	56	6715
2026-01-25 03:23:26.19	304.94	9.72	-42.3	-43.4	21.5	0.00e+00	92	41	0	699400192	56	6739
2026-01-25 03:23:27.20	305.11	9.70	-41.9	-43.0	21.8	0.00e+00	8	41	0	701497344	56	6458
2026-01-25 03:23:28.21	305.28	9.68	-41.8	-42.9	21.8	0.00e+00	92	42	0	703594496	56	6376
2026-01-25 03:23:29.22	305.46	9.66	-41.6	-42.7	21.9	0.00e+00	2	42	0	705691648	56	6200
2026-01-25 03:23:30.23	305.63	9.63	-41.3	-42.4	22.4	0.00e+00	92	42	0	707788800	56	5978
2026-01-25 03:23:31.24	305.80	9.61	-41.7	-42.7	22.0	0.00e+00	0	42	0	708837376	56	6225
2026-01-25 03:23:32.24	305.97	9.59	-41.6	-42.6	22.1	0.00e+00	92	42	0	710934528	56	6157
2026-01-25 03:23:33.25	306.14	9.57	-41.5	-42.5	22.1	0.00e+00	84	41	0	713031680	56	6102
2026-01-25 03:23:34.26	306.31	9.54	-41.5	-42.6	22.2	0.00e+00	68	42	0	715128832	56	6118
2026-01-25 03:23:35.27	306.49	9.52	-41.3	-42.3	22.4	0.00e+00	92	42	0	717225984	56	5911
2026-01-25 03:23:36.28	306.66	9.50	-41.6	-42.7	22.0	0.00e+00	0	41	0	718274560	56	6213
2026-01-25 03:23:37.29	306.83	9.47	-41.5	-42.5	22.2	0.00e+00	90	42	0	720371712	56	6095
2026-01-25 03:23:38.30	307.00	9.45	-41.6	-42.7	22.1	0.00e+00	0	41	0	722468864	56	6201
2026-01-25 03:23:39.31	307.17	9.43	-42.0	-43.2	21.6	0.00e+00	92	42	0	724566016	56	6552
2026-01-25 03:23:40.32	307.34	9.40	-42.0	-43.1	21.7	0.00e+00	0	41	0	726663168	56	6496
2026-01-25 03:23:41.33	307.51	9.38	-42.1	-43.2	21.6	0.00e+00	90	42	0	728760320	56	6614
2026-01-25 03:23:42.34	307.68	9.35	-41.9	-43.0	21.8	0.00e+00	92	42	0	729808896	56	6419
2026-01-25 03:23:43.35	307.84	9.33	-41.9	-43.0	21.9	0.00e+00	40	41	0	731906048	56	6459
2026-01-25 03:23:44.36	308.01	9.30	-41.8	-42.9	21.7	0.00e+00	90	42	0	734003200	56	6358
2026-01-25 03:23:45.37	308.18	9.28	-41.6	-42.6	22.1	0.00e+00	38	41	0	736100352	56	6164
2026-01-25 03:23:46.38	308.35	9.25	-41.5	-42.5	22.3	0.00e+00	90	42	0	738197504	56	6084
2026-01-25 03:23:47.38	308.52	9.23	-41.6	-42.7	22.1	0.00e+00	0	42	0	739246080	56	6187
2026-01-25 03:23:48.39	308.68	9.20	-41.7	-42.8	22.0	0.00e+00	92	41	0	741343232	56	6259
2026-01-25 03:23:49.40	308.85	9.18	-41.8	-42.9	21.9	0.00e+00	92	42	0	743440384	56	6327
2026-01-25 03:23:50.41	309.02	9.15	-41.8	-42.8	21.7	0.00e+00	43	42	0	745537536	56	6314
2026-01-25 03:23:51.42	309.18	9.12	-41.9	-43.1	21.7	0.00e+00	90	42	0	746586112	56	6470
2026-01-25 03:23:52.43	309.35	9.10	-42.2	-43.3	21.5	0.00e+00	5	42	0	748683264	56	6689
2026-01-25 03:23:53.44	309.52	9.07	-41.8	-42.9	21.9	0.00e+00	92	42	0	750780416	56	6350
2026-01-25 03:23:54.45	309.68	9.04	-41.6	-42.7	21.9	0.00e+00	0	42	0	752877568	56	6197
2026-01-25 03:23:55.46	309.85	9.02	-41.5	-42.5	22.0	0.00e+00	92	41	0	754974720	56	6093
2026-01-25 03:23:56.46	310.01	8.99	-41.4	-42.5	22.2	0.00e+00	0	42	0	757071872	56	6043
2026-01-25 03:23:57.47	310.18	8.96	-41.5	-42.5	22.3	0.00e+00	92	41	0	758120448	56	6071
2026-01-25 03:23:58.48	310.34	8.94	-41.5	-42.6	22.2	0.00e+00	92	42	0	760217600	56	6121
2026-01-25 03:23:59.49	310.50	8.91	-41.6	-42.6	22.1	0.00e+00	0	42	0	762314752	56	6171
2026-01-25 03:24:00.50	310.67	8.88	-41.5	-42.5	22.2	0.00e+00	92	41	0	764411904	56	6071
2026-01-25 03:24:01.51	310.83	8.85	-41.7	-42.7	22.0	0.00e+00	0	42	0	766509056	56	6234
2026-01-25 03:24:02.52	311.00	8.82	-41.7	-42.8	21.9	0.00e+00	92	42	0	767557632	56	6262
2026-01-25 03:24:03.52	311.16	8.80	-41.9	-43.0	21.8	0.00e+00	6	41	0	769654784	56	6428
2026-01-25 03:24:04.53	311.32	8.77	-41.8	-42.9	21.9	0.00e+00	92	42	0	771751936	56	6330
2026-01-25 03:24:05.54	311.48	8.74	-41.9	-43.0	21.8	0.00e+00	92	42	0	773849088	56	6401
2026-01-25 03:24:06.55	311.64	8.71	-42.0	-43.1	21.7	0.00e+00	38	41	0	775946240	56	6487
2026-01-25 03:24:07.56	311.81	8.68	-41.9	-43.0	21.6	0.00e+00	92	42	0	776994816	56	6449
2026-01-25 03:24:08.57	311.97	8.65	-42.1	-43.2	21.5	0.00e+00	47	42	0	779091968	56	6550
2026-01-25 03:24:09.58	312.13	8.62	-42.5	-43.7	21.2	0.00e+00	92	42	0	781189120	56	6968
2026-01-25 03:24:10.59	312.29	8.59	-42.2	-43.4	21.4	0.00e+00	0	42	0	783286272	56	6700
2026-01-25 03:24:11.60	312.45	8.56	-42.4	-43.5	21.3	0.00e+00	7	42	0	785383424	56	6829
2026-01-25 03:24:12.61	312.61	8.53	-42.6	-43.8	20.9	0.00e+00	92	42	0	786432000	56	7047
2026-01-25 03:24:13.62	312.77	8.50	-42.1	-43.3	21.4	0.00e+00	6	42	0	788529152	56	6630
2026-01-25 03:24:14.63	312.93	8.47	-42.5	-43.7	21.1	0.00e+00	92	41	0	790626304	56	6944
2026-01-25 03:24:15.64	313.09	8.44	-42.5	-43.7	21.1	0.00e+00	6	42	0	792723456	56	6953
2026-01-25 03:24:16.65	313.25	8.41	-42.3	-43.5	21.2	0.00e+00	92	42	0	794820608	56	6791
2026-01-25 03:24:17.65	313.40	8.38	-42.6	-43.8	20.9	0.00e+00	6	42	0	795869184	58	6247
2026-01-25 03:24:18.66	313.56	8.35	-43.0	-44.3	20.5	0.00e+00	67	42	0	797966336	58	6669
2026-01-25 03:24:19.67	313.72	8.32	-42.8	-44.0	20.7	0.00e+00	0	42	0	800063488	58	6459
2026-01-25 03:24:20.68	313.88	8.29	-42.8	-44.1	20.7	0.00e+00	0	42	0	802160640	58	6496
2026-01-25 03:24:21.68	314.03	8.26	-43.1	-44.4	20.5	0.00e+00	92	42	0	804257792	58	6705
2026-01-25 03:24:22.69	314.19	8.23	-42.8	-44.1	20.6	0.00e+00	0	42	0	805306368	58	6484
2026-01-25 03:24:23.70	314.35	8.20	-42.8	-44.1	20.7	0.00e+00	92	42	0	807403520	58	6484
2026-01-25 03:24:24.71	314.50	8.17	-42.8	-44.0	20.8	0.00e+00	0	42	0	809500672	58	6447
2026-01-25 03:24:25.72	314.66	8.13	-42.8	-44.1	20.6	0.00e+00	92	42	0	811597824	58	6509
2026-01-25 03:24:26.73	314.81	8.10	-43.4	-44.8	19.9	0.00e+00	0	42	0	813694976	58	7055
2026-01-25 03:24:27.74	314.97	8.07	-43.5	-44.9	19.8	0.00e+00	39	42	0	814743552	58	7163
2026-01-25 03:24:28.75	315.13	8.04	-44.1	-45.6	19.3	0.00e+00	92	42	0	816840704	60	6872
2026-01-25 03:24:29.76	315.28	8.01	-44.2	-45.7	19.2	0.00e+00	39	42	0	818937856	60	6987
2026-01-25 03:24:30.77	315.43	7.97	-44.4	-46.1	18.8	0.00e+00	92	42	0	821035008	60	7265
2026-01-25 03:24:31.78	315.59	7.94	-44.3	-45.8	19.2	0.00e+00	43	42	0	823132160	60	7079
2026-01-25 03:24:32.79	315.74	7.91	-44.1	-45.6	19.3	0.00e+00	93	42	0	825229312	60	6895
2026-01-25 03:24:33.80	315.90	7.88	-44.3	-45.9	19.0	0.00e+00	0	42	0	826277888	60	7094
2026-01-25 03:24:34.81	316.05	7.84	-44.3	-46.0	19.0	0.00e+00	11	42	0	828375040	60	7184
2026-01-25 03:24:35.81	316.20	7.81	-44.3	-45.8	19.0	0.00e+00	86	42	0	830472192	60	7072
2026-01-25 03:24:36.82	316.35	7.78	-44.2	-45.8	19.1	0.00e+00	42	42	0	832569344	60	7012
2026-01-25 03:24:37.83	316.50	7.74	-43.6	-45.0	19.8	0.00e+00	92	41	0	834666496	60	6427
2026-01-25 03:24:38.84	316.66	7.71	-43.8	-45.3	19.7	0.00e+00	0	42	0	835715072	60	6650
2026-01-25 03:24:39.85	316.81	7.68	-44.1	-45.7	19.2	0.00e+00	90	42	0	837812224	60	6929
2026-01-25 03:24:40.86	316.96	7.64	-43.7	-45.2	19.5	0.00e+00	0	42	0	839909376	60	6577
2026-01-25 03:24:41.87	317.11	7.61	-43.8	-45.3	19.4	0.00e+00	90	42	0	842006528	60	6666
2026-01-25 03:24:42.88	317.26	7.58	-44.2	-45.7	19.1	0.00e+00	4	42	0	844103680	60	6994
2026-01-25 03:24:43.89	317.41	7.54	-43.6	-45.0	19.8	0.00e+00	0	42	0	845152256	60	6459
2026-01-25 03:24:44.90	317.56	7.51	-43.7	-45.2	19.6	0.00e+00	92	42	0	847249408	60	6570
2026-01-25 03:24:45.91	317.71	7.47	-43.8	-45.3	19.5	0.00e+00	38	42	0	849346560	60	6651
2026-01-25 03:24:46.91	317.85	7.44	-43.9	-45.4	19.4	0.00e+00	92	42	0	851443712	60	6720
2026-01-25 03:24:47.92	318.00	7.41	-43.9	-45.4	19.4	0.00e+00	0	41	0	853540864	60	6708
2026-01-25 03:24:48.93	318.15	7.37	-44.6	-46.2	18.6	0.00e+00	92	42	0	854589440	60	7417
2026-01-25 03:24:49.94	318.30	7.34	-44.5	-46.1	18.7	0.00e+00	0	42	0	856686592	60	7323
2026-01-25 03:24:50.94	318.45	7.30	-44.9	-46.6	18.1	0.00e+00	3	42	0	858783744	60	7762
2026-01-25 03:24:51.95	318.59	7.27	-44.9	-46.7	18.1	0.00e+00	92	42	0	860880896	60	7814
2026-01-25 03:24:52.96	318.74	7.23	-45.0	-46.8	18.1	0.00e+00	43	42	0	862978048	60	7891
2026-01-25 03:24:53.97	318.89	7.20	-45.0	-46.8	18.0	0.00e+00	90	42	0	864026624	60	7942
2026-01-25 03:24:54.98	319.03	7.16	-44.8	-46.6	18.1	0.00e+00	0	42	0	866123776	60	7728
2026-01-25 03:24:55.99	319.18	7.13	-45.3	-47.3	17.4	0.00e+00	92	42	0	868220928	60	8351
2026-01-25 03:24:57.00	319.32	7.09	-45.5	-47.5	17.3	0.00e+00	0	42	0	870318080	60	8542
2026-01-25 03:24:58.01	319.47	7.06	-45.5	-47.5	17.3	0.00e+00	92	42	0	872415232	60	8564
2026-01-25 03:24:59.02	319.61	7.02	-45.6	-47.7	17.2	0.00e+00	80	42	0	873463808	60	8741
2026-01-25 03:25:00.03	319.76	6.98	-45.0	-46.9	17.9	0.00e+00	0	42	0	875560960	60	8011
2026-01-25 03:25:01.04	319.90	6.95	-44.7	-46.4	18.3	0.00e+00	92	42	0	877658112	60	7569
2026-01-25 03:25:02.05	320.05	6.91	-45.1	-46.9	18.0	0.00e+00	0	42	0	879755264	60	8016
2026-01-25 03:25:03.06	320.19	6.88	-44.9	-46.7	18.2	0.00e+00	90	42	0	881852416	60	7817
2026-01-25 03:25:04.07	320.33	6.84	-45.1	-47.0	17.9	0.00e+00	0	42	0	882900992	60	8046
2026-01-25 03:25:05.08	320.48	6.80	-44.9	-46.8	18.0	0.00e+00	91	42	0	884998144	60	7879
2026-01-25 03:25:06.09	320.62	6.77	-45.0	-46.9	17.9	0.00e+00	39	42	0	887095296	60	7997
2026-01-25 03:25:07.10	320.76	6.73	-44.7	-46.5	18.3	0.00e+00	0	42	0	889192448	60	7643
2026-01-25 03:25:08.11	320.90	6.69	-44.5	-46.1	18.7	0.00e+00	91	42	0	891289600	60	7328
2026-01-25 03:25:09.12	321.04	6.66	-44.2	-45.8	18.8	0.00e+00	0	42	0	892338176	60	7056
2026-01-25 03:25:10.13	321.18	6.62	-44.1	-45.7	18.9	0.00e+00	91	42	0	894435328	60	6959
2026-01-25 03:25:11.14	321.33	6.58	-44.6	-46.4	18.3	0.00e+00	39	42	0	896532480	60	7511
2026-01-25 03:25:12.15	321.47	6.55	-44.8	-46.6	18.0	0.00e+00	92	42	0	898629632	60	7708
2026-01-25 03:25:13.16	321.61	6.51	-44.6	-46.4	18.3	0.00e+00	25	42	0	900726784	60	7554
2026-01-25 03:25:14.16	321.74	6.47	-44.8	-46.6	17.9	0.00e+00	0	42	0	901775360	60	7758
2026-01-25 03:25:15.17	321.88	6.44	-45.1	-46.9	17.8	0.00e+00	92	42	0	903872512	60	8043
2026-01-25 03:25:16.18	322.02	6.40	-45.4	-47.5	17.2	0.00e+00	44	42	0	905969664	60	8567
2026-01-25 03:25:17.19	322.16	6.36	-45.2	-47.2	17.5	0.00e+00	91	42	0	908066816	60	8236
2026-01-25 03:25:18.20	322.30	6.32	-45.2	-47.1	17.8	0.00e+00	2	42	0	910163968	60	8202
2026-01-25 03:25:19.21	322.44	6.29	-45.1	-47.0	17.7	0.00e+00	91	42	0	911212544	60	8101
2026-01-25 03:25:20.22	322.58	6.25	-44.5	-46.3	18.5	0.00e+00	42	42	0	913309696	60	7436
2026-01-25 03:25:21.23	322.71	6.21	-44.5	-46.3	18.4	0.00e+00	7	42	0	915406848	60	7445
2026-01-25 03:25:22.24	322.85	6.17	-44.3	-46.0	18.7	0.00e+00	92	42	0	917504000	60	7188
2026-01-25 03:25:23.25	322.99	6.14	-44.4	-46.0	18.6	0.00e+00	2	42	0	919601152	60	7240
2026-01-25 03:25:24.26	323.12	6.10	-44.1	-45.7	18.8	0.00e+00	92	42	0	921698304	60	6998
2026-01-25 03:25:25.27	323.26	6.06	-44.1	-45.8	18.8	0.00e+00	0	42	0	922746880	60	7016
2026-01-25 03:25:26.28	323.39	6.02	-44.4	-46.0	18.6	0.00e+00	92	42	0	924844032	60	7235
2026-01-25 03:25:27.29	323.53	5.98	-44.8	-46.7	18.0	0.00e+00	0	42	0	926941184	60	7788
2026-01-25 03:25:28.30	323.66	5.95	-44.4	-46.1	18.3	0.00e+00	92	42	0	929038336	60	7282
2026-01-25 03:25:29.30	323.80	5.91	-44.5	-46.2	18.3	0.00e+00	0	42	0	931135488	60	7418
2026-01-25 03:25:30.31	323.93	5.87	-45.2	-47.2	17.4	0.00e+00	0	42	0	932184064	60	8308
2026-01-25 03:25:31.32	324.07	5.83	-45.2	-47.2	17.6	0.00e+00	90	42	0	934281216	60	8239
2026-01-25 03:25:32.33	324.20	5.79	-44.8	-46.6	17.8	0.00e+00	45	42	0	936378368	60	7718
2026-01-25 03:25:33.34	324.33	5.75	-44.7	-46.4	18.2	0.00e+00	92	42	0	938475520	60	7587
2026-01-25 03:25:34.34	324.46	5.72	-44.2	-45.8	18.6	0.00e+00	36	42	0	940572672	60	7076
2026-01-25 03:25:35.35	324.60	5.68	-44.6	-46.3	18.0	0.00e+00	91	42	0	941621248	60	7475
2026-01-25 03:25:36.36	324.73	5.64	-44.5	-46.3	18.2	0.00e+00	29	42	0	943718400	60	7469
2026-01-25 03:25:37.37	324.86	5.60	-44.7	-46.6	17.9	0.00e+00	36	42	0	945815552	60	7692
2026-01-25 03:25:38.38	324.99	5.56	-43.6	-45.1	19.4	0.00e+00	91	42	0	947912704	60	6496
2026-01-25 03:25:39.39	325.12	5.52	-43.5	-45.0	19.5	0.00e+00	5	42	0	950009856	60	6422
2026-01-25 03:25:40.40	325.25	5.48	-44.0	-45.6	18.9	0.00e+00	92	42	0	951058432	60	6885
2026-01-25 03:25:41.40	325.38	5.44	-43.3	-44.8	19.2	0.00e+00	5	42	0	953155584	60	6247
2026-01-25 03:25:42.41	325.51	5.41	-44.2	-45.9	18.6	0.00e+00	5	42	0	955252736	60	7143
2026-01-25 03:25:43.42	325.64	5.37	-44.0	-45.6	18.8	0.00e+00	45	42	0	957349888	60	6874
2026-01-25 03:25:44.43	325.77	5.33	-44.3	-46.0	18.5	0.00e+00	0	42	0	959447040	60	7192
2026-01-25 03:25:45.44	325.90	5.29	-44.0	-45.7	18.7	0.00e+00	92	42	0	960495616	60	6951
2026-01-25 03:25:46.45	326.03	5.25	-44.1	-45.8	18.7	0.00e+00	0	42	0	962592768	60	7040
2026-01-25 03:25:47.46	326.16	5.21	-44.6	-46.3	18.2	0.00e+00	92	42	0	964689920	60	7508
2026-01-25 03:25:48.47	326.29	5.17	-44.1	-45.7	18.8	0.00e+00	7	42	0	966787072	60	6969
2026-01-25 03:25:49.47	326.41	5.13	-44.2	-45.8	18.7	0.00e+00	91	42	0	968884224	60	7059
2026-01-25 03:25:50.48	326.54	5.09	-44.3	-46.0	18.4	0.00e+00	35	42	0	969932800	60	7224
2026-01-25 03:25:51.49	326.67	5.05	-44.8	-46.7	17.9	0.00e+00	36	42	0	972029952	60	7831
2026-01-25 03:25:52.50	326.80	5.01	-44.3	-46.0	18.4	0.00e+00	0	42	0	974127104	60	7225
2026-01-25 03:25:53.51	326.92	4.97	-44.2	-45.9	18.7	0.00e+00	5	42	0	976224256	60	7094
2026-01-25 03:25:54.52	327.05	4.93	-44.4	-46.1	18.1	0.00e+00	92	42	0	978321408	60	7315
2026-01-25 03:25:55.53	327.17	4.89	-44.1	-45.7	18.8	0.00e+00	37	42	0	979369984	60	6998
2026-01-25 03:25:56.54	327.30	4.85	-44.1	-45.8	18.6	0.00e+00	92	42	0	981467136	60	7025
2026-01-25 03:25:57.54	327.42	4.81	-44.2	-45.9	18.6	0.00e+00	50	42	0	983564288	60	7090
2026-01-25 03:25:58.55	327.55	4.77	-44.1	-45.8	18.8	0.00e+00	35	42	0	985661440	60	7044
2026-01-25 03:25:59.56	327.67	4.73	-44.5	-46.3	18.1	0.00e+00	35	42	0	987758592	60	7476
2026-01-25 03:26:00.57	327.80	4.69	-43.8	-45.4	19.0	0.00e+00	35	42	0	988807168	60	6744
2026-01-25 03:26:01.58	327.92	4.65	-43.9	-45.5	19.0	0.00e+00	92	42	0	990904320	60	6783
2026-01-25 03:26:02.59	328.05	4.61	-43.9	-45.6	18.8	0.00e+00	7	42	0	993001472	60	6865
2026-01-25 03:26:03.60	328.17	4.57	-43.3	-44.8	19.6	0.00e+00	92	42	0	995098624	60	6247
2026-01-25 03:26:04.61	328.29	4.53	-43.0	-44.4	19.9	0.00e+00	52	42	0	997195776	60	6000
2026-01-25 03:26:05.62	328.41	4.49	-43.8	-45.4	19.1	0.00e+00	6	42	0	998244352	60	6694
2026-01-25 03:26:06.63	328.54	4.45	-43.4	-44.9	19.4	0.00e+00	6	42	0	1000341504	60	6355
2026-01-25 03:26:07.64	328.66	4.41	-43.6	-45.1	19.3	0.00e+00	7	42	0	1002438656	60	6488
2026-01-25 03:26:08.65	328.78	4.37	-43.9	-45.6	18.9	0.00e+00	82	42	0	1004535808	60	6893
2026-01-25 03:26:09.66	328.90	4.33	-43.5	-45.0	19.3	0.00e+00	7	42	0	1006632960	60	6422
2026-01-25 03:26:10.67	329.02	4.29	-43.9	-45.6	18.8	0.00e+00	92	42	0	1007681536	60	6869
2026-01-25 03:26:11.68	329.14	4.25	-43.8	-45.4	19.2	0.00e+00	0	42	0	1009778688	60	6728
2026-01-25 03:26:12.68	329.26	4.21	-42.0	-43.2	20.9	0.00e+00	35	42	0	1011875840	58	5839
2026-01-25 03:26:13.69	329.38	4.17	-43.1	-44.6	19.7	0.00e+00	0	42	0	1013972992	58	6850
2026-01-25 03:26:14.70	329.50	4.13	-43.4	-44.9	19.4	0.00e+00	0	42	0	1016070144	58	7143
2026-01-25 03:26:15.71	329.62	4.08	-42.8	-44.2	19.8	0.00e+00	0	42	0	1018167296	58	6597
2026-01-25 03:26:16.72	329.74	4.04	-43.9	-45.6	19.0	0.00e+00	37	42	0	1019215872	60	6891
2026-01-25 03:26:17.73	329.86	4.00	-42.7	-44.1	20.1	0.00e+00	92	42	0	1021313024	60	5767
2026-01-25 03:26:18.74	329.98	3.96	-42.9	-44.3	19.7	0.00e+00	36	42	0	1023410176	58	6683
2026-01-25 03:26:19.75	330.10	3.92	-42.3	-43.6	20.3	0.00e+00	92	42	0	1025507328	58	6166
2026-01-25 03:26:20.76	330.21	3.88	-42.8	-44.2	19.8	0.00e+00	51	42	0	1027604480	58	6600
2026-01-25 03:26:21.77	330.33	3.84	-42.3	-43.6	20.6	0.00e+00	44	42	0	1028653056	58	6133
2026-01-25 03:26:22.78	330.45	3.80	-44.0	-45.7	18.3	0.00e+00	46	42	0	1030750208	60	6986
2026-01-25 03:26:23.79	330.56	3.76	-42.9	-44.4	19.5	0.00e+00	46	42	0	1032847360	60	6002
2026-01-25 03:26:24.80	330.68	3.72	-43.4	-45.1	18.6	0.00e+00	92	42	0	1034944512	60	6468
2026-01-25 03:26:25.81	330.80	3.67	-44.4	-46.4	17.4	0.00e+00	44	42	0	1037041664	60	7558
2026-01-25 03:26:26.82	330.91	3.63	-43.8	-45.6	18.3	0.00e+00	92	42	0	1038090240	60	6868
2026-01-25 03:26:27.83	331.03	3.59	-44.3	-46.4	16.8	0.00e+00	0	42	0	1040187392	60	7510
2026-01-25 03:26:28.84	331.14	3.55	-45.2	-47.8	15.3	0.00e+00	0	42	0	1042284544	60	8873
2026-01-25 03:26:29.85	331.26	3.51	-45.7	-48.7	14.6	7.00e-07	0	42	0	1044381696	60	9884
2026-01-25 03:26:30.86	331.37	3.47	-46.1	-49.6	13.2	1.50e-06	2	42	0	1046478848	60	10970
2026-01-25 03:26:31.87	331.49	3.43	-45.3	-48.4	13.8	9.10e-06	0	42	0	1047527424	60	9546
2026-01-25 03:26:32.87	331.60	3.39	-45.5	-49.4	12.7	2.49e-04	0	42	0	1049624576	60	10623
2026-01-25 03:26:33.88	331.72	3.35	-46.0	-51.2	9.9	7.30e-03	92	42	0	1051721728	60	13147
2026-01-25 03:26:34.89	331.83	3.30	-46.1	-52.3	8.3	1.83e-02	5	42	0	1053818880	60	14898
2026-01-25 03:26:35.90	331.94	3.26	-46.3	-54.0	5.8	1.65e-01	35	42	0	1055916032	60	18213
2026-01-25 03:26:36.91	332.05	3.22	-46.2	-54.2	5.4	3.91e-01	0	42	0	1056964608	60	18552
2026-01-25 03:26:37.92	332.17	3.18	-46.4	-56.6	3.9	9.03e-01	7	42	0	1059061760	60	24513
2026-01-25 03:26:38.93	332.28	3.14	-46.4	-59.2	3.6	1.46e+00	0	42	104	1059061760	60	32901
2026-01-25 03:26:39.94	332.39	3.10	-46.4	-59.3	3.6	1.50e+00	0	42	104	1059061760	60	33461
2026-01-25 03:26:40.95	332.50	3.05	-46.4	-59.8	3.6	1.50e+00	0	42	104	1059061760	60	35447
2026-01-25 03:26:41.96	332.61	3.01	-46.4	-60.6	3.6	1.51e+00	0	42	104	1059061760	60	38799
2026-01-25 03:26:42.97	332.73	2.97	-50.0	-65.2	3.5	1.51e+00	0	42	104	1059061760	60	66141
2026-01-25 03:26:43.98	332.84	2.93	-50.5	-65.7	3.6	1.51e+00	0	42	104	1059061760	60	69987
2026-01-25 03:26:44.99	332.95	2.89	-50.8	-66.0	3.6	1.51e+00	0	42	104	1059061760	60	72014
2026-01-25 03:26:46.00	333.06	2.85	-51.0	-66.1	3.5	1.51e+00	0	42	104	1059061760	60	73149
2026-01-25 03:26:47.01	333.17	2.81	-51.1	-66.3	3.6	1.51e+00	0	42	104	1059061760	60	74475
2026-01-25 03:26:48.02	333.28	2.76	-51.2	-66.4	3.6	1.51e+00	0	42	104	1059061760	60	75280
2026-01-25 03:26:49.03	333.39	2.72	-51.3	-66.5	3.6	1.51e+00	0	42	104	1059061760	60	76769
2026-01-25 03:26:50.04	333.49	2.68	-51.4	-66.6	3.6	1.51e+00	0	42	104	1059061760	60	76879
2026-01-25 03:26:51.05	333.60	2.64	-51.4	-66.6	3.6	1.51e+00	0	42	104	1059061760	60	77680
2026-01-25 03:26:52.05	333.71	2.60	-51.5	-66.7	3.6	1.51e+00	0	42	104	1059061760	60	78537
2026-01-25 03:26:53.06	333.82	2.56	-51.6	-66.8	3.6	1.51e+00	0	42	104	1059061760	60	78870
2026-01-25 03:26:54.07	333.93	2.51	-51.6	-66.7	3.6	1.51e+00	0	42	104	1059061760	60	78522
2026-01-25 03:26:55.08	334.03	2.47	-51.6	-66.8	3.6	1.51e+00	0	42	104	1059061760	60	78697
2026-01-25 03:26:56.10	334.14	2.43	-51.6	-66.7	3.6	1.51e+00	0	42	104	1059061760	60	78499
2026-01-25 03:26:57.10	334.25	2.39	-51.5	-66.7	3.6	1.51e+00	0	42	104	1059061760	60	78581
2026-01-25 03:26:58.11	334.35	2.35	-51.5	-66.7	3.6	1.51e+00	0	42	104	1059061760	60	78172
2026-01-25 03:26:59.12	334.46	2.30	-51.5	-66.7	3.6	1.51e+00	0	42	104	1059061760	60	78099
2026-01-25 03:27:00.14	334.57	2.26	-51.4	-66.6	3.6	1.51e+00	0	42	104	1059061760	60	77522
2026-01-25 03:27:01.15	334.67	2.22	-51.4	-66.6	3.6	1.51e+00	0	42	104	1059061760	60	77654
2026-01-25 03:27:02.15	334.78	2.18	-51.3	-66.7	3.6	1.51e+00	0	42	104	1059061760	60	77753
2026-01-25 03:27:03.16	334.88	2.14	-51.4	-66.7	3.6	1.51e+00	0	42	104	1059061760	60	77887
2026-01-25 03:27:04.17	334.99	2.09	-51.4	-66.7	3.6	1.51e+00	0	42	104	1059061760	60	77928
2026-01-25 03:27:05.18	335.09	2.05	-51.5	-66.7	3.6	1.51e+00	0	42	104	1059061760	60	78278
2026-01-25 03:27:06.19	335.20	2.01	-51.5	-66.7	3.5	1.51e+00	0	42	104	1059061760	60	78543
2026-01-25 03:27:07.20	335.30	1.97	-51.5	-66.7	3.6	1.51e+00	0	42	104	1059061760	60	78612
2026-01-25 03:27:08.21	335.41	1.93	-51.5	-66.7	3.6	1.51e+00	0	42	104	1059061760	60	78287
2026-01-25 03:27:09.22	335.51	1.88	-51.5	-66.8	3.6	1.51e+00	0	42	104	1059061760	60	78838
2026-01-25 03:27:10.23	335.61	1.84	-51.5	-66.8	3.6	1.51e+00	0	42	104	1059061760	60	78942
2026-01-25 03:27:11.24	335.72	1.80	-51.5	-66.8	3.5	1.51e+00	0	42	104	1059061760	60	79145
2026-01-25 03:27:12.25	335.82	1.76	-51.5	-66.7	3.6	1.51e+00	0	42	104	1059061760	60	78532
2026-01-25 03:27:13.25	335.92	1.72	-51.5	-66.7	3.6	1.51e+00	0	42	104	1059061760	60	78084
2026-01-25 03:27:14.27	336.02	1.67	-51.5	-66.7	3.6	1.51e+00	0	42	104	1059061760	60	78324
2026-01-25 03:27:15.28	336.12	1.63	-51.5	-66.7	3.6	1.51e+00	0	42	104	1059061760	60	78304
2026-01-25 03:27:16.28	336.22	1.59	-51.5	-66.7	3.6	1.51e+00	0	42	104	1059061760	60	78300
2026-01-25 03:27:17.29	336.33	1.55	-51.5	-66.7	3.6	1.51e+00	0	42	104	1059061760	60	78563
2026-01-25 03:27:18.30	336.43	1.51	-51.5	-66.7	3.6	1.51e+00	0	42	104	1059061760	60	78157
2026-01-25 03:27:19.31	336.53	1.46	-51.6	-66.8	3.6	1.51e+00	0	42	104	1059061760	60	78747
2026-01-25 03:27:20.32	336.63	1.42	-51.5	-66.8	3.6	1.51e+00	0	42	104	1059061760	60	78760
2026-01-25 03:27:21.33	336.73	1.38	-51.5	-66.7	3.6	1.51e+00	0	42	104	1059061760	60	78227
2026-01-25 03:27:22.34	336.83	1.34	-51.5	-66.7	3.6	1.51e+00	0	42	104	1059061760	60	78520
2026-01-25 03:27:23.35	336.93	1.30	-51.6	-66.9	3.6	1.51e+00	0	42	104	1059061760	60	79668
2026-01-25 03:27:24.36	337.03	1.25	-51.6	-66.8	3.6	1.51e+00	0	42	104	1059061760	60	79129
2026-01-25 03:27:25.37	337.13	1.21	-51.6	-66.7	3.6	1.51e+00	0	42	104	1059061760	60	78574
2026-01-25 03:27:26.38	337.23	1.17	-51.6	-66.7	3.6	1.51e+00	0	42	104	1059061760	60	78609
2026-01-25 03:27:27.39	337.32	1.13	-51.6	-66.8	3.6	1.51e+00	0	42	104	1059061760	60	79271
2026-01-25 03:27:28.40	337.42	1.09	-51.6	-66.8	3.6	1.51e+00	0	42	104	1059061760	60	79265
2026-01-25 03:27:29.40	337.52	1.04	-51.6	-66.8	3.6	1.51e+00	0	42	104	1059061760	60	79268
2026-01-25 03:27:30.41	337.62	1.00	-51.6	-66.8	3.6	1.51e+00	0	42	104	1059061760	60	79043
2026-01-25 03:27:31.42	337.72	0.96	-51.6	-66.8	3.6	1.51e+00	0	42	104	1059061760	60	78910
2026-01-25 03:27:32.43	337.81	0.92	-51.6	-66.8	3.6	1.51e+00	0	42	104	1059061760	60	78859
2026-01-25 03:27:33.44	337.91	0.88	-51.6	-66.8	3.6	1.51e+00	0	42	104	1059061760	60	79164
2026-01-25 03:27:34.45	338.01	0.83	-51.6	-66.9	3.6	1.51e+00	0	42	104	1059061760	60	79547
2026-01-25 03:27:35.46	338.10	0.79	-51.6	-66.8	3.6	1.51e+00	0	42	104	1059061760	60	79290
2026-01-25 03:27:36.47	338.20	0.75	-51.6	-66.8	3.6	1.51e+00	0	42	104	1059061760	60	79154
2026-01-25 03:27:37.48	338.30	0.71	-51.5	-66.7	3.6	1.51e+00	0	42	104	1059061760	60	78379
2026-01-25 03:27:38.49	338.39	0.66	-51.5	-66.8	3.6	1.51e+00	0	42	104	1059061760	60	78740
2026-01-25 03:27:39.50	338.49	0.62	-51.5	-66.7	3.6	1.51e+00	0	42	104	1059061760	60	78073
