passes_logs/2026/01/25/R4.6S_Anadyr/R4.6S_Anadyr__20260125_155428_FENGYUN_3D_rec.log

#Pass ID: 20260125_155428_FENGYUN 3D
#Satellite: FENGYUN 3D
#Configuration: FENGYUN 3D
#almurnet v.1.7.20251203
#Start time: 2026-01-25 15:54:30

#Version: 2.2.20231116
#Station: R4.6S_Anadyr
#Location: 177.4865 lon 64.73178 lat
#TLE: 1 43010U 17072A   26025.29318909  .00000213  00000+0  12258-3 0  9997
#TLE: 2 43010  98.9962 357.2697 0002521  90.3942 269.7522 14.19700342424711

#Time	Az	El	Level	Level2	SNR	BER	BlckErr	Temp	State	Recorded	gain1	gain2
2026-01-25 15:54:30.43	19.71	0.12	-50.2	-65.1	3.5	1.51e+00	0	38	0	0	60	65143
2026-01-25 15:54:31.43	19.75	0.18	-50.5	-62.5	3.6	8.45e-01	0	39	104	0	60	48386
2026-01-25 15:54:32.44	19.78	0.24	-50.3	-62.4	3.6	8.45e-01	0	39	104	0	60	47855
2026-01-25 15:54:33.45	19.81	0.30	-50.3	-62.4	3.6	8.45e-01	0	39	104	0	60	47768
2026-01-25 15:54:34.46	19.84	0.35	-50.2	-62.4	3.6	8.46e-01	0	39	104	0	60	47523
2026-01-25 15:54:35.47	19.88	0.41	-50.2	-62.3	3.6	8.46e-01	0	39	104	0	60	47057
2026-01-25 15:54:36.48	19.91	0.47	-50.2	-62.3	3.6	8.46e-01	0	39	104	0	60	47081
2026-01-25 15:54:37.49	19.94	0.53	-50.1	-62.3	3.6	8.45e-01	0	39	104	0	60	46978
2026-01-25 15:54:38.50	19.98	0.59	-50.2	-62.3	3.6	8.46e-01	0	39	104	0	60	47042
2026-01-25 15:54:39.51	20.01	0.65	-50.2	-62.3	3.6	8.45e-01	0	39	104	0	60	47227
2026-01-25 15:54:40.52	20.04	0.71	-50.2	-62.3	3.6	8.46e-01	0	39	104	0	60	47075
2026-01-25 15:54:41.53	20.08	0.77	-50.2	-62.3	3.6	8.46e-01	0	39	104	0	60	46910
2026-01-25 15:54:42.54	20.11	0.83	-50.2	-62.3	3.6	8.44e-01	0	40	104	0	60	46944
2026-01-25 15:54:43.55	20.14	0.89	-50.0	-62.3	3.6	8.45e-01	0	40	104	0	60	46967
2026-01-25 15:54:44.55	20.18	0.95	-50.1	-62.2	3.6	8.45e-01	0	40	104	0	60	46565
2026-01-25 15:54:45.56	20.21	1.01	-50.0	-62.2	3.6	8.45e-01	0	39	104	0	60	46396
2026-01-25 15:54:46.57	20.25	1.07	-50.0	-62.1	3.5	8.45e-01	0	40	104	0	60	46019
2026-01-25 15:54:47.58	20.28	1.13	-49.9	-62.0	3.6	8.46e-01	0	40	104	0	60	45398
2026-01-25 15:54:48.59	20.31	1.19	-49.8	-61.9	3.6	8.45e-01	0	40	104	0	60	45189
2026-01-25 15:54:49.60	20.35	1.25	-49.7	-61.8	3.6	8.45e-01	0	40	104	0	60	44519
2026-01-25 15:54:50.61	20.38	1.31	-49.6	-61.7	3.6	8.46e-01	0	40	104	0	60	44099
2026-01-25 15:54:51.62	20.42	1.37	-49.5	-61.6	3.6	8.45e-01	0	40	104	0	60	43234
2026-01-25 15:54:52.63	20.45	1.43	-49.3	-61.5	3.6	8.46e-01	0	40	104	0	60	42736
2026-01-25 15:54:53.64	20.49	1.50	-49.1	-61.3	3.6	8.45e-01	0	40	104	0	60	41799
2026-01-25 15:54:54.65	20.52	1.56	-48.8	-60.9	3.6	8.46e-01	0	40	104	0	60	40149
2026-01-25 15:54:55.66	20.56	1.62	-48.7	-60.7	3.6	8.44e-01	0	40	104	0	60	39139
2026-01-25 15:54:56.67	20.59	1.68	-48.7	-60.5	3.6	8.45e-01	0	40	104	0	60	38299
2026-01-25 15:54:57.68	20.63	1.74	-48.7	-60.6	3.6	8.45e-01	0	40	104	0	60	38764
2026-01-25 15:54:58.69	20.66	1.80	-48.7	-60.6	3.6	8.45e-01	0	40	104	0	60	38858
2026-01-25 15:54:59.70	20.70	1.86	-48.7	-60.7	3.6	8.45e-01	0	40	104	0	60	39276
2026-01-25 15:55:00.71	20.74	1.93	-48.7	-60.7	3.6	8.44e-01	0	40	104	0	60	39282
2026-01-25 15:55:01.72	20.77	1.99	-48.7	-60.8	3.6	8.45e-01	0	40	104	0	60	39636
2026-01-25 15:55:02.73	20.81	2.05	-48.7	-60.8	3.6	8.44e-01	0	40	104	0	60	39409
2026-01-25 15:55:03.73	20.84	2.11	-48.7	-60.8	3.6	8.45e-01	0	40	104	0	60	39716
2026-01-25 15:55:04.74	20.88	2.17	-48.7	-60.9	3.6	8.46e-01	0	40	104	0	60	39909
2026-01-25 15:55:05.75	20.92	2.24	-48.7	-60.9	3.6	8.46e-01	0	40	104	0	60	39890
2026-01-25 15:55:06.76	20.95	2.30	-48.7	-60.7	3.6	8.45e-01	0	40	104	0	60	38960
2026-01-25 15:55:07.77	20.99	2.36	-48.7	-60.2	3.6	8.46e-01	0	40	104	0	60	36990
2026-01-25 15:55:08.78	21.03	2.43	-48.6	-59.5	3.6	8.45e-01	0	40	104	0	60	34112
2026-01-25 15:55:09.79	21.06	2.49	-48.6	-59.1	3.6	8.45e-01	0	40	104	0	60	32424
2026-01-25 15:55:10.80	21.10	2.55	-48.4	-58.0	3.7	8.44e-01	0	40	104	0	60	28742
2026-01-25 15:55:11.81	21.14	2.62	-48.5	-58.7	3.6	8.40e-01	0	40	104	0	60	31179
2026-01-25 15:55:12.82	21.18	2.68	-48.6	-59.4	3.6	8.46e-01	0	40	104	0	60	33846
2026-01-25 15:55:13.83	21.21	2.74	-48.6	-59.1	3.6	8.44e-01	0	40	104	0	60	32526
2026-01-25 15:55:14.84	21.25	2.81	-48.4	-57.6	4.0	8.44e-01	0	40	104	0	60	27295
2026-01-25 15:55:15.85	21.29	2.87	-47.4	-52.0	7.0	3.09e-01	0	40	0	2097152	60	14452
2026-01-25 15:55:16.86	21.33	2.94	-45.1	-47.6	12.2	2.05e-03	0	40	0	8388608	60	8644
2026-01-25 15:55:17.87	21.36	3.00	-44.3	-46.4	13.5	1.22e-04	0	40	0	13631488	60	7565
2026-01-25 15:55:18.87	21.40	3.06	-42.2	-43.6	16.4	0.00e+00	0	40	0	18874368	58	6137
2026-01-25 15:55:19.88	21.44	3.13	-41.4	-42.7	17.2	0.00e+00	0	40	0	25165824	56	6223
2026-01-25 15:55:20.89	21.48	3.19	-39.3	-40.2	19.5	0.00e+00	0	40	0	30408704	52	5892
2026-01-25 15:55:21.90	21.52	3.26	-37.2	-38.0	21.8	0.00e+00	0	40	0	36700160	48	5729
2026-01-25 15:55:22.91	21.56	3.32	-38.3	-39.3	20.6	0.00e+00	0	40	0	41943040	50	5912
2026-01-25 15:55:23.92	21.60	3.39	-38.2	-39.1	20.6	0.00e+00	0	40	0	47185920	50	5777
2026-01-25 15:55:24.93	21.64	3.45	-38.9	-39.8	19.9	0.00e+00	0	40	0	53477376	50	6315
2026-01-25 15:55:25.94	21.67	3.52	-38.5	-39.4	20.3	0.00e+00	0	40	0	58720256	50	6014
2026-01-25 15:55:26.95	21.71	3.58	-40.3	-41.4	18.7	0.00e+00	0	40	0	65011712	52	6737
2026-01-25 15:55:27.96	21.75	3.65	-41.7	-43.0	16.3	0.00e+00	0	40	0	70254592	54	7234
2026-01-25 15:55:28.98	21.79	3.72	-38.0	-38.9	20.9	0.00e+00	0	40	0	75497472	50	5660
2026-01-25 15:55:29.99	21.83	3.78	-46.0	-49.4	8.8	1.10e-06	0	40	0	81788928	60	10650
2026-01-25 15:55:31.00	21.87	3.85	-48.1	-54.6	5.1	4.86e-02	0	40	0	87031808	60	19342
2026-01-25 15:55:32.01	21.91	3.91	-41.8	-43.1	16.9	0.00e+00	0	40	0	92274688	56	6470
2026-01-25 15:55:33.02	21.95	3.98	-48.6	-59.1	3.6	8.35e-01	0	40	104	96468992	60	32432
2026-01-25 15:55:34.03	22.00	4.05	-40.8	-42.0	17.2	8.14e-01	0	40	104	96468992	54	6432
2026-01-25 15:55:35.04	22.04	4.11	-40.5	-41.7	18.4	0.00e+00	0	40	0	98566144	54	6180
2026-01-25 15:55:36.04	22.08	4.18	-38.8	-39.7	20.5	0.00e+00	0	40	0	103809024	52	5540
2026-01-25 15:55:37.05	22.12	4.25	-38.3	-39.2	20.9	0.00e+00	0	40	0	110100480	50	5835
2026-01-25 15:55:38.06	22.16	4.31	-38.5	-39.5	20.7	0.00e+00	0	40	0	115343360	52	5385
2026-01-25 15:55:39.07	22.20	4.38	-39.4	-40.3	19.5	0.00e+00	0	40	0	120586240	50	6684
2026-01-25 15:55:40.08	22.24	4.45	-38.6	-39.5	20.4	0.00e+00	0	40	0	126877696	50	6041
2026-01-25 15:55:41.09	22.28	4.52	-37.8	-38.7	21.8	0.00e+00	0	40	0	132120576	50	5519
2026-01-25 15:55:42.10	22.33	4.58	-37.9	-38.8	21.2	0.00e+00	0	40	0	138412032	48	6274
2026-01-25 15:55:43.11	22.37	4.65	-38.3	-39.2	21.0	0.00e+00	0	40	0	143654912	48	6590
2026-01-25 15:55:44.12	22.41	4.72	-37.4	-38.2	21.8	0.00e+00	0	40	0	148897792	48	5885
2026-01-25 15:55:45.13	22.45	4.79	-37.6	-38.4	21.5	0.00e+00	0	40	0	155189248	48	6016
2026-01-25 15:55:46.14	22.50	4.86	-37.6	-38.5	21.6	0.00e+00	0	40	0	160432128	48	6053
2026-01-25 15:55:47.14	22.54	4.93	-37.1	-37.8	22.1	0.00e+00	0	40	0	166723584	48	5626
2026-01-25 15:55:48.15	22.58	4.99	-37.4	-38.3	21.7	0.00e+00	0	40	0	171966464	46	6645
2026-01-25 15:55:49.16	22.62	5.06	-36.4	-37.2	22.8	0.00e+00	0	40	0	177209344	46	5860
2026-01-25 15:55:50.17	22.67	5.13	-37.6	-38.5	21.6	0.00e+00	0	40	0	183500800	48	6052
2026-01-25 15:55:51.18	22.71	5.20	-36.0	-36.8	23.3	0.00e+00	0	40	0	188743680	46	5578
2026-01-25 15:55:52.19	22.75	5.27	-37.1	-38.0	22.1	0.00e+00	0	40	0	195035136	46	6393
2026-01-25 15:55:53.20	22.80	5.34	-36.8	-37.6	22.4	0.00e+00	0	40	0	200278016	46	6168
2026-01-25 15:55:54.21	22.84	5.41	-36.8	-37.5	22.4	0.00e+00	0	40	0	206569472	46	6103
2026-01-25 15:55:55.22	22.89	5.48	-36.3	-37.1	22.9	0.00e+00	0	40	0	211812352	46	5770
2026-01-25 15:55:56.23	22.93	5.55	-36.2	-36.9	23.1	0.00e+00	0	40	0	217055232	46	5664
2026-01-25 15:55:57.24	22.98	5.62	-36.9	-37.6	22.6	0.00e+00	0	40	0	223346688	46	6167
2026-01-25 15:55:58.25	23.02	5.69	-36.3	-37.0	22.8	0.00e+00	0	40	0	228589568	46	5725
2026-01-25 15:55:59.26	23.07	5.76	-36.9	-37.7	22.4	0.00e+00	0	40	0	234881024	46	6214
2026-01-25 15:56:00.27	23.11	5.83	-36.5	-37.3	22.8	0.00e+00	0	40	0	240123904	46	5898
2026-01-25 15:56:01.28	23.16	5.91	-36.8	-37.5	22.7	0.00e+00	0	40	0	245366784	46	6090
2026-01-25 15:56:02.29	23.20	5.98	-36.8	-37.6	22.6	0.00e+00	0	40	0	251658240	46	6147
2026-01-25 15:56:03.30	23.25	6.05	-36.7	-37.5	22.8	0.00e+00	0	40	0	256901120	46	6052
2026-01-25 15:56:04.31	23.29	6.12	-36.6	-37.4	22.8	0.00e+00	0	40	0	263192576	46	5980
2026-01-25 15:56:05.32	23.34	6.19	-36.5	-37.3	22.8	0.00e+00	0	40	0	268435456	46	5919
2026-01-25 15:56:06.33	23.39	6.26	-36.4	-37.2	22.9	0.00e+00	0	40	0	273678336	46	5852
2026-01-25 15:56:07.34	23.43	6.34	-36.4	-37.1	23.0	0.00e+00	0	40	0	279969792	46	5827
2026-01-25 15:56:08.35	23.48	6.41	-35.8	-36.6	23.5	0.00e+00	0	40	0	285212672	44	6110
2026-01-25 15:56:09.36	23.53	6.48	-36.4	-37.2	23.0	0.00e+00	0	40	0	291504128	44	6575
2026-01-25 15:56:10.37	23.58	6.55	-35.5	-36.3	23.8	0.00e+00	0	40	0	296747008	44	5911
2026-01-25 15:56:11.38	23.62	6.63	-35.9	-36.6	23.5	0.00e+00	0	40	0	303038464	44	6172
2026-01-25 15:56:12.39	23.67	6.70	-36.4	-37.1	23.0	0.00e+00	0	40	0	308281344	44	6526
2026-01-25 15:56:13.40	23.72	6.77	-36.1	-36.9	23.4	0.00e+00	0	40	0	314572800	44	6323
2026-01-25 15:56:14.41	23.77	6.85	-36.0	-36.8	23.4	0.00e+00	0	40	0	319815680	44	6278
2026-01-25 15:56:15.42	23.82	6.92	-36.4	-37.1	22.9	0.00e+00	0	40	0	325058560	44	6535
2026-01-25 15:56:16.43	23.86	6.99	-36.0	-36.7	23.5	0.00e+00	0	40	0	331350016	44	6232
2026-01-25 15:56:17.44	23.91	7.07	-36.0	-36.7	23.6	0.00e+00	0	40	0	336592896	44	6195
2026-01-25 15:56:18.45	23.96	7.14	-36.2	-37.0	23.3	0.00e+00	0	40	0	342884352	44	6399
2026-01-25 15:56:19.46	24.01	7.22	-35.6	-36.4	23.8	0.00e+00	0	40	0	348127232	44	5980
2026-01-25 15:56:20.47	24.06	7.29	-36.5	-37.2	23.0	0.00e+00	0	40	0	353370112	44	6612
2026-01-25 15:56:21.48	24.11	7.37	-36.5	-37.2	23.2	0.00e+00	0	40	0	359661568	46	5870
2026-01-25 15:56:22.49	24.16	7.44	-36.6	-37.4	23.0	0.00e+00	0	40	0	364904448	46	5976
2026-01-25 15:56:23.50	24.21	7.52	-36.7	-37.5	23.0	0.00e+00	0	40	0	371195904	46	6040
2026-01-25 15:56:24.51	24.26	7.59	-35.4	-36.1	24.1	0.00e+00	0	40	0	376438784	44	5806
2026-01-25 15:56:25.52	24.31	7.67	-35.9	-36.6	23.6	0.00e+00	0	40	0	381681664	44	6143
2026-01-25 15:56:26.54	24.36	7.75	-35.7	-36.4	23.8	0.00e+00	0	40	0	387973120	44	6004
2026-01-25 15:56:27.54	24.41	7.82	-35.8	-36.5	23.7	0.00e+00	0	40	0	393216000	44	6082
2026-01-25 15:56:28.56	24.47	7.90	-35.7	-36.4	23.7	0.00e+00	0	40	0	399507456	44	6020
2026-01-25 15:56:29.57	24.52	7.97	-35.7	-36.5	23.9	0.00e+00	0	40	0	404750336	44	6036
2026-01-25 15:56:30.58	24.57	8.05	-35.5	-36.2	24.0	0.00e+00	0	40	0	411041792	44	5860
2026-01-25 15:56:31.58	24.62	8.13	-35.5	-36.2	24.1	0.00e+00	0	40	0	416284672	44	5871
2026-01-25 15:56:32.59	24.67	8.21	-35.4	-36.1	24.1	0.00e+00	0	40	0	422576128	44	5790
2026-01-25 15:56:33.60	24.73	8.28	-36.0	-36.7	23.6	0.00e+00	0	40	0	427819008	44	6211
2026-01-25 15:56:34.61	24.78	8.36	-35.7	-36.4	23.9	0.00e+00	0	40	0	433061888	44	6033
2026-01-25 15:56:35.62	24.83	8.44	-35.2	-35.9	24.2	0.00e+00	0	40	0	439353344	44	5661
2026-01-25 15:56:36.63	24.89	8.52	-35.4	-36.1	24.1	0.00e+00	0	40	0	444596224	44	5826
2026-01-25 15:56:37.64	24.94	8.60	-35.8	-36.5	23.8	0.00e+00	0	40	0	450887680	44	6038
2026-01-25 15:56:38.65	24.99	8.67	-35.3	-36.0	24.2	0.00e+00	0	40	0	456130560	44	5743
2026-01-25 15:56:39.66	25.05	8.75	-35.1	-35.8	24.5	0.00e+00	0	40	0	461373440	44	5598
2026-01-25 15:56:40.67	25.10	8.83	-35.3	-36.0	24.3	0.00e+00	0	40	0	467664896	44	5749
2026-01-25 15:56:41.68	25.16	8.91	-35.7	-36.4	23.9	0.00e+00	0	40	0	472907776	44	6011
2026-01-25 15:56:42.69	25.21	8.99	-35.5	-36.2	24.0	0.00e+00	0	40	0	479199232	44	5868
2026-01-25 15:56:43.70	25.27	9.07	-35.6	-36.2	24.1	0.00e+00	0	40	0	484442112	44	5883
2026-01-25 15:56:44.71	25.32	9.15	-35.4	-36.1	24.1	0.00e+00	0	40	0	489684992	44	5797
2026-01-25 15:56:45.72	25.38	9.23	-35.3	-36.1	24.1	0.00e+00	0	40	0	495976448	44	5767
2026-01-25 15:56:46.73	25.44	9.31	-35.3	-36.0	24.3	0.00e+00	0	40	0	501219328	44	5701
2026-01-25 15:56:47.74	25.49	9.39	-35.1	-35.8	24.5	0.00e+00	0	40	0	507510784	44	5582
2026-01-25 15:56:48.74	25.55	9.47	-35.3	-36.0	24.4	0.00e+00	0	40	0	512753664	44	5709
2026-01-25 15:56:49.75	25.60	9.55	-35.2	-35.9	24.5	0.00e+00	0	40	0	519045120	44	5675
2026-01-25 15:56:50.76	25.66	9.63	-35.4	-36.1	24.2	0.00e+00	0	41	0	524288000	44	5774
2026-01-25 15:56:51.77	25.72	9.72	-35.3	-36.0	24.5	0.00e+00	0	40	0	529530880	44	5724
2026-01-25 15:56:52.78	25.78	9.80	-35.0	-35.6	24.7	0.00e+00	0	40	0	535822336	44	5497
2026-01-25 15:56:53.79	25.84	9.88	-35.4	-36.1	24.3	0.00e+00	0	40	0	541065216	44	5798
2026-01-25 15:56:54.80	25.89	9.96	-35.3	-36.0	24.4	0.00e+00	0	40	0	547356672	42	6404
2026-01-25 15:56:55.81	25.95	10.05	-35.1	-35.8	24.6	0.00e+00	0	40	0	552599552	42	6313
2026-01-25 15:56:56.82	26.01	10.13	-35.3	-36.0	24.4	0.00e+00	0	40	0	557842432	42	6459
2026-01-25 15:56:57.83	26.07	10.21	-35.4	-36.1	24.4	0.00e+00	0	40	0	564133888	42	6488
2026-01-25 15:56:58.84	26.13	10.30	-35.6	-36.3	24.1	0.00e+00	0	40	0	569376768	44	5955
2026-01-25 15:56:59.85	26.19	10.38	-34.6	-35.3	25.0	0.00e+00	0	40	0	575668224	42	5953
2026-01-25 15:57:00.86	26.25	10.46	-35.1	-35.8	24.7	0.00e+00	0	41	0	580911104	42	6309
2026-01-25 15:57:01.87	26.31	10.55	-34.8	-35.5	25.0	0.00e+00	0	41	0	586153984	42	6049
2026-01-25 15:57:02.88	26.37	10.63	-35.0	-35.7	24.7	0.00e+00	0	41	0	592445440	42	6193
2026-01-25 15:57:03.88	26.43	10.72	-35.1	-35.8	24.7	0.00e+00	0	41	0	597688320	42	6285
2026-01-25 15:57:04.90	26.50	10.80	-34.8	-35.5	24.9	0.00e+00	0	41	0	603979776	42	6081
2026-01-25 15:57:05.91	26.56	10.89	-34.9	-35.6	24.8	0.00e+00	0	40	0	609222656	42	6130
2026-01-25 15:57:06.92	26.62	10.97	-35.0	-35.7	24.8	0.00e+00	0	41	0	615514112	42	6228
2026-01-25 15:57:07.93	26.68	11.06	-34.9	-35.6	24.8	0.00e+00	0	41	0	620756992	42	6124
2026-01-25 15:57:08.94	26.75	11.14	-35.0	-35.6	24.8	0.00e+00	0	41	0	627048448	42	6153
2026-01-25 15:57:09.95	26.81	11.23	-35.1	-35.8	24.8	0.00e+00	0	41	0	632291328	42	6260
2026-01-25 15:57:10.96	26.87	11.32	-34.8	-35.5	24.9	0.00e+00	0	41	0	637534208	42	6078
2026-01-25 15:57:11.97	26.94	11.41	-34.6	-35.2	25.2	0.00e+00	0	41	0	643825664	42	5883
2026-01-25 15:57:12.98	27.00	11.49	-34.6	-35.3	25.1	0.00e+00	0	41	0	649068544	42	5948
2026-01-25 15:57:13.99	27.07	11.58	-34.5	-35.2	25.2	0.00e+00	0	40	0	655360000	42	5881
2026-01-25 15:57:15.00	27.13	11.67	-34.6	-35.3	25.1	0.00e+00	0	40	0	660602880	42	5931
2026-01-25 15:57:16.01	27.20	11.76	-34.7	-35.3	25.1	0.00e+00	0	41	0	665845760	42	5953
2026-01-25 15:57:17.02	27.26	11.84	-34.8	-35.5	24.9	0.00e+00	0	41	0	672137216	42	6047
2026-01-25 15:57:18.03	27.33	11.93	-34.9	-35.6	24.9	0.00e+00	0	41	0	677380096	42	6110
2026-01-25 15:57:19.04	27.40	12.02	-34.7	-35.4	25.1	0.00e+00	0	41	0	683671552	42	6016
2026-01-25 15:57:20.05	27.46	12.11	-34.8	-35.5	25.0	0.00e+00	0	41	0	688914432	42	6043
2026-01-25 15:57:21.06	27.53	12.20	-34.8	-35.4	24.9	0.00e+00	0	41	0	694157312	42	6025
2026-01-25 15:57:22.07	27.60	12.29	-34.7	-35.4	25.0	0.00e+00	0	41	0	700448768	42	6032
2026-01-25 15:57:23.08	27.67	12.38	-34.7	-35.4	25.0	0.00e+00	0	41	0	705691648	42	6019
2026-01-25 15:57:24.09	27.74	12.47	-35.0	-35.7	24.8	0.00e+00	0	41	0	711983104	42	6207
2026-01-25 15:57:25.10	27.81	12.56	-34.9	-35.5	24.9	0.00e+00	0	41	0	717225984	42	6102
2026-01-25 15:57:26.11	27.87	12.65	-34.8	-35.5	25.0	0.00e+00	0	41	0	723517440	42	6068
2026-01-25 15:57:27.12	27.94	12.74	-34.5	-35.2	25.3	0.00e+00	0	41	0	728760320	42	5862
2026-01-25 15:57:28.13	28.01	12.84	-34.6	-35.3	25.2	0.00e+00	0	41	0	734003200	42	5934
2026-01-25 15:57:29.14	28.08	12.93	-34.8	-35.4	25.0	0.00e+00	0	41	0	740294656	42	6019
2026-01-25 15:57:30.15	28.16	13.02	-34.8	-35.5	25.1	0.00e+00	0	41	0	745537536	42	6046
2026-01-25 15:57:31.16	28.23	13.11	-34.6	-35.3	25.2	0.00e+00	0	41	0	751828992	42	5931
2026-01-25 15:57:32.17	28.30	13.21	-34.6	-35.3	25.2	0.00e+00	0	41	0	757071872	42	5922
2026-01-25 15:57:33.18	28.37	13.30	-34.8	-35.5	25.0	0.00e+00	0	41	0	762314752	42	6064
2026-01-25 15:57:34.19	28.44	13.39	-34.6	-35.2	25.2	0.00e+00	0	41	0	768606208	42	5892
2026-01-25 15:57:35.20	28.52	13.49	-34.3	-35.0	25.5	0.00e+00	0	41	0	773849088	42	5703
2026-01-25 15:57:36.21	28.59	13.58	-34.4	-35.0	25.3	0.00e+00	0	41	0	780140544	42	5756
2026-01-25 15:57:37.22	28.66	13.68	-34.1	-34.8	25.7	0.00e+00	0	41	0	785383424	42	5568
2026-01-25 15:57:38.23	28.74	13.77	-34.0	-34.7	25.7	0.00e+00	0	41	0	790626304	42	5532
2026-01-25 15:57:39.24	28.81	13.87	-34.1	-34.7	25.7	0.00e+00	0	41	0	796917760	42	5554
2026-01-25 15:57:40.25	28.89	13.96	-34.1	-34.7	25.7	0.00e+00	0	41	0	802160640	42	5544
2026-01-25 15:57:41.26	28.96	14.06	-34.2	-34.8	25.6	0.00e+00	0	41	0	808452096	42	5612
2026-01-25 15:57:42.27	29.04	14.15	-34.2	-34.9	25.6	0.00e+00	0	41	0	813694976	42	5640
2026-01-25 15:57:43.28	29.12	14.25	-34.3	-35.0	25.6	0.00e+00	0	41	0	819986432	42	5706
2026-01-25 15:57:44.29	29.20	14.35	-34.3	-35.0	25.6	0.00e+00	0	41	0	825229312	42	5703
2026-01-25 15:57:45.30	29.27	14.45	-33.8	-34.5	26.0	0.00e+00	0	41	0	831520768	42	5399
2026-01-25 15:57:46.31	29.35	14.54	-33.8	-34.5	25.9	0.00e+00	0	41	0	836763648	42	5407
2026-01-25 15:57:47.32	29.43	14.64	-34.0	-34.6	25.8	0.00e+00	0	41	0	842006528	42	5501
2026-01-25 15:57:48.33	29.51	14.74	-33.9	-34.6	25.9	0.00e+00	0	41	0	848297984	42	5455
2026-01-25 15:57:49.34	29.59	14.84	-34.1	-34.8	25.7	0.00e+00	0	41	0	853540864	42	5583
2026-01-25 15:57:50.35	29.67	14.94	-33.8	-34.5	26.0	0.00e+00	0	41	0	859832320	42	5400
2026-01-25 15:57:51.36	29.75	15.04	-33.7	-34.3	26.1	0.00e+00	0	41	0	865075200	40	5959
2026-01-25 15:57:52.37	29.83	15.14	-33.6	-34.3	26.1	0.00e+00	0	41	0	870318080	40	5904
2026-01-25 15:57:53.38	29.91	15.24	-33.6	-34.3	26.1	0.00e+00	0	41	0	876609536	40	5897
2026-01-25 15:57:54.39	29.99	15.34	-33.6	-34.3	26.1	0.00e+00	0	41	0	881852416	40	5902
2026-01-25 15:57:55.40	30.08	15.44	-33.7	-34.4	26.0	0.00e+00	0	41	0	888143872	40	5988
2026-01-25 15:57:56.41	30.16	15.54	-33.8	-34.5	26.0	0.00e+00	0	41	0	893386752	40	6039
2026-01-25 15:57:57.42	30.24	15.64	-33.6	-34.3	26.1	0.00e+00	0	41	0	898629632	40	5913
2026-01-25 15:57:58.43	30.33	15.74	-33.7	-34.3	26.1	0.00e+00	0	41	0	904921088	40	5945
2026-01-25 15:57:59.44	30.41	15.84	-33.5	-34.1	26.2	0.00e+00	0	41	0	910163968	40	5825
2026-01-25 15:58:00.45	30.50	15.95	-33.5	-34.1	26.2	0.00e+00	0	41	0	916455424	40	5827
2026-01-25 15:58:01.46	30.58	16.05	-33.4	-34.0	26.3	0.00e+00	0	41	0	921698304	40	5749
2026-01-25 15:58:02.47	30.67	16.15	-33.4	-34.1	26.3	0.00e+00	0	41	0	927989760	40	5777
2026-01-25 15:58:03.48	30.76	16.26	-33.4	-34.0	26.4	0.00e+00	0	41	0	933232640	40	5726
2026-01-25 15:58:04.49	30.85	16.36	-33.2	-33.9	26.5	0.00e+00	0	41	0	938475520	40	5664
2026-01-25 15:58:05.50	30.93	16.47	-33.5	-34.1	26.3	0.00e+00	0	41	0	944766976	40	5825
2026-01-25 15:58:06.51	31.02	16.57	-33.5	-34.2	26.3	0.00e+00	0	41	0	950009856	40	5843
2026-01-25 15:58:07.51	31.11	16.68	-33.3	-34.0	26.4	0.00e+00	0	41	0	956301312	40	5711
2026-01-25 15:58:08.52	31.20	16.78	-33.4	-34.1	26.4	0.00e+00	0	41	0	961544192	40	5772
2026-01-25 15:58:09.53	31.29	16.89	-33.3	-33.9	26.4	0.00e+00	0	41	0	966787072	40	5682
2026-01-25 15:58:10.54	31.38	17.00	-33.3	-33.9	26.4	0.00e+00	0	41	0	973078528	40	5672
2026-01-25 15:58:11.55	31.47	17.10	-33.3	-33.9	26.4	0.00e+00	0	41	0	978321408	40	5687
2026-01-25 15:58:12.56	31.57	17.21	-33.3	-33.9	26.5	0.00e+00	0	41	0	984612864	40	5686
2026-01-25 15:58:13.57	31.66	17.32	-33.3	-34.0	26.4	0.00e+00	0	41	0	989855744	40	5715
2026-01-25 15:58:14.58	31.75	17.43	-33.1	-33.8	26.6	0.00e+00	0	41	0	995098624	40	5583
2026-01-25 15:58:15.59	31.85	17.53	-33.0	-33.7	26.6	0.00e+00	0	41	0	1001390080	40	5543
2026-01-25 15:58:16.60	31.94	17.64	-32.9	-33.5	26.8	0.00e+00	0	41	0	1006632960	40	5436
2026-01-25 15:58:17.61	32.04	17.75	-32.9	-33.5	26.8	0.00e+00	0	41	0	1012924416	40	5401
2026-01-25 15:58:18.62	32.13	17.86	-32.8	-33.5	26.9	0.00e+00	0	41	0	1018167296	38	6068
2026-01-25 15:58:19.63	32.23	17.97	-32.8	-33.4	26.9	0.00e+00	0	41	0	1024458752	38	6012
2026-01-25 15:58:20.64	32.33	18.08	-32.7	-33.4	26.9	0.00e+00	0	41	0	1029701632	38	5966
2026-01-25 15:58:21.65	32.43	18.20	-32.8	-33.4	26.9	0.00e+00	0	41	0	1035993088	38	6020
2026-01-25 15:58:22.66	32.53	18.31	-32.8	-33.4	27.0	0.00e+00	0	41	0	1041235968	38	6011
2026-01-25 15:58:23.67	32.63	18.42	-32.8	-33.5	26.9	0.00e+00	0	41	0	1046478848	38	6039
2026-01-25 15:58:24.68	32.73	18.53	-32.9	-33.6	26.8	0.00e+00	0	41	0	1052770304	38	6115
2026-01-25 15:58:25.69	32.83	18.64	-32.8	-33.4	26.9	0.00e+00	0	41	0	1058013184	38	6019
2026-01-25 15:58:26.70	32.93	18.76	-32.9	-33.6	26.8	0.00e+00	0	41	0	1064304640	38	6122
2026-01-25 15:58:27.71	33.03	18.87	-32.8	-33.4	26.9	0.00e+00	0	41	0	1069547520	38	6012
2026-01-25 15:58:28.72	33.14	18.99	-32.8	-33.5	26.9	0.00e+00	0	41	0	1074790400	38	6045
2026-01-25 15:58:29.73	33.24	19.10	-32.9	-33.6	26.9	0.00e+00	0	41	0	1081081856	38	6104
2026-01-25 15:58:30.74	33.34	19.22	-32.8	-33.5	27.0	0.00e+00	0	41	0	1086324736	38	6042
2026-01-25 15:58:31.75	33.45	19.33	-32.8	-33.4	27.0	0.00e+00	0	41	0	1092616192	38	6012
2026-01-25 15:58:32.76	33.56	19.45	-32.7	-33.4	27.0	0.00e+00	0	41	0	1097859072	38	5972
2026-01-25 15:58:33.77	33.66	19.56	-32.6	-33.3	27.1	0.00e+00	0	41	0	1103101952	38	5912
2026-01-25 15:58:34.78	33.77	19.68	-32.8	-33.4	26.9	0.00e+00	0	41	0	1109393408	38	5985
2026-01-25 15:58:35.79	33.88	19.80	-32.7	-33.3	27.0	0.00e+00	0	41	0	1114636288	38	5941
2026-01-25 15:58:36.80	33.99	19.92	-32.5	-33.1	27.1	0.00e+00	0	41	0	1120927744	38	5800
2026-01-25 15:58:37.81	34.10	20.03	-32.8	-33.4	26.9	0.00e+00	0	41	0	1126170624	38	6003
2026-01-25 15:58:38.82	34.21	20.15	-32.8	-33.4	26.9	0.00e+00	0	41	0	1132462080	38	6008
2026-01-25 15:58:39.83	34.32	20.27	-32.5	-33.1	27.2	0.00e+00	0	41	0	1137704960	38	5796
2026-01-25 15:58:40.84	34.44	20.39	-32.7	-33.3	27.0	0.00e+00	0	41	0	1143996416	38	5934
2026-01-25 15:58:41.85	34.55	20.51	-32.6	-33.3	27.1	0.00e+00	0	41	0	1149239296	38	5902
2026-01-25 15:58:42.86	34.66	20.63	-32.7	-33.3	27.0	0.00e+00	0	41	0	1154482176	38	5920
2026-01-25 15:58:43.87	34.78	20.75	-32.7	-33.4	26.9	0.00e+00	0	41	0	1160773632	38	5992
2026-01-25 15:58:44.88	34.90	20.88	-32.8	-33.4	27.1	0.00e+00	0	41	0	1166016512	38	5980
2026-01-25 15:58:45.89	35.01	21.00	-32.8	-33.4	27.0	0.00e+00	0	41	0	1171259392	38	6025
2026-01-25 15:58:46.90	35.13	21.12	-32.7	-33.4	27.0	0.00e+00	0	41	0	1177550848	38	5997
2026-01-25 15:58:47.91	35.25	21.24	-32.7	-33.4	27.0	0.00e+00	0	41	0	1182793728	38	5986
2026-01-25 15:58:48.92	35.37	21.37	-32.6	-33.3	27.0	0.00e+00	0	41	0	1189085184	38	5905
2026-01-25 15:58:49.93	35.49	21.49	-32.6	-33.2	27.2	0.00e+00	0	41	0	1194328064	38	5891
2026-01-25 15:58:50.94	35.61	21.62	-32.7	-33.3	27.1	0.00e+00	0	41	0	1199570944	38	5923
2026-01-25 15:58:51.95	35.74	21.74	-32.7	-33.3	27.0	0.00e+00	0	41	0	1205862400	38	5919
2026-01-25 15:58:52.96	35.86	21.87	-32.4	-33.0	27.3	0.00e+00	0	41	0	1211105280	38	5743
2026-01-25 15:58:53.97	35.98	21.99	-32.4	-33.0	27.3	0.00e+00	0	41	0	1217396736	38	5756
2026-01-25 15:58:54.98	36.11	22.12	-32.4	-33.0	27.3	0.00e+00	0	41	0	1222639616	38	5755
2026-01-25 15:58:55.98	36.23	22.24	-32.3	-33.0	27.3	0.00e+00	0	41	0	1228931072	38	5696
2026-01-25 15:58:56.99	36.36	22.37	-32.3	-32.9	27.3	0.00e+00	0	41	0	1234173952	38	5658
2026-01-25 15:58:58.00	36.49	22.50	-32.3	-33.0	27.3	0.00e+00	0	41	0	1240465408	38	5707
2026-01-25 15:58:59.01	36.62	22.63	-32.0	-32.6	27.6	0.00e+00	0	41	0	1245708288	38	5466
2026-01-25 15:59:00.02	36.75	22.76	-32.0	-32.6	27.6	0.00e+00	0	41	0	1250951168	38	5489
2026-01-25 15:59:01.03	36.88	22.89	-31.9	-32.5	27.7	0.00e+00	0	41	0	1257242624	38	5416
2026-01-25 15:59:02.04	37.02	23.02	-32.0	-32.7	27.6	0.00e+00	0	41	0	1262485504	38	5504
2026-01-25 15:59:03.05	37.15	23.15	-32.0	-32.6	27.6	0.00e+00	0	41	0	1268776960	38	5475
2026-01-25 15:59:04.06	37.28	23.28	-31.9	-32.6	27.6	0.00e+00	0	41	0	1274019840	38	5452
2026-01-25 15:59:05.07	37.42	23.41	-32.0	-32.6	27.6	0.00e+00	0	41	0	1279262720	38	5499
2026-01-25 15:59:06.08	37.56	23.54	-32.1	-32.7	27.5	0.00e+00	0	41	0	1285554176	38	5543
2026-01-25 15:59:07.08	37.69	23.67	-32.1	-32.8	27.6	0.00e+00	0	41	0	1290797056	38	5587
2026-01-25 15:59:08.09	37.83	23.81	-32.1	-32.7	27.5	0.00e+00	0	41	0	1297088512	38	5539
2026-01-25 15:59:09.10	37.97	23.94	-31.8	-32.4	27.8	0.00e+00	0	41	0	1302331392	38	5365
2026-01-25 15:59:10.11	38.12	24.07	-31.8	-32.4	27.7	0.00e+00	0	41	0	1307574272	38	5371
2026-01-25 15:59:11.12	38.26	24.21	-31.7	-32.3	27.8	0.00e+00	0	41	0	1313865728	36	5952
2026-01-25 15:59:12.13	38.40	24.34	-31.6	-32.3	27.9	0.00e+00	0	41	0	1319108608	36	5917
2026-01-25 15:59:13.14	38.55	24.48	-31.5	-32.1	28.0	0.00e+00	0	41	0	1325400064	36	5790
2026-01-25 15:59:14.15	38.69	24.62	-31.6	-32.2	27.9	0.00e+00	0	41	0	1330642944	36	5884
2026-01-25 15:59:15.16	38.84	24.75	-31.6	-32.2	28.0	0.00e+00	0	41	0	1336934400	36	5881
2026-01-25 15:59:16.17	38.99	24.89	-31.4	-32.0	28.0	0.00e+00	0	41	0	1342177280	36	5726
2026-01-25 15:59:17.18	39.14	25.03	-31.6	-32.2	27.9	0.00e+00	0	41	0	1347420160	36	5870
2026-01-25 15:59:18.18	39.29	25.17	-31.6	-32.2	27.9	0.00e+00	0	41	0	1353711616	36	5861
2026-01-25 15:59:19.20	39.45	25.31	-31.7	-32.3	27.8	0.00e+00	0	41	0	1358954496	36	5963
2026-01-25 15:59:20.21	39.60	25.45	-31.8	-32.5	27.7	0.00e+00	0	41	0	1365245952	36	6047
2026-01-25 15:59:21.22	39.76	25.59	-31.6	-32.3	27.9	0.00e+00	0	41	0	1370488832	36	5913
2026-01-25 15:59:22.23	39.91	25.73	-31.8	-32.4	27.8	0.00e+00	0	41	0	1375731712	36	5969
2026-01-25 15:59:23.24	40.07	25.87	-31.6	-32.3	27.9	0.00e+00	0	41	0	1382023168	36	5904
2026-01-25 15:59:24.25	40.23	26.01	-31.7	-32.4	27.9	0.00e+00	0	41	0	1387266048	36	5969
2026-01-25 15:59:25.26	40.39	26.15	-31.8	-32.4	27.8	0.00e+00	0	41	0	1393557504	36	6015
2026-01-25 15:59:26.27	40.55	26.29	-32.0	-32.6	27.6	0.00e+00	0	41	0	1398800384	36	6166
2026-01-25 15:59:27.27	40.72	26.43	-32.0	-32.6	27.7	0.00e+00	0	41	0	1404043264	36	6157
2026-01-25 15:59:28.28	40.88	26.58	-31.8	-32.4	27.8	0.00e+00	0	41	0	1410334720	36	6017
2026-01-25 15:59:29.29	41.05	26.72	-31.6	-32.2	28.0	0.00e+00	0	41	0	1415577600	36	5877
2026-01-25 15:59:30.30	41.22	26.87	-31.5	-32.1	28.0	0.00e+00	0	41	0	1421869056	36	5789
2026-01-25 15:59:31.31	41.39	27.01	-31.3	-31.9	28.2	0.00e+00	0	41	0	1427111936	36	5653
2026-01-25 15:59:32.32	41.56	27.16	-31.3	-31.9	28.2	0.00e+00	0	41	0	1433403392	36	5636
2026-01-25 15:59:33.33	41.73	27.30	-31.1	-31.8	28.2	0.00e+00	0	41	0	1438646272	36	5569
2026-01-25 15:59:34.34	41.90	27.45	-31.2	-31.9	28.2	0.00e+00	0	41	0	1443889152	36	5640
2026-01-25 15:59:35.35	42.08	27.60	-31.3	-31.9	28.1	0.00e+00	0	41	0	1450180608	36	5680
2026-01-25 15:59:36.36	42.26	27.75	-31.3	-31.9	28.3	0.00e+00	0	41	0	1455423488	36	5649
2026-01-25 15:59:37.37	42.44	27.89	-31.3	-31.9	28.2	0.00e+00	0	41	0	1461714944	36	5664
2026-01-25 15:59:38.38	42.62	28.04	-31.4	-32.0	28.1	0.00e+00	0	41	0	1466957824	36	5741
2026-01-25 15:59:39.38	42.80	28.19	-31.4	-32.0	28.0	0.00e+00	0	41	0	1472200704	36	5733
2026-01-25 15:59:40.39	42.98	28.34	-31.3	-32.0	28.0	0.00e+00	0	41	0	1478492160	36	5719
2026-01-25 15:59:41.40	43.17	28.49	-31.3	-32.0	28.1	0.00e+00	0	41	0	1483735040	36	5698
2026-01-25 15:59:42.41	43.35	28.64	-31.4	-32.0	28.1	0.00e+00	0	41	0	1490026496	36	5759
2026-01-25 15:59:43.42	43.54	28.79	-31.4	-32.0	28.1	0.00e+00	0	41	0	1495269376	36	5741
2026-01-25 15:59:44.44	43.74	28.95	-31.5	-32.1	28.0	0.00e+00	0	41	0	1500512256	36	5811
2026-01-25 15:59:45.44	43.93	29.10	-31.4	-32.0	28.1	0.00e+00	0	41	0	1506803712	36	5759
2026-01-25 15:59:46.45	44.12	29.25	-31.4	-32.0	28.1	0.00e+00	0	41	0	1512046592	36	5737
2026-01-25 15:59:47.47	44.32	29.40	-31.3	-32.0	28.2	0.00e+00	0	41	0	1518338048	36	5709
2026-01-25 15:59:48.48	44.52	29.56	-31.4	-32.0	28.1	0.00e+00	0	41	0	1523580928	36	5733
2026-01-25 15:59:49.48	44.71	29.71	-31.4	-32.0	28.1	0.00e+00	0	41	0	1529872384	36	5726
2026-01-25 15:59:50.49	44.92	29.87	-31.4	-32.1	28.0	0.00e+00	0	41	0	1535115264	36	5763
2026-01-25 15:59:51.50	45.12	30.02	-31.3	-31.8	28.2	0.00e+00	0	41	0	1541406720	36	5624
2026-01-25 15:59:52.51	45.33	30.18	-31.3	-31.9	28.2	0.00e+00	0	41	0	1546649600	36	5695
2026-01-25 15:59:53.52	45.53	30.33	-31.3	-31.9	28.1	0.00e+00	0	41	0	1551892480	36	5637
2026-01-25 15:59:54.53	45.74	30.49	-31.3	-31.9	28.1	0.00e+00	0	41	0	1558183936	36	5694
2026-01-25 15:59:55.54	45.95	30.65	-31.4	-32.1	28.2	0.00e+00	0	41	0	1563426816	36	5763
2026-01-25 15:59:56.55	46.17	30.80	-31.3	-32.0	28.2	0.00e+00	0	41	0	1569718272	36	5702
2026-01-25 15:59:57.56	46.38	30.96	-31.2	-31.9	28.3	0.00e+00	0	41	0	1574961152	36	5635
2026-01-25 15:59:58.57	46.60	31.12	-31.2	-31.8	28.2	0.00e+00	0	41	0	1580204032	36	5612
2026-01-25 15:59:59.58	46.82	31.28	-31.1	-31.7	28.4	0.00e+00	0	41	0	1586495488	36	5545
2026-01-25 16:00:00.59	47.04	31.44	-31.0	-31.6	28.4	0.00e+00	0	41	0	1591738368	36	5483
2026-01-25 16:00:01.60	47.27	31.60	-31.1	-31.7	28.3	0.00e+00	0	41	0	1598029824	36	5552
2026-01-25 16:00:02.61	47.49	31.76	-31.1	-31.7	28.4	0.00e+00	0	41	0	1603272704	36	5535
2026-01-25 16:00:03.62	47.72	31.92	-31.1	-31.7	28.4	0.00e+00	0	41	0	1608515584	36	5541
2026-01-25 16:00:04.63	47.95	32.08	-31.4	-32.0	28.2	0.00e+00	0	41	0	1614807040	36	5724
2026-01-25 16:00:05.64	48.18	32.24	-31.3	-31.9	28.2	0.00e+00	0	41	0	1620049920	36	5664
2026-01-25 16:00:06.65	48.42	32.40	-31.4	-32.0	28.1	0.00e+00	0	41	0	1626341376	36	5746
2026-01-25 16:00:07.66	48.66	32.56	-31.4	-32.0	28.2	0.00e+00	0	41	0	1631584256	36	5738
2026-01-25 16:00:08.67	48.90	32.73	-31.5	-32.2	28.0	0.00e+00	0	41	0	1637875712	36	5830
2026-01-25 16:00:09.68	49.14	32.89	-31.4	-32.0	28.2	0.00e+00	0	41	0	1643118592	36	5699
2026-01-25 16:00:10.69	49.38	33.05	-31.3	-31.9	28.2	0.00e+00	0	41	0	1649410048	36	5650
2026-01-25 16:00:11.70	49.63	33.21	-31.2	-31.8	28.3	0.00e+00	0	41	0	1654652928	36	5609
2026-01-25 16:00:12.71	49.88	33.38	-31.3	-31.9	28.2	0.00e+00	0	41	0	1659895808	36	5658
2026-01-25 16:00:13.72	50.13	33.54	-31.0	-31.7	28.4	0.00e+00	0	41	0	1666187264	36	5521
2026-01-25 16:00:14.73	50.39	33.70	-30.9	-31.5	28.6	0.00e+00	0	41	0	1671430144	36	5395
2026-01-25 16:00:15.74	50.64	33.87	-31.0	-31.7	28.4	0.00e+00	0	41	0	1677721600	36	5511
2026-01-25 16:00:16.75	50.90	34.03	-31.2	-31.8	28.3	0.00e+00	0	41	0	1682964480	36	5597
2026-01-25 16:00:17.76	51.16	34.20	-31.4	-32.1	28.1	0.00e+00	0	41	0	1688207360	36	5767
2026-01-25 16:00:18.77	51.43	34.36	-31.3	-31.9	28.2	0.00e+00	0	41	0	1694498816	36	5684
2026-01-25 16:00:19.78	51.70	34.53	-31.4	-32.0	28.2	0.00e+00	0	41	0	1699741696	36	5724
2026-01-25 16:00:20.79	51.97	34.69	-31.1	-31.7	28.3	0.00e+00	0	41	0	1704984576	36	5542
2026-01-25 16:00:21.80	52.24	34.86	-31.2	-31.8	28.4	0.00e+00	0	41	0	1711276032	36	5604
2026-01-25 16:00:22.81	52.51	35.03	-31.3	-31.9	28.4	0.00e+00	0	41	0	1716518912	36	5650
2026-01-25 16:00:23.82	52.79	35.19	-31.0	-31.7	28.4	0.00e+00	0	41	0	1722810368	36	5504
2026-01-25 16:00:24.82	53.07	35.36	-31.2	-31.9	28.3	0.00e+00	0	41	0	1728053248	36	5635
2026-01-25 16:00:25.83	53.35	35.52	-31.3	-31.9	28.2	0.00e+00	0	41	0	1734344704	36	5658
2026-01-25 16:00:26.84	53.64	35.69	-31.2	-31.8	28.3	0.00e+00	0	41	0	1739587584	36	5612
2026-01-25 16:00:27.85	53.93	35.85	-31.1	-31.8	28.3	0.00e+00	0	41	0	1745879040	36	5578
2026-01-25 16:00:28.86	54.22	36.02	-31.0	-31.7	28.4	0.00e+00	0	41	0	1751121920	36	5508
2026-01-25 16:00:29.87	54.52	36.19	-31.0	-31.6	28.5	0.00e+00	0	41	0	1756364800	36	5451
2026-01-25 16:00:30.88	54.82	36.35	-30.8	-31.5	28.5	0.00e+00	0	41	0	1762656256	36	5382
2026-01-25 16:00:31.89	55.12	36.52	-30.8	-31.4	28.5	0.00e+00	0	41	0	1767899136	36	5348
2026-01-25 16:00:32.90	55.42	36.69	-30.8	-31.5	28.6	0.00e+00	0	41	0	1774190592	36	5385
2026-01-25 16:00:33.91	55.73	36.85	-30.8	-31.4	28.7	0.00e+00	0	41	0	1779433472	34	6025
2026-01-25 16:00:34.92	56.04	37.02	-30.9	-31.5	28.5	0.00e+00	0	41	0	1784676352	34	6049
2026-01-25 16:00:35.93	56.35	37.19	-31.1	-31.7	28.5	0.00e+00	0	41	0	1790967808	34	6204
2026-01-25 16:00:36.94	56.67	37.35	-31.1	-31.7	28.4	0.00e+00	0	41	0	1796210688	34	6236
2026-01-25 16:00:37.95	56.99	37.52	-31.0	-31.6	28.5	0.00e+00	0	41	0	1802502144	34	6134
2026-01-25 16:00:38.96	57.32	37.68	-30.8	-31.4	28.6	0.00e+00	0	41	0	1807745024	34	6016
2026-01-25 16:00:39.96	57.64	37.85	-30.9	-31.5	28.5	0.00e+00	0	41	0	1812987904	34	6068
2026-01-25 16:00:40.97	57.97	38.01	-30.7	-31.3	28.7	0.00e+00	0	41	0	1819279360	34	5938
2026-01-25 16:00:41.98	58.30	38.18	-30.9	-31.5	28.5	0.00e+00	0	41	0	1824522240	34	6081
2026-01-25 16:00:42.99	58.64	38.34	-30.8	-31.5	28.5	0.00e+00	0	41	0	1830813696	34	6044
2026-01-25 16:00:44.00	58.98	38.51	-30.8	-31.4	28.6	0.00e+00	0	41	0	1836056576	34	5987
2026-01-25 16:00:45.01	59.32	38.67	-30.9	-31.5	28.6	0.00e+00	0	41	0	1842348032	34	6050
2026-01-25 16:00:46.02	59.67	38.84	-31.0	-31.7	28.4	0.00e+00	0	41	0	1847590912	34	6184
2026-01-25 16:00:47.03	60.02	39.00	-31.1	-31.7	28.3	0.00e+00	0	41	0	1852833792	34	6245
2026-01-25 16:00:48.04	60.37	39.16	-31.2	-31.8	28.3	0.00e+00	0	41	0	1859125248	34	6265
2026-01-25 16:00:49.05	60.73	39.33	-31.0	-31.6	28.4	0.00e+00	0	41	0	1864368128	34	6126
2026-01-25 16:00:50.06	61.09	39.49	-31.0	-31.6	28.5	0.00e+00	0	41	0	1870659584	34	6148
2026-01-25 16:00:51.07	61.46	39.65	-31.1	-31.7	28.4	0.00e+00	0	41	0	1875902464	34	6205
2026-01-25 16:00:52.08	61.82	39.81	-31.0	-31.6	28.3	0.00e+00	0	41	0	1881145344	34	6138
2026-01-25 16:00:53.09	62.20	39.97	-31.0	-31.6	28.4	0.00e+00	0	41	0	1887436800	34	6149
2026-01-25 16:00:54.10	62.57	40.13	-31.0	-31.6	28.3	0.00e+00	0	41	0	1892679680	34	6164
2026-01-25 16:00:55.11	62.95	40.29	-31.2	-31.8	28.2	0.00e+00	0	41	0	1898971136	34	6297
2026-01-25 16:00:56.12	63.33	40.45	-30.8	-31.4	28.5	0.00e+00	0	41	0	1904214016	34	6006
2026-01-25 16:00:57.12	63.72	40.61	-30.9	-31.6	28.4	0.00e+00	0	41	0	1909456896	34	6113
2026-01-25 16:00:58.14	64.11	40.77	-31.1	-31.7	28.4	0.00e+00	0	41	0	1915748352	34	6214
2026-01-25 16:00:59.14	64.50	40.92	-30.8	-31.4	28.4	0.00e+00	0	41	0	1920991232	34	6011
2026-01-25 16:01:00.15	64.90	41.08	-30.8	-31.4	28.6	0.00e+00	0	41	0	1927282688	34	6009
2026-01-25 16:01:01.16	65.30	41.24	-30.8	-31.4	28.6	0.00e+00	0	41	0	1932525568	34	6015
2026-01-25 16:01:02.17	65.70	41.39	-30.9	-31.5	28.5	0.00e+00	0	41	0	1938817024	34	6051
2026-01-25 16:01:03.18	66.11	41.54	-30.9	-31.5	28.5	0.00e+00	0	41	0	1944059904	34	6082
2026-01-25 16:01:04.19	66.53	41.69	-30.8	-31.4	28.6	0.00e+00	0	41	0	1950351360	34	5987
2026-01-25 16:01:05.20	66.94	41.85	-30.9	-31.5	28.5	0.00e+00	0	41	0	1955594240	34	6040
2026-01-25 16:01:06.21	67.36	42.00	-30.9	-31.5	28.6	0.00e+00	0	41	0	1960837120	34	6066
2026-01-25 16:01:07.22	67.79	42.15	-31.0	-31.6	28.5	0.00e+00	0	41	0	1967128576	34	6105
2026-01-25 16:01:08.23	68.22	42.29	-31.1	-31.7	28.4	0.00e+00	0	41	0	1972371456	34	6180
2026-01-25 16:01:09.24	68.65	42.44	-31.0	-31.6	28.5	0.00e+00	0	41	0	1978662912	34	6160
2026-01-25 16:01:10.25	69.09	42.59	-31.0	-31.6	28.4	0.00e+00	0	41	0	1983905792	34	6165
2026-01-25 16:01:11.26	69.53	42.73	-31.0	-31.6	28.5	0.00e+00	0	41	0	1989148672	34	6166
2026-01-25 16:01:12.27	69.97	42.87	-31.2	-31.8	28.3	0.00e+00	0	41	0	1995440128	34	6260
2026-01-25 16:01:13.28	70.42	43.02	-31.3	-31.9	28.2	0.00e+00	0	41	0	2000683008	34	6325
2026-01-25 16:01:14.29	70.87	43.16	-31.3	-31.9	28.2	0.00e+00	0	41	0	2006974464	34	6374
2026-01-25 16:01:15.30	71.33	43.29	-31.3	-32.0	28.2	0.00e+00	0	41	0	2012217344	34	6394
2026-01-25 16:01:16.31	71.79	43.43	-31.3	-31.9	28.1	0.00e+00	0	41	0	2017460224	34	6385
2026-01-25 16:01:17.32	72.25	43.57	-31.2	-31.8	28.2	0.00e+00	0	41	0	2023751680	34	6248
2026-01-25 16:01:18.34	72.72	43.70	-30.9	-31.6	28.4	0.00e+00	0	41	0	2028994560	34	6122
2026-01-25 16:01:19.35	73.20	43.84	-31.1	-31.7	28.4	0.00e+00	0	41	0	2035286016	34	6219
2026-01-25 16:01:20.36	73.67	43.97	-31.4	-32.0	28.1	0.00e+00	0	41	0	2040528896	34	6448
2026-01-25 16:01:21.37	74.15	44.10	-31.5	-32.2	28.0	0.00e+00	0	41	0	2046820352	34	6546
2026-01-25 16:01:22.37	74.63	44.22	-31.4	-32.1	28.1	0.00e+00	0	41	0	2052063232	34	6520
2026-01-25 16:01:23.38	75.12	44.35	-31.4	-32.0	28.2	0.00e+00	0	41	0	2057306112	34	6431
2026-01-25 16:01:24.39	75.61	44.47	-31.5	-32.2	28.0	0.00e+00	0	41	0	2063597568	34	6558
2026-01-25 16:01:25.41	76.11	44.59	-31.6	-32.2	28.0	0.00e+00	0	41	0	2068840448	34	6589
2026-01-25 16:01:26.42	76.60	44.71	-31.3	-31.9	28.2	0.00e+00	0	41	0	2075131904	34	6323
2026-01-25 16:01:27.42	77.10	44.83	-31.1	-31.8	28.3	0.00e+00	0	41	0	2080374784	34	6257
2026-01-25 16:01:28.43	77.61	44.95	-31.1	-31.7	28.3	0.00e+00	0	41	0	2085617664	34	6236
2026-01-25 16:01:29.44	78.12	45.06	-31.1	-31.7	28.3	0.00e+00	0	41	0	2091909120	34	6232
2026-01-25 16:01:30.45	78.63	45.17	-31.1	-31.7	28.3	0.00e+00	0	41	0	2097152000	34	6210
2026-01-25 16:01:31.45	79.14	45.28	-31.1	-31.7	28.4	0.00e+00	0	41	0	2103443456	34	6232
2026-01-25 16:01:32.46	79.66	45.39	-31.4	-32.0	28.1	0.00e+00	0	41	0	2108686336	34	6404
2026-01-25 16:01:33.47	80.18	45.49	-31.6	-32.3	27.9	0.00e+00	0	41	0	2113929216	34	6624
2026-01-25 16:01:34.48	80.71	45.60	-31.6	-32.3	27.9	0.00e+00	0	41	0	2120220672	36	5902
2026-01-25 16:01:35.49	81.24	45.70	-31.5	-32.1	28.0	0.00e+00	0	41	0	2125463552	36	5798
2026-01-25 16:01:36.50	81.78	45.79	-31.4	-32.0	28.2	0.00e+00	0	41	0	2131755008	36	5704
2026-01-25 16:01:37.51	82.31	45.89	-31.3	-32.0	28.2	0.00e+00	0	41	0	2136997888	36	5710
2026-01-25 16:01:38.52	82.85	45.98	-31.3	-32.0	28.1	0.00e+00	0	41	0	2143289344	36	5706
2026-01-25 16:01:39.53	83.40	46.07	-31.5	-32.1	28.0	0.00e+00	0	41	0	2148532224	36	5802
2026-01-25 16:01:40.54	83.94	46.16	-31.7	-32.3	27.9	0.00e+00	0	41	0	2153775104	36	5898
2026-01-25 16:01:41.54	84.49	46.25	-31.5	-32.1	28.1	0.00e+00	0	41	0	2160066560	36	5805
2026-01-25 16:01:42.56	85.04	46.33	-31.4	-32.0	28.1	0.00e+00	0	41	0	2165309440	36	5753
2026-01-25 16:01:43.56	85.59	46.41	-31.4	-32.0	28.2	0.00e+00	0	41	0	2171600896	36	5714
2026-01-25 16:01:44.57	86.15	46.48	-31.1	-31.7	28.3	0.00e+00	0	41	0	2176843776	36	5543
2026-01-25 16:01:45.58	86.71	46.56	-31.1	-31.7	28.4	0.00e+00	0	41	0	2182086656	36	5516
2026-01-25 16:01:46.59	87.27	46.63	-31.1	-31.7	28.4	0.00e+00	0	41	0	2188378112	36	5503
2026-01-25 16:01:47.60	87.84	46.70	-31.3	-31.9	28.2	0.00e+00	0	41	0	2193620992	36	5673
2026-01-25 16:01:48.61	88.41	46.76	-31.6	-32.2	28.0	0.00e+00	0	41	0	2199912448	36	5834
2026-01-25 16:01:49.62	88.98	46.83	-31.8	-32.4	27.9	0.00e+00	0	41	0	2205155328	36	6000
2026-01-25 16:01:50.63	89.55	46.89	-31.8	-32.4	27.8	0.00e+00	0	41	0	2210398208	36	6000
2026-01-25 16:01:51.64	90.13	46.94	-31.4	-32.0	28.2	0.00e+00	0	41	0	2216689664	36	5713
2026-01-25 16:01:52.65	90.70	47.00	-31.4	-32.1	28.1	0.00e+00	0	41	0	2221932544	36	5763
2026-01-25 16:01:53.66	91.28	47.05	-31.8	-32.4	27.9	0.00e+00	0	41	0	2228224000	36	5990
2026-01-25 16:01:54.67	91.86	47.10	-31.9	-32.5	27.8	0.00e+00	0	41	0	2233466880	36	6064
2026-01-25 16:01:55.68	92.44	47.14	-31.7	-32.4	28.0	0.00e+00	0	41	0	2239758336	36	6007
2026-01-25 16:01:56.69	93.03	47.18	-31.4	-32.0	28.2	0.00e+00	0	41	0	2245001216	36	5732
2026-01-25 16:01:57.70	93.61	47.22	-31.0	-31.6	28.4	0.00e+00	0	41	0	2251292672	36	5465
2026-01-25 16:01:58.71	94.20	47.26	-31.1	-31.7	28.3	0.00e+00	0	41	0	2256535552	36	5515
2026-01-25 16:01:59.72	94.79	47.29	-31.0	-31.7	28.3	0.00e+00	0	41	0	2261778432	36	5512
2026-01-25 16:02:00.72	95.37	47.32	-31.2	-31.9	28.2	0.00e+00	0	41	0	2268069888	36	5634
2026-01-25 16:02:01.73	95.96	47.34	-31.3	-32.0	28.2	0.00e+00	0	41	0	2273312768	36	5696
2026-01-25 16:02:02.74	96.55	47.36	-31.6	-32.2	28.0	0.00e+00	0	41	0	2279604224	36	5849
2026-01-25 16:02:03.75	97.14	47.38	-31.7	-32.4	27.9	0.00e+00	0	41	0	2284847104	36	5979
2026-01-25 16:02:04.76	97.74	47.40	-31.6	-32.2	28.0	0.00e+00	0	41	0	2290089984	36	5884
2026-01-25 16:02:05.76	98.32	47.41	-31.5	-32.1	28.1	0.00e+00	0	41	0	2296381440	36	5820
2026-01-25 16:02:06.77	98.92	47.42	-31.3	-31.9	28.2	0.00e+00	0	41	0	2301624320	36	5677
2026-01-25 16:02:07.78	99.51	47.43	-31.5	-32.2	27.9	0.00e+00	0	41	0	2306867200	36	5846
2026-01-25 16:02:08.80	100.11	47.43	-31.4	-32.0	28.1	0.00e+00	0	41	0	2313158656	36	5716
2026-01-25 16:02:09.80	100.70	47.43	-31.4	-32.0	28.2	0.00e+00	0	41	0	2318401536	36	5760
2026-01-25 16:02:10.81	101.29	47.43	-31.5	-32.1	28.1	0.00e+00	0	41	0	2324692992	36	5789
2026-01-25 16:02:11.82	101.89	47.42	-31.6	-32.2	28.0	0.00e+00	0	41	0	2329935872	36	5892
2026-01-25 16:02:12.83	102.48	47.41	-31.5	-32.2	28.1	0.00e+00	0	41	0	2336227328	36	5848
2026-01-25 16:02:13.84	103.07	47.40	-31.6	-32.3	27.8	0.00e+00	0	41	0	2341470208	36	5930
2026-01-25 16:02:14.85	103.67	47.38	-31.6	-32.2	27.6	0.00e+00	0	41	0	2347761664	36	5864
2026-01-25 16:02:15.86	104.26	47.36	-31.6	-32.1	27.8	0.00e+00	0	41	0	2353004544	36	5824
2026-01-25 16:02:16.87	104.85	47.34	-31.6	-32.3	27.6	0.00e+00	0	41	0	2358247424	36	5949
2026-01-25 16:02:17.88	105.44	47.31	-31.6	-32.2	27.8	0.00e+00	0	41	0	2364538880	36	5889
2026-01-25 16:02:18.89	106.03	47.28	-31.7	-32.3	27.7	0.00e+00	0	41	0	2369781760	36	5936
2026-01-25 16:02:19.90	106.62	47.25	-31.8	-32.3	27.8	0.00e+00	0	41	0	2376073216	36	5959
2026-01-25 16:02:20.91	107.20	47.21	-31.7	-32.4	27.8	0.00e+00	0	41	0	2381316096	36	5965
2026-01-25 16:02:21.91	107.78	47.17	-31.6	-32.2	28.0	0.00e+00	0	41	0	2386558976	36	5888
2026-01-25 16:02:22.92	108.37	47.13	-31.5	-32.2	28.0	0.00e+00	0	41	0	2392850432	36	5866
2026-01-25 16:02:23.93	108.95	47.08	-31.4	-32.1	28.0	0.00e+00	0	41	0	2398093312	36	5793
2026-01-25 16:02:24.94	109.53	47.04	-31.5	-32.2	28.0	0.00e+00	0	41	0	2404384768	36	5846
2026-01-25 16:02:25.95	110.11	46.98	-31.6	-32.2	27.9	0.00e+00	0	41	0	2409627648	36	5880
2026-01-25 16:02:26.96	110.68	46.93	-31.6	-32.3	27.9	0.00e+00	0	41	0	2414870528	36	5954
2026-01-25 16:02:27.97	111.26	46.87	-31.4	-32.0	28.1	0.00e+00	0	41	0	2421161984	36	5734
2026-01-25 16:02:28.98	111.83	46.81	-31.4	-32.0	28.1	0.00e+00	0	41	0	2426404864	36	5715
2026-01-25 16:02:29.99	112.40	46.75	-31.6	-32.2	28.0	0.00e+00	0	41	0	2432696320	36	5857
2026-01-25 16:02:31.00	112.97	46.68	-31.8	-32.4	27.7	0.00e+00	0	41	0	2437939200	36	5972
2026-01-25 16:02:32.01	113.53	46.61	-31.8	-32.4	27.9	0.00e+00	0	41	0	2444230656	36	5994
2026-01-25 16:02:33.02	114.10	46.54	-31.7	-32.3	27.9	0.00e+00	0	41	0	2449473536	36	5932
2026-01-25 16:02:34.02	114.65	46.46	-31.7	-32.4	27.8	0.00e+00	0	41	0	2454716416	36	6008
2026-01-25 16:02:35.03	115.21	46.39	-31.8	-32.4	27.9	0.00e+00	0	41	0	2461007872	36	6016
2026-01-25 16:02:36.04	115.76	46.31	-31.4	-32.0	28.2	0.00e+00	0	41	0	2466250752	36	5737
2026-01-25 16:02:37.05	116.32	46.22	-31.5	-32.2	28.0	0.00e+00	0	41	0	2472542208	36	5872
2026-01-25 16:02:38.06	116.87	46.14	-31.8	-32.4	27.8	0.00e+00	0	41	0	2477785088	36	6014
2026-01-25 16:02:39.07	117.41	46.05	-32.0	-32.6	27.7	0.00e+00	0	41	0	2483027968	36	6171
2026-01-25 16:02:40.08	117.95	45.96	-31.8	-32.5	27.7	0.00e+00	0	41	0	2489319424	36	6044
2026-01-25 16:02:41.09	118.49	45.86	-31.6	-32.1	28.0	0.00e+00	0	41	0	2494562304	36	5807
2026-01-25 16:02:42.10	119.03	45.77	-31.4	-32.1	28.1	0.00e+00	0	41	0	2500853760	36	5772
2026-01-25 16:02:43.11	119.57	45.67	-31.5	-32.1	28.1	0.00e+00	0	41	0	2506096640	36	5762
2026-01-25 16:02:44.12	120.10	45.57	-31.3	-31.9	28.1	0.00e+00	0	41	0	2511339520	36	5689
2026-01-25 16:02:45.13	120.62	45.46	-31.2	-31.7	28.2	0.00e+00	0	41	0	2517630976	36	5558
2026-01-25 16:02:46.14	121.15	45.36	-31.1	-31.6	28.4	0.00e+00	0	41	0	2522873856	36	5472
2026-01-25 16:02:47.15	121.67	45.25	-31.2	-31.8	28.2	0.00e+00	0	41	0	2529165312	36	5617
2026-01-25 16:02:48.16	122.18	45.14	-31.4	-32.1	28.1	0.00e+00	0	41	0	2534408192	36	5786
2026-01-25 16:02:49.17	122.69	45.03	-31.4	-32.1	28.1	0.00e+00	0	41	0	2540699648	36	5817
2026-01-25 16:02:50.18	123.20	44.91	-31.5	-32.0	28.1	0.00e+00	0	41	0	2545942528	36	5731
2026-01-25 16:02:51.18	123.70	44.79	-31.4	-32.0	28.1	0.00e+00	0	41	0	2551185408	36	5707
2026-01-25 16:02:52.19	124.21	44.68	-31.7	-32.2	27.9	0.00e+00	0	41	0	2557476864	36	5895
2026-01-25 16:02:53.20	124.70	44.55	-31.8	-32.4	27.8	0.00e+00	0	41	0	2562719744	36	6015
2026-01-25 16:02:54.21	125.20	44.43	-31.8	-32.5	27.8	0.00e+00	0	41	0	2569011200	36	6048
2026-01-25 16:02:55.22	125.69	44.31	-31.6	-32.3	27.9	0.00e+00	0	41	0	2574254080	36	5939
2026-01-25 16:02:56.23	126.18	44.18	-31.7	-32.2	28.0	0.00e+00	0	41	0	2579496960	36	5855
2026-01-25 16:02:57.24	126.66	44.05	-31.4	-31.9	27.9	0.00e+00	0	41	0	2585788416	36	5688
2026-01-25 16:02:58.25	127.14	43.92	-31.7	-32.2	28.0	0.00e+00	0	41	0	2591031296	36	5884
2026-01-25 16:02:59.26	127.61	43.79	-31.5	-32.2	28.0	0.00e+00	0	41	0	2597322752	36	5842
2026-01-25 16:03:00.27	128.09	43.66	-31.1	-31.7	28.3	0.00e+00	0	41	0	2602565632	36	5566
2026-01-25 16:03:01.28	128.55	43.52	-31.0	-31.6	28.4	0.00e+00	0	41	0	2607808512	36	5472
2026-01-25 16:03:02.29	129.02	43.39	-31.1	-31.7	28.3	0.00e+00	0	41	0	2614099968	36	5514
2026-01-25 16:03:03.30	129.48	43.25	-31.3	-31.9	28.2	0.00e+00	0	41	0	2619342848	36	5666
2026-01-25 16:03:04.30	129.93	43.11	-31.5	-32.1	28.0	0.00e+00	0	41	0	2625634304	36	5784
2026-01-25 16:03:05.32	130.38	42.97	-31.4	-32.0	28.1	0.00e+00	0	41	0	2630877184	36	5716
2026-01-25 16:03:06.33	130.83	42.82	-31.2	-31.7	28.4	0.00e+00	0	41	0	2637168640	36	5557
2026-01-25 16:03:07.34	131.28	42.68	-31.2	-31.8	28.3	0.00e+00	0	41	0	2642411520	36	5596
2026-01-25 16:03:08.34	131.71	42.54	-31.1	-31.8	28.2	0.00e+00	0	41	0	2648702976	36	5607
2026-01-25 16:03:09.36	132.15	42.39	-31.1	-31.7	28.3	0.00e+00	0	41	0	2653945856	36	5505
2026-01-25 16:03:10.36	132.58	42.24	-31.3	-31.9	28.2	0.00e+00	0	41	0	2659188736	36	5694
2026-01-25 16:03:11.37	133.01	42.09	-31.3	-31.9	28.2	0.00e+00	0	41	0	2665480192	36	5637
2026-01-25 16:03:12.38	133.43	41.94	-31.3	-31.9	28.3	0.00e+00	0	41	0	2670723072	36	5694
2026-01-25 16:03:13.39	133.85	41.79	-31.2	-31.7	28.3	0.00e+00	0	41	0	2677014528	36	5535
2026-01-25 16:03:14.40	134.27	41.64	-30.9	-31.6	28.4	0.00e+00	0	41	0	2682257408	36	5452
2026-01-25 16:03:15.41	134.68	41.49	-30.9	-31.5	28.4	0.00e+00	0	41	0	2687500288	36	5420
2026-01-25 16:03:16.42	135.09	41.33	-31.1	-31.8	28.4	0.00e+00	0	41	0	2693791744	36	5571
2026-01-25 16:03:17.43	135.50	41.18	-31.2	-31.8	28.3	0.00e+00	0	41	0	2699034624	36	5580
2026-01-25 16:03:18.44	135.90	41.02	-31.1	-31.7	28.3	0.00e+00	0	41	0	2704277504	36	5518
2026-01-25 16:03:19.45	136.30	40.86	-30.9	-31.5	28.4	0.00e+00	0	41	0	2710568960	36	5404
2026-01-25 16:03:20.46	136.69	40.71	-30.9	-31.4	28.5	0.00e+00	0	41	0	2715811840	36	5355
2026-01-25 16:03:21.47	137.08	40.55	-31.0	-31.7	28.4	0.00e+00	0	41	0	2722103296	36	5527
2026-01-25 16:03:22.48	137.47	40.39	-30.9	-31.6	28.6	0.00e+00	0	41	0	2727346176	36	5451
2026-01-25 16:03:23.48	137.85	40.23	-31.0	-31.5	28.4	0.00e+00	0	41	0	2733637632	36	5428
2026-01-25 16:03:24.49	138.22	40.07	-30.8	-31.3	28.5	0.00e+00	0	41	0	2738880512	36	5305
2026-01-25 16:03:25.50	138.60	39.91	-30.6	-31.3	28.6	0.00e+00	0	41	0	2745171968	34	5927
2026-01-25 16:03:26.51	138.97	39.75	-30.8	-31.3	28.5	0.00e+00	0	41	0	2750414848	34	5933
2026-01-25 16:03:27.52	139.34	39.59	-30.9	-31.4	28.5	0.00e+00	0	41	0	2755657728	34	6003
2026-01-25 16:03:28.53	139.70	39.42	-30.9	-31.5	28.4	0.00e+00	0	41	0	2761949184	34	6052
2026-01-25 16:03:29.54	140.06	39.26	-30.7	-31.3	28.6	0.00e+00	0	41	0	2767192064	34	5916
2026-01-25 16:03:30.55	140.42	39.10	-30.7	-31.3	28.5	0.00e+00	0	41	0	2773483520	34	5902
2026-01-25 16:03:31.56	140.77	38.93	-30.7	-31.4	28.6	0.00e+00	0	41	0	2778726400	34	6000
2026-01-25 16:03:32.57	141.12	38.77	-30.6	-31.3	28.6	0.00e+00	0	41	0	2783969280	34	5946
2026-01-25 16:03:33.58	141.47	38.60	-30.7	-31.4	28.5	0.00e+00	0	41	0	2790260736	34	5979
2026-01-25 16:03:34.59	141.81	38.44	-30.8	-31.3	28.6	0.00e+00	0	41	0	2795503616	34	5931
2026-01-25 16:03:35.60	142.15	38.27	-30.8	-31.3	28.4	0.00e+00	0	41	0	2801795072	34	5963
2026-01-25 16:03:36.61	142.49	38.10	-30.7	-31.4	28.7	0.00e+00	0	41	0	2807037952	34	6007
2026-01-25 16:03:37.62	142.82	37.94	-30.7	-31.4	28.6	0.00e+00	0	41	0	2812280832	34	5987
2026-01-25 16:03:38.63	143.15	37.77	-30.6	-31.3	28.6	0.00e+00	0	41	0	2818572288	34	5908
2026-01-25 16:03:39.64	143.48	37.61	-30.6	-31.1	28.6	0.00e+00	0	41	0	2823815168	34	5803
2026-01-25 16:03:40.65	143.80	37.44	-30.7	-31.3	28.5	0.00e+00	0	41	0	2830106624	34	5944
2026-01-25 16:03:41.66	144.12	37.27	-30.7	-31.4	28.4	0.00e+00	0	41	0	2835349504	34	6022
2026-01-25 16:03:42.67	144.44	37.11	-30.8	-31.5	28.2	0.00e+00	0	41	0	2841640960	34	6098
2026-01-25 16:03:43.68	144.75	36.94	-31.0	-31.7	27.6	0.00e+00	0	41	0	2846883840	34	6223
2026-01-25 16:03:44.69	145.06	36.77	-31.0	-31.7	27.8	0.00e+00	0	41	0	2852126720	34	6178
2026-01-25 16:03:45.70	145.37	36.60	-30.9	-31.6	27.9	0.00e+00	0	41	0	2858418176	34	6112
2026-01-25 16:03:46.70	145.67	36.44	-30.8	-31.3	28.2	0.00e+00	0	41	0	2863661056	34	5951
2026-01-25 16:03:47.71	145.97	36.27	-30.6	-31.2	28.2	0.00e+00	0	41	0	2869952512	34	5853
2026-01-25 16:03:48.72	146.27	36.10	-30.6	-31.3	28.5	0.00e+00	0	41	0	2875195392	34	5899
2026-01-25 16:03:49.73	146.57	35.94	-30.5	-31.1	28.3	0.00e+00	0	41	0	2880438272	34	5765
2026-01-25 16:03:50.74	146.86	35.77	-30.6	-31.3	28.5	0.00e+00	0	41	0	2886729728	34	5948
2026-01-25 16:03:51.75	147.15	35.60	-30.8	-31.5	28.4	0.00e+00	0	41	0	2891972608	34	6067
2026-01-25 16:03:52.76	147.44	35.43	-30.9	-31.6	28.4	0.00e+00	0	41	0	2898264064	34	6127
2026-01-25 16:03:53.77	147.72	35.27	-31.1	-31.6	28.3	0.00e+00	0	41	0	2903506944	34	6170
2026-01-25 16:03:54.78	148.00	35.10	-31.1	-31.8	28.3	0.00e+00	0	41	0	2908749824	34	6295
2026-01-25 16:03:55.79	148.28	34.93	-31.0	-31.5	28.3	0.00e+00	0	41	0	2915041280	34	6070
2026-01-25 16:03:56.79	148.55	34.77	-30.9	-31.5	28.3	0.00e+00	0	41	0	2920284160	34	6049
2026-01-25 16:03:57.80	148.82	34.60	-30.9	-31.6	28.4	0.00e+00	0	41	0	2926575616	34	6123
2026-01-25 16:03:58.81	149.09	34.44	-31.0	-31.7	28.3	0.00e+00	0	41	0	2931818496	34	6199
2026-01-25 16:03:59.82	149.36	34.27	-31.0	-31.7	28.2	0.00e+00	0	41	0	2938109952	34	6184
2026-01-25 16:04:00.83	149.62	34.10	-30.8	-31.5	28.4	0.00e+00	0	41	0	2943352832	34	6095
2026-01-25 16:04:01.84	149.89	33.94	-30.8	-31.5	28.4	0.00e+00	0	41	0	2949644288	34	6087
2026-01-25 16:04:02.85	150.14	33.77	-30.7	-31.3	28.5	0.00e+00	0	41	0	2954887168	34	5919
2026-01-25 16:04:03.86	150.40	33.61	-30.7	-31.4	28.5	0.00e+00	0	41	0	2960130048	34	6008
2026-01-25 16:04:04.87	150.66	33.44	-31.0	-31.5	28.4	0.00e+00	0	41	0	2966421504	34	6102
2026-01-25 16:04:05.88	150.91	33.28	-30.9	-31.6	28.4	0.00e+00	0	41	0	2971664384	34	6138
2026-01-25 16:04:06.89	151.16	33.12	-31.1	-31.6	28.2	0.00e+00	0	41	0	2977955840	34	6170
2026-01-25 16:04:07.90	151.40	32.95	-31.2	-31.7	28.1	0.00e+00	0	41	0	2983198720	34	6226
2026-01-25 16:04:08.91	151.65	32.79	-31.2	-31.7	28.2	0.00e+00	0	41	0	2988441600	34	6222
2026-01-25 16:04:09.92	151.89	32.62	-31.1	-31.7	28.3	0.00e+00	0	41	0	2994733056	34	6200
2026-01-25 16:04:10.93	152.13	32.46	-31.1	-31.8	28.3	0.00e+00	0	41	0	2999975936	34	6250
2026-01-25 16:04:11.94	152.37	32.30	-31.0	-31.5	28.3	0.00e+00	0	41	0	3005218816	34	6070
2026-01-25 16:04:12.95	152.60	32.14	-31.0	-31.6	28.2	0.00e+00	0	41	0	3011510272	34	6114
2026-01-25 16:04:13.96	152.83	31.98	-31.1	-31.6	28.2	0.00e+00	0	41	0	3016753152	34	6171
2026-01-25 16:04:14.97	153.06	31.81	-31.2	-31.8	28.2	0.00e+00	0	41	0	3023044608	34	6267
2026-01-25 16:04:15.98	153.29	31.65	-31.2	-31.7	28.2	0.00e+00	0	41	0	3028287488	34	6216
2026-01-25 16:04:16.99	153.52	31.49	-31.2	-31.8	28.2	0.00e+00	0	41	0	3034578944	34	6301
2026-01-25 16:04:18.00	153.74	31.33	-31.3	-31.9	28.0	0.00e+00	0	41	0	3039821824	34	6319
2026-01-25 16:04:19.01	153.96	31.17	-31.1	-31.8	28.2	0.00e+00	0	41	0	3046113280	34	6283
2026-01-25 16:04:20.02	154.18	31.01	-31.1	-31.7	28.1	0.00e+00	0	41	0	3051356160	34	6198
2026-01-25 16:04:21.03	154.40	30.85	-31.1	-31.7	28.3	0.00e+00	0	41	0	3056599040	34	6243
2026-01-25 16:04:22.04	154.61	30.70	-31.1	-31.7	28.2	0.00e+00	0	41	0	3062890496	34	6189
2026-01-25 16:04:23.05	154.83	30.54	-31.0	-31.6	28.3	0.00e+00	0	41	0	3068133376	34	6125
2026-01-25 16:04:24.06	155.04	30.38	-30.9	-31.5	28.3	0.00e+00	0	41	0	3074424832	34	6052
2026-01-25 16:04:25.07	155.25	30.22	-30.9	-31.6	28.4	0.00e+00	0	41	0	3079667712	34	6141
2026-01-25 16:04:26.08	155.45	30.07	-31.1	-31.8	28.2	0.00e+00	0	41	0	3084910592	34	6259
2026-01-25 16:04:27.09	155.66	29.91	-31.2	-31.9	28.0	0.00e+00	0	41	0	3091202048	34	6338
2026-01-25 16:04:28.10	155.86	29.75	-31.3	-32.0	28.1	0.00e+00	0	41	0	3096444928	34	6448
2026-01-25 16:04:29.11	156.06	29.60	-31.3	-32.0	28.1	0.00e+00	0	41	0	3102736384	34	6409
2026-01-25 16:04:30.11	156.26	29.44	-31.6	-32.1	27.9	0.00e+00	0	41	0	3107979264	34	6515
2026-01-25 16:04:31.12	156.46	29.29	-31.5	-32.3	27.9	0.00e+00	0	41	0	3113222144	34	6617
2026-01-25 16:04:32.13	156.66	29.14	-32.0	-32.6	27.6	0.00e+00	0	41	0	3119513600	36	6161
2026-01-25 16:04:33.14	156.85	28.98	-32.0	-32.7	27.5	0.00e+00	0	41	0	3124756480	36	6185
2026-01-25 16:04:34.15	157.04	28.83	-31.4	-31.9	28.1	0.00e+00	0	41	0	3131047936	36	5670
2026-01-25 16:04:35.16	157.23	28.68	-31.3	-31.8	28.1	0.00e+00	0	41	0	3136290816	36	5621
2026-01-25 16:04:36.17	157.42	28.53	-31.1	-31.6	28.2	0.00e+00	0	41	0	3142582272	36	5495
2026-01-25 16:04:37.18	157.61	28.37	-31.1	-31.8	28.2	0.00e+00	0	41	0	3147825152	36	5599
2026-01-25 16:04:38.19	157.79	28.22	-31.0	-31.6	28.2	0.00e+00	0	41	0	3153068032	36	5494
2026-01-25 16:04:39.20	157.98	28.07	-31.0	-31.7	28.3	0.00e+00	0	41	0	3159359488	36	5541
2026-01-25 16:04:40.21	158.16	27.92	-31.2	-31.7	28.2	0.00e+00	0	41	0	3164602368	36	5532
2026-01-25 16:04:41.22	158.34	27.77	-31.3	-31.8	28.1	0.00e+00	0	41	0	3170893824	36	5626
2026-01-25 16:04:42.23	158.52	27.62	-31.0	-31.6	28.2	0.00e+00	0	41	0	3176136704	36	5452
2026-01-25 16:04:43.24	158.69	27.48	-31.1	-31.6	28.2	0.00e+00	0	41	0	3181379584	36	5493
2026-01-25 16:04:44.25	158.87	27.33	-31.1	-31.6	28.2	0.00e+00	0	41	0	3187671040	36	5477
2026-01-25 16:04:45.26	159.04	27.18	-31.2	-31.8	28.1	0.00e+00	0	41	0	3192913920	36	5591
2026-01-25 16:04:46.26	159.21	27.04	-31.4	-31.9	28.0	0.00e+00	0	41	0	3199205376	36	5679
2026-01-25 16:04:47.27	159.38	26.89	-31.3	-31.8	28.1	0.00e+00	0	41	0	3204448256	36	5599
2026-01-25 16:04:48.28	159.55	26.74	-31.4	-31.9	28.0	0.00e+00	0	41	0	3209691136	36	5684
2026-01-25 16:04:49.29	159.72	26.60	-31.6	-32.2	27.7	0.00e+00	0	41	0	3215982592	36	5870
2026-01-25 16:04:50.30	159.89	26.45	-31.5	-32.1	27.8	0.00e+00	0	41	0	3221225472	36	5806
2026-01-25 16:04:51.31	160.05	26.31	-31.5	-32.2	27.8	0.00e+00	0	41	0	3227516928	36	5881
2026-01-25 16:04:52.32	160.22	26.17	-31.5	-32.1	27.9	0.00e+00	0	41	0	3232759808	36	5811
2026-01-25 16:04:53.33	160.38	26.02	-31.5	-32.1	27.8	0.00e+00	0	41	0	3239051264	36	5818
2026-01-25 16:04:54.34	160.54	25.88	-31.8	-32.4	27.7	0.00e+00	0	41	0	3244294144	36	5989
2026-01-25 16:04:55.35	160.70	25.74	-31.7	-32.3	27.7	0.00e+00	0	41	0	3250585600	36	5943
2026-01-25 16:04:56.36	160.86	25.60	-31.5	-32.0	28.0	0.00e+00	0	41	0	3255828480	36	5741
2026-01-25 16:04:57.37	161.01	25.46	-31.3	-32.0	28.0	0.00e+00	0	41	0	3261071360	36	5749
2026-01-25 16:04:58.38	161.17	25.31	-31.3	-31.9	28.1	0.00e+00	0	41	0	3267362816	36	5633
2026-01-25 16:04:59.39	161.32	25.18	-31.4	-32.1	28.0	0.00e+00	0	41	0	3272605696	36	5796
2026-01-25 16:05:00.40	161.47	25.04	-31.5	-32.0	27.9	0.00e+00	0	41	0	3278897152	36	5731
2026-01-25 16:05:01.41	161.62	24.90	-31.5	-32.1	27.9	0.00e+00	0	41	0	3284140032	36	5767
2026-01-25 16:05:02.42	161.77	24.76	-31.4	-31.9	28.0	0.00e+00	0	41	0	3289382912	36	5680
2026-01-25 16:05:03.42	161.92	24.62	-31.4	-32.1	27.9	0.00e+00	0	41	0	3295674368	36	5812
2026-01-25 16:05:04.43	162.07	24.48	-31.5	-32.0	27.9	0.00e+00	0	41	0	3300917248	36	5743
2026-01-25 16:05:05.44	162.21	24.35	-31.4	-32.1	27.9	0.00e+00	0	41	0	3307208704	36	5814
2026-01-25 16:05:06.45	162.36	24.21	-31.6	-32.3	27.8	0.00e+00	0	41	0	3312451584	36	5948
2026-01-25 16:05:07.46	162.50	24.08	-31.6	-32.2	27.8	0.00e+00	0	41	0	3317694464	36	5837
2026-01-25 16:05:08.47	162.65	23.94	-31.7	-32.3	27.8	0.00e+00	0	41	0	3323985920	36	5911
2026-01-25 16:05:09.48	162.79	23.81	-31.8	-32.4	27.6	0.00e+00	0	41	0	3329228800	36	5983
2026-01-25 16:05:10.49	162.93	23.67	-31.7	-32.3	27.7	0.00e+00	0	41	0	3335520256	36	5911
2026-01-25 16:05:11.50	163.07	23.54	-31.8	-32.4	27.7	0.00e+00	0	41	0	3340763136	36	5983
2026-01-25 16:05:12.51	163.20	23.40	-32.1	-32.8	27.5	0.00e+00	0	41	0	3347054592	36	6254
2026-01-25 16:05:13.51	163.34	23.27	-32.1	-32.8	27.5	0.00e+00	0	41	0	3352297472	36	6253
2026-01-25 16:05:14.53	163.48	23.14	-31.9	-32.6	27.6	0.00e+00	0	41	0	3357540352	36	6131
2026-01-25 16:05:15.53	163.61	23.01	-32.2	-32.9	27.4	0.00e+00	0	41	0	3363831808	36	6326
2026-01-25 16:05:16.54	163.74	22.88	-32.2	-32.9	27.4	0.00e+00	0	41	0	3369074688	36	6367
2026-01-25 16:05:17.55	163.87	22.75	-32.1	-32.8	27.4	0.00e+00	0	41	0	3375366144	36	6258
2026-01-25 16:05:18.56	164.01	22.62	-32.2	-32.7	27.3	0.00e+00	0	41	0	3380609024	36	6237
2026-01-25 16:05:19.57	164.14	22.49	-32.2	-32.8	27.4	0.00e+00	0	41	0	3385851904	36	6264
2026-01-25 16:05:20.58	164.27	22.36	-32.4	-33.0	27.2	0.00e+00	0	41	0	3392143360	36	6395
2026-01-25 16:05:21.59	164.39	22.23	-32.4	-33.0	27.1	0.00e+00	0	41	0	3397386240	36	6405
2026-01-25 16:05:22.60	164.52	22.10	-32.4	-33.0	27.2	0.00e+00	0	41	0	3403677696	36	6431
2026-01-25 16:05:23.60	164.65	21.98	-32.4	-32.9	27.2	0.00e+00	0	41	0	3408920576	36	6378
2026-01-25 16:05:24.61	164.77	21.85	-32.3	-32.9	27.2	0.00e+00	0	41	0	3414163456	36	6329
2026-01-25 16:05:25.62	164.89	21.72	-32.4	-33.0	27.1	0.00e+00	0	41	0	3420454912	36	6424
2026-01-25 16:05:26.63	165.02	21.60	-32.5	-33.0	27.1	0.00e+00	0	41	0	3425697792	36	6459
2026-01-25 16:05:27.64	165.14	21.47	-32.2	-32.7	27.4	0.00e+00	0	41	0	3431989248	36	6222
2026-01-25 16:05:28.65	165.26	21.35	-32.2	-32.8	27.3	0.00e+00	0	41	0	3437232128	36	6281
2026-01-25 16:05:29.66	165.38	21.22	-32.2	-32.8	27.3	0.00e+00	0	41	0	3443523584	36	6279
2026-01-25 16:05:30.67	165.50	21.10	-32.2	-32.9	27.3	0.00e+00	0	41	0	3448766464	36	6369
2026-01-25 16:05:31.68	165.62	20.98	-32.4	-33.1	27.1	0.00e+00	0	41	0	3454009344	36	6482
2026-01-25 16:05:32.69	165.74	20.85	-32.4	-33.1	27.2	0.00e+00	0	41	0	3460300800	36	6481
2026-01-25 16:05:33.70	165.85	20.73	-32.3	-33.0	27.3	0.00e+00	0	41	0	3465543680	36	6425
2026-01-25 16:05:34.70	165.97	20.61	-32.4	-33.2	27.1	0.00e+00	0	41	0	3471835136	36	6549
2026-01-25 16:05:35.71	166.08	20.49	-32.4	-33.1	27.2	0.00e+00	0	41	0	3477078016	36	6479
2026-01-25 16:05:36.72	166.20	20.37	-32.4	-33.0	27.1	0.00e+00	0	41	0	3482320896	36	6441
2026-01-25 16:05:37.73	166.31	20.25	-32.4	-33.1	27.1	0.00e+00	0	41	0	3488612352	36	6513
2026-01-25 16:05:38.74	166.42	20.13	-32.5	-33.2	27.1	0.00e+00	0	42	0	3493855232	36	6592
2026-01-25 16:05:39.75	166.53	20.01	-32.6	-33.3	27.0	0.00e+00	0	41	0	3500146688	36	6666
2026-01-25 16:05:40.76	166.65	19.89	-32.7	-33.4	27.0	0.00e+00	0	41	0	3505389568	38	5992
2026-01-25 16:05:41.77	166.75	19.77	-32.9	-33.4	26.8	0.00e+00	0	41	0	3510632448	38	6027
2026-01-25 16:05:42.78	166.86	19.65	-32.7	-33.3	26.8	0.00e+00	0	41	0	3516923904	38	5909
2026-01-25 16:05:43.78	166.97	19.53	-32.6	-33.3	26.9	0.00e+00	0	41	0	3522166784	38	5957
2026-01-25 16:05:44.79	167.08	19.42	-32.7	-33.2	26.9	0.00e+00	0	41	0	3528458240	38	5888
2026-01-25 16:05:45.80	167.19	19.30	-32.8	-33.5	26.8	0.00e+00	0	42	0	3533701120	38	6041
2026-01-25 16:05:46.82	167.29	19.18	-32.9	-33.5	26.7	0.00e+00	0	41	0	3539992576	38	6062
2026-01-25 16:05:47.82	167.40	19.07	-33.0	-33.7	26.7	0.00e+00	0	41	0	3545235456	38	6231
2026-01-25 16:05:48.83	167.50	18.95	-32.7	-33.5	26.9	0.00e+00	0	41	0	3550478336	38	6035
2026-01-25 16:05:49.84	167.60	18.84	-32.9	-33.6	26.8	0.00e+00	0	41	0	3556769792	38	6136
2026-01-25 16:05:50.85	167.71	18.72	-33.1	-33.8	26.5	0.00e+00	0	41	0	3562012672	38	6313
2026-01-25 16:05:51.86	167.81	18.61	-32.8	-33.4	26.8	0.00e+00	0	41	0	3568304128	38	5975
2026-01-25 16:05:52.86	167.91	18.49	-32.9	-33.6	26.7	0.00e+00	0	41	0	3573547008	38	6155
2026-01-25 16:05:53.87	168.01	18.38	-32.9	-33.6	26.7	0.00e+00	0	41	0	3578789888	38	6172
2026-01-25 16:05:54.88	168.11	18.27	-32.8	-33.5	26.8	0.00e+00	0	41	0	3585081344	38	6063
2026-01-25 16:05:55.89	168.21	18.15	-32.9	-33.6	26.7	0.00e+00	0	41	0	3590324224	38	6166
2026-01-25 16:05:56.90	168.31	18.04	-33.1	-33.8	26.6	0.00e+00	0	41	0	3596615680	38	6293
2026-01-25 16:05:57.91	168.41	17.93	-33.2	-33.9	26.4	0.00e+00	0	41	0	3601858560	38	6378
2026-01-25 16:05:58.92	168.50	17.82	-33.3	-34.0	26.4	0.00e+00	0	41	0	3607101440	38	6414
2026-01-25 16:05:59.93	168.60	17.71	-33.3	-33.9	26.4	0.00e+00	0	41	0	3613392896	38	6344
2026-01-25 16:06:00.94	168.69	17.60	-33.3	-33.9	26.3	0.00e+00	0	41	0	3618635776	38	6351
2026-01-25 16:06:01.95	168.79	17.49	-33.3	-33.9	26.4	0.00e+00	0	41	0	3624927232	38	6347
2026-01-25 16:06:02.96	168.88	17.38	-33.3	-33.9	26.4	0.00e+00	0	41	0	3630170112	38	6328
2026-01-25 16:06:03.97	168.98	17.27	-33.3	-34.0	26.3	0.00e+00	0	41	0	3636461568	38	6461
2026-01-25 16:06:04.98	169.07	17.16	-33.3	-33.9	26.3	0.00e+00	0	41	0	3641704448	38	6368
