passes_logs/2026/01/25/R4.6S_Anadyr/R4.6S_Anadyr__20260125_004141_NOAA_21_JPSS-2_rec.log

#Pass ID: 20260125_004141_NOAA 21 (JPSS-2)
#Satellite: NOAA 21 (JPSS-2)
#Configuration: NOAA-21
#almurnet v.1.7.20251203
#Start time: 2026-01-25 00:41:43

#Version: 2.2.20231116
#Station: R4.6S_Anadyr
#Location: 177.4865 lon 64.73178 lat
#TLE: 1 54234U 22150A   26024.45772595  .00000201  00000+0  11607-3 0  9996
#TLE: 2 54234  98.7508 325.2435 0000728 220.7365 139.3757 14.19538765166156

#Time	Az	El	Level	Level2	SNR	BER	BlckErr	Temp	State	Recorded	gain1	gain2
2026-01-25 00:41:43.14	168.22	0.08	-51.4	-66.3	3.5	1.51e+00	0	39	0	0	60	74653
2026-01-25 00:41:44.15	168.24	0.14	-51.9	-64.7	3.5	1.52e+00	0	40	104	0	60	60387
2026-01-25 00:41:45.16	168.25	0.20	-51.6	-64.4	3.5	1.52e+00	0	40	104	0	60	58477
2026-01-25 00:41:46.17	168.27	0.26	-51.5	-64.3	3.5	1.52e+00	0	40	104	0	60	57790
2026-01-25 00:41:47.17	168.29	0.32	-51.4	-64.2	3.5	1.52e+00	0	40	104	0	60	57242
2026-01-25 00:41:48.18	168.31	0.39	-51.3	-64.2	3.5	1.52e+00	0	40	104	0	60	56959
2026-01-25 00:41:49.19	168.33	0.45	-51.3	-64.2	3.5	1.52e+00	0	40	104	0	60	56800
2026-01-25 00:41:50.20	168.34	0.51	-51.3	-64.1	3.5	1.52e+00	0	40	104	0	60	56563
2026-01-25 00:41:51.22	168.36	0.57	-51.2	-64.1	3.5	1.52e+00	0	40	104	0	60	56286
2026-01-25 00:41:52.23	168.38	0.63	-51.2	-64.1	3.5	1.52e+00	0	40	104	0	60	56054
2026-01-25 00:41:53.24	168.40	0.69	-51.2	-64.0	3.5	1.52e+00	0	40	104	0	60	55795
2026-01-25 00:41:54.24	168.42	0.75	-51.1	-64.0	3.5	1.52e+00	0	40	104	0	60	55782
2026-01-25 00:41:55.26	168.43	0.81	-51.1	-63.9	3.5	1.52e+00	0	40	104	0	60	55023
2026-01-25 00:41:56.26	168.45	0.88	-51.0	-63.9	3.5	1.51e+00	0	41	104	0	60	55017
2026-01-25 00:41:57.27	168.47	0.94	-50.9	-63.8	3.5	1.52e+00	0	40	104	0	60	54293
2026-01-25 00:41:58.28	168.49	1.00	-50.9	-63.8	3.5	1.52e+00	0	41	104	0	60	54234
2026-01-25 00:41:59.30	168.51	1.06	-50.8	-63.7	3.5	1.52e+00	0	41	104	0	60	53621
2026-01-25 00:42:00.31	168.53	1.13	-50.8	-63.6	3.5	1.52e+00	0	41	104	0	60	53424
2026-01-25 00:42:01.32	168.55	1.19	-50.7	-63.5	3.5	1.51e+00	0	41	104	0	60	52451
2026-01-25 00:42:02.33	168.57	1.25	-49.6	-62.4	3.5	1.51e+00	0	41	104	0	60	46470
2026-01-25 00:42:03.34	168.58	1.31	-50.5	-63.3	3.5	1.52e+00	0	41	104	0	60	51483
2026-01-25 00:42:04.35	168.60	1.38	-50.4	-63.2	3.5	1.52e+00	0	41	104	0	60	50820
2026-01-25 00:42:05.36	168.62	1.44	-50.3	-63.1	3.5	1.52e+00	0	41	104	0	60	50028
2026-01-25 00:42:06.37	168.64	1.50	-50.1	-63.0	3.5	1.52e+00	0	41	104	0	60	49385
2026-01-25 00:42:07.38	168.66	1.57	-49.8	-62.5	3.5	1.52e+00	0	41	104	0	60	47025
2026-01-25 00:42:08.39	168.68	1.63	-49.8	-62.3	3.5	1.52e+00	0	41	104	0	60	45799
2026-01-25 00:42:09.40	168.70	1.69	-49.7	-61.7	3.5	1.52e+00	0	41	104	0	60	42795
2026-01-25 00:42:10.40	168.72	1.75	-49.7	-62.0	3.5	1.52e+00	0	41	104	0	60	44410
2026-01-25 00:42:11.42	168.74	1.82	-49.7	-62.2	3.5	1.51e+00	0	41	104	0	60	45227
2026-01-25 00:42:12.43	168.76	1.88	-49.7	-62.2	3.5	1.52e+00	0	41	104	0	60	45403
2026-01-25 00:42:13.43	168.78	1.95	-49.8	-62.3	3.5	1.52e+00	0	41	104	0	60	45788
2026-01-25 00:42:14.44	168.80	2.01	-49.8	-62.5	3.5	1.52e+00	0	41	104	0	60	46992
2026-01-25 00:42:15.45	168.82	2.08	-49.8	-62.6	3.5	1.52e+00	0	41	104	0	60	47377
2026-01-25 00:42:16.46	168.84	2.14	-49.8	-62.6	3.4	1.52e+00	0	41	104	0	60	47485
2026-01-25 00:42:17.47	168.86	2.20	-49.8	-62.5	3.5	1.52e+00	0	41	104	0	60	46857
2026-01-25 00:42:18.48	168.88	2.27	-49.7	-62.4	3.5	1.52e+00	0	41	104	0	60	46291
2026-01-25 00:42:19.49	168.90	2.33	-49.7	-62.2	3.5	1.52e+00	0	41	104	0	60	45326
2026-01-25 00:42:20.50	168.92	2.40	-49.7	-61.9	3.5	1.51e+00	0	41	104	0	60	43552
2026-01-25 00:42:21.51	168.94	2.46	-49.7	-61.7	3.5	1.51e+00	0	41	104	0	60	42733
2026-01-25 00:42:22.52	168.96	2.53	-49.6	-61.4	3.5	1.51e+00	0	41	104	0	60	41350
2026-01-25 00:42:23.53	168.98	2.60	-49.7	-61.5	3.5	1.51e+00	0	41	104	0	60	41835
2026-01-25 00:42:24.54	169.00	2.66	-49.6	-61.3	3.5	1.51e+00	0	41	104	0	60	40913
2026-01-25 00:42:25.55	169.02	2.73	-49.7	-61.8	3.5	1.52e+00	0	41	104	0	60	43375
2026-01-25 00:42:26.56	169.04	2.79	-49.7	-62.0	3.5	1.51e+00	0	41	104	0	60	44381
2026-01-25 00:42:27.57	169.06	2.86	-49.7	-61.8	3.5	1.51e+00	0	41	104	0	60	43292
2026-01-25 00:42:28.58	169.08	2.93	-49.4	-59.5	3.6	1.51e+00	0	41	104	0	60	33217
2026-01-25 00:42:29.59	169.10	2.99	-49.0	-55.7	4.0	5.70e-01	57	41	104	0	60	21391
2026-01-25 00:42:30.60	169.12	3.06	-48.0	-53.3	8.6	4.59e-02	122	41	104	0	60	16266
2026-01-25 00:42:31.61	169.14	3.13	-47.0	-50.3	11.4	8.32e-03	123	41	0	3145728	60	11528
2026-01-25 00:42:32.62	169.16	3.19	-46.2	-49.1	12.7	4.27e-05	123	41	0	6291456	60	10003
2026-01-25 00:42:33.63	169.19	3.26	-45.0	-47.2	15.0	0.00e+00	122	41	0	9437184	60	8071
2026-01-25 00:42:34.64	169.21	3.33	-43.7	-45.5	16.4	0.00e+00	123	41	0	12582912	60	6586
2026-01-25 00:42:35.65	169.23	3.39	-43.2	-45.0	17.0	0.00e+00	123	41	0	14680064	60	6210
2026-01-25 00:42:36.66	169.25	3.46	-41.8	-43.2	18.5	0.00e+00	122	41	0	18874368	56	6356
2026-01-25 00:42:37.67	169.27	3.53	-41.5	-42.9	18.9	0.00e+00	120	41	0	22020096	56	6136
2026-01-25 00:42:38.68	169.29	3.60	-42.3	-43.8	18.0	0.00e+00	123	41	0	25165824	56	6829
2026-01-25 00:42:39.69	169.31	3.67	-41.9	-43.4	18.5	0.00e+00	122	41	0	28311552	56	6519
2026-01-25 00:42:40.70	169.34	3.73	-42.4	-43.9	17.9	0.00e+00	122	41	0	31457280	58	6191
2026-01-25 00:42:41.71	169.36	3.80	-42.1	-43.6	18.1	0.00e+00	123	41	0	34603008	58	5929
2026-01-25 00:42:42.72	169.38	3.87	-45.5	-47.9	14.0	0.00e+00	122	41	0	37748736	60	8688
2026-01-25 00:42:43.73	169.40	3.94	-47.3	-51.4	7.3	0.00e+00	120	41	0	40894464	60	13003
2026-01-25 00:42:44.74	169.42	4.01	-46.5	-49.9	4.9	1.49e+00	0	41	104	40894464	60	10990
2026-01-25 00:42:45.75	169.45	4.08	-44.3	-46.6	14.5	0.00e+00	122	41	104	40894464	56	9409
2026-01-25 00:42:46.76	169.47	4.15	-44.2	-46.5	16.2	6.12e-01	120	41	104	41943040	60	7391
2026-01-25 00:42:47.77	169.49	4.22	-43.6	-45.3	16.5	0.00e+00	122	41	0	42991616	60	6437
2026-01-25 00:42:48.78	169.51	4.29	-43.2	-44.8	16.5	0.00e+00	120	41	0	46137344	60	6125
2026-01-25 00:42:49.79	169.54	4.36	-43.8	-45.7	18.0	0.00e+00	120	41	0	49283072	60	6729
2026-01-25 00:42:50.80	169.56	4.43	-42.4	-43.8	17.1	0.00e+00	122	41	0	52428800	58	6106
2026-01-25 00:42:51.81	169.58	4.50	-43.1	-44.7	17.3	0.00e+00	120	41	0	55574528	60	6064
2026-01-25 00:42:52.82	169.60	4.57	-44.3	-46.2	16.0	0.00e+00	121	41	0	58720256	60	7192
2026-01-25 00:42:53.83	169.63	4.64	-43.9	-45.7	17.6	0.00e+00	123	41	0	61865984	60	6798
2026-01-25 00:42:54.84	169.65	4.71	-42.6	-44.1	17.1	0.00e+00	123	41	0	65011712	60	5619
2026-01-25 00:42:55.85	169.67	4.78	-44.0	-45.8	16.7	0.00e+00	121	41	0	68157440	60	6830
2026-01-25 00:42:56.86	169.70	4.85	-43.3	-45.0	16.2	0.00e+00	123	41	0	71303168	60	6250
2026-01-25 00:42:57.86	169.72	4.92	-43.8	-45.5	17.2	0.00e+00	120	41	0	74448896	58	7424
2026-01-25 00:42:58.88	169.74	4.99	-43.4	-45.1	16.4	0.00e+00	122	41	0	77594624	60	6308
2026-01-25 00:42:59.88	169.77	5.06	-44.2	-46.1	16.5	0.00e+00	122	41	0	80740352	60	7058
2026-01-25 00:43:00.89	169.79	5.13	-43.1	-44.6	18.0	0.00e+00	122	41	0	83886080	60	5983
2026-01-25 00:43:01.90	169.81	5.21	-42.8	-44.3	17.7	0.00e+00	123	41	0	87031808	58	6485
2026-01-25 00:43:02.91	169.84	5.28	-43.1	-44.7	17.6	0.00e+00	123	41	0	91226112	58	6801
2026-01-25 00:43:03.92	169.86	5.35	-42.9	-44.5	17.8	0.00e+00	123	41	0	94371840	58	6578
2026-01-25 00:43:04.93	169.88	5.42	-43.5	-45.2	16.7	0.00e+00	123	41	0	96468992	60	6378
2026-01-25 00:43:05.94	169.91	5.50	-42.2	-43.6	18.4	0.00e+00	123	41	0	99614720	58	5952
2026-01-25 00:43:06.95	169.93	5.57	-41.6	-43.0	19.2	0.00e+00	123	41	0	102760448	56	6220
2026-01-25 00:43:07.96	169.96	5.64	-41.7	-43.1	18.9	0.00e+00	121	41	0	106954752	56	6281
2026-01-25 00:43:08.96	169.98	5.72	-41.2	-42.4	19.6	0.00e+00	122	41	0	110100480	56	5833
2026-01-25 00:43:09.97	170.01	5.79	-41.7	-43.1	19.1	0.00e+00	122	41	0	113246208	56	6298
2026-01-25 00:43:10.98	170.03	5.86	-40.1	-41.2	20.5	0.00e+00	123	41	0	116391936	54	5705
2026-01-25 00:43:11.99	170.06	5.94	-40.8	-42.1	19.7	0.00e+00	122	41	0	118489088	54	6279
2026-01-25 00:43:13.00	170.08	6.01	-39.9	-41.0	21.0	0.00e+00	123	41	0	122683392	54	5590
2026-01-25 00:43:14.01	170.10	6.09	-40.8	-42.0	19.9	0.00e+00	123	41	0	125829120	54	6248
2026-01-25 00:43:15.03	170.13	6.16	-40.8	-42.0	20.2	0.00e+00	122	41	0	128974848	54	6217
2026-01-25 00:43:16.04	170.16	6.24	-40.6	-41.8	20.1	0.00e+00	122	41	0	132120576	54	6072
2026-01-25 00:43:17.04	170.18	6.31	-40.5	-41.7	20.4	0.00e+00	123	41	0	135266304	54	6009
2026-01-25 00:43:18.05	170.21	6.39	-40.4	-41.5	20.3	0.00e+00	120	41	0	138412032	54	5906
2026-01-25 00:43:19.06	170.23	6.46	-40.6	-41.8	20.5	0.00e+00	120	41	0	141557760	54	6112
2026-01-25 00:43:20.07	170.26	6.54	-40.5	-41.7	20.2	0.00e+00	122	41	0	144703488	54	6030
2026-01-25 00:43:21.08	170.28	6.61	-40.5	-41.7	20.1	0.00e+00	123	41	0	147849216	54	6012
2026-01-25 00:43:22.09	170.31	6.69	-40.1	-41.2	20.8	0.00e+00	122	41	0	150994944	54	5682
2026-01-25 00:43:23.10	170.33	6.77	-40.1	-41.3	20.6	0.00e+00	122	41	0	154140672	54	5752
2026-01-25 00:43:24.11	170.36	6.84	-40.0	-41.1	20.9	0.00e+00	122	41	0	157286400	54	5645
2026-01-25 00:43:25.12	170.39	6.92	-39.9	-41.0	20.9	0.00e+00	122	42	0	160432128	54	5548
2026-01-25 00:43:26.13	170.41	7.00	-39.9	-41.1	20.9	0.00e+00	127	42	0	163577856	54	5616
2026-01-25 00:43:27.14	170.44	7.07	-39.7	-40.8	21.1	0.00e+00	123	41	0	166723584	52	6132
2026-01-25 00:43:28.15	170.47	7.15	-39.9	-41.0	21.0	0.00e+00	123	41	0	169869312	52	6274
2026-01-25 00:43:29.16	170.49	7.23	-40.0	-41.1	20.9	0.00e+00	120	42	0	173015040	52	6318
2026-01-25 00:43:30.17	170.52	7.31	-39.8	-40.9	21.0	0.00e+00	123	41	0	176160768	52	6204
2026-01-25 00:43:31.18	170.55	7.38	-39.8	-41.0	21.0	0.00e+00	123	41	0	179306496	52	6206
2026-01-25 00:43:32.19	170.57	7.46	-39.8	-40.9	21.1	0.00e+00	123	41	0	182452224	52	6156
2026-01-25 00:43:33.20	170.60	7.54	-40.2	-41.3	20.8	0.00e+00	123	41	0	185597952	52	6454
2026-01-25 00:43:34.20	170.63	7.62	-39.7	-40.8	21.3	0.00e+00	123	42	0	188743680	52	6098
2026-01-25 00:43:35.21	170.66	7.70	-39.8	-40.9	21.1	0.00e+00	123	42	0	191889408	52	6147
2026-01-25 00:43:36.22	170.68	7.78	-39.5	-40.6	21.4	0.00e+00	123	42	0	195035136	52	5960
2026-01-25 00:43:37.23	170.71	7.86	-39.5	-40.6	21.3	0.00e+00	120	41	0	198180864	52	5931
2026-01-25 00:43:38.24	170.74	7.94	-39.8	-40.9	21.1	0.00e+00	123	41	0	201326592	52	6136
2026-01-25 00:43:39.24	170.77	8.02	-39.7	-40.8	21.2	0.00e+00	122	41	0	204472320	52	6079
2026-01-25 00:43:40.25	170.80	8.10	-39.7	-40.8	21.2	0.00e+00	122	42	0	207618048	52	6119
2026-01-25 00:43:41.26	170.82	8.18	-39.7	-40.8	21.0	0.00e+00	122	42	0	210763776	52	6127
2026-01-25 00:43:42.27	170.85	8.26	-40.0	-41.1	21.0	0.00e+00	120	42	0	213909504	52	6342
2026-01-25 00:43:43.28	170.88	8.34	-39.9	-41.0	21.0	0.00e+00	122	42	0	217055232	52	6248
2026-01-25 00:43:44.28	170.91	8.42	-39.6	-40.7	21.4	0.00e+00	125	42	0	220200960	52	6022
2026-01-25 00:43:45.29	170.94	8.50	-39.3	-40.3	21.5	0.00e+00	123	42	0	223346688	52	5782
2026-01-25 00:43:46.30	170.97	8.58	-39.3	-40.4	21.5	0.00e+00	123	42	0	226492416	52	5838
2026-01-25 00:43:47.32	171.00	8.67	-39.5	-40.6	21.4	0.00e+00	123	42	0	229638144	52	5960
2026-01-25 00:43:48.32	171.03	8.75	-39.6	-40.7	21.3	0.00e+00	120	42	0	232783872	52	6009
2026-01-25 00:43:49.33	171.05	8.83	-39.6	-40.7	21.3	0.00e+00	123	41	0	235929600	52	6037
2026-01-25 00:43:50.34	171.08	8.91	-39.6	-40.6	21.1	0.00e+00	120	42	0	239075328	52	5992
2026-01-25 00:43:51.35	171.11	9.00	-39.7	-40.8	21.1	0.00e+00	123	42	0	242221056	52	6102
2026-01-25 00:43:52.36	171.14	9.08	-39.7	-40.8	21.2	0.00e+00	123	42	0	245366784	52	6116
2026-01-25 00:43:53.36	171.17	9.16	-39.6	-40.7	21.3	0.00e+00	123	42	0	248512512	52	6040
2026-01-25 00:43:54.37	171.20	9.25	-39.8	-40.9	21.2	0.00e+00	123	42	0	251658240	52	6146
2026-01-25 00:43:55.38	171.23	9.33	-39.2	-40.3	21.7	0.00e+00	123	42	0	254803968	52	5736
2026-01-25 00:43:56.39	171.26	9.42	-39.3	-40.4	21.6	0.00e+00	120	42	0	257949696	52	5819
2026-01-25 00:43:57.40	171.30	9.50	-39.0	-40.1	21.8	0.00e+00	127	42	0	261095424	52	5622
2026-01-25 00:43:58.41	171.33	9.59	-38.7	-39.7	22.1	0.00e+00	123	42	0	264241152	50	6017
2026-01-25 00:43:59.42	171.36	9.67	-38.8	-39.8	22.1	0.00e+00	123	42	0	267386880	50	6102
2026-01-25 00:44:00.43	171.39	9.76	-38.9	-40.0	22.0	0.00e+00	123	42	0	270532608	50	6224
2026-01-25 00:44:01.44	171.42	9.85	-38.9	-40.0	22.1	0.00e+00	123	42	0	273678336	50	6215
2026-01-25 00:44:02.45	171.45	9.93	-38.9	-39.9	22.0	0.00e+00	123	42	0	276824064	50	6205
2026-01-25 00:44:03.46	171.48	10.02	-38.8	-39.9	22.0	0.00e+00	123	42	0	279969792	50	6143
2026-01-25 00:44:04.46	171.51	10.10	-38.3	-39.4	22.4	0.00e+00	122	42	0	283115520	50	5792
2026-01-25 00:44:05.47	171.55	10.19	-38.6	-39.7	22.3	0.00e+00	123	42	0	286261248	50	6003
2026-01-25 00:44:06.48	171.58	10.28	-38.7	-39.7	22.1	0.00e+00	123	42	0	289406976	50	6064
2026-01-25 00:44:07.49	171.61	10.37	-39.0	-40.0	22.0	0.00e+00	120	42	0	292552704	50	6268
2026-01-25 00:44:08.50	171.64	10.46	-38.5	-39.5	22.3	0.00e+00	123	42	0	295698432	50	5916
2026-01-25 00:44:09.51	171.68	10.54	-38.6	-39.6	22.3	0.00e+00	123	42	0	298844160	50	5977
2026-01-25 00:44:10.52	171.71	10.63	-38.5	-39.5	22.4	0.00e+00	122	42	0	301989888	50	5891
2026-01-25 00:44:11.53	171.74	10.72	-38.5	-39.5	22.3	0.00e+00	123	42	0	305135616	50	5919
2026-01-25 00:44:12.54	171.77	10.81	-38.6	-39.6	22.3	0.00e+00	121	42	0	308281344	50	5951
2026-01-25 00:44:13.55	171.81	10.90	-38.5	-39.6	22.4	0.00e+00	123	42	0	311427072	50	5933
2026-01-25 00:44:14.56	171.84	10.99	-38.3	-39.3	22.5	0.00e+00	123	42	0	314572800	50	5774
2026-01-25 00:44:15.57	171.88	11.08	-38.3	-39.3	22.7	0.00e+00	123	42	0	317718528	50	5740
2026-01-25 00:44:16.58	171.91	11.17	-38.4	-39.4	22.4	0.00e+00	122	42	0	320864256	50	5858
2026-01-25 00:44:17.59	171.94	11.26	-38.2	-39.2	22.7	0.00e+00	122	42	0	324009984	50	5689
2026-01-25 00:44:18.60	171.98	11.35	-38.3	-39.3	22.6	0.00e+00	122	42	0	327155712	50	5780
2026-01-25 00:44:19.61	172.01	11.45	-38.3	-39.3	22.6	0.00e+00	123	42	0	330301440	50	5753
2026-01-25 00:44:20.62	172.05	11.54	-38.4	-39.4	22.5	0.00e+00	123	42	0	333447168	50	5800
2026-01-25 00:44:21.64	172.08	11.63	-38.3	-39.3	22.6	0.00e+00	122	42	0	336592896	50	5772
2026-01-25 00:44:22.64	172.12	11.72	-38.4	-39.4	22.5	0.00e+00	123	42	0	339738624	50	5796
2026-01-25 00:44:23.65	172.15	11.82	-38.4	-39.4	22.6	0.00e+00	122	42	0	342884352	50	5815
2026-01-25 00:44:24.66	172.19	11.91	-38.5	-39.5	22.5	0.00e+00	122	42	0	346030080	50	5884
2026-01-25 00:44:25.68	172.22	12.00	-38.2	-39.2	22.7	0.00e+00	122	42	0	349175808	50	5682
2026-01-25 00:44:26.68	172.26	12.10	-38.3	-39.3	22.6	0.00e+00	122	42	0	352321536	50	5750
2026-01-25 00:44:27.70	172.30	12.19	-38.4	-39.4	22.6	0.00e+00	120	42	0	355467264	50	5813
2026-01-25 00:44:28.70	172.33	12.29	-38.1	-39.1	22.7	0.00e+00	122	42	0	358612992	50	5603
2026-01-25 00:44:29.71	172.37	12.38	-38.4	-39.3	22.6	0.00e+00	123	42	0	361758720	50	5787
2026-01-25 00:44:30.72	172.40	12.48	-38.2	-39.1	22.7	0.00e+00	122	42	0	364904448	50	5659
2026-01-25 00:44:31.73	172.44	12.57	-38.4	-39.4	22.6	0.00e+00	123	42	0	368050176	50	5810
2026-01-25 00:44:32.74	172.48	12.67	-38.1	-39.1	22.8	0.00e+00	123	42	0	371195904	50	5599
2026-01-25 00:44:33.75	172.52	12.77	-38.1	-39.1	22.8	0.00e+00	123	42	0	374341632	50	5635
2026-01-25 00:44:34.76	172.55	12.86	-38.0	-39.0	22.9	0.00e+00	120	42	0	377487360	50	5562
2026-01-25 00:44:35.76	172.59	12.96	-38.2	-39.2	22.7	0.00e+00	120	42	0	380633088	50	5694
2026-01-25 00:44:36.78	172.63	13.06	-38.4	-39.4	22.6	0.00e+00	122	42	0	383778816	50	5804
2026-01-25 00:44:37.79	172.67	13.16	-38.0	-39.0	22.9	0.00e+00	121	42	0	386924544	50	5572
2026-01-25 00:44:38.80	172.71	13.26	-38.1	-39.1	22.8	0.00e+00	123	42	0	390070272	50	5633
2026-01-25 00:44:39.80	172.75	13.35	-37.9	-38.8	23.0	0.00e+00	122	42	0	393216000	50	5454
2026-01-25 00:44:40.81	172.78	13.45	-37.9	-38.8	23.1	0.00e+00	122	42	0	396361728	50	5465
2026-01-25 00:44:41.82	172.82	13.55	-38.0	-39.0	23.0	0.00e+00	122	42	0	399507456	50	5532
2026-01-25 00:44:42.83	172.86	13.65	-37.8	-38.8	23.1	0.00e+00	122	42	0	402653184	50	5418
2026-01-25 00:44:43.84	172.90	13.75	-38.1	-39.1	22.9	0.00e+00	122	42	0	405798912	50	5599
2026-01-25 00:44:44.85	172.94	13.86	-38.0	-39.0	22.9	0.00e+00	122	42	0	408944640	50	5564
2026-01-25 00:44:45.86	172.98	13.96	-37.9	-38.9	23.0	0.00e+00	123	42	0	412090368	50	5497
2026-01-25 00:44:46.87	173.02	14.06	-37.7	-38.6	23.2	0.00e+00	123	42	0	415236096	48	5979
2026-01-25 00:44:47.88	173.06	14.16	-37.9	-38.8	23.1	0.00e+00	122	42	0	418381824	48	6130
2026-01-25 00:44:48.89	173.11	14.26	-37.9	-38.9	23.0	0.00e+00	122	42	0	421527552	48	6141
2026-01-25 00:44:49.90	173.15	14.37	-37.7	-38.6	23.2	0.00e+00	123	42	0	424673280	48	5976
2026-01-25 00:44:50.91	173.19	14.47	-37.8	-38.8	23.0	0.00e+00	120	42	0	427819008	48	6092
2026-01-25 00:44:51.92	173.23	14.57	-37.8	-38.8	23.1	0.00e+00	120	42	0	430964736	48	6071
2026-01-25 00:44:52.92	173.27	14.68	-38.0	-39.0	22.9	0.00e+00	123	42	0	434110464	48	6241
2026-01-25 00:44:53.93	173.31	14.78	-37.9	-38.9	23.1	0.00e+00	123	42	0	437256192	48	6148
2026-01-25 00:44:54.94	173.36	14.89	-37.9	-38.9	23.0	0.00e+00	122	42	0	440401920	48	6170
2026-01-25 00:44:55.95	173.40	14.99	-37.9	-38.9	23.0	0.00e+00	122	42	0	443547648	48	6150
2026-01-25 00:44:56.96	173.44	15.10	-37.9	-38.9	23.0	0.00e+00	120	42	0	446693376	48	6171
2026-01-25 00:44:57.97	173.49	15.21	-37.8	-38.8	23.2	0.00e+00	123	42	0	449839104	48	6082
2026-01-25 00:44:58.98	173.53	15.31	-38.0	-39.0	22.9	0.00e+00	123	42	0	452984832	48	6217
2026-01-25 00:44:59.99	173.57	15.42	-37.9	-38.9	23.0	0.00e+00	123	42	0	456130560	48	6189
2026-01-25 00:45:00.99	173.62	15.53	-38.0	-39.0	23.0	0.00e+00	123	42	0	459276288	48	6213
2026-01-25 00:45:02.00	173.66	15.64	-38.0	-39.0	23.0	0.00e+00	122	42	0	462422016	48	6210
2026-01-25 00:45:03.01	173.71	15.74	-38.1	-39.1	22.9	0.00e+00	122	42	0	465567744	48	6296
2026-01-25 00:45:04.02	173.75	15.85	-38.0	-39.0	22.9	0.00e+00	120	42	0	468713472	48	6219
2026-01-25 00:45:05.03	173.80	15.96	-38.1	-39.1	22.8	0.00e+00	122	42	0	471859200	48	6291
2026-01-25 00:45:06.04	173.84	16.07	-38.2	-39.2	22.8	0.00e+00	123	42	0	475004928	48	6368
2026-01-25 00:45:07.05	173.89	16.18	-38.0	-39.0	22.9	0.00e+00	120	42	0	478150656	48	6212
2026-01-25 00:45:08.06	173.94	16.30	-38.1	-39.0	22.9	0.00e+00	122	42	0	482344960	48	6277
2026-01-25 00:45:09.07	173.98	16.41	-38.0	-39.0	23.0	0.00e+00	123	42	0	484442112	48	6248
2026-01-25 00:45:10.08	174.03	16.52	-38.0	-39.0	22.9	0.00e+00	122	42	0	487587840	48	6262
2026-01-25 00:45:11.09	174.08	16.63	-38.1	-39.1	22.9	0.00e+00	122	42	0	490733568	48	6323
2026-01-25 00:45:12.10	174.12	16.75	-38.0	-39.0	22.9	0.00e+00	123	42	0	493879296	48	6223
2026-01-25 00:45:13.11	174.17	16.86	-38.0	-39.0	23.0	0.00e+00	122	42	0	498073600	48	6212
2026-01-25 00:45:14.12	174.22	16.97	-37.9	-38.9	23.0	0.00e+00	122	42	0	501219328	48	6155
2026-01-25 00:45:15.13	174.27	17.09	-37.9	-38.9	23.0	0.00e+00	123	42	0	504365056	48	6171
2026-01-25 00:45:16.14	174.32	17.20	-37.9	-38.9	22.9	0.00e+00	123	42	0	506462208	48	6157
2026-01-25 00:45:17.15	174.37	17.32	-38.1	-39.0	22.8	0.00e+00	122	42	0	510656512	48	6269
2026-01-25 00:45:18.16	174.42	17.44	-37.9	-38.9	23.0	0.00e+00	123	42	0	513802240	48	6150
2026-01-25 00:45:19.17	174.47	17.55	-37.9	-38.9	23.0	0.00e+00	122	42	0	516947968	48	6147
2026-01-25 00:45:20.18	174.52	17.67	-37.9	-38.8	23.1	0.00e+00	122	42	0	520093696	48	6129
2026-01-25 00:45:21.19	174.57	17.79	-38.0	-38.9	23.0	0.00e+00	122	42	0	523239424	48	6197
2026-01-25 00:45:22.20	174.62	17.91	-37.9	-38.9	23.0	0.00e+00	122	42	0	526385152	48	6157
2026-01-25 00:45:23.21	174.67	18.03	-37.7	-38.7	23.1	0.00e+00	123	42	0	529530880	48	6017
2026-01-25 00:45:24.22	174.72	18.15	-37.9	-38.9	23.0	0.00e+00	123	42	0	532676608	48	6140
2026-01-25 00:45:25.23	174.78	18.27	-37.8	-38.8	23.1	0.00e+00	123	42	0	535822336	48	6075
2026-01-25 00:45:26.24	174.83	18.39	-37.7	-38.7	23.1	0.00e+00	123	42	0	538968064	48	6013
2026-01-25 00:45:27.25	174.88	18.51	-37.9	-38.9	23.0	0.00e+00	122	42	0	542113792	48	6139
2026-01-25 00:45:28.26	174.94	18.63	-37.8	-38.7	23.0	0.00e+00	123	42	0	545259520	48	6059
2026-01-25 00:45:29.27	174.99	18.75	-37.7	-38.6	23.2	0.00e+00	122	42	0	548405248	48	5993
2026-01-25 00:45:30.27	175.04	18.88	-37.8	-38.7	23.0	0.00e+00	120	42	0	551550976	48	6051
2026-01-25 00:45:31.28	175.10	19.00	-37.5	-38.5	23.2	0.00e+00	123	42	0	554696704	48	5893
2026-01-25 00:45:32.30	175.15	19.13	-37.7	-38.7	23.1	0.00e+00	120	42	0	557842432	48	6013
2026-01-25 00:45:33.31	175.21	19.25	-37.6	-38.6	23.1	0.00e+00	122	42	0	560988160	48	5959
2026-01-25 00:45:34.32	175.27	19.38	-37.7	-38.7	23.1	0.00e+00	122	42	0	564133888	48	6018
2026-01-25 00:45:35.33	175.32	19.50	-37.5	-38.5	23.3	0.00e+00	120	42	0	567279616	48	5895
2026-01-25 00:45:36.34	175.38	19.63	-37.5	-38.4	23.2	0.00e+00	123	42	0	570425344	48	5858
2026-01-25 00:45:37.35	175.44	19.76	-37.4	-38.3	23.3	0.00e+00	123	42	0	573571072	48	5788
2026-01-25 00:45:38.36	175.49	19.88	-37.4	-38.3	23.4	0.00e+00	123	42	0	576716800	48	5768
2026-01-25 00:45:39.36	175.55	20.01	-37.4	-38.3	23.4	0.00e+00	123	42	0	579862528	48	5790
2026-01-25 00:45:40.37	175.61	20.14	-37.3	-38.3	23.4	0.00e+00	123	42	0	583008256	48	5733
2026-01-25 00:45:41.38	175.67	20.27	-37.3	-38.2	23.4	0.00e+00	120	42	0	586153984	48	5705
2026-01-25 00:45:42.39	175.73	20.40	-37.3	-38.2	23.5	0.00e+00	122	42	0	589299712	48	5721
2026-01-25 00:45:43.40	175.79	20.53	-37.3	-38.3	23.5	0.00e+00	123	42	0	592445440	48	5728
2026-01-25 00:45:44.41	175.85	20.67	-37.1	-38.1	23.6	0.00e+00	123	42	0	595591168	48	5597
2026-01-25 00:45:45.42	175.91	20.80	-37.3	-38.2	23.6	0.00e+00	122	42	0	598736896	48	5686
2026-01-25 00:45:46.43	175.97	20.93	-37.0	-38.0	23.7	0.00e+00	120	42	0	601882624	48	5535
2026-01-25 00:45:47.44	176.04	21.07	-37.0	-37.9	23.7	0.00e+00	123	42	0	605028352	48	5521
2026-01-25 00:45:48.45	176.10	21.20	-37.0	-37.9	23.7	0.00e+00	120	42	0	608174080	48	5509
2026-01-25 00:45:49.46	176.16	21.34	-37.0	-38.0	23.7	0.00e+00	122	42	0	611319808	48	5542
2026-01-25 00:45:50.47	176.22	21.47	-36.8	-37.7	23.9	0.00e+00	122	42	0	614465536	48	5391
2026-01-25 00:45:51.48	176.29	21.61	-36.8	-37.7	23.9	0.00e+00	120	42	0	617611264	48	5403
2026-01-25 00:45:52.49	176.35	21.75	-37.0	-37.9	23.8	0.00e+00	122	42	0	620756992	48	5476
2026-01-25 00:45:53.50	176.42	21.88	-36.7	-37.7	23.9	0.00e+00	122	42	0	623902720	46	6007
2026-01-25 00:45:54.51	176.48	22.02	-36.7	-37.7	23.9	0.00e+00	120	42	0	627048448	46	6005
2026-01-25 00:45:55.52	176.55	22.16	-36.8	-37.7	23.9	0.00e+00	123	42	0	630194176	46	6037
2026-01-25 00:45:56.53	176.62	22.30	-36.6	-37.5	24.0	0.00e+00	123	42	0	633339904	46	5909
2026-01-25 00:45:57.54	176.69	22.44	-36.5	-37.4	24.2	0.00e+00	127	42	0	636485632	46	5845
2026-01-25 00:45:58.55	176.75	22.59	-36.6	-37.5	24.1	0.00e+00	122	42	0	639631360	46	5908
2026-01-25 00:45:59.56	176.82	22.73	-36.4	-37.3	24.3	0.00e+00	123	42	0	642777088	46	5731
2026-01-25 00:46:00.57	176.89	22.87	-36.3	-37.3	24.3	0.00e+00	122	42	0	645922816	46	5736
2026-01-25 00:46:01.58	176.96	23.02	-36.3	-37.3	24.3	0.00e+00	122	42	0	649068544	46	5726
2026-01-25 00:46:02.59	177.03	23.16	-36.3	-37.2	24.3	0.00e+00	123	42	0	652214272	46	5713
2026-01-25 00:46:03.60	177.10	23.31	-36.4	-37.3	24.3	0.00e+00	123	42	0	655360000	46	5727
2026-01-25 00:46:04.61	177.17	23.45	-36.1	-37.1	24.4	0.00e+00	123	42	0	658505728	46	5598
2026-01-25 00:46:05.62	177.25	23.60	-36.0	-36.9	24.5	0.00e+00	123	42	0	661651456	46	5488
2026-01-25 00:46:06.63	177.32	23.75	-36.0	-36.9	24.6	0.00e+00	120	42	0	664797184	46	5479
2026-01-25 00:46:07.64	177.39	23.90	-35.9	-36.7	24.6	0.00e+00	122	42	0	667942912	46	5403
2026-01-25 00:46:08.65	177.47	24.05	-35.9	-36.8	24.7	0.00e+00	122	42	0	671088640	46	5426
2026-01-25 00:46:09.65	177.54	24.20	-36.0	-36.9	24.6	0.00e+00	120	42	0	674234368	46	5483
2026-01-25 00:46:10.66	177.62	24.35	-35.9	-36.8	24.7	0.00e+00	120	42	0	677380096	46	5452
2026-01-25 00:46:11.67	177.69	24.50	-36.1	-36.9	24.6	0.00e+00	123	42	0	680525824	46	5525
2026-01-25 00:46:12.68	177.77	24.65	-36.2	-37.1	24.4	0.00e+00	123	42	0	683671552	46	5623
2026-01-25 00:46:13.69	177.85	24.81	-36.1	-37.0	24.6	0.00e+00	123	42	0	686817280	46	5557
2026-01-25 00:46:14.70	177.93	24.96	-36.3	-37.2	24.6	0.00e+00	123	42	0	689963008	46	5670
2026-01-25 00:46:15.71	178.01	25.12	-36.2	-37.1	24.6	0.00e+00	122	42	0	693108736	46	5644
2026-01-25 00:46:16.71	178.09	25.27	-36.4	-37.3	24.4	0.00e+00	123	42	0	696254464	46	5774
2026-01-25 00:46:17.72	178.17	25.43	-36.6	-37.6	24.2	0.00e+00	123	42	0	699400192	46	5931
2026-01-25 00:46:18.73	178.25	25.59	-36.6	-37.5	24.3	0.00e+00	123	42	0	702545920	46	5912
2026-01-25 00:46:19.74	178.33	25.74	-36.8	-37.7	24.1	0.00e+00	122	42	0	705691648	46	6054
2026-01-25 00:46:20.75	178.41	25.90	-37.0	-37.9	23.9	0.00e+00	127	42	0	708837376	46	6189
2026-01-25 00:46:21.76	178.50	26.07	-37.1	-38.0	24.0	0.00e+00	123	42	0	711983104	46	6219
2026-01-25 00:46:22.77	178.58	26.23	-37.0	-37.9	24.0	0.00e+00	123	42	0	715128832	46	6182
2026-01-25 00:46:23.77	178.67	26.39	-37.1	-38.0	24.0	0.00e+00	124	42	0	718274560	46	6217
2026-01-25 00:46:24.79	178.75	26.55	-37.1	-38.0	23.9	0.00e+00	123	42	0	721420288	46	6268
2026-01-25 00:46:25.80	178.84	26.72	-37.3	-38.2	23.7	0.00e+00	122	42	0	724566016	46	6361
2026-01-25 00:46:26.80	178.93	26.88	-37.1	-38.0	23.9	0.00e+00	120	42	0	727711744	46	6231
2026-01-25 00:46:27.81	179.02	27.05	-37.1	-38.0	23.9	0.00e+00	123	42	0	730857472	46	6268
2026-01-25 00:46:28.82	179.11	27.22	-37.2	-38.1	23.9	0.00e+00	122	42	0	734003200	46	6315
2026-01-25 00:46:29.83	179.20	27.38	-37.2	-38.1	23.8	0.00e+00	123	42	0	737148928	46	6340
2026-01-25 00:46:30.84	179.29	27.55	-37.3	-38.2	23.8	0.00e+00	120	42	0	740294656	46	6362
2026-01-25 00:46:31.85	179.38	27.72	-37.5	-38.4	23.5	0.00e+00	122	42	0	743440384	46	6551
2026-01-25 00:46:32.86	179.48	27.89	-37.6	-38.5	23.5	0.00e+00	122	42	0	746586112	46	6624
2026-01-25 00:46:33.87	179.57	28.07	-37.7	-38.7	23.4	0.00e+00	123	42	0	749731840	46	6738
2026-01-25 00:46:34.88	179.67	28.24	-37.9	-38.8	23.3	0.00e+00	120	42	0	752877568	48	6116
2026-01-25 00:46:35.89	179.76	28.41	-38.0	-39.0	23.1	0.00e+00	122	42	0	756023296	48	6215
2026-01-25 00:46:36.90	179.86	28.59	-38.0	-39.0	23.1	0.00e+00	123	42	0	759169024	48	6244
2026-01-25 00:46:37.91	179.96	28.76	-38.1	-39.0	23.1	0.00e+00	120	42	0	762314752	48	6272
2026-01-25 00:46:38.92	180.06	28.94	-38.1	-39.1	23.0	0.00e+00	120	42	0	765460480	48	6288
2026-01-25 00:46:39.93	180.16	29.12	-38.3	-39.3	22.8	0.00e+00	123	42	0	768606208	48	6424
2026-01-25 00:46:40.94	180.26	29.30	-38.0	-39.0	23.0	0.00e+00	123	42	0	771751936	48	6232
2026-01-25 00:46:41.95	180.36	29.48	-38.2	-39.2	22.8	0.00e+00	120	42	0	774897664	48	6390
2026-01-25 00:46:42.96	180.47	29.66	-37.9	-38.9	23.2	0.00e+00	123	42	0	778043392	48	6169
2026-01-25 00:46:43.97	180.57	29.84	-38.0	-39.0	23.1	0.00e+00	123	42	0	781189120	48	6231
2026-01-25 00:46:44.98	180.68	30.03	-37.7	-38.6	23.4	0.00e+00	122	42	0	784334848	48	5979
2026-01-25 00:46:45.99	180.79	30.21	-37.7	-38.7	23.5	0.00e+00	123	42	0	787480576	48	6013
2026-01-25 00:46:47.00	180.90	30.40	-37.7	-38.7	23.4	0.00e+00	121	42	0	790626304	48	6025
2026-01-25 00:46:48.01	181.00	30.58	-37.6	-38.6	23.5	0.00e+00	123	42	0	793772032	48	5950
2026-01-25 00:46:49.02	181.12	30.77	-37.4	-38.4	23.7	0.00e+00	123	42	0	796917760	48	5812
2026-01-25 00:46:50.03	181.23	30.96	-37.3	-38.2	23.8	0.00e+00	123	42	0	800063488	48	5713
2026-01-25 00:46:51.04	181.34	31.15	-37.3	-38.2	23.9	0.00e+00	122	42	0	803209216	48	5687
2026-01-25 00:46:52.04	181.46	31.34	-37.2	-38.2	23.9	0.00e+00	120	42	0	806354944	48	5675
2026-01-25 00:46:53.05	181.57	31.53	-37.2	-38.1	23.9	0.00e+00	122	42	0	809500672	48	5659
2026-01-25 00:46:54.06	181.69	31.73	-37.2	-38.2	23.9	0.00e+00	120	42	0	812646400	48	5674
2026-01-25 00:46:55.07	181.81	31.92	-37.3	-38.2	23.8	0.00e+00	120	42	0	815792128	48	5712
2026-01-25 00:46:56.08	181.93	32.12	-37.4	-38.3	23.8	0.00e+00	122	42	0	818937856	48	5754
2026-01-25 00:46:57.09	182.05	32.31	-37.5	-38.4	23.8	0.00e+00	122	42	0	822083584	48	5827
2026-01-25 00:46:58.10	182.17	32.51	-37.4	-38.3	23.8	0.00e+00	120	42	0	825229312	48	5750
2026-01-25 00:46:59.11	182.30	32.71	-37.4	-38.3	23.8	0.00e+00	123	42	0	828375040	48	5750
2026-01-25 00:47:00.11	182.42	32.91	-37.3	-38.2	23.9	0.00e+00	122	42	0	831520768	48	5706
2026-01-25 00:47:01.12	182.55	33.11	-37.4	-38.3	23.8	0.00e+00	123	42	0	834666496	48	5779
2026-01-25 00:47:02.13	182.68	33.31	-37.5	-38.4	23.7	0.00e+00	123	42	0	837812224	48	5845
2026-01-25 00:47:03.14	182.81	33.52	-37.6	-38.5	23.6	0.00e+00	123	42	0	840957952	48	5913
2026-01-25 00:47:04.15	182.94	33.72	-37.7	-38.6	23.6	0.00e+00	121	42	0	844103680	48	5977
2026-01-25 00:47:05.16	183.08	33.93	-37.7	-38.7	23.5	0.00e+00	122	42	0	847249408	48	6006
2026-01-25 00:47:06.17	183.21	34.14	-37.8	-38.7	23.5	0.00e+00	120	42	0	850395136	48	6047
2026-01-25 00:47:07.18	183.35	34.35	-37.8	-38.8	23.4	0.00e+00	123	42	0	853540864	48	6088
2026-01-25 00:47:08.19	183.49	34.56	-37.9	-38.8	23.4	0.00e+00	120	42	0	856686592	48	6092
2026-01-25 00:47:09.20	183.63	34.77	-38.2	-39.1	23.1	0.00e+00	123	42	0	859832320	48	6325
2026-01-25 00:47:10.20	183.77	34.98	-38.4	-39.4	22.9	0.00e+00	123	42	0	864026624	48	6518
2026-01-25 00:47:11.21	183.91	35.19	-38.6	-39.6	22.7	0.00e+00	120	42	0	867172352	48	6665
2026-01-25 00:47:12.22	184.06	35.41	-38.7	-39.7	22.6	0.00e+00	122	42	0	870318080	48	6755
2026-01-25 00:47:13.23	184.21	35.62	-38.8	-39.8	22.6	0.00e+00	120	42	0	872415232	50	6113
2026-01-25 00:47:14.24	184.36	35.84	-39.0	-40.0	22.4	0.00e+00	123	42	0	875560960	50	6232
2026-01-25 00:47:15.25	184.51	36.06	-39.0	-40.0	22.4	0.00e+00	122	42	0	878706688	50	6221
2026-01-25 00:47:16.26	184.66	36.28	-39.1	-40.2	22.3	0.00e+00	122	42	0	882900992	50	6359
2026-01-25 00:47:17.27	184.82	36.50	-39.4	-40.4	22.1	0.00e+00	120	42	0	886046720	50	6541
2026-01-25 00:47:18.28	184.98	36.73	-39.2	-40.2	22.2	0.00e+00	123	42	0	889192448	50	6414
2026-01-25 00:47:19.29	185.14	36.95	-39.4	-40.4	22.1	0.00e+00	122	42	0	892338176	50	6540
2026-01-25 00:47:20.30	185.30	37.18	-39.3	-40.4	22.2	0.00e+00	122	42	0	895483904	50	6504
2026-01-25 00:47:21.31	185.46	37.40	-39.2	-40.3	22.2	0.00e+00	123	42	0	898629632	50	6429
2026-01-25 00:47:22.32	185.63	37.63	-39.2	-40.3	22.3	0.00e+00	122	42	0	901775360	50	6445
2026-01-25 00:47:23.33	185.80	37.86	-39.2	-40.2	22.3	0.00e+00	123	42	0	904921088	50	6416
2026-01-25 00:47:24.34	185.97	38.09	-39.1	-40.1	22.3	0.00e+00	122	42	0	908066816	50	6341
2026-01-25 00:47:25.35	186.15	38.32	-39.1	-40.1	22.4	0.00e+00	123	42	0	911212544	50	6290
2026-01-25 00:47:26.36	186.32	38.56	-39.1	-40.1	22.3	0.00e+00	121	42	0	914358272	50	6338
2026-01-25 00:47:27.36	186.50	38.79	-39.1	-40.1	22.4	0.00e+00	123	42	0	917504000	50	6340
2026-01-25 00:47:28.37	186.68	39.02	-39.2	-40.3	22.2	0.00e+00	123	42	0	920649728	50	6443
2026-01-25 00:47:29.38	186.86	39.26	-39.2	-40.2	22.2	0.00e+00	121	42	0	923795456	50	6381
2026-01-25 00:47:30.39	187.05	39.50	-39.2	-40.2	22.1	0.00e+00	123	42	0	926941184	50	6422
2026-01-25 00:47:31.40	187.24	39.74	-39.2	-40.2	22.0	0.00e+00	123	42	0	930086912	50	6399
2026-01-25 00:47:32.41	187.43	39.98	-39.3	-40.4	21.8	0.00e+00	123	42	0	933232640	50	6529
2026-01-25 00:47:33.42	187.63	40.22	-39.4	-40.4	21.7	0.00e+00	122	42	0	936378368	50	6572
2026-01-25 00:47:34.43	187.82	40.47	-39.4	-40.5	21.7	0.00e+00	122	42	0	939524096	50	6602
2026-01-25 00:47:35.44	188.02	40.71	-39.6	-40.7	21.6	0.00e+00	122	42	0	942669824	50	6744
2026-01-25 00:47:36.45	188.23	40.96	-39.9	-40.9	21.5	0.00e+00	122	42	0	945815552	52	6190
2026-01-25 00:47:37.46	188.43	41.20	-40.0	-41.1	21.5	0.00e+00	122	42	0	948961280	52	6295
2026-01-25 00:47:38.47	188.64	41.45	-40.1	-41.2	21.3	0.00e+00	120	42	0	952107008	52	6395
2026-01-25 00:47:39.48	188.86	41.70	-40.1	-41.2	21.3	0.00e+00	123	42	0	955252736	52	6370
2026-01-25 00:47:40.49	189.07	41.95	-40.2	-41.3	21.2	0.00e+00	120	42	0	958398464	52	6442
2026-01-25 00:47:41.50	189.29	42.21	-39.9	-41.0	21.4	0.00e+00	120	42	0	961544192	52	6222
2026-01-25 00:47:42.51	189.51	42.46	-39.7	-40.8	21.5	0.00e+00	122	42	0	964689920	52	6113
2026-01-25 00:47:43.52	189.74	42.72	-39.9	-41.0	21.5	0.00e+00	122	42	0	967835648	52	6232
2026-01-25 00:47:44.53	189.97	42.97	-39.9	-41.0	21.6	0.00e+00	123	42	0	970981376	52	6235
2026-01-25 00:47:45.54	190.20	43.23	-40.0	-41.1	21.5	0.00e+00	120	42	0	974127104	52	6329
2026-01-25 00:47:46.55	190.44	43.49	-40.5	-41.6	21.1	0.00e+00	123	42	0	977272832	52	6716
2026-01-25 00:47:47.56	190.68	43.75	-40.7	-41.9	20.9	0.00e+00	123	42	0	980418560	52	6909
2026-01-25 00:47:48.57	190.93	44.01	-41.0	-42.2	20.7	0.00e+00	123	42	0	983564288	54	6367
2026-01-25 00:47:49.57	191.17	44.27	-41.1	-42.3	20.6	0.00e+00	122	42	0	986710016	54	6468
2026-01-25 00:47:50.59	191.43	44.54	-40.6	-41.7	21.0	0.00e+00	123	42	0	989855744	54	6057
2026-01-25 00:47:51.60	191.69	44.80	-40.4	-41.5	21.1	0.00e+00	123	42	0	993001472	54	5924
2026-01-25 00:47:52.60	191.95	45.07	-40.2	-41.3	21.4	0.00e+00	123	42	0	996147200	54	5749
2026-01-25 00:47:53.61	192.21	45.33	-40.1	-41.2	21.4	0.00e+00	122	42	0	999292928	54	5692
2026-01-25 00:47:54.62	192.48	45.60	-40.2	-41.3	21.3	0.00e+00	123	42	0	1002438656	54	5749
2026-01-25 00:47:55.63	192.76	45.87	-40.4	-41.6	21.2	0.00e+00	122	42	0	1005584384	54	5944
2026-01-25 00:47:56.64	193.04	46.14	-40.4	-41.5	21.1	0.00e+00	123	42	0	1008730112	54	5906
2026-01-25 00:47:57.65	193.32	46.41	-40.6	-41.8	21.0	0.00e+00	123	42	0	1011875840	54	6074
2026-01-25 00:47:58.66	193.61	46.68	-40.0	-41.1	21.4	0.00e+00	123	42	0	1015021568	54	5651
2026-01-25 00:47:59.67	193.90	46.96	-40.0	-41.1	21.4	0.00e+00	123	42	0	1018167296	54	5644
2026-01-25 00:48:00.68	194.20	47.23	-39.7	-40.8	21.7	0.00e+00	123	42	0	1021313024	52	6076
2026-01-25 00:48:01.69	194.51	47.51	-39.3	-40.3	22.0	0.00e+00	120	42	0	1024458752	52	5768
2026-01-25 00:48:02.70	194.82	47.78	-39.3	-40.3	22.1	0.00e+00	120	42	0	1027604480	52	5750
2026-01-25 00:48:03.71	195.13	48.06	-39.3	-40.3	22.2	0.00e+00	123	42	0	1030750208	52	5742
2026-01-25 00:48:04.71	195.45	48.34	-39.3	-40.3	22.2	0.00e+00	123	42	0	1033895936	52	5773
2026-01-25 00:48:05.72	195.78	48.62	-38.8	-39.8	22.6	0.00e+00	123	42	0	1037041664	52	5448
2026-01-25 00:48:06.73	196.11	48.90	-38.6	-39.6	22.8	0.00e+00	123	42	0	1040187392	50	5951
2026-01-25 00:48:07.74	196.45	49.18	-38.4	-39.4	22.9	0.00e+00	123	42	0	1043333120	50	5827
2026-01-25 00:48:08.75	196.79	49.46	-38.7	-39.6	22.7	0.00e+00	123	42	0	1046478848	50	5977
2026-01-25 00:48:09.76	197.14	49.74	-38.7	-39.7	22.7	0.00e+00	123	42	0	1049624576	50	6032
2026-01-25 00:48:10.77	197.50	50.02	-38.9	-39.9	22.6	0.00e+00	122	42	0	1052770304	50	6149
2026-01-25 00:48:11.78	197.86	50.31	-39.1	-40.1	22.5	0.00e+00	123	42	0	1055916032	50	6331
2026-01-25 00:48:12.79	198.23	50.59	-39.0	-39.9	22.6	0.00e+00	123	42	0	1059061760	50	6190
2026-01-25 00:48:13.80	198.61	50.87	-39.0	-40.0	22.6	0.00e+00	123	42	0	1062207488	50	6210
2026-01-25 00:48:14.81	199.00	51.16	-38.7	-39.7	22.8	0.00e+00	120	42	0	1065353216	50	6020
2026-01-25 00:48:15.82	199.39	51.44	-38.7	-39.6	22.7	0.00e+00	123	42	0	1068498944	50	5980
2026-01-25 00:48:16.83	199.79	51.73	-38.8	-39.8	22.7	0.00e+00	122	42	0	1071644672	50	6119
2026-01-25 00:48:17.84	200.20	52.01	-38.7	-39.7	22.8	0.00e+00	120	42	0	1074790400	50	5997
2026-01-25 00:48:18.84	200.61	52.30	-38.6	-39.6	22.9	0.00e+00	123	42	0	1077936128	50	5927
2026-01-25 00:48:19.86	201.03	52.58	-38.1	-39.0	23.2	0.00e+00	122	42	0	1081081856	50	5582
2026-01-25 00:48:20.86	201.46	52.87	-37.8	-38.7	23.6	0.00e+00	120	42	0	1084227584	50	5402
2026-01-25 00:48:21.87	201.90	53.15	-37.8	-38.8	23.6	0.00e+00	123	42	0	1087373312	50	5406
2026-01-25 00:48:22.88	202.35	53.44	-37.8	-38.7	23.6	0.00e+00	120	42	0	1090519040	50	5375
2026-01-25 00:48:23.89	202.81	53.72	-37.8	-38.7	23.5	0.00e+00	123	42	0	1093664768	50	5361
2026-01-25 00:48:24.90	203.27	54.01	-37.9	-38.8	23.4	0.00e+00	122	42	0	1096810496	50	5460
2026-01-25 00:48:25.91	203.75	54.29	-38.0	-38.9	23.4	0.00e+00	123	42	0	1099956224	50	5500
2026-01-25 00:48:26.92	204.23	54.58	-37.9	-38.9	23.4	0.00e+00	123	42	0	1103101952	50	5480
2026-01-25 00:48:27.93	204.73	54.86	-37.7	-38.7	23.7	0.00e+00	123	42	0	1106247680	48	6010
2026-01-25 00:48:28.94	205.23	55.15	-37.6	-38.6	23.7	0.00e+00	123	42	0	1109393408	48	5946
2026-01-25 00:48:29.95	205.74	55.43	-37.7	-38.6	23.6	0.00e+00	121	42	0	1112539136	48	5959
2026-01-25 00:48:30.96	206.27	55.71	-37.6	-38.6	23.6	0.00e+00	123	42	0	1115684864	48	5936
2026-01-25 00:48:31.97	206.80	55.99	-37.8	-38.7	23.6	0.00e+00	122	42	0	1118830592	48	6047
2026-01-25 00:48:32.98	207.35	56.27	-37.4	-38.3	23.7	0.00e+00	120	42	0	1121976320	48	5756
2026-01-25 00:48:33.99	207.91	56.55	-37.4	-38.4	23.6	0.00e+00	123	42	0	1125122048	48	5803
2026-01-25 00:48:35.00	208.47	56.83	-37.5	-38.4	23.5	0.00e+00	127	42	0	1128267776	48	5852
2026-01-25 00:48:36.00	209.05	57.10	-37.4	-38.3	23.8	0.00e+00	120	42	0	1131413504	48	5753
2026-01-25 00:48:37.01	209.64	57.38	-37.4	-38.3	23.8	0.00e+00	122	42	0	1134559232	48	5750
2026-01-25 00:48:38.02	210.24	57.65	-37.2	-38.1	23.9	0.00e+00	123	42	0	1137704960	48	5630
2026-01-25 00:48:39.03	210.86	57.92	-37.4	-38.3	23.7	0.00e+00	122	42	0	1140850688	48	5780
2026-01-25 00:48:40.04	211.48	58.19	-37.2	-38.2	23.7	0.00e+00	122	42	0	1143996416	48	5704
2026-01-25 00:48:41.05	212.12	58.46	-37.1	-38.1	24.0	0.00e+00	123	42	0	1147142144	48	5605
2026-01-25 00:48:42.06	212.78	58.72	-36.6	-37.5	24.5	0.00e+00	123	42	0	1150287872	46	5890
2026-01-25 00:48:43.07	213.44	58.99	-36.7	-37.6	24.4	0.00e+00	123	42	0	1153433600	46	5964
2026-01-25 00:48:44.08	214.12	59.25	-36.0	-36.9	24.8	0.00e+00	122	42	0	1156579328	46	5471
2026-01-25 00:48:45.09	214.82	59.51	-36.1	-36.9	24.8	0.00e+00	123	42	0	1159725056	46	5530
2026-01-25 00:48:46.10	215.52	59.76	-36.0	-36.9	24.9	0.00e+00	122	42	0	1162870784	46	5470
2026-01-25 00:48:47.11	216.24	60.01	-36.0	-36.9	24.8	0.00e+00	120	42	0	1166016512	46	5508
2026-01-25 00:48:48.12	216.98	60.26	-36.1	-36.9	24.9	0.00e+00	122	42	0	1169162240	46	5528
2026-01-25 00:48:49.13	217.73	60.51	-36.0	-36.9	25.1	0.00e+00	122	42	0	1172307968	46	5480
2026-01-25 00:48:50.14	218.49	60.75	-35.9	-36.8	24.9	0.00e+00	122	42	0	1175453696	46	5443
2026-01-25 00:48:51.15	219.27	60.99	-35.9	-36.8	24.9	0.00e+00	120	42	0	1178599424	46	5449
2026-01-25 00:48:52.16	220.06	61.23	-36.1	-37.0	24.9	0.00e+00	122	42	0	1181745152	46	5532
2026-01-25 00:48:53.17	220.87	61.46	-36.1	-36.9	24.9	0.00e+00	122	42	0	1184890880	46	5530
2026-01-25 00:48:54.18	221.69	61.69	-36.1	-37.0	24.8	0.00e+00	123	42	0	1188036608	46	5537
2026-01-25 00:48:55.18	222.52	61.91	-35.9	-36.8	24.9	0.00e+00	122	42	0	1191182336	46	5426
2026-01-25 00:48:56.19	223.37	62.12	-35.9	-36.7	25.1	0.00e+00	122	42	0	1194328064	46	5386
2026-01-25 00:48:57.20	224.24	62.34	-35.6	-36.4	25.2	0.00e+00	121	42	0	1197473792	44	5845
2026-01-25 00:48:58.21	225.12	62.55	-35.8	-36.6	25.2	0.00e+00	123	42	0	1200619520	44	5985
2026-01-25 00:48:59.22	226.02	62.75	-36.4	-37.3	24.6	0.00e+00	123	42	0	1203765248	44	6455
2026-01-25 00:49:00.23	226.93	62.95	-36.7	-37.6	24.5	0.00e+00	123	42	0	1206910976	46	5947
2026-01-25 00:49:01.24	227.86	63.14	-36.6	-37.5	24.5	0.00e+00	123	42	0	1210056704	46	5908
2026-01-25 00:49:02.25	228.80	63.33	-36.3	-37.2	24.6	0.00e+00	123	42	0	1213202432	46	5713
2026-01-25 00:49:03.26	229.76	63.51	-36.2	-37.0	24.9	0.00e+00	123	42	0	1216348160	46	5592
2026-01-25 00:49:04.27	230.73	63.68	-36.0	-36.8	25.1	0.00e+00	120	42	0	1219493888	46	5465
2026-01-25 00:49:05.27	231.71	63.85	-36.1	-37.0	24.9	0.00e+00	122	42	0	1222639616	46	5557
2026-01-25 00:49:06.28	232.71	64.01	-36.6	-37.5	24.6	0.00e+00	123	42	0	1225785344	46	5902
2026-01-25 00:49:07.30	233.73	64.17	-36.6	-37.5	24.6	0.00e+00	122	42	0	1228931072	46	5867
2026-01-25 00:49:08.31	234.76	64.32	-36.2	-37.1	24.9	0.00e+00	120	42	0	1233125376	46	5648
2026-01-25 00:49:09.32	235.80	64.46	-36.2	-37.1	24.9	0.00e+00	123	42	0	1236271104	46	5648
2026-01-25 00:49:10.33	236.85	64.59	-35.8	-36.7	24.8	0.00e+00	122	42	0	1238368256	46	5378
2026-01-25 00:49:11.34	237.91	64.72	-36.1	-37.0	24.8	0.00e+00	123	42	0	1241513984	46	5579
2026-01-25 00:49:12.35	238.99	64.83	-36.2	-37.0	24.9	0.00e+00	122	42	0	1244659712	46	5577
2026-01-25 00:49:13.35	240.06	64.94	-36.1	-36.9	25.1	0.00e+00	123	42	0	1247805440	46	5513
2026-01-25 00:49:14.36	241.16	65.05	-35.9	-36.8	25.0	0.00e+00	122	42	0	1251999744	46	5416
2026-01-25 00:49:15.37	242.27	65.14	-35.7	-36.6	25.1	0.00e+00	122	42	0	1255145472	44	5957
2026-01-25 00:49:16.38	243.38	65.23	-35.8	-36.7	25.0	0.00e+00	122	42	0	1258291200	44	6026
2026-01-25 00:49:17.39	244.50	65.31	-35.5	-36.4	25.2	0.00e+00	123	42	0	1260388352	44	5813
2026-01-25 00:49:18.40	245.64	65.38	-35.8	-36.7	25.0	0.00e+00	123	42	0	1263534080	44	6033
2026-01-25 00:49:19.41	246.77	65.44	-36.4	-37.3	24.5	0.00e+00	120	42	0	1267728384	44	6493
2026-01-25 00:49:20.42	247.92	65.49	-36.5	-37.5	24.4	0.00e+00	123	42	0	1270874112	44	6585
2026-01-25 00:49:21.43	249.06	65.53	-36.3	-37.2	24.7	0.00e+00	123	42	0	1274019840	44	6405
2026-01-25 00:49:22.44	250.22	65.57	-35.9	-36.7	25.0	0.00e+00	123	42	0	1277165568	44	6054
2026-01-25 00:49:23.45	251.37	65.59	-35.9	-36.8	24.9	0.00e+00	123	42	0	1280311296	44	6107
2026-01-25 00:49:24.46	252.53	65.61	-36.2	-37.1	24.9	0.00e+00	123	42	0	1283457024	44	6317
2026-01-25 00:49:25.47	253.69	65.62	-36.3	-37.2	24.9	0.00e+00	123	42	0	1286602752	44	6404
2026-01-25 00:49:26.48	254.85	65.62	-36.4	-37.3	24.7	0.00e+00	120	42	0	1289748480	44	6481
2026-01-25 00:49:27.49	256.01	65.61	-36.2	-37.1	24.6	0.00e+00	122	42	0	1292894208	44	6299
2026-01-25 00:49:28.50	257.16	65.59	-36.1	-37.0	24.3	0.00e+00	120	41	0	1296039936	44	6257
2026-01-25 00:49:29.51	258.32	65.56	-36.4	-37.3	24.4	0.00e+00	122	42	0	1299185664	44	6495
2026-01-25 00:49:30.52	259.47	65.53	-36.9	-37.8	24.3	0.00e+00	122	42	0	1302331392	46	6097
2026-01-25 00:49:31.53	260.62	65.48	-37.3	-38.2	24.0	0.00e+00	122	42	0	1305477120	46	6408
2026-01-25 00:49:32.54	261.76	65.43	-37.4	-38.3	24.0	0.00e+00	123	42	0	1308622848	46	6452
2026-01-25 00:49:33.55	262.89	65.36	-37.2	-38.1	24.1	0.00e+00	122	42	0	1311768576	46	6315
2026-01-25 00:49:34.56	264.02	65.29	-36.6	-37.5	24.7	0.00e+00	124	42	0	1314914304	46	5859
2026-01-25 00:49:35.57	265.15	65.21	-36.2	-37.1	24.9	0.00e+00	122	42	0	1318060032	46	5641
2026-01-25 00:49:36.58	266.26	65.13	-36.2	-37.0	25.0	0.00e+00	123	42	0	1321205760	46	5576
2026-01-25 00:49:37.59	267.36	65.03	-36.4	-37.3	24.7	0.00e+00	122	42	0	1324351488	46	5741
2026-01-25 00:49:38.60	268.46	64.93	-36.9	-37.8	24.2	0.00e+00	123	42	0	1327497216	46	6100
2026-01-25 00:49:39.61	269.54	64.81	-36.7	-37.6	24.3	0.00e+00	120	42	0	1330642944	46	5970
2026-01-25 00:49:40.62	270.61	64.69	-36.5	-37.4	24.5	0.00e+00	120	42	0	1333788672	46	5796
2026-01-25 00:49:41.63	271.67	64.57	-36.0	-36.8	25.2	0.00e+00	122	42	0	1336934400	46	5439
2026-01-25 00:49:42.64	272.72	64.43	-36.3	-37.2	24.8	0.00e+00	122	42	0	1340080128	46	5688
2026-01-25 00:49:43.64	273.75	64.29	-36.9	-37.9	24.2	0.00e+00	122	42	0	1343225856	46	6140
2026-01-25 00:49:44.65	274.77	64.14	-37.0	-37.9	24.2	0.00e+00	122	41	0	1346371584	46	6151
2026-01-25 00:49:45.66	275.78	63.99	-36.9	-37.8	24.3	0.00e+00	122	42	0	1349517312	46	6079
2026-01-25 00:49:46.68	276.79	63.82	-36.9	-37.8	24.1	0.00e+00	123	42	0	1352663040	46	6087
2026-01-25 00:49:47.69	277.77	63.65	-36.5	-37.4	24.5	0.00e+00	123	42	0	1355808768	46	5820
2026-01-25 00:49:48.69	278.73	63.48	-36.3	-37.2	24.8	0.00e+00	122	42	0	1358954496	46	5673
2026-01-25 00:49:49.70	279.68	63.30	-36.3	-37.1	24.8	0.00e+00	123	42	0	1362100224	46	5653
2026-01-25 00:49:50.71	280.62	63.11	-36.7	-37.6	24.5	0.00e+00	122	42	0	1365245952	46	5942
2026-01-25 00:49:51.72	281.55	62.92	-37.0	-37.9	24.4	0.00e+00	120	42	0	1368391680	46	6186
2026-01-25 00:49:52.73	282.46	62.72	-36.7	-37.6	24.5	0.00e+00	122	42	0	1371537408	46	5934
2026-01-25 00:49:53.74	283.35	62.51	-36.4	-37.3	24.6	0.00e+00	120	42	0	1374683136	46	5762
2026-01-25 00:49:54.75	284.23	62.31	-36.5	-37.4	24.5	0.00e+00	122	42	0	1377828864	46	5837
2026-01-25 00:49:55.76	285.09	62.09	-37.3	-38.2	24.0	0.00e+00	123	42	0	1380974592	46	6414
2026-01-25 00:49:56.77	285.94	61.87	-38.0	-39.0	23.6	0.00e+00	120	42	0	1384120320	48	6229
2026-01-25 00:49:57.78	286.77	61.65	-38.4	-39.3	23.1	0.00e+00	123	42	0	1387266048	48	6497
2026-01-25 00:49:58.79	287.59	61.42	-38.3	-39.2	23.1	0.00e+00	120	42	0	1390411776	48	6418
2026-01-25 00:49:59.80	288.40	61.19	-37.7	-38.6	23.8	0.00e+00	122	42	0	1393557504	48	5954
2026-01-25 00:50:00.81	289.19	60.96	-36.6	-37.4	24.6	0.00e+00	120	42	0	1396703232	46	5852
2026-01-25 00:50:01.81	289.95	60.72	-36.1	-36.9	25.1	0.00e+00	123	42	0	1399848960	46	5501
2026-01-25 00:50:02.82	290.71	60.48	-36.5	-37.4	24.3	0.00e+00	120	42	0	1402994688	46	5812
2026-01-25 00:50:03.84	291.47	60.23	-37.6	-38.6	23.7	0.00e+00	122	42	0	1406140416	46	6665
2026-01-25 00:50:04.84	292.19	59.98	-38.3	-39.3	23.1	0.00e+00	123	42	0	1409286144	48	6465
2026-01-25 00:50:05.85	292.91	59.73	-37.9	-38.9	23.4	0.00e+00	122	42	0	1412431872	48	6144
2026-01-25 00:50:06.86	293.61	59.47	-37.3	-38.2	23.8	0.00e+00	121	42	0	1415577600	48	5691
2026-01-25 00:50:07.87	294.30	59.21	-36.4	-37.3	24.5	0.00e+00	123	42	0	1418723328	46	5737
2026-01-25 00:50:08.88	294.98	58.95	-36.3	-37.1	24.6	0.00e+00	123	42	0	1421869056	46	5640
2026-01-25 00:50:09.89	295.64	58.69	-36.5	-37.3	24.6	0.00e+00	122	42	0	1425014784	46	5790
2026-01-25 00:50:10.90	296.29	58.43	-37.5	-38.4	23.8	0.00e+00	120	42	0	1428160512	46	6547
2026-01-25 00:50:11.92	296.93	58.16	-38.7	-39.7	22.8	0.00e+00	123	42	0	1431306240	48	6733
2026-01-25 00:50:12.92	297.55	57.89	-38.6	-39.7	22.6	0.00e+00	120	42	0	1434451968	50	6006
2026-01-25 00:50:13.94	298.17	57.62	-37.9	-38.9	22.6	0.00e+00	123	42	0	1437597696	50	5530
2026-01-25 00:50:14.94	298.76	57.35	-37.5	-38.5	23.0	0.00e+00	122	42	0	1440743424	48	5888
2026-01-25 00:50:15.95	299.35	57.07	-36.9	-37.8	24.0	0.00e+00	122	42	0	1443889152	48	5466
2026-01-25 00:50:16.96	299.93	56.80	-36.8	-37.7	24.3	0.00e+00	122	42	0	1447034880	46	6007
2026-01-25 00:50:17.97	300.49	56.52	-37.5	-38.5	23.8	0.00e+00	123	42	0	1450180608	46	6590
2026-01-25 00:50:18.98	301.05	56.24	-38.7	-39.6	22.5	0.00e+00	123	42	0	1453326336	48	6711
2026-01-25 00:50:19.99	301.59	55.96	-39.8	-40.9	21.9	0.00e+00	123	42	0	1456472064	50	6897
2026-01-25 00:50:20.99	302.12	55.68	-39.8	-41.0	21.8	0.00e+00	122	42	0	1459617792	52	6206
2026-01-25 00:50:22.00	302.64	55.40	-38.7	-39.7	23.0	0.00e+00	123	42	0	1462763520	52	5354
2026-01-25 00:50:23.02	303.16	55.12	-37.4	-38.3	23.9	0.00e+00	123	42	0	1465909248	48	5781
2026-01-25 00:50:24.02	303.65	54.84	-37.1	-38.0	24.3	0.00e+00	123	42	0	1469054976	48	5555
2026-01-25 00:50:25.03	304.15	54.55	-37.3	-38.2	24.0	0.00e+00	123	42	0	1472200704	48	5725
2026-01-25 00:50:26.04	304.63	54.27	-38.1	-39.1	23.3	0.00e+00	122	42	0	1475346432	48	6282
2026-01-25 00:50:27.05	305.10	53.99	-38.5	-39.5	22.7	0.00e+00	123	42	0	1478492160	48	6618
2026-01-25 00:50:28.06	305.56	53.70	-39.1	-40.1	22.2	0.00e+00	123	42	0	1481637888	50	6278
2026-01-25 00:50:29.07	306.02	53.42	-39.4	-40.5	22.1	0.00e+00	120	42	0	1484783616	50	6584
2026-01-25 00:50:30.08	306.47	53.13	-39.3	-40.3	22.4	0.00e+00	123	42	0	1487929344	50	6451
2026-01-25 00:50:31.09	306.90	52.85	-38.7	-39.6	22.6	0.00e+00	122	42	0	1491075072	50	5989
2026-01-25 00:50:32.10	307.33	52.56	-38.0	-38.9	22.8	0.00e+00	123	42	0	1494220800	50	5511
2026-01-25 00:50:33.11	307.75	52.28	-37.5	-38.4	23.3	0.00e+00	122	42	0	1497366528	48	5831
2026-01-25 00:50:34.12	308.17	51.99	-37.8	-38.7	23.5	0.00e+00	123	42	0	1500512256	48	6058
2026-01-25 00:50:35.13	308.57	51.71	-38.6	-39.6	22.8	0.00e+00	123	42	0	1503657984	48	6666
2026-01-25 00:50:36.14	308.97	51.43	-39.5	-40.6	21.9	0.00e+00	123	42	0	1506803712	50	6681
2026-01-25 00:50:37.14	309.36	51.14	-40.1	-41.2	21.6	0.00e+00	123	42	0	1509949440	52	6397
2026-01-25 00:50:38.15	309.74	50.86	-40.8	-42.0	20.8	0.00e+00	123	42	0	1513095168	52	6990
2026-01-25 00:50:39.16	310.12	50.58	-41.1	-42.3	20.6	0.00e+00	120	42	0	1516240896	54	6459
2026-01-25 00:50:40.17	310.49	50.30	-40.6	-41.8	21.1	0.00e+00	122	42	0	1519386624	54	6094
2026-01-25 00:50:41.18	310.85	50.01	-40.4	-41.4	21.4	0.00e+00	123	42	0	1522532352	54	5857
2026-01-25 00:50:42.19	311.20	49.73	-39.6	-40.6	22.2	0.00e+00	123	42	0	1525678080	52	5976
2026-01-25 00:50:43.20	311.55	49.45	-39.2	-40.1	22.5	0.00e+00	123	42	0	1528823808	52	5628
2026-01-25 00:50:44.21	311.90	49.17	-39.0	-40.0	22.6	0.00e+00	120	42	0	1531969536	52	5539
2026-01-25 00:50:45.22	312.23	48.89	-39.0	-40.0	22.6	0.00e+00	122	42	0	1535115264	52	5541
2026-01-25 00:50:46.23	312.57	48.61	-39.0	-40.0	22.7	0.00e+00	123	42	0	1538260992	52	5571
2026-01-25 00:50:47.24	312.89	48.34	-39.8	-40.9	21.9	0.00e+00	123	42	0	1541406720	52	6141
2026-01-25 00:50:48.25	313.21	48.06	-40.5	-41.6	21.3	0.00e+00	122	42	0	1544552448	52	6666
2026-01-25 00:50:49.26	313.52	47.78	-40.6	-41.8	21.0	0.00e+00	123	42	0	1547698176	54	6093
2026-01-25 00:50:50.26	313.83	47.51	-40.4	-41.5	21.3	0.00e+00	123	42	0	1550843904	54	5869
2026-01-25 00:50:51.27	314.13	47.24	-40.1	-41.2	21.6	0.00e+00	120	42	0	1553989632	54	5686
2026-01-25 00:50:52.29	314.43	46.96	-39.5	-40.5	22.2	0.00e+00	122	42	0	1557135360	52	5913
2026-01-25 00:50:53.30	314.73	46.69	-39.7	-40.7	22.1	0.00e+00	122	42	0	1560281088	52	6047
2026-01-25 00:50:54.31	315.01	46.42	-40.3	-41.4	21.5	0.00e+00	120	42	0	1563426816	52	6519
2026-01-25 00:50:55.32	315.30	46.15	-40.1	-41.2	21.7	0.00e+00	123	42	0	1566572544	52	6360
2026-01-25 00:50:56.33	315.58	45.88	-40.8	-41.9	21.0	0.00e+00	123	42	0	1569718272	52	6962
2026-01-25 00:50:57.34	315.85	45.61	-41.1	-42.3	20.7	0.00e+00	122	42	0	1572864000	54	6442
2026-01-25 00:50:58.35	316.12	45.34	-41.1	-42.2	20.7	0.00e+00	122	42	0	1576009728	54	6404
2026-01-25 00:50:59.35	316.38	45.08	-41.1	-42.3	20.7	0.00e+00	122	42	0	1579155456	54	6427
2026-01-25 00:51:00.36	316.64	44.81	-41.0	-42.2	20.8	0.00e+00	121	42	0	1582301184	54	6360
2026-01-25 00:51:01.37	316.90	44.55	-40.8	-41.9	20.8	0.00e+00	123	42	0	1585446912	54	6179
2026-01-25 00:51:02.38	317.15	44.29	-40.8	-42.0	20.7	0.00e+00	123	42	0	1588592640	54	6229
2026-01-25 00:51:03.39	317.40	44.03	-40.8	-42.0	20.6	0.00e+00	123	42	0	1591738368	54	6256
2026-01-25 00:51:04.40	317.64	43.77	-40.5	-41.7	21.2	0.00e+00	123	42	0	1594884096	54	5998
2026-01-25 00:51:05.40	317.88	43.51	-40.1	-41.1	21.7	0.00e+00	123	42	0	1599078400	54	5641
2026-01-25 00:51:06.42	318.12	43.25	-39.9	-40.9	21.9	0.00e+00	122	42	0	1601175552	54	5481
2026-01-25 00:51:07.43	318.35	42.99	-39.8	-40.9	21.9	0.00e+00	122	42	0	1604321280	52	6137
2026-01-25 00:51:08.44	318.58	42.74	-40.4	-41.5	21.3	0.00e+00	123	42	0	1607467008	52	6631
2026-01-25 00:51:09.44	318.81	42.49	-40.5	-41.7	21.1	0.00e+00	123	42	0	1610612736	52	6741
2026-01-25 00:51:10.45	319.03	42.23	-40.4	-41.5	21.3	0.00e+00	123	42	0	1613758464	52	6617
2026-01-25 00:51:11.46	319.25	41.98	-40.0	-41.1	21.5	0.00e+00	122	42	0	1617952768	52	6315
2026-01-25 00:51:12.47	319.46	41.73	-39.9	-40.9	21.8	0.00e+00	120	42	0	1621098496	52	6173
2026-01-25 00:51:13.48	319.67	41.48	-39.7	-40.8	22.0	0.00e+00	123	42	0	1623195648	52	6068
2026-01-25 00:51:14.49	319.88	41.23	-39.8	-40.8	22.0	0.00e+00	120	42	0	1626341376	52	6117
2026-01-25 00:51:15.50	320.09	40.99	-39.7	-40.8	21.9	0.00e+00	122	42	0	1629487104	52	6076
2026-01-25 00:51:16.51	320.29	40.74	-39.9	-40.9	21.8	0.00e+00	122	42	0	1633681408	52	6194
2026-01-25 00:51:17.52	320.49	40.50	-40.0	-41.0	21.7	0.00e+00	122	42	0	1636827136	52	6264
2026-01-25 00:51:18.52	320.69	40.26	-40.1	-41.1	21.5	0.00e+00	123	42	0	1639972864	52	6347
2026-01-25 00:51:19.54	320.88	40.02	-40.4	-41.5	21.1	0.00e+00	123	42	0	1643118592	52	6609
2026-01-25 00:51:20.55	321.08	39.78	-40.8	-42.0	20.6	0.00e+00	123	42	0	1646264320	54	6226
2026-01-25 00:51:21.55	321.26	39.54	-41.1	-42.3	20.4	0.00e+00	120	42	0	1649410048	54	6453
2026-01-25 00:51:22.56	321.45	39.30	-41.2	-42.4	20.4	0.00e+00	122	42	0	1652555776	54	6569
2026-01-25 00:51:23.57	321.63	39.07	-41.3	-42.6	20.3	0.00e+00	123	42	0	1655701504	54	6668
2026-01-25 00:51:24.58	321.81	38.83	-41.1	-42.3	20.7	0.00e+00	122	42	0	1658847232	54	6425
2026-01-25 00:51:25.59	321.99	38.60	-40.7	-41.8	21.0	0.00e+00	121	42	0	1661992960	54	6105
2026-01-25 00:51:26.60	322.17	38.37	-40.3	-41.4	21.4	0.00e+00	123	42	0	1665138688	54	5826
2026-01-25 00:51:27.61	322.34	38.14	-40.1	-41.2	21.6	0.00e+00	122	42	0	1668284416	54	5698
2026-01-25 00:51:28.62	322.51	37.91	-39.5	-40.5	22.2	0.00e+00	123	42	0	1671430144	52	5882
2026-01-25 00:51:29.63	322.68	37.68	-39.0	-40.0	22.5	0.00e+00	123	42	0	1674575872	52	5575
2026-01-25 00:51:30.64	322.85	37.45	-39.2	-40.2	22.3	0.00e+00	123	42	0	1677721600	52	5669
2026-01-25 00:51:31.65	323.01	37.23	-39.0	-40.0	22.6	0.00e+00	123	42	0	1680867328	52	5567
2026-01-25 00:51:32.66	323.17	37.00	-38.9	-39.8	22.7	0.00e+00	123	42	0	1684013056	52	5467
2026-01-25 00:51:33.67	323.33	36.78	-38.7	-39.7	22.8	0.00e+00	123	42	0	1687158784	50	6012
2026-01-25 00:51:34.68	323.49	36.56	-38.8	-39.7	22.7	0.00e+00	123	42	0	1690304512	50	6048
2026-01-25 00:51:35.69	323.65	36.34	-39.0	-40.0	22.6	0.00e+00	120	42	0	1693450240	50	6216
2026-01-25 00:51:36.70	323.80	36.12	-39.2	-40.2	22.4	0.00e+00	120	42	0	1696595968	50	6397
2026-01-25 00:51:37.71	323.95	35.90	-39.3	-40.3	22.3	0.00e+00	122	42	0	1699741696	50	6458
2026-01-25 00:51:38.72	324.10	35.68	-39.4	-40.4	22.1	0.00e+00	122	42	0	1702887424	50	6564
2026-01-25 00:51:39.73	324.25	35.47	-39.5	-40.6	22.0	0.00e+00	123	42	0	1706033152	50	6684
2026-01-25 00:51:40.74	324.40	35.25	-39.6	-40.6	22.0	0.00e+00	121	42	0	1709178880	50	6725
2026-01-25 00:51:41.75	324.54	35.04	-39.7	-40.8	21.8	0.00e+00	123	42	0	1712324608	52	6111
2026-01-25 00:51:42.76	324.68	34.83	-39.5	-40.6	22.1	0.00e+00	123	42	0	1715470336	52	5962
2026-01-25 00:51:43.77	324.82	34.62	-39.4	-40.5	22.2	0.00e+00	122	42	0	1718616064	52	5873
2026-01-25 00:51:44.78	324.96	34.41	-39.3	-40.3	22.3	0.00e+00	123	42	0	1721761792	52	5748
2026-01-25 00:51:45.79	325.10	34.20	-38.7	-39.7	22.9	0.00e+00	123	42	0	1724907520	50	5999
2026-01-25 00:51:46.80	325.23	33.99	-38.7	-39.7	22.8	0.00e+00	123	42	0	1728053248	50	6053
2026-01-25 00:51:47.81	325.37	33.79	-38.6	-39.5	22.9	0.00e+00	122	42	0	1731198976	50	5906
2026-01-25 00:51:48.82	325.50	33.58	-38.7	-39.6	22.9	0.00e+00	123	42	0	1734344704	50	5981
2026-01-25 00:51:49.83	325.63	33.38	-38.5	-39.5	23.0	0.00e+00	123	42	0	1737490432	50	5861
2026-01-25 00:51:50.84	325.76	33.18	-38.2	-39.1	23.2	0.00e+00	123	42	0	1740636160	50	5626
2026-01-25 00:51:51.85	325.89	32.98	-37.9	-38.8	23.4	0.00e+00	120	42	0	1743781888	50	5467
2026-01-25 00:51:52.85	326.01	32.78	-37.9	-38.9	23.4	0.00e+00	123	42	0	1746927616	50	5475
2026-01-25 00:51:53.86	326.14	32.58	-37.7	-38.6	23.6	0.00e+00	123	42	0	1750073344	48	5942
2026-01-25 00:51:54.87	326.26	32.38	-37.8	-38.7	23.5	0.00e+00	123	42	0	1753219072	48	6031
2026-01-25 00:51:55.88	326.38	32.19	-37.6	-38.5	23.6	0.00e+00	123	42	0	1756364800	48	5894
2026-01-25 00:51:56.89	326.50	31.99	-37.4	-38.3	23.7	0.00e+00	123	42	0	1759510528	48	5786
2026-01-25 00:51:57.90	326.62	31.80	-37.4	-38.3	23.7	0.00e+00	123	42	0	1762656256	48	5762
2026-01-25 00:51:58.91	326.74	31.61	-37.4	-38.3	23.8	0.00e+00	123	42	0	1765801984	48	5772
2026-01-25 00:51:59.92	326.85	31.42	-37.7	-38.6	23.7	0.00e+00	120	42	0	1768947712	48	5953
2026-01-25 00:52:00.93	326.97	31.23	-37.9	-38.8	23.5	0.00e+00	123	42	0	1772093440	48	6110
2026-01-25 00:52:01.94	327.08	31.04	-37.9	-38.8	23.5	0.00e+00	122	42	0	1775239168	48	6116
2026-01-25 00:52:02.95	327.20	30.85	-38.0	-39.0	23.3	0.00e+00	122	42	0	1778384896	48	6236
2026-01-25 00:52:03.96	327.31	30.66	-37.8	-38.7	23.5	0.00e+00	123	42	0	1781530624	48	6048
2026-01-25 00:52:04.97	327.42	30.48	-37.8	-38.8	23.5	0.00e+00	123	42	0	1784676352	48	6081
2026-01-25 00:52:05.98	327.52	30.29	-37.6	-38.5	23.6	0.00e+00	122	42	0	1787822080	48	5920
2026-01-25 00:52:06.99	327.63	30.11	-37.5	-38.4	23.7	0.00e+00	122	42	0	1790967808	48	5855
2026-01-25 00:52:08.00	327.74	29.92	-37.6	-38.5	23.6	0.00e+00	123	42	0	1794113536	48	5897
2026-01-25 00:52:09.01	327.84	29.74	-37.4	-38.3	23.8	0.00e+00	123	42	0	1797259264	48	5732
2026-01-25 00:52:10.02	327.95	29.56	-37.6	-38.5	23.5	0.00e+00	120	42	0	1800404992	48	5875
2026-01-25 00:52:11.03	328.05	29.38	-37.3	-38.2	23.7	0.00e+00	122	42	0	1803550720	48	5723
2026-01-25 00:52:12.04	328.15	29.20	-37.2	-38.1	23.9	0.00e+00	122	42	0	1806696448	48	5612
2026-01-25 00:52:13.05	328.25	29.03	-37.3	-38.2	23.7	0.00e+00	123	42	0	1809842176	48	5725
2026-01-25 00:52:14.06	328.35	28.85	-37.3	-38.2	23.7	0.00e+00	122	42	0	1812987904	48	5680
2026-01-25 00:52:15.07	328.45	28.67	-37.3	-38.3	23.8	0.00e+00	122	42	0	1816133632	48	5726
2026-01-25 00:52:16.08	328.55	28.50	-37.3	-38.3	23.8	0.00e+00	123	42	0	1819279360	48	5731
2026-01-25 00:52:17.08	328.65	28.33	-37.4	-38.3	23.8	0.00e+00	123	42	0	1822425088	48	5790
2026-01-25 00:52:18.10	328.74	28.15	-37.5	-38.4	23.8	0.00e+00	122	42	0	1825570816	48	5822
2026-01-25 00:52:19.11	328.84	27.98	-37.5	-38.5	23.7	0.00e+00	123	42	0	1828716544	48	5863
2026-01-25 00:52:20.11	328.93	27.81	-37.4	-38.3	23.8	0.00e+00	122	42	0	1831862272	48	5780
2026-01-25 00:52:21.12	329.02	27.65	-37.3	-38.2	23.9	0.00e+00	122	42	0	1835008000	48	5704
2026-01-25 00:52:22.13	329.11	27.48	-37.2	-38.1	23.9	0.00e+00	122	42	0	1838153728	48	5612
2026-01-25 00:52:23.14	329.20	27.31	-37.1	-38.0	24.0	0.00e+00	122	42	0	1841299456	48	5564
2026-01-25 00:52:24.15	329.29	27.14	-37.1	-38.0	24.1	0.00e+00	123	42	0	1844445184	48	5591
2026-01-25 00:52:25.16	329.38	26.98	-37.1	-38.0	24.0	0.00e+00	123	42	0	1847590912	48	5566
2026-01-25 00:52:26.17	329.47	26.81	-37.1	-38.0	24.0	0.00e+00	123	42	0	1850736640	48	5588
2026-01-25 00:52:27.18	329.56	26.65	-37.3	-38.2	23.9	0.00e+00	122	42	0	1853882368	48	5665
2026-01-25 00:52:28.19	329.65	26.49	-37.3	-38.2	23.9	0.00e+00	123	42	0	1857028096	48	5700
2026-01-25 00:52:29.20	329.73	26.32	-37.4	-38.3	23.8	0.00e+00	122	42	0	1860173824	48	5780
2026-01-25 00:52:30.21	329.82	26.16	-37.5	-38.4	23.7	0.00e+00	123	42	0	1863319552	48	5814
2026-01-25 00:52:31.22	329.90	26.00	-37.4	-38.3	23.7	0.00e+00	122	42	0	1866465280	48	5788
2026-01-25 00:52:32.23	329.98	25.84	-37.5	-38.4	23.7	0.00e+00	123	42	0	1869611008	48	5825
2026-01-25 00:52:33.24	330.07	25.69	-37.5	-38.5	23.6	0.00e+00	123	42	0	1872756736	48	5882
2026-01-25 00:52:34.25	330.15	25.53	-37.5	-38.4	23.7	0.00e+00	123	42	0	1875902464	48	5851
2026-01-25 00:52:35.26	330.23	25.37	-37.5	-38.4	23.7	0.00e+00	123	42	0	1879048192	48	5858
2026-01-25 00:52:36.27	330.31	25.22	-37.4	-38.4	23.6	0.00e+00	123	42	0	1882193920	48	5819
2026-01-25 00:52:37.28	330.39	25.06	-37.4	-38.4	23.6	0.00e+00	123	42	0	1885339648	48	5818
2026-01-25 00:52:38.29	330.47	24.91	-37.5	-38.4	23.5	0.00e+00	123	42	0	1888485376	48	5857
2026-01-25 00:52:39.30	330.55	24.75	-37.5	-38.5	23.4	0.00e+00	122	42	0	1891631104	48	5906
2026-01-25 00:52:40.30	330.62	24.60	-37.8	-38.8	23.2	0.00e+00	123	42	0	1894776832	48	6065
2026-01-25 00:52:41.31	330.70	24.45	-37.8	-38.8	23.2	0.00e+00	122	42	0	1897922560	48	6086
2026-01-25 00:52:42.32	330.78	24.30	-37.5	-38.4	23.5	0.00e+00	122	42	0	1901068288	48	5856
2026-01-25 00:52:43.33	330.85	24.15	-37.6	-38.5	23.3	0.00e+00	121	42	0	1904214016	48	5896
2026-01-25 00:52:44.34	330.93	24.00	-37.5	-38.4	23.5	0.00e+00	123	42	0	1907359744	48	5839
2026-01-25 00:52:45.35	331.00	23.85	-37.4	-38.3	23.5	0.00e+00	123	42	0	1910505472	48	5769
2026-01-25 00:52:46.36	331.07	23.71	-37.5	-38.4	23.5	0.00e+00	123	42	0	1913651200	48	5831
2026-01-25 00:52:47.37	331.15	23.56	-37.6	-38.6	23.3	0.00e+00	120	42	0	1916796928	48	5959
2026-01-25 00:52:48.38	331.22	23.42	-37.6	-38.5	23.4	0.00e+00	123	42	0	1919942656	48	5897
2026-01-25 00:52:49.39	331.29	23.27	-37.7	-38.7	23.3	0.00e+00	123	42	0	1923088384	48	6016
2026-01-25 00:52:50.40	331.36	23.13	-37.7	-38.6	23.4	0.00e+00	123	42	0	1926234112	48	5956
2026-01-25 00:52:51.41	331.43	22.98	-37.5	-38.4	23.5	0.00e+00	122	42	0	1929379840	48	5824
2026-01-25 00:52:52.42	331.50	22.84	-37.4	-38.3	23.7	0.00e+00	122	42	0	1932525568	48	5745
2026-01-25 00:52:53.43	331.57	22.70	-37.4	-38.3	23.7	0.00e+00	123	42	0	1935671296	48	5756
2026-01-25 00:52:54.44	331.64	22.56	-37.4	-38.3	23.8	0.00e+00	118	42	0	1938817024	48	5735
2026-01-25 00:52:55.45	331.70	22.42	-37.3	-38.3	23.7	0.00e+00	122	42	0	1941962752	48	5733
2026-01-25 00:52:56.46	331.77	22.28	-37.2	-38.1	23.8	0.00e+00	123	42	0	1945108480	48	5651
2026-01-25 00:52:57.46	331.84	22.14	-37.3	-38.2	23.8	0.00e+00	122	42	0	1948254208	48	5677
2026-01-25 00:52:58.47	331.90	22.00	-37.3	-38.2	23.8	0.00e+00	123	42	0	1951399936	48	5706
2026-01-25 00:52:59.49	331.97	21.86	-37.5	-38.4	23.7	0.00e+00	122	42	0	1954545664	48	5835
