passes_logs/2026/01/25/R4.6S_Anadyr/R4.6S_Anadyr__20260125_011139_SUOMI_NPP_rec.log

#Pass ID: 20260125_011139_SUOMI NPP
#Satellite: SUOMI NPP
#Configuration: NPP
#almurnet v.1.7.20251203
#Start time: 2026-01-25 01:11:40

#Version: 2.2.20231116
#Station: R4.6S_Anadyr
#Location: 177.4865 lon 64.73178 lat
#TLE: 1 37849U 11061A   26024.54906732  .00000185  00000+0  10878-3 0  9990
#TLE: 2 37849  98.7821 326.5159 0002200  47.3746 312.7615 14.19529340738061

#Time	Az	El	Level	Level2	SNR	BER	BlckErr	Temp	State	Recorded	gain1	gain2
2026-01-25 01:11:40.26	178.98	0.07	-51.2	-63.6	3.4	1.52e+00	0	39	0	0	60	53302
2026-01-25 01:11:41.27	179.02	0.13	-50.8	-66.0	3.6	1.51e+00	0	40	104	0	60	72276
2026-01-25 01:11:42.28	179.05	0.19	-50.7	-65.9	3.6	1.51e+00	0	40	104	0	60	71355
2026-01-25 01:11:43.29	179.08	0.25	-50.6	-65.8	3.6	1.51e+00	0	40	104	0	60	70647
2026-01-25 01:11:44.30	179.11	0.30	-50.5	-65.7	3.6	1.51e+00	0	40	104	0	60	69691
2026-01-25 01:11:45.31	179.14	0.36	-50.5	-65.8	3.6	1.51e+00	0	40	104	0	60	70098
2026-01-25 01:11:46.31	179.17	0.42	-50.3	-65.5	3.6	1.51e+00	0	40	104	0	60	68119
2026-01-25 01:11:47.32	179.20	0.48	-50.3	-65.5	3.6	1.51e+00	0	40	104	0	60	68077
2026-01-25 01:11:48.33	179.23	0.54	-50.4	-65.5	3.6	1.51e+00	0	40	104	0	60	68291
2026-01-25 01:11:49.34	179.26	0.60	-50.1	-65.4	3.6	1.51e+00	0	40	104	0	60	67670
2026-01-25 01:11:50.35	179.30	0.66	-50.2	-65.5	3.6	1.51e+00	0	40	104	0	60	67774
2026-01-25 01:11:51.36	179.33	0.72	-50.1	-65.5	3.6	1.51e+00	0	41	104	0	60	67749
2026-01-25 01:11:52.37	179.36	0.78	-50.1	-65.3	3.6	1.51e+00	0	41	104	0	60	66881
2026-01-25 01:11:53.38	179.39	0.85	-50.1	-65.3	3.6	1.51e+00	0	41	104	0	60	66347
2026-01-25 01:11:54.39	179.42	0.91	-50.1	-65.3	3.6	1.51e+00	0	41	104	0	60	66710
2026-01-25 01:11:55.40	179.46	0.97	-50.0	-65.2	3.6	1.51e+00	0	41	104	0	60	65762
2026-01-25 01:11:56.41	179.49	1.03	-50.0	-65.2	3.6	1.51e+00	0	41	104	0	60	65797
2026-01-25 01:11:57.41	179.52	1.09	-49.8	-65.1	3.6	1.51e+00	0	41	104	0	60	64910
2026-01-25 01:11:58.42	179.55	1.15	-49.8	-65.0	3.6	1.51e+00	0	41	104	0	60	64306
2026-01-25 01:11:59.43	179.59	1.21	-49.8	-65.0	3.6	1.51e+00	0	41	104	0	60	64072
2026-01-25 01:12:00.44	179.62	1.27	-49.7	-64.9	3.6	1.51e+00	0	41	104	0	60	63279
2026-01-25 01:12:01.45	179.65	1.33	-49.6	-64.8	3.6	1.51e+00	0	41	104	0	60	62654
2026-01-25 01:12:02.45	179.68	1.39	-49.4	-64.6	3.6	1.51e+00	0	41	104	0	60	61512
2026-01-25 01:12:03.46	179.72	1.46	-49.4	-64.5	3.6	1.51e+00	0	41	104	0	60	60914
2026-01-25 01:12:04.47	179.75	1.52	-49.3	-64.4	3.6	1.51e+00	0	41	104	0	60	60046
2026-01-25 01:12:05.48	179.78	1.58	-49.2	-64.3	3.6	1.51e+00	0	41	104	0	60	59235
2026-01-25 01:12:06.49	179.82	1.64	-49.2	-64.4	3.6	1.51e+00	0	41	104	0	60	59693
2026-01-25 01:12:07.50	179.85	1.70	-49.2	-64.3	3.6	1.51e+00	0	41	104	0	60	59246
2026-01-25 01:12:08.51	179.88	1.77	-49.2	-64.2	3.6	1.51e+00	0	41	104	0	60	58810
2026-01-25 01:12:09.52	179.92	1.83	-49.1	-64.2	3.6	1.51e+00	0	41	104	0	60	58538
2026-01-25 01:12:10.53	179.95	1.89	-49.1	-64.2	3.6	1.51e+00	0	41	104	0	60	58878
2026-01-25 01:12:11.53	179.99	1.95	-49.1	-64.3	3.6	1.51e+00	0	41	104	0	60	59333
2026-01-25 01:12:12.54	180.02	2.02	-49.2	-64.4	3.6	1.51e+00	0	41	104	0	60	59785
2026-01-25 01:12:13.55	180.06	2.08	-49.1	-64.3	3.6	1.51e+00	0	41	104	0	60	59502
2026-01-25 01:12:14.56	180.09	2.14	-49.1	-64.3	3.6	1.51e+00	0	41	104	0	60	59145
2026-01-25 01:12:15.57	180.12	2.21	-49.1	-64.3	3.6	1.51e+00	0	41	104	0	60	59297
2026-01-25 01:12:16.58	180.16	2.27	-49.1	-64.3	3.6	1.51e+00	0	41	104	0	60	59124
2026-01-25 01:12:17.59	180.19	2.33	-49.2	-64.3	3.6	1.51e+00	0	41	104	0	60	59261
2026-01-25 01:12:18.60	180.23	2.40	-49.1	-64.2	3.6	1.51e+00	0	41	104	0	60	58746
2026-01-25 01:12:19.60	180.26	2.46	-49.1	-63.9	3.6	1.51e+00	0	41	104	0	60	56701
2026-01-25 01:12:20.61	180.30	2.52	-49.1	-63.5	3.6	1.51e+00	0	41	104	0	60	54135
2026-01-25 01:12:21.62	180.34	2.59	-49.1	-63.0	3.6	1.51e+00	0	41	104	0	60	51147
2026-01-25 01:12:22.63	180.37	2.65	-49.0	-62.9	3.6	1.51e+00	0	41	104	0	60	50272
2026-01-25 01:12:23.64	180.41	2.72	-49.0	-61.7	3.8	1.48e+00	0	41	104	0	60	43950
2026-01-25 01:12:24.65	180.44	2.78	-49.1	-63.3	3.6	1.51e+00	0	41	104	0	60	52887
2026-01-25 01:12:25.66	180.48	2.85	-49.1	-63.6	3.6	1.51e+00	0	41	104	0	60	54929
2026-01-25 01:12:26.67	180.52	2.91	-49.1	-63.5	3.6	1.51e+00	0	41	104	0	60	53843
2026-01-25 01:12:27.68	180.55	2.98	-49.0	-61.5	3.9	1.51e+00	0	41	104	0	60	42873
2026-01-25 01:12:28.68	180.59	3.04	-48.5	-56.0	6.6	7.70e-01	63	41	0	0	60	22792
2026-01-25 01:12:29.69	180.63	3.11	-48.0	-53.9	8.6	8.96e-02	92	41	0	2097152	60	17933
2026-01-25 01:12:30.70	180.66	3.17	-47.6	-52.6	10.5	6.44e-03	0	41	0	4194304	60	15381
2026-01-25 01:12:31.71	180.70	3.24	-45.8	-48.8	14.4	1.90e-05	92	41	0	5242880	60	10005
2026-01-25 01:12:32.72	180.74	3.30	-45.8	-48.8	14.3	1.50e-06	0	41	0	7340032	60	9998
2026-01-25 01:12:33.73	180.77	3.37	-45.0	-47.4	15.9	0.00e+00	92	41	0	9437184	60	8453
2026-01-25 01:12:34.74	180.81	3.43	-44.1	-46.1	17.1	0.00e+00	62	41	0	11534336	60	7302
2026-01-25 01:12:35.75	180.85	3.50	-44.5	-46.7	16.5	0.00e+00	92	41	0	13631488	60	7861
2026-01-25 01:12:36.76	180.89	3.57	-43.9	-45.9	17.5	0.00e+00	90	41	0	14680064	60	7128
2026-01-25 01:12:37.76	180.92	3.63	-45.5	-48.3	15.4	0.00e+00	0	41	0	16777216	60	9352
2026-01-25 01:12:38.77	180.96	3.70	-43.7	-45.6	17.5	0.00e+00	90	41	0	18874368	60	6856
2026-01-25 01:12:39.78	181.00	3.77	-46.4	-49.8	12.6	0.00e+00	0	41	0	20971520	60	11186
2026-01-25 01:12:40.79	181.04	3.83	-47.3	-52.0	6.2	0.00e+00	92	41	0	23068672	60	14415
2026-01-25 01:12:41.79	181.08	3.90	-49.1	-62.3	3.6	1.51e+00	0	41	104	23068672	60	47113
2026-01-25 01:12:42.80	181.12	3.97	-44.7	-47.0	14.7	1.06e+00	92	41	104	23068672	60	8097
2026-01-25 01:12:43.81	181.15	4.03	-45.9	-48.9	14.9	1.14e-05	92	41	0	24117248	60	10062
2026-01-25 01:12:44.82	181.19	4.10	-46.1	-49.1	14.4	0.00e+00	76	41	0	26214400	60	10330
2026-01-25 01:12:45.83	181.23	4.17	-45.9	-48.7	14.8	0.00e+00	91	41	0	28311552	60	9825
2026-01-25 01:12:46.84	181.27	4.24	-45.6	-48.3	14.7	0.00e+00	0	41	0	30408704	60	9372
2026-01-25 01:12:47.84	181.31	4.30	-45.4	-47.9	15.5	7.00e-07	92	41	0	31457280	60	9022
2026-01-25 01:12:48.85	181.35	4.37	-46.3	-49.5	14.1	0.00e+00	0	41	0	33554432	60	10781
2026-01-25 01:12:49.86	181.39	4.44	-45.9	-48.7	14.7	3.00e-06	90	41	0	35651584	60	9872
2026-01-25 01:12:50.87	181.43	4.51	-45.7	-48.4	15.1	0.00e+00	92	41	0	37748736	60	9490
2026-01-25 01:12:51.88	181.47	4.58	-46.2	-49.3	14.8	0.00e+00	2	41	0	39845888	60	10561
2026-01-25 01:12:52.89	181.51	4.65	-45.9	-48.7	14.8	0.00e+00	92	41	0	40894464	60	9852
2026-01-25 01:12:53.90	181.55	4.72	-45.7	-48.5	15.2	0.00e+00	0	41	0	42991616	60	9655
2026-01-25 01:12:54.91	181.59	4.79	-45.6	-48.3	15.4	7.00e-07	92	41	0	45088768	60	9452
2026-01-25 01:12:55.92	181.63	4.86	-45.3	-47.9	15.5	0.00e+00	0	41	0	47185920	60	8936
2026-01-25 01:12:56.93	181.68	4.92	-45.4	-48.0	15.0	0.00e+00	92	41	0	49283072	60	9032
2026-01-25 01:12:57.94	181.72	4.99	-45.8	-48.6	15.4	0.00e+00	92	41	0	50331648	60	9771
2026-01-25 01:12:58.94	181.76	5.06	-45.1	-47.5	15.5	0.00e+00	92	41	0	52428800	60	8550
2026-01-25 01:12:59.95	181.80	5.13	-45.6	-48.2	16.0	0.00e+00	92	41	0	54525952	60	9279
2026-01-25 01:13:00.96	181.84	5.20	-45.8	-48.6	14.9	0.00e+00	5	42	0	56623104	60	9693
2026-01-25 01:13:01.97	181.88	5.27	-44.9	-47.2	16.4	0.00e+00	73	42	0	58720256	60	8287
2026-01-25 01:13:02.97	181.92	5.34	-44.9	-47.2	16.6	0.00e+00	0	42	0	59768832	60	8239
2026-01-25 01:13:03.98	181.97	5.41	-44.3	-46.3	17.2	0.00e+00	92	41	0	61865984	60	7443
2026-01-25 01:13:04.99	182.01	5.49	-44.9	-47.1	16.4	0.00e+00	0	42	0	63963136	60	8191
2026-01-25 01:13:06.00	182.05	5.56	-44.5	-46.5	17.1	0.00e+00	90	42	0	66060288	60	7664
2026-01-25 01:13:07.00	182.10	5.63	-44.6	-46.7	16.9	0.00e+00	92	42	0	68157440	60	7857
2026-01-25 01:13:08.01	182.14	5.70	-44.1	-46.0	17.5	0.00e+00	0	41	0	69206016	60	7215
2026-01-25 01:13:09.02	182.18	5.77	-44.2	-46.1	17.1	0.00e+00	90	42	0	71303168	60	7318
2026-01-25 01:13:10.03	182.23	5.84	-44.6	-46.7	16.6	0.00e+00	0	42	0	73400320	60	7825
2026-01-25 01:13:11.03	182.27	5.91	-44.4	-46.4	17.0	0.00e+00	92	41	0	75497472	60	7560
2026-01-25 01:13:12.04	182.31	5.99	-43.6	-45.3	18.2	0.00e+00	0	42	0	77594624	60	6649
2026-01-25 01:13:13.05	182.36	6.06	-44.2	-46.2	17.6	0.00e+00	92	42	0	78643200	60	7348
2026-01-25 01:13:14.06	182.40	6.13	-43.8	-45.6	17.9	0.00e+00	92	42	0	80740352	60	6893
2026-01-25 01:13:15.07	182.45	6.20	-43.9	-45.7	17.8	0.00e+00	0	42	0	82837504	60	6958
2026-01-25 01:13:16.07	182.49	6.28	-43.8	-45.6	17.9	0.00e+00	66	42	0	84934656	60	6862
2026-01-25 01:13:17.08	182.53	6.35	-44.0	-45.8	17.8	0.00e+00	0	42	0	87031808	60	7085
2026-01-25 01:13:18.09	182.58	6.42	-44.0	-45.9	17.6	0.00e+00	92	42	0	88080384	60	7115
2026-01-25 01:13:19.10	182.63	6.50	-44.3	-46.3	17.5	0.00e+00	0	42	0	90177536	60	7454
2026-01-25 01:13:20.11	182.67	6.57	-43.9	-45.8	18.0	0.00e+00	92	42	0	92274688	60	7049
2026-01-25 01:13:21.11	182.72	6.64	-44.2	-46.1	17.5	0.00e+00	82	42	0	94371840	60	7304
2026-01-25 01:13:22.12	182.76	6.72	-44.2	-46.2	17.6	0.00e+00	22	42	0	96468992	60	7374
2026-01-25 01:13:23.13	182.81	6.79	-43.6	-45.3	18.5	0.00e+00	92	42	0	98566144	60	6656
2026-01-25 01:13:24.14	182.86	6.87	-44.1	-46.0	17.8	0.00e+00	0	42	0	99614720	60	7202
2026-01-25 01:13:25.14	182.90	6.94	-43.8	-45.6	18.2	0.00e+00	48	42	0	101711872	60	6881
2026-01-25 01:13:26.15	182.95	7.02	-44.0	-45.9	17.8	0.00e+00	0	42	0	103809024	60	7161
2026-01-25 01:13:27.15	183.00	7.09	-43.7	-45.5	18.1	0.00e+00	92	42	0	105906176	60	6838
2026-01-25 01:13:28.16	183.04	7.16	-44.0	-45.8	18.0	0.00e+00	92	42	0	106954752	60	7063
2026-01-25 01:13:29.17	183.09	7.24	-44.0	-45.9	18.0	0.00e+00	90	42	0	109051904	60	7125
2026-01-25 01:13:30.18	183.14	7.32	-43.5	-45.2	18.5	0.00e+00	91	42	0	111149056	60	6548
2026-01-25 01:13:31.19	183.19	7.39	-43.6	-45.3	18.3	0.00e+00	0	42	0	113246208	60	6691
2026-01-25 01:13:32.20	183.23	7.47	-43.7	-45.4	18.3	0.00e+00	92	42	0	115343360	60	6728
2026-01-25 01:13:33.20	183.28	7.54	-43.5	-45.2	18.5	0.00e+00	0	42	0	116391936	60	6553
2026-01-25 01:13:34.21	183.33	7.62	-43.5	-45.2	18.4	0.00e+00	92	42	0	118489088	60	6579
2026-01-25 01:13:35.22	183.38	7.70	-43.8	-45.6	18.4	0.00e+00	70	42	0	120586240	60	6880
2026-01-25 01:13:36.22	183.43	7.77	-43.8	-45.5	18.2	0.00e+00	90	42	0	122683392	60	6836
2026-01-25 01:13:37.23	183.48	7.85	-42.9	-44.4	19.1	0.00e+00	92	42	0	124780544	60	6033
2026-01-25 01:13:38.24	183.53	7.93	-43.7	-45.4	18.3	0.00e+00	0	42	0	126877696	60	6714
2026-01-25 01:13:39.25	183.58	8.01	-43.6	-45.3	18.5	0.00e+00	68	42	0	127926272	60	6621
2026-01-25 01:13:40.26	183.63	8.08	-43.4	-45.1	18.6	0.00e+00	0	42	0	130023424	60	6517
2026-01-25 01:13:41.27	183.68	8.16	-43.4	-45.0	18.8	0.00e+00	92	42	0	132120576	60	6438
2026-01-25 01:13:42.28	183.73	8.24	-43.7	-45.4	18.4	0.00e+00	65	42	0	134217728	60	6721
2026-01-25 01:13:43.29	183.78	8.32	-43.1	-44.7	18.9	0.00e+00	92	42	0	136314880	60	6208
2026-01-25 01:13:44.29	183.83	8.40	-43.3	-45.0	18.8	0.00e+00	91	42	0	137363456	60	6419
2026-01-25 01:13:45.30	183.88	8.48	-43.4	-45.1	18.6	0.00e+00	0	42	0	139460608	60	6510
2026-01-25 01:13:46.31	183.93	8.56	-43.0	-44.5	19.2	0.00e+00	92	42	0	141557760	60	6051
2026-01-25 01:13:47.32	183.99	8.64	-43.3	-44.9	18.9	0.00e+00	0	42	0	143654912	60	6338
2026-01-25 01:13:48.33	184.04	8.72	-43.2	-44.8	19.0	0.00e+00	92	42	0	145752064	60	6301
2026-01-25 01:13:49.34	184.09	8.80	-43.1	-44.7	19.2	0.00e+00	0	42	0	146800640	60	6210
2026-01-25 01:13:50.35	184.14	8.88	-42.6	-44.0	19.6	0.00e+00	90	42	0	148897792	58	6416
2026-01-25 01:13:51.36	184.20	8.96	-42.9	-44.4	19.5	0.00e+00	74	42	0	150994944	58	6699
2026-01-25 01:13:52.37	184.25	9.04	-42.3	-43.6	19.9	0.00e+00	0	42	0	153092096	58	6167
2026-01-25 01:13:53.38	184.30	9.12	-42.6	-44.0	19.7	0.00e+00	92	42	0	155189248	58	6439
2026-01-25 01:13:54.39	184.36	9.20	-42.1	-43.4	20.2	0.00e+00	0	42	0	156237824	58	6033
2026-01-25 01:13:55.40	184.41	9.28	-42.6	-44.0	19.8	0.00e+00	92	42	0	158334976	58	6433
2026-01-25 01:13:56.41	184.47	9.36	-42.3	-43.6	20.1	0.00e+00	0	42	0	160432128	58	6145
2026-01-25 01:13:57.42	184.52	9.44	-42.2	-43.5	20.2	0.00e+00	91	42	0	162529280	58	6042
2026-01-25 01:13:58.43	184.58	9.53	-42.1	-43.3	20.3	0.00e+00	92	42	0	164626432	58	5952
2026-01-25 01:13:59.44	184.63	9.61	-42.2	-43.6	20.2	0.00e+00	0	42	0	165675008	58	6112
2026-01-25 01:14:00.45	184.69	9.69	-41.9	-43.1	20.5	0.00e+00	91	42	0	167772160	58	5800
2026-01-25 01:14:01.46	184.74	9.77	-42.0	-43.3	20.4	0.00e+00	0	42	0	169869312	56	6626
2026-01-25 01:14:02.47	184.80	9.86	-42.2	-43.5	20.2	0.00e+00	74	42	0	171966464	56	6798
2026-01-25 01:14:03.48	184.86	9.94	-41.9	-43.1	20.5	0.00e+00	0	42	0	174063616	56	6528
2026-01-25 01:14:04.49	184.91	10.03	-42.1	-43.4	20.4	0.00e+00	91	42	0	175112192	56	6700
2026-01-25 01:14:05.50	184.97	10.11	-41.9	-43.2	20.4	0.00e+00	0	42	0	177209344	56	6552
2026-01-25 01:14:06.51	185.03	10.19	-42.0	-43.2	20.6	0.00e+00	91	42	0	179306496	56	6592
2026-01-25 01:14:07.52	185.09	10.28	-42.0	-43.2	20.5	0.00e+00	92	42	0	181403648	56	6614
2026-01-25 01:14:08.53	185.14	10.36	-42.4	-43.7	20.1	0.00e+00	33	42	0	183500800	56	6948
2026-01-25 01:14:09.53	185.20	10.45	-42.0	-43.2	20.6	0.00e+00	83	42	0	184549376	56	6577
2026-01-25 01:14:10.54	185.26	10.53	-41.8	-43.1	20.7	0.00e+00	0	42	0	186646528	56	6478
2026-01-25 01:14:11.55	185.32	10.62	-41.9	-43.2	20.6	0.00e+00	92	42	0	188743680	56	6569
2026-01-25 01:14:12.55	185.38	10.70	-41.6	-42.8	20.9	0.00e+00	0	42	0	190840832	56	6289
2026-01-25 01:14:13.56	185.44	10.79	-41.7	-42.9	20.8	0.00e+00	92	42	0	192937984	56	6375
2026-01-25 01:14:14.57	185.50	10.88	-41.4	-42.5	21.2	0.00e+00	92	42	0	193986560	56	6084
2026-01-25 01:14:15.58	185.56	10.96	-41.8	-43.0	20.8	0.00e+00	0	42	0	196083712	56	6407
2026-01-25 01:14:16.59	185.62	11.05	-41.5	-42.6	21.0	0.00e+00	69	42	0	198180864	56	6160
2026-01-25 01:14:17.60	185.68	11.14	-41.6	-42.8	21.0	0.00e+00	0	42	0	200278016	56	6266
2026-01-25 01:14:18.62	185.74	11.23	-41.8	-43.0	21.0	0.00e+00	83	42	0	202375168	56	6397
2026-01-25 01:14:19.63	185.80	11.31	-41.9	-43.1	20.8	0.00e+00	0	42	0	204472320	56	6491
2026-01-25 01:14:20.64	185.87	11.40	-41.8	-43.0	20.8	0.00e+00	92	42	0	205520896	56	6447
2026-01-25 01:14:21.65	185.93	11.49	-41.9	-43.2	20.7	0.00e+00	92	42	0	207618048	56	6564
2026-01-25 01:14:22.66	185.99	11.58	-41.9	-43.2	20.6	0.00e+00	0	42	0	209715200	56	6569
2026-01-25 01:14:23.67	186.05	11.67	-41.9	-43.1	20.9	0.00e+00	91	42	0	211812352	56	6514
2026-01-25 01:14:24.68	186.12	11.76	-41.9	-43.2	20.7	0.00e+00	0	42	0	213909504	56	6545
2026-01-25 01:14:25.69	186.18	11.85	-41.7	-43.0	20.9	0.00e+00	92	42	0	214958080	56	6397
2026-01-25 01:14:26.70	186.25	11.94	-41.8	-43.0	20.9	0.00e+00	0	42	0	217055232	56	6404
2026-01-25 01:14:27.71	186.31	12.03	-41.8	-43.0	20.8	0.00e+00	92	42	0	219152384	56	6445
2026-01-25 01:14:28.72	186.38	12.12	-41.7	-42.9	20.9	0.00e+00	80	42	0	221249536	56	6359
2026-01-25 01:14:29.73	186.44	12.21	-41.6	-42.8	21.0	0.00e+00	0	42	0	223346688	56	6259
2026-01-25 01:14:30.74	186.51	12.30	-41.8	-43.0	20.9	0.00e+00	75	42	0	224395264	56	6457
2026-01-25 01:14:31.75	186.57	12.39	-41.9	-43.1	20.8	0.00e+00	0	42	0	226492416	56	6525
2026-01-25 01:14:32.76	186.64	12.48	-42.2	-43.4	20.4	0.00e+00	92	42	0	228589568	56	6761
2026-01-25 01:14:33.77	186.71	12.57	-42.2	-43.5	20.5	0.00e+00	0	42	0	230686720	56	6785
2026-01-25 01:14:34.78	186.77	12.67	-42.1	-43.3	20.7	0.00e+00	92	42	0	232783872	56	6675
2026-01-25 01:14:35.79	186.84	12.76	-42.4	-43.7	20.2	0.00e+00	18	42	0	233832448	56	6995
2026-01-25 01:14:36.80	186.91	12.85	-42.2	-43.5	20.6	0.00e+00	18	42	0	235929600	56	6806
2026-01-25 01:14:37.81	186.98	12.95	-42.1	-43.4	20.6	0.00e+00	92	42	0	238026752	56	6716
2026-01-25 01:14:38.82	187.05	13.04	-42.2	-43.5	20.2	0.00e+00	0	42	0	240123904	56	6837
2026-01-25 01:14:39.83	187.12	13.13	-42.3	-43.6	20.4	0.00e+00	92	42	0	242221056	56	6876
2026-01-25 01:14:40.84	187.19	13.23	-42.3	-43.6	20.4	0.00e+00	0	42	0	243269632	56	6902
2026-01-25 01:14:41.85	187.26	13.32	-42.0	-43.3	20.6	0.00e+00	92	42	0	245366784	56	6651
2026-01-25 01:14:42.86	187.33	13.42	-41.8	-43.0	20.9	0.00e+00	65	42	0	247463936	56	6455
2026-01-25 01:14:43.87	187.40	13.51	-41.5	-42.7	21.1	0.00e+00	0	42	0	249561088	56	6203
2026-01-25 01:14:44.88	187.47	13.61	-41.8	-43.0	20.9	0.00e+00	92	42	0	251658240	56	6396
2026-01-25 01:14:45.89	187.54	13.70	-41.6	-42.7	21.1	0.00e+00	0	42	0	252706816	56	6237
2026-01-25 01:14:46.90	187.61	13.80	-41.7	-42.9	21.0	0.00e+00	90	42	0	254803968	56	6347
2026-01-25 01:14:47.91	187.69	13.90	-41.6	-42.7	21.1	0.00e+00	0	42	0	256901120	56	6240
2026-01-25 01:14:48.92	187.76	13.99	-41.6	-42.8	21.1	0.00e+00	92	42	0	258998272	56	6297
2026-01-25 01:14:49.93	187.83	14.09	-41.4	-42.5	21.4	0.00e+00	0	42	0	261095424	56	6071
2026-01-25 01:14:50.93	187.91	14.19	-41.3	-42.5	21.3	0.00e+00	74	42	0	263192576	56	6045
2026-01-25 01:14:51.94	187.98	14.29	-41.7	-42.8	21.0	0.00e+00	92	42	0	264241152	56	6308
2026-01-25 01:14:52.95	188.06	14.39	-41.7	-42.8	21.2	0.00e+00	0	42	0	266338304	56	6303
2026-01-25 01:14:53.96	188.13	14.48	-41.7	-42.9	21.1	0.00e+00	75	42	0	268435456	56	6363
2026-01-25 01:14:54.98	188.21	14.58	-41.5	-42.6	21.4	0.00e+00	0	42	0	270532608	56	6144
2026-01-25 01:14:55.99	188.29	14.68	-41.3	-42.4	21.5	0.00e+00	92	42	0	272629760	56	5993
2026-01-25 01:14:57.00	188.36	14.78	-40.8	-41.9	22.0	0.00e+00	0	42	0	273678336	56	5655
2026-01-25 01:14:58.01	188.44	14.88	-41.2	-42.3	21.7	0.00e+00	92	42	0	275775488	54	6622
2026-01-25 01:14:59.01	188.52	14.98	-40.8	-41.9	22.0	0.00e+00	92	42	0	277872640	54	6351
2026-01-25 01:15:00.02	188.60	15.08	-40.6	-41.6	22.1	0.00e+00	0	42	0	279969792	54	6156
2026-01-25 01:15:01.03	188.67	15.19	-40.8	-41.8	22.0	0.00e+00	90	42	0	282066944	54	6307
2026-01-25 01:15:02.04	188.75	15.29	-40.5	-41.5	22.2	0.00e+00	0	42	0	283115520	54	6052
2026-01-25 01:15:03.05	188.83	15.39	-40.7	-41.7	22.0	0.00e+00	92	42	0	285212672	54	6212
2026-01-25 01:15:04.06	188.91	15.49	-40.6	-41.7	22.1	0.00e+00	0	42	0	287309824	54	6191
2026-01-25 01:15:05.07	189.00	15.60	-40.4	-41.4	22.3	0.00e+00	92	42	0	289406976	54	5996
2026-01-25 01:15:06.08	189.08	15.70	-40.3	-41.3	22.4	0.00e+00	92	42	0	291504128	54	5901
2026-01-25 01:15:07.08	189.16	15.80	-40.2	-41.2	22.6	0.00e+00	0	42	0	292552704	54	5843
2026-01-25 01:15:08.09	189.24	15.91	-40.3	-41.2	22.5	0.00e+00	81	42	0	294649856	54	5890
2026-01-25 01:15:09.10	189.32	16.01	-40.2	-41.1	22.5	0.00e+00	0	41	0	296747008	54	5821
2026-01-25 01:15:10.11	189.41	16.11	-40.2	-41.2	22.5	0.00e+00	65	41	0	298844160	54	5836
2026-01-25 01:15:11.12	189.49	16.22	-40.3	-41.3	22.4	0.00e+00	0	41	0	300941312	54	5926
2026-01-25 01:15:12.13	189.58	16.33	-40.2	-41.2	22.5	0.00e+00	92	42	0	301989888	54	5866
2026-01-25 01:15:13.14	189.66	16.43	-40.4	-41.4	22.4	0.00e+00	43	42	0	304087040	54	5977
2026-01-25 01:15:14.15	189.75	16.54	-40.3	-41.3	22.5	0.00e+00	91	42	0	306184192	54	5914
2026-01-25 01:15:15.15	189.84	16.64	-40.4	-41.5	22.2	0.00e+00	92	42	0	308281344	54	6047
2026-01-25 01:15:16.16	189.92	16.75	-40.4	-41.4	22.4	0.00e+00	0	42	0	310378496	54	5975
2026-01-25 01:15:17.17	190.01	16.86	-40.4	-41.3	22.4	0.00e+00	89	42	0	311427072	54	5962
2026-01-25 01:15:18.19	190.10	16.97	-40.5	-41.5	22.3	0.00e+00	0	42	0	313524224	54	6103
2026-01-25 01:15:19.20	190.19	17.08	-40.4	-41.4	22.5	0.00e+00	90	41	0	315621376	54	5970
2026-01-25 01:15:20.20	190.28	17.18	-40.2	-41.2	22.5	0.00e+00	70	42	0	317718528	54	5871
2026-01-25 01:15:21.22	190.37	17.29	-40.1	-41.1	22.6	0.00e+00	92	42	0	319815680	54	5805
2026-01-25 01:15:22.23	190.46	17.40	-39.9	-40.9	22.8	0.00e+00	92	42	0	320864256	54	5633
2026-01-25 01:15:23.24	190.55	17.51	-40.0	-41.0	22.6	0.00e+00	0	41	0	322961408	54	5742
2026-01-25 01:15:24.25	190.64	17.63	-40.0	-40.9	22.8	0.00e+00	77	41	0	325058560	54	5680
2026-01-25 01:15:25.26	190.74	17.74	-39.8	-40.8	22.9	0.00e+00	0	42	0	327155712	52	6268
2026-01-25 01:15:26.26	190.83	17.85	-39.9	-40.8	22.9	0.00e+00	88	42	0	329252864	52	6292
2026-01-25 01:15:27.27	190.92	17.96	-39.7	-40.7	23.0	0.00e+00	0	41	0	330301440	52	6193
2026-01-25 01:15:28.28	191.02	18.07	-39.8	-40.8	22.8	0.00e+00	91	41	0	332398592	52	6257
2026-01-25 01:15:29.29	191.11	18.18	-39.9	-40.9	22.9	0.00e+00	92	42	0	334495744	52	6357
2026-01-25 01:15:30.30	191.21	18.30	-40.0	-41.0	22.8	0.00e+00	0	42	0	336592896	52	6412
2026-01-25 01:15:31.31	191.31	18.41	-40.0	-41.0	22.7	0.00e+00	80	41	0	338690048	52	6432
2026-01-25 01:15:32.32	191.40	18.53	-40.3	-41.3	22.5	0.00e+00	0	41	0	339738624	52	6640
2026-01-25 01:15:33.33	191.50	18.64	-40.4	-41.5	22.3	0.00e+00	92	41	0	341835776	52	6775
2026-01-25 01:15:34.34	191.60	18.75	-40.2	-41.2	22.5	0.00e+00	0	41	0	343932928	52	6598
2026-01-25 01:15:35.35	191.70	18.87	-40.6	-41.6	22.2	0.00e+00	91	41	0	346030080	52	6900
2026-01-25 01:15:36.36	191.80	18.99	-40.3	-41.3	22.5	0.00e+00	69	41	0	348127232	52	6683
2026-01-25 01:15:37.37	191.90	19.10	-40.3	-41.3	22.6	0.00e+00	0	41	0	349175808	52	6616
2026-01-25 01:15:38.37	192.00	19.22	-40.3	-41.3	22.5	0.00e+00	82	41	0	351272960	52	6623
2026-01-25 01:15:39.39	192.11	19.34	-40.3	-41.3	22.5	0.00e+00	0	41	0	353370112	52	6631
2026-01-25 01:15:40.40	192.21	19.45	-40.2	-41.2	22.6	0.00e+00	92	41	0	355467264	52	6574
2026-01-25 01:15:41.41	192.32	19.57	-40.0	-40.9	22.9	0.00e+00	0	41	0	357564416	52	6376
2026-01-25 01:15:42.42	192.42	19.69	-40.0	-40.9	22.8	0.00e+00	91	41	0	359661568	52	6368
2026-01-25 01:15:43.43	192.53	19.81	-40.2	-41.1	22.7	0.00e+00	92	41	0	360710144	52	6526
2026-01-25 01:15:44.44	192.63	19.93	-40.0	-41.0	22.8	0.00e+00	0	41	0	362807296	52	6420
2026-01-25 01:15:45.45	192.74	20.05	-40.1	-41.1	22.7	0.00e+00	92	41	0	364904448	52	6484
2026-01-25 01:15:46.46	192.85	20.17	-40.2	-41.2	22.6	0.00e+00	0	41	0	367001600	52	6575
2026-01-25 01:15:47.47	192.96	20.29	-40.0	-40.9	22.8	0.00e+00	79	41	0	369098752	52	6355
2026-01-25 01:15:48.48	193.07	20.41	-40.0	-40.9	22.8	0.00e+00	0	41	0	370147328	52	6390
2026-01-25 01:15:49.49	193.18	20.54	-40.0	-41.0	22.8	0.00e+00	90	41	0	372244480	52	6417
2026-01-25 01:15:50.50	193.29	20.66	-40.1	-41.1	22.7	0.00e+00	0	41	0	374341632	52	6510
2026-01-25 01:15:51.50	193.40	20.78	-39.9	-40.8	23.0	0.00e+00	92	41	0	376438784	52	6315
2026-01-25 01:15:52.51	193.51	20.91	-39.9	-40.8	22.9	0.00e+00	91	41	0	378535936	52	6312
2026-01-25 01:15:53.52	193.63	21.03	-39.8	-40.8	22.8	0.00e+00	0	41	0	379584512	52	6256
2026-01-25 01:15:54.53	193.74	21.15	-40.0	-41.0	22.8	0.00e+00	91	41	0	381681664	52	6407
2026-01-25 01:15:55.54	193.86	21.28	-39.7	-40.6	22.8	0.00e+00	0	41	0	383778816	52	6119
2026-01-25 01:15:56.55	193.98	21.41	-39.8	-40.7	23.0	0.00e+00	90	41	0	385875968	52	6221
2026-01-25 01:15:57.56	194.09	21.53	-40.0	-40.9	22.8	0.00e+00	0	41	0	387973120	52	6368
2026-01-25 01:15:58.57	194.21	21.66	-40.0	-40.9	22.9	0.00e+00	90	41	0	389021696	52	6356
2026-01-25 01:15:59.58	194.33	21.79	-40.1	-41.0	22.8	0.00e+00	92	41	0	391118848	52	6441
2026-01-25 01:16:00.59	194.45	21.91	-40.2	-41.2	22.6	0.00e+00	0	41	0	393216000	52	6560
2026-01-25 01:16:01.59	194.57	22.04	-40.0	-41.0	22.8	0.00e+00	76	41	0	395313152	52	6413
2026-01-25 01:16:02.60	194.70	22.17	-40.0	-41.0	22.9	0.00e+00	0	41	0	397410304	52	6394
2026-01-25 01:16:03.60	194.82	22.30	-39.7	-40.6	23.0	0.00e+00	82	41	0	398458880	52	6116
2026-01-25 01:16:04.61	194.94	22.43	-39.9	-40.8	22.9	0.00e+00	2	41	0	400556032	52	6295
2026-01-25 01:16:05.62	195.07	22.56	-39.5	-40.5	23.2	0.00e+00	90	41	0	402653184	52	6040
2026-01-25 01:16:06.63	195.20	22.69	-39.9	-40.9	22.8	0.00e+00	92	41	0	404750336	52	6335
2026-01-25 01:16:07.64	195.32	22.82	-39.9	-40.9	23.0	0.00e+00	0	41	0	406847488	52	6355
2026-01-25 01:16:08.65	195.45	22.95	-40.0	-40.9	22.9	0.00e+00	91	41	0	407896064	52	6385
2026-01-25 01:16:09.66	195.58	23.08	-40.2	-41.2	22.6	0.00e+00	0	41	0	409993216	52	6552
2026-01-25 01:16:10.67	195.71	23.22	-39.7	-40.6	23.2	0.00e+00	91	41	0	412090368	52	6136
2026-01-25 01:16:11.68	195.84	23.35	-40.1	-41.1	22.7	0.00e+00	0	41	0	414187520	52	6483
2026-01-25 01:16:12.69	195.98	23.48	-40.1	-41.0	22.7	0.00e+00	91	41	0	416284672	52	6443
2026-01-25 01:16:13.70	196.11	23.62	-40.1	-41.1	22.7	0.00e+00	91	41	0	417333248	52	6509
2026-01-25 01:16:14.71	196.25	23.75	-40.1	-41.0	22.8	0.00e+00	29	41	0	419430400	52	6451
2026-01-25 01:16:15.72	196.38	23.89	-40.1	-41.0	22.7	0.00e+00	92	41	0	421527552	52	6463
2026-01-25 01:16:16.73	196.52	24.03	-40.4	-41.4	22.5	0.00e+00	0	41	0	423624704	52	6734
2026-01-25 01:16:17.74	196.66	24.16	-40.2	-41.2	22.6	0.00e+00	91	41	0	425721856	52	6554
2026-01-25 01:16:18.75	196.80	24.30	-40.7	-41.7	22.2	0.00e+00	0	41	0	427819008	54	6240
2026-01-25 01:16:19.76	196.94	24.44	-40.6	-41.6	22.4	0.00e+00	92	41	0	428867584	54	6120
2026-01-25 01:16:20.77	197.08	24.58	-40.3	-41.3	22.4	0.00e+00	77	41	0	430964736	54	5945
2026-01-25 01:16:21.78	197.22	24.72	-40.3	-41.3	22.5	0.00e+00	82	41	0	433061888	54	5935
2026-01-25 01:16:22.79	197.37	24.86	-40.5	-41.5	22.4	0.00e+00	92	41	0	435159040	54	6083
2026-01-25 01:16:23.80	197.51	25.00	-40.5	-41.5	22.4	0.00e+00	0	41	0	437256192	54	6095
2026-01-25 01:16:24.81	197.66	25.14	-40.6	-41.6	22.4	0.00e+00	77	41	0	438304768	54	6111
2026-01-25 01:16:25.82	197.81	25.28	-40.7	-41.7	22.3	0.00e+00	0	41	0	440401920	54	6216
2026-01-25 01:16:26.83	197.96	25.42	-40.6	-41.6	22.3	0.00e+00	91	41	0	442499072	54	6159
2026-01-25 01:16:27.84	198.11	25.56	-40.6	-41.6	22.3	0.00e+00	76	41	0	444596224	54	6128
2026-01-25 01:16:28.85	198.26	25.71	-40.6	-41.6	22.4	0.00e+00	91	41	0	446693376	54	6112
2026-01-25 01:16:29.86	198.42	25.85	-40.9	-41.9	22.0	0.00e+00	91	41	0	447741952	54	6384
2026-01-25 01:16:30.86	198.57	25.99	-40.9	-42.0	22.0	0.00e+00	0	41	0	449839104	54	6409
2026-01-25 01:16:31.87	198.73	26.14	-40.4	-41.4	22.5	0.00e+00	77	41	0	451936256	54	5984
2026-01-25 01:16:32.88	198.88	26.28	-40.6	-41.6	22.3	0.00e+00	0	41	0	454033408	54	6157
2026-01-25 01:16:33.89	199.04	26.43	-40.8	-41.8	22.3	0.00e+00	91	41	0	456130560	54	6282
2026-01-25 01:16:34.90	199.20	26.57	-40.7	-41.7	22.2	0.00e+00	78	41	0	457179136	54	6234
2026-01-25 01:16:35.92	199.37	26.72	-40.7	-41.7	22.2	0.00e+00	92	41	0	459276288	54	6212
2026-01-25 01:16:36.93	199.53	26.87	-40.9	-42.0	22.2	0.00e+00	92	41	0	461373440	54	6407
2026-01-25 01:16:37.94	199.70	27.02	-40.8	-41.8	22.2	0.00e+00	0	41	0	463470592	54	6300
2026-01-25 01:16:38.94	199.86	27.16	-40.8	-41.8	22.1	0.00e+00	78	41	0	465567744	54	6288
2026-01-25 01:16:39.95	200.03	27.31	-41.2	-42.3	21.7	0.00e+00	0	41	0	466616320	54	6639
2026-01-25 01:16:40.96	200.20	27.46	-41.3	-42.4	21.6	0.00e+00	92	41	0	468713472	54	6730
2026-01-25 01:16:41.97	200.37	27.61	-41.3	-42.4	21.6	0.00e+00	0	41	0	470810624	54	6723
2026-01-25 01:16:42.98	200.54	27.76	-41.5	-42.6	21.5	0.00e+00	92	41	0	472907776	54	6919
2026-01-25 01:16:43.99	200.72	27.92	-41.7	-42.8	21.4	0.00e+00	92	41	0	475004928	56	6256
2026-01-25 01:16:45.00	200.89	28.07	-42.1	-43.3	21.0	0.00e+00	0	41	0	476053504	56	6645
2026-01-25 01:16:46.01	201.07	28.22	-42.6	-43.9	20.5	0.00e+00	72	41	0	478150656	56	7144
2026-01-25 01:16:47.02	201.25	28.37	-42.5	-43.8	20.5	0.00e+00	0	41	0	480247808	58	6289
2026-01-25 01:16:48.03	201.43	28.53	-42.8	-44.2	20.2	0.00e+00	92	41	0	482344960	58	6549
2026-01-25 01:16:49.04	201.61	28.68	-42.5	-43.8	20.6	0.00e+00	0	41	0	484442112	58	6284
2026-01-25 01:16:50.05	201.80	28.84	-42.3	-43.5	20.7	0.00e+00	92	41	0	485490688	58	6101
2026-01-25 01:16:51.06	201.98	28.99	-42.4	-43.6	20.6	0.00e+00	78	41	0	487587840	58	6156
2026-01-25 01:16:52.07	202.17	29.15	-42.4	-43.6	20.7	0.00e+00	0	41	0	489684992	58	6159
2026-01-25 01:16:53.08	202.36	29.30	-42.2	-43.4	21.0	0.00e+00	61	41	0	491782144	58	5979
2026-01-25 01:16:54.08	202.55	29.46	-42.2	-43.4	21.1	0.00e+00	0	41	0	493879296	58	5993
2026-01-25 01:16:55.09	202.74	29.62	-42.1	-43.2	21.0	0.00e+00	78	41	0	495976448	58	5892
2026-01-25 01:16:56.10	202.94	29.77	-42.2	-43.5	20.9	0.00e+00	0	41	0	497025024	58	6044
2026-01-25 01:16:57.11	203.14	29.93	-42.3	-43.6	20.6	0.00e+00	92	41	0	499122176	58	6104
2026-01-25 01:16:58.12	203.33	30.09	-42.3	-43.6	20.7	0.00e+00	61	41	0	501219328	58	6105
2026-01-25 01:16:59.13	203.54	30.25	-42.3	-43.5	20.8	0.00e+00	0	41	0	503316480	58	6094
2026-01-25 01:17:00.14	203.74	30.41	-42.7	-44.1	20.3	0.00e+00	90	41	0	505413632	58	6477
2026-01-25 01:17:01.15	203.94	30.57	-42.3	-43.6	20.7	0.00e+00	0	41	0	506462208	58	6119
2026-01-25 01:17:02.16	204.15	30.73	-42.3	-43.6	20.7	0.00e+00	51	41	0	508559360	58	6105
2026-01-25 01:17:03.17	204.36	30.89	-42.6	-43.9	20.1	0.00e+00	0	41	0	510656512	58	6349
2026-01-25 01:17:04.18	204.57	31.06	-43.0	-44.4	19.9	0.00e+00	90	41	0	512753664	58	6713
2026-01-25 01:17:05.19	204.78	31.22	-43.1	-44.6	19.9	0.00e+00	0	41	0	514850816	58	6863
2026-01-25 01:17:06.20	205.00	31.38	-42.9	-44.2	20.1	0.00e+00	91	41	0	515899392	58	6612
2026-01-25 01:17:07.21	205.21	31.54	-43.2	-44.6	19.9	0.00e+00	91	41	0	517996544	58	6892
2026-01-25 01:17:08.22	205.43	31.71	-43.1	-44.5	20.1	0.00e+00	0	41	0	520093696	58	6791
2026-01-25 01:17:09.23	205.65	31.87	-42.9	-44.2	20.3	0.00e+00	84	41	0	522190848	58	6594
2026-01-25 01:17:10.24	205.88	32.04	-42.3	-43.5	21.0	0.00e+00	33	41	0	524288000	58	6035
2026-01-25 01:17:11.25	206.10	32.20	-42.3	-43.5	20.7	0.00e+00	92	41	0	525336576	58	6089
2026-01-25 01:17:12.26	206.33	32.37	-41.8	-42.9	21.1	0.00e+00	0	41	0	527433728	58	5665
2026-01-25 01:17:13.27	206.56	32.53	-42.0	-43.1	21.2	0.00e+00	92	41	0	529530880	56	6531
2026-01-25 01:17:14.28	206.79	32.70	-42.2	-43.4	21.0	0.00e+00	90	41	0	531628032	56	6717
2026-01-25 01:17:15.29	207.03	32.87	-42.2	-43.4	21.0	0.00e+00	0	41	0	533725184	56	6746
2026-01-25 01:17:16.30	207.27	33.03	-42.6	-43.9	20.7	0.00e+00	91	41	0	534773760	56	7112
2026-01-25 01:17:17.31	207.51	33.20	-42.6	-43.9	20.5	0.00e+00	0	41	0	536870912	58	6357
2026-01-25 01:17:18.32	207.75	33.37	-42.7	-44.0	20.1	0.00e+00	92	41	0	538968064	58	6463
2026-01-25 01:17:19.33	207.99	33.54	-42.7	-44.1	20.4	0.00e+00	0	41	0	541065216	58	6489
2026-01-25 01:17:20.34	208.24	33.71	-42.4	-43.7	20.6	0.00e+00	92	41	0	543162368	58	6195
2026-01-25 01:17:21.35	208.49	33.88	-42.0	-43.1	21.2	0.00e+00	77	41	0	544210944	58	5821
2026-01-25 01:17:22.36	208.74	34.05	-41.9	-43.0	21.4	0.00e+00	0	41	0	546308096	56	6441
2026-01-25 01:17:23.37	209.00	34.22	-41.2	-42.3	21.9	0.00e+00	92	41	0	548405248	56	5929
2026-01-25 01:17:24.38	209.25	34.39	-41.4	-42.5	21.9	0.00e+00	0	41	0	550502400	56	6044
2026-01-25 01:17:25.38	209.51	34.55	-41.1	-42.1	22.1	0.00e+00	92	41	0	552599552	56	5808
2026-01-25 01:17:26.40	209.78	34.73	-41.0	-42.0	22.2	0.00e+00	0	41	0	553648128	54	6448
2026-01-25 01:17:27.41	210.04	34.90	-41.0	-42.1	22.0	0.00e+00	92	41	0	555745280	54	6495
2026-01-25 01:17:28.41	210.31	35.07	-41.8	-42.9	21.3	0.00e+00	77	41	0	557842432	54	7166
2026-01-25 01:17:29.42	210.58	35.24	-41.9	-43.1	21.5	0.00e+00	0	41	0	559939584	56	6472
2026-01-25 01:17:30.43	210.85	35.41	-41.7	-42.8	21.4	0.00e+00	92	41	0	562036736	56	6275
2026-01-25 01:17:31.44	211.13	35.58	-41.7	-42.8	21.6	0.00e+00	0	41	0	564133888	56	6265
2026-01-25 01:17:32.45	211.41	35.75	-41.3	-42.4	21.9	0.00e+00	92	41	0	565182464	56	5967
2026-01-25 01:17:33.46	211.69	35.93	-41.4	-42.5	21.8	0.00e+00	0	41	0	567279616	56	6062
2026-01-25 01:17:34.47	211.98	36.10	-41.4	-42.5	21.8	0.00e+00	92	41	0	569376768	56	6072
2026-01-25 01:17:35.48	212.26	36.27	-41.5	-42.7	21.8	0.00e+00	0	41	0	571473920	56	6190
2026-01-25 01:17:36.49	212.56	36.44	-41.6	-42.8	21.5	0.00e+00	1	41	0	573571072	56	6255
2026-01-25 01:17:37.50	212.85	36.62	-41.9	-43.1	21.5	0.00e+00	90	41	0	574619648	56	6476
2026-01-25 01:17:38.51	213.15	36.79	-41.8	-42.9	21.6	0.00e+00	0	41	0	576716800	56	6373
2026-01-25 01:17:39.52	213.45	36.96	-41.2	-42.3	22.0	0.00e+00	83	41	0	578813952	56	5910
2026-01-25 01:17:40.53	213.75	37.13	-40.8	-41.8	22.6	0.00e+00	0	41	0	580911104	56	5604
2026-01-25 01:17:41.54	214.06	37.31	-40.6	-41.6	22.4	0.00e+00	92	41	0	583008256	54	6149
2026-01-25 01:17:42.55	214.37	37.48	-40.5	-41.4	22.7	0.00e+00	49	41	0	584056832	54	6033
2026-01-25 01:17:43.56	214.68	37.65	-40.5	-41.5	22.7	0.00e+00	90	41	0	586153984	54	6053
2026-01-25 01:17:44.56	215.00	37.82	-40.1	-41.0	22.9	0.00e+00	92	41	0	588251136	54	5759
2026-01-25 01:17:45.58	215.32	38.00	-40.1	-41.0	22.8	0.00e+00	0	41	0	590348288	54	5751
2026-01-25 01:17:46.59	215.64	38.17	-40.2	-41.1	22.8	0.00e+00	76	41	0	592445440	54	5818
2026-01-25 01:17:47.59	215.97	38.34	-40.2	-41.1	22.9	0.00e+00	0	41	0	593494016	52	6527
2026-01-25 01:17:48.60	216.30	38.51	-40.5	-41.4	22.6	0.00e+00	92	41	0	595591168	52	6768
2026-01-25 01:17:49.61	216.63	38.69	-40.4	-41.4	22.6	0.00e+00	0	41	0	597688320	52	6726
2026-01-25 01:17:50.62	216.97	38.86	-40.7	-41.7	22.4	0.00e+00	92	41	0	599785472	54	6231
2026-01-25 01:17:51.63	217.31	39.03	-40.3	-41.3	22.9	0.00e+00	92	41	0	601882624	54	5937
2026-01-25 01:17:52.64	217.65	39.20	-40.5	-41.5	22.6	0.00e+00	0	41	0	602931200	54	6038
2026-01-25 01:17:53.65	218.00	39.37	-40.6	-41.6	22.6	0.00e+00	77	41	0	605028352	54	6155
2026-01-25 01:17:54.66	218.35	39.54	-40.8	-41.9	22.4	0.00e+00	0	41	0	607125504	54	6334
2026-01-25 01:17:55.67	218.70	39.71	-40.5	-41.5	22.6	0.00e+00	87	41	0	609222656	54	6057
2026-01-25 01:17:56.68	219.06	39.88	-40.9	-42.0	22.3	0.00e+00	0	41	0	611319808	54	6395
2026-01-25 01:17:57.69	219.43	40.05	-40.9	-42.0	22.2	0.00e+00	90	41	0	612368384	54	6404
2026-01-25 01:17:58.70	219.79	40.22	-41.4	-42.5	21.6	0.00e+00	92	41	0	614465536	54	6826
2026-01-25 01:17:59.71	220.16	40.39	-41.9	-43.1	21.3	0.00e+00	0	41	0	616562688	56	6529
2026-01-25 01:18:00.73	220.54	40.56	-42.1	-43.4	21.4	0.00e+00	59	41	0	618659840	56	6738
2026-01-25 01:18:01.74	220.92	40.73	-41.8	-43.0	21.4	0.00e+00	0	41	0	620756992	56	6458
2026-01-25 01:18:02.75	221.30	40.90	-41.0	-42.1	22.2	0.00e+00	92	41	0	621805568	56	5779
2026-01-25 01:18:03.76	221.68	41.06	-40.7	-41.6	22.6	0.00e+00	0	41	0	623902720	54	6166
2026-01-25 01:18:04.77	222.07	41.23	-40.4	-41.4	22.6	0.00e+00	92	41	0	625999872	54	6007
2026-01-25 01:18:05.78	222.46	41.39	-41.1	-42.2	22.2	0.00e+00	92	41	0	628097024	54	6571
2026-01-25 01:18:06.79	222.86	41.56	-41.9	-43.1	21.4	0.00e+00	0	41	0	630194176	56	6505
2026-01-25 01:18:07.80	223.26	41.72	-42.1	-43.2	21.3	0.00e+00	92	41	0	632291328	56	6615
2026-01-25 01:18:08.81	223.67	41.88	-40.8	-41.8	22.5	0.00e+00	0	41	0	633339904	56	5581
2026-01-25 01:18:09.82	224.08	42.05	-40.3	-41.2	22.9	0.00e+00	92	41	0	635437056	54	5875
2026-01-25 01:18:10.83	224.49	42.21	-39.9	-40.8	23.1	0.00e+00	0	41	0	637534208	52	6310
2026-01-25 01:18:11.84	224.91	42.37	-40.4	-41.4	22.7	0.00e+00	92	41	0	639631360	52	6719
2026-01-25 01:18:12.85	225.33	42.53	-41.1	-42.2	22.2	0.00e+00	80	41	0	641728512	54	6555
2026-01-25 01:18:13.86	225.75	42.68	-41.3	-42.4	22.1	0.00e+00	69	41	0	642777088	54	6727
2026-01-25 01:18:14.87	226.18	42.84	-41.2	-42.2	22.1	0.00e+00	92	41	0	644874240	54	6603
2026-01-25 01:18:15.88	226.62	43.00	-41.5	-42.6	21.8	0.00e+00	0	41	0	646971392	54	6884
2026-01-25 01:18:16.89	227.06	43.15	-41.9	-43.1	21.4	0.00e+00	81	41	0	649068544	54	7260
2026-01-25 01:18:17.90	227.50	43.30	-41.7	-42.8	21.7	0.00e+00	0	41	0	651165696	56	6296
2026-01-25 01:18:18.91	227.94	43.46	-41.6	-42.8	21.8	0.00e+00	92	41	0	652214272	56	6248
2026-01-25 01:18:19.92	228.39	43.61	-41.4	-42.5	22.0	0.00e+00	81	41	0	654311424	56	6076
2026-01-25 01:18:20.93	228.85	43.76	-41.4	-42.5	22.1	0.00e+00	35	41	0	656408576	56	6036
2026-01-25 01:18:21.94	229.31	43.90	-41.8	-43.0	21.6	0.00e+00	90	41	0	658505728	56	6392
2026-01-25 01:18:22.95	229.77	44.05	-41.8	-42.9	21.6	0.00e+00	0	41	0	660602880	56	6354
2026-01-25 01:18:23.96	230.24	44.20	-41.6	-42.8	21.8	0.00e+00	89	41	0	661651456	56	6247
2026-01-25 01:18:24.97	230.71	44.34	-41.9	-43.1	21.6	0.00e+00	0	41	0	663748608	56	6476
2026-01-25 01:18:25.98	231.18	44.48	-41.6	-42.7	21.9	0.00e+00	90	41	0	665845760	56	6227
2026-01-25 01:18:26.99	231.66	44.62	-41.5	-42.5	22.0	0.00e+00	81	41	0	667942912	56	6102
2026-01-25 01:18:28.00	232.15	44.76	-41.1	-42.1	22.4	0.00e+00	92	41	0	670040064	56	5820
2026-01-25 01:18:29.01	232.64	44.90	-41.5	-42.6	21.9	0.00e+00	92	41	0	671088640	56	6135
2026-01-25 01:18:30.02	233.13	45.03	-41.8	-43.0	21.6	0.00e+00	0	41	0	673185792	56	6431
2026-01-25 01:18:31.03	233.62	45.16	-42.1	-43.3	21.5	0.00e+00	80	41	0	675282944	56	6648
2026-01-25 01:18:32.04	234.12	45.29	-41.8	-42.9	21.8	0.00e+00	0	41	0	677380096	56	6334
2026-01-25 01:18:33.05	234.63	45.42	-41.6	-42.7	22.1	0.00e+00	92	41	0	679477248	56	6197
2026-01-25 01:18:34.06	235.14	45.55	-41.7	-42.8	21.1	0.00e+00	0	41	0	680525824	56	6301
2026-01-25 01:18:35.07	235.65	45.68	-42.8	-44.2	20.4	0.00e+00	92	41	0	682622976	58	6556
2026-01-25 01:18:36.08	236.17	45.80	-43.8	-45.4	19.6	0.00e+00	92	41	0	684720128	58	7520
2026-01-25 01:18:37.08	236.68	45.92	-44.4	-46.0	19.2	0.00e+00	0	41	0	686817280	60	7203
2026-01-25 01:18:38.09	237.21	46.04	-44.3	-45.9	19.1	0.00e+00	61	41	0	688914432	60	7133
2026-01-25 01:18:39.10	237.73	46.15	-44.3	-45.8	19.1	0.00e+00	0	41	0	689963008	60	7081
2026-01-25 01:18:40.11	238.27	46.27	-45.1	-46.9	18.2	0.00e+00	70	41	0	692060160	60	8018
2026-01-25 01:18:41.11	238.80	46.38	-45.0	-46.8	18.5	0.00e+00	0	41	0	694157312	60	7869
2026-01-25 01:18:42.12	239.34	46.49	-44.7	-46.4	18.5	0.00e+00	85	41	0	696254464	60	7580
2026-01-25 01:18:43.13	239.88	46.60	-43.9	-45.3	19.7	0.00e+00	91	41	0	698351616	60	6689
2026-01-25 01:18:44.13	240.42	46.70	-43.7	-45.1	19.7	0.00e+00	0	41	0	700448768	60	6500
2026-01-25 01:18:45.14	240.97	46.80	-44.5	-46.2	18.7	0.00e+00	92	41	0	701497344	60	7374
2026-01-25 01:18:46.16	241.53	46.90	-45.6	-47.7	17.3	0.00e+00	0	41	0	703594496	60	8747
2026-01-25 01:18:47.16	242.08	47.00	-45.5	-47.4	17.6	0.00e+00	54	41	0	705691648	60	8504
2026-01-25 01:18:48.17	242.64	47.09	-44.9	-46.6	18.4	0.00e+00	0	41	0	707788800	60	7760
2026-01-25 01:18:49.18	243.21	47.18	-44.7	-46.4	18.5	0.00e+00	92	41	0	709885952	60	7560
2026-01-25 01:18:50.19	243.77	47.27	-45.5	-47.5	17.6	0.00e+00	0	41	0	710934528	60	8593
2026-01-25 01:18:51.20	244.34	47.36	-45.2	-47.1	17.9	0.00e+00	92	41	0	713031680	60	8142
2026-01-25 01:18:52.21	244.92	47.44	-45.0	-46.8	18.2	0.00e+00	92	41	0	715128832	60	7889
2026-01-25 01:18:53.22	245.49	47.52	-43.6	-45.0	19.9	0.00e+00	0	41	0	717225984	60	6432
2026-01-25 01:18:54.23	246.07	47.59	-43.3	-44.6	19.9	0.00e+00	92	41	0	719323136	60	6136
2026-01-25 01:18:55.23	246.65	47.67	-44.4	-45.9	18.8	0.00e+00	0	41	0	720371712	60	7157
2026-01-25 01:18:56.24	247.23	47.74	-45.4	-47.3	17.8	0.00e+00	92	41	0	722468864	60	8421
2026-01-25 01:18:57.25	247.82	47.81	-45.6	-47.6	17.8	0.00e+00	49	41	0	724566016	60	8658
2026-01-25 01:18:58.26	248.41	47.87	-45.3	-47.2	17.9	0.00e+00	90	41	0	726663168	60	8283
2026-01-25 01:18:59.27	249.00	47.93	-45.4	-47.3	18.0	0.00e+00	92	41	0	728760320	60	8382
2026-01-25 01:19:00.28	249.59	47.99	-44.4	-46.0	19.0	0.00e+00	0	41	0	729808896	60	7195
2026-01-25 01:19:01.29	250.19	48.05	-43.4	-44.7	20.2	0.00e+00	81	41	0	731906048	60	6235
2026-01-25 01:19:02.30	250.79	48.10	-43.4	-44.7	20.3	0.00e+00	0	41	0	734003200	60	6215
2026-01-25 01:19:03.31	251.39	48.15	-43.3	-44.6	20.3	0.00e+00	92	41	0	736100352	60	6167
2026-01-25 01:19:04.32	251.99	48.19	-43.8	-45.3	19.6	0.00e+00	0	41	0	738197504	60	6640
2026-01-25 01:19:05.33	252.59	48.23	-44.3	-45.9	19.1	0.00e+00	91	41	0	739246080	60	7099
2026-01-25 01:19:06.34	253.20	48.27	-44.7	-46.3	18.7	0.00e+00	92	41	0	741343232	60	7504
2026-01-25 01:19:07.34	253.80	48.31	-44.2	-45.8	19.3	0.00e+00	0	41	0	743440384	60	7022
2026-01-25 01:19:08.35	254.41	48.34	-43.9	-45.4	19.8	0.00e+00	92	41	0	745537536	60	6741
2026-01-25 01:19:09.36	255.02	48.37	-43.8	-45.2	19.7	0.00e+00	0	41	0	747634688	60	6569
2026-01-25 01:19:10.37	255.63	48.39	-44.8	-46.5	18.5	0.00e+00	92	41	0	748683264	60	7640
2026-01-25 01:19:11.38	256.24	48.41	-44.7	-46.3	18.9	0.00e+00	0	41	0	750780416	60	7498
2026-01-25 01:19:12.39	256.85	48.43	-43.4	-44.8	20.2	0.00e+00	92	41	0	752877568	60	6255
2026-01-25 01:19:13.40	257.46	48.45	-43.2	-44.5	20.4	0.00e+00	92	41	0	754974720	60	6093
2026-01-25 01:19:14.41	258.08	48.46	-43.5	-44.9	20.2	0.00e+00	0	41	0	757071872	60	6376
2026-01-25 01:19:15.42	258.69	48.47	-43.8	-45.3	19.8	0.00e+00	92	41	0	758120448	60	6640
2026-01-25 01:19:16.43	259.30	48.47	-43.1	-44.4	20.3	0.00e+00	0	41	0	760217600	60	5984
2026-01-25 01:19:17.44	259.92	48.47	-42.6	-43.9	20.9	0.00e+00	88	41	0	762314752	58	6343
2026-01-25 01:19:18.45	260.53	48.47	-43.4	-44.8	20.1	0.00e+00	0	41	0	764411904	58	7056
2026-01-25 01:19:19.46	261.14	48.46	-43.9	-45.5	19.6	0.00e+00	92	41	0	766509056	60	6783
2026-01-25 01:19:20.47	261.76	48.45	-43.5	-44.9	20.0	0.00e+00	81	42	0	767557632	60	6388
2026-01-25 01:19:21.48	262.37	48.44	-42.4	-43.6	21.2	0.00e+00	0	41	0	769654784	58	6160
2026-01-25 01:19:22.49	262.98	48.42	-42.3	-43.4	21.3	0.00e+00	92	41	0	771751936	58	6011
2026-01-25 01:19:23.50	263.59	48.41	-42.8	-44.0	20.9	0.00e+00	0	41	0	773849088	58	6447
2026-01-25 01:19:24.51	264.20	48.38	-43.3	-44.7	20.3	0.00e+00	78	41	0	775946240	58	6936
2026-01-25 01:19:25.52	264.81	48.36	-42.9	-44.2	20.5	0.00e+00	0	41	0	776994816	58	6547
2026-01-25 01:19:26.53	265.42	48.33	-43.1	-44.5	20.1	0.00e+00	92	41	0	779091968	58	6775
2026-01-25 01:19:27.54	266.03	48.29	-44.1	-45.7	19.1	0.00e+00	38	41	0	781189120	60	6940
2026-01-25 01:19:28.55	266.63	48.26	-44.1	-45.6	19.6	0.00e+00	8	41	0	783286272	60	6891
2026-01-25 01:19:29.56	267.24	48.21	-42.3	-43.4	21.5	0.00e+00	92	41	0	785383424	58	6019
2026-01-25 01:19:30.57	267.84	48.17	-41.5	-42.5	22.0	0.00e+00	0	41	0	787480576	56	6077
2026-01-25 01:19:31.58	268.44	48.12	-42.1	-43.2	21.5	0.00e+00	78	41	0	788529152	56	6546
2026-01-25 01:19:32.59	269.04	48.07	-43.3	-44.6	20.3	0.00e+00	0	41	0	790626304	58	6925
2026-01-25 01:19:33.60	269.64	48.02	-44.0	-45.5	19.4	0.00e+00	91	41	0	792723456	60	6839
2026-01-25 01:19:34.62	270.24	47.96	-44.4	-45.9	19.2	0.00e+00	74	42	0	794820608	60	7151
2026-01-25 01:19:35.63	270.83	47.90	-44.3	-45.8	19.3	0.00e+00	0	41	0	796917760	60	7088
2026-01-25 01:19:36.64	271.42	47.84	-43.5	-44.9	20.2	0.00e+00	90	41	0	797966336	60	6339
2026-01-25 01:19:37.64	272.00	47.78	-43.6	-45.0	19.8	0.00e+00	0	41	0	800063488	60	6447
2026-01-25 01:19:38.65	272.59	47.71	-43.8	-45.2	19.7	0.00e+00	69	41	0	802160640	60	6577
2026-01-25 01:19:39.66	273.17	47.64	-43.7	-45.2	19.8	0.00e+00	0	41	0	804257792	60	6556
2026-01-25 01:19:40.67	273.75	47.56	-43.4	-44.8	20.1	0.00e+00	80	41	0	806354944	60	6303
2026-01-25 01:19:41.68	274.33	47.48	-44.7	-46.4	18.7	0.00e+00	49	41	0	807403520	60	7516
2026-01-25 01:19:42.69	274.90	47.40	-44.0	-45.4	19.8	0.00e+00	88	41	0	809500672	60	6718
2026-01-25 01:19:43.70	275.47	47.32	-43.1	-44.3	20.7	0.00e+00	92	41	0	811597824	60	5944
2026-01-25 01:19:44.71	276.04	47.23	-42.7	-43.8	20.7	0.00e+00	0	41	0	813694976	58	6316
2026-01-25 01:19:45.72	276.60	47.14	-42.4	-43.5	21.1	0.00e+00	77	41	0	815792128	58	6070
2026-01-25 01:19:46.72	277.16	47.05	-41.2	-42.2	22.5	0.00e+00	0	41	0	816840704	56	5856
2026-01-25 01:19:47.73	277.72	46.96	-40.6	-41.5	22.8	0.00e+00	91	41	0	818937856	54	6091
2026-01-25 01:19:48.74	278.27	46.86	-41.6	-42.7	21.9	0.00e+00	0	41	0	821035008	54	6940
2026-01-25 01:19:49.75	278.82	46.76	-43.7	-45.2	19.5	0.00e+00	91	41	0	823132160	58	7358
2026-01-25 01:19:50.76	279.37	46.66	-44.9	-46.6	18.9	0.00e+00	75	41	0	825229312	60	7723
2026-01-25 01:19:51.77	279.92	46.55	-43.5	-44.9	20.4	0.00e+00	0	41	0	826277888	60	6321
2026-01-25 01:19:52.78	280.46	46.44	-42.1	-43.2	21.7	0.00e+00	92	41	0	828375040	58	5867
2026-01-25 01:19:53.79	280.99	46.33	-42.6	-43.8	21.0	0.00e+00	0	41	0	830472192	58	6295
2026-01-25 01:19:54.80	281.53	46.22	-42.8	-44.1	20.8	0.00e+00	92	41	0	832569344	58	6469
2026-01-25 01:19:55.80	282.05	46.11	-42.4	-43.5	21.2	0.00e+00	0	41	0	834666496	58	6088
2026-01-25 01:19:56.81	282.58	45.99	-42.6	-43.8	21.1	0.00e+00	92	41	0	835715072	58	6275
2026-01-25 01:19:57.82	283.10	45.87	-42.6	-43.8	21.0	0.00e+00	75	41	0	837812224	58	6290
2026-01-25 01:19:58.83	283.62	45.75	-43.2	-44.6	20.3	0.00e+00	0	41	0	839909376	58	6863
2026-01-25 01:19:59.84	284.13	45.62	-44.6	-46.3	18.6	0.00e+00	90	41	0	842006528	60	7483
2026-01-25 01:20:00.85	284.64	45.50	-45.6	-47.7	17.9	0.00e+00	0	41	0	844103680	60	8737
2026-01-25 01:20:01.86	285.14	45.37	-44.0	-45.5	19.4	0.00e+00	90	41	0	845152256	60	6799
2026-01-25 01:20:02.87	285.65	45.24	-41.6	-42.6	22.2	0.00e+00	0	42	0	847249408	58	5498
2026-01-25 01:20:03.88	286.14	45.11	-40.9	-41.9	22.6	0.00e+00	90	41	0	849346560	56	5650
2026-01-25 01:20:04.89	286.64	44.98	-41.4	-42.5	21.6	0.00e+00	82	42	0	851443712	56	6040
2026-01-25 01:20:05.90	287.13	44.84	-42.2	-43.4	21.6	0.00e+00	0	41	0	853540864	56	6738
2026-01-25 01:20:06.91	287.61	44.70	-41.1	-42.2	22.4	0.00e+00	92	42	0	854589440	56	5847
2026-01-25 01:20:07.92	288.09	44.57	-40.4	-41.3	23.0	0.00e+00	0	42	0	856686592	54	5946
2026-01-25 01:20:08.93	288.57	44.43	-39.8	-40.7	23.4	0.00e+00	80	41	0	858783744	52	6238
2026-01-25 01:20:09.94	289.04	44.28	-40.4	-41.3	22.8	0.00e+00	0	41	0	860880896	52	6670
2026-01-25 01:20:10.95	289.51	44.14	-40.9	-41.9	22.6	0.00e+00	90	42	0	862978048	54	6363
2026-01-25 01:20:11.96	289.97	43.99	-40.3	-41.3	23.0	0.00e+00	0	41	0	865075200	54	5908
2026-01-25 01:20:12.97	290.43	43.85	-39.7	-40.6	23.6	0.00e+00	92	41	0	866123776	52	6121
2026-01-25 01:20:13.98	290.89	43.70	-38.6	-39.4	24.5	0.00e+00	92	42	0	868220928	50	5975
2026-01-25 01:20:14.99	291.34	43.55	-38.8	-39.6	24.2	0.00e+00	0	42	0	870318080	50	6151
2026-01-25 01:20:16.00	291.79	43.40	-39.7	-40.6	23.5	0.00e+00	80	42	0	872415232	50	6884
2026-01-25 01:20:17.01	292.23	43.25	-39.7	-40.6	23.6	0.00e+00	0	41	0	874512384	52	6143
2026-01-25 01:20:18.02	292.67	43.09	-38.9	-39.7	24.2	0.00e+00	92	41	0	875560960	52	5546
2026-01-25 01:20:19.03	293.11	42.94	-38.5	-39.3	24.4	0.00e+00	0	41	0	877658112	50	5905
2026-01-25 01:20:20.04	293.54	42.78	-38.9	-39.8	24.1	0.00e+00	42	41	0	879755264	50	6254
2026-01-25 01:20:21.05	293.96	42.63	-40.2	-41.1	23.1	0.00e+00	84	41	0	881852416	52	6519
2026-01-25 01:20:22.06	294.39	42.47	-40.7	-41.7	22.8	0.00e+00	0	41	0	883949568	54	6228
2026-01-25 01:20:23.07	294.80	42.31	-40.3	-41.2	23.3	0.00e+00	80	41	0	884998144	54	5860
2026-01-25 01:20:24.08	295.22	42.15	-38.8	-39.7	24.2	0.00e+00	0	41	0	887095296	52	5514
2026-01-25 01:20:25.09	295.63	41.99	-38.4	-39.1	24.6	0.00e+00	57	41	0	889192448	50	5816
2026-01-25 01:20:26.10	296.04	41.83	-38.9	-39.7	24.2	0.00e+00	0	41	0	891289600	50	6230
2026-01-25 01:20:27.11	296.44	41.67	-40.0	-40.9	23.3	0.00e+00	81	42	0	893386752	52	6354
2026-01-25 01:20:28.12	296.84	41.50	-40.6	-41.6	22.8	0.00e+00	73	41	0	894435328	52	6862
2026-01-25 01:20:29.13	297.23	41.34	-40.4	-41.3	23.1	0.00e+00	0	41	0	896532480	54	5944
2026-01-25 01:20:30.14	297.62	41.18	-39.3	-40.1	23.9	0.00e+00	56	41	0	898629632	52	5811
2026-01-25 01:20:31.15	298.01	41.01	-39.8	-40.7	23.4	0.00e+00	0	41	0	900726784	52	6198
2026-01-25 01:20:32.16	298.39	40.85	-40.9	-41.8	22.5	0.00e+00	92	42	0	902823936	54	6306
2026-01-25 01:20:33.17	298.77	40.68	-42.1	-43.2	21.5	0.00e+00	0	42	0	903872512	56	6607
2026-01-25 01:20:34.18	299.14	40.51	-41.9	-43.0	21.7	0.00e+00	90	42	0	905969664	56	6424
2026-01-25 01:20:35.19	299.51	40.34	-40.7	-41.7	22.6	0.00e+00	75	42	0	908066816	56	5546
2026-01-25 01:20:36.20	299.88	40.18	-40.8	-41.8	22.4	0.00e+00	0	41	0	910163968	54	6309
2026-01-25 01:20:37.21	300.25	40.01	-42.1	-43.2	21.4	0.00e+00	76	41	0	912261120	56	6574
2026-01-25 01:20:38.22	300.61	39.84	-43.9	-45.4	19.6	0.00e+00	0	42	0	913309696	60	6765
2026-01-25 01:20:39.23	300.96	39.67	-44.2	-45.8	19.3	0.00e+00	92	42	0	915406848	60	7024
2026-01-25 01:20:40.24	301.31	39.50	-44.4	-45.9	19.1	0.00e+00	0	41	0	917504000	60	7167
2026-01-25 01:20:41.25	301.66	39.33	-43.8	-45.2	19.8	0.00e+00	89	41	0	919601152	60	6601
2026-01-25 01:20:42.25	302.00	39.16	-42.9	-44.1	20.8	0.00e+00	7	41	0	921698304	60	5822
2026-01-25 01:20:43.27	302.35	38.99	-42.5	-43.7	21.1	0.00e+00	0	42	0	922746880	58	6222
2026-01-25 01:20:44.27	302.68	38.82	-43.6	-45.0	19.9	0.00e+00	92	42	0	924844032	58	7201
2026-01-25 01:20:45.28	303.02	38.65	-43.2	-44.5	20.3	0.00e+00	0	41	0	926941184	58	6797
2026-01-25 01:20:46.29	303.35	38.48	-44.4	-46.0	18.9	0.00e+00	92	41	0	929038336	60	7207
2026-01-25 01:20:47.30	303.68	38.30	-45.1	-46.8	18.2	0.00e+00	0	41	0	931135488	60	7935
2026-01-25 01:20:48.31	304.00	38.13	-43.5	-44.9	20.2	0.00e+00	92	42	0	933232640	60	6375
2026-01-25 01:20:49.32	304.32	37.96	-42.6	-43.8	20.9	0.00e+00	0	42	0	934281216	58	6308
2026-01-25 01:20:50.33	304.64	37.79	-42.7	-43.9	20.7	0.00e+00	0	42	0	936378368	58	6388
2026-01-25 01:20:51.34	304.96	37.62	-44.1	-45.6	19.5	0.00e+00	90	42	0	938475520	60	6887
2026-01-25 01:20:52.34	305.26	37.45	-44.6	-46.3	18.4	0.00e+00	0	42	0	940572672	60	7491
2026-01-25 01:20:53.36	305.57	37.27	-46.5	-49.0	16.2	0.00e+00	72	42	0	942669824	60	10178
2026-01-25 01:20:54.37	305.88	37.10	-46.3	-48.6	16.9	0.00e+00	0	42	0	943718400	60	9765
2026-01-25 01:20:55.37	306.18	36.93	-43.9	-45.4	19.6	0.00e+00	92	42	0	945815552	60	6748
2026-01-25 01:20:56.38	306.48	36.76	-43.2	-44.5	20.5	0.00e+00	41	42	0	947912704	60	6046
2026-01-25 01:20:57.39	306.77	36.59	-42.8	-44.0	20.8	0.00e+00	0	42	0	950009856	58	6429
2026-01-25 01:20:58.40	307.06	36.42	-42.7	-43.8	20.9	0.00e+00	92	42	0	952107008	58	6293
2026-01-25 01:20:59.41	307.35	36.24	-43.3	-44.6	20.3	0.00e+00	0	42	0	953155584	58	6910
2026-01-25 01:21:00.42	307.64	36.07	-44.8	-46.6	18.2	0.00e+00	28	42	0	955252736	60	7711
2026-01-25 01:21:01.43	307.92	35.90	-46.3	-48.7	16.4	0.00e+00	0	42	0	957349888	60	9859
2026-01-25 01:21:02.44	308.20	35.73	-46.5	-48.9	16.4	0.00e+00	79	41	0	959447040	60	10022
2026-01-25 01:21:03.44	308.48	35.56	-44.7	-46.3	18.8	0.00e+00	0	42	0	961544192	60	7483
2026-01-25 01:21:04.45	308.75	35.39	-42.8	-44.0	20.9	0.00e+00	0	42	0	962592768	60	5752
2026-01-25 01:21:05.47	309.03	35.22	-41.9	-43.0	21.7	0.00e+00	92	42	0	964689920	58	5712
2026-01-25 01:21:06.48	309.30	35.05	-41.8	-42.9	21.8	0.00e+00	0	41	0	966787072	56	6321
2026-01-25 01:21:07.49	309.56	34.88	-42.4	-43.6	21.2	0.00e+00	0	41	0	968884224	56	6868
2026-01-25 01:21:08.50	309.83	34.71	-43.0	-44.3	20.4	0.00e+00	0	41	0	970981376	58	6662
2026-01-25 01:21:09.51	310.09	34.54	-43.5	-44.9	20.1	0.00e+00	64	41	0	972029952	58	7135
2026-01-25 01:21:10.51	310.35	34.37	-43.0	-44.3	20.9	0.00e+00	0	42	0	974127104	58	6646
2026-01-25 01:21:11.52	310.60	34.20	-41.6	-42.7	22.0	0.00e+00	0	42	0	976224256	56	6193
2026-01-25 01:21:12.53	310.85	34.03	-40.7	-41.7	22.7	0.00e+00	72	42	0	978321408	54	6190
2026-01-25 01:21:13.55	311.11	33.86	-40.7	-41.6	23.0	0.00e+00	0	42	0	980418560	54	6164
2026-01-25 01:21:14.56	311.36	33.69	-40.5	-41.4	22.9	0.00e+00	5	42	0	981467136	54	6029
2026-01-25 01:21:15.56	311.60	33.53	-41.4	-42.5	22.2	0.00e+00	0	42	0	983564288	54	6785
2026-01-25 01:21:16.57	311.84	33.36	-42.7	-43.9	21.1	0.00e+00	72	42	0	985661440	56	7122
2026-01-25 01:21:17.58	312.08	33.19	-43.4	-44.8	20.3	0.00e+00	33	42	0	987758592	58	7013
2026-01-25 01:21:18.59	312.32	33.03	-43.2	-44.5	20.4	0.00e+00	92	42	0	989855744	58	6845
2026-01-25 01:21:19.60	312.56	32.86	-42.5	-43.7	21.2	0.00e+00	69	42	0	990904320	58	6212
2026-01-25 01:21:20.61	312.79	32.69	-41.8	-42.9	21.8	0.00e+00	0	42	0	993001472	58	5676
2026-01-25 01:21:21.62	313.02	32.53	-42.0	-43.1	21.6	0.00e+00	92	42	0	995098624	56	6533
2026-01-25 01:21:22.63	313.25	32.36	-42.1	-43.2	21.5	0.00e+00	0	42	0	997195776	56	6590
2026-01-25 01:21:23.64	313.48	32.20	-42.2	-43.3	21.4	0.00e+00	74	42	0	999292928	56	6683
2026-01-25 01:21:24.65	313.70	32.04	-42.6	-43.7	21.2	0.00e+00	0	42	0	1001390080	58	6240
2026-01-25 01:21:25.66	313.92	31.87	-42.7	-43.9	20.8	0.00e+00	92	42	0	1002438656	58	6382
2026-01-25 01:21:26.67	314.14	31.71	-43.4	-44.8	20.0	0.00e+00	0	42	0	1004535808	58	7017
2026-01-25 01:21:27.68	314.36	31.55	-43.7	-45.1	20.0	0.00e+00	0	41	0	1006632960	60	6496
2026-01-25 01:21:28.68	314.58	31.39	-42.8	-44.1	20.4	0.00e+00	80	41	0	1008730112	60	5805
2026-01-25 01:21:29.69	314.79	31.22	-42.0	-43.1	21.5	0.00e+00	0	41	0	1010827264	58	5822
2026-01-25 01:21:30.70	315.00	31.06	-41.9	-43.1	21.5	0.00e+00	67	42	0	1011875840	56	6500
2026-01-25 01:21:31.71	315.21	30.90	-42.1	-43.3	21.2	0.00e+00	0	42	0	1013972992	56	6643
2026-01-25 01:21:32.72	315.42	30.74	-42.3	-43.4	21.1	0.00e+00	92	42	0	1016070144	56	6745
2026-01-25 01:21:33.73	315.62	30.58	-42.3	-43.4	21.4	0.00e+00	0	42	0	1018167296	56	6755
2026-01-25 01:21:34.74	315.83	30.42	-41.8	-42.9	21.8	0.00e+00	0	42	0	1020264448	56	6368
2026-01-25 01:21:35.75	316.03	30.26	-41.9	-43.0	21.5	0.00e+00	83	42	0	1021313024	56	6451
2026-01-25 01:21:36.76	316.23	30.10	-41.5	-42.6	22.0	0.00e+00	0	42	0	1023410176	56	6151
2026-01-25 01:21:37.77	316.43	29.95	-41.6	-42.7	21.9	0.00e+00	49	42	0	1025507328	56	6233
2026-01-25 01:21:38.78	316.62	29.79	-41.1	-42.1	22.4	0.00e+00	0	42	0	1027604480	56	5796
2026-01-25 01:21:39.79	316.82	29.63	-41.0	-42.0	22.5	0.00e+00	91	42	0	1029701632	56	5747
2026-01-25 01:21:40.80	317.01	29.48	-41.3	-42.3	22.2	0.00e+00	0	42	0	1030750208	56	5934
2026-01-25 01:21:41.81	317.20	29.32	-41.1	-42.2	22.2	0.00e+00	29	42	0	1032847360	56	5834
2026-01-25 01:21:42.82	317.39	29.17	-41.9	-43.0	21.6	0.00e+00	75	42	0	1034944512	56	6405
2026-01-25 01:21:43.83	317.58	29.01	-42.9	-44.2	20.4	0.00e+00	0	42	0	1037041664	58	6554
2026-01-25 01:21:44.84	317.76	28.86	-43.3	-44.6	19.8	0.00e+00	38	42	0	1039138816	58	6904
2026-01-25 01:21:45.85	317.94	28.70	-43.9	-45.4	19.5	0.00e+00	0	42	0	1040187392	60	6720
2026-01-25 01:21:46.86	318.13	28.55	-43.8	-45.2	19.8	0.00e+00	75	42	0	1042284544	60	6600
2026-01-25 01:21:47.87	318.31	28.40	-43.5	-44.9	20.1	0.00e+00	0	42	0	1044381696	60	6326
2026-01-25 01:21:48.88	318.48	28.25	-42.8	-44.0	20.7	0.00e+00	0	42	0	1046478848	60	5708
2026-01-25 01:21:49.89	318.66	28.09	-42.8	-44.0	20.7	0.00e+00	78	42	0	1048576000	60	5741
2026-01-25 01:21:50.90	318.84	27.94	-42.4	-43.6	21.0	0.00e+00	0	42	0	1049624576	58	6155
2026-01-25 01:21:51.91	319.01	27.79	-41.8	-42.9	21.7	0.00e+00	79	42	0	1051721728	56	6343
2026-01-25 01:21:52.92	319.18	27.64	-41.8	-42.8	21.8	0.00e+00	0	42	0	1053818880	56	6295
2026-01-25 01:21:53.93	319.35	27.49	-41.8	-42.9	21.8	0.00e+00	90	42	0	1055916032	56	6360
2026-01-25 01:21:54.94	319.52	27.35	-42.3	-43.4	21.2	0.00e+00	0	42	0	1058013184	56	6733
2026-01-25 01:21:55.95	319.69	27.20	-42.6	-43.8	20.9	0.00e+00	88	42	0	1059061760	56	7037
2026-01-25 01:21:56.96	319.85	27.05	-42.1	-43.2	21.5	0.00e+00	0	42	0	1061158912	56	6580
2026-01-25 01:21:57.97	320.02	26.90	-41.9	-43.0	21.7	0.00e+00	0	42	0	1063256064	56	6402
2026-01-25 01:21:58.98	320.18	26.76	-41.4	-42.4	22.1	0.00e+00	47	42	0	1065353216	56	6007
2026-01-25 01:21:59.99	320.34	26.61	-41.0	-42.0	22.6	0.00e+00	0	42	0	1067450368	56	5717
2026-01-25 01:22:01.00	320.50	26.47	-40.4	-41.3	23.0	0.00e+00	86	42	0	1069547520	54	5944
2026-01-25 01:22:02.01	320.66	26.32	-40.3	-41.2	23.0	0.00e+00	0	42	0	1070596096	54	5843
2026-01-25 01:22:03.02	320.82	26.18	-40.0	-41.0	23.1	0.00e+00	84	42	0	1072693248	54	5696
2026-01-25 01:22:04.03	320.97	26.03	-40.1	-41.1	23.2	0.00e+00	0	42	0	1074790400	54	5767
2026-01-25 01:22:05.04	321.13	25.89	-40.5	-41.5	22.8	0.00e+00	0	42	0	1076887552	54	6082
2026-01-25 01:22:06.05	321.28	25.75	-40.8	-41.8	22.6	0.00e+00	63	42	0	1078984704	54	6317
2026-01-25 01:22:07.06	321.43	25.61	-41.1	-42.1	22.1	0.00e+00	0	42	0	1080033280	54	6534
2026-01-25 01:22:08.07	321.58	25.46	-41.6	-42.7	21.7	0.00e+00	77	42	0	1082130432	54	6997
2026-01-25 01:22:09.07	321.73	25.32	-41.8	-42.9	21.5	0.00e+00	0	42	0	1084227584	56	6333
2026-01-25 01:22:10.08	321.88	25.18	-42.5	-43.7	20.9	0.00e+00	69	42	0	1086324736	56	6959
2026-01-25 01:22:11.10	322.03	25.04	-42.4	-43.6	21.0	0.00e+00	9	42	0	1088421888	56	6884
2026-01-25 01:22:12.10	322.17	24.90	-43.0	-44.3	20.4	0.00e+00	0	42	0	1089470464	58	6623
2026-01-25 01:22:13.11	322.32	24.77	-42.9	-44.2	20.5	0.00e+00	58	42	0	1091567616	58	6554
2026-01-25 01:22:14.12	322.46	24.63	-42.9	-44.2	20.5	0.00e+00	0	42	0	1093664768	58	6546
2026-01-25 01:22:15.13	322.60	24.49	-43.0	-44.3	20.2	0.00e+00	92	42	0	1095761920	58	6676
2026-01-25 01:22:16.14	322.74	24.35	-42.9	-44.2	20.3	0.00e+00	0	42	0	1097859072	58	6615
2026-01-25 01:22:17.15	322.88	24.22	-43.0	-44.3	20.1	0.00e+00	90	42	0	1098907648	58	6653
2026-01-25 01:22:18.16	323.02	24.08	-43.4	-44.9	19.9	0.00e+00	0	42	0	1101004800	58	7111
2026-01-25 01:22:19.17	323.15	23.95	-43.0	-44.5	20.2	0.00e+00	0	42	0	1103101952	58	6773
2026-01-25 01:22:20.18	323.29	23.81	-43.7	-45.3	19.4	0.00e+00	92	42	0	1105199104	58	7433
2026-01-25 01:22:21.19	323.43	23.68	-43.6	-45.1	19.7	0.00e+00	0	42	0	1107296256	58	7297
2026-01-25 01:22:22.20	323.56	23.54	-43.4	-44.9	19.9	0.00e+00	71	42	0	1108344832	58	7123
2026-01-25 01:22:23.20	323.69	23.41	-43.3	-44.8	19.8	0.00e+00	0	42	0	1110441984	58	7082
2026-01-25 01:22:24.21	323.82	23.28	-42.8	-44.2	20.5	0.00e+00	92	42	0	1112539136	58	6575
2026-01-25 01:22:25.22	323.95	23.15	-42.7	-44.1	20.5	0.00e+00	0	42	0	1114636288	58	6497
2026-01-25 01:22:26.23	324.08	23.01	-42.7	-44.1	20.5	0.00e+00	0	42	0	1116733440	58	6481
2026-01-25 01:22:27.24	324.21	22.88	-42.9	-44.2	20.4	0.00e+00	72	42	0	1117782016	58	6587
2026-01-25 01:22:28.24	324.34	22.75	-43.5	-45.0	19.7	0.00e+00	0	42	0	1119879168	58	7246
2026-01-25 01:22:29.26	324.46	22.62	-44.1	-45.8	19.0	0.00e+00	75	42	0	1121976320	60	7021
2026-01-25 01:22:30.27	324.59	22.49	-44.4	-46.1	18.7	0.00e+00	33	42	0	1124073472	60	7274
2026-01-25 01:22:31.28	324.71	22.36	-44.6	-46.4	18.5	0.00e+00	88	42	0	1126170624	60	7593
2026-01-25 01:22:32.28	324.84	22.24	-44.7	-46.5	18.6	0.00e+00	0	42	0	1127219200	60	7608
2026-01-25 01:22:33.29	324.96	22.11	-44.5	-46.2	18.9	0.00e+00	77	42	0	1129316352	60	7377
2026-01-25 01:22:34.30	325.08	21.98	-44.1	-45.7	18.8	0.00e+00	0	42	0	1131413504	60	7001
2026-01-25 01:22:35.31	325.20	21.86	-43.9	-45.4	19.4	0.00e+00	0	42	0	1133510656	60	6759
2026-01-25 01:22:36.32	325.32	21.73	-43.1	-44.5	20.3	0.00e+00	79	42	0	1135607808	60	6089
2026-01-25 01:22:37.33	325.44	21.60	-42.3	-43.5	21.0	0.00e+00	0	42	0	1137704960	58	6089
2026-01-25 01:22:38.34	325.56	21.48	-41.7	-42.9	21.7	0.00e+00	78	42	0	1138753536	58	5636
2026-01-25 01:22:39.35	325.67	21.35	-41.2	-42.2	22.2	0.00e+00	0	42	0	1140850688	56	5870
2026-01-25 01:22:40.36	325.79	21.23	-40.8	-41.8	22.6	0.00e+00	92	42	0	1142947840	56	5624
2026-01-25 01:22:41.37	325.90	21.10	-39.9	-40.8	23.3	0.00e+00	33	42	0	1145044992	54	5591
2026-01-25 01:22:42.38	326.02	20.98	-39.8	-40.7	23.3	0.00e+00	0	42	0	1147142144	52	6204
2026-01-25 01:22:43.39	326.13	20.86	-40.1	-41.0	23.0	0.00e+00	86	42	0	1148190720	52	6457
2026-01-25 01:22:44.40	326.24	20.74	-39.9	-40.8	23.2	0.00e+00	0	42	0	1150287872	52	6302
2026-01-25 01:22:45.41	326.35	20.61	-40.4	-41.4	22.7	0.00e+00	70	42	0	1152385024	52	6707
2026-01-25 01:22:46.42	326.46	20.49	-40.4	-41.4	22.7	0.00e+00	0	42	0	1154482176	52	6739
2026-01-25 01:22:47.42	326.57	20.37	-40.7	-41.7	22.4	0.00e+00	92	42	0	1155530752	52	6968
2026-01-25 01:22:48.43	326.68	20.25	-41.5	-42.6	21.7	0.00e+00	0	42	0	1157627904	54	6851
2026-01-25 01:22:49.44	326.79	20.13	-41.6	-42.7	21.6	0.00e+00	0	42	0	1159725056	54	6974
2026-01-25 01:22:50.44	326.90	20.01	-42.1	-43.3	21.1	0.00e+00	92	42	0	1161822208	56	6669
2026-01-25 01:22:51.46	327.00	19.89	-42.6	-43.9	20.7	0.00e+00	0	42	0	1163919360	56	7107
2026-01-25 01:22:52.47	327.11	19.78	-42.8	-44.1	20.4	0.00e+00	77	42	0	1166016512	56	7292
2026-01-25 01:22:53.47	327.21	19.66	-43.2	-44.6	20.0	0.00e+00	0	42	0	1167065088	58	6859
2026-01-25 01:22:54.48	327.32	19.54	-43.2	-44.6	20.1	0.00e+00	91	42	0	1169162240	58	6916
2026-01-25 01:22:55.50	327.42	19.42	-43.3	-44.7	19.9	0.00e+00	0	42	0	1171259392	58	6983
2026-01-25 01:22:56.50	327.52	19.31	-43.4	-44.9	19.6	0.00e+00	0	42	0	1173356544	58	7150
2026-01-25 01:22:57.51	327.63	19.19	-43.1	-44.5	20.1	0.00e+00	68	42	0	1175453696	58	6843
2026-01-25 01:22:58.52	327.73	19.08	-42.9	-44.2	20.3	0.00e+00	0	42	0	1176502272	58	6584
2026-01-25 01:22:59.53	327.83	18.96	-42.8	-44.2	20.4	0.00e+00	30	42	0	1178599424	58	6557
2026-01-25 01:23:00.54	327.93	18.85	-42.7	-44.0	20.6	0.00e+00	0	42	0	1180696576	58	6431
2026-01-25 01:23:01.54	328.03	18.73	-42.7	-44.0	20.6	0.00e+00	79	42	0	1182793728	58	6442
2026-01-25 01:23:02.55	328.12	18.62	-42.5	-43.7	20.7	0.00e+00	0	42	0	1184890880	58	6240
2026-01-25 01:23:03.56	328.22	18.51	-42.4	-43.6	20.8	0.00e+00	51	42	0	1185939456	58	6140
2026-01-25 01:23:04.57	328.32	18.39	-42.2	-43.4	21.1	0.00e+00	0	42	0	1188036608	58	5999
2026-01-25 01:23:05.58	328.42	18.28	-41.9	-43.1	21.3	0.00e+00	0	42	0	1190133760	58	5767
2026-01-25 01:23:06.59	328.51	18.17	-42.0	-43.1	21.3	0.00e+00	69	42	0	1192230912	58	5816
2026-01-25 01:23:07.60	328.61	18.06	-42.0	-43.2	21.1	0.00e+00	0	42	0	1194328064	58	5871
2026-01-25 01:23:08.61	328.70	17.95	-42.4	-43.7	20.8	0.00e+00	71	42	0	1195376640	58	6185
2026-01-25 01:23:09.62	328.79	17.83	-42.5	-43.8	20.7	0.00e+00	0	42	0	1197473792	58	6304
