passes_logs/2026/01/25/R4.6S_Anadyr/R4.6S_Anadyr__20260125_213408_SUOMI_NPP_rec.log

#Pass ID: 20260125_213408_SUOMI NPP
#Satellite: SUOMI NPP
#Configuration: NPP
#almurnet v.1.7.20251203
#Start time: 2026-01-25 21:34:11

#Version: 2.2.20231116
#Station: R4.6S_Anadyr
#Location: 177.4865 lon 64.73178 lat
#TLE: 1 37849U 11061A   26025.53586395  .00000179  00000+0  10601-3 0  9996
#TLE: 2 37849  98.7821 327.4943 0002169  45.6246 314.5108 14.19529815738202

#Time	Az	El	Level	Level2	SNR	BER	BlckErr	Temp	State	Recorded	gain1	gain2
2026-01-25 21:34:11.21	91.54	0.15	-50.3	-62.8	3.4	1.52e+00	0	38	0	0	60	48617
2026-01-25 21:34:12.22	91.48	0.21	-51.1	-66.3	3.6	1.51e+00	0	39	104	0	60	74370
2026-01-25 21:34:13.22	91.42	0.26	-50.7	-65.8	3.6	1.51e+00	0	39	104	0	60	70831
2026-01-25 21:34:14.24	91.35	0.31	-50.7	-65.8	3.6	1.51e+00	0	39	104	0	60	70703
2026-01-25 21:34:15.24	91.29	0.37	-50.8	-66.0	3.6	1.51e+00	0	39	104	0	60	71786
2026-01-25 21:34:16.25	91.23	0.42	-50.1	-65.4	3.6	1.51e+00	0	39	104	0	60	67466
2026-01-25 21:34:17.26	91.17	0.48	-49.6	-65.3	3.6	1.51e+00	0	39	104	0	60	66855
2026-01-25 21:34:18.27	91.11	0.53	-50.2	-65.5	3.6	1.51e+00	0	39	104	0	60	68179
2026-01-25 21:34:19.28	91.04	0.58	-49.9	-65.3	3.6	1.51e+00	0	39	104	0	60	66597
2026-01-25 21:34:20.29	90.98	0.64	-50.1	-65.4	3.6	1.51e+00	0	39	104	0	60	66931
2026-01-25 21:34:21.30	90.92	0.69	-50.1	-65.3	3.6	1.51e+00	0	39	104	0	60	66823
2026-01-25 21:34:22.31	90.85	0.75	-50.1	-65.4	3.6	1.51e+00	0	39	104	0	60	67058
2026-01-25 21:34:23.32	90.79	0.80	-50.1	-65.2	3.6	1.51e+00	0	39	104	0	60	65973
2026-01-25 21:34:24.33	90.73	0.86	-50.0	-65.4	3.6	1.51e+00	0	39	104	0	60	67037
2026-01-25 21:34:25.34	90.66	0.91	-50.0	-65.3	3.6	1.51e+00	0	39	104	0	60	66313
2026-01-25 21:34:26.35	90.60	0.97	-50.1	-65.3	3.6	1.51e+00	0	39	104	0	60	66774
2026-01-25 21:34:27.36	90.53	1.02	-50.0	-65.2	3.6	1.51e+00	0	39	104	0	60	66133
2026-01-25 21:34:28.37	90.47	1.08	-49.9	-65.2	3.6	1.51e+00	0	39	104	0	60	65568
2026-01-25 21:34:29.38	90.41	1.13	-49.9	-65.2	3.6	1.51e+00	0	39	104	0	60	65441
2026-01-25 21:34:30.38	90.34	1.18	-49.9	-65.1	3.6	1.51e+00	0	39	104	0	60	65147
2026-01-25 21:34:31.39	90.28	1.24	-49.9	-65.1	3.6	1.51e+00	0	39	104	0	60	64832
2026-01-25 21:34:32.40	90.21	1.30	-49.3	-65.0	3.6	1.51e+00	0	39	104	0	60	63995
2026-01-25 21:34:33.41	90.14	1.35	-49.5	-64.9	3.6	1.51e+00	0	39	104	0	60	63190
2026-01-25 21:34:34.42	90.08	1.41	-49.2	-64.7	3.6	1.51e+00	0	39	104	0	60	61871
2026-01-25 21:34:35.43	90.01	1.46	-48.8	-64.3	3.6	1.51e+00	0	39	104	0	60	59067
2026-01-25 21:34:36.44	89.94	1.52	-47.5	-63.7	3.6	1.51e+00	0	40	104	0	60	55591
2026-01-25 21:34:37.45	89.88	1.57	-47.6	-63.7	3.6	1.51e+00	0	40	104	0	60	55416
2026-01-25 21:34:38.46	89.81	1.63	-47.6	-63.7	3.6	1.51e+00	0	39	104	0	60	55537
2026-01-25 21:34:39.47	89.74	1.68	-47.6	-63.7	3.6	1.51e+00	0	39	104	0	60	55043
2026-01-25 21:34:40.48	89.67	1.74	-47.7	-63.7	3.6	1.51e+00	0	39	104	0	60	55171
2026-01-25 21:34:41.49	89.61	1.79	-47.8	-63.7	3.6	1.51e+00	0	39	104	0	60	55164
2026-01-25 21:34:42.50	89.54	1.85	-47.7	-63.7	3.6	1.51e+00	0	39	104	0	60	55274
2026-01-25 21:34:43.51	89.47	1.91	-47.7	-63.8	3.6	1.51e+00	0	39	104	0	60	55981
2026-01-25 21:34:44.52	89.40	1.96	-47.6	-63.8	3.6	1.51e+00	0	39	104	0	60	55811
2026-01-25 21:34:45.53	89.33	2.02	-47.7	-63.7	3.6	1.51e+00	0	39	104	0	60	55605
2026-01-25 21:34:46.54	89.26	2.07	-47.6	-63.8	3.6	1.51e+00	0	39	104	0	60	55973
2026-01-25 21:34:47.55	89.19	2.13	-47.6	-63.8	3.6	1.51e+00	0	40	104	0	60	55810
2026-01-25 21:34:48.56	89.12	2.19	-47.5	-63.8	3.6	1.51e+00	0	39	104	0	60	55735
2026-01-25 21:34:49.57	89.05	2.24	-47.6	-63.7	3.6	1.51e+00	0	39	104	0	60	55635
2026-01-25 21:34:50.58	88.98	2.30	-47.5	-63.7	3.6	1.51e+00	0	40	104	0	60	55280
2026-01-25 21:34:51.59	88.91	2.36	-47.5	-63.6	3.6	1.51e+00	0	39	104	0	60	54703
2026-01-25 21:34:52.60	88.84	2.41	-47.5	-63.6	3.6	1.51e+00	0	39	104	0	60	54615
2026-01-25 21:34:53.61	88.77	2.47	-47.5	-63.7	3.5	1.51e+00	0	39	104	0	60	55388
2026-01-25 21:34:54.62	88.70	2.53	-47.6	-63.8	3.6	1.51e+00	0	40	104	0	60	56235
2026-01-25 21:34:55.63	88.62	2.58	-47.5	-63.8	3.6	1.51e+00	0	40	104	0	60	55761
2026-01-25 21:34:56.64	88.55	2.64	-47.6	-63.7	3.6	1.51e+00	0	40	104	0	60	55391
2026-01-25 21:34:57.64	88.48	2.70	-47.5	-63.8	3.6	1.51e+00	0	40	104	0	60	55916
2026-01-25 21:34:58.65	88.41	2.75	-47.4	-63.7	3.6	1.51e+00	0	40	104	0	60	55358
2026-01-25 21:34:59.66	88.33	2.81	-47.5	-63.6	3.6	1.51e+00	0	40	104	0	60	54895
2026-01-25 21:35:00.67	88.26	2.87	-47.5	-63.5	3.6	1.51e+00	0	40	104	0	60	54268
2026-01-25 21:35:01.68	88.19	2.92	-47.4	-63.1	3.6	1.51e+00	0	40	104	0	60	51585
2026-01-25 21:35:02.69	88.11	2.98	-47.5	-63.0	3.6	1.51e+00	0	40	104	0	60	51248
2026-01-25 21:35:03.70	88.04	3.04	-47.5	-63.5	3.6	1.51e+00	0	40	104	0	60	54264
2026-01-25 21:35:04.71	87.96	3.10	-47.6	-63.4	3.6	1.51e+00	0	40	104	0	60	53385
2026-01-25 21:35:05.72	87.89	3.15	-47.4	-59.8	4.4	1.50e+00	90	40	104	0	60	35438
2026-01-25 21:35:06.73	87.81	3.21	-46.9	-54.2	7.6	2.13e-01	0	40	0	1048576	60	18592
2026-01-25 21:35:07.74	87.74	3.27	-46.0	-51.3	11.1	1.09e-02	0	40	0	3145728	60	13323
2026-01-25 21:35:08.75	87.66	3.33	-45.1	-49.1	13.6	3.52e-04	0	40	0	5242880	60	10296
2026-01-25 21:35:09.76	87.58	3.38	-46.6	-53.9	8.0	1.25e-02	0	40	0	6291456	60	17901
2026-01-25 21:35:10.77	87.51	3.44	-47.3	-55.9	5.9	1.82e-01	0	40	0	8388608	60	22572
2026-01-25 21:35:11.78	87.43	3.50	-48.0	-57.0	4.3	3.31e-02	0	40	0	10485760	60	25466
2026-01-25 21:35:12.78	87.35	3.56	-47.6	-63.4	3.6	1.51e+00	0	40	104	10485760	60	53733
2026-01-25 21:35:13.79	87.28	3.62	-44.9	-48.3	5.8	1.48e+00	0	40	104	10485760	60	9393
2026-01-25 21:35:14.80	87.20	3.67	-45.0	-48.1	14.6	4.57e-05	0	40	0	10485760	60	9229
2026-01-25 21:35:15.81	87.12	3.73	-45.0	-48.5	14.3	0.00e+00	0	40	0	12582912	60	9600
2026-01-25 21:35:16.82	87.04	3.79	-44.6	-47.9	15.1	0.00e+00	0	40	0	13631488	60	9023
2026-01-25 21:35:17.83	86.96	3.85	-44.3	-47.5	15.8	7.00e-07	0	40	0	15728640	60	8540
2026-01-25 21:35:18.84	86.89	3.91	-44.2	-47.3	15.6	0.00e+00	0	40	0	17825792	60	8361
2026-01-25 21:35:19.85	86.81	3.97	-44.1	-47.1	15.7	0.00e+00	0	40	0	19922944	60	8190
2026-01-25 21:35:20.86	86.73	4.02	-43.2	-45.8	17.1	0.00e+00	0	40	0	22020096	60	7027
2026-01-25 21:35:21.87	86.65	4.08	-43.3	-45.9	17.1	0.00e+00	0	40	0	23068672	60	7147
2026-01-25 21:35:22.88	86.57	4.14	-43.2	-45.7	17.1	0.00e+00	0	40	0	25165824	60	6979
2026-01-25 21:35:23.89	86.48	4.20	-43.3	-45.8	17.2	0.00e+00	0	40	0	27262976	60	7015
2026-01-25 21:35:24.90	86.40	4.26	-43.3	-45.8	17.2	0.00e+00	0	40	0	29360128	60	7050
2026-01-25 21:35:25.91	86.32	4.32	-43.4	-45.9	16.9	0.00e+00	0	40	0	31457280	60	7139
2026-01-25 21:35:26.92	86.24	4.38	-42.9	-45.1	18.2	0.00e+00	0	40	0	32505856	60	6473
2026-01-25 21:35:27.92	86.16	4.44	-42.7	-44.7	18.2	0.00e+00	0	40	0	34603008	58	6952
2026-01-25 21:35:28.93	86.08	4.50	-43.2	-45.3	17.6	0.00e+00	0	40	0	36700160	58	7439
2026-01-25 21:35:29.94	85.99	4.55	-43.0	-44.9	18.0	0.00e+00	0	40	0	38797312	58	7144
2026-01-25 21:35:30.95	85.91	4.61	-42.8	-44.7	18.3	0.00e+00	0	40	0	40894464	58	6943
2026-01-25 21:35:31.96	85.83	4.67	-42.5	-44.3	18.6	0.00e+00	0	40	0	41943040	58	6653
2026-01-25 21:35:32.97	85.74	4.73	-43.2	-45.2	17.8	0.00e+00	0	40	0	44040192	58	7366
2026-01-25 21:35:33.98	85.66	4.79	-43.0	-44.9	18.1	0.00e+00	0	40	0	46137344	58	7130
2026-01-25 21:35:34.98	85.58	4.85	-42.9	-44.8	18.1	0.00e+00	0	40	0	48234496	58	7031
2026-01-25 21:35:35.99	85.49	4.91	-42.6	-44.3	18.7	0.00e+00	0	40	0	50331648	58	6628
2026-01-25 21:35:37.00	85.41	4.97	-42.8	-44.6	18.4	0.00e+00	0	40	0	51380224	58	6880
2026-01-25 21:35:38.01	85.32	5.03	-42.6	-44.2	18.7	0.00e+00	0	40	0	53477376	58	6597
2026-01-25 21:35:39.02	85.23	5.09	-42.6	-44.2	18.7	0.00e+00	0	40	0	55574528	58	6557
2026-01-25 21:35:40.03	85.15	5.15	-42.4	-43.9	19.1	0.00e+00	0	40	0	57671680	58	6386
2026-01-25 21:35:41.04	85.06	5.21	-42.9	-44.5	18.5	0.00e+00	0	40	0	59768832	58	6844
2026-01-25 21:35:42.05	84.97	5.27	-42.6	-44.2	18.8	0.00e+00	0	40	0	60817408	58	6552
2026-01-25 21:35:43.06	84.89	5.33	-42.6	-44.2	18.6	0.00e+00	0	40	0	62914560	58	6608
2026-01-25 21:35:44.07	84.80	5.39	-42.5	-44.1	19.1	0.00e+00	0	40	0	65011712	58	6491
2026-01-25 21:35:45.08	84.71	5.45	-42.5	-44.1	18.9	0.00e+00	0	40	0	67108864	58	6534
2026-01-25 21:35:46.09	84.62	5.51	-42.3	-43.9	19.1	0.00e+00	0	40	0	69206016	58	6346
2026-01-25 21:35:47.10	84.53	5.57	-42.2	-43.8	19.3	0.00e+00	0	40	0	70254592	58	6251
2026-01-25 21:35:48.11	84.44	5.63	-41.9	-43.3	19.7	0.00e+00	0	40	0	72351744	58	5909
2026-01-25 21:35:49.12	84.35	5.69	-41.8	-43.1	19.9	0.00e+00	0	40	0	74448896	56	6522
2026-01-25 21:35:50.12	84.26	5.75	-41.8	-43.2	19.9	0.00e+00	0	40	0	76546048	56	6576
2026-01-25 21:35:51.14	84.17	5.82	-42.2	-43.7	19.3	0.00e+00	0	40	0	78643200	56	6972
2026-01-25 21:35:52.14	84.08	5.88	-42.3	-43.8	19.4	0.00e+00	0	40	0	80740352	56	7041
2026-01-25 21:35:53.15	83.99	5.94	-42.5	-44.1	19.1	0.00e+00	0	40	0	81788928	56	7289
2026-01-25 21:35:54.16	83.90	6.00	-42.2	-43.8	19.3	0.00e+00	0	40	0	83886080	56	7017
2026-01-25 21:35:55.17	83.81	6.06	-42.1	-43.6	19.5	0.00e+00	0	40	0	85983232	56	6859
2026-01-25 21:35:56.18	83.72	6.12	-42.0	-43.4	19.7	0.00e+00	0	40	0	88080384	56	6764
2026-01-25 21:35:57.19	83.62	6.18	-42.0	-43.5	19.8	0.00e+00	0	40	0	90177536	56	6791
2026-01-25 21:35:58.20	83.53	6.24	-41.5	-42.9	20.0	0.00e+00	0	40	0	91226112	56	6319
2026-01-25 21:35:59.21	83.44	6.30	-41.6	-42.9	20.2	0.00e+00	0	40	0	93323264	56	6338
2026-01-25 21:36:00.22	83.34	6.37	-41.6	-42.9	20.2	0.00e+00	0	40	0	95420416	56	6359
2026-01-25 21:36:01.23	83.25	6.43	-41.5	-42.7	20.3	0.00e+00	0	40	0	97517568	56	6244
2026-01-25 21:36:02.24	83.15	6.49	-41.8	-43.2	19.9	0.00e+00	0	40	0	99614720	56	6572
2026-01-25 21:36:03.25	83.06	6.55	-41.7	-43.0	20.1	0.00e+00	0	40	0	100663296	56	6440
2026-01-25 21:36:04.26	82.96	6.61	-42.0	-43.4	19.6	0.00e+00	0	40	0	102760448	56	6712
2026-01-25 21:36:05.27	82.86	6.67	-42.1	-43.6	19.6	0.00e+00	0	40	0	104857600	56	6891
2026-01-25 21:36:06.28	82.77	6.74	-41.7	-43.1	19.9	0.00e+00	0	40	0	106954752	56	6523
2026-01-25 21:36:07.28	82.67	6.80	-41.7	-43.1	20.0	0.00e+00	0	40	0	109051904	56	6492
2026-01-25 21:36:08.29	82.57	6.86	-41.9	-43.3	19.8	0.00e+00	0	40	0	110100480	56	6673
2026-01-25 21:36:09.30	82.48	6.92	-41.7	-43.1	20.0	0.00e+00	0	40	0	112197632	56	6520
2026-01-25 21:36:10.31	82.38	6.98	-42.2	-43.8	19.4	0.00e+00	0	40	0	114294784	56	7017
2026-01-25 21:36:11.32	82.28	7.05	-42.2	-43.8	19.5	0.00e+00	0	40	0	116391936	56	7018
2026-01-25 21:36:12.33	82.18	7.11	-42.0	-43.4	19.7	0.00e+00	0	40	0	118489088	56	6753
2026-01-25 21:36:13.34	82.08	7.17	-41.9	-43.4	19.8	0.00e+00	0	40	0	119537664	56	6705
2026-01-25 21:36:14.35	81.98	7.23	-42.5	-44.0	19.2	0.00e+00	0	40	0	121634816	56	7240
2026-01-25 21:36:15.36	81.88	7.30	-42.6	-44.2	18.9	0.00e+00	0	40	0	123731968	56	7395
2026-01-25 21:36:16.37	81.78	7.36	-42.8	-44.4	18.8	0.00e+00	0	40	0	125829120	58	6754
2026-01-25 21:36:17.38	81.68	7.42	-42.4	-44.0	19.2	0.00e+00	0	40	0	127926272	58	6434
2026-01-25 21:36:18.39	81.58	7.48	-42.5	-44.1	19.1	0.00e+00	0	40	0	128974848	58	6484
2026-01-25 21:36:19.40	81.47	7.55	-42.2	-43.7	19.5	0.00e+00	0	40	0	131072000	58	6194
2026-01-25 21:36:20.41	81.37	7.61	-42.3	-43.9	19.2	0.00e+00	0	40	0	133169152	58	6331
2026-01-25 21:36:21.42	81.27	7.67	-42.3	-43.8	19.4	0.00e+00	0	40	0	135266304	58	6266
2026-01-25 21:36:22.43	81.16	7.74	-42.5	-44.1	19.1	0.00e+00	0	40	0	137363456	58	6480
2026-01-25 21:36:23.44	81.06	7.80	-42.2	-43.8	19.5	0.00e+00	0	40	0	138412032	58	6248
2026-01-25 21:36:24.44	80.96	7.86	-42.3	-43.9	19.3	0.00e+00	0	40	0	140509184	58	6326
2026-01-25 21:36:25.45	80.85	7.92	-42.1	-43.6	19.6	0.00e+00	0	40	0	142606336	58	6110
2026-01-25 21:36:26.47	80.74	7.99	-41.9	-43.4	19.8	0.00e+00	0	40	0	144703488	58	5969
2026-01-25 21:36:27.48	80.64	8.05	-42.0	-43.4	19.7	0.00e+00	0	40	0	146800640	58	6016
2026-01-25 21:36:28.48	80.53	8.11	-41.8	-43.2	19.9	0.00e+00	0	40	0	148897792	58	5892
2026-01-25 21:36:29.49	80.43	8.18	-41.6	-43.0	20.1	0.00e+00	0	40	0	149946368	56	6428
2026-01-25 21:36:30.50	80.32	8.24	-41.7	-43.1	20.1	0.00e+00	0	40	0	152043520	56	6497
2026-01-25 21:36:31.51	80.21	8.31	-41.7	-43.1	20.1	0.00e+00	0	40	0	154140672	56	6475
2026-01-25 21:36:32.52	80.10	8.37	-41.9	-43.3	20.0	0.00e+00	0	40	0	156237824	56	6626
2026-01-25 21:36:33.53	79.99	8.43	-41.5	-42.9	20.3	0.00e+00	0	40	0	158334976	56	6320
2026-01-25 21:36:34.54	79.88	8.50	-41.5	-42.9	20.4	0.00e+00	0	40	0	159383552	56	6319
2026-01-25 21:36:35.55	79.77	8.56	-41.4	-42.7	20.5	0.00e+00	0	40	0	161480704	56	6203
2026-01-25 21:36:36.56	79.66	8.62	-41.7	-43.0	20.3	0.00e+00	0	40	0	163577856	56	6426
2026-01-25 21:36:37.57	79.55	8.69	-41.5	-42.8	20.6	0.00e+00	0	40	0	165675008	56	6279
2026-01-25 21:36:38.57	79.44	8.75	-41.6	-42.9	20.4	0.00e+00	0	40	0	167772160	56	6355
2026-01-25 21:36:39.59	79.33	8.82	-42.0	-43.5	19.8	0.00e+00	0	40	0	168820736	56	6798
2026-01-25 21:36:40.59	79.22	8.88	-41.7	-43.1	20.2	0.00e+00	0	40	0	170917888	56	6473
2026-01-25 21:36:41.61	79.11	8.94	-41.6	-43.0	20.1	0.00e+00	0	40	0	173015040	56	6420
2026-01-25 21:36:42.62	78.99	9.01	-41.8	-43.2	19.8	0.00e+00	0	40	0	175112192	56	6573
2026-01-25 21:36:43.63	78.88	9.07	-41.6	-43.0	20.2	0.00e+00	0	40	0	177209344	56	6435
2026-01-25 21:36:44.63	78.76	9.14	-41.8	-43.3	20.0	0.00e+00	0	40	0	178257920	56	6628
2026-01-25 21:36:45.64	78.65	9.20	-41.9	-43.4	19.9	0.00e+00	0	40	0	180355072	56	6726
2026-01-25 21:36:46.65	78.53	9.27	-41.7	-43.2	20.2	0.00e+00	0	40	0	182452224	56	6548
2026-01-25 21:36:47.66	78.42	9.33	-42.0	-43.5	19.9	0.00e+00	0	40	0	184549376	56	6841
2026-01-25 21:36:48.67	78.30	9.40	-42.1	-43.6	19.8	0.00e+00	0	40	0	186646528	56	6909
2026-01-25 21:36:49.64	78.19	9.46	-42.2	-43.8	19.6	0.00e+00	0	40	0	187695104	56	7032
2026-01-25 21:36:50.65	78.07	9.52	-42.1	-43.5	19.8	0.00e+00	0	40	0	189792256	56	6832
2026-01-25 21:36:51.66	77.95	9.59	-42.0	-43.4	20.0	0.00e+00	0	40	0	191889408	56	6726
2026-01-25 21:36:52.67	77.84	9.65	-41.4	-42.7	20.5	0.00e+00	0	40	0	193986560	56	6233
2026-01-25 21:36:53.68	77.72	9.72	-41.5	-42.8	20.6	0.00e+00	0	40	0	196083712	56	6282
2026-01-25 21:36:54.69	77.60	9.78	-41.4	-42.7	20.6	0.00e+00	0	40	0	197132288	56	6182
2026-01-25 21:36:55.70	77.48	9.85	-41.4	-42.7	20.6	0.00e+00	0	40	0	199229440	56	6189
2026-01-25 21:36:56.71	77.36	9.91	-41.2	-42.4	20.8	0.00e+00	0	40	0	201326592	56	6031
2026-01-25 21:36:57.72	77.23	9.98	-41.3	-42.6	20.9	0.00e+00	0	40	0	203423744	56	6161
2026-01-25 21:36:58.73	77.11	10.04	-41.3	-42.6	20.8	0.00e+00	0	40	0	205520896	56	6137
2026-01-25 21:36:59.74	76.99	10.11	-41.0	-42.2	21.0	0.00e+00	0	40	0	206569472	56	5874
2026-01-25 21:37:00.75	76.87	10.17	-41.0	-42.2	21.1	0.00e+00	0	40	0	208666624	56	5893
2026-01-25 21:37:01.76	76.74	10.24	-41.3	-42.6	20.8	0.00e+00	0	40	0	210763776	56	6111
2026-01-25 21:37:02.77	76.62	10.30	-41.0	-42.3	21.1	0.00e+00	0	40	0	212860928	56	5897
2026-01-25 21:37:03.78	76.50	10.37	-40.8	-42.0	21.3	0.00e+00	0	40	0	214958080	56	5740
2026-01-25 21:37:04.79	76.37	10.43	-40.6	-41.7	21.5	0.00e+00	0	40	0	217055232	54	6227
2026-01-25 21:37:05.80	76.24	10.50	-40.6	-41.7	21.4	0.00e+00	0	40	0	218103808	54	6219
2026-01-25 21:37:06.81	76.12	10.56	-40.7	-41.9	21.2	0.00e+00	0	40	0	220200960	54	6359
2026-01-25 21:37:07.82	75.99	10.63	-41.0	-42.2	21.1	0.00e+00	0	40	0	222298112	54	6588
2026-01-25 21:37:08.83	75.86	10.69	-41.2	-42.4	20.7	0.00e+00	0	40	0	224395264	54	6767
2026-01-25 21:37:09.84	75.73	10.76	-41.1	-42.3	20.8	0.00e+00	0	40	0	226492416	54	6682
2026-01-25 21:37:10.85	75.61	10.83	-41.0	-42.2	21.0	0.00e+00	0	40	0	227540992	54	6594
2026-01-25 21:37:11.86	75.48	10.89	-41.1	-42.3	21.0	0.00e+00	0	40	0	229638144	54	6655
2026-01-25 21:37:12.87	75.35	10.96	-40.9	-42.1	21.0	0.00e+00	0	40	0	231735296	54	6517
2026-01-25 21:37:13.88	75.22	11.02	-41.0	-42.2	21.1	0.00e+00	0	40	0	233832448	54	6578
2026-01-25 21:37:14.89	75.09	11.09	-41.1	-42.3	21.0	0.00e+00	0	40	0	235929600	54	6659
2026-01-25 21:37:15.90	74.95	11.15	-41.2	-42.4	20.9	0.00e+00	0	40	0	236978176	54	6756
2026-01-25 21:37:16.91	74.82	11.22	-41.7	-43.1	20.2	0.00e+00	0	40	0	239075328	54	7258
2026-01-25 21:37:17.92	74.69	11.28	-41.6	-43.0	20.3	0.00e+00	0	40	0	241172480	54	7201
2026-01-25 21:37:18.93	74.56	11.35	-41.4	-42.7	20.5	0.00e+00	0	40	0	243269632	54	6987
2026-01-25 21:37:19.94	74.42	11.42	-41.5	-42.9	20.4	0.00e+00	0	40	0	245366784	54	7105
2026-01-25 21:37:20.95	74.29	11.48	-41.4	-42.7	20.6	0.00e+00	0	40	0	246415360	54	6956
2026-01-25 21:37:21.96	74.15	11.55	-41.2	-42.4	20.8	0.00e+00	0	40	0	248512512	54	6760
2026-01-25 21:37:22.97	74.02	11.61	-41.1	-42.3	21.0	0.00e+00	0	40	0	250609664	54	6677
2026-01-25 21:37:23.98	73.88	11.68	-40.9	-42.1	21.1	0.00e+00	0	40	0	252706816	54	6514
2026-01-25 21:37:24.99	73.74	11.75	-41.1	-42.4	20.9	0.00e+00	0	40	0	254803968	54	6714
2026-01-25 21:37:26.00	73.60	11.81	-41.2	-42.5	20.9	0.00e+00	0	40	0	255852544	54	6781
2026-01-25 21:37:27.01	73.47	11.88	-41.1	-42.3	21.0	0.00e+00	0	40	0	257949696	54	6682
2026-01-25 21:37:28.02	73.33	11.94	-41.0	-42.2	21.0	0.00e+00	0	40	0	260046848	54	6595
2026-01-25 21:37:29.02	73.19	12.01	-40.9	-42.1	21.2	0.00e+00	0	40	0	262144000	54	6467
2026-01-25 21:37:30.03	73.05	12.07	-40.8	-42.0	21.3	0.00e+00	0	40	0	264241152	54	6420
2026-01-25 21:37:31.04	72.91	12.14	-40.9	-42.1	21.2	0.00e+00	0	40	0	265289728	54	6486
2026-01-25 21:37:32.05	72.76	12.21	-40.8	-42.0	21.0	0.00e+00	0	40	0	267386880	54	6429
2026-01-25 21:37:33.06	72.62	12.27	-40.9	-42.1	21.3	0.00e+00	0	40	0	269484032	54	6472
2026-01-25 21:37:34.07	72.48	12.34	-40.9	-42.0	21.1	0.00e+00	0	40	0	271581184	54	6452
2026-01-25 21:37:35.08	72.34	12.40	-41.0	-42.3	21.0	0.00e+00	0	40	0	273678336	54	6622
2026-01-25 21:37:36.09	72.19	12.47	-40.7	-41.9	21.4	0.00e+00	0	40	0	274726912	54	6339
2026-01-25 21:37:37.10	72.05	12.54	-40.7	-41.9	21.3	0.00e+00	0	40	0	276824064	54	6380
2026-01-25 21:37:38.10	71.90	12.60	-40.7	-41.9	21.4	0.00e+00	0	40	0	278921216	54	6334
2026-01-25 21:37:39.11	71.76	12.67	-40.6	-41.8	21.4	0.00e+00	0	40	0	281018368	54	6279
2026-01-25 21:37:40.12	71.61	12.73	-40.7	-42.0	21.4	0.00e+00	0	40	0	283115520	54	6421
2026-01-25 21:37:41.13	71.46	12.80	-40.8	-42.1	21.3	0.00e+00	0	40	0	285212672	54	6508
2026-01-25 21:37:42.14	71.31	12.86	-40.9	-42.2	21.1	0.00e+00	0	40	0	286261248	54	6547
2026-01-25 21:37:43.15	71.16	12.93	-40.8	-42.0	21.4	0.00e+00	0	40	0	288358400	54	6438
2026-01-25 21:37:44.16	71.02	13.00	-40.8	-42.1	21.2	0.00e+00	0	40	0	290455552	54	6477
2026-01-25 21:37:45.17	70.86	13.06	-40.8	-42.0	21.3	0.00e+00	0	40	0	292552704	54	6423
2026-01-25 21:37:46.18	70.71	13.13	-41.0	-42.3	20.8	0.00e+00	0	40	0	293601280	54	6665
2026-01-25 21:37:47.19	70.56	13.19	-40.9	-42.1	21.2	0.00e+00	0	40	0	295698432	54	6497
2026-01-25 21:37:48.20	70.41	13.26	-40.8	-42.0	21.3	0.00e+00	0	40	0	297795584	54	6445
2026-01-25 21:37:49.21	70.26	13.33	-40.7	-41.9	21.4	0.00e+00	0	40	0	299892736	54	6360
2026-01-25 21:37:50.21	70.10	13.39	-40.7	-41.8	21.5	0.00e+00	0	40	0	301989888	54	6317
2026-01-25 21:37:51.22	69.95	13.46	-40.7	-41.9	21.5	0.00e+00	0	40	0	303038464	54	6332
2026-01-25 21:37:52.23	69.80	13.52	-40.8	-41.9	21.4	0.00e+00	0	40	0	305135616	54	6377
2026-01-25 21:37:53.24	69.64	13.59	-40.9	-42.1	21.2	0.00e+00	0	40	0	307232768	54	6520
2026-01-25 21:37:54.25	69.48	13.65	-41.1	-42.4	21.0	0.00e+00	0	40	0	309329920	54	6706
2026-01-25 21:37:55.26	69.33	13.72	-40.8	-42.0	21.3	0.00e+00	0	40	0	311427072	54	6459
2026-01-25 21:37:56.27	69.17	13.78	-41.0	-42.3	21.0	0.00e+00	0	40	0	313524224	54	6637
2026-01-25 21:37:57.28	69.01	13.85	-40.9	-42.2	21.2	0.00e+00	0	40	0	314572800	54	6578
2026-01-25 21:37:58.29	68.85	13.92	-41.1	-42.4	21.0	0.00e+00	0	40	0	316669952	54	6717
2026-01-25 21:37:59.29	68.69	13.98	-41.0	-42.3	21.0	0.00e+00	0	40	0	318767104	54	6658
2026-01-25 21:38:00.30	68.53	14.05	-41.3	-42.6	20.9	0.00e+00	0	40	0	320864256	54	6888
2026-01-25 21:38:01.31	68.37	14.11	-41.2	-42.5	20.9	0.00e+00	0	40	0	322961408	54	6815
2026-01-25 21:38:02.32	68.21	14.18	-41.2	-42.5	20.9	0.00e+00	0	40	0	324009984	54	6816
2026-01-25 21:38:03.33	68.04	14.24	-41.3	-42.6	20.8	0.00e+00	0	40	0	326107136	54	6863
2026-01-25 21:38:04.34	67.88	14.31	-41.2	-42.5	20.9	0.00e+00	0	40	0	328204288	54	6812
2026-01-25 21:38:05.35	67.72	14.37	-40.7	-42.0	21.3	0.00e+00	0	40	0	330301440	54	6399
2026-01-25 21:38:06.36	67.55	14.44	-40.8	-42.0	21.3	0.00e+00	0	40	0	332398592	54	6457
2026-01-25 21:38:07.37	67.39	14.50	-41.0	-42.3	21.0	0.00e+00	0	40	0	333447168	54	6647
2026-01-25 21:38:08.38	67.22	14.57	-41.0	-42.2	21.1	0.00e+00	0	40	0	335544320	54	6606
2026-01-25 21:38:09.39	67.05	14.63	-40.7	-42.0	21.4	0.00e+00	0	40	0	337641472	54	6404
2026-01-25 21:38:10.40	66.88	14.70	-40.7	-41.9	21.4	0.00e+00	0	40	0	339738624	54	6383
2026-01-25 21:38:11.41	66.71	14.76	-41.0	-42.3	21.1	0.00e+00	0	40	0	341835776	54	6661
2026-01-25 21:38:12.41	66.55	14.82	-41.2	-42.5	21.0	0.00e+00	0	40	0	342884352	54	6800
2026-01-25 21:38:13.42	66.38	14.89	-40.8	-42.0	21.3	0.00e+00	0	40	0	344981504	54	6427
2026-01-25 21:38:14.43	66.21	14.95	-41.0	-42.3	21.1	0.00e+00	0	40	0	347078656	54	6664
2026-01-25 21:38:15.45	66.03	15.02	-41.0	-42.3	21.2	0.00e+00	0	40	0	349175808	54	6639
2026-01-25 21:38:16.46	65.86	15.08	-41.2	-42.5	21.0	0.00e+00	0	40	0	351272960	54	6792
2026-01-25 21:38:17.47	65.69	15.15	-41.1	-42.5	20.9	0.00e+00	0	40	0	352321536	54	6783
2026-01-25 21:38:18.48	65.51	15.21	-41.4	-42.8	20.7	0.00e+00	0	40	0	354418688	54	7016
2026-01-25 21:38:19.48	65.34	15.27	-41.3	-42.7	20.9	0.00e+00	0	40	0	356515840	54	6939
2026-01-25 21:38:20.49	65.16	15.34	-41.1	-42.4	21.1	0.00e+00	0	40	0	358612992	54	6707
2026-01-25 21:38:21.50	64.99	15.40	-40.9	-42.1	21.2	0.00e+00	0	40	0	360710144	54	6487
2026-01-25 21:38:22.51	64.81	15.47	-40.8	-42.0	21.4	0.00e+00	0	40	0	361758720	54	6403
2026-01-25 21:38:23.52	64.63	15.53	-40.6	-41.8	21.4	0.00e+00	0	40	0	363855872	54	6261
2026-01-25 21:38:24.53	64.45	15.59	-40.6	-41.7	21.6	0.00e+00	0	40	0	365953024	54	6236
2026-01-25 21:38:25.54	64.27	15.66	-40.3	-41.4	21.9	0.00e+00	0	40	0	368050176	54	5993
2026-01-25 21:38:26.55	64.09	15.72	-40.4	-41.6	21.8	0.00e+00	0	40	0	370147328	54	6109
2026-01-25 21:38:27.56	63.91	15.78	-40.0	-41.1	22.1	0.00e+00	0	40	0	371195904	54	5778
2026-01-25 21:38:28.57	63.73	15.84	-39.9	-41.0	22.3	0.00e+00	0	40	0	373293056	52	6404
2026-01-25 21:38:29.58	63.55	15.91	-39.8	-40.9	22.3	0.00e+00	0	40	0	375390208	52	6339
2026-01-25 21:38:30.59	63.37	15.97	-39.9	-41.0	22.4	0.00e+00	0	40	0	377487360	52	6395
2026-01-25 21:38:31.60	63.18	16.03	-40.1	-41.2	22.1	0.00e+00	0	40	0	379584512	52	6577
2026-01-25 21:38:32.61	63.00	16.09	-39.8	-40.8	22.4	0.00e+00	0	40	0	381681664	52	6314
2026-01-25 21:38:33.62	62.81	16.16	-39.7	-40.8	22.4	0.00e+00	0	40	0	382730240	52	6253
2026-01-25 21:38:34.63	62.63	16.22	-39.9	-40.9	22.4	0.00e+00	0	40	0	384827392	52	6348
2026-01-25 21:38:35.64	62.44	16.28	-39.7	-40.7	22.5	0.00e+00	0	40	0	386924544	52	6224
2026-01-25 21:38:36.65	62.25	16.34	-39.8	-40.8	22.4	0.00e+00	0	40	0	389021696	52	6301
2026-01-25 21:38:37.66	62.06	16.40	-39.8	-40.8	22.3	0.00e+00	0	40	0	391118848	52	6267
2026-01-25 21:38:38.67	61.87	16.47	-39.8	-40.8	22.5	0.00e+00	0	40	0	392167424	52	6279
2026-01-25 21:38:39.68	61.68	16.53	-39.5	-40.5	22.7	0.00e+00	0	40	0	394264576	52	6075
2026-01-25 21:38:40.69	61.49	16.59	-39.4	-40.4	22.8	0.00e+00	0	40	0	396361728	52	5985
2026-01-25 21:38:41.70	61.30	16.65	-39.3	-40.3	23.0	0.00e+00	0	40	0	398458880	52	5922
2026-01-25 21:38:42.71	61.11	16.71	-39.2	-40.2	23.0	0.00e+00	0	40	0	400556032	52	5830
2026-01-25 21:38:43.72	60.91	16.77	-39.1	-40.1	22.9	0.00e+00	0	40	0	401604608	52	5776
2026-01-25 21:38:44.73	60.72	16.83	-39.1	-40.1	22.9	0.00e+00	0	40	0	403701760	52	5773
2026-01-25 21:38:45.74	60.52	16.89	-39.0	-40.0	23.2	0.00e+00	0	40	0	405798912	52	5715
2026-01-25 21:38:46.75	60.33	16.95	-38.9	-39.9	23.3	0.00e+00	0	40	0	407896064	52	5654
2026-01-25 21:38:47.76	60.13	17.01	-39.0	-39.9	23.2	0.00e+00	0	40	0	409993216	52	5689
2026-01-25 21:38:48.77	59.93	17.07	-39.3	-40.2	23.0	0.00e+00	0	40	0	411041792	52	5887
2026-01-25 21:38:49.78	59.74	17.13	-39.0	-39.9	23.2	0.00e+00	0	40	0	413138944	52	5691
2026-01-25 21:38:50.79	59.54	17.19	-39.1	-40.0	23.2	0.00e+00	0	40	0	415236096	52	5760
2026-01-25 21:38:51.79	59.34	17.25	-38.9	-39.8	23.1	0.00e+00	0	40	0	417333248	50	6315
2026-01-25 21:38:52.80	59.14	17.31	-38.7	-39.6	23.3	0.00e+00	0	40	0	419430400	50	6122
2026-01-25 21:38:53.81	58.94	17.36	-38.5	-39.5	23.5	0.00e+00	0	40	0	420478976	50	6038
2026-01-25 21:38:54.82	58.74	17.42	-38.7	-39.6	23.5	0.00e+00	0	40	0	422576128	50	6122
2026-01-25 21:38:55.83	58.53	17.48	-38.7	-39.7	23.3	0.00e+00	0	40	0	424673280	50	6180
2026-01-25 21:38:56.84	58.33	17.54	-38.9	-39.8	23.2	0.00e+00	0	40	0	426770432	50	6300
2026-01-25 21:38:57.85	58.13	17.60	-38.8	-39.7	23.1	0.00e+00	0	40	0	428867584	50	6243
2026-01-25 21:38:58.86	57.92	17.65	-38.6	-39.5	23.4	0.00e+00	0	40	0	429916160	50	6087
2026-01-25 21:38:59.87	57.71	17.71	-38.8	-39.7	23.3	0.00e+00	0	40	0	432013312	50	6220
2026-01-25 21:39:00.88	57.51	17.77	-39.0	-40.0	23.2	0.00e+00	0	40	0	434110464	50	6405
2026-01-25 21:39:01.89	57.30	17.82	-39.2	-40.1	23.0	0.00e+00	0	40	0	436207616	50	6524
2026-01-25 21:39:02.90	57.09	17.88	-39.4	-40.4	22.7	0.00e+00	0	40	0	438304768	50	6725
2026-01-25 21:39:03.91	56.88	17.94	-39.5	-40.6	22.7	0.00e+00	0	40	0	439353344	50	6852
2026-01-25 21:39:04.92	56.67	17.99	-39.3	-40.3	22.9	0.00e+00	0	40	0	441450496	50	6616
2026-01-25 21:39:05.93	56.46	18.05	-39.3	-40.3	22.9	0.00e+00	0	40	0	443547648	50	6664
2026-01-25 21:39:06.94	56.25	18.10	-39.2	-40.2	23.0	0.00e+00	0	40	0	445644800	50	6595
2026-01-25 21:39:07.95	56.04	18.16	-39.2	-40.1	23.0	0.00e+00	0	40	0	447741952	50	6524
2026-01-25 21:39:08.96	55.83	18.21	-38.9	-39.8	23.3	0.00e+00	0	40	0	449839104	50	6297
2026-01-25 21:39:09.97	55.61	18.27	-38.7	-39.6	23.3	0.00e+00	0	40	0	450887680	50	6138
2026-01-25 21:39:10.98	55.40	18.32	-38.7	-39.6	23.1	0.00e+00	0	40	0	452984832	50	6126
2026-01-25 21:39:11.99	55.18	18.37	-38.7	-39.6	23.4	0.00e+00	0	40	0	455081984	50	6135
2026-01-25 21:39:13.00	54.97	18.43	-38.7	-39.6	23.5	0.00e+00	0	40	0	457179136	50	6151
2026-01-25 21:39:14.01	54.75	18.48	-38.7	-39.6	23.4	0.00e+00	0	40	0	459276288	50	6116
2026-01-25 21:39:15.02	54.53	18.53	-38.6	-39.5	23.5	0.00e+00	0	40	0	460324864	50	6076
2026-01-25 21:39:16.03	54.31	18.59	-38.4	-39.3	23.7	0.00e+00	0	40	0	462422016	50	5931
2026-01-25 21:39:17.04	54.09	18.64	-37.8	-38.7	24.1	0.00e+00	0	40	0	464519168	50	5505
2026-01-25 21:39:18.04	53.88	18.69	-37.7	-38.5	24.3	0.00e+00	0	40	0	466616320	48	6071
2026-01-25 21:39:19.06	53.65	18.74	-37.7	-38.5	24.4	0.00e+00	0	40	0	468713472	48	6050
2026-01-25 21:39:20.06	53.43	18.79	-37.7	-38.5	24.3	0.00e+00	0	40	0	469762048	48	6063
2026-01-25 21:39:21.07	53.21	18.84	-37.7	-38.5	24.3	0.00e+00	0	40	0	471859200	48	6064
2026-01-25 21:39:22.08	52.99	18.89	-37.6	-38.4	24.4	0.00e+00	0	40	0	473956352	48	5993
2026-01-25 21:39:23.09	52.77	18.94	-37.5	-38.3	24.3	0.00e+00	0	40	0	476053504	48	5908
2026-01-25 21:39:24.10	52.54	18.99	-37.6	-38.4	24.3	0.00e+00	0	40	0	478150656	48	6030
2026-01-25 21:39:25.11	52.32	19.04	-37.9	-38.8	24.1	0.00e+00	0	40	0	479199232	48	6253
2026-01-25 21:39:26.11	52.09	19.09	-38.1	-39.0	23.9	0.00e+00	0	40	0	481296384	48	6430
2026-01-25 21:39:27.12	51.87	19.14	-38.2	-39.1	23.8	0.00e+00	0	40	0	483393536	48	6482
2026-01-25 21:39:28.14	51.64	19.19	-38.4	-39.3	23.6	0.00e+00	0	40	0	485490688	48	6670
2026-01-25 21:39:29.15	51.41	19.24	-38.2	-39.1	23.8	0.00e+00	0	40	0	487587840	48	6508
2026-01-25 21:39:30.16	51.18	19.28	-38.4	-39.2	23.7	0.00e+00	0	40	0	488636416	48	6604
2026-01-25 21:39:31.17	50.95	19.33	-38.3	-39.2	23.8	0.00e+00	0	40	0	490733568	48	6585
2026-01-25 21:39:32.17	50.72	19.38	-38.5	-39.4	23.6	0.00e+00	0	40	0	492830720	48	6702
2026-01-25 21:39:33.18	50.49	19.42	-38.4	-39.3	23.8	0.00e+00	0	40	0	494927872	48	6620
2026-01-25 21:39:34.19	50.26	19.47	-38.4	-39.3	23.6	0.00e+00	0	40	0	497025024	48	6686
2026-01-25 21:39:35.21	50.03	19.52	-38.3	-39.2	23.6	0.00e+00	0	40	0	498073600	48	6543
2026-01-25 21:39:36.22	49.79	19.56	-38.5	-39.4	23.5	0.00e+00	0	40	0	500170752	48	6728
2026-01-25 21:39:37.22	49.56	19.60	-38.3	-39.1	23.7	0.00e+00	0	40	0	502267904	48	6537
2026-01-25 21:39:38.23	49.33	19.65	-38.4	-39.3	23.5	0.00e+00	0	40	0	504365056	48	6678
2026-01-25 21:39:39.24	49.09	19.69	-38.0	-38.8	24.1	0.00e+00	0	40	0	506462208	48	6307
2026-01-25 21:39:40.25	48.86	19.74	-37.9	-38.7	24.1	0.00e+00	0	40	0	507510784	48	6230
2026-01-25 21:39:41.26	48.62	19.78	-37.9	-38.7	24.1	0.00e+00	0	40	0	509607936	48	6222
2026-01-25 21:39:42.27	48.38	19.82	-37.8	-38.7	24.1	0.00e+00	0	40	0	511705088	48	6176
2026-01-25 21:39:43.28	48.15	19.86	-37.8	-38.7	24.2	0.00e+00	0	40	0	513802240	48	6192
2026-01-25 21:39:44.29	47.91	19.91	-37.7	-38.6	24.3	0.00e+00	0	40	0	515899392	48	6113
2026-01-25 21:39:45.30	47.67	19.95	-37.5	-38.3	24.3	0.00e+00	0	40	0	517996544	48	5923
2026-01-25 21:39:46.31	47.43	19.99	-37.5	-38.3	24.5	0.00e+00	0	40	0	519045120	48	5950
2026-01-25 21:39:47.32	47.19	20.03	-37.6	-38.4	24.3	0.00e+00	0	40	0	521142272	48	5985
2026-01-25 21:39:48.33	46.95	20.07	-38.0	-38.8	24.0	0.00e+00	0	40	0	523239424	48	6308
2026-01-25 21:39:49.33	46.71	20.11	-38.1	-39.0	23.9	0.00e+00	0	40	0	525336576	48	6411
2026-01-25 21:39:50.34	46.47	20.15	-38.2	-39.1	23.9	0.00e+00	0	40	0	527433728	48	6492
2026-01-25 21:39:51.35	46.23	20.18	-37.6	-38.4	24.4	0.00e+00	0	40	0	528482304	48	5997
2026-01-25 21:39:52.36	45.98	20.22	-37.7	-38.5	24.3	0.00e+00	0	40	0	530579456	48	6096
2026-01-25 21:39:53.37	45.74	20.26	-37.9	-38.7	24.1	0.00e+00	0	40	0	532676608	48	6203
2026-01-25 21:39:54.38	45.49	20.30	-38.1	-39.0	23.9	0.00e+00	0	40	0	534773760	48	6407
2026-01-25 21:39:55.39	45.25	20.33	-38.2	-39.0	23.9	0.00e+00	0	40	0	536870912	48	6457
2026-01-25 21:39:56.40	45.00	20.37	-38.3	-39.2	23.8	0.00e+00	0	40	0	537919488	48	6588
2026-01-25 21:39:57.41	44.76	20.40	-38.5	-39.4	23.6	0.00e+00	0	40	0	540016640	48	6726
2026-01-25 21:39:58.42	44.51	20.44	-38.5	-39.4	23.6	0.00e+00	0	40	0	542113792	48	6716
2026-01-25 21:39:59.42	44.27	20.47	-38.9	-39.8	23.4	0.00e+00	0	40	0	544210944	50	6307
2026-01-25 21:40:00.44	44.02	20.51	-39.0	-40.0	23.2	0.00e+00	0	40	0	546308096	50	6409
2026-01-25 21:40:01.45	43.77	20.54	-39.2	-40.1	23.1	0.00e+00	0	40	0	547356672	50	6522
2026-01-25 21:40:02.45	43.52	20.57	-39.2	-40.1	23.2	0.00e+00	0	40	0	549453824	50	6494
2026-01-25 21:40:03.47	43.27	20.61	-39.3	-40.3	23.0	0.00e+00	0	40	0	551550976	50	6641
2026-01-25 21:40:04.48	43.02	20.64	-39.5	-40.5	22.8	0.00e+00	0	40	0	553648128	50	6807
2026-01-25 21:40:05.49	42.77	20.67	-39.7	-40.7	22.6	0.00e+00	0	40	0	555745280	50	6976
2026-01-25 21:40:06.49	42.52	20.70	-39.8	-40.8	22.6	0.00e+00	0	40	0	556793856	52	6281
2026-01-25 21:40:07.50	42.27	20.73	-39.8	-40.8	22.7	0.00e+00	0	40	0	558891008	52	6312
2026-01-25 21:40:08.51	42.02	20.76	-39.8	-40.7	22.5	0.00e+00	0	40	0	560988160	52	6238
2026-01-25 21:40:09.52	41.76	20.79	-40.1	-41.1	22.2	0.00e+00	0	40	0	563085312	52	6469
2026-01-25 21:40:10.53	41.51	20.82	-39.7	-40.7	22.6	0.00e+00	0	40	0	565182464	52	6199
2026-01-25 21:40:11.54	41.26	20.85	-39.6	-40.6	22.8	0.00e+00	0	40	0	566231040	52	6108
2026-01-25 21:40:12.55	41.00	20.87	-39.4	-40.4	22.9	0.00e+00	0	40	0	568328192	52	5984
2026-01-25 21:40:13.56	40.75	20.90	-39.2	-40.1	23.1	0.00e+00	0	40	0	570425344	52	5821
2026-01-25 21:40:14.57	40.49	20.93	-39.4	-40.3	23.0	0.00e+00	0	40	0	572522496	52	5932
2026-01-25 21:40:15.58	40.24	20.95	-39.7	-40.7	22.8	0.00e+00	0	40	0	574619648	52	6177
2026-01-25 21:40:16.60	39.98	20.98	-39.9	-41.0	22.4	0.00e+00	0	40	0	575668224	52	6408
2026-01-25 21:40:17.60	39.73	21.00	-40.3	-41.4	22.1	0.00e+00	0	40	0	577765376	52	6733
2026-01-25 21:40:18.61	39.47	21.03	-40.4	-41.5	22.1	0.00e+00	0	40	0	579862528	52	6815
2026-01-25 21:40:19.62	39.21	21.05	-40.3	-41.4	22.1	1.50e-06	0	40	0	581959680	52	6767
2026-01-25 21:40:20.63	38.96	21.07	-40.4	-41.5	22.0	0.00e+00	0	40	0	584056832	52	6818
2026-01-25 21:40:21.64	38.70	21.09	-40.1	-41.2	22.4	0.00e+00	0	40	0	586153984	52	6547
2026-01-25 21:40:22.65	38.44	21.11	-39.9	-40.9	22.6	0.00e+00	0	40	0	587202560	52	6347
2026-01-25 21:40:23.66	38.18	21.14	-39.7	-40.7	22.6	0.00e+00	0	40	0	589299712	52	6220
2026-01-25 21:40:24.67	37.92	21.16	-39.7	-40.7	22.7	0.00e+00	0	40	0	591396864	52	6234
2026-01-25 21:40:25.68	37.66	21.18	-39.8	-40.8	22.6	0.00e+00	0	40	0	593494016	52	6268
2026-01-25 21:40:26.69	37.41	21.20	-39.8	-40.8	22.6	0.00e+00	0	40	0	595591168	52	6309
2026-01-25 21:40:27.70	37.15	21.21	-40.0	-41.0	22.3	0.00e+00	0	40	0	596639744	52	6457
2026-01-25 21:40:28.71	36.89	21.23	-40.0	-41.0	22.4	0.00e+00	0	40	0	598736896	52	6401
2026-01-25 21:40:29.71	36.63	21.25	-40.0	-41.0	22.5	0.00e+00	0	40	0	600834048	52	6425
2026-01-25 21:40:30.72	36.37	21.27	-39.5	-40.5	22.9	0.00e+00	0	40	0	602931200	52	6082
2026-01-25 21:40:31.73	36.11	21.28	-39.1	-40.0	23.3	0.00e+00	0	40	0	605028352	52	5728
2026-01-25 21:40:32.74	35.85	21.30	-39.1	-40.0	23.3	0.00e+00	0	40	0	606076928	52	5731
2026-01-25 21:40:33.75	35.58	21.31	-39.3	-40.3	23.0	0.00e+00	0	40	0	608174080	52	5906
2026-01-25 21:40:34.76	35.32	21.33	-39.7	-40.7	22.6	0.00e+00	0	40	0	610271232	52	6215
2026-01-25 21:40:35.77	35.06	21.34	-40.1	-41.1	22.3	0.00e+00	0	40	0	612368384	52	6514
2026-01-25 21:40:36.78	34.80	21.35	-40.2	-41.3	22.2	0.00e+00	0	40	0	614465536	52	6625
2026-01-25 21:40:37.79	34.54	21.37	-40.2	-41.3	22.1	0.00e+00	0	40	0	615514112	52	6656
2026-01-25 21:40:38.80	34.27	21.38	-40.3	-41.3	22.2	0.00e+00	0	40	0	617611264	52	6668
2026-01-25 21:40:39.81	34.01	21.39	-40.4	-41.5	22.0	0.00e+00	0	40	0	619708416	52	6816
2026-01-25 21:40:40.82	33.75	21.40	-40.8	-42.0	21.6	0.00e+00	0	40	0	621805568	54	6430
2026-01-25 21:40:41.83	33.49	21.41	-40.9	-42.1	21.5	0.00e+00	0	40	0	623902720	54	6492
2026-01-25 21:40:42.83	33.23	21.42	-40.8	-41.9	21.7	0.00e+00	0	40	0	624951296	54	6390
2026-01-25 21:40:43.84	32.96	21.43	-40.7	-41.9	21.7	0.00e+00	0	40	0	627048448	54	6324
2026-01-25 21:40:44.85	32.70	21.43	-40.2	-41.3	22.2	0.00e+00	0	40	0	629145600	54	5901
2026-01-25 21:40:45.86	32.43	21.44	-40.1	-41.2	22.3	0.00e+00	0	40	0	631242752	54	5844
2026-01-25 21:40:46.87	32.17	21.45	-40.1	-41.1	22.3	0.00e+00	0	40	0	633339904	54	5809
2026-01-25 21:40:47.88	31.91	21.45	-40.0	-41.0	22.5	0.00e+00	0	40	0	634388480	54	5760
2026-01-25 21:40:48.88	31.65	21.46	-39.8	-40.8	22.7	0.00e+00	0	40	0	636485632	54	5583
2026-01-25 21:40:49.89	31.38	21.46	-39.4	-40.4	22.9	0.00e+00	0	40	0	638582784	52	5974
2026-01-25 21:40:50.90	31.12	21.47	-39.4	-40.3	23.0	0.00e+00	0	40	0	640679936	52	5954
2026-01-25 21:40:51.91	30.85	21.47	-39.3	-40.2	23.1	0.00e+00	0	40	0	642777088	52	5857
2026-01-25 21:40:52.92	30.59	21.47	-39.2	-40.1	23.2	0.00e+00	0	40	0	643825664	52	5818
2026-01-25 21:40:53.93	30.33	21.48	-39.1	-40.0	23.3	0.00e+00	0	40	0	645922816	52	5724
2026-01-25 21:40:54.94	30.06	21.48	-38.8	-39.7	23.4	0.00e+00	0	40	0	648019968	52	5543
2026-01-25 21:40:55.95	29.80	21.48	-39.2	-40.1	23.3	0.00e+00	0	40	0	650117120	52	5787
2026-01-25 21:40:56.96	29.53	21.48	-39.0	-39.9	23.2	0.00e+00	0	40	0	652214272	52	5691
2026-01-25 21:40:57.97	29.27	21.48	-39.3	-40.2	23.0	0.00e+00	0	40	0	653262848	52	5873
2026-01-25 21:40:58.98	29.00	21.48	-39.6	-40.5	22.8	0.00e+00	0	40	0	655360000	52	6095
2026-01-25 21:40:59.99	28.74	21.47	-39.7	-40.7	22.5	0.00e+00	0	40	0	657457152	52	6223
2026-01-25 21:41:00.99	28.48	21.47	-39.9	-40.9	22.5	0.00e+00	0	40	0	659554304	52	6353
2026-01-25 21:41:02.00	28.22	21.47	-39.8	-40.9	22.5	0.00e+00	0	40	0	661651456	52	6338
2026-01-25 21:41:03.01	27.95	21.47	-40.0	-41.1	22.5	0.00e+00	0	40	0	662700032	52	6485
2026-01-25 21:41:04.02	27.69	21.46	-40.1	-41.1	22.2	0.00e+00	0	40	0	664797184	52	6522
2026-01-25 21:41:05.02	27.43	21.46	-39.7	-40.6	22.7	0.00e+00	0	40	0	666894336	52	6169
2026-01-25 21:41:06.03	27.16	21.45	-39.0	-39.9	23.3	0.00e+00	0	40	0	668991488	52	5679
2026-01-25 21:41:07.04	26.90	21.44	-38.7	-39.6	23.5	0.00e+00	0	40	0	671088640	52	5490
2026-01-25 21:41:08.05	26.63	21.44	-38.7	-39.6	23.6	0.00e+00	0	40	0	672137216	50	6125
2026-01-25 21:41:09.06	26.37	21.43	-38.7	-39.6	23.5	0.00e+00	0	40	0	674234368	50	6119
2026-01-25 21:41:10.07	26.11	21.42	-38.3	-39.2	23.7	0.00e+00	0	40	0	676331520	50	5850
2026-01-25 21:41:11.08	25.85	21.41	-38.5	-39.4	23.5	0.00e+00	0	40	0	678428672	50	5976
2026-01-25 21:41:12.09	25.58	21.40	-38.4	-39.3	23.8	0.00e+00	0	40	0	680525824	50	5919
2026-01-25 21:41:13.10	25.32	21.39	-38.5	-39.3	23.7	0.00e+00	0	40	0	682622976	50	5947
2026-01-25 21:41:14.12	25.05	21.38	-38.4	-39.3	23.9	0.00e+00	0	40	0	683671552	50	5906
2026-01-25 21:41:15.13	24.79	21.37	-38.0	-38.8	24.0	0.00e+00	0	40	0	685768704	50	5600
2026-01-25 21:41:16.14	24.53	21.36	-38.0	-38.9	24.0	0.00e+00	0	40	0	687865856	50	5638
2026-01-25 21:41:17.15	24.27	21.35	-38.2	-39.0	24.0	0.00e+00	0	40	0	689963008	50	5749
2026-01-25 21:41:18.16	24.01	21.33	-38.0	-38.9	23.9	0.00e+00	0	40	0	692060160	50	5653
2026-01-25 21:41:19.17	23.74	21.32	-38.2	-39.1	23.9	0.00e+00	0	40	0	693108736	50	5764
2026-01-25 21:41:20.17	23.49	21.30	-38.3	-39.1	23.7	0.00e+00	0	40	0	695205888	50	5821
2026-01-25 21:41:21.19	23.22	21.29	-38.1	-39.0	23.9	0.00e+00	0	40	0	697303040	50	5742
2026-01-25 21:41:22.19	22.96	21.27	-38.2	-39.1	23.8	0.00e+00	0	40	0	699400192	50	5812
2026-01-25 21:41:23.20	22.70	21.26	-38.0	-38.9	24.0	0.00e+00	0	40	0	701497344	50	5657
2026-01-25 21:41:24.21	22.44	21.24	-37.9	-38.8	24.1	0.00e+00	0	40	0	702545920	50	5570
2026-01-25 21:41:25.22	22.18	21.22	-38.0	-38.8	24.1	0.00e+00	0	40	0	704643072	48	6310
2026-01-25 21:41:26.23	21.92	21.20	-38.0	-38.9	24.0	0.00e+00	0	40	0	706740224	48	6341
2026-01-25 21:41:27.24	21.66	21.18	-38.2	-39.1	23.9	0.00e+00	0	40	0	708837376	48	6473
2026-01-25 21:41:28.25	21.41	21.16	-37.8	-38.6	23.9	0.00e+00	0	40	0	710934528	48	6141
2026-01-25 21:41:29.26	21.15	21.14	-37.9	-38.8	24.1	0.00e+00	0	40	0	711983104	48	6264
2026-01-25 21:41:30.27	20.89	21.12	-38.0	-38.9	24.0	0.00e+00	0	40	0	714080256	48	6338
2026-01-25 21:41:31.28	20.63	21.10	-37.9	-38.8	24.1	0.00e+00	0	40	0	716177408	48	6275
2026-01-25 21:41:32.29	20.37	21.08	-38.2	-39.1	23.8	0.00e+00	0	40	0	718274560	48	6511
2026-01-25 21:41:33.30	20.12	21.06	-38.6	-39.5	23.4	0.00e+00	0	40	0	720371712	48	6793
2026-01-25 21:41:34.31	19.86	21.04	-38.5	-39.4	23.6	0.00e+00	0	40	0	721420288	48	6739
2026-01-25 21:41:35.31	19.61	21.01	-38.6	-39.5	23.6	0.00e+00	0	40	0	723517440	50	6043
2026-01-25 21:41:36.32	19.35	20.99	-38.6	-39.5	23.5	0.00e+00	0	40	0	725614592	50	6038
2026-01-25 21:41:37.33	19.09	20.96	-38.5	-39.3	23.7	0.00e+00	0	40	0	727711744	50	5950
2026-01-25 21:41:38.34	18.84	20.94	-38.3	-39.2	23.6	0.00e+00	0	40	0	729808896	50	5838
2026-01-25 21:41:39.35	18.58	20.91	-38.0	-38.8	24.1	0.00e+00	0	40	0	730857472	50	5627
2026-01-25 21:41:40.36	18.33	20.88	-37.7	-38.5	24.2	0.00e+00	0	40	0	732954624	48	6080
2026-01-25 21:41:41.37	18.08	20.86	-37.5	-38.3	24.4	0.00e+00	0	40	0	735051776	48	5964
2026-01-25 21:41:42.38	17.82	20.83	-37.7	-38.6	24.3	0.00e+00	0	40	0	737148928	48	6128
2026-01-25 21:41:43.39	17.57	20.80	-37.9	-38.8	24.1	0.00e+00	0	40	0	739246080	48	6280
2026-01-25 21:41:44.40	17.32	20.77	-38.5	-39.4	23.6	0.00e+00	0	40	0	740294656	48	6698
2026-01-25 21:41:45.41	17.07	20.74	-38.6	-39.5	23.4	0.00e+00	0	40	0	742391808	48	6843
2026-01-25 21:41:46.42	16.81	20.71	-39.3	-40.2	23.1	0.00e+00	0	40	0	744488960	50	6614
2026-01-25 21:41:47.43	16.56	20.68	-39.1	-40.0	23.2	0.00e+00	0	40	0	746586112	50	6429
2026-01-25 21:41:48.44	16.31	20.65	-39.0	-40.0	23.1	0.00e+00	0	40	0	748683264	50	6398
2026-01-25 21:41:49.45	16.06	20.62	-38.8	-39.7	23.4	0.00e+00	0	40	0	750780416	50	6187
2026-01-25 21:41:50.46	15.81	20.59	-38.7	-39.6	23.6	0.00e+00	0	40	0	751828992	50	6136
2026-01-25 21:41:51.47	15.56	20.56	-38.8	-39.7	23.5	0.00e+00	0	40	0	753926144	50	6181
2026-01-25 21:41:52.47	15.32	20.52	-38.8	-39.7	23.4	0.00e+00	0	40	0	756023296	50	6189
2026-01-25 21:41:53.48	15.07	20.49	-38.8	-39.8	23.4	0.00e+00	0	40	0	758120448	50	6263
2026-01-25 21:41:54.49	14.82	20.46	-39.1	-40.0	23.1	0.00e+00	0	40	0	760217600	50	6450
2026-01-25 21:41:55.50	14.58	20.42	-39.4	-40.4	22.8	0.00e+00	0	40	0	761266176	50	6710
2026-01-25 21:41:56.52	14.33	20.39	-39.8	-40.8	22.5	0.00e+00	0	40	0	763363328	52	6290
2026-01-25 21:41:57.53	14.08	20.35	-40.5	-41.6	22.0	0.00e+00	0	40	0	765460480	52	6866
2026-01-25 21:41:58.54	13.84	20.31	-40.3	-41.4	22.0	0.00e+00	0	40	0	767557632	52	6709
2026-01-25 21:41:59.54	13.60	20.28	-40.3	-41.3	22.1	0.00e+00	0	40	0	769654784	52	6676
2026-01-25 21:42:00.55	13.35	20.24	-40.4	-41.4	22.0	0.00e+00	0	40	0	770703360	52	6767
2026-01-25 21:42:01.57	13.11	20.20	-40.3	-41.4	22.1	0.00e+00	0	40	0	772800512	52	6704
2026-01-25 21:42:02.58	12.86	20.16	-40.2	-41.2	22.3	0.00e+00	0	40	0	774897664	52	6591
2026-01-25 21:42:03.58	12.63	20.13	-40.2	-41.3	22.3	0.00e+00	0	40	0	776994816	52	6652
2026-01-25 21:42:04.60	12.38	20.09	-39.9	-40.9	22.5	0.00e+00	0	40	0	779091968	52	6386
2026-01-25 21:42:05.61	12.14	20.05	-39.8	-40.8	22.6	0.00e+00	0	40	0	780140544	52	6252
2026-01-25 21:42:06.61	11.90	20.01	-39.4	-40.3	22.9	0.00e+00	0	40	0	782237696	52	5952
2026-01-25 21:42:07.62	11.66	19.97	-39.6	-40.5	22.9	0.00e+00	0	40	0	784334848	52	6081
2026-01-25 21:42:08.63	11.43	19.92	-39.4	-40.4	22.9	0.00e+00	0	40	0	786432000	52	5982
2026-01-25 21:42:09.64	11.19	19.88	-39.5	-40.5	22.8	0.00e+00	0	40	0	788529152	52	6070
2026-01-25 21:42:10.65	10.95	19.84	-39.8	-40.9	22.5	0.00e+00	0	40	0	789577728	52	6326
2026-01-25 21:42:11.66	10.71	19.80	-39.9	-41.0	22.5	0.00e+00	0	40	0	791674880	52	6398
2026-01-25 21:42:12.67	10.48	19.76	-40.0	-41.0	22.3	0.00e+00	0	40	0	793772032	52	6417
2026-01-25 21:42:13.68	10.24	19.71	-39.7	-40.7	22.7	0.00e+00	0	40	0	795869184	52	6222
2026-01-25 21:42:14.69	10.01	19.67	-39.3	-40.2	23.1	0.00e+00	0	40	0	797966336	52	5868
2026-01-25 21:42:15.70	9.77	19.63	-39.0	-39.9	23.2	0.00e+00	0	40	0	799014912	52	5664
2026-01-25 21:42:16.71	9.54	19.58	-39.0	-39.9	23.3	0.00e+00	0	40	0	801112064	52	5634
2026-01-25 21:42:17.72	9.31	19.54	-38.9	-39.8	23.3	0.00e+00	0	40	0	803209216	52	5599
2026-01-25 21:42:18.73	9.07	19.49	-38.6	-39.5	23.6	0.00e+00	0	40	0	805306368	50	6044
2026-01-25 21:42:19.74	8.84	19.45	-38.6	-39.5	23.6	0.00e+00	0	40	0	807403520	50	6042
2026-01-25 21:42:20.75	8.61	19.40	-38.3	-39.1	23.8	0.00e+00	0	40	0	808452096	50	5799
2026-01-25 21:42:21.76	8.38	19.35	-38.3	-39.1	23.6	0.00e+00	0	40	0	810549248	50	5823
2026-01-25 21:42:22.77	8.15	19.31	-38.3	-39.2	23.4	0.00e+00	0	40	0	812646400	50	5858
2026-01-25 21:42:23.77	7.93	19.26	-38.8	-39.7	23.4	7.00e-07	0	40	0	814743552	50	6190
2026-01-25 21:42:24.78	7.70	19.21	-38.7	-39.6	23.4	0.00e+00	0	40	0	816840704	50	6171
2026-01-25 21:42:25.79	7.47	19.16	-39.2	-40.1	22.9	0.00e+00	0	40	0	818937856	50	6511
2026-01-25 21:42:26.80	7.25	19.11	-39.5	-40.5	22.6	0.00e+00	0	40	0	819986432	50	6836
2026-01-25 21:42:27.81	7.02	19.07	-40.0	-41.1	22.2	0.00e+00	0	40	0	822083584	52	6501
2026-01-25 21:42:28.82	6.80	19.02	-40.6	-41.7	21.8	0.00e+00	0	40	0	824180736	52	6979
2026-01-25 21:42:29.83	6.57	18.97	-40.7	-41.9	21.7	0.00e+00	0	40	0	826277888	52	7124
2026-01-25 21:42:30.84	6.35	18.92	-40.8	-41.9	21.6	0.00e+00	0	40	0	828375040	54	6383
2026-01-25 21:42:31.85	6.13	18.87	-40.3	-41.4	22.0	0.00e+00	0	40	0	829423616	54	6008
2026-01-25 21:42:32.87	5.90	18.82	-40.3	-41.3	22.1	0.00e+00	0	40	0	831520768	54	5964
2026-01-25 21:42:33.87	5.68	18.77	-40.2	-41.3	22.0	0.00e+00	0	40	0	833617920	54	5917
2026-01-25 21:42:34.88	5.46	18.71	-40.5	-41.6	21.7	0.00e+00	0	40	0	835715072	54	6140
2026-01-25 21:42:35.90	5.24	18.66	-40.9	-42.1	21.4	0.00e+00	0	40	0	837812224	54	6475
2026-01-25 21:42:36.91	5.02	18.61	-41.7	-43.1	20.5	0.00e+00	0	40	0	838860800	54	7272
2026-01-25 21:42:37.92	4.80	18.56	-42.0	-43.4	20.2	0.00e+00	0	40	0	840957952	56	6707
2026-01-25 21:42:38.93	4.59	18.51	-42.2	-43.6	20.1	0.00e+00	0	40	0	843055104	56	6927
2026-01-25 21:42:39.94	4.37	18.45	-41.9	-43.3	20.6	0.00e+00	0	40	0	845152256	56	6662
2026-01-25 21:42:40.95	4.15	18.40	-41.8	-43.2	20.6	0.00e+00	0	40	0	847249408	56	6552
2026-01-25 21:42:41.96	3.94	18.35	-41.6	-43.0	20.8	0.00e+00	0	40	0	848297984	56	6392
2026-01-25 21:42:42.97	3.72	18.29	-40.8	-42.0	21.7	0.00e+00	0	40	0	850395136	56	5728
2026-01-25 21:42:43.98	3.51	18.24	-40.4	-41.5	22.0	0.00e+00	0	40	0	852492288	54	6097
2026-01-25 21:42:44.99	3.30	18.18	-39.9	-40.9	22.5	0.00e+00	0	40	0	854589440	54	5664
2026-01-25 21:42:46.00	3.09	18.13	-39.1	-40.0	23.2	0.00e+00	0	40	0	856686592	52	5743
2026-01-25 21:42:47.01	2.88	18.07	-38.7	-39.6	23.5	0.00e+00	0	40	0	857735168	52	5497
2026-01-25 21:42:48.02	2.66	18.02	-38.6	-39.5	23.4	0.00e+00	0	40	0	859832320	50	6082
2026-01-25 21:42:49.03	2.46	17.96	-38.3	-39.2	23.7	0.00e+00	0	40	0	861929472	50	5879
2026-01-25 21:42:50.04	2.25	17.91	-38.3	-39.2	23.7	0.00e+00	0	40	0	864026624	50	5875
2026-01-25 21:42:51.05	2.04	17.85	-38.3	-39.2	23.8	0.00e+00	0	40	0	866123776	50	5831
2026-01-25 21:42:52.06	1.83	17.79	-38.5	-39.5	23.6	0.00e+00	0	40	0	867172352	50	6038
2026-01-25 21:42:53.07	1.62	17.74	-38.8	-39.7	23.3	0.00e+00	0	40	0	869269504	50	6239
2026-01-25 21:42:54.07	1.42	17.68	-39.3	-40.2	22.9	0.00e+00	0	40	0	871366656	50	6591
2026-01-25 21:42:55.08	1.22	17.63	-39.3	-40.3	22.8	0.00e+00	0	40	0	873463808	50	6662
2026-01-25 21:42:56.09	1.01	17.57	-39.6	-40.6	22.7	0.00e+00	0	40	0	875560960	50	6927
2026-01-25 21:42:57.10	0.81	17.51	-39.3	-40.3	22.8	0.00e+00	0	40	0	876609536	50	6671
2026-01-25 21:42:58.11	0.61	17.45	-39.1	-40.0	23.0	0.00e+00	0	40	0	878706688	50	6442
2026-01-25 21:42:59.12	0.40	17.39	-39.2	-40.1	23.1	0.00e+00	0	40	0	880803840	50	6521
2026-01-25 21:43:00.13	0.20	17.34	-38.9	-39.8	23.1	0.00e+00	0	40	0	882900992	50	6311
2026-01-25 21:43:01.14	0.00	17.28	-39.1	-40.0	23.1	0.00e+00	0	40	0	884998144	50	6455
2026-01-25 21:43:02.15	359.80	17.22	-39.0	-40.0	23.1	0.00e+00	0	40	0	887095296	50	6394
2026-01-25 21:43:03.16	359.61	17.16	-39.2	-40.2	22.8	0.00e+00	0	40	0	888143872	50	6580
2026-01-25 21:43:04.17	359.41	17.10	-39.6	-40.6	22.4	0.00e+00	0	40	0	890241024	50	6867
2026-01-25 21:43:05.18	359.21	17.04	-40.3	-41.4	21.9	0.00e+00	0	40	0	892338176	52	6747
2026-01-25 21:43:06.19	359.01	16.98	-40.7	-41.9	21.5	0.00e+00	0	40	0	894435328	52	7137
2026-01-25 21:43:07.20	358.82	16.92	-40.8	-42.0	21.4	0.00e+00	0	40	0	896532480	54	6439
2026-01-25 21:43:08.20	358.63	16.86	-41.1	-42.4	21.1	0.00e+00	0	40	0	897581056	54	6728
2026-01-25 21:43:09.21	358.43	16.80	-41.1	-42.3	21.2	0.00e+00	0	40	0	899678208	54	6648
2026-01-25 21:43:10.22	358.24	16.74	-40.8	-42.0	21.4	0.00e+00	0	40	0	901775360	54	6458
2026-01-25 21:43:11.23	358.05	16.68	-40.0	-41.1	22.2	0.00e+00	0	40	0	903872512	54	5779
2026-01-25 21:43:12.24	357.86	16.62	-39.8	-40.8	22.5	0.00e+00	0	40	0	905969664	54	5585
2026-01-25 21:43:13.25	357.66	16.56	-39.6	-40.6	22.7	0.00e+00	0	40	0	907018240	52	6160
2026-01-25 21:43:14.26	357.47	16.50	-39.5	-40.5	22.6	0.00e+00	0	40	0	909115392	52	6060
2026-01-25 21:43:15.27	357.29	16.44	-39.3	-40.3	22.8	0.00e+00	0	40	0	911212544	52	5914
2026-01-25 21:43:16.28	357.10	16.38	-39.5	-40.4	22.8	0.00e+00	0	40	0	913309696	52	6014
2026-01-25 21:43:17.29	356.91	16.32	-39.4	-40.4	22.8	0.00e+00	0	40	0	915406848	52	5970
2026-01-25 21:43:18.30	356.72	16.25	-39.4	-40.3	22.9	0.00e+00	0	40	0	916455424	52	5948
2026-01-25 21:43:19.31	356.54	16.19	-39.4	-40.4	22.6	0.00e+00	0	40	0	918552576	52	6004
2026-01-25 21:43:20.32	356.35	16.13	-39.2	-40.2	23.0	0.00e+00	0	40	0	920649728	52	5843
2026-01-25 21:43:21.33	356.17	16.07	-39.3	-40.3	22.8	0.00e+00	0	40	0	922746880	52	5898
2026-01-25 21:43:22.34	355.98	16.01	-39.6	-40.6	22.6	0.00e+00	0	40	0	924844032	52	6147
2026-01-25 21:43:23.35	355.80	15.94	-40.2	-41.3	22.0	0.00e+00	0	40	0	925892608	52	6619
2026-01-25 21:43:24.35	355.62	15.88	-40.5	-41.6	21.8	0.00e+00	0	40	0	927989760	52	6902
2026-01-25 21:43:25.36	355.44	15.82	-40.7	-41.9	21.5	0.00e+00	0	40	0	930086912	54	6354
2026-01-25 21:43:26.37	355.26	15.76	-40.6	-41.7	21.7	0.00e+00	0	40	0	932184064	54	6216
2026-01-25 21:43:27.38	355.08	15.69	-40.6	-41.8	21.6	0.00e+00	0	40	0	934281216	54	6267
2026-01-25 21:43:28.39	354.90	15.63	-40.5	-41.7	21.7	0.00e+00	0	40	0	935329792	54	6192
2026-01-25 21:43:29.40	354.72	15.57	-40.4	-41.5	21.9	0.00e+00	0	40	0	937426944	54	6047
2026-01-25 21:43:30.41	354.54	15.50	-40.1	-41.1	22.1	0.00e+00	0	40	0	939524096	54	5812
2026-01-25 21:43:31.42	354.37	15.44	-39.9	-40.9	22.2	0.00e+00	0	40	0	941621248	54	5687
2026-01-25 21:43:32.43	354.19	15.38	-39.8	-40.9	22.3	0.00e+00	0	40	0	943718400	54	5648
2026-01-25 21:43:33.44	354.01	15.31	-39.8	-40.9	22.5	0.00e+00	0	40	0	944766976	52	6318
2026-01-25 21:43:34.45	353.84	15.25	-39.9	-41.0	22.2	0.00e+00	0	40	0	946864128	52	6421
2026-01-25 21:43:35.45	353.67	15.19	-39.9	-41.0	22.2	0.00e+00	0	40	0	948961280	52	6436
2026-01-25 21:43:36.46	353.50	15.12	-39.9	-40.9	22.3	0.00e+00	0	40	0	951058432	52	6378
2026-01-25 21:43:37.47	353.32	15.06	-40.0	-41.1	22.3	0.00e+00	0	40	0	953155584	52	6476
2026-01-25 21:43:38.48	353.15	14.99	-39.9	-41.0	22.3	0.00e+00	0	40	0	955252736	52	6403
2026-01-25 21:43:39.49	352.98	14.93	-40.1	-41.2	22.1	0.00e+00	0	40	0	956301312	52	6595
2026-01-25 21:43:40.50	352.81	14.87	-40.0	-41.1	22.2	0.00e+00	0	40	0	958398464	52	6496
2026-01-25 21:43:41.51	352.64	14.80	-39.9	-41.0	22.3	0.00e+00	0	40	0	960495616	52	6418
2026-01-25 21:43:42.52	352.47	14.74	-39.8	-40.8	22.5	0.00e+00	0	40	0	962592768	52	6258
2026-01-25 21:43:43.53	352.31	14.67	-39.7	-40.7	22.4	0.00e+00	0	40	0	963641344	52	6236
2026-01-25 21:43:44.54	352.14	14.61	-39.4	-40.4	22.8	0.00e+00	0	40	0	965738496	52	5967
2026-01-25 21:43:45.55	351.97	14.54	-38.9	-39.8	23.2	0.00e+00	0	40	0	967835648	52	5605
2026-01-25 21:43:46.56	351.81	14.48	-38.7	-39.7	23.3	0.00e+00	0	40	0	969932800	50	6182
2026-01-25 21:43:47.57	351.64	14.41	-38.7	-39.6	23.2	0.00e+00	0	40	0	972029952	50	6139
2026-01-25 21:43:48.57	351.48	14.35	-38.8	-39.7	23.1	0.00e+00	0	40	0	973078528	50	6234
2026-01-25 21:43:49.58	351.32	14.28	-38.8	-39.7	23.2	0.00e+00	0	40	0	975175680	50	6240
2026-01-25 21:43:50.60	351.15	14.22	-39.0	-39.9	23.2	0.00e+00	0	40	0	977272832	50	6334
2026-01-25 21:43:51.60	350.99	14.15	-38.5	-39.4	23.5	0.00e+00	0	40	0	979369984	50	5971
2026-01-25 21:43:52.61	350.83	14.09	-38.4	-39.3	23.6	0.00e+00	0	40	0	981467136	50	5897
2026-01-25 21:43:53.62	350.67	14.02	-38.5	-39.3	23.5	0.00e+00	0	40	0	983564288	50	5956
2026-01-25 21:43:54.63	350.51	13.96	-38.1	-38.9	23.8	0.00e+00	0	40	0	984612864	50	5684
2026-01-25 21:43:55.64	350.35	13.89	-37.8	-38.7	24.1	0.00e+00	0	40	0	986710016	50	5510
2026-01-25 21:43:56.65	350.19	13.83	-37.7	-38.5	24.1	0.00e+00	0	40	0	988807168	48	6048
2026-01-25 21:43:57.66	350.03	13.76	-38.1	-38.9	23.8	0.00e+00	0	40	0	990904320	48	6382
2026-01-25 21:43:58.67	349.88	13.70	-37.9	-38.8	23.9	0.00e+00	0	40	0	993001472	48	6246
2026-01-25 21:43:59.68	349.72	13.63	-38.0	-38.9	23.7	0.00e+00	0	40	0	994050048	48	6331
2026-01-25 21:44:00.68	349.57	13.57	-38.4	-39.3	23.6	0.00e+00	0	40	0	996147200	48	6624
2026-01-25 21:44:01.69	349.41	13.50	-38.6	-39.5	23.4	0.00e+00	0	40	0	998244352	48	6779
2026-01-25 21:44:02.70	349.26	13.44	-38.9	-39.8	23.2	0.00e+00	0	40	0	1000341504	50	6264
2026-01-25 21:44:03.71	349.11	13.37	-38.8	-39.7	23.2	0.00e+00	0	40	0	1002438656	50	6239
2026-01-25 21:44:04.72	348.95	13.31	-38.9	-39.9	23.0	0.00e+00	0	40	0	1003487232	50	6342
2026-01-25 21:44:05.73	348.80	13.24	-39.1	-40.1	22.9	0.00e+00	0	40	0	1005584384	50	6482
2026-01-25 21:44:06.74	348.65	13.17	-39.3	-40.3	22.8	0.00e+00	0	40	0	1007681536	50	6645
2026-01-25 21:44:07.75	348.50	13.11	-39.3	-40.3	22.7	0.00e+00	0	40	0	1009778688	50	6667
2026-01-25 21:44:08.76	348.35	13.04	-39.2	-40.1	22.9	0.00e+00	0	40	0	1011875840	50	6509
2026-01-25 21:44:09.77	348.20	12.98	-39.0	-39.9	23.1	0.00e+00	0	40	0	1012924416	50	6343
2026-01-25 21:44:10.78	348.05	12.91	-38.8	-39.7	23.2	0.00e+00	0	40	0	1015021568	50	6210
2026-01-25 21:44:11.79	347.90	12.85	-38.4	-39.3	23.5	0.00e+00	0	40	0	1017118720	50	5898
2026-01-25 21:44:12.80	347.76	12.78	-38.2	-39.1	23.6	0.00e+00	0	40	0	1019215872	50	5767
2026-01-25 21:44:13.81	347.61	12.71	-38.3	-39.1	23.6	0.00e+00	0	40	0	1021313024	50	5803
2026-01-25 21:44:14.82	347.46	12.65	-38.3	-39.2	23.6	0.00e+00	0	40	0	1022361600	50	5839
2026-01-25 21:44:15.83	347.32	12.58	-38.4	-39.2	23.6	0.00e+00	0	40	0	1024458752	50	5888
2026-01-25 21:44:16.84	347.17	12.52	-38.5	-39.4	23.4	0.00e+00	0	40	0	1026555904	50	6027
2026-01-25 21:44:17.85	347.03	12.45	-38.9	-39.9	23.1	0.00e+00	0	40	0	1028653056	50	6319
2026-01-25 21:44:18.86	346.89	12.39	-39.0	-40.0	23.0	0.00e+00	0	40	0	1030750208	50	6418
2026-01-25 21:44:19.87	346.74	12.32	-39.3	-40.3	22.7	0.00e+00	0	40	0	1031798784	50	6653
2026-01-25 21:44:20.88	346.60	12.25	-39.4	-40.3	22.7	0.00e+00	0	40	0	1033895936	50	6682
2026-01-25 21:44:21.89	346.46	12.19	-39.7	-40.7	22.4	0.00e+00	0	40	0	1035993088	52	6215
2026-01-25 21:44:22.90	346.32	12.12	-39.7	-40.7	22.3	0.00e+00	0	40	0	1038090240	52	6239
2026-01-25 21:44:23.91	346.18	12.06	-39.8	-40.9	22.2	0.00e+00	0	40	0	1040187392	52	6346
2026-01-25 21:44:24.91	346.04	11.99	-40.0	-41.1	22.1	0.00e+00	0	40	0	1041235968	52	6525
2026-01-25 21:44:25.92	345.90	11.93	-39.8	-40.8	22.3	0.00e+00	0	40	0	1043333120	52	6292
2026-01-25 21:44:26.93	345.77	11.86	-39.9	-40.9	22.1	0.00e+00	0	40	0	1045430272	52	6381
2026-01-25 21:44:27.94	345.63	11.79	-39.7	-40.7	22.2	0.00e+00	0	40	0	1047527424	52	6229
2026-01-25 21:44:28.95	345.49	11.73	-39.6	-40.6	22.2	0.00e+00	0	40	0	1049624576	52	6144
2026-01-25 21:44:29.95	345.36	11.66	-39.2	-40.2	22.7	0.00e+00	0	40	0	1051721728	52	5843
2026-01-25 21:44:30.97	345.22	11.60	-39.0	-40.0	23.0	0.00e+00	0	40	0	1052770304	52	5703
2026-01-25 21:44:31.97	345.09	11.53	-38.8	-39.7	23.2	0.00e+00	0	40	0	1054867456	52	5516
2026-01-25 21:44:32.98	344.95	11.47	-38.6	-39.5	23.2	0.00e+00	0	40	0	1056964608	50	6063
2026-01-25 21:44:33.99	344.82	11.40	-38.6	-39.5	22.9	0.00e+00	0	40	0	1059061760	50	6083
2026-01-25 21:44:35.00	344.68	11.34	-38.4	-39.3	22.8	0.00e+00	0	40	0	1061158912	50	5947
2026-01-25 21:44:36.01	344.55	11.27	-38.7	-39.6	23.1	0.00e+00	0	40	0	1062207488	50	6123
2026-01-25 21:44:37.02	344.42	11.20	-38.6	-39.6	23.2	0.00e+00	0	40	0	1064304640	50	6111
2026-01-25 21:44:38.03	344.29	11.14	-39.1	-40.1	22.8	0.00e+00	0	40	0	1066401792	50	6485
2026-01-25 21:44:39.04	344.16	11.07	-39.5	-40.5	22.5	0.00e+00	0	40	0	1068498944	50	6825
2026-01-25 21:44:40.05	344.03	11.01	-40.0	-41.0	22.0	0.00e+00	0	40	0	1070596096	52	6455
2026-01-25 21:44:41.06	343.90	10.94	-40.1	-41.2	21.9	0.00e+00	0	40	0	1071644672	52	6597
2026-01-25 21:44:42.07	343.77	10.88	-40.6	-41.7	21.6	0.00e+00	0	40	0	1073741824	52	6985
2026-01-25 21:44:43.08	343.64	10.81	-40.7	-41.9	21.5	0.00e+00	0	40	0	1075838976	52	7130
2026-01-25 21:44:44.09	343.51	10.75	-40.5	-41.7	21.5	0.00e+00	0	40	0	1077936128	52	6961
2026-01-25 21:44:45.10	343.39	10.68	-40.6	-41.8	21.4	0.00e+00	0	40	0	1080033280	52	7046
2026-01-25 21:44:46.11	343.26	10.62	-40.2	-41.3	21.9	0.00e+00	0	40	0	1081081856	52	6663
2026-01-25 21:44:47.12	343.13	10.55	-40.2	-41.3	21.9	0.00e+00	0	40	0	1083179008	52	6634
2026-01-25 21:44:48.12	343.01	10.49	-40.0	-41.1	22.1	0.00e+00	0	40	0	1085276160	52	6516
2026-01-25 21:44:49.13	342.88	10.42	-39.6	-40.7	22.4	0.00e+00	0	40	0	1087373312	52	6205
2026-01-25 21:44:50.14	342.76	10.36	-39.8	-40.9	22.2	0.00e+00	0	40	0	1089470464	52	6335
2026-01-25 21:44:51.15	342.64	10.29	-39.9	-41.0	22.1	0.00e+00	0	40	0	1090519040	52	6454
2026-01-25 21:44:52.16	342.51	10.23	-40.0	-41.1	22.0	0.00e+00	0	40	0	1092616192	52	6516
2026-01-25 21:44:53.17	342.39	10.16	-39.6	-40.7	22.3	0.00e+00	0	40	0	1094713344	52	6227
2026-01-25 21:44:54.18	342.27	10.10	-40.0	-41.1	22.0	0.00e+00	0	40	0	1096810496	52	6513
2026-01-25 21:44:55.19	342.15	10.03	-39.9	-41.0	22.2	0.00e+00	0	40	0	1098907648	52	6409
2026-01-25 21:44:56.20	342.03	9.97	-40.1	-41.2	21.9	0.00e+00	0	40	0	1099956224	52	6595
2026-01-25 21:44:57.21	341.90	9.90	-40.2	-41.3	21.9	0.00e+00	0	40	0	1102053376	52	6661
2026-01-25 21:44:58.22	341.79	9.84	-40.1	-41.2	21.9	0.00e+00	0	40	0	1104150528	52	6599
2026-01-25 21:44:59.22	341.67	9.77	-40.1	-41.2	21.8	0.00e+00	0	40	0	1106247680	52	6591
2026-01-25 21:45:00.23	341.55	9.71	-39.8	-40.8	22.1	0.00e+00	0	40	0	1108344832	52	6311
2026-01-25 21:45:01.23	341.43	9.64	-40.4	-41.6	21.5	0.00e+00	0	40	0	1109393408	52	6868
2026-01-25 21:45:02.25	341.31	9.58	-40.4	-41.6	21.5	0.00e+00	0	40	0	1111490560	52	6880
2026-01-25 21:45:03.25	341.20	9.51	-40.1	-41.2	21.9	0.00e+00	0	40	0	1113587712	52	6601
2026-01-25 21:45:04.26	341.08	9.45	-40.4	-41.6	21.5	0.00e+00	0	40	0	1115684864	52	6876
2026-01-25 21:45:05.27	340.96	9.39	-40.6	-41.8	21.4	0.00e+00	0	40	0	1117782016	52	7058
2026-01-25 21:45:06.29	340.85	9.32	-40.6	-41.8	21.4	0.00e+00	0	40	0	1118830592	52	7056
2026-01-25 21:45:07.30	340.73	9.26	-40.8	-42.0	21.2	0.00e+00	0	40	0	1120927744	54	6452
2026-01-25 21:45:08.30	340.62	9.19	-40.5	-41.7	21.3	0.00e+00	0	40	0	1123024896	54	6219
2026-01-25 21:45:09.31	340.50	9.13	-41.1	-42.3	21.0	0.00e+00	0	40	0	1125122048	54	6684
2026-01-25 21:45:10.32	340.39	9.06	-40.5	-41.7	21.4	0.00e+00	0	40	0	1127219200	54	6174
2026-01-25 21:45:11.33	340.28	9.00	-40.7	-42.0	21.2	0.00e+00	0	40	0	1129316352	54	6416
2026-01-25 21:45:12.34	340.17	8.94	-40.3	-41.5	21.5	0.00e+00	0	40	0	1130364928	54	6042
2026-01-25 21:45:13.36	340.05	8.87	-40.6	-41.8	21.4	0.00e+00	0	40	0	1132462080	54	6260
2026-01-25 21:45:14.36	339.94	8.81	-40.1	-41.3	21.7	0.00e+00	0	40	0	1134559232	54	5916
2026-01-25 21:45:15.36	339.83	8.74	-40.3	-41.4	21.6	0.00e+00	0	40	0	1136656384	54	6023
2026-01-25 21:45:16.37	339.72	8.68	-40.8	-42.0	21.1	0.00e+00	0	40	0	1137704960	54	6464
2026-01-25 21:45:17.38	339.61	8.62	-40.8	-42.0	20.9	0.00e+00	0	40	0	1139802112	54	6455
2026-01-25 21:45:18.39	339.50	8.55	-41.3	-42.6	20.7	0.00e+00	0	40	0	1141899264	54	6904
2026-01-25 21:45:19.40	339.39	8.49	-41.3	-42.7	20.6	0.00e+00	0	40	0	1143996416	54	6946
2026-01-25 21:45:20.41	339.28	8.43	-41.4	-42.8	20.5	0.00e+00	0	40	0	1146093568	54	7016
2026-01-25 21:45:21.42	339.18	8.36	-41.6	-43.0	20.3	0.00e+00	0	40	0	1147142144	54	7226
2026-01-25 21:45:22.43	339.07	8.30	-41.5	-42.9	20.3	0.00e+00	0	40	0	1149239296	54	7144
2026-01-25 21:45:23.44	338.96	8.24	-41.4	-42.8	20.4	0.00e+00	0	40	0	1151336448	54	7011
2026-01-25 21:45:24.45	338.86	8.17	-41.3	-42.6	20.4	0.00e+00	0	40	0	1153433600	54	6920
2026-01-25 21:45:25.46	338.75	8.11	-41.3	-42.5	20.7	0.00e+00	0	40	0	1155530752	54	6848
2026-01-25 21:45:26.46	338.65	8.05	-40.9	-42.2	20.9	0.00e+00	0	40	0	1157627904	54	6556
2026-01-25 21:45:27.47	338.54	7.98	-40.8	-42.0	20.9	0.00e+00	0	40	0	1158676480	54	6444
2026-01-25 21:45:28.48	338.44	7.92	-40.8	-42.0	21.0	0.00e+00	0	40	0	1160773632	54	6442
2026-01-25 21:45:29.49	338.33	7.86	-41.0	-42.3	20.8	0.00e+00	0	40	0	1162870784	54	6649
2026-01-25 21:45:30.50	338.23	7.79	-41.0	-42.2	20.8	0.00e+00	0	40	0	1164967936	54	6600
2026-01-25 21:45:31.51	338.12	7.73	-41.1	-42.3	20.7	0.00e+00	0	40	0	1167065088	54	6671
2026-01-25 21:45:32.52	338.02	7.67	-41.0	-42.3	20.8	0.00e+00	0	40	0	1168113664	54	6632
2026-01-25 21:45:33.53	337.92	7.61	-40.6	-41.8	21.2	0.00e+00	0	40	0	1170210816	54	6284
2026-01-25 21:45:34.54	337.82	7.54	-41.0	-42.2	20.7	0.00e+00	0	40	0	1172307968	54	6615
2026-01-25 21:45:35.55	337.72	7.48	-40.8	-42.0	21.0	0.00e+00	0	40	0	1174405120	54	6456
2026-01-25 21:45:36.56	337.61	7.42	-41.2	-42.5	20.6	0.00e+00	0	40	0	1176502272	54	6818
2026-01-25 21:45:37.57	337.51	7.36	-41.3	-42.6	20.4	0.00e+00	0	40	0	1177550848	54	6911
2026-01-25 21:45:38.57	337.42	7.29	-41.0	-42.2	20.7	0.00e+00	0	40	0	1179648000	54	6598
2026-01-25 21:45:39.58	337.32	7.23	-41.2	-42.5	20.5	0.00e+00	0	40	0	1181745152	54	6826
2026-01-25 21:45:40.59	337.22	7.17	-41.6	-43.0	20.2	0.00e+00	0	40	0	1183842304	54	7178
2026-01-25 21:45:41.60	337.12	7.11	-41.5	-42.8	20.2	0.00e+00	0	40	0	1185939456	54	7060
2026-01-25 21:45:42.61	337.02	7.04	-41.2	-42.4	20.5	0.00e+00	0	40	0	1186988032	54	6768
2026-01-25 21:45:43.62	336.92	6.98	-41.3	-42.6	20.5	0.00e+00	0	40	0	1189085184	54	6871
2026-01-25 21:45:44.63	336.82	6.92	-41.0	-42.3	20.6	0.00e+00	0	40	0	1191182336	54	6638
2026-01-25 21:45:45.64	336.73	6.86	-41.2	-42.5	20.5	0.00e+00	0	40	0	1193279488	54	6810
2026-01-25 21:45:46.65	336.63	6.80	-41.2	-42.5	20.4	0.00e+00	0	40	0	1195376640	54	6845
2026-01-25 21:45:47.66	336.53	6.73	-41.2	-42.5	20.4	0.00e+00	0	40	0	1196425216	54	6815
2026-01-25 21:45:48.67	336.44	6.67	-41.2	-42.5	20.5	0.00e+00	0	40	0	1198522368	54	6843
2026-01-25 21:45:49.68	336.34	6.61	-40.9	-42.2	20.6	0.00e+00	0	40	0	1200619520	54	6543
2026-01-25 21:45:50.69	336.25	6.55	-41.5	-42.8	19.9	0.00e+00	0	40	0	1202716672	54	7082
2026-01-25 21:45:51.70	336.15	6.49	-41.5	-42.9	20.0	0.00e+00	0	40	0	1204813824	54	7144
2026-01-25 21:45:52.71	336.06	6.43	-41.6	-43.1	19.9	0.00e+00	0	40	0	1205862400	54	7260
