passes_logs/2026/01/25/R4.6S_Anadyr/R4.6S_Anadyr__20260125_053347_FENGYUN_3D_rec.log

#Pass ID: 20260125_053347_FENGYUN 3D
#Satellite: FENGYUN 3D
#Configuration: FENGYUN 3D
#almurnet v.1.7.20251203
#Start time: 2026-01-25 05:33:48

#Version: 2.2.20231116
#Station: R4.6S_Anadyr
#Location: 177.4865 lon 64.73178 lat
#TLE: 1 43010U 17072A   26024.51794477  .00000040  00000+0  40682-4 0  9990
#TLE: 2 43010  98.9961 356.4820 0002494  91.2631 268.8830 14.19699550424601

#Time	Az	El	Level	Level2	SNR	BER	BlckErr	Temp	State	Recorded	gain1	gain2
2026-01-25 05:33:48.47	245.84	0.04	-51.3	-63.0	3.5	8.46e-01	0	39	0	0	60	51328
2026-01-25 05:33:49.47	245.94	0.08	-51.1	-63.2	3.6	8.45e-01	0	40	104	0	60	52455
2026-01-25 05:33:50.48	246.04	0.12	-50.9	-63.2	3.6	8.45e-01	0	40	104	0	60	52078
2026-01-25 05:33:51.49	246.14	0.16	-50.9	-63.1	3.6	8.44e-01	0	40	104	0	60	51891
2026-01-25 05:33:52.50	246.24	0.20	-51.2	-63.3	3.6	8.45e-01	0	40	104	0	60	52629
2026-01-25 05:33:53.51	246.34	0.24	-51.0	-63.1	3.6	8.46e-01	0	40	104	0	60	51565
2026-01-25 05:33:54.52	246.44	0.28	-50.9	-63.0	3.6	8.44e-01	0	40	104	0	60	51181
2026-01-25 05:33:55.53	246.54	0.31	-50.8	-63.0	3.6	8.46e-01	0	40	104	0	60	51003
2026-01-25 05:33:56.54	246.64	0.35	-50.7	-63.0	3.6	8.45e-01	0	40	104	0	60	50812
2026-01-25 05:33:57.55	246.74	0.39	-50.7	-63.0	3.6	8.45e-01	0	40	104	0	60	50922
2026-01-25 05:33:58.55	246.84	0.43	-50.5	-62.9	3.6	8.45e-01	0	40	104	0	60	50637
2026-01-25 05:33:59.56	246.94	0.47	-50.7	-63.0	3.6	8.45e-01	0	40	104	0	60	51294
2026-01-25 05:34:00.57	247.04	0.51	-50.8	-63.1	3.6	8.46e-01	0	40	104	0	60	51482
2026-01-25 05:34:01.58	247.15	0.55	-50.9	-63.0	3.6	8.45e-01	0	40	104	0	60	51293
2026-01-25 05:34:02.59	247.25	0.59	-50.9	-63.0	3.6	8.46e-01	0	40	104	0	60	51188
2026-01-25 05:34:03.60	247.35	0.63	-50.9	-63.0	3.6	8.47e-01	0	40	104	0	60	51097
2026-01-25 05:34:04.61	247.46	0.67	-50.9	-63.0	3.6	8.45e-01	0	41	104	0	60	51055
2026-01-25 05:34:05.62	247.56	0.70	-50.8	-63.0	3.6	8.44e-01	0	41	104	0	60	50883
2026-01-25 05:34:06.63	247.66	0.74	-50.8	-63.0	3.6	8.45e-01	0	40	104	0	60	50909
2026-01-25 05:34:07.64	247.77	0.78	-50.8	-62.9	3.6	8.46e-01	0	40	104	0	60	50502
2026-01-25 05:34:08.65	247.87	0.82	-50.7	-62.9	3.6	8.45e-01	0	40	104	0	60	50295
2026-01-25 05:34:09.66	247.97	0.86	-50.6	-62.8	3.6	8.45e-01	0	41	104	0	60	49638
2026-01-25 05:34:10.67	248.08	0.90	-50.5	-62.7	3.6	8.45e-01	0	40	104	0	60	49062
2026-01-25 05:34:11.68	248.18	0.94	-50.4	-62.5	3.6	8.45e-01	0	41	104	0	60	48149
2026-01-25 05:34:12.69	248.29	0.98	-50.2	-62.3	3.6	8.45e-01	0	40	104	0	60	47277
2026-01-25 05:34:13.70	248.39	1.02	-49.5	-61.6	3.6	8.46e-01	0	41	104	0	60	43463
2026-01-25 05:34:14.71	248.50	1.05	-48.6	-60.7	3.6	8.45e-01	0	40	104	0	60	38958
2026-01-25 05:34:15.72	248.60	1.09	-48.5	-60.6	3.6	8.45e-01	0	41	104	0	60	38845
2026-01-25 05:34:16.72	248.71	1.13	-48.5	-60.6	3.6	8.46e-01	0	41	104	0	60	38666
2026-01-25 05:34:17.73	248.82	1.17	-48.5	-60.6	3.6	8.45e-01	0	41	104	0	60	38773
2026-01-25 05:34:18.74	248.92	1.21	-48.5	-60.6	3.6	8.46e-01	0	41	104	0	60	38714
2026-01-25 05:34:19.75	249.03	1.25	-48.5	-60.6	3.6	8.45e-01	0	41	104	0	60	38591
2026-01-25 05:34:20.76	249.14	1.29	-48.5	-60.5	3.6	8.45e-01	0	41	104	0	60	38484
2026-01-25 05:34:21.77	249.24	1.32	-48.5	-60.5	3.6	8.46e-01	0	41	104	0	60	38304
2026-01-25 05:34:22.79	249.35	1.36	-48.5	-60.5	3.6	8.44e-01	0	41	104	0	60	38234
2026-01-25 05:34:23.80	249.46	1.40	-48.5	-60.5	3.6	8.44e-01	0	41	104	0	60	38322
2026-01-25 05:34:24.81	249.57	1.44	-48.5	-60.6	3.6	8.47e-01	0	41	104	0	60	38664
2026-01-25 05:34:25.82	249.68	1.48	-48.5	-60.6	3.6	8.45e-01	0	41	104	0	60	38743
2026-01-25 05:34:26.83	249.79	1.52	-48.5	-60.6	3.6	8.45e-01	0	41	104	0	60	38581
2026-01-25 05:34:27.84	249.89	1.56	-48.5	-60.6	3.6	8.45e-01	0	41	104	0	60	38537
2026-01-25 05:34:28.85	250.00	1.59	-48.5	-60.5	3.6	8.45e-01	0	41	104	0	60	38382
2026-01-25 05:34:29.86	250.11	1.63	-48.5	-60.5	3.6	8.44e-01	0	41	104	0	60	38327
2026-01-25 05:34:30.87	250.22	1.67	-48.5	-60.5	3.6	8.46e-01	0	41	104	0	60	38497
2026-01-25 05:34:31.88	250.33	1.71	-48.5	-60.6	3.6	8.46e-01	0	41	104	0	60	38692
2026-01-25 05:34:32.89	250.44	1.75	-48.4	-60.5	3.6	8.45e-01	0	41	104	0	60	38394
2026-01-25 05:34:33.90	250.55	1.79	-48.4	-60.5	3.6	8.44e-01	0	41	104	0	60	38184
2026-01-25 05:34:34.91	250.66	1.82	-48.4	-60.5	3.6	8.46e-01	0	41	104	0	60	38426
2026-01-25 05:34:35.92	250.78	1.86	-48.4	-60.5	3.6	8.45e-01	0	41	104	0	60	38378
2026-01-25 05:34:36.93	250.89	1.90	-48.5	-60.6	3.6	8.45e-01	0	41	104	0	60	38519
2026-01-25 05:34:37.93	251.00	1.94	-48.4	-60.5	3.6	8.45e-01	0	41	104	0	60	38347
2026-01-25 05:34:38.94	251.11	1.98	-48.4	-60.4	3.6	8.46e-01	0	41	104	0	60	38001
2026-01-25 05:34:39.95	251.22	2.01	-48.4	-60.5	3.6	8.45e-01	0	41	104	0	60	38248
2026-01-25 05:34:40.96	251.33	2.05	-48.4	-60.5	3.6	8.45e-01	0	41	104	0	60	38284
2026-01-25 05:34:41.97	251.45	2.09	-48.4	-60.5	3.6	8.45e-01	0	41	104	0	60	38348
2026-01-25 05:34:42.98	251.56	2.13	-48.4	-60.5	3.6	8.45e-01	0	41	104	0	60	38368
2026-01-25 05:34:43.99	251.67	2.17	-48.4	-60.5	3.6	8.46e-01	0	41	104	0	60	38276
2026-01-25 05:34:45.00	251.79	2.20	-48.5	-60.6	3.6	8.45e-01	0	41	104	0	60	38575
2026-01-25 05:34:46.01	251.90	2.24	-48.4	-60.5	3.6	8.45e-01	0	41	104	0	60	38452
2026-01-25 05:34:47.02	252.02	2.28	-48.4	-60.6	3.6	8.45e-01	0	41	104	0	60	38528
2026-01-25 05:34:48.02	252.13	2.32	-48.4	-60.5	3.6	8.46e-01	0	41	104	0	60	38202
2026-01-25 05:34:49.04	252.25	2.35	-48.4	-60.4	3.6	8.45e-01	0	41	104	0	60	37653
2026-01-25 05:34:50.04	252.36	2.39	-48.4	-60.2	3.6	8.45e-01	0	41	104	0	60	37033
2026-01-25 05:34:51.05	252.47	2.43	-48.4	-60.4	3.6	8.45e-01	0	41	104	0	60	37782
2026-01-25 05:34:52.06	252.59	2.47	-48.5	-60.5	3.6	8.46e-01	0	41	104	0	60	38200
2026-01-25 05:34:53.07	252.71	2.50	-48.4	-60.5	3.6	8.44e-01	0	41	104	0	60	38324
2026-01-25 05:34:54.08	252.82	2.54	-48.4	-60.4	3.6	8.45e-01	0	41	104	0	60	38021
2026-01-25 05:34:55.09	252.94	2.58	-48.4	-60.3	3.6	8.45e-01	0	41	104	0	60	37274
2026-01-25 05:34:56.10	253.06	2.62	-48.4	-60.4	3.6	8.46e-01	0	41	104	0	60	37888
2026-01-25 05:34:57.11	253.17	2.65	-48.4	-60.5	3.6	8.46e-01	0	41	104	0	60	38291
2026-01-25 05:34:58.12	253.29	2.69	-48.4	-60.1	3.6	8.45e-01	0	41	104	0	60	36753
2026-01-25 05:34:59.13	253.41	2.73	-48.3	-59.2	3.6	8.46e-01	0	41	104	0	60	33124
2026-01-25 05:35:00.14	253.52	2.77	-48.4	-59.9	3.6	8.45e-01	0	41	104	0	60	35540
2026-01-25 05:35:01.15	253.64	2.80	-48.4	-60.5	3.6	8.46e-01	0	41	104	0	60	38077
2026-01-25 05:35:02.16	253.76	2.84	-48.4	-59.5	3.6	8.46e-01	0	41	104	0	60	34172
2026-01-25 05:35:03.17	253.88	2.88	-47.7	-54.6	5.5	7.98e-01	0	41	104	0	60	19505
2026-01-25 05:35:04.18	254.00	2.91	-46.8	-50.9	8.0	2.74e-01	0	41	0	3145728	60	12730
2026-01-25 05:35:05.19	254.12	2.95	-45.8	-48.9	10.1	1.85e-02	0	41	0	8388608	60	10089
2026-01-25 05:35:06.20	254.24	2.99	-46.3	-49.9	9.0	2.43e-02	0	41	0	14680064	60	11272
2026-01-25 05:35:07.21	254.36	3.02	-45.8	-48.8	10.9	5.12e-02	0	41	0	19922944	60	10000
2026-01-25 05:35:08.22	254.48	3.06	-49.0	-60.4	3.5	8.13e-01	0	41	104	23068672	60	37835
2026-01-25 05:35:09.22	254.60	3.10	-46.5	-50.6	9.6	4.60e-01	0	41	104	23068672	60	12221
2026-01-25 05:35:10.23	254.72	3.13	-48.3	-59.6	3.6	8.45e-01	0	41	104	23068672	60	34646
2026-01-25 05:35:11.24	254.84	3.17	-48.1	-58.6	3.6	8.44e-01	0	41	104	23068672	60	30875
2026-01-25 05:35:12.25	254.96	3.21	-39.1	-40.0	18.7	1.13e-01	0	41	104	23068672	50	6453
2026-01-25 05:35:13.26	255.08	3.24	-38.4	-39.3	20.5	0.00e+00	0	41	0	26214400	50	5963
2026-01-25 05:35:14.27	255.20	3.28	-38.9	-39.8	20.2	0.00e+00	0	41	0	32505856	50	6311
2026-01-25 05:35:15.28	255.33	3.32	-38.1	-38.9	21.1	0.00e+00	0	41	0	37748736	50	5692
2026-01-25 05:35:16.29	255.45	3.35	-38.5	-39.4	20.5	0.00e+00	0	41	0	44040192	50	6007
2026-01-25 05:35:17.30	255.57	3.39	-39.8	-40.8	19.1	0.00e+00	0	41	0	49283072	50	7032
2026-01-25 05:35:18.31	255.69	3.43	-41.6	-42.9	18.2	0.00e+00	0	41	0	54525952	54	7136
2026-01-25 05:35:19.32	255.82	3.46	-39.7	-40.7	19.4	0.00e+00	0	41	0	60817408	54	5531
2026-01-25 05:35:20.33	255.94	3.50	-39.1	-40.0	20.2	0.00e+00	0	41	0	66060288	52	5748
2026-01-25 05:35:21.34	256.07	3.53	-37.6	-38.5	21.6	0.00e+00	0	41	0	72351744	48	6036
2026-01-25 05:35:22.35	256.19	3.57	-37.5	-38.4	21.7	0.00e+00	0	41	0	77594624	48	5969
2026-01-25 05:35:23.36	256.31	3.61	-36.4	-37.2	22.7	0.00e+00	0	41	0	82837504	46	5874
2026-01-25 05:35:24.37	256.44	3.64	-36.9	-37.7	22.3	0.00e+00	0	41	0	89128960	46	6219
2026-01-25 05:35:25.38	256.56	3.68	-36.5	-37.2	22.9	0.00e+00	0	41	0	94371840	46	5896
2026-01-25 05:35:26.39	256.69	3.71	-39.5	-40.5	19.5	0.00e+00	0	41	0	100663296	50	6802
2026-01-25 05:35:27.40	256.81	3.75	-36.5	-37.3	22.8	0.00e+00	0	41	0	105906176	48	5267
2026-01-25 05:35:28.41	256.94	3.78	-36.2	-37.0	22.9	0.00e+00	0	41	0	111149056	46	5704
2026-01-25 05:35:29.41	257.07	3.82	-37.7	-38.5	21.6	0.00e+00	0	41	0	117440512	48	6053
2026-01-25 05:35:30.42	257.19	3.86	-38.9	-39.8	20.4	0.00e+00	0	41	0	122683392	48	7029
2026-01-25 05:35:31.43	257.32	3.89	-37.0	-37.9	22.4	0.00e+00	0	41	0	128974848	48	5637
2026-01-25 05:35:32.44	257.45	3.93	-38.0	-38.8	21.1	0.00e+00	0	41	0	134217728	48	6289
2026-01-25 05:35:33.45	257.57	3.96	-39.1	-40.0	20.0	0.00e+00	0	41	0	140509184	50	6431
2026-01-25 05:35:34.46	257.70	4.00	-40.9	-42.0	18.3	0.00e+00	0	41	0	145752064	54	6432
2026-01-25 05:35:35.47	257.83	4.03	-38.5	-39.3	20.6	0.00e+00	0	41	0	150994944	50	5963
2026-01-25 05:35:36.48	257.96	4.07	-39.1	-40.0	20.3	0.00e+00	0	41	0	157286400	50	6424
2026-01-25 05:35:37.49	258.09	4.10	-38.6	-39.4	20.8	0.00e+00	0	41	0	162529280	50	6011
2026-01-25 05:35:38.50	258.22	4.14	-39.6	-40.5	19.8	0.00e+00	0	41	0	168820736	50	6834
2026-01-25 05:35:39.51	258.34	4.17	-39.0	-39.9	20.3	0.00e+00	0	41	0	174063616	52	5650
2026-01-25 05:35:40.51	258.47	4.21	-39.5	-40.5	19.9	0.00e+00	0	41	0	179306496	52	6086
2026-01-25 05:35:41.52	258.60	4.24	-38.8	-39.7	20.6	0.00e+00	0	41	0	185597952	50	6200
2026-01-25 05:35:42.53	258.73	4.28	-38.5	-39.4	20.9	0.00e+00	0	41	0	190840832	50	5985
2026-01-25 05:35:43.54	258.86	4.31	-39.4	-40.4	20.0	0.00e+00	0	41	0	197132288	50	6714
2026-01-25 05:35:44.55	258.99	4.34	-39.1	-40.0	20.4	0.00e+00	0	41	0	202375168	50	6428
2026-01-25 05:35:45.56	259.12	4.38	-38.5	-39.4	21.0	0.00e+00	0	41	0	207618048	50	6007
2026-01-25 05:35:46.57	259.26	4.41	-38.1	-38.9	21.5	0.00e+00	0	41	0	213909504	50	5688
2026-01-25 05:35:47.58	259.39	4.45	-38.3	-39.2	21.3	0.00e+00	0	41	0	219152384	50	5843
2026-01-25 05:35:48.59	259.52	4.48	-38.8	-39.7	20.8	0.00e+00	0	41	0	225443840	50	6190
2026-01-25 05:35:49.60	259.65	4.52	-38.3	-39.1	21.2	0.00e+00	0	41	0	230686720	50	5810
2026-01-25 05:35:50.61	259.78	4.55	-38.8	-39.7	20.6	0.00e+00	0	41	0	236978176	50	6207
2026-01-25 05:35:51.62	259.92	4.58	-37.9	-38.7	21.7	0.00e+00	0	41	0	242221056	50	5538
2026-01-25 05:35:52.63	260.05	4.62	-37.7	-38.5	22.0	0.00e+00	0	41	0	248512512	48	6083
2026-01-25 05:35:53.64	260.18	4.65	-37.5	-38.3	22.0	0.00e+00	0	41	0	253755392	48	5962
2026-01-25 05:35:54.65	260.32	4.68	-38.9	-39.8	20.6	0.00e+00	0	41	0	258998272	50	6290
2026-01-25 05:35:55.66	260.45	4.72	-38.5	-39.4	21.3	0.00e+00	0	41	0	265289728	50	5970
2026-01-25 05:35:56.67	260.58	4.75	-38.6	-39.5	20.9	0.00e+00	0	41	0	270532608	50	6055
2026-01-25 05:35:57.68	260.72	4.79	-38.4	-39.2	21.3	0.00e+00	0	41	0	276824064	50	5878
2026-01-25 05:35:58.69	260.85	4.82	-37.9	-38.8	21.7	0.00e+00	0	41	0	282066944	50	5568
2026-01-25 05:35:59.70	260.99	4.85	-37.5	-38.3	22.1	0.00e+00	0	41	0	287309824	48	5928
2026-01-25 05:36:00.71	261.12	4.88	-37.3	-38.1	22.3	0.00e+00	0	41	0	293601280	48	5780
2026-01-25 05:36:01.72	261.26	4.92	-37.5	-38.3	22.1	0.00e+00	0	41	0	298844160	48	5946
2026-01-25 05:36:02.73	261.40	4.95	-37.6	-38.5	21.9	0.00e+00	0	41	0	305135616	48	6039
2026-01-25 05:36:03.74	261.53	4.98	-37.6	-38.4	21.9	0.00e+00	0	41	0	310378496	48	6010
2026-01-25 05:36:04.75	261.67	5.02	-37.3	-38.1	22.3	0.00e+00	0	41	0	315621376	48	5803
2026-01-25 05:36:05.76	261.81	5.05	-37.5	-38.3	22.2	0.00e+00	0	41	0	321912832	48	5905
2026-01-25 05:36:06.77	261.94	5.08	-37.6	-38.4	22.2	0.00e+00	0	41	0	327155712	48	5990
2026-01-25 05:36:07.78	262.08	5.11	-38.0	-38.9	21.7	0.00e+00	0	41	0	333447168	48	6325
2026-01-25 05:36:08.79	262.22	5.15	-37.8	-38.6	21.8	0.00e+00	0	41	0	338690048	48	6148
2026-01-25 05:36:09.80	262.36	5.18	-38.3	-39.1	21.5	0.00e+00	0	41	0	344981504	48	6511
2026-01-25 05:36:10.80	262.49	5.21	-37.7	-38.6	22.0	0.00e+00	0	41	0	350224384	48	6108
2026-01-25 05:36:11.81	262.63	5.24	-38.0	-38.8	21.8	0.00e+00	0	41	0	355467264	48	6272
2026-01-25 05:36:12.82	262.77	5.27	-37.7	-38.5	22.0	0.00e+00	0	41	0	361758720	48	6089
2026-01-25 05:36:13.83	262.91	5.31	-37.4	-38.2	22.4	0.00e+00	0	41	0	367001600	48	5836
2026-01-25 05:36:14.84	263.05	5.34	-37.7	-38.6	21.8	0.00e+00	0	41	0	373293056	48	6116
2026-01-25 05:36:15.85	263.19	5.37	-37.4	-38.2	22.4	0.00e+00	0	41	0	378535936	48	5845
2026-01-25 05:36:16.86	263.33	5.40	-37.1	-37.9	22.5	0.00e+00	0	41	0	383778816	48	5666
2026-01-25 05:36:17.87	263.47	5.43	-37.4	-38.2	22.3	0.00e+00	0	41	0	390070272	48	5844
2026-01-25 05:36:18.88	263.61	5.46	-37.1	-37.9	22.7	0.00e+00	0	41	0	395313152	48	5637
2026-01-25 05:36:19.89	263.75	5.50	-37.3	-38.1	22.4	0.00e+00	0	41	0	401604608	48	5778
2026-01-25 05:36:20.89	263.89	5.53	-37.8	-38.6	21.9	0.00e+00	0	41	0	406847488	48	6158
2026-01-25 05:36:21.90	264.03	5.56	-37.7	-38.6	22.0	0.00e+00	0	41	0	412090368	48	6122
2026-01-25 05:36:22.91	264.17	5.59	-37.8	-38.7	21.9	0.00e+00	0	41	0	418381824	48	6204
2026-01-25 05:36:23.92	264.32	5.62	-37.8	-38.6	22.0	0.00e+00	0	41	0	423624704	48	6128
2026-01-25 05:36:24.93	264.46	5.65	-41.1	-43.6	4.1	0.00e+00	0	41	104	428867584	60	5462
2026-01-25 05:36:25.94	264.60	5.68	-40.6	-41.6	22.3	0.00e+00	0	41	104	428867584	50	7743
2026-01-25 05:36:26.95	264.74	5.71	-38.1	-39.0	21.9	0.00e+00	0	41	0	434110464	50	5706
2026-01-25 05:36:27.96	264.89	5.74	-37.7	-38.5	21.7	0.00e+00	0	41	0	439353344	48	6101
2026-01-25 05:36:28.97	265.03	5.77	-37.3	-38.1	22.4	0.00e+00	0	41	0	444596224	48	5787
2026-01-25 05:36:29.97	265.17	5.80	-37.3	-38.1	22.4	0.00e+00	0	41	0	450887680	48	5795
2026-01-25 05:36:30.99	265.32	5.83	-38.1	-38.9	21.8	0.00e+00	0	41	0	456130560	48	6371
2026-01-25 05:36:32.00	265.46	5.86	-38.0	-38.8	21.9	0.00e+00	0	41	0	462422016	48	6303
2026-01-25 05:36:33.01	265.61	5.89	-37.7	-38.5	22.1	0.00e+00	0	41	0	467664896	48	6087
2026-01-25 05:36:34.02	265.75	5.92	-37.4	-38.1	22.6	0.00e+00	0	41	0	473956352	48	5818
2026-01-25 05:36:35.02	265.90	5.95	-37.4	-38.3	22.4	0.00e+00	0	41	0	479199232	48	5897
2026-01-25 05:36:36.03	266.04	5.98	-37.4	-38.1	22.5	0.00e+00	0	41	0	485490688	48	5827
2026-01-25 05:36:37.04	266.19	6.01	-37.6	-38.4	22.4	0.00e+00	0	41	0	490733568	48	5987
2026-01-25 05:36:38.05	266.33	6.04	-37.4	-38.1	22.5	0.00e+00	0	41	0	495976448	48	5796
2026-01-25 05:36:39.06	266.48	6.07	-37.7	-38.5	22.2	0.00e+00	0	41	0	502267904	48	6057
2026-01-25 05:36:40.07	266.63	6.10	-37.3	-38.1	22.6	0.00e+00	0	42	0	507510784	48	5777
2026-01-25 05:36:41.08	266.77	6.13	-37.6	-38.4	22.3	0.00e+00	0	41	0	513802240	48	5978
2026-01-25 05:36:42.09	266.92	6.16	-37.6	-38.4	22.3	0.00e+00	0	41	0	519045120	48	6015
2026-01-25 05:36:43.10	267.07	6.18	-37.6	-38.4	22.2	0.00e+00	0	41	0	524288000	48	6005
2026-01-25 05:36:44.11	267.22	6.21	-37.4	-38.2	22.6	0.00e+00	0	42	0	530579456	48	5866
2026-01-25 05:36:45.12	267.36	6.24	-37.5	-38.3	22.4	0.00e+00	0	41	0	535822336	48	5938
2026-01-25 05:36:46.13	267.51	6.27	-37.0	-37.7	22.9	0.00e+00	0	41	0	542113792	48	5563
2026-01-25 05:36:47.14	267.66	6.30	-36.8	-37.6	23.0	0.00e+00	0	41	0	547356672	48	5459
2026-01-25 05:36:48.14	267.81	6.32	-37.7	-38.5	22.2	0.00e+00	0	41	0	552599552	48	6071
2026-01-25 05:36:49.15	267.96	6.35	-37.5	-38.3	22.4	0.00e+00	0	41	0	558891008	48	5918
2026-01-25 05:36:50.16	268.11	6.38	-37.1	-37.9	22.9	0.00e+00	0	41	0	564133888	48	5658
2026-01-25 05:36:51.17	268.26	6.41	-37.4	-38.1	22.6	0.00e+00	0	41	0	570425344	48	5799
2026-01-25 05:36:52.18	268.41	6.44	-36.5	-37.3	23.4	0.00e+00	0	41	0	575668224	46	5902
2026-01-25 05:36:53.19	268.56	6.46	-36.5	-37.3	23.4	0.00e+00	0	41	0	581959680	46	5911
2026-01-25 05:36:54.20	268.71	6.49	-36.9	-37.7	23.1	0.00e+00	0	41	0	587202560	46	6207
2026-01-25 05:36:55.21	268.86	6.52	-36.9	-37.7	23.0	0.00e+00	0	41	0	592445440	46	6200
2026-01-25 05:36:56.22	269.01	6.54	-36.8	-37.5	23.3	0.00e+00	0	41	0	598736896	46	6089
2026-01-25 05:36:57.23	269.16	6.57	-37.1	-37.9	22.9	0.00e+00	0	41	0	603979776	46	6370
2026-01-25 05:36:58.24	269.31	6.60	-37.1	-37.8	23.1	0.00e+00	0	41	0	610271232	46	6280
2026-01-25 05:36:59.25	269.46	6.62	-36.8	-37.6	23.4	0.00e+00	0	41	0	615514112	46	6120
2026-01-25 05:37:00.26	269.62	6.65	-36.7	-37.4	23.3	0.00e+00	0	41	0	620756992	46	5998
2026-01-25 05:37:01.27	269.77	6.68	-37.3	-38.0	22.9	0.00e+00	0	41	0	627048448	46	6435
2026-01-25 05:37:02.28	269.92	6.70	-37.1	-37.9	22.9	0.00e+00	0	41	0	632291328	46	6330
2026-01-25 05:37:03.28	270.07	6.73	-37.0	-37.8	22.9	0.00e+00	0	41	0	638582784	46	6246
2026-01-25 05:37:04.29	270.23	6.75	-37.1	-37.9	23.1	0.00e+00	0	41	0	643825664	46	6358
2026-01-25 05:37:05.30	270.38	6.78	-37.4	-38.1	22.8	0.00e+00	0	41	0	649068544	46	6503
2026-01-25 05:37:06.31	270.53	6.80	-36.7	-37.5	23.3	0.00e+00	0	41	0	655360000	46	6045
2026-01-25 05:37:07.32	270.69	6.83	-36.5	-37.3	23.5	0.00e+00	0	41	0	660602880	46	5919
2026-01-25 05:37:08.33	270.84	6.85	-36.7	-37.4	23.4	0.00e+00	0	41	0	666894336	46	5992
2026-01-25 05:37:09.34	270.99	6.88	-37.4	-38.2	22.6	0.00e+00	0	41	0	672137216	46	6588
2026-01-25 05:37:10.35	271.15	6.90	-37.0	-37.8	23.1	0.00e+00	0	41	0	678428672	46	6260
2026-01-25 05:37:11.36	271.30	6.93	-37.4	-38.2	22.7	0.00e+00	0	41	0	683671552	46	6578
2026-01-25 05:37:12.37	271.46	6.95	-37.1	-37.9	23.0	0.00e+00	0	41	0	689963008	46	6323
2026-01-25 05:37:13.38	271.62	6.98	-37.7	-38.4	22.5	0.00e+00	0	41	0	695205888	46	6754
2026-01-25 05:37:14.39	271.77	7.00	-37.2	-38.0	22.9	0.00e+00	0	41	0	700448768	46	6428
2026-01-25 05:37:15.39	271.93	7.03	-37.3	-38.1	22.8	0.00e+00	0	41	0	706740224	46	6480
2026-01-25 05:37:16.40	272.08	7.05	-37.2	-38.0	22.8	0.00e+00	0	41	0	711983104	46	6423
2026-01-25 05:37:17.41	272.24	7.07	-36.8	-37.5	23.3	0.00e+00	0	41	0	718274560	46	6098
2026-01-25 05:37:18.42	272.39	7.10	-36.9	-37.7	23.1	0.00e+00	0	41	0	723517440	46	6201
2026-01-25 05:37:19.43	272.55	7.12	-37.0	-37.7	23.1	0.00e+00	0	41	0	728760320	46	6244
2026-01-25 05:37:20.44	272.71	7.14	-36.6	-37.4	23.4	0.00e+00	0	41	0	735051776	46	5986
2026-01-25 05:37:21.45	272.87	7.17	-36.7	-37.5	23.4	0.00e+00	0	41	0	740294656	46	6046
2026-01-25 05:37:22.46	273.02	7.19	-37.2	-38.0	22.8	0.00e+00	0	41	0	745537536	46	6397
2026-01-25 05:37:23.47	273.18	7.21	-37.1	-37.9	22.9	0.00e+00	0	41	0	751828992	46	6377
2026-01-25 05:37:24.48	273.34	7.24	-37.0	-37.8	23.0	0.00e+00	0	41	0	757071872	46	6272
2026-01-25 05:37:25.48	273.50	7.26	-37.2	-37.9	22.9	0.00e+00	0	41	0	763363328	46	6356
2026-01-25 05:37:26.49	273.65	7.28	-37.6	-38.3	22.6	0.00e+00	0	41	0	768606208	46	6687
2026-01-25 05:37:27.50	273.81	7.30	-37.1	-37.9	23.0	0.00e+00	0	41	0	774897664	46	6384
2026-01-25 05:37:28.51	273.97	7.32	-37.3	-38.1	22.8	0.00e+00	0	41	0	780140544	46	6476
2026-01-25 05:37:29.52	274.13	7.35	-36.4	-37.1	23.7	0.00e+00	0	41	0	786432000	46	5797
2026-01-25 05:37:30.53	274.29	7.37	-36.6	-37.4	23.5	0.00e+00	0	41	0	791674880	46	5966
2026-01-25 05:37:31.54	274.45	7.39	-36.8	-37.6	23.3	0.00e+00	0	41	0	796917760	46	6123
2026-01-25 05:37:32.54	274.61	7.41	-37.2	-38.0	22.9	0.00e+00	0	41	0	803209216	46	6432
2026-01-25 05:37:33.56	274.77	7.43	-36.7	-37.5	23.4	0.00e+00	0	41	0	808452096	46	6066
2026-01-25 05:37:34.56	274.93	7.45	-37.0	-37.7	23.1	0.00e+00	0	41	0	814743552	46	6231
2026-01-25 05:37:35.57	275.09	7.47	-36.6	-37.3	23.5	0.00e+00	0	41	0	819986432	46	5952
2026-01-25 05:37:36.59	275.25	7.49	-36.6	-37.4	23.5	0.00e+00	0	41	0	825229312	46	5980
2026-01-25 05:37:37.60	275.41	7.51	-36.6	-37.3	23.5	0.00e+00	0	41	0	831520768	46	5933
2026-01-25 05:37:38.61	275.57	7.54	-36.7	-37.4	23.4	0.00e+00	0	41	0	836763648	46	6014
2026-01-25 05:37:39.61	275.73	7.56	-36.9	-37.7	23.2	0.00e+00	0	41	0	843055104	46	6179
2026-01-25 05:37:40.62	275.90	7.57	-36.7	-37.4	23.6	0.00e+00	0	41	0	848297984	46	6021
2026-01-25 05:37:41.63	276.06	7.59	-36.7	-37.5	23.3	0.00e+00	0	41	0	853540864	46	6053
2026-01-25 05:37:42.64	276.22	7.61	-36.8	-37.5	23.3	0.00e+00	0	41	0	859832320	46	6091
2026-01-25 05:37:43.65	276.38	7.63	-36.8	-37.6	23.3	0.00e+00	0	41	0	865075200	46	6121
2026-01-25 05:37:44.66	276.55	7.65	-36.9	-37.6	23.4	0.00e+00	0	41	0	871366656	46	6151
2026-01-25 05:37:45.67	276.71	7.67	-36.2	-37.0	23.9	0.00e+00	0	41	0	876609536	46	5728
2026-01-25 05:37:46.68	276.87	7.69	-36.3	-37.0	23.8	0.00e+00	0	41	0	882900992	46	5751
2026-01-25 05:37:47.69	277.03	7.71	-36.0	-36.7	24.1	0.00e+00	0	41	0	888143872	46	5546
2026-01-25 05:37:48.70	277.20	7.73	-36.0	-36.7	24.2	0.00e+00	0	41	0	893386752	46	5527
2026-01-25 05:37:49.71	277.36	7.75	-35.5	-36.2	24.4	0.00e+00	0	41	0	899678208	44	5889
2026-01-25 05:37:50.72	277.52	7.76	-35.3	-36.0	24.7	0.00e+00	0	41	0	904921088	44	5704
2026-01-25 05:37:51.73	277.69	7.78	-35.8	-36.4	24.3	0.00e+00	0	41	0	911212544	44	6029
2026-01-25 05:37:52.74	277.85	7.80	-35.8	-36.6	24.2	0.00e+00	0	41	0	916455424	44	6104
2026-01-25 05:37:53.75	278.02	7.82	-35.9	-36.6	24.1	0.00e+00	0	41	0	921698304	44	6149
2026-01-25 05:37:54.76	278.18	7.83	-36.0	-36.7	24.2	0.00e+00	0	41	0	927989760	44	6176
2026-01-25 05:37:55.77	278.35	7.85	-35.9	-36.6	24.2	0.00e+00	0	41	0	933232640	44	6158
2026-01-25 05:37:56.78	278.51	7.87	-35.7	-36.5	24.3	0.00e+00	0	41	0	939524096	44	6040
2026-01-25 05:37:57.79	278.68	7.89	-35.4	-36.1	24.7	0.00e+00	0	41	0	944766976	44	5820
2026-01-25 05:37:58.80	278.84	7.90	-35.6	-36.3	24.6	0.00e+00	0	41	0	950009856	44	5951
2026-01-25 05:37:59.81	279.01	7.92	-35.3	-36.0	24.7	0.00e+00	0	41	0	956301312	44	5727
2026-01-25 05:38:00.78	279.16	7.93	-35.6	-36.3	24.5	0.00e+00	0	41	0	961544192	44	5947
2026-01-25 05:38:01.79	279.33	7.95	-35.5	-36.2	24.4	0.00e+00	0	41	0	967835648	44	5891
2026-01-25 05:38:02.80	279.50	7.97	-35.8	-36.5	24.3	0.00e+00	0	41	0	973078528	44	6092
2026-01-25 05:38:03.81	279.66	7.98	-36.2	-36.9	23.9	0.00e+00	0	41	0	979369984	44	6366
2026-01-25 05:38:04.82	279.83	8.00	-36.5	-37.2	23.7	0.00e+00	0	41	0	984612864	44	6599
2026-01-25 05:38:05.83	280.00	8.01	-36.9	-37.6	23.4	0.00e+00	0	41	0	989855744	46	6155
2026-01-25 05:38:06.84	280.16	8.03	-37.1	-37.9	23.2	0.00e+00	0	41	0	996147200	46	6329
2026-01-25 05:38:07.85	280.33	8.04	-36.9	-37.7	23.3	0.00e+00	0	41	0	1001390080	46	6183
2026-01-25 05:38:08.86	280.50	8.06	-37.2	-37.9	23.2	0.00e+00	0	41	0	1006632960	46	6380
2026-01-25 05:38:09.87	280.66	8.07	-36.8	-37.5	23.5	0.00e+00	0	41	0	1012924416	46	6056
2026-01-25 05:38:10.88	280.83	8.09	-36.4	-37.1	23.8	0.00e+00	0	41	0	1018167296	46	5800
2026-01-25 05:38:11.89	281.00	8.10	-36.2	-36.9	24.0	0.00e+00	0	41	0	1024458752	46	5662
2026-01-25 05:38:12.90	281.16	8.11	-36.1	-36.8	24.1	0.00e+00	0	41	0	1029701632	46	5616
2026-01-25 05:38:13.90	281.33	8.13	-36.2	-37.0	24.0	0.00e+00	0	41	0	1034944512	46	5697
2026-01-25 05:38:14.91	281.50	8.14	-36.6	-37.3	23.6	0.00e+00	0	41	0	1041235968	46	5917
2026-01-25 05:38:15.92	281.67	8.15	-36.5	-37.3	23.7	0.00e+00	0	41	0	1046478848	46	5923
2026-01-25 05:38:16.93	281.83	8.17	-36.5	-37.2	23.7	0.00e+00	0	41	0	1052770304	46	5868
2026-01-25 05:38:17.94	282.00	8.18	-36.5	-37.3	23.7	0.00e+00	0	41	0	1058013184	46	5937
2026-01-25 05:38:18.95	282.17	8.19	-36.3	-37.0	23.9	0.00e+00	0	41	0	1064304640	46	5732
2026-01-25 05:38:19.96	282.34	8.20	-36.4	-37.2	23.8	0.00e+00	0	41	0	1069547520	46	5860
2026-01-25 05:38:20.97	282.51	8.22	-36.5	-37.3	23.7	0.00e+00	0	41	0	1075838976	46	5921
2026-01-25 05:38:21.98	282.68	8.23	-36.2	-37.0	24.0	0.00e+00	0	41	0	1081081856	46	5706
2026-01-25 05:38:22.99	282.85	8.24	-36.2	-37.0	24.0	0.00e+00	0	41	0	1086324736	46	5697
2026-01-25 05:38:24.00	283.01	8.25	-36.4	-37.1	23.9	0.00e+00	0	41	0	1092616192	46	5798
2026-01-25 05:38:25.01	283.18	8.26	-36.5	-37.3	23.9	0.00e+00	0	41	0	1097859072	46	5901
2026-01-25 05:38:26.02	283.35	8.27	-36.2	-36.9	24.1	0.00e+00	0	41	0	1104150528	46	5661
2026-01-25 05:38:27.03	283.52	8.29	-36.2	-36.8	24.0	0.00e+00	0	41	0	1109393408	46	5622
2026-01-25 05:38:28.04	283.69	8.30	-35.9	-36.6	24.2	0.00e+00	0	41	0	1114636288	46	5500
2026-01-25 05:38:29.04	283.86	8.31	-35.9	-36.6	24.3	0.00e+00	0	41	0	1120927744	46	5474
2026-01-25 05:38:30.05	284.03	8.32	-36.2	-37.0	24.0	0.00e+00	0	41	0	1126170624	46	5700
2026-01-25 05:38:31.07	284.20	8.33	-36.3	-37.0	24.0	0.00e+00	0	41	0	1132462080	46	5755
2026-01-25 05:38:32.07	284.37	8.34	-36.0	-36.7	24.2	0.00e+00	0	41	0	1137704960	46	5513
2026-01-25 05:38:33.09	284.54	8.35	-36.2	-37.0	24.0	0.00e+00	0	41	0	1142947840	46	5709
2026-01-25 05:38:34.09	284.71	8.36	-36.5	-37.2	23.8	0.00e+00	0	41	0	1149239296	46	5891
2026-01-25 05:38:35.11	284.88	8.37	-36.6	-37.3	23.6	0.00e+00	0	41	0	1154482176	46	5934
2026-01-25 05:38:36.11	285.05	8.37	-36.7	-37.5	23.6	0.00e+00	0	41	0	1160773632	46	6097
2026-01-25 05:38:37.12	285.22	8.38	-36.4	-37.2	23.9	0.00e+00	0	41	0	1166016512	46	5847
2026-01-25 05:38:38.13	285.39	8.39	-36.7	-37.5	23.6	0.00e+00	0	41	0	1172307968	46	6055
2026-01-25 05:38:39.14	285.56	8.40	-36.4	-37.1	23.9	0.00e+00	0	41	0	1177550848	46	5780
2026-01-25 05:38:40.15	285.73	8.41	-36.5	-37.3	23.7	0.00e+00	0	41	0	1182793728	46	5901
2026-01-25 05:38:41.16	285.90	8.42	-36.2	-36.9	24.1	0.00e+00	0	41	0	1189085184	46	5658
2026-01-25 05:38:42.17	286.07	8.42	-36.4	-37.1	23.8	0.00e+00	0	41	0	1194328064	46	5780
2026-01-25 05:38:43.18	286.25	8.43	-36.3	-37.1	23.9	0.00e+00	0	41	0	1200619520	46	5762
2026-01-25 05:38:44.19	286.42	8.44	-36.3	-37.1	23.8	0.00e+00	0	41	0	1205862400	46	5773
2026-01-25 05:38:45.20	286.59	8.45	-36.2	-36.9	24.0	0.00e+00	0	41	0	1211105280	46	5676
2026-01-25 05:38:46.21	286.76	8.45	-36.4	-37.2	23.8	0.00e+00	0	41	0	1217396736	46	5855
2026-01-25 05:38:47.22	286.93	8.46	-36.2	-37.0	23.9	0.00e+00	0	41	0	1222639616	46	5717
2026-01-25 05:38:48.23	287.10	8.47	-36.2	-36.9	24.0	0.00e+00	0	41	0	1228931072	46	5680
2026-01-25 05:38:49.24	287.27	8.47	-36.0	-36.8	24.2	0.00e+00	0	41	0	1234173952	46	5577
2026-01-25 05:38:50.25	287.44	8.48	-36.4	-37.1	23.8	0.00e+00	0	41	0	1239416832	46	5801
2026-01-25 05:38:51.26	287.62	8.48	-36.1	-36.8	24.1	0.00e+00	0	41	0	1245708288	46	5596
2026-01-25 05:38:52.27	287.79	8.49	-36.2	-36.9	24.1	0.00e+00	0	41	0	1250951168	46	5684
2026-01-25 05:38:53.28	287.96	8.49	-36.0	-36.6	24.2	0.00e+00	0	41	0	1257242624	46	5493
2026-01-25 05:38:54.28	288.13	8.50	-35.9	-36.6	24.2	0.00e+00	0	41	0	1262485504	46	5480
2026-01-25 05:38:55.29	288.30	8.50	-36.3	-37.0	23.9	0.00e+00	0	41	0	1268776960	46	5718
2026-01-25 05:38:56.30	288.47	8.51	-36.5	-37.2	23.7	0.00e+00	0	41	0	1274019840	46	5881
2026-01-25 05:38:57.31	288.65	8.51	-35.9	-36.7	24.2	0.00e+00	0	41	0	1279262720	46	5515
2026-01-25 05:38:58.32	288.82	8.52	-36.5	-37.2	23.8	0.00e+00	0	41	0	1285554176	46	5866
2026-01-25 05:38:59.33	288.99	8.52	-36.6	-37.4	23.6	0.00e+00	0	41	0	1290797056	46	5970
2026-01-25 05:39:00.34	289.16	8.53	-36.6	-37.4	23.7	0.00e+00	0	41	0	1297088512	46	5978
2026-01-25 05:39:01.35	289.33	8.53	-37.1	-37.9	23.2	0.00e+00	0	41	0	1302331392	46	6343
2026-01-25 05:39:02.35	289.50	8.53	-36.7	-37.5	23.4	0.00e+00	0	41	0	1307574272	46	6053
2026-01-25 05:39:03.36	289.68	8.54	-36.9	-37.6	23.4	0.00e+00	0	41	0	1313865728	46	6169
2026-01-25 05:39:04.37	289.85	8.54	-36.5	-37.2	23.8	0.00e+00	0	41	0	1319108608	46	5868
2026-01-25 05:39:05.38	290.02	8.54	-36.3	-37.1	23.8	0.00e+00	0	41	0	1325400064	46	5797
2026-01-25 05:39:06.39	290.19	8.54	-36.5	-37.2	23.8	0.00e+00	0	41	0	1330642944	46	5891
2026-01-25 05:39:07.40	290.37	8.55	-36.5	-37.2	23.8	0.00e+00	0	41	0	1335885824	46	5878
2026-01-25 05:39:08.41	290.54	8.55	-36.6	-37.4	23.6	0.00e+00	0	41	0	1342177280	46	5992
2026-01-25 05:39:09.42	290.71	8.55	-36.6	-37.3	23.6	0.00e+00	0	41	0	1347420160	46	5963
2026-01-25 05:39:10.43	290.88	8.55	-36.2	-36.9	24.0	0.00e+00	0	41	0	1353711616	46	5676
2026-01-25 05:39:11.44	291.06	8.55	-35.9	-36.6	24.2	0.00e+00	0	41	0	1358954496	46	5475
2026-01-25 05:39:12.44	291.23	8.55	-36.1	-36.9	24.0	0.00e+00	0	41	0	1365245952	46	5634
2026-01-25 05:39:13.45	291.40	8.56	-35.9	-36.6	24.4	0.00e+00	0	41	0	1370488832	46	5458
2026-01-25 05:39:14.46	291.57	8.56	-36.1	-36.8	24.1	0.00e+00	0	41	0	1375731712	46	5568
2026-01-25 05:39:15.47	291.74	8.56	-36.3	-37.0	23.9	0.00e+00	0	41	0	1382023168	46	5732
2026-01-25 05:39:16.48	291.92	8.56	-36.1	-36.9	24.1	0.00e+00	0	41	0	1387266048	46	5642
2026-01-25 05:39:17.49	292.09	8.56	-36.7	-37.4	23.6	0.00e+00	0	41	0	1393557504	46	6017
2026-01-25 05:39:18.50	292.26	8.56	-36.5	-37.2	23.9	0.00e+00	0	41	0	1398800384	46	5890
2026-01-25 05:39:19.51	292.43	8.56	-36.4	-37.1	23.9	0.00e+00	0	41	0	1404043264	46	5790
2026-01-25 05:39:20.52	292.60	8.56	-36.4	-37.1	23.8	0.00e+00	0	41	0	1410334720	46	5828
2026-01-25 05:39:21.53	292.78	8.55	-36.5	-37.2	23.7	0.00e+00	0	41	0	1415577600	46	5849
2026-01-25 05:39:22.54	292.95	8.55	-36.5	-37.3	23.7	0.00e+00	0	41	0	1421869056	46	5901
2026-01-25 05:39:23.55	293.12	8.55	-36.4	-37.1	23.9	0.00e+00	0	41	0	1427111936	46	5810
2026-01-25 05:39:24.55	293.29	8.55	-36.9	-37.7	23.4	0.00e+00	0	41	0	1432354816	46	6214
2026-01-25 05:39:25.56	293.46	8.55	-36.3	-37.1	23.8	0.00e+00	0	41	0	1438646272	46	5768
2026-01-25 05:39:26.57	293.64	8.55	-36.4	-37.1	23.8	0.00e+00	0	41	0	1443889152	46	5767
2026-01-25 05:39:27.58	293.81	8.55	-36.0	-36.7	24.1	0.00e+00	0	41	0	1450180608	46	5558
2026-01-25 05:39:28.59	293.98	8.54	-36.1	-36.8	24.0	0.00e+00	0	41	0	1455423488	46	5607
2026-01-25 05:39:29.60	294.15	8.54	-36.1	-36.9	24.0	0.00e+00	0	41	0	1461714944	46	5658
2026-01-25 05:39:30.61	294.33	8.54	-36.0	-36.8	24.1	0.00e+00	0	41	0	1466957824	46	5579
2026-01-25 05:39:31.62	294.50	8.53	-36.2	-37.0	23.9	0.00e+00	0	41	0	1473249280	46	5728
2026-01-25 05:39:32.62	294.67	8.53	-36.4	-37.2	23.8	0.00e+00	0	41	0	1478492160	46	5833
2026-01-25 05:39:33.63	294.84	8.53	-36.6	-37.3	23.8	0.00e+00	0	41	0	1483735040	46	5958
2026-01-25 05:39:34.64	295.01	8.52	-36.8	-37.5	23.3	0.00e+00	0	41	0	1490026496	46	6063
2026-01-25 05:39:35.65	295.18	8.52	-36.4	-37.1	23.7	0.00e+00	0	41	0	1495269376	46	5825
2026-01-25 05:39:36.66	295.36	8.52	-36.3	-37.0	23.8	0.00e+00	0	41	0	1501560832	46	5735
2026-01-25 05:39:37.67	295.53	8.51	-36.0	-36.7	24.1	0.00e+00	0	41	0	1506803712	46	5532
2026-01-25 05:39:38.68	295.70	8.51	-36.3	-36.9	23.9	0.00e+00	0	41	0	1512046592	46	5693
2026-01-25 05:39:39.69	295.87	8.50	-36.3	-37.0	23.9	0.00e+00	0	41	0	1518338048	46	5745
2026-01-25 05:39:40.70	296.04	8.50	-36.4	-37.0	23.8	0.00e+00	0	41	0	1523580928	46	5751
2026-01-25 05:39:41.71	296.22	8.49	-36.2	-36.9	24.0	0.00e+00	0	41	0	1528823808	46	5674
2026-01-25 05:39:42.72	296.39	8.49	-36.4	-37.0	23.9	0.00e+00	0	41	0	1535115264	46	5759
2026-01-25 05:39:43.73	296.56	8.48	-36.4	-37.1	23.8	0.00e+00	0	41	0	1540358144	46	5810
2026-01-25 05:39:44.74	296.73	8.47	-36.0	-36.7	24.2	0.00e+00	0	41	0	1546649600	46	5519
2026-01-25 05:39:45.75	296.90	8.47	-36.2	-37.0	23.9	0.00e+00	0	41	0	1551892480	46	5696
2026-01-25 05:39:46.76	297.07	8.46	-36.3	-37.0	23.9	0.00e+00	0	41	0	1558183936	46	5698
2026-01-25 05:39:47.77	297.24	8.46	-36.3	-37.0	23.9	0.00e+00	0	41	0	1563426816	46	5753
2026-01-25 05:39:48.78	297.41	8.45	-36.5	-37.3	23.6	0.00e+00	0	41	0	1569718272	46	5915
2026-01-25 05:39:49.79	297.59	8.44	-36.8	-37.5	23.5	0.00e+00	0	41	0	1574961152	46	6058
2026-01-25 05:39:50.80	297.76	8.43	-36.7	-37.4	23.5	0.00e+00	0	41	0	1580204032	46	6023
2026-01-25 05:39:51.81	297.93	8.43	-36.9	-37.6	23.4	0.00e+00	0	41	0	1586495488	46	6146
2026-01-25 05:39:52.81	298.10	8.42	-36.7	-37.5	23.5	0.00e+00	0	41	0	1591738368	46	6045
2026-01-25 05:39:53.83	298.27	8.41	-36.6	-37.3	23.6	0.00e+00	0	41	0	1598029824	46	5949
2026-01-25 05:39:54.83	298.44	8.40	-36.7	-37.4	23.5	0.00e+00	0	41	0	1603272704	46	6028
2026-01-25 05:39:55.85	298.61	8.39	-36.7	-37.4	23.5	0.00e+00	0	41	0	1608515584	46	6001
2026-01-25 05:39:56.85	298.78	8.39	-37.0	-37.8	23.2	0.00e+00	0	41	0	1614807040	46	6252
2026-01-25 05:39:57.86	298.95	8.38	-37.1	-37.9	23.1	0.00e+00	0	41	0	1620049920	46	6335
2026-01-25 05:39:58.87	299.12	8.37	-36.9	-37.7	23.2	0.00e+00	0	41	0	1626341376	46	6210
2026-01-25 05:39:59.88	299.29	8.36	-37.0	-37.7	23.3	0.00e+00	0	41	0	1631584256	46	6209
2026-01-25 05:40:00.89	299.46	8.35	-37.0	-37.7	23.2	0.00e+00	0	41	0	1636827136	46	6232
2026-01-25 05:40:01.90	299.63	8.34	-36.6	-37.4	23.5	0.00e+00	0	41	0	1643118592	46	5969
2026-01-25 05:40:02.91	299.80	8.33	-36.7	-37.5	23.4	0.00e+00	0	41	0	1648361472	46	6043
2026-01-25 05:40:03.92	299.97	8.32	-36.7	-37.4	23.4	0.00e+00	0	41	0	1654652928	46	6027
2026-01-25 05:40:04.93	300.14	8.31	-36.7	-37.4	23.5	0.00e+00	0	41	0	1659895808	46	5976
2026-01-25 05:40:05.94	300.31	8.30	-36.5	-37.2	23.6	0.00e+00	0	41	0	1666187264	46	5842
2026-01-25 05:40:06.95	300.48	8.29	-37.1	-37.9	23.0	0.00e+00	0	41	0	1671430144	46	6329
2026-01-25 05:40:07.96	300.65	8.28	-37.1	-37.9	23.0	0.00e+00	0	41	0	1676673024	46	6339
2026-01-25 05:40:08.97	300.82	8.27	-36.7	-37.4	23.5	0.00e+00	0	41	0	1682964480	46	5967
2026-01-25 05:40:09.98	300.98	8.26	-36.3	-36.9	23.8	0.00e+00	0	41	0	1688207360	46	5691
2026-01-25 05:40:10.99	301.15	8.25	-36.3	-37.1	23.8	0.00e+00	0	41	0	1694498816	46	5763
2026-01-25 05:40:12.00	301.32	8.23	-36.0	-36.8	24.0	0.00e+00	0	41	0	1699741696	46	5588
2026-01-25 05:40:13.01	301.49	8.22	-36.6	-37.3	23.5	0.00e+00	0	41	0	1704984576	46	5906
2026-01-25 05:40:14.02	301.66	8.21	-36.2	-36.9	19.8	0.00e+00	0	41	0	1711276032	46	5681
2026-01-25 05:40:15.03	301.83	8.20	-36.0	-36.9	19.4	1.03e-02	0	41	0	1716518912	46	5643
2026-01-25 05:40:16.03	301.99	8.18	-36.0	-36.9	19.2	1.09e-02	0	41	0	1722810368	46	5663
2026-01-25 05:40:17.04	302.16	8.17	-36.1	-36.9	19.6	1.05e-02	0	41	0	1728053248	46	5684
2026-01-25 05:40:18.05	302.33	8.16	-36.0	-36.9	20.5	7.67e-03	0	41	0	1733296128	46	5680
2026-01-25 05:40:19.06	302.50	8.15	-36.3	-37.1	23.8	0.00e+00	0	41	0	1739587584	46	5764
2026-01-25 05:40:20.07	302.66	8.13	-36.6	-37.4	23.4	0.00e+00	0	41	0	1744830464	46	5974
2026-01-25 05:40:21.08	302.83	8.12	-36.7	-37.5	23.4	0.00e+00	0	41	0	1751121920	46	6071
2026-01-25 05:40:22.09	303.00	8.11	-36.8	-37.6	23.2	0.00e+00	0	41	0	1756364800	46	6162
2026-01-25 05:40:23.10	303.17	8.09	-36.8	-37.6	23.4	0.00e+00	0	41	0	1762656256	46	6119
2026-01-25 05:40:24.11	303.33	8.08	-36.8	-37.6	23.3	0.00e+00	0	41	0	1767899136	46	6160
2026-01-25 05:40:25.12	303.50	8.06	-36.8	-37.5	23.4	0.00e+00	0	41	0	1774190592	46	6081
2026-01-25 05:40:26.13	303.67	8.05	-36.5	-37.2	23.6	0.00e+00	0	41	0	1779433472	46	5866
2026-01-25 05:40:27.14	303.83	8.03	-36.7	-37.4	23.5	0.00e+00	0	41	0	1784676352	46	6028
2026-01-25 05:40:28.15	304.00	8.02	-36.4	-37.1	23.8	0.00e+00	0	41	0	1790967808	46	5804
2026-01-25 05:40:29.16	304.16	8.00	-36.3	-37.0	23.8	0.00e+00	0	41	0	1796210688	46	5757
2026-01-25 05:40:30.16	304.33	7.99	-36.7	-37.5	23.5	0.00e+00	0	41	0	1802502144	46	6035
2026-01-25 05:40:31.17	304.50	7.97	-36.6	-37.3	23.6	0.00e+00	0	41	0	1807745024	46	5936
2026-01-25 05:40:32.18	304.66	7.96	-36.8	-37.5	23.3	0.00e+00	0	41	0	1812987904	46	6096
2026-01-25 05:40:33.19	304.83	7.94	-36.8	-37.6	23.4	0.00e+00	0	41	0	1819279360	46	6148
2026-01-25 05:40:34.20	304.99	7.93	-36.8	-37.6	23.4	0.00e+00	0	41	0	1824522240	46	6132
2026-01-25 05:40:35.22	305.16	7.91	-37.1	-37.9	23.1	0.00e+00	0	41	0	1830813696	46	6332
2026-01-25 05:40:36.22	305.32	7.89	-37.0	-37.7	23.3	0.00e+00	0	41	0	1836056576	46	6235
2026-01-25 05:40:37.23	305.49	7.88	-36.8	-37.4	23.5	0.00e+00	0	41	0	1841299456	46	6026
2026-01-25 05:40:38.24	305.65	7.86	-36.6	-37.4	23.5	0.00e+00	0	41	0	1847590912	46	5985
2026-01-25 05:40:39.25	305.81	7.84	-36.3	-37.0	23.8	0.00e+00	0	41	0	1852833792	46	5751
2026-01-25 05:40:40.26	305.98	7.83	-36.5	-37.2	23.6	0.00e+00	0	41	0	1859125248	46	5829
2026-01-25 05:40:41.27	306.14	7.81	-36.7	-37.4	23.4	0.00e+00	0	41	0	1864368128	46	6024
2026-01-25 05:40:42.28	306.31	7.79	-37.0	-37.8	23.2	0.00e+00	0	41	0	1870659584	46	6270
2026-01-25 05:40:43.29	306.47	7.77	-37.1	-37.8	23.2	0.00e+00	0	41	0	1875902464	46	6276
2026-01-25 05:40:44.30	306.63	7.76	-36.9	-37.7	23.2	0.00e+00	0	41	0	1881145344	46	6201
2026-01-25 05:40:45.31	306.80	7.74	-37.1	-37.8	23.2	0.00e+00	0	41	0	1887436800	46	6279
2026-01-25 05:40:46.32	306.96	7.72	-37.1	-37.9	22.9	0.00e+00	0	41	0	1892679680	46	6382
2026-01-25 05:40:47.32	307.12	7.70	-37.0	-37.7	23.2	0.00e+00	0	41	0	1898971136	46	6191
2026-01-25 05:40:48.34	307.28	7.68	-36.6	-37.4	23.5	0.00e+00	0	41	0	1904214016	46	5968
2026-01-25 05:40:49.35	307.45	7.66	-37.0	-37.7	23.1	0.00e+00	0	41	0	1909456896	46	6178
2026-01-25 05:40:50.36	307.61	7.64	-36.9	-37.7	23.2	0.00e+00	0	41	0	1915748352	46	6174
2026-01-25 05:40:51.37	307.77	7.62	-36.9	-37.8	23.3	0.00e+00	0	41	0	1920991232	46	6260
2026-01-25 05:40:52.38	307.93	7.61	-37.1	-37.8	22.9	0.00e+00	0	41	0	1927282688	46	6317
2026-01-25 05:40:53.39	308.09	7.59	-37.5	-38.3	22.7	0.00e+00	0	41	0	1932525568	46	6616
2026-01-25 05:40:54.39	308.25	7.57	-37.4	-38.2	22.8	0.00e+00	0	41	0	1937768448	46	6553
2026-01-25 05:40:55.40	308.42	7.55	-36.9	-37.6	23.1	0.00e+00	0	41	0	1944059904	46	6145
2026-01-25 05:40:56.41	308.58	7.53	-36.9	-37.8	23.2	0.00e+00	0	41	0	1949302784	46	6246
2026-01-25 05:40:57.42	308.74	7.51	-36.7	-37.5	23.4	0.00e+00	0	41	0	1955594240	46	6074
2026-01-25 05:40:58.43	308.90	7.49	-36.2	-36.9	23.8	0.00e+00	0	41	0	1960837120	46	5659
2026-01-25 05:40:59.44	309.06	7.46	-37.0	-37.8	23.1	0.00e+00	0	41	0	1967128576	46	6252
2026-01-25 05:41:00.45	309.22	7.44	-37.2	-37.9	23.0	0.00e+00	0	41	0	1972371456	46	6390
2026-01-25 05:41:01.46	309.38	7.42	-36.5	-37.2	23.7	0.00e+00	0	41	0	1977614336	46	5859
2026-01-25 05:41:02.47	309.54	7.40	-36.1	-36.9	23.9	0.00e+00	0	41	0	1983905792	46	5662
2026-01-25 05:41:03.48	309.70	7.38	-36.9	-37.7	23.2	0.00e+00	0	41	0	1989148672	46	6177
2026-01-25 05:41:04.48	309.85	7.36	-36.7	-37.4	23.4	0.00e+00	0	41	0	1995440128	46	6011
2026-01-25 05:41:05.49	310.01	7.34	-36.3	-37.0	23.5	0.00e+00	0	41	0	2000683008	46	5735
2026-01-25 05:41:06.50	310.17	7.32	-37.3	-38.1	22.6	0.00e+00	0	41	0	2005925888	46	6492
2026-01-25 05:41:07.51	310.33	7.29	-37.7	-38.5	22.5	0.00e+00	0	41	0	2012217344	48	6068
2026-01-25 05:41:08.52	310.49	7.27	-36.9	-37.7	23.2	0.00e+00	0	41	0	2017460224	48	5563
2026-01-25 05:41:09.53	310.65	7.25	-37.0	-37.7	23.1	0.00e+00	0	41	0	2023751680	48	5544
2026-01-25 05:41:10.54	310.80	7.23	-36.2	-36.9	23.8	0.00e+00	0	41	0	2028994560	46	5668
2026-01-25 05:41:11.55	310.96	7.20	-36.1	-36.9	23.9	0.00e+00	0	41	0	2034237440	46	5632
2026-01-25 05:41:12.56	311.12	7.18	-36.8	-37.6	23.3	0.00e+00	0	41	0	2040528896	46	6137
2026-01-25 05:41:13.57	311.27	7.16	-36.7	-37.5	23.2	0.00e+00	0	41	0	2045771776	46	6054
2026-01-25 05:41:14.58	311.43	7.14	-36.5	-37.2	23.4	0.00e+00	0	41	0	2052063232	46	5880
2026-01-25 05:41:15.59	311.59	7.11	-36.8	-37.6	23.1	0.00e+00	0	41	0	2057306112	46	6130
2026-01-25 05:41:16.60	311.74	7.09	-37.9	-38.7	22.0	0.00e+00	0	41	0	2063597568	48	6209
2026-01-25 05:41:17.61	311.90	7.07	-37.5	-38.4	22.6	0.00e+00	0	41	0	2068840448	48	5974
2026-01-25 05:41:18.62	312.06	7.04	-37.6	-38.5	22.4	0.00e+00	0	41	0	2075131904	48	6036
2026-01-25 05:41:19.63	312.21	7.02	-37.1	-37.9	23.0	0.00e+00	0	41	0	2080374784	48	5690
2026-01-25 05:41:20.63	312.37	6.99	-37.2	-38.0	22.8	0.00e+00	0	41	0	2085617664	48	5704
2026-01-25 05:41:21.64	312.52	6.97	-37.5	-38.2	22.6	0.00e+00	0	41	0	2091909120	48	5888
2026-01-25 05:41:22.65	312.67	6.95	-37.5	-38.3	22.5	0.00e+00	0	41	0	2097152000	48	5935
2026-01-25 05:41:23.66	312.83	6.92	-36.8	-37.6	23.1	0.00e+00	0	41	0	2103443456	46	6135
2026-01-25 05:41:24.67	312.98	6.90	-37.4	-38.2	22.6	0.00e+00	0	41	0	2108686336	46	6567
2026-01-25 05:41:25.68	313.14	6.87	-37.3	-38.0	22.7	0.00e+00	0	41	0	2113929216	46	6408
2026-01-25 05:41:26.69	313.29	6.85	-37.4	-38.1	22.7	0.00e+00	0	41	0	2120220672	46	6516
2026-01-25 05:41:27.70	313.44	6.82	-36.9	-37.6	23.2	0.00e+00	0	41	0	2125463552	46	6164
2026-01-25 05:41:28.71	313.60	6.80	-36.9	-37.6	23.0	0.00e+00	0	41	0	2131755008	46	6142
2026-01-25 05:41:29.72	313.75	6.77	-37.5	-38.3	22.5	0.00e+00	0	41	0	2136997888	46	6678
2026-01-25 05:41:30.73	313.90	6.75	-38.0	-38.8	21.9	0.00e+00	0	41	0	2142240768	48	6283
2026-01-25 05:41:31.74	314.06	6.72	-37.6	-38.4	22.3	0.00e+00	0	41	0	2148532224	48	6000
2026-01-25 05:41:32.75	314.21	6.69	-37.6	-38.3	22.4	0.00e+00	0	41	0	2153775104	48	5958
2026-01-25 05:41:33.76	314.36	6.67	-37.0	-37.9	23.0	0.00e+00	0	41	0	2160066560	48	5633
2026-01-25 05:41:34.77	314.51	6.64	-36.9	-37.7	23.2	0.00e+00	0	41	0	2165309440	48	5511
2026-01-25 05:41:35.78	314.66	6.62	-37.8	-38.5	22.0	0.00e+00	0	41	0	2171600896	48	6095
2026-01-25 05:41:36.79	314.81	6.59	-38.0	-38.8	22.0	0.00e+00	0	41	0	2176843776	48	6262
2026-01-25 05:41:37.80	314.97	6.56	-36.9	-37.6	22.9	0.00e+00	0	41	0	2182086656	46	6150
2026-01-25 05:41:38.81	315.12	6.54	-37.5	-38.3	22.5	0.00e+00	0	41	0	2188378112	46	6682
2026-01-25 05:41:39.82	315.27	6.51	-36.9	-37.7	23.0	0.00e+00	0	41	0	2193620992	46	6203
2026-01-25 05:41:40.83	315.42	6.48	-36.6	-37.4	23.3	0.00e+00	0	41	0	2199912448	46	6000
2026-01-25 05:41:41.84	315.57	6.46	-36.7	-37.5	23.1	0.00e+00	0	41	0	2205155328	46	6061
2026-01-25 05:41:42.85	315.72	6.43	-37.1	-37.9	22.8	0.00e+00	0	41	0	2210398208	46	6328
2026-01-25 05:41:43.86	315.87	6.40	-37.2	-37.9	22.7	0.00e+00	0	41	0	2216689664	46	6387
2026-01-25 05:41:44.87	316.01	6.37	-37.2	-38.0	22.7	0.00e+00	0	41	0	2221932544	46	6401
2026-01-25 05:41:45.88	316.16	6.35	-37.8	-38.6	22.1	0.00e+00	0	41	0	2228224000	46	6885
2026-01-25 05:41:46.88	316.31	6.32	-37.1	-37.8	22.8	0.00e+00	0	41	0	2233466880	48	5612
2026-01-25 05:41:47.89	316.46	6.29	-37.7	-38.5	22.2	0.00e+00	0	41	0	2238709760	48	6076
2026-01-25 05:41:48.90	316.61	6.26	-36.9	-37.6	23.0	0.00e+00	0	41	0	2245001216	48	5463
2026-01-25 05:41:49.91	316.75	6.23	-38.2	-38.9	21.8	0.00e+00	0	41	0	2250244096	48	6381
2026-01-25 05:41:50.92	316.90	6.21	-37.2	-38.0	22.7	0.00e+00	0	41	0	2256535552	48	5710
2026-01-25 05:41:51.93	317.05	6.18	-38.4	-39.2	21.7	0.00e+00	0	41	0	2261778432	48	6604
2026-01-25 05:41:52.94	317.19	6.15	-37.0	-37.7	22.8	0.00e+00	0	41	0	2268069888	48	5551
2026-01-25 05:41:53.95	317.34	6.12	-37.4	-38.2	22.7	0.00e+00	0	41	0	2273312768	48	5871
2026-01-25 05:41:54.96	317.49	6.09	-37.6	-38.4	22.2	0.00e+00	0	41	0	2278555648	48	6010
2026-01-25 05:41:55.97	317.63	6.06	-36.5	-37.2	23.4	0.00e+00	0	41	0	2284847104	48	5204
2026-01-25 05:41:56.98	317.78	6.03	-38.3	-39.1	21.5	0.00e+00	0	41	0	2290089984	48	6526
2026-01-25 05:41:57.99	317.92	6.01	-38.3	-39.2	21.6	0.00e+00	0	41	0	2296381440	48	6563
2026-01-25 05:41:59.00	318.07	5.98	-37.3	-38.0	22.7	0.00e+00	0	41	0	2301624320	48	5736
2026-01-25 05:42:00.01	318.21	5.95	-37.1	-37.8	22.8	0.00e+00	0	41	0	2306867200	48	5624
2026-01-25 05:42:01.02	318.36	5.92	-38.6	-39.5	21.2	0.00e+00	0	41	0	2313158656	48	6839
2026-01-25 05:42:02.03	318.50	5.89	-38.7	-39.6	21.3	0.00e+00	0	41	0	2318401536	50	6157
2026-01-25 05:42:03.04	318.65	5.86	-37.5	-38.2	22.3	0.00e+00	0	41	0	2324692992	48	5855
2026-01-25 05:42:04.04	318.79	5.83	-38.1	-38.9	21.9	0.00e+00	0	41	0	2329935872	48	6342
2026-01-25 05:42:05.05	318.93	5.80	-38.6	-39.4	21.1	0.00e+00	0	41	0	2335178752	48	6765
2026-01-25 05:42:06.06	319.08	5.77	-37.5	-38.3	22.5	0.00e+00	0	41	0	2341470208	48	5945
2026-01-25 05:42:07.07	319.22	5.74	-36.4	-37.1	23.3	0.00e+00	0	41	0	2346713088	46	5813
2026-01-25 05:42:08.08	319.36	5.71	-37.6	-38.5	22.1	0.00e+00	0	41	0	2353004544	46	6800
2026-01-25 05:42:09.09	319.50	5.68	-39.6	-40.5	20.1	0.00e+00	0	41	0	2358247424	50	6770
2026-01-25 05:42:10.10	319.65	5.65	-39.4	-40.3	20.4	0.00e+00	0	41	0	2364538880	52	5963
2026-01-25 05:42:11.11	319.79	5.62	-38.6	-39.4	21.4	0.00e+00	0	41	0	2369781760	52	5334
2026-01-25 05:42:12.12	319.93	5.59	-37.0	-37.8	22.7	0.00e+00	0	41	0	2376073216	48	5568
2026-01-25 05:42:13.13	320.07	5.56	-37.4	-38.1	22.4	0.00e+00	0	41	0	2381316096	48	5827
2026-01-25 05:42:14.14	320.21	5.52	-37.6	-38.4	22.0	0.00e+00	0	41	0	2386558976	48	5988
2026-01-25 05:42:15.15	320.35	5.49	-39.0	-39.9	21.3	0.00e+00	0	41	0	2392850432	50	6337
2026-01-25 05:42:16.16	320.49	5.46	-38.2	-39.0	21.2	0.00e+00	0	41	0	2398093312	50	5722
2026-01-25 05:42:17.17	320.63	5.43	-38.9	-39.8	20.8	0.00e+00	0	41	0	2404384768	50	6253
2026-01-25 05:42:18.18	320.77	5.40	-38.0	-38.9	21.6	0.00e+00	0	41	0	2409627648	50	5661
2026-01-25 05:42:19.19	320.91	5.37	-37.7	-38.5	22.1	0.00e+00	0	41	0	2414870528	48	6076
2026-01-25 05:42:20.20	321.05	5.34	-38.8	-39.6	21.1	0.00e+00	0	41	0	2421161984	50	6157
2026-01-25 05:42:21.21	321.19	5.31	-40.2	-41.3	19.3	0.00e+00	0	41	0	2426404864	52	6625
2026-01-25 05:42:22.22	321.33	5.27	-39.2	-40.1	20.8	0.00e+00	0	41	0	2432696320	52	5782
2026-01-25 05:42:23.23	321.47	5.24	-37.9	-38.7	21.9	0.00e+00	0	41	0	2437939200	50	5519
2026-01-25 05:42:24.24	321.60	5.21	-38.6	-39.5	21.3	0.00e+00	0	41	0	2443182080	50	6067
2026-01-25 05:42:25.25	321.74	5.18	-37.6	-38.5	22.3	0.00e+00	0	41	0	2449473536	48	6040
2026-01-25 05:42:26.26	321.88	5.15	-36.7	-37.4	22.9	0.00e+00	0	41	0	2454716416	46	6031
2026-01-25 05:42:27.27	322.02	5.11	-38.9	-39.8	21.4	0.00e+00	0	41	0	2461007872	50	6279
2026-01-25 05:42:28.28	322.15	5.08	-37.9	-38.8	21.9	0.00e+00	0	41	0	2466250752	48	6266
2026-01-25 05:42:29.28	322.29	5.05	-37.2	-38.0	22.5	0.00e+00	0	41	0	2472542208	48	5738
2026-01-25 05:42:30.29	322.42	5.02	-37.3	-38.0	21.9	0.00e+00	0	41	0	2477785088	48	5756
2026-01-25 05:42:31.30	322.56	4.99	-38.7	-39.5	21.0	0.00e+00	0	41	0	2483027968	50	6059
2026-01-25 05:42:32.31	322.69	4.95	-37.2	-38.0	22.6	0.00e+00	0	41	0	2489319424	48	5730
2026-01-25 05:42:33.32	322.83	4.92	-37.8	-38.7	21.8	0.00e+00	0	41	0	2494562304	48	6188
2026-01-25 05:42:34.33	322.97	4.89	-39.3	-40.2	20.7	0.00e+00	0	41	0	2500853760	52	5842
2026-01-25 05:42:35.34	323.10	4.85	-38.9	-39.7	21.1	0.00e+00	0	41	0	2506096640	50	6219
2026-01-25 05:42:36.35	323.23	4.82	-36.8	-37.6	23.0	0.00e+00	0	41	0	2511339520	48	5494
2026-01-25 05:42:37.36	323.37	4.79	-37.4	-38.2	22.2	0.00e+00	0	41	0	2517630976	46	6576
2026-01-25 05:42:38.37	323.50	4.75	-37.8	-38.7	21.6	0.00e+00	0	41	0	2522873856	48	6208
2026-01-25 05:42:39.38	323.64	4.72	-37.4	-38.2	22.4	0.00e+00	0	41	0	2529165312	48	5836
2026-01-25 05:42:40.39	323.77	4.69	-37.5	-38.3	22.4	0.00e+00	0	41	0	2534408192	48	5948
2026-01-25 05:42:41.40	323.90	4.65	-37.7	-38.5	21.9	0.00e+00	0	41	0	2539651072	46	6839
2026-01-25 05:42:42.41	324.03	4.62	-38.6	-39.5	21.4	0.00e+00	0	41	0	2545942528	48	6790
2026-01-25 05:42:43.42	324.17	4.59	-37.5	-38.3	22.2	0.00e+00	0	41	0	2551185408	48	5912
2026-01-25 05:42:44.43	324.30	4.55	-38.1	-38.9	21.7	0.00e+00	0	41	0	2557476864	48	6390
2026-01-25 05:42:45.44	324.43	4.52	-37.2	-38.0	23.0	0.00e+00	0	41	0	2562719744	48	5711
2026-01-25 05:42:46.45	324.56	4.49	-38.0	-38.9	21.6	0.00e+00	0	41	0	2569011200	46	7144
2026-01-25 05:42:47.46	324.69	4.45	-37.2	-38.0	22.7	0.00e+00	0	41	0	2574254080	48	5754
2026-01-25 05:42:48.47	324.82	4.42	-37.3	-38.1	22.3	0.00e+00	0	41	0	2580545536	46	6476
2026-01-25 05:42:49.48	324.96	4.38	-37.8	-38.6	21.9	0.00e+00	0	41	0	2585788416	48	6147
2026-01-25 05:42:50.49	325.09	4.35	-38.7	-39.7	21.0	0.00e+00	0	41	0	2591031296	50	6184
2026-01-25 05:42:51.50	325.22	4.32	-37.6	-38.5	22.1	0.00e+00	0	41	0	2597322752	50	5409
2026-01-25 05:42:52.51	325.35	4.28	-37.4	-38.3	22.0	0.00e+00	0	41	0	2602565632	48	5907
2026-01-25 05:42:53.52	325.47	4.25	-39.7	-40.7	20.1	0.00e+00	0	41	0	2608857088	50	7003
2026-01-25 05:42:54.53	325.60	4.21	-39.4	-40.3	20.2	0.00e+00	0	41	0	2614099968	50	6664
2026-01-25 05:42:55.54	325.73	4.18	-39.3	-40.3	20.2	0.00e+00	0	41	0	2619342848	52	5902
2026-01-25 05:42:56.55	325.86	4.14	-36.9	-37.7	22.7	0.00e+00	0	41	0	2625634304	48	5506
2026-01-25 05:42:57.56	325.99	4.11	-37.7	-38.4	21.4	0.00e+00	0	41	0	2630877184	46	6763
2026-01-25 05:42:58.57	326.12	4.07	-38.6	-39.5	20.8	0.00e+00	0	41	0	2637168640	50	6047
2026-01-25 05:42:59.58	326.25	4.04	-36.7	-37.4	22.6	0.00e+00	0	41	0	2642411520	46	6013
2026-01-25 05:43:00.59	326.37	4.01	-38.4	-39.3	21.2	0.00e+00	0	41	0	2647654400	48	6669
2026-01-25 05:43:01.60	326.50	3.97	-38.0	-38.9	21.5	0.00e+00	0	41	0	2653945856	48	6343
2026-01-25 05:43:02.61	326.63	3.94	-38.2	-39.0	21.3	0.00e+00	0	41	0	2659188736	48	6429
2026-01-25 05:43:03.62	326.75	3.90	-38.1	-39.0	21.6	0.00e+00	0	41	0	2665480192	48	6431
2026-01-25 05:43:04.63	326.88	3.87	-38.3	-39.2	21.4	0.00e+00	0	41	0	2670723072	48	6548
2026-01-25 05:43:05.64	327.01	3.83	-36.6	-37.4	23.1	0.00e+00	0	41	0	2677014528	48	5363
2026-01-25 05:43:06.65	327.13	3.79	-37.6	-38.5	22.0	0.00e+00	0	41	0	2682257408	46	6806
2026-01-25 05:43:07.66	327.26	3.76	-38.0	-38.7	21.4	0.00e+00	0	41	0	2687500288	48	6241
2026-01-25 05:43:08.67	327.38	3.72	-38.4	-39.2	21.2	0.00e+00	0	41	0	2693791744	50	5881
2026-01-25 05:43:09.68	327.51	3.69	-38.0	-38.9	21.6	0.00e+00	0	41	0	2699034624	50	5682
2026-01-25 05:43:10.69	327.63	3.65	-38.7	-39.6	20.7	0.00e+00	0	41	0	2705326080	50	6165
2026-01-25 05:43:11.70	327.76	3.62	-39.1	-40.0	20.4	0.00e+00	0	41	0	2710568960	50	6463
2026-01-25 05:43:12.71	327.88	3.58	-37.7	-38.5	21.8	0.00e+00	0	41	0	2715811840	50	5405
2026-01-25 05:43:13.72	328.00	3.55	-37.4	-38.3	21.7	0.00e+00	0	41	0	2722103296	48	5920
2026-01-25 05:43:14.72	328.13	3.51	-38.0	-38.8	21.2	0.00e+00	0	41	0	2727346176	48	6306
2026-01-25 05:43:15.73	328.25	3.48	-38.8	-39.7	20.4	0.00e+00	0	41	0	2733637632	48	6965
2026-01-25 05:43:16.74	328.37	3.44	-38.9	-39.7	20.7	0.00e+00	0	41	0	2738880512	50	6242
2026-01-25 05:43:17.75	328.49	3.40	-38.1	-39.0	21.3	0.00e+00	0	41	0	2744123392	50	5724
2026-01-25 05:43:18.76	328.62	3.37	-38.0	-38.8	21.2	0.00e+00	0	41	0	2750414848	48	6268
2026-01-25 05:43:19.77	328.74	3.33	-38.2	-39.1	20.9	0.00e+00	0	41	0	2755657728	48	6532
2026-01-25 05:43:20.78	328.86	3.30	-38.9	-39.8	20.4	0.00e+00	0	41	0	2761949184	50	6288
2026-01-25 05:43:21.79	328.98	3.26	-38.5	-39.3	20.5	0.00e+00	0	41	0	2767192064	50	5964
2026-01-25 05:43:22.80	329.10	3.22	-39.2	-40.1	19.6	0.00e+00	0	41	0	2773483520	50	6527
2026-01-25 05:43:23.81	329.22	3.19	-39.1	-40.0	19.8	0.00e+00	0	41	0	2778726400	52	5727
2026-01-25 05:43:24.82	329.34	3.15	-39.2	-40.2	19.5	0.00e+00	0	41	0	2785017856	50	6554
2026-01-25 05:43:25.83	329.46	3.11	-40.1	-41.3	18.3	0.00e+00	0	41	0	2790260736	52	6666
2026-01-25 05:43:26.84	329.58	3.08	-40.6	-41.7	17.7	0.00e+00	0	41	0	2795503616	52	6997
2026-01-25 05:43:27.85	329.70	3.04	-39.9	-41.0	18.1	0.00e+00	0	41	0	2801795072	52	6456
2026-01-25 05:43:28.86	329.82	3.00	-49.4	-61.3	3.6	5.56e-01	0	41	104	2804940800	60	42127
2026-01-25 05:43:29.87	329.94	2.97	-49.7	-61.8	3.6	8.45e-01	0	41	104	2804940800	60	44562
2026-01-25 05:43:30.88	330.06	2.93	-50.1	-62.2	3.6	8.45e-01	0	41	104	2804940800	60	46510
2026-01-25 05:43:31.89	330.18	2.90	-50.3	-62.5	3.6	8.45e-01	0	41	104	2804940800	60	47968
2026-01-25 05:43:32.90	330.30	2.86	-50.5	-62.6	3.6	8.46e-01	0	41	104	2804940800	60	48709
2026-01-25 05:43:33.91	330.41	2.82	-50.6	-62.7	3.6	8.46e-01	0	41	104	2804940800	60	49219
2026-01-25 05:43:34.92	330.53	2.78	-50.6	-62.7	3.6	8.45e-01	0	41	104	2804940800	60	49529
2026-01-25 05:43:35.93	330.65	2.75	-50.7	-62.8	3.6	8.46e-01	0	41	104	2804940800	60	49823
2026-01-25 05:43:36.94	330.77	2.71	-50.7	-62.8	3.6	8.46e-01	0	41	104	2804940800	60	49907
2026-01-25 05:43:37.95	330.88	2.67	-50.8	-62.9	3.6	8.46e-01	0	41	104	2804940800	60	50407
2026-01-25 05:43:38.96	331.00	2.64	-50.8	-62.9	3.6	8.46e-01	0	41	104	2804940800	60	50633
2026-01-25 05:43:39.97	331.12	2.60	-50.8	-62.9	3.6	8.45e-01	0	41	104	2804940800	60	50348
2026-01-25 05:43:40.98	331.23	2.56	-50.8	-62.9	3.6	8.45e-01	0	41	104	2804940800	60	50224
2026-01-25 05:43:41.99	331.35	2.53	-50.8	-62.9	3.6	8.45e-01	0	41	104	2804940800	60	50255
2026-01-25 05:43:43.00	331.46	2.49	-50.7	-62.9	3.6	8.45e-01	0	41	104	2804940800	60	50211
2026-01-25 05:43:44.01	331.58	2.45	-50.5	-62.8	3.6	8.45e-01	0	41	104	2804940800	60	49771
2026-01-25 05:43:45.02	331.69	2.41	-50.4	-62.8	3.6	8.45e-01	0	41	104	2804940800	60	49956
2026-01-25 05:43:46.03	331.81	2.38	-50.6	-62.8	3.6	8.44e-01	0	41	104	2804940800	60	49972
2026-01-25 05:43:47.04	331.92	2.34	-50.7	-62.8	3.6	8.45e-01	0	41	104	2804940800	60	49849
2026-01-25 05:43:48.05	332.04	2.30	-50.6	-62.7	3.6	8.46e-01	0	41	104	2804940800	60	49609
2026-01-25 05:43:49.06	332.15	2.27	-50.7	-62.8	3.6	8.46e-01	0	41	104	2804940800	60	49809
2026-01-25 05:43:50.07	332.26	2.23	-50.6	-62.8	3.6	8.45e-01	0	41	104	2804940800	60	49622
2026-01-25 05:43:51.08	332.38	2.19	-50.6	-62.8	3.6	8.45e-01	0	41	104	2804940800	60	49687
2026-01-25 05:43:52.09	332.49	2.15	-50.7	-62.8	3.6	8.45e-01	0	41	104	2804940800	60	49899
2026-01-25 05:43:53.10	332.60	2.12	-50.7	-62.8	3.6	8.46e-01	0	41	104	2804940800	60	49846
2026-01-25 05:43:54.11	332.72	2.08	-50.7	-62.8	3.6	8.45e-01	0	41	104	2804940800	60	49834
2026-01-25 05:43:55.12	332.83	2.04	-50.7	-62.8	3.6	8.45e-01	0	41	104	2804940800	60	49655
2026-01-25 05:43:56.13	332.94	2.00	-50.7	-62.7	3.6	8.45e-01	0	41	104	2804940800	60	49583
2026-01-25 05:43:57.14	333.05	1.97	-50.7	-62.8	3.6	8.46e-01	0	41	104	2804940800	60	50165
2026-01-25 05:43:58.15	333.16	1.93	-50.7	-62.8	3.6	8.44e-01	0	41	104	2804940800	60	49954
2026-01-25 05:43:59.16	333.27	1.89	-50.7	-62.8	3.6	8.46e-01	0	41	104	2804940800	60	49676
2026-01-25 05:44:00.17	333.38	1.85	-50.7	-62.8	3.6	8.45e-01	0	41	104	2804940800	60	49788
2026-01-25 05:44:01.18	333.49	1.81	-50.7	-62.8	3.5	8.44e-01	0	41	104	2804940800	60	50007
2026-01-25 05:44:02.18	333.60	1.78	-50.7	-62.8	3.6	8.45e-01	0	41	104	2804940800	60	49969
2026-01-25 05:44:03.19	333.71	1.74	-50.7	-62.8	3.6	8.46e-01	0	41	104	2804940800	60	49829
2026-01-25 05:44:04.20	333.82	1.70	-50.7	-62.8	3.6	8.45e-01	0	42	104	2804940800	60	49963
2026-01-25 05:44:05.22	333.93	1.66	-50.7	-62.8	3.6	8.45e-01	0	41	104	2804940800	60	49896
2026-01-25 05:44:06.22	334.04	1.62	-50.7	-62.8	3.6	8.46e-01	0	42	104	2804940800	60	49980
2026-01-25 05:44:07.23	334.15	1.59	-50.7	-62.8	3.6	8.45e-01	0	41	104	2804940800	60	49844
2026-01-25 05:44:08.24	334.26	1.55	-50.7	-62.8	3.6	8.45e-01	0	41	104	2804940800	60	49820
2026-01-25 05:44:09.25	334.37	1.51	-50.7	-62.8	3.6	8.45e-01	0	41	104	2804940800	60	49703
2026-01-25 05:44:10.26	334.48	1.47	-50.7	-62.8	3.6	8.45e-01	0	41	104	2804940800	60	49938
2026-01-25 05:44:11.27	334.58	1.43	-50.7	-62.8	3.6	8.44e-01	0	41	104	2804940800	60	49849
2026-01-25 05:44:12.28	334.69	1.40	-50.7	-62.8	3.6	8.45e-01	0	41	104	2804940800	60	49698
2026-01-25 05:44:13.29	334.80	1.36	-50.7	-62.8	3.6	8.45e-01	0	41	104	2804940800	60	49994
2026-01-25 05:44:14.30	334.91	1.32	-50.7	-62.8	3.6	8.45e-01	0	41	104	2804940800	60	50089
2026-01-25 05:44:15.31	335.01	1.28	-50.7	-62.8	3.6	8.45e-01	0	42	104	2804940800	60	49814
2026-01-25 05:44:16.32	335.12	1.24	-50.7	-62.8	3.6	8.45e-01	0	42	104	2804940800	60	49795
2026-01-25 05:44:17.33	335.23	1.21	-50.7	-62.8	3.5	8.45e-01	0	41	104	2804940800	60	49864
2026-01-25 05:44:18.33	335.33	1.17	-50.7	-62.8	3.6	8.44e-01	0	42	104	2804940800	60	50007
2026-01-25 05:44:19.35	335.44	1.13	-50.7	-62.8	3.6	8.45e-01	0	41	104	2804940800	60	49742
2026-01-25 05:44:20.36	335.54	1.09	-50.7	-62.8	3.6	8.44e-01	0	41	104	2804940800	60	49861
2026-01-25 05:44:21.36	335.65	1.05	-50.7	-62.8	3.6	8.45e-01	0	41	104	2804940800	60	49843
2026-01-25 05:44:22.37	335.75	1.01	-50.7	-62.8	3.6	8.47e-01	0	41	104	2804940800	60	49995
2026-01-25 05:44:23.38	335.86	0.98	-50.7	-62.8	3.6	8.45e-01	0	42	104	2804940800	60	50015
2026-01-25 05:44:24.39	335.96	0.94	-50.7	-62.8	3.6	8.45e-01	0	41	104	2804940800	60	50172
2026-01-25 05:44:25.40	336.07	0.90	-50.7	-62.8	3.6	8.44e-01	0	41	104	2804940800	60	50134
2026-01-25 05:44:26.41	336.17	0.86	-50.7	-62.8	3.6	8.45e-01	0	41	104	2804940800	60	49689
2026-01-25 05:44:27.42	336.27	0.82	-50.7	-62.8	3.6	8.45e-01	0	41	104	2804940800	60	49662
2026-01-25 05:44:28.43	336.38	0.78	-50.7	-62.8	3.6	8.46e-01	0	41	104	2804940800	60	50127
2026-01-25 05:44:29.44	336.48	0.74	-50.7	-62.8	3.6	8.45e-01	0	42	104	2804940800	60	49858
2026-01-25 05:44:30.45	336.58	0.71	-50.7	-62.8	3.6	8.44e-01	0	41	104	2804940800	60	49701
2026-01-25 05:44:31.46	336.69	0.67	-50.7	-62.8	3.6	8.45e-01	0	41	104	2804940800	60	49727
2026-01-25 05:44:32.47	336.79	0.63	-50.7	-62.8	3.6	8.46e-01	0	41	104	2804940800	60	49731
2026-01-25 05:44:33.48	336.89	0.59	-50.7	-62.8	3.6	8.45e-01	0	41	104	2804940800	60	49841
2026-01-25 05:44:34.49	336.99	0.55	-50.7	-62.8	3.6	8.46e-01	0	41	104	2804940800	60	49885
2026-01-25 05:44:35.50	337.09	0.51	-50.7	-62.8	3.6	8.45e-01	0	41	104	2804940800	60	49826
2026-01-25 05:44:36.51	337.20	0.47	-50.7	-62.8	3.6	8.45e-01	0	41	104	2804940800	60	49787
2026-01-25 05:44:37.52	337.30	0.44	-50.7	-62.8	3.6	8.45e-01	0	41	104	2804940800	60	49901
2026-01-25 05:44:38.53	337.40	0.40	-50.7	-62.8	3.6	8.45e-01	0	41	104	2804940800	60	49893
2026-01-25 05:44:39.54	337.50	0.36	-50.7	-62.8	3.6	8.45e-01	0	42	104	2804940800	60	49899
2026-01-25 05:44:40.55	337.60	0.32	-50.7	-62.8	3.6	8.46e-01	0	41	104	2804940800	60	50046
2026-01-25 05:44:41.56	337.70	0.28	-50.7	-62.8	3.6	8.45e-01	0	41	104	2804940800	60	49886
2026-01-25 05:44:42.57	337.80	0.24	-50.7	-62.8	3.6	8.45e-01	0	41	104	2804940800	60	49956
2026-01-25 05:44:43.59	337.90	0.20	-50.7	-62.8	3.6	8.44e-01	0	41	104	2804940800	60	49919
2026-01-25 05:44:44.60	338.00	0.16	-50.7	-62.8	3.6	8.45e-01	0	41	104	2804940800	60	50103
2026-01-25 05:44:45.60	338.10	0.13	-50.7	-62.8	3.6	8.45e-01	0	41	104	2804940800	60	50061
2026-01-25 05:44:46.62	338.20	0.09	-50.7	-62.8	3.6	8.45e-01	0	41	104	2804940800	60	49855
2026-01-25 05:44:47.63	338.30	0.05	-50.7	-62.9	3.6	8.45e-01	0	41	104	2804940800	60	50198
2026-01-25 05:44:48.63	338.39	0.01	-50.7	-62.8	3.6	8.46e-01	0	41	104	2804940800	60	50053

#Closed at: 2026-01-25 05:44:49
#Recorded file [2804 MB]: D:/lorett/data/35029_260125_173348.dat