passes_logs/2026/01/25/R4.6S_Anadyr/R4.6S_Anadyr__20260125_034953_FENGYUN_3D_rec.log

#Pass ID: 20260125_034953_FENGYUN 3D
#Satellite: FENGYUN 3D
#Configuration: FENGYUN 3D
#almurnet v.1.7.20251203
#Start time: 2026-01-25 03:49:53

#Version: 2.2.20231116
#Station: R4.6S_Anadyr
#Location: 177.4865 lon 64.73178 lat
#TLE: 1 43010U 17072A   26024.51794477  .00000040  00000+0  40682-4 0  9990
#TLE: 2 43010  98.9961 356.4820 0002494  91.2631 268.8830 14.19699550424601

#Time	Az	El	Level	Level2	SNR	BER	BlckErr	Temp	State	Recorded	gain1	gain2
2026-01-25 03:49:53.81	195.91	0.04	-51.5	-66.5	3.5	1.51e+00	0	39	0	0	60	76005
2026-01-25 03:49:54.81	195.96	0.09	-51.3	-63.4	3.6	8.46e-01	0	40	104	0	60	53456
2026-01-25 03:49:55.82	196.01	0.15	-51.2	-63.4	3.6	8.45e-01	0	40	104	0	60	53531
2026-01-25 03:49:56.83	196.06	0.21	-51.3	-63.4	3.6	8.46e-01	0	40	104	0	60	53235
2026-01-25 03:49:57.84	196.12	0.26	-51.2	-63.4	3.6	8.44e-01	0	40	104	0	60	53361
2026-01-25 03:49:58.85	196.17	0.32	-51.2	-63.4	3.6	8.45e-01	0	40	104	0	60	53443
2026-01-25 03:49:59.86	196.22	0.38	-51.3	-63.4	3.6	8.44e-01	0	40	104	0	60	53290
2026-01-25 03:50:00.87	196.27	0.43	-51.3	-63.4	3.6	8.46e-01	0	40	104	0	60	53624
2026-01-25 03:50:01.88	196.32	0.49	-51.1	-63.3	3.6	8.45e-01	0	40	104	0	60	52908
2026-01-25 03:50:02.89	196.37	0.55	-51.1	-63.3	3.6	8.44e-01	0	40	104	0	60	52848
2026-01-25 03:50:03.90	196.43	0.60	-51.1	-63.3	3.6	8.44e-01	0	40	104	0	60	52910
2026-01-25 03:50:04.91	196.48	0.66	-51.1	-63.3	3.6	8.46e-01	0	40	104	0	60	52877
2026-01-25 03:50:05.92	196.53	0.72	-51.1	-63.3	3.6	8.44e-01	0	40	104	0	60	52580
2026-01-25 03:50:06.93	196.59	0.77	-51.1	-63.2	3.6	8.45e-01	0	40	104	0	60	52331
2026-01-25 03:50:07.94	196.64	0.83	-50.9	-63.1	3.5	8.45e-01	0	40	104	0	60	51789
2026-01-25 03:50:08.95	196.69	0.89	-50.9	-63.0	3.6	8.45e-01	0	40	104	0	60	50919
2026-01-25 03:50:09.96	196.75	0.95	-50.7	-62.9	3.6	8.45e-01	0	40	104	0	60	50360
2026-01-25 03:50:10.97	196.80	1.00	-50.6	-62.8	3.6	8.45e-01	0	40	104	0	60	49807
2026-01-25 03:50:11.98	196.85	1.06	-50.5	-62.7	3.6	8.46e-01	0	40	104	0	60	49328
2026-01-25 03:50:12.99	196.91	1.12	-50.5	-62.6	3.6	8.44e-01	0	40	104	0	60	48874
2026-01-25 03:50:14.00	196.96	1.18	-50.5	-62.6	3.6	8.46e-01	0	40	104	0	60	48784
2026-01-25 03:50:15.01	197.02	1.23	-50.4	-62.5	3.6	8.45e-01	0	40	104	0	60	48282
2026-01-25 03:50:16.01	197.07	1.29	-50.3	-62.4	3.6	8.46e-01	0	40	104	0	60	47461
2026-01-25 03:50:17.02	197.13	1.35	-50.0	-62.0	3.6	8.45e-01	0	40	104	0	60	45578
2026-01-25 03:50:18.03	197.18	1.41	-49.7	-61.7	3.6	8.45e-01	0	40	104	0	60	44156
2026-01-25 03:50:19.04	197.24	1.46	-49.6	-61.8	3.6	8.45e-01	0	40	104	0	60	44288
2026-01-25 03:50:20.05	197.29	1.52	-49.6	-61.8	3.6	8.47e-01	0	40	104	0	60	44271
2026-01-25 03:50:21.06	197.35	1.58	-49.6	-61.8	3.6	8.47e-01	0	40	104	0	60	44274
2026-01-25 03:50:22.07	197.40	1.64	-49.6	-61.8	3.6	8.44e-01	0	41	104	0	60	44304
2026-01-25 03:50:23.08	197.46	1.70	-49.6	-61.7	3.6	8.45e-01	0	40	104	0	60	44063
2026-01-25 03:50:24.09	197.52	1.76	-49.6	-61.7	3.6	8.46e-01	0	40	104	0	60	43998
2026-01-25 03:50:25.10	197.57	1.82	-49.6	-61.4	3.6	8.45e-01	0	41	104	0	60	42503
2026-01-25 03:50:26.11	197.63	1.88	-49.6	-61.5	3.6	8.46e-01	0	40	104	0	60	42999
2026-01-25 03:50:27.12	197.69	1.93	-49.6	-61.6	3.6	8.45e-01	0	41	104	0	60	43247
2026-01-25 03:50:28.13	197.74	1.99	-49.6	-61.6	3.6	8.45e-01	0	40	104	0	60	43432
2026-01-25 03:50:29.14	197.80	2.05	-49.6	-61.6	3.6	8.45e-01	0	41	104	0	60	43297
2026-01-25 03:50:30.15	197.86	2.11	-49.6	-61.6	3.6	8.45e-01	0	41	104	0	60	43415
2026-01-25 03:50:31.16	197.92	2.17	-49.6	-61.6	3.6	8.45e-01	0	41	104	0	60	43495
2026-01-25 03:50:32.17	197.97	2.23	-49.6	-61.6	3.6	8.45e-01	0	41	104	0	60	43682
2026-01-25 03:50:33.18	198.03	2.29	-49.6	-61.7	3.6	8.46e-01	0	41	104	0	60	43887
2026-01-25 03:50:34.19	198.09	2.35	-49.6	-61.8	3.6	8.44e-01	0	41	104	0	60	44264
2026-01-25 03:50:35.20	198.15	2.41	-49.6	-61.6	3.6	8.46e-01	0	41	104	0	60	43257
2026-01-25 03:50:36.21	198.21	2.47	-49.5	-60.9	3.6	8.46e-01	0	41	104	0	60	40083
2026-01-25 03:50:37.22	198.27	2.53	-49.5	-60.3	3.6	8.45e-01	0	41	104	0	60	37409
2026-01-25 03:50:38.23	198.33	2.59	-49.4	-59.3	3.6	8.44e-01	0	41	104	0	60	33354
2026-01-25 03:50:39.24	198.39	2.65	-49.3	-59.0	3.6	8.43e-01	0	41	104	0	60	32161
2026-01-25 03:50:40.25	198.45	2.71	-49.4	-59.3	3.6	8.45e-01	0	41	104	0	60	33180
2026-01-25 03:50:41.26	198.51	2.77	-49.5	-61.2	3.6	8.44e-01	0	41	104	0	60	41339
2026-01-25 03:50:42.27	198.57	2.83	-49.4	-59.4	3.8	8.44e-01	0	41	104	0	60	33584
2026-01-25 03:50:43.28	198.63	2.89	-48.7	-54.0	6.0	7.55e-01	0	41	0	0	60	18165
2026-01-25 03:50:44.29	198.69	2.95	-47.6	-51.5	8.7	3.64e-02	0	41	0	5242880	60	13510
2026-01-25 03:50:45.30	198.75	3.01	-45.0	-47.1	13.3	1.29e-04	0	41	0	11534336	60	8142
2026-01-25 03:50:46.31	198.81	3.08	-42.9	-44.3	16.8	1.48e-05	0	41	0	16777216	60	5906
2026-01-25 03:50:47.32	198.87	3.14	-43.1	-44.5	16.3	0.00e+00	0	41	0	23068672	58	6826
2026-01-25 03:50:48.33	198.93	3.20	-41.1	-42.2	18.5	0.00e+00	0	41	0	28311552	54	6568
2026-01-25 03:50:49.34	199.00	3.26	-41.0	-42.0	18.6	0.00e+00	0	41	0	33554432	54	6458
2026-01-25 03:50:50.35	199.06	3.32	-41.4	-42.5	18.3	0.00e+00	0	41	0	39845888	56	6076
2026-01-25 03:50:51.36	199.12	3.38	-43.0	-44.5	16.1	0.00e+00	0	41	0	45088768	56	7626
2026-01-25 03:50:52.37	199.18	3.44	-42.0	-43.2	17.4	0.00e+00	0	41	0	51380224	58	5882
2026-01-25 03:50:53.38	199.25	3.51	-48.3	-53.5	5.4	6.50e-02	0	41	0	56623104	60	17044
2026-01-25 03:50:54.39	199.31	3.57	-47.4	-51.3	12.5	8.43e-01	0	41	104	56623104	60	13263
2026-01-25 03:50:55.40	199.37	3.63	-40.6	-41.6	19.0	0.00e+00	0	41	0	60817408	52	6862
2026-01-25 03:50:56.41	199.44	3.69	-41.0	-42.1	19.6	3.89e-05	0	41	0	66060288	58	5142
2026-01-25 03:50:57.42	199.50	3.75	-44.4	-46.0	15.6	8.15e-04	0	41	0	72351744	60	7249
2026-01-25 03:50:58.43	199.57	3.82	-40.9	-41.9	19.2	0.00e+00	0	41	0	77594624	56	5692
2026-01-25 03:50:59.44	199.63	3.88	-41.2	-42.3	18.3	0.00e+00	0	41	0	83886080	54	6664
2026-01-25 03:51:00.44	199.69	3.94	-40.7	-41.7	19.7	0.00e+00	0	41	0	89128960	54	6188
2026-01-25 03:51:01.45	199.76	4.00	-39.9	-40.8	20.3	0.00e+00	0	41	0	94371840	54	5602
2026-01-25 03:51:02.47	199.83	4.07	-40.0	-41.0	19.8	0.00e+00	0	41	0	100663296	52	6451
2026-01-25 03:51:03.47	199.89	4.13	-39.7	-40.6	20.4	0.00e+00	0	41	0	105906176	50	6922
2026-01-25 03:51:04.48	199.96	4.19	-39.9	-40.8	20.7	0.00e+00	0	41	0	112197632	54	5621
2026-01-25 03:51:05.49	200.02	4.26	-39.8	-40.7	20.7	0.00e+00	0	41	0	117440512	52	6195
2026-01-25 03:51:06.50	200.09	4.32	-38.6	-39.4	21.5	0.00e+00	0	41	0	122683392	50	6021
2026-01-25 03:51:07.51	200.15	4.38	-38.9	-39.8	21.5	0.00e+00	0	41	0	128974848	50	6264
2026-01-25 03:51:08.52	200.22	4.45	-38.3	-39.2	21.9	0.00e+00	0	41	0	134217728	50	5851
2026-01-25 03:51:09.52	200.29	4.51	-39.1	-40.0	21.1	0.00e+00	0	41	0	140509184	50	6444
2026-01-25 03:51:10.53	200.36	4.57	-39.2	-40.1	21.0	0.00e+00	0	41	0	145752064	50	6509
2026-01-25 03:51:11.55	200.42	4.64	-38.5	-39.3	21.7	0.00e+00	0	41	0	152043520	50	5939
2026-01-25 03:51:12.55	200.49	4.70	-38.7	-39.6	21.5	0.00e+00	0	41	0	157286400	50	6122
2026-01-25 03:51:13.57	200.56	4.76	-38.8	-39.7	21.5	0.00e+00	0	41	0	162529280	50	6187
2026-01-25 03:51:14.58	200.63	4.83	-38.4	-39.3	21.9	0.00e+00	0	41	0	168820736	50	5899
2026-01-25 03:51:15.59	200.70	4.89	-39.1	-40.0	21.4	0.00e+00	0	41	0	174063616	50	6394
2026-01-25 03:51:16.59	200.77	4.96	-38.1	-38.9	21.8	0.00e+00	0	41	0	180355072	48	6371
2026-01-25 03:51:17.61	200.84	5.02	-38.7	-39.6	21.7	0.00e+00	0	41	0	185597952	48	6861
2026-01-25 03:51:18.62	200.91	5.09	-38.2	-39.1	22.1	0.00e+00	0	41	0	190840832	50	5767
2026-01-25 03:51:19.62	200.98	5.15	-39.3	-40.2	21.3	0.00e+00	0	41	0	197132288	50	6612
2026-01-25 03:51:20.63	201.05	5.22	-39.0	-39.9	21.2	0.00e+00	0	41	0	202375168	50	6352
2026-01-25 03:51:21.64	201.12	5.28	-39.5	-40.4	21.1	0.00e+00	0	41	0	208666624	50	6739
2026-01-25 03:51:22.65	201.19	5.35	-38.2	-39.0	22.4	0.00e+00	0	41	0	213909504	50	5709
2026-01-25 03:51:23.65	201.26	5.41	-37.8	-38.5	22.7	0.00e+00	0	41	0	219152384	48	6096
2026-01-25 03:51:24.66	201.33	5.48	-37.9	-38.7	22.5	0.00e+00	0	41	0	225443840	48	6215
2026-01-25 03:51:25.67	201.40	5.54	-38.1	-38.9	22.3	0.00e+00	0	41	0	230686720	48	6363
2026-01-25 03:51:26.68	201.47	5.61	-38.2	-39.0	22.3	0.00e+00	0	41	0	236978176	48	6405
2026-01-25 03:51:27.69	201.55	5.67	-37.7	-38.5	22.7	0.00e+00	0	41	0	242221056	48	6057
2026-01-25 03:51:28.70	201.62	5.74	-37.5	-38.3	22.9	0.00e+00	0	41	0	248512512	48	5908
2026-01-25 03:51:29.71	201.69	5.81	-37.3	-38.0	23.1	0.00e+00	0	41	0	253755392	48	5745
2026-01-25 03:51:30.72	201.77	5.87	-37.3	-38.0	23.1	0.00e+00	0	41	0	260046848	48	5723
2026-01-25 03:51:31.73	201.84	5.94	-37.8	-38.6	22.7	0.00e+00	0	41	0	265289728	48	6153
2026-01-25 03:51:32.74	201.91	6.01	-37.7	-38.5	22.7	0.00e+00	0	41	0	270532608	48	6040
2026-01-25 03:51:33.75	201.99	6.07	-37.2	-37.9	23.3	0.00e+00	0	41	0	276824064	48	5672
2026-01-25 03:51:34.76	202.06	6.14	-37.5	-38.2	23.1	0.00e+00	0	41	0	282066944	48	5890
2026-01-25 03:51:35.77	202.14	6.21	-37.7	-38.5	22.8	0.00e+00	0	41	0	288358400	48	6057
2026-01-25 03:51:36.78	202.21	6.27	-37.3	-38.1	23.3	0.00e+00	0	41	0	293601280	48	5794
2026-01-25 03:51:37.79	202.29	6.34	-37.9	-38.7	22.7	0.00e+00	0	41	0	298844160	48	6175
2026-01-25 03:51:38.80	202.37	6.41	-38.0	-38.7	22.6	0.00e+00	0	41	0	305135616	48	6227
2026-01-25 03:51:39.81	202.44	6.48	-37.5	-38.3	23.0	0.00e+00	0	41	0	310378496	48	5904
2026-01-25 03:51:40.81	202.52	6.54	-37.6	-38.4	22.9	0.00e+00	0	41	0	315621376	48	6001
2026-01-25 03:51:41.82	202.59	6.61	-37.1	-37.9	23.3	0.00e+00	0	41	0	321912832	48	5653
2026-01-25 03:51:42.84	202.67	6.68	-37.4	-38.1	23.1	0.00e+00	0	41	0	327155712	48	5826
2026-01-25 03:51:43.84	202.75	6.75	-37.5	-38.2	23.0	0.00e+00	0	41	0	333447168	48	5863
2026-01-25 03:51:44.85	202.83	6.81	-38.0	-38.7	22.6	0.00e+00	0	41	0	338690048	48	6242
2026-01-25 03:51:45.86	202.91	6.88	-37.8	-38.6	22.7	0.00e+00	0	41	0	344981504	48	6123
2026-01-25 03:51:46.87	202.98	6.95	-37.5	-38.2	23.2	0.00e+00	0	41	0	350224384	48	5871
2026-01-25 03:51:47.88	203.06	7.02	-37.3	-38.1	23.3	0.00e+00	0	41	0	356515840	48	5766
2026-01-25 03:51:48.89	203.14	7.09	-37.0	-37.8	23.5	0.00e+00	0	41	0	361758720	48	5578
2026-01-25 03:51:49.90	203.22	7.16	-36.9	-37.7	23.6	0.00e+00	0	41	0	367001600	48	5506
2026-01-25 03:51:50.91	203.30	7.23	-37.6	-38.3	23.1	0.00e+00	0	41	0	373293056	48	5935
2026-01-25 03:51:51.92	203.38	7.30	-37.4	-38.1	23.2	0.00e+00	0	41	0	378535936	48	5825
2026-01-25 03:51:52.93	203.46	7.36	-37.0	-37.8	23.4	0.00e+00	0	41	0	384827392	48	5576
2026-01-25 03:51:53.94	203.55	7.43	-37.3	-38.1	23.2	0.00e+00	0	41	0	390070272	48	5787
2026-01-25 03:51:54.95	203.63	7.50	-37.4	-38.1	23.2	0.00e+00	0	41	0	395313152	48	5819
2026-01-25 03:51:55.96	203.71	7.57	-37.3	-38.1	23.2	0.00e+00	0	41	0	401604608	48	5788
2026-01-25 03:51:56.97	203.79	7.64	-37.7	-38.5	22.8	0.00e+00	0	41	0	406847488	48	6053
2026-01-25 03:51:57.98	203.88	7.71	-37.3	-38.1	23.3	0.00e+00	0	41	0	413138944	48	5792
2026-01-25 03:51:58.99	203.96	7.78	-37.4	-38.2	23.2	0.00e+00	0	41	0	418381824	48	5868
2026-01-25 03:52:00.00	204.04	7.85	-37.3	-38.0	23.4	0.00e+00	0	41	0	423624704	48	5752
2026-01-25 03:52:01.00	204.12	7.92	-37.2	-38.0	23.2	0.00e+00	0	41	0	429916160	48	5734
2026-01-25 03:52:02.02	204.21	7.99	-37.4	-38.2	23.1	0.00e+00	0	41	0	435159040	48	5839
2026-01-25 03:52:03.03	204.29	8.06	-37.2	-38.0	23.3	0.00e+00	0	41	0	441450496	48	5724
2026-01-25 03:52:04.04	204.38	8.14	-37.3	-38.0	23.3	0.00e+00	0	41	0	446693376	48	5737
2026-01-25 03:52:05.05	204.47	8.21	-37.5	-38.3	23.0	0.00e+00	0	41	0	452984832	48	5935
2026-01-25 03:52:06.06	204.55	8.28	-36.9	-37.7	23.6	0.00e+00	0	41	0	458227712	48	5514
2026-01-25 03:52:07.07	204.64	8.35	-37.3	-38.1	23.3	0.00e+00	0	41	0	463470592	48	5766
2026-01-25 03:52:08.07	204.72	8.42	-37.1	-37.9	23.4	0.00e+00	0	41	0	469762048	48	5672
2026-01-25 03:52:09.08	204.81	8.49	-36.9	-37.6	23.6	0.00e+00	0	41	0	475004928	48	5501
2026-01-25 03:52:10.09	204.90	8.56	-36.9	-37.6	23.6	0.00e+00	0	41	0	481296384	46	6144
2026-01-25 03:52:11.10	204.99	8.64	-36.6	-37.3	23.9	0.00e+00	0	41	0	486539264	46	5915
2026-01-25 03:52:12.11	205.07	8.71	-36.8	-37.5	23.8	0.00e+00	0	41	0	491782144	46	6095
2026-01-25 03:52:13.12	205.16	8.78	-37.1	-37.9	23.4	0.00e+00	0	41	0	498073600	46	6339
2026-01-25 03:52:14.13	205.25	8.85	-36.8	-37.6	23.6	0.00e+00	0	41	0	503316480	46	6129
2026-01-25 03:52:15.14	205.34	8.92	-36.6	-37.4	23.8	0.00e+00	0	41	0	509607936	46	5978
2026-01-25 03:52:16.15	205.43	9.00	-36.4	-37.2	24.1	0.00e+00	0	41	0	514850816	46	5834
2026-01-25 03:52:17.16	205.52	9.07	-36.7	-37.4	23.9	0.00e+00	0	41	0	520093696	46	6009
2026-01-25 03:52:18.17	205.61	9.14	-37.0	-37.7	23.5	0.00e+00	0	41	0	526385152	46	6243
2026-01-25 03:52:19.18	205.70	9.22	-36.9	-37.6	23.7	0.00e+00	0	41	0	531628032	46	6159
2026-01-25 03:52:20.19	205.80	9.29	-36.7	-37.4	23.8	0.00e+00	0	41	0	537919488	46	6024
2026-01-25 03:52:21.20	205.89	9.36	-36.6	-37.3	23.9	0.00e+00	0	41	0	543162368	46	5964
2026-01-25 03:52:22.21	205.98	9.44	-36.7	-37.5	23.8	0.00e+00	0	41	0	549453824	46	6057
2026-01-25 03:52:23.21	206.07	9.51	-36.8	-37.5	23.8	0.00e+00	0	41	0	554696704	46	6068
2026-01-25 03:52:24.22	206.17	9.58	-36.7	-37.4	23.8	0.00e+00	0	41	0	560988160	46	6008
2026-01-25 03:52:25.24	206.26	9.66	-36.5	-37.3	24.0	0.00e+00	0	41	0	566231040	46	5897
2026-01-25 03:52:26.24	206.36	9.73	-36.3	-37.0	24.3	0.00e+00	0	41	0	571473920	46	5752
2026-01-25 03:52:27.25	206.45	9.81	-36.4	-37.1	24.2	0.00e+00	0	41	0	577765376	46	5804
2026-01-25 03:52:28.27	206.55	9.88	-36.3	-37.0	24.2	0.00e+00	0	41	0	583008256	46	5756
2026-01-25 03:52:29.28	206.64	9.96	-36.4	-37.2	24.2	0.00e+00	0	41	0	589299712	46	5838
2026-01-25 03:52:30.29	206.74	10.03	-36.2	-37.0	24.3	0.00e+00	0	41	0	594542592	46	5701
2026-01-25 03:52:31.29	206.84	10.10	-36.2	-36.9	24.4	0.00e+00	0	41	0	599785472	46	5646
2026-01-25 03:52:32.30	206.93	10.18	-36.3	-36.9	24.4	0.00e+00	0	41	0	606076928	46	5695
2026-01-25 03:52:33.31	207.03	10.26	-35.9	-36.6	24.7	0.00e+00	0	41	0	611319808	46	5480
2026-01-25 03:52:34.32	207.13	10.33	-36.2	-36.9	24.4	0.00e+00	0	41	0	617611264	46	5676
2026-01-25 03:52:35.33	207.23	10.41	-36.2	-36.9	24.4	0.00e+00	0	41	0	622854144	46	5655
2026-01-25 03:52:36.34	207.33	10.48	-36.3	-37.0	24.3	0.00e+00	0	41	0	628097024	46	5723
2026-01-25 03:52:37.35	207.43	10.56	-36.2	-36.8	24.5	0.00e+00	0	41	0	634388480	46	5628
2026-01-25 03:52:38.36	207.53	10.63	-36.4	-37.1	24.2	0.00e+00	0	41	0	639631360	46	5795
2026-01-25 03:52:39.37	207.63	10.71	-36.2	-36.9	24.3	0.00e+00	0	41	0	645922816	46	5661
2026-01-25 03:52:40.38	207.73	10.79	-36.4	-37.1	24.2	0.00e+00	0	41	0	651165696	46	5812
2026-01-25 03:52:41.39	207.83	10.86	-36.3	-37.0	24.3	0.00e+00	0	41	0	657457152	46	5719
2026-01-25 03:52:42.40	207.93	10.94	-36.0	-36.8	24.6	0.00e+00	0	41	0	662700032	46	5569
2026-01-25 03:52:43.41	208.03	11.02	-36.1	-36.8	24.4	0.00e+00	0	41	0	667942912	46	5612
2026-01-25 03:52:44.42	208.14	11.09	-36.2	-36.9	24.4	0.00e+00	0	41	0	674234368	46	5680
2026-01-25 03:52:45.43	208.24	11.17	-36.2	-36.9	24.5	0.00e+00	0	41	0	679477248	46	5682
2026-01-25 03:52:46.43	208.35	11.25	-35.9	-36.5	24.7	0.00e+00	0	41	0	685768704	46	5417
2026-01-25 03:52:47.44	208.45	11.33	-36.1	-36.9	24.5	0.00e+00	0	41	0	691011584	46	5637
2026-01-25 03:52:48.46	208.56	11.40	-36.1	-36.8	24.5	0.00e+00	0	41	0	696254464	46	5593
2026-01-25 03:52:49.47	208.66	11.48	-36.1	-36.8	24.5	0.00e+00	0	41	0	702545920	46	5589
2026-01-25 03:52:50.47	208.77	11.56	-36.2	-36.9	24.4	0.00e+00	0	41	0	707788800	46	5653
2026-01-25 03:52:51.48	208.88	11.64	-36.1	-36.8	24.5	0.00e+00	0	41	0	714080256	46	5602
2026-01-25 03:52:52.49	208.98	11.72	-36.0	-36.7	24.6	0.00e+00	0	41	0	719323136	46	5513
2026-01-25 03:52:53.50	209.09	11.79	-35.9	-36.6	24.7	0.00e+00	0	41	0	724566016	46	5475
2026-01-25 03:52:54.51	209.20	11.87	-36.0	-36.7	24.6	0.00e+00	0	41	0	730857472	46	5522
2026-01-25 03:52:55.52	209.31	11.95	-35.9	-36.6	24.7	0.00e+00	0	41	0	736100352	46	5462
2026-01-25 03:52:56.53	209.42	12.03	-35.9	-36.6	24.7	0.00e+00	0	41	0	742391808	46	5486
2026-01-25 03:52:57.53	209.53	12.11	-36.0	-36.7	24.6	0.00e+00	0	41	0	747634688	46	5539
2026-01-25 03:52:58.54	209.64	12.19	-35.7	-36.3	24.9	0.00e+00	0	41	0	753926144	44	5962
2026-01-25 03:52:59.55	209.75	12.27	-35.8	-36.5	24.7	0.00e+00	0	41	0	759169024	44	6083
2026-01-25 03:53:00.56	209.86	12.35	-35.9	-36.5	24.7	0.00e+00	0	41	0	764411904	44	6103
2026-01-25 03:53:01.57	209.97	12.43	-35.8	-36.5	24.8	0.00e+00	0	41	0	770703360	44	6057
2026-01-25 03:53:02.57	210.09	12.51	-35.8	-36.6	24.7	0.00e+00	0	41	0	775946240	44	6104
2026-01-25 03:53:03.58	210.20	12.59	-35.8	-36.5	24.8	0.00e+00	0	41	0	782237696	44	6043
2026-01-25 03:53:04.59	210.32	12.67	-35.8	-36.5	24.7	0.00e+00	0	41	0	787480576	44	6086
2026-01-25 03:53:05.60	210.43	12.75	-35.6	-36.2	25.0	0.00e+00	0	41	0	792723456	44	5886
2026-01-25 03:53:06.61	210.55	12.83	-35.6	-36.3	24.9	0.00e+00	0	41	0	799014912	44	5936
2026-01-25 03:53:07.62	210.66	12.91	-35.6	-36.3	25.0	0.00e+00	0	41	0	804257792	44	5928
2026-01-25 03:53:08.63	210.78	12.99	-35.6	-36.3	25.0	0.00e+00	0	41	0	810549248	44	5953
2026-01-25 03:53:09.64	210.90	13.07	-35.5	-36.2	25.1	0.00e+00	0	41	0	815792128	44	5860
2026-01-25 03:53:10.65	211.01	13.15	-35.5	-36.2	25.0	0.00e+00	0	41	0	821035008	44	5872
2026-01-25 03:53:11.66	211.13	13.23	-35.7	-36.3	24.9	0.00e+00	0	41	0	827326464	44	5957
2026-01-25 03:53:12.67	211.25	13.32	-35.5	-36.2	25.1	0.00e+00	0	41	0	832569344	44	5857
2026-01-25 03:53:13.68	211.37	13.40	-35.5	-36.2	25.1	0.00e+00	0	41	0	838860800	44	5872
2026-01-25 03:53:14.69	211.49	13.48	-35.7	-36.4	25.0	0.00e+00	0	41	0	844103680	44	5965
2026-01-25 03:53:15.70	211.62	13.56	-35.6	-36.2	25.0	0.00e+00	0	41	0	850395136	44	5881
2026-01-25 03:53:16.71	211.74	13.64	-35.5	-36.2	25.1	0.00e+00	0	41	0	855638016	44	5850
2026-01-25 03:53:17.71	211.86	13.73	-35.5	-36.2	25.1	0.00e+00	0	41	0	860880896	44	5843
2026-01-25 03:53:18.72	211.98	13.81	-35.4	-36.1	25.1	0.00e+00	0	41	0	867172352	44	5811
2026-01-25 03:53:19.74	212.11	13.89	-35.4	-36.1	25.1	0.00e+00	0	41	0	872415232	44	5796
2026-01-25 03:53:20.74	212.23	13.97	-35.6	-36.3	25.0	0.00e+00	0	41	0	878706688	44	5905
2026-01-25 03:53:21.75	212.36	14.06	-35.2	-35.9	25.4	0.00e+00	0	41	0	883949568	44	5639
2026-01-25 03:53:22.75	212.48	14.14	-35.4	-36.1	25.1	0.00e+00	0	41	0	889192448	44	5799
2026-01-25 03:53:23.76	212.61	14.22	-35.5	-36.2	25.1	0.00e+00	0	41	0	895483904	44	5861
2026-01-25 03:53:24.77	212.73	14.31	-35.2	-35.9	25.2	0.00e+00	0	41	0	900726784	44	5672
2026-01-25 03:53:25.78	212.86	14.39	-35.2	-35.9	25.3	0.00e+00	0	41	0	907018240	44	5659
2026-01-25 03:53:26.79	212.99	14.47	-35.3	-36.0	25.3	0.00e+00	0	41	0	912261120	44	5721
2026-01-25 03:53:27.80	213.12	14.56	-35.3	-36.0	25.2	0.00e+00	0	41	0	917504000	44	5699
2026-01-25 03:53:28.81	213.25	14.64	-35.2	-35.9	25.3	0.00e+00	0	41	0	923795456	44	5669
2026-01-25 03:53:29.82	213.38	14.73	-35.2	-35.9	25.4	0.00e+00	0	41	0	929038336	44	5652
2026-01-25 03:53:30.83	213.51	14.81	-35.0	-35.7	25.5	0.00e+00	0	41	0	935329792	44	5521
2026-01-25 03:53:31.84	213.65	14.90	-34.9	-35.6	25.6	0.00e+00	0	41	0	940572672	44	5447
2026-01-25 03:53:32.85	213.78	14.98	-34.9	-35.6	25.6	0.00e+00	0	41	0	946864128	44	5450
2026-01-25 03:53:33.86	213.91	15.07	-35.2	-35.9	25.3	0.00e+00	0	41	0	952107008	44	5675
2026-01-25 03:53:34.87	214.05	15.15	-35.1	-35.8	25.5	0.00e+00	0	41	0	958398464	44	5568
2026-01-25 03:53:35.88	214.18	15.24	-34.9	-35.5	25.7	0.00e+00	0	41	0	963641344	44	5434
2026-01-25 03:53:36.89	214.32	15.32	-35.0	-35.7	25.6	0.00e+00	0	41	0	968884224	42	6191
2026-01-25 03:53:37.90	214.45	15.41	-34.9	-35.6	25.7	0.00e+00	0	41	0	975175680	42	6139
2026-01-25 03:53:38.91	214.59	15.49	-35.0	-35.6	25.6	0.00e+00	0	42	0	980418560	42	6165
2026-01-25 03:53:39.92	214.73	15.58	-34.9	-35.6	25.7	0.00e+00	0	41	0	986710016	42	6134
2026-01-25 03:53:40.93	214.87	15.67	-35.0	-35.7	25.6	0.00e+00	0	41	0	991952896	42	6200
2026-01-25 03:53:41.94	215.01	15.75	-34.9	-35.6	25.7	0.00e+00	0	41	0	997195776	42	6150
2026-01-25 03:53:42.95	215.15	15.84	-34.8	-35.4	25.9	0.00e+00	0	41	0	1003487232	42	6021
2026-01-25 03:53:43.96	215.29	15.92	-34.9	-35.6	25.7	0.00e+00	0	42	0	1008730112	42	6124
2026-01-25 03:53:44.97	215.43	16.01	-34.9	-35.6	25.8	0.00e+00	0	41	0	1015021568	42	6106
2026-01-25 03:53:45.98	215.58	16.10	-34.9	-35.6	25.7	0.00e+00	0	42	0	1020264448	42	6129
2026-01-25 03:53:46.99	215.72	16.18	-35.0	-35.6	25.7	0.00e+00	0	41	0	1025507328	42	6162
2026-01-25 03:53:48.00	215.87	16.27	-35.0	-35.7	25.6	0.00e+00	0	41	0	1031798784	42	6177
2026-01-25 03:53:49.01	216.01	16.36	-35.1	-35.7	25.5	0.00e+00	0	41	0	1037041664	42	6221
2026-01-25 03:53:50.02	216.16	16.45	-35.2	-35.9	25.4	0.00e+00	0	41	0	1043333120	42	6358
2026-01-25 03:53:51.03	216.30	16.53	-35.1	-35.8	25.6	0.00e+00	0	41	0	1048576000	42	6283
2026-01-25 03:53:52.04	216.45	16.62	-35.0	-35.7	25.6	0.00e+00	0	41	0	1054867456	42	6227
2026-01-25 03:53:53.05	216.60	16.71	-34.9	-35.6	25.7	0.00e+00	0	41	0	1060110336	42	6159
2026-01-25 03:53:54.06	216.75	16.80	-34.5	-35.1	26.1	0.00e+00	0	41	0	1065353216	42	5824
2026-01-25 03:53:55.07	216.90	16.88	-34.5	-35.1	26.1	0.00e+00	0	41	0	1071644672	42	5828
2026-01-25 03:53:56.08	217.05	16.97	-34.4	-35.0	26.2	0.00e+00	0	41	0	1076887552	42	5747
2026-01-25 03:53:57.09	217.20	17.06	-34.4	-35.0	26.2	0.00e+00	0	42	0	1083179008	42	5752
2026-01-25 03:53:58.10	217.36	17.15	-34.2	-34.8	26.4	0.00e+00	0	41	0	1088421888	42	5608
2026-01-25 03:53:59.11	217.51	17.24	-34.1	-34.8	26.4	0.00e+00	0	42	0	1093664768	42	5570
2026-01-25 03:54:00.12	217.67	17.33	-34.2	-34.8	26.4	0.00e+00	0	42	0	1099956224	42	5623
2026-01-25 03:54:01.12	217.82	17.41	-34.0	-34.7	26.5	0.00e+00	0	42	0	1105199104	42	5523
2026-01-25 03:54:02.14	217.98	17.50	-34.2	-34.8	26.5	0.00e+00	0	42	0	1111490560	42	5605
2026-01-25 03:54:03.15	218.13	17.59	-34.2	-34.8	26.4	0.00e+00	0	42	0	1116733440	42	5610
2026-01-25 03:54:04.15	218.29	17.68	-34.3	-35.0	26.3	0.00e+00	0	41	0	1123024896	42	5733
2026-01-25 03:54:05.17	218.45	17.77	-34.2	-34.8	26.4	0.00e+00	0	41	0	1128267776	42	5625
2026-01-25 03:54:06.18	218.61	17.86	-34.2	-34.9	26.4	0.00e+00	0	41	0	1133510656	42	5638
2026-01-25 03:54:07.19	218.77	17.95	-34.2	-34.8	26.4	0.00e+00	0	42	0	1139802112	42	5593
2026-01-25 03:54:08.19	218.93	18.04	-34.2	-34.8	26.4	0.00e+00	0	41	0	1145044992	42	5597
2026-01-25 03:54:09.20	219.10	18.13	-34.3	-35.0	26.2	0.00e+00	0	42	0	1151336448	42	5719
2026-01-25 03:54:10.21	219.26	18.22	-34.2	-34.8	26.4	0.00e+00	0	42	0	1156579328	42	5617
2026-01-25 03:54:11.22	219.43	18.31	-34.4	-35.0	26.2	0.00e+00	0	41	0	1161822208	42	5738
2026-01-25 03:54:12.23	219.59	18.40	-34.3	-34.9	26.4	0.00e+00	0	41	0	1168113664	42	5681
2026-01-25 03:54:13.24	219.76	18.49	-34.4	-35.1	26.3	0.00e+00	0	41	0	1173356544	42	5779
2026-01-25 03:54:14.25	219.93	18.58	-34.4	-35.0	26.3	0.00e+00	0	41	0	1179648000	42	5739
2026-01-25 03:54:15.25	220.09	18.67	-34.4	-35.1	26.3	0.00e+00	0	42	0	1184890880	42	5763
2026-01-25 03:54:16.26	220.26	18.76	-34.3	-35.0	26.4	0.00e+00	0	41	0	1190133760	42	5721
2026-01-25 03:54:17.27	220.43	18.85	-34.2	-34.8	26.3	0.00e+00	0	42	0	1196425216	42	5625
2026-01-25 03:54:18.28	220.60	18.94	-34.4	-35.1	26.2	0.00e+00	0	42	0	1201668096	42	5788
2026-01-25 03:54:19.29	220.78	19.03	-34.4	-35.1	26.3	0.00e+00	0	42	0	1207959552	42	5769
2026-01-25 03:54:20.30	220.95	19.12	-34.2	-34.8	26.5	0.00e+00	0	42	0	1213202432	42	5615
2026-01-25 03:54:21.31	221.12	19.21	-34.0	-34.7	26.6	0.00e+00	0	42	0	1218445312	42	5516
2026-01-25 03:54:22.32	221.30	19.30	-34.0	-34.7	26.6	0.00e+00	0	42	0	1224736768	42	5510
2026-01-25 03:54:23.33	221.48	19.39	-34.0	-34.7	26.7	0.00e+00	0	42	0	1229979648	42	5507
2026-01-25 03:54:24.34	221.65	19.49	-34.0	-34.7	26.6	0.00e+00	0	42	0	1236271104	42	5527
2026-01-25 03:54:25.35	221.83	19.58	-34.0	-34.6	26.7	0.00e+00	0	42	0	1241513984	42	5487
2026-01-25 03:54:26.36	222.01	19.67	-34.0	-34.7	26.7	0.00e+00	0	42	0	1247805440	42	5508
2026-01-25 03:54:27.37	222.19	19.76	-34.0	-34.7	26.7	0.00e+00	0	42	0	1253048320	42	5510
2026-01-25 03:54:28.38	222.38	19.85	-33.9	-34.5	26.7	0.00e+00	0	42	0	1259339776	42	5437
2026-01-25 03:54:29.39	222.56	19.94	-33.8	-34.5	26.8	0.00e+00	0	42	0	1264582656	42	5383
2026-01-25 03:54:30.40	222.74	20.03	-34.0	-34.6	26.7	0.00e+00	0	42	0	1269825536	42	5476
2026-01-25 03:54:31.41	222.93	20.12	-33.9	-34.5	26.7	0.00e+00	0	42	0	1276116992	42	5437
2026-01-25 03:54:32.42	223.11	20.22	-33.9	-34.5	26.8	0.00e+00	0	42	0	1281359872	42	5428
2026-01-25 03:54:33.43	223.30	20.31	-33.8	-34.5	26.9	0.00e+00	0	42	0	1287651328	42	5387
2026-01-25 03:54:34.44	223.49	20.40	-33.8	-34.5	26.8	0.00e+00	0	42	0	1292894208	42	5398
2026-01-25 03:54:35.45	223.68	20.49	-33.8	-34.4	26.9	0.00e+00	0	42	0	1298137088	42	5349
2026-01-25 03:54:36.45	223.87	20.58	-33.7	-34.3	26.9	0.00e+00	0	42	0	1304428544	40	5932
2026-01-25 03:54:37.46	224.06	20.67	-33.7	-34.3	26.9	0.00e+00	0	42	0	1309671424	40	5964
2026-01-25 03:54:38.47	224.25	20.76	-33.7	-34.3	26.8	0.00e+00	0	42	0	1315962880	40	5960
2026-01-25 03:54:39.48	224.44	20.86	-33.8	-34.5	26.8	0.00e+00	0	42	0	1321205760	40	6051
2026-01-25 03:54:40.49	224.64	20.95	-33.6	-34.3	27.0	0.00e+00	0	42	0	1326448640	40	5925
2026-01-25 03:54:41.50	224.83	21.04	-33.6	-34.2	27.0	0.00e+00	0	42	0	1332740096	40	5874
2026-01-25 03:54:42.51	225.03	21.13	-33.6	-34.2	27.0	0.00e+00	0	41	0	1337982976	40	5871
2026-01-25 03:54:43.52	225.23	21.22	-33.7	-34.3	27.1	0.00e+00	0	42	0	1344274432	40	5925
2026-01-25 03:54:44.53	225.43	21.31	-33.6	-34.2	27.1	0.00e+00	0	42	0	1349517312	40	5857
2026-01-25 03:54:45.54	225.63	21.40	-33.7	-34.4	27.0	0.00e+00	0	42	0	1355808768	40	5980
2026-01-25 03:54:46.55	225.83	21.50	-33.9	-34.5	26.8	0.00e+00	0	42	0	1361051648	40	6087
2026-01-25 03:54:47.56	226.03	21.59	-33.8	-34.5	26.8	0.00e+00	0	42	0	1366294528	40	6038
2026-01-25 03:54:48.57	226.24	21.68	-33.6	-34.3	27.0	0.00e+00	0	42	0	1372585984	40	5899
2026-01-25 03:54:49.57	226.44	21.77	-33.7	-34.3	27.0	0.00e+00	0	42	0	1377828864	40	5962
2026-01-25 03:54:50.59	226.65	21.86	-33.8	-34.4	26.9	0.00e+00	0	42	0	1384120320	40	6033
2026-01-25 03:54:51.59	226.86	21.95	-33.7	-34.4	26.9	0.00e+00	0	42	0	1389363200	40	5970
2026-01-25 03:54:52.60	227.06	22.04	-33.7	-34.4	26.9	0.00e+00	0	42	0	1394606080	40	5970
2026-01-25 03:54:53.61	227.27	22.14	-33.6	-34.2	27.1	0.00e+00	0	42	0	1400897536	40	5888
2026-01-25 03:54:54.62	227.49	22.23	-33.7	-34.3	27.0	0.00e+00	0	42	0	1406140416	40	5934
2026-01-25 03:54:55.63	227.70	22.32	-33.8	-34.4	27.0	0.00e+00	0	42	0	1412431872	40	6010
2026-01-25 03:54:56.63	227.91	22.41	-33.5	-34.1	27.2	0.00e+00	0	42	0	1417674752	40	5822
2026-01-25 03:54:57.64	228.12	22.50	-33.6	-34.2	27.1	0.00e+00	0	42	0	1422917632	40	5872
2026-01-25 03:54:58.65	228.34	22.59	-33.4	-34.1	27.2	0.00e+00	0	42	0	1429209088	40	5788
2026-01-25 03:54:59.66	228.56	22.68	-33.5	-34.2	27.3	0.00e+00	0	42	0	1434451968	40	5839
2026-01-25 03:55:00.66	228.77	22.77	-33.2	-33.8	27.5	0.00e+00	0	42	0	1440743424	40	5582
2026-01-25 03:55:01.67	228.99	22.86	-33.4	-34.0	27.3	0.00e+00	0	42	0	1445986304	40	5722
2026-01-25 03:55:02.68	229.21	22.95	-33.2	-33.8	27.4	0.00e+00	0	42	0	1452277760	40	5599
2026-01-25 03:55:03.69	229.44	23.04	-33.1	-33.7	27.4	0.00e+00	0	42	0	1457520640	40	5564
2026-01-25 03:55:04.70	229.66	23.13	-33.2	-33.9	27.5	0.00e+00	0	42	0	1462763520	40	5637
2026-01-25 03:55:05.71	229.89	23.22	-33.3	-33.9	27.4	0.00e+00	0	42	0	1469054976	40	5669
2026-01-25 03:55:06.72	230.11	23.31	-33.1	-33.8	27.5	0.00e+00	0	42	0	1474297856	40	5573
2026-01-25 03:55:07.73	230.34	23.40	-33.1	-33.7	27.5	0.00e+00	0	42	0	1480589312	40	5541
2026-01-25 03:55:08.73	230.56	23.49	-33.2	-33.8	27.5	0.00e+00	0	42	0	1485832192	40	5612
2026-01-25 03:55:09.74	230.79	23.58	-33.3	-33.9	27.3	0.00e+00	0	42	0	1491075072	40	5691
2026-01-25 03:55:10.75	231.03	23.67	-33.5	-34.1	27.3	0.00e+00	0	42	0	1497366528	40	5787
2026-01-25 03:55:11.76	231.26	23.76	-33.6	-34.2	27.2	0.00e+00	0	42	0	1502609408	40	5889
2026-01-25 03:55:12.77	231.49	23.85	-33.6	-34.2	27.2	0.00e+00	0	42	0	1508900864	40	5894
2026-01-25 03:55:13.78	231.73	23.94	-33.3	-34.0	27.5	0.00e+00	0	42	0	1514143744	40	5713
2026-01-25 03:55:14.79	231.96	24.03	-33.3	-34.0	27.4	0.00e+00	0	42	0	1520435200	40	5704
2026-01-25 03:55:15.80	232.20	24.11	-33.2	-33.8	27.6	0.00e+00	0	42	0	1525678080	40	5593
2026-01-25 03:55:16.81	232.44	24.20	-32.9	-33.5	27.8	0.00e+00	0	42	0	1530920960	40	5420
2026-01-25 03:55:17.82	232.68	24.29	-33.1	-33.8	27.6	0.00e+00	0	42	0	1537212416	40	5571
2026-01-25 03:55:18.83	232.92	24.38	-33.1	-33.8	27.6	0.00e+00	0	42	0	1542455296	40	5570
2026-01-25 03:55:19.84	233.16	24.47	-33.2	-33.8	27.6	0.00e+00	0	42	0	1548746752	40	5584
2026-01-25 03:55:20.85	233.41	24.55	-33.2	-33.8	27.6	0.00e+00	0	42	0	1553989632	40	5582
2026-01-25 03:55:21.86	233.65	24.64	-33.1	-33.8	27.6	0.00e+00	0	42	0	1559232512	40	5567
2026-01-25 03:55:22.87	233.90	24.73	-33.2	-33.8	27.5	0.00e+00	0	42	0	1565523968	40	5624
2026-01-25 03:55:23.88	234.15	24.81	-33.2	-33.8	27.6	0.00e+00	0	42	0	1570766848	40	5614
2026-01-25 03:55:24.89	234.40	24.90	-33.1	-33.7	27.6	0.00e+00	0	42	0	1577058304	40	5555
2026-01-25 03:55:25.89	234.65	24.99	-33.0	-33.6	27.7	0.00e+00	0	42	0	1582301184	40	5459
2026-01-25 03:55:26.90	234.90	25.07	-32.9	-33.6	27.8	0.00e+00	0	42	0	1587544064	40	5447
2026-01-25 03:55:27.91	235.15	25.16	-32.6	-33.2	28.0	0.00e+00	0	42	0	1593835520	38	5883
2026-01-25 03:55:28.93	235.41	25.24	-32.8	-33.5	27.8	0.00e+00	0	42	0	1599078400	38	6059
2026-01-25 03:55:29.93	235.66	25.33	-32.8	-33.4	27.9	0.00e+00	0	42	0	1605369856	38	5992
2026-01-25 03:55:30.94	235.92	25.41	-32.9	-33.5	27.7	0.00e+00	0	41	0	1610612736	38	6087
2026-01-25 03:55:31.95	236.18	25.50	-32.9	-33.5	27.7	0.00e+00	0	41	0	1616904192	38	6087
2026-01-25 03:55:32.96	236.44	25.58	-32.9	-33.5	27.8	0.00e+00	0	41	0	1622147072	38	6088
2026-01-25 03:55:33.97	236.70	25.66	-32.8	-33.4	27.8	0.00e+00	0	41	0	1627389952	38	5987
2026-01-25 03:55:34.98	236.96	25.75	-32.7	-33.3	27.9	0.00e+00	0	41	0	1633681408	38	5920
2026-01-25 03:55:35.99	237.23	25.83	-32.7	-33.3	28.0	0.00e+00	0	42	0	1638924288	38	5955
2026-01-25 03:55:37.00	237.49	25.91	-32.6	-33.2	27.9	0.00e+00	0	41	0	1645215744	38	5890
2026-01-25 03:55:38.01	237.76	25.99	-32.8	-33.5	27.9	0.00e+00	0	42	0	1650458624	38	6067
2026-01-25 03:55:39.02	238.03	26.08	-32.9	-33.5	27.8	0.00e+00	0	41	0	1655701504	38	6096
2026-01-25 03:55:40.03	238.30	26.16	-32.9	-33.6	27.8	0.00e+00	0	42	0	1661992960	38	6135
2026-01-25 03:55:41.04	238.57	26.24	-32.9	-33.5	27.8	0.00e+00	0	41	0	1667235840	38	6084
2026-01-25 03:55:42.05	238.84	26.32	-32.7	-33.3	27.9	0.00e+00	0	41	0	1673527296	38	5963
2026-01-25 03:55:43.06	239.12	26.40	-32.8	-33.4	28.0	0.00e+00	0	41	0	1678770176	38	5983
2026-01-25 03:55:44.07	239.39	26.48	-32.5	-33.1	28.1	0.00e+00	0	41	0	1684013056	38	5826
2026-01-25 03:55:45.08	239.67	26.56	-32.5	-33.1	28.1	0.00e+00	0	41	0	1690304512	38	5767
2026-01-25 03:55:46.09	239.95	26.63	-32.4	-33.0	28.3	0.00e+00	0	42	0	1695547392	38	5718
2026-01-25 03:55:47.10	240.22	26.71	-32.4	-33.0	28.3	0.00e+00	0	42	0	1701838848	38	5704
2026-01-25 03:55:48.11	240.50	26.79	-32.5	-33.1	28.1	0.00e+00	0	41	0	1707081728	38	5819
2026-01-25 03:55:49.11	240.78	26.87	-32.9	-33.5	27.9	0.00e+00	0	42	0	1713373184	38	6076
2026-01-25 03:55:50.12	241.07	26.94	-32.5	-33.1	28.2	0.00e+00	0	41	0	1718616064	38	5780
2026-01-25 03:55:51.13	241.35	27.02	-32.5	-33.1	28.1	0.00e+00	0	41	0	1724907520	38	5765
2026-01-25 03:55:52.14	241.64	27.09	-32.4	-33.0	28.2	0.00e+00	0	41	0	1730150400	38	5731
2026-01-25 03:55:53.15	241.92	27.17	-32.4	-33.0	28.2	0.00e+00	0	41	0	1735393280	38	5757
2026-01-25 03:55:54.16	242.21	27.24	-32.4	-33.0	28.3	0.00e+00	0	41	0	1741684736	38	5752
2026-01-25 03:55:55.17	242.50	27.32	-32.4	-33.0	28.3	0.00e+00	0	41	0	1746927616	38	5707
2026-01-25 03:55:56.18	242.79	27.39	-32.4	-33.0	28.2	0.00e+00	0	41	0	1753219072	38	5755
2026-01-25 03:55:57.19	243.08	27.46	-32.4	-33.1	28.2	0.00e+00	0	41	0	1758461952	38	5762
2026-01-25 03:55:58.20	243.38	27.54	-32.5	-33.1	28.2	0.00e+00	0	41	0	1763704832	38	5820
2026-01-25 03:55:59.21	243.67	27.61	-32.7	-33.3	28.0	0.00e+00	0	41	0	1769996288	38	5936
2026-01-25 03:56:00.22	243.97	27.68	-32.6	-33.2	28.0	0.00e+00	0	41	0	1775239168	38	5884
2026-01-25 03:56:01.23	244.27	27.75	-32.6	-33.2	28.1	0.00e+00	0	41	0	1781530624	38	5866
2026-01-25 03:56:02.23	244.56	27.82	-32.6	-33.3	28.0	0.00e+00	0	41	0	1786773504	38	5928
2026-01-25 03:56:03.25	244.87	27.89	-32.7	-33.4	28.0	0.00e+00	0	41	0	1792016384	38	5983
2026-01-25 03:56:04.26	245.17	27.95	-32.6	-33.3	28.0	0.00e+00	0	41	0	1798307840	38	5930
2026-01-25 03:56:05.27	245.47	28.02	-32.6	-33.3	28.1	0.00e+00	0	41	0	1803550720	38	5923
2026-01-25 03:56:06.28	245.77	28.09	-32.5	-33.2	28.1	0.00e+00	0	41	0	1809842176	38	5829
2026-01-25 03:56:07.29	246.08	28.15	-32.5	-33.1	28.2	0.00e+00	0	41	0	1815085056	38	5792
2026-01-25 03:56:08.30	246.38	28.22	-32.5	-33.1	28.0	0.00e+00	0	41	0	1821376512	38	5805
2026-01-25 03:56:09.30	246.69	28.28	-32.5	-33.1	28.2	0.00e+00	0	41	0	1826619392	38	5786
2026-01-25 03:56:10.31	247.00	28.35	-32.6	-33.2	28.0	0.00e+00	0	42	0	1831862272	38	5888
2026-01-25 03:56:11.32	247.31	28.41	-32.6	-33.2	28.1	0.00e+00	0	41	0	1838153728	38	5896
2026-01-25 03:56:12.33	247.62	28.47	-32.7	-33.4	28.0	0.00e+00	0	41	0	1843396608	38	5977
2026-01-25 03:56:13.34	247.93	28.54	-32.5	-33.1	28.2	0.00e+00	0	41	0	1849688064	38	5816
2026-01-25 03:56:14.35	248.24	28.60	-32.5	-33.1	28.2	0.00e+00	0	41	0	1854930944	38	5825
2026-01-25 03:56:15.36	248.56	28.66	-32.6	-33.2	28.2	0.00e+00	0	41	0	1860173824	38	5865
2026-01-25 03:56:16.37	248.87	28.72	-32.4	-33.0	28.3	0.00e+00	0	41	0	1866465280	38	5730
2026-01-25 03:56:17.38	249.19	28.77	-32.6	-33.2	28.1	0.00e+00	0	41	0	1871708160	38	5865
2026-01-25 03:56:18.39	249.51	28.83	-32.7	-33.3	28.1	0.00e+00	0	41	0	1877999616	38	5943
2026-01-25 03:56:19.40	249.83	28.89	-32.8	-33.4	28.0	0.00e+00	0	41	0	1883242496	38	6019
2026-01-25 03:56:20.41	250.15	28.95	-32.7	-33.3	28.1	0.00e+00	0	41	0	1888485376	38	5928
2026-01-25 03:56:21.42	250.47	29.00	-32.5	-33.1	28.2	0.00e+00	0	41	0	1894776832	38	5780
2026-01-25 03:56:22.43	250.79	29.06	-32.4	-32.9	28.3	0.00e+00	0	41	0	1900019712	38	5692
2026-01-25 03:56:23.44	251.11	29.11	-32.2	-32.8	28.4	0.00e+00	0	41	0	1906311168	38	5587
2026-01-25 03:56:24.45	251.44	29.16	-32.2	-32.8	28.4	0.00e+00	0	41	0	1911554048	38	5584
2026-01-25 03:56:25.46	251.76	29.21	-32.5	-33.1	28.2	0.00e+00	0	41	0	1917845504	38	5802
2026-01-25 03:56:26.47	252.09	29.26	-32.6	-33.3	28.0	0.00e+00	0	41	0	1923088384	38	5908
2026-01-25 03:56:27.48	252.42	29.31	-32.8	-33.4	27.9	0.00e+00	0	41	0	1928331264	38	6010
2026-01-25 03:56:28.49	252.74	29.36	-32.6	-33.2	28.1	0.00e+00	0	41	0	1934622720	38	5884
2026-01-25 03:56:29.50	253.07	29.41	-32.7	-33.3	28.0	0.00e+00	0	41	0	1939865600	38	5930
2026-01-25 03:56:30.51	253.40	29.46	-32.7	-33.3	28.0	0.00e+00	0	41	0	1946157056	38	5962
2026-01-25 03:56:31.52	253.74	29.50	-32.8	-33.5	28.0	0.00e+00	0	41	0	1951399936	38	6038
2026-01-25 03:56:32.53	254.07	29.55	-32.7	-33.3	28.0	0.00e+00	0	41	0	1957691392	38	5928
2026-01-25 03:56:33.54	254.40	29.59	-32.6	-33.2	28.1	0.00e+00	0	41	0	1962934272	38	5873
2026-01-25 03:56:34.55	254.73	29.64	-32.5	-33.1	28.2	0.00e+00	0	41	0	1968177152	38	5816
2026-01-25 03:56:35.56	255.07	29.68	-32.5	-33.1	28.2	0.00e+00	0	41	0	1974468608	38	5809
2026-01-25 03:56:36.57	255.41	29.72	-32.6	-33.2	28.2	0.00e+00	0	41	0	1979711488	38	5851
2026-01-25 03:56:37.57	255.74	29.76	-32.4	-33.1	28.2	0.00e+00	0	41	0	1986002944	38	5770
2026-01-25 03:56:38.58	256.08	29.80	-32.4	-33.0	28.3	0.00e+00	0	41	0	1991245824	38	5724
2026-01-25 03:56:39.59	256.41	29.84	-32.4	-33.0	28.3	0.00e+00	0	41	0	1996488704	38	5729
2026-01-25 03:56:40.60	256.75	29.88	-32.5	-33.1	28.2	0.00e+00	0	41	0	2002780160	38	5770
2026-01-25 03:56:41.61	257.09	29.91	-32.5	-33.1	28.2	0.00e+00	0	41	0	2008023040	38	5809
2026-01-25 03:56:42.62	257.43	29.95	-32.4	-33.0	28.3	0.00e+00	0	41	0	2014314496	38	5740
2026-01-25 03:56:43.63	257.77	29.98	-32.6	-33.2	28.2	0.00e+00	0	41	0	2019557376	38	5836
2026-01-25 03:56:44.64	258.12	30.02	-32.8	-33.4	28.0	0.00e+00	0	41	0	2024800256	38	5978
2026-01-25 03:56:45.65	258.46	30.05	-32.9	-33.5	27.9	0.00e+00	0	41	0	2031091712	38	6043
2026-01-25 03:56:46.66	258.80	30.08	-32.8	-33.4	28.0	0.00e+00	0	41	0	2036334592	38	6018
2026-01-25 03:56:47.67	259.14	30.11	-32.8	-33.4	27.9	0.00e+00	0	41	0	2042626048	38	6024
2026-01-25 03:56:48.68	259.49	30.14	-32.6	-33.2	28.1	0.00e+00	0	41	0	2047868928	38	5875
2026-01-25 03:56:49.69	259.83	30.17	-32.8	-33.5	28.0	0.00e+00	0	41	0	2054160384	38	6045
2026-01-25 03:56:50.70	260.18	30.19	-32.9	-33.5	28.0	0.00e+00	0	41	0	2059403264	38	6046
2026-01-25 03:56:51.71	260.53	30.22	-33.1	-33.7	27.8	0.00e+00	0	41	0	2064646144	38	6244
2026-01-25 03:56:52.72	260.87	30.24	-32.9	-33.5	28.0	0.00e+00	0	41	0	2070937600	38	6091
2026-01-25 03:56:53.73	261.22	30.27	-33.1	-33.7	27.8	0.00e+00	0	41	0	2076180480	38	6238
2026-01-25 03:56:54.73	261.56	30.29	-32.7	-33.4	28.1	0.00e+00	0	41	0	2082471936	38	6007
2026-01-25 03:56:55.74	261.91	30.31	-32.8	-33.5	28.0	0.00e+00	0	41	0	2087714816	38	6062
2026-01-25 03:56:56.75	262.26	30.33	-32.8	-33.4	28.0	0.00e+00	0	41	0	2092957696	38	6029
2026-01-25 03:56:57.76	262.61	30.35	-32.6	-33.3	28.2	0.00e+00	0	41	0	2099249152	38	5911
2026-01-25 03:56:58.77	262.96	30.37	-32.8	-33.5	27.9	0.00e+00	0	41	0	2104492032	38	6047
2026-01-25 03:56:59.78	263.31	30.38	-32.7	-33.3	28.2	0.00e+00	0	41	0	2110783488	38	5945
2026-01-25 03:57:00.79	263.66	30.40	-32.8	-33.4	28.1	0.00e+00	0	41	0	2116026368	38	6003
2026-01-25 03:57:01.80	264.01	30.41	-32.8	-33.4	28.0	0.00e+00	0	41	0	2122317824	38	6002
2026-01-25 03:57:02.81	264.36	30.43	-32.7	-33.4	28.0	0.00e+00	0	41	0	2127560704	38	5965
2026-01-25 03:57:03.82	264.71	30.44	-32.8	-33.4	28.1	0.00e+00	0	41	0	2132803584	38	6028
2026-01-25 03:57:04.83	265.06	30.45	-32.6	-33.2	28.2	0.00e+00	0	41	0	2139095040	38	5890
2026-01-25 03:57:05.84	265.41	30.46	-32.6	-33.2	28.2	0.00e+00	0	41	0	2144337920	38	5883
2026-01-25 03:57:06.85	265.76	30.47	-32.6	-33.3	28.1	0.00e+00	0	41	0	2150629376	38	5911
2026-01-25 03:57:07.86	266.11	30.47	-32.7	-33.3	28.1	0.00e+00	0	41	0	2155872256	38	5915
2026-01-25 03:57:08.87	266.46	30.48	-32.8	-33.5	28.0	0.00e+00	0	41	0	2162163712	38	6046
2026-01-25 03:57:09.88	266.82	30.49	-32.8	-33.5	27.9	0.00e+00	0	41	0	2167406592	38	6071
2026-01-25 03:57:10.89	267.17	30.49	-32.7	-33.4	28.1	0.00e+00	0	41	0	2172649472	38	5967
2026-01-25 03:57:11.90	267.52	30.49	-32.6	-33.2	28.2	0.00e+00	0	41	0	2178940928	38	5844
2026-01-25 03:57:12.91	267.87	30.49	-32.5	-33.1	28.1	0.00e+00	0	41	0	2184183808	38	5776
2026-01-25 03:57:13.92	268.22	30.50	-32.6	-33.2	28.2	0.00e+00	0	41	0	2190475264	38	5849
2026-01-25 03:57:14.93	268.58	30.49	-32.7	-33.3	28.1	0.00e+00	0	41	0	2195718144	38	5935
2026-01-25 03:57:15.94	268.93	30.49	-32.6	-33.2	28.0	0.00e+00	0	41	0	2200961024	38	5888
2026-01-25 03:57:16.95	269.28	30.49	-32.5	-33.1	28.1	0.00e+00	0	41	0	2207252480	38	5820
2026-01-25 03:57:17.96	269.63	30.49	-32.6	-33.2	28.1	0.00e+00	0	41	0	2212495360	38	5862
2026-01-25 03:57:18.97	269.98	30.48	-32.7	-33.3	28.0	0.00e+00	0	41	0	2218786816	38	5913
2026-01-25 03:57:19.98	270.34	30.47	-32.7	-33.3	28.0	0.00e+00	0	41	0	2224029696	38	5947
2026-01-25 03:57:20.99	270.69	30.47	-32.7	-33.3	28.0	0.00e+00	0	41	0	2229272576	38	5930
2026-01-25 03:57:22.00	271.04	30.46	-32.7	-33.3	27.9	0.00e+00	0	41	0	2235564032	38	5956
2026-01-25 03:57:23.00	271.39	30.45	-32.7	-33.2	27.9	0.00e+00	0	41	0	2240806912	38	5890
2026-01-25 03:57:24.01	271.74	30.44	-32.6	-33.3	27.8	0.00e+00	0	41	0	2247098368	38	5905
2026-01-25 03:57:25.02	272.09	30.42	-32.8	-33.4	28.0	0.00e+00	0	41	0	2252341248	38	5997
2026-01-25 03:57:26.03	272.44	30.41	-32.9	-33.5	28.0	0.00e+00	0	41	0	2258632704	38	6049
2026-01-25 03:57:27.04	272.79	30.40	-32.9	-33.5	27.9	0.00e+00	0	41	0	2263875584	38	6090
2026-01-25 03:57:28.05	273.14	30.38	-32.9	-33.5	28.0	0.00e+00	0	41	0	2269118464	38	6072
2026-01-25 03:57:29.06	273.49	30.36	-32.6	-33.1	28.1	0.00e+00	0	41	0	2275409920	38	5825
2026-01-25 03:57:30.07	273.84	30.35	-32.8	-33.5	28.0	0.00e+00	0	41	0	2280652800	38	6057
2026-01-25 03:57:31.08	274.18	30.33	-33.0	-33.6	27.9	0.00e+00	0	41	0	2286944256	38	6147
2026-01-25 03:57:32.09	274.53	30.31	-33.1	-33.8	27.8	0.00e+00	0	41	0	2292187136	38	6265
2026-01-25 03:57:33.10	274.88	30.29	-33.1	-33.8	27.7	0.00e+00	0	41	0	2297430016	38	6263
2026-01-25 03:57:34.11	275.23	30.26	-33.0	-33.6	27.8	0.00e+00	0	41	0	2303721472	38	6167
2026-01-25 03:57:35.12	275.57	30.24	-33.1	-33.7	27.7	0.00e+00	0	41	0	2308964352	38	6219
2026-01-25 03:57:36.13	275.92	30.22	-32.8	-33.4	28.0	0.00e+00	0	41	0	2315255808	38	5994
2026-01-25 03:57:37.14	276.26	30.19	-32.8	-33.5	28.0	0.00e+00	0	41	0	2320498688	38	6036
2026-01-25 03:57:38.15	276.61	30.16	-32.8	-33.4	28.0	0.00e+00	0	41	0	2325741568	38	6028
2026-01-25 03:57:39.16	276.95	30.13	-33.0	-33.7	27.9	0.00e+00	0	41	0	2332033024	38	6176
2026-01-25 03:57:40.17	277.30	30.11	-32.8	-33.4	28.1	0.00e+00	0	41	0	2337275904	38	5980
2026-01-25 03:57:41.18	277.64	30.08	-32.7	-33.3	28.1	0.00e+00	0	41	0	2343567360	38	5908
2026-01-25 03:57:42.18	277.98	30.04	-32.8	-33.4	28.0	0.00e+00	0	41	0	2348810240	38	5995
2026-01-25 03:57:43.19	278.32	30.01	-32.9	-33.6	28.0	0.00e+00	0	41	0	2355101696	38	6131
2026-01-25 03:57:44.20	278.66	29.98	-32.6	-33.2	28.2	0.00e+00	0	41	0	2360344576	38	5874
2026-01-25 03:57:45.21	279.00	29.95	-32.7	-33.4	28.2	0.00e+00	0	41	0	2365587456	38	5965
2026-01-25 03:57:46.22	279.34	29.91	-32.7	-33.4	28.1	0.00e+00	0	41	0	2371878912	38	5992
2026-01-25 03:57:47.23	279.68	29.87	-32.8	-33.4	28.0	0.00e+00	0	41	0	2377121792	38	6030
2026-01-25 03:57:48.24	280.02	29.84	-32.8	-33.4	27.9	0.00e+00	0	41	0	2383413248	38	6014
2026-01-25 03:57:49.25	280.36	29.80	-32.7	-33.3	28.1	0.00e+00	0	41	0	2388656128	38	5932
2026-01-25 03:57:50.26	280.70	29.76	-32.6	-33.3	28.1	0.00e+00	0	41	0	2393899008	38	5903
2026-01-25 03:57:51.27	281.03	29.72	-32.7	-33.3	28.1	0.00e+00	0	41	0	2400190464	38	5944
2026-01-25 03:57:52.28	281.37	29.68	-32.8	-33.4	28.0	0.00e+00	0	41	0	2405433344	38	5987
2026-01-25 03:57:53.29	281.70	29.63	-32.8	-33.4	28.0	0.00e+00	0	41	0	2411724800	38	5996
2026-01-25 03:57:54.29	282.03	29.59	-32.8	-33.4	28.1	0.00e+00	0	41	0	2416967680	38	6012
2026-01-25 03:57:55.30	282.36	29.55	-32.6	-33.2	28.1	0.00e+00	0	41	0	2422210560	38	5874
2026-01-25 03:57:56.31	282.69	29.50	-32.5	-33.1	28.2	0.00e+00	0	41	0	2428502016	38	5811
2026-01-25 03:57:57.32	283.02	29.46	-32.5	-33.1	28.2	0.00e+00	0	41	0	2433744896	38	5809
2026-01-25 03:57:58.33	283.35	29.41	-32.5	-33.1	28.2	0.00e+00	0	41	0	2440036352	38	5800
2026-01-25 03:57:59.34	283.68	29.36	-32.7	-33.3	28.2	0.00e+00	0	41	0	2445279232	38	5925
2026-01-25 03:58:00.35	284.01	29.31	-32.6	-33.2	28.1	0.00e+00	0	41	0	2451570688	38	5852
2026-01-25 03:58:01.36	284.34	29.26	-32.7	-33.3	28.1	0.00e+00	0	41	0	2456813568	38	5953
2026-01-25 03:58:02.37	284.66	29.21	-32.7	-33.4	28.0	0.00e+00	0	41	0	2463105024	38	5999
2026-01-25 03:58:03.38	284.99	29.16	-32.9	-33.5	27.9	0.00e+00	0	41	0	2468347904	38	6100
2026-01-25 03:58:04.39	285.31	29.11	-32.8	-33.5	27.9	0.00e+00	0	41	0	2473590784	38	6057
2026-01-25 03:58:05.40	285.63	29.05	-32.9	-33.6	28.0	0.00e+00	0	41	0	2479882240	38	6146
2026-01-25 03:58:06.41	285.95	29.00	-33.1	-33.8	27.7	0.00e+00	0	41	0	2485125120	38	6281
2026-01-25 03:58:07.42	286.28	28.94	-33.1	-33.8	27.8	0.00e+00	0	41	0	2490368000	38	6267
2026-01-25 03:58:08.43	286.59	28.89	-33.1	-33.7	27.7	0.00e+00	0	41	0	2496659456	38	6239
2026-01-25 03:58:09.44	286.91	28.83	-33.0	-33.6	27.8	0.00e+00	0	41	0	2501902336	38	6107
2026-01-25 03:58:10.45	287.23	28.77	-32.9	-33.5	28.0	0.00e+00	0	41	0	2508193792	38	6039
2026-01-25 03:58:11.46	287.55	28.72	-33.0	-33.6	27.9	0.00e+00	0	41	0	2513436672	38	6111
2026-01-25 03:58:12.47	287.86	28.66	-33.0	-33.6	27.8	0.00e+00	0	41	0	2518679552	38	6139
2026-01-25 03:58:13.48	288.17	28.60	-33.1	-33.8	27.8	0.00e+00	0	41	0	2524971008	38	6252
2026-01-25 03:58:14.49	288.49	28.54	-32.9	-33.5	27.9	0.00e+00	0	41	0	2530213888	38	6084
2026-01-25 03:58:15.50	288.80	28.47	-32.8	-33.5	27.9	0.00e+00	0	41	0	2536505344	38	6078
2026-01-25 03:58:16.51	289.11	28.41	-32.9	-33.4	27.9	0.00e+00	0	41	0	2541748224	38	6031
2026-01-25 03:58:17.52	289.42	28.35	-32.9	-33.6	27.9	0.00e+00	0	41	0	2548039680	38	6130
2026-01-25 03:58:18.53	289.72	28.28	-33.3	-33.9	27.6	0.00e+00	0	41	0	2553282560	38	6368
2026-01-25 03:58:19.54	290.03	28.22	-33.3	-33.9	27.7	0.00e+00	0	41	0	2559574016	38	6372
2026-01-25 03:58:20.55	290.34	28.15	-33.1	-33.7	27.8	0.00e+00	0	41	0	2564816896	38	6239
2026-01-25 03:58:21.56	290.64	28.09	-33.0	-33.6	27.9	0.00e+00	0	41	0	2570059776	38	6154
2026-01-25 03:58:22.57	290.94	28.02	-33.1	-33.8	27.7	0.00e+00	0	41	0	2576351232	38	6263
2026-01-25 03:58:23.58	291.24	27.95	-33.2	-33.8	27.7	0.00e+00	0	41	0	2581594112	38	6314
2026-01-25 03:58:24.59	291.54	27.89	-32.9	-33.5	27.9	0.00e+00	0	41	0	2587885568	38	6084
2026-01-25 03:58:25.60	291.84	27.82	-32.9	-33.4	27.9	0.00e+00	0	41	0	2593128448	38	6027
2026-01-25 03:58:26.61	292.14	27.75	-32.7	-33.3	28.0	0.00e+00	0	41	0	2598371328	38	5921
2026-01-25 03:58:27.62	292.44	27.68	-32.6	-33.2	28.2	0.00e+00	0	41	0	2604662784	38	5871
2026-01-25 03:58:28.63	292.73	27.61	-32.7	-33.3	28.1	0.00e+00	0	41	0	2609905664	38	5945
2026-01-25 03:58:29.64	293.03	27.54	-32.9	-33.5	27.9	0.00e+00	0	41	0	2616197120	38	6065
2026-01-25 03:58:30.64	293.32	27.47	-33.0	-33.7	27.8	0.00e+00	0	41	0	2621440000	38	6202
2026-01-25 03:58:31.65	293.61	27.39	-33.0	-33.8	27.8	0.00e+00	0	41	0	2626682880	38	6251
2026-01-25 03:58:32.66	293.90	27.32	-33.0	-33.5	27.8	0.00e+00	0	41	0	2632974336	38	6092
2026-01-25 03:58:33.67	294.19	27.25	-33.0	-33.6	27.9	0.00e+00	0	41	0	2638217216	38	6139
2026-01-25 03:58:34.68	294.47	27.17	-32.8	-33.5	27.9	0.00e+00	0	41	0	2644508672	38	6062
2026-01-25 03:58:35.69	294.76	27.10	-32.8	-33.4	27.9	0.00e+00	0	41	0	2649751552	38	5989
2026-01-25 03:58:36.70	295.04	27.02	-32.9	-33.6	27.9	0.00e+00	0	41	0	2656043008	38	6149
2026-01-25 03:58:37.71	295.33	26.95	-32.8	-33.4	28.0	0.00e+00	0	41	0	2661285888	38	5974
2026-01-25 03:58:38.72	295.61	26.87	-33.0	-33.6	27.9	0.00e+00	0	41	0	2667577344	38	6166
2026-01-25 03:58:39.73	295.89	26.80	-32.9	-33.6	27.9	0.00e+00	0	41	0	2672820224	38	6147
2026-01-25 03:58:40.74	296.17	26.72	-33.1	-33.7	27.8	0.00e+00	0	41	0	2678063104	38	6204
2026-01-25 03:58:41.75	296.45	26.64	-33.2	-33.8	27.7	0.00e+00	0	41	0	2684354560	38	6311
2026-01-25 03:58:42.76	296.73	26.56	-33.3	-34.0	27.6	0.00e+00	0	41	0	2689597440	38	6432
2026-01-25 03:58:43.77	297.00	26.48	-33.2	-33.8	27.5	0.00e+00	0	41	0	2694840320	38	6300
2026-01-25 03:58:44.78	297.27	26.41	-33.2	-33.8	27.7	0.00e+00	0	41	0	2701131776	38	6294
2026-01-25 03:58:45.79	297.55	26.33	-33.1	-33.7	27.8	0.00e+00	0	41	0	2706374656	38	6195
2026-01-25 03:58:46.80	297.82	26.25	-33.1	-33.8	27.8	0.00e+00	0	41	0	2712666112	38	6266
2026-01-25 03:58:47.81	298.09	26.17	-33.0	-33.6	27.8	0.00e+00	0	41	0	2717908992	38	6116
2026-01-25 03:58:48.82	298.36	26.08	-33.2	-33.8	27.7	0.00e+00	0	41	0	2723151872	38	6316
2026-01-25 03:58:49.83	298.63	26.00	-33.2	-33.9	27.7	0.00e+00	0	41	0	2729443328	38	6366
2026-01-25 03:58:50.84	298.89	25.92	-33.2	-33.9	27.5	0.00e+00	0	41	0	2734686208	38	6370
2026-01-25 03:58:51.85	299.16	25.84	-33.4	-34.0	27.4	0.00e+00	0	41	0	2740977664	38	6445
2026-01-25 03:58:52.86	299.42	25.76	-33.2	-33.9	27.6	0.00e+00	0	41	0	2746220544	38	6372
2026-01-25 03:58:53.87	299.68	25.67	-33.2	-33.8	27.7	0.00e+00	0	41	0	2752512000	38	6274
2026-01-25 03:58:54.88	299.94	25.59	-33.2	-33.9	27.6	0.00e+00	0	41	0	2757754880	38	6344
2026-01-25 03:58:55.89	300.20	25.51	-33.2	-33.8	27.6	0.00e+00	0	41	0	2764046336	38	6265
2026-01-25 03:58:56.89	300.46	25.43	-33.2	-33.9	27.6	0.00e+00	0	41	0	2769289216	38	6346
2026-01-25 03:58:57.91	300.72	25.34	-33.3	-33.9	27.5	0.00e+00	0	41	0	2774532096	38	6354
2026-01-25 03:58:58.91	300.97	25.26	-33.3	-34.0	27.6	0.00e+00	0	41	0	2780823552	38	6443
2026-01-25 03:58:59.93	301.22	25.17	-33.6	-34.3	27.3	0.00e+00	0	41	0	2786066432	38	6653
2026-01-25 03:59:00.93	301.47	25.09	-33.3	-33.9	27.6	0.00e+00	0	41	0	2792357888	38	6365
2026-01-25 03:59:01.94	301.73	25.00	-33.5	-34.1	27.3	0.00e+00	0	41	0	2797600768	38	6472
2026-01-25 03:59:02.94	301.97	24.92	-33.8	-34.5	27.1	0.00e+00	0	41	0	2802843648	38	6775
2026-01-25 03:59:03.95	302.22	24.83	-33.6	-34.1	27.3	0.00e+00	0	41	0	2809135104	40	5824
2026-01-25 03:59:04.97	302.47	24.74	-33.6	-34.2	27.3	0.00e+00	0	41	0	2814377984	40	5879
2026-01-25 03:59:05.98	302.72	24.66	-33.6	-34.2	27.2	0.00e+00	0	41	0	2820669440	40	5896
2026-01-25 03:59:06.99	302.96	24.57	-33.4	-34.0	27.4	0.00e+00	0	41	0	2825912320	40	5759
2026-01-25 03:59:07.99	303.20	24.49	-33.5	-34.2	27.3	0.00e+00	0	41	0	2831155200	40	5857
2026-01-25 03:59:09.00	303.45	24.40	-33.3	-33.9	27.5	0.00e+00	0	41	0	2837446656	40	5653
2026-01-25 03:59:10.01	303.69	24.31	-33.3	-34.0	27.4	0.00e+00	0	41	0	2842689536	40	5717
2026-01-25 03:59:11.02	303.93	24.22	-33.3	-33.9	27.5	0.00e+00	0	41	0	2848980992	40	5639
2026-01-25 03:59:12.03	304.16	24.14	-33.4	-34.1	27.4	0.00e+00	0	41	0	2854223872	40	5784
2026-01-25 03:59:13.04	304.40	24.05	-33.5	-34.1	27.4	0.00e+00	0	41	0	2860515328	40	5767
2026-01-25 03:59:14.05	304.64	23.96	-33.2	-33.7	27.6	0.00e+00	0	41	0	2865758208	40	5555
2026-01-25 03:59:15.06	304.87	23.87	-33.3	-33.8	27.5	0.00e+00	0	41	0	2871001088	40	5628
2026-01-25 03:59:16.07	305.10	23.78	-33.3	-33.8	27.4	0.00e+00	0	41	0	2877292544	40	5626
2026-01-25 03:59:17.08	305.33	23.69	-33.3	-33.9	27.4	0.00e+00	0	41	0	2882535424	40	5648
2026-01-25 03:59:18.09	305.56	23.61	-33.1	-33.8	27.5	0.00e+00	0	41	0	2888826880	40	5582
2026-01-25 03:59:19.10	305.79	23.52	-33.2	-33.7	27.6	0.00e+00	0	41	0	2894069760	40	5560
2026-01-25 03:59:20.11	306.02	23.43	-33.2	-33.7	27.6	0.00e+00	0	41	0	2899312640	40	5561
2026-01-25 03:59:21.12	306.25	23.34	-33.3	-33.9	27.4	0.00e+00	0	41	0	2905604096	40	5649
2026-01-25 03:59:22.13	306.47	23.25	-33.3	-33.8	27.4	0.00e+00	0	41	0	2910846976	40	5627
2026-01-25 03:59:23.13	306.70	23.16	-33.4	-34.0	27.1	0.00e+00	0	41	0	2917138432	40	5729
2026-01-25 03:59:24.15	306.92	23.07	-33.6	-34.2	26.9	0.00e+00	0	41	0	2922381312	40	5838
2026-01-25 03:59:25.16	307.14	22.98	-33.8	-34.6	26.7	0.00e+00	0	41	0	2927624192	40	6111
2026-01-25 03:59:26.17	307.36	22.89	-33.8	-34.5	27.0	0.00e+00	0	41	0	2933915648	40	6100
2026-01-25 03:59:27.18	307.58	22.80	-34.1	-34.7	26.7	0.00e+00	0	41	0	2939158528	40	6199
2026-01-25 03:59:28.19	307.80	22.71	-34.4	-35.2	26.3	0.00e+00	0	41	0	2945449984	40	6567
2026-01-25 03:59:29.20	308.01	22.62	-34.2	-34.8	26.7	0.00e+00	0	41	0	2950692864	40	6279
2026-01-25 03:59:30.21	308.23	22.53	-34.4	-35.0	26.6	0.00e+00	0	41	0	2956984320	40	6448
2026-01-25 03:59:31.21	308.44	22.44	-33.8	-34.3	27.0	0.00e+00	0	41	0	2962227200	40	5952
2026-01-25 03:59:32.22	308.66	22.35	-33.7	-34.4	26.9	0.00e+00	0	41	0	2968518656	40	5970
2026-01-25 03:59:33.23	308.87	22.26	-33.8	-34.4	27.1	0.00e+00	0	41	0	2973761536	40	5989
2026-01-25 03:59:34.24	309.08	22.17	-33.9	-34.6	26.9	0.00e+00	0	41	0	2979004416	40	6168
2026-01-25 03:59:35.25	309.29	22.08	-34.1	-34.7	26.9	0.00e+00	0	41	0	2985295872	40	6179
2026-01-25 03:59:36.26	309.49	21.99	-34.0	-34.6	26.9	0.00e+00	0	41	0	2990538752	40	6122
2026-01-25 03:59:37.27	309.70	21.89	-33.9	-34.4	27.0	0.00e+00	0	41	0	2995781632	40	6018
2026-01-25 03:59:38.28	309.91	21.80	-33.7	-34.3	27.1	0.00e+00	0	41	0	3002073088	40	5931
2026-01-25 03:59:39.29	310.11	21.71	-33.8	-34.4	27.0	0.00e+00	0	41	0	3007315968	40	6003
2026-01-25 03:59:40.30	310.31	21.62	-33.6	-34.3	27.1	0.00e+00	0	41	0	3013607424	40	5927
2026-01-25 03:59:41.30	310.52	21.53	-33.9	-34.5	26.9	0.00e+00	0	41	0	3018850304	40	6101
2026-01-25 03:59:42.31	310.72	21.44	-34.1	-34.7	26.8	0.00e+00	0	41	0	3024093184	40	6206
2026-01-25 03:59:43.33	310.92	21.35	-34.1	-34.6	26.9	0.00e+00	0	41	0	3030384640	40	6167
2026-01-25 03:59:44.33	311.11	21.26	-33.9	-34.7	27.0	0.00e+00	0	41	0	3035627520	40	6183
2026-01-25 03:59:45.34	311.31	21.17	-34.1	-34.7	26.7	0.00e+00	0	41	0	3041918976	40	6219
2026-01-25 03:59:46.35	311.51	21.08	-34.1	-34.8	26.8	0.00e+00	0	41	0	3047161856	40	6314
2026-01-25 03:59:47.36	311.70	20.99	-34.1	-34.6	26.8	0.00e+00	0	41	0	3053453312	40	6153
2026-01-25 03:59:48.37	311.90	20.90	-34.1	-34.8	26.8	0.00e+00	0	41	0	3058696192	40	6300
2026-01-25 03:59:49.38	312.09	20.80	-34.1	-34.7	26.8	0.00e+00	0	41	0	3064987648	40	6206
2026-01-25 03:59:50.39	312.28	20.71	-34.4	-35.1	26.5	0.00e+00	0	41	0	3070230528	40	6496
2026-01-25 03:59:51.40	312.47	20.62	-34.5	-35.1	26.4	0.00e+00	0	41	0	3075473408	40	6488
2026-01-25 03:59:52.41	312.66	20.53	-34.6	-35.3	26.4	0.00e+00	0	41	0	3081764864	42	5957
2026-01-25 03:59:53.42	312.85	20.44	-34.6	-35.3	26.3	0.00e+00	0	41	0	3087007744	42	5949
2026-01-25 03:59:54.43	313.04	20.35	-34.8	-35.6	26.1	0.00e+00	0	41	0	3093299200	42	6137
2026-01-25 03:59:55.44	313.23	20.26	-35.0	-35.6	26.0	0.00e+00	0	41	0	3098542080	42	6151
2026-01-25 03:59:56.45	313.41	20.17	-34.6	-35.2	26.3	0.00e+00	0	41	0	3103784960	42	5867
2026-01-25 03:59:57.46	313.60	20.08	-34.5	-35.0	26.5	0.00e+00	0	41	0	3110076416	42	5746
2026-01-25 03:59:58.47	313.78	19.99	-34.5	-35.2	26.4	0.00e+00	0	41	0	3115319296	42	5895
2026-01-25 03:59:59.48	313.96	19.90	-34.6	-35.2	26.3	0.00e+00	0	41	0	3121610752	42	5893
2026-01-25 04:00:00.48	314.14	19.81	-34.5	-35.2	26.4	0.00e+00	0	41	0	3126853632	42	5850
2026-01-25 04:00:01.49	314.32	19.72	-34.6	-35.3	26.3	0.00e+00	0	41	0	3132096512	42	5954
2026-01-25 04:00:02.50	314.50	19.63	-34.7	-35.5	26.2	0.00e+00	0	41	0	3138387968	42	6054
2026-01-25 04:00:03.51	314.68	19.53	-34.8	-35.4	26.2	0.00e+00	0	41	0	3143630848	42	5975
2026-01-25 04:00:04.52	314.86	19.44	-34.4	-35.2	26.5	0.00e+00	0	41	0	3149922304	42	5834
2026-01-25 04:00:05.53	315.03	19.35	-34.6	-35.1	26.4	0.00e+00	0	41	0	3155165184	42	5817
2026-01-25 04:00:06.54	315.21	19.26	-34.5	-35.1	26.4	0.00e+00	0	41	0	3161456640	42	5802
2026-01-25 04:00:07.55	315.38	19.17	-34.7	-35.4	26.3	0.00e+00	0	41	0	3166699520	42	6003
2026-01-25 04:00:08.56	315.56	19.08	-34.9	-35.5	26.1	0.00e+00	0	41	0	3171942400	42	6041
2026-01-25 04:00:09.57	315.73	18.99	-34.9	-35.6	26.1	0.00e+00	0	41	0	3178233856	42	6120
2026-01-25 04:00:10.58	315.90	18.90	-35.0	-35.6	25.9	0.00e+00	0	41	0	3183476736	42	6134
2026-01-25 04:00:11.59	316.07	18.81	-35.2	-35.8	25.7	0.00e+00	0	41	0	3189768192	42	6268
2026-01-25 04:00:12.60	316.24	18.72	-35.0	-35.7	26.0	0.00e+00	0	41	0	3195011072	42	6183
2026-01-25 04:00:13.61	316.41	18.63	-35.0	-35.6	26.0	0.00e+00	0	41	0	3200253952	42	6124
2026-01-25 04:00:14.62	316.57	18.54	-34.8	-35.4	26.1	0.00e+00	0	41	0	3206545408	42	6023
2026-01-25 04:00:15.63	316.74	18.46	-34.7	-35.3	26.2	0.00e+00	0	41	0	3211788288	42	5921
2026-01-25 04:00:16.64	316.90	18.37	-34.6	-35.3	26.3	0.00e+00	0	41	0	3218079744	42	5916
2026-01-25 04:00:17.65	317.07	18.28	-34.8	-35.5	26.1	0.00e+00	0	41	0	3223322624	42	6054
2026-01-25 04:00:18.66	317.23	18.19	-35.0	-35.8	26.1	0.00e+00	0	41	0	3228565504	42	6261
2026-01-25 04:00:19.67	317.40	18.10	-34.7	-35.4	26.2	0.00e+00	0	41	0	3234856960	42	6002
2026-01-25 04:00:20.68	317.56	18.01	-34.8	-35.6	26.2	0.00e+00	0	41	0	3240099840	42	6116
2026-01-25 04:00:21.69	317.72	17.92	-34.8	-35.4	26.1	0.00e+00	0	41	0	3246391296	42	5979
2026-01-25 04:00:22.70	317.88	17.83	-34.7	-35.4	26.2	0.00e+00	0	41	0	3251634176	42	6030
2026-01-25 04:00:23.71	318.04	17.74	-35.0	-35.5	26.0	0.00e+00	0	41	0	3257925632	42	6094
2026-01-25 04:00:24.72	318.19	17.65	-34.9	-35.6	26.1	0.00e+00	0	41	0	3263168512	42	6153
2026-01-25 04:00:25.73	318.35	17.57	-35.0	-35.5	25.9	0.00e+00	0	41	0	3269459968	42	6100
2026-01-25 04:00:26.74	318.51	17.48	-35.1	-35.7	25.8	0.00e+00	0	41	0	3274702848	42	6190
2026-01-25 04:00:27.74	318.66	17.39	-34.9	-35.7	26.0	0.00e+00	0	41	0	3279945728	42	6198
2026-01-25 04:00:28.75	318.82	17.30	-34.8	-35.6	26.1	0.00e+00	0	41	0	3286237184	42	6119
2026-01-25 04:00:29.76	318.97	17.22	-34.9	-35.4	26.1	0.00e+00	0	41	0	3291480064	42	6027
2026-01-25 04:00:30.77	319.12	17.13	-34.9	-35.6	26.0	0.00e+00	0	41	0	3297771520	42	6142
2026-01-25 04:00:31.78	319.27	17.04	-35.0	-35.6	26.0	0.00e+00	0	41	0	3303014400	42	6168
2026-01-25 04:00:32.79	319.42	16.95	-35.1	-35.8	25.8	0.00e+00	0	41	0	3308257280	42	6273
2026-01-25 04:00:33.80	319.57	16.86	-35.2	-35.9	25.8	0.00e+00	0	41	0	3314548736	42	6362
2026-01-25 04:00:34.81	319.72	16.78	-35.2	-35.8	25.7	0.00e+00	0	41	0	3319791616	42	6289
2026-01-25 04:00:35.82	319.87	16.69	-35.1	-35.8	25.8	0.00e+00	0	41	0	3325034496	42	6297
2026-01-25 04:00:36.83	320.02	16.60	-35.4	-36.2	25.6	0.00e+00	0	41	0	3331325952	42	6574
2026-01-25 04:00:37.84	320.17	16.52	-35.5	-36.2	25.6	0.00e+00	0	41	0	3336568832	42	6605
2026-01-25 04:00:38.85	320.31	16.43	-35.5	-36.2	25.5	0.00e+00	0	41	0	3342860288	44	5835
2026-01-25 04:00:39.86	320.46	16.34	-35.5	-36.2	25.5	0.00e+00	0	41	0	3348103168	44	5878
2026-01-25 04:00:40.87	320.60	16.26	-35.3	-36.0	25.7	0.00e+00	0	41	0	3354394624	44	5734
2026-01-25 04:00:41.87	320.75	16.17	-35.3	-35.9	25.6	0.00e+00	0	41	0	3359637504	44	5644
2026-01-25 04:00:42.89	320.89	16.08	-35.5	-36.1	25.4	0.00e+00	0	41	0	3365928960	44	5763
2026-01-25 04:00:43.90	321.03	16.00	-35.3	-36.1	25.6	0.00e+00	0	41	0	3371171840	44	5781
2026-01-25 04:00:44.90	321.17	15.91	-35.4	-36.1	25.5	0.00e+00	0	41	0	3376414720	44	5783
2026-01-25 04:00:45.91	321.31	15.83	-35.4	-36.0	25.5	0.00e+00	0	41	0	3382706176	44	5732
2026-01-25 04:00:46.92	321.45	15.74	-35.5	-36.1	25.4	0.00e+00	0	41	0	3387949056	44	5824
2026-01-25 04:00:47.93	321.59	15.66	-35.6	-36.4	25.3	0.00e+00	0	41	0	3394240512	44	5966
2026-01-25 04:00:48.94	321.73	15.57	-35.7	-36.3	25.3	0.00e+00	0	41	0	3399483392	44	5907
2026-01-25 04:00:49.96	321.87	15.49	-35.8	-36.4	25.2	0.00e+00	0	41	0	3404726272	44	6008
2026-01-25 04:00:50.96	322.00	15.40	-35.9	-36.5	25.1	0.00e+00	0	41	0	3411017728	44	6065
2026-01-25 04:00:51.97	322.14	15.32	-35.8	-36.6	25.1	0.00e+00	0	41	0	3416260608	44	6125
2026-01-25 04:00:52.98	322.27	15.23	-35.9	-36.6	25.0	0.00e+00	0	41	0	3422552064	44	6120
2026-01-25 04:00:53.99	322.41	15.15	-35.9	-36.7	25.0	0.00e+00	0	41	0	3427794944	44	6223
2026-01-25 04:00:55.00	322.54	15.06	-35.7	-36.4	25.2	0.00e+00	0	41	0	3433037824	44	6000
2026-01-25 04:00:56.01	322.67	14.98	-35.8	-36.4	25.2	0.00e+00	0	41	0	3439329280	44	5992
2026-01-25 04:00:57.02	322.81	14.89	-35.7	-36.4	25.2	0.00e+00	0	41	0	3444572160	44	6002
2026-01-25 04:00:58.03	322.94	14.81	-35.6	-36.3	25.3	0.00e+00	0	41	0	3450863616	44	5927
2026-01-25 04:00:59.04	323.07	14.73	-35.5	-36.1	25.4	0.00e+00	0	41	0	3456106496	44	5784
2026-01-25 04:01:00.05	323.20	14.64	-35.5	-36.3	25.4	0.00e+00	0	41	0	3462397952	44	5897
2026-01-25 04:01:01.06	323.33	14.56	-35.6	-36.2	25.3	0.00e+00	0	41	0	3467640832	44	5852
2026-01-25 04:01:02.07	323.46	14.48	-35.7	-36.2	25.3	0.00e+00	0	41	0	3472883712	44	5891
2026-01-25 04:01:03.08	323.58	14.39	-35.6	-36.3	25.3	0.00e+00	0	41	0	3479175168	44	5931
2026-01-25 04:01:04.09	323.71	14.31	-35.8	-36.6	25.1	0.00e+00	0	41	0	3484418048	44	6111
2026-01-25 04:01:05.09	323.84	14.23	-36.0	-36.6	24.9	0.00e+00	0	41	0	3490709504	44	6160
2026-01-25 04:01:06.11	323.96	14.14	-35.7	-36.5	25.2	0.00e+00	0	41	0	3495952384	44	6070
2026-01-25 04:01:07.12	324.09	14.06	-36.1	-36.7	24.8	0.00e+00	0	41	0	3501195264	44	6208
2026-01-25 04:01:08.13	324.21	13.98	-36.1	-36.7	24.9	0.00e+00	0	41	0	3507486720	44	6218
2026-01-25 04:01:09.14	324.34	13.90	-35.8	-36.5	25.1	0.00e+00	0	41	0	3512729600	44	6042
2026-01-25 04:01:10.15	324.46	13.82	-35.9	-36.6	25.0	0.00e+00	0	41	0	3519021056	44	6151
2026-01-25 04:01:11.16	324.58	13.73	-35.8	-36.6	25.0	0.00e+00	0	41	0	3524263936	44	6142
2026-01-25 04:01:12.17	324.71	13.65	-35.7	-36.3	25.3	0.00e+00	0	41	0	3529506816	44	5911
2026-01-25 04:01:13.18	324.83	13.57	-35.6	-36.4	25.3	0.00e+00	0	41	0	3535798272	44	5990
2026-01-25 04:01:14.19	324.95	13.49	-35.6	-36.2	25.2	0.00e+00	0	41	0	3541041152	44	5876
2026-01-25 04:01:15.20	325.07	13.41	-35.7	-36.3	25.1	0.00e+00	0	41	0	3547332608	44	5957
2026-01-25 04:01:16.21	325.19	13.33	-35.7	-36.4	25.2	0.00e+00	0	41	0	3552575488	44	6021
2026-01-25 04:01:17.22	325.31	13.25	-35.8	-36.6	25.1	0.00e+00	0	41	0	3558866944	44	6123
2026-01-25 04:01:18.22	325.42	13.17	-36.0	-36.6	24.9	0.00e+00	0	41	0	3564109824	44	6154
2026-01-25 04:01:19.23	325.54	13.09	-36.0	-36.7	24.8	0.00e+00	0	41	0	3570401280	44	6224
2026-01-25 04:01:20.24	325.66	13.00	-36.1	-36.9	24.8	0.00e+00	0	41	0	3575644160	44	6362
2026-01-25 04:01:21.25	325.77	12.92	-36.1	-36.9	24.7	0.00e+00	0	41	0	3580887040	44	6335
2026-01-25 04:01:22.25	325.89	12.85	-36.2	-36.9	24.6	0.00e+00	0	41	0	3587178496	44	6334
2026-01-25 04:01:23.26	326.00	12.77	-36.3	-37.1	24.7	0.00e+00	0	41	0	3592421376	44	6481
