passes_logs/2026/01/25/R4.6S_Anadyr/R4.6S_Anadyr__20260125_191456_FENGYUN_3D_rec.log

#Pass ID: 20260125_191456_FENGYUN 3D
#Satellite: FENGYUN 3D
#Configuration: FENGYUN 3D
#almurnet v.1.7.20251203
#Start time: 2026-01-25 19:14:58

#Version: 2.2.20231116
#Station: R4.6S_Anadyr
#Location: 177.4865 lon 64.73178 lat
#TLE: 1 43010U 17072A   26025.50461972  .00000046  00000+0  43592-4 0  9990
#TLE: 2 43010  98.9962 357.4844 0002523  89.7890 270.3575 14.19699798424744

#Time	Az	El	Level	Level2	SNR	BER	BlckErr	Temp	State	Recorded	gain1	gain2
2026-01-25 19:14:58.18	30.59	0.08	-50.5	-68.2	3.5	3.02e+01	0	39	0	0	60	98854
2026-01-25 19:14:59.18	30.54	0.14	-50.4	-62.6	3.6	8.45e-01	0	40	104	0	60	48557
2026-01-25 19:15:00.19	30.49	0.19	-50.3	-62.5	3.6	8.45e-01	0	40	104	0	60	48117
2026-01-25 19:15:01.20	30.43	0.25	-50.3	-62.4	3.6	8.45e-01	0	40	104	0	60	47541
2026-01-25 19:15:02.22	30.38	0.31	-50.2	-62.4	3.6	8.45e-01	0	40	104	0	60	47464
2026-01-25 19:15:03.23	30.32	0.36	-50.2	-62.3	3.6	8.45e-01	0	40	104	0	60	47235
2026-01-25 19:15:04.23	30.27	0.42	-50.3	-62.4	3.6	8.45e-01	0	40	104	0	60	47511
2026-01-25 19:15:05.24	30.21	0.47	-50.2	-62.4	3.6	8.46e-01	0	40	104	0	60	47410
2026-01-25 19:15:06.26	30.16	0.53	-50.2	-62.4	3.6	8.45e-01	0	40	104	0	60	47533
2026-01-25 19:15:07.26	30.10	0.58	-50.3	-62.3	3.6	8.44e-01	0	40	104	0	60	47351
2026-01-25 19:15:08.27	30.05	0.64	-50.2	-62.3	3.6	8.45e-01	0	40	104	0	60	47179
2026-01-25 19:15:09.28	29.99	0.69	-50.2	-62.3	3.6	8.46e-01	0	40	104	0	60	47246
2026-01-25 19:15:10.29	29.94	0.75	-50.1	-62.3	3.6	8.44e-01	0	40	104	0	60	47003
2026-01-25 19:15:11.30	29.88	0.81	-50.2	-62.3	3.6	8.45e-01	0	41	104	0	60	47098
2026-01-25 19:15:12.31	29.82	0.86	-50.1	-62.3	3.6	8.45e-01	0	40	104	0	60	46951
2026-01-25 19:15:13.32	29.77	0.92	-50.1	-62.2	3.6	8.45e-01	0	40	104	0	60	46607
2026-01-25 19:15:14.33	29.71	0.97	-50.0	-62.1	3.6	8.45e-01	0	40	104	0	60	46080
2026-01-25 19:15:15.34	29.65	1.03	-49.9	-62.1	3.6	8.44e-01	0	40	104	0	60	45835
2026-01-25 19:15:16.35	29.59	1.09	-49.8	-62.0	3.6	8.45e-01	0	40	104	0	60	45510
2026-01-25 19:15:17.36	29.54	1.14	-49.8	-61.9	3.6	8.45e-01	0	41	104	0	60	45151
2026-01-25 19:15:18.37	29.48	1.20	-49.7	-61.8	3.6	8.45e-01	0	41	104	0	60	44692
2026-01-25 19:15:19.38	29.42	1.26	-49.6	-61.7	3.6	8.46e-01	0	41	104	0	60	43928
2026-01-25 19:15:20.39	29.36	1.31	-49.4	-61.5	3.6	8.45e-01	0	40	104	0	60	42890
2026-01-25 19:15:21.40	29.30	1.37	-49.2	-61.3	3.6	8.44e-01	0	40	104	0	60	41829
2026-01-25 19:15:22.40	29.25	1.43	-48.8	-60.9	3.6	8.45e-01	0	41	104	0	60	39975
2026-01-25 19:15:23.41	29.19	1.48	-48.7	-60.7	3.6	8.45e-01	0	41	104	0	60	39318
2026-01-25 19:15:24.42	29.13	1.54	-48.7	-60.7	3.6	8.44e-01	0	41	104	0	60	39153
2026-01-25 19:15:25.44	29.07	1.60	-48.7	-60.7	3.6	8.45e-01	0	41	104	0	60	39299
2026-01-25 19:15:26.44	29.01	1.65	-48.7	-60.8	3.6	8.44e-01	0	41	104	0	60	39637
2026-01-25 19:15:27.46	28.95	1.71	-48.7	-60.8	3.6	8.46e-01	0	41	104	0	60	39787
2026-01-25 19:15:28.47	28.89	1.77	-48.7	-60.9	3.6	8.45e-01	0	41	104	0	60	39916
2026-01-25 19:15:29.47	28.83	1.83	-48.7	-60.8	3.6	8.46e-01	0	41	104	0	60	39859
2026-01-25 19:15:30.49	28.76	1.88	-48.7	-60.8	3.6	8.45e-01	0	41	104	0	60	39742
2026-01-25 19:15:31.50	28.70	1.94	-48.7	-60.9	3.6	8.46e-01	0	41	104	0	60	39941
2026-01-25 19:15:32.51	28.64	2.00	-48.7	-60.9	3.6	8.46e-01	0	41	104	0	60	39996
2026-01-25 19:15:33.52	28.58	2.06	-48.7	-60.7	3.6	8.45e-01	0	41	104	0	60	39266
2026-01-25 19:15:34.53	28.52	2.12	-48.7	-60.7	3.6	8.45e-01	0	41	104	0	60	39132
2026-01-25 19:15:35.54	28.46	2.17	-48.7	-60.4	3.6	8.45e-01	0	41	104	0	60	38041
2026-01-25 19:15:36.55	28.39	2.23	-48.7	-60.4	3.6	8.47e-01	0	41	104	0	60	38014
2026-01-25 19:15:37.56	28.33	2.29	-48.7	-60.3	3.6	8.45e-01	0	41	104	0	60	37319
2026-01-25 19:15:38.57	28.27	2.35	-48.7	-60.5	3.6	8.45e-01	0	41	104	0	60	38403
2026-01-25 19:15:39.58	28.21	2.41	-48.7	-60.8	3.6	8.46e-01	0	41	104	0	60	39441
2026-01-25 19:15:40.59	28.14	2.46	-48.7	-60.8	3.6	8.45e-01	0	41	104	0	60	39701
2026-01-25 19:15:41.60	28.08	2.52	-48.7	-60.8	3.6	8.45e-01	0	41	104	0	60	39641
2026-01-25 19:15:42.61	28.01	2.58	-48.7	-60.8	3.6	8.45e-01	0	41	104	0	60	39770
2026-01-25 19:15:43.62	27.95	2.64	-48.7	-60.8	3.6	8.45e-01	0	41	104	0	60	39817
2026-01-25 19:15:44.62	27.89	2.70	-48.7	-60.7	3.6	8.45e-01	0	41	104	0	60	39227
2026-01-25 19:15:45.63	27.82	2.76	-48.7	-60.1	3.6	8.44e-01	0	41	104	0	60	36639
2026-01-25 19:15:46.64	27.76	2.82	-48.6	-59.5	3.6	8.44e-01	0	41	104	0	60	34225
2026-01-25 19:15:47.65	27.69	2.87	-48.6	-59.3	3.6	8.45e-01	0	41	104	0	60	33344
2026-01-25 19:15:48.66	27.63	2.93	-48.6	-60.0	3.6	8.44e-01	0	41	104	0	60	36032
2026-01-25 19:15:49.67	27.56	2.99	-48.7	-60.7	3.6	8.45e-01	0	41	104	0	60	39355
2026-01-25 19:15:50.68	27.49	3.05	-48.5	-58.8	3.6	8.45e-01	0	41	104	0	60	31408
2026-01-25 19:15:51.70	27.43	3.11	-47.4	-52.9	6.9	3.86e-01	0	41	104	0	60	15970
2026-01-25 19:15:52.71	27.36	3.17	-46.1	-49.3	10.2	4.52e-02	0	41	0	3145728	60	10498
2026-01-25 19:15:53.72	27.29	3.23	-44.7	-47.0	12.8	2.87e-04	0	41	0	9437184	60	8085
2026-01-25 19:15:54.73	27.22	3.29	-43.3	-45.0	14.9	0.00e+00	0	41	0	14680064	60	6435
2026-01-25 19:15:55.74	27.16	3.35	-41.4	-42.6	17.3	0.00e+00	0	41	0	20971520	56	6155
2026-01-25 19:15:56.75	27.09	3.41	-48.7	-58.9	3.6	1.44e-02	0	41	104	25165824	60	32007
2026-01-25 19:15:57.76	27.02	3.47	-42.9	-44.6	6.0	7.65e-01	0	41	104	25165824	60	6113
2026-01-25 19:15:58.77	26.95	3.53	-47.9	-54.6	3.5	0.00e+00	0	41	0	25165824	60	19417
2026-01-25 19:15:59.78	26.88	3.59	-47.7	-53.8	4.4	8.44e-01	0	41	104	25165824	60	17724
2026-01-25 19:16:00.79	26.81	3.65	-40.2	-41.3	17.2	1.10e-06	0	41	0	25165824	54	5946
2026-01-25 19:16:01.80	26.75	3.71	-41.2	-42.4	17.9	0.00e+00	0	41	0	31457280	56	6023
2026-01-25 19:16:02.81	26.68	3.77	-40.6	-41.7	18.6	0.00e+00	0	41	0	36700160	54	6199
2026-01-25 19:16:03.82	26.61	3.83	-39.9	-40.9	19.2	0.00e+00	0	41	0	41943040	52	6368
2026-01-25 19:16:04.83	26.54	3.89	-40.1	-41.2	18.7	0.00e+00	0	41	0	48234496	52	6578
2026-01-25 19:16:05.84	26.46	3.95	-38.7	-39.6	20.5	0.00e+00	0	41	0	53477376	50	6109
2026-01-25 19:16:06.85	26.39	4.01	-38.9	-39.8	20.2	0.00e+00	0	41	0	59768832	50	6311
2026-01-25 19:16:07.85	26.32	4.07	-38.5	-39.4	20.6	0.00e+00	0	41	0	65011712	50	6008
2026-01-25 19:16:08.86	26.25	4.13	-37.9	-38.7	21.2	0.00e+00	0	41	0	70254592	50	5565
2026-01-25 19:16:09.87	26.18	4.20	-37.6	-38.4	21.4	0.00e+00	0	41	0	76546048	48	6025
2026-01-25 19:16:10.89	26.11	4.26	-37.2	-38.0	21.9	0.00e+00	0	41	0	81788928	48	5710
2026-01-25 19:16:11.89	26.04	4.32	-37.0	-37.8	22.2	0.00e+00	0	41	0	88080384	48	5618
2026-01-25 19:16:12.90	25.96	4.38	-36.8	-37.6	22.4	0.00e+00	0	41	0	93323264	46	6131
2026-01-25 19:16:13.91	25.89	4.44	-37.8	-38.6	21.4	0.00e+00	0	41	0	98566144	48	6131
2026-01-25 19:16:14.92	25.82	4.50	-37.3	-38.1	21.8	0.00e+00	0	41	0	104857600	48	5773
2026-01-25 19:16:15.93	25.74	4.56	-37.0	-37.8	22.2	0.00e+00	0	41	0	110100480	48	5614
2026-01-25 19:16:16.94	25.67	4.62	-36.9	-37.7	22.2	0.00e+00	0	41	0	116391936	46	6219
2026-01-25 19:16:17.95	25.59	4.69	-37.2	-38.0	22.0	0.00e+00	0	41	0	121634816	46	6417
2026-01-25 19:16:18.96	25.52	4.75	-37.3	-38.1	22.1	0.00e+00	0	41	0	127926272	46	6503
2026-01-25 19:16:19.97	25.44	4.81	-37.0	-37.7	22.2	0.00e+00	0	41	0	133169152	46	6228
2026-01-25 19:16:20.98	25.37	4.87	-36.8	-37.6	22.5	0.00e+00	0	41	0	138412032	46	6159
2026-01-25 19:16:21.99	25.29	4.93	-36.9	-37.7	22.4	0.00e+00	0	41	0	144703488	46	6187
2026-01-25 19:16:23.00	25.22	5.00	-37.2	-37.9	22.3	0.00e+00	0	41	0	149946368	46	6384
2026-01-25 19:16:24.01	25.14	5.06	-36.5	-37.3	22.8	0.00e+00	0	41	0	156237824	46	5922
2026-01-25 19:16:25.02	25.06	5.12	-36.8	-37.6	22.5	0.00e+00	0	41	0	161480704	46	6143
2026-01-25 19:16:26.03	24.99	5.18	-36.9	-37.7	22.3	0.00e+00	0	41	0	166723584	46	6204
2026-01-25 19:16:27.04	24.91	5.25	-36.4	-37.2	22.9	0.00e+00	0	41	0	173015040	46	5837
2026-01-25 19:16:28.05	24.83	5.31	-36.7	-37.4	22.6	0.00e+00	0	41	0	178257920	46	6026
2026-01-25 19:16:29.06	24.75	5.37	-36.7	-37.5	22.7	0.00e+00	0	41	0	184549376	46	6052
2026-01-25 19:16:30.07	24.67	5.43	-37.1	-37.9	22.3	0.00e+00	0	41	0	189792256	46	6340
2026-01-25 19:16:31.08	24.59	5.50	-36.9	-37.7	22.4	0.00e+00	0	41	0	195035136	46	6205
2026-01-25 19:16:32.09	24.52	5.56	-36.9	-37.7	22.4	0.00e+00	0	41	0	201326592	46	6220
2026-01-25 19:16:33.09	24.44	5.62	-37.0	-37.8	22.4	0.00e+00	0	41	0	206569472	46	6251
2026-01-25 19:16:34.10	24.36	5.69	-37.0	-37.8	22.3	0.00e+00	0	41	0	212860928	46	6294
2026-01-25 19:16:35.11	24.28	5.75	-36.9	-37.7	22.5	0.00e+00	0	41	0	218103808	46	6196
2026-01-25 19:16:36.12	24.20	5.81	-37.2	-38.0	22.3	0.00e+00	0	41	0	224395264	46	6445
2026-01-25 19:16:37.13	24.11	5.88	-36.7	-37.4	22.8	0.00e+00	0	41	0	229638144	46	6009
2026-01-25 19:16:38.14	24.03	5.94	-37.6	-38.4	22.1	0.00e+00	0	41	0	235929600	46	6754
2026-01-25 19:16:39.15	23.95	6.00	-37.1	-37.9	22.4	0.00e+00	0	41	0	241172480	46	6367
2026-01-25 19:16:40.16	23.87	6.07	-37.1	-37.9	22.2	0.00e+00	0	41	0	246415360	46	6347
2026-01-25 19:16:41.17	23.79	6.13	-37.0	-37.7	22.5	0.00e+00	0	41	0	252706816	46	6235
2026-01-25 19:16:42.18	23.70	6.20	-37.5	-38.3	21.9	0.00e+00	0	41	0	257949696	46	6662
2026-01-25 19:16:43.19	23.62	6.26	-36.7	-37.5	22.7	0.00e+00	0	41	0	263192576	46	6070
2026-01-25 19:16:44.20	23.54	6.33	-36.5	-37.3	22.9	0.00e+00	0	41	0	269484032	46	5932
2026-01-25 19:16:45.21	23.45	6.39	-36.8	-37.5	22.7	0.00e+00	0	41	0	274726912	46	6081
2026-01-25 19:16:46.21	23.37	6.45	-36.8	-37.6	22.6	0.00e+00	0	41	0	281018368	46	6135
2026-01-25 19:16:47.22	23.28	6.52	-36.9	-37.7	22.5	0.00e+00	0	41	0	286261248	46	6187
2026-01-25 19:16:48.23	23.20	6.58	-36.8	-37.5	22.7	0.00e+00	0	41	0	291504128	46	6100
2026-01-25 19:16:49.24	23.11	6.65	-36.4	-37.1	23.2	0.00e+00	0	41	0	297795584	46	5799
2026-01-25 19:16:50.25	23.03	6.71	-36.8	-37.5	22.7	0.00e+00	0	41	0	303038464	46	6082
2026-01-25 19:16:51.26	22.94	6.78	-36.6	-37.4	22.8	0.00e+00	0	41	0	309329920	46	5993
2026-01-25 19:16:52.28	22.85	6.84	-36.3	-37.0	23.2	0.00e+00	0	41	0	314572800	46	5760
2026-01-25 19:16:53.28	22.77	6.91	-36.2	-36.9	23.3	0.00e+00	0	41	0	320864256	46	5655
2026-01-25 19:16:54.30	22.68	6.97	-36.2	-36.9	23.4	0.00e+00	0	41	0	326107136	46	5672
2026-01-25 19:16:55.31	22.59	7.04	-36.5	-37.3	22.9	0.00e+00	0	41	0	332398592	46	5953
2026-01-25 19:16:56.32	22.50	7.10	-36.2	-37.0	23.5	0.00e+00	0	41	0	337641472	46	5702
2026-01-25 19:16:57.33	22.41	7.17	-36.5	-37.3	23.0	0.00e+00	0	41	0	342884352	46	5921
2026-01-25 19:16:58.34	22.32	7.24	-36.0	-36.7	23.6	0.00e+00	0	41	0	349175808	46	5556
2026-01-25 19:16:59.35	22.23	7.30	-36.3	-37.0	23.3	0.00e+00	0	41	0	354418688	46	5757
2026-01-25 19:17:00.36	22.14	7.37	-36.1	-36.8	23.5	0.00e+00	0	41	0	360710144	46	5611
2026-01-25 19:17:01.37	22.05	7.43	-36.3	-37.0	23.3	0.00e+00	0	41	0	365953024	46	5745
2026-01-25 19:17:02.38	21.96	7.50	-36.1	-36.8	23.5	0.00e+00	0	41	0	371195904	46	5630
2026-01-25 19:17:03.39	21.87	7.57	-36.2	-36.9	23.3	0.00e+00	0	41	0	377487360	46	5693
2026-01-25 19:17:04.40	21.78	7.63	-36.5	-37.3	23.0	0.00e+00	0	41	0	382730240	46	5900
2026-01-25 19:17:05.41	21.68	7.70	-36.3	-37.1	23.4	0.00e+00	0	41	0	389021696	46	5790
2026-01-25 19:17:06.42	21.59	7.76	-36.1	-36.9	23.5	0.00e+00	0	41	0	394264576	46	5634
2026-01-25 19:17:07.43	21.50	7.83	-36.0	-36.7	23.6	0.00e+00	0	41	0	399507456	46	5558
2026-01-25 19:17:08.44	21.40	7.90	-36.0	-36.7	23.6	0.00e+00	0	41	0	405798912	46	5550
2026-01-25 19:17:09.45	21.31	7.96	-36.0	-36.7	23.7	0.00e+00	0	41	0	411041792	46	5524
2026-01-25 19:17:10.46	21.22	8.03	-36.0	-36.8	23.6	0.00e+00	0	41	0	417333248	46	5568
2026-01-25 19:17:11.47	21.12	8.10	-36.2	-36.9	23.5	0.00e+00	0	41	0	422576128	46	5678
2026-01-25 19:17:12.47	21.03	8.17	-36.5	-37.2	23.1	0.00e+00	0	41	0	428867584	46	5888
2026-01-25 19:17:13.49	20.93	8.23	-36.4	-37.2	23.1	0.00e+00	0	41	0	434110464	46	5878
2026-01-25 19:17:14.49	20.83	8.30	-36.5	-37.2	23.2	0.00e+00	0	41	0	440401920	46	5874
2026-01-25 19:17:15.50	20.74	8.37	-36.6	-37.3	23.1	0.00e+00	0	41	0	445644800	46	5950
2026-01-25 19:17:16.52	20.64	8.44	-36.6	-37.4	23.1	0.00e+00	0	41	0	450887680	46	6006
2026-01-25 19:17:17.52	20.54	8.50	-36.6	-37.3	23.1	0.00e+00	0	41	0	457179136	46	5960
2026-01-25 19:17:18.53	20.44	8.57	-36.6	-37.3	23.1	0.00e+00	0	41	0	462422016	46	5945
2026-01-25 19:17:19.54	20.34	8.64	-36.0	-36.7	23.7	0.00e+00	0	42	0	468713472	46	5533
2026-01-25 19:17:20.55	20.24	8.71	-36.0	-36.8	23.7	0.00e+00	0	42	0	473956352	46	5591
2026-01-25 19:17:21.56	20.15	8.77	-35.5	-36.2	24.1	0.00e+00	0	41	0	479199232	44	5894
2026-01-25 19:17:22.57	20.04	8.84	-35.8	-36.6	23.9	0.00e+00	0	41	0	485490688	44	6115
2026-01-25 19:17:23.58	19.94	8.91	-35.5	-36.2	24.2	0.00e+00	0	41	0	490733568	44	5834
2026-01-25 19:17:24.59	19.84	8.98	-35.7	-36.5	24.0	0.00e+00	0	41	0	497025024	44	6035
2026-01-25 19:17:25.60	19.74	9.05	-35.8	-36.5	23.9	0.00e+00	0	41	0	502267904	44	6053
2026-01-25 19:17:26.61	19.64	9.12	-35.6	-36.3	24.1	0.00e+00	0	42	0	507510784	44	5958
2026-01-25 19:17:27.62	19.54	9.18	-35.7	-36.4	24.0	0.00e+00	0	41	0	513802240	44	6013
2026-01-25 19:17:28.63	19.43	9.25	-35.5	-36.3	24.1	0.00e+00	0	41	0	519045120	44	5900
2026-01-25 19:17:29.63	19.33	9.32	-35.5	-36.2	24.3	0.00e+00	0	41	0	525336576	44	5852
2026-01-25 19:17:30.64	19.23	9.39	-36.0	-36.8	23.7	0.00e+00	0	41	0	530579456	44	6253
2026-01-25 19:17:31.65	19.12	9.46	-35.3	-36.0	24.5	0.00e+00	0	41	0	536870912	44	5711
2026-01-25 19:17:32.66	19.02	9.53	-35.3	-36.0	24.4	0.00e+00	0	41	0	542113792	44	5711
2026-01-25 19:17:33.67	18.91	9.60	-35.8	-36.5	23.9	0.00e+00	0	41	0	547356672	44	6083
2026-01-25 19:17:34.68	18.80	9.67	-35.7	-36.4	24.1	0.00e+00	0	41	0	553648128	44	6030
2026-01-25 19:17:35.69	18.70	9.74	-35.3	-36.0	24.5	0.00e+00	0	41	0	558891008	44	5702
2026-01-25 19:17:36.70	18.59	9.81	-35.9	-36.7	23.8	0.00e+00	0	41	0	565182464	44	6190
2026-01-25 19:17:37.71	18.48	9.87	-35.8	-36.5	24.0	0.00e+00	0	41	0	570425344	44	6100
2026-01-25 19:17:38.72	18.37	9.94	-35.6	-36.4	24.1	0.00e+00	0	41	0	575668224	44	5966
2026-01-25 19:17:39.73	18.27	10.01	-35.6	-36.3	24.1	0.00e+00	0	41	0	581959680	44	5917
2026-01-25 19:17:40.74	18.16	10.08	-35.6	-36.3	24.2	0.00e+00	0	41	0	587202560	44	5914
2026-01-25 19:17:41.75	18.05	10.15	-35.3	-36.1	24.4	0.00e+00	0	41	0	593494016	44	5770
2026-01-25 19:17:42.76	17.94	10.22	-35.4	-36.1	24.2	0.00e+00	0	41	0	598736896	44	5813
2026-01-25 19:17:43.77	17.82	10.29	-35.4	-36.1	24.4	0.00e+00	0	41	0	603979776	44	5783
2026-01-25 19:17:44.78	17.71	10.36	-35.4	-36.2	24.3	0.00e+00	0	42	0	610271232	44	5832
2026-01-25 19:17:45.79	17.60	10.43	-35.4	-36.1	24.3	0.00e+00	0	41	0	615514112	44	5799
2026-01-25 19:17:46.80	17.49	10.50	-35.5	-36.2	24.4	0.00e+00	0	41	0	621805568	44	5834
2026-01-25 19:17:47.81	17.37	10.58	-35.4	-36.1	24.4	0.00e+00	0	41	0	627048448	44	5809
2026-01-25 19:17:48.82	17.26	10.65	-35.2	-35.9	24.5	0.00e+00	0	41	0	633339904	44	5685
2026-01-25 19:17:49.83	17.15	10.72	-35.4	-36.1	24.3	0.00e+00	0	41	0	638582784	44	5809
2026-01-25 19:17:50.83	17.03	10.79	-35.4	-36.1	24.4	0.00e+00	0	41	0	643825664	44	5773
2026-01-25 19:17:51.84	16.92	10.86	-35.3	-36.0	24.4	0.00e+00	0	41	0	650117120	44	5745
2026-01-25 19:17:52.85	16.80	10.93	-35.4	-36.1	24.3	0.00e+00	0	42	0	655360000	44	5815
2026-01-25 19:17:53.86	16.68	11.00	-35.5	-36.2	24.2	0.00e+00	0	42	0	661651456	44	5876
2026-01-25 19:17:54.87	16.57	11.07	-35.3	-36.0	24.5	0.00e+00	0	41	0	666894336	44	5733
2026-01-25 19:17:55.88	16.45	11.14	-35.5	-36.2	24.3	0.00e+00	0	41	0	672137216	44	5857
2026-01-25 19:17:56.89	16.33	11.21	-35.4	-36.1	24.3	0.00e+00	0	42	0	678428672	44	5790
2026-01-25 19:17:57.90	16.21	11.28	-35.4	-36.1	24.4	0.00e+00	0	42	0	683671552	44	5778
2026-01-25 19:17:58.91	16.09	11.36	-35.4	-36.1	24.3	0.00e+00	0	42	0	689963008	44	5804
2026-01-25 19:17:59.92	15.97	11.43	-35.3	-36.0	24.4	0.00e+00	0	42	0	695205888	44	5742
2026-01-25 19:18:00.93	15.85	11.50	-35.1	-35.8	24.7	0.00e+00	0	41	0	700448768	44	5577
2026-01-25 19:18:01.94	15.73	11.57	-35.1	-35.8	24.6	0.00e+00	0	41	0	706740224	44	5598
2026-01-25 19:18:02.95	15.61	11.64	-35.0	-35.7	24.7	0.00e+00	0	41	0	711983104	44	5544
2026-01-25 19:18:03.96	15.48	11.71	-35.0	-35.7	24.8	0.00e+00	0	41	0	718274560	44	5515
2026-01-25 19:18:04.97	15.36	11.79	-35.0	-35.7	24.8	0.00e+00	0	41	0	723517440	44	5505
2026-01-25 19:18:05.98	15.24	11.86	-35.0	-35.7	24.7	0.00e+00	0	41	0	729808896	44	5516
2026-01-25 19:18:06.99	15.11	11.93	-34.7	-35.4	25.0	0.00e+00	0	41	0	735051776	42	6015
2026-01-25 19:18:07.99	14.99	12.00	-34.8	-35.5	25.0	0.00e+00	0	41	0	741343232	42	6066
2026-01-25 19:18:09.00	14.86	12.07	-35.4	-36.1	24.5	0.00e+00	0	41	0	746586112	42	6480
2026-01-25 19:18:10.01	14.73	12.15	-34.6	-35.3	25.2	0.00e+00	0	41	0	751828992	42	5908
2026-01-25 19:18:11.02	14.61	12.22	-34.8	-35.5	24.9	0.00e+00	0	41	0	758120448	42	6063
2026-01-25 19:18:12.03	14.48	12.29	-34.8	-35.5	25.0	0.00e+00	0	41	0	763363328	42	6034
2026-01-25 19:18:13.04	14.35	12.36	-34.7	-35.3	25.1	0.00e+00	0	41	0	769654784	42	5963
2026-01-25 19:18:14.05	14.22	12.44	-35.0	-35.6	24.9	0.00e+00	0	41	0	774897664	42	6161
2026-01-25 19:18:15.06	14.09	12.51	-34.8	-35.5	25.1	0.00e+00	0	41	0	780140544	42	6043
2026-01-25 19:18:16.07	13.96	12.58	-34.7	-35.4	25.1	0.00e+00	0	41	0	786432000	42	5966
2026-01-25 19:18:17.08	13.83	12.66	-34.5	-35.2	25.3	0.00e+00	0	41	0	791674880	42	5854
2026-01-25 19:18:18.09	13.70	12.73	-34.5	-35.2	25.2	0.00e+00	0	41	0	797966336	42	5861
2026-01-25 19:18:19.10	13.57	12.80	-34.6	-35.3	25.2	0.00e+00	0	42	0	803209216	42	5909
2026-01-25 19:18:20.11	13.43	12.87	-34.7	-35.4	25.1	0.00e+00	0	42	0	808452096	42	5981
2026-01-25 19:18:21.12	13.30	12.95	-34.8	-35.4	25.1	0.00e+00	0	42	0	814743552	42	6017
2026-01-25 19:18:22.13	13.17	13.02	-34.5	-35.2	25.2	0.00e+00	0	41	0	819986432	42	5857
2026-01-25 19:18:23.14	13.03	13.09	-34.8	-35.5	25.2	0.00e+00	0	42	0	826277888	42	6036
2026-01-25 19:18:24.16	12.89	13.17	-34.6	-35.3	25.2	0.00e+00	0	42	0	831520768	42	5934
2026-01-25 19:18:25.17	12.76	13.24	-34.4	-35.1	25.4	0.00e+00	0	41	0	837812224	42	5789
2026-01-25 19:18:26.17	12.62	13.31	-34.5	-35.2	25.4	0.00e+00	0	41	0	843055104	42	5832
2026-01-25 19:18:27.18	12.48	13.39	-34.4	-35.1	25.4	0.00e+00	0	42	0	848297984	42	5782
2026-01-25 19:18:28.19	12.34	13.46	-34.4	-35.1	25.4	0.00e+00	0	42	0	854589440	42	5783
2026-01-25 19:18:29.20	12.20	13.53	-34.5	-35.2	25.3	0.00e+00	0	41	0	859832320	42	5847
2026-01-25 19:18:30.21	12.06	13.61	-34.7	-35.4	25.1	0.00e+00	0	42	0	866123776	42	5980
2026-01-25 19:18:31.22	11.92	13.68	-34.7	-35.4	25.1	0.00e+00	0	41	0	871366656	42	6002
2026-01-25 19:18:32.23	11.78	13.76	-34.4	-35.1	25.4	0.00e+00	0	41	0	876609536	42	5788
2026-01-25 19:18:33.24	11.64	13.83	-34.3	-34.9	25.5	0.00e+00	0	42	0	882900992	42	5689
2026-01-25 19:18:34.25	11.50	13.90	-34.5	-35.1	25.3	0.00e+00	0	41	0	888143872	42	5807
2026-01-25 19:18:35.25	11.35	13.98	-34.2	-34.9	25.6	0.00e+00	0	41	0	894435328	42	5678
2026-01-25 19:18:36.26	11.21	14.05	-34.4	-35.1	25.5	0.00e+00	0	41	0	899678208	42	5763
2026-01-25 19:18:37.27	11.07	14.12	-34.6	-35.3	25.2	0.00e+00	0	42	0	904921088	42	5912
2026-01-25 19:18:38.28	10.92	14.20	-34.1	-34.7	25.8	0.00e+00	0	41	0	911212544	42	5564
2026-01-25 19:18:39.29	10.77	14.27	-34.2	-34.8	25.6	0.00e+00	0	41	0	916455424	42	5623
2026-01-25 19:18:40.30	10.63	14.35	-34.3	-34.9	25.5	0.00e+00	0	41	0	922746880	42	5667
2026-01-25 19:18:41.31	10.48	14.42	-34.3	-34.9	25.5	0.00e+00	0	41	0	927989760	42	5684
2026-01-25 19:18:42.32	10.33	14.49	-34.2	-34.9	25.7	0.00e+00	0	41	0	934281216	42	5661
2026-01-25 19:18:43.33	10.18	14.57	-34.2	-34.8	25.7	0.00e+00	0	41	0	939524096	42	5620
2026-01-25 19:18:44.34	10.03	14.64	-34.0	-34.7	25.7	0.00e+00	0	41	0	945815552	42	5511
2026-01-25 19:18:45.35	9.88	14.72	-34.1	-34.8	25.7	0.00e+00	0	41	0	951058432	42	5583
2026-01-25 19:18:46.36	9.73	14.79	-33.8	-34.5	26.0	0.00e+00	0	41	0	956301312	42	5396
2026-01-25 19:18:47.37	9.57	14.86	-34.0	-34.7	25.8	0.00e+00	0	41	0	962592768	42	5507
2026-01-25 19:18:48.38	9.42	14.94	-34.1	-34.7	25.8	0.00e+00	0	41	0	967835648	42	5542
2026-01-25 19:18:49.39	9.26	15.01	-33.9	-34.6	25.9	0.00e+00	0	41	0	973078528	42	5462
2026-01-25 19:18:50.40	9.11	15.09	-33.9	-34.6	25.9	0.00e+00	0	41	0	979369984	42	5440
2026-01-25 19:18:51.41	8.95	15.16	-33.8	-34.5	26.1	0.00e+00	0	41	0	984612864	42	5379
2026-01-25 19:18:52.41	8.80	15.24	-33.9	-34.6	25.9	0.00e+00	0	41	0	990904320	42	5458
2026-01-25 19:18:53.42	8.64	15.31	-33.8	-34.4	26.1	0.00e+00	0	41	0	996147200	42	5346
2026-01-25 19:18:54.43	8.48	15.38	-34.0	-34.7	25.9	0.00e+00	0	41	0	1001390080	42	5504
2026-01-25 19:18:55.44	8.32	15.46	-33.8	-34.4	26.0	0.00e+00	0	41	0	1007681536	42	5376
2026-01-25 19:18:56.45	8.16	15.53	-33.9	-34.5	25.9	0.00e+00	0	41	0	1012924416	40	6087
2026-01-25 19:18:57.46	8.00	15.61	-33.8	-34.5	26.0	0.00e+00	0	41	0	1019215872	40	6062
2026-01-25 19:18:58.47	7.84	15.68	-33.8	-34.4	26.0	0.00e+00	0	41	0	1024458752	40	6033
2026-01-25 19:18:59.48	7.68	15.76	-33.7	-34.4	26.0	0.00e+00	0	41	0	1030750208	40	6001
2026-01-25 19:19:00.49	7.52	15.83	-33.7	-34.4	25.9	0.00e+00	0	41	0	1035993088	40	6015
2026-01-25 19:19:01.50	7.35	15.90	-33.8	-34.5	26.0	0.00e+00	0	41	0	1042284544	40	6093
2026-01-25 19:19:02.51	7.19	15.98	-33.7	-34.3	26.1	0.00e+00	0	41	0	1047527424	40	5944
2026-01-25 19:19:03.52	7.02	16.05	-33.8	-34.5	26.0	0.00e+00	0	41	0	1052770304	40	6048
2026-01-25 19:19:04.53	6.86	16.13	-33.6	-34.3	26.2	0.00e+00	0	41	0	1059061760	40	5907
2026-01-25 19:19:05.53	6.69	16.20	-33.6	-34.3	26.1	0.00e+00	0	41	0	1064304640	40	5939
2026-01-25 19:19:06.54	6.52	16.27	-33.6	-34.3	26.1	0.00e+00	0	41	0	1070596096	40	5909
2026-01-25 19:19:07.55	6.35	16.35	-33.7	-34.4	26.1	0.00e+00	0	41	0	1075838976	40	5981
2026-01-25 19:19:08.56	6.18	16.42	-33.7	-34.4	26.1	0.00e+00	0	41	0	1081081856	40	5983
2026-01-25 19:19:09.57	6.01	16.50	-33.9	-34.5	26.0	0.00e+00	0	41	0	1087373312	40	6077
2026-01-25 19:19:10.58	5.84	16.57	-33.7	-34.4	26.1	0.00e+00	0	41	0	1092616192	40	5984
2026-01-25 19:19:11.59	5.67	16.65	-33.6	-34.3	26.2	0.00e+00	0	41	0	1098907648	40	5914
2026-01-25 19:19:12.60	5.49	16.72	-33.7	-34.3	26.1	0.00e+00	0	41	0	1104150528	40	5954
2026-01-25 19:19:13.61	5.32	16.79	-33.8	-34.4	26.0	0.00e+00	0	41	0	1109393408	40	6017
2026-01-25 19:19:14.62	5.15	16.87	-33.4	-34.1	26.3	0.00e+00	0	41	0	1115684864	40	5801
2026-01-25 19:19:15.63	4.97	16.94	-33.4	-34.1	26.4	0.00e+00	0	41	0	1120927744	40	5771
2026-01-25 19:19:16.64	4.79	17.01	-33.5	-34.2	26.3	0.00e+00	0	41	0	1127219200	40	5850
2026-01-25 19:19:17.65	4.61	17.09	-33.3	-33.9	26.5	0.00e+00	0	41	0	1132462080	40	5670
2026-01-25 19:19:18.66	4.44	17.16	-33.5	-34.2	26.4	0.00e+00	0	41	0	1138753536	40	5852
2026-01-25 19:19:19.67	4.26	17.24	-33.6	-34.2	26.3	0.00e+00	0	41	0	1143996416	40	5880
2026-01-25 19:19:20.68	4.08	17.31	-33.6	-34.3	26.2	0.00e+00	0	41	0	1149239296	40	5903
2026-01-25 19:19:21.69	3.90	17.38	-33.5	-34.2	26.3	0.00e+00	0	41	0	1155530752	40	5843
2026-01-25 19:19:22.70	3.71	17.46	-33.6	-34.2	26.1	0.00e+00	0	41	0	1160773632	40	5888
2026-01-25 19:19:23.71	3.53	17.53	-33.4	-34.0	26.4	0.00e+00	0	41	0	1167065088	40	5748
2026-01-25 19:19:24.72	3.35	17.60	-33.3	-33.9	26.5	0.00e+00	0	41	0	1172307968	40	5689
2026-01-25 19:19:25.73	3.16	17.68	-33.4	-34.0	26.4	0.00e+00	0	41	0	1177550848	40	5730
2026-01-25 19:19:26.74	2.98	17.75	-33.3	-33.9	26.5	0.00e+00	0	41	0	1183842304	40	5672
2026-01-25 19:19:27.75	2.79	17.82	-33.3	-34.0	26.5	0.00e+00	0	41	0	1189085184	40	5701
2026-01-25 19:19:28.76	2.60	17.89	-33.4	-34.0	26.4	0.00e+00	0	41	0	1195376640	40	5759
2026-01-25 19:19:29.77	2.41	17.97	-33.3	-34.0	26.4	0.00e+00	0	41	0	1200619520	40	5707
2026-01-25 19:19:30.78	2.22	18.04	-33.4	-34.1	26.4	0.00e+00	0	41	0	1205862400	40	5785
2026-01-25 19:19:31.79	2.03	18.11	-33.5	-34.1	26.4	0.00e+00	0	41	0	1212153856	40	5810
2026-01-25 19:19:32.79	1.84	18.18	-33.3	-34.0	26.4	0.00e+00	0	41	0	1217396736	40	5698
2026-01-25 19:19:33.81	1.65	18.26	-33.2	-33.9	26.6	0.00e+00	0	41	0	1223688192	40	5639
2026-01-25 19:19:34.81	1.46	18.33	-33.0	-33.7	26.7	0.00e+00	0	41	0	1228931072	40	5513
2026-01-25 19:19:35.82	1.26	18.40	-33.3	-33.9	26.5	0.00e+00	0	41	0	1235222528	40	5663
2026-01-25 19:19:36.83	1.07	18.47	-33.0	-33.6	26.7	0.00e+00	0	41	0	1240465408	40	5492
2026-01-25 19:19:37.84	0.87	18.54	-33.0	-33.7	26.7	0.00e+00	0	41	0	1246756864	40	5503
2026-01-25 19:19:38.85	0.68	18.61	-33.0	-33.6	26.8	0.00e+00	0	41	0	1251999744	40	5464
2026-01-25 19:19:39.86	0.48	18.69	-33.1	-33.7	26.7	0.00e+00	0	41	0	1257242624	40	5563
2026-01-25 19:19:40.87	0.28	18.76	-33.1	-33.8	26.7	0.00e+00	0	41	0	1263534080	40	5571
2026-01-25 19:19:41.88	0.08	18.83	-33.1	-33.7	26.7	0.00e+00	0	41	0	1268776960	40	5552
2026-01-25 19:19:42.89	359.88	18.90	-33.0	-33.6	26.7	0.00e+00	0	41	0	1275068416	40	5475
2026-01-25 19:19:43.90	359.68	18.97	-32.9	-33.6	26.8	0.00e+00	0	41	0	1280311296	40	5463
2026-01-25 19:19:44.91	359.47	19.04	-32.8	-33.4	26.9	0.00e+00	0	41	0	1285554176	40	5377
2026-01-25 19:19:45.92	359.27	19.11	-32.7	-33.4	26.9	0.00e+00	0	41	0	1291845632	38	5984
2026-01-25 19:19:46.93	359.07	19.18	-32.7	-33.3	27.1	0.00e+00	0	41	0	1297088512	38	5915
2026-01-25 19:19:47.94	358.86	19.25	-32.8	-33.3	26.9	0.00e+00	0	41	0	1303379968	38	5961
2026-01-25 19:19:48.95	358.65	19.32	-32.6	-33.2	27.1	0.00e+00	0	41	0	1308622848	38	5871
2026-01-25 19:19:49.96	358.45	19.39	-32.6	-33.1	27.1	0.00e+00	0	41	0	1313865728	38	5827
2026-01-25 19:19:50.97	358.24	19.46	-32.3	-32.9	27.3	0.00e+00	0	41	0	1320157184	38	5643
2026-01-25 19:19:51.98	358.03	19.53	-32.5	-33.1	27.2	0.00e+00	0	41	0	1325400064	38	5792
2026-01-25 19:19:52.99	357.82	19.60	-32.5	-33.1	27.3	0.00e+00	0	41	0	1331691520	38	5796
2026-01-25 19:19:53.99	357.61	19.67	-32.4	-33.0	27.3	0.00e+00	0	41	0	1336934400	38	5747
2026-01-25 19:19:55.00	357.40	19.74	-32.5	-33.2	27.1	0.00e+00	0	41	0	1343225856	38	5837
2026-01-25 19:19:56.01	357.18	19.80	-32.7	-33.4	26.9	0.00e+00	0	41	0	1348468736	38	5985
2026-01-25 19:19:57.02	356.97	19.87	-32.7	-33.4	27.0	0.00e+00	0	41	0	1353711616	38	5975
2026-01-25 19:19:58.03	356.76	19.94	-32.6	-33.2	27.1	0.00e+00	0	41	0	1360003072	38	5858
2026-01-25 19:19:59.04	356.54	20.01	-32.6	-33.2	27.1	0.00e+00	0	41	0	1365245952	38	5886
2026-01-25 19:20:00.05	356.32	20.07	-32.5	-33.1	27.2	0.00e+00	0	41	0	1371537408	38	5778
2026-01-25 19:20:01.06	356.10	20.14	-32.4	-33.0	27.2	0.00e+00	0	41	0	1376780288	38	5751
2026-01-25 19:20:02.07	355.89	20.21	-32.4	-33.0	27.2	0.00e+00	0	41	0	1382023168	38	5754
2026-01-25 19:20:03.08	355.67	20.28	-32.6	-33.3	27.0	0.00e+00	0	41	0	1388314624	38	5912
2026-01-25 19:20:04.09	355.44	20.34	-32.7	-33.3	27.0	0.00e+00	0	41	0	1393557504	38	5938
2026-01-25 19:20:05.10	355.22	20.41	-32.7	-33.3	26.8	0.00e+00	0	41	0	1399848960	38	5924
2026-01-25 19:20:06.11	355.00	20.47	-32.7	-33.4	26.9	0.00e+00	0	41	0	1405091840	38	5969
2026-01-25 19:20:07.12	354.78	20.54	-32.9	-33.5	26.8	0.00e+00	0	41	0	1410334720	38	6095
2026-01-25 19:20:08.13	354.55	20.60	-32.9	-33.5	26.8	0.00e+00	0	41	0	1416626176	38	6080
2026-01-25 19:20:09.14	354.33	20.67	-32.6	-33.3	26.9	0.00e+00	0	41	0	1421869056	38	5908
2026-01-25 19:20:10.15	354.10	20.73	-32.7	-33.4	27.0	0.00e+00	0	41	0	1428160512	38	5965
2026-01-25 19:20:11.16	353.87	20.80	-32.5	-33.2	27.1	0.00e+00	0	41	0	1433403392	38	5844
2026-01-25 19:20:12.16	353.64	20.86	-32.4	-33.0	27.2	0.00e+00	0	41	0	1439694848	38	5727
2026-01-25 19:20:13.18	353.41	20.93	-32.4	-33.0	27.2	0.00e+00	0	41	0	1444937728	38	5736
2026-01-25 19:20:14.19	353.18	20.99	-32.8	-33.4	26.9	0.00e+00	0	41	0	1451229184	38	5993
2026-01-25 19:20:15.20	352.95	21.05	-33.2	-33.9	26.7	0.00e+00	0	41	0	1456472064	38	6356
2026-01-25 19:20:16.21	352.72	21.11	-33.1	-33.7	26.7	0.00e+00	0	41	0	1461714944	38	6233
2026-01-25 19:20:17.22	352.48	21.18	-32.5	-33.1	27.2	0.00e+00	0	41	0	1468006400	38	5817
2026-01-25 19:20:18.23	352.25	21.24	-32.7	-33.3	27.1	0.00e+00	0	41	0	1473249280	38	5948
2026-01-25 19:20:19.24	352.02	21.30	-32.7	-33.3	27.0	0.00e+00	0	41	0	1478492160	38	5957
2026-01-25 19:20:20.25	351.78	21.36	-32.6	-33.2	27.1	0.00e+00	0	41	0	1484783616	38	5881
2026-01-25 19:20:21.25	351.54	21.42	-32.7	-33.4	27.0	0.00e+00	0	41	0	1490026496	38	5972
2026-01-25 19:20:22.26	351.31	21.48	-32.8	-33.5	27.0	0.00e+00	0	41	0	1496317952	38	6045
2026-01-25 19:20:23.27	351.07	21.54	-32.7	-33.3	27.0	0.00e+00	0	41	0	1501560832	38	5934
2026-01-25 19:20:24.28	350.83	21.60	-32.7	-33.3	27.2	0.00e+00	0	41	0	1506803712	38	5941
2026-01-25 19:20:25.29	350.59	21.66	-32.5	-33.1	27.2	0.00e+00	0	41	0	1513095168	38	5801
2026-01-25 19:20:26.30	350.34	21.72	-32.3	-32.9	27.4	0.00e+00	0	41	0	1518338048	38	5687
2026-01-25 19:20:27.31	350.10	21.78	-32.4	-33.0	27.4	0.00e+00	0	41	0	1524629504	38	5701
2026-01-25 19:20:28.32	349.86	21.84	-32.4	-33.0	27.3	0.00e+00	0	41	0	1529872384	38	5752
2026-01-25 19:20:29.33	349.61	21.89	-32.5	-33.1	27.2	0.00e+00	0	41	0	1536163840	38	5786
2026-01-25 19:20:30.34	349.37	21.95	-32.4	-33.0	27.3	0.00e+00	0	41	0	1541406720	38	5720
2026-01-25 19:20:31.35	349.12	22.01	-32.3	-32.9	27.4	0.00e+00	0	41	0	1547698176	38	5688
2026-01-25 19:20:32.36	348.87	22.06	-32.4	-33.0	27.3	0.00e+00	0	41	0	1552941056	38	5741
2026-01-25 19:20:33.37	348.62	22.12	-32.3	-32.9	27.4	0.00e+00	0	41	0	1558183936	38	5654
2026-01-25 19:20:34.38	348.38	22.18	-32.4	-33.0	27.3	0.00e+00	0	41	0	1564475392	38	5758
2026-01-25 19:20:35.39	348.13	22.23	-32.3	-32.9	27.4	0.00e+00	0	41	0	1569718272	38	5651
2026-01-25 19:20:36.40	347.87	22.29	-32.5	-33.1	27.2	0.00e+00	0	41	0	1576009728	38	5796
2026-01-25 19:20:37.41	347.62	22.34	-32.5	-33.1	27.2	0.00e+00	0	41	0	1581252608	38	5782
2026-01-25 19:20:38.42	347.37	22.39	-32.4	-33.0	27.3	0.00e+00	0	41	0	1586495488	38	5761
2026-01-25 19:20:39.43	347.12	22.45	-32.4	-33.0	27.4	0.00e+00	0	41	0	1592786944	38	5743
2026-01-25 19:20:40.44	346.86	22.50	-32.3	-32.9	27.4	0.00e+00	0	41	0	1598029824	38	5681
2026-01-25 19:20:41.45	346.61	22.55	-32.4	-33.1	27.3	0.00e+00	0	41	0	1604321280	38	5771
2026-01-25 19:20:42.46	346.35	22.60	-32.4	-33.1	27.3	0.00e+00	0	41	0	1609564160	38	5781
2026-01-25 19:20:43.47	346.09	22.65	-32.4	-33.0	27.3	0.00e+00	0	41	0	1614807040	38	5696
2026-01-25 19:20:44.48	345.83	22.70	-32.4	-33.0	27.3	0.00e+00	0	41	0	1621098496	38	5748
2026-01-25 19:20:45.49	345.58	22.75	-32.4	-33.0	27.3	0.00e+00	0	41	0	1626341376	38	5740
2026-01-25 19:20:46.49	345.32	22.80	-32.4	-33.0	27.2	0.00e+00	0	41	0	1632632832	38	5744
2026-01-25 19:20:47.50	345.06	22.85	-32.4	-33.0	27.3	0.00e+00	0	41	0	1637875712	38	5736
2026-01-25 19:20:48.51	344.80	22.90	-32.3	-33.0	27.4	0.00e+00	0	41	0	1644167168	38	5702
2026-01-25 19:20:49.52	344.53	22.95	-32.3	-32.9	27.4	0.00e+00	0	41	0	1649410048	38	5640
2026-01-25 19:20:50.53	344.27	22.99	-32.2	-32.8	27.5	0.00e+00	0	41	0	1654652928	38	5589
2026-01-25 19:20:51.54	344.01	23.04	-32.2	-32.9	27.5	0.00e+00	0	41	0	1660944384	38	5661
2026-01-25 19:20:52.55	343.74	23.09	-32.3	-32.9	27.4	0.00e+00	0	41	0	1666187264	38	5661
2026-01-25 19:20:53.56	343.48	23.13	-32.1	-32.7	27.6	0.00e+00	0	41	0	1672478720	38	5531
2026-01-25 19:20:54.57	343.21	23.18	-32.0	-32.6	27.6	0.00e+00	0	41	0	1677721600	38	5492
2026-01-25 19:20:55.58	342.94	23.22	-32.0	-32.7	27.6	0.00e+00	0	41	0	1682964480	38	5520
2026-01-25 19:20:56.59	342.68	23.27	-32.0	-32.6	27.7	0.00e+00	0	41	0	1689255936	38	5469
2026-01-25 19:20:57.60	342.41	23.31	-32.0	-32.7	27.6	0.00e+00	0	41	0	1694498816	38	5519
2026-01-25 19:20:58.61	342.14	23.35	-31.9	-32.5	27.7	0.00e+00	0	41	0	1700790272	38	5412
2026-01-25 19:20:59.62	341.87	23.39	-32.0	-32.6	27.6	0.00e+00	0	41	0	1706033152	38	5470
2026-01-25 19:21:00.63	341.60	23.43	-32.1	-32.7	27.6	0.00e+00	0	41	0	1711276032	38	5527
2026-01-25 19:21:01.64	341.33	23.48	-32.0	-32.6	27.6	0.00e+00	0	41	0	1717567488	38	5489
2026-01-25 19:21:02.65	341.05	23.52	-32.0	-32.6	27.6	0.00e+00	0	41	0	1722810368	38	5464
2026-01-25 19:21:03.66	340.78	23.55	-31.8	-32.5	27.7	0.00e+00	0	41	0	1729101824	38	5396
2026-01-25 19:21:04.67	340.51	23.59	-31.7	-32.3	27.9	0.00e+00	0	41	0	1734344704	38	5310
2026-01-25 19:21:05.67	340.24	23.63	-31.8	-32.4	27.9	0.00e+00	0	41	0	1740636160	36	5984
2026-01-25 19:21:06.68	339.96	23.67	-31.7	-32.3	27.9	0.00e+00	0	41	0	1745879040	36	5955
2026-01-25 19:21:07.69	339.69	23.71	-31.8	-32.5	27.7	0.00e+00	0	41	0	1752170496	36	6036
2026-01-25 19:21:08.70	339.41	23.74	-32.0	-32.7	27.6	0.00e+00	0	41	0	1757413376	36	6196
2026-01-25 19:21:09.71	339.13	23.78	-32.2	-32.8	27.5	0.00e+00	0	41	0	1762656256	36	6270
2026-01-25 19:21:10.72	338.86	23.81	-32.2	-32.9	27.4	0.00e+00	0	41	0	1768947712	36	6343
2026-01-25 19:21:11.73	338.58	23.85	-32.5	-33.2	27.2	0.00e+00	0	41	0	1774190592	36	6553
2026-01-25 19:21:12.75	338.30	23.88	-32.3	-32.9	27.4	0.00e+00	0	41	0	1780482048	36	6378
2026-01-25 19:21:13.76	338.02	23.91	-32.2	-32.9	27.5	0.00e+00	0	41	0	1785724928	36	6320
2026-01-25 19:21:14.77	337.74	23.94	-32.2	-32.8	27.5	0.00e+00	0	41	0	1790967808	36	6311
2026-01-25 19:21:15.78	337.46	23.98	-32.2	-32.8	27.5	0.00e+00	0	41	0	1797259264	36	6279
2026-01-25 19:21:16.79	337.18	24.01	-32.2	-32.8	27.5	0.00e+00	0	41	0	1802502144	36	6286
2026-01-25 19:21:17.80	336.90	24.04	-32.3	-32.9	27.5	0.00e+00	0	41	0	1808793600	36	6374
2026-01-25 19:21:18.80	336.62	24.06	-32.3	-32.9	27.3	0.00e+00	0	41	0	1814036480	36	6371
2026-01-25 19:21:19.81	336.33	24.09	-32.2	-32.8	27.5	0.00e+00	0	41	0	1819279360	36	6270
2026-01-25 19:21:20.82	336.05	24.12	-32.0	-32.7	27.6	0.00e+00	0	41	0	1825570816	36	6175
2026-01-25 19:21:21.83	335.77	24.15	-32.3	-32.9	27.4	0.00e+00	0	41	0	1830813696	36	6387
2026-01-25 19:21:22.84	335.48	24.17	-32.0	-32.6	27.7	0.00e+00	0	41	0	1837105152	36	6148
2026-01-25 19:21:23.85	335.20	24.20	-31.8	-32.4	27.9	0.00e+00	0	41	0	1842348032	36	6005
2026-01-25 19:21:24.86	334.91	24.22	-32.0	-32.6	27.7	0.00e+00	0	41	0	1848639488	36	6140
2026-01-25 19:21:25.87	334.63	24.25	-31.8	-32.5	27.8	0.00e+00	0	41	0	1853882368	36	6073
2026-01-25 19:21:26.88	334.34	24.27	-31.6	-32.2	27.9	0.00e+00	0	41	0	1859125248	36	5871
2026-01-25 19:21:27.89	334.06	24.29	-31.6	-32.2	27.9	0.00e+00	0	41	0	1865416704	36	5876
2026-01-25 19:21:28.90	333.77	24.32	-31.7	-32.3	27.9	0.00e+00	0	41	0	1870659584	36	5908
2026-01-25 19:21:29.91	333.48	24.34	-31.5	-32.1	28.1	0.00e+00	0	41	0	1876951040	36	5804
2026-01-25 19:21:30.92	333.19	24.36	-31.6	-32.2	28.0	0.00e+00	0	41	0	1882193920	36	5874
2026-01-25 19:21:31.93	332.91	24.38	-31.8	-32.4	27.8	0.00e+00	0	41	0	1887436800	36	5972
2026-01-25 19:21:32.94	332.62	24.40	-32.1	-32.7	27.6	0.00e+00	0	41	0	1893728256	36	6196
2026-01-25 19:21:33.95	332.33	24.41	-31.9	-32.5	27.8	0.00e+00	0	41	0	1898971136	36	6090
2026-01-25 19:21:34.96	332.04	24.43	-32.2	-32.8	27.6	0.00e+00	0	41	0	1905262592	36	6263
2026-01-25 19:21:35.97	331.75	24.45	-32.0	-32.6	27.7	0.00e+00	0	41	0	1910505472	36	6167
2026-01-25 19:21:36.98	331.46	24.46	-32.1	-32.7	27.6	0.00e+00	0	41	0	1915748352	36	6212
2026-01-25 19:21:37.99	331.17	24.48	-32.2	-32.8	27.5	0.00e+00	0	41	0	1922039808	36	6307
2026-01-25 19:21:39.00	330.88	24.49	-32.1	-32.7	27.7	0.00e+00	0	41	0	1927282688	36	6218
2026-01-25 19:21:40.01	330.59	24.50	-32.1	-32.7	27.6	0.00e+00	0	41	0	1933574144	36	6235
2026-01-25 19:21:41.02	330.30	24.52	-32.0	-32.6	27.7	0.00e+00	0	41	0	1938817024	36	6162
2026-01-25 19:21:42.03	330.01	24.53	-32.0	-32.6	27.6	0.00e+00	0	41	0	1945108480	36	6142
2026-01-25 19:21:43.04	329.72	24.54	-31.9	-32.5	27.8	0.00e+00	0	41	0	1950351360	36	6052
2026-01-25 19:21:44.05	329.43	24.55	-31.8	-32.4	27.9	0.00e+00	0	41	0	1956642816	36	5973
2026-01-25 19:21:45.06	329.14	24.56	-31.8	-32.3	27.9	0.00e+00	0	41	0	1961885696	36	5964
2026-01-25 19:21:46.07	328.85	24.57	-31.9	-32.5	27.8	0.00e+00	0	41	0	1967128576	36	6049
2026-01-25 19:21:47.08	328.55	24.57	-31.8	-32.4	27.8	0.00e+00	0	41	0	1973420032	36	5993
2026-01-25 19:21:48.09	328.26	24.58	-31.7	-32.3	27.9	0.00e+00	0	41	0	1978662912	36	5919
2026-01-25 19:21:49.10	327.97	24.59	-31.9	-32.5	27.8	0.00e+00	0	41	0	1984954368	36	6087
2026-01-25 19:21:50.11	327.68	24.59	-31.7	-32.3	28.0	0.00e+00	0	41	0	1990197248	36	5908
2026-01-25 19:21:51.12	327.39	24.60	-31.8	-32.4	27.8	0.00e+00	0	41	0	1995440128	36	5996
2026-01-25 19:21:52.13	327.09	24.60	-32.0	-32.5	27.7	0.00e+00	0	41	0	2001731584	36	6098
2026-01-25 19:21:53.14	326.80	24.60	-31.9	-32.5	27.7	0.00e+00	0	41	0	2006974464	36	6094
2026-01-25 19:21:54.15	326.51	24.60	-31.9	-32.5	27.7	0.00e+00	0	41	0	2013265920	36	6082
2026-01-25 19:21:55.16	326.22	24.60	-31.8	-32.3	27.9	0.00e+00	0	41	0	2018508800	36	5962
2026-01-25 19:21:56.17	325.93	24.60	-31.8	-32.4	28.0	0.00e+00	0	41	0	2023751680	36	5994
2026-01-25 19:21:57.18	325.63	24.60	-31.8	-32.4	27.7	0.00e+00	0	41	0	2030043136	36	6013
2026-01-25 19:21:58.19	325.34	24.60	-32.0	-32.5	27.6	0.00e+00	0	41	0	2035286016	36	6082
2026-01-25 19:21:59.20	325.05	24.60	-31.8	-32.4	27.8	0.00e+00	0	41	0	2041577472	36	6025
2026-01-25 19:22:00.21	324.76	24.60	-31.8	-32.4	27.8	0.00e+00	0	41	0	2046820352	36	5984
2026-01-25 19:22:01.22	324.46	24.59	-31.6	-32.2	27.9	0.00e+00	0	41	0	2053111808	36	5889
2026-01-25 19:22:02.23	324.17	24.59	-31.6	-32.2	27.9	0.00e+00	0	41	0	2058354688	36	5859
2026-01-25 19:22:03.24	323.88	24.58	-31.6	-32.2	28.0	0.00e+00	0	41	0	2064646144	36	5887
2026-01-25 19:22:04.25	323.59	24.58	-31.6	-32.1	27.7	0.00e+00	0	41	0	2069889024	36	5826
2026-01-25 19:22:05.26	323.30	24.57	-31.6	-32.2	27.9	0.00e+00	0	41	0	2075131904	36	5862
2026-01-25 19:22:06.27	323.00	24.56	-31.7	-32.3	27.7	0.00e+00	0	41	0	2081423360	36	5947
2026-01-25 19:22:07.28	322.71	24.55	-31.6	-32.1	27.8	0.00e+00	0	41	0	2086666240	36	5826
2026-01-25 19:22:08.29	322.42	24.54	-31.7	-32.2	27.8	0.00e+00	0	41	0	2092957696	36	5895
2026-01-25 19:22:09.30	322.13	24.53	-31.7	-32.3	27.8	0.00e+00	0	41	0	2098200576	36	5960
2026-01-25 19:22:10.31	321.84	24.52	-31.8	-32.4	27.8	0.00e+00	0	41	0	2103443456	36	5998
2026-01-25 19:22:11.32	321.55	24.51	-31.7	-32.2	27.9	0.00e+00	0	41	0	2109734912	36	5871
2026-01-25 19:22:12.33	321.26	24.50	-31.7	-32.3	27.9	0.00e+00	0	41	0	2114977792	36	5958
2026-01-25 19:22:13.34	320.97	24.49	-31.8	-32.5	27.9	0.00e+00	0	41	0	2121269248	36	6034
2026-01-25 19:22:14.35	320.68	24.47	-31.8	-32.4	27.8	0.00e+00	0	41	0	2126512128	36	5991
2026-01-25 19:22:15.36	320.39	24.46	-31.8	-32.5	27.9	0.00e+00	0	41	0	2131755008	36	6034
2026-01-25 19:22:16.37	320.10	24.44	-31.8	-32.4	27.9	0.00e+00	0	41	0	2138046464	36	6007
2026-01-25 19:22:17.39	319.81	24.42	-31.9	-32.5	27.7	0.00e+00	0	41	0	2143289344	36	6071
2026-01-25 19:22:18.39	319.52	24.41	-32.1	-32.6	27.7	0.00e+00	0	41	0	2149580800	36	6143
2026-01-25 19:22:19.41	319.23	24.39	-31.8	-32.4	27.9	0.00e+00	0	41	0	2154823680	36	6007
2026-01-25 19:22:20.41	318.94	24.37	-31.8	-32.4	27.9	0.00e+00	0	41	0	2161115136	36	6001
2026-01-25 19:22:21.42	318.66	24.35	-31.7	-32.3	27.9	0.00e+00	0	41	0	2166358016	36	5947
2026-01-25 19:22:22.43	318.37	24.33	-31.8	-32.4	27.9	0.00e+00	0	41	0	2171600896	36	6012
2026-01-25 19:22:23.44	318.08	24.31	-31.6	-32.2	28.0	0.00e+00	0	41	0	2177892352	36	5855
2026-01-25 19:22:24.45	317.79	24.29	-31.6	-32.2	28.1	0.00e+00	0	41	0	2183135232	36	5829
2026-01-25 19:22:25.46	317.51	24.26	-31.7	-32.3	27.9	0.00e+00	0	41	0	2189426688	36	5928
2026-01-25 19:22:26.47	317.22	24.24	-31.8	-32.5	27.8	0.00e+00	0	41	0	2194669568	36	6044
2026-01-25 19:22:27.48	316.94	24.22	-31.8	-32.4	27.9	0.00e+00	0	41	0	2199912448	36	5993
2026-01-25 19:22:28.49	316.65	24.19	-31.6	-32.2	28.0	0.00e+00	0	41	0	2206203904	36	5884
2026-01-25 19:22:29.50	316.37	24.16	-31.5	-32.1	28.1	0.00e+00	0	41	0	2211446784	36	5808
2026-01-25 19:22:30.51	316.08	24.14	-31.4	-32.1	28.2	0.00e+00	0	41	0	2217738240	36	5796
2026-01-25 19:22:31.52	315.80	24.11	-31.6	-32.2	28.1	0.00e+00	0	41	0	2222981120	36	5885
2026-01-25 19:22:32.53	315.52	24.08	-31.7	-32.3	28.0	0.00e+00	0	41	0	2228224000	36	5904
2026-01-25 19:22:33.54	315.23	24.05	-31.7	-32.3	27.9	0.00e+00	0	41	0	2234515456	36	5962
2026-01-25 19:22:34.55	314.95	24.02	-31.9	-32.5	27.9	0.00e+00	0	41	0	2239758336	36	6091
2026-01-25 19:22:35.56	314.67	23.99	-31.8	-32.4	27.9	0.00e+00	0	41	0	2246049792	36	6017
2026-01-25 19:22:36.57	314.39	23.96	-31.8	-32.4	28.0	0.00e+00	0	41	0	2251292672	36	5991
2026-01-25 19:22:37.58	314.11	23.93	-31.7	-32.3	27.9	0.00e+00	0	41	0	2257584128	36	5954
2026-01-25 19:22:38.59	313.83	23.90	-31.8	-32.4	28.0	0.00e+00	0	41	0	2262827008	36	5983
2026-01-25 19:22:39.60	313.55	23.87	-32.1	-32.7	27.7	0.00e+00	0	41	0	2269118464	36	6174
2026-01-25 19:22:40.61	313.27	23.83	-32.1	-32.7	27.7	0.00e+00	0	41	0	2274361344	36	6215
2026-01-25 19:22:41.61	312.99	23.80	-32.1	-32.7	27.7	0.00e+00	0	41	0	2279604224	36	6209
2026-01-25 19:22:42.62	312.72	23.76	-32.0	-32.6	27.8	0.00e+00	0	41	0	2285895680	36	6107
2026-01-25 19:22:43.63	312.44	23.73	-31.9	-32.5	27.8	0.00e+00	0	41	0	2291138560	36	6046
2026-01-25 19:22:44.64	312.16	23.69	-31.9	-32.5	27.8	0.00e+00	0	41	0	2297430016	36	6053
2026-01-25 19:22:45.65	311.89	23.66	-31.9	-32.4	27.9	0.00e+00	0	41	0	2302672896	36	6027
2026-01-25 19:22:46.66	311.61	23.62	-31.8	-32.3	27.8	0.00e+00	0	41	0	2307915776	36	5958
2026-01-25 19:22:47.67	311.34	23.58	-31.9	-32.4	27.9	0.00e+00	0	41	0	2314207232	36	6003
2026-01-25 19:22:48.68	311.07	23.54	-31.8	-32.4	27.9	0.00e+00	0	41	0	2319450112	36	5967
2026-01-25 19:22:49.69	310.79	23.50	-31.7	-32.4	28.0	0.00e+00	0	41	0	2324692992	36	5997
2026-01-25 19:22:50.69	310.52	23.46	-31.7	-32.2	28.0	0.00e+00	0	41	0	2330984448	36	5861
2026-01-25 19:22:51.70	310.25	23.42	-31.7	-32.3	27.9	0.00e+00	0	41	0	2336227328	36	5903
2026-01-25 19:22:52.71	309.98	23.38	-31.7	-32.2	28.0	0.00e+00	0	41	0	2342518784	36	5877
2026-01-25 19:22:53.72	309.71	23.34	-32.0	-32.5	27.8	0.00e+00	0	41	0	2347761664	36	6057
2026-01-25 19:22:54.73	309.44	23.29	-31.9	-32.6	27.8	0.00e+00	0	41	0	2354053120	36	6134
2026-01-25 19:22:55.74	309.17	23.25	-32.0	-32.7	27.8	0.00e+00	0	41	0	2359296000	36	6197
2026-01-25 19:22:56.75	308.91	23.21	-32.0	-32.7	27.7	0.00e+00	0	41	0	2365587456	36	6192
2026-01-25 19:22:57.76	308.64	23.16	-32.0	-32.7	27.8	0.00e+00	0	41	0	2370830336	36	6192
2026-01-25 19:22:58.77	308.37	23.12	-32.0	-32.6	27.7	0.00e+00	0	41	0	2376073216	36	6118
2026-01-25 19:22:59.77	308.11	23.07	-31.9	-32.4	27.8	0.00e+00	0	41	0	2382364672	36	6005
2026-01-25 19:23:00.78	307.84	23.02	-31.9	-32.6	27.8	0.00e+00	0	41	0	2387607552	36	6117
2026-01-25 19:23:01.79	307.58	22.98	-31.9	-32.5	27.9	0.00e+00	0	41	0	2393899008	36	6075
2026-01-25 19:23:02.80	307.32	22.93	-31.9	-32.5	27.8	0.00e+00	0	41	0	2399141888	36	6061
2026-01-25 19:23:03.81	307.06	22.88	-32.0	-32.6	27.8	0.00e+00	0	41	0	2404384768	36	6138
2026-01-25 19:23:04.82	306.79	22.83	-31.9	-32.4	27.9	0.00e+00	0	41	0	2410676224	36	6017
2026-01-25 19:23:05.83	306.53	22.78	-31.8	-32.4	27.9	0.00e+00	0	41	0	2415919104	36	6013
2026-01-25 19:23:06.84	306.27	22.73	-31.8	-32.4	28.0	0.00e+00	0	41	0	2422210560	36	6024
2026-01-25 19:23:07.85	306.01	22.68	-31.8	-32.5	27.8	0.00e+00	0	41	0	2427453440	36	6073
2026-01-25 19:23:08.85	305.76	22.63	-31.9	-32.6	27.9	0.00e+00	0	41	0	2432696320	36	6129
2026-01-25 19:23:09.86	305.50	22.58	-32.0	-32.6	27.8	0.00e+00	0	41	0	2438987776	36	6171
2026-01-25 19:23:10.87	305.24	22.53	-32.1	-32.8	27.6	0.00e+00	0	41	0	2444230656	36	6296
2026-01-25 19:23:11.88	304.99	22.48	-32.1	-32.8	27.6	0.00e+00	0	41	0	2450522112	36	6282
2026-01-25 19:23:12.89	304.73	22.43	-32.1	-32.7	27.8	0.00e+00	0	41	0	2455764992	36	6213
2026-01-25 19:23:13.90	304.48	22.37	-32.0	-32.5	27.8	0.00e+00	0	41	0	2462056448	36	6099
2026-01-25 19:23:14.91	304.23	22.32	-32.1	-32.8	27.6	0.00e+00	0	41	0	2467299328	36	6247
2026-01-25 19:23:15.92	303.98	22.26	-32.2	-32.9	27.6	0.00e+00	0	41	0	2472542208	36	6327
2026-01-25 19:23:16.92	303.73	22.21	-32.2	-32.9	27.5	0.00e+00	0	41	0	2478833664	36	6344
2026-01-25 19:23:17.93	303.48	22.16	-32.2	-32.8	27.5	0.00e+00	0	41	0	2484076544	36	6258
2026-01-25 19:23:18.94	303.23	22.10	-32.1	-32.7	27.7	0.00e+00	0	41	0	2490368000	36	6238
2026-01-25 19:23:19.95	302.98	22.04	-32.1	-32.8	27.7	0.00e+00	0	41	0	2495610880	36	6256
2026-01-25 19:23:20.96	302.73	21.99	-32.1	-32.7	27.7	0.00e+00	0	41	0	2500853760	36	6197
2026-01-25 19:23:21.97	302.48	21.93	-32.2	-32.8	27.6	0.00e+00	0	41	0	2507145216	36	6288
2026-01-25 19:23:22.98	302.24	21.87	-32.3	-32.9	27.5	0.00e+00	0	41	0	2512388096	36	6375
2026-01-25 19:23:23.99	301.99	21.81	-32.1	-32.8	27.6	0.00e+00	0	41	0	2518679552	36	6264
2026-01-25 19:23:25.00	301.75	21.76	-32.1	-32.6	27.7	0.00e+00	0	41	0	2523922432	36	6152
2026-01-25 19:23:26.01	301.51	21.70	-32.1	-32.8	27.6	0.00e+00	0	41	0	2529165312	36	6248
2026-01-25 19:23:27.01	301.27	21.64	-32.0	-32.6	27.7	0.00e+00	0	41	0	2535456768	36	6157
2026-01-25 19:23:28.02	301.03	21.58	-32.0	-32.5	27.8	0.00e+00	0	41	0	2540699648	36	6077
2026-01-25 19:23:29.03	300.79	21.52	-32.1	-32.7	27.7	0.00e+00	0	41	0	2546991104	36	6194
2026-01-25 19:23:30.04	300.55	21.46	-32.0	-32.5	27.7	0.00e+00	0	41	0	2552233984	36	6063
2026-01-25 19:23:31.05	300.31	21.40	-31.8	-32.4	27.8	0.00e+00	0	41	0	2558525440	36	6016
2026-01-25 19:23:32.06	300.07	21.34	-32.0	-32.6	27.8	0.00e+00	0	41	0	2563768320	36	6157
2026-01-25 19:23:33.07	299.83	21.28	-32.0	-32.7	27.8	0.00e+00	0	41	0	2569011200	36	6197
2026-01-25 19:23:34.08	299.60	21.21	-32.2	-32.7	27.6	0.00e+00	0	41	0	2575302656	36	6224
2026-01-25 19:23:35.09	299.36	21.15	-32.2	-32.9	27.6	0.00e+00	0	41	0	2580545536	36	6352
2026-01-25 19:23:36.10	299.13	21.09	-32.2	-32.9	27.7	0.00e+00	0	41	0	2586836992	36	6334
2026-01-25 19:23:37.11	298.90	21.03	-32.2	-32.8	27.6	0.00e+00	0	41	0	2592079872	36	6288
2026-01-25 19:23:38.12	298.67	20.96	-32.2	-32.8	27.6	0.00e+00	0	41	0	2597322752	36	6303
2026-01-25 19:23:39.13	298.43	20.90	-32.2	-32.8	27.4	0.00e+00	0	41	0	2603614208	36	6270
2026-01-25 19:23:40.14	298.20	20.84	-32.4	-33.1	27.5	0.00e+00	0	41	0	2608857088	36	6521
2026-01-25 19:23:41.15	297.98	20.77	-32.7	-33.3	27.2	0.00e+00	0	41	0	2615148544	36	6646
2026-01-25 19:23:42.16	297.75	20.71	-32.7	-33.4	27.2	0.00e+00	0	41	0	2620391424	36	6759
2026-01-25 19:23:43.17	297.52	20.64	-32.8	-33.4	27.1	0.00e+00	0	41	0	2625634304	38	5987
2026-01-25 19:23:44.17	297.30	20.58	-32.6	-33.2	27.3	0.00e+00	0	41	0	2631925760	38	5855
2026-01-25 19:23:45.18	297.07	20.51	-32.6	-33.1	27.3	0.00e+00	0	41	0	2637168640	38	5794
2026-01-25 19:23:46.19	296.85	20.45	-32.5	-33.0	27.4	0.00e+00	0	41	0	2643460096	38	5751
2026-01-25 19:23:47.20	296.63	20.38	-32.5	-33.1	27.3	0.00e+00	0	41	0	2648702976	38	5780
2026-01-25 19:23:48.21	296.40	20.31	-32.5	-33.0	27.3	0.00e+00	0	41	0	2654994432	38	5760
2026-01-25 19:23:49.21	296.18	20.25	-32.4	-33.0	27.4	0.00e+00	0	41	0	2660237312	38	5736
2026-01-25 19:23:50.22	295.96	20.18	-32.5	-33.0	27.4	0.00e+00	0	41	0	2665480192	38	5732
2026-01-25 19:23:51.23	295.74	20.11	-32.4	-32.9	27.4	0.00e+00	0	41	0	2671771648	38	5694
2026-01-25 19:23:52.24	295.53	20.05	-32.5	-33.1	27.3	0.00e+00	0	41	0	2677014528	38	5783
2026-01-25 19:23:53.25	295.31	19.98	-32.8	-33.5	27.1	0.00e+00	0	41	0	2683305984	38	6056
2026-01-25 19:23:54.26	295.09	19.91	-33.0	-33.5	27.0	0.00e+00	0	41	0	2688548864	38	6086
2026-01-25 19:23:55.27	294.88	19.84	-33.1	-33.8	26.9	0.00e+00	0	41	0	2693791744	38	6256
2026-01-25 19:23:56.28	294.66	19.77	-33.2	-33.8	26.6	0.00e+00	0	41	0	2700083200	38	6257
2026-01-25 19:23:57.29	294.45	19.71	-33.2	-33.9	26.6	0.00e+00	0	41	0	2705326080	38	6318
2026-01-25 19:23:58.30	294.24	19.64	-33.1	-33.7	26.7	0.00e+00	0	41	0	2711617536	38	6223
2026-01-25 19:23:59.31	294.03	19.57	-33.1	-33.8	26.7	0.00e+00	0	41	0	2716860416	38	6290
2026-01-25 19:24:00.32	293.82	19.50	-33.2	-33.8	26.7	0.00e+00	0	41	0	2722103296	38	6259
2026-01-25 19:24:01.33	293.61	19.43	-33.1	-33.7	26.6	0.00e+00	0	41	0	2728394752	38	6197
2026-01-25 19:24:02.34	293.40	19.36	-33.1	-33.6	26.7	0.00e+00	0	41	0	2733637632	38	6158
2026-01-25 19:24:03.35	293.19	19.29	-33.0	-33.5	26.7	0.00e+00	0	41	0	2739929088	38	6102
2026-01-25 19:24:04.36	292.98	19.22	-33.1	-33.6	26.8	0.00e+00	0	41	0	2745171968	38	6140
2026-01-25 19:24:05.36	292.78	19.15	-33.2	-33.9	26.6	0.00e+00	0	41	0	2751463424	38	6385
2026-01-25 19:24:06.37	292.57	19.08	-33.4	-33.9	26.4	0.00e+00	0	41	0	2756706304	38	6384
2026-01-25 19:24:07.38	292.37	19.01	-33.4	-33.9	26.5	0.00e+00	0	41	0	2761949184	38	6371
2026-01-25 19:24:08.39	292.17	18.94	-33.2	-33.9	26.6	0.00e+00	0	41	0	2768240640	38	6374
2026-01-25 19:24:09.40	291.97	18.87	-33.2	-33.9	26.6	0.00e+00	0	41	0	2773483520	38	6328
2026-01-25 19:24:10.41	291.76	18.80	-33.3	-33.8	26.5	0.00e+00	0	41	0	2779774976	38	6291
2026-01-25 19:24:11.41	291.57	18.73	-33.0	-33.5	26.7	0.00e+00	0	41	0	2785017856	38	6090
2026-01-25 19:24:12.42	291.37	18.65	-33.1	-33.8	26.6	0.00e+00	0	41	0	2790260736	38	6263
2026-01-25 19:24:13.43	291.17	18.58	-33.1	-33.7	26.5	0.00e+00	0	41	0	2796552192	38	6185
2026-01-25 19:24:14.44	290.97	18.51	-33.1	-33.7	26.6	0.00e+00	0	41	0	2801795072	38	6225
2026-01-25 19:24:15.45	290.78	18.44	-33.2	-33.8	26.3	0.00e+00	0	41	0	2808086528	38	6251
2026-01-25 19:24:16.46	290.58	18.37	-33.0	-33.7	26.6	0.00e+00	0	41	0	2813329408	38	6233
2026-01-25 19:24:17.47	290.39	18.29	-33.0	-33.6	26.7	0.00e+00	0	41	0	2818572288	38	6116
2026-01-25 19:24:18.48	290.19	18.22	-33.0	-33.7	26.5	0.00e+00	0	41	0	2824863744	38	6176
2026-01-25 19:24:19.49	290.00	18.15	-33.2	-33.7	26.5	0.00e+00	0	41	0	2830106624	38	6236
2026-01-25 19:24:20.49	289.81	18.08	-33.5	-34.2	26.1	0.00e+00	0	41	0	2836398080	38	6603
2026-01-25 19:24:21.50	289.62	18.01	-33.4	-34.1	26.4	0.00e+00	0	41	0	2841640960	38	6490
2026-01-25 19:24:22.51	289.43	17.93	-33.3	-33.9	26.2	0.00e+00	0	41	0	2847932416	38	6362
2026-01-25 19:24:23.52	289.24	17.86	-33.4	-34.0	26.4	0.00e+00	0	41	0	2853175296	38	6441
2026-01-25 19:24:24.53	289.05	17.79	-33.3	-34.0	26.5	0.00e+00	0	41	0	2858418176	38	6415
2026-01-25 19:24:25.54	288.87	17.71	-33.2	-33.8	26.6	0.00e+00	0	41	0	2864709632	38	6278
2026-01-25 19:24:26.55	288.68	17.64	-33.1	-33.6	26.6	0.00e+00	0	41	0	2869952512	38	6165
2026-01-25 19:24:27.56	288.50	17.57	-33.1	-33.7	26.6	0.00e+00	0	41	0	2876243968	38	6185
2026-01-25 19:24:28.57	288.31	17.49	-33.2	-33.8	26.6	0.00e+00	0	41	0	2881486848	38	6267
2026-01-25 19:24:29.57	288.13	17.42	-33.2	-33.8	26.6	0.00e+00	0	41	0	2886729728	38	6271
2026-01-25 19:24:30.58	287.95	17.35	-33.1	-33.7	26.7	0.00e+00	0	41	0	2893021184	38	6183
2026-01-25 19:24:31.59	287.77	17.27	-33.2	-33.8	26.6	0.00e+00	0	41	0	2898264064	38	6256
2026-01-25 19:24:32.60	287.58	17.20	-33.3	-33.9	26.5	0.00e+00	0	41	0	2904555520	38	6373
2026-01-25 19:24:33.62	287.40	17.13	-33.2	-33.8	26.5	0.00e+00	0	41	0	2909798400	38	6284
2026-01-25 19:24:34.62	287.23	17.05	-33.3	-34.0	26.5	0.00e+00	0	41	0	2915041280	38	6403
2026-01-25 19:24:35.63	287.05	16.98	-33.5	-34.2	26.3	0.00e+00	0	41	0	2921332736	38	6544
2026-01-25 19:24:36.64	286.87	16.91	-33.2	-33.9	26.5	0.00e+00	0	41	0	2926575616	38	6363
2026-01-25 19:24:37.65	286.69	16.83	-33.3	-34.0	26.5	0.00e+00	0	41	0	2932867072	38	6408
2026-01-25 19:24:38.66	286.52	16.76	-33.3	-33.9	26.4	0.00e+00	0	41	0	2938109952	38	6376
2026-01-25 19:24:39.67	286.34	16.68	-33.3	-34.0	26.4	0.00e+00	0	41	0	2944401408	38	6441
2026-01-25 19:24:40.67	286.17	16.61	-33.3	-34.0	26.5	0.00e+00	0	41	0	2949644288	38	6431
2026-01-25 19:24:41.68	286.00	16.54	-33.4	-34.2	26.4	0.00e+00	0	41	0	2954887168	38	6545
2026-01-25 19:24:42.69	285.83	16.46	-33.6	-34.3	26.2	0.00e+00	0	41	0	2961178624	38	6658
2026-01-25 19:24:43.70	285.66	16.39	-33.8	-34.4	26.1	0.00e+00	0	41	0	2966421504	40	5994
2026-01-25 19:24:44.71	285.49	16.31	-34.0	-34.7	25.9	0.00e+00	0	41	0	2972712960	40	6243
2026-01-25 19:24:45.72	285.32	16.24	-34.1	-34.8	25.7	0.00e+00	0	41	0	2977955840	40	6304
2026-01-25 19:24:46.73	285.15	16.16	-34.1	-34.7	25.7	0.00e+00	0	41	0	2983198720	40	6245
2026-01-25 19:24:47.74	284.98	16.09	-34.1	-34.6	25.8	0.00e+00	0	41	0	2989490176	40	6166
2026-01-25 19:24:48.75	284.81	16.01	-34.0	-34.5	25.8	0.00e+00	0	41	0	2994733056	40	6099
2026-01-25 19:24:49.76	284.65	15.94	-33.8	-34.5	26.0	0.00e+00	0	41	0	3001024512	40	6055
2026-01-25 19:24:50.77	284.48	15.87	-33.8	-34.5	25.9	0.00e+00	0	41	0	3006267392	40	6038
2026-01-25 19:24:51.78	284.32	15.79	-33.8	-34.4	25.9	0.00e+00	0	41	0	3011510272	40	5992
2026-01-25 19:24:52.79	284.16	15.72	-33.9	-34.4	26.0	0.00e+00	0	41	0	3017801728	40	6033
2026-01-25 19:24:53.80	283.99	15.64	-33.7	-34.5	26.0	0.00e+00	0	41	0	3023044608	40	6043
2026-01-25 19:24:54.81	283.83	15.57	-33.7	-34.3	26.0	0.00e+00	0	41	0	3029336064	40	5923
2026-01-25 19:24:55.82	283.67	15.49	-33.7	-34.4	26.1	0.00e+00	0	41	0	3034578944	40	5991
2026-01-25 19:24:56.82	283.51	15.42	-33.7	-34.4	26.1	0.00e+00	0	41	0	3040870400	40	5968
2026-01-25 19:24:57.83	283.35	15.35	-33.7	-34.4	26.0	0.00e+00	0	41	0	3046113280	40	5976
2026-01-25 19:24:58.84	283.19	15.27	-33.7	-34.4	26.1	0.00e+00	0	41	0	3052404736	40	5987
2026-01-25 19:24:59.85	283.04	15.20	-33.9	-34.6	26.0	0.00e+00	0	41	0	3057647616	40	6140
2026-01-25 19:25:00.85	282.88	15.12	-33.8	-34.5	25.9	0.00e+00	0	41	0	3062890496	40	6088
2026-01-25 19:25:01.86	282.72	15.05	-33.8	-34.4	26.0	0.00e+00	0	41	0	3069181952	40	5991
2026-01-25 19:25:02.87	282.57	14.97	-34.0	-34.7	25.8	0.00e+00	0	41	0	3074424832	40	6189
2026-01-25 19:25:03.88	282.41	14.90	-34.0	-34.7	25.8	0.00e+00	0	41	0	3079667712	40	6220
2026-01-25 19:25:04.89	282.26	14.82	-34.1	-34.7	25.7	0.00e+00	0	41	0	3085959168	40	6186
2026-01-25 19:25:05.90	282.11	14.75	-33.9	-34.6	25.9	0.00e+00	0	41	0	3091202048	40	6139
2026-01-25 19:25:06.91	281.95	14.68	-34.1	-34.8	25.8	0.00e+00	0	41	0	3097493504	40	6303
2026-01-25 19:25:07.92	281.80	14.60	-34.2	-34.8	25.7	0.00e+00	0	41	0	3102736384	40	6281
2026-01-25 19:25:08.93	281.65	14.53	-34.2	-34.8	25.7	0.00e+00	0	41	0	3107979264	40	6267
2026-01-25 19:25:09.94	281.50	14.45	-34.2	-34.9	25.6	0.00e+00	0	41	0	3114270720	40	6383
2026-01-25 19:25:10.94	281.35	14.38	-34.3	-35.0	25.6	0.00e+00	0	41	0	3119513600	40	6429
2026-01-25 19:25:11.95	281.21	14.31	-34.1	-34.9	25.6	0.00e+00	0	41	0	3125805056	40	6322
2026-01-25 19:25:12.97	281.06	14.23	-34.1	-34.7	25.8	0.00e+00	0	41	0	3131047936	40	6222
2026-01-25 19:25:13.97	280.91	14.16	-34.1	-34.9	25.7	0.00e+00	0	41	0	3137339392	40	6324
2026-01-25 19:25:14.98	280.76	14.08	-34.2	-34.9	25.6	0.00e+00	0	41	0	3142582272	40	6361
2026-01-25 19:25:15.99	280.62	14.01	-34.4	-35.0	25.5	0.00e+00	0	41	0	3148873728	40	6418
2026-01-25 19:25:17.00	280.47	13.93	-34.4	-35.1	25.5	0.00e+00	0	41	0	3154116608	40	6522
2026-01-25 19:25:18.01	280.33	13.86	-34.4	-35.0	25.5	0.00e+00	0	41	0	3159359488	40	6407
2026-01-25 19:25:19.02	280.19	13.79	-34.4	-35.1	25.6	0.00e+00	0	41	0	3165650944	40	6495
2026-01-25 19:25:20.03	280.04	13.71	-34.4	-35.0	25.4	0.00e+00	0	41	0	3170893824	40	6433
2026-01-25 19:25:21.04	279.90	13.64	-34.3	-35.1	25.5	0.00e+00	0	41	0	3177185280	40	6481
2026-01-25 19:25:22.05	279.76	13.56	-34.5	-35.2	25.3	0.00e+00	0	41	0	3182428160	40	6612
2026-01-25 19:25:23.06	279.62	13.49	-34.7	-35.3	25.2	0.00e+00	0	41	0	3187671040	40	6632
2026-01-25 19:25:24.07	279.48	13.42	-34.7	-35.5	25.3	0.00e+00	0	41	0	3193962496	42	6034
2026-01-25 19:25:25.08	279.34	13.34	-34.9	-35.5	25.1	0.00e+00	0	41	0	3199205376	42	6043
2026-01-25 19:25:26.09	279.20	13.27	-34.8	-35.4	25.1	0.00e+00	0	41	0	3205496832	42	5987
2026-01-25 19:25:27.10	279.07	13.20	-34.6	-35.2	25.3	0.00e+00	0	41	0	3210739712	42	5860
2026-01-25 19:25:28.11	278.93	13.12	-34.7	-35.3	25.2	0.00e+00	0	41	0	3215982592	42	5956
2026-01-25 19:25:29.11	278.79	13.05	-34.8	-35.4	25.1	0.00e+00	0	41	0	3222274048	42	6012
2026-01-25 19:25:30.13	278.66	12.98	-34.8	-35.4	25.2	0.00e+00	0	41	0	3227516928	42	5990
2026-01-25 19:25:31.13	278.52	12.90	-34.8	-35.4	25.1	0.00e+00	0	41	0	3233808384	42	5997
2026-01-25 19:25:32.14	278.39	12.83	-35.0	-35.7	24.9	0.00e+00	0	41	0	3239051264	42	6203
2026-01-25 19:25:33.15	278.26	12.76	-34.8	-35.5	25.1	0.00e+00	0	41	0	3245342720	42	6068
2026-01-25 19:25:34.16	278.12	12.68	-34.6	-35.2	25.2	0.00e+00	0	41	0	3250585600	42	5884
2026-01-25 19:25:35.17	277.99	12.61	-34.6	-35.2	25.3	0.00e+00	0	41	0	3255828480	42	5848
2026-01-25 19:25:36.18	277.86	12.54	-34.9	-35.5	25.0	0.00e+00	0	41	0	3262119936	42	6070
2026-01-25 19:25:37.19	277.73	12.47	-35.0	-35.6	25.0	0.00e+00	0	41	0	3267362816	42	6118
2026-01-25 19:25:38.20	277.60	12.39	-35.0	-35.6	24.9	0.00e+00	0	41	0	3273654272	42	6162
2026-01-25 19:25:39.21	277.47	12.32	-34.9	-35.6	25.0	0.00e+00	0	41	0	3278897152	42	6117
2026-01-25 19:25:40.22	277.34	12.25	-35.0	-35.7	24.9	0.00e+00	0	41	0	3284140032	42	6224
2026-01-25 19:25:41.23	277.21	12.17	-35.1	-35.9	24.8	0.00e+00	0	41	0	3290431488	42	6321
2026-01-25 19:25:42.24	277.09	12.10	-35.0	-35.6	24.9	0.00e+00	0	41	0	3295674368	42	6129
2026-01-25 19:25:43.25	276.96	12.03	-34.8	-35.5	25.1	0.00e+00	0	41	0	3301965824	42	6102
2026-01-25 19:25:44.26	276.83	11.96	-34.8	-35.4	25.1	0.00e+00	0	41	0	3307208704	42	5990
2026-01-25 19:25:45.27	276.71	11.88	-34.9	-35.5	25.0	0.00e+00	0	41	0	3312451584	42	6074
2026-01-25 19:25:46.27	276.58	11.81	-35.1	-35.8	24.9	0.00e+00	0	41	0	3318743040	42	6286
2026-01-25 19:25:47.28	276.46	11.74	-35.1	-35.7	24.9	0.00e+00	0	41	0	3323985920	42	6198
2026-01-25 19:25:48.29	276.33	11.67	-34.9	-35.6	25.0	0.00e+00	0	41	0	3330277376	42	6141
2026-01-25 19:25:49.30	276.21	11.60	-35.0	-35.6	24.8	0.00e+00	0	41	0	3335520256	42	6143
2026-01-25 19:25:50.31	276.09	11.52	-35.0	-35.6	24.9	0.00e+00	0	41	0	3341811712	42	6154
2026-01-25 19:25:51.32	275.97	11.45	-35.2	-35.9	24.8	0.00e+00	0	41	0	3347054592	42	6334
2026-01-25 19:25:52.33	275.85	11.38	-35.0	-35.7	24.9	0.00e+00	0	41	0	3352297472	42	6244
2026-01-25 19:25:53.34	275.72	11.31	-35.1	-35.8	24.9	0.00e+00	0	41	0	3358588928	42	6280
2026-01-25 19:25:54.35	275.60	11.24	-35.0	-35.6	24.9	0.00e+00	0	41	0	3363831808	42	6117
2026-01-25 19:25:55.36	275.48	11.17	-35.2	-35.9	24.8	0.00e+00	0	41	0	3370123264	42	6367
2026-01-25 19:25:56.37	275.37	11.09	-35.2	-35.9	24.7	0.00e+00	0	41	0	3375366144	42	6382
2026-01-25 19:25:57.38	275.25	11.02	-35.2	-35.8	24.7	0.00e+00	0	41	0	3380609024	42	6267
2026-01-25 19:25:58.39	275.13	10.95	-35.2	-35.8	24.7	0.00e+00	0	41	0	3386900480	42	6300
2026-01-25 19:25:59.40	275.01	10.88	-35.4	-36.1	24.6	0.00e+00	0	41	0	3392143360	42	6526
2026-01-25 19:26:00.41	274.90	10.81	-35.6	-36.3	24.4	0.00e+00	0	41	0	3398434816	42	6640
2026-01-25 19:26:01.42	274.78	10.74	-35.5	-36.1	24.4	0.00e+00	0	41	0	3403677696	42	6539
2026-01-25 19:26:02.43	274.66	10.67	-35.6	-36.4	24.3	0.00e+00	0	41	0	3408920576	42	6733
2026-01-25 19:26:03.44	274.55	10.60	-35.6	-36.4	24.3	0.00e+00	0	41	0	3415212032	42	6704
2026-01-25 19:26:04.45	274.44	10.53	-35.7	-36.4	24.3	0.00e+00	0	41	0	3420454912	42	6741
2026-01-25 19:26:05.46	274.32	10.46	-35.7	-36.5	24.2	0.00e+00	0	41	0	3426746368	44	6043
2026-01-25 19:26:06.47	274.21	10.39	-35.6	-36.3	24.2	0.00e+00	0	41	0	3431989248	44	5908
2026-01-25 19:26:07.48	274.10	10.31	-35.6	-36.2	24.3	0.00e+00	0	41	0	3438280704	44	5859
2026-01-25 19:26:08.49	273.98	10.24	-35.7	-36.3	24.2	0.00e+00	0	41	0	3443523584	44	5959
2026-01-25 19:26:09.49	273.87	10.17	-35.5	-36.1	24.4	0.00e+00	0	41	0	3449815040	44	5824
2026-01-25 19:26:10.50	273.76	10.10	-35.5	-36.1	24.4	0.00e+00	0	41	0	3455057920	44	5815
2026-01-25 19:26:11.51	273.65	10.03	-35.5	-36.2	24.3	0.00e+00	0	41	0	3460300800	44	5836
2026-01-25 19:26:12.53	273.54	9.96	-35.5	-36.3	24.3	0.00e+00	0	41	0	3466592256	44	5911
2026-01-25 19:26:13.53	273.43	9.89	-35.7	-36.5	24.1	0.00e+00	0	41	0	3471835136	44	6067
2026-01-25 19:26:14.55	273.32	9.82	-35.5	-36.3	24.3	0.00e+00	0	41	0	3478126592	44	5911
2026-01-25 19:26:15.55	273.22	9.76	-35.5	-36.2	24.3	0.00e+00	0	41	0	3483369472	44	5885
2026-01-25 19:26:16.57	273.11	9.69	-35.5	-36.2	24.2	0.00e+00	0	41	0	3488612352	44	5842
2026-01-25 19:26:17.58	273.00	9.62	-35.6	-36.3	24.3	0.00e+00	0	41	0	3494903808	44	5963
2026-01-25 19:26:18.59	272.89	9.55	-35.5	-36.3	24.4	0.00e+00	0	41	0	3500146688	44	5903
2026-01-25 19:26:19.59	272.79	9.48	-35.5	-36.1	24.4	0.00e+00	0	41	0	3506438144	44	5799
2026-01-25 19:26:20.60	272.68	9.41	-35.6	-36.2	24.3	0.00e+00	0	41	0	3511681024	44	5896
2026-01-25 19:26:21.62	272.58	9.34	-35.6	-36.2	24.2	0.00e+00	0	41	0	3516923904	44	5891
2026-01-25 19:26:22.63	272.47	9.27	-35.6	-36.2	24.2	0.00e+00	0	41	0	3523215360	44	5876
2026-01-25 19:26:23.63	272.37	9.20	-35.8	-36.4	24.0	0.00e+00	0	41	0	3528458240	44	5999
2026-01-25 19:26:24.64	272.26	9.13	-35.9	-36.7	23.9	0.00e+00	0	41	0	3534749696	44	6216
2026-01-25 19:26:25.65	272.16	9.06	-35.9	-36.7	23.9	0.00e+00	0	41	0	3539992576	44	6195
2026-01-25 19:26:26.66	272.06	9.00	-35.9	-36.7	23.9	0.00e+00	0	41	0	3546284032	44	6229
2026-01-25 19:26:27.67	271.96	8.93	-36.1	-36.7	23.7	0.00e+00	0	41	0	3551526912	44	6242
2026-01-25 19:26:28.68	271.85	8.86	-36.0	-36.7	23.8	0.00e+00	0	41	0	3556769792	44	6210
2026-01-25 19:26:29.69	271.75	8.79	-35.9	-36.5	24.0	0.00e+00	0	41	0	3563061248	44	6077
2026-01-25 19:26:30.70	271.65	8.72	-35.9	-36.7	23.8	0.00e+00	0	41	0	3568304128	44	6239
2026-01-25 19:26:31.71	271.55	8.65	-36.0	-36.7	23.8	0.00e+00	0	41	0	3574595584	44	6181
2026-01-25 19:26:32.72	271.45	8.59	-35.8	-36.5	24.0	0.00e+00	0	41	0	3579838464	44	6038
