passes_logs/2026/01/25/R4.6S_Anadyr/R4.6S_Anadyr__20260125_220234_TY-42_rec.log

#Pass ID: 20260125_220234_TY-42
#Satellite: TY-42
#Configuration: TY-42_900M
#almurnet v.1.7.20251203
#Start time: 2026-01-25 22:03:06

#Version: 2.2.20231116
#Station: R4.6S_Anadyr
#Location: 177.4865 lon 64.73178 lat
#TLE: 1 64048U 25103A   26025.57890046  .00008012  00000-0  38191-3 0 09993
#TLE: 2 64048 097.4111 100.7975 0001666 092.3311 307.1431 15.19178210 38425

#Time	Az	El	Level	Level2	SNR	BER	BlckErr	Temp	State	Recorded	gain1	gain2
2026-01-25 22:03:06.24	24.02	1.86	-51.0	-68.6	3.5	3.02e+01	0	37	0	0	60	104040
2026-01-25 22:03:07.25	24.11	1.92	-49.0	-51.4	6.1	0.00e+00	0	39	104	0	60	45649
2026-01-25 22:03:08.26	24.20	1.98	-48.9	-51.3	6.1	0.00e+00	0	39	104	0	60	45227
2026-01-25 22:03:09.27	24.29	2.04	-48.9	-51.3	6.1	0.00e+00	0	39	104	0	60	45138
2026-01-25 22:03:10.28	24.38	2.10	-48.9	-51.4	6.1	0.00e+00	0	39	104	0	60	45427
2026-01-25 22:03:11.29	24.47	2.16	-48.9	-51.4	6.1	0.00e+00	0	39	104	0	60	45368
2026-01-25 22:03:12.30	24.56	2.23	-48.9	-51.4	6.1	0.00e+00	0	39	104	0	60	45481
2026-01-25 22:03:13.31	24.65	2.29	-48.9	-51.4	6.1	0.00e+00	0	39	104	0	60	45703
2026-01-25 22:03:14.32	24.74	2.35	-49.0	-51.4	6.1	0.00e+00	0	39	104	0	60	45391
2026-01-25 22:03:15.32	24.83	2.41	-48.9	-51.4	6.1	0.00e+00	0	39	104	0	60	45521
2026-01-25 22:03:16.33	24.92	2.47	-49.0	-51.4	6.1	0.00e+00	0	39	104	0	60	45509
2026-01-25 22:03:17.35	25.02	2.54	-49.0	-51.4	6.1	0.00e+00	0	39	104	0	60	45685
2026-01-25 22:03:18.36	25.11	2.60	-49.0	-51.4	6.1	0.00e+00	0	39	104	0	60	45759
2026-01-25 22:03:19.37	25.21	2.66	-49.0	-51.5	6.1	0.00e+00	0	39	104	0	60	45788
2026-01-25 22:03:20.38	25.30	2.72	-49.0	-51.5	6.1	0.00e+00	0	39	104	0	60	45811
2026-01-25 22:03:21.39	25.40	2.79	-49.0	-51.4	6.1	0.00e+00	0	39	104	0	60	45745
2026-01-25 22:03:22.40	25.49	2.85	-49.0	-51.5	6.1	0.00e+00	0	39	104	0	60	45853
2026-01-25 22:03:23.41	25.59	2.91	-49.0	-51.4	6.1	0.00e+00	0	39	104	0	60	45642
2026-01-25 22:03:24.42	25.68	2.98	-49.0	-51.4	6.1	0.00e+00	0	39	104	0	60	45533
2026-01-25 22:03:25.43	25.78	3.04	-48.9	-51.4	6.1	0.00e+00	0	39	104	0	60	45611
2026-01-25 22:03:26.44	25.88	3.10	-49.0	-51.4	6.1	0.00e+00	0	39	104	0	60	45643
2026-01-25 22:03:27.45	25.98	3.17	-49.0	-51.4	6.1	0.00e+00	0	39	104	0	60	45668
2026-01-25 22:03:28.46	26.07	3.23	-48.9	-51.5	6.1	0.00e+00	0	39	104	0	60	45800
2026-01-25 22:03:29.47	26.17	3.29	-49.0	-51.4	6.1	0.00e+00	0	39	104	0	60	45726
2026-01-25 22:03:30.48	26.27	3.36	-48.9	-51.4	6.1	0.00e+00	0	39	104	0	60	45530
2026-01-25 22:03:31.49	26.37	3.42	-48.9	-51.4	6.1	0.00e+00	0	39	104	0	60	45508
2026-01-25 22:03:32.50	26.47	3.49	-48.9	-51.4	6.1	0.00e+00	0	39	104	0	60	45623
2026-01-25 22:03:33.51	26.57	3.55	-49.0	-51.5	6.1	0.00e+00	0	39	104	0	60	45932
2026-01-25 22:03:34.52	26.68	3.62	-48.9	-51.4	6.1	0.00e+00	0	39	104	0	60	45638
2026-01-25 22:03:35.53	26.78	3.68	-49.0	-51.4	6.1	0.00e+00	0	39	104	0	60	45618
2026-01-25 22:03:36.54	26.88	3.74	-48.9	-51.3	6.1	0.00e+00	0	39	104	0	60	44937
2026-01-25 22:03:37.55	26.98	3.81	-48.9	-51.4	6.1	0.00e+00	0	39	104	0	60	45418
2026-01-25 22:03:38.56	27.09	3.88	-48.8	-51.3	6.1	0.00e+00	0	39	104	0	60	44855
2026-01-25 22:03:39.57	27.19	3.94	-48.8	-51.3	6.1	0.00e+00	0	39	104	0	60	44968
2026-01-25 22:03:40.58	27.30	4.01	-48.8	-51.3	6.1	0.00e+00	0	39	104	0	60	45057
2026-01-25 22:03:41.58	27.40	4.07	-48.7	-51.3	6.1	0.00e+00	0	39	104	0	60	44873
2026-01-25 22:03:42.59	27.51	4.14	-49.1	-51.5	6.1	0.00e+00	0	39	104	0	60	46117
2026-01-25 22:03:43.60	27.62	4.20	-48.8	-51.4	6.1	0.00e+00	0	39	104	0	60	45399
2026-01-25 22:03:44.61	27.72	4.27	-48.7	-51.2	6.1	0.00e+00	0	39	104	0	60	44429
2026-01-25 22:03:45.62	27.83	4.33	-49.2	-51.6	6.1	0.00e+00	0	39	104	0	60	46785
2026-01-25 22:03:46.63	27.94	4.40	-49.2	-51.7	6.1	0.00e+00	0	39	104	0	60	46878
2026-01-25 22:03:47.64	28.05	4.47	-49.0	-51.5	6.1	0.00e+00	0	39	104	0	60	45822
2026-01-25 22:03:48.65	28.16	4.53	-49.0	-51.4	6.1	0.00e+00	0	39	104	0	60	45675
2026-01-25 22:03:49.66	28.27	4.60	-49.1	-51.6	6.1	0.00e+00	0	40	104	0	60	46451
2026-01-25 22:03:50.67	28.38	4.67	-49.2	-51.7	6.1	0.00e+00	0	40	104	0	60	47097
2026-01-25 22:03:51.67	28.49	4.73	-49.1	-51.6	6.0	0.00e+00	0	39	104	0	60	46591
2026-01-25 22:03:52.68	28.60	4.80	-49.0	-51.5	6.1	0.00e+00	0	39	104	0	60	45970
2026-01-25 22:03:53.69	28.71	4.87	-49.3	-51.8	6.1	0.00e+00	0	39	104	0	60	47571
2026-01-25 22:03:54.70	28.83	4.94	-49.3	-51.7	6.1	0.00e+00	0	39	104	0	60	47340
2026-01-25 22:03:55.70	28.94	5.00	-49.1	-51.6	6.1	0.00e+00	0	40	104	0	60	46613
2026-01-25 22:03:56.71	29.05	5.07	-49.0	-51.5	6.1	0.00e+00	0	40	104	0	60	45956
2026-01-25 22:03:57.72	29.17	5.14	-49.2	-51.7	6.1	0.00e+00	0	40	104	0	60	47338
2026-01-25 22:03:58.73	29.29	5.21	-49.3	-51.8	6.1	0.00e+00	0	40	104	0	60	47843
2026-01-25 22:03:59.74	29.40	5.28	-49.2	-51.7	6.1	0.00e+00	0	40	104	0	60	47211
2026-01-25 22:04:00.75	29.52	5.34	-49.3	-51.7	6.1	0.00e+00	0	40	104	0	60	47017
2026-01-25 22:04:01.76	29.64	5.41	-49.2	-51.7	6.1	0.00e+00	0	40	104	0	60	47244
2026-01-25 22:04:02.77	29.76	5.48	-49.4	-51.9	6.1	0.00e+00	0	40	104	0	60	48178
2026-01-25 22:04:03.78	29.88	5.55	-49.4	-51.9	6.1	0.00e+00	0	40	104	0	60	48031
2026-01-25 22:04:04.79	30.00	5.62	-49.1	-51.7	6.1	0.00e+00	0	40	104	0	60	46879
2026-01-25 22:04:05.80	30.12	5.69	-49.5	-52.0	6.1	0.00e+00	0	40	104	0	60	48486
2026-01-25 22:04:06.81	30.24	5.76	-30.9	-31.2	11.7	0.00e+00	658	40	104	0	38	15820
2026-01-25 22:04:07.81	30.36	5.83	-44.4	-45.4	6.7	1.72e-02	1706	40	104	0	56	28637
2026-01-25 22:04:08.82	30.48	5.90	-41.8	-42.3	8.7	0.00e+00	1191	40	104	0	58	17990
2026-01-25 22:04:09.83	30.60	5.97	-42.6	-43.2	7.7	4.72e-02	3330	40	0	33554432	48	35257
2026-01-25 22:04:10.84	30.73	6.04	-35.6	-35.9	11.0	0.00e+00	0	40	104	33554432	50	13621
2026-01-25 22:04:11.85	30.85	6.11	-36.0	-36.4	12.7	0.00e+00	0	40	0	58720256	46	18044
2026-01-25 22:04:12.86	30.98	6.18	-33.7	-34.1	13.9	0.00e+00	0	40	0	176160768	44	15577
2026-01-25 22:04:13.87	31.10	6.25	-34.5	-34.8	13.9	7.10e-02	1	40	0	293601280	44	16995
2026-01-25 22:04:14.88	31.23	6.32	-33.5	-33.9	14.2	7.10e-02	0	40	0	402653184	42	17050
2026-01-25 22:04:15.89	31.36	6.39	-33.6	-34.0	14.2	7.10e-02	0	40	0	520093696	42	17328
2026-01-25 22:04:16.90	31.49	6.46	-32.7	-33.2	14.4	2.42e-02	0	40	0	629145600	40	17609
2026-01-25 22:04:17.90	31.62	6.53	-32.6	-33.1	14.7	2.42e-02	0	40	0	738197504	42	15531
2026-01-25 22:04:18.91	31.75	6.60	-32.9	-33.3	15.0	9.47e-03	0	40	0	855638016	40	17832
2026-01-25 22:04:19.93	31.88	6.67	-34.1	-34.5	14.4	9.47e-03	0	40	0	973078528	40	20617
2026-01-25 22:04:20.93	32.01	6.74	-33.2	-33.6	14.5	9.93e-03	0	40	0	1082130432	40	18623
2026-01-25 22:04:21.94	32.14	6.82	-30.6	-31.1	15.5	9.93e-03	0	40	0	1199570944	36	17462
2026-01-25 22:04:22.95	32.27	6.89	-31.0	-31.4	15.3	9.93e-03	0	41	0	1308622848	36	18203
2026-01-25 22:04:23.96	32.41	6.96	-31.1	-31.6	15.5	5.10e-03	0	40	0	1426063360	36	18437
2026-01-25 22:04:24.97	32.54	7.03	-31.0	-31.4	15.5	2.36e-03	0	40	0	1543503872	36	18167
2026-01-25 22:04:25.98	32.68	7.10	-30.3	-30.7	15.8	2.36e-03	0	40	0	1652555776	36	16716
2026-01-25 22:04:26.99	32.82	7.18	-30.6	-31.1	15.6	2.36e-03	0	40	0	1761607680	36	17477
2026-01-25 22:04:28.00	32.95	7.25	-30.0	-30.4	16.0	1.86e-03	0	40	0	1879048192	36	16132
2026-01-25 22:04:29.01	33.09	7.32	-29.9	-30.3	16.1	1.86e-03	0	40	0	1996488704	34	17920
2026-01-25 22:04:30.02	33.23	7.39	-29.4	-29.9	16.1	5.45e-04	0	41	0	2105540608	34	17036
2026-01-25 22:04:31.03	33.37	7.47	-29.7	-30.1	16.1	5.45e-04	0	40	0	2222981120	34	17501
2026-01-25 22:04:32.04	33.51	7.54	-29.1	-29.6	16.2	3.81e-04	0	40	0	2332033024	34	16454
2026-01-25 22:04:33.05	33.65	7.61	-29.1	-29.5	16.2	3.81e-04	0	41	0	2449473536	34	16383
2026-01-25 22:04:34.06	33.79	7.69	-29.0	-29.4	16.2	1.80e-04	0	41	0	2566914048	34	16150
2026-01-25 22:04:35.07	33.94	7.76	-28.5	-29.0	16.3	1.80e-04	0	41	0	2675965952	32	17233
2026-01-25 22:04:36.07	34.08	7.83	-28.9	-29.4	16.3	1.80e-04	0	41	0	2785017856	32	18071
2026-01-25 22:04:37.08	34.22	7.91	-28.7	-29.2	16.2	1.36e-04	0	41	0	2902458368	32	17719
2026-01-25 22:04:38.09	34.37	7.98	-29.0	-29.5	16.2	1.36e-04	0	41	0	3011510272	32	18316
2026-01-25 22:04:39.10	34.52	8.06	-29.1	-29.6	16.0	1.91e-04	0	41	0	3128950784	32	18547
2026-01-25 22:04:40.11	34.66	8.13	-28.9	-29.3	16.2	1.91e-04	0	41	0	3246391296	32	17931
2026-01-25 22:04:41.11	34.81	8.21	-29.7	-30.2	16.1	1.91e-04	0	41	0	3355443200	32	19808
2026-01-25 22:04:42.12	34.96	8.28	-28.8	-29.2	16.4	2.07e-04	0	41	0	3472883712	32	17742
2026-01-25 22:04:43.13	35.11	8.36	-28.6	-29.1	16.3	2.07e-04	0	41	0	3581935616	32	17525
2026-01-25 22:04:44.14	35.26	8.43	-28.6	-29.0	16.2	1.47e-04	0	41	0	3690987520	32	17302
2026-01-25 22:04:45.15	35.41	8.51	-28.9	-29.3	15.9	1.47e-04	0	41	0	3808428032	32	17901
2026-01-25 22:04:46.16	35.57	8.58	-28.6	-29.1	16.1	2.94e-04	0	41	0	3925868544	32	17462
2026-01-25 22:04:47.17	35.72	8.66	-28.2	-28.7	15.7	2.94e-04	0	41	0	4034920448	32	16696
2026-01-25 22:04:48.18	35.88	8.73	-28.2	-28.7	16.1	3.54e-04	0	41	0	4152360960	32	16632
2026-01-25 22:04:49.19	36.03	8.81	-28.8	-29.3	15.9	3.54e-04	0	41	0	4261412864	32	17816
2026-01-25 22:04:50.20	36.19	8.88	-27.8	-28.2	16.3	2.34e-04	0	41	0	4378853376	32	15790
2026-01-25 22:04:51.21	36.35	8.96	-27.1	-27.5	16.5	2.34e-04	0	41	0	4496293888	30	16422
2026-01-25 22:04:52.22	36.51	9.04	-27.2	-27.6	16.6	3.26e-05	0	41	0	4605345792	30	16546
2026-01-25 22:04:53.22	36.66	9.11	-27.3	-27.8	16.6	3.26e-05	0	41	0	4714397696	30	16823
2026-01-25 22:04:54.23	36.82	9.19	-26.9	-27.3	16.7	3.26e-05	0	41	0	4831838208	30	16013
2026-01-25 22:04:55.24	36.99	9.27	-27.2	-27.6	16.7	2.17e-05	0	41	0	4940890112	30	16563
2026-01-25 22:04:56.25	37.15	9.34	-27.0	-27.5	16.7	2.17e-05	0	41	0	5058330624	30	16242
2026-01-25 22:04:57.26	37.31	9.42	-27.0	-27.4	16.8	5.40e-06	0	41	0	5175771136	30	16207
2026-01-25 22:04:58.27	37.48	9.50	-27.1	-27.6	16.8	5.40e-06	0	41	0	5284823040	30	16516
2026-01-25 22:04:59.28	37.64	9.57	-27.0	-27.5	16.8	5.40e-06	0	41	0	5402263552	30	16366
2026-01-25 22:05:00.29	37.81	9.65	-27.3	-27.8	16.8	5.40e-06	0	41	0	5511315456	30	16854
2026-01-25 22:05:01.30	37.98	9.73	-27.0	-27.5	16.8	5.40e-06	0	41	0	5620367360	30	16365
2026-01-25 22:05:02.31	38.15	9.81	-26.7	-27.2	16.9	1.08e-05	0	41	0	5737807872	30	15838
2026-01-25 22:05:03.32	38.32	9.89	-26.7	-27.2	16.9	1.08e-05	0	41	0	5855248384	28	17664
2026-01-25 22:05:04.33	38.49	9.96	-26.8	-27.3	16.8	5.40e-06	0	41	0	5964300288	28	17892
2026-01-25 22:05:05.34	38.66	10.04	-26.6	-27.1	16.9	5.40e-06	0	41	0	6081740800	28	17522
2026-01-25 22:05:06.35	38.84	10.12	-26.8	-27.3	16.9	5.40e-06	0	41	0	6190792704	28	17888
2026-01-25 22:05:07.36	39.01	10.20	-26.9	-27.4	16.8	5.40e-06	0	41	0	6308233216	28	18209
2026-01-25 22:05:08.37	39.19	10.28	-26.6	-27.1	16.9	1.08e-05	0	41	0	6425673728	28	17568
2026-01-25 22:05:09.38	39.36	10.36	-26.7	-27.2	16.8	1.08e-05	0	41	0	6534725632	28	17680
2026-01-25 22:05:10.39	39.54	10.43	-26.5	-26.9	16.9	1.08e-05	0	41	0	6643777536	28	17181
2026-01-25 22:05:11.39	39.72	10.51	-26.6	-27.0	16.9	1.08e-05	0	41	0	6761218048	28	17391
2026-01-25 22:05:12.40	39.90	10.59	-26.4	-26.9	17.0	1.08e-05	0	41	0	6870269952	28	17089
2026-01-25 22:05:13.41	40.08	10.67	-26.4	-26.8	17.0	1.08e-05	0	41	0	6987710464	28	16943
2026-01-25 22:05:14.42	40.26	10.75	-26.2	-26.7	17.0	0.00e+00	0	41	0	7105150976	28	16715
2026-01-25 22:05:15.43	40.45	10.83	-26.2	-26.6	17.1	0.00e+00	0	41	0	7214202880	28	16589
2026-01-25 22:05:16.44	40.63	10.91	-26.3	-26.8	17.0	0.00e+00	0	41	0	7331643392	28	16911
2026-01-25 22:05:17.45	40.82	10.99	-26.4	-26.8	17.0	0.00e+00	0	41	0	7440695296	28	16975
2026-01-25 22:05:18.46	41.01	11.07	-25.9	-26.4	17.1	0.00e+00	0	41	0	7558135808	28	16157
2026-01-25 22:05:19.47	41.19	11.15	-26.1	-26.6	17.0	0.00e+00	0	41	0	7667187712	28	16477
2026-01-25 22:05:20.48	41.38	11.23	-25.9	-26.4	17.1	0.00e+00	0	41	0	7784628224	28	16236
2026-01-25 22:05:21.49	41.58	11.31	-25.9	-26.4	17.1	0.00e+00	0	41	0	7893680128	28	16115
2026-01-25 22:05:22.50	41.77	11.39	-25.9	-26.4	17.0	0.00e+00	0	41	0	8011120640	28	16133
2026-01-25 22:05:23.51	41.96	11.47	-25.8	-26.3	17.0	0.00e+00	0	41	0	8128561152	28	15927
2026-01-25 22:05:24.52	42.16	11.55	-26.0	-26.5	17.0	0.00e+00	0	41	0	8237613056	26	18244
2026-01-25 22:05:25.53	42.35	11.63	-25.7	-26.2	17.1	0.00e+00	0	41	0	8355053568	26	17737
2026-01-25 22:05:26.54	42.55	11.71	-25.8	-26.3	17.1	0.00e+00	0	41	0	8464105472	26	17816
2026-01-25 22:05:27.55	42.75	11.79	-26.2	-26.7	17.0	0.00e+00	0	41	0	8573157376	26	18835
2026-01-25 22:05:28.56	42.95	11.87	-26.2	-26.7	16.9	0.00e+00	0	41	0	8698986496	26	18750
2026-01-25 22:05:29.57	43.15	11.95	-26.6	-27.1	16.7	0.00e+00	0	41	0	8808038400	28	17466
2026-01-25 22:05:30.57	43.35	12.03	-26.3	-26.8	16.7	5.40e-06	0	41	0	8917090304	28	16862
2026-01-25 22:05:31.58	43.55	12.11	-26.6	-27.0	16.8	5.40e-06	0	41	0	9034530816	28	17356
2026-01-25 22:05:32.60	43.76	12.19	-25.7	-26.2	17.1	0.00e+00	0	41	0	9143582720	28	15829
2026-01-25 22:05:33.60	43.97	12.27	-25.7	-26.2	17.1	0.00e+00	0	41	0	9261023232	26	17737
2026-01-25 22:05:34.61	44.17	12.35	-25.8	-26.3	17.2	0.00e+00	0	41	0	9378463744	26	17908
2026-01-25 22:05:35.62	44.38	12.44	-25.4	-25.9	17.2	0.00e+00	0	41	0	9487515648	26	17132
2026-01-25 22:05:36.63	44.59	12.52	-25.5	-26.0	17.2	0.00e+00	0	41	0	9596567552	26	17302
2026-01-25 22:05:37.64	44.80	12.60	-25.6	-26.1	17.1	0.00e+00	0	41	0	9714008064	26	17442
2026-01-25 22:05:38.65	45.02	12.68	-25.7	-26.2	17.2	0.00e+00	0	41	0	9823059968	26	17620
2026-01-25 22:05:39.66	45.23	12.76	-25.5	-26.0	17.2	0.00e+00	0	41	0	9940500480	26	17221
2026-01-25 22:05:40.67	45.45	12.84	-25.4	-25.9	17.2	0.00e+00	0	41	0	10057940992	26	17166
2026-01-25 22:05:41.68	45.67	12.92	-25.3	-25.9	17.2	0.00e+00	0	42	0	10166992896	26	17009
2026-01-25 22:05:42.69	45.89	13.00	-25.4	-25.9	17.2	0.00e+00	0	42	0	10284433408	26	17159
2026-01-25 22:05:43.70	46.11	13.09	-25.3	-25.8	17.1	0.00e+00	0	41	0	10393485312	26	16864
2026-01-25 22:05:44.71	46.33	13.17	-25.1	-25.6	17.0	0.00e+00	0	41	0	10510925824	26	16563
2026-01-25 22:05:45.72	46.55	13.25	-25.2	-25.7	17.0	0.00e+00	0	41	0	10628366336	26	16761
2026-01-25 22:05:46.73	46.78	13.33	-25.1	-25.6	17.0	0.00e+00	0	41	0	10737418240	26	16458
2026-01-25 22:05:47.74	47.00	13.41	-25.4	-25.9	17.0	0.00e+00	0	42	0	10846470144	26	17078
2026-01-25 22:05:48.75	47.23	13.49	-25.2	-25.7	17.1	0.00e+00	0	42	0	10963910656	26	16726
2026-01-25 22:05:49.76	47.46	13.57	-25.1	-25.6	17.1	0.00e+00	0	42	0	11081351168	26	16538
2026-01-25 22:05:50.77	47.69	13.66	-25.1	-25.6	17.2	0.00e+00	0	42	0	11190403072	26	16447
2026-01-25 22:05:51.78	47.92	13.74	-25.0	-25.5	17.2	0.00e+00	0	42	0	11307843584	26	16290
2026-01-25 22:05:52.79	48.15	13.82	-25.0	-25.5	17.3	0.00e+00	0	42	0	11416895488	26	16291
2026-01-25 22:05:53.79	48.39	13.90	-25.1	-25.6	17.3	0.00e+00	0	41	0	11525947392	26	16583
2026-01-25 22:05:54.81	48.62	13.98	-25.2	-25.7	17.2	0.00e+00	0	41	0	11643387904	26	16704
2026-01-25 22:05:55.81	48.86	14.06	-25.0	-25.5	17.2	0.00e+00	0	42	0	11760828416	26	16347
2026-01-25 22:05:56.83	49.10	14.14	-24.9	-25.4	17.3	0.00e+00	0	42	0	11869880320	26	16172
2026-01-25 22:05:57.83	49.34	14.22	-24.9	-25.4	17.3	0.00e+00	0	42	0	11987320832	26	16224
2026-01-25 22:05:58.84	49.58	14.31	-24.8	-25.3	17.3	0.00e+00	0	41	0	12096372736	24	18000
2026-01-25 22:05:59.86	49.83	14.39	-24.9	-25.4	17.2	0.00e+00	0	42	0	12213813248	24	18073
2026-01-25 22:06:00.86	50.07	14.47	-25.0	-25.5	17.2	0.00e+00	0	42	0	12331253760	24	18399
2026-01-25 22:06:01.87	50.32	14.55	-24.8	-25.3	17.3	0.00e+00	0	42	0	12440305664	24	17927
2026-01-25 22:06:02.88	50.57	14.63	-24.7	-25.2	17.3	0.00e+00	0	42	0	12557746176	24	17642
2026-01-25 22:06:03.89	50.82	14.71	-24.6	-25.1	17.2	0.00e+00	0	42	0	12666798080	24	17463
2026-01-25 22:06:04.90	51.07	14.79	-24.7	-25.3	17.2	0.00e+00	0	42	0	12775849984	24	17845
2026-01-25 22:06:05.90	51.32	14.87	-24.6	-25.1	17.3	0.00e+00	0	42	0	12893290496	24	17569
2026-01-25 22:06:06.92	51.58	14.95	-24.6	-25.1	17.3	0.00e+00	0	42	0	13010731008	24	17475
2026-01-25 22:06:07.93	51.84	15.03	-24.6	-25.2	17.2	0.00e+00	0	42	0	13119782912	24	17617
2026-01-25 22:06:08.94	52.10	15.11	-24.6	-25.1	17.2	0.00e+00	0	42	0	13237223424	24	17438
2026-01-25 22:06:09.95	52.36	15.19	-24.8	-25.4	17.2	0.00e+00	0	42	0	13346275328	24	18039
2026-01-25 22:06:10.96	52.62	15.27	-24.6	-25.1	17.3	0.00e+00	0	42	0	13463715840	24	17537
2026-01-25 22:06:11.97	52.88	15.35	-24.7	-25.3	17.2	0.00e+00	0	42	0	13581156352	24	17807
2026-01-25 22:06:12.97	53.14	15.43	-24.9	-25.4	17.2	0.00e+00	0	42	0	13690208256	24	18138
2026-01-25 22:06:13.98	53.41	15.51	-24.6	-25.1	17.3	0.00e+00	0	42	0	13799260160	24	17459
2026-01-25 22:06:14.99	53.68	15.59	-24.8	-25.3	17.2	0.00e+00	0	42	0	13916700672	24	18002
2026-01-25 22:06:16.00	53.95	15.67	-24.4	-24.9	17.0	0.00e+00	0	42	0	14025752576	24	17066
2026-01-25 22:06:17.01	54.22	15.75	-24.4	-24.9	17.0	0.00e+00	0	42	0	14143193088	24	17181
2026-01-25 22:06:18.02	54.49	15.82	-24.5	-25.0	17.1	0.00e+00	0	42	0	14260633600	24	17314
2026-01-25 22:06:19.03	54.77	15.90	-24.6	-25.1	17.2	0.00e+00	0	42	0	14369685504	24	17437
2026-01-25 22:06:20.04	55.04	15.98	-24.3	-24.8	17.2	0.00e+00	0	42	0	14487126016	24	16984
2026-01-25 22:06:21.05	55.32	16.06	-24.3	-24.8	17.2	0.00e+00	0	42	0	14596177920	24	16980
2026-01-25 22:06:22.06	55.60	16.14	-24.5	-25.0	17.2	0.00e+00	0	42	0	14713618432	24	17360
2026-01-25 22:06:23.07	55.88	16.21	-24.3	-24.8	17.2	0.00e+00	0	42	0	14822670336	24	16934
2026-01-25 22:06:24.08	56.16	16.29	-24.3	-24.8	17.2	0.00e+00	0	42	0	14940110848	24	16919
2026-01-25 22:06:25.09	56.45	16.37	-24.2	-24.7	17.1	0.00e+00	0	42	0	15049162752	24	16748
2026-01-25 22:06:26.10	56.73	16.44	-24.1	-24.6	17.2	0.00e+00	0	42	0	15166603264	24	16587
2026-01-25 22:06:27.11	57.02	16.52	-24.1	-24.6	17.2	0.00e+00	0	42	0	15284043776	24	16508
2026-01-25 22:06:28.12	57.31	16.60	-24.2	-24.7	17.0	0.00e+00	0	42	0	15393095680	24	16622
2026-01-25 22:06:29.13	57.60	16.67	-24.2	-24.7	17.0	0.00e+00	0	42	0	15510536192	24	16638
2026-01-25 22:06:30.14	57.90	16.75	-24.1	-24.6	17.2	0.00e+00	0	42	0	15619588096	24	16467
2026-01-25 22:06:31.15	58.19	16.82	-24.0	-24.5	16.9	0.00e+00	0	42	0	15728640000	24	16380
2026-01-25 22:06:32.16	58.49	16.90	-24.0	-24.4	16.7	0.00e+00	0	42	0	15846080512	24	16235
2026-01-25 22:06:33.17	58.79	16.97	-24.1	-24.6	16.9	0.00e+00	0	42	0	15963521024	24	16593
2026-01-25 22:06:34.18	59.09	17.04	-24.0	-24.5	17.1	0.00e+00	0	42	0	16072572928	24	16282
2026-01-25 22:06:35.19	59.39	17.12	-24.0	-24.5	17.2	0.00e+00	0	42	0	16190013440	24	16410
2026-01-25 22:06:36.20	59.69	17.19	-24.0	-24.5	17.2	0.00e+00	0	42	0	16299065344	24	16267
2026-01-25 22:06:37.20	59.99	17.26	-23.9	-24.4	17.3	0.00e+00	0	42	0	16416505856	24	16056
2026-01-25 22:06:38.21	60.30	17.33	-23.9	-24.4	17.2	0.00e+00	0	42	0	16533946368	24	16211
2026-01-25 22:06:39.22	60.61	17.41	-24.0	-24.5	16.9	0.00e+00	0	42	0	16642998272	24	16425
2026-01-25 22:06:40.23	60.92	17.48	-23.9	-24.4	17.0	0.00e+00	0	42	0	16752050176	24	16114
2026-01-25 22:06:41.24	61.23	17.55	-24.0	-24.5	17.1	0.00e+00	0	42	0	16869490688	24	16295
2026-01-25 22:06:42.25	61.54	17.62	-24.0	-24.5	17.2	0.00e+00	0	42	0	16978542592	24	16372
2026-01-25 22:06:43.26	61.86	17.69	-23.7	-24.2	17.3	0.00e+00	0	42	0	17095983104	22	17805
2026-01-25 22:06:44.27	62.17	17.76	-23.7	-24.2	17.3	0.00e+00	0	42	0	17213423616	22	17669
2026-01-25 22:06:45.28	62.49	17.83	-23.8	-24.3	17.3	0.00e+00	0	42	0	17322475520	22	17912
2026-01-25 22:06:46.29	62.81	17.89	-23.7	-24.1	17.3	0.00e+00	0	42	0	17439916032	22	17569
2026-01-25 22:06:47.30	63.13	17.96	-23.6	-24.1	17.3	0.00e+00	0	42	0	17548967936	22	17467
2026-01-25 22:06:48.31	63.46	18.03	-24.0	-24.5	17.3	0.00e+00	0	42	0	17666408448	22	18348
2026-01-25 22:06:49.32	63.78	18.10	-23.9	-24.4	17.3	0.00e+00	0	42	0	17775460352	22	18188
2026-01-25 22:06:50.33	64.11	18.16	-23.8	-24.4	17.3	0.00e+00	0	42	0	17892900864	22	18018
2026-01-25 22:06:51.34	64.44	18.23	-23.9	-24.4	17.3	0.00e+00	0	42	0	18001952768	22	18199
2026-01-25 22:06:52.35	64.77	18.29	-23.5	-24.0	17.2	0.00e+00	0	42	0	18119393280	22	17320
2026-01-25 22:06:53.36	65.10	18.36	-23.5	-24.0	17.2	0.00e+00	0	42	0	18236833792	22	17325
2026-01-25 22:06:54.37	65.43	18.42	-23.3	-23.8	17.3	0.00e+00	0	42	0	18345885696	22	16886
2026-01-25 22:06:55.38	65.76	18.48	-23.5	-24.0	17.3	0.00e+00	0	42	0	18463326208	22	17278
2026-01-25 22:06:56.39	66.10	18.54	-23.6	-24.0	17.2	0.00e+00	0	42	0	18572378112	22	17397
2026-01-25 22:06:57.40	66.44	18.61	-23.6	-24.1	16.9	0.00e+00	0	42	0	18681430016	22	17463
2026-01-25 22:06:58.40	66.77	18.67	-23.2	-23.6	17.1	0.00e+00	0	42	0	18798870528	22	16596
2026-01-25 22:06:59.41	67.11	18.73	-23.0	-23.5	17.3	0.00e+00	0	42	0	18916311040	22	16420
2026-01-25 22:07:00.42	67.46	18.79	-23.1	-23.6	17.3	0.00e+00	0	42	0	19025362944	22	16450
2026-01-25 22:07:01.43	67.80	18.85	-23.2	-23.7	17.2	0.00e+00	0	42	0	19142803456	22	16713
2026-01-25 22:07:02.44	68.15	18.90	-23.0	-23.5	17.2	0.00e+00	0	42	0	19251855360	22	16304
2026-01-25 22:07:03.45	68.49	18.96	-23.1	-23.6	17.3	0.00e+00	0	42	0	19369295872	22	16466
2026-01-25 22:07:04.46	68.84	19.02	-23.0	-23.5	17.3	0.00e+00	0	42	0	19486736384	22	16327
2026-01-25 22:07:05.47	69.19	19.07	-23.0	-23.4	17.3	0.00e+00	0	42	0	19595788288	22	16225
2026-01-25 22:07:06.48	69.54	19.13	-23.3	-23.8	17.3	0.00e+00	0	42	0	19704840192	22	16863
2026-01-25 22:07:07.49	69.89	19.18	-23.2	-23.7	17.3	0.00e+00	0	42	0	19822280704	22	16620
2026-01-25 22:07:08.50	70.25	19.24	-23.2	-23.7	17.3	0.00e+00	0	42	0	19931332608	22	16662
2026-01-25 22:07:09.51	70.60	19.29	-23.3	-23.8	17.2	0.00e+00	0	42	0	20048773120	22	16900
2026-01-25 22:07:10.52	70.96	19.34	-23.1	-23.6	17.3	0.00e+00	0	42	0	20166213632	22	16444
2026-01-25 22:07:11.53	71.32	19.39	-23.2	-23.6	17.3	0.00e+00	0	42	0	20275265536	22	16585
2026-01-25 22:07:12.54	71.68	19.44	-23.1	-23.6	17.1	0.00e+00	0	42	0	20392706048	22	16543
2026-01-25 22:07:13.55	72.04	19.49	-23.0	-23.5	17.0	0.00e+00	0	42	0	20501757952	22	16410
2026-01-25 22:07:14.56	72.40	19.54	-23.2	-23.7	17.0	0.00e+00	0	42	0	20619198464	22	16723
2026-01-25 22:07:15.57	72.76	19.59	-22.9	-23.4	17.2	0.00e+00	0	42	0	20736638976	22	16197
2026-01-25 22:07:16.58	73.13	19.63	-23.1	-23.6	17.3	0.00e+00	0	42	0	20845690880	22	16567
2026-01-25 22:07:17.59	73.49	19.68	-22.9	-23.4	17.3	0.00e+00	0	42	0	20954742784	22	16124
2026-01-25 22:07:18.60	73.86	19.72	-22.9	-23.4	17.3	0.00e+00	0	42	0	21072183296	22	16096
2026-01-25 22:07:19.61	74.23	19.77	-23.1	-23.6	17.3	0.00e+00	0	42	0	21189623808	22	16432
2026-01-25 22:07:20.62	74.60	19.81	-23.2	-23.6	17.3	0.00e+00	0	42	0	21298675712	22	16599
2026-01-25 22:07:21.62	74.97	19.85	-23.0	-23.5	17.3	0.00e+00	0	42	0	21416116224	22	16255
2026-01-25 22:07:22.63	75.34	19.89	-22.9	-23.4	17.3	0.00e+00	0	42	0	21525168128	22	16097
2026-01-25 22:07:23.64	75.71	19.93	-23.0	-23.5	17.3	0.00e+00	0	42	0	21634220032	22	16291
2026-01-25 22:07:24.65	76.09	19.97	-23.0	-23.4	17.2	0.00e+00	0	42	0	21751660544	22	16203
2026-01-25 22:07:25.66	76.46	20.01	-23.0	-23.4	17.3	0.00e+00	0	42	0	21869101056	22	16219
2026-01-25 22:07:26.67	76.84	20.04	-22.9	-23.4	17.2	0.00e+00	0	42	0	21978152960	22	16145
2026-01-25 22:07:27.68	77.21	20.08	-22.9	-23.4	17.2	0.00e+00	0	42	0	22095593472	22	16066
2026-01-25 22:07:28.69	77.59	20.11	-24.3	-24.8	17.2	0.00e+00	0	42	0	22204645376	22	18865
2026-01-25 22:07:29.70	77.97	20.15	-23.3	-23.7	17.2	0.00e+00	0	42	0	22322085888	22	16797
2026-01-25 22:07:30.71	78.35	20.18	-22.8	-23.3	17.2	0.00e+00	0	42	0	22439526400	22	15981
2026-01-25 22:07:31.72	78.73	20.21	-22.9	-23.4	17.2	0.00e+00	0	42	0	22548578304	22	16145
2026-01-25 22:07:32.73	79.11	20.24	-23.0	-23.5	17.0	0.00e+00	0	42	0	22666018816	22	16253
2026-01-25 22:07:33.73	79.49	20.27	-22.9	-23.4	17.0	0.00e+00	0	42	0	22775070720	22	16189
2026-01-25 22:07:34.74	79.88	20.30	-22.9	-23.4	17.1	0.00e+00	0	42	0	22884122624	22	16060
2026-01-25 22:07:35.75	80.26	20.32	-22.9	-23.4	17.2	0.00e+00	0	42	0	23001563136	22	16160
2026-01-25 22:07:36.76	80.64	20.35	-22.8	-23.3	17.3	0.00e+00	0	42	0	23119003648	22	15911
2026-01-25 22:07:37.77	81.03	20.37	-22.9	-23.4	17.2	0.00e+00	0	42	0	23228055552	22	16084
2026-01-25 22:07:38.78	81.42	20.40	-22.7	-23.2	17.2	0.00e+00	0	42	0	23345496064	20	17734
2026-01-25 22:07:39.79	81.80	20.42	-22.8	-23.2	17.1	0.00e+00	0	42	0	23454547968	20	17756
2026-01-25 22:07:40.80	82.19	20.44	-22.6	-23.1	17.1	0.00e+00	0	42	0	23563599872	20	17478
2026-01-25 22:07:41.81	82.58	20.46	-22.7	-23.2	17.2	0.00e+00	0	42	0	23689428992	20	17676
2026-01-25 22:07:42.82	82.97	20.48	-50.2	-52.7	6.1	0.00e+00	0	42	104	23739760640	60	52726
2026-01-25 22:07:43.83	83.36	20.50	-50.0	-52.4	6.1	0.00e+00	0	42	104	23739760640	60	51322
2026-01-25 22:07:44.84	83.75	20.51	-50.2	-52.6	6.1	0.00e+00	0	42	104	23739760640	60	52409
2026-01-25 22:07:45.85	84.14	20.53	-49.8	-52.4	6.1	0.00e+00	0	42	104	23739760640	60	51078
2026-01-25 22:07:46.86	84.53	20.54	-50.2	-52.7	6.1	0.00e+00	0	42	104	23739760640	60	52722
2026-01-25 22:07:47.86	84.92	20.55	-49.1	-51.7	6.1	0.00e+00	0	42	104	23739760640	60	47150
2026-01-25 22:07:48.87	85.31	20.57	-50.2	-52.7	6.1	0.00e+00	0	42	104	23739760640	60	52818
2026-01-25 22:07:49.88	85.70	20.58	-48.2	-50.9	6.1	0.00e+00	0	42	104	23739760640	60	43001
2026-01-25 22:07:50.89	86.09	20.58	-48.6	-51.3	6.1	0.00e+00	0	42	104	23739760640	60	44976
2026-01-25 22:07:51.90	86.48	20.59	-49.0	-51.7	6.1	0.00e+00	0	42	104	23739760640	60	47050
2026-01-25 22:07:52.92	86.88	20.60	-49.1	-51.8	6.1	0.00e+00	0	42	104	23739760640	60	47566
2026-01-25 22:07:53.93	87.27	20.61	-50.0	-52.5	6.1	0.00e+00	0	42	104	23739760640	60	51674
2026-01-25 22:07:54.94	87.67	20.61	-48.5	-51.2	6.1	0.00e+00	0	42	104	23739760640	60	44579
2026-01-25 22:07:55.95	88.06	20.61	-49.6	-52.3	6.1	0.00e+00	0	42	104	23739760640	60	50315
2026-01-25 22:07:56.95	88.45	20.61	-49.4	-52.0	6.1	0.00e+00	0	42	104	23739760640	60	48980
2026-01-25 22:07:57.96	88.84	20.61	-50.1	-52.6	6.1	0.00e+00	0	42	104	23739760640	60	52237
2026-01-25 22:07:58.97	89.23	20.61	-50.0	-52.5	6.1	0.00e+00	0	42	104	23739760640	60	51842
2026-01-25 22:07:59.98	89.63	20.61	-50.0	-52.5	6.0	0.00e+00	0	42	104	23739760640	60	51483
2026-01-25 22:08:00.99	90.02	20.61	-49.5	-52.1	6.1	0.00e+00	0	42	104	23739760640	60	49246
2026-01-25 22:08:02.00	90.41	20.61	-49.7	-52.2	6.1	0.00e+00	0	42	104	23739760640	60	50025
2026-01-25 22:08:03.01	90.81	20.60	-49.9	-52.4	6.1	0.00e+00	0	42	104	23739760640	60	51145
2026-01-25 22:08:04.02	91.20	20.59	-50.1	-52.6	6.1	0.00e+00	0	42	104	23739760640	60	52440
2026-01-25 22:08:05.03	91.59	20.59	-50.1	-52.6	6.1	0.00e+00	0	42	104	23739760640	60	52128
2026-01-25 22:08:06.04	91.98	20.58	-50.3	-52.7	6.1	0.00e+00	0	42	104	23739760640	60	53121
2026-01-25 22:08:07.05	92.38	20.57	-50.2	-52.7	6.1	0.00e+00	0	42	104	23739760640	60	52779
2026-01-25 22:08:08.06	92.77	20.55	-50.1	-52.5	6.1	0.00e+00	0	42	104	23739760640	60	51773
2026-01-25 22:08:09.07	93.16	20.54	-50.3	-52.7	6.1	0.00e+00	0	42	104	23739760640	60	53061
2026-01-25 22:08:10.08	93.55	20.53	-50.1	-52.6	6.1	0.00e+00	0	42	104	23739760640	60	52085
2026-01-25 22:08:11.09	93.94	20.51	-50.1	-52.6	6.1	0.00e+00	0	42	104	23739760640	60	52178
2026-01-25 22:08:12.10	94.33	20.50	-50.1	-52.6	6.1	0.00e+00	0	42	104	23739760640	60	52179
2026-01-25 22:08:13.11	94.72	20.48	-50.1	-52.6	6.0	0.00e+00	0	42	104	23739760640	60	52200
2026-01-25 22:08:14.11	95.11	20.46	-49.9	-52.4	6.1	0.00e+00	0	42	104	23739760640	60	51233
2026-01-25 22:08:15.13	95.50	20.44	-50.2	-52.6	6.1	0.00e+00	0	42	104	23739760640	60	52282
2026-01-25 22:08:16.13	95.88	20.42	-50.0	-52.6	6.1	0.00e+00	0	42	104	23739760640	60	52226
2026-01-25 22:08:17.14	96.27	20.40	-50.2	-52.7	6.1	0.00e+00	0	42	104	23739760640	60	52657
2026-01-25 22:08:18.15	96.66	20.37	-49.6	-52.2	6.1	0.00e+00	0	42	104	23739760640	60	50022
2026-01-25 22:08:19.16	97.04	20.35	-50.2	-52.7	6.1	0.00e+00	0	41	104	23739760640	60	52934
2026-01-25 22:08:20.17	97.43	20.32	-49.8	-52.3	6.1	0.00e+00	0	42	104	23739760640	60	50435
2026-01-25 22:08:21.18	97.81	20.30	-50.1	-52.6	6.1	0.00e+00	0	42	104	23739760640	60	52359
2026-01-25 22:08:22.19	98.20	20.27	-50.1	-52.6	6.1	0.00e+00	0	42	104	23739760640	60	52168
2026-01-25 22:08:23.20	98.58	20.24	-50.2	-52.6	6.1	0.00e+00	0	41	104	23739760640	60	52508
2026-01-25 22:08:24.21	98.96	20.21	-50.1	-52.5	6.1	0.00e+00	0	42	104	23739760640	60	51881
2026-01-25 22:08:25.22	99.34	20.18	-50.1	-52.6	6.1	0.00e+00	0	42	104	23739760640	60	52150
2026-01-25 22:08:26.23	99.73	20.15	-49.7	-52.3	6.1	0.00e+00	0	42	104	23739760640	60	50316
2026-01-25 22:08:27.24	100.11	20.11	-49.9	-52.4	6.1	0.00e+00	0	42	104	23739760640	60	50934
2026-01-25 22:08:28.25	100.48	20.08	-50.1	-52.6	6.1	0.00e+00	0	42	104	23739760640	60	52439
2026-01-25 22:08:29.26	100.86	20.04	-50.2	-52.6	6.1	0.00e+00	0	42	104	23739760640	60	52478
2026-01-25 22:08:30.27	101.24	20.01	-50.2	-52.7	6.1	0.00e+00	0	42	104	23739760640	60	52750
2026-01-25 22:08:31.28	101.62	19.97	-50.2	-52.7	6.1	0.00e+00	0	42	104	23739760640	60	53084
2026-01-25 22:08:32.29	101.99	19.93	-50.1	-52.6	6.1	0.00e+00	0	42	104	23739760640	60	52284
2026-01-25 22:08:33.30	102.36	19.89	-50.2	-52.6	6.1	0.00e+00	0	41	104	23739760640	60	52249
2026-01-25 22:08:34.31	102.74	19.85	-50.2	-52.6	6.1	0.00e+00	0	41	104	23739760640	60	52278
2026-01-25 22:08:35.32	103.11	19.81	-50.2	-52.7	6.1	0.00e+00	0	41	104	23739760640	60	52903
2026-01-25 22:08:36.33	103.48	19.76	-50.2	-52.7	6.1	0.00e+00	0	41	104	23739760640	60	52937
2026-01-25 22:08:37.34	103.85	19.72	-50.2	-52.7	6.1	0.00e+00	0	42	104	23739760640	60	52769
2026-01-25 22:08:38.34	104.21	19.68	-50.2	-52.7	6.1	0.00e+00	0	41	104	23739760640	60	52834
2026-01-25 22:08:39.35	104.58	19.63	-50.2	-52.6	6.1	0.00e+00	0	42	104	23739760640	60	52369
2026-01-25 22:08:40.36	104.95	19.58	-50.3	-52.8	6.0	0.00e+00	0	41	104	23739760640	60	53296
2026-01-25 22:08:41.37	105.31	19.54	-50.2	-52.7	6.1	0.00e+00	0	41	104	23739760640	60	53070
2026-01-25 22:08:42.38	105.67	19.49	-50.3	-52.8	6.1	0.00e+00	0	41	104	23739760640	60	53179
2026-01-25 22:08:43.39	106.04	19.44	-50.2	-52.7	6.1	0.00e+00	0	41	104	23739760640	60	52560
2026-01-25 22:08:44.40	106.40	19.39	-50.2	-52.6	6.1	0.00e+00	0	41	104	23739760640	60	52461
2026-01-25 22:08:45.41	106.76	19.34	-50.1	-52.6	6.1	0.00e+00	0	41	104	23739760640	60	52535
2026-01-25 22:08:46.43	107.12	19.29	-50.1	-52.6	6.1	0.00e+00	0	41	104	23739760640	60	52547
2026-01-25 22:08:47.43	107.47	19.23	-50.0	-52.5	6.1	0.00e+00	0	41	104	23739760640	60	51814
2026-01-25 22:08:48.44	107.83	19.18	-50.2	-52.6	6.1	0.00e+00	0	41	104	23739760640	60	52506
2026-01-25 22:08:49.45	108.18	19.13	-50.1	-52.6	6.1	0.00e+00	0	41	104	23739760640	60	52111
2026-01-25 22:08:50.46	108.53	19.07	-50.2	-52.6	6.1	0.00e+00	0	41	104	23739760640	60	52478
2026-01-25 22:08:51.47	108.88	19.01	-50.1	-52.6	6.1	0.00e+00	0	41	104	23739760640	60	52365
2026-01-25 22:08:52.48	109.23	18.96	-50.0	-52.5	6.1	0.00e+00	0	41	104	23739760640	60	51719
2026-01-25 22:08:53.49	109.58	18.90	-50.1	-52.5	6.1	0.00e+00	0	41	104	23739760640	60	51901
2026-01-25 22:08:54.50	109.93	18.84	-50.1	-52.6	6.1	0.00e+00	0	41	104	23739760640	60	52136
2026-01-25 22:08:55.51	110.27	18.78	-50.1	-52.6	6.1	0.00e+00	0	41	104	23739760640	60	52279
2026-01-25 22:08:56.52	110.62	18.72	-50.0	-52.5	6.1	0.00e+00	0	41	104	23739760640	60	51830
2026-01-25 22:08:57.53	110.96	18.66	-50.0	-52.4	6.1	0.00e+00	0	41	104	23739760640	60	51329
2026-01-25 22:08:58.54	111.30	18.60	-50.1	-52.6	6.1	0.00e+00	0	41	104	23739760640	60	51970
2026-01-25 22:08:59.55	111.64	18.54	-50.1	-52.6	6.1	0.00e+00	0	41	104	23739760640	60	52061
2026-01-25 22:09:00.56	111.97	18.48	-50.1	-52.6	6.1	0.00e+00	0	41	104	23739760640	60	52238
2026-01-25 22:09:01.57	112.31	18.41	-50.2	-52.6	6.1	0.00e+00	0	41	104	23739760640	60	52368
2026-01-25 22:09:02.58	112.65	18.35	-50.1	-52.6	6.1	0.00e+00	0	41	104	23739760640	60	52345
2026-01-25 22:09:03.59	112.98	18.28	-50.2	-52.6	6.1	0.00e+00	0	41	104	23739760640	60	52448
2026-01-25 22:09:04.60	113.31	18.22	-49.9	-52.4	6.1	0.00e+00	0	41	104	23739760640	60	51227
2026-01-25 22:09:05.61	113.64	18.15	-50.1	-52.6	6.1	0.00e+00	0	41	104	23739760640	60	52057
2026-01-25 22:09:06.62	113.97	18.09	-50.0	-52.5	6.1	0.00e+00	0	41	104	23739760640	60	51873
2026-01-25 22:09:07.63	114.29	18.02	-50.1	-52.6	6.1	0.00e+00	0	41	104	23739760640	60	52363
2026-01-25 22:09:08.64	114.62	17.95	-50.1	-52.6	6.1	0.00e+00	0	41	104	23739760640	60	52370
2026-01-25 22:09:09.65	114.94	17.88	-49.9	-52.4	6.1	0.00e+00	0	41	104	23739760640	60	51242
2026-01-25 22:09:10.66	115.26	17.81	-50.0	-52.5	6.1	0.00e+00	0	41	104	23739760640	60	51685
2026-01-25 22:09:11.67	115.58	17.75	-50.1	-52.6	6.1	0.00e+00	0	41	104	23739760640	60	52062
2026-01-25 22:09:12.68	115.90	17.68	-50.1	-52.6	6.1	0.00e+00	0	41	104	23739760640	60	52246
2026-01-25 22:09:13.68	116.21	17.61	-50.1	-52.6	6.1	0.00e+00	0	41	104	23739760640	60	52015
2026-01-25 22:09:14.69	116.53	17.54	-50.0	-52.5	6.1	0.00e+00	0	41	104	23739760640	60	51736
2026-01-25 22:09:15.70	116.84	17.46	-50.0	-52.5	6.1	0.00e+00	0	41	104	23739760640	60	51801
2026-01-25 22:09:16.71	117.15	17.39	-49.9	-52.4	6.1	0.00e+00	0	41	104	23739760640	60	51047
2026-01-25 22:09:17.72	117.46	17.32	-50.1	-52.5	6.1	0.00e+00	0	41	104	23739760640	60	51917
2026-01-25 22:09:18.73	117.77	17.25	-50.2	-52.6	6.1	0.00e+00	0	41	104	23739760640	60	52471
2026-01-25 22:09:19.74	118.08	17.17	-50.1	-52.6	6.1	0.00e+00	0	41	104	23739760640	60	52043
2026-01-25 22:09:20.75	118.38	17.10	-50.1	-52.6	6.1	0.00e+00	0	41	104	23739760640	60	52137
2026-01-25 22:09:21.76	118.68	17.03	-49.9	-52.5	6.1	0.00e+00	0	41	104	23739760640	60	51451
2026-01-25 22:09:22.78	118.99	16.95	-50.0	-52.5	6.1	0.00e+00	0	41	104	23739760640	60	51658
2026-01-25 22:09:23.78	119.28	16.88	-49.6	-52.2	6.1	0.00e+00	0	41	104	23739760640	60	49717
2026-01-25 22:09:24.79	119.58	16.80	-49.9	-52.4	6.1	0.00e+00	0	41	104	23739760640	60	50903
2026-01-25 22:09:25.80	119.88	16.73	-49.9	-52.5	6.1	0.00e+00	0	41	104	23739760640	60	51508
2026-01-25 22:09:26.81	120.17	16.65	-50.1	-52.6	6.1	0.00e+00	0	41	104	23739760640	60	52033
2026-01-25 22:09:27.82	120.46	16.58	-50.0	-52.5	6.1	0.00e+00	0	41	104	23739760640	60	51705
2026-01-25 22:09:28.83	120.76	16.50	-49.9	-52.4	6.1	0.00e+00	0	41	104	23739760640	60	51124
2026-01-25 22:09:29.84	121.05	16.42	-49.9	-52.5	6.1	0.00e+00	0	41	104	23739760640	60	51371
2026-01-25 22:09:30.85	121.33	16.35	-49.9	-52.4	6.1	0.00e+00	0	41	104	23739760640	60	51092
2026-01-25 22:09:31.86	121.62	16.27	-50.0	-52.5	6.1	0.00e+00	0	41	104	23739760640	60	51940
2026-01-25 22:09:32.87	121.90	16.19	-50.0	-52.5	6.1	0.00e+00	0	41	104	23739760640	60	51628
2026-01-25 22:09:33.88	122.19	16.11	-50.0	-52.5	6.1	0.00e+00	0	41	104	23739760640	60	51785
2026-01-25 22:09:34.89	122.47	16.04	-50.0	-52.5	6.1	0.00e+00	0	41	104	23739760640	60	51742
2026-01-25 22:09:35.90	122.75	15.96	-50.0	-52.5	6.1	0.00e+00	0	41	104	23739760640	60	51890
2026-01-25 22:09:36.90	123.02	15.88	-50.0	-52.5	6.1	0.00e+00	0	41	104	23739760640	60	51568
2026-01-25 22:09:37.91	123.30	15.80	-50.0	-52.5	6.1	0.00e+00	0	41	104	23739760640	60	51706
2026-01-25 22:09:38.92	123.57	15.72	-50.0	-52.5	6.1	0.00e+00	0	41	104	23739760640	60	51586
2026-01-25 22:09:39.93	123.85	15.64	-50.1	-52.5	6.1	0.00e+00	0	41	104	23739760640	60	51858
2026-01-25 22:09:40.94	124.12	15.56	-50.0	-52.5	6.1	0.00e+00	0	41	104	23739760640	60	51387
2026-01-25 22:09:41.95	124.39	15.48	-50.0	-52.5	6.1	0.00e+00	0	41	104	23739760640	60	51557
2026-01-25 22:09:42.95	124.65	15.40	-50.0	-52.4	6.1	0.00e+00	0	41	104	23739760640	60	51211
2026-01-25 22:09:43.96	124.92	15.32	-50.0	-52.4	6.1	0.00e+00	0	41	104	23739760640	60	51078
2026-01-25 22:09:44.97	125.18	15.24	-50.0	-52.5	6.1	0.00e+00	0	41	104	23739760640	60	51561
2026-01-25 22:09:45.98	125.44	15.16	-49.9	-52.4	6.1	0.00e+00	0	41	104	23739760640	60	51123
2026-01-25 22:09:46.99	125.71	15.08	-49.9	-52.4	6.1	0.00e+00	0	41	104	23739760640	60	51234
2026-01-25 22:09:48.00	125.97	15.00	-50.0	-52.5	6.1	0.00e+00	0	41	104	23739760640	60	51629
2026-01-25 22:09:49.01	126.22	14.92	-50.0	-52.5	6.1	0.00e+00	0	41	104	23739760640	60	51403
2026-01-25 22:09:50.02	126.48	14.84	-50.0	-52.4	6.1	0.00e+00	0	41	104	23739760640	60	51325
2026-01-25 22:09:51.03	126.73	14.76	-50.1	-52.5	6.1	0.00e+00	0	41	104	23739760640	60	51741
2026-01-25 22:09:52.04	126.99	14.68	-50.1	-52.5	6.1	0.00e+00	0	41	104	23739760640	60	51721
2026-01-25 22:09:53.05	127.24	14.60	-50.0	-52.5	6.1	0.00e+00	0	41	104	23739760640	60	51699
2026-01-25 22:09:54.05	127.49	14.51	-49.9	-52.4	6.1	0.00e+00	0	41	104	23739760640	60	50993
2026-01-25 22:09:55.07	127.74	14.43	-50.0	-52.4	6.1	0.00e+00	0	41	104	23739760640	60	51225
2026-01-25 22:09:56.07	127.98	14.35	-50.0	-52.4	6.1	0.00e+00	0	41	104	23739760640	60	51242
2026-01-25 22:09:57.08	128.23	14.27	-50.0	-52.5	6.1	0.00e+00	0	41	104	23739760640	60	51444
2026-01-25 22:09:58.09	128.47	14.19	-50.0	-52.5	6.1	0.00e+00	0	41	104	23739760640	60	51403
2026-01-25 22:09:59.10	128.71	14.11	-50.0	-52.5	6.1	0.00e+00	0	41	104	23739760640	60	51687
2026-01-25 22:10:00.11	128.95	14.02	-50.0	-52.5	6.1	0.00e+00	0	41	104	23739760640	60	51446
2026-01-25 22:10:01.12	129.19	13.94	-50.0	-52.5	6.1	0.00e+00	0	41	104	23739760640	60	51613
2026-01-25 22:10:02.13	129.43	13.86	-50.0	-52.4	6.1	0.00e+00	0	41	104	23739760640	60	51304
2026-01-25 22:10:03.14	129.67	13.78	-50.0	-52.5	6.1	0.00e+00	0	41	104	23739760640	60	51525
2026-01-25 22:10:04.15	129.90	13.70	-49.9	-52.5	6.1	0.00e+00	0	41	104	23739760640	60	51673
2026-01-25 22:10:05.15	130.13	13.62	-50.0	-52.5	6.1	0.00e+00	0	41	104	23739760640	60	51439
2026-01-25 22:10:06.16	130.36	13.53	-49.8	-52.3	6.1	0.00e+00	0	41	104	23739760640	60	50515
2026-01-25 22:10:07.17	130.59	13.45	-49.9	-52.4	6.1	0.00e+00	0	41	104	23739760640	60	51124
2026-01-25 22:10:08.18	130.82	13.37	-50.0	-52.5	6.1	0.00e+00	0	41	104	23739760640	60	51472
2026-01-25 22:10:09.19	131.05	13.29	-49.9	-52.4	6.1	0.00e+00	0	41	104	23739760640	60	51192
2026-01-25 22:10:10.20	131.28	13.20	-49.9	-52.4	6.1	0.00e+00	0	41	104	23739760640	60	51054
2026-01-25 22:10:11.21	131.50	13.12	-50.0	-52.4	6.1	0.00e+00	0	41	104	23739760640	60	51217
2026-01-25 22:10:12.22	131.72	13.04	-49.9	-52.4	6.1	0.00e+00	0	41	104	23739760640	60	50821
2026-01-25 22:10:13.23	131.94	12.96	-50.0	-52.4	6.1	0.00e+00	0	41	104	23739760640	60	51287
2026-01-25 22:10:14.24	132.16	12.88	-49.9	-52.4	6.1	0.00e+00	0	41	104	23739760640	60	51151
2026-01-25 22:10:15.24	132.38	12.80	-50.0	-52.5	6.1	0.00e+00	0	41	104	23739760640	60	51485
2026-01-25 22:10:16.25	132.60	12.71	-49.9	-52.3	6.1	0.00e+00	0	41	104	23739760640	60	50662
2026-01-25 22:10:17.26	132.81	12.63	-49.9	-52.4	6.1	0.00e+00	0	41	104	23739760640	60	50975
2026-01-25 22:10:18.27	133.03	12.55	-49.9	-52.3	6.1	0.00e+00	0	41	104	23739760640	60	50754
2026-01-25 22:10:19.28	133.24	12.47	-49.9	-52.4	6.1	0.00e+00	0	41	104	23739760640	60	51083
2026-01-25 22:10:20.29	133.45	12.39	-49.9	-52.4	6.1	0.00e+00	0	41	104	23739760640	60	51120
2026-01-25 22:10:21.30	133.66	12.30	-49.9	-52.4	6.1	0.00e+00	0	41	104	23739760640	60	51096
2026-01-25 22:10:22.31	133.87	12.22	-50.0	-52.4	6.1	0.00e+00	0	41	104	23739760640	60	51305
2026-01-25 22:10:23.32	134.08	12.14	-49.9	-52.4	6.1	0.00e+00	0	41	104	23739760640	60	51143
2026-01-25 22:10:24.33	134.28	12.06	-50.0	-52.5	6.1	0.00e+00	0	41	104	23739760640	60	51534
2026-01-25 22:10:25.34	134.49	11.98	-49.9	-52.4	6.1	0.00e+00	0	41	104	23739760640	60	50828
2026-01-25 22:10:26.35	134.69	11.90	-49.9	-52.4	6.1	0.00e+00	0	41	104	23739760640	60	50880
2026-01-25 22:10:27.35	134.89	11.82	-49.8	-52.3	6.1	0.00e+00	0	41	104	23739760640	60	50562
2026-01-25 22:10:28.36	135.09	11.73	-49.9	-52.4	6.1	0.00e+00	0	41	104	23739760640	60	50954
2026-01-25 22:10:29.37	135.29	11.65	-49.9	-52.3	6.1	0.00e+00	0	41	104	23739760640	60	50748
2026-01-25 22:10:30.38	135.49	11.57	-49.8	-52.3	6.1	0.00e+00	0	41	104	23739760640	60	50527
2026-01-25 22:10:31.39	135.69	11.49	-49.9	-52.4	6.1	0.00e+00	0	41	104	23739760640	60	51217
2026-01-25 22:10:32.40	135.88	11.41	-49.7	-52.2	6.1	0.00e+00	0	41	104	23739760640	60	49975
2026-01-25 22:10:33.41	136.08	11.33	-49.7	-52.2	6.1	0.00e+00	0	41	104	23739760640	60	49718
2026-01-25 22:10:34.42	136.27	11.25	-49.7	-52.2	6.1	0.00e+00	0	41	104	23739760640	60	50161
2026-01-25 22:10:35.43	136.46	11.17	-49.8	-52.3	6.1	0.00e+00	0	41	104	23739760640	60	50681
2026-01-25 22:10:36.44	136.65	11.09	-49.9	-52.3	6.1	0.00e+00	0	41	104	23739760640	60	50465
2026-01-25 22:10:37.45	136.84	11.01	-49.8	-52.3	6.1	0.00e+00	0	41	104	23739760640	60	50578
2026-01-25 22:10:38.46	137.03	10.93	-49.8	-52.3	6.1	0.00e+00	0	41	104	23739760640	60	50342
2026-01-25 22:10:39.47	137.22	10.85	-49.9	-52.4	6.1	0.00e+00	0	41	104	23739760640	60	51067
2026-01-25 22:10:40.48	137.40	10.77	-49.9	-52.4	6.1	0.00e+00	0	41	104	23739760640	60	50832
2026-01-25 22:10:41.48	137.59	10.69	-49.9	-52.4	6.1	0.00e+00	0	41	104	23739760640	60	50944
2026-01-25 22:10:42.49	137.77	10.61	-49.9	-52.4	6.1	0.00e+00	0	41	104	23739760640	60	51076
2026-01-25 22:10:43.50	137.95	10.53	-49.9	-52.3	6.1	0.00e+00	0	41	104	23739760640	60	50742
2026-01-25 22:10:44.51	138.13	10.45	-49.8	-52.3	6.1	0.00e+00	0	41	104	23739760640	60	50625
2026-01-25 22:10:45.52	138.31	10.37	-49.8	-52.3	6.1	0.00e+00	0	41	104	23739760640	60	50578
2026-01-25 22:10:46.53	138.49	10.29	-49.8	-52.3	6.1	0.00e+00	0	41	104	23739760640	60	50643
2026-01-25 22:10:47.54	138.67	10.21	-49.8	-52.3	6.1	0.00e+00	0	41	104	23739760640	60	50628
2026-01-25 22:10:48.55	138.85	10.13	-49.8	-52.3	6.1	0.00e+00	0	41	104	23739760640	60	50200
2026-01-25 22:10:49.56	139.02	10.05	-49.8	-52.3	6.1	0.00e+00	0	41	104	23739760640	60	50307
2026-01-25 22:10:50.57	139.20	9.97	-49.8	-52.3	6.1	0.00e+00	0	41	104	23739760640	60	50581
2026-01-25 22:10:51.58	139.37	9.89	-49.7	-52.2	6.1	0.00e+00	0	41	104	23739760640	60	49765
2026-01-25 22:10:52.59	139.54	9.81	-49.7	-52.1	6.1	0.00e+00	0	41	104	23739760640	60	49457
2026-01-25 22:10:53.60	139.71	9.74	-49.7	-52.1	6.1	0.00e+00	0	41	104	23739760640	60	49604
2026-01-25 22:10:54.61	139.88	9.66	-49.6	-52.1	6.1	0.00e+00	0	41	104	23739760640	60	49298
2026-01-25 22:10:55.62	140.05	9.58	-49.4	-51.9	6.1	0.00e+00	0	41	104	23739760640	60	48224
2026-01-25 22:10:56.63	140.22	9.50	-49.6	-52.1	6.0	0.00e+00	0	41	104	23739760640	60	49350
2026-01-25 22:10:57.64	140.39	9.42	-49.5	-52.0	6.1	0.00e+00	0	41	104	23739760640	60	48615
2026-01-25 22:10:58.65	140.55	9.34	-49.3	-51.8	6.1	0.00e+00	0	41	104	23739760640	60	47722
2026-01-25 22:10:59.66	140.72	9.27	-49.2	-51.7	6.1	0.00e+00	0	41	104	23739760640	60	47018
2026-01-25 22:11:00.66	140.88	9.19	-49.3	-51.8	6.1	0.00e+00	0	41	104	23739760640	60	47492
2026-01-25 22:11:01.67	141.04	9.11	-49.1	-51.6	6.1	0.00e+00	0	41	104	23739760640	60	46302
2026-01-25 22:11:02.68	141.20	9.04	-49.1	-51.5	6.1	0.00e+00	0	41	104	23739760640	60	46236
2026-01-25 22:11:03.69	141.36	8.96	-49.1	-51.6	6.1	0.00e+00	0	41	104	23739760640	60	46393
2026-01-25 22:11:04.70	141.52	8.88	-48.8	-51.4	6.1	0.00e+00	0	41	104	23739760640	60	45316
2026-01-25 22:11:05.71	141.68	8.80	-49.0	-51.5	6.1	0.00e+00	0	41	104	23739760640	60	45983
2026-01-25 22:11:06.72	141.84	8.73	-49.1	-51.6	6.1	0.00e+00	0	41	104	23739760640	60	46470
2026-01-25 22:11:07.73	141.99	8.65	-49.3	-51.8	6.1	0.00e+00	0	41	104	23739760640	60	47558
2026-01-25 22:11:08.74	142.15	8.58	-49.1	-51.6	6.1	0.00e+00	0	41	104	23739760640	60	46640
2026-01-25 22:11:09.75	142.30	8.50	-49.1	-51.6	6.1	0.00e+00	0	41	104	23739760640	60	46722
2026-01-25 22:11:10.76	142.46	8.42	-49.3	-51.8	6.1	0.00e+00	0	41	104	23739760640	60	47460
2026-01-25 22:11:11.77	142.61	8.35	-49.3	-51.8	6.1	0.00e+00	0	41	104	23739760640	60	47922
2026-01-25 22:11:12.78	142.76	8.27	-49.2	-51.6	6.1	0.00e+00	0	41	104	23739760640	60	46783
2026-01-25 22:11:13.79	142.91	8.20	-49.0	-51.5	6.1	0.00e+00	0	41	104	23739760640	60	46162
2026-01-25 22:11:14.80	143.06	8.12	-49.3	-51.7	6.1	0.00e+00	0	41	104	23739760640	60	47295
2026-01-25 22:11:15.81	143.21	8.05	-49.2	-51.7	6.1	0.00e+00	0	41	104	23739760640	60	47208
2026-01-25 22:11:16.82	143.36	7.97	-49.2	-51.7	6.1	0.00e+00	0	41	104	23739760640	60	47081
2026-01-25 22:11:17.83	143.50	7.90	-49.1	-51.7	6.1	0.00e+00	0	41	104	23739760640	60	46911
2026-01-25 22:11:18.84	143.65	7.82	-49.3	-51.8	6.1	0.00e+00	0	41	104	23739760640	60	47522
2026-01-25 22:11:19.85	143.80	7.75	-49.4	-51.9	6.1	0.00e+00	0	41	104	23739760640	60	48135
2026-01-25 22:11:20.86	143.94	7.67	-49.2	-51.7	6.1	0.00e+00	0	41	104	23739760640	60	47020
2026-01-25 22:11:21.87	144.08	7.60	-49.3	-51.7	6.1	0.00e+00	0	41	104	23739760640	60	47328
2026-01-25 22:11:22.88	144.23	7.52	-49.4	-51.9	6.1	0.00e+00	0	41	104	23739760640	60	48236
2026-01-25 22:11:23.88	144.37	7.45	-49.3	-51.8	6.1	0.00e+00	0	41	104	23739760640	60	47622
2026-01-25 22:11:24.89	144.51	7.38	-49.4	-51.8	6.1	0.00e+00	0	41	104	23739760640	60	47897
2026-01-25 22:11:25.90	144.65	7.30	-49.1	-51.6	6.1	0.00e+00	0	41	104	23739760640	60	46645
2026-01-25 22:11:26.91	144.79	7.23	-49.4	-51.9	6.1	0.00e+00	0	41	104	23739760640	60	48045
2026-01-25 22:11:27.92	144.92	7.16	-49.3	-51.7	6.1	0.00e+00	0	41	104	23739760640	60	47360
2026-01-25 22:11:28.93	145.06	7.08	-49.3	-51.8	6.1	0.00e+00	0	41	104	23739760640	60	47901
2026-01-25 22:11:29.94	145.20	7.01	-49.2	-51.6	6.1	0.00e+00	0	41	104	23739760640	60	46825
2026-01-25 22:11:30.95	145.33	6.94	-49.4	-51.9	6.1	0.00e+00	0	41	104	23739760640	60	48146
2026-01-25 22:11:31.95	145.47	6.86	-49.4	-51.9	6.1	0.00e+00	0	41	104	23739760640	60	47981
2026-01-25 22:11:32.96	145.60	6.79	-49.3	-51.8	6.1	0.00e+00	0	41	104	23739760640	60	47693
2026-01-25 22:11:33.97	145.74	6.72	-49.3	-51.7	6.1	0.00e+00	0	41	104	23739760640	60	47369
2026-01-25 22:11:34.99	145.87	6.65	-49.6	-52.0	6.0	0.00e+00	0	41	104	23739760640	60	48991
2026-01-25 22:11:35.99	146.00	6.57	-49.4	-51.9	6.1	0.00e+00	0	41	104	23739760640	60	47973
2026-01-25 22:11:37.00	146.13	6.50	-49.5	-51.9	6.1	0.00e+00	0	41	104	23739760640	60	48432
2026-01-25 22:11:38.01	146.26	6.43	-49.3	-51.9	6.1	0.00e+00	0	41	104	23739760640	60	48106
2026-01-25 22:11:39.02	146.39	6.36	-49.6	-52.1	6.1	0.00e+00	0	41	104	23739760640	60	49258
2026-01-25 22:11:40.03	146.52	6.29	-49.4	-51.9	6.1	0.00e+00	0	41	104	23739760640	60	48288
2026-01-25 22:11:41.04	146.65	6.22	-49.3	-51.8	6.1	0.00e+00	0	41	104	23739760640	60	47893
2026-01-25 22:11:42.05	146.77	6.15	-49.1	-51.6	6.1	0.00e+00	0	41	104	23739760640	60	46665
2026-01-25 22:11:43.06	146.90	6.07	-49.5	-51.9	6.1	0.00e+00	0	41	104	23739760640	60	48461
2026-01-25 22:11:44.07	147.03	6.00	-49.3	-51.8	6.1	0.00e+00	0	41	104	23739760640	60	47463
2026-01-25 22:11:45.08	147.15	5.93	-49.4	-51.9	6.1	0.00e+00	0	41	104	23739760640	60	47984
2026-01-25 22:11:46.09	147.28	5.86	-49.1	-51.6	6.1	0.00e+00	0	41	104	23739760640	60	46613
2026-01-25 22:11:47.10	147.40	5.79	-49.4	-51.9	6.1	0.00e+00	0	41	104	23739760640	60	48336
2026-01-25 22:11:48.10	147.52	5.72	-49.4	-51.9	6.1	0.00e+00	0	41	104	23739760640	60	48183
2026-01-25 22:11:49.11	147.64	5.65	-49.4	-51.9	6.1	0.00e+00	0	41	104	23739760640	60	48413
2026-01-25 22:11:50.12	147.76	5.58	-49.2	-51.7	6.1	0.00e+00	0	41	104	23739760640	60	47217
2026-01-25 22:11:51.13	147.89	5.51	-49.3	-51.8	6.1	0.00e+00	0	41	104	23739760640	60	47764
2026-01-25 22:11:52.14	148.01	5.44	-49.3	-51.8	6.1	0.00e+00	0	41	104	23739760640	60	47455
2026-01-25 22:11:53.15	148.12	5.37	-49.3	-51.8	6.1	0.00e+00	0	41	104	23739760640	60	47603
2026-01-25 22:11:54.16	148.24	5.31	-49.2	-51.7	6.1	0.00e+00	0	41	104	23739760640	60	47187
2026-01-25 22:11:55.17	148.36	5.24	-49.3	-51.7	6.1	0.00e+00	0	41	104	23739760640	60	47291
2026-01-25 22:11:56.18	148.48	5.17	-49.0	-51.5	6.1	0.00e+00	0	41	104	23739760640	60	45923
2026-01-25 22:11:57.19	148.60	5.10	-49.2	-51.7	6.1	0.00e+00	0	41	104	23739760640	60	47019
2026-01-25 22:11:58.20	148.71	5.03	-48.9	-51.4	6.1	0.00e+00	0	41	104	23739760640	60	45305
2026-01-25 22:11:59.21	148.83	4.96	-49.3	-51.8	6.1	0.00e+00	0	41	104	23739760640	60	47596
2026-01-25 22:12:00.22	148.94	4.89	-49.0	-51.5	6.1	0.00e+00	0	41	104	23739760640	60	46118
2026-01-25 22:12:01.22	149.05	4.83	-49.1	-51.6	6.1	0.00e+00	0	41	104	23739760640	60	46735
2026-01-25 22:12:02.23	149.17	4.76	-49.0	-51.5	6.1	0.00e+00	0	41	104	23739760640	60	46116
2026-01-25 22:12:03.24	149.28	4.69	-49.4	-51.8	6.1	0.00e+00	0	41	104	23739760640	60	47819
2026-01-25 22:12:04.25	149.39	4.62	-49.0	-51.5	6.1	0.00e+00	0	41	104	23739760640	60	45961
2026-01-25 22:12:05.26	149.50	4.55	-48.9	-51.4	6.1	0.00e+00	0	41	104	23739760640	60	45264
2026-01-25 22:12:06.27	149.61	4.49	-48.5	-51.0	6.1	0.00e+00	0	41	104	23739760640	60	43325
2026-01-25 22:12:07.28	149.72	4.42	-49.3	-51.7	6.1	0.00e+00	0	41	104	23739760640	60	47230
2026-01-25 22:12:08.29	149.83	4.35	-47.2	-49.7	6.1	0.00e+00	0	41	104	23739760640	60	37552
2026-01-25 22:12:09.30	149.94	4.29	-48.1	-50.6	6.1	0.00e+00	0	41	104	23739760640	60	41428
2026-01-25 22:12:10.31	150.05	4.22	-47.3	-49.8	6.1	0.00e+00	0	41	104	23739760640	60	37795
2026-01-25 22:12:11.32	150.16	4.15	-45.8	-48.3	6.1	0.00e+00	0	41	104	23739760640	60	31697
2026-01-25 22:12:12.33	150.27	4.09	-45.6	-48.1	6.1	0.00e+00	0	41	104	23739760640	60	31039
2026-01-25 22:12:13.34	150.37	4.02	-48.4	-50.8	6.1	0.00e+00	0	41	104	23739760640	60	42577
2026-01-25 22:12:14.35	150.48	3.95	-48.4	-51.0	6.1	0.00e+00	0	41	104	23739760640	60	43265
2026-01-25 22:12:15.35	150.58	3.89	-49.1	-51.6	6.1	0.00e+00	0	41	104	23739760640	60	46653
2026-01-25 22:12:16.37	150.69	3.82	-48.5	-51.0	6.1	0.00e+00	0	41	104	23739760640	60	43339
2026-01-25 22:12:17.38	150.79	3.76	-48.6	-51.1	6.1	0.00e+00	0	41	104	23739760640	60	44135
2026-01-25 22:12:18.38	150.90	3.69	-48.4	-50.9	6.1	0.00e+00	0	41	104	23739760640	60	43005
2026-01-25 22:12:19.40	151.00	3.62	-48.4	-50.9	6.1	0.00e+00	0	41	104	23739760640	60	43078
2026-01-25 22:12:20.41	151.10	3.56	-48.4	-50.9	6.1	0.00e+00	0	41	104	23739760640	60	42892
2026-01-25 22:12:21.42	151.20	3.49	-48.4	-50.9	6.1	0.00e+00	0	41	104	23739760640	60	42746
2026-01-25 22:12:22.42	151.31	3.43	-48.7	-51.3	6.1	0.00e+00	0	41	104	23739760640	60	44781
2026-01-25 22:12:23.43	151.41	3.36	-49.0	-51.5	6.1	0.00e+00	0	41	104	23739760640	60	45783
2026-01-25 22:12:24.44	151.51	3.30	-48.6	-51.0	6.1	0.00e+00	0	41	104	23739760640	60	43589
2026-01-25 22:12:25.45	151.61	3.23	-48.6	-51.1	6.1	0.00e+00	0	41	104	23739760640	60	43978
2026-01-25 22:12:26.46	151.71	3.17	-48.5	-51.0	6.1	0.00e+00	0	41	104	23739760640	60	43476
2026-01-25 22:12:27.47	151.80	3.11	-48.6	-51.1	6.1	0.00e+00	0	41	104	23739760640	60	44069
2026-01-25 22:12:28.48	151.90	3.04	-48.6	-51.1	6.1	0.00e+00	0	41	104	23739760640	60	43969
2026-01-25 22:12:29.49	152.00	2.98	-48.4	-50.9	6.1	0.00e+00	0	41	104	23739760640	60	42998
2026-01-25 22:12:30.50	152.10	2.91	-49.0	-51.5	6.1	0.00e+00	0	41	104	23739760640	60	46216
2026-01-25 22:12:31.51	152.19	2.85	-49.3	-51.8	6.1	0.00e+00	0	41	104	23739760640	60	47555
2026-01-25 22:12:32.52	152.29	2.79	-49.3	-51.8	6.0	0.00e+00	0	41	104	23739760640	60	47787
2026-01-25 22:12:33.53	152.39	2.72	-49.6	-52.2	6.1	0.00e+00	0	41	104	23739760640	60	49672
2026-01-25 22:12:34.54	152.48	2.66	-50.2	-52.6	6.1	0.00e+00	0	41	104	23739760640	60	52071
2026-01-25 22:12:35.55	152.58	2.60	-50.1	-52.6	6.1	0.00e+00	0	41	104	23739760640	60	52032
2026-01-25 22:12:36.56	152.67	2.53	-50.1	-52.5	6.1	0.00e+00	0	41	104	23739760640	60	51869
2026-01-25 22:12:37.57	152.76	2.47	-50.2	-52.7	6.1	0.00e+00	0	41	104	23739760640	60	52894
2026-01-25 22:12:38.58	152.86	2.41	-50.2	-52.7	6.1	0.00e+00	0	41	104	23739760640	60	52620
2026-01-25 22:12:39.59	152.95	2.34	-50.4	-52.8	6.1	0.00e+00	0	41	104	23739760640	60	53522
2026-01-25 22:12:40.60	153.04	2.28	-50.2	-52.6	6.1	0.00e+00	0	41	104	23739760640	60	52509
2026-01-25 22:12:41.61	153.13	2.22	-50.4	-52.9	6.1	0.00e+00	0	41	104	23739760640	60	53978
2026-01-25 22:12:42.62	153.23	2.16	-50.5	-53.0	6.1	0.00e+00	0	41	104	23739760640	60	54782
2026-01-25 22:12:43.63	153.32	2.09	-50.4	-52.9	6.1	0.00e+00	0	41	104	23739760640	60	54288
2026-01-25 22:12:44.64	153.41	2.03	-50.4	-52.9	6.1	0.00e+00	0	41	104	23739760640	60	53930
2026-01-25 22:12:45.65	153.50	1.97	-50.4	-52.9	6.1	0.00e+00	0	41	104	23739760640	60	54342
2026-01-25 22:12:46.66	153.59	1.91	-50.4	-52.9	6.1	0.00e+00	0	41	104	23739760640	60	54009
2026-01-25 22:12:47.67	153.68	1.85	-50.3	-52.8	6.1	0.00e+00	0	41	104	23739760640	60	53263
2026-01-25 22:12:48.68	153.76	1.79	-50.3	-52.8	6.1	0.00e+00	0	41	104	23739760640	60	53473
2026-01-25 22:12:49.69	153.85	1.72	-50.3	-52.8	6.1	0.00e+00	0	41	104	23739760640	60	53584
2026-01-25 22:12:50.70	153.94	1.66	-50.4	-52.8	6.1	0.00e+00	0	41	104	23739760640	60	53643
2026-01-25 22:12:51.71	154.03	1.60	-50.3	-52.8	6.1	0.00e+00	0	41	104	23739760640	60	53643
2026-01-25 22:12:52.72	154.11	1.54	-50.4	-52.9	6.1	0.00e+00	0	41	104	23739760640	60	54115
2026-01-25 22:12:53.73	154.20	1.48	-50.5	-53.0	6.1	0.00e+00	0	41	104	23739760640	60	54408
2026-01-25 22:12:54.74	154.29	1.42	-50.6	-53.0	6.1	0.00e+00	0	41	104	23739760640	60	54878
2026-01-25 22:12:55.75	154.37	1.36	-50.5	-53.0	6.1	0.00e+00	0	41	104	23739760640	60	54893
2026-01-25 22:12:56.76	154.46	1.30	-50.5	-52.9	6.1	0.00e+00	0	41	104	23739760640	60	54329
2026-01-25 22:12:57.77	154.54	1.24	-50.6	-53.1	6.1	0.00e+00	0	41	104	23739760640	60	55028
2026-01-25 22:12:58.78	154.63	1.18	-50.6	-53.1	6.1	0.00e+00	0	41	104	23739760640	60	55307
2026-01-25 22:12:59.79	154.71	1.12	-50.7	-53.1	6.1	0.00e+00	0	41	104	23739760640	60	55594
2026-01-25 22:13:00.80	154.79	1.06	-50.8	-53.2	6.1	0.00e+00	0	41	104	23739760640	60	55996
2026-01-25 22:13:01.81	154.88	1.00	-50.9	-53.3	6.1	0.00e+00	0	41	104	23739760640	60	56947
2026-01-25 22:13:02.82	154.96	0.94	-50.7	-53.2	6.0	0.00e+00	0	41	104	23739760640	60	55929
2026-01-25 22:13:03.83	155.04	0.88	-50.8	-53.3	6.1	0.00e+00	0	41	104	23739760640	60	56639
2026-01-25 22:13:04.84	155.12	0.82	-50.7	-53.2	6.1	0.00e+00	0	41	104	23739760640	60	56013
2026-01-25 22:13:05.85	155.20	0.76	-50.7	-53.2	6.1	0.00e+00	0	41	104	23739760640	60	55923
2026-01-25 22:13:06.86	155.28	0.70	-50.9	-53.3	6.1	0.00e+00	0	41	104	23739760640	60	56942
2026-01-25 22:13:07.87	155.36	0.64	-50.8	-53.3	6.1	0.00e+00	0	41	104	23739760640	60	56445
2026-01-25 22:13:08.88	155.45	0.58	-50.8	-53.3	6.1	0.00e+00	0	41	104	23739760640	60	56595
2026-01-25 22:13:09.89	155.53	0.52	-51.1	-53.6	6.1	0.00e+00	0	41	104	23739760640	60	58390
2026-01-25 22:13:10.90	155.60	0.46	-50.9	-53.3	6.1	0.00e+00	0	41	104	23739760640	60	56809
2026-01-25 22:13:11.91	155.68	0.40	-50.7	-53.2	6.1	0.00e+00	0	41	104	23739760640	60	55989
2026-01-25 22:13:12.91	155.76	0.35	-51.0	-53.5	6.1	0.00e+00	0	41	104	23739760640	60	57635
2026-01-25 22:13:13.92	155.84	0.29	-50.8	-53.2	6.1	0.00e+00	0	41	104	23739760640	60	56108
2026-01-25 22:13:14.93	155.92	0.23	-50.7	-53.2	6.1	0.00e+00	0	41	104	23739760640	60	56192
2026-01-25 22:13:15.94	156.00	0.17	-50.9	-53.4	6.1	0.00e+00	0	41	104	23739760640	60	57496
2026-01-25 22:13:16.95	156.07	0.11	-50.8	-53.3	6.1	0.00e+00	0	41	104	23739760640	60	56640
2026-01-25 22:13:17.96	156.15	0.05	-50.7	-53.1	6.0	0.00e+00	0	41	104	23739760640	60	55507
2026-01-25 22:13:18.97	156.23	-0.00	-50.6	-53.1	6.1	0.00e+00	0	41	104	23739760640	60	55058

#Closed at: 2026-01-25 22:13:19
#Recorded file [23739 MB]: D:/lorett/data/35029_260126_100306.dat