passes_logs/2026/01/25/R4.6S_Anadyr/R4.6S_Anadyr__20260125_225107_2024-110A_rec.log

#Pass ID: 20260125_225107_2024-110A
#Satellite: 2024-110A
#Configuration: 01B_900M
#almurnet v.1.7.20251203
#Start time: 2026-01-25 22:51:12

#Version: 2.2.20231116
#Station: R4.6S_Anadyr
#Location: 177.4865 lon 64.73178 lat
#TLE: 1 60012U 24110A   26025.53726470  .00013446  00000+0  80489-3 0  9995
#TLE: 2 60012  97.5725 118.4384 0009502  33.6364 326.5468 15.11106268 90358

#Time	Az	El	Level	Level2	SNR	BER	BlckErr	Temp	State	Recorded	gain1	gain2
2026-01-25 22:51:12.73	23.34	0.28	-50.6	-52.2	5.6	0.00e+00	0	34	0	0	60	50044
2026-01-25 22:51:13.73	23.44	0.33	-51.1	-53.5	6.1	7.54e-01	0	35	104	0	60	58042
2026-01-25 22:51:14.74	23.53	0.39	-51.5	-53.9	6.1	7.54e-01	0	35	104	0	60	60637
2026-01-25 22:51:15.75	23.62	0.44	-50.8	-53.3	6.1	7.54e-01	0	35	104	0	60	56312
2026-01-25 22:51:16.76	23.72	0.49	-50.6	-53.0	6.1	7.54e-01	0	35	104	0	60	54847
2026-01-25 22:51:17.77	23.81	0.55	-50.7	-53.1	6.1	7.54e-01	0	35	104	0	60	55598
2026-01-25 22:51:18.78	23.91	0.60	-50.9	-53.3	6.1	7.54e-01	0	35	104	0	60	56952
2026-01-25 22:51:19.79	24.00	0.66	-50.2	-52.8	6.1	7.54e-01	0	35	104	0	60	53184
2026-01-25 22:51:20.81	24.10	0.71	-50.6	-53.0	6.1	7.53e-01	0	35	104	0	60	54803
2026-01-25 22:51:21.81	24.20	0.77	-50.7	-53.2	6.1	7.54e-01	0	35	104	0	60	55924
2026-01-25 22:51:22.82	24.29	0.82	-50.3	-52.9	6.1	7.54e-01	0	35	104	0	60	53785
2026-01-25 22:51:23.83	24.39	0.88	-50.7	-53.2	6.1	7.53e-01	0	36	104	0	60	55723
2026-01-25 22:51:24.84	24.49	0.93	-50.9	-53.3	6.1	7.55e-01	0	36	104	0	60	56702
2026-01-25 22:51:25.85	24.59	0.98	-50.2	-52.7	6.1	7.55e-01	0	36	104	0	60	52713
2026-01-25 22:51:26.86	24.68	1.04	-49.6	-52.2	6.1	7.54e-01	0	36	104	0	60	50085
2026-01-25 22:51:27.87	24.78	1.09	-50.0	-52.5	6.1	7.55e-01	0	36	104	0	60	51543
2026-01-25 22:51:28.88	24.88	1.15	-50.0	-52.5	6.1	7.55e-01	0	36	104	0	60	51928
2026-01-25 22:51:29.89	24.98	1.20	-49.9	-52.4	6.0	7.54e-01	0	36	104	0	60	50852
2026-01-25 22:51:30.90	25.08	1.26	-49.8	-52.2	6.1	7.54e-01	0	36	104	0	60	49880
2026-01-25 22:51:31.91	25.18	1.31	-49.6	-52.1	6.1	7.54e-01	0	36	104	0	60	49244
2026-01-25 22:51:32.92	25.28	1.37	-49.0	-51.6	6.1	7.54e-01	0	36	104	0	60	46581
2026-01-25 22:51:33.93	25.39	1.42	-49.0	-51.6	6.1	7.54e-01	0	36	104	0	60	46304
2026-01-25 22:51:34.94	25.49	1.48	-48.8	-51.2	6.1	7.54e-01	0	36	104	0	60	44601
2026-01-25 22:51:35.95	25.59	1.54	-48.8	-51.3	6.1	7.54e-01	0	36	104	0	60	45108
2026-01-25 22:51:36.96	25.69	1.59	-48.8	-51.3	6.1	7.55e-01	0	36	104	0	60	44944
2026-01-25 22:51:37.97	25.80	1.65	-48.8	-51.4	6.1	7.55e-01	0	36	104	0	60	45531
2026-01-25 22:51:38.98	25.90	1.70	-48.9	-51.4	6.1	7.53e-01	0	36	104	0	60	45603
2026-01-25 22:51:39.99	26.00	1.76	-48.8	-51.3	6.1	7.55e-01	0	36	104	0	60	45128
2026-01-25 22:51:41.00	26.11	1.81	-48.9	-51.3	6.1	7.54e-01	0	36	104	0	60	45023
2026-01-25 22:51:42.01	26.21	1.87	-48.9	-51.4	6.1	7.54e-01	0	36	104	0	60	45347
2026-01-25 22:51:43.02	26.32	1.93	-48.9	-51.4	6.1	7.55e-01	0	36	104	0	60	45253
2026-01-25 22:51:44.03	26.43	1.98	-48.8	-51.3	6.1	7.53e-01	0	36	104	0	60	44823
2026-01-25 22:51:45.04	26.53	2.04	-48.8	-51.2	6.1	7.53e-01	0	36	104	0	60	44442
2026-01-25 22:51:46.05	26.64	2.09	-48.8	-51.2	6.1	7.55e-01	0	36	104	0	60	44693
2026-01-25 22:51:47.06	26.75	2.15	-48.8	-51.2	6.1	7.55e-01	0	36	104	0	60	44677
2026-01-25 22:51:48.07	26.86	2.21	-48.8	-51.2	6.1	7.55e-01	0	36	104	0	60	44681
2026-01-25 22:51:49.08	26.97	2.26	-48.7	-51.2	6.1	7.55e-01	0	36	104	0	60	44471
2026-01-25 22:51:50.09	27.07	2.32	-48.7	-51.2	6.1	7.53e-01	0	36	104	0	60	44638
2026-01-25 22:51:51.10	27.18	2.38	-48.8	-51.2	6.1	7.55e-01	0	36	104	0	60	44636
2026-01-25 22:51:52.11	27.29	2.43	-48.8	-51.3	6.1	7.53e-01	0	36	104	0	60	45080
2026-01-25 22:51:53.12	27.40	2.49	-48.8	-51.2	6.1	7.55e-01	0	36	104	0	60	44524
2026-01-25 22:51:54.13	27.52	2.55	-48.7	-51.2	6.1	7.54e-01	0	36	104	0	60	44396
2026-01-25 22:51:55.14	27.63	2.60	-48.8	-51.2	6.1	7.54e-01	0	36	104	0	60	44579
2026-01-25 22:51:56.15	27.74	2.66	-48.8	-51.2	6.1	7.54e-01	0	36	104	0	60	44652
2026-01-25 22:51:57.16	27.85	2.72	-48.8	-51.2	6.1	7.53e-01	0	36	104	0	60	44478
2026-01-25 22:51:58.17	27.97	2.77	-48.8	-51.3	6.1	7.55e-01	0	36	104	0	60	44780
2026-01-25 22:51:59.18	28.08	2.83	-48.8	-51.3	6.1	7.54e-01	0	36	104	0	60	44816
2026-01-25 22:52:00.19	28.19	2.89	-48.7	-51.2	6.1	7.53e-01	0	36	104	0	60	44556
2026-01-25 22:52:01.20	28.31	2.94	-48.7	-51.2	6.1	7.54e-01	0	36	104	0	60	44620
2026-01-25 22:52:02.21	28.42	3.00	-48.7	-51.2	6.1	7.55e-01	0	36	104	0	60	44720
2026-01-25 22:52:03.22	28.54	3.06	-48.7	-51.2	6.1	7.54e-01	0	36	104	0	60	44501
2026-01-25 22:52:04.23	28.66	3.12	-48.6	-51.2	6.1	7.55e-01	0	36	104	0	60	44521
2026-01-25 22:52:05.24	28.77	3.17	-48.7	-51.2	6.1	7.54e-01	0	36	104	0	60	44382
2026-01-25 22:52:06.25	28.89	3.23	-48.7	-51.2	6.1	7.54e-01	0	36	104	0	60	44238
2026-01-25 22:52:07.26	29.01	3.29	-48.7	-51.2	6.1	7.54e-01	0	36	104	0	60	44655
2026-01-25 22:52:08.27	29.13	3.35	-48.7	-51.3	6.1	7.54e-01	0	36	104	0	60	45030
2026-01-25 22:52:09.28	29.25	3.41	-48.7	-51.2	6.1	7.54e-01	0	36	104	0	60	44592
2026-01-25 22:52:10.28	29.36	3.46	-48.9	-51.4	6.1	7.53e-01	0	36	104	0	60	45315
2026-01-25 22:52:11.29	29.48	3.52	-48.9	-51.5	6.1	7.54e-01	0	36	104	0	60	45884
2026-01-25 22:52:12.30	29.61	3.58	-48.9	-51.4	6.1	7.55e-01	0	36	104	0	60	45487
2026-01-25 22:52:13.31	29.73	3.64	-48.8	-51.3	6.1	7.54e-01	0	36	104	0	60	44755
2026-01-25 22:52:14.32	29.85	3.69	-49.2	-51.6	6.1	7.55e-01	0	36	104	0	60	46802
2026-01-25 22:52:15.33	29.97	3.75	-48.9	-51.5	6.1	7.55e-01	0	36	104	0	60	46160
2026-01-25 22:52:16.34	30.09	3.81	-49.0	-51.4	6.1	7.55e-01	0	36	104	0	60	45692
2026-01-25 22:52:17.35	30.22	3.87	-49.0	-51.5	6.1	7.54e-01	0	36	104	0	60	45779
2026-01-25 22:52:18.36	30.34	3.93	-49.0	-51.5	6.1	7.54e-01	0	36	104	0	60	46194
2026-01-25 22:52:19.37	30.47	3.99	-48.8	-51.3	6.1	7.55e-01	0	36	104	0	60	45156
2026-01-25 22:52:20.38	30.59	4.05	-48.9	-51.4	6.1	7.55e-01	0	36	104	0	60	45398
2026-01-25 22:52:21.39	30.72	4.10	-48.7	-51.2	6.1	7.54e-01	0	36	104	0	60	44305
2026-01-25 22:52:22.40	30.84	4.16	-48.8	-51.4	6.1	7.55e-01	0	36	104	0	60	45318
2026-01-25 22:52:23.41	30.97	4.22	-48.7	-51.3	6.1	7.54e-01	0	36	104	0	60	44973
2026-01-25 22:52:24.42	31.10	4.28	-48.8	-51.3	6.1	7.54e-01	0	36	104	0	60	45106
2026-01-25 22:52:25.42	31.23	4.34	-48.7	-51.3	6.1	7.54e-01	0	36	104	0	60	44984
2026-01-25 22:52:26.43	31.36	4.40	-49.1	-51.6	6.1	7.54e-01	0	36	104	0	60	46795
2026-01-25 22:52:27.44	31.49	4.46	-49.0	-51.6	6.1	7.54e-01	0	36	104	0	60	46565
2026-01-25 22:52:28.45	31.62	4.52	-48.9	-51.4	6.1	7.54e-01	0	36	104	0	60	45697
2026-01-25 22:52:29.46	31.75	4.58	-49.1	-51.7	6.1	7.54e-01	0	36	104	0	60	46902
2026-01-25 22:52:30.46	31.88	4.63	-49.0	-51.6	6.0	7.54e-01	0	36	104	0	60	46384
2026-01-25 22:52:31.47	32.01	4.69	-48.9	-51.4	6.1	7.55e-01	0	36	104	0	60	45544
2026-01-25 22:52:32.48	32.14	4.75	-48.8	-51.3	6.1	7.54e-01	0	36	104	0	60	44990
2026-01-25 22:52:33.49	32.28	4.81	-49.1	-51.6	6.1	7.54e-01	0	36	104	0	60	46697
2026-01-25 22:52:34.50	32.41	4.87	-49.1	-51.5	6.0	7.54e-01	0	36	104	0	60	46297
2026-01-25 22:52:35.51	32.55	4.93	-48.8	-51.3	6.1	7.54e-01	0	36	104	0	60	45171
2026-01-25 22:52:36.52	32.68	4.99	-48.9	-51.4	6.1	7.54e-01	0	36	104	0	60	45600
2026-01-25 22:52:37.53	32.82	5.05	-49.1	-51.7	6.1	7.54e-01	0	36	104	0	60	47044
2026-01-25 22:52:38.54	32.95	5.11	-49.3	-51.9	6.1	7.54e-01	0	36	104	0	60	48041
2026-01-25 22:52:39.55	33.09	5.17	-49.2	-51.7	6.0	7.55e-01	0	36	104	0	60	47233
2026-01-25 22:52:40.56	33.23	5.23	-49.1	-51.6	6.1	7.54e-01	0	36	104	0	60	46501
2026-01-25 22:52:41.57	33.37	5.29	-49.2	-51.8	6.1	7.53e-01	0	36	104	0	60	47477
2026-01-25 22:52:42.58	33.51	5.35	-49.3	-51.8	6.1	7.53e-01	0	36	104	0	60	47670
2026-01-25 22:52:43.58	33.65	5.41	-49.2	-51.7	6.1	7.55e-01	0	36	104	0	60	47353
2026-01-25 22:52:44.59	33.79	5.47	-49.3	-51.8	6.1	7.55e-01	0	36	104	0	60	47687
2026-01-25 22:52:45.60	33.93	5.53	-49.4	-51.9	6.1	7.54e-01	0	36	104	0	60	48340
2026-01-25 22:52:46.60	34.07	5.59	-49.2	-51.7	6.1	7.55e-01	0	36	104	0	60	47211
2026-01-25 22:52:47.61	34.21	5.65	-49.4	-51.8	6.1	7.55e-01	0	36	104	0	60	47789
2026-01-25 22:52:48.62	34.36	5.71	-49.4	-51.9	6.1	7.54e-01	0	36	104	0	60	48461
2026-01-25 22:52:49.63	34.50	5.77	-49.2	-51.8	6.1	7.54e-01	0	36	104	0	60	47783
2026-01-25 22:52:50.64	34.64	5.83	-49.4	-52.0	6.1	7.54e-01	0	36	104	0	60	48724
2026-01-25 22:52:51.65	34.79	5.89	-49.2	-51.7	6.1	7.54e-01	0	36	104	0	60	47304
2026-01-25 22:52:52.66	34.94	5.95	-49.4	-51.9	6.1	7.55e-01	0	36	104	0	60	48316
2026-01-25 22:52:53.67	35.08	6.01	-49.5	-52.0	6.1	7.53e-01	0	36	104	0	60	48836
2026-01-25 22:52:54.68	35.23	6.07	-49.4	-52.0	6.1	7.55e-01	0	36	104	0	60	48528
2026-01-25 22:52:55.69	35.38	6.13	-49.4	-51.8	6.1	7.54e-01	0	36	104	0	60	47819
2026-01-25 22:52:56.70	35.53	6.19	-49.4	-51.9	6.1	7.53e-01	0	36	104	0	60	47951
2026-01-25 22:52:57.71	35.68	6.25	-49.5	-52.0	6.1	7.54e-01	0	36	104	0	60	48722
2026-01-25 22:52:58.72	35.83	6.31	-49.4	-51.9	6.1	7.55e-01	0	36	104	0	60	48313
2026-01-25 22:52:59.73	35.98	6.38	-49.4	-51.9	6.1	7.55e-01	0	36	104	0	60	48124
2026-01-25 22:53:00.73	36.13	6.44	-49.4	-51.9	6.1	7.54e-01	0	36	104	0	60	48131
2026-01-25 22:53:01.74	36.29	6.50	-49.4	-51.9	6.1	7.54e-01	0	36	104	0	60	48278
2026-01-25 22:53:02.75	36.44	6.56	-49.1	-51.7	6.1	7.54e-01	0	36	104	0	60	47281
2026-01-25 22:53:03.76	36.59	6.62	-49.4	-51.9	6.1	7.54e-01	0	36	104	0	60	48447
2026-01-25 22:53:04.77	36.75	6.68	-49.5	-52.0	6.1	7.55e-01	0	36	104	0	60	48534
2026-01-25 22:53:05.78	36.91	6.74	-49.7	-52.2	6.1	7.54e-01	0	36	104	0	60	49624
2026-01-25 22:53:06.78	37.06	6.80	-49.3	-51.9	6.1	7.53e-01	0	36	104	0	60	48140
2026-01-25 22:53:07.79	37.22	6.86	-49.2	-51.8	6.1	7.55e-01	0	36	104	0	60	47515
2026-01-25 22:53:08.80	37.38	6.92	-49.6	-52.0	6.1	7.54e-01	0	36	104	0	60	48903
2026-01-25 22:53:09.81	37.54	6.98	-49.5	-52.0	6.1	7.55e-01	0	36	104	0	60	48951
2026-01-25 22:53:10.82	37.70	7.05	-49.5	-52.0	6.1	7.54e-01	0	36	104	0	60	49011
2026-01-25 22:53:11.83	37.86	7.11	-49.1	-51.7	6.1	7.55e-01	0	36	104	0	60	46865
2026-01-25 22:53:12.84	38.02	7.17	-49.6	-52.1	6.1	7.54e-01	0	36	104	0	60	49257
2026-01-25 22:53:13.85	38.18	7.23	-49.7	-52.1	6.1	7.54e-01	0	36	104	0	60	49486
2026-01-25 22:53:14.86	38.35	7.29	-49.5	-52.0	6.1	7.54e-01	0	36	104	0	60	48997
2026-01-25 22:53:15.86	38.51	7.35	-49.6	-52.0	6.1	7.54e-01	0	36	104	0	60	48976
2026-01-25 22:53:16.87	38.67	7.41	-49.4	-51.9	6.1	7.54e-01	0	36	104	0	60	48401
2026-01-25 22:53:17.88	38.84	7.47	-48.5	-51.1	6.1	7.54e-01	0	36	104	0	60	44127
2026-01-25 22:53:18.89	39.00	7.53	-49.3	-51.9	6.1	7.53e-01	0	36	104	0	60	48053
2026-01-25 22:53:19.90	39.17	7.60	-48.7	-51.4	6.1	7.54e-01	0	36	104	0	60	45317
2026-01-25 22:53:20.91	39.34	7.66	-48.5	-51.2	6.1	7.55e-01	0	36	104	0	60	44445
2026-01-25 22:53:21.92	39.51	7.72	-48.9	-51.5	6.1	7.54e-01	0	36	104	0	60	46155
2026-01-25 22:53:22.92	39.68	7.78	-49.3	-51.9	6.1	7.55e-01	0	36	104	0	60	47961
2026-01-25 22:53:23.94	39.85	7.84	-49.4	-51.9	6.1	7.55e-01	0	36	104	0	60	48299
2026-01-25 22:53:24.94	40.02	7.90	-49.2	-51.8	6.1	7.54e-01	0	36	104	0	60	47532
2026-01-25 22:53:25.95	40.19	7.96	-48.5	-51.2	6.1	7.55e-01	0	36	104	0	60	44479
2026-01-25 22:53:26.96	40.37	8.02	-48.6	-51.3	6.1	7.53e-01	0	37	104	0	60	44979
2026-01-25 22:53:27.97	40.54	8.09	-47.9	-50.7	6.1	7.54e-01	0	36	104	0	60	41943
2026-01-25 22:53:28.98	40.71	8.15	-48.1	-50.7	6.1	7.54e-01	0	36	104	0	60	42021
2026-01-25 22:53:29.99	40.89	8.21	-48.2	-50.9	6.1	7.54e-01	0	37	104	0	60	42792
2026-01-25 22:53:31.00	41.07	8.27	-48.1	-50.6	6.1	7.54e-01	0	36	104	0	60	41717
2026-01-25 22:53:32.01	41.24	8.33	-48.1	-50.4	6.1	7.54e-01	0	36	104	0	60	40473
2026-01-25 22:53:33.02	41.42	8.39	-47.2	-48.9	6.1	7.52e-01	0	37	104	0	60	34094
2026-01-25 22:53:34.03	41.60	8.45	-29.4	-29.7	16.1	6.82e-01	0	36	104	0	32	18660
2026-01-25 22:53:35.04	41.78	8.52	-37.9	-38.1	13.5	7.06e-01	0	37	0	100663296	48	19665
2026-01-25 22:53:36.05	41.96	8.58	-46.5	-47.6	6.9	7.47e-01	0	37	104	176160768	60	29421
2026-01-25 22:53:37.06	42.15	8.64	-36.3	-36.6	12.1	6.99e-01	0	36	104	176160768	50	14650
2026-01-25 22:53:38.07	42.33	8.70	-37.5	-37.7	14.5	7.01e-01	0	37	0	234881024	50	16664
2026-01-25 22:53:39.08	42.51	8.76	-33.0	-33.3	16.2	6.81e-01	0	37	0	343932928	40	17930
2026-01-25 22:53:40.09	42.70	8.82	-33.1	-33.3	15.9	6.80e-01	0	37	0	452984832	40	17896
2026-01-25 22:53:41.10	42.88	8.88	-32.1	-32.4	16.3	6.76e-01	0	37	0	570425344	40	16103
2026-01-25 22:53:42.11	43.07	8.94	-32.6	-33.0	16.2	6.80e-01	0	37	0	687865856	44	13664
2026-01-25 22:53:43.12	43.26	9.00	-34.2	-34.5	15.4	6.83e-01	0	37	0	796917760	42	18270
2026-01-25 22:53:44.13	43.45	9.07	-36.2	-36.5	12.8	7.01e-01	0	37	0	914358272	44	20500
2026-01-25 22:53:45.14	43.64	9.13	-38.4	-38.4	10.9	6.99e-01	0	37	0	1015021568	48	20428
2026-01-25 22:53:46.15	43.83	9.19	-38.4	-38.6	12.9	7.06e-01	0	37	0	1031798784	54	14658
2026-01-25 22:53:47.16	44.02	9.25	-35.3	-35.5	14.4	6.90e-01	0	37	0	1140850688	46	16330
2026-01-25 22:53:48.17	44.21	9.31	-34.2	-34.5	14.7	6.88e-01	0	37	0	1249902592	42	18368
2026-01-25 22:53:49.18	44.40	9.37	-30.0	-30.3	17.7	6.73e-01	0	37	0	1367343104	36	15904
2026-01-25 22:53:50.19	44.60	9.43	-30.8	-31.1	17.3	6.74e-01	0	37	0	1476395008	36	17527
2026-01-25 22:53:51.20	44.79	9.49	-32.8	-33.0	17.8	6.74e-01	0	37	0	1593835520	36	21850
2026-01-25 22:53:52.21	44.99	9.55	-30.3	-30.6	17.2	6.73e-01	0	37	0	1711276032	36	16471
2026-01-25 22:53:53.22	45.18	9.61	-31.3	-31.6	17.5	6.75e-01	0	37	0	1820327936	36	18562
2026-01-25 22:53:54.22	45.38	9.67	-28.9	-29.2	17.4	6.73e-01	0	37	0	1937768448	36	14078
2026-01-25 22:53:55.23	45.58	9.73	-29.4	-29.7	17.8	6.72e-01	0	37	0	2046820352	34	16767
2026-01-25 22:53:56.24	45.78	9.79	-27.7	-28.0	18.4	6.71e-01	0	37	0	2155872256	32	15377
2026-01-25 22:53:57.25	45.98	9.85	-29.2	-29.5	17.8	6.73e-01	0	37	0	2273312768	32	18343
2026-01-25 22:53:58.26	46.18	9.91	-27.2	-27.5	18.2	6.70e-01	0	37	0	2390753280	30	16323
2026-01-25 22:53:59.27	46.38	9.97	-29.1	-29.4	18.5	6.71e-01	0	37	0	2499805184	36	14350
2026-01-25 22:54:00.27	46.59	10.03	-28.1	-28.3	18.7	6.69e-01	0	37	0	2617245696	32	16012
2026-01-25 22:54:01.28	46.79	10.09	-29.4	-29.6	18.0	6.72e-01	0	37	0	2726297600	36	14800
2026-01-25 22:54:02.29	47.00	10.15	-27.2	-27.5	19.1	6.71e-01	0	37	0	2835349504	32	14577
2026-01-25 22:54:03.30	47.20	10.21	-26.9	-27.2	18.9	6.71e-01	0	37	0	2961178624	28	17657
2026-01-25 22:54:04.30	47.41	10.27	-25.7	-25.9	19.3	6.70e-01	0	37	0	3070230528	26	17185
2026-01-25 22:54:05.31	47.62	10.33	-26.1	-26.4	19.3	6.69e-01	0	37	0	3179282432	26	18120
2026-01-25 22:54:06.32	47.83	10.39	-25.8	-26.1	19.1	6.69e-01	0	37	0	3296722944	26	17422
2026-01-25 22:54:07.33	48.04	10.45	-25.5	-25.8	19.1	6.69e-01	0	37	0	3405774848	26	16850
2026-01-25 22:54:08.34	48.25	10.51	-25.5	-25.8	19.2	6.69e-01	0	37	0	3523215360	26	16887
2026-01-25 22:54:09.35	48.46	10.57	-25.6	-25.9	19.3	6.69e-01	0	37	0	3640655872	26	17130
2026-01-25 22:54:10.36	48.67	10.63	-25.3	-25.5	19.5	6.68e-01	0	37	0	3749707776	26	16399
2026-01-25 22:54:11.37	48.89	10.68	-25.5	-25.8	19.5	6.68e-01	0	37	0	3867148288	26	16936
2026-01-25 22:54:12.38	49.10	10.74	-25.6	-25.8	19.3	6.69e-01	0	37	0	3976200192	26	17003
2026-01-25 22:54:13.39	49.32	10.80	-25.3	-25.6	19.4	6.67e-01	0	37	0	4085252096	26	16473
2026-01-25 22:54:14.40	49.54	10.86	-25.3	-25.6	19.5	6.68e-01	0	37	0	4202692608	26	16542
2026-01-25 22:54:15.41	49.76	10.92	-25.3	-25.6	19.5	6.68e-01	0	37	0	4320133120	26	16570
2026-01-25 22:54:16.42	49.98	10.98	-25.6	-25.9	19.5	6.68e-01	0	37	0	4429185024	26	17126
2026-01-25 22:54:17.43	50.20	11.03	-25.4	-25.7	19.5	6.69e-01	0	37	0	4546625536	26	16729
2026-01-25 22:54:18.44	50.42	11.09	-25.5	-25.7	19.4	6.68e-01	0	37	0	4655677440	26	16802
2026-01-25 22:54:19.45	50.64	11.15	-25.3	-25.6	19.3	6.69e-01	0	37	0	4773117952	26	16536
2026-01-25 22:54:20.46	50.86	11.21	-25.4	-25.7	19.2	6.69e-01	0	37	0	4890558464	26	16746
2026-01-25 22:54:21.46	51.09	11.26	-25.4	-25.7	19.0	6.70e-01	0	37	0	4999610368	26	16690
2026-01-25 22:54:22.47	51.31	11.32	-25.2	-25.5	19.1	6.69e-01	0	37	0	5108662272	26	16283
2026-01-25 22:54:23.48	51.54	11.38	-25.6	-25.9	19.2	6.68e-01	0	37	0	5226102784	26	17007
2026-01-25 22:54:24.49	51.77	11.43	-25.2	-25.5	19.5	6.68e-01	0	37	0	5335154688	26	16360
2026-01-25 22:54:25.50	52.00	11.49	-25.2	-25.5	19.7	6.68e-01	0	37	0	5452595200	26	16254
2026-01-25 22:54:26.51	52.23	11.55	-25.2	-25.5	19.7	6.68e-01	0	37	0	5570035712	26	16377
2026-01-25 22:54:27.52	52.46	11.60	-25.2	-25.4	19.5	6.68e-01	0	37	0	5679087616	26	16224
2026-01-25 22:54:28.53	52.69	11.66	-25.2	-25.5	19.6	6.68e-01	0	37	0	5796528128	26	16299
2026-01-25 22:54:29.54	52.92	11.71	-25.3	-25.6	19.5	6.68e-01	0	37	0	5905580032	26	16440
2026-01-25 22:54:30.55	53.16	11.77	-25.7	-26.1	19.4	6.68e-01	0	37	0	6023020544	26	17408
2026-01-25 22:54:31.56	53.39	11.83	-25.4	-25.7	19.4	6.69e-01	0	37	0	6132072448	26	16746
2026-01-25 22:54:32.56	53.62	11.88	-25.0	-25.3	19.5	6.69e-01	0	37	0	6249512960	26	15914
2026-01-25 22:54:33.57	53.86	11.93	-25.0	-25.3	19.7	6.68e-01	0	37	0	6358564864	26	16016
2026-01-25 22:54:34.58	54.10	11.99	-25.0	-25.3	19.7	6.70e-01	0	37	0	6476005376	26	15989
2026-01-25 22:54:35.59	54.34	12.04	-24.9	-25.2	19.7	6.69e-01	0	37	0	6585057280	26	15725
2026-01-25 22:54:36.60	54.58	12.10	-24.9	-25.2	19.7	6.69e-01	0	37	0	6702497792	26	15785
2026-01-25 22:54:37.61	54.82	12.15	-25.0	-25.3	19.4	6.70e-01	0	37	0	6819938304	26	15899
2026-01-25 22:54:38.62	55.06	12.20	-25.0	-25.2	19.2	6.70e-01	0	37	0	6928990208	26	15853
2026-01-25 22:54:39.63	55.30	12.26	-24.8	-25.1	19.6	6.69e-01	0	37	0	7038042112	24	17420
2026-01-25 22:54:40.64	55.55	12.31	-24.8	-25.1	19.7	6.69e-01	0	37	0	7155482624	24	17500
2026-01-25 22:54:41.64	55.79	12.36	-24.9	-25.2	19.8	6.69e-01	0	37	0	7272923136	24	17704
2026-01-25 22:54:42.66	56.04	12.42	-24.9	-25.2	19.8	6.70e-01	0	37	0	7381975040	24	17621
2026-01-25 22:54:43.66	56.28	12.47	-24.8	-25.1	19.7	6.69e-01	0	37	0	7499415552	24	17410
2026-01-25 22:54:44.67	56.53	12.52	-24.8	-25.1	19.4	6.70e-01	0	37	0	7608467456	24	17491
2026-01-25 22:54:45.68	56.78	12.57	-24.7	-25.0	19.5	6.70e-01	0	37	0	7725907968	24	17333
2026-01-25 22:54:46.69	57.03	12.62	-24.8	-25.1	19.7	6.68e-01	0	37	0	7834959872	24	17479
2026-01-25 22:54:47.70	57.28	12.67	-25.1	-25.4	19.9	6.67e-01	0	37	0	7952400384	24	18029
2026-01-25 22:54:48.70	57.53	12.72	-25.0	-25.3	19.7	6.68e-01	0	37	0	8061452288	24	17919
2026-01-25 22:54:49.71	57.79	12.77	-24.8	-25.1	19.5	6.68e-01	0	37	0	8178892800	24	17507
2026-01-25 22:54:50.72	58.04	12.82	-24.9	-25.2	19.4	6.69e-01	0	37	0	8287944704	24	17686
2026-01-25 22:54:51.73	58.30	12.87	-24.6	-24.9	19.5	6.68e-01	0	37	0	8405385216	24	17053
2026-01-25 22:54:52.74	58.55	12.92	-24.9	-25.2	19.6	6.68e-01	0	37	0	8514437120	24	17758
2026-01-25 22:54:53.75	58.81	12.97	-24.8	-25.1	19.8	6.67e-01	0	37	0	8631877632	24	17578
2026-01-25 22:54:54.76	59.07	13.02	-24.5	-24.8	19.9	6.68e-01	0	37	0	8749318144	24	16985
2026-01-25 22:54:55.77	59.33	13.07	-24.9	-25.1	19.7	6.67e-01	0	37	0	8858370048	24	17571
2026-01-25 22:54:56.78	59.59	13.12	-24.7	-25.0	19.5	6.68e-01	0	37	0	8967421952	24	17202
2026-01-25 22:54:57.78	59.84	13.17	-24.9	-25.2	19.5	6.68e-01	0	37	0	9084862464	24	17640
2026-01-25 22:54:58.79	60.11	13.21	-24.6	-24.9	19.9	6.67e-01	0	37	0	9202302976	24	17128
2026-01-25 22:54:59.80	60.37	13.26	-24.7	-25.0	19.8	6.67e-01	0	37	0	9311354880	24	17303
2026-01-25 22:55:00.81	60.63	13.31	-24.7	-25.0	19.0	6.70e-01	0	37	0	9428795392	24	17227
2026-01-25 22:55:01.82	60.90	13.35	-24.5	-24.8	18.9	6.70e-01	0	37	0	9537847296	24	16835
2026-01-25 22:55:02.83	61.16	13.40	-24.5	-24.8	19.2	6.69e-01	0	37	0	9655287808	24	16914
2026-01-25 22:55:03.84	61.43	13.44	-24.6	-24.8	19.4	6.69e-01	0	37	0	9764339712	24	16957
2026-01-25 22:55:04.85	61.70	13.49	-24.5	-24.8	19.8	6.67e-01	0	37	0	9881780224	24	16851
2026-01-25 22:55:05.86	61.97	13.53	-24.5	-24.8	19.7	6.68e-01	0	37	0	9990832128	24	16947
2026-01-25 22:55:06.87	62.24	13.58	-24.5	-24.8	19.6	6.67e-01	0	37	0	10108272640	24	16946
2026-01-25 22:55:07.87	62.51	13.62	-24.7	-25.0	19.6	6.68e-01	0	37	0	10217324544	24	17291
2026-01-25 22:55:08.88	62.78	13.66	-24.5	-24.7	19.7	6.68e-01	0	37	0	10334765056	24	16790
2026-01-25 22:55:09.89	63.05	13.71	-24.6	-24.9	20.0	6.67e-01	0	37	0	10443816960	24	17092
2026-01-25 22:55:10.90	63.32	13.75	-24.7	-25.0	19.9	6.67e-01	0	37	0	10561257472	24	17232
2026-01-25 22:55:11.91	63.60	13.79	-24.5	-24.8	20.0	6.67e-01	0	37	0	10678697984	24	16839
2026-01-25 22:55:12.92	63.87	13.83	-24.8	-25.1	19.9	6.68e-01	0	37	0	10787749888	24	17590
2026-01-25 22:55:13.93	64.15	13.87	-24.3	-24.6	20.0	6.68e-01	0	37	0	10896801792	24	16479
2026-01-25 22:55:14.94	64.43	13.91	-24.4	-24.6	20.0	6.67e-01	0	37	0	11014242304	24	16593
2026-01-25 22:55:15.95	64.70	13.96	-24.8	-25.1	19.9	6.67e-01	0	37	0	11131682816	24	17525
2026-01-25 22:55:16.95	64.98	13.99	-24.6	-24.9	19.9	6.68e-01	0	37	0	11240734720	24	17046
2026-01-25 22:55:17.96	65.26	14.03	-24.9	-25.1	20.0	6.67e-01	0	37	0	11358175232	24	17544
2026-01-25 22:55:18.97	65.54	14.07	-24.4	-24.7	19.9	6.67e-01	0	37	0	11467227136	24	16726
2026-01-25 22:55:19.98	65.82	14.11	-24.4	-24.7	20.0	6.68e-01	0	37	0	11584667648	24	16755
2026-01-25 22:55:20.99	66.10	14.15	-24.4	-24.7	19.9	6.66e-01	0	37	0	11693719552	24	16721
2026-01-25 22:55:22.00	66.38	14.19	-24.2	-24.5	19.9	6.67e-01	0	37	0	11811160064	24	16363
2026-01-25 22:55:23.01	66.67	14.22	-24.7	-25.0	19.7	6.68e-01	0	37	0	11920211968	24	17305
2026-01-25 22:55:24.02	66.95	14.26	-24.3	-24.6	19.4	6.68e-01	0	37	0	12037652480	24	16478
2026-01-25 22:55:25.02	67.23	14.29	-24.3	-24.6	19.4	6.68e-01	0	37	0	12146704384	24	16570
2026-01-25 22:55:26.03	67.52	14.33	-24.2	-24.4	19.6	6.67e-01	0	37	0	12264144896	24	16206
2026-01-25 22:55:27.04	67.81	14.36	-24.2	-24.5	20.0	6.68e-01	0	37	0	12381585408	24	16368
2026-01-25 22:55:28.05	68.10	14.40	-24.1	-24.4	20.1	6.67e-01	0	37	0	12490637312	24	16136
2026-01-25 22:55:29.06	68.38	14.43	-24.2	-24.5	20.0	6.67e-01	0	37	0	12608077824	24	16256
2026-01-25 22:55:30.07	68.67	14.46	-24.2	-24.5	20.0	6.67e-01	0	37	0	12717129728	24	16335
2026-01-25 22:55:31.07	68.96	14.50	-24.3	-24.6	20.0	6.67e-01	0	37	0	12826181632	24	16514
2026-01-25 22:55:32.08	69.25	14.53	-24.1	-24.4	20.1	6.67e-01	0	37	0	12943622144	24	16134
2026-01-25 22:55:33.09	69.54	14.56	-24.4	-24.7	19.9	6.67e-01	0	37	0	13052674048	24	16627
2026-01-25 22:55:34.10	69.83	14.59	-24.1	-24.4	19.5	6.68e-01	0	37	0	13170114560	24	16115
2026-01-25 22:55:35.11	70.13	14.62	-24.2	-24.5	19.3	6.69e-01	0	37	0	13287555072	24	16322
2026-01-25 22:55:36.12	70.42	14.65	-24.1	-24.4	19.7	6.68e-01	0	37	0	13396606976	24	16091
2026-01-25 22:55:37.13	70.71	14.68	-24.0	-24.3	19.7	6.68e-01	0	37	0	13514047488	24	15906
2026-01-25 22:55:38.14	71.01	14.71	-24.3	-24.6	19.8	6.68e-01	0	37	0	13623099392	24	16438
2026-01-25 22:55:39.14	71.30	14.74	-24.2	-24.5	20.1	6.67e-01	0	37	0	13732151296	24	16352
2026-01-25 22:55:40.15	71.60	14.76	-24.3	-24.6	20.1	6.66e-01	0	37	0	13849591808	24	16515
2026-01-25 22:55:41.16	71.89	14.79	-24.1	-24.4	20.1	6.67e-01	0	37	0	13967032320	24	16167
2026-01-25 22:55:42.17	72.19	14.82	-24.2	-24.5	20.0	6.67e-01	0	37	0	14076084224	24	16305
2026-01-25 22:55:43.18	72.49	14.84	-24.2	-24.5	19.9	6.68e-01	0	37	0	14193524736	24	16340
2026-01-25 22:55:44.19	72.78	14.87	-24.0	-24.3	20.2	6.65e-01	0	37	0	14302576640	24	16017
2026-01-25 22:55:45.20	73.08	14.89	-24.0	-24.3	20.2	6.67e-01	0	37	0	14420017152	24	15944
2026-01-25 22:55:46.21	73.38	14.92	-24.1	-24.4	20.1	6.67e-01	0	37	0	14537457664	24	16152
2026-01-25 22:55:47.22	73.68	14.94	-24.1	-24.3	20.2	6.68e-01	0	37	0	14646509568	24	16016
2026-01-25 22:55:48.23	73.98	14.96	-24.0	-24.3	20.2	6.67e-01	0	37	0	14755561472	24	15927
2026-01-25 22:55:49.23	74.28	14.98	-24.1	-24.3	20.2	6.67e-01	0	37	0	14873001984	24	16030
2026-01-25 22:55:50.24	74.58	15.00	-24.0	-24.3	20.2	6.66e-01	0	37	0	14990442496	24	15961
2026-01-25 22:55:51.25	74.88	15.02	-23.9	-24.2	20.2	6.67e-01	0	37	0	15099494400	24	15743
2026-01-25 22:55:52.26	75.19	15.04	-23.9	-24.2	20.0	6.67e-01	0	37	0	15216934912	24	15791
2026-01-25 22:55:53.27	75.49	15.06	-24.0	-24.3	20.0	6.67e-01	0	37	0	15325986816	24	15876
2026-01-25 22:55:54.28	75.79	15.08	-24.0	-24.3	19.9	6.68e-01	0	37	0	15443427328	24	15982
2026-01-25 22:55:55.29	76.10	15.10	-23.9	-24.2	20.0	6.67e-01	0	37	0	15552479232	24	15814
2026-01-25 22:55:56.30	76.40	15.12	-24.0	-24.3	19.9	6.67e-01	0	37	0	15669919744	24	15994
2026-01-25 22:55:57.31	76.71	15.13	-24.2	-24.4	19.7	6.68e-01	0	37	0	15778971648	24	16205
2026-01-25 22:55:58.32	77.01	15.15	-24.1	-24.3	19.6	6.68e-01	0	37	0	15896412160	24	16016
2026-01-25 22:55:59.33	77.32	15.16	-24.5	-24.7	20.0	6.68e-01	0	37	0	16005464064	24	16795
2026-01-25 22:56:00.34	77.62	15.18	-24.2	-24.5	20.1	6.68e-01	0	37	0	16122904576	24	16348
2026-01-25 22:56:01.34	77.92	15.19	-24.2	-24.5	20.2	6.66e-01	0	37	0	16240345088	24	16353
2026-01-25 22:56:02.35	78.23	15.21	-24.1	-24.4	20.2	6.67e-01	0	37	0	16349396992	24	16108
2026-01-25 22:56:03.36	78.54	15.22	-24.0	-24.3	20.2	6.66e-01	0	37	0	16466837504	24	16027
2026-01-25 22:56:04.37	78.84	15.23	-24.1	-24.3	20.3	6.67e-01	0	37	0	16575889408	24	16048
2026-01-25 22:56:05.38	79.15	15.24	-24.1	-24.4	20.0	6.67e-01	0	37	0	16684941312	24	16123
2026-01-25 22:56:06.38	79.45	15.25	-24.1	-24.4	19.3	6.69e-01	0	37	0	16802381824	24	16100
2026-01-25 22:56:07.39	79.76	15.26	-24.1	-24.4	19.2	6.69e-01	0	37	0	16911433728	24	16155
2026-01-25 22:56:08.40	80.07	15.27	-24.1	-24.4	19.4	6.68e-01	0	37	0	17028874240	24	16109
2026-01-25 22:56:09.41	80.38	15.28	-24.1	-24.4	19.6	6.69e-01	0	37	0	17146314752	24	16185
2026-01-25 22:56:10.42	80.69	15.29	-24.3	-24.5	19.8	6.69e-01	0	37	0	17255366656	24	16425
2026-01-25 22:56:11.42	80.99	15.29	-24.5	-24.8	20.1	6.66e-01	0	37	0	17372807168	24	16821
2026-01-25 22:56:12.43	81.30	15.30	-24.5	-24.8	20.3	6.66e-01	0	37	0	17481859072	24	16883
2026-01-25 22:56:13.44	81.61	15.31	-24.2	-24.5	20.3	6.66e-01	0	37	0	17590910976	24	16334
2026-01-25 22:56:14.45	81.92	15.31	-24.2	-24.5	20.3	6.66e-01	0	37	0	17708351488	24	16262
2026-01-25 22:56:15.46	82.23	15.31	-23.9	-24.2	20.3	6.67e-01	0	37	0	17825792000	24	15717
2026-01-25 22:56:16.47	82.54	15.32	-23.9	-24.2	20.3	6.67e-01	0	37	0	17934843904	24	15861
2026-01-25 22:56:17.48	82.85	15.32	-23.9	-24.1	20.3	6.67e-01	0	37	0	18052284416	24	15687
2026-01-25 22:56:18.49	83.15	15.32	-23.9	-24.2	20.3	6.67e-01	0	37	0	18161336320	24	15814
2026-01-25 22:56:19.50	83.46	15.32	-24.0	-24.3	20.3	6.67e-01	0	37	0	18278776832	24	15922
2026-01-25 22:56:20.51	83.77	15.32	-23.9	-24.2	20.4	6.66e-01	0	37	0	18396217344	24	15782
2026-01-25 22:56:21.52	84.08	15.32	-24.3	-24.6	20.3	6.67e-01	0	37	0	18505269248	24	16466
2026-01-25 22:56:22.53	84.39	15.32	-24.1	-24.3	20.3	6.66e-01	0	37	0	18614321152	24	16028
2026-01-25 22:56:23.54	84.70	15.32	-24.1	-24.4	20.3	6.66e-01	0	37	0	18731761664	24	16077
2026-01-25 22:56:24.54	85.01	15.32	-24.1	-24.4	20.3	6.67e-01	0	37	0	18849202176	24	16176
2026-01-25 22:56:25.55	85.32	15.32	-24.2	-24.5	20.2	6.67e-01	0	37	0	18958254080	24	16382
2026-01-25 22:56:26.56	85.63	15.31	-24.1	-24.4	20.2	6.68e-01	0	37	0	19075694592	24	16156
2026-01-25 22:56:27.57	85.93	15.31	-24.3	-24.6	20.3	6.68e-01	0	37	0	19184746496	24	16524
2026-01-25 22:56:28.58	86.24	15.30	-24.5	-24.8	20.2	6.68e-01	0	37	0	19302187008	24	16930
2026-01-25 22:56:29.59	86.55	15.30	-24.1	-24.4	20.3	6.68e-01	0	37	0	19411238912	24	16058
2026-01-25 22:56:30.60	86.86	15.29	-24.0	-24.3	20.3	6.68e-01	0	37	0	19528679424	24	15990
2026-01-25 22:56:31.61	87.17	15.29	-24.0	-24.3	20.3	6.68e-01	0	37	0	19637731328	24	15934
2026-01-25 22:56:32.62	87.48	15.28	-24.1	-24.4	20.4	6.68e-01	0	37	0	19755171840	24	16220
2026-01-25 22:56:33.63	87.79	15.27	-24.0	-24.3	20.3	6.67e-01	0	37	0	19864223744	24	15921
2026-01-25 22:56:34.63	88.09	15.26	-24.0	-24.2	20.4	6.67e-01	0	37	0	19981664256	24	15857
2026-01-25 22:56:35.64	88.40	15.25	-24.1	-24.3	20.4	6.67e-01	0	37	0	20099104768	24	16023
2026-01-25 22:56:36.65	88.71	15.24	-24.0	-24.2	20.4	6.67e-01	0	37	0	20208156672	24	15849
2026-01-25 22:56:37.66	89.01	15.23	-24.1	-24.4	20.4	6.67e-01	0	37	0	20325597184	24	16154
2026-01-25 22:56:38.67	89.32	15.22	-24.9	-25.1	20.3	6.66e-01	0	37	0	20434649088	24	17597
2026-01-25 22:56:39.69	89.63	15.20	-24.1	-24.4	20.3	6.67e-01	0	37	0	20543700992	24	16129
2026-01-25 22:56:40.70	89.94	15.19	-24.2	-24.5	20.3	6.66e-01	0	37	0	20661141504	24	16268
2026-01-25 22:56:41.70	90.24	15.18	-24.2	-24.5	20.3	6.66e-01	0	37	0	20778582016	24	16296
2026-01-25 22:56:42.71	90.55	15.16	-24.3	-24.6	20.3	6.67e-01	0	37	0	20887633920	24	16593
2026-01-25 22:56:43.72	90.85	15.15	-24.1	-24.4	20.2	6.66e-01	0	37	0	21005074432	24	16133
2026-01-25 22:56:44.73	91.16	15.13	-24.0	-24.3	20.3	6.67e-01	0	37	0	21114126336	24	15956
2026-01-25 22:56:45.74	91.46	15.12	-24.3	-24.6	20.3	6.67e-01	0	37	0	21231566848	24	16458
2026-01-25 22:56:46.75	91.76	15.10	-24.3	-24.6	20.4	6.66e-01	0	37	0	21349007360	24	16550
2026-01-25 22:56:47.76	92.07	15.08	-24.8	-25.1	20.3	6.67e-01	0	37	0	21458059264	24	17416
2026-01-25 22:56:48.77	92.37	15.06	-24.5	-24.8	20.3	6.65e-01	0	37	0	21567111168	24	16833
2026-01-25 22:56:49.78	92.68	15.04	-24.6	-24.9	20.4	6.65e-01	0	37	0	21684551680	24	17199
2026-01-25 22:56:50.78	92.97	15.02	-24.7	-25.0	20.3	6.66e-01	0	37	0	21793603584	24	17329
2026-01-25 22:56:51.79	93.28	15.00	-24.2	-24.5	20.3	6.68e-01	0	37	0	21911044096	24	16293
2026-01-25 22:56:52.80	93.58	14.98	-24.3	-24.6	20.2	6.68e-01	0	37	0	22028484608	24	16562
2026-01-25 22:56:53.81	93.88	14.96	-24.6	-24.9	20.2	6.68e-01	0	37	0	22137536512	24	17148
2026-01-25 22:56:54.81	94.18	14.94	-24.6	-24.9	20.3	6.68e-01	0	37	0	22254977024	24	17162
2026-01-25 22:56:55.82	94.48	14.91	-24.5	-24.8	20.3	6.67e-01	0	37	0	22364028928	24	16927
2026-01-25 22:56:56.83	94.78	14.89	-24.6	-24.9	20.3	6.68e-01	0	37	0	22473080832	24	17073
2026-01-25 22:56:57.84	95.08	14.87	-24.4	-24.7	20.2	6.67e-01	0	37	0	22590521344	24	16762
2026-01-25 22:56:58.85	95.37	14.84	-24.4	-24.7	20.3	6.68e-01	0	37	0	22707961856	24	16737
2026-01-25 22:56:59.86	95.67	14.81	-24.8	-25.1	20.3	6.67e-01	0	37	0	22817013760	24	17505
2026-01-25 22:57:00.87	95.97	14.79	-24.2	-24.5	20.4	6.66e-01	0	37	0	22934454272	24	16363
2026-01-25 22:57:01.88	96.27	14.76	-24.5	-24.8	20.4	6.67e-01	0	37	0	23043506176	24	16907
2026-01-25 22:57:02.89	96.56	14.73	-24.4	-24.6	20.4	6.66e-01	0	37	0	23160946688	24	16601
2026-01-25 22:57:03.90	96.86	14.71	-24.3	-24.6	20.4	6.67e-01	0	37	0	23278387200	24	16475
2026-01-25 22:57:04.91	97.15	14.68	-24.3	-24.6	20.4	6.66e-01	0	37	0	23387439104	24	16468
2026-01-25 22:57:05.92	97.45	14.65	-24.6	-24.9	20.4	6.66e-01	0	37	0	23496491008	24	17008
2026-01-25 22:57:06.93	97.74	14.62	-24.9	-25.1	20.3	6.66e-01	0	37	0	23613931520	24	17553
2026-01-25 22:57:07.94	98.03	14.59	-25.0	-25.3	20.2	6.67e-01	0	37	0	23722983424	24	17891
2026-01-25 22:57:08.95	98.33	14.56	-24.5	-24.8	20.2	6.66e-01	0	37	0	23840423936	24	16886
2026-01-25 22:57:09.96	98.62	14.53	-25.3	-25.6	20.2	6.67e-01	0	37	0	23957864448	24	18584
2026-01-25 22:57:10.97	98.91	14.49	-24.5	-24.8	20.3	6.66e-01	0	37	0	24066916352	24	16823
2026-01-25 22:57:11.97	99.20	14.46	-24.8	-25.1	20.3	6.65e-01	0	37	0	24184356864	24	17473
2026-01-25 22:57:12.98	99.48	14.43	-24.6	-24.9	20.3	6.67e-01	0	37	0	24293408768	24	17054
2026-01-25 22:57:13.99	99.77	14.39	-24.3	-24.6	20.4	6.66e-01	0	37	0	24402460672	24	16538
2026-01-25 22:57:15.00	100.06	14.36	-24.4	-24.7	20.4	6.66e-01	0	37	0	24519901184	24	16731
2026-01-25 22:57:16.01	100.35	14.33	-24.6	-24.9	20.3	6.67e-01	0	37	0	24637341696	24	17006
2026-01-25 22:57:17.02	100.63	14.29	-24.7	-25.0	20.3	6.67e-01	0	37	0	24746393600	24	17273
2026-01-25 22:57:18.03	100.92	14.25	-24.6	-24.9	20.3	6.66e-01	0	37	0	24863834112	24	17141
2026-01-25 22:57:19.04	101.20	14.22	-24.4	-24.7	20.3	6.68e-01	0	37	0	24972886016	24	16647
2026-01-25 22:57:20.05	101.49	14.18	-24.6	-24.9	20.3	6.68e-01	0	37	0	25090326528	24	17095
2026-01-25 22:57:21.05	101.77	14.14	-24.5	-24.8	20.4	6.68e-01	0	37	0	25207767040	24	16986
2026-01-25 22:57:22.07	102.05	14.11	-24.6	-24.9	20.3	6.68e-01	0	37	0	25316818944	24	17009
2026-01-25 22:57:23.07	102.33	14.07	-24.7	-25.0	20.4	6.67e-01	0	37	0	25425870848	24	17352
2026-01-25 22:57:24.08	102.61	14.03	-25.4	-25.7	20.3	6.67e-01	0	37	0	25543311360	24	18691
2026-01-25 22:57:25.09	102.89	13.99	-24.9	-25.2	20.4	6.66e-01	0	37	0	25660751872	24	17762
2026-01-25 22:57:26.10	103.17	13.95	-24.7	-25.0	20.4	6.66e-01	0	37	0	25769803776	24	17320
2026-01-25 22:57:27.11	103.45	13.91	-24.5	-24.8	20.4	6.67e-01	0	37	0	25887244288	24	16862
2026-01-25 22:57:28.12	103.73	13.87	-24.6	-24.9	20.4	6.65e-01	0	37	0	25996296192	24	17136
2026-01-25 22:57:29.13	104.00	13.83	-24.5	-24.8	20.4	6.66e-01	0	37	0	26113736704	24	16907
2026-01-25 22:57:30.14	104.28	13.79	-24.6	-24.9	20.4	6.66e-01	0	37	0	26222788608	24	17141
2026-01-25 22:57:31.15	104.55	13.74	-24.9	-25.2	20.4	6.67e-01	0	37	0	26340229120	24	17707
2026-01-25 22:57:32.16	104.83	13.70	-25.0	-25.3	20.4	6.67e-01	0	37	0	26449281024	24	17816
2026-01-25 22:57:33.16	105.10	13.66	-24.9	-25.2	20.3	6.65e-01	0	37	0	26566721536	24	17694
2026-01-25 22:57:34.17	105.37	13.61	-25.3	-25.6	20.3	6.67e-01	0	37	0	26675773440	24	18534
2026-01-25 22:57:35.18	105.64	13.57	-25.2	-25.5	20.3	6.66e-01	0	37	0	26793213952	24	18330
2026-01-25 22:57:36.19	105.91	13.53	-25.0	-25.3	20.3	6.67e-01	0	37	0	26910654464	24	17886
2026-01-25 22:57:37.20	106.18	13.48	-24.8	-25.1	20.3	6.66e-01	0	37	0	27019706368	24	17513
2026-01-25 22:57:38.21	106.45	13.44	-25.5	-25.8	20.3	6.68e-01	0	37	0	27137146880	24	18903
2026-01-25 22:57:39.22	106.72	13.39	-24.8	-25.1	20.3	6.66e-01	0	37	0	27246198784	24	17460
2026-01-25 22:57:40.23	106.98	13.34	-24.9	-25.2	20.3	6.66e-01	0	37	0	27355250688	24	17603
2026-01-25 22:57:41.24	107.25	13.30	-24.9	-25.1	20.3	6.67e-01	0	37	0	27472691200	24	17579
2026-01-25 22:57:42.25	107.51	13.25	-25.2	-25.5	20.2	6.67e-01	0	37	0	27590131712	24	18274
2026-01-25 22:57:43.26	107.77	13.20	-24.8	-25.1	20.4	6.67e-01	0	37	0	27699183616	24	17453
2026-01-25 22:57:44.27	108.04	13.16	-25.8	-26.1	20.2	6.68e-01	0	37	0	27816624128	26	17512
2026-01-25 22:57:45.28	108.30	13.11	-25.0	-25.3	20.3	6.67e-01	0	37	0	27925676032	26	15974
2026-01-25 22:57:46.29	108.56	13.06	-24.9	-25.2	20.3	6.66e-01	0	37	0	28043116544	26	15743
2026-01-25 22:57:47.30	108.82	13.01	-25.3	-25.6	20.3	6.67e-01	0	37	0	28160557056	26	16509
2026-01-25 22:57:48.31	109.08	12.96	-24.9	-25.2	20.4	6.66e-01	0	37	0	28269608960	26	15807
2026-01-25 22:57:49.32	109.34	12.91	-25.0	-25.2	20.4	6.67e-01	0	37	0	28378660864	26	15858
2026-01-25 22:57:50.33	109.59	12.86	-25.0	-25.3	20.3	6.66e-01	0	37	0	28496101376	26	15947
2026-01-25 22:57:51.34	109.85	12.81	-25.2	-25.5	20.3	6.66e-01	0	37	0	28605153280	26	16310
2026-01-25 22:57:52.35	110.10	12.76	-25.2	-25.6	20.2	6.67e-01	0	37	0	28722593792	26	16444
2026-01-25 22:57:53.36	110.36	12.71	-25.6	-25.9	20.2	6.67e-01	0	37	0	28840034304	26	17135
2026-01-25 22:57:54.37	110.61	12.66	-25.1	-25.4	20.3	6.67e-01	0	37	0	28949086208	26	16142
2026-01-25 22:57:55.38	110.86	12.61	-26.2	-26.5	20.1	6.67e-01	0	37	0	29066526720	26	18232
2026-01-25 22:57:56.39	111.11	12.56	-25.1	-25.4	20.3	6.66e-01	0	37	0	29175578624	26	16077
2026-01-25 22:57:57.39	111.36	12.51	-25.3	-25.6	20.3	6.66e-01	0	37	0	29284630528	26	16553
2026-01-25 22:57:58.40	111.61	12.46	-25.1	-25.4	20.4	6.67e-01	0	37	0	29402071040	26	16067
2026-01-25 22:57:59.41	111.85	12.40	-25.1	-25.4	20.3	6.66e-01	0	37	0	29519511552	26	16125
2026-01-25 22:58:00.42	112.10	12.35	-25.2	-25.5	20.3	6.67e-01	0	37	0	29628563456	26	16338
2026-01-25 22:58:01.43	112.35	12.30	-25.3	-25.6	20.4	6.67e-01	0	37	0	29746003968	26	16456
2026-01-25 22:58:02.44	112.59	12.24	-25.6	-25.9	20.3	6.67e-01	0	37	0	29855055872	26	17006
2026-01-25 22:58:03.45	112.83	12.19	-25.6	-25.9	19.9	6.66e-01	0	37	0	29972496384	26	17032
2026-01-25 22:58:04.46	113.08	12.14	-26.5	-26.8	20.0	6.67e-01	0	37	0	30089936896	26	19035
2026-01-25 22:58:05.47	113.32	12.08	-25.9	-26.2	20.3	6.66e-01	0	37	0	30198988800	26	17703
2026-01-25 22:58:06.48	113.56	12.03	-26.8	-27.0	20.1	6.68e-01	0	37	0	30308040704	30	15364
2026-01-25 22:58:07.49	113.80	11.97	-26.4	-26.6	20.1	6.66e-01	0	37	0	30425481216	26	18603
2026-01-25 22:58:08.50	114.04	11.92	-26.6	-26.8	20.1	6.67e-01	0	37	0	30542921728	28	16937
2026-01-25 22:58:09.51	114.27	11.86	-25.5	-25.7	20.3	6.66e-01	0	37	0	30651973632	26	16709
2026-01-25 22:58:10.52	114.51	11.81	-25.3	-25.5	20.3	6.66e-01	0	37	0	30769414144	26	16381
2026-01-25 22:58:11.52	114.74	11.75	-27.3	-27.6	19.6	6.67e-01	0	37	0	30878466048	30	16492
2026-01-25 22:58:12.53	114.98	11.70	-25.5	-25.8	20.3	6.67e-01	0	37	0	30995906560	26	16895
2026-01-25 22:58:13.54	115.21	11.64	-26.1	-26.3	20.1	6.67e-01	0	37	0	31104958464	26	17918
2026-01-25 22:58:14.55	115.44	11.59	-26.9	-27.2	20.1	6.68e-01	0	37	0	31222398976	26	19939
2026-01-25 22:58:15.56	115.67	11.53	-27.7	-28.0	19.8	6.68e-01	0	37	0	31331450880	28	19430
2026-01-25 22:58:16.57	115.90	11.47	-25.6	-25.9	20.2	6.66e-01	0	37	0	31448891392	26	17166
2026-01-25 22:58:17.58	116.13	11.42	-26.6	-26.9	20.0	6.67e-01	0	37	0	31557943296	28	17018
2026-01-25 22:58:18.59	116.36	11.36	-26.9	-27.1	20.1	6.67e-01	0	37	0	31675383808	30	15598
2026-01-25 22:58:19.60	116.59	11.30	-27.3	-27.6	19.9	6.68e-01	0	37	0	31792824320	26	20837
2026-01-25 22:58:20.61	116.81	11.24	-25.6	-25.9	20.3	6.66e-01	0	37	0	31901876224	26	17095
2026-01-25 22:58:21.62	117.04	11.19	-26.0	-26.3	20.1	6.67e-01	0	37	0	32019316736	26	17846
2026-01-25 22:58:22.63	117.26	11.13	-25.8	-26.1	20.2	6.66e-01	0	37	0	32128368640	26	17420
2026-01-25 22:58:23.64	117.48	11.07	-26.0	-26.3	20.0	6.67e-01	0	37	0	32237420544	26	17876
2026-01-25 22:58:24.65	117.71	11.01	-25.9	-26.2	20.2	6.67e-01	0	37	0	32363249664	26	17766
2026-01-25 22:58:25.65	117.93	10.96	-25.7	-26.0	20.3	6.66e-01	0	37	0	32472301568	26	17278
2026-01-25 22:58:26.67	118.15	10.90	-25.5	-25.8	20.3	6.66e-01	0	37	0	32581353472	26	16872
2026-01-25 22:58:27.67	118.36	10.84	-25.9	-26.2	20.0	6.67e-01	0	37	0	32698793984	28	15855
2026-01-25 22:58:28.68	118.58	10.78	-27.1	-27.3	20.1	6.68e-01	0	37	0	32807845888	28	17937
2026-01-25 22:58:29.69	118.80	10.72	-25.8	-26.1	20.3	6.66e-01	0	37	0	32925286400	28	15646
2026-01-25 22:58:30.70	119.01	10.66	-25.9	-26.2	20.2	6.68e-01	0	37	0	33042726912	26	17762
2026-01-25 22:58:31.71	119.23	10.60	-25.8	-26.1	20.2	6.66e-01	0	37	0	33151778816	26	17479
2026-01-25 22:58:32.72	119.44	10.55	-25.6	-25.9	20.3	6.66e-01	0	37	0	33260830720	26	17153
2026-01-25 22:58:33.73	119.66	10.49	-25.8	-26.1	20.2	6.67e-01	0	37	0	33378271232	26	17476
2026-01-25 22:58:34.74	119.87	10.43	-25.7	-26.0	20.2	6.67e-01	0	37	0	33487323136	26	17389
2026-01-25 22:58:35.75	120.08	10.37	-25.7	-26.0	20.2	6.68e-01	0	37	0	33604763648	26	17213
2026-01-25 22:58:36.76	120.29	10.31	-26.0	-26.3	20.1	6.68e-01	0	37	0	33722204160	26	17900
2026-01-25 22:58:37.77	120.50	10.25	-25.7	-26.0	20.2	6.67e-01	0	37	0	33831256064	26	17286
2026-01-25 22:58:38.78	120.70	10.19	-25.7	-26.0	20.2	6.69e-01	0	37	0	33948696576	26	17289
2026-01-25 22:58:39.79	120.91	10.13	-26.0	-26.3	20.2	6.67e-01	0	37	0	34057748480	26	17858
2026-01-25 22:58:40.80	121.12	10.07	-26.0	-26.3	20.1	6.69e-01	0	37	0	34175188992	26	17958
2026-01-25 22:58:41.81	121.32	10.01	-27.2	-27.5	20.2	6.69e-01	0	37	0	34292629504	28	18355
2026-01-25 22:58:42.82	121.53	9.95	-49.8	-52.5	6.1	7.54e-01	0	36	104	34309406720	60	51535
2026-01-25 22:58:43.83	121.73	9.89	-49.7	-52.4	6.1	7.55e-01	0	37	104	34309406720	60	50980
2026-01-25 22:58:44.84	121.93	9.83	-49.8	-52.4	6.1	7.54e-01	0	36	104	34309406720	60	51273
2026-01-25 22:58:45.85	122.13	9.77	-49.8	-52.5	6.1	7.55e-01	0	36	104	34309406720	60	51625
2026-01-25 22:58:46.86	122.33	9.71	-50.0	-52.4	6.1	7.55e-01	0	36	104	34309406720	60	51314
2026-01-25 22:58:47.86	122.53	9.65	-50.0	-52.5	6.0	7.54e-01	0	36	104	34309406720	60	51405
2026-01-25 22:58:48.87	122.73	9.58	-50.1	-52.6	6.1	7.54e-01	0	36	104	34309406720	60	52286
2026-01-25 22:58:49.88	122.92	9.52	-49.6	-52.2	6.1	7.54e-01	0	36	104	34309406720	60	50058
2026-01-25 22:58:50.89	123.12	9.46	-49.9	-52.3	6.1	7.53e-01	0	36	104	34309406720	60	50712
2026-01-25 22:58:51.90	123.32	9.40	-49.8	-52.3	6.1	7.54e-01	0	36	104	34309406720	60	50239
2026-01-25 22:58:52.91	123.51	9.34	-49.7	-52.2	6.1	7.54e-01	0	36	104	34309406720	60	49764
2026-01-25 22:58:53.92	123.70	9.28	-49.6	-52.3	6.1	7.55e-01	0	36	104	34309406720	60	50202
2026-01-25 22:58:54.93	123.90	9.22	-49.8	-52.2	6.1	7.54e-01	0	36	104	34309406720	60	49772
2026-01-25 22:58:55.94	124.09	9.16	-49.8	-52.3	6.1	7.54e-01	0	36	104	34309406720	60	50330
2026-01-25 22:58:56.95	124.28	9.10	-49.6	-52.1	6.1	7.55e-01	0	36	104	34309406720	60	49516
2026-01-25 22:58:57.96	124.47	9.04	-49.0	-51.7	6.1	7.54e-01	0	36	104	34309406720	60	47209
2026-01-25 22:58:58.97	124.65	8.97	-49.8	-52.3	6.1	7.56e-01	0	36	104	34309406720	60	50657
2026-01-25 22:58:59.98	124.84	8.91	-49.8	-52.3	6.1	7.54e-01	0	36	104	34309406720	60	50540
2026-01-25 22:59:00.99	125.03	8.85	-49.9	-52.4	6.1	7.53e-01	0	36	104	34309406720	60	51176
2026-01-25 22:59:02.00	125.22	8.79	-49.1	-51.7	6.1	7.54e-01	0	36	104	34309406720	60	47296
2026-01-25 22:59:03.01	125.40	8.73	-49.1	-51.7	6.1	7.54e-01	0	36	104	34309406720	60	46976
2026-01-25 22:59:04.02	125.58	8.67	-49.2	-51.8	6.1	7.54e-01	0	36	104	34309406720	60	47678
2026-01-25 22:59:05.03	125.77	8.61	-49.6	-52.1	6.1	7.54e-01	0	36	104	34309406720	60	49322
2026-01-25 22:59:06.03	125.95	8.54	-49.6	-52.1	6.1	7.54e-01	0	36	104	34309406720	60	49376
2026-01-25 22:59:07.04	126.13	8.48	-49.7	-52.1	6.1	7.54e-01	0	36	104	34309406720	60	49562
2026-01-25 22:59:08.05	126.31	8.42	-49.6	-52.1	6.1	7.55e-01	0	36	104	34309406720	60	49469
2026-01-25 22:59:09.06	126.49	8.36	-49.7	-52.2	6.1	7.54e-01	0	36	104	34309406720	60	49712
2026-01-25 22:59:10.07	126.67	8.30	-49.7	-52.2	6.1	7.55e-01	0	36	104	34309406720	60	49781
2026-01-25 22:59:11.08	126.84	8.24	-49.5	-52.0	6.1	7.54e-01	0	36	104	34309406720	60	48873
2026-01-25 22:59:12.09	127.02	8.18	-49.5	-52.1	6.1	7.54e-01	0	36	104	34309406720	60	49342
2026-01-25 22:59:13.10	127.20	8.11	-49.6	-52.1	6.1	7.53e-01	0	36	104	34309406720	60	49140
2026-01-25 22:59:14.11	127.37	8.05	-49.6	-52.1	6.1	7.54e-01	0	36	104	34309406720	60	49386
2026-01-25 22:59:15.12	127.55	7.99	-49.7	-52.2	6.1	7.54e-01	0	36	104	34309406720	60	49864
2026-01-25 22:59:16.13	127.72	7.93	-49.5	-52.1	6.1	7.54e-01	0	36	104	34309406720	60	49486
2026-01-25 22:59:17.14	127.89	7.87	-49.6	-52.2	6.1	7.56e-01	0	36	104	34309406720	60	49640
2026-01-25 22:59:18.14	128.06	7.81	-49.5	-52.0	6.1	7.55e-01	0	36	104	34309406720	60	49016
2026-01-25 22:59:19.15	128.23	7.74	-49.7	-52.2	6.1	7.54e-01	0	36	104	34309406720	60	49864
2026-01-25 22:59:20.16	128.40	7.68	-49.6	-52.0	6.1	7.54e-01	0	36	104	34309406720	60	48978
2026-01-25 22:59:21.17	128.57	7.62	-49.7	-52.2	6.1	7.53e-01	0	36	104	34309406720	60	49776
2026-01-25 22:59:22.18	128.74	7.56	-49.5	-52.0	6.1	7.54e-01	0	36	104	34309406720	60	48705
2026-01-25 22:59:23.19	128.91	7.50	-49.6	-52.2	6.1	7.54e-01	0	36	104	34309406720	60	49722
2026-01-25 22:59:24.20	129.07	7.44	-49.6	-52.2	6.1	7.54e-01	0	36	104	34309406720	60	49814
2026-01-25 22:59:25.21	129.24	7.37	-49.5	-52.0	6.1	7.54e-01	0	36	104	34309406720	60	48865
2026-01-25 22:59:26.22	129.40	7.31	-49.6	-52.1	6.1	7.54e-01	0	36	104	34309406720	60	49436
2026-01-25 22:59:27.23	129.57	7.25	-49.5	-52.0	6.1	7.53e-01	0	36	104	34309406720	60	49010
2026-01-25 22:59:28.24	129.73	7.19	-49.5	-52.1	6.1	7.55e-01	0	36	104	34309406720	60	49091
2026-01-25 22:59:29.25	129.89	7.13	-49.5	-52.0	6.1	7.54e-01	0	36	104	34309406720	60	48745
2026-01-25 22:59:30.26	130.06	7.07	-49.5	-51.9	6.1	7.54e-01	0	36	104	34309406720	60	48268
2026-01-25 22:59:31.27	130.22	7.01	-49.7	-52.1	6.1	7.54e-01	0	36	104	34309406720	60	49572
2026-01-25 22:59:32.27	130.38	6.94	-49.6	-52.1	6.1	7.53e-01	0	36	104	34309406720	60	49349
2026-01-25 22:59:33.28	130.53	6.88	-49.7	-52.1	6.1	7.55e-01	0	36	104	34309406720	60	49487
2026-01-25 22:59:34.29	130.69	6.82	-49.7	-52.1	6.1	7.54e-01	0	36	104	34309406720	60	49541
2026-01-25 22:59:35.30	130.85	6.76	-49.6	-52.1	6.1	7.54e-01	0	36	104	34309406720	60	49406
2026-01-25 22:59:36.31	131.01	6.70	-49.4	-52.0	6.1	7.54e-01	0	36	104	34309406720	60	48768
2026-01-25 22:59:37.32	131.16	6.64	-49.7	-52.2	6.1	7.55e-01	0	36	104	34309406720	60	49819
2026-01-25 22:59:38.33	131.32	6.58	-49.5	-52.0	6.1	7.53e-01	0	36	104	34309406720	60	48862
2026-01-25 22:59:39.34	131.47	6.52	-49.7	-52.1	6.1	7.54e-01	0	36	104	34309406720	60	49590
2026-01-25 22:59:40.35	131.63	6.45	-49.6	-52.1	6.1	7.54e-01	0	36	104	34309406720	60	49314
2026-01-25 22:59:41.36	131.78	6.39	-49.7	-52.2	6.1	7.55e-01	0	36	104	34309406720	60	49925
2026-01-25 22:59:42.36	131.93	6.33	-49.4	-51.9	6.1	7.55e-01	0	36	104	34309406720	60	48244
2026-01-25 22:59:43.37	132.08	6.27	-49.5	-52.0	6.1	7.55e-01	0	36	104	34309406720	60	48905
2026-01-25 22:59:44.38	132.23	6.21	-49.4	-52.0	6.1	7.54e-01	0	36	104	34309406720	60	48530
2026-01-25 22:59:45.39	132.38	6.15	-49.6	-52.1	6.1	7.55e-01	0	36	104	34309406720	60	49272
2026-01-25 22:59:46.40	132.53	6.09	-49.7	-52.2	6.1	7.55e-01	0	36	104	34309406720	60	49851
2026-01-25 22:59:47.41	132.68	6.03	-49.5	-52.0	6.0	7.55e-01	0	36	104	34309406720	60	48830
2026-01-25 22:59:48.42	132.83	5.97	-49.7	-52.1	6.1	7.54e-01	0	36	104	34309406720	60	49430
2026-01-25 22:59:49.43	132.98	5.91	-49.4	-51.9	6.1	7.55e-01	0	36	104	34309406720	60	48102
2026-01-25 22:59:50.44	133.12	5.84	-49.4	-51.9	6.1	7.56e-01	0	36	104	34309406720	60	48219
2026-01-25 22:59:51.45	133.27	5.78	-49.5	-52.1	6.1	7.54e-01	0	36	104	34309406720	60	49116
2026-01-25 22:59:52.46	133.41	5.72	-49.5	-52.0	6.1	7.55e-01	0	36	104	34309406720	60	48602
2026-01-25 22:59:53.47	133.56	5.66	-49.4	-51.8	6.1	7.55e-01	0	36	104	34309406720	60	47913
2026-01-25 22:59:54.47	133.70	5.60	-49.4	-51.9	6.1	7.54e-01	0	36	104	34309406720	60	48422
2026-01-25 22:59:55.48	133.84	5.54	-49.5	-52.0	6.1	7.54e-01	0	36	104	34309406720	60	48771
2026-01-25 22:59:56.49	133.98	5.48	-49.5	-52.0	6.1	7.54e-01	0	36	104	34309406720	60	49009
2026-01-25 22:59:57.50	134.12	5.42	-49.5	-52.0	6.0	7.54e-01	0	36	104	34309406720	60	48618
2026-01-25 22:59:58.51	134.26	5.36	-49.5	-52.0	6.1	7.54e-01	0	36	104	34309406720	60	48646
2026-01-25 22:59:59.51	134.40	5.30	-49.6	-52.1	6.1	7.54e-01	0	36	104	34309406720	60	49060
2026-01-25 23:00:00.52	134.54	5.24	-49.6	-52.1	6.1	7.55e-01	0	36	104	34309406720	60	49112
2026-01-25 23:00:01.53	134.68	5.18	-49.6	-52.1	6.1	7.54e-01	0	36	104	34309406720	60	49110
2026-01-25 23:00:02.54	134.82	5.12	-49.4	-51.9	6.1	7.54e-01	0	36	104	34309406720	60	48396
2026-01-25 23:00:03.55	134.96	5.06	-49.5	-52.1	6.1	7.53e-01	0	36	104	34309406720	60	49172
2026-01-25 23:00:04.56	135.09	5.00	-49.3	-51.8	6.0	7.54e-01	0	36	104	34309406720	60	47749
2026-01-25 23:00:05.57	135.23	4.94	-49.4	-51.9	6.1	7.55e-01	0	36	104	34309406720	60	48148
2026-01-25 23:00:06.57	135.36	4.88	-49.3	-51.8	6.1	7.54e-01	0	36	104	34309406720	60	47513
2026-01-25 23:00:07.59	135.50	4.82	-49.4	-51.9	6.0	7.54e-01	0	36	104	34309406720	60	48177
2026-01-25 23:00:08.59	135.63	4.76	-49.3	-51.8	6.1	7.54e-01	0	36	104	34309406720	60	47869
2026-01-25 23:00:09.60	135.76	4.70	-49.2	-51.7	6.1	7.54e-01	0	36	104	34309406720	60	47301
2026-01-25 23:00:10.61	135.90	4.64	-49.3	-51.9	6.1	7.55e-01	0	36	104	34309406720	60	48022
2026-01-25 23:00:11.62	136.03	4.58	-49.4	-51.9	6.1	7.54e-01	0	36	104	34309406720	60	48445
2026-01-25 23:00:12.63	136.16	4.52	-49.3	-51.8	6.1	7.53e-01	0	36	104	34309406720	60	47806
2026-01-25 23:00:13.64	136.29	4.46	-49.3	-51.8	6.1	7.54e-01	0	36	104	34309406720	60	47480
2026-01-25 23:00:14.65	136.42	4.40	-49.5	-52.0	6.1	7.53e-01	0	36	104	34309406720	60	48509
2026-01-25 23:00:15.66	136.55	4.35	-49.1	-51.6	6.1	7.54e-01	0	36	104	34309406720	60	46681
2026-01-25 23:00:16.67	136.68	4.29	-49.3	-51.8	6.1	7.53e-01	0	36	104	34309406720	60	47766
2026-01-25 23:00:17.68	136.81	4.23	-49.4	-51.8	6.1	7.55e-01	0	36	104	34309406720	60	47819
2026-01-25 23:00:18.69	136.94	4.17	-49.2	-51.7	6.1	7.54e-01	0	36	104	34309406720	60	47302
2026-01-25 23:00:19.70	137.06	4.11	-49.2	-51.6	6.1	7.53e-01	0	36	104	34309406720	60	46696
2026-01-25 23:00:20.71	137.19	4.05	-49.2	-51.7	6.1	7.55e-01	0	36	104	34309406720	60	46939
2026-01-25 23:00:21.72	137.31	3.99	-49.2	-51.6	6.1	7.53e-01	0	36	104	34309406720	60	46589
2026-01-25 23:00:22.73	137.44	3.93	-49.5	-52.0	6.1	7.55e-01	0	36	104	34309406720	60	48529
2026-01-25 23:00:23.74	137.56	3.87	-49.5	-52.0	6.1	7.57e-01	0	36	104	34309406720	60	48677
2026-01-25 23:00:24.75	137.69	3.81	-49.3	-51.8	6.1	7.54e-01	0	36	104	34309406720	60	47596
2026-01-25 23:00:25.76	137.81	3.76	-49.2	-51.6	6.1	7.55e-01	0	36	104	34309406720	60	46751
2026-01-25 23:00:26.77	137.93	3.70	-49.3	-51.7	6.1	7.54e-01	0	36	104	34309406720	60	47346
2026-01-25 23:00:27.78	138.06	3.64	-49.1	-51.5	6.1	7.55e-01	0	36	104	34309406720	60	46294
2026-01-25 23:00:28.79	138.18	3.58	-49.2	-51.7	6.1	7.55e-01	0	36	104	34309406720	60	47116
2026-01-25 23:00:29.80	138.30	3.52	-48.9	-51.4	6.1	7.55e-01	0	36	104	34309406720	60	45414
2026-01-25 23:00:30.81	138.42	3.46	-49.2	-51.7	6.1	7.55e-01	0	36	104	34309406720	60	47091
2026-01-25 23:00:31.82	138.54	3.40	-48.9	-51.4	6.1	7.53e-01	0	36	104	34309406720	60	45454
2026-01-25 23:00:32.83	138.66	3.35	-49.1	-51.6	6.0	7.55e-01	0	36	104	34309406720	60	46617
2026-01-25 23:00:33.84	138.78	3.29	-48.8	-51.3	6.1	7.55e-01	0	36	104	34309406720	60	44823
2026-01-25 23:00:34.85	138.90	3.23	-49.2	-51.6	6.1	7.53e-01	0	36	104	34309406720	60	46748
2026-01-25 23:00:35.86	139.01	3.17	-48.6	-51.0	6.1	7.53e-01	0	36	104	34309406720	60	43595
2026-01-25 23:00:36.87	139.13	3.11	-49.1	-51.6	6.1	7.54e-01	0	36	104	34309406720	60	46306
2026-01-25 23:00:37.88	139.25	3.06	-48.5	-51.0	6.1	7.55e-01	0	36	104	34309406720	60	43329
2026-01-25 23:00:38.89	139.36	3.00	-49.6	-52.0	6.1	7.55e-01	0	36	104	34309406720	60	48595
2026-01-25 23:00:39.90	139.48	2.94	-49.7	-52.2	6.1	7.54e-01	0	36	104	34309406720	60	49658
2026-01-25 23:00:40.91	139.59	2.88	-50.0	-52.5	6.1	7.55e-01	0	36	104	34309406720	60	51678
2026-01-25 23:00:41.92	139.71	2.83	-50.1	-52.5	6.1	7.54e-01	0	36	104	34309406720	60	51945
2026-01-25 23:00:42.92	139.82	2.77	-50.1	-52.6	6.1	7.54e-01	0	36	104	34309406720	60	52383
2026-01-25 23:00:43.93	139.93	2.71	-50.3	-52.7	6.1	7.54e-01	0	36	104	34309406720	60	53033
2026-01-25 23:00:44.95	140.05	2.65	-50.1	-52.6	6.1	7.54e-01	0	36	104	34309406720	60	52150
2026-01-25 23:00:45.96	140.16	2.60	-50.3	-52.8	6.1	7.54e-01	0	36	104	34309406720	60	53415
2026-01-25 23:00:46.97	140.27	2.54	-50.3	-52.8	6.1	7.54e-01	0	36	104	34309406720	60	53502
2026-01-25 23:00:47.98	140.38	2.48	-50.5	-53.0	6.1	7.55e-01	0	36	104	34309406720	60	54658
2026-01-25 23:00:48.99	140.49	2.43	-50.4	-52.9	6.1	7.54e-01	0	36	104	34309406720	60	54002
2026-01-25 23:00:50.00	140.60	2.37	-50.3	-52.7	6.1	7.54e-01	0	36	104	34309406720	60	53032
2026-01-25 23:00:51.01	140.71	2.31	-50.4	-52.9	6.1	7.54e-01	0	36	104	34309406720	60	53849
2026-01-25 23:00:52.02	140.82	2.26	-50.3	-52.8	6.1	7.55e-01	0	36	104	34309406720	60	53396
2026-01-25 23:00:53.03	140.93	2.20	-50.4	-52.8	6.1	7.55e-01	0	36	104	34309406720	60	53528
2026-01-25 23:00:54.04	141.04	2.14	-50.3	-52.8	6.1	7.54e-01	0	36	104	34309406720	60	53594
2026-01-25 23:00:55.05	141.15	2.09	-50.3	-52.8	6.1	7.54e-01	0	36	104	34309406720	60	53416
2026-01-25 23:00:56.06	141.25	2.03	-50.3	-52.7	6.1	7.55e-01	0	36	104	34309406720	60	53005
2026-01-25 23:00:57.07	141.36	1.97	-50.2	-52.7	6.1	7.54e-01	0	36	104	34309406720	60	53019
2026-01-25 23:00:58.07	141.47	1.92	-50.2	-52.7	6.1	7.54e-01	0	36	104	34309406720	60	52771
2026-01-25 23:00:59.08	141.57	1.86	-50.3	-52.8	6.1	7.54e-01	0	36	104	34309406720	60	53233
2026-01-25 23:01:00.09	141.68	1.80	-50.3	-52.8	6.1	7.54e-01	0	36	104	34309406720	60	53338
2026-01-25 23:01:01.10	141.78	1.75	-50.2	-52.6	6.1	7.55e-01	0	36	104	34309406720	60	52154
2026-01-25 23:01:02.11	141.89	1.69	-50.3	-52.7	6.1	7.55e-01	0	36	104	34309406720	60	53071
2026-01-25 23:01:03.12	141.99	1.64	-50.4	-52.9	6.1	7.53e-01	0	36	104	34309406720	60	53922
2026-01-25 23:01:04.13	142.09	1.58	-50.4	-52.9	6.1	7.53e-01	0	36	104	34309406720	60	54224
2026-01-25 23:01:05.14	142.20	1.52	-50.5	-53.0	6.1	7.55e-01	0	36	104	34309406720	60	54718
2026-01-25 23:01:06.15	142.30	1.47	-50.5	-53.0	6.1	7.54e-01	0	36	104	34309406720	60	54501
2026-01-25 23:01:07.16	142.40	1.41	-50.5	-53.0	6.1	7.54e-01	0	36	104	34309406720	60	54767
2026-01-25 23:01:08.17	142.50	1.36	-50.5	-53.0	6.1	7.55e-01	0	36	104	34309406720	60	54805
2026-01-25 23:01:09.18	142.60	1.30	-50.7	-53.1	6.1	7.54e-01	0	36	104	34309406720	60	55212
2026-01-25 23:01:10.19	142.70	1.25	-50.8	-53.3	6.1	7.54e-01	0	36	104	34309406720	60	56505
2026-01-25 23:01:11.20	142.80	1.19	-50.6	-53.1	6.1	7.55e-01	0	36	104	34309406720	60	55193
2026-01-25 23:01:12.21	142.90	1.14	-50.8	-53.3	6.1	7.54e-01	0	36	104	34309406720	60	56747
2026-01-25 23:01:13.22	143.00	1.08	-50.8	-53.2	6.1	7.53e-01	0	36	104	34309406720	60	56223
2026-01-25 23:01:14.23	143.10	1.02	-50.6	-53.0	6.1	7.54e-01	0	36	104	34309406720	60	55001
2026-01-25 23:01:15.24	143.20	0.97	-50.6	-53.1	6.1	7.55e-01	0	36	104	34309406720	60	55352
2026-01-25 23:01:16.25	143.30	0.91	-51.2	-53.7	6.1	7.54e-01	0	36	104	34309406720	60	59193
2026-01-25 23:01:17.26	143.40	0.86	-50.9	-53.4	6.1	7.54e-01	0	36	104	34309406720	60	57042
2026-01-25 23:01:18.27	143.49	0.81	-51.1	-53.6	6.1	7.55e-01	0	36	104	34309406720	60	58481
2026-01-25 23:01:19.27	143.59	0.75	-51.0	-53.5	6.1	7.54e-01	0	36	104	34309406720	60	57883
2026-01-25 23:01:20.28	143.68	0.70	-51.2	-53.6	6.1	7.53e-01	0	36	104	34309406720	60	58664
2026-01-25 23:01:21.29	143.78	0.64	-51.1	-53.5	6.1	7.54e-01	0	36	104	34309406720	60	58223
2026-01-25 23:01:22.30	143.88	0.59	-51.0	-53.5	6.1	7.55e-01	0	36	104	34309406720	60	58048
2026-01-25 23:01:23.31	143.97	0.53	-51.2	-53.7	6.1	7.54e-01	0	36	104	34309406720	60	58980
2026-01-25 23:01:24.32	144.07	0.48	-50.9	-53.4	6.1	7.55e-01	0	36	104	34309406720	60	57094
2026-01-25 23:01:25.33	144.16	0.42	-51.1	-53.6	6.1	7.55e-01	0	36	104	34309406720	60	58571
2026-01-25 23:01:26.34	144.25	0.37	-51.3	-53.8	6.1	7.54e-01	0	36	104	34309406720	60	60003
2026-01-25 23:01:27.35	144.35	0.32	-51.2	-53.7	6.1	7.55e-01	0	36	104	34309406720	60	59165
2026-01-25 23:01:28.36	144.44	0.26	-50.9	-53.3	6.1	7.55e-01	0	36	104	34309406720	60	56822
2026-01-25 23:01:29.37	144.53	0.21	-50.9	-53.5	6.1	7.54e-01	0	36	104	34309406720	60	57702
2026-01-25 23:01:30.38	144.62	0.15	-51.4	-53.9	6.1	7.53e-01	0	36	104	34309406720	60	60420
2026-01-25 23:01:31.39	144.72	0.10	-51.0	-53.4	6.1	7.54e-01	0	36	104	34309406720	60	57399
2026-01-25 23:01:32.39	144.81	0.05	-51.2	-53.6	6.1	7.54e-01	0	36	104	34309406720	60	58864
2026-01-25 23:01:33.40	144.90	-0.01	-51.1	-53.6	6.1	7.54e-01	0	36	104	34309406720	60	58510
2026-01-25 23:01:34.42	144.99	-0.06	-51.0	-53.5	6.1	7.55e-01	0	36	104	34309406720	60	57990

#Closed at: 2026-01-25 23:01:34
#Recorded file [34309 MB]: D:/lorett/data/35029_260126_105112.dat