passes_logs/2026/01/25/R4.6S_Anadyr/R4.6S_Anadyr__20260125_163735_SUOMI_NPP_rec.log

#Pass ID: 20260125_163735_SUOMI NPP
#Satellite: SUOMI NPP
#Configuration: NPP
#almurnet v.1.7.20251203
#Start time: 2026-01-25 16:37:35

#Version: 2.2.20231116
#Station: R4.6S_Anadyr
#Location: 177.4865 lon 64.73178 lat
#TLE: 1 37849U 11061A   26025.32440757  .00000181  00000+0  10697-3 0  9992
#TLE: 2 37849  98.7822 327.2846 0002175  45.9958 314.1397 14.19529737738178

#Time	Az	El	Level	Level2	SNR	BER	BlckErr	Temp	State	Recorded	gain1	gain2
2026-01-25 16:37:35.91	26.68	0.03	-50.1	-61.8	3.5	8.45e-01	0	38	0	0	60	44299
2026-01-25 16:37:36.92	26.63	0.09	-50.8	-66.0	3.6	1.51e+00	0	39	104	0	60	72334
2026-01-25 16:37:37.93	26.59	0.15	-50.8	-66.0	3.6	1.51e+00	0	40	104	0	60	72116
2026-01-25 16:37:38.94	26.55	0.20	-50.9	-66.1	3.6	1.51e+00	0	40	104	0	60	72889
2026-01-25 16:37:39.95	26.51	0.26	-50.9	-66.1	3.6	1.51e+00	0	39	104	0	60	72884
2026-01-25 16:37:40.96	26.46	0.32	-50.9	-66.1	3.6	1.51e+00	0	40	104	0	60	73046
2026-01-25 16:37:41.97	26.42	0.38	-50.9	-66.1	3.6	1.51e+00	0	40	104	0	60	73098
2026-01-25 16:37:42.98	26.38	0.43	-50.9	-66.1	3.6	1.51e+00	0	40	104	0	60	73318
2026-01-25 16:37:43.99	26.33	0.49	-50.9	-66.1	3.6	1.51e+00	0	40	104	0	60	72878
2026-01-25 16:37:45.00	26.29	0.55	-50.9	-66.1	3.6	1.51e+00	0	40	104	0	60	73165
2026-01-25 16:37:46.00	26.25	0.61	-50.9	-66.1	3.6	1.51e+00	0	40	104	0	60	73209
2026-01-25 16:37:47.01	26.20	0.66	-50.9	-66.1	3.6	1.51e+00	0	40	104	0	60	72976
2026-01-25 16:37:48.02	26.16	0.72	-50.9	-66.1	3.6	1.51e+00	0	40	104	0	60	72839
2026-01-25 16:37:49.03	26.11	0.78	-50.8	-66.0	3.6	1.51e+00	0	40	104	0	60	72200
2026-01-25 16:37:50.04	26.07	0.84	-50.8	-66.0	3.6	1.51e+00	0	40	104	0	60	71849
2026-01-25 16:37:51.05	26.03	0.90	-50.7	-65.9	3.6	1.51e+00	0	40	104	0	60	71425
2026-01-25 16:37:52.07	25.98	0.96	-50.6	-65.8	3.6	1.51e+00	0	40	104	0	60	70515
2026-01-25 16:37:53.08	25.93	1.01	-50.5	-65.7	3.6	1.51e+00	0	40	104	0	60	69833
2026-01-25 16:37:54.09	25.89	1.07	-50.4	-65.6	3.6	1.51e+00	0	40	104	0	60	69226
2026-01-25 16:37:55.10	25.84	1.13	-50.3	-65.5	3.6	1.51e+00	0	40	104	0	60	68116
2026-01-25 16:37:56.11	25.80	1.19	-50.2	-65.4	3.6	1.51e+00	0	40	104	0	60	67595
2026-01-25 16:37:57.12	25.75	1.25	-50.1	-65.3	3.5	1.51e+00	0	40	104	0	60	66568
2026-01-25 16:37:58.13	25.71	1.31	-49.9	-65.1	3.6	1.51e+00	0	40	104	0	60	65183
2026-01-25 16:37:59.14	25.66	1.37	-49.7	-64.8	3.6	1.51e+00	0	40	104	0	60	63016
2026-01-25 16:38:00.15	25.61	1.43	-49.4	-64.6	3.6	1.51e+00	0	40	104	0	60	61275
2026-01-25 16:38:01.16	25.57	1.49	-49.4	-64.6	3.6	1.51e+00	0	40	104	0	60	61057
2026-01-25 16:38:02.17	25.52	1.55	-49.4	-64.6	3.6	1.51e+00	0	40	104	0	60	61245
2026-01-25 16:38:03.18	25.47	1.61	-49.4	-64.5	3.6	1.51e+00	0	40	104	0	60	60817
2026-01-25 16:38:04.19	25.43	1.66	-49.4	-64.6	3.6	1.51e+00	0	40	104	0	60	61100
2026-01-25 16:38:05.20	25.38	1.72	-49.4	-64.6	3.6	1.51e+00	0	40	104	0	60	61190
2026-01-25 16:38:06.21	25.33	1.78	-49.4	-64.6	3.6	1.51e+00	0	40	104	0	60	61115
2026-01-25 16:38:07.22	25.28	1.84	-49.4	-64.6	3.6	1.51e+00	0	40	104	0	60	61328
2026-01-25 16:38:08.22	25.23	1.90	-49.4	-64.5	3.6	1.51e+00	0	40	104	0	60	61024
2026-01-25 16:38:09.23	25.19	1.96	-49.4	-64.5	3.6	1.51e+00	0	40	104	0	60	61016
2026-01-25 16:38:10.24	25.14	2.02	-49.3	-64.4	3.6	1.51e+00	0	40	104	0	60	59881
2026-01-25 16:38:11.25	25.09	2.08	-49.4	-64.4	3.6	1.51e+00	0	40	104	0	60	60227
2026-01-25 16:38:12.26	25.04	2.15	-49.3	-64.4	3.6	1.51e+00	0	40	104	0	60	59940
2026-01-25 16:38:13.27	24.99	2.21	-49.3	-64.4	3.6	1.51e+00	0	40	104	0	60	60210
2026-01-25 16:38:14.28	24.94	2.27	-49.3	-64.5	3.6	1.51e+00	0	40	104	0	60	60483
2026-01-25 16:38:15.29	24.89	2.33	-49.4	-64.6	3.6	1.51e+00	0	40	104	0	60	61115
2026-01-25 16:38:16.30	24.84	2.39	-49.4	-64.6	3.6	1.51e+00	0	40	104	0	60	61290
2026-01-25 16:38:17.31	24.79	2.45	-49.4	-64.6	3.6	1.51e+00	0	40	104	0	60	61238
2026-01-25 16:38:18.32	24.74	2.51	-49.4	-64.6	3.6	1.51e+00	0	40	104	0	60	61081
2026-01-25 16:38:19.33	24.69	2.57	-49.4	-64.5	3.6	1.51e+00	0	40	104	0	60	60683
2026-01-25 16:38:20.34	24.64	2.63	-49.3	-64.4	3.6	1.51e+00	0	40	104	0	60	59705
2026-01-25 16:38:21.35	24.59	2.69	-49.3	-64.2	3.6	1.51e+00	0	40	104	0	60	58398
2026-01-25 16:38:22.35	24.54	2.76	-49.3	-63.9	3.6	1.51e+00	0	40	104	0	60	56793
2026-01-25 16:38:23.36	24.49	2.82	-49.3	-63.8	3.6	1.51e+00	0	40	104	0	60	56065
2026-01-25 16:38:24.37	24.44	2.88	-49.3	-64.0	3.6	1.51e+00	0	40	104	0	60	57045
2026-01-25 16:38:25.38	24.38	2.94	-49.4	-64.3	3.6	1.51e+00	0	40	104	0	60	59485
2026-01-25 16:38:26.39	24.33	3.00	-49.4	-64.6	3.6	1.51e+00	0	40	104	0	60	61072
2026-01-25 16:38:27.40	24.28	3.07	-49.3	-63.6	3.6	1.51e+00	0	40	104	0	60	54558
2026-01-25 16:38:28.41	24.23	3.13	-49.2	-61.0	4.1	1.46e+00	0	40	104	0	60	40444
2026-01-25 16:38:29.42	24.17	3.19	-48.9	-57.4	5.6	6.89e-01	0	40	0	0	60	26815
2026-01-25 16:38:30.43	24.12	3.25	-48.4	-54.7	8.0	1.83e-01	0	40	0	2097152	60	19686
2026-01-25 16:38:31.44	24.07	3.32	-47.8	-52.7	10.4	2.68e-02	0	40	0	4194304	60	15590
2026-01-25 16:38:32.45	24.01	3.38	-47.5	-52.0	11.3	6.37e-03	22	40	0	6291456	60	14397
2026-01-25 16:38:33.46	23.96	3.44	-46.8	-50.5	12.9	2.20e-06	0	40	0	8388608	60	12089
2026-01-25 16:38:34.47	23.90	3.50	-47.8	-52.9	7.0	5.11e-05	92	40	0	9437184	60	15959
2026-01-25 16:38:35.48	23.85	3.57	-48.3	-54.5	5.4	1.48e+00	24	40	104	10485760	60	19197
2026-01-25 16:38:36.49	23.80	3.63	-46.7	-50.4	10.8	2.25e-02	0	40	104	10485760	60	12026
2026-01-25 16:38:37.50	23.74	3.69	-48.9	-57.6	4.7	1.51e+00	0	40	104	10485760	60	27418
2026-01-25 16:38:38.51	23.69	3.76	-45.2	-47.7	16.0	3.40e-01	0	40	104	10485760	60	8723
2026-01-25 16:38:39.52	23.63	3.82	-45.5	-48.2	15.6	2.28e-05	22	40	0	11534336	60	9262
2026-01-25 16:38:40.53	23.57	3.88	-45.4	-48.1	15.7	0.00e+00	0	40	0	13631488	60	9144
2026-01-25 16:38:41.54	23.52	3.95	-44.1	-46.0	17.6	0.00e+00	91	41	0	15728640	60	7226
2026-01-25 16:38:42.54	23.46	4.01	-43.7	-45.5	18.0	0.00e+00	0	40	0	17825792	60	6837
2026-01-25 16:38:43.55	23.41	4.08	-43.9	-45.8	17.8	0.00e+00	0	40	0	18874368	60	7019
2026-01-25 16:38:44.56	23.35	4.14	-44.5	-46.6	17.1	0.00e+00	0	40	0	20971520	60	7748
2026-01-25 16:38:45.57	23.29	4.20	-43.8	-45.6	18.1	0.00e+00	0	40	0	23068672	60	6887
2026-01-25 16:38:46.58	23.24	4.27	-44.2	-46.2	17.4	0.00e+00	26	40	0	25165824	60	7362
2026-01-25 16:38:47.59	23.18	4.33	-44.0	-46.0	17.6	0.00e+00	0	40	0	27262976	60	7173
2026-01-25 16:38:48.60	23.12	4.40	-44.4	-46.4	17.5	0.00e+00	74	40	0	28311552	60	7552
2026-01-25 16:38:49.61	23.06	4.46	-43.5	-45.2	17.9	0.00e+00	0	40	0	30408704	60	6572
2026-01-25 16:38:50.62	23.00	4.53	-43.2	-44.8	18.4	0.00e+00	0	40	0	32505856	58	7087
2026-01-25 16:38:51.63	22.95	4.59	-44.1	-46.0	17.7	0.00e+00	0	41	0	34603008	60	7221
2026-01-25 16:38:52.64	22.89	4.66	-43.9	-45.7	18.1	0.00e+00	0	40	0	36700160	60	6934
2026-01-25 16:38:53.64	22.83	4.72	-43.8	-45.6	18.2	0.00e+00	31	41	0	37748736	60	6853
2026-01-25 16:38:54.65	22.77	4.79	-43.9	-45.7	18.1	0.00e+00	0	40	0	39845888	60	6993
2026-01-25 16:38:55.66	22.71	4.85	-43.4	-45.1	18.5	0.00e+00	90	40	0	41943040	60	6515
2026-01-25 16:38:56.67	22.65	4.92	-43.6	-45.4	18.4	0.00e+00	0	41	0	44040192	60	6702
2026-01-25 16:38:57.68	22.59	4.99	-43.2	-44.8	18.9	0.00e+00	0	40	0	46137344	60	6250
2026-01-25 16:38:58.69	22.53	5.05	-43.9	-45.7	18.2	0.00e+00	0	41	0	47185920	60	6930
2026-01-25 16:38:59.70	22.47	5.12	-43.6	-45.3	18.6	0.00e+00	0	41	0	49283072	60	6653
2026-01-25 16:39:00.71	22.41	5.18	-44.2	-46.1	17.6	0.00e+00	27	41	0	51380224	60	7298
2026-01-25 16:39:01.72	22.34	5.25	-44.1	-45.9	18.0	0.00e+00	0	41	0	53477376	60	7127
2026-01-25 16:39:02.73	22.28	5.32	-43.4	-45.0	18.7	0.00e+00	92	41	0	55574528	60	6406
2026-01-25 16:39:03.74	22.22	5.38	-43.3	-44.9	18.8	0.00e+00	0	41	0	56623104	60	6356
2026-01-25 16:39:04.75	22.16	5.45	-43.5	-45.1	18.6	0.00e+00	92	41	0	58720256	60	6492
2026-01-25 16:39:05.75	22.10	5.52	-43.8	-45.6	18.3	0.00e+00	0	41	0	60817408	60	6873
2026-01-25 16:39:06.76	22.03	5.58	-42.8	-44.3	19.4	0.00e+00	0	41	0	62914560	60	5914
2026-01-25 16:39:07.77	21.97	5.65	-43.3	-44.9	19.1	0.00e+00	0	41	0	65011712	60	6333
2026-01-25 16:39:08.78	21.91	5.72	-43.0	-44.4	19.4	0.00e+00	0	41	0	66060288	60	6032
2026-01-25 16:39:09.79	21.84	5.79	-43.5	-45.1	18.8	0.00e+00	28	40	0	68157440	60	6506
2026-01-25 16:39:10.80	21.78	5.85	-42.9	-44.4	19.4	0.00e+00	0	41	0	70254592	60	5987
2026-01-25 16:39:11.81	21.71	5.92	-43.2	-44.8	19.1	0.00e+00	90	41	0	72351744	60	6247
2026-01-25 16:39:12.81	21.65	5.99	-43.0	-44.5	19.5	0.00e+00	0	41	0	74448896	60	6047
2026-01-25 16:39:13.82	21.58	6.06	-43.0	-44.5	19.6	0.00e+00	0	41	0	75497472	60	6038
2026-01-25 16:39:14.83	21.52	6.13	-43.2	-44.8	19.1	0.00e+00	0	41	0	77594624	60	6252
2026-01-25 16:39:15.84	21.45	6.19	-43.2	-44.8	19.1	0.00e+00	0	41	0	79691776	60	6248
2026-01-25 16:39:16.85	21.39	6.26	-43.3	-44.9	19.1	0.00e+00	50	41	0	81788928	60	6376
2026-01-25 16:39:17.86	21.32	6.33	-43.8	-45.5	18.6	0.00e+00	0	41	0	83886080	60	6777
2026-01-25 16:39:18.87	21.25	6.40	-43.3	-44.9	19.0	0.00e+00	92	41	0	84934656	60	6367
2026-01-25 16:39:19.88	21.19	6.47	-43.4	-44.9	19.0	0.00e+00	0	41	0	87031808	60	6375
2026-01-25 16:39:20.89	21.12	6.54	-43.1	-44.6	19.3	0.00e+00	0	41	0	89128960	60	6120
2026-01-25 16:39:21.90	21.05	6.61	-43.0	-44.5	19.4	0.00e+00	0	41	0	91226112	60	6075
2026-01-25 16:39:22.91	20.98	6.68	-43.5	-45.0	19.0	0.00e+00	0	41	0	93323264	60	6452
2026-01-25 16:39:23.92	20.91	6.75	-43.3	-44.9	19.2	0.00e+00	31	41	0	94371840	60	6318
2026-01-25 16:39:24.93	20.84	6.81	-43.0	-44.4	19.5	0.00e+00	0	41	0	96468992	60	6030
2026-01-25 16:39:25.93	20.78	6.88	-43.5	-45.1	19.0	0.00e+00	60	41	0	98566144	60	6492
2026-01-25 16:39:26.94	20.71	6.95	-43.1	-44.6	19.6	0.00e+00	0	41	0	100663296	60	6110
2026-01-25 16:39:27.95	20.64	7.02	-42.5	-43.9	20.0	0.00e+00	29	41	0	102760448	58	6333
2026-01-25 16:39:28.96	20.57	7.09	-43.0	-44.4	19.6	0.00e+00	0	41	0	103809024	58	6765
2026-01-25 16:39:29.97	20.50	7.16	-42.7	-44.1	20.1	0.00e+00	0	41	0	105906176	58	6478
2026-01-25 16:39:30.98	20.42	7.24	-42.3	-43.7	20.3	0.00e+00	4	41	0	108003328	58	6186
2026-01-25 16:39:31.99	20.35	7.31	-42.7	-44.1	19.9	0.00e+00	0	41	0	110100480	58	6518
2026-01-25 16:39:33.00	20.28	7.38	-42.7	-44.1	19.9	0.00e+00	50	41	0	112197632	58	6489
2026-01-25 16:39:34.01	20.21	7.45	-42.6	-44.0	19.9	0.00e+00	0	41	0	114294784	58	6432
2026-01-25 16:39:35.01	20.14	7.52	-42.9	-44.3	19.7	0.00e+00	38	41	0	115343360	58	6692
2026-01-25 16:39:36.03	20.06	7.59	-42.6	-44.0	19.9	0.00e+00	0	41	0	117440512	58	6398
2026-01-25 16:39:37.03	19.99	7.66	-42.7	-44.0	20.0	0.00e+00	0	41	0	119537664	58	6455
2026-01-25 16:39:38.04	19.92	7.73	-42.3	-43.6	20.4	0.00e+00	0	41	0	121634816	58	6127
2026-01-25 16:39:39.05	19.84	7.80	-42.2	-43.5	20.4	0.00e+00	0	41	0	123731968	58	6092
2026-01-25 16:39:40.06	19.77	7.88	-42.5	-43.9	20.0	0.00e+00	90	41	0	124780544	58	6337
2026-01-25 16:39:41.07	19.69	7.95	-42.2	-43.5	20.5	0.00e+00	9	41	0	126877696	58	6072
2026-01-25 16:39:42.08	19.62	8.02	-42.4	-43.8	20.1	0.00e+00	92	41	0	128974848	58	6257
2026-01-25 16:39:43.09	19.54	8.09	-42.3	-43.5	20.5	0.00e+00	0	41	0	131072000	58	6090
2026-01-25 16:39:44.10	19.47	8.16	-42.1	-43.3	20.8	0.00e+00	0	41	0	133169152	58	5935
2026-01-25 16:39:45.11	19.39	8.24	-42.0	-43.2	20.7	0.00e+00	26	41	0	134217728	56	6573
2026-01-25 16:39:46.12	19.31	8.31	-42.3	-43.5	20.6	0.00e+00	0	41	0	136314880	56	6812
2026-01-25 16:39:47.13	19.24	8.38	-42.2	-43.5	20.6	0.00e+00	27	41	0	138412032	56	6803
2026-01-25 16:39:48.14	19.16	8.46	-42.7	-44.0	20.2	0.00e+00	5	41	0	140509184	56	7226
2026-01-25 16:39:49.14	19.08	8.53	-42.3	-43.6	20.4	0.00e+00	92	41	0	142606336	56	6915
2026-01-25 16:39:50.15	19.00	8.60	-42.7	-44.1	20.1	0.00e+00	0	41	0	143654912	56	7267
2026-01-25 16:39:51.17	18.92	8.68	-42.3	-43.5	20.6	0.00e+00	31	41	0	145752064	56	6827
2026-01-25 16:39:52.17	18.85	8.75	-42.4	-43.7	20.5	0.00e+00	0	41	0	147849216	56	6946
2026-01-25 16:39:53.18	18.77	8.82	-42.2	-43.5	20.6	0.00e+00	0	41	0	149946368	56	6776
2026-01-25 16:39:54.19	18.69	8.90	-42.1	-43.4	20.8	0.00e+00	33	41	0	152043520	56	6718
2026-01-25 16:39:55.20	18.61	8.97	-42.0	-43.2	20.9	0.00e+00	3	41	0	153092096	56	6600
2026-01-25 16:39:56.21	18.53	9.05	-42.1	-43.3	20.8	0.00e+00	77	41	0	155189248	56	6650
2026-01-25 16:39:57.22	18.44	9.12	-41.9	-43.1	21.0	0.00e+00	0	41	0	157286400	56	6499
2026-01-25 16:39:58.23	18.36	9.20	-42.0	-43.2	21.0	0.00e+00	0	41	0	159383552	56	6606
2026-01-25 16:39:59.24	18.28	9.27	-41.7	-42.9	21.2	0.00e+00	0	41	0	161480704	56	6357
2026-01-25 16:40:00.25	18.20	9.35	-41.7	-42.9	21.1	0.00e+00	0	41	0	162529280	56	6346
2026-01-25 16:40:01.26	18.11	9.42	-42.1	-43.3	20.8	0.00e+00	32	41	0	164626432	56	6691
2026-01-25 16:40:02.27	18.03	9.50	-42.1	-43.3	20.9	0.00e+00	0	41	0	166723584	56	6668
2026-01-25 16:40:03.28	17.95	9.57	-41.8	-43.0	21.1	0.00e+00	92	41	0	168820736	56	6436
2026-01-25 16:40:04.29	17.86	9.65	-42.0	-43.2	21.0	0.00e+00	0	41	0	170917888	56	6556
2026-01-25 16:40:05.29	17.78	9.72	-41.9	-43.1	21.1	0.00e+00	62	41	0	171966464	56	6470
2026-01-25 16:40:06.30	17.69	9.80	-41.9	-43.1	21.1	0.00e+00	0	41	0	174063616	56	6473
2026-01-25 16:40:07.31	17.61	9.88	-41.9	-43.1	21.1	0.00e+00	0	41	0	176160768	56	6499
2026-01-25 16:40:08.32	17.52	9.95	-41.7	-42.9	21.2	0.00e+00	0	41	0	178257920	56	6341
2026-01-25 16:40:09.33	17.43	10.03	-42.1	-43.3	20.9	0.00e+00	0	41	0	180355072	56	6642
2026-01-25 16:40:10.34	17.35	10.11	-42.4	-43.7	20.6	0.00e+00	31	41	0	182452224	56	6971
2026-01-25 16:40:11.35	17.26	10.18	-42.1	-43.4	20.9	0.00e+00	0	41	0	183500800	56	6703
2026-01-25 16:40:12.36	17.17	10.26	-41.7	-42.9	21.3	0.00e+00	88	41	0	185597952	56	6331
2026-01-25 16:40:13.37	17.08	10.34	-41.7	-42.9	21.4	0.00e+00	0	41	0	187695104	56	6340
2026-01-25 16:40:14.38	16.99	10.42	-42.2	-43.4	20.8	0.00e+00	0	41	0	189792256	56	6765
2026-01-25 16:40:15.39	16.90	10.49	-41.7	-42.9	21.3	0.00e+00	0	41	0	191889408	56	6350
2026-01-25 16:40:16.40	16.81	10.57	-42.1	-43.3	21.0	0.00e+00	0	41	0	192937984	56	6638
2026-01-25 16:40:17.41	16.72	10.65	-41.9	-43.0	21.2	0.00e+00	22	41	0	195035136	56	6439
2026-01-25 16:40:18.42	16.63	10.73	-42.0	-43.2	21.1	0.00e+00	0	41	0	197132288	56	6613
2026-01-25 16:40:19.43	16.54	10.81	-42.2	-43.4	20.9	0.00e+00	56	41	0	199229440	56	6735
2026-01-25 16:40:20.44	16.45	10.88	-41.9	-43.0	21.2	0.00e+00	0	41	0	201326592	56	6445
2026-01-25 16:40:21.45	16.35	10.96	-41.7	-42.8	21.4	0.00e+00	0	41	0	202375168	56	6292
2026-01-25 16:40:22.45	16.26	11.04	-41.8	-42.9	21.2	0.00e+00	0	41	0	204472320	56	6384
2026-01-25 16:40:23.46	16.17	11.12	-42.1	-43.3	20.8	0.00e+00	0	41	0	206569472	56	6622
2026-01-25 16:40:24.47	16.07	11.20	-41.9	-43.1	21.3	0.00e+00	27	41	0	208666624	56	6469
2026-01-25 16:40:25.48	15.98	11.28	-42.0	-43.2	21.1	0.00e+00	0	41	0	210763776	56	6586
2026-01-25 16:40:26.49	15.88	11.36	-42.1	-43.2	21.2	0.00e+00	36	41	0	211812352	56	6603
2026-01-25 16:40:27.49	15.79	11.44	-41.8	-43.0	21.4	0.00e+00	0	41	0	213909504	56	6402
2026-01-25 16:40:28.50	15.69	11.52	-41.6	-42.7	21.5	0.00e+00	0	41	0	216006656	56	6245
2026-01-25 16:40:29.51	15.59	11.60	-41.5	-42.6	21.6	0.00e+00	0	41	0	218103808	56	6173
2026-01-25 16:40:30.52	15.50	11.68	-41.5	-42.6	21.6	0.00e+00	0	41	0	220200960	56	6167
2026-01-25 16:40:31.53	15.40	11.76	-41.9	-43.1	21.2	0.00e+00	26	41	0	221249536	56	6467
2026-01-25 16:40:32.54	15.30	11.84	-41.6	-42.7	21.4	0.00e+00	0	41	0	223346688	56	6214
2026-01-25 16:40:33.54	15.20	11.92	-41.6	-42.8	21.6	0.00e+00	92	41	0	225443840	56	6250
2026-01-25 16:40:34.55	15.10	12.00	-41.6	-42.7	21.4	0.00e+00	0	41	0	227540992	56	6213
2026-01-25 16:40:35.56	15.00	12.08	-41.7	-42.8	21.3	0.00e+00	0	41	0	229638144	56	6315
2026-01-25 16:40:36.57	14.90	12.16	-41.7	-42.8	21.5	0.00e+00	0	41	0	230686720	56	6306
2026-01-25 16:40:37.58	14.80	12.24	-41.5	-42.6	21.7	0.00e+00	6	41	0	232783872	56	6125
2026-01-25 16:40:38.59	14.70	12.33	-41.7	-42.9	21.6	0.00e+00	0	41	0	234881024	56	6339
2026-01-25 16:40:39.60	14.59	12.41	-41.7	-42.8	21.3	0.00e+00	0	41	0	236978176	56	6286
2026-01-25 16:40:40.61	14.49	12.49	-41.8	-42.9	21.5	0.00e+00	92	41	0	239075328	56	6361
2026-01-25 16:40:41.62	14.39	12.57	-41.3	-42.4	21.9	0.00e+00	0	41	0	240123904	56	6016
2026-01-25 16:40:42.63	14.28	12.65	-41.2	-42.3	22.0	0.00e+00	0	41	0	242221056	56	5918
2026-01-25 16:40:43.64	14.18	12.74	-41.4	-42.4	21.9	0.00e+00	0	41	0	244318208	56	6028
2026-01-25 16:40:44.65	14.07	12.82	-41.8	-42.9	21.5	0.00e+00	0	41	0	246415360	56	6351
2026-01-25 16:40:45.66	13.97	12.90	-41.6	-42.8	21.7	0.00e+00	0	41	0	248512512	56	6246
2026-01-25 16:40:46.67	13.86	12.99	-41.5	-42.6	21.8	0.00e+00	0	41	0	249561088	56	6128
2026-01-25 16:40:47.68	13.75	13.07	-41.9	-43.1	21.5	0.00e+00	31	41	0	251658240	56	6472
2026-01-25 16:40:48.69	13.64	13.15	-41.6	-42.7	21.6	0.00e+00	1	41	0	253755392	56	6184
2026-01-25 16:40:49.70	13.53	13.24	-41.3	-42.4	21.9	0.00e+00	92	41	0	255852544	56	6010
2026-01-25 16:40:50.71	13.42	13.32	-40.9	-41.9	22.3	0.00e+00	0	41	0	257949696	56	5673
2026-01-25 16:40:51.71	13.32	13.40	-41.2	-42.2	22.1	0.00e+00	0	41	0	258998272	56	5861
2026-01-25 16:40:52.72	13.20	13.49	-41.4	-42.4	22.0	0.00e+00	0	41	0	261095424	56	6020
2026-01-25 16:40:53.73	13.09	13.57	-41.2	-42.3	22.1	0.00e+00	0	41	0	263192576	56	5910
2026-01-25 16:40:54.74	12.98	13.66	-41.2	-42.3	22.1	0.00e+00	81	41	0	265289728	56	5908
2026-01-25 16:40:55.75	12.87	13.74	-41.2	-42.2	22.1	0.00e+00	0	41	0	267386880	56	5875
2026-01-25 16:40:56.76	12.76	13.83	-41.0	-42.1	22.3	0.00e+00	66	41	0	268435456	56	5763
2026-01-25 16:40:57.77	12.64	13.91	-41.1	-42.1	22.2	0.00e+00	0	41	0	270532608	56	5826
2026-01-25 16:40:58.77	12.53	14.00	-41.1	-42.1	22.2	0.00e+00	0	41	0	272629760	56	5819
2026-01-25 16:40:59.78	12.41	14.08	-41.2	-42.3	22.0	0.00e+00	0	41	0	274726912	56	5914
2026-01-25 16:41:00.79	12.30	14.17	-41.3	-42.4	22.0	0.00e+00	0	41	0	276824064	56	6018
2026-01-25 16:41:01.80	12.18	14.26	-41.3	-42.3	22.0	0.00e+00	35	41	0	278921216	56	5958
2026-01-25 16:41:02.81	12.06	14.34	-41.5	-42.6	21.9	0.00e+00	0	41	0	279969792	56	6130
2026-01-25 16:41:03.82	11.94	14.43	-41.0	-42.0	22.2	0.00e+00	65	41	0	282066944	56	5729
2026-01-25 16:41:04.83	11.82	14.51	-41.1	-42.1	22.2	0.00e+00	0	41	0	284164096	56	5823
2026-01-25 16:41:05.83	11.71	14.60	-41.0	-42.0	22.1	0.00e+00	0	41	0	286261248	56	5757
2026-01-25 16:41:06.84	11.59	14.69	-41.2	-42.3	22.1	0.00e+00	0	41	0	288358400	56	5918
2026-01-25 16:41:07.85	11.46	14.77	-41.3	-42.3	22.0	0.00e+00	0	41	0	289406976	56	5933
2026-01-25 16:41:08.86	11.34	14.86	-41.1	-42.1	22.3	0.00e+00	16	41	0	291504128	56	5790
2026-01-25 16:41:09.87	11.22	14.95	-41.2	-42.2	22.2	0.00e+00	0	41	0	293601280	56	5872
2026-01-25 16:41:10.87	11.10	15.04	-41.3	-42.3	22.0	0.00e+00	30	41	0	295698432	56	5950
2026-01-25 16:41:11.88	10.97	15.12	-41.3	-42.4	21.9	0.00e+00	0	41	0	297795584	56	5982
2026-01-25 16:41:12.89	10.85	15.21	-41.5	-42.6	21.7	0.00e+00	92	41	0	298844160	56	6171
2026-01-25 16:41:13.90	10.72	15.30	-41.5	-42.6	21.9	0.00e+00	0	41	0	300941312	56	6136
2026-01-25 16:41:14.90	10.60	15.39	-41.3	-42.3	22.0	0.00e+00	0	41	0	303038464	56	5940
2026-01-25 16:41:15.91	10.47	15.47	-41.7	-42.8	21.7	0.00e+00	0	41	0	305135616	56	6255
2026-01-25 16:41:16.92	10.34	15.56	-41.2	-42.3	22.0	0.00e+00	0	41	0	307232768	56	5923
2026-01-25 16:41:17.93	10.21	15.65	-41.4	-42.5	22.1	0.00e+00	31	41	0	308281344	56	6056
2026-01-25 16:41:18.94	10.09	15.74	-41.4	-42.5	22.0	0.00e+00	0	41	0	310378496	56	6039
2026-01-25 16:41:19.95	9.95	15.83	-41.2	-42.3	22.0	0.00e+00	71	41	0	312475648	56	5914
2026-01-25 16:41:20.96	9.82	15.92	-41.3	-42.3	22.1	0.00e+00	0	41	0	314572800	56	5943
2026-01-25 16:41:21.97	9.69	16.01	-41.2	-42.3	22.2	0.00e+00	0	41	0	316669952	56	5902
2026-01-25 16:41:22.97	9.56	16.10	-41.2	-42.2	22.2	0.00e+00	0	41	0	317718528	56	5887
2026-01-25 16:41:23.98	9.43	16.19	-41.1	-42.2	22.2	0.00e+00	0	41	0	319815680	56	5852
2026-01-25 16:41:24.99	9.29	16.28	-40.9	-41.9	22.5	0.00e+00	54	41	0	321912832	56	5631
2026-01-25 16:41:26.00	9.16	16.37	-40.9	-41.9	22.4	0.00e+00	0	41	0	324009984	56	5686
2026-01-25 16:41:27.01	9.02	16.46	-41.0	-42.0	22.3	0.00e+00	79	41	0	326107136	56	5744
2026-01-25 16:41:28.02	8.89	16.55	-40.7	-41.6	22.6	0.00e+00	0	41	0	327155712	54	6163
2026-01-25 16:41:29.03	8.75	16.64	-40.6	-41.6	22.6	0.00e+00	0	41	0	329252864	54	6132
2026-01-25 16:41:30.04	8.61	16.73	-40.6	-41.6	22.6	0.00e+00	0	41	0	331350016	54	6151
2026-01-25 16:41:31.05	8.47	16.82	-41.1	-42.1	22.0	0.00e+00	0	41	0	333447168	54	6501
2026-01-25 16:41:32.05	8.33	16.91	-41.2	-42.2	21.6	0.00e+00	77	41	0	335544320	54	6615
2026-01-25 16:41:33.06	8.19	17.00	-41.2	-42.2	21.9	0.00e+00	0	41	0	336592896	54	6597
2026-01-25 16:41:34.07	8.05	17.09	-42.0	-43.2	21.4	0.00e+00	50	41	0	338690048	56	6550
2026-01-25 16:41:35.08	7.90	17.19	-42.1	-43.4	21.2	0.00e+00	32	41	0	340787200	56	6700
2026-01-25 16:41:36.09	7.76	17.28	-42.4	-43.6	21.0	0.00e+00	0	41	0	342884352	56	6912
2026-01-25 16:41:37.10	7.62	17.37	-42.2	-43.5	20.9	0.00e+00	0	41	0	344981504	56	6807
2026-01-25 16:41:38.11	7.47	17.46	-42.6	-43.8	20.9	0.00e+00	33	41	0	346030080	56	7075
2026-01-25 16:41:39.11	7.33	17.55	-42.9	-44.2	20.6	0.00e+00	0	41	0	348127232	56	7359
2026-01-25 16:41:40.12	7.18	17.65	-42.7	-44.0	20.7	0.00e+00	0	41	0	350224384	58	6407
2026-01-25 16:41:41.13	7.03	17.74	-42.3	-43.5	21.2	0.00e+00	90	41	0	352321536	58	6048
2026-01-25 16:41:42.14	6.88	17.83	-42.2	-43.4	21.3	0.00e+00	30	41	0	354418688	58	5975
2026-01-25 16:41:43.15	6.73	17.92	-42.2	-43.4	21.1	0.00e+00	12	41	0	355467264	58	6004
2026-01-25 16:41:44.16	6.58	18.02	-42.1	-43.3	21.6	0.00e+00	0	41	0	357564416	58	5932
2026-01-25 16:41:45.17	6.43	18.11	-42.0	-43.1	21.4	0.00e+00	1	41	0	359661568	58	5813
2026-01-25 16:41:46.17	6.28	18.20	-41.8	-42.9	21.9	0.00e+00	0	41	0	361758720	58	5635
2026-01-25 16:41:47.18	6.12	18.30	-41.7	-42.8	21.9	0.00e+00	0	41	0	363855872	56	6306
2026-01-25 16:41:48.19	5.97	18.39	-41.2	-42.3	22.1	0.00e+00	91	41	0	364904448	56	5924
2026-01-25 16:41:49.20	5.81	18.48	-41.2	-42.3	22.2	0.00e+00	0	41	0	367001600	56	5908
2026-01-25 16:41:50.21	5.65	18.58	-41.3	-42.3	22.2	0.00e+00	81	41	0	369098752	56	5961
2026-01-25 16:41:51.21	5.50	18.67	-41.1	-42.1	22.3	0.00e+00	0	41	0	371195904	56	5824
2026-01-25 16:41:52.22	5.34	18.76	-41.0	-42.0	22.4	0.00e+00	0	41	0	373293056	56	5713
2026-01-25 16:41:53.23	5.18	18.86	-41.1	-42.1	22.2	0.00e+00	0	41	0	375390208	56	5792
2026-01-25 16:41:54.24	5.02	18.95	-41.1	-42.2	22.4	0.00e+00	0	41	0	376438784	56	5829
2026-01-25 16:41:55.25	4.86	19.05	-41.4	-42.4	22.1	0.00e+00	35	41	0	378535936	56	6027
2026-01-25 16:41:56.25	4.70	19.14	-41.5	-42.6	22.0	0.00e+00	0	41	0	380633088	56	6132
2026-01-25 16:41:57.26	4.53	19.24	-41.5	-42.6	22.0	0.00e+00	67	41	0	382730240	56	6142
2026-01-25 16:41:58.27	4.37	19.33	-41.4	-42.4	22.1	0.00e+00	0	41	0	383778816	56	6033
2026-01-25 16:41:59.28	4.20	19.43	-41.1	-42.2	22.4	0.00e+00	0	41	0	385875968	56	5840
2026-01-25 16:42:00.29	4.03	19.52	-40.9	-42.0	22.4	0.00e+00	0	41	0	387973120	56	5700
2026-01-25 16:42:01.30	3.87	19.62	-40.9	-41.9	22.6	0.00e+00	0	41	0	390070272	56	5681
2026-01-25 16:42:02.31	3.70	19.71	-40.9	-41.9	22.5	0.00e+00	19	41	0	392167424	56	5686
2026-01-25 16:42:03.32	3.53	19.81	-41.0	-42.0	22.6	0.00e+00	0	41	0	393216000	56	5701
2026-01-25 16:42:04.32	3.36	19.90	-41.1	-42.1	22.4	0.00e+00	79	41	0	395313152	56	5810
2026-01-25 16:42:05.33	3.18	20.00	-41.2	-42.3	22.2	0.00e+00	0	41	0	397410304	56	5901
2026-01-25 16:42:06.34	3.01	20.09	-41.2	-42.3	22.3	0.00e+00	0	41	0	399507456	56	5900
2026-01-25 16:42:07.35	2.84	20.19	-41.4	-42.5	22.1	0.00e+00	0	41	0	401604608	56	6046
2026-01-25 16:42:08.36	2.66	20.28	-41.2	-42.3	22.2	0.00e+00	0	41	0	403701760	56	5908
2026-01-25 16:42:09.37	2.48	20.38	-41.3	-42.3	22.1	0.00e+00	31	41	0	404750336	56	5941
2026-01-25 16:42:10.38	2.30	20.47	-41.3	-42.4	22.0	0.00e+00	0	41	0	406847488	56	5967
2026-01-25 16:42:11.39	2.13	20.57	-41.0	-42.0	22.4	0.00e+00	90	41	0	408944640	56	5719
2026-01-25 16:42:12.40	1.94	20.67	-41.2	-42.2	22.1	0.00e+00	0	41	0	411041792	56	5880
2026-01-25 16:42:13.41	1.76	20.76	-41.4	-42.5	22.1	0.00e+00	90	41	0	413138944	56	6080
2026-01-25 16:42:14.41	1.58	20.86	-41.3	-42.4	22.2	0.00e+00	0	41	0	414187520	56	5966
2026-01-25 16:42:15.42	1.40	20.95	-41.5	-42.6	22.0	0.00e+00	0	41	0	416284672	56	6144
2026-01-25 16:42:16.43	1.21	21.05	-41.5	-42.6	22.0	0.00e+00	13	41	0	418381824	56	6114
2026-01-25 16:42:17.44	1.03	21.15	-41.1	-42.2	22.3	0.00e+00	0	41	0	420478976	56	5853
2026-01-25 16:42:18.45	0.84	21.24	-41.1	-42.1	22.5	0.00e+00	92	41	0	422576128	56	5785
2026-01-25 16:42:19.46	0.65	21.34	-40.8	-41.7	22.6	0.00e+00	0	41	0	423624704	56	5555
2026-01-25 16:42:20.47	0.46	21.44	-40.6	-41.5	22.8	0.00e+00	92	41	0	425721856	54	6096
2026-01-25 16:42:21.47	0.27	21.53	-40.7	-41.6	22.7	0.00e+00	0	41	0	427819008	54	6172
2026-01-25 16:42:22.48	0.08	21.63	-40.9	-41.9	22.5	0.00e+00	0	41	0	429916160	54	6347
2026-01-25 16:42:23.49	359.89	21.72	-40.8	-41.8	22.7	0.00e+00	0	41	0	432013312	54	6262
2026-01-25 16:42:24.49	359.69	21.82	-40.8	-41.8	22.5	0.00e+00	0	41	0	433061888	54	6296
2026-01-25 16:42:25.50	359.50	21.92	-41.0	-42.0	22.4	0.00e+00	45	41	0	435159040	54	6423
2026-01-25 16:42:26.51	359.30	22.01	-41.2	-42.3	22.4	0.00e+00	0	41	0	437256192	54	6616
2026-01-25 16:42:27.52	359.10	22.11	-40.9	-41.9	22.4	0.00e+00	90	41	0	439353344	54	6387
2026-01-25 16:42:28.53	358.90	22.21	-40.6	-41.6	22.7	0.00e+00	0	41	0	441450496	54	6147
2026-01-25 16:42:29.54	358.70	22.30	-40.7	-41.7	22.7	0.00e+00	0	41	0	442499072	54	6186
2026-01-25 16:42:30.55	358.50	22.40	-40.6	-41.6	22.7	0.00e+00	0	41	0	444596224	54	6135
2026-01-25 16:42:31.55	358.30	22.49	-40.7	-41.6	22.6	0.00e+00	0	41	0	446693376	54	6166
2026-01-25 16:42:32.57	358.09	22.59	-41.0	-42.0	22.4	0.00e+00	29	41	0	448790528	54	6460
2026-01-25 16:42:33.57	357.89	22.69	-41.0	-42.0	22.4	0.00e+00	0	41	0	450887680	54	6432
2026-01-25 16:42:34.58	357.68	22.78	-40.8	-41.8	22.5	0.00e+00	27	41	0	451936256	54	6310
2026-01-25 16:42:35.59	357.47	22.88	-40.7	-41.7	22.6	0.00e+00	0	41	0	454033408	54	6207
2026-01-25 16:42:36.60	357.26	22.98	-40.7	-41.6	22.8	0.00e+00	0	41	0	456130560	54	6170
2026-01-25 16:42:37.61	357.05	23.07	-40.6	-41.5	22.8	0.00e+00	0	41	0	458227712	54	6076
2026-01-25 16:42:38.62	356.84	23.17	-40.5	-41.5	22.8	0.00e+00	0	41	0	460324864	54	6040
2026-01-25 16:42:39.62	356.63	23.26	-40.6	-41.6	22.7	0.00e+00	36	41	0	461373440	54	6134
2026-01-25 16:42:40.63	356.41	23.36	-40.9	-41.8	22.5	0.00e+00	0	41	0	463470592	54	6314
2026-01-25 16:42:41.64	356.20	23.46	-41.0	-42.0	22.4	0.00e+00	63	41	0	465567744	54	6401
2026-01-25 16:42:42.65	355.98	23.55	-40.9	-41.9	22.3	0.00e+00	0	41	0	467664896	54	6341
2026-01-25 16:42:43.66	355.76	23.65	-41.1	-42.1	22.3	0.00e+00	80	41	0	469762048	54	6519
2026-01-25 16:42:44.67	355.54	23.74	-41.3	-42.3	22.2	0.00e+00	0	41	0	470810624	54	6653
2026-01-25 16:42:45.67	355.32	23.84	-41.0	-42.0	22.5	0.00e+00	0	41	0	472907776	54	6412
2026-01-25 16:42:46.68	355.10	23.93	-40.7	-41.7	22.6	0.00e+00	0	41	0	475004928	54	6217
2026-01-25 16:42:47.69	354.87	24.03	-41.0	-42.1	22.4	0.00e+00	0	41	0	477102080	54	6484
2026-01-25 16:42:48.70	354.65	24.12	-40.9	-41.9	22.4	0.00e+00	37	41	0	479199232	54	6382
2026-01-25 16:42:49.71	354.42	24.22	-41.0	-42.0	22.3	0.00e+00	0	41	0	480247808	54	6463
2026-01-25 16:42:50.72	354.19	24.31	-41.0	-42.1	22.2	0.00e+00	92	41	0	482344960	54	6506
2026-01-25 16:42:51.73	353.96	24.41	-41.5	-42.6	21.9	0.00e+00	0	41	0	484442112	54	6874
2026-01-25 16:42:52.74	353.73	24.50	-41.6	-42.8	21.7	0.00e+00	0	41	0	486539264	54	7042
2026-01-25 16:42:53.75	353.50	24.60	-41.5	-42.7	21.8	0.00e+00	0	41	0	488636416	54	6948
2026-01-25 16:42:54.75	353.26	24.69	-41.4	-42.5	21.7	0.00e+00	0	41	0	489684992	54	6792
2026-01-25 16:42:55.76	353.03	24.78	-40.9	-41.9	22.4	0.00e+00	92	41	0	491782144	54	6370
2026-01-25 16:42:56.77	352.79	24.88	-40.9	-41.9	22.4	0.00e+00	0	41	0	493879296	54	6382
2026-01-25 16:42:57.78	352.55	24.97	-41.1	-42.1	22.4	0.00e+00	87	41	0	495976448	54	6488
2026-01-25 16:42:58.79	352.31	25.06	-40.9	-41.9	22.5	0.00e+00	0	41	0	498073600	54	6342
2026-01-25 16:42:59.80	352.07	25.16	-40.8	-41.8	22.5	0.00e+00	0	41	0	500170752	54	6261
2026-01-25 16:43:00.79	351.83	25.25	-40.4	-41.4	22.6	0.00e+00	0	41	0	501219328	54	5979
2026-01-25 16:43:01.79	351.59	25.34	-40.1	-41.0	23.2	0.00e+00	0	41	0	503316480	54	5743
2026-01-25 16:43:02.80	351.34	25.43	-39.8	-40.7	23.4	0.00e+00	30	41	0	505413632	54	5549
2026-01-25 16:43:03.81	351.10	25.52	-39.5	-40.4	23.6	0.00e+00	0	41	0	507510784	52	6000
2026-01-25 16:43:04.82	350.85	25.62	-39.4	-40.3	23.8	0.00e+00	92	41	0	508559360	52	5934
2026-01-25 16:43:05.83	350.60	25.71	-39.4	-40.3	23.7	0.00e+00	0	41	0	510656512	52	5915
2026-01-25 16:43:06.83	350.35	25.80	-39.4	-40.3	23.5	0.00e+00	0	41	0	512753664	52	5938
2026-01-25 16:43:07.84	350.09	25.89	-39.6	-40.5	23.6	0.00e+00	0	41	0	514850816	52	6038
2026-01-25 16:43:08.85	349.84	25.98	-39.9	-40.8	23.5	0.00e+00	2	41	0	516947968	52	6284
2026-01-25 16:43:09.86	349.58	26.07	-39.5	-40.3	23.8	0.00e+00	37	41	0	519045120	52	5953
2026-01-25 16:43:10.87	349.33	26.16	-39.4	-40.2	23.8	0.00e+00	0	41	0	520093696	52	5890
2026-01-25 16:43:11.88	349.07	26.25	-39.7	-40.6	23.6	0.00e+00	90	41	0	522190848	52	6139
2026-01-25 16:43:12.89	348.81	26.34	-40.0	-40.9	23.3	0.00e+00	0	41	0	524288000	52	6383
2026-01-25 16:43:13.89	348.55	26.43	-40.5	-41.5	22.9	0.00e+00	84	41	0	526385152	52	6786
2026-01-25 16:43:14.90	348.28	26.52	-40.7	-41.7	22.7	0.00e+00	0	41	0	528482304	52	6940
2026-01-25 16:43:15.91	348.02	26.60	-41.4	-42.5	22.0	0.00e+00	0	41	0	529530880	54	6804
2026-01-25 16:43:16.92	347.75	26.69	-41.2	-42.2	22.2	0.00e+00	0	41	0	531628032	54	6597
2026-01-25 16:43:17.93	347.48	26.78	-41.1	-42.1	22.3	0.00e+00	0	41	0	533725184	54	6533
2026-01-25 16:43:18.94	347.21	26.87	-40.9	-41.9	22.5	0.00e+00	92	41	0	535822336	54	6358
2026-01-25 16:43:19.95	346.94	26.95	-40.7	-41.7	22.6	0.00e+00	0	41	0	537919488	54	6224
2026-01-25 16:43:20.95	346.67	27.04	-41.0	-42.0	22.4	0.00e+00	92	41	0	538968064	54	6441
2026-01-25 16:43:21.96	346.40	27.12	-41.2	-42.3	22.2	0.00e+00	0	41	0	541065216	54	6641
2026-01-25 16:43:22.97	346.12	27.21	-41.4	-42.5	22.2	0.00e+00	0	41	0	543162368	54	6777
2026-01-25 16:43:23.98	345.85	27.29	-41.0	-42.1	22.4	0.00e+00	0	41	0	545259520	54	6468
2026-01-25 16:43:24.99	345.57	27.38	-41.0	-42.0	22.5	0.00e+00	0	41	0	547356672	54	6437
2026-01-25 16:43:26.00	345.29	27.46	-40.5	-41.5	23.0	0.00e+00	7	41	0	548405248	54	6050
2026-01-25 16:43:27.01	345.01	27.54	-40.5	-41.4	22.9	0.00e+00	0	41	0	550502400	54	6023
2026-01-25 16:43:28.01	344.73	27.63	-40.6	-41.6	22.7	0.00e+00	47	41	0	552599552	54	6160
2026-01-25 16:43:29.03	344.44	27.71	-40.9	-41.9	22.4	0.00e+00	0	41	0	554696704	54	6371
2026-01-25 16:43:30.03	344.16	27.79	-41.0	-42.0	22.4	0.00e+00	0	41	0	556793856	54	6428
2026-01-25 16:43:31.04	343.87	27.87	-40.6	-41.6	22.6	0.00e+00	0	41	0	557842432	54	6109
2026-01-25 16:43:32.05	343.58	27.95	-40.4	-41.3	23.0	0.00e+00	0	41	0	559939584	54	5964
2026-01-25 16:43:33.06	343.29	28.03	-40.1	-41.0	23.2	0.00e+00	73	41	0	562036736	54	5737
2026-01-25 16:43:34.07	343.00	28.11	-40.5	-41.5	22.7	0.00e+00	0	41	0	564133888	54	6066
2026-01-25 16:43:35.08	342.71	28.19	-41.2	-42.2	22.2	0.00e+00	71	41	0	566231040	54	6588
2026-01-25 16:43:36.09	342.41	28.27	-41.9	-43.0	21.6	0.00e+00	0	41	0	567279616	56	6440
2026-01-25 16:43:37.10	342.12	28.34	-42.6	-43.9	20.8	0.00e+00	0	41	0	569376768	56	7155
2026-01-25 16:43:38.11	341.82	28.42	-43.1	-44.5	20.1	0.00e+00	0	41	0	571473920	58	6780
2026-01-25 16:43:39.11	341.52	28.50	-43.4	-44.9	20.0	0.00e+00	0	41	0	573571072	58	7126
2026-01-25 16:43:40.12	341.22	28.57	-43.1	-44.4	20.4	0.00e+00	32	41	0	575668224	58	6767
2026-01-25 16:43:41.13	340.92	28.65	-43.2	-44.6	20.3	0.00e+00	0	41	0	576716800	58	6887
2026-01-25 16:43:42.14	340.62	28.72	-43.2	-44.6	20.4	0.00e+00	92	41	0	578813952	58	6859
2026-01-25 16:43:43.15	340.31	28.79	-43.2	-44.6	20.3	0.00e+00	0	41	0	580911104	58	6894
2026-01-25 16:43:44.16	340.01	28.87	-42.8	-44.1	20.6	0.00e+00	92	41	0	583008256	58	6527
2026-01-25 16:43:45.17	339.70	28.94	-42.8	-44.1	20.8	0.00e+00	0	41	0	585105408	58	6493
2026-01-25 16:43:46.18	339.39	29.01	-42.1	-43.2	21.7	0.00e+00	0	41	0	587202560	58	5890
2026-01-25 16:43:47.19	339.08	29.08	-41.1	-42.1	22.4	0.00e+00	0	41	0	588251136	56	5819
2026-01-25 16:43:48.20	338.77	29.15	-40.9	-41.9	22.6	0.00e+00	0	41	0	590348288	56	5667
2026-01-25 16:43:49.21	338.46	29.22	-40.7	-41.7	22.7	0.00e+00	91	41	0	592445440	54	6199
2026-01-25 16:43:50.21	338.15	29.29	-41.0	-42.0	22.4	0.00e+00	0	41	0	594542592	54	6424
2026-01-25 16:43:51.22	337.83	29.35	-41.3	-42.3	22.2	0.00e+00	91	41	0	595591168	54	6648
2026-01-25 16:43:52.23	337.51	29.42	-41.4	-42.5	22.0	0.00e+00	0	41	0	597688320	54	6788
2026-01-25 16:43:53.24	337.20	29.48	-41.2	-42.3	22.3	0.00e+00	0	41	0	599785472	54	6625
2026-01-25 16:43:54.25	336.88	29.55	-41.3	-42.3	22.2	0.00e+00	0	41	0	601882624	54	6665
2026-01-25 16:43:55.26	336.56	29.61	-41.3	-42.3	22.1	0.00e+00	0	41	0	603979776	54	6671
2026-01-25 16:43:56.27	336.23	29.68	-41.2	-42.3	21.6	0.00e+00	33	41	0	605028352	54	6646
2026-01-25 16:43:57.28	335.91	29.74	-41.4	-42.5	22.0	0.00e+00	0	41	0	607125504	54	6847
2026-01-25 16:43:58.29	335.59	29.80	-42.1	-43.3	21.4	0.00e+00	92	41	0	609222656	56	6667
2026-01-25 16:43:59.30	335.26	29.86	-42.2	-43.4	21.4	0.00e+00	0	41	0	611319808	56	6756
2026-01-25 16:44:00.31	334.93	29.92	-41.8	-43.0	21.9	0.00e+00	0	41	0	613416960	56	6404
2026-01-25 16:44:01.32	334.60	29.98	-41.3	-42.4	22.2	0.00e+00	0	41	0	615514112	56	6010
2026-01-25 16:44:02.33	334.28	30.04	-41.6	-42.7	22.0	0.00e+00	0	41	0	616562688	56	6199
2026-01-25 16:44:03.33	333.95	30.09	-41.2	-42.3	22.4	0.00e+00	31	41	0	618659840	56	5932
2026-01-25 16:44:04.34	333.62	30.15	-41.3	-42.4	22.2	0.00e+00	0	41	0	620756992	56	6033
2026-01-25 16:44:05.35	333.28	30.20	-41.3	-42.3	22.2	0.00e+00	67	41	0	622854144	56	5943
2026-01-25 16:44:06.36	332.95	30.26	-41.3	-42.4	22.3	0.00e+00	0	41	0	624951296	56	5994
2026-01-25 16:44:07.37	332.61	30.31	-41.1	-42.2	22.5	0.00e+00	0	41	0	625999872	56	5836
2026-01-25 16:44:08.38	332.28	30.36	-41.2	-42.2	22.4	0.00e+00	0	41	0	628097024	54	6584
2026-01-25 16:44:09.39	331.94	30.41	-41.2	-42.2	22.3	0.00e+00	0	41	0	630194176	54	6588
2026-01-25 16:44:10.40	331.60	30.46	-40.9	-42.0	22.5	0.00e+00	26	41	0	632291328	54	6391
2026-01-25 16:44:11.41	331.26	30.51	-41.1	-42.2	22.3	0.00e+00	0	41	0	634388480	54	6566
2026-01-25 16:44:12.42	330.92	30.56	-41.2	-42.2	22.3	0.00e+00	91	41	0	635437056	54	6583
2026-01-25 16:44:13.43	330.58	30.60	-40.8	-41.7	22.5	0.00e+00	0	41	0	637534208	54	6236
2026-01-25 16:44:14.44	330.24	30.65	-40.3	-41.2	23.1	0.00e+00	0	41	0	639631360	54	5847
2026-01-25 16:44:15.45	329.90	30.69	-39.9	-40.7	23.5	0.00e+00	0	41	0	641728512	54	5560
2026-01-25 16:44:16.46	329.55	30.74	-39.6	-40.5	23.8	0.00e+00	0	41	0	643825664	52	6039
2026-01-25 16:44:17.47	329.21	30.78	-40.0	-40.9	23.5	0.00e+00	10	41	0	644874240	52	6357
2026-01-25 16:44:18.48	328.86	30.82	-40.3	-41.2	23.3	0.00e+00	0	41	0	646971392	52	6580
2026-01-25 16:44:19.49	328.51	30.86	-40.6	-41.6	22.9	0.00e+00	82	41	0	649068544	52	6859
2026-01-25 16:44:20.50	328.16	30.90	-41.1	-42.2	22.4	0.00e+00	0	41	0	651165696	54	6550
2026-01-25 16:44:21.51	327.82	30.93	-41.5	-42.6	22.0	0.00e+00	32	41	0	653262848	54	6853
2026-01-25 16:44:22.52	327.47	30.97	-41.5	-42.6	21.9	0.00e+00	0	41	0	654311424	54	6911
2026-01-25 16:44:23.53	327.12	31.01	-41.6	-42.8	22.0	0.00e+00	0	41	0	656408576	56	6258
2026-01-25 16:44:24.53	326.77	31.04	-42.2	-43.5	21.4	0.00e+00	25	41	0	658505728	56	6774
2026-01-25 16:44:25.54	326.42	31.07	-42.6	-43.9	21.1	0.00e+00	0	41	0	660602880	56	7104
2026-01-25 16:44:26.55	326.06	31.10	-42.5	-43.8	21.0	0.00e+00	29	41	0	662700032	58	6281
2026-01-25 16:44:27.56	325.71	31.14	-42.8	-44.1	21.0	0.00e+00	0	41	0	663748608	58	6488
2026-01-25 16:44:28.57	325.36	31.16	-42.6	-43.8	21.2	0.00e+00	65	41	0	665845760	58	6315
2026-01-25 16:44:29.58	325.00	31.19	-42.3	-43.5	21.3	0.00e+00	0	41	0	667942912	58	6058
2026-01-25 16:44:30.59	324.65	31.22	-42.0	-43.1	21.8	0.00e+00	0	41	0	670040064	58	5821
2026-01-25 16:44:31.60	324.29	31.25	-42.1	-43.3	21.5	0.00e+00	17	41	0	672137216	58	5924
2026-01-25 16:44:32.61	323.94	31.27	-42.2	-43.4	21.5	0.00e+00	0	41	0	673185792	58	5979
2026-01-25 16:44:33.62	323.58	31.29	-41.9	-43.0	21.9	0.00e+00	30	41	0	675282944	58	5721
2026-01-25 16:44:34.63	323.22	31.32	-41.3	-42.3	22.6	0.00e+00	0	41	0	677380096	56	5937
2026-01-25 16:44:35.64	322.86	31.34	-41.1	-42.1	22.6	0.00e+00	41	41	0	679477248	56	5767
2026-01-25 16:44:36.65	322.51	31.36	-41.1	-42.0	22.6	0.00e+00	0	41	0	681574400	56	5746
2026-01-25 16:44:37.66	322.15	31.37	-40.9	-41.9	22.4	0.00e+00	0	41	0	682622976	54	6331
2026-01-25 16:44:38.67	321.79	31.39	-41.0	-42.0	22.5	0.00e+00	0	41	0	684720128	54	6421
2026-01-25 16:44:39.68	321.43	31.41	-41.6	-42.7	22.3	0.00e+00	0	41	0	686817280	54	6931
2026-01-25 16:44:40.69	321.07	31.42	-41.7	-42.8	22.0	0.00e+00	39	41	0	688914432	54	7047
2026-01-25 16:44:41.70	320.71	31.43	-42.1	-43.2	21.8	0.00e+00	0	41	0	691011584	56	6554
2026-01-25 16:44:42.71	320.35	31.45	-42.2	-43.4	21.7	0.00e+00	92	41	0	693108736	56	6707
2026-01-25 16:44:43.72	319.99	31.46	-42.3	-43.4	21.6	0.00e+00	0	41	0	694157312	56	6762
2026-01-25 16:44:44.73	319.63	31.47	-42.4	-43.6	21.3	0.00e+00	0	41	0	696254464	56	6853
2026-01-25 16:44:45.74	319.27	31.47	-42.4	-43.5	21.5	0.00e+00	0	41	0	698351616	56	6810
2026-01-25 16:44:46.75	318.91	31.48	-42.2	-43.4	21.6	0.00e+00	0	41	0	700448768	56	6720
2026-01-25 16:44:47.76	318.54	31.49	-42.0	-43.1	21.8	0.00e+00	36	41	0	702545920	56	6494
2026-01-25 16:44:48.76	318.19	31.49	-42.1	-43.2	21.6	0.00e+00	0	41	0	703594496	56	6610
2026-01-25 16:44:49.77	317.82	31.49	-42.0	-43.1	21.7	0.00e+00	40	41	0	705691648	56	6538
2026-01-25 16:44:50.78	317.46	31.49	-42.1	-43.2	21.8	0.00e+00	0	41	0	707788800	56	6573
2026-01-25 16:44:51.79	317.10	31.50	-42.1	-43.2	21.7	0.00e+00	4	41	0	709885952	56	6601
2026-01-25 16:44:52.80	316.74	31.49	-42.4	-43.5	21.4	0.00e+00	0	41	0	711983104	56	6848
2026-01-25 16:44:53.81	316.38	31.49	-42.9	-44.2	20.9	0.00e+00	0	41	0	713031680	58	6558
2026-01-25 16:44:54.82	316.02	31.49	-42.7	-43.9	21.0	0.00e+00	0	41	0	715128832	58	6369
2026-01-25 16:44:55.83	315.66	31.48	-42.5	-43.7	21.4	0.00e+00	0	41	0	717225984	58	6228
2026-01-25 16:44:56.83	315.30	31.48	-42.2	-43.3	21.6	0.00e+00	92	41	0	719323136	58	5944
2026-01-25 16:44:57.84	314.94	31.47	-41.8	-42.9	22.0	0.00e+00	0	41	0	721420288	58	5642
2026-01-25 16:44:58.85	314.58	31.46	-41.7	-42.8	21.9	0.00e+00	70	41	0	722468864	56	6313
2026-01-25 16:44:59.86	314.21	31.45	-41.9	-43.0	21.9	0.00e+00	0	41	0	724566016	56	6399
2026-01-25 16:45:00.86	313.86	31.44	-41.5	-42.5	22.0	0.00e+00	0	41	0	726663168	56	6060
2026-01-25 16:45:01.87	313.50	31.43	-41.5	-42.5	22.2	0.00e+00	0	41	0	728760320	56	6044
2026-01-25 16:45:02.88	313.14	31.41	-41.0	-41.9	22.6	0.00e+00	0	41	0	730857472	56	5684
2026-01-25 16:45:03.89	312.78	31.40	-40.8	-41.7	22.7	0.00e+00	35	41	0	731906048	54	6236
2026-01-25 16:45:04.90	312.42	31.38	-40.9	-41.8	22.7	0.00e+00	0	41	0	734003200	54	6297
2026-01-25 16:45:05.91	312.06	31.37	-41.5	-42.5	22.2	0.00e+00	75	41	0	736100352	54	6824
2026-01-25 16:45:06.92	311.70	31.35	-42.1	-43.2	21.6	0.00e+00	0	41	0	738197504	56	6597
2026-01-25 16:45:07.93	311.34	31.33	-42.3	-43.5	21.5	0.00e+00	0	41	0	740294656	56	6811
2026-01-25 16:45:08.94	310.98	31.31	-42.3	-43.4	21.5	0.00e+00	0	41	0	741343232	56	6743
2026-01-25 16:45:09.95	310.63	31.28	-42.4	-43.6	21.4	0.00e+00	0	41	0	743440384	56	6918
2026-01-25 16:45:10.96	310.27	31.26	-42.4	-43.6	21.3	0.00e+00	60	41	0	745537536	56	6891
2026-01-25 16:45:11.97	309.91	31.23	-42.3	-43.5	21.4	0.00e+00	0	41	0	747634688	56	6818
2026-01-25 16:45:12.98	309.56	31.21	-42.2	-43.3	21.6	0.00e+00	92	41	0	749731840	56	6660
2026-01-25 16:45:13.99	309.20	31.18	-42.5	-43.7	21.3	0.00e+00	0	41	0	750780416	56	6992
2026-01-25 16:45:14.99	308.85	31.15	-42.2	-43.4	21.3	0.00e+00	0	41	0	752877568	56	6759
2026-01-25 16:45:16.01	308.50	31.12	-42.2	-43.3	21.6	0.00e+00	0	41	0	754974720	56	6680
2026-01-25 16:45:17.01	308.15	31.09	-41.5	-42.5	22.1	0.00e+00	0	41	0	757071872	56	6088
2026-01-25 16:45:18.02	307.79	31.06	-41.1	-42.1	22.4	0.00e+00	17	41	0	759169024	56	5802
2026-01-25 16:45:19.03	307.44	31.03	-41.1	-42.1	22.5	0.00e+00	0	41	0	761266176	56	5809
2026-01-25 16:45:20.04	307.09	30.99	-41.3	-42.3	22.3	0.00e+00	48	41	0	762314752	56	5955
2026-01-25 16:45:21.05	306.74	30.95	-41.9	-43.0	21.7	0.00e+00	0	41	0	764411904	56	6416
2026-01-25 16:45:22.06	306.39	30.92	-42.6	-43.9	21.0	0.00e+00	0	41	0	766509056	56	7092
2026-01-25 16:45:23.07	306.04	30.88	-42.7	-44.0	21.0	0.00e+00	0	41	0	768606208	58	6444
2026-01-25 16:45:24.08	305.69	30.84	-42.1	-43.3	21.6	0.00e+00	0	41	0	770703360	58	5947
2026-01-25 16:45:25.09	305.35	30.80	-41.2	-42.2	22.4	0.00e+00	7	41	0	771751936	56	5854
2026-01-25 16:45:26.10	305.00	30.76	-41.0	-42.0	22.7	0.00e+00	32	41	0	773849088	56	5696
2026-01-25 16:45:27.11	304.66	30.72	-40.3	-41.3	23.1	0.00e+00	92	41	0	775946240	54	5898
2026-01-25 16:45:28.12	304.31	30.67	-40.3	-41.3	23.2	0.00e+00	0	41	0	778043392	54	5916
2026-01-25 16:45:29.13	303.97	30.63	-40.3	-41.2	23.2	0.00e+00	90	41	0	780140544	54	5883
2026-01-25 16:45:30.14	303.63	30.58	-40.6	-41.6	22.7	0.00e+00	0	41	0	781189120	54	6129
2026-01-25 16:45:31.14	303.29	30.54	-41.0	-42.0	22.4	0.00e+00	0	41	0	783286272	54	6431
2026-01-25 16:45:32.15	302.95	30.49	-41.2	-42.2	22.4	0.00e+00	0	41	0	785383424	54	6612
2026-01-25 16:45:33.16	302.61	30.44	-41.0	-42.0	22.4	0.00e+00	0	41	0	787480576	54	6424
2026-01-25 16:45:34.17	302.27	30.39	-41.4	-42.5	22.1	0.00e+00	34	41	0	789577728	54	6775
2026-01-25 16:45:35.18	301.93	30.34	-41.5	-42.6	21.9	0.00e+00	0	41	0	790626304	54	6866
2026-01-25 16:45:36.19	301.60	30.28	-41.3	-42.4	22.1	0.00e+00	91	41	0	792723456	54	6742
2026-01-25 16:45:37.20	301.26	30.23	-41.2	-42.3	22.3	0.00e+00	0	41	0	794820608	54	6675
2026-01-25 16:45:38.21	300.93	30.18	-41.1	-42.1	22.3	0.00e+00	0	41	0	796917760	54	6538
2026-01-25 16:45:39.22	300.60	30.12	-40.6	-41.5	22.8	0.00e+00	0	41	0	799014912	54	6102
2026-01-25 16:45:40.23	300.26	30.07	-40.7	-41.6	22.8	0.00e+00	0	41	0	800063488	54	6169
2026-01-25 16:45:41.24	299.93	30.01	-41.1	-42.1	22.6	0.00e+00	36	41	0	802160640	54	6485
2026-01-25 16:45:42.24	299.61	29.95	-41.4	-42.4	22.0	0.00e+00	0	41	0	804257792	54	6754
2026-01-25 16:45:43.26	299.28	29.89	-42.0	-43.1	21.7	0.00e+00	58	41	0	806354944	56	6516
2026-01-25 16:45:44.27	298.95	29.83	-41.5	-42.5	22.2	0.00e+00	0	41	0	808452096	56	6096
2026-01-25 16:45:45.28	298.62	29.77	-41.5	-42.5	22.2	0.00e+00	0	41	0	809500672	56	6066
2026-01-25 16:45:46.28	298.30	29.71	-41.4	-42.4	22.3	0.00e+00	0	41	0	811597824	56	6028
2026-01-25 16:45:47.29	297.98	29.65	-41.4	-42.4	22.4	0.00e+00	0	41	0	813694976	56	5999
2026-01-25 16:45:48.30	297.66	29.58	-41.4	-42.5	22.3	0.00e+00	32	41	0	815792128	56	6045
2026-01-25 16:45:49.31	297.34	29.52	-41.4	-42.4	22.4	0.00e+00	0	41	0	817889280	56	5998
2026-01-25 16:45:50.32	297.02	29.45	-41.4	-42.4	22.2	0.00e+00	92	41	0	818937856	56	5994
2026-01-25 16:45:51.33	296.70	29.39	-41.7	-42.8	22.1	0.00e+00	0	41	0	821035008	56	6256
2026-01-25 16:45:52.34	296.38	29.32	-41.8	-42.9	21.9	0.00e+00	0	41	0	823132160	56	6327
2026-01-25 16:45:53.35	296.07	29.25	-41.8	-42.9	21.8	0.00e+00	0	41	0	825229312	56	6359
2026-01-25 16:45:54.36	295.75	29.18	-41.8	-42.8	21.9	0.00e+00	0	41	0	827326464	56	6290
2026-01-25 16:45:55.37	295.44	29.12	-42.2	-43.3	21.6	0.00e+00	30	41	0	828375040	56	6652
2026-01-25 16:45:56.38	295.13	29.05	-42.8	-44.1	20.8	0.00e+00	0	40	0	830472192	58	6490
2026-01-25 16:45:57.39	294.82	28.97	-43.1	-44.4	20.5	0.00e+00	92	40	0	832569344	58	6739
2026-01-25 16:45:58.39	294.51	28.90	-43.2	-44.5	20.4	0.00e+00	0	41	0	834666496	58	6832
2026-01-25 16:45:59.40	294.21	28.83	-43.3	-44.6	20.3	0.00e+00	0	41	0	836763648	58	6913
2026-01-25 16:46:00.41	293.90	28.76	-43.3	-44.6	20.2	0.00e+00	0	41	0	837812224	58	6926
2026-01-25 16:46:01.42	293.60	28.68	-43.4	-44.8	20.1	0.00e+00	0	41	0	839909376	58	7038
2026-01-25 16:46:02.42	293.30	28.61	-43.2	-44.6	20.4	0.00e+00	32	41	0	842006528	58	6854
2026-01-25 16:46:03.43	292.99	28.54	-43.0	-44.3	20.7	0.00e+00	0	41	0	844103680	58	6628
2026-01-25 16:46:04.44	292.69	28.46	-42.9	-44.2	20.7	0.00e+00	91	41	0	846200832	58	6581
2026-01-25 16:46:05.45	292.39	28.38	-42.9	-44.3	20.6	0.00e+00	0	41	0	847249408	58	6664
2026-01-25 16:46:06.46	292.10	28.31	-42.8	-44.1	20.8	0.00e+00	67	41	0	849346560	58	6525
2026-01-25 16:46:07.47	291.80	28.23	-42.6	-43.9	21.1	0.00e+00	0	41	0	851443712	58	6369
2026-01-25 16:46:08.47	291.51	28.15	-42.1	-43.2	21.4	0.00e+00	0	41	0	853540864	58	5896
2026-01-25 16:46:09.48	291.22	28.07	-41.7	-42.7	22.0	0.00e+00	0	41	0	855638016	56	6239
2026-01-25 16:46:10.49	290.93	27.99	-41.4	-42.4	22.3	0.00e+00	0	41	0	857735168	56	6033
2026-01-25 16:46:11.50	290.63	27.91	-40.5	-41.5	23.0	0.00e+00	30	41	0	858783744	54	6050
2026-01-25 16:46:12.51	290.35	27.83	-40.0	-41.0	23.1	0.00e+00	0	41	0	860880896	54	5696
2026-01-25 16:46:13.52	290.06	27.75	-39.9	-40.8	23.6	0.00e+00	92	41	0	862978048	54	5584
2026-01-25 16:46:14.53	289.77	27.67	-39.9	-40.7	23.4	0.00e+00	0	41	0	865075200	52	6231
2026-01-25 16:46:15.54	289.49	27.58	-40.2	-41.1	23.4	0.00e+00	0	41	0	867172352	52	6494
2026-01-25 16:46:16.54	289.21	27.50	-40.6	-41.6	22.8	0.00e+00	0	41	0	868220928	52	6855
2026-01-25 16:46:17.55	288.93	27.42	-40.5	-41.4	22.9	0.00e+00	0	41	0	870318080	52	6749
2026-01-25 16:46:18.56	288.65	27.33	-40.4	-41.3	23.1	0.00e+00	65	41	0	872415232	52	6649
2026-01-25 16:46:19.57	288.37	27.25	-40.4	-41.3	23.1	0.00e+00	0	41	0	874512384	52	6669
2026-01-25 16:46:20.58	288.09	27.16	-41.1	-42.1	22.3	0.00e+00	92	41	0	876609536	54	6483
2026-01-25 16:46:21.59	287.82	27.08	-41.8	-43.0	21.7	0.00e+00	0	41	0	877658112	54	7175
2026-01-25 16:46:22.60	287.54	26.99	-42.3	-43.4	21.4	0.00e+00	0	41	0	879755264	56	6740
2026-01-25 16:46:23.61	287.27	26.91	-41.1	-42.1	22.5	0.00e+00	0	41	0	881852416	56	5811
2026-01-25 16:46:24.62	287.00	26.82	-41.0	-42.0	22.6	0.00e+00	0	41	0	883949568	56	5745
2026-01-25 16:46:25.63	286.73	26.73	-40.5	-41.5	22.9	0.00e+00	52	41	0	886046720	54	6053
2026-01-25 16:46:26.63	286.47	26.65	-40.8	-41.8	22.4	0.00e+00	33	41	0	887095296	54	6304
2026-01-25 16:46:27.64	286.20	26.56	-41.4	-42.5	22.1	0.00e+00	91	41	0	889192448	54	6845
2026-01-25 16:46:28.65	285.93	26.47	-42.2	-43.4	21.3	0.00e+00	0	41	0	891289600	56	6731
2026-01-25 16:46:29.66	285.67	26.38	-42.7	-44.0	20.9	0.00e+00	0	41	0	893386752	58	6417
2026-01-25 16:46:30.67	285.41	26.29	-42.7	-43.9	20.9	0.00e+00	0	41	0	895483904	58	6385
2026-01-25 16:46:31.68	285.15	26.20	-42.4	-43.6	21.3	0.00e+00	0	41	0	896532480	58	6146
2026-01-25 16:46:32.69	284.89	26.11	-42.3	-43.5	21.3	0.00e+00	0	41	0	898629632	58	6064
2026-01-25 16:46:33.70	284.63	26.02	-41.7	-42.7	22.0	0.00e+00	0	41	0	900726784	56	6231
2026-01-25 16:46:34.71	284.38	25.93	-41.0	-42.0	22.6	0.00e+00	92	41	0	902823936	56	5741
2026-01-25 16:46:35.72	284.12	25.84	-40.4	-41.4	23.1	0.00e+00	0	41	0	904921088	54	5968
2026-01-25 16:46:36.73	283.87	25.75	-40.1	-41.0	23.4	0.00e+00	0	41	0	905969664	54	5729
2026-01-25 16:46:37.74	283.62	25.66	-40.1	-41.0	23.3	0.00e+00	0	41	0	908066816	54	5711
2026-01-25 16:46:38.75	283.37	25.56	-39.9	-40.8	23.4	0.00e+00	0	41	0	910163968	54	5605
2026-01-25 16:46:39.75	283.12	25.47	-39.8	-40.7	23.5	0.00e+00	0	41	0	912261120	54	5544
2026-01-25 16:46:40.76	282.87	25.38	-39.6	-40.5	23.8	0.00e+00	0	41	0	914358272	52	6061
2026-01-25 16:46:41.77	282.63	25.29	-39.3	-40.2	23.9	0.00e+00	34	41	0	915406848	52	5849
2026-01-25 16:46:42.78	282.38	25.20	-39.3	-40.1	23.8	0.00e+00	0	40	0	917504000	52	5827
2026-01-25 16:46:43.79	282.14	25.10	-39.6	-40.5	23.7	0.00e+00	90	41	0	919601152	52	6067
2026-01-25 16:46:44.80	281.90	25.01	-39.6	-40.5	23.5	0.00e+00	0	41	0	921698304	52	6073
2026-01-25 16:46:45.81	281.66	24.92	-39.6	-40.4	23.7	0.00e+00	0	41	0	923795456	52	6027
2026-01-25 16:46:46.82	281.42	24.82	-39.3	-40.1	24.0	0.00e+00	0	41	0	924844032	52	5791
2026-01-25 16:46:47.82	281.18	24.73	-39.1	-40.0	23.9	0.00e+00	0	41	0	926941184	52	5709
2026-01-25 16:46:48.83	280.95	24.63	-39.1	-40.0	24.1	0.00e+00	36	41	0	929038336	52	5698
2026-01-25 16:46:49.84	280.71	24.54	-39.0	-39.8	24.3	0.00e+00	0	41	0	931135488	52	5579
2026-01-25 16:46:50.85	280.48	24.44	-38.9	-39.8	24.3	0.00e+00	92	41	0	933232640	52	5572
2026-01-25 16:46:51.86	280.25	24.35	-38.9	-39.7	24.3	0.00e+00	0	41	0	934281216	52	5562
2026-01-25 16:46:52.87	280.02	24.26	-39.4	-40.2	23.9	0.00e+00	0	41	0	936378368	52	5864
2026-01-25 16:46:53.88	279.79	24.16	-39.4	-40.2	23.7	0.00e+00	0	41	0	938475520	52	5861
2026-01-25 16:46:54.89	279.56	24.06	-39.7	-40.5	23.5	0.00e+00	0	41	0	940572672	52	6076
2026-01-25 16:46:55.90	279.34	23.97	-39.8	-40.7	23.4	0.00e+00	38	41	0	942669824	52	6236
2026-01-25 16:46:56.91	279.11	23.87	-40.0	-40.9	23.3	0.00e+00	0	41	0	943718400	52	6339
2026-01-25 16:46:57.91	278.89	23.78	-40.1	-41.1	23.2	0.00e+00	81	41	0	945815552	52	6470
2026-01-25 16:46:58.92	278.67	23.68	-40.0	-40.9	23.4	0.00e+00	0	41	0	947912704	52	6329
2026-01-25 16:46:59.93	278.45	23.59	-40.1	-41.1	23.2	0.00e+00	0	41	0	950009856	52	6465
2026-01-25 16:47:00.94	278.23	23.49	-40.0	-40.9	23.2	0.00e+00	0	41	0	952107008	52	6381
2026-01-25 16:47:01.95	278.01	23.40	-40.2	-41.1	23.2	0.00e+00	0	41	0	954204160	52	6503
2026-01-25 16:47:02.96	277.80	23.30	-39.7	-40.5	23.7	0.00e+00	35	41	0	955252736	52	6102
2026-01-25 16:47:03.97	277.58	23.20	-39.6	-40.4	23.7	0.00e+00	0	41	0	957349888	52	6028
2026-01-25 16:47:04.98	277.37	23.11	-39.2	-40.0	24.1	0.00e+00	54	41	0	959447040	52	5756
2026-01-25 16:47:05.98	277.16	23.01	-39.0	-39.8	24.1	0.00e+00	0	41	0	961544192	52	5619
2026-01-25 16:47:07.00	276.94	22.91	-38.7	-39.6	24.2	0.00e+00	45	41	0	963641344	50	6111
2026-01-25 16:47:08.00	276.73	22.82	-38.5	-39.3	24.2	0.00e+00	0	41	0	964689920	50	5928
2026-01-25 16:47:09.01	276.53	22.72	-38.0	-38.8	24.8	0.00e+00	0	41	0	966787072	50	5591
2026-01-25 16:47:10.02	276.32	22.62	-38.1	-38.8	24.7	0.00e+00	13	41	0	968884224	50	5628
2026-01-25 16:47:11.03	276.11	22.53	-37.8	-38.6	24.9	0.00e+00	0	41	0	970981376	50	5456
2026-01-25 16:47:12.04	275.91	22.43	-38.0	-38.8	24.8	0.00e+00	92	41	0	973078528	50	5584
2026-01-25 16:47:13.05	275.71	22.33	-38.2	-39.0	24.7	0.00e+00	0	41	0	974127104	50	5708
2026-01-25 16:47:14.06	275.50	22.24	-38.5	-39.3	24.4	0.00e+00	77	41	0	976224256	50	5956
2026-01-25 16:47:15.07	275.30	22.14	-38.9	-39.8	24.1	0.00e+00	0	41	0	978321408	50	6266
2026-01-25 16:47:16.08	275.10	22.04	-39.0	-39.9	24.1	0.00e+00	33	41	0	980418560	50	6359
2026-01-25 16:47:17.09	274.90	21.95	-39.3	-40.2	23.8	0.00e+00	33	41	0	982515712	50	6564
2026-01-25 16:47:18.10	274.71	21.85	-39.2	-40.1	24.0	0.00e+00	0	41	0	983564288	50	6472
2026-01-25 16:47:19.11	274.51	21.75	-39.0	-39.9	24.0	0.00e+00	33	41	0	985661440	50	6332
2026-01-25 16:47:20.12	274.32	21.66	-39.0	-39.9	24.0	0.00e+00	0	41	0	987758592	50	6336
2026-01-25 16:47:21.13	274.12	21.56	-39.3	-40.2	23.9	0.00e+00	92	41	0	989855744	50	6552
2026-01-25 16:47:22.14	273.93	21.46	-39.5	-40.4	23.7	0.00e+00	0	41	0	991952896	50	6753
2026-01-25 16:47:23.15	273.74	21.37	-39.5	-40.3	23.7	0.00e+00	0	41	0	993001472	50	6676
2026-01-25 16:47:24.16	273.55	21.27	-39.5	-40.3	23.7	0.00e+00	0	41	0	995098624	50	6686
2026-01-25 16:47:25.17	273.36	21.17	-39.5	-40.3	23.6	0.00e+00	0	41	0	997195776	50	6674
2026-01-25 16:47:26.18	273.17	21.08	-39.7	-40.6	23.5	0.00e+00	27	41	0	999292928	50	6852
2026-01-25 16:47:27.19	272.99	20.98	-39.6	-40.5	23.6	0.00e+00	0	41	0	1001390080	50	6801
2026-01-25 16:47:28.20	272.80	20.88	-39.9	-40.8	23.4	0.00e+00	71	41	0	1002438656	52	6295
2026-01-25 16:47:29.21	272.62	20.79	-39.7	-40.6	23.5	0.00e+00	0	41	0	1004535808	52	6107
2026-01-25 16:47:30.21	272.44	20.69	-39.6	-40.4	23.6	0.00e+00	0	41	0	1006632960	52	6020
2026-01-25 16:47:31.23	272.26	20.60	-39.5	-40.4	23.8	0.00e+00	0	41	0	1008730112	52	5969
2026-01-25 16:47:32.24	272.08	20.50	-39.2	-40.1	23.9	0.00e+00	0	41	0	1010827264	52	5762
2026-01-25 16:47:33.25	271.90	20.40	-38.6	-39.4	24.4	0.00e+00	47	41	0	1011875840	50	5983
2026-01-25 16:47:34.25	271.72	20.31	-38.5	-39.3	24.4	0.00e+00	0	41	0	1013972992	50	5956
2026-01-25 16:47:35.26	271.54	20.21	-38.5	-39.3	24.5	0.00e+00	92	41	0	1016070144	50	5919
2026-01-25 16:47:36.27	271.37	20.12	-38.3	-39.1	24.5	0.00e+00	0	41	0	1018167296	50	5812
2026-01-25 16:47:37.28	271.19	20.02	-38.7	-39.5	24.3	0.00e+00	0	41	0	1020264448	50	6041
2026-01-25 16:47:38.29	271.02	19.92	-39.0	-39.8	24.0	0.00e+00	0	41	0	1022361600	50	6314
2026-01-25 16:47:39.30	270.85	19.83	-39.4	-40.3	23.4	0.00e+00	0	41	0	1023410176	50	6648
2026-01-25 16:47:40.30	270.68	19.73	-39.8	-40.7	23.4	0.00e+00	0	41	0	1025507328	50	6930
2026-01-25 16:47:41.31	270.51	19.64	-40.2	-41.1	23.0	0.00e+00	0	41	0	1027604480	52	6498
2026-01-25 16:47:42.32	270.34	19.54	-40.1	-41.0	23.2	0.00e+00	92	41	0	1029701632	52	6463
2026-01-25 16:47:43.33	270.17	19.45	-40.3	-41.3	22.8	0.00e+00	0	41	0	1031798784	52	6627
2026-01-25 16:47:44.34	270.00	19.35	-39.9	-40.8	22.6	0.00e+00	13	41	0	1032847360	52	6300
2026-01-25 16:47:45.35	269.83	19.26	-39.6	-40.5	23.4	0.00e+00	0	41	0	1034944512	52	6087
2026-01-25 16:47:46.36	269.67	19.16	-39.3	-40.2	23.7	0.00e+00	0	41	0	1037041664	52	5846
2026-01-25 16:47:47.37	269.51	19.07	-39.2	-40.0	23.9	0.00e+00	0	41	0	1039138816	52	5723
2026-01-25 16:47:48.38	269.34	18.97	-39.0	-39.8	24.1	0.00e+00	0	41	0	1041235968	52	5601
2026-01-25 16:47:49.39	269.18	18.88	-38.6	-39.4	24.3	0.00e+00	92	41	0	1042284544	50	6000
2026-01-25 16:47:50.40	269.02	18.78	-38.7	-39.5	24.2	0.00e+00	0	41	0	1044381696	50	6091
2026-01-25 16:47:51.40	268.86	18.69	-38.9	-39.7	24.1	0.00e+00	84	41	0	1046478848	50	6220
2026-01-25 16:47:52.42	268.70	18.59	-39.2	-40.1	23.9	0.00e+00	0	41	0	1048576000	50	6468
2026-01-25 16:47:53.42	268.54	18.50	-39.4	-40.3	23.6	0.00e+00	0	41	0	1050673152	50	6644
2026-01-25 16:47:54.43	268.39	18.41	-39.9	-40.8	23.3	0.00e+00	0	41	0	1051721728	52	6317
2026-01-25 16:47:55.44	268.23	18.31	-40.1	-41.1	23.1	0.00e+00	0	41	0	1053818880	52	6476
2026-01-25 16:47:56.45	268.08	18.22	-40.5	-41.4	22.8	0.00e+00	26	41	0	1055916032	52	6746
2026-01-25 16:47:57.46	267.92	18.13	-40.8	-41.8	22.5	0.00e+00	0	41	0	1058013184	54	6288
2026-01-25 16:47:58.47	267.77	18.03	-41.2	-42.3	22.1	0.00e+00	70	41	0	1060110336	54	6628
2026-01-25 16:47:59.48	267.62	17.94	-41.5	-42.6	22.0	0.00e+00	0	41	0	1061158912	54	6900
2026-01-25 16:48:00.49	267.47	17.85	-41.2	-42.3	22.2	0.00e+00	0	41	0	1063256064	54	6647
2026-01-25 16:48:01.50	267.32	17.75	-40.9	-41.9	22.4	0.00e+00	0	41	0	1065353216	54	6365
2026-01-25 16:48:02.51	267.17	17.66	-40.4	-41.4	22.9	0.00e+00	0	41	0	1067450368	54	5966
2026-01-25 16:48:03.52	267.02	17.57	-40.3	-41.2	23.0	0.00e+00	31	41	0	1069547520	54	5862
2026-01-25 16:48:04.53	266.87	17.48	-40.1	-41.1	22.9	0.00e+00	0	41	0	1070596096	54	5767
2026-01-25 16:48:05.54	266.72	17.38	-40.1	-41.1	23.0	0.00e+00	92	41	0	1072693248	54	5776
2026-01-25 16:48:06.55	266.58	17.29	-40.0	-40.9	23.1	0.00e+00	0	41	0	1074790400	54	5672
2026-01-25 16:48:07.56	266.43	17.20	-40.3	-41.3	22.8	0.00e+00	0	41	0	1076887552	54	5919
2026-01-25 16:48:08.57	266.29	17.11	-40.5	-41.5	22.7	0.00e+00	0	41	0	1078984704	54	6088
2026-01-25 16:48:09.57	266.15	17.02	-40.7	-41.7	22.5	0.00e+00	0	41	0	1080033280	54	6219
2026-01-25 16:48:10.58	266.01	16.92	-41.5	-42.6	21.8	0.00e+00	18	41	0	1082130432	54	6858
2026-01-25 16:48:11.59	265.86	16.83	-41.4	-42.5	21.9	0.00e+00	0	41	0	1084227584	54	6805
2026-01-25 16:48:12.60	265.72	16.74	-41.2	-42.3	22.0	0.00e+00	92	41	0	1086324736	54	6639
2026-01-25 16:48:13.61	265.58	16.65	-41.1	-42.1	22.2	0.00e+00	0	41	0	1088421888	54	6517
2026-01-25 16:48:14.62	265.45	16.56	-41.0	-42.1	22.2	0.00e+00	92	41	0	1089470464	54	6487
2026-01-25 16:48:15.63	265.31	16.47	-40.6	-41.5	22.7	0.00e+00	0	41	0	1091567616	54	6102
2026-01-25 16:48:16.64	265.17	16.38	-40.4	-41.4	22.8	0.00e+00	0	41	0	1093664768	54	5967
2026-01-25 16:48:17.65	265.03	16.29	-40.3	-41.3	22.9	0.00e+00	28	41	0	1095761920	54	5932
2026-01-25 16:48:18.66	264.90	16.20	-39.8	-40.8	23.2	0.00e+00	0	41	0	1097859072	54	5568
2026-01-25 16:48:19.67	264.77	16.11	-39.8	-40.7	23.3	0.00e+00	92	41	0	1098907648	54	5540
2026-01-25 16:48:20.68	264.63	16.02	-39.8	-40.7	23.3	0.00e+00	0	41	0	1101004800	52	6218
2026-01-25 16:48:21.69	264.50	15.93	-39.8	-40.7	23.3	0.00e+00	92	41	0	1103101952	52	6239
2026-01-25 16:48:22.70	264.37	15.84	-39.7	-40.6	23.1	0.00e+00	0	41	0	1105199104	52	6108
2026-01-25 16:48:23.71	264.24	15.75	-39.8	-40.8	23.3	0.00e+00	0	41	0	1107296256	52	6247
2026-01-25 16:48:24.71	264.11	15.66	-39.8	-40.7	23.4	0.00e+00	9	41	0	1108344832	52	6219
2026-01-25 16:48:25.72	263.98	15.57	-39.8	-40.7	23.3	0.00e+00	0	41	0	1110441984	52	6216
2026-01-25 16:48:26.73	263.85	15.48	-40.2	-41.1	23.0	0.00e+00	27	41	0	1112539136	52	6521
2026-01-25 16:48:27.74	263.72	15.39	-40.2	-41.1	23.0	0.00e+00	0	41	0	1114636288	52	6502
2026-01-25 16:48:28.75	263.59	15.30	-40.3	-41.2	22.9	0.00e+00	83	41	0	1116733440	52	6602
2026-01-25 16:48:29.76	263.47	15.22	-40.3	-41.2	22.9	0.00e+00	0	41	0	1118830592	52	6587
2026-01-25 16:48:30.77	263.34	15.13	-40.3	-41.2	22.9	0.00e+00	0	41	0	1119879168	52	6593
2026-01-25 16:48:31.78	263.22	15.04	-40.1	-41.0	23.0	0.00e+00	0	41	0	1121976320	52	6457
2026-01-25 16:48:32.79	263.09	14.95	-40.3	-41.2	22.9	0.00e+00	0	41	0	1124073472	52	6597
2026-01-25 16:48:33.80	262.97	14.86	-40.3	-41.3	22.9	0.00e+00	36	41	0	1126170624	52	6620
2026-01-25 16:48:34.81	262.84	14.78	-40.0	-40.9	23.2	0.00e+00	0	41	0	1128267776	52	6343
2026-01-25 16:48:35.82	262.72	14.69	-39.8	-40.7	23.3	0.00e+00	57	41	0	1129316352	52	6227
2026-01-25 16:48:36.83	262.60	14.60	-40.0	-40.9	23.2	0.00e+00	0	41	0	1131413504	52	6346
2026-01-25 16:48:37.84	262.48	14.51	-39.9	-40.8	23.2	0.00e+00	0	41	0	1133510656	52	6289
2026-01-25 16:48:38.85	262.36	14.43	-40.1	-41.1	23.0	0.00e+00	0	41	0	1135607808	52	6479
2026-01-25 16:48:39.86	262.24	14.34	-40.3	-41.3	22.8	0.00e+00	0	41	0	1137704960	52	6652
2026-01-25 16:48:40.87	262.12	14.25	-40.6	-41.6	22.5	0.00e+00	30	41	0	1138753536	52	6861
2026-01-25 16:48:41.88	262.01	14.17	-40.8	-41.9	22.3	0.00e+00	0	41	0	1140850688	54	6330
2026-01-25 16:48:42.89	261.89	14.08	-41.7	-42.8	21.6	0.00e+00	46	41	0	1142947840	54	7025
2026-01-25 16:48:43.90	261.77	14.00	-41.9	-43.1	21.4	0.00e+00	0	41	0	1145044992	56	6507
2026-01-25 16:48:44.91	261.66	13.91	-42.1	-43.3	21.2	0.00e+00	0	41	0	1147142144	56	6632
2026-01-25 16:48:45.91	261.54	13.83	-42.2	-43.4	21.2	0.00e+00	0	41	0	1148190720	56	6755
2026-01-25 16:48:46.92	261.43	13.74	-42.2	-43.4	21.1	0.00e+00	0	41	0	1150287872	56	6737
2026-01-25 16:48:47.93	261.31	13.66	-41.7	-42.8	21.7	0.00e+00	42	41	0	1152385024	56	6262
2026-01-25 16:48:48.94	261.20	13.57	-41.5	-42.6	21.8	0.00e+00	0	41	0	1154482176	56	6109
2026-01-25 16:48:49.95	261.09	13.49	-40.9	-41.9	22.3	0.00e+00	61	41	0	1156579328	56	5664
2026-01-25 16:48:50.96	260.98	13.40	-40.4	-41.4	22.7	0.00e+00	0	41	0	1157627904	54	5980
2026-01-25 16:48:51.97	260.87	13.32	-40.4	-41.3	22.7	0.00e+00	92	41	0	1159725056	54	5959
2026-01-25 16:48:52.98	260.76	13.23	-40.1	-41.0	22.9	0.00e+00	0	41	0	1161822208	54	5750
2026-01-25 16:48:53.99	260.65	13.15	-40.0	-40.9	23.0	0.00e+00	0	41	0	1163919360	54	5670
2026-01-25 16:48:55.00	260.54	13.06	-39.9	-40.8	23.1	0.00e+00	0	41	0	1166016512	54	5596
2026-01-25 16:48:56.01	260.43	12.98	-39.7	-40.6	23.2	0.00e+00	0	41	0	1167065088	52	6150
2026-01-25 16:48:57.01	260.32	12.90	-39.7	-40.7	23.2	0.00e+00	83	41	0	1169162240	52	6179
2026-01-25 16:48:58.02	260.21	12.82	-40.0	-41.0	22.7	0.00e+00	0	41	0	1171259392	52	6407
2026-01-25 16:48:59.03	260.11	12.73	-40.5	-41.5	22.6	0.00e+00	87	41	0	1173356544	52	6794
2026-01-25 16:49:00.04	260.00	12.65	-40.7	-41.8	22.2	0.00e+00	0	41	0	1175453696	54	6271
2026-01-25 16:49:01.05	259.90	12.57	-41.2	-42.3	21.9	0.00e+00	0	41	0	1176502272	54	6619
2026-01-25 16:49:02.06	259.79	12.48	-41.5	-42.6	21.5	0.00e+00	0	41	0	1178599424	54	6913
2026-01-25 16:49:03.07	259.69	12.40	-42.0	-43.2	21.2	0.00e+00	0	41	0	1180696576	56	6559
2026-01-25 16:49:04.08	259.58	12.32	-42.3	-43.6	20.9	0.00e+00	50	41	0	1182793728	56	6855
2026-01-25 16:49:05.09	259.48	12.24	-42.8	-44.1	20.4	0.00e+00	0	41	0	1184890880	58	6525
2026-01-25 16:49:06.10	259.38	12.16	-42.9	-44.3	20.2	0.00e+00	91	41	0	1186988032	58	6626
2026-01-25 16:49:07.11	259.28	12.07	-42.9	-44.2	20.3	0.00e+00	0	41	0	1188036608	58	6591
2026-01-25 16:49:08.12	259.18	11.99	-42.8	-44.2	20.3	0.00e+00	0	41	0	1190133760	58	6552
2026-01-25 16:49:09.13	259.08	11.91	-42.9	-44.2	20.3	0.00e+00	0	41	0	1192230912	58	6577
2026-01-25 16:49:10.13	258.98	11.83	-42.6	-43.9	20.5	0.00e+00	0	41	0	1194328064	58	6375
2026-01-25 16:49:11.14	258.88	11.75	-43.0	-44.4	20.1	0.00e+00	61	41	0	1196425216	58	6696
2026-01-25 16:49:12.15	258.78	11.67	-42.8	-44.2	20.2	0.00e+00	0	41	0	1197473792	58	6544
