passes_logs/2026/01/25/R4.6S_Anadyr/R4.6S_Anadyr__20260125_181717_SUOMI_NPP_rec.log

#Pass ID: 20260125_181717_SUOMI NPP
#Satellite: SUOMI NPP
#Configuration: NPP
#almurnet v.1.7.20251203
#Start time: 2026-01-25 18:17:20

#Version: 2.2.20231116
#Station: R4.6S_Anadyr
#Location: 177.4865 lon 64.73178 lat
#TLE: 1 37849U 11061A   26025.32440757  .00000181  00000+0  10697-3 0  9992
#TLE: 2 37849  98.7822 327.2846 0002175  45.9958 314.1397 14.19529737738178

#Time	Az	El	Level	Level2	SNR	BER	BlckErr	Temp	State	Recorded	gain1	gain2
2026-01-25 18:17:20.50	38.27	0.14	-50.2	-61.9	3.5	8.45e-01	0	38	0	0	60	44879
2026-01-25 18:17:21.51	38.20	0.19	-51.2	-66.3	3.6	1.51e+00	0	39	104	0	60	75041
2026-01-25 18:17:22.51	38.13	0.24	-51.0	-66.2	3.6	1.51e+00	0	39	104	0	60	73623
2026-01-25 18:17:23.53	38.06	0.30	-51.0	-66.1	3.6	1.51e+00	0	40	104	0	60	73194
2026-01-25 18:17:24.53	37.99	0.35	-50.9	-66.1	3.6	1.51e+00	0	40	104	0	60	72936
2026-01-25 18:17:25.54	37.92	0.40	-50.9	-66.1	3.6	1.51e+00	0	40	104	0	60	72726
2026-01-25 18:17:26.56	37.85	0.45	-50.8	-66.0	3.6	1.51e+00	0	40	104	0	60	71940
2026-01-25 18:17:27.56	37.78	0.50	-50.7	-66.0	3.6	1.51e+00	0	40	104	0	60	72379
2026-01-25 18:17:28.57	37.70	0.55	-50.8	-66.0	3.6	1.51e+00	0	40	104	0	60	71966
2026-01-25 18:17:29.59	37.63	0.60	-50.8	-66.0	3.6	1.51e+00	0	40	104	0	60	72144
2026-01-25 18:17:30.60	37.56	0.66	-50.8	-66.0	3.6	1.51e+00	0	40	104	0	60	71844
2026-01-25 18:17:31.61	37.49	0.71	-50.7	-65.9	3.6	1.51e+00	0	40	104	0	60	71470
2026-01-25 18:17:32.62	37.41	0.76	-50.8	-65.9	3.6	1.51e+00	0	40	104	0	60	71338
2026-01-25 18:17:33.63	37.34	0.81	-50.7	-65.9	3.6	1.51e+00	0	40	104	0	60	71149
2026-01-25 18:17:34.64	37.27	0.86	-50.6	-65.9	3.6	1.51e+00	0	40	104	0	60	71181
2026-01-25 18:17:35.65	37.20	0.91	-50.6	-65.8	3.6	1.51e+00	0	40	104	0	60	70456
2026-01-25 18:17:36.66	37.12	0.97	-50.6	-65.8	3.6	1.51e+00	0	40	104	0	60	70453
2026-01-25 18:17:37.67	37.05	1.02	-50.5	-65.7	3.6	1.51e+00	0	40	104	0	60	69626
2026-01-25 18:17:38.68	36.97	1.07	-50.5	-65.7	3.6	1.51e+00	0	40	104	0	60	69505
2026-01-25 18:17:39.69	36.90	1.12	-50.4	-65.6	3.6	1.51e+00	0	40	104	0	60	68832
2026-01-25 18:17:40.70	36.82	1.17	-50.4	-65.5	3.6	1.51e+00	0	40	104	0	60	68033
2026-01-25 18:17:41.71	36.75	1.23	-50.3	-65.4	3.6	1.51e+00	0	40	104	0	60	67308
2026-01-25 18:17:42.72	36.67	1.28	-50.1	-65.4	3.6	1.51e+00	0	40	104	0	60	67007
2026-01-25 18:17:43.73	36.60	1.33	-49.9	-65.2	3.6	1.51e+00	0	40	104	0	60	65681
2026-01-25 18:17:44.73	36.52	1.38	-49.7	-64.9	3.6	1.51e+00	0	40	104	0	60	63880
2026-01-25 18:17:45.75	36.45	1.43	-49.3	-64.6	3.6	1.51e+00	0	40	104	0	60	61057
2026-01-25 18:17:46.76	36.37	1.49	-49.2	-64.3	3.6	1.51e+00	0	40	104	0	60	59290
2026-01-25 18:17:47.77	36.29	1.54	-49.2	-64.3	3.6	1.51e+00	0	40	104	0	60	59336
2026-01-25 18:17:48.78	36.22	1.59	-49.1	-64.3	3.6	1.51e+00	0	40	104	0	60	59587
2026-01-25 18:17:49.79	36.14	1.64	-49.1	-64.3	3.6	1.51e+00	0	40	104	0	60	59304
2026-01-25 18:17:50.80	36.06	1.70	-49.1	-64.3	3.6	1.51e+00	0	40	104	0	60	59011
2026-01-25 18:17:51.81	35.98	1.75	-49.1	-64.3	3.6	1.51e+00	0	40	104	0	60	59311
2026-01-25 18:17:52.82	35.91	1.80	-49.1	-64.3	3.6	1.51e+00	0	40	104	0	60	59287
2026-01-25 18:17:53.83	35.83	1.85	-49.1	-64.3	3.6	1.51e+00	0	40	104	0	60	59513
2026-01-25 18:17:54.84	35.75	1.91	-49.1	-64.4	3.6	1.51e+00	0	40	104	0	60	59665
2026-01-25 18:17:55.85	35.67	1.96	-49.1	-64.4	3.6	1.51e+00	0	40	104	0	60	59651
2026-01-25 18:17:56.86	35.59	2.01	-49.1	-64.3	3.6	1.51e+00	0	40	104	0	60	59155
2026-01-25 18:17:57.87	35.51	2.06	-49.1	-64.3	3.6	1.51e+00	0	40	104	0	60	59071
2026-01-25 18:17:58.88	35.43	2.12	-49.1	-64.3	3.6	1.51e+00	0	40	104	0	60	58971
2026-01-25 18:17:59.89	35.35	2.17	-49.1	-64.2	3.6	1.51e+00	0	40	104	0	60	58438
2026-01-25 18:18:00.90	35.27	2.22	-49.1	-64.0	3.6	1.51e+00	0	40	104	0	60	57568
2026-01-25 18:18:01.91	35.19	2.28	-49.1	-64.1	3.6	1.51e+00	0	40	104	0	60	58223
2026-01-25 18:18:02.92	35.11	2.33	-49.1	-64.2	3.6	1.51e+00	0	40	104	0	60	58775
2026-01-25 18:18:03.93	35.03	2.38	-49.1	-64.3	3.6	1.51e+00	0	40	104	0	60	59189
2026-01-25 18:18:04.94	34.95	2.44	-49.1	-64.4	3.6	1.51e+00	0	40	104	0	60	59682
2026-01-25 18:18:05.95	34.86	2.49	-49.1	-64.3	3.6	1.51e+00	0	40	104	0	60	59378
2026-01-25 18:18:06.96	34.78	2.54	-49.1	-64.3	3.6	1.51e+00	0	40	104	0	60	59246
2026-01-25 18:18:07.97	34.70	2.60	-49.1	-64.3	3.6	1.51e+00	0	40	104	0	60	59445
2026-01-25 18:18:08.98	34.62	2.65	-49.1	-64.2	3.6	1.51e+00	0	40	104	0	60	58469
2026-01-25 18:18:09.99	34.53	2.70	-49.1	-63.8	3.6	1.51e+00	0	40	104	0	60	56287
2026-01-25 18:18:11.00	34.45	2.76	-49.1	-63.5	3.6	1.51e+00	0	40	104	0	60	54356
2026-01-25 18:18:12.01	34.37	2.81	-49.1	-63.7	3.6	1.51e+00	0	40	104	0	60	55124
2026-01-25 18:18:13.02	34.28	2.86	-49.1	-64.1	3.6	1.51e+00	0	40	104	0	60	58073
2026-01-25 18:18:14.03	34.20	2.92	-49.0	-62.1	3.6	1.51e+00	0	41	104	0	60	46297
2026-01-25 18:18:15.04	34.11	2.97	-48.7	-58.6	5.0	1.05e+00	83	41	104	0	60	30887
2026-01-25 18:18:16.05	34.03	3.02	-48.2	-54.5	8.0	1.89e-01	0	41	0	1048576	60	19173
2026-01-25 18:18:17.06	33.94	3.08	-47.3	-51.8	11.0	3.81e-02	70	40	0	2097152	60	14102
2026-01-25 18:18:18.07	33.86	3.13	-46.4	-49.9	12.9	2.44e-05	6	40	0	4194304	60	11286
2026-01-25 18:18:19.08	33.77	3.18	-49.2	-63.9	3.6	5.56e-01	0	40	104	6291456	60	56747
2026-01-25 18:18:20.09	33.68	3.24	-49.2	-63.8	3.6	1.51e+00	0	40	104	6291456	60	56298
2026-01-25 18:18:21.10	33.60	3.29	-45.8	-48.9	13.8	1.49e+00	0	40	104	6291456	60	10024
2026-01-25 18:18:22.11	33.51	3.34	-43.8	-45.7	17.5	0.00e+00	92	41	0	6291456	60	6955
2026-01-25 18:18:23.12	33.42	3.40	-48.9	-63.3	3.6	1.52e-03	0	41	104	8388608	60	52692
2026-01-25 18:18:24.13	33.34	3.45	-43.8	-45.7	6.1	1.45e+00	6	41	104	8388608	60	6976
2026-01-25 18:18:25.14	33.25	3.51	-43.8	-45.7	17.9	0.00e+00	33	40	0	8388608	60	6940
2026-01-25 18:18:26.15	33.16	3.56	-43.6	-45.4	18.0	0.00e+00	0	41	0	10485760	60	6754
2026-01-25 18:18:27.16	33.07	3.61	-43.1	-44.8	18.6	0.00e+00	5	40	0	11534336	60	6250
2026-01-25 18:18:28.17	32.98	3.67	-43.7	-45.5	17.9	0.00e+00	0	40	0	13631488	60	6807
2026-01-25 18:18:29.18	32.89	3.72	-43.4	-45.2	18.2	0.00e+00	92	41	0	15728640	60	6556
2026-01-25 18:18:30.19	32.80	3.78	-43.2	-44.9	18.5	0.00e+00	0	41	0	17825792	60	6360
2026-01-25 18:18:31.19	32.71	3.83	-43.4	-45.2	18.2	0.00e+00	0	41	0	19922944	60	6560
2026-01-25 18:18:32.20	32.62	3.89	-43.0	-44.6	18.8	0.00e+00	0	41	0	22020096	60	6168
2026-01-25 18:18:33.21	32.53	3.94	-43.3	-45.0	18.4	0.00e+00	0	41	0	23068672	60	6464
2026-01-25 18:18:34.22	32.44	3.99	-43.1	-44.8	18.7	0.00e+00	6	41	0	25165824	60	6254
2026-01-25 18:18:35.23	32.35	4.05	-43.4	-45.1	18.2	0.00e+00	0	41	0	27262976	60	6480
2026-01-25 18:18:36.24	32.26	4.10	-43.5	-45.3	18.1	0.00e+00	50	41	0	29360128	60	6640
2026-01-25 18:18:37.25	32.16	4.16	-43.3	-45.0	18.4	0.00e+00	0	41	0	31457280	60	6412
2026-01-25 18:18:38.26	32.07	4.21	-43.2	-44.9	18.6	0.00e+00	0	41	0	32505856	60	6335
2026-01-25 18:18:39.27	31.98	4.27	-43.5	-45.3	18.2	0.00e+00	0	41	0	34603008	60	6655
2026-01-25 18:18:40.28	31.89	4.32	-43.5	-45.2	18.4	0.00e+00	0	40	0	36700160	60	6564
2026-01-25 18:18:41.29	31.79	4.38	-43.3	-45.0	18.4	0.00e+00	81	40	0	38797312	60	6431
2026-01-25 18:18:42.30	31.70	4.43	-43.9	-45.7	17.7	0.00e+00	0	40	0	40894464	60	7004
2026-01-25 18:18:43.30	31.60	4.48	-44.0	-45.9	17.7	0.00e+00	92	40	0	41943040	60	7094
2026-01-25 18:18:44.31	31.51	4.54	-43.4	-45.2	18.2	0.00e+00	0	41	0	44040192	60	6549
2026-01-25 18:18:45.32	31.41	4.59	-43.8	-45.6	18.1	0.00e+00	0	41	0	46137344	60	6880
2026-01-25 18:18:46.33	31.32	4.65	-43.6	-45.3	18.4	0.00e+00	0	41	0	48234496	60	6656
2026-01-25 18:18:47.34	31.22	4.70	-43.7	-45.5	18.1	0.00e+00	0	40	0	50331648	60	6827
2026-01-25 18:18:48.35	31.13	4.76	-43.3	-45.0	18.4	0.00e+00	62	41	0	51380224	60	6406
2026-01-25 18:18:49.36	31.03	4.81	-43.5	-45.2	18.3	0.00e+00	0	41	0	53477376	60	6577
2026-01-25 18:18:50.37	30.93	4.87	-44.0	-45.8	17.8	0.00e+00	59	41	0	55574528	60	7087
2026-01-25 18:18:51.38	30.84	4.92	-43.4	-45.1	18.5	0.00e+00	0	41	0	57671680	60	6489
2026-01-25 18:18:52.39	30.74	4.98	-44.0	-45.9	17.8	0.00e+00	25	41	0	59768832	60	7123
2026-01-25 18:18:53.40	30.64	5.03	-43.2	-44.8	18.8	0.00e+00	0	41	0	60817408	60	6267
2026-01-25 18:18:54.41	30.54	5.09	-44.0	-45.9	17.8	0.00e+00	0	41	0	62914560	60	7157
2026-01-25 18:18:55.42	30.44	5.14	-43.1	-44.7	19.0	0.00e+00	74	41	0	65011712	60	6214
2026-01-25 18:18:56.43	30.34	5.20	-43.3	-45.0	18.8	0.00e+00	27	41	0	67108864	60	6393
2026-01-25 18:18:57.44	30.24	5.25	-43.5	-45.2	18.4	0.00e+00	70	41	0	69206016	60	6581
2026-01-25 18:18:58.44	30.14	5.31	-43.2	-44.8	18.8	0.00e+00	0	41	0	70254592	60	6259
2026-01-25 18:18:59.45	30.04	5.36	-43.6	-45.3	18.1	0.00e+00	92	41	0	72351744	60	6645
2026-01-25 18:19:00.46	29.94	5.42	-43.7	-45.4	17.9	0.00e+00	24	41	0	74448896	60	6744
2026-01-25 18:19:01.47	29.84	5.47	-43.7	-45.5	18.3	0.00e+00	0	41	0	76546048	60	6779
2026-01-25 18:19:02.48	29.74	5.53	-43.0	-44.5	19.1	0.00e+00	4	41	0	78643200	60	6075
2026-01-25 18:19:03.49	29.64	5.58	-43.2	-44.8	18.8	0.00e+00	0	41	0	79691776	60	6309
2026-01-25 18:19:04.50	29.54	5.64	-43.4	-45.0	18.7	0.00e+00	20	41	0	81788928	60	6433
2026-01-25 18:19:05.51	29.43	5.70	-43.2	-44.8	18.9	0.00e+00	0	41	0	83886080	60	6283
2026-01-25 18:19:06.52	29.33	5.75	-43.6	-45.3	18.5	0.00e+00	92	41	0	85983232	60	6629
2026-01-25 18:19:07.53	29.23	5.81	-43.5	-45.1	18.5	0.00e+00	0	41	0	88080384	60	6535
2026-01-25 18:19:08.54	29.12	5.86	-43.3	-45.0	18.7	0.00e+00	0	41	0	90177536	60	6417
2026-01-25 18:19:09.55	29.02	5.92	-43.7	-45.4	18.3	0.00e+00	0	41	0	91226112	60	6732
2026-01-25 18:19:10.56	28.91	5.97	-43.4	-45.1	18.7	0.00e+00	0	41	0	93323264	60	6481
2026-01-25 18:19:11.57	28.81	6.03	-43.5	-45.2	18.5	0.00e+00	92	41	0	95420416	60	6580
2026-01-25 18:19:12.58	28.70	6.08	-43.4	-45.1	18.6	0.00e+00	0	41	0	97517568	60	6524
2026-01-25 18:19:13.59	28.59	6.14	-43.8	-45.6	18.1	0.00e+00	92	41	0	99614720	60	6895
2026-01-25 18:19:14.59	28.49	6.20	-43.6	-45.3	18.4	0.00e+00	0	41	0	100663296	60	6684
2026-01-25 18:19:15.60	28.38	6.25	-43.4	-45.1	18.8	0.00e+00	0	41	0	102760448	60	6506
2026-01-25 18:19:16.61	28.27	6.31	-43.2	-44.8	18.9	0.00e+00	0	41	0	104857600	60	6314
2026-01-25 18:19:17.62	28.17	6.36	-43.7	-45.4	18.4	0.00e+00	0	41	0	106954752	60	6747
2026-01-25 18:19:18.63	28.06	6.42	-43.4	-45.1	18.8	0.00e+00	10	41	0	109051904	60	6533
2026-01-25 18:19:19.64	27.95	6.47	-43.8	-45.6	18.2	0.00e+00	0	41	0	110100480	60	6862
2026-01-25 18:19:20.65	27.84	6.53	-43.4	-45.1	18.7	0.00e+00	92	41	0	112197632	60	6524
2026-01-25 18:19:21.66	27.73	6.59	-43.3	-45.0	18.9	0.00e+00	0	41	0	114294784	60	6392
2026-01-25 18:19:22.67	27.62	6.64	-43.3	-44.9	18.8	0.00e+00	0	41	0	116391936	60	6372
2026-01-25 18:19:23.68	27.51	6.70	-43.3	-44.9	18.9	0.00e+00	0	41	0	118489088	60	6382
2026-01-25 18:19:24.69	27.40	6.75	-43.1	-44.6	19.2	0.00e+00	0	41	0	119537664	60	6159
2026-01-25 18:19:25.69	27.29	6.81	-43.2	-44.8	18.8	0.00e+00	0	41	0	121634816	60	6276
2026-01-25 18:19:26.70	27.18	6.86	-43.0	-44.6	19.3	0.00e+00	0	41	0	123731968	60	6134
2026-01-25 18:19:27.71	27.07	6.92	-43.2	-44.7	19.1	0.00e+00	56	41	0	125829120	60	6234
2026-01-25 18:19:28.72	26.95	6.98	-43.5	-45.2	18.7	0.00e+00	0	41	0	127926272	60	6540
2026-01-25 18:19:29.73	26.84	7.03	-43.0	-44.6	19.3	0.00e+00	0	41	0	128974848	60	6105
2026-01-25 18:19:30.74	26.73	7.09	-43.0	-44.6	19.2	0.00e+00	0	41	0	131072000	58	6860
2026-01-25 18:19:31.75	26.61	7.14	-42.9	-44.4	19.3	0.00e+00	0	41	0	133169152	58	6719
2026-01-25 18:19:32.76	26.50	7.20	-42.7	-44.1	19.4	0.00e+00	3	41	0	135266304	58	6538
2026-01-25 18:19:33.77	26.38	7.26	-43.1	-44.7	19.1	0.00e+00	0	41	0	137363456	58	6980
2026-01-25 18:19:34.78	26.27	7.31	-42.9	-44.4	19.2	0.00e+00	75	41	0	138412032	58	6750
2026-01-25 18:19:35.79	26.15	7.37	-43.0	-44.6	19.1	0.00e+00	0	41	0	140509184	58	6857
2026-01-25 18:19:36.80	26.04	7.42	-42.9	-44.5	19.3	0.00e+00	90	41	0	142606336	58	6775
2026-01-25 18:19:37.81	25.92	7.48	-42.6	-44.1	19.6	0.00e+00	0	41	0	144703488	58	6497
2026-01-25 18:19:38.82	25.80	7.54	-42.7	-44.2	19.5	0.00e+00	0	41	0	146800640	58	6598
2026-01-25 18:19:39.83	25.68	7.59	-42.4	-43.9	19.9	0.00e+00	3	41	0	147849216	58	6320
2026-01-25 18:19:40.83	25.57	7.65	-42.5	-43.9	19.7	0.00e+00	0	41	0	149946368	58	6390
2026-01-25 18:19:41.84	25.45	7.70	-42.8	-44.3	19.5	0.00e+00	92	41	0	152043520	58	6659
2026-01-25 18:19:42.85	25.33	7.76	-42.8	-44.3	19.5	0.00e+00	0	41	0	154140672	58	6667
2026-01-25 18:19:43.86	25.21	7.82	-42.8	-44.3	19.5	0.00e+00	39	41	0	156237824	58	6667
2026-01-25 18:19:44.87	25.09	7.87	-43.4	-45.0	18.8	0.00e+00	0	41	0	158334976	58	7249
2026-01-25 18:19:45.88	24.97	7.93	-42.6	-44.1	19.8	0.00e+00	0	41	0	159383552	58	6466
2026-01-25 18:19:46.89	24.85	7.98	-42.9	-44.4	19.3	0.00e+00	0	41	0	161480704	58	6733
2026-01-25 18:19:47.90	24.73	8.04	-42.9	-44.5	19.3	0.00e+00	0	41	0	163577856	58	6799
2026-01-25 18:19:48.91	24.61	8.10	-42.9	-44.4	19.4	0.00e+00	8	41	0	165675008	58	6719
2026-01-25 18:19:49.92	24.48	8.15	-42.8	-44.4	19.5	0.00e+00	0	41	0	167772160	58	6702
2026-01-25 18:19:50.93	24.36	8.21	-42.8	-44.4	19.4	0.00e+00	91	41	0	168820736	58	6698
2026-01-25 18:19:51.94	24.24	8.27	-43.4	-45.0	18.9	0.00e+00	25	41	0	170917888	58	7247
2026-01-25 18:19:52.95	24.11	8.32	-42.8	-44.3	19.5	0.00e+00	0	41	0	173015040	58	6680
2026-01-25 18:19:53.96	23.99	8.38	-42.7	-44.2	19.6	0.00e+00	0	41	0	175112192	58	6559
2026-01-25 18:19:54.97	23.86	8.43	-43.0	-44.5	19.3	0.00e+00	0	41	0	177209344	58	6830
2026-01-25 18:19:55.97	23.74	8.49	-42.3	-43.7	20.1	0.00e+00	75	41	0	178257920	58	6213
2026-01-25 18:19:56.98	23.61	8.55	-42.0	-43.3	20.2	0.00e+00	0	41	0	180355072	58	5962
2026-01-25 18:19:57.99	23.49	8.60	-42.2	-43.6	20.3	0.00e+00	92	41	0	182452224	58	6104
2026-01-25 18:19:59.00	23.36	8.66	-42.0	-43.4	20.0	0.00e+00	0	41	0	184549376	58	5965
2026-01-25 18:20:00.01	23.23	8.71	-42.2	-43.6	20.0	0.00e+00	26	41	0	186646528	58	6105
2026-01-25 18:20:01.02	23.11	8.77	-41.8	-43.1	20.6	0.00e+00	0	41	0	187695104	58	5790
2026-01-25 18:20:02.03	22.98	8.83	-41.8	-43.1	20.6	0.00e+00	0	41	0	189792256	56	6512
2026-01-25 18:20:03.04	22.85	8.88	-41.7	-42.9	20.8	0.00e+00	72	41	0	191889408	56	6368
2026-01-25 18:20:04.05	22.72	8.94	-42.0	-43.3	20.4	0.00e+00	0	41	0	193986560	56	6653
2026-01-25 18:20:05.06	22.59	8.99	-42.0	-43.3	20.5	0.00e+00	32	41	0	196083712	56	6653
2026-01-25 18:20:06.07	22.46	9.05	-42.0	-43.3	20.5	0.00e+00	0	41	0	197132288	56	6643
2026-01-25 18:20:07.07	22.33	9.11	-41.9	-43.2	20.5	0.00e+00	0	41	0	199229440	56	6603
2026-01-25 18:20:08.08	22.20	9.16	-42.1	-43.4	20.4	0.00e+00	0	41	0	201326592	56	6710
2026-01-25 18:20:09.09	22.07	9.22	-42.2	-43.5	20.3	0.00e+00	0	41	0	203423744	56	6816
2026-01-25 18:20:10.10	21.93	9.27	-41.9	-43.2	20.5	0.00e+00	11	41	0	205520896	56	6595
2026-01-25 18:20:11.11	21.80	9.33	-42.5	-43.9	19.8	0.00e+00	0	41	0	206569472	56	7155
2026-01-25 18:20:12.12	21.67	9.38	-42.7	-44.2	19.8	0.00e+00	21	41	0	208666624	56	7354
2026-01-25 18:20:13.13	21.53	9.44	-42.3	-43.7	20.0	0.00e+00	0	41	0	210763776	56	6940
2026-01-25 18:20:14.14	21.40	9.50	-42.4	-43.8	20.0	0.00e+00	77	41	0	212860928	58	6287
2026-01-25 18:20:15.15	21.26	9.55	-42.1	-43.4	20.3	0.00e+00	0	41	0	214958080	58	6029
2026-01-25 18:20:16.16	21.13	9.61	-42.1	-43.4	20.5	0.00e+00	0	41	0	216006656	58	6017
2026-01-25 18:20:17.17	20.99	9.66	-42.3	-43.7	20.1	0.00e+00	0	41	0	218103808	58	6183
2026-01-25 18:20:18.18	20.86	9.72	-42.4	-43.8	20.0	0.00e+00	0	41	0	220200960	58	6284
2026-01-25 18:20:19.19	20.72	9.77	-42.5	-43.8	20.0	0.00e+00	87	41	0	222298112	58	6305
2026-01-25 18:20:20.20	20.58	9.83	-42.5	-44.0	19.9	0.00e+00	0	41	0	224395264	58	6397
2026-01-25 18:20:21.21	20.44	9.89	-42.3	-43.7	20.0	0.00e+00	92	41	0	225443840	58	6174
2026-01-25 18:20:22.22	20.30	9.94	-42.3	-43.7	20.0	0.00e+00	0	41	0	227540992	58	6221
2026-01-25 18:20:23.23	20.16	10.00	-42.1	-43.4	20.4	0.00e+00	0	41	0	229638144	58	5997
2026-01-25 18:20:24.24	20.02	10.05	-41.8	-43.0	20.7	0.00e+00	0	41	0	231735296	58	5725
2026-01-25 18:20:25.25	19.88	10.11	-41.7	-42.9	20.8	0.00e+00	0	41	0	233832448	56	6341
2026-01-25 18:20:26.26	19.74	10.16	-41.9	-43.2	20.6	0.00e+00	68	41	0	234881024	56	6543
2026-01-25 18:20:27.27	19.60	10.22	-42.0	-43.3	20.5	0.00e+00	0	41	0	236978176	56	6677
2026-01-25 18:20:28.28	19.46	10.27	-42.1	-43.4	20.4	0.00e+00	92	41	0	239075328	56	6760
2026-01-25 18:20:29.29	19.32	10.33	-42.3	-43.6	20.3	0.00e+00	0	41	0	241172480	56	6898
2026-01-25 18:20:30.30	19.17	10.38	-42.0	-43.3	20.6	0.00e+00	0	41	0	243269632	56	6637
2026-01-25 18:20:31.31	19.03	10.44	-41.9	-43.1	20.7	0.00e+00	0	41	0	244318208	56	6524
2026-01-25 18:20:32.32	18.89	10.49	-41.7	-42.9	20.9	0.00e+00	0	41	0	246415360	56	6388
2026-01-25 18:20:33.33	18.74	10.55	-41.8	-43.0	20.9	0.00e+00	65	41	0	248512512	56	6410
2026-01-25 18:20:34.34	18.60	10.60	-41.7	-42.9	20.9	0.00e+00	0	41	0	250609664	56	6386
2026-01-25 18:20:35.35	18.45	10.66	-41.9	-43.1	20.6	0.00e+00	80	41	0	252706816	56	6526
2026-01-25 18:20:36.35	18.30	10.71	-42.1	-43.4	20.5	0.00e+00	0	41	0	254803968	56	6699
2026-01-25 18:20:37.36	18.16	10.77	-42.2	-43.5	20.4	0.00e+00	0	41	0	255852544	56	6818
2026-01-25 18:20:38.37	18.01	10.82	-41.9	-43.2	20.6	0.00e+00	0	41	0	257949696	56	6591
2026-01-25 18:20:39.38	17.86	10.88	-42.0	-43.4	20.5	0.00e+00	0	41	0	260046848	56	6694
2026-01-25 18:20:40.39	17.71	10.93	-42.0	-43.3	20.6	0.00e+00	0	41	0	262144000	56	6664
2026-01-25 18:20:41.40	17.56	10.99	-42.1	-43.4	20.5	0.00e+00	0	41	0	264241152	56	6742
2026-01-25 18:20:42.41	17.41	11.04	-42.4	-43.8	20.2	0.00e+00	89	41	0	265289728	56	7023
2026-01-25 18:20:43.42	17.26	11.10	-42.3	-43.6	20.0	0.00e+00	15	41	0	267386880	56	6894
2026-01-25 18:20:44.42	17.11	11.15	-42.5	-43.9	20.0	0.00e+00	92	41	0	269484032	56	7135
2026-01-25 18:20:45.44	16.96	11.20	-42.8	-44.3	19.7	0.00e+00	0	41	0	271581184	58	6676
2026-01-25 18:20:46.44	16.81	11.26	-42.7	-44.2	19.7	0.00e+00	0	41	0	273678336	58	6598
2026-01-25 18:20:47.45	16.66	11.31	-43.1	-44.7	19.4	0.00e+00	9	41	0	274726912	58	6939
2026-01-25 18:20:48.46	16.50	11.37	-42.7	-44.2	20.0	0.00e+00	0	41	0	276824064	58	6553
2026-01-25 18:20:49.47	16.35	11.42	-42.6	-44.0	20.1	0.00e+00	61	41	0	278921216	58	6410
2026-01-25 18:20:50.48	16.20	11.47	-42.2	-43.6	20.2	0.00e+00	24	41	0	281018368	58	6109
2026-01-25 18:20:51.49	16.04	11.53	-42.5	-43.9	20.0	0.00e+00	72	41	0	283115520	58	6337
2026-01-25 18:20:52.50	15.89	11.58	-42.4	-43.7	20.3	0.00e+00	0	41	0	284164096	58	6227
2026-01-25 18:20:53.51	15.73	11.63	-42.1	-43.4	20.4	0.00e+00	22	41	0	286261248	58	6002
2026-01-25 18:20:54.52	15.57	11.69	-42.3	-43.7	20.3	0.00e+00	0	41	0	288358400	58	6175
2026-01-25 18:20:55.53	15.42	11.74	-42.1	-43.5	20.5	0.00e+00	0	41	0	290455552	58	6036
2026-01-25 18:20:56.53	15.26	11.79	-41.9	-43.2	20.7	0.00e+00	25	41	0	292552704	58	5846
2026-01-25 18:20:57.54	15.10	11.85	-41.8	-43.1	20.9	0.00e+00	0	41	0	293601280	56	6469
2026-01-25 18:20:58.55	14.94	11.90	-41.7	-42.9	21.0	0.00e+00	92	41	0	295698432	56	6333
2026-01-25 18:20:59.56	14.78	11.95	-41.7	-42.9	20.9	0.00e+00	0	41	0	297795584	56	6380
2026-01-25 18:21:00.57	14.62	12.01	-41.8	-43.0	20.9	0.00e+00	0	41	0	299892736	56	6442
2026-01-25 18:21:01.58	14.46	12.06	-41.6	-42.7	20.9	0.00e+00	0	41	0	301989888	56	6244
2026-01-25 18:21:02.59	14.30	12.11	-41.8	-43.1	20.7	0.00e+00	0	41	0	303038464	56	6497
2026-01-25 18:21:03.60	14.14	12.16	-41.7	-43.0	20.9	0.00e+00	12	41	0	305135616	56	6408
2026-01-25 18:21:04.61	13.97	12.22	-41.5	-42.7	21.2	0.00e+00	0	41	0	307232768	56	6184
2026-01-25 18:21:05.62	13.81	12.27	-40.9	-42.0	21.8	0.00e+00	92	41	0	309329920	56	5761
2026-01-25 18:21:06.63	13.65	12.32	-41.0	-42.1	21.6	0.00e+00	0	41	0	311427072	56	5807
2026-01-25 18:21:07.64	13.48	12.37	-40.8	-41.9	21.8	0.00e+00	0	41	0	312475648	54	6335
2026-01-25 18:21:08.65	13.32	12.42	-40.7	-41.8	21.9	0.00e+00	0	41	0	314572800	54	6286
2026-01-25 18:21:09.65	13.15	12.48	-40.8	-41.9	21.9	0.00e+00	0	41	0	316669952	54	6328
2026-01-25 18:21:10.66	12.99	12.53	-40.7	-41.8	21.9	0.00e+00	11	41	0	318767104	54	6283
2026-01-25 18:21:11.67	12.82	12.58	-40.3	-41.3	22.4	0.00e+00	0	41	0	320864256	54	5915
2026-01-25 18:21:12.68	12.65	12.63	-40.2	-41.2	22.4	0.00e+00	91	41	0	322961408	54	5855
2026-01-25 18:21:13.69	12.49	12.68	-40.4	-41.5	22.2	0.00e+00	0	41	0	324009984	54	6034
2026-01-25 18:21:14.70	12.32	12.73	-40.1	-41.1	22.4	0.00e+00	0	41	0	326107136	54	5805
2026-01-25 18:21:15.70	12.15	12.78	-40.2	-41.3	22.2	0.00e+00	0	41	0	328204288	54	5918
2026-01-25 18:21:16.71	11.98	12.83	-40.4	-41.4	22.2	0.00e+00	0	41	0	330301440	54	6003
2026-01-25 18:21:17.72	11.81	12.88	-40.2	-41.3	22.4	0.00e+00	57	41	0	332398592	54	5897
2026-01-25 18:21:18.73	11.64	12.94	-40.5	-41.6	21.9	0.00e+00	0	41	0	333447168	54	6120
2026-01-25 18:21:19.74	11.47	12.99	-40.7	-41.8	21.9	0.00e+00	92	41	0	335544320	54	6258
2026-01-25 18:21:20.75	11.30	13.04	-40.6	-41.7	22.0	0.00e+00	0	41	0	337641472	54	6242
2026-01-25 18:21:21.76	11.12	13.09	-40.3	-41.4	22.3	0.00e+00	82	41	0	339738624	54	5975
2026-01-25 18:21:22.77	10.95	13.14	-40.0	-41.1	22.5	0.00e+00	0	41	0	341835776	54	5768
2026-01-25 18:21:23.77	10.78	13.19	-40.2	-41.3	22.4	0.00e+00	0	41	0	342884352	54	5908
2026-01-25 18:21:24.78	10.60	13.24	-40.3	-41.3	22.4	0.00e+00	7	41	0	344981504	54	5937
2026-01-25 18:21:25.79	10.43	13.28	-40.1	-41.2	22.5	0.00e+00	0	41	0	347078656	54	5833
2026-01-25 18:21:26.81	10.25	13.33	-40.2	-41.3	22.4	0.00e+00	4	41	0	349175808	54	5914
2026-01-25 18:21:27.82	10.07	13.38	-40.2	-41.3	22.2	0.00e+00	0	41	0	351272960	54	5902
2026-01-25 18:21:28.83	9.90	13.43	-40.1	-41.1	22.5	0.00e+00	72	41	0	352321536	54	5820
2026-01-25 18:21:29.84	9.72	13.48	-40.2	-41.2	22.4	0.00e+00	0	41	0	354418688	54	5862
2026-01-25 18:21:30.85	9.54	13.53	-40.3	-41.4	22.2	0.00e+00	0	41	0	356515840	54	5995
2026-01-25 18:21:31.85	9.36	13.58	-40.5	-41.6	22.1	0.00e+00	0	41	0	358612992	54	6135
2026-01-25 18:21:32.86	9.19	13.63	-40.5	-41.6	22.2	0.00e+00	0	41	0	360710144	54	6145
2026-01-25 18:21:33.87	9.01	13.67	-40.6	-41.6	22.1	0.00e+00	7	41	0	361758720	54	6164
2026-01-25 18:21:34.88	8.83	13.72	-40.7	-41.8	22.0	0.00e+00	0	41	0	363855872	54	6302
2026-01-25 18:21:35.89	8.64	13.77	-40.8	-41.9	21.9	0.00e+00	92	41	0	365953024	54	6361
2026-01-25 18:21:36.90	8.46	13.82	-40.6	-41.7	22.1	0.00e+00	0	41	0	368050176	54	6220
2026-01-25 18:21:37.91	8.28	13.86	-40.9	-42.0	21.9	0.00e+00	0	41	0	370147328	54	6420
2026-01-25 18:21:38.92	8.10	13.91	-41.0	-42.1	21.8	0.00e+00	0	41	0	371195904	54	6517
2026-01-25 18:21:39.92	7.92	13.96	-40.6	-41.7	22.1	0.00e+00	0	41	0	373293056	54	6175
2026-01-25 18:21:40.93	7.73	14.00	-40.4	-41.4	22.3	0.00e+00	12	41	0	375390208	54	6025
2026-01-25 18:21:41.94	7.55	14.05	-40.1	-41.1	22.6	0.00e+00	0	41	0	377487360	54	5786
2026-01-25 18:21:42.95	7.36	14.10	-39.6	-40.5	23.1	0.00e+00	90	41	0	379584512	52	6095
2026-01-25 18:21:43.96	7.18	14.14	-39.6	-40.5	23.1	0.00e+00	0	41	0	380633088	52	6062
2026-01-25 18:21:44.97	6.99	14.19	-39.3	-40.2	23.4	0.00e+00	40	41	0	382730240	52	5845
2026-01-25 18:21:45.98	6.80	14.23	-39.2	-40.1	23.5	0.00e+00	0	41	0	384827392	52	5793
2026-01-25 18:21:46.99	6.62	14.28	-39.2	-40.1	23.4	0.00e+00	0	41	0	386924544	52	5826
2026-01-25 18:21:48.00	6.43	14.33	-39.3	-40.2	23.3	0.00e+00	8	41	0	389021696	52	5872
2026-01-25 18:21:49.01	6.24	14.37	-39.5	-40.4	23.0	0.00e+00	0	41	0	390070272	52	6023
2026-01-25 18:21:50.02	6.05	14.42	-39.1	-40.0	23.5	0.00e+00	92	41	0	392167424	52	5745
2026-01-25 18:21:51.03	5.86	14.46	-39.1	-40.0	23.4	0.00e+00	0	41	0	394264576	52	5756
2026-01-25 18:21:52.04	5.67	14.50	-39.3	-40.2	23.4	0.00e+00	92	41	0	396361728	52	5876
2026-01-25 18:21:53.05	5.48	14.55	-39.7	-40.6	23.1	0.00e+00	0	41	0	398458880	52	6155
2026-01-25 18:21:54.05	5.29	14.59	-39.9	-40.9	22.8	0.00e+00	0	41	0	399507456	52	6381
2026-01-25 18:21:55.06	5.10	14.63	-40.4	-41.5	22.4	0.00e+00	0	41	0	401604608	52	6777
2026-01-25 18:21:56.07	4.90	14.68	-40.4	-41.5	22.4	0.00e+00	0	41	0	403701760	52	6799
2026-01-25 18:21:57.09	4.71	14.72	-40.2	-41.2	22.6	0.00e+00	33	41	0	405798912	52	6593
2026-01-25 18:21:58.09	4.52	14.76	-40.0	-41.0	22.9	0.00e+00	0	41	0	407896064	52	6431
2026-01-25 18:21:59.10	4.32	14.81	-39.9	-40.8	22.9	0.00e+00	92	41	0	408944640	52	6307
2026-01-25 18:22:00.11	4.13	14.85	-39.8	-40.8	22.9	0.00e+00	0	41	0	411041792	52	6291
2026-01-25 18:22:01.12	3.93	14.89	-39.8	-40.8	22.9	0.00e+00	0	41	0	413138944	52	6294
2026-01-25 18:22:02.13	3.74	14.93	-40.0	-41.0	22.6	0.00e+00	0	41	0	415236096	52	6445
2026-01-25 18:22:03.14	3.54	14.97	-40.4	-41.5	22.3	0.00e+00	0	41	0	417333248	52	6793
2026-01-25 18:22:04.14	3.34	15.01	-40.2	-41.3	22.5	0.00e+00	11	41	0	419430400	52	6616
2026-01-25 18:22:05.16	3.15	15.06	-40.3	-41.4	22.5	0.00e+00	14	41	0	420478976	52	6732
2026-01-25 18:22:06.17	2.95	15.10	-40.4	-41.4	22.4	0.00e+00	92	41	0	422576128	52	6748
2026-01-25 18:22:07.17	2.75	15.14	-40.3	-41.4	22.5	0.00e+00	0	41	0	424673280	52	6706
2026-01-25 18:22:08.18	2.55	15.18	-40.2	-41.3	22.6	0.00e+00	0	41	0	426770432	52	6624
2026-01-25 18:22:09.19	2.35	15.22	-40.7	-41.8	20.9	0.00e+00	0	41	0	428867584	52	7049
2026-01-25 18:22:10.21	2.15	15.26	-40.7	-41.9	22.1	0.00e+00	0	41	0	429916160	54	6323
2026-01-25 18:22:11.21	1.95	15.30	-40.3	-41.3	22.5	0.00e+00	12	41	0	432013312	54	5956
2026-01-25 18:22:12.22	1.75	15.33	-40.1	-41.1	22.8	0.00e+00	0	41	0	434110464	54	5772
2026-01-25 18:22:13.23	1.55	15.37	-39.9	-40.9	22.8	0.00e+00	92	41	0	436207616	52	6362
2026-01-25 18:22:14.24	1.34	15.41	-39.9	-40.8	22.9	0.00e+00	0	41	0	438304768	52	6302
2026-01-25 18:22:15.24	1.14	15.45	-40.0	-41.0	22.8	0.00e+00	0	41	0	439353344	52	6420
2026-01-25 18:22:16.25	0.94	15.49	-40.2	-41.2	22.5	0.00e+00	0	41	0	441450496	52	6553
2026-01-25 18:22:17.27	0.73	15.52	-40.2	-41.2	22.6	0.00e+00	0	41	0	443547648	52	6576
2026-01-25 18:22:18.27	0.53	15.56	-40.0	-41.0	22.7	0.00e+00	51	41	0	445644800	52	6447
2026-01-25 18:22:19.28	0.33	15.60	-39.9	-40.8	22.9	0.00e+00	0	41	0	447741952	52	6306
2026-01-25 18:22:20.29	0.12	15.63	-39.8	-40.8	23.0	0.00e+00	92	41	0	448790528	52	6269
2026-01-25 18:22:21.31	359.91	15.67	-39.8	-40.8	23.0	0.00e+00	0	41	0	450887680	52	6281
2026-01-25 18:22:22.32	359.70	15.71	-39.9	-40.9	22.9	0.00e+00	0	41	0	452984832	52	6333
2026-01-25 18:22:23.32	359.50	15.74	-40.1	-41.1	22.8	0.00e+00	0	41	0	455081984	52	6493
2026-01-25 18:22:24.33	359.29	15.78	-40.1	-41.1	22.7	0.00e+00	0	41	0	457179136	52	6511
2026-01-25 18:22:25.34	359.08	15.81	-40.2	-41.2	22.7	0.00e+00	41	41	0	458227712	52	6607
2026-01-25 18:22:26.35	358.88	15.85	-39.6	-40.6	23.1	0.00e+00	0	41	0	460324864	52	6149
2026-01-25 18:22:27.36	358.67	15.88	-39.6	-40.6	23.1	0.00e+00	0	41	0	462422016	52	6118
2026-01-25 18:22:28.37	358.46	15.91	-39.1	-40.0	23.4	0.00e+00	0	41	0	464519168	52	5751
2026-01-25 18:22:29.38	358.25	15.95	-39.2	-40.1	22.8	0.00e+00	77	41	0	466616320	52	5790
2026-01-25 18:22:30.39	358.04	15.98	-39.1	-40.0	23.4	0.00e+00	0	41	0	467664896	52	5719
2026-01-25 18:22:31.40	357.82	16.01	-39.3	-40.2	23.3	0.00e+00	0	41	0	469762048	52	5831
2026-01-25 18:22:32.41	357.61	16.05	-39.2	-40.0	23.5	0.00e+00	9	41	0	471859200	52	5756
2026-01-25 18:22:33.42	357.40	16.08	-38.7	-39.6	23.9	0.00e+00	0	41	0	473956352	50	6113
2026-01-25 18:22:34.43	357.19	16.11	-38.6	-39.4	23.9	0.00e+00	13	41	0	476053504	50	6023
2026-01-25 18:22:35.44	356.98	16.14	-39.0	-39.8	23.8	0.00e+00	0	41	0	477102080	50	6293
2026-01-25 18:22:36.44	356.76	16.17	-38.9	-39.8	23.7	0.00e+00	92	41	0	479199232	50	6297
2026-01-25 18:22:37.45	356.55	16.20	-39.1	-40.0	23.5	0.00e+00	23	41	0	481296384	50	6395
2026-01-25 18:22:38.45	356.34	16.23	-39.4	-40.3	23.3	0.00e+00	0	41	0	483393536	50	6662
2026-01-25 18:22:39.46	356.12	16.26	-39.6	-40.5	23.1	0.00e+00	0	41	0	485490688	50	6827
2026-01-25 18:22:40.47	355.91	16.29	-39.5	-40.4	23.2	0.00e+00	0	41	0	487587840	50	6740
2026-01-25 18:22:41.48	355.69	16.32	-39.6	-40.5	23.2	0.00e+00	88	41	0	488636416	50	6814
2026-01-25 18:22:42.49	355.48	16.35	-39.5	-40.5	23.2	0.00e+00	0	41	0	490733568	50	6807
2026-01-25 18:22:43.50	355.26	16.38	-39.8	-40.7	23.0	0.00e+00	92	41	0	492830720	50	6989
2026-01-25 18:22:44.51	355.04	16.41	-39.7	-40.7	23.0	0.00e+00	0	41	0	494927872	52	6215
2026-01-25 18:22:45.52	354.83	16.43	-39.8	-40.8	22.9	0.00e+00	0	41	0	497025024	52	6246
2026-01-25 18:22:46.53	354.61	16.46	-39.9	-40.9	22.8	0.00e+00	0	41	0	498073600	52	6329
2026-01-25 18:22:47.54	354.39	16.49	-39.9	-40.9	22.9	0.00e+00	0	41	0	500170752	52	6330
2026-01-25 18:22:48.54	354.18	16.51	-39.6	-40.5	23.1	0.00e+00	68	41	0	502267904	52	6088
2026-01-25 18:22:49.55	353.96	16.54	-39.7	-40.7	23.0	0.00e+00	0	41	0	504365056	52	6200
2026-01-25 18:22:50.56	353.74	16.57	-39.8	-40.8	22.9	0.00e+00	92	41	0	506462208	52	6300
2026-01-25 18:22:51.57	353.52	16.59	-39.7	-40.7	23.0	0.00e+00	0	41	0	507510784	52	6212
2026-01-25 18:22:52.58	353.30	16.62	-39.9	-40.9	22.8	0.00e+00	26	41	0	509607936	52	6323
2026-01-25 18:22:53.59	353.08	16.64	-39.9	-40.9	22.6	0.00e+00	0	41	0	511705088	52	6337
2026-01-25 18:22:54.60	352.86	16.66	-39.9	-40.9	22.8	0.00e+00	0	41	0	513802240	52	6351
2026-01-25 18:22:55.61	352.64	16.69	-40.0	-40.9	22.8	0.00e+00	14	41	0	515899392	52	6379
2026-01-25 18:22:56.62	352.42	16.71	-39.7	-40.6	23.0	0.00e+00	0	41	0	516947968	52	6129
2026-01-25 18:22:57.63	352.19	16.73	-39.9	-40.8	22.9	0.00e+00	45	41	0	519045120	52	6300
2026-01-25 18:22:58.64	351.97	16.76	-39.9	-40.9	22.9	0.00e+00	0	41	0	521142272	52	6323
2026-01-25 18:22:59.65	351.75	16.78	-40.0	-41.0	22.8	0.00e+00	51	41	0	523239424	52	6408
2026-01-25 18:23:00.66	351.53	16.80	-40.1	-41.1	22.8	0.00e+00	0	41	0	525336576	52	6480
2026-01-25 18:23:01.67	351.30	16.82	-40.1	-41.1	22.9	0.00e+00	0	41	0	526385152	52	6509
2026-01-25 18:23:02.68	351.08	16.84	-39.9	-40.9	23.0	0.00e+00	6	41	0	528482304	52	6350
2026-01-25 18:23:03.69	350.86	16.86	-39.8	-40.8	23.0	0.00e+00	0	41	0	530579456	52	6248
2026-01-25 18:23:04.70	350.63	16.88	-39.5	-40.4	23.4	0.00e+00	90	41	0	532676608	52	5975
2026-01-25 18:23:05.71	350.41	16.90	-39.5	-40.4	23.2	0.00e+00	0	41	0	534773760	52	5988
2026-01-25 18:23:06.72	350.18	16.92	-39.6	-40.6	23.2	0.00e+00	64	41	0	535822336	52	6122
2026-01-25 18:23:07.73	349.96	16.94	-39.6	-40.5	23.2	0.00e+00	0	41	0	537919488	52	6052
2026-01-25 18:23:08.73	349.74	16.96	-39.8	-40.8	23.0	0.00e+00	0	41	0	540016640	52	6265
2026-01-25 18:23:09.74	349.51	16.97	-39.9	-40.9	23.0	0.00e+00	0	41	0	542113792	52	6327
2026-01-25 18:23:10.75	349.29	16.99	-39.8	-40.7	23.0	0.00e+00	0	41	0	544210944	52	6208
2026-01-25 18:23:11.76	349.06	17.01	-39.8	-40.7	23.0	0.00e+00	92	41	0	545259520	52	6204
2026-01-25 18:23:12.77	348.83	17.02	-39.6	-40.5	23.2	0.00e+00	0	41	0	547356672	52	6072
2026-01-25 18:23:13.78	348.61	17.04	-39.8	-40.8	23.0	0.00e+00	90	41	0	549453824	52	6268
2026-01-25 18:23:14.79	348.38	17.06	-39.5	-40.4	23.3	0.00e+00	0	41	0	551550976	52	5982
2026-01-25 18:23:15.81	348.15	17.07	-39.7	-40.6	23.1	0.00e+00	0	41	0	553648128	52	6139
2026-01-25 18:23:16.82	347.93	17.09	-39.8	-40.8	22.7	0.00e+00	0	41	0	555745280	52	6277
2026-01-25 18:23:17.82	347.70	17.10	-40.2	-41.2	22.7	0.00e+00	0	41	0	556793856	52	6586
2026-01-25 18:23:18.83	347.47	17.11	-40.6	-41.7	22.4	0.00e+00	7	41	0	558891008	52	6933
2026-01-25 18:23:19.84	347.25	17.13	-40.7	-41.8	22.0	0.00e+00	0	41	0	560988160	52	7065
2026-01-25 18:23:20.85	347.02	17.14	-40.9	-42.0	21.9	0.00e+00	67	41	0	563085312	54	6403
2026-01-25 18:23:21.85	346.79	17.15	-40.9	-42.0	22.1	0.00e+00	0	41	0	564133888	54	6392
2026-01-25 18:23:22.86	346.56	17.16	-40.8	-41.9	22.1	0.00e+00	0	41	0	566231040	54	6358
2026-01-25 18:23:23.87	346.34	17.17	-41.0	-42.1	22.0	0.00e+00	0	41	0	568328192	54	6473
2026-01-25 18:23:24.88	346.11	17.18	-41.1	-42.2	21.9	0.00e+00	0	41	0	570425344	54	6587
2026-01-25 18:23:25.89	345.88	17.20	-41.1	-42.3	21.8	0.00e+00	50	41	0	572522496	54	6634
2026-01-25 18:23:26.90	345.65	17.21	-41.2	-42.4	21.7	0.00e+00	0	41	0	573571072	54	6720
2026-01-25 18:23:27.92	345.42	17.21	-40.9	-42.0	22.1	0.00e+00	73	41	0	575668224	54	6391
2026-01-25 18:23:28.92	345.19	17.22	-40.8	-41.8	22.2	0.00e+00	0	41	0	577765376	54	6302
2026-01-25 18:23:29.93	344.96	17.23	-40.5	-41.6	22.4	0.00e+00	0	41	0	579862528	54	6129
2026-01-25 18:23:30.94	344.73	17.24	-40.5	-41.5	22.4	0.00e+00	0	41	0	581959680	54	6068
2026-01-25 18:23:31.95	344.50	17.25	-40.3	-41.3	22.7	0.00e+00	0	41	0	584056832	54	5908
2026-01-25 18:23:32.96	344.27	17.25	-40.2	-41.2	22.7	0.00e+00	19	41	0	585105408	54	5848
2026-01-25 18:23:33.97	344.04	17.26	-40.2	-41.2	22.7	0.00e+00	0	41	0	587202560	54	5879
2026-01-25 18:23:34.98	343.81	17.27	-40.4	-41.5	22.5	0.00e+00	68	41	0	589299712	54	6041
2026-01-25 18:23:35.99	343.58	17.27	-40.6	-41.6	22.3	0.00e+00	0	41	0	591396864	54	6153
2026-01-25 18:23:37.00	343.35	17.28	-40.7	-41.7	22.3	0.00e+00	52	41	0	593494016	54	6244
2026-01-25 18:23:38.00	343.13	17.28	-40.4	-41.4	22.5	0.00e+00	0	41	0	594542592	54	6013
2026-01-25 18:23:39.01	342.90	17.29	-40.2	-41.2	22.7	0.00e+00	0	41	0	596639744	54	5837
2026-01-25 18:23:40.02	342.67	17.29	-39.9	-40.8	23.0	0.00e+00	7	41	0	598736896	54	5612
2026-01-25 18:23:41.03	342.44	17.29	-39.7	-40.6	23.2	0.00e+00	0	41	0	600834048	52	6148
2026-01-25 18:23:42.04	342.20	17.30	-39.8	-40.7	23.2	0.00e+00	92	41	0	602931200	52	6213
2026-01-25 18:23:43.05	341.97	17.30	-40.1	-41.1	22.9	0.00e+00	0	41	0	603979776	52	6492
2026-01-25 18:23:44.06	341.74	17.30	-40.4	-41.4	22.6	0.00e+00	92	41	0	606076928	52	6733
2026-01-25 18:23:45.07	341.51	17.30	-40.7	-41.7	22.4	0.00e+00	0	41	0	608174080	52	6967
2026-01-25 18:23:46.08	341.28	17.30	-41.1	-42.2	22.0	0.00e+00	0	41	0	610271232	54	6546
2026-01-25 18:23:47.09	341.05	17.31	-40.9	-42.0	22.0	0.00e+00	0	41	0	612368384	54	6444
2026-01-25 18:23:48.10	340.82	17.31	-41.0	-42.0	22.1	0.00e+00	0	41	0	613416960	54	6445
2026-01-25 18:23:49.11	340.59	17.30	-40.8	-41.8	22.2	0.00e+00	15	41	0	615514112	54	6307
2026-01-25 18:23:50.12	340.36	17.30	-40.6	-41.6	22.2	0.00e+00	0	41	0	617611264	54	6127
2026-01-25 18:23:51.13	340.13	17.30	-40.4	-41.5	22.5	0.00e+00	90	41	0	619708416	54	6042
2026-01-25 18:23:52.14	339.90	17.30	-40.0	-41.0	22.9	0.00e+00	0	41	0	621805568	54	5707
2026-01-25 18:23:53.14	339.67	17.30	-39.9	-40.8	22.9	0.00e+00	0	41	0	622854144	54	5628
2026-01-25 18:23:54.16	339.44	17.30	-39.8	-40.7	23.0	0.00e+00	0	41	0	624951296	54	5533
2026-01-25 18:23:55.16	339.21	17.29	-39.9	-40.8	23.0	0.00e+00	0	41	0	627048448	54	5621
2026-01-25 18:23:56.18	338.98	17.29	-39.8	-40.8	23.1	0.00e+00	12	41	0	629145600	54	5572
2026-01-25 18:23:57.19	338.75	17.28	-39.7	-40.6	23.3	0.00e+00	0	41	0	631242752	52	6142
2026-01-25 18:23:58.19	338.52	17.28	-39.8	-40.7	23.1	0.00e+00	55	41	0	632291328	52	6232
2026-01-25 18:23:59.21	338.29	17.27	-40.0	-41.0	22.9	0.00e+00	0	41	0	634388480	52	6396
2026-01-25 18:24:00.22	338.06	17.27	-40.1	-41.0	22.8	0.00e+00	0	41	0	636485632	52	6433
2026-01-25 18:24:01.23	337.83	17.26	-40.1	-41.1	22.2	0.00e+00	0	41	0	638582784	52	6467
2026-01-25 18:24:02.23	337.60	17.26	-40.3	-41.3	22.5	0.00e+00	0	41	0	640679936	52	6663
2026-01-25 18:24:03.24	337.37	17.25	-40.5	-41.5	22.4	0.00e+00	62	41	0	641728512	52	6781
2026-01-25 18:24:04.25	337.14	17.24	-40.7	-41.8	22.1	0.00e+00	0	41	0	643825664	52	7017
2026-01-25 18:24:05.26	336.91	17.23	-40.7	-41.8	22.2	0.00e+00	28	41	0	645922816	54	6267
2026-01-25 18:24:06.27	336.68	17.22	-40.8	-41.9	22.2	0.00e+00	0	41	0	648019968	54	6339
2026-01-25 18:24:07.28	336.45	17.22	-40.7	-41.8	22.2	0.00e+00	0	41	0	650117120	54	6282
2026-01-25 18:24:08.29	336.22	17.21	-40.8	-41.8	22.2	0.00e+00	0	41	0	652214272	54	6296
2026-01-25 18:24:09.30	336.00	17.20	-40.7	-41.7	22.3	0.00e+00	0	41	0	653262848	54	6240
2026-01-25 18:24:10.31	335.77	17.19	-40.2	-41.2	22.7	0.00e+00	0	41	0	655360000	54	5863
2026-01-25 18:24:11.32	335.54	17.17	-40.2	-41.2	22.8	0.00e+00	0	41	0	657457152	54	5876
2026-01-25 18:24:12.33	335.31	17.16	-39.9	-40.9	23.0	0.00e+00	75	41	0	659554304	54	5662
2026-01-25 18:24:13.33	335.08	17.15	-40.1	-41.1	22.9	0.00e+00	0	41	0	661651456	54	5790
2026-01-25 18:24:14.34	334.86	17.14	-40.0	-41.0	23.0	0.00e+00	84	41	0	662700032	54	5724
2026-01-25 18:24:15.35	334.63	17.13	-40.1	-41.2	22.7	0.00e+00	0	41	0	664797184	54	5836
2026-01-25 18:24:16.36	334.40	17.11	-40.0	-40.9	22.8	0.00e+00	0	41	0	666894336	54	5692
2026-01-25 18:24:17.37	334.17	17.10	-40.0	-41.0	22.7	0.00e+00	0	41	0	668991488	54	5751
2026-01-25 18:24:18.38	333.95	17.09	-40.0	-41.0	22.8	0.00e+00	0	41	0	671088640	54	5713
2026-01-25 18:24:19.39	333.72	17.07	-40.2	-41.2	22.7	0.00e+00	71	41	0	672137216	54	5849
2026-01-25 18:24:20.40	333.49	17.06	-40.4	-41.4	22.5	0.00e+00	0	41	0	674234368	54	6027
2026-01-25 18:24:21.41	333.26	17.04	-40.8	-41.9	22.2	0.00e+00	83	41	0	676331520	54	6360
2026-01-25 18:24:22.42	333.04	17.03	-40.6	-41.6	22.4	0.00e+00	24	42	0	678428672	54	6155
2026-01-25 18:24:23.43	332.81	17.01	-40.2	-41.2	22.7	0.00e+00	0	41	0	680525824	54	5883
2026-01-25 18:24:24.43	332.59	16.99	-40.1	-41.1	22.6	0.00e+00	10	41	0	681574400	54	5823
2026-01-25 18:24:25.44	332.36	16.98	-39.7	-40.6	23.2	0.00e+00	0	41	0	683671552	52	6133
2026-01-25 18:24:26.45	332.14	16.96	-39.4	-40.3	23.3	0.00e+00	14	41	0	685768704	52	5931
2026-01-25 18:24:27.46	331.91	16.94	-39.3	-40.2	23.5	0.00e+00	19	41	0	687865856	52	5848
2026-01-25 18:24:28.47	331.69	16.92	-39.1	-40.0	23.7	0.00e+00	92	41	0	689963008	52	5733
2026-01-25 18:24:29.48	331.46	16.90	-39.2	-40.1	23.5	0.00e+00	0	42	0	691011584	52	5770
2026-01-25 18:24:30.49	331.24	16.88	-39.2	-40.1	23.5	0.00e+00	0	42	0	693108736	52	5793
2026-01-25 18:24:31.50	331.01	16.86	-39.4	-40.3	23.5	0.00e+00	23	41	0	695205888	52	5947
2026-01-25 18:24:32.51	330.79	16.84	-39.7	-40.6	23.2	0.00e+00	0	41	0	697303040	52	6143
2026-01-25 18:24:33.52	330.57	16.82	-39.7	-40.6	23.2	0.00e+00	12	41	0	699400192	52	6151
2026-01-25 18:24:34.53	330.34	16.80	-39.7	-40.7	23.1	0.00e+00	0	41	0	700448768	52	6181
2026-01-25 18:24:35.54	330.12	16.78	-39.7	-40.6	23.2	0.00e+00	92	41	0	702545920	52	6169
2026-01-25 18:24:36.55	329.90	16.76	-39.9	-40.9	23.0	0.00e+00	0	41	0	704643072	52	6323
2026-01-25 18:24:37.56	329.68	16.74	-39.8	-40.7	23.2	0.00e+00	79	41	0	706740224	52	6226
2026-01-25 18:24:38.57	329.46	16.71	-40.0	-41.0	22.9	0.00e+00	0	41	0	708837376	52	6420
2026-01-25 18:24:39.58	329.23	16.69	-40.0	-41.0	23.0	0.00e+00	0	41	0	709885952	52	6423
2026-01-25 18:24:40.59	329.01	16.67	-40.2	-41.2	22.8	0.00e+00	0	41	0	711983104	52	6597
2026-01-25 18:24:41.60	328.79	16.64	-40.2	-41.2	22.8	0.00e+00	0	41	0	714080256	52	6568
2026-01-25 18:24:42.61	328.57	16.62	-40.3	-41.3	22.7	0.00e+00	92	41	0	716177408	52	6632
2026-01-25 18:24:43.62	328.35	16.59	-40.3	-41.3	22.7	0.00e+00	0	41	0	718274560	52	6648
2026-01-25 18:24:44.63	328.13	16.57	-40.2	-41.2	22.9	0.00e+00	24	41	0	720371712	52	6576
2026-01-25 18:24:45.63	327.92	16.54	-40.0	-41.0	23.0	0.00e+00	0	41	0	721420288	52	6404
2026-01-25 18:24:46.64	327.70	16.52	-40.1	-41.1	22.9	0.00e+00	0	41	0	723517440	52	6505
2026-01-25 18:24:47.65	327.48	16.49	-40.1	-41.0	22.9	0.00e+00	0	42	0	725614592	52	6457
2026-01-25 18:24:48.66	327.26	16.46	-40.0	-40.9	23.0	0.00e+00	0	41	0	727711744	52	6365
2026-01-25 18:24:49.67	327.04	16.44	-40.2	-41.2	22.9	0.00e+00	92	41	0	729808896	52	6540
2026-01-25 18:24:50.68	326.82	16.41	-40.3	-41.3	22.7	0.00e+00	0	41	0	730857472	52	6620
2026-01-25 18:24:51.69	326.61	16.38	-40.2	-41.1	22.8	0.00e+00	92	41	0	732954624	52	6537
2026-01-25 18:24:52.70	326.39	16.35	-40.4	-41.4	22.8	0.00e+00	0	41	0	735051776	52	6729
2026-01-25 18:24:53.71	326.18	16.32	-40.3	-41.3	22.8	0.00e+00	0	41	0	737148928	52	6638
2026-01-25 18:24:54.72	325.96	16.29	-40.2	-41.1	22.9	0.00e+00	0	41	0	739246080	52	6496
2026-01-25 18:24:55.73	325.74	16.26	-40.2	-41.2	22.9	0.00e+00	0	41	0	740294656	52	6546
2026-01-25 18:24:56.74	325.53	16.23	-40.1	-41.0	22.9	0.00e+00	6	41	0	742391808	52	6461
2026-01-25 18:24:57.75	325.32	16.20	-40.1	-41.1	23.0	0.00e+00	0	41	0	744488960	52	6470
2026-01-25 18:24:58.76	325.10	16.17	-39.9	-40.9	23.0	0.00e+00	52	41	0	746586112	52	6331
2026-01-25 18:24:59.77	324.89	16.14	-40.1	-41.1	23.0	0.00e+00	0	41	0	748683264	52	6472
2026-01-25 18:25:00.78	324.67	16.11	-40.0	-41.0	23.0	0.00e+00	0	41	0	749731840	52	6391
2026-01-25 18:25:01.79	324.46	16.08	-40.1	-41.1	23.1	0.00e+00	0	41	0	751828992	52	6486
2026-01-25 18:25:02.80	324.25	16.05	-39.9	-40.9	23.2	0.00e+00	0	41	0	753926144	52	6333
2026-01-25 18:25:03.81	324.04	16.02	-40.1	-41.0	22.8	0.00e+00	58	41	0	756023296	52	6453
2026-01-25 18:25:04.82	323.83	15.98	-40.0	-41.0	23.0	0.00e+00	0	41	0	758120448	52	6404
2026-01-25 18:25:05.82	323.62	15.95	-40.2	-41.2	22.8	0.00e+00	75	41	0	759169024	52	6581
2026-01-25 18:25:06.83	323.41	15.92	-40.4	-41.5	22.6	0.00e+00	0	41	0	761266176	52	6776
2026-01-25 18:25:07.84	323.20	15.88	-40.7	-41.8	22.3	0.00e+00	0	41	0	763363328	52	7031
2026-01-25 18:25:08.85	322.99	15.85	-40.9	-42.0	22.2	0.00e+00	0	41	0	765460480	54	6398
2026-01-25 18:25:09.86	322.78	15.81	-41.0	-42.0	22.2	0.00e+00	0	41	0	767557632	54	6459
2026-01-25 18:25:10.87	322.57	15.78	-40.9	-42.0	22.1	0.00e+00	9	41	0	768606208	54	6393
2026-01-25 18:25:11.88	322.36	15.74	-40.9	-41.9	22.2	0.00e+00	0	41	0	770703360	54	6361
2026-01-25 18:25:12.89	322.16	15.71	-40.9	-41.9	22.2	0.00e+00	74	41	0	772800512	54	6359
2026-01-25 18:25:13.90	321.95	15.67	-40.7	-41.8	22.3	0.00e+00	0	41	0	774897664	54	6269
2026-01-25 18:25:14.91	321.74	15.64	-40.8	-41.9	22.2	0.00e+00	0	41	0	776994816	54	6336
2026-01-25 18:25:15.92	321.54	15.60	-40.8	-41.8	22.4	0.00e+00	0	41	0	778043392	54	6277
2026-01-25 18:25:16.93	321.33	15.56	-40.6	-41.6	22.5	0.00e+00	0	41	0	780140544	54	6166
2026-01-25 18:25:17.94	321.13	15.53	-40.7	-41.7	22.4	0.00e+00	34	41	0	782237696	54	6178
2026-01-25 18:25:18.95	320.92	15.49	-40.5	-41.4	22.6	0.00e+00	0	41	0	784334848	54	6025
2026-01-25 18:25:19.95	320.72	15.45	-40.4	-41.3	22.7	0.00e+00	92	41	0	786432000	54	5956
2026-01-25 18:25:20.96	320.52	15.41	-40.4	-41.4	22.6	0.00e+00	0	41	0	788529152	54	6012
2026-01-25 18:25:21.97	320.32	15.37	-40.4	-41.4	22.6	0.00e+00	16	41	0	789577728	54	5968
2026-01-25 18:25:22.98	320.11	15.34	-40.5	-41.5	22.5	0.00e+00	0	41	0	791674880	54	6058
2026-01-25 18:25:23.99	319.91	15.30	-40.4	-41.3	22.6	0.00e+00	0	41	0	793772032	54	5955
2026-01-25 18:25:25.00	319.71	15.26	-40.3	-41.2	22.4	0.00e+00	0	41	0	795869184	54	5858
2026-01-25 18:25:26.01	319.51	15.22	-39.9	-40.9	23.0	0.00e+00	0	41	0	797966336	54	5631
2026-01-25 18:25:27.02	319.31	15.18	-39.8	-40.7	23.1	0.00e+00	6	41	0	799014912	54	5556
2026-01-25 18:25:28.03	319.11	15.14	-39.6	-40.5	23.1	0.00e+00	0	41	0	801112064	52	6036
2026-01-25 18:25:29.04	318.91	15.10	-39.7	-40.6	23.3	0.00e+00	92	41	0	803209216	52	6141
2026-01-25 18:25:30.05	318.71	15.06	-39.3	-40.2	23.6	0.00e+00	0	41	0	805306368	52	5856
2026-01-25 18:25:31.06	318.51	15.02	-39.4	-40.3	23.6	0.00e+00	0	41	0	806354944	52	5913
2026-01-25 18:25:32.07	318.32	14.98	-39.6	-40.5	23.3	0.00e+00	0	41	0	808452096	52	6055
2026-01-25 18:25:33.08	318.12	14.93	-39.7	-40.6	23.3	0.00e+00	0	41	0	810549248	52	6113
2026-01-25 18:25:34.08	317.93	14.89	-39.6	-40.5	23.3	0.00e+00	81	41	0	812646400	52	6078
2026-01-25 18:25:35.09	317.73	14.85	-39.7	-40.7	23.2	0.00e+00	0	41	0	814743552	52	6190
2026-01-25 18:25:36.10	317.54	14.81	-39.9	-40.8	23.1	0.00e+00	92	41	0	816840704	52	6311
2026-01-25 18:25:37.11	317.34	14.77	-40.3	-41.3	22.7	0.00e+00	0	41	0	817889280	52	6677
2026-01-25 18:25:38.12	317.15	14.72	-40.6	-41.6	22.2	0.00e+00	0	41	0	819986432	52	6870
2026-01-25 18:25:39.13	316.95	14.68	-40.8	-41.9	22.1	0.00e+00	0	41	0	822083584	54	6328
2026-01-25 18:25:40.14	316.76	14.64	-41.3	-42.5	21.8	0.00e+00	0	41	0	824180736	54	6778
2026-01-25 18:25:41.15	316.57	14.59	-41.4	-42.5	21.6	0.00e+00	69	41	0	826277888	54	6838
2026-01-25 18:25:42.16	316.38	14.55	-41.4	-42.5	21.5	0.00e+00	0	41	0	827326464	54	6834
2026-01-25 18:25:43.17	316.19	14.51	-41.6	-42.7	21.5	0.00e+00	92	41	0	829423616	54	6962
2026-01-25 18:25:44.18	315.99	14.46	-41.3	-42.4	21.8	0.00e+00	0	41	0	831520768	54	6700
2026-01-25 18:25:45.19	315.80	14.42	-41.2	-42.2	21.9	0.00e+00	0	41	0	833617920	54	6605
2026-01-25 18:25:46.20	315.61	14.37	-41.1	-42.2	22.0	0.00e+00	0	41	0	835715072	54	6547
2026-01-25 18:25:47.21	315.43	14.33	-41.3	-42.4	21.7	0.00e+00	0	41	0	836763648	54	6764
2026-01-25 18:25:48.22	315.24	14.28	-41.3	-42.4	21.8	0.00e+00	10	41	0	838860800	54	6710
2026-01-25 18:25:49.22	315.05	14.24	-41.9	-43.1	21.3	0.00e+00	0	41	0	840957952	56	6489
2026-01-25 18:25:50.23	314.86	14.19	-41.6	-42.8	21.5	0.00e+00	66	41	0	843055104	56	6267
2026-01-25 18:25:51.24	314.68	14.14	-41.7	-42.8	21.5	0.00e+00	0	41	0	845152256	56	6291
2026-01-25 18:25:52.25	314.49	14.10	-41.8	-42.9	21.5	0.00e+00	23	41	0	846200832	56	6357
2026-01-25 18:25:53.26	314.31	14.05	-41.8	-42.9	21.3	0.00e+00	0	41	0	848297984	56	6376
2026-01-25 18:25:54.27	314.12	14.01	-41.9	-43.1	21.4	0.00e+00	0	41	0	850395136	56	6486
2026-01-25 18:25:55.28	313.94	13.96	-41.5	-42.6	21.7	0.00e+00	0	41	0	852492288	56	6152
2026-01-25 18:25:56.29	313.75	13.91	-41.5	-42.6	21.8	0.00e+00	0	41	0	854589440	56	6104
2026-01-25 18:25:57.30	313.57	13.87	-41.2	-42.2	22.0	0.00e+00	92	41	0	855638016	56	5868
2026-01-25 18:25:58.31	313.39	13.82	-41.2	-42.3	22.0	0.00e+00	0	41	0	857735168	56	5908
2026-01-25 18:25:59.32	313.21	13.77	-41.3	-42.3	21.9	0.00e+00	67	41	0	859832320	56	5955
2026-01-25 18:26:00.33	313.03	13.72	-41.5	-42.6	21.9	0.00e+00	0	41	0	861929472	56	6120
2026-01-25 18:26:01.34	312.84	13.67	-41.1	-42.1	22.2	0.00e+00	0	41	0	864026624	56	5819
2026-01-25 18:26:02.35	312.66	13.63	-41.1	-42.1	22.3	0.00e+00	0	41	0	865075200	56	5775
2026-01-25 18:26:03.35	312.49	13.58	-40.8	-41.7	22.5	0.00e+00	0	41	0	867172352	56	5556
2026-01-25 18:26:04.36	312.31	13.53	-40.4	-41.3	22.8	0.00e+00	50	41	0	869269504	54	5932
2026-01-25 18:26:05.37	312.13	13.48	-40.4	-41.3	22.7	0.00e+00	0	41	0	871366656	54	5964
2026-01-25 18:26:06.38	311.95	13.43	-40.4	-41.4	22.7	0.00e+00	71	41	0	873463808	54	5970
2026-01-25 18:26:07.39	311.77	13.38	-40.7	-41.7	22.3	0.00e+00	0	41	0	874512384	54	6193
2026-01-25 18:26:08.40	311.60	13.34	-40.7	-41.7	22.4	0.00e+00	0	41	0	876609536	54	6221
2026-01-25 18:26:09.41	311.42	13.29	-41.1	-42.1	22.1	0.00e+00	0	41	0	878706688	54	6529
2026-01-25 18:26:10.42	311.25	13.24	-41.3	-42.4	22.0	0.00e+00	0	41	0	880803840	54	6693
2026-01-25 18:26:11.43	311.07	13.19	-41.3	-42.3	21.9	0.00e+00	92	41	0	882900992	54	6665
2026-01-25 18:26:12.44	310.90	13.14	-41.1	-42.2	22.0	0.00e+00	0	41	0	884998144	54	6560
2026-01-25 18:26:13.45	310.72	13.09	-40.8	-41.8	22.2	0.00e+00	90	41	0	886046720	54	6286
2026-01-25 18:26:14.46	310.55	13.04	-41.0	-42.0	22.1	0.00e+00	21	41	0	888143872	54	6448
2026-01-25 18:26:15.47	310.38	12.99	-40.8	-41.8	22.3	0.00e+00	0	41	0	890241024	54	6259
2026-01-25 18:26:16.48	310.21	12.94	-40.9	-41.9	22.2	0.00e+00	0	41	0	892338176	54	6367
2026-01-25 18:26:17.49	310.04	12.89	-40.8	-41.8	22.2	0.00e+00	0	41	0	894435328	54	6281
2026-01-25 18:26:18.49	309.87	12.84	-41.3	-42.3	22.0	0.00e+00	83	41	0	895483904	54	6661
2026-01-25 18:26:19.50	309.70	12.78	-41.0	-42.0	22.1	0.00e+00	0	41	0	897581056	54	6438
2026-01-25 18:26:20.51	309.53	12.73	-41.2	-42.2	21.9	0.00e+00	71	41	0	899678208	54	6598
2026-01-25 18:26:21.52	309.36	12.68	-41.4	-42.4	21.8	0.00e+00	0	41	0	901775360	54	6739
2026-01-25 18:26:22.53	309.19	12.63	-41.9	-43.1	21.3	0.00e+00	0	41	0	903872512	56	6487
2026-01-25 18:26:23.54	309.02	12.58	-42.7	-44.0	20.4	0.00e+00	0	41	0	904921088	56	7221
2026-01-25 18:26:24.55	308.86	12.53	-43.0	-44.4	20.0	0.00e+00	0	41	0	907018240	58	6748
2026-01-25 18:26:25.56	308.69	12.48	-43.7	-45.2	19.3	0.00e+00	24	41	0	909115392	58	7390
2026-01-25 18:26:26.57	308.52	12.42	-44.0	-45.6	19.1	0.00e+00	0	41	0	911212544	60	6881
2026-01-25 18:26:27.58	308.36	12.37	-44.0	-45.6	19.0	0.00e+00	92	41	0	913309696	60	6897
2026-01-25 18:26:28.58	308.20	12.32	-43.9	-45.5	19.0	0.00e+00	0	41	0	914358272	60	6787
2026-01-25 18:26:29.59	308.03	12.27	-43.7	-45.3	19.4	0.00e+00	75	41	0	916455424	60	6620
2026-01-25 18:26:30.60	307.87	12.22	-43.2	-44.6	19.9	0.00e+00	0	41	0	918552576	60	6130
2026-01-25 18:26:31.61	307.71	12.16	-43.5	-44.9	19.7	0.00e+00	0	41	0	920649728	60	6364
2026-01-25 18:26:32.62	307.54	12.11	-43.5	-45.0	19.5	0.00e+00	3	41	0	922746880	60	6425
2026-01-25 18:26:33.62	307.38	12.06	-42.8	-44.2	20.3	0.00e+00	0	41	0	923795456	60	5840
2026-01-25 18:26:34.63	307.22	12.01	-43.1	-44.5	20.1	0.00e+00	0	41	0	925892608	60	6049
2026-01-25 18:26:35.64	307.06	11.95	-42.9	-44.2	20.3	0.00e+00	0	41	0	927989760	60	5888
2026-01-25 18:26:36.65	306.90	11.90	-42.8	-44.1	20.3	0.00e+00	48	41	0	930086912	60	5823
2026-01-25 18:26:37.65	306.74	11.85	-42.2	-43.4	21.0	0.00e+00	0	41	0	932184064	58	6002
2026-01-25 18:26:38.66	306.58	11.79	-42.0	-43.2	21.2	0.00e+00	0	41	0	933232640	58	5846
2026-01-25 18:26:39.67	306.43	11.74	-41.6	-42.7	21.5	0.00e+00	0	41	0	935329792	56	6185
2026-01-25 18:26:40.68	306.27	11.69	-41.6	-42.7	21.6	0.00e+00	0	41	0	937426944	56	6196
2026-01-25 18:26:41.69	306.11	11.63	-41.5	-42.6	21.5	0.00e+00	79	41	0	939524096	56	6158
2026-01-25 18:26:42.70	305.96	11.58	-41.4	-42.5	21.5	0.00e+00	0	41	0	941621248	56	6075
2026-01-25 18:26:43.71	305.80	11.53	-41.7	-42.8	21.4	0.00e+00	54	41	0	942669824	56	6269
2026-01-25 18:26:44.72	305.64	11.47	-41.8	-42.9	21.4	0.00e+00	0	41	0	944766976	56	6366
2026-01-25 18:26:45.73	305.49	11.42	-41.9	-43.1	21.3	0.00e+00	0	41	0	946864128	56	6472
2026-01-25 18:26:46.74	305.34	11.37	-41.9	-43.1	21.2	0.00e+00	0	41	0	948961280	56	6478
2026-01-25 18:26:47.75	305.18	11.31	-41.9	-43.0	21.3	0.00e+00	0	41	0	951058432	56	6417
2026-01-25 18:26:48.75	305.03	11.26	-41.8	-42.9	21.3	0.00e+00	3	41	0	952107008	56	6359
2026-01-25 18:26:49.77	304.88	11.20	-41.5	-42.6	21.7	0.00e+00	0	41	0	954204160	56	6154
2026-01-25 18:26:50.78	304.72	11.15	-41.5	-42.5	21.7	0.00e+00	65	41	0	956301312	56	6103
2026-01-25 18:26:51.79	304.57	11.09	-41.3	-42.4	21.7	0.00e+00	0	41	0	958398464	56	6008
2026-01-25 18:26:52.79	304.42	11.04	-41.4	-42.5	21.6	0.00e+00	0	41	0	960495616	56	6040
2026-01-25 18:26:53.80	304.27	10.99	-41.4	-42.5	21.7	0.00e+00	0	41	0	961544192	56	6064
2026-01-25 18:26:54.81	304.12	10.93	-41.1	-42.2	21.9	0.00e+00	0	41	0	963641344	56	5864
2026-01-25 18:26:55.82	303.98	10.88	-41.0	-42.0	22.0	0.00e+00	64	41	0	965738496	56	5731
2026-01-25 18:26:56.83	303.83	10.82	-41.2	-42.2	21.9	0.00e+00	0	41	0	967835648	56	5878
2026-01-25 18:26:57.84	303.68	10.77	-41.2	-42.3	21.8	0.00e+00	92	41	0	969932800	56	5899
2026-01-25 18:26:58.85	303.53	10.71	-41.2	-42.3	21.8	0.00e+00	0	41	0	970981376	56	5937
2026-01-25 18:26:59.86	303.38	10.66	-41.4	-42.5	21.7	0.00e+00	29	41	0	973078528	56	6080
2026-01-25 18:27:00.87	303.24	10.60	-41.6	-42.7	21.3	0.00e+00	0	41	0	975175680	56	6240
2026-01-25 18:27:01.88	303.09	10.55	-41.6	-42.7	21.4	0.00e+00	0	41	0	977272832	56	6176
2026-01-25 18:27:02.89	302.95	10.49	-41.8	-42.9	21.2	0.00e+00	4	41	0	979369984	56	6382
2026-01-25 18:27:03.90	302.80	10.44	-41.9	-43.0	21.2	0.00e+00	0	41	0	981467136	56	6444
2026-01-25 18:27:04.90	302.66	10.38	-42.0	-43.2	21.0	0.00e+00	92	41	0	982515712	56	6578
2026-01-25 18:27:05.91	302.52	10.33	-41.9	-43.1	21.1	0.00e+00	0	41	0	984612864	56	6512
2026-01-25 18:27:06.92	302.37	10.27	-41.9	-43.1	21.1	0.00e+00	72	41	0	986710016	56	6471
2026-01-25 18:27:07.93	302.23	10.22	-42.0	-43.1	21.2	0.00e+00	0	41	0	988807168	56	6531
2026-01-25 18:27:08.94	302.09	10.16	-41.8	-43.0	21.2	0.00e+00	0	41	0	990904320	56	6438
2026-01-25 18:27:09.95	301.95	10.11	-41.8	-43.0	21.3	0.00e+00	0	41	0	991952896	56	6398
2026-01-25 18:27:10.96	301.81	10.05	-41.9	-43.1	21.1	0.00e+00	0	41	0	994050048	56	6471
2026-01-25 18:27:11.97	301.67	10.00	-42.0	-43.3	21.0	0.00e+00	20	41	0	996147200	56	6626
2026-01-25 18:27:12.98	301.53	9.94	-41.8	-43.0	21.4	0.00e+00	0	41	0	998244352	56	6410
2026-01-25 18:27:13.99	301.39	9.89	-41.6	-42.8	21.4	0.00e+00	92	41	0	1000341504	56	6256
2026-01-25 18:27:14.99	301.25	9.83	-41.4	-42.6	21.6	0.00e+00	0	41	0	1001390080	56	6112
2026-01-25 18:27:16.00	301.11	9.77	-41.5	-42.7	21.5	0.00e+00	0	41	0	1003487232	56	6189
2026-01-25 18:27:17.01	300.98	9.72	-41.4	-42.5	21.6	0.00e+00	0	41	0	1005584384	56	6062
2026-01-25 18:27:18.02	300.84	9.66	-40.8	-41.9	22.1	0.00e+00	0	41	0	1007681536	56	5639
2026-01-25 18:27:19.03	300.70	9.61	-40.6	-41.6	22.3	0.00e+00	83	41	0	1009778688	54	6159
2026-01-25 18:27:20.04	300.57	9.55	-40.3	-41.3	22.6	0.00e+00	0	41	0	1010827264	54	5913
2026-01-25 18:27:21.05	300.43	9.50	-40.1	-41.1	22.6	0.00e+00	91	41	0	1012924416	54	5795
2026-01-25 18:27:22.05	300.30	9.44	-40.1	-41.1	22.6	0.00e+00	0	41	0	1015021568	54	5764
2026-01-25 18:27:23.06	300.16	9.38	-40.0	-40.9	22.8	0.00e+00	0	41	0	1017118720	54	5680
2026-01-25 18:27:24.07	300.03	9.33	-39.9	-40.9	22.9	0.00e+00	0	41	0	1019215872	54	5648
2026-01-25 18:27:25.08	299.90	9.27	-39.9	-40.9	22.8	0.00e+00	0	41	0	1020264448	54	5658
2026-01-25 18:27:26.09	299.76	9.22	-40.2	-41.2	22.7	0.00e+00	8	41	0	1022361600	54	5836
2026-01-25 18:27:27.10	299.63	9.16	-40.4	-41.4	22.4	0.00e+00	0	41	0	1024458752	54	6027
2026-01-25 18:27:28.11	299.50	9.11	-40.6	-41.6	22.2	0.00e+00	74	41	0	1026555904	54	6168
2026-01-25 18:27:29.12	299.37	9.05	-40.6	-41.6	22.2	0.00e+00	0	41	0	1028653056	54	6168
2026-01-25 18:27:30.13	299.24	8.99	-40.6	-41.7	22.2	0.00e+00	0	41	0	1029701632	54	6178
2026-01-25 18:27:31.14	299.11	8.94	-40.5	-41.5	22.3	0.00e+00	0	41	0	1031798784	54	6078
2026-01-25 18:27:32.15	298.98	8.88	-40.7	-41.7	22.2	0.00e+00	0	41	0	1033895936	54	6244
2026-01-25 18:27:33.16	298.85	8.82	-40.6	-41.6	22.2	0.00e+00	15	41	0	1035993088	54	6129
2026-01-25 18:27:34.17	298.72	8.77	-40.4	-41.4	22.4	0.00e+00	22	41	0	1038090240	54	5966
2026-01-25 18:27:35.18	298.59	8.71	-40.3	-41.3	22.5	0.00e+00	90	41	0	1039138816	54	5926
2026-01-25 18:27:36.19	298.47	8.66	-40.1	-41.0	22.6	0.00e+00	0	41	0	1041235968	54	5760
2026-01-25 18:27:37.20	298.34	8.60	-40.2	-41.2	22.5	0.00e+00	76	41	0	1043333120	54	5855
2026-01-25 18:27:38.20	298.21	8.55	-40.4	-41.4	22.4	0.00e+00	0	41	0	1045430272	54	5982
2026-01-25 18:27:39.21	298.09	8.49	-40.4	-41.4	22.4	0.00e+00	0	41	0	1047527424	54	5976
2026-01-25 18:27:40.22	297.96	8.43	-40.5	-41.5	22.3	0.00e+00	8	41	0	1049624576	54	6101
2026-01-25 18:27:41.23	297.84	8.38	-40.8	-41.8	22.0	0.00e+00	0	41	0	1050673152	54	6302
2026-01-25 18:27:42.24	297.71	8.32	-40.7	-41.7	22.1	0.00e+00	91	41	0	1052770304	54	6232
2026-01-25 18:27:43.25	297.59	8.26	-40.9	-41.9	21.9	0.00e+00	0	41	0	1054867456	54	6382
2026-01-25 18:27:44.26	297.46	8.21	-41.2	-42.3	21.7	0.00e+00	30	41	0	1056964608	54	6644
2026-01-25 18:27:45.27	297.34	8.15	-40.9	-42.0	21.8	0.00e+00	0	41	0	1059061760	54	6452
2026-01-25 18:27:46.28	297.22	8.10	-41.0	-42.0	21.8	0.00e+00	0	41	0	1060110336	54	6464
2026-01-25 18:27:47.29	297.09	8.04	-41.1	-42.2	21.3	0.00e+00	0	41	0	1062207488	54	6579
2026-01-25 18:27:48.30	296.97	7.98	-41.3	-42.4	21.4	0.00e+00	0	41	0	1064304640	54	6714
2026-01-25 18:27:49.30	296.85	7.93	-41.1	-42.2	21.6	0.00e+00	81	41	0	1066401792	54	6606
2026-01-25 18:27:50.31	296.73	7.87	-41.2	-42.4	21.5	0.00e+00	0	41	0	1068498944	54	6699
2026-01-25 18:27:51.32	296.61	7.82	-41.3	-42.5	21.5	0.00e+00	55	41	0	1069547520	54	6782
2026-01-25 18:27:52.33	296.49	7.76	-41.2	-42.3	21.6	0.00e+00	0	41	0	1071644672	54	6643
2026-01-25 18:27:53.34	296.37	7.70	-41.5	-42.7	21.2	0.00e+00	0	41	0	1073741824	54	6960
2026-01-25 18:27:54.35	296.25	7.65	-41.5	-42.7	20.8	0.00e+00	0	41	0	1075838976	54	6947
2026-01-25 18:27:55.36	296.14	7.59	-41.5	-42.7	21.3	0.00e+00	0	41	0	1077936128	54	6954
2026-01-25 18:27:56.37	296.02	7.53	-41.4	-42.6	21.4	0.00e+00	9	41	0	1078984704	54	6872
2026-01-25 18:27:57.38	295.90	7.48	-41.5	-42.6	21.3	0.00e+00	0	41	0	1081081856	54	6923
2026-01-25 18:27:58.39	295.78	7.42	-41.8	-43.0	21.0	0.00e+00	91	41	0	1083179008	56	6459
2026-01-25 18:27:59.40	295.67	7.37	-41.6	-42.8	21.3	0.00e+00	0	41	0	1085276160	56	6273
2026-01-25 18:28:00.41	295.55	7.31	-41.3	-42.4	21.5	0.00e+00	0	41	0	1087373312	56	6025
2026-01-25 18:28:01.42	295.43	7.25	-41.3	-42.4	21.4	0.00e+00	0	41	0	1088421888	56	6006
2026-01-25 18:28:02.42	295.32	7.20	-41.2	-42.3	21.5	0.00e+00	0	41	0	1090519040	56	5924
2026-01-25 18:28:03.43	295.21	7.14	-41.1	-42.2	21.8	0.00e+00	48	41	0	1092616192	56	5846
2026-01-25 18:28:04.44	295.09	7.09	-41.0	-42.1	21.9	0.00e+00	0	41	0	1094713344	56	5774
2026-01-25 18:28:05.45	294.98	7.03	-40.9	-42.0	21.9	0.00e+00	54	41	0	1096810496	56	5736
2026-01-25 18:28:06.46	294.86	6.97	-40.7	-41.7	22.0	0.00e+00	0	41	0	1097859072	54	6242
2026-01-25 18:28:07.47	294.75	6.92	-40.5	-41.6	22.1	0.00e+00	92	41	0	1099956224	54	6119
2026-01-25 18:28:08.48	294.64	6.86	-40.7	-41.7	22.0	0.00e+00	24	41	0	1102053376	54	6225
2026-01-25 18:28:09.49	294.53	6.81	-40.5	-41.5	22.1	0.00e+00	0	41	0	1104150528	54	6065
2026-01-25 18:28:10.50	294.41	6.75	-41.0	-42.1	21.6	0.00e+00	9	41	0	1106247680	54	6537
2026-01-25 18:28:11.51	294.30	6.70	-41.3	-42.4	21.4	0.00e+00	0	41	0	1107296256	54	6746
2026-01-25 18:28:12.52	294.19	6.64	-41.5	-42.7	21.3	0.00e+00	92	41	0	1109393408	56	6214
2026-01-25 18:28:13.53	294.08	6.58	-41.4	-42.6	21.3	0.00e+00	0	41	0	1111490560	56	6132
2026-01-25 18:28:14.54	293.97	6.53	-42.2	-43.5	20.5	0.00e+00	92	41	0	1113587712	56	6809
2026-01-25 18:28:15.55	293.86	6.47	-42.1	-43.3	20.7	0.00e+00	0	41	0	1115684864	56	6672
2026-01-25 18:28:16.56	293.75	6.42	-42.2	-43.5	20.5	0.00e+00	0	41	0	1116733440	56	6832
2026-01-25 18:28:17.57	293.65	6.36	-42.0	-43.3	20.7	0.00e+00	2	41	0	1118830592	56	6654
2026-01-25 18:28:18.58	293.54	6.30	-42.1	-43.3	20.7	0.00e+00	0	41	0	1120927744	56	6655
2026-01-25 18:28:19.59	293.43	6.25	-42.1	-43.3	20.7	0.00e+00	91	41	0	1123024896	56	6678
2026-01-25 18:28:20.60	293.32	6.19	-41.8	-43.0	21.0	0.00e+00	0	41	0	1125122048	56	6426
2026-01-25 18:28:21.61	293.22	6.14	-42.1	-43.4	20.6	0.00e+00	84	41	0	1126170624	56	6728
2026-01-25 18:28:22.62	293.11	6.08	-41.7	-42.9	21.1	0.00e+00	0	41	0	1128267776	56	6318
2026-01-25 18:28:23.63	293.00	6.03	-41.2	-42.3	21.5	0.00e+00	0	41	0	1130364928	56	5905
2026-01-25 18:28:24.64	292.90	5.97	-40.8	-41.8	21.8	0.00e+00	0	41	0	1132462080	56	5618
2026-01-25 18:28:25.64	292.79	5.91	-41.1	-42.1	21.5	0.00e+00	0	41	0	1134559232	56	5827
2026-01-25 18:28:26.65	292.69	5.86	-41.2	-42.3	21.5	0.00e+00	2	41	0	1135607808	56	5925
2026-01-25 18:28:27.66	292.58	5.80	-40.9	-42.0	21.7	0.00e+00	0	41	0	1137704960	56	5744
2026-01-25 18:28:28.67	292.48	5.75	-41.0	-42.1	21.7	0.00e+00	92	41	0	1139802112	56	5799
2026-01-25 18:28:29.68	292.38	5.69	-41.6	-42.8	21.1	0.00e+00	0	41	0	1141899264	56	6277
2026-01-25 18:28:30.69	292.27	5.64	-41.0	-42.1	21.5	0.00e+00	0	41	0	1143996416	56	5827
2026-01-25 18:28:31.70	292.17	5.58	-41.3	-42.4	21.3	0.00e+00	0	41	0	1146093568	56	5995
2026-01-25 18:28:32.71	292.07	5.53	-41.4	-42.5	21.2	0.00e+00	0	41	0	1147142144	56	6074
2026-01-25 18:28:33.72	291.97	5.47	-41.7	-42.9	21.0	0.00e+00	64	41	0	1149239296	56	6335
2026-01-25 18:28:34.73	291.86	5.42	-41.3	-42.4	21.3	0.00e+00	0	41	0	1151336448	56	6028
2026-01-25 18:28:35.73	291.76	5.36	-41.4	-42.5	21.2	0.00e+00	73	41	0	1153433600	56	6095
2026-01-25 18:28:36.74	291.66	5.31	-41.9	-43.1	20.8	0.00e+00	0	41	0	1155530752	56	6529
2026-01-25 18:28:37.75	291.56	5.25	-42.0	-43.2	20.6	0.00e+00	0	41	0	1156579328	56	6599
2026-01-25 18:28:38.76	291.46	5.20	-42.6	-43.9	20.0	0.00e+00	0	41	0	1158676480	56	7167
2026-01-25 18:28:39.77	291.36	5.14	-42.5	-43.8	20.0	0.00e+00	0	41	0	1160773632	56	7068
2026-01-25 18:28:40.78	291.26	5.09	-42.7	-44.1	19.8	0.00e+00	0	41	0	1162870784	58	6485
2026-01-25 18:28:41.79	291.16	5.03	-42.8	-44.2	19.7	0.00e+00	0	41	0	1164967936	58	6591
2026-01-25 18:28:42.80	291.07	4.97	-42.9	-44.3	19.5	0.00e+00	90	41	0	1166016512	58	6688
2026-01-25 18:28:43.81	290.97	4.92	-42.7	-44.2	19.6	0.00e+00	0	41	0	1168113664	58	6546
2026-01-25 18:28:44.82	290.87	4.86	-43.0	-44.5	19.7	0.00e+00	25	41	0	1170210816	58	6823
2026-01-25 18:28:45.83	290.77	4.81	-43.4	-45.0	19.1	0.00e+00	0	41	0	1172307968	58	7215
2026-01-25 18:28:46.84	290.68	4.75	-42.8	-44.3	19.6	0.00e+00	0	41	0	1174405120	58	6652
2026-01-25 18:28:47.85	290.58	4.70	-42.9	-44.3	19.5	0.00e+00	0	41	0	1175453696	58	6683
2026-01-25 18:28:48.86	290.48	4.65	-43.0	-44.5	19.6	0.00e+00	0	41	0	1177550848	58	6786
2026-01-25 18:28:49.87	290.39	4.59	-42.7	-44.1	19.7	0.00e+00	68	41	0	1179648000	58	6512
2026-01-25 18:28:50.88	290.29	4.54	-42.9	-44.3	19.5	0.00e+00	0	41	0	1181745152	58	6652
2026-01-25 18:28:51.89	290.20	4.48	-43.3	-44.9	19.0	0.00e+00	92	41	0	1183842304	58	7112
2026-01-25 18:28:52.90	290.10	4.43	-42.9	-44.4	19.4	0.00e+00	0	41	0	1184890880	58	6694
2026-01-25 18:28:53.91	290.01	4.37	-42.9	-44.3	19.4	0.00e+00	0	41	0	1186988032	58	6678
2026-01-25 18:28:54.92	289.91	4.32	-43.2	-44.7	19.2	0.00e+00	0	41	0	1189085184	58	6957
2026-01-25 18:28:55.92	289.82	4.26	-43.1	-44.6	19.1	0.00e+00	0	41	0	1191182336	58	6879
2026-01-25 18:28:56.93	289.73	4.21	-43.1	-44.7	19.1	0.00e+00	92	41	0	1193279488	58	6938
2026-01-25 18:28:57.94	289.63	4.15	-44.1	-46.0	18.1	0.00e+00	0	41	0	1194328064	60	7206
