passes_logs/2026/01/25/R4.6S_Anadyr/R4.6S_Anadyr__20260125_173451_FENGYUN_3D_rec.log

#Pass ID: 20260125_173451_FENGYUN 3D
#Satellite: FENGYUN 3D
#Configuration: FENGYUN 3D
#almurnet v.1.7.20251203
#Start time: 2026-01-25 17:34:54

#Version: 2.2.20231116
#Station: R4.6S_Anadyr
#Location: 177.4865 lon 64.73178 lat
#TLE: 1 43010U 17072A   26025.29318909  .00000213  00000+0  12258-3 0  9997
#TLE: 2 43010  98.9962 357.2697 0002521  90.3942 269.7522 14.19700342424711

#Time	Az	El	Level	Level2	SNR	BER	BlckErr	Temp	State	Recorded	gain1	gain2
2026-01-25 17:34:54.36	22.96	0.15	-51.3	-69.0	3.5	3.02e+01	0	38	0	0	60	108381
2026-01-25 17:34:55.37	22.94	0.21	-50.5	-62.7	3.6	8.45e-01	0	39	104	0	60	49080
2026-01-25 17:34:56.38	22.93	0.27	-50.5	-62.7	3.6	8.46e-01	0	39	104	0	60	49312
2026-01-25 17:34:57.39	22.91	0.33	-50.5	-62.7	3.6	8.46e-01	0	39	104	0	60	49242
2026-01-25 17:34:58.40	22.89	0.39	-50.5	-62.7	3.6	8.45e-01	0	39	104	0	60	49121
2026-01-25 17:34:59.41	22.88	0.45	-50.5	-62.7	3.6	8.46e-01	0	39	104	0	60	49210
2026-01-25 17:35:00.42	22.86	0.51	-50.6	-62.7	3.6	8.45e-01	0	39	104	0	60	49329
2026-01-25 17:35:01.43	22.85	0.57	-50.4	-62.7	3.6	8.45e-01	0	39	104	0	60	49175
2026-01-25 17:35:02.45	22.83	0.63	-50.5	-62.7	3.6	8.45e-01	0	39	104	0	60	49176
2026-01-25 17:35:03.45	22.81	0.69	-50.6	-62.7	3.6	8.44e-01	0	39	104	0	60	49426
2026-01-25 17:35:04.46	22.79	0.75	-50.6	-62.7	3.6	8.45e-01	0	39	104	0	60	49534
2026-01-25 17:35:05.47	22.78	0.82	-50.6	-62.6	3.6	8.46e-01	0	39	104	0	60	48949
2026-01-25 17:35:06.48	22.76	0.88	-50.6	-62.7	3.6	8.45e-01	0	40	104	0	60	49133
2026-01-25 17:35:07.49	22.74	0.94	-50.4	-62.6	3.6	8.45e-01	0	40	104	0	60	48773
2026-01-25 17:35:08.50	22.73	1.00	-50.5	-62.5	3.6	8.45e-01	0	39	104	0	60	48424
2026-01-25 17:35:09.51	22.71	1.06	-50.4	-62.5	3.6	8.45e-01	0	39	104	0	60	48108
2026-01-25 17:35:10.52	22.69	1.12	-50.4	-62.4	3.6	8.47e-01	0	39	104	0	60	47612
2026-01-25 17:35:11.53	22.67	1.19	-50.2	-62.3	3.6	8.45e-01	0	40	104	0	60	47309
2026-01-25 17:35:12.54	22.66	1.25	-50.1	-62.3	3.6	8.46e-01	0	40	104	0	60	47133
2026-01-25 17:35:13.55	22.64	1.31	-50.0	-62.1	3.6	8.46e-01	0	40	104	0	60	46245
2026-01-25 17:35:14.56	22.62	1.37	-49.9	-62.1	3.6	8.46e-01	0	40	104	0	60	45966
2026-01-25 17:35:15.57	22.60	1.44	-49.9	-62.0	3.6	8.47e-01	0	40	104	0	60	45579
2026-01-25 17:35:16.58	22.59	1.50	-49.7	-61.9	3.6	8.45e-01	0	40	104	0	60	44812
2026-01-25 17:35:17.59	22.57	1.56	-49.5	-61.6	3.6	8.47e-01	0	40	104	0	60	43263
2026-01-25 17:35:18.60	22.55	1.62	-49.2	-61.3	3.6	8.45e-01	0	40	104	0	60	42122
2026-01-25 17:35:19.61	22.53	1.69	-49.2	-61.2	3.6	8.45e-01	0	40	104	0	60	41296
2026-01-25 17:35:20.62	22.51	1.75	-49.2	-60.9	3.6	8.45e-01	0	40	104	0	60	40161
2026-01-25 17:35:21.63	22.49	1.81	-49.1	-60.7	3.6	8.45e-01	0	40	104	0	60	39209
2026-01-25 17:35:22.64	22.48	1.88	-49.1	-60.6	3.6	8.46e-01	0	40	104	0	60	38937
2026-01-25 17:35:23.65	22.46	1.94	-49.1	-60.5	3.6	8.44e-01	0	40	104	0	60	38449
2026-01-25 17:35:24.66	22.44	2.00	-49.1	-60.7	3.6	8.46e-01	0	40	104	0	60	39027
2026-01-25 17:35:25.67	22.42	2.07	-49.1	-60.8	3.6	8.45e-01	0	40	104	0	60	39817
2026-01-25 17:35:26.68	22.40	2.13	-49.1	-60.9	3.6	8.45e-01	0	40	104	0	60	40290
2026-01-25 17:35:27.69	22.38	2.20	-49.2	-61.1	3.6	8.47e-01	0	40	104	0	60	41244
2026-01-25 17:35:28.70	22.36	2.26	-49.2	-61.2	3.6	8.46e-01	0	40	104	0	60	41739
2026-01-25 17:35:29.71	22.34	2.33	-49.2	-61.3	3.6	8.46e-01	0	40	104	0	60	42042
2026-01-25 17:35:30.72	22.32	2.39	-49.2	-61.3	3.6	8.46e-01	0	40	104	0	60	41829
2026-01-25 17:35:31.73	22.30	2.46	-49.1	-61.1	3.6	8.45e-01	0	40	104	0	60	41125
2026-01-25 17:35:32.74	22.28	2.52	-49.1	-60.8	3.6	8.45e-01	0	40	104	0	60	39753
2026-01-25 17:35:33.75	22.27	2.59	-49.1	-60.3	3.6	8.45e-01	0	40	104	0	60	37263
2026-01-25 17:35:34.76	22.25	2.65	-49.1	-59.9	3.6	8.45e-01	0	40	104	0	60	35614
2026-01-25 17:35:35.77	22.23	2.72	-49.0	-59.3	3.6	8.45e-01	0	40	104	0	60	33259
2026-01-25 17:35:36.78	22.21	2.78	-49.0	-58.7	3.8	8.43e-01	0	40	104	0	60	31233
2026-01-25 17:35:37.79	22.19	2.85	-48.9	-58.5	3.8	8.41e-01	0	40	104	0	60	30538
2026-01-25 17:35:38.80	22.17	2.91	-48.9	-58.8	3.7	8.43e-01	0	40	104	0	60	31477
2026-01-25 17:35:39.81	22.15	2.98	-49.1	-60.2	3.6	8.45e-01	0	40	104	0	60	36972
2026-01-25 17:35:40.82	22.12	3.05	-49.1	-60.8	3.6	8.45e-01	0	40	104	0	60	39850
2026-01-25 17:35:41.83	22.10	3.11	-49.0	-59.3	3.6	8.45e-01	0	40	104	0	60	33278
2026-01-25 17:35:42.84	22.08	3.18	-48.3	-55.0	5.6	8.30e-01	0	40	104	0	60	20268
2026-01-25 17:35:43.85	22.06	3.24	-47.6	-51.8	8.0	3.02e-01	0	40	0	2097152	60	14068
2026-01-25 17:35:44.86	22.04	3.31	-46.3	-49.2	11.0	8.67e-03	0	40	0	7340032	60	10448
2026-01-25 17:35:45.87	22.02	3.38	-45.1	-47.4	13.0	3.44e-04	0	40	0	13631488	60	8490
2026-01-25 17:35:46.87	22.00	3.44	-44.6	-46.6	14.0	1.71e-05	0	40	0	18874368	60	7730
2026-01-25 17:35:47.88	21.98	3.51	-43.7	-45.5	14.9	0.00e+00	0	40	0	25165824	60	6781
2026-01-25 17:35:48.89	21.96	3.58	-41.8	-43.0	17.3	0.00e+00	0	40	0	30408704	56	6462
2026-01-25 17:35:49.90	21.94	3.65	-43.1	-44.7	15.6	0.00e+00	0	40	0	35651584	58	6979
2026-01-25 17:35:50.91	21.91	3.71	-42.3	-43.7	16.6	0.00e+00	0	40	0	41943040	58	6208
2026-01-25 17:35:51.92	21.89	3.78	-42.4	-43.8	16.5	0.00e+00	0	40	0	47185920	58	6306
2026-01-25 17:35:52.93	21.87	3.85	-49.0	-58.5	3.8	8.49e-01	0	40	104	50331648	60	30551
2026-01-25 17:35:53.94	21.85	3.92	-47.9	-52.3	7.5	5.43e-01	0	40	0	51380224	60	14885
2026-01-25 17:35:54.95	21.83	3.99	-48.9	-58.1	3.6	3.72e-04	0	40	104	55574528	60	29037
2026-01-25 17:35:55.96	21.80	4.06	-40.0	-40.8	21.4	0.00e+00	0	40	104	55574528	52	6304
2026-01-25 17:35:56.97	21.78	4.12	-49.0	-59.3	3.6	3.45e-01	0	40	104	58720256	60	33381
2026-01-25 17:35:57.98	21.76	4.19	-37.4	-38.2	22.1	0.00e+00	0	40	0	59768832	48	5847
2026-01-25 17:35:58.99	21.74	4.26	-37.3	-38.1	22.3	0.00e+00	0	40	0	65011712	48	5793
2026-01-25 17:36:00.00	21.71	4.33	-37.7	-38.5	21.5	0.00e+00	0	40	0	70254592	48	6060
2026-01-25 17:36:01.01	21.69	4.40	-38.0	-38.9	21.6	0.00e+00	0	40	0	76546048	48	6338
2026-01-25 17:36:02.02	21.67	4.47	-37.6	-38.4	22.0	0.00e+00	0	40	0	81788928	48	6018
2026-01-25 17:36:03.03	21.65	4.54	-37.5	-38.3	22.0	0.00e+00	0	40	0	88080384	48	5897
2026-01-25 17:36:04.04	21.62	4.61	-37.6	-38.5	21.9	0.00e+00	0	40	0	93323264	48	6035
2026-01-25 17:36:05.05	21.60	4.68	-37.6	-38.4	22.0	0.00e+00	0	40	0	99614720	48	6031
2026-01-25 17:36:06.06	21.58	4.75	-37.0	-37.7	22.6	0.00e+00	0	40	0	104857600	48	5563
2026-01-25 17:36:07.07	21.55	4.82	-37.4	-38.2	22.2	0.00e+00	0	40	0	110100480	48	5846
2026-01-25 17:36:08.08	21.53	4.89	-37.6	-38.4	22.0	0.00e+00	0	40	0	116391936	48	5991
2026-01-25 17:36:09.08	21.50	4.96	-37.3	-38.1	22.3	0.00e+00	0	40	0	121634816	48	5801
2026-01-25 17:36:10.09	21.48	5.03	-37.6	-38.4	22.1	0.00e+00	0	40	0	127926272	48	5976
2026-01-25 17:36:11.10	21.46	5.10	-37.4	-38.2	22.3	0.00e+00	0	40	0	133169152	48	5841
2026-01-25 17:36:12.11	21.43	5.17	-36.0	-36.7	23.6	0.00e+00	0	40	0	138412032	46	5558
2026-01-25 17:36:13.12	21.41	5.25	-37.8	-38.6	21.9	0.00e+00	0	40	0	144703488	48	6156
2026-01-25 17:36:14.13	21.38	5.32	-37.7	-38.5	21.9	0.00e+00	0	40	0	149946368	48	6072
2026-01-25 17:36:15.14	21.36	5.39	-37.2	-37.9	22.3	0.00e+00	0	40	0	156237824	48	5686
2026-01-25 17:36:16.15	21.33	5.46	-37.8	-38.6	22.0	0.00e+00	0	40	0	161480704	48	6135
2026-01-25 17:36:17.16	21.31	5.53	-37.8	-38.6	21.9	0.00e+00	0	40	0	166723584	48	6146
2026-01-25 17:36:18.17	21.28	5.61	-38.2	-39.0	21.6	0.00e+00	0	40	0	173015040	48	6434
2026-01-25 17:36:19.18	21.26	5.68	-37.9	-38.7	21.8	0.00e+00	0	40	0	178257920	48	6190
2026-01-25 17:36:20.19	21.23	5.75	-37.8	-38.6	21.9	0.00e+00	0	40	0	184549376	48	6164
2026-01-25 17:36:21.20	21.21	5.83	-37.8	-38.6	21.6	0.00e+00	0	40	0	189792256	48	6134
2026-01-25 17:36:22.21	21.18	5.90	-37.9	-38.7	21.8	0.00e+00	0	40	0	196083712	48	6214
2026-01-25 17:36:23.22	21.16	5.97	-38.1	-38.9	21.8	0.00e+00	0	40	0	201326592	48	6368
2026-01-25 17:36:24.23	21.13	6.05	-38.1	-39.0	21.6	0.00e+00	0	40	0	207618048	48	6420
2026-01-25 17:36:25.24	21.10	6.12	-38.0	-38.8	21.5	0.00e+00	0	40	0	212860928	48	6305
2026-01-25 17:36:26.25	21.08	6.19	-38.1	-39.0	21.7	0.00e+00	0	40	0	218103808	48	6391
2026-01-25 17:36:27.26	21.05	6.27	-38.7	-39.5	21.1	0.00e+00	0	40	0	224395264	50	6082
2026-01-25 17:36:28.27	21.02	6.34	-38.9	-39.7	21.0	0.00e+00	0	40	0	229638144	50	6224
2026-01-25 17:36:29.28	21.00	6.42	-39.9	-40.9	19.6	0.00e+00	0	40	0	235929600	52	6350
2026-01-25 17:36:30.29	20.97	6.49	-38.3	-39.1	21.6	0.00e+00	0	40	0	241172480	50	5788
2026-01-25 17:36:31.30	20.94	6.57	-38.7	-39.5	21.4	0.00e+00	0	40	0	246415360	50	6100
2026-01-25 17:36:32.31	20.92	6.64	-37.6	-38.4	22.0	0.00e+00	0	40	0	252706816	48	6012
2026-01-25 17:36:33.32	20.89	6.72	-38.1	-38.9	21.9	0.00e+00	0	40	0	257949696	48	6383
2026-01-25 17:36:34.33	20.86	6.79	-38.5	-39.3	21.2	0.00e+00	0	40	0	264241152	48	6663
2026-01-25 17:36:35.34	20.83	6.87	-38.1	-38.9	21.8	0.00e+00	0	40	0	269484032	50	5653
2026-01-25 17:36:36.35	20.80	6.95	-37.8	-38.6	22.0	0.00e+00	0	40	0	274726912	50	5485
2026-01-25 17:36:37.36	20.78	7.02	-38.1	-38.9	21.8	0.00e+00	0	40	0	281018368	48	6373
2026-01-25 17:36:38.37	20.75	7.10	-37.7	-38.5	22.4	0.00e+00	0	40	0	286261248	48	6064
2026-01-25 17:36:39.38	20.72	7.18	-38.0	-38.8	22.0	0.00e+00	0	40	0	292552704	48	6269
2026-01-25 17:36:40.39	20.69	7.25	-37.3	-38.1	22.6	0.00e+00	0	40	0	297795584	48	5807
2026-01-25 17:36:41.40	20.66	7.33	-37.0	-37.7	22.9	0.00e+00	0	40	0	304087040	46	6221
2026-01-25 17:36:42.40	20.63	7.41	-36.6	-37.4	23.3	0.00e+00	0	40	0	309329920	46	5978
2026-01-25 17:36:43.41	20.60	7.49	-36.9	-37.6	23.0	0.00e+00	0	40	0	314572800	46	6158
2026-01-25 17:36:44.42	20.57	7.56	-36.9	-37.6	23.0	0.00e+00	0	40	0	320864256	46	6170
2026-01-25 17:36:45.43	20.55	7.64	-36.2	-36.9	23.6	0.00e+00	0	40	0	326107136	46	5692
2026-01-25 17:36:46.44	20.52	7.72	-37.0	-37.8	23.0	0.00e+00	0	40	0	332398592	46	6265
2026-01-25 17:36:47.45	20.49	7.80	-37.0	-37.8	23.0	0.00e+00	0	40	0	337641472	46	6255
2026-01-25 17:36:48.46	20.46	7.88	-37.2	-37.9	22.7	0.00e+00	0	40	0	342884352	46	6367
2026-01-25 17:36:49.75	20.42	7.98	-36.9	-37.7	23.1	0.00e+00	0	40	0	349175808	46	6200
2026-01-25 17:36:50.47	20.40	8.04	-36.9	-37.7	23.1	0.00e+00	0	40	0	353370112	46	6185
2026-01-25 17:36:51.77	20.36	8.14	-37.1	-37.9	23.0	0.00e+00	0	40	0	360710144	46	6321
2026-01-25 17:36:52.49	20.33	8.20	-36.9	-37.6	23.2	0.00e+00	0	40	0	363855872	46	6125
2026-01-25 17:36:53.79	20.29	8.30	-36.3	-37.0	23.5	0.00e+00	0	40	0	371195904	46	5746
2026-01-25 17:36:54.51	20.27	8.36	-36.2	-36.9	23.8	0.00e+00	0	40	0	375390208	46	5683
2026-01-25 17:36:55.81	20.23	8.46	-36.5	-37.2	23.5	0.00e+00	0	40	0	382730240	46	5879
2026-01-25 17:36:56.53	20.21	8.52	-35.7	-36.4	24.2	0.00e+00	0	40	0	386924544	44	5997
2026-01-25 17:36:57.83	20.17	8.62	-36.2	-36.9	23.7	0.00e+00	0	40	0	394264576	44	6345
2026-01-25 17:36:58.55	20.14	8.68	-36.7	-37.4	23.4	0.00e+00	0	40	0	398458880	46	6005
2026-01-25 17:36:59.84	20.10	8.78	-36.5	-37.3	23.5	0.00e+00	0	40	0	405798912	46	5898
2026-01-25 17:37:00.56	20.08	8.84	-36.2	-36.9	23.8	0.00e+00	0	40	0	409993216	46	5643
2026-01-25 17:37:01.86	20.04	8.95	-36.5	-37.2	23.5	0.00e+00	0	40	0	417333248	46	5851
2026-01-25 17:37:02.58	20.01	9.01	-36.6	-37.3	23.4	0.00e+00	0	40	0	421527552	46	5935
2026-01-25 17:37:03.88	19.97	9.11	-36.3	-37.0	23.5	0.00e+00	0	40	0	428867584	46	5755
2026-01-25 17:37:04.60	19.95	9.17	-36.3	-37.0	23.8	0.00e+00	0	40	0	432013312	46	5744
2026-01-25 17:37:05.89	19.91	9.28	-35.6	-36.4	24.3	0.00e+00	0	40	0	439353344	44	5972
2026-01-25 17:37:06.62	19.88	9.34	-35.7	-36.4	24.3	0.00e+00	0	40	0	443547648	44	6030
2026-01-25 17:37:07.92	19.84	9.45	-35.9	-36.6	24.0	0.00e+00	0	40	0	450887680	44	6171
2026-01-25 17:37:08.64	19.81	9.51	-35.9	-36.6	24.3	0.00e+00	0	40	0	455081984	44	6112
2026-01-25 17:37:09.93	19.77	9.61	-35.8	-36.5	24.3	0.00e+00	0	40	0	462422016	44	6097
2026-01-25 17:37:10.65	19.74	9.68	-35.7	-36.4	24.2	0.00e+00	0	40	0	466616320	44	5983
2026-01-25 17:37:11.95	19.70	9.78	-35.9	-36.6	24.2	0.00e+00	0	40	0	473956352	44	6112
2026-01-25 17:37:12.67	19.67	9.85	-35.7	-36.3	24.3	0.00e+00	0	40	0	478150656	44	5963
2026-01-25 17:37:13.97	19.63	9.96	-35.8	-36.5	24.3	0.00e+00	0	40	0	485490688	44	6041
2026-01-25 17:37:14.69	19.60	10.02	-35.8	-36.5	24.2	0.00e+00	0	40	0	489684992	44	6056
2026-01-25 17:37:15.99	19.56	10.13	-35.7	-36.4	24.4	0.00e+00	0	40	0	497025024	44	5994
2026-01-25 17:37:16.71	19.53	10.19	-36.0	-36.7	24.1	0.00e+00	0	40	0	501219328	44	6200
2026-01-25 17:37:18.01	19.49	10.30	-35.6	-36.3	24.4	0.00e+00	0	40	0	507510784	44	5923
2026-01-25 17:37:18.73	19.46	10.36	-35.3	-36.0	24.6	0.00e+00	0	40	0	511705088	44	5699
2026-01-25 17:37:20.02	19.41	10.47	-35.8	-36.5	24.2	0.00e+00	0	40	0	519045120	44	6067
2026-01-25 17:37:20.74	19.39	10.54	-35.9	-36.6	24.1	0.00e+00	0	40	0	523239424	44	6134
2026-01-25 17:37:22.04	19.34	10.65	-35.6	-36.3	24.3	0.00e+00	0	40	0	530579456	44	5953
2026-01-25 17:37:22.76	19.31	10.71	-35.7	-36.4	24.2	0.00e+00	0	40	0	534773760	44	6032
2026-01-25 17:37:24.06	19.26	10.83	-35.8	-36.5	24.3	0.00e+00	0	40	0	542113792	44	6046
2026-01-25 17:37:24.78	19.24	10.89	-35.7	-36.4	24.4	0.00e+00	0	40	0	546308096	44	6022
2026-01-25 17:37:26.08	19.19	11.00	-35.6	-36.3	24.5	0.00e+00	0	40	0	553648128	44	5936
2026-01-25 17:37:26.80	19.16	11.07	-35.8	-36.5	24.4	0.00e+00	0	40	0	556793856	44	6045
2026-01-25 17:37:28.10	19.11	11.18	-35.6	-36.4	24.5	0.00e+00	0	40	0	564133888	44	5966
2026-01-25 17:37:28.82	19.08	11.25	-35.3	-36.0	24.8	0.00e+00	0	40	0	568328192	44	5713
2026-01-25 17:37:30.12	19.03	11.36	-35.4	-36.1	24.7	0.00e+00	0	40	0	575668224	44	5782
2026-01-25 17:37:30.84	19.00	11.43	-35.6	-36.3	24.5	0.00e+00	0	40	0	579862528	44	5907
2026-01-25 17:37:32.14	18.95	11.54	-35.7	-36.4	24.4	0.00e+00	0	40	0	587202560	44	5995
2026-01-25 17:37:32.86	18.92	11.61	-35.6	-36.3	24.5	0.00e+00	0	40	0	591396864	44	5927
2026-01-25 17:37:34.16	18.87	11.73	-35.5	-36.2	24.6	0.00e+00	0	40	0	598736896	44	5851
2026-01-25 17:37:34.88	18.84	11.79	-35.4	-36.0	24.7	0.00e+00	0	40	0	602931200	44	5750
2026-01-25 17:37:36.18	18.79	11.91	-35.3	-36.0	24.7	0.00e+00	0	40	0	610271232	44	5739
2026-01-25 17:37:36.90	18.76	11.98	-35.5	-36.2	24.7	0.00e+00	0	40	0	614465536	44	5846
2026-01-25 17:37:38.20	18.71	12.10	-35.2	-35.9	24.9	0.00e+00	0	40	0	621805568	44	5662
2026-01-25 17:37:38.92	18.68	12.16	-35.3	-36.0	24.7	0.00e+00	0	40	0	625999872	44	5719
2026-01-25 17:37:40.22	18.62	12.28	-35.2	-35.9	24.9	0.00e+00	0	40	0	633339904	44	5653
2026-01-25 17:37:40.94	18.59	12.35	-35.2	-35.8	24.9	0.00e+00	0	40	0	636485632	44	5629
2026-01-25 17:37:42.24	18.54	12.47	-35.4	-36.1	24.8	0.00e+00	0	40	0	643825664	44	5780
2026-01-25 17:37:42.96	18.51	12.54	-35.4	-36.1	24.7	0.00e+00	0	40	0	648019968	44	5828
2026-01-25 17:37:44.25	18.45	12.66	-35.0	-35.7	25.1	0.00e+00	0	40	0	655360000	44	5520
2026-01-25 17:37:44.98	18.42	12.73	-35.1	-35.8	24.9	0.00e+00	0	40	0	659554304	44	5606
2026-01-25 17:37:46.27	18.36	12.85	-35.1	-35.8	24.9	0.00e+00	0	40	0	666894336	44	5581
2026-01-25 17:37:47.00	18.33	12.92	-35.4	-36.1	24.7	0.00e+00	0	40	0	671088640	44	5824
2026-01-25 17:37:48.29	18.27	13.04	-35.2	-35.9	24.8	0.00e+00	0	40	0	678428672	44	5638
2026-01-25 17:37:49.02	18.24	13.11	-35.5	-36.2	24.7	0.00e+00	0	40	0	682622976	44	5858
2026-01-25 17:37:50.31	18.18	13.24	-35.4	-36.1	24.8	0.00e+00	0	40	0	689963008	44	5802
2026-01-25 17:37:51.04	18.15	13.31	-35.3	-36.0	24.9	0.00e+00	0	40	0	694157312	44	5724
2026-01-25 17:37:52.33	18.09	13.43	-35.2	-35.9	25.0	0.00e+00	0	40	0	701497344	44	5643
2026-01-25 17:37:53.05	18.06	13.50	-35.4	-36.1	24.8	0.00e+00	0	40	0	704643072	44	5784
2026-01-25 17:37:54.35	18.00	13.63	-35.0	-35.7	25.1	0.00e+00	0	40	0	711983104	44	5528
2026-01-25 17:37:55.07	17.97	13.70	-35.2	-35.9	25.0	0.00e+00	0	40	0	716177408	44	5637
2026-01-25 17:37:56.37	17.91	13.83	-35.1	-35.7	25.1	0.00e+00	0	40	0	723517440	42	6232
2026-01-25 17:37:57.09	17.87	13.90	-35.0	-35.7	25.2	0.00e+00	0	40	0	727711744	42	6185
2026-01-25 17:37:58.39	17.81	14.03	-35.1	-35.8	25.2	0.00e+00	0	40	0	735051776	42	6279
2026-01-25 17:37:59.11	17.78	14.10	-34.7	-35.3	25.4	0.00e+00	0	40	0	739246080	42	5934
2026-01-25 17:38:00.41	17.71	14.23	-34.6	-35.3	25.6	0.00e+00	0	40	0	746586112	42	5915
2026-01-25 17:38:01.13	17.68	14.30	-34.6	-35.3	25.5	0.00e+00	0	40	0	750780416	42	5944
2026-01-25 17:38:02.43	17.62	14.43	-34.7	-35.3	25.5	0.00e+00	0	40	0	758120448	42	5963
2026-01-25 17:38:03.15	17.58	14.51	-34.7	-35.4	25.5	0.00e+00	0	40	0	761266176	42	5973
2026-01-25 17:38:04.45	17.52	14.64	-34.5	-35.2	25.7	0.00e+00	0	40	0	768606208	42	5839
2026-01-25 17:38:05.17	17.48	14.71	-34.3	-34.9	25.9	0.00e+00	0	41	0	772800512	42	5694
2026-01-25 17:38:06.47	17.42	14.84	-34.4	-35.1	25.7	0.00e+00	0	40	0	780140544	42	5771
2026-01-25 17:38:07.19	17.38	14.92	-34.3	-34.9	25.9	0.00e+00	0	40	0	784334848	42	5668
2026-01-25 17:38:08.49	17.31	15.05	-34.3	-35.0	25.8	0.00e+00	0	40	0	791674880	42	5703
2026-01-25 17:38:09.21	17.28	15.13	-34.6	-35.2	25.7	0.00e+00	0	40	0	795869184	42	5883
2026-01-25 17:38:10.51	17.21	15.26	-34.1	-34.7	26.1	0.00e+00	0	40	0	803209216	42	5533
2026-01-25 17:38:11.23	17.17	15.34	-34.1	-34.8	26.0	0.00e+00	0	40	0	807403520	42	5580
2026-01-25 17:38:12.53	17.10	15.47	-34.1	-34.8	26.0	0.00e+00	0	41	0	814743552	42	5599
2026-01-25 17:38:13.25	17.06	15.55	-34.0	-34.6	26.1	0.00e+00	0	40	0	818937856	42	5497
2026-01-25 17:38:14.54	16.99	15.69	-34.1	-34.7	26.0	0.00e+00	0	40	0	826277888	42	5566
2026-01-25 17:38:15.27	16.96	15.76	-34.0	-34.6	26.2	0.00e+00	0	41	0	830472192	42	5501
2026-01-25 17:38:16.56	16.89	15.90	-33.9	-34.5	26.2	0.00e+00	0	40	0	837812224	42	5431
2026-01-25 17:38:17.28	16.85	15.98	-33.9	-34.5	26.2	0.00e+00	0	40	0	840957952	42	5417
2026-01-25 17:38:18.58	16.77	16.12	-33.9	-34.5	26.3	0.00e+00	0	40	0	848297984	42	5414
2026-01-25 17:38:19.30	16.73	16.20	-33.8	-34.5	26.3	0.00e+00	0	41	0	852492288	42	5379
2026-01-25 17:38:20.60	16.66	16.34	-33.9	-34.6	26.2	0.00e+00	0	40	0	859832320	40	6108
2026-01-25 17:38:21.33	16.62	16.42	-33.7	-34.3	26.3	0.00e+00	0	41	0	864026624	40	5949
2026-01-25 17:38:22.62	16.55	16.56	-33.8	-34.5	26.3	0.00e+00	0	41	0	871366656	40	6052
2026-01-25 17:38:23.34	16.51	16.64	-33.8	-34.5	26.2	0.00e+00	0	41	0	875560960	40	6051
2026-01-25 17:38:24.64	16.43	16.78	-33.6	-34.3	26.4	0.00e+00	0	40	0	882900992	40	5908
2026-01-25 17:38:25.36	16.39	16.86	-33.8	-34.4	26.3	0.00e+00	0	41	0	887095296	40	6030
2026-01-25 17:38:26.65	16.31	17.00	-33.6	-34.3	26.6	0.00e+00	0	40	0	894435328	40	5913
2026-01-25 17:38:27.38	16.27	17.08	-33.6	-34.3	26.5	0.00e+00	0	41	0	898629632	40	5906
2026-01-25 17:38:28.67	16.19	17.23	-33.7	-34.3	26.4	0.00e+00	0	41	0	905969664	40	5934
2026-01-25 17:38:29.40	16.15	17.31	-33.6	-34.3	26.4	0.00e+00	0	41	0	909115392	40	5919
2026-01-25 17:38:30.69	16.07	17.46	-33.7	-34.3	26.5	0.00e+00	0	40	0	916455424	40	5927
2026-01-25 17:38:31.41	16.03	17.54	-33.4	-34.0	26.7	0.00e+00	0	40	0	920649728	40	5726
2026-01-25 17:38:32.71	15.95	17.69	-33.6	-34.2	26.6	0.00e+00	0	40	0	927989760	40	5865
2026-01-25 17:38:33.44	15.90	17.77	-33.5	-34.1	26.6	0.00e+00	0	41	0	932184064	40	5802
2026-01-25 17:38:34.73	15.82	17.92	-33.4	-34.1	26.6	0.00e+00	0	40	0	939524096	40	5780
2026-01-25 17:38:35.46	15.78	18.00	-33.5	-34.1	26.6	0.00e+00	0	40	0	943718400	40	5810
2026-01-25 17:38:36.75	15.69	18.15	-33.5	-34.1	26.6	0.00e+00	0	40	0	951058432	40	5815
2026-01-25 17:38:37.47	15.65	18.24	-33.4	-34.1	26.7	0.00e+00	0	41	0	955252736	40	5778
2026-01-25 17:38:38.77	15.56	18.39	-33.4	-34.1	26.8	0.00e+00	0	40	0	962592768	40	5773
2026-01-25 17:38:39.49	15.52	18.47	-33.4	-34.0	26.7	0.00e+00	0	41	0	965738496	40	5756
2026-01-25 17:38:40.79	15.43	18.63	-33.3	-33.9	26.8	0.00e+00	0	40	0	973078528	40	5690
2026-01-25 17:38:41.51	15.38	18.71	-33.2	-33.9	26.8	0.00e+00	0	41	0	977272832	40	5635
2026-01-25 17:38:42.81	15.30	18.87	-33.2	-33.9	26.8	0.00e+00	0	41	0	984612864	40	5645
2026-01-25 17:38:43.53	15.25	18.95	-33.3	-33.9	26.8	0.00e+00	0	40	0	988807168	40	5663
2026-01-25 17:38:44.83	15.16	19.11	-33.2	-33.8	26.9	0.00e+00	0	40	0	996147200	40	5620
2026-01-25 17:38:45.55	15.11	19.20	-33.2	-33.8	26.9	0.00e+00	0	41	0	1000341504	40	5597
2026-01-25 17:38:46.85	15.02	19.36	-33.2	-33.8	26.9	0.00e+00	0	41	0	1007681536	40	5620
2026-01-25 17:38:47.57	14.97	19.44	-33.2	-33.9	26.8	0.00e+00	0	40	0	1011875840	40	5639
2026-01-25 17:38:48.87	14.88	19.60	-33.3	-34.0	26.8	0.00e+00	0	41	0	1019215872	40	5719
2026-01-25 17:38:49.59	14.83	19.69	-33.2	-33.9	26.9	0.00e+00	0	40	0	1023410176	40	5648
2026-01-25 17:38:50.89	14.74	19.85	-33.3	-33.9	26.8	0.00e+00	0	40	0	1030750208	40	5661
2026-01-25 17:38:51.61	14.68	19.94	-33.5	-34.1	26.7	0.00e+00	0	40	0	1034944512	40	5813
2026-01-25 17:38:52.91	14.59	20.11	-33.5	-34.1	26.6	0.00e+00	0	41	0	1042284544	40	5802
2026-01-25 17:38:53.63	14.54	20.20	-33.4	-34.0	26.7	0.00e+00	0	40	0	1045430272	40	5726
2026-01-25 17:38:54.93	14.44	20.36	-33.1	-33.7	27.0	0.00e+00	0	41	0	1052770304	40	5541
2026-01-25 17:38:55.65	14.39	20.45	-33.1	-33.7	27.0	0.00e+00	0	41	0	1056964608	40	5540
2026-01-25 17:38:56.95	14.29	20.62	-33.1	-33.7	26.9	0.00e+00	0	41	0	1064304640	40	5530
2026-01-25 17:38:57.67	14.23	20.71	-33.0	-33.7	27.0	0.00e+00	0	41	0	1068498944	40	5512
2026-01-25 17:38:58.97	14.13	20.88	-33.1	-33.7	27.0	0.00e+00	0	40	0	1075838976	40	5528
2026-01-25 17:38:59.69	14.08	20.97	-33.1	-33.7	27.0	0.00e+00	0	41	0	1080033280	40	5541
2026-01-25 17:39:00.99	13.98	21.14	-33.0	-33.6	27.1	0.00e+00	0	40	0	1087373312	40	5464
2026-01-25 17:39:01.71	13.92	21.23	-32.8	-33.5	27.1	0.00e+00	0	41	0	1091567616	40	5401
2026-01-25 17:39:03.01	13.82	21.40	-32.9	-33.6	27.2	0.00e+00	0	40	0	1098907648	40	5444
2026-01-25 17:39:03.73	13.76	21.50	-32.9	-33.5	27.2	0.00e+00	0	40	0	1103101952	40	5397
2026-01-25 17:39:05.03	13.65	21.67	-32.7	-33.3	27.4	0.00e+00	0	41	0	1110441984	38	5928
2026-01-25 17:39:05.75	13.59	21.76	-32.7	-33.4	27.3	0.00e+00	0	41	0	1113587712	38	5976
2026-01-25 17:39:07.05	13.49	21.94	-32.8	-33.4	27.2	0.00e+00	0	41	0	1120927744	38	5996
2026-01-25 17:39:07.77	13.43	22.03	-32.6	-33.2	27.5	0.00e+00	0	41	0	1125122048	38	5856
2026-01-25 17:39:09.07	13.32	22.21	-32.6	-33.2	27.5	0.00e+00	0	41	0	1132462080	38	5863
2026-01-25 17:39:09.79	13.26	22.31	-32.7	-33.3	27.3	0.00e+00	0	41	0	1136656384	38	5950
2026-01-25 17:39:11.09	13.15	22.48	-32.7	-33.4	27.3	0.00e+00	0	41	0	1143996416	38	5983
2026-01-25 17:39:11.81	13.08	22.58	-32.7	-33.3	27.3	0.00e+00	0	41	0	1148190720	38	5921
2026-01-25 17:39:13.11	12.97	22.76	-32.7	-33.4	27.3	0.00e+00	0	41	0	1155530752	38	5969
2026-01-25 17:39:13.83	12.91	22.86	-32.6	-33.2	27.4	0.00e+00	0	41	0	1159725056	38	5881
2026-01-25 17:39:15.13	12.79	23.04	-32.6	-33.3	27.4	0.00e+00	0	41	0	1167065088	38	5907
2026-01-25 17:39:15.85	12.73	23.14	-32.7	-33.3	27.3	0.00e+00	0	41	0	1170210816	38	5932
2026-01-25 17:39:17.15	12.61	23.32	-32.6	-33.3	27.4	0.00e+00	0	41	0	1177550848	38	5927
2026-01-25 17:39:17.87	12.54	23.42	-32.4	-33.0	27.6	0.00e+00	0	41	0	1181745152	38	5756
2026-01-25 17:39:19.17	12.43	23.61	-32.5	-33.1	27.6	0.00e+00	0	41	0	1189085184	38	5786
2026-01-25 17:39:19.89	12.36	23.71	-32.6	-33.2	27.5	0.00e+00	0	41	0	1193279488	38	5841
2026-01-25 17:39:21.19	12.24	23.90	-32.5	-33.1	27.6	0.00e+00	0	41	0	1200619520	38	5768
2026-01-25 17:39:21.91	12.17	24.00	-32.5	-33.1	27.6	0.00e+00	0	41	0	1204813824	38	5772
2026-01-25 17:39:23.21	12.04	24.19	-32.4	-33.0	27.6	0.00e+00	0	41	0	1212153856	38	5753
2026-01-25 17:39:23.93	11.97	24.29	-32.3	-32.9	27.7	0.00e+00	0	41	0	1216348160	38	5657
2026-01-25 17:39:25.22	11.85	24.48	-32.4	-33.0	27.7	0.00e+00	0	41	0	1223688192	38	5746
2026-01-25 17:39:25.94	11.78	24.59	-32.4	-33.0	27.7	0.00e+00	0	41	0	1227882496	38	5736
2026-01-25 17:39:27.24	11.65	24.78	-32.1	-32.7	27.9	0.00e+00	0	41	0	1235222528	38	5516
2026-01-25 17:39:27.97	11.57	24.89	-32.1	-32.7	27.8	0.00e+00	0	41	0	1239416832	38	5539
2026-01-25 17:39:29.26	11.44	25.08	-32.0	-32.6	27.9	0.00e+00	0	41	0	1246756864	38	5468
2026-01-25 17:39:29.98	11.37	25.18	-32.0	-32.6	28.0	0.00e+00	0	41	0	1249902592	38	5468
2026-01-25 17:39:31.28	11.24	25.38	-32.0	-32.6	27.9	0.00e+00	0	41	0	1257242624	38	5449
2026-01-25 17:39:32.00	11.16	25.49	-32.1	-32.7	27.8	0.00e+00	0	41	0	1261436928	38	5526
2026-01-25 17:39:33.30	11.02	25.69	-32.0	-32.6	27.9	0.00e+00	0	41	0	1268776960	38	5460
2026-01-25 17:39:34.02	10.95	25.80	-32.0	-32.6	28.0	0.00e+00	0	41	0	1272971264	38	5444
2026-01-25 17:39:35.32	10.81	26.00	-32.0	-32.6	27.8	0.00e+00	0	40	0	1280311296	38	5491
2026-01-25 17:39:36.04	10.73	26.11	-31.9	-32.6	28.0	0.00e+00	0	41	0	1284505600	38	5442
2026-01-25 17:39:37.34	10.58	26.31	-32.0	-32.5	27.9	0.00e+00	0	41	0	1291845632	38	5438
2026-01-25 17:39:38.06	10.50	26.42	-31.7	-32.3	28.1	0.00e+00	0	41	0	1296039936	38	5314
2026-01-25 17:39:39.36	10.36	26.62	-31.7	-32.3	28.1	0.00e+00	0	41	0	1303379968	36	5948
2026-01-25 17:39:40.08	10.28	26.74	-31.7	-32.4	28.1	0.00e+00	0	41	0	1307574272	36	5973
2026-01-25 17:39:41.38	10.13	26.94	-31.8	-32.5	28.0	0.00e+00	0	41	0	1314914304	36	6043
2026-01-25 17:39:42.09	10.05	27.05	-32.2	-32.8	27.8	0.00e+00	0	41	0	1318060032	36	6307
2026-01-25 17:39:43.39	9.89	27.26	-32.2	-32.8	27.8	0.00e+00	0	41	0	1325400064	36	6309
2026-01-25 17:39:44.11	9.81	27.38	-32.0	-32.6	27.9	0.00e+00	0	41	0	1329594368	36	6160
2026-01-25 17:39:45.41	9.65	27.59	-32.2	-32.8	27.9	0.00e+00	0	41	0	1336934400	36	6252
2026-01-25 17:39:46.13	9.57	27.70	-31.9	-32.5	28.1	0.00e+00	0	41	0	1341128704	36	6067
2026-01-25 17:39:47.43	9.41	27.92	-31.9	-32.5	28.0	0.00e+00	0	41	0	1348468736	36	6081
2026-01-25 17:39:48.15	9.32	28.03	-32.0	-32.6	27.9	0.00e+00	0	41	0	1352663040	36	6113
2026-01-25 17:39:49.45	9.16	28.25	-31.8	-32.4	28.1	0.00e+00	0	41	0	1360003072	36	6026
2026-01-25 17:39:50.17	9.07	28.37	-31.9	-32.5	28.1	0.00e+00	0	41	0	1364197376	36	6095
2026-01-25 17:39:51.47	8.90	28.58	-31.7	-32.4	28.2	0.00e+00	0	41	0	1371537408	36	5971
2026-01-25 17:39:52.19	8.81	28.70	-31.7	-32.3	28.2	0.00e+00	0	41	0	1374683136	36	5954
2026-01-25 17:39:53.49	8.64	28.92	-31.7	-32.2	28.3	0.00e+00	0	41	0	1382023168	36	5896
2026-01-25 17:39:54.21	8.55	29.04	-31.6	-32.2	28.2	0.00e+00	0	41	0	1386217472	36	5883
2026-01-25 17:39:55.50	8.37	29.26	-31.7	-32.3	28.2	0.00e+00	0	41	0	1393557504	36	5945
2026-01-25 17:39:56.22	8.28	29.38	-31.7	-32.2	28.3	0.00e+00	0	41	0	1397751808	36	5890
2026-01-25 17:39:57.52	8.10	29.61	-31.5	-32.2	28.3	0.00e+00	0	41	0	1405091840	36	5829
2026-01-25 17:39:58.24	8.00	29.73	-31.6	-32.2	28.3	0.00e+00	0	41	0	1409286144	36	5858
2026-01-25 17:39:59.53	7.82	29.95	-31.7	-32.3	28.2	0.00e+00	0	41	0	1416626176	36	5933
2026-01-25 17:40:00.26	7.72	30.08	-31.8	-32.4	28.1	0.00e+00	0	41	0	1420820480	36	5978
2026-01-25 17:40:01.55	7.54	30.31	-31.8	-32.4	28.0	0.00e+00	0	41	0	1428160512	36	6019
2026-01-25 17:40:02.28	7.43	30.43	-31.8	-32.4	28.1	0.00e+00	0	41	0	1432354816	36	5972
2026-01-25 17:40:03.57	7.24	30.66	-31.6	-32.2	28.2	0.00e+00	0	41	0	1439694848	36	5860
2026-01-25 17:40:04.29	7.14	30.79	-31.5	-32.1	28.3	0.00e+00	0	41	0	1442840576	36	5777
2026-01-25 17:40:05.59	6.95	31.02	-31.4	-32.0	28.3	0.00e+00	0	41	0	1450180608	36	5744
2026-01-25 17:40:06.31	6.84	31.15	-31.5	-32.1	28.3	0.00e+00	0	41	0	1454374912	36	5808
2026-01-25 17:40:07.61	6.64	31.39	-31.3	-31.8	28.5	0.00e+00	0	41	0	1461714944	36	5627
2026-01-25 17:40:08.33	6.53	31.52	-31.3	-31.9	28.5	0.00e+00	0	41	0	1465909248	36	5648
2026-01-25 17:40:09.63	6.33	31.75	-31.3	-31.9	28.4	0.00e+00	0	41	0	1473249280	36	5677
2026-01-25 17:40:10.35	6.21	31.88	-31.4	-32.0	28.5	0.00e+00	0	41	0	1477443584	36	5753
2026-01-25 17:40:11.65	6.01	32.12	-31.4	-32.0	28.3	0.00e+00	0	41	0	1484783616	36	5741
2026-01-25 17:40:12.37	5.89	32.26	-31.4	-32.0	28.5	0.00e+00	0	41	0	1488977920	36	5742
2026-01-25 17:40:13.67	5.68	32.50	-31.5	-32.1	28.3	0.00e+00	0	41	0	1496317952	36	5778
2026-01-25 17:40:14.39	5.56	32.63	-31.6	-32.2	28.3	0.00e+00	0	41	0	1500512256	36	5856
2026-01-25 17:40:15.69	5.34	32.87	-31.5	-32.1	28.3	0.00e+00	0	41	0	1507852288	36	5779
2026-01-25 17:40:16.41	5.22	33.01	-31.6	-32.2	28.3	0.00e+00	0	41	0	1510998016	36	5854
2026-01-25 17:40:17.71	5.00	33.25	-31.5	-32.1	28.3	0.00e+00	0	41	0	1518338048	36	5792
2026-01-25 17:40:18.43	4.87	33.39	-31.6	-32.2	28.3	0.00e+00	0	41	0	1522532352	36	5863
2026-01-25 17:40:19.72	4.65	33.64	-31.4	-32.0	28.3	0.00e+00	0	41	0	1529872384	36	5747
2026-01-25 17:40:20.45	4.52	33.78	-31.3	-31.9	28.4	0.00e+00	0	41	0	1534066688	36	5690
2026-01-25 17:40:21.74	4.29	34.03	-31.3	-32.0	28.5	0.00e+00	0	41	0	1541406720	36	5704
2026-01-25 17:40:22.46	4.16	34.17	-31.3	-31.9	28.5	0.00e+00	0	41	0	1545601024	36	5643
2026-01-25 17:40:23.76	3.92	34.42	-31.4	-32.0	28.4	0.00e+00	0	41	0	1552941056	36	5758
2026-01-25 17:40:24.48	3.78	34.56	-31.3	-31.9	28.4	0.00e+00	0	41	0	1557135360	36	5669
2026-01-25 17:40:25.78	3.54	34.81	-31.4	-32.0	28.5	0.00e+00	0	41	0	1564475392	36	5720
2026-01-25 17:40:26.50	3.40	34.96	-31.5	-32.1	28.3	0.00e+00	0	41	0	1567621120	36	5782
2026-01-25 17:40:27.80	3.15	35.21	-31.4	-32.1	28.3	0.00e+00	0	41	0	1574961152	36	5776
2026-01-25 17:40:28.52	3.01	35.36	-31.7	-32.2	28.2	0.00e+00	0	41	0	1579155456	36	5894
2026-01-25 17:40:29.82	2.75	35.61	-31.3	-31.9	28.4	0.00e+00	0	41	0	1586495488	36	5679
2026-01-25 17:40:30.54	2.61	35.76	-31.5	-32.1	28.4	0.00e+00	0	41	0	1590689792	36	5822
2026-01-25 17:40:31.84	2.34	36.02	-31.1	-31.7	28.6	0.00e+00	0	41	0	1598029824	36	5532
2026-01-25 17:40:32.56	2.20	36.17	-31.3	-31.8	28.5	0.00e+00	0	41	0	1602224128	36	5624
2026-01-25 17:40:33.86	1.92	36.43	-31.2	-31.9	28.5	0.00e+00	0	41	0	1609564160	36	5641
2026-01-25 17:40:34.58	1.77	36.58	-31.4	-32.0	28.4	0.00e+00	0	41	0	1613758464	36	5744
2026-01-25 17:40:35.88	1.49	36.84	-31.4	-32.0	28.4	0.00e+00	0	41	0	1621098496	36	5753
2026-01-25 17:40:36.60	1.34	36.99	-31.5	-32.1	28.3	0.00e+00	0	41	0	1625292800	36	5795
2026-01-25 17:40:37.90	1.05	37.26	-31.4	-32.1	28.4	0.00e+00	0	41	0	1632632832	36	5764
2026-01-25 17:40:38.62	0.89	37.41	-31.4	-32.0	28.4	0.00e+00	0	41	0	1636827136	36	5758
2026-01-25 17:40:39.92	0.60	37.68	-31.6	-32.2	28.3	0.00e+00	0	41	0	1644167168	36	5855
2026-01-25 17:40:40.64	0.44	37.83	-31.5	-32.1	28.4	0.00e+00	0	41	0	1647312896	36	5825
2026-01-25 17:40:41.93	0.14	38.10	-31.5	-32.1	28.4	0.00e+00	0	41	0	1654652928	36	5780
2026-01-25 17:40:42.66	359.97	38.25	-31.4	-32.0	28.4	0.00e+00	0	41	0	1658847232	36	5718
2026-01-25 17:40:43.95	359.66	38.53	-31.1	-31.7	28.6	0.00e+00	0	41	0	1666187264	36	5551
2026-01-25 17:40:44.68	359.49	38.68	-31.0	-31.6	28.7	0.00e+00	0	41	0	1670381568	36	5482
2026-01-25 17:40:45.97	359.17	38.95	-31.2	-31.8	28.6	0.00e+00	0	41	0	1677721600	36	5605
2026-01-25 17:40:46.69	358.99	39.11	-31.4	-32.0	28.4	0.00e+00	0	41	0	1681915904	36	5729
2026-01-25 17:40:47.99	358.67	39.39	-31.6	-32.2	28.3	0.00e+00	0	41	0	1689255936	36	5858
2026-01-25 17:40:48.71	358.48	39.54	-31.7	-32.3	28.2	0.00e+00	0	41	0	1693450240	36	5920
2026-01-25 17:40:50.01	358.15	39.82	-31.4	-32.0	28.3	0.00e+00	0	41	0	1700790272	36	5761
2026-01-25 17:40:50.73	357.96	39.98	-31.4	-32.0	28.4	0.00e+00	0	41	0	1704984576	36	5715
2026-01-25 17:40:52.03	357.62	40.26	-31.5	-32.1	28.2	0.00e+00	0	41	0	1712324608	36	5816
2026-01-25 17:40:52.75	357.43	40.41	-31.6	-32.2	28.3	0.00e+00	0	41	0	1715470336	36	5858
2026-01-25 17:40:54.05	357.07	40.70	-31.7	-32.2	28.3	0.00e+00	0	41	0	1722810368	36	5892
2026-01-25 17:40:54.77	356.87	40.86	-31.7	-32.3	28.3	0.00e+00	0	41	0	1727004672	36	5939
2026-01-25 17:40:56.07	356.51	41.14	-31.8	-32.4	28.2	0.00e+00	0	41	0	1734344704	36	5981
2026-01-25 17:40:56.79	356.31	41.30	-31.8	-32.4	28.1	0.00e+00	0	41	0	1738539008	36	6030
2026-01-25 17:40:58.09	355.93	41.58	-31.9	-32.5	28.1	0.00e+00	0	41	0	1745879040	36	6071
2026-01-25 17:40:58.81	355.72	41.74	-31.7	-32.3	28.2	0.00e+00	0	41	0	1750073344	36	5921
2026-01-25 17:41:00.10	355.34	42.03	-31.7	-32.3	28.2	0.00e+00	0	41	0	1757413376	36	5900
2026-01-25 17:41:00.82	355.13	42.19	-31.7	-32.3	28.3	0.00e+00	0	41	0	1761607680	36	5902
2026-01-25 17:41:02.12	354.73	42.48	-31.7	-32.3	28.2	0.00e+00	0	41	0	1768947712	36	5962
2026-01-25 17:41:02.84	354.51	42.64	-31.8	-32.4	28.2	0.00e+00	0	41	0	1772093440	36	6005
2026-01-25 17:41:04.14	354.10	42.93	-31.8	-32.4	28.1	0.00e+00	0	41	0	1779433472	36	6003
2026-01-25 17:41:04.85	353.88	43.09	-31.8	-32.4	28.1	0.00e+00	0	41	0	1783627776	36	5976
2026-01-25 17:41:06.15	353.46	43.38	-31.8	-32.4	28.1	0.00e+00	0	41	0	1790967808	36	6007
2026-01-25 17:41:06.87	353.23	43.54	-31.8	-32.4	28.1	0.00e+00	0	41	0	1795162112	36	6025
2026-01-25 17:41:08.17	352.80	43.83	-31.7	-32.3	28.2	0.00e+00	0	41	0	1802502144	36	5911
2026-01-25 17:41:08.89	352.56	43.99	-31.7	-32.3	28.2	0.00e+00	0	41	0	1806696448	36	5907
2026-01-25 17:41:10.19	352.11	44.28	-31.7	-32.3	28.2	0.00e+00	0	41	0	1814036480	36	5933
2026-01-25 17:41:10.91	351.86	44.44	-31.8	-32.4	28.1	0.00e+00	0	41	0	1818230784	36	5975
2026-01-25 17:41:12.21	351.41	44.74	-32.0	-32.6	28.0	0.00e+00	0	41	0	1825570816	36	6136
2026-01-25 17:41:12.93	351.15	44.90	-32.0	-32.6	28.0	0.00e+00	0	41	0	1829765120	36	6162
2026-01-25 17:41:14.23	350.68	45.19	-32.0	-32.6	27.9	0.00e+00	0	41	0	1837105152	36	6151
2026-01-25 17:41:14.95	350.42	45.35	-32.0	-32.7	28.0	0.00e+00	0	41	0	1840250880	36	6199
2026-01-25 17:41:16.25	349.94	45.64	-31.9	-32.5	28.1	0.00e+00	0	41	0	1847590912	36	6065
2026-01-25 17:41:16.97	349.67	45.81	-32.1	-32.7	27.9	0.00e+00	0	41	0	1851785216	36	6203
2026-01-25 17:41:18.27	349.17	46.10	-32.3	-32.9	27.8	0.00e+00	0	41	0	1859125248	36	6351
2026-01-25 17:41:18.99	348.89	46.26	-32.2	-32.8	27.9	0.00e+00	0	41	0	1863319552	36	6308
2026-01-25 17:41:20.29	348.38	46.55	-32.2	-32.8	27.8	0.00e+00	0	41	0	1870659584	36	6283
2026-01-25 17:41:21.01	348.09	46.71	-32.2	-32.8	27.8	0.00e+00	0	41	0	1874853888	36	6250
2026-01-25 17:41:22.31	347.57	47.00	-32.2	-32.8	27.8	0.00e+00	0	41	0	1882193920	36	6275
2026-01-25 17:41:23.03	347.27	47.16	-32.4	-33.0	27.6	0.00e+00	0	41	0	1886388224	36	6443
2026-01-25 17:41:24.33	346.73	47.45	-32.7	-33.3	27.4	0.00e+00	0	41	0	1893728256	36	6639
2026-01-25 17:41:25.05	346.42	47.61	-32.6	-33.2	27.5	0.00e+00	0	41	0	1897922560	36	6588
2026-01-25 17:41:26.35	345.87	47.90	-32.5	-33.1	27.5	0.00e+00	0	41	0	1905262592	36	6493
2026-01-25 17:41:27.07	345.55	48.06	-32.4	-33.0	27.5	0.00e+00	0	41	0	1909456896	36	6422
2026-01-25 17:41:28.37	344.98	48.34	-32.3	-32.9	27.7	0.00e+00	0	41	0	1916796928	36	6332
2026-01-25 17:41:29.09	344.66	48.50	-32.4	-32.9	27.7	0.00e+00	0	41	0	1919942656	36	6387
2026-01-25 17:41:30.39	344.07	48.78	-32.5	-33.2	27.5	0.00e+00	0	41	0	1927282688	36	6541
2026-01-25 17:41:31.11	343.73	48.94	-32.5	-33.1	27.5	0.00e+00	0	41	0	1931476992	36	6537
2026-01-25 17:41:32.41	343.12	49.22	-32.5	-33.1	27.6	0.00e+00	0	41	0	1938817024	36	6510
2026-01-25 17:41:33.13	342.78	49.38	-32.5	-33.2	27.5	0.00e+00	0	41	0	1943011328	36	6547
2026-01-25 17:41:34.43	342.16	49.66	-33.0	-33.6	27.1	0.00e+00	0	41	0	1950351360	38	6132
2026-01-25 17:41:35.15	341.80	49.81	-33.0	-33.7	27.2	0.00e+00	0	41	0	1954545664	38	6177
2026-01-25 17:41:36.45	341.16	50.08	-33.0	-33.6	27.2	0.00e+00	0	41	0	1961885696	38	6138
2026-01-25 17:41:37.17	340.80	50.24	-32.7	-33.4	27.4	0.00e+00	0	41	0	1966080000	38	5984
2026-01-25 17:41:38.47	340.14	50.51	-32.8	-33.4	27.4	0.00e+00	0	41	0	1973420032	38	6009
2026-01-25 17:41:39.19	339.76	50.66	-32.8	-33.5	27.3	0.00e+00	0	41	0	1976565760	38	6064
2026-01-25 17:41:40.49	339.08	50.92	-32.9	-33.6	27.2	0.00e+00	0	41	0	1983905792	38	6126
2026-01-25 17:41:41.21	338.70	51.07	-33.0	-33.6	27.1	0.00e+00	0	41	0	1988100096	38	6167
2026-01-25 17:41:42.51	338.00	51.34	-33.0	-33.6	27.1	0.00e+00	0	41	0	1995440128	38	6170
2026-01-25 17:41:43.23	337.61	51.48	-32.9	-33.5	27.3	0.00e+00	0	41	0	1999634432	38	6095
2026-01-25 17:41:44.53	336.89	51.74	-33.0	-33.6	27.1	0.00e+00	0	41	0	2006974464	38	6172
2026-01-25 17:41:45.25	336.48	51.88	-32.8	-33.4	27.4	0.00e+00	0	41	0	2011168768	38	6028
2026-01-25 17:41:46.55	335.74	52.13	-32.7	-33.4	27.4	0.00e+00	0	41	0	2018508800	38	5965
2026-01-25 17:41:47.27	335.33	52.27	-32.8	-33.4	27.3	0.00e+00	0	41	0	2022703104	38	5984
2026-01-25 17:41:48.57	334.57	52.52	-32.9	-33.5	27.3	0.00e+00	0	41	0	2030043136	38	6067
2026-01-25 17:41:49.29	334.14	52.65	-32.8	-33.5	27.4	0.00e+00	0	41	0	2034237440	38	6038
2026-01-25 17:41:50.58	333.37	52.89	-32.8	-33.4	27.4	0.00e+00	0	41	0	2041577472	38	6024
2026-01-25 17:41:51.30	332.93	53.02	-32.6	-33.2	27.5	0.00e+00	0	41	0	2044723200	38	5864
2026-01-25 17:41:52.60	332.13	53.26	-32.6	-33.2	27.4	0.00e+00	0	41	0	2052063232	38	5852
2026-01-25 17:41:53.32	331.69	53.38	-32.5	-33.1	27.6	0.00e+00	0	41	0	2056257536	38	5772
2026-01-25 17:41:54.62	330.87	53.61	-32.4	-33.0	27.6	0.00e+00	0	41	0	2063597568	38	5706
2026-01-25 17:41:55.34	330.41	53.73	-32.2	-32.8	27.8	0.00e+00	0	41	0	2067791872	38	5583
2026-01-25 17:41:56.63	329.57	53.95	-32.2	-32.8	27.8	0.00e+00	0	41	0	2075131904	38	5583
2026-01-25 17:41:57.36	329.10	54.07	-32.4	-33.0	27.6	0.00e+00	0	41	0	2079326208	38	5717
2026-01-25 17:41:58.65	328.25	54.28	-32.7	-33.4	27.4	0.00e+00	0	41	0	2086666240	38	5991
2026-01-25 17:41:59.37	327.76	54.39	-32.7	-33.3	27.4	0.00e+00	0	41	0	2090860544	38	5943
2026-01-25 17:42:00.67	326.89	54.59	-32.4	-32.9	27.7	0.00e+00	0	41	0	2098200576	38	5695
2026-01-25 17:42:01.39	326.40	54.70	-32.5	-33.1	27.6	0.00e+00	0	41	0	2102394880	38	5790
2026-01-25 17:42:02.69	325.50	54.89	-32.4	-33.0	27.6	0.00e+00	0	41	0	2109734912	38	5733
2026-01-25 17:42:03.41	325.00	54.99	-32.3	-33.0	27.7	0.00e+00	0	41	0	2112880640	38	5703
2026-01-25 17:42:04.71	324.08	55.17	-32.1	-32.7	27.9	0.00e+00	0	41	0	2120220672	38	5519
2026-01-25 17:42:05.43	323.57	55.27	-31.9	-32.5	27.9	0.00e+00	0	41	0	2124414976	38	5436
2026-01-25 17:42:06.73	322.64	55.44	-32.0	-32.6	27.9	0.00e+00	0	41	0	2131755008	38	5478
2026-01-25 17:42:07.45	322.11	55.53	-32.1	-32.7	27.8	0.00e+00	0	41	0	2135949312	38	5555
2026-01-25 17:42:08.75	321.16	55.69	-31.9	-32.5	28.0	0.00e+00	0	41	0	2143289344	38	5422
2026-01-25 17:42:09.47	320.63	55.78	-31.7	-32.3	28.1	0.00e+00	0	41	0	2147483648	36	5963
2026-01-25 17:42:10.77	319.66	55.93	-32.4	-33.1	27.6	0.00e+00	0	41	0	2154823680	36	6465
2026-01-25 17:42:11.49	319.12	56.00	-32.8	-33.4	27.3	0.00e+00	0	41	0	2159017984	38	6013
2026-01-25 17:42:12.78	318.15	56.14	-32.4	-33.0	27.6	0.00e+00	0	41	0	2166358016	38	5743
2026-01-25 17:42:13.51	317.59	56.21	-32.5	-33.1	27.6	0.00e+00	0	41	0	2169503744	38	5820
2026-01-25 17:42:14.80	316.60	56.33	-32.3	-33.0	27.7	0.00e+00	0	41	0	2176843776	38	5703
2026-01-25 17:42:15.52	316.05	56.40	-32.3	-33.0	27.7	0.00e+00	0	41	0	2181038080	38	5702
2026-01-25 17:42:16.82	315.04	56.51	-32.3	-32.9	27.7	0.00e+00	0	41	0	2188378112	38	5644
2026-01-25 17:42:17.54	314.47	56.57	-32.2	-32.8	27.8	0.00e+00	0	41	0	2192572416	38	5616
2026-01-25 17:42:18.84	313.45	56.66	-32.4	-33.1	27.6	0.00e+00	0	41	0	2199912448	38	5764
2026-01-25 17:42:19.56	312.88	56.71	-32.4	-33.1	27.6	0.00e+00	0	41	0	2204106752	38	5787
2026-01-25 17:42:20.86	311.85	56.80	-32.7	-33.4	27.3	0.00e+00	0	41	0	2211446784	38	5977
2026-01-25 17:42:21.58	311.27	56.84	-32.9	-33.6	27.2	0.00e+00	0	41	0	2215641088	38	6150
2026-01-25 17:42:22.88	310.23	56.91	-32.7	-33.4	27.4	0.00e+00	0	41	0	2222981120	38	5986
2026-01-25 17:42:23.60	309.65	56.94	-32.4	-33.0	27.7	0.00e+00	0	41	0	2227175424	38	5720
2026-01-25 17:42:24.90	308.60	57.00	-32.3	-32.9	27.7	0.00e+00	0	41	0	2234515456	38	5656
2026-01-25 17:42:25.62	308.02	57.03	-32.3	-32.9	27.5	0.00e+00	0	41	0	2238709760	38	5692
2026-01-25 17:42:26.92	306.97	57.07	-32.6	-33.3	27.3	0.00e+00	0	41	0	2246049792	38	5906
2026-01-25 17:42:27.64	306.38	57.08	-32.9	-33.6	27.1	0.00e+00	0	41	0	2249195520	38	6114
2026-01-25 17:42:28.93	305.33	57.11	-32.9	-33.6	27.3	0.00e+00	0	41	0	2256535552	38	6108
2026-01-25 17:42:29.65	304.74	57.12	-32.9	-33.5	27.2	0.00e+00	0	41	0	2260729856	38	6054
2026-01-25 17:42:30.95	303.68	57.13	-32.4	-33.0	27.5	0.00e+00	0	41	0	2268069888	38	5733
2026-01-25 17:42:31.67	303.09	57.14	-32.3	-32.9	27.5	0.00e+00	0	41	0	2272264192	38	5676
2026-01-25 17:42:32.97	302.03	57.13	-32.7	-33.4	27.2	0.00e+00	0	41	0	2279604224	38	5977
2026-01-25 17:42:33.69	301.44	57.13	-32.9	-33.6	27.1	0.00e+00	0	41	0	2283798528	38	6140
2026-01-25 17:42:34.99	300.38	57.11	-32.7	-33.3	27.2	0.00e+00	0	41	0	2291138560	38	5955
2026-01-25 17:42:35.71	299.79	57.10	-32.3	-32.9	27.5	0.00e+00	0	41	0	2295332864	38	5681
2026-01-25 17:42:37.01	298.74	57.06	-32.6	-33.2	27.2	0.00e+00	0	41	0	2302672896	38	5856
2026-01-25 17:42:37.73	298.15	57.04	-32.5	-33.2	27.4	0.00e+00	0	41	0	2306867200	38	5838
2026-01-25 17:42:39.03	297.10	57.00	-32.5	-33.1	27.4	0.00e+00	0	41	0	2314207232	38	5800
2026-01-25 17:42:39.75	296.52	56.97	-32.5	-33.1	27.4	0.00e+00	0	41	0	2317352960	38	5781
2026-01-25 17:42:41.04	295.48	56.91	-32.5	-33.2	27.3	0.00e+00	0	41	0	2324692992	38	5844
2026-01-25 17:42:41.77	294.89	56.87	-32.5	-33.1	27.3	0.00e+00	0	41	0	2328887296	38	5801
2026-01-25 17:42:43.06	293.86	56.79	-32.4	-33.0	27.6	0.00e+00	0	41	0	2336227328	38	5760
2026-01-25 17:42:43.79	293.28	56.75	-32.5	-33.2	27.5	0.00e+00	0	41	0	2340421632	38	5857
2026-01-25 17:42:45.08	292.26	56.66	-32.7	-33.3	27.3	0.00e+00	0	41	0	2347761664	38	5951
2026-01-25 17:42:45.80	291.69	56.61	-32.9	-33.5	27.1	0.00e+00	0	41	0	2351955968	38	6103
2026-01-25 17:42:47.10	290.67	56.51	-32.7	-33.4	27.2	0.00e+00	0	41	0	2359296000	38	6002
2026-01-25 17:42:47.82	290.11	56.45	-32.6	-33.2	27.4	0.00e+00	0	41	0	2363490304	38	5844
2026-01-25 17:42:49.12	289.10	56.33	-32.8	-33.5	27.3	0.00e+00	0	41	0	2370830336	38	6043
2026-01-25 17:42:49.84	288.55	56.26	-32.5	-33.1	27.5	0.00e+00	0	41	0	2373976064	38	5797
2026-01-25 17:42:51.14	287.56	56.13	-32.3	-33.0	27.6	0.00e+00	0	41	0	2381316096	38	5725
2026-01-25 17:42:51.86	287.01	56.06	-32.4	-33.1	27.5	0.00e+00	0	41	0	2385510400	38	5784
2026-01-25 17:42:53.16	286.03	55.92	-32.2	-32.8	27.7	0.00e+00	0	41	0	2392850432	38	5601
2026-01-25 17:42:53.88	285.50	55.84	-32.2	-32.8	27.7	0.00e+00	0	41	0	2397044736	38	5617
2026-01-25 17:42:55.18	284.54	55.69	-32.3	-32.9	27.7	0.00e+00	0	41	0	2404384768	38	5650
2026-01-25 17:42:55.90	284.01	55.60	-32.1	-32.7	27.8	0.00e+00	0	41	0	2408579072	38	5515
2026-01-25 17:42:57.19	283.07	55.44	-32.1	-32.8	27.8	0.00e+00	0	41	0	2415919104	38	5585
2026-01-25 17:42:57.92	282.54	55.34	-32.2	-32.8	27.8	0.00e+00	0	41	0	2420113408	38	5578
2026-01-25 17:42:59.21	281.62	55.17	-32.2	-32.7	27.7	0.00e+00	0	41	0	2427453440	38	5562
2026-01-25 17:42:59.93	281.11	55.07	-31.9	-32.5	27.9	0.00e+00	0	41	0	2431647744	38	5388
2026-01-25 17:43:01.23	280.20	54.88	-31.8	-32.4	28.0	0.00e+00	0	41	0	2438987776	38	5373
2026-01-25 17:43:01.95	279.71	54.78	-31.8	-32.5	28.0	0.00e+00	0	41	0	2442133504	38	5390
2026-01-25 17:43:03.25	278.81	54.58	-31.9	-32.5	27.9	0.00e+00	0	41	0	2449473536	38	5420
2026-01-25 17:43:03.97	278.33	54.47	-31.9	-32.5	27.9	0.00e+00	0	41	0	2453667840	38	5396
2026-01-25 17:43:05.27	277.45	54.27	-31.6	-32.2	28.0	0.00e+00	0	41	0	2461007872	36	5857
2026-01-25 17:43:05.99	276.98	54.15	-31.8	-32.3	28.0	0.00e+00	0	41	0	2465202176	36	5931
2026-01-25 17:43:07.29	276.12	53.94	-32.0	-32.7	27.7	0.00e+00	0	41	0	2472542208	36	6234
2026-01-25 17:43:08.01	275.66	53.82	-32.0	-32.5	27.9	0.00e+00	0	41	0	2476736512	36	6096
2026-01-25 17:43:09.30	274.83	53.60	-31.9	-32.5	28.0	0.00e+00	0	41	0	2484076544	36	6045
2026-01-25 17:43:10.03	274.37	53.47	-32.1	-32.7	27.8	0.00e+00	0	41	0	2488270848	36	6215
2026-01-25 17:43:11.33	273.56	53.24	-32.3	-32.9	27.6	0.00e+00	0	41	0	2495610880	36	6386
2026-01-25 17:43:12.05	273.11	53.11	-32.3	-32.9	27.6	0.00e+00	0	41	0	2499805184	36	6389
2026-01-25 17:43:13.35	272.32	52.88	-32.4	-33.0	27.5	0.00e+00	0	41	0	2507145216	36	6427
2026-01-25 17:43:14.07	271.89	52.74	-32.2	-32.8	27.7	0.00e+00	0	41	0	2511339520	36	6270
2026-01-25 17:43:15.36	271.12	52.50	-32.0	-32.6	27.8	0.00e+00	0	41	0	2518679552	36	6130
2026-01-25 17:43:16.09	270.69	52.36	-31.9	-32.5	28.1	0.00e+00	0	41	0	2521825280	36	6064
2026-01-25 17:43:17.39	269.94	52.11	-32.1	-32.8	27.8	0.00e+00	0	41	0	2529165312	36	6264
2026-01-25 17:43:18.11	269.53	51.97	-32.2	-32.9	27.7	0.00e+00	0	41	0	2533359616	36	6372
2026-01-25 17:43:19.41	268.80	51.72	-32.2	-32.8	27.7	0.00e+00	0	41	0	2540699648	36	6279
2026-01-25 17:43:20.13	268.39	51.57	-32.2	-32.7	27.8	0.00e+00	0	41	0	2544893952	36	6241
2026-01-25 17:43:21.42	267.69	51.32	-32.3	-33.0	27.6	0.00e+00	0	41	0	2552233984	36	6451
2026-01-25 17:43:22.15	267.29	51.17	-32.3	-32.9	27.6	0.00e+00	0	41	0	2556428288	36	6357
2026-01-25 17:43:23.45	266.60	50.90	-32.3	-32.8	27.6	0.00e+00	0	41	0	2563768320	36	6298
2026-01-25 17:43:24.17	266.22	50.75	-32.4	-33.0	27.6	0.00e+00	0	41	0	2567962624	36	6397
2026-01-25 17:43:25.47	265.54	50.48	-32.4	-33.0	27.6	0.00e+00	0	41	0	2575302656	36	6449
2026-01-25 17:43:26.19	265.17	50.33	-32.1	-32.7	27.8	0.00e+00	0	41	0	2578448384	36	6191
2026-01-25 17:43:27.48	264.52	50.06	-31.8	-32.5	28.0	0.00e+00	0	41	0	2585788416	36	6055
2026-01-25 17:43:28.20	264.16	49.91	-31.6	-32.2	28.1	0.00e+00	0	41	0	2589982720	36	5893
2026-01-25 17:43:29.50	263.53	49.63	-31.8	-32.3	28.0	0.00e+00	0	41	0	2597322752	36	5927
2026-01-25 17:43:30.22	263.18	49.48	-31.8	-32.5	27.9	0.00e+00	0	41	0	2601517056	36	6074
2026-01-25 17:43:31.52	262.56	49.20	-31.8	-32.4	28.1	0.00e+00	0	41	0	2608857088	36	5979
2026-01-25 17:43:32.24	262.22	49.04	-31.8	-32.4	28.0	0.00e+00	0	41	0	2613051392	36	5995
2026-01-25 17:43:33.54	261.62	48.76	-31.9	-32.4	27.9	0.00e+00	0	41	0	2620391424	36	6025
2026-01-25 17:43:34.26	261.29	48.60	-31.9	-32.6	28.0	0.00e+00	0	41	0	2624585728	36	6133
2026-01-25 17:43:35.55	260.71	48.32	-31.8	-32.4	28.0	0.00e+00	0	41	0	2631925760	36	6003
2026-01-25 17:43:36.27	260.39	48.16	-31.9	-32.6	27.9	0.00e+00	0	41	0	2636120064	36	6128
2026-01-25 17:43:37.57	259.82	47.87	-31.6	-32.3	28.0	0.00e+00	0	41	0	2643460096	36	5937
2026-01-25 17:43:38.29	259.51	47.71	-31.6	-32.2	28.2	0.00e+00	0	41	0	2646605824	36	5894
2026-01-25 17:43:39.59	258.95	47.42	-31.3	-31.8	28.4	0.00e+00	0	41	0	2653945856	36	5599
2026-01-25 17:43:40.31	258.65	47.26	-31.3	-31.9	28.4	0.00e+00	0	41	0	2658140160	36	5685
2026-01-25 17:43:41.61	258.11	46.97	-31.5	-32.0	28.3	0.00e+00	0	41	0	2665480192	36	5729
2026-01-25 17:43:42.33	257.82	46.81	-31.6	-32.3	28.2	0.00e+00	0	41	0	2669674496	36	5908
2026-01-25 17:43:43.63	257.30	46.52	-31.6	-32.1	28.2	0.00e+00	0	41	0	2677014528	36	5789
2026-01-25 17:43:44.35	257.02	46.36	-31.6	-32.1	28.1	0.00e+00	0	41	0	2681208832	36	5817
2026-01-25 17:43:45.65	256.51	46.06	-31.8	-32.5	28.0	0.00e+00	0	41	0	2688548864	36	6073
2026-01-25 17:43:46.37	256.23	45.90	-31.5	-32.1	28.2	0.00e+00	0	41	0	2692743168	36	5765
2026-01-25 17:43:47.66	255.74	45.61	-31.4	-31.9	28.3	0.00e+00	0	41	0	2700083200	36	5694
2026-01-25 17:43:48.39	255.47	45.45	-31.4	-31.9	28.3	0.00e+00	0	41	0	2704277504	36	5690
2026-01-25 17:43:49.68	255.00	45.16	-31.6	-32.1	28.1	0.00e+00	0	41	0	2711617536	36	5790
2026-01-25 17:43:50.41	254.73	44.99	-31.4	-32.0	28.3	0.00e+00	0	41	0	2714763264	36	5743
2026-01-25 17:43:51.70	254.27	44.70	-31.1	-31.6	28.2	0.00e+00	0	41	0	2722103296	36	5492
2026-01-25 17:43:52.43	254.01	44.54	-30.9	-31.4	28.4	0.00e+00	0	41	0	2726297600	36	5365
2026-01-25 17:43:53.72	253.57	44.25	-30.8	-31.3	28.6	0.00e+00	0	41	0	2733637632	36	5296
2026-01-25 17:43:54.45	253.32	44.08	-31.0	-31.5	28.4	0.00e+00	0	41	0	2737831936	36	5422
2026-01-25 17:43:55.74	252.88	43.79	-31.4	-31.9	28.3	0.00e+00	0	41	0	2745171968	36	5674
2026-01-25 17:43:56.47	252.64	43.63	-31.6	-32.2	27.6	0.00e+00	0	41	0	2749366272	36	5860
2026-01-25 17:43:57.76	252.22	43.34	-31.6	-32.3	27.8	0.00e+00	0	41	0	2756706304	36	5960
2026-01-25 17:43:58.48	251.98	43.18	-31.5	-32.2	28.0	0.00e+00	0	41	0	2760900608	36	5883
2026-01-25 17:43:59.78	251.57	42.89	-31.1	-31.7	28.3	0.00e+00	0	41	0	2768240640	36	5513
2026-01-25 17:44:00.50	251.34	42.72	-31.1	-31.6	28.5	0.00e+00	0	41	0	2771386368	36	5448
2026-01-25 17:44:01.80	250.94	42.43	-31.0	-31.5	28.4	0.00e+00	0	41	0	2778726400	36	5436
2026-01-25 17:44:02.52	250.72	42.27	-31.0	-31.7	28.5	0.00e+00	0	41	0	2782920704	36	5518
2026-01-25 17:44:03.82	250.33	41.98	-31.1	-31.7	28.5	0.00e+00	0	41	0	2790260736	36	5507
2026-01-25 17:44:04.54	250.11	41.82	-31.2	-31.7	28.3	0.00e+00	0	41	0	2794455040	36	5564
2026-01-25 17:44:05.84	249.73	41.54	-31.1	-31.7	28.5	0.00e+00	0	41	0	2801795072	36	5558
2026-01-25 17:44:06.56	249.53	41.38	-31.0	-31.7	28.6	0.00e+00	0	41	0	2805989376	36	5506
2026-01-25 17:44:07.86	249.16	41.09	-31.0	-31.5	28.5	0.00e+00	0	41	0	2813329408	36	5414
2026-01-25 17:44:08.58	248.95	40.93	-31.0	-31.5	28.6	0.00e+00	0	41	0	2817523712	36	5416
2026-01-25 17:44:09.88	248.59	40.65	-31.1	-31.6	28.5	0.00e+00	0	41	0	2824863744	36	5476
2026-01-25 17:44:10.60	248.40	40.49	-31.3	-31.8	28.4	0.00e+00	0	41	0	2829058048	36	5595
2026-01-25 17:44:11.90	248.05	40.21	-31.1	-31.6	28.5	0.00e+00	0	41	0	2836398080	36	5498
2026-01-25 17:44:12.62	247.85	40.05	-31.1	-31.8	28.4	0.00e+00	0	41	0	2840592384	36	5582
2026-01-25 17:44:13.92	247.51	39.77	-30.9	-31.5	28.7	0.00e+00	0	41	0	2847932416	36	5429
2026-01-25 17:44:14.64	247.33	39.61	-30.9	-31.6	28.5	0.00e+00	0	41	0	2851078144	36	5464
2026-01-25 17:44:15.94	247.00	39.33	-31.0	-31.6	28.6	0.00e+00	0	41	0	2858418176	36	5463
2026-01-25 17:44:16.66	246.81	39.18	-30.8	-31.3	28.6	0.00e+00	0	41	0	2862612480	36	5299
2026-01-25 17:44:17.96	246.49	38.90	-31.0	-31.5	28.7	0.00e+00	0	41	0	2869952512	36	5387
2026-01-25 17:44:18.68	246.32	38.75	-30.9	-31.5	28.6	0.00e+00	0	41	0	2874146816	36	5435
2026-01-25 17:44:19.98	246.00	38.47	-31.0	-31.7	28.6	0.00e+00	0	41	0	2881486848	36	5508
2026-01-25 17:44:20.70	245.83	38.32	-31.1	-31.8	28.5	0.00e+00	0	41	0	2885681152	36	5587
2026-01-25 17:44:21.99	245.53	38.04	-30.8	-31.3	28.7	0.00e+00	0	41	0	2893021184	36	5296
2026-01-25 17:44:22.72	245.36	37.89	-30.9	-31.4	28.7	0.00e+00	0	41	0	2897215488	36	5368
2026-01-25 17:44:24.01	245.06	37.62	-31.0	-31.6	28.5	0.00e+00	0	41	0	2904555520	36	5443
2026-01-25 17:44:24.73	244.90	37.47	-31.2	-31.9	28.4	0.00e+00	0	41	0	2908749824	36	5656
2026-01-25 17:44:26.03	244.61	37.20	-31.2	-31.9	28.4	0.00e+00	0	41	0	2916089856	36	5654
2026-01-25 17:44:26.75	244.45	37.05	-31.2	-31.9	28.3	0.00e+00	0	41	0	2919235584	36	5665
2026-01-25 17:44:28.05	244.16	36.78	-31.2	-31.7	28.4	0.00e+00	0	41	0	2926575616	36	5538
2026-01-25 17:44:28.77	244.01	36.63	-31.1	-31.7	28.5	0.00e+00	0	41	0	2930769920	36	5562
2026-01-25 17:44:30.07	243.73	36.37	-31.0	-31.5	28.6	0.00e+00	0	41	0	2938109952	36	5414
2026-01-25 17:44:30.79	243.58	36.22	-31.1	-31.6	28.5	0.00e+00	0	41	0	2942304256	36	5480
2026-01-25 17:44:32.09	243.31	35.96	-31.0	-31.7	28.5	0.00e+00	0	41	0	2949644288	36	5510
2026-01-25 17:44:32.81	243.17	35.81	-31.0	-31.6	28.6	0.00e+00	0	41	0	2953838592	36	5471
2026-01-25 17:44:34.11	242.90	35.55	-30.8	-31.5	28.7	0.00e+00	0	41	0	2961178624	36	5412
2026-01-25 17:44:34.83	242.76	35.41	-31.0	-31.5	28.5	0.00e+00	0	41	0	2965372928	36	5432
2026-01-25 17:44:36.13	242.51	35.15	-31.2	-31.7	28.5	0.00e+00	0	41	0	2972712960	36	5547
2026-01-25 17:44:36.84	242.37	35.00	-31.3	-31.9	28.4	0.00e+00	0	41	0	2975858688	36	5640
2026-01-25 17:44:38.14	242.12	34.75	-31.5	-32.1	28.1	0.00e+00	0	41	0	2983198720	36	5787
2026-01-25 17:44:38.87	241.98	34.60	-31.6	-32.2	28.1	0.00e+00	0	41	0	2987393024	36	5850
2026-01-25 17:44:40.16	241.74	34.35	-31.6	-32.1	28.1	0.00e+00	0	41	0	2994733056	36	5800
2026-01-25 17:44:40.88	241.61	34.21	-31.6	-32.2	28.2	0.00e+00	0	41	0	2998927360	36	5849
2026-01-25 17:44:42.18	241.37	33.96	-31.4	-32.1	28.2	0.00e+00	0	41	0	3006267392	36	5809
2026-01-25 17:44:42.90	241.24	33.82	-31.5	-32.1	28.3	0.00e+00	0	41	0	3010461696	36	5828
2026-01-25 17:44:44.20	241.01	33.57	-31.0	-31.7	28.5	0.00e+00	0	41	0	3017801728	36	5520
2026-01-25 17:44:44.92	240.88	33.43	-31.1	-31.6	28.5	0.00e+00	0	41	0	3021996032	36	5472
2026-01-25 17:44:46.22	240.65	33.18	-31.1	-31.7	28.5	0.00e+00	0	41	0	3029336064	36	5514
2026-01-25 17:44:46.94	240.53	33.05	-31.1	-31.6	28.5	0.00e+00	0	41	0	3033530368	36	5465
2026-01-25 17:44:48.24	240.31	32.80	-31.2	-31.8	28.4	0.00e+00	0	41	0	3040870400	36	5571
2026-01-25 17:44:48.96	240.19	32.66	-31.2	-31.7	28.4	0.00e+00	0	41	0	3045064704	36	5524
2026-01-25 17:44:50.26	239.97	32.42	-31.1	-31.6	28.4	0.00e+00	0	41	0	3051356160	36	5500
2026-01-25 17:44:50.98	239.85	32.29	-31.3	-31.8	28.3	0.00e+00	0	41	0	3055550464	36	5596
2026-01-25 17:44:52.28	239.64	32.05	-31.3	-32.0	28.2	0.00e+00	0	41	0	3062890496	36	5749
2026-01-25 17:44:53.00	239.53	31.91	-31.4	-32.1	28.3	0.00e+00	0	41	0	3067084800	36	5808
2026-01-25 17:44:54.30	239.32	31.68	-31.4	-32.0	28.3	0.00e+00	0	41	0	3074424832	36	5757
2026-01-25 17:44:55.02	239.21	31.54	-31.4	-32.1	28.2	0.00e+00	0	41	0	3078619136	36	5805
2026-01-25 17:44:56.31	239.01	31.31	-31.5	-32.2	28.1	0.00e+00	0	41	0	3085959168	36	5876
2026-01-25 17:44:57.04	238.90	31.18	-31.4	-32.1	28.1	0.00e+00	0	41	0	3090153472	36	5809
2026-01-25 17:44:58.33	238.70	30.95	-31.4	-32.0	28.2	0.00e+00	0	41	0	3097493504	36	5711
2026-01-25 17:44:59.05	238.60	30.82	-31.6	-32.1	28.2	0.00e+00	0	41	0	3101687808	36	5805
2026-01-25 17:45:00.35	238.40	30.58	-31.4	-31.9	28.3	0.00e+00	0	41	0	3109027840	36	5644
2026-01-25 17:45:01.07	238.30	30.46	-31.6	-32.3	28.0	0.00e+00	0	41	0	3113222144	36	5909
2026-01-25 17:45:02.37	238.11	30.23	-31.6	-32.1	28.0	0.00e+00	0	41	0	3120562176	36	5803
2026-01-25 17:45:03.09	238.01	30.10	-31.5	-32.2	28.1	0.00e+00	0	41	0	3123707904	36	5875
2026-01-25 17:45:04.39	237.82	29.87	-31.8	-32.5	28.0	0.00e+00	0	41	0	3131047936	36	6071
2026-01-25 17:45:05.11	237.72	29.75	-31.6	-32.3	28.1	0.00e+00	0	41	0	3135242240	36	5927
2026-01-25 17:45:06.41	237.54	29.52	-31.8	-32.5	27.9	0.00e+00	0	41	0	3142582272	36	6053
2026-01-25 17:45:07.13	237.45	29.40	-31.8	-32.3	27.9	0.00e+00	0	41	0	3146776576	36	5956
2026-01-25 17:45:08.43	237.27	29.18	-31.8	-32.3	28.0	0.00e+00	0	41	0	3154116608	36	5930
2026-01-25 17:45:09.15	237.17	29.06	-31.8	-32.4	28.1	0.00e+00	0	41	0	3158310912	36	5971
2026-01-25 17:45:10.45	237.00	28.84	-31.8	-32.4	27.8	0.00e+00	0	41	0	3165650944	36	5976
2026-01-25 17:45:11.17	236.91	28.71	-31.7	-32.3	27.8	0.00e+00	0	41	0	3169845248	36	5918
2026-01-25 17:45:12.46	236.74	28.50	-31.7	-32.3	27.8	0.00e+00	0	41	0	3177185280	36	5956
2026-01-25 17:45:13.18	236.65	28.38	-31.6	-32.2	27.8	0.00e+00	0	41	0	3180331008	36	5842
2026-01-25 17:45:14.48	236.48	28.16	-31.7	-32.2	27.8	0.00e+00	0	41	0	3187671040	36	5854
2026-01-25 17:45:15.20	236.39	28.04	-31.6	-32.1	27.9	0.00e+00	0	41	0	3191865344	36	5796
2026-01-25 17:45:16.50	236.23	27.83	-31.7	-32.2	27.8	0.00e+00	0	41	0	3199205376	36	5880
2026-01-25 17:45:17.22	236.14	27.71	-31.7	-32.3	27.8	0.00e+00	0	41	0	3203399680	36	5900
2026-01-25 17:45:18.52	235.99	27.50	-31.7	-32.4	27.7	0.00e+00	0	41	0	3210739712	36	5997
2026-01-25 17:45:19.24	235.90	27.38	-31.6	-32.3	27.8	0.00e+00	0	41	0	3214934016	36	5915
2026-01-25 17:45:20.54	235.74	27.17	-31.8	-32.5	27.8	0.00e+00	0	41	0	3222274048	36	6037
2026-01-25 17:45:21.26	235.66	27.06	-31.8	-32.5	27.7	0.00e+00	0	41	0	3226468352	36	6049
2026-01-25 17:45:22.56	235.51	26.85	-31.7	-32.4	27.8	0.00e+00	0	41	0	3233808384	36	6011
2026-01-25 17:45:23.28	235.43	26.74	-31.8	-32.3	27.8	0.00e+00	0	41	0	3238002688	36	5928
2026-01-25 17:45:24.58	235.28	26.53	-31.8	-32.5	27.7	0.00e+00	0	41	0	3245342720	36	6043
2026-01-25 17:45:25.30	235.20	26.42	-31.6	-32.3	27.8	0.00e+00	0	41	0	3248488448	36	5944
2026-01-25 17:45:26.60	235.05	26.21	-31.7	-32.2	27.8	0.00e+00	0	41	0	3255828480	36	5896
2026-01-25 17:45:27.32	234.97	26.10	-31.8	-32.5	27.7	0.00e+00	0	41	0	3260022784	36	6045
2026-01-25 17:45:28.62	234.83	25.90	-31.5	-32.1	27.9	0.00e+00	0	41	0	3267362816	36	5774
2026-01-25 17:45:29.34	234.75	25.79	-31.6	-32.1	27.8	0.00e+00	0	41	0	3271557120	36	5809
2026-01-25 17:45:30.64	234.61	25.59	-31.5	-32.2	28.0	0.00e+00	0	41	0	3278897152	36	5845
2026-01-25 17:45:31.36	234.53	25.48	-31.4	-32.1	28.0	0.00e+00	0	41	0	3283091456	36	5804
2026-01-25 17:45:32.66	234.40	25.29	-31.5	-32.0	28.0	0.00e+00	0	41	0	3290431488	36	5759
2026-01-25 17:45:33.38	234.32	25.18	-31.5	-32.0	28.0	0.00e+00	0	41	0	3294625792	36	5740
2026-01-25 17:45:34.68	234.19	24.98	-31.6	-32.1	27.9	0.00e+00	0	41	0	3301965824	36	5790
2026-01-25 17:45:35.40	234.11	24.87	-31.6	-32.1	27.9	0.00e+00	0	41	0	3306160128	36	5804
2026-01-25 17:45:36.70	233.98	24.68	-31.6	-32.1	27.8	0.00e+00	0	41	0	3313500160	36	5822
2026-01-25 17:45:37.42	233.91	24.57	-31.7	-32.2	27.7	0.00e+00	0	41	0	3317694464	36	5892
2026-01-25 17:45:38.72	233.78	24.38	-31.9	-32.4	27.6	0.00e+00	0	41	0	3325034496	36	6024
2026-01-25 17:45:39.44	233.71	24.28	-32.0	-32.7	27.6	0.00e+00	0	41	0	3328180224	36	6177
2026-01-25 17:45:40.74	233.58	24.09	-31.8	-32.5	27.6	0.00e+00	0	41	0	3335520256	36	6090
2026-01-25 17:45:41.46	233.52	23.98	-31.9	-32.6	27.6	0.00e+00	0	41	0	3339714560	36	6166
2026-01-25 17:45:42.76	233.39	23.80	-31.8	-32.4	27.7	0.00e+00	0	41	0	3347054592	36	5992
2026-01-25 17:45:43.48	233.32	23.69	-32.0	-32.5	27.6	0.00e+00	0	41	0	3351248896	36	6094
2026-01-25 17:45:44.78	233.20	23.51	-32.1	-32.6	27.4	0.00e+00	0	41	0	3358588928	36	6151
2026-01-25 17:45:45.50	233.13	23.41	-32.1	-32.6	27.5	0.00e+00	0	41	0	3362783232	36	6160
2026-01-25 17:45:46.79	233.02	23.22	-32.1	-32.6	27.5	0.00e+00	0	41	0	3370123264	36	6139
2026-01-25 17:45:47.51	232.95	23.12	-32.1	-32.7	27.6	0.00e+00	0	41	0	3374317568	36	6178
2026-01-25 17:45:48.81	232.83	22.94	-32.1	-32.6	27.5	0.00e+00	0	41	0	3381657600	36	6152
2026-01-25 17:45:49.54	232.77	22.84	-32.0	-32.6	27.5	0.00e+00	0	41	0	3384803328	36	6124
2026-01-25 17:45:50.84	232.65	22.66	-32.1	-32.6	27.5	0.00e+00	0	41	0	3392143360	36	6152
2026-01-25 17:45:51.55	232.59	22.56	-32.1	-32.6	27.5	0.00e+00	0	41	0	3396337664	36	6158
2026-01-25 17:45:52.85	232.48	22.38	-32.0	-32.6	27.4	0.00e+00	0	41	0	3403677696	36	6134
2026-01-25 17:45:53.57	232.42	22.28	-32.1	-32.8	27.3	0.00e+00	0	41	0	3407872000	36	6300
2026-01-25 17:45:54.87	232.30	22.11	-32.2	-32.8	27.3	0.00e+00	0	41	0	3415212032	36	6280
2026-01-25 17:45:55.59	232.24	22.01	-32.3	-32.8	27.3	0.00e+00	0	41	0	3419406336	36	6291
2026-01-25 17:45:56.89	232.13	21.83	-32.1	-32.7	27.4	0.00e+00	0	41	0	3426746368	36	6198
2026-01-25 17:45:57.61	232.07	21.74	-32.1	-32.6	27.5	0.00e+00	0	41	0	3430940672	36	6145
2026-01-25 17:45:58.91	231.97	21.56	-32.1	-32.8	27.4	0.00e+00	0	41	0	3438280704	36	6279
2026-01-25 17:45:59.63	231.91	21.47	-32.2	-32.8	27.3	0.00e+00	0	41	0	3442475008	36	6261
2026-01-25 17:46:00.94	231.80	21.30	-32.2	-32.9	27.3	0.00e+00	0	41	0	3449815040	36	6344
2026-01-25 17:46:01.66	231.75	21.20	-32.2	-32.9	27.4	0.00e+00	0	41	0	3454009344	36	6334
2026-01-25 17:46:02.96	231.64	21.03	-32.3	-33.0	27.3	0.00e+00	0	41	0	3460300800	36	6423
2026-01-25 17:46:03.68	231.59	20.94	-32.1	-32.8	27.4	0.00e+00	0	41	0	3464495104	36	6284
2026-01-25 17:46:04.98	231.48	20.77	-32.5	-33.0	27.2	0.00e+00	0	41	0	3471835136	36	6444
2026-01-25 17:46:05.70	231.43	20.68	-32.4	-32.9	27.3	0.00e+00	0	41	0	3476029440	36	6365
2026-01-25 17:46:06.99	231.33	20.51	-32.3	-32.9	27.2	0.00e+00	0	41	0	3483369472	36	6332
2026-01-25 17:46:07.71	231.27	20.42	-32.4	-32.9	27.3	0.00e+00	0	41	0	3487563776	36	6357
2026-01-25 17:46:09.01	231.18	20.25	-32.4	-32.9	27.3	0.00e+00	0	41	0	3494903808	36	6356
2026-01-25 17:46:09.73	231.12	20.16	-32.5	-33.1	27.1	0.00e+00	0	41	0	3499098112	36	6499
2026-01-25 17:46:11.03	231.03	20.00	-32.5	-33.1	27.1	0.00e+00	0	41	0	3506438144	36	6468
2026-01-25 17:46:11.75	230.97	19.91	-32.5	-33.1	27.2	0.00e+00	0	41	0	3510632448	36	6471
2026-01-25 17:46:13.05	230.88	19.75	-32.6	-33.2	27.1	0.00e+00	0	41	0	3517972480	36	6572
2026-01-25 17:46:13.77	230.83	19.66	-32.6	-33.2	27.0	0.00e+00	0	41	0	3522166784	36	6580
2026-01-25 17:46:15.07	230.73	19.50	-32.7	-33.2	27.0	0.00e+00	0	41	0	3529506816	36	6600
2026-01-25 17:46:15.79	230.68	19.41	-32.7	-33.3	27.0	0.00e+00	0	41	0	3532652544	36	6650
2026-01-25 17:46:17.08	230.59	19.25	-32.7	-33.3	26.9	0.00e+00	0	41	0	3539992576	38	5905
2026-01-25 17:46:17.81	230.54	19.16	-32.8	-33.3	26.9	0.00e+00	0	41	0	3544186880	38	5938
2026-01-25 17:46:19.10	230.45	19.00	-33.2	-33.7	26.7	0.00e+00	0	41	0	3551526912	38	6239
2026-01-25 17:46:19.83	230.40	18.92	-33.0	-33.6	26.7	0.00e+00	0	41	0	3555721216	38	6118
2026-01-25 17:46:21.12	230.31	18.76	-33.0	-33.5	26.7	0.00e+00	0	41	0	3563061248	38	6086
2026-01-25 17:46:21.85	230.27	18.67	-32.9	-33.6	26.8	0.00e+00	0	41	0	3567255552	38	6162
2026-01-25 17:46:23.15	230.18	18.52	-33.0	-33.7	26.7	0.00e+00	0	41	0	3574595584	38	6214
2026-01-25 17:46:23.87	230.13	18.43	-33.2	-33.9	26.6	0.00e+00	0	41	0	3578789888	38	6358
2026-01-25 17:46:25.17	230.04	18.28	-33.3	-33.8	26.5	0.00e+00	0	41	0	3586129920	38	6311
2026-01-25 17:46:25.89	230.00	18.19	-33.3	-34.1	26.4	0.00e+00	0	41	0	3589275648	38	6475
2026-01-25 17:46:27.19	229.91	18.04	-33.3	-34.0	26.5	0.00e+00	0	41	0	3596615680	38	6417
2026-01-25 17:46:27.91	229.87	17.96	-33.4	-34.0	26.4	0.00e+00	0	41	0	3600809984	38	6405
