passes_logs/2026/01/25/R4.6S_Anadyr/R4.6S_Anadyr__20260125_124705_NOAA_21_JPSS-2_rec.log

#Pass ID: 20260125_124705_NOAA 21 (JPSS-2)
#Satellite: NOAA 21 (JPSS-2)
#Configuration: NOAA-21
#almurnet v.1.7.20251203
#Start time: 2026-01-25 12:47:06

#Version: 2.2.20231116
#Station: R4.6S_Anadyr
#Location: 177.4865 lon 64.73178 lat
#TLE: 1 54234U 22150A   26024.88063640  .00000198  00000+0  11499-3 0  9991
#TLE: 2 54234  98.7509 325.6613 0000743 218.4833 141.6291 14.19538975166219

#Time	Az	El	Level	Level2	SNR	BER	BlckErr	Temp	State	Recorded	gain1	gain2
2026-01-25 12:47:06.70	18.77	0.07	-51.6	-66.5	3.6	1.51e+00	0	38	0	0	60	76701
2026-01-25 12:47:07.70	18.83	0.12	-51.7	-64.5	3.5	1.52e+00	0	40	104	0	60	58957
2026-01-25 12:47:08.71	18.89	0.17	-51.5	-64.3	3.5	1.52e+00	0	40	104	0	60	57384
2026-01-25 12:47:09.72	18.95	0.23	-51.6	-64.4	3.5	1.52e+00	0	40	104	0	60	58515
2026-01-25 12:47:10.73	19.02	0.28	-51.4	-64.3	3.5	1.52e+00	0	40	104	0	60	57586
2026-01-25 12:47:11.74	19.08	0.33	-51.4	-64.3	3.5	1.52e+00	0	40	104	0	60	57261
2026-01-25 12:47:12.75	19.14	0.39	-51.4	-64.2	3.5	1.52e+00	0	40	104	0	60	57152
2026-01-25 12:47:13.76	19.21	0.44	-51.3	-64.2	3.5	1.52e+00	0	40	104	0	60	56852
2026-01-25 12:47:14.76	19.27	0.49	-51.4	-64.2	3.5	1.52e+00	0	40	104	0	60	57151
2026-01-25 12:47:15.78	19.33	0.55	-51.4	-64.2	3.5	1.52e+00	0	40	104	0	60	57248
2026-01-25 12:47:16.79	19.40	0.60	-51.3	-64.2	3.5	1.52e+00	0	40	104	0	60	56703
2026-01-25 12:47:17.79	19.46	0.65	-51.3	-64.2	3.5	1.52e+00	0	40	104	0	60	56614
2026-01-25 12:47:18.80	19.53	0.71	-51.3	-64.1	3.5	1.52e+00	0	40	104	0	60	56162
2026-01-25 12:47:19.81	19.59	0.76	-51.2	-64.1	3.5	1.52e+00	0	40	104	0	60	56155
2026-01-25 12:47:20.82	19.66	0.81	-51.2	-64.0	3.5	1.52e+00	0	40	104	0	60	55673
2026-01-25 12:47:21.83	19.72	0.87	-51.1	-64.0	3.5	1.52e+00	0	40	104	0	60	55379
2026-01-25 12:47:22.84	19.79	0.92	-51.0	-63.9	3.5	1.52e+00	0	40	104	0	60	54843
2026-01-25 12:47:23.85	19.85	0.97	-50.9	-63.8	3.5	1.52e+00	0	40	104	0	60	54056
2026-01-25 12:47:24.87	19.92	1.03	-50.8	-63.7	3.5	1.52e+00	0	40	104	0	60	53431
2026-01-25 12:47:25.88	19.99	1.08	-50.7	-63.6	3.5	1.52e+00	0	40	104	0	60	52825
2026-01-25 12:47:26.89	20.05	1.14	-50.6	-63.4	3.5	1.52e+00	0	40	104	0	60	52179
2026-01-25 12:47:27.90	20.12	1.19	-50.4	-63.3	3.5	1.52e+00	0	40	104	0	60	51210
2026-01-25 12:47:28.91	20.19	1.25	-50.3	-63.1	3.5	1.52e+00	0	40	104	0	60	50417
2026-01-25 12:47:29.92	20.25	1.30	-50.1	-62.9	3.5	1.52e+00	0	40	104	0	60	48759
2026-01-25 12:47:30.93	20.32	1.35	-49.8	-62.6	3.5	1.52e+00	0	40	104	0	60	47391
2026-01-25 12:47:31.94	20.39	1.41	-49.6	-62.4	3.5	1.52e+00	0	40	104	0	60	46486
2026-01-25 12:47:32.95	20.46	1.46	-49.6	-62.4	3.5	1.52e+00	0	40	104	0	60	46321
2026-01-25 12:47:33.96	20.53	1.52	-49.6	-62.4	3.5	1.52e+00	0	40	104	0	60	46389
2026-01-25 12:47:34.97	20.59	1.57	-49.6	-62.4	3.5	1.52e+00	0	40	104	0	60	46351
2026-01-25 12:47:35.98	20.66	1.63	-49.6	-62.5	3.5	1.52e+00	0	40	104	0	60	46592
2026-01-25 12:47:36.99	20.73	1.68	-49.6	-62.4	3.5	1.52e+00	0	40	104	0	60	46392
2026-01-25 12:47:38.00	20.80	1.74	-49.6	-62.4	3.5	1.52e+00	0	40	104	0	60	46049
2026-01-25 12:47:39.01	20.87	1.79	-49.5	-62.2	3.5	1.52e+00	0	40	104	0	60	45393
2026-01-25 12:47:40.02	20.94	1.85	-49.6	-62.3	3.5	1.52e+00	0	40	104	0	60	45823
2026-01-25 12:47:41.03	21.01	1.90	-49.5	-62.4	3.5	1.52e+00	0	40	104	0	60	46043
2026-01-25 12:47:42.04	21.08	1.96	-49.5	-62.3	3.5	1.52e+00	0	40	104	0	60	45676
2026-01-25 12:47:43.05	21.15	2.01	-49.5	-62.3	3.5	1.52e+00	0	40	104	0	60	45808
2026-01-25 12:47:44.06	21.22	2.07	-49.5	-62.4	3.5	1.52e+00	0	40	104	0	60	46058
2026-01-25 12:47:45.07	21.29	2.12	-49.5	-62.3	3.5	1.51e+00	0	40	104	0	60	45791
2026-01-25 12:47:46.08	21.36	2.18	-49.6	-62.4	3.5	1.52e+00	0	41	104	0	60	46040
2026-01-25 12:47:47.09	21.43	2.23	-49.5	-62.2	3.5	1.52e+00	0	40	104	0	60	45014
2026-01-25 12:47:48.10	21.50	2.29	-49.5	-61.6	3.5	1.52e+00	0	40	104	0	60	41983
2026-01-25 12:47:49.11	21.57	2.35	-49.5	-61.4	3.5	1.51e+00	0	40	104	0	60	41127
2026-01-25 12:47:50.12	21.65	2.40	-49.5	-61.4	3.5	1.52e+00	0	41	104	0	60	41158
2026-01-25 12:47:51.12	21.72	2.46	-49.5	-62.0	3.5	1.52e+00	0	41	104	0	60	43971
2026-01-25 12:47:52.13	21.79	2.51	-49.5	-62.1	3.5	1.52e+00	0	41	104	0	60	44664
2026-01-25 12:47:53.14	21.86	2.57	-49.3	-59.5	4.0	1.51e+00	0	41	104	0	60	33073
2026-01-25 12:47:54.15	21.94	2.63	-47.7	-52.1	9.2	1.83e-01	123	40	0	0	60	14056
2026-01-25 12:47:55.17	22.01	2.68	-47.8	-52.3	8.4	2.31e-02	122	41	0	4194304	60	14446
2026-01-25 12:47:56.18	22.08	2.74	-45.1	-47.5	14.9	3.81e-05	123	41	0	7340032	60	8303
2026-01-25 12:47:57.18	22.16	2.79	-43.4	-45.2	16.6	0.00e+00	123	41	0	10485760	60	6381
2026-01-25 12:47:58.19	22.23	2.85	-41.6	-43.1	17.3	0.00e+00	123	41	0	13631488	52	7937
2026-01-25 12:47:59.21	22.31	2.91	-43.6	-45.5	16.6	0.00e+00	122	41	0	16777216	60	6583
2026-01-25 12:48:00.22	22.38	2.96	-40.7	-42.0	19.6	0.00e+00	122	41	0	19922944	56	5531
2026-01-25 12:48:01.23	22.45	3.02	-41.7	-43.1	18.5	0.00e+00	123	41	0	23068672	58	5641
2026-01-25 12:48:02.24	22.53	3.08	-42.7	-44.3	17.2	0.00e+00	122	41	0	26214400	56	7232
2026-01-25 12:48:03.25	22.60	3.13	-43.7	-45.7	16.0	0.00e+00	122	41	0	29360128	60	6737
2026-01-25 12:48:04.26	22.68	3.19	-44.3	-46.4	15.8	0.00e+00	120	41	0	32505856	60	7351
2026-01-25 12:48:05.27	22.76	3.25	-41.4	-42.7	18.5	0.00e+00	120	41	0	35651584	56	6057
2026-01-25 12:48:06.28	22.83	3.31	-49.0	-58.3	3.9	1.45e+00	0	41	104	36700160	60	28829
2026-01-25 12:48:07.29	22.91	3.36	-48.6	-55.0	7.5	1.08e+00	121	41	104	36700160	60	19684
2026-01-25 12:48:08.30	22.99	3.42	-43.8	-45.6	16.5	0.00e+00	122	41	0	37748736	60	6683
2026-01-25 12:48:09.31	23.06	3.48	-49.7	-62.0	3.5	1.52e+00	0	41	104	39845888	60	44035
2026-01-25 12:48:10.32	23.14	3.53	-45.3	-48.0	14.0	1.84e-01	120	41	104	39845888	60	8850
2026-01-25 12:48:11.33	23.22	3.59	-44.3	-46.2	16.1	0.00e+00	123	41	0	40894464	60	7187
2026-01-25 12:48:12.33	23.29	3.65	-44.2	-46.1	15.8	0.00e+00	122	41	0	44040192	60	7125
2026-01-25 12:48:13.35	23.37	3.71	-43.6	-45.4	16.5	0.00e+00	123	41	0	47185920	60	6522
2026-01-25 12:48:14.36	23.45	3.76	-42.9	-44.5	17.0	0.00e+00	120	41	0	50331648	58	6638
2026-01-25 12:48:15.37	23.53	3.82	-42.9	-44.5	17.4	0.00e+00	123	41	0	53477376	58	6621
2026-01-25 12:48:16.38	23.61	3.88	-43.3	-45.0	16.9	0.00e+00	122	41	0	56623104	58	7024
2026-01-25 12:48:17.38	23.69	3.94	-43.1	-44.7	17.3	0.00e+00	122	41	0	59768832	58	6759
2026-01-25 12:48:18.39	23.77	4.00	-42.5	-44.1	18.0	0.00e+00	123	41	0	62914560	56	7072
2026-01-25 12:48:19.40	23.85	4.05	-43.6	-45.4	16.5	0.00e+00	123	41	0	66060288	58	7324
2026-01-25 12:48:20.41	23.93	4.11	-40.9	-42.2	19.8	0.00e+00	122	41	0	69206016	56	5674
2026-01-25 12:48:21.42	24.01	4.17	-44.0	-45.8	16.5	0.00e+00	122	41	0	72351744	60	6861
2026-01-25 12:48:22.43	24.09	4.23	-39.6	-40.7	20.5	0.00e+00	122	41	0	75497472	52	6048
2026-01-25 12:48:23.44	24.17	4.29	-42.3	-43.7	18.3	0.00e+00	122	41	0	78643200	56	6800
2026-01-25 12:48:24.45	24.25	4.35	-40.2	-41.4	20.3	0.00e+00	122	41	0	81788928	54	5843
2026-01-25 12:48:25.46	24.33	4.40	-40.6	-41.8	19.6	0.00e+00	122	41	0	85983232	54	6103
2026-01-25 12:48:26.47	24.41	4.46	-40.7	-42.0	19.8	0.00e+00	122	41	0	89128960	54	6225
2026-01-25 12:48:27.48	24.50	4.52	-40.8	-42.1	19.8	0.00e+00	122	41	0	92274688	54	6285
2026-01-25 12:48:28.49	24.58	4.58	-39.3	-40.4	21.2	0.00e+00	123	41	0	94371840	52	5835
2026-01-25 12:48:29.50	24.66	4.64	-40.7	-42.0	19.9	0.00e+00	120	41	0	97517568	52	6969
2026-01-25 12:48:30.51	24.75	4.70	-40.8	-42.0	20.0	0.00e+00	123	41	0	100663296	54	6244
2026-01-25 12:48:31.52	24.83	4.76	-41.5	-42.9	19.1	0.00e+00	123	41	0	104857600	54	6916
2026-01-25 12:48:32.53	24.91	4.82	-40.2	-41.4	20.8	0.00e+00	123	41	0	108003328	54	5810
2026-01-25 12:48:33.54	25.00	4.88	-41.0	-42.3	19.3	0.00e+00	122	41	0	111149056	52	7261
2026-01-25 12:48:34.54	25.08	4.93	-41.1	-42.4	19.7	0.00e+00	122	41	0	114294784	56	5818
2026-01-25 12:48:35.55	25.17	4.99	-40.2	-41.4	20.6	0.00e+00	122	41	0	117440512	54	5831
2026-01-25 12:48:36.56	25.25	5.05	-40.1	-41.3	20.5	0.00e+00	123	41	0	120586240	52	6440
2026-01-25 12:48:37.57	25.34	5.11	-40.5	-41.7	20.1	0.00e+00	123	41	0	123731968	52	6801
2026-01-25 12:48:38.58	25.42	5.17	-39.8	-41.0	20.8	0.00e+00	122	41	0	126877696	54	5536
2026-01-25 12:48:39.59	25.51	5.23	-40.8	-42.0	19.9	0.00e+00	123	41	0	130023424	54	6235
2026-01-25 12:48:40.60	25.59	5.29	-40.0	-41.1	20.7	0.00e+00	123	41	0	133169152	54	5657
2026-01-25 12:48:41.61	25.68	5.35	-38.8	-39.9	21.8	0.00e+00	123	41	0	136314880	52	5482
2026-01-25 12:48:42.62	25.77	5.41	-39.8	-40.9	20.9	0.00e+00	123	41	0	139460608	52	6166
2026-01-25 12:48:43.63	25.86	5.47	-40.0	-41.2	20.7	0.00e+00	122	41	0	142606336	52	6357
2026-01-25 12:48:44.64	25.94	5.53	-40.7	-41.9	20.2	0.00e+00	123	41	0	145752064	54	6167
2026-01-25 12:48:45.65	26.03	5.59	-40.5	-41.7	20.1	0.00e+00	123	41	0	148897792	54	6017
2026-01-25 12:48:46.66	26.12	5.65	-41.2	-42.5	19.8	0.00e+00	123	41	0	152043520	54	6604
2026-01-25 12:48:47.67	26.21	5.71	-39.4	-40.6	21.2	0.00e+00	123	41	0	155189248	52	5932
2026-01-25 12:48:48.68	26.30	5.77	-40.1	-41.3	20.6	0.00e+00	123	41	0	158334976	52	6448
2026-01-25 12:48:49.69	26.39	5.83	-40.2	-41.4	20.7	0.00e+00	123	41	0	161480704	52	6519
2026-01-25 12:48:50.70	26.48	5.90	-40.7	-41.9	20.3	0.00e+00	123	41	0	164626432	54	6164
2026-01-25 12:48:51.71	26.57	5.96	-39.1	-40.2	21.6	0.00e+00	123	41	0	167772160	52	5674
2026-01-25 12:48:52.72	26.66	6.02	-40.8	-42.0	20.0	0.00e+00	122	41	0	170917888	52	7006
2026-01-25 12:48:53.73	26.75	6.08	-40.2	-41.4	20.5	0.00e+00	122	41	0	174063616	54	5847
2026-01-25 12:48:54.74	26.84	6.14	-39.5	-40.6	21.3	0.00e+00	123	41	0	177209344	52	5970
2026-01-25 12:48:55.74	26.93	6.20	-39.6	-40.7	21.1	0.00e+00	122	41	0	180355072	50	6758
2026-01-25 12:48:56.75	27.02	6.26	-40.7	-42.0	20.1	0.00e+00	123	41	0	183500800	54	6207
2026-01-25 12:48:57.76	27.12	6.32	-40.3	-41.4	20.6	0.00e+00	123	41	0	186646528	54	5853
2026-01-25 12:48:58.77	27.21	6.38	-39.7	-40.8	21.1	0.00e+00	123	41	0	189792256	52	6128
2026-01-25 12:48:59.78	27.30	6.44	-40.7	-41.9	20.2	0.00e+00	123	41	0	192937984	52	6909
2026-01-25 12:49:00.79	27.40	6.51	-40.7	-41.9	20.1	0.00e+00	122	41	0	196083712	54	6177
2026-01-25 12:49:01.79	27.49	6.57	-40.1	-41.2	20.8	0.00e+00	122	41	0	199229440	54	5703
2026-01-25 12:49:02.80	27.58	6.63	-39.9	-41.0	21.1	0.00e+00	122	41	0	202375168	54	5539
2026-01-25 12:49:03.81	27.68	6.69	-39.8	-40.9	21.1	0.00e+00	120	41	0	205520896	52	6181
2026-01-25 12:49:04.82	27.77	6.75	-40.3	-41.5	20.5	0.00e+00	123	41	0	208666624	52	6611
2026-01-25 12:49:05.83	27.87	6.81	-40.2	-41.3	20.8	0.00e+00	122	41	0	211812352	52	6476
2026-01-25 12:49:06.84	27.96	6.88	-39.4	-40.5	21.4	0.00e+00	123	41	0	214958080	52	5887
2026-01-25 12:49:07.85	28.06	6.94	-39.9	-41.0	20.9	0.00e+00	122	41	0	218103808	52	6243
2026-01-25 12:49:08.86	28.16	7.00	-39.6	-40.7	21.3	0.00e+00	123	41	0	221249536	52	6063
2026-01-25 12:49:09.87	28.25	7.06	-39.7	-40.8	21.2	0.00e+00	120	41	0	224395264	52	6113
2026-01-25 12:49:10.88	28.35	7.13	-39.4	-40.5	21.5	0.00e+00	122	41	0	227540992	52	5862
2026-01-25 12:49:11.89	28.45	7.19	-39.9	-41.0	20.9	0.00e+00	122	41	0	230686720	52	6255
2026-01-25 12:49:12.90	28.55	7.25	-39.8	-40.9	21.2	0.00e+00	122	41	0	233832448	52	6144
2026-01-25 12:49:13.91	28.65	7.31	-39.7	-40.8	21.1	0.00e+00	123	41	0	236978176	52	6111
2026-01-25 12:49:14.91	28.74	7.38	-39.7	-40.7	21.4	0.00e+00	123	41	0	240123904	52	6064
2026-01-25 12:49:15.93	28.84	7.44	-39.7	-40.8	21.2	0.00e+00	120	41	0	243269632	52	6104
2026-01-25 12:49:16.93	28.94	7.50	-39.2	-40.3	21.6	0.00e+00	123	41	0	246415360	52	5751
2026-01-25 12:49:17.94	29.04	7.56	-38.6	-39.6	22.2	0.00e+00	122	41	0	249561088	50	5964
2026-01-25 12:49:18.95	29.14	7.63	-40.6	-41.8	20.4	0.00e+00	122	41	0	252706816	52	6809
2026-01-25 12:49:19.96	29.24	7.69	-40.0	-41.1	21.0	0.00e+00	122	41	0	255852544	52	6306
2026-01-25 12:49:20.97	29.35	7.75	-39.6	-40.7	21.5	0.00e+00	123	41	0	258998272	52	6047
2026-01-25 12:49:21.98	29.45	7.82	-39.4	-40.5	21.6	0.00e+00	123	41	0	262144000	52	5881
2026-01-25 12:49:22.99	29.55	7.88	-39.2	-40.2	21.7	0.00e+00	122	41	0	265289728	50	6390
2026-01-25 12:49:24.00	29.65	7.94	-39.8	-40.9	21.3	0.00e+00	120	41	0	268435456	52	6175
2026-01-25 12:49:25.01	29.76	8.01	-39.8	-40.9	21.2	0.00e+00	122	41	0	271581184	52	6190
2026-01-25 12:49:26.02	29.86	8.07	-39.2	-40.3	21.8	0.00e+00	123	41	0	274726912	52	5749
2026-01-25 12:49:27.03	29.96	8.14	-39.6	-40.7	21.4	0.00e+00	127	41	0	277872640	52	6022
2026-01-25 12:49:28.04	30.07	8.20	-39.5	-40.6	21.6	0.00e+00	122	41	0	281018368	52	5979
2026-01-25 12:49:29.05	30.17	8.26	-39.4	-40.4	21.7	0.00e+00	122	41	0	284164096	52	5844
2026-01-25 12:49:30.06	30.28	8.33	-39.6	-40.7	21.5	0.00e+00	120	41	0	287309824	52	6001
2026-01-25 12:49:31.06	30.38	8.39	-39.3	-40.3	21.7	0.00e+00	123	41	0	290455552	52	5786
2026-01-25 12:49:32.08	30.49	8.46	-39.5	-40.6	21.5	0.00e+00	123	41	0	293601280	52	5958
2026-01-25 12:49:33.09	30.60	8.52	-38.5	-39.5	22.5	0.00e+00	121	41	0	296747008	50	5863
2026-01-25 12:49:34.10	30.70	8.58	-39.3	-40.3	21.8	0.00e+00	123	41	0	299892736	50	6491
2026-01-25 12:49:35.10	30.81	8.65	-39.3	-40.3	21.8	0.00e+00	120	41	0	303038464	50	6475
2026-01-25 12:49:36.11	30.92	8.71	-39.0	-40.0	22.1	0.00e+00	123	41	0	306184192	50	6238
2026-01-25 12:49:37.12	31.03	8.78	-39.2	-40.2	21.8	0.00e+00	120	41	0	309329920	50	6387
2026-01-25 12:49:38.13	31.13	8.84	-39.2	-40.2	21.8	0.00e+00	122	41	0	312475648	50	6383
2026-01-25 12:49:39.14	31.24	8.91	-38.8	-39.9	22.2	0.00e+00	123	41	0	315621376	50	6145
2026-01-25 12:49:40.15	31.35	8.97	-38.7	-39.7	22.3	0.00e+00	123	41	0	318767104	50	6051
2026-01-25 12:49:41.16	31.46	9.04	-38.7	-39.7	22.3	0.00e+00	122	41	0	321912832	50	6011
2026-01-25 12:49:42.17	31.57	9.10	-38.8	-39.9	22.3	0.00e+00	123	41	0	325058560	50	6142
2026-01-25 12:49:43.18	31.69	9.17	-38.7	-39.8	22.3	0.00e+00	120	41	0	328204288	50	6070
2026-01-25 12:49:44.19	31.80	9.23	-39.0	-40.1	22.1	0.00e+00	122	41	0	331350016	50	6303
2026-01-25 12:49:45.19	31.91	9.30	-38.7	-39.7	22.2	0.00e+00	122	41	0	334495744	50	6064
2026-01-25 12:49:46.20	32.02	9.36	-39.0	-40.0	22.0	0.00e+00	121	41	0	337641472	50	6257
2026-01-25 12:49:47.21	32.13	9.43	-38.6	-39.6	22.4	0.00e+00	123	41	0	340787200	50	5964
2026-01-25 12:49:48.22	32.25	9.49	-39.0	-40.0	22.1	0.00e+00	120	41	0	343932928	50	6248
2026-01-25 12:49:49.23	32.36	9.56	-38.9	-39.9	22.2	0.00e+00	123	41	0	347078656	50	6160
2026-01-25 12:49:50.24	32.48	9.62	-38.7	-39.7	22.3	0.00e+00	122	41	0	350224384	50	6056
2026-01-25 12:49:51.25	32.59	9.69	-39.2	-40.2	22.0	0.00e+00	122	41	0	353370112	50	6392
2026-01-25 12:49:52.26	32.71	9.75	-38.6	-39.6	22.4	0.00e+00	122	41	0	356515840	50	5947
2026-01-25 12:49:53.27	32.82	9.82	-38.6	-39.6	22.4	0.00e+00	123	41	0	359661568	50	5975
2026-01-25 12:49:54.28	32.94	9.89	-38.6	-39.6	22.4	0.00e+00	122	41	0	362807296	50	5964
2026-01-25 12:49:55.28	33.06	9.95	-38.9	-39.9	22.2	0.00e+00	122	41	0	365953024	50	6158
2026-01-25 12:49:56.29	33.17	10.02	-38.9	-39.9	22.2	0.00e+00	123	41	0	369098752	50	6175
2026-01-25 12:49:57.30	33.29	10.08	-38.5	-39.5	22.5	0.00e+00	123	41	0	372244480	50	5897
2026-01-25 12:49:58.31	33.41	10.15	-38.3	-39.3	22.7	0.00e+00	123	41	0	375390208	50	5777
2026-01-25 12:49:59.32	33.53	10.22	-38.3	-39.3	22.6	0.00e+00	122	41	0	378535936	50	5757
2026-01-25 12:50:00.33	33.65	10.28	-38.3	-39.4	22.7	0.00e+00	122	41	0	381681664	50	5794
2026-01-25 12:50:01.34	33.77	10.35	-38.0	-39.0	22.9	0.00e+00	126	41	0	384827392	50	5574
2026-01-25 12:50:02.35	33.89	10.42	-38.4	-39.4	22.5	0.00e+00	123	41	0	387973120	50	5829
2026-01-25 12:50:03.36	34.01	10.48	-38.2	-39.2	22.8	0.00e+00	123	41	0	391118848	50	5677
2026-01-25 12:50:04.37	34.13	10.55	-38.0	-39.0	23.0	0.00e+00	123	41	0	394264576	50	5551
2026-01-25 12:50:05.38	34.26	10.62	-38.2	-39.1	22.9	0.00e+00	123	41	0	397410304	50	5649
2026-01-25 12:50:06.39	34.38	10.68	-38.4	-39.4	22.6	0.00e+00	121	41	0	400556032	50	5827
2026-01-25 12:50:07.39	34.50	10.75	-38.1	-39.1	22.9	0.00e+00	120	41	0	403701760	50	5631
2026-01-25 12:50:08.41	34.63	10.82	-38.2	-39.1	22.9	0.00e+00	122	41	0	406847488	50	5652
2026-01-25 12:50:09.41	34.75	10.88	-38.1	-39.1	22.9	0.00e+00	120	41	0	409993216	50	5625
2026-01-25 12:50:10.42	34.87	10.95	-37.8	-38.8	23.1	0.00e+00	122	41	0	413138944	50	5442
2026-01-25 12:50:11.43	35.00	11.02	-37.7	-38.7	23.2	0.00e+00	123	41	0	416284672	48	6019
2026-01-25 12:50:12.44	35.13	11.08	-37.7	-38.7	23.2	0.00e+00	120	41	0	419430400	48	6024
2026-01-25 12:50:13.45	35.25	11.15	-37.6	-38.6	23.4	0.00e+00	123	41	0	422576128	48	5932
2026-01-25 12:50:14.46	35.38	11.22	-37.9	-38.9	23.2	0.00e+00	123	41	0	425721856	48	6141
2026-01-25 12:50:15.47	35.51	11.29	-37.8	-38.7	23.3	0.00e+00	123	41	0	428867584	48	6049
2026-01-25 12:50:16.48	35.64	11.35	-37.8	-38.8	23.2	0.00e+00	120	41	0	432013312	48	6071
2026-01-25 12:50:17.49	35.76	11.42	-37.8	-38.7	23.2	0.00e+00	120	41	0	435159040	48	6058
2026-01-25 12:50:18.50	35.89	11.49	-37.9	-38.8	23.2	0.00e+00	123	41	0	438304768	48	6108
2026-01-25 12:50:19.51	36.02	11.56	-37.8	-38.8	23.2	0.00e+00	122	41	0	441450496	48	6095
2026-01-25 12:50:20.52	36.15	11.62	-38.1	-39.0	22.9	0.00e+00	122	41	0	444596224	48	6267
2026-01-25 12:50:21.53	36.29	11.69	-38.0	-38.9	23.1	0.00e+00	123	41	0	447741952	48	6196
2026-01-25 12:50:22.53	36.42	11.76	-38.0	-38.9	23.1	0.00e+00	123	41	0	450887680	48	6202
2026-01-25 12:50:23.54	36.55	11.83	-38.1	-39.1	23.1	0.00e+00	123	41	0	454033408	48	6285
2026-01-25 12:50:24.55	36.68	11.89	-37.5	-38.4	23.5	0.00e+00	120	41	0	457179136	48	5853
2026-01-25 12:50:25.56	36.82	11.96	-37.8	-38.7	23.4	0.00e+00	122	41	0	460324864	48	6023
2026-01-25 12:50:26.57	36.95	12.03	-37.5	-38.4	23.5	0.00e+00	123	41	0	463470592	48	5838
2026-01-25 12:50:27.58	37.08	12.10	-37.7	-38.7	23.3	0.00e+00	123	42	0	466616320	48	6010
2026-01-25 12:50:28.59	37.22	12.17	-37.5	-38.4	23.5	0.00e+00	122	41	0	469762048	48	5832
2026-01-25 12:50:29.60	37.36	12.23	-37.3	-38.2	23.6	0.00e+00	120	41	0	472907776	48	5718
2026-01-25 12:50:30.61	37.49	12.30	-37.2	-38.1	23.7	0.00e+00	121	41	0	476053504	48	5640
2026-01-25 12:50:31.61	37.63	12.37	-37.5	-38.4	23.5	0.00e+00	123	42	0	480247808	48	5834
2026-01-25 12:50:32.62	37.77	12.44	-37.4	-38.3	23.6	0.00e+00	122	41	0	482344960	48	5784
2026-01-25 12:50:33.63	37.90	12.51	-37.3	-38.2	23.6	0.00e+00	123	42	0	485490688	48	5698
2026-01-25 12:50:34.64	38.04	12.58	-37.6	-38.6	23.5	0.00e+00	123	42	0	488636416	48	5956
2026-01-25 12:50:35.65	38.18	12.64	-37.6	-38.6	23.4	0.00e+00	122	42	0	491782144	48	5958
2026-01-25 12:50:36.66	38.32	12.71	-37.6	-38.5	23.4	0.00e+00	122	42	0	495976448	48	5921
2026-01-25 12:50:37.67	38.46	12.78	-37.3	-38.2	23.7	0.00e+00	123	42	0	499122176	48	5714
2026-01-25 12:50:38.68	38.61	12.85	-37.2	-38.2	23.7	0.00e+00	123	42	0	502267904	48	5664
2026-01-25 12:50:39.69	38.75	12.92	-37.2	-38.2	23.7	0.00e+00	123	41	0	505413632	48	5676
2026-01-25 12:50:40.70	38.89	12.99	-37.6	-38.5	23.4	0.00e+00	123	42	0	507510784	48	5896
2026-01-25 12:50:41.71	39.03	13.06	-37.8	-38.7	23.3	0.00e+00	123	42	0	510656512	48	6059
2026-01-25 12:50:42.72	39.18	13.12	-37.7	-38.7	23.4	0.00e+00	123	42	0	514850816	48	6006
2026-01-25 12:50:43.73	39.32	13.19	-37.8	-38.8	23.2	0.00e+00	122	42	0	517996544	48	6087
2026-01-25 12:50:44.73	39.47	13.26	-37.9	-38.9	23.2	0.00e+00	122	42	0	521142272	48	6145
2026-01-25 12:50:45.74	39.61	13.33	-38.1	-39.1	22.9	0.00e+00	123	42	0	524288000	48	6328
2026-01-25 12:50:46.75	39.76	13.40	-38.1	-39.1	23.0	0.00e+00	122	41	0	527433728	48	6294
2026-01-25 12:50:47.76	39.91	13.47	-37.7	-38.6	23.4	0.00e+00	124	42	0	530579456	48	5970
2026-01-25 12:50:48.77	40.06	13.54	-37.4	-38.4	23.6	0.00e+00	122	41	0	533725184	48	5797
2026-01-25 12:50:49.78	40.20	13.61	-37.3	-38.2	23.7	0.00e+00	123	42	0	536870912	48	5686
2026-01-25 12:50:50.79	40.35	13.67	-37.3	-38.3	23.7	0.00e+00	123	41	0	540016640	48	5748
2026-01-25 12:50:51.80	40.50	13.74	-37.4	-38.4	23.6	0.00e+00	123	41	0	543162368	48	5794
2026-01-25 12:50:52.81	40.65	13.81	-37.4	-38.3	23.6	0.00e+00	120	42	0	546308096	48	5785
2026-01-25 12:50:53.81	40.80	13.88	-37.5	-38.4	23.5	0.00e+00	123	42	0	549453824	48	5828
2026-01-25 12:50:54.82	40.96	13.95	-37.3	-38.3	23.7	0.00e+00	122	41	0	552599552	48	5747
2026-01-25 12:50:55.83	41.11	14.02	-37.3	-38.2	23.6	0.00e+00	122	42	0	555745280	48	5719
2026-01-25 12:50:56.84	41.26	14.09	-37.4	-38.3	23.7	0.00e+00	122	42	0	558891008	48	5761
2026-01-25 12:50:57.86	41.42	14.16	-37.2	-38.1	23.7	0.00e+00	127	42	0	562036736	48	5654
2026-01-25 12:50:58.86	41.57	14.23	-37.1	-38.1	23.8	0.00e+00	122	42	0	565182464	48	5605
2026-01-25 12:50:59.87	41.73	14.29	-37.2	-38.2	23.8	0.00e+00	120	42	0	568328192	48	5673
2026-01-25 12:51:00.88	41.88	14.36	-37.4	-38.3	23.7	0.00e+00	122	42	0	571473920	48	5765
2026-01-25 12:51:01.89	42.04	14.43	-37.2	-38.1	23.7	0.00e+00	123	42	0	574619648	48	5615
2026-01-25 12:51:02.90	42.20	14.50	-37.2	-38.1	23.7	0.00e+00	123	42	0	577765376	48	5639
2026-01-25 12:51:03.91	42.36	14.57	-37.2	-38.2	23.8	0.00e+00	122	41	0	580911104	48	5662
2026-01-25 12:51:04.92	42.52	14.64	-37.2	-38.1	23.8	0.00e+00	120	42	0	584056832	48	5633
2026-01-25 12:51:05.93	42.68	14.71	-37.2	-38.1	23.7	0.00e+00	123	41	0	587202560	48	5644
2026-01-25 12:51:06.94	42.84	14.78	-37.1	-38.0	23.8	0.00e+00	123	41	0	590348288	48	5575
2026-01-25 12:51:07.95	43.00	14.85	-37.2	-38.1	23.8	0.00e+00	123	41	0	593494016	48	5621
2026-01-25 12:51:08.96	43.16	14.92	-37.0	-37.9	23.9	0.00e+00	121	42	0	596639744	48	5492
2026-01-25 12:51:09.97	43.32	14.98	-37.0	-37.9	24.0	0.00e+00	122	42	0	599785472	48	5485
2026-01-25 12:51:10.98	43.49	15.05	-37.2	-38.1	23.8	0.00e+00	123	42	0	602931200	48	5601
2026-01-25 12:51:11.99	43.65	15.12	-37.1	-38.0	23.9	0.00e+00	123	42	0	606076928	48	5571
2026-01-25 12:51:12.99	43.81	15.19	-37.1	-38.1	23.9	0.00e+00	121	42	0	609222656	48	5603
2026-01-25 12:51:14.00	43.98	15.26	-37.1	-38.0	23.9	0.00e+00	123	42	0	612368384	48	5576
2026-01-25 12:51:15.01	44.14	15.33	-37.2	-38.1	23.9	0.00e+00	123	42	0	615514112	48	5609
2026-01-25 12:51:16.02	44.31	15.40	-37.1	-38.0	23.9	0.00e+00	123	42	0	618659840	48	5537
2026-01-25 12:51:17.03	44.48	15.47	-37.2	-38.1	23.8	0.00e+00	121	42	0	621805568	48	5626
2026-01-25 12:51:18.04	44.65	15.54	-36.9	-37.8	23.9	0.00e+00	123	41	0	624951296	48	5426
2026-01-25 12:51:19.05	44.82	15.60	-36.9	-37.8	23.9	0.00e+00	122	42	0	628097024	48	5447
2026-01-25 12:51:20.06	44.99	15.67	-36.9	-37.8	24.0	0.00e+00	123	42	0	631242752	48	5459
2026-01-25 12:51:21.07	45.16	15.74	-36.9	-37.9	24.0	0.00e+00	123	42	0	634388480	48	5471
2026-01-25 12:51:22.08	45.33	15.81	-36.9	-37.8	24.0	0.00e+00	122	42	0	637534208	48	5454
2026-01-25 12:51:23.09	45.50	15.88	-36.9	-37.8	24.0	0.00e+00	123	42	0	640679936	48	5432
2026-01-25 12:51:24.10	45.68	15.95	-36.8	-37.7	24.1	0.00e+00	120	42	0	643825664	48	5378
2026-01-25 12:51:25.11	45.85	16.02	-36.8	-37.7	24.1	0.00e+00	123	42	0	646971392	46	6050
2026-01-25 12:51:26.11	46.02	16.08	-36.7	-37.6	24.1	0.00e+00	123	41	0	650117120	46	5974
2026-01-25 12:51:27.12	46.20	16.15	-36.8	-37.7	24.1	0.00e+00	122	41	0	653262848	46	6027
2026-01-25 12:51:28.14	46.38	16.22	-36.8	-37.7	24.2	0.00e+00	120	42	0	656408576	46	6046
2026-01-25 12:51:29.15	46.55	16.29	-36.8	-37.7	24.2	0.00e+00	122	42	0	659554304	46	6029
2026-01-25 12:51:30.15	46.73	16.36	-37.0	-37.9	24.0	0.00e+00	123	42	0	662700032	46	6152
2026-01-25 12:51:31.16	46.91	16.42	-36.9	-37.8	24.1	0.00e+00	122	42	0	665845760	46	6101
2026-01-25 12:51:32.17	47.09	16.49	-36.9	-37.8	24.0	0.00e+00	122	42	0	668991488	46	6107
2026-01-25 12:51:33.18	47.27	16.56	-36.9	-37.8	24.0	0.00e+00	123	42	0	672137216	46	6124
2026-01-25 12:51:34.19	47.45	16.63	-37.0	-37.9	24.0	0.00e+00	120	42	0	675282944	46	6154
2026-01-25 12:51:35.20	47.63	16.70	-37.1	-38.0	23.9	0.00e+00	123	42	0	678428672	46	6234
2026-01-25 12:51:36.21	47.81	16.76	-37.0	-37.9	24.0	0.00e+00	122	42	0	681574400	46	6155
2026-01-25 12:51:37.22	48.00	16.83	-37.1	-38.0	24.0	0.00e+00	122	42	0	684720128	46	6217
2026-01-25 12:51:38.23	48.18	16.90	-37.1	-38.0	23.9	0.00e+00	122	42	0	687865856	46	6216
2026-01-25 12:51:39.24	48.37	16.97	-36.9	-37.8	24.1	0.00e+00	122	42	0	691011584	46	6099
2026-01-25 12:51:40.25	48.55	17.03	-37.0	-37.9	24.0	0.00e+00	123	42	0	694157312	46	6200
2026-01-25 12:51:41.26	48.74	17.10	-37.1	-38.0	23.9	0.00e+00	122	42	0	697303040	46	6240
2026-01-25 12:51:42.27	48.93	17.17	-37.0	-37.9	24.0	0.00e+00	122	42	0	700448768	46	6175
2026-01-25 12:51:43.28	49.12	17.24	-37.1	-38.0	23.9	0.00e+00	123	42	0	703594496	46	6228
2026-01-25 12:51:44.29	49.30	17.30	-37.0	-38.0	24.0	0.00e+00	123	42	0	706740224	46	6206
2026-01-25 12:51:45.29	49.49	17.37	-37.1	-38.1	23.9	0.00e+00	122	42	0	709885952	46	6287
2026-01-25 12:51:46.30	49.68	17.44	-37.0	-38.0	24.0	0.00e+00	123	42	0	713031680	46	6209
2026-01-25 12:51:47.31	49.88	17.50	-37.0	-37.9	24.0	0.00e+00	121	41	0	716177408	46	6183
2026-01-25 12:51:48.32	50.07	17.57	-37.1	-38.1	24.0	0.00e+00	121	42	0	719323136	46	6279
2026-01-25 12:51:49.33	50.26	17.63	-37.1	-38.0	24.0	0.00e+00	123	42	0	722468864	46	6240
2026-01-25 12:51:50.34	50.45	17.70	-37.1	-38.0	24.0	0.00e+00	122	42	0	725614592	46	6245
2026-01-25 12:51:51.35	50.65	17.77	-37.1	-38.0	24.1	0.00e+00	122	42	0	728760320	46	6221
2026-01-25 12:51:52.36	50.85	17.83	-36.9	-37.8	24.1	0.00e+00	120	42	0	731906048	46	6089
2026-01-25 12:51:53.37	51.04	17.90	-36.8	-37.7	24.2	0.00e+00	123	42	0	735051776	46	6001
2026-01-25 12:51:54.38	51.24	17.96	-36.8	-37.7	24.2	0.00e+00	123	42	0	738197504	46	6002
2026-01-25 12:51:55.39	51.44	18.03	-36.8	-37.7	24.2	0.00e+00	123	42	0	741343232	46	6045
2026-01-25 12:51:56.39	51.63	18.09	-36.9	-37.8	24.2	0.00e+00	123	42	0	744488960	46	6090
2026-01-25 12:51:57.40	51.83	18.16	-36.9	-37.9	24.1	0.00e+00	122	42	0	747634688	46	6139
2026-01-25 12:51:58.41	52.04	18.23	-37.0	-37.9	24.0	0.00e+00	122	42	0	750780416	46	6151
2026-01-25 12:51:59.42	52.24	18.29	-37.2	-38.1	23.9	0.00e+00	123	42	0	753926144	46	6319
2026-01-25 12:52:00.43	52.44	18.35	-37.2	-38.1	23.9	0.00e+00	123	42	0	757071872	46	6317
2026-01-25 12:52:01.44	52.64	18.42	-37.3	-38.2	23.8	0.00e+00	123	42	0	760217600	46	6379
2026-01-25 12:52:02.45	52.85	18.48	-37.4	-38.3	23.7	0.00e+00	121	42	0	763363328	46	6461
2026-01-25 12:52:03.46	53.05	18.55	-37.2	-38.1	23.8	0.00e+00	123	42	0	766509056	46	6336
2026-01-25 12:52:04.47	53.26	18.61	-37.3	-38.2	23.7	0.00e+00	123	42	0	769654784	46	6420
2026-01-25 12:52:05.48	53.46	18.68	-37.3	-38.3	23.7	0.00e+00	123	42	0	772800512	46	6434
2026-01-25 12:52:06.49	53.67	18.74	-37.3	-38.2	23.9	0.00e+00	122	42	0	775946240	46	6395
2026-01-25 12:52:07.50	53.88	18.80	-37.4	-38.3	23.7	0.00e+00	122	42	0	779091968	46	6488
2026-01-25 12:52:08.51	54.09	18.87	-37.0	-37.9	24.1	0.00e+00	123	42	0	782237696	46	6198
2026-01-25 12:52:09.52	54.30	18.93	-37.0	-37.9	24.1	0.00e+00	122	42	0	785383424	46	6199
2026-01-25 12:52:10.53	54.51	18.99	-37.0	-37.9	24.0	0.00e+00	122	42	0	788529152	46	6205
2026-01-25 12:52:11.54	54.72	19.05	-37.1	-38.0	24.0	0.00e+00	121	42	0	791674880	46	6232
2026-01-25 12:52:12.55	54.93	19.12	-37.2	-38.1	23.7	0.00e+00	123	42	0	794820608	46	6331
2026-01-25 12:52:13.56	55.15	19.18	-37.4	-38.3	23.7	0.00e+00	123	42	0	797966336	46	6457
2026-01-25 12:52:14.57	55.36	19.24	-37.2	-38.1	23.7	0.00e+00	122	42	0	801112064	46	6346
2026-01-25 12:52:15.58	55.58	19.30	-37.4	-38.3	23.6	0.00e+00	123	42	0	804257792	46	6496
2026-01-25 12:52:16.59	55.79	19.36	-37.3	-38.3	23.5	0.00e+00	120	42	0	807403520	46	6429
2026-01-25 12:52:17.60	56.01	19.42	-37.2	-38.2	23.7	0.00e+00	122	42	0	810549248	46	6362
2026-01-25 12:52:18.61	56.23	19.49	-37.0	-37.9	24.0	0.00e+00	123	42	0	813694976	46	6192
2026-01-25 12:52:19.62	56.45	19.55	-37.1	-38.0	23.9	0.00e+00	122	42	0	816840704	46	6262
2026-01-25 12:52:20.63	56.67	19.61	-37.0	-37.9	24.1	0.00e+00	123	42	0	819986432	46	6154
2026-01-25 12:52:21.64	56.89	19.67	-36.8	-37.7	24.3	0.00e+00	123	42	0	823132160	46	6049
2026-01-25 12:52:22.65	57.11	19.73	-36.9	-37.8	24.1	0.00e+00	122	42	0	826277888	46	6110
2026-01-25 12:52:23.66	57.33	19.79	-37.0	-37.9	24.1	0.00e+00	124	42	0	829423616	46	6205
2026-01-25 12:52:24.67	57.55	19.85	-37.1	-38.0	23.9	0.00e+00	122	42	0	832569344	46	6245
2026-01-25 12:52:25.68	57.78	19.90	-37.1	-38.0	23.8	0.00e+00	122	42	0	835715072	46	6253
2026-01-25 12:52:26.69	58.00	19.96	-37.0	-37.9	23.9	0.00e+00	123	42	0	838860800	46	6191
2026-01-25 12:52:27.70	58.23	20.02	-36.9	-37.8	23.9	0.00e+00	123	42	0	842006528	46	6132
2026-01-25 12:52:28.71	58.45	20.08	-37.0	-37.9	23.9	0.00e+00	122	42	0	846200832	46	6165
2026-01-25 12:52:29.72	58.68	20.14	-36.9	-37.9	24.0	0.00e+00	123	42	0	848297984	46	6135
2026-01-25 12:52:30.73	58.91	20.19	-37.1	-38.0	24.0	0.00e+00	122	42	0	851443712	46	6251
2026-01-25 12:52:31.73	59.13	20.25	-36.9	-37.8	24.1	0.00e+00	120	42	0	854589440	46	6118
2026-01-25 12:52:32.74	59.36	20.31	-36.8	-37.7	24.2	0.00e+00	123	42	0	857735168	46	6058
2026-01-25 12:52:33.75	59.59	20.36	-36.9	-37.8	24.2	0.00e+00	121	42	0	860880896	46	6096
2026-01-25 12:52:34.76	59.82	20.42	-36.9	-37.8	24.3	0.00e+00	123	42	0	865075200	46	6076
2026-01-25 12:52:35.77	60.06	20.48	-36.7	-37.6	24.3	0.00e+00	122	42	0	868220928	46	5953
2026-01-25 12:52:36.78	60.29	20.53	-36.7	-37.6	24.3	0.00e+00	123	42	0	870318080	46	5959
2026-01-25 12:52:37.79	60.52	20.59	-36.8	-37.7	24.1	0.00e+00	122	42	0	873463808	46	6061
2026-01-25 12:52:38.80	60.76	20.64	-36.7	-37.6	24.3	0.00e+00	122	42	0	876609536	46	5966
2026-01-25 12:52:39.81	60.99	20.70	-36.8	-37.7	24.2	0.00e+00	122	42	0	880803840	46	6033
2026-01-25 12:52:40.82	61.23	20.75	-36.8	-37.7	24.2	0.00e+00	122	42	0	883949568	46	6042
2026-01-25 12:52:41.83	61.47	20.81	-36.7	-37.6	24.2	0.00e+00	120	42	0	887095296	46	5981
2026-01-25 12:52:42.84	61.70	20.86	-36.5	-37.5	24.5	0.00e+00	123	42	0	890241024	46	5871
2026-01-25 12:52:43.85	61.94	20.91	-36.5	-37.4	24.5	0.00e+00	122	42	0	893386752	46	5819
2026-01-25 12:52:44.85	62.18	20.96	-36.4	-37.3	24.5	0.00e+00	122	42	0	895483904	46	5753
2026-01-25 12:52:45.86	62.42	21.02	-36.5	-37.4	24.4	0.00e+00	120	42	0	899678208	46	5854
2026-01-25 12:52:46.87	62.66	21.07	-36.6	-37.5	24.3	0.00e+00	122	42	0	902823936	46	5914
2026-01-25 12:52:47.88	62.90	21.12	-36.5	-37.4	24.4	0.00e+00	122	42	0	905969664	46	5844
2026-01-25 12:52:48.89	63.14	21.17	-36.6	-37.5	24.4	0.00e+00	120	42	0	909115392	46	5891
2026-01-25 12:52:49.90	63.39	21.22	-36.4	-37.3	24.5	0.00e+00	123	42	0	912261120	46	5784
2026-01-25 12:52:50.91	63.63	21.27	-36.4	-37.3	24.5	0.00e+00	120	42	0	915406848	46	5785
2026-01-25 12:52:51.92	63.88	21.32	-36.5	-37.4	24.4	0.00e+00	122	42	0	918552576	46	5817
2026-01-25 12:52:52.93	64.12	21.37	-36.4	-37.3	24.5	0.00e+00	123	42	0	921698304	46	5750
2026-01-25 12:52:53.94	64.37	21.42	-36.4	-37.2	24.6	0.00e+00	122	42	0	924844032	46	5713
2026-01-25 12:52:54.95	64.62	21.47	-36.3	-37.2	24.6	0.00e+00	123	42	0	927989760	46	5710
2026-01-25 12:52:55.96	64.86	21.52	-36.4	-37.3	24.4	0.00e+00	122	42	0	931135488	46	5773
2026-01-25 12:52:56.97	65.11	21.56	-36.7	-37.6	24.2	0.00e+00	122	42	0	934281216	46	5971
2026-01-25 12:52:57.98	65.36	21.61	-36.9	-37.8	24.1	0.00e+00	123	42	0	937426944	46	6074
2026-01-25 12:52:58.99	65.61	21.66	-36.9	-37.8	24.1	0.00e+00	123	42	0	940572672	46	6091
2026-01-25 12:53:00.00	65.86	21.70	-36.9	-37.8	24.2	0.00e+00	122	42	0	943718400	46	6074
2026-01-25 12:53:01.01	66.11	21.75	-36.8	-37.7	24.2	0.00e+00	122	42	0	946864128	46	6015
2026-01-25 12:53:02.02	66.37	21.79	-36.5	-37.3	24.6	0.00e+00	122	42	0	950009856	46	5784
2026-01-25 12:53:03.03	66.62	21.84	-36.4	-37.3	24.4	0.00e+00	120	42	0	953155584	46	5757
2026-01-25 12:53:04.04	66.87	21.88	-36.3	-37.1	24.6	0.00e+00	121	42	0	956301312	46	5651
2026-01-25 12:53:05.05	67.13	21.93	-36.2	-37.1	24.6	0.00e+00	123	42	0	959447040	46	5637
2026-01-25 12:53:06.07	67.39	21.97	-36.4	-37.3	24.5	0.00e+00	123	42	0	962592768	46	5745
2026-01-25 12:53:07.07	67.64	22.01	-36.5	-37.4	24.4	0.00e+00	123	42	0	965738496	46	5823
2026-01-25 12:53:08.08	67.90	22.06	-36.6	-37.5	24.4	0.00e+00	123	42	0	968884224	46	5878
2026-01-25 12:53:09.09	68.15	22.10	-36.6	-37.5	24.4	0.00e+00	123	42	0	972029952	46	5898
2026-01-25 12:53:10.10	68.41	22.14	-36.7	-37.6	24.3	0.00e+00	123	42	0	975175680	46	5940
2026-01-25 12:53:11.11	68.67	22.18	-36.5	-37.4	24.5	0.00e+00	120	42	0	978321408	46	5828
2026-01-25 12:53:12.12	68.93	22.22	-36.4	-37.2	24.5	0.00e+00	123	42	0	981467136	46	5718
2026-01-25 12:53:13.13	69.19	22.26	-36.5	-37.4	24.4	0.00e+00	122	42	0	984612864	46	5824
2026-01-25 12:53:14.14	69.45	22.30	-36.5	-37.4	24.4	0.00e+00	122	42	0	987758592	46	5800
2026-01-25 12:53:15.15	69.71	22.34	-36.3	-37.2	24.5	0.00e+00	123	42	0	990904320	46	5710
2026-01-25 12:53:16.16	69.97	22.38	-36.4	-37.4	24.3	0.00e+00	120	42	0	994050048	46	5796
2026-01-25 12:53:17.17	70.24	22.41	-36.5	-37.4	24.3	0.00e+00	123	42	0	997195776	46	5799
2026-01-25 12:53:18.18	70.50	22.45	-36.4	-37.3	24.4	0.00e+00	123	42	0	1000341504	46	5758
2026-01-25 12:53:19.19	70.76	22.49	-36.4	-37.3	24.5	0.00e+00	123	42	0	1003487232	46	5729
2026-01-25 12:53:20.20	71.03	22.52	-36.4	-37.3	24.6	0.00e+00	121	42	0	1006632960	46	5754
2026-01-25 12:53:21.21	71.29	22.56	-36.2	-37.1	24.5	0.00e+00	120	42	0	1009778688	46	5638
2026-01-25 12:53:22.22	71.56	22.59	-36.2	-37.1	24.4	0.00e+00	122	42	0	1012924416	46	5651
2026-01-25 12:53:23.23	71.82	22.63	-36.4	-37.3	24.2	0.00e+00	122	42	0	1016070144	46	5735
2026-01-25 12:53:24.24	72.09	22.66	-36.6	-37.5	24.2	0.00e+00	120	42	0	1019215872	46	5875
2026-01-25 12:53:25.25	72.36	22.70	-36.4	-37.3	24.3	0.00e+00	122	42	0	1022361600	46	5791
2026-01-25 12:53:26.26	72.63	22.73	-36.3	-37.2	24.4	0.00e+00	122	42	0	1025507328	46	5718
2026-01-25 12:53:27.27	72.89	22.76	-36.3	-37.2	24.5	0.00e+00	120	42	0	1028653056	46	5686
2026-01-25 12:53:28.28	73.16	22.79	-36.5	-37.4	24.3	0.00e+00	122	42	0	1031798784	46	5825
2026-01-25 12:53:29.29	73.43	22.82	-36.6	-37.5	24.3	0.00e+00	122	42	0	1034944512	46	5899
2026-01-25 12:53:30.30	73.70	22.85	-36.4	-37.3	24.5	0.00e+00	122	42	0	1038090240	46	5761
2026-01-25 12:53:31.31	73.97	22.88	-36.4	-37.3	24.5	0.00e+00	123	42	0	1041235968	46	5731
2026-01-25 12:53:32.32	74.25	22.91	-36.4	-37.3	24.4	0.00e+00	122	42	0	1044381696	46	5764
2026-01-25 12:53:33.33	74.52	22.94	-36.5	-37.4	24.4	0.00e+00	120	42	0	1047527424	46	5840
2026-01-25 12:53:34.34	74.79	22.97	-36.6	-37.6	24.3	0.00e+00	123	42	0	1050673152	46	5929
2026-01-25 12:53:35.35	75.06	22.99	-36.4	-37.3	24.4	0.00e+00	122	42	0	1053818880	46	5750
2026-01-25 12:53:36.36	75.33	23.02	-36.3	-37.2	24.5	0.00e+00	122	42	0	1056964608	46	5715
2026-01-25 12:53:37.37	75.61	23.05	-36.1	-37.0	24.7	0.00e+00	123	42	0	1060110336	46	5552
2026-01-25 12:53:38.38	75.88	23.07	-36.0	-36.9	24.7	0.00e+00	122	42	0	1063256064	46	5510
2026-01-25 12:53:39.39	76.16	23.09	-36.1	-36.9	24.7	0.00e+00	121	42	0	1066401792	46	5519
2026-01-25 12:53:40.40	76.43	23.12	-36.0	-36.9	24.8	0.00e+00	123	42	0	1069547520	46	5499
2026-01-25 12:53:41.41	76.71	23.14	-36.0	-36.9	24.8	0.00e+00	123	42	0	1072693248	46	5499
2026-01-25 12:53:42.42	76.98	23.16	-36.1	-36.9	24.7	0.00e+00	123	42	0	1075838976	46	5521
2026-01-25 12:53:43.43	77.26	23.19	-36.1	-37.0	24.6	0.00e+00	123	42	0	1078984704	46	5592
2026-01-25 12:53:44.44	77.53	23.21	-36.2	-37.1	24.6	0.00e+00	123	42	0	1082130432	46	5613
2026-01-25 12:53:45.45	77.81	23.23	-36.3	-37.2	24.5	0.00e+00	123	42	0	1085276160	46	5713
2026-01-25 12:53:46.46	78.09	23.25	-36.4	-37.3	24.4	0.00e+00	122	42	0	1088421888	46	5783
2026-01-25 12:53:47.47	78.36	23.27	-36.4	-37.3	24.5	0.00e+00	123	42	0	1091567616	46	5770
2026-01-25 12:53:48.48	78.64	23.29	-36.4	-37.4	24.5	0.00e+00	123	42	0	1094713344	46	5801
2026-01-25 12:53:49.49	78.92	23.30	-36.4	-37.3	24.6	0.00e+00	122	42	0	1097859072	46	5748
2026-01-25 12:53:50.50	79.20	23.32	-36.4	-37.3	24.5	0.00e+00	123	42	0	1101004800	46	5739
2026-01-25 12:53:51.51	79.48	23.34	-36.2	-37.1	24.6	0.00e+00	123	42	0	1104150528	46	5605
2026-01-25 12:53:52.52	79.76	23.35	-36.2	-37.1	24.5	0.00e+00	122	42	0	1107296256	46	5619
2026-01-25 12:53:53.53	80.04	23.37	-36.4	-37.3	24.5	0.00e+00	123	42	0	1110441984	46	5732
2026-01-25 12:53:54.55	80.32	23.38	-36.5	-37.4	24.4	0.00e+00	120	42	0	1113587712	46	5824
2026-01-25 12:53:55.56	80.60	23.40	-36.4	-37.4	24.5	0.00e+00	123	42	0	1116733440	46	5799
2026-01-25 12:53:56.56	80.88	23.41	-36.5	-37.4	24.4	0.00e+00	122	42	0	1119879168	46	5857
2026-01-25 12:53:57.57	81.16	23.42	-36.4	-37.2	24.6	0.00e+00	120	42	0	1123024896	46	5722
2026-01-25 12:53:58.58	81.44	23.43	-36.3	-37.2	24.5	0.00e+00	123	42	0	1126170624	46	5718
2026-01-25 12:53:59.59	81.72	23.44	-36.4	-37.4	24.5	0.00e+00	122	42	0	1129316352	46	5799
2026-01-25 12:54:00.60	82.00	23.45	-36.5	-37.4	24.4	0.00e+00	123	42	0	1132462080	46	5824
2026-01-25 12:54:01.61	82.28	23.46	-36.4	-37.3	24.5	0.00e+00	122	42	0	1135607808	46	5757
2026-01-25 12:54:02.62	82.56	23.47	-36.4	-37.3	24.6	0.00e+00	123	42	0	1138753536	46	5782
2026-01-25 12:54:03.63	82.84	23.48	-36.3	-37.2	24.6	0.00e+00	123	42	0	1141899264	46	5676
2026-01-25 12:54:04.64	83.12	23.49	-36.2	-37.1	24.7	0.00e+00	120	42	0	1145044992	46	5613
2026-01-25 12:54:05.65	83.40	23.50	-36.3	-37.1	24.7	0.00e+00	120	42	0	1148190720	46	5649
2026-01-25 12:54:06.66	83.69	23.50	-36.2	-37.0	24.7	0.00e+00	123	42	0	1151336448	46	5592
2026-01-25 12:54:07.67	83.97	23.51	-36.2	-37.1	24.7	0.00e+00	120	42	0	1154482176	46	5645
2026-01-25 12:54:08.68	84.25	23.51	-36.3	-37.2	24.5	0.00e+00	123	42	0	1157627904	46	5716
2026-01-25 12:54:09.69	84.53	23.52	-36.3	-37.2	24.7	0.00e+00	122	42	0	1160773632	46	5687
2026-01-25 12:54:10.70	84.81	23.52	-36.3	-37.2	24.7	0.00e+00	123	42	0	1163919360	46	5678
2026-01-25 12:54:11.72	85.10	23.52	-36.2	-37.1	24.6	0.00e+00	123	42	0	1167065088	46	5602
2026-01-25 12:54:12.73	85.38	23.52	-36.3	-37.2	24.5	0.00e+00	123	42	0	1170210816	46	5716
2026-01-25 12:54:13.74	85.66	23.52	-36.3	-37.2	24.5	0.00e+00	120	42	0	1173356544	46	5715
2026-01-25 12:54:14.75	85.95	23.52	-36.5	-37.4	24.4	0.00e+00	122	42	0	1176502272	46	5820
2026-01-25 12:54:15.76	86.23	23.52	-36.6	-37.5	24.4	0.00e+00	122	42	0	1180696576	46	5907
2026-01-25 12:54:16.77	86.51	23.52	-36.4	-37.3	24.5	0.00e+00	123	42	0	1183842304	46	5765
2026-01-25 12:54:17.78	86.79	23.52	-36.4	-37.3	24.5	0.00e+00	120	42	0	1185939456	46	5751
2026-01-25 12:54:18.79	87.07	23.52	-36.5	-37.5	24.4	0.00e+00	123	42	0	1189085184	46	5861
2026-01-25 12:54:19.80	87.36	23.52	-36.2	-37.1	24.7	0.00e+00	120	42	0	1192230912	46	5617
2026-01-25 12:54:20.81	87.64	23.51	-36.5	-37.5	24.4	0.00e+00	122	42	0	1196425216	46	5868
2026-01-25 12:54:21.82	87.92	23.51	-36.3	-37.2	24.5	0.00e+00	120	42	0	1199570944	46	5716
2026-01-25 12:54:22.83	88.20	23.50	-36.2	-37.1	24.5	0.00e+00	123	42	0	1202716672	46	5633
2026-01-25 12:54:23.84	88.48	23.50	-36.2	-37.0	24.5	0.00e+00	123	42	0	1205862400	46	5590
2026-01-25 12:54:24.85	88.77	23.49	-36.2	-37.0	24.6	0.00e+00	123	42	0	1209008128	46	5590
2026-01-25 12:54:25.86	89.05	23.48	-36.2	-37.1	24.5	0.00e+00	122	42	0	1212153856	46	5605
2026-01-25 12:54:26.87	89.33	23.47	-36.0	-36.9	24.6	0.00e+00	123	42	0	1215299584	46	5522
2026-01-25 12:54:27.88	89.61	23.46	-36.0	-36.8	24.6	0.00e+00	121	42	0	1218445312	46	5465
2026-01-25 12:54:28.89	89.89	23.46	-35.9	-36.7	24.8	0.00e+00	120	42	0	1221591040	46	5387
2026-01-25 12:54:29.90	90.17	23.45	-36.0	-36.8	24.8	0.00e+00	123	42	0	1224736768	46	5462
2026-01-25 12:54:30.91	90.45	23.43	-36.1	-36.9	24.7	0.00e+00	121	42	0	1227882496	46	5525
2026-01-25 12:54:31.92	90.73	23.42	-36.0	-36.8	24.8	0.00e+00	123	42	0	1231028224	46	5451
2026-01-25 12:54:32.93	91.01	23.41	-36.0	-36.9	24.8	0.00e+00	123	42	0	1234173952	46	5481
2026-01-25 12:54:33.93	91.29	23.40	-35.9	-36.8	24.8	0.00e+00	123	42	0	1237319680	46	5410
2026-01-25 12:54:34.94	91.57	23.38	-36.0	-36.9	24.7	0.00e+00	121	42	0	1240465408	46	5472
2026-01-25 12:54:35.95	91.85	23.37	-35.9	-36.8	24.9	0.00e+00	123	42	0	1243611136	46	5410
2026-01-25 12:54:36.96	92.13	23.35	-35.8	-36.7	25.0	0.00e+00	120	42	0	1246756864	46	5361
2026-01-25 12:54:37.97	92.41	23.34	-35.7	-36.6	24.9	0.00e+00	122	42	0	1249902592	44	5961
2026-01-25 12:54:38.98	92.69	23.32	-35.7	-36.6	24.9	0.00e+00	120	42	0	1253048320	44	5946
2026-01-25 12:54:39.99	92.97	23.31	-35.8	-36.6	24.9	0.00e+00	123	42	0	1256194048	44	5981
2026-01-25 12:54:41.00	93.25	23.29	-35.7	-36.6	24.9	0.00e+00	123	42	0	1259339776	44	5972
2026-01-25 12:54:42.01	93.53	23.27	-35.9	-36.8	24.7	0.00e+00	123	42	0	1262485504	44	6092
2026-01-25 12:54:43.02	93.80	23.25	-36.0	-36.8	24.8	0.00e+00	122	42	0	1265631232	44	6123
2026-01-25 12:54:44.03	94.08	23.23	-35.8	-36.7	24.9	0.00e+00	123	42	0	1268776960	44	5997
2026-01-25 12:54:45.05	94.36	23.21	-35.8	-36.6	24.9	0.00e+00	122	42	0	1271922688	44	5973
2026-01-25 12:54:46.06	94.64	23.19	-35.9	-36.8	24.8	0.00e+00	120	42	0	1275068416	44	6091
2026-01-25 12:54:47.07	94.91	23.17	-35.9	-36.8	24.8	0.00e+00	123	42	0	1278214144	44	6122
2026-01-25 12:54:48.08	95.19	23.14	-36.0	-36.9	24.7	0.00e+00	123	42	0	1281359872	44	6174
2026-01-25 12:54:49.08	95.46	23.12	-36.1	-37.0	24.7	0.00e+00	123	42	0	1284505600	44	6244
2026-01-25 12:54:50.09	95.74	23.10	-36.1	-37.0	24.7	0.00e+00	123	42	0	1287651328	44	6252
2026-01-25 12:54:51.10	96.01	23.07	-36.3	-37.2	24.6	0.00e+00	123	42	0	1290797056	44	6351
2026-01-25 12:54:52.11	96.29	23.05	-36.2	-37.0	24.7	0.00e+00	123	42	0	1293942784	44	6272
2026-01-25 12:54:53.12	96.56	23.02	-36.0	-36.9	24.8	0.00e+00	122	42	0	1297088512	44	6136
2026-01-25 12:54:54.13	96.83	23.00	-36.1	-37.0	24.7	0.00e+00	122	42	0	1300234240	44	6242
2026-01-25 12:54:55.14	97.11	22.97	-36.1	-37.0	24.7	0.00e+00	122	42	0	1303379968	44	6256
2026-01-25 12:54:56.15	97.38	22.94	-36.3	-37.2	24.6	0.00e+00	122	42	0	1306525696	44	6396
2026-01-25 12:54:57.16	97.65	22.91	-36.3	-37.2	24.6	0.00e+00	123	42	0	1309671424	44	6352
2026-01-25 12:54:58.17	97.92	22.88	-36.3	-37.2	24.6	0.00e+00	123	42	0	1312817152	44	6417
2026-01-25 12:54:59.18	98.20	22.85	-36.3	-37.2	24.6	0.00e+00	120	42	0	1315962880	44	6369
2026-01-25 12:55:00.19	98.47	22.82	-36.3	-37.2	24.6	0.00e+00	123	42	0	1319108608	44	6373
2026-01-25 12:55:01.20	98.74	22.79	-36.2	-37.1	24.6	0.00e+00	123	42	0	1322254336	44	6333
2026-01-25 12:55:02.21	99.01	22.76	-36.2	-37.1	24.6	0.00e+00	122	42	0	1325400064	44	6342
2026-01-25 12:55:03.22	99.28	22.73	-36.3	-37.2	24.4	0.00e+00	123	42	0	1328545792	44	6417
2026-01-25 12:55:04.23	99.54	22.70	-36.4	-37.3	24.5	0.00e+00	122	42	0	1331691520	44	6457
2026-01-25 12:55:05.24	99.81	22.66	-36.0	-36.9	24.8	0.00e+00	120	42	0	1334837248	44	6163
2026-01-25 12:55:06.25	100.08	22.63	-36.2	-37.1	24.7	0.00e+00	123	42	0	1337982976	44	6282
2026-01-25 12:55:07.26	100.35	22.60	-36.1	-37.0	24.6	0.00e+00	122	42	0	1341128704	44	6256
2026-01-25 12:55:08.27	100.61	22.56	-36.0	-36.9	24.8	0.00e+00	122	42	0	1344274432	44	6147
2026-01-25 12:55:09.28	100.88	22.53	-36.1	-37.0	24.7	0.00e+00	120	42	0	1347420160	44	6257
2026-01-25 12:55:10.29	101.14	22.49	-36.1	-37.0	24.7	0.00e+00	122	42	0	1350565888	44	6266
2026-01-25 12:55:11.30	101.41	22.45	-36.2	-37.2	24.6	0.00e+00	123	42	0	1353711616	44	6352
2026-01-25 12:55:12.31	101.67	22.42	-36.2	-37.1	24.6	0.00e+00	123	42	0	1356857344	44	6334
2026-01-25 12:55:13.32	101.94	22.38	-36.2	-37.1	24.6	0.00e+00	122	42	0	1360003072	44	6329
2026-01-25 12:55:14.33	102.20	22.34	-36.1	-37.0	24.7	0.00e+00	122	42	0	1363148800	44	6258
2026-01-25 12:55:15.34	102.46	22.30	-36.1	-37.0	24.6	0.00e+00	120	42	0	1366294528	44	6260
2026-01-25 12:55:16.35	102.72	22.26	-36.2	-37.1	24.7	0.00e+00	123	42	0	1369440256	44	6287
2026-01-25 12:55:17.36	102.98	22.22	-36.2	-37.1	24.6	0.00e+00	123	42	0	1372585984	44	6315
2026-01-25 12:55:18.37	103.24	22.18	-36.2	-37.1	24.6	0.00e+00	123	42	0	1375731712	44	6333
2026-01-25 12:55:19.38	103.50	22.14	-36.2	-37.1	24.6	0.00e+00	122	42	0	1378877440	44	6302
2026-01-25 12:55:20.39	103.76	22.10	-36.3	-37.1	24.7	0.00e+00	123	42	0	1382023168	44	6345
2026-01-25 12:55:21.40	104.02	22.06	-36.2	-37.0	24.5	0.00e+00	122	42	0	1385168896	44	6272
2026-01-25 12:55:22.41	104.28	22.01	-36.3	-37.2	24.5	0.00e+00	120	42	0	1388314624	44	6394
2026-01-25 12:55:23.42	104.53	21.97	-36.3	-37.2	24.5	0.00e+00	122	42	0	1391460352	44	6420
2026-01-25 12:55:24.43	104.79	21.93	-36.4	-37.3	24.5	0.00e+00	122	42	0	1394606080	44	6467
2026-01-25 12:55:25.44	105.05	21.88	-36.4	-37.4	24.4	0.00e+00	122	42	0	1397751808	44	6534
2026-01-25 12:55:26.45	105.30	21.84	-36.5	-37.5	24.4	0.00e+00	120	42	0	1400897536	44	6584
2026-01-25 12:55:27.46	105.55	21.79	-36.5	-37.4	24.4	0.00e+00	123	42	0	1404043264	44	6566
2026-01-25 12:55:28.48	105.81	21.75	-36.6	-37.5	24.3	0.00e+00	122	42	0	1407188992	44	6630
2026-01-25 12:55:29.49	106.06	21.70	-36.4	-37.3	24.5	0.00e+00	122	42	0	1410334720	44	6455
2026-01-25 12:55:30.50	106.31	21.66	-36.4	-37.4	24.3	0.00e+00	123	42	0	1413480448	44	6503
2026-01-25 12:55:31.51	106.56	21.61	-36.6	-37.5	24.3	0.00e+00	123	42	0	1416626176	44	6628
2026-01-25 12:55:32.52	106.82	21.56	-36.4	-37.3	24.4	0.00e+00	123	42	0	1419771904	44	6458
2026-01-25 12:55:33.53	107.06	21.51	-36.4	-37.3	24.3	0.00e+00	123	42	0	1422917632	44	6477
2026-01-25 12:55:34.53	107.31	21.47	-36.4	-37.3	24.3	0.00e+00	120	42	0	1426063360	44	6466
2026-01-25 12:55:35.54	107.56	21.42	-36.5	-37.4	24.3	0.00e+00	122	42	0	1429209088	44	6504
2026-01-25 12:55:36.55	107.81	21.37	-36.5	-37.3	24.4	0.00e+00	123	42	0	1432354816	44	6496
2026-01-25 12:55:37.56	108.05	21.32	-36.4	-37.3	24.4	0.00e+00	123	42	0	1435500544	44	6458
2026-01-25 12:55:38.57	108.30	21.27	-36.5	-37.4	24.4	0.00e+00	123	42	0	1438646272	44	6519
2026-01-25 12:55:39.58	108.54	21.22	-36.5	-37.4	24.4	0.00e+00	123	42	0	1441792000	44	6564
2026-01-25 12:55:40.59	108.79	21.17	-36.5	-37.4	24.4	0.00e+00	122	42	0	1444937728	44	6515
2026-01-25 12:55:41.60	109.03	21.12	-36.6	-37.5	24.3	0.00e+00	123	42	0	1448083456	44	6636
2026-01-25 12:55:42.61	109.27	21.06	-36.6	-37.5	24.3	0.00e+00	122	42	0	1451229184	44	6582
2026-01-25 12:55:43.62	109.52	21.01	-36.4	-37.4	24.4	0.00e+00	123	42	0	1454374912	44	6509
2026-01-25 12:55:44.64	109.76	20.96	-36.6	-37.5	24.2	0.00e+00	122	42	0	1457520640	44	6641
2026-01-25 12:55:45.65	110.00	20.91	-36.5	-37.4	24.3	0.00e+00	122	42	0	1460666368	44	6573
2026-01-25 12:55:46.66	110.24	20.85	-36.7	-37.6	24.2	0.00e+00	120	42	0	1463812096	44	6711
2026-01-25 12:55:47.66	110.48	20.80	-36.7	-37.6	24.3	0.00e+00	122	42	0	1466957824	46	5979
2026-01-25 12:55:48.68	110.72	20.74	-36.4	-37.3	24.5	0.00e+00	120	42	0	1470103552	46	5768
2026-01-25 12:55:49.68	110.95	20.69	-36.3	-37.2	24.6	0.00e+00	123	42	0	1473249280	46	5671
2026-01-25 12:55:50.69	111.19	20.64	-36.2	-37.1	24.6	0.00e+00	122	42	0	1476395008	46	5653
2026-01-25 12:55:51.70	111.42	20.58	-36.2	-37.1	24.6	0.00e+00	123	42	0	1479540736	46	5639
2026-01-25 12:55:52.72	111.66	20.52	-36.4	-37.3	24.5	0.00e+00	123	42	0	1482686464	46	5726
2026-01-25 12:55:53.73	111.89	20.47	-36.4	-37.3	24.4	0.00e+00	121	42	0	1485832192	46	5751
2026-01-25 12:55:54.74	112.13	20.41	-36.5	-37.4	24.4	0.00e+00	122	42	0	1488977920	46	5844
2026-01-25 12:55:55.75	112.36	20.36	-36.6	-37.5	24.4	0.00e+00	122	42	0	1492123648	46	5877
2026-01-25 12:55:56.76	112.59	20.30	-36.8	-37.7	24.3	0.00e+00	123	42	0	1495269376	46	6012
2026-01-25 12:55:57.77	112.82	20.24	-36.7	-37.6	24.3	0.00e+00	120	42	0	1499463680	46	5965
2026-01-25 12:55:58.78	113.05	20.18	-36.6	-37.6	24.3	0.00e+00	123	42	0	1502609408	46	5927
2026-01-25 12:55:59.79	113.28	20.13	-36.6	-37.5	24.4	0.00e+00	122	42	0	1504706560	46	5873
2026-01-25 12:56:00.80	113.51	20.07	-36.7	-37.5	24.3	0.00e+00	123	42	0	1507852288	46	5920
2026-01-25 12:56:01.81	113.73	20.01	-36.7	-37.6	24.2	0.00e+00	123	42	0	1512046592	46	5976
2026-01-25 12:56:02.82	113.96	19.95	-36.9	-37.8	24.1	0.00e+00	120	42	0	1515192320	46	6105
2026-01-25 12:56:03.83	114.18	19.89	-36.9	-37.8	24.1	0.00e+00	123	42	0	1518338048	46	6130
2026-01-25 12:56:04.84	114.41	19.83	-36.6	-37.5	24.4	0.00e+00	118	42	0	1521483776	46	5890
2026-01-25 12:56:05.85	114.63	19.77	-36.7	-37.6	24.2	0.00e+00	122	42	0	1524629504	46	5941
2026-01-25 12:56:06.86	114.86	19.71	-36.5	-37.4	24.4	0.00e+00	122	42	0	1527775232	46	5835
2026-01-25 12:56:07.87	115.08	19.65	-36.7	-37.6	24.3	0.00e+00	123	42	0	1530920960	46	5935
2026-01-25 12:56:08.87	115.30	19.59	-36.7	-37.6	24.2	0.00e+00	122	42	0	1534066688	46	5993
2026-01-25 12:56:09.89	115.52	19.53	-36.9	-37.8	24.1	0.00e+00	120	42	0	1537212416	46	6118
2026-01-25 12:56:10.89	115.74	19.47	-36.8	-37.7	24.2	0.00e+00	122	42	0	1540358144	46	6007
2026-01-25 12:56:11.90	115.95	19.41	-36.8	-37.7	24.1	0.00e+00	122	42	0	1543503872	46	6004
2026-01-25 12:56:12.91	116.17	19.35	-36.7	-37.6	24.2	0.00e+00	123	42	0	1546649600	46	5969
2026-01-25 12:56:13.92	116.39	19.29	-36.6	-37.5	24.1	0.00e+00	120	42	0	1549795328	46	5871
2026-01-25 12:56:14.93	116.61	19.22	-36.8	-37.7	24.0	0.00e+00	122	42	0	1552941056	46	6028
2026-01-25 12:56:15.94	116.82	19.16	-36.7	-37.6	24.1	0.00e+00	120	42	0	1556086784	46	5983
2026-01-25 12:56:16.95	117.04	19.10	-36.8	-37.8	24.0	0.00e+00	122	42	0	1559232512	46	6069
2026-01-25 12:56:17.96	117.25	19.04	-36.5	-37.4	24.3	0.00e+00	123	42	0	1562378240	46	5830
2026-01-25 12:56:18.97	117.46	18.97	-36.5	-37.4	24.3	0.00e+00	122	42	0	1565523968	46	5805
2026-01-25 12:56:19.98	117.67	18.91	-36.4	-37.3	24.4	0.00e+00	123	42	0	1568669696	46	5755
2026-01-25 12:56:20.99	117.88	18.85	-36.5	-37.4	24.3	0.00e+00	122	42	0	1571815424	46	5805
2026-01-25 12:56:22.00	118.09	18.78	-36.4	-37.3	24.4	0.00e+00	123	42	0	1574961152	46	5781
2026-01-25 12:56:23.01	118.30	18.72	-36.4	-37.3	24.4	0.00e+00	123	42	0	1578106880	46	5733
2026-01-25 12:56:24.02	118.51	18.66	-36.4	-37.4	24.3	0.00e+00	123	42	0	1581252608	46	5800
2026-01-25 12:56:25.03	118.72	18.59	-36.7	-37.6	24.0	0.00e+00	123	42	0	1584398336	46	5970
2026-01-25 12:56:26.04	118.93	18.53	-36.4	-37.3	24.3	0.00e+00	123	42	0	1587544064	46	5777
2026-01-25 12:56:27.05	119.13	18.46	-36.5	-37.4	24.2	0.00e+00	123	42	0	1590689792	46	5822
2026-01-25 12:56:28.05	119.33	18.40	-36.5	-37.4	24.1	0.00e+00	123	42	0	1593835520	46	5846
2026-01-25 12:56:29.06	119.54	18.33	-36.7	-37.6	24.1	0.00e+00	123	42	0	1596981248	46	5956
2026-01-25 12:56:30.07	119.74	18.27	-36.6	-37.5	24.1	0.00e+00	123	42	0	1600126976	46	5894
2026-01-25 12:56:31.09	119.95	18.20	-36.7	-37.6	24.1	0.00e+00	123	42	0	1603272704	46	5965
2026-01-25 12:56:32.09	120.15	18.14	-36.5	-37.4	24.3	0.00e+00	122	42	0	1606418432	46	5837
2026-01-25 12:56:33.10	120.35	18.07	-36.5	-37.4	24.4	0.00e+00	123	42	0	1609564160	46	5823
2026-01-25 12:56:34.11	120.55	18.00	-36.4	-37.3	24.4	0.00e+00	123	42	0	1612709888	46	5767
2026-01-25 12:56:35.13	120.75	17.94	-36.4	-37.3	24.4	0.00e+00	123	42	0	1615855616	46	5750
2026-01-25 12:56:36.13	120.94	17.87	-36.5	-37.4	24.4	0.00e+00	122	42	0	1619001344	46	5849
2026-01-25 12:56:37.15	121.14	17.81	-36.6	-37.5	24.3	0.00e+00	122	42	0	1622147072	46	5915
2026-01-25 12:56:38.16	121.34	17.74	-36.6	-37.5	24.2	0.00e+00	122	42	0	1625292800	46	5912
2026-01-25 12:56:39.17	121.54	17.67	-36.7	-37.6	24.1	0.00e+00	121	42	0	1628438528	46	5965
2026-01-25 12:56:40.17	121.73	17.61	-36.6	-37.5	24.2	0.00e+00	123	42	0	1631584256	46	5922
2026-01-25 12:56:41.18	121.92	17.54	-36.6	-37.5	24.2	0.00e+00	123	42	0	1634729984	46	5901
2026-01-25 12:56:42.19	122.12	17.47	-36.7	-37.6	24.1	0.00e+00	123	42	0	1637875712	46	5966
2026-01-25 12:56:43.20	122.31	17.41	-36.5	-37.4	24.3	0.00e+00	120	42	0	1641021440	46	5848
2026-01-25 12:56:44.21	122.50	17.34	-36.6	-37.5	24.3	0.00e+00	122	42	0	1644167168	46	5890
2026-01-25 12:56:45.22	122.69	17.27	-36.7	-37.7	24.2	0.00e+00	120	42	0	1647312896	46	5997
2026-01-25 12:56:46.23	122.88	17.20	-36.6	-37.5	24.3	0.00e+00	123	42	0	1650458624	46	5869
2026-01-25 12:56:47.24	123.07	17.14	-36.7	-37.6	24.2	0.00e+00	123	42	0	1653604352	46	5935
2026-01-25 12:56:48.25	123.26	17.07	-36.7	-37.6	24.0	0.00e+00	123	42	0	1656750080	46	5991
2026-01-25 12:56:49.26	123.45	17.00	-36.8	-37.7	24.0	0.00e+00	123	42	0	1659895808	46	6038
2026-01-25 12:56:50.27	123.63	16.93	-36.7	-37.7	24.0	0.00e+00	123	42	0	1663041536	46	6027
2026-01-25 12:56:51.28	123.82	16.86	-36.7	-37.7	24.0	0.00e+00	123	42	0	1666187264	46	6032
2026-01-25 12:56:52.29	124.00	16.80	-36.9	-37.8	24.0	0.00e+00	120	42	0	1669332992	46	6102
2026-01-25 12:56:53.30	124.19	16.73	-36.8	-37.7	24.1	0.00e+00	123	42	0	1672478720	46	6047
2026-01-25 12:56:54.31	124.37	16.66	-36.8	-37.8	24.1	0.00e+00	120	42	0	1675624448	46	6068
2026-01-25 12:56:55.32	124.55	16.59	-37.0	-38.0	23.9	0.00e+00	122	42	0	1678770176	46	6211
2026-01-25 12:56:56.33	124.73	16.52	-36.9	-37.8	24.0	0.00e+00	123	42	0	1681915904	46	6114
2026-01-25 12:56:57.34	124.92	16.45	-37.1	-38.0	23.8	0.00e+00	123	42	0	1685061632	46	6274
2026-01-25 12:56:58.35	125.10	16.39	-37.0	-37.9	24.0	0.00e+00	120	42	0	1688207360	46	6168
2026-01-25 12:56:59.36	125.28	16.32	-36.9	-37.9	24.0	0.00e+00	122	42	0	1691353088	46	6152
2026-01-25 12:57:00.37	125.45	16.25	-36.7	-37.6	24.2	0.00e+00	122	42	0	1694498816	46	5971
2026-01-25 12:57:01.38	125.63	16.18	-36.8	-37.7	24.0	0.00e+00	121	42	0	1697644544	46	6045
2026-01-25 12:57:02.39	125.81	16.11	-36.6	-37.5	24.2	0.00e+00	123	42	0	1700790272	46	5917
2026-01-25 12:57:03.40	125.99	16.04	-36.7	-37.6	24.2	0.00e+00	122	42	0	1703936000	46	5982
2026-01-25 12:57:04.41	126.16	15.97	-36.8	-37.7	24.1	0.00e+00	123	42	0	1707081728	46	6001
2026-01-25 12:57:05.42	126.34	15.90	-36.7	-37.6	24.1	0.00e+00	123	42	0	1710227456	46	5974
2026-01-25 12:57:06.43	126.51	15.83	-37.0	-37.9	23.9	0.00e+00	120	42	0	1713373184	46	6181
2026-01-25 12:57:07.44	126.68	15.77	-37.0	-38.0	23.8	0.00e+00	122	42	0	1716518912	46	6214
2026-01-25 12:57:08.45	126.85	15.70	-37.1	-38.0	23.7	0.00e+00	123	42	0	1719664640	46	6262
2026-01-25 12:57:09.45	127.02	15.63	-37.2	-38.1	23.7	0.00e+00	123	42	0	1722810368	46	6336
2026-01-25 12:57:10.46	127.20	15.56	-37.2	-38.1	23.6	0.00e+00	122	42	0	1725956096	46	6345
2026-01-25 12:57:11.47	127.37	15.49	-37.2	-38.1	23.6	0.00e+00	123	42	0	1729101824	46	6324
2026-01-25 12:57:12.48	127.53	15.42	-37.3	-38.3	23.5	0.00e+00	123	42	0	1732247552	46	6435
2026-01-25 12:57:13.49	127.70	15.35	-37.5	-38.4	23.4	0.00e+00	123	42	0	1735393280	46	6572
2026-01-25 12:57:14.50	127.87	15.28	-37.7	-38.7	23.2	0.00e+00	121	42	0	1738539008	46	6737
2026-01-25 12:57:15.51	128.04	15.21	-37.6	-38.5	23.2	0.00e+00	124	42	0	1741684736	46	6638
2026-01-25 12:57:16.52	128.20	15.14	-37.5	-38.5	23.4	0.00e+00	123	42	0	1744830464	46	6580
2026-01-25 12:57:17.53	128.37	15.07	-37.6	-38.6	23.3	0.00e+00	122	42	0	1747976192	46	6665
2026-01-25 12:57:18.54	128.53	15.00	-37.6	-38.6	23.4	0.00e+00	122	42	0	1751121920	46	6651
2026-01-25 12:57:19.55	128.70	14.93	-37.6	-38.6	23.3	0.00e+00	123	42	0	1754267648	46	6665
2026-01-25 12:57:20.56	128.86	14.86	-37.7	-38.7	23.3	0.00e+00	123	42	0	1757413376	46	6766
2026-01-25 12:57:21.57	129.02	14.79	-37.6	-38.6	23.2	0.00e+00	122	42	0	1760559104	46	6679
2026-01-25 12:57:22.58	129.19	14.72	-37.6	-38.6	23.2	0.00e+00	120	42	0	1763704832	46	6680
2026-01-25 12:57:23.59	129.35	14.65	-37.7	-38.7	23.1	0.00e+00	123	42	0	1766850560	46	6749
2026-01-25 12:57:24.60	129.51	14.58	-37.8	-38.8	23.0	0.00e+00	122	42	0	1769996288	48	6077
2026-01-25 12:57:25.61	129.67	14.52	-37.9	-38.8	23.0	0.00e+00	122	42	0	1773142016	48	6131
2026-01-25 12:57:26.62	129.83	14.45	-37.5	-38.5	23.3	0.00e+00	122	42	0	1776287744	48	5893
2026-01-25 12:57:27.63	129.98	14.38	-37.7	-38.7	23.2	0.00e+00	122	42	0	1779433472	48	6027
2026-01-25 12:57:28.64	130.14	14.31	-37.6	-38.6	23.3	0.00e+00	120	42	0	1782579200	48	5949
2026-01-25 12:57:29.65	130.30	14.24	-37.5	-38.4	23.5	0.00e+00	122	42	0	1785724928	48	5824
2026-01-25 12:57:30.66	130.45	14.17	-37.4	-38.4	23.5	0.00e+00	123	42	0	1788870656	48	5810
2026-01-25 12:57:31.67	130.61	14.10	-37.4	-38.4	23.5	0.00e+00	123	42	0	1792016384	48	5793
2026-01-25 12:57:32.68	130.76	14.03	-37.3	-38.2	23.6	0.00e+00	123	42	0	1795162112	48	5711
2026-01-25 12:57:33.69	130.92	13.96	-37.4	-38.4	23.5	0.00e+00	122	42	0	1798307840	48	5803
2026-01-25 12:57:34.70	131.07	13.89	-37.5	-38.5	23.4	0.00e+00	123	42	0	1801453568	48	5863
2026-01-25 12:57:35.71	131.22	13.82	-37.6	-38.6	23.3	0.00e+00	123	42	0	1804599296	48	5949
2026-01-25 12:57:36.72	131.38	13.75	-37.7	-38.7	23.2	0.00e+00	123	42	0	1807745024	48	6019
2026-01-25 12:57:37.72	131.53	13.68	-37.7	-38.7	23.2	0.00e+00	123	42	0	1810890752	48	6021
2026-01-25 12:57:38.73	131.68	13.61	-37.9	-38.8	23.1	0.00e+00	123	42	0	1814036480	48	6130
2026-01-25 12:57:39.75	131.83	13.54	-37.9	-38.9	23.0	0.00e+00	123	42	0	1817182208	48	6152
2026-01-25 12:57:40.76	131.98	13.47	-38.1	-39.0	22.9	0.00e+00	123	41	0	1820327936	48	6276
2026-01-25 12:57:41.77	132.13	13.40	-38.1	-39.0	22.9	0.00e+00	120	41	0	1823473664	48	6263
2026-01-25 12:57:42.78	132.27	13.33	-38.1	-39.1	22.9	0.00e+00	123	42	0	1826619392	48	6300
2026-01-25 12:57:43.79	132.42	13.26	-38.0	-38.9	23.0	0.00e+00	121	42	0	1829765120	48	6198
2026-01-25 12:57:44.80	132.57	13.19	-38.1	-39.1	22.9	0.00e+00	122	42	0	1832910848	48	6293
2026-01-25 12:57:45.80	132.71	13.12	-38.1	-39.1	22.8	0.00e+00	123	42	0	1836056576	48	6315
2026-01-25 12:57:46.81	132.86	13.06	-38.0	-39.0	23.0	0.00e+00	123	42	0	1840250880	48	6246
2026-01-25 12:57:47.82	133.00	12.99	-38.0	-39.0	22.9	0.00e+00	123	42	0	1842348032	48	6218
2026-01-25 12:57:48.83	133.14	12.92	-38.1	-39.1	22.8	0.00e+00	120	42	0	1845493760	48	6317
2026-01-25 12:57:49.84	133.29	12.85	-38.0	-39.0	22.9	0.00e+00	123	42	0	1848639488	48	6225
2026-01-25 12:57:50.85	133.43	12.78	-37.9	-38.9	23.0	0.00e+00	123	42	0	1851785216	48	6138
2026-01-25 12:57:51.86	133.57	12.71	-37.8	-38.8	23.2	0.00e+00	122	42	0	1855979520	48	6092
2026-01-25 12:57:52.88	133.71	12.64	-37.5	-38.4	23.2	0.00e+00	120	42	0	1859125248	48	5858
2026-01-25 12:57:53.89	133.86	12.57	-37.7	-38.7	23.2	0.00e+00	120	42	0	1862270976	48	6012
2026-01-25 12:57:54.90	134.00	12.50	-38.0	-39.0	22.8	0.00e+00	122	41	0	1865416704	48	6226
2026-01-25 12:57:55.91	134.13	12.43	-38.1	-39.1	22.7	0.00e+00	122	42	0	1868562432	48	6332
2026-01-25 12:57:56.92	134.27	12.36	-38.2	-39.2	22.8	0.00e+00	122	41	0	1871708160	48	6380
2026-01-25 12:57:57.93	134.41	12.29	-38.3	-39.3	22.8	0.00e+00	123	42	0	1874853888	48	6433
2026-01-25 12:57:58.94	134.55	12.23	-38.1	-39.1	22.9	0.00e+00	120	41	0	1877999616	48	6314
2026-01-25 12:57:59.95	134.69	12.16	-38.2	-39.1	22.8	0.00e+00	122	41	0	1881145344	48	6348
2026-01-25 12:58:00.96	134.82	12.09	-38.2	-39.2	22.8	0.00e+00	120	41	0	1884291072	48	6374
2026-01-25 12:58:01.97	134.96	12.02	-38.2	-39.2	22.8	0.00e+00	123	41	0	1887436800	48	6360
2026-01-25 12:58:02.98	135.09	11.95	-38.0	-39.0	22.9	0.00e+00	123	41	0	1890582528	48	6261
2026-01-25 12:58:03.99	135.23	11.88	-38.0	-39.0	22.9	0.00e+00	120	42	0	1893728256	48	6238
2026-01-25 12:58:05.00	135.36	11.81	-38.1	-39.1	22.8	0.00e+00	122	42	0	1896873984	48	6341
2026-01-25 12:58:06.01	135.49	11.75	-38.0	-39.0	22.8	0.00e+00	123	41	0	1900019712	48	6256
2026-01-25 12:58:07.02	135.63	11.68	-38.1	-39.1	22.8	0.00e+00	120	42	0	1903165440	48	6296
2026-01-25 12:58:08.03	135.76	11.61	-38.1	-39.1	22.7	0.00e+00	122	41	0	1906311168	48	6288
2026-01-25 12:58:09.05	135.89	11.54	-37.9	-38.9	22.9	0.00e+00	120	42	0	1909456896	48	6175
2026-01-25 12:58:10.06	136.02	11.47	-38.0	-39.0	22.8	0.00e+00	122	41	0	1912602624	48	6213
2026-01-25 12:58:11.06	136.15	11.40	-38.0	-39.0	22.7	0.00e+00	122	41	0	1915748352	48	6274
2026-01-25 12:58:12.07	136.28	11.34	-38.0	-39.0	22.8	0.00e+00	120	41	0	1918894080	48	6232
2026-01-25 12:58:13.08	136.41	11.27	-37.9	-38.9	22.8	0.00e+00	123	41	0	1922039808	48	6176
2026-01-25 12:58:14.09	136.54	11.20	-38.0	-39.0	22.7	0.00e+00	123	41	0	1925185536	48	6224
2026-01-25 12:58:15.10	136.67	11.13	-38.1	-39.1	22.6	0.00e+00	123	41	0	1928331264	48	6336
2026-01-25 12:58:16.11	136.79	11.06	-38.1	-39.1	22.7	0.00e+00	123	41	0	1931476992	48	6314
2026-01-25 12:58:17.12	136.92	11.00	-38.1	-39.1	22.6	0.00e+00	122	41	0	1934622720	48	6345
2026-01-25 12:58:18.13	137.05	10.93	-38.1	-39.1	22.6	0.00e+00	121	41	0	1937768448	48	6335
2026-01-25 12:58:19.14	137.17	10.86	-38.1	-39.1	22.7	0.00e+00	122	41	0	1940914176	48	6323
2026-01-25 12:58:20.15	137.30	10.79	-38.0	-39.0	22.7	0.00e+00	122	42	0	1944059904	48	6251
2026-01-25 12:58:21.16	137.42	10.72	-38.1	-39.1	22.8	0.00e+00	123	41	0	1947205632	48	6278
2026-01-25 12:58:22.17	137.55	10.66	-38.2	-39.2	22.7	0.00e+00	123	42	0	1950351360	48	6393
2026-01-25 12:58:23.18	137.67	10.59	-38.0	-39.0	22.8	0.00e+00	123	41	0	1953497088	48	6268
2026-01-25 12:58:24.19	137.79	10.52	-38.1	-39.1	22.7	0.00e+00	123	41	0	1956642816	48	6320
2026-01-25 12:58:25.20	137.92	10.46	-38.1	-39.1	22.7	0.00e+00	121	41	0	1959788544	48	6303
2026-01-25 12:58:26.21	138.04	10.39	-38.6	-39.6	22.4	0.00e+00	122	41	0	1962934272	48	6674
2026-01-25 12:58:27.22	138.16	10.32	-38.1	-39.1	22.8	0.00e+00	123	41	0	1966080000	48	6286
2026-01-25 12:58:28.23	138.28	10.25	-38.2	-39.2	22.7	0.00e+00	123	41	0	1969225728	48	6369
2026-01-25 12:58:29.24	138.40	10.19	-38.2	-39.2	22.6	0.00e+00	123	41	0	1972371456	48	6387
