passes_logs/2026/01/25/R4.6S_Anadyr/R4.6S_Anadyr__20260125_145719_SUOMI_NPP_rec.log

#Pass ID: 20260125_145719_SUOMI NPP
#Satellite: SUOMI NPP
#Configuration: NPP
#almurnet v.1.7.20251203
#Start time: 2026-01-25 14:57:21

#Version: 2.2.20231116
#Station: R4.6S_Anadyr
#Location: 177.4865 lon 64.73178 lat
#TLE: 1 37849U 11061A   26025.32440757  .00000181  00000+0  10697-3 0  9992
#TLE: 2 37849  98.7822 327.2846 0002175  45.9958 314.1397 14.19529737738178

#Time	Az	El	Level	Level2	SNR	BER	BlckErr	Temp	State	Recorded	gain1	gain2
2026-01-25 14:57:21.18	20.88	0.12	-50.2	-62.8	3.5	1.52e+00	0	39	0	0	60	48196
2026-01-25 14:57:22.19	20.88	0.18	-50.1	-65.3	3.6	1.51e+00	0	40	104	0	60	66662
2026-01-25 14:57:23.20	20.88	0.25	-50.1	-65.3	3.6	1.51e+00	0	40	104	0	60	66744
2026-01-25 14:57:24.21	20.88	0.31	-50.1	-65.3	3.6	1.51e+00	0	40	104	0	60	66668
2026-01-25 14:57:25.22	20.88	0.37	-50.1	-65.3	3.6	1.51e+00	0	40	104	0	60	66771
2026-01-25 14:57:26.23	20.88	0.43	-50.1	-65.3	3.6	1.51e+00	0	40	104	0	60	66702
2026-01-25 14:57:27.24	20.88	0.49	-50.1	-65.4	3.6	1.51e+00	0	40	104	0	60	67022
2026-01-25 14:57:28.25	20.88	0.55	-50.0	-65.4	3.6	1.51e+00	0	40	104	0	60	67125
2026-01-25 14:57:29.26	20.88	0.61	-50.1	-65.4	3.6	1.51e+00	0	40	104	0	60	66924
2026-01-25 14:57:30.27	20.88	0.67	-50.1	-65.3	3.6	1.51e+00	0	40	104	0	60	66833
2026-01-25 14:57:31.28	20.88	0.73	-50.1	-65.4	3.6	1.51e+00	0	40	104	0	60	67139
2026-01-25 14:57:32.29	20.88	0.80	-50.1	-65.3	3.6	1.51e+00	0	40	104	0	60	66852
2026-01-25 14:57:33.30	20.88	0.86	-50.1	-65.4	3.6	1.51e+00	0	40	104	0	60	67034
2026-01-25 14:57:34.31	20.88	0.92	-50.1	-65.3	3.6	1.51e+00	0	40	104	0	60	66569
2026-01-25 14:57:35.31	20.88	0.98	-50.0	-65.3	3.6	1.51e+00	0	40	104	0	60	66459
2026-01-25 14:57:36.32	20.88	1.04	-50.0	-65.2	3.6	1.51e+00	0	40	104	0	60	65479
2026-01-25 14:57:37.33	20.88	1.11	-49.9	-65.1	3.6	1.51e+00	0	40	104	0	60	65373
2026-01-25 14:57:38.34	20.88	1.17	-49.9	-65.1	3.6	1.51e+00	0	40	104	0	60	64842
2026-01-25 14:57:39.36	20.88	1.23	-49.8	-65.0	3.6	1.51e+00	0	40	104	0	60	64026
2026-01-25 14:57:40.37	20.88	1.30	-49.6	-64.8	3.6	1.51e+00	0	40	104	0	60	63001
2026-01-25 14:57:41.38	20.88	1.36	-49.6	-64.8	3.6	1.51e+00	0	40	104	0	60	62759
2026-01-25 14:57:42.39	20.88	1.42	-49.5	-64.7	3.6	1.51e+00	0	40	104	0	60	61885
2026-01-25 14:57:43.40	20.88	1.48	-49.3	-64.5	3.6	1.51e+00	0	40	104	0	60	60677
2026-01-25 14:57:44.41	20.88	1.55	-49.1	-64.3	3.6	1.51e+00	0	40	104	0	60	59037
2026-01-25 14:57:45.42	20.88	1.61	-48.8	-64.0	3.6	1.51e+00	0	40	104	0	60	57362
2026-01-25 14:57:46.43	20.88	1.67	-48.7	-63.8	3.6	1.51e+00	0	40	104	0	60	55963
2026-01-25 14:57:47.44	20.88	1.74	-48.8	-63.8	3.6	1.51e+00	0	40	104	0	60	56067
2026-01-25 14:57:48.45	20.88	1.80	-48.7	-63.8	3.6	1.51e+00	0	40	104	0	60	55996
2026-01-25 14:57:49.46	20.88	1.87	-48.7	-63.7	3.6	1.51e+00	0	40	104	0	60	55479
2026-01-25 14:57:50.47	20.88	1.93	-48.7	-63.8	3.6	1.51e+00	0	40	104	0	60	56200
2026-01-25 14:57:51.48	20.88	2.00	-48.7	-63.9	3.6	1.51e+00	0	40	104	0	60	56552
2026-01-25 14:57:52.49	20.88	2.06	-48.7	-63.9	3.6	1.51e+00	0	40	104	0	60	56715
2026-01-25 14:57:53.50	20.88	2.12	-48.7	-63.9	3.6	1.51e+00	0	40	104	0	60	56642
2026-01-25 14:57:54.51	20.88	2.19	-48.7	-63.9	3.6	1.51e+00	0	40	104	0	60	56631
2026-01-25 14:57:55.52	20.88	2.25	-48.7	-63.9	3.6	1.51e+00	0	40	104	0	60	56619
2026-01-25 14:57:56.53	20.88	2.32	-48.7	-63.9	3.6	1.51e+00	0	41	104	0	60	56737
2026-01-25 14:57:57.54	20.88	2.38	-48.7	-63.7	3.6	1.51e+00	0	40	104	0	60	55534
2026-01-25 14:57:58.55	20.88	2.45	-48.7	-63.4	3.6	1.51e+00	0	40	104	0	60	53370
2026-01-25 14:57:59.56	20.88	2.52	-48.7	-63.3	3.6	1.51e+00	0	40	104	0	60	52590
2026-01-25 14:58:00.57	20.88	2.58	-48.7	-63.2	3.6	1.51e+00	0	41	104	0	60	52110
2026-01-25 14:58:01.58	20.88	2.65	-48.7	-62.8	3.6	1.51e+00	0	41	104	0	60	49694
2026-01-25 14:58:02.59	20.88	2.71	-48.7	-62.7	3.6	1.51e+00	0	41	104	0	60	49534
2026-01-25 14:58:03.60	20.88	2.78	-48.7	-62.8	3.6	1.51e+00	0	41	104	0	60	49747
2026-01-25 14:58:04.61	20.87	2.85	-48.7	-63.1	3.6	1.51e+00	0	40	104	0	60	51756
2026-01-25 14:58:05.62	20.87	2.91	-48.7	-62.8	3.6	1.51e+00	0	41	104	0	60	49738
2026-01-25 14:58:06.63	20.87	2.98	-48.7	-62.5	3.6	1.51e+00	0	41	104	0	60	48387
2026-01-25 14:58:07.64	20.87	3.05	-48.6	-61.3	3.8	1.51e+00	0	41	104	0	60	42008
2026-01-25 14:58:08.65	20.87	3.11	-48.4	-57.7	4.5	8.15e-01	0	41	0	0	60	27838
2026-01-25 14:58:09.66	20.87	3.18	-48.1	-55.6	6.3	3.09e-01	0	41	0	2097152	60	21805
2026-01-25 14:58:10.67	20.87	3.25	-47.6	-53.4	8.3	7.68e-02	0	41	0	4194304	60	16914
2026-01-25 14:58:11.68	20.87	3.31	-46.9	-51.5	10.8	2.29e-02	0	40	0	6291456	60	13569
2026-01-25 14:58:12.69	20.87	3.38	-47.2	-52.4	10.6	1.07e-02	0	41	0	7340032	60	15047
2026-01-25 14:58:13.70	20.87	3.45	-46.3	-50.1	12.7	2.73e-04	0	40	0	9437184	60	11539
2026-01-25 14:58:14.70	20.87	3.52	-46.0	-49.5	13.2	1.32e-04	0	41	0	11534336	60	10836
2026-01-25 14:58:15.72	20.87	3.59	-46.1	-49.6	13.1	1.67e-05	0	41	0	13631488	60	10961
2026-01-25 14:58:16.72	20.87	3.65	-46.2	-49.9	12.9	1.56e-04	0	41	0	15728640	60	11281
2026-01-25 14:58:17.74	20.87	3.72	-46.6	-50.9	11.7	1.98e-05	0	41	0	16777216	60	12691
2026-01-25 14:58:18.74	20.86	3.79	-46.2	-49.8	12.9	8.30e-04	0	41	0	18874368	60	11225
2026-01-25 14:58:19.76	20.86	3.86	-45.8	-49.1	13.6	1.86e-04	0	41	0	20971520	60	10363
2026-01-25 14:58:20.76	20.86	3.93	-48.0	-55.1	7.3	3.04e-04	0	41	0	23068672	60	20485
2026-01-25 14:58:21.77	20.86	4.00	-48.6	-61.9	3.6	4.73e-02	0	41	104	25165824	60	44910
2026-01-25 14:58:22.78	20.86	4.07	-46.7	-51.3	5.7	1.50e+00	0	41	104	25165824	60	13206
2026-01-25 14:58:23.79	20.86	4.14	-48.8	-63.7	3.6	4.17e-02	0	41	104	25165824	60	55428
2026-01-25 14:58:24.80	20.86	4.21	-46.2	-50.0	5.7	1.51e+00	0	41	104	25165824	60	11431
2026-01-25 14:58:25.81	20.86	4.28	-46.7	-50.9	12.1	5.72e-04	0	41	0	25165824	60	12704
2026-01-25 14:58:26.82	20.86	4.35	-46.5	-50.5	12.2	8.30e-06	0	41	0	27262976	60	12169
2026-01-25 14:58:27.83	20.86	4.42	-45.6	-48.7	14.6	4.08e-04	0	41	0	28311552	60	9851
2026-01-25 14:58:28.84	20.85	4.49	-45.3	-48.2	14.9	7.00e-07	0	41	0	30408704	60	9270
2026-01-25 14:58:29.85	20.85	4.56	-45.3	-48.2	14.8	0.00e+00	0	41	0	32505856	60	9260
2026-01-25 14:58:30.86	20.85	4.63	-44.8	-47.4	15.6	0.00e+00	0	40	0	34603008	60	8474
2026-01-25 14:58:31.87	20.85	4.70	-44.8	-47.3	15.7	0.00e+00	0	41	0	36700160	60	8352
2026-01-25 14:58:32.88	20.85	4.77	-44.5	-46.8	16.5	0.00e+00	0	41	0	38797312	60	7953
2026-01-25 14:58:33.88	20.85	4.84	-44.6	-47.0	15.8	0.00e+00	0	41	0	39845888	60	8129
2026-01-25 14:58:34.89	20.85	4.91	-44.4	-46.7	16.6	0.00e+00	0	41	0	41943040	60	7781
2026-01-25 14:58:35.90	20.85	4.98	-43.2	-45.0	18.0	0.00e+00	0	41	0	44040192	60	6426
2026-01-25 14:58:36.91	20.84	5.05	-43.9	-46.0	17.3	0.00e+00	0	41	0	46137344	60	7214
2026-01-25 14:58:37.92	20.84	5.13	-43.8	-45.8	17.0	0.00e+00	0	41	0	48234496	60	7075
2026-01-25 14:58:38.93	20.84	5.20	-44.1	-46.2	16.9	0.00e+00	0	41	0	49283072	60	7390
2026-01-25 14:58:39.94	20.84	5.27	-43.1	-44.9	18.2	0.00e+00	0	41	0	51380224	60	6334
2026-01-25 14:58:40.95	20.84	5.34	-44.5	-46.7	16.8	0.00e+00	0	40	0	53477376	60	7857
2026-01-25 14:58:41.96	20.84	5.42	-44.1	-46.3	16.7	0.00e+00	0	40	0	55574528	60	7467
2026-01-25 14:58:42.97	20.84	5.49	-44.1	-46.2	16.8	0.00e+00	0	40	0	57671680	60	7383
2026-01-25 14:58:43.98	20.83	5.56	-43.9	-46.0	17.3	0.00e+00	0	41	0	58720256	60	7182
2026-01-25 14:58:44.98	20.83	5.64	-43.1	-44.8	18.5	0.00e+00	0	40	0	60817408	60	6311
2026-01-25 14:58:45.99	20.83	5.71	-43.9	-46.0	17.1	0.00e+00	0	40	0	62914560	60	7173
2026-01-25 14:58:47.00	20.83	5.78	-43.4	-45.3	17.8	0.00e+00	0	41	0	65011712	60	6642
2026-01-25 14:58:48.01	20.83	5.86	-43.2	-45.0	17.7	0.00e+00	0	41	0	67108864	60	6447
2026-01-25 14:58:49.02	20.83	5.93	-44.2	-46.3	17.2	0.00e+00	0	40	0	68157440	60	7487
2026-01-25 14:58:50.03	20.82	6.01	-44.1	-46.2	17.3	0.00e+00	0	41	0	70254592	60	7365
2026-01-25 14:58:51.04	20.82	6.08	-43.5	-45.4	18.3	0.00e+00	0	41	0	72351744	60	6713
2026-01-25 14:58:52.05	20.82	6.16	-43.6	-45.5	17.8	0.00e+00	0	41	0	74448896	60	6829
2026-01-25 14:58:53.06	20.82	6.23	-43.9	-45.9	17.3	0.00e+00	0	41	0	76546048	60	7156
2026-01-25 14:58:54.07	20.82	6.31	-43.5	-45.3	18.0	0.00e+00	0	41	0	77594624	60	6642
2026-01-25 14:58:55.08	20.81	6.38	-43.7	-45.6	17.7	0.00e+00	0	41	0	79691776	60	6914
2026-01-25 14:58:56.09	20.81	6.46	-43.2	-44.9	18.4	0.00e+00	0	41	0	81788928	60	6385
2026-01-25 14:58:57.10	20.81	6.54	-43.6	-45.4	17.8	0.00e+00	0	41	0	83886080	60	6737
2026-01-25 14:58:58.11	20.81	6.61	-43.4	-45.2	18.1	0.00e+00	0	41	0	85983232	60	6577
2026-01-25 14:58:59.12	20.81	6.69	-43.2	-45.0	18.4	0.00e+00	0	41	0	87031808	60	6398
2026-01-25 14:59:00.13	20.80	6.76	-43.0	-44.7	18.6	0.00e+00	0	41	0	89128960	60	6196
2026-01-25 14:59:01.14	20.80	6.84	-43.6	-45.4	17.9	0.00e+00	0	41	0	91226112	60	6722
2026-01-25 14:59:02.14	20.80	6.92	-43.7	-45.6	17.6	0.00e+00	0	40	0	93323264	60	6867
2026-01-25 14:59:03.15	20.80	7.00	-43.4	-45.2	18.2	0.00e+00	0	40	0	95420416	60	6573
2026-01-25 14:59:04.16	20.80	7.07	-43.0	-44.7	18.5	0.00e+00	0	41	0	96468992	60	6227
2026-01-25 14:59:05.17	20.79	7.15	-43.7	-45.5	17.9	0.00e+00	0	41	0	98566144	60	6826
2026-01-25 14:59:06.18	20.79	7.23	-43.3	-45.0	18.3	0.00e+00	0	40	0	100663296	60	6443
2026-01-25 14:59:07.19	20.79	7.31	-43.2	-44.9	18.4	0.00e+00	0	40	0	102760448	60	6338
2026-01-25 14:59:08.20	20.79	7.39	-43.0	-44.7	18.6	0.00e+00	0	40	0	104857600	60	6213
2026-01-25 14:59:09.21	20.78	7.47	-42.8	-44.4	18.9	0.00e+00	0	40	0	106954752	60	6011
2026-01-25 14:59:10.22	20.78	7.54	-43.1	-44.7	18.7	0.00e+00	0	40	0	108003328	60	6225
2026-01-25 14:59:11.23	20.78	7.62	-42.9	-44.5	18.9	0.00e+00	0	41	0	110100480	60	6060
2026-01-25 14:59:12.24	20.78	7.70	-43.0	-44.6	18.7	0.00e+00	0	41	0	112197632	58	6884
2026-01-25 14:59:13.25	20.77	7.78	-42.9	-44.6	18.8	0.00e+00	0	40	0	114294784	58	6854
2026-01-25 14:59:14.26	20.77	7.86	-42.8	-44.4	18.9	0.00e+00	0	41	0	116391936	58	6759
2026-01-25 14:59:15.27	20.77	7.94	-42.2	-43.7	19.6	0.00e+00	0	41	0	117440512	58	6181
2026-01-25 14:59:16.28	20.77	8.02	-42.3	-43.8	19.5	0.00e+00	0	40	0	119537664	58	6248
2026-01-25 14:59:17.28	20.76	8.10	-43.2	-44.9	18.5	0.00e+00	0	41	0	121634816	58	7135
2026-01-25 14:59:18.29	20.76	8.19	-42.8	-44.4	18.9	0.00e+00	0	40	0	123731968	58	6718
2026-01-25 14:59:19.30	20.76	8.27	-42.9	-44.5	18.9	0.00e+00	0	40	0	125829120	58	6794
2026-01-25 14:59:20.30	20.75	8.35	-42.8	-44.4	18.8	0.00e+00	0	40	0	126877696	58	6761
2026-01-25 14:59:21.31	20.75	8.43	-42.7	-44.3	19.2	0.00e+00	0	41	0	128974848	58	6647
2026-01-25 14:59:22.32	20.75	8.51	-42.5	-44.0	19.2	0.00e+00	0	40	0	131072000	58	6437
2026-01-25 14:59:23.33	20.75	8.59	-42.3	-43.8	19.6	0.00e+00	0	41	0	133169152	58	6282
2026-01-25 14:59:24.34	20.74	8.68	-43.2	-44.8	18.5	0.00e+00	0	41	0	135266304	58	7074
2026-01-25 14:59:25.35	20.74	8.76	-42.6	-44.2	19.2	0.00e+00	0	41	0	136314880	58	6544
2026-01-25 14:59:26.36	20.74	8.84	-42.6	-44.2	19.2	0.00e+00	0	41	0	138412032	58	6551
2026-01-25 14:59:27.37	20.73	8.93	-42.5	-44.0	19.3	0.00e+00	0	41	0	140509184	58	6456
2026-01-25 14:59:28.38	20.73	9.01	-42.4	-43.9	19.4	0.00e+00	0	41	0	142606336	58	6363
2026-01-25 14:59:29.38	20.73	9.09	-42.6	-44.1	19.3	0.00e+00	0	40	0	144703488	58	6521
2026-01-25 14:59:30.39	20.72	9.18	-42.4	-43.8	19.4	0.00e+00	0	41	0	145752064	58	6307
2026-01-25 14:59:31.40	20.72	9.26	-42.5	-43.9	19.4	0.00e+00	0	41	0	147849216	58	6375
2026-01-25 14:59:32.41	20.72	9.35	-42.2	-43.7	19.7	0.00e+00	0	41	0	149946368	58	6200
2026-01-25 14:59:33.42	20.71	9.43	-42.3	-43.7	19.6	0.00e+00	0	41	0	152043520	58	6229
2026-01-25 14:59:34.43	20.71	9.52	-42.1	-43.5	19.8	0.00e+00	0	41	0	154140672	58	6070
2026-01-25 14:59:35.44	20.71	9.61	-42.1	-43.5	19.8	0.00e+00	0	41	0	155189248	58	6062
2026-01-25 14:59:36.45	20.70	9.69	-42.1	-43.5	20.0	0.00e+00	0	40	0	157286400	58	6081
2026-01-25 14:59:37.46	20.70	9.78	-42.0	-43.4	19.9	0.00e+00	0	41	0	159383552	58	5996
2026-01-25 14:59:38.47	20.70	9.86	-42.0	-43.4	20.1	0.00e+00	0	41	0	161480704	58	5967
2026-01-25 14:59:39.47	20.69	9.95	-42.1	-43.5	19.9	0.00e+00	0	40	0	163577856	58	6048
2026-01-25 14:59:40.48	20.69	10.04	-42.1	-43.5	20.0	0.00e+00	0	40	0	164626432	58	6072
2026-01-25 14:59:41.49	20.69	10.13	-42.0	-43.3	20.0	0.00e+00	0	40	0	166723584	58	5937
2026-01-25 14:59:42.50	20.68	10.21	-42.0	-43.4	19.9	0.00e+00	0	41	0	168820736	58	5994
2026-01-25 14:59:43.51	20.68	10.30	-41.8	-43.2	20.2	0.00e+00	0	41	0	170917888	58	5843
2026-01-25 14:59:44.52	20.67	10.39	-42.1	-43.5	19.9	0.00e+00	0	41	0	173015040	58	6084
2026-01-25 14:59:45.53	20.67	10.48	-42.1	-43.5	20.0	0.00e+00	0	41	0	174063616	58	6036
2026-01-25 14:59:46.54	20.67	10.57	-41.9	-43.2	20.3	0.00e+00	0	41	0	176160768	56	6576
2026-01-25 14:59:47.55	20.66	10.66	-41.9	-43.2	20.3	0.00e+00	0	40	0	178257920	56	6604
2026-01-25 14:59:48.56	20.66	10.75	-42.0	-43.4	20.1	0.00e+00	0	41	0	180355072	56	6723
2026-01-25 14:59:49.57	20.65	10.84	-41.9	-43.2	20.3	0.00e+00	0	41	0	182452224	56	6557
2026-01-25 14:59:50.58	20.65	10.93	-42.4	-43.8	19.8	0.00e+00	0	40	0	183500800	56	7039
2026-01-25 14:59:51.58	20.65	11.02	-41.7	-42.9	20.5	0.00e+00	0	41	0	185597952	56	6374
2026-01-25 14:59:52.59	20.64	11.11	-41.5	-42.8	20.6	0.00e+00	0	40	0	187695104	56	6276
2026-01-25 14:59:53.60	20.64	11.20	-41.4	-42.6	20.8	0.00e+00	0	41	0	189792256	56	6169
2026-01-25 14:59:54.61	20.63	11.29	-41.5	-42.7	20.6	0.00e+00	0	40	0	191889408	56	6211
2026-01-25 14:59:55.62	20.63	11.39	-41.6	-42.9	20.5	0.00e+00	0	41	0	192937984	56	6331
2026-01-25 14:59:56.63	20.62	11.48	-41.5	-42.8	20.5	0.00e+00	0	40	0	195035136	56	6273
2026-01-25 14:59:57.64	20.62	11.57	-41.3	-42.6	20.8	0.00e+00	0	40	0	197132288	56	6116
2026-01-25 14:59:58.65	20.61	11.67	-41.4	-42.6	20.8	0.00e+00	0	40	0	199229440	56	6134
2026-01-25 14:59:59.66	20.61	11.76	-41.2	-42.4	21.0	0.00e+00	0	40	0	201326592	56	6026
2026-01-25 15:00:00.67	20.60	11.85	-41.3	-42.5	20.8	0.00e+00	0	40	0	203423744	56	6076
2026-01-25 15:00:01.68	20.60	11.95	-41.2	-42.5	20.9	0.00e+00	0	40	0	204472320	56	6042
2026-01-25 15:00:02.69	20.59	12.04	-41.1	-42.3	21.1	0.00e+00	0	41	0	206569472	56	5929
2026-01-25 15:00:03.69	20.59	12.14	-41.3	-42.5	20.9	0.00e+00	0	40	0	208666624	56	6087
2026-01-25 15:00:04.70	20.58	12.23	-41.3	-42.5	20.9	0.00e+00	0	40	0	210763776	56	6097
2026-01-25 15:00:05.71	20.58	12.33	-41.2	-42.4	21.0	0.00e+00	0	40	0	212860928	56	6031
2026-01-25 15:00:06.72	20.57	12.42	-41.0	-42.2	21.2	0.00e+00	0	40	0	213909504	56	5873
2026-01-25 15:00:07.73	20.57	12.52	-41.0	-42.1	21.3	0.00e+00	0	40	0	216006656	56	5814
2026-01-25 15:00:08.74	20.56	12.62	-41.2	-42.4	21.1	0.00e+00	0	40	0	218103808	56	5981
2026-01-25 15:00:09.75	20.56	12.72	-41.2	-42.4	21.2	0.00e+00	0	40	0	220200960	56	5974
2026-01-25 15:00:10.75	20.55	12.81	-40.8	-42.0	21.3	0.00e+00	0	40	0	222298112	54	6400
2026-01-25 15:00:11.77	20.55	12.91	-41.0	-42.1	21.2	0.00e+00	0	40	0	223346688	54	6531
2026-01-25 15:00:12.78	20.54	13.01	-40.8	-41.9	21.4	0.00e+00	0	40	0	225443840	54	6341
2026-01-25 15:00:13.78	20.54	13.11	-40.7	-41.8	21.5	0.00e+00	0	40	0	227540992	54	6304
2026-01-25 15:00:14.80	20.53	13.21	-40.9	-42.0	21.2	0.00e+00	0	40	0	229638144	54	6460
2026-01-25 15:00:15.81	20.53	13.31	-40.5	-41.6	21.7	0.00e+00	0	40	0	231735296	54	6160
2026-01-25 15:00:16.82	20.52	13.41	-40.7	-41.8	21.4	0.00e+00	0	40	0	232783872	54	6283
2026-01-25 15:00:17.83	20.51	13.51	-40.7	-41.8	21.6	0.00e+00	0	40	0	234881024	54	6274
2026-01-25 15:00:18.84	20.51	13.61	-40.6	-41.7	21.6	0.00e+00	0	40	0	236978176	54	6209
2026-01-25 15:00:19.85	20.50	13.71	-40.6	-41.7	21.6	0.00e+00	0	40	0	239075328	54	6236
2026-01-25 15:00:20.86	20.50	13.81	-40.5	-41.6	21.7	0.00e+00	0	40	0	241172480	54	6123
2026-01-25 15:00:21.87	20.49	13.92	-40.6	-41.7	21.7	0.00e+00	0	40	0	242221056	54	6193
2026-01-25 15:00:22.87	20.48	14.02	-40.6	-41.7	21.6	0.00e+00	0	40	0	244318208	54	6188
2026-01-25 15:00:23.88	20.48	14.12	-40.4	-41.5	21.9	0.00e+00	0	40	0	246415360	54	6046
2026-01-25 15:00:24.89	20.47	14.23	-40.4	-41.5	21.8	0.00e+00	0	40	0	248512512	54	6076
2026-01-25 15:00:25.90	20.46	14.33	-40.4	-41.4	21.8	0.00e+00	0	40	0	250609664	54	6024
2026-01-25 15:00:26.91	20.46	14.43	-40.3	-41.3	21.9	0.00e+00	0	41	0	251658240	54	5944
2026-01-25 15:00:27.92	20.45	14.54	-40.1	-41.2	22.1	0.00e+00	0	40	0	253755392	54	5864
2026-01-25 15:00:28.93	20.44	14.64	-40.1	-41.2	22.0	0.00e+00	0	40	0	255852544	54	5836
2026-01-25 15:00:29.94	20.44	14.75	-40.0	-41.1	22.1	0.00e+00	0	40	0	257949696	54	5773
2026-01-25 15:00:30.94	20.43	14.86	-40.2	-41.2	21.9	0.00e+00	0	40	0	260046848	54	5881
2026-01-25 15:00:31.95	20.42	14.96	-39.9	-40.9	22.1	0.00e+00	0	40	0	261095424	54	5665
2026-01-25 15:00:32.96	20.42	15.07	-40.1	-41.2	21.9	0.00e+00	0	41	0	263192576	54	5842
2026-01-25 15:00:33.97	20.41	15.18	-40.0	-41.0	22.1	0.00e+00	0	40	0	265289728	54	5740
2026-01-25 15:00:34.98	20.40	15.29	-39.9	-40.9	21.9	0.00e+00	0	40	0	267386880	52	6339
2026-01-25 15:00:35.99	20.40	15.39	-39.9	-40.9	22.0	0.00e+00	0	40	0	269484032	52	6365
2026-01-25 15:00:37.00	20.39	15.50	-40.2	-41.2	21.8	0.00e+00	0	40	0	271581184	52	6605
2026-01-25 15:00:38.01	20.38	15.61	-40.3	-41.4	21.6	0.00e+00	0	40	0	272629760	52	6715
2026-01-25 15:00:39.02	20.37	15.72	-39.9	-41.0	22.3	0.00e+00	0	40	0	274726912	52	6403
2026-01-25 15:00:40.03	20.37	15.83	-40.0	-41.1	22.2	0.00e+00	0	40	0	276824064	52	6471
2026-01-25 15:00:41.04	20.36	15.95	-39.8	-40.8	22.5	0.00e+00	0	40	0	278921216	52	6279
2026-01-25 15:00:42.05	20.35	16.06	-39.8	-40.8	22.4	0.00e+00	0	40	0	281018368	52	6308
2026-01-25 15:00:43.06	20.34	16.17	-39.9	-40.9	22.4	0.00e+00	0	40	0	282066944	52	6345
2026-01-25 15:00:44.07	20.33	16.28	-39.8	-40.9	22.4	0.00e+00	0	41	0	284164096	52	6320
2026-01-25 15:00:45.08	20.33	16.40	-39.7	-40.7	22.6	0.00e+00	0	41	0	286261248	52	6198
2026-01-25 15:00:46.08	20.32	16.51	-39.7	-40.7	22.6	0.00e+00	0	40	0	288358400	52	6205
2026-01-25 15:00:47.09	20.31	16.62	-39.9	-40.9	22.4	0.00e+00	0	40	0	289406976	52	6366
2026-01-25 15:00:48.10	20.30	16.74	-39.6	-40.6	22.5	0.00e+00	0	40	0	291504128	52	6146
2026-01-25 15:00:49.11	20.29	16.85	-39.7	-40.7	22.6	0.00e+00	0	40	0	293601280	52	6239
2026-01-25 15:00:50.12	20.29	16.97	-39.8	-40.8	22.4	0.00e+00	0	40	0	295698432	52	6300
2026-01-25 15:00:51.13	20.28	17.09	-39.8	-40.8	22.4	0.00e+00	0	41	0	297795584	52	6301
2026-01-25 15:00:52.14	20.27	17.20	-39.6	-40.6	22.6	0.00e+00	0	40	0	299892736	52	6126
2026-01-25 15:00:53.15	20.26	17.32	-39.7	-40.7	22.7	0.00e+00	0	40	0	300941312	52	6224
2026-01-25 15:00:54.16	20.25	17.44	-39.8	-40.8	22.5	0.00e+00	0	40	0	303038464	52	6293
2026-01-25 15:00:55.17	20.24	17.56	-39.6	-40.6	22.7	0.00e+00	0	40	0	305135616	52	6152
2026-01-25 15:00:56.18	20.23	17.68	-39.5	-40.5	22.7	0.00e+00	0	40	0	307232768	52	6097
2026-01-25 15:00:57.18	20.22	17.80	-39.4	-40.4	22.8	0.00e+00	0	40	0	309329920	52	5979
2026-01-25 15:00:58.19	20.21	17.92	-39.5	-40.5	22.7	0.00e+00	0	40	0	310378496	52	6071
2026-01-25 15:00:59.20	20.20	18.04	-39.3	-40.3	23.0	0.00e+00	0	40	0	312475648	52	5908
2026-01-25 15:01:00.21	20.20	18.16	-39.3	-40.3	22.9	0.00e+00	0	40	0	314572800	52	5908
2026-01-25 15:01:01.21	20.19	18.28	-39.1	-40.1	23.1	0.00e+00	0	40	0	316669952	52	5768
2026-01-25 15:01:02.22	20.18	18.40	-39.1	-40.1	23.1	0.00e+00	0	40	0	318767104	52	5763
2026-01-25 15:01:03.23	20.17	18.53	-39.0	-40.0	23.2	0.00e+00	0	40	0	319815680	52	5719
2026-01-25 15:01:04.24	20.16	18.65	-39.0	-39.9	23.2	0.00e+00	0	40	0	321912832	52	5664
2026-01-25 15:01:05.24	20.15	18.77	-39.0	-39.9	23.1	0.00e+00	0	40	0	324009984	52	5663
2026-01-25 15:01:06.25	20.14	18.90	-39.1	-40.0	23.1	0.00e+00	0	40	0	326107136	52	5759
2026-01-25 15:01:07.26	20.13	19.03	-39.1	-40.0	23.1	0.00e+00	0	40	0	328204288	52	5752
2026-01-25 15:01:08.27	20.12	19.15	-39.2	-40.1	23.1	0.00e+00	0	40	0	329252864	52	5826
2026-01-25 15:01:09.28	20.10	19.28	-39.2	-40.1	23.1	0.00e+00	0	40	0	331350016	52	5826
2026-01-25 15:01:10.29	20.09	19.41	-39.1	-40.0	23.2	0.00e+00	0	40	0	333447168	52	5730
2026-01-25 15:01:11.30	20.08	19.54	-39.2	-40.1	23.2	0.00e+00	0	40	0	335544320	52	5787
2026-01-25 15:01:12.31	20.07	19.67	-39.0	-39.9	23.2	0.00e+00	0	40	0	337641472	52	5672
2026-01-25 15:01:13.32	20.06	19.80	-38.9	-39.8	23.3	0.00e+00	0	40	0	338690048	52	5617
2026-01-25 15:01:14.33	20.05	19.93	-38.9	-39.8	23.4	0.00e+00	0	40	0	340787200	52	5597
2026-01-25 15:01:15.34	20.04	20.06	-38.9	-39.8	23.4	0.00e+00	0	40	0	342884352	52	5616
2026-01-25 15:01:16.35	20.03	20.19	-38.9	-39.8	23.4	0.00e+00	0	40	0	344981504	52	5628
2026-01-25 15:01:17.36	20.02	20.32	-38.7	-39.6	23.5	0.00e+00	0	40	0	347078656	50	6135
2026-01-25 15:01:18.37	20.00	20.46	-38.8	-39.7	23.4	0.00e+00	0	40	0	348127232	50	6187
2026-01-25 15:01:19.38	19.99	20.59	-38.8	-39.7	23.3	0.00e+00	0	40	0	350224384	50	6200
2026-01-25 15:01:20.39	19.98	20.73	-38.6	-39.5	23.6	0.00e+00	0	40	0	352321536	50	6084
2026-01-25 15:01:21.40	19.97	20.86	-38.6	-39.5	23.7	0.00e+00	0	40	0	354418688	50	6040
2026-01-25 15:01:22.41	19.96	21.00	-38.6	-39.5	23.6	0.00e+00	0	40	0	356515840	50	6084
2026-01-25 15:01:23.41	19.94	21.13	-38.5	-39.4	23.7	0.00e+00	0	41	0	357564416	50	5966
2026-01-25 15:01:24.42	19.93	21.27	-38.5	-39.4	23.7	0.00e+00	0	40	0	359661568	50	5999
2026-01-25 15:01:25.43	19.92	21.41	-38.6	-39.5	23.5	0.00e+00	0	40	0	361758720	50	6038
2026-01-25 15:01:26.44	19.91	21.55	-38.5	-39.3	23.7	0.00e+00	0	40	0	363855872	50	5944
2026-01-25 15:01:27.45	19.89	21.69	-38.7	-39.5	23.6	0.00e+00	0	40	0	365953024	50	6099
2026-01-25 15:01:28.46	19.88	21.83	-38.6	-39.5	23.5	0.00e+00	0	41	0	368050176	50	6067
2026-01-25 15:01:29.46	19.87	21.97	-38.6	-39.5	23.5	0.00e+00	0	41	0	369098752	50	6059
2026-01-25 15:01:30.48	19.85	22.12	-38.7	-39.6	23.5	0.00e+00	0	41	0	371195904	50	6152
2026-01-25 15:01:31.48	19.84	22.26	-38.8	-39.7	23.5	0.00e+00	0	41	0	373293056	50	6195
2026-01-25 15:01:32.49	19.82	22.40	-38.7	-39.5	23.6	0.00e+00	0	40	0	375390208	50	6103
2026-01-25 15:01:33.50	19.81	22.55	-38.8	-39.7	23.6	0.00e+00	0	40	0	377487360	50	6174
2026-01-25 15:01:34.51	19.80	22.69	-38.6	-39.5	23.5	0.00e+00	0	40	0	378535936	50	6050
2026-01-25 15:01:35.52	19.78	22.84	-38.9	-39.8	23.5	0.00e+00	0	40	0	380633088	50	6282
2026-01-25 15:01:36.53	19.77	22.99	-38.6	-39.5	23.6	0.00e+00	0	40	0	382730240	50	6077
2026-01-25 15:01:37.54	19.75	23.14	-38.5	-39.4	23.6	0.00e+00	0	40	0	384827392	50	6010
2026-01-25 15:01:38.55	19.74	23.29	-38.7	-39.5	23.6	0.00e+00	0	40	0	386924544	50	6102
2026-01-25 15:01:39.56	19.72	23.44	-38.8	-39.6	23.5	0.00e+00	0	40	0	387973120	50	6171
2026-01-25 15:01:40.57	19.71	23.59	-38.6	-39.5	23.7	0.00e+00	0	40	0	390070272	50	6056
2026-01-25 15:01:41.58	19.69	23.74	-38.7	-39.6	23.5	0.00e+00	0	40	0	392167424	50	6138
2026-01-25 15:01:42.59	19.68	23.89	-38.5	-39.3	23.8	0.00e+00	0	40	0	394264576	50	5935
2026-01-25 15:01:43.60	19.66	24.04	-38.7	-39.5	23.7	0.00e+00	0	40	0	396361728	50	6091
2026-01-25 15:01:44.61	19.64	24.20	-38.8	-39.6	23.5	0.00e+00	0	40	0	397410304	50	6164
2026-01-25 15:01:45.62	19.63	24.35	-38.9	-39.7	23.5	0.00e+00	0	40	0	399507456	50	6245
2026-01-25 15:01:46.63	19.61	24.51	-38.9	-39.8	23.4	0.00e+00	0	41	0	401604608	50	6298
2026-01-25 15:01:47.64	19.60	24.67	-38.9	-39.8	23.5	0.00e+00	0	40	0	403701760	50	6279
2026-01-25 15:01:48.65	19.58	24.83	-39.0	-39.9	23.4	0.00e+00	0	40	0	405798912	50	6347
2026-01-25 15:01:49.66	19.56	24.99	-38.9	-39.8	23.3	0.00e+00	0	40	0	406847488	50	6248
2026-01-25 15:01:50.67	19.54	25.15	-38.7	-39.6	23.6	0.00e+00	0	40	0	408944640	50	6155
2026-01-25 15:01:51.68	19.53	25.31	-38.9	-39.8	23.4	0.00e+00	0	41	0	411041792	50	6274
2026-01-25 15:01:52.69	19.51	25.47	-38.7	-39.6	23.7	0.00e+00	0	40	0	413138944	50	6126
2026-01-25 15:01:53.69	19.49	25.63	-38.7	-39.5	23.7	0.00e+00	0	40	0	415236096	50	6098
2026-01-25 15:01:54.70	19.47	25.79	-38.8	-39.6	23.6	0.00e+00	0	40	0	416284672	50	6167
2026-01-25 15:01:55.71	19.45	25.96	-38.7	-39.6	23.6	0.00e+00	0	40	0	418381824	50	6115
2026-01-25 15:01:56.72	19.44	26.13	-38.8	-39.7	23.5	0.00e+00	0	41	0	420478976	50	6239
2026-01-25 15:01:57.73	19.42	26.29	-38.9	-39.8	23.5	0.00e+00	0	40	0	422576128	50	6276
2026-01-25 15:01:58.74	19.40	26.46	-39.2	-40.1	23.2	0.00e+00	0	40	0	424673280	50	6538
2026-01-25 15:01:59.75	19.38	26.63	-39.6	-40.5	22.8	0.00e+00	0	40	0	425721856	50	6838
2026-01-25 15:02:00.76	19.36	26.80	-39.9	-40.9	22.6	0.00e+00	0	41	0	427819008	52	6380
2026-01-25 15:02:01.77	19.34	26.97	-40.0	-41.0	22.5	0.00e+00	0	40	0	429916160	52	6439
2026-01-25 15:02:02.78	19.32	27.15	-40.6	-41.7	22.1	0.00e+00	0	41	0	432013312	52	6951
2026-01-25 15:02:03.79	19.30	27.32	-40.6	-41.7	22.0	0.00e+00	0	41	0	434110464	52	6939
2026-01-25 15:02:04.80	19.28	27.49	-40.5	-41.5	22.1	0.00e+00	0	40	0	436207616	54	6086
2026-01-25 15:02:05.81	19.26	27.67	-40.6	-41.7	22.1	0.00e+00	0	40	0	437256192	54	6234
2026-01-25 15:02:06.82	19.24	27.85	-40.7	-41.8	22.0	0.00e+00	0	40	0	439353344	54	6306
2026-01-25 15:02:07.83	19.21	28.02	-40.9	-42.0	21.6	0.00e+00	0	41	0	441450496	54	6462
2026-01-25 15:02:08.84	19.19	28.20	-40.6	-41.7	21.9	0.00e+00	0	41	0	443547648	54	6235
2026-01-25 15:02:09.85	19.17	28.38	-40.7	-41.8	21.9	0.00e+00	0	41	0	445644800	54	6253
2026-01-25 15:02:10.86	19.15	28.57	-41.0	-42.2	21.6	0.00e+00	0	41	0	446693376	54	6548
2026-01-25 15:02:11.87	19.13	28.75	-41.0	-42.1	21.7	0.00e+00	0	41	0	448790528	54	6539
2026-01-25 15:02:12.87	19.10	28.93	-41.0	-42.1	21.8	0.00e+00	0	41	0	450887680	54	6500
2026-01-25 15:02:13.88	19.08	29.12	-41.5	-42.7	21.3	0.00e+00	0	41	0	452984832	56	6203
2026-01-25 15:02:14.89	19.06	29.30	-41.6	-42.8	21.1	0.00e+00	0	41	0	454033408	56	6314
2026-01-25 15:02:15.90	19.03	29.49	-42.5	-43.9	20.2	0.00e+00	0	41	0	456130560	56	7103
2026-01-25 15:02:16.91	19.01	29.68	-41.7	-43.0	20.9	0.00e+00	0	41	0	458227712	56	6410
2026-01-25 15:02:17.92	18.98	29.87	-41.6	-42.7	21.2	0.00e+00	0	41	0	460324864	56	6236
2026-01-25 15:02:18.93	18.96	30.06	-41.9	-43.2	20.8	0.00e+00	0	40	0	462422016	56	6552
2026-01-25 15:02:19.94	18.93	30.25	-41.5	-42.7	21.2	0.00e+00	0	40	0	464519168	56	6215
2026-01-25 15:02:20.95	18.91	30.45	-41.3	-42.5	21.5	0.00e+00	0	40	0	465567744	56	6066
2026-01-25 15:02:21.96	18.88	30.64	-41.2	-42.3	21.6	0.00e+00	0	41	0	467664896	56	5964
2026-01-25 15:02:22.96	18.86	30.84	-41.3	-42.4	21.2	0.00e+00	0	40	0	469762048	56	6005
2026-01-25 15:02:23.97	18.83	31.04	-41.7	-42.9	21.1	0.00e+00	0	41	0	471859200	56	6350
2026-01-25 15:02:24.98	18.80	31.23	-41.6	-42.8	21.1	0.00e+00	0	40	0	473956352	56	6267
2026-01-25 15:02:25.98	18.77	31.43	-41.9	-43.1	20.9	0.00e+00	0	41	0	475004928	56	6485
2026-01-25 15:02:26.99	18.75	31.64	-42.7	-44.0	20.2	0.00e+00	0	40	0	477102080	56	7234
2026-01-25 15:02:28.00	18.72	31.84	-42.9	-44.4	19.7	0.00e+00	0	41	0	479199232	58	6715
2026-01-25 15:02:29.01	18.69	32.04	-43.1	-44.6	19.4	0.00e+00	0	40	0	481296384	58	6896
2026-01-25 15:02:30.02	18.66	32.25	-43.1	-44.6	19.1	0.00e+00	0	41	0	483393536	58	6906
2026-01-25 15:02:31.03	18.63	32.46	-43.1	-44.6	19.0	0.00e+00	0	41	0	484442112	58	6893
2026-01-25 15:02:32.04	18.60	32.67	-43.1	-44.6	19.4	0.00e+00	0	40	0	486539264	58	6853
2026-01-25 15:02:33.05	18.57	32.88	-43.0	-44.5	19.6	0.00e+00	0	40	0	488636416	58	6775
2026-01-25 15:02:34.06	18.54	33.09	-43.1	-44.6	19.5	0.00e+00	0	40	0	490733568	58	6871
2026-01-25 15:02:35.07	18.51	33.30	-43.1	-44.7	19.4	0.00e+00	0	41	0	492830720	58	6939
2026-01-25 15:02:36.08	18.48	33.52	-43.3	-44.9	19.3	0.00e+00	0	41	0	493879296	58	7124
2026-01-25 15:02:37.09	18.45	33.73	-43.2	-44.7	19.4	0.00e+00	0	41	0	495976448	58	7007
2026-01-25 15:02:38.10	18.41	33.95	-43.0	-44.4	19.8	0.00e+00	0	41	0	498073600	58	6766
2026-01-25 15:02:39.11	18.38	34.17	-42.7	-44.1	20.2	0.00e+00	0	40	0	500170752	58	6492
2026-01-25 15:02:40.12	18.35	34.39	-41.8	-43.0	20.9	0.00e+00	0	41	0	502267904	58	5756
2026-01-25 15:02:41.13	18.31	34.62	-41.2	-42.3	21.6	0.00e+00	0	40	0	503316480	56	5963
2026-01-25 15:02:42.14	18.28	34.84	-40.5	-41.6	22.1	0.00e+00	0	40	0	505413632	54	6126
2026-01-25 15:02:43.15	18.24	35.07	-40.2	-41.2	22.6	0.00e+00	0	41	0	507510784	54	5861
2026-01-25 15:02:44.16	18.21	35.29	-40.0	-41.0	22.8	0.00e+00	0	41	0	509607936	54	5752
2026-01-25 15:02:45.17	18.17	35.52	-39.7	-40.6	23.1	0.00e+00	0	40	0	511705088	52	6157
2026-01-25 15:02:46.18	18.13	35.75	-39.6	-40.6	23.0	0.00e+00	0	40	0	512753664	52	6154
2026-01-25 15:02:47.18	18.09	35.98	-39.5	-40.5	23.1	0.00e+00	0	41	0	514850816	52	6037
2026-01-25 15:02:48.19	18.06	36.22	-39.0	-39.9	23.4	0.00e+00	0	40	0	516947968	52	5650
2026-01-25 15:02:49.20	18.02	36.45	-39.1	-40.0	23.5	0.00e+00	0	40	0	519045120	52	5712
2026-01-25 15:02:50.21	17.98	36.69	-38.5	-39.3	24.0	0.00e+00	0	41	0	521142272	50	5963
2026-01-25 15:02:51.22	17.94	36.93	-38.1	-38.9	24.2	0.00e+00	0	40	0	522190848	50	5686
2026-01-25 15:02:52.23	17.90	37.17	-37.7	-38.5	24.3	0.00e+00	0	40	0	524288000	48	6058
2026-01-25 15:02:53.24	17.86	37.42	-37.6	-38.4	24.7	0.00e+00	0	40	0	526385152	48	6013
2026-01-25 15:02:54.25	17.81	37.66	-37.9	-38.7	24.4	0.00e+00	0	40	0	528482304	48	6207
2026-01-25 15:02:55.26	17.77	37.91	-37.7	-38.5	24.5	0.00e+00	0	40	0	530579456	48	6072
2026-01-25 15:02:56.27	17.73	38.15	-37.8	-38.6	24.5	0.00e+00	0	41	0	532676608	48	6130
2026-01-25 15:02:57.28	17.68	38.41	-38.2	-39.0	24.2	0.00e+00	0	40	0	533725184	48	6456
2026-01-25 15:02:58.29	17.64	38.66	-38.4	-39.3	24.0	0.00e+00	0	40	0	535822336	48	6661
2026-01-25 15:02:59.30	17.59	38.91	-38.6	-39.5	23.8	0.00e+00	0	40	0	537919488	48	6832
2026-01-25 15:03:00.31	17.55	39.17	-38.9	-39.8	23.6	0.00e+00	0	40	0	540016640	50	6283
2026-01-25 15:03:01.32	17.50	39.42	-38.3	-39.2	24.0	0.00e+00	0	40	0	542113792	50	5870
2026-01-25 15:03:02.33	17.45	39.68	-38.7	-39.6	23.9	0.00e+00	0	40	0	543162368	50	6148
2026-01-25 15:03:03.34	17.40	39.94	-38.7	-39.6	23.7	0.00e+00	0	40	0	545259520	50	6147
2026-01-25 15:03:04.34	17.35	40.21	-38.9	-39.7	23.6	0.00e+00	0	41	0	547356672	50	6236
2026-01-25 15:03:05.35	17.30	40.47	-38.9	-39.7	23.7	0.00e+00	0	40	0	549453824	50	6240
2026-01-25 15:03:06.36	17.25	40.74	-38.9	-39.8	23.5	0.00e+00	0	41	0	551550976	50	6275
2026-01-25 15:03:07.37	17.20	41.01	-38.7	-39.5	23.4	0.00e+00	0	41	0	552599552	50	6096
2026-01-25 15:03:08.38	17.15	41.28	-39.0	-39.9	23.7	0.00e+00	0	41	0	554696704	50	6323
2026-01-25 15:03:09.39	17.09	41.55	-39.2	-40.1	23.4	0.00e+00	0	41	0	556793856	50	6507
2026-01-25 15:03:10.40	17.04	41.83	-39.2	-40.1	23.3	0.00e+00	0	41	0	558891008	50	6532
2026-01-25 15:03:11.41	16.98	42.10	-39.6	-40.6	23.1	0.00e+00	0	41	0	560988160	50	6852
2026-01-25 15:03:12.42	16.92	42.38	-39.5	-40.5	23.1	0.00e+00	0	41	0	562036736	52	6035
2026-01-25 15:03:13.42	16.86	42.66	-39.5	-40.4	23.1	0.00e+00	0	40	0	564133888	52	6032
2026-01-25 15:03:14.43	16.80	42.94	-39.4	-40.3	23.2	0.00e+00	0	41	0	566231040	52	5962
2026-01-25 15:03:15.44	16.74	43.23	-39.1	-40.0	23.5	0.00e+00	0	41	0	568328192	52	5725
2026-01-25 15:03:16.46	16.68	43.52	-39.1	-40.0	23.6	0.00e+00	0	41	0	570425344	52	5733
2026-01-25 15:03:17.46	16.62	43.81	-39.0	-39.9	23.6	0.00e+00	0	40	0	571473920	52	5638
2026-01-25 15:03:18.48	16.55	44.10	-39.0	-39.9	23.7	0.00e+00	0	41	0	573571072	52	5681
2026-01-25 15:03:19.48	16.49	44.39	-39.3	-40.2	23.3	0.00e+00	0	40	0	575668224	52	5860
2026-01-25 15:03:20.49	16.42	44.69	-39.4	-40.4	23.2	0.00e+00	0	41	0	577765376	52	5996
2026-01-25 15:03:21.50	16.35	44.99	-39.4	-40.4	23.2	0.00e+00	0	40	0	579862528	52	5989
2026-01-25 15:03:22.51	16.28	45.29	-39.5	-40.4	23.2	0.00e+00	0	40	0	580911104	52	6020
2026-01-25 15:03:23.52	16.21	45.59	-39.7	-40.7	23.0	0.00e+00	0	40	0	583008256	52	6189
2026-01-25 15:03:24.53	16.14	45.90	-40.1	-41.1	22.5	0.00e+00	0	41	0	585105408	52	6506
2026-01-25 15:03:25.54	16.06	46.21	-40.6	-41.7	22.0	0.00e+00	0	41	0	587202560	54	6200
2026-01-25 15:03:26.55	15.99	46.52	-41.6	-42.8	21.3	0.00e+00	0	41	0	589299712	54	7009
2026-01-25 15:03:27.56	15.91	46.83	-42.8	-44.3	20.1	0.00e+00	0	40	0	590348288	56	7440
2026-01-25 15:03:28.57	15.83	47.14	-43.3	-44.9	19.4	0.00e+00	0	41	0	592445440	58	7111
2026-01-25 15:03:29.58	15.75	47.46	-43.5	-45.1	19.1	0.00e+00	0	41	0	594542592	58	7303
2026-01-25 15:03:30.59	15.67	47.78	-43.4	-45.0	19.1	0.00e+00	0	41	0	596639744	58	7196
2026-01-25 15:03:31.60	15.59	48.10	-42.7	-44.1	19.9	0.00e+00	0	41	0	598736896	58	6539
2026-01-25 15:03:32.61	15.50	48.42	-42.1	-43.5	20.6	0.00e+00	0	40	0	600834048	58	6036
2026-01-25 15:03:33.62	15.41	48.75	-41.9	-43.2	20.9	0.00e+00	0	40	0	601882624	58	5854
2026-01-25 15:03:34.63	15.32	49.08	-41.5	-42.7	21.4	0.00e+00	0	41	0	603979776	56	6206
2026-01-25 15:03:35.64	15.23	49.41	-41.1	-42.2	21.8	0.00e+00	0	41	0	606076928	56	5895
2026-01-25 15:03:36.65	15.14	49.74	-39.9	-40.9	22.7	0.00e+00	0	40	0	608174080	54	5688
2026-01-25 15:03:37.66	15.04	50.08	-39.3	-40.2	23.4	0.00e+00	0	40	0	610271232	52	5869
2026-01-25 15:03:38.67	14.94	50.41	-39.3	-40.3	23.7	0.00e+00	0	40	0	611319808	52	5923
2026-01-25 15:03:39.67	14.84	50.75	-38.6	-39.5	23.9	0.00e+00	0	40	0	613416960	50	6051
2026-01-25 15:03:40.68	14.74	51.09	-38.0	-38.9	24.5	0.00e+00	0	40	0	615514112	50	5639
2026-01-25 15:03:41.70	14.63	51.44	-37.9	-38.8	24.2	0.00e+00	0	40	0	617611264	50	5571
2026-01-25 15:03:42.70	14.53	51.79	-38.4	-39.3	24.0	0.00e+00	0	40	0	619708416	50	5916
2026-01-25 15:03:43.72	14.42	52.14	-38.7	-39.6	23.8	0.00e+00	0	40	0	620756992	50	6136
2026-01-25 15:03:44.72	14.30	52.49	-39.1	-40.0	23.5	0.00e+00	0	40	0	622854144	50	6419
2026-01-25 15:03:45.73	14.19	52.84	-39.2	-40.1	23.4	0.00e+00	0	40	0	624951296	50	6527
2026-01-25 15:03:46.74	14.07	53.20	-39.3	-40.2	23.2	0.00e+00	0	40	0	627048448	50	6601
2026-01-25 15:03:47.75	13.94	53.56	-39.4	-40.4	23.1	0.00e+00	0	40	0	629145600	52	5989
2026-01-25 15:03:48.76	13.82	53.92	-39.0	-39.9	23.4	0.00e+00	0	40	0	630194176	52	5656
2026-01-25 15:03:49.77	13.69	54.29	-38.3	-39.1	24.1	0.00e+00	0	40	0	632291328	50	5797
2026-01-25 15:03:50.78	13.56	54.65	-38.0	-38.8	24.4	0.00e+00	0	41	0	634388480	48	6274
2026-01-25 15:03:51.78	13.42	55.02	-38.3	-39.1	24.0	0.00e+00	0	41	0	636485632	48	6535
2026-01-25 15:03:52.79	13.28	55.39	-38.7	-39.5	23.8	0.00e+00	0	41	0	638582784	48	6844
2026-01-25 15:03:53.80	13.14	55.76	-39.2	-40.1	23.3	0.00e+00	0	41	0	639631360	50	6523
2026-01-25 15:03:54.81	12.99	56.14	-39.4	-40.3	23.2	0.00e+00	0	41	0	641728512	50	6632
2026-01-25 15:03:55.82	12.84	56.52	-38.9	-39.8	23.3	0.00e+00	0	41	0	643825664	50	6250
2026-01-25 15:03:56.83	12.69	56.90	-38.7	-39.5	23.6	0.00e+00	0	41	0	645922816	50	6065
2026-01-25 15:03:57.84	12.53	57.29	-40.0	-41.0	22.6	0.00e+00	0	41	0	648019968	52	6412
2026-01-25 15:03:58.85	12.36	57.67	-41.2	-42.4	21.3	0.00e+00	0	41	0	649068544	54	6763
2026-01-25 15:03:59.86	12.19	58.06	-42.2	-43.5	21.0	0.00e+00	0	41	0	651165696	56	6818
2026-01-25 15:04:00.86	12.02	58.45	-41.9	-43.1	21.2	0.00e+00	0	40	0	653262848	56	6496
2026-01-25 15:04:01.87	11.84	58.84	-41.1	-42.2	21.9	0.00e+00	0	41	0	655360000	56	5848
2026-01-25 15:04:02.88	11.65	59.24	-41.0	-42.1	21.7	0.00e+00	0	41	0	657457152	54	6482
2026-01-25 15:04:03.89	11.46	59.63	-41.7	-43.0	21.4	0.00e+00	0	41	0	658505728	54	7196
2026-01-25 15:04:04.90	11.26	60.03	-41.5	-42.7	21.2	0.00e+00	0	41	0	660602880	54	6983
2026-01-25 15:04:05.91	11.06	60.44	-41.2	-42.4	21.5	0.00e+00	0	41	0	662700032	54	6728
2026-01-25 15:04:06.92	10.85	60.84	-40.9	-42.0	21.8	0.00e+00	0	41	0	664797184	54	6426
2026-01-25 15:04:07.93	10.63	61.25	-41.5	-42.8	21.1	0.00e+00	0	41	0	666894336	54	7070
2026-01-25 15:04:08.94	10.40	61.66	-41.1	-42.3	21.7	0.00e+00	0	41	0	667942912	54	6675
2026-01-25 15:04:09.95	10.17	62.07	-40.2	-41.3	22.3	0.00e+00	0	40	0	670040064	54	5900
2026-01-25 15:04:10.95	9.93	62.48	-39.3	-40.3	23.4	0.00e+00	0	41	0	672137216	52	5901
2026-01-25 15:04:11.96	9.68	62.89	-38.6	-39.5	23.8	0.00e+00	0	41	0	674234368	50	6047
2026-01-25 15:04:12.97	9.42	63.31	-38.6	-39.5	23.7	0.00e+00	0	40	0	676331520	50	6040
2026-01-25 15:04:13.98	9.16	63.73	-37.9	-38.8	24.5	0.00e+00	0	41	0	677380096	50	5586
2026-01-25 15:04:14.99	8.88	64.15	-37.1	-37.9	24.9	0.00e+00	0	41	0	679477248	48	5650
2026-01-25 15:04:16.00	8.59	64.57	-37.4	-38.2	24.5	0.00e+00	0	41	0	681574400	48	5872
2026-01-25 15:04:17.01	8.29	65.00	-38.0	-38.9	24.2	0.00e+00	0	41	0	683671552	48	6350
2026-01-25 15:04:18.02	7.98	65.42	-38.4	-39.3	23.9	0.00e+00	0	40	0	685768704	48	6660
2026-01-25 15:04:19.03	7.65	65.85	-38.8	-39.6	23.8	0.00e+00	0	41	0	686817280	50	6171
2026-01-25 15:04:20.04	7.32	66.28	-39.7	-40.7	22.6	0.00e+00	0	41	0	688914432	50	6963
2026-01-25 15:04:21.05	6.97	66.71	-41.6	-42.9	21.1	0.00e+00	0	41	0	691011584	54	7116
2026-01-25 15:04:22.06	6.60	67.14	-41.4	-42.5	21.3	0.00e+00	0	41	0	693108736	56	6101
2026-01-25 15:04:23.07	6.22	67.58	-40.2	-41.2	22.5	0.00e+00	0	41	0	695205888	54	5836
2026-01-25 15:04:24.07	5.83	68.01	-40.8	-41.9	21.8	0.00e+00	0	41	0	697303040	54	6371
2026-01-25 15:04:25.08	5.41	68.44	-42.5	-44.0	19.9	0.00e+00	0	41	0	698351616	56	7219
2026-01-25 15:04:26.09	4.98	68.88	-42.8	-44.3	20.0	0.00e+00	0	41	0	700448768	58	6642
2026-01-25 15:04:27.10	4.52	69.32	-40.4	-41.4	22.4	0.00e+00	0	41	0	702545920	54	6004
2026-01-25 15:04:28.11	4.05	69.76	-39.9	-40.8	22.7	0.00e+00	0	41	0	704643072	52	6308
2026-01-25 15:04:29.12	3.55	70.20	-40.2	-41.2	22.4	0.00e+00	0	41	0	706740224	52	6543
2026-01-25 15:04:30.13	3.03	70.64	-40.6	-41.6	22.2	0.00e+00	0	41	0	707788800	52	6921
2026-01-25 15:04:31.14	2.48	71.08	-40.1	-41.1	22.6	0.00e+00	0	41	0	709885952	54	5773
2026-01-25 15:04:32.14	1.91	71.52	-39.8	-40.7	22.8	0.00e+00	0	41	0	711983104	52	6241
2026-01-25 15:04:33.15	1.30	71.96	-38.5	-39.3	23.8	0.00e+00	0	40	0	714080256	50	5912
2026-01-25 15:04:34.16	0.66	72.40	-37.6	-38.4	24.4	0.00e+00	0	41	0	716177408	48	5991
2026-01-25 15:04:35.17	359.99	72.84	-38.4	-39.3	24.0	0.00e+00	0	40	0	717225984	48	6619
2026-01-25 15:04:36.18	359.28	73.28	-39.8	-40.8	22.8	0.00e+00	0	40	0	719323136	52	6284
2026-01-25 15:04:37.19	358.53	73.71	-39.3	-40.2	23.2	0.00e+00	0	40	0	721420288	52	5879
2026-01-25 15:04:38.19	357.74	74.15	-38.9	-39.7	23.5	0.00e+00	0	41	0	723517440	52	5531
2026-01-25 15:04:39.21	356.89	74.59	-40.6	-41.7	22.1	0.00e+00	0	41	0	725614592	52	6945
2026-01-25 15:04:40.21	356.01	75.02	-41.7	-43.0	20.5	0.00e+00	0	41	0	726663168	54	7231
2026-01-25 15:04:41.22	355.06	75.45	-40.7	-41.7	22.4	0.00e+00	0	41	0	728760320	56	5537
2026-01-25 15:04:42.23	354.05	75.88	-40.6	-41.5	21.7	0.00e+00	0	41	0	730857472	54	6100
2026-01-25 15:04:43.24	352.98	76.30	-42.7	-44.1	19.6	0.00e+00	0	41	0	732954624	56	7257
2026-01-25 15:04:44.25	351.83	76.72	-43.2	-44.7	19.3	0.00e+00	0	41	0	735051776	60	6233
2026-01-25 15:04:45.26	350.61	77.14	-42.2	-43.5	20.7	0.00e+00	0	41	0	736100352	58	6076
2026-01-25 15:04:46.27	349.30	77.55	-42.8	-44.2	19.9	0.00e+00	0	41	0	738197504	56	7380
2026-01-25 15:04:47.28	347.90	77.96	-42.2	-43.5	20.5	0.00e+00	0	41	0	740294656	58	6060
2026-01-25 15:04:48.29	346.41	78.36	-42.5	-43.8	20.3	0.00e+00	0	41	0	742391808	56	7077
2026-01-25 15:04:49.30	344.80	78.75	-42.8	-44.3	20.1	0.00e+00	0	41	0	744488960	58	6659
2026-01-25 15:04:50.31	343.07	79.14	-40.7	-41.7	22.3	0.00e+00	0	41	0	745537536	56	5534
2026-01-25 15:04:51.32	341.22	79.51	-40.5	-41.6	22.1	0.00e+00	0	41	0	747634688	54	6107
2026-01-25 15:04:52.33	339.23	79.87	-41.6	-42.7	21.4	0.00e+00	0	41	0	749731840	56	6239
2026-01-25 15:04:53.34	337.10	80.23	-40.8	-41.9	21.9	0.00e+00	0	41	0	751828992	54	6338
2026-01-25 15:04:54.35	334.80	80.56	-39.3	-40.2	23.4	0.00e+00	0	41	0	753926144	52	5834
2026-01-25 15:04:55.36	332.33	80.88	-38.5	-39.3	23.8	0.00e+00	0	41	0	754974720	50	5920
2026-01-25 15:04:56.37	329.69	81.19	-38.6	-39.4	23.9	0.00e+00	0	41	0	757071872	50	6032
2026-01-25 15:04:57.38	326.86	81.47	-39.2	-40.1	23.6	0.00e+00	0	41	0	759169024	50	6504
2026-01-25 15:04:58.39	323.83	81.74	-39.2	-40.2	23.1	0.00e+00	0	41	0	761266176	50	6544
2026-01-25 15:04:59.40	320.62	81.98	-39.0	-39.9	23.3	0.00e+00	0	41	0	763363328	50	6340
2026-01-25 15:05:00.41	317.22	82.19	-40.5	-41.6	22.1	0.00e+00	0	41	0	765460480	52	6886
2026-01-25 15:05:01.42	313.63	82.37	-41.6	-42.8	21.2	0.00e+00	0	41	0	766509056	56	6288
2026-01-25 15:05:02.43	309.89	82.53	-40.1	-41.1	22.5	0.00e+00	0	41	0	768606208	54	5818
2026-01-25 15:05:03.44	306.00	82.65	-40.5	-41.6	22.1	0.00e+00	0	41	0	770703360	54	6137
2026-01-25 15:05:04.45	302.00	82.73	-40.3	-41.4	22.3	0.00e+00	0	41	0	772800512	54	5980
2026-01-25 15:05:05.46	297.92	82.78	-39.4	-40.3	23.2	0.00e+00	0	41	0	774897664	52	5919
2026-01-25 15:05:06.46	293.85	82.80	-40.1	-41.1	22.7	0.00e+00	0	41	0	775946240	52	6467
2026-01-25 15:05:07.47	289.74	82.78	-39.1	-40.0	23.5	0.00e+00	0	41	0	778043392	52	5724
2026-01-25 15:05:08.48	285.68	82.72	-39.1	-40.0	23.2	0.00e+00	0	41	0	780140544	50	6464
2026-01-25 15:05:09.49	281.71	82.62	-40.5	-41.6	22.1	0.00e+00	0	41	0	782237696	52	6912
2026-01-25 15:05:10.50	277.85	82.49	-39.2	-40.0	23.6	0.00e+00	0	41	0	784334848	52	5749
2026-01-25 15:05:11.51	274.15	82.33	-39.2	-40.1	23.3	0.00e+00	0	41	0	785383424	52	5768
2026-01-25 15:05:12.52	270.61	82.14	-40.7	-41.8	21.6	0.00e+00	0	41	0	787480576	52	7015
2026-01-25 15:05:13.53	267.25	81.92	-40.7	-41.7	22.2	0.00e+00	0	41	0	789577728	54	6239
2026-01-25 15:05:14.54	264.09	81.67	-40.9	-42.0	21.6	0.00e+00	0	41	0	791674880	54	6454
2026-01-25 15:05:15.55	261.11	81.40	-40.9	-42.0	21.7	0.00e+00	0	41	0	793772032	54	6432
2026-01-25 15:05:16.56	258.33	81.11	-40.2	-41.2	22.3	0.00e+00	0	41	0	794820608	54	5874
2026-01-25 15:05:17.57	255.73	80.80	-42.1	-43.3	20.7	0.00e+00	0	41	0	796917760	56	6692
2026-01-25 15:05:18.58	253.31	80.48	-42.1	-43.4	20.7	0.00e+00	0	41	0	799014912	56	6745
2026-01-25 15:05:19.59	251.05	80.13	-42.6	-44.0	20.0	0.00e+00	0	41	0	801112064	56	7221
2026-01-25 15:05:20.60	248.95	79.78	-42.9	-44.5	19.5	0.00e+00	0	41	0	803209216	58	6775
2026-01-25 15:05:21.61	247.00	79.41	-41.5	-42.7	21.1	0.00e+00	0	41	0	804257792	56	6210
2026-01-25 15:05:22.61	245.20	79.04	-41.9	-43.1	20.5	0.00e+00	0	41	0	806354944	56	6524
2026-01-25 15:05:23.63	243.49	78.65	-43.2	-44.8	19.0	0.00e+00	0	41	0	808452096	58	7037
2026-01-25 15:05:24.64	241.91	78.25	-43.5	-45.1	19.2	0.00e+00	0	41	0	810549248	60	6516
2026-01-25 15:05:25.65	240.44	77.85	-42.2	-43.5	20.6	0.00e+00	0	41	0	812646400	58	6071
2026-01-25 15:05:26.65	239.08	77.45	-41.6	-42.7	21.3	0.00e+00	0	41	0	813694976	58	5551
2026-01-25 15:05:27.66	237.79	77.03	-39.8	-40.8	23.0	0.00e+00	0	41	0	815792128	52	6253
2026-01-25 15:05:28.67	236.59	76.61	-39.1	-40.0	23.5	0.00e+00	0	41	0	817889280	52	5700
2026-01-25 15:05:29.68	235.46	76.19	-39.2	-40.1	23.4	0.00e+00	0	41	0	819986432	52	5827
2026-01-25 15:05:30.69	234.40	75.76	-38.8	-39.7	23.9	0.00e+00	0	41	0	822083584	50	6175
2026-01-25 15:05:31.70	233.41	75.33	-38.7	-39.5	23.5	0.00e+00	0	41	0	823132160	50	6087
2026-01-25 15:05:32.70	232.48	74.91	-40.7	-41.8	22.0	0.00e+00	0	41	0	825229312	52	7088
2026-01-25 15:05:33.71	231.60	74.47	-39.9	-40.9	22.5	0.00e+00	0	41	0	827326464	54	5647
2026-01-25 15:05:34.72	230.77	74.04	-38.8	-39.7	23.4	0.00e+00	0	41	0	829423616	52	5527
2026-01-25 15:05:35.73	229.99	73.60	-39.8	-40.7	22.8	0.00e+00	0	41	0	831520768	52	6236
2026-01-25 15:05:36.74	229.25	73.16	-38.5	-39.3	23.9	0.00e+00	0	41	0	832569344	50	5950
2026-01-25 15:05:37.75	228.55	72.72	-39.1	-40.0	23.4	0.00e+00	0	41	0	834666496	50	6436
2026-01-25 15:05:38.76	227.88	72.28	-39.3	-40.2	23.1	0.00e+00	0	41	0	836763648	50	6592
2026-01-25 15:05:39.77	227.25	71.84	-41.1	-42.3	21.6	0.00e+00	0	41	0	838860800	54	6661
2026-01-25 15:05:40.78	226.65	71.39	-43.0	-44.7	19.4	0.00e+00	0	41	0	840957952	58	6934
2026-01-25 15:05:41.79	226.08	70.95	-42.5	-44.1	20.0	0.00e+00	0	41	0	842006528	58	6495
2026-01-25 15:05:42.80	225.54	70.51	-41.7	-43.0	21.0	0.00e+00	0	41	0	844103680	58	5724
2026-01-25 15:05:43.81	225.02	70.07	-41.4	-42.6	21.5	0.00e+00	0	41	0	846200832	56	6128
2026-01-25 15:05:44.82	224.53	69.63	-40.5	-41.6	22.2	0.00e+00	0	41	0	848297984	54	6106
2026-01-25 15:05:45.83	224.06	69.19	-40.7	-41.7	22.0	0.00e+00	0	41	0	850395136	54	6225
2026-01-25 15:05:46.84	223.61	68.75	-41.5	-42.6	21.1	0.00e+00	0	41	0	851443712	56	6151
2026-01-25 15:05:47.85	223.18	68.32	-41.7	-42.9	21.4	0.00e+00	0	41	0	853540864	56	6348
2026-01-25 15:05:48.86	222.77	67.88	-39.5	-40.4	22.7	0.00e+00	0	41	0	855638016	54	5374
2026-01-25 15:05:49.87	222.38	67.44	-39.4	-40.3	23.4	0.00e+00	0	41	0	857735168	52	5947
2026-01-25 15:05:50.88	222.00	67.01	-39.0	-39.9	23.5	0.00e+00	0	41	0	859832320	50	6351
2026-01-25 15:05:51.89	221.64	66.58	-39.0	-39.9	23.5	0.00e+00	0	41	0	861929472	50	6362
2026-01-25 15:05:52.90	221.29	66.15	-38.9	-39.8	23.4	0.00e+00	0	41	0	862978048	50	6285
2026-01-25 15:05:53.90	220.96	65.72	-38.7	-39.6	23.7	0.00e+00	0	41	0	865075200	50	6106
2026-01-25 15:05:54.91	220.64	65.29	-37.9	-38.7	24.1	0.00e+00	0	41	0	867172352	48	6211
2026-01-25 15:05:55.92	220.34	64.86	-37.2	-38.0	24.6	0.00e+00	0	41	0	869269504	48	5737
2026-01-25 15:05:56.93	220.04	64.44	-36.6	-37.4	25.3	0.00e+00	0	41	0	871366656	46	6007
2026-01-25 15:05:57.94	219.75	64.02	-37.5	-38.3	24.6	0.00e+00	0	41	0	872415232	48	5939
2026-01-25 15:05:58.95	219.48	63.60	-38.4	-39.3	23.8	0.00e+00	0	41	0	874512384	48	6675
2026-01-25 15:05:59.96	219.21	63.18	-38.5	-39.3	24.0	0.00e+00	0	41	0	876609536	50	5942
2026-01-25 15:06:00.96	218.96	62.76	-37.7	-38.5	24.5	0.00e+00	0	41	0	878706688	50	5409
2026-01-25 15:06:01.97	218.71	62.35	-39.0	-39.9	23.5	0.00e+00	0	41	0	880803840	50	6329
2026-01-25 15:06:02.98	218.47	61.93	-39.2	-40.2	23.2	0.00e+00	0	41	0	881852416	50	6556
2026-01-25 15:06:03.99	218.24	61.52	-37.7	-38.5	24.5	0.00e+00	0	41	0	883949568	50	5424
2026-01-25 15:06:05.00	218.02	61.11	-37.7	-38.5	24.4	0.00e+00	0	41	0	886046720	48	6069
2026-01-25 15:06:06.01	217.80	60.71	-38.6	-39.5	23.8	0.00e+00	0	41	0	888143872	48	6780
2026-01-25 15:06:07.02	217.59	60.30	-38.6	-39.4	24.0	0.00e+00	0	41	0	890241024	48	6765
2026-01-25 15:06:08.03	217.39	59.90	-39.4	-40.3	22.9	0.00e+00	0	41	0	891289600	50	6684
2026-01-25 15:06:09.04	217.19	59.50	-42.0	-43.3	20.7	0.00e+00	0	41	0	893386752	56	6624
2026-01-25 15:06:10.05	217.00	59.10	-40.0	-41.0	22.8	0.00e+00	0	41	0	895483904	54	5726
2026-01-25 15:06:11.06	216.82	58.70	-38.3	-39.2	24.1	0.00e+00	0	41	0	897581056	50	5843
2026-01-25 15:06:12.07	216.64	58.31	-38.3	-39.2	24.0	0.00e+00	0	41	0	899678208	50	5845
2026-01-25 15:06:13.07	216.47	57.92	-39.1	-40.0	23.4	0.00e+00	0	41	0	900726784	50	6444
2026-01-25 15:06:14.08	216.30	57.53	-39.1	-40.0	23.1	0.00e+00	0	41	0	902823936	50	6407
2026-01-25 15:06:15.09	216.13	57.15	-39.1	-40.1	23.5	0.00e+00	0	41	0	904921088	50	6472
2026-01-25 15:06:16.10	215.97	56.76	-39.5	-40.5	23.1	0.00e+00	0	41	0	907018240	50	6781
2026-01-25 15:06:17.11	215.82	56.38	-39.4	-40.4	23.2	0.00e+00	0	41	0	909115392	52	6021
2026-01-25 15:06:18.12	215.67	56.00	-38.4	-39.3	23.9	0.00e+00	0	41	0	910163968	50	5961
2026-01-25 15:06:19.13	215.52	55.63	-37.3	-38.1	24.7	0.00e+00	0	41	0	912261120	48	5788
2026-01-25 15:06:20.14	215.38	55.25	-37.4	-38.2	24.7	0.00e+00	0	41	0	914358272	48	5835
2026-01-25 15:06:21.15	215.24	54.88	-37.8	-38.6	24.3	0.00e+00	0	41	0	916455424	48	6169
2026-01-25 15:06:22.16	215.11	54.51	-37.0	-37.7	25.0	0.00e+00	0	41	0	918552576	48	5551
2026-01-25 15:06:23.17	214.97	54.14	-36.1	-36.8	25.6	0.00e+00	0	41	0	919601152	46	5598
2026-01-25 15:06:24.18	214.85	53.78	-36.7	-37.5	25.1	0.00e+00	0	41	0	921698304	46	6049
2026-01-25 15:06:25.19	214.72	53.42	-38.0	-38.9	24.2	0.00e+00	0	41	0	923795456	48	6341
2026-01-25 15:06:26.20	214.60	53.06	-39.1	-40.0	23.4	0.00e+00	0	41	0	925892608	50	6427
2026-01-25 15:06:27.21	214.48	52.70	-38.7	-39.6	23.4	0.00e+00	0	41	0	927989760	50	6122
2026-01-25 15:06:28.22	214.36	52.34	-39.9	-41.0	22.2	0.00e+00	0	41	0	930086912	52	6401
2026-01-25 15:06:29.22	214.25	51.99	-41.6	-42.8	21.0	0.00e+00	0	41	0	931135488	54	7075
2026-01-25 15:06:30.23	214.14	51.64	-41.9	-43.1	21.3	0.00e+00	0	41	0	933232640	56	6505
2026-01-25 15:06:31.24	214.04	51.30	-40.9	-42.0	21.9	0.00e+00	0	41	0	935329792	56	5735
2026-01-25 15:06:32.25	213.93	50.95	-40.8	-41.9	22.0	0.00e+00	0	41	0	937426944	54	6330
2026-01-25 15:06:33.26	213.83	50.61	-39.8	-40.7	22.8	0.00e+00	0	41	0	939524096	54	5526
2026-01-25 15:06:34.27	213.73	50.27	-40.2	-41.2	22.5	0.00e+00	0	41	0	940572672	54	5848
2026-01-25 15:06:35.27	213.63	49.93	-40.8	-41.9	22.0	0.00e+00	0	41	0	942669824	54	6323
2026-01-25 15:06:36.28	213.53	49.60	-41.4	-42.6	21.4	0.00e+00	0	41	0	944766976	54	6865
2026-01-25 15:06:37.29	213.44	49.26	-41.7	-42.9	21.0	0.00e+00	0	41	0	946864128	56	6340
2026-01-25 15:06:38.31	213.35	48.93	-42.0	-43.2	21.0	0.00e+00	0	41	0	948961280	56	6604
2026-01-25 15:06:39.31	213.26	48.61	-41.3	-42.5	21.4	0.00e+00	0	41	0	950009856	56	6051
2026-01-25 15:06:40.32	213.17	48.28	-41.8	-43.1	20.9	0.00e+00	0	41	0	952107008	56	6480
2026-01-25 15:06:41.33	213.09	47.96	-40.5	-41.6	22.3	0.00e+00	0	41	0	954204160	54	6121
2026-01-25 15:06:42.34	213.00	47.63	-40.4	-41.5	22.4	0.00e+00	0	41	0	956301312	54	6061
2026-01-25 15:06:43.35	212.92	47.31	-40.9	-42.1	21.8	0.00e+00	0	41	0	958398464	54	6466
2026-01-25 15:06:44.36	212.84	47.00	-41.2	-42.4	21.6	0.00e+00	0	41	0	959447040	54	6735
2026-01-25 15:06:45.37	212.76	46.68	-41.0	-42.2	21.9	0.00e+00	0	41	0	961544192	56	5838
2026-01-25 15:06:46.38	212.69	46.37	-40.6	-41.7	22.1	0.00e+00	0	41	0	963641344	54	6201
2026-01-25 15:06:47.39	212.61	46.06	-39.5	-40.4	22.9	0.00e+00	0	41	0	965738496	54	5339
2026-01-25 15:06:48.40	212.54	45.75	-39.8	-40.8	23.0	0.00e+00	0	41	0	967835648	52	6254
2026-01-25 15:06:49.40	212.46	45.45	-40.7	-41.8	22.1	0.00e+00	0	41	0	968884224	52	7024
2026-01-25 15:06:50.42	212.39	45.14	-42.4	-43.7	20.3	0.00e+00	0	41	0	970981376	56	6970
2026-01-25 15:06:51.42	212.32	44.85	-43.4	-45.0	19.1	0.00e+00	0	41	0	973078528	58	7209
2026-01-25 15:06:52.43	212.26	44.55	-44.4	-46.4	17.9	0.00e+00	0	41	0	975175680	60	7540
2026-01-25 15:06:53.44	212.19	44.25	-45.3	-47.6	16.8	0.00e+00	0	41	0	977272832	60	8720
2026-01-25 15:06:54.45	212.12	43.96	-45.6	-48.3	16.0	0.00e+00	0	41	0	978321408	60	9427
2026-01-25 15:06:55.46	212.06	43.67	-47.0	-51.0	14.8	3.80e-06	0	41	0	980418560	60	12893
2026-01-25 15:06:56.47	212.00	43.38	-46.9	-50.5	13.6	7.00e-07	0	41	0	982515712	60	12175
2026-01-25 15:06:57.48	211.93	43.09	-45.2	-47.5	16.8	0.00e+00	0	41	0	984612864	60	8570
2026-01-25 15:06:58.49	211.87	42.80	-43.0	-44.4	19.8	0.00e+00	0	41	0	986710016	60	6019
2026-01-25 15:06:59.50	211.81	42.52	-41.9	-43.1	21.2	0.00e+00	0	41	0	987758592	58	5806
2026-01-25 15:07:00.51	211.75	42.24	-41.3	-42.4	21.5	0.00e+00	0	41	0	989855744	56	6023
2026-01-25 15:07:01.52	211.70	41.96	-42.5	-43.8	20.6	0.00e+00	0	41	0	991952896	56	7020
2026-01-25 15:07:02.53	211.64	41.68	-42.5	-43.9	20.2	0.00e+00	0	41	0	994050048	56	7093
2026-01-25 15:07:03.54	211.59	41.40	-42.3	-43.5	19.4	0.00e+00	0	41	0	996147200	56	6845
2026-01-25 15:07:04.54	211.53	41.13	-43.7	-45.4	19.4	0.00e+00	0	41	0	997195776	60	6693
2026-01-25 15:07:05.55	211.48	40.86	-42.9	-44.5	19.8	0.00e+00	0	41	0	999292928	60	6036
2026-01-25 15:07:06.56	211.43	40.59	-44.1	-45.9	18.4	0.00e+00	0	41	0	1001390080	60	7146
2026-01-25 15:07:07.57	211.37	40.33	-45.2	-47.5	17.4	0.00e+00	0	41	0	1003487232	60	8528
2026-01-25 15:07:08.58	211.32	40.06	-44.3	-46.1	18.3	0.00e+00	0	41	0	1005584384	60	7291
2026-01-25 15:07:09.59	211.27	39.80	-41.5	-42.6	21.5	0.00e+00	0	41	0	1006632960	58	5470
2026-01-25 15:07:10.60	211.22	39.54	-39.4	-40.3	23.3	0.00e+00	0	41	0	1008730112	52	5912
2026-01-25 15:07:11.61	211.18	39.28	-38.7	-39.5	23.8	0.00e+00	0	41	0	1010827264	50	6101
2026-01-25 15:07:12.62	211.13	39.02	-38.0	-38.8	24.3	0.00e+00	0	41	0	1012924416	50	5629
2026-01-25 15:07:13.63	211.08	38.76	-38.5	-39.3	23.9	0.00e+00	0	41	0	1015021568	50	5939
2026-01-25 15:07:14.64	211.04	38.51	-39.7	-40.6	23.0	0.00e+00	0	41	0	1016070144	50	6896
2026-01-25 15:07:15.65	210.99	38.26	-40.8	-41.8	21.9	0.00e+00	0	41	0	1018167296	52	7086
2026-01-25 15:07:16.66	210.95	38.01	-41.8	-43.0	20.8	0.00e+00	0	41	0	1020264448	56	6410
2026-01-25 15:07:17.67	210.90	37.76	-42.8	-44.2	20.1	0.00e+00	0	41	0	1022361600	58	6596
2026-01-25 15:07:18.68	210.86	37.51	-42.4	-43.7	20.5	0.00e+00	0	41	0	1024458752	58	6231
2026-01-25 15:07:19.69	210.82	37.27	-41.6	-42.8	21.2	0.00e+00	0	41	0	1026555904	56	6290
2026-01-25 15:07:20.70	210.78	37.02	-41.6	-42.9	21.0	0.00e+00	0	41	0	1027604480	56	6341
2026-01-25 15:07:21.71	210.74	36.78	-41.8	-43.0	21.1	0.00e+00	0	41	0	1029701632	56	6427
2026-01-25 15:07:22.72	210.70	36.54	-41.5	-42.7	21.1	0.00e+00	0	41	0	1031798784	56	6217
2026-01-25 15:07:23.72	210.66	36.31	-42.1	-43.4	20.7	0.00e+00	0	41	0	1033895936	56	6740
2026-01-25 15:07:24.73	210.62	36.07	-42.2	-43.6	20.6	0.00e+00	0	41	0	1035993088	56	6877
2026-01-25 15:07:25.74	210.58	35.84	-42.3	-43.6	20.3	0.00e+00	0	41	0	1037041664	56	6914
2026-01-25 15:07:26.75	210.54	35.60	-42.0	-43.3	20.7	0.00e+00	0	41	0	1039138816	56	6679
2026-01-25 15:07:27.76	210.50	35.37	-41.7	-42.9	21.2	0.00e+00	0	41	0	1041235968	56	6328
2026-01-25 15:07:28.77	210.47	35.14	-40.5	-41.6	22.2	0.00e+00	0	41	0	1043333120	54	6110
2026-01-25 15:07:29.78	210.43	34.92	-40.4	-41.4	22.4	0.00e+00	0	41	0	1045430272	54	5970
2026-01-25 15:07:30.79	210.40	34.69	-40.4	-41.4	22.4	0.00e+00	0	41	0	1046478848	54	6004
2026-01-25 15:07:31.80	210.36	34.47	-40.5	-41.5	22.2	0.00e+00	0	41	0	1048576000	54	6090
2026-01-25 15:07:32.81	210.33	34.24	-40.2	-41.2	22.4	0.00e+00	0	41	0	1050673152	54	5890
2026-01-25 15:07:33.81	210.29	34.02	-40.5	-41.6	22.1	0.00e+00	0	41	0	1052770304	54	6137
2026-01-25 15:07:34.83	210.26	33.80	-41.4	-42.6	21.3	0.00e+00	0	41	0	1054867456	54	6884
2026-01-25 15:07:35.84	210.23	33.58	-41.5	-42.6	21.2	0.00e+00	0	41	0	1055916032	56	6164
2026-01-25 15:07:36.84	210.19	33.37	-42.6	-44.0	20.2	0.00e+00	0	41	0	1058013184	56	7214
2026-01-25 15:07:37.85	210.16	33.15	-43.4	-45.0	19.2	0.00e+00	0	41	0	1060110336	58	7208
2026-01-25 15:07:38.86	210.13	32.94	-43.9	-45.7	18.7	0.00e+00	0	41	0	1062207488	60	7003
2026-01-25 15:07:39.87	210.10	32.73	-44.3	-46.3	17.9	0.00e+00	0	41	0	1064304640	60	7454
2026-01-25 15:07:40.88	210.07	32.52	-45.6	-48.3	17.5	0.00e+00	0	41	0	1065353216	60	9368
2026-01-25 15:07:41.89	210.04	32.31	-44.9	-47.2	17.2	0.00e+00	0	41	0	1067450368	60	8321
2026-01-25 15:07:42.90	210.01	32.10	-44.1	-46.1	18.3	0.00e+00	0	41	0	1069547520	60	7335
2026-01-25 15:07:43.91	209.98	31.89	-43.7	-45.6	18.8	0.00e+00	0	41	0	1071644672	60	6875
2026-01-25 15:07:44.92	209.95	31.69	-43.1	-44.8	19.5	0.00e+00	0	41	0	1073741824	60	6271
2026-01-25 15:07:45.93	209.92	31.48	-43.1	-44.7	19.6	0.00e+00	0	41	0	1074790400	60	6203
2026-01-25 15:07:46.94	209.89	31.28	-42.9	-44.5	19.8	0.00e+00	0	41	0	1076887552	60	6054
2026-01-25 15:07:47.95	209.87	31.08	-42.3	-43.7	20.5	0.00e+00	0	41	0	1078984704	58	6186
2026-01-25 15:07:48.96	209.84	30.88	-42.5	-44.0	20.2	0.00e+00	0	41	0	1081081856	58	6393
2026-01-25 15:07:49.97	209.81	30.68	-41.8	-43.1	20.9	0.00e+00	0	41	0	1083179008	58	5762
2026-01-25 15:07:50.99	209.79	30.49	-41.7	-42.9	21.1	0.00e+00	0	41	0	1084227584	56	6356
2026-01-25 15:07:51.99	209.76	30.29	-41.4	-42.6	21.3	0.00e+00	0	41	0	1086324736	56	6163
2026-01-25 15:07:53.00	209.73	30.10	-41.4	-42.6	21.5	0.00e+00	0	41	0	1088421888	56	6109
2026-01-25 15:07:54.01	209.71	29.91	-41.1	-42.3	21.6	0.00e+00	0	41	0	1090519040	56	5899
2026-01-25 15:07:55.02	209.68	29.71	-41.0	-42.1	21.8	0.00e+00	0	41	0	1092616192	56	5792
2026-01-25 15:07:56.03	209.66	29.52	-41.0	-42.1	21.8	0.00e+00	0	41	0	1094713344	56	5770
2026-01-25 15:07:57.04	209.63	29.33	-40.4	-41.5	22.4	0.00e+00	0	41	0	1095761920	54	6041
2026-01-25 15:07:58.05	209.61	29.15	-40.5	-41.6	22.2	0.00e+00	0	41	0	1097859072	54	6110
2026-01-25 15:07:59.06	209.59	28.96	-40.2	-41.2	22.5	0.00e+00	0	41	0	1099956224	54	5888
2026-01-25 15:08:00.07	209.56	28.77	-40.2	-41.2	22.5	0.00e+00	0	41	0	1102053376	54	5876
2026-01-25 15:08:01.08	209.54	28.59	-40.8	-42.0	21.9	0.00e+00	0	41	0	1104150528	54	6399
2026-01-25 15:08:02.09	209.52	28.41	-40.8	-42.0	22.0	0.00e+00	0	41	0	1105199104	54	6412
2026-01-25 15:08:03.10	209.49	28.23	-41.2	-42.4	21.6	0.00e+00	0	41	0	1107296256	54	6698
2026-01-25 15:08:04.11	209.47	28.05	-41.6	-42.9	21.0	0.00e+00	0	41	0	1109393408	54	7095
2026-01-25 15:08:05.12	209.45	27.87	-41.9	-43.3	20.8	0.00e+00	0	41	0	1111490560	56	6622
2026-01-25 15:08:06.13	209.43	27.69	-42.1	-43.5	20.6	0.00e+00	0	41	0	1113587712	56	6808
2026-01-25 15:08:07.13	209.41	27.51	-42.3	-43.7	20.4	0.00e+00	0	41	0	1114636288	56	6955
2026-01-25 15:08:08.14	209.38	27.34	-42.2	-43.6	20.6	0.00e+00	0	41	0	1116733440	56	6874
2026-01-25 15:08:09.15	209.36	27.16	-41.5	-42.7	21.3	0.00e+00	0	41	0	1118830592	56	6200
2026-01-25 15:08:10.16	209.34	26.99	-40.9	-42.0	21.6	0.00e+00	0	41	0	1120927744	56	5748
2026-01-25 15:08:11.17	209.32	26.82	-40.2	-41.2	22.5	0.00e+00	0	41	0	1123024896	54	5871
2026-01-25 15:08:12.18	209.30	26.64	-39.8	-40.8	22.8	0.00e+00	0	41	0	1124073472	54	5619
2026-01-25 15:08:13.19	209.28	26.47	-39.6	-40.6	23.2	0.00e+00	0	41	0	1126170624	52	6126
2026-01-25 15:08:14.20	209.26	26.30	-38.9	-39.8	23.7	0.00e+00	0	41	0	1128267776	52	5579
2026-01-25 15:08:15.21	209.24	26.14	-39.0	-39.9	23.4	0.00e+00	0	41	0	1130364928	50	6347
2026-01-25 15:08:16.22	209.22	25.97	-39.0	-39.9	23.5	0.00e+00	0	41	0	1132462080	50	6372
2026-01-25 15:08:17.23	209.20	25.80	-38.6	-39.4	23.9	0.00e+00	0	41	0	1133510656	50	6015
2026-01-25 15:08:18.24	209.19	25.64	-38.7	-39.6	23.7	0.00e+00	0	41	0	1135607808	50	6132
2026-01-25 15:08:19.25	209.17	25.47	-39.3	-40.2	23.2	0.00e+00	0	41	0	1137704960	50	6598
2026-01-25 15:08:20.25	209.15	25.31	-39.5	-40.4	23.1	0.00e+00	0	41	0	1139802112	50	6752
2026-01-25 15:08:21.27	209.13	25.15	-40.0	-41.0	22.6	0.00e+00	0	41	0	1141899264	52	6428
2026-01-25 15:08:22.27	209.11	24.99	-40.7	-41.8	21.9	0.00e+00	0	41	0	1142947840	52	7028
2026-01-25 15:08:23.28	209.10	24.83	-41.1	-42.3	21.6	0.00e+00	0	41	0	1145044992	54	6653
2026-01-25 15:08:24.29	209.08	24.67	-41.6	-42.9	21.0	0.00e+00	0	41	0	1147142144	54	7116
2026-01-25 15:08:25.30	209.06	24.51	-41.9	-43.3	20.7	0.00e+00	0	41	0	1149239296	56	6618
2026-01-25 15:08:26.31	209.04	24.35	-42.1	-43.4	20.8	0.00e+00	0	41	0	1151336448	56	6739
2026-01-25 15:08:27.32	209.03	24.20	-41.8	-43.1	20.6	0.00e+00	0	41	0	1152385024	56	6538
2026-01-25 15:08:28.33	209.01	24.04	-41.9	-43.2	20.9	0.00e+00	0	41	0	1154482176	56	6578
2026-01-25 15:08:29.34	208.99	23.89	-41.8	-43.1	21.0	0.00e+00	0	41	0	1156579328	56	6472
2026-01-25 15:08:30.35	208.98	23.73	-41.7	-43.0	21.0	0.00e+00	0	41	0	1158676480	56	6405
2026-01-25 15:08:31.36	208.96	23.58	-41.6	-42.9	21.2	0.00e+00	0	41	0	1160773632	56	6339
2026-01-25 15:08:32.37	208.95	23.43	-40.9	-42.0	22.0	0.00e+00	0	41	0	1162870784	56	5727
2026-01-25 15:08:33.38	208.93	23.28	-40.7	-41.9	22.0	0.00e+00	0	41	0	1163919360	56	5643
2026-01-25 15:08:34.39	208.91	23.13	-40.7	-41.9	22.2	0.00e+00	0	41	0	1166016512	54	6318
2026-01-25 15:08:35.40	208.90	22.98	-40.1	-41.1	22.5	0.00e+00	0	41	0	1168113664	54	5801
2026-01-25 15:08:36.41	208.88	22.83	-39.8	-40.8	22.8	0.00e+00	0	41	0	1170210816	52	6279
2026-01-25 15:08:37.42	208.87	22.68	-39.5	-40.5	23.1	0.00e+00	0	41	0	1172307968	52	6070
2026-01-25 15:08:38.43	208.85	22.53	-39.1	-40.0	23.3	0.00e+00	0	41	0	1173356544	52	5761
2026-01-25 15:08:39.43	208.84	22.39	-38.8	-39.7	23.7	0.00e+00	0	41	0	1175453696	52	5547
2026-01-25 15:08:40.44	208.83	22.24	-38.9	-39.8	23.6	0.00e+00	0	41	0	1177550848	50	6254
2026-01-25 15:08:41.45	208.81	22.10	-38.6	-39.4	23.8	0.00e+00	0	41	0	1179648000	50	6012
2026-01-25 15:08:42.46	208.80	21.96	-38.3	-39.2	24.1	0.00e+00	0	41	0	1181745152	50	5840
2026-01-25 15:08:43.47	208.78	21.81	-38.4	-39.2	24.0	0.00e+00	0	41	0	1182793728	50	5892
2026-01-25 15:08:44.48	208.77	21.67	-38.3	-39.1	24.1	0.00e+00	0	41	0	1184890880	50	5791
2026-01-25 15:08:45.49	208.76	21.53	-38.3	-39.2	24.0	0.00e+00	0	41	0	1186988032	50	5829
2026-01-25 15:08:46.50	208.74	21.39	-38.4	-39.3	23.8	0.00e+00	0	41	0	1189085184	50	5898
2026-01-25 15:08:47.51	208.73	21.25	-38.6	-39.4	23.8	0.00e+00	0	41	0	1191182336	50	6013
2026-01-25 15:08:48.51	208.72	21.11	-38.9	-39.8	23.5	0.00e+00	0	41	0	1192230912	50	6294
2026-01-25 15:08:49.53	208.70	20.97	-38.9	-39.8	23.5	0.00e+00	0	41	0	1194328064	50	6261
2026-01-25 15:08:50.53	208.69	20.84	-39.0	-39.9	23.5	0.00e+00	0	41	0	1196425216	50	6327
2026-01-25 15:08:51.54	208.68	20.70	-39.2	-40.1	23.3	0.00e+00	0	41	0	1198522368	50	6474
2026-01-25 15:08:52.55	208.66	20.57	-39.2	-40.1	23.3	0.00e+00	0	41	0	1200619520	50	6478
2026-01-25 15:08:53.56	208.65	20.43	-39.5	-40.4	23.0	0.00e+00	0	41	0	1201668096	50	6769
2026-01-25 15:08:54.57	208.64	20.30	-39.4	-40.3	23.1	0.00e+00	0	41	0	1203765248	50	6671
2026-01-25 15:08:55.58	208.63	20.16	-39.2	-40.1	23.2	0.00e+00	0	41	0	1205862400	50	6510
2026-01-25 15:08:56.59	208.62	20.03	-39.1	-40.0	23.2	0.00e+00	0	41	0	1207959552	50	6453
2026-01-25 15:08:57.60	208.60	19.90	-39.1	-40.0	23.3	0.00e+00	0	41	0	1210056704	50	6403
2026-01-25 15:08:58.61	208.59	19.77	-39.2	-40.1	23.1	0.00e+00	0	41	0	1211105280	50	6525
2026-01-25 15:08:59.62	208.58	19.64	-39.2	-40.1	23.2	0.00e+00	0	41	0	1213202432	50	6518
