passes_logs/2026/01/25/R4.6S_Anadyr/R4.6S_Anadyr__20260125_013234_NOAA_20_JPSS-1_rec.log

#Pass ID: 20260125_013234_NOAA 20 (JPSS-1)
#Satellite: NOAA 20 (JPSS-1)
#Configuration: NOAA 20
#almurnet v.1.7.20251203
#Start time: 2026-01-25 01:32:37

#Version: 2.2.20231116
#Station: R4.6S_Anadyr
#Location: 177.4865 lon 64.73178 lat
#TLE: 1 43013U 17073A   26024.42258823  .00000183  00000+0  10747-3 0  9990
#TLE: 2 43013  98.7646 325.2629 0001105  25.8644 334.2587 14.19539754424075

#Time	Az	El	Level	Level2	SNR	BER	BlckErr	Temp	State	Recorded	gain1	gain2
2026-01-25 01:32:37.48	190.07	0.18	-51.0	-64.7	3.3	1.54e+00	0	39	0	0	60	62280
2026-01-25 01:32:38.49	190.11	0.24	-50.6	-65.9	3.6	1.51e+00	0	40	104	0	60	71095
2026-01-25 01:32:39.50	190.15	0.29	-50.6	-65.8	3.6	1.51e+00	0	40	104	0	60	70571
2026-01-25 01:32:40.51	190.20	0.35	-50.5	-65.8	3.6	1.51e+00	0	40	104	0	60	70151
2026-01-25 01:32:41.52	190.24	0.41	-50.5	-65.7	3.6	1.51e+00	0	40	104	0	60	70065
2026-01-25 01:32:42.53	190.29	0.47	-50.5	-65.7	3.6	1.51e+00	0	40	104	0	60	69715
2026-01-25 01:32:43.54	190.33	0.53	-50.4	-65.7	3.6	1.51e+00	0	40	104	0	60	69703
2026-01-25 01:32:44.55	190.38	0.58	-50.4	-65.6	3.6	1.51e+00	0	40	104	0	60	69043
2026-01-25 01:32:45.56	190.42	0.64	-50.3	-65.6	3.6	1.51e+00	0	40	104	0	60	68972
2026-01-25 01:32:46.56	190.47	0.70	-50.4	-65.6	3.6	1.51e+00	0	40	104	0	60	69039
2026-01-25 01:32:47.57	190.51	0.76	-50.4	-65.6	3.6	1.51e+00	0	40	104	0	60	68789
2026-01-25 01:32:48.59	190.56	0.82	-50.4	-65.6	3.6	1.51e+00	0	40	104	0	60	69247
2026-01-25 01:32:49.59	190.60	0.88	-50.3	-65.5	3.6	1.51e+00	0	40	104	0	60	67992
2026-01-25 01:32:50.60	190.65	0.94	-50.2	-65.4	3.6	1.51e+00	0	40	104	0	60	67496
2026-01-25 01:32:51.61	190.69	0.99	-50.1	-65.4	3.6	1.51e+00	0	40	104	0	60	67064
2026-01-25 01:32:52.62	190.74	1.05	-50.0	-65.2	3.6	1.51e+00	0	40	104	0	60	66005
2026-01-25 01:32:53.63	190.78	1.11	-49.9	-65.1	3.6	1.51e+00	0	40	104	0	60	64992
2026-01-25 01:32:54.64	190.83	1.17	-49.7	-64.9	3.6	1.51e+00	0	40	104	0	60	63704
2026-01-25 01:32:55.66	190.88	1.23	-49.5	-64.7	3.6	1.51e+00	0	40	104	0	60	62120
2026-01-25 01:32:56.66	190.92	1.29	-49.5	-64.7	3.6	1.51e+00	0	40	104	0	60	62140
2026-01-25 01:32:57.68	190.97	1.35	-49.4	-64.5	3.6	1.51e+00	0	40	104	0	60	60772
2026-01-25 01:32:58.69	191.02	1.41	-49.4	-64.5	3.6	1.51e+00	0	40	104	0	60	60740
2026-01-25 01:32:59.70	191.07	1.47	-49.3	-64.5	3.6	1.51e+00	0	40	104	0	60	60879
2026-01-25 01:33:00.71	191.11	1.53	-49.3	-64.5	3.6	1.51e+00	0	40	104	0	60	60692
2026-01-25 01:33:01.71	191.16	1.59	-49.3	-64.5	3.6	1.51e+00	0	40	104	0	60	60349
2026-01-25 01:33:02.72	191.21	1.65	-49.3	-64.5	3.6	1.51e+00	0	40	104	0	60	60485
2026-01-25 01:33:03.73	191.26	1.71	-49.3	-64.5	3.6	1.51e+00	0	40	104	0	60	60553
2026-01-25 01:33:04.74	191.30	1.77	-49.3	-64.4	3.6	1.51e+00	0	40	104	0	60	60327
2026-01-25 01:33:05.75	191.35	1.83	-49.3	-64.4	3.6	1.51e+00	0	40	104	0	60	60251
2026-01-25 01:33:06.76	191.40	1.89	-49.3	-64.5	3.6	1.51e+00	0	40	104	0	60	60571
2026-01-25 01:33:07.77	191.45	1.95	-49.3	-64.5	3.6	1.51e+00	0	40	104	0	60	60517
2026-01-25 01:33:08.78	191.50	2.01	-49.3	-64.5	3.6	1.51e+00	0	40	104	0	60	60632
2026-01-25 01:33:09.79	191.55	2.07	-49.3	-64.4	3.6	1.51e+00	0	40	104	0	60	60201
2026-01-25 01:33:10.80	191.60	2.13	-49.3	-64.4	3.6	1.51e+00	0	40	104	0	60	60229
2026-01-25 01:33:11.81	191.65	2.20	-49.3	-64.4	3.6	1.51e+00	0	40	104	0	60	60312
2026-01-25 01:33:12.82	191.70	2.26	-49.3	-64.5	3.6	1.51e+00	0	40	104	0	60	60752
2026-01-25 01:33:13.83	191.74	2.32	-49.3	-64.3	3.6	1.51e+00	0	40	104	0	60	59611
2026-01-25 01:33:14.84	191.79	2.38	-49.3	-64.3	3.6	1.51e+00	0	40	104	0	60	59509
2026-01-25 01:33:15.85	191.85	2.44	-49.3	-63.7	3.6	1.51e+00	0	40	104	0	60	55584
2026-01-25 01:33:16.86	191.90	2.50	-49.3	-63.9	3.6	1.51e+00	0	40	104	0	60	56510
2026-01-25 01:33:17.87	191.95	2.56	-49.2	-63.6	3.6	1.51e+00	0	40	104	0	60	54485
2026-01-25 01:33:18.88	192.00	2.63	-49.3	-63.7	3.6	1.51e+00	0	40	104	0	60	55448
2026-01-25 01:33:19.89	192.05	2.69	-49.3	-64.2	3.6	1.51e+00	0	40	104	0	60	58314
2026-01-25 01:33:20.90	192.10	2.75	-49.3	-63.8	3.6	1.51e+00	0	40	104	0	60	56218
2026-01-25 01:33:21.91	192.15	2.81	-49.3	-63.2	3.6	1.51e+00	0	40	104	0	60	52255
2026-01-25 01:33:22.92	192.20	2.88	-49.1	-60.9	3.9	1.49e+00	0	41	0	0	60	39923
2026-01-25 01:33:23.93	192.25	2.94	-48.7	-56.3	6.0	3.87e-01	90	40	0	1048576	60	23652
2026-01-25 01:33:24.94	192.31	3.00	-48.6	-55.8	7.5	2.35e-01	92	40	0	3145728	60	22266
2026-01-25 01:33:25.94	192.36	3.06	-47.6	-52.3	10.6	1.25e-02	90	41	0	5242880	60	14920
2026-01-25 01:33:26.95	192.41	3.13	-47.1	-51.2	12.5	1.59e-03	92	40	0	7340032	60	13159
2026-01-25 01:33:27.96	192.46	3.19	-47.2	-51.4	11.6	7.24e-05	0	41	0	8388608	60	13493
2026-01-25 01:33:28.97	192.51	3.25	-45.9	-48.9	14.5	2.13e-05	92	41	0	10485760	60	10060
2026-01-25 01:33:29.97	192.57	3.31	-46.2	-49.4	13.9	3.80e-06	2	41	0	12582912	60	10704
2026-01-25 01:33:30.98	192.62	3.38	-46.4	-49.7	13.7	5.30e-06	92	40	0	14680064	60	11046
2026-01-25 01:33:31.99	192.67	3.44	-46.7	-50.2	13.1	1.22e-05	92	40	0	16777216	60	11753
2026-01-25 01:33:33.00	192.73	3.51	-47.6	-52.2	11.3	5.30e-06	92	40	0	17825792	60	14714
2026-01-25 01:33:34.01	192.78	3.57	-47.8	-52.7	10.5	1.17e-03	92	40	0	19922944	60	15594
2026-01-25 01:33:35.02	192.84	3.63	-49.2	-62.8	3.6	7.93e-02	0	41	104	22020096	60	49647
2026-01-25 01:33:36.03	192.89	3.70	-49.3	-63.9	3.6	1.51e+00	0	41	104	22020096	60	56754
2026-01-25 01:33:37.04	192.94	3.76	-46.1	-49.2	14.3	1.18e+00	73	41	104	22020096	60	10389
2026-01-25 01:33:38.05	193.00	3.83	-45.5	-48.0	15.8	0.00e+00	92	41	0	22020096	60	9078
2026-01-25 01:33:39.05	193.05	3.89	-46.0	-48.9	14.7	0.00e+00	92	41	0	24117248	60	10023
2026-01-25 01:33:40.06	193.11	3.95	-45.8	-48.5	15.1	7.00e-07	92	41	0	26214400	60	9606
2026-01-25 01:33:41.07	193.16	4.02	-46.4	-49.6	14.1	7.00e-07	92	41	0	28311552	60	10861
2026-01-25 01:33:42.08	193.22	4.08	-46.3	-49.2	14.8	0.00e+00	91	41	0	29360128	60	10386
2026-01-25 01:33:43.09	193.28	4.15	-45.7	-48.1	15.0	7.00e-07	92	41	0	31457280	60	9237
2026-01-25 01:33:44.09	193.33	4.21	-46.8	-50.1	14.1	0.00e+00	7	41	0	33554432	60	11553
2026-01-25 01:33:45.10	193.39	4.28	-46.1	-49.0	14.2	7.00e-07	91	41	0	35651584	60	10169
2026-01-25 01:33:46.11	193.44	4.34	-45.9	-48.6	15.3	0.00e+00	0	41	0	37748736	60	9751
2026-01-25 01:33:47.11	193.50	4.41	-46.6	-49.8	14.3	1.50e-06	92	41	0	38797312	60	11152
2026-01-25 01:33:48.12	193.56	4.47	-46.4	-49.4	14.0	2.20e-06	91	41	0	40894464	60	10684
2026-01-25 01:33:49.13	193.61	4.54	-46.4	-49.4	14.5	7.00e-07	90	41	0	42991616	60	10662
2026-01-25 01:33:50.14	193.67	4.61	-46.6	-49.8	14.2	1.75e-05	91	41	0	45088768	60	11155
2026-01-25 01:33:51.15	193.73	4.67	-46.1	-48.8	14.9	7.00e-07	4	41	0	47185920	60	10011
2026-01-25 01:33:52.16	193.79	4.74	-46.0	-48.7	15.4	0.00e+00	92	41	0	48234496	60	9869
2026-01-25 01:33:53.17	193.85	4.80	-46.1	-48.8	14.8	0.00e+00	0	41	0	50331648	60	9951
2026-01-25 01:33:54.18	193.91	4.87	-45.3	-47.6	16.4	0.00e+00	92	41	0	52428800	60	8668
2026-01-25 01:33:55.18	193.96	4.94	-45.8	-48.5	15.5	0.00e+00	92	41	0	54525952	60	9581
2026-01-25 01:33:56.19	194.02	5.00	-45.6	-48.0	16.1	0.00e+00	92	41	0	56623104	60	9087
2026-01-25 01:33:57.20	194.08	5.07	-45.8	-48.5	15.1	0.00e+00	92	41	0	58720256	60	9648
2026-01-25 01:33:58.21	194.14	5.14	-45.4	-47.8	16.0	0.00e+00	45	41	0	59768832	60	8868
2026-01-25 01:33:59.22	194.20	5.21	-45.1	-47.3	16.5	0.00e+00	92	41	0	61865984	60	8397
2026-01-25 01:34:00.23	194.26	5.27	-44.7	-46.8	17.0	0.00e+00	11	41	0	63963136	60	7925
2026-01-25 01:34:01.24	194.32	5.34	-44.9	-47.0	16.8	0.00e+00	92	41	0	66060288	60	8107
2026-01-25 01:34:02.25	194.38	5.41	-44.3	-46.2	17.6	0.00e+00	0	41	0	68157440	60	7413
2026-01-25 01:34:03.26	194.44	5.48	-44.7	-46.7	17.2	0.00e+00	92	41	0	69206016	60	7831
2026-01-25 01:34:04.27	194.50	5.54	-44.8	-46.9	17.1	0.00e+00	92	41	0	71303168	60	7980
2026-01-25 01:34:05.28	194.57	5.61	-45.0	-47.1	16.9	0.00e+00	92	41	0	73400320	60	8181
2026-01-25 01:34:06.29	194.63	5.68	-44.9	-47.0	16.9	0.00e+00	90	41	0	75497472	60	8109
2026-01-25 01:34:07.30	194.69	5.75	-44.9	-46.9	17.2	0.00e+00	0	41	0	77594624	60	8039
2026-01-25 01:34:08.31	194.75	5.82	-44.8	-46.9	17.2	0.00e+00	92	41	0	78643200	60	8008
2026-01-25 01:34:09.32	194.81	5.89	-44.6	-46.5	17.4	0.00e+00	0	41	0	80740352	60	7675
2026-01-25 01:34:10.33	194.88	5.96	-44.3	-46.2	17.8	0.00e+00	92	41	0	82837504	60	7345
2026-01-25 01:34:11.34	194.94	6.02	-44.3	-46.2	17.7	0.00e+00	92	41	0	84934656	60	7392
2026-01-25 01:34:12.35	195.00	6.09	-44.4	-46.3	17.7	0.00e+00	92	41	0	87031808	60	7486
2026-01-25 01:34:13.36	195.07	6.16	-44.5	-46.5	17.5	0.00e+00	92	41	0	88080384	60	7620
2026-01-25 01:34:14.37	195.13	6.23	-44.2	-46.1	17.9	0.00e+00	16	41	0	90177536	60	7286
2026-01-25 01:34:15.38	195.19	6.30	-44.5	-46.4	17.6	0.00e+00	91	41	0	92274688	60	7537
2026-01-25 01:34:16.39	195.26	6.37	-44.1	-45.9	18.2	0.00e+00	64	41	0	94371840	60	7154
2026-01-25 01:34:17.40	195.32	6.44	-44.4	-46.3	17.7	0.00e+00	92	41	0	96468992	60	7432
2026-01-25 01:34:18.41	195.39	6.51	-44.1	-45.9	18.0	0.00e+00	92	41	0	97517568	60	7168
2026-01-25 01:34:19.42	195.45	6.58	-44.4	-46.3	17.6	0.00e+00	92	41	0	99614720	60	7473
2026-01-25 01:34:20.43	195.52	6.65	-44.0	-45.8	18.1	0.00e+00	90	41	0	101711872	60	7054
2026-01-25 01:34:21.44	195.59	6.72	-44.4	-46.4	17.6	0.00e+00	9	41	0	103809024	60	7510
2026-01-25 01:34:22.45	195.65	6.79	-44.3	-46.2	17.7	0.00e+00	92	41	0	105906176	60	7357
2026-01-25 01:34:23.46	195.72	6.87	-44.0	-45.9	17.9	0.00e+00	84	41	0	106954752	60	7095
2026-01-25 01:34:24.47	195.79	6.94	-44.1	-46.0	17.9	0.00e+00	92	41	0	109051904	60	7231
2026-01-25 01:34:25.48	195.85	7.01	-44.2	-46.1	17.8	0.00e+00	85	41	0	111149056	60	7274
2026-01-25 01:34:26.48	195.92	7.08	-44.2	-46.1	17.8	0.00e+00	92	41	0	113246208	60	7290
2026-01-25 01:34:27.49	195.99	7.15	-43.9	-45.8	18.2	0.00e+00	91	41	0	115343360	60	7015
2026-01-25 01:34:28.50	196.06	7.22	-44.2	-46.1	17.9	0.00e+00	59	41	0	116391936	60	7274
2026-01-25 01:34:29.51	196.12	7.29	-44.1	-45.9	18.2	0.00e+00	92	41	0	118489088	60	7140
2026-01-25 01:34:30.52	196.19	7.37	-44.1	-45.9	18.2	0.00e+00	0	41	0	120586240	60	7137
2026-01-25 01:34:31.53	196.26	7.44	-44.0	-45.7	18.3	0.00e+00	92	41	0	122683392	60	6993
2026-01-25 01:34:32.54	196.33	7.51	-44.2	-46.0	18.1	0.00e+00	4	41	0	124780544	60	7237
2026-01-25 01:34:33.55	196.40	7.58	-43.7	-45.4	18.7	0.00e+00	92	41	0	126877696	60	6716
2026-01-25 01:34:34.56	196.47	7.66	-44.1	-45.9	18.3	0.00e+00	93	41	0	127926272	60	7091
2026-01-25 01:34:35.57	196.54	7.73	-43.9	-45.7	18.5	0.00e+00	12	41	0	130023424	60	6945
2026-01-25 01:34:36.58	196.61	7.80	-43.8	-45.5	18.6	0.00e+00	90	41	0	132120576	60	6807
2026-01-25 01:34:37.59	196.68	7.88	-44.0	-45.7	18.5	0.00e+00	8	41	0	134217728	60	6998
2026-01-25 01:34:38.60	196.75	7.95	-43.9	-45.6	18.5	0.00e+00	91	41	0	136314880	60	6913
2026-01-25 01:34:39.61	196.83	8.02	-44.0	-45.7	18.5	0.00e+00	86	41	0	137363456	60	6959
2026-01-25 01:34:40.62	196.90	8.10	-43.7	-45.4	18.8	0.00e+00	91	41	0	139460608	60	6718
2026-01-25 01:34:41.63	196.97	8.17	-43.9	-45.5	18.6	0.00e+00	91	41	0	141557760	60	6831
2026-01-25 01:34:42.64	197.04	8.25	-43.7	-45.3	18.8	0.00e+00	90	41	0	143654912	60	6688
2026-01-25 01:34:43.65	197.12	8.32	-43.9	-45.6	18.7	0.00e+00	91	41	0	145752064	60	6851
2026-01-25 01:34:44.66	197.19	8.40	-43.8	-45.4	18.8	0.00e+00	46	41	0	146800640	60	6754
2026-01-25 01:34:45.67	197.26	8.47	-44.1	-45.8	18.6	0.00e+00	92	41	0	148897792	60	7049
2026-01-25 01:34:46.68	197.34	8.54	-43.7	-45.3	19.0	0.00e+00	0	41	0	150994944	60	6624
2026-01-25 01:34:47.69	197.41	8.62	-43.8	-45.4	19.0	0.00e+00	92	41	0	153092096	60	6703
2026-01-25 01:34:48.70	197.49	8.70	-43.3	-44.8	19.4	0.00e+00	87	41	0	155189248	60	6301
2026-01-25 01:34:49.71	197.56	8.77	-43.5	-45.1	19.2	0.00e+00	92	41	0	156237824	60	6493
2026-01-25 01:34:50.72	197.64	8.85	-43.3	-44.8	19.4	0.00e+00	92	41	0	158334976	60	6295
2026-01-25 01:34:51.73	197.72	8.92	-43.4	-44.9	19.3	0.00e+00	36	41	0	160432128	60	6387
2026-01-25 01:34:52.74	197.79	9.00	-43.6	-45.1	19.1	0.00e+00	92	41	0	162529280	60	6517
2026-01-25 01:34:53.75	197.87	9.08	-43.6	-45.2	19.1	0.00e+00	12	41	0	164626432	60	6565
2026-01-25 01:34:54.76	197.95	9.15	-43.5	-45.1	19.2	0.00e+00	92	41	0	165675008	60	6470
2026-01-25 01:34:55.77	198.02	9.23	-43.5	-45.0	19.4	0.00e+00	0	41	0	167772160	60	6429
2026-01-25 01:34:56.78	198.10	9.31	-43.4	-44.9	19.5	0.00e+00	92	41	0	169869312	60	6323
2026-01-25 01:34:57.79	198.18	9.38	-43.6	-45.1	19.3	0.00e+00	90	41	0	171966464	60	6534
2026-01-25 01:34:58.80	198.26	9.46	-43.3	-44.8	19.3	0.00e+00	92	41	0	174063616	60	6297
2026-01-25 01:34:59.81	198.34	9.54	-43.5	-45.0	19.7	0.00e+00	92	41	0	175112192	60	6436
2026-01-25 01:35:00.82	198.42	9.62	-43.5	-45.1	19.3	0.00e+00	82	41	0	177209344	60	6486
2026-01-25 01:35:01.82	198.50	9.69	-43.7	-45.3	19.2	0.00e+00	92	41	0	179306496	60	6625
2026-01-25 01:35:02.83	198.58	9.77	-43.2	-44.7	19.6	0.00e+00	72	41	0	181403648	60	6205
2026-01-25 01:35:03.84	198.66	9.85	-42.8	-44.1	20.2	0.00e+00	90	41	0	183500800	60	5826
2026-01-25 01:35:04.85	198.74	9.93	-42.7	-44.0	20.2	0.00e+00	92	41	0	184549376	58	6431
2026-01-25 01:35:05.86	198.82	10.01	-42.6	-43.9	20.3	0.00e+00	92	41	0	186646528	58	6382
2026-01-25 01:35:06.87	198.90	10.08	-42.5	-43.9	20.4	0.00e+00	92	41	0	188743680	58	6318
2026-01-25 01:35:07.88	198.99	10.16	-42.6	-44.0	20.3	0.00e+00	69	41	0	190840832	58	6393
2026-01-25 01:35:08.88	199.07	10.24	-42.5	-43.8	20.5	0.00e+00	92	41	0	192937984	58	6252
2026-01-25 01:35:09.89	199.15	10.32	-42.5	-43.8	20.3	0.00e+00	0	41	0	195035136	58	6310
2026-01-25 01:35:10.90	199.23	10.40	-42.6	-43.9	20.4	0.00e+00	92	41	0	196083712	58	6340
2026-01-25 01:35:11.91	199.32	10.48	-42.6	-43.9	20.4	0.00e+00	72	41	0	198180864	58	6361
2026-01-25 01:35:12.92	199.40	10.56	-42.6	-43.9	20.4	0.00e+00	92	41	0	200278016	58	6374
2026-01-25 01:35:13.93	199.49	10.64	-42.5	-43.8	20.5	0.00e+00	92	41	0	202375168	58	6263
2026-01-25 01:35:14.94	199.57	10.72	-42.6	-43.9	20.4	0.00e+00	31	41	0	204472320	58	6378
2026-01-25 01:35:15.94	199.66	10.80	-42.5	-43.8	20.5	0.00e+00	90	41	0	205520896	58	6247
2026-01-25 01:35:16.95	199.75	10.88	-42.2	-43.5	20.6	0.00e+00	12	41	0	207618048	58	6069
2026-01-25 01:35:17.96	199.83	10.96	-42.2	-43.5	20.7	0.00e+00	92	41	0	209715200	58	6074
2026-01-25 01:35:18.97	199.92	11.05	-42.3	-43.6	20.6	0.00e+00	0	41	0	211812352	58	6138
2026-01-25 01:35:19.98	200.01	11.13	-42.4	-43.6	20.5	0.00e+00	92	41	0	212860928	58	6172
2026-01-25 01:35:20.99	200.10	11.21	-42.2	-43.4	20.8	0.00e+00	92	41	0	214958080	58	6031
2026-01-25 01:35:22.00	200.18	11.29	-42.1	-43.4	20.9	0.00e+00	92	41	0	217055232	58	5970
2026-01-25 01:35:23.00	200.27	11.37	-41.9	-43.1	21.1	0.00e+00	92	41	0	219152384	58	5806
2026-01-25 01:35:24.02	200.36	11.46	-42.1	-43.3	20.9	0.00e+00	7	41	0	221249536	58	5960
2026-01-25 01:35:25.02	200.45	11.54	-41.9	-43.1	21.1	0.00e+00	92	41	0	223346688	58	5807
2026-01-25 01:35:26.03	200.54	11.62	-42.0	-43.2	21.0	0.00e+00	79	41	0	224395264	58	5869
2026-01-25 01:35:27.04	200.63	11.70	-42.2	-43.5	20.8	0.00e+00	91	41	0	226492416	58	6052
2026-01-25 01:35:28.05	200.73	11.79	-41.8	-43.0	21.2	0.00e+00	90	41	0	228589568	58	5741
2026-01-25 01:35:29.06	200.82	11.87	-41.8	-43.0	21.2	0.00e+00	92	41	0	230686720	58	5739
2026-01-25 01:35:30.07	200.91	11.95	-42.0	-43.1	21.1	0.00e+00	90	41	0	232783872	58	5824
2026-01-25 01:35:31.08	201.00	12.04	-41.8	-43.0	21.3	0.00e+00	3	41	0	233832448	56	6409
2026-01-25 01:35:32.09	201.10	12.12	-41.9	-43.0	21.3	0.00e+00	92	41	0	235929600	56	6448
2026-01-25 01:35:33.10	201.19	12.21	-41.9	-43.1	21.2	0.00e+00	7	41	0	238026752	56	6484
2026-01-25 01:35:34.10	201.29	12.29	-42.1	-43.3	21.0	0.00e+00	90	41	0	240123904	56	6672
2026-01-25 01:35:35.12	201.38	12.38	-41.9	-43.0	21.3	0.00e+00	0	41	0	242221056	56	6442
2026-01-25 01:35:36.12	201.48	12.46	-41.7	-42.8	21.4	0.00e+00	90	41	0	243269632	56	6313
2026-01-25 01:35:37.13	201.57	12.55	-41.7	-42.8	21.5	0.00e+00	92	41	0	245366784	56	6285
2026-01-25 01:35:38.14	201.67	12.63	-41.7	-42.8	21.5	0.00e+00	92	41	0	247463936	56	6291
2026-01-25 01:35:39.15	201.77	12.72	-41.8	-42.9	21.4	0.00e+00	92	41	0	249561088	56	6369
2026-01-25 01:35:40.16	201.86	12.80	-41.7	-42.9	21.4	0.00e+00	0	41	0	251658240	56	6337
2026-01-25 01:35:41.17	201.96	12.89	-41.7	-42.8	21.5	0.00e+00	92	41	0	252706816	56	6307
2026-01-25 01:35:42.18	202.06	12.98	-41.9	-43.0	21.3	0.00e+00	0	41	0	254803968	56	6451
2026-01-25 01:35:43.19	202.16	13.06	-41.6	-42.7	21.6	0.00e+00	92	41	0	256901120	56	6234
2026-01-25 01:35:44.20	202.26	13.15	-41.7	-42.8	21.6	0.00e+00	91	41	0	258998272	56	6302
2026-01-25 01:35:45.21	202.36	13.24	-41.6	-42.8	21.5	0.00e+00	91	41	0	261095424	56	6251
2026-01-25 01:35:46.22	202.46	13.32	-41.8	-43.0	21.4	0.00e+00	90	41	0	262144000	56	6404
2026-01-25 01:35:47.23	202.57	13.41	-41.8	-42.9	21.5	0.00e+00	0	41	0	264241152	56	6373
2026-01-25 01:35:48.23	202.67	13.50	-41.7	-42.9	21.5	0.00e+00	92	41	0	266338304	56	6331
2026-01-25 01:35:49.24	202.77	13.59	-41.6	-42.7	21.6	0.00e+00	0	41	0	268435456	56	6204
2026-01-25 01:35:50.25	202.87	13.68	-41.4	-42.5	21.9	0.00e+00	92	41	0	270532608	56	6054
2026-01-25 01:35:51.26	202.98	13.76	-41.3	-42.4	21.9	0.00e+00	89	41	0	271581184	56	6013
2026-01-25 01:35:52.27	203.08	13.85	-41.3	-42.4	21.9	0.00e+00	89	41	0	273678336	56	6002
2026-01-25 01:35:53.28	203.19	13.94	-41.3	-42.4	21.8	0.00e+00	92	41	0	275775488	56	6026
2026-01-25 01:35:54.29	203.29	14.03	-41.3	-42.4	21.8	0.00e+00	29	41	0	277872640	56	5972
2026-01-25 01:35:55.30	203.40	14.12	-41.1	-42.2	22.1	0.00e+00	92	41	0	279969792	56	5840
2026-01-25 01:35:56.30	203.51	14.21	-41.3	-42.4	21.9	0.00e+00	7	41	0	281018368	56	5983
2026-01-25 01:35:57.31	203.61	14.30	-41.1	-42.2	22.0	0.00e+00	92	41	0	283115520	56	5854
2026-01-25 01:35:58.32	203.72	14.39	-41.3	-42.3	22.0	0.00e+00	0	41	0	285212672	56	5952
2026-01-25 01:35:59.33	203.83	14.48	-41.2	-42.3	22.0	0.00e+00	92	41	0	287309824	56	5921
2026-01-25 01:36:00.34	203.94	14.57	-41.3	-42.3	22.0	0.00e+00	92	41	0	289406976	56	5964
2026-01-25 01:36:01.35	204.05	14.66	-41.2	-42.3	22.0	0.00e+00	92	41	0	291504128	56	5916
2026-01-25 01:36:02.36	204.16	14.75	-41.4	-42.5	21.8	0.00e+00	92	41	0	292552704	56	6072
2026-01-25 01:36:03.37	204.27	14.85	-41.1	-42.2	22.1	0.00e+00	0	41	0	294649856	56	5847
2026-01-25 01:36:04.37	204.39	14.94	-41.0	-42.0	22.3	0.00e+00	90	41	0	296747008	56	5731
2026-01-25 01:36:05.38	204.50	15.03	-40.8	-41.9	22.4	0.00e+00	0	41	0	298844160	56	5653
2026-01-25 01:36:06.39	204.61	15.12	-40.9	-42.0	22.3	0.00e+00	92	41	0	300941312	56	5723
2026-01-25 01:36:07.40	204.73	15.21	-41.0	-42.0	22.3	0.00e+00	92	41	0	301989888	56	5741
2026-01-25 01:36:08.40	204.84	15.30	-41.0	-42.0	22.3	0.00e+00	90	41	0	304087040	56	5741
2026-01-25 01:36:09.41	204.96	15.40	-41.0	-42.1	22.3	0.00e+00	92	41	0	306184192	56	5772
2026-01-25 01:36:10.42	205.07	15.49	-41.1	-42.2	22.2	0.00e+00	1	41	0	308281344	56	5833
2026-01-25 01:36:11.43	205.19	15.58	-41.0	-42.1	22.2	0.00e+00	92	41	0	309329920	56	5800
2026-01-25 01:36:12.43	205.31	15.68	-41.1	-42.1	22.2	0.00e+00	67	41	0	311427072	56	5819
2026-01-25 01:36:13.44	205.43	15.77	-41.2	-42.2	22.1	0.00e+00	90	41	0	313524224	56	5879
2026-01-25 01:36:14.45	205.54	15.87	-41.2	-42.3	22.1	0.00e+00	7	41	0	315621376	56	5901
2026-01-25 01:36:15.46	205.66	15.96	-41.3	-42.3	22.1	0.00e+00	92	41	0	317718528	56	5962
2026-01-25 01:36:16.47	205.79	16.05	-41.3	-42.3	22.0	0.00e+00	91	41	0	319815680	56	5962
2026-01-25 01:36:17.48	205.91	16.15	-41.3	-42.4	22.0	0.00e+00	91	41	0	320864256	56	5979
2026-01-25 01:36:18.49	206.03	16.24	-41.4	-42.5	21.9	0.00e+00	92	41	0	322961408	56	6061
2026-01-25 01:36:19.49	206.15	16.34	-41.4	-42.5	21.9	0.00e+00	0	41	0	325058560	56	6057
2026-01-25 01:36:20.50	206.27	16.44	-41.4	-42.5	21.9	0.00e+00	92	41	0	327155712	56	6064
2026-01-25 01:36:21.51	206.40	16.53	-41.4	-42.5	21.8	0.00e+00	0	41	0	329252864	56	6092
2026-01-25 01:36:22.52	206.52	16.63	-41.5	-42.5	21.8	0.00e+00	91	41	0	330301440	56	6103
2026-01-25 01:36:23.53	206.65	16.72	-41.5	-42.6	21.9	0.00e+00	90	41	0	332398592	56	6108
2026-01-25 01:36:24.54	206.78	16.82	-41.5	-42.6	21.8	0.00e+00	91	41	0	334495744	56	6163
2026-01-25 01:36:25.55	206.90	16.92	-41.5	-42.5	21.9	0.00e+00	90	41	0	336592896	56	6103
2026-01-25 01:36:26.56	207.03	17.01	-41.6	-42.7	21.8	0.00e+00	13	41	0	338690048	56	6179
2026-01-25 01:36:27.57	207.16	17.11	-41.4	-42.5	22.0	0.00e+00	92	41	0	339738624	56	6078
2026-01-25 01:36:28.57	207.29	17.21	-41.6	-42.7	21.7	0.00e+00	13	41	0	341835776	56	6195
2026-01-25 01:36:29.58	207.42	17.31	-41.7	-42.8	21.7	0.00e+00	90	41	0	343932928	56	6277
2026-01-25 01:36:30.59	207.55	17.41	-41.5	-42.6	21.8	0.00e+00	92	41	0	346030080	56	6135
2026-01-25 01:36:31.60	207.69	17.50	-41.6	-42.7	21.8	0.00e+00	90	41	0	348127232	56	6189
2026-01-25 01:36:32.61	207.82	17.60	-41.6	-42.6	21.9	0.00e+00	92	41	0	349175808	56	6171
2026-01-25 01:36:33.62	207.95	17.70	-41.6	-42.7	21.8	0.00e+00	90	41	0	351272960	56	6180
2026-01-25 01:36:34.63	208.09	17.80	-41.7	-42.8	21.6	0.00e+00	92	41	0	353370112	56	6260
2026-01-25 01:36:35.64	208.22	17.90	-41.8	-42.9	21.6	0.00e+00	0	41	0	355467264	56	6345
2026-01-25 01:36:36.64	208.36	18.00	-41.6	-42.7	21.7	0.00e+00	92	41	0	357564416	56	6221
2026-01-25 01:36:37.65	208.50	18.10	-41.7	-42.8	21.6	0.00e+00	0	41	0	358612992	56	6263
2026-01-25 01:36:38.66	208.64	18.20	-41.9	-43.0	21.5	0.00e+00	92	41	0	360710144	56	6454
2026-01-25 01:36:39.67	208.77	18.30	-42.0	-43.1	21.4	0.00e+00	90	41	0	362807296	56	6506
2026-01-25 01:36:40.67	208.91	18.40	-42.0	-43.2	21.3	0.00e+00	92	41	0	364904448	56	6584
2026-01-25 01:36:41.68	209.05	18.50	-42.1	-43.3	21.3	0.00e+00	92	41	0	367001600	56	6634
2026-01-25 01:36:42.69	209.20	18.60	-42.2	-43.4	21.2	0.00e+00	1	41	0	368050176	56	6698
2026-01-25 01:36:43.70	209.34	18.70	-42.2	-43.4	21.1	0.00e+00	92	41	0	370147328	56	6763
2026-01-25 01:36:44.71	209.48	18.81	-42.3	-43.5	21.1	0.00e+00	0	42	0	372244480	56	6780
2026-01-25 01:36:45.72	209.63	18.91	-42.4	-43.6	21.0	0.00e+00	90	42	0	374341632	56	6887
2026-01-25 01:36:46.65	209.76	19.00	-42.3	-43.5	21.1	0.00e+00	92	42	0	376438784	56	6795
2026-01-25 01:36:47.66	209.91	19.10	-42.4	-43.6	20.9	0.00e+00	90	42	0	377487360	56	6920
2026-01-25 01:36:48.67	210.06	19.21	-42.3	-43.6	21.0	0.00e+00	92	42	0	379584512	56	6849
2026-01-25 01:36:49.68	210.21	19.31	-42.5	-43.8	20.8	0.00e+00	90	41	0	381681664	56	7039
2026-01-25 01:36:50.68	210.35	19.41	-42.3	-43.5	21.0	0.00e+00	92	41	0	383778816	56	6844
2026-01-25 01:36:51.69	210.50	19.52	-42.3	-43.5	21.1	0.00e+00	6	41	0	385875968	56	6805
2026-01-25 01:36:52.70	210.66	19.62	-42.3	-43.5	21.1	0.00e+00	92	41	0	386924544	56	6785
2026-01-25 01:36:53.71	210.81	19.72	-42.3	-43.5	21.0	0.00e+00	77	42	0	389021696	56	6801
2026-01-25 01:36:54.72	210.96	19.83	-42.3	-43.5	21.1	0.00e+00	93	41	0	391118848	56	6825
2026-01-25 01:36:55.73	211.12	19.93	-42.4	-43.6	21.0	0.00e+00	92	41	0	393216000	56	6916
2026-01-25 01:36:56.74	211.27	20.04	-42.3	-43.6	21.0	0.00e+00	92	41	0	395313152	56	6850
2026-01-25 01:36:57.75	211.43	20.14	-42.1	-43.3	21.3	0.00e+00	92	41	0	396361728	56	6683
2026-01-25 01:36:58.75	211.58	20.24	-42.2	-43.4	21.2	0.00e+00	78	42	0	398458880	56	6729
2026-01-25 01:36:59.76	211.74	20.35	-42.2	-43.4	21.2	0.00e+00	92	41	0	400556032	56	6744
2026-01-25 01:37:00.74	211.90	20.45	-42.2	-43.4	21.2	0.00e+00	8	41	0	402653184	56	6715
2026-01-25 01:37:01.75	212.06	20.56	-42.1	-43.2	21.3	0.00e+00	92	42	0	404750336	56	6613
2026-01-25 01:37:02.76	212.22	20.66	-42.1	-43.3	21.3	0.00e+00	90	41	0	405798912	56	6658
2026-01-25 01:37:03.76	212.38	20.77	-42.1	-43.4	21.2	0.00e+00	92	42	0	407896064	56	6693
2026-01-25 01:37:04.77	212.55	20.88	-42.2	-43.4	21.2	0.00e+00	92	42	0	409993216	56	6720
2026-01-25 01:37:05.78	212.71	20.98	-42.1	-43.3	21.2	0.00e+00	30	42	0	412090368	56	6688
2026-01-25 01:37:06.79	212.88	21.09	-42.1	-43.3	21.2	0.00e+00	92	42	0	414187520	56	6686
2026-01-25 01:37:07.80	213.04	21.20	-42.2	-43.4	21.2	0.00e+00	0	42	0	415236096	56	6718
2026-01-25 01:37:08.81	213.21	21.30	-42.2	-43.4	21.1	0.00e+00	92	42	0	417333248	56	6768
2026-01-25 01:37:09.82	213.38	21.41	-42.3	-43.5	21.1	0.00e+00	90	42	0	419430400	56	6810
2026-01-25 01:37:10.82	213.55	21.52	-42.4	-43.7	20.9	0.00e+00	92	42	0	421527552	56	6962
2026-01-25 01:37:11.83	213.72	21.63	-42.6	-43.9	20.7	0.00e+00	92	42	0	423624704	56	7095
2026-01-25 01:37:12.84	213.90	21.73	-42.2	-43.4	21.2	0.00e+00	92	42	0	424673280	56	6733
2026-01-25 01:37:13.84	214.07	21.84	-42.3	-43.5	21.1	0.00e+00	92	42	0	426770432	56	6815
2026-01-25 01:37:14.85	214.24	21.95	-42.1	-43.2	21.3	0.00e+00	0	42	0	428867584	56	6604
2026-01-25 01:37:15.86	214.42	22.06	-42.0	-43.2	21.4	0.00e+00	90	41	0	430964736	56	6546
2026-01-25 01:37:16.86	214.60	22.17	-41.9	-43.1	21.5	0.00e+00	2	41	0	433061888	56	6474
2026-01-25 01:37:17.87	214.78	22.27	-41.7	-42.9	21.7	0.00e+00	92	42	0	434110464	56	6322
2026-01-25 01:37:18.88	214.96	22.38	-41.7	-42.8	21.8	0.00e+00	91	42	0	436207616	56	6261
2026-01-25 01:37:19.89	215.14	22.49	-41.7	-42.8	21.8	0.00e+00	92	41	0	438304768	56	6296
2026-01-25 01:37:20.90	215.32	22.60	-41.8	-42.9	21.6	0.00e+00	92	41	0	440401920	56	6354
2026-01-25 01:37:21.91	215.50	22.71	-41.8	-42.9	21.7	0.00e+00	0	42	0	442499072	56	6350
2026-01-25 01:37:22.92	215.69	22.82	-41.8	-42.9	21.6	0.00e+00	90	41	0	444596224	56	6364
2026-01-25 01:37:23.93	215.88	22.93	-41.9	-43.0	21.6	0.00e+00	67	41	0	445644800	56	6421
2026-01-25 01:37:24.94	216.06	23.04	-41.7	-42.8	21.7	0.00e+00	90	42	0	447741952	56	6304
2026-01-25 01:37:25.95	216.25	23.15	-41.6	-42.7	21.9	0.00e+00	92	42	0	449839104	56	6182
2026-01-25 01:37:26.95	216.44	23.26	-41.5	-42.6	21.8	0.00e+00	90	42	0	451936256	56	6161
2026-01-25 01:37:27.97	216.63	23.38	-41.3	-42.4	22.1	0.00e+00	92	41	0	454033408	56	5996
2026-01-25 01:37:28.98	216.83	23.49	-41.3	-42.4	22.1	0.00e+00	18	42	0	455081984	56	6011
2026-01-25 01:37:29.98	217.02	23.60	-41.3	-42.4	22.2	0.00e+00	92	42	0	457179136	56	5967
2026-01-25 01:37:30.99	217.22	23.71	-41.3	-42.4	22.1	0.00e+00	7	42	0	459276288	56	5986
2026-01-25 01:37:31.99	217.41	23.82	-41.4	-42.5	22.1	0.00e+00	89	42	0	461373440	56	6043
2026-01-25 01:37:33.00	217.61	23.93	-41.0	-42.1	22.4	0.00e+00	89	42	0	462422016	56	5796
2026-01-25 01:37:34.01	217.81	24.04	-41.2	-42.3	22.2	0.00e+00	91	42	0	464519168	56	5933
2026-01-25 01:37:35.02	218.01	24.15	-40.9	-41.9	22.6	0.00e+00	92	42	0	466616320	56	5665
2026-01-25 01:37:36.03	218.21	24.26	-41.0	-42.0	22.6	0.00e+00	91	42	0	468713472	56	5731
2026-01-25 01:37:37.03	218.41	24.37	-40.6	-41.6	22.8	0.00e+00	92	42	0	470810624	54	6171
2026-01-25 01:37:38.04	218.62	24.49	-40.6	-41.6	22.7	0.00e+00	0	42	0	472907776	54	6149
2026-01-25 01:37:39.05	218.83	24.60	-40.5	-41.5	22.9	0.00e+00	90	42	0	473956352	54	6080
2026-01-25 01:37:40.06	219.04	24.71	-40.6	-41.6	22.8	0.00e+00	0	42	0	476053504	54	6117
2026-01-25 01:37:41.06	219.24	24.82	-40.6	-41.6	22.7	0.00e+00	92	42	0	478150656	54	6153
2026-01-25 01:37:42.07	219.45	24.93	-40.7	-41.7	22.7	0.00e+00	90	42	0	480247808	54	6237
2026-01-25 01:37:43.08	219.67	25.05	-40.6	-41.6	22.8	0.00e+00	92	42	0	482344960	54	6137
2026-01-25 01:37:44.09	219.88	25.16	-40.3	-41.3	23.1	0.00e+00	92	42	0	483393536	54	5932
2026-01-25 01:37:45.10	220.10	25.27	-40.1	-41.1	23.2	0.00e+00	30	42	0	485490688	54	5784
2026-01-25 01:37:46.11	220.31	25.39	-40.3	-41.3	23.0	0.00e+00	90	42	0	487587840	54	5961
2026-01-25 01:37:47.12	220.53	25.50	-40.3	-41.3	23.1	0.00e+00	0	42	0	489684992	54	5959
2026-01-25 01:37:48.13	220.75	25.61	-40.3	-41.3	23.2	0.00e+00	91	42	0	491782144	54	5906
2026-01-25 01:37:49.13	220.97	25.72	-40.1	-41.1	23.3	0.00e+00	66	42	0	492830720	54	5771
2026-01-25 01:37:50.14	221.20	25.84	-40.0	-41.0	23.4	0.00e+00	91	42	0	494927872	54	5699
2026-01-25 01:37:51.15	221.42	25.95	-40.1	-41.1	23.3	0.00e+00	90	42	0	497025024	54	5788
2026-01-25 01:37:52.16	221.65	26.06	-40.1	-41.0	23.4	0.00e+00	92	42	0	499122176	54	5730
2026-01-25 01:37:53.17	221.87	26.17	-40.0	-41.0	23.4	0.00e+00	90	42	0	501219328	54	5703
2026-01-25 01:37:54.18	222.10	26.29	-40.3	-41.2	23.2	0.00e+00	2	42	0	502267904	54	5883
2026-01-25 01:37:55.19	222.33	26.40	-40.2	-41.2	23.2	0.00e+00	90	42	0	504365056	54	5855
2026-01-25 01:37:56.20	222.57	26.51	-40.5	-41.5	22.9	0.00e+00	0	42	0	506462208	54	6092
2026-01-25 01:37:57.21	222.80	26.63	-40.5	-41.4	22.9	0.00e+00	92	42	0	508559360	54	6026
2026-01-25 01:37:58.22	223.04	26.74	-40.6	-41.6	22.8	0.00e+00	91	42	0	510656512	54	6167
2026-01-25 01:37:59.23	223.28	26.85	-40.7	-41.7	22.7	0.00e+00	89	42	0	511705088	54	6243
2026-01-25 01:38:00.24	223.51	26.96	-40.7	-41.7	22.8	0.00e+00	90	42	0	513802240	54	6209
2026-01-25 01:38:01.25	223.76	27.08	-40.7	-41.7	22.8	0.00e+00	40	42	0	515899392	54	6241
2026-01-25 01:38:02.26	224.00	27.19	-40.6	-41.6	22.9	0.00e+00	92	42	0	517996544	54	6154
2026-01-25 01:38:03.26	224.24	27.30	-40.8	-41.8	22.7	0.00e+00	7	42	0	520093696	54	6309
2026-01-25 01:38:04.27	224.49	27.41	-40.8	-41.8	22.7	0.00e+00	92	42	0	521142272	54	6296
2026-01-25 01:38:05.28	224.73	27.52	-41.0	-42.0	22.5	0.00e+00	92	42	0	523239424	54	6416
2026-01-25 01:38:06.29	224.98	27.64	-41.0	-42.0	22.5	0.00e+00	92	42	0	525336576	54	6433
2026-01-25 01:38:07.30	225.23	27.75	-41.0	-42.0	22.5	0.00e+00	92	42	0	527433728	54	6454
2026-01-25 01:38:08.31	225.49	27.86	-41.0	-42.0	22.5	0.00e+00	60	42	0	529530880	54	6443
2026-01-25 01:38:09.32	225.74	27.97	-41.0	-42.1	22.5	0.00e+00	90	42	0	530579456	54	6479
2026-01-25 01:38:10.33	226.00	28.08	-41.0	-42.1	22.6	0.00e+00	7	42	0	532676608	54	6466
2026-01-25 01:38:11.34	226.26	28.20	-41.4	-42.4	22.1	0.00e+00	92	42	0	534773760	54	6740
2026-01-25 01:38:12.35	226.51	28.31	-41.6	-42.7	22.0	0.00e+00	92	42	0	536870912	54	6962
2026-01-25 01:38:13.36	226.78	28.42	-41.9	-43.0	21.7	0.00e+00	92	42	0	538968064	56	6408
2026-01-25 01:38:14.37	227.04	28.53	-42.1	-43.3	21.5	0.00e+00	92	42	0	541065216	56	6638
2026-01-25 01:38:15.38	227.30	28.64	-42.3	-43.4	21.3	0.00e+00	92	42	0	542113792	56	6755
2026-01-25 01:38:16.38	227.57	28.75	-42.4	-43.6	21.2	0.00e+00	91	42	0	544210944	56	6849
2026-01-25 01:38:17.39	227.84	28.86	-42.4	-43.6	21.2	0.00e+00	66	42	0	546308096	56	6902
2026-01-25 01:38:18.40	228.11	28.97	-42.3	-43.5	21.3	0.00e+00	91	42	0	548405248	56	6816
2026-01-25 01:38:19.41	228.38	29.08	-42.3	-43.5	21.3	0.00e+00	90	42	0	550502400	56	6814
2026-01-25 01:38:20.42	228.65	29.19	-42.3	-43.4	21.5	0.00e+00	92	42	0	551550976	56	6745
2026-01-25 01:38:21.43	228.93	29.30	-42.3	-43.5	21.3	0.00e+00	91	42	0	553648128	56	6813
2026-01-25 01:38:22.44	229.21	29.41	-42.5	-43.7	21.0	0.00e+00	92	42	0	555745280	56	6996
2026-01-25 01:38:23.45	229.49	29.52	-43.0	-44.2	20.5	0.00e+00	91	42	0	557842432	58	6607
2026-01-25 01:38:24.46	229.77	29.62	-43.3	-44.6	20.3	0.00e+00	12	42	0	558891008	58	6923
2026-01-25 01:38:25.46	230.05	29.73	-43.5	-44.9	19.9	0.00e+00	90	42	0	560988160	58	7151
2026-01-25 01:38:26.47	230.33	29.84	-43.7	-45.1	19.8	0.00e+00	0	42	0	563085312	58	7320
2026-01-25 01:38:27.48	230.62	29.95	-44.1	-45.6	19.3	0.00e+00	90	42	0	565182464	60	6926
2026-01-25 01:38:28.49	230.91	30.05	-44.3	-45.9	19.0	0.00e+00	92	42	0	567279616	60	7132
2026-01-25 01:38:29.50	231.20	30.16	-44.7	-46.4	18.5	0.00e+00	92	42	0	569376768	60	7579
2026-01-25 01:38:30.51	231.49	30.27	-45.1	-47.0	18.0	0.00e+00	92	42	0	570425344	60	8058
2026-01-25 01:38:31.52	231.79	30.37	-45.7	-47.7	17.4	0.00e+00	90	42	0	572522496	60	8729
2026-01-25 01:38:32.53	232.08	30.48	-45.9	-48.0	17.0	0.00e+00	92	42	0	574619648	60	9068
2026-01-25 01:38:33.53	232.38	30.58	-46.0	-48.1	16.8	0.00e+00	11	42	0	576716800	60	9232
2026-01-25 01:38:34.54	232.68	30.69	-46.2	-48.4	16.5	0.00e+00	92	42	0	578813952	60	9513
2026-01-25 01:38:35.55	232.98	30.79	-46.3	-48.6	16.5	0.00e+00	89	42	0	579862528	60	9740
2026-01-25 01:38:36.56	233.29	30.89	-46.5	-48.8	16.2	0.00e+00	92	42	0	581959680	60	9966
2026-01-25 01:38:37.57	233.59	31.00	-46.4	-48.7	16.2	0.00e+00	92	42	0	584056832	60	9887
2026-01-25 01:38:38.58	233.90	31.10	-46.4	-48.8	16.3	0.00e+00	92	42	0	586153984	60	9924
2026-01-25 01:38:39.59	234.21	31.20	-46.3	-48.6	16.4	0.00e+00	92	42	0	588251136	60	9765
2026-01-25 01:38:40.60	234.52	31.30	-46.2	-48.4	16.7	0.00e+00	0	42	0	589299712	60	9486
2026-01-25 01:38:41.60	234.83	31.40	-45.8	-47.9	17.1	0.00e+00	92	42	0	591396864	60	8992
2026-01-25 01:38:42.61	235.15	31.50	-45.9	-47.9	17.1	0.00e+00	23	42	0	593494016	60	8991
2026-01-25 01:38:43.62	235.46	31.60	-45.8	-47.8	17.1	0.00e+00	92	42	0	595591168	60	8855
2026-01-25 01:38:44.63	235.78	31.70	-45.8	-47.9	17.2	0.00e+00	91	42	0	597688320	60	8939
2026-01-25 01:38:45.64	236.11	31.80	-45.6	-47.6	17.4	0.00e+00	90	42	0	598736896	60	8663
2026-01-25 01:38:46.65	236.43	31.90	-45.5	-47.4	17.6	0.00e+00	92	42	0	600834048	60	8517
2026-01-25 01:38:47.66	236.75	31.99	-45.3	-47.2	17.8	0.00e+00	10	42	0	602931200	60	8286
2026-01-25 01:38:48.67	237.08	32.09	-45.3	-47.1	17.9	0.00e+00	92	42	0	605028352	60	8203
2026-01-25 01:38:49.67	237.41	32.18	-45.3	-47.2	17.8	0.00e+00	0	42	0	607125504	60	8271
2026-01-25 01:38:50.68	237.74	32.28	-45.2	-47.1	18.0	0.00e+00	91	42	0	608174080	60	8181
2026-01-25 01:38:51.69	238.07	32.37	-45.0	-46.8	18.3	0.00e+00	92	42	0	610271232	60	7887
2026-01-25 01:38:52.70	238.40	32.47	-44.8	-46.5	18.5	0.00e+00	90	42	0	612368384	60	7665
2026-01-25 01:38:53.71	238.74	32.56	-44.6	-46.3	18.7	0.00e+00	91	42	0	614465536	60	7446
2026-01-25 01:38:54.72	239.08	32.65	-44.5	-46.1	19.0	0.00e+00	91	42	0	616562688	60	7303
2026-01-25 01:38:55.73	239.42	32.74	-44.0	-45.5	19.6	0.00e+00	91	42	0	617611264	60	6797
2026-01-25 01:38:56.73	239.76	32.83	-43.6	-45.0	20.0	0.00e+00	64	42	0	619708416	60	6450
2026-01-25 01:38:57.74	240.10	32.92	-43.5	-44.9	20.0	0.00e+00	92	42	0	621805568	60	6364
2026-01-25 01:38:58.75	240.45	33.01	-43.6	-45.0	20.0	0.00e+00	23	42	0	623902720	60	6415
2026-01-25 01:38:59.76	240.79	33.09	-43.8	-45.2	20.0	0.00e+00	92	42	0	625999872	60	6561
2026-01-25 01:39:00.76	241.14	33.18	-43.8	-45.3	19.8	0.00e+00	92	42	0	627048448	60	6629
2026-01-25 01:39:01.77	241.49	33.27	-43.3	-44.7	20.3	0.00e+00	92	42	0	629145600	60	6196
2026-01-25 01:39:02.78	241.84	33.35	-43.4	-44.8	20.2	0.00e+00	92	42	0	631242752	60	6272
2026-01-25 01:39:03.79	242.20	33.43	-43.0	-44.3	20.7	0.00e+00	4	42	0	633339904	60	5928
2026-01-25 01:39:04.80	242.55	33.52	-42.8	-44.0	20.9	0.00e+00	92	42	0	635437056	60	5752
2026-01-25 01:39:05.81	242.91	33.60	-43.0	-44.2	20.8	0.00e+00	0	42	0	637534208	60	5871
2026-01-25 01:39:06.82	243.27	33.68	-42.9	-44.1	20.8	0.00e+00	90	42	0	638582784	58	6502
2026-01-25 01:39:07.83	243.63	33.76	-42.6	-43.8	21.1	0.00e+00	92	42	0	640679936	58	6303
2026-01-25 01:39:08.84	244.00	33.84	-42.6	-43.8	21.1	0.00e+00	92	42	0	642777088	58	6296
2026-01-25 01:39:09.85	244.36	33.92	-42.8	-44.0	20.9	0.00e+00	92	42	0	644874240	58	6414
2026-01-25 01:39:10.86	244.73	33.99	-42.3	-43.5	21.4	0.00e+00	65	42	0	645922816	58	6046
2026-01-25 01:39:11.86	245.09	34.07	-41.8	-42.9	21.9	0.00e+00	92	42	0	648019968	58	5683
2026-01-25 01:39:12.87	245.46	34.14	-41.8	-42.9	21.9	0.00e+00	0	42	0	650117120	58	5672
2026-01-25 01:39:13.88	245.84	34.22	-41.6	-42.7	22.3	0.00e+00	92	42	0	652214272	56	6174
2026-01-25 01:39:14.89	246.21	34.29	-41.5	-42.5	22.3	0.00e+00	92	42	0	654311424	56	6098
2026-01-25 01:39:15.89	246.58	34.36	-41.9	-43.0	21.9	0.00e+00	92	42	0	655360000	56	6453
2026-01-25 01:39:16.90	246.96	34.43	-42.4	-43.6	21.4	0.00e+00	92	42	0	657457152	56	6853
2026-01-25 01:39:17.91	247.33	34.50	-42.6	-43.8	21.1	0.00e+00	92	42	0	659554304	56	7051
2026-01-25 01:39:18.92	247.71	34.56	-42.8	-44.0	20.9	0.00e+00	92	42	0	661651456	58	6416
2026-01-25 01:39:19.93	248.10	34.63	-42.9	-44.1	20.8	0.00e+00	75	42	0	663748608	58	6530
2026-01-25 01:39:20.93	248.47	34.69	-43.0	-44.3	20.6	0.00e+00	92	42	0	665845760	58	6646
2026-01-25 01:39:21.94	248.86	34.76	-43.2	-44.5	20.4	0.00e+00	0	42	0	666894336	58	6807
2026-01-25 01:39:22.95	249.24	34.82	-43.3	-44.6	20.4	0.00e+00	92	42	0	668991488	58	6900
2026-01-25 01:39:23.96	249.63	34.88	-43.2	-44.5	20.5	0.00e+00	92	42	0	671088640	58	6806
2026-01-25 01:39:24.97	250.02	34.94	-43.3	-44.6	20.3	0.00e+00	92	42	0	673185792	58	6920
2026-01-25 01:39:25.98	250.41	35.00	-43.4	-44.7	20.2	0.00e+00	92	42	0	675282944	58	6964
2026-01-25 01:39:26.99	250.80	35.05	-43.5	-44.9	20.0	0.00e+00	64	42	0	676331520	58	7139
2026-01-25 01:39:28.00	251.19	35.11	-43.7	-45.0	19.9	0.00e+00	92	42	0	678428672	58	7246
2026-01-25 01:39:29.01	251.59	35.16	-43.6	-44.9	20.1	0.00e+00	0	42	0	680525824	58	7144
2026-01-25 01:39:30.01	251.98	35.22	-43.2	-44.5	20.5	0.00e+00	92	42	0	682622976	58	6808
2026-01-25 01:39:31.02	252.38	35.27	-42.9	-44.1	20.8	0.00e+00	92	42	0	684720128	58	6488
2026-01-25 01:39:32.03	252.77	35.32	-42.9	-44.1	20.9	0.00e+00	92	42	0	685768704	58	6487
2026-01-25 01:39:33.04	253.17	35.37	-42.8	-44.0	20.9	0.00e+00	92	42	0	687865856	58	6423
2026-01-25 01:39:34.05	253.57	35.41	-42.6	-43.7	21.3	0.00e+00	85	42	0	689963008	58	6239
2026-01-25 01:39:35.06	253.97	35.46	-42.5	-43.7	21.3	0.00e+00	92	42	0	692060160	58	6178
2026-01-25 01:39:36.06	254.37	35.50	-42.3	-43.4	21.4	0.00e+00	0	42	0	694157312	58	6011
2026-01-25 01:39:37.07	254.77	35.54	-42.2	-43.4	21.6	0.00e+00	92	42	0	695205888	58	5974
2026-01-25 01:39:38.08	255.18	35.59	-41.9	-43.0	21.9	0.00e+00	92	42	0	697303040	58	5742
2026-01-25 01:39:39.09	255.58	35.63	-41.8	-42.8	22.1	0.00e+00	91	42	0	699400192	58	5608
2026-01-25 01:39:40.10	255.99	35.66	-41.6	-42.7	22.1	0.00e+00	92	42	0	701497344	56	6197
2026-01-25 01:39:41.11	256.40	35.70	-41.7	-42.8	22.2	0.00e+00	92	42	0	703594496	56	6250
2026-01-25 01:39:42.12	256.80	35.73	-41.8	-42.9	21.9	0.00e+00	92	42	0	704643072	56	6367
2026-01-25 01:39:43.13	257.21	35.77	-42.1	-43.2	21.7	0.00e+00	11	42	0	706740224	56	6547
2026-01-25 01:39:44.14	257.62	35.80	-42.5	-43.7	21.2	0.00e+00	92	42	0	708837376	56	6976
2026-01-25 01:39:45.15	258.03	35.83	-42.9	-44.2	20.6	0.00e+00	2	42	0	710934528	58	6572
2026-01-25 01:39:46.15	258.44	35.86	-43.6	-44.9	19.9	0.00e+00	92	42	0	713031680	58	7150
2026-01-25 01:39:47.16	258.85	35.89	-44.0	-45.5	19.7	0.00e+00	92	42	0	714080256	60	6791
2026-01-25 01:39:48.17	259.26	35.91	-43.6	-45.0	20.1	0.00e+00	0	42	0	716177408	60	6447
2026-01-25 01:39:49.18	259.68	35.94	-43.5	-44.9	20.3	0.00e+00	92	42	0	718274560	60	6325
2026-01-25 01:39:50.19	260.09	35.96	-43.2	-44.5	20.5	0.00e+00	0	42	0	720371712	60	6069
2026-01-25 01:39:51.20	260.50	35.98	-43.4	-44.8	20.3	0.00e+00	92	42	0	722468864	60	6246
2026-01-25 01:39:52.21	260.92	36.00	-43.9	-45.4	19.7	0.00e+00	0	42	0	723517440	60	6704
2026-01-25 01:39:53.22	261.33	36.01	-44.4	-45.9	19.2	0.00e+00	92	42	0	725614592	60	7165
2026-01-25 01:39:54.23	261.75	36.03	-44.3	-45.9	19.2	0.00e+00	92	42	0	727711744	60	7121
2026-01-25 01:39:55.24	262.16	36.04	-44.3	-45.9	19.3	0.00e+00	0	42	0	729808896	60	7095
2026-01-25 01:39:56.25	262.58	36.06	-44.1	-45.5	19.6	0.00e+00	92	42	0	731906048	60	6813
2026-01-25 01:39:57.26	262.99	36.07	-44.1	-45.6	19.5	0.00e+00	0	42	0	734003200	60	6903
2026-01-25 01:39:58.27	263.41	36.08	-44.1	-45.6	19.5	0.00e+00	92	42	0	735051776	60	6886
2026-01-25 01:39:59.28	263.83	36.08	-44.0	-45.4	19.6	0.00e+00	3	42	0	737148928	60	6756
2026-01-25 01:40:00.29	264.24	36.09	-44.1	-45.5	19.6	0.00e+00	92	42	0	739246080	60	6824
2026-01-25 01:40:01.30	264.66	36.09	-44.0	-45.5	19.6	0.00e+00	0	42	0	741343232	60	6779
2026-01-25 01:40:02.31	265.08	36.10	-44.1	-45.6	19.5	0.00e+00	92	42	0	742391808	60	6899
2026-01-25 01:40:03.31	265.49	36.10	-44.0	-45.4	19.7	0.00e+00	92	42	0	744488960	60	6762
2026-01-25 01:40:04.33	265.91	36.10	-44.0	-45.5	19.6	0.00e+00	17	42	0	746586112	60	6808
2026-01-25 01:40:05.33	266.33	36.09	-43.8	-45.2	20.0	0.00e+00	92	42	0	748683264	60	6549
2026-01-25 01:40:06.34	266.74	36.09	-43.8	-45.2	19.8	0.00e+00	17	42	0	750780416	60	6583
2026-01-25 01:40:07.36	267.16	36.08	-43.3	-44.6	20.4	0.00e+00	92	42	0	751828992	60	6109
2026-01-25 01:40:08.37	267.58	36.08	-43.1	-44.3	20.7	0.00e+00	11	42	0	753926144	60	5953
2026-01-25 01:40:09.38	268.00	36.07	-43.0	-44.2	20.8	0.00e+00	92	42	0	756023296	60	5874
2026-01-25 01:40:10.38	268.41	36.05	-43.1	-44.4	20.6	0.00e+00	92	42	0	758120448	60	5979
2026-01-25 01:40:11.39	268.82	36.04	-43.4	-44.7	20.4	0.00e+00	1	42	0	760217600	60	6236
2026-01-25 01:40:12.40	269.24	36.03	-43.6	-44.9	20.1	0.00e+00	92	42	0	762314752	60	6382
2026-01-25 01:40:13.41	269.65	36.01	-43.3	-44.6	20.4	0.00e+00	0	42	0	763363328	60	6132
2026-01-25 01:40:14.42	270.07	35.99	-43.1	-44.3	20.9	0.00e+00	92	42	0	765460480	60	5935
2026-01-25 01:40:15.43	270.48	35.98	-42.6	-43.8	21.2	0.00e+00	0	42	0	767557632	58	6285
2026-01-25 01:40:16.44	270.90	35.96	-42.5	-43.7	21.2	0.00e+00	92	42	0	769654784	58	6217
2026-01-25 01:40:17.45	271.31	35.93	-42.6	-43.8	21.2	0.00e+00	89	42	0	771751936	58	6247
2026-01-25 01:40:18.46	271.72	35.91	-43.0	-44.2	20.7	0.00e+00	92	42	0	772800512	58	6577
2026-01-25 01:40:19.47	272.13	35.88	-43.5	-44.8	20.2	0.00e+00	92	42	0	774897664	58	7074
2026-01-25 01:40:20.47	272.54	35.86	-43.4	-44.8	20.3	0.00e+00	11	42	0	776994816	58	7032
2026-01-25 01:40:21.48	272.95	35.83	-43.3	-44.7	20.4	0.00e+00	92	42	0	779091968	58	6928
2026-01-25 01:40:22.49	273.36	35.80	-42.7	-43.8	21.2	0.00e+00	8	42	0	781189120	58	6310
2026-01-25 01:40:23.50	273.77	35.77	-42.8	-44.1	20.9	0.00e+00	92	42	0	782237696	58	6483
2026-01-25 01:40:24.51	274.18	35.73	-42.4	-43.6	21.4	0.00e+00	92	42	0	784334848	58	6137
2026-01-25 01:40:25.52	274.58	35.70	-43.1	-44.3	20.7	0.00e+00	92	42	0	786432000	58	6662
2026-01-25 01:40:26.53	274.99	35.66	-43.4	-44.7	20.3	0.00e+00	92	42	0	788529152	58	6968
2026-01-25 01:40:27.55	275.40	35.62	-43.8	-45.2	19.7	0.00e+00	83	42	0	790626304	60	6613
2026-01-25 01:40:28.55	275.80	35.58	-44.0	-45.4	19.7	0.00e+00	92	42	0	791674880	60	6744
2026-01-25 01:40:29.56	276.20	35.54	-44.2	-45.7	19.4	0.00e+00	70	42	0	793772032	60	6981
2026-01-25 01:40:30.57	276.61	35.50	-44.3	-45.8	19.3	0.00e+00	91	42	0	795869184	60	7047
2026-01-25 01:40:31.58	277.01	35.45	-44.6	-46.2	18.8	0.00e+00	5	42	0	797966336	60	7356
2026-01-25 01:40:32.59	277.41	35.41	-45.1	-46.9	18.3	0.00e+00	90	42	0	800063488	60	7993
2026-01-25 01:40:33.60	277.81	35.36	-45.3	-47.1	18.2	0.00e+00	92	42	0	801112064	60	8180
2026-01-25 01:40:34.61	278.21	35.31	-45.1	-46.8	18.5	0.00e+00	4	42	0	803209216	60	7909
2026-01-25 01:40:35.62	278.60	35.26	-44.8	-46.4	18.9	0.00e+00	92	42	0	805306368	60	7553
2026-01-25 01:40:36.63	279.00	35.21	-44.3	-45.8	19.6	0.00e+00	5	42	0	807403520	60	7014
2026-01-25 01:40:37.64	279.39	35.16	-43.7	-45.0	20.1	0.00e+00	92	42	0	809500672	60	6447
2026-01-25 01:40:38.65	279.78	35.10	-43.9	-45.3	19.9	0.00e+00	10	42	0	810549248	60	6631
2026-01-25 01:40:39.65	280.17	35.05	-43.9	-45.3	19.7	0.00e+00	92	42	0	812646400	60	6688
2026-01-25 01:40:40.66	280.56	34.99	-43.9	-45.3	19.9	0.00e+00	92	42	0	814743552	60	6668
2026-01-25 01:40:41.67	280.95	34.93	-43.9	-45.3	19.8	0.00e+00	90	42	0	816840704	60	6640
2026-01-25 01:40:42.69	281.34	34.87	-43.7	-45.1	20.1	0.00e+00	92	42	0	818937856	60	6486
2026-01-25 01:40:43.69	281.73	34.81	-43.7	-45.1	20.0	0.00e+00	8	42	0	819986432	60	6514
2026-01-25 01:40:44.70	282.11	34.75	-44.1	-45.6	19.6	0.00e+00	92	42	0	822083584	60	6865
2026-01-25 01:40:45.71	282.49	34.69	-44.1	-45.6	19.6	0.00e+00	13	42	0	824180736	60	6870
2026-01-25 01:40:46.72	282.88	34.62	-43.8	-45.2	19.9	0.00e+00	92	42	0	826277888	60	6609
2026-01-25 01:40:47.73	283.26	34.56	-43.6	-44.9	20.3	0.00e+00	92	42	0	828375040	60	6342
2026-01-25 01:40:48.73	283.63	34.49	-43.5	-44.8	20.5	0.00e+00	92	42	0	830472192	60	6274
2026-01-25 01:40:49.74	284.01	34.42	-42.9	-44.1	21.1	0.00e+00	90	42	0	831520768	60	5775
2026-01-25 01:40:50.75	284.38	34.35	-42.6	-43.7	21.3	0.00e+00	11	42	0	833617920	58	6227
2026-01-25 01:40:51.76	284.76	34.28	-43.1	-44.3	20.7	0.00e+00	90	42	0	835715072	58	6682
2026-01-25 01:40:52.77	285.13	34.21	-43.5	-44.9	20.2	0.00e+00	0	42	0	837812224	58	7101
2026-01-25 01:40:53.77	285.50	34.14	-43.6	-45.0	20.2	0.00e+00	92	42	0	839909376	58	7208
2026-01-25 01:40:54.78	285.87	34.06	-43.2	-44.5	20.7	0.00e+00	0	42	0	840957952	58	6772
2026-01-25 01:40:55.79	286.23	33.99	-43.0	-44.2	20.9	0.00e+00	92	42	0	843055104	58	6596
2026-01-25 01:40:56.80	286.60	33.91	-43.0	-44.2	20.9	0.00e+00	92	42	0	845152256	58	6581
2026-01-25 01:40:57.81	286.96	33.83	-42.5	-43.6	21.4	0.00e+00	16	42	0	847249408	58	6153
2026-01-25 01:40:58.81	287.32	33.76	-42.3	-43.5	21.5	0.00e+00	92	42	0	849346560	58	6040
2026-01-25 01:40:59.82	287.68	33.68	-42.4	-43.6	21.3	0.00e+00	0	42	0	850395136	58	6130
2026-01-25 01:41:00.83	288.04	33.60	-42.5	-43.6	21.4	0.00e+00	92	42	0	852492288	58	6153
2026-01-25 01:41:01.83	288.39	33.52	-42.7	-43.8	21.0	0.00e+00	0	42	0	854589440	58	6309
2026-01-25 01:41:02.84	288.75	33.43	-42.8	-44.0	21.1	0.00e+00	92	42	0	856686592	58	6392
2026-01-25 01:41:03.85	289.10	33.35	-42.9	-44.1	20.8	0.00e+00	92	42	0	858783744	58	6529
2026-01-25 01:41:04.86	289.46	33.27	-43.3	-44.5	20.5	0.00e+00	92	42	0	859832320	58	6842
2026-01-25 01:41:05.87	289.81	33.18	-43.4	-44.8	20.3	0.00e+00	90	42	0	861929472	58	7013
2026-01-25 01:41:06.88	290.15	33.09	-43.4	-44.8	20.4	0.00e+00	0	42	0	864026624	58	7014
2026-01-25 01:41:07.89	290.50	33.01	-43.2	-44.4	20.6	0.00e+00	92	42	0	866123776	58	6758
2026-01-25 01:41:08.90	290.84	32.92	-43.1	-44.3	20.7	0.00e+00	17	42	0	868220928	58	6673
2026-01-25 01:41:09.91	291.19	32.83	-43.0	-44.3	20.9	0.00e+00	92	42	0	869269504	58	6626
2026-01-25 01:41:10.92	291.53	32.74	-42.9	-44.1	21.0	0.00e+00	91	42	0	871366656	58	6480
2026-01-25 01:41:11.93	291.87	32.65	-42.7	-43.9	21.2	0.00e+00	90	42	0	873463808	58	6381
2026-01-25 01:41:12.94	292.20	32.56	-42.4	-43.6	21.4	0.00e+00	92	42	0	875560960	58	6131
2026-01-25 01:41:13.95	292.54	32.47	-42.3	-43.4	21.7	0.00e+00	16	42	0	877658112	58	6013
2026-01-25 01:41:14.95	292.87	32.37	-42.4	-43.5	21.5	0.00e+00	92	42	0	878706688	58	6098
2026-01-25 01:41:15.96	293.20	32.28	-42.8	-44.0	21.1	0.00e+00	77	42	0	880803840	58	6399
2026-01-25 01:41:16.97	293.53	32.19	-43.0	-44.3	20.7	0.00e+00	92	42	0	882900992	58	6657
2026-01-25 01:41:17.98	293.86	32.09	-43.2	-44.5	20.6	0.00e+00	0	42	0	884998144	58	6788
2026-01-25 01:41:18.99	294.18	31.99	-43.2	-44.5	20.7	0.00e+00	89	42	0	887095296	58	6773
2026-01-25 01:41:19.99	294.50	31.90	-43.0	-44.2	20.8	0.00e+00	92	42	0	888143872	58	6612
2026-01-25 01:41:21.00	294.82	31.80	-42.9	-44.2	20.9	0.00e+00	92	42	0	890241024	58	6552
2026-01-25 01:41:22.01	295.14	31.70	-43.1	-44.4	20.6	0.00e+00	92	42	0	892338176	58	6698
2026-01-25 01:41:23.01	295.46	31.61	-43.8	-45.2	19.9	0.00e+00	0	42	0	894435328	58	7364
2026-01-25 01:41:24.02	295.78	31.51	-44.5	-46.1	19.1	0.00e+00	92	42	0	896532480	60	7312
2026-01-25 01:41:25.03	296.09	31.41	-44.7	-46.4	18.9	0.00e+00	1	42	0	897581056	60	7521
2026-01-25 01:41:26.03	296.40	31.31	-44.3	-45.8	19.4	0.00e+00	92	42	0	899678208	60	7065
2026-01-25 01:41:27.04	296.71	31.21	-43.7	-45.1	20.0	0.00e+00	91	42	0	901775360	60	6499
2026-01-25 01:41:28.06	297.02	31.11	-43.0	-44.2	21.0	0.00e+00	92	42	0	903872512	60	5851
2026-01-25 01:41:29.06	297.32	31.00	-42.7	-43.8	21.2	0.00e+00	92	42	0	905969664	58	6310
2026-01-25 01:41:30.07	297.63	30.90	-43.1	-44.3	20.6	0.00e+00	8	42	0	907018240	58	6674
2026-01-25 01:41:31.08	297.93	30.80	-43.6	-44.9	20.1	0.00e+00	92	42	0	909115392	58	7147
2026-01-25 01:41:32.09	298.23	30.70	-43.6	-45.0	20.0	0.00e+00	1	42	0	911212544	58	7203
2026-01-25 01:41:33.10	298.53	30.59	-43.0	-44.3	20.9	0.00e+00	91	42	0	913309696	58	6622
2026-01-25 01:41:34.11	298.83	30.49	-42.6	-43.7	21.3	0.00e+00	2	42	0	915406848	58	6225
2026-01-25 01:41:35.12	299.12	30.38	-42.5	-43.6	21.4	0.00e+00	92	42	0	916455424	58	6170
2026-01-25 01:41:36.13	299.42	30.28	-42.3	-43.4	21.5	0.00e+00	92	42	0	918552576	58	5989
2026-01-25 01:41:37.14	299.71	30.17	-42.8	-44.0	20.9	0.00e+00	17	42	0	920649728	58	6435
2026-01-25 01:41:38.15	300.00	30.07	-43.5	-44.9	20.2	0.00e+00	92	42	0	922746880	58	7113
2026-01-25 01:41:39.16	300.29	29.96	-43.8	-45.2	20.0	0.00e+00	0	42	0	924844032	60	6545
2026-01-25 01:41:40.17	300.57	29.85	-43.4	-44.7	20.5	0.00e+00	92	42	0	926941184	60	6208
2026-01-25 01:41:41.18	300.86	29.75	-42.8	-44.0	21.1	0.00e+00	67	42	0	927989760	60	5731
2026-01-25 01:41:42.19	301.14	29.64	-42.5	-43.6	21.4	0.00e+00	95	42	0	930086912	58	6155
2026-01-25 01:41:43.20	301.42	29.53	-42.8	-44.0	21.1	0.00e+00	90	42	0	932184064	58	6405
2026-01-25 01:41:44.21	301.70	29.42	-43.6	-45.0	20.1	0.00e+00	0	42	0	934281216	58	7197
2026-01-25 01:41:45.22	301.97	29.31	-44.5	-46.1	19.1	0.00e+00	90	42	0	936378368	60	7301
2026-01-25 01:41:46.23	302.25	29.21	-44.8	-46.5	18.8	0.00e+00	0	42	0	937426944	60	7632
2026-01-25 01:41:47.23	302.52	29.10	-44.1	-45.6	19.6	0.00e+00	90	42	0	939524096	60	6878
2026-01-25 01:41:48.24	302.79	28.99	-43.3	-44.7	20.5	0.00e+00	7	42	0	941621248	60	6185
2026-01-25 01:41:49.25	303.06	28.88	-43.3	-44.6	20.7	0.00e+00	90	42	0	943718400	60	6115
2026-01-25 01:41:50.26	303.33	28.77	-42.5	-43.7	21.4	0.00e+00	92	42	0	945815552	58	6174
2026-01-25 01:41:51.27	303.59	28.66	-43.0	-44.2	20.8	0.00e+00	14	42	0	946864128	58	6579
2026-01-25 01:41:52.28	303.86	28.55	-43.6	-45.0	20.0	0.00e+00	92	42	0	948961280	58	7193
2026-01-25 01:41:53.29	304.12	28.44	-44.2	-45.7	19.5	0.00e+00	7	42	0	951058432	60	6941
2026-01-25 01:41:54.30	304.38	28.33	-43.6	-45.0	20.3	0.00e+00	92	42	0	953155584	60	6442
2026-01-25 01:41:55.31	304.64	28.22	-42.5	-43.6	21.3	0.00e+00	0	42	0	955252736	58	6164
2026-01-25 01:41:56.32	304.90	28.11	-42.2	-43.3	21.7	0.00e+00	92	42	0	956301312	58	5960
2026-01-25 01:41:57.33	305.15	28.00	-42.3	-43.4	21.6	0.00e+00	0	42	0	958398464	58	6030
2026-01-25 01:41:58.34	305.41	27.89	-42.7	-43.9	21.1	0.00e+00	92	42	0	960495616	58	6320
2026-01-25 01:41:59.35	305.66	27.77	-43.4	-44.8	20.2	0.00e+00	92	42	0	962592768	58	7025
2026-01-25 01:42:00.36	305.91	27.66	-44.4	-45.9	19.3	0.00e+00	79	42	0	964689920	60	7167
2026-01-25 01:42:01.37	306.16	27.55	-44.3	-45.9	19.3	0.00e+00	90	42	0	965738496	60	7109
2026-01-25 01:42:02.38	306.40	27.44	-43.5	-44.9	20.3	0.00e+00	0	42	0	967835648	60	6350
2026-01-25 01:42:03.39	306.65	27.33	-43.2	-44.5	20.7	0.00e+00	92	42	0	969932800	60	6038
2026-01-25 01:42:04.39	306.89	27.22	-42.6	-43.8	21.1	0.00e+00	69	42	0	972029952	58	6274
2026-01-25 01:42:05.40	307.13	27.11	-42.5	-43.6	21.4	0.00e+00	92	42	0	974127104	58	6158
2026-01-25 01:42:06.41	307.37	26.99	-42.9	-44.1	20.8	0.00e+00	91	42	0	975175680	58	6505
2026-01-25 01:42:07.42	307.61	26.88	-43.5	-44.8	20.2	0.00e+00	0	42	0	977272832	58	7047
2026-01-25 01:42:08.43	307.84	26.77	-44.0	-45.4	19.7	0.00e+00	92	42	0	979369984	60	6769
2026-01-25 01:42:09.44	308.08	26.66	-43.8	-45.2	20.0	0.00e+00	5	42	0	981467136	60	6589
2026-01-25 01:42:10.45	308.31	26.55	-43.1	-44.4	20.8	0.00e+00	92	42	0	983564288	60	6021
2026-01-25 01:42:11.46	308.55	26.43	-42.4	-43.5	21.5	0.00e+00	3	42	0	984612864	58	6064
2026-01-25 01:42:12.47	308.78	26.32	-41.8	-42.8	21.7	0.00e+00	91	42	0	986710016	58	5625
2026-01-25 01:42:13.48	309.00	26.21	-41.5	-42.5	22.4	0.00e+00	0	42	0	988807168	56	6101
2026-01-25 01:42:14.49	309.23	26.10	-41.6	-42.6	22.3	0.00e+00	16	42	0	990904320	56	6164
2026-01-25 01:42:15.50	309.46	25.99	-42.2	-43.4	21.5	0.00e+00	90	42	0	993001472	56	6708
2026-01-25 01:42:16.51	309.68	25.87	-42.8	-44.0	21.0	0.00e+00	5	42	0	994050048	58	6445
2026-01-25 01:42:17.51	309.90	25.76	-42.7	-43.9	21.1	0.00e+00	92	42	0	996147200	58	6356
2026-01-25 01:42:18.52	310.12	25.65	-42.2	-43.4	21.7	0.00e+00	15	42	0	998244352	58	5980
2026-01-25 01:42:19.53	310.34	25.54	-42.2	-43.3	21.7	0.00e+00	92	42	0	1000341504	58	5955
2026-01-25 01:42:20.54	310.56	25.43	-41.5	-42.5	22.5	0.00e+00	0	42	0	1002438656	56	6083
2026-01-25 01:42:21.55	310.78	25.31	-41.2	-42.1	22.7	0.00e+00	61	42	0	1003487232	56	5828
2026-01-25 01:42:22.56	310.99	25.20	-41.4	-42.4	22.4	0.00e+00	92	42	0	1005584384	56	5981
2026-01-25 01:42:23.57	311.20	25.09	-41.8	-42.9	22.1	0.00e+00	74	42	0	1007681536	56	6321
2026-01-25 01:42:24.58	311.42	24.98	-42.1	-43.3	21.6	0.00e+00	92	42	0	1009778688	56	6629
2026-01-25 01:42:25.59	311.63	24.87	-42.3	-43.4	21.6	0.00e+00	1	42	0	1011875840	56	6762
2026-01-25 01:42:26.60	311.84	24.76	-41.8	-42.9	22.1	0.00e+00	90	42	0	1012924416	56	6358
2026-01-25 01:42:27.61	312.04	24.65	-41.7	-42.7	22.2	0.00e+00	0	42	0	1015021568	56	6236
2026-01-25 01:42:28.62	312.25	24.53	-41.4	-42.4	22.5	0.00e+00	92	42	0	1017118720	56	5999
2026-01-25 01:42:29.63	312.45	24.42	-41.1	-42.1	22.8	0.00e+00	92	42	0	1019215872	56	5769
2026-01-25 01:42:30.64	312.66	24.31	-40.5	-41.4	23.3	0.00e+00	6	42	0	1021313024	54	6021
2026-01-25 01:42:31.65	312.86	24.20	-40.4	-41.4	23.3	0.00e+00	92	42	0	1023410176	54	5976
2026-01-25 01:42:32.66	313.06	24.09	-40.6	-41.6	23.1	0.00e+00	6	42	0	1024458752	54	6113
2026-01-25 01:42:33.67	313.26	23.98	-40.8	-41.8	23.0	0.00e+00	92	42	0	1026555904	54	6252
2026-01-25 01:42:34.68	313.46	23.87	-40.9	-41.8	22.9	0.00e+00	4	42	0	1028653056	54	6315
2026-01-25 01:42:35.69	313.65	23.76	-40.6	-41.5	23.2	0.00e+00	20	42	0	1030750208	54	6074
2026-01-25 01:42:36.70	313.85	23.65	-40.6	-41.5	23.2	0.00e+00	53	42	0	1032847360	54	6095
2026-01-25 01:42:37.71	314.04	23.54	-40.1	-41.0	23.6	0.00e+00	15	42	0	1033895936	54	5745
2026-01-25 01:42:38.72	314.23	23.43	-39.8	-40.7	23.9	0.00e+00	91	42	0	1035993088	54	5524
2026-01-25 01:42:39.73	314.42	23.32	-39.6	-40.5	24.1	0.00e+00	67	42	0	1038090240	52	6055
2026-01-25 01:42:40.74	314.61	23.21	-39.7	-40.6	24.1	0.00e+00	92	42	0	1040187392	52	6115
2026-01-25 01:42:41.75	314.80	23.10	-39.9	-40.7	24.0	0.00e+00	68	42	0	1042284544	52	6236
2026-01-25 01:42:42.76	314.99	22.99	-40.1	-41.0	23.7	0.00e+00	21	42	0	1043333120	52	6415
2026-01-25 01:42:43.77	315.18	22.88	-40.4	-41.3	23.5	0.00e+00	8	42	0	1045430272	52	6647
2026-01-25 01:42:44.78	315.36	22.77	-40.2	-41.1	23.5	0.00e+00	65	42	0	1047527424	52	6518
2026-01-25 01:42:45.79	315.54	22.66	-40.1	-41.0	23.7	0.00e+00	91	42	0	1049624576	52	6403
2026-01-25 01:42:46.80	315.73	22.55	-39.9	-40.8	23.8	0.00e+00	0	42	0	1051721728	52	6249
2026-01-25 01:42:47.81	315.91	22.44	-39.7	-40.5	24.0	0.00e+00	91	42	0	1052770304	52	6093
2026-01-25 01:42:48.82	316.09	22.33	-39.6	-40.4	24.2	0.00e+00	0	42	0	1054867456	52	5999
2026-01-25 01:42:49.83	316.27	22.23	-39.4	-40.2	24.3	0.00e+00	91	42	0	1056964608	52	5890
2026-01-25 01:42:50.84	316.44	22.12	-39.5	-40.3	24.2	0.00e+00	0	42	0	1059061760	52	5924
2026-01-25 01:42:51.85	316.62	22.01	-39.6	-40.5	24.2	0.00e+00	0	42	0	1061158912	52	6056
2026-01-25 01:42:52.86	316.79	21.90	-39.7	-40.6	24.0	0.00e+00	92	42	0	1063256064	52	6130
2026-01-25 01:42:53.87	316.97	21.79	-39.7	-40.6	23.9	0.00e+00	0	42	0	1064304640	52	6106
2026-01-25 01:42:54.88	317.14	21.69	-39.8	-40.7	23.8	0.00e+00	92	42	0	1066401792	52	6220
2026-01-25 01:42:55.89	317.31	21.58	-39.9	-40.8	23.8	0.00e+00	2	42	0	1068498944	52	6255
2026-01-25 01:42:56.90	317.48	21.47	-40.0	-40.9	23.8	0.00e+00	92	42	0	1070596096	52	6341
2026-01-25 01:42:57.91	317.65	21.37	-39.9	-40.8	23.9	0.00e+00	14	42	0	1072693248	52	6295
2026-01-25 01:42:58.92	317.82	21.26	-39.6	-40.5	24.2	0.00e+00	3	42	0	1073741824	52	6046
2026-01-25 01:42:59.93	317.99	21.15	-39.5	-40.4	24.1	0.00e+00	91	42	0	1075838976	52	5979
2026-01-25 01:43:00.94	318.15	21.05	-39.3	-40.1	24.4	0.00e+00	12	42	0	1077936128	52	5826
2026-01-25 01:43:01.95	318.32	20.94	-39.4	-40.2	24.2	0.00e+00	92	42	0	1080033280	52	5880
2026-01-25 01:43:02.96	318.48	20.84	-39.5	-40.3	24.2	0.00e+00	13	42	0	1081081856	52	5949
2026-01-25 01:43:03.96	318.64	20.73	-39.7	-40.6	24.0	0.00e+00	92	42	0	1083179008	52	6116
2026-01-25 01:43:04.97	318.80	20.63	-39.9	-40.8	23.7	0.00e+00	2	42	0	1085276160	52	6287
2026-01-25 01:43:05.98	318.96	20.52	-40.1	-41.0	23.6	0.00e+00	92	42	0	1087373312	52	6433
2026-01-25 01:43:06.99	319.12	20.42	-40.2	-41.1	23.5	0.00e+00	0	42	0	1089470464	52	6512
2026-01-25 01:43:08.00	319.28	20.31	-40.4	-41.3	23.4	0.00e+00	67	42	0	1091567616	52	6648
2026-01-25 01:43:09.01	319.44	20.21	-40.4	-41.4	23.2	0.00e+00	92	42	0	1092616192	52	6720
2026-01-25 01:43:10.02	319.59	20.10	-40.4	-41.3	23.3	0.00e+00	0	42	0	1094713344	52	6676
2026-01-25 01:43:11.03	319.75	20.00	-40.2	-41.2	23.4	0.00e+00	91	42	0	1096810496	52	6547
2026-01-25 01:43:12.04	319.90	19.90	-40.0	-40.9	23.7	0.00e+00	0	42	0	1098907648	52	6387
2026-01-25 01:43:13.05	320.06	19.79	-40.1	-41.0	23.6	0.00e+00	92	42	0	1101004800	52	6433
2026-01-25 01:43:14.06	320.21	19.69	-40.0	-40.9	23.6	0.00e+00	0	42	0	1102053376	52	6366
2026-01-25 01:43:15.06	320.36	19.59	-40.2	-41.1	23.5	0.00e+00	0	42	0	1104150528	52	6509
2026-01-25 01:43:16.07	320.51	19.48	-40.1	-41.0	23.5	0.00e+00	92	42	0	1106247680	52	6431
2026-01-25 01:43:17.08	320.66	19.38	-40.2	-41.1	23.4	0.00e+00	13	42	0	1108344832	52	6507
2026-01-25 01:43:18.09	320.81	19.28	-40.3	-41.2	23.4	0.00e+00	92	42	0	1110441984	52	6572
2026-01-25 01:43:19.10	320.95	19.18	-40.3	-41.3	23.3	0.00e+00	0	42	0	1111490560	52	6628
2026-01-25 01:43:20.11	321.10	19.08	-40.3	-41.3	23.3	0.00e+00	92	42	0	1113587712	52	6634
2026-01-25 01:43:21.12	321.24	18.98	-40.4	-41.4	23.2	0.00e+00	14	42	0	1115684864	52	6708
2026-01-25 01:43:22.13	321.39	18.87	-40.5	-41.4	23.2	0.00e+00	86	42	0	1117782016	52	6763
2026-01-25 01:43:23.14	321.53	18.77	-40.4	-41.4	23.1	0.00e+00	92	42	0	1119879168	52	6715
2026-01-25 01:43:24.15	321.67	18.67	-40.5	-41.5	23.1	0.00e+00	68	42	0	1120927744	52	6771
2026-01-25 01:43:25.16	321.82	18.57	-40.6	-41.6	23.0	0.00e+00	92	42	0	1123024896	54	6146
2026-01-25 01:43:26.17	321.96	18.47	-40.5	-41.5	23.0	0.00e+00	67	42	0	1125122048	54	6063
2026-01-25 01:43:27.18	322.10	18.37	-40.6	-41.5	23.0	0.00e+00	92	42	0	1127219200	54	6097
2026-01-25 01:43:28.18	322.23	18.27	-40.9	-41.8	22.7	0.00e+00	67	42	0	1129316352	54	6307
2026-01-25 01:43:29.19	322.37	18.17	-40.6	-41.5	23.0	0.00e+00	92	41	0	1130364928	54	6082
2026-01-25 01:43:30.20	322.51	18.07	-40.8	-41.7	22.8	0.00e+00	0	42	0	1132462080	54	6237
2026-01-25 01:43:31.21	322.65	17.97	-40.6	-41.6	23.0	0.00e+00	0	41	0	1134559232	54	6132
2026-01-25 01:43:32.22	322.78	17.88	-40.5	-41.5	23.1	0.00e+00	90	41	0	1136656384	54	6044
2026-01-25 01:43:33.23	322.92	17.78	-40.8	-41.7	22.9	0.00e+00	0	42	0	1138753536	54	6221
2026-01-25 01:43:34.24	323.05	17.68	-40.9	-41.8	22.7	0.00e+00	92	42	0	1139802112	54	6313
2026-01-25 01:43:35.25	323.18	17.58	-40.8	-41.8	22.6	0.00e+00	2	41	0	1141899264	54	6290
2026-01-25 01:43:36.26	323.32	17.48	-40.9	-41.9	22.6	0.00e+00	90	42	0	1143996416	54	6323
2026-01-25 01:43:37.27	323.45	17.39	-40.9	-41.9	22.6	0.00e+00	0	42	0	1146093568	54	6381
2026-01-25 01:43:38.28	323.58	17.29	-41.5	-42.6	22.1	0.00e+00	0	42	0	1148190720	54	6872
2026-01-25 01:43:39.29	323.71	17.19	-41.5	-42.6	22.0	0.00e+00	92	41	0	1149239296	54	6867
2026-01-25 01:43:40.29	323.84	17.10	-42.0	-43.1	21.5	0.00e+00	11	41	0	1151336448	56	6516
2026-01-25 01:43:41.30	323.96	17.00	-42.2	-43.4	21.2	0.00e+00	92	41	0	1153433600	56	6736
2026-01-25 01:43:42.31	324.09	16.90	-42.5	-43.7	20.9	0.00e+00	72	41	0	1155530752	56	7003
2026-01-25 01:43:43.32	324.22	16.81	-42.3	-43.5	21.2	0.00e+00	92	41	0	1157627904	56	6808
2026-01-25 01:43:44.33	324.34	16.71	-42.2	-43.4	21.3	0.00e+00	70	42	0	1159725056	56	6758
2026-01-25 01:43:45.34	324.47	16.62	-42.0	-43.2	21.5	0.00e+00	90	41	0	1160773632	56	6572
2026-01-25 01:43:46.35	324.59	16.52	-41.9	-43.0	21.7	0.00e+00	0	41	0	1162870784	56	6433
2026-01-25 01:43:47.36	324.72	16.43	-41.5	-42.5	22.1	0.00e+00	0	42	0	1164967936	56	6090
2026-01-25 01:43:48.37	324.84	16.33	-41.6	-42.7	21.9	0.00e+00	91	41	0	1167065088	56	6192
2026-01-25 01:43:49.38	324.96	16.24	-41.3	-42.3	22.3	0.00e+00	70	42	0	1169162240	56	5955
2026-01-25 01:43:50.39	325.08	16.14	-41.3	-42.4	22.3	0.00e+00	90	41	0	1170210816	56	5971
2026-01-25 01:43:51.40	325.20	16.05	-41.4	-42.4	22.1	0.00e+00	0	41	0	1172307968	56	6031
2026-01-25 01:43:52.41	325.32	15.95	-41.4	-42.4	22.1	0.00e+00	92	41	0	1174405120	56	6013
2026-01-25 01:43:53.42	325.44	15.86	-41.5	-42.6	22.0	0.00e+00	7	41	0	1176502272	56	6130
2026-01-25 01:43:54.43	325.56	15.77	-41.8	-42.9	21.9	0.00e+00	6	41	0	1178599424	56	6339
2026-01-25 01:43:55.44	325.68	15.67	-42.0	-43.1	21.6	0.00e+00	92	41	0	1179648000	56	6499
2026-01-25 01:43:56.45	325.80	15.58	-42.0	-43.1	21.5	0.00e+00	6	41	0	1181745152	56	6514
2026-01-25 01:43:57.46	325.91	15.49	-42.1	-43.3	21.3	0.00e+00	92	41	0	1183842304	56	6664
2026-01-25 01:43:58.47	326.03	15.40	-42.2	-43.4	21.2	0.00e+00	10	41	0	1185939456	56	6708
2026-01-25 01:43:59.48	326.14	15.30	-42.1	-43.3	21.3	0.00e+00	92	41	0	1188036608	56	6672
2026-01-25 01:44:00.49	326.26	15.21	-42.1	-43.2	21.3	0.00e+00	0	41	0	1189085184	56	6609
2026-01-25 01:44:01.50	326.37	15.12	-41.9	-43.1	21.5	0.00e+00	90	41	0	1191182336	56	6496
2026-01-25 01:44:02.51	326.48	15.03	-41.8	-42.9	21.8	0.00e+00	92	41	0	1193279488	56	6327
2026-01-25 01:44:03.52	326.60	14.94	-41.7	-42.8	21.7	0.00e+00	76	41	0	1195376640	56	6308
2026-01-25 01:44:04.53	326.71	14.85	-41.4	-42.5	22.0	0.00e+00	92	41	0	1197473792	56	6076
