passes_logs/2026/01/25/R4.6S_Anadyr/R4.6S_Anadyr__20260125_233258_NOAA_20_JPSS-1_rec.log

#Pass ID: 20260125_233258_NOAA 20 (JPSS-1)
#Satellite: NOAA 20 (JPSS-1)
#Configuration: NOAA 20
#almurnet v.1.7.20251203
#Start time: 2026-01-25 23:33:00

#Version: 2.2.20231116
#Station: R4.6S_Anadyr
#Location: 177.4865 lon 64.73178 lat
#TLE: 1 43013U 17073A   26025.47986292  .00000161  00000+0  97249-4 0  9993
#TLE: 2 43013  98.7646 326.3091 0001052  24.2709 335.8516 14.19540188424225

#Time	Az	El	Level	Level2	SNR	BER	BlckErr	Temp	State	Recorded	gain1	gain2
2026-01-25 23:33:00.03	139.70	0.07	-51.2	-66.1	3.4	1.51e+00	0	33	0	0	60	73164
2026-01-25 23:33:01.03	139.69	0.13	-52.1	-67.2	3.6	1.51e+00	0	34	104	0	60	82850
2026-01-25 23:33:02.04	139.67	0.19	-52.2	-67.4	3.6	1.51e+00	0	34	104	0	60	84851
2026-01-25 23:33:03.05	139.66	0.25	-51.6	-66.7	3.6	1.51e+00	0	35	104	0	60	78210
2026-01-25 23:33:04.06	139.64	0.31	-52.2	-67.4	3.6	1.51e+00	0	35	104	0	60	84638
2026-01-25 23:33:05.07	139.63	0.38	-51.3	-66.6	3.6	1.51e+00	0	35	104	0	60	77016
2026-01-25 23:33:06.08	139.61	0.44	-50.7	-66.0	3.6	1.51e+00	0	35	104	0	60	71730
2026-01-25 23:33:07.10	139.59	0.50	-50.6	-65.8	3.6	1.51e+00	0	35	104	0	60	70275
2026-01-25 23:33:08.11	139.58	0.56	-50.3	-65.5	3.6	1.51e+00	0	35	104	0	60	68154
2026-01-25 23:33:09.12	139.56	0.62	-50.5	-65.7	3.6	1.51e+00	0	35	104	0	60	69502
2026-01-25 23:33:10.13	139.55	0.68	-50.5	-65.7	3.6	1.51e+00	0	35	104	0	60	69361
2026-01-25 23:33:11.14	139.53	0.74	-50.4	-65.6	3.6	1.51e+00	0	35	104	0	60	68542
2026-01-25 23:33:12.14	139.51	0.81	-50.4	-65.5	3.6	1.51e+00	0	35	104	0	60	68205
2026-01-25 23:33:13.15	139.50	0.87	-50.1	-65.3	3.6	1.51e+00	0	35	104	0	60	66385
2026-01-25 23:33:14.16	139.48	0.93	-50.2	-65.4	3.6	1.51e+00	0	35	104	0	60	67086
2026-01-25 23:33:15.17	139.46	0.99	-50.2	-65.4	3.6	1.51e+00	0	35	104	0	60	67305
2026-01-25 23:33:16.18	139.45	1.05	-50.2	-65.5	3.6	1.51e+00	0	35	104	0	60	67971
2026-01-25 23:33:17.19	139.43	1.12	-50.2	-65.4	3.6	1.51e+00	0	35	104	0	60	67622
2026-01-25 23:33:18.20	139.41	1.18	-50.1	-65.4	3.6	1.51e+00	0	35	104	0	60	67372
2026-01-25 23:33:19.21	139.40	1.24	-49.6	-65.0	3.6	1.51e+00	0	35	104	0	60	64295
2026-01-25 23:33:20.22	139.38	1.30	-49.5	-64.8	3.6	1.51e+00	0	35	104	0	60	62864
2026-01-25 23:33:21.23	139.36	1.37	-49.4	-64.6	3.6	1.51e+00	0	35	104	0	60	61587
2026-01-25 23:33:22.24	139.35	1.43	-49.1	-64.4	3.6	1.51e+00	0	35	104	0	60	59907
2026-01-25 23:33:23.25	139.33	1.49	-49.3	-64.5	3.6	1.51e+00	0	35	104	0	60	60811
2026-01-25 23:33:24.26	139.31	1.56	-49.0	-64.3	3.6	1.51e+00	0	35	104	0	60	59062
2026-01-25 23:33:25.27	139.29	1.62	-48.8	-63.5	3.6	1.51e+00	0	35	104	0	60	54245
2026-01-25 23:33:26.28	139.28	1.68	-48.5	-63.8	3.6	1.51e+00	0	35	104	0	60	56217
2026-01-25 23:33:27.29	139.26	1.75	-48.4	-63.8	3.6	1.51e+00	0	35	104	0	60	55994
2026-01-25 23:33:28.30	139.24	1.81	-48.6	-64.0	3.6	1.51e+00	0	35	104	0	60	57331
2026-01-25 23:33:29.31	139.22	1.88	-48.4	-63.6	3.6	1.51e+00	0	35	104	0	60	54967
2026-01-25 23:33:30.32	139.21	1.94	-48.3	-63.5	3.6	1.51e+00	0	35	104	0	60	54183
2026-01-25 23:33:31.33	139.19	2.00	-48.6	-63.8	3.6	1.51e+00	0	35	104	0	60	56077
2026-01-25 23:33:32.34	139.17	2.07	-48.6	-63.8	3.6	1.51e+00	0	35	104	0	60	56212
2026-01-25 23:33:33.35	139.15	2.13	-48.7	-63.8	3.6	1.51e+00	0	35	104	0	60	55894
2026-01-25 23:33:34.36	139.14	2.20	-48.5	-63.8	3.6	1.51e+00	0	35	104	0	60	55825
2026-01-25 23:33:35.37	139.12	2.26	-48.3	-63.6	3.6	1.51e+00	0	35	104	0	60	54787
2026-01-25 23:33:36.38	139.10	2.33	-48.4	-63.7	3.6	1.51e+00	0	35	104	0	60	55449
2026-01-25 23:33:37.39	139.08	2.39	-48.3	-63.6	3.6	1.51e+00	0	35	104	0	60	54787
2026-01-25 23:33:38.40	139.06	2.46	-48.5	-63.7	3.6	1.51e+00	0	35	104	0	60	55344
2026-01-25 23:33:39.41	139.04	2.52	-48.7	-63.9	3.6	1.51e+00	0	35	104	0	60	56633
2026-01-25 23:33:40.42	139.02	2.59	-48.5	-63.6	3.6	1.51e+00	0	35	104	0	60	54459
2026-01-25 23:33:41.43	139.01	2.66	-48.1	-62.8	3.6	1.51e+00	0	35	104	0	60	49974
2026-01-25 23:33:42.44	138.99	2.72	-48.5	-63.3	3.6	1.51e+00	0	35	104	0	60	53106
2026-01-25 23:33:43.45	138.97	2.79	-48.6	-63.4	3.6	1.51e+00	0	35	104	0	60	53730
2026-01-25 23:33:44.46	138.95	2.85	-48.2	-62.9	3.6	1.51e+00	0	35	104	0	60	50197
2026-01-25 23:33:45.47	138.93	2.92	-48.3	-63.0	3.6	1.51e+00	0	35	104	0	60	51146
2026-01-25 23:33:46.48	138.91	2.99	-48.4	-63.3	3.6	1.51e+00	0	35	104	0	60	52696
2026-01-25 23:33:47.49	138.89	3.05	-48.4	-63.5	3.6	1.51e+00	0	35	104	0	60	53807
2026-01-25 23:33:48.50	138.87	3.12	-48.7	-63.9	3.6	1.51e+00	0	35	104	0	60	56935
2026-01-25 23:33:49.51	138.85	3.19	-48.3	-60.7	3.7	1.50e+00	0	35	104	0	60	39353
2026-01-25 23:33:50.52	138.83	3.25	-48.3	-58.6	5.2	8.48e-01	0	35	0	0	60	30630
2026-01-25 23:33:51.53	138.81	3.32	-48.1	-55.6	6.7	5.17e-01	0	35	0	1048576	60	21784
2026-01-25 23:33:52.54	138.79	3.39	-46.7	-51.3	11.5	1.34e-02	0	35	0	3145728	60	13241
2026-01-25 23:33:53.55	138.77	3.46	-46.4	-50.3	12.6	3.97e-04	0	35	0	5242880	60	11856
2026-01-25 23:33:54.56	138.75	3.52	-45.5	-48.8	13.8	2.97e-05	0	35	0	7340032	60	9942
2026-01-25 23:33:55.57	138.73	3.59	-44.7	-47.4	15.5	7.00e-07	0	35	0	9437184	60	8444
2026-01-25 23:33:56.58	138.71	3.66	-43.6	-45.8	16.9	0.00e+00	0	35	0	10485760	60	7029
2026-01-25 23:33:57.60	138.69	3.73	-43.7	-45.6	17.7	0.00e+00	0	35	0	12582912	60	6924
2026-01-25 23:33:58.61	138.67	3.80	-48.8	-61.5	3.6	0.00e+00	0	35	104	14680064	60	42996
2026-01-25 23:33:59.61	138.65	3.87	-48.9	-61.8	3.6	1.51e+00	0	35	104	14680064	60	44460
2026-01-25 23:34:00.63	138.63	3.94	-42.1	-43.7	18.6	5.85e-01	0	35	0	14680064	58	6199
2026-01-25 23:34:01.63	138.61	4.00	-43.2	-45.2	17.3	2.14e-03	0	35	0	16777216	60	6559
2026-01-25 23:34:02.65	138.59	4.07	-45.1	-48.1	12.1	0.00e+00	0	35	0	18874368	58	10253
2026-01-25 23:34:03.66	138.57	4.14	-45.1	-48.1	16.0	1.12e+00	0	35	104	18874368	60	9206
2026-01-25 23:34:04.66	138.55	4.21	-42.8	-44.5	18.1	0.00e+00	0	35	0	19922944	60	6089
2026-01-25 23:34:05.68	138.52	4.28	-43.3	-45.2	18.1	0.00e+00	0	35	0	20971520	60	6588
2026-01-25 23:34:06.69	138.50	4.35	-42.2	-43.8	18.9	0.00e+00	0	35	0	23068672	58	6278
2026-01-25 23:34:07.70	138.48	4.42	-42.8	-44.5	18.6	0.00e+00	0	35	0	25165824	58	6820
2026-01-25 23:34:08.70	138.46	4.49	-43.0	-44.7	18.8	0.00e+00	0	35	0	27262976	58	6953
2026-01-25 23:34:09.71	138.44	4.56	-42.1	-43.6	19.6	0.00e+00	0	35	0	29360128	58	6126
2026-01-25 23:34:10.72	138.42	4.63	-42.2	-43.7	19.4	0.00e+00	0	35	0	30408704	58	6221
2026-01-25 23:34:11.73	138.39	4.70	-42.1	-43.5	19.3	0.00e+00	0	35	0	32505856	56	6828
2026-01-25 23:34:12.74	138.37	4.77	-42.6	-44.1	19.4	0.00e+00	0	35	0	34603008	56	7269
2026-01-25 23:34:13.75	138.35	4.84	-41.6	-42.9	20.4	0.00e+00	0	35	0	36700160	56	6357
2026-01-25 23:34:14.76	138.33	4.92	-42.0	-43.4	19.9	0.00e+00	0	35	0	38797312	56	6758
2026-01-25 23:34:15.77	138.30	4.99	-41.8	-43.1	20.2	0.00e+00	0	35	0	39845888	56	6511
2026-01-25 23:34:16.78	138.28	5.06	-41.6	-42.9	20.3	0.00e+00	0	35	0	41943040	56	6382
2026-01-25 23:34:17.79	138.26	5.13	-41.6	-42.9	20.2	0.00e+00	0	35	0	44040192	56	6371
2026-01-25 23:34:18.80	138.24	5.20	-41.1	-42.4	20.6	0.00e+00	0	35	0	46137344	56	5979
2026-01-25 23:34:19.81	138.21	5.28	-41.6	-43.0	20.1	0.00e+00	0	35	0	48234496	56	6421
2026-01-25 23:34:20.82	138.19	5.35	-41.3	-42.6	20.7	0.00e+00	0	35	0	49283072	56	6143
2026-01-25 23:34:21.83	138.17	5.42	-41.1	-42.3	20.9	0.00e+00	0	35	0	51380224	56	5944
2026-01-25 23:34:22.83	138.14	5.49	-40.9	-42.1	21.2	0.00e+00	0	35	0	53477376	56	5811
2026-01-25 23:34:23.84	138.12	5.57	-41.0	-42.2	21.1	0.00e+00	0	35	0	55574528	56	5834
2026-01-25 23:34:24.85	138.10	5.64	-40.8	-41.9	21.3	0.00e+00	0	35	0	57671680	56	5688
2026-01-25 23:34:25.86	138.07	5.71	-41.2	-42.4	21.0	0.00e+00	0	35	0	58720256	56	5998
2026-01-25 23:34:26.87	138.05	5.79	-41.2	-42.4	20.2	0.00e+00	0	35	0	60817408	56	5987
2026-01-25 23:34:27.88	138.02	5.86	-41.1	-42.3	21.5	0.00e+00	0	35	0	62914560	56	5913
2026-01-25 23:34:28.89	138.00	5.93	-40.6	-41.7	21.6	0.00e+00	0	35	0	65011712	54	6176
2026-01-25 23:34:29.90	137.98	6.01	-40.6	-41.7	21.6	0.00e+00	0	35	0	67108864	54	6182
2026-01-25 23:34:30.91	137.95	6.08	-40.4	-41.5	21.7	0.00e+00	0	35	0	68157440	54	6082
2026-01-25 23:34:31.92	137.93	6.16	-40.6	-41.6	21.9	0.00e+00	0	35	0	70254592	54	6159
2026-01-25 23:34:32.93	137.90	6.23	-40.0	-41.0	22.1	0.00e+00	0	35	0	72351744	54	5749
2026-01-25 23:34:33.94	137.88	6.31	-40.1	-41.2	22.1	0.00e+00	0	35	0	74448896	54	5858
2026-01-25 23:34:34.95	137.85	6.38	-39.9	-40.9	22.4	0.00e+00	0	35	0	76546048	54	5683
2026-01-25 23:34:35.96	137.83	6.46	-39.9	-40.9	22.3	0.00e+00	0	35	0	78643200	52	6347
2026-01-25 23:34:36.97	137.80	6.53	-40.0	-41.0	22.3	0.00e+00	0	35	0	79691776	52	6428
2026-01-25 23:34:37.98	137.78	6.61	-40.3	-41.3	22.3	0.00e+00	0	35	0	81788928	52	6674
2026-01-25 23:34:38.99	137.75	6.69	-40.1	-41.1	22.2	0.00e+00	0	35	0	83886080	52	6536
2026-01-25 23:34:40.01	137.72	6.76	-40.0	-41.0	22.3	0.00e+00	0	35	0	85983232	52	6432
2026-01-25 23:34:41.01	137.70	6.84	-40.4	-41.4	22.2	0.00e+00	0	35	0	88080384	52	6758
2026-01-25 23:34:42.02	137.67	6.92	-40.0	-41.1	22.2	0.00e+00	0	35	0	89128960	52	6469
2026-01-25 23:34:43.03	137.65	6.99	-40.1	-41.1	22.2	0.00e+00	0	35	0	91226112	52	6525
2026-01-25 23:34:44.05	137.62	7.07	-40.0	-41.1	22.3	0.00e+00	0	35	0	93323264	52	6513
2026-01-25 23:34:45.06	137.59	7.15	-39.9	-41.0	22.3	0.00e+00	0	35	0	95420416	52	6433
2026-01-25 23:34:46.07	137.57	7.23	-40.2	-41.2	22.4	0.00e+00	0	35	0	97517568	52	6608
2026-01-25 23:34:47.08	137.54	7.30	-39.9	-41.0	22.3	0.00e+00	0	35	0	98566144	52	6439
2026-01-25 23:34:48.09	137.51	7.38	-40.1	-41.3	22.2	0.00e+00	0	35	0	100663296	52	6629
2026-01-25 23:34:49.10	137.49	7.46	-39.7	-40.7	22.6	0.00e+00	0	35	0	102760448	52	6228
2026-01-25 23:34:50.10	137.46	7.54	-39.7	-40.8	22.6	0.00e+00	0	35	0	104857600	52	6252
2026-01-25 23:34:51.11	137.43	7.62	-39.6	-40.7	22.7	0.00e+00	0	35	0	106954752	52	6183
2026-01-25 23:34:52.12	137.40	7.70	-39.9	-40.9	22.6	0.00e+00	0	35	0	108003328	52	6348
2026-01-25 23:34:53.13	137.37	7.78	-39.6	-40.6	22.8	0.00e+00	0	35	0	110100480	52	6138
2026-01-25 23:34:54.14	137.35	7.86	-40.2	-41.2	22.4	0.00e+00	0	35	0	112197632	52	6599
2026-01-25 23:34:55.15	137.32	7.94	-39.6	-40.6	22.9	0.00e+00	0	35	0	114294784	52	6123
2026-01-25 23:34:56.16	137.29	8.02	-39.6	-40.6	22.7	0.00e+00	0	35	0	116391936	52	6155
2026-01-25 23:34:57.17	137.26	8.10	-39.5	-40.5	22.9	0.00e+00	0	35	0	117440512	52	6082
2026-01-25 23:34:58.18	137.23	8.18	-40.1	-41.1	22.7	0.00e+00	0	35	0	119537664	52	6475
2026-01-25 23:34:59.19	137.20	8.26	-40.5	-41.5	22.7	0.00e+00	0	35	0	121634816	52	6806
2026-01-25 23:35:00.20	137.17	8.34	-39.6	-40.6	22.7	0.00e+00	0	35	0	123731968	52	6114
2026-01-25 23:35:01.21	137.15	8.42	-39.9	-40.8	22.7	0.00e+00	0	35	0	125829120	52	6303
2026-01-25 23:35:02.22	137.12	8.50	-39.9	-40.9	22.6	0.00e+00	0	35	0	126877696	52	6328
2026-01-25 23:35:03.23	137.09	8.58	-39.9	-40.9	22.6	0.00e+00	0	35	0	128974848	52	6373
2026-01-25 23:35:04.24	137.06	8.67	-39.3	-40.3	23.1	0.00e+00	0	35	0	131072000	52	5912
2026-01-25 23:35:05.25	137.03	8.75	-39.9	-40.9	23.0	0.00e+00	0	35	0	133169152	52	6343
2026-01-25 23:35:06.26	137.00	8.83	-39.3	-40.2	23.1	0.00e+00	0	35	0	135266304	52	5881
2026-01-25 23:35:07.26	136.97	8.91	-39.4	-40.3	22.9	0.00e+00	0	35	0	136314880	52	5959
2026-01-25 23:35:08.27	136.94	9.00	-39.6	-40.6	22.6	0.00e+00	0	35	0	138412032	52	6156
2026-01-25 23:35:09.28	136.91	9.08	-39.3	-40.3	23.1	0.00e+00	0	35	0	140509184	52	5907
2026-01-25 23:35:10.30	136.87	9.16	-39.4	-40.4	22.9	0.00e+00	0	35	0	142606336	52	6006
2026-01-25 23:35:11.30	136.84	9.25	-39.8	-40.8	22.8	0.00e+00	0	35	0	144703488	52	6251
2026-01-25 23:35:12.31	136.81	9.33	-40.2	-41.2	22.8	0.00e+00	0	35	0	146800640	52	6588
2026-01-25 23:35:13.33	136.78	9.42	-39.6	-40.6	22.9	0.00e+00	0	35	0	147849216	52	6143
2026-01-25 23:35:14.34	136.75	9.50	-39.6	-40.6	22.8	0.00e+00	0	35	0	149946368	52	6165
2026-01-25 23:35:15.35	136.72	9.59	-39.6	-40.6	23.0	0.00e+00	0	35	0	152043520	52	6108
2026-01-25 23:35:16.36	136.68	9.67	-39.7	-40.7	22.8	0.00e+00	0	35	0	154140672	52	6213
2026-01-25 23:35:17.37	136.65	9.76	-39.5	-40.5	23.3	0.00e+00	0	35	0	156237824	52	6064
2026-01-25 23:35:18.37	136.62	9.84	-39.6	-40.5	23.1	0.00e+00	0	35	0	157286400	52	6076
2026-01-25 23:35:19.38	136.59	9.93	-39.2	-40.1	23.6	0.00e+00	0	36	0	159383552	52	5764
2026-01-25 23:35:20.39	136.55	10.02	-39.3	-40.2	23.4	0.00e+00	0	36	0	161480704	52	5869
2026-01-25 23:35:21.41	136.52	10.10	-38.9	-39.8	23.5	0.00e+00	0	35	0	163577856	52	5621
2026-01-25 23:35:22.42	136.49	10.19	-39.2	-40.2	23.2	0.00e+00	0	36	0	165675008	52	5836
2026-01-25 23:35:23.43	136.45	10.28	-39.4	-40.3	23.5	0.00e+00	0	35	0	166723584	52	5907
2026-01-25 23:35:24.44	136.42	10.37	-39.0	-39.9	23.5	0.00e+00	0	36	0	168820736	52	5695
2026-01-25 23:35:25.45	136.38	10.45	-39.0	-39.9	23.4	0.00e+00	0	35	0	170917888	52	5675
2026-01-25 23:35:26.46	136.35	10.54	-39.3	-40.2	23.4	0.00e+00	0	35	0	173015040	52	5892
2026-01-25 23:35:27.46	136.32	10.63	-39.3	-40.2	23.4	0.00e+00	0	35	0	175112192	52	5855
2026-01-25 23:35:28.47	136.28	10.72	-39.1	-40.1	23.4	0.00e+00	0	35	0	176160768	52	5773
2026-01-25 23:35:29.48	136.25	10.81	-39.3	-40.2	23.3	0.00e+00	0	35	0	178257920	52	5867
2026-01-25 23:35:30.49	136.21	10.90	-39.8	-40.7	23.4	0.00e+00	0	35	0	180355072	52	6212
2026-01-25 23:35:31.50	136.18	10.99	-39.2	-40.2	23.5	0.00e+00	0	35	0	182452224	52	5829
2026-01-25 23:35:32.52	136.14	11.08	-39.1	-40.1	23.7	0.00e+00	0	35	0	184549376	52	5766
2026-01-25 23:35:33.52	136.10	11.17	-39.4	-40.3	23.5	0.00e+00	0	36	0	185597952	52	5960
2026-01-25 23:35:34.53	136.07	11.26	-39.1	-40.0	23.4	0.00e+00	0	35	0	187695104	52	5725
2026-01-25 23:35:35.54	136.03	11.35	-39.0	-39.9	23.5	0.00e+00	0	35	0	189792256	50	6348
2026-01-25 23:35:36.55	135.99	11.44	-39.3	-40.2	23.7	0.00e+00	0	35	0	191889408	50	6562
2026-01-25 23:35:37.56	135.96	11.53	-39.1	-40.0	23.8	0.00e+00	0	35	0	193986560	50	6443
2026-01-25 23:35:38.57	135.92	11.63	-38.8	-39.7	23.7	0.00e+00	0	36	0	195035136	50	6237
2026-01-25 23:35:39.58	135.88	11.72	-38.8	-39.7	23.7	0.00e+00	0	36	0	197132288	50	6194
2026-01-25 23:35:40.59	135.85	11.81	-39.3	-40.2	23.6	0.00e+00	0	35	0	199229440	50	6571
2026-01-25 23:35:41.60	135.81	11.90	-39.3	-40.2	23.6	0.00e+00	0	35	0	201326592	50	6600
2026-01-25 23:35:42.61	135.77	12.00	-39.1	-40.0	23.5	0.00e+00	0	35	0	203423744	50	6428
2026-01-25 23:35:43.62	135.73	12.09	-39.2	-40.1	23.4	0.00e+00	0	36	0	204472320	50	6512
2026-01-25 23:35:44.63	135.69	12.19	-39.1	-40.0	23.4	0.00e+00	0	35	0	206569472	50	6445
2026-01-25 23:35:45.64	135.65	12.28	-38.7	-39.6	23.7	0.00e+00	0	36	0	208666624	50	6133
2026-01-25 23:35:46.66	135.61	12.38	-38.6	-39.5	23.8	0.00e+00	0	35	0	210763776	50	6067
2026-01-25 23:35:47.66	135.57	12.47	-38.9	-39.8	23.7	0.00e+00	0	35	0	212860928	50	6306
2026-01-25 23:35:48.67	135.53	12.57	-38.7	-39.6	23.9	0.00e+00	0	35	0	214958080	50	6149
2026-01-25 23:35:49.69	135.49	12.66	-38.6	-39.5	23.9	0.00e+00	0	35	0	216006656	50	6038
2026-01-25 23:35:50.70	135.45	12.76	-38.6	-39.5	24.0	0.00e+00	0	35	0	218103808	50	6046
2026-01-25 23:35:51.70	135.41	12.85	-38.7	-39.6	24.0	0.00e+00	0	35	0	220200960	50	6122
2026-01-25 23:35:52.72	135.37	12.95	-38.9	-39.8	23.9	0.00e+00	0	35	0	222298112	50	6277
2026-01-25 23:35:53.73	135.33	13.05	-38.8	-39.7	23.9	0.00e+00	0	35	0	224395264	50	6227
2026-01-25 23:35:54.74	135.29	13.15	-38.6	-39.5	23.9	0.00e+00	0	35	0	225443840	50	6081
2026-01-25 23:35:55.75	135.25	13.25	-38.5	-39.4	23.9	0.00e+00	0	35	0	227540992	50	5991
2026-01-25 23:35:56.76	135.21	13.35	-38.8	-39.8	23.8	0.00e+00	0	35	0	229638144	50	6255
2026-01-25 23:35:57.77	135.16	13.44	-38.9	-39.8	23.9	0.00e+00	0	35	0	231735296	50	6304
2026-01-25 23:35:58.78	135.12	13.54	-38.8	-39.7	23.7	0.00e+00	0	35	0	233832448	50	6195
2026-01-25 23:35:59.79	135.08	13.64	-39.2	-40.2	22.9	0.00e+00	0	35	0	234881024	50	6582
2026-01-25 23:36:00.80	135.03	13.74	-39.4	-40.3	22.9	0.00e+00	0	35	0	236978176	52	5958
2026-01-25 23:36:01.81	134.99	13.84	-39.6	-40.6	23.3	0.00e+00	0	35	0	239075328	52	6134
2026-01-25 23:36:02.82	134.95	13.95	-39.1	-40.1	23.7	0.00e+00	0	36	0	241172480	52	5809
2026-01-25 23:36:03.83	134.90	14.05	-39.2	-40.2	23.6	0.00e+00	0	35	0	243269632	52	5862
2026-01-25 23:36:04.84	134.86	14.15	-38.9	-39.9	23.8	0.00e+00	0	35	0	244318208	50	6319
2026-01-25 23:36:05.85	134.81	14.25	-39.1	-40.0	23.6	0.00e+00	0	35	0	246415360	50	6429
2026-01-25 23:36:06.86	134.77	14.35	-39.4	-40.3	23.7	0.00e+00	0	35	0	248512512	50	6690
2026-01-25 23:36:07.87	134.72	14.46	-39.3	-40.3	23.5	0.00e+00	0	35	0	250609664	52	5926
2026-01-25 23:36:08.88	134.68	14.56	-39.7	-40.6	23.6	0.00e+00	0	36	0	252706816	52	6171
2026-01-25 23:36:09.89	134.63	14.66	-39.7	-40.6	23.6	0.00e+00	0	35	0	254803968	52	6153
2026-01-25 23:36:10.90	134.58	14.77	-39.4	-40.3	23.8	0.00e+00	0	35	0	255852544	52	5907
2026-01-25 23:36:11.91	134.54	14.87	-39.7	-40.7	23.8	0.00e+00	0	36	0	257949696	52	6177
2026-01-25 23:36:12.92	134.49	14.98	-39.6	-40.5	23.6	0.00e+00	0	35	0	260046848	52	6080
2026-01-25 23:36:13.93	134.44	15.08	-40.1	-41.1	22.8	0.00e+00	0	35	0	262144000	52	6529
2026-01-25 23:36:14.94	134.39	15.19	-39.4	-40.4	23.4	0.00e+00	0	35	0	264241152	52	5970
2026-01-25 23:36:15.95	134.34	15.30	-39.0	-40.0	24.0	0.00e+00	0	35	0	265289728	52	5730
2026-01-25 23:36:16.96	134.29	15.40	-38.8	-39.8	23.9	0.00e+00	0	35	0	267386880	50	6281
2026-01-25 23:36:17.98	134.24	15.51	-39.1	-40.1	23.6	0.00e+00	0	35	0	269484032	50	6481
2026-01-25 23:36:18.98	134.20	15.62	-39.0	-39.9	23.8	0.00e+00	0	35	0	271581184	50	6387
2026-01-25 23:36:20.00	134.15	15.73	-39.1	-40.0	23.9	0.00e+00	0	36	0	273678336	50	6460
2026-01-25 23:36:21.01	134.10	15.84	-39.8	-40.7	23.2	0.00e+00	0	35	0	274726912	52	6221
2026-01-25 23:36:22.02	134.04	15.94	-40.1	-41.0	23.1	0.00e+00	0	35	0	276824064	52	6424
2026-01-25 23:36:23.03	133.99	16.05	-39.5	-40.4	23.5	0.00e+00	0	35	0	278921216	52	6027
2026-01-25 23:36:24.04	133.94	16.16	-39.7	-40.6	23.2	0.00e+00	0	35	0	281018368	52	6153
2026-01-25 23:36:25.05	133.89	16.27	-39.4	-40.3	23.5	0.00e+00	0	35	0	283115520	52	5933
2026-01-25 23:36:26.06	133.84	16.39	-39.5	-40.4	23.6	0.00e+00	0	35	0	284164096	52	6019
2026-01-25 23:36:27.07	133.78	16.50	-39.4	-40.3	23.3	0.00e+00	0	35	0	286261248	52	5952
2026-01-25 23:36:28.07	133.73	16.61	-39.8	-40.8	23.3	0.00e+00	0	35	0	288358400	52	6253
2026-01-25 23:36:29.09	133.68	16.72	-40.1	-41.1	22.8	0.00e+00	0	35	0	290455552	52	6504
2026-01-25 23:36:30.10	133.62	16.84	-39.6	-40.5	23.3	0.00e+00	0	35	0	292552704	52	6089
2026-01-25 23:36:31.11	133.57	16.95	-39.7	-40.6	22.8	0.00e+00	0	35	0	293601280	52	6162
2026-01-25 23:36:32.12	133.51	17.06	-39.3	-40.3	23.4	0.00e+00	0	36	0	295698432	52	5906
2026-01-25 23:36:33.13	133.46	17.18	-39.6	-40.6	23.3	0.00e+00	0	35	0	297795584	52	6107
2026-01-25 23:36:34.14	133.40	17.29	-39.5	-40.5	23.2	0.00e+00	0	35	0	299892736	52	6055
2026-01-25 23:36:35.15	133.35	17.41	-39.1	-40.0	23.8	0.00e+00	0	35	0	301989888	52	5742
2026-01-25 23:36:36.16	133.29	17.52	-39.2	-40.2	23.6	0.00e+00	0	35	0	303038464	52	5843
2026-01-25 23:36:37.17	133.23	17.64	-39.0	-39.9	23.6	0.00e+00	0	36	0	305135616	52	5658
2026-01-25 23:36:38.18	133.18	17.76	-39.3	-40.3	23.5	0.00e+00	0	36	0	307232768	52	5943
2026-01-25 23:36:39.19	133.12	17.88	-39.8	-40.7	23.6	0.00e+00	0	36	0	309329920	52	6237
2026-01-25 23:36:40.20	133.06	17.99	-39.3	-40.3	23.9	0.00e+00	0	36	0	311427072	52	5936
2026-01-25 23:36:41.21	133.00	18.11	-39.2	-40.1	23.9	0.00e+00	0	36	0	312475648	52	5827
2026-01-25 23:36:42.22	132.94	18.23	-38.8	-39.8	24.1	0.00e+00	0	35	0	314572800	52	5576
2026-01-25 23:36:43.22	132.88	18.35	-38.7	-39.6	24.0	0.00e+00	0	35	0	316669952	50	6167
2026-01-25 23:36:44.24	132.82	18.47	-39.1	-40.0	23.9	0.00e+00	0	35	0	318767104	50	6409
2026-01-25 23:36:45.25	132.76	18.59	-39.1	-40.0	23.7	0.00e+00	0	36	0	320864256	50	6408
2026-01-25 23:36:46.26	132.70	18.71	-39.1	-40.0	24.0	0.00e+00	0	36	0	322961408	50	6409
2026-01-25 23:36:47.27	132.64	18.84	-39.3	-40.2	23.7	0.00e+00	0	36	0	324009984	50	6591
2026-01-25 23:36:48.27	132.57	18.96	-40.0	-40.9	23.2	0.00e+00	0	35	0	326107136	52	6358
2026-01-25 23:36:49.28	132.51	19.08	-39.4	-40.2	23.9	0.00e+00	0	36	0	328204288	52	5894
2026-01-25 23:36:50.28	132.45	19.20	-39.3	-40.2	23.3	0.00e+00	0	36	0	330301440	52	5878
2026-01-25 23:36:51.29	132.38	19.33	-38.8	-39.7	24.0	0.00e+00	0	35	0	332398592	52	5535
2026-01-25 23:36:52.30	132.32	19.45	-38.8	-39.7	23.9	0.00e+00	0	35	0	333447168	50	6219
2026-01-25 23:36:53.31	132.25	19.58	-38.8	-39.6	24.2	0.00e+00	0	36	0	335544320	50	6171
2026-01-25 23:36:54.32	132.19	19.70	-39.1	-40.0	23.9	0.00e+00	0	36	0	337641472	50	6446
2026-01-25 23:36:55.32	132.12	19.83	-38.9	-39.7	24.0	0.00e+00	0	36	0	339738624	50	6245
2026-01-25 23:36:56.33	132.06	19.96	-38.6	-39.4	24.3	0.00e+00	0	36	0	340787200	50	6028
2026-01-25 23:36:57.34	131.99	20.08	-38.5	-39.3	24.4	0.00e+00	0	36	0	342884352	50	5954
2026-01-25 23:36:58.35	131.92	20.21	-38.9	-39.7	24.2	0.00e+00	0	36	0	344981504	50	6226
2026-01-25 23:36:59.36	131.85	20.34	-38.7	-39.5	24.4	0.00e+00	0	36	0	347078656	50	6083
2026-01-25 23:37:00.37	131.78	20.47	-38.9	-39.7	24.1	0.00e+00	0	36	0	349175808	50	6233
2026-01-25 23:37:01.38	131.71	20.60	-39.0	-39.9	24.2	0.00e+00	0	35	0	351272960	50	6378
2026-01-25 23:37:02.38	131.64	20.73	-38.6	-39.4	24.4	0.00e+00	0	35	0	352321536	50	6003
2026-01-25 23:37:03.39	131.57	20.86	-39.0	-39.9	24.3	0.00e+00	0	36	0	354418688	50	6331
2026-01-25 23:37:04.40	131.50	20.99	-38.3	-39.1	24.2	0.00e+00	0	36	0	356515840	50	5823
2026-01-25 23:37:05.41	131.43	21.13	-38.4	-39.3	24.5	0.00e+00	0	36	0	358612992	50	5907
2026-01-25 23:37:06.42	131.35	21.26	-38.6	-39.4	24.4	0.00e+00	0	36	0	360710144	50	5997
2026-01-25 23:37:07.44	131.28	21.40	-38.4	-39.3	24.4	0.00e+00	0	35	0	361758720	50	5911
2026-01-25 23:37:08.44	131.20	21.53	-38.6	-39.4	24.4	0.00e+00	0	36	0	363855872	50	6024
2026-01-25 23:37:09.45	131.13	21.67	-38.8	-39.6	24.1	0.00e+00	0	35	0	365953024	50	6166
2026-01-25 23:37:10.46	131.05	21.80	-38.4	-39.2	24.4	0.00e+00	0	36	0	368050176	50	5879
2026-01-25 23:37:11.48	130.98	21.94	-38.3	-39.2	24.2	0.00e+00	0	36	0	370147328	50	5840
2026-01-25 23:37:12.49	130.90	22.08	-38.4	-39.3	24.4	0.00e+00	0	36	0	371195904	50	5921
2026-01-25 23:37:13.49	130.82	22.21	-38.1	-38.9	24.3	0.00e+00	0	36	0	373293056	50	5695
2026-01-25 23:37:14.51	130.74	22.35	-38.2	-39.1	24.3	0.00e+00	0	36	0	375390208	50	5772
2026-01-25 23:37:15.51	130.66	22.49	-38.4	-39.3	24.2	0.00e+00	0	36	0	377487360	50	5909
2026-01-25 23:37:16.52	130.58	22.63	-39.0	-39.9	24.0	0.00e+00	0	36	0	379584512	50	6378
2026-01-25 23:37:17.54	130.50	22.78	-38.8	-39.7	24.1	0.00e+00	0	36	0	380633088	50	6186
2026-01-25 23:37:18.55	130.42	22.92	-38.8	-39.7	24.2	0.00e+00	0	35	0	382730240	50	6199
2026-01-25 23:37:19.56	130.34	23.06	-39.3	-40.2	23.5	0.00e+00	0	35	0	384827392	50	6578
2026-01-25 23:37:20.56	130.26	23.20	-38.8	-39.7	23.8	0.00e+00	0	36	0	386924544	50	6213
2026-01-25 23:37:21.58	130.17	23.35	-38.9	-39.7	23.7	0.00e+00	0	36	0	389021696	50	6226
2026-01-25 23:37:22.58	130.09	23.49	-38.9	-39.7	23.9	0.00e+00	0	35	0	391118848	50	6245
2026-01-25 23:37:23.60	130.00	23.64	-38.9	-39.8	23.9	0.00e+00	0	35	0	392167424	50	6272
2026-01-25 23:37:24.61	129.91	23.78	-39.1	-40.0	23.8	0.00e+00	0	36	0	394264576	50	6437
2026-01-25 23:37:25.62	129.83	23.93	-39.1	-40.0	23.8	0.00e+00	0	35	0	396361728	50	6404
2026-01-25 23:37:26.63	129.74	24.08	-38.9	-39.8	23.8	0.00e+00	0	35	0	398458880	50	6267
2026-01-25 23:37:27.64	129.65	24.23	-39.3	-40.2	23.7	0.00e+00	0	35	0	400556032	50	6597
2026-01-25 23:37:28.65	129.56	24.38	-39.3	-40.2	23.7	0.00e+00	0	36	0	401604608	50	6540
2026-01-25 23:37:29.66	129.47	24.53	-39.3	-40.2	23.5	0.00e+00	0	36	0	403701760	50	6606
2026-01-25 23:37:30.67	129.38	24.68	-39.3	-40.2	23.6	0.00e+00	0	36	0	405798912	50	6563
2026-01-25 23:37:31.68	129.28	24.83	-39.6	-40.6	23.3	0.00e+00	0	35	0	407896064	50	6872
2026-01-25 23:37:32.69	129.19	24.98	-39.2	-40.2	23.5	0.00e+00	0	35	0	409993216	50	6547
2026-01-25 23:37:33.70	129.10	25.13	-39.4	-40.3	23.4	0.00e+00	0	36	0	411041792	50	6672
2026-01-25 23:37:34.71	129.00	25.29	-40.0	-40.9	23.1	0.00e+00	0	36	0	413138944	52	6390
2026-01-25 23:37:35.72	128.90	25.44	-39.8	-40.7	23.0	0.00e+00	0	36	0	415236096	52	6236
2026-01-25 23:37:36.73	128.81	25.60	-40.0	-40.9	23.0	0.00e+00	0	36	0	417333248	52	6360
2026-01-25 23:37:37.73	128.71	25.75	-39.8	-40.8	23.0	0.00e+00	0	36	0	419430400	52	6272
2026-01-25 23:37:38.75	128.61	25.91	-40.0	-41.0	23.0	0.00e+00	0	36	0	420478976	52	6461
2026-01-25 23:37:39.75	128.51	26.07	-40.0	-41.0	22.8	0.00e+00	0	36	0	422576128	52	6452
2026-01-25 23:37:40.76	128.41	26.23	-40.1	-41.1	22.7	0.00e+00	0	36	0	424673280	52	6519
2026-01-25 23:37:41.77	128.31	26.39	-40.2	-41.3	22.7	0.00e+00	0	36	0	426770432	52	6627
2026-01-25 23:37:42.78	128.20	26.55	-40.3	-41.3	22.6	0.00e+00	0	36	0	428867584	52	6687
2026-01-25 23:37:43.79	128.10	26.71	-40.2	-41.3	22.3	0.00e+00	0	36	0	429916160	52	6668
2026-01-25 23:37:44.80	127.99	26.87	-40.8	-42.0	21.8	0.00e+00	0	36	0	432013312	54	6405
2026-01-25 23:37:45.81	127.89	27.03	-40.6	-41.7	22.2	0.00e+00	0	36	0	434110464	54	6174
2026-01-25 23:37:46.82	127.78	27.20	-40.6	-41.6	22.2	0.00e+00	0	36	0	436207616	54	6147
2026-01-25 23:37:47.83	127.67	27.36	-40.8	-41.8	21.9	0.00e+00	0	36	0	438304768	54	6311
2026-01-25 23:37:48.84	127.56	27.53	-40.8	-41.8	22.0	0.00e+00	0	36	0	439353344	54	6315
2026-01-25 23:37:49.85	127.45	27.69	-40.7	-41.8	21.9	0.00e+00	0	36	0	441450496	54	6287
2026-01-25 23:37:50.86	127.33	27.86	-40.7	-41.8	21.8	0.00e+00	0	36	0	443547648	54	6297
2026-01-25 23:37:51.87	127.22	28.03	-40.9	-42.0	21.8	0.00e+00	0	35	0	445644800	54	6459
2026-01-25 23:37:52.88	127.11	28.20	-41.0	-42.1	21.5	0.00e+00	0	35	0	447741952	54	6520
2026-01-25 23:37:53.90	126.99	28.37	-41.5	-42.7	21.1	0.00e+00	0	36	0	448790528	54	6964
2026-01-25 23:37:54.90	126.87	28.54	-41.4	-42.6	21.5	0.00e+00	0	36	0	450887680	56	6131
2026-01-25 23:37:55.91	126.75	28.71	-41.7	-42.8	21.3	0.00e+00	0	36	0	452984832	56	6300
2026-01-25 23:37:56.92	126.63	28.89	-41.8	-42.9	21.3	0.00e+00	0	35	0	455081984	56	6368
2026-01-25 23:37:57.93	126.51	29.06	-41.5	-42.6	21.4	0.00e+00	0	36	0	457179136	56	6159
2026-01-25 23:37:58.95	126.39	29.24	-41.8	-43.0	21.2	0.00e+00	0	35	0	459276288	56	6415
2026-01-25 23:37:59.96	126.26	29.41	-41.8	-42.9	21.2	0.00e+00	0	35	0	460324864	56	6383
2026-01-25 23:38:00.96	126.14	29.59	-41.7	-42.8	21.3	0.00e+00	0	36	0	462422016	56	6292
2026-01-25 23:38:01.97	126.01	29.76	-41.7	-43.0	20.8	0.00e+00	0	36	0	464519168	56	6401
2026-01-25 23:38:02.98	125.88	29.94	-42.4	-43.7	20.4	0.00e+00	0	36	0	466616320	58	6215
2026-01-25 23:38:04.00	125.75	30.12	-42.0	-43.3	21.1	0.00e+00	0	35	0	468713472	58	5923
2026-01-25 23:38:05.01	125.62	30.30	-42.8	-44.2	20.8	0.00e+00	0	35	0	469762048	56	7374
2026-01-25 23:38:06.02	125.49	30.49	-41.8	-43.1	21.2	0.00e+00	0	35	0	471859200	56	6468
2026-01-25 23:38:07.03	125.35	30.67	-41.5	-42.6	21.3	0.00e+00	0	36	0	473956352	56	6159
2026-01-25 23:38:08.04	125.22	30.85	-41.3	-42.5	21.4	0.00e+00	0	35	0	476053504	56	6045
2026-01-25 23:38:09.05	125.08	31.04	-41.7	-42.9	21.3	0.00e+00	0	36	0	478150656	56	6381
2026-01-25 23:38:10.06	124.94	31.22	-41.5	-42.7	21.4	0.00e+00	0	36	0	479199232	56	6196
2026-01-25 23:38:11.07	124.80	31.41	-40.9	-42.0	22.0	0.00e+00	0	36	0	481296384	56	5699
2026-01-25 23:38:12.07	124.66	31.59	-41.0	-42.1	21.6	0.00e+00	0	36	0	483393536	54	6487
2026-01-25 23:38:13.09	124.51	31.78	-40.9	-42.0	21.9	0.00e+00	0	36	0	485490688	54	6426
2026-01-25 23:38:14.10	124.37	31.97	-40.7	-41.8	22.0	0.00e+00	0	36	0	487587840	54	6283
2026-01-25 23:38:15.11	124.22	32.16	-40.8	-41.9	22.0	0.00e+00	0	36	0	488636416	54	6353
2026-01-25 23:38:16.12	124.07	32.35	-40.9	-42.0	21.8	0.00e+00	0	36	0	490733568	54	6395
2026-01-25 23:38:17.13	123.92	32.54	-41.0	-42.1	21.8	0.00e+00	0	36	0	492830720	54	6491
2026-01-25 23:38:18.14	123.76	32.74	-41.2	-42.4	21.5	0.00e+00	0	36	0	494927872	54	6719
2026-01-25 23:38:19.15	123.61	32.93	-41.3	-42.5	21.5	0.00e+00	0	36	0	497025024	54	6802
2026-01-25 23:38:20.16	123.45	33.13	-41.6	-42.8	21.4	0.00e+00	0	35	0	498073600	54	7043
2026-01-25 23:38:21.17	123.29	33.32	-41.6	-42.9	21.1	0.00e+00	0	36	0	500170752	56	6333
2026-01-25 23:38:22.18	123.13	33.52	-41.4	-42.6	21.4	0.00e+00	0	36	0	502267904	56	6153
2026-01-25 23:38:23.19	122.97	33.72	-41.4	-42.6	21.4	0.00e+00	0	35	0	504365056	56	6110
2026-01-25 23:38:24.20	122.80	33.92	-41.4	-42.6	21.7	0.00e+00	0	35	0	506462208	56	6126
2026-01-25 23:38:25.21	122.64	34.12	-41.2	-42.4	21.5	0.00e+00	0	36	0	507510784	56	5974
2026-01-25 23:38:26.22	122.47	34.32	-41.1	-42.2	21.7	0.00e+00	0	36	0	509607936	56	5859
2026-01-25 23:38:27.23	122.30	34.52	-41.5	-42.6	21.6	0.00e+00	0	35	0	511705088	56	6173
2026-01-25 23:38:28.24	122.12	34.73	-41.3	-42.4	21.5	0.00e+00	0	35	0	513802240	56	6011
2026-01-25 23:38:29.25	121.95	34.93	-41.5	-42.7	21.3	0.00e+00	0	36	0	515899392	56	6195
2026-01-25 23:38:30.26	121.77	35.13	-41.7	-42.9	21.2	0.00e+00	0	36	0	516947968	56	6326
2026-01-25 23:38:31.27	121.59	35.34	-41.7	-42.9	21.2	0.00e+00	0	36	0	519045120	56	6377
2026-01-25 23:38:32.28	121.41	35.55	-41.7	-42.9	21.2	0.00e+00	0	36	0	521142272	56	6342
2026-01-25 23:38:33.29	121.22	35.76	-41.9	-43.2	21.0	0.00e+00	0	36	0	523239424	56	6540
2026-01-25 23:38:34.30	121.04	35.97	-42.3	-43.6	20.7	0.00e+00	0	36	0	525336576	56	6870
2026-01-25 23:38:35.31	120.85	36.18	-42.4	-43.7	20.5	0.00e+00	0	35	0	527433728	56	7007
2026-01-25 23:38:36.32	120.65	36.39	-42.4	-43.7	20.5	0.00e+00	0	35	0	528482304	56	6929
2026-01-25 23:38:37.33	120.46	36.60	-42.5	-43.9	20.3	0.00e+00	0	36	0	530579456	56	7098
2026-01-25 23:38:38.34	120.26	36.81	-42.6	-44.0	20.1	0.00e+00	0	36	0	532676608	56	7236
2026-01-25 23:38:39.35	120.06	37.03	-43.0	-44.5	20.0	0.00e+00	0	36	0	534773760	58	6781
2026-01-25 23:38:40.36	119.86	37.24	-42.9	-44.4	20.0	0.00e+00	0	36	0	536870912	58	6704
2026-01-25 23:38:41.37	119.65	37.46	-42.2	-43.5	20.6	0.00e+00	0	36	0	537919488	58	6043
2026-01-25 23:38:42.38	119.45	37.68	-42.2	-43.5	20.7	0.00e+00	0	36	0	540016640	58	6086
2026-01-25 23:38:43.39	119.23	37.90	-42.5	-43.9	20.4	0.00e+00	0	35	0	542113792	58	6342
2026-01-25 23:38:44.40	119.02	38.11	-42.4	-43.7	20.5	0.00e+00	0	36	0	544210944	58	6208
2026-01-25 23:38:45.41	118.80	38.33	-42.2	-43.5	20.5	0.00e+00	0	36	0	546308096	58	6065
2026-01-25 23:38:46.41	118.59	38.55	-42.1	-43.4	20.7	0.00e+00	0	36	0	547356672	58	5999
2026-01-25 23:38:47.43	118.36	38.78	-42.1	-43.3	20.9	0.00e+00	0	36	0	549453824	58	5954
2026-01-25 23:38:48.44	118.14	39.00	-42.5	-43.8	20.3	0.00e+00	0	35	0	551550976	58	6287
2026-01-25 23:38:49.45	117.91	39.23	-42.3	-43.6	20.4	0.00e+00	0	36	0	553648128	58	6155
2026-01-25 23:38:50.46	117.67	39.45	-42.4	-43.8	20.4	0.00e+00	0	35	0	555745280	58	6277
2026-01-25 23:38:51.46	117.44	39.67	-42.7	-44.1	20.0	0.00e+00	0	36	0	556793856	58	6536
2026-01-25 23:38:52.47	117.20	39.90	-42.7	-44.1	19.9	0.00e+00	0	36	0	558891008	58	6534
2026-01-25 23:38:53.48	116.96	40.13	-42.7	-44.1	19.9	0.00e+00	0	36	0	560988160	58	6526
2026-01-25 23:38:54.49	116.71	40.36	-43.0	-44.5	19.4	0.00e+00	0	36	0	563085312	58	6798
2026-01-25 23:38:55.50	116.46	40.59	-43.3	-44.8	19.6	0.00e+00	0	36	0	565182464	58	7041
2026-01-25 23:38:56.51	116.21	40.82	-42.8	-44.2	20.0	0.00e+00	0	36	0	566231040	58	6550
2026-01-25 23:38:57.52	115.95	41.05	-43.7	-45.3	19.7	0.00e+00	0	36	0	568328192	58	7436
2026-01-25 23:38:58.53	115.69	41.28	-42.8	-44.2	19.9	0.00e+00	0	36	0	570425344	58	6572
2026-01-25 23:38:59.54	115.43	41.51	-42.9	-44.3	20.1	0.00e+00	0	35	0	572522496	58	6622
2026-01-25 23:39:00.55	115.16	41.74	-42.5	-43.8	20.5	0.00e+00	0	36	0	574619648	58	6301
2026-01-25 23:39:01.56	114.89	41.98	-42.1	-43.3	20.7	0.00e+00	0	36	0	575668224	58	5952
2026-01-25 23:39:02.57	114.61	42.21	-42.3	-43.6	20.8	0.00e+00	0	36	0	577765376	58	6115
2026-01-25 23:39:03.57	114.34	42.45	-41.8	-43.0	20.9	0.00e+00	0	35	0	579862528	58	5732
2026-01-25 23:39:04.58	114.05	42.68	-41.3	-42.4	21.6	0.00e+00	0	36	0	581959680	56	5996
2026-01-25 23:39:05.59	113.76	42.92	-41.1	-42.2	21.7	0.00e+00	0	35	0	584056832	56	5874
2026-01-25 23:39:06.60	113.47	43.16	-40.6	-41.6	22.2	0.00e+00	0	36	0	585105408	54	6167
2026-01-25 23:39:07.61	113.17	43.40	-41.4	-42.5	21.7	0.00e+00	0	36	0	587202560	54	6805
2026-01-25 23:39:08.62	112.87	43.64	-40.7	-41.7	22.2	0.00e+00	0	36	0	589299712	54	6224
2026-01-25 23:39:09.63	112.57	43.87	-40.7	-41.7	22.2	0.00e+00	0	36	0	591396864	54	6235
2026-01-25 23:39:10.64	112.26	44.11	-40.8	-41.9	22.0	0.00e+00	0	35	0	593494016	54	6361
2026-01-25 23:39:11.65	111.94	44.35	-40.5	-41.6	22.2	0.00e+00	0	35	0	595591168	54	6104
2026-01-25 23:39:12.67	111.62	44.60	-40.3	-41.3	22.5	0.00e+00	0	36	0	596639744	54	5934
2026-01-25 23:39:13.68	111.29	44.84	-40.5	-41.6	22.2	0.00e+00	0	36	0	598736896	54	6110
2026-01-25 23:39:14.69	110.96	45.08	-40.8	-41.9	22.1	0.00e+00	0	36	0	600834048	54	6354
2026-01-25 23:39:15.70	110.62	45.32	-41.2	-42.4	21.6	0.00e+00	0	36	0	602931200	54	6712
2026-01-25 23:39:16.71	110.28	45.57	-41.0	-42.2	21.6	0.00e+00	0	35	0	605028352	54	6582
2026-01-25 23:39:17.72	109.94	45.81	-41.6	-42.9	21.3	0.00e+00	0	36	0	606076928	54	7097
2026-01-25 23:39:18.73	109.59	46.05	-41.1	-42.3	21.7	0.00e+00	0	35	0	608174080	54	6667
2026-01-25 23:39:19.74	109.23	46.30	-42.0	-43.2	21.0	0.00e+00	0	35	0	610271232	56	6585
2026-01-25 23:39:20.75	108.87	46.54	-41.2	-42.3	21.7	0.00e+00	0	36	0	612368384	56	5962
2026-01-25 23:39:21.76	108.50	46.78	-41.0	-42.1	22.0	0.00e+00	0	35	0	614465536	56	5773
2026-01-25 23:39:22.77	108.12	47.03	-40.9	-41.9	22.2	0.00e+00	0	36	0	615514112	56	5686
2026-01-25 23:39:23.78	107.74	47.27	-41.0	-42.1	22.0	0.00e+00	0	35	0	617611264	56	5799
2026-01-25 23:39:24.79	107.36	47.51	-41.1	-42.2	21.8	0.00e+00	0	36	0	619708416	56	5883
2026-01-25 23:39:25.80	106.96	47.76	-41.0	-42.1	22.2	0.00e+00	0	36	0	621805568	56	5793
2026-01-25 23:39:26.81	106.57	48.00	-40.9	-42.0	22.3	0.00e+00	0	35	0	623902720	56	5710
2026-01-25 23:39:27.82	106.16	48.24	-41.2	-42.3	22.0	0.00e+00	0	36	0	624951296	56	5898
2026-01-25 23:39:28.83	105.75	48.49	-41.3	-42.5	21.6	0.00e+00	0	35	0	627048448	56	6039
2026-01-25 23:39:29.84	105.33	48.73	-43.0	-44.4	20.8	0.00e+00	0	36	0	629145600	56	7539
2026-01-25 23:39:30.85	104.91	48.97	-41.6	-42.7	21.6	0.00e+00	0	35	0	631242752	56	6240
2026-01-25 23:39:31.86	104.48	49.22	-42.3	-43.6	20.8	0.00e+00	0	36	0	633339904	56	6862
2026-01-25 23:39:32.87	104.04	49.46	-41.9	-43.1	21.2	0.00e+00	0	35	0	634388480	56	6531
2026-01-25 23:39:33.88	103.59	49.70	-42.1	-43.3	20.7	0.00e+00	0	36	0	636485632	56	6658
2026-01-25 23:39:34.89	103.14	49.94	-41.8	-43.0	21.3	0.00e+00	0	35	0	638582784	56	6442
2026-01-25 23:39:35.90	102.68	50.18	-41.6	-42.8	21.5	0.00e+00	0	36	0	640679936	56	6254
2026-01-25 23:39:36.91	102.21	50.42	-41.0	-42.0	21.9	0.00e+00	0	35	0	642777088	56	5758
2026-01-25 23:39:37.92	101.74	50.66	-40.5	-41.6	22.4	0.00e+00	0	36	0	643825664	54	6114
2026-01-25 23:39:38.93	101.26	50.89	-39.9	-40.9	22.9	0.00e+00	0	35	0	645922816	52	6342
2026-01-25 23:39:39.94	100.77	51.13	-39.5	-40.4	23.6	0.00e+00	0	35	0	648019968	52	5979
2026-01-25 23:39:40.95	100.27	51.37	-38.9	-39.7	24.0	0.00e+00	0	36	0	650117120	52	5563
2026-01-25 23:39:41.96	99.76	51.60	-38.8	-39.6	24.2	0.00e+00	0	36	0	652214272	50	6140
2026-01-25 23:39:42.97	99.25	51.83	-39.1	-40.0	23.8	0.00e+00	0	36	0	653262848	50	6433
2026-01-25 23:39:43.98	98.73	52.06	-38.5	-39.3	24.4	0.00e+00	0	36	0	655360000	50	5949
2026-01-25 23:39:44.99	98.20	52.29	-38.5	-39.3	24.2	0.00e+00	0	36	0	657457152	50	5956
2026-01-25 23:39:46.01	97.66	52.52	-38.5	-39.3	24.4	0.00e+00	0	36	0	659554304	50	5960
2026-01-25 23:39:47.02	97.11	52.75	-38.5	-39.3	24.1	0.00e+00	0	36	0	661651456	50	5963
2026-01-25 23:39:48.03	96.55	52.98	-38.3	-39.2	24.2	0.00e+00	0	36	0	663748608	50	5863
2026-01-25 23:39:49.04	95.99	53.20	-38.0	-38.8	24.9	0.00e+00	0	35	0	664797184	50	5589
2026-01-25 23:39:50.05	95.42	53.42	-37.5	-38.3	25.2	0.00e+00	0	36	0	666894336	48	5916
2026-01-25 23:39:51.06	94.84	53.64	-37.4	-38.1	25.2	0.00e+00	0	36	0	668991488	48	5825
2026-01-25 23:39:52.07	94.25	53.86	-37.4	-38.2	25.3	0.00e+00	0	36	0	671088640	48	5859
2026-01-25 23:39:53.08	93.65	54.07	-37.7	-38.5	25.1	0.00e+00	0	36	0	673185792	48	6076
2026-01-25 23:39:54.09	93.04	54.29	-38.2	-39.0	24.5	0.00e+00	0	35	0	674234368	48	6440
2026-01-25 23:39:55.10	92.42	54.50	-38.2	-39.0	24.1	0.00e+00	0	36	0	676331520	48	6442
2026-01-25 23:39:56.10	91.80	54.70	-38.2	-39.1	24.6	0.00e+00	0	36	0	678428672	48	6466
2026-01-25 23:39:57.11	91.17	54.91	-38.3	-39.1	24.6	0.00e+00	0	36	0	680525824	48	6535
2026-01-25 23:39:58.12	90.52	55.11	-38.6	-39.4	24.1	0.00e+00	0	36	0	682622976	48	6730
2026-01-25 23:39:59.13	89.87	55.31	-38.8	-39.6	24.1	0.00e+00	0	35	0	683671552	50	6173
2026-01-25 23:40:00.14	89.21	55.51	-39.2	-40.0	24.0	0.00e+00	0	35	0	685768704	52	5758
2026-01-25 23:40:01.16	88.53	55.70	-39.2	-40.1	23.6	0.00e+00	0	36	0	687865856	52	5775
2026-01-25 23:40:02.17	87.85	55.89	-39.6	-40.6	23.3	0.00e+00	0	35	0	689963008	52	6128
2026-01-25 23:40:03.18	87.15	56.08	-40.0	-41.0	22.9	0.00e+00	0	36	0	692060160	52	6412
2026-01-25 23:40:04.19	86.45	56.26	-40.0	-41.0	22.9	0.00e+00	0	36	0	693108736	52	6430
2026-01-25 23:40:05.20	85.75	56.44	-40.2	-41.2	22.7	0.00e+00	0	36	0	695205888	52	6564
2026-01-25 23:40:06.21	85.03	56.62	-40.1	-41.0	22.9	0.00e+00	0	35	0	697303040	52	6456
2026-01-25 23:40:07.22	84.30	56.79	-39.7	-40.7	23.2	0.00e+00	0	35	0	699400192	52	6200
2026-01-25 23:40:08.23	83.56	56.96	-39.8	-40.8	23.2	0.00e+00	0	36	0	701497344	52	6256
2026-01-25 23:40:09.24	82.82	57.12	-39.8	-40.7	23.2	0.00e+00	0	35	0	703594496	52	6227
2026-01-25 23:40:10.25	82.06	57.28	-40.0	-41.0	22.9	0.00e+00	0	36	0	704643072	52	6395
2026-01-25 23:40:11.25	81.31	57.44	-40.4	-41.4	22.7	0.00e+00	0	36	0	706740224	52	6756
2026-01-25 23:40:12.26	80.53	57.59	-40.6	-41.7	22.4	0.00e+00	0	35	0	708837376	54	6176
2026-01-25 23:40:13.27	79.75	57.73	-41.2	-42.3	22.2	0.00e+00	0	35	0	710934528	54	6666
2026-01-25 23:40:14.28	78.96	57.87	-40.7	-41.8	22.2	0.00e+00	0	35	0	713031680	54	6286
2026-01-25 23:40:15.29	78.17	58.01	-41.0	-42.1	22.2	0.00e+00	0	36	0	714080256	54	6520
2026-01-25 23:40:16.30	77.36	58.14	-41.3	-42.4	21.9	0.00e+00	0	36	0	716177408	54	6728
2026-01-25 23:40:17.31	76.55	58.27	-40.8	-41.8	22.2	0.00e+00	0	35	0	718274560	54	6303
2026-01-25 23:40:18.32	75.73	58.39	-40.8	-41.9	22.0	0.00e+00	0	35	0	720371712	54	6344
2026-01-25 23:40:19.33	74.90	58.51	-40.1	-41.0	22.9	0.00e+00	0	36	0	722468864	54	5758
2026-01-25 23:40:20.34	74.07	58.62	-40.2	-41.2	22.7	0.00e+00	0	36	0	723517440	54	5887
2026-01-25 23:40:21.35	73.22	58.72	-40.8	-41.8	22.1	0.00e+00	0	35	0	725614592	54	6312
2026-01-25 23:40:22.36	72.38	58.82	-40.9	-42.0	22.4	0.00e+00	0	35	0	727711744	54	6433
2026-01-25 23:40:23.37	71.52	58.91	-40.3	-41.3	22.7	0.00e+00	0	35	0	729808896	54	5936
2026-01-25 23:40:24.38	70.66	59.00	-40.0	-41.0	22.9	0.00e+00	0	35	0	731906048	54	5699
2026-01-25 23:40:25.39	69.79	59.08	-40.3	-41.3	23.0	0.00e+00	0	36	0	732954624	52	6638
2026-01-25 23:40:26.40	68.92	59.16	-39.9	-40.8	23.1	0.00e+00	0	35	0	735051776	52	6286
2026-01-25 23:40:27.41	68.05	59.23	-40.1	-41.1	23.0	0.00e+00	0	35	0	737148928	52	6523
2026-01-25 23:40:28.42	67.17	59.29	-40.0	-41.0	23.2	0.00e+00	0	35	0	739246080	52	6441
2026-01-25 23:40:29.43	66.28	59.35	-39.3	-40.2	23.9	0.00e+00	0	35	0	741343232	52	5850
2026-01-25 23:40:30.44	65.39	59.40	-38.9	-39.7	24.3	0.00e+00	0	35	0	742391808	52	5543
2026-01-25 23:40:31.45	64.50	59.45	-38.7	-39.6	24.2	0.00e+00	0	36	0	744488960	50	6131
2026-01-25 23:40:32.46	63.61	59.49	-38.8	-39.6	24.1	0.00e+00	0	36	0	746586112	50	6162
2026-01-25 23:40:33.47	62.71	59.52	-38.2	-39.0	24.7	0.00e+00	0	36	0	748683264	50	5706
2026-01-25 23:40:34.48	61.81	59.55	-38.0	-38.7	24.9	0.00e+00	0	36	0	750780416	50	5565
2026-01-25 23:40:35.49	60.91	59.57	-37.5	-38.3	25.3	0.00e+00	0	36	0	751828992	48	5948
2026-01-25 23:40:36.51	60.00	59.58	-37.3	-38.1	25.5	0.00e+00	0	36	0	753926144	48	5773
2026-01-25 23:40:37.52	59.10	59.59	-37.3	-38.1	25.5	0.00e+00	0	36	0	756023296	48	5790
2026-01-25 23:40:38.53	58.20	59.59	-37.5	-38.2	25.3	0.00e+00	0	36	0	758120448	48	5885
2026-01-25 23:40:39.53	57.30	59.58	-37.4	-38.2	24.1	0.00e+00	0	35	0	760217600	48	5844
2026-01-25 23:40:40.54	56.40	59.57	-37.4	-38.2	25.3	0.00e+00	0	36	0	761266176	48	5872
2026-01-25 23:40:41.55	55.50	59.55	-37.6	-38.4	25.2	0.00e+00	0	36	0	763363328	48	5971
2026-01-25 23:40:42.56	54.60	59.52	-37.3	-38.1	25.6	0.00e+00	0	36	0	765460480	48	5801
2026-01-25 23:40:43.57	53.71	59.49	-37.2	-37.9	25.6	0.00e+00	0	35	0	767557632	48	5671
2026-01-25 23:40:44.58	52.81	59.45	-37.1	-37.9	25.5	0.00e+00	0	36	0	769654784	48	5652
2026-01-25 23:40:45.59	51.92	59.41	-37.3	-38.1	25.5	0.00e+00	0	35	0	771751936	48	5795
2026-01-25 23:40:46.60	51.03	59.36	-37.3	-38.0	25.7	0.00e+00	0	36	0	772800512	48	5743
2026-01-25 23:40:47.62	50.14	59.30	-36.9	-37.7	25.7	0.00e+00	0	36	0	774897664	48	5505
2026-01-25 23:40:48.63	49.26	59.23	-37.2	-37.9	25.7	0.00e+00	0	35	0	776994816	48	5676
2026-01-25 23:40:49.63	48.39	59.17	-37.2	-38.0	25.7	0.00e+00	0	36	0	779091968	48	5698
2026-01-25 23:40:50.65	47.51	59.09	-37.1	-37.8	25.6	0.00e+00	0	36	0	781189120	48	5625
2026-01-25 23:40:51.66	46.65	59.01	-37.3	-38.1	25.4	0.00e+00	0	35	0	782237696	48	5793
2026-01-25 23:40:52.66	45.79	58.92	-37.5	-38.3	25.2	0.00e+00	0	35	0	784334848	48	5936
2026-01-25 23:40:53.68	44.93	58.83	-37.4	-38.2	25.3	0.00e+00	0	36	0	786432000	48	5839
2026-01-25 23:40:54.69	44.08	58.73	-37.7	-38.5	25.0	0.00e+00	0	36	0	788529152	48	6043
2026-01-25 23:40:55.70	43.24	58.62	-38.4	-39.2	24.7	0.00e+00	0	36	0	790626304	48	6567
2026-01-25 23:40:56.71	42.41	58.51	-38.3	-39.1	24.7	0.00e+00	0	36	0	791674880	48	6537
2026-01-25 23:40:57.72	41.58	58.40	-38.5	-39.4	24.7	0.00e+00	0	35	0	793772032	48	6694
2026-01-25 23:40:58.73	40.76	58.28	-38.4	-39.2	24.5	0.00e+00	0	35	0	795869184	48	6568
2026-01-25 23:40:59.74	39.95	58.15	-38.8	-39.7	24.2	0.00e+00	0	36	0	797966336	50	6189
2026-01-25 23:41:00.75	39.14	58.02	-38.6	-39.4	24.4	0.00e+00	0	35	0	800063488	50	6030
2026-01-25 23:41:01.75	38.35	57.89	-39.1	-40.0	24.0	7.00e-07	0	35	0	801112064	50	6422
2026-01-25 23:41:02.76	37.56	57.74	-39.6	-40.5	23.5	0.00e+00	0	36	0	803209216	52	6076
2026-01-25 23:41:03.77	36.78	57.60	-39.5	-40.4	23.6	0.00e+00	0	35	0	805306368	52	6003
2026-01-25 23:41:04.78	36.01	57.45	-39.6	-40.5	23.5	0.00e+00	0	35	0	807403520	52	6079
2026-01-25 23:41:05.79	35.25	57.29	-39.6	-40.5	23.5	0.00e+00	0	35	0	809500672	52	6094
2026-01-25 23:41:06.80	34.49	57.13	-39.3	-40.2	24.0	0.00e+00	0	35	0	810549248	52	5884
2026-01-25 23:41:07.81	33.75	56.97	-39.3	-40.2	23.9	0.00e+00	0	35	0	812646400	52	5836
2026-01-25 23:41:08.82	33.01	56.80	-39.5	-40.4	23.7	0.00e+00	0	35	0	814743552	52	6003
2026-01-25 23:41:09.84	32.28	56.63	-39.0	-39.9	24.1	0.00e+00	0	36	0	816840704	52	5656
2026-01-25 23:41:10.84	31.57	56.46	-38.6	-39.5	24.3	0.00e+00	0	36	0	818937856	50	6040
2026-01-25 23:41:11.85	30.86	56.28	-38.8	-39.6	24.3	0.00e+00	0	35	0	819986432	50	6146
2026-01-25 23:41:12.86	30.16	56.10	-38.5	-39.4	24.4	0.00e+00	0	36	0	822083584	50	5987
2026-01-25 23:41:13.87	29.47	55.91	-38.4	-39.2	24.5	0.00e+00	0	35	0	824180736	50	5886
2026-01-25 23:41:14.89	28.78	55.72	-38.0	-38.8	25.1	0.00e+00	0	35	0	826277888	50	5574
2026-01-25 23:41:15.89	28.12	55.53	-37.6	-38.3	25.3	0.00e+00	0	36	0	828375040	48	5959
2026-01-25 23:41:16.90	27.45	55.33	-37.8	-38.6	25.1	0.00e+00	0	35	0	829423616	48	6137
2026-01-25 23:41:17.92	26.79	55.13	-38.0	-38.8	24.9	0.00e+00	0	35	0	831520768	48	6275
2026-01-25 23:41:18.92	26.16	54.93	-38.0	-38.8	24.8	0.00e+00	0	35	0	833617920	48	6295
2026-01-25 23:41:19.94	25.51	54.72	-38.0	-38.8	24.7	0.00e+00	0	35	0	835715072	48	6287
2026-01-25 23:41:20.95	24.89	54.52	-38.5	-39.3	24.4	0.00e+00	0	36	0	837812224	50	5930
2026-01-25 23:41:21.95	24.28	54.31	-38.8	-39.6	24.4	0.00e+00	0	35	0	839909376	50	6143
2026-01-25 23:41:22.97	23.66	54.09	-37.7	-38.5	25.2	0.00e+00	0	35	0	840957952	48	6042
2026-01-25 23:41:23.98	23.07	53.88	-37.8	-38.6	25.2	0.00e+00	0	35	0	843055104	48	6140
2026-01-25 23:41:24.99	22.48	53.66	-38.3	-39.1	24.7	0.00e+00	0	36	0	845152256	48	6487
2026-01-25 23:41:25.99	21.90	53.45	-38.6	-39.4	24.4	0.00e+00	0	35	0	847249408	48	6736
2026-01-25 23:41:27.00	21.33	53.23	-39.2	-40.0	23.9	0.00e+00	0	36	0	849346560	50	6452
2026-01-25 23:41:28.02	20.76	53.00	-39.7	-40.6	23.5	0.00e+00	0	35	0	850395136	52	6168
2026-01-25 23:41:29.03	20.21	52.78	-39.8	-40.8	23.3	0.00e+00	0	36	0	852492288	52	6278
2026-01-25 23:41:30.04	19.66	52.55	-39.4	-40.3	23.8	0.00e+00	0	35	0	854589440	52	5921
2026-01-25 23:41:31.05	19.12	52.32	-38.8	-39.6	24.2	0.00e+00	0	35	0	856686592	50	6162
2026-01-25 23:41:32.05	18.60	52.09	-39.0	-39.9	24.0	0.00e+00	0	35	0	858783744	50	6331
2026-01-25 23:41:33.06	18.08	51.86	-40.4	-41.4	22.9	0.00e+00	0	36	0	859832320	52	6712
2026-01-25 23:41:34.07	17.56	51.63	-40.6	-41.6	22.5	0.00e+00	0	36	0	861929472	54	6148
2026-01-25 23:41:35.08	17.06	51.40	-40.4	-41.4	22.6	0.00e+00	0	35	0	864026624	54	6004
2026-01-25 23:41:36.09	16.56	51.16	-40.4	-41.4	22.8	0.00e+00	0	36	0	866123776	54	6021
2026-01-25 23:41:37.10	16.07	50.93	-40.3	-41.3	22.8	0.00e+00	0	36	0	868220928	54	5940
2026-01-25 23:41:38.11	15.59	50.69	-41.2	-42.3	21.8	0.00e+00	0	36	0	869269504	54	6646
2026-01-25 23:41:39.12	15.12	50.45	-41.9	-43.1	21.1	0.00e+00	0	36	0	871366656	56	6530
2026-01-25 23:41:40.13	14.65	50.21	-42.7	-44.0	20.7	0.00e+00	0	36	0	873463808	58	6447
2026-01-25 23:41:41.14	14.19	49.98	-42.8	-44.2	20.3	0.00e+00	0	36	0	875560960	58	6553
2026-01-25 23:41:42.15	13.74	49.74	-42.3	-43.6	20.7	0.00e+00	0	35	0	877658112	58	6131
2026-01-25 23:41:43.16	13.29	49.50	-42.3	-43.5	20.9	0.00e+00	0	35	0	878706688	58	6070
2026-01-25 23:41:44.17	12.86	49.25	-41.9	-43.1	21.1	0.00e+00	0	36	0	880803840	58	5815
2026-01-25 23:41:45.18	12.43	49.01	-41.6	-42.7	21.7	0.00e+00	0	35	0	882900992	56	6227
2026-01-25 23:41:46.19	12.00	48.77	-42.1	-43.3	21.1	0.00e+00	0	35	0	884998144	56	6663
2026-01-25 23:41:47.20	11.58	48.53	-43.1	-44.5	19.7	0.00e+00	0	36	0	887095296	58	6806
2026-01-25 23:41:48.21	11.17	48.29	-42.7	-44.1	20.2	0.00e+00	0	35	0	888143872	58	6518
2026-01-25 23:41:49.22	10.77	48.04	-42.6	-43.9	20.3	0.00e+00	0	35	0	890241024	58	6349
2026-01-25 23:41:50.22	10.37	47.80	-42.7	-44.0	20.2	0.00e+00	0	36	0	892338176	58	6460
2026-01-25 23:41:51.23	9.98	47.56	-42.7	-44.1	20.4	0.00e+00	0	36	0	894435328	58	6488
2026-01-25 23:41:52.25	9.59	47.32	-42.2	-43.4	21.0	0.00e+00	0	36	0	896532480	58	5987
2026-01-25 23:41:53.26	9.21	47.07	-41.9	-43.0	21.6	0.00e+00	0	35	0	897581056	58	5739
2026-01-25 23:41:54.27	8.84	46.83	-41.8	-42.9	21.6	0.00e+00	0	35	0	899678208	56	6364
2026-01-25 23:41:55.28	8.47	46.59	-41.5	-42.7	21.5	0.00e+00	0	35	0	901775360	56	6183
2026-01-25 23:41:56.28	8.11	46.35	-41.2	-42.3	21.8	0.00e+00	0	35	0	903872512	56	5921
2026-01-25 23:41:57.29	7.75	46.10	-41.0	-42.1	22.1	0.00e+00	0	35	0	905969664	56	5789
2026-01-25 23:41:58.30	7.40	45.86	-40.8	-41.9	22.2	0.00e+00	0	36	0	908066816	54	6335
2026-01-25 23:41:59.31	7.06	45.62	-40.8	-41.8	22.3	0.00e+00	0	36	0	909115392	54	6303
2026-01-25 23:42:00.32	6.72	45.38	-40.6	-41.6	22.5	0.00e+00	0	35	0	911212544	54	6167
2026-01-25 23:42:01.33	6.38	45.14	-41.1	-42.2	21.8	0.00e+00	0	35	0	913309696	54	6577
2026-01-25 23:42:02.34	6.05	44.90	-41.2	-42.3	22.0	0.00e+00	0	35	0	915406848	54	6639
2026-01-25 23:42:03.34	5.73	44.66	-41.4	-42.5	21.6	0.00e+00	0	35	0	917504000	54	6803
2026-01-25 23:42:04.35	5.41	44.42	-40.8	-41.9	22.2	0.00e+00	0	35	0	918552576	54	6330
2026-01-25 23:42:05.36	5.09	44.18	-41.3	-42.4	22.0	0.00e+00	0	35	0	920649728	54	6743
2026-01-25 23:42:06.37	4.78	43.94	-40.3	-41.2	22.9	0.00e+00	0	35	0	922746880	54	5886
2026-01-25 23:42:07.38	4.48	43.70	-40.5	-41.5	22.8	0.00e+00	0	35	0	924844032	54	6051
2026-01-25 23:42:08.39	4.18	43.46	-40.7	-41.8	22.3	0.00e+00	0	35	0	926941184	54	6275
2026-01-25 23:42:09.40	3.88	43.22	-41.1	-42.2	21.8	0.00e+00	0	35	0	927989760	54	6606
2026-01-25 23:42:10.42	3.58	42.99	-41.5	-42.7	21.5	0.00e+00	0	35	0	930086912	54	6958
2026-01-25 23:42:11.42	3.30	42.75	-41.4	-42.6	21.8	0.00e+00	0	35	0	932184064	54	6863
2026-01-25 23:42:12.43	3.01	42.52	-41.9	-43.1	21.4	0.00e+00	0	35	0	934281216	56	6508
2026-01-25 23:42:13.44	2.73	42.28	-41.4	-42.5	21.8	0.00e+00	0	35	0	936378368	56	6093
2026-01-25 23:42:14.45	2.46	42.05	-41.1	-42.2	22.0	0.00e+00	0	35	0	937426944	56	5837
2026-01-25 23:42:15.46	2.19	41.81	-41.4	-42.5	21.4	0.00e+00	0	35	0	939524096	56	6088
2026-01-25 23:42:16.47	1.92	41.58	-42.1	-43.2	21.1	0.00e+00	0	35	0	941621248	56	6613
2026-01-25 23:42:17.48	1.65	41.35	-42.3	-43.5	20.8	0.00e+00	0	35	0	943718400	56	6847
2026-01-25 23:42:18.49	1.39	41.12	-42.5	-43.8	20.6	0.00e+00	0	35	0	945815552	56	7073
2026-01-25 23:42:19.50	1.14	40.89	-42.5	-43.8	20.3	0.00e+00	0	35	0	946864128	56	7080
2026-01-25 23:42:20.51	0.89	40.66	-43.1	-44.6	19.6	0.00e+00	0	35	0	948961280	58	6868
2026-01-25 23:42:21.52	0.64	40.43	-43.1	-44.6	19.6	0.00e+00	0	36	0	951058432	58	6909
2026-01-25 23:42:22.53	0.39	40.20	-43.1	-44.5	20.0	0.00e+00	0	36	0	953155584	58	6832
2026-01-25 23:42:23.54	0.15	39.98	-42.1	-43.3	20.9	0.00e+00	0	35	0	955252736	58	5934
2026-01-25 23:42:24.55	359.91	39.75	-42.0	-43.3	20.8	0.00e+00	0	35	0	956301312	58	5920
2026-01-25 23:42:25.56	359.67	39.52	-41.9	-43.1	21.0	0.00e+00	0	36	0	958398464	58	5826
2026-01-25 23:42:26.57	359.44	39.30	-42.2	-43.6	20.4	0.00e+00	0	35	0	960495616	58	6110
2026-01-25 23:42:27.58	359.21	39.08	-42.6	-44.0	20.0	0.00e+00	0	35	0	962592768	58	6412
2026-01-25 23:42:28.59	358.99	38.85	-43.1	-44.5	19.6	0.00e+00	0	35	0	964689920	58	6835
2026-01-25 23:42:29.60	358.77	38.63	-42.9	-44.3	19.8	0.00e+00	0	36	0	965738496	58	6656
2026-01-25 23:42:30.61	358.55	38.41	-42.8	-44.2	19.8	0.00e+00	0	36	0	967835648	58	6614
2026-01-25 23:42:31.62	358.33	38.19	-42.8	-44.2	19.8	0.00e+00	0	36	0	969932800	58	6614
2026-01-25 23:42:32.63	358.12	37.97	-42.9	-44.4	19.6	0.00e+00	0	35	0	972029952	58	6697
2026-01-25 23:42:33.64	357.91	37.76	-43.1	-44.6	19.3	0.00e+00	0	35	0	974127104	58	6917
2026-01-25 23:42:34.65	357.70	37.54	-43.3	-44.9	19.2	0.00e+00	0	35	0	976224256	58	7107
2026-01-25 23:42:35.66	357.49	37.32	-43.4	-45.0	19.2	0.00e+00	0	35	0	977272832	58	7196
2026-01-25 23:42:36.67	357.29	37.11	-43.2	-44.7	19.5	0.00e+00	0	35	0	979369984	58	6958
2026-01-25 23:42:37.68	357.09	36.90	-42.9	-44.4	19.8	0.00e+00	0	35	0	981467136	58	6713
2026-01-25 23:42:38.69	356.89	36.68	-42.7	-44.1	20.1	0.00e+00	0	36	0	983564288	58	6465
2026-01-25 23:42:39.70	356.70	36.47	-42.5	-43.9	20.2	0.00e+00	0	35	0	985661440	58	6347
2026-01-25 23:42:40.71	356.51	36.26	-42.4	-43.8	20.3	0.00e+00	0	35	0	986710016	58	6278
2026-01-25 23:42:41.72	356.32	36.05	-42.3	-43.6	20.4	0.00e+00	0	35	0	988807168	58	6163
2026-01-25 23:42:42.74	356.13	35.84	-42.0	-43.3	20.5	0.00e+00	0	35	0	990904320	58	5933
2026-01-25 23:42:43.75	355.94	35.63	-41.9	-43.2	20.7	0.00e+00	0	35	0	993001472	58	5884
2026-01-25 23:42:44.76	355.76	35.43	-41.8	-43.1	20.8	0.00e+00	0	35	0	995098624	56	6470
2026-01-25 23:42:45.77	355.58	35.22	-41.7	-43.0	21.0	0.00e+00	0	35	0	996147200	56	6402
2026-01-25 23:42:46.78	355.40	35.02	-41.7	-43.0	20.9	0.00e+00	0	35	0	998244352	56	6418
2026-01-25 23:42:47.79	355.23	34.81	-41.7	-42.9	21.1	0.00e+00	0	35	0	1000341504	56	6333
2026-01-25 23:42:48.80	355.06	34.61	-41.6	-42.8	21.1	0.00e+00	0	35	0	1002438656	56	6308
2026-01-25 23:42:49.81	354.89	34.41	-41.6	-42.8	21.1	0.00e+00	0	35	0	1004535808	56	6249
2026-01-25 23:42:50.82	354.72	34.21	-41.7	-42.9	21.2	0.00e+00	0	35	0	1005584384	56	6353
2026-01-25 23:42:51.83	354.55	34.01	-41.7	-42.8	21.2	0.00e+00	0	35	0	1007681536	56	6292
2026-01-25 23:42:52.84	354.39	33.81	-41.6	-42.8	21.2	0.00e+00	0	36	0	1009778688	56	6246
2026-01-25 23:42:53.85	354.22	33.61	-41.4	-42.6	21.3	0.00e+00	0	35	0	1011875840	56	6118
2026-01-25 23:42:54.86	354.06	33.41	-41.4	-42.6	21.2	0.00e+00	0	36	0	1013972992	56	6148
2026-01-25 23:42:55.87	353.90	33.22	-41.3	-42.5	21.3	0.00e+00	0	36	0	1015021568	56	6097
2026-01-25 23:42:56.88	353.75	33.02	-41.4	-42.6	21.3	0.00e+00	0	36	0	1017118720	56	6162
2026-01-25 23:42:57.89	353.59	32.83	-41.3	-42.5	21.4	0.00e+00	0	35	0	1019215872	56	6036
2026-01-25 23:42:58.90	353.44	32.64	-41.2	-42.4	21.5	0.00e+00	0	36	0	1021313024	56	6001
2026-01-25 23:42:59.91	353.29	32.45	-41.1	-42.3	21.7	0.00e+00	0	36	0	1023410176	56	5908
2026-01-25 23:43:00.92	353.14	32.26	-41.2	-42.4	21.6	0.00e+00	0	35	0	1024458752	56	5976
2026-01-25 23:43:01.93	352.99	32.07	-41.1	-42.3	21.6	0.00e+00	0	35	0	1026555904	56	5905
2026-01-25 23:43:02.93	352.85	31.88	-41.3	-42.5	21.5	0.00e+00	0	35	0	1028653056	56	6053
2026-01-25 23:43:03.94	352.70	31.69	-42.4	-43.8	20.3	0.00e+00	0	35	0	1030750208	56	7028
2026-01-25 23:43:04.95	352.56	31.51	-41.9	-43.2	20.9	0.00e+00	0	35	0	1032847360	56	6545
2026-01-25 23:43:05.96	352.42	31.32	-42.4	-43.8	20.4	0.00e+00	0	35	0	1033895936	56	7054
2026-01-25 23:43:06.97	352.28	31.14	-42.4	-43.7	19.7	0.00e+00	0	35	0	1035993088	58	6237
2026-01-25 23:43:07.98	352.15	30.95	-42.7	-44.1	19.9	0.00e+00	0	35	0	1038090240	58	6527
2026-01-25 23:43:09.00	352.01	30.77	-42.5	-43.9	20.3	0.00e+00	0	35	0	1040187392	58	6319
2026-01-25 23:43:10.01	351.87	30.59	-42.3	-43.6	20.5	0.00e+00	0	35	0	1042284544	58	6147
2026-01-25 23:43:11.02	351.74	30.40	-42.6	-44.0	20.1	0.00e+00	0	35	0	1044381696	58	6417
2026-01-25 23:43:12.03	351.61	30.22	-42.6	-43.9	20.2	0.00e+00	0	35	0	1045430272	58	6378
2026-01-25 23:43:13.03	351.48	30.05	-42.2	-43.4	20.8	0.00e+00	0	35	0	1047527424	58	6033
2026-01-25 23:43:14.04	351.35	29.87	-41.7	-43.0	21.2	0.00e+00	0	35	0	1049624576	56	6432
2026-01-25 23:43:15.05	351.23	29.69	-41.9	-43.2	20.7	0.00e+00	0	35	0	1051721728	56	6605
2026-01-25 23:43:16.07	351.10	29.51	-41.5	-42.7	21.0	0.00e+00	0	35	0	1053818880	56	6239
2026-01-25 23:43:17.08	350.98	29.34	-41.4	-42.6	21.3	0.00e+00	0	35	0	1054867456	56	6170
2026-01-25 23:43:18.09	350.85	29.17	-41.5	-42.8	21.1	0.00e+00	0	35	0	1056964608	56	6293
2026-01-25 23:43:19.10	350.73	28.99	-41.8	-43.1	20.9	0.00e+00	0	35	0	1059061760	56	6515
2026-01-25 23:43:20.11	350.61	28.82	-41.7	-43.0	20.9	7.00e-07	0	35	0	1061158912	56	6442
2026-01-25 23:43:21.12	350.50	28.65	-41.7	-43.0	20.9	0.00e+00	0	35	0	1063256064	56	6459
2026-01-25 23:43:22.13	350.38	28.48	-41.8	-43.1	20.8	0.00e+00	0	35	0	1064304640	56	6466
2026-01-25 23:43:23.14	350.26	28.31	-41.9	-43.2	20.7	0.00e+00	0	35	0	1066401792	56	6584
2026-01-25 23:43:24.15	350.15	28.14	-42.5	-44.0	20.1	0.00e+00	0	35	0	1068498944	58	6436
2026-01-25 23:43:25.16	350.03	27.97	-41.8	-43.1	20.8	0.00e+00	0	36	0	1070596096	58	5818
2026-01-25 23:43:26.17	349.92	27.80	-42.2	-43.5	20.6	0.00e+00	0	35	0	1072693248	56	6846
2026-01-25 23:43:27.18	349.81	27.64	-41.7	-42.9	21.2	0.00e+00	0	35	0	1073741824	56	6325
2026-01-25 23:43:28.19	349.70	27.47	-41.8	-43.0	21.2	0.00e+00	0	35	0	1075838976	56	6396
2026-01-25 23:43:29.20	349.59	27.31	-41.7	-42.8	21.2	0.00e+00	0	35	0	1077936128	56	6314
2026-01-25 23:43:30.21	349.48	27.14	-41.8	-43.0	21.0	0.00e+00	0	35	0	1080033280	56	6419
2026-01-25 23:43:31.22	349.38	26.98	-41.6	-42.8	21.3	0.00e+00	0	35	0	1082130432	56	6286
2026-01-25 23:43:32.23	349.27	26.82	-41.4	-42.6	21.3	0.00e+00	0	35	0	1083179008	56	6130
2026-01-25 23:43:33.24	349.17	26.66	-41.6	-42.8	21.1	0.00e+00	0	35	0	1085276160	56	6311
2026-01-25 23:43:34.25	349.07	26.50	-41.5	-42.7	21.3	0.00e+00	0	35	0	1087373312	56	6245
2026-01-25 23:43:35.25	348.96	26.34	-41.5	-42.7	21.1	0.00e+00	0	35	0	1089470464	56	6240
2026-01-25 23:43:36.26	348.86	26.18	-41.3	-42.4	21.5	0.00e+00	0	35	0	1091567616	56	6027
2026-01-25 23:43:37.27	348.76	26.03	-41.4	-42.6	21.5	0.00e+00	0	35	0	1092616192	56	6107
2026-01-25 23:43:38.29	348.66	25.87	-41.3	-42.5	21.6	0.00e+00	0	35	0	1094713344	56	6045
2026-01-25 23:43:39.29	348.57	25.71	-41.2	-42.4	21.5	0.00e+00	0	35	0	1096810496	56	6015
2026-01-25 23:43:40.30	348.47	25.56	-41.1	-42.2	21.7	0.00e+00	0	35	0	1098907648	56	5887
2026-01-25 23:43:41.31	348.37	25.40	-41.2	-42.3	21.6	0.00e+00	0	35	0	1101004800	56	5946
2026-01-25 23:43:42.32	348.28	25.25	-41.1	-42.3	21.8	0.00e+00	0	35	0	1102053376	56	5909
2026-01-25 23:43:43.33	348.18	25.10	-41.0	-42.2	21.8	0.00e+00	0	35	0	1104150528	56	5842
2026-01-25 23:43:44.34	348.09	24.95	-41.2	-42.3	21.6	0.00e+00	0	35	0	1106247680	56	5952
2026-01-25 23:43:45.35	348.00	24.79	-41.1	-42.3	21.7	0.00e+00	0	35	0	1108344832	56	5903
2026-01-25 23:43:46.36	347.91	24.64	-41.2	-42.3	21.5	0.00e+00	0	36	0	1110441984	56	5946
2026-01-25 23:43:47.37	347.82	24.49	-41.2	-42.4	21.4	0.00e+00	0	35	0	1112539136	56	5989
2026-01-25 23:43:48.38	347.73	24.35	-41.1	-42.3	21.4	0.00e+00	0	35	0	1113587712	56	5911
2026-01-25 23:43:49.39	347.64	24.20	-41.2	-42.4	21.6	0.00e+00	0	35	0	1115684864	56	5978
2026-01-25 23:43:50.40	347.55	24.05	-41.1	-42.3	21.5	0.00e+00	0	36	0	1117782016	56	5898
2026-01-25 23:43:51.41	347.47	23.90	-40.9	-42.0	21.7	0.00e+00	0	35	0	1119879168	56	5756
2026-01-25 23:43:52.42	347.38	23.76	-41.2	-42.4	21.5	0.00e+00	0	35	0	1121976320	56	5978
2026-01-25 23:43:53.43	347.29	23.61	-40.8	-42.0	21.9	0.00e+00	0	36	0	1123024896	56	5704
2026-01-25 23:43:54.44	347.21	23.47	-41.0	-42.1	21.8	0.00e+00	0	35	0	1125122048	56	5787
2026-01-25 23:43:55.45	347.13	23.33	-40.5	-41.6	22.1	0.00e+00	0	35	0	1127219200	54	6162
2026-01-25 23:43:56.46	347.04	23.18	-40.5	-41.6	22.2	0.00e+00	0	35	0	1129316352	54	6120
2026-01-25 23:43:57.47	346.96	23.04	-40.6	-41.7	22.0	0.00e+00	0	35	0	1131413504	54	6204
2026-01-25 23:43:58.48	346.88	22.90	-40.6	-41.7	22.0	0.00e+00	0	35	0	1132462080	54	6203
2026-01-25 23:43:59.49	346.80	22.76	-40.4	-41.5	22.2	0.00e+00	0	35	0	1134559232	54	6067
2026-01-25 23:44:00.50	346.72	22.62	-40.5	-41.6	22.1	0.00e+00	0	35	0	1136656384	54	6167
2026-01-25 23:44:01.51	346.64	22.48	-40.6	-41.7	22.0	0.00e+00	0	35	0	1138753536	54	6196
2026-01-25 23:44:02.52	346.56	22.34	-40.4	-41.5	22.2	0.00e+00	0	35	0	1140850688	54	6039
2026-01-25 23:44:03.53	346.48	22.20	-40.6	-41.7	22.0	0.00e+00	0	35	0	1141899264	54	6189
2026-01-25 23:44:04.54	346.41	22.07	-40.5	-41.6	22.0	0.00e+00	0	35	0	1143996416	54	6122
2026-01-25 23:44:05.55	346.33	21.93	-40.4	-41.5	22.0	0.00e+00	0	35	0	1146093568	54	6081
2026-01-25 23:44:06.56	346.26	21.79	-40.4	-41.5	22.2	0.00e+00	0	35	0	1148190720	54	6034
2026-01-25 23:44:07.57	346.18	21.66	-40.3	-41.4	22.3	0.00e+00	0	35	0	1150287872	54	5975
2026-01-25 23:44:08.58	346.11	21.52	-40.1	-41.1	22.5	0.00e+00	0	35	0	1152385024	54	5809
2026-01-25 23:44:09.59	346.03	21.39	-40.2	-41.2	22.4	0.00e+00	0	35	0	1153433600	54	5872
2026-01-25 23:44:10.60	345.96	21.26	-40.0	-41.1	22.5	0.00e+00	0	35	0	1155530752	54	5777
2026-01-25 23:44:11.61	345.89	21.12	-39.7	-40.7	22.8	0.00e+00	0	35	0	1157627904	54	5563
2026-01-25 23:44:12.62	345.82	20.99	-40.0	-41.1	22.5	0.00e+00	0	35	0	1159725056	52	6466
2026-01-25 23:44:13.63	345.75	20.86	-39.6	-40.6	22.9	0.00e+00	0	36	0	1161822208	52	6132
2026-01-25 23:44:14.64	345.68	20.73	-39.7	-40.7	22.9	0.00e+00	0	35	0	1162870784	52	6191
2026-01-25 23:44:15.65	345.61	20.60	-39.6	-40.6	22.8	0.00e+00	0	35	0	1164967936	52	6139
2026-01-25 23:44:16.66	345.54	20.47	-39.7	-40.7	22.9	0.00e+00	0	35	0	1167065088	52	6200
2026-01-25 23:44:17.67	345.47	20.34	-39.7	-40.7	22.9	0.00e+00	0	35	0	1169162240	52	6200
2026-01-25 23:44:18.69	345.40	20.21	-39.6	-40.6	22.9	0.00e+00	0	35	0	1171259392	52	6160
2026-01-25 23:44:19.70	345.34	20.08	-39.9	-40.9	22.7	0.00e+00	0	35	0	1172307968	52	6346
2026-01-25 23:44:20.70	345.27	19.96	-39.9	-41.0	22.6	0.00e+00	0	35	0	1174405120	52	6396
2026-01-25 23:44:21.72	345.20	19.83	-40.5	-41.7	21.9	0.00e+00	0	35	0	1176502272	52	6933
2026-01-25 23:44:22.73	345.14	19.71	-39.8	-40.8	22.7	0.00e+00	0	36	0	1178599424	52	6275
2026-01-25 23:44:23.73	345.07	19.58	-40.0	-41.0	22.4	0.00e+00	0	35	0	1180696576	52	6431
2026-01-25 23:44:24.75	345.01	19.46	-40.0	-41.0	22.3	0.00e+00	0	36	0	1181745152	52	6462
2026-01-25 23:44:25.75	344.95	19.33	-40.2	-41.2	22.2	0.00e+00	0	35	0	1183842304	52	6591
2026-01-25 23:44:26.77	344.88	19.21	-39.9	-40.9	22.6	0.00e+00	0	35	0	1185939456	52	6348
2026-01-25 23:44:27.78	344.82	19.09	-39.9	-40.9	22.6	0.00e+00	0	36	0	1188036608	52	6363
2026-01-25 23:44:28.78	344.76	18.96	-40.0	-41.0	22.6	0.00e+00	0	36	0	1190133760	52	6449
2026-01-25 23:44:29.79	344.70	18.84	-40.1	-41.1	22.5	0.00e+00	0	36	0	1191182336	52	6513
2026-01-25 23:44:30.80	344.64	18.72	-39.9	-40.9	22.6	0.00e+00	0	35	0	1193279488	52	6390
2026-01-25 23:44:31.81	344.58	18.60	-40.1	-41.1	22.6	0.00e+00	0	35	0	1195376640	52	6479
2026-01-25 23:44:32.82	344.52	18.48	-40.0	-41.1	22.5	0.00e+00	0	35	0	1197473792	52	6475
2026-01-25 23:44:33.83	344.46	18.36	-40.1	-41.2	22.4	0.00e+00	0	35	0	1199570944	52	6560
2026-01-25 23:44:34.84	344.40	18.24	-40.2	-41.3	22.5	0.00e+00	0	35	0	1200619520	52	6617
2026-01-25 23:44:35.85	344.34	18.12	-40.3	-41.3	22.3	0.00e+00	0	35	0	1202716672	52	6652
2026-01-25 23:44:36.86	344.28	18.01	-40.2	-41.2	22.5	0.00e+00	0	35	0	1204813824	52	6609
