passes_logs/2026/01/25/R4.6S_Anadyr/R4.6S_Anadyr__20260125_131651_SUOMI_NPP_rec.log

#Pass ID: 20260125_131651_SUOMI NPP
#Satellite: SUOMI NPP
#Configuration: NPP
#almurnet v.1.7.20251203
#Start time: 2026-01-25 13:16:52

#Version: 2.2.20231116
#Station: R4.6S_Anadyr
#Location: 177.4865 lon 64.73178 lat
#TLE: 1 37849U 11061A   26024.97198022  .00000188  00000+0  11029-3 0  9994
#TLE: 2 37849  98.7821 326.9352 0002187  46.6646 313.4712 14.19529581738125

#Time	Az	El	Level	Level2	SNR	BER	BlckErr	Temp	State	Recorded	gain1	gain2
2026-01-25 13:16:52.73	18.83	0.06	-51.3	-63.8	3.4	1.52e+00	0	38	0	0	60	54322
2026-01-25 13:16:53.73	18.88	0.12	-51.3	-66.4	3.6	1.51e+00	0	40	104	0	60	75937
2026-01-25 13:16:54.74	18.93	0.18	-51.3	-66.5	3.6	1.51e+00	0	40	104	0	60	76000
2026-01-25 13:16:55.75	18.98	0.23	-51.3	-66.4	3.6	1.51e+00	0	40	104	0	60	75761
2026-01-25 13:16:56.76	19.03	0.29	-51.3	-66.4	3.6	1.51e+00	0	40	104	0	60	75801
2026-01-25 13:16:57.77	19.08	0.34	-51.3	-66.4	3.6	1.51e+00	0	40	104	0	60	75726
2026-01-25 13:16:58.78	19.13	0.40	-51.3	-66.5	3.6	1.51e+00	0	40	104	0	60	76032
2026-01-25 13:16:59.79	19.18	0.46	-51.3	-66.4	3.6	1.51e+00	0	40	104	0	60	75906
2026-01-25 13:17:00.80	19.23	0.51	-51.2	-66.4	3.6	1.51e+00	0	40	104	0	60	75838
2026-01-25 13:17:01.81	19.28	0.57	-51.2	-66.4	3.6	1.51e+00	0	40	104	0	60	75511
2026-01-25 13:17:02.82	19.34	0.62	-51.2	-66.4	3.6	1.51e+00	0	40	104	0	60	75478
2026-01-25 13:17:03.83	19.39	0.68	-51.2	-66.4	3.6	1.51e+00	0	40	104	0	60	75428
2026-01-25 13:17:04.84	19.44	0.74	-51.1	-66.4	3.6	1.51e+00	0	40	104	0	60	75190
2026-01-25 13:17:05.85	19.49	0.79	-51.1	-66.3	3.6	1.51e+00	0	40	104	0	60	74766
2026-01-25 13:17:06.86	19.54	0.85	-51.0	-66.3	3.6	1.51e+00	0	40	104	0	60	74276
2026-01-25 13:17:07.87	19.60	0.91	-51.0	-66.2	3.6	1.51e+00	0	40	104	0	60	73854
2026-01-25 13:17:08.88	19.65	0.96	-50.9	-66.1	3.6	1.51e+00	0	40	104	0	60	73116
2026-01-25 13:17:09.89	19.70	1.02	-50.8	-66.0	3.6	1.51e+00	0	40	104	0	60	72410
2026-01-25 13:17:10.90	19.76	1.08	-50.6	-65.9	3.6	1.51e+00	0	40	104	0	60	71051
2026-01-25 13:17:11.91	19.81	1.14	-50.5	-65.7	3.6	1.51e+00	0	40	104	0	60	69815
2026-01-25 13:17:12.92	19.86	1.19	-50.5	-65.7	3.6	1.51e+00	0	40	104	0	60	69616
2026-01-25 13:17:13.93	19.92	1.25	-50.4	-65.5	3.6	1.51e+00	0	40	104	0	60	68122
2026-01-25 13:17:14.94	19.97	1.31	-50.2	-65.4	3.6	1.51e+00	0	40	104	0	60	67215
2026-01-25 13:17:15.95	20.02	1.37	-50.0	-65.1	3.6	1.51e+00	0	40	104	0	60	65358
2026-01-25 13:17:16.96	20.08	1.42	-49.6	-64.8	3.6	1.51e+00	0	40	104	0	60	62513
2026-01-25 13:17:17.97	20.13	1.48	-49.5	-64.8	3.6	1.51e+00	0	40	104	0	60	62506
2026-01-25 13:17:18.98	20.19	1.54	-49.5	-64.7	3.6	1.51e+00	0	40	104	0	60	61945
2026-01-25 13:17:19.99	20.24	1.60	-49.5	-64.7	3.6	1.51e+00	0	40	104	0	60	61993
2026-01-25 13:17:21.00	20.30	1.66	-49.5	-64.7	3.6	1.51e+00	0	40	104	0	60	61871
2026-01-25 13:17:22.01	20.35	1.71	-49.5	-64.6	3.6	1.51e+00	0	40	104	0	60	61287
2026-01-25 13:17:23.02	20.41	1.77	-49.5	-64.6	3.6	1.51e+00	0	40	104	0	60	61247
2026-01-25 13:17:24.03	20.46	1.83	-49.5	-64.7	3.6	1.51e+00	0	40	104	0	60	62072
2026-01-25 13:17:25.04	20.52	1.89	-49.5	-64.7	3.6	1.51e+00	0	40	104	0	60	62114
2026-01-25 13:17:26.05	20.58	1.95	-49.5	-64.7	3.6	1.51e+00	0	40	104	0	60	61778
2026-01-25 13:17:27.06	20.63	2.01	-49.5	-64.7	3.6	1.51e+00	0	40	104	0	60	62155
2026-01-25 13:17:28.07	20.69	2.07	-49.5	-64.7	3.6	1.51e+00	0	40	104	0	60	62138
2026-01-25 13:17:29.08	20.75	2.12	-49.5	-64.7	3.6	1.51e+00	0	40	104	0	60	62010
2026-01-25 13:17:30.09	20.80	2.18	-49.5	-64.7	3.6	1.51e+00	0	40	104	0	60	62160
2026-01-25 13:17:31.09	20.86	2.24	-49.5	-64.5	3.6	1.51e+00	0	40	104	0	60	60753
2026-01-25 13:17:32.10	20.92	2.30	-49.4	-64.2	3.6	1.51e+00	0	40	104	0	60	58949
2026-01-25 13:17:33.11	20.97	2.36	-49.4	-64.1	3.6	1.51e+00	0	40	104	0	60	57621
2026-01-25 13:17:34.12	21.03	2.42	-49.4	-64.1	3.6	1.51e+00	0	41	104	0	60	57819
2026-01-25 13:17:35.13	21.09	2.48	-49.4	-64.2	3.6	1.51e+00	0	40	104	0	60	58766
2026-01-25 13:17:36.14	21.15	2.54	-49.5	-64.5	3.6	1.51e+00	0	40	104	0	60	60656
2026-01-25 13:17:37.15	21.21	2.60	-49.5	-64.5	3.6	1.51e+00	0	40	104	0	60	60966
2026-01-25 13:17:38.16	21.27	2.66	-49.3	-62.1	3.6	1.51e+00	0	41	104	0	60	46249
2026-01-25 13:17:39.17	21.32	2.72	-49.0	-57.8	5.3	8.05e-01	0	41	0	0	60	27948
2026-01-25 13:17:40.18	21.38	2.78	-48.2	-53.8	9.2	5.12e-02	0	41	0	2097152	60	17773
2026-01-25 13:17:41.19	21.44	2.84	-46.3	-49.3	14.3	3.95e-02	0	41	0	4194304	60	10542
2026-01-25 13:17:42.20	21.50	2.90	-45.4	-48.0	15.4	0.00e+00	0	41	0	5242880	60	9077
2026-01-25 13:17:43.21	21.56	2.96	-45.1	-47.5	16.1	1.50e-06	65	40	0	7340032	60	8538
2026-01-25 13:17:44.22	21.62	3.02	-45.5	-48.1	15.4	0.00e+00	0	40	0	9437184	60	9223
2026-01-25 13:17:45.23	21.68	3.08	-45.6	-48.3	15.6	0.00e+00	92	41	0	11534336	60	9366
2026-01-25 13:17:46.24	21.74	3.14	-43.4	-45.1	18.5	0.00e+00	0	40	0	13631488	60	6510
2026-01-25 13:17:47.25	21.80	3.20	-44.4	-46.5	17.1	0.00e+00	0	40	0	14680064	60	7670
2026-01-25 13:17:48.26	21.86	3.26	-46.1	-49.1	14.6	0.00e+00	32	41	0	16777216	60	10307
2026-01-25 13:17:49.27	21.92	3.32	-45.8	-48.7	13.9	0.00e+00	0	41	0	18874368	60	9789
2026-01-25 13:17:50.28	21.99	3.38	-46.8	-50.4	12.8	0.00e+00	9	41	0	20971520	60	11997
2026-01-25 13:17:51.28	22.05	3.45	-43.3	-45.0	18.6	0.00e+00	30	40	0	23068672	60	6399
2026-01-25 13:17:52.29	22.11	3.51	-43.7	-45.4	17.8	0.00e+00	92	40	0	24117248	60	6766
2026-01-25 13:17:53.30	22.17	3.57	-49.4	-64.6	3.6	1.33e+00	0	40	104	25165824	60	61178
2026-01-25 13:17:54.31	22.23	3.63	-46.6	-50.0	14.0	1.41e+00	14	40	104	25165824	60	11468
2026-01-25 13:17:55.32	22.30	3.69	-49.1	-56.4	7.2	2.35e-01	0	40	0	26214400	60	23994
2026-01-25 13:17:56.33	22.36	3.75	-47.7	-52.0	11.6	5.27e-04	0	40	0	27262976	60	14373
2026-01-25 13:17:57.34	22.42	3.82	-46.7	-49.9	13.9	5.18e-05	0	41	0	29360128	60	11348
2026-01-25 13:17:58.35	22.48	3.88	-46.0	-48.7	15.6	0.00e+00	0	41	0	31457280	60	9800
2026-01-25 13:17:59.36	22.55	3.94	-46.1	-48.8	14.9	7.00e-07	74	41	0	33554432	60	10012
2026-01-25 13:18:00.36	22.61	4.00	-45.7	-48.3	15.5	0.00e+00	0	41	0	35651584	60	9416
2026-01-25 13:18:01.37	22.68	4.06	-46.2	-49.1	14.9	0.00e+00	90	41	0	36700160	60	10248
2026-01-25 13:18:02.38	22.74	4.13	-45.4	-47.7	17.1	0.00e+00	0	40	0	38797312	60	8808
2026-01-25 13:18:03.39	22.80	4.19	-46.0	-48.8	14.5	0.00e+00	0	41	0	40894464	60	9907
2026-01-25 13:18:04.40	22.87	4.25	-45.2	-47.4	16.3	0.00e+00	0	41	0	42991616	60	8506
2026-01-25 13:18:05.41	22.93	4.31	-46.9	-50.2	14.2	3.80e-06	0	41	0	45088768	60	11686
2026-01-25 13:18:06.42	23.00	4.38	-45.9	-48.4	16.5	1.83e-05	0	41	0	46137344	60	9491
2026-01-25 13:18:07.43	23.06	4.44	-46.6	-49.7	13.2	0.00e+00	33	41	0	48234496	60	11005
2026-01-25 13:18:08.44	23.13	4.50	-45.3	-47.5	16.6	3.80e-06	71	41	0	50331648	60	8612
2026-01-25 13:18:09.45	23.20	4.57	-43.6	-45.3	18.5	0.00e+00	0	41	0	52428800	60	6625
2026-01-25 13:18:10.46	23.26	4.63	-44.6	-46.7	17.0	0.00e+00	0	41	0	54525952	60	7787
2026-01-25 13:18:11.47	23.33	4.69	-44.3	-46.1	17.8	0.00e+00	0	40	0	56623104	60	7326
2026-01-25 13:18:12.48	23.40	4.76	-44.0	-45.8	18.2	0.00e+00	0	41	0	57671680	60	7041
2026-01-25 13:18:13.49	23.46	4.82	-43.8	-45.5	18.4	0.00e+00	0	41	0	59768832	60	6827
2026-01-25 13:18:14.50	23.53	4.89	-43.9	-45.6	18.5	0.00e+00	0	41	0	61865984	60	6895
2026-01-25 13:18:15.50	23.60	4.95	-43.5	-45.1	18.5	0.00e+00	74	41	0	63963136	60	6517
2026-01-25 13:18:16.52	23.67	5.01	-44.4	-46.3	17.6	0.00e+00	0	41	0	66060288	60	7471
2026-01-25 13:18:17.53	23.73	5.08	-43.6	-45.2	18.8	0.00e+00	0	41	0	67108864	60	6610
2026-01-25 13:18:18.54	23.80	5.14	-43.1	-44.7	19.6	0.00e+00	0	41	0	69206016	60	6175
2026-01-25 13:18:19.55	23.87	5.21	-41.5	-42.7	20.8	0.00e+00	0	41	0	71303168	56	6239
2026-01-25 13:18:20.56	23.94	5.27	-42.7	-44.1	19.6	0.00e+00	0	41	0	73400320	56	7269
2026-01-25 13:18:21.57	24.01	5.34	-43.3	-44.8	19.3	0.00e+00	0	41	0	75497472	60	6300
2026-01-25 13:18:22.58	24.08	5.40	-43.1	-44.6	19.3	0.00e+00	80	41	0	76546048	60	6168
2026-01-25 13:18:23.58	24.15	5.47	-42.7	-44.1	19.4	0.00e+00	0	41	0	78643200	58	6532
2026-01-25 13:18:24.60	24.22	5.53	-41.9	-43.2	20.6	0.00e+00	0	41	0	80740352	58	5845
2026-01-25 13:18:25.60	24.29	5.60	-43.0	-44.5	19.2	0.00e+00	0	41	0	82837504	58	6798
2026-01-25 13:18:26.62	24.36	5.66	-42.9	-44.3	19.4	0.00e+00	0	41	0	84934656	58	6675
2026-01-25 13:18:27.63	24.43	5.73	-44.8	-46.8	17.4	0.00e+00	57	41	0	85983232	60	7874
2026-01-25 13:18:28.63	24.50	5.79	-42.0	-43.2	20.5	0.00e+00	0	41	0	88080384	58	5890
2026-01-25 13:18:29.64	24.57	5.86	-43.1	-44.6	19.6	0.00e+00	80	41	0	90177536	60	6171
2026-01-25 13:18:30.65	24.65	5.93	-42.8	-44.3	19.7	0.00e+00	0	41	0	92274688	58	6633
2026-01-25 13:18:31.66	24.72	5.99	-42.9	-44.4	19.6	0.00e+00	0	41	0	94371840	58	6743
2026-01-25 13:18:32.67	24.79	6.06	-42.7	-44.2	19.7	0.00e+00	0	41	0	95420416	58	6553
2026-01-25 13:18:33.68	24.86	6.12	-42.5	-43.9	20.0	0.00e+00	0	41	0	97517568	58	6369
2026-01-25 13:18:34.69	24.94	6.19	-42.7	-44.1	19.9	0.00e+00	0	41	0	99614720	58	6517
2026-01-25 13:18:35.70	25.01	6.26	-42.8	-44.2	19.7	0.00e+00	0	41	0	101711872	58	6581
2026-01-25 13:18:36.71	25.08	6.32	-42.5	-43.9	20.2	0.00e+00	83	41	0	103809024	58	6351
2026-01-25 13:18:37.72	25.16	6.39	-42.2	-43.5	20.2	0.00e+00	0	41	0	104857600	58	6060
2026-01-25 13:18:38.73	25.23	6.46	-42.1	-43.4	20.3	0.00e+00	84	41	0	106954752	58	5985
2026-01-25 13:18:39.73	25.31	6.53	-41.8	-43.0	20.8	0.00e+00	0	41	0	109051904	58	5710
2026-01-25 13:18:40.74	25.38	6.59	-42.8	-44.3	19.8	0.00e+00	0	41	0	111149056	58	6617
2026-01-25 13:18:41.75	25.46	6.66	-41.7	-42.9	20.9	0.00e+00	0	41	0	113246208	58	5658
2026-01-25 13:18:42.76	25.53	6.73	-41.1	-42.2	21.6	0.00e+00	0	41	0	114294784	56	5840
2026-01-25 13:18:43.77	25.61	6.80	-41.7	-42.9	20.8	0.00e+00	65	41	0	116391936	56	6386
2026-01-25 13:18:44.78	25.69	6.86	-41.7	-42.9	20.7	0.00e+00	0	41	0	118489088	56	6380
2026-01-25 13:18:45.79	25.76	6.93	-42.0	-43.2	20.7	0.00e+00	73	41	0	120586240	56	6608
2026-01-25 13:18:46.80	25.84	7.00	-42.3	-43.6	20.5	0.00e+00	0	41	0	122683392	56	6908
2026-01-25 13:18:47.81	25.92	7.07	-41.4	-42.6	21.2	0.00e+00	0	41	0	124780544	56	6133
2026-01-25 13:18:48.82	26.00	7.14	-41.9	-43.2	20.9	0.00e+00	0	41	0	125829120	56	6547
2026-01-25 13:18:49.83	26.07	7.21	-41.4	-42.6	21.4	0.00e+00	0	41	0	127926272	56	6126
2026-01-25 13:18:50.84	26.15	7.27	-41.6	-42.8	21.3	0.00e+00	65	41	0	130023424	56	6249
2026-01-25 13:18:51.85	26.23	7.34	-41.3	-42.4	21.5	0.00e+00	0	41	0	132120576	56	5992
2026-01-25 13:18:52.85	26.31	7.41	-41.7	-42.9	20.7	0.00e+00	57	41	0	134217728	56	6367
2026-01-25 13:18:53.87	26.39	7.48	-40.5	-41.5	22.0	0.00e+00	0	41	0	135266304	54	6054
2026-01-25 13:18:54.88	26.47	7.55	-42.4	-43.7	20.5	0.00e+00	33	41	0	137363456	56	6940
2026-01-25 13:18:55.89	26.55	7.62	-42.1	-43.3	20.7	0.00e+00	0	41	0	139460608	56	6656
2026-01-25 13:18:56.89	26.63	7.69	-41.9	-43.1	20.9	0.00e+00	0	41	0	141557760	56	6511
2026-01-25 13:18:57.90	26.71	7.76	-41.5	-42.6	21.4	0.00e+00	81	41	0	143654912	56	6144
2026-01-25 13:18:58.91	26.79	7.83	-41.0	-42.1	21.6	0.00e+00	0	41	0	144703488	56	5807
2026-01-25 13:18:59.92	26.87	7.90	-41.7	-42.9	21.1	0.00e+00	91	41	0	146800640	56	6335
2026-01-25 13:19:00.93	26.96	7.97	-41.8	-43.0	21.0	0.00e+00	1	41	0	148897792	56	6432
2026-01-25 13:19:01.94	27.04	8.04	-41.8	-43.0	21.1	0.00e+00	17	41	0	150994944	56	6400
2026-01-25 13:19:02.95	27.12	8.11	-41.4	-42.6	21.4	0.00e+00	0	41	0	153092096	56	6116
2026-01-25 13:19:03.96	27.20	8.18	-41.4	-42.6	21.4	0.00e+00	0	41	0	154140672	56	6124
2026-01-25 13:19:04.97	27.29	8.25	-41.2	-42.4	21.6	0.00e+00	0	41	0	156237824	56	5967
2026-01-25 13:19:05.98	27.37	8.32	-42.0	-43.2	20.8	0.00e+00	0	41	0	158334976	56	6586
2026-01-25 13:19:06.99	27.46	8.39	-41.9	-43.1	21.0	0.00e+00	46	41	0	160432128	56	6497
2026-01-25 13:19:08.00	27.54	8.46	-41.8	-43.0	21.2	0.00e+00	0	41	0	162529280	56	6416
2026-01-25 13:19:09.01	27.63	8.54	-41.5	-42.6	21.4	0.00e+00	48	41	0	163577856	56	6165
2026-01-25 13:19:10.02	27.71	8.61	-41.5	-42.6	21.3	0.00e+00	0	41	0	165675008	56	6151
2026-01-25 13:19:11.03	27.80	8.68	-42.2	-43.5	20.7	0.00e+00	0	41	0	167772160	56	6777
2026-01-25 13:19:12.04	27.88	8.75	-41.6	-42.7	21.2	0.00e+00	0	41	0	169869312	56	6220
2026-01-25 13:19:13.05	27.97	8.82	-41.4	-42.6	21.4	0.00e+00	0	41	0	171966464	56	6134
2026-01-25 13:19:14.06	28.06	8.90	-41.6	-42.8	21.1	0.00e+00	37	41	0	173015040	56	6308
2026-01-25 13:19:15.07	28.15	8.97	-42.0	-43.3	21.1	0.00e+00	0	41	0	175112192	56	6620
2026-01-25 13:19:16.08	28.23	9.04	-41.4	-42.6	21.3	0.00e+00	92	41	0	177209344	56	6129
2026-01-25 13:19:17.09	28.32	9.11	-41.7	-42.9	21.2	0.00e+00	0	41	0	179306496	56	6345
2026-01-25 13:19:18.10	28.41	9.19	-41.3	-42.5	21.6	0.00e+00	0	41	0	181403648	56	6046
2026-01-25 13:19:19.11	28.50	9.26	-41.7	-42.8	21.2	0.00e+00	0	41	0	182452224	56	6315
2026-01-25 13:19:20.12	28.59	9.33	-41.8	-43.0	21.2	0.00e+00	0	41	0	184549376	56	6406
2026-01-25 13:19:21.13	28.68	9.41	-40.6	-41.7	22.2	0.00e+00	6	41	0	186646528	54	6189
2026-01-25 13:19:22.13	28.77	9.48	-41.2	-42.3	21.7	0.00e+00	0	41	0	188743680	54	6637
2026-01-25 13:19:23.14	28.86	9.55	-41.4	-42.6	21.4	0.00e+00	92	41	0	190840832	54	6874
2026-01-25 13:19:24.16	28.95	9.63	-40.9	-41.9	21.9	0.00e+00	0	41	0	192937984	54	6365
2026-01-25 13:19:25.16	29.04	9.70	-40.7	-41.7	22.0	0.00e+00	0	41	0	193986560	54	6215
2026-01-25 13:19:26.17	29.13	9.77	-40.6	-41.7	22.2	0.00e+00	0	41	0	196083712	54	6178
2026-01-25 13:19:27.18	29.23	9.85	-40.6	-41.6	22.2	0.00e+00	0	41	0	198180864	54	6172
2026-01-25 13:19:28.19	29.32	9.92	-40.7	-41.8	22.1	0.00e+00	83	41	0	200278016	54	6266
2026-01-25 13:19:29.20	29.41	10.00	-40.6	-41.7	22.2	0.00e+00	0	41	0	202375168	54	6192
2026-01-25 13:19:30.21	29.51	10.07	-40.5	-41.6	22.2	0.00e+00	92	41	0	203423744	54	6109
2026-01-25 13:19:31.22	29.60	10.15	-40.5	-41.5	22.3	0.00e+00	0	41	0	205520896	54	6055
2026-01-25 13:19:32.23	29.70	10.22	-40.6	-41.6	22.2	0.00e+00	13	41	0	207618048	54	6140
2026-01-25 13:19:33.24	29.79	10.30	-40.5	-41.5	22.2	0.00e+00	0	41	0	209715200	54	6080
2026-01-25 13:19:34.25	29.89	10.37	-40.7	-41.7	22.0	0.00e+00	0	41	0	211812352	54	6239
2026-01-25 13:19:35.26	29.99	10.45	-40.7	-41.8	22.1	0.00e+00	86	41	0	212860928	54	6267
2026-01-25 13:19:36.27	30.08	10.52	-40.5	-41.5	22.1	0.00e+00	33	41	0	214958080	54	6054
2026-01-25 13:19:37.28	30.18	10.60	-40.6	-41.6	22.2	0.00e+00	81	41	0	217055232	54	6148
2026-01-25 13:19:38.29	30.28	10.67	-41.0	-42.1	22.0	0.00e+00	0	41	0	219152384	54	6489
2026-01-25 13:19:39.30	30.38	10.75	-40.6	-41.6	22.2	0.00e+00	0	41	0	221249536	54	6147
2026-01-25 13:19:40.30	30.47	10.83	-40.7	-41.8	22.1	0.00e+00	0	41	0	222298112	54	6255
2026-01-25 13:19:41.32	30.57	10.90	-40.5	-41.6	22.2	0.00e+00	0	41	0	224395264	54	6119
2026-01-25 13:19:42.33	30.67	10.98	-40.7	-41.8	22.1	0.00e+00	0	41	0	226492416	54	6261
2026-01-25 13:19:43.33	30.77	11.06	-40.5	-41.6	22.3	0.00e+00	0	41	0	228589568	54	6116
2026-01-25 13:19:44.34	30.87	11.13	-40.7	-41.7	22.3	0.00e+00	89	41	0	230686720	54	6231
2026-01-25 13:19:45.35	30.97	11.21	-40.9	-42.0	21.9	0.00e+00	0	41	0	231735296	54	6457
2026-01-25 13:19:46.36	31.08	11.29	-40.6	-41.7	22.3	0.00e+00	46	41	0	233832448	54	6206
2026-01-25 13:19:47.37	31.18	11.37	-40.6	-41.6	22.3	0.00e+00	0	41	0	235929600	54	6160
2026-01-25 13:19:48.38	31.28	11.44	-40.5	-41.6	22.4	0.00e+00	0	41	0	238026752	54	6114
2026-01-25 13:19:49.39	31.38	11.52	-40.5	-41.5	22.4	0.00e+00	15	41	0	240123904	54	6061
2026-01-25 13:19:50.40	31.49	11.60	-40.4	-41.4	22.5	0.00e+00	0	41	0	241172480	54	6019
2026-01-25 13:19:51.41	31.59	11.68	-40.2	-41.2	22.6	0.00e+00	92	41	0	243269632	54	5871
2026-01-25 13:19:52.42	31.70	11.76	-40.3	-41.3	22.5	0.00e+00	0	41	0	245366784	54	5952
2026-01-25 13:19:53.43	31.80	11.83	-40.4	-41.4	22.5	0.00e+00	72	41	0	247463936	54	5980
2026-01-25 13:19:54.44	31.91	11.91	-40.3	-41.3	22.6	0.00e+00	0	41	0	249561088	54	5923
2026-01-25 13:19:55.45	32.01	11.99	-40.2	-41.1	22.8	0.00e+00	0	41	0	250609664	54	5817
2026-01-25 13:19:56.45	32.12	12.07	-40.2	-41.2	22.7	0.00e+00	0	41	0	252706816	54	5884
2026-01-25 13:19:57.46	32.23	12.15	-40.2	-41.2	22.7	0.00e+00	0	41	0	254803968	54	5839
2026-01-25 13:19:58.47	32.34	12.23	-40.2	-41.2	22.7	0.00e+00	87	41	0	256901120	54	5849
2026-01-25 13:19:59.48	32.45	12.31	-40.3	-41.3	22.6	0.00e+00	0	41	0	258998272	54	5913
2026-01-25 13:20:00.49	32.55	12.39	-40.5	-41.6	22.2	0.00e+00	59	41	0	261095424	54	6118
2026-01-25 13:20:01.50	32.66	12.47	-40.5	-41.5	22.4	0.00e+00	0	41	0	262144000	54	6079
2026-01-25 13:20:02.51	32.77	12.55	-40.3	-41.3	22.6	0.00e+00	0	41	0	264241152	54	5963
2026-01-25 13:20:03.52	32.89	12.63	-40.8	-41.8	22.2	0.00e+00	0	41	0	266338304	54	6317
2026-01-25 13:20:04.53	33.00	12.71	-40.6	-41.7	22.2	0.00e+00	0	41	0	268435456	54	6198
2026-01-25 13:20:05.54	33.11	12.79	-41.1	-42.2	21.8	0.00e+00	78	41	0	270532608	54	6571
2026-01-25 13:20:06.55	33.22	12.87	-40.9	-42.0	22.0	0.00e+00	0	41	0	271581184	54	6424
2026-01-25 13:20:07.55	33.33	12.95	-41.2	-42.3	21.8	0.00e+00	62	41	0	273678336	54	6630
2026-01-25 13:20:08.56	33.45	13.03	-41.3	-42.4	21.6	0.00e+00	0	41	0	275775488	54	6727
2026-01-25 13:20:09.57	33.56	13.11	-41.2	-42.3	21.7	0.00e+00	38	41	0	277872640	54	6686
2026-01-25 13:20:10.58	33.68	13.19	-41.1	-42.2	21.8	0.00e+00	0	41	0	278921216	54	6555
2026-01-25 13:20:11.59	33.79	13.28	-41.0	-42.1	21.9	0.00e+00	0	41	0	281018368	54	6530
2026-01-25 13:20:12.60	33.91	13.36	-41.4	-42.5	21.6	0.00e+00	0	41	0	283115520	54	6799
2026-01-25 13:20:13.61	34.03	13.44	-41.0	-42.1	22.0	0.00e+00	0	41	0	285212672	54	6522
2026-01-25 13:20:14.61	34.14	13.52	-41.0	-42.1	22.0	0.00e+00	84	41	0	287309824	54	6515
2026-01-25 13:20:15.62	34.26	13.60	-40.9	-42.0	22.0	0.00e+00	0	41	0	289406976	54	6427
2026-01-25 13:20:16.63	34.38	13.69	-41.2	-42.3	21.9	0.00e+00	57	41	0	290455552	54	6641
2026-01-25 13:20:17.64	34.50	13.77	-40.9	-42.0	22.2	0.00e+00	0	41	0	292552704	54	6419
2026-01-25 13:20:18.65	34.62	13.85	-41.0	-42.1	22.2	0.00e+00	0	41	0	294649856	54	6478
2026-01-25 13:20:19.66	34.74	13.93	-41.1	-42.2	22.0	0.00e+00	0	41	0	296747008	54	6577
2026-01-25 13:20:20.67	34.86	14.02	-40.8	-41.9	22.2	0.00e+00	0	41	0	298844160	54	6325
2026-01-25 13:20:21.68	34.98	14.10	-40.8	-41.8	22.2	0.00e+00	17	41	0	299892736	54	6301
2026-01-25 13:20:22.69	35.11	14.18	-40.7	-41.7	22.4	0.00e+00	0	41	0	301989888	54	6234
2026-01-25 13:20:23.70	35.23	14.27	-40.8	-41.8	22.2	0.00e+00	91	41	0	304087040	54	6289
2026-01-25 13:20:24.71	35.35	14.35	-40.9	-41.9	22.2	0.00e+00	0	41	0	306184192	54	6352
2026-01-25 13:20:25.72	35.48	14.44	-41.0	-42.0	22.2	0.00e+00	0	41	0	308281344	54	6444
2026-01-25 13:20:26.73	35.60	14.52	-40.8	-41.8	22.3	0.00e+00	0	41	0	309329920	54	6271
2026-01-25 13:20:27.74	35.73	14.60	-40.7	-41.8	22.4	0.00e+00	0	41	0	311427072	54	6254
2026-01-25 13:20:28.75	35.86	14.69	-40.8	-41.8	22.3	0.00e+00	89	41	0	313524224	54	6271
2026-01-25 13:20:29.76	35.98	14.77	-40.7	-41.7	22.4	0.00e+00	0	41	0	315621376	54	6231
2026-01-25 13:20:30.77	36.11	14.86	-40.5	-41.5	22.5	0.00e+00	91	41	0	317718528	54	6078
2026-01-25 13:20:31.78	36.24	14.94	-40.6	-41.6	22.4	0.00e+00	0	41	0	318767104	54	6149
2026-01-25 13:20:32.79	36.37	15.03	-40.4	-41.4	22.7	0.00e+00	0	41	0	320864256	54	5993
2026-01-25 13:20:33.80	36.50	15.11	-40.5	-41.5	22.6	0.00e+00	0	41	0	322961408	54	6048
2026-01-25 13:20:34.81	36.63	15.20	-40.2	-41.2	22.9	0.00e+00	0	41	0	325058560	54	5838
2026-01-25 13:20:35.82	36.76	15.29	-40.2	-41.2	22.7	0.00e+00	73	41	0	327155712	54	5867
2026-01-25 13:20:36.83	36.90	15.37	-40.2	-41.2	22.8	0.00e+00	0	41	0	328204288	54	5847
2026-01-25 13:20:37.84	37.03	15.46	-39.9	-40.8	23.1	0.00e+00	91	41	0	330301440	54	5608
2026-01-25 13:20:38.85	37.16	15.54	-39.8	-40.7	23.2	0.00e+00	0	41	0	332398592	52	6200
2026-01-25 13:20:39.86	37.30	15.63	-40.1	-41.0	23.1	0.00e+00	0	41	0	334495744	52	6439
2026-01-25 13:20:40.87	37.43	15.72	-40.0	-41.0	22.9	0.00e+00	0	41	0	336592896	52	6398
2026-01-25 13:20:41.88	37.57	15.80	-39.8	-40.7	23.0	0.00e+00	0	41	0	337641472	52	6220
2026-01-25 13:20:42.88	37.71	15.89	-40.1	-41.1	22.9	0.00e+00	2	41	0	339738624	52	6512
2026-01-25 13:20:43.89	37.84	15.98	-39.9	-40.8	22.7	0.00e+00	0	41	0	341835776	52	6309
2026-01-25 13:20:44.90	37.98	16.06	-40.1	-41.1	22.9	0.00e+00	76	41	0	343932928	52	6470
2026-01-25 13:20:45.91	38.12	16.15	-40.3	-41.3	22.7	0.00e+00	0	41	0	346030080	52	6623
2026-01-25 13:20:46.92	38.26	16.24	-40.4	-41.4	22.7	0.00e+00	44	41	0	347078656	52	6694
2026-01-25 13:20:47.93	38.40	16.33	-40.3	-41.2	22.7	0.00e+00	0	41	0	349175808	52	6611
2026-01-25 13:20:48.94	38.54	16.41	-40.7	-41.7	22.5	0.00e+00	0	41	0	351272960	54	6200
2026-01-25 13:20:49.95	38.69	16.50	-40.5	-41.5	22.6	0.00e+00	8	41	0	353370112	54	6046
2026-01-25 13:20:50.96	38.83	16.59	-40.6	-41.6	22.5	0.00e+00	0	41	0	355467264	54	6171
2026-01-25 13:20:51.96	38.97	16.68	-40.7	-41.8	22.3	0.00e+00	92	41	0	357564416	54	6263
2026-01-25 13:20:52.97	39.12	16.77	-40.6	-41.6	22.5	0.00e+00	0	41	0	358612992	54	6157
2026-01-25 13:20:53.99	39.26	16.85	-40.8	-41.9	22.3	0.00e+00	0	41	0	360710144	54	6345
2026-01-25 13:20:54.99	39.41	16.94	-40.9	-42.0	22.3	0.00e+00	0	41	0	362807296	54	6393
2026-01-25 13:20:56.00	39.56	17.03	-40.6	-41.6	22.5	0.00e+00	0	41	0	364904448	54	6151
2026-01-25 13:20:57.01	39.71	17.12	-40.6	-41.6	22.5	0.00e+00	0	41	0	367001600	54	6112
2026-01-25 13:20:58.02	39.85	17.21	-40.7	-41.7	22.6	0.00e+00	0	41	0	368050176	54	6203
2026-01-25 13:20:59.03	40.00	17.30	-40.4	-41.4	22.6	0.00e+00	92	41	0	370147328	54	5996
2026-01-25 13:21:00.04	40.15	17.39	-40.4	-41.4	22.6	0.00e+00	0	41	0	372244480	54	6019
2026-01-25 13:21:01.05	40.31	17.48	-40.5	-41.5	22.6	0.00e+00	90	41	0	374341632	54	6076
2026-01-25 13:21:02.06	40.46	17.57	-40.4	-41.4	22.8	0.00e+00	0	41	0	376438784	54	5977
2026-01-25 13:21:03.07	40.61	17.66	-40.4	-41.4	22.7	0.00e+00	0	41	0	377487360	54	6007
2026-01-25 13:21:04.08	40.77	17.75	-40.4	-41.4	22.8	0.00e+00	0	41	0	379584512	54	6023
2026-01-25 13:21:05.08	40.92	17.84	-40.2	-41.2	23.0	0.00e+00	0	41	0	381681664	54	5834
2026-01-25 13:21:06.09	41.08	17.93	-40.2	-41.1	22.9	0.00e+00	0	41	0	383778816	54	5804
2026-01-25 13:21:07.10	41.23	18.02	-40.1	-41.0	22.9	0.00e+00	0	41	0	385875968	54	5738
2026-01-25 13:21:08.11	41.39	18.11	-40.0	-40.9	23.0	0.00e+00	46	41	0	386924544	54	5672
2026-01-25 13:21:09.12	41.55	18.20	-40.0	-40.9	23.0	0.00e+00	0	41	0	389021696	54	5695
2026-01-25 13:21:10.13	41.71	18.29	-40.0	-40.9	23.1	0.00e+00	0	41	0	391118848	54	5685
2026-01-25 13:21:11.14	41.87	18.38	-39.9	-40.9	23.1	0.00e+00	0	41	0	393216000	54	5668
2026-01-25 13:21:12.14	42.03	18.47	-39.8	-40.8	23.3	0.00e+00	33	41	0	395313152	54	5586
2026-01-25 13:21:13.15	42.19	18.56	-39.7	-40.7	23.3	0.00e+00	73	41	0	396361728	52	6195
2026-01-25 13:21:14.16	42.36	18.65	-39.6	-40.6	23.4	0.00e+00	0	41	0	398458880	52	6117
2026-01-25 13:21:15.18	42.52	18.74	-39.3	-40.2	23.6	0.00e+00	66	41	0	400556032	52	5862
2026-01-25 13:21:16.18	42.69	18.84	-39.4	-40.3	23.5	0.00e+00	0	41	0	402653184	52	5949
2026-01-25 13:21:17.19	42.85	18.93	-39.1	-40.0	23.7	0.00e+00	2	41	0	404750336	52	5709
2026-01-25 13:21:18.20	43.02	19.02	-39.1	-40.0	23.7	0.00e+00	0	41	0	405798912	52	5750
2026-01-25 13:21:19.21	43.19	19.11	-39.0	-39.9	23.9	0.00e+00	28	41	0	407896064	52	5659
2026-01-25 13:21:20.22	43.36	19.20	-38.9	-39.8	23.8	0.00e+00	2	41	0	409993216	52	5575
2026-01-25 13:21:21.23	43.53	19.29	-39.0	-39.9	23.9	0.00e+00	0	41	0	412090368	52	5634
2026-01-25 13:21:22.24	43.70	19.39	-38.9	-39.7	23.9	0.00e+00	92	41	0	414187520	52	5564
2026-01-25 13:21:23.25	43.87	19.48	-39.0	-39.9	23.9	0.00e+00	0	41	0	415236096	52	5677
2026-01-25 13:21:24.26	44.05	19.57	-39.3	-40.1	23.7	0.00e+00	92	41	0	417333248	52	5828
2026-01-25 13:21:25.26	44.22	19.66	-39.2	-40.1	23.6	0.00e+00	0	41	0	419430400	52	5788
2026-01-25 13:21:26.27	44.39	19.75	-39.2	-40.0	23.5	0.00e+00	0	41	0	421527552	52	5755
2026-01-25 13:21:27.28	44.57	19.85	-39.3	-40.2	23.6	0.00e+00	2	41	0	423624704	52	5883
2026-01-25 13:21:28.30	44.75	19.94	-39.1	-40.0	23.6	0.00e+00	0	41	0	425721856	52	5745
2026-01-25 13:21:29.30	44.93	20.03	-39.1	-39.9	23.9	0.00e+00	87	41	0	426770432	52	5685
2026-01-25 13:21:30.31	45.11	20.13	-39.3	-40.2	23.7	0.00e+00	0	41	0	428867584	52	5838
2026-01-25 13:21:31.32	45.29	20.22	-39.1	-40.0	23.9	0.00e+00	58	41	0	430964736	52	5737
2026-01-25 13:21:32.33	45.47	20.31	-38.9	-39.8	24.1	0.00e+00	30	41	0	433061888	52	5601
2026-01-25 13:21:33.34	45.65	20.40	-39.0	-39.8	24.0	0.00e+00	0	41	0	435159040	52	5621
2026-01-25 13:21:34.35	45.83	20.50	-39.2	-40.0	23.8	0.00e+00	30	41	0	436207616	52	5754
2026-01-25 13:21:35.36	46.02	20.59	-38.9	-39.7	24.0	0.00e+00	0	41	0	438304768	52	5546
2026-01-25 13:21:36.37	46.20	20.68	-39.1	-40.0	23.8	0.00e+00	80	41	0	440401920	52	5698
2026-01-25 13:21:37.38	46.39	20.78	-38.9	-39.8	24.0	0.00e+00	0	41	0	442499072	52	5603
2026-01-25 13:21:38.39	46.58	20.87	-39.0	-39.9	23.9	0.00e+00	92	41	0	444596224	52	5667
2026-01-25 13:21:39.40	46.77	20.96	-38.9	-39.8	24.0	0.00e+00	0	41	0	445644800	52	5580
2026-01-25 13:21:40.41	46.96	21.06	-38.9	-39.8	24.0	0.00e+00	0	41	0	447741952	50	6258
2026-01-25 13:21:41.42	47.15	21.15	-38.8	-39.6	24.0	0.00e+00	0	41	0	449839104	50	6171
2026-01-25 13:21:42.42	47.34	21.24	-39.1	-40.0	23.8	0.00e+00	0	41	0	451936256	50	6432
2026-01-25 13:21:43.43	47.54	21.34	-39.2	-40.1	23.9	0.00e+00	73	41	0	454033408	50	6468
2026-01-25 13:21:44.44	47.73	21.43	-39.1	-40.0	23.7	0.00e+00	0	41	0	455081984	50	6391
2026-01-25 13:21:45.45	47.93	21.52	-39.2	-40.1	23.7	0.00e+00	90	41	0	457179136	50	6528
2026-01-25 13:21:46.46	48.12	21.62	-39.0	-39.9	23.9	0.00e+00	0	41	0	459276288	50	6329
2026-01-25 13:21:47.47	48.32	21.71	-39.1	-39.9	23.9	0.00e+00	0	41	0	461373440	50	6375
2026-01-25 13:21:48.48	48.52	21.80	-38.7	-39.6	24.0	0.00e+00	0	41	0	463470592	50	6111
2026-01-25 13:21:49.48	48.72	21.90	-38.6	-39.4	24.2	0.00e+00	0	41	0	464519168	50	6033
2026-01-25 13:21:50.50	48.93	21.99	-38.4	-39.2	24.4	0.00e+00	0	41	0	466616320	50	5864
2026-01-25 13:21:51.50	49.13	22.08	-38.5	-39.4	24.3	0.00e+00	0	41	0	468713472	50	5984
2026-01-25 13:21:52.51	49.33	22.18	-38.5	-39.3	24.2	0.00e+00	68	41	0	470810624	50	5941
2026-01-25 13:21:53.52	49.54	22.27	-38.5	-39.4	24.4	0.00e+00	0	41	0	472907776	50	5970
2026-01-25 13:21:54.53	49.74	22.36	-38.2	-39.0	24.5	0.00e+00	86	41	0	473956352	50	5760
2026-01-25 13:21:55.54	49.95	22.46	-38.1	-38.9	24.5	0.00e+00	0	41	0	476053504	50	5690
2026-01-25 13:21:56.55	50.16	22.55	-38.2	-39.0	24.4	0.00e+00	0	41	0	478150656	50	5754
2026-01-25 13:21:57.56	50.37	22.64	-38.3	-39.1	24.5	0.00e+00	0	41	0	480247808	50	5791
2026-01-25 13:21:58.57	50.58	22.74	-38.3	-39.2	24.5	0.00e+00	0	41	0	482344960	50	5840
2026-01-25 13:21:59.58	50.80	22.83	-38.4	-39.3	24.3	0.00e+00	72	41	0	483393536	50	5901
2026-01-25 13:22:00.59	51.01	22.92	-38.7	-39.5	24.0	0.00e+00	0	41	0	485490688	50	6083
2026-01-25 13:22:01.60	51.23	23.02	-38.8	-39.6	24.2	0.00e+00	20	41	0	487587840	50	6157
2026-01-25 13:22:02.61	51.44	23.11	-38.7	-39.6	24.2	0.00e+00	0	41	0	489684992	50	6119
2026-01-25 13:22:03.62	51.66	23.20	-38.8	-39.7	24.1	0.00e+00	0	41	0	491782144	50	6188
2026-01-25 13:22:04.63	51.88	23.29	-38.6	-39.5	24.2	0.00e+00	0	41	0	492830720	50	6041
2026-01-25 13:22:05.63	52.10	23.39	-38.7	-39.6	24.2	0.00e+00	0	41	0	494927872	50	6133
2026-01-25 13:22:06.65	52.32	23.48	-38.5	-39.4	24.3	0.00e+00	55	41	0	497025024	50	5971
2026-01-25 13:22:07.66	52.54	23.57	-38.5	-39.3	24.3	0.00e+00	0	41	0	499122176	50	5946
2026-01-25 13:22:08.67	52.77	23.66	-38.4	-39.2	24.4	0.00e+00	90	41	0	501219328	50	5889
2026-01-25 13:22:09.67	52.99	23.76	-38.4	-39.3	24.2	0.00e+00	0	41	0	502267904	50	5915
2026-01-25 13:22:10.68	53.22	23.85	-38.6	-39.5	24.1	0.00e+00	0	41	0	504365056	50	6050
2026-01-25 13:22:11.69	53.45	23.94	-38.5	-39.4	24.2	0.00e+00	33	41	0	506462208	50	5971
2026-01-25 13:22:12.70	53.68	24.03	-38.6	-39.5	24.4	0.00e+00	0	41	0	508559360	50	6052
2026-01-25 13:22:13.71	53.91	24.12	-38.7	-39.5	24.1	0.00e+00	0	41	0	510656512	50	6083
2026-01-25 13:22:14.72	54.14	24.22	-38.9	-39.8	23.7	0.00e+00	0	41	0	511705088	50	6293
2026-01-25 13:22:15.73	54.37	24.31	-39.1	-40.0	23.9	0.00e+00	70	41	0	513802240	50	6454
2026-01-25 13:22:16.73	54.61	24.40	-39.2	-40.1	23.7	0.00e+00	0	41	0	515899392	50	6530
2026-01-25 13:22:17.74	54.84	24.49	-39.0	-39.9	23.8	0.00e+00	0	41	0	517996544	50	6343
2026-01-25 13:22:18.75	55.08	24.58	-39.7	-40.6	23.4	0.00e+00	0	41	0	520093696	50	6920
2026-01-25 13:22:19.76	55.32	24.67	-39.2	-40.1	23.8	0.00e+00	0	41	0	522190848	50	6486
2026-01-25 13:22:20.77	55.56	24.76	-39.2	-40.1	23.8	0.00e+00	1	41	0	523239424	50	6477
2026-01-25 13:22:21.77	55.80	24.85	-39.3	-40.1	23.7	0.00e+00	0	41	0	525336576	50	6535
2026-01-25 13:22:22.78	56.04	24.94	-39.4	-40.3	23.6	0.00e+00	74	41	0	527433728	50	6687
2026-01-25 13:22:23.79	56.29	25.03	-39.8	-40.8	23.4	0.00e+00	0	41	0	529530880	50	7008
2026-01-25 13:22:24.80	56.53	25.12	-39.9	-40.9	23.1	0.00e+00	0	41	0	531628032	52	6331
2026-01-25 13:22:25.81	56.78	25.21	-40.0	-40.9	23.1	0.00e+00	0	41	0	532676608	52	6381
2026-01-25 13:22:26.82	57.03	25.30	-39.9	-40.8	23.1	0.00e+00	0	41	0	534773760	52	6277
2026-01-25 13:22:27.83	57.28	25.39	-39.7	-40.7	23.2	0.00e+00	56	41	0	536870912	52	6188
2026-01-25 13:22:28.84	57.53	25.48	-39.6	-40.5	23.4	0.00e+00	0	41	0	538968064	52	6090
2026-01-25 13:22:29.85	57.78	25.56	-39.5	-40.4	23.6	0.00e+00	90	41	0	541065216	52	6005
2026-01-25 13:22:30.86	58.03	25.65	-39.5	-40.4	23.6	0.00e+00	0	41	0	542113792	52	6032
2026-01-25 13:22:31.87	58.29	25.74	-39.3	-40.2	23.7	0.00e+00	29	41	0	544210944	52	5846
2026-01-25 13:22:32.88	58.55	25.83	-39.2	-40.1	23.9	0.00e+00	33	41	0	546308096	52	5799
2026-01-25 13:22:33.89	58.80	25.92	-38.9	-39.7	24.1	0.00e+00	0	41	0	548405248	52	5546
2026-01-25 13:22:34.90	59.06	26.00	-38.8	-39.7	24.1	0.00e+00	37	41	0	550502400	52	5506
2026-01-25 13:22:35.91	59.32	26.09	-39.0	-39.8	24.0	0.00e+00	0	41	0	551550976	52	5607
2026-01-25 13:22:36.92	59.59	26.18	-38.8	-39.7	24.0	0.00e+00	92	41	0	553648128	52	5529
2026-01-25 13:22:37.93	59.85	26.26	-39.3	-40.2	23.7	0.00e+00	0	41	0	555745280	52	5875
2026-01-25 13:22:38.93	60.11	26.35	-39.6	-40.5	23.4	0.00e+00	92	41	0	557842432	52	6055
2026-01-25 13:22:39.94	60.38	26.43	-39.6	-40.5	23.4	0.00e+00	0	41	0	559939584	52	6096
2026-01-25 13:22:40.95	60.65	26.52	-39.9	-40.8	23.2	0.00e+00	6	41	0	560988160	52	6288
2026-01-25 13:22:41.96	60.92	26.60	-40.1	-41.1	23.1	0.00e+00	0	41	0	563085312	52	6467
2026-01-25 13:22:42.97	61.19	26.68	-40.1	-41.1	23.0	0.00e+00	0	41	0	565182464	52	6474
2026-01-25 13:22:43.98	61.46	26.77	-40.2	-41.1	23.0	0.00e+00	77	41	0	567279616	52	6535
2026-01-25 13:22:44.99	61.73	26.85	-40.0	-40.9	23.2	0.00e+00	0	41	0	569376768	52	6349
2026-01-25 13:22:46.00	62.01	26.93	-39.7	-40.6	23.4	0.00e+00	90	41	0	570425344	52	6124
2026-01-25 13:22:47.01	62.28	27.02	-39.5	-40.4	23.5	0.00e+00	0	41	0	572522496	52	5970
2026-01-25 13:22:48.02	62.56	27.10	-39.1	-40.0	23.8	0.00e+00	27	41	0	574619648	52	5739
2026-01-25 13:22:49.03	62.84	27.18	-39.3	-40.2	23.7	0.00e+00	0	41	0	576716800	52	5852
2026-01-25 13:22:50.03	63.12	27.26	-39.2	-40.0	23.1	0.00e+00	0	41	0	578813952	52	5753
2026-01-25 13:22:51.04	63.40	27.34	-39.4	-40.3	23.6	0.00e+00	0	41	0	579862528	52	5916
2026-01-25 13:22:52.05	63.68	27.42	-39.3	-40.2	23.7	0.00e+00	0	41	0	581959680	52	5863
2026-01-25 13:22:53.06	63.97	27.50	-39.4	-40.3	23.6	0.00e+00	92	41	0	584056832	52	5908
2026-01-25 13:22:54.07	64.26	27.58	-39.5	-40.4	23.5	0.00e+00	0	41	0	586153984	52	6000
2026-01-25 13:22:55.08	64.54	27.66	-40.0	-41.0	23.0	0.00e+00	0	41	0	588251136	52	6400
2026-01-25 13:22:56.09	64.83	27.73	-40.7	-41.8	22.6	0.00e+00	0	41	0	590348288	52	7044
2026-01-25 13:22:57.09	65.12	27.81	-41.0	-42.1	22.2	0.00e+00	0	41	0	591396864	54	6504
2026-01-25 13:22:58.11	65.41	27.89	-40.8	-41.8	22.4	0.00e+00	69	41	0	593494016	54	6259
2026-01-25 13:22:59.11	65.70	27.96	-40.5	-41.5	22.7	0.00e+00	0	41	0	595591168	54	6035
2026-01-25 13:23:00.12	66.00	28.04	-40.0	-40.9	23.1	0.00e+00	49	41	0	597688320	54	5678
2026-01-25 13:23:01.13	66.29	28.11	-39.3	-40.1	23.7	0.00e+00	0	41	0	598736896	52	5816
2026-01-25 13:23:02.15	66.59	28.19	-39.1	-40.0	23.8	0.00e+00	49	41	0	600834048	52	5734
2026-01-25 13:23:03.15	66.89	28.26	-39.5	-40.4	23.6	0.00e+00	0	41	0	602931200	52	5975
2026-01-25 13:23:04.16	67.19	28.33	-39.7	-40.6	23.3	0.00e+00	0	41	0	605028352	52	6156
2026-01-25 13:23:05.18	67.49	28.41	-39.9	-40.9	23.1	0.00e+00	2	41	0	607125504	52	6346
2026-01-25 13:23:06.18	67.79	28.48	-40.2	-41.1	23.0	0.00e+00	6	41	0	608174080	52	6521
2026-01-25 13:23:07.19	68.10	28.55	-40.3	-41.2	23.0	0.00e+00	84	41	0	610271232	52	6591
2026-01-25 13:23:08.20	68.40	28.62	-40.1	-41.1	23.0	0.00e+00	0	41	0	612368384	52	6487
2026-01-25 13:23:09.21	68.71	28.69	-40.0	-41.0	23.0	0.00e+00	91	41	0	614465536	52	6406
2026-01-25 13:23:10.22	69.02	28.76	-40.2	-41.2	22.7	0.00e+00	0	41	0	616562688	52	6557
2026-01-25 13:23:11.23	69.33	28.83	-40.1	-41.1	23.0	0.00e+00	27	41	0	618659840	52	6500
2026-01-25 13:23:12.24	69.64	28.89	-40.1	-41.1	23.0	0.00e+00	3	41	0	619708416	52	6483
2026-01-25 13:23:13.25	69.95	28.96	-40.3	-41.2	22.9	0.00e+00	0	41	0	621805568	52	6604
2026-01-25 13:23:14.25	70.26	29.03	-40.2	-41.1	23.0	0.00e+00	45	41	0	623902720	52	6513
2026-01-25 13:23:15.27	70.57	29.09	-40.6	-41.6	22.6	0.00e+00	0	41	0	625999872	52	6872
2026-01-25 13:23:16.28	70.89	29.16	-40.9	-41.9	22.3	0.00e+00	88	42	0	628097024	54	6388
2026-01-25 13:23:17.29	71.21	29.22	-41.4	-42.4	21.7	0.00e+00	0	41	0	629145600	54	6740
2026-01-25 13:23:18.30	71.52	29.28	-41.7	-42.9	21.5	0.00e+00	4	41	0	631242752	56	6328
2026-01-25 13:23:19.30	71.84	29.35	-41.6	-42.7	21.6	0.00e+00	0	41	0	633339904	56	6229
2026-01-25 13:23:20.31	72.16	29.41	-41.4	-42.5	21.7	0.00e+00	0	41	0	635437056	56	6073
2026-01-25 13:23:21.32	72.48	29.47	-41.3	-42.3	22.0	0.00e+00	1	41	0	637534208	56	5957
2026-01-25 13:23:22.33	72.81	29.53	-41.1	-42.2	22.1	0.00e+00	0	41	0	638582784	56	5832
2026-01-25 13:23:23.34	73.13	29.59	-41.5	-42.6	21.8	0.00e+00	88	41	0	640679936	56	6142
2026-01-25 13:23:24.35	73.45	29.64	-41.9	-43.0	21.4	0.00e+00	0	41	0	642777088	56	6408
2026-01-25 13:23:25.36	73.78	29.70	-42.3	-43.5	21.0	0.00e+00	33	41	0	644874240	56	6820
2026-01-25 13:23:26.37	74.11	29.76	-42.5	-43.7	20.6	0.00e+00	0	42	0	646971392	56	6975
2026-01-25 13:23:27.38	74.44	29.81	-42.6	-43.9	20.8	0.00e+00	0	41	0	648019968	58	6368
2026-01-25 13:23:28.38	74.76	29.87	-42.3	-43.5	21.0	0.00e+00	54	41	0	650117120	58	6094
2026-01-25 13:23:29.39	75.09	29.92	-41.5	-42.5	21.8	0.00e+00	0	41	0	652214272	56	6095
2026-01-25 13:23:30.40	75.43	29.97	-41.1	-42.1	22.2	0.00e+00	84	41	0	654311424	56	5807
2026-01-25 13:23:31.41	75.76	30.03	-40.6	-41.6	22.7	0.00e+00	0	41	0	656408576	54	6107
2026-01-25 13:23:32.42	76.09	30.08	-40.9	-42.0	22.2	0.00e+00	45	41	0	657457152	54	6399
2026-01-25 13:23:33.43	76.43	30.13	-41.7	-42.9	21.4	0.00e+00	0	41	0	659554304	54	7096
2026-01-25 13:23:34.43	76.76	30.17	-42.1	-43.3	21.2	0.00e+00	0	41	0	661651456	56	6663
2026-01-25 13:23:35.44	77.10	30.22	-42.0	-43.1	21.2	0.00e+00	0	41	0	663748608	56	6502
2026-01-25 13:23:36.45	77.43	30.27	-41.7	-42.8	21.6	0.00e+00	0	41	0	665845760	56	6299
2026-01-25 13:23:37.45	77.77	30.31	-41.4	-42.4	22.0	0.00e+00	88	41	0	666894336	56	6011
2026-01-25 13:23:38.47	78.11	30.36	-41.4	-42.5	21.9	0.00e+00	0	41	0	668991488	56	6087
2026-01-25 13:23:39.48	78.45	30.40	-41.6	-42.8	21.7	0.00e+00	92	41	0	671088640	56	6246
2026-01-25 13:23:40.48	78.79	30.45	-41.6	-42.7	21.7	0.00e+00	0	42	0	673185792	56	6190
2026-01-25 13:23:41.50	79.14	30.49	-41.1	-42.1	22.2	0.00e+00	0	41	0	675282944	56	5825
2026-01-25 13:23:42.51	79.48	30.53	-40.7	-41.7	22.3	0.00e+00	17	41	0	676331520	54	6234
2026-01-25 13:23:43.51	79.82	30.57	-40.3	-41.2	22.9	0.00e+00	0	41	0	678428672	54	5875
2026-01-25 13:23:44.53	80.17	30.61	-40.6	-41.7	22.6	0.00e+00	87	41	0	680525824	54	6178
2026-01-25 13:23:45.53	80.51	30.64	-41.1	-42.1	22.3	0.00e+00	0	41	0	682622976	54	6514
2026-01-25 13:23:46.54	80.86	30.68	-41.1	-42.2	22.1	0.00e+00	86	42	0	684720128	54	6541
2026-01-25 13:23:47.55	81.21	30.72	-41.1	-42.1	22.1	0.00e+00	0	41	0	686817280	54	6525
2026-01-25 13:23:48.56	81.56	30.75	-40.4	-41.3	22.8	0.00e+00	0	42	0	687865856	54	5962
2026-01-25 13:23:49.57	81.90	30.78	-40.1	-41.1	23.0	0.00e+00	0	42	0	689963008	54	5793
2026-01-25 13:23:50.58	82.25	30.82	-40.2	-41.2	22.9	0.00e+00	0	41	0	692060160	54	5845
2026-01-25 13:23:51.59	82.60	30.85	-40.0	-41.0	23.0	0.00e+00	0	42	0	694157312	54	5716
2026-01-25 13:23:52.60	82.96	30.88	-39.7	-40.7	23.3	0.00e+00	0	42	0	696254464	52	6175
2026-01-25 13:23:53.61	83.31	30.91	-39.3	-40.2	23.6	0.00e+00	91	42	0	697303040	52	5883
2026-01-25 13:23:54.61	83.66	30.93	-39.0	-39.9	23.8	0.00e+00	33	41	0	699400192	52	5670
2026-01-25 13:23:55.62	84.01	30.96	-38.7	-39.5	24.2	0.00e+00	0	41	0	701497344	52	5426
2026-01-25 13:23:56.63	84.36	30.98	-39.1	-40.0	23.8	0.00e+00	0	41	0	703594496	50	6404
2026-01-25 13:23:57.65	84.72	31.01	-39.5	-40.3	23.4	0.00e+00	0	41	0	705691648	50	6690
2026-01-25 13:23:58.66	85.07	31.03	-40.1	-41.1	23.0	0.00e+00	0	41	0	706740224	52	6475
2026-01-25 13:23:59.66	85.43	31.05	-40.6	-41.7	22.5	0.00e+00	0	41	0	708837376	52	6941
2026-01-25 13:24:00.67	85.78	31.07	-41.0	-42.0	22.2	0.00e+00	89	41	0	710934528	54	6462
2026-01-25 13:24:01.68	86.14	31.09	-41.1	-42.2	22.2	0.00e+00	2	41	0	713031680	54	6576
2026-01-25 13:24:02.69	86.49	31.11	-40.8	-41.9	22.3	0.00e+00	0	42	0	715128832	54	6348
2026-01-25 13:24:03.70	86.85	31.13	-40.9	-42.0	22.3	0.00e+00	0	42	0	716177408	54	6402
2026-01-25 13:24:04.71	87.21	31.15	-41.0	-42.0	22.2	0.00e+00	0	42	0	718274560	54	6456
2026-01-25 13:24:05.72	87.56	31.16	-41.0	-42.1	22.1	0.00e+00	1	42	0	720371712	54	6490
2026-01-25 13:24:06.73	87.92	31.17	-41.2	-42.3	22.0	0.00e+00	0	42	0	722468864	54	6677
2026-01-25 13:24:07.74	88.28	31.19	-40.8	-41.9	22.3	0.00e+00	92	42	0	724566016	54	6321
2026-01-25 13:24:08.75	88.64	31.20	-40.1	-41.1	23.0	0.00e+00	0	41	0	725614592	54	5780
2026-01-25 13:24:09.76	89.00	31.21	-40.0	-40.9	23.1	0.00e+00	14	41	0	727711744	54	5683
2026-01-25 13:24:10.76	89.35	31.22	-39.8	-40.7	23.1	0.00e+00	0	41	0	729808896	52	6224
2026-01-25 13:24:11.78	89.71	31.22	-40.4	-41.3	22.8	0.00e+00	0	42	0	731906048	52	6692
2026-01-25 13:24:12.79	90.07	31.23	-40.3	-41.3	22.8	0.00e+00	0	41	0	734003200	52	6625
2026-01-25 13:24:13.79	90.43	31.23	-40.0	-40.9	23.1	0.00e+00	0	41	0	735051776	52	6353
2026-01-25 13:24:14.81	90.79	31.24	-39.6	-40.6	23.3	0.00e+00	37	42	0	737148928	52	6104
2026-01-25 13:24:15.81	91.15	31.24	-39.5	-40.4	23.6	0.00e+00	0	42	0	739246080	52	5977
2026-01-25 13:24:16.82	91.51	31.24	-39.4	-40.3	23.5	0.00e+00	92	41	0	741343232	52	5926
2026-01-25 13:24:17.83	91.87	31.24	-40.1	-41.0	23.0	0.00e+00	0	41	0	743440384	52	6459
2026-01-25 13:24:18.84	92.22	31.24	-40.8	-41.8	22.5	0.00e+00	0	42	0	744488960	52	7024
2026-01-25 13:24:19.85	92.58	31.24	-41.1	-42.2	22.0	0.00e+00	0	41	0	746586112	54	6551
2026-01-25 13:24:20.86	92.94	31.24	-40.8	-41.9	22.3	0.00e+00	0	41	0	748683264	54	6340
2026-01-25 13:24:21.87	93.30	31.23	-40.8	-41.8	22.4	0.00e+00	92	41	0	750780416	54	6267
2026-01-25 13:24:22.88	93.66	31.23	-40.7	-41.8	22.2	0.00e+00	0	41	0	752877568	54	6263
2026-01-25 13:24:23.89	94.02	31.22	-41.0	-42.1	22.0	0.00e+00	92	42	0	753926144	54	6517
2026-01-25 13:24:24.90	94.38	31.21	-41.1	-42.2	21.9	0.00e+00	5	42	0	756023296	54	6587
2026-01-25 13:24:25.91	94.74	31.20	-40.9	-42.0	22.1	0.00e+00	0	41	0	758120448	54	6443
2026-01-25 13:24:26.92	95.10	31.19	-40.7	-41.7	22.6	0.00e+00	0	42	0	760217600	54	6217
2026-01-25 13:24:27.93	95.45	31.18	-40.0	-41.0	22.5	0.00e+00	0	41	0	762314752	54	5699
2026-01-25 13:24:28.94	95.81	31.16	-39.8	-40.8	23.1	0.00e+00	4	42	0	764411904	52	6271
2026-01-25 13:24:29.95	96.17	31.15	-40.0	-41.0	22.8	0.00e+00	0	41	0	765460480	52	6404
2026-01-25 13:24:30.96	96.53	31.13	-40.2	-41.2	22.7	0.00e+00	92	41	0	767557632	52	6557
2026-01-25 13:24:31.97	96.88	31.12	-40.4	-41.3	22.8	0.00e+00	0	42	0	769654784	52	6688
2026-01-25 13:24:32.98	97.24	31.10	-39.8	-40.8	23.2	0.00e+00	0	41	0	771751936	52	6265
2026-01-25 13:24:33.99	97.60	31.08	-39.6	-40.6	23.3	0.00e+00	0	41	0	773849088	52	6116
2026-01-25 13:24:34.99	97.95	31.06	-39.5	-40.4	23.5	0.00e+00	0	42	0	774897664	52	5983
2026-01-25 13:24:36.00	98.30	31.04	-39.4	-40.3	23.5	0.00e+00	69	42	0	776994816	52	5928
2026-01-25 13:24:37.01	98.66	31.02	-39.8	-40.8	23.1	0.00e+00	0	41	0	779091968	52	6259
2026-01-25 13:24:38.02	99.01	30.99	-40.7	-41.7	22.4	0.00e+00	89	42	0	781189120	52	6957
2026-01-25 13:24:39.03	99.37	30.97	-41.0	-42.0	22.1	0.00e+00	5	42	0	783286272	54	6458
2026-01-25 13:24:40.04	99.72	30.94	-41.2	-42.3	21.9	0.00e+00	0	41	0	784334848	54	6677
2026-01-25 13:24:41.05	100.07	30.91	-41.4	-42.5	21.7	0.00e+00	0	41	0	786432000	54	6808
2026-01-25 13:24:42.06	100.43	30.89	-41.5	-42.7	21.5	0.00e+00	0	41	0	788529152	54	6970
2026-01-25 13:24:43.06	100.77	30.86	-41.9	-43.1	21.3	0.00e+00	0	41	0	790626304	56	6492
2026-01-25 13:24:44.07	101.13	30.83	-41.7	-42.9	21.5	0.00e+00	0	41	0	792723456	56	6373
2026-01-25 13:24:45.08	101.48	30.79	-41.5	-42.7	21.8	0.00e+00	91	41	0	793772032	56	6211
2026-01-25 13:24:46.09	101.82	30.76	-41.1	-42.2	22.1	0.00e+00	0	41	0	795869184	56	5843
2026-01-25 13:24:47.10	102.17	30.73	-41.4	-42.5	21.6	0.00e+00	64	41	0	797966336	56	6095
2026-01-25 13:24:48.11	102.52	30.69	-42.1	-43.3	21.1	0.00e+00	0	41	0	800063488	56	6664
2026-01-25 13:24:49.12	102.87	30.66	-43.0	-44.4	20.1	0.00e+00	0	41	0	802160640	58	6766
2026-01-25 13:24:50.13	103.22	30.62	-43.6	-45.1	19.5	0.00e+00	9	41	0	803209216	58	7261
2026-01-25 13:24:51.14	103.56	30.58	-43.2	-44.6	20.0	0.00e+00	0	41	0	805306368	60	6122
2026-01-25 13:24:52.15	103.91	30.54	-42.3	-43.5	20.9	0.00e+00	74	41	0	807403520	58	6099
2026-01-25 13:24:53.16	104.25	30.50	-41.7	-42.9	21.4	0.00e+00	4	41	0	809500672	58	5654
2026-01-25 13:24:54.17	104.59	30.46	-41.5	-42.6	21.7	0.00e+00	91	41	0	811597824	56	6117
2026-01-25 13:24:55.17	104.93	30.42	-41.8	-43.0	21.4	0.00e+00	33	41	0	812646400	56	6413
2026-01-25 13:24:56.18	105.28	30.37	-41.8	-43.0	21.4	0.00e+00	6	41	0	814743552	56	6413
2026-01-25 13:24:57.19	105.62	30.33	-41.6	-42.8	21.5	0.00e+00	0	41	0	816840704	56	6258
2026-01-25 13:24:58.20	105.96	30.28	-41.5	-42.6	21.6	0.00e+00	0	41	0	818937856	56	6147
2026-01-25 13:24:59.21	106.29	30.24	-41.1	-42.1	22.2	0.00e+00	6	41	0	821035008	56	5820
2026-01-25 13:25:00.22	106.63	30.19	-41.3	-42.4	21.9	0.00e+00	0	41	0	822083584	56	6021
2026-01-25 13:25:01.23	106.97	30.14	-42.0	-43.2	21.1	0.00e+00	90	41	0	824180736	56	6598
2026-01-25 13:25:02.24	107.31	30.09	-42.2	-43.5	20.7	0.00e+00	0	41	0	826277888	56	6805
2026-01-25 13:25:03.25	107.64	30.04	-42.5	-43.8	20.7	0.00e+00	0	41	0	828375040	56	7043
2026-01-25 13:25:04.26	107.97	29.99	-42.3	-43.6	20.8	0.00e+00	0	41	0	830472192	56	6872
2026-01-25 13:25:05.27	108.31	29.94	-42.1	-43.3	21.3	0.00e+00	0	41	0	831520768	56	6673
2026-01-25 13:25:06.27	108.63	29.88	-42.0	-43.2	21.2	0.00e+00	21	41	0	833617920	56	6599
2026-01-25 13:25:07.28	108.97	29.83	-41.9	-43.1	21.4	0.00e+00	0	41	0	835715072	56	6480
2026-01-25 13:25:08.29	109.30	29.77	-41.8	-42.9	21.4	0.00e+00	90	41	0	837812224	56	6386
2026-01-25 13:25:09.30	109.62	29.72	-41.6	-42.8	21.7	0.00e+00	0	41	0	839909376	56	6247
2026-01-25 13:25:10.31	109.95	29.66	-41.2	-42.3	22.0	0.00e+00	0	41	0	840957952	56	5898
2026-01-25 13:25:11.32	110.28	29.60	-40.3	-41.3	22.7	0.00e+00	0	41	0	843055104	54	5937
2026-01-25 13:25:12.33	110.60	29.54	-40.2	-41.2	22.8	0.00e+00	0	41	0	845152256	54	5851
2026-01-25 13:25:13.34	110.93	29.48	-40.5	-41.5	22.5	0.00e+00	0	41	0	847249408	54	6038
2026-01-25 13:25:14.35	111.25	29.42	-41.4	-42.5	21.7	0.00e+00	0	41	0	849346560	54	6808
2026-01-25 13:25:15.36	111.57	29.36	-41.9	-43.1	21.2	0.00e+00	92	41	0	850395136	56	6467
2026-01-25 13:25:16.37	111.89	29.30	-42.4	-43.7	20.8	0.00e+00	0	41	0	852492288	56	6939
2026-01-25 13:25:17.38	112.21	29.24	-42.1	-43.3	21.1	0.00e+00	5	41	0	854589440	56	6672
2026-01-25 13:25:18.39	112.53	29.17	-42.0	-43.3	21.2	0.00e+00	0	41	0	856686592	56	6625
2026-01-25 13:25:19.39	112.84	29.11	-42.0	-43.2	21.2	0.00e+00	0	41	0	858783744	56	6545
2026-01-25 13:25:20.40	113.16	29.04	-42.3	-43.5	20.9	0.00e+00	0	41	0	860880896	56	6831
2026-01-25 13:25:21.41	113.47	28.98	-42.5	-43.8	20.9	0.00e+00	0	41	0	861929472	56	7065
2026-01-25 13:25:22.42	113.78	28.91	-42.0	-43.2	21.1	0.00e+00	92	41	0	864026624	56	6582
2026-01-25 13:25:23.43	114.09	28.84	-41.9	-43.0	21.5	0.00e+00	5	41	0	866123776	56	6457
2026-01-25 13:25:24.44	114.40	28.78	-41.0	-42.0	22.2	0.00e+00	18	41	0	868220928	56	5745
2026-01-25 13:25:25.45	114.71	28.71	-40.1	-41.1	22.9	0.00e+00	0	41	0	870318080	54	5792
2026-01-25 13:25:26.46	115.02	28.64	-40.4	-41.4	22.6	0.00e+00	0	41	0	871366656	54	6009
2026-01-25 13:25:27.46	115.32	28.57	-41.0	-42.1	22.0	0.00e+00	0	41	0	873463808	54	6503
2026-01-25 13:25:28.47	115.63	28.50	-42.1	-43.3	21.1	0.00e+00	0	41	0	875560960	56	6650
2026-01-25 13:25:29.48	115.93	28.42	-43.3	-44.8	19.7	0.00e+00	19	41	0	877658112	58	7066
2026-01-25 13:25:30.49	116.24	28.35	-44.0	-45.6	19.0	0.00e+00	0	41	0	879755264	60	6912
2026-01-25 13:25:31.50	116.54	28.28	-44.1	-45.8	18.8	0.00e+00	92	41	0	880803840	60	7064
2026-01-25 13:25:32.51	116.84	28.20	-43.6	-45.0	19.5	0.00e+00	0	41	0	882900992	60	6448
2026-01-25 13:25:33.52	117.13	28.13	-43.2	-44.6	20.0	0.00e+00	0	41	0	884998144	60	6141
2026-01-25 13:25:34.53	117.43	28.05	-43.3	-44.8	19.8	0.00e+00	0	41	0	887095296	60	6261
2026-01-25 13:25:35.54	117.73	27.98	-43.1	-44.4	20.1	0.00e+00	0	41	0	889192448	60	6033
2026-01-25 13:25:36.55	118.02	27.90	-42.8	-44.1	20.5	0.00e+00	90	41	0	890241024	60	5814
2026-01-25 13:25:37.56	118.31	27.83	-42.4	-43.6	20.6	0.00e+00	33	41	0	892338176	58	6157
2026-01-25 13:25:38.57	118.61	27.75	-42.3	-43.6	20.9	0.00e+00	92	41	0	894435328	58	6109
2026-01-25 13:25:39.57	118.89	27.67	-42.0	-43.1	21.2	0.00e+00	0	41	0	896532480	58	5824
2026-01-25 13:25:40.58	119.18	27.59	-42.2	-43.5	20.7	0.00e+00	0	41	0	898629632	58	6041
2026-01-25 13:25:41.59	119.47	27.51	-43.3	-44.8	19.7	0.00e+00	0	41	0	899678208	58	7061
2026-01-25 13:25:42.59	119.75	27.43	-44.1	-45.8	18.8	0.00e+00	0	41	0	901775360	60	7055
2026-01-25 13:25:43.60	120.04	27.35	-43.9	-45.6	19.0	0.00e+00	0	41	0	903872512	60	6860
2026-01-25 13:25:44.61	120.32	27.27	-43.4	-44.8	19.8	0.00e+00	0	41	0	905969664	60	6299
2026-01-25 13:25:45.62	120.60	27.19	-42.8	-44.1	20.4	0.00e+00	84	41	0	908066816	60	5785
2026-01-25 13:25:46.63	120.88	27.11	-42.2	-43.4	20.7	0.00e+00	0	41	0	909115392	58	6033
2026-01-25 13:25:47.64	121.16	27.03	-42.5	-43.8	20.4	0.00e+00	0	41	0	911212544	58	6246
2026-01-25 13:25:48.65	121.44	26.95	-43.2	-44.6	19.8	0.00e+00	0	41	0	913309696	58	6911
2026-01-25 13:25:49.66	121.72	26.86	-43.3	-44.8	19.5	0.00e+00	0	41	0	915406848	58	7046
2026-01-25 13:25:50.67	121.99	26.78	-43.8	-45.4	19.1	0.00e+00	17	41	0	917504000	60	6745
2026-01-25 13:25:51.68	122.26	26.70	-43.1	-44.6	20.0	0.00e+00	33	41	0	918552576	60	6112
2026-01-25 13:25:52.68	122.53	26.61	-42.5	-43.8	20.5	0.00e+00	86	41	0	920649728	58	6263
2026-01-25 13:25:53.69	122.80	26.53	-42.2	-43.4	20.8	0.00e+00	0	41	0	922746880	58	6030
2026-01-25 13:25:54.70	123.07	26.44	-42.2	-43.4	20.7	0.00e+00	92	41	0	924844032	58	6015
2026-01-25 13:25:55.71	123.34	26.36	-43.0	-44.4	20.0	0.00e+00	0	41	0	926941184	58	6758
2026-01-25 13:25:56.72	123.61	26.27	-43.4	-44.9	19.6	0.00e+00	0	41	0	927989760	58	7118
2026-01-25 13:25:57.73	123.87	26.19	-44.0	-45.7	18.9	0.00e+00	0	41	0	930086912	60	6946
2026-01-25 13:25:58.74	124.13	26.10	-43.1	-44.5	20.2	0.00e+00	0	41	0	932184064	60	6082
2026-01-25 13:25:59.74	124.39	26.01	-42.1	-43.4	20.9	0.00e+00	85	41	0	934281216	58	5967
2026-01-25 13:26:00.75	124.65	25.93	-41.6	-42.8	21.5	0.00e+00	0	41	0	936378368	56	6281
2026-01-25 13:26:01.77	124.92	25.84	-41.4	-42.6	21.6	0.00e+00	92	41	0	937426944	56	6126
2026-01-25 13:26:02.77	125.17	25.75	-41.8	-43.1	21.3	0.00e+00	0	41	0	939524096	56	6491
2026-01-25 13:26:03.78	125.43	25.66	-42.5	-43.8	20.4	0.00e+00	0	41	0	941621248	56	7082
2026-01-25 13:26:04.79	125.68	25.57	-43.2	-44.8	19.5	0.00e+00	0	41	0	943718400	58	7045
2026-01-25 13:26:05.80	125.94	25.48	-42.8	-44.3	20.1	0.00e+00	0	41	0	945815552	58	6647
2026-01-25 13:26:06.81	126.19	25.40	-42.4	-43.7	20.5	0.00e+00	92	41	0	946864128	58	6232
2026-01-25 13:26:07.82	126.44	25.31	-41.8	-43.0	21.2	0.00e+00	0	41	0	948961280	58	5725
2026-01-25 13:26:08.83	126.69	25.22	-41.9	-43.1	21.1	0.00e+00	67	41	0	951058432	56	6538
2026-01-25 13:26:09.84	126.94	25.13	-42.6	-43.9	20.5	0.00e+00	0	41	0	953155584	56	7095
2026-01-25 13:26:10.85	127.19	25.04	-43.1	-44.5	19.9	0.00e+00	0	41	0	955252736	58	6823
2026-01-25 13:26:11.86	127.43	24.95	-44.0	-45.8	18.8	0.00e+00	0	41	0	957349888	60	7015
2026-01-25 13:26:12.87	127.68	24.86	-44.6	-46.4	18.4	0.00e+00	0	41	0	958398464	60	7581
2026-01-25 13:26:13.88	127.92	24.77	-43.9	-45.6	19.2	0.00e+00	64	41	0	960495616	60	6879
2026-01-25 13:26:14.88	128.16	24.67	-43.0	-44.5	20.2	0.00e+00	4	41	0	962592768	60	6045
2026-01-25 13:26:15.89	128.40	24.58	-42.0	-43.2	21.1	0.00e+00	92	41	0	964689920	58	5850
2026-01-25 13:26:16.90	128.64	24.49	-41.2	-42.2	21.9	0.00e+00	0	41	0	966787072	56	5896
2026-01-25 13:26:17.91	128.87	24.40	-40.5	-41.5	22.3	0.00e+00	0	41	0	967835648	54	6074
2026-01-25 13:26:18.92	129.11	24.31	-41.1	-42.2	21.7	0.00e+00	0	41	0	969932800	54	6577
2026-01-25 13:26:19.93	129.34	24.22	-42.0	-43.2	21.0	0.00e+00	0	41	0	972029952	56	6579
2026-01-25 13:26:20.94	129.58	24.12	-42.4	-43.8	20.5	0.00e+00	86	41	0	974127104	56	7009
2026-01-25 13:26:21.95	129.81	24.03	-42.3	-43.6	20.7	0.00e+00	3	41	0	976224256	56	6916
2026-01-25 13:26:22.95	130.04	23.94	-41.5	-42.6	21.7	0.00e+00	86	41	0	977272832	56	6140
2026-01-25 13:26:23.97	130.27	23.85	-40.8	-41.9	22.2	0.00e+00	0	41	0	979369984	54	6334
2026-01-25 13:26:24.97	130.49	23.76	-40.5	-41.5	22.4	0.00e+00	1	41	0	981467136	54	6102
2026-01-25 13:26:25.98	130.72	23.66	-40.7	-41.7	22.3	0.00e+00	0	41	0	983564288	54	6221
2026-01-25 13:26:26.99	130.95	23.57	-41.4	-42.5	21.5	0.00e+00	0	41	0	985661440	54	6814
2026-01-25 13:26:28.00	131.17	23.48	-41.7	-43.0	21.3	0.00e+00	55	41	0	986710016	54	7171
2026-01-25 13:26:29.01	131.39	23.38	-41.7	-42.9	21.3	0.00e+00	4	41	0	988807168	56	6379
2026-01-25 13:26:30.02	131.61	23.29	-41.3	-42.4	21.7	0.00e+00	27	41	0	990904320	56	6027
2026-01-25 13:26:31.03	131.84	23.20	-40.8	-41.9	22.1	0.00e+00	0	41	0	993001472	56	5650
2026-01-25 13:26:32.04	132.05	23.10	-40.8	-41.9	22.2	0.00e+00	90	41	0	995098624	54	6348
2026-01-25 13:26:33.05	132.27	23.01	-40.7	-41.7	22.3	0.00e+00	0	41	0	996147200	54	6208
2026-01-25 13:26:34.06	132.49	22.92	-41.3	-42.4	21.6	0.00e+00	0	41	0	998244352	54	6724
2026-01-25 13:26:35.07	132.70	22.82	-41.6	-42.8	21.2	0.00e+00	0	41	0	1000341504	54	7066
2026-01-25 13:26:36.07	132.92	22.73	-42.2	-43.5	20.8	0.00e+00	0	41	0	1002438656	56	6811
2026-01-25 13:26:37.08	133.13	22.64	-42.5	-43.8	20.6	0.00e+00	0	41	0	1004535808	56	7042
2026-01-25 13:26:38.09	133.34	22.54	-42.1	-43.3	21.0	0.00e+00	0	41	0	1005584384	56	6671
2026-01-25 13:26:39.10	133.55	22.45	-41.7	-42.9	21.2	0.00e+00	68	41	0	1007681536	56	6384
2026-01-25 13:26:40.11	133.76	22.35	-41.2	-42.3	21.9	0.00e+00	0	41	0	1009778688	56	5926
2026-01-25 13:26:41.12	133.97	22.26	-40.8	-41.8	22.1	0.00e+00	0	41	0	1011875840	56	5595
2026-01-25 13:26:42.13	134.17	22.17	-41.0	-42.1	21.7	0.00e+00	0	41	0	1013972992	56	5795
2026-01-25 13:26:43.14	134.38	22.07	-41.1	-42.2	21.9	0.00e+00	0	41	0	1015021568	56	5855
2026-01-25 13:26:44.15	134.58	21.98	-41.3	-42.4	21.8	0.00e+00	51	41	0	1017118720	56	5967
2026-01-25 13:26:45.16	134.78	21.88	-41.4	-42.6	21.7	0.00e+00	0	41	0	1019215872	56	6109
2026-01-25 13:26:46.17	134.99	21.79	-41.3	-42.4	21.7	0.00e+00	70	41	0	1021313024	56	5978
2026-01-25 13:26:47.18	135.19	21.70	-41.1	-42.1	22.0	0.00e+00	0	41	0	1023410176	56	5810
2026-01-25 13:26:48.18	135.38	21.60	-40.5	-41.5	22.4	0.00e+00	0	41	0	1024458752	54	6096
2026-01-25 13:26:49.19	135.58	21.51	-40.2	-41.2	22.7	0.00e+00	0	41	0	1026555904	54	5888
2026-01-25 13:26:50.20	135.78	21.41	-40.1	-41.1	22.7	0.00e+00	2	41	0	1028653056	54	5818
2026-01-25 13:26:51.21	135.97	21.32	-40.3	-41.3	22.6	0.00e+00	0	41	0	1030750208	54	5923
2026-01-25 13:26:52.22	136.17	21.23	-40.6	-41.6	22.4	0.00e+00	29	41	0	1032847360	54	6143
2026-01-25 13:26:53.23	136.36	21.13	-40.8	-41.9	22.0	0.00e+00	92	41	0	1033895936	54	6323
2026-01-25 13:26:54.24	136.56	21.04	-40.8	-42.0	22.0	0.00e+00	0	41	0	1035993088	54	6405
2026-01-25 13:26:55.25	136.75	20.94	-40.3	-41.4	22.5	0.00e+00	0	41	0	1038090240	54	5999
2026-01-25 13:26:56.26	136.94	20.85	-40.2	-41.2	22.7	0.00e+00	0	41	0	1040187392	54	5843
2026-01-25 13:26:57.27	137.13	20.76	-40.0	-41.0	22.8	0.00e+00	0	41	0	1042284544	54	5719
2026-01-25 13:26:58.28	137.31	20.66	-39.3	-40.2	23.4	0.00e+00	0	41	0	1043333120	52	5855
2026-01-25 13:26:59.29	137.50	20.57	-39.1	-40.0	23.6	0.00e+00	0	41	0	1045430272	52	5736
2026-01-25 13:27:00.29	137.68	20.48	-39.1	-40.0	23.6	0.00e+00	89	41	0	1047527424	52	5711
2026-01-25 13:27:01.30	137.87	20.38	-39.5	-40.4	23.2	0.00e+00	0	41	0	1049624576	52	6028
2026-01-25 13:27:02.31	138.05	20.29	-39.7	-40.7	23.0	0.00e+00	53	41	0	1051721728	52	6209
2026-01-25 13:27:03.32	138.23	20.20	-40.2	-41.2	22.7	0.00e+00	0	41	0	1053818880	52	6575
2026-01-25 13:27:04.33	138.42	20.10	-40.4	-41.4	22.5	0.00e+00	0	41	0	1054867456	52	6722
2026-01-25 13:27:05.34	138.60	20.01	-40.4	-41.5	22.4	0.00e+00	0	41	0	1056964608	52	6778
2026-01-25 13:27:06.35	138.78	19.92	-40.4	-41.4	22.5	0.00e+00	0	41	0	1059061760	52	6722
2026-01-25 13:27:07.36	138.95	19.82	-40.2	-41.3	22.6	0.00e+00	77	41	0	1061158912	52	6627
2026-01-25 13:27:08.37	139.13	19.73	-40.0	-41.0	22.8	0.00e+00	0	41	0	1063256064	52	6419
2026-01-25 13:27:09.38	139.31	19.64	-40.1	-41.1	22.9	0.00e+00	92	41	0	1064304640	52	6497
2026-01-25 13:27:10.39	139.48	19.54	-40.1	-41.1	22.9	0.00e+00	0	41	0	1066401792	52	6504
2026-01-25 13:27:11.40	139.66	19.45	-39.8	-40.7	23.0	0.00e+00	0	41	0	1068498944	52	6209
2026-01-25 13:27:12.41	139.83	19.36	-39.9	-40.9	23.0	0.00e+00	0	41	0	1070596096	52	6344
2026-01-25 13:27:13.41	140.00	19.27	-39.8	-40.8	22.9	0.00e+00	0	41	0	1072693248	52	6284
2026-01-25 13:27:14.42	140.17	19.17	-39.8	-40.8	23.0	0.00e+00	0	41	0	1073741824	52	6247
2026-01-25 13:27:15.43	140.34	19.08	-39.6	-40.6	23.0	0.00e+00	0	41	0	1075838976	52	6125
2026-01-25 13:27:16.44	140.51	18.99	-39.7	-40.7	23.0	0.00e+00	89	41	0	1077936128	52	6204
2026-01-25 13:27:17.45	140.68	18.90	-39.5	-40.4	23.1	0.00e+00	0	41	0	1080033280	52	6006
2026-01-25 13:27:18.45	140.84	18.80	-39.5	-40.5	23.1	0.00e+00	0	41	0	1082130432	52	6037
2026-01-25 13:27:19.46	141.01	18.71	-39.4	-40.3	23.3	0.00e+00	0	41	0	1083179008	52	5936
2026-01-25 13:27:20.47	141.17	18.62	-39.0	-39.9	23.4	0.00e+00	0	41	0	1085276160	52	5659
2026-01-25 13:27:21.48	141.34	18.53	-39.2	-40.1	23.5	0.00e+00	65	41	0	1087373312	52	5781
2026-01-25 13:27:22.49	141.50	18.44	-39.0	-39.9	23.5	0.00e+00	0	41	0	1089470464	52	5686
2026-01-25 13:27:23.50	141.66	18.34	-38.8	-39.7	23.7	0.00e+00	86	41	0	1091567616	52	5548
2026-01-25 13:27:24.51	141.82	18.25	-39.1	-40.0	23.5	0.00e+00	0	41	0	1092616192	52	5721
2026-01-25 13:27:25.52	141.98	18.16	-39.1	-40.0	23.4	0.00e+00	0	41	0	1094713344	52	5755
2026-01-25 13:27:26.53	142.14	18.07	-39.4	-40.3	23.1	0.00e+00	0	41	0	1096810496	52	5936
2026-01-25 13:27:27.54	142.30	17.98	-39.6	-40.6	23.0	0.00e+00	0	41	0	1098907648	52	6108
2026-01-25 13:27:28.54	142.46	17.89	-39.6	-40.6	23.1	0.00e+00	0	41	0	1101004800	52	6104
2026-01-25 13:27:29.55	142.61	17.80	-39.6	-40.5	23.0	0.00e+00	0	41	0	1102053376	52	6082
2026-01-25 13:27:30.56	142.77	17.71	-39.5	-40.5	23.2	0.00e+00	82	41	0	1104150528	52	6052
2026-01-25 13:27:31.57	142.92	17.62	-39.0	-39.9	23.6	0.00e+00	0	41	0	1106247680	52	5690
2026-01-25 13:27:32.58	143.08	17.53	-39.0	-39.9	23.6	0.00e+00	92	41	0	1108344832	52	5655
2026-01-25 13:27:33.59	143.23	17.44	-38.6	-39.4	23.9	0.00e+00	0	41	0	1110441984	50	6007
2026-01-25 13:27:34.60	143.38	17.35	-38.4	-39.2	24.1	0.00e+00	0	41	0	1111490560	50	5856
2026-01-25 13:27:35.61	143.53	17.26	-38.3	-39.1	24.2	0.00e+00	0	41	0	1113587712	50	5823
2026-01-25 13:27:36.62	143.68	17.17	-38.1	-38.9	24.3	0.00e+00	0	41	0	1115684864	50	5649
2026-01-25 13:27:37.62	143.83	17.08	-38.4	-39.2	23.9	0.00e+00	83	41	0	1117782016	50	5884
2026-01-25 13:27:38.63	143.98	16.99	-38.8	-39.7	23.7	0.00e+00	0	41	0	1119879168	50	6220
2026-01-25 13:27:39.64	144.13	16.90	-39.0	-40.0	23.5	0.00e+00	82	41	0	1121976320	50	6393
2026-01-25 13:27:40.65	144.28	16.81	-39.5	-40.5	23.2	0.00e+00	0	41	0	1123024896	50	6803
2026-01-25 13:27:41.66	144.42	16.72	-39.7	-40.6	23.0	0.00e+00	0	41	0	1125122048	52	6173
2026-01-25 13:27:42.67	144.57	16.63	-40.0	-41.0	22.7	0.00e+00	32	41	0	1127219200	52	6418
2026-01-25 13:27:43.68	144.71	16.54	-39.9	-40.9	22.6	0.00e+00	0	41	0	1129316352	52	6337
2026-01-25 13:27:44.69	144.86	16.45	-39.8	-40.8	22.8	0.00e+00	27	41	0	1131413504	52	6262
2026-01-25 13:27:45.70	145.00	16.36	-39.9	-40.9	22.8	0.00e+00	0	41	0	1132462080	52	6376
2026-01-25 13:27:46.71	145.14	16.28	-40.0	-41.0	22.7	0.00e+00	92	41	0	1134559232	52	6407
2026-01-25 13:27:47.71	145.28	16.19	-39.8	-40.8	22.9	0.00e+00	0	41	0	1136656384	52	6279
2026-01-25 13:27:48.72	145.42	16.10	-39.8	-40.7	22.9	0.00e+00	0	41	0	1138753536	52	6232
2026-01-25 13:27:49.73	145.56	16.01	-39.7	-40.6	23.0	0.00e+00	0	41	0	1139802112	52	6147
2026-01-25 13:27:50.74	145.70	15.92	-39.7	-40.6	23.1	0.00e+00	0	41	0	1141899264	52	6165
2026-01-25 13:27:51.75	145.84	15.84	-39.9	-40.9	22.8	0.00e+00	0	41	0	1143996416	52	6339
2026-01-25 13:27:52.76	145.97	15.75	-40.0	-41.0	22.7	0.00e+00	0	41	0	1146093568	52	6419
2026-01-25 13:27:53.77	146.11	15.66	-40.3	-41.3	22.4	0.00e+00	66	41	0	1148190720	52	6639
2026-01-25 13:27:54.78	146.25	15.58	-40.4	-41.4	22.4	0.00e+00	0	41	0	1150287872	52	6746
2026-01-25 13:27:55.79	146.38	15.49	-40.4	-41.5	22.3	0.00e+00	6	41	0	1151336448	52	6790
2026-01-25 13:27:56.80	146.51	15.40	-40.6	-41.6	22.1	0.00e+00	0	41	0	1153433600	52	6918
2026-01-25 13:27:57.81	146.65	15.31	-40.7	-41.7	22.1	0.00e+00	0	41	0	1155530752	54	6245
2026-01-25 13:27:58.81	146.78	15.23	-40.5	-41.5	22.2	0.00e+00	0	41	0	1157627904	54	6079
2026-01-25 13:27:59.83	146.91	15.14	-40.9	-42.0	21.9	0.00e+00	0	41	0	1159725056	54	6431
2026-01-25 13:28:00.83	147.04	15.06	-40.7	-41.7	22.0	0.00e+00	87	41	0	1160773632	54	6244
2026-01-25 13:28:01.84	147.17	14.97	-40.3	-41.4	22.4	0.00e+00	0	41	0	1162870784	54	5985
2026-01-25 13:28:02.85	147.30	14.89	-40.7	-41.8	22.0	0.00e+00	84	41	0	1164967936	54	6291
2026-01-25 13:28:03.86	147.43	14.80	-40.4	-41.5	22.2	0.00e+00	0	41	0	1167065088	54	6039
2026-01-25 13:28:04.87	147.56	14.71	-40.3	-41.3	22.5	0.00e+00	0	41	0	1169162240	54	5955
2026-01-25 13:28:05.88	147.69	14.63	-40.6	-41.7	22.1	0.00e+00	0	41	0	1170210816	54	6195
2026-01-25 13:28:06.89	147.82	14.54	-40.5	-41.5	22.3	0.00e+00	0	41	0	1172307968	54	6064
2026-01-25 13:28:07.89	147.94	14.46	-40.8	-41.8	21.9	0.00e+00	88	41	0	1174405120	54	6316
2026-01-25 13:28:08.90	148.07	14.37	-40.6	-41.7	22.2	0.00e+00	0	41	0	1176502272	54	6196
2026-01-25 13:28:09.91	148.19	14.29	-40.5	-41.6	22.1	0.00e+00	92	41	0	1178599424	54	6115
2026-01-25 13:28:10.92	148.31	14.21	-40.7	-41.8	21.9	0.00e+00	0	41	0	1179648000	54	6289
2026-01-25 13:28:11.93	148.44	14.12	-40.5	-41.6	22.2	0.00e+00	0	41	0	1181745152	54	6104
2026-01-25 13:28:12.94	148.56	14.04	-40.3	-41.3	22.3	0.00e+00	0	41	0	1183842304	54	5964
2026-01-25 13:28:13.95	148.68	13.95	-40.6	-41.6	22.1	0.00e+00	0	41	0	1185939456	54	6172
2026-01-25 13:28:14.96	148.80	13.87	-40.3	-41.3	22.4	0.00e+00	46	41	0	1188036608	54	5912
2026-01-25 13:28:15.97	148.93	13.79	-40.3	-41.3	22.5	0.00e+00	0	41	0	1189085184	54	5939
2026-01-25 13:28:16.98	149.05	13.70	-40.3	-41.4	22.4	0.00e+00	91	41	0	1191182336	54	5972
2026-01-25 13:28:17.99	149.17	13.62	-39.7	-40.6	23.0	0.00e+00	0	41	0	1193279488	52	6139
2026-01-25 13:28:19.00	149.28	13.54	-39.7	-40.6	22.9	0.00e+00	0	41	0	1195376640	52	6167
2026-01-25 13:28:20.01	149.40	13.45	-39.5	-40.4	23.0	0.00e+00	0	41	0	1197473792	52	6012
2026-01-25 13:28:21.02	149.52	13.37	-39.5	-40.4	23.1	0.00e+00	0	41	0	1198522368	52	5996
2026-01-25 13:28:22.03	149.64	13.29	-39.6	-40.5	23.0	0.00e+00	0	41	0	1200619520	52	6080
2026-01-25 13:28:23.04	149.75	13.21	-39.4	-40.3	23.2	0.00e+00	0	41	0	1202716672	52	5898
2026-01-25 13:28:24.04	149.87	13.12	-39.5	-40.4	23.1	0.00e+00	58	41	0	1204813824	52	5976
2026-01-25 13:28:25.05	149.98	13.04	-39.5	-40.5	23.1	0.00e+00	0	41	0	1206910976	52	6041
2026-01-25 13:28:26.06	150.10	12.96	-39.8	-40.7	22.8	0.00e+00	0	41	0	1207959552	52	6243
2026-01-25 13:28:27.07	150.21	12.88	-40.1	-41.1	22.6	0.00e+00	33	41	0	1210056704	52	6472
2026-01-25 13:28:28.07	150.32	12.80	-40.0	-41.0	22.4	0.00e+00	0	41	0	1212153856	52	6403
2026-01-25 13:28:29.08	150.44	12.72	-40.3	-41.4	22.3	0.00e+00	57	41	0	1214251008	52	6722
2026-01-25 13:28:30.09	150.55	12.64	-40.9	-42.0	21.7	0.00e+00	0	41	0	1216348160	54	6421
