passes_logs/2026/01/25/R4.6S_Anadyr/R4.6S_Anadyr__20260125_025424_SUOMI_NPP_rec.log

#Pass ID: 20260125_025424_SUOMI NPP
#Satellite: SUOMI NPP
#Configuration: NPP
#almurnet v.1.7.20251203
#Start time: 2026-01-25 02:54:26

#Version: 2.2.20231116
#Station: R4.6S_Anadyr
#Location: 177.4865 lon 64.73178 lat
#TLE: 1 37849U 11061A   26024.54906732  .00000185  00000+0  10878-3 0  9990
#TLE: 2 37849  98.7821 326.5159 0002200  47.3746 312.7615 14.19529340738061

#Time	Az	El	Level	Level2	SNR	BER	BlckErr	Temp	State	Recorded	gain1	gain2
2026-01-25 02:54:26.94	225.62	0.13	-51.1	-63.6	3.5	1.52e+00	0	39	0	0	60	53270
2026-01-25 02:54:27.95	225.70	0.18	-51.8	-67.0	3.6	1.51e+00	0	40	104	0	60	81154
2026-01-25 02:54:28.96	225.78	0.22	-51.4	-66.6	3.6	1.51e+00	0	40	104	0	60	77182
2026-01-25 02:54:29.97	225.87	0.27	-51.3	-66.5	3.6	1.51e+00	0	40	104	0	60	76501
2026-01-25 02:54:30.98	225.95	0.32	-51.2	-66.5	3.6	1.51e+00	0	40	104	0	60	75976
2026-01-25 02:54:31.99	226.03	0.37	-51.0	-66.2	3.6	1.51e+00	0	40	104	0	60	73442
2026-01-25 02:54:33.00	226.11	0.42	-51.0	-66.2	3.6	1.51e+00	0	40	104	0	60	73451
2026-01-25 02:54:34.00	226.20	0.46	-51.0	-66.1	3.6	1.51e+00	0	40	104	0	60	73298
2026-01-25 02:54:35.01	226.28	0.51	-50.8	-66.1	3.6	1.51e+00	0	40	104	0	60	73227
2026-01-25 02:54:36.02	226.36	0.56	-50.8	-66.1	3.6	1.51e+00	0	40	104	0	60	72845
2026-01-25 02:54:37.03	226.45	0.61	-50.8	-66.1	3.6	1.51e+00	0	40	104	0	60	73236
2026-01-25 02:54:38.04	226.53	0.65	-50.7	-66.1	3.6	1.51e+00	0	40	104	0	60	72740
2026-01-25 02:54:39.05	226.61	0.70	-50.9	-66.1	3.6	1.51e+00	0	40	104	0	60	73181
2026-01-25 02:54:40.06	226.70	0.75	-50.9	-66.1	3.6	1.51e+00	0	40	104	0	60	73095
2026-01-25 02:54:41.07	226.78	0.80	-50.9	-66.1	3.6	1.51e+00	0	41	104	0	60	73361
2026-01-25 02:54:42.08	226.87	0.85	-50.9	-66.1	3.6	1.51e+00	0	41	104	0	60	73321
2026-01-25 02:54:43.09	226.95	0.89	-50.8	-66.1	3.6	1.51e+00	0	40	104	0	60	72784
2026-01-25 02:54:44.10	227.04	0.94	-50.7	-66.1	3.6	1.51e+00	0	41	104	0	60	72715
2026-01-25 02:54:45.11	227.13	0.99	-50.7	-66.0	3.6	1.51e+00	0	41	104	0	60	72224
2026-01-25 02:54:46.12	227.21	1.04	-50.7	-66.0	3.6	1.51e+00	0	41	104	0	60	71831
2026-01-25 02:54:47.13	227.30	1.09	-50.6	-65.8	3.6	1.51e+00	0	41	104	0	60	70762
2026-01-25 02:54:48.14	227.39	1.14	-50.6	-65.8	3.6	1.51e+00	0	41	104	0	60	70249
2026-01-25 02:54:49.15	227.47	1.18	-50.3	-65.5	3.6	1.51e+00	0	41	104	0	60	68134
2026-01-25 02:54:50.16	227.56	1.23	-50.0	-65.2	3.6	1.51e+00	0	41	104	0	60	65410
2026-01-25 02:54:51.17	227.65	1.28	-49.2	-64.4	3.6	1.51e+00	0	41	104	0	60	59946
2026-01-25 02:54:52.18	227.73	1.33	-48.2	-63.3	3.6	1.51e+00	0	41	104	0	60	53027
2026-01-25 02:54:53.19	227.82	1.38	-48.1	-63.3	3.6	1.51e+00	0	41	104	0	60	52844
2026-01-25 02:54:54.20	227.91	1.42	-48.1	-63.3	3.6	1.51e+00	0	41	104	0	60	52713
2026-01-25 02:54:55.21	228.00	1.47	-48.1	-63.3	3.6	1.51e+00	0	41	104	0	60	52694
2026-01-25 02:54:56.22	228.09	1.52	-48.1	-63.2	3.6	1.51e+00	0	41	104	0	60	52546
2026-01-25 02:54:57.22	228.18	1.57	-48.1	-63.2	3.6	1.51e+00	0	41	104	0	60	52481
2026-01-25 02:54:58.23	228.27	1.62	-48.1	-63.2	3.6	1.51e+00	0	41	104	0	60	52456
2026-01-25 02:54:59.24	228.36	1.67	-48.1	-63.2	3.6	1.51e+00	0	41	104	0	60	52512
2026-01-25 02:55:00.25	228.45	1.72	-48.1	-63.2	3.6	1.51e+00	0	41	104	0	60	52342
2026-01-25 02:55:01.26	228.54	1.76	-48.1	-63.2	3.6	1.51e+00	0	41	104	0	60	52247
2026-01-25 02:55:02.27	228.63	1.81	-48.1	-63.2	3.6	1.51e+00	0	41	104	0	60	52151
2026-01-25 02:55:03.28	228.72	1.86	-48.1	-63.2	3.6	1.51e+00	0	41	104	0	60	52194
2026-01-25 02:55:04.29	228.81	1.91	-48.1	-63.2	3.6	1.51e+00	0	41	104	0	60	52512
2026-01-25 02:55:05.30	228.90	1.96	-48.1	-63.2	3.6	1.51e+00	0	41	104	0	60	52404
2026-01-25 02:55:06.31	228.99	2.01	-48.1	-63.2	3.6	1.51e+00	0	41	104	0	60	52174
2026-01-25 02:55:07.32	229.08	2.06	-48.1	-63.2	3.6	1.51e+00	0	41	104	0	60	52191
2026-01-25 02:55:08.33	229.18	2.10	-48.1	-63.2	3.6	1.51e+00	0	41	104	0	60	52270
2026-01-25 02:55:09.34	229.27	2.15	-48.1	-63.2	3.6	1.51e+00	0	41	104	0	60	52304
2026-01-25 02:55:10.35	229.36	2.20	-48.1	-63.1	3.6	1.51e+00	0	41	104	0	60	51873
2026-01-25 02:55:11.36	229.45	2.25	-48.1	-63.1	3.6	1.51e+00	0	41	104	0	60	51864
2026-01-25 02:55:12.37	229.55	2.30	-48.1	-63.1	3.6	1.51e+00	0	41	104	0	60	51834
2026-01-25 02:55:13.38	229.64	2.35	-48.1	-63.1	3.6	1.51e+00	0	41	104	0	60	51443
2026-01-25 02:55:14.39	229.74	2.40	-48.1	-63.0	3.6	1.51e+00	0	41	104	0	60	50936
2026-01-25 02:55:15.40	229.83	2.45	-48.0	-63.1	3.6	1.51e+00	0	41	104	0	60	51482
2026-01-25 02:55:16.40	229.92	2.49	-48.0	-63.0	3.6	1.51e+00	0	41	104	0	60	50946
2026-01-25 02:55:17.41	230.02	2.54	-48.0	-63.0	3.5	1.51e+00	0	41	104	0	60	50773
2026-01-25 02:55:18.42	230.11	2.59	-48.0	-62.8	3.6	1.51e+00	0	41	104	0	60	50137
2026-01-25 02:55:19.43	230.21	2.64	-48.0	-62.4	3.6	1.51e+00	0	41	104	0	60	47493
2026-01-25 02:55:20.44	230.30	2.69	-48.0	-62.1	3.6	1.51e+00	0	41	104	0	60	46139
2026-01-25 02:55:21.45	230.40	2.74	-48.0	-61.4	3.6	1.51e+00	0	41	104	0	60	42623
2026-01-25 02:55:22.46	230.50	2.79	-48.0	-61.6	3.6	1.51e+00	0	41	104	0	60	43532
2026-01-25 02:55:23.47	230.59	2.84	-47.9	-61.0	3.6	1.50e+00	0	41	104	0	60	40513
2026-01-25 02:55:24.48	230.69	2.89	-47.9	-60.8	3.6	1.50e+00	0	41	104	0	60	39719
2026-01-25 02:55:25.49	230.79	2.94	-47.9	-60.6	3.7	1.50e+00	0	41	104	0	60	38835
2026-01-25 02:55:26.50	230.89	2.99	-48.0	-61.3	3.6	1.50e+00	0	41	104	0	60	41824
2026-01-25 02:55:27.51	230.98	3.03	-48.4	-62.8	3.6	1.51e+00	0	41	104	0	60	49908
2026-01-25 02:55:28.52	231.08	3.08	-48.4	-63.3	3.6	1.51e+00	0	41	104	0	60	52751
2026-01-25 02:55:29.53	231.18	3.13	-48.1	-62.2	3.6	1.50e+00	0	41	104	0	60	46466
2026-01-25 02:55:30.54	231.28	3.18	-48.0	-62.7	3.6	1.51e+00	0	41	104	0	60	49380
2026-01-25 02:55:31.55	231.38	3.23	-48.1	-61.0	3.6	1.51e+00	0	41	104	0	60	40609
2026-01-25 02:55:32.56	231.48	3.28	-48.3	-61.8	3.6	1.51e+00	0	41	104	0	60	44654
2026-01-25 02:55:33.57	231.58	3.33	-48.3	-61.2	3.6	1.50e+00	0	41	104	0	60	41311
2026-01-25 02:55:34.58	231.68	3.38	-48.3	-61.4	3.6	1.50e+00	0	41	104	0	60	42370
2026-01-25 02:55:35.59	231.78	3.43	-48.3	-61.7	3.6	1.51e+00	0	41	104	0	60	43920
2026-01-25 02:55:36.60	231.88	3.48	-48.4	-61.6	3.6	1.51e+00	0	41	104	0	60	43413
2026-01-25 02:55:37.60	231.98	3.53	-48.4	-62.3	3.6	1.51e+00	0	41	104	0	60	46911
2026-01-25 02:55:38.61	232.08	3.58	-48.3	-62.6	3.6	1.51e+00	0	41	104	0	60	49040
2026-01-25 02:55:39.62	232.18	3.63	-48.2	-63.0	3.6	1.51e+00	0	41	104	0	60	51266
2026-01-25 02:55:40.63	232.29	3.67	-48.4	-62.4	3.6	1.51e+00	0	41	104	0	60	47417
2026-01-25 02:55:41.64	232.39	3.72	-48.5	-61.4	3.7	1.51e+00	0	41	104	0	60	42351
2026-01-25 02:55:42.65	232.49	3.77	-48.6	-61.3	3.7	1.49e+00	0	41	104	0	60	41995
2026-01-25 02:55:43.66	232.59	3.82	-48.6	-61.5	3.8	1.50e+00	0	41	104	0	60	42935
2026-01-25 02:55:44.67	232.70	3.87	-48.6	-61.6	3.7	1.49e+00	0	41	104	0	60	43623
2026-01-25 02:55:45.67	232.80	3.92	-48.7	-61.7	3.6	1.50e+00	0	41	104	0	60	43789
2026-01-25 02:55:46.68	232.90	3.97	-48.7	-61.5	3.7	1.47e+00	0	41	104	0	60	43063
2026-01-25 02:55:47.69	233.01	4.02	-48.7	-61.2	3.8	1.50e+00	0	41	104	0	60	41632
2026-01-25 02:55:48.70	233.11	4.07	-48.7	-61.5	3.8	1.48e+00	0	41	104	0	60	43010
2026-01-25 02:55:49.71	233.22	4.12	-48.7	-61.3	3.8	1.50e+00	0	41	104	0	60	42015
2026-01-25 02:55:50.72	233.32	4.17	-48.7	-61.5	3.6	1.47e+00	0	41	104	0	60	42764
2026-01-25 02:55:51.73	233.43	4.22	-48.7	-60.2	3.7	1.49e+00	0	41	0	0	60	36983
2026-01-25 02:55:52.74	233.54	4.27	-48.8	-61.8	3.7	1.50e+00	0	41	104	0	60	44373
2026-01-25 02:55:53.75	233.64	4.32	-48.8	-60.8	3.7	1.47e+00	0	41	104	0	60	39678
2026-01-25 02:55:54.76	233.75	4.37	-48.8	-60.3	3.7	1.45e+00	0	41	104	0	60	37451
2026-01-25 02:55:55.77	233.86	4.42	-48.9	-60.9	4.0	1.42e+00	0	41	104	0	60	39890
2026-01-25 02:55:56.78	233.96	4.47	-48.9	-61.0	3.9	1.49e+00	0	41	104	0	60	40692
2026-01-25 02:55:57.79	234.07	4.52	-48.9	-59.4	3.8	1.41e+00	1	42	0	0	60	33794
2026-01-25 02:55:58.80	234.18	4.57	-48.9	-59.5	3.7	1.39e+00	0	41	0	0	60	34187
2026-01-25 02:55:59.81	234.29	4.62	-48.9	-60.2	4.2	1.31e+00	79	42	104	0	60	37178
2026-01-25 02:56:00.82	234.40	4.67	-48.9	-59.2	3.8	1.38e+00	0	42	0	0	60	32862
2026-01-25 02:56:01.83	234.51	4.72	-49.0	-60.7	3.8	1.38e+00	0	42	104	0	60	38961
2026-01-25 02:56:02.84	234.62	4.76	-49.0	-60.0	3.8	1.41e+00	0	41	0	0	60	36206
2026-01-25 02:56:03.85	234.73	4.81	-49.1	-61.0	4.0	1.44e+00	0	41	104	0	60	40575
2026-01-25 02:56:04.85	234.84	4.86	-49.0	-59.4	3.8	1.39e+00	0	41	0	0	60	33648
2026-01-25 02:56:05.86	234.95	4.91	-49.1	-59.7	3.7	1.42e+00	0	41	104	0	60	34828
2026-01-25 02:56:06.87	235.06	4.96	-49.1	-60.3	4.2	1.33e+00	40	42	104	0	60	37617
2026-01-25 02:56:07.88	235.17	5.01	-49.1	-59.4	3.9	1.31e+00	0	42	0	1048576	60	33825
2026-01-25 02:56:08.89	235.28	5.06	-49.2	-59.7	3.7	1.39e+00	0	42	104	1048576	60	35056
2026-01-25 02:56:09.90	235.39	5.11	-49.1	-60.9	4.0	1.38e+00	0	42	104	1048576	60	40220
2026-01-25 02:56:10.91	235.51	5.16	-49.1	-58.8	4.1	1.33e+00	3	41	0	2097152	60	31643
2026-01-25 02:56:11.92	235.62	5.21	-49.1	-59.0	4.1	1.05e+00	93	42	0	3145728	60	32102
2026-01-25 02:56:12.93	235.73	5.26	-49.1	-58.9	4.2	1.03e+00	9	42	0	5242880	60	32017
2026-01-25 02:56:13.93	235.84	5.31	-49.1	-58.6	4.2	9.47e-01	92	42	0	7340032	60	30642
2026-01-25 02:56:14.94	235.96	5.36	-49.1	-58.9	4.2	1.00e+00	6	42	0	9437184	60	31844
2026-01-25 02:56:15.95	236.07	5.41	-49.1	-58.7	4.2	9.59e-01	90	42	0	10485760	60	31031
2026-01-25 02:56:16.96	236.19	5.46	-49.1	-58.6	4.3	9.50e-01	92	42	0	12582912	60	30599
2026-01-25 02:56:17.97	236.30	5.51	-49.1	-59.0	4.1	9.93e-01	17	42	0	14680064	60	32240
2026-01-25 02:56:18.98	236.42	5.56	-49.2	-59.1	4.1	1.16e+00	70	42	0	16777216	60	32536
2026-01-25 02:56:19.99	236.53	5.61	-49.2	-59.5	3.9	1.34e+00	0	42	0	17825792	60	34157
2026-01-25 02:56:20.99	236.65	5.66	-49.2	-59.4	3.9	1.39e+00	92	42	0	17825792	60	33833
2026-01-25 02:56:22.00	236.77	5.71	-49.1	-58.4	4.5	8.57e-01	0	42	0	19922944	60	30071
2026-01-25 02:56:23.01	236.88	5.76	-49.1	-57.8	4.8	6.60e-01	92	42	0	22020096	60	28152
2026-01-25 02:56:24.02	237.00	5.81	-49.1	-57.7	5.0	6.45e-01	91	42	0	24117248	60	27763
2026-01-25 02:56:25.02	237.12	5.86	-49.1	-57.6	5.0	6.15e-01	38	42	0	25165824	60	27551
2026-01-25 02:56:26.03	237.24	5.91	-49.0	-57.0	5.7	3.85e-01	92	42	0	27262976	60	25606
2026-01-25 02:56:27.04	237.35	5.96	-49.0	-57.1	5.5	3.89e-01	0	42	0	29360128	60	25771
2026-01-25 02:56:28.06	237.47	6.01	-48.9	-56.2	6.6	3.08e-01	91	42	0	31457280	60	23267
2026-01-25 02:56:29.07	237.59	6.06	-48.8	-55.8	7.0	1.45e-01	0	42	0	33554432	60	22221
2026-01-25 02:56:30.08	237.71	6.11	-48.7	-55.5	7.2	1.52e-01	92	42	0	34603008	60	21565
2026-01-25 02:56:31.09	237.83	6.16	-48.8	-55.6	7.2	1.53e-01	50	42	0	36700160	60	21856
2026-01-25 02:56:32.09	237.95	6.20	-48.7	-55.4	7.5	1.01e-01	92	42	0	38797312	60	21300
2026-01-25 02:56:33.10	238.07	6.25	-48.6	-55.1	7.8	8.58e-02	92	42	0	40894464	60	20550
2026-01-25 02:56:34.11	238.20	6.30	-48.4	-54.5	8.5	4.97e-02	0	42	0	42991616	60	19224
2026-01-25 02:56:35.12	238.32	6.35	-48.4	-54.3	8.9	4.14e-02	90	42	0	44040192	60	18750
2026-01-25 02:56:36.13	238.44	6.40	-48.3	-53.9	9.2	2.47e-02	0	42	0	46137344	60	17972
2026-01-25 02:56:37.14	238.56	6.45	-48.3	-54.1	9.0	2.11e-02	92	42	0	48234496	60	18351
2026-01-25 02:56:38.15	238.69	6.50	-48.1	-53.4	9.7	1.28e-02	79	42	0	50331648	60	16955
2026-01-25 02:56:39.16	238.81	6.55	-48.0	-53.2	10.1	1.06e-02	92	42	0	52428800	60	16428
2026-01-25 02:56:40.17	238.93	6.60	-47.9	-52.7	10.5	4.64e-03	92	42	0	53477376	60	15628
2026-01-25 02:56:41.18	239.06	6.65	-47.9	-52.7	10.6	4.08e-03	33	42	0	55574528	60	15660
2026-01-25 02:56:42.18	239.18	6.70	-47.8	-52.5	10.9	1.92e-03	92	42	0	57671680	60	15179
2026-01-25 02:56:43.19	239.31	6.75	-47.5	-51.7	11.7	1.44e-03	0	42	0	59768832	60	13956
2026-01-25 02:56:44.19	239.43	6.80	-47.3	-51.2	12.3	2.86e-04	92	42	0	61865984	60	13180
2026-01-25 02:56:45.20	239.55	6.85	-47.2	-51.0	12.5	1.45e-04	0	42	0	62914560	60	12841
2026-01-25 02:56:46.21	239.68	6.90	-47.2	-51.1	12.6	1.10e-04	92	42	0	65011712	60	12946
2026-01-25 02:56:47.22	239.81	6.95	-47.0	-50.7	12.8	6.71e-05	92	42	0	67108864	60	12386
2026-01-25 02:56:48.23	239.93	7.00	-47.2	-51.1	12.5	1.59e-04	0	42	0	69206016	60	13013
2026-01-25 02:56:49.24	240.06	7.05	-46.9	-50.4	13.2	2.59e-05	88	42	0	71303168	60	12006
2026-01-25 02:56:50.25	240.19	7.09	-46.9	-50.4	13.3	2.13e-05	0	42	0	72351744	60	11923
2026-01-25 02:56:51.25	240.32	7.14	-46.7	-50.1	13.5	2.36e-05	92	42	0	74448896	60	11546
2026-01-25 02:56:52.27	240.45	7.19	-46.7	-50.1	13.6	9.10e-06	0	42	0	76546048	60	11510
2026-01-25 02:56:53.27	240.57	7.24	-46.5	-49.6	14.0	6.80e-06	92	42	0	78643200	60	10969
2026-01-25 02:56:54.28	240.70	7.29	-46.5	-49.7	14.0	0.00e+00	90	42	0	80740352	60	11066
2026-01-25 02:56:55.29	240.83	7.34	-46.5	-49.6	14.2	1.50e-06	67	42	0	81788928	60	10901
2026-01-25 02:56:56.30	240.96	7.39	-46.1	-49.0	14.8	0.00e+00	90	42	0	83886080	60	10154
2026-01-25 02:56:57.31	241.10	7.44	-46.1	-49.0	14.8	1.50e-06	0	42	0	85983232	60	10181
2026-01-25 02:56:58.32	241.23	7.49	-46.0	-48.8	15.0	0.00e+00	90	42	0	88080384	60	9985
2026-01-25 02:56:59.33	241.36	7.54	-46.0	-48.7	15.0	7.00e-07	0	42	0	90177536	60	9875
2026-01-25 02:57:00.34	241.49	7.59	-45.9	-48.6	15.2	0.00e+00	92	42	0	91226112	60	9679
2026-01-25 02:57:01.35	241.62	7.64	-46.0	-48.7	15.1	0.00e+00	79	42	0	93323264	60	9824
2026-01-25 02:57:02.35	241.75	7.68	-45.8	-48.4	15.5	0.00e+00	90	42	0	95420416	60	9469
2026-01-25 02:57:03.36	241.89	7.73	-45.4	-47.9	15.9	0.00e+00	92	42	0	97517568	60	8938
2026-01-25 02:57:04.37	242.02	7.78	-45.2	-47.6	16.2	0.00e+00	0	42	0	99614720	60	8631
2026-01-25 02:57:05.37	242.15	7.83	-45.1	-47.4	16.4	0.00e+00	81	42	0	100663296	60	8473
2026-01-25 02:57:06.38	242.29	7.88	-45.0	-47.2	16.6	0.00e+00	0	42	0	102760448	60	8325
2026-01-25 02:57:07.39	242.42	7.93	-44.7	-46.8	16.9	0.00e+00	92	41	0	104857600	60	7938
2026-01-25 02:57:08.40	242.56	7.98	-44.6	-46.7	17.1	0.00e+00	0	42	0	106954752	60	7784
2026-01-25 02:57:09.41	242.70	8.03	-44.6	-46.7	17.1	0.00e+00	92	42	0	109051904	60	7820
2026-01-25 02:57:10.42	242.83	8.07	-44.4	-46.3	17.5	0.00e+00	92	41	0	111149056	60	7508
2026-01-25 02:57:11.43	242.97	8.12	-44.1	-46.0	17.8	0.00e+00	0	42	0	112197632	60	7195
2026-01-25 02:57:12.44	243.11	8.17	-44.0	-45.8	18.0	0.00e+00	92	42	0	114294784	60	7041
2026-01-25 02:57:13.45	243.24	8.22	-44.3	-46.3	17.5	0.00e+00	0	42	0	116391936	60	7423
2026-01-25 02:57:14.46	243.38	8.27	-44.0	-45.9	18.0	0.00e+00	92	42	0	118489088	60	7089
2026-01-25 02:57:15.47	243.52	8.32	-43.8	-45.5	18.3	0.00e+00	0	42	0	120586240	60	6808
2026-01-25 02:57:16.48	243.66	8.36	-43.5	-45.2	18.8	0.00e+00	92	42	0	121634816	60	6545
2026-01-25 02:57:17.48	243.80	8.41	-43.2	-44.7	19.1	0.00e+00	92	42	0	123731968	60	6225
2026-01-25 02:57:18.50	243.94	8.46	-43.1	-44.6	19.2	0.00e+00	0	42	0	125829120	60	6156
2026-01-25 02:57:19.50	244.08	8.51	-42.7	-44.2	19.6	0.00e+00	91	41	0	127926272	60	5843
2026-01-25 02:57:20.51	244.22	8.56	-42.7	-44.1	19.6	0.00e+00	0	42	0	130023424	58	6493
2026-01-25 02:57:21.52	244.36	8.61	-42.4	-43.7	20.0	0.00e+00	62	42	0	131072000	58	6230
2026-01-25 02:57:22.53	244.50	8.65	-42.2	-43.6	20.2	0.00e+00	9	42	0	133169152	58	6105
2026-01-25 02:57:23.54	244.64	8.70	-42.1	-43.4	20.3	0.00e+00	92	42	0	135266304	58	5992
2026-01-25 02:57:24.55	244.79	8.75	-42.0	-43.3	20.4	0.00e+00	92	42	0	137363456	58	5962
2026-01-25 02:57:25.56	244.93	8.80	-42.1	-43.4	20.3	0.00e+00	0	42	0	139460608	58	5979
2026-01-25 02:57:26.57	245.07	8.85	-41.8	-43.0	20.7	0.00e+00	92	42	0	140509184	58	5737
2026-01-25 02:57:27.58	245.22	8.89	-41.9	-43.1	20.5	0.00e+00	0	42	0	142606336	56	6531
2026-01-25 02:57:28.59	245.36	8.94	-41.5	-42.7	21.1	0.00e+00	92	41	0	144703488	56	6180
2026-01-25 02:57:29.60	245.51	8.99	-41.2	-42.3	21.3	0.00e+00	0	42	0	146800640	56	5926
2026-01-25 02:57:30.61	245.65	9.04	-41.1	-42.2	21.4	0.00e+00	92	41	0	148897792	56	5876
2026-01-25 02:57:31.62	245.80	9.08	-40.8	-41.9	21.7	0.00e+00	92	41	0	149946368	56	5662
2026-01-25 02:57:32.63	245.94	9.13	-40.6	-41.6	21.9	0.00e+00	0	41	0	152043520	54	6163
2026-01-25 02:57:33.64	246.09	9.18	-40.4	-41.4	22.0	0.00e+00	91	41	0	154140672	54	5987
2026-01-25 02:57:34.65	246.24	9.23	-40.7	-41.7	21.8	0.00e+00	0	42	0	156237824	54	6226
2026-01-25 02:57:35.66	246.39	9.27	-40.5	-41.5	21.9	0.00e+00	92	41	0	158334976	54	6068
2026-01-25 02:57:36.67	246.53	9.32	-40.5	-41.6	21.7	0.00e+00	0	41	0	159383552	54	6116
2026-01-25 02:57:37.68	246.68	9.37	-40.6	-41.7	21.9	0.00e+00	92	41	0	161480704	54	6174
2026-01-25 02:57:38.68	246.83	9.41	-40.9	-42.0	21.7	0.00e+00	92	41	0	163577856	54	6395
2026-01-25 02:57:39.69	246.98	9.46	-40.7	-41.8	21.8	0.00e+00	91	41	0	165675008	54	6301
2026-01-25 02:57:40.70	247.13	9.51	-41.0	-42.1	21.6	0.00e+00	93	41	0	167772160	54	6483
2026-01-25 02:57:41.71	247.28	9.55	-41.2	-42.3	21.5	0.00e+00	0	41	0	168820736	54	6644
2026-01-25 02:57:42.72	247.43	9.60	-41.4	-42.6	21.2	0.00e+00	82	41	0	170917888	54	6890
2026-01-25 02:57:43.73	247.58	9.65	-41.3	-42.5	21.4	0.00e+00	0	41	0	173015040	54	6799
2026-01-25 02:57:44.74	247.73	9.69	-40.8	-41.8	21.8	0.00e+00	92	41	0	175112192	54	6291
2026-01-25 02:57:45.75	247.89	9.74	-40.5	-41.6	22.1	0.00e+00	0	41	0	177209344	54	6130
2026-01-25 02:57:46.76	248.04	9.79	-40.7	-41.8	21.9	0.00e+00	90	41	0	179306496	54	6248
2026-01-25 02:57:47.77	248.19	9.83	-40.8	-41.9	21.7	0.00e+00	92	41	0	180355072	54	6342
2026-01-25 02:57:48.78	248.35	9.88	-40.8	-41.9	21.8	0.00e+00	0	41	0	182452224	54	6362
2026-01-25 02:57:49.79	248.50	9.92	-41.1	-42.3	21.5	0.00e+00	86	42	0	184549376	54	6622
2026-01-25 02:57:50.80	248.65	9.97	-41.0	-42.1	21.6	0.00e+00	0	41	0	186646528	54	6530
2026-01-25 02:57:51.81	248.81	10.02	-40.9	-42.0	21.8	0.00e+00	92	41	0	188743680	54	6430
2026-01-25 02:57:52.82	248.97	10.06	-40.6	-41.7	22.0	0.00e+00	0	41	0	189792256	54	6195
2026-01-25 02:57:53.83	249.12	10.11	-40.6	-41.7	22.0	0.00e+00	91	41	0	191889408	54	6189
2026-01-25 02:57:54.84	249.28	10.15	-40.8	-41.8	22.0	0.00e+00	91	41	0	193986560	54	6293
2026-01-25 02:57:55.85	249.43	10.20	-40.6	-41.6	22.1	0.00e+00	0	41	0	196083712	54	6168
2026-01-25 02:57:56.86	249.59	10.24	-40.5	-41.6	22.1	0.00e+00	70	41	0	198180864	54	6124
2026-01-25 02:57:57.87	249.75	10.29	-40.7	-41.8	21.9	0.00e+00	0	41	0	199229440	54	6272
2026-01-25 02:57:58.88	249.91	10.33	-40.9	-41.9	21.8	0.00e+00	92	41	0	201326592	54	6363
2026-01-25 02:57:59.88	250.07	10.38	-40.9	-41.9	21.9	0.00e+00	0	41	0	203423744	54	6370
2026-01-25 02:58:00.89	250.22	10.42	-40.7	-41.7	22.0	0.00e+00	92	41	0	205520896	54	6235
2026-01-25 02:58:01.90	250.38	10.47	-40.3	-41.3	22.4	0.00e+00	81	41	0	207618048	54	5931
2026-01-25 02:58:02.91	250.54	10.51	-40.6	-41.6	22.2	0.00e+00	0	41	0	208666624	54	6150
2026-01-25 02:58:03.92	250.71	10.56	-40.6	-41.7	22.1	0.00e+00	92	41	0	210763776	54	6210
2026-01-25 02:58:04.92	250.86	10.60	-40.9	-41.9	21.8	0.00e+00	0	41	0	212860928	54	6381
2026-01-25 02:58:05.93	251.03	10.65	-40.6	-41.7	22.1	0.00e+00	92	41	0	214958080	54	6190
2026-01-25 02:58:06.95	251.19	10.69	-40.5	-41.6	22.2	0.00e+00	0	41	0	217055232	54	6113
2026-01-25 02:58:07.95	251.35	10.73	-40.5	-41.5	22.1	0.00e+00	92	41	0	218103808	54	6091
2026-01-25 02:58:08.96	251.51	10.78	-40.2	-41.2	22.5	0.00e+00	92	41	0	220200960	54	5858
2026-01-25 02:58:09.97	251.68	10.82	-40.4	-41.4	22.3	0.00e+00	0	41	0	222298112	54	5979
2026-01-25 02:58:10.98	251.84	10.87	-40.3	-41.3	22.3	0.00e+00	92	41	0	224395264	54	5937
2026-01-25 02:58:11.99	252.01	10.91	-40.5	-41.5	22.2	0.00e+00	0	41	0	226492416	54	6056
2026-01-25 02:58:13.00	252.17	10.95	-40.5	-41.6	22.1	0.00e+00	83	41	0	227540992	54	6115
2026-01-25 02:58:14.01	252.34	11.00	-40.8	-41.8	21.9	0.00e+00	0	41	0	229638144	54	6299
2026-01-25 02:58:15.02	252.50	11.04	-40.9	-41.9	21.8	0.00e+00	92	41	0	231735296	54	6389
2026-01-25 02:58:16.03	252.67	11.08	-40.8	-41.8	21.9	0.00e+00	50	41	0	233832448	54	6296
2026-01-25 02:58:17.04	252.84	11.12	-41.1	-42.2	21.6	0.00e+00	92	41	0	235929600	54	6596
2026-01-25 02:58:18.05	253.00	11.17	-40.7	-41.8	22.0	0.00e+00	92	41	0	236978176	54	6284
2026-01-25 02:58:19.06	253.17	11.21	-40.6	-41.6	22.2	0.00e+00	0	41	0	239075328	54	6139
2026-01-25 02:58:20.07	253.34	11.25	-40.6	-41.7	22.1	0.00e+00	92	41	0	241172480	54	6191
2026-01-25 02:58:21.08	253.51	11.29	-40.6	-41.6	22.2	0.00e+00	0	41	0	243269632	54	6147
2026-01-25 02:58:22.09	253.68	11.34	-40.6	-41.6	22.1	0.00e+00	63	41	0	245366784	54	6146
2026-01-25 02:58:23.10	253.85	11.38	-40.8	-41.9	21.9	0.00e+00	0	41	0	246415360	54	6325
2026-01-25 02:58:24.11	254.02	11.42	-41.1	-42.2	21.8	0.00e+00	90	41	0	248512512	54	6569
2026-01-25 02:58:25.12	254.19	11.46	-41.0	-42.1	21.7	0.00e+00	92	41	0	250609664	54	6511
2026-01-25 02:58:26.13	254.36	11.50	-41.0	-42.1	21.8	0.00e+00	33	41	0	252706816	54	6511
2026-01-25 02:58:27.13	254.53	11.54	-41.2	-42.3	21.6	0.00e+00	84	41	0	254803968	54	6653
2026-01-25 02:58:28.14	254.70	11.59	-41.3	-42.4	21.6	0.00e+00	33	41	0	255852544	54	6750
2026-01-25 02:58:29.15	254.87	11.63	-41.2	-42.3	21.7	0.00e+00	92	41	0	257949696	54	6631
2026-01-25 02:58:30.16	255.05	11.67	-41.2	-42.3	21.6	0.00e+00	0	41	0	260046848	54	6663
2026-01-25 02:58:31.17	255.22	11.71	-41.0	-42.1	21.7	0.00e+00	92	41	0	262144000	54	6514
2026-01-25 02:58:32.18	255.39	11.75	-41.1	-42.2	21.7	0.00e+00	90	41	0	264241152	54	6561
2026-01-25 02:58:33.19	255.57	11.79	-41.0	-42.1	21.8	0.00e+00	33	41	0	265289728	54	6480
2026-01-25 02:58:34.20	255.74	11.83	-41.0	-42.1	21.7	0.00e+00	92	41	0	267386880	54	6520
2026-01-25 02:58:35.21	255.92	11.87	-41.1	-42.1	21.7	0.00e+00	0	41	0	269484032	54	6529
2026-01-25 02:58:36.22	256.09	11.91	-41.4	-42.5	21.4	0.00e+00	92	41	0	271581184	54	6847
2026-01-25 02:58:37.23	256.27	11.95	-41.3	-42.4	21.6	0.00e+00	0	41	0	273678336	54	6733
2026-01-25 02:58:38.24	256.45	11.99	-41.4	-42.5	21.5	0.00e+00	92	41	0	275775488	54	6806
2026-01-25 02:58:39.24	256.62	12.03	-41.5	-42.6	21.4	0.00e+00	92	41	0	276824064	54	6885
2026-01-25 02:58:40.25	256.80	12.07	-41.9	-43.1	21.1	0.00e+00	0	41	0	278921216	56	6467
2026-01-25 02:58:41.26	256.98	12.11	-41.7	-42.9	21.2	0.00e+00	92	41	0	281018368	56	6331
2026-01-25 02:58:42.27	257.15	12.14	-41.8	-43.0	21.2	0.00e+00	0	41	0	283115520	56	6393
2026-01-25 02:58:43.28	257.33	12.18	-41.9	-43.1	20.9	0.00e+00	89	41	0	285212672	56	6536
2026-01-25 02:58:44.29	257.51	12.22	-42.0	-43.2	20.8	0.00e+00	33	41	0	286261248	56	6604
2026-01-25 02:58:45.30	257.69	12.26	-42.1	-43.4	20.8	0.00e+00	92	41	0	288358400	56	6697
2026-01-25 02:58:46.31	257.87	12.30	-42.2	-43.4	20.8	0.00e+00	82	41	0	290455552	56	6713
2026-01-25 02:58:47.32	258.05	12.33	-42.2	-43.4	20.7	0.00e+00	85	41	0	292552704	56	6751
2026-01-25 02:58:48.33	258.23	12.37	-42.1	-43.3	20.8	0.00e+00	92	41	0	294649856	56	6654
2026-01-25 02:58:49.34	258.42	12.41	-41.8	-43.0	21.0	0.00e+00	0	41	0	295698432	56	6438
2026-01-25 02:58:50.35	258.60	12.45	-42.0	-43.2	20.9	0.00e+00	84	41	0	297795584	56	6590
2026-01-25 02:58:51.36	258.78	12.48	-42.1	-43.3	20.8	0.00e+00	0	41	0	299892736	56	6689
2026-01-25 02:58:52.37	258.96	12.52	-42.4	-43.7	20.4	0.00e+00	92	41	0	301989888	56	6931
2026-01-25 02:58:53.38	259.15	12.56	-42.4	-43.7	20.5	0.00e+00	30	41	0	304087040	56	6963
2026-01-25 02:58:54.39	259.33	12.59	-42.6	-44.0	20.3	0.00e+00	87	41	0	305135616	56	7171
2026-01-25 02:58:55.40	259.51	12.63	-42.7	-44.0	20.2	0.00e+00	92	41	0	307232768	56	7222
2026-01-25 02:58:56.41	259.70	12.67	-42.5	-43.8	20.5	0.00e+00	0	41	0	309329920	56	7037
2026-01-25 02:58:57.42	259.88	12.70	-42.4	-43.7	20.5	0.00e+00	76	41	0	311427072	56	6980
2026-01-25 02:58:58.43	260.07	12.74	-42.3	-43.6	20.6	0.00e+00	0	41	0	313524224	56	6877
2026-01-25 02:58:59.44	260.26	12.77	-42.5	-43.8	20.4	0.00e+00	92	41	0	314572800	56	7078
2026-01-25 02:59:00.45	260.44	12.81	-42.6	-43.9	20.5	0.00e+00	73	41	0	316669952	56	7126
2026-01-25 02:59:01.46	260.63	12.84	-42.4	-43.7	20.5	0.00e+00	92	41	0	318767104	56	6967
2026-01-25 02:59:02.46	260.81	12.88	-42.5	-43.8	20.3	0.00e+00	92	41	0	320864256	56	7027
2026-01-25 02:59:03.47	261.00	12.91	-42.8	-44.1	20.0	0.00e+00	0	41	0	322961408	56	7276
2026-01-25 02:59:04.48	261.19	12.94	-42.7	-44.0	20.2	0.00e+00	92	41	0	324009984	58	6446
2026-01-25 02:59:05.49	261.38	12.98	-42.7	-44.1	20.1	0.00e+00	0	41	0	326107136	58	6478
2026-01-25 02:59:06.50	261.57	13.01	-42.4	-43.7	20.4	0.00e+00	92	41	0	328204288	58	6199
2026-01-25 02:59:07.51	261.76	13.05	-42.4	-43.6	20.5	0.00e+00	17	41	0	330301440	58	6165
2026-01-25 02:59:08.52	261.95	13.08	-42.6	-43.9	20.3	0.00e+00	92	41	0	332398592	58	6380
2026-01-25 02:59:09.53	262.14	13.11	-42.4	-43.7	20.5	0.00e+00	92	41	0	333447168	58	6196
2026-01-25 02:59:10.54	262.33	13.14	-42.5	-43.7	20.5	0.00e+00	0	41	0	335544320	58	6225
2026-01-25 02:59:11.54	262.52	13.18	-42.6	-43.9	20.3	0.00e+00	92	41	0	337641472	58	6375
2026-01-25 02:59:12.55	262.71	13.21	-42.7	-44.0	20.3	0.00e+00	0	41	0	339738624	58	6420
2026-01-25 02:59:13.56	262.90	13.24	-42.2	-43.5	20.7	0.00e+00	73	41	0	341835776	58	6040
2026-01-25 02:59:14.57	263.09	13.27	-42.5	-43.7	20.5	0.00e+00	0	41	0	343932928	58	6231
2026-01-25 02:59:15.58	263.28	13.30	-42.7	-44.0	20.3	0.00e+00	92	41	0	344981504	58	6431
2026-01-25 02:59:16.59	263.48	13.34	-42.4	-43.6	20.6	0.00e+00	92	41	0	347078656	58	6169
2026-01-25 02:59:17.60	263.67	13.37	-42.4	-43.7	20.6	0.00e+00	32	41	0	349175808	58	6216
2026-01-25 02:59:18.61	263.86	13.40	-42.2	-43.4	20.8	0.00e+00	92	41	0	351272960	58	6004
2026-01-25 02:59:19.62	264.06	13.43	-42.1	-43.3	20.5	0.00e+00	0	41	0	353370112	58	5923
2026-01-25 02:59:20.63	264.25	13.46	-42.3	-43.5	20.7	0.00e+00	92	41	0	354418688	58	6057
2026-01-25 02:59:21.64	264.45	13.49	-42.2	-43.4	20.8	0.00e+00	0	41	0	356515840	58	5978
2026-01-25 02:59:22.65	264.64	13.52	-42.1	-43.3	20.9	0.00e+00	92	41	0	358612992	58	5917
2026-01-25 02:59:23.66	264.84	13.55	-41.7	-42.8	21.3	0.00e+00	92	41	0	360710144	56	6310
2026-01-25 02:59:24.67	265.03	13.58	-41.7	-42.8	21.3	0.00e+00	46	41	0	362807296	56	6304
2026-01-25 02:59:25.68	265.23	13.60	-41.5	-42.6	21.5	0.00e+00	92	41	0	363855872	56	6164
2026-01-25 02:59:26.69	265.43	13.63	-41.2	-42.3	21.8	0.00e+00	0	41	0	365953024	56	5940
2026-01-25 02:59:27.70	265.62	13.66	-41.0	-42.0	22.0	0.00e+00	92	41	0	368050176	56	5757
2026-01-25 02:59:28.71	265.82	13.69	-40.8	-41.9	22.2	0.00e+00	0	41	0	370147328	56	5643
2026-01-25 02:59:29.72	266.02	13.72	-40.8	-41.8	22.2	0.00e+00	90	41	0	372244480	56	5624
2026-01-25 02:59:30.73	266.22	13.74	-40.5	-41.5	22.4	0.00e+00	80	41	0	373293056	54	6053
2026-01-25 02:59:31.74	266.42	13.77	-40.7	-41.7	22.2	0.00e+00	22	41	0	375390208	54	6211
2026-01-25 02:59:32.75	266.61	13.80	-40.7	-41.7	22.2	0.00e+00	92	41	0	377487360	54	6225
2026-01-25 02:59:33.76	266.81	13.83	-40.4	-41.4	22.3	0.00e+00	0	41	0	379584512	54	5987
2026-01-25 02:59:34.77	267.01	13.85	-40.6	-41.6	22.3	0.00e+00	90	41	0	381681664	54	6126
2026-01-25 02:59:35.77	267.21	13.88	-40.6	-41.6	22.2	0.00e+00	0	41	0	382730240	54	6132
2026-01-25 02:59:36.79	267.41	13.90	-40.7	-41.7	22.2	0.00e+00	83	41	0	384827392	54	6245
2026-01-25 02:59:37.80	267.61	13.93	-40.8	-41.9	22.1	0.00e+00	0	41	0	386924544	54	6328
2026-01-25 02:59:38.81	267.81	13.95	-41.0	-42.0	22.0	0.00e+00	92	41	0	389021696	54	6464
2026-01-25 02:59:39.81	268.01	13.98	-41.0	-42.0	21.9	0.00e+00	92	41	0	391118848	54	6455
2026-01-25 02:59:40.83	268.22	14.00	-40.5	-41.5	22.4	0.00e+00	0	41	0	392167424	54	6065
2026-01-25 02:59:41.84	268.42	14.03	-40.2	-41.2	22.6	0.00e+00	90	41	0	394264576	54	5858
2026-01-25 02:59:42.85	268.62	14.05	-40.4	-41.3	22.7	0.00e+00	0	41	0	396361728	54	5957
2026-01-25 02:59:43.86	268.82	14.08	-40.0	-41.0	22.8	0.00e+00	86	41	0	398458880	54	5719
2026-01-25 02:59:44.87	269.03	14.10	-40.2	-41.2	22.6	0.00e+00	0	41	0	400556032	54	5831
2026-01-25 02:59:45.88	269.23	14.12	-40.6	-41.6	22.3	0.00e+00	90	41	0	401604608	54	6149
2026-01-25 02:59:46.88	269.43	14.14	-40.7	-41.7	22.3	0.00e+00	92	41	0	403701760	54	6200
2026-01-25 02:59:47.89	269.63	14.17	-40.9	-42.0	21.7	0.00e+00	0	41	0	405798912	54	6406
2026-01-25 02:59:48.90	269.84	14.19	-40.9	-41.9	21.9	0.00e+00	92	41	0	407896064	54	6386
2026-01-25 02:59:49.91	270.04	14.21	-40.8	-41.8	22.1	0.00e+00	0	41	0	409993216	54	6285
2026-01-25 02:59:50.92	270.25	14.23	-40.7	-41.7	22.3	0.00e+00	83	41	0	412090368	54	6180
2026-01-25 02:59:51.93	270.45	14.25	-40.4	-41.4	22.5	0.00e+00	0	41	0	413138944	54	5989
2026-01-25 02:59:52.93	270.66	14.27	-40.3	-41.3	22.5	0.00e+00	90	41	0	415236096	54	5933
2026-01-25 02:59:53.94	270.86	14.29	-40.3	-41.3	22.4	0.00e+00	53	41	0	417333248	54	5948
2026-01-25 02:59:54.95	271.07	14.31	-40.6	-41.6	22.2	0.00e+00	0	41	0	419430400	54	6173
2026-01-25 02:59:55.96	271.27	14.33	-41.0	-42.1	21.9	0.00e+00	68	41	0	421527552	54	6501
2026-01-25 02:59:56.97	271.48	14.35	-41.4	-42.5	21.6	0.00e+00	0	41	0	422576128	54	6821
2026-01-25 02:59:57.97	271.68	14.37	-41.4	-42.5	21.5	0.00e+00	83	41	0	424673280	54	6839
2026-01-25 02:59:58.98	271.89	14.39	-41.4	-42.5	21.4	0.00e+00	0	41	0	426770432	54	6843
2026-01-25 02:59:59.99	272.10	14.41	-41.5	-42.6	21.4	0.00e+00	90	41	0	428867584	54	6886
2026-01-25 03:00:01.00	272.30	14.43	-41.2	-42.3	21.7	0.00e+00	29	41	0	429916160	54	6640
2026-01-25 03:00:02.01	272.51	14.45	-41.5	-42.6	21.4	0.00e+00	35	41	0	432013312	54	6890
2026-01-25 03:00:03.02	272.72	14.46	-41.3	-42.4	21.6	0.00e+00	92	41	0	434110464	54	6760
2026-01-25 03:00:04.03	272.93	14.48	-41.7	-42.8	21.2	0.00e+00	0	41	0	436207616	54	7075
2026-01-25 03:00:05.03	273.13	14.50	-42.5	-43.8	20.5	0.00e+00	77	41	0	438304768	56	7008
2026-01-25 03:00:06.04	273.34	14.51	-43.2	-44.6	19.7	0.00e+00	0	41	0	440401920	58	6924
2026-01-25 03:00:07.05	273.55	14.53	-43.5	-45.0	19.4	0.00e+00	62	41	0	441450496	58	7193
2026-01-25 03:00:08.06	273.76	14.55	-42.5	-43.7	20.5	0.00e+00	22	41	0	443547648	58	6242
2026-01-25 03:00:09.07	273.97	14.56	-42.0	-43.3	21.0	0.00e+00	42	41	0	445644800	58	5901
2026-01-25 03:00:10.08	274.18	14.58	-41.8	-42.9	21.3	0.00e+00	90	41	0	447741952	56	6360
2026-01-25 03:00:11.08	274.38	14.59	-41.1	-42.1	21.9	0.00e+00	0	41	0	449839104	56	5826
2026-01-25 03:00:12.09	274.59	14.61	-41.3	-42.4	21.7	0.00e+00	63	41	0	450887680	56	6015
2026-01-25 03:00:13.10	274.80	14.62	-41.2	-42.3	21.8	0.00e+00	0	41	0	452984832	56	5925
2026-01-25 03:00:14.11	275.01	14.63	-41.4	-42.6	21.6	0.00e+00	90	41	0	455081984	56	6113
2026-01-25 03:00:15.12	275.22	14.65	-41.9	-43.1	21.1	0.00e+00	57	41	0	457179136	56	6469
2026-01-25 03:00:16.13	275.43	14.66	-41.8	-43.0	21.2	0.00e+00	90	41	0	459276288	56	6400
2026-01-25 03:00:17.14	275.64	14.67	-41.6	-42.8	21.4	0.00e+00	92	41	0	460324864	56	6267
2026-01-25 03:00:18.15	275.85	14.68	-41.4	-42.5	21.8	0.00e+00	0	41	0	462422016	56	6057
2026-01-25 03:00:19.16	276.07	14.70	-41.0	-42.0	22.0	0.00e+00	87	41	0	464519168	56	5748
2026-01-25 03:00:20.17	276.28	14.71	-40.7	-41.7	22.2	0.00e+00	0	41	0	466616320	54	6205
2026-01-25 03:00:21.18	276.49	14.72	-40.5	-41.5	22.5	0.00e+00	90	41	0	468713472	54	6039
2026-01-25 03:00:22.19	276.70	14.73	-40.5	-41.5	22.4	0.00e+00	33	41	0	469762048	54	6083
2026-01-25 03:00:23.19	276.91	14.74	-40.6	-41.6	22.3	0.00e+00	92	41	0	471859200	54	6120
2026-01-25 03:00:24.20	277.12	14.75	-40.8	-41.8	22.1	0.00e+00	92	41	0	473956352	54	6280
2026-01-25 03:00:25.21	277.33	14.76	-40.6	-41.6	22.3	0.00e+00	0	41	0	476053504	54	6107
2026-01-25 03:00:26.22	277.54	14.77	-40.6	-41.6	22.4	0.00e+00	92	41	0	478150656	54	6125
2026-01-25 03:00:27.23	277.75	14.78	-40.4	-41.4	22.5	0.00e+00	0	41	0	479199232	54	6015
2026-01-25 03:00:28.24	277.97	14.79	-40.3	-41.3	22.5	0.00e+00	92	41	0	481296384	54	5923
2026-01-25 03:00:29.25	278.18	14.80	-40.5	-41.5	22.5	0.00e+00	0	41	0	483393536	54	6068
2026-01-25 03:00:30.26	278.39	14.80	-40.5	-41.5	22.4	0.00e+00	92	41	0	485490688	54	6074
2026-01-25 03:00:31.27	278.60	14.81	-40.8	-41.9	22.0	0.00e+00	92	41	0	487587840	54	6348
2026-01-25 03:00:32.27	278.81	14.82	-41.0	-42.1	21.8	0.00e+00	0	41	0	488636416	54	6516
2026-01-25 03:00:33.28	279.03	14.83	-41.2	-42.3	21.8	0.00e+00	90	41	0	490733568	54	6616
2026-01-25 03:00:34.29	279.24	14.83	-41.0	-42.1	22.0	0.00e+00	0	41	0	492830720	54	6467
2026-01-25 03:00:35.30	279.45	14.84	-40.7	-41.7	22.3	0.00e+00	92	41	0	494927872	54	6195
2026-01-25 03:00:36.31	279.66	14.85	-40.5	-41.5	22.4	0.00e+00	0	41	0	497025024	54	6101
2026-01-25 03:00:37.32	279.88	14.85	-40.2	-41.1	22.8	0.00e+00	92	41	0	498073600	54	5825
2026-01-25 03:00:38.33	280.09	14.86	-40.1	-41.1	22.7	0.00e+00	0	41	0	500170752	54	5793
2026-01-25 03:00:39.34	280.30	14.86	-40.4	-41.4	22.5	0.00e+00	51	41	0	502267904	54	6008
2026-01-25 03:00:40.35	280.52	14.87	-40.7	-41.7	22.3	0.00e+00	92	41	0	504365056	54	6190
2026-01-25 03:00:41.36	280.73	14.87	-40.8	-41.9	22.1	0.00e+00	0	41	0	506462208	54	6323
2026-01-25 03:00:42.37	280.94	14.87	-41.1	-42.1	21.9	0.00e+00	84	41	0	508559360	54	6536
2026-01-25 03:00:43.38	281.16	14.88	-41.1	-42.2	21.9	0.00e+00	0	41	0	509607936	54	6545
2026-01-25 03:00:44.39	281.37	14.88	-41.2	-42.3	21.7	0.00e+00	87	41	0	511705088	54	6676
2026-01-25 03:00:45.40	281.58	14.88	-41.2	-42.3	21.8	0.00e+00	0	41	0	513802240	54	6638
2026-01-25 03:00:46.41	281.80	14.88	-41.0	-42.1	21.9	0.00e+00	29	41	0	515899392	54	6486
2026-01-25 03:00:47.42	282.01	14.89	-41.1	-42.2	21.8	0.00e+00	92	41	0	517996544	54	6567
2026-01-25 03:00:48.42	282.22	14.89	-41.2	-42.2	21.8	0.00e+00	0	41	0	519045120	54	6602
2026-01-25 03:00:49.43	282.43	14.89	-41.1	-42.2	22.0	0.00e+00	76	41	0	521142272	54	6546
2026-01-25 03:00:50.44	282.65	14.89	-41.2	-42.2	21.8	0.00e+00	0	41	0	523239424	54	6600
2026-01-25 03:00:51.45	282.86	14.89	-41.0	-42.0	22.0	0.00e+00	86	41	0	525336576	54	6461
2026-01-25 03:00:52.46	283.07	14.89	-40.9	-42.0	22.0	0.00e+00	0	41	0	527433728	54	6428
2026-01-25 03:00:53.47	283.29	14.89	-40.6	-41.6	22.2	0.00e+00	92	41	0	528482304	54	6155
2026-01-25 03:00:54.48	283.50	14.89	-40.9	-41.9	22.1	0.00e+00	92	41	0	530579456	54	6350
2026-01-25 03:00:55.49	283.71	14.89	-41.1	-42.2	21.9	0.00e+00	0	41	0	532676608	54	6555
2026-01-25 03:00:56.50	283.93	14.89	-41.2	-42.2	21.8	0.00e+00	90	41	0	534773760	54	6615
2026-01-25 03:00:57.51	284.14	14.88	-41.5	-42.6	21.6	0.00e+00	0	41	0	536870912	54	6874
2026-01-25 03:00:58.51	284.35	14.88	-41.3	-42.4	21.6	0.00e+00	92	41	0	537919488	54	6749
2026-01-25 03:00:59.52	284.57	14.88	-41.3	-42.4	21.6	0.00e+00	0	41	0	540016640	54	6754
2026-01-25 03:01:00.53	284.78	14.88	-41.1	-42.2	21.9	0.00e+00	90	41	0	542113792	54	6588
2026-01-25 03:01:01.54	284.99	14.87	-41.1	-42.1	21.9	0.00e+00	29	41	0	544210944	54	6538
2026-01-25 03:01:02.55	285.21	14.87	-40.5	-41.5	22.4	0.00e+00	0	41	0	546308096	54	6068
2026-01-25 03:01:03.56	285.42	14.87	-40.6	-41.6	22.3	0.00e+00	92	41	0	547356672	54	6166
2026-01-25 03:01:04.57	285.63	14.86	-40.7	-41.8	22.2	0.00e+00	0	41	0	549453824	54	6257
2026-01-25 03:01:05.58	285.84	14.86	-41.0	-42.0	21.8	0.00e+00	90	41	0	551550976	54	6451
2026-01-25 03:01:06.59	286.06	14.85	-40.9	-42.0	21.5	0.00e+00	0	41	0	553648128	54	6412
2026-01-25 03:01:07.60	286.27	14.85	-40.7	-41.8	22.2	0.00e+00	92	41	0	555745280	54	6263
2026-01-25 03:01:08.61	286.48	14.84	-40.5	-41.5	22.3	0.00e+00	83	41	0	556793856	54	6083
2026-01-25 03:01:09.62	286.70	14.83	-40.5	-41.5	22.2	0.00e+00	8	41	0	558891008	54	6056
2026-01-25 03:01:10.63	286.91	14.83	-40.3	-41.3	22.6	0.00e+00	92	41	0	560988160	54	5898
2026-01-25 03:01:11.64	287.12	14.82	-40.2	-41.2	22.7	0.00e+00	0	41	0	563085312	54	5862
2026-01-25 03:01:12.65	287.33	14.81	-40.3	-41.3	22.6	0.00e+00	80	41	0	565182464	54	5899
2026-01-25 03:01:13.65	287.54	14.80	-40.5	-41.5	22.5	0.00e+00	0	41	0	566231040	54	6054
2026-01-25 03:01:14.66	287.75	14.80	-40.4	-41.4	22.5	0.00e+00	92	41	0	568328192	54	6030
2026-01-25 03:01:15.67	287.97	14.79	-40.4	-41.4	22.5	0.00e+00	57	41	0	570425344	54	5998
2026-01-25 03:01:16.68	288.18	14.78	-40.4	-41.4	22.5	0.00e+00	90	41	0	572522496	54	5993
2026-01-25 03:01:17.69	288.39	14.77	-40.4	-41.4	22.5	0.00e+00	92	41	0	574619648	54	6008
2026-01-25 03:01:18.70	288.60	14.76	-40.0	-41.0	22.9	0.00e+00	0	41	0	575668224	54	5712
2026-01-25 03:01:19.71	288.81	14.75	-39.7	-40.6	23.1	0.00e+00	49	41	0	577765376	52	6128
2026-01-25 03:01:20.72	289.02	14.74	-39.5	-40.4	23.4	0.00e+00	0	41	0	579862528	52	5971
2026-01-25 03:01:21.73	289.24	14.73	-39.5	-40.4	23.2	0.00e+00	92	41	0	581959680	52	6032
2026-01-25 03:01:22.74	289.45	14.72	-39.6	-40.5	23.1	0.00e+00	0	41	0	584056832	52	6075
2026-01-25 03:01:23.75	289.66	14.71	-39.6	-40.5	23.2	0.00e+00	92	41	0	585105408	52	6065
2026-01-25 03:01:24.76	289.87	14.70	-39.9	-40.8	23.0	0.00e+00	90	41	0	587202560	52	6283
2026-01-25 03:01:25.76	290.08	14.68	-40.1	-41.0	22.9	0.00e+00	0	41	0	589299712	52	6428
2026-01-25 03:01:26.77	290.29	14.67	-40.2	-41.1	22.7	0.00e+00	55	41	0	591396864	52	6513
2026-01-25 03:01:27.78	290.50	14.66	-40.3	-41.3	22.6	0.00e+00	0	41	0	593494016	52	6662
2026-01-25 03:01:28.79	290.71	14.65	-40.3	-41.3	22.6	0.00e+00	92	41	0	594542592	52	6633
2026-01-25 03:01:29.80	290.92	14.63	-40.3	-41.2	22.7	0.00e+00	0	41	0	596639744	52	6593
2026-01-25 03:01:30.81	291.13	14.62	-40.2	-41.2	22.6	0.00e+00	90	41	0	598736896	52	6588
2026-01-25 03:01:31.82	291.34	14.61	-40.1	-41.1	22.8	0.00e+00	92	41	0	600834048	52	6476
2026-01-25 03:01:32.83	291.55	14.59	-40.1	-41.1	22.7	0.00e+00	2	41	0	602931200	52	6502
2026-01-25 03:01:33.83	291.75	14.58	-40.0	-41.0	22.8	0.00e+00	84	41	0	605028352	52	6425
2026-01-25 03:01:34.85	291.96	14.56	-40.2	-41.2	22.7	0.00e+00	0	41	0	606076928	52	6542
2026-01-25 03:01:35.86	292.17	14.55	-40.2	-41.2	22.7	0.00e+00	89	41	0	608174080	52	6542
2026-01-25 03:01:36.87	292.38	14.53	-40.3	-41.3	22.7	0.00e+00	0	41	0	610271232	52	6638
2026-01-25 03:01:37.88	292.59	14.51	-40.5	-41.5	22.5	0.00e+00	92	41	0	612368384	52	6799
2026-01-25 03:01:38.89	292.80	14.50	-40.6	-41.6	22.4	0.00e+00	83	41	0	614465536	52	6888
2026-01-25 03:01:39.90	293.00	14.48	-40.7	-41.7	22.2	0.00e+00	0	41	0	615514112	52	6979
2026-01-25 03:01:40.90	293.21	14.46	-40.5	-41.5	22.4	0.00e+00	92	41	0	617611264	54	6088
2026-01-25 03:01:41.91	293.42	14.45	-40.7	-41.7	22.2	0.00e+00	0	41	0	619708416	54	6240
2026-01-25 03:01:42.92	293.62	14.43	-40.6	-41.6	22.3	0.00e+00	90	41	0	621805568	54	6163
2026-01-25 03:01:43.93	293.83	14.41	-40.6	-41.7	22.2	0.00e+00	0	41	0	623902720	54	6199
2026-01-25 03:01:44.94	294.04	14.39	-40.5	-41.5	22.4	0.00e+00	92	41	0	624951296	54	6075
2026-01-25 03:01:45.95	294.24	14.37	-40.3	-41.3	22.5	0.00e+00	83	41	0	627048448	54	5959
2026-01-25 03:01:46.96	294.45	14.35	-40.4	-41.4	22.5	0.00e+00	0	41	0	629145600	54	6024
2026-01-25 03:01:47.97	294.65	14.33	-40.2	-41.2	22.6	0.00e+00	90	41	0	631242752	54	5881
2026-01-25 03:01:48.98	294.86	14.31	-40.1	-41.1	22.8	0.00e+00	0	41	0	633339904	54	5770
2026-01-25 03:01:49.99	295.06	14.29	-40.1	-41.1	22.7	0.00e+00	84	41	0	634388480	54	5770
2026-01-25 03:01:51.00	295.27	14.27	-40.1	-41.0	22.9	0.00e+00	0	41	0	636485632	54	5739
2026-01-25 03:01:52.01	295.47	14.25	-39.6	-40.5	23.2	0.00e+00	92	41	0	638582784	52	6066
2026-01-25 03:01:53.02	295.68	14.23	-39.6	-40.5	23.2	0.00e+00	56	41	0	640679936	52	6093
2026-01-25 03:01:54.03	295.88	14.21	-39.5	-40.4	23.3	0.00e+00	0	41	0	642777088	52	6026
2026-01-25 03:01:55.04	296.09	14.19	-39.4	-40.3	23.3	0.00e+00	90	41	0	643825664	52	5956
2026-01-25 03:01:56.05	296.29	14.17	-39.3	-40.1	23.6	0.00e+00	0	41	0	645922816	52	5812
2026-01-25 03:01:57.06	296.49	14.15	-39.4	-40.3	23.4	0.00e+00	56	41	0	648019968	52	5935
2026-01-25 03:01:58.07	296.70	14.12	-39.5	-40.4	23.4	0.00e+00	0	41	0	650117120	52	5984
2026-01-25 03:01:59.08	296.90	14.10	-39.3	-40.2	23.6	0.00e+00	57	41	0	652214272	52	5882
2026-01-25 03:02:00.09	297.10	14.08	-39.3	-40.2	23.5	0.00e+00	0	41	0	653262848	52	5833
2026-01-25 03:02:01.10	297.30	14.05	-39.2	-40.1	23.6	0.00e+00	64	41	0	655360000	52	5771
2026-01-25 03:02:02.11	297.50	14.03	-39.1	-39.9	23.7	0.00e+00	92	41	0	657457152	52	5686
2026-01-25 03:02:03.12	297.71	14.00	-39.2	-40.1	23.5	0.00e+00	0	41	0	659554304	52	5768
2026-01-25 03:02:04.13	297.91	13.98	-39.2	-40.0	23.7	0.00e+00	80	41	0	661651456	52	5745
2026-01-25 03:02:05.14	298.11	13.96	-39.2	-40.1	23.6	0.00e+00	0	41	0	662700032	52	5803
2026-01-25 03:02:06.15	298.31	13.93	-39.4	-40.3	23.3	0.00e+00	83	41	0	664797184	52	5900
2026-01-25 03:02:07.15	298.50	13.91	-39.5	-40.4	23.4	0.00e+00	0	41	0	666894336	52	5996
2026-01-25 03:02:08.16	298.70	13.88	-39.7	-40.6	23.3	0.00e+00	95	41	0	668991488	52	6138
2026-01-25 03:02:09.17	298.90	13.85	-39.9	-40.8	23.0	0.00e+00	92	41	0	671088640	52	6312
2026-01-25 03:02:10.18	299.10	13.83	-39.9	-40.9	23.0	0.00e+00	0	41	0	673185792	52	6338
2026-01-25 03:02:11.19	299.30	13.80	-40.0	-41.0	22.9	0.00e+00	17	41	0	674234368	52	6397
2026-01-25 03:02:12.19	299.50	13.78	-40.2	-41.2	22.9	0.00e+00	33	41	0	676331520	52	6573
2026-01-25 03:02:13.21	299.70	13.75	-40.1	-41.0	22.9	0.00e+00	83	41	0	678428672	52	6459
2026-01-25 03:02:14.21	299.89	13.72	-40.0	-41.0	22.9	0.00e+00	0	41	0	680525824	52	6395
2026-01-25 03:02:15.22	300.09	13.69	-40.0	-41.0	22.9	0.00e+00	92	41	0	682622976	52	6412
2026-01-25 03:02:16.24	300.29	13.67	-39.9	-40.9	22.9	0.00e+00	0	41	0	683671552	52	6335
2026-01-25 03:02:17.24	300.48	13.64	-39.9	-40.8	23.0	0.00e+00	0	41	0	685768704	52	6316
2026-01-25 03:02:18.26	300.68	13.61	-39.9	-40.9	22.9	0.00e+00	27	41	0	687865856	52	6319
2026-01-25 03:02:19.26	300.88	13.58	-39.7	-40.6	23.3	0.00e+00	0	41	0	689963008	52	6123
2026-01-25 03:02:20.27	301.07	13.55	-39.5	-40.4	23.3	0.00e+00	79	41	0	692060160	52	5972
2026-01-25 03:02:21.28	301.27	13.52	-39.3	-40.2	23.4	0.00e+00	0	41	0	693108736	52	5884
2026-01-25 03:02:22.29	301.46	13.49	-39.1	-40.0	23.6	0.00e+00	91	41	0	695205888	52	5726
2026-01-25 03:02:23.30	301.65	13.46	-39.1	-40.0	23.7	0.00e+00	49	41	0	697303040	52	5736
2026-01-25 03:02:24.31	301.85	13.43	-38.8	-39.6	23.9	0.00e+00	0	41	0	699400192	52	5495
2026-01-25 03:02:25.31	302.04	13.40	-38.7	-39.5	23.9	0.00e+00	91	41	0	701497344	50	6072
2026-01-25 03:02:26.32	302.23	13.37	-38.7	-39.6	23.9	0.00e+00	0	41	0	702545920	50	6121
2026-01-25 03:02:27.33	302.43	13.34	-38.7	-39.5	23.9	0.00e+00	81	41	0	704643072	50	6097
2026-01-25 03:02:28.34	302.62	13.31	-38.8	-39.6	23.9	0.00e+00	0	41	0	706740224	50	6146
2026-01-25 03:02:29.35	302.81	13.28	-38.9	-39.8	23.7	0.00e+00	92	41	0	708837376	50	6273
2026-01-25 03:02:30.36	303.00	13.25	-38.8	-39.7	23.9	0.00e+00	0	41	0	710934528	50	6179
2026-01-25 03:02:31.37	303.19	13.22	-38.9	-39.8	23.9	0.00e+00	0	41	0	711983104	50	6289
2026-01-25 03:02:32.38	303.38	13.18	-39.2	-40.1	23.6	0.00e+00	90	41	0	714080256	50	6468
2026-01-25 03:02:33.39	303.57	13.15	-39.2	-40.1	23.6	0.00e+00	0	41	0	716177408	50	6468
2026-01-25 03:02:34.40	303.76	13.12	-39.0	-39.9	23.7	0.00e+00	84	41	0	718274560	50	6362
2026-01-25 03:02:35.41	303.95	13.09	-39.3	-40.2	23.5	0.00e+00	0	41	0	720371712	50	6554
2026-01-25 03:02:36.42	304.14	13.05	-39.3	-40.2	23.4	0.00e+00	92	41	0	721420288	50	6552
2026-01-25 03:02:37.42	304.33	13.02	-39.5	-40.4	23.3	0.00e+00	0	41	0	723517440	50	6745
2026-01-25 03:02:38.43	304.52	12.99	-39.9	-40.8	22.9	0.00e+00	0	41	0	725614592	52	6315
2026-01-25 03:02:39.44	304.70	12.95	-40.0	-40.9	22.9	0.00e+00	90	41	0	727711744	52	6375
2026-01-25 03:02:40.45	304.89	12.92	-40.1	-41.0	22.8	0.00e+00	0	41	0	729808896	52	6429
2026-01-25 03:02:41.46	305.08	12.89	-39.9	-40.9	22.9	0.00e+00	71	41	0	730857472	52	6341
2026-01-25 03:02:42.47	305.26	12.85	-40.2	-41.1	22.7	0.00e+00	0	41	0	732954624	52	6508
2026-01-25 03:02:43.48	305.45	12.82	-39.6	-40.5	23.2	0.00e+00	92	41	0	735051776	52	6072
2026-01-25 03:02:44.49	305.64	12.78	-39.4	-40.2	23.4	0.00e+00	0	41	0	737148928	52	5893
2026-01-25 03:02:45.50	305.82	12.75	-39.4	-40.3	23.3	0.00e+00	92	41	0	739246080	52	5958
2026-01-25 03:02:46.51	306.01	12.71	-39.6	-40.5	23.2	0.00e+00	84	41	0	740294656	52	6072
2026-01-25 03:02:47.51	306.19	12.68	-39.7	-40.7	22.9	0.00e+00	33	41	0	742391808	52	6175
2026-01-25 03:02:48.52	306.37	12.64	-39.8	-40.7	23.1	0.00e+00	0	41	0	744488960	52	6206
2026-01-25 03:02:49.53	306.56	12.60	-39.7	-40.6	23.1	0.00e+00	0	41	0	746586112	52	6150
2026-01-25 03:02:50.54	306.74	12.57	-39.7	-40.6	23.1	0.00e+00	80	41	0	748683264	52	6165
2026-01-25 03:02:51.55	306.92	12.53	-39.6	-40.5	23.2	0.00e+00	0	41	0	749731840	52	6052
2026-01-25 03:02:52.56	307.10	12.50	-39.4	-40.3	23.4	0.00e+00	32	41	0	751828992	52	5916
2026-01-25 03:02:53.57	307.29	12.46	-39.5	-40.4	23.3	0.00e+00	78	41	0	753926144	52	6029
2026-01-25 03:02:54.58	307.47	12.42	-39.6	-40.5	23.2	0.00e+00	0	41	0	756023296	52	6068
2026-01-25 03:02:55.59	307.65	12.38	-39.8	-40.8	23.0	0.00e+00	87	41	0	758120448	52	6262
2026-01-25 03:02:56.60	307.83	12.35	-40.0	-41.0	22.8	0.00e+00	0	41	0	759169024	52	6416
2026-01-25 03:02:57.61	308.01	12.31	-40.5	-41.5	22.3	0.00e+00	78	41	0	761266176	52	6787
2026-01-25 03:02:58.61	308.19	12.27	-40.3	-41.3	22.5	0.00e+00	0	41	0	763363328	52	6624
2026-01-25 03:02:59.62	308.36	12.23	-40.4	-41.4	22.5	0.00e+00	92	41	0	765460480	52	6751
2026-01-25 03:03:00.63	308.54	12.20	-40.5	-41.5	22.4	0.00e+00	80	41	0	767557632	52	6827
2026-01-25 03:03:01.64	308.72	12.16	-40.5	-41.5	22.3	0.00e+00	0	41	0	768606208	52	6837
2026-01-25 03:03:02.65	308.90	12.12	-40.7	-41.7	22.2	0.00e+00	92	41	0	770703360	54	6203
2026-01-25 03:03:03.66	309.08	12.08	-40.7	-41.7	21.9	0.00e+00	0	41	0	772800512	54	6236
2026-01-25 03:03:04.67	309.25	12.04	-40.6	-41.6	22.3	0.00e+00	78	41	0	774897664	54	6143
2026-01-25 03:03:05.68	309.43	12.00	-40.6	-41.6	22.4	0.00e+00	0	41	0	776994816	54	6171
2026-01-25 03:03:06.69	309.61	11.96	-40.5	-41.5	22.5	0.00e+00	92	41	0	779091968	54	6068
2026-01-25 03:03:07.70	309.78	11.92	-40.8	-41.8	22.2	0.00e+00	0	41	0	780140544	54	6259
2026-01-25 03:03:08.71	309.96	11.89	-40.9	-41.9	21.9	0.00e+00	0	41	0	782237696	54	6366
2026-01-25 03:03:09.72	310.13	11.85	-41.1	-42.2	21.7	0.00e+00	78	41	0	784334848	54	6580
2026-01-25 03:03:10.73	310.30	11.81	-41.3	-42.4	21.6	0.00e+00	0	41	0	786432000	54	6733
2026-01-25 03:03:11.74	310.48	11.77	-41.6	-42.8	21.2	0.00e+00	32	41	0	788529152	54	7026
2026-01-25 03:03:12.74	310.65	11.73	-41.8	-43.0	21.1	0.00e+00	0	41	0	789577728	56	6404
2026-01-25 03:03:13.75	310.82	11.69	-41.9	-43.1	21.1	0.00e+00	90	41	0	791674880	56	6483
2026-01-25 03:03:14.76	310.99	11.64	-41.8	-43.0	21.1	0.00e+00	0	41	0	793772032	56	6438
2026-01-25 03:03:15.77	311.17	11.60	-41.7	-42.9	21.3	0.00e+00	0	41	0	795869184	56	6343
2026-01-25 03:03:16.77	311.34	11.56	-41.5	-42.6	21.5	0.00e+00	91	41	0	797966336	56	6155
2026-01-25 03:03:17.79	311.51	11.52	-41.7	-42.8	21.3	0.00e+00	0	41	0	799014912	56	6293
2026-01-25 03:03:18.80	311.68	11.48	-42.1	-43.3	20.8	0.00e+00	78	41	0	801112064	56	6683
2026-01-25 03:03:19.80	311.85	11.44	-42.5	-43.8	20.5	0.00e+00	0	41	0	803209216	56	7087
2026-01-25 03:03:20.81	312.02	11.40	-42.2	-43.5	20.6	0.00e+00	92	41	0	805306368	56	6829
2026-01-25 03:03:21.82	312.18	11.36	-42.5	-43.8	20.5	0.00e+00	0	41	0	807403520	56	7032
2026-01-25 03:03:22.83	312.35	11.32	-42.2	-43.5	20.7	0.00e+00	0	41	0	808452096	56	6803
2026-01-25 03:03:23.84	312.52	11.27	-42.0	-43.3	20.9	0.00e+00	82	41	0	810549248	56	6636
2026-01-25 03:03:24.85	312.69	11.23	-41.6	-42.7	21.3	0.00e+00	0	41	0	812646400	56	6221
2026-01-25 03:03:25.86	312.86	11.19	-41.3	-42.5	21.6	0.00e+00	83	41	0	814743552	56	6034
2026-01-25 03:03:26.87	313.02	11.15	-41.1	-42.1	21.8	0.00e+00	0	41	0	816840704	56	5821
2026-01-25 03:03:27.88	313.19	11.10	-41.1	-42.1	21.8	0.00e+00	90	41	0	817889280	56	5810
2026-01-25 03:03:28.89	313.35	11.06	-41.3	-42.4	21.6	0.00e+00	0	41	0	819986432	56	6014
2026-01-25 03:03:29.90	313.52	11.02	-41.3	-42.4	21.6	0.00e+00	87	41	0	822083584	56	5995
2026-01-25 03:03:30.91	313.68	10.98	-41.7	-42.9	21.2	0.00e+00	0	41	0	824180736	56	6334
2026-01-25 03:03:31.91	313.85	10.93	-41.6	-42.8	21.2	0.00e+00	0	41	0	826277888	56	6287
2026-01-25 03:03:32.93	314.01	10.89	-41.9	-43.1	20.9	0.00e+00	42	41	0	827326464	56	6477
2026-01-25 03:03:33.94	314.18	10.85	-42.4	-43.7	20.4	0.00e+00	0	41	0	829423616	56	6987
2026-01-25 03:03:34.95	314.34	10.80	-42.4	-43.7	20.4	0.00e+00	81	41	0	831520768	56	6963
2026-01-25 03:03:35.95	314.50	10.76	-42.9	-44.3	19.9	0.00e+00	0	41	0	833617920	58	6667
2026-01-25 03:03:36.96	314.66	10.72	-42.6	-43.9	20.4	0.00e+00	80	41	0	835715072	58	6340
2026-01-25 03:03:37.97	314.82	10.67	-42.2	-43.5	20.5	0.00e+00	0	41	0	836763648	58	6068
2026-01-25 03:03:38.98	314.98	10.63	-42.1	-43.4	20.8	0.00e+00	0	41	0	838860800	58	5987
2026-01-25 03:03:39.99	315.14	10.58	-42.5	-43.9	20.1	0.00e+00	49	41	0	840957952	58	6341
2026-01-25 03:03:41.00	315.30	10.54	-42.9	-44.3	20.0	0.00e+00	0	41	0	843055104	58	6637
2026-01-25 03:03:42.01	315.46	10.50	-42.5	-43.8	20.4	0.00e+00	48	41	0	845152256	58	6310
2026-01-25 03:03:43.02	315.62	10.45	-42.6	-43.9	20.1	0.00e+00	0	41	0	847249408	58	6387
2026-01-25 03:03:44.03	315.78	10.41	-42.5	-43.8	20.4	0.00e+00	64	41	0	848297984	58	6275
2026-01-25 03:03:45.04	315.94	10.36	-42.5	-43.8	20.4	0.00e+00	0	41	0	850395136	58	6249
2026-01-25 03:03:46.05	316.10	10.32	-43.0	-44.4	19.8	0.00e+00	0	41	0	852492288	58	6741
2026-01-25 03:03:47.05	316.25	10.27	-42.3	-43.6	20.5	0.00e+00	92	41	0	854589440	58	6155
2026-01-25 03:03:48.06	316.41	10.23	-42.4	-43.7	20.5	0.00e+00	0	41	0	856686592	58	6191
2026-01-25 03:03:49.07	316.57	10.18	-42.1	-43.4	20.8	0.00e+00	51	41	0	857735168	58	5982
2026-01-25 03:03:50.08	316.72	10.14	-41.9	-43.1	21.0	0.00e+00	0	41	0	859832320	56	6477
2026-01-25 03:03:51.09	316.88	10.09	-42.9	-44.3	19.9	0.00e+00	92	41	0	861929472	58	6661
2026-01-25 03:03:52.10	317.03	10.05	-42.0	-43.2	20.8	0.00e+00	0	41	0	864026624	58	5881
2026-01-25 03:03:53.11	317.19	10.00	-41.9	-43.1	21.0	0.00e+00	65	41	0	866123776	56	6484
2026-01-25 03:03:54.11	317.34	9.96	-41.6	-42.7	21.2	0.00e+00	92	41	0	867172352	56	6238
2026-01-25 03:03:55.12	317.49	9.91	-41.5	-42.7	21.3	0.00e+00	0	41	0	869269504	56	6187
2026-01-25 03:03:56.13	317.65	9.87	-41.1	-42.2	21.7	0.00e+00	80	41	0	871366656	56	5885
2026-01-25 03:03:57.14	317.80	9.82	-41.2	-42.3	21.6	0.00e+00	0	41	0	873463808	56	5911
2026-01-25 03:03:58.15	317.95	9.78	-41.4	-42.5	21.5	0.00e+00	92	41	0	875560960	56	6096
2026-01-25 03:03:59.16	318.10	9.73	-41.2	-42.3	21.5	0.00e+00	33	41	0	876609536	56	5906
2026-01-25 03:04:00.17	318.25	9.68	-41.1	-42.2	21.5	0.00e+00	90	41	0	878706688	56	5877
2026-01-25 03:04:01.18	318.40	9.64	-41.1	-42.2	21.7	0.00e+00	75	41	0	880803840	56	5878
2026-01-25 03:04:02.19	318.55	9.59	-41.4	-42.6	21.3	0.00e+00	0	41	0	882900992	56	6109
2026-01-25 03:04:03.20	318.70	9.54	-41.8	-43.0	20.9	0.00e+00	73	41	0	884998144	56	6463
2026-01-25 03:04:04.21	318.85	9.50	-42.2	-43.5	20.6	0.00e+00	0	41	0	886046720	56	6809
2026-01-25 03:04:05.22	319.00	9.45	-42.2	-43.5	20.6	0.00e+00	82	41	0	888143872	56	6773
2026-01-25 03:04:06.23	319.15	9.41	-42.6	-44.0	20.2	0.00e+00	0	41	0	890241024	56	7182
2026-01-25 03:04:07.23	319.30	9.36	-42.6	-44.0	20.1	0.00e+00	90	41	0	892338176	58	6418
2026-01-25 03:04:08.24	319.44	9.31	-42.5	-43.9	20.2	0.00e+00	0	41	0	894435328	58	6356
2026-01-25 03:04:09.25	319.59	9.27	-42.3	-43.6	20.5	0.00e+00	0	41	0	895483904	58	6139
2026-01-25 03:04:10.26	319.74	9.22	-42.2	-43.5	20.5	0.00e+00	0	41	0	897581056	58	6052
2026-01-25 03:04:11.27	319.88	9.17	-42.2	-43.5	20.4	0.00e+00	0	41	0	899678208	58	6066
2026-01-25 03:04:12.28	320.03	9.13	-42.0	-43.3	20.9	0.00e+00	92	41	0	901775360	58	5922
2026-01-25 03:04:13.29	320.18	9.08	-41.7	-42.9	21.0	0.00e+00	0	41	0	903872512	56	6366
2026-01-25 03:04:14.30	320.32	9.03	-41.8	-43.0	21.0	0.00e+00	90	41	0	904921088	56	6408
2026-01-25 03:04:15.31	320.46	8.98	-41.5	-42.6	21.3	0.00e+00	0	41	0	907018240	56	6157
2026-01-25 03:04:16.32	320.61	8.94	-41.5	-42.7	21.2	0.00e+00	0	41	0	909115392	56	6187
2026-01-25 03:04:17.33	320.75	8.89	-41.5	-42.6	21.3	0.00e+00	78	41	0	911212544	56	6171
2026-01-25 03:04:18.34	320.89	8.84	-41.4	-42.5	21.3	0.00e+00	0	41	0	913309696	56	6091
2026-01-25 03:04:19.35	321.04	8.79	-41.6	-42.7	21.3	0.00e+00	80	41	0	914358272	56	6240
2026-01-25 03:04:20.36	321.18	8.75	-41.2	-42.4	21.6	0.00e+00	0	41	0	916455424	56	5979
2026-01-25 03:04:21.37	321.32	8.70	-40.9	-42.0	21.7	0.00e+00	90	41	0	918552576	56	5716
2026-01-25 03:04:22.38	321.46	8.65	-40.9	-42.0	21.7	0.00e+00	0	41	0	920649728	56	5722
2026-01-25 03:04:23.39	321.60	8.60	-40.8	-41.9	21.9	0.00e+00	0	41	0	922746880	56	5667
2026-01-25 03:04:24.40	321.74	8.56	-41.1	-42.2	21.7	0.00e+00	79	41	0	923795456	56	5844
2026-01-25 03:04:25.41	321.88	8.51	-41.5	-42.6	21.2	0.00e+00	0	41	0	925892608	56	6168
2026-01-25 03:04:26.42	322.02	8.46	-41.8	-43.0	20.9	0.00e+00	74	41	0	927989760	56	6407
2026-01-25 03:04:27.43	322.16	8.41	-41.5	-42.6	21.3	0.00e+00	0	41	0	930086912	56	6141
2026-01-25 03:04:28.44	322.30	8.37	-41.7	-42.8	21.1	0.00e+00	92	41	0	932184064	56	6301
2026-01-25 03:04:29.45	322.44	8.32	-41.9	-43.1	20.9	0.00e+00	0	41	0	933232640	56	6524
2026-01-25 03:04:30.46	322.58	8.27	-41.4	-42.6	21.3	0.00e+00	0	41	0	935329792	56	6115
2026-01-25 03:04:31.47	322.71	8.22	-41.7	-42.9	21.1	0.00e+00	92	41	0	937426944	56	6323
2026-01-25 03:04:32.48	322.85	8.17	-41.4	-42.5	21.3	0.00e+00	0	41	0	939524096	56	6100
2026-01-25 03:04:33.49	322.99	8.13	-41.2	-42.4	21.4	0.00e+00	25	41	0	941621248	56	5968
2026-01-25 03:04:34.50	323.12	8.08	-41.4	-42.6	21.2	0.00e+00	0	41	0	943718400	56	6120
2026-01-25 03:04:35.51	323.26	8.03	-41.6	-42.8	21.1	0.00e+00	92	41	0	944766976	56	6300
2026-01-25 03:04:36.51	323.39	7.98	-41.3	-42.4	21.4	0.00e+00	0	41	0	946864128	56	5991
2026-01-25 03:04:37.52	323.53	7.93	-40.4	-41.4	22.1	0.00e+00	49	41	0	948961280	54	6031
2026-01-25 03:04:38.53	323.66	7.88	-40.8	-41.9	21.8	0.00e+00	0	41	0	951058432	54	6339
2026-01-25 03:04:39.54	323.79	7.84	-40.9	-41.9	21.6	0.00e+00	0	41	0	953155584	54	6389
2026-01-25 03:04:40.55	323.93	7.79	-41.1	-42.3	21.4	0.00e+00	34	41	0	954204160	54	6632
2026-01-25 03:04:41.56	324.06	7.74	-41.5	-42.7	21.0	0.00e+00	0	41	0	956301312	54	6936
2026-01-25 03:04:42.57	324.19	7.69	-41.6	-42.8	21.1	0.00e+00	83	41	0	958398464	56	6280
2026-01-25 03:04:43.58	324.33	7.64	-41.7	-42.9	20.9	0.00e+00	0	41	0	960495616	56	6350
2026-01-25 03:04:44.59	324.46	7.59	-41.8	-43.0	20.8	0.00e+00	69	41	0	962592768	56	6432
2026-01-25 03:04:45.60	324.59	7.54	-41.8	-43.0	20.8	0.00e+00	9	41	0	963641344	56	6439
2026-01-25 03:04:46.61	324.72	7.50	-41.8	-43.0	20.8	0.00e+00	0	41	0	965738496	56	6449
2026-01-25 03:04:47.62	324.85	7.45	-41.4	-42.5	21.3	0.00e+00	49	41	0	967835648	56	6102
2026-01-25 03:04:48.63	324.98	7.40	-41.3	-42.4	21.4	0.00e+00	0	41	0	969932800	56	6004
2026-01-25 03:04:49.64	325.11	7.35	-41.2	-42.4	21.4	0.00e+00	88	41	0	972029952	56	5966
2026-01-25 03:04:50.65	325.24	7.30	-41.3	-42.5	21.3	0.00e+00	0	41	0	973078528	56	6059
2026-01-25 03:04:51.65	325.37	7.25	-41.2	-42.4	21.4	0.00e+00	0	41	0	975175680	56	5972
2026-01-25 03:04:52.66	325.49	7.20	-41.4	-42.5	21.3	0.00e+00	0	41	0	977272832	56	6092
2026-01-25 03:04:53.67	325.62	7.16	-41.7	-42.9	20.9	0.00e+00	0	41	0	979369984	56	6375
2026-01-25 03:04:54.68	325.75	7.11	-42.0	-43.2	20.6	0.00e+00	87	41	0	981467136	56	6608
2026-01-25 03:04:55.69	325.88	7.06	-41.7	-43.0	20.9	0.00e+00	0	41	0	982515712	56	6395
2026-01-25 03:04:56.70	326.00	7.01	-41.5	-42.6	21.1	0.00e+00	72	41	0	984612864	56	6168
2026-01-25 03:04:57.71	326.13	6.96	-41.7	-42.9	20.9	0.00e+00	0	41	0	986710016	56	6344
2026-01-25 03:04:58.72	326.26	6.91	-41.4	-42.6	21.2	0.00e+00	0	41	0	988807168	56	6110
2026-01-25 03:04:59.73	326.38	6.86	-41.9	-43.2	20.6	0.00e+00	0	41	0	990904320	56	6565
2026-01-25 03:05:00.74	326.51	6.81	-41.8	-43.1	20.8	0.00e+00	0	41	0	991952896	56	6496
2026-01-25 03:05:01.75	326.63	6.76	-41.8	-43.1	20.8	0.00e+00	75	41	0	994050048	56	6466
2026-01-25 03:05:02.76	326.75	6.72	-41.5	-42.7	21.2	0.00e+00	0	41	0	996147200	56	6182
2026-01-25 03:05:03.77	326.88	6.67	-41.9	-43.1	20.7	0.00e+00	78	41	0	998244352	56	6519
2026-01-25 03:05:04.77	327.00	6.62	-42.2	-43.5	20.3	0.00e+00	0	41	0	1000341504	56	6799
2026-01-25 03:05:05.78	327.12	6.57	-42.2	-43.5	20.4	0.00e+00	0	41	0	1001390080	56	6848
2026-01-25 03:05:06.79	327.25	6.52	-41.8	-43.0	20.8	0.00e+00	0	41	0	1003487232	56	6460
2026-01-25 03:05:07.80	327.37	6.47	-41.8	-43.1	20.7	0.00e+00	0	41	0	1005584384	56	6480
2026-01-25 03:05:08.81	327.49	6.42	-42.1	-43.4	20.4	0.00e+00	78	41	0	1007681536	56	6755
2026-01-25 03:05:09.82	327.61	6.37	-42.2	-43.5	20.4	0.00e+00	0	41	0	1009778688	56	6823
2026-01-25 03:05:10.82	327.73	6.32	-41.4	-42.5	20.9	0.00e+00	59	42	0	1011875840	56	6084
2026-01-25 03:05:11.83	327.85	6.27	-42.1	-43.4	20.5	0.00e+00	0	41	0	1012924416	56	6716
2026-01-25 03:05:12.84	327.97	6.23	-41.9	-43.1	20.6	0.00e+00	0	41	0	1015021568	56	6518
2026-01-25 03:05:13.85	328.09	6.18	-42.5	-43.9	20.0	0.00e+00	0	41	0	1017118720	56	7130
2026-01-25 03:05:14.86	328.21	6.13	-42.3	-43.7	20.1	0.00e+00	0	41	0	1019215872	56	6971
2026-01-25 03:05:15.87	328.33	6.08	-42.4	-43.8	19.9	0.00e+00	79	42	0	1021313024	56	7059
2026-01-25 03:05:16.88	328.45	6.03	-42.3	-43.6	20.1	0.00e+00	0	41	0	1022361600	56	6902
2026-01-25 03:05:17.89	328.57	5.98	-41.9	-43.2	20.6	0.00e+00	78	41	0	1024458752	56	6550
2026-01-25 03:05:18.90	328.69	5.93	-42.1	-43.4	20.3	0.00e+00	0	41	0	1026555904	56	6739
2026-01-25 03:05:19.91	328.80	5.88	-41.6	-42.8	20.8	0.00e+00	0	41	0	1028653056	56	6255
2026-01-25 03:05:20.92	328.92	5.83	-42.2	-43.5	20.3	0.00e+00	0	41	0	1030750208	56	6795
2026-01-25 03:05:21.92	329.04	5.78	-41.6	-42.8	20.9	0.00e+00	0	42	0	1031798784	56	6284
2026-01-25 03:05:22.93	329.15	5.73	-41.9	-43.2	20.5	0.00e+00	77	41	0	1033895936	56	6556
2026-01-25 03:05:23.94	329.27	5.68	-41.7	-43.0	20.8	0.00e+00	0	42	0	1035993088	56	6392
2026-01-25 03:05:24.95	329.39	5.64	-41.6	-42.9	20.5	0.00e+00	76	41	0	1038090240	56	6347
2026-01-25 03:05:25.96	329.50	5.59	-42.3	-43.6	20.4	0.00e+00	0	41	0	1040187392	56	6920
2026-01-25 03:05:26.97	329.62	5.54	-41.4	-42.6	21.0	0.00e+00	0	41	0	1041235968	56	6140
2026-01-25 03:05:27.98	329.73	5.49	-41.6	-42.8	21.0	0.00e+00	0	41	0	1043333120	56	6304
2026-01-25 03:05:28.99	329.84	5.44	-41.4	-42.6	20.7	0.00e+00	0	42	0	1045430272	56	6110
2026-01-25 03:05:30.00	329.96	5.39	-42.5	-43.9	19.9	0.00e+00	0	42	0	1047527424	58	6329
2026-01-25 03:05:31.01	330.07	5.34	-41.6	-42.8	20.8	0.00e+00	0	41	0	1049624576	58	5601
2026-01-25 03:05:32.02	330.19	5.29	-41.5	-42.7	20.8	0.00e+00	27	41	0	1050673152	56	6193
2026-01-25 03:05:33.03	330.30	5.24	-41.5	-42.7	20.8	0.00e+00	0	41	0	1052770304	56	6202
2026-01-25 03:05:34.04	330.41	5.19	-42.1	-43.4	20.2	0.00e+00	52	42	0	1054867456	56	6719
2026-01-25 03:05:35.05	330.52	5.14	-41.8	-43.1	20.4	0.00e+00	0	41	0	1056964608	56	6529
2026-01-25 03:05:36.06	330.63	5.09	-43.0	-44.6	19.3	0.00e+00	0	41	0	1059061760	58	6868
2026-01-25 03:05:37.06	330.74	5.05	-42.7	-44.2	19.3	0.00e+00	0	41	0	1060110336	58	6551
2026-01-25 03:05:38.07	330.86	5.00	-42.7	-44.2	19.3	0.00e+00	0	41	0	1062207488	58	6579
2026-01-25 03:05:39.09	330.97	4.95	-43.1	-44.7	18.8	0.00e+00	49	41	0	1064304640	58	6928
2026-01-25 03:05:40.09	331.08	4.90	-43.2	-44.8	18.8	0.00e+00	0	42	0	1066401792	58	7054
2026-01-25 03:05:41.10	331.19	4.85	-43.1	-44.7	18.9	0.00e+00	57	42	0	1068498944	58	6936
2026-01-25 03:05:42.11	331.30	4.80	-43.5	-45.3	17.8	0.00e+00	0	41	0	1069547520	58	7431
2026-01-25 03:05:43.12	331.41	4.75	-44.0	-45.8	18.1	0.00e+00	0	42	0	1071644672	60	7087
2026-01-25 03:05:44.13	331.51	4.70	-43.1	-44.8	18.7	0.00e+00	0	42	0	1073741824	60	6261
2026-01-25 03:05:45.14	331.62	4.65	-43.5	-45.3	17.6	0.00e+00	0	41	0	1075838976	60	6663
2026-01-25 03:05:46.15	331.73	4.60	-44.2	-46.3	17.2	0.00e+00	73	41	0	1077936128	60	7494
2026-01-25 03:05:47.16	331.84	4.55	-44.7	-47.1	16.0	0.00e+00	0	41	0	1080033280	60	8187
2026-01-25 03:05:48.17	331.95	4.50	-43.9	-46.0	16.7	0.00e+00	92	41	0	1081081856	60	7252
2026-01-25 03:05:49.18	332.05	4.46	-44.7	-47.3	15.1	0.00e+00	0	41	0	1083179008	60	8406
2026-01-25 03:05:50.19	332.16	4.41	-45.1	-48.4	13.7	7.00e-07	0	42	0	1085276160	60	9537
2026-01-25 03:05:51.20	332.27	4.36	-45.4	-49.4	12.0	9.61e-05	0	42	0	1087373312	60	10636
2026-01-25 03:05:52.21	332.37	4.31	-45.1	-49.1	12.1	1.88e-04	0	42	0	1089470464	60	10362
2026-01-25 03:05:53.22	332.48	4.26	-45.5	-51.1	9.3	2.25e-03	73	42	0	1090519040	60	12903
2026-01-25 03:05:54.22	332.58	4.21	-45.8	-53.1	6.7	9.04e-02	0	42	0	1092616192	60	16254
2026-01-25 03:05:55.23	332.69	4.16	-45.8	-53.9	5.6	2.19e-01	92	42	0	1094713344	60	17853
2026-01-25 03:05:56.24	332.79	4.11	-45.8	-54.7	4.7	4.78e-01	0	42	0	1096810496	60	19585
2026-01-25 03:05:57.25	332.90	4.06	-45.8	-56.1	3.9	1.09e+00	41	42	0	1097859072	60	22947
2026-01-25 03:05:58.26	333.00	4.01	-45.8	-58.4	3.8	1.49e+00	0	42	104	1097859072	60	30125
2026-01-25 03:05:59.27	333.11	3.97	-45.8	-59.3	3.6	1.50e+00	0	42	104	1097859072	60	33375
2026-01-25 03:06:00.28	333.21	3.92	-45.8	-59.8	3.6	1.51e+00	0	42	104	1097859072	60	35132
2026-01-25 03:06:01.29	333.31	3.87	-45.7	-59.9	3.6	1.51e+00	0	42	104	1097859072	60	35812
2026-01-25 03:06:02.30	333.41	3.82	-45.8	-60.3	3.6	1.51e+00	0	42	104	1097859072	60	37471
2026-01-25 03:06:03.31	333.52	3.77	-45.9	-61.0	3.6	1.51e+00	0	42	104	1097859072	60	40465
