passes_logs/2026/01/20/R4.6S_Anadyr/R4.6S_Anadyr__20260120_131029_SUOMI_NPP_rec.log

#Pass ID: 20260120_131029_SUOMI NPP
#Satellite: SUOMI NPP
#Configuration: NPP
#almurnet v.1.7.20251203
#Start time: 2026-01-20 13:10:32

#Version: 2.2.20231116
#Station: R4.6S_Anadyr
#Location: 177.4865 lon 64.73178 lat
#TLE: 1 37849U 11061A   26019.89702167  .00000121  00000+0  78274-4 0  9993
#TLE: 2 37849  98.7817 321.9035 0002338  55.0397 305.0998 14.19526700737401

#Time	Az	El	Level	Level2	SNR	BER	BlckErr	Temp	State	Recorded	gain1	gain2
2026-01-20 13:10:32.11	18.91	0.16	-52.6	-66.3	3.3	1.54e+00	0	40	0	0	60	75058
2026-01-20 13:10:33.12	18.96	0.21	-52.9	-68.1	3.6	1.51e+00	0	40	104	0	60	91838
2026-01-20 13:10:34.12	19.01	0.27	-52.1	-67.4	3.6	1.51e+00	0	41	104	0	60	84343
2026-01-20 13:10:35.13	19.07	0.32	-51.9	-67.1	3.6	1.51e+00	0	41	104	0	60	81845
2026-01-20 13:10:36.14	19.12	0.38	-51.6	-66.9	3.6	1.51e+00	0	41	104	0	60	79588
2026-01-20 13:10:37.15	19.18	0.43	-51.6	-66.8	3.6	1.51e+00	0	41	104	0	60	78685
2026-01-20 13:10:38.16	19.23	0.49	-51.5	-66.7	3.6	1.51e+00	0	41	104	0	60	78239
2026-01-20 13:10:39.17	19.28	0.55	-51.5	-66.8	3.6	1.51e+00	0	41	104	0	60	78954
2026-01-20 13:10:40.18	19.34	0.60	-51.6	-66.7	3.6	1.51e+00	0	41	104	0	60	78597
2026-01-20 13:10:41.19	19.39	0.66	-51.4	-66.7	3.6	1.51e+00	0	41	104	0	60	78081
2026-01-20 13:10:42.20	19.45	0.71	-51.4	-66.6	3.6	1.51e+00	0	41	104	0	60	77605
2026-01-20 13:10:43.22	19.51	0.77	-51.3	-66.6	3.6	1.51e+00	0	41	104	0	60	77149
2026-01-20 13:10:44.23	19.56	0.83	-51.2	-66.5	3.6	1.51e+00	0	41	104	0	60	75961
2026-01-20 13:10:45.24	19.62	0.88	-51.1	-66.3	3.6	1.51e+00	0	41	104	0	60	74282
2026-01-20 13:10:46.24	19.67	0.94	-50.9	-66.1	3.5	1.51e+00	0	41	104	0	60	73207
2026-01-20 13:10:47.26	19.73	0.99	-50.8	-66.0	3.6	1.51e+00	0	41	104	0	60	71963
2026-01-20 13:10:48.27	19.79	1.05	-50.6	-65.9	3.6	1.51e+00	0	41	104	0	60	71076
2026-01-20 13:10:49.28	19.84	1.11	-50.5	-65.7	3.6	1.51e+00	0	41	104	0	60	69914
2026-01-20 13:10:50.29	19.90	1.16	-50.5	-65.7	3.6	1.51e+00	0	41	104	0	60	69941
2026-01-20 13:10:51.30	19.96	1.22	-50.5	-65.7	3.6	1.51e+00	0	41	104	0	60	69764
2026-01-20 13:10:52.31	20.01	1.28	-50.2	-65.4	3.6	1.51e+00	0	41	104	0	60	67223
2026-01-20 13:10:53.32	20.07	1.33	-49.9	-65.1	3.6	1.51e+00	0	41	104	0	60	65228
2026-01-20 13:10:54.33	20.13	1.39	-49.6	-64.8	3.6	1.51e+00	0	41	104	0	60	63069
2026-01-20 13:10:55.34	20.19	1.45	-49.6	-64.8	3.6	1.51e+00	0	41	104	0	60	62599
2026-01-20 13:10:56.35	20.24	1.50	-49.6	-64.8	3.6	1.51e+00	0	41	104	0	60	62709
2026-01-20 13:10:57.36	20.30	1.56	-49.6	-64.7	3.6	1.51e+00	0	41	104	0	60	61928
2026-01-20 13:10:58.37	20.36	1.62	-49.5	-64.5	3.6	1.51e+00	0	41	104	0	60	60532
2026-01-20 13:10:59.38	20.42	1.68	-49.6	-64.8	3.6	1.51e+00	0	41	104	0	60	62477
2026-01-20 13:11:00.39	20.48	1.73	-49.5	-64.7	3.6	1.51e+00	0	41	104	0	60	62122
2026-01-20 13:11:01.40	20.54	1.79	-49.5	-64.7	3.6	1.51e+00	0	41	104	0	60	62071
2026-01-20 13:11:02.41	20.60	1.85	-49.5	-64.7	3.6	1.51e+00	0	41	104	0	60	61836
2026-01-20 13:11:03.42	20.66	1.91	-49.6	-64.7	3.6	1.51e+00	0	41	104	0	60	62288
2026-01-20 13:11:04.43	20.72	1.97	-49.6	-64.7	3.6	1.51e+00	0	41	104	0	60	61913
2026-01-20 13:11:05.44	20.78	2.02	-49.5	-64.7	3.6	1.51e+00	0	41	104	0	60	61993
2026-01-20 13:11:06.45	20.84	2.08	-49.5	-64.7	3.6	1.51e+00	0	41	104	0	60	62199
2026-01-20 13:11:07.46	20.90	2.14	-49.5	-64.7	3.6	1.51e+00	0	41	104	0	60	61799
2026-01-20 13:11:08.47	20.96	2.20	-49.6	-64.4	3.6	1.51e+00	0	41	104	0	60	59930
2026-01-20 13:11:09.47	21.02	2.26	-49.5	-63.7	3.6	1.51e+00	0	41	104	0	60	55480
2026-01-20 13:11:10.48	21.08	2.31	-49.5	-63.3	3.6	1.51e+00	0	41	104	0	60	53146
2026-01-20 13:11:11.49	21.14	2.37	-49.5	-64.4	3.6	1.51e+00	0	41	104	0	60	59763
2026-01-20 13:11:12.50	21.20	2.43	-49.5	-64.5	3.6	1.51e+00	0	41	104	0	60	60781
2026-01-20 13:11:13.51	21.26	2.49	-49.5	-63.5	3.6	1.51e+00	0	41	104	0	60	54061
2026-01-20 13:11:14.52	21.33	2.55	-49.4	-61.8	3.9	1.49e+00	0	41	104	0	60	44258
2026-01-20 13:11:15.53	21.39	2.61	-49.0	-56.9	6.0	9.15e-01	53	41	0	1048576	60	25287
2026-01-20 13:11:16.54	21.45	2.67	-47.4	-51.6	11.9	1.18e-02	0	41	0	2097152	60	13701
2026-01-20 13:11:17.55	21.51	2.73	-47.4	-51.5	12.4	1.23e-03	60	41	0	4194304	60	13647
2026-01-20 13:11:18.56	21.58	2.78	-45.8	-48.5	15.8	5.30e-06	0	41	0	6291456	60	9574
2026-01-20 13:11:19.57	21.64	2.84	-45.2	-47.6	15.8	0.00e+00	41	41	0	8388608	60	8634
2026-01-20 13:11:20.58	21.70	2.90	-43.5	-45.3	18.3	0.00e+00	0	41	0	10485760	60	6632
2026-01-20 13:11:21.59	21.77	2.96	-45.7	-48.4	15.7	7.00e-07	0	41	0	11534336	60	9558
2026-01-20 13:11:22.60	21.83	3.02	-45.5	-48.1	15.7	0.00e+00	6	41	0	13631488	60	9187
2026-01-20 13:11:23.61	21.89	3.08	-44.8	-46.9	17.4	0.00e+00	0	41	0	15728640	60	8025
2026-01-20 13:11:24.62	21.96	3.14	-46.3	-49.4	13.9	0.00e+00	30	41	0	17825792	60	10658
2026-01-20 13:11:25.63	22.02	3.20	-47.4	-51.6	11.8	5.10e-04	0	41	0	19922944	60	13743
2026-01-20 13:11:26.64	22.09	3.26	-47.6	-52.2	11.3	8.46e-05	80	41	0	20971520	60	14666
2026-01-20 13:11:27.65	22.15	3.32	-46.8	-50.1	14.3	3.20e-03	0	42	0	23068672	60	11533
2026-01-20 13:11:28.66	22.22	3.38	-44.2	-46.1	18.2	0.00e+00	0	41	0	25165824	60	7289
2026-01-20 13:11:29.67	22.28	3.44	-49.0	-57.6	3.4	0.00e+00	2	41	0	27262976	60	27386
2026-01-20 13:11:30.67	22.35	3.50	-48.9	-57.3	4.6	1.51e+00	0	42	104	27262976	60	26494
2026-01-20 13:11:31.68	22.41	3.56	-45.8	-48.5	14.8	1.47e-02	10	41	0	27262976	60	9606
2026-01-20 13:11:32.69	22.48	3.62	-45.3	-47.5	16.5	1.92e-03	0	41	0	29360128	60	8611
2026-01-20 13:11:33.70	22.55	3.69	-43.9	-45.8	18.0	0.00e+00	80	41	0	30408704	60	7008
2026-01-20 13:11:34.71	22.61	3.75	-43.3	-44.9	18.9	0.00e+00	0	41	0	32505856	60	6331
2026-01-20 13:11:35.72	22.68	3.81	-42.5	-44.0	19.7	0.00e+00	0	41	0	34603008	58	6432
2026-01-20 13:11:36.73	22.75	3.87	-43.6	-45.3	18.7	0.00e+00	0	41	0	36700160	58	7461
2026-01-20 13:11:37.74	22.81	3.93	-43.2	-44.8	18.7	0.00e+00	0	41	0	38797312	58	7080
2026-01-20 13:11:38.75	22.88	3.99	-43.2	-44.8	19.0	0.00e+00	13	41	0	39845888	60	6298
2026-01-20 13:11:39.76	22.95	4.05	-43.5	-45.1	18.8	0.00e+00	0	41	0	41943040	60	6530
2026-01-20 13:11:40.77	23.02	4.11	-43.7	-45.4	18.2	0.00e+00	89	41	0	44040192	60	6746
2026-01-20 13:11:41.78	23.09	4.18	-43.6	-45.3	18.2	0.00e+00	0	42	0	46137344	60	6630
2026-01-20 13:11:42.79	23.16	4.24	-43.5	-45.2	18.9	0.00e+00	0	41	0	48234496	60	6540
2026-01-20 13:11:43.79	23.22	4.30	-43.7	-45.4	18.6	0.00e+00	0	41	0	49283072	60	6739
2026-01-20 13:11:44.80	23.29	4.36	-43.2	-44.8	19.2	0.00e+00	0	42	0	51380224	60	6262
2026-01-20 13:11:45.81	23.36	4.42	-43.1	-44.7	19.0	0.00e+00	36	42	0	53477376	60	6213
2026-01-20 13:11:46.82	23.43	4.48	-43.8	-45.6	18.4	0.00e+00	0	41	0	55574528	60	6849
2026-01-20 13:11:47.83	23.50	4.55	-42.2	-43.6	20.1	0.00e+00	90	42	0	57671680	58	6140
2026-01-20 13:11:48.84	23.57	4.61	-43.2	-44.7	19.1	0.00e+00	0	42	0	58720256	58	6978
2026-01-20 13:11:49.85	23.64	4.67	-42.9	-44.3	19.5	0.00e+00	0	42	0	60817408	58	6676
2026-01-20 13:11:50.86	23.72	4.73	-43.3	-44.9	18.9	0.00e+00	0	41	0	62914560	58	7115
2026-01-20 13:11:51.87	23.79	4.80	-43.8	-45.6	18.4	0.00e+00	0	41	0	65011712	60	6858
2026-01-20 13:11:52.88	23.86	4.86	-42.9	-44.4	19.3	0.00e+00	15	42	0	67108864	58	6759
2026-01-20 13:11:53.89	23.93	4.92	-42.9	-44.4	19.5	0.00e+00	0	42	0	68157440	58	6741
2026-01-20 13:11:54.89	24.00	4.99	-42.9	-44.3	19.4	0.00e+00	65	42	0	70254592	58	6691
2026-01-20 13:11:55.90	24.07	5.05	-43.0	-44.5	19.8	0.00e+00	0	42	0	72351744	58	6779
2026-01-20 13:11:56.91	24.15	5.11	-42.5	-43.8	19.5	0.00e+00	55	42	0	74448896	54	7934
2026-01-20 13:11:57.92	24.22	5.18	-43.3	-44.8	19.3	0.00e+00	0	42	0	76546048	60	6291
2026-01-20 13:11:58.93	24.29	5.24	-43.3	-44.8	18.7	0.00e+00	0	42	0	77594624	60	6292
2026-01-20 13:11:59.94	24.37	5.30	-43.5	-45.1	18.8	0.00e+00	9	42	0	79691776	60	6471
2026-01-20 13:12:00.95	24.44	5.37	-43.8	-45.5	18.8	0.00e+00	0	42	0	81788928	60	6791
2026-01-20 13:12:01.96	24.52	5.43	-43.8	-45.4	18.8	0.00e+00	92	42	0	83886080	60	6753
2026-01-20 13:12:02.97	24.59	5.49	-43.2	-44.7	19.5	0.00e+00	0	42	0	85983232	60	6205
2026-01-20 13:12:03.98	24.66	5.56	-42.9	-44.3	19.8	0.00e+00	92	42	0	87031808	60	5931
2026-01-20 13:12:04.99	24.74	5.62	-42.8	-44.2	19.9	0.00e+00	0	42	0	89128960	60	5864
2026-01-20 13:12:06.00	24.82	5.69	-42.9	-44.3	19.7	0.00e+00	0	42	0	91226112	58	6640
2026-01-20 13:12:07.01	24.89	5.75	-42.2	-43.4	20.5	0.00e+00	0	42	0	93323264	58	6032
2026-01-20 13:12:08.02	24.97	5.82	-41.9	-43.1	20.8	0.00e+00	0	42	0	95420416	58	5811
2026-01-20 13:12:09.03	25.04	5.88	-42.2	-43.5	20.6	0.00e+00	69	42	0	97517568	56	6786
2026-01-20 13:12:10.03	25.12	5.95	-41.8	-43.0	21.1	0.00e+00	0	42	0	98566144	56	6422
2026-01-20 13:12:11.04	25.20	6.01	-41.3	-42.5	21.4	0.00e+00	24	42	0	100663296	56	6039
2026-01-20 13:12:12.05	25.27	6.08	-42.2	-43.5	20.5	0.00e+00	0	42	0	102760448	56	6801
2026-01-20 13:12:13.06	25.35	6.14	-41.9	-43.1	20.9	0.00e+00	0	42	0	104857600	58	5792
2026-01-20 13:12:14.07	25.43	6.21	-41.8	-43.0	21.0	0.00e+00	0	42	0	106954752	58	5749
2026-01-20 13:12:15.08	25.51	6.27	-42.4	-43.7	20.1	0.00e+00	12	42	0	108003328	56	6960
2026-01-20 13:12:16.09	25.59	6.34	-42.6	-44.0	19.9	0.00e+00	16	42	0	110100480	56	7218
2026-01-20 13:12:17.10	25.67	6.40	-42.7	-44.0	20.4	0.00e+00	0	42	0	112197632	58	6429
2026-01-20 13:12:18.11	25.75	6.47	-42.7	-44.1	19.9	0.00e+00	82	42	0	114294784	58	6512
2026-01-20 13:12:19.11	25.82	6.53	-42.5	-43.8	20.2	0.00e+00	0	42	0	115343360	58	6314
2026-01-20 13:12:20.13	25.91	6.60	-42.5	-43.8	20.3	0.00e+00	0	42	0	117440512	58	6278
2026-01-20 13:12:21.13	25.98	6.67	-42.4	-43.7	20.1	0.00e+00	0	42	0	119537664	58	6189
2026-01-20 13:12:22.14	26.07	6.73	-42.2	-43.5	20.6	0.00e+00	0	42	0	121634816	58	6056
2026-01-20 13:12:23.15	26.15	6.80	-42.2	-43.4	20.6	0.00e+00	12	42	0	123731968	58	6028
2026-01-20 13:12:24.16	26.23	6.87	-42.7	-44.1	19.8	0.00e+00	0	42	0	125829120	58	6517
2026-01-20 13:12:25.17	26.31	6.93	-42.4	-43.8	20.2	0.00e+00	92	42	0	126877696	58	6251
2026-01-20 13:12:26.18	26.39	7.00	-42.5	-43.8	20.3	0.00e+00	0	42	0	128974848	58	6282
2026-01-20 13:12:27.19	26.47	7.07	-42.7	-44.1	20.0	0.00e+00	76	42	0	131072000	58	6498
2026-01-20 13:12:28.19	26.56	7.13	-42.8	-44.2	19.9	0.00e+00	16	42	0	133169152	58	6596
2026-01-20 13:12:29.20	26.64	7.20	-42.3	-43.6	20.5	0.00e+00	0	42	0	135266304	58	6131
2026-01-20 13:12:30.21	26.72	7.27	-42.2	-43.5	20.5	0.00e+00	15	42	0	136314880	56	6824
2026-01-20 13:12:31.22	26.81	7.34	-42.5	-43.8	20.3	0.00e+00	15	42	0	138412032	56	7063
2026-01-20 13:12:32.22	26.89	7.40	-42.1	-43.4	20.4	0.00e+00	90	42	0	140509184	56	6724
2026-01-20 13:12:33.23	26.98	7.47	-42.7	-44.0	20.1	0.00e+00	0	42	0	142606336	58	6454
2026-01-20 13:12:34.24	27.06	7.54	-42.2	-43.5	20.4	0.00e+00	69	42	0	144703488	56	6787
2026-01-20 13:12:35.24	27.14	7.61	-42.3	-43.7	20.5	0.00e+00	0	42	0	145752064	58	6179
2026-01-20 13:12:36.25	27.23	7.67	-41.8	-43.0	21.1	0.00e+00	0	42	0	147849216	56	6432
2026-01-20 13:12:37.26	27.32	7.74	-42.2	-43.4	20.7	0.00e+00	0	42	0	149946368	58	6006
2026-01-20 13:12:38.27	27.40	7.81	-42.0	-43.3	20.7	0.00e+00	0	42	0	152043520	56	6649
2026-01-20 13:12:39.28	27.49	7.88	-42.2	-43.5	20.5	0.00e+00	13	42	0	154140672	56	6818
2026-01-20 13:12:40.28	27.58	7.95	-41.4	-42.6	21.4	0.00e+00	0	42	0	155189248	56	6112
2026-01-20 13:12:41.29	27.66	8.02	-42.1	-43.3	20.9	0.00e+00	92	42	0	157286400	56	6663
2026-01-20 13:12:42.30	27.75	8.08	-41.7	-42.9	21.1	0.00e+00	0	42	0	159383552	56	6364
2026-01-20 13:12:43.31	27.84	8.15	-41.6	-42.7	21.2	0.00e+00	0	42	0	161480704	56	6240
2026-01-20 13:12:44.32	27.93	8.22	-42.1	-43.4	20.8	0.00e+00	0	42	0	163577856	56	6701
2026-01-20 13:12:45.33	28.02	8.29	-41.4	-42.6	21.5	0.00e+00	0	42	0	164626432	56	6124
2026-01-20 13:12:46.34	28.11	8.36	-42.2	-43.5	20.6	0.00e+00	73	42	0	166723584	56	6804
2026-01-20 13:12:47.35	28.20	8.43	-42.0	-43.2	20.8	0.00e+00	0	42	0	168820736	58	5887
2026-01-20 13:12:48.36	28.29	8.50	-41.9	-43.1	21.1	0.00e+00	92	42	0	170917888	58	5764
2026-01-20 13:12:49.37	28.38	8.57	-42.0	-43.2	20.7	0.00e+00	0	42	0	173015040	56	6572
2026-01-20 13:12:50.38	28.47	8.64	-41.5	-42.7	21.2	0.00e+00	0	42	0	174063616	56	6192
2026-01-20 13:12:51.39	28.56	8.71	-42.3	-43.6	20.7	0.00e+00	0	42	0	176160768	56	6854
2026-01-20 13:12:52.40	28.66	8.78	-41.5	-42.6	21.4	0.00e+00	0	42	0	178257920	56	6155
2026-01-20 13:12:53.41	28.75	8.85	-41.8	-43.0	21.1	0.00e+00	10	42	0	180355072	56	6402
2026-01-20 13:12:54.42	28.84	8.92	-41.4	-42.5	21.6	0.00e+00	0	42	0	182452224	56	6066
2026-01-20 13:12:55.43	28.93	8.99	-41.7	-42.9	21.0	0.00e+00	92	42	0	183500800	56	6382
2026-01-20 13:12:56.44	29.03	9.06	-41.4	-42.6	21.5	0.00e+00	0	42	0	185597952	56	6122
2026-01-20 13:12:57.45	29.12	9.14	-41.9	-43.1	21.1	0.00e+00	0	42	0	187695104	56	6515
2026-01-20 13:12:58.45	29.22	9.21	-41.3	-42.4	21.6	0.00e+00	0	42	0	189792256	56	6024
2026-01-20 13:12:59.46	29.31	9.28	-41.3	-42.4	21.8	0.00e+00	0	42	0	191889408	56	5984
2026-01-20 13:13:00.47	29.41	9.35	-41.2	-42.3	21.8	0.00e+00	0	42	0	193986560	56	5904
2026-01-20 13:13:01.48	29.50	9.42	-41.5	-42.6	21.8	0.00e+00	0	42	0	195035136	56	6132
2026-01-20 13:13:02.49	29.60	9.49	-41.9	-43.1	21.0	0.00e+00	91	42	0	197132288	56	6521
2026-01-20 13:13:03.50	29.70	9.56	-41.3	-42.4	21.7	0.00e+00	0	42	0	199229440	56	6025
2026-01-20 13:13:04.51	29.79	9.64	-41.1	-42.2	21.8	0.00e+00	91	42	0	201326592	56	5857
2026-01-20 13:13:05.52	29.89	9.71	-41.2	-42.3	21.8	0.00e+00	0	42	0	202375168	56	5913
2026-01-20 13:13:06.53	29.99	9.78	-41.3	-42.4	21.8	0.00e+00	0	42	0	204472320	56	5979
2026-01-20 13:13:07.54	30.09	9.85	-41.5	-42.6	21.6	0.00e+00	0	42	0	206569472	56	6140
2026-01-20 13:13:08.55	30.19	9.92	-41.2	-42.3	21.8	0.00e+00	0	42	0	208666624	56	5903
2026-01-20 13:13:09.55	30.29	10.00	-40.7	-41.8	22.2	0.00e+00	12	42	0	210763776	56	5584
2026-01-20 13:13:10.56	30.39	10.07	-41.2	-42.3	21.7	0.00e+00	0	42	0	211812352	54	6655
2026-01-20 13:13:11.57	30.49	10.14	-40.9	-41.9	22.0	0.00e+00	88	42	0	213909504	54	6374
2026-01-20 13:13:12.58	30.59	10.22	-41.0	-42.1	21.9	0.00e+00	0	42	0	216006656	54	6516
2026-01-20 13:13:13.59	30.69	10.29	-41.4	-42.5	21.6	0.00e+00	0	42	0	218103808	54	6843
2026-01-20 13:13:14.60	30.79	10.36	-41.1	-42.2	21.8	0.00e+00	0	42	0	220200960	54	6613
2026-01-20 13:13:15.62	30.90	10.44	-41.5	-42.6	21.6	0.00e+00	0	42	0	222298112	54	6912
2026-01-20 13:13:16.62	31.00	10.51	-41.5	-42.7	21.3	0.00e+00	13	42	0	223346688	54	6963
2026-01-20 13:13:17.63	31.10	10.58	-41.9	-43.1	21.1	0.00e+00	0	42	0	225443840	56	6516
2026-01-20 13:13:18.65	31.21	10.66	-42.1	-43.3	20.9	0.00e+00	67	42	0	227540992	56	6670
2026-01-20 13:13:19.65	31.31	10.73	-42.2	-43.4	20.9	0.00e+00	0	42	0	229638144	56	6732
2026-01-20 13:13:20.66	31.42	10.81	-41.6	-42.8	21.3	0.00e+00	19	42	0	231735296	56	6253
2026-01-20 13:13:21.67	31.52	10.88	-42.3	-43.5	20.7	0.00e+00	0	42	0	232783872	56	6836
2026-01-20 13:13:22.68	31.63	10.95	-42.8	-44.2	20.1	0.00e+00	0	42	0	234881024	58	6564
2026-01-20 13:13:23.69	31.73	11.03	-42.6	-43.9	20.5	0.00e+00	52	42	0	236978176	58	6359
2026-01-20 13:13:24.70	31.84	11.10	-42.5	-43.9	20.4	0.00e+00	0	42	0	239075328	58	6318
2026-01-20 13:13:25.71	31.95	11.18	-42.1	-43.3	21.0	0.00e+00	58	42	0	241172480	58	5935
2026-01-20 13:13:26.71	32.06	11.25	-42.3	-43.5	20.7	0.00e+00	0	42	0	242221056	58	6086
2026-01-20 13:13:27.72	32.16	11.33	-42.7	-44.0	20.6	0.00e+00	0	42	0	244318208	58	6391
2026-01-20 13:13:28.73	32.27	11.40	-42.3	-43.5	20.8	0.00e+00	0	42	0	246415360	58	6092
2026-01-20 13:13:29.74	32.38	11.48	-42.0	-43.2	21.1	0.00e+00	0	42	0	248512512	58	5888
2026-01-20 13:13:30.75	32.49	11.56	-42.2	-43.4	21.1	0.00e+00	14	42	0	250609664	58	6007
2026-01-20 13:13:31.76	32.60	11.63	-42.4	-43.7	20.6	0.00e+00	0	42	0	251658240	58	6189
2026-01-20 13:13:32.77	32.72	11.71	-41.9	-43.1	21.2	0.00e+00	83	42	0	253755392	58	5787
2026-01-20 13:13:33.78	32.83	11.78	-42.6	-43.8	20.9	0.00e+00	0	42	0	255852544	56	7057
2026-01-20 13:13:34.79	32.94	11.86	-42.2	-43.4	20.9	0.00e+00	92	42	0	257949696	58	5984
2026-01-20 13:13:35.80	33.05	11.94	-42.0	-43.2	21.2	0.00e+00	0	42	0	260046848	56	6584
2026-01-20 13:13:36.81	33.17	12.01	-42.0	-43.2	21.3	0.00e+00	0	42	0	261095424	56	6540
2026-01-20 13:13:37.82	33.28	12.09	-41.3	-42.4	21.9	0.00e+00	18	42	0	263192576	56	5991
2026-01-20 13:13:38.83	33.40	12.17	-41.4	-42.5	21.8	0.00e+00	0	42	0	265289728	56	6054
2026-01-20 13:13:39.84	33.51	12.24	-41.2	-42.2	22.0	0.00e+00	92	42	0	267386880	56	5870
2026-01-20 13:13:40.84	33.63	12.32	-41.2	-42.2	22.0	0.00e+00	0	42	0	269484032	56	5888
2026-01-20 13:13:41.85	33.74	12.40	-41.4	-42.5	21.9	0.00e+00	88	42	0	270532608	56	6077
2026-01-20 13:13:42.86	33.86	12.47	-40.9	-42.0	22.0	0.00e+00	0	42	0	272629760	56	5706
2026-01-20 13:13:43.87	33.98	12.55	-41.0	-42.0	22.0	0.00e+00	0	42	0	274726912	56	5723
2026-01-20 13:13:44.88	34.10	12.63	-41.4	-42.5	22.0	0.00e+00	0	42	0	276824064	56	6066
2026-01-20 13:13:45.89	34.22	12.71	-41.3	-42.3	21.8	0.00e+00	0	42	0	278921216	56	5950
2026-01-20 13:13:46.90	34.34	12.78	-41.4	-42.5	21.7	0.00e+00	16	42	0	279969792	56	6068
2026-01-20 13:13:47.91	34.46	12.86	-41.5	-42.6	21.7	0.00e+00	0	42	0	282066944	56	6163
2026-01-20 13:13:48.92	34.58	12.94	-41.0	-42.0	22.2	0.00e+00	91	42	0	284164096	56	5761
2026-01-20 13:13:49.92	34.70	13.02	-42.0	-43.2	21.5	0.00e+00	0	42	0	286261248	56	6542
2026-01-20 13:13:50.93	34.82	13.10	-41.2	-42.3	22.1	0.00e+00	0	42	0	288358400	56	5906
2026-01-20 13:13:51.94	34.94	13.18	-41.1	-42.1	22.2	0.00e+00	0	42	0	290455552	56	5800
2026-01-20 13:13:52.95	35.06	13.25	-41.4	-42.5	22.0	0.00e+00	0	42	0	291504128	56	6040
2026-01-20 13:13:53.96	35.19	13.33	-41.3	-42.4	22.0	0.00e+00	55	42	0	293601280	56	5986
2026-01-20 13:13:54.97	35.31	13.41	-40.8	-41.9	22.5	0.00e+00	0	42	0	295698432	56	5636
2026-01-20 13:13:55.98	35.44	13.49	-40.6	-41.6	22.5	0.00e+00	92	42	0	297795584	54	6168
2026-01-20 13:13:56.99	35.56	13.57	-40.9	-41.9	22.4	0.00e+00	0	42	0	299892736	54	6387
2026-01-20 13:13:58.00	35.69	13.65	-40.9	-41.9	22.3	0.00e+00	0	42	0	300941312	54	6388
2026-01-20 13:13:59.01	35.82	13.73	-41.1	-42.2	22.4	0.00e+00	0	42	0	303038464	54	6541
2026-01-20 13:14:00.02	35.94	13.81	-41.1	-42.1	22.1	0.00e+00	0	42	0	305135616	54	6519
2026-01-20 13:14:01.03	36.07	13.89	-41.4	-42.5	21.9	0.00e+00	81	42	0	307232768	54	6809
2026-01-20 13:14:02.03	36.20	13.97	-41.1	-42.2	22.0	0.00e+00	0	42	0	309329920	54	6544
2026-01-20 13:14:03.04	36.33	14.05	-41.7	-42.9	21.5	0.00e+00	54	42	0	310378496	54	7096
2026-01-20 13:14:04.05	36.46	14.13	-41.6	-42.7	21.1	0.00e+00	0	42	0	312475648	54	6972
2026-01-20 13:14:05.06	36.59	14.21	-42.0	-43.2	21.2	0.00e+00	56	42	0	314572800	56	6554
2026-01-20 13:14:06.07	36.72	14.29	-42.2	-43.4	21.0	0.00e+00	0	42	0	316669952	56	6745
2026-01-20 13:14:07.08	36.86	14.37	-42.1	-43.4	21.1	0.00e+00	0	42	0	318767104	56	6694
2026-01-20 13:14:08.09	36.99	14.45	-42.1	-43.3	21.1	0.00e+00	15	42	0	319815680	56	6688
2026-01-20 13:14:09.10	37.12	14.53	-42.0	-43.2	21.3	0.00e+00	0	42	0	321912832	56	6583
2026-01-20 13:14:10.11	37.26	14.61	-41.9	-43.1	21.4	0.00e+00	80	42	0	324009984	56	6468
2026-01-20 13:14:11.12	37.39	14.70	-41.6	-42.8	21.7	0.00e+00	0	42	0	326107136	56	6252
2026-01-20 13:14:12.13	37.53	14.78	-41.9	-43.1	21.5	0.00e+00	57	42	0	328204288	56	6498
2026-01-20 13:14:13.14	37.67	14.86	-41.9	-43.0	21.4	0.00e+00	0	42	0	329252864	56	6449
2026-01-20 13:14:14.15	37.80	14.94	-41.5	-42.6	21.9	0.00e+00	0	42	0	331350016	56	6160
2026-01-20 13:14:15.16	37.94	15.02	-41.7	-42.8	21.7	0.00e+00	14	42	0	333447168	56	6304
2026-01-20 13:14:16.16	38.08	15.10	-42.0	-43.2	21.5	0.00e+00	0	42	0	335544320	56	6565
2026-01-20 13:14:17.17	38.22	15.18	-41.8	-43.0	21.6	0.00e+00	18	42	0	337641472	56	6411
2026-01-20 13:14:18.18	38.36	15.27	-41.4	-42.5	22.1	0.00e+00	0	42	0	338690048	56	6043
2026-01-20 13:14:19.19	38.50	15.35	-41.2	-42.2	22.2	0.00e+00	92	42	0	340787200	56	5889
2026-01-20 13:14:20.20	38.64	15.43	-41.4	-42.5	22.0	0.00e+00	0	42	0	342884352	56	6056
2026-01-20 13:14:21.21	38.79	15.51	-41.2	-42.2	22.0	0.00e+00	0	42	0	344981504	56	5895
2026-01-20 13:14:22.22	38.93	15.60	-41.1	-42.2	22.4	0.00e+00	0	42	0	347078656	56	5843
2026-01-20 13:14:23.23	39.07	15.68	-40.9	-41.9	22.5	0.00e+00	0	42	0	348127232	56	5675
2026-01-20 13:14:24.24	39.22	15.76	-41.1	-42.1	22.2	0.00e+00	92	42	0	350224384	54	6503
2026-01-20 13:14:25.25	39.36	15.84	-41.0	-42.1	22.2	0.00e+00	0	42	0	352321536	54	6473
2026-01-20 13:14:26.26	39.51	15.93	-41.2	-42.3	21.9	0.00e+00	64	42	0	354418688	54	6666
2026-01-20 13:14:27.27	39.66	16.01	-41.2	-42.3	22.0	0.00e+00	0	42	0	356515840	54	6634
2026-01-20 13:14:28.28	39.81	16.09	-40.8	-41.8	22.4	0.00e+00	0	42	0	358612992	54	6258
2026-01-20 13:14:29.29	39.95	16.18	-40.6	-41.6	22.5	0.00e+00	0	42	0	359661568	54	6132
2026-01-20 13:14:30.30	40.10	16.26	-40.6	-41.6	22.7	0.00e+00	0	42	0	361758720	54	6157
2026-01-20 13:14:31.30	40.25	16.34	-40.8	-41.8	22.5	0.00e+00	48	42	0	363855872	54	6274
2026-01-20 13:14:32.32	40.41	16.43	-40.3	-41.2	22.8	0.00e+00	0	42	0	365953024	54	5869
2026-01-20 13:14:33.33	40.56	16.51	-40.1	-41.1	23.1	0.00e+00	92	42	0	368050176	54	5776
2026-01-20 13:14:34.33	40.71	16.59	-40.2	-41.2	23.1	0.00e+00	0	42	0	369098752	54	5844
2026-01-20 13:14:35.34	40.86	16.68	-40.3	-41.2	23.1	0.00e+00	0	42	0	371195904	54	5882
2026-01-20 13:14:36.36	41.02	16.76	-39.9	-40.9	23.4	0.00e+00	0	42	0	373293056	54	5632
2026-01-20 13:14:37.37	41.17	16.85	-40.0	-40.9	23.3	0.00e+00	0	42	0	375390208	54	5664
2026-01-20 13:14:38.37	41.33	16.93	-39.8	-40.8	23.4	0.00e+00	13	42	0	377487360	52	6252
2026-01-20 13:14:39.38	41.49	17.02	-39.8	-40.7	23.4	0.00e+00	0	42	0	378535936	52	6205
2026-01-20 13:14:40.39	41.64	17.10	-40.3	-41.2	23.0	0.00e+00	92	42	0	380633088	52	6589
2026-01-20 13:14:41.40	41.80	17.18	-40.1	-41.0	23.1	0.00e+00	0	42	0	382730240	52	6463
2026-01-20 13:14:42.41	41.96	17.27	-40.3	-41.3	23.0	0.00e+00	92	42	0	384827392	52	6626
2026-01-20 13:14:43.42	42.12	17.35	-40.4	-41.3	23.0	0.00e+00	0	42	0	386924544	52	6678
2026-01-20 13:14:44.43	42.28	17.44	-40.4	-41.3	23.1	0.00e+00	0	42	0	387973120	52	6664
2026-01-20 13:14:45.44	42.45	17.52	-40.7	-41.7	22.6	0.00e+00	20	42	0	390070272	52	6944
2026-01-20 13:14:46.45	42.61	17.61	-40.3	-41.3	22.9	0.00e+00	0	42	0	392167424	52	6649
2026-01-20 13:14:47.46	42.77	17.69	-40.3	-41.2	23.0	0.00e+00	92	42	0	394264576	52	6584
2026-01-20 13:14:48.47	42.94	17.78	-40.0	-41.0	23.3	0.00e+00	0	42	0	396361728	52	6406
2026-01-20 13:14:49.48	43.11	17.86	-40.3	-41.2	22.9	0.00e+00	48	42	0	397410304	52	6573
2026-01-20 13:14:50.49	43.27	17.95	-39.9	-40.8	22.9	0.00e+00	0	42	0	399507456	52	6250
2026-01-20 13:14:51.50	43.44	18.03	-39.9	-40.8	22.5	0.00e+00	0	42	0	401604608	52	6285
2026-01-20 13:14:52.51	43.61	18.12	-39.9	-40.8	23.1	0.00e+00	13	42	0	403701760	52	6284
2026-01-20 13:14:53.52	43.78	18.20	-40.1	-41.1	23.2	0.00e+00	0	42	0	405798912	52	6482
2026-01-20 13:14:54.52	43.95	18.29	-40.0	-40.9	23.3	0.00e+00	90	42	0	406847488	52	6364
2026-01-20 13:14:55.53	44.12	18.37	-40.0	-40.9	23.3	0.00e+00	0	42	0	408944640	52	6327
2026-01-20 13:14:56.54	44.29	18.46	-40.4	-41.4	23.0	0.00e+00	13	42	0	411041792	52	6704
2026-01-20 13:14:57.55	44.46	18.55	-40.0	-40.9	23.4	0.00e+00	0	42	0	413138944	52	6356
2026-01-20 13:14:58.56	44.64	18.63	-40.3	-41.3	23.1	0.00e+00	0	42	0	415236096	52	6626
2026-01-20 13:14:59.56	44.81	18.72	-39.9	-40.8	23.3	0.00e+00	0	42	0	416284672	52	6313
2026-01-20 13:15:00.57	44.99	18.80	-40.1	-41.1	23.2	0.00e+00	0	42	0	418381824	52	6476
2026-01-20 13:15:01.58	45.17	18.89	-39.5	-40.4	23.7	0.00e+00	67	42	0	420478976	52	5995
2026-01-20 13:15:02.59	45.34	18.97	-39.7	-40.6	23.6	0.00e+00	0	42	0	422576128	52	6120
2026-01-20 13:15:03.60	45.52	19.06	-39.6	-40.5	23.6	0.00e+00	39	42	0	424673280	52	6066
2026-01-20 13:15:04.61	45.70	19.15	-39.6	-40.5	23.6	0.00e+00	0	42	0	425721856	52	6067
2026-01-20 13:15:05.62	45.88	19.23	-39.6	-40.6	23.5	0.00e+00	0	42	0	427819008	52	6109
2026-01-20 13:15:06.62	46.06	19.32	-39.7	-40.6	23.6	0.00e+00	0	42	0	429916160	52	6132
2026-01-20 13:15:07.63	46.25	19.40	-39.9	-40.9	23.3	0.00e+00	0	42	0	432013312	52	6344
2026-01-20 13:15:08.64	46.43	19.49	-39.8	-40.8	23.4	0.00e+00	64	42	0	434110464	52	6264
2026-01-20 13:15:09.65	46.62	19.57	-39.6	-40.5	23.4	0.00e+00	0	42	0	435159040	52	6083
2026-01-20 13:15:10.66	46.80	19.66	-39.8	-40.7	23.4	0.00e+00	92	42	0	437256192	52	6239
2026-01-20 13:15:11.67	46.99	19.75	-39.5	-40.4	23.6	0.00e+00	0	42	0	439353344	52	5966
2026-01-20 13:15:12.68	47.18	19.83	-39.7	-40.6	23.6	0.00e+00	18	42	0	441450496	52	6149
2026-01-20 13:15:13.68	47.37	19.92	-39.3	-40.2	23.8	0.00e+00	0	42	0	443547648	52	5871
2026-01-20 13:15:14.69	47.56	20.00	-40.2	-41.1	23.2	0.00e+00	0	42	0	444596224	52	6531
2026-01-20 13:15:15.70	47.75	20.09	-39.8	-40.7	23.4	0.00e+00	0	42	0	446693376	52	6237
2026-01-20 13:15:16.71	47.94	20.18	-39.9	-40.8	23.6	0.00e+00	0	42	0	448790528	52	6300
2026-01-20 13:15:17.72	48.13	20.26	-40.1	-41.0	23.4	0.00e+00	17	42	0	450887680	52	6453
2026-01-20 13:15:18.73	48.33	20.35	-40.0	-40.9	23.4	0.00e+00	0	42	0	452984832	52	6390
2026-01-20 13:15:19.74	48.52	20.43	-39.8	-40.7	23.5	0.00e+00	29	42	0	455081984	52	6243
2026-01-20 13:15:20.75	48.72	20.52	-40.1	-41.1	23.2	0.00e+00	0	42	0	456130560	52	6490
2026-01-20 13:15:21.76	48.92	20.60	-40.7	-41.7	22.8	0.00e+00	0	42	0	458227712	54	6211
2026-01-20 13:15:22.77	49.12	20.69	-40.2	-41.1	23.1	0.00e+00	0	42	0	460324864	54	5803
2026-01-20 13:15:23.78	49.32	20.78	-40.1	-41.1	23.2	0.00e+00	0	42	0	462422016	54	5775
2026-01-20 13:15:24.78	49.51	20.86	-40.6	-41.6	22.7	0.00e+00	17	42	0	464519168	54	6152
2026-01-20 13:15:25.79	49.72	20.95	-40.4	-41.4	22.8	0.00e+00	0	42	0	465567744	54	5979
2026-01-20 13:15:26.80	49.92	21.03	-41.8	-42.8	22.0	0.00e+00	92	42	0	467664896	56	6317
2026-01-20 13:15:27.81	50.12	21.12	-40.3	-41.3	23.2	0.00e+00	0	42	0	469762048	54	5908
2026-01-20 13:15:28.82	50.33	21.20	-39.9	-40.8	23.5	0.00e+00	0	42	0	471859200	54	5604
2026-01-20 13:15:29.83	50.53	21.29	-39.9	-40.8	23.5	0.00e+00	0	42	0	473956352	52	6301
2026-01-20 13:15:30.84	50.74	21.37	-40.1	-41.0	23.5	0.00e+00	0	42	0	475004928	52	6409
2026-01-20 13:15:31.85	50.95	21.46	-39.9	-40.8	23.4	0.00e+00	85	42	0	477102080	52	6297
2026-01-20 13:15:32.86	51.16	21.54	-39.6	-40.5	23.5	0.00e+00	0	42	0	479199232	52	6057
2026-01-20 13:15:33.87	51.37	21.63	-39.9	-40.8	23.5	0.00e+00	92	42	0	481296384	52	6247
2026-01-20 13:15:34.88	51.58	21.71	-40.3	-41.2	23.3	0.00e+00	0	42	0	483393536	52	6586
2026-01-20 13:15:35.89	51.80	21.80	-39.8	-40.7	23.5	0.00e+00	0	42	0	484442112	52	6236
2026-01-20 13:15:36.90	52.01	21.88	-40.0	-40.9	23.5	0.00e+00	0	42	0	486539264	52	6342
2026-01-20 13:15:37.90	52.22	21.97	-39.8	-40.7	23.4	0.00e+00	0	42	0	488636416	52	6225
2026-01-20 13:15:38.91	52.44	22.05	-39.8	-40.7	23.5	0.00e+00	35	42	0	490733568	52	6190
2026-01-20 13:15:39.92	52.66	22.14	-39.6	-40.5	23.6	0.00e+00	0	42	0	492830720	52	6095
2026-01-20 13:15:40.93	52.88	22.22	-39.6	-40.5	23.6	0.00e+00	89	42	0	493879296	52	6060
2026-01-20 13:15:41.94	53.10	22.30	-39.7	-40.6	23.5	0.00e+00	0	42	0	495976448	52	6134
2026-01-20 13:15:42.95	53.32	22.39	-39.5	-40.4	23.6	0.00e+00	0	42	0	498073600	52	6027
2026-01-20 13:15:43.96	53.54	22.47	-39.7	-40.7	23.6	0.00e+00	0	42	0	500170752	52	6187
2026-01-20 13:15:44.97	53.76	22.56	-39.4	-40.2	23.9	0.00e+00	0	42	0	502267904	52	5889
2026-01-20 13:15:45.98	53.99	22.64	-39.7	-40.6	23.7	0.00e+00	0	42	0	503316480	52	6145
2026-01-20 13:15:46.99	54.21	22.72	-39.7	-40.6	23.6	0.00e+00	1	42	0	505413632	52	6116
2026-01-20 13:15:48.00	54.44	22.81	-39.7	-40.6	23.7	0.00e+00	62	42	0	507510784	52	6122
2026-01-20 13:15:49.01	54.67	22.89	-39.7	-40.6	23.6	0.00e+00	0	42	0	509607936	52	6118
2026-01-20 13:15:50.02	54.90	22.97	-39.7	-40.6	23.6	0.00e+00	49	42	0	511705088	52	6129
2026-01-20 13:15:51.03	55.13	23.05	-39.7	-40.6	23.7	0.00e+00	0	42	0	512753664	52	6121
2026-01-20 13:15:52.03	55.36	23.13	-39.7	-40.6	23.6	0.00e+00	0	42	0	514850816	52	6173
2026-01-20 13:15:53.04	55.59	23.22	-39.5	-40.3	23.8	0.00e+00	16	42	0	516947968	52	5959
2026-01-20 13:15:54.06	55.83	23.30	-39.4	-40.2	23.7	0.00e+00	0	42	0	519045120	52	5885
2026-01-20 13:15:55.07	56.07	23.38	-39.3	-40.1	23.9	0.00e+00	0	42	0	521142272	52	5815
2026-01-20 13:15:56.07	56.30	23.46	-39.4	-40.3	23.7	0.00e+00	0	42	0	522190848	52	5932
2026-01-20 13:15:57.08	56.54	23.54	-39.5	-40.4	23.7	0.00e+00	90	42	0	524288000	52	6013
2026-01-20 13:15:58.09	56.78	23.62	-39.8	-40.7	23.6	0.00e+00	23	42	0	526385152	52	6196
2026-01-20 13:15:59.10	57.02	23.70	-40.1	-41.0	23.4	0.00e+00	0	42	0	528482304	52	6436
2026-01-20 13:16:00.11	57.26	23.78	-40.3	-41.3	23.0	0.00e+00	0	42	0	530579456	52	6636
2026-01-20 13:16:01.12	57.50	23.86	-40.2	-41.1	23.1	0.00e+00	0	42	0	531628032	52	6500
2026-01-20 13:16:02.13	57.74	23.94	-40.2	-41.2	23.0	0.00e+00	23	42	0	533725184	52	6586
2026-01-20 13:16:03.14	57.99	24.02	-40.4	-41.4	23.1	0.00e+00	0	42	0	535822336	52	6716
2026-01-20 13:16:04.15	58.24	24.10	-39.8	-40.7	23.5	0.00e+00	90	42	0	537919488	52	6227
2026-01-20 13:16:05.16	58.48	24.18	-39.7	-40.7	23.6	0.00e+00	0	42	0	540016640	52	6184
2026-01-20 13:16:06.17	58.73	24.26	-39.7	-40.6	23.6	0.00e+00	0	42	0	542113792	52	6148
2026-01-20 13:16:07.18	58.98	24.34	-39.6	-40.5	23.4	0.00e+00	0	42	0	543162368	52	6059
2026-01-20 13:16:08.19	59.23	24.42	-39.5	-40.4	23.7	0.00e+00	0	42	0	545259520	52	6022
2026-01-20 13:16:09.20	59.49	24.49	-39.8	-40.7	23.6	0.00e+00	21	42	0	547356672	52	6226
2026-01-20 13:16:10.21	59.74	24.57	-39.8	-40.6	23.6	0.00e+00	0	42	0	549453824	52	6167
2026-01-20 13:16:11.21	59.99	24.65	-39.5	-40.4	23.6	0.00e+00	62	42	0	551550976	52	6002
2026-01-20 13:16:12.22	60.25	24.72	-39.6	-40.5	23.8	0.00e+00	0	42	0	552599552	52	6064
2026-01-20 13:16:13.23	60.51	24.80	-39.9	-40.8	23.4	0.00e+00	0	42	0	554696704	52	6316
2026-01-20 13:16:14.24	60.76	24.88	-40.5	-41.5	22.9	0.00e+00	0	42	0	556793856	52	6789
2026-01-20 13:16:15.25	61.02	24.95	-40.5	-41.5	23.0	0.00e+00	0	42	0	558891008	52	6821
2026-01-20 13:16:16.26	61.29	25.03	-40.4	-41.3	23.0	0.00e+00	21	42	0	560988160	52	6684
2026-01-20 13:16:17.27	61.55	25.10	-40.0	-41.0	23.3	0.00e+00	0	42	0	562036736	52	6399
2026-01-20 13:16:18.28	61.81	25.18	-39.7	-40.6	23.4	0.00e+00	92	42	0	564133888	52	6161
2026-01-20 13:16:19.29	62.08	25.25	-39.4	-40.2	23.6	0.00e+00	0	42	0	566231040	52	5879
2026-01-20 13:16:20.30	62.34	25.32	-39.6	-40.5	23.7	0.00e+00	79	42	0	568328192	52	6045
2026-01-20 13:16:21.31	62.61	25.40	-40.0	-40.9	23.3	0.00e+00	0	42	0	570425344	52	6356
2026-01-20 13:16:22.32	62.88	25.47	-40.7	-41.7	22.8	0.00e+00	0	42	0	571473920	52	6962
2026-01-20 13:16:23.33	63.15	25.54	-40.9	-41.9	22.6	0.00e+00	22	42	0	573571072	54	6373
2026-01-20 13:16:24.33	63.41	25.61	-41.2	-42.3	22.2	0.00e+00	0	42	0	575668224	54	6638
2026-01-20 13:16:25.34	63.69	25.68	-40.9	-42.0	22.6	0.00e+00	92	42	0	577765376	54	6397
2026-01-20 13:16:26.35	63.96	25.75	-40.8	-41.8	22.7	0.00e+00	0	42	0	579862528	54	6255
2026-01-20 13:16:27.36	64.23	25.82	-40.6	-41.6	22.8	0.00e+00	92	42	0	580911104	54	6125
2026-01-20 13:16:28.37	64.51	25.89	-40.4	-41.4	23.1	0.00e+00	0	42	0	583008256	54	5968
2026-01-20 13:16:29.38	64.79	25.96	-40.5	-41.4	22.8	0.00e+00	0	42	0	585105408	54	6032
2026-01-20 13:16:30.39	65.06	26.03	-40.6	-41.7	22.8	0.00e+00	16	42	0	587202560	54	6175
2026-01-20 13:16:31.39	65.34	26.10	-40.7	-41.7	22.7	0.00e+00	0	42	0	589299712	54	6228
2026-01-20 13:16:32.41	65.62	26.17	-41.2	-42.3	22.3	0.00e+00	90	42	0	590348288	54	6620
2026-01-20 13:16:33.41	65.90	26.23	-41.3	-42.4	22.1	0.00e+00	0	42	0	592445440	54	6759
2026-01-20 13:16:34.42	66.18	26.30	-41.4	-42.5	22.0	0.00e+00	63	42	0	594542592	54	6777
2026-01-20 13:16:35.43	66.47	26.37	-41.4	-42.5	22.1	0.00e+00	0	42	0	596639744	54	6796
2026-01-20 13:16:36.44	66.75	26.43	-41.6	-42.7	21.9	0.00e+00	0	42	0	598736896	54	6987
2026-01-20 13:16:37.45	67.04	26.50	-41.4	-42.5	22.1	0.00e+00	0	42	0	599785472	54	6847
2026-01-20 13:16:38.46	67.33	26.56	-41.1	-42.1	22.5	0.00e+00	0	42	0	601882624	54	6536
2026-01-20 13:16:39.47	67.61	26.62	-41.3	-42.3	22.1	0.00e+00	16	42	0	603979776	54	6691
2026-01-20 13:16:40.48	67.90	26.69	-40.8	-41.9	22.3	0.00e+00	0	42	0	606076928	54	6343
2026-01-20 13:16:41.49	68.19	26.75	-40.8	-41.8	22.7	0.00e+00	92	42	0	608174080	54	6255
2026-01-20 13:16:42.50	68.49	26.81	-40.8	-41.8	22.6	0.00e+00	0	42	0	609222656	54	6271
2026-01-20 13:16:43.51	68.78	26.87	-41.0	-42.0	22.5	0.00e+00	0	42	0	611319808	54	6443
2026-01-20 13:16:44.51	69.07	26.93	-41.1	-42.1	22.3	0.00e+00	0	42	0	613416960	54	6539
2026-01-20 13:16:45.52	69.37	26.99	-41.6	-42.7	21.9	0.00e+00	0	42	0	615514112	54	6961
2026-01-20 13:16:46.53	69.66	27.05	-41.8	-43.0	21.8	0.00e+00	63	42	0	617611264	54	7171
2026-01-20 13:16:47.54	69.96	27.11	-41.7	-42.8	21.9	0.00e+00	0	42	0	619708416	56	6274
2026-01-20 13:16:48.55	70.26	27.17	-41.7	-42.9	21.8	0.00e+00	90	42	0	620756992	56	6318
2026-01-20 13:16:49.56	70.56	27.22	-41.5	-42.6	22.1	0.00e+00	0	42	0	622854144	56	6109
2026-01-20 13:16:50.57	70.86	27.28	-41.0	-42.0	22.1	0.00e+00	76	42	0	624951296	56	5740
2026-01-20 13:16:51.58	71.16	27.34	-40.6	-41.6	22.9	0.00e+00	0	42	0	627048448	54	6110
2026-01-20 13:16:52.59	71.46	27.39	-40.9	-41.9	22.5	0.00e+00	0	42	0	629145600	54	6369
2026-01-20 13:16:53.59	71.76	27.44	-41.4	-42.4	22.0	0.00e+00	0	42	0	630194176	54	6741
2026-01-20 13:16:54.60	72.06	27.50	-42.2	-43.3	21.4	0.00e+00	0	42	0	632291328	56	6685
2026-01-20 13:16:55.61	72.37	27.55	-42.7	-44.0	20.9	0.00e+00	91	42	0	634388480	56	7178
2026-01-20 13:16:56.62	72.68	27.60	-42.9	-44.2	20.6	0.00e+00	0	42	0	636485632	58	6583
2026-01-20 13:16:57.63	72.98	27.65	-42.7	-44.0	21.0	0.00e+00	18	42	0	638582784	58	6401
2026-01-20 13:16:58.64	73.29	27.70	-42.8	-44.1	20.7	0.00e+00	0	42	0	639631360	58	6480
2026-01-20 13:16:59.65	73.60	27.75	-43.0	-44.3	20.4	0.00e+00	0	42	0	641728512	58	6645
2026-01-20 13:17:00.66	73.91	27.80	-43.6	-45.0	19.9	0.00e+00	0	42	0	643825664	58	7244
2026-01-20 13:17:01.66	74.22	27.85	-44.1	-45.7	19.2	0.00e+00	0	42	0	645922816	60	6930
2026-01-20 13:17:02.67	74.53	27.90	-44.4	-46.1	18.9	0.00e+00	59	42	0	648019968	60	7297
2026-01-20 13:17:03.68	74.85	27.94	-44.2	-45.8	19.4	0.00e+00	0	42	0	649068544	60	7022
2026-01-20 13:17:04.69	75.16	27.99	-44.0	-45.5	19.8	0.00e+00	92	42	0	651165696	60	6819
2026-01-20 13:17:05.70	75.47	28.03	-43.5	-44.9	20.2	0.00e+00	0	42	0	653262848	60	6371
2026-01-20 13:17:06.71	75.79	28.08	-43.6	-45.1	19.5	0.00e+00	0	42	0	655360000	60	6498
2026-01-20 13:17:07.72	76.11	28.12	-44.1	-45.7	19.4	0.00e+00	0	42	0	657457152	60	6984
2026-01-20 13:17:08.73	76.42	28.16	-44.4	-46.1	19.0	0.00e+00	0	42	0	658505728	60	7286
2026-01-20 13:17:09.74	76.74	28.20	-43.8	-45.3	19.7	0.00e+00	21	42	0	660602880	60	6687
2026-01-20 13:17:10.75	77.06	28.24	-43.3	-44.7	20.3	0.00e+00	0	42	0	662700032	60	6190
2026-01-20 13:17:11.76	77.38	28.28	-42.3	-43.5	21.3	0.00e+00	92	42	0	664797184	58	6090
2026-01-20 13:17:12.77	77.70	28.32	-42.4	-43.6	21.1	0.00e+00	0	42	0	666894336	58	6167
2026-01-20 13:17:13.78	78.02	28.36	-42.7	-44.0	20.8	0.00e+00	0	42	0	667942912	58	6393
2026-01-20 13:17:14.79	78.34	28.40	-43.1	-44.4	20.4	0.00e+00	0	42	0	670040064	58	6735
2026-01-20 13:17:15.80	78.67	28.43	-43.5	-45.0	19.9	0.00e+00	0	42	0	672137216	58	7175
2026-01-20 13:17:16.80	78.99	28.47	-43.4	-44.8	20.0	0.00e+00	22	42	0	674234368	58	7078
2026-01-20 13:17:17.81	79.31	28.50	-43.2	-44.6	20.4	0.00e+00	0	42	0	676331520	58	6849
2026-01-20 13:17:18.82	79.64	28.53	-42.7	-43.9	20.9	0.00e+00	90	42	0	677380096	58	6337
2026-01-20 13:17:19.83	79.96	28.57	-42.5	-43.7	21.0	0.00e+00	0	42	0	679477248	58	6213
2026-01-20 13:17:20.84	80.29	28.60	-42.7	-43.9	21.0	0.00e+00	0	42	0	681574400	58	6382
2026-01-20 13:17:21.85	80.61	28.63	-43.0	-44.3	20.6	0.00e+00	0	42	0	683671552	58	6662
2026-01-20 13:17:22.86	80.94	28.66	-42.6	-43.8	21.1	0.00e+00	0	42	0	685768704	58	6307
2026-01-20 13:17:23.87	81.27	28.68	-42.0	-43.1	21.5	0.00e+00	42	42	0	686817280	58	5802
2026-01-20 13:17:24.88	81.60	28.71	-41.7	-42.8	22.0	0.00e+00	0	42	0	688914432	56	6247
2026-01-20 13:17:25.89	81.93	28.74	-41.4	-42.4	22.2	0.00e+00	92	42	0	691011584	56	6032
2026-01-20 13:17:26.90	82.26	28.76	-41.6	-42.7	21.9	0.00e+00	0	42	0	693108736	56	6198
2026-01-20 13:17:27.91	82.59	28.79	-41.6	-42.7	21.9	0.00e+00	0	42	0	695205888	56	6232
2026-01-20 13:17:28.92	82.92	28.81	-41.8	-42.9	21.9	0.00e+00	0	42	0	696254464	56	6338
2026-01-20 13:17:29.93	83.25	28.83	-41.8	-42.9	21.9	0.00e+00	0	42	0	698351616	56	6344
2026-01-20 13:17:30.94	83.58	28.85	-41.7	-42.8	21.8	0.00e+00	23	42	0	700448768	56	6309
2026-01-20 13:17:31.95	83.91	28.87	-41.7	-42.8	21.9	0.00e+00	0	42	0	702545920	56	6260
2026-01-20 13:17:32.96	84.24	28.89	-41.5	-42.5	22.1	0.00e+00	92	42	0	704643072	56	6103
2026-01-20 13:17:33.96	84.57	28.91	-41.8	-42.9	21.9	0.00e+00	0	42	0	705691648	56	6390
2026-01-20 13:17:34.97	84.91	28.93	-41.6	-42.8	21.8	0.00e+00	92	42	0	707788800	56	6247
2026-01-20 13:17:35.98	85.24	28.95	-41.7	-42.8	21.9	0.00e+00	0	42	0	709885952	56	6251
2026-01-20 13:17:36.99	85.57	28.96	-41.6	-42.7	21.9	0.00e+00	0	42	0	711983104	56	6239
2026-01-20 13:17:38.00	85.91	28.98	-41.5	-42.6	22.1	0.00e+00	0	42	0	714080256	56	6155
2026-01-20 13:17:39.01	86.24	28.99	-41.5	-42.6	22.1	0.00e+00	0	42	0	716177408	56	6107
2026-01-20 13:17:40.02	86.58	29.00	-41.4	-42.4	22.2	0.00e+00	69	42	0	717225984	56	6024
2026-01-20 13:17:41.03	86.91	29.01	-41.6	-42.7	22.0	0.00e+00	0	42	0	719323136	56	6225
2026-01-20 13:17:42.03	87.24	29.02	-41.8	-42.9	21.8	0.00e+00	80	42	0	721420288	56	6366
2026-01-20 13:17:43.04	87.58	29.03	-41.9	-43.0	21.7	0.00e+00	0	42	0	723517440	56	6445
2026-01-20 13:17:44.05	87.91	29.04	-41.9	-43.0	21.7	0.00e+00	0	42	0	725614592	56	6443
2026-01-20 13:17:45.06	88.25	29.05	-41.7	-42.8	22.1	0.00e+00	0	42	0	726663168	56	6246
2026-01-20 13:17:46.07	88.58	29.05	-41.0	-42.0	22.5	0.00e+00	0	42	0	728760320	56	5750
2026-01-20 13:17:47.08	88.92	29.06	-41.4	-42.4	22.3	0.00e+00	65	42	0	730857472	56	6017
2026-01-20 13:17:48.09	89.26	29.06	-41.8	-42.9	21.8	0.00e+00	0	42	0	732954624	56	6379
2026-01-20 13:17:49.10	89.59	29.06	-42.5	-43.7	21.1	0.00e+00	80	42	0	735051776	56	6964
2026-01-20 13:17:50.11	89.93	29.07	-42.8	-44.0	20.8	0.00e+00	0	42	0	736100352	56	7250
2026-01-20 13:17:51.12	90.27	29.07	-42.8	-44.0	20.8	0.00e+00	0	42	0	738197504	58	6438
2026-01-20 13:17:52.13	90.60	29.07	-42.7	-43.9	21.0	0.00e+00	0	42	0	740294656	58	6351
2026-01-20 13:17:53.14	90.94	29.06	-42.6	-43.8	21.0	0.00e+00	19	42	0	742391808	58	6304
2026-01-20 13:17:54.15	91.27	29.06	-42.7	-44.0	20.8	0.00e+00	19	42	0	744488960	58	6423
2026-01-20 13:17:55.16	91.61	29.06	-42.8	-44.1	20.7	0.00e+00	0	42	0	745537536	58	6516
2026-01-20 13:17:56.17	91.95	29.05	-42.0	-43.1	21.8	0.00e+00	92	42	0	747634688	58	5828
2026-01-20 13:17:57.17	92.28	29.05	-41.4	-42.5	22.2	0.00e+00	0	42	0	749731840	56	6051
2026-01-20 13:17:58.18	92.61	29.04	-40.8	-41.8	22.8	0.00e+00	0	42	0	751828992	54	6264
2026-01-20 13:17:59.19	92.95	29.03	-40.9	-41.8	22.7	0.00e+00	16	42	0	753926144	54	6315
2026-01-20 13:18:00.20	93.28	29.03	-41.2	-42.2	22.2	0.00e+00	0	42	0	754974720	54	6597
2026-01-20 13:18:01.20	93.62	29.02	-41.7	-42.8	21.8	0.00e+00	0	42	0	757071872	54	7064
2026-01-20 13:18:02.21	93.95	29.00	-42.7	-43.9	20.6	0.00e+00	0	42	0	759169024	56	7128
2026-01-20 13:18:03.22	94.29	28.99	-43.0	-44.3	20.5	0.00e+00	75	42	0	761266176	58	6632
2026-01-20 13:18:04.23	94.62	28.98	-43.2	-44.5	20.3	0.00e+00	0	42	0	763363328	58	6817
2026-01-20 13:18:05.24	94.96	28.97	-43.2	-44.5	20.4	0.00e+00	90	42	0	764411904	58	6814
2026-01-20 13:18:06.25	95.29	28.95	-43.2	-44.6	20.2	0.00e+00	0	42	0	766509056	58	6899
2026-01-20 13:18:07.25	95.62	28.94	-42.9	-44.2	20.5	0.00e+00	0	42	0	768606208	58	6592
2026-01-20 13:18:08.26	95.95	28.92	-43.0	-44.3	20.7	0.00e+00	0	42	0	770703360	58	6656
2026-01-20 13:18:09.27	96.29	28.90	-42.7	-44.0	20.7	0.00e+00	0	42	0	772800512	58	6412
2026-01-20 13:18:10.28	96.62	28.88	-42.3	-43.5	21.2	0.00e+00	68	42	0	773849088	58	6082
2026-01-20 13:18:11.29	96.95	28.86	-42.5	-43.8	21.0	0.00e+00	0	42	0	775946240	58	6272
2026-01-20 13:18:12.30	97.28	28.84	-43.0	-44.3	20.3	0.00e+00	92	42	0	778043392	58	6659
2026-01-20 13:18:13.31	97.61	28.82	-43.9	-45.4	19.4	0.00e+00	0	42	0	780140544	58	7579
2026-01-20 13:18:14.31	97.94	28.79	-44.6	-46.4	18.6	0.00e+00	0	42	0	782237696	60	7521
2026-01-20 13:18:15.32	98.27	28.77	-45.0	-46.9	18.1	0.00e+00	0	42	0	784334848	60	7973
2026-01-20 13:18:16.33	98.60	28.75	-44.8	-46.5	18.7	0.00e+00	0	42	0	785383424	60	7643
2026-01-20 13:18:17.34	98.93	28.72	-44.4	-46.0	18.9	0.00e+00	20	42	0	787480576	60	7220
2026-01-20 13:18:18.35	99.26	28.69	-44.0	-45.5	19.5	0.00e+00	0	42	0	789577728	60	6837
2026-01-20 13:18:19.36	99.59	28.66	-44.1	-45.6	19.4	0.00e+00	90	42	0	791674880	60	6888
2026-01-20 13:18:20.37	99.92	28.64	-43.9	-45.5	19.5	0.00e+00	0	42	0	792723456	60	6776
2026-01-20 13:18:21.38	100.25	28.61	-44.0	-45.5	19.5	0.00e+00	0	42	0	794820608	60	6820
2026-01-20 13:18:22.39	100.57	28.57	-43.6	-45.0	19.9	0.00e+00	0	42	0	796917760	60	6460
2026-01-20 13:18:23.40	100.90	28.54	-42.7	-44.0	21.0	0.00e+00	0	42	0	799014912	60	5717
2026-01-20 13:18:24.40	101.22	28.51	-42.2	-43.4	21.4	0.00e+00	53	42	0	801112064	58	6013
2026-01-20 13:18:25.41	101.55	28.48	-42.1	-43.2	21.4	0.00e+00	0	42	0	802160640	58	5882
2026-01-20 13:18:26.42	101.87	28.44	-42.7	-43.9	20.8	0.00e+00	83	42	0	804257792	58	6342
2026-01-20 13:18:27.43	102.19	28.41	-43.5	-44.9	19.9	0.00e+00	0	42	0	806354944	58	7124
2026-01-20 13:18:28.44	102.52	28.37	-43.5	-44.9	19.9	0.00e+00	18	42	0	808452096	58	7120
2026-01-20 13:18:29.45	102.84	28.33	-42.8	-44.0	20.9	0.00e+00	0	42	0	810549248	58	6451
2026-01-20 13:18:30.46	103.16	28.29	-42.7	-43.9	20.8	0.00e+00	0	42	0	812646400	58	6381
2026-01-20 13:18:31.47	103.48	28.25	-42.5	-43.7	21.1	0.00e+00	15	42	0	813694976	58	6243
2026-01-20 13:18:32.48	103.80	28.21	-42.7	-43.9	21.1	0.00e+00	0	42	0	815792128	58	6362
2026-01-20 13:18:33.48	104.11	28.17	-42.3	-43.5	21.3	0.00e+00	92	42	0	817889280	58	6047
2026-01-20 13:18:34.49	104.43	28.13	-41.6	-42.7	22.1	0.00e+00	0	42	0	819986432	56	6216
2026-01-20 13:18:35.50	104.75	28.09	-41.5	-42.5	22.1	0.00e+00	92	42	0	822083584	56	6086
2026-01-20 13:18:36.51	105.07	28.05	-41.0	-42.0	22.5	0.00e+00	0	42	0	823132160	56	5746
2026-01-20 13:18:37.52	105.38	28.00	-41.3	-42.3	22.1	0.00e+00	0	42	0	825229312	56	5953
2026-01-20 13:18:38.53	105.70	27.96	-41.6	-42.7	21.8	0.00e+00	16	42	0	827326464	56	6209
2026-01-20 13:18:39.54	106.01	27.91	-41.6	-42.7	22.1	0.00e+00	0	42	0	829423616	56	6224
2026-01-20 13:18:40.55	106.32	27.86	-41.9	-43.1	21.6	0.00e+00	13	42	0	831520768	56	6505
2026-01-20 13:18:41.55	106.63	27.82	-42.2	-43.3	21.5	0.00e+00	0	42	0	832569344	56	6689
2026-01-20 13:18:42.56	106.94	27.77	-42.1	-43.3	21.5	0.00e+00	78	42	0	834666496	56	6648
2026-01-20 13:18:43.58	107.26	27.72	-41.8	-42.9	21.7	0.00e+00	0	42	0	836763648	56	6349
2026-01-20 13:18:44.59	107.57	27.67	-41.7	-42.8	21.9	0.00e+00	0	42	0	838860800	56	6299
2026-01-20 13:18:45.59	107.87	27.62	-41.4	-42.5	22.2	0.00e+00	16	42	0	840957952	56	6057
2026-01-20 13:18:46.60	108.18	27.56	-41.8	-42.9	21.7	0.00e+00	0	42	0	842006528	56	6338
2026-01-20 13:18:47.61	108.49	27.51	-42.1	-43.2	21.6	0.00e+00	14	42	0	844103680	56	6582
2026-01-20 13:18:48.62	108.79	27.46	-42.1	-43.2	21.6	0.00e+00	0	42	0	846200832	56	6580
2026-01-20 13:18:49.63	109.10	27.40	-42.0	-43.1	21.8	0.00e+00	78	42	0	848297984	56	6519
2026-01-20 13:18:50.63	109.40	27.35	-41.5	-42.5	22.3	0.00e+00	0	42	0	850395136	56	6070
2026-01-20 13:18:51.64	109.70	27.29	-41.7	-42.8	22.0	0.00e+00	0	42	0	851443712	56	6248
2026-01-20 13:18:52.65	110.00	27.24	-41.7	-42.8	21.9	0.00e+00	0	42	0	853540864	56	6253
2026-01-20 13:18:53.66	110.30	27.18	-41.7	-42.8	21.8	0.00e+00	0	42	0	855638016	56	6282
2026-01-20 13:18:54.68	110.60	27.12	-42.0	-43.1	21.5	0.00e+00	55	42	0	857735168	56	6515
2026-01-20 13:18:55.69	110.90	27.06	-41.6	-42.6	22.1	0.00e+00	0	42	0	859832320	56	6139
2026-01-20 13:18:56.69	111.20	27.01	-41.1	-42.1	22.4	0.00e+00	86	42	0	860880896	56	5813
2026-01-20 13:18:57.70	111.49	26.95	-41.1	-42.1	22.5	0.00e+00	0	42	0	862978048	56	5773
2026-01-20 13:18:58.71	111.79	26.89	-41.3	-42.3	22.4	0.00e+00	6	42	0	865075200	56	5923
2026-01-20 13:18:59.72	112.08	26.82	-41.4	-42.4	22.2	0.00e+00	0	42	0	867172352	56	6010
2026-01-20 13:19:00.73	112.37	26.76	-41.9	-43.0	21.8	0.00e+00	0	42	0	869269504	56	6437
2026-01-20 13:19:01.74	112.66	26.70	-42.3	-43.5	21.3	0.00e+00	15	42	0	870318080	56	6777
2026-01-20 13:19:02.75	112.96	26.64	-42.7	-43.9	20.9	0.00e+00	0	42	0	872415232	58	6355
2026-01-20 13:19:03.76	113.24	26.57	-42.7	-44.0	20.8	0.00e+00	91	42	0	874512384	58	6429
2026-01-20 13:19:04.77	113.53	26.51	-42.4	-43.6	21.3	0.00e+00	0	42	0	876609536	58	6134
2026-01-20 13:19:05.78	113.82	26.44	-41.8	-42.9	21.9	0.00e+00	0	42	0	878706688	58	5631
2026-01-20 13:19:06.79	114.11	26.38	-41.8	-42.9	21.4	0.00e+00	0	42	0	880803840	56	6383
2026-01-20 13:19:07.80	114.39	26.31	-41.9	-43.0	21.7	0.00e+00	0	42	0	881852416	56	6419
2026-01-20 13:19:08.81	114.67	26.25	-41.9	-43.0	21.7	0.00e+00	20	42	0	883949568	56	6413
2026-01-20 13:19:09.81	114.95	26.18	-42.0	-43.1	21.5	0.00e+00	0	42	0	886046720	56	6512
2026-01-20 13:19:10.82	115.24	26.11	-42.3	-43.4	21.3	0.00e+00	92	42	0	888143872	56	6759
2026-01-20 13:19:11.83	115.52	26.04	-41.6	-42.7	22.0	0.00e+00	0	42	0	890241024	56	6195
2026-01-20 13:19:12.84	115.79	25.98	-41.4	-42.4	22.2	0.00e+00	92	42	0	891289600	56	6003
2026-01-20 13:19:13.85	116.07	25.91	-41.3	-42.3	22.3	0.00e+00	0	42	0	893386752	56	5919
2026-01-20 13:19:14.86	116.35	25.84	-41.6	-42.7	22.0	0.00e+00	0	42	0	895483904	56	6200
2026-01-20 13:19:15.87	116.62	25.77	-42.0	-43.1	21.6	0.00e+00	0	42	0	897581056	56	6508
2026-01-20 13:19:16.88	116.90	25.69	-42.1	-43.2	21.3	0.00e+00	0	42	0	899678208	56	6608
2026-01-20 13:19:17.89	117.17	25.62	-42.0	-43.2	21.6	0.00e+00	92	42	0	900726784	56	6541
2026-01-20 13:19:18.90	117.44	25.55	-41.6	-42.7	21.8	0.00e+00	0	42	0	902823936	56	6176
2026-01-20 13:19:19.90	117.71	25.48	-41.2	-42.2	22.3	0.00e+00	91	42	0	904921088	56	5873
2026-01-20 13:19:20.91	117.98	25.41	-41.2	-42.2	22.2	0.00e+00	0	42	0	907018240	56	5875
2026-01-20 13:19:21.92	118.25	25.33	-41.3	-42.3	22.4	0.00e+00	0	42	0	909115392	56	5930
2026-01-20 13:19:22.93	118.52	25.26	-40.6	-41.6	22.6	0.00e+00	0	42	0	910163968	54	6156
2026-01-20 13:19:23.94	118.78	25.19	-41.2	-42.2	22.3	0.00e+00	0	42	0	912261120	54	6585
2026-01-20 13:19:24.95	119.05	25.11	-40.8	-41.8	22.6	0.00e+00	92	42	0	914358272	54	6287
2026-01-20 13:19:25.96	119.31	25.04	-40.7	-41.7	22.7	0.00e+00	0	42	0	916455424	54	6188
2026-01-20 13:19:26.96	119.57	24.96	-40.5	-41.4	22.8	0.00e+00	92	42	0	918552576	54	6014
2026-01-20 13:19:27.98	119.83	24.89	-40.5	-41.5	22.8	0.00e+00	0	42	0	919601152	54	6055
2026-01-20 13:19:28.99	120.09	24.81	-40.6	-41.6	22.7	0.00e+00	0	42	0	921698304	54	6144
2026-01-20 13:19:29.99	120.35	24.73	-40.7	-41.7	22.6	0.00e+00	0	42	0	923795456	54	6241
2026-01-20 13:19:31.00	120.61	24.66	-41.1	-42.2	22.2	0.00e+00	0	42	0	925892608	54	6543
2026-01-20 13:19:32.01	120.86	24.58	-40.8	-41.8	22.6	0.00e+00	0	42	0	927989760	54	6283
2026-01-20 13:19:33.02	121.12	24.50	-40.5	-41.5	22.9	0.00e+00	0	42	0	929038336	54	6043
2026-01-20 13:19:34.03	121.37	24.42	-40.0	-41.0	23.3	0.00e+00	90	42	0	931135488	54	5722
2026-01-20 13:19:35.04	121.62	24.35	-40.1	-41.0	23.2	0.00e+00	0	42	0	933232640	54	5737
2026-01-20 13:19:36.05	121.87	24.27	-39.1	-40.0	24.1	0.00e+00	0	42	0	935329792	52	5709
2026-01-20 13:19:37.06	122.12	24.19	-38.9	-39.7	24.2	0.00e+00	0	42	0	937426944	50	6238
2026-01-20 13:19:38.07	122.37	24.11	-39.6	-40.5	23.6	0.00e+00	0	42	0	938475520	50	6780
2026-01-20 13:19:39.07	122.62	24.03	-40.1	-41.1	23.1	0.00e+00	16	42	0	940572672	52	6499
2026-01-20 13:19:40.08	122.86	23.95	-40.6	-41.6	22.7	0.00e+00	0	42	0	942669824	52	6871
2026-01-20 13:19:41.09	123.11	23.87	-40.2	-41.2	23.1	0.00e+00	92	42	0	944766976	52	6546
2026-01-20 13:19:42.10	123.35	23.79	-40.0	-40.9	23.2	0.00e+00	0	42	0	946864128	52	6387
2026-01-20 13:19:43.11	123.60	23.71	-40.3	-41.3	23.1	0.00e+00	92	42	0	947912704	52	6618
2026-01-20 13:19:44.12	123.84	23.63	-39.9	-40.8	23.4	0.00e+00	0	42	0	950009856	52	6273
2026-01-20 13:19:45.13	124.08	23.55	-40.1	-41.0	23.3	0.00e+00	0	42	0	952107008	52	6407
2026-01-20 13:19:46.14	124.32	23.47	-40.3	-41.3	23.0	0.00e+00	18	42	0	954204160	52	6651
2026-01-20 13:19:47.14	124.55	23.38	-41.0	-42.0	22.4	0.00e+00	0	42	0	956301312	54	6423
2026-01-20 13:19:48.16	124.79	23.30	-40.5	-41.4	23.0	0.00e+00	92	42	0	957349888	54	6020
2026-01-20 13:19:49.17	125.03	23.22	-40.2	-41.2	23.1	0.00e+00	16	42	0	959447040	54	5838
2026-01-20 13:19:50.17	125.26	23.14	-40.0	-40.9	23.5	0.00e+00	82	42	0	961544192	54	5692
2026-01-20 13:19:51.18	125.49	23.05	-39.7	-40.6	23.5	0.00e+00	0	42	0	963641344	52	6124
2026-01-20 13:19:52.19	125.72	22.97	-39.8	-40.7	23.4	0.00e+00	0	42	0	965738496	52	6175
2026-01-20 13:19:53.19	125.95	22.89	-40.0	-40.9	23.2	0.00e+00	17	42	0	966787072	52	6367
2026-01-20 13:19:54.20	126.18	22.81	-40.5	-41.5	22.6	0.00e+00	0	42	0	968884224	52	6798
2026-01-20 13:19:55.21	126.41	22.72	-41.7	-42.9	21.6	0.00e+00	59	42	0	970981376	54	7117
2026-01-20 13:19:56.22	126.63	22.64	-41.9	-43.1	21.7	0.00e+00	0	42	0	973078528	56	6498
2026-01-20 13:19:57.23	126.86	22.56	-41.6	-42.8	21.8	0.00e+00	52	42	0	975175680	56	6287
2026-01-20 13:19:58.24	127.08	22.47	-40.9	-41.9	22.5	0.00e+00	0	42	0	977272832	56	5651
2026-01-20 13:19:59.25	127.31	22.39	-40.2	-41.2	23.1	0.00e+00	0	42	0	978321408	54	5831
2026-01-20 13:20:00.26	127.53	22.30	-39.4	-40.3	23.8	0.00e+00	0	42	0	980418560	52	5902
2026-01-20 13:20:01.27	127.75	22.22	-39.4	-40.3	23.7	0.00e+00	0	42	0	982515712	52	5932
2026-01-20 13:20:02.28	127.97	22.13	-39.8	-40.7	23.5	0.00e+00	18	42	0	984612864	52	6209
2026-01-20 13:20:03.29	128.19	22.05	-39.9	-40.9	23.3	0.00e+00	0	42	0	986710016	52	6322
2026-01-20 13:20:04.30	128.41	21.96	-39.8	-40.7	23.4	0.00e+00	57	42	0	987758592	52	6194
2026-01-20 13:20:05.31	128.62	21.88	-39.0	-39.8	24.1	0.00e+00	0	42	0	989855744	52	5626
2026-01-20 13:20:06.32	128.84	21.79	-39.0	-39.8	24.0	0.00e+00	23	42	0	991952896	52	5604
2026-01-20 13:20:07.33	129.05	21.71	-39.5	-40.4	23.6	0.00e+00	0	42	0	994050048	52	5967
2026-01-20 13:20:08.33	129.26	21.62	-40.1	-41.1	23.3	0.00e+00	0	42	0	996147200	52	6479
2026-01-20 13:20:09.34	129.48	21.54	-40.9	-41.9	22.4	0.00e+00	64	42	0	997195776	54	6368
2026-01-20 13:20:10.35	129.69	21.45	-41.8	-42.9	21.5	0.00e+00	0	42	0	999292928	54	7156
2026-01-20 13:20:11.36	129.90	21.37	-42.7	-44.0	20.7	0.00e+00	92	42	0	1001390080	56	7190
2026-01-20 13:20:12.36	130.10	21.28	-43.1	-44.5	20.3	0.00e+00	0	42	0	1003487232	58	6791
2026-01-20 13:20:13.37	130.31	21.20	-42.9	-44.2	20.6	0.00e+00	64	42	0	1005584384	58	6601
2026-01-20 13:20:14.38	130.52	21.11	-41.8	-43.0	21.6	0.00e+00	0	42	0	1006632960	56	6398
2026-01-20 13:20:15.39	130.72	21.02	-40.9	-41.9	22.5	0.00e+00	0	42	0	1008730112	56	5671
2026-01-20 13:20:16.40	130.92	20.94	-40.4	-41.4	22.8	0.00e+00	0	42	0	1010827264	54	6002
2026-01-20 13:20:17.40	131.13	20.85	-40.3	-41.3	22.9	0.00e+00	0	42	0	1012924416	54	5915
2026-01-20 13:20:18.41	131.33	20.77	-40.3	-41.3	22.8	0.00e+00	92	42	0	1015021568	54	5909
2026-01-20 13:20:19.42	131.53	20.68	-40.4	-41.4	22.9	0.00e+00	0	42	0	1016070144	54	5995
2026-01-20 13:20:20.43	131.73	20.59	-40.4	-41.4	22.8	0.00e+00	68	42	0	1018167296	54	5996
2026-01-20 13:20:21.44	131.93	20.51	-40.2	-41.1	23.0	0.00e+00	0	42	0	1020264448	54	5817
2026-01-20 13:20:22.45	132.12	20.42	-40.1	-41.1	22.8	0.00e+00	0	42	0	1022361600	54	5782
2026-01-20 13:20:23.46	132.32	20.33	-39.8	-40.7	23.4	0.00e+00	0	42	0	1024458752	52	6205
2026-01-20 13:20:24.47	132.52	20.25	-39.2	-40.0	23.9	0.00e+00	0	42	0	1025507328	52	5760
2026-01-20 13:20:25.48	132.71	20.16	-39.6	-40.5	23.5	0.00e+00	91	42	0	1027604480	52	6059
2026-01-20 13:20:26.49	132.90	20.08	-39.5	-40.3	23.4	0.00e+00	0	42	0	1029701632	52	5964
2026-01-20 13:20:27.49	133.09	19.99	-39.9	-40.8	23.3	0.00e+00	79	42	0	1031798784	52	6274
2026-01-20 13:20:28.50	133.28	19.90	-40.3	-41.3	22.8	0.00e+00	0	42	0	1033895936	54	5924
2026-01-20 13:20:29.51	133.47	19.82	-40.8	-41.9	22.6	0.00e+00	0	42	0	1034944512	54	6324
2026-01-20 13:20:30.52	133.66	19.73	-40.3	-41.3	22.8	0.00e+00	0	42	0	1037041664	54	5914
2026-01-20 13:20:31.53	133.85	19.64	-40.3	-41.3	23.0	0.00e+00	0	42	0	1039138816	54	5932
2026-01-20 13:20:32.54	134.04	19.56	-40.1	-41.1	22.9	0.00e+00	92	42	0	1041235968	54	5804
2026-01-20 13:20:33.55	134.22	19.47	-39.9	-40.8	23.3	0.00e+00	0	42	0	1043333120	54	5598
2026-01-20 13:20:34.56	134.41	19.38	-40.4	-41.4	22.7	0.00e+00	92	42	0	1044381696	54	5981
2026-01-20 13:20:35.57	134.59	19.30	-40.9	-42.0	22.2	0.00e+00	0	42	0	1046478848	54	6416
2026-01-20 13:20:36.57	134.77	19.21	-40.2	-41.1	23.0	0.00e+00	0	42	0	1048576000	54	5826
2026-01-20 13:20:37.58	134.95	19.12	-40.8	-41.8	22.3	0.00e+00	0	42	0	1050673152	54	6285
2026-01-20 13:20:38.59	135.14	19.04	-40.9	-41.9	22.4	0.00e+00	0	42	0	1052770304	54	6360
2026-01-20 13:20:39.60	135.32	18.95	-40.7	-41.7	22.5	0.00e+00	13	42	0	1053818880	54	6205
2026-01-20 13:20:40.61	135.49	18.87	-40.2	-41.2	22.9	0.00e+00	0	42	0	1055916032	54	5866
2026-01-20 13:20:41.61	135.67	18.78	-40.1	-41.1	23.0	0.00e+00	92	42	0	1058013184	54	5782
2026-01-20 13:20:42.62	135.85	18.69	-39.5	-40.4	23.6	0.00e+00	0	42	0	1060110336	52	5975
2026-01-20 13:20:43.63	136.02	18.61	-39.2	-40.0	23.9	0.00e+00	32	42	0	1062207488	52	5748
2026-01-20 13:20:44.64	136.20	18.52	-39.5	-40.4	23.6	0.00e+00	0	42	0	1063256064	52	5971
2026-01-20 13:20:45.65	136.37	18.43	-39.6	-40.5	23.5	0.00e+00	0	42	0	1065353216	52	6065
2026-01-20 13:20:46.66	136.55	18.35	-39.4	-40.3	23.6	0.00e+00	29	42	0	1067450368	52	5934
2026-01-20 13:20:47.67	136.72	18.26	-39.4	-40.3	23.6	0.00e+00	0	42	0	1069547520	52	5928
2026-01-20 13:20:48.68	136.89	18.18	-39.3	-40.1	23.6	0.00e+00	92	42	0	1071644672	52	5823
2026-01-20 13:20:49.69	137.06	18.09	-39.1	-40.0	23.8	0.00e+00	0	42	0	1073741824	52	5736
2026-01-20 13:20:50.69	137.23	18.01	-39.2	-40.1	23.8	0.00e+00	92	42	0	1074790400	52	5772
2026-01-20 13:20:51.70	137.39	17.92	-39.0	-39.8	24.0	0.00e+00	0	42	0	1076887552	52	5596
2026-01-20 13:20:52.71	137.56	17.83	-38.8	-39.6	24.2	0.00e+00	0	42	0	1078984704	52	5485
2026-01-20 13:20:53.72	137.73	17.75	-39.1	-40.0	23.9	0.00e+00	9	42	0	1081081856	52	5715
2026-01-20 13:20:54.73	137.89	17.66	-39.2	-40.0	24.0	0.00e+00	0	42	0	1083179008	52	5755
2026-01-20 13:20:55.74	138.06	17.58	-39.3	-40.2	23.7	0.00e+00	13	42	0	1084227584	52	5860
2026-01-20 13:20:56.75	138.22	17.49	-39.5	-40.3	23.6	0.00e+00	0	42	0	1086324736	52	5960
2026-01-20 13:20:57.76	138.39	17.41	-39.7	-40.6	23.4	0.00e+00	92	42	0	1088421888	52	6123
2026-01-20 13:20:58.77	138.55	17.32	-39.4	-40.3	23.1	0.00e+00	0	42	0	1090519040	52	5945
2026-01-20 13:20:59.78	138.71	17.24	-39.5	-40.4	23.4	0.00e+00	0	42	0	1092616192	52	6007
2026-01-20 13:21:00.79	138.87	17.15	-39.6	-40.6	23.3	0.00e+00	0	42	0	1093664768	52	6106
2026-01-20 13:21:01.80	139.03	17.06	-39.7	-40.6	23.2	0.00e+00	0	42	0	1095761920	52	6157
2026-01-20 13:21:02.81	139.19	16.98	-39.5	-40.4	23.5	0.00e+00	18	42	0	1097859072	52	6031
2026-01-20 13:21:03.82	139.34	16.89	-39.6	-40.5	22.7	0.00e+00	0	42	0	1099956224	52	6081
2026-01-20 13:21:04.83	139.50	16.81	-39.5	-40.5	23.4	0.00e+00	92	42	0	1102053376	52	6035
2026-01-20 13:21:05.84	139.66	16.73	-39.2	-40.1	23.6	0.00e+00	0	42	0	1103101952	52	5823
2026-01-20 13:21:06.84	139.81	16.64	-39.3	-40.2	23.7	0.00e+00	0	42	0	1105199104	52	5841
2026-01-20 13:21:07.85	139.97	16.56	-39.4	-40.3	23.6	0.00e+00	0	42	0	1107296256	52	5931
2026-01-20 13:21:08.86	140.12	16.47	-39.3	-40.2	23.6	0.00e+00	0	42	0	1109393408	52	5893
2026-01-20 13:21:09.87	140.27	16.39	-39.5	-40.4	23.5	0.00e+00	15	42	0	1111490560	52	6005
2026-01-20 13:21:10.88	140.42	16.30	-39.7	-40.6	23.4	0.00e+00	0	42	0	1112539136	52	6129
2026-01-20 13:21:11.89	140.57	16.22	-39.5	-40.4	23.4	0.00e+00	93	42	0	1114636288	52	6020
2026-01-20 13:21:12.90	140.72	16.14	-39.6	-40.5	23.4	0.00e+00	0	42	0	1116733440	52	6097
2026-01-20 13:21:13.90	140.87	16.05	-39.6	-40.5	23.4	0.00e+00	49	42	0	1118830592	52	6057
2026-01-20 13:21:14.92	141.02	15.97	-39.8	-40.7	23.2	0.00e+00	0	42	0	1120927744	52	6229
2026-01-20 13:21:15.92	141.17	15.88	-39.9	-40.9	23.1	0.00e+00	0	42	0	1121976320	52	6342
2026-01-20 13:21:16.93	141.31	15.80	-39.5	-40.4	23.5	0.00e+00	56	42	0	1124073472	52	5984
2026-01-20 13:21:17.94	141.46	15.72	-39.3	-40.2	23.6	0.00e+00	0	42	0	1126170624	52	5896
2026-01-20 13:21:18.95	141.61	15.63	-39.4	-40.2	23.7	0.00e+00	60	42	0	1128267776	52	5890
2026-01-20 13:21:19.96	141.75	15.55	-39.4	-40.3	23.6	0.00e+00	0	42	0	1130364928	52	5930
2026-01-20 13:21:20.96	141.89	15.47	-40.0	-40.9	23.0	0.00e+00	92	42	0	1131413504	52	6334
2026-01-20 13:21:21.97	142.04	15.39	-39.5	-40.3	23.5	0.00e+00	0	42	0	1133510656	52	5960
2026-01-20 13:21:22.98	142.18	15.30	-40.2	-41.2	22.8	0.00e+00	0	42	0	1135607808	52	6559
2026-01-20 13:21:23.99	142.32	15.22	-40.0	-40.9	22.9	0.00e+00	0	42	0	1137704960	52	6359
2026-01-20 13:21:25.00	142.46	15.14	-40.1	-41.0	23.0	0.00e+00	0	42	0	1139802112	52	6452
2026-01-20 13:21:26.01	142.60	15.05	-40.7	-41.7	22.3	0.00e+00	91	42	0	1140850688	54	6204
2026-01-20 13:21:27.02	142.74	14.97	-40.8	-41.8	22.2	0.00e+00	0	42	0	1142947840	54	6317
2026-01-20 13:21:28.02	142.88	14.89	-41.2	-42.3	21.7	0.00e+00	53	42	0	1145044992	54	6674
2026-01-20 13:21:29.03	143.01	14.81	-41.4	-42.6	21.6	0.00e+00	0	42	0	1147142144	54	6861
2026-01-20 13:21:30.04	143.15	14.73	-41.5	-42.6	21.5	0.00e+00	0	42	0	1149239296	54	6925
2026-01-20 13:21:31.05	143.29	14.64	-42.0	-43.2	21.1	0.00e+00	0	42	0	1150287872	56	6562
2026-01-20 13:21:32.06	143.42	14.56	-41.2	-42.3	22.0	0.00e+00	0	42	0	1152385024	56	5913
2026-01-20 13:21:33.07	143.56	14.48	-41.0	-42.1	22.1	0.00e+00	0	42	0	1154482176	56	5809
2026-01-20 13:21:34.07	143.69	14.40	-40.9	-42.0	22.3	0.00e+00	0	42	0	1156579328	56	5697
2026-01-20 13:21:35.08	143.82	14.32	-40.1	-41.1	22.7	0.00e+00	89	42	0	1158676480	54	5800
2026-01-20 13:21:36.09	143.96	14.24	-40.3	-41.3	22.6	0.00e+00	0	42	0	1159725056	54	5934
2026-01-20 13:21:37.10	144.09	14.16	-40.4	-41.4	22.4	0.00e+00	0	42	0	1161822208	54	5998
2026-01-20 13:21:38.11	144.22	14.08	-40.4	-41.4	22.5	0.00e+00	0	42	0	1163919360	54	5990
2026-01-20 13:21:39.12	144.35	13.99	-40.8	-41.8	22.3	0.00e+00	0	42	0	1166016512	54	6291
2026-01-20 13:21:40.13	144.48	13.91	-40.8	-41.8	22.2	0.00e+00	91	42	0	1168113664	54	6299
2026-01-20 13:21:41.14	144.61	13.83	-41.3	-42.5	21.6	0.00e+00	0	42	0	1170210816	54	6789
2026-01-20 13:21:42.15	144.74	13.75	-41.6	-42.8	21.4	0.00e+00	91	42	0	1171259392	54	7019
2026-01-20 13:21:43.16	144.87	13.67	-42.1	-43.3	20.9	0.00e+00	7	42	0	1173356544	56	6681
2026-01-20 13:21:44.16	144.99	13.59	-42.5	-43.8	20.6	0.00e+00	0	42	0	1175453696	56	7037
2026-01-20 13:21:45.17	145.12	13.51	-42.7	-44.0	20.4	0.00e+00	0	42	0	1177550848	56	7195
2026-01-20 13:21:46.18	145.25	13.43	-43.1	-44.5	20.1	0.00e+00	0	42	0	1179648000	58	6819
2026-01-20 13:21:47.19	145.37	13.35	-42.4	-43.7	20.8	0.00e+00	26	42	0	1180696576	58	6190
2026-01-20 13:21:48.20	145.50	13.27	-42.5	-43.8	20.6	0.00e+00	0	42	0	1182793728	58	6252
2026-01-20 13:21:49.21	145.62	13.19	-42.3	-43.6	20.8	0.00e+00	77	42	0	1184890880	58	6127
2026-01-20 13:21:50.22	145.74	13.11	-42.4	-43.7	20.7	0.00e+00	0	42	0	1186988032	58	6227
2026-01-20 13:21:51.23	145.87	13.04	-42.0	-43.2	21.2	0.00e+00	73	42	0	1189085184	58	5845
2026-01-20 13:21:52.24	145.99	12.96	-42.3	-43.6	20.8	0.00e+00	0	42	0	1190133760	58	6152
2026-01-20 13:21:53.25	146.11	12.88	-42.1	-43.3	21.0	0.00e+00	0	42	0	1192230912	58	5937
2026-01-20 13:21:54.26	146.23	12.80	-41.9	-43.1	21.2	0.00e+00	15	42	0	1194328064	58	5797
2026-01-20 13:21:55.26	146.35	12.72	-41.8	-42.9	21.4	0.00e+00	0	42	0	1196425216	56	6386
2026-01-20 13:21:56.27	146.47	12.64	-41.9	-43.1	21.1	0.00e+00	92	42	0	1198522368	56	6485
2026-01-20 13:21:57.28	146.59	12.56	-41.9	-43.1	21.3	0.00e+00	0	42	0	1199570944	56	6485
2026-01-20 13:21:58.29	146.71	12.49	-42.4	-43.7	20.8	0.00e+00	92	42	0	1201668096	56	6939
2026-01-20 13:21:59.30	146.82	12.41	-42.1	-43.3	21.2	0.00e+00	0	42	0	1203765248	56	6660
2026-01-20 13:22:00.31	146.94	12.33	-41.9	-43.1	21.4	0.00e+00	0	42	0	1205862400	56	6500
2026-01-20 13:22:01.32	147.06	12.25	-41.7	-42.8	21.7	0.00e+00	9	42	0	1207959552	56	6292
2026-01-20 13:22:02.33	147.17	12.17	-41.2	-42.3	22.0	0.00e+00	0	42	0	1209008128	56	5898
2026-01-20 13:22:03.34	147.29	12.10	-41.1	-42.2	22.0	0.00e+00	12	42	0	1211105280	56	5859
2026-01-20 13:22:04.34	147.40	12.02	-40.6	-41.7	22.4	0.00e+00	0	42	0	1213202432	56	5512
2026-01-20 13:22:05.35	147.52	11.94	-40.9	-41.9	22.1	0.00e+00	60	42	0	1215299584	54	6363
2026-01-20 13:22:06.36	147.63	11.87	-41.1	-42.2	21.8	0.00e+00	0	42	0	1217396736	54	6603
2026-01-20 13:22:07.37	147.74	11.79	-40.6	-41.6	22.4	0.00e+00	0	42	0	1218445312	54	6121
2026-01-20 13:22:08.38	147.86	11.71	-40.9	-42.0	22.1	0.00e+00	0	42	0	1220542464	54	6397
