passes_logs/2026/01/20/R4.6S_Anadyr/R4.6S_Anadyr__20260120_010513_SUOMI_NPP_rec.log

#Pass ID: 20260120_010513_SUOMI NPP
#Satellite: SUOMI NPP
#Configuration: NPP
#almurnet v.1.7.20251203
#Start time: 2026-01-20 01:05:16

#Version: 2.2.20231116
#Station: R4.6S_Anadyr
#Location: 177.4865 lon 64.73178 lat
#TLE: 1 37849U 11061A   26019.26265094  .00000081  00000+0  59609-4 0  9993
#TLE: 2 37849  98.7817 321.2746 0002356  56.2510 303.8890 14.19526363737315

#Time	Az	El	Level	Level2	SNR	BER	BlckErr	Temp	State	Recorded	gain1	gain2
2026-01-20 01:05:16.41	176.34	0.19	-52.5	-66.2	3.3	1.54e+00	0	40	0	0	60	73993
2026-01-20 01:05:17.41	176.37	0.25	-52.6	-67.9	3.6	1.51e+00	0	40	104	0	60	89698
2026-01-20 01:05:18.42	176.39	0.31	-52.6	-67.9	3.6	1.51e+00	0	40	104	0	60	89278
2026-01-20 01:05:19.43	176.42	0.37	-52.7	-67.9	3.6	1.51e+00	0	40	104	0	60	90160
2026-01-20 01:05:20.44	176.45	0.43	-52.7	-67.9	3.6	1.51e+00	0	40	104	0	60	89781
2026-01-20 01:05:21.46	176.48	0.49	-52.8	-68.0	3.6	1.51e+00	0	40	104	0	60	90954
2026-01-20 01:05:22.47	176.51	0.55	-52.6	-67.8	3.6	1.51e+00	0	40	104	0	60	89225
2026-01-20 01:05:23.47	176.53	0.61	-52.3	-67.5	3.6	1.51e+00	0	40	104	0	60	85667
2026-01-20 01:05:24.49	176.56	0.67	-53.1	-68.3	3.6	1.51e+00	0	40	104	0	60	93793
2026-01-20 01:05:25.49	176.59	0.73	-52.8	-68.1	3.6	1.51e+00	0	40	104	0	60	91424
2026-01-20 01:05:26.50	176.62	0.79	-52.2	-67.5	3.6	1.51e+00	0	40	104	0	60	86075
2026-01-20 01:05:27.51	176.65	0.85	-53.0	-68.2	3.6	1.51e+00	0	40	104	0	60	92458
2026-01-20 01:05:28.52	176.68	0.92	-52.7	-67.9	3.6	1.51e+00	0	40	104	0	60	90056
2026-01-20 01:05:29.54	176.71	0.98	-52.5	-67.8	3.6	1.51e+00	0	40	104	0	60	88745
2026-01-20 01:05:30.55	176.73	1.04	-51.6	-66.9	3.6	1.51e+00	0	40	104	0	60	80446
2026-01-20 01:05:31.55	176.76	1.10	-51.3	-66.5	3.6	1.51e+00	0	40	104	0	60	76816
2026-01-20 01:05:32.56	176.79	1.16	-51.9	-67.0	3.6	1.51e+00	0	40	104	0	60	81107
2026-01-20 01:05:33.57	176.82	1.22	-52.2	-67.4	3.6	1.51e+00	0	40	104	0	60	85024
2026-01-20 01:05:34.59	176.85	1.29	-51.4	-66.7	3.6	1.51e+00	0	40	104	0	60	77904
2026-01-20 01:05:35.60	176.88	1.35	-51.2	-66.4	3.6	1.51e+00	0	40	104	0	60	75657
2026-01-20 01:05:36.61	176.91	1.41	-50.5	-65.7	3.6	1.51e+00	0	40	104	0	60	69742
2026-01-20 01:05:37.62	176.94	1.47	-50.1	-65.4	3.6	1.51e+00	0	41	104	0	60	67097
2026-01-20 01:05:38.62	176.97	1.53	-50.5	-65.7	3.6	1.51e+00	0	40	104	0	60	69769
2026-01-20 01:05:39.63	177.00	1.60	-50.6	-65.8	3.6	1.51e+00	0	41	104	0	60	70457
2026-01-20 01:05:40.64	177.03	1.66	-50.0	-65.2	3.6	1.51e+00	0	41	104	0	60	65659
2026-01-20 01:05:41.65	177.06	1.72	-49.7	-64.8	3.6	1.51e+00	0	41	104	0	60	62845
2026-01-20 01:05:42.66	177.09	1.78	-50.1	-65.3	3.6	1.51e+00	0	40	104	0	60	66454
2026-01-20 01:05:43.67	177.12	1.85	-50.7	-65.9	3.6	1.51e+00	0	41	104	0	60	71111
2026-01-20 01:05:44.68	177.15	1.91	-51.0	-66.3	3.6	1.51e+00	0	41	104	0	60	74301
2026-01-20 01:05:45.69	177.18	1.97	-50.8	-65.9	3.6	1.51e+00	0	41	104	0	60	71707
2026-01-20 01:05:46.70	177.21	2.04	-51.6	-66.7	3.6	1.51e+00	0	41	104	0	60	77754
2026-01-20 01:05:47.71	177.24	2.10	-51.0	-66.1	3.6	1.51e+00	0	41	104	0	60	73270
2026-01-20 01:05:48.72	177.27	2.16	-50.8	-66.0	3.6	1.51e+00	0	41	104	0	60	72355
2026-01-20 01:05:49.73	177.31	2.23	-49.8	-64.9	3.6	1.51e+00	0	41	104	0	60	63593
2026-01-20 01:05:50.74	177.34	2.29	-49.5	-64.6	3.6	1.51e+00	0	41	104	0	60	61683
2026-01-20 01:05:51.75	177.37	2.36	-49.5	-64.5	3.6	1.51e+00	0	41	104	0	60	60618
2026-01-20 01:05:52.76	177.40	2.42	-49.3	-64.2	3.6	1.51e+00	0	41	104	0	60	58527
2026-01-20 01:05:53.77	177.43	2.48	-49.2	-62.7	3.6	1.51e+00	0	41	104	0	60	49238
2026-01-20 01:05:54.78	177.46	2.55	-49.1	-62.8	3.6	1.51e+00	0	41	104	0	60	49632
2026-01-20 01:05:55.79	177.49	2.61	-49.8	-63.2	3.6	1.51e+00	0	41	104	0	60	52489
2026-01-20 01:05:56.80	177.53	2.68	-49.4	-62.8	3.6	1.51e+00	0	41	104	0	60	49837
2026-01-20 01:05:57.81	177.56	2.74	-49.5	-63.9	3.6	1.51e+00	0	41	104	0	60	56631
2026-01-20 01:05:58.82	177.59	2.81	-49.4	-64.2	3.6	1.51e+00	0	41	104	0	60	58435
2026-01-20 01:05:59.83	177.62	2.87	-49.2	-63.0	3.6	1.51e+00	0	41	104	0	60	50815
2026-01-20 01:06:00.84	177.66	2.94	-49.9	-59.1	5.5	1.31e+00	0	41	104	0	60	32673
2026-01-20 01:06:01.85	177.69	3.00	-48.9	-55.2	8.8	2.46e-01	0	41	0	1048576	60	20697
2026-01-20 01:06:02.86	177.72	3.07	-48.1	-52.8	10.6	5.69e-03	0	41	0	3145728	60	15846
2026-01-20 01:06:03.87	177.75	3.14	-47.6	-51.3	13.0	7.09e-05	0	41	0	5242880	60	13218
2026-01-20 01:06:04.88	177.79	3.20	-46.6	-49.4	15.4	4.50e-06	0	41	0	7340032	60	10633
2026-01-20 01:06:05.89	177.82	3.27	-45.2	-47.1	17.3	0.00e+00	0	41	0	8388608	60	8226
2026-01-20 01:06:06.90	177.85	3.33	-46.1	-48.3	17.1	0.00e+00	0	41	0	10485760	60	9380
2026-01-20 01:06:07.91	177.89	3.40	-44.8	-46.4	18.9	0.00e+00	0	41	0	12582912	60	7584
2026-01-20 01:06:08.92	177.92	3.47	-45.3	-47.2	18.2	0.00e+00	0	41	0	14680064	60	8243
2026-01-20 01:06:09.93	177.95	3.53	-45.5	-47.3	18.0	0.00e+00	0	41	0	16777216	60	8395
2026-01-20 01:06:10.94	177.99	3.60	-45.6	-47.3	18.2	0.00e+00	0	41	0	17825792	60	8400
2026-01-20 01:06:11.95	178.02	3.67	-46.2	-48.1	17.6	0.00e+00	0	41	0	19922944	60	9223
2026-01-20 01:06:12.96	178.06	3.73	-49.7	-55.5	7.7	1.56e-04	0	41	0	22020096	60	21639
2026-01-20 01:06:13.97	178.09	3.80	-47.3	-50.4	12.2	1.14e-03	0	41	0	24117248	60	11976
2026-01-20 01:06:14.98	178.12	3.87	-49.9	-57.7	6.9	6.04e-02	0	41	0	26214400	60	27837
2026-01-20 01:06:15.99	178.16	3.94	-48.9	-57.1	5.0	7.56e-04	0	41	0	27262976	60	25852
2026-01-20 01:06:17.00	178.19	4.00	-46.7	-50.1	13.2	1.44e-01	0	41	0	29360128	60	11576
2026-01-20 01:06:18.01	178.23	4.07	-47.4	-51.0	13.5	2.74e-05	0	41	0	31457280	60	12789
2026-01-20 01:06:19.02	178.26	4.14	-47.0	-50.0	14.2	7.00e-07	0	41	0	33554432	60	11492
2026-01-20 01:06:20.03	178.30	4.21	-47.9	-51.0	14.6	7.00e-07	0	41	0	35651584	60	12860
2026-01-20 01:06:21.04	178.33	4.28	-47.4	-50.0	13.8	3.00e-06	0	41	0	36700160	60	11428
2026-01-20 01:06:22.05	178.37	4.35	-47.8	-50.6	15.3	0.00e+00	0	41	0	38797312	60	12318
2026-01-20 01:06:23.06	178.40	4.41	-47.0	-49.6	16.2	7.00e-07	0	41	0	40894464	60	10940
2026-01-20 01:06:24.07	178.44	4.48	-46.5	-49.1	15.8	0.00e+00	0	41	0	42991616	60	10264
2026-01-20 01:06:25.08	178.48	4.55	-46.0	-48.4	16.4	0.00e+00	0	41	0	45088768	60	9483
2026-01-20 01:06:26.09	178.51	4.62	-46.0	-48.3	16.3	0.00e+00	0	41	0	47185920	60	9426
2026-01-20 01:06:27.10	178.55	4.69	-45.4	-47.4	17.0	0.00e+00	0	41	0	48234496	60	8466
2026-01-20 01:06:28.11	178.58	4.76	-47.1	-49.5	16.2	0.00e+00	0	41	0	50331648	60	10773
2026-01-20 01:06:29.12	178.62	4.83	-47.0	-49.3	16.5	0.00e+00	0	41	0	52428800	60	10605
2026-01-20 01:06:30.13	178.66	4.90	-45.3	-47.4	17.1	0.00e+00	0	41	0	54525952	60	8436
2026-01-20 01:06:31.14	178.69	4.97	-45.1	-47.1	17.4	0.00e+00	0	41	0	56623104	60	8168
2026-01-20 01:06:32.15	178.73	5.04	-45.0	-46.9	17.7	0.00e+00	0	41	0	57671680	60	7954
2026-01-20 01:06:33.15	178.77	5.11	-44.4	-46.2	18.1	0.00e+00	0	41	0	59768832	60	7352
2026-01-20 01:06:34.16	178.81	5.18	-44.2	-45.9	18.4	0.00e+00	0	41	0	61865984	60	7160
2026-01-20 01:06:35.17	178.84	5.25	-44.4	-46.1	18.1	0.00e+00	0	41	0	63963136	60	7298
2026-01-20 01:06:36.18	178.88	5.32	-43.7	-45.4	18.9	0.00e+00	0	41	0	66060288	60	6735
2026-01-20 01:06:37.19	178.92	5.40	-44.7	-46.3	18.8	0.00e+00	0	41	0	67108864	60	7488
2026-01-20 01:06:38.20	178.96	5.47	-45.4	-47.1	18.5	0.00e+00	0	41	0	69206016	60	8139
2026-01-20 01:06:39.21	178.99	5.54	-45.2	-46.9	18.6	0.00e+00	0	41	0	71303168	60	8009
2026-01-20 01:06:40.22	179.03	5.61	-44.6	-46.2	18.9	0.00e+00	0	41	0	73400320	60	7387
2026-01-20 01:06:41.23	179.07	5.68	-45.1	-46.6	18.8	0.00e+00	0	41	0	75497472	60	7764
2026-01-20 01:06:42.24	179.11	5.76	-45.1	-46.7	18.7	0.00e+00	0	41	0	76546048	60	7793
2026-01-20 01:06:43.25	179.15	5.83	-45.7	-47.4	18.5	0.00e+00	0	41	0	78643200	60	8495
2026-01-20 01:06:44.26	179.19	5.90	-46.1	-47.8	18.3	0.00e+00	0	41	0	80740352	60	8921
2026-01-20 01:06:45.28	179.23	5.97	-45.3	-47.0	18.5	0.00e+00	0	41	0	82837504	60	8070
2026-01-20 01:06:46.29	179.27	6.05	-45.0	-46.8	18.0	0.00e+00	0	41	0	84934656	60	7881
2026-01-20 01:06:47.29	179.31	6.12	-43.8	-45.4	18.7	0.00e+00	0	41	0	85983232	60	6752
2026-01-20 01:06:48.30	179.35	6.19	-44.1	-45.8	18.3	0.00e+00	0	41	0	88080384	60	7054
2026-01-20 01:06:49.31	179.39	6.27	-43.3	-44.8	19.0	0.00e+00	0	41	0	90177536	60	6288
2026-01-20 01:06:50.32	179.43	6.34	-43.1	-44.7	19.2	0.00e+00	0	41	0	92274688	60	6182
2026-01-20 01:06:51.33	179.47	6.41	-44.6	-46.1	18.8	0.00e+00	0	41	0	94371840	60	7332
2026-01-20 01:06:52.34	179.51	6.49	-44.9	-46.4	19.5	0.00e+00	0	41	0	95420416	60	7574
2026-01-20 01:06:53.35	179.55	6.56	-45.1	-46.7	18.8	0.00e+00	0	41	0	97517568	60	7836
2026-01-20 01:06:54.36	179.59	6.64	-44.5	-45.9	19.1	0.00e+00	0	41	0	99614720	60	7160
2026-01-20 01:06:55.37	179.63	6.71	-43.8	-45.3	19.2	0.00e+00	0	41	0	101711872	60	6644
2026-01-20 01:06:56.38	179.67	6.79	-44.2	-45.7	19.2	0.00e+00	0	41	0	103809024	60	6981
2026-01-20 01:06:57.39	179.71	6.86	-44.2	-45.6	19.3	0.00e+00	0	41	0	104857600	60	6878
2026-01-20 01:06:58.40	179.75	6.94	-44.2	-45.7	19.2	0.00e+00	0	41	0	106954752	60	6964
2026-01-20 01:06:59.41	179.80	7.01	-43.7	-45.1	19.6	0.00e+00	0	41	0	109051904	60	6520
2026-01-20 01:07:00.42	179.84	7.09	-43.7	-45.1	19.7	0.00e+00	0	41	0	111149056	60	6483
2026-01-20 01:07:01.43	179.88	7.16	-43.9	-45.3	19.6	0.00e+00	0	41	0	113246208	60	6659
2026-01-20 01:07:02.44	179.92	7.24	-43.0	-44.2	20.8	0.00e+00	0	41	0	115343360	60	5872
2026-01-20 01:07:03.45	179.96	7.32	-43.3	-44.6	20.7	0.00e+00	0	41	0	116391936	60	6124
2026-01-20 01:07:04.46	180.01	7.39	-44.0	-45.4	20.1	0.00e+00	0	41	0	118489088	60	6704
2026-01-20 01:07:05.46	180.05	7.47	-43.3	-44.5	20.8	0.00e+00	0	41	0	120586240	60	6055
2026-01-20 01:07:06.47	180.09	7.55	-44.2	-45.6	20.3	0.00e+00	0	41	0	122683392	60	6863
2026-01-20 01:07:07.48	180.14	7.62	-43.9	-45.2	20.3	0.00e+00	0	41	0	124780544	60	6571
2026-01-20 01:07:08.49	180.18	7.70	-43.0	-44.2	20.9	0.00e+00	0	41	0	125829120	60	5842
2026-01-20 01:07:09.49	180.22	7.78	-43.5	-44.7	20.8	0.00e+00	0	41	0	127926272	60	6201
2026-01-20 01:07:10.50	180.27	7.86	-42.7	-43.9	21.2	0.00e+00	0	41	0	130023424	58	6369
2026-01-20 01:07:11.51	180.31	7.94	-42.3	-43.5	21.1	0.00e+00	0	41	0	132120576	58	6081
2026-01-20 01:07:12.52	180.36	8.01	-42.4	-43.6	20.9	0.00e+00	0	41	0	133169152	58	6151
2026-01-20 01:07:13.53	180.40	8.09	-43.4	-44.5	21.0	0.00e+00	0	41	0	135266304	58	6846
2026-01-20 01:07:14.54	180.45	8.17	-43.6	-44.8	21.1	0.00e+00	0	41	0	137363456	58	7008
2026-01-20 01:07:15.54	180.49	8.25	-43.4	-44.6	21.0	0.00e+00	0	41	0	139460608	58	6858
2026-01-20 01:07:16.55	180.54	8.33	-43.8	-45.0	20.9	0.00e+00	0	41	0	141557760	58	7225
2026-01-20 01:07:17.56	180.58	8.41	-42.8	-44.0	21.2	0.00e+00	0	41	0	143654912	60	5724
2026-01-20 01:07:18.57	180.63	8.49	-42.9	-44.0	21.2	0.00e+00	0	41	0	144703488	58	6450
2026-01-20 01:07:19.59	180.68	8.57	-43.0	-44.2	21.1	0.00e+00	0	41	0	146800640	58	6560
2026-01-20 01:07:20.60	180.72	8.65	-42.8	-43.9	21.3	0.00e+00	0	41	0	148897792	58	6385
2026-01-20 01:07:21.61	180.77	8.73	-42.7	-43.9	21.0	0.00e+00	0	41	0	150994944	58	6358
2026-01-20 01:07:22.62	180.81	8.81	-42.2	-43.4	21.2	0.00e+00	0	41	0	153092096	58	5997
2026-01-20 01:07:23.63	180.86	8.89	-42.3	-43.5	20.9	0.00e+00	0	41	0	154140672	58	6077
2026-01-20 01:07:24.64	180.91	8.97	-42.4	-43.6	21.3	0.00e+00	0	41	0	156237824	58	6140
2026-01-20 01:07:25.65	180.96	9.06	-42.1	-43.2	21.3	0.00e+00	0	41	0	158334976	58	5862
2026-01-20 01:07:26.66	181.00	9.14	-43.6	-44.9	20.8	0.00e+00	0	41	0	160432128	60	6330
2026-01-20 01:07:27.67	181.05	9.22	-43.5	-44.6	21.3	0.00e+00	0	41	0	162529280	60	6150
2026-01-20 01:07:28.68	181.10	9.30	-43.6	-44.8	20.6	0.00e+00	0	41	0	163577856	60	6317
2026-01-20 01:07:29.69	181.15	9.39	-43.8	-45.0	20.9	0.00e+00	0	41	0	165675008	60	6449
2026-01-20 01:07:30.69	181.20	9.47	-43.9	-45.0	21.2	0.00e+00	0	41	0	167772160	60	6451
2026-01-20 01:07:31.71	181.25	9.55	-43.2	-44.3	21.2	0.00e+00	0	41	0	169869312	60	5962
2026-01-20 01:07:32.72	181.30	9.64	-43.1	-44.2	21.1	0.00e+00	0	41	0	171966464	60	5886
2026-01-20 01:07:33.73	181.35	9.72	-42.7	-43.9	21.3	0.00e+00	0	41	0	173015040	58	6335
2026-01-20 01:07:34.74	181.40	9.80	-42.2	-43.4	21.4	0.00e+00	0	41	0	175112192	58	5995
2026-01-20 01:07:35.75	181.45	9.89	-41.7	-42.9	21.6	0.00e+00	0	41	0	177209344	58	5642
2026-01-20 01:07:36.76	181.50	9.97	-41.4	-42.5	21.4	0.00e+00	0	41	0	179306496	56	6094
2026-01-20 01:07:37.77	181.55	10.06	-41.2	-42.3	21.6	0.00e+00	0	41	0	181403648	56	5903
2026-01-20 01:07:38.78	181.60	10.14	-41.6	-42.7	21.7	0.00e+00	0	41	0	183500800	56	6186
2026-01-20 01:07:39.79	181.65	10.23	-41.7	-42.8	21.4	0.00e+00	0	41	0	184549376	56	6315
2026-01-20 01:07:40.80	181.70	10.31	-41.6	-42.7	21.5	0.00e+00	0	41	0	186646528	56	6243
2026-01-20 01:07:41.81	181.75	10.40	-41.7	-42.9	21.5	0.00e+00	0	41	0	188743680	56	6324
2026-01-20 01:07:42.82	181.81	10.48	-41.6	-42.7	21.5	0.00e+00	0	41	0	190840832	56	6193
2026-01-20 01:07:43.83	181.86	10.57	-41.5	-42.6	21.7	0.00e+00	0	41	0	192937984	56	6166
2026-01-20 01:07:44.84	181.91	10.66	-42.2	-43.3	21.5	0.00e+00	0	41	0	193986560	56	6647
2026-01-20 01:07:45.85	181.96	10.74	-42.5	-43.6	21.6	0.00e+00	0	41	0	196083712	56	6895
2026-01-20 01:07:46.86	182.02	10.83	-42.2	-43.3	21.6	0.00e+00	0	41	0	198180864	56	6659
2026-01-20 01:07:47.86	182.07	10.92	-42.1	-43.2	21.7	0.00e+00	0	41	0	200278016	56	6560
2026-01-20 01:07:48.87	182.12	11.01	-42.2	-43.4	21.5	0.00e+00	0	41	0	202375168	56	6722
2026-01-20 01:07:49.88	182.18	11.09	-42.3	-43.4	21.4	0.00e+00	0	41	0	203423744	56	6718
2026-01-20 01:07:50.89	182.23	11.18	-41.9	-43.0	22.0	0.00e+00	0	41	0	205520896	56	6420
2026-01-20 01:07:51.90	182.29	11.27	-41.9	-43.0	21.9	0.00e+00	0	41	0	207618048	56	6397
2026-01-20 01:07:52.91	182.34	11.36	-42.1	-43.2	21.7	0.00e+00	0	41	0	209715200	56	6610
2026-01-20 01:07:53.92	182.40	11.45	-41.8	-42.9	21.8	0.00e+00	0	41	0	211812352	56	6369
2026-01-20 01:07:54.93	182.45	11.54	-42.3	-43.4	21.9	0.00e+00	0	41	0	212860928	56	6722
2026-01-20 01:07:55.94	182.51	11.63	-42.0	-43.0	21.8	0.00e+00	0	41	0	214958080	56	6452
2026-01-20 01:07:56.95	182.57	11.72	-41.8	-42.9	21.8	0.00e+00	0	41	0	217055232	56	6349
2026-01-20 01:07:57.96	182.62	11.81	-41.2	-42.2	22.0	0.00e+00	0	41	0	219152384	56	5895
2026-01-20 01:07:58.97	182.68	11.90	-41.0	-42.1	22.0	0.00e+00	0	41	0	221249536	56	5790
2026-01-20 01:07:59.98	182.74	11.99	-40.9	-42.0	21.9	0.00e+00	0	41	0	222298112	56	5705
2026-01-20 01:08:00.98	182.79	12.08	-41.1	-42.1	22.0	0.00e+00	0	41	0	224395264	56	5824
2026-01-20 01:08:01.99	182.85	12.18	-41.0	-42.0	22.0	0.00e+00	0	41	0	226492416	56	5744
2026-01-20 01:08:03.00	182.91	12.27	-41.0	-42.1	21.9	0.00e+00	0	41	0	228589568	56	5763
2026-01-20 01:08:04.01	182.97	12.36	-41.0	-42.0	22.1	0.00e+00	0	41	0	230686720	56	5751
2026-01-20 01:08:05.02	183.03	12.45	-40.6	-41.6	22.3	0.00e+00	0	41	0	231735296	54	6125
2026-01-20 01:08:06.03	183.09	12.55	-40.7	-41.7	22.2	0.00e+00	0	41	0	233832448	54	6241
2026-01-20 01:08:07.04	183.15	12.64	-41.6	-42.6	22.3	0.00e+00	0	41	0	235929600	56	6115
2026-01-20 01:08:08.05	183.21	12.73	-42.1	-43.2	22.3	0.00e+00	0	41	0	238026752	56	6558
2026-01-20 01:08:09.06	183.27	12.83	-41.4	-42.4	22.3	0.00e+00	0	41	0	240123904	56	5994
2026-01-20 01:08:10.07	183.33	12.92	-41.4	-42.4	22.4	0.00e+00	0	41	0	241172480	56	6032
2026-01-20 01:08:11.08	183.39	13.02	-41.5	-42.5	22.3	0.00e+00	0	41	0	243269632	56	6067
2026-01-20 01:08:12.09	183.45	13.11	-41.1	-42.1	22.3	0.00e+00	0	41	0	245366784	56	5805
2026-01-20 01:08:13.10	183.51	13.21	-40.7	-41.7	22.6	0.00e+00	0	41	0	247463936	56	5532
2026-01-20 01:08:14.11	183.58	13.30	-40.4	-41.4	22.5	0.00e+00	0	41	0	249561088	54	5970
2026-01-20 01:08:15.12	183.64	13.40	-40.4	-41.4	22.6	0.00e+00	0	41	0	251658240	54	5989
2026-01-20 01:08:16.14	183.70	13.50	-40.2	-41.1	22.7	0.00e+00	0	41	0	252706816	54	5795
2026-01-20 01:08:17.15	183.77	13.60	-40.6	-41.6	22.4	0.00e+00	0	41	0	254803968	54	6131
2026-01-20 01:08:18.16	183.83	13.69	-40.4	-41.4	22.7	0.00e+00	0	41	0	256901120	54	5972
2026-01-20 01:08:19.17	183.89	13.79	-40.6	-41.5	22.7	0.00e+00	0	41	0	258998272	54	6076
2026-01-20 01:08:20.18	183.96	13.89	-40.4	-41.4	22.8	0.00e+00	0	41	0	261095424	54	5970
2026-01-20 01:08:21.19	184.02	13.99	-40.7	-41.7	22.9	0.00e+00	0	41	0	262144000	54	6180
2026-01-20 01:08:22.20	184.09	14.09	-40.8	-41.7	22.9	0.00e+00	0	41	0	264241152	54	6228
2026-01-20 01:08:23.21	184.16	14.19	-40.5	-41.4	22.8	0.00e+00	0	41	0	266338304	54	6012
2026-01-20 01:08:24.22	184.22	14.28	-40.4	-41.3	22.8	0.00e+00	0	41	0	268435456	54	5931
2026-01-20 01:08:25.22	184.29	14.38	-40.5	-41.5	22.8	0.00e+00	0	41	0	270532608	54	6050
2026-01-20 01:08:26.23	184.35	14.48	-40.6	-41.6	22.8	0.00e+00	0	41	0	271581184	54	6117
2026-01-20 01:08:27.24	184.42	14.58	-40.6	-41.6	22.7	0.00e+00	0	41	0	273678336	54	6129
2026-01-20 01:08:28.25	184.49	14.69	-40.6	-41.5	22.6	0.00e+00	0	41	0	275775488	54	6069
2026-01-20 01:08:29.26	184.56	14.79	-40.7	-41.7	22.3	0.00e+00	0	41	0	277872640	54	6181
2026-01-20 01:08:30.27	184.63	14.89	-41.0	-42.0	22.1	0.00e+00	0	41	0	279969792	54	6457
2026-01-20 01:08:31.28	184.70	14.99	-41.3	-42.3	22.2	0.00e+00	0	41	0	281018368	54	6645
2026-01-20 01:08:32.29	184.77	15.09	-41.2	-42.2	22.5	0.00e+00	0	41	0	283115520	54	6577
2026-01-20 01:08:33.30	184.84	15.20	-40.6	-41.5	22.9	0.00e+00	0	41	0	285212672	54	6070
2026-01-20 01:08:34.30	184.91	15.30	-40.8	-41.7	23.0	0.00e+00	0	41	0	287309824	54	6235
2026-01-20 01:08:35.31	184.98	15.40	-40.9	-41.8	23.1	0.00e+00	0	41	0	289406976	54	6269
2026-01-20 01:08:36.32	185.05	15.51	-41.0	-41.9	23.1	0.00e+00	0	41	0	290455552	54	6347
2026-01-20 01:08:37.33	185.12	15.61	-40.8	-41.8	23.0	0.00e+00	0	41	0	292552704	54	6246
2026-01-20 01:08:38.34	185.19	15.72	-41.3	-42.2	23.3	0.00e+00	0	41	0	294649856	54	6552
2026-01-20 01:08:39.35	185.27	15.82	-40.7	-41.5	23.4	0.00e+00	0	41	0	296747008	54	6099
2026-01-20 01:08:40.36	185.34	15.93	-41.1	-42.0	23.3	0.00e+00	0	41	0	298844160	54	6456
2026-01-20 01:08:41.37	185.42	16.04	-40.9	-41.8	23.3	0.00e+00	0	41	0	299892736	54	6266
2026-01-20 01:08:42.38	185.49	16.14	-40.6	-41.5	23.2	0.00e+00	0	41	0	301989888	54	6068
2026-01-20 01:08:43.39	185.57	16.25	-41.2	-42.1	23.2	0.00e+00	0	41	0	304087040	54	6521
2026-01-20 01:08:44.40	185.64	16.36	-41.3	-42.3	22.9	0.00e+00	0	41	0	306184192	54	6644
2026-01-20 01:08:45.41	185.72	16.46	-41.9	-42.9	23.0	0.00e+00	0	41	0	308281344	56	6322
2026-01-20 01:08:46.41	185.79	16.57	-42.0	-42.9	22.9	0.00e+00	0	41	0	309329920	56	6376
2026-01-20 01:08:47.42	185.87	16.68	-42.2	-43.2	22.9	0.00e+00	0	41	0	311427072	56	6547
2026-01-20 01:08:48.43	185.95	16.79	-41.9	-42.9	22.9	0.00e+00	0	41	0	313524224	56	6337
2026-01-20 01:08:49.44	186.03	16.90	-41.8	-42.7	23.0	0.00e+00	0	41	0	315621376	56	6233
2026-01-20 01:08:50.45	186.10	17.01	-41.6	-42.5	23.1	0.00e+00	0	41	0	317718528	56	6065
2026-01-20 01:08:51.46	186.18	17.12	-41.5	-42.5	23.1	0.00e+00	0	41	0	318767104	56	6038
2026-01-20 01:08:52.47	186.26	17.23	-41.8	-42.8	23.2	0.00e+00	0	41	0	320864256	56	6247
2026-01-20 01:08:53.48	186.34	17.34	-41.1	-42.1	23.4	0.00e+00	0	41	0	322961408	56	5763
2026-01-20 01:08:54.49	186.43	17.46	-40.8	-41.7	23.3	0.00e+00	0	41	0	325058560	54	6216
2026-01-20 01:08:55.50	186.51	17.57	-41.3	-42.2	23.5	0.00e+00	0	41	0	327155712	54	6589
2026-01-20 01:08:56.51	186.59	17.68	-41.2	-42.0	23.6	0.00e+00	0	41	0	328204288	54	6458
2026-01-20 01:08:57.52	186.67	17.80	-40.5	-41.3	23.5	0.00e+00	0	41	0	330301440	54	5963
2026-01-20 01:08:58.53	186.76	17.91	-41.1	-42.0	23.6	0.00e+00	0	41	0	332398592	54	6410
2026-01-20 01:08:59.54	186.84	18.02	-40.5	-41.4	23.8	0.00e+00	0	41	0	334495744	54	5974
2026-01-20 01:09:00.55	186.92	18.14	-40.8	-41.6	23.7	0.00e+00	0	41	0	336592896	54	6154
2026-01-20 01:09:01.56	187.01	18.25	-40.4	-41.3	23.9	0.00e+00	0	41	0	337641472	54	5921
2026-01-20 01:09:02.56	187.09	18.37	-40.3	-41.2	23.8	0.00e+00	0	41	0	339738624	54	5829
2026-01-20 01:09:03.58	187.18	18.49	-39.9	-40.8	23.7	0.00e+00	0	41	0	341835776	54	5588
2026-01-20 01:09:04.58	187.27	18.60	-39.8	-40.6	23.8	0.00e+00	0	41	0	343932928	52	6148
2026-01-20 01:09:05.59	187.35	18.72	-40.6	-41.4	23.6	0.00e+00	0	41	0	346030080	52	6766
2026-01-20 01:09:06.60	187.44	18.84	-40.3	-41.2	23.6	0.00e+00	0	41	0	348127232	54	5834
2026-01-20 01:09:07.61	187.53	18.95	-40.0	-40.9	23.5	0.00e+00	0	41	0	349175808	54	5657
2026-01-20 01:09:08.62	187.62	19.07	-39.7	-40.5	23.5	0.00e+00	0	41	0	351272960	52	6088
2026-01-20 01:09:09.63	187.71	19.19	-39.8	-40.7	23.6	0.00e+00	0	41	0	353370112	52	6219
2026-01-20 01:09:10.64	187.80	19.31	-40.4	-41.3	23.6	0.00e+00	0	41	0	355467264	52	6622
2026-01-20 01:09:11.65	187.89	19.43	-40.0	-40.9	23.6	0.00e+00	0	41	0	357564416	52	6343
2026-01-20 01:09:12.66	187.99	19.55	-40.6	-41.5	23.5	0.00e+00	0	41	0	358612992	52	6838
2026-01-20 01:09:13.67	188.08	19.68	-40.7	-41.6	23.4	0.00e+00	0	41	0	360710144	54	6134
2026-01-20 01:09:14.68	188.17	19.80	-39.9	-40.8	23.5	0.00e+00	0	41	0	362807296	54	5598
2026-01-20 01:09:15.68	188.27	19.92	-39.6	-40.5	23.4	0.00e+00	0	41	0	364904448	52	6087
2026-01-20 01:09:16.69	188.36	20.04	-39.8	-40.7	23.4	0.00e+00	0	41	0	367001600	52	6216
2026-01-20 01:09:17.70	188.46	20.17	-40.7	-41.6	23.3	0.00e+00	0	41	0	368050176	54	6165
2026-01-20 01:09:18.71	188.56	20.29	-40.5	-41.4	23.4	0.00e+00	0	41	0	370147328	54	5983
2026-01-20 01:09:19.72	188.65	20.41	-40.8	-41.7	23.6	0.00e+00	0	41	0	372244480	54	6192
2026-01-20 01:09:20.73	188.75	20.54	-40.5	-41.4	23.6	0.00e+00	0	41	0	374341632	54	6011
2026-01-20 01:09:21.74	188.85	20.66	-40.5	-41.3	23.6	0.00e+00	0	41	0	376438784	54	5964
2026-01-20 01:09:22.75	188.95	20.79	-40.5	-41.4	23.6	0.00e+00	0	41	0	377487360	54	5966
2026-01-20 01:09:23.76	189.05	20.92	-40.6	-41.5	23.6	0.00e+00	0	41	0	379584512	54	6046
2026-01-20 01:09:24.77	189.15	21.04	-40.2	-41.0	23.8	0.00e+00	0	41	0	381681664	54	5752
2026-01-20 01:09:25.78	189.25	21.17	-40.7	-41.5	24.0	0.00e+00	0	41	0	383778816	54	6071
2026-01-20 01:09:26.79	189.36	21.30	-41.0	-41.8	23.8	0.00e+00	0	41	0	385875968	54	6298
2026-01-20 01:09:27.80	189.46	21.43	-40.5	-41.4	23.9	0.00e+00	0	41	0	386924544	54	5965
2026-01-20 01:09:28.81	189.57	21.56	-40.1	-41.0	23.8	0.00e+00	0	41	0	389021696	54	5736
2026-01-20 01:09:29.82	189.67	21.69	-39.6	-40.5	23.8	0.00e+00	0	41	0	391118848	52	6066
2026-01-20 01:09:30.83	189.78	21.82	-39.5	-40.4	23.4	0.00e+00	0	41	0	393216000	52	6028
2026-01-20 01:09:31.84	189.88	21.95	-39.3	-40.1	24.1	0.00e+00	0	41	0	395313152	52	5822
2026-01-20 01:09:32.85	189.99	22.08	-40.5	-41.4	23.8	0.00e+00	0	41	0	396361728	52	6744
2026-01-20 01:09:33.86	190.10	22.22	-40.6	-41.5	23.9	0.00e+00	0	41	0	398458880	52	6790
2026-01-20 01:09:34.87	190.21	22.35	-40.5	-41.3	23.9	0.00e+00	0	41	0	400556032	52	6687
2026-01-20 01:09:35.88	190.32	22.48	-40.6	-41.4	24.0	0.00e+00	0	41	0	402653184	54	6029
2026-01-20 01:09:36.89	190.43	22.62	-40.7	-41.5	24.3	0.00e+00	0	41	0	404750336	54	6088
2026-01-20 01:09:37.89	190.55	22.75	-40.5	-41.3	24.2	0.00e+00	0	41	0	405798912	54	5959
2026-01-20 01:09:38.90	190.66	22.89	-40.7	-41.5	24.3	0.00e+00	0	41	0	407896064	54	6092
2026-01-20 01:09:39.91	190.77	23.02	-40.3	-41.1	24.3	0.00e+00	0	41	0	409993216	54	5787
2026-01-20 01:09:40.92	190.89	23.16	-40.6	-41.4	24.3	0.00e+00	0	41	0	412090368	54	6014
2026-01-20 01:09:41.93	191.01	23.30	-40.9	-41.7	24.4	0.00e+00	0	41	0	414187520	54	6200
2026-01-20 01:09:42.94	191.12	23.43	-40.9	-41.7	24.5	0.00e+00	0	41	0	416284672	54	6195
2026-01-20 01:09:43.95	191.24	23.57	-40.8	-41.6	24.1	0.00e+00	0	41	0	417333248	54	6147
2026-01-20 01:09:44.96	191.36	23.71	-41.4	-42.3	23.9	0.00e+00	0	41	0	419430400	54	6638
2026-01-20 01:09:45.97	191.48	23.85	-39.6	-40.4	24.5	0.00e+00	0	41	0	421527552	52	6001
2026-01-20 01:09:46.99	191.60	23.99	-39.8	-40.6	24.6	0.00e+00	0	41	0	423624704	52	6118
2026-01-20 01:09:48.00	191.73	24.13	-39.7	-40.5	24.7	0.00e+00	0	41	0	425721856	52	6036
2026-01-20 01:09:49.01	191.85	24.28	-39.2	-40.0	24.6	0.00e+00	0	41	0	426770432	52	5745
2026-01-20 01:09:50.02	191.98	24.42	-39.0	-39.8	24.7	0.00e+00	0	41	0	428867584	50	6283
2026-01-20 01:09:51.02	192.10	24.56	-39.0	-39.8	24.5	0.00e+00	0	41	0	430964736	50	6262
2026-01-20 01:09:52.03	192.23	24.70	-38.9	-39.7	24.4	0.00e+00	0	41	0	433061888	50	6211
2026-01-20 01:09:53.04	192.36	24.85	-38.7	-39.5	24.4	0.00e+00	0	41	0	435159040	50	6041
2026-01-20 01:09:54.05	192.48	24.99	-39.3	-40.1	24.4	0.00e+00	0	41	0	436207616	50	6519
2026-01-20 01:09:55.06	192.61	25.14	-39.9	-40.8	24.2	0.00e+00	0	41	0	438304768	52	6260
2026-01-20 01:09:56.07	192.75	25.28	-40.2	-41.0	24.2	0.00e+00	0	41	0	440401920	52	6441
2026-01-20 01:09:57.08	192.88	25.43	-40.1	-40.9	23.9	0.00e+00	0	41	0	442499072	52	6385
2026-01-20 01:09:58.08	193.01	25.58	-39.8	-40.7	23.8	0.00e+00	0	41	0	444596224	52	6198
2026-01-20 01:09:59.09	193.15	25.73	-39.9	-40.7	23.6	0.00e+00	0	41	0	445644800	52	6240
2026-01-20 01:10:00.10	193.28	25.87	-40.0	-41.0	23.3	0.00e+00	0	41	0	447741952	52	6400
2026-01-20 01:10:01.11	193.42	26.02	-40.2	-41.1	23.5	0.00e+00	0	41	0	449839104	52	6517
2026-01-20 01:10:02.12	193.56	26.17	-40.7	-41.7	23.2	0.00e+00	0	41	0	451936256	54	6188
2026-01-20 01:10:03.13	193.70	26.33	-41.0	-41.9	23.2	0.00e+00	0	41	0	454033408	54	6354
2026-01-20 01:10:04.14	193.84	26.48	-41.5	-42.5	23.0	0.00e+00	0	41	0	455081984	54	6798
2026-01-20 01:10:05.15	193.98	26.63	-41.8	-42.7	23.0	0.00e+00	0	41	0	457179136	54	7006
2026-01-20 01:10:06.16	194.13	26.78	-41.5	-42.4	22.9	0.00e+00	0	41	0	459276288	56	6016
2026-01-20 01:10:07.17	194.27	26.94	-41.3	-42.3	23.2	0.00e+00	0	41	0	461373440	56	5912
2026-01-20 01:10:08.18	194.42	27.09	-41.1	-42.0	23.0	0.00e+00	0	41	0	463470592	56	5759
2026-01-20 01:10:09.19	194.57	27.24	-41.3	-42.3	23.1	0.00e+00	0	41	0	464519168	56	5927
2026-01-20 01:10:10.20	194.72	27.40	-41.6	-42.5	23.2	0.00e+00	0	41	0	466616320	56	6077
2026-01-20 01:10:11.21	194.87	27.56	-41.2	-42.1	23.2	0.00e+00	0	41	0	468713472	56	5769
2026-01-20 01:10:12.22	195.02	27.71	-40.7	-41.6	23.4	0.00e+00	0	41	0	470810624	54	6124
2026-01-20 01:10:13.23	195.18	27.87	-40.9	-41.8	22.7	0.00e+00	0	41	0	472907776	54	6314
2026-01-20 01:10:14.24	195.33	28.03	-40.7	-41.7	22.8	0.00e+00	0	41	0	473956352	54	6179
2026-01-20 01:10:15.25	195.49	28.19	-40.4	-41.3	22.9	0.00e+00	0	41	0	476053504	54	5944
2026-01-20 01:10:16.26	195.65	28.35	-40.4	-41.4	22.9	0.00e+00	0	41	0	478150656	54	6000
2026-01-20 01:10:17.27	195.81	28.51	-40.5	-41.4	22.9	0.00e+00	0	41	0	480247808	54	6011
2026-01-20 01:10:18.28	195.97	28.67	-40.6	-41.5	22.6	0.00e+00	0	41	0	482344960	54	6099
2026-01-20 01:10:19.29	196.13	28.83	-41.6	-42.6	22.0	0.00e+00	0	41	0	484442112	54	6907
2026-01-20 01:10:20.30	196.30	28.99	-43.1	-44.3	21.0	0.00e+00	0	41	0	485490688	58	6648
2026-01-20 01:10:21.31	196.46	29.16	-44.1	-45.3	21.1	0.00e+00	0	41	0	487587840	60	6660
2026-01-20 01:10:22.32	196.63	29.32	-44.2	-45.5	20.7	0.00e+00	0	41	0	489684992	60	6782
2026-01-20 01:10:23.33	196.80	29.49	-44.4	-45.6	20.4	0.00e+00	0	41	0	491782144	60	6923
2026-01-20 01:10:24.34	196.97	29.65	-43.9	-45.2	20.5	0.00e+00	0	41	0	493879296	60	6549
2026-01-20 01:10:25.35	197.14	29.82	-45.1	-46.6	20.0	0.00e+00	0	41	0	494927872	60	7706
2026-01-20 01:10:26.36	197.32	29.98	-44.6	-45.9	20.4	0.00e+00	0	41	0	497025024	60	7141
2026-01-20 01:10:27.37	197.50	30.15	-45.8	-47.2	19.9	0.00e+00	0	41	0	499122176	60	8326
2026-01-20 01:10:28.38	197.67	30.32	-44.7	-46.1	20.3	0.00e+00	0	41	0	501219328	60	7261
2026-01-20 01:10:29.39	197.85	30.49	-44.0	-45.3	20.4	0.00e+00	0	41	0	503316480	60	6652
2026-01-20 01:10:30.40	198.04	30.66	-44.0	-45.3	20.2	0.00e+00	0	41	0	504365056	60	6686
2026-01-20 01:10:31.41	198.22	30.83	-43.3	-44.5	20.6	0.00e+00	0	41	0	506462208	60	6102
2026-01-20 01:10:32.42	198.41	31.00	-43.9	-45.1	20.7	0.00e+00	0	41	0	508559360	60	6533
2026-01-20 01:10:33.43	198.59	31.17	-42.9	-44.1	21.1	0.00e+00	0	41	0	510656512	60	5813
2026-01-20 01:10:34.44	198.78	31.34	-42.8	-44.0	21.2	0.00e+00	0	41	0	512753664	60	5722
2026-01-20 01:10:35.45	198.98	31.51	-42.5	-43.6	21.3	0.00e+00	0	41	0	513802240	58	6153
2026-01-20 01:10:36.45	199.17	31.69	-43.8	-45.0	21.3	0.00e+00	0	41	0	515899392	58	7185
2026-01-20 01:10:37.46	199.36	31.86	-44.3	-45.4	21.7	0.00e+00	0	41	0	517996544	60	6748
2026-01-20 01:10:38.47	199.56	32.03	-43.8	-44.9	21.6	0.00e+00	0	41	0	520093696	60	6354
2026-01-20 01:10:39.48	199.76	32.21	-43.7	-44.9	21.6	0.00e+00	0	41	0	522190848	60	6320
2026-01-20 01:10:40.49	199.96	32.39	-43.0	-44.1	21.7	0.00e+00	0	41	0	523239424	58	6480
2026-01-20 01:10:41.50	200.17	32.56	-42.9	-44.0	21.7	0.00e+00	0	41	0	525336576	58	6420
2026-01-20 01:10:42.51	200.37	32.74	-43.0	-44.0	22.0	0.00e+00	0	41	0	527433728	58	6435
2026-01-20 01:10:43.52	200.58	32.92	-43.4	-44.5	21.7	0.00e+00	0	41	0	529530880	60	6098
2026-01-20 01:10:44.53	200.79	33.10	-43.9	-45.1	21.2	0.00e+00	0	41	0	531628032	60	6539
2026-01-20 01:10:45.54	201.01	33.28	-45.0	-46.3	20.8	0.00e+00	0	41	0	532676608	60	7458
2026-01-20 01:10:46.55	201.22	33.46	-44.4	-45.6	21.2	0.00e+00	0	41	0	534773760	60	6849
2026-01-20 01:10:47.56	201.44	33.64	-43.8	-44.9	21.6	0.00e+00	0	41	0	536870912	60	6319
2026-01-20 01:10:48.57	201.66	33.82	-43.9	-44.9	21.7	0.00e+00	0	41	0	538968064	60	6348
2026-01-20 01:10:49.57	201.88	34.00	-43.2	-44.2	22.5	0.00e+00	0	41	0	541065216	58	6575
2026-01-20 01:10:50.58	202.11	34.18	-43.1	-44.0	22.8	0.00e+00	0	41	0	542113792	60	5723
2026-01-20 01:10:51.59	202.33	34.36	-43.0	-43.9	22.9	0.00e+00	0	41	0	544210944	58	6355
2026-01-20 01:10:52.60	202.56	34.55	-42.4	-43.4	22.8	0.00e+00	0	41	0	546308096	58	5965
2026-01-20 01:10:53.61	202.80	34.73	-42.7	-43.7	22.4	0.00e+00	0	41	0	548405248	58	6228
2026-01-20 01:10:54.63	203.03	34.92	-44.2	-45.3	22.4	0.00e+00	0	41	0	550502400	58	7430
2026-01-20 01:10:55.63	203.27	35.10	-44.3	-45.5	21.9	0.00e+00	0	41	0	552599552	60	6785
2026-01-20 01:10:56.65	203.51	35.29	-44.0	-45.1	21.7	0.00e+00	0	41	0	553648128	60	6524
2026-01-20 01:10:57.66	203.75	35.47	-45.1	-46.2	21.6	0.00e+00	0	41	0	555745280	60	7403
2026-01-20 01:10:58.66	204.00	35.66	-45.7	-46.9	21.2	0.00e+00	0	41	0	557842432	60	8030
2026-01-20 01:10:59.67	204.25	35.85	-44.5	-45.7	21.5	0.00e+00	0	41	0	559939584	60	6974
2026-01-20 01:11:00.68	204.50	36.04	-43.6	-44.7	22.0	0.00e+00	0	42	0	562036736	60	6230
2026-01-20 01:11:01.69	204.75	36.22	-43.3	-44.3	22.2	0.00e+00	0	41	0	563085312	60	5960
2026-01-20 01:11:02.70	205.01	36.41	-43.3	-44.3	22.1	0.00e+00	0	41	0	565182464	60	5955
2026-01-20 01:11:03.71	205.27	36.60	-43.2	-44.2	22.4	0.00e+00	0	41	0	567279616	60	5855
2026-01-20 01:11:04.72	205.53	36.79	-42.6	-43.5	22.6	0.00e+00	0	41	0	569376768	58	6061
2026-01-20 01:11:05.73	205.80	36.98	-42.2	-43.1	22.9	0.00e+00	0	41	0	571473920	58	5819
2026-01-20 01:11:06.74	206.07	37.17	-42.5	-43.5	22.9	0.00e+00	0	41	0	572522496	58	6059
2026-01-20 01:11:07.75	206.34	37.36	-42.1	-43.0	23.1	0.00e+00	0	41	0	574619648	58	5755
2026-01-20 01:11:08.76	206.62	37.55	-42.2	-43.2	22.8	0.00e+00	0	41	0	576716800	58	5844
2026-01-20 01:11:09.77	206.90	37.75	-42.3	-43.2	23.0	0.00e+00	0	41	0	578813952	58	5879
2026-01-20 01:11:10.79	207.18	37.94	-42.4	-43.3	23.6	0.00e+00	0	41	0	580911104	58	5904
2026-01-20 01:11:11.80	207.47	38.13	-41.9	-42.8	23.5	0.00e+00	0	41	0	581959680	56	6283
2026-01-20 01:11:12.80	207.75	38.32	-41.9	-42.8	23.2	0.00e+00	0	41	0	584056832	56	6287
2026-01-20 01:11:13.82	208.05	38.52	-42.6	-43.6	23.2	0.00e+00	0	41	0	586153984	56	6875
2026-01-20 01:11:14.82	208.34	38.71	-42.3	-43.2	23.3	0.00e+00	0	41	0	588251136	56	6586
2026-01-20 01:11:15.84	208.64	38.91	-41.3	-42.2	23.6	0.00e+00	0	41	0	590348288	56	5848
2026-01-20 01:11:16.84	208.94	39.10	-40.0	-40.8	24.1	0.00e+00	0	41	0	591396864	54	5597
2026-01-20 01:11:17.86	209.25	39.29	-39.7	-40.4	24.5	0.00e+00	0	41	0	593494016	52	6032
2026-01-20 01:11:18.87	209.56	39.49	-39.6	-40.4	24.6	0.00e+00	0	41	0	595591168	52	5989
2026-01-20 01:11:19.88	209.87	39.68	-39.6	-40.3	24.5	0.00e+00	0	41	0	597688320	52	5954
2026-01-20 01:11:20.89	210.19	39.88	-40.6	-41.5	23.7	0.00e+00	0	41	0	599785472	54	6048
2026-01-20 01:11:21.90	210.51	40.07	-40.5	-41.3	24.1	0.00e+00	0	41	0	600834048	54	5961
2026-01-20 01:11:22.90	210.83	40.26	-42.5	-43.4	23.0	0.00e+00	0	41	0	602931200	58	6026
2026-01-20 01:11:23.92	211.16	40.46	-41.4	-42.2	23.8	0.00e+00	0	41	0	605028352	56	5893
2026-01-20 01:11:24.93	211.49	40.66	-41.5	-42.4	23.7	0.00e+00	0	41	0	607125504	56	5983
2026-01-20 01:11:25.93	211.83	40.85	-41.6	-42.5	23.7	0.00e+00	0	41	0	609222656	56	6064
2026-01-20 01:11:26.94	212.17	41.04	-42.5	-43.4	23.6	0.00e+00	0	41	0	610271232	56	6710
2026-01-20 01:11:27.95	212.51	41.24	-42.1	-43.0	23.4	0.00e+00	0	41	0	612368384	56	6448
2026-01-20 01:11:28.96	212.86	41.43	-42.0	-42.9	23.4	0.00e+00	0	41	0	614465536	56	6322
2026-01-20 01:11:29.97	213.21	41.63	-41.7	-42.6	23.6	0.00e+00	0	41	0	616562688	56	6156
2026-01-20 01:11:30.98	213.57	41.82	-42.0	-42.9	23.4	0.00e+00	0	41	0	618659840	56	6369
2026-01-20 01:11:31.99	213.93	42.02	-40.8	-41.6	23.8	0.00e+00	0	41	0	620756992	56	5486
2026-01-20 01:11:32.99	214.29	42.21	-40.4	-41.3	23.8	0.00e+00	0	41	0	621805568	54	5932
2026-01-20 01:11:34.01	214.67	42.40	-40.3	-41.1	23.8	0.00e+00	0	41	0	623902720	54	5820
2026-01-20 01:11:35.01	215.04	42.59	-40.9	-41.8	23.4	0.00e+00	0	41	0	625999872	54	6261
2026-01-20 01:11:36.02	215.41	42.79	-41.9	-42.8	23.0	0.00e+00	0	41	0	628097024	56	6287
2026-01-20 01:11:37.03	215.80	42.98	-42.0	-43.0	22.7	0.00e+00	0	41	0	630194176	56	6408
2026-01-20 01:11:38.04	216.18	43.17	-42.1	-43.1	22.3	0.00e+00	0	41	0	631242752	56	6515
2026-01-20 01:11:39.05	216.58	43.36	-42.0	-43.1	22.2	0.00e+00	0	41	0	633339904	56	6471
2026-01-20 01:11:40.06	216.97	43.56	-42.7	-43.7	22.7	0.00e+00	0	41	0	635437056	58	6229
2026-01-20 01:11:41.07	217.37	43.75	-41.7	-42.6	23.3	0.00e+00	0	41	0	637534208	56	6133
2026-01-20 01:11:42.08	217.78	43.94	-40.5	-41.3	23.7	0.00e+00	0	41	0	639631360	54	5955
2026-01-20 01:11:43.09	218.19	44.12	-40.3	-41.2	23.6	0.00e+00	0	41	0	640679936	54	5855
2026-01-20 01:11:44.10	218.61	44.31	-41.0	-41.9	23.4	0.00e+00	0	41	0	642777088	54	6333
2026-01-20 01:11:45.11	219.03	44.50	-42.4	-43.3	23.1	0.00e+00	0	41	0	644874240	56	6680
2026-01-20 01:11:46.12	219.45	44.69	-42.7	-43.7	22.4	0.00e+00	0	41	0	646971392	58	6218
2026-01-20 01:11:47.13	219.88	44.87	-42.8	-43.9	21.7	0.00e+00	0	41	0	649068544	58	6357
2026-01-20 01:11:48.14	220.32	45.06	-42.0	-43.1	22.2	0.00e+00	0	41	0	650117120	58	5804
2026-01-20 01:11:49.15	220.76	45.24	-41.3	-42.4	22.4	0.00e+00	0	41	0	652214272	56	5968
2026-01-20 01:11:50.16	221.21	45.43	-41.0	-42.0	22.4	0.00e+00	0	41	0	654311424	56	5731
2026-01-20 01:11:51.17	221.66	45.61	-40.7	-41.7	22.6	0.00e+00	0	41	0	656408576	54	6237
2026-01-20 01:11:52.17	222.11	45.79	-40.9	-42.0	22.5	0.00e+00	0	41	0	658505728	54	6395
2026-01-20 01:11:53.19	222.57	45.97	-41.7	-42.8	21.8	0.00e+00	0	41	0	659554304	54	7026
2026-01-20 01:11:54.19	223.04	46.15	-43.4	-44.5	21.6	0.00e+00	0	41	0	661651456	58	6799
2026-01-20 01:11:55.21	223.51	46.33	-43.3	-44.4	21.8	0.00e+00	0	41	0	663748608	58	6693
2026-01-20 01:11:56.22	223.99	46.50	-42.9	-44.0	22.1	0.00e+00	0	41	0	665845760	58	6422
2026-01-20 01:11:57.22	224.47	46.68	-42.8	-43.8	22.4	0.00e+00	0	41	0	667942912	58	6292
2026-01-20 01:11:58.23	224.95	46.85	-42.9	-43.9	22.2	0.00e+00	0	41	0	668991488	58	6382
2026-01-20 01:11:59.24	225.45	47.02	-43.6	-44.7	22.0	0.00e+00	0	41	0	671088640	60	6218
2026-01-20 01:12:00.25	225.94	47.19	-42.9	-43.9	22.3	0.00e+00	0	41	0	673185792	60	5686
2026-01-20 01:12:01.26	226.45	47.36	-42.7	-43.7	22.4	0.00e+00	0	41	0	675282944	58	6226
2026-01-20 01:12:02.27	226.96	47.53	-42.8	-43.8	22.4	0.00e+00	0	41	0	677380096	58	6273
2026-01-20 01:12:03.28	227.47	47.69	-42.7	-43.6	22.7	0.00e+00	0	41	0	678428672	58	6132
2026-01-20 01:12:04.29	227.99	47.85	-41.6	-42.4	23.8	0.00e+00	0	41	0	680525824	58	5374
2026-01-20 01:12:05.30	228.51	48.02	-41.3	-42.2	23.6	0.00e+00	0	41	0	682622976	56	5831
2026-01-20 01:12:06.31	229.04	48.18	-42.7	-43.7	22.6	0.00e+00	0	41	0	684720128	56	6978
2026-01-20 01:12:07.32	229.58	48.33	-42.9	-43.9	22.6	0.00e+00	0	41	0	686817280	58	6328
2026-01-20 01:12:08.33	230.12	48.49	-42.1	-43.1	23.0	0.00e+00	0	41	0	688914432	58	5786
2026-01-20 01:12:09.34	230.67	48.64	-41.2	-42.2	23.1	0.00e+00	0	41	0	689963008	56	5838
2026-01-20 01:12:10.34	231.21	48.79	-41.4	-42.4	23.2	0.00e+00	0	41	0	692060160	56	5967
2026-01-20 01:12:11.35	231.77	48.94	-42.4	-43.4	22.1	0.00e+00	0	41	0	694157312	56	6702
2026-01-20 01:12:12.36	232.33	49.08	-43.1	-44.1	22.9	0.00e+00	0	41	0	696254464	58	6516
2026-01-20 01:12:13.38	232.91	49.23	-42.4	-43.4	23.0	0.00e+00	0	42	0	698351616	58	6004
2026-01-20 01:12:14.38	233.47	49.37	-42.1	-43.0	23.1	0.00e+00	0	41	0	699400192	58	5758
2026-01-20 01:12:15.39	234.05	49.51	-42.0	-42.9	23.0	0.00e+00	0	41	0	701497344	58	5667
2026-01-20 01:12:16.40	234.64	49.64	-43.1	-44.1	22.7	0.00e+00	0	41	0	703594496	58	6532
2026-01-20 01:12:17.41	235.22	49.78	-42.7	-43.7	22.8	0.00e+00	0	41	0	705691648	58	6220
2026-01-20 01:12:18.42	235.82	49.91	-42.7	-43.6	23.0	0.00e+00	0	41	0	706740224	58	6170
2026-01-20 01:12:19.43	236.42	50.03	-42.6	-43.5	23.0	0.00e+00	0	42	0	708837376	58	6096
2026-01-20 01:12:20.44	237.02	50.16	-43.5	-44.5	22.2	0.00e+00	0	42	0	710934528	58	6842
2026-01-20 01:12:21.45	237.63	50.28	-43.5	-44.5	22.3	0.00e+00	0	41	0	713031680	60	6098
2026-01-20 01:12:22.46	238.24	50.40	-43.6	-44.7	22.1	0.00e+00	0	41	0	715128832	60	6214
2026-01-20 01:12:23.47	238.86	50.51	-43.1	-44.1	22.0	0.00e+00	0	41	0	717225984	60	5822
2026-01-20 01:12:24.48	239.48	50.63	-42.2	-43.2	22.1	0.00e+00	0	41	0	718274560	58	5870
2026-01-20 01:12:25.49	240.11	50.73	-42.9	-43.9	22.5	0.00e+00	0	41	0	720371712	58	6352
2026-01-20 01:12:26.49	240.73	50.84	-42.8	-43.8	22.4	0.00e+00	0	42	0	722468864	58	6283
2026-01-20 01:12:27.51	241.37	50.94	-43.4	-44.5	21.9	0.00e+00	0	41	0	724566016	58	6809
2026-01-20 01:12:28.52	242.01	51.04	-45.3	-46.6	21.0	0.00e+00	0	42	0	726663168	60	7705
2026-01-20 01:12:29.53	242.66	51.14	-44.6	-45.9	21.1	0.00e+00	0	41	0	727711744	60	7134
2026-01-20 01:12:30.53	243.30	51.23	-43.4	-44.5	21.7	0.00e+00	0	41	0	729808896	60	6077
2026-01-20 01:12:31.54	243.95	51.31	-42.4	-43.5	22.2	0.00e+00	0	41	0	731906048	58	6066
2026-01-20 01:12:32.55	244.61	51.40	-42.7	-43.9	22.1	0.00e+00	0	41	0	734003200	58	6326
2026-01-20 01:12:33.56	245.26	51.48	-41.9	-42.9	23.0	0.00e+00	0	41	0	736100352	58	5645
2026-01-20 01:12:34.57	245.93	51.56	-42.3	-43.2	22.9	0.00e+00	0	42	0	737148928	58	5878
2026-01-20 01:12:35.58	246.59	51.63	-42.2	-43.2	23.1	0.00e+00	0	41	0	739246080	56	6563
2026-01-20 01:12:36.59	247.26	51.70	-41.4	-42.3	23.7	0.00e+00	0	41	0	741343232	56	5925
2026-01-20 01:12:37.60	247.93	51.76	-40.4	-41.2	23.9	0.00e+00	0	41	0	743440384	54	5862
2026-01-20 01:12:38.61	248.61	51.82	-40.4	-41.2	24.2	0.00e+00	0	41	0	745537536	54	5866
2026-01-20 01:12:39.62	249.29	51.88	-41.4	-42.2	23.9	0.00e+00	0	41	0	746586112	54	6596
2026-01-20 01:12:40.63	249.97	51.94	-41.9	-42.8	23.3	0.00e+00	0	42	0	748683264	56	6250
2026-01-20 01:12:41.64	250.65	51.98	-42.5	-43.4	23.1	0.00e+00	0	41	0	750780416	58	6024
2026-01-20 01:12:42.65	251.33	52.03	-42.6	-43.6	23.0	0.00e+00	0	41	0	752877568	58	6152
2026-01-20 01:12:43.66	252.02	52.07	-42.1	-43.0	23.0	0.00e+00	0	41	0	754974720	56	6458
2026-01-20 01:12:44.67	252.71	52.11	-41.4	-42.3	23.5	0.00e+00	0	41	0	756023296	56	5963
2026-01-20 01:12:45.68	253.40	52.14	-40.7	-41.5	24.3	0.00e+00	0	41	0	758120448	54	6060
2026-01-20 01:12:46.69	254.09	52.17	-40.8	-41.6	24.0	0.00e+00	0	41	0	760217600	54	6149
2026-01-20 01:12:47.70	254.78	52.19	-41.3	-42.2	23.4	0.00e+00	0	41	0	762314752	54	6588
2026-01-20 01:12:48.71	255.47	52.21	-42.1	-43.0	23.1	0.00e+00	0	41	0	764411904	58	5755
2026-01-20 01:12:49.72	256.17	52.23	-43.1	-44.0	23.1	0.00e+00	0	41	0	765460480	58	6440
2026-01-20 01:12:50.73	256.86	52.24	-42.4	-43.3	23.2	0.00e+00	0	41	0	767557632	58	5963
2026-01-20 01:12:51.74	257.55	52.25	-43.5	-44.5	22.7	0.00e+00	0	41	0	769654784	58	6794
2026-01-20 01:12:52.75	258.25	52.25	-43.3	-44.3	22.6	0.00e+00	0	41	0	771751936	58	6635
2026-01-20 01:12:53.76	258.95	52.25	-41.5	-42.4	23.6	0.00e+00	0	41	0	773849088	58	5344
2026-01-20 01:12:54.77	259.64	52.24	-41.3	-42.1	23.9	0.00e+00	0	41	0	774897664	56	5782
2026-01-20 01:12:55.78	260.33	52.23	-42.5	-43.5	22.8	0.00e+00	0	41	0	776994816	56	6781
2026-01-20 01:12:56.79	261.03	52.22	-43.5	-44.6	22.0	0.00e+00	0	41	0	779091968	58	6907
2026-01-20 01:12:57.80	261.72	52.20	-41.7	-42.6	23.7	0.00e+00	0	42	0	781189120	56	6116
2026-01-20 01:12:58.80	262.41	52.18	-40.7	-41.6	24.1	0.00e+00	0	41	0	783286272	54	6126
2026-01-20 01:12:59.81	263.10	52.15	-41.0	-41.9	22.9	0.00e+00	0	41	0	785383424	54	6368
2026-01-20 01:13:00.82	263.79	52.12	-42.5	-43.4	23.2	0.00e+00	0	41	0	786432000	56	6750
2026-01-20 01:13:01.83	264.48	52.08	-43.0	-44.0	22.9	0.00e+00	0	41	0	788529152	58	6426
2026-01-20 01:13:02.84	265.16	52.05	-44.0	-45.0	22.7	0.00e+00	0	41	0	790626304	60	6423
2026-01-20 01:13:03.85	265.85	52.00	-43.4	-44.4	23.1	0.00e+00	0	41	0	792723456	60	5977
2026-01-20 01:13:04.86	266.53	51.95	-42.0	-42.8	22.8	0.00e+00	0	41	0	794820608	58	5621
2026-01-20 01:13:05.87	267.21	51.90	-40.9	-41.7	24.3	0.00e+00	0	41	0	795869184	56	5532
2026-01-20 01:13:06.88	267.89	51.85	-41.7	-42.6	23.8	0.00e+00	0	41	0	797966336	54	6866
2026-01-20 01:13:07.89	268.56	51.79	-42.1	-43.0	23.5	0.00e+00	0	41	0	800063488	56	6445
2026-01-20 01:13:08.90	269.24	51.72	-40.6	-41.5	24.0	0.00e+00	0	41	0	802160640	56	5399
2026-01-20 01:13:09.91	269.90	51.66	-40.1	-40.9	24.4	0.00e+00	0	41	0	804257792	54	5642
2026-01-20 01:13:10.92	270.57	51.58	-40.8	-41.7	23.8	0.00e+00	0	41	0	805306368	54	6221
2026-01-20 01:13:11.93	271.23	51.51	-41.0	-41.9	23.3	0.00e+00	0	41	0	807403520	54	6370
2026-01-20 01:13:12.94	271.89	51.43	-40.9	-41.8	23.5	0.00e+00	0	41	0	809500672	54	6276
2026-01-20 01:13:13.95	272.55	51.35	-40.5	-41.3	24.3	0.00e+00	0	41	0	811597824	54	5940
2026-01-20 01:13:14.95	273.20	51.26	-40.0	-40.9	24.6	0.00e+00	0	41	0	813694976	54	5633
2026-01-20 01:13:15.97	273.85	51.17	-40.0	-40.8	24.6	0.00e+00	0	41	0	814743552	52	6252
2026-01-20 01:13:16.97	274.49	51.08	-40.6	-41.4	23.7	0.00e+00	0	41	0	816840704	52	6757
2026-01-20 01:13:17.99	275.14	50.98	-40.8	-41.7	23.9	0.00e+00	0	41	0	818937856	54	6176
2026-01-20 01:13:19.00	275.77	50.88	-40.6	-41.4	23.8	0.00e+00	0	41	0	821035008	54	6009
2026-01-20 01:13:20.01	276.40	50.77	-41.5	-42.4	23.4	0.00e+00	0	41	0	823132160	54	6693
2026-01-20 01:13:21.01	277.02	50.67	-42.1	-43.0	23.6	0.00e+00	0	42	0	824180736	56	6428
2026-01-20 01:13:22.02	277.65	50.56	-41.1	-42.0	23.7	0.00e+00	0	41	0	826277888	56	5727
2026-01-20 01:13:23.03	278.27	50.44	-42.3	-43.2	23.4	0.00e+00	0	41	0	828375040	56	6601
2026-01-20 01:13:24.04	278.88	50.33	-42.4	-43.4	22.8	0.00e+00	0	41	0	830472192	56	6750
2026-01-20 01:13:25.05	279.49	50.21	-42.9	-44.0	22.0	0.00e+00	0	41	0	832569344	58	6419
2026-01-20 01:13:26.06	280.09	50.08	-43.7	-44.8	21.4	0.00e+00	0	42	0	833617920	58	7038
2026-01-20 01:13:27.07	280.69	49.96	-43.8	-45.0	21.1	0.00e+00	0	42	0	835715072	60	6406
2026-01-20 01:13:28.08	281.29	49.83	-44.5	-45.8	20.4	0.00e+00	0	42	0	837812224	60	7075
2026-01-20 01:13:29.09	281.88	49.70	-44.4	-45.8	20.4	0.00e+00	0	42	0	839909376	60	7040
2026-01-20 01:13:30.10	282.46	49.56	-43.1	-44.3	21.3	0.00e+00	0	41	0	842006528	60	5916
2026-01-20 01:13:31.11	283.04	49.42	-42.7	-43.7	21.9	0.00e+00	0	42	0	843055104	58	6232
2026-01-20 01:13:32.12	283.61	49.29	-41.5	-42.5	22.8	0.00e+00	0	42	0	845152256	56	6052
2026-01-20 01:13:33.13	284.18	49.14	-41.8	-42.8	22.7	0.00e+00	0	42	0	847249408	56	6250
2026-01-20 01:13:34.14	284.74	49.00	-41.8	-42.8	22.4	0.00e+00	0	42	0	849346560	56	6258
2026-01-20 01:13:35.15	285.30	48.85	-41.6	-42.5	23.1	0.00e+00	0	42	0	851443712	56	6067
2026-01-20 01:13:36.16	285.86	48.70	-41.4	-42.3	23.2	0.00e+00	0	41	0	853540864	56	5919
2026-01-20 01:13:37.17	286.40	48.55	-41.8	-42.8	22.3	0.00e+00	0	42	0	854589440	54	7053
2026-01-20 01:13:38.17	286.94	48.40	-42.6	-43.7	21.2	0.00e+00	0	41	0	856686592	56	6978
2026-01-20 01:13:39.19	287.48	48.24	-43.3	-44.5	21.0	0.00e+00	0	41	0	858783744	58	6785
2026-01-20 01:13:40.20	288.01	48.08	-44.2	-45.4	20.6	0.00e+00	0	41	0	860880896	60	6754
2026-01-20 01:13:41.21	288.54	47.92	-44.8	-46.2	20.2	0.00e+00	0	41	0	862978048	60	7361
2026-01-20 01:13:42.21	289.05	47.76	-44.6	-46.0	19.9	0.00e+00	0	42	0	864026624	60	7187
2026-01-20 01:13:43.22	289.57	47.60	-45.9	-47.5	18.8	0.00e+00	0	41	0	866123776	60	8571
2026-01-20 01:13:44.23	290.08	47.43	-46.9	-48.8	17.6	0.00e+00	0	42	0	868220928	60	9956
2026-01-20 01:13:45.24	290.58	47.27	-47.3	-49.2	17.6	0.00e+00	0	41	0	870318080	60	10432
2026-01-20 01:13:46.25	291.08	47.10	-46.5	-48.1	18.5	0.00e+00	0	42	0	872415232	60	9201
2026-01-20 01:13:47.26	291.58	46.93	-45.8	-47.3	19.3	0.00e+00	0	42	0	873463808	60	8334
2026-01-20 01:13:48.27	292.06	46.75	-46.5	-48.3	18.1	0.00e+00	0	41	0	875560960	60	9352
2026-01-20 01:13:49.28	292.55	46.58	-46.8	-48.8	17.5	0.00e+00	0	41	0	877658112	60	9988
2026-01-20 01:13:50.29	293.02	46.41	-45.5	-47.1	18.7	0.00e+00	0	41	0	879755264	60	8223
2026-01-20 01:13:51.30	293.50	46.23	-45.8	-47.6	18.1	0.00e+00	0	42	0	881852416	60	8625
2026-01-20 01:13:52.31	293.96	46.05	-47.2	-49.5	16.5	0.00e+00	0	42	0	882900992	60	10824
2026-01-20 01:13:53.32	294.43	45.87	-48.9	-52.6	12.8	5.30e-06	0	42	0	884998144	60	15446
2026-01-20 01:13:54.33	294.88	45.69	-48.4	-51.7	13.9	5.77e-04	0	42	0	887095296	60	13847
2026-01-20 01:13:55.34	295.33	45.51	-47.1	-49.5	16.4	0.00e+00	0	42	0	889192448	60	10738
2026-01-20 01:13:56.35	295.78	45.33	-45.3	-46.9	18.5	0.00e+00	0	42	0	891289600	60	8043
2026-01-20 01:13:57.36	296.22	45.15	-45.3	-46.9	18.8	0.00e+00	0	42	0	892338176	60	8029
2026-01-20 01:13:58.37	296.66	44.96	-45.7	-47.5	18.2	0.00e+00	0	42	0	894435328	60	8529
2026-01-20 01:13:59.38	297.09	44.78	-44.9	-46.4	19.2	0.00e+00	0	42	0	896532480	60	7592
2026-01-20 01:14:00.40	297.52	44.59	-44.9	-46.3	19.9	0.00e+00	0	42	0	898629632	60	7466
2026-01-20 01:14:01.41	297.94	44.40	-43.9	-45.2	20.6	0.00e+00	0	42	0	900726784	60	6548
2026-01-20 01:14:02.42	298.36	44.21	-43.0	-44.1	21.3	0.00e+00	0	42	0	901775360	60	5796
2026-01-20 01:14:03.43	298.77	44.03	-41.6	-42.6	22.5	0.00e+00	0	42	0	903872512	56	6108
2026-01-20 01:14:04.44	299.18	43.84	-41.1	-42.0	23.2	0.00e+00	0	41	0	905969664	56	5701
2026-01-20 01:14:05.44	299.58	43.65	-41.2	-42.1	23.3	0.00e+00	0	41	0	908066816	56	5809
2026-01-20 01:14:06.45	299.97	43.46	-40.8	-41.7	23.4	0.00e+00	0	42	0	910163968	56	5541
2026-01-20 01:14:07.46	300.37	43.27	-41.2	-42.1	23.2	0.00e+00	0	42	0	911212544	56	5764
2026-01-20 01:14:08.47	300.76	43.08	-41.5	-42.4	23.1	0.00e+00	0	42	0	913309696	56	5988
2026-01-20 01:14:09.48	301.14	42.89	-40.5	-41.4	23.6	0.00e+00	0	41	0	915406848	54	5985
2026-01-20 01:14:10.49	301.52	42.69	-40.0	-40.8	23.9	0.00e+00	0	41	0	917504000	54	5609
2026-01-20 01:14:11.50	301.89	42.50	-40.2	-41.0	24.2	0.00e+00	0	42	0	919601152	54	5719
2026-01-20 01:14:12.51	302.26	42.31	-40.0	-40.8	24.1	0.00e+00	0	42	0	921698304	54	5628
2026-01-20 01:14:13.52	302.63	42.12	-40.3	-41.2	23.4	0.00e+00	0	42	0	922746880	54	5874
2026-01-20 01:14:14.54	303.00	41.92	-41.1	-42.0	23.0	0.00e+00	0	42	0	924844032	54	6440
2026-01-20 01:14:15.55	303.35	41.73	-40.7	-41.7	23.1	0.00e+00	0	42	0	926941184	54	6184
2026-01-20 01:14:16.56	303.71	41.54	-39.9	-40.7	24.0	0.00e+00	0	42	0	929038336	54	5558
2026-01-20 01:14:17.57	304.06	41.34	-40.1	-41.0	24.1	0.00e+00	0	41	0	931135488	52	6394
2026-01-20 01:14:18.58	304.40	41.15	-40.2	-41.0	23.8	0.00e+00	0	42	0	932184064	52	6456
2026-01-20 01:14:19.58	304.74	40.96	-41.0	-42.0	22.9	0.00e+00	0	42	0	934281216	54	6416
2026-01-20 01:14:20.60	305.08	40.76	-42.2	-43.3	22.1	0.00e+00	0	42	0	936378368	56	6631
2026-01-20 01:14:21.60	305.41	40.57	-42.9	-44.1	21.2	0.00e+00	0	42	0	938475520	58	6488
2026-01-20 01:14:22.62	305.74	40.37	-42.1	-43.2	21.8	0.00e+00	0	42	0	940572672	58	5859
2026-01-20 01:14:23.62	306.06	40.18	-41.5	-42.5	22.5	0.00e+00	0	42	0	941621248	56	6039
2026-01-20 01:14:24.64	306.39	39.98	-41.1	-42.1	22.8	0.00e+00	0	42	0	943718400	56	5772
2026-01-20 01:14:25.65	306.70	39.79	-40.9	-41.9	22.7	0.00e+00	0	42	0	945815552	56	5663
2026-01-20 01:14:26.65	307.02	39.60	-42.2	-43.3	21.5	0.00e+00	0	41	0	947912704	56	6658
2026-01-20 01:14:27.66	307.33	39.41	-43.4	-44.8	20.5	0.00e+00	0	42	0	950009856	58	7013
2026-01-20 01:14:28.67	307.63	39.21	-44.2	-45.6	20.2	0.00e+00	0	42	0	951058432	60	6922
2026-01-20 01:14:29.68	307.94	39.02	-43.7	-44.9	21.2	0.00e+00	0	42	0	953155584	60	6359
2026-01-20 01:14:30.69	308.23	38.83	-42.5	-43.6	22.2	0.00e+00	0	42	0	955252736	58	6120
2026-01-20 01:14:31.70	308.53	38.63	-42.5	-43.6	21.8	0.00e+00	0	42	0	957349888	58	6130
2026-01-20 01:14:32.71	308.82	38.44	-42.8	-44.0	21.4	0.00e+00	0	42	0	959447040	58	6420
2026-01-20 01:14:33.72	309.11	38.25	-44.5	-46.0	19.3	0.00e+00	0	42	0	960495616	60	7213
2026-01-20 01:14:34.73	309.40	38.06	-44.7	-46.3	19.4	0.00e+00	0	42	0	962592768	60	7488
2026-01-20 01:14:35.74	309.68	37.87	-43.4	-44.6	21.0	0.00e+00	0	42	0	964689920	60	6164
2026-01-20 01:14:36.75	309.96	37.68	-42.6	-43.7	21.7	0.00e+00	0	42	0	966787072	58	6216
2026-01-20 01:14:37.76	310.24	37.49	-41.7	-42.7	22.2	0.00e+00	0	42	0	968884224	56	6209
2026-01-20 01:14:38.77	310.51	37.30	-41.5	-42.5	22.2	0.00e+00	0	42	0	970981376	56	6049
2026-01-20 01:14:39.78	310.78	37.11	-41.7	-42.8	21.8	0.00e+00	0	42	0	972029952	56	6286
2026-01-20 01:14:40.79	311.05	36.92	-43.9	-45.3	19.9	0.00e+00	0	42	0	974127104	58	7427
2026-01-20 01:14:41.80	311.31	36.73	-45.1	-46.9	18.2	0.00e+00	0	42	0	976224256	60	7998
2026-01-20 01:14:42.81	311.57	36.54	-45.9	-47.9	17.9	0.00e+00	0	42	0	978321408	60	8988
2026-01-20 01:14:43.82	311.83	36.35	-44.4	-45.9	19.7	0.00e+00	0	42	0	980418560	60	7137
2026-01-20 01:14:44.83	312.08	36.16	-42.6	-43.8	21.3	0.00e+00	0	42	0	981467136	60	5600
2026-01-20 01:14:45.85	312.34	35.97	-41.2	-42.2	22.3	0.00e+00	0	42	0	983564288	56	5879
2026-01-20 01:14:46.85	312.59	35.79	-40.8	-41.7	22.9	0.00e+00	0	42	0	985661440	56	5512
2026-01-20 01:14:47.86	312.83	35.60	-41.1	-42.0	22.4	0.00e+00	0	42	0	987758592	54	6439
2026-01-20 01:14:48.87	313.08	35.42	-42.2	-43.2	21.8	0.00e+00	0	42	0	989855744	56	6589
2026-01-20 01:14:49.88	313.32	35.23	-44.6	-46.1	19.6	0.00e+00	0	42	0	990904320	60	7254
2026-01-20 01:14:50.89	313.56	35.05	-45.4	-47.1	18.9	0.00e+00	0	42	0	993001472	60	8187
2026-01-20 01:14:51.90	313.79	34.86	-43.9	-45.2	20.7	0.00e+00	0	42	0	995098624	60	6558
2026-01-20 01:14:52.91	314.02	34.68	-42.4	-43.4	22.2	0.00e+00	0	42	0	997195776	58	6001
2026-01-20 01:14:53.92	314.26	34.50	-40.8	-41.6	23.3	0.00e+00	0	42	0	999292928	56	5492
2026-01-20 01:14:54.93	314.48	34.32	-40.5	-41.3	23.8	0.00e+00	0	42	0	1000341504	54	5922
2026-01-20 01:14:55.93	314.71	34.14	-41.0	-41.8	23.0	0.00e+00	0	42	0	1002438656	54	6305
2026-01-20 01:14:56.95	314.93	33.95	-42.3	-43.3	21.8	0.00e+00	0	42	0	1004535808	56	6657
2026-01-20 01:14:57.96	315.15	33.77	-44.1	-45.4	20.1	0.00e+00	0	42	0	1006632960	60	6731
2026-01-20 01:14:58.97	315.37	33.59	-46.2	-48.1	18.2	0.00e+00	0	42	0	1008730112	60	9178
2026-01-20 01:14:59.98	315.59	33.41	-46.1	-48.1	17.6	0.00e+00	0	42	0	1009778688	60	9170
2026-01-20 01:15:00.98	315.80	33.24	-45.6	-47.4	18.3	0.00e+00	0	42	0	1011875840	60	8456
2026-01-20 01:15:01.99	316.01	33.06	-44.8	-46.3	19.5	0.00e+00	0	42	0	1013972992	60	7428
2026-01-20 01:15:03.00	316.22	32.88	-44.2	-45.4	21.1	0.00e+00	0	42	0	1016070144	60	6712
2026-01-20 01:15:04.01	316.43	32.70	-43.3	-44.4	21.5	0.00e+00	0	42	0	1018167296	60	5972
2026-01-20 01:15:05.02	316.63	32.53	-43.5	-44.5	21.5	0.00e+00	0	42	0	1019215872	60	6100
2026-01-20 01:15:06.03	316.83	32.35	-43.9	-45.1	21.4	0.00e+00	0	42	0	1021313024	60	6478
2026-01-20 01:15:07.04	317.04	32.18	-44.5	-45.8	20.2	0.00e+00	0	42	0	1023410176	60	7064
2026-01-20 01:15:08.05	317.23	32.00	-45.1	-46.7	18.8	0.00e+00	0	42	0	1025507328	60	7793
2026-01-20 01:15:09.05	317.43	31.83	-46.8	-48.9	17.2	0.00e+00	0	42	0	1027604480	60	10086
2026-01-20 01:15:10.06	317.62	31.66	-47.4	-50.0	15.7	0.00e+00	0	42	0	1028653056	60	11458
2026-01-20 01:15:11.07	317.81	31.49	-48.2	-51.0	15.7	0.00e+00	0	42	0	1030750208	60	12882
2026-01-20 01:15:12.08	318.00	31.32	-46.4	-48.5	17.2	0.00e+00	0	42	0	1032847360	60	9587
2026-01-20 01:15:13.09	318.19	31.14	-45.3	-47.1	18.4	0.00e+00	0	42	0	1034944512	60	8175
2026-01-20 01:15:14.10	318.38	30.97	-43.8	-45.2	20.5	0.00e+00	0	42	0	1037041664	60	6547
2026-01-20 01:15:15.11	318.56	30.81	-43.0	-44.1	22.1	0.00e+00	0	42	0	1038090240	58	6468
2026-01-20 01:15:16.12	318.75	30.64	-42.6	-43.5	22.4	0.00e+00	0	42	0	1040187392	58	6097
2026-01-20 01:15:17.13	318.93	30.47	-42.4	-43.4	22.5	0.00e+00	0	42	0	1042284544	58	5987
2026-01-20 01:15:18.14	319.11	30.30	-42.2	-43.2	22.4	0.00e+00	0	42	0	1044381696	58	5832
2026-01-20 01:15:19.15	319.28	30.13	-42.5	-43.6	21.8	0.00e+00	0	42	0	1046478848	58	6152
2026-01-20 01:15:20.16	319.46	29.97	-43.0	-44.2	20.9	0.00e+00	0	42	0	1047527424	58	6571
2026-01-20 01:15:21.17	319.63	29.80	-43.6	-44.9	20.5	0.00e+00	0	42	0	1049624576	58	7111
2026-01-20 01:15:22.18	319.81	29.64	-44.0	-45.3	20.3	0.00e+00	0	42	0	1051721728	60	6638
2026-01-20 01:15:23.19	319.98	29.47	-43.4	-44.6	21.1	0.00e+00	0	42	0	1053818880	60	6147
2026-01-20 01:15:24.19	320.14	29.31	-43.1	-44.2	21.3	0.00e+00	0	42	0	1055916032	60	5879
2026-01-20 01:15:25.21	320.31	29.15	-42.2	-43.3	21.8	0.00e+00	0	42	0	1058013184	58	5949
2026-01-20 01:15:26.22	320.48	28.99	-41.8	-42.8	22.0	0.00e+00	0	42	0	1059061760	56	6282
2026-01-20 01:15:27.23	320.64	28.83	-41.8	-42.8	21.8	0.00e+00	0	42	0	1061158912	56	6307
2026-01-20 01:15:28.24	320.80	28.66	-41.3	-42.2	22.3	0.00e+00	0	42	0	1063256064	56	5885
2026-01-20 01:15:29.25	320.96	28.50	-41.5	-42.5	22.1	0.00e+00	0	42	0	1065353216	56	6061
2026-01-20 01:15:30.25	321.12	28.35	-41.7	-42.8	22.0	0.00e+00	0	42	0	1067450368	56	6249
2026-01-20 01:15:31.26	321.28	28.19	-41.6	-42.7	21.9	0.00e+00	0	42	0	1068498944	56	6177
2026-01-20 01:15:32.27	321.43	28.03	-41.8	-42.9	21.9	0.00e+00	0	42	0	1070596096	56	6318
2026-01-20 01:15:33.28	321.59	27.87	-42.1	-43.2	22.0	0.00e+00	0	42	0	1072693248	56	6583
2026-01-20 01:15:34.29	321.74	27.72	-42.2	-43.3	22.1	0.00e+00	0	42	0	1074790400	56	6644
2026-01-20 01:15:35.30	321.89	27.56	-42.3	-43.4	22.0	0.00e+00	0	42	0	1076887552	56	6751
2026-01-20 01:15:36.31	322.04	27.41	-42.8	-43.9	22.1	0.00e+00	0	42	0	1077936128	56	7092
2026-01-20 01:15:37.32	322.19	27.25	-42.6	-43.6	22.1	0.00e+00	0	42	0	1080033280	58	6144
2026-01-20 01:15:38.33	322.34	27.10	-42.0	-43.0	22.5	0.00e+00	0	42	0	1082130432	58	5731
2026-01-20 01:15:39.34	322.49	26.95	-42.1	-43.0	22.7	0.00e+00	0	42	0	1084227584	58	5759
2026-01-20 01:15:40.35	322.63	26.79	-42.2	-43.2	22.8	0.00e+00	0	42	0	1086324736	58	5871
2026-01-20 01:15:41.36	322.77	26.64	-42.3	-43.4	22.5	0.00e+00	0	42	0	1087373312	58	5980
2026-01-20 01:15:42.37	322.92	26.49	-41.7	-42.7	22.8	0.00e+00	0	42	0	1089470464	58	5507
2026-01-20 01:15:43.38	323.06	26.34	-41.6	-42.6	22.8	0.00e+00	0	42	0	1091567616	56	6130
2026-01-20 01:15:44.39	323.20	26.19	-41.2	-42.2	22.9	0.00e+00	0	42	0	1093664768	56	5862
2026-01-20 01:15:45.40	323.33	26.04	-41.4	-42.3	23.1	0.00e+00	0	42	0	1095761920	56	5943
2026-01-20 01:15:46.41	323.47	25.89	-41.3	-42.3	23.3	0.00e+00	0	42	0	1096810496	54	6616
2026-01-20 01:15:47.42	323.61	25.75	-41.2	-42.1	23.1	0.00e+00	0	42	0	1098907648	54	6512
2026-01-20 01:15:48.43	323.74	25.60	-40.5	-41.4	23.2	0.00e+00	0	42	0	1101004800	54	5996
2026-01-20 01:15:49.44	323.88	25.45	-40.9	-41.8	23.2	0.00e+00	0	42	0	1103101952	54	6267
2026-01-20 01:15:50.45	324.01	25.31	-41.0	-41.9	23.4	0.00e+00	0	42	0	1105199104	54	6376
2026-01-20 01:15:51.45	324.14	25.16	-41.1	-42.1	23.1	0.00e+00	0	42	0	1106247680	54	6472
2026-01-20 01:15:52.46	324.27	25.02	-41.4	-42.4	22.6	0.00e+00	0	42	0	1108344832	54	6752
2026-01-20 01:15:53.47	324.40	24.87	-41.3	-42.3	22.6	0.00e+00	0	42	0	1110441984	54	6620
2026-01-20 01:15:54.48	324.52	24.73	-42.1	-43.1	22.5	0.00e+00	0	42	0	1112539136	56	6531
2026-01-20 01:15:55.49	324.65	24.59	-42.4	-43.4	22.1	0.00e+00	0	42	0	1114636288	56	6733
2026-01-20 01:15:56.50	324.78	24.45	-41.8	-42.9	22.6	0.00e+00	0	42	0	1115684864	56	6323
2026-01-20 01:15:57.51	324.90	24.31	-41.8	-42.8	22.5	0.00e+00	0	42	0	1117782016	56	6312
2026-01-20 01:15:58.52	325.02	24.16	-41.5	-42.5	22.8	0.00e+00	0	42	0	1119879168	56	6043
2026-01-20 01:15:59.53	325.15	24.02	-41.5	-42.4	22.6	0.00e+00	0	42	0	1121976320	56	6020
2026-01-20 01:16:00.54	325.27	23.89	-40.8	-41.7	23.1	0.00e+00	0	42	0	1124073472	54	6239
2026-01-20 01:16:01.55	325.39	23.75	-40.9	-41.9	22.8	0.00e+00	0	42	0	1126170624	54	6349
2026-01-20 01:16:02.56	325.51	23.61	-40.7	-41.6	22.8	0.00e+00	0	42	0	1127219200	54	6136
2026-01-20 01:16:03.57	325.62	23.47	-40.7	-41.6	22.7	0.00e+00	0	42	0	1129316352	54	6170
2026-01-20 01:16:04.58	325.74	23.33	-41.5	-42.5	22.5	0.00e+00	0	42	0	1131413504	54	6787
2026-01-20 01:16:05.59	325.86	23.20	-41.8	-42.8	22.4	0.00e+00	0	42	0	1133510656	56	6271
2026-01-20 01:16:06.60	325.97	23.06	-41.9	-42.9	22.1	0.00e+00	0	42	0	1135607808	56	6390
2026-01-20 01:16:07.61	326.09	22.93	-42.1	-43.2	22.1	0.00e+00	0	42	0	1136656384	56	6566
2026-01-20 01:16:08.62	326.20	22.79	-42.4	-43.4	22.2	0.00e+00	0	42	0	1138753536	56	6762
2026-01-20 01:16:09.63	326.31	22.66	-43.1	-44.2	21.7	0.00e+00	0	42	0	1140850688	58	6607
2026-01-20 01:16:10.64	326.42	22.53	-42.9	-44.0	22.0	0.00e+00	0	42	0	1142947840	58	6421
2026-01-20 01:16:11.65	326.53	22.39	-42.5	-43.6	22.0	0.00e+00	0	42	0	1145044992	58	6124
2026-01-20 01:16:12.66	326.64	22.26	-42.7	-43.9	21.7	0.00e+00	0	42	0	1146093568	58	6340
2026-01-20 01:16:13.67	326.75	22.13	-42.3	-43.3	22.2	0.00e+00	0	42	0	1148190720	58	5964
2026-01-20 01:16:14.68	326.86	22.00	-42.3	-43.4	22.0	0.00e+00	0	42	0	1150287872	58	6024
2026-01-20 01:16:15.69	326.97	21.87	-42.1	-43.2	22.3	0.00e+00	0	42	0	1152385024	58	5831
2026-01-20 01:16:16.69	327.07	21.74	-41.8	-42.8	22.0	0.00e+00	0	42	0	1154482176	56	6316
2026-01-20 01:16:17.70	327.18	21.61	-41.9	-43.0	22.1	0.00e+00	0	42	0	1155530752	56	6393
2026-01-20 01:16:18.71	327.28	21.48	-41.8	-42.9	21.8	0.00e+00	0	42	0	1157627904	56	6339
2026-01-20 01:16:19.72	327.38	21.35	-42.1	-43.1	22.4	0.00e+00	0	42	0	1159725056	56	6519
2026-01-20 01:16:20.73	327.49	21.23	-42.0	-43.0	22.5	0.00e+00	0	42	0	1161822208	56	6458
2026-01-20 01:16:21.74	327.59	21.10	-41.5	-42.5	22.7	0.00e+00	0	42	0	1163919360	56	6091
2026-01-20 01:16:22.75	327.69	20.97	-42.2	-43.3	22.4	0.00e+00	0	42	0	1164967936	56	6641
2026-01-20 01:16:23.76	327.79	20.85	-42.4	-43.5	22.0	0.00e+00	0	42	0	1167065088	56	6802
2026-01-20 01:16:24.77	327.89	20.72	-42.6	-43.6	22.2	0.00e+00	0	42	0	1169162240	56	6897
2026-01-20 01:16:25.78	327.99	20.60	-42.8	-43.9	21.7	0.00e+00	0	42	0	1171259392	58	6371
2026-01-20 01:16:26.79	328.09	20.47	-42.8	-43.9	21.5	0.00e+00	0	42	0	1173356544	58	6366
2026-01-20 01:16:27.80	328.19	20.35	-43.3	-44.5	21.5	0.00e+00	0	42	0	1174405120	58	6787
2026-01-20 01:16:28.81	328.28	20.23	-43.6	-44.8	21.0	0.00e+00	0	42	0	1176502272	58	7035
2026-01-20 01:16:29.82	328.38	20.10	-42.9	-44.1	21.3	0.00e+00	0	42	0	1178599424	58	6536
2026-01-20 01:16:30.83	328.47	19.98	-43.3	-44.6	20.8	0.00e+00	0	42	0	1180696576	58	6849
2026-01-20 01:16:31.84	328.57	19.86	-43.2	-44.5	20.7	0.00e+00	0	42	0	1182793728	58	6837
2026-01-20 01:16:32.85	328.66	19.74	-43.3	-44.6	20.4	0.00e+00	0	42	0	1183842304	58	6927
2026-01-20 01:16:33.86	328.75	19.62	-43.2	-44.5	20.6	0.00e+00	0	42	0	1185939456	60	6068
2026-01-20 01:16:34.87	328.85	19.50	-42.9	-44.2	21.0	0.00e+00	0	42	0	1188036608	60	5852
2026-01-20 01:16:35.87	328.94	19.38	-42.7	-43.9	21.4	0.00e+00	0	42	0	1190133760	58	6338
2026-01-20 01:16:36.88	329.03	19.26	-42.9	-44.0	21.6	0.00e+00	0	42	0	1192230912	58	6437
2026-01-20 01:16:37.90	329.12	19.14	-42.9	-44.0	21.7	0.00e+00	0	42	0	1194328064	58	6424
2026-01-20 01:16:38.91	329.21	19.02	-42.8	-43.9	21.7	0.00e+00	0	42	0	1195376640	58	6373
2026-01-20 01:16:39.92	329.30	18.91	-43.5	-44.6	21.7	0.00e+00	0	42	0	1197473792	60	6129
2026-01-20 01:16:40.93	329.39	18.79	-43.0	-44.1	22.2	0.00e+00	0	42	0	1199570944	58	6499
2026-01-20 01:16:41.94	329.47	18.67	-42.8	-43.8	22.3	0.00e+00	0	42	0	1201668096	58	6288
2026-01-20 01:16:42.95	329.56	18.56	-43.0	-44.0	22.4	0.00e+00	0	42	0	1203765248	58	6431
2026-01-20 01:16:43.96	329.65	18.44	-41.8	-42.8	22.8	0.00e+00	0	42	0	1204813824	56	6247
2026-01-20 01:16:44.97	329.73	18.33	-41.9	-42.9	22.8	0.00e+00	0	42	0	1206910976	56	6361
2026-01-20 01:16:45.98	329.82	18.21	-42.0	-42.9	22.7	0.00e+00	0	42	0	1209008128	56	6372
2026-01-20 01:16:46.99	329.90	18.10	-42.6	-43.6	22.8	0.00e+00	0	42	0	1211105280	56	6863
2026-01-20 01:16:48.00	329.99	17.98	-42.2	-43.1	22.7	0.00e+00	0	42	0	1213202432	56	6521
2026-01-20 01:16:49.01	330.07	17.87	-41.7	-42.6	22.8	0.00e+00	0	42	0	1214251008	56	6171
2026-01-20 01:16:50.02	330.15	17.76	-42.0	-43.0	22.5	0.00e+00	0	42	0	1216348160	58	5734
