passes_logs/2026/01/20/R4.6S_Anadyr/R4.6S_Anadyr__20260120_163114_SUOMI_NPP_rec.log

#Pass ID: 20260120_163114_SUOMI NPP
#Satellite: SUOMI NPP
#Configuration: NPP
#almurnet v.1.7.20251203
#Start time: 2026-01-20 16:31:17

#Version: 2.2.20231116
#Station: R4.6S_Anadyr
#Location: 177.4865 lon 64.73178 lat
#TLE: 1 37849U 11061A   26019.89702167  .00000121  00000+0  78274-4 0  9993
#TLE: 2 37849  98.7817 321.9035 0002338  55.0397 305.0998 14.19526700737401

#Time	Az	El	Level	Level2	SNR	BER	BlckErr	Temp	State	Recorded	gain1	gain2
2026-01-20 16:31:17.49	26.07	0.18	-52.1	-65.9	3.3	1.54e+00	0	40	0	0	60	71206
2026-01-20 16:31:18.49	26.03	0.23	-51.8	-67.0	3.6	1.51e+00	0	41	104	0	60	80762
2026-01-20 16:31:19.50	25.99	0.29	-51.7	-66.9	3.6	1.51e+00	0	41	104	0	60	80150
2026-01-20 16:31:20.51	25.95	0.35	-51.6	-66.9	3.6	1.51e+00	0	41	104	0	60	79677
2026-01-20 16:31:21.52	25.91	0.41	-51.6	-66.8	3.6	1.51e+00	0	41	104	0	60	79477
2026-01-20 16:31:22.53	25.87	0.47	-51.6	-66.8	3.6	1.51e+00	0	41	104	0	60	79197
2026-01-20 16:31:23.54	25.83	0.52	-51.6	-66.8	3.6	1.51e+00	0	41	104	0	60	79202
2026-01-20 16:31:24.55	25.79	0.58	-51.6	-66.8	3.6	1.51e+00	0	41	104	0	60	79174
2026-01-20 16:31:25.57	25.74	0.64	-51.5	-66.7	3.6	1.51e+00	0	41	104	0	60	78608
2026-01-20 16:31:26.57	25.70	0.70	-51.5	-66.7	3.6	1.51e+00	0	41	104	0	60	78222
2026-01-20 16:31:27.58	25.66	0.76	-51.4	-66.6	3.6	1.51e+00	0	41	104	0	60	77675
2026-01-20 16:31:28.59	25.62	0.82	-51.4	-66.6	3.6	1.51e+00	0	41	104	0	60	77019
2026-01-20 16:31:29.60	25.58	0.88	-51.3	-66.5	3.6	1.51e+00	0	41	104	0	60	76547
2026-01-20 16:31:30.61	25.53	0.93	-51.2	-66.4	3.6	1.51e+00	0	41	104	0	60	75847
2026-01-20 16:31:31.62	25.49	0.99	-51.1	-66.3	3.6	1.51e+00	0	41	104	0	60	74661
2026-01-20 16:31:32.63	25.45	1.05	-51.0	-66.2	3.6	1.51e+00	0	41	104	0	60	73450
2026-01-20 16:31:33.63	25.41	1.11	-50.8	-66.1	3.6	1.51e+00	0	41	104	0	60	72704
2026-01-20 16:31:34.65	25.36	1.17	-50.7	-66.0	3.6	1.51e+00	0	41	104	0	60	71968
2026-01-20 16:31:35.65	25.32	1.23	-50.7	-65.8	3.5	1.51e+00	0	41	104	0	60	70761
2026-01-20 16:31:36.66	25.27	1.29	-50.5	-65.8	3.6	1.51e+00	0	41	104	0	60	70140
2026-01-20 16:31:37.67	25.23	1.35	-50.3	-65.5	3.6	1.51e+00	0	41	104	0	60	68067
2026-01-20 16:31:38.69	25.19	1.41	-50.0	-65.2	3.6	1.51e+00	0	41	104	0	60	65962
2026-01-20 16:31:39.70	25.14	1.47	-49.8	-65.0	3.6	1.51e+00	0	41	104	0	60	64360
2026-01-20 16:31:40.71	25.10	1.53	-49.8	-64.9	3.6	1.51e+00	0	41	104	0	60	63806
2026-01-20 16:31:41.72	25.05	1.59	-49.8	-65.0	3.6	1.51e+00	0	41	104	0	60	64045
2026-01-20 16:31:42.73	25.01	1.65	-49.8	-65.0	3.6	1.51e+00	0	41	104	0	60	64144
2026-01-20 16:31:43.74	24.96	1.71	-49.8	-65.0	3.6	1.51e+00	0	41	104	0	60	63992
2026-01-20 16:31:44.75	24.92	1.77	-49.8	-64.9	3.6	1.51e+00	0	41	104	0	60	63382
2026-01-20 16:31:45.76	24.87	1.83	-49.8	-64.8	3.6	1.51e+00	0	41	104	0	60	63177
2026-01-20 16:31:46.77	24.83	1.89	-49.8	-64.9	3.6	1.51e+00	0	41	104	0	60	63605
2026-01-20 16:31:47.77	24.78	1.95	-49.8	-64.8	3.6	1.51e+00	0	41	104	0	60	63090
2026-01-20 16:31:48.78	24.74	2.01	-49.8	-64.6	3.6	1.51e+00	0	41	104	0	60	61628
2026-01-20 16:31:49.79	24.69	2.07	-49.8	-64.8	3.6	1.51e+00	0	41	104	0	60	62933
2026-01-20 16:31:50.80	24.64	2.13	-49.8	-65.0	3.6	1.51e+00	0	41	104	0	60	63972
2026-01-20 16:31:51.81	24.60	2.19	-49.8	-65.0	3.6	1.51e+00	0	41	104	0	60	64102
2026-01-20 16:31:52.82	24.55	2.25	-49.8	-65.0	3.6	1.51e+00	0	41	104	0	60	64025
2026-01-20 16:31:53.83	24.50	2.32	-49.8	-65.0	3.6	1.51e+00	0	41	104	0	60	63933
2026-01-20 16:31:54.84	24.46	2.38	-49.8	-64.9	3.6	1.51e+00	0	41	104	0	60	63879
2026-01-20 16:31:55.85	24.41	2.44	-49.8	-64.9	3.6	1.51e+00	0	41	104	0	60	63858
2026-01-20 16:31:56.86	24.36	2.50	-49.8	-64.8	3.6	1.51e+00	0	41	104	0	60	63070
2026-01-20 16:31:57.87	24.31	2.56	-49.8	-64.6	3.6	1.51e+00	0	41	104	0	60	61692
2026-01-20 16:31:58.88	24.27	2.62	-49.8	-64.6	3.6	1.51e+00	0	41	104	0	60	61651
2026-01-20 16:31:59.89	24.22	2.69	-49.8	-64.3	3.6	1.51e+00	0	41	104	0	60	59346
2026-01-20 16:32:00.90	24.17	2.75	-49.8	-64.5	3.6	1.51e+00	0	41	104	0	60	60612
2026-01-20 16:32:01.91	24.12	2.81	-49.8	-64.5	3.6	1.51e+00	0	41	104	0	60	60936
2026-01-20 16:32:02.92	24.07	2.87	-49.8	-64.7	3.6	1.51e+00	0	41	104	0	60	62156
2026-01-20 16:32:03.93	24.02	2.93	-49.8	-64.7	3.6	1.51e+00	0	41	104	0	60	62400
2026-01-20 16:32:04.94	23.97	3.00	-49.7	-64.2	3.6	1.51e+00	0	41	104	0	60	58478
2026-01-20 16:32:05.95	23.92	3.06	-49.5	-60.0	4.7	1.50e+00	0	41	104	0	60	36339
2026-01-20 16:32:06.96	23.87	3.12	-49.4	-58.3	5.2	8.62e-01	92	41	0	0	60	29704
2026-01-20 16:32:07.97	23.82	3.19	-48.7	-55.0	7.8	3.95e-02	0	41	0	2097152	60	20270
2026-01-20 16:32:08.98	23.77	3.25	-48.4	-53.9	9.3	1.40e-01	0	42	0	4194304	60	17810
2026-01-20 16:32:09.99	23.72	3.31	-48.6	-54.6	8.7	3.35e-02	0	41	0	6291456	60	19485
2026-01-20 16:32:11.00	23.67	3.37	-47.8	-52.2	11.6	3.22e-03	0	42	0	8388608	60	14748
2026-01-20 16:32:12.00	23.62	3.44	-48.6	-54.6	8.6	1.55e-02	20	42	0	9437184	60	19479
2026-01-20 16:32:13.01	23.57	3.50	-49.9	-64.8	3.6	5.89e-02	0	42	104	11534336	60	63081
2026-01-20 16:32:14.02	23.52	3.56	-49.7	-61.4	4.1	1.50e+00	0	42	104	11534336	60	42282
2026-01-20 16:32:15.03	23.47	3.63	-49.6	-60.9	3.6	5.19e-02	0	42	104	11534336	60	40211
2026-01-20 16:32:16.04	23.41	3.69	-44.6	-46.6	17.7	2.89e-01	0	42	0	11534336	60	7738
2026-01-20 16:32:17.05	23.36	3.76	-49.7	-64.5	3.6	1.25e+00	0	42	104	12582912	60	60806
2026-01-20 16:32:18.06	23.31	3.82	-44.4	-46.3	16.9	1.39e+00	0	42	104	12582912	60	7472
2026-01-20 16:32:19.07	23.26	3.88	-45.1	-47.2	16.9	0.00e+00	0	42	0	12582912	60	8303
2026-01-20 16:32:20.08	23.20	3.95	-44.5	-46.4	17.7	0.00e+00	0	41	0	14680064	60	7521
2026-01-20 16:32:21.09	23.15	4.01	-44.8	-46.8	17.5	0.00e+00	29	41	0	16777216	60	7868
2026-01-20 16:32:22.09	23.10	4.08	-44.3	-46.2	18.0	0.00e+00	0	42	0	18874368	60	7369
2026-01-20 16:32:23.10	23.04	4.14	-44.8	-46.8	17.6	0.00e+00	0	42	0	20971520	60	7953
2026-01-20 16:32:24.11	22.99	4.21	-44.1	-45.9	18.3	0.00e+00	0	41	0	22020096	60	7090
2026-01-20 16:32:25.12	22.93	4.27	-45.1	-47.1	17.4	0.00e+00	0	41	0	24117248	60	8204
2026-01-20 16:32:26.13	22.88	4.34	-43.8	-45.4	18.9	0.00e+00	0	41	0	26214400	60	6742
2026-01-20 16:32:27.14	22.83	4.40	-44.5	-46.3	17.9	0.00e+00	0	41	0	28311552	60	7500
2026-01-20 16:32:28.15	22.77	4.47	-45.0	-47.0	17.1	0.00e+00	80	42	0	30408704	60	8104
2026-01-20 16:32:29.16	22.71	4.53	-45.0	-47.1	17.1	0.00e+00	0	41	0	31457280	60	8188
2026-01-20 16:32:30.17	22.66	4.60	-45.1	-47.2	16.7	0.00e+00	81	42	0	33554432	60	8289
2026-01-20 16:32:31.17	22.60	4.66	-44.2	-46.0	18.0	0.00e+00	0	42	0	35651584	60	7192
2026-01-20 16:32:32.19	22.55	4.73	-45.4	-47.6	17.2	0.00e+00	0	42	0	37748736	60	8680
2026-01-20 16:32:33.19	22.49	4.80	-44.3	-46.1	18.4	0.00e+00	0	42	0	39845888	60	7337
2026-01-20 16:32:34.20	22.43	4.86	-44.5	-46.4	18.0	0.00e+00	0	42	0	40894464	60	7566
2026-01-20 16:32:35.21	22.38	4.93	-43.8	-45.5	18.8	0.00e+00	92	42	0	42991616	60	6775
2026-01-20 16:32:36.22	22.32	5.00	-44.7	-46.6	17.7	0.00e+00	0	42	0	45088768	60	7748
2026-01-20 16:32:37.23	22.26	5.06	-44.2	-46.0	18.3	0.00e+00	64	42	0	47185920	60	7207
2026-01-20 16:32:38.24	22.21	5.13	-44.2	-45.9	18.4	0.00e+00	18	42	0	49283072	60	7151
2026-01-20 16:32:39.25	22.15	5.20	-44.2	-46.0	18.3	0.00e+00	0	42	0	50331648	60	7207
2026-01-20 16:32:40.26	22.09	5.26	-43.9	-45.6	18.6	0.00e+00	0	42	0	52428800	60	6883
2026-01-20 16:32:41.27	22.03	5.33	-44.5	-46.4	18.1	0.00e+00	14	42	0	54525952	60	7509
2026-01-20 16:32:42.28	21.97	5.40	-44.4	-46.2	18.1	0.00e+00	67	42	0	56623104	60	7345
2026-01-20 16:32:43.29	21.91	5.47	-44.1	-45.8	18.6	0.00e+00	0	42	0	58720256	60	7017
2026-01-20 16:32:44.30	21.85	5.53	-44.4	-46.2	18.3	0.00e+00	40	42	0	59768832	60	7367
2026-01-20 16:32:45.30	21.79	5.60	-44.5	-46.3	18.2	0.00e+00	0	41	0	61865984	60	7460
2026-01-20 16:32:46.32	21.73	5.67	-44.1	-45.8	18.4	0.00e+00	0	42	0	63963136	60	7058
2026-01-20 16:32:47.32	21.67	5.74	-44.2	-45.9	18.8	0.00e+00	0	42	0	66060288	60	7107
2026-01-20 16:32:48.33	21.61	5.80	-43.9	-45.5	18.9	0.00e+00	0	42	0	68157440	60	6816
2026-01-20 16:32:49.34	21.55	5.87	-43.8	-45.4	19.1	0.00e+00	15	42	0	69206016	60	6756
2026-01-20 16:32:50.35	21.49	5.94	-43.6	-45.2	19.1	0.00e+00	0	42	0	71303168	60	6572
2026-01-20 16:32:51.36	21.43	6.01	-43.6	-45.1	19.2	0.00e+00	92	42	0	73400320	60	6538
2026-01-20 16:32:52.37	21.37	6.08	-43.7	-45.2	19.2	0.00e+00	0	42	0	75497472	60	6577
2026-01-20 16:32:53.38	21.30	6.15	-43.6	-45.1	19.3	0.00e+00	48	42	0	77594624	60	6511
2026-01-20 16:32:54.39	21.24	6.22	-43.3	-44.8	19.6	0.00e+00	0	41	0	78643200	60	6281
2026-01-20 16:32:55.40	21.18	6.29	-43.5	-45.0	19.4	0.00e+00	0	42	0	80740352	60	6421
2026-01-20 16:32:56.41	21.12	6.36	-43.7	-45.2	19.2	0.00e+00	38	42	0	82837504	60	6578
2026-01-20 16:32:57.42	21.05	6.43	-43.9	-45.4	19.0	0.00e+00	0	42	0	84934656	60	6759
2026-01-20 16:32:58.43	20.99	6.49	-43.7	-45.2	19.2	0.00e+00	25	42	0	87031808	60	6561
2026-01-20 16:32:59.44	20.92	6.56	-43.7	-45.2	19.2	0.00e+00	0	42	0	89128960	60	6578
2026-01-20 16:33:00.45	20.86	6.63	-43.1	-44.5	19.9	0.00e+00	61	42	0	90177536	60	6041
2026-01-20 16:33:01.46	20.79	6.70	-43.6	-45.1	19.4	0.00e+00	0	42	0	92274688	60	6476
2026-01-20 16:33:02.47	20.73	6.78	-43.1	-44.6	19.7	0.00e+00	0	42	0	94371840	60	6115
2026-01-20 16:33:03.48	20.66	6.85	-43.5	-44.9	19.6	0.00e+00	15	42	0	96468992	60	6379
2026-01-20 16:33:04.49	20.60	6.92	-43.4	-44.8	19.6	0.00e+00	0	42	0	98566144	60	6299
2026-01-20 16:33:05.50	20.53	6.99	-43.7	-45.2	19.4	0.00e+00	76	42	0	99614720	60	6599
2026-01-20 16:33:06.51	20.46	7.06	-43.2	-44.6	19.8	0.00e+00	0	42	0	101711872	60	6158
2026-01-20 16:33:07.51	20.40	7.13	-43.1	-44.5	19.9	0.00e+00	91	42	0	103809024	60	6044
2026-01-20 16:33:08.52	20.33	7.20	-43.8	-45.4	19.2	0.00e+00	0	42	0	105906176	60	6706
2026-01-20 16:33:09.53	20.26	7.27	-42.9	-44.2	20.1	0.00e+00	0	42	0	108003328	60	5858
2026-01-20 16:33:10.54	20.20	7.34	-42.9	-44.3	20.2	0.00e+00	0	42	0	109051904	60	5916
2026-01-20 16:33:11.55	20.13	7.41	-43.0	-44.3	20.2	0.00e+00	0	42	0	111149056	60	5962
2026-01-20 16:33:12.56	20.06	7.49	-43.0	-44.3	20.0	0.00e+00	14	42	0	113246208	58	6692
2026-01-20 16:33:13.57	19.99	7.56	-43.2	-44.6	20.0	0.00e+00	0	42	0	115343360	58	6861
2026-01-20 16:33:14.58	19.92	7.63	-42.7	-44.0	20.4	0.00e+00	73	42	0	117440512	58	6402
2026-01-20 16:33:15.59	19.85	7.70	-43.4	-44.8	19.7	0.00e+00	0	42	0	118489088	58	7045
2026-01-20 16:33:16.60	19.78	7.78	-43.0	-44.4	20.1	0.00e+00	0	42	0	120586240	58	6699
2026-01-20 16:33:17.60	19.71	7.85	-43.0	-44.4	20.1	0.00e+00	0	42	0	122683392	58	6721
2026-01-20 16:33:18.61	19.64	7.92	-42.7	-44.0	20.4	0.00e+00	0	42	0	124780544	58	6394
2026-01-20 16:33:19.62	19.57	7.99	-43.0	-44.4	20.4	0.00e+00	37	42	0	126877696	58	6700
2026-01-20 16:33:20.63	19.50	8.07	-42.7	-44.0	20.4	0.00e+00	0	42	0	127926272	58	6444
2026-01-20 16:33:21.64	19.43	8.14	-42.9	-44.2	20.3	0.00e+00	92	42	0	130023424	58	6615
2026-01-20 16:33:22.65	19.35	8.21	-42.8	-44.1	20.2	0.00e+00	0	42	0	132120576	58	6508
2026-01-20 16:33:23.66	19.28	8.29	-43.3	-44.7	19.9	0.00e+00	0	42	0	134217728	58	6980
2026-01-20 16:33:24.67	19.21	8.36	-43.9	-45.4	19.3	0.00e+00	0	42	0	136314880	60	6758
2026-01-20 16:33:25.68	19.13	8.44	-43.2	-44.6	19.9	0.00e+00	0	42	0	137363456	60	6111
2026-01-20 16:33:26.69	19.06	8.51	-43.5	-44.9	19.7	0.00e+00	18	42	0	139460608	60	6385
2026-01-20 16:33:27.70	18.99	8.58	-43.8	-45.3	19.9	0.00e+00	0	42	0	141557760	60	6642
2026-01-20 16:33:28.71	18.91	8.66	-43.3	-44.7	19.9	0.00e+00	92	42	0	143654912	60	6176
2026-01-20 16:33:29.72	18.84	8.73	-43.0	-44.4	20.1	0.00e+00	0	42	0	145752064	60	5979
2026-01-20 16:33:30.73	18.76	8.81	-43.3	-44.7	20.0	0.00e+00	85	42	0	146800640	60	6223
2026-01-20 16:33:31.74	18.68	8.88	-43.4	-44.8	19.8	0.00e+00	0	42	0	148897792	60	6299
2026-01-20 16:33:32.74	18.61	8.96	-43.2	-44.6	19.9	0.00e+00	0	42	0	150994944	60	6160
2026-01-20 16:33:33.76	18.53	9.03	-43.1	-44.5	20.1	0.00e+00	0	42	0	153092096	60	6039
2026-01-20 16:33:34.76	18.46	9.11	-42.9	-44.3	20.3	0.00e+00	0	42	0	155189248	60	5908
2026-01-20 16:33:35.77	18.38	9.18	-42.3	-43.5	20.9	0.00e+00	92	42	0	157286400	58	6044
2026-01-20 16:33:36.78	18.30	9.26	-42.8	-44.1	20.4	0.00e+00	0	42	0	158334976	58	6513
2026-01-20 16:33:37.79	18.22	9.34	-42.8	-44.1	20.4	0.00e+00	86	42	0	160432128	58	6526
2026-01-20 16:33:38.80	18.14	9.41	-42.5	-43.8	20.6	0.00e+00	0	42	0	162529280	58	6278
2026-01-20 16:33:39.81	18.06	9.49	-42.7	-44.0	20.3	0.00e+00	0	42	0	164626432	58	6448
2026-01-20 16:33:40.82	17.98	9.57	-42.5	-43.7	20.8	0.00e+00	0	42	0	166723584	58	6212
2026-01-20 16:33:41.83	17.90	9.64	-42.6	-43.8	20.5	0.00e+00	0	42	0	167772160	58	6291
2026-01-20 16:33:42.84	17.82	9.72	-42.5	-43.8	20.8	0.00e+00	92	42	0	169869312	58	6260
2026-01-20 16:33:43.85	17.74	9.80	-42.4	-43.7	20.8	0.00e+00	0	42	0	171966464	58	6177
2026-01-20 16:33:44.86	17.66	9.87	-42.0	-43.2	21.1	0.00e+00	92	42	0	174063616	58	5846
2026-01-20 16:33:45.87	17.58	9.95	-42.3	-43.5	20.9	0.00e+00	0	42	0	176160768	58	6063
2026-01-20 16:33:46.88	17.50	10.03	-42.1	-43.3	21.1	0.00e+00	0	42	0	177209344	58	5941
2026-01-20 16:33:47.89	17.41	10.11	-42.6	-43.9	20.6	0.00e+00	0	42	0	179306496	58	6368
2026-01-20 16:33:48.89	17.33	10.19	-41.9	-43.0	21.4	0.00e+00	0	42	0	181403648	58	5735
2026-01-20 16:33:49.91	17.25	10.26	-42.1	-43.2	21.2	0.00e+00	21	42	0	183500800	58	5878
2026-01-20 16:33:50.91	17.16	10.34	-42.3	-43.5	21.1	0.00e+00	0	42	0	185597952	58	6044
2026-01-20 16:33:51.92	17.08	10.42	-42.1	-43.3	21.3	0.00e+00	92	42	0	186646528	58	5930
2026-01-20 16:33:52.94	16.99	10.50	-42.0	-43.2	21.3	0.00e+00	0	42	0	188743680	58	5835
2026-01-20 16:33:53.94	16.91	10.58	-41.7	-42.7	21.7	0.00e+00	0	42	0	190840832	56	6242
2026-01-20 16:33:54.95	16.82	10.66	-41.8	-42.9	21.5	0.00e+00	10	42	0	192937984	56	6326
2026-01-20 16:33:55.96	16.73	10.74	-41.6	-42.7	21.9	0.00e+00	0	42	0	195035136	56	6210
2026-01-20 16:33:56.97	16.65	10.82	-41.9	-43.0	21.3	0.00e+00	42	42	0	196083712	56	6439
2026-01-20 16:33:57.98	16.56	10.90	-41.4	-42.4	21.9	0.00e+00	0	42	0	198180864	56	6028
2026-01-20 16:33:58.99	16.47	10.98	-41.5	-42.6	21.8	0.00e+00	90	42	0	200278016	56	6152
2026-01-20 16:34:00.00	16.38	11.06	-41.6	-42.7	21.7	0.00e+00	0	42	0	202375168	56	6229
2026-01-20 16:34:01.01	16.29	11.14	-41.7	-42.8	21.7	0.00e+00	0	42	0	204472320	56	6250
2026-01-20 16:34:02.02	16.20	11.22	-42.0	-43.1	21.3	0.00e+00	0	42	0	205520896	56	6520
2026-01-20 16:34:03.03	16.11	11.30	-42.0	-43.1	21.3	0.00e+00	0	42	0	207618048	56	6538
2026-01-20 16:34:04.04	16.02	11.38	-41.8	-42.9	21.6	0.00e+00	22	42	0	209715200	56	6351
2026-01-20 16:34:05.04	15.93	11.46	-42.0	-43.1	21.3	0.00e+00	0	42	0	211812352	56	6522
2026-01-20 16:34:06.05	15.84	11.54	-41.9	-43.0	21.4	0.00e+00	92	42	0	213909504	56	6452
2026-01-20 16:34:07.06	15.75	11.62	-42.0	-43.1	21.4	0.00e+00	0	42	0	214958080	56	6524
2026-01-20 16:34:08.07	15.66	11.71	-41.9	-43.0	21.6	0.00e+00	0	42	0	217055232	56	6407
2026-01-20 16:34:09.08	15.56	11.79	-41.9	-43.0	21.5	0.00e+00	0	42	0	219152384	56	6464
2026-01-20 16:34:10.09	15.47	11.87	-42.1	-43.2	21.4	0.00e+00	0	42	0	221249536	56	6607
2026-01-20 16:34:11.10	15.37	11.95	-41.9	-43.0	21.5	0.00e+00	0	42	0	223346688	56	6416
2026-01-20 16:34:12.11	15.28	12.03	-42.0	-43.1	21.5	0.00e+00	0	42	0	225443840	56	6484
2026-01-20 16:34:13.12	15.18	12.12	-42.1	-43.3	21.2	0.00e+00	0	42	0	226492416	56	6623
2026-01-20 16:34:14.13	15.09	12.20	-42.2	-43.4	21.1	0.00e+00	0	42	0	228589568	56	6731
2026-01-20 16:34:15.14	14.99	12.28	-42.1	-43.2	21.3	0.00e+00	85	42	0	230686720	56	6591
2026-01-20 16:34:16.15	14.89	12.37	-41.9	-43.0	21.5	0.00e+00	0	42	0	232783872	56	6464
2026-01-20 16:34:17.16	14.80	12.45	-42.1	-43.2	21.4	0.00e+00	0	42	0	234881024	56	6582
2026-01-20 16:34:18.17	14.70	12.53	-42.1	-43.2	21.4	0.00e+00	9	42	0	235929600	56	6574
2026-01-20 16:34:19.17	14.60	12.62	-41.5	-42.6	21.9	0.00e+00	21	42	0	238026752	56	6106
2026-01-20 16:34:20.18	14.50	12.70	-41.9	-43.1	21.6	0.00e+00	81	42	0	240123904	56	6468
2026-01-20 16:34:21.19	14.40	12.79	-41.8	-42.9	21.6	0.00e+00	0	42	0	242221056	56	6386
2026-01-20 16:34:22.20	14.30	12.87	-41.7	-42.8	21.8	0.00e+00	90	42	0	244318208	56	6268
2026-01-20 16:34:23.21	14.20	12.96	-41.6	-42.7	21.6	0.00e+00	0	42	0	245366784	56	6186
2026-01-20 16:34:24.22	14.09	13.04	-41.4	-42.5	21.8	0.00e+00	0	42	0	247463936	56	6067
2026-01-20 16:34:25.23	13.99	13.13	-41.5	-42.6	21.8	0.00e+00	12	42	0	249561088	56	6151
2026-01-20 16:34:26.24	13.89	13.21	-41.3	-42.4	22.0	0.00e+00	0	42	0	251658240	56	5992
2026-01-20 16:34:27.24	13.79	13.30	-41.4	-42.5	21.9	0.00e+00	58	42	0	253755392	56	6081
2026-01-20 16:34:28.25	13.68	13.38	-41.6	-42.6	21.7	0.00e+00	9	42	0	254803968	56	6170
2026-01-20 16:34:29.26	13.58	13.47	-41.4	-42.5	22.1	0.00e+00	55	42	0	256901120	56	6045
2026-01-20 16:34:30.27	13.47	13.55	-41.7	-42.8	21.7	0.00e+00	0	42	0	258998272	56	6263
2026-01-20 16:34:31.28	13.36	13.64	-41.6	-42.7	21.9	0.00e+00	0	42	0	261095424	56	6238
2026-01-20 16:34:32.29	13.26	13.73	-41.5	-42.6	21.9	0.00e+00	0	42	0	263192576	56	6123
2026-01-20 16:34:33.30	13.15	13.81	-41.6	-42.7	21.9	0.00e+00	0	42	0	264241152	56	6207
2026-01-20 16:34:34.31	13.04	13.90	-41.4	-42.4	22.0	0.00e+00	56	42	0	266338304	56	6003
2026-01-20 16:34:35.32	12.93	13.99	-41.3	-42.3	22.2	0.00e+00	0	42	0	268435456	56	5933
2026-01-20 16:34:36.33	12.82	14.08	-41.4	-42.4	22.1	0.00e+00	92	42	0	270532608	56	6007
2026-01-20 16:34:37.34	12.71	14.16	-41.1	-42.1	22.4	0.00e+00	0	42	0	272629760	56	5770
2026-01-20 16:34:38.35	12.60	14.25	-41.0	-42.0	22.4	0.00e+00	30	42	0	273678336	56	5713
2026-01-20 16:34:39.36	12.49	14.34	-40.9	-41.9	22.6	0.00e+00	0	42	0	275775488	56	5652
2026-01-20 16:34:40.37	12.38	14.43	-40.9	-41.9	22.5	0.00e+00	0	42	0	277872640	56	5678
2026-01-20 16:34:41.38	12.26	14.52	-40.5	-41.4	22.8	0.00e+00	0	42	0	279969792	54	6026
2026-01-20 16:34:42.39	12.15	14.60	-40.8	-41.8	22.6	0.00e+00	0	42	0	282066944	54	6264
2026-01-20 16:34:43.40	12.04	14.69	-40.4	-41.3	22.8	0.00e+00	43	42	0	283115520	54	5946
2026-01-20 16:34:44.41	11.92	14.78	-40.7	-41.6	22.6	0.00e+00	0	42	0	285212672	54	6171
2026-01-20 16:34:45.41	11.81	14.87	-40.7	-41.6	22.7	0.00e+00	50	42	0	287309824	54	6156
2026-01-20 16:34:46.42	11.69	14.96	-41.0	-42.0	22.4	0.00e+00	0	42	0	289406976	54	6439
2026-01-20 16:34:47.43	11.57	15.05	-41.0	-41.9	22.4	0.00e+00	0	42	0	291504128	54	6390
2026-01-20 16:34:48.44	11.46	15.14	-40.7	-41.7	22.6	0.00e+00	0	42	0	292552704	54	6217
2026-01-20 16:34:49.45	11.34	15.23	-41.0	-42.0	22.4	0.00e+00	0	42	0	294649856	54	6405
2026-01-20 16:34:50.46	11.22	15.32	-41.3	-42.3	22.3	0.00e+00	36	42	0	296747008	54	6634
2026-01-20 16:34:51.47	11.10	15.41	-40.8	-41.8	22.5	0.00e+00	0	42	0	298844160	54	6273
2026-01-20 16:34:52.48	10.98	15.50	-41.1	-42.1	22.2	0.00e+00	91	42	0	300941312	54	6530
2026-01-20 16:34:53.49	10.85	15.59	-41.0	-41.9	22.5	0.00e+00	0	42	0	301989888	54	6383
2026-01-20 16:34:54.49	10.73	15.68	-40.9	-41.9	22.4	0.00e+00	0	42	0	304087040	54	6354
2026-01-20 16:34:55.50	10.61	15.77	-40.9	-41.8	22.4	0.00e+00	0	42	0	306184192	54	6308
2026-01-20 16:34:56.51	10.49	15.87	-41.0	-42.0	22.4	0.00e+00	0	42	0	308281344	54	6460
2026-01-20 16:34:57.52	10.36	15.96	-41.1	-42.1	22.4	0.00e+00	16	42	0	310378496	54	6477
2026-01-20 16:34:58.54	10.23	16.05	-41.4	-42.4	22.2	0.00e+00	0	42	0	311427072	54	6719
2026-01-20 16:34:59.55	10.11	16.14	-41.4	-42.4	22.1	0.00e+00	92	42	0	313524224	54	6714
2026-01-20 16:35:00.55	9.98	16.23	-41.3	-42.3	22.1	0.00e+00	0	42	0	315621376	54	6689
2026-01-20 16:35:01.56	9.85	16.33	-41.2	-42.2	22.2	0.00e+00	0	42	0	317718528	54	6566
2026-01-20 16:35:02.57	9.72	16.42	-41.3	-42.3	22.1	0.00e+00	0	42	0	319815680	54	6688
2026-01-20 16:35:03.58	9.59	16.51	-41.3	-42.4	22.1	0.00e+00	0	42	0	321912832	54	6702
2026-01-20 16:35:04.58	9.47	16.61	-41.2	-42.2	22.3	0.00e+00	47	42	0	322961408	54	6605
2026-01-20 16:35:05.59	9.33	16.70	-41.0	-42.0	22.5	0.00e+00	0	42	0	325058560	54	6435
2026-01-20 16:35:06.60	9.20	16.79	-41.1	-42.2	22.3	0.00e+00	88	42	0	327155712	54	6540
2026-01-20 16:35:07.60	9.07	16.89	-41.1	-42.1	22.3	0.00e+00	0	42	0	329252864	54	6474
2026-01-20 16:35:08.61	8.94	16.98	-41.4	-42.4	22.2	0.00e+00	0	42	0	331350016	54	6734
2026-01-20 16:35:09.63	8.80	17.07	-41.1	-42.1	22.4	0.00e+00	0	42	0	332398592	54	6482
2026-01-20 16:35:10.63	8.67	17.17	-41.5	-42.6	22.0	0.00e+00	0	42	0	334495744	54	6867
2026-01-20 16:35:11.64	8.53	17.26	-41.1	-42.2	22.2	0.00e+00	43	42	0	336592896	54	6553
2026-01-20 16:35:12.65	8.39	17.36	-41.3	-42.4	22.1	0.00e+00	0	42	0	338690048	54	6707
2026-01-20 16:35:13.66	8.25	17.45	-41.5	-42.6	21.9	0.00e+00	92	42	0	340787200	54	6850
2026-01-20 16:35:14.67	8.12	17.55	-41.3	-42.4	22.2	0.00e+00	0	42	0	341835776	54	6713
2026-01-20 16:35:15.68	7.97	17.64	-41.4	-42.5	22.1	0.00e+00	2	42	0	343932928	54	6779
2026-01-20 16:35:16.69	7.83	17.74	-41.3	-42.3	22.3	0.00e+00	0	42	0	346030080	54	6640
2026-01-20 16:35:17.70	7.69	17.83	-41.0	-42.0	22.4	0.00e+00	0	42	0	348127232	54	6396
2026-01-20 16:35:18.71	7.55	17.93	-41.2	-42.3	22.1	0.00e+00	22	42	0	350224384	54	6629
2026-01-20 16:35:19.72	7.41	18.03	-41.3	-42.4	21.6	0.00e+00	0	42	0	351272960	54	6698
2026-01-20 16:35:20.73	7.26	18.12	-41.4	-42.4	22.1	0.00e+00	18	42	0	353370112	54	6741
2026-01-20 16:35:21.74	7.12	18.22	-41.4	-42.5	22.1	0.00e+00	0	42	0	355467264	54	6771
2026-01-20 16:35:22.74	6.97	18.32	-41.7	-42.8	21.9	0.00e+00	83	42	0	357564416	54	7043
2026-01-20 16:35:23.75	6.82	18.41	-41.9	-43.1	21.7	0.00e+00	0	42	0	359661568	56	6469
2026-01-20 16:35:24.76	6.67	18.51	-42.1	-43.2	21.6	0.00e+00	0	42	0	360710144	56	6605
2026-01-20 16:35:25.77	6.53	18.61	-42.2	-43.4	21.4	0.00e+00	0	42	0	362807296	56	6737
2026-01-20 16:35:26.78	6.37	18.70	-42.4	-43.5	21.2	0.00e+00	0	42	0	364904448	56	6848
2026-01-20 16:35:27.79	6.22	18.80	-42.2	-43.4	21.4	0.00e+00	66	42	0	367001600	56	6728
2026-01-20 16:35:28.80	6.07	18.90	-42.2	-43.4	21.3	0.00e+00	0	42	0	369098752	56	6729
2026-01-20 16:35:29.81	5.92	19.00	-42.0	-43.1	21.4	0.00e+00	75	42	0	370147328	56	6530
2026-01-20 16:35:30.82	5.76	19.10	-42.4	-43.7	21.3	0.00e+00	0	42	0	372244480	56	6933
2026-01-20 16:35:31.83	5.61	19.19	-42.1	-43.3	21.3	0.00e+00	0	42	0	374341632	56	6649
2026-01-20 16:35:32.83	5.45	19.29	-42.3	-43.5	21.5	0.00e+00	0	42	0	376438784	56	6793
2026-01-20 16:35:33.84	5.30	19.39	-42.2	-43.4	21.4	0.00e+00	0	42	0	378535936	56	6719
2026-01-20 16:35:34.85	5.14	19.49	-41.9	-43.0	21.8	0.00e+00	58	42	0	379584512	56	6444
2026-01-20 16:35:35.86	4.98	19.59	-42.5	-43.7	21.2	0.00e+00	0	42	0	381681664	56	6950
2026-01-20 16:35:36.87	4.82	19.69	-42.3	-43.4	21.5	0.00e+00	48	42	0	383778816	56	6766
2026-01-20 16:35:37.88	4.66	19.79	-42.3	-43.4	21.5	0.00e+00	0	42	0	385875968	56	6753
2026-01-20 16:35:38.89	4.49	19.88	-42.8	-44.0	21.0	0.00e+00	0	42	0	387973120	56	7181
2026-01-20 16:35:39.90	4.33	19.98	-42.5	-43.6	21.2	0.00e+00	0	42	0	389021696	58	6167
2026-01-20 16:35:40.90	4.17	20.08	-42.8	-44.0	20.8	0.00e+00	0	42	0	391118848	58	6458
2026-01-20 16:35:41.91	4.00	20.18	-42.3	-43.5	21.4	0.00e+00	56	42	0	393216000	58	6038
2026-01-20 16:35:42.92	3.83	20.28	-42.5	-43.7	21.0	0.00e+00	0	42	0	395313152	58	6223
2026-01-20 16:35:43.93	3.66	20.38	-42.9	-44.2	20.8	0.00e+00	90	42	0	397410304	58	6553
2026-01-20 16:35:44.94	3.49	20.48	-42.6	-43.8	21.2	0.00e+00	0	42	0	398458880	58	6247
2026-01-20 16:35:45.95	3.32	20.58	-42.1	-43.3	21.4	0.00e+00	0	42	0	400556032	58	5905
2026-01-20 16:35:46.96	3.15	20.68	-42.5	-43.7	21.2	0.00e+00	0	42	0	402653184	58	6204
2026-01-20 16:35:47.97	2.98	20.78	-42.5	-43.7	21.4	0.00e+00	0	42	0	404750336	58	6192
2026-01-20 16:35:48.98	2.81	20.89	-42.5	-43.8	20.9	0.00e+00	0	42	0	406847488	58	6261
2026-01-20 16:35:49.99	2.63	20.99	-42.1	-43.2	21.5	0.00e+00	0	42	0	407896064	58	5881
2026-01-20 16:35:51.00	2.45	21.09	-42.1	-43.3	21.6	0.00e+00	44	42	0	409993216	58	5910
2026-01-20 16:35:52.00	2.28	21.19	-42.2	-43.3	21.5	0.00e+00	0	42	0	412090368	58	5952
2026-01-20 16:35:53.01	2.10	21.29	-42.3	-43.4	21.5	0.00e+00	91	42	0	414187520	58	6019
2026-01-20 16:35:54.02	1.92	21.39	-42.1	-43.3	21.6	0.00e+00	0	42	0	416284672	58	5901
2026-01-20 16:35:55.03	1.74	21.49	-42.6	-43.8	20.9	0.00e+00	0	42	0	418381824	58	6309
2026-01-20 16:35:56.04	1.56	21.59	-42.5	-43.7	21.3	0.00e+00	0	42	0	419430400	58	6243
2026-01-20 16:35:57.05	1.37	21.69	-42.4	-43.6	21.1	0.00e+00	0	42	0	421527552	58	6135
2026-01-20 16:35:58.06	1.19	21.80	-42.4	-43.6	21.2	0.00e+00	87	42	0	423624704	58	6124
2026-01-20 16:35:59.07	1.00	21.90	-42.2	-43.4	21.4	0.00e+00	0	42	0	425721856	58	5993
2026-01-20 16:36:00.08	0.82	22.00	-42.1	-43.2	21.5	0.00e+00	58	42	0	427819008	58	5881
2026-01-20 16:36:01.09	0.63	22.10	-42.3	-43.4	21.4	0.00e+00	0	42	0	428867584	58	6032
2026-01-20 16:36:02.10	0.44	22.20	-41.9	-43.0	21.6	0.00e+00	0	42	0	430964736	56	6399
2026-01-20 16:36:03.11	0.25	22.31	-42.3	-43.4	21.6	0.00e+00	0	42	0	433061888	56	6717
2026-01-20 16:36:04.12	0.06	22.41	-42.2	-43.3	21.4	0.00e+00	0	42	0	435159040	56	6648
2026-01-20 16:36:05.13	359.86	22.51	-42.7	-43.9	21.1	0.00e+00	5	42	0	437256192	56	7156
2026-01-20 16:36:06.15	359.66	22.61	-42.6	-43.8	21.0	0.00e+00	0	42	0	438304768	56	7076
2026-01-20 16:36:07.16	359.47	22.72	-42.6	-43.8	21.1	0.00e+00	92	42	0	440401920	58	6281
2026-01-20 16:36:08.16	359.27	22.82	-42.5	-43.7	21.1	0.00e+00	0	42	0	442499072	58	6223
2026-01-20 16:36:09.17	359.07	22.92	-42.4	-43.5	21.4	0.00e+00	0	42	0	444596224	58	6102
2026-01-20 16:36:10.18	358.87	23.02	-42.3	-43.4	21.7	0.00e+00	0	42	0	446693376	58	5989
2026-01-20 16:36:11.19	358.67	23.12	-42.0	-43.1	21.6	0.00e+00	0	42	0	447741952	58	5804
2026-01-20 16:36:12.20	358.47	23.23	-41.8	-42.8	22.0	0.00e+00	24	42	0	449839104	56	6317
2026-01-20 16:36:13.21	358.27	23.33	-41.7	-42.8	22.0	0.00e+00	0	42	0	451936256	56	6261
2026-01-20 16:36:14.22	358.06	23.43	-41.9	-43.0	21.9	0.00e+00	90	42	0	454033408	56	6400
2026-01-20 16:36:15.23	357.85	23.53	-41.9	-43.0	21.9	0.00e+00	0	42	0	456130560	56	6400
2026-01-20 16:36:16.24	357.65	23.64	-41.9	-43.0	21.8	0.00e+00	24	42	0	457179136	56	6417
2026-01-20 16:36:17.25	357.44	23.74	-41.9	-43.1	21.8	0.00e+00	0	42	0	459276288	56	6472
2026-01-20 16:36:18.26	357.23	23.84	-41.9	-43.0	21.4	0.00e+00	0	42	0	461373440	56	6430
2026-01-20 16:36:19.27	357.01	23.94	-42.0	-43.1	21.8	0.00e+00	26	42	0	463470592	56	6508
2026-01-20 16:36:20.28	356.80	24.05	-41.2	-42.2	22.4	0.00e+00	0	42	0	465567744	56	5868
2026-01-20 16:36:21.29	356.58	24.15	-41.1	-42.1	22.6	0.00e+00	92	42	0	466616320	56	5814
2026-01-20 16:36:22.29	356.37	24.25	-41.2	-42.2	22.6	0.00e+00	0	42	0	468713472	56	5830
2026-01-20 16:36:23.30	356.15	24.35	-41.3	-42.3	22.4	0.00e+00	44	42	0	470810624	56	5941
2026-01-20 16:36:24.31	355.93	24.45	-41.6	-42.7	22.0	0.00e+00	0	42	0	472907776	56	6195
2026-01-20 16:36:25.32	355.71	24.56	-41.8	-42.9	21.9	0.00e+00	0	42	0	475004928	56	6327
2026-01-20 16:36:26.32	355.49	24.66	-41.9	-43.0	21.8	0.00e+00	9	42	0	476053504	56	6436
2026-01-20 16:36:27.33	355.27	24.76	-41.5	-42.6	21.9	0.00e+00	0	42	0	478150656	56	6115
2026-01-20 16:36:28.34	355.04	24.86	-41.3	-42.4	22.3	0.00e+00	92	42	0	480247808	56	5968
2026-01-20 16:36:29.35	354.81	24.96	-41.2	-42.2	22.5	0.00e+00	0	42	0	482344960	56	5860
2026-01-20 16:36:30.36	354.59	25.06	-41.3	-42.4	22.4	0.00e+00	88	42	0	484442112	56	5968
2026-01-20 16:36:31.36	354.36	25.16	-41.2	-42.3	22.5	0.00e+00	0	42	0	486539264	56	5918
2026-01-20 16:36:32.37	354.13	25.27	-41.2	-42.2	22.5	0.00e+00	0	42	0	487587840	56	5871
2026-01-20 16:36:33.38	353.89	25.37	-41.4	-42.5	22.3	0.00e+00	0	42	0	489684992	56	6040
2026-01-20 16:36:34.39	353.66	25.47	-41.6	-42.7	22.2	0.00e+00	0	42	0	491782144	56	6179
2026-01-20 16:36:35.40	353.42	25.57	-41.7	-42.7	22.1	0.00e+00	92	42	0	493879296	56	6234
2026-01-20 16:36:36.41	353.19	25.67	-41.8	-42.9	22.0	0.00e+00	0	42	0	495976448	56	6335
2026-01-20 16:36:37.42	352.95	25.77	-41.4	-42.5	22.3	0.00e+00	92	42	0	497025024	56	6057
2026-01-20 16:36:38.43	352.71	25.87	-41.4	-42.4	22.3	0.00e+00	0	42	0	499122176	56	6013
2026-01-20 16:36:39.44	352.47	25.97	-41.2	-42.3	22.2	0.00e+00	0	42	0	501219328	56	5911
2026-01-20 16:36:40.45	352.22	26.07	-41.4	-42.5	22.1	0.00e+00	0	42	0	503316480	56	6041
2026-01-20 16:36:41.46	351.98	26.17	-42.1	-43.2	21.4	0.00e+00	0	42	0	505413632	56	6594
2026-01-20 16:36:42.47	351.73	26.27	-41.9	-43.0	21.6	0.00e+00	21	42	0	506462208	56	6437
2026-01-20 16:36:43.48	351.48	26.37	-42.4	-43.6	21.4	0.00e+00	0	42	0	508559360	56	6920
2026-01-20 16:36:44.49	351.23	26.47	-42.2	-43.4	21.6	0.00e+00	92	42	0	510656512	56	6754
2026-01-20 16:36:45.50	350.98	26.57	-41.8	-42.9	21.9	0.00e+00	0	42	0	512753664	56	6357
2026-01-20 16:36:46.51	350.73	26.67	-41.3	-42.3	22.5	0.00e+00	0	42	0	514850816	56	5900
2026-01-20 16:36:47.52	350.47	26.77	-40.7	-41.6	22.9	0.00e+00	0	42	0	515899392	56	5471
2026-01-20 16:36:48.52	350.22	26.86	-40.5	-41.4	23.1	0.00e+00	0	42	0	517996544	54	5980
2026-01-20 16:36:49.53	349.96	26.96	-40.3	-41.2	23.3	0.00e+00	43	42	0	520093696	54	5894
2026-01-20 16:36:50.54	349.70	27.06	-40.5	-41.4	23.1	0.00e+00	0	42	0	522190848	54	5990
2026-01-20 16:36:51.55	349.44	27.16	-40.2	-41.1	23.2	0.00e+00	92	42	0	524288000	54	5826
2026-01-20 16:36:52.56	349.18	27.25	-40.2	-41.2	23.3	0.00e+00	0	42	0	525336576	54	5831
2026-01-20 16:36:53.57	348.91	27.35	-40.4	-41.3	23.2	0.00e+00	42	42	0	527433728	54	5923
2026-01-20 16:36:54.58	348.65	27.45	-40.4	-41.3	23.2	0.00e+00	0	42	0	529530880	54	5925
2026-01-20 16:36:55.59	348.38	27.54	-40.2	-41.1	23.2	0.00e+00	0	42	0	531628032	54	5812
2026-01-20 16:36:56.60	348.11	27.64	-40.7	-41.7	22.9	0.00e+00	20	42	0	533725184	54	6183
2026-01-20 16:36:57.61	347.84	27.73	-40.9	-41.8	22.7	0.00e+00	0	42	0	534773760	54	6317
2026-01-20 16:36:58.62	347.57	27.83	-41.0	-41.9	22.7	0.00e+00	91	42	0	536870912	54	6378
2026-01-20 16:36:59.63	347.29	27.92	-41.6	-42.6	22.1	0.00e+00	0	42	0	538968064	54	6907
2026-01-20 16:37:00.64	347.02	28.02	-42.0	-43.1	21.8	0.00e+00	78	42	0	541065216	56	6489
2026-01-20 16:37:01.65	346.74	28.11	-42.3	-43.5	21.5	0.00e+00	0	42	0	543162368	56	6819
2026-01-20 16:37:02.66	346.46	28.20	-42.4	-43.6	21.2	0.00e+00	0	42	0	544210944	56	6902
2026-01-20 16:37:03.67	346.18	28.30	-42.5	-43.8	21.0	0.00e+00	29	42	0	546308096	58	6248
2026-01-20 16:37:04.67	345.90	28.39	-43.1	-44.5	20.6	0.00e+00	0	42	0	548405248	58	6805
2026-01-20 16:37:05.68	345.62	28.48	-42.9	-44.2	20.9	0.00e+00	81	42	0	550502400	58	6546
2026-01-20 16:37:06.69	345.33	28.57	-43.1	-44.4	20.5	0.00e+00	0	42	0	552599552	58	6758
2026-01-20 16:37:07.70	345.05	28.66	-43.0	-44.3	20.8	0.00e+00	92	42	0	554696704	58	6629
2026-01-20 16:37:08.71	344.76	28.75	-43.2	-44.5	20.8	0.00e+00	0	42	0	555745280	58	6772
2026-01-20 16:37:09.71	344.47	28.84	-42.6	-43.8	21.4	0.00e+00	0	42	0	557842432	58	6260
2026-01-20 16:37:10.72	344.18	28.93	-41.8	-42.9	22.1	0.00e+00	0	42	0	559939584	58	5657
2026-01-20 16:37:11.73	343.88	29.02	-41.5	-42.5	22.3	0.00e+00	0	42	0	562036736	56	6045
2026-01-20 16:37:12.75	343.59	29.11	-41.6	-42.7	22.1	0.00e+00	50	42	0	564133888	56	6190
2026-01-20 16:37:13.76	343.29	29.20	-42.2	-43.3	21.8	0.00e+00	0	42	0	565182464	56	6646
2026-01-20 16:37:14.76	342.99	29.28	-43.1	-44.4	20.9	0.00e+00	92	42	0	567279616	58	6699
2026-01-20 16:37:15.77	342.69	29.37	-43.2	-44.5	20.6	0.00e+00	0	42	0	569376768	58	6813
2026-01-20 16:37:16.78	342.39	29.45	-43.2	-44.5	20.6	0.00e+00	0	42	0	571473920	58	6843
2026-01-20 16:37:17.78	342.09	29.54	-43.2	-44.5	20.6	0.00e+00	0	42	0	572522496	58	6803
2026-01-20 16:37:18.79	341.79	29.62	-43.0	-44.3	20.7	0.00e+00	0	42	0	574619648	58	6626
2026-01-20 16:37:19.80	341.48	29.71	-43.3	-44.6	20.5	0.00e+00	32	42	0	576716800	58	6924
2026-01-20 16:37:20.81	341.17	29.79	-43.6	-45.0	19.9	0.00e+00	0	42	0	578813952	60	6408
2026-01-20 16:37:21.82	340.86	29.87	-44.4	-46.0	19.1	0.00e+00	75	42	0	580911104	60	7215
2026-01-20 16:37:22.83	340.55	29.95	-45.3	-47.2	18.1	0.00e+00	0	42	0	583008256	60	8290
2026-01-20 16:37:23.84	340.24	30.04	-45.6	-47.6	17.9	0.00e+00	0	42	0	584056832	60	8702
2026-01-20 16:37:24.85	339.92	30.12	-45.7	-47.7	17.7	0.00e+00	0	42	0	586153984	60	8813
2026-01-20 16:37:25.86	339.61	30.20	-45.3	-47.1	18.4	0.00e+00	0	42	0	588251136	60	8162
2026-01-20 16:37:26.86	339.29	30.27	-44.4	-46.0	19.5	0.00e+00	0	42	0	590348288	60	7184
2026-01-20 16:37:27.87	338.97	30.35	-43.6	-44.9	20.5	0.00e+00	0	42	0	592445440	60	6382
2026-01-20 16:37:28.88	338.65	30.43	-43.4	-44.7	20.6	0.00e+00	92	42	0	593494016	60	6202
2026-01-20 16:37:29.89	338.33	30.50	-43.3	-44.5	20.7	0.00e+00	0	42	0	595591168	60	6101
2026-01-20 16:37:30.90	338.00	30.58	-43.8	-45.2	20.0	0.00e+00	0	42	0	597688320	60	6564
2026-01-20 16:37:31.91	337.68	30.65	-43.7	-45.1	20.2	0.00e+00	0	42	0	599785472	60	6496
2026-01-20 16:37:32.92	337.35	30.73	-43.5	-44.8	20.3	0.00e+00	0	42	0	601882624	60	6299
2026-01-20 16:37:33.93	337.02	30.80	-43.2	-44.4	20.8	0.00e+00	0	42	0	602931200	60	6025
2026-01-20 16:37:34.94	336.69	30.87	-42.8	-43.9	21.2	0.00e+00	0	42	0	605028352	58	6371
2026-01-20 16:37:35.95	336.36	30.94	-42.8	-44.0	21.1	0.00e+00	67	42	0	607125504	58	6418
2026-01-20 16:37:36.96	336.03	31.01	-43.0	-44.2	21.0	0.00e+00	0	42	0	609222656	58	6584
2026-01-20 16:37:37.97	335.69	31.08	-43.5	-44.9	20.3	0.00e+00	79	42	0	611319808	58	7106
2026-01-20 16:37:38.98	335.36	31.15	-44.0	-45.4	19.9	0.00e+00	0	42	0	612368384	60	6720
2026-01-20 16:37:39.99	335.02	31.22	-43.5	-44.8	20.3	0.00e+00	0	42	0	614465536	60	6276
2026-01-20 16:37:41.00	334.68	31.29	-43.4	-44.8	20.4	0.00e+00	0	42	0	616562688	60	6247
2026-01-20 16:37:42.01	334.34	31.35	-42.3	-43.4	21.7	0.00e+00	0	42	0	618659840	58	6016
2026-01-20 16:37:43.02	334.00	31.42	-42.4	-43.5	21.5	0.00e+00	27	42	0	620756992	58	6103
2026-01-20 16:37:44.03	333.66	31.48	-42.6	-43.7	21.2	0.00e+00	0	42	0	621805568	58	6242
2026-01-20 16:37:45.03	333.32	31.54	-42.9	-44.1	20.9	0.00e+00	63	42	0	623902720	58	6523
2026-01-20 16:37:46.04	332.97	31.60	-43.1	-44.5	20.7	0.00e+00	0	42	0	625999872	58	6774
2026-01-20 16:37:47.05	332.63	31.66	-43.3	-44.6	20.6	0.00e+00	0	42	0	628097024	58	6921
2026-01-20 16:37:48.06	332.28	31.72	-43.0	-44.2	20.7	0.00e+00	0	42	0	630194176	58	6615
2026-01-20 16:37:49.07	331.93	31.78	-41.7	-42.8	22.1	0.00e+00	0	42	0	631242752	58	5567
2026-01-20 16:37:50.08	331.58	31.84	-41.6	-42.7	22.2	0.00e+00	6	42	0	633339904	56	6178
2026-01-20 16:37:51.09	331.23	31.89	-41.6	-42.6	22.2	0.00e+00	0	42	0	635437056	56	6143
2026-01-20 16:37:52.10	330.87	31.95	-42.3	-43.4	21.6	0.00e+00	90	42	0	637534208	56	6708
2026-01-20 16:37:53.11	330.52	32.00	-43.1	-44.3	20.8	0.00e+00	0	42	0	639631360	58	6676
2026-01-20 16:37:54.12	330.16	32.05	-43.7	-45.1	20.2	0.00e+00	0	42	0	640679936	60	6519
2026-01-20 16:37:55.13	329.81	32.10	-43.1	-44.4	20.8	0.00e+00	0	42	0	642777088	60	6021
2026-01-20 16:37:56.14	329.45	32.15	-42.2	-43.4	21.3	0.00e+00	0	42	0	644874240	58	6005
2026-01-20 16:37:57.15	329.09	32.20	-41.9	-43.0	22.2	0.00e+00	24	42	0	646971392	56	6415
2026-01-20 16:37:58.16	328.73	32.25	-41.1	-42.1	22.7	0.00e+00	0	42	0	649068544	56	5828
2026-01-20 16:37:59.16	328.37	32.30	-41.2	-42.1	22.6	0.00e+00	90	42	0	651165696	56	5820
2026-01-20 16:38:00.17	328.01	32.34	-41.9	-43.0	21.9	0.00e+00	0	42	0	652214272	56	6412
2026-01-20 16:38:01.18	327.65	32.39	-42.5	-43.7	21.4	0.00e+00	78	42	0	654311424	56	6982
2026-01-20 16:38:02.20	327.28	32.43	-42.9	-44.2	20.9	0.00e+00	30	42	0	656408576	58	6554
2026-01-20 16:38:03.20	326.92	32.47	-43.1	-44.4	20.9	0.00e+00	4	42	0	658505728	58	6719
2026-01-20 16:38:04.22	326.55	32.51	-42.3	-43.4	21.6	0.00e+00	35	42	0	660602880	58	6032
2026-01-20 16:38:05.22	326.19	32.55	-41.5	-42.5	22.5	0.00e+00	0	42	0	661651456	56	6055
2026-01-20 16:38:06.24	325.81	32.59	-41.0	-41.9	22.9	0.00e+00	27	42	0	663748608	56	5671
2026-01-20 16:38:07.25	325.45	32.62	-40.9	-41.9	22.9	0.00e+00	0	42	0	665845760	56	5663
2026-01-20 16:38:08.25	325.08	32.66	-41.2	-42.2	22.7	0.00e+00	92	42	0	667942912	56	5840
2026-01-20 16:38:09.26	324.71	32.69	-41.5	-42.5	22.4	0.00e+00	0	42	0	670040064	56	6092
2026-01-20 16:38:10.27	324.34	32.73	-41.6	-42.6	22.4	0.00e+00	0	42	0	671088640	56	6135
2026-01-20 16:38:11.28	323.97	32.76	-40.4	-41.3	23.4	0.00e+00	28	42	0	673185792	54	5918
2026-01-20 16:38:12.29	323.60	32.79	-40.3	-41.1	23.3	0.00e+00	0	42	0	675282944	54	5817
2026-01-20 16:38:13.30	323.22	32.82	-40.8	-41.8	22.8	0.00e+00	24	42	0	677380096	54	6263
2026-01-20 16:38:14.31	322.85	32.84	-41.6	-42.7	22.1	0.00e+00	0	42	0	679477248	54	6962
2026-01-20 16:38:15.32	322.47	32.87	-42.8	-44.1	21.0	0.00e+00	50	42	0	680525824	58	6518
2026-01-20 16:38:16.33	322.10	32.89	-43.5	-44.9	20.3	0.00e+00	0	42	0	682622976	58	7166
2026-01-20 16:38:17.34	321.72	32.92	-43.2	-44.5	20.8	0.00e+00	0	42	0	684720128	58	6776
2026-01-20 16:38:18.35	321.35	32.94	-42.4	-43.5	21.7	0.00e+00	9	42	0	686817280	58	6073
2026-01-20 16:38:19.36	320.97	32.96	-41.9	-43.0	22.1	0.00e+00	0	42	0	688914432	56	6425
2026-01-20 16:38:20.37	320.60	32.98	-41.6	-42.6	22.4	0.00e+00	60	42	0	689963008	56	6127
2026-01-20 16:38:21.38	320.22	32.99	-41.7	-42.8	22.3	0.00e+00	0	42	0	692060160	56	6258
2026-01-20 16:38:22.39	319.84	33.01	-41.8	-42.8	22.2	0.00e+00	55	42	0	694157312	56	6267
2026-01-20 16:38:23.40	319.46	33.02	-41.9	-42.9	22.2	0.00e+00	0	42	0	696254464	56	6381
2026-01-20 16:38:24.40	319.09	33.04	-42.0	-43.0	22.1	0.00e+00	0	42	0	698351616	56	6456
2026-01-20 16:38:25.41	318.71	33.05	-41.9	-42.9	22.3	0.00e+00	0	42	0	699400192	56	6333
2026-01-20 16:38:26.42	318.33	33.06	-41.6	-42.5	22.3	0.00e+00	0	42	0	701497344	56	6100
2026-01-20 16:38:27.43	317.95	33.07	-41.2	-42.1	22.7	0.00e+00	28	42	0	703594496	56	5824
2026-01-20 16:38:28.44	317.57	33.08	-41.3	-42.3	22.6	0.00e+00	0	42	0	705691648	56	5901
2026-01-20 16:38:29.45	317.19	33.08	-41.7	-42.7	22.3	0.00e+00	90	42	0	707788800	56	6226
2026-01-20 16:38:30.46	316.81	33.09	-42.1	-43.2	21.7	0.00e+00	0	42	0	708837376	56	6571
2026-01-20 16:38:31.47	316.43	33.09	-42.8	-44.0	21.0	0.00e+00	0	42	0	710934528	58	6393
2026-01-20 16:38:32.47	316.06	33.09	-43.2	-44.5	20.6	0.00e+00	0	42	0	713031680	58	6809
2026-01-20 16:38:33.48	315.68	33.09	-44.3	-45.7	19.6	0.00e+00	0	42	0	715128832	60	7004
2026-01-20 16:38:34.49	315.30	33.09	-45.2	-47.0	18.6	0.00e+00	52	42	0	717225984	60	8051
2026-01-20 16:38:35.50	314.92	33.09	-44.9	-46.6	18.9	0.00e+00	0	42	0	719323136	60	7746
2026-01-20 16:38:36.51	314.54	33.09	-43.9	-45.3	20.2	0.00e+00	58	42	0	720371712	60	6643
2026-01-20 16:38:37.52	314.16	33.08	-43.3	-44.6	20.8	0.00e+00	0	42	0	722468864	60	6133
2026-01-20 16:38:38.53	313.78	33.07	-43.1	-44.3	20.8	0.00e+00	0	42	0	724566016	60	5949
2026-01-20 16:38:39.53	313.40	33.07	-43.0	-44.2	21.2	0.00e+00	0	42	0	726663168	60	5890
2026-01-20 16:38:40.54	313.02	33.06	-42.5	-43.6	21.5	0.00e+00	0	42	0	728760320	58	6170
2026-01-20 16:38:41.56	312.64	33.05	-42.2	-43.3	21.9	0.00e+00	20	42	0	729808896	58	5962
2026-01-20 16:38:42.56	312.26	33.03	-42.1	-43.2	21.2	0.00e+00	0	42	0	731906048	58	5844
2026-01-20 16:38:43.57	311.89	33.02	-41.9	-42.9	22.2	0.00e+00	92	42	0	734003200	58	5671
2026-01-20 16:38:44.58	311.51	33.01	-42.0	-43.0	21.8	0.00e+00	0	42	0	736100352	58	5738
2026-01-20 16:38:45.59	311.13	32.99	-42.0	-43.0	22.0	0.00e+00	69	42	0	738197504	58	5746
2026-01-20 16:38:46.60	310.75	32.97	-42.5	-43.6	21.8	0.00e+00	0	42	0	739246080	58	6155
2026-01-20 16:38:47.61	310.38	32.95	-42.7	-43.8	21.8	0.00e+00	0	42	0	741343232	58	6306
2026-01-20 16:38:48.62	310.00	32.93	-42.7	-43.9	21.3	0.00e+00	0	42	0	743440384	58	6348
2026-01-20 16:38:49.63	309.62	32.91	-42.8	-44.0	21.3	0.00e+00	0	42	0	745537536	58	6405
2026-01-20 16:38:50.64	309.25	32.88	-43.0	-44.2	21.1	0.00e+00	23	42	0	747634688	58	6594
2026-01-20 16:38:51.65	308.87	32.86	-42.8	-44.0	21.3	0.00e+00	0	42	0	748683264	58	6407
2026-01-20 16:38:52.66	308.50	32.83	-43.2	-44.5	20.9	0.00e+00	92	42	0	750780416	58	6814
2026-01-20 16:38:53.67	308.12	32.81	-43.4	-44.7	20.7	0.00e+00	0	42	0	752877568	60	6179
2026-01-20 16:38:54.67	307.76	32.78	-43.8	-45.2	20.2	0.00e+00	0	42	0	754974720	60	6564
2026-01-20 16:38:55.68	307.38	32.75	-43.2	-44.4	21.0	0.00e+00	0	42	0	757071872	60	6025
2026-01-20 16:38:56.69	307.01	32.72	-43.2	-44.5	20.9	0.00e+00	0	42	0	758120448	60	6037
2026-01-20 16:38:57.70	306.64	32.68	-43.0	-44.2	21.0	0.00e+00	29	42	0	760217600	60	5896
2026-01-20 16:38:58.71	306.27	32.65	-42.5	-43.6	21.6	0.00e+00	0	42	0	762314752	58	6155
2026-01-20 16:38:59.71	305.90	32.61	-42.6	-43.8	21.4	0.00e+00	76	42	0	764411904	58	6272
2026-01-20 16:39:00.72	305.54	32.58	-42.3	-43.5	21.7	0.00e+00	0	42	0	766509056	58	6051
2026-01-20 16:39:01.73	305.17	32.54	-42.6	-43.8	21.3	0.00e+00	0	42	0	767557632	58	6289
2026-01-20 16:39:02.74	304.80	32.50	-42.8	-44.0	21.2	0.00e+00	0	42	0	769654784	58	6435
2026-01-20 16:39:03.75	304.44	32.46	-42.3	-43.4	21.7	0.00e+00	0	42	0	771751936	58	6003
2026-01-20 16:39:04.76	304.07	32.42	-42.7	-43.9	21.3	0.00e+00	26	42	0	773849088	58	6365
2026-01-20 16:39:05.77	303.71	32.37	-42.4	-43.6	21.4	0.00e+00	0	42	0	775946240	58	6116
2026-01-20 16:39:06.78	303.34	32.33	-42.1	-43.2	22.1	0.00e+00	92	42	0	776994816	58	5862
2026-01-20 16:39:07.79	302.98	32.28	-41.8	-42.8	22.2	0.00e+00	0	42	0	779091968	58	5601
2026-01-20 16:39:08.80	302.62	32.23	-41.6	-42.7	22.2	0.00e+00	0	42	0	781189120	56	6188
2026-01-20 16:39:09.80	302.26	32.19	-41.7	-42.8	22.4	0.00e+00	0	42	0	783286272	56	6273
2026-01-20 16:39:10.81	301.91	32.14	-41.9	-43.0	22.3	0.00e+00	0	42	0	785383424	56	6396
2026-01-20 16:39:11.82	301.55	32.09	-42.0	-43.1	21.9	0.00e+00	28	42	0	786432000	56	6495
2026-01-20 16:39:12.83	301.19	32.04	-42.5	-43.7	21.4	0.00e+00	0	42	0	788529152	56	6942
2026-01-20 16:39:13.84	300.84	31.98	-42.3	-43.5	21.7	0.00e+00	24	42	0	790626304	56	6784
2026-01-20 16:39:14.85	300.48	31.93	-41.9	-43.0	22.1	0.00e+00	0	42	0	792723456	56	6420
2026-01-20 16:39:15.86	300.13	31.87	-42.2	-43.3	21.8	0.00e+00	18	42	0	794820608	56	6683
2026-01-20 16:39:16.87	299.78	31.82	-42.6	-43.8	21.5	0.00e+00	0	42	0	795869184	56	7079
2026-01-20 16:39:17.88	299.43	31.76	-42.6	-43.9	21.2	0.00e+00	0	42	0	797966336	58	6353
2026-01-20 16:39:18.88	299.08	31.70	-42.3	-43.5	21.6	0.00e+00	9	42	0	800063488	58	6090
2026-01-20 16:39:19.90	298.73	31.64	-41.9	-42.9	22.1	0.00e+00	0	42	0	802160640	58	5695
2026-01-20 16:39:20.91	298.38	31.58	-41.5	-42.5	22.5	0.00e+00	90	42	0	804257792	56	6096
2026-01-20 16:39:21.92	298.04	31.52	-41.4	-42.4	22.5	0.00e+00	0	42	0	805306368	56	6015
2026-01-20 16:39:22.92	297.70	31.46	-41.3	-42.3	22.6	0.00e+00	90	42	0	807403520	56	5931
2026-01-20 16:39:23.93	297.35	31.39	-41.3	-42.3	22.8	0.00e+00	0	42	0	809500672	56	5902
2026-01-20 16:39:24.94	297.01	31.33	-41.4	-42.5	22.4	0.00e+00	0	42	0	811597824	56	6055
2026-01-20 16:39:25.95	296.67	31.26	-42.0	-43.0	22.0	0.00e+00	0	42	0	813694976	56	6432
2026-01-20 16:39:26.96	296.33	31.20	-42.2	-43.3	21.8	0.00e+00	0	42	0	815792128	56	6624
2026-01-20 16:39:27.97	296.00	31.13	-42.6	-43.7	21.5	0.00e+00	26	42	0	816840704	56	6993
2026-01-20 16:39:28.98	295.66	31.06	-42.3	-43.4	21.7	0.00e+00	0	42	0	818937856	56	6715
2026-01-20 16:39:29.99	295.32	30.99	-42.5	-43.6	21.6	0.00e+00	92	42	0	821035008	56	6925
2026-01-20 16:39:31.00	294.99	30.92	-42.7	-43.9	21.2	0.00e+00	0	42	0	823132160	58	6356
2026-01-20 16:39:32.01	294.66	30.85	-43.0	-44.2	21.0	0.00e+00	0	42	0	825229312	58	6560
2026-01-20 16:39:33.02	294.33	30.78	-42.8	-44.0	21.2	0.00e+00	0	42	0	826277888	58	6435
2026-01-20 16:39:34.02	294.00	30.70	-43.2	-44.4	20.7	0.00e+00	0	42	0	828375040	58	6736
2026-01-20 16:39:35.03	293.68	30.63	-42.8	-44.0	21.1	0.00e+00	60	42	0	830472192	58	6407
2026-01-20 16:39:36.04	293.35	30.55	-42.8	-43.9	21.2	0.00e+00	0	42	0	832569344	58	6379
2026-01-20 16:39:37.05	293.03	30.48	-42.9	-44.1	21.0	0.00e+00	28	42	0	834666496	58	6538
2026-01-20 16:39:38.06	292.71	30.40	-43.2	-44.5	20.8	0.00e+00	0	42	0	835715072	58	6780
2026-01-20 16:39:39.07	292.38	30.32	-43.3	-44.5	20.7	0.00e+00	12	42	0	837812224	58	6834
2026-01-20 16:39:40.08	292.07	30.25	-43.4	-44.7	20.5	0.00e+00	0	42	0	839909376	58	6982
2026-01-20 16:39:41.09	291.75	30.17	-43.1	-44.3	20.8	0.00e+00	0	42	0	842006528	58	6688
2026-01-20 16:39:42.10	291.43	30.09	-43.1	-44.3	20.9	0.00e+00	73	42	0	844103680	58	6660
2026-01-20 16:39:43.11	291.12	30.01	-42.7	-43.8	21.3	0.00e+00	0	42	0	845152256	58	6311
2026-01-20 16:39:44.11	290.81	29.92	-42.6	-43.8	21.4	0.00e+00	64	42	0	847249408	58	6253
2026-01-20 16:39:45.12	290.49	29.84	-42.7	-43.9	21.2	0.00e+00	0	42	0	849346560	58	6367
2026-01-20 16:39:46.13	290.18	29.76	-42.8	-44.0	21.2	0.00e+00	74	42	0	851443712	58	6407
2026-01-20 16:39:47.14	289.88	29.68	-43.1	-44.3	20.9	0.00e+00	0	42	0	853540864	58	6676
2026-01-20 16:39:48.15	289.57	29.59	-42.6	-43.7	21.4	0.00e+00	0	42	0	854589440	58	6221
2026-01-20 16:39:49.16	289.26	29.51	-42.3	-43.4	21.7	0.00e+00	0	42	0	856686592	58	6028
2026-01-20 16:39:50.17	288.96	29.42	-42.2	-43.3	21.8	0.00e+00	29	42	0	858783744	58	5948
2026-01-20 16:39:51.18	288.66	29.34	-41.6	-42.7	22.2	0.00e+00	91	42	0	860880896	58	5506
2026-01-20 16:39:52.19	288.36	29.25	-40.8	-41.7	23.2	0.00e+00	0	42	0	862978048	56	5527
2026-01-20 16:39:53.20	288.06	29.16	-40.2	-41.1	23.6	0.00e+00	92	42	0	864026624	54	5773
2026-01-20 16:39:54.21	287.76	29.07	-39.5	-40.3	23.9	0.00e+00	0	42	0	866123776	52	5906
2026-01-20 16:39:55.22	287.47	28.99	-40.1	-41.0	23.7	0.00e+00	29	42	0	868220928	52	6406
2026-01-20 16:39:56.23	287.17	28.90	-40.4	-41.3	23.4	0.00e+00	5	42	0	870318080	52	6637
2026-01-20 16:39:57.23	286.88	28.81	-40.9	-41.8	22.9	0.00e+00	0	42	0	872415232	54	6309
2026-01-20 16:39:58.24	286.59	28.72	-40.9	-41.9	22.8	0.00e+00	26	42	0	873463808	54	6348
2026-01-20 16:39:59.25	286.30	28.63	-41.7	-42.7	22.3	0.00e+00	29	42	0	875560960	54	6989
2026-01-20 16:40:00.26	286.02	28.54	-42.6	-43.7	21.3	0.00e+00	92	42	0	877658112	56	6962
2026-01-20 16:40:01.27	285.73	28.44	-43.5	-44.8	20.5	0.00e+00	0	42	0	879755264	58	7045
2026-01-20 16:40:02.28	285.45	28.35	-43.1	-44.3	21.1	0.00e+00	0	42	0	881852416	58	6678
2026-01-20 16:40:03.30	285.16	28.26	-41.8	-42.8	22.3	0.00e+00	0	42	0	883949568	58	5612
2026-01-20 16:40:04.30	284.89	28.17	-41.3	-42.2	22.7	0.00e+00	0	42	0	884998144	56	5879
2026-01-20 16:40:05.31	284.61	28.07	-41.7	-42.7	22.3	0.00e+00	28	42	0	887095296	56	6244
2026-01-20 16:40:06.32	284.33	27.98	-41.9	-42.9	22.0	0.00e+00	29	42	0	889192448	56	6388
2026-01-20 16:40:07.33	284.05	27.88	-43.0	-44.3	20.9	0.00e+00	90	42	0	891289600	58	6640
2026-01-20 16:40:08.34	283.78	27.79	-44.1	-45.6	19.6	0.00e+00	0	42	0	892338176	60	6877
2026-01-20 16:40:09.35	283.51	27.69	-44.5	-46.1	19.3	0.00e+00	0	42	0	894435328	60	7316
2026-01-20 16:40:10.36	283.24	27.60	-43.7	-45.1	20.2	0.00e+00	0	42	0	896532480	60	6520
2026-01-20 16:40:11.37	282.97	27.50	-43.7	-45.1	20.2	0.00e+00	0	42	0	898629632	60	6539
2026-01-20 16:40:12.38	282.70	27.41	-43.5	-44.8	20.5	0.00e+00	22	42	0	900726784	60	6308
2026-01-20 16:40:13.39	282.43	27.31	-43.2	-44.4	20.9	0.00e+00	0	42	0	901775360	60	6004
2026-01-20 16:40:14.40	282.17	27.21	-42.5	-43.7	21.5	0.00e+00	92	42	0	903872512	58	6214
2026-01-20 16:40:15.40	281.91	27.12	-41.9	-43.0	22.1	0.00e+00	0	42	0	905969664	58	5726
2026-01-20 16:40:16.41	281.65	27.02	-41.9	-43.0	22.1	0.00e+00	78	42	0	908066816	58	5704
2026-01-20 16:40:17.42	281.39	26.92	-42.0	-43.1	21.9	0.00e+00	0	42	0	910163968	58	5805
2026-01-20 16:40:18.43	281.13	26.82	-41.8	-42.9	22.0	0.00e+00	0	42	0	912261120	58	5683
2026-01-20 16:40:19.44	280.87	26.72	-41.9	-43.0	22.3	0.00e+00	21	42	0	913309696	56	6437
2026-01-20 16:40:20.45	280.62	26.62	-41.5	-42.4	22.5	0.00e+00	0	42	0	915406848	56	6024
2026-01-20 16:40:21.46	280.37	26.53	-40.6	-41.5	23.3	0.00e+00	66	42	0	917504000	54	6054
2026-01-20 16:40:22.47	280.11	26.43	-40.2	-41.1	23.4	0.00e+00	0	42	0	919601152	54	5768
2026-01-20 16:40:23.48	279.86	26.33	-40.3	-41.1	23.6	0.00e+00	92	42	0	921698304	54	5819
2026-01-20 16:40:24.49	279.62	26.23	-40.1	-40.9	23.6	0.00e+00	0	42	0	922746880	54	5677
2026-01-20 16:40:25.50	279.37	26.13	-40.0	-40.9	23.6	0.00e+00	0	42	0	924844032	54	5643
2026-01-20 16:40:26.50	279.13	26.03	-40.1	-41.0	23.6	0.00e+00	0	42	0	926941184	54	5728
2026-01-20 16:40:27.51	278.88	25.93	-40.2	-41.1	23.5	0.00e+00	0	42	0	929038336	54	5779
2026-01-20 16:40:28.52	278.64	25.83	-40.3	-41.2	23.3	0.00e+00	91	42	0	931135488	54	5870
2026-01-20 16:40:29.53	278.40	25.72	-40.6	-41.5	23.2	0.00e+00	0	42	0	932184064	54	6097
2026-01-20 16:40:30.54	278.16	25.62	-41.0	-41.9	22.8	0.00e+00	91	42	0	934281216	54	6384
2026-01-20 16:40:31.55	277.92	25.52	-41.2	-42.2	22.8	0.00e+00	0	42	0	936378368	54	6580
2026-01-20 16:40:32.56	277.69	25.42	-41.3	-42.3	22.4	0.00e+00	0	42	0	938475520	54	6684
2026-01-20 16:40:33.57	277.45	25.32	-41.3	-42.3	22.6	0.00e+00	0	42	0	940572672	54	6691
2026-01-20 16:40:34.58	277.22	25.22	-41.3	-42.3	22.4	0.00e+00	0	42	0	941621248	54	6672
2026-01-20 16:40:35.59	276.99	25.12	-41.4	-42.4	22.5	0.00e+00	71	42	0	943718400	54	6729
2026-01-20 16:40:36.59	276.76	25.02	-41.1	-42.1	22.8	0.00e+00	0	42	0	945815552	54	6469
2026-01-20 16:40:37.60	276.53	24.91	-41.1	-42.1	22.8	0.00e+00	39	42	0	947912704	54	6518
2026-01-20 16:40:38.61	276.31	24.81	-41.1	-42.1	22.7	0.00e+00	0	42	0	950009856	54	6504
2026-01-20 16:40:39.62	276.08	24.71	-41.1	-42.1	22.7	0.00e+00	0	42	0	951058432	54	6527
2026-01-20 16:40:40.63	275.86	24.61	-41.0	-42.0	22.8	0.00e+00	0	42	0	953155584	54	6394
2026-01-20 16:40:41.64	275.63	24.50	-40.9	-41.9	22.8	0.00e+00	0	42	0	955252736	54	6349
2026-01-20 16:40:42.65	275.41	24.40	-40.6	-41.5	23.2	0.00e+00	82	42	0	957349888	54	6081
2026-01-20 16:40:43.66	275.19	24.30	-39.8	-40.7	23.8	0.00e+00	0	42	0	959447040	54	5537
2026-01-20 16:40:44.67	274.97	24.20	-39.5	-40.3	24.0	0.00e+00	76	42	0	960495616	52	5941
2026-01-20 16:40:45.68	274.76	24.09	-39.2	-40.0	24.2	0.00e+00	0	42	0	962592768	52	5735
2026-01-20 16:40:46.69	274.54	23.99	-39.0	-39.8	24.4	0.00e+00	0	42	0	964689920	52	5609
2026-01-20 16:40:47.70	274.33	23.89	-38.9	-39.7	24.3	0.00e+00	0	42	0	966787072	52	5517
2026-01-20 16:40:48.71	274.12	23.79	-38.8	-39.6	24.5	0.00e+00	0	42	0	968884224	52	5484
2026-01-20 16:40:49.72	273.90	23.68	-39.1	-39.9	24.3	0.00e+00	21	42	0	969932800	52	5681
2026-01-20 16:40:50.73	273.69	23.58	-39.8	-40.6	23.7	0.00e+00	0	42	0	972029952	52	6165
2026-01-20 16:40:51.74	273.49	23.48	-40.0	-40.9	23.6	0.00e+00	92	43	0	974127104	52	6349
2026-01-20 16:40:52.75	273.28	23.38	-40.1	-41.0	23.5	0.00e+00	0	42	0	976224256	52	6454
2026-01-20 16:40:53.76	273.07	23.27	-40.2	-41.1	23.5	0.00e+00	0	42	0	978321408	52	6491
2026-01-20 16:40:54.77	272.87	23.17	-40.2	-41.1	23.5	0.00e+00	0	42	0	980418560	52	6519
2026-01-20 16:40:55.78	272.67	23.07	-39.9	-40.7	23.7	0.00e+00	0	42	0	981467136	52	6241
2026-01-20 16:40:56.79	272.46	22.97	-39.7	-40.5	23.9	0.00e+00	0	42	0	983564288	52	6087
2026-01-20 16:40:57.80	272.26	22.86	-39.7	-40.5	23.9	0.00e+00	0	43	0	985661440	52	6079
2026-01-20 16:40:58.81	272.07	22.76	-39.9	-40.7	23.7	0.00e+00	36	42	0	987758592	52	6242
2026-01-20 16:40:59.82	271.87	22.66	-40.0	-40.9	23.7	0.00e+00	0	43	0	989855744	52	6321
2026-01-20 16:41:00.83	271.67	22.55	-39.9	-40.8	23.7	0.00e+00	73	42	0	990904320	52	6266
2026-01-20 16:41:01.83	271.48	22.45	-39.9	-40.8	23.7	0.00e+00	0	42	0	993001472	52	6289
2026-01-20 16:41:02.84	271.28	22.35	-39.9	-40.8	23.7	0.00e+00	0	42	0	995098624	52	6279
2026-01-20 16:41:03.85	271.09	22.25	-40.0	-40.9	23.5	0.00e+00	0	43	0	997195776	52	6333
2026-01-20 16:41:04.86	270.90	22.15	-40.1	-41.0	23.4	0.00e+00	0	42	0	999292928	52	6431
2026-01-20 16:41:05.88	270.71	22.04	-40.5	-41.4	23.2	0.00e+00	74	43	0	1000341504	52	6762
2026-01-20 16:41:06.88	270.52	21.94	-40.1	-41.0	23.5	0.00e+00	0	42	0	1002438656	52	6441
2026-01-20 16:41:07.89	270.34	21.84	-40.2	-41.1	23.5	0.00e+00	92	42	0	1004535808	52	6484
2026-01-20 16:41:08.91	270.15	21.74	-40.0	-40.8	23.7	0.00e+00	0	42	0	1006632960	52	6314
2026-01-20 16:41:09.91	269.96	21.64	-40.1	-41.0	23.5	0.00e+00	0	42	0	1008730112	52	6443
2026-01-20 16:41:10.92	269.78	21.53	-39.5	-40.4	24.0	0.00e+00	0	42	0	1009778688	52	5967
2026-01-20 16:41:11.93	269.60	21.43	-39.2	-40.0	24.1	0.00e+00	0	42	0	1011875840	52	5738
2026-01-20 16:41:12.94	269.42	21.33	-39.2	-40.0	24.2	0.00e+00	24	42	0	1013972992	52	5743
2026-01-20 16:41:13.95	269.24	21.23	-39.5	-40.4	23.9	0.00e+00	0	42	0	1016070144	52	5976
2026-01-20 16:41:14.95	269.06	21.13	-40.0	-40.9	23.6	0.00e+00	86	42	0	1018167296	52	6333
2026-01-20 16:41:15.96	268.88	21.03	-40.0	-40.9	23.2	0.00e+00	0	43	0	1019215872	52	6346
2026-01-20 16:41:16.97	268.71	20.93	-40.0	-40.9	23.3	0.00e+00	0	42	0	1021313024	52	6353
2026-01-20 16:41:17.98	268.53	20.82	-40.2	-41.1	23.3	0.00e+00	0	43	0	1023410176	52	6527
2026-01-20 16:41:18.99	268.36	20.72	-40.3	-41.3	23.1	0.00e+00	0	42	0	1025507328	52	6618
2026-01-20 16:41:20.00	268.18	20.62	-40.0	-40.9	22.8	0.00e+00	25	42	0	1027604480	52	6333
2026-01-20 16:41:21.01	268.01	20.52	-40.0	-40.9	23.4	0.00e+00	0	42	0	1028653056	52	6355
2026-01-20 16:41:22.02	267.84	20.42	-40.0	-40.9	23.5	0.00e+00	92	43	0	1030750208	52	6357
2026-01-20 16:41:23.03	267.67	20.32	-39.7	-40.5	23.7	0.00e+00	0	43	0	1032847360	52	6071
2026-01-20 16:41:24.03	267.50	20.22	-39.5	-40.3	24.0	0.00e+00	0	42	0	1034944512	52	5935
2026-01-20 16:41:25.05	267.34	20.12	-39.4	-40.3	24.0	0.00e+00	0	42	0	1037041664	52	5900
2026-01-20 16:41:26.06	267.17	20.02	-39.3	-40.1	24.2	0.00e+00	0	42	0	1038090240	52	5787
2026-01-20 16:41:27.07	267.00	19.92	-39.5	-40.3	23.9	0.00e+00	0	42	0	1040187392	52	5964
2026-01-20 16:41:28.08	266.84	19.82	-39.6	-40.5	23.8	0.00e+00	0	42	0	1042284544	52	6039
2026-01-20 16:41:29.09	266.68	19.72	-39.7	-40.6	23.7	0.00e+00	92	43	0	1044381696	52	6119
2026-01-20 16:41:30.09	266.52	19.62	-40.3	-41.1	23.3	0.00e+00	0	42	0	1046478848	52	6537
2026-01-20 16:41:31.10	266.36	19.52	-40.6	-41.5	23.0	0.00e+00	69	42	0	1047527424	52	6833
2026-01-20 16:41:32.12	266.19	19.42	-41.0	-42.0	22.6	0.00e+00	0	42	0	1049624576	54	6406
2026-01-20 16:41:33.13	266.04	19.32	-41.4	-42.4	22.2	0.00e+00	0	42	0	1051721728	54	6765
2026-01-20 16:41:34.13	265.88	19.23	-41.8	-42.8	21.8	0.00e+00	0	42	0	1053818880	54	7071
2026-01-20 16:41:35.14	265.72	19.13	-41.6	-42.7	22.2	0.00e+00	0	43	0	1055916032	56	6193
2026-01-20 16:41:36.15	265.57	19.03	-41.4	-42.4	22.4	0.00e+00	91	42	0	1058013184	56	6019
2026-01-20 16:41:37.16	265.41	18.93	-41.2	-42.2	22.6	0.00e+00	0	42	0	1059061760	56	5886
2026-01-20 16:41:38.18	265.26	18.83	-40.9	-41.9	22.9	0.00e+00	83	42	0	1061158912	56	5636
2026-01-20 16:41:39.18	265.11	18.74	-40.4	-41.4	22.9	0.00e+00	0	42	0	1063256064	54	5969
2026-01-20 16:41:40.20	264.95	18.64	-40.2	-41.1	23.3	0.00e+00	21	42	0	1065353216	54	5794
2026-01-20 16:41:41.20	264.80	18.54	-40.5	-41.4	23.2	0.00e+00	0	42	0	1067450368	54	5992
2026-01-20 16:41:42.21	264.65	18.44	-40.3	-41.2	23.2	0.00e+00	0	42	0	1068498944	54	5882
2026-01-20 16:41:43.22	264.51	18.35	-41.0	-41.9	22.7	0.00e+00	19	42	0	1070596096	54	6384
2026-01-20 16:41:44.23	264.36	18.25	-41.0	-42.0	22.7	0.00e+00	0	42	0	1072693248	54	6430
2026-01-20 16:41:45.24	264.21	18.15	-41.3	-42.3	22.2	0.00e+00	92	43	0	1074790400	54	6648
2026-01-20 16:41:46.25	264.06	18.05	-41.6	-42.7	22.1	0.00e+00	0	42	0	1076887552	54	6965
2026-01-20 16:41:47.26	263.92	17.96	-41.3	-42.4	22.1	0.00e+00	0	42	0	1077936128	54	6698
2026-01-20 16:41:48.27	263.78	17.86	-41.8	-42.9	21.8	0.00e+00	0	42	0	1080033280	56	6374
2026-01-20 16:41:49.28	263.63	17.77	-41.3	-42.3	22.4	0.00e+00	0	42	0	1082130432	56	5940
2026-01-20 16:41:50.29	263.49	17.67	-41.4	-42.5	22.4	0.00e+00	22	42	0	1084227584	56	6045
2026-01-20 16:41:51.30	263.35	17.57	-41.1	-42.0	22.6	0.00e+00	0	42	0	1086324736	56	5754
2026-01-20 16:41:52.31	263.21	17.48	-41.2	-42.2	22.4	0.00e+00	90	42	0	1087373312	56	5841
2026-01-20 16:41:53.32	263.07	17.38	-40.4	-41.4	23.1	0.00e+00	0	42	0	1089470464	54	5971
2026-01-20 16:41:54.33	262.93	17.29	-40.4	-41.4	23.0	0.00e+00	0	43	0	1091567616	54	5990
2026-01-20 16:41:55.34	262.79	17.19	-40.2	-41.1	23.3	0.00e+00	0	42	0	1093664768	54	5811
2026-01-20 16:41:56.35	262.66	17.10	-40.4	-41.3	23.1	0.00e+00	0	43	0	1095761920	54	5946
2026-01-20 16:41:57.36	262.52	17.00	-40.6	-41.5	22.8	0.00e+00	23	42	0	1096810496	54	6091
2026-01-20 16:41:58.37	262.39	16.91	-40.4	-41.3	23.1	0.00e+00	0	42	0	1098907648	54	5950
2026-01-20 16:41:59.38	262.25	16.81	-40.5	-41.4	22.9	0.00e+00	92	42	0	1101004800	54	6027
2026-01-20 16:42:00.39	262.12	16.72	-40.6	-41.5	22.9	0.00e+00	0	42	0	1103101952	54	6076
2026-01-20 16:42:01.40	261.99	16.63	-40.6	-41.5	23.0	0.00e+00	25	42	0	1105199104	54	6073
2026-01-20 16:42:02.41	261.85	16.53	-40.7	-41.7	22.9	0.00e+00	0	42	0	1106247680	54	6192
2026-01-20 16:42:03.42	261.72	16.44	-40.9	-41.9	22.6	0.00e+00	0	42	0	1108344832	54	6324
2026-01-20 16:42:04.43	261.59	16.35	-40.7	-41.7	22.8	0.00e+00	17	43	0	1110441984	54	6186
2026-01-20 16:42:05.44	261.46	16.25	-40.2	-41.1	23.3	0.00e+00	0	42	0	1112539136	54	5795
2026-01-20 16:42:06.45	261.34	16.16	-40.6	-41.5	22.9	0.00e+00	90	42	0	1114636288	54	6052
2026-01-20 16:42:07.46	261.21	16.07	-40.2	-41.1	23.2	0.00e+00	0	42	0	1115684864	54	5827
2026-01-20 16:42:08.46	261.08	15.98	-40.2	-41.1	23.3	0.00e+00	29	42	0	1117782016	54	5766
2026-01-20 16:42:09.47	260.96	15.89	-40.1	-41.0	23.3	0.00e+00	0	42	0	1119879168	54	5752
2026-01-20 16:42:10.48	260.83	15.79	-40.4	-41.3	23.1	0.00e+00	0	42	0	1121976320	54	5907
2026-01-20 16:42:11.49	260.71	15.70	-40.5	-41.4	22.9	0.00e+00	2	42	0	1124073472	54	6007
2026-01-20 16:42:12.50	260.58	15.61	-40.2	-41.1	23.3	0.00e+00	0	42	0	1126170624	54	5785
2026-01-20 16:42:13.51	260.46	15.52	-40.7	-41.6	22.9	0.00e+00	4	42	0	1127219200	54	6136
2026-01-20 16:42:14.52	260.34	15.43	-41.3	-42.3	22.2	0.00e+00	0	42	0	1129316352	54	6659
2026-01-20 16:42:15.53	260.22	15.34	-41.4	-42.5	22.1	0.00e+00	71	42	0	1131413504	54	6795
2026-01-20 16:42:16.54	260.10	15.25	-42.1	-43.3	21.6	0.00e+00	0	42	0	1133510656	56	6625
2026-01-20 16:42:17.55	259.98	15.16	-42.6	-43.8	21.0	0.00e+00	0	42	0	1135607808	56	7029
2026-01-20 16:42:18.56	259.86	15.06	-43.0	-44.3	20.6	0.00e+00	0	42	0	1136656384	58	6624
2026-01-20 16:42:19.57	259.74	14.97	-42.9	-44.2	20.6	0.00e+00	0	42	0	1138753536	58	6544
2026-01-20 16:42:20.58	259.62	14.88	-42.7	-43.9	20.8	0.00e+00	12	42	0	1140850688	58	6338
2026-01-20 16:42:21.59	259.51	14.80	-42.2	-43.3	21.4	0.00e+00	0	42	0	1142947840	58	5914
2026-01-20 16:42:22.60	259.39	14.71	-41.8	-42.8	21.9	0.00e+00	66	42	0	1145044992	58	5617
2026-01-20 16:42:23.61	259.27	14.62	-41.3	-42.2	22.4	0.00e+00	0	42	0	1146093568	56	5883
2026-01-20 16:42:24.61	259.16	14.53	-41.0	-42.0	22.5	0.00e+00	0	42	0	1148190720	56	5733
2026-01-20 16:42:25.62	259.05	14.44	-40.7	-41.6	22.8	0.00e+00	0	42	0	1150287872	56	5487
2026-01-20 16:42:26.63	258.93	14.35	-40.0	-40.8	23.3	0.00e+00	0	42	0	1152385024	54	5624
2026-01-20 16:42:27.64	258.82	14.26	-39.8	-40.7	23.3	0.00e+00	91	42	0	1154482176	54	5518
2026-01-20 16:42:28.65	258.71	14.17	-40.0	-40.9	23.2	0.00e+00	0	42	0	1155530752	54	5684
2026-01-20 16:42:29.66	258.60	14.09	-40.0	-40.9	23.3	0.00e+00	92	42	0	1157627904	54	5673
2026-01-20 16:42:30.67	258.49	14.00	-40.2	-41.1	22.9	0.00e+00	0	42	0	1159725056	54	5826
2026-01-20 16:42:31.68	258.38	13.91	-40.6	-41.6	22.6	0.00e+00	0	42	0	1161822208	54	6113
2026-01-20 16:42:32.69	258.27	13.82	-41.2	-42.2	22.2	0.00e+00	0	42	0	1163919360	54	6571
2026-01-20 16:42:33.70	258.16	13.74	-41.5	-42.5	21.9	0.00e+00	0	42	0	1164967936	54	6839
2026-01-20 16:42:34.71	258.05	13.65	-41.9	-43.1	21.6	0.00e+00	68	42	0	1167065088	56	6492
2026-01-20 16:42:35.71	257.94	13.56	-42.5	-43.7	21.1	0.00e+00	0	42	0	1169162240	56	6950
2026-01-20 16:42:36.73	257.84	13.48	-42.7	-43.9	20.8	0.00e+00	92	42	0	1171259392	56	7132
2026-01-20 16:42:37.73	257.73	13.39	-42.8	-44.1	20.6	0.00e+00	0	42	0	1173356544	58	6486
2026-01-20 16:42:38.75	257.62	13.30	-42.9	-44.1	20.5	0.00e+00	0	42	0	1174405120	58	6539
2026-01-20 16:42:39.76	257.52	13.22	-43.1	-44.4	20.3	0.00e+00	0	42	0	1176502272	58	6768
2026-01-20 16:42:40.76	257.42	13.13	-42.7	-43.9	20.8	0.00e+00	0	42	0	1178599424	58	6367
2026-01-20 16:42:41.77	257.31	13.05	-42.9	-44.2	20.6	0.00e+00	0	42	0	1180696576	58	6552
2026-01-20 16:42:42.78	257.21	12.96	-42.6	-43.8	20.7	0.00e+00	0	42	0	1182793728	58	6300
2026-01-20 16:42:43.80	257.11	12.88	-42.9	-44.2	20.6	0.00e+00	92	42	0	1183842304	58	6555
2026-01-20 16:42:44.80	257.01	12.79	-42.9	-44.2	20.6	0.00e+00	0	42	0	1185939456	58	6556
2026-01-20 16:42:45.81	256.90	12.71	-42.8	-44.0	20.7	0.00e+00	78	42	0	1188036608	58	6434
2026-01-20 16:42:46.83	256.80	12.62	-42.3	-43.5	21.2	0.00e+00	0	42	0	1190133760	58	6044
2026-01-20 16:42:47.84	256.70	12.54	-42.7	-43.9	20.7	0.00e+00	0	42	0	1192230912	58	6371
2026-01-20 16:42:48.85	256.60	12.45	-42.6	-43.8	20.8	0.00e+00	0	42	0	1194328064	58	6266
2026-01-20 16:42:49.86	256.51	12.37	-42.3	-43.5	21.1	0.00e+00	0	42	0	1195376640	58	6077
2026-01-20 16:42:50.87	256.41	12.29	-42.1	-43.2	21.2	0.00e+00	36	42	0	1197473792	58	5881
2026-01-20 16:42:51.88	256.31	12.20	-42.6	-43.8	20.8	0.00e+00	0	42	0	1199570944	58	6288
2026-01-20 16:42:52.89	256.21	12.12	-42.2	-43.3	21.2	0.00e+00	92	42	0	1201668096	58	5964
