passes_logs/2026/01/20/R4.6S_Anadyr/R4.6S_Anadyr__20260120_052802_FENGYUN_3D_rec.log

#Pass ID: 20260120_052802_FENGYUN 3D
#Satellite: FENGYUN 3D
#Configuration: FENGYUN 3D
#almurnet v.1.7.20251203
#Start time: 2026-01-20 05:28:03

#Version: 2.2.20231116
#Station: R4.6S_Anadyr
#Location: 177.4865 lon 64.73178 lat
#TLE: 1 43010U 17072A   26019.30265705  .00000224  00000+0  12791-3 0  9991
#TLE: 2 43010  98.9940 351.1850 0002428 100.8496 259.2953 14.19697535423864

#Time	Az	El	Level	Level2	SNR	BER	BlckErr	Temp	State	Recorded	gain1	gain2
2026-01-20 05:28:03.39	243.12	0.05	-54.1	-71.8	3.5	3.02e+01	0	39	0	0	60	149336
2026-01-20 05:28:04.39	243.22	0.09	-53.4	-65.6	3.6	8.45e-01	0	40	104	0	60	68877
2026-01-20 05:28:05.40	243.32	0.13	-53.5	-65.8	3.6	8.45e-01	0	40	104	0	60	70663
2026-01-20 05:28:06.41	243.42	0.17	-53.4	-65.6	3.6	8.45e-01	0	40	104	0	60	68810
2026-01-20 05:28:07.42	243.51	0.21	-52.9	-65.1	3.6	8.45e-01	0	40	104	0	60	65134
2026-01-20 05:28:08.43	243.61	0.25	-53.7	-65.9	3.6	8.45e-01	0	40	104	0	60	71705
2026-01-20 05:28:09.44	243.71	0.29	-53.3	-65.5	3.6	8.45e-01	0	41	104	0	60	68106
2026-01-20 05:28:10.45	243.81	0.33	-53.6	-65.7	3.6	8.45e-01	0	41	104	0	60	69827
2026-01-20 05:28:11.46	243.91	0.37	-53.5	-65.7	3.6	8.46e-01	0	41	104	0	60	69311
2026-01-20 05:28:12.47	244.01	0.41	-53.6	-66.0	3.6	8.44e-01	0	41	104	0	60	72119
2026-01-20 05:28:13.48	244.10	0.45	-52.9	-65.2	3.6	8.45e-01	0	40	104	0	60	65466
2026-01-20 05:28:14.49	244.20	0.49	-52.5	-64.9	3.6	8.45e-01	0	41	104	0	60	63790
2026-01-20 05:28:15.50	244.30	0.53	-53.1	-65.5	3.6	8.45e-01	0	41	104	0	60	68076
2026-01-20 05:28:16.51	244.40	0.57	-53.1	-65.2	3.6	8.46e-01	0	41	104	0	60	66064
2026-01-20 05:28:17.53	244.51	0.61	-52.4	-64.6	3.6	8.45e-01	0	41	104	0	60	61177
2026-01-20 05:28:18.54	244.61	0.66	-52.2	-64.3	3.6	8.44e-01	0	41	104	0	60	59055
2026-01-20 05:28:19.55	244.71	0.70	-52.2	-64.3	3.6	8.45e-01	0	41	104	0	60	59485
2026-01-20 05:28:20.56	244.81	0.74	-52.2	-64.4	3.6	8.44e-01	0	41	104	0	60	59757
2026-01-20 05:28:21.57	244.91	0.78	-52.7	-64.8	3.6	8.45e-01	0	41	104	0	60	62626
2026-01-20 05:28:22.58	245.01	0.82	-52.3	-64.4	3.6	8.45e-01	0	41	104	0	60	59716
2026-01-20 05:28:23.59	245.11	0.86	-51.9	-64.0	3.6	8.45e-01	0	41	104	0	60	57469
2026-01-20 05:28:24.60	245.22	0.90	-51.2	-63.3	3.6	8.45e-01	0	41	104	0	60	52841
2026-01-20 05:28:25.61	245.32	0.94	-50.9	-63.0	3.6	8.45e-01	0	41	104	0	60	51068
2026-01-20 05:28:26.62	245.42	0.98	-50.6	-62.7	3.6	8.45e-01	0	41	104	0	60	49094
2026-01-20 05:28:27.63	245.52	1.02	-50.1	-62.2	3.6	8.46e-01	0	41	104	0	60	46471
2026-01-20 05:28:28.64	245.63	1.06	-50.1	-62.2	3.6	8.45e-01	0	41	104	0	60	46571
2026-01-20 05:28:29.65	245.73	1.10	-50.1	-62.1	3.6	8.45e-01	0	41	104	0	60	46117
2026-01-20 05:28:30.66	245.83	1.14	-49.7	-61.9	3.6	8.46e-01	0	41	104	0	60	44792
2026-01-20 05:28:31.67	245.94	1.18	-49.7	-61.8	3.6	8.46e-01	0	41	104	0	60	44613
2026-01-20 05:28:32.68	246.04	1.22	-49.8	-61.9	3.6	8.46e-01	0	41	104	0	60	44980
2026-01-20 05:28:33.69	246.15	1.26	-49.7	-61.7	3.6	8.46e-01	0	41	104	0	60	43909
2026-01-20 05:28:34.70	246.25	1.30	-49.5	-61.6	3.6	8.45e-01	0	41	104	0	60	43480
2026-01-20 05:28:35.71	246.36	1.34	-49.4	-61.6	3.6	8.47e-01	0	41	104	0	60	43302
2026-01-20 05:28:36.72	246.46	1.38	-49.4	-61.5	3.6	8.45e-01	0	41	104	0	60	42784
2026-01-20 05:28:37.73	246.57	1.42	-49.4	-61.4	3.6	8.46e-01	0	41	104	0	60	42706
2026-01-20 05:28:38.74	246.67	1.46	-49.3	-61.3	3.6	8.46e-01	0	41	104	0	60	42158
2026-01-20 05:28:39.75	246.78	1.50	-49.2	-61.3	3.5	8.45e-01	0	41	104	0	60	41786
2026-01-20 05:28:40.76	246.89	1.54	-49.2	-61.3	3.6	8.44e-01	0	41	104	0	60	42069
2026-01-20 05:28:41.77	246.99	1.58	-49.2	-61.3	3.6	8.46e-01	0	41	104	0	60	42048
2026-01-20 05:28:42.78	247.10	1.62	-49.2	-61.2	3.6	8.45e-01	0	41	104	0	60	41718
2026-01-20 05:28:43.79	247.21	1.66	-49.2	-61.3	3.6	8.44e-01	0	41	104	0	60	41801
2026-01-20 05:28:44.80	247.31	1.70	-49.2	-61.3	3.6	8.45e-01	0	41	104	0	60	41839
2026-01-20 05:28:45.81	247.42	1.74	-49.2	-61.2	3.6	8.46e-01	0	41	104	0	60	41731
2026-01-20 05:28:46.81	247.53	1.78	-49.2	-61.3	3.6	8.44e-01	0	41	104	0	60	41780
2026-01-20 05:28:47.83	247.64	1.82	-49.1	-61.3	3.6	8.45e-01	0	41	104	0	60	41765
2026-01-20 05:28:48.84	247.75	1.86	-49.2	-61.3	3.6	8.46e-01	0	41	104	0	60	41823
2026-01-20 05:28:49.85	247.86	1.89	-49.2	-61.2	3.6	8.45e-01	0	41	104	0	60	41383
2026-01-20 05:28:50.86	247.97	1.93	-49.1	-61.2	3.6	8.44e-01	0	41	104	0	60	41318
2026-01-20 05:28:51.87	248.08	1.97	-49.2	-61.1	3.6	8.45e-01	0	41	104	0	60	41262
2026-01-20 05:28:52.88	248.18	2.01	-49.2	-61.3	3.5	8.44e-01	0	41	104	0	60	41831
2026-01-20 05:28:53.89	248.29	2.05	-49.4	-61.4	3.6	8.46e-01	0	41	104	0	60	42561
2026-01-20 05:28:54.90	248.41	2.09	-49.4	-61.4	3.6	8.46e-01	0	41	104	0	60	42551
2026-01-20 05:28:55.91	248.52	2.13	-49.3	-61.4	3.6	8.45e-01	0	41	104	0	60	42610
2026-01-20 05:28:56.92	248.63	2.17	-49.5	-61.5	3.6	8.45e-01	0	41	104	0	60	43091
2026-01-20 05:28:57.93	248.74	2.21	-49.4	-61.5	3.6	8.45e-01	0	41	104	0	60	42828
2026-01-20 05:28:58.94	248.85	2.25	-49.4	-61.5	3.6	8.44e-01	0	41	104	0	60	42935
2026-01-20 05:28:59.95	248.96	2.29	-49.5	-61.6	3.6	8.45e-01	0	41	104	0	60	43315
2026-01-20 05:29:00.96	249.07	2.33	-49.4	-61.4	3.6	8.46e-01	0	41	104	0	60	42512
2026-01-20 05:29:01.97	249.19	2.37	-49.4	-61.4	3.6	8.44e-01	0	42	104	0	60	42689
2026-01-20 05:29:02.98	249.30	2.41	-49.4	-61.5	3.6	8.46e-01	0	41	104	0	60	42739
2026-01-20 05:29:03.99	249.41	2.45	-49.6	-61.7	3.6	8.46e-01	0	41	104	0	60	43984
2026-01-20 05:29:05.00	249.52	2.49	-50.0	-62.1	3.6	8.46e-01	0	41	104	0	60	45951
2026-01-20 05:29:06.01	249.64	2.53	-49.8	-61.6	3.6	8.44e-01	0	41	104	0	60	43415
2026-01-20 05:29:07.02	249.75	2.56	-49.6	-61.6	3.6	8.45e-01	0	41	104	0	60	43639
2026-01-20 05:29:08.03	249.87	2.60	-49.4	-61.5	3.6	8.46e-01	0	42	104	0	60	42821
2026-01-20 05:29:09.04	249.98	2.64	-49.4	-61.5	3.6	8.46e-01	0	41	104	0	60	43008
2026-01-20 05:29:10.05	250.09	2.68	-49.4	-60.3	3.6	8.46e-01	0	42	104	0	60	37559
2026-01-20 05:29:11.06	250.21	2.72	-49.7	-60.9	3.6	8.45e-01	0	41	104	0	60	40065
2026-01-20 05:29:12.07	250.32	2.76	-49.7	-61.4	3.6	8.45e-01	0	42	104	0	60	42640
2026-01-20 05:29:13.08	250.44	2.80	-49.6	-58.4	3.8	8.45e-01	0	42	104	0	60	29983
2026-01-20 05:29:14.09	250.56	2.84	-48.8	-54.5	6.4	6.25e-01	0	42	104	0	60	19283
2026-01-20 05:29:15.10	250.67	2.88	-47.7	-51.2	9.4	1.86e-02	0	41	0	4194304	60	13064
2026-01-20 05:29:16.11	250.79	2.91	-45.2	-47.2	14.1	2.86e-05	0	42	0	10485760	60	8313
2026-01-20 05:29:17.12	250.91	2.95	-41.8	-43.0	17.8	1.10e-06	0	42	0	15728640	58	5732
2026-01-20 05:29:18.13	251.02	2.99	-42.1	-43.3	17.1	0.00e+00	0	42	0	20971520	56	6681
2026-01-20 05:29:19.14	251.14	3.03	-41.1	-42.2	18.9	0.00e+00	0	42	0	27262976	56	5872
2026-01-20 05:29:20.15	251.26	3.07	-50.0	-61.9	3.6	8.44e-01	0	42	104	28311552	60	44920
2026-01-20 05:29:21.16	251.37	3.11	-49.0	-58.8	3.9	7.21e-01	0	42	104	28311552	60	31470
2026-01-20 05:29:22.17	251.49	3.15	-41.4	-42.6	18.5	0.00e+00	0	42	0	31457280	54	6872
2026-01-20 05:29:23.18	251.61	3.19	-42.5	-43.8	17.8	0.00e+00	0	42	0	37748736	58	6270
2026-01-20 05:29:24.19	251.73	3.22	-44.5	-46.4	14.8	0.00e+00	0	42	0	42991616	60	7548
2026-01-20 05:29:25.20	251.85	3.26	-38.3	-39.2	21.2	0.00e+00	0	42	0	49283072	50	5845
2026-01-20 05:29:26.21	251.97	3.30	-38.8	-39.7	20.7	0.00e+00	0	42	0	54525952	50	6184
2026-01-20 05:29:27.22	252.09	3.34	-39.1	-40.0	20.4	0.00e+00	0	42	0	60817408	50	6423
2026-01-20 05:29:28.23	252.21	3.38	-40.0	-41.0	18.8	0.00e+00	0	42	0	66060288	50	7187
2026-01-20 05:29:29.24	252.33	3.42	-38.4	-39.3	21.1	0.00e+00	0	42	0	71303168	52	5304
2026-01-20 05:29:30.25	252.45	3.45	-40.5	-41.6	18.6	0.00e+00	0	42	0	77594624	52	6872
2026-01-20 05:29:31.26	252.57	3.49	-39.3	-40.3	19.9	0.00e+00	0	42	0	82837504	52	5915
2026-01-20 05:29:32.27	252.69	3.53	-38.5	-39.4	21.2	0.00e+00	0	42	0	89128960	50	5996
2026-01-20 05:29:33.28	252.81	3.57	-42.4	-43.8	16.6	0.00e+00	0	42	0	94371840	56	7011
2026-01-20 05:29:34.29	252.93	3.61	-41.4	-42.6	17.9	0.00e+00	0	42	0	99614720	56	6170
2026-01-20 05:29:35.30	253.06	3.64	-39.5	-40.5	20.0	0.00e+00	0	42	0	105906176	52	6049
2026-01-20 05:29:36.31	253.18	3.68	-38.9	-39.8	20.2	0.00e+00	0	42	0	111149056	52	5625
2026-01-20 05:29:37.32	253.30	3.72	-39.6	-40.6	20.1	0.00e+00	0	42	0	117440512	52	6128
2026-01-20 05:29:38.33	253.42	3.76	-38.7	-39.6	20.7	0.00e+00	0	42	0	122683392	50	6127
2026-01-20 05:29:39.34	253.55	3.79	-39.5	-40.5	20.1	0.00e+00	0	42	0	127926272	52	6073
2026-01-20 05:29:40.35	253.67	3.83	-39.0	-39.9	20.7	0.00e+00	0	42	0	134217728	52	5692
2026-01-20 05:29:41.36	253.79	3.87	-38.2	-39.1	21.3	0.00e+00	0	42	0	139460608	50	5770
2026-01-20 05:29:42.37	253.92	3.91	-39.1	-40.0	20.1	0.00e+00	0	42	0	145752064	50	6446
2026-01-20 05:29:43.38	254.04	3.94	-39.3	-40.2	20.3	0.00e+00	0	42	0	150994944	50	6610
2026-01-20 05:29:44.39	254.17	3.98	-38.6	-39.5	20.8	0.00e+00	0	42	0	157286400	50	6083
2026-01-20 05:29:45.40	254.29	4.02	-37.7	-38.5	21.8	0.00e+00	0	42	0	162529280	50	5412
2026-01-20 05:29:46.41	254.42	4.06	-37.8	-38.6	21.7	0.00e+00	0	42	0	168820736	48	6160
2026-01-20 05:29:47.43	254.55	4.09	-37.8	-38.6	21.8	0.00e+00	0	42	0	174063616	48	6133
2026-01-20 05:29:48.44	254.67	4.13	-39.2	-40.1	20.3	0.00e+00	0	42	0	179306496	50	6523
2026-01-20 05:29:49.45	254.80	4.17	-39.0	-39.9	20.7	0.00e+00	0	42	0	185597952	52	5690
2026-01-20 05:29:50.45	254.92	4.21	-38.3	-39.2	21.4	0.00e+00	0	42	0	190840832	50	5860
2026-01-20 05:29:51.47	255.05	4.24	-38.9	-39.7	20.8	0.00e+00	0	42	0	197132288	50	6243
2026-01-20 05:29:52.48	255.18	4.28	-38.5	-39.4	21.2	0.00e+00	0	42	0	202375168	50	5971
2026-01-20 05:29:53.49	255.31	4.32	-37.7	-38.5	21.5	0.00e+00	0	42	0	207618048	48	6074
2026-01-20 05:29:54.50	255.43	4.35	-38.2	-39.0	21.5	0.00e+00	0	42	0	213909504	50	5739
2026-01-20 05:29:55.51	255.56	4.39	-38.5	-39.3	21.2	0.00e+00	0	42	0	219152384	50	5939
2026-01-20 05:29:56.52	255.69	4.43	-38.4	-39.2	21.3	0.00e+00	0	42	0	225443840	50	5871
2026-01-20 05:29:57.53	255.82	4.46	-38.0	-38.8	21.9	0.00e+00	0	42	0	230686720	50	5576
2026-01-20 05:29:58.54	255.95	4.50	-37.9	-38.7	21.5	0.00e+00	0	42	0	235929600	48	6214
2026-01-20 05:29:59.55	256.08	4.54	-38.6	-39.4	21.2	0.00e+00	0	42	0	242221056	48	6760
2026-01-20 05:30:00.56	256.21	4.57	-38.3	-39.1	21.5	0.00e+00	0	42	0	247463936	50	5818
2026-01-20 05:30:01.57	256.34	4.61	-38.6	-39.5	21.2	0.00e+00	0	42	0	253755392	50	6067
2026-01-20 05:30:02.58	256.47	4.64	-37.8	-38.6	21.9	0.00e+00	0	42	0	258998272	50	5468
2026-01-20 05:30:03.58	256.60	4.68	-37.5	-38.3	22.1	0.00e+00	0	42	0	264241152	48	5956
2026-01-20 05:30:04.59	256.73	4.72	-37.9	-38.7	21.9	0.00e+00	0	42	0	270532608	48	6198
2026-01-20 05:30:05.60	256.86	4.75	-38.3	-39.2	21.7	0.00e+00	0	42	0	276824064	48	6564
2026-01-20 05:30:06.61	256.99	4.79	-37.2	-37.9	22.7	0.00e+00	0	42	0	282066944	48	5691
2026-01-20 05:30:07.63	257.12	4.83	-37.3	-38.0	22.4	0.00e+00	0	42	0	287309824	48	5751
2026-01-20 05:30:08.64	257.26	4.86	-37.8	-38.6	22.0	0.00e+00	0	42	0	293601280	48	6113
2026-01-20 05:30:09.65	257.39	4.90	-39.5	-40.4	20.7	0.00e+00	0	42	0	298844160	50	6727
2026-01-20 05:30:10.66	257.52	4.93	-38.8	-39.7	21.2	0.00e+00	0	42	0	305135616	50	6199
2026-01-20 05:30:11.67	257.65	4.97	-38.7	-39.6	21.0	0.00e+00	0	42	0	310378496	50	6109
2026-01-20 05:30:12.68	257.79	5.00	-38.7	-39.5	20.8	0.00e+00	0	42	0	315621376	50	6077
2026-01-20 05:30:13.69	257.92	5.04	-37.8	-38.6	22.1	0.00e+00	0	42	0	321912832	50	5455
2026-01-20 05:30:14.70	258.06	5.07	-38.0	-38.8	21.8	0.00e+00	0	42	0	327155712	48	6301
2026-01-20 05:30:15.71	258.19	5.11	-37.7	-38.5	22.1	0.00e+00	0	42	0	333447168	48	6072
2026-01-20 05:30:16.72	258.32	5.14	-38.2	-39.1	21.7	0.00e+00	0	42	0	338690048	48	6474
2026-01-20 05:30:17.73	258.46	5.18	-38.8	-39.6	21.0	0.00e+00	0	42	0	343932928	48	6923
2026-01-20 05:30:18.74	258.60	5.21	-38.5	-39.4	21.3	0.00e+00	0	42	0	350224384	50	6007
2026-01-20 05:30:19.75	258.73	5.25	-37.9	-38.7	22.0	0.00e+00	0	42	0	355467264	50	5539
2026-01-20 05:30:20.76	258.87	5.28	-38.2	-39.1	21.5	0.00e+00	0	42	0	361758720	50	5798
2026-01-20 05:30:21.77	259.00	5.32	-38.1	-38.9	21.7	0.00e+00	0	42	0	367001600	48	6376
2026-01-20 05:30:22.78	259.14	5.35	-38.2	-39.0	21.7	0.00e+00	0	42	0	372244480	48	6457
2026-01-20 05:30:23.79	259.28	5.39	-38.1	-38.9	21.6	0.00e+00	0	42	0	378535936	48	6382
2026-01-20 05:30:24.80	259.41	5.42	-37.7	-38.5	22.1	0.00e+00	0	42	0	383778816	48	6063
2026-01-20 05:30:25.81	259.55	5.46	-37.9	-38.7	22.0	0.00e+00	0	42	0	390070272	48	6210
2026-01-20 05:30:26.82	259.69	5.49	-38.1	-39.0	21.8	0.00e+00	0	42	0	395313152	48	6423
2026-01-20 05:30:27.83	259.83	5.53	-37.3	-38.1	22.6	0.00e+00	0	42	0	401604608	48	5800
2026-01-20 05:30:28.84	259.97	5.56	-37.9	-38.7	22.2	0.00e+00	0	42	0	406847488	48	6181
2026-01-20 05:30:29.85	260.10	5.59	-37.9	-38.7	22.2	0.00e+00	0	42	0	413138944	48	6180
2026-01-20 05:30:30.86	260.24	5.63	-37.6	-38.4	22.4	0.00e+00	0	42	0	418381824	48	5991
2026-01-20 05:30:31.87	260.38	5.66	-37.5	-38.2	22.5	0.00e+00	0	42	0	423624704	48	5891
2026-01-20 05:30:32.88	260.52	5.69	-37.0	-37.7	22.9	0.00e+00	0	42	0	429916160	48	5556
2026-01-20 05:30:33.89	260.66	5.73	-37.5	-38.3	22.4	0.00e+00	0	42	0	435159040	48	5930
2026-01-20 05:30:34.91	260.80	5.76	-37.8	-38.6	22.3	0.00e+00	0	42	0	441450496	48	6133
2026-01-20 05:30:35.91	260.94	5.80	-38.1	-38.9	22.0	0.00e+00	0	42	0	446693376	48	6353
2026-01-20 05:30:36.93	261.08	5.83	-38.3	-39.1	21.8	0.00e+00	0	42	0	451936256	48	6500
2026-01-20 05:30:37.93	261.22	5.86	-38.1	-38.9	21.9	0.00e+00	0	42	0	458227712	48	6361
2026-01-20 05:30:38.95	261.37	5.90	-37.9	-38.7	22.0	0.00e+00	0	42	0	463470592	48	6227
2026-01-20 05:30:39.95	261.51	5.93	-38.2	-39.0	22.0	0.00e+00	0	42	0	469762048	48	6395
2026-01-20 05:30:40.97	261.65	5.96	-37.8	-38.6	22.5	0.00e+00	0	42	0	475004928	48	6135
2026-01-20 05:30:41.98	261.79	5.99	-37.6	-38.4	22.7	0.00e+00	0	42	0	480247808	48	5967
2026-01-20 05:30:42.99	261.94	6.03	-38.0	-38.8	22.2	0.00e+00	0	42	0	486539264	48	6295
2026-01-20 05:30:44.00	262.08	6.06	-37.8	-38.6	22.4	0.00e+00	0	42	0	491782144	48	6169
2026-01-20 05:30:45.01	262.22	6.09	-37.8	-38.6	22.4	0.00e+00	0	42	0	498073600	48	6151
2026-01-20 05:30:46.02	262.37	6.12	-37.4	-38.2	22.7	0.00e+00	0	42	0	503316480	48	5839
2026-01-20 05:30:47.03	262.51	6.16	-37.8	-38.6	22.5	0.00e+00	0	42	0	509607936	48	6133
2026-01-20 05:30:48.04	262.66	6.19	-37.1	-37.9	23.0	0.00e+00	0	42	0	514850816	48	5653
2026-01-20 05:30:49.05	262.80	6.22	-38.1	-38.9	22.1	0.00e+00	0	42	0	521142272	48	6342
2026-01-20 05:30:50.06	262.94	6.25	-38.7	-39.5	21.3	0.00e+00	0	42	0	526385152	48	6815
2026-01-20 05:30:51.07	263.09	6.28	-38.5	-39.3	21.8	0.00e+00	0	42	0	531628032	50	5925
2026-01-20 05:30:52.08	263.24	6.32	-37.8	-38.6	22.3	0.00e+00	0	42	0	537919488	50	5453
2026-01-20 05:30:53.09	263.38	6.35	-37.6	-38.4	22.4	0.00e+00	0	42	0	543162368	48	5991
2026-01-20 05:30:54.10	263.53	6.38	-37.7	-38.5	22.2	0.00e+00	0	42	0	548405248	48	6068
2026-01-20 05:30:55.11	263.67	6.41	-37.7	-38.5	22.3	0.00e+00	0	42	0	554696704	48	6079
2026-01-20 05:30:56.12	263.82	6.44	-37.5	-38.3	22.6	0.00e+00	0	42	0	559939584	48	5908
2026-01-20 05:30:57.13	263.97	6.47	-37.4	-38.2	22.6	0.00e+00	0	42	0	566231040	48	5868
2026-01-20 05:30:58.14	264.11	6.50	-37.7	-38.5	22.3	0.00e+00	0	42	0	571473920	48	6096
2026-01-20 05:30:59.15	264.26	6.53	-37.1	-37.9	22.7	0.00e+00	0	42	0	576716800	48	5663
2026-01-20 05:31:00.16	264.41	6.56	-37.9	-38.7	22.3	0.00e+00	0	42	0	583008256	48	6219
2026-01-20 05:31:01.16	264.56	6.60	-38.3	-39.2	21.7	0.00e+00	0	42	0	588251136	48	6553
2026-01-20 05:31:02.18	264.71	6.63	-38.4	-39.2	21.8	0.00e+00	0	42	0	594542592	48	6574
2026-01-20 05:31:03.19	264.86	6.66	-37.8	-38.6	22.3	0.00e+00	0	42	0	599785472	48	6129
2026-01-20 05:31:04.20	265.00	6.69	-37.8	-38.5	22.5	0.00e+00	0	42	0	606076928	48	6103
2026-01-20 05:31:05.21	265.15	6.72	-38.2	-39.0	22.4	0.00e+00	0	42	0	611319808	48	6460
2026-01-20 05:31:06.22	265.30	6.75	-37.5	-38.2	22.7	0.00e+00	0	42	0	617611264	48	5883
2026-01-20 05:31:07.23	265.45	6.78	-38.0	-38.8	22.5	0.00e+00	0	42	0	622854144	48	6299
2026-01-20 05:31:08.24	265.60	6.81	-37.5	-38.3	22.9	0.00e+00	0	42	0	628097024	48	5913
2026-01-20 05:31:09.25	265.75	6.84	-38.0	-38.8	22.5	0.00e+00	0	42	0	634388480	48	6278
2026-01-20 05:31:10.26	265.91	6.87	-37.8	-38.6	22.6	0.00e+00	0	42	0	639631360	48	6145
2026-01-20 05:31:11.27	266.06	6.89	-38.1	-38.9	22.6	0.00e+00	0	42	0	645922816	48	6347
2026-01-20 05:31:12.28	266.21	6.92	-37.9	-38.7	22.6	0.00e+00	0	42	0	651165696	48	6219
2026-01-20 05:31:13.29	266.36	6.95	-37.9	-38.7	22.6	0.00e+00	0	42	0	656408576	48	6179
2026-01-20 05:31:14.30	266.51	6.98	-37.8	-38.6	22.9	0.00e+00	0	42	0	662700032	48	6108
2026-01-20 05:31:15.31	266.66	7.01	-37.6	-38.3	22.9	0.00e+00	0	42	0	667942912	48	5954
2026-01-20 05:31:16.32	266.82	7.04	-38.1	-38.9	22.9	0.00e+00	0	42	0	674234368	48	6343
2026-01-20 05:31:17.33	266.97	7.07	-37.9	-38.7	22.7	0.00e+00	0	42	0	679477248	48	6174
2026-01-20 05:31:18.34	267.12	7.10	-37.9	-38.7	22.8	0.00e+00	0	42	0	684720128	48	6197
2026-01-20 05:31:19.35	267.28	7.12	-37.8	-38.6	22.7	0.00e+00	0	42	0	691011584	48	6111
2026-01-20 05:31:20.36	267.43	7.15	-37.7	-38.5	22.5	0.00e+00	0	42	0	696254464	48	6078
2026-01-20 05:31:21.37	267.58	7.18	-37.9	-38.6	22.6	0.00e+00	0	42	0	702545920	48	6155
2026-01-20 05:31:22.38	267.74	7.21	-37.5	-38.3	22.9	0.00e+00	0	42	0	707788800	48	5924
2026-01-20 05:31:23.40	267.89	7.24	-37.6	-38.4	23.1	0.00e+00	0	42	0	714080256	48	5971
2026-01-20 05:31:24.41	268.05	7.26	-37.3	-38.0	23.3	0.00e+00	0	42	0	719323136	48	5760
2026-01-20 05:31:25.42	268.20	7.29	-37.6	-38.4	23.1	0.00e+00	0	42	0	725614592	48	5994
2026-01-20 05:31:26.43	268.36	7.32	-37.7	-38.5	22.8	0.00e+00	0	42	0	730857472	48	6055
2026-01-20 05:31:27.44	268.52	7.34	-37.7	-38.5	22.9	0.00e+00	0	42	0	736100352	48	6061
2026-01-20 05:31:28.45	268.67	7.37	-37.4	-38.1	22.9	0.00e+00	0	42	0	742391808	48	5798
2026-01-20 05:31:29.46	268.83	7.40	-37.4	-38.1	23.1	0.00e+00	0	42	0	747634688	48	5784
2026-01-20 05:31:30.47	268.98	7.42	-37.5	-38.2	22.9	0.00e+00	0	42	0	753926144	48	5887
2026-01-20 05:31:31.48	269.14	7.45	-37.8	-38.6	22.6	0.00e+00	0	42	0	759169024	48	6117
2026-01-20 05:31:32.49	269.30	7.48	-37.7	-38.4	22.9	0.00e+00	0	42	0	764411904	48	6023
2026-01-20 05:31:33.50	269.46	7.50	-37.3	-38.1	23.2	0.00e+00	0	42	0	770703360	48	5762
2026-01-20 05:31:34.51	269.61	7.53	-37.0	-37.7	23.4	0.00e+00	0	42	0	775946240	48	5566
2026-01-20 05:31:35.52	269.77	7.56	-37.2	-38.0	23.2	0.00e+00	0	42	0	782237696	48	5731
2026-01-20 05:31:36.53	269.93	7.58	-37.8	-38.6	22.7	0.00e+00	0	42	0	787480576	48	6130
2026-01-20 05:31:37.54	270.09	7.61	-37.1	-37.8	23.3	0.00e+00	0	42	0	792723456	48	5602
2026-01-20 05:31:38.55	270.25	7.63	-37.7	-38.5	22.8	0.00e+00	0	42	0	799014912	48	6035
2026-01-20 05:31:39.56	270.40	7.66	-37.3	-38.0	23.0	0.00e+00	0	42	0	804257792	48	5739
2026-01-20 05:31:40.57	270.56	7.68	-36.8	-37.6	23.3	0.00e+00	0	42	0	810549248	46	6126
2026-01-20 05:31:41.58	270.72	7.71	-38.1	-38.9	22.2	0.00e+00	0	42	0	815792128	48	6380
2026-01-20 05:31:42.59	270.88	7.73	-37.3	-38.0	23.1	0.00e+00	0	42	0	822083584	48	5753
2026-01-20 05:31:43.60	271.04	7.76	-37.5	-38.3	22.7	0.00e+00	0	42	0	827326464	48	5911
2026-01-20 05:31:44.62	271.21	7.78	-36.8	-37.6	23.4	0.00e+00	0	42	0	833617920	48	5470
2026-01-20 05:31:45.63	271.37	7.80	-37.6	-38.4	23.0	0.00e+00	0	42	0	838860800	48	5980
2026-01-20 05:31:46.64	271.53	7.83	-36.6	-37.4	23.8	0.00e+00	0	42	0	844103680	46	5968
2026-01-20 05:31:47.65	271.69	7.85	-36.9	-37.6	23.3	0.00e+00	0	42	0	850395136	46	6173
2026-01-20 05:31:48.66	271.85	7.88	-37.2	-38.0	23.1	0.00e+00	0	42	0	855638016	46	6443
2026-01-20 05:31:49.67	272.01	7.90	-37.0	-37.7	23.4	0.00e+00	0	42	0	861929472	46	6223
2026-01-20 05:31:50.68	272.17	7.92	-36.7	-37.4	23.5	0.00e+00	0	42	0	867172352	46	6032
2026-01-20 05:31:51.69	272.33	7.95	-37.0	-37.7	23.3	0.00e+00	0	42	0	872415232	46	6240
2026-01-20 05:31:52.70	272.50	7.97	-37.0	-37.8	23.3	0.00e+00	0	42	0	878706688	46	6271
2026-01-20 05:31:53.71	272.66	7.99	-37.6	-38.4	22.9	0.00e+00	0	42	0	883949568	46	6709
2026-01-20 05:31:54.72	272.82	8.01	-37.9	-38.6	22.8	0.00e+00	0	42	0	890241024	48	6171
2026-01-20 05:31:55.73	272.98	8.04	-37.4	-38.2	23.0	0.00e+00	0	42	0	895483904	48	5847
2026-01-20 05:31:56.73	273.15	8.06	-37.2	-38.0	23.2	0.00e+00	0	42	0	900726784	48	5707
2026-01-20 05:31:57.74	273.31	8.08	-36.6	-37.4	23.7	0.00e+00	0	42	0	907018240	46	5986
2026-01-20 05:31:58.75	273.47	8.10	-36.7	-37.5	23.8	0.00e+00	0	42	0	912261120	46	6037
2026-01-20 05:31:59.76	273.64	8.12	-36.6	-37.4	23.8	0.00e+00	0	42	0	918552576	46	5966
2026-01-20 05:32:00.77	273.80	8.15	-36.7	-37.4	23.6	0.00e+00	0	42	0	923795456	46	6017
2026-01-20 05:32:01.78	273.97	8.17	-38.4	-39.1	22.7	0.00e+00	0	42	0	930086912	48	6524
2026-01-20 05:32:02.79	274.13	8.19	-38.2	-38.9	22.7	0.00e+00	0	42	0	935329792	48	6376
2026-01-20 05:32:03.80	274.30	8.21	-37.7	-38.5	23.1	0.00e+00	0	42	0	941621248	48	6036
2026-01-20 05:32:04.81	274.46	8.23	-37.7	-38.4	23.1	0.00e+00	0	42	0	946864128	48	6027
2026-01-20 05:32:05.82	274.63	8.25	-37.8	-38.6	22.9	0.00e+00	0	42	0	952107008	48	6106
2026-01-20 05:32:06.83	274.79	8.27	-37.2	-37.9	23.2	0.00e+00	0	42	0	958398464	48	5683
2026-01-20 05:32:07.84	274.96	8.29	-36.5	-37.3	23.8	0.00e+00	0	42	0	963641344	46	5914
2026-01-20 05:32:08.85	275.12	8.31	-37.9	-38.7	22.7	0.00e+00	0	42	0	969932800	48	6211
2026-01-20 05:32:09.86	275.29	8.33	-38.2	-39.0	22.6	0.00e+00	0	42	0	975175680	48	6445
2026-01-20 05:32:10.87	275.46	8.35	-37.7	-38.5	22.9	0.00e+00	0	42	0	980418560	48	6099
2026-01-20 05:32:11.88	275.62	8.37	-38.5	-39.3	22.2	0.00e+00	0	42	0	986710016	48	6650
2026-01-20 05:32:12.89	275.79	8.39	-38.0	-38.8	22.6	0.00e+00	0	42	0	991952896	48	6313
2026-01-20 05:32:13.90	275.96	8.41	-37.5	-38.2	22.9	0.00e+00	0	42	0	998244352	48	5891
2026-01-20 05:32:14.91	276.12	8.43	-37.5	-38.2	23.2	0.00e+00	0	42	0	1003487232	48	5888
2026-01-20 05:32:15.92	276.29	8.45	-37.5	-38.3	23.1	0.00e+00	0	42	0	1008730112	48	5900
2026-01-20 05:32:16.93	276.46	8.46	-37.5	-38.2	23.2	0.00e+00	0	42	0	1015021568	48	5867
2026-01-20 05:32:17.94	276.63	8.48	-37.3	-38.0	23.7	0.00e+00	0	42	0	1020264448	48	5759
2026-01-20 05:32:18.95	276.79	8.50	-37.5	-38.2	23.4	0.00e+00	0	42	0	1026555904	48	5884
2026-01-20 05:32:19.95	276.96	8.52	-36.9	-37.6	23.7	0.00e+00	0	42	0	1031798784	48	5460
2026-01-20 05:32:20.96	277.13	8.54	-36.8	-37.5	23.9	0.00e+00	0	42	0	1038090240	48	5413
2026-01-20 05:32:21.97	277.30	8.55	-36.9	-37.6	23.7	0.00e+00	0	42	0	1043333120	46	6172
2026-01-20 05:32:22.98	277.47	8.57	-36.8	-37.6	23.7	0.00e+00	0	42	0	1048576000	46	6131
2026-01-20 05:32:24.00	277.64	8.59	-37.4	-38.1	23.3	0.00e+00	0	42	0	1054867456	46	6528
2026-01-20 05:32:25.00	277.81	8.61	-36.6	-37.3	24.2	0.00e+00	0	42	0	1060110336	46	5904
2026-01-20 05:32:26.02	277.98	8.62	-37.4	-38.2	23.3	0.00e+00	0	42	0	1066401792	46	6540
2026-01-20 05:32:27.03	278.15	8.64	-37.2	-38.0	23.3	0.00e+00	0	42	0	1071644672	46	6422
2026-01-20 05:32:28.04	278.32	8.65	-37.0	-37.7	23.4	0.00e+00	0	42	0	1076887552	46	6199
2026-01-20 05:32:29.05	278.49	8.67	-37.5	-38.3	23.1	0.00e+00	0	42	0	1083179008	48	5910
2026-01-20 05:32:30.06	278.66	8.69	-36.8	-37.5	23.5	0.00e+00	0	42	0	1088421888	46	6095
2026-01-20 05:32:31.07	278.83	8.70	-37.5	-38.2	23.3	0.00e+00	0	42	0	1094713344	46	6588
2026-01-20 05:32:32.08	279.00	8.72	-37.4	-38.2	23.5	0.00e+00	0	42	0	1099956224	46	6565
2026-01-20 05:32:33.09	279.17	8.73	-36.5	-37.2	23.9	0.00e+00	0	42	0	1105199104	46	5880
2026-01-20 05:32:34.10	279.34	8.75	-37.0	-37.7	23.5	0.00e+00	0	42	0	1111490560	46	6233
2026-01-20 05:32:35.11	279.51	8.76	-36.7	-37.4	23.5	0.00e+00	0	42	0	1116733440	46	6027
2026-01-20 05:32:36.12	279.68	8.78	-37.0	-37.7	23.3	0.00e+00	0	42	0	1123024896	46	6211
2026-01-20 05:32:37.13	279.85	8.79	-37.1	-37.8	23.4	0.00e+00	0	42	0	1128267776	46	6277
2026-01-20 05:32:38.14	280.02	8.81	-36.9	-37.6	23.5	0.00e+00	0	42	0	1134559232	46	6162
2026-01-20 05:32:39.15	280.20	8.82	-36.8	-37.6	23.5	0.00e+00	0	42	0	1139802112	46	6124
2026-01-20 05:32:40.16	280.37	8.83	-36.7	-37.4	23.5	0.00e+00	0	42	0	1146093568	46	6024
2026-01-20 05:32:41.17	280.54	8.85	-36.8	-37.5	23.4	0.00e+00	0	42	0	1151336448	46	6063
2026-01-20 05:32:42.18	280.71	8.86	-36.4	-37.1	23.8	0.00e+00	0	42	0	1156579328	46	5798
2026-01-20 05:32:43.19	280.88	8.87	-36.7	-37.4	23.5	0.00e+00	0	42	0	1162870784	46	6005
2026-01-20 05:32:44.20	281.06	8.89	-36.7	-37.4	23.8	0.00e+00	0	42	0	1168113664	46	6015
2026-01-20 05:32:45.21	281.23	8.90	-36.3	-37.0	24.0	0.00e+00	0	42	0	1174405120	46	5730
2026-01-20 05:32:46.22	281.40	8.91	-36.7	-37.4	23.4	0.00e+00	0	42	0	1179648000	46	6009
2026-01-20 05:32:47.23	281.57	8.92	-35.9	-36.6	24.4	0.00e+00	0	42	0	1184890880	46	5471
2026-01-20 05:32:48.24	281.75	8.94	-37.0	-37.7	23.4	0.00e+00	0	42	0	1191182336	46	6230
2026-01-20 05:32:49.25	281.92	8.95	-37.3	-38.0	23.2	0.00e+00	0	42	0	1196425216	46	6437
2026-01-20 05:32:50.27	282.09	8.96	-37.5	-38.2	23.1	0.00e+00	0	42	0	1202716672	46	6588
2026-01-20 05:32:51.28	282.27	8.97	-37.1	-37.8	23.2	0.00e+00	0	42	0	1207959552	46	6316
2026-01-20 05:32:52.29	282.44	8.98	-35.9	-36.7	24.6	0.00e+00	0	42	0	1213202432	46	5514
2026-01-20 05:32:53.30	282.61	8.99	-36.5	-37.2	23.8	0.00e+00	0	42	0	1219493888	44	6596
2026-01-20 05:32:54.31	282.79	9.00	-36.7	-37.4	23.6	0.00e+00	0	42	0	1224736768	44	6724
2026-01-20 05:32:55.32	282.96	9.01	-36.8	-37.5	23.5	0.00e+00	0	42	0	1231028224	46	6093
2026-01-20 05:32:56.33	283.14	9.02	-36.9	-37.7	23.4	0.00e+00	0	42	0	1236271104	46	6200
2026-01-20 05:32:57.34	283.31	9.03	-37.1	-37.8	23.2	0.00e+00	0	42	0	1242562560	46	6289
2026-01-20 05:32:58.35	283.48	9.04	-37.0	-37.8	23.1	0.00e+00	0	42	0	1247805440	46	6277
2026-01-20 05:32:59.36	283.66	9.05	-37.6	-38.3	22.7	0.00e+00	0	42	0	1254096896	46	6671
2026-01-20 05:33:00.37	283.83	9.06	-36.9	-37.7	23.3	0.00e+00	0	42	0	1259339776	46	6214
2026-01-20 05:33:01.38	284.01	9.07	-36.7	-37.5	23.7	0.00e+00	0	42	0	1264582656	46	6052
2026-01-20 05:33:02.39	284.18	9.08	-37.4	-38.1	22.9	0.00e+00	0	42	0	1270874112	46	6531
2026-01-20 05:33:03.40	284.36	9.09	-37.6	-38.4	23.0	0.00e+00	0	42	0	1276116992	48	5983
2026-01-20 05:33:04.41	284.53	9.10	-37.9	-38.7	22.8	0.00e+00	0	42	0	1282408448	48	6232
2026-01-20 05:33:05.42	284.71	9.11	-37.4	-38.2	23.2	0.00e+00	0	42	0	1287651328	48	5832
2026-01-20 05:33:06.43	284.88	9.11	-37.2	-37.9	23.4	0.00e+00	0	42	0	1292894208	48	5672
2026-01-20 05:33:07.44	285.06	9.12	-36.8	-37.5	23.5	0.00e+00	0	42	0	1299185664	46	6094
2026-01-20 05:33:08.45	285.23	9.13	-36.8	-37.6	23.4	0.00e+00	0	42	0	1304428544	46	6154
2026-01-20 05:33:09.46	285.41	9.14	-36.5	-37.2	23.8	0.00e+00	0	42	0	1310720000	46	5874
2026-01-20 05:33:10.47	285.58	9.14	-36.9	-37.6	23.4	0.00e+00	0	42	0	1315962880	46	6166
2026-01-20 05:33:11.48	285.76	9.15	-37.0	-37.8	23.4	0.00e+00	0	42	0	1321205760	46	6276
2026-01-20 05:33:12.49	285.93	9.16	-37.2	-37.9	23.1	0.00e+00	0	42	0	1327497216	46	6364
2026-01-20 05:33:13.50	286.11	9.16	-36.6	-37.4	23.5	0.00e+00	0	42	0	1332740096	46	5965
2026-01-20 05:33:14.52	286.29	9.17	-36.0	-36.7	24.2	0.00e+00	0	42	0	1339031552	46	5561
2026-01-20 05:33:15.53	286.46	9.18	-36.3	-37.1	23.7	0.00e+00	0	42	0	1344274432	46	5794
2026-01-20 05:33:16.54	286.64	9.18	-36.9	-37.6	23.5	0.00e+00	0	42	0	1350565888	46	6123
2026-01-20 05:33:17.55	286.81	9.19	-36.3	-37.0	23.9	0.00e+00	0	42	0	1355808768	46	5740
2026-01-20 05:33:18.56	286.99	9.19	-36.4	-37.2	23.9	0.00e+00	0	42	0	1362100224	46	5831
2026-01-20 05:33:19.57	287.17	9.20	-36.4	-37.1	23.8	0.00e+00	0	42	0	1367343104	46	5828
2026-01-20 05:33:20.58	287.34	9.20	-36.6	-37.3	23.7	0.00e+00	0	42	0	1372585984	46	5942
2026-01-20 05:33:21.59	287.52	9.21	-36.7	-37.4	23.7	0.00e+00	0	42	0	1378877440	46	6021
2026-01-20 05:33:22.60	287.69	9.21	-36.8	-37.5	23.5	0.00e+00	0	42	0	1384120320	46	6086
2026-01-20 05:33:23.61	287.87	9.21	-37.1	-37.9	23.2	0.00e+00	0	42	0	1390411776	46	6341
2026-01-20 05:33:24.62	288.05	9.22	-37.3	-38.1	23.1	0.00e+00	0	42	0	1395654656	46	6498
2026-01-20 05:33:25.63	288.22	9.22	-37.0	-37.8	23.3	0.00e+00	0	42	0	1400897536	46	6254
2026-01-20 05:33:26.64	288.40	9.23	-36.8	-37.6	23.4	0.00e+00	0	42	0	1407188992	46	6145
2026-01-20 05:33:27.65	288.57	9.23	-36.6	-37.4	23.6	0.00e+00	0	42	0	1412431872	46	5981
2026-01-20 05:33:28.66	288.75	9.23	-37.0	-37.8	23.2	0.00e+00	0	42	0	1418723328	46	6275
2026-01-20 05:33:29.67	288.93	9.23	-37.1	-37.9	23.3	0.00e+00	0	42	0	1423966208	46	6349
2026-01-20 05:33:30.68	289.10	9.24	-37.3	-38.0	23.1	0.00e+00	0	42	0	1429209088	46	6455
2026-01-20 05:33:31.69	289.28	9.24	-37.4	-38.1	23.3	0.00e+00	0	42	0	1435500544	46	6485
2026-01-20 05:33:32.70	289.46	9.24	-37.3	-38.1	23.2	0.00e+00	0	42	0	1440743424	46	6539
2026-01-20 05:33:33.71	289.63	9.24	-37.0	-37.8	23.4	0.00e+00	0	42	0	1447034880	46	6249
2026-01-20 05:33:34.72	289.81	9.24	-37.1	-37.9	23.1	0.00e+00	0	42	0	1452277760	46	6322
2026-01-20 05:33:35.73	289.99	9.24	-37.1	-37.8	23.1	0.00e+00	0	42	0	1458569216	48	5616
2026-01-20 05:33:36.74	290.16	9.25	-37.8	-38.6	22.9	0.00e+00	0	42	0	1463812096	48	6137
2026-01-20 05:33:37.75	290.34	9.25	-37.7	-38.4	22.8	0.00e+00	0	42	0	1470103552	48	5989
2026-01-20 05:33:38.76	290.52	9.25	-36.8	-37.6	23.6	0.00e+00	0	42	0	1475346432	48	5454
2026-01-20 05:33:39.76	290.69	9.25	-36.9	-37.6	23.5	0.00e+00	0	42	0	1480589312	46	6154
2026-01-20 05:33:40.78	290.87	9.25	-36.2	-36.9	24.1	0.00e+00	0	42	0	1486880768	46	5670
2026-01-20 05:33:41.79	291.05	9.25	-35.8	-36.5	24.3	0.00e+00	0	42	0	1492123648	46	5427
2026-01-20 05:33:42.80	291.22	9.25	-36.7	-37.5	23.6	0.00e+00	0	42	0	1498415104	46	6058
2026-01-20 05:33:43.81	291.40	9.25	-36.1	-36.8	24.2	0.00e+00	0	42	0	1503657984	46	5610
2026-01-20 05:33:44.82	291.57	9.25	-36.6	-37.3	23.8	0.00e+00	0	42	0	1508900864	46	5964
2026-01-20 05:33:45.83	291.75	9.24	-36.8	-37.6	23.7	0.00e+00	0	42	0	1515192320	46	6152
2026-01-20 05:33:46.83	291.93	9.24	-37.1	-37.8	23.6	0.00e+00	0	42	0	1520435200	46	6298
2026-01-20 05:33:47.84	292.10	9.24	-37.0	-37.7	23.6	0.00e+00	0	42	0	1525678080	46	6208
2026-01-20 05:33:48.85	292.28	9.24	-37.0	-37.8	23.6	0.00e+00	0	42	0	1531969536	46	6250
2026-01-20 05:33:49.86	292.45	9.24	-36.6	-37.3	23.7	0.00e+00	0	42	0	1537212416	46	5960
2026-01-20 05:33:50.87	292.63	9.23	-36.6	-37.3	23.5	0.00e+00	0	42	0	1543503872	46	5962
2026-01-20 05:33:51.88	292.81	9.23	-36.9	-37.7	23.4	0.00e+00	0	42	0	1548746752	46	6194
2026-01-20 05:33:52.89	292.98	9.23	-36.9	-37.6	23.4	0.00e+00	0	42	0	1555038208	46	6142
2026-01-20 05:33:53.90	293.16	9.23	-36.7	-37.5	23.5	0.00e+00	0	42	0	1560281088	46	6051
2026-01-20 05:33:54.91	293.34	9.22	-36.6	-37.4	23.8	0.00e+00	0	42	0	1566572544	46	5991
2026-01-20 05:33:55.92	293.51	9.22	-37.1	-37.9	23.3	0.00e+00	0	42	0	1571815424	46	6375
2026-01-20 05:33:56.93	293.69	9.22	-36.9	-37.7	23.4	0.00e+00	0	42	0	1577058304	46	6239
2026-01-20 05:33:57.94	293.86	9.21	-36.5	-37.2	23.8	0.00e+00	0	42	0	1583349760	46	5877
2026-01-20 05:33:58.95	294.04	9.21	-36.7	-37.5	23.5	0.00e+00	0	42	0	1588592640	46	6038
2026-01-20 05:33:59.95	294.21	9.20	-36.8	-37.5	23.4	0.00e+00	0	42	0	1594884096	46	6080
2026-01-20 05:34:00.96	294.39	9.20	-36.5	-37.3	23.8	0.00e+00	0	42	0	1600126976	46	5907
2026-01-20 05:34:01.98	294.57	9.19	-36.6	-37.3	23.7	0.00e+00	0	42	0	1605369856	46	5958
2026-01-20 05:34:02.99	294.74	9.19	-36.5	-37.3	23.8	0.00e+00	0	42	0	1611661312	46	5914
2026-01-20 05:34:04.00	294.92	9.18	-36.5	-37.2	23.7	0.00e+00	0	42	0	1616904192	46	5874
2026-01-20 05:34:05.01	295.10	9.18	-36.6	-37.3	23.7	0.00e+00	0	42	0	1623195648	46	5931
2026-01-20 05:34:06.02	295.27	9.17	-36.6	-37.4	23.8	0.00e+00	0	42	0	1628438528	46	5971
2026-01-20 05:34:07.03	295.45	9.17	-37.0	-37.7	23.4	0.00e+00	0	42	0	1633681408	46	6189
2026-01-20 05:34:08.04	295.62	9.16	-36.6	-37.3	23.8	0.00e+00	0	42	0	1639972864	46	5930
2026-01-20 05:34:09.05	295.80	9.15	-36.8	-37.6	23.2	0.00e+00	0	42	0	1645215744	46	6117
2026-01-20 05:34:10.06	295.97	9.15	-36.9	-37.6	23.4	0.00e+00	0	42	0	1651507200	46	6158
2026-01-20 05:34:11.07	296.15	9.14	-36.6	-37.3	23.6	0.00e+00	0	42	0	1656750080	46	5950
2026-01-20 05:34:12.08	296.32	9.13	-36.9	-37.7	23.3	0.00e+00	0	42	0	1663041536	46	6186
2026-01-20 05:34:13.09	296.50	9.13	-36.6	-37.3	23.6	0.00e+00	0	42	0	1668284416	46	5920
2026-01-20 05:34:14.10	296.67	9.12	-36.6	-37.4	23.6	0.00e+00	0	42	0	1674575872	46	5970
2026-01-20 05:34:15.11	296.85	9.11	-36.9	-37.7	23.3	0.00e+00	0	42	0	1679818752	46	6198
2026-01-20 05:34:16.12	297.02	9.10	-36.7	-37.4	23.5	0.00e+00	0	42	0	1685061632	46	6014
2026-01-20 05:34:17.13	297.20	9.09	-37.1	-37.9	23.1	0.00e+00	0	42	0	1691353088	46	6336
2026-01-20 05:34:18.14	297.37	9.08	-37.3	-38.1	23.0	0.00e+00	0	42	0	1696595968	46	6477
2026-01-20 05:34:19.15	297.55	9.08	-37.7	-38.5	22.8	0.00e+00	0	42	0	1702887424	46	6844
2026-01-20 05:34:20.16	297.72	9.07	-37.1	-37.8	23.3	0.00e+00	0	42	0	1708130304	48	5619
2026-01-20 05:34:21.17	297.89	9.06	-37.2	-37.9	23.1	0.00e+00	0	42	0	1713373184	48	5668
2026-01-20 05:34:22.18	298.07	9.05	-37.4	-38.2	23.1	0.00e+00	0	42	0	1719664640	48	5834
2026-01-20 05:34:23.19	298.24	9.04	-37.6	-38.5	22.7	0.00e+00	0	42	0	1724907520	48	6040
2026-01-20 05:34:24.20	298.42	9.03	-37.5	-38.3	22.9	0.00e+00	0	42	0	1731198976	48	5924
2026-01-20 05:34:25.21	298.59	9.02	-37.3	-38.1	23.0	0.00e+00	0	42	0	1736441856	48	5773
2026-01-20 05:34:26.22	298.76	9.01	-37.1	-37.9	23.1	0.00e+00	0	42	0	1741684736	48	5642
2026-01-20 05:34:27.23	298.94	9.00	-37.0	-37.8	23.4	0.00e+00	0	42	0	1747976192	48	5595
2026-01-20 05:34:28.24	299.11	8.99	-36.8	-37.5	23.5	0.00e+00	0	42	0	1753219072	48	5432
2026-01-20 05:34:29.25	299.28	8.98	-37.3	-38.1	23.0	0.00e+00	0	42	0	1759510528	48	5801
2026-01-20 05:34:30.26	299.46	8.96	-36.8	-37.6	23.5	0.00e+00	0	42	0	1764753408	48	5500
2026-01-20 05:34:31.27	299.63	8.95	-36.9	-37.7	23.3	0.00e+00	0	42	0	1771044864	48	5540
2026-01-20 05:34:32.28	299.80	8.94	-37.1	-37.8	23.3	0.00e+00	0	42	0	1776287744	48	5625
2026-01-20 05:34:33.29	299.98	8.93	-36.5	-37.3	23.7	0.00e+00	0	42	0	1781530624	46	5944
2026-01-20 05:34:34.30	300.15	8.92	-36.6	-37.3	23.8	0.00e+00	0	42	0	1787822080	46	5932
2026-01-20 05:34:35.31	300.32	8.91	-36.7	-37.5	23.6	0.00e+00	0	42	0	1793064960	46	6044
2026-01-20 05:34:36.32	300.49	8.89	-36.4	-37.1	23.9	0.00e+00	0	42	0	1799356416	46	5772
2026-01-20 05:34:37.33	300.67	8.88	-36.5	-37.2	23.7	0.00e+00	0	42	0	1804599296	46	5852
2026-01-20 05:34:38.34	300.84	8.87	-36.0	-36.7	24.2	0.00e+00	0	42	0	1809842176	46	5544
2026-01-20 05:34:39.35	301.01	8.85	-36.2	-36.9	24.1	0.00e+00	0	42	0	1816133632	46	5667
2026-01-20 05:34:40.36	301.18	8.84	-36.4	-37.0	24.0	0.00e+00	0	42	0	1821376512	46	5744
2026-01-20 05:34:41.38	301.35	8.83	-36.4	-37.2	23.8	0.00e+00	0	42	0	1827667968	46	5829
2026-01-20 05:34:42.39	301.53	8.81	-36.4	-37.1	23.9	0.00e+00	0	42	0	1832910848	46	5804
2026-01-20 05:34:43.39	301.69	8.80	-36.7	-37.4	23.7	0.00e+00	0	42	0	1838153728	46	6028
2026-01-20 05:34:44.40	301.87	8.78	-37.4	-38.2	23.2	0.00e+00	0	42	0	1844445184	46	6580
2026-01-20 05:34:45.41	302.04	8.77	-37.2	-37.9	23.2	0.00e+00	0	42	0	1849688064	46	6356
2026-01-20 05:34:46.42	302.21	8.76	-36.9	-37.6	23.6	0.00e+00	0	42	0	1855979520	46	6159
2026-01-20 05:34:47.43	302.38	8.74	-37.1	-37.9	23.5	0.00e+00	0	42	0	1861222400	46	6337
2026-01-20 05:34:48.44	302.55	8.73	-36.8	-37.5	24.0	0.00e+00	0	42	0	1867513856	46	6055
2026-01-20 05:34:49.45	302.72	8.71	-37.2	-38.0	23.6	0.00e+00	0	42	0	1872756736	46	6417
2026-01-20 05:34:50.46	302.89	8.69	-37.1	-37.9	23.6	0.00e+00	0	42	0	1879048192	46	6349
2026-01-20 05:34:51.47	303.06	8.68	-37.2	-37.9	23.6	0.00e+00	0	42	0	1884291072	46	6325
2026-01-20 05:34:52.48	303.23	8.66	-37.4	-38.2	23.6	0.00e+00	0	42	0	1889533952	46	6545
2026-01-20 05:34:53.49	303.40	8.65	-37.2	-38.0	23.5	0.00e+00	0	42	0	1895825408	46	6415
2026-01-20 05:34:54.50	303.57	8.63	-37.2	-38.0	23.3	0.00e+00	0	42	0	1901068288	46	6432
2026-01-20 05:34:55.51	303.74	8.61	-37.7	-38.5	22.9	0.00e+00	0	42	0	1907359744	46	6840
2026-01-20 05:34:56.52	303.91	8.60	-37.7	-38.5	23.0	0.00e+00	0	42	0	1912602624	46	6792
2026-01-20 05:34:57.53	304.07	8.58	-37.4	-38.2	23.4	0.00e+00	0	42	0	1917845504	46	6578
2026-01-20 05:34:58.54	304.24	8.56	-37.6	-38.3	23.4	0.00e+00	0	42	0	1924136960	46	6648
2026-01-20 05:34:59.55	304.41	8.55	-37.6	-38.4	23.2	0.00e+00	0	42	0	1929379840	46	6706
2026-01-20 05:35:00.56	304.58	8.53	-37.5	-38.2	23.2	0.00e+00	0	42	0	1935671296	46	6590
2026-01-20 05:35:01.57	304.75	8.51	-37.8	-38.5	22.8	0.00e+00	0	42	0	1940914176	48	6102
2026-01-20 05:35:02.58	304.91	8.49	-37.6	-38.3	23.1	0.00e+00	0	42	0	1946157056	48	5942
2026-01-20 05:35:03.59	305.08	8.47	-38.0	-38.8	22.8	0.00e+00	0	42	0	1952448512	48	6303
2026-01-20 05:35:04.60	305.25	8.46	-37.8	-38.6	23.1	0.00e+00	0	42	0	1957691392	48	6154
2026-01-20 05:35:05.61	305.42	8.44	-37.9	-38.7	23.1	0.00e+00	0	42	0	1963982848	48	6174
2026-01-20 05:35:06.62	305.58	8.42	-37.8	-38.6	23.0	0.00e+00	0	42	0	1969225728	48	6165
2026-01-20 05:35:07.63	305.75	8.40	-37.9	-38.7	22.9	0.00e+00	0	42	0	1975517184	48	6201
2026-01-20 05:35:08.64	305.92	8.38	-37.8	-38.6	23.2	0.00e+00	0	42	0	1980760064	48	6152
2026-01-20 05:35:09.65	306.08	8.36	-38.2	-39.0	23.1	0.00e+00	0	42	0	1987051520	48	6397
2026-01-20 05:35:10.66	306.25	8.34	-37.4	-38.1	23.4	0.00e+00	0	42	0	1992294400	48	5803
2026-01-20 05:35:11.67	306.41	8.32	-37.4	-38.2	23.3	0.00e+00	0	42	0	1997537280	48	5846
2026-01-20 05:35:12.68	306.58	8.30	-37.4	-38.2	23.3	0.00e+00	0	42	0	2003828736	48	5840
2026-01-20 05:35:13.68	306.74	8.28	-38.1	-38.9	23.0	0.00e+00	0	42	0	2009071616	48	6361
2026-01-20 05:35:14.69	306.91	8.26	-38.1	-38.8	22.6	0.00e+00	0	42	0	2014314496	48	6261
2026-01-20 05:35:15.70	307.07	8.24	-38.0	-38.8	22.7	0.00e+00	0	42	0	2020605952	48	6293
2026-01-20 05:35:16.71	307.24	8.22	-37.8	-38.6	22.9	0.00e+00	0	42	0	2025848832	48	6129
2026-01-20 05:35:17.72	307.40	8.20	-37.3	-38.1	23.5	0.00e+00	0	42	0	2032140288	48	5799
2026-01-20 05:35:18.73	307.57	8.18	-37.5	-38.2	23.2	0.00e+00	0	42	0	2037383168	48	5879
2026-01-20 05:35:19.74	307.73	8.16	-37.4	-38.2	23.3	0.00e+00	0	42	0	2042626048	48	5851
2026-01-20 05:35:20.75	307.90	8.14	-37.6	-38.4	23.3	0.00e+00	0	42	0	2048917504	48	6008
2026-01-20 05:35:21.76	308.06	8.12	-37.1	-37.9	23.4	0.00e+00	0	42	0	2054160384	48	5689
2026-01-20 05:35:22.77	308.22	8.09	-37.6	-38.4	23.2	0.00e+00	0	42	0	2060451840	48	5991
2026-01-20 05:35:23.78	308.39	8.07	-37.7	-38.4	23.0	0.00e+00	0	42	0	2065694720	48	6020
2026-01-20 05:35:24.79	308.55	8.05	-38.0	-38.7	23.0	0.00e+00	0	42	0	2071986176	48	6226
2026-01-20 05:35:25.80	308.71	8.03	-38.2	-39.0	23.0	0.00e+00	0	42	0	2077229056	48	6456
2026-01-20 05:35:26.81	308.87	8.01	-37.5	-38.3	23.4	0.00e+00	0	42	0	2083520512	48	5916
2026-01-20 05:35:27.82	309.04	7.98	-37.6	-38.4	23.2	0.00e+00	0	42	0	2088763392	48	5970
2026-01-20 05:35:28.83	309.20	7.96	-37.8	-38.6	23.0	0.00e+00	0	42	0	2094006272	48	6153
2026-01-20 05:35:29.84	309.36	7.94	-37.9	-38.8	22.9	0.00e+00	0	42	0	2100297728	48	6256
2026-01-20 05:35:30.85	309.52	7.91	-37.6	-38.4	23.1	0.00e+00	0	42	0	2105540608	48	6010
2026-01-20 05:35:31.86	309.68	7.89	-37.7	-38.5	22.9	0.00e+00	0	42	0	2111832064	48	6046
2026-01-20 05:35:32.87	309.84	7.87	-37.3	-38.0	23.2	0.00e+00	0	42	0	2117074944	48	5724
2026-01-20 05:35:33.88	310.00	7.84	-37.6	-38.4	23.2	0.00e+00	0	42	0	2122317824	48	6011
2026-01-20 05:35:34.88	310.16	7.82	-37.8	-38.6	22.9	0.00e+00	0	42	0	2128609280	48	6164
2026-01-20 05:35:35.89	310.32	7.80	-37.8	-38.6	23.0	0.00e+00	0	42	0	2133852160	48	6124
2026-01-20 05:35:36.90	310.48	7.77	-37.6	-38.4	23.1	0.00e+00	0	42	0	2140143616	48	5969
2026-01-20 05:35:37.91	310.64	7.75	-37.4	-38.2	23.2	0.00e+00	0	42	0	2145386496	48	5891
2026-01-20 05:35:38.92	310.80	7.72	-37.4	-38.2	23.1	0.00e+00	0	42	0	2150629376	48	5830
2026-01-20 05:35:39.94	310.96	7.70	-37.0	-37.7	23.3	0.00e+00	0	42	0	2156920832	48	5539
2026-01-20 05:35:40.95	311.12	7.67	-37.0	-37.7	23.3	0.00e+00	0	42	0	2162163712	48	5547
2026-01-20 05:35:41.96	311.28	7.65	-37.2	-38.0	23.3	0.00e+00	0	42	0	2168455168	48	5705
2026-01-20 05:35:42.96	311.44	7.62	-37.8	-38.6	22.8	0.00e+00	0	42	0	2173698048	48	6114
2026-01-20 05:35:43.97	311.59	7.60	-37.9	-38.7	22.8	0.00e+00	0	42	0	2179989504	48	6207
2026-01-20 05:35:44.98	311.75	7.57	-38.0	-38.8	22.5	0.00e+00	0	42	0	2185232384	48	6255
2026-01-20 05:35:45.99	311.91	7.55	-37.5	-38.2	23.0	0.00e+00	0	42	0	2190475264	48	5863
2026-01-20 05:35:47.00	312.07	7.52	-37.7	-38.5	22.6	0.00e+00	0	42	0	2196766720	48	6075
2026-01-20 05:35:48.01	312.22	7.50	-37.9	-38.7	22.6	0.00e+00	0	42	0	2202009600	48	6199
2026-01-20 05:35:49.02	312.38	7.47	-37.9	-38.7	22.5	0.00e+00	0	42	0	2208301056	48	6212
2026-01-20 05:35:50.03	312.54	7.44	-38.2	-39.0	22.1	0.00e+00	0	42	0	2213543936	48	6415
2026-01-20 05:35:51.05	312.69	7.42	-38.0	-38.8	22.7	0.00e+00	0	42	0	2218786816	48	6280
2026-01-20 05:35:52.05	312.85	7.39	-38.2	-39.0	22.5	0.00e+00	0	42	0	2225078272	48	6458
2026-01-20 05:35:53.06	313.00	7.37	-38.2	-39.0	22.7	0.00e+00	0	42	0	2230321152	48	6458
2026-01-20 05:35:54.07	313.16	7.34	-38.0	-38.8	22.7	0.00e+00	0	42	0	2236612608	48	6302
2026-01-20 05:35:55.08	313.31	7.31	-38.3	-39.0	22.6	0.00e+00	0	42	0	2241855488	48	6461
2026-01-20 05:35:56.09	313.47	7.28	-37.7	-38.5	23.0	0.00e+00	0	42	0	2247098368	48	6053
2026-01-20 05:35:57.10	313.62	7.26	-37.8	-38.6	22.7	0.00e+00	0	42	0	2253389824	48	6159
2026-01-20 05:35:58.11	313.78	7.23	-37.4	-38.2	23.0	0.00e+00	0	42	0	2258632704	48	5847
2026-01-20 05:35:59.12	313.93	7.20	-37.5	-38.2	22.9	0.00e+00	0	42	0	2264924160	48	5863
2026-01-20 05:36:00.13	314.09	7.17	-38.0	-38.8	22.5	0.00e+00	0	42	0	2270167040	48	6291
2026-01-20 05:36:01.14	314.24	7.15	-37.7	-38.5	23.0	0.00e+00	0	42	0	2276458496	48	6050
2026-01-20 05:36:02.15	314.39	7.12	-38.2	-39.0	22.5	0.00e+00	0	42	0	2281701376	48	6420
2026-01-20 05:36:03.16	314.55	7.09	-38.3	-39.1	22.8	0.00e+00	0	42	0	2287992832	50	5815
2026-01-20 05:36:04.17	314.70	7.06	-38.1	-38.8	22.7	0.00e+00	0	42	0	2293235712	50	5619
2026-01-20 05:36:05.18	314.85	7.03	-38.4	-39.2	22.5	0.00e+00	0	42	0	2298478592	50	5848
2026-01-20 05:36:06.19	315.00	7.01	-37.7	-38.5	22.8	0.00e+00	0	42	0	2304770048	50	5425
2026-01-20 05:36:07.20	315.15	6.98	-37.7	-38.5	22.9	0.00e+00	0	42	0	2310012928	48	6051
2026-01-20 05:36:08.21	315.30	6.95	-37.5	-38.3	23.0	0.00e+00	0	42	0	2316304384	48	5951
2026-01-20 05:36:09.22	315.46	6.92	-37.5	-38.2	22.9	0.00e+00	0	42	0	2321547264	48	5868
2026-01-20 05:36:10.23	315.61	6.89	-37.6	-38.4	22.8	0.00e+00	0	42	0	2326790144	48	5976
2026-01-20 05:36:11.24	315.76	6.86	-37.9	-38.7	22.4	0.00e+00	0	42	0	2333081600	48	6212
2026-01-20 05:36:12.25	315.91	6.83	-37.9	-38.7	22.4	0.00e+00	0	42	0	2338324480	48	6183
2026-01-20 05:36:13.26	316.06	6.80	-38.4	-39.2	22.1	0.00e+00	0	42	0	2344615936	48	6552
2026-01-20 05:36:14.27	316.21	6.77	-38.1	-38.9	22.3	0.00e+00	0	42	0	2349858816	48	6386
2026-01-20 05:36:15.28	316.36	6.74	-38.2	-39.0	22.2	0.00e+00	0	42	0	2355101696	48	6441
2026-01-20 05:36:16.28	316.50	6.71	-38.5	-39.3	22.0	0.00e+00	0	42	0	2361393152	48	6685
2026-01-20 05:36:17.29	316.65	6.68	-38.5	-39.3	21.9	0.00e+00	0	42	0	2366636032	48	6690
2026-01-20 05:36:18.30	316.80	6.65	-38.2	-39.0	22.0	0.00e+00	0	42	0	2372927488	48	6439
2026-01-20 05:36:19.31	316.95	6.62	-38.4	-39.2	22.1	0.00e+00	0	42	0	2378170368	48	6562
2026-01-20 05:36:20.31	317.10	6.59	-38.1	-38.9	22.2	0.00e+00	0	42	0	2384461824	48	6361
2026-01-20 05:36:21.32	317.24	6.56	-38.3	-39.1	21.9	0.00e+00	0	42	0	2389704704	48	6477
2026-01-20 05:36:22.33	317.39	6.53	-38.8	-39.6	21.8	0.00e+00	0	42	0	2394947584	50	6172
2026-01-20 05:36:23.34	317.54	6.50	-38.4	-39.1	22.2	0.00e+00	0	42	0	2401239040	50	5822
2026-01-20 05:36:24.35	317.68	6.47	-38.6	-39.5	22.2	0.00e+00	0	42	0	2406481920	50	6053
2026-01-20 05:36:25.36	317.83	6.44	-38.1	-38.8	22.6	0.00e+00	0	42	0	2412773376	50	5622
2026-01-20 05:36:26.37	317.98	6.41	-38.5	-39.3	22.2	0.00e+00	0	42	0	2418016256	50	5927
2026-01-20 05:36:27.38	318.12	6.38	-38.9	-39.7	21.6	0.00e+00	0	42	0	2423259136	50	6211
2026-01-20 05:36:28.39	318.27	6.35	-39.2	-40.0	21.2	0.00e+00	0	42	0	2429550592	50	6430
2026-01-20 05:36:29.40	318.41	6.32	-39.6	-40.4	21.1	0.00e+00	0	42	0	2434793472	50	6728
2026-01-20 05:36:30.41	318.56	6.28	-38.5	-39.4	21.8	0.00e+00	0	42	0	2441084928	50	5973
2026-01-20 05:36:31.42	318.70	6.25	-38.8	-39.7	21.4	0.00e+00	0	42	0	2446327808	50	6192
2026-01-20 05:36:32.43	318.85	6.22	-38.8	-39.6	21.4	0.00e+00	0	42	0	2451570688	50	6151
2026-01-20 05:36:33.44	318.99	6.19	-38.9	-39.8	21.5	0.00e+00	0	42	0	2457862144	50	6274
2026-01-20 05:36:34.46	319.13	6.16	-37.9	-38.8	22.4	0.00e+00	0	42	0	2463105024	50	5583
2026-01-20 05:36:35.47	319.28	6.12	-38.4	-39.2	21.8	0.00e+00	0	42	0	2469396480	50	5883
2026-01-20 05:36:36.48	319.42	6.09	-38.5	-39.3	21.8	0.00e+00	0	42	0	2474639360	50	5940
2026-01-20 05:36:37.49	319.56	6.06	-39.0	-39.9	21.2	0.00e+00	0	42	0	2480930816	50	6348
2026-01-20 05:36:38.50	319.71	6.03	-38.4	-39.3	21.9	0.00e+00	0	42	0	2486173696	50	5947
2026-01-20 05:36:39.51	319.85	6.00	-38.8	-39.6	21.7	0.00e+00	0	42	0	2492465152	50	6158
2026-01-20 05:36:40.52	319.99	5.96	-38.4	-39.3	21.9	0.00e+00	0	42	0	2497708032	50	5908
2026-01-20 05:36:41.52	320.13	5.93	-38.2	-38.9	22.0	0.00e+00	0	42	0	2502950912	50	5674
2026-01-20 05:36:42.54	320.27	5.90	-38.1	-38.8	22.0	0.00e+00	0	42	0	2509242368	50	5605
2026-01-20 05:36:43.54	320.41	5.87	-38.5	-39.3	21.7	0.00e+00	0	42	0	2514485248	50	5908
2026-01-20 05:36:44.56	320.55	5.83	-38.9	-39.8	21.6	0.00e+00	0	42	0	2520776704	50	6296
2026-01-20 05:36:45.56	320.69	5.80	-38.3	-39.1	22.1	0.00e+00	0	42	0	2526019584	50	5819
2026-01-20 05:36:46.57	320.83	5.77	-38.6	-39.4	22.3	0.00e+00	0	42	0	2531262464	50	6020
2026-01-20 05:36:47.58	320.97	5.73	-39.3	-40.1	21.8	0.00e+00	0	42	0	2537553920	50	6535
2026-01-20 05:36:48.59	321.11	5.70	-39.2	-40.0	21.6	0.00e+00	0	42	0	2542796800	50	6429
2026-01-20 05:36:49.60	321.25	5.67	-38.8	-39.6	22.0	0.00e+00	0	42	0	2549088256	50	6155
2026-01-20 05:36:50.61	321.39	5.63	-38.6	-39.5	22.1	0.00e+00	0	42	0	2554331136	50	6078
2026-01-20 05:36:51.62	321.53	5.60	-38.9	-39.7	22.0	0.00e+00	0	42	0	2559574016	50	6229
2026-01-20 05:36:52.63	321.67	5.56	-38.4	-39.2	22.3	0.00e+00	0	42	0	2565865472	50	5860
2026-01-20 05:36:53.64	321.80	5.53	-38.0	-38.8	22.6	0.00e+00	0	42	0	2571108352	50	5577
2026-01-20 05:36:54.64	321.94	5.50	-38.7	-39.5	21.9	0.00e+00	0	42	0	2577399808	50	6099
2026-01-20 05:36:55.65	322.08	5.46	-38.6	-39.3	22.5	0.00e+00	0	42	0	2582642688	50	5961
2026-01-20 05:36:56.66	322.21	5.43	-38.0	-38.8	22.6	0.00e+00	0	42	0	2588934144	50	5579
2026-01-20 05:36:57.67	322.35	5.40	-38.2	-39.0	22.5	0.00e+00	0	42	0	2594177024	50	5733
2026-01-20 05:36:58.68	322.49	5.36	-39.1	-40.0	21.6	0.00e+00	0	42	0	2599419904	50	6433
2026-01-20 05:36:59.69	322.62	5.33	-38.5	-39.3	22.1	0.00e+00	0	42	0	2605711360	50	5943
2026-01-20 05:37:00.70	322.76	5.29	-38.2	-39.0	22.3	0.00e+00	0	42	0	2610954240	50	5715
2026-01-20 05:37:01.71	322.89	5.26	-38.6	-39.4	22.1	0.00e+00	0	42	0	2617245696	50	5970
2026-01-20 05:37:02.72	323.03	5.22	-38.7	-39.4	22.3	0.00e+00	0	42	0	2622488576	50	6032
2026-01-20 05:37:03.72	323.16	5.19	-38.3	-39.2	22.3	0.00e+00	0	42	0	2627731456	50	5830
2026-01-20 05:37:04.73	323.30	5.15	-38.5	-39.3	22.0	0.00e+00	0	42	0	2634022912	50	5914
2026-01-20 05:37:05.75	323.43	5.12	-38.0	-38.8	22.3	0.00e+00	0	42	0	2639265792	50	5570
2026-01-20 05:37:06.75	323.56	5.08	-38.7	-39.5	21.9	0.00e+00	0	42	0	2645557248	50	6038
2026-01-20 05:37:07.77	323.70	5.05	-39.3	-40.1	21.1	0.00e+00	0	42	0	2650800128	50	6480
2026-01-20 05:37:08.77	323.83	5.01	-39.5	-40.4	21.1	0.00e+00	0	42	0	2656043008	52	5974
2026-01-20 05:37:09.78	323.96	4.98	-38.9	-39.7	21.7	0.00e+00	0	42	0	2662334464	52	5552
2026-01-20 05:37:10.79	324.10	4.94	-39.5	-40.5	21.2	0.00e+00	0	42	0	2667577344	50	6774
2026-01-20 05:37:11.80	324.23	4.91	-39.5	-40.4	21.7	0.00e+00	0	42	0	2673868800	50	6725
2026-01-20 05:37:12.81	324.36	4.87	-39.0	-39.9	21.4	0.00e+00	0	42	0	2679111680	50	6318
2026-01-20 05:37:13.82	324.49	4.84	-39.3	-40.2	21.2	0.00e+00	0	42	0	2685403136	50	6541
2026-01-20 05:37:14.83	324.62	4.80	-39.0	-39.8	21.5	0.00e+00	0	42	0	2690646016	50	6308
2026-01-20 05:37:15.84	324.75	4.77	-39.6	-40.4	21.0	0.00e+00	0	42	0	2696937472	52	6000
2026-01-20 05:37:16.86	324.89	4.73	-39.1	-40.0	21.5	0.00e+00	0	42	0	2702180352	52	5699
2026-01-20 05:37:17.87	325.02	4.69	-39.2	-40.0	21.5	0.00e+00	0	42	0	2707423232	52	5749
2026-01-20 05:37:18.88	325.15	4.66	-38.6	-39.3	21.8	0.00e+00	0	42	0	2713714688	50	5932
2026-01-20 05:37:19.89	325.28	4.62	-39.0	-39.9	21.2	0.00e+00	0	42	0	2718957568	50	6319
2026-01-20 05:37:20.90	325.41	4.59	-39.4	-40.3	21.0	0.00e+00	0	42	0	2725249024	50	6627
2026-01-20 05:37:21.91	325.53	4.55	-39.5	-40.3	20.8	0.00e+00	0	42	0	2730491904	50	6687
2026-01-20 05:37:22.92	325.66	4.51	-40.1	-41.0	20.1	0.00e+00	0	42	0	2735734784	52	6454
2026-01-20 05:37:23.93	325.79	4.48	-40.3	-41.3	20.5	0.00e+00	0	42	0	2742026240	54	5927
2026-01-20 05:37:24.94	325.92	4.44	-39.2	-40.1	21.3	0.00e+00	0	42	0	2747269120	52	5782
2026-01-20 05:37:25.95	326.05	4.41	-39.3	-40.2	21.1	0.00e+00	0	42	0	2753560576	52	5844
2026-01-20 05:37:26.96	326.18	4.37	-39.7	-40.6	20.3	0.00e+00	0	42	0	2758803456	52	6150
2026-01-20 05:37:27.97	326.30	4.33	-40.6	-41.6	20.2	0.00e+00	0	42	0	2764046336	54	6123
2026-01-20 05:37:28.98	326.43	4.30	-38.3	-39.1	22.7	0.00e+00	0	42	0	2770337792	52	5176
2026-01-20 05:37:29.99	326.56	4.26	-39.0	-39.9	21.1	0.00e+00	0	42	0	2775580672	50	6336
2026-01-20 05:37:31.00	326.68	4.22	-40.0	-41.0	20.7	0.00e+00	0	42	0	2781872128	52	6427
2026-01-20 05:37:32.01	326.81	4.19	-40.4	-41.4	20.0	0.00e+00	0	42	0	2787115008	52	6740
2026-01-20 05:37:33.02	326.94	4.15	-38.3	-39.2	22.0	0.00e+00	0	42	0	2793406464	50	5876
2026-01-20 05:37:34.03	327.06	4.11	-37.6	-38.3	22.6	0.00e+00	0	42	0	2798649344	48	5952
2026-01-20 05:37:35.04	327.19	4.08	-40.7	-41.6	19.2	0.00e+00	0	42	0	2804940800	52	6921
2026-01-20 05:37:36.05	327.31	4.04	-38.7	-39.5	21.5	0.00e+00	0	42	0	2810183680	50	6090
2026-01-20 05:37:37.06	327.44	4.00	-37.5	-38.2	22.4	0.00e+00	0	42	0	2815426560	50	5252
2026-01-20 05:37:38.07	327.56	3.96	-38.0	-38.9	22.0	0.00e+00	0	42	0	2821718016	48	6342
2026-01-20 05:37:39.08	327.68	3.93	-39.8	-40.8	19.8	0.00e+00	0	42	0	2826960896	52	6296
2026-01-20 05:37:40.08	327.81	3.89	-39.1	-40.0	20.7	0.00e+00	0	42	0	2832203776	52	5697
2026-01-20 05:37:41.09	327.93	3.85	-39.5	-40.4	20.1	0.00e+00	0	42	0	2838495232	52	5997
2026-01-20 05:37:42.10	328.05	3.82	-38.0	-38.8	22.1	0.00e+00	0	42	0	2843738112	50	5619
2026-01-20 05:37:43.11	328.18	3.78	-38.4	-39.3	21.7	0.00e+00	0	42	0	2850029568	50	5918
2026-01-20 05:37:44.12	328.30	3.74	-39.2	-40.0	21.0	0.00e+00	0	42	0	2855272448	50	6415
2026-01-20 05:37:45.13	328.42	3.70	-40.5	-41.4	19.8	0.00e+00	0	42	0	2860515328	52	6695
2026-01-20 05:37:46.14	328.54	3.67	-40.2	-41.1	20.2	0.00e+00	0	42	0	2866806784	54	5814
2026-01-20 05:37:47.15	328.66	3.63	-39.7	-40.5	21.0	0.00e+00	0	42	0	2872049664	52	6077
2026-01-20 05:37:48.17	328.79	3.59	-39.6	-40.5	20.8	0.00e+00	0	42	0	2878341120	50	6810
2026-01-20 05:37:49.18	328.91	3.55	-38.8	-39.7	21.4	0.00e+00	0	42	0	2883584000	50	6210
2026-01-20 05:37:50.19	329.03	3.52	-39.8	-40.8	20.1	0.00e+00	0	42	0	2889875456	52	6301
2026-01-20 05:37:51.20	329.15	3.48	-40.0	-41.0	20.2	0.00e+00	0	42	0	2895118336	52	6422
2026-01-20 05:37:52.21	329.27	3.44	-38.8	-39.6	21.4	0.00e+00	0	42	0	2901409792	50	6143
2026-01-20 05:37:53.22	329.39	3.40	-40.4	-41.4	19.6	0.00e+00	0	42	0	2906652672	54	6022
2026-01-20 05:37:54.22	329.51	3.36	-41.7	-42.7	19.3	0.00e+00	0	42	0	2911895552	58	5539
2026-01-20 05:37:55.23	329.63	3.33	-41.7	-42.8	18.2	0.00e+00	0	42	0	2918187008	54	7060
2026-01-20 05:37:56.25	329.75	3.29	-41.4	-42.5	19.0	0.00e+00	0	42	0	2923429888	56	6059
2026-01-20 05:37:57.26	329.86	3.25	-40.4	-41.3	19.7	0.00e+00	0	42	0	2929721344	52	6675
2026-01-20 05:37:58.27	329.98	3.21	-42.1	-43.4	17.4	0.00e+00	0	42	0	2934964224	56	6708
2026-01-20 05:37:59.28	330.10	3.17	-42.1	-43.4	18.0	0.00e+00	0	42	0	2940207104	58	5966
2026-01-20 05:38:00.29	330.22	3.14	-43.1	-44.6	15.9	0.00e+00	0	42	0	2946498560	56	7717
2026-01-20 05:38:01.30	330.34	3.10	-42.7	-44.2	16.3	0.00e+00	0	42	0	2951741440	60	5842
2026-01-20 05:38:02.31	330.45	3.06	-43.0	-44.5	15.9	0.00e+00	0	42	0	2958032896	58	6831
2026-01-20 05:38:03.32	330.57	3.02	-44.9	-47.0	13.6	0.00e+00	0	42	0	2963275776	58	9061
2026-01-20 05:38:04.33	330.69	2.98	-51.1	-63.2	3.6	8.44e-01	0	42	104	2964324352	60	52259
2026-01-20 05:38:05.34	330.80	2.94	-51.5	-63.6	3.6	8.46e-01	0	42	104	2964324352	60	54752
2026-01-20 05:38:06.35	330.92	2.91	-51.8	-64.0	3.6	8.45e-01	0	42	104	2964324352	60	57081
2026-01-20 05:38:07.36	331.03	2.87	-51.6	-63.7	3.6	8.43e-01	0	42	104	2964324352	60	55549
2026-01-20 05:38:08.37	331.15	2.83	-51.4	-63.5	3.6	8.46e-01	0	42	104	2964324352	60	54099
2026-01-20 05:38:09.38	331.27	2.79	-51.6	-63.7	3.6	8.45e-01	0	42	104	2964324352	60	55290
2026-01-20 05:38:10.39	331.38	2.75	-51.7	-63.8	3.6	8.45e-01	0	42	104	2964324352	60	56263
2026-01-20 05:38:11.40	331.49	2.71	-51.5	-63.7	3.6	8.44e-01	0	42	104	2964324352	60	55302
2026-01-20 05:38:12.41	331.61	2.67	-51.7	-63.9	3.6	8.45e-01	0	42	104	2964324352	60	56509
2026-01-20 05:38:13.42	331.72	2.64	-51.8	-63.9	3.6	8.46e-01	0	42	104	2964324352	60	56942
2026-01-20 05:38:14.43	331.84	2.60	-51.6	-63.7	3.6	8.45e-01	0	42	104	2964324352	60	55485
2026-01-20 05:38:15.44	331.95	2.56	-51.6	-63.7	3.6	8.46e-01	0	42	104	2964324352	60	55414
2026-01-20 05:38:16.45	332.06	2.52	-51.4	-63.6	3.6	8.46e-01	0	42	104	2964324352	60	54646
2026-01-20 05:38:17.46	332.18	2.48	-51.7	-64.0	3.6	8.46e-01	0	42	104	2964324352	60	57245
2026-01-20 05:38:18.47	332.29	2.44	-52.4	-64.7	3.6	8.46e-01	0	42	104	2964324352	60	62344
2026-01-20 05:38:19.48	332.40	2.40	-51.7	-64.1	3.6	8.44e-01	0	42	104	2964324352	60	57967
2026-01-20 05:38:20.49	332.51	2.36	-52.0	-64.1	3.6	8.47e-01	0	42	104	2964324352	60	58273
2026-01-20 05:38:21.50	332.62	2.33	-52.0	-64.2	3.6	8.46e-01	0	42	104	2964324352	60	58493
2026-01-20 05:38:22.51	332.74	2.29	-52.0	-64.2	3.6	8.44e-01	0	42	104	2964324352	60	58912
2026-01-20 05:38:23.52	332.85	2.25	-52.1	-64.3	3.6	8.46e-01	0	42	104	2964324352	60	59308
2026-01-20 05:38:24.53	332.96	2.21	-52.0	-64.2	3.6	8.45e-01	0	42	104	2964324352	60	58364
2026-01-20 05:38:25.53	333.07	2.17	-52.4	-64.5	3.6	8.45e-01	0	42	104	2964324352	60	61015
2026-01-20 05:38:26.55	333.18	2.13	-51.9	-64.0	3.6	8.45e-01	0	42	104	2964324352	60	57609
2026-01-20 05:38:27.56	333.29	2.09	-51.8	-63.9	3.6	8.46e-01	0	42	104	2964324352	60	56757
2026-01-20 05:38:28.56	333.40	2.05	-52.3	-64.4	3.6	8.45e-01	0	42	104	2964324352	60	59955
2026-01-20 05:38:29.57	333.51	2.01	-52.0	-64.1	3.5	8.45e-01	0	42	104	2964324352	60	58187
2026-01-20 05:38:30.58	333.62	1.97	-52.2	-64.4	3.6	8.45e-01	0	42	104	2964324352	60	59964
2026-01-20 05:38:31.59	333.73	1.93	-52.3	-64.4	3.6	8.44e-01	0	42	104	2964324352	60	60117
2026-01-20 05:38:32.60	333.83	1.90	-52.7	-64.8	3.6	8.44e-01	0	42	104	2964324352	60	63049
2026-01-20 05:38:33.61	333.94	1.86	-52.6	-64.8	3.6	8.46e-01	0	42	104	2964324352	60	62464
2026-01-20 05:38:34.62	334.05	1.82	-52.8	-65.0	3.6	8.45e-01	0	42	104	2964324352	60	64204
2026-01-20 05:38:35.63	334.16	1.78	-53.2	-65.4	3.6	8.44e-01	0	42	104	2964324352	60	67036
2026-01-20 05:38:36.64	334.27	1.74	-52.9	-65.0	3.6	8.46e-01	0	42	104	2964324352	60	64595
2026-01-20 05:38:37.65	334.37	1.70	-52.7	-64.9	3.6	8.44e-01	0	42	104	2964324352	60	63628
2026-01-20 05:38:38.66	334.48	1.66	-52.7	-64.9	3.6	8.46e-01	0	42	104	2964324352	60	63252
2026-01-20 05:38:39.67	334.59	1.62	-52.7	-64.8	3.6	8.46e-01	0	42	104	2964324352	60	62911
2026-01-20 05:38:40.68	334.69	1.58	-52.9	-65.1	3.6	8.46e-01	0	42	104	2964324352	60	64799
2026-01-20 05:38:41.69	334.80	1.54	-52.5	-64.6	3.6	8.45e-01	0	42	104	2964324352	60	61523
2026-01-20 05:38:42.70	334.91	1.50	-52.2	-64.4	3.6	8.45e-01	0	42	104	2964324352	60	59890
2026-01-20 05:38:43.71	335.01	1.46	-51.8	-63.9	3.6	8.45e-01	0	42	104	2964324352	60	56761
2026-01-20 05:38:44.72	335.12	1.42	-51.8	-64.0	3.6	8.45e-01	0	42	104	2964324352	60	57238
2026-01-20 05:38:45.73	335.22	1.38	-52.1	-64.2	3.6	8.45e-01	0	42	104	2964324352	60	58691
2026-01-20 05:38:46.74	335.33	1.34	-52.6	-64.7	3.6	8.45e-01	0	42	104	2964324352	60	62209
2026-01-20 05:38:47.75	335.43	1.30	-52.5	-64.7	3.6	8.46e-01	0	42	104	2964324352	60	61757
2026-01-20 05:38:48.76	335.54	1.26	-53.0	-65.1	3.6	8.45e-01	0	42	104	2964324352	60	65146
2026-01-20 05:38:49.77	335.64	1.22	-52.8	-65.0	3.6	8.46e-01	0	42	104	2964324352	60	64141
2026-01-20 05:38:50.78	335.74	1.19	-52.6	-64.8	3.6	8.46e-01	0	42	104	2964324352	60	62600
2026-01-20 05:38:51.79	335.85	1.15	-52.5	-64.6	3.6	8.46e-01	0	42	104	2964324352	60	61344
2026-01-20 05:38:52.80	335.95	1.11	-52.8	-65.0	3.6	8.45e-01	0	42	104	2964324352	60	64005
2026-01-20 05:38:53.82	336.05	1.07	-53.3	-65.4	3.6	8.45e-01	0	42	104	2964324352	60	67188
2026-01-20 05:38:54.83	336.16	1.03	-52.6	-64.8	3.6	8.44e-01	0	42	104	2964324352	60	62683
2026-01-20 05:38:55.84	336.26	0.99	-52.1	-64.2	3.6	8.44e-01	0	42	104	2964324352	60	58719
2026-01-20 05:38:56.85	336.36	0.95	-52.7	-64.8	3.6	8.45e-01	0	42	104	2964324352	60	62657
2026-01-20 05:38:57.86	336.46	0.91	-52.8	-65.0	3.6	8.45e-01	0	42	104	2964324352	60	64076
2026-01-20 05:38:58.87	336.57	0.87	-52.5	-64.6	3.6	8.46e-01	0	42	104	2964324352	60	61504
2026-01-20 05:38:59.88	336.67	0.83	-53.0	-65.2	3.6	8.45e-01	0	42	104	2964324352	60	65520
2026-01-20 05:39:00.88	336.77	0.79	-53.1	-65.2	3.6	8.45e-01	0	42	104	2964324352	60	65955
2026-01-20 05:39:01.89	336.87	0.75	-52.5	-64.6	3.6	8.45e-01	0	42	104	2964324352	60	61398
2026-01-20 05:39:02.90	336.97	0.71	-52.6	-64.8	3.6	8.44e-01	0	42	104	2964324352	60	62779
2026-01-20 05:39:03.91	337.07	0.67	-52.7	-64.9	3.6	8.45e-01	0	42	104	2964324352	60	63265
2026-01-20 05:39:04.92	337.17	0.63	-52.7	-64.7	3.6	8.45e-01	0	42	104	2964324352	60	62152
2026-01-20 05:39:05.93	337.27	0.59	-52.9	-65.0	3.6	8.44e-01	0	42	104	2964324352	60	64436
2026-01-20 05:39:06.94	337.37	0.55	-52.6	-64.8	3.6	8.45e-01	0	42	104	2964324352	60	62479
2026-01-20 05:39:07.95	337.47	0.51	-52.6	-64.7	3.6	8.46e-01	0	42	104	2964324352	60	62182
2026-01-20 05:39:08.96	337.57	0.47	-52.8	-64.9	3.6	8.45e-01	0	42	104	2964324352	60	63717
2026-01-20 05:39:09.97	337.67	0.43	-52.3	-64.5	3.6	8.46e-01	0	42	104	2964324352	60	60459
2026-01-20 05:39:10.98	337.77	0.39	-53.4	-65.5	3.6	8.45e-01	0	42	104	2964324352	60	68108
2026-01-20 05:39:11.99	337.87	0.35	-53.3	-65.4	3.6	8.45e-01	0	42	104	2964324352	60	67377
2026-01-20 05:39:13.00	337.96	0.31	-53.0	-65.2	3.6	8.44e-01	0	42	104	2964324352	60	65798
2026-01-20 05:39:14.01	338.06	0.27	-53.1	-65.2	3.6	8.45e-01	0	42	104	2964324352	60	66148
2026-01-20 05:39:15.02	338.16	0.23	-52.6	-64.7	3.6	8.45e-01	0	42	104	2964324352	60	62392
2026-01-20 05:39:16.03	338.26	0.19	-52.8	-65.0	3.6	8.45e-01	0	42	104	2964324352	60	64199
2026-01-20 05:39:17.04	338.35	0.15	-52.6	-64.8	3.6	8.45e-01	0	42	104	2964324352	60	62787
2026-01-20 05:39:18.04	338.45	0.11	-52.7	-64.9	3.6	8.45e-01	0	42	104	2964324352	60	63186
2026-01-20 05:39:19.05	338.55	0.07	-52.8	-65.0	3.6	8.44e-01	0	42	104	2964324352	60	64076
2026-01-20 05:39:20.06	338.64	0.03	-53.6	-65.7	3.6	8.46e-01	0	42	104	2964324352	60	69894
2026-01-20 05:39:21.07	338.74	-0.01	-52.6	-64.7	3.6	8.45e-01	0	42	104	2964324352	60	62411
2026-01-20 05:39:22.08	338.84	-0.05	-52.6	-64.8	3.6	8.45e-01	0	42	104	2964324352	60	62878

#Closed at: 2026-01-20 05:39:22
#Recorded file [2964 MB]: D:/lorett/data/35029_260120_172803.dat