passes_logs/2026/01/20/R4.6S_Anadyr/R4.6S_Anadyr__20260120_200954_NOAA_20_JPSS-1_rec.log

#Pass ID: 20260120_200954_NOAA 20 (JPSS-1)
#Satellite: NOAA 20 (JPSS-1)
#Configuration: NOAA 20
#almurnet v.1.7.20251203
#Start time: 2026-01-20 20:09:57

#Version: 2.2.20231116
#Station: R4.6S_Anadyr
#Location: 177.4865 lon 64.73178 lat
#TLE: 1 43013U 17073A   26019.91154542  .00000116  00000+0  76014-4 0  9997
#TLE: 2 43013  98.7642 320.7991 0001304  32.0041 328.1214 14.19537346423438

#Time	Az	El	Level	Level2	SNR	BER	BlckErr	Temp	State	Recorded	gain1	gain2
2026-01-20 20:09:57.70	64.90	0.16	-51.2	-65.0	3.3	1.54e+00	0	41	0	0	60	64355
2026-01-20 20:09:58.71	64.82	0.21	-51.5	-66.7	3.6	1.51e+00	0	41	104	0	60	77884
2026-01-20 20:09:59.72	64.75	0.26	-51.4	-66.6	3.6	1.51e+00	0	41	104	0	60	76942
2026-01-20 20:10:00.73	64.67	0.31	-51.4	-66.6	3.6	1.51e+00	0	41	104	0	60	77032
2026-01-20 20:10:01.74	64.60	0.36	-51.4	-66.6	3.6	1.51e+00	0	41	104	0	60	77290
2026-01-20 20:10:02.75	64.52	0.41	-51.4	-66.6	3.6	1.51e+00	0	41	104	0	60	77144
2026-01-20 20:10:03.76	64.44	0.46	-51.7	-66.9	3.6	1.51e+00	0	41	104	0	60	80433
2026-01-20 20:10:04.76	64.37	0.51	-51.5	-66.7	3.6	1.51e+00	0	41	104	0	60	77963
2026-01-20 20:10:05.77	64.29	0.56	-51.5	-66.7	3.6	1.51e+00	0	41	104	0	60	78344
2026-01-20 20:10:06.78	64.21	0.61	-51.6	-66.8	3.6	1.51e+00	0	41	104	0	60	78878
2026-01-20 20:10:07.79	64.14	0.66	-51.8	-67.0	3.6	1.51e+00	0	41	104	0	60	80628
2026-01-20 20:10:08.80	64.06	0.71	-51.6	-66.8	3.6	1.51e+00	0	41	104	0	60	78843
2026-01-20 20:10:09.81	63.98	0.76	-51.8	-67.0	3.6	1.51e+00	0	41	104	0	60	80621
2026-01-20 20:10:10.82	63.90	0.81	-51.7	-66.9	3.6	1.51e+00	0	41	104	0	60	80056
2026-01-20 20:10:11.83	63.82	0.86	-51.9	-67.1	3.6	1.51e+00	0	41	104	0	60	81600
2026-01-20 20:10:12.84	63.74	0.91	-51.8	-67.0	3.6	1.51e+00	0	41	104	0	60	80563
2026-01-20 20:10:13.85	63.66	0.96	-51.9	-67.1	3.6	1.51e+00	0	41	104	0	60	81656
2026-01-20 20:10:14.85	63.59	1.01	-51.8	-67.0	3.6	1.51e+00	0	41	104	0	60	80661
2026-01-20 20:10:15.86	63.51	1.06	-51.8	-66.9	3.6	1.51e+00	0	41	104	0	60	80304
2026-01-20 20:10:16.87	63.43	1.11	-51.8	-67.0	3.6	1.51e+00	0	41	104	0	60	80782
2026-01-20 20:10:17.88	63.35	1.16	-52.0	-67.2	3.6	1.51e+00	0	41	104	0	60	82357
2026-01-20 20:10:18.89	63.27	1.21	-52.0	-67.2	3.6	1.51e+00	0	41	104	0	60	82529
2026-01-20 20:10:19.90	63.19	1.26	-52.1	-67.3	3.6	1.51e+00	0	41	104	0	60	83451
2026-01-20 20:10:20.91	63.10	1.31	-52.3	-67.4	3.6	1.51e+00	0	41	104	0	60	85061
2026-01-20 20:10:21.92	63.02	1.36	-52.2	-67.3	3.6	1.51e+00	0	41	104	0	60	83981
2026-01-20 20:10:22.93	62.94	1.41	-52.0	-67.2	3.6	1.51e+00	0	41	104	0	60	83267
2026-01-20 20:10:23.94	62.86	1.46	-51.8	-67.0	3.6	1.51e+00	0	41	104	0	60	81120
2026-01-20 20:10:24.95	62.78	1.51	-51.7	-66.9	3.6	1.51e+00	0	42	104	0	60	80102
2026-01-20 20:10:25.96	62.69	1.56	-51.7	-66.9	3.6	1.51e+00	0	42	104	0	60	80067
2026-01-20 20:10:26.97	62.61	1.61	-51.7	-66.9	3.6	1.51e+00	0	42	104	0	60	79641
2026-01-20 20:10:27.98	62.53	1.66	-51.7	-66.9	3.6	1.51e+00	0	42	104	0	60	79772
2026-01-20 20:10:28.99	62.44	1.71	-51.6	-66.7	3.6	1.51e+00	0	42	104	0	60	78559
2026-01-20 20:10:30.00	62.36	1.77	-51.5	-66.8	3.6	1.51e+00	0	42	104	0	60	79169
2026-01-20 20:10:31.01	62.28	1.82	-51.5	-66.7	3.6	1.51e+00	0	42	104	0	60	78549
2026-01-20 20:10:32.02	62.19	1.87	-51.5	-66.7	3.6	1.51e+00	0	42	104	0	60	77942
2026-01-20 20:10:33.03	62.11	1.92	-51.5	-66.7	3.6	1.51e+00	0	42	104	0	60	77997
2026-01-20 20:10:34.04	62.02	1.97	-51.4	-66.7	3.6	1.51e+00	0	42	104	0	60	77745
2026-01-20 20:10:35.05	61.94	2.02	-51.3	-66.5	3.6	1.51e+00	0	42	104	0	60	76814
2026-01-20 20:10:36.05	61.85	2.07	-51.3	-66.5	3.6	1.51e+00	0	42	104	0	60	76557
2026-01-20 20:10:37.06	61.77	2.12	-51.3	-66.5	3.6	1.51e+00	0	42	104	0	60	76703
2026-01-20 20:10:38.07	61.68	2.17	-51.2	-66.4	3.5	1.51e+00	0	42	104	0	60	75525
2026-01-20 20:10:39.08	61.60	2.22	-51.0	-66.4	3.6	1.51e+00	0	42	104	0	60	75266
2026-01-20 20:10:40.09	61.51	2.27	-51.1	-66.3	3.6	1.51e+00	0	42	104	0	60	74736
2026-01-20 20:10:41.10	61.42	2.32	-51.0	-66.2	3.6	1.51e+00	0	42	104	0	60	74103
2026-01-20 20:10:42.11	61.33	2.38	-50.8	-66.0	3.6	1.51e+00	0	42	104	0	60	71841
2026-01-20 20:10:43.12	61.25	2.43	-50.6	-65.8	3.6	1.51e+00	0	42	104	0	60	70358
2026-01-20 20:10:44.13	61.16	2.48	-50.3	-65.5	3.6	1.51e+00	0	42	104	0	60	67780
2026-01-20 20:10:45.14	61.07	2.53	-49.8	-65.0	3.6	1.51e+00	0	42	104	0	60	64208
2026-01-20 20:10:46.15	60.98	2.58	-49.8	-65.0	3.6	1.51e+00	0	42	104	0	60	64161
2026-01-20 20:10:47.16	60.89	2.63	-49.8	-65.0	3.6	1.51e+00	0	42	104	0	60	64185
2026-01-20 20:10:48.17	60.80	2.68	-49.8	-64.9	3.6	1.51e+00	0	42	104	0	60	63513
2026-01-20 20:10:49.18	60.71	2.73	-49.7	-64.5	3.6	1.51e+00	0	42	104	0	60	60878
2026-01-20 20:10:50.19	60.62	2.78	-49.7	-64.0	3.6	1.51e+00	0	42	104	0	60	57613
2026-01-20 20:10:51.20	60.53	2.84	-49.7	-64.4	3.6	1.51e+00	0	42	104	0	60	60019
2026-01-20 20:10:52.21	60.44	2.89	-49.7	-64.8	3.6	1.51e+00	0	42	104	0	60	62521
2026-01-20 20:10:53.22	60.35	2.94	-49.7	-63.0	3.6	1.51e+00	0	42	104	0	60	51327
2026-01-20 20:10:54.23	60.26	2.99	-49.3	-58.7	5.2	1.05e+00	47	42	0	0	60	30945
2026-01-20 20:10:55.24	60.17	3.04	-49.2	-57.0	5.7	3.59e-01	92	42	0	2097152	60	25465
2026-01-20 20:10:56.25	60.08	3.09	-49.6	-61.3	4.7	1.16e+00	0	42	104	2097152	60	41897
2026-01-20 20:10:57.26	59.99	3.14	-48.7	-54.4	10.1	1.14e-01	92	42	0	2097152	60	18861
2026-01-20 20:10:58.27	59.89	3.20	-49.7	-64.4	3.6	1.51e+00	0	42	104	3145728	60	60209
2026-01-20 20:10:59.28	59.80	3.25	-49.8	-64.5	3.6	1.51e+00	0	42	104	3145728	60	60910
2026-01-20 20:11:00.29	59.71	3.30	-47.6	-52.0	12.0	2.63e-04	92	42	104	3145728	60	14420
2026-01-20 20:11:01.30	59.61	3.35	-47.4	-51.4	12.5	2.82e-05	92	42	0	4194304	60	13444
2026-01-20 20:11:02.31	59.52	3.40	-47.6	-51.6	12.3	3.92e-04	92	42	0	6291456	60	13819
2026-01-20 20:11:03.31	59.43	3.45	-46.7	-49.8	14.2	3.12e-05	2	42	0	8388608	60	11150
2026-01-20 20:11:04.32	59.33	3.50	-46.7	-49.8	14.5	1.83e-05	90	42	0	10485760	60	11133
2026-01-20 20:11:05.33	59.24	3.56	-45.7	-48.2	15.8	1.50e-06	87	42	0	11534336	60	9248
2026-01-20 20:11:06.34	59.14	3.61	-46.2	-49.0	15.3	0.00e+00	92	42	0	13631488	60	10142
2026-01-20 20:11:07.35	59.05	3.66	-46.4	-49.4	14.5	7.00e-07	92	42	0	15728640	60	10638
2026-01-20 20:11:08.36	58.95	3.71	-46.3	-49.1	14.8	0.00e+00	92	42	0	17825792	60	10337
2026-01-20 20:11:09.37	58.85	3.76	-46.0	-48.6	15.5	2.20e-06	90	42	0	19922944	60	9749
2026-01-20 20:11:10.38	58.76	3.81	-45.9	-48.4	15.6	0.00e+00	59	42	0	20971520	60	9547
2026-01-20 20:11:11.39	58.66	3.87	-45.7	-48.1	16.0	0.00e+00	92	42	0	23068672	60	9203
2026-01-20 20:11:12.40	58.56	3.92	-45.7	-48.1	16.0	0.00e+00	56	42	0	25165824	60	9208
2026-01-20 20:11:13.41	58.46	3.97	-45.4	-47.8	16.1	0.00e+00	92	42	0	27262976	60	8824
2026-01-20 20:11:14.42	58.37	4.02	-45.1	-47.3	16.8	0.00e+00	13	42	0	29360128	60	8346
2026-01-20 20:11:15.43	58.27	4.07	-45.3	-47.5	16.6	0.00e+00	2	42	0	30408704	60	8609
2026-01-20 20:11:16.44	58.17	4.13	-45.3	-47.6	16.6	0.00e+00	92	42	0	32505856	60	8622
2026-01-20 20:11:17.44	58.07	4.18	-45.1	-47.3	16.9	0.00e+00	6	42	0	34603008	60	8340
2026-01-20 20:11:18.46	57.97	4.23	-45.1	-47.3	16.8	0.00e+00	92	42	0	36700160	60	8343
2026-01-20 20:11:19.46	57.87	4.28	-45.4	-47.7	16.4	0.00e+00	5	42	0	38797312	60	8777
2026-01-20 20:11:20.47	57.77	4.33	-45.3	-47.5	16.5	0.00e+00	92	42	0	39845888	60	8599
2026-01-20 20:11:21.48	57.67	4.38	-45.3	-47.5	16.7	0.00e+00	0	42	0	41943040	60	8558
2026-01-20 20:11:22.49	57.57	4.44	-45.5	-47.8	16.2	0.00e+00	92	42	0	44040192	60	8876
2026-01-20 20:11:23.50	57.47	4.49	-45.0	-47.2	16.8	0.00e+00	92	42	0	46137344	60	8270
2026-01-20 20:11:24.51	57.37	4.54	-45.3	-47.6	16.3	0.00e+00	24	42	0	48234496	60	8687
2026-01-20 20:11:25.52	57.26	4.59	-45.2	-47.5	16.6	0.00e+00	92	42	0	50331648	60	8529
2026-01-20 20:11:26.53	57.16	4.64	-44.6	-46.6	17.6	0.00e+00	65	42	0	51380224	60	7728
2026-01-20 20:11:27.54	57.06	4.70	-45.0	-47.1	17.0	0.00e+00	92	42	0	53477376	60	8189
2026-01-20 20:11:28.55	56.96	4.75	-44.8	-46.8	17.3	0.00e+00	16	42	0	55574528	60	7917
2026-01-20 20:11:29.56	56.85	4.80	-44.9	-47.0	17.1	0.00e+00	91	42	0	57671680	60	8065
2026-01-20 20:11:30.57	56.75	4.85	-44.7	-46.7	17.5	0.00e+00	92	42	0	59768832	60	7791
2026-01-20 20:11:31.58	56.64	4.91	-44.9	-47.0	17.2	0.00e+00	7	42	0	60817408	60	8057
2026-01-20 20:11:32.59	56.54	4.96	-44.5	-46.4	17.7	0.00e+00	91	42	0	62914560	60	7586
2026-01-20 20:11:33.59	56.44	5.01	-45.0	-47.0	17.2	0.00e+00	0	42	0	65011712	60	8128
2026-01-20 20:11:34.60	56.33	5.06	-45.0	-47.1	17.2	0.00e+00	92	42	0	67108864	60	8148
2026-01-20 20:11:35.61	56.22	5.11	-44.9	-46.9	17.4	0.00e+00	8	42	0	68157440	60	7987
2026-01-20 20:11:36.62	56.12	5.17	-44.6	-46.6	17.8	0.00e+00	92	42	0	70254592	60	7699
2026-01-20 20:11:37.63	56.01	5.22	-44.6	-46.5	17.8	0.00e+00	12	42	0	72351744	60	7596
2026-01-20 20:11:38.64	55.90	5.27	-44.4	-46.3	18.0	0.00e+00	5	42	0	74448896	60	7431
2026-01-20 20:11:39.65	55.80	5.32	-44.4	-46.3	17.9	0.00e+00	90	42	0	76546048	60	7452
2026-01-20 20:11:40.66	55.69	5.37	-44.4	-46.2	18.1	0.00e+00	7	42	0	78643200	60	7351
2026-01-20 20:11:41.67	55.58	5.43	-44.4	-46.2	18.2	0.00e+00	91	42	0	79691776	60	7350
2026-01-20 20:11:42.68	55.47	5.48	-44.3	-46.1	18.3	0.00e+00	24	42	0	81788928	60	7287
2026-01-20 20:11:43.69	55.36	5.53	-44.2	-45.9	18.5	0.00e+00	91	42	0	83886080	60	7155
2026-01-20 20:11:44.70	55.25	5.58	-44.2	-45.9	18.4	0.00e+00	0	42	0	85983232	60	7138
2026-01-20 20:11:45.71	55.14	5.64	-44.4	-46.2	18.2	0.00e+00	90	42	0	88080384	60	7339
2026-01-20 20:11:46.71	55.03	5.69	-44.4	-46.2	18.2	0.00e+00	90	42	0	89128960	60	7359
2026-01-20 20:11:47.72	54.92	5.74	-44.1	-45.9	18.5	0.00e+00	26	42	0	91226112	60	7089
2026-01-20 20:11:48.73	54.81	5.79	-44.0	-45.7	18.7	0.00e+00	93	42	0	93323264	60	6989
2026-01-20 20:11:49.74	54.70	5.84	-44.6	-46.5	17.8	0.00e+00	55	42	0	95420416	60	7605
2026-01-20 20:11:50.75	54.59	5.90	-44.2	-45.9	18.5	0.00e+00	92	42	0	97517568	60	7127
2026-01-20 20:11:51.76	54.48	5.95	-44.0	-45.6	18.8	0.00e+00	56	42	0	98566144	60	6893
2026-01-20 20:11:52.77	54.36	6.00	-44.0	-45.6	18.7	0.00e+00	92	42	0	100663296	60	6898
2026-01-20 20:11:53.78	54.25	6.05	-43.8	-45.4	18.9	0.00e+00	92	42	0	102760448	60	6759
2026-01-20 20:11:54.79	54.14	6.11	-43.8	-45.4	19.0	0.00e+00	54	42	0	104857600	60	6734
2026-01-20 20:11:55.80	54.02	6.16	-43.6	-45.2	19.2	0.00e+00	92	42	0	106954752	60	6548
2026-01-20 20:11:56.81	53.91	6.21	-43.8	-45.4	19.0	0.00e+00	56	42	0	108003328	60	6759
2026-01-20 20:11:57.82	53.79	6.26	-43.7	-45.3	19.1	0.00e+00	92	42	0	110100480	60	6658
2026-01-20 20:11:58.83	53.68	6.31	-43.8	-45.4	18.9	0.00e+00	0	42	0	112197632	60	6742
2026-01-20 20:11:59.84	53.56	6.37	-43.8	-45.4	18.9	0.00e+00	92	42	0	114294784	60	6759
2026-01-20 20:12:00.85	53.45	6.42	-43.9	-45.5	18.9	0.00e+00	0	42	0	116391936	60	6796
2026-01-20 20:12:01.86	53.33	6.47	-43.8	-45.4	19.1	0.00e+00	92	42	0	117440512	60	6695
2026-01-20 20:12:02.87	53.21	6.52	-43.6	-45.1	19.3	0.00e+00	90	42	0	119537664	60	6539
2026-01-20 20:12:03.88	53.10	6.58	-44.0	-45.6	18.9	0.00e+00	26	42	0	121634816	60	6925
2026-01-20 20:12:04.89	52.98	6.63	-44.3	-46.0	18.5	0.00e+00	92	42	0	123731968	60	7222
2026-01-20 20:12:05.90	52.86	6.68	-44.0	-45.7	18.7	0.00e+00	28	42	0	125829120	60	6963
2026-01-20 20:12:06.91	52.74	6.73	-43.9	-45.5	18.9	0.00e+00	92	42	0	126877696	60	6798
2026-01-20 20:12:07.92	52.62	6.78	-43.7	-45.2	19.3	0.00e+00	0	42	0	128974848	60	6590
2026-01-20 20:12:08.93	52.50	6.84	-43.6	-45.1	19.3	0.00e+00	92	42	0	131072000	60	6539
2026-01-20 20:12:09.94	52.38	6.89	-44.1	-45.8	18.7	0.00e+00	92	42	0	133169152	60	7035
2026-01-20 20:12:10.95	52.26	6.94	-43.8	-45.4	19.1	0.00e+00	0	42	0	135266304	60	6698
2026-01-20 20:12:11.96	52.14	6.99	-44.0	-45.6	19.0	0.00e+00	92	42	0	136314880	60	6866
2026-01-20 20:12:12.97	52.02	7.05	-43.8	-45.3	19.3	0.00e+00	0	42	0	138412032	60	6654
2026-01-20 20:12:13.97	51.90	7.10	-43.7	-45.2	19.4	0.00e+00	90	42	0	140509184	60	6576
2026-01-20 20:12:14.98	51.78	7.15	-43.9	-45.5	19.1	0.00e+00	56	42	0	142606336	60	6779
2026-01-20 20:12:16.00	51.65	7.20	-43.7	-45.3	19.2	0.00e+00	92	42	0	144703488	60	6619
2026-01-20 20:12:17.00	51.53	7.25	-43.9	-45.5	19.0	0.00e+00	91	42	0	146800640	60	6827
2026-01-20 20:12:18.01	51.41	7.31	-43.8	-45.4	19.3	0.00e+00	55	42	0	147849216	60	6719
2026-01-20 20:12:19.02	51.28	7.36	-43.7	-45.2	19.3	0.00e+00	92	42	0	149946368	60	6554
2026-01-20 20:12:20.04	51.16	7.41	-43.5	-45.0	19.7	0.00e+00	0	42	0	152043520	60	6442
2026-01-20 20:12:21.05	51.03	7.46	-43.9	-45.5	19.1	0.00e+00	91	42	0	154140672	60	6796
2026-01-20 20:12:22.06	50.91	7.51	-44.0	-45.6	19.2	0.00e+00	0	42	0	156237824	60	6886
2026-01-20 20:12:23.07	50.78	7.57	-43.8	-45.3	19.3	0.00e+00	92	42	0	157286400	60	6682
2026-01-20 20:12:24.08	50.65	7.62	-43.6	-45.0	19.6	0.00e+00	70	42	0	159383552	60	6463
2026-01-20 20:12:25.09	50.53	7.67	-43.5	-45.0	19.6	0.00e+00	29	42	0	161480704	60	6423
2026-01-20 20:12:26.10	50.40	7.72	-43.7	-45.2	19.4	0.00e+00	92	42	0	163577856	60	6575
2026-01-20 20:12:27.11	50.27	7.77	-43.8	-45.3	19.4	0.00e+00	0	42	0	165675008	60	6643
2026-01-20 20:12:28.12	50.14	7.82	-43.7	-45.2	19.5	0.00e+00	92	42	0	166723584	60	6570
2026-01-20 20:12:29.13	50.02	7.88	-43.6	-45.1	19.6	0.00e+00	28	42	0	168820736	60	6473
2026-01-20 20:12:30.14	49.89	7.93	-43.7	-45.2	19.5	0.00e+00	90	42	0	170917888	60	6554
2026-01-20 20:12:31.15	49.76	7.98	-43.8	-45.4	19.2	0.00e+00	8	42	0	173015040	60	6708
2026-01-20 20:12:32.16	49.63	8.03	-43.8	-45.3	19.4	0.00e+00	88	42	0	175112192	60	6683
2026-01-20 20:12:33.17	49.50	8.08	-43.5	-45.0	19.6	0.00e+00	92	42	0	176160768	60	6407
2026-01-20 20:12:34.18	49.37	8.13	-43.6	-45.0	19.7	0.00e+00	0	42	0	178257920	60	6450
2026-01-20 20:12:35.18	49.24	8.19	-43.4	-44.9	19.8	0.00e+00	92	42	0	180355072	60	6339
2026-01-20 20:12:36.19	49.10	8.24	-43.6	-45.1	19.5	0.00e+00	0	42	0	182452224	60	6513
2026-01-20 20:12:37.20	48.97	8.29	-43.5	-44.9	19.7	0.00e+00	92	42	0	184549376	60	6384
2026-01-20 20:12:38.21	48.84	8.34	-43.6	-45.1	19.6	0.00e+00	53	42	0	185597952	60	6494
2026-01-20 20:12:39.22	48.71	8.39	-43.7	-45.2	19.4	0.00e+00	90	42	0	187695104	60	6566
2026-01-20 20:12:40.23	48.57	8.44	-43.6	-45.1	19.5	0.00e+00	89	42	0	189792256	60	6529
2026-01-20 20:12:41.24	48.44	8.49	-43.8	-45.4	19.3	0.00e+00	0	42	0	191889408	60	6711
2026-01-20 20:12:42.25	48.30	8.54	-43.8	-45.3	19.3	0.00e+00	92	42	0	193986560	60	6657
2026-01-20 20:12:43.26	48.17	8.60	-43.7	-45.2	19.4	0.00e+00	0	42	0	195035136	60	6576
2026-01-20 20:12:44.27	48.03	8.65	-43.4	-44.9	19.7	0.00e+00	92	42	0	197132288	60	6345
2026-01-20 20:12:45.28	47.90	8.70	-43.4	-44.9	19.8	0.00e+00	25	42	0	199229440	60	6332
2026-01-20 20:12:46.29	47.76	8.75	-43.3	-44.7	19.9	0.00e+00	92	42	0	201326592	60	6243
2026-01-20 20:12:47.30	47.62	8.80	-43.1	-44.5	20.1	0.00e+00	0	42	0	203423744	60	6045
2026-01-20 20:12:48.31	47.48	8.85	-43.6	-45.1	19.5	0.00e+00	0	42	0	204472320	60	6535
2026-01-20 20:12:49.32	47.35	8.90	-43.1	-44.5	20.0	0.00e+00	92	42	0	206569472	60	6076
2026-01-20 20:12:50.33	47.21	8.95	-43.4	-44.8	19.9	0.00e+00	0	42	0	208666624	60	6316
2026-01-20 20:12:51.34	47.07	9.00	-43.4	-44.8	19.8	0.00e+00	90	42	0	210763776	60	6291
2026-01-20 20:12:52.35	46.93	9.05	-43.2	-44.6	20.1	0.00e+00	26	42	0	212860928	60	6131
2026-01-20 20:12:53.36	46.79	9.10	-43.1	-44.5	20.1	0.00e+00	92	42	0	214958080	60	6084
2026-01-20 20:12:54.37	46.65	9.16	-43.3	-44.7	19.9	0.00e+00	72	42	0	216006656	60	6240
2026-01-20 20:12:55.38	46.51	9.21	-43.4	-44.8	19.8	0.00e+00	54	42	0	218103808	60	6291
2026-01-20 20:12:56.39	46.36	9.26	-43.4	-44.8	19.8	0.00e+00	90	42	0	220200960	60	6298
2026-01-20 20:12:57.40	46.22	9.31	-43.2	-44.5	19.9	0.00e+00	5	42	0	222298112	60	6098
2026-01-20 20:12:58.41	46.08	9.36	-43.3	-44.8	19.9	0.00e+00	92	42	0	224395264	60	6250
2026-01-20 20:12:59.42	45.94	9.41	-43.4	-44.9	19.7	0.00e+00	2	42	0	225443840	60	6327
2026-01-20 20:13:00.43	45.79	9.46	-43.5	-44.9	19.7	0.00e+00	92	42	0	227540992	60	6373
2026-01-20 20:13:01.44	45.65	9.51	-43.5	-45.0	19.7	0.00e+00	5	42	0	229638144	60	6406
2026-01-20 20:13:02.45	45.50	9.56	-43.4	-44.8	19.8	0.00e+00	92	42	0	231735296	60	6283
2026-01-20 20:13:03.46	45.36	9.61	-43.3	-44.7	20.0	0.00e+00	89	42	0	233832448	60	6210
2026-01-20 20:13:04.47	45.21	9.66	-43.3	-44.7	20.0	0.00e+00	27	42	0	234881024	60	6226
2026-01-20 20:13:05.48	45.07	9.71	-43.2	-44.6	20.1	0.00e+00	91	42	0	236978176	60	6121
2026-01-20 20:13:06.49	44.92	9.76	-43.2	-44.6	20.1	0.00e+00	0	42	0	239075328	60	6151
2026-01-20 20:13:07.50	44.77	9.81	-43.2	-44.5	20.2	0.00e+00	92	42	0	241172480	60	6097
2026-01-20 20:13:08.51	44.62	9.86	-43.2	-44.6	20.1	0.00e+00	26	42	0	243269632	60	6124
2026-01-20 20:13:09.51	44.48	9.90	-43.2	-44.6	20.1	0.00e+00	91	42	0	244318208	60	6148
2026-01-20 20:13:10.52	44.33	9.95	-43.2	-44.5	20.1	0.00e+00	91	42	0	246415360	60	6101
2026-01-20 20:13:11.53	44.18	10.00	-42.9	-44.2	20.4	0.00e+00	27	42	0	248512512	60	5893
2026-01-20 20:13:12.54	44.03	10.05	-42.9	-44.2	20.5	0.00e+00	92	42	0	250609664	60	5845
2026-01-20 20:13:13.55	43.88	10.10	-42.8	-44.1	20.6	0.00e+00	5	42	0	252706816	60	5805
2026-01-20 20:13:14.56	43.73	10.15	-43.0	-44.4	20.3	0.00e+00	92	42	0	253755392	60	5989
2026-01-20 20:13:15.57	43.58	10.20	-42.8	-44.1	20.7	0.00e+00	6	42	0	255852544	60	5785
2026-01-20 20:13:16.58	43.43	10.25	-42.7	-44.0	20.7	0.00e+00	92	42	0	257949696	58	6393
2026-01-20 20:13:17.59	43.27	10.30	-42.5	-43.8	20.8	0.00e+00	0	42	0	260046848	58	6268
2026-01-20 20:13:18.60	43.12	10.34	-42.5	-43.7	20.9	0.00e+00	81	42	0	262144000	58	6213
2026-01-20 20:13:19.60	42.97	10.39	-42.3	-43.5	21.2	0.00e+00	94	42	0	263192576	58	6065
2026-01-20 20:13:20.61	42.82	10.44	-42.6	-43.8	20.9	0.00e+00	63	42	0	265289728	58	6278
2026-01-20 20:13:21.63	42.66	10.49	-42.4	-43.6	21.2	0.00e+00	90	42	0	267386880	58	6128
2026-01-20 20:13:22.64	42.50	10.54	-42.2	-43.4	21.3	0.00e+00	0	42	0	269484032	58	5998
2026-01-20 20:13:23.64	42.35	10.59	-41.8	-42.9	21.8	0.00e+00	90	42	0	271581184	58	5693
2026-01-20 20:13:24.65	42.19	10.63	-42.1	-43.2	21.5	0.00e+00	5	42	0	272629760	58	5866
2026-01-20 20:13:25.66	42.04	10.68	-41.9	-43.0	21.7	0.00e+00	92	42	0	274726912	58	5712
2026-01-20 20:13:26.67	41.88	10.73	-41.8	-42.9	21.7	0.00e+00	91	42	0	276824064	56	6333
2026-01-20 20:13:27.68	41.72	10.78	-41.8	-42.9	21.8	0.00e+00	27	42	0	278921216	56	6330
2026-01-20 20:13:28.69	41.57	10.82	-41.7	-42.7	21.9	0.00e+00	90	42	0	281018368	56	6235
2026-01-20 20:13:29.70	41.41	10.87	-42.1	-43.2	21.5	0.00e+00	27	42	0	283115520	56	6607
2026-01-20 20:13:30.71	41.25	10.92	-41.9	-43.0	21.7	0.00e+00	92	42	0	284164096	56	6452
2026-01-20 20:13:31.72	41.09	10.97	-41.5	-42.6	22.2	0.00e+00	27	42	0	286261248	56	6127
2026-01-20 20:13:32.73	40.93	11.01	-42.0	-43.2	21.6	0.00e+00	92	42	0	288358400	56	6540
2026-01-20 20:13:33.74	40.77	11.06	-42.3	-43.4	21.3	0.00e+00	92	43	0	290455552	56	6769
2026-01-20 20:13:34.74	40.61	11.11	-41.9	-43.0	21.7	0.00e+00	53	43	0	292552704	56	6447
2026-01-20 20:13:35.75	40.45	11.15	-41.6	-42.7	22.0	0.00e+00	92	43	0	293601280	56	6207
2026-01-20 20:13:36.76	40.28	11.20	-41.6	-42.7	22.1	0.00e+00	30	42	0	295698432	56	6184
2026-01-20 20:13:37.77	40.12	11.24	-41.5	-42.6	22.1	0.00e+00	92	42	0	297795584	56	6116
2026-01-20 20:13:38.78	39.96	11.29	-41.5	-42.6	22.1	0.00e+00	2	43	0	299892736	56	6138
2026-01-20 20:13:39.80	39.79	11.34	-41.7	-42.8	21.9	0.00e+00	92	42	0	301989888	56	6278
2026-01-20 20:13:40.80	39.63	11.38	-41.4	-42.4	22.3	0.00e+00	58	42	0	303038464	56	6015
2026-01-20 20:13:41.82	39.46	11.43	-41.4	-42.4	22.4	0.00e+00	0	42	0	305135616	56	5994
2026-01-20 20:13:42.82	39.30	11.47	-41.4	-42.5	22.3	0.00e+00	92	43	0	307232768	56	6035
2026-01-20 20:13:43.83	39.13	11.52	-41.5	-42.6	22.2	0.00e+00	3	42	0	309329920	56	6107
2026-01-20 20:13:44.84	38.97	11.56	-41.4	-42.4	22.2	0.00e+00	92	42	0	311427072	56	6029
2026-01-20 20:13:45.85	38.80	11.61	-41.5	-42.6	22.2	0.00e+00	0	42	0	312475648	56	6120
2026-01-20 20:13:46.86	38.63	11.66	-41.3	-42.3	22.3	0.00e+00	92	42	0	314572800	56	5952
2026-01-20 20:13:47.87	38.47	11.70	-41.3	-42.3	22.4	0.00e+00	0	42	0	316669952	56	5940
2026-01-20 20:13:48.88	38.30	11.74	-41.2	-42.2	22.5	0.00e+00	2	42	0	318767104	56	5860
2026-01-20 20:13:49.89	38.13	11.79	-41.1	-42.1	22.7	0.00e+00	90	42	0	320864256	56	5777
2026-01-20 20:13:50.90	37.96	11.83	-41.1	-42.1	22.6	0.00e+00	28	42	0	321912832	56	5818
2026-01-20 20:13:51.91	37.79	11.88	-41.0	-42.0	22.6	0.00e+00	91	43	0	324009984	56	5750
2026-01-20 20:13:52.92	37.62	11.92	-41.1	-42.1	22.5	0.00e+00	52	43	0	326107136	56	5816
2026-01-20 20:13:53.92	37.45	11.96	-40.9	-41.9	22.8	0.00e+00	92	43	0	328204288	56	5683
2026-01-20 20:13:54.93	37.28	12.01	-40.8	-41.8	22.9	0.00e+00	4	43	0	330301440	56	5590
2026-01-20 20:13:55.94	37.11	12.05	-41.1	-42.2	22.6	0.00e+00	28	42	0	331350016	56	5829
2026-01-20 20:13:56.95	36.93	12.10	-40.9	-41.9	22.9	0.00e+00	11	42	0	333447168	56	5642
2026-01-20 20:13:57.96	36.76	12.14	-40.7	-41.6	23.0	0.00e+00	53	42	0	335544320	54	6150
2026-01-20 20:13:58.97	36.59	12.18	-40.8	-41.7	22.9	0.00e+00	92	42	0	337641472	54	6232
2026-01-20 20:13:59.98	36.41	12.22	-40.8	-41.8	22.9	0.00e+00	0	43	0	339738624	54	6269
2026-01-20 20:14:00.99	36.24	12.27	-40.9	-41.9	22.9	0.00e+00	51	43	0	340787200	54	6322
2026-01-20 20:14:02.00	36.06	12.31	-41.0	-42.0	22.7	0.00e+00	54	42	0	342884352	54	6454
2026-01-20 20:14:03.01	35.89	12.35	-41.0	-42.0	22.7	0.00e+00	0	43	0	344981504	54	6447
2026-01-20 20:14:04.02	35.71	12.39	-41.0	-42.0	22.5	0.00e+00	0	43	0	347078656	54	6458
2026-01-20 20:14:05.03	35.53	12.43	-41.1	-42.1	22.7	0.00e+00	2	43	0	349175808	54	6470
2026-01-20 20:14:06.04	35.36	12.48	-41.2	-42.2	22.5	0.00e+00	91	42	0	351272960	54	6560
2026-01-20 20:14:07.05	35.18	12.52	-41.3	-42.3	22.3	0.00e+00	0	42	0	352321536	54	6664
2026-01-20 20:14:08.06	35.00	12.56	-41.2	-42.2	22.5	0.00e+00	92	42	0	354418688	54	6574
2026-01-20 20:14:09.06	34.82	12.60	-41.4	-42.4	22.3	0.00e+00	2	42	0	356515840	54	6742
2026-01-20 20:14:10.07	34.64	12.64	-41.3	-42.3	22.4	0.00e+00	2	42	0	358612992	54	6684
2026-01-20 20:14:11.08	34.47	12.68	-41.2	-42.2	22.5	0.00e+00	0	42	0	360710144	54	6558
2026-01-20 20:14:12.09	34.29	12.72	-41.2	-42.2	22.6	0.00e+00	29	43	0	361758720	54	6554
2026-01-20 20:14:13.10	34.10	12.76	-41.2	-42.2	22.5	0.00e+00	92	43	0	363855872	54	6560
2026-01-20 20:14:14.10	33.92	12.80	-41.4	-42.4	22.4	0.00e+00	0	42	0	365953024	54	6769
2026-01-20 20:14:15.11	33.74	12.84	-41.3	-42.3	22.4	0.00e+00	92	42	0	368050176	54	6666
2026-01-20 20:14:16.12	33.56	12.88	-41.3	-42.3	22.4	0.00e+00	50	43	0	370147328	54	6649
2026-01-20 20:14:17.13	33.38	12.92	-41.3	-42.3	22.4	0.00e+00	52	43	0	371195904	54	6637
2026-01-20 20:14:18.14	33.20	12.96	-41.1	-42.1	22.6	0.00e+00	0	43	0	373293056	54	6536
2026-01-20 20:14:19.15	33.01	13.00	-41.2	-42.2	22.5	0.00e+00	0	42	0	375390208	54	6566
2026-01-20 20:14:20.16	32.83	13.04	-41.4	-42.4	22.4	0.00e+00	2	43	0	377487360	54	6751
2026-01-20 20:14:21.17	32.64	13.07	-41.3	-42.3	22.5	0.00e+00	52	43	0	379584512	54	6644
2026-01-20 20:14:22.18	32.46	13.11	-41.1	-42.1	22.5	0.00e+00	92	43	0	380633088	54	6516
2026-01-20 20:14:23.19	32.27	13.15	-41.3	-42.3	22.4	0.00e+00	2	43	0	382730240	54	6652
2026-01-20 20:14:24.20	32.09	13.19	-41.3	-42.4	22.5	0.00e+00	90	43	0	384827392	54	6702
2026-01-20 20:14:25.21	31.90	13.22	-41.0	-42.0	22.8	0.00e+00	0	43	0	386924544	54	6421
2026-01-20 20:14:26.22	31.71	13.26	-41.2	-42.2	22.6	0.00e+00	0	42	0	389021696	54	6556
2026-01-20 20:14:27.23	31.53	13.30	-41.2	-42.2	22.6	0.00e+00	0	43	0	390070272	54	6570
2026-01-20 20:14:28.24	31.34	13.34	-41.3	-42.3	22.4	0.00e+00	2	42	0	392167424	54	6678
2026-01-20 20:14:29.25	31.15	13.37	-41.1	-42.1	22.7	0.00e+00	90	43	0	394264576	54	6505
2026-01-20 20:14:30.26	30.96	13.41	-41.1	-42.0	22.7	0.00e+00	0	42	0	396361728	54	6462
2026-01-20 20:14:31.27	30.77	13.44	-41.2	-42.2	22.6	0.00e+00	92	43	0	398458880	54	6549
2026-01-20 20:14:32.28	30.58	13.48	-41.1	-42.1	22.6	0.00e+00	0	42	0	399507456	54	6498
2026-01-20 20:14:33.29	30.39	13.52	-41.0	-42.0	22.8	0.00e+00	27	43	0	401604608	54	6405
2026-01-20 20:14:34.30	30.20	13.55	-41.0	-42.0	22.7	0.00e+00	0	42	0	403701760	54	6448
2026-01-20 20:14:35.31	30.01	13.58	-40.8	-41.7	22.9	0.00e+00	0	42	0	405798912	54	6236
2026-01-20 20:14:36.32	29.82	13.62	-40.7	-41.7	23.0	0.00e+00	92	42	0	407896064	54	6205
2026-01-20 20:14:37.33	29.62	13.65	-40.7	-41.7	22.9	0.00e+00	51	42	0	408944640	54	6179
2026-01-20 20:14:38.34	29.43	13.69	-40.7	-41.7	23.0	0.00e+00	92	43	0	411041792	54	6188
2026-01-20 20:14:39.35	29.24	13.72	-40.8	-41.7	23.0	0.00e+00	53	43	0	413138944	54	6236
2026-01-20 20:14:40.36	29.05	13.76	-40.8	-41.7	22.9	0.00e+00	28	43	0	415236096	54	6242
2026-01-20 20:14:41.37	28.85	13.79	-40.8	-41.8	23.0	0.00e+00	6	43	0	417333248	54	6295
2026-01-20 20:14:42.38	28.66	13.82	-40.8	-41.7	23.0	0.00e+00	7	43	0	419430400	54	6237
2026-01-20 20:14:43.39	28.46	13.85	-40.6	-41.5	23.1	0.00e+00	16	42	0	420478976	54	6099
2026-01-20 20:14:44.40	28.27	13.89	-40.6	-41.5	23.2	0.00e+00	53	43	0	422576128	54	6095
2026-01-20 20:14:45.41	28.07	13.92	-40.8	-41.8	22.9	0.00e+00	92	43	0	424673280	54	6294
2026-01-20 20:14:46.42	27.88	13.95	-40.7	-41.6	23.1	0.00e+00	6	43	0	426770432	54	6169
2026-01-20 20:14:47.43	27.68	13.98	-40.6	-41.6	23.1	0.00e+00	85	43	0	428867584	54	6110
2026-01-20 20:14:48.44	27.48	14.01	-40.8	-41.7	23.1	0.00e+00	6	43	0	429916160	54	6242
2026-01-20 20:14:49.45	27.29	14.04	-40.6	-41.5	23.2	0.00e+00	0	43	0	432013312	54	6084
2026-01-20 20:14:50.46	27.09	14.07	-40.7	-41.7	23.1	0.00e+00	2	42	0	434110464	54	6196
2026-01-20 20:14:51.47	26.89	14.10	-40.7	-41.6	23.1	0.00e+00	5	43	0	436207616	54	6167
2026-01-20 20:14:52.47	26.69	14.13	-40.8	-41.8	22.9	0.00e+00	92	43	0	438304768	54	6266
2026-01-20 20:14:53.48	26.49	14.16	-40.9	-41.9	22.9	0.00e+00	0	42	0	439353344	54	6368
2026-01-20 20:14:54.49	26.30	14.19	-40.6	-41.6	23.1	0.00e+00	92	43	0	441450496	54	6108
2026-01-20 20:14:55.50	26.10	14.22	-40.8	-41.7	23.0	0.00e+00	0	43	0	443547648	54	6231
2026-01-20 20:14:56.51	25.90	14.25	-40.6	-41.5	23.0	0.00e+00	28	43	0	445644800	54	6092
2026-01-20 20:14:57.53	25.69	14.28	-40.6	-41.5	23.2	0.00e+00	0	42	0	447741952	54	6084
2026-01-20 20:14:58.54	25.49	14.31	-40.7	-41.7	23.1	0.00e+00	58	42	0	448790528	54	6187
2026-01-20 20:14:59.55	25.29	14.33	-40.6	-41.5	23.2	0.00e+00	48	43	0	450887680	54	6084
2026-01-20 20:15:00.55	25.09	14.36	-40.8	-41.8	23.1	0.00e+00	29	43	0	452984832	54	6261
2026-01-20 20:15:01.56	24.89	14.39	-40.7	-41.7	23.0	0.00e+00	92	43	0	455081984	54	6193
2026-01-20 20:15:02.57	24.69	14.42	-40.7	-41.6	23.0	0.00e+00	6	43	0	457179136	54	6146
2026-01-20 20:15:03.58	24.48	14.44	-40.9	-41.8	22.9	0.00e+00	7	43	0	458227712	54	6301
2026-01-20 20:15:04.59	24.28	14.47	-41.2	-42.1	22.7	0.00e+00	4	43	0	460324864	54	6534
2026-01-20 20:15:05.60	24.08	14.49	-41.2	-42.2	22.7	0.00e+00	0	43	0	462422016	54	6565
2026-01-20 20:15:06.61	23.87	14.52	-41.3	-42.3	22.4	0.00e+00	18	43	0	464519168	54	6689
2026-01-20 20:15:07.62	23.67	14.54	-41.1	-42.0	22.8	0.00e+00	0	43	0	466616320	54	6451
2026-01-20 20:15:08.63	23.46	14.57	-41.0	-42.0	22.8	0.00e+00	92	43	0	467664896	54	6396
2026-01-20 20:15:09.64	23.26	14.59	-41.1	-42.1	22.7	0.00e+00	0	42	0	469762048	54	6477
2026-01-20 20:15:10.64	23.06	14.62	-41.1	-42.1	22.9	0.00e+00	92	43	0	471859200	54	6469
2026-01-20 20:15:11.66	22.85	14.64	-41.1	-42.1	22.7	0.00e+00	0	43	0	473956352	54	6485
2026-01-20 20:15:12.66	22.65	14.67	-41.1	-42.1	22.8	0.00e+00	0	43	0	476053504	54	6493
2026-01-20 20:15:13.68	22.44	14.69	-41.3	-42.3	22.5	0.00e+00	0	43	0	477102080	54	6646
2026-01-20 20:15:14.69	22.23	14.71	-41.3	-42.3	22.6	0.00e+00	29	43	0	479199232	54	6630
2026-01-20 20:15:15.69	22.03	14.73	-41.4	-42.4	22.5	0.00e+00	92	43	0	481296384	54	6714
2026-01-20 20:15:16.70	21.82	14.76	-41.6	-42.7	22.2	0.00e+00	30	43	0	483393536	54	6932
2026-01-20 20:15:17.71	21.61	14.78	-41.6	-42.6	22.4	0.00e+00	92	43	0	485490688	54	6899
2026-01-20 20:15:18.72	21.40	14.80	-41.6	-42.7	22.3	0.00e+00	28	43	0	487587840	56	6203
2026-01-20 20:15:19.73	21.20	14.82	-41.7	-42.8	22.3	0.00e+00	52	43	0	488636416	56	6257
2026-01-20 20:15:20.74	20.99	14.84	-41.7	-42.8	22.2	0.00e+00	29	43	0	490733568	56	6265
2026-01-20 20:15:21.76	20.78	14.86	-41.8	-42.9	22.2	0.00e+00	29	43	0	492830720	56	6348
2026-01-20 20:15:22.77	20.57	14.88	-41.7	-42.7	22.3	0.00e+00	90	43	0	494927872	56	6211
2026-01-20 20:15:23.77	20.36	14.90	-41.6	-42.6	22.4	0.00e+00	3	43	0	497025024	56	6147
2026-01-20 20:15:24.78	20.15	14.92	-41.5	-42.5	22.4	0.00e+00	92	43	0	498073600	56	6067
2026-01-20 20:15:25.79	19.94	14.94	-41.2	-42.2	22.8	0.00e+00	52	43	0	500170752	56	5854
2026-01-20 20:15:26.80	19.73	14.95	-41.3	-42.3	22.7	0.00e+00	91	43	0	502267904	56	5912
2026-01-20 20:15:27.81	19.52	14.97	-41.4	-42.4	22.4	0.00e+00	52	43	0	504365056	56	5987
2026-01-20 20:15:28.82	19.31	14.99	-41.5	-42.5	22.5	0.00e+00	3	43	0	506462208	56	6103
2026-01-20 20:15:29.83	19.10	15.01	-41.2	-42.2	22.6	0.00e+00	0	43	0	507510784	56	5885
2026-01-20 20:15:30.83	18.89	15.02	-41.1	-42.1	22.7	0.00e+00	2	43	0	509607936	56	5814
2026-01-20 20:15:31.85	18.68	15.04	-41.1	-42.1	22.8	0.00e+00	92	43	0	511705088	56	5811
2026-01-20 20:15:32.86	18.47	15.06	-41.0	-42.0	22.9	0.00e+00	0	43	0	513802240	56	5739
2026-01-20 20:15:33.87	18.25	15.07	-41.2	-42.2	22.7	0.00e+00	29	43	0	515899392	56	5850
2026-01-20 20:15:34.87	18.04	15.09	-41.2	-42.2	22.7	0.00e+00	0	43	0	516947968	56	5867
2026-01-20 20:15:35.88	17.83	15.10	-41.2	-42.2	22.6	0.00e+00	0	43	0	519045120	56	5871
2026-01-20 20:15:36.89	17.62	15.12	-41.2	-42.2	22.7	0.00e+00	0	43	0	521142272	56	5858
2026-01-20 20:15:37.90	17.41	15.13	-41.2	-42.2	22.7	0.00e+00	28	43	0	523239424	56	5872
2026-01-20 20:15:38.91	17.20	15.15	-41.2	-42.2	22.6	0.00e+00	90	43	0	525336576	56	5890
2026-01-20 20:15:39.92	16.98	15.16	-41.2	-42.2	22.4	0.00e+00	29	43	0	526385152	56	5850
2026-01-20 20:15:40.93	16.77	15.17	-41.7	-42.7	22.3	0.00e+00	92	43	0	528482304	56	6241
2026-01-20 20:15:41.94	16.56	15.18	-41.4	-42.4	22.6	0.00e+00	52	43	0	530579456	56	5981
2026-01-20 20:15:42.95	16.34	15.20	-41.4	-42.4	22.5	0.00e+00	55	43	0	532676608	56	6025
2026-01-20 20:15:43.96	16.13	15.21	-41.5	-42.5	22.5	0.00e+00	52	43	0	534773760	56	6078
2026-01-20 20:15:44.97	15.92	15.22	-41.3	-42.3	22.6	0.00e+00	2	43	0	535822336	56	5934
2026-01-20 20:15:45.98	15.70	15.23	-41.3	-42.3	22.6	0.00e+00	92	43	0	537919488	56	5903
2026-01-20 20:15:46.99	15.49	15.24	-41.2	-42.2	22.7	0.00e+00	0	43	0	540016640	56	5833
2026-01-20 20:15:48.00	15.27	15.25	-41.1	-42.1	22.8	0.00e+00	90	43	0	542113792	56	5762
2026-01-20 20:15:49.01	15.06	15.26	-41.2	-42.1	22.7	0.00e+00	54	43	0	544210944	56	5826
2026-01-20 20:15:50.02	14.84	15.27	-41.3	-42.3	22.6	0.00e+00	31	43	0	545259520	56	5947
2026-01-20 20:15:51.03	14.63	15.28	-41.4	-42.5	22.5	0.00e+00	0	43	0	547356672	56	6049
2026-01-20 20:15:52.04	14.41	15.29	-41.4	-42.4	22.4	0.00e+00	0	43	0	549453824	56	6028
2026-01-20 20:15:53.05	14.20	15.30	-41.3	-42.3	22.6	0.00e+00	2	43	0	551550976	56	5927
2026-01-20 20:15:54.06	13.98	15.30	-41.3	-42.3	22.5	0.00e+00	0	43	0	553648128	56	5951
2026-01-20 20:15:55.07	13.77	15.31	-41.3	-42.3	22.6	0.00e+00	91	43	0	555745280	56	5943
2026-01-20 20:15:56.08	13.55	15.32	-41.4	-42.4	22.5	0.00e+00	0	43	0	556793856	56	6003
2026-01-20 20:15:57.08	13.34	15.33	-41.1	-42.1	22.7	0.00e+00	92	43	0	558891008	56	5798
2026-01-20 20:15:58.09	13.13	15.33	-41.2	-42.2	22.6	0.00e+00	0	43	0	560988160	56	5888
2026-01-20 20:15:59.10	12.91	15.34	-41.3	-42.4	22.5	0.00e+00	30	43	0	563085312	56	5972
2026-01-20 20:16:00.11	12.69	15.34	-41.3	-42.3	22.6	0.00e+00	0	43	0	564133888	56	5911
2026-01-20 20:16:01.12	12.48	15.35	-41.4	-42.5	22.5	0.00e+00	30	42	0	566231040	56	6049
2026-01-20 20:16:02.13	12.26	15.35	-41.2	-42.2	22.6	0.00e+00	91	43	0	568328192	56	5865
2026-01-20 20:16:03.14	12.05	15.36	-41.2	-42.2	22.8	0.00e+00	0	43	0	570425344	56	5837
2026-01-20 20:16:04.15	11.83	15.36	-41.1	-42.0	22.8	0.00e+00	92	43	0	572522496	56	5760
2026-01-20 20:16:05.16	11.62	15.36	-41.1	-42.1	22.9	0.00e+00	29	43	0	573571072	56	5814
2026-01-20 20:16:06.16	11.40	15.37	-41.2	-42.1	22.9	0.00e+00	31	43	0	575668224	56	5825
2026-01-20 20:16:07.17	11.19	15.37	-41.3	-42.3	22.7	0.00e+00	0	43	0	577765376	56	5905
2026-01-20 20:16:08.18	10.97	15.37	-41.2	-42.2	22.7	0.00e+00	0	43	0	579862528	56	5870
2026-01-20 20:16:09.19	10.75	15.37	-41.3	-42.3	22.7	0.00e+00	90	43	0	581959680	56	5899
2026-01-20 20:16:10.20	10.54	15.37	-41.4	-42.4	22.5	0.00e+00	0	43	0	584056832	56	6025
2026-01-20 20:16:11.21	10.32	15.37	-41.3	-42.3	22.6	0.00e+00	91	43	0	585105408	56	5962
2026-01-20 20:16:12.22	10.10	15.37	-41.3	-42.3	22.6	0.00e+00	0	43	0	587202560	56	5946
2026-01-20 20:16:13.23	9.89	15.37	-41.2	-42.2	22.7	0.00e+00	27	43	0	589299712	56	5886
2026-01-20 20:16:14.24	9.67	15.37	-41.2	-42.2	22.6	0.00e+00	0	43	0	591396864	56	5879
2026-01-20 20:16:15.25	9.46	15.37	-41.2	-42.2	22.2	0.00e+00	0	43	0	593494016	56	5881
2026-01-20 20:16:16.26	9.24	15.37	-41.2	-42.2	22.4	0.00e+00	0	43	0	594542592	56	5879
2026-01-20 20:16:17.26	9.03	15.37	-41.2	-42.2	22.6	0.00e+00	0	43	0	596639744	56	5887
2026-01-20 20:16:18.27	8.81	15.37	-41.5	-42.5	22.3	0.00e+00	91	42	0	598736896	56	6101
2026-01-20 20:16:19.28	8.59	15.37	-41.5	-42.5	22.5	0.00e+00	0	43	0	600834048	56	6090
2026-01-20 20:16:20.28	8.38	15.36	-41.1	-42.0	22.8	0.00e+00	92	43	0	602931200	56	5754
2026-01-20 20:16:21.29	8.16	15.36	-41.2	-42.2	22.7	0.00e+00	0	43	0	603979776	56	5875
2026-01-20 20:16:22.30	7.95	15.36	-41.3	-42.4	22.6	0.00e+00	0	43	0	606076928	56	5979
2026-01-20 20:16:23.31	7.73	15.35	-41.4	-42.4	22.5	0.00e+00	0	43	0	608174080	56	5979
2026-01-20 20:16:24.32	7.52	15.35	-41.6	-42.7	22.4	0.00e+00	28	43	0	610271232	56	6197
2026-01-20 20:16:25.33	7.30	15.34	-41.7	-42.8	22.2	0.00e+00	91	43	0	612368384	56	6278
2026-01-20 20:16:26.34	7.09	15.34	-41.7	-42.8	22.3	0.00e+00	0	43	0	613416960	56	6266
2026-01-20 20:16:27.35	6.87	15.33	-41.7	-42.8	22.2	0.00e+00	91	43	0	615514112	56	6287
2026-01-20 20:16:28.36	6.66	15.33	-41.7	-42.8	22.3	0.00e+00	28	43	0	617611264	56	6246
2026-01-20 20:16:29.37	6.44	15.32	-41.6	-42.7	22.4	0.00e+00	50	43	0	619708416	56	6175
2026-01-20 20:16:30.38	6.22	15.31	-41.6	-42.6	22.3	0.00e+00	7	42	0	621805568	56	6137
2026-01-20 20:16:31.39	6.01	15.31	-41.5	-42.5	22.4	0.00e+00	53	43	0	622854144	56	6070
2026-01-20 20:16:32.40	5.79	15.30	-41.6	-42.6	22.3	0.00e+00	83	43	0	624951296	56	6157
2026-01-20 20:16:33.41	5.58	15.29	-41.4	-42.4	22.5	0.00e+00	55	43	0	627048448	56	6019
2026-01-20 20:16:34.42	5.36	15.28	-41.4	-42.4	22.5	0.00e+00	91	43	0	629145600	56	5995
2026-01-20 20:16:35.42	5.15	15.27	-41.3	-42.3	22.6	0.00e+00	5	43	0	631242752	56	5929
2026-01-20 20:16:36.43	4.94	15.26	-41.6	-42.6	22.3	0.00e+00	92	43	0	632291328	56	6152
2026-01-20 20:16:37.44	4.72	15.25	-41.7	-42.7	22.3	0.00e+00	6	43	0	634388480	56	6219
2026-01-20 20:16:38.46	4.51	15.24	-42.0	-43.1	21.9	0.00e+00	7	43	0	636485632	56	6484
2026-01-20 20:16:39.46	4.30	15.23	-41.5	-42.6	22.2	0.00e+00	0	43	0	638582784	56	6135
2026-01-20 20:16:40.47	4.08	15.22	-41.6	-42.6	22.3	0.00e+00	22	42	0	640679936	56	6162
2026-01-20 20:16:41.48	3.87	15.21	-41.5	-42.6	22.4	0.00e+00	92	43	0	641728512	56	6139
2026-01-20 20:16:42.49	3.65	15.20	-41.5	-42.6	22.4	0.00e+00	0	43	0	643825664	56	6159
2026-01-20 20:16:43.50	3.44	15.19	-41.6	-42.7	22.3	0.00e+00	21	43	0	645922816	56	6177
2026-01-20 20:16:44.51	3.23	15.17	-41.4	-42.5	22.5	0.00e+00	22	43	0	648019968	56	6040
2026-01-20 20:16:45.52	3.01	15.16	-41.3	-42.3	22.5	0.00e+00	62	43	0	650117120	56	5941
2026-01-20 20:16:46.53	2.80	15.15	-41.2	-42.2	22.6	0.00e+00	70	43	0	652214272	56	5865
2026-01-20 20:16:47.54	2.59	15.13	-41.3	-42.3	22.6	0.00e+00	28	42	0	653262848	56	5951
2026-01-20 20:16:48.55	2.38	15.12	-41.4	-42.4	22.6	0.00e+00	92	43	0	655360000	56	5990
2026-01-20 20:16:49.56	2.16	15.11	-41.3	-42.3	22.5	0.00e+00	0	43	0	657457152	56	5929
2026-01-20 20:16:50.56	1.95	15.09	-41.4	-42.4	22.5	0.00e+00	92	43	0	659554304	56	6000
2026-01-20 20:16:51.58	1.74	15.08	-41.3	-42.3	22.5	0.00e+00	6	43	0	661651456	56	5909
2026-01-20 20:16:52.58	1.53	15.06	-41.4	-42.4	22.7	0.00e+00	58	43	0	662700032	56	6023
2026-01-20 20:16:53.59	1.32	15.04	-41.3	-42.3	22.6	0.00e+00	5	43	0	664797184	56	5940
2026-01-20 20:16:54.60	1.11	15.03	-41.1	-42.0	22.8	0.00e+00	57	43	0	666894336	56	5756
2026-01-20 20:16:55.61	0.90	15.01	-41.1	-42.1	22.8	0.00e+00	91	43	0	668991488	56	5777
2026-01-20 20:16:56.62	0.69	14.99	-41.1	-42.1	22.8	0.00e+00	7	43	0	671088640	56	5774
2026-01-20 20:16:57.63	0.48	14.98	-41.0	-42.0	23.0	0.00e+00	92	43	0	672137216	56	5716
2026-01-20 20:16:58.64	0.27	14.96	-40.7	-41.7	23.1	0.00e+00	6	42	0	674234368	56	5529
2026-01-20 20:16:59.65	0.06	14.94	-40.9	-41.9	22.9	0.00e+00	0	43	0	676331520	54	6319
2026-01-20 20:17:00.66	359.85	14.92	-40.9	-41.9	22.9	0.00e+00	6	43	0	678428672	54	6326
2026-01-20 20:17:01.67	359.64	14.90	-40.9	-41.9	22.9	0.00e+00	0	43	0	680525824	54	6358
2026-01-20 20:17:02.68	359.43	14.88	-41.1	-42.1	22.7	0.00e+00	4	43	0	681574400	54	6488
2026-01-20 20:17:03.69	359.22	14.86	-41.1	-42.1	22.7	0.00e+00	0	43	0	683671552	54	6468
2026-01-20 20:17:04.70	359.01	14.84	-41.0	-42.0	22.9	0.00e+00	91	43	0	685768704	54	6395
2026-01-20 20:17:05.70	358.80	14.82	-41.0	-42.0	22.7	0.00e+00	29	43	0	687865856	54	6419
2026-01-20 20:17:06.71	358.60	14.80	-41.0	-42.0	22.7	0.00e+00	92	43	0	689963008	54	6460
2026-01-20 20:17:07.72	358.39	14.78	-41.0	-42.0	22.8	0.00e+00	52	43	0	691011584	54	6417
2026-01-20 20:17:08.73	358.18	14.76	-40.9	-41.9	22.8	0.00e+00	61	43	0	693108736	54	6364
2026-01-20 20:17:09.74	357.97	14.74	-40.9	-41.9	22.9	0.00e+00	24	43	0	695205888	54	6324
2026-01-20 20:17:10.75	357.77	14.71	-41.0	-42.0	22.7	0.00e+00	58	43	0	697303040	54	6415
2026-01-20 20:17:11.76	357.56	14.69	-41.2	-42.2	22.6	0.00e+00	91	43	0	699400192	54	6571
2026-01-20 20:17:12.77	357.35	14.67	-41.0	-42.0	22.8	0.00e+00	57	42	0	700448768	54	6446
2026-01-20 20:17:13.78	357.15	14.65	-41.1	-42.0	22.7	0.00e+00	92	43	0	702545920	54	6456
2026-01-20 20:17:14.79	356.94	14.62	-41.0	-42.0	22.8	0.00e+00	2	43	0	704643072	54	6443
2026-01-20 20:17:15.80	356.74	14.60	-41.1	-42.1	22.6	0.00e+00	58	42	0	706740224	54	6488
2026-01-20 20:17:16.81	356.53	14.57	-41.2	-42.2	22.7	0.00e+00	58	42	0	708837376	54	6555
2026-01-20 20:17:17.82	356.33	14.55	-41.2	-42.2	22.5	0.00e+00	0	43	0	709885952	54	6600
2026-01-20 20:17:18.83	356.13	14.52	-41.1	-42.1	22.5	0.00e+00	73	42	0	711983104	54	6537
2026-01-20 20:17:19.84	355.92	14.50	-41.2	-42.3	22.5	0.00e+00	0	42	0	714080256	54	6628
2026-01-20 20:17:20.85	355.72	14.47	-41.2	-42.2	22.5	0.00e+00	92	42	0	716177408	54	6582
2026-01-20 20:17:21.85	355.52	14.45	-41.1	-42.2	22.5	0.00e+00	2	43	0	718274560	54	6568
2026-01-20 20:17:22.86	355.31	14.42	-41.2	-42.3	22.6	0.00e+00	64	42	0	719323136	54	6617
2026-01-20 20:17:23.87	355.11	14.39	-41.0	-42.0	22.5	0.00e+00	0	42	0	721420288	54	6444
2026-01-20 20:17:24.88	354.91	14.37	-41.0	-42.0	22.6	0.00e+00	0	42	0	723517440	54	6463
2026-01-20 20:17:25.89	354.71	14.34	-41.1	-42.2	22.6	0.00e+00	0	42	0	725614592	54	6544
2026-01-20 20:17:26.90	354.51	14.31	-41.1	-42.1	22.6	0.00e+00	0	42	0	727711744	54	6507
2026-01-20 20:17:27.91	354.31	14.28	-41.2	-42.2	22.5	0.00e+00	92	42	0	728760320	54	6587
2026-01-20 20:17:28.92	354.11	14.26	-41.2	-42.2	22.6	0.00e+00	27	42	0	730857472	54	6567
2026-01-20 20:17:29.93	353.91	14.23	-41.2	-42.2	22.5	0.00e+00	92	42	0	732954624	54	6565
2026-01-20 20:17:30.94	353.71	14.20	-41.3	-42.4	22.4	0.00e+00	0	42	0	735051776	54	6701
2026-01-20 20:17:31.95	353.51	14.17	-41.4	-42.5	22.2	0.00e+00	27	42	0	737148928	54	6808
2026-01-20 20:17:32.96	353.31	14.14	-41.6	-42.7	22.1	0.00e+00	28	42	0	739246080	54	7004
2026-01-20 20:17:33.97	353.11	14.11	-41.4	-42.5	22.3	0.00e+00	0	42	0	740294656	54	6772
2026-01-20 20:17:34.98	352.91	14.08	-41.5	-42.6	22.1	0.00e+00	91	42	0	742391808	54	6878
2026-01-20 20:17:35.99	352.71	14.05	-41.4	-42.4	22.2	0.00e+00	0	43	0	744488960	54	6768
2026-01-20 20:17:37.00	352.52	14.02	-41.6	-42.6	22.2	0.00e+00	92	42	0	746586112	54	6901
2026-01-20 20:17:38.00	352.32	13.99	-41.5	-42.5	22.1	0.00e+00	54	42	0	748683264	54	6815
2026-01-20 20:17:39.01	352.13	13.96	-41.1	-42.1	22.7	0.00e+00	39	42	0	749731840	54	6532
2026-01-20 20:17:40.02	351.93	13.92	-41.1	-42.1	22.6	0.00e+00	2	42	0	751828992	54	6482
2026-01-20 20:17:41.03	351.73	13.89	-41.1	-42.1	22.5	0.00e+00	0	43	0	753926144	54	6524
2026-01-20 20:17:42.04	351.54	13.86	-40.9	-41.9	22.7	0.00e+00	0	42	0	756023296	54	6355
2026-01-20 20:17:43.04	351.35	13.83	-41.2	-42.2	22.5	0.00e+00	0	42	0	758120448	54	6587
2026-01-20 20:17:44.05	351.15	13.79	-41.0	-42.0	22.8	0.00e+00	92	42	0	759169024	54	6408
2026-01-20 20:17:45.07	350.96	13.76	-40.8	-41.8	22.8	0.00e+00	22	42	0	761266176	54	6281
2026-01-20 20:17:46.08	350.76	13.73	-40.9	-41.9	22.8	0.00e+00	52	42	0	763363328	54	6344
2026-01-20 20:17:47.08	350.57	13.69	-41.0	-42.0	22.7	0.00e+00	0	42	0	765460480	54	6445
2026-01-20 20:17:48.09	350.38	13.66	-40.8	-41.8	22.8	0.00e+00	28	42	0	767557632	54	6301
2026-01-20 20:17:49.10	350.19	13.63	-40.9	-41.8	22.8	0.00e+00	0	43	0	768606208	54	6309
2026-01-20 20:17:50.11	350.00	13.59	-40.9	-41.8	22.8	0.00e+00	0	42	0	770703360	54	6303
2026-01-20 20:17:51.12	349.81	13.56	-41.0	-42.0	22.7	0.00e+00	92	42	0	772800512	54	6396
2026-01-20 20:17:52.13	349.62	13.52	-40.9	-41.9	22.8	0.00e+00	50	42	0	774897664	54	6319
2026-01-20 20:17:53.14	349.43	13.49	-40.9	-41.9	22.7	0.00e+00	92	42	0	776994816	54	6372
2026-01-20 20:17:54.15	349.24	13.45	-41.1	-42.1	22.5	0.00e+00	0	42	0	778043392	54	6535
2026-01-20 20:17:55.16	349.05	13.42	-41.0	-42.1	22.5	0.00e+00	0	42	0	780140544	54	6478
2026-01-20 20:17:56.17	348.86	13.38	-41.3	-42.3	22.2	0.00e+00	53	42	0	782237696	54	6678
2026-01-20 20:17:57.18	348.67	13.34	-41.2	-42.2	22.5	0.00e+00	0	42	0	784334848	54	6607
2026-01-20 20:17:58.19	348.48	13.31	-41.1	-42.1	22.6	0.00e+00	91	42	0	786432000	54	6529
2026-01-20 20:17:59.20	348.29	13.27	-41.2	-42.3	22.2	0.00e+00	0	42	0	787480576	54	6631
2026-01-20 20:18:00.20	348.11	13.23	-41.2	-42.3	22.3	0.00e+00	92	42	0	789577728	54	6618
2026-01-20 20:18:01.21	347.92	13.20	-41.1	-42.1	22.5	0.00e+00	53	42	0	791674880	54	6527
2026-01-20 20:18:02.22	347.74	13.16	-41.1	-42.1	22.6	0.00e+00	0	42	0	793772032	54	6494
2026-01-20 20:18:03.23	347.55	13.12	-41.1	-42.1	22.5	0.00e+00	0	42	0	795869184	54	6519
2026-01-20 20:18:04.24	347.37	13.08	-40.9	-41.9	22.8	0.00e+00	0	42	0	796917760	54	6371
2026-01-20 20:18:05.25	347.18	13.04	-40.8	-41.9	22.7	0.00e+00	0	42	0	799014912	54	6318
2026-01-20 20:18:06.26	347.00	13.01	-40.9	-41.9	22.8	0.00e+00	0	42	0	801112064	54	6380
2026-01-20 20:18:07.27	346.81	12.97	-41.1	-42.1	22.6	0.00e+00	92	42	0	803209216	54	6535
2026-01-20 20:18:08.28	346.63	12.93	-40.9	-42.0	22.7	0.00e+00	0	42	0	805306368	54	6413
2026-01-20 20:18:09.29	346.45	12.89	-40.9	-42.0	22.6	0.00e+00	92	42	0	806354944	54	6437
2026-01-20 20:18:10.30	346.27	12.85	-40.8	-41.9	22.8	0.00e+00	0	42	0	808452096	54	6345
2026-01-20 20:18:11.31	346.08	12.81	-40.9	-42.0	22.8	0.00e+00	0	42	0	810549248	54	6408
2026-01-20 20:18:12.32	345.90	12.77	-40.9	-42.0	22.7	0.00e+00	23	42	0	812646400	54	6391
2026-01-20 20:18:13.33	345.72	12.73	-40.9	-42.0	22.7	0.00e+00	23	42	0	814743552	54	6404
2026-01-20 20:18:14.34	345.54	12.69	-41.0	-42.1	22.6	0.00e+00	92	42	0	816840704	54	6486
2026-01-20 20:18:15.35	345.36	12.65	-41.0	-42.1	22.5	0.00e+00	22	42	0	817889280	54	6496
2026-01-20 20:18:16.36	345.18	12.61	-41.3	-42.4	22.3	0.00e+00	92	42	0	819986432	54	6749
2026-01-20 20:18:17.37	345.01	12.57	-41.2	-42.3	22.3	0.00e+00	54	42	0	822083584	54	6677
2026-01-20 20:18:18.38	344.83	12.53	-41.4	-42.6	22.1	0.00e+00	5	42	0	824180736	54	6872
2026-01-20 20:18:19.39	344.65	12.49	-41.5	-42.6	22.1	0.00e+00	0	42	0	826277888	54	6909
2026-01-20 20:18:20.40	344.47	12.44	-41.6	-42.8	21.9	0.00e+00	55	42	0	827326464	54	7039
2026-01-20 20:18:21.41	344.30	12.40	-41.7	-42.9	21.8	0.00e+00	18	42	0	829423616	54	7111
2026-01-20 20:18:22.42	344.12	12.36	-41.6	-42.8	21.9	0.00e+00	6	42	0	831520768	54	7074
2026-01-20 20:18:23.43	343.95	12.32	-41.7	-42.9	21.8	0.00e+00	90	42	0	833617920	54	7108
2026-01-20 20:18:24.44	343.77	12.28	-41.7	-42.9	21.7	0.00e+00	0	42	0	835715072	54	7147
2026-01-20 20:18:25.44	343.60	12.23	-42.1	-43.3	21.5	0.00e+00	90	42	0	836763648	56	6654
2026-01-20 20:18:26.45	343.42	12.19	-42.2	-43.5	21.4	0.00e+00	5	42	0	838860800	56	6794
2026-01-20 20:18:27.46	343.25	12.15	-42.1	-43.3	21.6	0.00e+00	0	42	0	840957952	56	6653
2026-01-20 20:18:28.47	343.08	12.10	-42.1	-43.3	21.5	0.00e+00	34	42	0	843055104	56	6689
2026-01-20 20:18:29.48	342.90	12.06	-42.2	-43.5	21.4	0.00e+00	27	42	0	845152256	56	6814
2026-01-20 20:18:30.49	342.73	12.02	-42.1	-43.4	21.4	0.00e+00	92	42	0	846200832	56	6712
2026-01-20 20:18:31.50	342.56	11.97	-42.4	-43.8	20.9	0.00e+00	27	42	0	848297984	56	7012
2026-01-20 20:18:32.51	342.39	11.93	-42.4	-43.7	21.1	0.00e+00	95	42	0	850395136	56	6952
2026-01-20 20:18:33.52	342.22	11.89	-42.6	-43.9	20.9	0.00e+00	5	42	0	852492288	56	7138
2026-01-20 20:18:34.54	342.05	11.84	-42.8	-44.1	20.7	0.00e+00	26	42	0	854589440	58	6537
2026-01-20 20:18:35.54	341.88	11.80	-42.7	-44.1	20.8	0.00e+00	4	42	0	855638016	58	6517
2026-01-20 20:18:36.55	341.71	11.75	-42.9	-44.3	20.6	0.00e+00	63	42	0	857735168	58	6627
2026-01-20 20:18:37.56	341.54	11.71	-43.0	-44.4	20.6	0.00e+00	90	42	0	859832320	58	6724
2026-01-20 20:18:38.57	341.38	11.67	-43.0	-44.4	20.4	0.00e+00	7	42	0	861929472	58	6738
2026-01-20 20:18:39.58	341.21	11.62	-43.1	-44.6	20.2	0.00e+00	92	42	0	864026624	58	6868
2026-01-20 20:18:40.58	341.04	11.58	-43.2	-44.6	20.3	0.00e+00	6	42	0	865075200	58	6910
2026-01-20 20:18:41.59	340.88	11.53	-42.8	-44.3	20.4	0.00e+00	0	42	0	867172352	58	6619
2026-01-20 20:18:42.60	340.71	11.49	-43.0	-44.5	20.4	0.00e+00	4	42	0	869269504	58	6824
2026-01-20 20:18:43.61	340.55	11.44	-43.0	-44.5	20.4	0.00e+00	62	42	0	871366656	58	6795
2026-01-20 20:18:44.62	340.38	11.39	-42.9	-44.3	20.4	0.00e+00	85	42	0	873463808	58	6666
2026-01-20 20:18:45.63	340.22	11.35	-43.0	-44.4	20.3	0.00e+00	0	42	0	874512384	58	6760
2026-01-20 20:18:46.64	340.05	11.30	-43.2	-44.6	20.3	0.00e+00	92	42	0	876609536	58	6913
2026-01-20 20:18:47.65	339.89	11.26	-43.1	-44.5	20.4	0.00e+00	7	42	0	878706688	58	6824
2026-01-20 20:18:48.66	339.73	11.21	-43.1	-44.6	20.3	0.00e+00	92	42	0	880803840	58	6882
2026-01-20 20:18:49.67	339.57	11.16	-43.3	-44.8	20.1	0.00e+00	27	42	0	882900992	58	7013
2026-01-20 20:18:50.68	339.41	11.12	-43.5	-45.0	19.8	0.00e+00	28	42	0	884998144	58	7238
2026-01-20 20:18:51.69	339.24	11.07	-43.6	-45.1	19.8	0.00e+00	6	42	0	886046720	58	7315
2026-01-20 20:18:52.70	339.08	11.02	-43.6	-45.2	19.6	0.00e+00	28	42	0	888143872	58	7406
2026-01-20 20:18:53.71	338.92	10.98	-43.7	-45.2	19.7	0.00e+00	92	42	0	890241024	60	6606
2026-01-20 20:18:54.72	338.76	10.93	-43.7	-45.3	19.8	0.00e+00	21	42	0	892338176	60	6652
2026-01-20 20:18:55.73	338.61	10.88	-43.7	-45.2	19.8	0.00e+00	91	42	0	894435328	60	6599
2026-01-20 20:18:56.74	338.45	10.84	-43.6	-45.1	19.9	0.00e+00	54	42	0	895483904	60	6494
2026-01-20 20:18:57.75	338.29	10.79	-43.7	-45.3	19.8	0.00e+00	54	42	0	897581056	60	6617
2026-01-20 20:18:58.76	338.13	10.74	-43.8	-45.3	19.7	0.00e+00	58	42	0	899678208	60	6678
2026-01-20 20:18:59.77	337.97	10.69	-43.9	-45.4	19.5	0.00e+00	2	42	0	901775360	60	6746
2026-01-20 20:19:00.78	337.82	10.65	-43.9	-45.5	19.5	0.00e+00	92	42	0	903872512	60	6819
2026-01-20 20:19:01.79	337.66	10.60	-44.0	-45.5	19.4	0.00e+00	54	42	0	904921088	60	6834
2026-01-20 20:19:02.80	337.51	10.55	-44.1	-45.7	19.4	0.00e+00	92	42	0	907018240	60	6977
2026-01-20 20:19:03.81	337.35	10.50	-44.0	-45.6	19.4	0.00e+00	2	42	0	909115392	60	6867
2026-01-20 20:19:04.82	337.20	10.45	-43.9	-45.5	19.5	0.00e+00	0	42	0	911212544	60	6794
2026-01-20 20:19:05.83	337.04	10.40	-44.1	-45.7	19.2	0.00e+00	0	42	0	913309696	60	6975
2026-01-20 20:19:06.84	336.89	10.36	-44.2	-45.8	19.1	0.00e+00	0	42	0	914358272	60	7035
2026-01-20 20:19:07.85	336.74	10.31	-44.3	-45.9	19.2	0.00e+00	92	42	0	916455424	60	7132
2026-01-20 20:19:08.86	336.59	10.26	-44.1	-45.7	19.4	0.00e+00	0	42	0	918552576	60	6946
2026-01-20 20:19:09.87	336.43	10.21	-44.3	-45.9	19.2	0.00e+00	90	42	0	920649728	60	7148
2026-01-20 20:19:10.88	336.28	10.16	-44.4	-46.0	19.1	0.00e+00	0	42	0	922746880	60	7213
2026-01-20 20:19:11.88	336.13	10.11	-44.1	-45.7	19.3	0.00e+00	21	42	0	923795456	60	6955
2026-01-20 20:19:12.89	335.98	10.06	-44.0	-45.5	19.4	0.00e+00	23	42	0	925892608	60	6841
2026-01-20 20:19:13.90	335.83	10.02	-44.3	-45.8	19.1	0.00e+00	0	42	0	927989760	60	7074
2026-01-20 20:19:14.91	335.69	9.97	-44.3	-45.8	19.3	0.00e+00	0	42	0	930086912	60	7086
2026-01-20 20:19:15.92	335.54	9.92	-44.2	-45.8	19.2	0.00e+00	55	42	0	932184064	60	7026
2026-01-20 20:19:16.93	335.39	9.87	-44.3	-45.8	19.2	0.00e+00	92	42	0	933232640	60	7081
2026-01-20 20:19:17.94	335.24	9.82	-44.3	-45.9	19.0	0.00e+00	60	42	0	935329792	60	7113
2026-01-20 20:19:18.95	335.09	9.77	-44.3	-46.0	19.1	0.00e+00	92	42	0	937426944	60	7174
2026-01-20 20:19:19.96	334.95	9.72	-44.2	-45.7	19.3	0.00e+00	20	42	0	939524096	60	6974
2026-01-20 20:19:20.97	334.80	9.67	-44.2	-45.7	19.3	0.00e+00	56	42	0	941621248	60	6960
2026-01-20 20:19:21.97	334.66	9.62	-44.2	-45.8	19.3	0.00e+00	57	42	0	942669824	60	7017
2026-01-20 20:19:22.98	334.51	9.57	-44.0	-45.5	19.5	0.00e+00	0	42	0	944766976	60	6781
2026-01-20 20:19:23.99	334.37	9.52	-44.0	-45.5	19.5	0.00e+00	92	42	0	946864128	60	6840
2026-01-20 20:19:25.00	334.22	9.47	-43.8	-45.3	19.9	0.00e+00	2	42	0	948961280	60	6628
2026-01-20 20:19:26.01	334.08	9.42	-43.7	-45.1	19.8	0.00e+00	92	42	0	951058432	60	6511
2026-01-20 20:19:27.02	333.94	9.37	-43.7	-45.1	19.8	0.00e+00	0	42	0	953155584	60	6498
2026-01-20 20:19:28.03	333.80	9.32	-43.6	-45.0	20.0	0.00e+00	0	42	0	954204160	60	6433
2026-01-20 20:19:29.04	333.65	9.27	-43.6	-45.0	20.1	0.00e+00	0	42	0	956301312	60	6404
2026-01-20 20:19:30.05	333.51	9.22	-43.9	-45.4	19.6	0.00e+00	0	42	0	958398464	60	6734
2026-01-20 20:19:31.06	333.37	9.17	-43.7	-45.1	19.8	0.00e+00	90	42	0	960495616	60	6488
2026-01-20 20:19:32.07	333.23	9.12	-43.5	-44.8	20.2	0.00e+00	0	42	0	962592768	60	6305
2026-01-20 20:19:33.08	333.09	9.07	-43.9	-45.4	19.5	0.00e+00	92	42	0	963641344	60	6707
2026-01-20 20:19:34.09	332.95	9.02	-43.7	-45.1	19.8	0.00e+00	0	42	0	965738496	60	6534
2026-01-20 20:19:35.10	332.81	8.97	-43.2	-44.5	20.5	0.00e+00	64	42	0	967835648	60	6083
2026-01-20 20:19:36.11	332.67	8.92	-43.3	-44.7	20.3	0.00e+00	21	42	0	969932800	60	6176
2026-01-20 20:19:37.12	332.54	8.86	-43.4	-44.8	20.3	0.00e+00	56	42	0	972029952	60	6264
2026-01-20 20:19:38.13	332.40	8.81	-43.1	-44.4	20.6	0.00e+00	0	42	0	973078528	60	6009
2026-01-20 20:19:39.14	332.26	8.76	-43.3	-44.7	20.4	0.00e+00	0	42	0	975175680	60	6177
2026-01-20 20:19:40.15	332.12	8.71	-43.3	-44.6	20.4	0.00e+00	92	42	0	977272832	60	6141
2026-01-20 20:19:41.16	331.99	8.66	-43.3	-44.6	20.3	0.00e+00	56	42	0	979369984	60	6149
2026-01-20 20:19:42.17	331.85	8.61	-43.1	-44.4	20.5	0.00e+00	92	42	0	981467136	60	6030
2026-01-20 20:19:43.17	331.72	8.56	-42.9	-44.1	20.7	0.00e+00	62	42	0	982515712	60	5819
2026-01-20 20:19:44.18	331.58	8.51	-43.0	-44.3	20.5	0.00e+00	0	42	0	984612864	60	5944
2026-01-20 20:19:45.19	331.45	8.46	-42.5	-43.8	21.0	0.00e+00	0	42	0	986710016	58	6252
2026-01-20 20:19:46.20	331.32	8.41	-42.8	-44.0	20.7	0.00e+00	0	42	0	988807168	58	6437
2026-01-20 20:19:47.21	331.18	8.35	-42.8	-44.0	20.7	0.00e+00	90	42	0	990904320	58	6436
2026-01-20 20:19:48.22	331.05	8.30	-43.0	-44.3	20.5	0.00e+00	0	42	0	991952896	58	6627
2026-01-20 20:19:49.23	330.92	8.25	-43.5	-44.9	19.9	0.00e+00	92	42	0	994050048	58	7142
2026-01-20 20:19:50.24	330.79	8.20	-42.5	-43.7	21.0	0.00e+00	0	42	0	996147200	58	6212
2026-01-20 20:19:51.25	330.65	8.15	-42.5	-43.6	21.2	0.00e+00	39	42	0	998244352	58	6171
2026-01-20 20:19:52.26	330.52	8.10	-42.3	-43.5	21.3	0.00e+00	0	42	0	1000341504	58	6058
2026-01-20 20:19:53.27	330.39	8.05	-42.2	-43.4	21.4	0.00e+00	23	42	0	1001390080	58	6003
2026-01-20 20:19:54.28	330.26	7.99	-42.1	-43.3	21.5	0.00e+00	72	42	0	1003487232	58	5911
2026-01-20 20:19:55.29	330.13	7.94	-42.3	-43.5	21.2	0.00e+00	0	42	0	1005584384	58	6075
2026-01-20 20:19:56.29	330.01	7.89	-41.9	-43.0	21.6	0.00e+00	92	42	0	1007681536	58	5761
2026-01-20 20:19:57.31	329.88	7.84	-42.0	-43.2	21.5	0.00e+00	26	42	0	1009778688	58	5846
2026-01-20 20:19:58.32	329.75	7.79	-42.1	-43.2	21.5	0.00e+00	92	42	0	1010827264	58	5891
2026-01-20 20:19:59.32	329.62	7.74	-42.1	-43.2	21.5	0.00e+00	62	42	0	1012924416	58	5860
2026-01-20 20:20:00.33	329.50	7.69	-42.1	-43.3	21.4	0.00e+00	61	42	0	1015021568	58	5924
2026-01-20 20:20:01.34	329.37	7.63	-41.8	-42.9	21.9	0.00e+00	15	42	0	1017118720	56	6339
2026-01-20 20:20:02.35	329.24	7.58	-42.0	-43.1	21.4	0.00e+00	0	42	0	1019215872	56	6510
2026-01-20 20:20:03.36	329.12	7.53	-41.9	-43.0	21.7	0.00e+00	92	42	0	1020264448	56	6446
2026-01-20 20:20:04.37	328.99	7.48	-42.0	-43.2	21.6	0.00e+00	57	42	0	1022361600	56	6543
2026-01-20 20:20:05.38	328.87	7.43	-42.0	-43.1	21.6	0.00e+00	92	42	0	1024458752	56	6492
2026-01-20 20:20:06.39	328.74	7.37	-41.9	-43.0	21.6	0.00e+00	4	42	0	1026555904	56	6407
2026-01-20 20:20:07.40	328.62	7.32	-41.7	-42.7	21.6	0.00e+00	5	42	0	1028653056	56	6236
2026-01-20 20:20:08.41	328.50	7.27	-41.8	-42.9	21.5	0.00e+00	62	42	0	1029701632	56	6337
2026-01-20 20:20:09.42	328.37	7.22	-42.0	-43.1	21.4	0.00e+00	6	42	0	1031798784	56	6513
2026-01-20 20:20:10.43	328.25	7.17	-41.7	-42.8	21.9	0.00e+00	92	42	0	1033895936	56	6273
2026-01-20 20:20:11.44	328.13	7.11	-41.8	-42.9	21.9	0.00e+00	0	42	0	1035993088	56	6335
2026-01-20 20:20:12.45	328.01	7.06	-41.9	-43.0	21.6	0.00e+00	92	42	0	1038090240	56	6452
2026-01-20 20:20:13.46	327.89	7.01	-42.2	-43.3	21.4	0.00e+00	6	42	0	1039138816	56	6685
2026-01-20 20:20:14.47	327.76	6.96	-42.1	-43.2	21.5	0.00e+00	16	42	0	1041235968	56	6581
2026-01-20 20:20:15.48	327.64	6.91	-41.8	-42.9	21.7	0.00e+00	4	42	0	1043333120	56	6384
2026-01-20 20:20:16.49	327.52	6.85	-42.0	-43.1	21.6	0.00e+00	2	42	0	1045430272	56	6516
2026-01-20 20:20:17.50	327.41	6.80	-41.9	-43.0	21.6	0.00e+00	23	42	0	1047527424	56	6461
2026-01-20 20:20:18.51	327.29	6.75	-42.1	-43.2	21.6	0.00e+00	24	42	0	1049624576	56	6571
2026-01-20 20:20:19.52	327.17	6.70	-41.8	-43.0	21.6	0.00e+00	90	42	0	1050673152	56	6393
2026-01-20 20:20:20.52	327.05	6.65	-42.0	-43.2	21.5	0.00e+00	63	42	0	1052770304	56	6544
2026-01-20 20:20:21.53	326.93	6.59	-42.0	-43.2	21.5	0.00e+00	92	42	0	1054867456	56	6550
2026-01-20 20:20:22.54	326.82	6.54	-41.9	-43.0	21.6	0.00e+00	17	42	0	1056964608	56	6445
2026-01-20 20:20:23.55	326.70	6.49	-42.0	-43.2	21.5	0.00e+00	68	42	0	1059061760	56	6547
2026-01-20 20:20:24.56	326.58	6.44	-42.0	-43.1	21.5	0.00e+00	0	42	0	1060110336	56	6523
2026-01-20 20:20:25.57	326.47	6.38	-42.1	-43.2	21.4	0.00e+00	0	42	0	1062207488	56	6595
2026-01-20 20:20:26.58	326.35	6.33	-42.1	-43.3	21.3	0.00e+00	90	42	0	1064304640	56	6646
2026-01-20 20:20:27.59	326.24	6.28	-42.5	-43.7	21.0	0.00e+00	64	42	0	1066401792	56	6997
2026-01-20 20:20:28.60	326.12	6.23	-42.0	-43.2	21.4	7.00e-07	90	42	0	1068498944	56	6568
2026-01-20 20:20:29.61	326.01	6.18	-42.2	-43.4	21.3	0.00e+00	62	42	0	1069547520	56	6718
2026-01-20 20:20:30.62	325.89	6.12	-42.6	-43.9	20.7	0.00e+00	5	42	0	1071644672	56	7096
2026-01-20 20:20:31.63	325.78	6.07	-42.8	-44.1	20.6	0.00e+00	5	42	0	1073741824	58	6496
2026-01-20 20:20:32.64	325.67	6.02	-42.7	-44.0	20.7	0.00e+00	0	42	0	1075838976	58	6408
2026-01-20 20:20:33.65	325.55	5.97	-42.5	-43.7	21.0	0.00e+00	41	42	0	1077936128	58	6233
2026-01-20 20:20:34.66	325.44	5.92	-42.2	-43.4	21.1	0.00e+00	0	42	0	1078984704	58	6029
2026-01-20 20:20:35.66	325.33	5.86	-42.4	-43.6	21.0	0.00e+00	92	42	0	1081081856	58	6166
2026-01-20 20:20:36.68	325.22	5.81	-42.3	-43.6	20.9	0.00e+00	0	42	0	1083179008	58	6120
2026-01-20 20:20:37.69	325.11	5.76	-42.4	-43.7	20.7	0.00e+00	24	42	0	1085276160	58	6214
2026-01-20 20:20:38.69	325.00	5.71	-42.8	-44.1	20.5	0.00e+00	2	42	0	1087373312	58	6472
2026-01-20 20:20:39.70	324.89	5.65	-42.3	-43.5	20.9	0.00e+00	18	42	0	1088421888	58	6073
2026-01-20 20:20:40.71	324.78	5.60	-42.4	-43.6	20.9	0.00e+00	4	42	0	1090519040	58	6149
2026-01-20 20:20:41.72	324.67	5.55	-42.9	-44.2	20.2	0.00e+00	57	42	0	1092616192	58	6573
2026-01-20 20:20:42.73	324.56	5.50	-42.3	-43.5	21.0	0.00e+00	90	42	0	1094713344	58	6048
2026-01-20 20:20:43.74	324.45	5.45	-42.7	-44.0	20.5	0.00e+00	21	42	0	1096810496	58	6402
2026-01-20 20:20:44.75	324.34	5.39	-42.5	-43.8	20.6	0.00e+00	92	42	0	1097859072	58	6271
2026-01-20 20:20:45.76	324.24	5.34	-42.3	-43.5	20.9	0.00e+00	24	42	0	1099956224	58	6101
2026-01-20 20:20:46.77	324.13	5.29	-43.0	-44.4	20.0	0.00e+00	63	42	0	1102053376	58	6718
2026-01-20 20:20:47.78	324.02	5.24	-42.6	-43.9	20.4	0.00e+00	73	42	0	1104150528	58	6343
2026-01-20 20:20:48.79	323.92	5.18	-42.9	-44.2	20.2	0.00e+00	63	42	0	1106247680	58	6612
2026-01-20 20:20:49.80	323.81	5.13	-43.0	-44.4	19.9	0.00e+00	92	42	0	1107296256	58	6767
2026-01-20 20:20:50.81	323.70	5.08	-43.1	-44.5	19.7	0.00e+00	0	42	0	1109393408	58	6811
2026-01-20 20:20:51.82	323.60	5.03	-44.1	-45.7	18.9	0.00e+00	92	42	0	1111490560	60	6961
2026-01-20 20:20:52.83	323.49	4.98	-43.2	-44.6	19.9	0.00e+00	0	42	0	1113587712	60	6172
2026-01-20 20:20:53.84	323.39	4.92	-42.8	-44.2	20.3	0.00e+00	0	42	0	1115684864	60	5865
2026-01-20 20:20:54.85	323.28	4.87	-42.5	-43.8	20.6	0.00e+00	0	42	0	1117782016	58	6271
2026-01-20 20:20:55.86	323.18	4.82	-43.1	-44.5	19.8	0.00e+00	0	42	0	1118830592	58	6820
2026-01-20 20:20:56.87	323.08	4.77	-43.5	-45.0	19.4	0.00e+00	92	42	0	1120927744	58	7214
2026-01-20 20:20:57.88	322.97	4.72	-43.6	-45.2	19.2	0.00e+00	0	42	0	1123024896	58	7374
2026-01-20 20:20:58.89	322.87	4.66	-43.4	-44.9	19.6	0.00e+00	92	42	0	1125122048	60	6335
2026-01-20 20:20:59.90	322.77	4.61	-42.8	-44.2	20.2	0.00e+00	22	42	0	1127219200	60	5853
2026-01-20 20:21:00.91	322.67	4.56	-42.8	-44.1	20.2	0.00e+00	23	42	0	1128267776	58	6509
2026-01-20 20:21:01.91	322.57	4.51	-43.3	-44.8	19.3	0.00e+00	23	42	0	1130364928	58	7069
2026-01-20 20:21:02.92	322.47	4.46	-43.7	-45.3	19.2	0.00e+00	17	42	0	1132462080	60	6621
2026-01-20 20:21:03.94	322.36	4.40	-43.4	-44.9	19.4	0.00e+00	10	42	0	1134559232	60	6343
2026-01-20 20:21:04.94	322.26	4.35	-43.0	-44.4	20.0	0.00e+00	17	42	0	1136656384	60	5970
2026-01-20 20:21:05.95	322.16	4.30	-44.5	-46.3	18.0	0.00e+00	92	42	0	1137704960	60	7464
2026-01-20 20:21:06.96	322.06	4.25	-43.2	-44.7	19.4	0.00e+00	4	42	0	1139802112	60	6218
2026-01-20 20:21:07.97	321.97	4.20	-43.7	-45.3	19.0	0.00e+00	48	42	0	1141899264	60	6647
2026-01-20 20:21:08.98	321.87	4.15	-43.9	-45.5	19.1	0.00e+00	0	42	0	1143996416	60	6790
2026-01-20 20:21:09.99	321.77	4.09	-43.7	-45.3	19.0	0.00e+00	59	42	0	1146093568	60	6678
2026-01-20 20:21:11.00	321.67	4.04	-44.3	-46.1	18.1	0.00e+00	65	42	0	1147142144	60	7312
2026-01-20 20:21:12.01	321.57	3.99	-43.8	-45.5	18.8	0.00e+00	65	42	0	1149239296	60	6772
2026-01-20 20:21:13.02	321.47	3.94	-44.3	-46.1	18.1	0.00e+00	90	42	0	1151336448	60	7301
2026-01-20 20:21:14.03	321.38	3.89	-44.2	-46.0	18.3	0.00e+00	2	42	0	1153433600	60	7219
2026-01-20 20:21:15.04	321.28	3.83	-43.6	-45.2	18.8	0.00e+00	92	42	0	1155530752	60	6601
2026-01-20 20:21:16.05	321.18	3.78	-44.3	-46.1	18.2	0.00e+00	0	42	0	1156579328	60	7324
2026-01-20 20:21:17.05	321.09	3.73	-46.0	-48.6	15.5	0.00e+00	0	42	0	1158676480	60	9747
2026-01-20 20:21:18.06	320.99	3.68	-42.8	-44.2	19.9	0.00e+00	0	42	0	1160773632	60	5854
2026-01-20 20:21:19.07	320.90	3.63	-44.1	-45.8	18.3	0.00e+00	17	42	0	1162870784	60	7072
2026-01-20 20:21:20.08	320.80	3.58	-44.5	-46.4	18.1	0.00e+00	92	42	0	1164967936	60	7527
2026-01-20 20:21:21.09	320.71	3.53	-44.0	-45.7	18.0	0.00e+00	22	42	0	1166016512	60	7006
2026-01-20 20:21:22.10	320.61	3.47	-44.2	-46.0	17.8	0.00e+00	92	42	0	1168113664	60	7193
2026-01-20 20:21:23.11	320.52	3.42	-44.6	-46.6	17.4	0.00e+00	0	42	0	1170210816	60	7732
2026-01-20 20:21:24.12	320.43	3.37	-44.3	-46.2	17.1	0.00e+00	23	42	0	1172307968	60	7382
2026-01-20 20:21:25.13	320.33	3.32	-44.4	-46.4	17.8	0.00e+00	58	42	0	1174405120	60	7509
2026-01-20 20:21:26.14	320.24	3.27	-44.5	-46.5	17.6	0.00e+00	23	42	0	1175453696	60	7632
2026-01-20 20:21:27.15	320.15	3.22	-43.5	-45.1	19.6	0.00e+00	0	42	0	1177550848	60	6520
2026-01-20 20:21:28.16	320.05	3.16	-43.2	-44.8	19.0	0.00e+00	22	42	0	1179648000	60	6253
2026-01-20 20:21:29.17	319.96	3.11	-46.3	-49.2	14.8	0.00e+00	89	42	0	1181745152	60	10436
2026-01-20 20:21:30.18	319.87	3.06	-44.3	-46.3	17.5	0.00e+00	0	42	0	1183842304	58	8348
2026-01-20 20:21:31.19	319.78	3.01	-44.4	-46.3	17.5	0.00e+00	0	42	0	1185939456	60	7454
2026-01-20 20:21:32.20	319.69	2.96	-50.2	-65.4	3.6	1.51e+00	0	42	104	1185939456	60	67695
2026-01-20 20:21:33.21	319.60	2.91	-50.7	-66.0	3.6	1.51e+00	0	42	104	1185939456	60	71896
2026-01-20 20:21:34.22	319.51	2.86	-50.9	-66.1	3.6	1.51e+00	0	42	104	1185939456	60	72923
2026-01-20 20:21:35.23	319.42	2.81	-51.0	-66.2	3.6	1.51e+00	0	42	104	1185939456	60	74038
