passes_logs/2026/01/20/R4.6S_Anadyr/R4.6S_Anadyr__20260120_115047_NOAA_20_JPSS-1_rec.log

#Pass ID: 20260120_115047_NOAA 20 (JPSS-1)
#Satellite: NOAA 20 (JPSS-1)
#Configuration: NOAA 20
#almurnet v.1.7.20251203
#Start time: 2026-01-20 11:50:49

#Version: 2.2.20231116
#Station: R4.6S_Anadyr
#Location: 177.4865 lon 64.73178 lat
#TLE: 1 43013U 17073A   26019.91154542  .00000116  00000+0  76014-4 0  9997
#TLE: 2 43013  98.7642 320.7991 0001304  32.0041 328.1214 14.19537346423438

#Time	Az	El	Level	Level2	SNR	BER	BlckErr	Temp	State	Recorded	gain1	gain2
2026-01-20 11:50:49.96	20.06	0.10	-52.1	-67.1	3.5	1.51e+00	0	39	0	0	60	82279
2026-01-20 11:50:50.97	20.15	0.14	-53.0	-68.1	3.6	1.51e+00	0	40	104	0	60	92231
2026-01-20 11:50:51.98	20.24	0.18	-52.6	-67.8	3.6	1.51e+00	0	40	104	0	60	89200
2026-01-20 11:50:52.99	20.33	0.23	-52.5	-67.7	3.6	1.51e+00	0	40	104	0	60	88067
2026-01-20 11:50:54.00	20.42	0.27	-52.2	-67.5	3.5	1.51e+00	0	40	104	0	60	85383
2026-01-20 11:50:55.01	20.51	0.31	-52.0	-67.2	3.6	1.51e+00	0	40	104	0	60	82535
2026-01-20 11:50:56.02	20.60	0.36	-52.0	-67.2	3.6	1.51e+00	0	40	104	0	60	82870
2026-01-20 11:50:57.03	20.69	0.40	-51.8	-67.1	3.6	1.51e+00	0	41	104	0	60	81837
2026-01-20 11:50:58.04	20.78	0.44	-51.7	-67.0	3.5	1.51e+00	0	41	104	0	60	80691
2026-01-20 11:50:59.05	20.87	0.49	-51.5	-66.7	3.6	1.51e+00	0	41	104	0	60	78597
2026-01-20 11:51:00.06	20.97	0.53	-51.4	-66.6	3.6	1.51e+00	0	41	104	0	60	77635
2026-01-20 11:51:01.07	21.06	0.58	-51.5	-66.7	3.6	1.51e+00	0	41	104	0	60	78407
2026-01-20 11:51:02.08	21.15	0.62	-51.3	-66.6	3.6	1.51e+00	0	41	104	0	60	77129
2026-01-20 11:51:03.09	21.24	0.66	-51.3	-66.5	3.6	1.51e+00	0	41	104	0	60	76518
2026-01-20 11:51:04.10	21.34	0.71	-51.1	-66.4	3.6	1.51e+00	0	41	104	0	60	75319
2026-01-20 11:51:05.11	21.43	0.75	-51.0	-66.3	3.6	1.51e+00	0	41	104	0	60	74450
2026-01-20 11:51:06.12	21.52	0.79	-51.0	-66.2	3.6	1.51e+00	0	41	104	0	60	73738
2026-01-20 11:51:07.13	21.62	0.84	-50.9	-66.1	3.6	1.51e+00	0	41	104	0	60	73187
2026-01-20 11:51:08.14	21.71	0.88	-50.7	-66.0	3.6	1.51e+00	0	41	104	0	60	71772
2026-01-20 11:51:09.15	21.80	0.92	-50.6	-65.8	3.6	1.51e+00	0	41	104	0	60	70881
2026-01-20 11:51:10.16	21.90	0.97	-50.6	-65.8	3.6	1.51e+00	0	41	104	0	60	70678
2026-01-20 11:51:11.17	21.99	1.01	-50.5	-65.7	3.5	1.51e+00	0	41	104	0	60	69307
2026-01-20 11:51:12.18	22.09	1.06	-50.2	-65.5	3.6	1.51e+00	0	41	104	0	60	67855
2026-01-20 11:51:13.19	22.18	1.10	-50.0	-65.2	3.6	1.51e+00	0	41	104	0	60	65665
2026-01-20 11:51:14.20	22.28	1.14	-49.6	-64.9	3.6	1.51e+00	0	41	104	0	60	63275
2026-01-20 11:51:15.21	22.37	1.19	-49.5	-64.7	3.6	1.51e+00	0	41	104	0	60	62196
2026-01-20 11:51:16.23	22.47	1.23	-49.6	-64.7	3.6	1.51e+00	0	41	104	0	60	62394
2026-01-20 11:51:17.24	22.57	1.27	-49.5	-64.7	3.6	1.51e+00	0	41	104	0	60	62239
2026-01-20 11:51:18.24	22.66	1.32	-49.5	-64.7	3.6	1.51e+00	0	41	104	0	60	62079
2026-01-20 11:51:19.25	22.76	1.36	-49.5	-64.7	3.6	1.51e+00	0	41	104	0	60	62007
2026-01-20 11:51:20.26	22.86	1.41	-49.5	-64.7	3.6	1.51e+00	0	41	104	0	60	62062
2026-01-20 11:51:21.27	22.95	1.45	-49.5	-64.7	3.6	1.51e+00	0	41	104	0	60	62238
2026-01-20 11:51:22.28	23.05	1.49	-49.5	-64.8	3.6	1.51e+00	0	41	104	0	60	62596
2026-01-20 11:51:23.29	23.15	1.54	-49.5	-64.7	3.6	1.51e+00	0	41	104	0	60	61812
2026-01-20 11:51:24.30	23.25	1.58	-49.5	-64.6	3.6	1.51e+00	0	41	104	0	60	61603
2026-01-20 11:51:25.31	23.34	1.62	-49.5	-64.7	3.6	1.51e+00	0	41	104	0	60	62141
2026-01-20 11:51:26.32	23.44	1.67	-49.5	-64.7	3.6	1.51e+00	0	41	104	0	60	61910
2026-01-20 11:51:27.33	23.54	1.71	-49.5	-64.7	3.6	1.51e+00	0	41	104	0	60	61950
2026-01-20 11:51:28.34	23.64	1.76	-49.5	-64.7	3.6	1.51e+00	0	41	104	0	60	62172
2026-01-20 11:51:29.35	23.74	1.80	-49.5	-64.7	3.6	1.51e+00	0	41	104	0	60	61933
2026-01-20 11:51:30.36	23.84	1.84	-49.5	-64.7	3.6	1.51e+00	0	41	104	0	60	61841
2026-01-20 11:51:31.37	23.94	1.89	-49.5	-64.7	3.6	1.51e+00	0	41	104	0	60	62050
2026-01-20 11:51:32.38	24.04	1.93	-49.5	-64.7	3.6	1.51e+00	0	41	104	0	60	62092
2026-01-20 11:51:33.39	24.14	1.97	-49.5	-64.7	3.6	1.51e+00	0	41	104	0	60	62236
2026-01-20 11:51:34.40	24.24	2.02	-49.5	-64.7	3.6	1.51e+00	0	41	104	0	60	62379
2026-01-20 11:51:35.41	24.34	2.06	-49.5	-64.7	3.6	1.51e+00	0	41	104	0	60	61880
2026-01-20 11:51:36.42	24.44	2.11	-49.5	-64.7	3.6	1.51e+00	0	41	104	0	60	61960
2026-01-20 11:51:37.43	24.55	2.15	-49.5	-64.6	3.6	1.51e+00	0	41	104	0	60	61077
2026-01-20 11:51:38.44	24.65	2.19	-49.5	-64.6	3.6	1.51e+00	0	41	104	0	60	61068
2026-01-20 11:51:39.45	24.75	2.24	-49.5	-64.6	3.6	1.51e+00	0	41	104	0	60	61722
2026-01-20 11:51:40.46	24.85	2.28	-49.5	-64.7	3.6	1.51e+00	0	41	104	0	60	62257
2026-01-20 11:51:41.47	24.95	2.32	-49.5	-64.7	3.6	1.51e+00	0	41	104	0	60	61968
2026-01-20 11:51:42.48	25.06	2.37	-49.5	-64.7	3.6	1.51e+00	0	41	104	0	60	62234
2026-01-20 11:51:43.49	25.16	2.41	-49.5	-64.7	3.6	1.51e+00	0	41	104	0	60	62311
2026-01-20 11:51:44.50	25.26	2.46	-49.5	-64.7	3.6	1.51e+00	0	41	104	0	60	61891
2026-01-20 11:51:45.51	25.37	2.50	-49.5	-64.2	3.6	1.51e+00	0	41	104	0	60	58608
2026-01-20 11:51:46.51	25.47	2.54	-49.5	-63.6	3.6	1.51e+00	0	41	104	0	60	54568
2026-01-20 11:51:47.52	25.58	2.59	-49.5	-64.0	3.6	1.51e+00	0	41	104	0	60	57139
2026-01-20 11:51:48.53	25.68	2.63	-49.5	-63.7	3.6	1.51e+00	0	41	104	0	60	55504
2026-01-20 11:51:49.54	25.79	2.67	-49.3	-61.4	4.1	1.50e+00	0	41	104	0	60	42374
2026-01-20 11:51:50.55	25.89	2.72	-48.5	-54.8	8.3	4.38e-01	0	41	0	0	60	19772
2026-01-20 11:51:51.56	26.00	2.76	-48.0	-53.1	10.3	1.97e-02	0	41	0	2097152	60	16377
2026-01-20 11:51:52.57	26.10	2.80	-45.2	-47.6	16.4	1.37e-05	0	41	0	4194304	60	8663
2026-01-20 11:51:53.58	26.21	2.85	-45.9	-48.8	14.6	0.00e+00	0	41	0	5242880	60	9972
2026-01-20 11:51:54.59	26.32	2.89	-45.1	-47.4	16.7	0.00e+00	0	41	0	7340032	60	8469
2026-01-20 11:51:55.60	26.42	2.94	-45.0	-47.3	16.3	0.00e+00	0	41	0	9437184	60	8406
2026-01-20 11:51:56.61	26.53	2.98	-45.6	-48.3	15.5	0.00e+00	0	41	0	11534336	60	9349
2026-01-20 11:51:57.62	26.64	3.02	-46.9	-50.6	12.4	0.00e+00	0	41	0	12582912	60	12220
2026-01-20 11:51:58.63	26.75	3.07	-45.6	-48.2	15.4	5.30e-06	0	41	0	14680064	60	9246
2026-01-20 11:51:59.64	26.85	3.11	-49.3	-63.5	3.6	1.22e-03	28	41	104	16777216	60	53951
2026-01-20 11:52:00.65	26.96	3.15	-46.5	-49.8	5.9	1.51e+00	0	41	104	16777216	60	11225
2026-01-20 11:52:01.66	27.07	3.20	-44.2	-46.1	17.8	0.00e+00	0	41	0	16777216	60	7280
2026-01-20 11:52:02.67	27.18	3.24	-48.6	-55.3	4.7	2.20e-06	0	41	0	18874368	60	21031
2026-01-20 11:52:03.68	27.29	3.28	-45.8	-48.4	5.9	1.49e+00	91	41	104	18874368	60	9518
2026-01-20 11:52:04.69	27.40	3.33	-42.2	-43.5	20.2	0.00e+00	0	41	0	18874368	58	6070
2026-01-20 11:52:05.70	27.51	3.37	-46.1	-48.8	15.0	0.00e+00	0	41	0	19922944	60	9958
2026-01-20 11:52:06.71	27.62	3.41	-45.7	-48.3	15.9	0.00e+00	0	41	0	22020096	60	9373
2026-01-20 11:52:07.72	27.73	3.46	-44.3	-46.2	18.2	0.00e+00	0	41	0	24117248	60	7341
2026-01-20 11:52:08.73	27.84	3.50	-44.3	-46.2	17.5	0.00e+00	0	41	0	26214400	60	7349
2026-01-20 11:52:09.74	27.95	3.54	-44.3	-46.2	17.9	0.00e+00	0	41	0	28311552	60	7368
2026-01-20 11:52:10.75	28.06	3.59	-44.5	-46.4	17.3	0.00e+00	0	41	0	29360128	60	7578
2026-01-20 11:52:11.76	28.18	3.63	-44.0	-45.7	18.7	0.00e+00	0	41	0	31457280	60	6998
2026-01-20 11:52:12.77	28.29	3.68	-43.8	-45.5	18.3	0.00e+00	0	41	0	33554432	60	6842
2026-01-20 11:52:13.78	28.40	3.72	-44.6	-46.6	17.8	0.00e+00	0	41	0	35651584	60	7751
2026-01-20 11:52:14.79	28.51	3.76	-42.2	-43.5	20.3	0.00e+00	0	41	0	37748736	58	6052
2026-01-20 11:52:15.80	28.63	3.81	-44.5	-46.5	17.9	0.00e+00	0	41	0	38797312	60	7596
2026-01-20 11:52:16.81	28.74	3.85	-44.1	-45.9	18.1	0.00e+00	0	41	0	40894464	60	7151
2026-01-20 11:52:17.82	28.85	3.89	-45.5	-47.8	16.6	0.00e+00	0	41	0	42991616	60	8906
2026-01-20 11:52:18.83	28.97	3.94	-43.5	-45.2	18.9	0.00e+00	0	41	0	45088768	60	6548
2026-01-20 11:52:19.84	29.08	3.98	-44.2	-46.1	18.0	0.00e+00	0	41	0	47185920	60	7289
2026-01-20 11:52:20.85	29.20	4.02	-42.3	-43.6	20.4	0.00e+00	0	41	0	48234496	58	6129
2026-01-20 11:52:21.86	29.31	4.06	-43.9	-45.6	18.5	0.00e+00	0	41	0	50331648	60	6890
2026-01-20 11:52:22.87	29.43	4.11	-44.5	-46.4	17.8	0.00e+00	0	41	0	52428800	60	7534
2026-01-20 11:52:23.88	29.54	4.15	-43.2	-44.8	19.0	0.00e+00	0	41	0	54525952	60	6253
2026-01-20 11:52:24.89	29.66	4.19	-43.5	-45.1	19.0	0.00e+00	0	41	0	56623104	60	6479
2026-01-20 11:52:25.90	29.78	4.24	-43.6	-45.2	18.8	0.00e+00	0	41	0	57671680	60	6590
2026-01-20 11:52:26.91	29.89	4.28	-44.2	-46.0	18.0	0.00e+00	0	41	0	59768832	60	7238
2026-01-20 11:52:27.92	30.01	4.32	-44.0	-45.7	18.6	0.00e+00	0	41	0	61865984	60	7004
2026-01-20 11:52:28.93	30.13	4.37	-43.2	-44.7	19.3	0.00e+00	0	41	0	63963136	60	6222
2026-01-20 11:52:29.94	30.24	4.41	-42.4	-43.7	20.2	0.00e+00	0	41	0	66060288	58	6209
2026-01-20 11:52:30.95	30.36	4.45	-42.7	-44.1	19.7	0.00e+00	0	41	0	67108864	58	6528
2026-01-20 11:52:31.96	30.48	4.50	-43.1	-44.6	19.3	0.00e+00	0	41	0	69206016	58	6902
2026-01-20 11:52:32.97	30.60	4.54	-43.1	-44.6	19.5	0.00e+00	0	41	0	71303168	58	6904
2026-01-20 11:52:33.98	30.72	4.58	-42.8	-44.3	19.8	0.00e+00	0	42	0	73400320	58	6629
2026-01-20 11:52:34.98	30.84	4.62	-43.4	-45.0	19.1	0.00e+00	0	42	0	75497472	58	7221
2026-01-20 11:52:35.99	30.96	4.67	-43.1	-44.6	19.4	0.00e+00	0	42	0	77594624	58	6901
2026-01-20 11:52:37.00	31.08	4.71	-42.2	-43.5	20.6	0.00e+00	0	41	0	78643200	58	6084
2026-01-20 11:52:38.01	31.20	4.75	-42.5	-43.9	20.2	0.00e+00	0	42	0	80740352	58	6346
2026-01-20 11:52:39.02	31.32	4.80	-42.8	-44.2	19.9	0.00e+00	0	42	0	82837504	58	6587
2026-01-20 11:52:40.03	31.44	4.84	-42.6	-43.9	20.0	0.00e+00	0	42	0	84934656	58	6373
2026-01-20 11:52:41.04	31.56	4.88	-42.7	-44.1	20.1	0.00e+00	0	41	0	87031808	58	6494
2026-01-20 11:52:42.05	31.68	4.92	-41.9	-43.1	20.8	0.00e+00	0	41	0	88080384	58	5821
2026-01-20 11:52:43.06	31.80	4.97	-43.0	-44.5	19.6	0.00e+00	0	41	0	90177536	58	6787
2026-01-20 11:52:44.07	31.93	5.01	-43.2	-44.7	19.3	0.00e+00	0	41	0	92274688	58	6998
2026-01-20 11:52:45.08	32.05	5.05	-42.8	-44.3	19.9	0.00e+00	0	41	0	94371840	58	6619
2026-01-20 11:52:46.09	32.17	5.09	-42.6	-43.9	20.1	0.00e+00	0	41	0	96468992	58	6369
2026-01-20 11:52:47.10	32.30	5.14	-42.7	-44.1	20.2	0.00e+00	0	42	0	97517568	58	6474
2026-01-20 11:52:48.11	32.42	5.18	-42.3	-43.6	20.4	0.00e+00	0	41	0	99614720	58	6115
2026-01-20 11:52:49.12	32.54	5.22	-42.1	-43.4	20.8	0.00e+00	0	41	0	101711872	58	6006
2026-01-20 11:52:50.13	32.67	5.26	-42.6	-43.9	20.1	0.00e+00	0	42	0	103809024	56	7109
2026-01-20 11:52:51.14	32.79	5.31	-43.1	-44.6	19.6	0.00e+00	0	41	0	105906176	58	6866
2026-01-20 11:52:52.15	32.92	5.35	-42.3	-43.6	20.5	0.00e+00	0	41	0	106954752	58	6152
2026-01-20 11:52:53.15	33.04	5.39	-42.9	-44.3	20.0	0.00e+00	0	42	0	109051904	58	6646
2026-01-20 11:52:54.16	33.17	5.43	-42.6	-43.9	20.3	0.00e+00	0	42	0	111149056	58	6343
2026-01-20 11:52:55.17	33.29	5.47	-43.0	-44.4	19.9	0.00e+00	0	42	0	113246208	58	6711
2026-01-20 11:52:56.18	33.42	5.52	-42.7	-44.1	20.3	0.00e+00	0	42	0	115343360	58	6474
2026-01-20 11:52:57.19	33.55	5.56	-43.0	-44.5	19.6	0.00e+00	0	42	0	116391936	58	6790
2026-01-20 11:52:58.20	33.67	5.60	-43.6	-45.1	19.2	0.00e+00	0	42	0	118489088	58	7331
2026-01-20 11:52:59.21	33.80	5.64	-42.9	-44.3	19.9	0.00e+00	0	42	0	120586240	58	6656
2026-01-20 11:53:00.22	33.93	5.68	-43.1	-44.5	19.7	0.00e+00	0	42	0	122683392	58	6816
2026-01-20 11:53:01.23	34.06	5.73	-43.2	-44.6	19.8	0.00e+00	0	42	0	124780544	58	6922
2026-01-20 11:53:02.24	34.19	5.77	-42.6	-43.9	20.3	0.00e+00	0	42	0	125829120	58	6348
2026-01-20 11:53:03.25	34.32	5.81	-42.5	-43.9	20.3	0.00e+00	0	42	0	127926272	58	6318
2026-01-20 11:53:04.26	34.45	5.85	-42.9	-44.3	20.0	0.00e+00	0	42	0	130023424	58	6660
2026-01-20 11:53:05.27	34.57	5.89	-42.6	-43.9	20.6	0.00e+00	0	42	0	132120576	58	6390
2026-01-20 11:53:06.28	34.70	5.93	-42.3	-43.6	20.6	0.00e+00	0	42	0	134217728	58	6147
2026-01-20 11:53:07.28	34.83	5.97	-42.6	-43.9	20.4	0.00e+00	0	42	0	135266304	58	6377
2026-01-20 11:53:08.29	34.96	6.02	-42.6	-44.0	20.3	0.00e+00	0	42	0	137363456	58	6411
2026-01-20 11:53:09.30	35.10	6.06	-42.2	-43.5	20.7	0.00e+00	0	42	0	139460608	58	6069
2026-01-20 11:53:10.31	35.23	6.10	-42.4	-43.7	20.8	0.00e+00	0	42	0	141557760	58	6177
2026-01-20 11:53:11.32	35.36	6.14	-42.5	-43.8	20.4	0.00e+00	0	42	0	143654912	58	6278
2026-01-20 11:53:12.33	35.49	6.18	-42.8	-44.1	20.2	0.00e+00	0	42	0	145752064	58	6534
2026-01-20 11:53:13.34	35.62	6.22	-42.1	-43.3	20.9	0.00e+00	0	42	0	146800640	58	5951
2026-01-20 11:53:14.35	35.76	6.26	-42.1	-43.3	20.9	0.00e+00	0	42	0	148897792	58	5963
2026-01-20 11:53:15.36	35.89	6.30	-42.6	-43.9	20.4	0.00e+00	0	42	0	150994944	58	6350
2026-01-20 11:53:16.37	36.02	6.35	-42.3	-43.6	20.5	0.00e+00	0	42	0	153092096	58	6139
2026-01-20 11:53:17.37	36.16	6.39	-42.3	-43.6	20.8	0.00e+00	0	42	0	155189248	58	6129
2026-01-20 11:53:18.38	36.29	6.43	-42.5	-43.8	20.6	0.00e+00	0	42	0	156237824	58	6253
2026-01-20 11:53:19.39	36.43	6.47	-42.3	-43.6	20.8	0.00e+00	0	42	0	158334976	58	6105
2026-01-20 11:53:20.40	36.56	6.51	-42.7	-44.0	20.3	0.00e+00	0	42	0	160432128	58	6416
2026-01-20 11:53:21.41	36.70	6.55	-42.5	-43.8	20.5	0.00e+00	0	42	0	162529280	58	6307
2026-01-20 11:53:22.42	36.83	6.59	-42.7	-44.0	20.2	0.00e+00	0	42	0	163577856	58	6419
2026-01-20 11:53:23.44	36.97	6.63	-42.6	-43.9	20.5	0.00e+00	0	42	0	165675008	58	6371
2026-01-20 11:53:24.44	37.10	6.67	-42.7	-44.0	20.3	0.00e+00	0	42	0	167772160	58	6447
2026-01-20 11:53:25.45	37.24	6.71	-42.7	-44.0	20.3	0.00e+00	0	42	0	169869312	58	6412
2026-01-20 11:53:26.46	37.38	6.75	-42.7	-44.0	20.3	0.00e+00	0	42	0	171966464	58	6428
2026-01-20 11:53:27.47	37.52	6.79	-42.6	-43.9	20.5	0.00e+00	0	41	0	174063616	58	6387
2026-01-20 11:53:28.48	37.65	6.83	-42.6	-43.9	20.6	0.00e+00	0	41	0	175112192	58	6365
2026-01-20 11:53:29.49	37.79	6.87	-42.8	-44.2	20.2	0.00e+00	0	42	0	177209344	58	6545
2026-01-20 11:53:30.50	37.93	6.91	-42.8	-44.1	20.3	0.00e+00	0	42	0	179306496	58	6519
2026-01-20 11:53:31.51	38.07	6.95	-42.3	-43.6	20.7	0.00e+00	0	42	0	181403648	58	6144
2026-01-20 11:53:32.52	38.21	6.99	-42.6	-43.9	20.4	0.00e+00	0	42	0	183500800	58	6364
2026-01-20 11:53:33.53	38.35	7.03	-42.5	-43.8	20.7	0.00e+00	0	41	0	184549376	58	6277
2026-01-20 11:53:34.54	38.49	7.07	-42.5	-43.8	20.6	0.00e+00	0	42	0	186646528	58	6302
2026-01-20 11:53:35.55	38.63	7.11	-42.8	-44.1	20.2	0.00e+00	0	42	0	188743680	58	6514
2026-01-20 11:53:36.56	38.77	7.15	-42.9	-44.3	20.1	0.00e+00	0	42	0	190840832	58	6644
2026-01-20 11:53:37.56	38.91	7.19	-43.2	-44.6	19.9	0.00e+00	0	42	0	192937984	58	6912
2026-01-20 11:53:38.57	39.05	7.23	-42.7	-44.1	20.2	0.00e+00	0	42	0	193986560	58	6469
2026-01-20 11:53:39.58	39.20	7.27	-43.4	-44.9	19.9	0.00e+00	0	42	0	196083712	58	7090
2026-01-20 11:53:40.60	39.34	7.31	-43.2	-44.6	19.5	0.00e+00	0	42	0	198180864	58	6866
2026-01-20 11:53:41.61	39.48	7.35	-43.6	-45.2	19.1	0.00e+00	0	42	0	200278016	58	7344
2026-01-20 11:53:42.61	39.62	7.39	-42.9	-44.3	20.2	0.00e+00	0	42	0	202375168	58	6631
2026-01-20 11:53:43.62	39.77	7.42	-42.7	-44.0	20.5	0.00e+00	0	42	0	203423744	58	6419
2026-01-20 11:53:44.63	39.91	7.46	-43.0	-44.3	20.2	0.00e+00	0	42	0	205520896	58	6688
2026-01-20 11:53:45.64	40.06	7.50	-42.6	-43.9	20.5	0.00e+00	0	42	0	207618048	58	6334
2026-01-20 11:53:46.65	40.20	7.54	-42.8	-44.1	20.3	0.00e+00	0	42	0	209715200	58	6520
2026-01-20 11:53:47.66	40.35	7.58	-42.9	-44.3	20.1	0.00e+00	0	42	0	211812352	58	6660
2026-01-20 11:53:48.67	40.49	7.62	-42.9	-44.2	20.3	0.00e+00	0	42	0	212860928	58	6602
2026-01-20 11:53:49.68	40.64	7.66	-42.3	-43.6	20.6	0.00e+00	0	42	0	214958080	58	6151
2026-01-20 11:53:50.69	40.78	7.69	-42.4	-43.6	20.8	0.00e+00	0	42	0	217055232	58	6164
2026-01-20 11:53:51.70	40.93	7.73	-42.7	-44.0	20.3	0.00e+00	0	42	0	219152384	58	6420
2026-01-20 11:53:52.71	41.08	7.77	-43.0	-44.3	20.1	0.00e+00	0	42	0	221249536	58	6674
2026-01-20 11:53:53.72	41.22	7.81	-42.9	-44.2	20.3	0.00e+00	0	42	0	222298112	58	6602
2026-01-20 11:53:54.73	41.37	7.85	-42.8	-44.1	20.3	0.00e+00	0	42	0	224395264	58	6517
2026-01-20 11:53:55.74	41.52	7.88	-42.7	-44.0	20.5	0.00e+00	0	42	0	226492416	58	6405
2026-01-20 11:53:56.75	41.67	7.92	-42.8	-44.2	20.3	0.00e+00	0	42	0	228589568	58	6559
2026-01-20 11:53:57.76	41.82	7.96	-42.8	-44.2	20.2	0.00e+00	0	42	0	230686720	58	6550
2026-01-20 11:53:58.77	41.97	8.00	-42.7	-44.1	20.4	0.00e+00	0	42	0	231735296	58	6465
2026-01-20 11:53:59.78	42.11	8.03	-42.8	-44.1	20.2	0.00e+00	0	42	0	233832448	58	6526
2026-01-20 11:54:00.79	42.26	8.07	-42.8	-44.1	20.2	0.00e+00	0	42	0	235929600	58	6533
2026-01-20 11:54:01.80	42.41	8.11	-42.4	-43.7	20.3	0.00e+00	0	42	0	238026752	58	6204
2026-01-20 11:54:02.81	42.57	8.14	-42.6	-43.9	20.4	0.00e+00	0	42	0	240123904	58	6355
2026-01-20 11:54:03.82	42.72	8.18	-42.8	-44.2	20.3	0.00e+00	0	42	0	242221056	58	6542
2026-01-20 11:54:04.83	42.87	8.22	-42.4	-43.7	20.8	0.00e+00	0	42	0	243269632	58	6196
2026-01-20 11:54:05.84	43.02	8.25	-42.3	-43.5	20.9	0.00e+00	0	42	0	245366784	58	6065
2026-01-20 11:54:06.85	43.17	8.29	-42.6	-43.9	20.5	0.00e+00	0	42	0	247463936	58	6367
2026-01-20 11:54:07.86	43.32	8.33	-42.9	-44.3	20.3	0.00e+00	0	42	0	249561088	58	6626
2026-01-20 11:54:08.87	43.48	8.36	-43.1	-44.5	20.1	0.00e+00	0	42	0	251658240	58	6778
2026-01-20 11:54:09.87	43.63	8.40	-43.2	-44.6	19.9	0.00e+00	0	42	0	252706816	58	6896
2026-01-20 11:54:10.89	43.78	8.44	-42.9	-44.3	20.3	0.00e+00	0	42	0	254803968	58	6641
2026-01-20 11:54:11.90	43.94	8.47	-42.7	-44.0	20.3	0.00e+00	0	42	0	256901120	58	6459
2026-01-20 11:54:12.90	44.09	8.51	-42.9	-44.3	20.0	0.00e+00	0	42	0	258998272	58	6652
2026-01-20 11:54:13.91	44.24	8.54	-42.7	-44.0	20.5	0.00e+00	0	42	0	261095424	58	6419
2026-01-20 11:54:14.92	44.40	8.58	-42.8	-44.2	20.3	0.00e+00	0	42	0	262144000	58	6574
2026-01-20 11:54:15.93	44.55	8.61	-42.8	-44.2	20.2	0.00e+00	0	42	0	264241152	58	6548
2026-01-20 11:54:16.94	44.71	8.65	-42.4	-43.7	20.9	0.00e+00	0	42	0	266338304	58	6213
2026-01-20 11:54:17.95	44.87	8.68	-42.8	-44.1	20.2	0.00e+00	0	42	0	268435456	58	6510
2026-01-20 11:54:18.96	45.02	8.72	-42.5	-43.8	20.6	0.00e+00	0	42	0	270532608	58	6286
2026-01-20 11:54:19.97	45.18	8.75	-42.3	-43.5	20.8	0.00e+00	0	42	0	271581184	58	6095
2026-01-20 11:54:20.97	45.34	8.79	-42.8	-44.2	20.3	0.00e+00	0	42	0	273678336	58	6551
2026-01-20 11:54:21.98	45.49	8.82	-43.2	-44.6	20.1	0.00e+00	0	42	0	275775488	58	6856
2026-01-20 11:54:22.99	45.65	8.86	-42.5	-43.8	20.7	0.00e+00	0	42	0	277872640	58	6284
2026-01-20 11:54:24.00	45.81	8.89	-42.7	-44.0	20.6	0.00e+00	0	42	0	279969792	58	6402
2026-01-20 11:54:25.01	45.97	8.93	-42.5	-43.8	20.8	0.00e+00	0	42	0	281018368	58	6246
2026-01-20 11:54:26.02	46.13	8.96	-42.4	-43.6	21.0	0.00e+00	0	42	0	283115520	58	6127
2026-01-20 11:54:27.03	46.29	8.99	-42.6	-43.9	20.5	0.00e+00	0	42	0	285212672	58	6375
2026-01-20 11:54:28.04	46.45	9.03	-42.4	-43.6	20.9	0.00e+00	0	42	0	287309824	58	6142
2026-01-20 11:54:29.05	46.61	9.06	-42.7	-44.0	20.6	0.00e+00	0	42	0	289406976	58	6422
2026-01-20 11:54:30.06	46.77	9.10	-42.9	-44.3	20.3	0.00e+00	0	42	0	290455552	58	6618
2026-01-20 11:54:31.07	46.93	9.13	-42.8	-44.1	20.4	0.00e+00	0	42	0	292552704	58	6484
2026-01-20 11:54:32.08	47.09	9.16	-42.7	-44.0	20.6	0.00e+00	0	42	0	294649856	58	6399
2026-01-20 11:54:33.09	47.25	9.19	-42.7	-44.0	20.6	0.00e+00	0	42	0	296747008	58	6404
2026-01-20 11:54:34.10	47.41	9.23	-42.9	-44.2	20.5	0.00e+00	0	42	0	298844160	58	6601
2026-01-20 11:54:35.11	47.57	9.26	-43.0	-44.3	20.3	0.00e+00	0	42	0	299892736	58	6671
2026-01-20 11:54:36.12	47.74	9.29	-43.0	-44.3	20.3	0.00e+00	0	42	0	301989888	58	6686
2026-01-20 11:54:37.13	47.90	9.33	-43.0	-44.3	20.3	0.00e+00	0	42	0	304087040	58	6682
2026-01-20 11:54:38.14	48.06	9.36	-42.7	-44.0	20.5	0.00e+00	0	42	0	306184192	58	6444
2026-01-20 11:54:39.15	48.23	9.39	-42.9	-44.2	20.4	0.00e+00	0	42	0	308281344	58	6548
2026-01-20 11:54:40.16	48.39	9.42	-42.5	-43.8	20.5	0.00e+00	0	42	0	310378496	58	6287
2026-01-20 11:54:41.17	48.55	9.45	-42.7	-44.0	20.6	0.00e+00	0	42	0	311427072	58	6420
2026-01-20 11:54:42.18	48.72	9.48	-42.9	-44.2	20.2	0.00e+00	0	42	0	313524224	58	6579
2026-01-20 11:54:43.19	48.88	9.52	-43.0	-44.4	20.4	0.00e+00	0	42	0	315621376	58	6698
2026-01-20 11:54:44.20	49.05	9.55	-43.3	-44.7	20.2	0.00e+00	0	42	0	317718528	58	6997
2026-01-20 11:54:45.21	49.22	9.58	-43.5	-45.0	19.9	0.00e+00	0	42	0	319815680	58	7175
2026-01-20 11:54:46.22	49.38	9.61	-43.5	-44.9	19.7	0.00e+00	0	42	0	320864256	58	7132
2026-01-20 11:54:47.23	49.55	9.64	-43.1	-44.5	20.1	0.00e+00	0	42	0	322961408	58	6803
2026-01-20 11:54:48.24	49.71	9.67	-43.4	-44.8	19.6	0.00e+00	0	42	0	325058560	58	7063
2026-01-20 11:54:49.24	49.88	9.70	-43.1	-44.4	20.1	0.00e+00	0	42	0	327155712	58	6759
2026-01-20 11:54:50.25	50.05	9.73	-42.8	-44.0	20.8	0.00e+00	0	42	0	329252864	58	6459
2026-01-20 11:54:51.26	50.21	9.76	-42.6	-43.9	21.0	0.00e+00	0	42	0	330301440	58	6321
2026-01-20 11:54:52.27	50.38	9.79	-42.4	-43.7	20.5	0.00e+00	0	42	0	332398592	58	6177
2026-01-20 11:54:53.28	50.55	9.82	-42.7	-44.0	20.5	0.00e+00	0	42	0	334495744	58	6407
2026-01-20 11:54:54.29	50.72	9.85	-42.6	-43.8	20.8	0.00e+00	0	42	0	336592896	58	6298
2026-01-20 11:54:55.30	50.89	9.88	-42.9	-44.2	20.4	0.00e+00	0	42	0	338690048	58	6574
2026-01-20 11:54:56.31	51.06	9.91	-42.4	-43.6	20.7	0.00e+00	0	42	0	339738624	58	6158
2026-01-20 11:54:57.32	51.23	9.94	-43.0	-44.4	20.3	0.00e+00	0	42	0	341835776	58	6695
2026-01-20 11:54:58.32	51.40	9.97	-43.4	-44.8	19.9	0.00e+00	0	42	0	343932928	58	7020
2026-01-20 11:54:59.33	51.57	9.99	-43.3	-44.8	19.8	0.00e+00	0	42	0	346030080	58	7025
2026-01-20 11:55:00.35	51.74	10.02	-43.1	-44.4	20.1	0.00e+00	0	42	0	348127232	58	6733
2026-01-20 11:55:01.35	51.91	10.05	-43.0	-44.4	20.4	0.00e+00	0	42	0	349175808	58	6709
2026-01-20 11:55:02.36	52.08	10.08	-42.9	-44.3	20.3	0.00e+00	0	42	0	351272960	58	6623
2026-01-20 11:55:03.37	52.25	10.11	-43.1	-44.5	20.3	0.00e+00	0	42	0	353370112	58	6822
2026-01-20 11:55:04.38	52.42	10.14	-42.9	-44.2	20.5	0.00e+00	0	42	0	355467264	58	6583
2026-01-20 11:55:05.39	52.60	10.16	-42.8	-44.1	20.7	0.00e+00	0	42	0	357564416	58	6474
2026-01-20 11:55:06.41	52.77	10.19	-42.7	-44.0	20.9	0.00e+00	0	42	0	358612992	58	6397
2026-01-20 11:55:07.42	52.94	10.22	-42.4	-43.7	20.8	0.00e+00	0	42	0	360710144	58	6188
2026-01-20 11:55:08.43	53.12	10.24	-42.6	-43.9	20.7	0.00e+00	0	42	0	362807296	58	6353
2026-01-20 11:55:09.44	53.29	10.27	-42.6	-43.9	20.9	0.00e+00	0	42	0	364904448	58	6362
2026-01-20 11:55:10.45	53.46	10.30	-42.2	-43.3	21.3	0.00e+00	0	42	0	367001600	58	5953
2026-01-20 11:55:11.46	53.64	10.32	-42.3	-43.5	21.0	0.00e+00	0	42	0	368050176	58	6099
2026-01-20 11:55:12.47	53.81	10.35	-42.7	-44.0	20.7	0.00e+00	0	42	0	370147328	58	6410
2026-01-20 11:55:13.48	53.99	10.38	-42.5	-43.7	20.9	0.00e+00	0	42	0	372244480	58	6240
2026-01-20 11:55:14.49	54.16	10.40	-42.4	-43.6	20.9	0.00e+00	0	42	0	374341632	58	6130
2026-01-20 11:55:15.50	54.34	10.43	-42.4	-43.6	21.0	0.00e+00	0	42	0	376438784	58	6156
2026-01-20 11:55:16.51	54.51	10.45	-42.4	-43.7	20.9	0.00e+00	0	42	0	378535936	58	6187
2026-01-20 11:55:17.52	54.69	10.48	-42.7	-43.9	20.7	0.00e+00	0	42	0	379584512	58	6366
2026-01-20 11:55:18.53	54.86	10.50	-42.4	-43.7	21.1	0.00e+00	0	42	0	381681664	58	6197
2026-01-20 11:55:19.54	55.04	10.53	-42.4	-43.7	20.8	0.00e+00	0	42	0	383778816	58	6179
2026-01-20 11:55:20.55	55.22	10.55	-42.6	-43.8	20.8	0.00e+00	0	42	0	385875968	58	6300
2026-01-20 11:55:21.56	55.40	10.57	-42.3	-43.5	21.0	0.00e+00	0	42	0	387973120	58	6095
2026-01-20 11:55:22.57	55.57	10.60	-42.0	-43.2	21.5	0.00e+00	0	42	0	389021696	58	5863
2026-01-20 11:55:23.58	55.75	10.62	-42.2	-43.4	21.2	0.00e+00	0	42	0	391118848	56	6754
2026-01-20 11:55:24.59	55.93	10.65	-41.8	-42.9	21.8	0.00e+00	0	42	0	393216000	56	6329
2026-01-20 11:55:25.60	56.11	10.67	-41.8	-42.9	21.6	0.00e+00	0	42	0	395313152	56	6387
2026-01-20 11:55:26.60	56.28	10.69	-41.8	-42.9	21.7	0.00e+00	0	42	0	397410304	56	6358
2026-01-20 11:55:27.61	56.46	10.71	-41.9	-43.0	21.5	0.00e+00	0	42	0	398458880	56	6432
2026-01-20 11:55:28.63	56.64	10.74	-41.5	-42.6	21.9	0.00e+00	0	42	0	400556032	56	6109
2026-01-20 11:55:29.64	56.82	10.76	-41.8	-42.9	21.5	0.00e+00	0	42	0	402653184	56	6372
2026-01-20 11:55:30.64	57.00	10.78	-41.8	-42.9	21.4	0.00e+00	0	42	0	404750336	56	6334
2026-01-20 11:55:31.65	57.18	10.80	-42.3	-43.5	21.0	0.00e+00	0	42	0	406847488	56	6828
2026-01-20 11:55:32.66	57.36	10.83	-42.2	-43.4	21.2	0.00e+00	0	42	0	407896064	56	6748
2026-01-20 11:55:33.67	57.54	10.85	-42.1	-43.2	21.4	0.00e+00	0	42	0	409993216	56	6593
2026-01-20 11:55:34.68	57.72	10.87	-42.5	-43.7	20.8	0.00e+00	0	42	0	412090368	56	6978
2026-01-20 11:55:35.69	57.90	10.89	-42.5	-43.8	20.7	0.00e+00	0	42	0	414187520	56	7019
2026-01-20 11:55:36.70	58.08	10.91	-42.8	-44.1	20.6	0.00e+00	0	42	0	416284672	58	6504
2026-01-20 11:55:37.71	58.26	10.93	-42.7	-43.9	20.6	0.00e+00	0	42	0	417333248	58	6384
2026-01-20 11:55:38.72	58.45	10.95	-42.8	-44.1	20.6	0.00e+00	0	42	0	419430400	58	6534
2026-01-20 11:55:39.73	58.63	10.97	-42.6	-43.9	20.5	0.00e+00	0	42	0	421527552	58	6352
2026-01-20 11:55:40.74	58.81	10.99	-42.7	-44.0	20.7	0.00e+00	0	42	0	423624704	58	6418
2026-01-20 11:55:41.75	58.99	11.01	-42.1	-43.3	21.2	0.00e+00	0	42	0	425721856	58	5939
2026-01-20 11:55:42.76	59.18	11.03	-42.6	-43.9	20.7	0.00e+00	0	42	0	426770432	58	6376
2026-01-20 11:55:43.77	59.36	11.05	-42.7	-44.0	20.5	0.00e+00	0	42	0	428867584	58	6464
2026-01-20 11:55:44.77	59.54	11.07	-43.0	-44.3	20.2	0.00e+00	0	42	0	430964736	58	6672
2026-01-20 11:55:45.78	59.72	11.09	-42.6	-43.9	20.7	0.00e+00	0	42	0	433061888	58	6332
2026-01-20 11:55:46.79	59.91	11.10	-42.9	-44.2	20.4	0.00e+00	0	42	0	435159040	58	6564
2026-01-20 11:55:47.80	60.09	11.12	-42.9	-44.2	20.4	0.00e+00	0	42	0	436207616	58	6564
2026-01-20 11:55:48.81	60.27	11.14	-42.9	-44.3	20.4	0.00e+00	0	42	0	438304768	58	6626
2026-01-20 11:55:49.82	60.46	11.16	-43.1	-44.5	20.3	0.00e+00	0	42	0	440401920	58	6797
2026-01-20 11:55:50.83	60.64	11.18	-42.8	-44.1	20.6	0.00e+00	0	42	0	442499072	58	6524
2026-01-20 11:55:51.84	60.83	11.19	-43.1	-44.4	20.2	0.00e+00	0	42	0	444596224	58	6739
2026-01-20 11:55:52.85	61.01	11.21	-43.3	-44.6	20.0	0.00e+00	0	42	0	446693376	58	6923
2026-01-20 11:55:53.86	61.20	11.23	-43.2	-44.5	20.1	0.00e+00	0	42	0	447741952	58	6817
2026-01-20 11:55:54.87	61.38	11.24	-43.2	-44.6	20.0	0.00e+00	0	42	0	449839104	58	6887
2026-01-20 11:55:55.88	61.57	11.26	-43.0	-44.4	20.1	0.00e+00	0	42	0	451936256	58	6730
2026-01-20 11:55:56.88	61.75	11.27	-43.4	-44.8	19.7	0.00e+00	0	42	0	454033408	58	7028
2026-01-20 11:55:57.89	61.94	11.29	-43.4	-44.8	19.7	0.00e+00	0	42	0	456130560	58	7066
2026-01-20 11:55:58.90	62.12	11.31	-43.5	-44.9	19.7	0.00e+00	0	42	0	457179136	58	7141
2026-01-20 11:55:59.91	62.31	11.32	-43.6	-45.0	19.7	0.00e+00	0	42	0	459276288	60	6457
2026-01-20 11:56:00.91	62.49	11.34	-43.7	-45.2	19.3	0.00e+00	0	42	0	461373440	60	6581
2026-01-20 11:56:01.92	62.68	11.35	-43.9	-45.5	19.2	0.00e+00	0	42	0	463470592	60	6797
2026-01-20 11:56:02.92	62.87	11.36	-43.6	-45.1	19.6	0.00e+00	0	42	0	465567744	60	6504
2026-01-20 11:56:03.93	63.05	11.38	-43.7	-45.2	19.4	0.00e+00	0	42	0	466616320	60	6570
2026-01-20 11:56:04.94	63.24	11.39	-43.6	-45.1	19.5	0.00e+00	0	42	0	468713472	60	6490
2026-01-20 11:56:05.95	63.43	11.41	-43.6	-45.0	19.6	0.00e+00	0	42	0	470810624	60	6443
2026-01-20 11:56:06.96	63.61	11.42	-43.3	-44.8	19.9	0.00e+00	0	42	0	472907776	60	6247
2026-01-20 11:56:07.97	63.80	11.43	-43.3	-44.7	19.8	0.00e+00	0	42	0	475004928	60	6233
2026-01-20 11:56:08.98	63.99	11.44	-43.1	-44.5	20.2	0.00e+00	0	42	0	476053504	60	6034
2026-01-20 11:56:09.99	64.18	11.46	-43.1	-44.5	20.2	0.00e+00	0	42	0	478150656	60	6065
2026-01-20 11:56:10.99	64.36	11.47	-43.0	-44.3	20.3	0.00e+00	0	42	0	480247808	58	6643
2026-01-20 11:56:12.00	64.55	11.48	-42.9	-44.3	20.3	0.00e+00	0	42	0	482344960	58	6621
2026-01-20 11:56:13.01	64.74	11.49	-42.5	-43.7	20.8	0.00e+00	0	42	0	484442112	58	6235
2026-01-20 11:56:14.02	64.93	11.50	-42.5	-43.8	20.7	0.00e+00	0	42	0	485490688	58	6273
2026-01-20 11:56:15.03	65.12	11.52	-42.9	-44.2	20.4	0.00e+00	0	42	0	487587840	58	6564
2026-01-20 11:56:16.04	65.31	11.53	-42.7	-44.0	20.5	0.00e+00	0	42	0	489684992	58	6457
2026-01-20 11:56:17.05	65.50	11.54	-42.6	-43.9	20.6	0.00e+00	0	42	0	491782144	58	6319
2026-01-20 11:56:18.06	65.69	11.55	-42.3	-43.5	20.9	0.00e+00	0	42	0	493879296	58	6079
2026-01-20 11:56:19.07	65.87	11.56	-43.0	-44.3	20.3	0.00e+00	0	42	0	494927872	58	6691
2026-01-20 11:56:20.08	66.06	11.57	-42.8	-44.1	20.5	0.00e+00	0	42	0	497025024	58	6491
2026-01-20 11:56:21.09	66.25	11.58	-42.7	-44.0	20.7	0.00e+00	0	42	0	499122176	58	6432
2026-01-20 11:56:22.10	66.44	11.59	-42.5	-43.8	20.8	0.00e+00	0	42	0	501219328	58	6265
2026-01-20 11:56:23.11	66.63	11.59	-42.4	-43.6	20.8	0.00e+00	0	42	0	503316480	58	6152
2026-01-20 11:56:24.12	66.82	11.60	-42.5	-43.8	20.6	0.00e+00	0	42	0	504365056	58	6252
2026-01-20 11:56:25.13	67.01	11.61	-42.5	-43.8	20.7	0.00e+00	0	42	0	506462208	58	6251
2026-01-20 11:56:26.13	67.20	11.62	-42.8	-44.1	20.5	0.00e+00	0	42	0	508559360	58	6489
2026-01-20 11:56:27.14	67.39	11.63	-42.5	-43.8	20.7	0.00e+00	0	42	0	510656512	58	6256
2026-01-20 11:56:28.16	67.58	11.63	-42.5	-43.8	20.5	0.00e+00	0	42	0	512753664	58	6301
2026-01-20 11:56:29.16	67.77	11.64	-42.8	-44.1	20.4	0.00e+00	0	42	0	513802240	58	6492
2026-01-20 11:56:30.17	67.96	11.65	-43.1	-44.5	20.0	0.00e+00	0	42	0	515899392	58	6794
2026-01-20 11:56:31.18	68.15	11.66	-42.9	-44.2	20.3	0.00e+00	0	42	0	517996544	58	6614
2026-01-20 11:56:32.19	68.34	11.66	-42.7	-44.0	20.6	0.00e+00	0	42	0	520093696	58	6445
2026-01-20 11:56:33.20	68.53	11.67	-42.4	-43.7	20.8	0.00e+00	0	42	0	522190848	58	6179
2026-01-20 11:56:34.21	68.72	11.67	-42.3	-43.5	21.0	0.00e+00	0	42	0	523239424	58	6082
2026-01-20 11:56:35.22	68.92	11.68	-42.4	-43.7	20.8	0.00e+00	0	42	0	525336576	58	6203
2026-01-20 11:56:36.23	69.11	11.68	-42.1	-43.3	21.1	0.00e+00	0	42	0	527433728	58	5953
2026-01-20 11:56:37.24	69.30	11.69	-42.3	-43.5	20.8	0.00e+00	0	42	0	529530880	58	6096
2026-01-20 11:56:38.24	69.49	11.69	-42.4	-43.6	20.8	0.00e+00	0	42	0	531628032	58	6152
2026-01-20 11:56:39.26	69.68	11.70	-42.2	-43.4	21.0	0.00e+00	0	42	0	532676608	58	6025
2026-01-20 11:56:40.27	69.87	11.70	-42.4	-43.6	20.9	0.00e+00	0	42	0	534773760	58	6144
2026-01-20 11:56:41.28	70.06	11.71	-42.4	-43.7	20.8	0.00e+00	0	42	0	536870912	58	6213
2026-01-20 11:56:42.29	70.25	11.71	-42.4	-43.7	20.8	0.00e+00	0	42	0	538968064	58	6175
2026-01-20 11:56:43.30	70.44	11.71	-41.9	-43.1	21.4	0.00e+00	0	42	0	541065216	58	5786
2026-01-20 11:56:44.31	70.64	11.72	-41.8	-43.0	21.4	0.00e+00	0	42	0	543162368	56	6404
2026-01-20 11:56:45.32	70.83	11.72	-41.9	-43.1	21.3	0.00e+00	0	42	0	544210944	56	6520
2026-01-20 11:56:46.33	71.02	11.72	-42.0	-43.2	21.2	0.00e+00	0	42	0	546308096	56	6577
2026-01-20 11:56:47.34	71.21	11.72	-42.1	-43.2	21.2	0.00e+00	0	42	0	548405248	56	6609
2026-01-20 11:56:48.35	71.40	11.73	-41.7	-42.8	21.6	0.00e+00	0	42	0	550502400	56	6286
2026-01-20 11:56:49.36	71.59	11.73	-41.5	-42.5	21.9	0.00e+00	0	42	0	552599552	56	6102
2026-01-20 11:56:50.37	71.79	11.73	-41.5	-42.6	21.9	0.00e+00	0	42	0	553648128	56	6124
2026-01-20 11:56:51.37	71.97	11.73	-41.4	-42.5	21.9	0.00e+00	0	42	0	555745280	56	6083
2026-01-20 11:56:52.38	72.17	11.73	-41.6	-42.7	21.8	0.00e+00	0	42	0	557842432	56	6222
2026-01-20 11:56:53.39	72.36	11.73	-41.8	-42.9	21.4	0.00e+00	0	42	0	559939584	56	6382
2026-01-20 11:56:54.40	72.55	11.73	-41.7	-42.8	21.6	0.00e+00	0	42	0	562036736	56	6291
2026-01-20 11:56:55.41	72.74	11.73	-41.5	-42.6	21.8	0.00e+00	0	42	0	563085312	56	6161
2026-01-20 11:56:56.42	72.93	11.73	-41.5	-42.7	21.9	0.00e+00	0	42	0	565182464	56	6175
2026-01-20 11:56:57.43	73.12	11.73	-41.3	-42.4	22.0	0.00e+00	0	42	0	567279616	56	6027
2026-01-20 11:56:58.44	73.32	11.73	-41.2	-42.3	21.9	0.00e+00	0	42	0	569376768	56	5906
2026-01-20 11:56:59.45	73.51	11.73	-41.3	-42.3	21.6	0.00e+00	0	42	0	571473920	56	5961
2026-01-20 11:57:00.46	73.70	11.73	-41.0	-42.1	22.3	0.00e+00	0	42	0	572522496	56	5802
2026-01-20 11:57:01.47	73.89	11.72	-41.2	-42.2	22.1	0.00e+00	0	42	0	574619648	56	5884
2026-01-20 11:57:02.48	74.08	11.72	-41.1	-42.1	22.2	0.00e+00	0	42	0	576716800	56	5817
2026-01-20 11:57:03.49	74.27	11.72	-41.2	-42.3	22.1	0.00e+00	0	42	0	578813952	56	5906
2026-01-20 11:57:04.50	74.47	11.72	-41.2	-42.2	22.2	0.00e+00	0	42	0	580911104	56	5890
2026-01-20 11:57:05.51	74.66	11.71	-41.2	-42.2	22.2	0.00e+00	0	42	0	581959680	56	5881
2026-01-20 11:57:06.52	74.85	11.71	-41.4	-42.5	21.9	0.00e+00	0	42	0	584056832	56	6077
2026-01-20 11:57:07.53	75.04	11.71	-41.2	-42.3	22.2	0.00e+00	0	42	0	586153984	56	5915
2026-01-20 11:57:08.53	75.23	11.70	-41.3	-42.5	22.1	0.00e+00	0	42	0	588251136	56	6035
2026-01-20 11:57:09.54	75.42	11.70	-41.1	-42.2	22.3	0.00e+00	0	42	0	590348288	56	5858
2026-01-20 11:57:10.55	75.61	11.70	-41.1	-42.2	22.3	0.00e+00	0	42	0	591396864	56	5855
2026-01-20 11:57:11.57	75.80	11.69	-41.1	-42.3	22.2	0.00e+00	0	42	0	593494016	56	5909
2026-01-20 11:57:12.58	76.00	11.69	-41.1	-42.3	22.3	0.00e+00	0	42	0	595591168	56	5900
2026-01-20 11:57:13.58	76.19	11.68	-41.0	-42.1	22.4	0.00e+00	0	42	0	597688320	56	5780
2026-01-20 11:57:14.59	76.38	11.67	-40.9	-41.9	22.4	0.00e+00	0	42	0	599785472	56	5676
2026-01-20 11:57:15.60	76.57	11.67	-40.9	-42.0	22.6	0.00e+00	0	42	0	600834048	56	5703
2026-01-20 11:57:16.61	76.76	11.66	-40.9	-42.0	22.5	0.00e+00	0	42	0	602931200	56	5703
2026-01-20 11:57:17.62	76.95	11.66	-41.1	-42.2	22.3	0.00e+00	0	42	0	605028352	56	5847
2026-01-20 11:57:18.63	77.14	11.65	-41.4	-42.5	21.9	0.00e+00	0	42	0	607125504	56	6051
2026-01-20 11:57:19.64	77.33	11.64	-41.5	-42.6	21.8	0.00e+00	0	42	0	609222656	56	6164
2026-01-20 11:57:20.65	77.52	11.64	-41.6	-42.7	21.7	0.00e+00	0	42	0	611319808	56	6237
2026-01-20 11:57:21.66	77.71	11.63	-41.6	-42.7	21.9	0.00e+00	0	42	0	612368384	56	6198
2026-01-20 11:57:22.67	77.90	11.62	-41.2	-42.2	22.3	0.00e+00	0	42	0	614465536	56	5872
2026-01-20 11:57:23.68	78.09	11.61	-41.3	-42.4	22.2	0.00e+00	0	42	0	616562688	56	5969
2026-01-20 11:57:24.69	78.28	11.60	-41.3	-42.4	22.0	0.00e+00	0	42	0	618659840	56	6016
2026-01-20 11:57:25.70	78.47	11.60	-41.1	-42.1	22.2	0.00e+00	0	42	0	620756992	56	5826
2026-01-20 11:57:26.71	78.66	11.59	-41.3	-42.4	22.0	0.00e+00	0	42	0	621805568	56	6011
2026-01-20 11:57:27.72	78.85	11.58	-41.2	-42.3	22.1	0.00e+00	0	42	0	623902720	56	5898
2026-01-20 11:57:28.73	79.04	11.57	-41.2	-42.3	21.9	0.00e+00	0	42	0	625999872	56	5938
2026-01-20 11:57:29.74	79.23	11.56	-41.2	-42.3	22.1	0.00e+00	0	42	0	628097024	56	5908
2026-01-20 11:57:30.75	79.42	11.55	-41.2	-42.3	22.2	0.00e+00	0	42	0	630194176	56	5915
2026-01-20 11:57:31.76	79.61	11.54	-41.4	-42.5	22.0	0.00e+00	0	42	0	631242752	56	6042
2026-01-20 11:57:32.77	79.80	11.53	-41.2	-42.3	22.0	0.00e+00	0	42	0	633339904	56	5907
2026-01-20 11:57:33.78	79.99	11.52	-41.1	-42.2	22.2	0.00e+00	0	42	0	635437056	56	5857
2026-01-20 11:57:34.79	80.18	11.50	-41.1	-42.2	22.2	0.00e+00	0	42	0	637534208	56	5854
2026-01-20 11:57:35.80	80.37	11.49	-41.0	-42.0	22.2	0.00e+00	0	42	0	639631360	56	5758
2026-01-20 11:57:36.81	80.55	11.48	-41.2	-42.3	22.1	0.00e+00	0	42	0	640679936	56	5899
2026-01-20 11:57:37.82	80.74	11.47	-41.8	-42.9	21.6	0.00e+00	0	42	0	642777088	56	6358
2026-01-20 11:57:38.83	80.93	11.46	-41.5	-42.6	21.9	0.00e+00	0	42	0	644874240	56	6115
2026-01-20 11:57:39.84	81.12	11.45	-41.7	-42.8	21.7	0.00e+00	0	42	0	646971392	56	6291
2026-01-20 11:57:40.85	81.31	11.43	-41.8	-43.0	21.5	0.00e+00	0	42	0	649068544	56	6409
2026-01-20 11:57:41.86	81.50	11.42	-42.2	-43.3	21.1	0.00e+00	0	42	0	650117120	56	6686
2026-01-20 11:57:42.86	81.68	11.41	-41.9	-43.0	21.3	0.00e+00	0	42	0	652214272	56	6446
2026-01-20 11:57:43.87	81.87	11.39	-42.1	-43.3	21.2	0.00e+00	0	42	0	654311424	56	6675
2026-01-20 11:57:44.88	82.06	11.38	-41.5	-42.6	21.8	0.00e+00	0	42	0	656408576	56	6168
2026-01-20 11:57:45.89	82.24	11.36	-41.5	-42.6	21.8	0.00e+00	0	42	0	658505728	56	6168
2026-01-20 11:57:46.90	82.43	11.35	-41.2	-42.3	22.2	0.00e+00	0	42	0	659554304	56	5917
2026-01-20 11:57:47.91	82.62	11.34	-41.3	-42.4	22.1	0.00e+00	0	42	0	661651456	56	5971
2026-01-20 11:57:48.92	82.81	11.32	-41.4	-42.5	21.9	0.00e+00	0	42	0	663748608	56	6067
2026-01-20 11:57:49.92	82.99	11.31	-41.1	-42.1	22.2	0.00e+00	0	42	0	665845760	56	5822
2026-01-20 11:57:50.93	83.18	11.29	-41.1	-42.2	22.2	0.00e+00	0	42	0	667942912	56	5864
2026-01-20 11:57:51.94	83.36	11.28	-41.2	-42.3	22.2	0.00e+00	0	42	0	668991488	56	5899
2026-01-20 11:57:52.95	83.55	11.26	-41.2	-42.3	22.3	0.00e+00	0	42	0	671088640	56	5922
2026-01-20 11:57:53.97	83.74	11.24	-41.5	-42.6	21.8	0.00e+00	0	42	0	673185792	56	6132
2026-01-20 11:57:54.97	83.92	11.23	-41.2	-42.2	22.2	0.00e+00	0	42	0	675282944	56	5893
2026-01-20 11:57:55.98	84.11	11.21	-41.0	-42.1	22.3	0.00e+00	0	42	0	677380096	56	5772
2026-01-20 11:57:56.99	84.29	11.19	-41.3	-42.3	22.1	0.00e+00	0	42	0	679477248	56	5937
2026-01-20 11:57:58.00	84.48	11.18	-41.0	-42.0	22.5	0.00e+00	0	42	0	680525824	56	5708
2026-01-20 11:57:59.01	84.66	11.16	-41.0	-42.0	22.5	0.00e+00	0	42	0	682622976	56	5744
2026-01-20 11:58:00.02	84.85	11.14	-41.0	-42.0	22.4	0.00e+00	0	42	0	684720128	56	5730
2026-01-20 11:58:01.03	85.03	11.12	-40.9	-41.9	22.5	0.00e+00	0	42	0	686817280	56	5674
2026-01-20 11:58:02.04	85.21	11.10	-40.9	-42.0	22.4	0.00e+00	0	42	0	688914432	56	5711
2026-01-20 11:58:03.05	85.40	11.09	-41.4	-42.5	22.1	0.00e+00	0	42	0	689963008	56	6075
2026-01-20 11:58:04.06	85.58	11.07	-41.0	-42.1	22.5	0.00e+00	0	42	0	692060160	56	5766
2026-01-20 11:58:05.07	85.77	11.05	-40.9	-41.9	22.6	0.00e+00	0	42	0	694157312	56	5676
2026-01-20 11:58:06.08	85.95	11.03	-40.9	-41.9	22.5	0.00e+00	0	42	0	696254464	54	6336
2026-01-20 11:58:07.09	86.13	11.01	-40.7	-41.7	22.7	0.00e+00	0	42	0	698351616	54	6182
2026-01-20 11:58:08.09	86.31	10.99	-40.6	-41.6	22.7	0.00e+00	0	42	0	699400192	54	6166
2026-01-20 11:58:09.10	86.49	10.97	-40.5	-41.6	22.7	0.00e+00	0	42	0	701497344	54	6111
2026-01-20 11:58:10.11	86.68	10.95	-40.5	-41.5	22.8	0.00e+00	0	42	0	703594496	54	6095
2026-01-20 11:58:11.12	86.86	10.93	-40.4	-41.4	23.0	0.00e+00	0	42	0	705691648	54	6010
2026-01-20 11:58:12.13	87.04	10.91	-40.7	-41.7	22.6	0.00e+00	0	42	0	707788800	54	6231
2026-01-20 11:58:13.14	87.22	10.89	-40.4	-41.4	22.9	0.00e+00	0	42	0	708837376	54	5986
2026-01-20 11:58:14.15	87.40	10.87	-40.6	-41.6	22.8	0.00e+00	0	42	0	710934528	54	6171
2026-01-20 11:58:15.16	87.59	10.85	-40.6	-41.6	22.8	0.00e+00	0	42	0	713031680	54	6132
2026-01-20 11:58:16.17	87.77	10.82	-40.8	-41.8	22.5	0.00e+00	0	42	0	715128832	54	6263
2026-01-20 11:58:17.17	87.94	10.80	-40.7	-41.7	22.5	0.00e+00	0	42	0	717225984	54	6228
2026-01-20 11:58:18.19	88.13	10.78	-40.9	-42.0	22.4	0.00e+00	0	42	0	718274560	54	6443
2026-01-20 11:58:19.19	88.31	10.76	-41.0	-42.1	22.3	0.00e+00	0	42	0	720371712	54	6497
2026-01-20 11:58:20.21	88.49	10.74	-41.0	-42.1	22.2	0.00e+00	0	42	0	722468864	54	6527
2026-01-20 11:58:21.22	88.67	10.71	-40.6	-41.6	22.6	0.00e+00	0	42	0	724566016	54	6169
2026-01-20 11:58:22.23	88.85	10.69	-41.1	-42.1	22.1	0.00e+00	0	42	0	726663168	54	6521
2026-01-20 11:58:23.24	89.02	10.67	-41.2	-42.3	21.9	0.00e+00	0	42	0	727711744	54	6691
2026-01-20 11:58:24.25	89.20	10.64	-41.2	-42.4	22.1	0.00e+00	0	42	0	729808896	54	6766
2026-01-20 11:58:25.25	89.38	10.62	-40.8	-41.9	22.6	0.00e+00	0	42	0	731906048	54	6367
2026-01-20 11:58:26.26	89.56	10.60	-40.9	-42.0	22.3	0.00e+00	0	42	0	734003200	54	6427
2026-01-20 11:58:27.27	89.74	10.57	-40.8	-41.8	22.5	0.00e+00	0	42	0	736100352	54	6301
2026-01-20 11:58:28.28	89.91	10.55	-40.8	-41.8	22.6	0.00e+00	0	42	0	737148928	54	6293
2026-01-20 11:58:29.29	90.09	10.52	-40.7	-41.8	22.6	0.00e+00	0	42	0	739246080	54	6265
2026-01-20 11:58:30.30	90.27	10.50	-40.8	-41.9	22.5	0.00e+00	0	42	0	741343232	54	6380
2026-01-20 11:58:31.31	90.45	10.47	-40.7	-41.7	22.7	0.00e+00	0	42	0	743440384	54	6208
2026-01-20 11:58:32.32	90.62	10.45	-40.7	-41.7	22.6	0.00e+00	0	42	0	745537536	54	6237
2026-01-20 11:58:33.33	90.80	10.42	-40.6	-41.6	22.7	0.00e+00	0	42	0	747634688	54	6129
2026-01-20 11:58:34.34	90.97	10.40	-40.9	-42.0	22.5	0.00e+00	0	42	0	748683264	54	6397
2026-01-20 11:58:35.35	91.15	10.37	-40.8	-41.9	22.5	0.00e+00	0	42	0	750780416	54	6333
2026-01-20 11:58:36.36	91.32	10.35	-41.1	-42.2	22.3	0.00e+00	0	42	0	752877568	54	6578
2026-01-20 11:58:37.36	91.50	10.32	-41.0	-42.0	22.3	0.00e+00	0	42	0	754974720	54	6459
2026-01-20 11:58:38.38	91.67	10.29	-41.1	-42.1	22.3	0.00e+00	0	42	0	757071872	54	6495
2026-01-20 11:58:39.39	91.85	10.27	-41.3	-42.3	22.1	0.00e+00	0	42	0	758120448	54	6671
2026-01-20 11:58:40.39	92.02	10.24	-41.2	-42.3	22.1	0.00e+00	0	42	0	760217600	54	6635
2026-01-20 11:58:41.40	92.19	10.21	-41.1	-42.1	22.3	0.00e+00	0	42	0	762314752	54	6513
2026-01-20 11:58:42.41	92.37	10.19	-41.1	-42.2	22.2	0.00e+00	0	42	0	764411904	54	6583
2026-01-20 11:58:43.42	92.54	10.16	-41.2	-42.3	22.1	0.00e+00	0	42	0	765460480	54	6678
2026-01-20 11:58:44.43	92.71	10.13	-41.2	-42.3	22.0	0.00e+00	0	42	0	767557632	54	6653
2026-01-20 11:58:45.44	92.89	10.10	-41.3	-42.4	21.9	0.00e+00	0	42	0	769654784	54	6732
2026-01-20 11:58:46.45	93.06	10.08	-41.2	-42.3	22.0	0.00e+00	0	42	0	771751936	54	6623
2026-01-20 11:58:47.46	93.23	10.05	-41.5	-42.6	21.8	0.00e+00	0	42	0	773849088	54	6875
2026-01-20 11:58:48.47	93.40	10.02	-41.3	-42.4	21.7	0.00e+00	0	42	0	775946240	54	6769
2026-01-20 11:58:49.48	93.57	9.99	-41.5	-42.6	21.6	0.00e+00	0	42	0	776994816	54	6907
2026-01-20 11:58:50.49	93.74	9.96	-41.7	-42.8	21.6	0.00e+00	0	42	0	779091968	56	6316
2026-01-20 11:58:51.50	93.92	9.93	-42.1	-43.3	21.3	0.00e+00	0	42	0	781189120	56	6659
2026-01-20 11:58:52.51	94.09	9.90	-42.2	-43.3	21.2	0.00e+00	0	42	0	783286272	56	6691
2026-01-20 11:58:53.52	94.26	9.87	-42.3	-43.5	21.0	0.00e+00	0	42	0	785383424	56	6848
2026-01-20 11:58:54.53	94.43	9.84	-42.4	-43.7	20.9	0.00e+00	0	42	0	786432000	56	6957
2026-01-20 11:58:55.54	94.59	9.81	-42.5	-43.8	20.8	0.00e+00	0	42	0	788529152	56	7024
2026-01-20 11:58:56.55	94.76	9.78	-42.6	-43.9	20.8	0.00e+00	0	42	0	790626304	56	7141
2026-01-20 11:58:57.56	94.93	9.75	-42.4	-43.8	20.8	0.00e+00	0	42	0	792723456	56	7008
2026-01-20 11:58:58.57	95.10	9.72	-42.6	-43.9	20.6	0.00e+00	0	42	0	794820608	56	7105
2026-01-20 11:58:59.57	95.27	9.69	-43.0	-44.4	20.2	0.00e+00	0	42	0	795869184	58	6723
2026-01-20 11:59:00.58	95.43	9.66	-42.8	-44.2	20.3	0.00e+00	0	42	0	797966336	58	6563
2026-01-20 11:59:01.59	95.60	9.63	-42.8	-44.2	20.2	0.00e+00	0	42	0	800063488	58	6567
2026-01-20 11:59:02.60	95.77	9.60	-42.8	-44.1	20.4	0.00e+00	0	42	0	802160640	58	6490
2026-01-20 11:59:03.61	95.94	9.57	-42.8	-44.2	20.4	0.00e+00	0	42	0	804257792	58	6555
2026-01-20 11:59:04.62	96.10	9.54	-42.6	-43.9	20.6	0.00e+00	0	42	0	805306368	58	6378
2026-01-20 11:59:05.63	96.27	9.51	-42.8	-44.2	20.4	0.00e+00	0	42	0	807403520	58	6552
2026-01-20 11:59:06.64	96.43	9.48	-43.0	-44.4	20.1	0.00e+00	0	42	0	809500672	58	6699
2026-01-20 11:59:07.65	96.60	9.44	-43.0	-44.4	20.2	0.00e+00	0	42	0	811597824	58	6723
2026-01-20 11:59:08.66	96.76	9.41	-42.9	-44.2	20.3	0.00e+00	0	42	0	813694976	58	6608
2026-01-20 11:59:09.67	96.93	9.38	-42.7	-44.1	20.5	0.00e+00	0	42	0	814743552	58	6478
2026-01-20 11:59:10.68	97.09	9.35	-43.0	-44.5	20.1	0.00e+00	0	42	0	816840704	58	6781
2026-01-20 11:59:11.69	97.26	9.32	-43.1	-44.7	19.9	0.00e+00	0	42	0	818937856	58	6946
2026-01-20 11:59:12.69	97.42	9.28	-43.2	-44.8	19.5	0.00e+00	0	42	0	821035008	58	7066
2026-01-20 11:59:13.70	97.58	9.25	-43.0	-44.6	19.8	0.00e+00	0	42	0	823132160	58	6874
2026-01-20 11:59:14.71	97.74	9.22	-43.3	-44.8	19.6	0.00e+00	0	42	0	824180736	58	7055
2026-01-20 11:59:15.72	97.91	9.18	-43.5	-45.0	19.5	0.00e+00	0	42	0	826277888	58	7235
2026-01-20 11:59:16.73	98.07	9.15	-43.7	-45.2	19.4	0.00e+00	0	42	0	828375040	58	7418
2026-01-20 11:59:17.74	98.23	9.12	-44.0	-45.6	19.0	0.00e+00	0	42	0	830472192	60	6864
2026-01-20 11:59:18.75	98.39	9.08	-44.1	-45.7	18.8	0.00e+00	0	42	0	832569344	60	6980
2026-01-20 11:59:19.76	98.55	9.05	-44.2	-45.9	18.6	0.00e+00	0	42	0	833617920	60	7125
2026-01-20 11:59:20.77	98.71	9.02	-44.5	-46.2	18.5	0.00e+00	0	42	0	835715072	60	7381
2026-01-20 11:59:21.78	98.87	8.98	-44.4	-46.2	18.3	0.00e+00	0	42	0	837812224	60	7388
2026-01-20 11:59:22.79	99.03	8.95	-44.2	-46.0	18.5	0.00e+00	0	42	0	839909376	60	7172
2026-01-20 11:59:23.80	99.19	8.91	-44.4	-46.2	18.3	0.00e+00	0	42	0	842006528	60	7364
2026-01-20 11:59:24.81	99.35	8.88	-44.2	-45.9	18.6	0.00e+00	0	42	0	844103680	60	7118
2026-01-20 11:59:25.82	99.51	8.85	-44.2	-45.9	18.5	0.00e+00	0	42	0	845152256	60	7127
2026-01-20 11:59:26.83	99.67	8.81	-44.2	-45.9	18.7	0.00e+00	0	42	0	847249408	60	7098
2026-01-20 11:59:27.84	99.83	8.78	-44.3	-46.0	18.4	0.00e+00	0	42	0	849346560	60	7211
2026-01-20 11:59:28.85	99.98	8.74	-44.3	-46.1	18.4	0.00e+00	0	42	0	851443712	60	7270
2026-01-20 11:59:29.86	100.14	8.71	-44.3	-46.2	18.4	0.00e+00	0	42	0	853540864	60	7381
2026-01-20 11:59:30.87	100.30	8.67	-43.9	-45.7	18.9	0.00e+00	0	42	0	854589440	60	6943
2026-01-20 11:59:31.88	100.46	8.64	-44.3	-46.1	18.6	0.00e+00	0	42	0	856686592	60	7275
2026-01-20 11:59:32.88	100.61	8.60	-44.1	-45.8	18.6	0.00e+00	0	42	0	858783744	60	7033
2026-01-20 11:59:33.90	100.77	8.56	-44.0	-45.8	18.7	0.00e+00	0	42	0	860880896	60	7019
2026-01-20 11:59:34.90	100.92	8.53	-43.7	-45.4	19.1	0.00e+00	0	42	0	862978048	60	6714
2026-01-20 11:59:35.91	101.08	8.49	-43.9	-45.5	18.9	0.00e+00	0	42	0	864026624	60	6805
2026-01-20 11:59:36.92	101.23	8.46	-44.2	-45.8	18.9	0.00e+00	0	42	0	866123776	60	7071
2026-01-20 11:59:37.93	101.39	8.42	-44.0	-45.7	18.9	0.00e+00	0	42	0	868220928	60	6934
2026-01-20 11:59:38.94	101.54	8.38	-44.3	-46.0	18.5	0.00e+00	0	42	0	870318080	60	7214
2026-01-20 11:59:39.95	101.69	8.35	-44.4	-46.2	18.4	0.00e+00	0	42	0	872415232	60	7385
2026-01-20 11:59:40.96	101.85	8.31	-44.3	-46.2	18.4	0.00e+00	0	42	0	873463808	60	7377
2026-01-20 11:59:41.97	102.00	8.27	-43.9	-45.9	18.7	0.00e+00	0	42	0	875560960	60	7122
2026-01-20 11:59:42.98	102.15	8.24	-43.7	-45.8	18.8	0.00e+00	0	42	0	877658112	60	7020
2026-01-20 11:59:43.99	102.31	8.20	-43.7	-45.8	18.6	0.00e+00	0	42	0	879755264	60	7051
2026-01-20 11:59:45.00	102.46	8.16	-43.4	-45.7	18.8	0.00e+00	0	42	0	881852416	60	6968
2026-01-20 11:59:46.01	102.61	8.13	-43.2	-45.4	19.1	0.00e+00	0	42	0	882900992	60	6724
2026-01-20 11:59:47.02	102.76	8.09	-43.1	-45.1	19.2	0.00e+00	0	42	0	884998144	60	6528
2026-01-20 11:59:48.03	102.91	8.05	-43.3	-45.2	19.2	0.00e+00	0	42	0	887095296	60	6575
2026-01-20 11:59:49.03	103.06	8.01	-43.3	-45.0	19.4	0.00e+00	0	42	0	889192448	60	6431
2026-01-20 11:59:50.05	103.21	7.98	-43.4	-44.9	19.6	0.00e+00	0	42	0	891289600	60	6368
2026-01-20 11:59:51.06	103.36	7.94	-43.6	-45.2	19.3	0.00e+00	0	42	0	892338176	60	6577
2026-01-20 11:59:52.07	103.51	7.90	-43.6	-45.2	19.1	0.00e+00	0	42	0	894435328	60	6579
2026-01-20 11:59:53.08	103.66	7.86	-43.9	-45.6	18.7	0.00e+00	0	42	0	896532480	60	6914
2026-01-20 11:59:54.09	103.81	7.83	-44.1	-45.8	18.6	0.00e+00	0	42	0	898629632	60	7036
2026-01-20 11:59:55.10	103.96	7.79	-43.9	-45.5	19.0	0.00e+00	0	42	0	900726784	60	6843
2026-01-20 11:59:56.11	104.10	7.75	-44.0	-45.7	18.8	0.00e+00	0	42	0	901775360	60	6999
2026-01-20 11:59:57.12	104.25	7.71	-43.7	-45.3	19.0	0.00e+00	0	42	0	903872512	60	6687
2026-01-20 11:59:58.13	104.40	7.67	-43.6	-45.2	19.0	0.00e+00	0	42	0	905969664	60	6612
2026-01-20 11:59:59.14	104.54	7.63	-43.0	-44.5	19.7	0.00e+00	0	43	0	908066816	60	6075
2026-01-20 12:00:00.15	104.69	7.59	-42.9	-44.3	20.1	0.00e+00	0	42	0	910163968	60	5906
2026-01-20 12:00:01.16	104.84	7.56	-43.0	-44.5	20.0	0.00e+00	0	42	0	912261120	60	6047
2026-01-20 12:00:02.17	104.98	7.52	-42.6	-43.9	20.5	0.00e+00	0	42	0	913309696	58	6326
2026-01-20 12:00:03.18	105.13	7.48	-42.8	-44.2	20.1	0.00e+00	0	42	0	915406848	58	6563
2026-01-20 12:00:04.19	105.27	7.44	-43.1	-44.6	19.8	0.00e+00	0	42	0	917504000	58	6871
2026-01-20 12:00:05.20	105.42	7.40	-42.9	-44.2	19.9	0.00e+00	0	42	0	919601152	58	6604
2026-01-20 12:00:06.21	105.56	7.36	-42.9	-44.2	20.1	0.00e+00	0	42	0	921698304	58	6603
2026-01-20 12:00:07.22	105.70	7.32	-43.1	-44.6	19.7	0.00e+00	0	42	0	922746880	58	6852
2026-01-20 12:00:08.23	105.85	7.28	-43.3	-44.8	19.6	0.00e+00	0	42	0	924844032	58	7026
2026-01-20 12:00:09.24	105.99	7.24	-43.2	-44.7	19.7	0.00e+00	0	42	0	926941184	58	6939
2026-01-20 12:00:10.25	106.13	7.20	-43.4	-44.8	19.5	0.00e+00	0	43	0	929038336	58	7088
2026-01-20 12:00:11.26	106.28	7.16	-43.3	-44.7	19.7	0.00e+00	0	43	0	931135488	58	7003
2026-01-20 12:00:12.27	106.42	7.12	-43.4	-44.9	19.3	0.00e+00	0	42	0	932184064	58	7101
2026-01-20 12:00:13.28	106.56	7.08	-43.2	-44.7	19.6	0.00e+00	0	43	0	934281216	58	6966
2026-01-20 12:00:14.29	106.70	7.04	-43.2	-44.7	19.6	0.00e+00	0	42	0	936378368	58	6979
2026-01-20 12:00:15.30	106.84	7.00	-43.1	-44.7	19.6	0.00e+00	0	42	0	938475520	58	6966
2026-01-20 12:00:16.31	106.98	6.96	-43.0	-44.7	19.7	0.00e+00	0	43	0	940572672	58	6961
2026-01-20 12:00:17.32	107.12	6.92	-42.7	-44.5	19.8	0.00e+00	0	42	0	941621248	58	6779
2026-01-20 12:00:18.33	107.26	6.88	-42.7	-44.4	19.8	0.00e+00	0	43	0	943718400	58	6730
2026-01-20 12:00:19.34	107.40	6.84	-42.8	-44.3	20.0	0.00e+00	0	42	0	945815552	58	6683
2026-01-20 12:00:20.35	107.54	6.80	-43.0	-44.4	19.9	0.00e+00	0	42	0	947912704	58	6715
2026-01-20 12:00:21.36	107.68	6.76	-42.7	-44.0	20.4	0.00e+00	0	42	0	950009856	58	6448
2026-01-20 12:00:22.37	107.82	6.72	-42.7	-44.1	20.1	0.00e+00	0	42	0	951058432	58	6477
2026-01-20 12:00:23.38	107.95	6.68	-42.6	-44.1	20.2	0.00e+00	0	42	0	953155584	58	6467
2026-01-20 12:00:24.39	108.09	6.64	-42.1	-43.5	20.9	0.00e+00	0	42	0	955252736	58	6049
2026-01-20 12:00:25.40	108.23	6.60	-42.0	-43.3	20.8	0.00e+00	0	43	0	957349888	58	5934
2026-01-20 12:00:26.41	108.36	6.56	-42.2	-43.5	20.6	0.00e+00	0	42	0	959447040	58	6039
2026-01-20 12:00:27.42	108.50	6.52	-42.3	-43.6	20.6	0.00e+00	0	42	0	960495616	58	6144
2026-01-20 12:00:28.43	108.64	6.48	-42.0	-43.3	20.8	0.00e+00	0	42	0	962592768	58	5906
2026-01-20 12:00:29.43	108.77	6.44	-41.9	-43.2	21.1	0.00e+00	0	42	0	964689920	58	5838
2026-01-20 12:00:30.44	108.91	6.39	-42.0	-43.2	21.0	0.00e+00	0	42	0	966787072	58	5856
2026-01-20 12:00:31.45	109.04	6.35	-42.2	-43.4	20.7	0.00e+00	0	42	0	968884224	58	6012
2026-01-20 12:00:32.46	109.17	6.31	-42.4	-43.8	20.4	0.00e+00	0	42	0	969932800	58	6246
2026-01-20 12:00:33.47	109.31	6.27	-41.9	-43.1	21.0	0.00e+00	0	42	0	972029952	58	5823
2026-01-20 12:00:34.48	109.44	6.23	-42.0	-43.2	20.9	0.00e+00	0	42	0	974127104	58	5894
2026-01-20 12:00:35.49	109.58	6.19	-42.1	-43.3	20.8	0.00e+00	0	42	0	976224256	58	5952
2026-01-20 12:00:36.50	109.71	6.15	-42.0	-43.2	20.8	0.00e+00	0	42	0	978321408	58	5887
2026-01-20 12:00:37.51	109.84	6.10	-42.1	-43.4	20.5	0.00e+00	0	42	0	980418560	58	6001
2026-01-20 12:00:38.52	109.97	6.06	-42.3	-43.6	20.7	0.00e+00	0	42	0	981467136	58	6158
2026-01-20 12:00:39.53	110.11	6.02	-42.1	-43.4	20.6	0.00e+00	0	42	0	983564288	58	6016
2026-01-20 12:00:40.54	110.24	5.98	-42.3	-43.6	20.7	0.00e+00	0	42	0	985661440	58	6156
2026-01-20 12:00:41.55	110.37	5.94	-42.3	-43.6	20.3	0.00e+00	0	42	0	987758592	58	6145
2026-01-20 12:00:42.55	110.50	5.90	-42.2	-43.5	20.7	0.00e+00	0	42	0	989855744	58	6050
2026-01-20 12:00:43.57	110.63	5.85	-42.3	-43.7	20.2	0.00e+00	0	42	0	990904320	58	6178
2026-01-20 12:00:44.57	110.76	5.81	-42.8	-44.2	19.9	0.00e+00	0	42	0	993001472	58	6573
2026-01-20 12:00:45.58	110.89	5.77	-43.0	-44.5	19.7	0.00e+00	0	42	0	995098624	58	6797
2026-01-20 12:00:46.59	111.02	5.73	-43.4	-44.9	19.2	0.00e+00	0	42	0	997195776	58	7170
2026-01-20 12:00:47.60	111.15	5.69	-42.9	-44.4	19.7	0.00e+00	0	42	0	999292928	58	6723
2026-01-20 12:00:48.61	111.28	5.64	-42.4	-43.7	20.4	0.00e+00	0	42	0	1000341504	58	6238
2026-01-20 12:00:49.62	111.40	5.60	-42.3	-43.6	20.5	0.00e+00	0	42	0	1002438656	58	6117
2026-01-20 12:00:50.63	111.53	5.56	-42.0	-43.2	20.8	0.00e+00	0	42	0	1004535808	58	5889
2026-01-20 12:00:51.64	111.66	5.52	-42.0	-43.2	20.8	0.00e+00	0	42	0	1006632960	58	5889
2026-01-20 12:00:52.65	111.79	5.47	-41.8	-43.0	20.9	0.00e+00	0	42	0	1008730112	56	6458
2026-01-20 12:00:53.66	111.91	5.43	-42.1	-43.4	20.5	0.00e+00	0	42	0	1009778688	56	6703
2026-01-20 12:00:54.67	112.04	5.39	-42.4	-43.7	20.5	0.00e+00	0	42	0	1011875840	56	6986
2026-01-20 12:00:55.68	112.17	5.35	-41.7	-42.8	21.3	0.00e+00	0	42	0	1013972992	56	6303
2026-01-20 12:00:56.69	112.29	5.30	-42.2	-43.5	20.6	0.00e+00	0	42	0	1016070144	56	6787
2026-01-20 12:00:57.70	112.42	5.26	-41.9	-43.1	20.9	0.00e+00	0	42	0	1018167296	56	6516
2026-01-20 12:00:58.72	112.54	5.22	-42.0	-43.3	20.6	0.00e+00	0	42	0	1019215872	56	6631
2026-01-20 12:00:59.73	112.67	5.18	-42.5	-43.8	20.2	0.00e+00	0	42	0	1021313024	56	7076
2026-01-20 12:01:00.73	112.79	5.13	-42.7	-44.1	20.1	0.00e+00	0	42	0	1023410176	58	6480
2026-01-20 12:01:01.74	112.92	5.09	-42.9	-44.3	19.8	0.00e+00	0	42	0	1025507328	58	6648
2026-01-20 12:01:02.75	113.04	5.05	-42.7	-44.2	19.9	0.00e+00	0	42	0	1027604480	58	6560
2026-01-20 12:01:03.76	113.16	5.00	-43.0	-44.6	19.8	0.00e+00	0	42	0	1028653056	58	6866
2026-01-20 12:01:04.77	113.29	4.96	-42.4	-43.8	20.1	0.00e+00	0	42	0	1030750208	58	6293
2026-01-20 12:01:05.78	113.41	4.92	-42.5	-43.9	20.2	0.00e+00	0	42	0	1032847360	56	7095
2026-01-20 12:01:06.79	113.53	4.88	-41.8	-43.0	21.0	0.00e+00	0	42	0	1034944512	56	6439
2026-01-20 12:01:07.80	113.65	4.83	-42.3	-43.6	20.6	0.00e+00	0	42	0	1037041664	56	6864
2026-01-20 12:01:08.80	113.77	4.79	-42.4	-43.7	20.1	0.00e+00	0	42	0	1038090240	56	6966
2026-01-20 12:01:09.81	113.89	4.75	-43.3	-44.8	19.3	0.00e+00	0	42	0	1040187392	58	7082
2026-01-20 12:01:10.82	114.01	4.70	-42.2	-43.5	20.4	0.00e+00	0	42	0	1042284544	58	6066
2026-01-20 12:01:11.83	114.14	4.66	-42.0	-43.3	20.6	0.00e+00	0	42	0	1044381696	58	5906
2026-01-20 12:01:12.84	114.26	4.62	-42.5	-43.9	20.1	0.00e+00	0	42	0	1046478848	58	6352
2026-01-20 12:01:13.85	114.38	4.57	-43.1	-44.7	19.4	0.00e+00	0	42	0	1048576000	58	6981
2026-01-20 12:01:14.86	114.50	4.53	-42.5	-43.9	19.7	0.00e+00	0	42	0	1049624576	58	6372
2026-01-20 12:01:15.87	114.61	4.49	-43.0	-44.5	19.3	0.00e+00	0	42	0	1051721728	58	6799
2026-01-20 12:01:16.88	114.73	4.44	-42.0	-43.3	20.5	0.00e+00	0	42	0	1053818880	58	5943
2026-01-20 12:01:17.89	114.85	4.40	-42.1	-43.5	20.5	0.00e+00	0	42	0	1055916032	58	6034
2026-01-20 12:01:18.90	114.97	4.36	-43.0	-44.6	19.4	0.00e+00	0	42	0	1058013184	58	6866
2026-01-20 12:01:19.91	115.09	4.31	-42.7	-44.3	19.2	0.00e+00	0	42	0	1059061760	58	6646
2026-01-20 12:01:20.91	115.20	4.27	-44.1	-46.3	17.9	0.00e+00	0	42	0	1061158912	60	7439
2026-01-20 12:01:21.92	115.32	4.23	-41.2	-42.4	20.9	0.00e+00	0	42	0	1063256064	56	6023
2026-01-20 12:01:22.93	115.44	4.18	-42.7	-44.3	19.5	0.00e+00	0	42	0	1065353216	58	6647
2026-01-20 12:01:23.94	115.56	4.14	-43.2	-45.0	18.8	0.00e+00	0	42	0	1067450368	58	7237
2026-01-20 12:01:24.95	115.67	4.10	-42.2	-43.7	20.1	0.00e+00	0	42	0	1068498944	58	6239
2026-01-20 12:01:25.96	115.79	4.05	-42.7	-44.5	19.3	0.00e+00	0	42	0	1070596096	58	6776
2026-01-20 12:01:26.97	115.90	4.01	-43.5	-45.3	18.4	0.00e+00	0	42	0	1072693248	58	7490
2026-01-20 12:01:27.98	116.02	3.97	-44.1	-46.0	17.8	0.00e+00	0	42	0	1074790400	60	7205
2026-01-20 12:01:28.99	116.13	3.92	-43.8	-45.5	18.5	0.00e+00	0	42	0	1076887552	60	6825
2026-01-20 12:01:30.00	116.25	3.88	-43.4	-45.1	18.9	0.00e+00	0	42	0	1077936128	60	6477
2026-01-20 12:01:31.01	116.36	3.83	-42.1	-43.5	20.2	0.00e+00	0	42	0	1080033280	58	6090
2026-01-20 12:01:32.01	116.47	3.79	-43.2	-45.1	18.7	0.00e+00	0	42	0	1082130432	58	7300
2026-01-20 12:01:33.02	116.59	3.75	-44.2	-46.5	17.1	0.00e+00	0	42	0	1084227584	60	7665
2026-01-20 12:01:34.04	116.70	3.70	-43.5	-45.4	18.1	0.00e+00	0	42	0	1086324736	60	6720
2026-01-20 12:01:35.04	116.81	3.66	-43.6	-45.5	18.6	0.00e+00	0	42	0	1087373312	60	6843
2026-01-20 12:01:36.05	116.93	3.62	-43.4	-45.2	18.4	0.00e+00	0	42	0	1089470464	58	7398
2026-01-20 12:01:37.06	117.04	3.57	-42.7	-44.3	19.5	0.00e+00	0	42	0	1091567616	58	6621
2026-01-20 12:01:38.07	117.15	3.53	-44.1	-46.2	17.3	0.00e+00	0	42	0	1093664768	60	7374
2026-01-20 12:01:39.08	117.26	3.48	-44.4	-46.6	17.4	0.00e+00	0	42	0	1095761920	60	7718
2026-01-20 12:01:40.09	117.37	3.44	-43.4	-45.1	18.6	0.00e+00	0	42	0	1096810496	60	6470
2026-01-20 12:01:41.10	117.49	3.40	-44.8	-47.0	16.7	0.00e+00	0	42	0	1098907648	60	8127
2026-01-20 12:01:42.11	117.60	3.35	-43.6	-45.3	18.5	0.00e+00	0	42	0	1101004800	60	6638
2026-01-20 12:01:43.13	117.71	3.31	-44.1	-46.0	17.8	0.00e+00	0	42	0	1103101952	60	7239
2026-01-20 12:01:44.14	117.82	3.26	-43.2	-44.9	18.5	0.00e+00	0	42	0	1105199104	60	6382
2026-01-20 12:01:45.15	117.93	3.22	-44.4	-46.7	17.2	0.00e+00	0	42	0	1106247680	60	7787
2026-01-20 12:01:46.16	118.04	3.18	-44.5	-46.8	16.9	0.00e+00	0	42	0	1108344832	60	7923
2026-01-20 12:01:47.17	118.15	3.13	-44.9	-47.3	16.0	0.00e+00	0	42	0	1110441984	60	8371
2026-01-20 12:01:48.17	118.25	3.09	-44.7	-47.0	16.6	0.00e+00	0	42	0	1112539136	60	8105
2026-01-20 12:01:49.18	118.36	3.04	-43.2	-44.8	18.6	0.00e+00	0	42	0	1114636288	60	6297
2026-01-20 12:01:50.19	118.47	3.00	-43.8	-45.7	17.7	0.00e+00	0	42	0	1116733440	60	6954
2026-01-20 12:01:51.20	118.58	2.96	-49.9	-65.3	3.6	1.49e+00	0	42	104	1116733440	60	66548
2026-01-20 12:01:52.21	118.69	2.91	-50.2	-65.6	3.6	1.51e+00	0	42	104	1116733440	60	68646
2026-01-20 12:01:53.22	118.79	2.87	-50.6	-65.8	3.6	1.51e+00	0	42	104	1116733440	60	70126
2026-01-20 12:01:54.23	118.90	2.82	-50.5	-65.9	3.6	1.51e+00	0	42	104	1116733440	60	71501
2026-01-20 12:01:55.24	119.01	2.78	-50.8	-66.0	3.6	1.51e+00	0	42	104	1116733440	60	72443
2026-01-20 12:01:56.25	119.11	2.74	-50.9	-66.1	3.6	1.51e+00	0	42	104	1116733440	60	73259
2026-01-20 12:01:57.26	119.22	2.69	-51.0	-66.2	3.6	1.51e+00	0	42	104	1116733440	60	73849
2026-01-20 12:01:58.27	119.33	2.65	-51.0	-66.3	3.5	1.51e+00	0	42	104	1116733440	60	74606
2026-01-20 12:01:59.28	119.43	2.60	-51.1	-66.3	3.6	1.51e+00	0	42	104	1116733440	60	74831
2026-01-20 12:02:00.29	119.54	2.56	-51.1	-66.4	3.6	1.51e+00	0	42	104	1116733440	60	75214
2026-01-20 12:02:01.30	119.64	2.51	-51.2	-66.4	3.6	1.51e+00	0	42	104	1116733440	60	75398
2026-01-20 12:02:02.31	119.75	2.47	-51.2	-66.4	3.6	1.51e+00	0	42	104	1116733440	60	75635
2026-01-20 12:02:03.32	119.85	2.43	-51.1	-66.4	3.6	1.51e+00	0	42	104	1116733440	60	75660
2026-01-20 12:02:04.33	119.95	2.38	-51.2	-66.4	3.6	1.51e+00	0	42	104	1116733440	60	75655
2026-01-20 12:02:05.34	120.06	2.34	-51.2	-66.4	3.6	1.51e+00	0	42	104	1116733440	60	75659
2026-01-20 12:02:06.35	120.16	2.29	-51.3	-66.5	3.6	1.51e+00	0	42	104	1116733440	60	76375
2026-01-20 12:02:07.36	120.26	2.25	-51.3	-66.5	3.6	1.51e+00	0	42	104	1116733440	60	76289
2026-01-20 12:02:08.37	120.37	2.21	-51.3	-66.5	3.6	1.51e+00	0	42	104	1116733440	60	76410
2026-01-20 12:02:09.38	120.47	2.16	-51.3	-66.5	3.5	1.51e+00	0	42	104	1116733440	60	76445
2026-01-20 12:02:10.39	120.57	2.12	-51.4	-66.6	3.6	1.51e+00	0	42	104	1116733440	60	77296
2026-01-20 12:02:11.40	120.67	2.07	-51.3	-66.5	3.6	1.51e+00	0	42	104	1116733440	60	76526
2026-01-20 12:02:12.41	120.78	2.03	-51.3	-66.6	3.6	1.51e+00	0	42	104	1116733440	60	76856
2026-01-20 12:02:13.42	120.88	1.98	-51.5	-66.6	3.6	1.51e+00	0	42	104	1116733440	60	77614
2026-01-20 12:02:14.43	120.98	1.94	-51.3	-66.5	3.6	1.51e+00	0	42	104	1116733440	60	76729
2026-01-20 12:02:15.44	121.08	1.90	-51.3	-66.5	3.6	1.51e+00	0	42	104	1116733440	60	76579
2026-01-20 12:02:16.45	121.18	1.85	-51.4	-66.6	3.6	1.51e+00	0	42	104	1116733440	60	77186
2026-01-20 12:02:17.46	121.28	1.81	-51.5	-66.7	3.6	1.51e+00	0	42	104	1116733440	60	77753
2026-01-20 12:02:18.47	121.38	1.76	-51.4	-66.6	3.6	1.51e+00	0	42	104	1116733440	60	77659
2026-01-20 12:02:19.48	121.48	1.72	-51.4	-66.6	3.6	1.51e+00	0	42	104	1116733440	60	77298
2026-01-20 12:02:20.49	121.58	1.68	-51.4	-66.6	3.6	1.51e+00	0	42	104	1116733440	60	77510
2026-01-20 12:02:21.50	121.68	1.63	-51.5	-66.7	3.6	1.51e+00	0	42	104	1116733440	60	77984
2026-01-20 12:02:22.51	121.78	1.59	-51.4	-66.6	3.6	1.51e+00	0	42	104	1116733440	60	77073
2026-01-20 12:02:23.52	121.87	1.54	-51.4	-66.7	3.6	1.51e+00	0	42	104	1116733440	60	77961
2026-01-20 12:02:24.53	121.97	1.50	-51.4	-66.6	3.6	1.51e+00	0	42	104	1116733440	60	77607
2026-01-20 12:02:25.54	122.07	1.45	-51.6	-66.8	3.6	1.51e+00	0	42	104	1116733440	60	79242
2026-01-20 12:02:26.55	122.17	1.41	-51.6	-66.8	3.6	1.51e+00	0	42	104	1116733440	60	79351
2026-01-20 12:02:27.56	122.27	1.37	-51.5	-66.8	3.6	1.51e+00	0	42	104	1116733440	60	78957
2026-01-20 12:02:28.57	122.36	1.32	-51.5	-66.7	3.6	1.51e+00	0	42	104	1116733440	60	78172
2026-01-20 12:02:29.59	122.46	1.28	-51.5	-66.7	3.6	1.51e+00	0	42	104	1116733440	60	77913
2026-01-20 12:02:30.59	122.56	1.23	-51.5	-66.7	3.6	1.51e+00	0	42	104	1116733440	60	78421
2026-01-20 12:02:31.60	122.65	1.19	-51.4	-66.7	3.6	1.51e+00	0	42	104	1116733440	60	78022
2026-01-20 12:02:32.61	122.75	1.14	-51.4	-66.7	3.6	1.51e+00	0	42	104	1116733440	60	78209
2026-01-20 12:02:33.63	122.85	1.10	-51.4	-66.7	3.6	1.51e+00	0	42	104	1116733440	60	77822
