passes_logs/2026/01/20/R4.6S_Anadyr/R4.6S_Anadyr__20260120_145056_SUOMI_NPP_rec.log

#Pass ID: 20260120_145056_SUOMI NPP
#Satellite: SUOMI NPP
#Configuration: NPP
#almurnet v.1.7.20251203
#Start time: 2026-01-20 14:50:57

#Version: 2.2.20231116
#Station: R4.6S_Anadyr
#Location: 177.4865 lon 64.73178 lat
#TLE: 1 37849U 11061A   26019.89702167  .00000121  00000+0  78274-4 0  9993
#TLE: 2 37849  98.7817 321.9035 0002338  55.0397 305.0998 14.19526700737401

#Time	Az	El	Level	Level2	SNR	BER	BlckErr	Temp	State	Recorded	gain1	gain2
2026-01-20 14:50:57.45	20.65	0.04	-51.9	-64.4	3.5	1.52e+00	0	39	0	0	60	58385
2026-01-20 14:50:58.46	20.65	0.10	-52.3	-67.5	3.6	1.51e+00	0	40	104	0	60	85647
2026-01-20 14:50:59.47	20.66	0.16	-51.9	-67.1	3.6	1.51e+00	0	40	104	0	60	82128
2026-01-20 14:51:00.48	20.66	0.22	-51.7	-67.1	3.6	1.51e+00	0	40	104	0	60	82111
2026-01-20 14:51:01.49	20.66	0.28	-51.7	-67.1	3.6	1.51e+00	0	40	104	0	60	81859
2026-01-20 14:51:02.50	20.67	0.34	-51.7	-66.9	3.6	1.51e+00	0	40	104	0	60	80324
2026-01-20 14:51:03.51	20.67	0.40	-51.6	-66.9	3.6	1.51e+00	0	41	104	0	60	79983
2026-01-20 14:51:04.52	20.67	0.46	-51.6	-66.8	3.6	1.51e+00	0	41	104	0	60	79248
2026-01-20 14:51:05.52	20.68	0.52	-51.6	-66.8	3.6	1.51e+00	0	41	104	0	60	79415
2026-01-20 14:51:06.53	20.68	0.59	-51.5	-66.8	3.6	1.51e+00	0	41	104	0	60	79285
2026-01-20 14:51:07.54	20.68	0.65	-51.5	-66.8	3.6	1.51e+00	0	41	104	0	60	79032
2026-01-20 14:51:08.55	20.69	0.71	-51.5	-66.8	3.6	1.51e+00	0	41	104	0	60	78748
2026-01-20 14:51:09.56	20.69	0.77	-51.4	-66.7	3.6	1.51e+00	0	41	104	0	60	78382
2026-01-20 14:51:10.57	20.69	0.83	-51.4	-66.6	3.5	1.51e+00	0	41	104	0	60	77689
2026-01-20 14:51:11.58	20.70	0.89	-51.3	-66.6	3.6	1.51e+00	0	41	104	0	60	76857
2026-01-20 14:51:12.59	20.70	0.96	-51.2	-66.5	3.6	1.51e+00	0	41	104	0	60	76452
2026-01-20 14:51:13.60	20.70	1.02	-51.1	-66.3	3.6	1.51e+00	0	41	104	0	60	74688
2026-01-20 14:51:14.62	20.71	1.08	-51.0	-66.2	3.6	1.51e+00	0	41	104	0	60	74092
2026-01-20 14:51:15.63	20.71	1.14	-50.9	-66.1	3.6	1.51e+00	0	41	104	0	60	73320
2026-01-20 14:51:16.64	20.71	1.21	-50.6	-66.0	3.6	1.51e+00	0	41	104	0	60	72458
2026-01-20 14:51:17.65	20.72	1.27	-50.6	-65.9	3.6	1.51e+00	0	41	104	0	60	70938
2026-01-20 14:51:18.66	20.72	1.33	-50.6	-65.8	3.6	1.51e+00	0	41	104	0	60	70422
2026-01-20 14:51:19.67	20.72	1.40	-50.4	-65.6	3.6	1.51e+00	0	41	104	0	60	69038
2026-01-20 14:51:20.67	20.73	1.46	-50.1	-65.3	3.6	1.51e+00	0	41	104	0	60	66543
2026-01-20 14:51:21.68	20.73	1.52	-49.8	-64.9	3.6	1.51e+00	0	41	104	0	60	63231
2026-01-20 14:51:22.69	20.73	1.58	-49.7	-65.0	3.6	1.51e+00	0	41	104	0	60	63989
2026-01-20 14:51:23.70	20.73	1.65	-49.7	-64.9	3.6	1.51e+00	0	41	104	0	60	63672
2026-01-20 14:51:24.71	20.74	1.71	-49.9	-65.1	3.6	1.51e+00	0	41	104	0	60	65013
2026-01-20 14:51:25.72	20.74	1.78	-49.8	-65.0	3.6	1.51e+00	0	41	104	0	60	64430
2026-01-20 14:51:26.73	20.74	1.84	-49.8	-65.0	3.6	1.51e+00	0	41	104	0	60	64126
2026-01-20 14:51:27.74	20.75	1.90	-49.8	-65.0	3.6	1.51e+00	0	41	104	0	60	64304
2026-01-20 14:51:28.75	20.75	1.97	-49.8	-65.0	3.6	1.51e+00	0	41	104	0	60	64460
2026-01-20 14:51:29.76	20.75	2.03	-49.8	-65.0	3.6	1.51e+00	0	41	104	0	60	64190
2026-01-20 14:51:30.77	20.76	2.10	-49.7	-64.9	3.6	1.51e+00	0	41	104	0	60	63244
2026-01-20 14:51:31.78	20.76	2.16	-49.8	-64.2	3.6	1.51e+00	0	41	104	0	60	58845
2026-01-20 14:51:32.79	20.76	2.23	-49.8	-64.3	3.6	1.51e+00	0	41	104	0	60	59454
2026-01-20 14:51:33.80	20.77	2.29	-49.8	-65.0	3.6	1.51e+00	0	41	104	0	60	64200
2026-01-20 14:51:34.81	20.77	2.36	-49.8	-64.6	3.6	1.51e+00	0	41	104	0	60	61589
2026-01-20 14:51:35.81	20.77	2.42	-49.8	-64.0	3.6	1.51e+00	0	41	104	0	60	57390
2026-01-20 14:51:36.82	20.78	2.49	-49.7	-63.7	3.6	1.51e+00	0	41	104	0	60	55467
2026-01-20 14:51:37.84	20.78	2.55	-49.8	-63.8	3.6	1.51e+00	0	41	104	0	60	56085
2026-01-20 14:51:38.84	20.78	2.62	-49.8	-64.4	3.6	1.51e+00	0	41	104	0	60	60117
2026-01-20 14:51:39.85	20.78	2.68	-49.6	-60.9	4.2	1.43e+00	15	41	104	0	60	40089
2026-01-20 14:51:40.86	20.79	2.75	-49.5	-61.0	3.7	1.51e+00	0	41	104	0	60	40492
2026-01-20 14:51:41.87	20.79	2.82	-49.3	-58.6	5.6	6.35e-01	0	41	104	0	60	30735
2026-01-20 14:51:42.88	20.79	2.88	-48.9	-55.7	7.0	2.27e-01	0	41	0	1048576	60	21945
2026-01-20 14:51:43.89	20.80	2.95	-49.1	-56.2	7.4	2.70e-01	24	41	0	3145728	60	23455
2026-01-20 14:51:44.90	20.80	3.02	-48.3	-53.6	9.4	3.71e-03	0	41	0	5242880	60	17237
2026-01-20 14:51:45.91	20.80	3.08	-47.8	-52.1	11.5	7.32e-03	85	41	0	7340032	60	14633
2026-01-20 14:51:46.92	20.81	3.15	-46.2	-49.0	14.5	3.12e-03	0	41	0	8388608	60	10188
2026-01-20 14:51:47.93	20.81	3.22	-46.7	-49.9	13.2	2.74e-03	0	41	0	10485760	60	11311
2026-01-20 14:51:48.94	20.81	3.28	-47.9	-52.7	11.4	4.61e-04	0	41	0	12582912	60	15532
2026-01-20 14:51:49.95	20.81	3.35	-46.9	-50.5	12.8	5.30e-06	0	41	0	14680064	60	12110
2026-01-20 14:51:50.96	20.82	3.42	-47.6	-51.9	11.8	3.73e-05	19	41	0	16777216	60	14264
2026-01-20 14:51:51.97	20.82	3.49	-47.7	-52.1	11.6	1.29e-05	0	41	0	17825792	60	14571
2026-01-20 14:51:52.98	20.82	3.56	-47.2	-50.9	12.6	1.22e-05	86	41	0	19922944	60	12731
2026-01-20 14:51:53.99	20.83	3.62	-47.8	-52.3	11.5	6.93e-02	0	41	0	22020096	60	14927
2026-01-20 14:51:55.00	20.83	3.69	-48.9	-55.7	7.7	1.45e-01	0	41	0	24117248	60	21959
2026-01-20 14:51:56.01	20.83	3.76	-46.2	-49.0	14.9	3.35e-05	0	41	0	26214400	60	10141
2026-01-20 14:51:57.02	20.84	3.83	-48.1	-52.9	11.2	1.06e-05	0	41	0	27262976	60	15957
2026-01-20 14:51:58.03	20.84	3.90	-49.6	-64.2	3.6	3.40e-03	0	41	104	29360128	60	58513
2026-01-20 14:51:59.04	20.84	3.97	-48.2	-53.4	10.8	1.43e+00	0	41	104	29360128	60	17003
2026-01-20 14:52:00.05	20.84	4.04	-49.8	-64.6	3.6	3.90e-01	0	41	104	29360128	60	61670
2026-01-20 14:52:01.06	20.85	4.11	-46.8	-50.1	13.8	1.41e+00	2	41	104	29360128	60	11626
2026-01-20 14:52:02.07	20.85	4.18	-46.9	-50.3	13.8	4.11e-05	0	41	0	29360128	60	11777
2026-01-20 14:52:03.08	20.85	4.24	-47.6	-51.6	11.6	3.35e-04	0	41	0	31457280	60	13787
2026-01-20 14:52:04.09	20.86	4.31	-46.9	-50.2	13.9	7.17e-05	0	42	0	33554432	60	11639
2026-01-20 14:52:05.09	20.86	4.38	-46.7	-49.8	14.4	8.30e-06	27	41	0	35651584	60	11150
2026-01-20 14:52:06.10	20.86	4.45	-46.9	-50.2	13.7	1.50e-06	0	41	0	36700160	60	11636
2026-01-20 14:52:07.11	20.86	4.53	-46.4	-49.3	14.5	1.06e-05	53	41	0	38797312	60	10515
2026-01-20 14:52:08.12	20.87	4.60	-47.1	-50.5	13.1	0.00e+00	0	41	0	40894464	60	12058
2026-01-20 14:52:09.13	20.87	4.67	-47.1	-50.4	14.0	2.74e-05	70	41	0	42991616	60	12018
2026-01-20 14:52:10.14	20.87	4.74	-47.0	-50.3	13.6	2.20e-06	0	41	0	45088768	60	11897
2026-01-20 14:52:11.15	20.88	4.81	-47.2	-50.7	13.1	1.34e-04	0	41	0	46137344	60	12399
2026-01-20 14:52:12.16	20.88	4.88	-47.3	-51.0	13.3	1.90e-05	0	41	0	48234496	60	12789
2026-01-20 14:52:13.17	20.88	4.95	-46.0	-48.5	15.6	5.41e-05	0	41	0	50331648	60	9673
2026-01-20 14:52:14.18	20.88	5.02	-46.3	-49.0	15.0	0.00e+00	56	41	0	52428800	60	10219
2026-01-20 14:52:15.19	20.89	5.10	-46.0	-48.5	15.7	7.00e-07	0	41	0	54525952	60	9594
2026-01-20 14:52:16.20	20.89	5.17	-46.7	-49.7	14.4	0.00e+00	88	41	0	55574528	60	10986
2026-01-20 14:52:17.21	20.89	5.24	-46.1	-48.7	15.3	0.00e+00	0	41	0	57671680	60	9831
2026-01-20 14:52:18.21	20.90	5.31	-45.9	-48.4	15.9	0.00e+00	0	41	0	59768832	60	9514
2026-01-20 14:52:19.22	20.90	5.39	-46.5	-49.4	14.5	0.00e+00	33	41	0	61865984	60	10629
2026-01-20 14:52:20.23	20.90	5.46	-46.3	-49.0	15.5	0.00e+00	0	41	0	63963136	60	10223
2026-01-20 14:52:21.24	20.90	5.53	-45.7	-48.1	16.1	0.00e+00	58	41	0	65011712	60	9159
2026-01-20 14:52:22.25	20.91	5.60	-45.4	-47.6	16.6	0.00e+00	33	41	0	67108864	60	8645
2026-01-20 14:52:23.26	20.91	5.68	-45.3	-47.4	16.9	0.00e+00	92	41	0	69206016	60	8494
2026-01-20 14:52:24.27	20.91	5.75	-45.5	-47.7	16.8	0.00e+00	0	41	0	71303168	60	8759
2026-01-20 14:52:25.28	20.91	5.83	-44.9	-46.9	17.7	0.00e+00	0	41	0	73400320	60	8015
2026-01-20 14:52:26.29	20.92	5.90	-44.8	-46.7	17.4	0.00e+00	0	41	0	74448896	60	7830
2026-01-20 14:52:27.30	20.92	5.97	-44.3	-46.1	18.0	0.00e+00	0	41	0	76546048	60	7289
2026-01-20 14:52:28.31	20.92	6.05	-44.9	-46.9	17.5	0.00e+00	19	41	0	78643200	60	7966
2026-01-20 14:52:29.31	20.92	6.12	-45.0	-47.0	17.3	0.00e+00	0	41	0	80740352	60	8072
2026-01-20 14:52:30.33	20.93	6.20	-44.5	-46.3	18.0	0.00e+00	92	41	0	82837504	60	7445
2026-01-20 14:52:31.33	20.93	6.27	-44.4	-46.2	18.2	0.00e+00	0	41	0	83886080	60	7381
2026-01-20 14:52:32.34	20.93	6.35	-44.8	-46.7	17.6	0.00e+00	0	42	0	85983232	60	7838
2026-01-20 14:52:33.35	20.94	6.43	-44.3	-46.0	18.3	0.00e+00	0	42	0	88080384	60	7212
2026-01-20 14:52:34.36	20.94	6.50	-43.9	-45.5	18.7	0.00e+00	0	41	0	90177536	60	6810
2026-01-20 14:52:35.37	20.94	6.58	-44.4	-46.1	18.2	0.00e+00	60	42	0	92274688	60	7313
2026-01-20 14:52:36.38	20.94	6.65	-44.6	-46.4	17.9	0.00e+00	0	41	0	94371840	60	7585
2026-01-20 14:52:37.39	20.95	6.73	-44.0	-45.7	18.7	0.00e+00	77	41	0	95420416	60	6936
2026-01-20 14:52:38.40	20.95	6.81	-44.2	-45.8	18.5	0.00e+00	0	42	0	97517568	60	7086
2026-01-20 14:52:39.41	20.95	6.88	-44.0	-45.6	18.6	0.00e+00	92	41	0	99614720	60	6885
2026-01-20 14:52:40.42	20.95	6.96	-44.6	-46.4	18.0	0.00e+00	0	41	0	101711872	60	7540
2026-01-20 14:52:41.43	20.96	7.04	-44.5	-46.2	18.3	0.00e+00	0	41	0	103809024	60	7414
2026-01-20 14:52:42.44	20.96	7.12	-44.5	-46.3	18.2	0.00e+00	0	41	0	104857600	60	7441
2026-01-20 14:52:43.44	20.96	7.19	-43.5	-45.0	19.3	0.00e+00	0	41	0	106954752	60	6422
2026-01-20 14:52:44.46	20.96	7.27	-44.6	-46.3	18.1	0.00e+00	91	41	0	109051904	60	7508
2026-01-20 14:52:45.46	20.97	7.35	-44.5	-46.3	18.2	0.00e+00	0	42	0	111149056	60	7470
2026-01-20 14:52:46.47	20.97	7.43	-44.5	-46.2	18.4	0.00e+00	90	41	0	113246208	60	7378
2026-01-20 14:52:47.48	20.97	7.51	-44.7	-46.5	18.0	0.00e+00	0	42	0	114294784	60	7603
2026-01-20 14:52:48.49	20.97	7.59	-44.9	-46.8	18.0	0.00e+00	0	42	0	116391936	60	7909
2026-01-20 14:52:49.50	20.98	7.67	-44.6	-46.4	17.9	0.00e+00	0	41	0	118489088	60	7580
2026-01-20 14:52:50.51	20.98	7.75	-44.3	-46.0	18.8	0.00e+00	0	42	0	120586240	60	7210
2026-01-20 14:52:51.52	20.98	7.83	-45.2	-47.2	17.3	0.00e+00	55	42	0	122683392	60	8292
2026-01-20 14:52:52.53	20.98	7.91	-44.2	-45.9	18.5	0.00e+00	0	42	0	123731968	60	7149
2026-01-20 14:52:53.54	20.99	7.99	-44.6	-46.4	18.2	0.00e+00	58	42	0	125829120	60	7518
2026-01-20 14:52:54.54	20.99	8.07	-44.1	-45.7	18.8	0.00e+00	0	42	0	127926272	60	6944
2026-01-20 14:52:55.55	20.99	8.15	-44.1	-45.7	19.1	0.00e+00	0	42	0	130023424	60	6934
2026-01-20 14:52:56.56	20.99	8.23	-44.2	-45.8	18.7	0.00e+00	0	42	0	132120576	60	7054
2026-01-20 14:52:57.57	21.00	8.31	-43.8	-45.4	19.1	0.00e+00	0	42	0	133169152	60	6705
2026-01-20 14:52:58.58	21.00	8.39	-43.9	-45.5	19.2	0.00e+00	58	42	0	135266304	60	6800
2026-01-20 14:52:59.59	21.00	8.48	-44.0	-45.6	18.9	0.00e+00	0	42	0	137363456	60	6866
2026-01-20 14:53:00.60	21.00	8.56	-43.7	-45.2	19.3	0.00e+00	92	42	0	139460608	60	6604
2026-01-20 14:53:01.61	21.00	8.64	-44.1	-45.7	18.7	0.00e+00	0	41	0	141557760	60	6972
2026-01-20 14:53:02.62	21.01	8.72	-43.6	-45.1	19.6	0.00e+00	0	42	0	142606336	60	6507
2026-01-20 14:53:03.63	21.01	8.81	-43.8	-45.3	19.2	0.00e+00	0	42	0	144703488	60	6683
2026-01-20 14:53:04.63	21.01	8.89	-43.7	-45.2	19.3	0.00e+00	0	42	0	146800640	60	6572
2026-01-20 14:53:05.64	21.01	8.97	-44.0	-45.6	19.2	0.00e+00	0	41	0	148897792	60	6863
2026-01-20 14:53:06.65	21.02	9.06	-44.3	-46.1	18.3	0.00e+00	0	42	0	150994944	60	7257
2026-01-20 14:53:07.66	21.02	9.14	-43.3	-44.8	19.7	0.00e+00	92	42	0	152043520	60	6277
2026-01-20 14:53:08.67	21.02	9.23	-43.5	-45.0	19.6	0.00e+00	0	42	0	154140672	60	6408
2026-01-20 14:53:09.68	21.02	9.31	-43.7	-45.2	19.4	0.00e+00	31	42	0	156237824	60	6592
2026-01-20 14:53:10.68	21.02	9.40	-43.4	-44.9	19.6	0.00e+00	0	42	0	158334976	60	6325
2026-01-20 14:53:11.69	21.03	9.48	-43.8	-45.4	19.2	0.00e+00	0	42	0	160432128	60	6727
2026-01-20 14:53:12.70	21.03	9.57	-43.4	-44.9	19.6	0.00e+00	60	42	0	161480704	60	6334
2026-01-20 14:53:13.71	21.03	9.65	-43.5	-45.0	19.5	0.00e+00	0	42	0	163577856	60	6452
2026-01-20 14:53:14.72	21.03	9.74	-43.6	-45.1	19.6	0.00e+00	92	42	0	165675008	60	6519
2026-01-20 14:53:15.73	21.04	9.83	-43.4	-44.8	19.8	0.00e+00	0	41	0	167772160	60	6307
2026-01-20 14:53:16.74	21.04	9.91	-43.0	-44.4	20.1	0.00e+00	61	41	0	169869312	60	6013
2026-01-20 14:53:17.75	21.04	10.00	-43.1	-44.5	20.0	0.00e+00	0	42	0	170917888	60	6094
2026-01-20 14:53:18.76	21.04	10.09	-43.1	-44.4	20.0	0.00e+00	0	42	0	173015040	60	6032
2026-01-20 14:53:19.77	21.04	10.18	-43.2	-44.7	19.8	0.00e+00	41	42	0	175112192	60	6190
2026-01-20 14:53:20.78	21.05	10.26	-43.2	-44.6	19.9	0.00e+00	0	42	0	177209344	60	6152
2026-01-20 14:53:21.79	21.05	10.35	-43.4	-44.8	19.9	0.00e+00	59	42	0	179306496	60	6270
2026-01-20 14:53:22.80	21.05	10.44	-42.9	-44.2	20.2	0.00e+00	0	42	0	180355072	60	5868
2026-01-20 14:53:23.80	21.05	10.53	-43.0	-44.4	20.1	0.00e+00	92	42	0	182452224	60	5998
2026-01-20 14:53:24.82	21.05	10.62	-42.9	-44.2	20.2	0.00e+00	0	42	0	184549376	60	5887
2026-01-20 14:53:25.83	21.06	10.71	-42.9	-44.2	20.3	0.00e+00	0	42	0	186646528	60	5881
2026-01-20 14:53:26.84	21.06	10.80	-43.2	-44.6	20.0	0.00e+00	0	42	0	188743680	60	6140
2026-01-20 14:53:27.85	21.06	10.89	-42.6	-43.9	20.6	0.00e+00	0	42	0	190840832	58	6320
2026-01-20 14:53:28.86	21.06	10.98	-43.7	-45.2	19.6	0.00e+00	57	42	0	191889408	58	7340
2026-01-20 14:53:29.87	21.06	11.07	-43.0	-44.3	20.2	0.00e+00	0	42	0	193986560	58	6653
2026-01-20 14:53:30.88	21.07	11.16	-42.8	-44.1	20.4	0.00e+00	63	42	0	196083712	58	6511
2026-01-20 14:53:31.89	21.07	11.26	-43.3	-44.7	19.9	0.00e+00	0	42	0	198180864	58	6950
2026-01-20 14:53:32.90	21.07	11.35	-43.0	-44.3	20.4	0.00e+00	0	42	0	200278016	58	6686
2026-01-20 14:53:33.91	21.07	11.44	-42.9	-44.2	20.3	0.00e+00	0	42	0	201326592	58	6577
2026-01-20 14:53:34.92	21.07	11.53	-42.7	-44.0	20.6	0.00e+00	0	42	0	203423744	58	6391
2026-01-20 14:53:35.93	21.08	11.63	-42.2	-43.4	21.0	0.00e+00	65	42	0	205520896	58	6026
2026-01-20 14:53:36.94	21.08	11.72	-42.5	-43.8	20.6	0.00e+00	0	42	0	207618048	58	6272
2026-01-20 14:53:37.95	21.08	11.81	-42.4	-43.7	20.8	0.00e+00	73	42	0	209715200	58	6199
2026-01-20 14:53:38.96	21.08	11.91	-42.1	-43.4	21.0	0.00e+00	0	42	0	210763776	58	5971
2026-01-20 14:53:39.97	21.08	12.00	-42.3	-43.6	20.9	0.00e+00	7	42	0	212860928	58	6115
2026-01-20 14:53:40.98	21.08	12.10	-42.4	-43.6	20.8	0.00e+00	0	42	0	214958080	58	6171
2026-01-20 14:53:41.99	21.09	12.19	-42.2	-43.5	21.0	0.00e+00	0	42	0	217055232	58	6060
2026-01-20 14:53:42.99	21.09	12.29	-42.0	-43.2	21.1	0.00e+00	65	42	0	219152384	58	5873
2026-01-20 14:53:44.00	21.09	12.39	-42.0	-43.2	21.2	0.00e+00	0	42	0	220200960	58	5869
2026-01-20 14:53:45.01	21.09	12.48	-42.3	-43.6	20.8	0.00e+00	92	42	0	222298112	58	6114
2026-01-20 14:53:46.02	21.09	12.58	-41.8	-42.9	21.4	0.00e+00	0	42	0	224395264	58	5676
2026-01-20 14:53:47.03	21.10	12.68	-42.0	-43.2	21.1	0.00e+00	29	42	0	226492416	58	5880
2026-01-20 14:53:48.04	21.10	12.77	-42.0	-43.2	21.2	0.00e+00	0	42	0	228589568	58	5843
2026-01-20 14:53:49.05	21.10	12.87	-42.1	-43.3	21.1	0.00e+00	0	42	0	229638144	58	5904
2026-01-20 14:53:50.05	21.10	12.97	-41.8	-43.0	21.4	0.00e+00	0	42	0	231735296	56	6411
2026-01-20 14:53:51.06	21.10	13.07	-41.8	-43.0	21.4	0.00e+00	0	42	0	233832448	56	6407
2026-01-20 14:53:52.07	21.10	13.17	-41.8	-42.9	21.5	0.00e+00	57	42	0	235929600	56	6366
2026-01-20 14:53:53.08	21.10	13.27	-42.0	-43.2	21.2	0.00e+00	0	42	0	238026752	56	6567
2026-01-20 14:53:54.09	21.11	13.37	-41.5	-42.5	22.0	0.00e+00	92	42	0	239075328	56	6099
2026-01-20 14:53:55.10	21.11	13.47	-41.8	-43.0	21.4	0.00e+00	0	42	0	241172480	56	6404
2026-01-20 14:53:56.11	21.11	13.57	-41.9	-43.0	21.3	0.00e+00	0	42	0	243269632	56	6449
2026-01-20 14:53:57.12	21.11	13.67	-41.3	-42.3	21.8	0.00e+00	0	42	0	245366784	56	5955
2026-01-20 14:53:58.13	21.11	13.77	-41.2	-42.3	22.1	0.00e+00	0	42	0	247463936	56	5907
2026-01-20 14:53:59.14	21.11	13.87	-41.1	-42.2	22.2	0.00e+00	77	42	0	248512512	56	5842
2026-01-20 14:54:00.15	21.12	13.98	-41.2	-42.2	22.1	0.00e+00	0	42	0	250609664	56	5866
2026-01-20 14:54:01.15	21.12	14.08	-41.2	-42.3	22.1	0.00e+00	41	42	0	252706816	56	5944
2026-01-20 14:54:02.16	21.12	14.18	-41.2	-42.2	22.1	0.00e+00	0	42	0	254803968	56	5875
2026-01-20 14:54:03.17	21.12	14.29	-41.0	-42.0	22.3	0.00e+00	0	42	0	256901120	56	5722
2026-01-20 14:54:04.18	21.12	14.39	-41.4	-42.5	22.0	0.00e+00	0	42	0	258998272	56	6036
2026-01-20 14:54:05.19	21.12	14.50	-41.2	-42.3	22.1	0.00e+00	0	42	0	260046848	56	5931
2026-01-20 14:54:06.20	21.12	14.60	-40.9	-42.0	22.4	0.00e+00	62	42	0	262144000	56	5706
2026-01-20 14:54:07.21	21.12	14.71	-41.1	-42.2	22.1	0.00e+00	0	42	0	264241152	56	5851
2026-01-20 14:54:08.22	21.13	14.81	-41.0	-42.0	22.2	0.00e+00	92	42	0	266338304	56	5758
2026-01-20 14:54:09.22	21.13	14.92	-41.0	-42.0	22.1	0.00e+00	33	42	0	268435456	56	5717
2026-01-20 14:54:10.24	21.13	15.03	-41.2	-42.2	22.0	0.00e+00	0	42	0	269484032	56	5875
2026-01-20 14:54:11.24	21.13	15.13	-41.2	-42.2	21.8	0.00e+00	0	42	0	271581184	56	5876
2026-01-20 14:54:12.25	21.13	15.24	-41.6	-42.7	21.6	0.00e+00	0	42	0	273678336	56	6179
2026-01-20 14:54:13.26	21.13	15.35	-41.1	-42.2	21.8	0.00e+00	0	42	0	275775488	56	5839
2026-01-20 14:54:14.27	21.13	15.46	-41.4	-42.5	21.7	0.00e+00	0	42	0	277872640	56	6046
2026-01-20 14:54:15.28	21.13	15.57	-41.3	-42.3	22.2	0.00e+00	92	42	0	278921216	56	5933
2026-01-20 14:54:16.29	21.14	15.68	-41.1	-42.2	21.9	0.00e+00	0	42	0	281018368	56	5855
2026-01-20 14:54:17.30	21.14	15.79	-41.0	-42.0	22.4	0.00e+00	59	42	0	283115520	56	5736
2026-01-20 14:54:18.31	21.14	15.90	-40.8	-41.8	22.4	0.00e+00	0	42	0	285212672	54	6314
2026-01-20 14:54:19.32	21.14	16.01	-40.7	-41.7	22.6	0.00e+00	0	42	0	287309824	54	6213
2026-01-20 14:54:20.33	21.14	16.13	-40.8	-41.8	22.4	0.00e+00	0	42	0	288358400	54	6305
2026-01-20 14:54:21.33	21.14	16.24	-40.7	-41.7	22.5	0.00e+00	0	42	0	290455552	54	6216
2026-01-20 14:54:22.34	21.14	16.35	-40.8	-41.8	22.2	0.00e+00	92	42	0	292552704	54	6287
2026-01-20 14:54:23.35	21.14	16.46	-41.1	-42.1	22.3	0.00e+00	0	42	0	294649856	54	6504
2026-01-20 14:54:24.36	21.14	16.58	-40.9	-42.0	22.3	0.00e+00	90	42	0	296747008	54	6403
2026-01-20 14:54:25.37	21.14	16.69	-41.0	-42.0	22.4	0.00e+00	0	42	0	297795584	54	6436
2026-01-20 14:54:26.38	21.14	16.81	-40.6	-41.6	22.7	0.00e+00	0	42	0	299892736	54	6107
2026-01-20 14:54:27.39	21.15	16.92	-40.8	-41.8	22.4	0.00e+00	17	42	0	301989888	54	6311
2026-01-20 14:54:28.40	21.15	17.04	-40.5	-41.5	22.8	0.00e+00	0	42	0	304087040	54	6053
2026-01-20 14:54:29.40	21.15	17.16	-40.4	-41.4	22.8	0.00e+00	63	42	0	306184192	54	5988
2026-01-20 14:54:30.41	21.15	17.27	-40.5	-41.5	22.8	0.00e+00	0	42	0	307232768	54	6059
2026-01-20 14:54:31.42	21.15	17.39	-40.4	-41.3	22.9	0.00e+00	75	42	0	309329920	54	5952
2026-01-20 14:54:32.43	21.15	17.51	-40.4	-41.4	22.9	0.00e+00	0	42	0	311427072	54	5973
2026-01-20 14:54:33.44	21.15	17.63	-40.3	-41.3	22.9	0.00e+00	0	42	0	313524224	54	5929
2026-01-20 14:54:34.45	21.15	17.75	-40.3	-41.3	23.0	0.00e+00	0	42	0	315621376	54	5903
2026-01-20 14:54:35.46	21.15	17.87	-40.1	-41.1	23.1	0.00e+00	0	42	0	316669952	54	5776
2026-01-20 14:54:36.47	21.15	17.99	-40.7	-41.7	22.5	0.00e+00	57	42	0	318767104	54	6224
2026-01-20 14:54:37.48	21.15	18.11	-40.4	-41.4	22.8	0.00e+00	0	42	0	320864256	54	6011
2026-01-20 14:54:38.49	21.15	18.23	-40.5	-41.4	22.8	0.00e+00	63	42	0	322961408	54	6031
2026-01-20 14:54:39.49	21.15	18.36	-40.4	-41.4	23.0	0.00e+00	0	42	0	325058560	54	6005
2026-01-20 14:54:40.50	21.15	18.48	-40.4	-41.4	22.9	0.00e+00	0	42	0	326107136	54	5984
2026-01-20 14:54:41.51	21.15	18.60	-40.4	-41.4	22.9	0.00e+00	0	42	0	328204288	54	6020
2026-01-20 14:54:42.52	21.15	18.73	-40.4	-41.4	22.9	0.00e+00	0	42	0	330301440	54	6024
2026-01-20 14:54:43.53	21.15	18.85	-40.6	-41.6	22.8	0.00e+00	58	42	0	332398592	54	6133
2026-01-20 14:54:44.54	21.15	18.98	-40.6	-41.6	22.8	0.00e+00	0	42	0	334495744	54	6114
2026-01-20 14:54:45.55	21.16	19.11	-40.5	-41.5	22.8	0.00e+00	69	42	0	335544320	54	6065
2026-01-20 14:54:46.56	21.16	19.23	-40.6	-41.6	22.8	0.00e+00	0	42	0	337641472	54	6146
2026-01-20 14:54:47.57	21.16	19.36	-40.7	-41.7	22.7	0.00e+00	0	42	0	339738624	54	6198
2026-01-20 14:54:48.58	21.16	19.49	-40.6	-41.6	22.7	0.00e+00	0	42	0	341835776	54	6140
2026-01-20 14:54:49.59	21.16	19.62	-40.7	-41.7	22.6	0.00e+00	0	42	0	343932928	54	6220
2026-01-20 14:54:50.60	21.16	19.75	-40.5	-41.5	22.7	0.00e+00	62	42	0	344981504	54	6103
2026-01-20 14:54:51.61	21.16	19.88	-40.8	-41.8	22.6	0.00e+00	0	42	0	347078656	54	6290
2026-01-20 14:54:52.61	21.16	20.01	-40.6	-41.7	22.6	0.00e+00	59	42	0	349175808	54	6177
2026-01-20 14:54:53.63	21.16	20.14	-40.7	-41.8	22.7	0.00e+00	0	42	0	351272960	54	6253
2026-01-20 14:54:54.64	21.16	20.28	-40.5	-41.5	22.7	0.00e+00	82	42	0	353370112	54	6092
2026-01-20 14:54:55.64	21.16	20.41	-40.7	-41.7	22.7	0.00e+00	0	42	0	355467264	54	6191
2026-01-20 14:54:56.65	21.16	20.54	-40.6	-41.6	22.9	0.00e+00	0	42	0	356515840	54	6119
2026-01-20 14:54:57.66	21.16	20.68	-40.8	-41.8	22.6	0.00e+00	0	42	0	358612992	54	6282
2026-01-20 14:54:58.67	21.16	20.81	-40.4	-41.4	22.9	0.00e+00	0	42	0	360710144	54	5981
2026-01-20 14:54:59.68	21.16	20.95	-40.6	-41.6	22.8	0.00e+00	72	42	0	362807296	54	6124
2026-01-20 14:55:00.69	21.16	21.09	-40.6	-41.6	22.8	0.00e+00	0	42	0	364904448	54	6110
2026-01-20 14:55:01.70	21.16	21.22	-40.6	-41.6	22.7	0.00e+00	92	42	0	365953024	54	6160
2026-01-20 14:55:02.71	21.15	21.36	-40.8	-41.8	22.6	0.00e+00	0	42	0	368050176	54	6288
2026-01-20 14:55:03.72	21.15	21.50	-40.8	-41.9	22.5	0.00e+00	0	42	0	370147328	54	6320
2026-01-20 14:55:04.73	21.15	21.64	-40.9	-42.0	22.5	0.00e+00	0	42	0	372244480	54	6420
2026-01-20 14:55:05.74	21.15	21.78	-41.0	-42.0	22.3	0.00e+00	0	42	0	374341632	54	6448
2026-01-20 14:55:06.75	21.15	21.93	-41.0	-42.0	22.4	0.00e+00	55	42	0	375390208	54	6440
2026-01-20 14:55:07.76	21.15	22.07	-40.9	-42.0	22.5	0.00e+00	0	42	0	377487360	54	6393
2026-01-20 14:55:08.76	21.15	22.21	-40.9	-41.9	22.5	0.00e+00	92	42	0	379584512	54	6375
2026-01-20 14:55:09.77	21.15	22.35	-40.9	-41.9	22.5	0.00e+00	0	42	0	381681664	54	6388
2026-01-20 14:55:10.78	21.15	22.50	-40.8	-41.8	22.6	0.00e+00	0	42	0	383778816	54	6290
2026-01-20 14:55:11.79	21.15	22.64	-40.7	-41.7	22.7	0.00e+00	0	42	0	384827392	54	6183
2026-01-20 14:55:12.80	21.15	22.79	-40.6	-41.6	22.6	0.00e+00	0	42	0	386924544	54	6154
2026-01-20 14:55:13.81	21.15	22.94	-40.7	-41.6	22.7	0.00e+00	1	42	0	389021696	54	6170
2026-01-20 14:55:14.82	21.15	23.09	-40.4	-41.4	22.8	0.00e+00	0	42	0	391118848	54	6011
2026-01-20 14:55:15.83	21.15	23.24	-40.8	-41.8	22.7	0.00e+00	71	42	0	393216000	54	6257
2026-01-20 14:55:16.84	21.15	23.39	-40.8	-41.8	22.7	0.00e+00	0	42	0	394264576	54	6317
2026-01-20 14:55:17.85	21.14	23.54	-40.9	-41.9	22.5	0.00e+00	0	42	0	396361728	54	6320
2026-01-20 14:55:18.85	21.14	23.69	-41.0	-42.0	22.6	0.00e+00	0	42	0	398458880	54	6442
2026-01-20 14:55:19.86	21.14	23.84	-40.8	-41.8	22.8	0.00e+00	0	42	0	400556032	54	6252
2026-01-20 14:55:20.87	21.14	23.99	-41.1	-42.1	22.4	0.00e+00	67	42	0	402653184	54	6480
2026-01-20 14:55:21.88	21.14	24.15	-41.0	-42.0	22.6	0.00e+00	0	42	0	403701760	54	6393
2026-01-20 14:55:22.89	21.14	24.30	-41.0	-42.0	22.5	0.00e+00	91	42	0	405798912	54	6415
2026-01-20 14:55:23.90	21.14	24.46	-40.7	-41.6	22.8	0.00e+00	0	42	0	407896064	54	6164
2026-01-20 14:55:24.91	21.14	24.62	-40.8	-41.8	22.7	0.00e+00	83	42	0	409993216	54	6286
2026-01-20 14:55:25.92	21.13	24.78	-40.9	-41.8	22.6	0.00e+00	0	42	0	412090368	54	6317
2026-01-20 14:55:26.93	21.13	24.94	-40.7	-41.6	22.9	0.00e+00	0	42	0	413138944	54	6154
2026-01-20 14:55:27.94	21.13	25.10	-40.4	-41.3	23.0	0.00e+00	0	42	0	415236096	54	5944
2026-01-20 14:55:28.95	21.13	25.26	-40.4	-41.3	23.1	0.00e+00	0	42	0	417333248	54	5946
2026-01-20 14:55:29.96	21.13	25.42	-40.3	-41.2	23.1	0.00e+00	91	42	0	419430400	54	5895
2026-01-20 14:55:30.96	21.13	25.58	-40.4	-41.3	23.2	0.00e+00	0	42	0	421527552	54	5905
2026-01-20 14:55:31.97	21.12	25.74	-40.5	-41.4	22.8	0.00e+00	18	42	0	423624704	54	6017
2026-01-20 14:55:32.98	21.12	25.91	-40.8	-41.8	22.8	0.00e+00	0	42	0	424673280	54	6267
2026-01-20 14:55:33.99	21.12	26.08	-40.5	-41.4	22.9	0.00e+00	0	42	0	426770432	54	6018
2026-01-20 14:55:35.00	21.12	26.24	-40.7	-41.6	22.9	0.00e+00	0	42	0	428867584	54	6137
2026-01-20 14:55:36.00	21.12	26.41	-40.8	-41.7	22.7	0.00e+00	0	42	0	430964736	54	6232
2026-01-20 14:55:37.01	21.12	26.58	-40.9	-41.9	22.6	0.00e+00	4	42	0	432013312	54	6355
2026-01-20 14:55:38.02	21.11	26.75	-41.1	-42.1	22.4	0.00e+00	0	42	0	434110464	54	6495
2026-01-20 14:55:39.03	21.11	26.92	-40.9	-41.8	22.7	0.00e+00	69	42	0	436207616	54	6306
2026-01-20 14:55:40.04	21.11	27.09	-40.8	-41.8	22.6	0.00e+00	0	42	0	438304768	54	6268
2026-01-20 14:55:41.05	21.11	27.27	-40.9	-41.8	22.6	0.00e+00	0	42	0	440401920	54	6311
2026-01-20 14:55:42.06	21.10	27.44	-40.7	-41.7	22.9	0.00e+00	0	42	0	441450496	54	6192
2026-01-20 14:55:43.07	21.10	27.62	-40.8	-41.8	22.7	0.00e+00	0	42	0	443547648	54	6274
2026-01-20 14:55:44.07	21.10	27.79	-41.3	-42.3	22.3	0.00e+00	7	42	0	445644800	54	6630
2026-01-20 14:55:45.08	21.10	27.97	-41.1	-42.1	22.5	0.00e+00	0	42	0	447741952	54	6478
2026-01-20 14:55:46.09	21.09	28.15	-41.2	-42.2	22.4	0.00e+00	55	42	0	449839104	54	6571
2026-01-20 14:55:47.10	21.09	28.33	-41.6	-42.7	22.0	0.00e+00	0	42	0	451936256	56	6199
2026-01-20 14:55:48.11	21.09	28.51	-41.7	-42.7	21.9	0.00e+00	0	42	0	452984832	56	6216
2026-01-20 14:55:49.12	21.08	28.70	-42.3	-43.4	21.4	0.00e+00	0	42	0	455081984	56	6712
2026-01-20 14:55:50.13	21.08	28.88	-42.6	-43.8	21.3	0.00e+00	0	42	0	457179136	56	7029
2026-01-20 14:55:51.14	21.08	29.07	-42.5	-43.7	21.2	0.00e+00	37	42	0	459276288	56	6979
2026-01-20 14:55:52.15	21.08	29.25	-42.9	-44.2	20.8	0.00e+00	0	42	0	461373440	58	6541
2026-01-20 14:55:53.16	21.07	29.44	-42.7	-43.9	21.0	0.00e+00	39	42	0	462422016	58	6319
2026-01-20 14:55:54.17	21.07	29.63	-42.2	-43.3	21.3	0.00e+00	0	42	0	464519168	58	5960
2026-01-20 14:55:55.18	21.07	29.82	-42.5	-43.7	21.2	0.00e+00	6	42	0	466616320	58	6238
2026-01-20 14:55:56.19	21.06	30.01	-42.5	-43.7	21.3	0.00e+00	33	42	0	468713472	58	6225
2026-01-20 14:55:57.20	21.06	30.20	-42.6	-43.8	20.9	0.00e+00	0	42	0	470810624	58	6260
2026-01-20 14:55:58.21	21.05	30.40	-42.8	-44.1	20.9	0.00e+00	65	42	0	471859200	58	6469
2026-01-20 14:55:59.22	21.05	30.59	-42.8	-44.1	21.0	0.00e+00	0	42	0	473956352	58	6480
2026-01-20 14:56:00.23	21.05	30.79	-43.1	-44.4	20.6	0.00e+00	74	42	0	476053504	58	6737
2026-01-20 14:56:01.24	21.04	30.99	-43.0	-44.3	20.6	0.00e+00	0	42	0	478150656	58	6667
2026-01-20 14:56:02.25	21.04	31.19	-43.1	-44.5	20.7	0.00e+00	92	42	0	480247808	58	6772
2026-01-20 14:56:03.26	21.03	31.39	-43.0	-44.3	20.7	0.00e+00	0	42	0	481296384	58	6660
2026-01-20 14:56:04.27	21.03	31.59	-43.0	-44.3	20.6	0.00e+00	0	42	0	483393536	58	6663
2026-01-20 14:56:05.28	21.03	31.80	-43.0	-44.3	20.8	0.00e+00	65	42	0	485490688	58	6679
2026-01-20 14:56:06.29	21.02	32.00	-42.9	-44.2	20.9	0.00e+00	0	42	0	487587840	58	6551
2026-01-20 14:56:07.30	21.02	32.21	-42.4	-43.6	21.2	0.00e+00	47	42	0	489684992	58	6155
2026-01-20 14:56:08.31	21.01	32.42	-42.5	-43.7	21.2	0.00e+00	0	42	0	490733568	58	6190
2026-01-20 14:56:09.32	21.01	32.63	-42.4	-43.6	21.2	0.00e+00	91	42	0	492830720	58	6140
2026-01-20 14:56:10.33	21.00	32.84	-42.6	-43.9	21.0	0.00e+00	0	42	0	494927872	58	6334
2026-01-20 14:56:11.34	21.00	33.05	-42.6	-43.8	21.0	0.00e+00	0	42	0	497025024	58	6281
2026-01-20 14:56:12.35	20.99	33.26	-43.1	-44.5	20.5	0.00e+00	0	42	0	499122176	58	6800
2026-01-20 14:56:13.36	20.99	33.48	-42.7	-43.9	21.1	0.00e+00	0	42	0	500170752	58	6368
2026-01-20 14:56:14.36	20.98	33.69	-43.1	-44.4	20.5	0.00e+00	27	42	0	502267904	58	6719
2026-01-20 14:56:15.38	20.97	33.91	-42.6	-43.9	21.2	0.00e+00	0	42	0	504365056	58	6326
2026-01-20 14:56:16.38	20.97	34.13	-42.4	-43.6	21.4	0.00e+00	92	42	0	506462208	58	6118
2026-01-20 14:56:17.39	20.96	34.35	-42.1	-43.3	21.7	0.00e+00	0	42	0	508559360	58	5903
2026-01-20 14:56:18.41	20.96	34.58	-41.8	-42.9	22.0	0.00e+00	0	42	0	509607936	56	6386
2026-01-20 14:56:19.41	20.95	34.80	-41.2	-42.2	22.5	0.00e+00	0	42	0	511705088	56	5893
2026-01-20 14:56:20.43	20.94	35.03	-41.2	-42.2	22.4	0.00e+00	0	42	0	513802240	56	5859
2026-01-20 14:56:21.43	20.94	35.26	-40.9	-41.9	22.7	0.00e+00	12	42	0	515899392	56	5677
2026-01-20 14:56:22.44	20.93	35.49	-40.5	-41.4	23.0	0.00e+00	0	42	0	517996544	54	6023
2026-01-20 14:56:23.45	20.92	35.72	-40.5	-41.4	22.9	0.00e+00	73	42	0	520093696	54	6023
2026-01-20 14:56:24.46	20.92	35.95	-40.2	-41.1	23.3	0.00e+00	0	42	0	521142272	54	5790
2026-01-20 14:56:25.47	20.91	36.19	-39.9	-40.8	23.6	0.00e+00	0	42	0	523239424	54	5573
2026-01-20 14:56:26.48	20.90	36.42	-39.7	-40.6	23.6	0.00e+00	0	42	0	525336576	54	5487
2026-01-20 14:56:27.49	20.90	36.66	-39.9	-40.8	23.7	0.00e+00	0	42	0	527433728	52	6296
2026-01-20 14:56:28.50	20.89	36.90	-39.5	-40.5	23.8	0.00e+00	0	42	0	529530880	52	6034
2026-01-20 14:56:29.51	20.88	37.14	-39.3	-40.2	24.0	0.00e+00	0	42	0	530579456	52	5882
2026-01-20 14:56:30.52	20.87	37.39	-39.6	-40.5	23.8	0.00e+00	75	42	0	532676608	52	6091
2026-01-20 14:56:31.53	20.86	37.63	-39.7	-40.6	23.7	0.00e+00	0	42	0	534773760	52	6167
2026-01-20 14:56:32.53	20.86	37.88	-39.7	-40.6	23.8	0.00e+00	0	42	0	536870912	52	6139
2026-01-20 14:56:33.54	20.85	38.13	-39.6	-40.5	23.8	0.00e+00	0	42	0	538968064	52	6083
2026-01-20 14:56:34.55	20.84	38.38	-39.4	-40.3	24.0	0.00e+00	0	42	0	540016640	52	5909
2026-01-20 14:56:35.56	20.83	38.63	-39.3	-40.1	24.2	0.00e+00	0	42	0	542113792	52	5799
2026-01-20 14:56:36.57	20.82	38.89	-39.1	-39.9	24.3	0.00e+00	0	42	0	544210944	52	5688
2026-01-20 14:56:37.58	20.81	39.14	-39.2	-40.0	24.3	0.00e+00	64	42	0	546308096	52	5743
2026-01-20 14:56:38.59	20.80	39.40	-39.2	-40.0	24.3	0.00e+00	0	42	0	548405248	52	5717
2026-01-20 14:56:39.60	20.79	39.66	-39.0	-39.8	24.2	0.00e+00	92	42	0	549453824	52	5625
2026-01-20 14:56:40.61	20.78	39.93	-39.4	-40.2	24.1	0.00e+00	0	42	0	551550976	52	5876
2026-01-20 14:56:41.62	20.77	40.19	-39.6	-40.5	23.7	0.00e+00	0	42	0	553648128	52	6086
2026-01-20 14:56:42.63	20.76	40.46	-39.6	-40.5	23.7	0.00e+00	0	42	0	555745280	52	6084
2026-01-20 14:56:43.64	20.75	40.73	-39.5	-40.4	23.7	0.00e+00	0	42	0	557842432	52	6027
2026-01-20 14:56:44.65	20.74	41.00	-39.4	-40.3	23.7	0.00e+00	88	42	0	558891008	52	5928
2026-01-20 14:56:45.66	20.73	41.27	-39.8	-40.8	23.1	0.00e+00	0	42	0	560988160	52	6267
2026-01-20 14:56:46.67	20.72	41.54	-39.6	-40.5	23.7	0.00e+00	92	42	0	563085312	52	6071
2026-01-20 14:56:47.68	20.71	41.82	-39.8	-40.8	23.5	0.00e+00	0	42	0	565182464	52	6266
2026-01-20 14:56:48.69	20.69	42.10	-39.7	-40.6	23.7	0.00e+00	0	42	0	567279616	52	6168
2026-01-20 14:56:49.70	20.68	42.38	-39.7	-40.7	23.6	0.00e+00	0	42	0	568328192	52	6182
2026-01-20 14:56:50.71	20.67	42.66	-40.1	-41.0	23.6	0.00e+00	0	42	0	570425344	52	6444
2026-01-20 14:56:51.72	20.66	42.95	-40.1	-41.1	23.4	0.00e+00	22	42	0	572522496	52	6472
2026-01-20 14:56:52.73	20.64	43.24	-40.6	-41.6	23.1	0.00e+00	0	42	0	574619648	52	6856
2026-01-20 14:56:53.74	20.63	43.53	-40.5	-41.4	23.1	0.00e+00	66	42	0	576716800	52	6753
2026-01-20 14:56:54.75	20.62	43.82	-40.5	-41.5	23.2	0.00e+00	0	42	0	577765376	52	6778
2026-01-20 14:56:55.75	20.60	44.11	-40.4	-41.4	23.3	0.00e+00	0	42	0	579862528	52	6696
2026-01-20 14:56:56.76	20.59	44.41	-40.8	-41.8	22.9	0.00e+00	0	42	0	581959680	54	6257
2026-01-20 14:56:57.77	20.57	44.71	-40.7	-41.7	22.6	0.00e+00	0	42	0	584056832	54	6216
2026-01-20 14:56:58.78	20.56	45.01	-41.0	-42.0	22.7	0.00e+00	64	42	0	586153984	54	6424
2026-01-20 14:56:59.79	20.54	45.31	-41.8	-42.9	21.8	0.00e+00	0	42	0	588251136	54	7149
2026-01-20 14:57:00.80	20.53	45.62	-42.6	-43.8	21.1	0.00e+00	92	42	0	589299712	56	7060
2026-01-20 14:57:01.81	20.51	45.92	-42.8	-44.1	20.9	0.00e+00	0	42	0	591396864	56	7268
2026-01-20 14:57:02.82	20.50	46.23	-42.7	-43.9	21.1	0.00e+00	0	42	0	593494016	58	6378
2026-01-20 14:57:03.83	20.48	46.55	-42.3	-43.4	21.5	0.00e+00	0	42	0	595591168	58	6009
2026-01-20 14:57:04.84	20.46	46.86	-42.1	-43.2	21.8	0.00e+00	0	42	0	597688320	58	5846
2026-01-20 14:57:05.85	20.44	47.18	-41.8	-42.9	22.1	0.00e+00	0	42	0	598736896	58	5635
2026-01-20 14:57:06.85	20.42	47.50	-42.6	-43.8	21.4	0.00e+00	0	42	0	600834048	56	7010
2026-01-20 14:57:07.86	20.41	47.82	-42.6	-43.8	21.4	0.00e+00	67	42	0	602931200	56	7023
2026-01-20 14:57:08.87	20.39	48.14	-42.6	-43.8	20.5	0.00e+00	0	42	0	605028352	58	6271
2026-01-20 14:57:09.88	20.37	48.47	-42.8	-44.1	21.0	0.00e+00	0	42	0	607125504	58	6469
2026-01-20 14:57:10.89	20.35	48.80	-43.1	-44.5	20.6	0.00e+00	0	42	0	608174080	58	6784
2026-01-20 14:57:11.90	20.33	49.13	-42.6	-43.9	21.2	0.00e+00	0	42	0	610271232	58	6326
2026-01-20 14:57:12.91	20.30	49.47	-42.3	-43.5	21.5	0.00e+00	65	42	0	612368384	58	6088
2026-01-20 14:57:13.92	20.28	49.80	-41.9	-43.0	21.9	0.00e+00	0	42	0	614465536	58	5741
2026-01-20 14:57:14.93	20.26	50.14	-41.5	-42.6	22.2	0.00e+00	92	42	0	616562688	56	6118
2026-01-20 14:57:15.94	20.24	50.49	-41.6	-42.7	22.1	0.00e+00	0	42	0	617611264	56	6242
2026-01-20 14:57:16.95	20.21	50.83	-40.9	-41.9	22.7	0.00e+00	80	42	0	619708416	56	5683
2026-01-20 14:57:17.96	20.19	51.18	-40.2	-41.1	23.4	0.00e+00	0	42	0	621805568	54	5805
2026-01-20 14:57:18.96	20.16	51.52	-39.9	-40.8	23.6	0.00e+00	0	42	0	623902720	54	5583
2026-01-20 14:57:19.97	20.14	51.88	-39.7	-40.6	23.9	0.00e+00	41	42	0	625999872	52	6104
2026-01-20 14:57:20.98	20.11	52.23	-39.9	-40.8	23.5	0.00e+00	0	42	0	627048448	52	6278
2026-01-20 14:57:21.99	20.09	52.59	-40.4	-41.3	23.3	0.00e+00	20	42	0	629145600	52	6683
2026-01-20 14:57:23.00	20.06	52.95	-40.3	-41.2	23.5	0.00e+00	0	42	0	631242752	52	6605
2026-01-20 14:57:24.01	20.03	53.31	-39.6	-40.5	24.1	0.00e+00	86	42	0	633339904	52	6063
2026-01-20 14:57:25.02	20.00	53.68	-38.5	-39.2	24.8	0.00e+00	0	42	0	635437056	50	5871
2026-01-20 14:57:26.03	19.97	54.05	-38.0	-38.8	25.0	0.00e+00	0	42	0	636485632	50	5575
2026-01-20 14:57:27.04	19.94	54.42	-38.3	-39.1	24.8	0.00e+00	0	42	0	638582784	50	5791
2026-01-20 14:57:28.05	19.91	54.79	-39.1	-39.9	24.3	0.00e+00	0	42	0	640679936	50	6373
2026-01-20 14:57:29.05	19.87	55.16	-39.4	-40.3	24.0	0.00e+00	1	42	0	642777088	50	6624
2026-01-20 14:57:30.06	19.84	55.54	-39.5	-40.4	24.1	0.00e+00	0	42	0	644874240	50	6728
2026-01-20 14:57:31.07	19.80	55.92	-39.5	-40.4	24.0	0.00e+00	54	42	0	645922816	50	6735
2026-01-20 14:57:32.08	19.77	56.31	-39.5	-40.4	23.8	0.00e+00	0	42	0	648019968	50	6732
2026-01-20 14:57:33.09	19.73	56.69	-39.7	-40.6	23.8	0.00e+00	0	42	0	650117120	50	6887
2026-01-20 14:57:34.10	19.69	57.08	-39.8	-40.7	23.6	0.00e+00	0	42	0	652214272	52	6187
2026-01-20 14:57:35.11	19.65	57.48	-39.7	-40.6	23.7	0.00e+00	0	42	0	654311424	52	6143
2026-01-20 14:57:36.12	19.61	57.87	-39.9	-40.8	23.6	0.00e+00	36	42	0	656408576	52	6272
2026-01-20 14:57:37.13	19.57	58.27	-40.2	-41.1	23.3	0.00e+00	0	42	0	657457152	52	6520
2026-01-20 14:57:38.14	19.52	58.67	-41.0	-42.0	22.5	0.00e+00	74	42	0	659554304	54	6441
2026-01-20 14:57:39.15	19.48	59.07	-41.6	-42.8	22.1	0.00e+00	0	42	0	661651456	56	6261
2026-01-20 14:57:40.16	19.43	59.48	-41.9	-43.1	21.9	0.00e+00	0	42	0	663748608	56	6475
2026-01-20 14:57:41.16	19.38	59.88	-41.4	-42.5	22.4	0.00e+00	0	42	0	664797184	56	6080
2026-01-20 14:57:42.17	19.33	60.29	-41.1	-42.2	22.6	0.00e+00	0	42	0	666894336	56	5838
2026-01-20 14:57:43.18	19.28	60.71	-41.2	-42.3	22.5	0.00e+00	73	42	0	668991488	56	5902
2026-01-20 14:57:44.19	19.23	61.12	-40.9	-41.9	22.8	0.00e+00	0	42	0	671088640	56	5667
2026-01-20 14:57:45.20	19.17	61.54	-40.3	-41.2	23.3	0.00e+00	91	42	0	673185792	54	5888
2026-01-20 14:57:46.20	19.12	61.96	-39.3	-40.2	24.3	0.00e+00	33	42	0	674234368	52	5834
2026-01-20 14:57:47.21	19.06	62.39	-38.8	-39.6	24.5	0.00e+00	91	42	0	676331520	50	6149
2026-01-20 14:57:48.22	18.99	62.81	-38.2	-39.0	24.8	0.00e+00	0	42	0	678428672	50	5722
2026-01-20 14:57:49.23	18.93	63.24	-37.5	-38.2	25.3	0.00e+00	33	42	0	680525824	48	5883
2026-01-20 14:57:50.24	18.86	63.67	-37.6	-38.3	25.4	0.00e+00	0	42	0	682622976	48	5935
2026-01-20 14:57:51.25	18.79	64.11	-37.9	-38.7	25.1	0.00e+00	0	42	0	684720128	48	6204
2026-01-20 14:57:52.26	18.72	64.55	-38.6	-39.4	24.6	0.00e+00	72	42	0	685768704	50	6028
2026-01-20 14:57:53.27	18.64	64.99	-39.3	-40.2	24.0	0.00e+00	0	42	0	687865856	50	6581
2026-01-20 14:57:54.28	18.56	65.43	-39.0	-39.8	24.3	0.00e+00	86	42	0	689963008	50	6301
2026-01-20 14:57:55.29	18.48	65.87	-39.3	-40.2	24.1	0.00e+00	0	42	0	692060160	50	6558
2026-01-20 14:57:56.30	18.40	66.32	-40.1	-41.0	23.3	0.00e+00	0	42	0	694157312	52	6399
2026-01-20 14:57:57.31	18.31	66.77	-40.4	-41.4	23.1	0.00e+00	0	42	0	695205888	54	5981
2026-01-20 14:57:58.32	18.21	67.22	-40.7	-41.7	23.0	0.00e+00	0	42	0	697303040	54	6214
2026-01-20 14:57:59.33	18.11	67.68	-40.8	-41.8	23.0	0.00e+00	47	42	0	699400192	54	6263
2026-01-20 14:58:00.32	18.01	68.12	-41.3	-42.3	22.1	0.00e+00	0	42	0	701497344	54	6687
2026-01-20 14:58:01.33	17.91	68.58	-42.4	-43.5	21.6	0.00e+00	92	42	0	703594496	56	6795
2026-01-20 14:58:02.34	17.79	69.04	-42.5	-43.6	21.2	0.00e+00	0	42	0	704643072	58	6156
2026-01-20 14:58:03.35	17.68	69.51	-43.8	-45.1	20.0	0.00e+00	0	42	0	706740224	58	7335
2026-01-20 14:58:04.36	17.55	69.97	-45.3	-47.1	18.3	0.00e+00	0	42	0	708837376	60	8167
2026-01-20 14:58:05.37	17.42	70.44	-45.2	-47.0	18.3	0.00e+00	0	42	0	710934528	60	8049
2026-01-20 14:58:06.37	17.28	70.91	-44.7	-46.3	19.0	0.00e+00	0	42	0	713031680	60	7503
2026-01-20 14:58:07.38	17.14	71.38	-44.2	-45.7	19.6	0.00e+00	0	42	0	714080256	60	6929
2026-01-20 14:58:08.39	16.98	71.85	-44.6	-46.2	19.1	0.00e+00	72	42	0	716177408	60	7391
2026-01-20 14:58:09.40	16.82	72.33	-45.1	-47.0	18.5	0.00e+00	0	42	0	718274560	60	8057
2026-01-20 14:58:10.41	16.65	72.81	-44.3	-45.9	19.1	0.00e+00	38	42	0	720371712	60	7164
2026-01-20 14:58:11.42	16.46	73.29	-43.2	-44.6	20.4	0.00e+00	0	42	0	722468864	60	6142
2026-01-20 14:58:12.43	16.27	73.77	-42.3	-43.5	21.5	0.00e+00	0	42	0	723517440	58	6059
2026-01-20 14:58:13.44	16.06	74.25	-42.4	-43.6	21.2	0.00e+00	0	42	0	725614592	58	6137
2026-01-20 14:58:14.45	15.84	74.74	-42.9	-44.2	20.9	0.00e+00	0	42	0	727711744	58	6604
2026-01-20 14:58:15.46	15.60	75.23	-42.5	-43.7	21.2	0.00e+00	91	42	0	729808896	58	6191
2026-01-20 14:58:16.47	15.34	75.71	-42.5	-43.6	21.3	0.00e+00	0	42	0	731906048	58	6138
2026-01-20 14:58:17.48	15.07	76.20	-42.9	-44.1	20.7	0.00e+00	0	42	0	732954624	58	6506
2026-01-20 14:58:18.48	14.78	76.69	-44.9	-46.6	18.6	0.00e+00	0	42	0	735051776	60	7768
2026-01-20 14:58:19.50	14.46	77.19	-45.5	-47.4	18.6	0.00e+00	0	42	0	737148928	60	8438
2026-01-20 14:58:20.51	14.11	77.68	-44.0	-45.4	19.8	0.00e+00	49	42	0	739246080	60	6757
2026-01-20 14:58:21.51	13.74	78.17	-44.5	-46.1	18.7	0.00e+00	0	42	0	741343232	60	7258
2026-01-20 14:58:22.52	13.33	78.67	-46.0	-48.1	17.6	0.00e+00	92	42	0	742391808	60	9176
2026-01-20 14:58:23.53	12.88	79.16	-44.6	-46.2	19.1	0.00e+00	0	42	0	744488960	60	7368
2026-01-20 14:58:24.54	12.39	79.66	-43.7	-45.1	20.3	0.00e+00	74	42	0	746586112	60	6481
2026-01-20 14:58:25.55	11.85	80.16	-42.2	-43.4	21.9	0.00e+00	0	42	0	748683264	58	5968
2026-01-20 14:58:26.56	11.25	80.66	-41.7	-42.7	22.2	0.00e+00	0	42	0	750780416	56	6204
2026-01-20 14:58:27.57	10.58	81.16	-43.5	-44.9	20.3	0.00e+00	17	42	0	752877568	58	7100
2026-01-20 14:58:28.58	9.82	81.65	-44.1	-45.7	19.6	0.00e+00	0	42	0	753926144	60	6967
2026-01-20 14:58:29.59	8.97	82.15	-42.7	-43.9	21.2	0.00e+00	66	42	0	756023296	58	6377
2026-01-20 14:58:30.60	8.00	82.65	-41.4	-42.5	22.4	0.00e+00	0	42	0	758120448	56	6053
2026-01-20 14:58:31.61	6.90	83.14	-41.0	-42.0	22.7	0.00e+00	92	42	0	760217600	56	5761
2026-01-20 14:58:32.62	5.61	83.63	-39.5	-40.4	24.0	0.00e+00	0	42	0	762314752	52	5979
2026-01-20 14:58:33.63	4.11	84.12	-39.0	-39.8	24.4	0.00e+00	0	42	0	763363328	52	5596
2026-01-20 14:58:34.64	2.34	84.61	-39.0	-39.8	24.3	0.00e+00	0	42	0	765460480	52	5586
2026-01-20 14:58:35.65	0.21	85.09	-39.1	-39.9	24.3	0.00e+00	0	42	0	767557632	50	6340
2026-01-20 14:58:36.66	357.63	85.56	-39.5	-40.3	23.9	0.00e+00	28	42	0	769654784	50	6655
2026-01-20 14:58:37.67	354.43	86.02	-39.3	-40.1	24.1	0.00e+00	0	42	0	771751936	52	5811
2026-01-20 14:58:38.68	350.41	86.47	-40.0	-40.8	23.4	0.00e+00	73	42	0	772800512	52	6300
2026-01-20 14:58:39.69	345.25	86.90	-41.6	-42.7	21.9	0.00e+00	0	42	0	774897664	54	6937
2026-01-20 14:58:40.70	338.52	87.29	-42.1	-43.2	21.8	0.00e+00	0	42	0	776994816	56	6561
2026-01-20 14:58:41.71	329.69	87.63	-43.3	-44.6	20.1	0.00e+00	0	42	0	779091968	58	6891
2026-01-20 14:58:42.72	318.26	87.90	-46.3	-48.8	16.7	0.00e+00	0	42	0	781189120	60	9996
2026-01-20 14:58:43.73	304.21	88.06	-42.6	-43.8	21.3	0.00e+00	73	42	0	782237696	58	6279
2026-01-20 14:58:44.74	288.69	88.10	-43.2	-44.5	20.7	0.00e+00	0	42	0	784334848	58	6794
2026-01-20 14:58:45.75	273.75	87.99	-44.4	-46.1	19.5	0.00e+00	92	42	0	786432000	60	7284
2026-01-20 14:58:46.76	261.07	87.76	-41.1	-42.1	22.6	0.00e+00	0	42	0	788529152	56	5824
2026-01-20 14:58:47.77	251.11	87.45	-41.7	-42.8	21.9	0.00e+00	0	42	0	790626304	56	6267
2026-01-20 14:58:48.78	243.50	87.08	-43.6	-44.9	20.2	0.00e+00	0	42	0	791674880	58	7149
2026-01-20 14:58:49.79	237.69	86.67	-42.5	-43.6	21.2	0.00e+00	0	42	0	793772032	58	6127
2026-01-20 14:58:50.79	233.23	86.23	-40.6	-41.5	22.9	0.00e+00	70	42	0	795869184	56	5423
2026-01-20 14:58:51.80	229.68	85.78	-40.3	-41.2	23.3	0.00e+00	0	42	0	797966336	54	5847
2026-01-20 14:58:52.81	226.83	85.31	-39.9	-40.8	23.4	0.00e+00	68	42	0	800063488	52	6316
2026-01-20 14:58:53.82	224.51	84.83	-39.8	-40.7	23.4	0.00e+00	0	42	0	801112064	52	6219
2026-01-20 14:58:54.83	222.58	84.35	-39.6	-40.5	23.8	0.00e+00	10	42	0	803209216	52	6064
2026-01-20 14:58:55.84	220.97	83.86	-38.8	-39.6	24.5	0.00e+00	0	42	0	805306368	52	5501
2026-01-20 14:58:56.85	219.59	83.37	-38.3	-39.0	24.9	0.00e+00	0	42	0	807403520	50	5760
2026-01-20 14:58:57.86	218.40	82.87	-38.6	-39.4	24.6	0.00e+00	33	42	0	809500672	50	5969
2026-01-20 14:58:58.87	217.37	82.38	-38.9	-39.7	24.3	0.00e+00	0	42	0	810549248	50	6215
2026-01-20 14:58:59.88	216.47	81.88	-40.9	-41.9	22.7	0.00e+00	72	42	0	812646400	54	6364
2026-01-20 14:59:00.89	215.67	81.38	-40.8	-41.8	22.6	0.00e+00	0	42	0	814743552	54	6295
2026-01-20 14:59:01.90	214.97	80.88	-39.5	-40.3	24.0	0.00e+00	82	42	0	816840704	52	5924
2026-01-20 14:59:02.91	214.33	80.39	-39.4	-40.2	24.1	0.00e+00	0	42	0	818937856	52	5887
2026-01-20 14:59:03.92	213.76	79.89	-40.0	-40.9	23.5	0.00e+00	0	42	0	821035008	52	6360
2026-01-20 14:59:04.93	213.25	79.39	-40.5	-41.5	22.9	0.00e+00	0	42	0	822083584	52	6772
2026-01-20 14:59:05.94	212.78	78.89	-42.2	-43.4	21.5	0.00e+00	0	42	0	824180736	54	7514
2026-01-20 14:59:06.95	212.36	78.40	-41.5	-42.6	22.4	0.00e+00	70	42	0	826277888	56	6135
2026-01-20 14:59:07.96	211.97	77.90	-40.7	-41.7	22.9	0.00e+00	0	42	0	828375040	54	6195
2026-01-20 14:59:08.97	211.61	77.41	-40.2	-41.1	23.1	0.00e+00	72	42	0	830472192	54	5797
2026-01-20 14:59:09.98	211.28	76.91	-40.0	-40.9	23.5	0.00e+00	0	42	0	831520768	54	5668
2026-01-20 14:59:10.99	210.97	76.42	-40.1	-41.0	23.5	0.00e+00	0	42	0	833617920	54	5707
2026-01-20 14:59:12.00	210.69	75.93	-39.9	-40.7	23.7	0.00e+00	0	42	0	835715072	54	5542
2026-01-20 14:59:13.01	210.42	75.44	-41.5	-42.5	22.4	0.00e+00	0	42	0	837812224	54	6847
2026-01-20 14:59:14.02	210.18	74.95	-41.3	-42.4	22.4	0.00e+00	70	42	0	839909376	56	5983
2026-01-20 14:59:15.03	209.95	74.46	-40.9	-41.9	22.9	0.00e+00	0	42	0	840957952	56	5662
2026-01-20 14:59:16.04	209.74	73.98	-40.6	-41.6	23.0	0.00e+00	73	42	0	843055104	54	6139
2026-01-20 14:59:17.05	209.53	73.50	-41.9	-43.0	21.7	0.00e+00	0	42	0	845152256	54	7190
2026-01-20 14:59:18.06	209.35	73.01	-41.9	-43.0	21.6	0.00e+00	0	42	0	847249408	56	6417
2026-01-20 14:59:19.07	209.17	72.53	-42.7	-44.0	20.8	0.00e+00	0	42	0	849346560	58	6441
2026-01-20 14:59:20.08	209.00	72.06	-43.8	-45.3	19.7	0.00e+00	0	42	0	850395136	58	7484
2026-01-20 14:59:21.08	208.84	71.59	-44.9	-46.7	18.7	0.00e+00	0	42	0	852492288	60	7841
2026-01-20 14:59:22.10	208.69	71.11	-45.3	-47.3	18.1	0.00e+00	0	42	0	854589440	60	8332
2026-01-20 14:59:23.11	208.55	70.63	-45.8	-48.0	17.0	0.00e+00	52	42	0	856686592	60	9053
2026-01-20 14:59:24.12	208.42	70.17	-46.8	-49.6	15.7	0.00e+00	0	42	0	858783744	60	10860
2026-01-20 14:59:25.13	208.29	69.70	-45.0	-46.7	19.0	0.00e+00	0	42	0	859832320	60	7797
2026-01-20 14:59:26.14	208.17	69.23	-43.6	-44.9	20.3	0.00e+00	0	42	0	861929472	60	6366
2026-01-20 14:59:27.15	208.05	68.77	-44.1	-45.5	19.6	0.00e+00	0	42	0	864026624	60	6834
2026-01-20 14:59:28.16	207.94	68.31	-43.2	-44.4	20.8	0.00e+00	17	42	0	866123776	60	6033
2026-01-20 14:59:29.16	207.84	67.85	-41.9	-43.0	22.0	0.00e+00	0	42	0	868220928	56	6393
2026-01-20 14:59:30.17	207.74	67.40	-42.5	-43.7	21.5	0.00e+00	92	42	0	869269504	56	6938
2026-01-20 14:59:31.18	207.64	66.94	-42.0	-43.1	21.8	0.00e+00	0	42	0	871366656	56	6509
2026-01-20 14:59:32.19	207.55	66.49	-40.5	-41.5	23.2	0.00e+00	62	42	0	873463808	54	6035
2026-01-20 14:59:33.19	207.46	66.05	-39.7	-40.6	23.6	0.00e+00	0	42	0	875560960	52	6147
2026-01-20 14:59:34.20	207.38	65.60	-40.0	-40.9	23.5	0.00e+00	0	42	0	877658112	52	6336
2026-01-20 14:59:35.21	207.30	65.16	-39.1	-40.0	24.3	0.00e+00	0	42	0	878706688	52	5702
2026-01-20 14:59:36.22	207.22	64.72	-39.0	-39.8	24.3	0.00e+00	0	42	0	880803840	52	5598
2026-01-20 14:59:37.23	207.15	64.28	-40.1	-41.0	23.6	0.00e+00	65	42	0	882900992	52	6424
2026-01-20 14:59:38.24	207.08	63.84	-40.1	-41.0	23.3	0.00e+00	0	42	0	884998144	52	6456
2026-01-20 14:59:39.25	207.01	63.41	-39.7	-40.6	23.8	0.00e+00	92	42	0	887095296	52	6108
2026-01-20 14:59:40.26	206.94	62.97	-39.6	-40.5	23.9	0.00e+00	0	42	0	888143872	52	6100
2026-01-20 14:59:41.27	206.88	62.54	-40.6	-41.6	23.3	0.00e+00	0	42	0	890241024	52	6905
2026-01-20 14:59:42.28	206.82	62.12	-38.8	-39.6	24.5	0.00e+00	0	42	0	892338176	52	5495
2026-01-20 14:59:43.29	206.76	61.69	-38.3	-39.2	24.7	0.00e+00	0	42	0	894435328	50	5829
2026-01-20 14:59:44.30	206.70	61.27	-39.4	-40.3	23.9	0.00e+00	13	42	0	896532480	50	6661
2026-01-20 14:59:45.31	206.65	60.86	-40.8	-41.8	22.8	0.00e+00	0	42	0	897581056	54	6267
2026-01-20 14:59:46.32	206.59	60.44	-41.1	-42.2	22.4	0.00e+00	90	42	0	899678208	54	6570
2026-01-20 14:59:47.33	206.54	60.03	-41.1	-42.2	22.6	0.00e+00	0	42	0	901775360	54	6558
2026-01-20 14:59:48.34	206.49	59.62	-40.5	-41.4	23.4	0.00e+00	0	42	0	903872512	54	6006
2026-01-20 14:59:49.35	206.45	59.21	-40.1	-41.0	23.4	0.00e+00	0	42	0	905969664	54	5756
2026-01-20 14:59:50.36	206.40	58.80	-40.8	-41.7	22.7	0.00e+00	0	42	0	907018240	54	6239
2026-01-20 14:59:51.37	206.36	58.40	-40.6	-41.5	23.2	0.00e+00	6	42	0	909115392	54	6036
2026-01-20 14:59:52.38	206.31	58.00	-39.9	-40.7	23.8	0.00e+00	0	42	0	911212544	52	6220
2026-01-20 14:59:53.38	206.27	57.61	-39.4	-40.2	24.1	0.00e+00	92	42	0	913309696	52	5880
2026-01-20 14:59:54.39	206.23	57.21	-39.4	-40.2	24.2	0.00e+00	0	42	0	915406848	52	5845
2026-01-20 14:59:55.40	206.19	56.82	-39.1	-39.9	24.4	0.00e+00	0	42	0	917504000	52	5632
2026-01-20 14:59:56.41	206.15	56.43	-39.4	-40.2	24.1	0.00e+00	0	42	0	918552576	52	5857
2026-01-20 14:59:57.42	206.12	56.05	-38.6	-39.4	24.4	0.00e+00	0	42	0	920649728	50	5983
2026-01-20 14:59:58.43	206.08	55.66	-38.1	-38.9	25.0	0.00e+00	0	42	0	922746880	50	5662
2026-01-20 14:59:59.44	206.05	55.28	-38.1	-38.9	24.9	0.00e+00	0	42	0	924844032	48	6368
2026-01-20 15:00:00.45	206.01	54.90	-38.5	-39.3	24.8	0.00e+00	67	42	0	926941184	48	6675
2026-01-20 15:00:01.46	205.98	54.53	-39.2	-40.1	24.0	0.00e+00	0	42	0	927989760	50	6516
2026-01-20 15:00:02.47	205.95	54.16	-40.1	-41.1	23.3	0.00e+00	32	42	0	930086912	52	6467
2026-01-20 15:00:03.48	205.92	53.78	-40.6	-41.6	23.0	0.00e+00	0	42	0	932184064	54	6138
2026-01-20 15:00:04.49	205.89	53.42	-40.6	-41.5	23.2	0.00e+00	0	42	0	934281216	54	6071
2026-01-20 15:00:05.50	205.86	53.05	-40.2	-41.1	23.2	0.00e+00	0	42	0	936378368	54	5784
2026-01-20 15:00:06.51	205.83	52.69	-40.6	-41.6	22.9	0.00e+00	0	42	0	937426944	54	6125
2026-01-20 15:00:07.52	205.80	52.33	-42.1	-43.3	21.8	0.00e+00	92	42	0	939524096	56	6648
2026-01-20 15:00:08.53	205.77	51.97	-43.0	-44.4	20.7	0.00e+00	0	42	0	941621248	58	6744
2026-01-20 15:00:09.54	205.75	51.62	-44.1	-45.9	19.5	0.00e+00	48	42	0	943718400	60	7120
2026-01-20 15:00:10.55	205.72	51.27	-43.2	-44.7	20.6	0.00e+00	0	42	0	945815552	60	6184
2026-01-20 15:00:11.56	205.70	50.92	-42.6	-43.8	21.5	0.00e+00	0	42	0	946864128	58	6272
2026-01-20 15:00:12.57	205.67	50.57	-41.9	-43.1	21.9	0.00e+00	0	42	0	948961280	58	5785
2026-01-20 15:00:13.58	205.65	50.23	-41.7	-42.8	22.1	0.00e+00	0	42	0	951058432	56	6271
2026-01-20 15:00:14.59	205.63	49.89	-42.3	-43.5	21.6	0.00e+00	62	42	0	953155584	56	6791
2026-01-20 15:00:15.60	205.61	49.55	-42.8	-44.2	20.9	0.00e+00	0	42	0	955252736	58	6553
2026-01-20 15:00:16.61	205.58	49.21	-43.1	-44.4	20.7	0.00e+00	65	42	0	956301312	58	6764
2026-01-20 15:00:17.62	205.56	48.88	-43.8	-45.2	20.0	0.00e+00	0	42	0	958398464	58	7394
2026-01-20 15:00:18.63	205.54	48.54	-45.6	-47.7	17.8	0.00e+00	0	42	0	960495616	60	8748
2026-01-20 15:00:19.64	205.52	48.22	-46.2	-48.6	16.9	0.00e+00	0	42	0	962592768	60	9727
2026-01-20 15:00:20.65	205.50	47.89	-44.9	-46.7	18.9	0.00e+00	0	42	0	964689920	60	7832
2026-01-20 15:00:21.66	205.48	47.56	-42.4	-43.6	21.4	0.00e+00	57	42	0	965738496	58	6148
2026-01-20 15:00:22.67	205.46	47.24	-40.7	-41.7	22.9	0.00e+00	0	42	0	967835648	56	5534
2026-01-20 15:00:23.68	205.45	46.92	-40.6	-41.5	23.1	0.00e+00	66	42	0	969932800	54	6084
2026-01-20 15:00:24.69	205.43	46.61	-41.3	-42.4	22.4	0.00e+00	0	42	0	972029952	54	6697
2026-01-20 15:00:25.70	205.41	46.29	-41.2	-42.3	22.4	0.00e+00	0	42	0	974127104	54	6633
2026-01-20 15:00:26.71	205.39	45.98	-42.4	-43.6	20.6	0.00e+00	0	42	0	975175680	56	6915
2026-01-20 15:00:27.72	205.38	45.67	-43.7	-45.2	20.1	0.00e+00	0	42	0	977272832	58	7355
2026-01-20 15:00:28.72	205.36	45.37	-45.5	-47.7	17.9	0.00e+00	7	42	0	979369984	60	8752
2026-01-20 15:00:29.74	205.34	45.06	-46.6	-49.5	15.9	0.00e+00	0	42	0	981467136	60	10797
2026-01-20 15:00:30.75	205.33	44.76	-46.7	-49.5	16.0	0.00e+00	92	42	0	983564288	60	10821
2026-01-20 15:00:31.76	205.31	44.46	-44.9	-46.7	18.7	0.00e+00	0	42	0	985661440	60	7799
2026-01-20 15:00:32.76	205.30	44.16	-43.8	-45.3	20.0	0.00e+00	21	42	0	986710016	60	6658
2026-01-20 15:00:33.77	205.29	43.86	-42.5	-43.7	21.3	0.00e+00	0	42	0	988807168	58	6207
2026-01-20 15:00:34.78	205.27	43.57	-41.7	-42.8	22.1	0.00e+00	0	42	0	990904320	56	6256
2026-01-20 15:00:35.79	205.26	43.28	-41.6	-42.6	22.2	0.00e+00	67	42	0	993001472	56	6160
2026-01-20 15:00:36.80	205.24	42.99	-41.3	-42.4	22.5	0.00e+00	0	42	0	995098624	56	5976
2026-01-20 15:00:37.81	205.23	42.70	-42.3	-43.4	21.5	0.00e+00	90	42	0	996147200	56	6764
2026-01-20 15:00:38.82	205.22	42.42	-42.4	-43.7	20.1	0.00e+00	0	42	0	998244352	56	6952
2026-01-20 15:00:39.83	205.21	42.14	-43.6	-45.1	19.9	0.00e+00	0	42	0	1000341504	58	7334
2026-01-20 15:00:40.84	205.19	41.85	-44.2	-45.9	19.3	0.00e+00	0	42	0	1002438656	60	7136
2026-01-20 15:00:41.85	205.18	41.58	-44.8	-46.7	18.8	0.00e+00	0	42	0	1004535808	60	7798
2026-01-20 15:00:42.86	205.17	41.30	-43.7	-45.2	20.2	0.00e+00	0	42	0	1005584384	60	6576
2026-01-20 15:00:43.87	205.16	41.03	-43.3	-44.8	20.3	0.00e+00	0	42	0	1007681536	60	6248
2026-01-20 15:00:44.88	205.15	40.75	-42.9	-44.3	21.0	0.00e+00	87	42	0	1009778688	58	6625
2026-01-20 15:00:45.89	205.14	40.48	-41.8	-43.0	22.0	0.00e+00	0	42	0	1011875840	58	5708
2026-01-20 15:00:46.90	205.13	40.22	-41.7	-42.8	22.2	0.00e+00	92	42	0	1013972992	58	5574
2026-01-20 15:00:47.91	205.11	39.95	-41.7	-42.8	22.2	0.00e+00	0	42	0	1015021568	56	6262
2026-01-20 15:00:48.91	205.10	39.69	-41.4	-42.4	22.5	0.00e+00	0	42	0	1017118720	56	5992
2026-01-20 15:00:49.92	205.09	39.43	-42.0	-43.2	21.8	0.00e+00	0	42	0	1019215872	56	6548
2026-01-20 15:00:50.93	205.08	39.17	-43.0	-44.3	20.8	0.00e+00	0	42	0	1021313024	58	6644
2026-01-20 15:00:51.94	205.07	38.91	-43.8	-45.3	20.0	0.00e+00	67	42	0	1023410176	60	6660
2026-01-20 15:00:52.95	205.07	38.65	-44.3	-45.9	19.4	0.00e+00	0	42	0	1024458752	60	7091
2026-01-20 15:00:53.96	205.06	38.40	-44.8	-46.6	18.8	0.00e+00	92	42	0	1026555904	60	7686
2026-01-20 15:00:54.97	205.05	38.14	-45.1	-46.9	19.0	0.00e+00	0	42	0	1028653056	60	8014
2026-01-20 15:00:55.98	205.04	37.89	-43.9	-45.4	20.1	0.00e+00	0	42	0	1030750208	60	6716
2026-01-20 15:00:56.99	205.03	37.64	-43.5	-45.0	20.4	0.00e+00	0	42	0	1032847360	60	6431
2026-01-20 15:00:58.00	205.02	37.40	-43.2	-44.6	20.8	0.00e+00	0	42	0	1033895936	60	6105
2026-01-20 15:00:59.01	205.01	37.15	-42.5	-43.7	21.5	0.00e+00	67	42	0	1035993088	58	6203
2026-01-20 15:01:00.02	205.00	36.91	-42.5	-43.7	21.3	0.00e+00	0	42	0	1038090240	58	6216
2026-01-20 15:01:01.03	205.00	36.67	-42.2	-43.4	21.5	0.00e+00	71	42	0	1040187392	58	5975
2026-01-20 15:01:02.04	204.99	36.43	-42.4	-43.5	21.5	0.00e+00	0	42	0	1042284544	58	6077
2026-01-20 15:01:03.05	204.98	36.19	-42.3	-43.4	21.7	0.00e+00	0	42	0	1043333120	58	6015
2026-01-20 15:01:04.06	204.97	35.95	-42.5	-43.6	21.5	0.00e+00	0	42	0	1045430272	58	6151
2026-01-20 15:01:05.07	204.97	35.72	-41.7	-42.8	22.2	0.00e+00	0	42	0	1047527424	56	6260
2026-01-20 15:01:06.08	204.96	35.49	-41.9	-42.9	22.1	0.00e+00	46	42	0	1049624576	56	6381
2026-01-20 15:01:07.08	204.95	35.26	-42.5	-43.6	21.4	0.00e+00	0	42	0	1051721728	56	6923
2026-01-20 15:01:08.09	204.95	35.03	-43.0	-44.3	20.9	0.00e+00	68	42	0	1053818880	58	6631
2026-01-20 15:01:09.10	204.94	34.80	-44.0	-45.5	19.7	0.00e+00	0	42	0	1054867456	60	6803
2026-01-20 15:01:10.11	204.93	34.57	-45.3	-47.2	18.1	0.00e+00	31	42	0	1056964608	60	8249
2026-01-20 15:01:11.12	204.93	34.35	-46.8	-49.3	15.6	0.00e+00	0	42	0	1059061760	60	10561
2026-01-20 15:01:12.13	204.92	34.13	-47.3	-50.2	15.1	0.00e+00	0	42	0	1061158912	60	11636
2026-01-20 15:01:13.14	204.91	33.90	-47.8	-51.1	14.2	0.00e+00	41	42	0	1063256064	60	13018
2026-01-20 15:01:14.15	204.91	33.68	-47.5	-50.5	14.9	0.00e+00	0	42	0	1064304640	60	12175
2026-01-20 15:01:15.16	204.90	33.47	-46.4	-48.8	16.6	0.00e+00	92	42	0	1066401792	60	9938
2026-01-20 15:01:16.17	204.90	33.25	-45.2	-46.9	18.7	0.00e+00	0	42	0	1068498944	60	7988
2026-01-20 15:01:17.18	204.89	33.03	-43.9	-45.3	20.2	0.00e+00	92	42	0	1070596096	60	6628
2026-01-20 15:01:18.19	204.88	32.82	-43.0	-44.2	21.1	0.00e+00	0	42	0	1072693248	60	5849
2026-01-20 15:01:19.20	204.88	32.61	-41.6	-42.6	22.2	0.00e+00	0	42	0	1073741824	58	5501
2026-01-20 15:01:20.21	204.87	32.40	-41.4	-42.4	22.5	0.00e+00	0	42	0	1075838976	56	5983
2026-01-20 15:01:21.21	204.87	32.19	-41.1	-42.1	22.6	0.00e+00	0	42	0	1077936128	56	5792
2026-01-20 15:01:22.22	204.86	31.98	-41.7	-42.7	22.3	0.00e+00	92	42	0	1080033280	56	6191
2026-01-20 15:01:23.23	204.86	31.78	-41.9	-43.0	21.9	0.00e+00	0	42	0	1082130432	56	6404
2026-01-20 15:01:24.24	204.85	31.57	-42.5	-43.7	21.3	0.00e+00	63	42	0	1083179008	56	6953
2026-01-20 15:01:25.25	204.85	31.37	-42.8	-44.0	21.1	0.00e+00	0	42	0	1085276160	58	6419
2026-01-20 15:01:26.26	204.84	31.17	-42.8	-44.0	21.1	0.00e+00	0	42	0	1087373312	58	6444
2026-01-20 15:01:27.27	204.84	30.97	-42.9	-44.2	21.0	0.00e+00	0	42	0	1089470464	58	6555
2026-01-20 15:01:28.28	204.84	30.77	-42.6	-43.8	21.4	0.00e+00	0	42	0	1091567616	58	6257
2026-01-20 15:01:29.29	204.83	30.57	-42.2	-43.3	21.7	0.00e+00	59	42	0	1092616192	58	5941
2026-01-20 15:01:30.30	204.83	30.37	-42.2	-43.4	21.6	0.00e+00	0	42	0	1094713344	58	5975
2026-01-20 15:01:31.31	204.82	30.18	-42.5	-43.6	21.2	0.00e+00	66	42	0	1096810496	58	6152
2026-01-20 15:01:32.32	204.82	29.98	-43.1	-44.3	20.7	0.00e+00	0	42	0	1098907648	58	6675
2026-01-20 15:01:33.33	204.81	29.79	-43.4	-44.8	20.4	0.00e+00	0	42	0	1101004800	58	7017
2026-01-20 15:01:34.34	204.81	29.60	-44.4	-46.0	19.2	0.00e+00	0	42	0	1102053376	60	7192
2026-01-20 15:01:35.34	204.81	29.41	-45.0	-46.7	18.6	0.00e+00	0	42	0	1104150528	60	7808
2026-01-20 15:01:36.35	204.80	29.22	-45.3	-47.1	18.3	0.00e+00	66	42	0	1106247680	60	8144
2026-01-20 15:01:37.36	204.80	29.03	-45.1	-46.8	18.7	0.00e+00	0	42	0	1108344832	60	7919
2026-01-20 15:01:38.37	204.80	28.85	-44.9	-46.5	19.0	0.00e+00	65	42	0	1110441984	60	7654
2026-01-20 15:01:39.38	204.79	28.66	-44.1	-45.5	19.9	0.00e+00	0	42	0	1111490560	60	6825
2026-01-20 15:01:40.39	204.79	28.48	-42.6	-43.8	21.4	0.00e+00	0	42	0	1113587712	60	5594
2026-01-20 15:01:41.40	204.79	28.30	-41.9	-42.9	22.1	0.00e+00	0	42	0	1115684864	58	5693
2026-01-20 15:01:42.41	204.78	28.12	-41.4	-42.4	22.6	0.00e+00	0	42	0	1117782016	56	5980
2026-01-20 15:01:43.42	204.78	27.94	-41.2	-42.2	22.6	0.00e+00	21	42	0	1119879168	56	5892
2026-01-20 15:01:44.43	204.78	27.76	-40.6	-41.6	23.1	0.00e+00	0	42	0	1121976320	54	6131
2026-01-20 15:01:45.44	204.77	27.58	-40.6	-41.5	23.4	0.00e+00	91	42	0	1123024896	54	6084
2026-01-20 15:01:46.44	204.77	27.40	-40.2	-41.1	23.4	0.00e+00	0	42	0	1125122048	54	5780
2026-01-20 15:01:47.45	204.77	27.23	-40.2	-41.1	23.5	0.00e+00	64	42	0	1127219200	54	5780
2026-01-20 15:01:48.46	204.76	27.05	-40.1	-41.0	23.5	0.00e+00	0	42	0	1129316352	54	5696
2026-01-20 15:01:49.47	204.76	26.88	-40.1	-41.0	23.5	0.00e+00	0	42	0	1131413504	54	5737
2026-01-20 15:01:50.48	204.76	26.71	-40.2	-41.1	23.5	0.00e+00	0	42	0	1132462080	54	5772
2026-01-20 15:01:51.49	204.76	26.54	-39.9	-40.8	23.7	0.00e+00	0	42	0	1134559232	54	5604
2026-01-20 15:01:52.50	204.75	26.37	-39.9	-40.8	23.5	0.00e+00	92	42	0	1136656384	52	6287
2026-01-20 15:01:53.51	204.75	26.20	-40.3	-41.2	23.4	0.00e+00	0	42	0	1138753536	52	6582
2026-01-20 15:01:54.52	204.75	26.03	-40.4	-41.3	23.5	0.00e+00	46	42	0	1140850688	52	6617
2026-01-20 15:01:55.53	204.75	25.86	-40.3	-41.2	23.5	0.00e+00	0	42	0	1141899264	52	6595
2026-01-20 15:01:56.53	204.74	25.70	-40.5	-41.4	23.2	0.00e+00	0	42	0	1143996416	52	6711
2026-01-20 15:01:57.54	204.74	25.53	-40.9	-41.9	22.9	0.00e+00	0	42	0	1146093568	54	6342
2026-01-20 15:01:58.55	204.74	25.37	-40.6	-41.6	23.1	0.00e+00	0	42	0	1148190720	54	6119
2026-01-20 15:01:59.56	204.74	25.21	-40.8	-41.7	23.1	0.00e+00	59	42	0	1150287872	54	6209
2026-01-20 15:02:00.57	204.74	25.04	-41.1	-42.1	22.7	0.00e+00	0	42	0	1151336448	54	6528
2026-01-20 15:02:01.58	204.73	24.88	-40.7	-41.6	23.0	0.00e+00	92	42	0	1153433600	54	6157
2026-01-20 15:02:02.59	204.73	24.72	-40.7	-41.7	23.0	0.00e+00	0	42	0	1155530752	54	6223
2026-01-20 15:02:03.60	204.73	24.56	-40.6	-41.6	23.1	0.00e+00	0	42	0	1157627904	54	6143
2026-01-20 15:02:04.61	204.73	24.41	-40.1	-41.0	23.6	0.00e+00	0	42	0	1159725056	54	5748
2026-01-20 15:02:05.62	204.73	24.25	-40.2	-41.2	23.3	0.00e+00	0	42	0	1160773632	54	5859
2026-01-20 15:02:06.63	204.72	24.09	-40.0	-41.0	23.5	0.00e+00	59	42	0	1162870784	54	5704
2026-01-20 15:02:07.64	204.72	23.94	-39.8	-40.7	23.5	0.00e+00	0	42	0	1164967936	52	6217
2026-01-20 15:02:08.65	204.72	23.78	-40.0	-40.9	23.4	0.00e+00	90	42	0	1167065088	52	6368
2026-01-20 15:02:09.66	204.72	23.63	-40.3	-41.3	23.3	0.00e+00	0	42	0	1169162240	52	6634
2026-01-20 15:02:10.67	204.72	23.48	-40.4	-41.3	23.3	0.00e+00	0	42	0	1170210816	52	6672
2026-01-20 15:02:11.68	204.72	23.33	-40.8	-41.8	22.8	0.00e+00	0	42	0	1172307968	54	6268
2026-01-20 15:02:12.69	204.72	23.17	-40.9	-41.9	22.5	0.00e+00	0	42	0	1174405120	54	6365
2026-01-20 15:02:13.70	204.71	23.02	-41.2	-42.3	22.3	0.00e+00	0	42	0	1176502272	54	6634
2026-01-20 15:02:14.71	204.71	22.88	-41.4	-42.5	22.2	0.00e+00	0	42	0	1178599424	54	6811
2026-01-20 15:02:15.72	204.71	22.73	-41.5	-42.5	22.1	0.00e+00	90	42	0	1179648000	54	6844
2026-01-20 15:02:16.72	204.71	22.58	-41.3	-42.4	22.3	0.00e+00	0	42	0	1181745152	54	6741
2026-01-20 15:02:17.73	204.71	22.44	-41.5	-42.6	22.2	0.00e+00	49	42	0	1183842304	54	6863
2026-01-20 15:02:18.74	204.71	22.29	-41.0	-42.0	22.6	0.00e+00	0	42	0	1185939456	54	6411
2026-01-20 15:02:19.75	204.71	22.15	-40.9	-41.9	22.6	0.00e+00	0	42	0	1188036608	54	6370
2026-01-20 15:02:20.76	204.71	22.00	-40.7	-41.7	22.8	0.00e+00	2	42	0	1189085184	54	6217
2026-01-20 15:02:21.77	204.70	21.86	-40.3	-41.2	23.2	0.00e+00	0	42	0	1191182336	54	5860
2026-01-20 15:02:22.78	204.70	21.72	-40.2	-41.1	23.2	0.00e+00	92	42	0	1193279488	54	5796
2026-01-20 15:02:23.79	204.70	21.57	-40.0	-41.0	23.3	0.00e+00	0	42	0	1195376640	54	5704
2026-01-20 15:02:24.79	204.70	21.43	-40.0	-41.0	23.3	0.00e+00	94	42	0	1197473792	54	5704
2026-01-20 15:02:25.80	204.70	21.29	-40.1	-41.1	23.2	0.00e+00	0	42	0	1198522368	52	6468
2026-01-20 15:02:26.81	204.70	21.16	-39.8	-40.7	23.4	0.00e+00	0	42	0	1200619520	52	6197
2026-01-20 15:02:27.82	204.70	21.02	-40.1	-41.1	23.3	0.00e+00	0	42	0	1202716672	52	6490
2026-01-20 15:02:28.84	204.70	20.88	-39.9	-40.8	23.5	0.00e+00	0	42	0	1204813824	52	6268
2026-01-20 15:02:29.84	204.70	20.74	-40.1	-41.1	23.1	0.00e+00	60	42	0	1206910976	52	6489
2026-01-20 15:02:30.85	204.70	20.61	-40.1	-41.0	23.1	0.00e+00	0	42	0	1207959552	52	6442
2026-01-20 15:02:31.86	204.70	20.47	-40.2	-41.2	23.1	0.00e+00	92	42	0	1210056704	52	6554
2026-01-20 15:02:32.87	204.69	20.34	-40.7	-41.7	22.6	0.00e+00	0	42	0	1212153856	52	6944
2026-01-20 15:02:33.88	204.69	20.20	-40.7	-41.7	22.6	0.00e+00	0	42	0	1214251008	54	6195
