passes_logs/2026/01/20/R4.6S_Anadyr/R4.6S_Anadyr__20260120_030926_NOAA_20_JPSS-1_rec.log

#Pass ID: 20260120_030926_NOAA 20 (JPSS-1)
#Satellite: NOAA 20 (JPSS-1)
#Configuration: NOAA 20
#almurnet v.1.7.20251203
#Start time: 2026-01-20 03:09:28

#Version: 2.2.20231116
#Station: R4.6S_Anadyr
#Location: 177.4865 lon 64.73178 lat
#TLE: 1 43013U 17073A   26019.27717929  .00000087  00000+0  62288-4 0  9995
#TLE: 2 43013  98.7641 320.1715 0001339  33.1986 326.9274 14.19537047423343

#Time	Az	El	Level	Level2	SNR	BER	BlckErr	Temp	State	Recorded	gain1	gain2
2026-01-20 03:09:28.14	235.17	0.06	-53.3	-68.2	3.5	1.51e+00	0	39	0	0	60	93115
2026-01-20 03:09:29.14	235.26	0.11	-54.2	-69.5	3.6	1.51e+00	0	40	104	0	60	107395
2026-01-20 03:09:30.15	235.35	0.15	-53.8	-69.0	3.6	1.51e+00	0	40	104	0	60	101840
2026-01-20 03:09:31.16	235.44	0.19	-53.4	-68.7	3.6	1.51e+00	0	40	104	0	60	98898
2026-01-20 03:09:32.17	235.53	0.24	-53.9	-69.1	3.5	1.51e+00	0	40	104	0	60	103145
2026-01-20 03:09:33.18	235.62	0.28	-53.6	-68.8	3.6	1.51e+00	0	40	104	0	60	99945
2026-01-20 03:09:34.19	235.71	0.33	-53.0	-68.2	3.6	1.51e+00	0	40	104	0	60	93248
2026-01-20 03:09:35.20	235.81	0.37	-53.4	-68.7	3.6	1.51e+00	0	40	104	0	60	97919
2026-01-20 03:09:36.21	235.90	0.41	-53.9	-69.2	3.6	1.51e+00	0	40	104	0	60	103892
2026-01-20 03:09:37.23	235.99	0.46	-53.5	-68.7	3.6	1.51e+00	0	40	104	0	60	98388
2026-01-20 03:09:38.24	236.08	0.50	-53.3	-68.5	3.6	1.51e+00	0	40	104	0	60	96650
2026-01-20 03:09:39.25	236.18	0.55	-53.3	-68.7	3.6	1.51e+00	0	40	104	0	60	98160
2026-01-20 03:09:40.26	236.27	0.59	-53.0	-68.3	3.6	1.51e+00	0	40	104	0	60	94316
2026-01-20 03:09:41.26	236.36	0.63	-53.4	-68.9	3.6	1.51e+00	0	40	104	0	60	100519
2026-01-20 03:09:42.27	236.45	0.68	-52.5	-67.9	3.6	1.51e+00	0	40	104	0	60	89554
2026-01-20 03:09:43.28	236.55	0.72	-51.4	-66.8	3.5	1.51e+00	0	40	104	0	60	79430
2026-01-20 03:09:44.29	236.64	0.77	-51.3	-66.6	3.6	1.51e+00	0	40	104	0	60	77116
2026-01-20 03:09:45.30	236.73	0.81	-51.2	-66.4	3.6	1.51e+00	0	40	104	0	60	75557
2026-01-20 03:09:46.32	236.83	0.86	-51.6	-66.8	3.6	1.51e+00	0	40	104	0	60	79046
2026-01-20 03:09:47.33	236.92	0.90	-51.8	-67.1	3.6	1.51e+00	0	40	104	0	60	81578
2026-01-20 03:09:48.33	237.02	0.94	-51.4	-66.6	3.5	1.51e+00	0	40	104	0	60	77684
2026-01-20 03:09:49.35	237.11	0.99	-51.0	-66.3	3.6	1.51e+00	0	40	104	0	60	74395
2026-01-20 03:09:50.35	237.21	1.03	-51.5	-66.6	3.6	1.51e+00	0	40	104	0	60	77547
2026-01-20 03:09:51.36	237.30	1.08	-51.4	-66.6	3.6	1.51e+00	0	41	104	0	60	76979
2026-01-20 03:09:52.37	237.40	1.12	-50.7	-66.0	3.6	1.51e+00	0	41	104	0	60	71740
2026-01-20 03:09:53.39	237.50	1.16	-50.3	-65.5	3.6	1.51e+00	0	41	104	0	60	68340
2026-01-20 03:09:54.40	237.59	1.21	-49.4	-64.6	3.6	1.51e+00	0	41	104	0	60	61187
2026-01-20 03:09:55.41	237.69	1.25	-49.0	-64.2	3.6	1.51e+00	0	40	104	0	60	58318
2026-01-20 03:09:56.42	237.79	1.30	-49.0	-64.1	3.6	1.51e+00	0	41	104	0	60	58228
2026-01-20 03:09:57.42	237.88	1.34	-48.9	-64.0	3.6	1.51e+00	0	40	104	0	60	57618
2026-01-20 03:09:58.43	237.98	1.38	-49.0	-64.2	3.6	1.51e+00	0	41	104	0	60	58485
2026-01-20 03:09:59.44	238.08	1.43	-49.3	-64.5	3.6	1.51e+00	0	41	104	0	60	60529
2026-01-20 03:10:00.45	238.18	1.47	-49.7	-64.8	3.6	1.51e+00	0	41	104	0	60	62758
2026-01-20 03:10:01.46	238.28	1.52	-49.4	-64.5	3.6	1.51e+00	0	41	104	0	60	60777
2026-01-20 03:10:02.47	238.37	1.56	-49.2	-64.4	3.6	1.51e+00	0	41	104	0	60	59655
2026-01-20 03:10:03.48	238.47	1.60	-49.2	-64.4	3.6	1.51e+00	0	41	104	0	60	59896
2026-01-20 03:10:04.49	238.57	1.65	-50.7	-65.9	3.6	1.51e+00	0	41	104	0	60	70995
2026-01-20 03:10:05.50	238.67	1.69	-50.2	-65.3	3.6	1.51e+00	0	41	104	0	60	66318
2026-01-20 03:10:06.51	238.77	1.74	-50.0	-65.1	3.6	1.51e+00	0	41	104	0	60	65331
2026-01-20 03:10:07.52	238.87	1.78	-50.4	-65.6	3.6	1.51e+00	0	41	104	0	60	68741
2026-01-20 03:10:08.53	238.97	1.83	-50.2	-65.3	3.6	1.51e+00	0	41	104	0	60	66907
2026-01-20 03:10:09.54	239.07	1.87	-50.5	-65.6	3.6	1.51e+00	0	41	104	0	60	69253
2026-01-20 03:10:10.55	239.17	1.91	-50.2	-65.3	3.6	1.51e+00	0	41	104	0	60	66801
2026-01-20 03:10:11.56	239.27	1.96	-49.6	-64.6	3.6	1.51e+00	0	41	104	0	60	61566
2026-01-20 03:10:12.57	239.38	2.00	-49.3	-64.4	3.6	1.51e+00	0	41	104	0	60	59783
2026-01-20 03:10:13.58	239.48	2.05	-49.2	-64.1	3.6	1.51e+00	0	41	104	0	60	57985
2026-01-20 03:10:14.59	239.58	2.09	-49.0	-64.1	3.6	1.51e+00	0	41	104	0	60	57922
2026-01-20 03:10:15.60	239.68	2.13	-48.8	-63.8	3.6	1.51e+00	0	41	104	0	60	55774
2026-01-20 03:10:16.61	239.78	2.18	-48.9	-63.8	3.6	1.51e+00	0	41	104	0	60	56073
2026-01-20 03:10:17.62	239.89	2.22	-49.1	-64.1	3.6	1.51e+00	0	41	104	0	60	57854
2026-01-20 03:10:18.63	239.99	2.27	-49.4	-64.3	3.6	1.51e+00	0	41	104	0	60	59544
2026-01-20 03:10:19.64	240.09	2.31	-49.3	-63.8	3.6	1.51e+00	0	41	104	0	60	56057
2026-01-20 03:10:20.65	240.20	2.35	-49.2	-63.9	3.6	1.51e+00	0	41	104	0	60	56450
2026-01-20 03:10:21.66	240.30	2.40	-48.8	-63.2	3.6	1.51e+00	0	41	104	0	60	52540
2026-01-20 03:10:22.67	240.41	2.44	-48.9	-63.3	3.6	1.51e+00	0	41	104	0	60	52636
2026-01-20 03:10:23.68	240.51	2.49	-49.0	-62.6	3.6	1.51e+00	0	41	104	0	60	48625
2026-01-20 03:10:24.69	240.62	2.53	-49.0	-62.6	3.6	1.51e+00	0	41	104	0	60	48768
2026-01-20 03:10:25.70	240.72	2.58	-48.7	-61.8	3.6	1.51e+00	0	41	104	0	60	44311
2026-01-20 03:10:26.71	240.83	2.62	-48.5	-60.9	3.7	1.46e+00	0	41	104	0	60	40252
2026-01-20 03:10:27.72	240.93	2.66	-48.5	-61.3	3.7	1.51e+00	0	41	104	0	60	41853
2026-01-20 03:10:28.73	241.04	2.71	-48.7	-62.0	3.6	1.54e+00	0	41	104	0	60	45658
2026-01-20 03:10:29.74	241.15	2.75	-48.6	-60.6	4.0	1.50e+00	0	41	104	0	60	38778
2026-01-20 03:10:30.75	241.25	2.80	-48.6	-60.6	3.7	1.22e+00	0	41	104	0	60	38567
2026-01-20 03:10:31.76	241.36	2.84	-48.6	-60.7	3.7	1.41e+00	0	41	104	0	60	39393
2026-01-20 03:10:32.77	241.47	2.88	-48.7	-59.5	4.2	6.57e-01	36	41	0	0	60	34298
2026-01-20 03:10:33.78	241.57	2.93	-48.8	-60.9	3.8	1.48e+00	0	41	104	0	60	40323
2026-01-20 03:10:34.79	241.68	2.97	-48.7	-57.9	4.4	1.29e+00	0	41	0	1048576	60	28323
2026-01-20 03:10:35.80	241.79	3.02	-48.8	-60.8	3.7	1.34e+00	0	41	104	2097152	60	39773
2026-01-20 03:10:36.81	241.90	3.06	-49.6	-64.9	3.6	1.26e+00	0	41	104	2097152	60	63216
2026-01-20 03:10:37.82	242.01	3.10	-48.9	-63.9	3.6	1.51e+00	0	41	104	2097152	60	56434
2026-01-20 03:10:38.83	242.12	3.15	-48.4	-55.9	6.5	1.32e+00	0	41	104	2097152	60	22630
2026-01-20 03:10:39.84	242.23	3.19	-48.7	-56.1	6.5	2.08e-01	0	41	0	2097152	60	23100
2026-01-20 03:10:40.85	242.34	3.23	-48.8	-58.8	4.1	3.72e-01	42	41	0	4194304	60	31316
2026-01-20 03:10:41.86	242.45	3.28	-48.3	-54.8	7.9	1.06e-01	0	41	0	6291456	60	19834
2026-01-20 03:10:42.87	242.56	3.32	-48.3	-54.9	7.5	1.54e-01	0	41	0	8388608	60	20038
2026-01-20 03:10:43.88	242.67	3.37	-48.4	-54.2	8.7	1.12e-01	0	41	0	9437184	60	18614
2026-01-20 03:10:44.89	242.78	3.41	-48.4	-54.5	8.3	4.56e-02	0	41	0	11534336	60	19102
2026-01-20 03:10:45.90	242.89	3.45	-47.9	-53.2	9.6	1.81e-03	0	41	0	13631488	60	16564
2026-01-20 03:10:46.90	243.00	3.50	-48.2	-54.2	9.2	6.14e-02	0	41	0	15728640	60	18644
2026-01-20 03:10:47.91	243.11	3.54	-47.9	-53.8	8.2	1.90e-02	0	41	0	17825792	60	17699
2026-01-20 03:10:48.92	243.23	3.59	-48.2	-54.9	7.1	6.03e-02	0	41	0	18874368	60	20035
2026-01-20 03:10:49.93	243.34	3.63	-48.1	-54.3	7.7	1.94e-01	0	41	0	20971520	60	18728
2026-01-20 03:10:50.94	243.45	3.67	-48.3	-54.8	8.2	8.14e-02	0	41	0	23068672	60	19874
2026-01-20 03:10:51.94	243.57	3.72	-48.9	-54.4	9.3	1.66e-02	0	41	0	25165824	60	19005
2026-01-20 03:10:52.95	243.68	3.76	-49.0	-53.9	9.5	9.35e-03	0	41	0	27262976	60	17811
2026-01-20 03:10:53.96	243.79	3.80	-49.1	-54.8	10.3	5.61e-03	0	41	0	28311552	60	19834
2026-01-20 03:10:54.97	243.91	3.85	-48.1	-52.2	11.6	1.01e-03	0	41	0	30408704	60	14773
2026-01-20 03:10:55.98	244.02	3.89	-48.3	-53.3	10.1	2.11e-03	0	41	0	32505856	60	16664
2026-01-20 03:10:56.99	244.14	3.93	-47.2	-51.3	13.0	4.30e-03	0	41	0	34603008	60	13264
2026-01-20 03:10:58.00	244.25	3.98	-48.1	-52.5	11.3	5.35e-04	0	41	0	36700160	60	15273
2026-01-20 03:10:59.01	244.37	4.02	-48.2	-53.0	10.8	1.84e-03	0	41	0	38797312	60	16112
2026-01-20 03:11:00.02	244.48	4.06	-48.4	-53.0	11.3	1.46e-03	0	41	0	39845888	60	16084
2026-01-20 03:11:01.03	244.60	4.11	-48.9	-54.3	9.6	5.23e-03	0	41	0	41943040	60	18707
2026-01-20 03:11:02.04	244.72	4.15	-47.8	-51.7	12.3	1.63e-03	0	41	0	44040192	60	13914
2026-01-20 03:11:03.05	244.83	4.20	-47.6	-51.2	12.5	2.47e-04	0	41	0	46137344	60	13128
2026-01-20 03:11:04.06	244.95	4.24	-48.1	-52.6	11.2	1.78e-04	0	41	0	48234496	60	15476
2026-01-20 03:11:05.07	245.07	4.28	-47.8	-52.0	12.0	3.94e-04	0	41	0	49283072	60	14378
2026-01-20 03:11:06.08	245.19	4.33	-48.4	-53.5	10.3	2.57e-03	0	41	0	51380224	60	17200
2026-01-20 03:11:07.09	245.31	4.37	-47.9	-52.0	12.5	1.35e-02	0	41	0	53477376	60	14358
2026-01-20 03:11:08.10	245.42	4.41	-48.2	-52.7	11.2	6.17e-05	0	41	0	55574528	60	15644
2026-01-20 03:11:09.11	245.54	4.46	-47.8	-51.4	14.0	2.37e-03	0	41	0	57671680	60	13421
2026-01-20 03:11:10.12	245.66	4.50	-48.1	-51.7	11.8	0.00e+00	0	41	0	58720256	60	13837
2026-01-20 03:11:11.13	245.78	4.54	-48.6	-53.1	10.9	6.61e-04	0	41	0	60817408	60	16272
2026-01-20 03:11:12.14	245.90	4.58	-48.1	-52.2	12.7	4.50e-05	0	41	0	62914560	60	14682
2026-01-20 03:11:13.15	246.02	4.63	-47.4	-51.0	13.0	2.97e-05	0	41	0	65011712	60	12820
2026-01-20 03:11:14.16	246.14	4.67	-47.8	-51.5	13.0	1.90e-05	0	41	0	67108864	60	13536
2026-01-20 03:11:15.17	246.26	4.71	-48.4	-52.2	13.3	6.10e-06	0	41	0	68157440	60	14760
2026-01-20 03:11:16.18	246.39	4.76	-48.2	-51.7	12.6	6.50e-04	0	41	0	70254592	60	13936
2026-01-20 03:11:17.19	246.51	4.80	-48.8	-52.2	13.5	2.43e-04	0	41	0	72351744	60	14788
2026-01-20 03:11:18.20	246.63	4.84	-48.8	-52.6	12.3	1.07e-04	0	41	0	74448896	60	15445
2026-01-20 03:11:19.21	246.75	4.89	-48.0	-51.1	14.5	1.14e-05	0	41	0	76546048	60	13032
2026-01-20 03:11:20.22	246.87	4.93	-47.3	-50.2	14.7	1.98e-05	0	41	0	77594624	60	11679
2026-01-20 03:11:21.23	247.00	4.97	-47.2	-50.3	14.2	0.00e+00	0	41	0	79691776	60	11811
2026-01-20 03:11:22.24	247.12	5.01	-47.0	-49.6	15.6	7.00e-07	0	41	0	81788928	60	10877
2026-01-20 03:11:23.25	247.25	5.06	-47.5	-50.5	14.6	2.20e-06	0	41	0	83886080	60	12150
2026-01-20 03:11:24.26	247.37	5.10	-46.8	-49.8	14.5	1.50e-06	0	41	0	85983232	60	11173
2026-01-20 03:11:25.27	247.49	5.14	-48.5	-52.8	11.8	2.04e-04	0	41	0	87031808	60	15729
2026-01-20 03:11:26.28	247.62	5.19	-48.4	-51.6	13.4	2.39e-04	0	41	0	89128960	60	13712
2026-01-20 03:11:27.29	247.74	5.23	-47.9	-50.7	14.7	2.20e-06	0	41	0	91226112	60	12415
2026-01-20 03:11:28.30	247.87	5.27	-46.9	-49.4	15.7	0.00e+00	0	41	0	93323264	60	10643
2026-01-20 03:11:29.31	248.00	5.31	-46.8	-49.0	16.6	0.00e+00	0	41	0	95420416	60	10191
2026-01-20 03:11:30.32	248.12	5.36	-48.0	-51.4	13.7	2.21e-05	0	41	0	96468992	60	13458
2026-01-20 03:11:31.33	248.25	5.40	-47.5	-50.3	14.6	6.80e-06	0	41	0	98566144	60	11898
2026-01-20 03:11:32.34	248.38	5.44	-47.2	-49.8	15.6	1.50e-06	0	41	0	100663296	60	11124
2026-01-20 03:11:33.34	248.50	5.48	-48.0	-50.9	14.7	0.00e+00	0	41	0	102760448	60	12726
2026-01-20 03:11:34.35	248.63	5.52	-47.7	-50.5	15.3	0.00e+00	0	41	0	104857600	60	12174
2026-01-20 03:11:35.36	248.76	5.57	-45.4	-47.2	17.9	0.00e+00	0	41	0	106954752	60	8301
2026-01-20 03:11:36.37	248.89	5.61	-46.1	-48.2	17.4	0.00e+00	0	41	0	108003328	60	9238
2026-01-20 03:11:37.38	249.01	5.65	-46.5	-48.8	16.2	0.00e+00	0	41	0	110100480	60	9967
2026-01-20 03:11:38.39	249.14	5.69	-47.3	-50.1	15.2	0.00e+00	0	41	0	112197632	60	11615
2026-01-20 03:11:39.40	249.27	5.74	-45.8	-48.0	16.7	0.00e+00	0	41	0	114294784	60	9089
2026-01-20 03:11:40.41	249.40	5.78	-44.8	-46.6	17.6	0.00e+00	0	41	0	116391936	60	7719
2026-01-20 03:11:41.42	249.53	5.82	-45.1	-47.1	18.5	0.00e+00	0	41	0	117440512	60	8167
2026-01-20 03:11:42.43	249.66	5.86	-45.8	-47.7	17.6	0.00e+00	0	41	0	119537664	60	8721
2026-01-20 03:11:43.44	249.79	5.90	-45.1	-46.8	18.6	0.00e+00	0	41	0	121634816	60	7901
2026-01-20 03:11:44.45	249.93	5.94	-44.8	-46.4	19.1	0.00e+00	0	41	0	123731968	60	7576
2026-01-20 03:11:45.46	250.06	5.99	-45.5	-47.4	17.6	0.00e+00	0	41	0	125829120	60	8491
2026-01-20 03:11:46.47	250.19	6.03	-45.4	-47.1	18.3	0.00e+00	0	41	0	126877696	60	8200
2026-01-20 03:11:47.48	250.32	6.07	-44.5	-46.1	18.9	0.00e+00	0	41	0	128974848	60	7319
2026-01-20 03:11:48.49	250.45	6.11	-44.8	-46.4	18.6	0.00e+00	0	41	0	131072000	60	7591
2026-01-20 03:11:49.49	250.59	6.15	-45.9	-47.9	17.3	0.00e+00	0	41	0	133169152	60	8936
2026-01-20 03:11:50.50	250.72	6.19	-44.9	-46.5	18.2	0.00e+00	0	41	0	135266304	60	7671
2026-01-20 03:11:51.51	250.85	6.23	-45.1	-46.8	18.9	0.00e+00	0	41	0	136314880	60	7911
2026-01-20 03:11:52.52	250.99	6.28	-43.9	-45.4	19.2	0.00e+00	0	41	0	138412032	60	6703
2026-01-20 03:11:53.53	251.12	6.32	-45.1	-46.7	19.2	0.00e+00	0	41	0	140509184	60	7814
2026-01-20 03:11:54.54	251.26	6.36	-44.6	-46.2	19.1	0.00e+00	0	41	0	142606336	60	7343
2026-01-20 03:11:55.55	251.39	6.40	-44.3	-45.8	19.3	0.00e+00	0	41	0	144703488	60	7027
2026-01-20 03:11:56.56	251.53	6.44	-44.2	-45.7	19.8	0.00e+00	0	41	0	145752064	60	6939
2026-01-20 03:11:57.57	251.66	6.48	-45.3	-46.9	17.9	0.00e+00	0	41	0	147849216	60	8044
2026-01-20 03:11:58.58	251.80	6.52	-45.2	-46.8	19.5	0.00e+00	0	41	0	149946368	60	7904
2026-01-20 03:11:59.59	251.94	6.56	-44.7	-46.1	19.8	0.00e+00	0	41	0	152043520	60	7300
2026-01-20 03:12:00.60	252.07	6.60	-44.6	-46.2	19.3	0.00e+00	0	41	0	154140672	60	7367
2026-01-20 03:12:01.61	252.21	6.64	-44.5	-46.0	19.4	0.00e+00	0	41	0	155189248	60	7174
2026-01-20 03:12:02.62	252.35	6.68	-44.8	-46.1	20.2	0.00e+00	0	41	0	157286400	60	7315
2026-01-20 03:12:03.62	252.49	6.72	-43.9	-45.3	20.1	0.00e+00	0	41	0	159383552	60	6620
2026-01-20 03:12:04.63	252.62	6.77	-44.8	-46.2	19.2	0.00e+00	0	41	0	161480704	60	7340
2026-01-20 03:12:05.65	252.76	6.81	-46.3	-48.0	19.3	0.00e+00	0	41	0	163577856	60	9119
2026-01-20 03:12:06.65	252.90	6.85	-45.2	-46.6	20.2	0.00e+00	0	41	0	164626432	60	7704
2026-01-20 03:12:07.66	253.04	6.89	-44.2	-45.4	20.5	0.00e+00	0	41	0	166723584	60	6761
2026-01-20 03:12:08.67	253.18	6.93	-43.8	-45.1	20.3	0.00e+00	0	41	0	168820736	60	6523
2026-01-20 03:12:09.69	253.32	6.97	-43.3	-44.5	20.7	0.00e+00	0	41	0	170917888	60	6099
2026-01-20 03:12:10.70	253.47	7.01	-43.4	-44.6	21.0	0.00e+00	0	41	0	173015040	60	6142
2026-01-20 03:12:11.70	253.60	7.05	-44.2	-45.5	20.4	0.00e+00	0	41	0	175112192	60	6808
2026-01-20 03:12:12.72	253.75	7.09	-44.4	-45.8	20.3	0.00e+00	0	41	0	176160768	60	7020
2026-01-20 03:12:13.73	253.89	7.13	-44.6	-46.0	20.0	0.00e+00	0	41	0	178257920	60	7205
2026-01-20 03:12:14.74	254.03	7.16	-44.0	-45.3	20.4	0.00e+00	0	41	0	180355072	60	6683
2026-01-20 03:12:15.75	254.17	7.20	-44.8	-46.2	20.0	0.00e+00	0	41	0	182452224	60	7411
2026-01-20 03:12:16.76	254.32	7.24	-44.6	-45.9	20.5	0.00e+00	0	41	0	184549376	60	7132
2026-01-20 03:12:17.76	254.46	7.28	-44.5	-45.8	20.5	0.00e+00	0	41	0	185597952	60	7013
2026-01-20 03:12:18.77	254.60	7.32	-44.2	-45.6	20.3	0.00e+00	0	41	0	187695104	60	6861
2026-01-20 03:12:19.77	254.75	7.36	-43.9	-45.3	20.4	0.00e+00	0	41	0	189792256	60	6622
2026-01-20 03:12:20.78	254.89	7.40	-44.1	-45.5	20.6	0.00e+00	0	41	0	191889408	60	6773
2026-01-20 03:12:21.79	255.04	7.44	-44.6	-45.9	20.3	0.00e+00	0	41	0	192937984	60	7129
2026-01-20 03:12:22.81	255.18	7.48	-44.2	-45.5	20.8	0.00e+00	0	41	0	195035136	60	6784
2026-01-20 03:12:23.82	255.33	7.52	-44.9	-46.2	20.1	0.00e+00	0	41	0	197132288	60	7413
2026-01-20 03:12:24.83	255.47	7.56	-44.4	-45.8	20.2	0.00e+00	0	41	0	199229440	60	7026
2026-01-20 03:12:25.84	255.62	7.59	-44.4	-45.8	19.8	0.00e+00	0	41	0	201326592	60	7071
2026-01-20 03:12:26.85	255.77	7.63	-43.8	-45.1	20.2	0.00e+00	0	41	0	203423744	60	6518
2026-01-20 03:12:27.85	255.91	7.67	-43.5	-44.8	20.2	0.00e+00	0	41	0	204472320	60	6308
2026-01-20 03:12:28.86	256.06	7.71	-43.7	-45.1	19.9	0.00e+00	0	41	0	206569472	60	6496
2026-01-20 03:12:29.87	256.21	7.75	-43.6	-45.0	20.0	0.00e+00	0	41	0	208666624	60	6453
2026-01-20 03:12:30.88	256.36	7.78	-43.2	-44.5	20.7	0.00e+00	0	41	0	210763776	60	6055
2026-01-20 03:12:31.89	256.50	7.82	-43.6	-44.9	20.4	0.00e+00	0	41	0	212860928	60	6374
2026-01-20 03:12:32.90	256.65	7.86	-43.7	-45.2	19.7	0.00e+00	0	41	0	213909504	60	6568
2026-01-20 03:12:33.91	256.80	7.90	-43.9	-45.4	19.8	0.00e+00	0	41	0	216006656	60	6697
2026-01-20 03:12:34.91	256.95	7.94	-44.1	-45.5	20.3	0.00e+00	0	41	0	218103808	60	6806
2026-01-20 03:12:35.93	257.10	7.97	-43.7	-45.1	20.5	0.00e+00	0	41	0	220200960	60	6470
2026-01-20 03:12:36.94	257.25	8.01	-43.7	-45.0	20.4	0.00e+00	0	41	0	222298112	60	6451
2026-01-20 03:12:37.95	257.40	8.05	-43.9	-45.2	20.2	0.00e+00	0	41	0	223346688	60	6591
2026-01-20 03:12:38.96	257.55	8.08	-43.4	-44.7	20.4	0.00e+00	0	41	0	225443840	60	6243
2026-01-20 03:12:39.97	257.71	8.12	-43.7	-45.0	20.3	0.00e+00	0	41	0	227540992	60	6449
2026-01-20 03:12:40.98	257.86	8.16	-44.2	-45.7	19.5	0.00e+00	0	41	0	229638144	60	6969
2026-01-20 03:12:41.99	258.01	8.20	-44.0	-45.4	20.0	0.00e+00	0	41	0	231735296	60	6742
2026-01-20 03:12:43.00	258.16	8.23	-44.6	-46.0	19.8	0.00e+00	0	41	0	232783872	60	7232
2026-01-20 03:12:44.01	258.32	8.27	-44.4	-45.7	20.2	0.00e+00	0	41	0	234881024	60	6992
2026-01-20 03:12:45.02	258.47	8.31	-44.3	-45.7	20.2	0.00e+00	0	41	0	236978176	60	6940
2026-01-20 03:12:46.03	258.62	8.34	-44.5	-45.9	20.4	0.00e+00	0	41	0	239075328	60	7102
2026-01-20 03:12:47.04	258.78	8.38	-44.3	-45.6	20.4	0.00e+00	0	41	0	241172480	60	6872
2026-01-20 03:12:48.05	258.93	8.41	-44.3	-45.6	20.3	0.00e+00	0	41	0	242221056	60	6884
2026-01-20 03:12:49.06	259.09	8.45	-44.7	-46.1	20.0	0.00e+00	0	41	0	244318208	60	7311
2026-01-20 03:12:50.07	259.24	8.49	-44.3	-45.6	20.2	0.00e+00	0	41	0	246415360	60	6915
2026-01-20 03:12:51.08	259.40	8.52	-43.6	-45.0	20.3	0.00e+00	0	41	0	248512512	60	6418
2026-01-20 03:12:52.09	259.55	8.56	-43.7	-45.1	20.3	0.00e+00	0	41	0	250609664	60	6479
2026-01-20 03:12:53.10	259.71	8.59	-44.0	-45.4	20.1	0.00e+00	0	41	0	251658240	60	6704
2026-01-20 03:12:54.11	259.87	8.63	-44.6	-46.0	19.9	0.00e+00	0	41	0	253755392	60	7215
2026-01-20 03:12:55.12	260.02	8.66	-44.2	-45.6	20.2	0.00e+00	0	41	0	255852544	60	6885
2026-01-20 03:12:56.13	260.18	8.70	-43.7	-45.0	20.6	0.00e+00	0	41	0	257949696	60	6418
2026-01-20 03:12:57.14	260.34	8.73	-43.1	-44.4	20.7	0.00e+00	0	41	0	260046848	60	5996
2026-01-20 03:12:58.15	260.50	8.77	-43.8	-45.1	20.7	0.00e+00	0	41	0	262144000	60	6526
2026-01-20 03:12:59.16	260.66	8.80	-44.5	-45.9	20.0	0.00e+00	0	41	0	263192576	60	7135
2026-01-20 03:13:00.17	260.81	8.84	-44.5	-45.9	20.2	0.00e+00	0	41	0	265289728	60	7124
2026-01-20 03:13:01.18	260.97	8.87	-43.9	-45.2	20.6	0.00e+00	0	41	0	267386880	60	6554
2026-01-20 03:13:02.19	261.13	8.90	-44.4	-45.7	20.3	0.00e+00	0	41	0	269484032	60	6956
2026-01-20 03:13:03.20	261.29	8.94	-44.4	-45.7	20.6	0.00e+00	0	41	0	271581184	60	6931
2026-01-20 03:13:04.21	261.45	8.97	-44.0	-45.3	20.7	0.00e+00	0	41	0	272629760	60	6618
2026-01-20 03:13:05.22	261.61	9.01	-43.4	-44.6	20.5	0.00e+00	0	41	0	274726912	60	6173
2026-01-20 03:13:06.22	261.77	9.04	-43.3	-44.7	20.2	0.00e+00	0	41	0	276824064	60	6174
2026-01-20 03:13:07.23	261.93	9.07	-43.6	-44.9	20.3	0.00e+00	0	41	0	278921216	60	6351
2026-01-20 03:13:08.24	262.10	9.11	-43.8	-45.1	20.0	0.00e+00	0	41	0	281018368	60	6536
2026-01-20 03:13:09.25	262.26	9.14	-43.8	-45.3	19.5	0.00e+00	0	41	0	282066944	60	6652
2026-01-20 03:13:10.26	262.42	9.17	-44.0	-45.5	19.7	0.00e+00	0	41	0	284164096	60	6772
2026-01-20 03:13:11.28	262.59	9.21	-43.6	-44.9	20.2	0.00e+00	0	41	0	286261248	60	6360
2026-01-20 03:13:12.29	262.75	9.24	-44.3	-45.7	19.9	0.00e+00	0	41	0	288358400	60	7001
2026-01-20 03:13:13.29	262.91	9.27	-44.1	-45.5	20.0	0.00e+00	0	41	0	290455552	60	6820
2026-01-20 03:13:14.30	263.07	9.30	-44.3	-45.8	18.7	0.00e+00	0	41	0	291504128	60	7034
2026-01-20 03:13:15.31	263.24	9.33	-44.2	-45.6	20.0	0.00e+00	0	41	0	293601280	60	6852
2026-01-20 03:13:16.32	263.40	9.37	-43.7	-45.1	20.3	0.00e+00	0	41	0	295698432	60	6477
2026-01-20 03:13:17.33	263.57	9.40	-43.5	-44.8	20.5	0.00e+00	0	41	0	297795584	60	6272
2026-01-20 03:13:18.34	263.73	9.43	-44.9	-46.5	19.1	0.00e+00	0	41	0	299892736	60	7636
2026-01-20 03:13:19.35	263.90	9.46	-43.6	-44.8	20.6	0.00e+00	0	41	0	300941312	60	6292
2026-01-20 03:13:20.36	264.06	9.49	-44.0	-45.3	20.7	0.00e+00	0	41	0	303038464	60	6660
2026-01-20 03:13:21.37	264.23	9.52	-43.3	-44.5	20.7	0.00e+00	0	41	0	305135616	60	6100
2026-01-20 03:13:22.38	264.40	9.55	-44.0	-45.4	20.2	0.00e+00	0	41	0	307232768	60	6717
2026-01-20 03:13:23.39	264.56	9.59	-44.5	-45.8	20.2	0.00e+00	0	41	0	309329920	60	7067
2026-01-20 03:13:24.40	264.73	9.62	-44.0	-45.3	20.3	0.00e+00	0	41	0	311427072	60	6632
2026-01-20 03:13:25.41	264.90	9.65	-44.1	-45.4	20.6	0.00e+00	0	41	0	312475648	60	6733
2026-01-20 03:13:26.42	265.07	9.68	-44.7	-46.1	20.1	0.00e+00	0	41	0	314572800	60	7320
2026-01-20 03:13:27.43	265.24	9.71	-44.7	-46.1	20.2	0.00e+00	0	41	0	316669952	60	7329
2026-01-20 03:13:28.44	265.40	9.74	-44.6	-46.0	19.9	0.00e+00	0	41	0	318767104	60	7228
2026-01-20 03:13:29.45	265.57	9.77	-44.5	-46.0	19.6	0.00e+00	0	42	0	320864256	60	7172
2026-01-20 03:13:30.46	265.74	9.80	-44.9	-46.5	18.9	0.00e+00	0	42	0	321912832	60	7635
2026-01-20 03:13:31.47	265.91	9.83	-44.1	-45.4	20.6	0.00e+00	0	41	0	324009984	60	6712
2026-01-20 03:13:32.48	266.08	9.85	-44.4	-45.7	20.3	0.00e+00	0	42	0	326107136	60	6997
2026-01-20 03:13:33.49	266.25	9.88	-45.0	-46.7	19.0	0.00e+00	0	42	0	328204288	60	7790
2026-01-20 03:13:34.50	266.42	9.91	-44.6	-46.0	19.9	0.00e+00	0	42	0	329252864	60	7188
2026-01-20 03:13:35.51	266.59	9.94	-44.9	-46.3	19.2	0.00e+00	0	42	0	331350016	60	7491
2026-01-20 03:13:36.52	266.76	9.97	-45.5	-47.0	19.8	0.00e+00	0	42	0	333447168	60	8060
2026-01-20 03:13:37.52	266.93	10.00	-44.7	-46.1	19.8	0.00e+00	0	41	0	335544320	60	7255
2026-01-20 03:13:38.54	267.11	10.03	-44.3	-45.7	20.2	0.00e+00	0	41	0	337641472	60	6940
2026-01-20 03:13:39.55	267.28	10.05	-44.8	-46.2	19.5	0.00e+00	0	41	0	339738624	60	7391
2026-01-20 03:13:40.55	267.45	10.08	-44.4	-45.7	20.1	0.00e+00	0	41	0	340787200	60	6998
2026-01-20 03:13:41.56	267.62	10.11	-44.4	-45.7	20.5	0.00e+00	0	42	0	342884352	60	6989
2026-01-20 03:13:42.58	267.80	10.14	-43.6	-44.8	21.1	0.00e+00	0	42	0	344981504	60	6280
2026-01-20 03:13:43.59	267.97	10.16	-43.0	-44.2	21.2	0.00e+00	0	42	0	347078656	60	5842
2026-01-20 03:13:44.59	268.14	10.19	-44.3	-45.5	20.1	0.00e+00	0	41	0	349175808	60	6836
2026-01-20 03:13:45.60	268.32	10.22	-44.9	-46.3	20.0	0.00e+00	0	42	0	350224384	60	7440
2026-01-20 03:13:46.61	268.49	10.24	-44.9	-46.4	19.6	0.00e+00	0	42	0	352321536	60	7519
2026-01-20 03:13:47.63	268.67	10.27	-44.1	-45.5	20.1	0.00e+00	0	41	0	354418688	60	6792
2026-01-20 03:13:48.64	268.84	10.30	-44.3	-45.7	20.1	0.00e+00	0	42	0	356515840	60	6994
2026-01-20 03:13:49.65	269.02	10.32	-44.6	-45.9	20.1	0.00e+00	0	42	0	358612992	60	7148
2026-01-20 03:13:50.66	269.19	10.35	-44.8	-46.1	20.2	0.00e+00	0	42	0	359661568	60	7311
2026-01-20 03:13:51.67	269.37	10.37	-44.8	-46.1	20.4	0.00e+00	0	42	0	361758720	60	7321
2026-01-20 03:13:52.68	269.55	10.40	-45.2	-46.6	19.8	0.00e+00	0	42	0	363855872	60	7759
2026-01-20 03:13:53.69	269.72	10.42	-44.4	-45.7	20.5	0.00e+00	0	42	0	365953024	60	6965
2026-01-20 03:13:54.70	269.90	10.45	-44.0	-45.4	20.5	0.00e+00	0	42	0	368050176	60	6707
2026-01-20 03:13:55.71	270.08	10.47	-43.7	-45.0	20.5	0.00e+00	0	42	0	369098752	60	6394
2026-01-20 03:13:56.71	270.25	10.50	-43.2	-44.4	20.6	0.00e+00	0	42	0	371195904	60	6031
2026-01-20 03:13:57.72	270.43	10.52	-43.1	-44.4	20.6	0.00e+00	0	42	0	373293056	60	6005
2026-01-20 03:13:58.73	270.61	10.54	-43.0	-44.3	20.1	0.00e+00	0	42	0	375390208	60	5942
2026-01-20 03:13:59.74	270.78	10.57	-42.9	-44.2	20.7	0.00e+00	0	42	0	377487360	60	5874
2026-01-20 03:14:00.75	270.96	10.59	-43.1	-44.4	20.5	0.00e+00	0	42	0	379584512	58	6723
2026-01-20 03:14:01.76	271.14	10.61	-43.0	-44.3	20.3	0.00e+00	0	42	0	380633088	58	6677
2026-01-20 03:14:02.77	271.32	10.64	-42.9	-44.2	20.6	0.00e+00	0	42	0	382730240	58	6558
2026-01-20 03:14:03.78	271.50	10.66	-43.2	-44.5	20.4	0.00e+00	0	42	0	384827392	58	6815
2026-01-20 03:14:04.79	271.68	10.68	-42.8	-44.0	20.7	0.00e+00	0	42	0	386924544	58	6422
2026-01-20 03:14:05.80	271.86	10.71	-42.6	-43.8	21.1	0.00e+00	0	42	0	389021696	58	6288
2026-01-20 03:14:06.81	272.04	10.73	-43.1	-44.4	20.9	0.00e+00	0	42	0	390070272	58	6696
2026-01-20 03:14:07.82	272.22	10.75	-42.9	-44.1	21.1	0.00e+00	0	42	0	392167424	58	6493
2026-01-20 03:14:08.83	272.40	10.77	-42.8	-44.0	21.1	0.00e+00	0	42	0	394264576	58	6436
2026-01-20 03:14:09.84	272.58	10.79	-43.0	-44.2	21.0	0.00e+00	0	42	0	396361728	58	6558
2026-01-20 03:14:10.85	272.76	10.81	-43.5	-44.8	20.6	0.00e+00	0	42	0	398458880	58	7066
2026-01-20 03:14:11.86	272.94	10.83	-42.8	-44.1	20.9	0.00e+00	0	42	0	399507456	58	6474
2026-01-20 03:14:12.87	273.12	10.86	-42.4	-43.6	21.1	0.00e+00	0	42	0	401604608	58	6135
2026-01-20 03:14:13.88	273.31	10.88	-43.0	-44.2	21.2	0.00e+00	0	42	0	403701760	58	6566
2026-01-20 03:14:14.89	273.49	10.90	-43.6	-44.9	20.9	0.00e+00	0	42	0	405798912	60	6319
2026-01-20 03:14:15.90	273.67	10.92	-43.8	-45.0	21.0	0.00e+00	0	42	0	407896064	60	6426
2026-01-20 03:14:16.91	273.85	10.94	-43.0	-44.2	21.4	0.00e+00	0	42	0	408944640	60	5867
2026-01-20 03:14:17.92	274.03	10.96	-42.6	-43.8	21.2	0.00e+00	0	42	0	411041792	58	6299
2026-01-20 03:14:18.93	274.22	10.97	-42.7	-43.9	21.1	0.00e+00	0	42	0	413138944	58	6320
2026-01-20 03:14:19.94	274.40	10.99	-42.8	-44.0	21.1	0.00e+00	0	42	0	415236096	58	6431
2026-01-20 03:14:20.95	274.58	11.01	-42.9	-44.1	21.0	0.00e+00	0	42	0	417333248	58	6499
2026-01-20 03:14:21.96	274.77	11.03	-43.0	-44.2	21.0	0.00e+00	0	42	0	418381824	58	6565
2026-01-20 03:14:22.97	274.95	11.05	-43.0	-44.1	21.3	0.00e+00	0	42	0	420478976	58	6530
2026-01-20 03:14:23.98	275.14	11.07	-42.9	-44.1	21.2	0.00e+00	0	42	0	422576128	58	6476
2026-01-20 03:14:24.99	275.32	11.09	-43.2	-44.5	21.0	0.00e+00	0	42	0	424673280	58	6783
2026-01-20 03:14:26.00	275.50	11.10	-43.6	-44.9	20.8	0.00e+00	0	42	0	426770432	58	7118
2026-01-20 03:14:27.01	275.69	11.12	-43.6	-44.9	20.8	0.00e+00	0	42	0	427819008	60	6354
2026-01-20 03:14:28.02	275.87	11.14	-43.6	-44.8	20.8	0.00e+00	0	42	0	429916160	60	6302
2026-01-20 03:14:29.02	276.06	11.15	-43.7	-45.0	20.8	0.00e+00	0	42	0	432013312	60	6445
2026-01-20 03:14:30.04	276.24	11.17	-43.7	-45.0	20.8	0.00e+00	0	42	0	434110464	60	6421
2026-01-20 03:14:31.04	276.43	11.19	-43.5	-44.7	20.7	0.00e+00	0	42	0	436207616	60	6232
2026-01-20 03:14:32.05	276.61	11.20	-43.5	-44.8	20.7	0.00e+00	0	42	0	437256192	60	6262
2026-01-20 03:14:33.06	276.80	11.22	-43.6	-44.9	20.5	0.00e+00	0	42	0	439353344	60	6346
2026-01-20 03:14:34.07	276.99	11.23	-43.5	-44.8	20.6	0.00e+00	0	42	0	441450496	60	6306
2026-01-20 03:14:35.08	277.17	11.25	-43.5	-44.8	20.8	0.00e+00	0	42	0	443547648	60	6285
2026-01-20 03:14:36.09	277.36	11.26	-43.4	-44.7	20.8	0.00e+00	0	42	0	445644800	60	6214
2026-01-20 03:14:37.10	277.54	11.28	-43.7	-45.0	20.8	0.00e+00	0	42	0	447741952	60	6402
2026-01-20 03:14:38.11	277.73	11.29	-43.8	-45.1	20.6	0.00e+00	0	42	0	448790528	60	6526
2026-01-20 03:14:39.12	277.92	11.31	-43.9	-45.2	20.8	0.00e+00	0	42	0	450887680	60	6579
2026-01-20 03:14:40.13	278.11	11.32	-44.6	-45.9	20.1	0.00e+00	0	42	0	452984832	60	7153
2026-01-20 03:14:41.14	278.29	11.34	-44.4	-45.9	19.8	0.00e+00	0	42	0	455081984	60	7104
2026-01-20 03:14:42.15	278.48	11.35	-44.6	-46.0	19.9	0.00e+00	0	42	0	457179136	60	7227
2026-01-20 03:14:43.16	278.67	11.36	-44.9	-46.2	20.4	0.00e+00	0	42	0	458227712	60	7406
2026-01-20 03:14:44.16	278.85	11.37	-44.6	-46.0	20.1	0.00e+00	0	42	0	460324864	60	7198
2026-01-20 03:14:45.17	279.04	11.39	-44.8	-46.1	20.3	0.00e+00	0	42	0	462422016	60	7288
2026-01-20 03:14:46.18	279.23	11.40	-44.9	-46.3	20.4	0.00e+00	0	42	0	464519168	60	7426
2026-01-20 03:14:47.19	279.42	11.41	-45.0	-46.4	20.1	0.00e+00	0	42	0	465567744	60	7519
2026-01-20 03:14:48.20	279.61	11.42	-45.3	-46.9	19.2	0.00e+00	0	42	0	467664896	60	7973
2026-01-20 03:14:49.21	279.79	11.44	-45.0	-46.6	19.3	0.00e+00	0	42	0	469762048	60	7721
2026-01-20 03:14:50.22	279.98	11.45	-44.8	-46.3	19.1	0.00e+00	0	42	0	471859200	60	7427
2026-01-20 03:14:51.23	280.17	11.46	-44.8	-46.3	19.1	0.00e+00	0	42	0	473956352	60	7476
2026-01-20 03:14:52.24	280.36	11.47	-44.8	-46.5	18.7	0.00e+00	0	42	0	476053504	60	7617
2026-01-20 03:14:53.25	280.55	11.48	-44.3	-45.7	19.9	0.00e+00	0	42	0	477102080	60	7004
2026-01-20 03:14:54.26	280.74	11.49	-46.5	-48.1	19.0	0.00e+00	0	42	0	479199232	60	9221
2026-01-20 03:14:55.27	280.93	11.50	-45.5	-47.0	19.3	0.00e+00	0	42	0	481296384	60	8127
2026-01-20 03:14:56.28	281.12	11.51	-45.0	-46.4	19.7	0.00e+00	0	42	0	483393536	60	7572
2026-01-20 03:14:57.29	281.31	11.52	-45.4	-47.0	19.3	0.00e+00	0	42	0	485490688	60	8066
2026-01-20 03:14:58.30	281.50	11.53	-45.1	-46.6	19.7	0.00e+00	0	42	0	486539264	60	7700
2026-01-20 03:14:59.31	281.69	11.54	-44.9	-46.4	19.3	0.00e+00	0	42	0	488636416	60	7543
2026-01-20 03:15:00.32	281.88	11.54	-45.4	-46.9	19.1	0.00e+00	0	42	0	490733568	60	8038
2026-01-20 03:15:01.33	282.07	11.55	-45.3	-46.8	19.4	0.00e+00	0	42	0	492830720	60	7941
2026-01-20 03:15:02.34	282.26	11.56	-44.7	-46.2	19.5	0.00e+00	0	42	0	494927872	60	7361
2026-01-20 03:15:03.35	282.45	11.57	-44.4	-45.8	19.5	0.00e+00	0	42	0	495976448	60	7080
2026-01-20 03:15:04.36	282.64	11.58	-44.9	-46.4	19.7	0.00e+00	0	42	0	498073600	60	7525
2026-01-20 03:15:05.37	282.83	11.58	-45.3	-46.8	19.2	0.00e+00	0	42	0	500170752	60	7908
2026-01-20 03:15:06.37	283.02	11.59	-46.1	-47.7	19.4	0.00e+00	0	42	0	502267904	60	8732
2026-01-20 03:15:07.38	283.21	11.60	-45.6	-47.2	19.3	0.00e+00	0	42	0	504365056	60	8261
2026-01-20 03:15:08.39	283.40	11.60	-45.4	-46.9	19.9	0.00e+00	0	42	0	505413632	60	7960
2026-01-20 03:15:09.40	283.59	11.61	-45.4	-46.8	20.1	0.00e+00	0	42	0	507510784	60	7914
2026-01-20 03:15:10.42	283.78	11.61	-46.5	-48.1	19.2	0.00e+00	0	42	0	509607936	60	9219
2026-01-20 03:15:11.43	283.97	11.62	-46.2	-47.7	19.5	0.00e+00	0	42	0	511705088	60	8744
2026-01-20 03:15:12.44	284.16	11.62	-45.7	-47.1	20.2	0.00e+00	0	42	0	513802240	60	8182
2026-01-20 03:15:13.44	284.35	11.63	-45.2	-46.6	20.0	0.00e+00	0	42	0	514850816	60	7750
2026-01-20 03:15:14.45	284.54	11.63	-45.7	-47.1	19.9	0.00e+00	0	42	0	516947968	60	8198
2026-01-20 03:15:15.47	284.73	11.64	-45.4	-46.8	20.2	0.00e+00	0	42	0	519045120	60	7879
2026-01-20 03:15:16.48	284.93	11.64	-44.7	-46.0	20.8	0.00e+00	0	42	0	521142272	60	7193
2026-01-20 03:15:17.49	285.12	11.65	-44.9	-46.2	20.3	0.00e+00	0	42	0	523239424	60	7343
2026-01-20 03:15:18.50	285.31	11.65	-45.1	-46.4	20.8	0.00e+00	0	42	0	524288000	60	7558
2026-01-20 03:15:19.51	285.50	11.65	-44.6	-45.9	20.8	0.00e+00	0	42	0	526385152	60	7140
2026-01-20 03:15:20.51	285.69	11.66	-45.5	-46.8	20.6	0.00e+00	0	42	0	528482304	60	7869
2026-01-20 03:15:21.52	285.88	11.66	-44.7	-46.0	20.7	0.00e+00	0	42	0	530579456	60	7177
2026-01-20 03:15:22.53	286.07	11.66	-45.2	-46.6	20.1	0.00e+00	0	42	0	532676608	60	7688
2026-01-20 03:15:23.54	286.26	11.66	-45.3	-46.7	20.1	0.00e+00	0	42	0	533725184	60	7790
2026-01-20 03:15:24.55	286.45	11.66	-44.8	-46.1	20.5	0.00e+00	0	42	0	535822336	60	7311
2026-01-20 03:15:25.56	286.65	11.67	-44.6	-46.0	20.7	0.00e+00	0	42	0	537919488	60	7198
2026-01-20 03:15:26.57	286.84	11.67	-44.2	-45.5	20.8	0.00e+00	0	42	0	540016640	60	6777
2026-01-20 03:15:27.59	287.03	11.67	-43.7	-44.9	21.1	0.00e+00	0	42	0	542113792	60	6373
2026-01-20 03:15:28.60	287.22	11.67	-43.1	-44.3	21.2	0.00e+00	0	42	0	544210944	60	5952
2026-01-20 03:15:29.60	287.41	11.67	-43.7	-45.0	20.9	0.00e+00	0	42	0	545259520	60	6403
2026-01-20 03:15:30.62	287.60	11.67	-44.1	-45.3	21.1	0.00e+00	0	42	0	547356672	60	6655
2026-01-20 03:15:31.63	287.80	11.67	-44.6	-45.9	20.8	0.00e+00	0	42	0	549453824	60	7112
2026-01-20 03:15:32.63	287.98	11.67	-44.7	-45.9	21.0	0.00e+00	0	42	0	551550976	60	7163
2026-01-20 03:15:33.64	288.18	11.67	-44.1	-45.3	21.0	0.00e+00	0	42	0	553648128	60	6664
2026-01-20 03:15:34.65	288.37	11.67	-43.6	-44.8	21.2	0.00e+00	0	42	0	554696704	60	6256
2026-01-20 03:15:35.66	288.56	11.66	-44.1	-45.4	21.2	0.00e+00	0	42	0	556793856	60	6695
2026-01-20 03:15:36.67	288.75	11.66	-44.2	-45.4	20.9	0.00e+00	0	42	0	558891008	60	6752
2026-01-20 03:15:37.68	288.94	11.66	-44.0	-45.2	21.5	0.00e+00	0	41	0	560988160	60	6567
2026-01-20 03:15:38.69	289.13	11.66	-43.9	-45.0	21.5	0.00e+00	0	42	0	563085312	60	6450
2026-01-20 03:15:39.70	289.32	11.66	-43.6	-44.7	21.5	0.00e+00	0	42	0	564133888	60	6238
2026-01-20 03:15:40.71	289.51	11.65	-43.3	-44.4	21.7	0.00e+00	0	42	0	566231040	60	6007
2026-01-20 03:15:41.72	289.71	11.65	-43.4	-44.5	22.0	0.00e+00	0	42	0	568328192	60	6098
2026-01-20 03:15:42.73	289.90	11.65	-43.5	-44.6	22.1	0.00e+00	0	42	0	570425344	60	6121
2026-01-20 03:15:43.74	290.09	11.64	-42.8	-43.9	22.0	0.00e+00	0	42	0	572522496	60	5682
2026-01-20 03:15:44.75	290.28	11.64	-42.8	-44.0	21.7	0.00e+00	0	42	0	573571072	60	5696
2026-01-20 03:15:45.76	290.47	11.64	-42.9	-44.0	21.5	0.00e+00	0	42	0	575668224	58	6445
2026-01-20 03:15:46.77	290.66	11.63	-43.6	-44.7	21.8	0.00e+00	0	42	0	577765376	58	7005
2026-01-20 03:15:47.78	290.85	11.63	-43.5	-44.6	21.8	0.00e+00	0	42	0	579862528	58	6849
2026-01-20 03:15:48.79	291.04	11.62	-43.4	-44.5	21.7	0.00e+00	0	42	0	581959680	60	6087
2026-01-20 03:15:49.80	291.23	11.62	-42.9	-44.0	21.8	0.00e+00	0	42	0	583008256	60	5722
2026-01-20 03:15:50.80	291.42	11.61	-42.5	-43.6	22.0	0.00e+00	0	42	0	585105408	58	6124
2026-01-20 03:15:51.81	291.61	11.60	-42.2	-43.3	22.1	0.00e+00	0	42	0	587202560	58	5924
2026-01-20 03:15:52.82	291.80	11.60	-41.7	-42.7	22.4	0.00e+00	0	42	0	589299712	56	6243
2026-01-20 03:15:53.83	291.99	11.59	-42.1	-43.2	22.0	0.00e+00	0	42	0	591396864	56	6585
2026-01-20 03:15:54.84	292.18	11.58	-42.5	-43.5	22.1	0.00e+00	0	42	0	592445440	56	6828
2026-01-20 03:15:55.85	292.37	11.58	-42.7	-43.7	22.5	0.00e+00	0	42	0	594542592	58	6233
2026-01-20 03:15:56.86	292.56	11.57	-43.0	-44.1	22.5	0.00e+00	0	42	0	596639744	58	6468
2026-01-20 03:15:57.87	292.75	11.56	-43.4	-44.4	21.9	0.00e+00	0	42	0	598736896	58	6743
2026-01-20 03:15:58.88	292.94	11.55	-43.8	-44.9	21.9	0.00e+00	0	42	0	600834048	60	6350
2026-01-20 03:15:59.88	293.13	11.55	-42.9	-44.0	22.3	0.00e+00	0	42	0	601882624	60	5730
2026-01-20 03:16:00.90	293.32	11.54	-43.2	-44.3	22.1	0.00e+00	0	42	0	603979776	60	5934
2026-01-20 03:16:01.91	293.51	11.53	-42.8	-43.8	22.3	0.00e+00	0	42	0	606076928	58	6314
2026-01-20 03:16:02.92	293.70	11.52	-42.6	-43.7	22.3	0.00e+00	0	42	0	608174080	58	6200
2026-01-20 03:16:03.93	293.89	11.51	-42.8	-43.8	22.4	0.00e+00	0	42	0	610271232	58	6273
2026-01-20 03:16:04.94	294.08	11.50	-43.7	-44.8	22.0	0.00e+00	0	42	0	612368384	58	7023
2026-01-20 03:16:05.94	294.27	11.49	-43.3	-44.4	22.0	0.00e+00	0	42	0	613416960	60	5983
2026-01-20 03:16:06.96	294.46	11.48	-43.5	-44.7	21.4	0.00e+00	0	42	0	615514112	60	6191
2026-01-20 03:16:07.97	294.65	11.47	-43.2	-44.3	21.9	0.00e+00	0	42	0	617611264	60	5920
2026-01-20 03:16:08.98	294.84	11.46	-43.0	-44.1	22.4	0.00e+00	0	42	0	619708416	60	5788
2026-01-20 03:16:09.99	295.02	11.45	-43.4	-44.5	22.0	0.00e+00	0	42	0	621805568	60	6041
2026-01-20 03:16:11.00	295.21	11.44	-44.2	-45.5	21.9	0.00e+00	0	42	0	622854144	60	6790
2026-01-20 03:16:12.01	295.40	11.43	-44.2	-45.3	21.7	0.00e+00	0	42	0	624951296	60	6683
2026-01-20 03:16:13.02	295.59	11.42	-44.7	-45.9	21.2	0.00e+00	0	42	0	627048448	60	7160
2026-01-20 03:16:14.03	295.78	11.40	-43.9	-45.1	21.5	0.00e+00	0	42	0	629145600	60	6471
2026-01-20 03:16:15.04	295.96	11.39	-44.4	-45.6	21.6	0.00e+00	0	42	0	631242752	60	6895
2026-01-20 03:16:16.05	296.15	11.38	-43.9	-45.1	21.6	0.00e+00	0	41	0	632291328	60	6469
2026-01-20 03:16:17.06	296.34	11.37	-43.8	-44.9	21.8	0.00e+00	0	42	0	634388480	60	6378
2026-01-20 03:16:18.07	296.53	11.35	-43.0	-44.1	22.0	0.00e+00	0	42	0	636485632	60	5772
2026-01-20 03:16:19.08	296.71	11.34	-42.7	-43.8	21.7	0.00e+00	0	42	0	638582784	58	6293
2026-01-20 03:16:20.09	296.90	11.33	-42.5	-43.7	21.7	0.00e+00	0	42	0	640679936	58	6175
2026-01-20 03:16:21.10	297.09	11.31	-43.0	-44.1	22.0	0.00e+00	0	42	0	641728512	58	6527
2026-01-20 03:16:22.11	297.27	11.30	-44.4	-45.7	21.0	0.00e+00	0	42	0	643825664	60	6938
2026-01-20 03:16:23.12	297.46	11.28	-43.6	-44.7	22.1	0.00e+00	0	42	0	645922816	60	6175
2026-01-20 03:16:24.13	297.65	11.27	-43.6	-44.7	21.7	0.00e+00	0	42	0	648019968	60	6203
2026-01-20 03:16:25.14	297.83	11.25	-43.2	-44.3	21.3	0.00e+00	0	42	0	650117120	58	6671
2026-01-20 03:16:26.14	298.02	11.24	-44.1	-45.3	20.3	0.00e+00	0	42	0	651165696	60	6674
2026-01-20 03:16:27.15	298.20	11.22	-44.9	-46.2	20.9	0.00e+00	0	42	0	653262848	60	7346
2026-01-20 03:16:28.16	298.39	11.21	-44.3	-45.4	21.3	0.00e+00	0	42	0	655360000	60	6749
2026-01-20 03:16:29.17	298.57	11.19	-44.5	-45.6	21.8	0.00e+00	0	42	0	657457152	60	6874
2026-01-20 03:16:30.18	298.76	11.18	-44.1	-45.3	21.7	0.00e+00	0	42	0	659554304	60	6639
2026-01-20 03:16:31.19	298.94	11.16	-44.0	-45.2	21.1	0.00e+00	0	42	0	660602880	60	6549
2026-01-20 03:16:32.19	299.13	11.14	-43.8	-45.0	20.8	0.00e+00	0	42	0	662700032	60	6454
2026-01-20 03:16:33.20	299.31	11.13	-44.5	-45.8	20.7	0.00e+00	0	42	0	664797184	60	7071
2026-01-20 03:16:34.21	299.50	11.11	-44.4	-45.6	21.1	0.00e+00	0	42	0	666894336	60	6925
2026-01-20 03:16:35.22	299.68	11.09	-44.6	-45.8	19.9	0.00e+00	0	42	0	668991488	60	7067
2026-01-20 03:16:36.23	299.86	11.07	-44.6	-45.8	21.1	0.00e+00	0	42	0	670040064	60	7039
2026-01-20 03:16:37.24	300.05	11.06	-44.9	-46.2	20.3	0.00e+00	0	42	0	672137216	60	7378
2026-01-20 03:16:38.25	300.23	11.04	-44.8	-46.0	21.0	0.00e+00	0	41	0	674234368	60	7243
2026-01-20 03:16:39.26	300.41	11.02	-44.8	-46.0	21.3	0.00e+00	0	42	0	676331520	60	7219
2026-01-20 03:16:40.27	300.60	11.00	-44.2	-45.4	21.5	0.00e+00	0	42	0	678428672	60	6704
2026-01-20 03:16:41.28	300.78	10.98	-43.9	-45.1	21.6	0.00e+00	0	42	0	680525824	60	6494
2026-01-20 03:16:42.29	300.96	10.96	-43.9	-45.1	21.5	0.00e+00	0	42	0	681574400	60	6476
2026-01-20 03:16:43.30	301.14	10.94	-43.3	-44.4	22.5	0.00e+00	0	41	0	683671552	60	5974
2026-01-20 03:16:44.31	301.33	10.92	-43.7	-44.8	22.0	0.00e+00	0	42	0	685768704	60	6298
2026-01-20 03:16:45.32	301.51	10.90	-44.0	-45.1	21.9	0.00e+00	0	42	0	687865856	60	6504
2026-01-20 03:16:46.33	301.69	10.88	-43.2	-44.3	21.9	0.00e+00	0	42	0	689963008	60	5901
2026-01-20 03:16:47.34	301.87	10.86	-42.9	-44.0	21.8	0.00e+00	0	42	0	691011584	60	5715
2026-01-20 03:16:48.34	302.05	10.84	-42.8	-43.9	22.1	0.00e+00	0	42	0	693108736	58	6347
2026-01-20 03:16:49.35	302.23	10.82	-43.1	-44.2	21.9	0.00e+00	0	42	0	695205888	58	6589
2026-01-20 03:16:50.36	302.41	10.80	-43.1	-44.2	21.9	0.00e+00	0	41	0	697303040	58	6546
2026-01-20 03:16:51.37	302.59	10.78	-42.5	-43.6	21.8	0.00e+00	0	42	0	699400192	58	6118
2026-01-20 03:16:52.38	302.77	10.76	-43.1	-44.2	21.9	0.00e+00	0	42	0	700448768	58	6557
2026-01-20 03:16:53.39	302.95	10.74	-42.9	-44.0	22.0	0.00e+00	0	41	0	702545920	58	6452
2026-01-20 03:16:54.40	303.13	10.72	-42.5	-43.6	21.8	0.00e+00	0	42	0	704643072	58	6116
2026-01-20 03:16:55.41	303.31	10.69	-43.4	-44.5	21.6	0.00e+00	0	42	0	706740224	58	6777
2026-01-20 03:16:56.42	303.49	10.67	-43.2	-44.4	21.5	0.00e+00	0	41	0	708837376	58	6718
2026-01-20 03:16:57.43	303.67	10.65	-43.2	-44.3	21.9	0.00e+00	0	41	0	709885952	58	6680
2026-01-20 03:16:58.44	303.85	10.63	-43.6	-44.7	22.0	0.00e+00	0	42	0	711983104	60	6239
2026-01-20 03:16:59.44	304.02	10.60	-43.5	-44.6	22.0	0.00e+00	0	42	0	714080256	60	6142
2026-01-20 03:17:00.45	304.20	10.58	-43.5	-44.5	22.2	0.00e+00	0	41	0	716177408	60	6099
2026-01-20 03:17:01.47	304.38	10.56	-42.7	-43.8	22.5	0.00e+00	0	42	0	718274560	58	6263
2026-01-20 03:17:02.48	304.56	10.53	-43.0	-44.1	22.0	0.00e+00	0	42	0	719323136	58	6492
2026-01-20 03:17:03.48	304.73	10.51	-42.0	-43.1	22.4	0.00e+00	0	41	0	721420288	58	5776
2026-01-20 03:17:04.49	304.91	10.48	-41.9	-43.0	22.4	0.00e+00	0	41	0	723517440	56	6399
2026-01-20 03:17:05.50	305.09	10.46	-41.9	-42.9	22.3	0.00e+00	0	42	0	725614592	56	6346
2026-01-20 03:17:06.51	305.26	10.44	-41.8	-42.8	22.2	0.00e+00	0	42	0	727711744	56	6311
2026-01-20 03:17:07.52	305.44	10.41	-41.9	-42.9	22.5	0.00e+00	0	42	0	728760320	56	6362
2026-01-20 03:17:08.53	305.61	10.39	-42.9	-44.0	22.4	0.00e+00	0	42	0	730857472	58	6404
2026-01-20 03:17:09.54	305.79	10.36	-42.4	-43.4	22.3	0.00e+00	0	42	0	732954624	58	6031
2026-01-20 03:17:10.55	305.96	10.34	-42.2	-43.3	22.0	0.00e+00	0	42	0	735051776	58	5951
2026-01-20 03:17:11.56	306.14	10.31	-41.7	-42.7	22.2	0.00e+00	0	42	0	737148928	58	5555
2026-01-20 03:17:12.57	306.31	10.28	-41.8	-42.8	22.1	0.00e+00	0	42	0	738197504	56	6317
2026-01-20 03:17:13.57	306.48	10.26	-41.6	-42.7	22.5	0.00e+00	0	42	0	740294656	56	6183
2026-01-20 03:17:14.59	306.66	10.23	-42.3	-43.4	22.4	0.00e+00	0	42	0	742391808	56	6706
2026-01-20 03:17:15.60	306.83	10.21	-41.8	-42.8	22.3	0.00e+00	0	42	0	744488960	58	5581
2026-01-20 03:17:16.61	307.01	10.18	-43.0	-44.0	22.4	0.00e+00	0	42	0	746586112	58	6437
2026-01-20 03:17:17.62	307.18	10.15	-43.3	-44.4	22.0	0.00e+00	0	42	0	748683264	58	6706
2026-01-20 03:17:18.62	307.35	10.12	-43.2	-44.2	22.1	0.00e+00	0	41	0	749731840	58	6591
2026-01-20 03:17:19.63	307.52	10.10	-44.0	-45.2	21.6	0.00e+00	0	42	0	751828992	60	6571
2026-01-20 03:17:20.64	307.70	10.07	-43.9	-45.0	22.0	0.00e+00	0	41	0	753926144	60	6397
2026-01-20 03:17:21.65	307.87	10.04	-43.4	-44.5	22.1	0.00e+00	0	42	0	756023296	60	6087
2026-01-20 03:17:22.66	308.04	10.01	-42.9	-44.0	21.8	0.00e+00	0	42	0	758120448	60	5702
2026-01-20 03:17:23.67	308.21	9.99	-42.6	-43.7	22.4	0.00e+00	0	41	0	759169024	58	6176
2026-01-20 03:17:24.68	308.38	9.96	-42.8	-43.8	22.5	0.00e+00	0	41	0	761266176	58	6266
2026-01-20 03:17:25.69	308.55	9.93	-42.0	-43.1	22.6	0.00e+00	0	41	0	763363328	58	5765
2026-01-20 03:17:26.70	308.72	9.90	-42.5	-43.5	22.4	0.00e+00	0	42	0	765460480	58	6101
2026-01-20 03:17:27.70	308.89	9.87	-41.7	-42.7	22.7	0.00e+00	0	41	0	767557632	58	5543
2026-01-20 03:17:28.71	309.06	9.84	-42.1	-43.2	22.3	0.00e+00	0	41	0	768606208	56	6563
2026-01-20 03:17:29.72	309.23	9.82	-43.0	-44.0	22.2	0.00e+00	0	42	0	770703360	58	6458
2026-01-20 03:17:30.73	309.40	9.79	-43.4	-44.5	21.9	0.00e+00	0	42	0	772800512	58	6796
2026-01-20 03:17:31.74	309.56	9.76	-43.1	-44.2	21.7	0.00e+00	0	42	0	774897664	58	6558
2026-01-20 03:17:32.75	309.73	9.73	-42.8	-44.0	21.7	0.00e+00	0	41	0	776994816	58	6394
2026-01-20 03:17:33.76	309.90	9.70	-42.7	-43.8	21.7	0.00e+00	0	41	0	778043392	58	6296
2026-01-20 03:17:34.77	310.07	9.67	-42.9	-44.0	21.7	0.00e+00	0	42	0	780140544	58	6404
2026-01-20 03:17:35.78	310.23	9.64	-42.7	-43.9	21.6	0.00e+00	0	42	0	782237696	58	6339
2026-01-20 03:17:36.79	310.40	9.61	-43.5	-44.6	21.5	0.00e+00	0	41	0	784334848	58	6921
2026-01-20 03:17:37.80	310.57	9.58	-43.6	-44.8	21.6	0.00e+00	0	42	0	786432000	60	6273
2026-01-20 03:17:38.81	310.73	9.55	-43.3	-44.5	21.7	0.00e+00	0	42	0	787480576	60	6035
2026-01-20 03:17:39.82	310.90	9.51	-43.6	-44.8	21.5	0.00e+00	0	41	0	789577728	60	6266
2026-01-20 03:17:40.83	311.06	9.48	-43.6	-44.8	21.7	0.00e+00	0	41	0	791674880	60	6246
2026-01-20 03:17:41.84	311.23	9.45	-43.4	-44.6	21.7	0.00e+00	0	41	0	793772032	60	6108
2026-01-20 03:17:42.85	311.39	9.42	-43.7	-44.8	21.3	0.00e+00	0	41	0	795869184	60	6299
2026-01-20 03:17:43.86	311.56	9.39	-43.1	-44.3	21.2	0.00e+00	0	42	0	796917760	60	5916
2026-01-20 03:17:44.87	311.72	9.36	-43.5	-44.8	20.9	0.00e+00	0	42	0	799014912	60	6253
2026-01-20 03:17:45.88	311.89	9.33	-42.9	-44.1	21.3	0.00e+00	0	42	0	801112064	60	5808
2026-01-20 03:17:46.89	312.05	9.29	-43.0	-44.3	21.0	0.00e+00	0	41	0	803209216	60	5901
2026-01-20 03:17:47.90	312.21	9.26	-43.6	-44.8	20.9	0.00e+00	0	41	0	805306368	60	6277
2026-01-20 03:17:48.91	312.37	9.23	-43.8	-45.0	20.8	0.00e+00	0	41	0	806354944	60	6445
2026-01-20 03:17:49.92	312.54	9.20	-43.6	-44.8	21.0	0.00e+00	0	41	0	808452096	60	6283
2026-01-20 03:17:50.93	312.70	9.16	-44.1	-45.4	20.5	0.00e+00	0	41	0	810549248	60	6701
2026-01-20 03:17:51.94	312.86	9.13	-44.4	-45.8	20.0	0.00e+00	0	42	0	812646400	60	7012
2026-01-20 03:17:52.95	313.02	9.10	-44.7	-46.2	19.9	0.00e+00	0	41	0	814743552	60	7361
2026-01-20 03:17:53.96	313.18	9.07	-45.0	-46.5	19.3	0.00e+00	0	42	0	816840704	60	7659
2026-01-20 03:17:54.97	313.34	9.03	-45.2	-46.7	19.5	0.00e+00	0	42	0	817889280	60	7849
2026-01-20 03:17:55.98	313.50	9.00	-45.3	-46.8	19.6	0.00e+00	0	41	0	819986432	60	7938
2026-01-20 03:17:56.99	313.66	8.97	-45.4	-46.9	19.2	0.00e+00	0	42	0	822083584	60	8032
2026-01-20 03:17:58.00	313.82	8.93	-45.8	-47.4	19.2	0.00e+00	0	42	0	824180736	60	8428
2026-01-20 03:17:59.01	313.98	8.90	-45.4	-46.9	19.6	0.00e+00	0	41	0	826277888	60	8038
2026-01-20 03:18:00.02	314.14	8.86	-46.0	-47.7	19.1	0.00e+00	0	42	0	827326464	60	8784
2026-01-20 03:18:01.03	314.30	8.83	-45.2	-46.7	19.5	0.00e+00	0	41	0	829423616	60	7796
2026-01-20 03:18:02.04	314.46	8.80	-44.6	-46.1	19.3	0.00e+00	0	42	0	831520768	60	7282
2026-01-20 03:18:03.05	314.61	8.76	-45.5	-47.0	19.5	0.00e+00	0	41	0	833617920	60	8122
2026-01-20 03:18:04.06	314.77	8.73	-45.8	-47.4	19.0	0.00e+00	0	42	0	835715072	60	8471
2026-01-20 03:18:05.07	314.93	8.69	-46.0	-47.7	18.6	0.00e+00	0	42	0	836763648	60	8741
2026-01-20 03:18:06.08	315.08	8.66	-46.5	-48.3	18.3	0.00e+00	0	42	0	838860800	60	9349
2026-01-20 03:18:07.09	315.24	8.62	-46.3	-48.1	18.4	0.00e+00	0	41	0	840957952	60	9161
2026-01-20 03:18:08.10	315.40	8.59	-46.3	-48.1	18.2	0.00e+00	0	42	0	843055104	60	9220
2026-01-20 03:18:09.11	315.55	8.55	-46.1	-47.9	18.0	0.00e+00	0	41	0	845152256	60	8957
2026-01-20 03:18:10.12	315.71	8.52	-45.8	-47.5	18.4	0.00e+00	0	42	0	846200832	60	8584
2026-01-20 03:18:11.13	315.86	8.48	-46.5	-48.4	17.9	0.00e+00	0	41	0	848297984	60	9535
2026-01-20 03:18:12.14	316.02	8.45	-46.1	-48.0	17.8	0.00e+00	0	42	0	850395136	60	9047
2026-01-20 03:18:13.15	316.17	8.41	-45.9	-47.7	18.0	0.00e+00	0	42	0	852492288	60	8723
2026-01-20 03:18:14.16	316.32	8.37	-46.5	-48.5	17.7	0.00e+00	0	42	0	854589440	60	9654
2026-01-20 03:18:15.17	316.48	8.34	-46.1	-48.1	17.7	0.00e+00	0	42	0	855638016	60	9148
2026-01-20 03:18:16.18	316.63	8.30	-46.3	-48.3	17.4	0.00e+00	0	42	0	857735168	60	9418
2026-01-20 03:18:17.19	316.78	8.27	-47.1	-49.1	17.6	0.00e+00	0	41	0	859832320	60	10354
2026-01-20 03:18:18.20	316.93	8.23	-46.6	-48.4	17.8	0.00e+00	0	42	0	861929472	60	9524
2026-01-20 03:18:19.21	317.09	8.19	-46.8	-48.7	17.6	0.00e+00	0	42	0	864026624	60	9860
2026-01-20 03:18:20.22	317.24	8.16	-46.4	-48.3	17.4	0.00e+00	0	42	0	865075200	60	9427
2026-01-20 03:18:21.22	317.39	8.12	-46.3	-48.4	17.1	0.00e+00	0	42	0	867172352	60	9495
2026-01-20 03:18:22.24	317.54	8.08	-46.3	-48.3	17.3	0.00e+00	0	41	0	869269504	60	9390
2026-01-20 03:18:23.25	317.69	8.05	-46.3	-48.3	17.3	0.00e+00	0	42	0	871366656	60	9433
2026-01-20 03:18:24.26	317.84	8.01	-47.0	-49.2	17.0	0.00e+00	0	42	0	873463808	60	10429
2026-01-20 03:18:25.26	317.99	7.97	-46.7	-48.6	17.3	0.00e+00	0	42	0	874512384	60	9774
2026-01-20 03:18:26.27	318.14	7.94	-46.6	-48.5	17.9	0.00e+00	0	41	0	876609536	60	9634
2026-01-20 03:18:27.28	318.29	7.90	-46.6	-48.5	17.7	0.00e+00	0	42	0	878706688	60	9590
2026-01-20 03:18:28.29	318.43	7.86	-46.6	-48.7	17.0	0.00e+00	0	41	0	880803840	60	9867
2026-01-20 03:18:29.30	318.58	7.82	-46.4	-48.5	17.1	0.00e+00	0	42	0	882900992	60	9569
2026-01-20 03:18:30.31	318.73	7.79	-46.1	-47.9	18.0	0.00e+00	0	42	0	884998144	60	9023
2026-01-20 03:18:31.32	318.88	7.75	-47.0	-48.8	17.7	0.00e+00	0	41	0	886046720	60	10011
2026-01-20 03:18:32.33	319.02	7.71	-47.7	-49.9	16.7	0.00e+00	0	42	0	888143872	60	11269
2026-01-20 03:18:33.34	319.17	7.67	-47.2	-49.0	18.1	0.00e+00	0	42	0	890241024	60	10182
2026-01-20 03:18:34.35	319.32	7.63	-46.9	-48.7	18.1	0.00e+00	0	41	0	892338176	60	9873
2026-01-20 03:18:35.36	319.46	7.60	-46.7	-48.4	18.4	0.00e+00	0	41	0	894435328	60	9499
2026-01-20 03:18:36.37	319.61	7.56	-47.5	-49.3	17.9	0.00e+00	0	41	0	895483904	60	10544
2026-01-20 03:18:37.38	319.75	7.52	-46.1	-47.7	18.4	0.00e+00	0	41	0	897581056	60	8793
2026-01-20 03:18:38.39	319.90	7.48	-46.8	-48.6	17.8	0.00e+00	0	41	0	899678208	60	9757
2026-01-20 03:18:39.40	320.04	7.44	-47.0	-49.0	17.4	0.00e+00	0	41	0	901775360	60	10167
2026-01-20 03:18:40.41	320.19	7.40	-47.4	-49.4	17.1	0.00e+00	0	42	0	903872512	60	10662
2026-01-20 03:18:41.42	320.33	7.36	-47.2	-49.2	17.5	0.00e+00	0	41	0	904921088	60	10448
2026-01-20 03:18:42.43	320.47	7.33	-47.4	-49.3	17.7	0.00e+00	0	42	0	907018240	60	10570
2026-01-20 03:18:43.44	320.62	7.29	-47.4	-49.3	17.6	0.00e+00	0	41	0	909115392	60	10558
2026-01-20 03:18:44.45	320.76	7.25	-47.4	-49.3	17.6	0.00e+00	0	42	0	911212544	60	10551
2026-01-20 03:18:45.46	320.90	7.21	-46.8	-48.6	17.8	0.00e+00	0	42	0	913309696	60	9728
2026-01-20 03:18:46.47	321.04	7.17	-46.7	-48.5	18.0	0.00e+00	0	41	0	914358272	60	9638
2026-01-20 03:18:47.47	321.18	7.13	-47.1	-48.9	17.9	0.00e+00	0	42	0	916455424	60	10074
2026-01-20 03:18:48.48	321.32	7.09	-46.6	-48.3	18.6	0.00e+00	0	41	0	918552576	60	9365
2026-01-20 03:18:49.50	321.47	7.05	-46.9	-48.8	17.8	0.00e+00	0	41	0	920649728	60	9985
2026-01-20 03:18:50.51	321.61	7.01	-47.0	-48.9	17.9	0.00e+00	0	41	0	922746880	60	10097
2026-01-20 03:18:51.51	321.75	6.97	-46.4	-48.3	17.5	0.00e+00	0	42	0	923795456	60	9387
2026-01-20 03:18:52.53	321.89	6.93	-47.3	-49.6	16.9	0.00e+00	0	41	0	925892608	60	10875
2026-01-20 03:18:53.53	322.02	6.89	-47.3	-49.7	16.2	0.00e+00	0	41	0	927989760	60	11033
2026-01-20 03:18:54.55	322.16	6.85	-47.4	-49.9	15.9	0.00e+00	0	42	0	930086912	60	11257
2026-01-20 03:18:55.56	322.30	6.81	-48.1	-50.5	16.1	0.00e+00	0	41	0	932184064	60	12099
2026-01-20 03:18:56.56	322.44	6.77	-48.6	-51.2	15.6	0.00e+00	0	41	0	933232640	60	13107
2026-01-20 03:18:57.57	322.58	6.73	-48.5	-50.8	16.6	0.00e+00	0	42	0	935329792	60	12553
2026-01-20 03:18:58.58	322.71	6.69	-47.1	-49.1	17.5	0.00e+00	0	42	0	937426944	60	10328
2026-01-20 03:18:59.59	322.85	6.65	-47.1	-49.1	17.4	0.00e+00	0	42	0	939524096	60	10273
2026-01-20 03:19:00.60	322.99	6.61	-47.1	-49.0	18.2	0.00e+00	0	42	0	941621248	60	10164
2026-01-20 03:19:01.61	323.12	6.57	-47.3	-49.2	17.6	0.00e+00	0	41	0	942669824	60	10396
2026-01-20 03:19:02.62	323.26	6.53	-45.9	-47.6	18.4	0.00e+00	0	41	0	944766976	60	8682
2026-01-20 03:19:03.63	323.40	6.49	-46.3	-47.9	18.5	0.00e+00	0	41	0	946864128	60	8959
2026-01-20 03:19:04.64	323.53	6.45	-47.3	-49.0	18.4	0.00e+00	0	41	0	948961280	60	10130
2026-01-20 03:19:05.65	323.67	6.41	-46.6	-48.4	18.2	0.00e+00	0	42	0	951058432	60	9479
2026-01-20 03:19:06.66	323.80	6.37	-47.2	-49.0	18.3	0.00e+00	0	41	0	953155584	60	10196
2026-01-20 03:19:07.67	323.93	6.33	-47.1	-49.0	17.2	0.00e+00	0	42	0	954204160	60	10153
2026-01-20 03:19:08.68	324.07	6.29	-47.6	-49.5	17.3	0.00e+00	0	42	0	956301312	60	10745
2026-01-20 03:19:09.69	324.20	6.25	-48.1	-50.2	18.2	0.00e+00	0	41	0	958398464	60	11643
2026-01-20 03:19:10.70	324.34	6.21	-47.4	-49.3	17.9	0.00e+00	0	41	0	960495616	60	10491
2026-01-20 03:19:11.71	324.47	6.17	-46.5	-48.4	17.9	0.00e+00	0	41	0	962592768	60	9493
2026-01-20 03:19:12.72	324.60	6.12	-47.2	-49.0	18.3	0.00e+00	0	42	0	963641344	60	10188
2026-01-20 03:19:13.73	324.73	6.08	-46.1	-47.8	18.8	0.00e+00	0	41	0	965738496	60	8867
2026-01-20 03:19:14.74	324.86	6.04	-46.7	-48.4	18.7	0.00e+00	0	41	0	967835648	60	9492
2026-01-20 03:19:15.75	325.00	6.00	-46.8	-48.5	18.6	0.00e+00	0	41	0	969932800	60	9632
2026-01-20 03:19:16.76	325.13	5.96	-46.8	-48.4	19.3	0.00e+00	0	41	0	972029952	60	9505
2026-01-20 03:19:17.77	325.26	5.92	-46.2	-47.8	18.9	0.00e+00	0	41	0	973078528	60	8891
2026-01-20 03:19:18.78	325.39	5.88	-46.1	-47.7	18.8	0.00e+00	0	41	0	975175680	60	8782
2026-01-20 03:19:19.78	325.52	5.84	-46.1	-47.8	18.6	0.00e+00	0	41	0	977272832	60	8833
2026-01-20 03:19:20.79	325.64	5.79	-45.3	-47.0	18.7	0.00e+00	0	41	0	979369984	60	8054
2026-01-20 03:19:21.80	325.77	5.75	-46.8	-48.6	18.3	0.00e+00	0	41	0	981467136	60	9683
2026-01-20 03:19:22.81	325.90	5.71	-46.4	-48.0	18.6	0.00e+00	0	42	0	982515712	60	9079
2026-01-20 03:19:23.82	326.03	5.67	-44.5	-46.1	18.7	0.00e+00	0	41	0	984612864	60	7315
2026-01-20 03:19:24.83	326.16	5.63	-46.0	-47.5	19.2	0.00e+00	0	41	0	986710016	60	8609
2026-01-20 03:19:25.84	326.29	5.59	-45.6	-47.3	18.6	0.00e+00	0	41	0	988807168	60	8329
2026-01-20 03:19:26.84	326.41	5.55	-46.2	-47.7	19.2	0.00e+00	0	41	0	990904320	60	8786
2026-01-20 03:19:27.85	326.54	5.50	-45.8	-47.4	19.0	0.00e+00	0	41	0	991952896	60	8447
2026-01-20 03:19:28.87	326.67	5.46	-45.6	-47.1	19.6	0.00e+00	0	41	0	994050048	60	8172
2026-01-20 03:19:29.88	326.79	5.42	-45.9	-47.4	19.5	0.00e+00	0	41	0	996147200	60	8449
2026-01-20 03:19:30.88	326.92	5.38	-45.5	-47.0	19.2	0.00e+00	0	41	0	998244352	60	8061
2026-01-20 03:19:31.89	327.04	5.34	-45.6	-47.1	19.5	0.00e+00	0	42	0	1000341504	60	8157
2026-01-20 03:19:32.90	327.17	5.29	-45.2	-46.6	20.1	0.00e+00	0	42	0	1001390080	60	7693
2026-01-20 03:19:33.91	327.30	5.25	-45.6	-47.0	19.8	0.00e+00	0	41	0	1003487232	60	8138
2026-01-20 03:19:34.92	327.42	5.21	-44.7	-46.2	19.8	0.00e+00	0	42	0	1005584384	60	7371
2026-01-20 03:19:35.93	327.54	5.17	-44.4	-45.7	20.2	0.00e+00	0	42	0	1007681536	60	7001
2026-01-20 03:19:36.94	327.67	5.12	-45.2	-46.6	19.8	0.00e+00	0	42	0	1009778688	60	7716
2026-01-20 03:19:37.95	327.79	5.08	-45.5	-46.9	19.6	0.00e+00	0	41	0	1010827264	60	7999
2026-01-20 03:19:38.96	327.91	5.04	-45.2	-46.5	19.8	0.00e+00	0	42	0	1012924416	60	7672
2026-01-20 03:19:39.97	328.04	5.00	-45.8	-47.2	19.9	0.00e+00	0	41	0	1015021568	60	8277
2026-01-20 03:19:40.98	328.16	4.95	-44.7	-46.2	20.1	0.00e+00	0	42	0	1017118720	60	7339
2026-01-20 03:19:41.98	328.28	4.91	-45.7	-47.3	19.3	0.00e+00	0	42	0	1019215872	60	8351
2026-01-20 03:19:42.99	328.40	4.87	-45.8	-47.2	19.9	0.00e+00	0	42	0	1020264448	60	8265
2026-01-20 03:19:44.00	328.52	4.83	-45.8	-47.3	19.4	0.00e+00	0	41	0	1022361600	60	8400
2026-01-20 03:19:45.01	328.65	4.79	-45.6	-46.9	20.5	0.00e+00	0	41	0	1024458752	60	8036
2026-01-20 03:19:46.02	328.77	4.74	-44.8	-46.1	20.4	0.00e+00	0	41	0	1026555904	60	7301
2026-01-20 03:19:47.03	328.89	4.70	-45.1	-46.5	20.2	0.00e+00	0	41	0	1028653056	60	7606
2026-01-20 03:19:48.04	329.01	4.66	-45.1	-46.6	19.2	0.00e+00	0	41	0	1029701632	60	7722
2026-01-20 03:19:49.05	329.13	4.61	-46.4	-48.1	18.5	0.00e+00	0	41	0	1031798784	60	9182
2026-01-20 03:19:50.06	329.25	4.57	-46.7	-48.5	18.2	0.00e+00	0	41	0	1033895936	60	9583
2026-01-20 03:19:51.07	329.37	4.53	-46.6	-48.5	17.8	0.00e+00	0	41	0	1035993088	60	9563
2026-01-20 03:19:52.08	329.48	4.49	-45.4	-47.0	19.0	0.00e+00	0	41	0	1038090240	60	8072
2026-01-20 03:19:53.09	329.60	4.44	-45.9	-47.5	18.8	0.00e+00	0	41	0	1039138816	60	8563
2026-01-20 03:19:54.10	329.72	4.40	-45.7	-47.2	19.3	0.00e+00	0	41	0	1041235968	60	8296
2026-01-20 03:19:55.11	329.84	4.36	-44.6	-46.0	19.9	0.00e+00	0	41	0	1043333120	60	7241
2026-01-20 03:19:56.12	329.96	4.31	-45.7	-47.2	19.6	0.00e+00	0	41	0	1045430272	60	8304
2026-01-20 03:19:57.13	330.07	4.27	-45.4	-46.8	19.6	0.00e+00	0	41	0	1047527424	60	7944
2026-01-20 03:19:58.14	330.19	4.23	-45.1	-46.5	19.4	0.00e+00	0	41	0	1049624576	60	7682
2026-01-20 03:19:59.15	330.31	4.19	-44.7	-46.1	19.8	0.00e+00	0	41	0	1050673152	60	7335
2026-01-20 03:20:00.16	330.42	4.14	-45.2	-46.7	19.5	0.00e+00	0	41	0	1052770304	60	7852
2026-01-20 03:20:01.17	330.54	4.10	-45.0	-46.5	19.3	0.00e+00	0	41	0	1054867456	60	7605
2026-01-20 03:20:02.18	330.65	4.06	-45.8	-47.2	19.2	0.00e+00	0	41	0	1056964608	60	8324
2026-01-20 03:20:03.19	330.77	4.01	-45.2	-46.8	18.5	0.00e+00	0	41	0	1059061760	60	7885
2026-01-20 03:20:04.20	330.88	3.97	-45.7	-47.3	19.3	0.00e+00	0	41	0	1060110336	60	8336
2026-01-20 03:20:05.21	331.00	3.93	-46.5	-48.2	18.6	0.00e+00	0	41	0	1062207488	60	9274
2026-01-20 03:20:06.22	331.11	3.88	-46.3	-48.1	17.7	0.00e+00	0	41	0	1064304640	60	9224
2026-01-20 03:20:07.23	331.23	3.84	-45.6	-47.4	17.9	0.00e+00	0	41	0	1066401792	60	8515
2026-01-20 03:20:08.24	331.34	3.80	-45.6	-47.7	17.3	0.00e+00	0	41	0	1068498944	60	8729
2026-01-20 03:20:09.25	331.45	3.75	-46.2	-48.6	16.1	0.00e+00	0	42	0	1069547520	60	9758
2026-01-20 03:20:10.26	331.57	3.71	-46.5	-49.1	15.8	0.00e+00	0	42	0	1071644672	60	10264
2026-01-20 03:20:11.27	331.68	3.67	-46.4	-49.1	15.0	0.00e+00	0	41	0	1073741824	60	10343
2026-01-20 03:20:12.28	331.79	3.63	-48.2	-51.8	12.8	0.00e+00	0	42	0	1075838976	60	14103
2026-01-20 03:20:13.29	331.90	3.58	-48.7	-53.0	11.7	2.68e-04	0	41	0	1077936128	60	16184
2026-01-20 03:20:14.30	332.02	3.54	-48.3	-53.3	10.2	3.93e-03	0	42	0	1078984704	60	16781
2026-01-20 03:20:15.31	332.13	3.50	-48.9	-54.5	9.2	8.84e-03	0	41	0	1081081856	60	19147
2026-01-20 03:20:16.32	332.24	3.45	-49.1	-56.2	7.1	1.06e-01	0	42	0	1083179008	60	23398
2026-01-20 03:20:17.33	332.35	3.41	-48.1	-56.5	5.2	1.93e-01	0	41	0	1085276160	60	24240
2026-01-20 03:20:18.34	332.46	3.37	-48.5	-58.0	4.2	5.94e-01	0	42	0	1087373312	60	28667
2026-01-20 03:20:19.35	332.57	3.32	-48.9	-61.4	3.6	1.44e+00	0	42	104	1087373312	60	42513
2026-01-20 03:20:20.36	332.68	3.28	-48.6	-61.7	3.6	1.46e+00	0	41	104	1087373312	60	44138
2026-01-20 03:20:21.36	332.79	3.24	-48.6	-62.3	3.6	1.51e+00	0	42	104	1087373312	60	47195
2026-01-20 03:20:22.37	332.90	3.19	-48.6	-63.0	3.6	1.51e+00	0	42	104	1087373312	60	50920
2026-01-20 03:20:23.38	333.01	3.15	-48.7	-63.4	3.6	1.51e+00	0	42	104	1087373312	60	53258
2026-01-20 03:20:24.39	333.11	3.10	-48.6	-63.6	3.6	1.51e+00	0	41	104	1087373312	60	54868
2026-01-20 03:20:25.40	333.22	3.06	-48.4	-63.5	3.6	1.51e+00	0	42	104	1087373312	60	53853
2026-01-20 03:20:26.41	333.33	3.02	-48.3	-63.4	3.6	1.51e+00	0	42	104	1087373312	60	53747
2026-01-20 03:20:27.42	333.44	2.97	-52.6	-67.9	3.6	1.51e+00	0	41	104	1087373312	60	90019
2026-01-20 03:20:28.43	333.55	2.93	-52.1	-67.3	3.6	1.51e+00	0	42	104	1087373312	60	83435
2026-01-20 03:20:29.44	333.65	2.89	-53.1	-68.3	3.6	1.51e+00	0	42	104	1087373312	60	94135
2026-01-20 03:20:30.45	333.76	2.84	-53.0	-68.2	3.6	1.51e+00	0	42	104	1087373312	60	93122
2026-01-20 03:20:31.46	333.87	2.80	-53.6	-68.9	3.6	1.51e+00	0	42	104	1087373312	60	100741
2026-01-20 03:20:32.47	333.97	2.76	-52.8	-68.0	3.6	1.51e+00	0	42	104	1087373312	60	91313
2026-01-20 03:20:33.47	334.08	2.71	-53.0	-68.2	3.6	1.51e+00	0	42	104	1087373312	60	93269
2026-01-20 03:20:34.48	334.18	2.67	-52.8	-68.0	3.6	1.51e+00	0	42	104	1087373312	60	90665
2026-01-20 03:20:35.49	334.29	2.63	-53.1	-68.3	3.6	1.51e+00	0	42	104	1087373312	60	94476
2026-01-20 03:20:36.50	334.39	2.58	-52.0	-67.3	3.6	1.51e+00	0	42	104	1087373312	60	83541
2026-01-20 03:20:37.51	334.50	2.54	-51.5	-66.7	3.6	1.51e+00	0	42	104	1087373312	60	78324
2026-01-20 03:20:38.52	334.60	2.50	-51.2	-66.4	3.6	1.51e+00	0	42	104	1087373312	60	75610
2026-01-20 03:20:39.53	334.71	2.45	-52.4	-67.6	3.6	1.51e+00	0	42	104	1087373312	60	86577
2026-01-20 03:20:40.54	334.81	2.41	-52.9	-68.1	3.6	1.51e+00	0	42	104	1087373312	60	91872
2026-01-20 03:20:41.55	334.91	2.36	-53.2	-68.5	3.6	1.51e+00	0	42	104	1087373312	60	96256
2026-01-20 03:20:42.56	335.02	2.32	-52.1	-67.7	3.6	1.51e+00	0	41	104	1087373312	60	87526
2026-01-20 03:20:43.57	335.12	2.28	-53.5	-68.8	3.6	1.51e+00	0	42	104	1087373312	60	99811
2026-01-20 03:20:44.58	335.22	2.23	-53.2	-68.5	3.6	1.51e+00	0	42	104	1087373312	60	95729
2026-01-20 03:20:45.59	335.33	2.19	-52.0	-67.2	3.5	1.51e+00	0	42	104	1087373312	60	83166
2026-01-20 03:20:46.60	335.43	2.15	-53.7	-68.9	3.6	1.51e+00	0	42	104	1087373312	60	100939
2026-01-20 03:20:47.61	335.53	2.10	-53.6	-68.8	3.7	1.51e+00	0	42	104	1087373312	60	100012
2026-01-20 03:20:48.62	335.63	2.06	-53.2	-68.5	3.6	1.51e+00	0	42	104	1087373312	60	96291
2026-01-20 03:20:49.63	335.73	2.02	-53.9	-69.2	3.6	1.51e+00	0	42	104	1087373312	60	103800
2026-01-20 03:20:50.64	335.83	1.97	-52.8	-68.0	3.6	1.51e+00	0	42	104	1087373312	60	91190
2026-01-20 03:20:51.65	335.93	1.93	-53.0	-68.3	3.6	1.51e+00	0	42	104	1087373312	60	93656
2026-01-20 03:20:52.66	336.03	1.89	-52.8	-68.0	3.6	1.51e+00	0	42	104	1087373312	60	90792
2026-01-20 03:20:53.67	336.13	1.84	-52.8	-68.0	3.6	1.51e+00	0	42	104	1087373312	60	90301
2026-01-20 03:20:54.68	336.23	1.80	-52.6	-67.8	3.6	1.51e+00	0	42	104	1087373312	60	88495
2026-01-20 03:20:55.69	336.33	1.75	-52.4	-67.6	3.6	1.51e+00	0	42	104	1087373312	60	86732
2026-01-20 03:20:56.70	336.43	1.71	-52.2	-67.4	3.6	1.51e+00	0	42	104	1087373312	60	84891
2026-01-20 03:20:57.71	336.53	1.67	-51.9	-67.1	3.6	1.51e+00	0	42	104	1087373312	60	81832
2026-01-20 03:20:58.72	336.63	1.62	-52.6	-67.7	3.6	1.51e+00	0	42	104	1087373312	60	87823
2026-01-20 03:20:59.73	336.73	1.58	-52.7	-67.9	3.6	1.51e+00	0	42	104	1087373312	60	89964
2026-01-20 03:21:00.74	336.83	1.54	-52.8	-68.1	3.6	1.51e+00	0	42	104	1087373312	60	91376
2026-01-20 03:21:01.75	336.93	1.49	-53.4	-68.6	3.6	1.51e+00	0	42	104	1087373312	60	97335
2026-01-20 03:21:02.76	337.02	1.45	-53.2	-68.5	3.6	1.51e+00	0	41	104	1087373312	60	95640
2026-01-20 03:21:03.77	337.12	1.41	-53.3	-68.6	3.6	1.51e+00	0	42	104	1087373312	60	96890
2026-01-20 03:21:04.78	337.22	1.36	-53.4	-68.7	3.6	1.51e+00	0	42	104	1087373312	60	98106
