passes_logs/2026/01/20/R4.6S_Anadyr/R4.6S_Anadyr__20260120_034137_AQUA_rec.log

#Pass ID: 20260120_034137_AQUA
#Satellite: AQUA
#Configuration: AQUA
#almurnet v.1.7.20251203
#Start time: 2026-01-20 03:41:39

#Version: 2.2.20231116
#Station: R4.6S_Anadyr
#Location: 177.4865 lon 64.73178 lat
#TLE: 1 27424U 02022A   26019.27629806  .00001032  00000+0  21655-3 0  9990
#TLE: 2 27424  98.4090 345.7756 0001997  73.0764  31.8912 14.61830109261513

#Time	Az	El	Level	Level2	SNR	BER	BlckErr	Temp	State	Recorded	gain1	gain2
2026-01-20 03:41:39.88	203.47	0.13	-52.4	-67.4	3.5	1.51e+00	0	39	0	0	60	84542
2026-01-20 03:41:40.88	203.54	0.19	-53.4	-71.2	3.5	3.02e+01	0	40	104	0	60	140457
2026-01-20 03:41:41.89	203.60	0.24	-53.5	-71.4	3.5	3.02e+01	0	40	104	0	60	143179
2026-01-20 03:41:42.90	203.67	0.30	-53.8	-71.7	3.5	3.02e+01	0	40	104	0	60	147201
2026-01-20 03:41:43.91	203.74	0.36	-54.0	-71.8	3.5	3.02e+01	0	40	104	0	60	150069
2026-01-20 03:41:44.92	203.80	0.41	-54.2	-72.0	3.5	3.02e+01	0	40	104	0	60	153904
2026-01-20 03:41:45.93	203.87	0.47	-54.2	-72.0	3.5	3.02e+01	0	40	104	0	60	152848
2026-01-20 03:41:46.94	203.94	0.52	-53.6	-71.4	3.5	3.02e+01	0	40	104	0	60	142870
2026-01-20 03:41:47.95	204.00	0.58	-54.4	-72.2	3.5	3.02e+01	0	40	104	0	60	157111
2026-01-20 03:41:48.96	204.07	0.64	-54.0	-71.8	3.5	3.02e+01	0	40	104	0	60	150027
2026-01-20 03:41:49.97	204.14	0.69	-53.4	-71.3	3.5	3.02e+01	0	40	104	0	60	141026
2026-01-20 03:41:50.98	204.21	0.75	-53.8	-71.7	3.5	3.02e+01	0	40	104	0	60	147356
2026-01-20 03:41:51.99	204.28	0.81	-54.3	-72.2	3.5	3.02e+01	0	40	104	0	60	155999
2026-01-20 03:41:53.00	204.35	0.87	-52.9	-70.9	3.5	3.02e+01	0	40	104	0	60	134523
2026-01-20 03:41:54.01	204.41	0.92	-53.4	-71.3	3.5	3.02e+01	0	40	104	0	60	142083
2026-01-20 03:41:55.02	204.48	0.98	-54.2	-72.1	3.5	3.02e+01	0	40	104	0	60	154256
2026-01-20 03:41:56.03	204.55	1.04	-54.0	-72.0	3.5	3.02e+01	0	40	104	0	60	153765
2026-01-20 03:41:57.04	204.62	1.10	-54.0	-71.9	3.5	3.02e+01	0	40	104	0	60	151197
2026-01-20 03:41:58.05	204.69	1.15	-53.4	-71.4	3.5	3.02e+01	0	40	104	0	60	142433
2026-01-20 03:41:59.06	204.76	1.21	-52.4	-70.4	3.5	3.02e+01	0	41	104	0	60	126782
2026-01-20 03:42:00.07	204.83	1.27	-53.2	-71.1	3.5	3.02e+01	0	40	104	0	60	138876
2026-01-20 03:42:01.08	204.91	1.33	-53.4	-71.3	3.5	3.02e+01	0	40	104	0	60	141976
2026-01-20 03:42:02.09	204.98	1.38	-54.4	-72.3	3.5	3.02e+01	0	40	104	0	60	158215
2026-01-20 03:42:03.10	205.05	1.44	-53.3	-71.2	3.5	3.02e+01	0	40	104	0	60	139841
2026-01-20 03:42:04.11	205.12	1.50	-53.8	-71.6	3.5	3.02e+01	0	40	104	0	60	146862
2026-01-20 03:42:05.12	205.19	1.56	-53.7	-71.7	3.5	3.02e+01	0	40	104	0	60	148132
2026-01-20 03:42:06.13	205.27	1.62	-53.6	-71.5	3.5	3.02e+01	0	40	104	0	60	144316
2026-01-20 03:42:07.14	205.34	1.68	-53.7	-71.7	3.5	3.02e+01	0	40	104	0	60	148140
2026-01-20 03:42:08.15	205.41	1.73	-52.8	-70.9	3.5	3.02e+01	0	40	104	0	60	135016
2026-01-20 03:42:09.16	205.48	1.79	-52.7	-70.8	3.5	3.02e+01	0	41	104	0	60	133795
2026-01-20 03:42:10.17	205.56	1.85	-52.6	-70.8	3.5	3.02e+01	0	40	104	0	60	132968
2026-01-20 03:42:11.18	205.63	1.91	-52.4	-70.5	3.5	3.02e+01	0	41	104	0	60	129528
2026-01-20 03:42:12.19	205.71	1.97	-53.6	-71.9	3.5	3.02e+01	0	41	104	0	60	151412
2026-01-20 03:42:13.20	205.78	2.03	-53.3	-71.5	3.5	3.02e+01	0	40	104	0	60	145304
2026-01-20 03:42:14.21	205.86	2.09	-53.3	-71.5	3.5	3.02e+01	0	41	104	0	60	145391
2026-01-20 03:42:15.22	205.93	2.15	-53.5	-71.7	3.5	3.02e+01	0	40	104	0	60	148204
2026-01-20 03:42:16.22	206.01	2.21	-53.8	-72.0	3.5	3.02e+01	0	41	104	0	60	153788
2026-01-20 03:42:17.24	206.08	2.27	-53.2	-71.4	3.5	3.02e+01	0	41	104	0	60	143735
2026-01-20 03:42:18.24	206.16	2.32	-53.0	-71.2	3.5	3.02e+01	0	41	104	0	60	139215
2026-01-20 03:42:19.26	206.24	2.38	-52.6	-70.8	3.5	3.02e+01	0	41	104	0	60	132999
2026-01-20 03:42:20.26	206.31	2.44	-53.6	-71.7	3.5	3.02e+01	0	41	104	0	60	148732
2026-01-20 03:42:21.27	206.39	2.50	-53.0	-71.2	3.5	3.02e+01	0	41	104	0	60	139658
2026-01-20 03:42:22.28	206.47	2.56	-53.6	-71.7	3.5	3.02e+01	0	41	104	0	60	148051
2026-01-20 03:42:23.29	206.54	2.62	-53.6	-71.7	3.5	3.02e+01	0	41	104	0	60	147333
2026-01-20 03:42:24.30	206.62	2.68	-54.1	-72.2	3.5	3.02e+01	0	41	104	0	60	155938
2026-01-20 03:42:25.31	206.70	2.74	-53.3	-71.4	3.5	3.02e+01	0	40	104	0	60	142330
2026-01-20 03:42:26.32	206.78	2.80	-54.3	-72.5	3.5	3.02e+01	0	41	104	0	60	162244
2026-01-20 03:42:27.33	206.86	2.86	-53.6	-71.9	3.5	3.02e+01	0	41	104	0	60	151797
2026-01-20 03:42:28.34	206.94	2.93	-53.5	-71.7	3.5	3.02e+01	0	41	104	0	60	148174
2026-01-20 03:42:29.35	207.02	2.99	-53.0	-71.2	3.5	3.02e+01	0	41	104	0	60	139998
2026-01-20 03:42:30.36	207.10	3.05	-53.7	-72.0	3.5	3.02e+01	0	41	104	0	60	152808
2026-01-20 03:42:31.37	207.18	3.11	-53.3	-71.6	3.5	3.02e+01	0	41	104	0	60	146539
2026-01-20 03:42:32.37	207.26	3.17	-53.9	-72.1	3.5	3.02e+01	0	41	104	0	60	154876
2026-01-20 03:42:33.39	207.34	3.23	-53.9	-72.1	3.5	3.02e+01	0	41	104	0	60	155523
2026-01-20 03:42:34.39	207.42	3.29	-53.7	-71.8	3.5	3.02e+01	0	41	104	0	60	150327
2026-01-20 03:42:35.40	207.50	3.35	-54.1	-72.2	3.5	3.02e+01	0	41	104	0	60	156290
2026-01-20 03:42:36.41	207.59	3.41	-53.2	-71.3	3.5	3.02e+01	0	41	104	0	60	141914
2026-01-20 03:42:37.42	207.67	3.48	-53.9	-71.9	3.5	3.02e+01	0	41	104	0	60	151554
2026-01-20 03:42:38.43	207.75	3.54	-53.9	-71.8	3.5	3.02e+01	0	41	104	0	60	150038
2026-01-20 03:42:39.44	207.83	3.60	-54.0	-71.9	3.5	3.02e+01	0	41	104	0	60	152128
2026-01-20 03:42:40.45	207.92	3.66	-53.8	-71.7	3.5	3.02e+01	0	41	104	0	60	148534
2026-01-20 03:42:41.46	208.00	3.72	-54.4	-72.3	3.5	3.02e+01	0	41	104	0	60	159486
2026-01-20 03:42:42.47	208.09	3.78	-54.1	-72.0	3.5	3.02e+01	0	41	104	0	60	153486
2026-01-20 03:42:43.48	208.17	3.85	-54.1	-72.0	3.5	3.02e+01	0	41	104	0	60	153873
2026-01-20 03:42:44.49	208.26	3.91	-53.6	-71.5	3.5	3.02e+01	0	41	104	0	60	145297
2026-01-20 03:42:45.50	208.34	3.97	-53.9	-71.8	3.5	3.02e+01	0	41	104	0	60	150450
2026-01-20 03:42:46.51	208.43	4.03	-52.8	-70.7	3.5	3.02e+01	0	41	104	0	60	132252
2026-01-20 03:42:47.52	208.51	4.10	-53.4	-71.4	3.5	3.02e+01	0	41	104	0	60	142796
2026-01-20 03:42:48.53	208.60	4.16	-54.0	-71.9	3.5	3.02e+01	0	41	104	0	60	150963
2026-01-20 03:42:49.54	208.69	4.22	-53.8	-71.8	3.5	3.02e+01	0	41	104	0	60	149787
2026-01-20 03:42:50.54	208.78	4.28	-53.7	-71.7	3.5	3.02e+01	0	41	104	0	60	147600
2026-01-20 03:42:51.56	208.86	4.35	-53.6	-71.5	3.5	3.02e+01	0	41	104	0	60	145439
2026-01-20 03:42:52.57	208.95	4.41	-53.3	-71.2	3.5	3.02e+01	0	41	104	0	60	139635
2026-01-20 03:42:53.58	209.04	4.48	-53.2	-71.2	3.5	3.02e+01	0	41	104	0	60	139405
2026-01-20 03:42:54.59	209.13	4.54	-53.6	-71.5	3.5	3.02e+01	0	41	104	0	60	145265
2026-01-20 03:42:55.60	209.22	4.60	-53.3	-71.2	3.5	3.02e+01	0	41	104	0	60	139656
2026-01-20 03:42:56.61	209.31	4.67	-52.7	-70.6	3.5	3.02e+01	0	41	104	0	60	130978
2026-01-20 03:42:57.62	209.40	4.73	-54.1	-72.0	3.5	3.02e+01	0	41	104	0	60	153542
2026-01-20 03:42:58.62	209.49	4.79	-54.1	-72.1	3.5	3.02e+01	0	41	104	0	60	154284
2026-01-20 03:42:59.64	209.58	4.86	-53.5	-71.4	3.5	3.02e+01	0	41	104	0	60	142845
2026-01-20 03:43:00.65	209.67	4.92	-53.2	-71.1	3.5	3.02e+01	0	41	104	0	60	137596
2026-01-20 03:43:01.66	209.77	4.99	-53.2	-71.1	3.5	3.02e+01	0	41	104	0	60	138282
2026-01-20 03:43:02.67	209.86	5.05	-52.5	-70.3	3.5	3.02e+01	0	41	104	0	60	126420
2026-01-20 03:43:03.68	209.95	5.11	-52.2	-70.1	3.5	3.02e+01	0	41	104	0	60	122773
2026-01-20 03:43:04.69	210.05	5.18	-52.9	-70.8	3.5	3.02e+01	0	41	104	0	60	133529
2026-01-20 03:43:05.70	210.14	5.24	-53.4	-71.2	3.5	3.02e+01	0	41	104	0	60	139920
2026-01-20 03:43:06.71	210.23	5.31	-53.5	-71.4	3.5	3.02e+01	0	41	104	0	60	142690
2026-01-20 03:43:07.72	210.33	5.37	-52.6	-70.5	3.5	3.02e+01	0	41	104	0	60	129156
2026-01-20 03:43:08.72	210.42	5.44	-52.6	-70.5	3.5	3.02e+01	0	41	104	0	60	129060
2026-01-20 03:43:09.73	210.52	5.50	-53.1	-71.1	3.5	3.02e+01	0	41	104	0	60	137582
2026-01-20 03:43:10.74	210.61	5.57	-52.5	-70.5	3.5	3.02e+01	0	41	104	0	60	128211
2026-01-20 03:43:11.75	210.71	5.63	-52.2	-70.2	3.5	3.02e+01	0	41	104	0	60	123837
2026-01-20 03:43:12.77	210.81	5.70	-53.0	-71.0	3.5	3.02e+01	0	41	104	0	60	136852
2026-01-20 03:43:13.78	210.90	5.77	-52.6	-70.7	3.5	3.02e+01	0	41	104	0	60	131617
2026-01-20 03:43:14.79	211.00	5.83	-52.7	-70.7	3.5	3.02e+01	0	41	104	0	60	132649
2026-01-20 03:43:15.80	211.10	5.90	-52.3	-70.4	3.5	3.02e+01	0	41	104	0	60	126975
2026-01-20 03:43:16.81	211.20	5.96	-52.5	-70.5	3.5	3.02e+01	0	41	104	0	60	129593
2026-01-20 03:43:17.82	211.30	6.03	-52.4	-70.5	3.5	3.02e+01	0	41	104	0	60	128475
2026-01-20 03:43:18.83	211.40	6.10	-52.5	-70.7	3.6	3.02e+01	0	41	104	0	60	131376
2026-01-20 03:43:19.84	211.50	6.16	-52.5	-70.6	3.5	3.02e+01	0	41	104	0	60	130530
2026-01-20 03:43:20.85	211.60	6.23	-53.2	-71.2	3.5	3.02e+01	0	41	104	0	60	140330
2026-01-20 03:43:21.86	211.70	6.30	-53.5	-71.5	3.5	3.02e+01	0	41	104	0	60	144594
2026-01-20 03:43:22.87	211.80	6.36	-53.4	-71.3	3.5	3.02e+01	0	41	104	0	60	141947
2026-01-20 03:43:23.88	211.90	6.43	-53.1	-71.1	3.5	3.02e+01	0	41	104	0	60	138565
2026-01-20 03:43:24.89	212.01	6.50	-52.8	-70.7	3.5	3.02e+01	0	41	104	0	60	132116
2026-01-20 03:43:25.90	212.11	6.56	-52.9	-70.8	3.5	3.02e+01	0	41	104	0	60	133973
2026-01-20 03:43:26.91	212.21	6.63	-52.9	-70.8	3.5	3.02e+01	0	41	104	0	60	133310
2026-01-20 03:43:27.92	212.32	6.70	-53.4	-71.2	3.5	3.02e+01	0	41	104	0	60	139639
2026-01-20 03:43:28.93	212.42	6.77	-53.4	-71.2	3.5	3.02e+01	0	41	104	0	60	140267
2026-01-20 03:43:29.94	212.53	6.83	-53.4	-71.2	3.5	3.02e+01	0	41	104	0	60	140484
2026-01-20 03:43:30.95	212.63	6.90	-53.3	-71.2	3.5	3.02e+01	0	41	104	0	60	139924
2026-01-20 03:43:31.96	212.74	6.97	-52.8	-70.7	3.5	3.02e+01	0	41	104	0	60	131882
2026-01-20 03:43:32.97	212.85	7.04	-53.1	-70.9	3.5	3.02e+01	0	41	104	0	60	135594
2026-01-20 03:43:33.98	212.95	7.11	-53.3	-71.2	3.5	3.02e+01	0	41	104	0	60	139393
2026-01-20 03:43:34.99	213.06	7.17	-53.6	-71.5	3.5	3.02e+01	0	41	104	0	60	144949
2026-01-20 03:43:36.00	213.17	7.24	-53.6	-71.6	3.5	3.02e+01	0	41	104	0	60	145959
2026-01-20 03:43:37.01	213.28	7.31	-53.7	-71.6	3.5	3.02e+01	0	41	104	0	60	146562
2026-01-20 03:43:38.02	213.39	7.38	-53.0	-71.1	3.5	3.02e+01	0	41	104	0	60	138254
2026-01-20 03:43:39.03	213.50	7.45	-52.5	-70.6	3.5	3.02e+01	0	41	104	0	60	130367
2026-01-20 03:43:40.04	213.61	7.52	-52.3	-70.4	3.5	3.02e+01	0	41	104	0	60	127740
2026-01-20 03:43:41.05	213.72	7.59	-53.4	-71.6	3.5	3.02e+01	0	41	104	0	60	146581
2026-01-20 03:43:42.06	213.83	7.66	-52.6	-70.7	3.5	3.02e+01	0	41	104	0	60	132047
2026-01-20 03:43:43.07	213.94	7.72	-53.2	-71.3	3.5	3.02e+01	0	41	104	0	60	141932
2026-01-20 03:43:44.08	214.05	7.79	-52.7	-70.8	3.5	3.02e+01	0	41	104	0	60	133115
2026-01-20 03:43:45.09	214.17	7.86	-53.6	-71.6	3.5	3.02e+01	0	41	104	0	60	147038
2026-01-20 03:43:46.10	214.28	7.93	-53.9	-71.9	3.5	3.02e+01	0	41	104	0	60	151802
2026-01-20 03:43:47.11	214.39	8.00	-53.3	-71.2	3.5	3.02e+01	0	41	104	0	60	140376
2026-01-20 03:43:48.12	214.51	8.07	-53.4	-71.3	3.5	3.02e+01	0	41	104	0	60	142055
2026-01-20 03:43:49.13	214.63	8.14	-53.1	-71.0	3.5	3.02e+01	0	41	104	0	60	137294
2026-01-20 03:43:50.14	214.74	8.21	-52.7	-70.5	3.5	3.02e+01	0	41	104	0	60	129552
2026-01-20 03:43:51.15	214.86	8.28	-52.9	-70.7	3.5	3.02e+01	0	41	104	0	60	132581
2026-01-20 03:43:52.16	214.97	8.35	-53.1	-71.0	3.5	3.02e+01	0	41	104	0	60	136206
2026-01-20 03:43:53.17	215.09	8.42	-53.2	-71.1	3.5	3.02e+01	0	41	104	0	60	137618
2026-01-20 03:43:54.18	215.21	8.49	-52.7	-70.6	3.5	3.02e+01	0	41	104	0	60	131031
2026-01-20 03:43:55.19	215.33	8.57	-53.1	-71.0	3.5	3.02e+01	0	41	104	0	60	137074
2026-01-20 03:43:56.20	215.45	8.64	-53.1	-71.0	3.5	3.02e+01	0	41	104	0	60	137183
2026-01-20 03:43:57.21	215.57	8.71	-53.7	-71.6	3.5	3.02e+01	0	41	104	0	60	146497
2026-01-20 03:43:58.22	215.69	8.78	-53.0	-70.9	3.5	3.02e+01	0	41	104	0	60	134495
2026-01-20 03:43:59.23	215.81	8.85	-54.0	-71.9	3.5	3.02e+01	0	41	104	0	60	150651
2026-01-20 03:44:00.24	215.93	8.92	-53.2	-71.1	3.5	3.02e+01	0	41	104	0	60	138257
2026-01-20 03:44:01.25	216.06	8.99	-53.5	-71.4	3.5	3.02e+01	0	41	104	0	60	142826
2026-01-20 03:44:02.26	216.18	9.06	-53.6	-71.5	3.5	3.02e+01	0	41	104	0	60	144048
2026-01-20 03:44:03.27	216.30	9.14	-53.6	-71.5	3.5	3.02e+01	0	41	104	0	60	144571
2026-01-20 03:44:04.28	216.43	9.21	-53.4	-71.2	3.5	3.02e+01	0	41	104	0	60	140512
2026-01-20 03:44:05.29	216.55	9.28	-53.2	-71.0	3.5	3.02e+01	0	41	104	0	60	137232
2026-01-20 03:44:06.31	216.68	9.35	-53.3	-71.2	3.5	3.02e+01	0	41	104	0	60	139523
2026-01-20 03:44:07.31	216.81	9.42	-53.2	-71.1	3.5	3.02e+01	0	41	104	0	60	138030
2026-01-20 03:44:08.32	216.93	9.50	-53.2	-71.1	3.5	3.02e+01	0	41	104	0	60	137951
2026-01-20 03:44:09.33	217.06	9.57	-53.7	-71.5	3.5	3.02e+01	0	41	104	0	60	144976
2026-01-20 03:44:10.34	217.19	9.64	-53.5	-71.4	3.5	3.02e+01	0	41	104	0	60	142932
2026-01-20 03:44:11.35	217.32	9.71	-54.3	-72.1	3.5	3.02e+01	0	41	104	0	60	155724
2026-01-20 03:44:12.36	217.45	9.79	-54.0	-71.9	3.5	3.02e+01	0	41	104	0	60	151751
2026-01-20 03:44:13.38	217.58	9.86	-54.4	-72.3	3.5	3.02e+01	0	41	104	0	60	157956
2026-01-20 03:44:14.39	217.71	9.93	-53.1	-71.0	3.5	3.02e+01	0	41	104	0	60	136856
2026-01-20 03:44:15.40	217.84	10.01	-54.5	-72.4	3.5	3.02e+01	0	41	104	0	60	161250
2026-01-20 03:44:16.41	217.98	10.08	-53.3	-71.2	3.5	3.02e+01	0	41	104	0	60	139997
2026-01-20 03:44:17.42	218.11	10.15	-53.1	-71.0	3.5	3.02e+01	0	41	104	0	60	136890
2026-01-20 03:44:18.42	218.24	10.23	-52.2	-70.2	3.5	3.02e+01	0	41	104	0	60	124790
2026-01-20 03:44:19.44	218.38	10.30	-54.1	-72.1	3.5	3.02e+01	0	41	104	0	60	154483
2026-01-20 03:44:20.45	218.51	10.37	-53.5	-71.4	3.5	3.02e+01	0	41	104	0	60	143464
2026-01-20 03:44:21.46	218.65	10.45	-53.6	-71.5	3.5	3.02e+01	0	41	104	0	60	144887
2026-01-20 03:44:22.47	218.79	10.52	-53.5	-71.4	3.5	3.02e+01	0	41	104	0	60	142977
2026-01-20 03:44:23.48	218.92	10.60	-53.4	-71.4	3.5	3.02e+01	0	41	104	0	60	142501
2026-01-20 03:44:24.49	219.06	10.67	-53.5	-71.4	3.5	3.02e+01	0	41	104	0	60	143085
2026-01-20 03:44:25.50	219.20	10.74	-54.1	-72.1	3.5	3.02e+01	0	41	104	0	60	155084
2026-01-20 03:44:26.51	219.34	10.82	-53.2	-71.2	3.5	3.02e+01	0	41	104	0	60	139569
2026-01-20 03:44:27.52	219.48	10.89	-53.9	-71.8	3.5	3.02e+01	0	41	104	0	60	150017
2026-01-20 03:44:28.53	219.62	10.97	-54.3	-72.1	3.5	3.02e+01	0	41	104	0	60	155675
2026-01-20 03:44:29.54	219.76	11.04	-54.3	-72.2	3.5	3.02e+01	0	41	104	0	60	156037
2026-01-20 03:44:30.55	219.91	11.12	-54.3	-72.1	3.5	3.02e+01	0	41	104	0	60	155758
2026-01-20 03:44:31.56	220.05	11.19	-54.1	-72.0	3.5	3.02e+01	0	41	104	0	60	153064
2026-01-20 03:44:32.57	220.19	11.27	-52.9	-70.9	3.5	3.02e+01	0	41	104	0	60	134742
2026-01-20 03:44:33.58	220.34	11.34	-52.4	-70.4	3.5	3.02e+01	0	41	104	0	60	126838
2026-01-20 03:44:34.59	220.49	11.42	-52.0	-70.0	3.5	3.02e+01	0	41	104	0	60	121785
2026-01-20 03:44:35.60	220.63	11.49	-53.5	-71.4	3.5	3.02e+01	0	42	104	0	60	143786
2026-01-20 03:44:36.61	220.78	11.57	-53.4	-71.3	3.5	3.02e+01	0	41	104	0	60	141785
2026-01-20 03:44:37.62	220.93	11.64	-54.1	-72.0	3.5	3.02e+01	0	41	104	0	60	153836
2026-01-20 03:44:38.63	221.08	11.72	-53.5	-71.6	3.5	3.02e+01	0	41	104	0	60	145496
2026-01-20 03:44:39.64	221.23	11.80	-53.2	-71.2	3.5	3.02e+01	0	41	104	0	60	139208
2026-01-20 03:44:40.65	221.38	11.87	-53.3	-71.4	3.5	3.02e+01	0	41	104	0	60	142246
2026-01-20 03:44:41.66	221.53	11.95	-52.5	-70.5	3.5	3.02e+01	0	41	104	0	60	128463
2026-01-20 03:44:42.67	221.68	12.02	-52.1	-70.1	3.5	3.02e+01	0	41	104	0	60	123625
2026-01-20 03:44:43.68	221.83	12.10	-52.1	-70.1	3.5	3.02e+01	0	41	104	0	60	123077
2026-01-20 03:44:44.69	221.99	12.18	-52.1	-70.1	3.5	3.02e+01	0	41	104	0	60	123409
2026-01-20 03:44:45.70	222.14	12.25	-52.0	-70.0	3.5	3.02e+01	0	41	104	0	60	121882
2026-01-20 03:44:46.71	222.30	12.33	-52.2	-70.3	3.5	3.02e+01	0	41	104	0	60	125619
2026-01-20 03:44:47.72	222.45	12.41	-52.1	-70.0	3.5	3.02e+01	0	41	104	0	60	122386
2026-01-20 03:44:48.73	222.61	12.48	-51.7	-69.7	3.5	3.02e+01	0	41	104	0	60	118164
2026-01-20 03:44:49.74	222.77	12.56	-51.5	-69.6	3.5	3.02e+01	0	41	104	0	60	115753
2026-01-20 03:44:50.75	222.93	12.64	-51.7	-69.7	3.5	3.02e+01	0	41	104	0	60	117910
2026-01-20 03:44:51.76	223.09	12.71	-51.6	-69.7	3.5	3.02e+01	0	41	104	0	60	117148
2026-01-20 03:44:52.76	223.25	12.79	-52.5	-70.5	3.5	3.02e+01	0	41	104	0	60	128513
2026-01-20 03:44:53.77	223.41	12.86	-53.0	-71.0	3.6	3.02e+01	0	41	104	0	60	136215
2026-01-20 03:44:54.78	223.57	12.94	-53.4	-71.3	3.5	3.02e+01	0	41	104	0	60	141819
2026-01-20 03:44:55.79	223.73	13.02	-52.8	-70.8	3.5	3.02e+01	0	41	104	0	60	133684
2026-01-20 03:44:56.80	223.90	13.10	-53.0	-71.1	3.5	3.02e+01	0	41	104	0	60	137400
2026-01-20 03:44:57.82	224.06	13.17	-53.9	-71.8	3.5	3.02e+01	0	41	104	0	60	150128
2026-01-20 03:44:58.83	224.23	13.25	-53.8	-71.7	3.5	3.02e+01	0	41	104	0	60	148608
2026-01-20 03:44:59.84	224.40	13.33	-53.5	-71.5	3.5	3.02e+01	0	41	104	0	60	144186
2026-01-20 03:45:00.85	224.57	13.41	-53.7	-71.6	3.5	3.02e+01	0	41	104	0	60	146755
2026-01-20 03:45:01.86	224.73	13.48	-53.6	-71.5	3.5	3.02e+01	0	41	104	0	60	145051
2026-01-20 03:45:02.87	224.90	13.56	-53.4	-71.4	3.5	3.02e+01	0	41	104	0	60	143802
2026-01-20 03:45:03.88	225.07	13.64	-52.5	-70.5	3.5	3.02e+01	0	41	104	0	60	128260
2026-01-20 03:45:04.89	225.25	13.72	-52.8	-70.7	3.5	3.02e+01	0	41	104	0	60	132359
2026-01-20 03:45:05.90	225.42	13.79	-53.7	-71.6	3.5	3.02e+01	0	41	104	0	60	147069
2026-01-20 03:45:06.91	225.59	13.87	-54.3	-72.2	3.5	3.02e+01	0	41	104	0	60	157224
2026-01-20 03:45:07.92	225.77	13.95	-53.6	-71.6	3.5	3.02e+01	0	41	104	0	60	146108
2026-01-20 03:45:08.93	225.94	14.03	-53.2	-71.1	3.5	3.02e+01	0	42	104	0	60	137934
2026-01-20 03:45:09.94	226.12	14.11	-53.8	-71.8	3.5	3.02e+01	0	42	104	0	60	149930
2026-01-20 03:45:10.95	226.29	14.18	-54.0	-72.0	3.5	3.02e+01	0	42	104	0	60	152417
2026-01-20 03:45:11.96	226.47	14.26	-54.2	-72.2	3.5	3.02e+01	0	42	104	0	60	156763
2026-01-20 03:45:12.97	226.65	14.34	-54.2	-72.2	3.5	3.02e+01	0	41	104	0	60	156290
2026-01-20 03:45:13.98	226.83	14.42	-54.1	-72.1	3.5	3.02e+01	0	41	104	0	60	155136
2026-01-20 03:45:14.99	227.01	14.50	-54.2	-72.1	3.5	3.02e+01	0	42	104	0	60	155845
2026-01-20 03:45:16.00	227.20	14.57	-54.2	-72.2	3.5	3.02e+01	0	42	104	0	60	156005
2026-01-20 03:45:17.01	227.38	14.65	-53.5	-71.5	3.5	3.02e+01	0	42	104	0	60	144824
2026-01-20 03:45:18.02	227.56	14.73	-53.5	-71.4	3.5	3.02e+01	0	42	104	0	60	143767
2026-01-20 03:45:19.03	227.75	14.81	-52.7	-70.7	3.5	3.02e+01	0	42	104	0	60	131646
2026-01-20 03:45:20.04	227.93	14.89	-52.6	-70.7	3.5	3.02e+01	0	42	104	0	60	131446
2026-01-20 03:45:21.05	228.12	14.96	-51.9	-70.0	3.5	3.02e+01	0	42	104	0	60	121582
2026-01-20 03:45:22.06	228.31	15.04	-52.0	-70.1	3.5	3.02e+01	0	42	104	0	60	123191
2026-01-20 03:45:23.07	228.50	15.12	-51.4	-69.5	3.5	3.02e+01	0	42	104	0	60	114819
2026-01-20 03:45:24.08	228.69	15.20	-52.0	-70.0	3.5	3.02e+01	0	42	104	0	60	121661
2026-01-20 03:45:25.09	228.88	15.28	-52.3	-70.3	3.5	3.02e+01	0	42	104	0	60	126662
2026-01-20 03:45:26.10	229.07	15.35	-52.3	-70.3	3.5	3.02e+01	0	41	104	0	60	126403
2026-01-20 03:45:27.11	229.26	15.43	-53.4	-71.4	3.5	3.02e+01	0	42	104	0	60	142660
2026-01-20 03:45:28.12	229.46	15.51	-53.8	-71.8	3.5	3.02e+01	0	42	104	0	60	149706
2026-01-20 03:45:29.13	229.65	15.59	-52.9	-71.0	3.5	3.02e+01	0	41	104	0	60	136535
2026-01-20 03:45:30.15	229.85	15.67	-52.7	-70.8	3.5	3.02e+01	0	41	104	0	60	133262
2026-01-20 03:45:31.15	230.05	15.74	-52.8	-70.9	3.5	3.02e+01	0	41	104	0	60	134582
2026-01-20 03:45:32.17	230.25	15.82	-52.4	-70.5	3.5	3.02e+01	0	42	104	0	60	128665
2026-01-20 03:45:33.18	230.45	15.90	-52.6	-70.7	3.5	3.02e+01	0	42	104	0	60	132007
2026-01-20 03:45:34.19	230.65	15.98	-52.2	-70.3	3.5	3.02e+01	0	42	104	0	60	126085
2026-01-20 03:45:35.20	230.85	16.06	-51.8	-69.9	3.5	3.02e+01	0	42	104	0	60	120384
2026-01-20 03:45:36.21	231.05	16.14	-52.2	-70.3	3.5	3.02e+01	0	42	104	0	60	125564
2026-01-20 03:45:37.22	231.26	16.21	-53.7	-71.7	3.5	3.02e+01	0	42	104	0	60	148803
2026-01-20 03:45:38.23	231.46	16.29	-52.9	-71.0	3.5	3.02e+01	0	42	104	0	60	136423
2026-01-20 03:45:39.24	231.67	16.37	-52.8	-70.8	3.5	3.02e+01	0	42	104	0	60	133620
2026-01-20 03:45:40.25	231.88	16.45	-53.0	-71.0	3.5	3.02e+01	0	41	104	0	60	136668
2026-01-20 03:45:41.26	232.08	16.52	-52.5	-70.6	3.5	3.02e+01	0	42	104	0	60	130112
2026-01-20 03:45:42.27	232.29	16.60	-52.2	-70.3	3.5	3.02e+01	0	42	104	0	60	125854
2026-01-20 03:45:43.28	232.51	16.68	-51.7	-69.7	3.5	3.02e+01	0	41	104	0	60	117599
2026-01-20 03:45:44.29	232.72	16.76	-51.8	-69.9	3.5	3.02e+01	0	42	104	0	60	119764
2026-01-20 03:45:45.30	232.93	16.83	-51.8	-69.8	3.5	3.02e+01	0	42	104	0	60	119267
2026-01-20 03:45:46.31	233.14	16.91	-51.4	-69.4	3.5	3.02e+01	0	42	104	0	60	113282
2026-01-20 03:45:47.32	233.36	16.99	-51.4	-69.3	3.5	3.02e+01	0	41	104	0	60	112696
2026-01-20 03:45:48.33	233.58	17.06	-51.2	-69.1	3.5	3.02e+01	0	42	104	0	60	110211
2026-01-20 03:45:49.34	233.79	17.14	-51.8	-69.8	3.5	3.02e+01	0	41	104	0	60	118315
2026-01-20 03:45:50.35	234.01	17.22	-52.2	-70.2	3.5	3.02e+01	0	42	104	0	60	124718
2026-01-20 03:45:51.36	234.23	17.29	-52.8	-70.8	3.5	3.02e+01	0	42	104	0	60	133588
2026-01-20 03:45:52.37	234.45	17.37	-52.4	-70.4	3.5	3.02e+01	0	42	104	0	60	126962
2026-01-20 03:45:53.38	234.67	17.45	-52.3	-70.3	3.5	3.02e+01	0	41	104	0	60	125469
2026-01-20 03:45:54.39	234.90	17.52	-52.8	-70.7	3.5	3.02e+01	0	42	104	0	60	132379
2026-01-20 03:45:55.40	235.12	17.60	-53.3	-71.3	3.5	3.02e+01	0	42	104	0	60	141431
2026-01-20 03:45:56.40	235.35	17.67	-53.1	-71.2	3.5	3.02e+01	0	42	104	0	60	139410
2026-01-20 03:45:57.41	235.57	17.75	-52.7	-70.6	3.5	3.02e+01	0	41	104	0	60	131109
2026-01-20 03:45:58.42	235.80	17.83	-52.9	-70.8	3.5	3.02e+01	0	42	104	0	60	133247
2026-01-20 03:45:59.43	236.03	17.90	-52.9	-70.9	3.5	3.02e+01	0	42	104	0	60	134340
2026-01-20 03:46:00.45	236.26	17.98	-52.4	-70.3	3.5	3.02e+01	0	41	104	0	60	126179
2026-01-20 03:46:01.45	236.49	18.05	-51.9	-69.8	3.5	3.02e+01	0	42	104	0	60	118964
2026-01-20 03:46:02.46	236.72	18.13	-51.9	-69.8	3.5	3.02e+01	0	42	104	0	60	119448
2026-01-20 03:46:03.47	236.96	18.20	-52.3	-70.3	3.5	3.02e+01	0	42	104	0	60	125347
2026-01-20 03:46:04.48	237.19	18.27	-52.8	-70.8	3.5	3.02e+01	0	41	104	0	60	133319
2026-01-20 03:46:05.49	237.43	18.35	-52.6	-70.6	3.5	3.02e+01	0	42	104	0	60	130117
2026-01-20 03:46:06.50	237.67	18.42	-52.8	-70.7	3.5	3.02e+01	0	42	104	0	60	132524
2026-01-20 03:46:07.51	237.90	18.50	-52.6	-70.5	3.5	3.02e+01	0	42	104	0	60	128890
2026-01-20 03:46:08.52	238.14	18.57	-53.4	-71.4	3.5	3.02e+01	0	42	104	0	60	142874
2026-01-20 03:46:09.53	238.38	18.64	-53.1	-71.1	3.5	3.02e+01	0	42	104	0	60	137357
2026-01-20 03:46:10.54	238.63	18.72	-52.4	-70.3	3.5	3.02e+01	0	42	104	0	60	126169
2026-01-20 03:46:11.55	238.87	18.79	-52.2	-70.1	3.5	3.02e+01	0	42	104	0	60	123326
2026-01-20 03:46:12.56	239.11	18.86	-52.2	-70.2	3.5	3.02e+01	0	42	104	0	60	123915
2026-01-20 03:46:13.57	239.36	18.94	-53.2	-71.1	3.5	3.02e+01	0	42	104	0	60	138454
2026-01-20 03:46:14.58	239.61	19.01	-52.9	-70.9	3.5	3.02e+01	0	42	104	0	60	134703
2026-01-20 03:46:15.59	239.86	19.08	-52.8	-70.7	3.5	3.02e+01	0	42	104	0	60	131892
2026-01-20 03:46:16.60	240.10	19.15	-52.5	-70.5	3.5	3.02e+01	0	42	104	0	60	128245
2026-01-20 03:46:17.61	240.36	19.22	-52.3	-70.3	3.5	3.02e+01	0	42	104	0	60	125745
2026-01-20 03:46:18.62	240.61	19.29	-53.0	-70.8	3.5	3.02e+01	0	42	104	0	60	134207
2026-01-20 03:46:19.63	240.86	19.36	-52.8	-70.7	3.5	3.02e+01	0	42	104	0	60	132095
2026-01-20 03:46:20.64	241.11	19.43	-52.5	-70.4	3.5	3.02e+01	0	42	104	0	60	127146
2026-01-20 03:46:21.65	241.37	19.50	-53.4	-71.3	3.5	3.02e+01	0	42	104	0	60	141105
2026-01-20 03:46:22.66	241.63	19.57	-53.9	-71.8	3.5	3.02e+01	0	42	104	0	60	150032
2026-01-20 03:46:23.67	241.88	19.64	-53.7	-71.6	3.5	3.02e+01	0	41	104	0	60	146036
2026-01-20 03:46:24.68	242.14	19.71	-54.0	-71.8	3.5	3.02e+01	0	42	104	0	60	150141
2026-01-20 03:46:25.69	242.40	19.78	-53.7	-71.6	3.5	3.02e+01	0	42	104	0	60	146065
2026-01-20 03:46:26.70	242.66	19.85	-54.2	-72.0	3.5	3.02e+01	0	42	104	0	60	152810
2026-01-20 03:46:27.71	242.93	19.92	-54.4	-72.3	3.5	3.02e+01	0	41	104	0	60	158640
2026-01-20 03:46:28.72	243.19	19.99	-53.8	-71.7	3.5	3.02e+01	0	41	104	0	60	148403
2026-01-20 03:46:29.73	243.46	20.05	-53.5	-71.4	3.5	3.02e+01	0	42	104	0	60	143143
2026-01-20 03:46:30.74	243.72	20.12	-53.2	-71.0	3.5	3.02e+01	0	41	104	0	60	137131
2026-01-20 03:46:31.75	243.99	20.19	-53.1	-71.0	3.5	3.02e+01	0	42	104	0	60	136497
2026-01-20 03:46:32.76	244.26	20.25	-53.0	-70.9	3.5	3.02e+01	0	42	104	0	60	134732
2026-01-20 03:46:33.77	244.53	20.32	-53.8	-71.8	3.5	3.02e+01	0	42	104	0	60	149002
2026-01-20 03:46:34.78	244.80	20.38	-53.8	-71.6	3.5	3.02e+01	0	42	104	0	60	146510
2026-01-20 03:46:35.79	245.07	20.45	-53.7	-71.6	3.5	3.02e+01	0	42	104	0	60	146916
2026-01-20 03:46:36.80	245.34	20.51	-53.9	-71.8	3.5	3.02e+01	0	42	104	0	60	149303
2026-01-20 03:46:37.81	245.62	20.58	-53.9	-71.8	3.5	3.02e+01	0	41	104	0	60	149468
2026-01-20 03:46:38.81	245.89	20.64	-54.0	-71.9	3.5	3.02e+01	0	42	104	0	60	151450
2026-01-20 03:46:39.82	246.17	20.70	-54.4	-72.3	3.5	3.02e+01	0	42	104	0	60	157733
2026-01-20 03:46:40.83	246.45	20.76	-53.3	-71.1	3.5	3.02e+01	0	42	104	0	60	138296
2026-01-20 03:46:41.84	246.73	20.83	-52.5	-70.3	3.5	3.02e+01	0	42	104	0	60	126200
2026-01-20 03:46:42.86	247.01	20.89	-53.5	-71.4	3.5	3.02e+01	0	42	104	0	60	142956
2026-01-20 03:46:43.87	247.29	20.95	-54.0	-71.8	3.5	3.02e+01	0	42	104	0	60	150375
2026-01-20 03:46:44.87	247.57	21.01	-53.8	-71.7	3.5	3.02e+01	0	42	104	0	60	148533
2026-01-20 03:46:45.89	247.86	21.07	-53.6	-71.4	3.5	3.02e+01	0	42	104	0	60	143018
2026-01-20 03:46:46.90	248.14	21.13	-53.2	-71.0	3.5	3.02e+01	0	42	104	0	60	137268
2026-01-20 03:46:47.90	248.42	21.19	-53.0	-70.9	3.5	3.02e+01	0	42	104	0	60	134672
2026-01-20 03:46:48.91	248.71	21.25	-52.8	-70.6	3.5	3.02e+01	0	42	104	0	60	130573
2026-01-20 03:46:49.93	249.00	21.31	-52.9	-70.7	3.5	3.02e+01	0	42	104	0	60	132657
2026-01-20 03:46:50.94	249.29	21.36	-52.6	-70.5	3.5	3.02e+01	0	42	104	0	60	128401
2026-01-20 03:46:51.95	249.58	21.42	-52.1	-70.0	3.5	3.02e+01	0	42	104	0	60	122237
2026-01-20 03:46:52.96	249.87	21.48	-52.2	-70.0	3.5	3.02e+01	0	42	104	0	60	121943
2026-01-20 03:46:53.97	250.17	21.53	-52.2	-70.1	3.5	3.02e+01	0	42	104	0	60	123117
2026-01-20 03:46:54.98	250.46	21.59	-51.8	-69.7	3.5	3.02e+01	0	42	104	0	60	117060
2026-01-20 03:46:55.99	250.75	21.64	-51.6	-69.5	3.5	3.02e+01	0	42	104	0	60	114696
2026-01-20 03:46:57.00	251.05	21.69	-52.1	-70.0	3.5	3.02e+01	0	42	104	0	60	122291
2026-01-20 03:46:58.01	251.35	21.75	-52.4	-70.2	3.5	3.02e+01	0	42	104	0	60	124926
2026-01-20 03:46:59.02	251.64	21.80	-52.7	-70.6	3.5	3.02e+01	0	42	104	0	60	130561
2026-01-20 03:47:00.03	251.94	21.85	-53.1	-70.9	3.5	3.02e+01	0	42	104	0	60	135447
2026-01-20 03:47:01.04	252.24	21.90	-53.0	-70.9	3.5	3.02e+01	0	42	104	0	60	134245
2026-01-20 03:47:02.05	252.54	21.95	-53.1	-71.0	3.5	3.02e+01	0	42	104	0	60	136714
2026-01-20 03:47:03.06	252.84	22.00	-53.1	-71.0	3.5	3.02e+01	0	42	104	0	60	137034
2026-01-20 03:47:04.07	253.15	22.05	-52.7	-70.5	3.5	3.02e+01	0	42	104	0	60	129311
2026-01-20 03:47:05.08	253.45	22.10	-52.1	-70.0	3.5	3.02e+01	0	41	104	0	60	121171
2026-01-20 03:47:06.09	253.76	22.15	-52.3	-70.2	3.5	3.02e+01	0	42	104	0	60	124604
2026-01-20 03:47:07.10	254.06	22.20	-51.9	-69.8	3.5	3.02e+01	0	42	104	0	60	118810
2026-01-20 03:47:08.11	254.37	22.24	-51.9	-69.8	3.5	3.02e+01	0	42	104	0	60	118807
2026-01-20 03:47:09.12	254.68	22.29	-52.9	-70.8	3.5	3.02e+01	0	42	104	0	60	133617
2026-01-20 03:47:10.13	254.98	22.33	-52.7	-70.6	3.5	3.02e+01	0	42	104	0	60	130567
2026-01-20 03:47:11.14	255.29	22.38	-52.4	-70.3	3.5	3.02e+01	0	42	104	0	60	125552
2026-01-20 03:47:12.15	255.60	22.42	-51.7	-69.6	3.5	3.02e+01	0	42	104	0	60	116471
2026-01-20 03:47:13.16	255.92	22.46	-52.7	-70.6	3.5	3.02e+01	0	42	104	0	60	131091
2026-01-20 03:47:14.17	256.23	22.51	-53.5	-71.4	3.5	3.02e+01	0	42	104	0	60	142998
2026-01-20 03:47:15.18	256.54	22.55	-53.6	-71.5	3.5	3.02e+01	0	42	104	0	60	144486
2026-01-20 03:47:16.19	256.85	22.59	-53.2	-71.1	3.5	3.02e+01	0	42	104	0	60	138075
2026-01-20 03:47:17.20	257.17	22.63	-52.9	-70.8	3.5	3.02e+01	0	42	104	0	60	133162
2026-01-20 03:47:18.21	257.48	22.67	-53.1	-71.0	3.5	3.02e+01	0	42	104	0	60	136425
2026-01-20 03:47:19.21	257.80	22.70	-52.9	-70.8	3.5	3.02e+01	0	42	104	0	60	132958
2026-01-20 03:47:20.22	258.11	22.74	-53.2	-71.1	3.5	3.02e+01	0	42	104	0	60	137443
2026-01-20 03:47:21.24	258.44	22.78	-53.2	-71.0	3.4	3.02e+01	0	42	104	0	60	137228
2026-01-20 03:47:22.25	258.75	22.82	-53.3	-71.1	3.5	3.02e+01	0	42	104	0	60	138434
2026-01-20 03:47:23.25	259.07	22.85	-53.4	-71.2	3.5	3.02e+01	0	42	104	0	60	140093
2026-01-20 03:47:24.27	259.39	22.88	-53.6	-71.5	3.5	3.02e+01	0	42	104	0	60	144806
2026-01-20 03:47:25.28	259.71	22.92	-52.9	-70.8	3.5	3.02e+01	0	42	104	0	60	134119
2026-01-20 03:47:26.28	260.03	22.95	-52.8	-70.6	3.5	3.02e+01	0	42	104	0	60	131108
2026-01-20 03:47:27.30	260.36	22.98	-52.9	-70.7	3.5	3.02e+01	0	42	104	0	60	132332
2026-01-20 03:47:28.31	260.68	23.01	-52.2	-70.1	3.5	3.02e+01	0	42	104	0	60	122769
2026-01-20 03:47:29.32	261.00	23.04	-51.7	-69.6	3.5	3.02e+01	0	42	104	0	60	116379
2026-01-20 03:47:30.33	261.33	23.07	-51.6	-69.5	3.5	3.02e+01	0	42	104	0	60	115036
2026-01-20 03:47:31.34	261.65	23.10	-51.7	-69.6	3.5	3.02e+01	0	42	104	0	60	115812
2026-01-20 03:47:32.35	261.98	23.13	-51.4	-69.3	3.5	3.02e+01	0	42	104	0	60	111906
2026-01-20 03:47:33.36	262.30	23.15	-52.3	-70.1	3.5	3.02e+01	0	42	104	0	60	123723
2026-01-20 03:47:34.37	262.63	23.18	-52.2	-70.1	3.5	3.02e+01	0	42	104	0	60	122653
2026-01-20 03:47:35.38	262.95	23.20	-52.2	-70.0	3.5	3.02e+01	0	42	104	0	60	121942
2026-01-20 03:47:36.39	263.28	23.23	-52.4	-70.2	3.5	3.02e+01	0	42	104	0	60	124962
2026-01-20 03:47:37.40	263.61	23.25	-52.5	-70.3	3.5	3.02e+01	0	42	104	0	60	126525
2026-01-20 03:47:38.41	263.94	23.27	-52.4	-70.3	3.5	3.02e+01	0	42	104	0	60	126252
2026-01-20 03:47:39.42	264.27	23.29	-52.2	-70.1	3.5	3.02e+01	0	42	104	0	60	123763
2026-01-20 03:47:40.43	264.60	23.31	-53.0	-70.9	3.5	3.02e+01	0	42	104	0	60	135386
2026-01-20 03:47:41.44	264.93	23.33	-52.7	-70.6	3.5	3.02e+01	0	42	104	0	60	130648
2026-01-20 03:47:42.44	265.25	23.35	-52.4	-70.2	3.5	3.02e+01	0	42	104	0	60	125208
2026-01-20 03:47:43.45	265.58	23.37	-51.9	-69.8	3.5	3.02e+01	0	42	104	0	60	118818
2026-01-20 03:47:44.46	265.91	23.38	-51.5	-69.4	3.5	3.02e+01	0	42	104	0	60	112971
2026-01-20 03:47:45.47	266.24	23.40	-52.0	-69.9	3.5	3.02e+01	0	42	104	0	60	119982
2026-01-20 03:47:46.48	266.57	23.41	-51.7	-69.5	3.5	3.02e+01	0	42	104	0	60	115388
2026-01-20 03:47:47.49	266.91	23.43	-52.1	-69.9	3.5	3.02e+01	0	42	104	0	60	120863
2026-01-20 03:47:48.50	267.24	23.44	-52.5	-70.4	3.5	3.02e+01	0	42	104	0	60	127020
2026-01-20 03:47:49.51	267.57	23.45	-52.3	-70.2	3.5	3.02e+01	0	42	104	0	60	124222
2026-01-20 03:47:50.52	267.90	23.46	-52.6	-70.5	3.5	3.02e+01	0	42	104	0	60	128260
2026-01-20 03:47:51.54	268.24	23.47	-52.8	-70.6	3.5	3.02e+01	0	42	104	0	60	131085
2026-01-20 03:47:52.55	268.57	23.48	-52.8	-70.7	3.5	3.02e+01	0	42	104	0	60	131867
2026-01-20 03:47:53.55	268.90	23.49	-53.0	-70.9	3.5	3.02e+01	0	42	104	0	60	135260
2026-01-20 03:47:54.56	269.23	23.50	-53.0	-70.9	3.5	3.02e+01	0	42	104	0	60	135239
2026-01-20 03:47:55.57	269.57	23.50	-53.3	-71.2	3.5	3.02e+01	0	42	104	0	60	138966
2026-01-20 03:47:56.58	269.90	23.51	-53.5	-71.4	3.5	3.02e+01	0	42	104	0	60	142245
2026-01-20 03:47:57.59	270.23	23.51	-53.0	-70.8	3.5	3.02e+01	0	42	104	0	60	133956
2026-01-20 03:47:58.60	270.57	23.51	-52.8	-70.7	3.5	3.02e+01	0	42	104	0	60	131330
2026-01-20 03:47:59.61	270.90	23.52	-52.2	-70.1	3.5	3.02e+01	0	42	104	0	60	122619
2026-01-20 03:48:00.62	271.23	23.52	-51.7	-69.6	3.5	3.02e+01	0	42	104	0	60	116120
2026-01-20 03:48:01.63	271.57	23.52	-51.6	-69.4	3.5	3.02e+01	0	42	104	0	60	114155
2026-01-20 03:48:02.65	271.91	23.52	-51.3	-69.1	3.5	3.02e+01	0	42	104	0	60	110317
2026-01-20 03:48:03.66	272.24	23.51	-51.1	-69.0	3.5	3.02e+01	0	42	104	0	60	108926
2026-01-20 03:48:04.67	272.57	23.51	-51.3	-69.2	3.5	3.02e+01	0	42	104	0	60	110861
2026-01-20 03:48:05.68	272.91	23.51	-51.7	-69.6	3.5	3.02e+01	0	42	104	0	60	115892
2026-01-20 03:48:06.69	273.24	23.50	-51.9	-69.7	3.5	3.02e+01	0	42	104	0	60	117991
2026-01-20 03:48:07.70	273.57	23.50	-52.9	-70.7	3.5	3.02e+01	0	42	104	0	60	132498
2026-01-20 03:48:08.71	273.90	23.49	-53.3	-71.2	3.5	3.02e+01	0	42	104	0	60	139420
2026-01-20 03:48:09.72	274.24	23.48	-53.5	-71.4	3.5	3.02e+01	0	42	104	0	60	142335
2026-01-20 03:48:10.73	274.57	23.48	-53.7	-71.5	3.5	3.02e+01	0	42	104	0	60	145300
2026-01-20 03:48:11.74	274.90	23.47	-52.8	-70.7	3.5	3.02e+01	0	42	104	0	60	131761
2026-01-20 03:48:12.75	275.24	23.46	-52.8	-70.6	3.5	3.02e+01	0	42	104	0	60	131124
2026-01-20 03:48:13.76	275.57	23.44	-52.3	-70.1	3.5	3.02e+01	0	42	104	0	60	122953
2026-01-20 03:48:14.77	275.90	23.43	-52.0	-69.9	3.5	3.02e+01	0	42	104	0	60	120765
2026-01-20 03:48:15.78	276.23	23.42	-52.5	-70.3	3.5	3.02e+01	0	42	104	0	60	126321
2026-01-20 03:48:16.78	276.56	23.41	-53.7	-71.5	3.5	3.02e+01	0	42	104	0	60	144865
2026-01-20 03:48:17.79	276.89	23.39	-53.3	-71.2	3.5	3.02e+01	0	42	104	0	60	139646
2026-01-20 03:48:18.81	277.22	23.37	-52.9	-70.7	3.5	3.02e+01	0	42	104	0	60	132538
2026-01-20 03:48:19.82	277.55	23.36	-53.1	-71.0	3.5	3.02e+01	0	42	104	0	60	137105
2026-01-20 03:48:20.83	277.88	23.34	-53.4	-71.3	3.5	3.02e+01	0	42	104	0	60	141372
2026-01-20 03:48:21.83	278.21	23.32	-53.5	-71.4	3.5	3.02e+01	0	42	104	0	60	143159
2026-01-20 03:48:22.84	278.54	23.30	-53.4	-71.4	3.5	3.02e+01	0	42	104	0	60	142471
2026-01-20 03:48:23.86	278.87	23.28	-53.2	-71.3	3.5	3.02e+01	0	42	104	0	60	140556
2026-01-20 03:48:24.87	279.20	23.26	-52.9	-70.9	3.5	3.02e+01	0	42	104	0	60	135375
2026-01-20 03:48:25.88	279.52	23.24	-53.4	-71.3	3.5	3.02e+01	0	42	104	0	60	140847
2026-01-20 03:48:26.89	279.85	23.21	-53.1	-71.0	3.5	3.02e+01	0	42	104	0	60	135885
2026-01-20 03:48:27.90	280.18	23.19	-52.2	-70.1	3.5	3.02e+01	0	42	104	0	60	122957
2026-01-20 03:48:28.91	280.50	23.16	-52.2	-70.0	3.5	3.02e+01	0	42	104	0	60	122008
2026-01-20 03:48:29.92	280.83	23.14	-51.9	-69.7	3.5	3.02e+01	0	42	104	0	60	117988
2026-01-20 03:48:30.93	281.15	23.11	-52.4	-70.2	3.5	3.02e+01	0	42	104	0	60	125018
2026-01-20 03:48:31.94	281.48	23.08	-52.7	-70.6	3.5	3.02e+01	0	42	104	0	60	129995
2026-01-20 03:48:32.95	281.80	23.05	-52.2	-70.0	3.5	3.02e+01	0	42	104	0	60	122066
2026-01-20 03:48:33.96	282.12	23.02	-52.4	-70.3	3.5	3.02e+01	0	42	104	0	60	125715
2026-01-20 03:48:34.97	282.45	22.99	-52.2	-70.1	3.5	3.02e+01	0	42	104	0	60	123095
2026-01-20 03:48:35.98	282.77	22.96	-52.7	-70.6	3.5	3.02e+01	0	42	104	0	60	130752
2026-01-20 03:48:36.99	283.09	22.93	-52.3	-70.2	3.5	3.02e+01	0	42	104	0	60	124422
2026-01-20 03:48:38.00	283.41	22.90	-52.4	-70.3	3.5	3.02e+01	0	42	104	0	60	125515
2026-01-20 03:48:39.01	283.73	22.86	-53.2	-71.1	3.5	3.02e+01	0	42	104	0	60	137816
2026-01-20 03:48:40.02	284.05	22.83	-52.8	-70.6	3.5	3.02e+01	0	42	104	0	60	130774
2026-01-20 03:48:41.03	284.37	22.79	-52.9	-70.7	3.5	3.02e+01	0	42	104	0	60	132224
2026-01-20 03:48:42.04	284.68	22.76	-52.8	-70.7	3.5	3.02e+01	0	42	104	0	60	132499
2026-01-20 03:48:43.05	285.00	22.72	-52.5	-70.4	3.5	3.02e+01	0	42	104	0	60	127260
2026-01-20 03:48:44.06	285.32	22.68	-51.9	-69.8	3.5	3.02e+01	0	42	104	0	60	118791
2026-01-20 03:48:45.07	285.63	22.65	-51.4	-69.3	3.5	3.02e+01	0	42	104	0	60	111873
2026-01-20 03:48:46.08	285.94	22.61	-51.6	-69.6	3.5	3.02e+01	0	42	104	0	60	115633
2026-01-20 03:48:47.09	286.26	22.57	-51.6	-69.6	3.5	3.02e+01	0	42	104	0	60	116579
2026-01-20 03:48:48.10	286.57	22.53	-51.5	-69.4	3.5	3.02e+01	0	42	104	0	60	113276
2026-01-20 03:48:49.11	286.88	22.48	-51.2	-69.1	3.5	3.02e+01	0	42	104	0	60	109887
2026-01-20 03:48:50.12	287.19	22.44	-51.5	-69.4	3.5	3.02e+01	0	42	104	0	60	113225
2026-01-20 03:48:51.13	287.50	22.40	-51.5	-69.4	3.5	3.02e+01	0	42	104	0	60	113309
2026-01-20 03:48:52.14	287.81	22.35	-51.6	-69.5	3.5	3.02e+01	0	42	104	0	60	115286
2026-01-20 03:48:53.15	288.12	22.31	-51.9	-69.8	3.5	3.02e+01	0	42	104	0	60	119079
2026-01-20 03:48:54.16	288.43	22.26	-51.6	-69.5	3.5	3.02e+01	0	42	104	0	60	114464
2026-01-20 03:48:55.17	288.73	22.22	-51.7	-69.7	3.5	3.02e+01	0	42	104	0	60	116942
2026-01-20 03:48:56.18	289.04	22.17	-52.0	-69.9	3.5	3.02e+01	0	42	104	0	60	119867
2026-01-20 03:48:57.19	289.34	22.12	-53.0	-70.9	3.5	3.02e+01	0	42	104	0	60	135403
2026-01-20 03:48:58.20	289.65	22.08	-52.8	-70.7	3.5	3.02e+01	0	42	104	0	60	131795
2026-01-20 03:48:59.21	289.95	22.03	-52.6	-70.4	3.5	3.02e+01	0	42	104	0	60	127691
2026-01-20 03:49:00.22	290.25	21.98	-52.5	-70.5	3.5	3.02e+01	0	42	104	0	60	128232
2026-01-20 03:49:01.23	290.55	21.93	-52.4	-70.3	3.5	3.02e+01	0	42	104	0	60	125348
2026-01-20 03:49:02.24	290.85	21.88	-52.1	-70.0	3.5	3.02e+01	0	42	104	0	60	121571
2026-01-20 03:49:03.26	291.15	21.83	-51.7	-69.6	3.5	3.02e+01	0	42	104	0	60	116732
2026-01-20 03:49:04.26	291.44	21.77	-51.3	-69.2	3.5	3.02e+01	0	42	104	0	60	110791
2026-01-20 03:49:05.28	291.74	21.72	-51.1	-69.0	3.5	3.02e+01	0	42	104	0	60	108531
2026-01-20 03:49:06.29	292.04	21.67	-51.1	-68.9	3.5	3.02e+01	0	42	104	0	60	107830
2026-01-20 03:49:07.30	292.33	21.61	-52.1	-70.0	3.5	3.02e+01	0	42	104	0	60	121411
2026-01-20 03:49:08.31	292.63	21.56	-51.9	-69.8	3.5	3.02e+01	0	42	104	0	60	118504
2026-01-20 03:49:09.32	292.92	21.50	-52.1	-70.0	3.5	3.02e+01	0	42	104	0	60	121576
2026-01-20 03:49:10.33	293.21	21.45	-52.0	-69.8	3.5	3.02e+01	0	42	104	0	60	119526
2026-01-20 03:49:11.34	293.50	21.39	-51.7	-69.6	3.5	3.02e+01	0	42	104	0	60	115848
2026-01-20 03:49:12.35	293.79	21.34	-51.3	-69.2	3.5	3.02e+01	0	42	104	0	60	110493
2026-01-20 03:49:13.36	294.08	21.28	-51.4	-69.3	3.5	3.02e+01	0	42	104	0	60	111746
2026-01-20 03:49:14.37	294.36	21.22	-51.4	-69.3	3.5	3.02e+01	0	42	104	0	60	112314
2026-01-20 03:49:15.38	294.65	21.16	-51.2	-69.1	3.5	3.02e+01	0	42	104	0	60	110323
2026-01-20 03:49:16.39	294.93	21.10	-51.1	-69.0	3.5	3.02e+01	0	42	104	0	60	108419
2026-01-20 03:49:17.40	295.21	21.04	-51.0	-68.8	3.5	3.02e+01	0	42	104	0	60	106521
2026-01-20 03:49:18.41	295.50	20.98	-51.0	-68.8	3.5	3.02e+01	0	42	104	0	60	105848
2026-01-20 03:49:19.42	295.78	20.92	-50.9	-68.8	3.5	3.02e+01	0	42	104	0	60	106238
2026-01-20 03:49:20.43	296.06	20.86	-50.9	-68.7	3.5	3.02e+01	0	42	104	0	60	104938
2026-01-20 03:49:21.44	296.34	20.80	-51.2	-69.0	3.5	3.02e+01	0	42	104	0	60	108509
2026-01-20 03:49:22.45	296.61	20.74	-51.6	-69.5	3.5	3.02e+01	0	42	104	0	60	114273
2026-01-20 03:49:23.46	296.89	20.68	-51.4	-69.3	3.5	3.02e+01	0	42	104	0	60	112064
2026-01-20 03:49:24.47	297.16	20.61	-51.3	-69.2	3.5	3.02e+01	0	42	104	0	60	110565
2026-01-20 03:49:25.49	297.44	20.55	-51.2	-69.0	3.5	3.02e+01	0	42	104	0	60	108654
2026-01-20 03:49:26.50	297.71	20.48	-51.0	-68.9	3.5	3.02e+01	0	42	104	0	60	107283
2026-01-20 03:49:27.51	297.98	20.42	-51.0	-68.8	3.5	3.02e+01	0	42	104	0	60	106497
2026-01-20 03:49:28.52	298.26	20.36	-52.7	-70.5	3.5	3.02e+01	0	42	104	0	60	129199
2026-01-20 03:49:29.53	298.52	20.29	-52.6	-70.4	3.5	3.02e+01	0	42	104	0	60	128041
2026-01-20 03:49:30.54	298.79	20.23	-53.1	-70.9	3.5	3.02e+01	0	42	104	0	60	135675
2026-01-20 03:49:31.55	299.06	20.16	-52.9	-70.7	3.5	3.02e+01	0	42	104	0	60	131662
2026-01-20 03:49:32.56	299.32	20.09	-52.8	-70.6	3.5	3.02e+01	0	42	104	0	60	130865
2026-01-20 03:49:33.57	299.59	20.03	-52.5	-70.4	3.5	3.02e+01	0	42	104	0	60	127103
2026-01-20 03:49:34.58	299.85	19.96	-52.0	-69.8	3.5	3.02e+01	0	42	104	0	60	119562
2026-01-20 03:49:35.59	300.11	19.89	-52.2	-70.0	3.5	3.02e+01	0	42	104	0	60	122393
2026-01-20 03:49:36.60	300.38	19.82	-51.9	-69.8	3.5	3.02e+01	0	42	104	0	60	118378
2026-01-20 03:49:37.61	300.63	19.76	-51.5	-69.4	3.5	3.02e+01	0	42	104	0	60	113654
2026-01-20 03:49:38.62	300.89	19.69	-51.2	-69.1	3.5	3.02e+01	0	42	104	0	60	109924
2026-01-20 03:49:39.63	301.15	19.62	-51.1	-69.1	3.5	3.02e+01	0	42	104	0	60	109158
2026-01-20 03:49:40.64	301.41	19.55	-52.1	-70.0	3.5	3.02e+01	0	42	104	0	60	121399
2026-01-20 03:49:41.65	301.66	19.48	-52.3	-70.2	3.5	3.02e+01	0	42	104	0	60	125198
2026-01-20 03:49:42.66	301.91	19.41	-52.2	-70.1	3.6	3.02e+01	0	42	104	0	60	123050
2026-01-20 03:49:43.67	302.17	19.34	-52.0	-69.9	3.5	3.02e+01	0	42	104	0	60	120661
2026-01-20 03:49:44.68	302.42	19.27	-51.9	-69.8	3.5	3.02e+01	0	42	104	0	60	119014
2026-01-20 03:49:45.69	302.67	19.20	-51.6	-69.6	3.5	3.02e+01	0	42	104	0	60	115594
2026-01-20 03:49:46.70	302.92	19.13	-51.4	-69.4	3.5	3.02e+01	0	42	104	0	60	113095
2026-01-20 03:49:47.71	303.17	19.06	-52.2	-70.1	3.5	3.02e+01	0	42	104	0	60	123337
2026-01-20 03:49:48.72	303.41	18.99	-52.4	-70.4	3.5	3.02e+01	0	42	104	0	60	127021
2026-01-20 03:49:49.73	303.66	18.91	-52.6	-70.5	3.5	3.02e+01	0	42	104	0	60	128861
2026-01-20 03:49:50.74	303.90	18.84	-53.0	-70.9	3.5	3.02e+01	0	42	104	0	60	134801
2026-01-20 03:49:51.75	304.14	18.77	-52.4	-70.2	3.5	3.02e+01	0	42	104	0	60	125104
2026-01-20 03:49:52.76	304.39	18.70	-52.4	-70.4	3.5	3.02e+01	0	42	104	0	60	126962
2026-01-20 03:49:53.77	304.63	18.62	-52.5	-70.3	3.5	3.02e+01	0	42	104	0	60	126570
2026-01-20 03:49:54.78	304.86	18.55	-53.0	-70.9	3.5	3.02e+01	0	42	104	0	60	134942
2026-01-20 03:49:55.79	305.10	18.48	-52.5	-70.4	3.5	3.02e+01	0	42	104	0	60	128085
2026-01-20 03:49:56.80	305.34	18.40	-53.0	-70.9	3.5	3.02e+01	0	42	104	0	60	135406
2026-01-20 03:49:57.81	305.58	18.33	-53.0	-70.9	3.5	3.02e+01	0	42	104	0	60	134867
2026-01-20 03:49:58.82	305.81	18.26	-52.6	-70.5	3.5	3.02e+01	0	42	104	0	60	128582
2026-01-20 03:49:59.83	306.04	18.18	-52.5	-70.4	3.5	3.02e+01	0	42	104	0	60	127456
2026-01-20 03:50:00.84	306.28	18.11	-52.4	-70.3	3.5	3.02e+01	0	42	104	0	60	126424
2026-01-20 03:50:01.85	306.51	18.03	-52.6	-70.6	3.6	3.02e+01	0	42	104	0	60	129985
2026-01-20 03:50:02.86	306.74	17.96	-52.7	-70.6	3.5	3.02e+01	0	42	104	0	60	130047
2026-01-20 03:50:03.87	306.96	17.88	-52.8	-70.7	3.5	3.02e+01	0	42	104	0	60	131539
2026-01-20 03:50:04.88	307.19	17.81	-52.7	-70.6	3.5	3.02e+01	0	42	104	0	60	130809
2026-01-20 03:50:05.89	307.42	17.73	-52.1	-70.0	3.5	3.02e+01	0	42	104	0	60	121567
2026-01-20 03:50:06.90	307.64	17.66	-53.2	-71.1	3.5	3.02e+01	0	42	104	0	60	137990
2026-01-20 03:50:07.91	307.87	17.58	-53.1	-71.0	3.5	3.02e+01	0	42	104	0	60	136759
2026-01-20 03:50:08.93	308.09	17.51	-52.3	-70.2	3.5	3.02e+01	0	42	104	0	60	124637
2026-01-20 03:50:09.94	308.31	17.43	-52.2	-70.2	3.5	3.02e+01	0	42	104	0	60	123824
2026-01-20 03:50:10.95	308.53	17.36	-52.5	-70.3	3.5	3.02e+01	0	42	104	0	60	126507
2026-01-20 03:50:11.95	308.75	17.28	-52.5	-70.4	3.5	3.02e+01	0	42	104	0	60	126707
2026-01-20 03:50:12.96	308.97	17.20	-53.1	-70.9	3.5	3.02e+01	0	42	104	0	60	135588
2026-01-20 03:50:13.97	309.19	17.13	-52.5	-70.4	3.5	3.02e+01	0	42	104	0	60	127206
2026-01-20 03:50:14.98	309.40	17.05	-52.9	-70.8	3.5	3.02e+01	0	42	104	0	60	133056
2026-01-20 03:50:15.99	309.62	16.98	-52.7	-70.6	3.5	3.02e+01	0	42	104	0	60	129758
2026-01-20 03:50:17.00	309.83	16.90	-52.5	-70.4	3.5	3.02e+01	0	42	104	0	60	126811
2026-01-20 03:50:18.01	310.04	16.82	-52.4	-70.3	3.5	3.02e+01	0	42	104	0	60	125738
2026-01-20 03:50:19.02	310.25	16.75	-52.0	-69.9	3.5	3.02e+01	0	42	104	0	60	120786
2026-01-20 03:50:20.03	310.46	16.67	-51.5	-69.4	3.5	3.02e+01	0	42	104	0	60	112927
2026-01-20 03:50:21.04	310.67	16.59	-51.1	-68.9	3.5	3.02e+01	0	42	104	0	60	107480
2026-01-20 03:50:22.05	310.88	16.52	-51.3	-69.1	3.5	3.02e+01	0	42	104	0	60	110228
2026-01-20 03:50:23.06	311.09	16.44	-51.8	-69.6	3.5	3.02e+01	0	42	104	0	60	116217
2026-01-20 03:50:24.07	311.29	16.36	-52.1	-69.9	3.5	3.02e+01	0	42	104	0	60	120849
2026-01-20 03:50:25.08	311.50	16.28	-52.0	-69.9	3.5	3.02e+01	0	42	104	0	60	119702
2026-01-20 03:50:26.09	311.70	16.21	-52.5	-70.4	3.5	3.02e+01	0	42	104	0	60	126795
2026-01-20 03:50:27.10	311.91	16.13	-52.7	-70.5	3.5	3.02e+01	0	42	104	0	60	129288
2026-01-20 03:50:28.11	312.11	16.05	-53.1	-71.0	3.5	3.02e+01	0	42	104	0	60	136171
2026-01-20 03:50:29.12	312.31	15.98	-53.3	-71.2	3.5	3.02e+01	0	42	104	0	60	139382
2026-01-20 03:50:30.13	312.51	15.90	-53.0	-70.9	3.5	3.02e+01	0	42	104	0	60	134375
2026-01-20 03:50:31.14	312.70	15.82	-52.4	-70.3	3.5	3.02e+01	0	42	104	0	60	125826
2026-01-20 03:50:32.15	312.90	15.74	-52.0	-69.8	3.5	3.02e+01	0	42	104	0	60	119473
2026-01-20 03:50:33.16	313.10	15.67	-52.3	-70.2	3.5	3.02e+01	0	42	104	0	60	124083
2026-01-20 03:50:34.18	313.30	15.59	-52.1	-69.9	3.5	3.02e+01	0	42	104	0	60	120419
2026-01-20 03:50:35.18	313.49	15.51	-51.8	-69.6	3.6	3.02e+01	0	42	104	0	60	116188
2026-01-20 03:50:36.19	313.68	15.43	-51.1	-68.9	3.5	3.02e+01	0	42	104	0	60	107647
2026-01-20 03:50:37.20	313.87	15.36	-51.1	-69.0	3.5	3.02e+01	0	42	104	0	60	108732
2026-01-20 03:50:38.21	314.06	15.28	-51.1	-69.0	3.5	3.02e+01	0	42	104	0	60	108075
2026-01-20 03:50:39.23	314.25	15.20	-50.9	-68.8	3.5	3.02e+01	0	42	104	0	60	106222
2026-01-20 03:50:40.23	314.44	15.12	-50.9	-68.8	3.5	3.02e+01	0	42	104	0	60	106075
2026-01-20 03:50:41.25	314.63	15.05	-50.9	-68.7	3.5	3.02e+01	0	42	104	0	60	104697
2026-01-20 03:50:42.26	314.82	14.97	-51.1	-69.0	3.5	3.02e+01	0	42	104	0	60	108250
2026-01-20 03:50:43.26	315.00	14.89	-51.3	-69.2	3.5	3.02e+01	0	42	104	0	60	110435
2026-01-20 03:50:44.28	315.19	14.81	-51.4	-69.3	3.5	3.02e+01	0	42	104	0	60	111649
2026-01-20 03:50:45.29	315.37	14.74	-51.9	-69.8	3.5	3.02e+01	0	42	104	0	60	119520
2026-01-20 03:50:46.30	315.56	14.66	-52.1	-70.0	3.5	3.02e+01	0	42	104	0	60	121745
2026-01-20 03:50:47.30	315.74	14.58	-52.1	-70.1	3.5	3.02e+01	0	42	104	0	60	123023
2026-01-20 03:50:48.31	315.92	14.50	-52.1	-70.0	3.5	3.02e+01	0	42	104	0	60	121607
2026-01-20 03:50:49.32	316.10	14.43	-52.3	-70.2	3.5	3.02e+01	0	42	104	0	60	124668
2026-01-20 03:50:50.33	316.27	14.35	-52.0	-70.0	3.5	3.02e+01	0	42	104	0	60	121440
2026-01-20 03:50:51.34	316.45	14.27	-52.0	-70.0	3.5	3.02e+01	0	42	104	0	60	121257
2026-01-20 03:50:52.35	316.63	14.19	-51.9	-69.9	3.5	3.02e+01	0	42	104	0	60	119624
2026-01-20 03:50:53.36	316.81	14.12	-52.0	-69.9	3.5	3.02e+01	0	42	104	0	60	120001
2026-01-20 03:50:54.37	316.98	14.04	-52.0	-69.9	3.5	3.02e+01	0	42	104	0	60	119680
2026-01-20 03:50:55.38	317.16	13.96	-52.0	-69.9	3.5	3.02e+01	0	42	104	0	60	120223
2026-01-20 03:50:56.39	317.33	13.89	-51.8	-69.7	3.5	3.02e+01	0	42	104	0	60	117703
2026-01-20 03:50:57.40	317.50	13.81	-51.8	-69.7	3.5	3.02e+01	0	42	104	0	60	117143
2026-01-20 03:50:58.41	317.67	13.73	-51.9	-69.8	3.5	3.02e+01	0	42	104	0	60	118952
2026-01-20 03:50:59.43	317.84	13.65	-52.0	-70.0	3.5	3.02e+01	0	42	104	0	60	121109
2026-01-20 03:51:00.43	318.01	13.58	-51.8	-69.7	3.5	3.02e+01	0	42	104	0	60	118233
2026-01-20 03:51:01.44	318.18	13.50	-52.4	-70.3	3.5	3.02e+01	0	42	104	0	60	126005
2026-01-20 03:51:02.45	318.35	13.42	-52.6	-70.5	3.5	3.02e+01	0	42	104	0	60	129005
2026-01-20 03:51:03.47	318.52	13.35	-52.3	-70.2	3.5	3.02e+01	0	42	104	0	60	124186
2026-01-20 03:51:04.47	318.68	13.27	-52.6	-70.5	3.5	3.02e+01	0	42	104	0	60	128733
2026-01-20 03:51:05.48	318.85	13.19	-52.4	-70.3	3.5	3.02e+01	0	42	104	0	60	125962
2026-01-20 03:51:06.49	319.01	13.12	-52.1	-69.9	3.5	3.02e+01	0	42	104	0	60	120644
2026-01-20 03:51:07.51	319.17	13.04	-52.1	-70.0	3.5	3.02e+01	0	42	104	0	60	121185
2026-01-20 03:51:08.52	319.34	12.96	-51.7	-69.5	3.5	3.02e+01	0	42	104	0	60	115038
2026-01-20 03:51:09.53	319.50	12.89	-52.2	-70.0	3.5	3.02e+01	0	42	104	0	60	122192
2026-01-20 03:51:10.54	319.66	12.81	-52.4	-70.2	3.5	3.02e+01	0	42	104	0	60	125047
2026-01-20 03:51:11.55	319.82	12.74	-52.3	-70.1	3.5	3.02e+01	0	42	104	0	60	123744
2026-01-20 03:51:12.56	319.98	12.66	-52.7	-70.5	3.5	3.02e+01	0	42	104	0	60	128983
2026-01-20 03:51:13.57	320.13	12.58	-52.2	-70.1	3.5	3.02e+01	0	42	104	0	60	122964
2026-01-20 03:51:14.58	320.29	12.51	-52.3	-70.1	3.5	3.02e+01	0	42	104	0	60	123562
2026-01-20 03:51:15.59	320.45	12.43	-51.5	-69.4	3.5	3.02e+01	0	42	104	0	60	113949
2026-01-20 03:51:16.60	320.60	12.36	-51.6	-69.5	3.5	3.02e+01	0	42	104	0	60	114975
2026-01-20 03:51:17.61	320.76	12.28	-52.1	-70.0	3.5	3.02e+01	0	42	104	0	60	121458
2026-01-20 03:51:18.62	320.91	12.20	-52.4	-70.2	3.5	3.02e+01	0	42	104	0	60	125053
2026-01-20 03:51:19.63	321.06	12.13	-52.2	-70.0	3.5	3.02e+01	0	42	104	0	60	122309
2026-01-20 03:51:20.64	321.22	12.05	-51.4	-69.3	3.5	3.02e+01	0	42	104	0	60	112851
2026-01-20 03:51:21.65	321.37	11.98	-51.7	-69.7	3.5	3.02e+01	0	42	104	0	60	117191
2026-01-20 03:51:22.66	321.52	11.90	-51.4	-69.4	3.5	3.02e+01	0	42	104	0	60	112969
2026-01-20 03:51:23.67	321.67	11.83	-51.6	-69.5	3.5	3.02e+01	0	42	104	0	60	115448
2026-01-20 03:51:24.68	321.82	11.75	-51.4	-69.4	3.5	3.02e+01	0	42	104	0	60	113246
2026-01-20 03:51:25.69	321.97	11.68	-51.4	-69.4	3.5	3.02e+01	0	42	104	0	60	113014
2026-01-20 03:51:26.70	322.11	11.60	-51.9	-69.8	3.5	3.02e+01	0	42	104	0	60	118427
2026-01-20 03:51:27.71	322.26	11.53	-51.7	-69.6	3.5	3.02e+01	0	42	104	0	60	116444
2026-01-20 03:51:28.72	322.41	11.45	-52.2	-70.0	3.5	3.02e+01	0	42	104	0	60	121712
2026-01-20 03:51:29.73	322.55	11.38	-51.9	-69.8	3.5	3.02e+01	0	42	104	0	60	119289
2026-01-20 03:51:30.74	322.69	11.30	-52.0	-70.0	3.5	3.02e+01	0	42	104	0	60	121106
2026-01-20 03:51:31.75	322.84	11.23	-52.2	-70.1	3.5	3.02e+01	0	42	104	0	60	123057
2026-01-20 03:51:32.76	322.98	11.16	-51.9	-69.8	3.5	3.02e+01	0	42	104	0	60	119189
2026-01-20 03:51:33.77	323.12	11.08	-51.6	-69.5	3.5	3.02e+01	0	42	104	0	60	115414
2026-01-20 03:51:34.78	323.26	11.01	-51.8	-69.7	3.5	3.02e+01	0	42	104	0	60	117925
2026-01-20 03:51:35.79	323.40	10.93	-51.8	-69.7	3.5	3.02e+01	0	42	104	0	60	117334
2026-01-20 03:51:36.80	323.54	10.86	-51.7	-69.6	3.5	3.02e+01	0	42	104	0	60	116352
2026-01-20 03:51:37.80	323.68	10.79	-51.3	-69.2	3.5	3.02e+01	0	42	104	0	60	111311
2026-01-20 03:51:38.81	323.82	10.71	-51.1	-69.0	3.5	3.02e+01	0	42	104	0	60	108520
2026-01-20 03:51:39.82	323.96	10.64	-50.9	-68.8	3.5	3.02e+01	0	42	104	0	60	105557
2026-01-20 03:51:40.83	324.10	10.57	-50.8	-68.7	3.5	3.02e+01	0	42	104	0	60	104460
2026-01-20 03:51:41.84	324.23	10.49	-50.7	-68.5	3.5	3.02e+01	0	42	104	0	60	102924
2026-01-20 03:51:42.85	324.37	10.42	-50.5	-68.3	3.5	3.02e+01	0	42	104	0	60	100640
2026-01-20 03:51:43.86	324.50	10.35	-50.4	-68.2	3.5	3.02e+01	0	42	104	0	60	99452
2026-01-20 03:51:44.87	324.64	10.27	-50.5	-68.3	3.5	3.02e+01	0	42	104	0	60	100220
2026-01-20 03:51:45.88	324.77	10.20	-50.6	-68.5	3.5	3.02e+01	0	42	104	0	60	101937
2026-01-20 03:51:46.89	324.90	10.13	-50.7	-68.6	3.5	3.02e+01	0	42	104	0	60	103843
2026-01-20 03:51:47.90	325.03	10.06	-50.9	-68.8	3.5	3.02e+01	0	42	104	0	60	105669
2026-01-20 03:51:48.91	325.17	9.98	-51.2	-69.1	3.5	3.02e+01	0	42	104	0	60	109207
2026-01-20 03:51:49.92	325.30	9.91	-51.3	-69.2	3.5	3.02e+01	0	42	104	0	60	110805
2026-01-20 03:51:50.93	325.43	9.84	-51.2	-69.0	3.5	3.02e+01	0	42	104	0	60	108279
2026-01-20 03:51:51.94	325.56	9.77	-50.9	-68.8	3.5	3.02e+01	0	42	104	0	60	105532
2026-01-20 03:51:52.95	325.68	9.69	-50.9	-68.8	3.5	3.02e+01	0	42	104	0	60	105647
2026-01-20 03:51:53.96	325.81	9.62	-51.2	-69.0	3.5	3.02e+01	0	42	104	0	60	108624
2026-01-20 03:51:54.96	325.94	9.55	-51.2	-69.1	3.5	3.02e+01	0	42	104	0	60	110022
2026-01-20 03:51:55.98	326.07	9.48	-51.3	-69.2	3.5	3.02e+01	0	42	104	0	60	110987
2026-01-20 03:51:56.98	326.19	9.41	-51.5	-69.3	3.5	3.02e+01	0	42	104	0	60	112881
2026-01-20 03:51:58.00	326.32	9.34	-51.3	-69.3	3.5	3.02e+01	0	42	104	0	60	111873
2026-01-20 03:51:59.00	326.44	9.26	-50.9	-68.8	3.5	3.02e+01	0	42	104	0	60	106105
2026-01-20 03:52:00.01	326.56	9.19	-50.7	-68.6	3.5	3.02e+01	0	42	104	0	60	103588
2026-01-20 03:52:01.02	326.69	9.12	-50.8	-68.7	3.5	3.02e+01	0	42	104	0	60	104478
2026-01-20 03:52:02.04	326.81	9.05	-50.5	-68.4	3.5	3.02e+01	0	42	104	0	60	101138
2026-01-20 03:52:03.05	326.93	8.98	-50.6	-68.5	3.5	3.02e+01	0	42	104	0	60	102314
2026-01-20 03:52:04.06	327.06	8.91	-50.4	-68.4	3.5	3.02e+01	0	42	104	0	60	100667
2026-01-20 03:52:05.07	327.18	8.84	-50.5	-68.4	3.5	3.02e+01	0	42	104	0	60	101370
2026-01-20 03:52:06.08	327.30	8.77	-50.6	-68.4	3.5	3.02e+01	0	42	104	0	60	101687
2026-01-20 03:52:07.09	327.42	8.70	-50.9	-68.8	3.5	3.02e+01	0	42	104	0	60	105792
2026-01-20 03:52:08.10	327.54	8.63	-50.9	-68.8	3.5	3.02e+01	0	42	104	0	60	106315
2026-01-20 03:52:09.11	327.66	8.56	-50.8	-68.6	3.5	3.02e+01	0	42	104	0	60	103204
2026-01-20 03:52:10.12	327.77	8.49	-50.6	-68.5	3.5	3.02e+01	0	42	104	0	60	102047
2026-01-20 03:52:11.13	327.89	8.42	-50.4	-68.3	3.5	3.02e+01	0	42	104	0	60	99498
2026-01-20 03:52:12.14	328.01	8.35	-50.4	-68.3	3.5	3.02e+01	0	42	104	0	60	100128
2026-01-20 03:52:13.15	328.12	8.28	-50.3	-68.2	3.5	3.02e+01	0	42	104	0	60	99379
2026-01-20 03:52:14.16	328.24	8.21	-50.6	-68.4	3.5	3.02e+01	0	42	104	0	60	101439
2026-01-20 03:52:15.17	328.35	8.14	-50.6	-68.5	3.5	3.02e+01	0	42	104	0	60	102729
2026-01-20 03:52:16.17	328.47	8.07	-50.5	-68.4	3.5	3.02e+01	0	42	104	0	60	101034
2026-01-20 03:52:17.19	328.58	8.00	-50.3	-68.2	3.5	3.02e+01	0	42	104	0	60	99329
2026-01-20 03:52:18.20	328.70	7.93	-50.2	-68.1	3.5	3.02e+01	0	42	104	0	60	97646
2026-01-20 03:52:19.21	328.81	7.86	-50.3	-68.1	3.5	3.02e+01	0	42	104	0	60	98253
2026-01-20 03:52:20.22	328.92	7.79	-50.2	-68.1	3.5	3.02e+01	0	42	104	0	60	97271
2026-01-20 03:52:21.23	329.03	7.73	-50.2	-68.1	3.5	3.02e+01	0	42	104	0	60	97551
2026-01-20 03:52:22.24	329.14	7.66	-50.4	-68.2	3.5	3.02e+01	0	42	104	0	60	99341
2026-01-20 03:52:23.25	329.26	7.59	-50.4	-68.3	3.5	3.02e+01	0	42	104	0	60	100093
2026-01-20 03:52:24.26	329.37	7.52	-50.4	-68.3	3.5	3.02e+01	0	42	104	0	60	100145
2026-01-20 03:52:25.27	329.48	7.45	-50.2	-68.1	3.5	3.02e+01	0	42	104	0	60	98034
2026-01-20 03:52:26.28	329.58	7.38	-50.1	-67.9	3.5	3.02e+01	0	42	104	0	60	95889
2026-01-20 03:52:27.29	329.69	7.32	-50.1	-68.0	3.5	3.02e+01	0	42	104	0	60	96241
2026-01-20 03:52:28.30	329.80	7.25	-50.1	-67.9	3.5	3.02e+01	0	42	104	0	60	95745
2026-01-20 03:52:29.31	329.91	7.18	-50.0	-67.9	3.5	3.02e+01	0	42	104	0	60	95477
2026-01-20 03:52:30.32	330.02	7.11	-50.0	-67.8	3.5	3.02e+01	0	42	104	0	60	94616
2026-01-20 03:52:31.33	330.12	7.05	-50.0	-67.9	3.5	3.02e+01	0	42	104	0	60	95437
2026-01-20 03:52:32.34	330.23	6.98	-50.0	-67.9	3.5	3.02e+01	0	42	104	0	60	95751
2026-01-20 03:52:33.35	330.33	6.91	-50.3	-68.1	3.5	3.02e+01	0	42	104	0	60	98312
2026-01-20 03:52:34.36	330.44	6.84	-50.6	-68.6	3.5	3.02e+01	0	42	104	0	60	103025
2026-01-20 03:52:35.37	330.54	6.78	-51.4	-69.3	3.5	3.02e+01	0	42	104	0	60	111866
2026-01-20 03:52:36.38	330.65	6.71	-51.0	-68.8	3.5	3.02e+01	0	42	104	0	60	106096
2026-01-20 03:52:37.39	330.75	6.64	-50.6	-68.5	3.5	3.02e+01	0	42	104	0	60	101817
2026-01-20 03:52:38.40	330.85	6.58	-50.6	-68.4	3.5	3.02e+01	0	42	104	0	60	101706
2026-01-20 03:52:39.41	330.96	6.51	-51.0	-68.8	3.5	3.02e+01	0	42	104	0	60	106432
2026-01-20 03:52:40.42	331.06	6.44	-50.8	-68.7	3.5	3.02e+01	0	42	104	0	60	104233
2026-01-20 03:52:41.43	331.16	6.38	-50.6	-68.4	3.5	3.02e+01	0	42	104	0	60	101462
2026-01-20 03:52:42.44	331.26	6.31	-50.5	-68.4	3.5	3.02e+01	0	42	104	0	60	101352
2026-01-20 03:52:43.45	331.36	6.25	-50.3	-68.2	3.5	3.02e+01	0	42	104	0	60	98516
2026-01-20 03:52:44.46	331.46	6.18	-50.9	-68.8	3.5	3.02e+01	0	42	104	0	60	105752
2026-01-20 03:52:45.47	331.56	6.11	-50.6	-68.5	3.5	3.02e+01	0	42	104	0	60	101961
2026-01-20 03:52:46.48	331.66	6.05	-50.5	-68.4	3.5	3.02e+01	0	42	104	0	60	101266
2026-01-20 03:52:47.49	331.76	5.98	-50.8	-68.6	3.5	3.02e+01	0	42	104	0	60	104002
2026-01-20 03:52:48.50	331.86	5.92	-50.5	-68.4	3.5	3.02e+01	0	42	104	0	60	100857
2026-01-20 03:52:49.51	331.95	5.85	-50.2	-68.0	3.5	3.02e+01	0	42	104	0	60	97107
2026-01-20 03:52:50.51	332.05	5.79	-50.5	-68.4	3.5	3.02e+01	0	42	104	0	60	100856
2026-01-20 03:52:51.52	332.15	5.72	-50.8	-68.6	3.5	3.02e+01	0	42	104	0	60	104084
2026-01-20 03:52:52.54	332.24	5.66	-50.8	-68.7	3.5	3.02e+01	0	42	104	0	60	104362
2026-01-20 03:52:53.55	332.34	5.59	-50.5	-68.5	3.5	3.02e+01	0	42	104	0	60	102487
2026-01-20 03:52:54.55	332.44	5.53	-50.0	-68.5	3.5	3.02e+01	0	42	104	0	60	102680
2026-01-20 03:52:55.57	332.53	5.46	-48.5	-68.6	3.5	3.02e+01	0	42	104	0	60	103343
2026-01-20 03:52:56.58	332.63	5.40	-50.6	-69.0	3.5	3.02e+01	0	42	104	0	60	108777
2026-01-20 03:52:57.59	332.72	5.33	-51.0	-69.2	3.5	3.02e+01	0	42	104	0	60	111081
2026-01-20 03:52:58.60	332.81	5.27	-50.6	-69.0	3.5	3.02e+01	0	42	104	0	60	108754
2026-01-20 03:52:59.60	332.91	5.21	-51.0	-69.1	3.5	3.02e+01	0	42	104	0	60	109572
2026-01-20 03:53:00.61	333.00	5.14	-51.5	-69.3	3.5	3.02e+01	0	42	104	0	60	112852
2026-01-20 03:53:01.62	333.09	5.08	-51.7	-69.7	3.5	3.02e+01	0	42	104	0	60	117600
2026-01-20 03:53:02.63	333.18	5.02	-51.7	-69.7	3.5	3.02e+01	0	42	104	0	60	117930
2026-01-20 03:53:03.64	333.28	4.95	-51.9	-69.7	3.5	3.02e+01	0	42	104	0	60	118222
2026-01-20 03:53:04.65	333.37	4.89	-51.8	-69.7	3.5	3.02e+01	0	42	104	0	60	117483
2026-01-20 03:53:05.66	333.46	4.82	-51.9	-69.8	3.5	3.02e+01	0	42	104	0	60	119024
2026-01-20 03:53:06.67	333.55	4.76	-51.6	-69.5	3.5	3.02e+01	0	42	104	0	60	114313
2026-01-20 03:53:07.68	333.64	4.70	-51.6	-69.5	3.5	3.02e+01	0	42	104	0	60	114440
2026-01-20 03:53:08.69	333.73	4.64	-51.2	-69.1	3.5	3.02e+01	0	42	104	0	60	109937
2026-01-20 03:53:09.70	333.82	4.57	-51.0	-68.9	3.5	3.02e+01	0	42	104	0	60	107139
2026-01-20 03:53:10.71	333.91	4.51	-50.9	-68.8	3.5	3.02e+01	0	42	104	0	60	105671
2026-01-20 03:53:11.72	334.00	4.45	-50.9	-68.8	3.5	3.02e+01	0	42	104	0	60	105894
2026-01-20 03:53:12.73	334.08	4.38	-51.5	-69.5	3.5	3.02e+01	0	42	104	0	60	114375
2026-01-20 03:53:13.74	334.17	4.32	-51.6	-69.5	3.5	3.02e+01	0	42	104	0	60	114737
2026-01-20 03:53:14.75	334.26	4.26	-51.6	-69.5	3.5	3.02e+01	0	42	104	0	60	114493
2026-01-20 03:53:15.76	334.35	4.20	-51.5	-69.4	3.5	3.02e+01	0	42	104	0	60	113773
2026-01-20 03:53:16.77	334.43	4.14	-51.1	-69.0	3.5	3.02e+01	0	42	104	0	60	108512
2026-01-20 03:53:17.78	334.52	4.07	-50.9	-69.0	3.5	3.02e+01	0	42	104	0	60	108321
2026-01-20 03:53:18.79	334.60	4.01	-50.7	-68.9	3.5	3.02e+01	0	42	104	0	60	107500
2026-01-20 03:53:19.80	334.69	3.95	-50.7	-69.0	3.5	3.02e+01	0	42	104	0	60	108757
2026-01-20 03:53:20.81	334.77	3.89	-50.7	-69.0	3.5	3.02e+01	0	42	104	0	60	108150
2026-01-20 03:53:21.82	334.86	3.83	-51.0	-69.2	3.5	3.02e+01	0	42	104	0	60	110490
2026-01-20 03:53:22.83	334.94	3.76	-51.6	-69.5	3.5	3.02e+01	0	42	104	0	60	115251
2026-01-20 03:53:23.84	335.03	3.70	-51.6	-69.6	3.5	3.02e+01	0	42	104	0	60	115886
2026-01-20 03:53:24.85	335.11	3.64	-51.5	-69.6	3.5	3.02e+01	0	42	104	0	60	116052
2026-01-20 03:53:25.86	335.19	3.58	-51.7	-69.6	3.5	3.02e+01	0	42	104	0	60	116679
2026-01-20 03:53:26.87	335.28	3.52	-51.4	-69.3	3.5	3.02e+01	0	42	104	0	60	112797
2026-01-20 03:53:27.87	335.36	3.46	-47.8	-65.7	3.5	3.02e+01	0	42	104	0	60	74310
2026-01-20 03:53:28.88	335.44	3.40	-47.5	-65.4	3.5	3.02e+01	0	42	104	0	60	71671
2026-01-20 03:53:29.89	335.52	3.34	-47.7	-65.5	3.5	3.02e+01	0	42	104	0	60	72796
2026-01-20 03:53:30.90	335.60	3.28	-48.3	-66.2	3.5	3.02e+01	0	42	104	0	60	78808
2026-01-20 03:53:31.92	335.69	3.22	-47.7	-65.7	3.5	3.02e+01	0	42	104	0	60	74128
2026-01-20 03:53:32.92	335.77	3.16	-48.1	-66.0	3.5	3.02e+01	0	42	104	0	60	76421
2026-01-20 03:53:33.94	335.85	3.10	-48.3	-66.3	3.5	3.02e+01	0	42	104	0	60	79143
2026-01-20 03:53:34.95	335.93	3.04	-48.2	-66.1	3.5	3.02e+01	0	42	104	0	60	77287
2026-01-20 03:53:35.96	336.01	2.98	-47.8	-65.6	3.5	3.02e+01	0	42	104	0	60	73702
2026-01-20 03:53:36.97	336.09	2.92	-51.5	-69.4	3.5	3.02e+01	0	42	104	0	60	113581
2026-01-20 03:53:37.98	336.17	2.86	-52.0	-69.9	3.5	3.02e+01	0	42	104	0	60	119940
2026-01-20 03:53:38.99	336.25	2.80	-52.4	-70.2	3.5	3.02e+01	0	42	104	0	60	124832
2026-01-20 03:53:40.00	336.32	2.74	-52.4	-70.4	3.5	3.02e+01	0	42	104	0	60	126889
2026-01-20 03:53:41.01	336.40	2.68	-52.3	-70.2	3.5	3.02e+01	0	42	104	0	60	124181
2026-01-20 03:53:42.02	336.48	2.62	-52.4	-70.3	3.5	3.02e+01	0	42	104	0	60	125470
2026-01-20 03:53:43.03	336.56	2.56	-52.0	-70.0	3.5	3.02e+01	0	42	104	0	60	121926
2026-01-20 03:53:44.04	336.63	2.50	-52.2	-70.1	3.5	3.02e+01	0	42	104	0	60	123777
2026-01-20 03:53:45.05	336.71	2.44	-52.1	-69.9	3.5	3.02e+01	0	42	104	0	60	119819
2026-01-20 03:53:46.06	336.79	2.38	-51.9	-69.8	3.5	3.02e+01	0	42	104	0	60	118248
2026-01-20 03:53:47.07	336.86	2.32	-51.8	-69.7	3.5	3.02e+01	0	42	104	0	60	117644
2026-01-20 03:53:48.08	336.94	2.26	-51.8	-69.7	3.5	3.02e+01	0	42	104	0	60	118018
2026-01-20 03:53:49.09	337.02	2.20	-51.8	-69.7	3.5	3.02e+01	0	42	104	0	60	117474
2026-01-20 03:53:50.10	337.09	2.14	-51.8	-69.8	3.5	3.02e+01	0	42	104	0	60	118408
2026-01-20 03:53:51.11	337.17	2.09	-51.6	-69.8	3.5	3.02e+01	0	42	104	0	60	119135
2026-01-20 03:53:52.12	337.24	2.03	-52.5	-70.4	3.5	3.02e+01	0	42	104	0	60	128132
2026-01-20 03:53:53.13	337.32	1.97	-52.5	-70.8	3.5	3.02e+01	0	42	104	0	60	133425
2026-01-20 03:53:54.14	337.39	1.91	-52.7	-70.6	3.5	3.02e+01	0	42	104	0	60	130925
2026-01-20 03:53:55.15	337.46	1.85	-52.2	-70.0	3.5	3.02e+01	0	42	104	0	60	121657
2026-01-20 03:53:56.16	337.54	1.79	-52.2	-70.1	3.5	3.02e+01	0	42	104	0	60	122882
