passes_logs/2026/01/20/R4.6S_Anadyr/R4.6S_Anadyr__20260120_142112_NOAA_21_JPSS-2_rec.log

#Pass ID: 20260120_142112_NOAA 21 (JPSS-2)
#Satellite: NOAA 21 (JPSS-2)
#Configuration: NOAA-21
#almurnet v.1.7.20251203
#Start time: 2026-01-20 14:21:13

#Version: 2.2.20231116
#Station: R4.6S_Anadyr
#Location: 177.4865 lon 64.73178 lat
#TLE: 1 54234U 22150A   26019.94667805  .00000106  00000+0  71222-4 0  9995
#TLE: 2 54234  98.7505 320.7866 0000607 253.4528 106.6582 14.19535964165511

#Time	Az	El	Level	Level2	SNR	BER	BlckErr	Temp	State	Recorded	gain1	gain2
2026-01-20 14:21:13.46	19.80	0.04	-52.4	-70.2	3.5	3.02e+01	0	39	0	0	60	123835
2026-01-20 14:21:14.47	19.82	0.10	-53.1	-66.0	3.5	1.52e+00	0	40	104	0	60	70362
2026-01-20 14:21:15.47	19.83	0.16	-52.9	-65.9	3.5	1.52e+00	0	41	104	0	60	69503
2026-01-20 14:21:16.48	19.85	0.22	-53.2	-66.2	3.5	1.52e+00	0	41	104	0	60	71796
2026-01-20 14:21:17.49	19.86	0.28	-52.6	-65.6	3.5	1.52e+00	0	41	104	0	60	66536
2026-01-20 14:21:18.50	19.88	0.34	-52.4	-65.3	3.5	1.51e+00	0	41	104	0	60	64887
2026-01-20 14:21:19.52	19.89	0.40	-52.2	-65.1	3.5	1.51e+00	0	41	104	0	60	63492
2026-01-20 14:21:20.53	19.91	0.46	-51.9	-64.8	3.5	1.52e+00	0	41	104	0	60	60681
2026-01-20 14:21:21.54	19.93	0.52	-51.7	-64.6	3.5	1.51e+00	0	41	104	0	60	59540
2026-01-20 14:21:22.55	19.94	0.58	-51.7	-64.6	3.5	1.52e+00	0	41	104	0	60	59744
2026-01-20 14:21:23.56	19.96	0.64	-51.6	-64.5	3.5	1.52e+00	0	41	104	0	60	58932
2026-01-20 14:21:24.57	19.97	0.70	-51.5	-64.4	3.5	1.52e+00	0	41	104	0	60	58403
2026-01-20 14:21:25.58	19.99	0.77	-51.5	-64.4	3.5	1.52e+00	0	41	104	0	60	58410
2026-01-20 14:21:26.59	20.00	0.83	-51.5	-64.4	3.5	1.52e+00	0	41	104	0	60	58219
2026-01-20 14:21:27.60	20.02	0.89	-51.4	-64.3	3.5	1.52e+00	0	41	104	0	60	57301
2026-01-20 14:21:28.60	20.04	0.95	-51.3	-64.2	3.5	1.52e+00	0	41	104	0	60	56657
2026-01-20 14:21:29.62	20.05	1.01	-51.2	-64.1	3.5	1.52e+00	0	41	104	0	60	56375
2026-01-20 14:21:30.62	20.07	1.07	-51.0	-63.9	3.5	1.51e+00	0	41	104	0	60	55137
2026-01-20 14:21:31.63	20.08	1.14	-50.9	-63.8	3.5	1.52e+00	0	41	104	0	60	54199
2026-01-20 14:21:32.64	20.10	1.20	-50.8	-63.7	3.5	1.52e+00	0	41	104	0	60	53447
2026-01-20 14:21:33.65	20.12	1.26	-50.6	-63.6	3.5	1.52e+00	0	41	104	0	60	53022
2026-01-20 14:21:34.66	20.13	1.32	-50.5	-63.4	3.5	1.52e+00	0	41	104	0	60	51957
2026-01-20 14:21:35.67	20.15	1.38	-50.4	-63.2	3.5	1.52e+00	0	41	104	0	60	50971
2026-01-20 14:21:36.68	20.17	1.45	-50.1	-63.0	3.5	1.52e+00	0	41	104	0	60	49498
2026-01-20 14:21:37.69	20.18	1.51	-49.8	-62.7	3.5	1.51e+00	0	41	104	0	60	47778
2026-01-20 14:21:38.70	20.20	1.57	-49.7	-62.6	3.5	1.52e+00	0	41	104	0	60	47286
2026-01-20 14:21:39.71	20.21	1.64	-49.8	-62.7	3.5	1.52e+00	0	41	104	0	60	47852
2026-01-20 14:21:40.72	20.23	1.70	-49.8	-62.7	3.5	1.52e+00	0	41	104	0	60	47722
2026-01-20 14:21:41.73	20.25	1.76	-49.8	-62.6	3.5	1.52e+00	0	41	104	0	60	47195
2026-01-20 14:21:42.74	20.26	1.83	-49.7	-62.6	3.5	1.52e+00	0	41	104	0	60	47229
2026-01-20 14:21:43.75	20.28	1.89	-49.7	-62.6	3.5	1.52e+00	0	41	104	0	60	47377
2026-01-20 14:21:44.76	20.30	1.95	-49.7	-62.6	3.5	1.52e+00	0	41	104	0	60	47086
2026-01-20 14:21:45.77	20.31	2.02	-49.7	-62.6	3.5	1.52e+00	0	41	104	0	60	47275
2026-01-20 14:21:46.78	20.33	2.08	-49.7	-62.3	3.5	1.52e+00	0	41	104	0	60	45680
2026-01-20 14:21:47.79	20.35	2.14	-49.6	-62.0	3.5	1.52e+00	0	41	104	0	60	44330
2026-01-20 14:21:48.80	20.37	2.21	-49.5	-61.1	3.5	1.51e+00	0	41	104	0	60	39695
2026-01-20 14:21:49.81	20.38	2.27	-49.6	-61.3	3.5	1.51e+00	0	41	104	0	60	40763
2026-01-20 14:21:50.82	20.40	2.34	-49.6	-62.1	3.5	1.51e+00	0	41	104	0	60	44515
2026-01-20 14:21:51.82	20.42	2.40	-49.4	-60.0	3.5	1.51e+00	0	41	104	0	60	35221
2026-01-20 14:21:52.84	20.43	2.47	-49.3	-59.0	4.2	1.49e+00	0	41	104	0	60	31157
2026-01-20 14:21:53.85	20.45	2.53	-49.6	-61.4	3.5	1.51e+00	0	41	104	0	60	41405
2026-01-20 14:21:54.86	20.47	2.60	-49.5	-60.2	3.8	1.51e+00	0	41	104	0	60	35798
2026-01-20 14:21:55.87	20.49	2.66	-49.4	-59.7	4.0	1.50e+00	0	41	104	0	60	33937
2026-01-20 14:21:56.88	20.50	2.73	-48.7	-54.8	7.2	2.31e-01	123	41	0	1048576	60	19221
2026-01-20 14:21:57.89	20.52	2.79	-47.5	-51.5	9.6	1.60e-02	120	41	0	4194304	60	13151
2026-01-20 14:21:58.89	20.54	2.86	-43.2	-45.2	16.0	4.36e-02	123	41	104	5242880	60	6423
2026-01-20 14:21:59.90	20.56	2.92	-45.5	-47.6	16.4	3.67e-02	120	41	0	7340032	60	8408
2026-01-20 14:22:00.92	20.57	2.99	-47.7	-52.0	9.0	1.62e-02	122	41	0	10485760	60	13944
2026-01-20 14:22:01.92	20.59	3.06	-43.0	-44.7	17.1	0.00e+00	123	41	0	13631488	60	5996
2026-01-20 14:22:02.93	20.61	3.12	-43.1	-44.7	17.2	0.00e+00	123	41	0	16777216	58	6777
2026-01-20 14:22:03.94	20.63	3.19	-43.7	-45.5	16.4	0.00e+00	123	41	0	19922944	60	6615
2026-01-20 14:22:04.95	20.64	3.26	-40.7	-41.9	19.2	0.00e+00	123	41	0	23068672	56	5509
2026-01-20 14:22:05.96	20.66	3.32	-41.9	-43.3	18.4	0.00e+00	122	41	0	26214400	58	5784
2026-01-20 14:22:06.97	20.68	3.39	-39.2	-40.3	20.9	0.00e+00	122	41	0	29360128	52	5743
2026-01-20 14:22:07.98	20.70	3.46	-43.0	-44.7	17.3	0.00e+00	122	41	0	32505856	60	5997
2026-01-20 14:22:08.99	20.72	3.53	-44.6	-46.7	14.9	0.00e+00	122	41	0	35651584	60	7590
2026-01-20 14:22:10.00	20.73	3.59	-44.0	-45.9	15.9	7.00e-07	122	41	0	38797312	60	6927
2026-01-20 14:22:11.01	20.75	3.66	-46.6	-49.8	11.8	9.05e-04	123	41	0	41943040	60	10838
2026-01-20 14:22:12.02	20.77	3.73	-44.1	-46.0	16.2	2.47e-04	122	41	0	45088768	60	6998
2026-01-20 14:22:13.03	20.79	3.80	-42.8	-44.4	17.7	0.00e+00	122	42	0	48234496	58	6532
2026-01-20 14:22:14.04	20.81	3.86	-49.6	-62.3	3.5	5.42e-03	0	42	104	51380224	60	45828
2026-01-20 14:22:15.05	20.83	3.93	-45.3	-48.1	5.1	1.49e+00	0	42	104	51380224	60	8923
2026-01-20 14:22:16.07	20.84	4.00	-48.1	-52.8	7.8	1.29e-05	120	41	0	51380224	60	15298
2026-01-20 14:22:17.07	20.86	4.07	-42.0	-43.7	17.8	0.00e+00	123	42	104	52428800	58	6046
2026-01-20 14:22:18.08	20.88	4.14	-41.0	-42.3	20.0	0.00e+00	123	42	0	54525952	56	5747
2026-01-20 14:22:19.09	20.90	4.21	-41.4	-42.8	19.2	0.00e+00	123	42	0	57671680	54	6806
2026-01-20 14:22:20.10	20.92	4.28	-43.1	-44.7	17.6	0.00e+00	123	42	0	60817408	58	6750
2026-01-20 14:22:21.11	20.94	4.35	-42.0	-43.4	19.0	0.00e+00	121	42	0	63963136	56	6514
2026-01-20 14:22:22.12	20.96	4.42	-41.1	-42.3	20.0	0.00e+00	123	41	0	67108864	56	5774
2026-01-20 14:22:23.13	20.98	4.49	-43.6	-45.3	16.7	0.00e+00	123	41	0	70254592	58	7290
2026-01-20 14:22:24.14	21.00	4.56	-39.7	-40.8	21.5	0.00e+00	123	42	0	73400320	54	5417
2026-01-20 14:22:25.15	21.01	4.63	-40.7	-41.9	19.6	0.00e+00	122	42	0	76546048	52	6955
2026-01-20 14:22:26.16	21.03	4.70	-41.1	-42.4	19.7	0.00e+00	123	42	0	79691776	54	6533
2026-01-20 14:22:27.17	21.05	4.77	-40.3	-41.5	20.5	0.00e+00	122	42	0	82837504	54	5904
2026-01-20 14:22:28.18	21.07	4.84	-40.0	-41.2	20.7	0.00e+00	123	42	0	85983232	54	5666
2026-01-20 14:22:29.19	21.09	4.91	-39.4	-40.5	21.3	0.00e+00	121	42	0	89128960	52	5916
2026-01-20 14:22:30.20	21.11	4.98	-41.2	-42.5	19.7	0.00e+00	123	42	0	92274688	54	6625
2026-01-20 14:22:31.20	21.13	5.05	-41.2	-42.5	19.3	0.00e+00	120	42	0	95420416	54	6631
2026-01-20 14:22:32.21	21.15	5.12	-40.1	-41.3	20.6	0.00e+00	123	42	0	98566144	54	5728
2026-01-20 14:22:33.22	21.17	5.19	-40.8	-42.0	20.0	0.00e+00	123	42	0	101711872	54	6251
2026-01-20 14:22:34.23	21.19	5.26	-41.4	-42.6	19.6	0.00e+00	123	42	0	104857600	56	5979
2026-01-20 14:22:35.24	21.21	5.34	-41.1	-42.4	19.6	0.00e+00	121	42	0	108003328	56	5795
2026-01-20 14:22:36.25	21.23	5.41	-40.4	-41.6	20.3	0.00e+00	123	42	0	111149056	54	5959
2026-01-20 14:22:37.26	21.25	5.48	-40.1	-41.2	20.7	0.00e+00	122	42	0	114294784	52	6395
2026-01-20 14:22:38.27	21.27	5.55	-40.7	-41.9	19.7	0.00e+00	122	42	0	117440512	52	6940
2026-01-20 14:22:39.27	21.29	5.63	-39.5	-40.6	21.0	0.00e+00	123	42	0	120586240	52	5966
2026-01-20 14:22:40.28	21.31	5.70	-41.3	-42.6	19.2	0.00e+00	122	42	0	123731968	56	5977
2026-01-20 14:22:41.29	21.33	5.77	-40.8	-42.1	20.2	0.00e+00	121	42	0	126877696	56	5613
2026-01-20 14:22:42.31	21.35	5.85	-42.0	-43.3	19.1	0.00e+00	123	42	0	130023424	54	7276
2026-01-20 14:22:43.31	21.37	5.92	-41.0	-42.2	20.0	0.00e+00	123	42	0	133169152	56	5698
2026-01-20 14:22:44.32	21.39	5.99	-41.4	-42.7	19.6	0.00e+00	120	42	0	136314880	54	6728
2026-01-20 14:22:45.33	21.41	6.07	-39.2	-40.2	21.6	0.00e+00	123	42	0	139460608	52	5719
2026-01-20 14:22:46.34	21.43	6.14	-40.9	-42.1	20.0	0.00e+00	122	42	0	142606336	54	6301
2026-01-20 14:22:47.35	21.45	6.22	-40.0	-41.1	21.0	0.00e+00	122	42	0	145752064	54	5640
2026-01-20 14:22:48.36	21.47	6.29	-39.9	-41.0	20.9	0.00e+00	123	42	0	148897792	52	6268
2026-01-20 14:22:49.37	21.50	6.36	-40.8	-42.1	20.0	0.00e+00	122	42	0	152043520	52	7047
2026-01-20 14:22:50.38	21.52	6.44	-40.6	-41.8	20.5	0.00e+00	123	42	0	155189248	54	6102
2026-01-20 14:22:51.39	21.54	6.52	-40.5	-41.7	20.4	0.00e+00	122	42	0	158334976	52	6728
2026-01-20 14:22:52.40	21.56	6.59	-39.4	-40.5	21.5	0.00e+00	123	42	0	161480704	52	5899
2026-01-20 14:22:53.41	21.58	6.67	-40.6	-41.8	20.2	0.00e+00	122	42	0	164626432	52	6844
2026-01-20 14:22:54.42	21.60	6.74	-38.9	-40.0	21.7	0.00e+00	123	42	0	167772160	50	6208
2026-01-20 14:22:55.43	21.62	6.82	-40.2	-41.4	20.9	0.00e+00	118	42	0	170917888	52	6503
2026-01-20 14:22:56.44	21.64	6.89	-39.5	-40.6	21.2	0.00e+00	122	42	0	174063616	52	5969
2026-01-20 14:22:57.45	21.67	6.97	-40.2	-41.3	20.7	0.00e+00	123	42	0	177209344	52	6476
2026-01-20 14:22:58.45	21.69	7.05	-40.3	-41.5	20.4	0.00e+00	122	42	0	180355072	52	6615
2026-01-20 14:22:59.46	21.71	7.12	-40.1	-41.3	20.8	0.00e+00	123	42	0	183500800	52	6427
2026-01-20 14:23:00.47	21.73	7.20	-39.8	-40.9	21.1	0.00e+00	123	42	0	186646528	52	6156
2026-01-20 14:23:01.48	21.75	7.28	-40.2	-41.3	20.8	0.00e+00	122	42	0	189792256	52	6466
2026-01-20 14:23:02.49	21.78	7.36	-39.8	-40.9	21.0	0.00e+00	120	42	0	192937984	52	6201
2026-01-20 14:23:03.50	21.80	7.44	-39.4	-40.5	21.5	0.00e+00	122	42	0	196083712	52	5872
2026-01-20 14:23:04.51	21.82	7.51	-40.2	-41.3	20.6	0.00e+00	123	42	0	199229440	52	6491
2026-01-20 14:23:05.52	21.84	7.59	-39.4	-40.4	21.5	0.00e+00	123	42	0	202375168	52	5854
2026-01-20 14:23:06.53	21.87	7.67	-39.6	-40.7	21.4	0.00e+00	123	42	0	205520896	52	6003
2026-01-20 14:23:07.54	21.89	7.75	-39.2	-40.3	21.8	0.00e+00	123	42	0	208666624	52	5730
2026-01-20 14:23:08.55	21.91	7.83	-38.9	-39.9	22.0	0.00e+00	122	42	0	211812352	50	6164
2026-01-20 14:23:09.56	21.93	7.91	-39.8	-40.9	21.2	0.00e+00	122	42	0	214958080	50	6918
2026-01-20 14:23:10.57	21.96	7.99	-39.6	-40.7	21.5	0.00e+00	123	42	0	218103808	52	6026
2026-01-20 14:23:11.58	21.98	8.07	-39.2	-40.3	21.8	0.00e+00	120	42	0	221249536	52	5744
2026-01-20 14:23:12.59	22.00	8.15	-39.4	-40.5	21.6	0.00e+00	123	42	0	224395264	52	5884
2026-01-20 14:23:13.60	22.03	8.23	-39.2	-40.2	21.8	0.00e+00	123	42	0	227540992	52	5697
2026-01-20 14:23:14.61	22.05	8.31	-39.4	-40.4	21.8	0.00e+00	123	42	0	230686720	52	5844
2026-01-20 14:23:15.61	22.07	8.39	-39.3	-40.4	21.7	0.00e+00	121	42	0	233832448	52	5819
2026-01-20 14:23:16.62	22.10	8.47	-39.0	-40.0	22.0	0.00e+00	122	42	0	236978176	52	5590
2026-01-20 14:23:17.63	22.12	8.55	-39.6	-40.7	21.5	0.00e+00	122	42	0	240123904	52	6013
2026-01-20 14:23:18.64	22.14	8.63	-39.7	-40.8	21.4	0.00e+00	122	42	0	243269632	52	6104
2026-01-20 14:23:19.65	22.17	8.72	-39.6	-40.7	21.4	0.00e+00	123	42	0	246415360	52	6044
2026-01-20 14:23:20.66	22.19	8.80	-39.7	-40.8	21.4	0.00e+00	123	42	0	249561088	52	6116
2026-01-20 14:23:21.67	22.21	8.88	-39.5	-40.6	21.6	0.00e+00	123	42	0	252706816	52	5955
2026-01-20 14:23:22.68	22.24	8.96	-39.8	-40.9	21.4	0.00e+00	122	42	0	255852544	52	6170
2026-01-20 14:23:23.69	22.26	9.05	-39.3	-40.3	21.8	0.00e+00	122	42	0	258998272	52	5783
2026-01-20 14:23:24.70	22.29	9.13	-39.3	-40.4	21.7	0.00e+00	122	42	0	262144000	52	5826
2026-01-20 14:23:25.71	22.31	9.21	-38.6	-39.6	22.5	0.00e+00	120	42	0	265289728	52	5298
2026-01-20 14:23:26.72	22.34	9.30	-38.9	-40.0	22.1	0.00e+00	123	42	0	268435456	50	6213
2026-01-20 14:23:27.73	22.36	9.38	-38.3	-39.3	22.6	0.00e+00	122	42	0	272629760	50	5737
2026-01-20 14:23:28.74	22.39	9.47	-38.7	-39.7	22.3	0.00e+00	122	42	0	275775488	50	6041
2026-01-20 14:23:29.75	22.41	9.55	-38.7	-39.8	22.3	0.00e+00	123	42	0	278921216	50	6079
2026-01-20 14:23:30.75	22.44	9.63	-38.9	-40.0	22.1	0.00e+00	123	42	0	281018368	50	6216
2026-01-20 14:23:31.76	22.46	9.72	-39.1	-40.1	22.0	0.00e+00	122	42	0	284164096	50	6326
2026-01-20 14:23:32.77	22.49	9.81	-38.7	-39.7	22.3	0.00e+00	122	42	0	287309824	50	6055
2026-01-20 14:23:33.78	22.51	9.89	-38.9	-39.9	21.9	0.00e+00	122	42	0	291504128	50	6177
2026-01-20 14:23:34.79	22.54	9.98	-38.3	-39.3	22.6	0.00e+00	123	42	0	294649856	50	5777
2026-01-20 14:23:35.80	22.56	10.06	-38.4	-39.3	22.6	0.00e+00	122	42	0	297795584	50	5791
2026-01-20 14:23:36.82	22.59	10.15	-38.7	-39.7	22.4	0.00e+00	122	42	0	300941312	50	6018
2026-01-20 14:23:37.83	22.62	10.24	-38.9	-39.9	22.1	0.00e+00	122	42	0	304087040	50	6204
2026-01-20 14:23:38.83	22.64	10.33	-38.4	-39.4	22.6	0.00e+00	122	42	0	307232768	50	5826
2026-01-20 14:23:39.84	22.67	10.41	-38.3	-39.3	22.6	0.00e+00	122	42	0	310378496	50	5775
2026-01-20 14:23:40.85	22.69	10.50	-38.5	-39.5	22.5	0.00e+00	120	42	0	313524224	50	5903
2026-01-20 14:23:41.86	22.72	10.59	-38.3	-39.4	22.6	0.00e+00	122	42	0	316669952	50	5797
2026-01-20 14:23:42.88	22.75	10.68	-38.5	-39.5	22.5	0.00e+00	123	42	0	319815680	50	5885
2026-01-20 14:23:43.89	22.77	10.77	-38.3	-39.3	22.7	0.00e+00	123	42	0	322961408	50	5733
2026-01-20 14:23:44.90	22.80	10.86	-38.5	-39.5	22.4	0.00e+00	123	42	0	326107136	50	5887
2026-01-20 14:23:45.91	22.83	10.95	-38.4	-39.4	22.6	0.00e+00	123	42	0	329252864	50	5856
2026-01-20 14:23:46.92	22.85	11.04	-38.2	-39.2	22.7	0.00e+00	123	42	0	332398592	50	5692
2026-01-20 14:23:47.93	22.88	11.13	-38.3	-39.3	22.8	0.00e+00	123	42	0	335544320	50	5726
2026-01-20 14:23:48.94	22.91	11.22	-38.4	-39.4	22.5	0.00e+00	122	42	0	338690048	50	5831
2026-01-20 14:23:49.95	22.94	11.31	-38.2	-39.2	22.8	0.00e+00	122	42	0	341835776	50	5688
2026-01-20 14:23:50.95	22.96	11.40	-37.8	-38.8	23.1	0.00e+00	120	42	0	344981504	50	5405
2026-01-20 14:23:51.96	22.99	11.49	-38.0	-39.0	22.9	0.00e+00	123	42	0	348127232	50	5572
2026-01-20 14:23:52.97	23.02	11.58	-38.1	-39.1	22.9	0.00e+00	122	42	0	351272960	50	5601
2026-01-20 14:23:53.98	23.05	11.67	-37.9	-38.9	23.0	0.00e+00	122	42	0	354418688	50	5479
2026-01-20 14:23:54.99	23.08	11.77	-38.0	-39.0	22.9	0.00e+00	123	42	0	357564416	50	5546
2026-01-20 14:23:56.00	23.11	11.86	-37.9	-38.9	23.0	0.00e+00	123	42	0	360710144	50	5498
2026-01-20 14:23:57.01	23.13	11.95	-37.7	-38.6	23.1	0.00e+00	123	42	0	363855872	48	5992
2026-01-20 14:23:58.02	23.16	12.05	-38.2	-39.2	22.8	0.00e+00	122	42	0	367001600	48	6392
2026-01-20 14:23:59.04	23.19	12.14	-37.7	-38.7	23.1	0.00e+00	122	42	0	370147328	48	6041
2026-01-20 14:24:00.05	23.22	12.24	-37.9	-38.9	23.0	0.00e+00	123	42	0	373293056	48	6156
2026-01-20 14:24:01.06	23.25	12.33	-37.9	-38.8	23.0	0.00e+00	123	42	0	376438784	48	6125
2026-01-20 14:24:02.07	23.28	12.43	-37.8	-38.8	23.0	0.00e+00	120	42	0	379584512	48	6092
2026-01-20 14:24:03.08	23.31	12.52	-37.8	-38.8	22.9	0.00e+00	123	42	0	382730240	48	6115
2026-01-20 14:24:04.09	23.34	12.62	-38.0	-39.0	23.0	0.00e+00	121	42	0	385875968	48	6258
2026-01-20 14:24:05.10	23.37	12.71	-37.9	-38.9	23.0	0.00e+00	123	42	0	389021696	48	6140
2026-01-20 14:24:06.11	23.40	12.81	-37.9	-38.9	23.1	0.00e+00	123	42	0	392167424	48	6177
2026-01-20 14:24:07.11	23.43	12.91	-38.2	-39.2	22.7	0.00e+00	123	42	0	395313152	48	6352
2026-01-20 14:24:08.13	23.46	13.01	-37.8	-38.8	23.2	0.00e+00	123	42	0	398458880	48	6084
2026-01-20 14:24:09.14	23.49	13.10	-37.9	-38.8	23.1	0.00e+00	122	42	0	401604608	48	6129
2026-01-20 14:24:10.15	23.52	13.20	-37.6	-38.6	23.3	0.00e+00	120	42	0	404750336	48	5934
2026-01-20 14:24:11.16	23.55	13.30	-37.7	-38.7	23.1	0.00e+00	123	42	0	407896064	48	6039
2026-01-20 14:24:12.17	23.58	13.40	-37.9	-38.9	23.0	0.00e+00	123	42	0	411041792	48	6141
2026-01-20 14:24:13.18	23.61	13.50	-37.9	-38.9	23.1	0.00e+00	122	42	0	414187520	48	6172
2026-01-20 14:24:14.19	23.65	13.60	-38.0	-39.0	23.0	0.00e+00	120	42	0	417333248	48	6210
2026-01-20 14:24:15.20	23.68	13.70	-38.1	-39.1	22.8	0.00e+00	123	42	0	420478976	48	6329
2026-01-20 14:24:16.21	23.71	13.80	-38.1	-39.1	22.9	0.00e+00	122	42	0	423624704	48	6306
2026-01-20 14:24:17.22	23.74	13.90	-38.1	-39.1	22.8	0.00e+00	123	42	0	426770432	48	6333
2026-01-20 14:24:18.23	23.77	14.00	-37.9	-38.9	23.1	0.00e+00	123	42	0	429916160	48	6179
2026-01-20 14:24:19.24	23.81	14.10	-37.6	-38.5	23.3	0.00e+00	123	42	0	433061888	48	5903
2026-01-20 14:24:20.24	23.84	14.20	-37.3	-38.3	23.5	0.00e+00	123	42	0	436207616	48	5743
2026-01-20 14:24:21.25	23.87	14.31	-37.6	-38.5	23.4	0.00e+00	123	42	0	439353344	48	5905
2026-01-20 14:24:22.26	23.90	14.41	-37.5	-38.5	23.5	0.00e+00	120	42	0	442499072	48	5889
2026-01-20 14:24:23.27	23.94	14.51	-37.5	-38.5	23.5	0.00e+00	122	42	0	445644800	48	5860
2026-01-20 14:24:24.28	23.97	14.62	-37.8	-38.8	23.3	0.00e+00	120	42	0	448790528	48	6077
2026-01-20 14:24:25.29	24.00	14.72	-37.8	-38.8	23.1	0.00e+00	123	42	0	451936256	48	6090
2026-01-20 14:24:26.30	24.04	14.83	-37.9	-38.9	23.3	0.00e+00	123	42	0	455081984	48	6170
2026-01-20 14:24:27.31	24.07	14.93	-37.6	-38.6	23.3	0.00e+00	120	42	0	458227712	48	5943
2026-01-20 14:24:28.32	24.11	15.04	-37.9	-38.8	23.3	0.00e+00	122	42	0	461373440	48	6107
2026-01-20 14:24:29.33	24.14	15.14	-37.8	-38.7	23.4	0.00e+00	123	42	0	464519168	48	6040
2026-01-20 14:24:30.34	24.17	15.25	-37.9	-38.8	23.3	0.00e+00	123	42	0	467664896	48	6132
2026-01-20 14:24:31.35	24.21	15.36	-37.9	-38.8	23.3	0.00e+00	123	42	0	470810624	48	6122
2026-01-20 14:24:32.36	24.24	15.46	-37.9	-38.9	23.2	0.00e+00	122	42	0	473956352	48	6139
2026-01-20 14:24:33.37	24.28	15.57	-37.7	-38.6	23.4	0.00e+00	122	42	0	477102080	48	5979
2026-01-20 14:24:34.38	24.31	15.68	-37.8	-38.7	23.3	0.00e+00	122	42	0	480247808	48	6030
2026-01-20 14:24:35.39	24.35	15.79	-37.8	-38.7	23.4	0.00e+00	123	42	0	483393536	48	6045
2026-01-20 14:24:36.40	24.39	15.90	-37.9	-38.9	23.1	0.00e+00	122	42	0	486539264	48	6185
2026-01-20 14:24:37.41	24.42	16.01	-37.9	-38.9	23.1	0.00e+00	123	42	0	489684992	48	6186
2026-01-20 14:24:38.42	24.46	16.12	-37.6	-38.6	23.4	0.00e+00	122	42	0	492830720	48	5931
2026-01-20 14:24:39.43	24.50	16.23	-38.2	-39.2	22.8	0.00e+00	122	42	0	495976448	48	6391
2026-01-20 14:24:40.44	24.53	16.34	-38.5	-39.5	22.8	0.00e+00	122	42	0	499122176	48	6598
2026-01-20 14:24:41.45	24.57	16.45	-38.3	-39.3	22.8	0.00e+00	122	42	0	502267904	48	6456
2026-01-20 14:24:42.46	24.61	16.57	-38.5	-39.5	22.6	0.00e+00	122	42	0	505413632	48	6623
2026-01-20 14:24:43.46	24.64	16.68	-37.9	-38.8	23.2	0.00e+00	122	42	0	508559360	48	6104
2026-01-20 14:24:44.47	24.68	16.79	-37.9	-38.9	23.1	0.00e+00	123	42	0	511705088	48	6167
2026-01-20 14:24:45.48	24.72	16.91	-38.3	-39.3	22.9	0.00e+00	122	42	0	514850816	48	6446
2026-01-20 14:24:46.49	24.76	17.02	-37.8	-38.8	23.2	0.00e+00	123	42	0	517996544	48	6069
2026-01-20 14:24:47.50	24.80	17.14	-37.7	-38.6	23.3	0.00e+00	124	42	0	521142272	48	5968
2026-01-20 14:24:48.51	24.84	17.25	-37.7	-38.7	23.3	0.00e+00	120	42	0	524288000	48	6029
2026-01-20 14:24:49.52	24.88	17.37	-37.5	-38.5	23.5	0.00e+00	123	42	0	527433728	48	5863
2026-01-20 14:24:50.53	24.91	17.48	-37.7	-38.6	23.4	0.00e+00	122	42	0	530579456	48	5991
2026-01-20 14:24:51.54	24.95	17.60	-37.6	-38.5	23.3	0.00e+00	123	42	0	533725184	48	5910
2026-01-20 14:24:52.55	24.99	17.72	-37.7	-38.7	23.4	0.00e+00	123	42	0	536870912	48	5995
2026-01-20 14:24:53.55	25.03	17.84	-37.6	-38.5	23.4	0.00e+00	127	42	0	540016640	48	5900
2026-01-20 14:24:54.56	25.07	17.95	-37.8	-38.8	23.2	0.00e+00	123	42	0	543162368	48	6067
2026-01-20 14:24:55.57	25.12	18.07	-37.8	-38.8	23.3	0.00e+00	123	42	0	546308096	48	6088
2026-01-20 14:24:56.58	25.16	18.19	-37.6	-38.6	23.5	0.00e+00	123	42	0	549453824	48	5947
2026-01-20 14:24:57.59	25.20	18.31	-37.5	-38.5	23.6	0.00e+00	123	42	0	552599552	48	5880
2026-01-20 14:24:58.60	25.24	18.44	-37.6	-38.5	23.4	0.00e+00	121	42	0	555745280	48	5896
2026-01-20 14:24:59.61	25.28	18.56	-37.5	-38.4	23.4	0.00e+00	119	42	0	558891008	48	5842
2026-01-20 14:25:00.62	25.32	18.68	-37.4	-38.4	23.5	0.00e+00	120	42	0	562036736	48	5805
2026-01-20 14:25:01.63	25.37	18.80	-37.6	-38.5	23.4	0.00e+00	120	42	0	565182464	48	5896
2026-01-20 14:25:02.64	25.41	18.93	-37.6	-38.5	23.4	0.00e+00	123	42	0	568328192	48	5906
2026-01-20 14:25:03.65	25.45	19.05	-37.3	-38.3	23.6	0.00e+00	123	42	0	571473920	48	5731
2026-01-20 14:25:04.66	25.50	19.18	-37.2	-38.2	23.7	0.00e+00	120	42	0	574619648	48	5661
2026-01-20 14:25:05.66	25.54	19.30	-37.3	-38.3	23.7	0.00e+00	122	42	0	577765376	48	5741
2026-01-20 14:25:06.67	25.58	19.43	-37.4	-38.4	23.6	0.00e+00	122	42	0	580911104	48	5795
2026-01-20 14:25:07.68	25.63	19.55	-37.6	-38.5	23.5	0.00e+00	120	42	0	584056832	48	5897
2026-01-20 14:25:08.69	25.67	19.68	-37.5	-38.4	23.5	0.00e+00	122	42	0	587202560	48	5830
2026-01-20 14:25:09.70	25.72	19.81	-37.3	-38.3	23.7	0.00e+00	120	42	0	590348288	48	5743
2026-01-20 14:25:10.71	25.76	19.94	-37.2	-38.2	23.8	0.00e+00	122	42	0	593494016	48	5664
2026-01-20 14:25:11.72	25.81	20.06	-37.3	-38.2	23.8	0.00e+00	123	42	0	596639744	48	5701
2026-01-20 14:25:12.73	25.86	20.19	-37.2	-38.1	23.8	0.00e+00	123	42	0	599785472	48	5631
2026-01-20 14:25:13.74	25.90	20.33	-37.0	-37.9	24.0	0.00e+00	123	42	0	602931200	48	5493
2026-01-20 14:25:14.75	25.95	20.46	-37.0	-38.0	23.9	0.00e+00	120	42	0	606076928	48	5535
2026-01-20 14:25:15.76	26.00	20.59	-37.2	-38.1	23.8	0.00e+00	123	42	0	609222656	48	5646
2026-01-20 14:25:16.77	26.04	20.72	-36.9	-37.9	24.0	0.00e+00	121	42	0	612368384	48	5469
2026-01-20 14:25:17.78	26.09	20.85	-37.0	-37.9	24.0	0.00e+00	123	42	0	616562688	48	5499
2026-01-20 14:25:18.79	26.14	20.99	-36.9	-37.8	24.1	0.00e+00	120	42	0	619708416	48	5448
2026-01-20 14:25:19.80	26.19	21.12	-36.6	-37.5	24.3	0.00e+00	122	42	0	621805568	46	5881
2026-01-20 14:25:20.81	26.24	21.26	-36.8	-37.7	24.1	0.00e+00	123	42	0	624951296	46	6047
2026-01-20 14:25:21.82	26.29	21.39	-36.7	-37.6	24.2	0.00e+00	123	42	0	628097024	46	5992
2026-01-20 14:25:22.83	26.34	21.53	-36.6	-37.5	24.3	0.00e+00	123	42	0	632291328	46	5882
2026-01-20 14:25:23.84	26.39	21.67	-36.7	-37.6	24.2	0.00e+00	122	42	0	635437056	46	5956
2026-01-20 14:25:24.85	26.44	21.81	-36.8	-37.7	24.2	0.00e+00	123	42	0	638582784	46	6047
2026-01-20 14:25:25.86	26.49	21.95	-36.9	-37.8	24.2	0.00e+00	123	42	0	641728512	46	6080
2026-01-20 14:25:26.87	26.54	22.09	-36.5	-37.4	24.5	0.00e+00	122	42	0	644874240	46	5851
2026-01-20 14:25:27.88	26.59	22.23	-36.6	-37.5	24.4	0.00e+00	122	42	0	648019968	46	5899
2026-01-20 14:25:28.89	26.65	22.37	-36.5	-37.4	24.4	0.00e+00	122	42	0	651165696	46	5828
2026-01-20 14:25:29.90	26.70	22.51	-36.5	-37.4	24.4	0.00e+00	123	42	0	654311424	46	5850
2026-01-20 14:25:30.91	26.75	22.65	-36.3	-37.2	24.6	0.00e+00	123	42	0	657457152	46	5677
2026-01-20 14:25:31.93	26.81	22.80	-36.2	-37.1	24.6	0.00e+00	120	42	0	660602880	46	5641
2026-01-20 14:25:32.93	26.86	22.94	-36.2	-37.1	24.7	0.00e+00	122	42	0	663748608	46	5604
2026-01-20 14:25:33.95	26.92	23.09	-36.1	-37.0	24.6	0.00e+00	120	42	0	666894336	46	5570
2026-01-20 14:25:34.95	26.97	23.23	-36.0	-36.9	24.8	0.00e+00	123	42	0	670040064	46	5507
2026-01-20 14:25:35.96	27.03	23.38	-36.1	-37.0	24.7	0.00e+00	120	42	0	673185792	46	5551
2026-01-20 14:25:36.97	27.08	23.53	-36.0	-36.9	24.7	0.00e+00	120	42	0	676331520	46	5501
2026-01-20 14:25:37.98	27.14	23.67	-35.8	-36.7	24.8	0.00e+00	122	42	0	679477248	46	5358
2026-01-20 14:25:38.99	27.20	23.82	-35.9	-36.8	24.9	0.00e+00	123	42	0	682622976	46	5416
2026-01-20 14:25:40.00	27.26	23.97	-36.0	-36.9	24.8	0.00e+00	122	42	0	685768704	46	5511
2026-01-20 14:25:41.01	27.31	24.12	-35.9	-36.8	24.8	0.00e+00	123	42	0	688914432	46	5412
2026-01-20 14:25:42.02	27.37	24.28	-36.1	-37.0	24.8	0.00e+00	123	42	0	692060160	46	5562
2026-01-20 14:25:43.03	27.43	24.43	-36.3	-37.2	24.8	0.00e+00	123	42	0	695205888	46	5679
2026-01-20 14:25:44.04	27.49	24.58	-36.5	-37.4	24.6	0.00e+00	122	42	0	698351616	46	5815
2026-01-20 14:25:45.05	27.55	24.74	-36.3	-37.2	24.6	0.00e+00	120	42	0	701497344	46	5684
2026-01-20 14:25:46.06	27.61	24.89	-36.4	-37.3	24.5	0.00e+00	123	42	0	704643072	46	5741
2026-01-20 14:25:47.06	27.67	25.05	-36.0	-36.9	24.9	0.00e+00	123	42	0	707788800	46	5482
2026-01-20 14:25:48.07	27.74	25.20	-36.1	-37.0	24.8	0.00e+00	122	42	0	710934528	46	5549
2026-01-20 14:25:49.08	27.80	25.36	-36.2	-37.1	24.9	0.00e+00	120	42	0	714080256	46	5599
2026-01-20 14:25:50.09	27.86	25.52	-36.3	-37.1	24.7	0.00e+00	123	42	0	717225984	46	5659
2026-01-20 14:25:51.10	27.93	25.68	-36.3	-37.2	24.8	0.00e+00	122	42	0	720371712	46	5678
2026-01-20 14:25:52.11	27.99	25.84	-36.7	-37.6	24.5	0.00e+00	123	42	0	723517440	46	5974
2026-01-20 14:25:53.12	28.05	26.00	-36.9	-37.8	24.3	0.00e+00	122	42	0	726663168	46	6130
2026-01-20 14:25:54.13	28.12	26.16	-37.1	-38.0	24.2	0.00e+00	122	42	0	729808896	46	6250
2026-01-20 14:25:55.14	28.19	26.33	-36.8	-37.7	24.4	0.00e+00	123	42	0	732954624	46	6041
2026-01-20 14:25:56.15	28.25	26.49	-36.9	-37.8	24.4	0.00e+00	121	42	0	736100352	46	6072
2026-01-20 14:25:57.16	28.32	26.66	-37.1	-38.0	24.1	0.00e+00	122	42	0	739246080	46	6263
2026-01-20 14:25:58.17	28.39	26.82	-37.1	-38.0	24.2	0.00e+00	123	42	0	742391808	46	6233
2026-01-20 14:25:59.18	28.46	26.99	-37.0	-37.9	24.3	0.00e+00	123	43	0	745537536	46	6156
2026-01-20 14:26:00.19	28.53	27.16	-37.4	-38.3	23.8	0.00e+00	120	42	0	748683264	46	6497
2026-01-20 14:26:01.20	28.60	27.33	-37.2	-38.1	24.0	0.00e+00	123	42	0	751828992	46	6315
2026-01-20 14:26:02.21	28.67	27.50	-37.4	-38.3	23.9	0.00e+00	123	42	0	754974720	46	6460
2026-01-20 14:26:03.22	28.74	27.67	-37.5	-38.4	23.9	0.00e+00	120	42	0	758120448	46	6522
2026-01-20 14:26:04.23	28.81	27.84	-37.4	-38.3	24.0	0.00e+00	123	43	0	761266176	46	6473
2026-01-20 14:26:05.24	28.89	28.02	-37.6	-38.5	23.7	0.00e+00	120	42	0	764411904	46	6609
2026-01-20 14:26:06.25	28.96	28.19	-38.1	-39.1	23.4	0.00e+00	123	42	0	767557632	48	6301
2026-01-20 14:26:07.26	29.03	28.37	-37.7	-38.7	23.6	0.00e+00	123	42	0	770703360	48	5997
2026-01-20 14:26:08.28	29.11	28.55	-38.2	-39.2	23.2	0.00e+00	123	42	0	773849088	48	6351
2026-01-20 14:26:09.28	29.19	28.72	-38.4	-39.4	23.0	0.00e+00	120	43	0	776994816	48	6509
2026-01-20 14:26:10.29	29.26	28.90	-38.3	-39.3	23.1	0.00e+00	122	43	0	780140544	48	6454
2026-01-20 14:26:11.30	29.34	29.08	-38.2	-39.1	23.2	0.00e+00	122	43	0	783286272	48	6341
2026-01-20 14:26:12.31	29.42	29.26	-38.3	-39.2	23.2	0.00e+00	123	43	0	786432000	48	6415
2026-01-20 14:26:13.31	29.50	29.44	-38.1	-39.1	23.2	0.00e+00	122	43	0	789577728	48	6309
2026-01-20 14:26:14.32	29.58	29.63	-38.0	-39.0	23.2	0.00e+00	120	43	0	792723456	48	6232
2026-01-20 14:26:15.33	29.66	29.81	-37.9	-38.9	23.3	0.00e+00	121	43	0	795869184	48	6141
2026-01-20 14:26:16.34	29.74	30.00	-37.7	-38.7	23.4	0.00e+00	122	43	0	799014912	48	6048
2026-01-20 14:26:17.35	29.83	30.18	-37.6	-38.6	23.6	0.00e+00	122	42	0	802160640	48	5935
2026-01-20 14:26:18.36	29.91	30.37	-37.4	-38.4	23.7	0.00e+00	120	42	0	805306368	48	5809
2026-01-20 14:26:19.37	29.99	30.56	-37.2	-38.1	24.1	0.00e+00	121	42	0	808452096	48	5635
2026-01-20 14:26:20.38	30.08	30.75	-36.8	-37.7	24.4	0.00e+00	123	42	0	811597824	48	5377
2026-01-20 14:26:21.39	30.17	30.94	-37.2	-38.1	24.2	0.00e+00	120	42	0	814743552	48	5646
2026-01-20 14:26:22.40	30.26	31.14	-36.9	-37.8	24.4	0.00e+00	123	42	0	817889280	48	5427
2026-01-20 14:26:23.40	30.34	31.33	-37.1	-38.0	24.3	0.00e+00	123	43	0	821035008	48	5568
2026-01-20 14:26:24.41	30.43	31.52	-37.1	-38.0	24.2	0.00e+00	122	43	0	824180736	48	5566
2026-01-20 14:26:25.42	30.52	31.72	-36.9	-37.8	24.4	0.00e+00	118	43	0	827326464	48	5435
2026-01-20 14:26:26.43	30.62	31.92	-37.0	-37.9	24.4	0.00e+00	122	43	0	830472192	48	5475
2026-01-20 14:26:27.44	30.71	32.12	-36.9	-37.8	24.4	0.00e+00	123	42	0	833617920	48	5452
2026-01-20 14:26:28.45	30.80	32.32	-37.1	-38.0	24.4	0.00e+00	120	43	0	836763648	48	5552
2026-01-20 14:26:29.46	30.90	32.52	-37.2	-38.1	24.3	0.00e+00	123	43	0	839909376	48	5644
2026-01-20 14:26:30.47	30.99	32.72	-37.3	-38.2	24.1	0.00e+00	122	43	0	843055104	48	5686
2026-01-20 14:26:31.48	31.09	32.93	-38.2	-39.1	23.4	0.00e+00	120	43	0	846200832	48	6327
2026-01-20 14:26:32.49	31.19	33.13	-37.9	-38.9	23.8	0.00e+00	123	43	0	849346560	48	6154
2026-01-20 14:26:33.50	31.29	33.34	-37.7	-38.7	23.9	0.00e+00	123	42	0	852492288	48	6001
2026-01-20 14:26:34.51	31.39	33.55	-37.6	-38.6	23.9	0.00e+00	120	43	0	855638016	48	5932
2026-01-20 14:26:35.52	31.49	33.76	-37.6	-38.5	23.9	0.00e+00	122	43	0	858783744	48	5894
2026-01-20 14:26:36.53	31.60	33.97	-37.5	-38.4	24.1	0.00e+00	123	43	0	861929472	48	5822
2026-01-20 14:26:37.54	31.70	34.18	-38.0	-38.9	23.7	0.00e+00	121	42	0	865075200	48	6162
2026-01-20 14:26:38.55	31.81	34.39	-38.5	-39.4	23.1	0.00e+00	122	43	0	868220928	48	6546
2026-01-20 14:26:39.56	31.92	34.61	-38.1	-39.0	23.6	0.00e+00	127	43	0	871366656	48	6269
2026-01-20 14:26:40.57	32.03	34.82	-38.8	-39.8	23.1	0.00e+00	123	43	0	874512384	48	6805
2026-01-20 14:26:41.58	32.14	35.04	-38.9	-39.8	23.0	0.00e+00	116	43	0	877658112	50	6132
2026-01-20 14:26:42.59	32.25	35.26	-38.5	-39.5	23.2	0.00e+00	121	43	0	880803840	50	5872
2026-01-20 14:26:43.60	32.36	35.48	-38.6	-39.6	23.2	0.00e+00	120	43	0	883949568	50	5959
2026-01-20 14:26:44.61	32.48	35.70	-38.6	-39.6	23.1	0.00e+00	122	43	0	887095296	50	5929
2026-01-20 14:26:45.62	32.59	35.93	-38.7	-39.7	23.1	0.00e+00	123	43	0	890241024	50	5995
2026-01-20 14:26:46.63	32.71	36.15	-38.7	-39.7	22.9	0.00e+00	120	43	0	893386752	50	6031
2026-01-20 14:26:47.64	32.83	36.38	-38.8	-39.7	23.0	0.00e+00	123	43	0	896532480	50	6059
2026-01-20 14:26:48.65	32.95	36.60	-38.7	-39.7	23.0	0.00e+00	120	43	0	899678208	50	6005
2026-01-20 14:26:49.66	33.07	36.83	-38.7	-39.7	23.0	0.00e+00	123	43	0	902823936	50	6018
2026-01-20 14:26:50.67	33.20	37.06	-38.7	-39.7	22.9	0.00e+00	123	43	0	905969664	50	6030
2026-01-20 14:26:51.68	33.32	37.30	-38.8	-39.8	22.9	0.00e+00	122	43	0	909115392	50	6075
2026-01-20 14:26:52.69	33.45	37.53	-38.7	-39.7	23.0	0.00e+00	120	43	0	912261120	50	6017
2026-01-20 14:26:53.70	33.58	37.76	-38.7	-39.6	23.1	0.00e+00	120	43	0	915406848	50	5972
2026-01-20 14:26:54.71	33.71	38.00	-38.6	-39.6	23.2	0.00e+00	123	43	0	918552576	50	5953
2026-01-20 14:26:55.71	33.84	38.24	-38.6	-39.6	23.2	0.00e+00	123	43	0	921698304	50	5948
2026-01-20 14:26:56.72	33.98	38.48	-38.5	-39.4	23.3	0.00e+00	123	43	0	924844032	50	5823
2026-01-20 14:26:57.73	34.12	38.72	-38.7	-39.6	23.2	0.00e+00	123	43	0	927989760	50	5987
2026-01-20 14:26:58.74	34.26	38.96	-38.5	-39.5	23.3	0.00e+00	122	43	0	931135488	50	5878
2026-01-20 14:26:59.75	34.40	39.20	-38.6	-39.6	23.2	0.00e+00	123	43	0	934281216	50	5931
2026-01-20 14:27:00.76	34.54	39.45	-38.6	-39.6	23.2	0.00e+00	122	43	0	937426944	50	5945
2026-01-20 14:27:01.77	34.69	39.70	-38.7	-39.7	23.0	0.00e+00	120	43	0	940572672	50	6022
2026-01-20 14:27:02.78	34.83	39.95	-38.9	-39.9	22.8	0.00e+00	122	43	0	943718400	50	6150
2026-01-20 14:27:03.79	34.98	40.20	-39.0	-40.0	22.7	0.00e+00	123	43	0	946864128	50	6223
2026-01-20 14:27:04.80	35.13	40.45	-39.2	-40.2	22.6	0.00e+00	123	43	0	950009856	50	6352
2026-01-20 14:27:05.81	35.29	40.70	-39.5	-40.5	22.3	0.00e+00	123	43	0	953155584	50	6605
2026-01-20 14:27:06.82	35.45	40.96	-39.7	-40.7	21.3	0.00e+00	123	43	0	956301312	50	6787
2026-01-20 14:27:07.82	35.60	41.21	-40.0	-41.1	22.0	0.00e+00	123	43	0	959447040	52	6308
2026-01-20 14:27:08.83	35.77	41.47	-40.2	-41.3	21.7	0.00e+00	122	43	0	962592768	52	6467
2026-01-20 14:27:09.84	35.93	41.73	-40.4	-41.5	21.6	0.00e+00	123	43	0	965738496	52	6598
2026-01-20 14:27:10.85	36.10	41.99	-40.5	-41.6	21.4	0.00e+00	122	43	0	968884224	52	6724
2026-01-20 14:27:11.86	36.27	42.26	-40.6	-41.7	21.4	0.00e+00	122	43	0	972029952	54	6032
2026-01-20 14:27:12.87	36.44	42.52	-40.4	-41.5	21.5	0.00e+00	123	43	0	975175680	54	5885
2026-01-20 14:27:13.88	36.61	42.79	-40.4	-41.5	21.6	0.00e+00	122	43	0	979369984	54	5874
2026-01-20 14:27:14.89	36.79	43.06	-40.4	-41.5	21.5	0.00e+00	123	43	0	982515712	54	5895
2026-01-20 14:27:15.90	36.97	43.33	-40.3	-41.4	21.4	0.00e+00	123	43	0	984612864	54	5852
2026-01-20 14:27:16.91	37.15	43.60	-40.7	-41.8	21.0	0.00e+00	122	43	0	987758592	54	6132
2026-01-20 14:27:17.92	37.34	43.87	-41.1	-42.2	21.0	0.00e+00	120	43	0	990904320	54	6410
2026-01-20 14:27:18.93	37.53	44.14	-40.8	-41.9	21.1	0.00e+00	123	43	0	995098624	54	6204
2026-01-20 14:27:19.94	37.73	44.42	-41.3	-42.4	20.9	0.00e+00	122	43	0	998244352	54	6547
2026-01-20 14:27:20.95	37.92	44.70	-40.8	-41.9	21.4	0.00e+00	123	43	0	1001390080	54	6151
2026-01-20 14:27:21.96	38.12	44.98	-40.7	-41.8	21.5	0.00e+00	123	43	0	1004535808	54	6113
2026-01-20 14:27:22.96	38.32	45.26	-40.6	-41.6	21.3	0.00e+00	120	43	0	1007681536	54	5984
2026-01-20 14:27:23.97	38.53	45.54	-40.7	-41.8	20.8	0.00e+00	122	43	0	1009778688	54	6126
2026-01-20 14:27:24.98	38.74	45.82	-40.9	-42.1	20.5	0.00e+00	122	43	0	1013972992	54	6281
2026-01-20 14:27:25.99	38.96	46.11	-40.5	-41.7	20.9	0.00e+00	123	43	0	1017118720	54	5999
2026-01-20 14:27:26.99	39.17	46.39	-40.0	-41.1	21.4	0.00e+00	123	43	0	1020264448	54	5639
2026-01-20 14:27:28.01	39.40	46.69	-39.7	-40.7	21.9	0.00e+00	122	43	0	1023410176	52	6064
2026-01-20 14:27:29.02	39.62	46.98	-39.7	-40.7	21.9	0.00e+00	123	43	0	1026555904	52	6054
2026-01-20 14:27:30.03	39.85	47.27	-39.2	-40.2	22.2	0.00e+00	122	43	0	1029701632	52	5692
2026-01-20 14:27:31.03	40.09	47.56	-39.6	-40.6	22.2	0.00e+00	123	43	0	1032847360	52	5960
2026-01-20 14:27:32.04	40.32	47.86	-39.0	-40.0	22.5	0.00e+00	120	43	0	1035993088	52	5562
2026-01-20 14:27:33.05	40.57	48.15	-39.0	-40.0	22.6	0.00e+00	122	43	0	1039138816	52	5542
2026-01-20 14:27:34.06	40.82	48.45	-38.5	-39.5	22.9	0.00e+00	120	43	0	1042284544	50	5886
2026-01-20 14:27:35.07	41.07	48.75	-38.7	-39.6	23.0	0.00e+00	122	43	0	1045430272	50	5988
2026-01-20 14:27:36.08	41.33	49.05	-38.6	-39.5	23.0	0.00e+00	123	43	0	1048576000	50	5915
2026-01-20 14:27:37.09	41.59	49.35	-38.8	-39.8	22.9	0.00e+00	123	43	0	1051721728	50	6074
2026-01-20 14:27:38.10	41.86	49.66	-39.0	-40.0	22.7	0.00e+00	123	43	0	1054867456	50	6214
2026-01-20 14:27:39.11	42.13	49.96	-39.1	-40.1	22.7	0.00e+00	122	43	0	1058013184	50	6288
2026-01-20 14:27:40.12	42.41	50.27	-39.2	-40.2	22.6	0.00e+00	122	43	0	1061158912	50	6388
2026-01-20 14:27:41.13	42.70	50.58	-39.6	-40.6	22.5	0.00e+00	122	43	0	1064304640	50	6699
2026-01-20 14:27:42.14	42.99	50.89	-39.4	-40.4	22.6	0.00e+00	122	43	0	1067450368	52	5820
2026-01-20 14:27:43.15	43.28	51.20	-39.9	-40.9	22.3	0.00e+00	122	43	0	1070596096	52	6163
2026-01-20 14:27:44.16	43.59	51.51	-39.8	-40.8	22.3	0.00e+00	123	43	0	1073741824	52	6093
2026-01-20 14:27:45.17	43.89	51.82	-39.6	-40.6	22.4	0.00e+00	123	43	0	1076887552	52	5976
2026-01-20 14:27:46.18	44.21	52.14	-39.4	-40.4	22.6	0.00e+00	120	43	0	1080033280	52	5857
2026-01-20 14:27:47.19	44.53	52.46	-38.9	-39.9	22.8	0.00e+00	123	43	0	1083179008	52	5524
2026-01-20 14:27:48.20	44.86	52.77	-38.9	-39.8	23.0	0.00e+00	123	43	0	1086324736	52	5458
2026-01-20 14:27:49.21	45.20	53.09	-38.8	-39.8	23.1	0.00e+00	120	43	0	1089470464	52	5419
2026-01-20 14:27:50.22	45.54	53.41	-38.7	-39.7	23.2	0.00e+00	123	43	0	1092616192	50	6045
2026-01-20 14:27:51.23	45.89	53.73	-38.9	-39.9	23.1	0.00e+00	123	43	0	1095761920	50	6140
2026-01-20 14:27:52.24	46.25	54.05	-38.7	-39.7	23.2	0.00e+00	123	43	0	1098907648	50	6023
2026-01-20 14:27:53.25	46.62	54.37	-38.8	-39.8	23.0	0.00e+00	122	43	0	1102053376	50	6108
2026-01-20 14:27:54.26	46.99	54.70	-38.7	-39.7	23.2	0.00e+00	122	43	0	1105199104	50	6052
2026-01-20 14:27:55.27	47.38	55.02	-38.6	-39.6	23.3	0.00e+00	122	43	0	1108344832	50	5950
2026-01-20 14:27:56.28	47.77	55.34	-38.7	-39.7	23.1	0.00e+00	122	43	0	1111490560	50	6001
2026-01-20 14:27:57.29	48.17	55.67	-38.2	-39.2	23.5	0.00e+00	121	43	0	1114636288	50	5667
2026-01-20 14:27:58.30	48.58	55.99	-38.0	-38.9	23.6	0.00e+00	123	43	0	1117782016	50	5522
2026-01-20 14:27:59.31	49.00	56.32	-38.2	-39.1	23.6	0.00e+00	120	43	0	1120927744	50	5632
2026-01-20 14:28:00.32	49.43	56.65	-38.0	-38.9	23.8	0.00e+00	123	43	0	1124073472	50	5527
2026-01-20 14:28:01.33	49.87	56.97	-38.0	-38.9	23.7	0.00e+00	122	43	0	1127219200	50	5507
2026-01-20 14:28:02.35	50.33	57.30	-37.9	-38.8	23.9	0.00e+00	123	43	0	1130364928	48	6114
2026-01-20 14:28:03.35	50.78	57.63	-37.7	-38.6	24.0	0.00e+00	123	43	0	1133510656	48	5966
2026-01-20 14:28:04.36	51.26	57.95	-37.5	-38.5	24.1	0.00e+00	122	43	0	1136656384	48	5871
2026-01-20 14:28:05.37	51.74	58.28	-37.3	-38.2	24.1	0.00e+00	123	43	0	1139802112	48	5700
2026-01-20 14:28:06.38	52.24	58.61	-37.1	-38.0	24.4	0.00e+00	122	43	0	1142947840	48	5562
2026-01-20 14:28:07.39	52.75	58.94	-37.2	-38.1	24.3	0.00e+00	120	43	0	1146093568	48	5614
2026-01-20 14:28:08.40	53.27	59.26	-36.8	-37.7	24.6	0.00e+00	123	43	0	1149239296	48	5355
2026-01-20 14:28:09.41	53.80	59.59	-36.8	-37.7	24.7	0.00e+00	123	43	0	1152385024	48	5383
2026-01-20 14:28:10.42	54.35	59.91	-36.7	-37.6	24.7	0.00e+00	123	43	0	1155530752	46	5964
2026-01-20 14:28:11.43	54.91	60.24	-36.3	-37.2	24.9	0.00e+00	123	43	0	1158676480	46	5660
2026-01-20 14:28:12.44	55.49	60.56	-36.2	-37.1	25.0	0.00e+00	122	43	0	1161822208	46	5599
2026-01-20 14:28:13.45	56.08	60.89	-36.1	-37.0	25.3	0.00e+00	122	43	0	1164967936	46	5549
2026-01-20 14:28:14.46	56.69	61.21	-36.0	-36.9	25.0	0.00e+00	122	43	0	1168113664	46	5496
2026-01-20 14:28:15.47	57.31	61.53	-36.3	-37.2	24.8	0.00e+00	123	43	0	1171259392	46	5677
2026-01-20 14:28:16.48	57.95	61.85	-36.4	-37.3	24.9	0.00e+00	120	43	0	1174405120	46	5764
2026-01-20 14:28:17.49	58.60	62.17	-36.2	-37.1	25.1	0.00e+00	120	43	0	1177550848	46	5629
2026-01-20 14:28:18.50	59.27	62.48	-36.3	-37.1	25.1	0.00e+00	122	43	0	1180696576	46	5631
2026-01-20 14:28:19.51	59.96	62.80	-36.2	-37.0	24.9	0.00e+00	122	43	0	1183842304	46	5568
2026-01-20 14:28:20.52	60.67	63.11	-36.2	-37.1	24.9	0.00e+00	123	43	0	1186988032	46	5604
2026-01-20 14:28:21.53	61.40	63.42	-36.0	-36.9	25.2	0.00e+00	123	43	0	1190133760	46	5480
2026-01-20 14:28:22.54	62.14	63.73	-35.7	-36.6	25.4	0.00e+00	123	43	0	1193279488	46	5295
2026-01-20 14:28:23.55	62.91	64.03	-35.5	-36.4	25.3	0.00e+00	122	43	0	1196425216	44	5803
2026-01-20 14:28:24.56	63.70	64.34	-35.7	-36.6	24.9	0.00e+00	120	43	0	1199570944	44	5930
2026-01-20 14:28:25.57	64.50	64.63	-35.6	-36.5	24.8	0.00e+00	123	43	0	1202716672	44	5892
2026-01-20 14:28:26.58	65.33	64.93	-35.5	-36.3	25.0	0.00e+00	123	43	0	1205862400	44	5777
2026-01-20 14:28:27.58	66.17	65.22	-34.8	-35.7	25.3	0.00e+00	123	43	0	1209008128	44	5347
2026-01-20 14:28:28.59	67.04	65.51	-35.3	-36.1	25.0	0.00e+00	123	43	0	1212153856	44	5621
2026-01-20 14:28:29.60	67.94	65.79	-35.7	-36.6	24.9	0.00e+00	123	43	0	1215299584	44	5930
2026-01-20 14:28:30.61	68.85	66.07	-35.7	-36.6	25.1	0.00e+00	123	43	0	1218445312	44	5945
2026-01-20 14:28:31.62	69.80	66.34	-35.8	-36.7	24.8	0.00e+00	123	43	0	1221591040	44	6008
2026-01-20 14:28:32.63	70.76	66.61	-36.1	-36.9	24.9	0.00e+00	122	43	0	1224736768	44	6200
2026-01-20 14:28:33.64	71.75	66.88	-35.9	-36.7	25.3	0.00e+00	123	43	0	1227882496	44	6051
2026-01-20 14:28:34.65	72.76	67.14	-36.4	-37.3	24.8	0.00e+00	123	43	0	1231028224	44	6461
2026-01-20 14:28:35.66	73.80	67.39	-35.9	-36.7	25.3	0.00e+00	122	43	0	1234173952	44	6029
2026-01-20 14:28:36.67	74.87	67.64	-35.5	-36.3	25.5	0.00e+00	124	43	0	1237319680	44	5769
2026-01-20 14:28:37.68	75.96	67.88	-35.6	-36.4	25.5	0.00e+00	123	43	0	1240465408	44	5837
2026-01-20 14:28:38.69	77.07	68.11	-35.4	-36.3	25.5	0.00e+00	121	43	0	1243611136	44	5739
2026-01-20 14:28:39.69	78.20	68.33	-35.5	-36.4	25.3	0.00e+00	122	43	0	1246756864	44	5832
2026-01-20 14:28:40.70	79.37	68.55	-35.6	-36.4	25.4	0.00e+00	123	43	0	1249902592	44	5830
2026-01-20 14:28:41.71	80.56	68.76	-35.5	-36.3	25.5	0.00e+00	122	43	0	1253048320	44	5788
2026-01-20 14:28:42.72	81.78	68.97	-35.6	-36.5	25.2	0.00e+00	123	43	0	1256194048	44	5877
2026-01-20 14:28:43.73	83.02	69.16	-35.9	-36.8	25.1	0.00e+00	123	43	0	1259339776	44	6107
2026-01-20 14:28:44.74	84.29	69.35	-36.0	-36.9	25.1	0.00e+00	122	43	0	1262485504	44	6167
2026-01-20 14:28:45.75	85.58	69.52	-35.8	-36.7	25.1	0.00e+00	120	43	0	1265631232	44	5998
2026-01-20 14:28:46.76	86.89	69.69	-35.8	-36.7	24.8	0.00e+00	122	43	0	1268776960	44	5999
2026-01-20 14:28:47.77	88.23	69.85	-35.8	-36.7	25.2	0.00e+00	123	43	0	1271922688	44	6011
2026-01-20 14:28:48.78	89.59	69.99	-35.3	-36.2	25.7	0.00e+00	123	43	0	1275068416	44	5690
2026-01-20 14:28:49.79	90.97	70.13	-35.1	-36.0	25.8	0.00e+00	123	43	0	1278214144	44	5537
2026-01-20 14:28:50.80	92.37	70.26	-35.1	-36.0	25.5	0.00e+00	122	43	0	1281359872	44	5541
2026-01-20 14:28:51.81	93.79	70.37	-35.3	-36.2	25.3	0.00e+00	122	43	0	1284505600	44	5690
2026-01-20 14:28:52.82	95.22	70.48	-35.3	-36.2	25.5	0.00e+00	122	43	0	1287651328	44	5668
2026-01-20 14:28:53.83	96.67	70.57	-35.2	-36.0	25.4	0.00e+00	123	43	0	1290797056	44	5560
2026-01-20 14:28:54.84	98.13	70.65	-35.3	-36.2	24.6	0.00e+00	120	43	0	1293942784	44	5683
2026-01-20 14:28:55.85	99.61	70.72	-35.6	-36.5	24.5	0.00e+00	122	43	0	1297088512	44	5882
2026-01-20 14:28:56.86	101.10	70.77	-35.4	-36.3	25.0	0.00e+00	123	43	0	1300234240	44	5736
2026-01-20 14:28:57.87	102.59	70.82	-35.2	-36.0	24.9	0.00e+00	122	43	0	1303379968	44	5592
2026-01-20 14:28:58.87	104.08	70.85	-35.4	-36.3	24.8	0.00e+00	122	43	0	1306525696	44	5747
2026-01-20 14:28:59.88	105.58	70.87	-35.8	-36.7	25.1	0.00e+00	122	43	0	1309671424	44	6047
2026-01-20 14:29:00.89	107.09	70.88	-35.7	-36.5	25.2	0.00e+00	120	43	0	1312817152	44	5918
2026-01-20 14:29:01.90	108.60	70.88	-35.6	-36.5	25.2	0.00e+00	122	43	0	1315962880	44	5863
2026-01-20 14:29:02.91	110.10	70.86	-35.5	-36.4	24.9	0.00e+00	120	43	0	1319108608	44	5828
2026-01-20 14:29:03.92	111.61	70.83	-35.9	-36.8	24.7	0.00e+00	122	43	0	1323302912	44	6078
2026-01-20 14:29:04.93	113.10	70.79	-36.1	-37.0	24.8	0.00e+00	123	43	0	1325400064	44	6231
2026-01-20 14:29:05.94	114.59	70.74	-36.3	-37.2	24.7	0.00e+00	121	43	0	1328545792	44	6413
2026-01-20 14:29:06.95	116.07	70.67	-35.9	-36.8	24.7	0.00e+00	122	43	0	1331691520	44	6118
2026-01-20 14:29:07.96	117.54	70.59	-35.9	-36.8	25.0	0.00e+00	122	43	0	1334837248	44	6072
2026-01-20 14:29:08.97	119.00	70.50	-35.7	-36.6	25.2	0.00e+00	122	43	0	1337982976	44	5957
2026-01-20 14:29:09.98	120.44	70.40	-35.7	-36.5	25.0	0.00e+00	123	43	0	1342177280	44	5908
2026-01-20 14:29:10.99	121.86	70.29	-36.5	-37.4	24.2	0.00e+00	123	43	0	1345323008	44	6514
2026-01-20 14:29:12.00	123.27	70.17	-36.9	-37.8	24.4	0.00e+00	123	43	0	1348468736	46	6131
2026-01-20 14:29:13.01	124.65	70.04	-36.8	-37.6	24.7	0.00e+00	122	43	0	1350565888	46	5989
2026-01-20 14:29:14.02	126.02	69.89	-37.2	-38.1	24.3	0.00e+00	122	43	0	1353711616	46	6302
2026-01-20 14:29:15.03	127.36	69.74	-37.8	-38.7	24.4	0.00e+00	122	43	0	1357905920	48	6061
2026-01-20 14:29:16.04	128.68	69.57	-37.7	-38.6	24.4	0.00e+00	123	43	0	1361051648	48	5975
2026-01-20 14:29:17.05	129.98	69.40	-37.7	-38.6	24.6	0.00e+00	120	43	0	1364197376	48	5966
2026-01-20 14:29:18.06	131.26	69.22	-36.9	-37.8	25.0	0.00e+00	123	43	0	1367343104	48	5412
2026-01-20 14:29:19.07	132.51	69.02	-36.9	-37.7	25.0	0.00e+00	123	43	0	1370488832	46	6058
2026-01-20 14:29:20.08	133.74	68.82	-36.4	-37.2	25.5	0.00e+00	123	43	0	1373634560	46	5689
2026-01-20 14:29:21.09	134.94	68.62	-35.6	-36.4	25.8	0.00e+00	122	43	0	1376780288	44	5849
2026-01-20 14:29:22.10	136.11	68.40	-36.1	-36.9	25.6	0.00e+00	122	43	0	1379926016	44	6203
2026-01-20 14:29:23.11	137.26	68.17	-36.2	-37.1	25.5	0.00e+00	123	43	0	1383071744	44	6279
2026-01-20 14:29:24.12	138.39	67.94	-36.2	-37.0	25.3	0.00e+00	122	43	0	1386217472	44	6253
2026-01-20 14:29:25.13	139.48	67.70	-35.7	-36.5	25.6	0.00e+00	120	43	0	1389363200	44	5883
2026-01-20 14:29:26.14	140.56	67.46	-35.6	-36.5	25.8	0.00e+00	122	43	0	1392508928	44	5874
2026-01-20 14:29:27.15	141.61	67.21	-35.5	-36.4	26.0	0.00e+00	121	43	0	1395654656	44	5799
2026-01-20 14:29:28.16	142.63	66.95	-35.1	-35.9	26.0	0.00e+00	123	43	0	1398800384	44	5510
2026-01-20 14:29:29.17	143.63	66.69	-35.7	-36.6	25.4	0.00e+00	123	43	0	1401946112	44	5956
2026-01-20 14:29:30.18	144.60	66.42	-36.1	-37.0	25.1	0.00e+00	123	43	0	1405091840	44	6233
2026-01-20 14:29:31.19	145.55	66.14	-35.7	-36.6	25.4	0.00e+00	123	43	0	1408237568	44	5943
2026-01-20 14:29:32.20	146.47	65.87	-35.6	-36.5	25.4	0.00e+00	123	43	0	1411383296	44	5864
2026-01-20 14:29:33.21	147.38	65.58	-34.9	-35.7	25.9	0.00e+00	123	43	0	1414529024	44	5396
2026-01-20 14:29:34.22	148.25	65.30	-35.5	-36.4	25.6	0.00e+00	122	43	0	1417674752	44	5807
2026-01-20 14:29:35.23	149.11	65.00	-36.4	-37.3	25.0	0.00e+00	120	43	0	1420820480	44	6464
2026-01-20 14:29:36.24	149.95	64.71	-37.9	-38.8	24.0	0.00e+00	124	43	0	1423966208	46	6847
2026-01-20 14:29:37.25	150.76	64.41	-37.9	-38.9	23.7	0.00e+00	120	43	0	1427111936	48	6135
2026-01-20 14:29:38.26	151.55	64.11	-36.5	-37.4	24.6	0.00e+00	123	43	0	1430257664	46	5835
2026-01-20 14:29:39.27	152.32	63.80	-35.5	-36.4	25.3	0.00e+00	123	43	0	1433403392	44	5793
2026-01-20 14:29:40.28	153.08	63.50	-35.5	-36.3	25.7	0.00e+00	123	43	0	1436549120	44	5765
2026-01-20 14:29:41.29	153.81	63.19	-36.3	-37.2	25.1	0.00e+00	123	43	0	1439694848	44	6378
2026-01-20 14:29:42.30	154.52	62.87	-37.6	-38.6	24.2	0.00e+00	122	43	0	1442840576	46	6664
2026-01-20 14:29:43.31	155.22	62.56	-38.3	-39.3	23.4	0.00e+00	120	43	0	1445986304	48	6448
2026-01-20 14:29:44.32	155.90	62.24	-38.0	-39.0	22.7	0.00e+00	123	43	0	1449132032	48	6276
2026-01-20 14:29:45.32	156.55	61.93	-37.3	-38.3	23.8	0.00e+00	120	43	0	1452277760	48	5739
2026-01-20 14:29:46.33	157.19	61.61	-35.7	-36.5	25.4	0.00e+00	120	43	0	1455423488	46	5280
2026-01-20 14:29:47.34	157.82	61.29	-35.7	-36.5	25.7	0.00e+00	123	43	0	1458569216	44	5924
2026-01-20 14:29:48.35	158.43	60.96	-35.9	-36.7	25.4	0.00e+00	123	43	0	1461714944	44	6053
2026-01-20 14:29:49.36	159.03	60.64	-37.6	-38.5	24.2	0.00e+00	120	43	0	1464860672	46	6645
2026-01-20 14:29:50.37	159.61	60.31	-37.9	-38.9	23.9	0.00e+00	122	43	0	1468006400	48	6150
2026-01-20 14:29:51.38	160.18	59.99	-37.4	-38.4	23.5	0.00e+00	123	42	0	1471152128	48	5837
2026-01-20 14:29:52.39	160.73	59.66	-36.5	-37.4	24.2	0.00e+00	123	43	0	1474297856	46	5843
2026-01-20 14:29:53.40	161.27	59.34	-35.6	-36.4	24.8	0.00e+00	123	43	0	1477443584	44	5832
2026-01-20 14:29:54.41	161.79	59.01	-35.8	-36.7	25.1	0.00e+00	123	43	0	1480589312	44	5999
2026-01-20 14:29:55.42	162.31	58.68	-36.2	-37.1	25.1	0.00e+00	122	43	0	1483735040	44	6298
2026-01-20 14:29:56.43	162.81	58.35	-37.4	-38.3	24.2	0.00e+00	122	43	0	1486880768	46	6459
2026-01-20 14:29:57.44	163.30	58.02	-38.8	-39.8	23.0	0.00e+00	123	43	0	1490026496	48	6852
2026-01-20 14:29:58.45	163.77	57.69	-39.3	-40.4	22.3	0.00e+00	122	43	0	1493172224	50	6543
2026-01-20 14:29:59.46	164.24	57.37	-38.0	-39.0	22.8	0.00e+00	120	43	0	1496317952	50	5539
2026-01-20 14:30:00.47	164.69	57.04	-37.5	-38.5	22.9	0.00e+00	122	42	0	1499463680	48	5907
2026-01-20 14:30:01.48	165.14	56.71	-36.4	-37.2	24.4	0.00e+00	123	43	0	1502609408	46	5716
2026-01-20 14:30:02.49	165.57	56.38	-35.6	-36.4	25.4	0.00e+00	123	43	0	1505755136	44	5852
2026-01-20 14:30:03.50	165.99	56.06	-36.0	-36.8	25.1	0.00e+00	123	43	0	1508900864	44	6101
2026-01-20 14:30:04.51	166.41	55.73	-37.4	-38.3	23.6	0.00e+00	123	42	0	1512046592	46	6482
2026-01-20 14:30:05.52	166.81	55.40	-39.2	-40.3	21.8	0.00e+00	120	43	0	1515192320	50	6481
2026-01-20 14:30:06.53	167.21	55.08	-40.0	-41.2	21.6	0.00e+00	123	43	0	1518338048	52	6367
2026-01-20 14:30:07.54	167.59	54.75	-39.6	-40.7	21.7	0.00e+00	120	43	0	1521483776	52	6033
2026-01-20 14:30:08.54	167.97	54.43	-38.6	-39.6	22.2	0.00e+00	122	42	0	1524629504	50	5961
2026-01-20 14:30:09.55	168.34	54.11	-37.8	-38.8	23.5	0.00e+00	126	43	0	1527775232	50	5411
2026-01-20 14:30:10.56	168.70	53.79	-36.7	-37.6	24.6	0.00e+00	123	43	0	1530920960	46	5965
2026-01-20 14:30:11.57	169.05	53.46	-36.5	-37.3	24.9	0.00e+00	122	42	0	1534066688	46	5767
2026-01-20 14:30:12.58	169.40	53.14	-37.0	-37.8	24.6	0.00e+00	122	42	0	1537212416	46	6122
2026-01-20 14:30:13.59	169.74	52.82	-38.1	-39.1	23.6	0.00e+00	120	43	0	1540358144	48	6287
2026-01-20 14:30:14.60	170.07	52.51	-39.3	-40.3	22.2	0.00e+00	123	42	0	1543503872	50	6490
2026-01-20 14:30:15.61	170.39	52.19	-39.9	-41.0	21.8	0.00e+00	122	43	0	1546649600	52	6260
2026-01-20 14:30:16.62	170.71	51.87	-40.2	-41.3	21.6	0.00e+00	123	42	0	1549795328	52	6475
2026-01-20 14:30:17.63	171.02	51.56	-39.8	-40.9	20.9	0.00e+00	122	43	0	1552941056	52	6202
2026-01-20 14:30:18.64	171.32	51.24	-39.5	-40.7	21.1	0.00e+00	123	42	0	1556086784	52	6036
2026-01-20 14:30:19.65	171.62	50.93	-39.1	-40.2	22.2	0.00e+00	123	43	0	1559232512	52	5665
2026-01-20 14:30:20.66	171.92	50.62	-38.4	-39.3	23.3	0.00e+00	120	43	0	1562378240	50	5758
2026-01-20 14:30:21.67	172.20	50.31	-38.0	-38.9	23.7	0.00e+00	123	43	0	1565523968	50	5529
2026-01-20 14:30:22.68	172.48	50.00	-38.6	-39.5	23.1	0.00e+00	118	43	0	1568669696	50	5922
2026-01-20 14:30:23.69	172.76	49.70	-39.3	-40.3	22.5	0.00e+00	120	43	0	1571815424	50	6486
2026-01-20 14:30:24.70	173.03	49.39	-39.8	-40.8	22.0	0.00e+00	123	42	0	1574961152	52	6097
2026-01-20 14:30:25.71	173.29	49.09	-40.2	-41.3	21.8	0.00e+00	122	43	0	1578106880	52	6466
2026-01-20 14:30:26.72	173.55	48.78	-40.9	-42.0	21.3	0.00e+00	123	43	0	1581252608	54	6237
2026-01-20 14:30:27.73	173.81	48.48	-41.5	-42.8	20.6	0.00e+00	122	43	0	1584398336	54	6816
2026-01-20 14:30:28.74	174.06	48.18	-41.0	-42.2	21.0	0.00e+00	123	43	0	1587544064	54	6386
2026-01-20 14:30:29.75	174.30	47.88	-40.0	-41.1	21.9	0.00e+00	122	43	0	1590689792	54	5615
2026-01-20 14:30:30.76	174.54	47.59	-39.8	-40.8	21.9	0.00e+00	122	42	0	1593835520	52	6078
2026-01-20 14:30:31.76	174.78	47.29	-38.8	-39.8	22.6	0.00e+00	122	42	0	1596981248	52	5410
2026-01-20 14:30:32.77	175.01	47.00	-38.8	-39.8	22.7	0.00e+00	122	43	0	1600126976	50	6075
2026-01-20 14:30:33.78	175.24	46.71	-39.0	-39.9	22.8	0.00e+00	122	42	0	1603272704	50	6201
2026-01-20 14:30:34.79	175.46	46.42	-38.9	-39.8	22.9	0.00e+00	122	43	0	1606418432	50	6133
2026-01-20 14:30:35.80	175.68	46.13	-39.1	-40.1	22.7	0.00e+00	120	43	0	1609564160	50	6280
2026-01-20 14:30:36.81	175.89	45.84	-39.4	-40.4	22.3	0.00e+00	120	42	0	1612709888	50	6562
2026-01-20 14:30:37.82	176.11	45.56	-39.3	-40.3	22.6	0.00e+00	123	43	0	1615855616	50	6471
2026-01-20 14:30:38.83	176.31	45.27	-39.3	-40.2	22.5	0.00e+00	123	43	0	1619001344	50	6423
2026-01-20 14:30:39.84	176.52	44.99	-39.0	-40.0	22.7	0.00e+00	120	43	0	1622147072	50	6216
2026-01-20 14:30:40.85	176.72	44.71	-39.1	-40.1	22.6	0.00e+00	122	43	0	1625292800	50	6280
2026-01-20 14:30:41.86	176.92	44.43	-39.9	-41.0	21.8	0.00e+00	120	43	0	1628438528	52	6224
2026-01-20 14:30:42.87	177.11	44.15	-40.9	-42.1	20.9	0.00e+00	120	42	0	1631584256	54	6298
2026-01-20 14:30:43.88	177.30	43.87	-41.2	-42.4	20.7	0.00e+00	123	43	0	1634729984	54	6551
2026-01-20 14:30:44.89	177.49	43.60	-41.3	-42.5	20.6	0.00e+00	122	43	0	1637875712	54	6586
2026-01-20 14:30:45.90	177.67	43.33	-40.6	-41.7	21.3	0.00e+00	122	43	0	1641021440	54	6026
2026-01-20 14:30:46.91	177.86	43.06	-39.9	-40.9	21.9	0.00e+00	123	43	0	1644167168	54	5502
2026-01-20 14:30:47.92	178.03	42.79	-39.5	-40.5	22.1	0.00e+00	122	43	0	1647312896	52	5890
2026-01-20 14:30:48.93	178.21	42.52	-40.1	-41.1	21.7	0.00e+00	123	43	0	1650458624	52	6332
2026-01-20 14:30:49.94	178.38	42.25	-40.3	-41.4	21.4	0.00e+00	123	42	0	1653604352	52	6563
2026-01-20 14:30:50.95	178.55	41.99	-40.6	-41.7	21.4	0.00e+00	120	42	0	1656750080	52	6766
2026-01-20 14:30:51.96	178.72	41.72	-40.1	-41.1	21.8	0.00e+00	123	42	0	1659895808	54	5650
2026-01-20 14:30:52.97	178.88	41.46	-40.3	-41.3	21.7	0.00e+00	123	43	0	1663041536	54	5753
2026-01-20 14:30:53.98	179.05	41.20	-40.1	-41.2	21.4	0.00e+00	123	43	0	1666187264	54	5701
2026-01-20 14:30:54.98	179.20	40.95	-40.2	-41.2	21.7	0.00e+00	123	42	0	1669332992	52	6404
2026-01-20 14:30:55.99	179.36	40.69	-40.0	-41.0	21.7	0.00e+00	120	43	0	1672478720	52	6271
2026-01-20 14:30:57.00	179.52	40.43	-39.3	-40.3	22.3	0.00e+00	123	43	0	1675624448	52	5778
2026-01-20 14:30:58.01	179.67	40.18	-39.6	-40.6	22.1	0.00e+00	122	43	0	1678770176	52	5978
2026-01-20 14:30:59.02	179.82	39.93	-40.3	-41.3	21.6	0.00e+00	123	43	0	1681915904	52	6497
2026-01-20 14:31:00.03	179.97	39.68	-40.9	-42.0	21.3	0.00e+00	123	42	0	1686110208	54	6262
2026-01-20 14:31:01.04	180.11	39.43	-41.1	-42.2	20.8	0.00e+00	123	43	0	1689255936	54	6379
2026-01-20 14:31:02.05	180.26	39.18	-41.0	-42.1	21.3	0.00e+00	122	43	0	1691353088	54	6348
2026-01-20 14:31:03.06	180.40	38.94	-40.1	-41.2	21.7	0.00e+00	122	43	0	1694498816	54	5706
2026-01-20 14:31:04.07	180.54	38.69	-39.8	-40.8	22.0	0.00e+00	122	43	0	1697644544	52	6109
2026-01-20 14:31:05.08	180.68	38.45	-39.4	-40.4	22.3	0.00e+00	123	43	0	1701838848	52	5850
2026-01-20 14:31:06.09	180.81	38.21	-39.4	-40.4	22.2	0.00e+00	123	43	0	1704984576	52	5807
2026-01-20 14:31:07.10	180.94	37.97	-39.1	-40.1	22.6	0.00e+00	123	42	0	1708130304	52	5617
2026-01-20 14:31:08.10	181.08	37.73	-38.9	-39.9	22.9	0.00e+00	123	42	0	1711276032	52	5472
2026-01-20 14:31:09.11	181.21	37.50	-38.9	-39.8	22.8	0.00e+00	123	43	0	1713373184	50	6122
2026-01-20 14:31:10.12	181.33	37.26	-39.0	-39.9	22.9	0.00e+00	122	43	0	1716518912	50	6198
2026-01-20 14:31:11.13	181.46	37.03	-39.1	-40.0	23.1	0.00e+00	123	43	0	1720713216	50	6267
2026-01-20 14:31:12.14	181.58	36.80	-38.5	-39.4	23.4	0.00e+00	122	43	0	1723858944	50	5849
2026-01-20 14:31:13.15	181.71	36.57	-38.2	-39.1	23.5	0.00e+00	123	42	0	1727004672	50	5649
2026-01-20 14:31:14.16	181.83	36.34	-38.1	-39.0	23.4	0.00e+00	122	43	0	1730150400	50	5586
2026-01-20 14:31:15.17	181.95	36.11	-38.1	-39.1	23.1	0.00e+00	122	42	0	1733296128	50	5599
2026-01-20 14:31:16.18	182.07	35.89	-38.2	-39.2	23.0	0.00e+00	123	42	0	1736441856	50	5684
2026-01-20 14:31:17.19	182.18	35.66	-38.4	-39.4	23.0	0.00e+00	123	42	0	1739587584	50	5806
2026-01-20 14:31:18.20	182.30	35.44	-38.4	-39.4	23.1	0.00e+00	122	42	0	1742733312	50	5816
2026-01-20 14:31:19.20	182.41	35.22	-38.5	-39.4	23.1	0.00e+00	120	42	0	1745879040	50	5836
2026-01-20 14:31:20.21	182.52	35.00	-38.4	-39.4	23.3	0.00e+00	122	42	0	1749024768	50	5808
2026-01-20 14:31:21.22	182.63	34.78	-38.3	-39.3	23.3	0.00e+00	123	42	0	1752170496	50	5741
2026-01-20 14:31:22.23	182.74	34.56	-38.4	-39.4	23.1	0.00e+00	123	42	0	1755316224	50	5799
2026-01-20 14:31:23.24	182.85	34.35	-38.4	-39.3	23.2	0.00e+00	123	42	0	1758461952	50	5769
2026-01-20 14:31:24.25	182.96	34.13	-38.4	-39.3	23.2	0.00e+00	123	43	0	1761607680	50	5778
2026-01-20 14:31:25.26	183.06	33.92	-38.6	-39.5	22.9	0.00e+00	123	42	0	1764753408	50	5911
2026-01-20 14:31:26.27	183.16	33.71	-38.7	-39.7	22.7	0.00e+00	122	43	0	1767899136	50	6045
2026-01-20 14:31:27.28	183.27	33.50	-39.0	-40.0	22.6	0.00e+00	123	43	0	1771044864	50	6248
2026-01-20 14:31:28.29	183.37	33.29	-39.0	-40.1	22.6	0.00e+00	120	42	0	1774190592	50	6305
2026-01-20 14:31:29.30	183.47	33.08	-38.6	-39.6	23.0	0.00e+00	122	43	0	1777336320	50	5982
2026-01-20 14:31:30.31	183.57	32.87	-38.7	-39.7	23.0	0.00e+00	123	43	0	1780482048	50	5999
2026-01-20 14:31:31.32	183.66	32.67	-38.6	-39.6	23.1	0.00e+00	120	42	0	1783627776	50	5975
2026-01-20 14:31:32.33	183.76	32.46	-38.5	-39.4	23.2	0.00e+00	122	42	0	1786773504	50	5840
2026-01-20 14:31:33.34	183.86	32.26	-38.2	-39.2	23.5	0.00e+00	120	42	0	1789919232	50	5678
2026-01-20 14:31:34.34	183.95	32.06	-38.0	-38.9	23.6	0.00e+00	122	43	0	1793064960	50	5524
2026-01-20 14:31:35.35	184.04	31.86	-37.6	-38.6	24.1	0.00e+00	122	42	0	1796210688	48	5931
2026-01-20 14:31:36.36	184.13	31.66	-37.5	-38.4	24.0	0.00e+00	123	42	0	1799356416	48	5811
2026-01-20 14:31:37.37	184.23	31.46	-37.5	-38.4	23.9	0.00e+00	122	42	0	1802502144	48	5811
2026-01-20 14:31:38.38	184.32	31.27	-37.3	-38.2	24.1	0.00e+00	123	42	0	1805647872	48	5688
2026-01-20 14:31:39.39	184.40	31.07	-37.4	-38.3	24.0	0.00e+00	120	42	0	1808793600	48	5777
2026-01-20 14:31:40.40	184.49	30.88	-37.2	-38.2	24.0	0.00e+00	123	42	0	1811939328	48	5681
2026-01-20 14:31:41.41	184.58	30.69	-37.4	-38.4	24.0	0.00e+00	120	42	0	1815085056	48	5795
2026-01-20 14:31:42.42	184.66	30.49	-37.4	-38.3	24.0	0.00e+00	123	43	0	1818230784	48	5759
2026-01-20 14:31:43.43	184.75	30.30	-37.3	-38.2	24.3	0.00e+00	122	42	0	1821376512	48	5697
2026-01-20 14:31:44.44	184.83	30.12	-37.0	-37.9	24.3	0.00e+00	123	42	0	1824522240	48	5522
2026-01-20 14:31:45.45	184.92	29.93	-37.2	-38.1	24.4	0.00e+00	123	42	0	1827667968	48	5627
2026-01-20 14:31:46.46	185.00	29.74	-36.9	-37.8	24.6	0.00e+00	122	42	0	1830813696	48	5408
2026-01-20 14:31:47.47	185.08	29.56	-36.7	-37.5	24.7	0.00e+00	122	42	0	1833959424	46	5926
2026-01-20 14:31:48.48	185.16	29.37	-36.6	-37.5	24.6	0.00e+00	123	42	0	1837105152	46	5878
2026-01-20 14:31:49.49	185.24	29.19	-36.6	-37.5	24.6	0.00e+00	123	42	0	1840250880	46	5864
2026-01-20 14:31:50.50	185.32	29.01	-36.8	-37.6	24.5	0.00e+00	123	43	0	1843396608	46	5980
2026-01-20 14:31:51.51	185.40	28.82	-36.9	-37.7	24.4	0.00e+00	122	42	0	1846542336	46	6058
2026-01-20 14:31:52.52	185.47	28.64	-36.9	-37.8	24.3	0.00e+00	122	42	0	1849688064	46	6102
2026-01-20 14:31:53.52	185.55	28.47	-36.9	-37.8	24.3	0.00e+00	122	42	0	1852833792	46	6121
2026-01-20 14:31:54.54	185.62	28.29	-37.2	-38.1	24.2	0.00e+00	123	42	0	1855979520	46	6286
2026-01-20 14:31:55.54	185.70	28.11	-37.5	-38.4	24.0	0.00e+00	123	42	0	1859125248	46	6512
2026-01-20 14:31:56.55	185.77	27.94	-37.2	-38.1	24.2	0.00e+00	123	42	0	1862270976	48	5625
2026-01-20 14:31:57.56	185.84	27.76	-37.3	-38.1	24.3	0.00e+00	122	42	0	1865416704	48	5659
2026-01-20 14:31:58.57	185.92	27.59	-37.2	-38.1	24.2	0.00e+00	123	42	0	1868562432	48	5626
2026-01-20 14:31:59.58	185.99	27.42	-37.7	-38.6	23.9	0.00e+00	122	42	0	1871708160	48	5939
2026-01-20 14:32:00.59	186.06	27.25	-37.2	-38.1	24.2	0.00e+00	122	42	0	1874853888	48	5621
2026-01-20 14:32:01.60	186.13	27.08	-37.6	-38.5	23.8	0.00e+00	123	42	0	1877999616	48	5905
2026-01-20 14:32:02.61	186.20	26.91	-37.8	-38.7	23.6	0.00e+00	122	42	0	1881145344	48	6013
2026-01-20 14:32:03.62	186.27	26.74	-38.0	-38.9	23.8	0.00e+00	123	42	0	1884291072	48	6197
2026-01-20 14:32:04.63	186.34	26.57	-37.8	-38.8	23.6	0.00e+00	122	42	0	1887436800	48	6065
2026-01-20 14:32:05.64	186.40	26.40	-37.9	-38.9	23.7	0.00e+00	123	42	0	1890582528	48	6153
2026-01-20 14:32:06.65	186.47	26.24	-37.2	-38.1	24.1	0.00e+00	122	42	0	1893728256	48	5648
2026-01-20 14:32:07.66	186.54	26.07	-37.1	-38.0	24.3	0.00e+00	123	42	0	1896873984	48	5536
2026-01-20 14:32:08.67	186.60	25.91	-37.4	-38.3	23.9	0.00e+00	122	42	0	1900019712	48	5752
2026-01-20 14:32:09.68	186.67	25.75	-37.4	-38.3	23.8	0.00e+00	121	42	0	1903165440	48	5762
2026-01-20 14:32:10.69	186.73	25.59	-37.5	-38.4	24.0	0.00e+00	122	43	0	1906311168	48	5813
2026-01-20 14:32:11.70	186.79	25.43	-37.4	-38.3	24.0	0.00e+00	123	42	0	1909456896	48	5744
2026-01-20 14:32:12.71	186.86	25.27	-36.9	-37.8	24.4	0.00e+00	122	42	0	1912602624	48	5423
2026-01-20 14:32:13.72	186.92	25.11	-36.8	-37.7	24.4	0.00e+00	122	42	0	1915748352	48	5376
2026-01-20 14:32:14.72	186.98	24.95	-36.9	-37.8	24.3	0.00e+00	122	42	0	1918894080	46	6119
2026-01-20 14:32:15.73	187.04	24.80	-37.0	-37.9	24.2	0.00e+00	120	42	0	1922039808	46	6200
2026-01-20 14:32:16.74	187.10	24.64	-36.8	-37.7	24.3	0.00e+00	122	42	0	1925185536	46	6011
2026-01-20 14:32:17.75	187.16	24.48	-36.6	-37.5	24.4	0.00e+00	122	42	0	1928331264	46	5909
2026-01-20 14:32:18.76	187.22	24.33	-36.7	-37.6	24.2	0.00e+00	122	42	0	1931476992	46	5994
2026-01-20 14:32:19.77	187.28	24.18	-36.9	-37.9	24.1	0.00e+00	123	42	0	1934622720	46	6138
2026-01-20 14:32:20.78	187.34	24.02	-36.9	-37.8	24.0	0.00e+00	123	42	0	1937768448	46	6096
2026-01-20 14:32:21.79	187.40	23.87	-37.1	-38.0	23.8	0.00e+00	122	42	0	1940914176	46	6260
2026-01-20 14:32:22.80	187.45	23.72	-37.1	-38.1	23.8	0.00e+00	123	42	0	1944059904	46	6298
2026-01-20 14:32:23.81	187.51	23.57	-37.3	-38.3	23.8	0.00e+00	120	42	0	1947205632	46	6437
2026-01-20 14:32:24.82	187.57	23.42	-37.1	-38.1	23.8	0.00e+00	123	42	0	1950351360	46	6320
2026-01-20 14:32:25.82	187.62	23.28	-37.3	-38.3	23.8	0.00e+00	123	42	0	1953497088	46	6441
2026-01-20 14:32:26.84	187.68	23.13	-37.4	-38.4	23.7	0.00e+00	123	42	0	1956642816	46	6523
2026-01-20 14:32:27.85	187.73	22.98	-37.3	-38.3	23.7	0.00e+00	123	42	0	1959788544	46	6432
2026-01-20 14:32:28.86	187.79	22.83	-37.2	-38.2	23.8	0.00e+00	122	42	0	1962934272	46	6370
2026-01-20 14:32:29.87	187.84	22.69	-37.1	-38.1	23.8	0.00e+00	123	42	0	1966080000	46	6285
2026-01-20 14:32:30.88	187.90	22.54	-37.0	-37.9	24.0	0.00e+00	122	42	0	1969225728	46	6181
2026-01-20 14:32:31.89	187.95	22.40	-37.0	-37.9	24.0	0.00e+00	120	42	0	1972371456	46	6151
2026-01-20 14:32:32.90	188.00	22.26	-36.9	-37.8	24.1	0.00e+00	123	42	0	1975517184	46	6114
2026-01-20 14:32:33.91	188.05	22.12	-36.7	-37.6	24.2	0.00e+00	123	42	0	1978662912	46	5935
2026-01-20 14:32:34.92	188.10	21.98	-36.6	-37.5	24.3	0.00e+00	120	42	0	1981808640	46	5883
