passes_logs/2026/01/20/R4.6S_Anadyr/R4.6S_Anadyr__20260120_003520_NOAA_21_JPSS-2_rec.log

#Pass ID: 20260120_003520_NOAA 21 (JPSS-2)
#Satellite: NOAA 21 (JPSS-2)
#Configuration: NOAA-21
#almurnet v.1.7.20251203
#Start time: 2026-01-20 00:35:25

#Version: 2.2.20231116
#Station: R4.6S_Anadyr
#Location: 177.4865 lon 64.73178 lat
#TLE: 1 54234U 22150A   26019.31231101  .00000073  00000+0  55355-4 0  9994
#TLE: 2 54234  98.7504 320.1599 0000604 258.3686 101.7423 14.19535697165426

#Time	Az	El	Level	Level2	SNR	BER	BlckErr	Temp	State	Recorded	gain1	gain2
2026-01-20 00:35:25.27	165.61	0.29	-50.5	-51.8	3.4	0.00e+00	0	39	0	0	60	47444
2026-01-20 00:35:26.28	165.63	0.35	-51.7	-64.6	3.5	1.51e+00	0	40	104	0	60	59429
2026-01-20 00:35:27.29	165.64	0.41	-50.8	-63.6	3.5	1.51e+00	0	40	104	0	60	53311
2026-01-20 00:35:28.30	165.66	0.47	-50.7	-63.7	3.5	1.52e+00	0	40	104	0	60	53696
2026-01-20 00:35:29.31	165.67	0.53	-50.5	-63.3	3.5	1.52e+00	0	41	104	0	60	51341
2026-01-20 00:35:30.32	165.69	0.60	-50.4	-63.2	3.5	1.52e+00	0	40	104	0	60	50908
2026-01-20 00:35:31.33	165.70	0.66	-50.4	-63.2	3.5	1.52e+00	0	40	104	0	60	50620
2026-01-20 00:35:32.34	165.72	0.72	-50.5	-63.3	3.5	1.52e+00	0	41	104	0	60	51398
2026-01-20 00:35:33.35	165.73	0.78	-50.5	-63.3	3.5	1.51e+00	0	40	104	0	60	51037
2026-01-20 00:35:34.36	165.75	0.84	-50.3	-63.1	3.5	1.52e+00	0	41	104	0	60	50203
2026-01-20 00:35:35.37	165.76	0.91	-50.2	-63.1	3.5	1.52e+00	0	41	104	0	60	50299
2026-01-20 00:35:36.38	165.78	0.97	-50.1	-63.1	3.5	1.52e+00	0	41	104	0	60	50268
2026-01-20 00:35:37.39	165.79	1.03	-50.3	-63.2	3.5	1.52e+00	0	41	104	0	60	50724
2026-01-20 00:35:38.40	165.81	1.09	-50.0	-62.9	3.5	1.52e+00	0	41	104	0	60	49142
2026-01-20 00:35:39.41	165.82	1.15	-49.9	-62.7	3.5	1.52e+00	0	41	104	0	60	48104
2026-01-20 00:35:40.42	165.84	1.22	-49.8	-62.7	3.5	1.52e+00	0	41	104	0	60	48007
2026-01-20 00:35:41.42	165.86	1.28	-49.5	-62.4	3.5	1.52e+00	0	41	104	0	60	46397
2026-01-20 00:35:42.43	165.87	1.34	-49.1	-62.0	3.5	1.52e+00	0	41	104	0	60	43967
2026-01-20 00:35:43.44	165.89	1.41	-49.7	-62.5	3.5	1.51e+00	0	41	104	0	60	46785
2026-01-20 00:35:44.45	165.90	1.47	-49.4	-62.2	3.5	1.52e+00	0	41	104	0	60	45296
2026-01-20 00:35:45.46	165.92	1.53	-49.1	-61.9	3.5	1.51e+00	0	41	104	0	60	43930
2026-01-20 00:35:46.47	165.93	1.60	-49.0	-61.9	3.5	1.52e+00	0	41	104	0	60	43487
2026-01-20 00:35:47.48	165.95	1.66	-49.1	-61.9	3.5	1.52e+00	0	41	104	0	60	43672
2026-01-20 00:35:48.49	165.97	1.72	-49.0	-61.8	3.5	1.52e+00	0	41	104	0	60	43243
2026-01-20 00:35:49.50	165.98	1.79	-49.0	-61.9	3.5	1.52e+00	0	41	104	0	60	43560
2026-01-20 00:35:50.51	166.00	1.85	-48.9	-61.8	3.5	1.51e+00	0	41	104	0	60	42966
2026-01-20 00:35:51.52	166.01	1.92	-48.9	-61.7	3.5	1.52e+00	0	41	104	0	60	42771
2026-01-20 00:35:52.53	166.03	1.98	-48.9	-61.6	3.5	1.51e+00	0	41	104	0	60	42335
2026-01-20 00:35:53.54	166.05	2.04	-48.9	-61.6	3.5	1.52e+00	0	41	104	0	60	42135
2026-01-20 00:35:54.55	166.06	2.11	-48.9	-61.6	3.5	1.52e+00	0	41	104	0	60	42388
2026-01-20 00:35:55.56	166.08	2.17	-48.9	-61.5	3.5	1.52e+00	0	41	104	0	60	41812
2026-01-20 00:35:56.57	166.09	2.24	-48.9	-61.5	3.5	1.52e+00	0	41	104	0	60	41817
2026-01-20 00:35:57.59	166.11	2.30	-48.9	-61.3	3.5	1.51e+00	0	41	104	0	60	40711
2026-01-20 00:35:58.60	166.13	2.37	-48.8	-61.2	3.5	1.52e+00	0	41	104	0	60	40074
2026-01-20 00:35:59.61	166.14	2.44	-48.8	-60.8	3.5	1.51e+00	0	41	104	0	60	38415
2026-01-20 00:36:00.62	166.16	2.50	-48.7	-60.6	3.5	1.51e+00	0	41	104	0	60	37769
2026-01-20 00:36:01.63	166.18	2.57	-48.7	-60.2	3.5	1.52e+00	0	41	104	0	60	35951
2026-01-20 00:36:02.64	166.19	2.63	-48.7	-60.6	3.5	1.52e+00	0	41	104	0	60	37427
2026-01-20 00:36:03.65	166.21	2.70	-48.7	-60.7	3.5	1.52e+00	0	41	104	0	60	38155
2026-01-20 00:36:04.66	166.23	2.76	-48.7	-60.8	3.5	1.51e+00	0	41	104	0	60	38339
2026-01-20 00:36:05.67	166.24	2.83	-48.7	-60.8	3.5	1.51e+00	0	41	104	0	60	38436
2026-01-20 00:36:06.68	166.26	2.90	-48.6	-59.8	3.5	1.51e+00	0	41	104	0	60	34134
2026-01-20 00:36:07.69	166.28	2.96	-48.4	-57.8	4.4	1.49e+00	0	41	104	0	60	27248
2026-01-20 00:36:08.70	166.29	3.03	-47.7	-53.3	6.9	2.99e-01	120	41	0	1048576	60	16173
2026-01-20 00:36:09.71	166.31	3.10	-47.0	-51.4	9.1	3.80e-02	123	41	0	4194304	60	13057
2026-01-20 00:36:10.72	166.33	3.16	-46.2	-49.7	11.2	2.30e-03	121	41	0	7340032	60	10708
2026-01-20 00:36:11.73	166.35	3.23	-44.3	-46.7	14.2	0.00e+00	123	41	0	10485760	60	7591
2026-01-20 00:36:12.74	166.36	3.30	-43.5	-45.6	15.4	0.00e+00	123	41	0	13631488	60	6694
2026-01-20 00:36:13.75	166.38	3.37	-42.5	-44.3	16.7	0.00e+00	123	41	0	16777216	58	6431
2026-01-20 00:36:14.76	166.40	3.43	-41.8	-43.4	17.6	0.00e+00	122	41	0	19922944	56	6503
2026-01-20 00:36:15.77	166.42	3.50	-41.0	-42.4	18.2	0.00e+00	123	41	0	23068672	56	5844
2026-01-20 00:36:16.78	166.43	3.57	-40.4	-41.8	18.8	0.00e+00	123	41	0	26214400	54	6094
2026-01-20 00:36:17.79	166.45	3.64	-41.3	-42.7	18.1	0.00e+00	122	41	0	29360128	54	6795
2026-01-20 00:36:18.80	166.47	3.71	-41.3	-42.8	17.9	0.00e+00	122	41	0	32505856	54	6855
2026-01-20 00:36:19.60	166.48	3.76	-41.8	-43.4	17.4	0.00e+00	122	41	0	35651584	56	6560
2026-01-20 00:36:20.75	166.50	3.84	-48.3	-56.4	3.6	6.99e-02	19	41	104	39845888	60	23086
2026-01-20 00:36:21.61	166.52	3.90	-42.2	-44.3	5.2	1.48e+00	0	41	104	39845888	60	5734
2026-01-20 00:36:22.77	166.54	3.98	-45.0	-47.8	10.8	0.00e+00	122	41	0	39845888	58	9717
2026-01-20 00:36:23.63	166.55	4.04	-46.0	-49.8	11.8	5.42e-01	122	41	104	40894464	60	10868
2026-01-20 00:36:24.79	166.58	4.12	-47.7	-53.5	3.6	5.30e-06	57	41	104	42991616	60	16608
2026-01-20 00:36:25.65	166.59	4.18	-47.7	-53.9	4.3	1.46e+00	0	41	104	42991616	60	17316
2026-01-20 00:36:26.81	166.61	4.26	-45.6	-48.7	12.5	1.19e-04	123	41	0	42991616	60	9591
2026-01-20 00:36:27.67	166.63	4.32	-45.5	-48.3	13.3	5.26e-05	122	41	0	45088768	60	9171
2026-01-20 00:36:28.82	166.65	4.40	-45.6	-48.6	13.2	3.28e-05	123	41	0	49283072	60	9480
2026-01-20 00:36:29.69	166.66	4.46	-44.6	-47.0	13.2	1.37e-05	123	41	0	52428800	60	7829
2026-01-20 00:36:30.84	166.69	4.54	-44.4	-46.6	14.7	3.00e-06	123	41	0	55574528	60	7544
2026-01-20 00:36:31.70	166.70	4.60	-44.6	-47.0	14.0	3.00e-06	123	41	0	57671680	60	7858
2026-01-20 00:36:32.86	166.72	4.68	-44.4	-46.7	14.5	4.50e-06	123	41	0	61865984	60	7579
2026-01-20 00:36:33.72	166.74	4.74	-43.8	-45.8	15.4	0.00e+00	120	41	0	65011712	60	6843
2026-01-20 00:36:34.88	166.76	4.82	-43.2	-45.1	16.5	0.00e+00	120	41	0	68157440	60	6306
2026-01-20 00:36:35.74	166.78	4.88	-42.0	-43.6	17.7	0.00e+00	123	41	0	71303168	58	5944
2026-01-20 00:36:36.90	166.80	4.96	-41.6	-43.1	18.2	0.00e+00	123	41	0	74448896	56	6316
2026-01-20 00:36:37.76	166.81	5.03	-41.8	-43.3	17.8	0.00e+00	123	41	0	77594624	56	6481
2026-01-20 00:36:38.92	166.84	5.11	-41.4	-42.8	18.1	0.00e+00	123	41	0	80740352	56	6118
2026-01-20 00:36:39.78	166.85	5.17	-40.7	-42.1	18.9	0.00e+00	122	41	0	83886080	56	5606
2026-01-20 00:36:40.94	166.87	5.25	-40.6	-42.0	18.8	0.00e+00	122	41	0	87031808	54	6212
2026-01-20 00:36:41.80	166.89	5.31	-40.7	-42.0	19.0	0.00e+00	123	41	0	90177536	54	6247
2026-01-20 00:36:42.96	166.91	5.40	-40.4	-41.7	19.4	0.00e+00	120	41	0	93323264	54	6024
2026-01-20 00:36:43.83	166.93	5.46	-40.9	-42.3	19.0	0.00e+00	120	41	0	96468992	54	6437
2026-01-20 00:36:44.98	166.95	5.54	-40.6	-41.9	19.2	0.00e+00	120	41	0	99614720	54	6187
2026-01-20 00:36:45.85	166.97	5.61	-39.7	-40.9	20.2	0.00e+00	122	41	0	102760448	54	5495
2026-01-20 00:36:47.00	166.99	5.69	-39.3	-40.5	20.5	0.00e+00	120	41	0	105906176	52	5894
2026-01-20 00:36:47.87	167.01	5.76	-39.1	-40.3	20.7	0.00e+00	123	41	0	109051904	52	5737
2026-01-20 00:36:49.02	167.03	5.84	-39.1	-40.3	20.7	0.00e+00	122	41	0	112197632	52	5728
2026-01-20 00:36:49.89	167.05	5.90	-39.0	-40.2	20.9	0.00e+00	123	41	0	115343360	52	5689
2026-01-20 00:36:51.04	167.07	5.99	-38.6	-39.7	21.1	0.00e+00	123	41	0	118489088	50	6055
2026-01-20 00:36:51.91	167.09	6.05	-38.6	-39.7	21.3	0.00e+00	123	41	0	121634816	50	6044
2026-01-20 00:36:53.06	167.11	6.14	-39.2	-40.4	20.7	0.00e+00	122	41	0	124780544	50	6523
2026-01-20 00:36:53.93	167.13	6.20	-38.9	-40.0	21.0	0.00e+00	122	42	0	127926272	50	6260
2026-01-20 00:36:55.08	167.15	6.29	-39.1	-40.2	20.8	0.00e+00	123	42	0	131072000	50	6402
2026-01-20 00:36:55.95	167.17	6.35	-38.7	-39.8	21.1	0.00e+00	120	41	0	134217728	50	6109
2026-01-20 00:36:57.10	167.20	6.44	-38.8	-40.0	21.1	0.00e+00	120	41	0	137363456	50	6207
2026-01-20 00:36:57.97	167.21	6.51	-38.9	-40.1	21.0	0.00e+00	122	41	0	140509184	50	6289
2026-01-20 00:36:59.13	167.24	6.59	-39.0	-40.2	20.8	0.00e+00	122	42	0	143654912	50	6351
2026-01-20 00:36:59.99	167.25	6.66	-38.7	-39.8	21.2	0.00e+00	123	41	0	146800640	50	6109
2026-01-20 00:37:01.15	167.28	6.75	-38.7	-39.8	21.2	0.00e+00	122	41	0	149946368	50	6079
2026-01-20 00:37:02.01	167.30	6.81	-38.6	-39.7	21.3	0.00e+00	121	41	0	153092096	50	6001
2026-01-20 00:37:03.17	167.32	6.90	-38.5	-39.6	21.4	0.00e+00	123	41	0	156237824	50	5950
2026-01-20 00:37:04.03	167.34	6.97	-38.4	-39.5	21.4	0.00e+00	122	41	0	159383552	50	5909
2026-01-20 00:37:05.18	167.36	7.05	-38.5	-39.6	21.3	0.00e+00	122	41	0	162529280	50	5958
2026-01-20 00:37:06.05	167.38	7.12	-38.7	-39.8	21.2	0.00e+00	123	41	0	165675008	50	6118
2026-01-20 00:37:07.20	167.41	7.21	-38.6	-39.7	21.3	0.00e+00	123	41	0	168820736	50	5998
2026-01-20 00:37:08.06	167.43	7.28	-38.7	-39.8	21.2	0.00e+00	122	41	0	171966464	50	6090
2026-01-20 00:37:09.22	167.45	7.37	-38.6	-39.7	21.3	0.00e+00	123	41	0	175112192	50	5996
2026-01-20 00:37:10.08	167.47	7.43	-38.4	-39.5	21.5	0.00e+00	123	41	0	178257920	50	5860
2026-01-20 00:37:11.24	167.49	7.52	-38.3	-39.4	21.6	0.00e+00	123	41	0	181403648	50	5804
2026-01-20 00:37:12.10	167.51	7.59	-38.2	-39.3	21.7	0.00e+00	123	42	0	184549376	50	5742
2026-01-20 00:37:13.26	167.54	7.68	-38.5	-39.5	21.5	0.00e+00	123	41	0	187695104	50	5913
2026-01-20 00:37:14.12	167.56	7.75	-38.4	-39.5	21.6	0.00e+00	122	41	0	190840832	50	5885
2026-01-20 00:37:15.27	167.58	7.84	-38.4	-39.5	21.6	0.00e+00	123	41	0	193986560	50	5879
2026-01-20 00:37:16.14	167.60	7.91	-38.5	-39.5	21.5	0.00e+00	122	42	0	197132288	50	5922
2026-01-20 00:37:17.29	167.63	8.00	-38.4	-39.5	21.6	0.00e+00	123	42	0	200278016	50	5890
2026-01-20 00:37:18.16	167.65	8.07	-38.5	-39.6	21.5	0.00e+00	123	42	0	203423744	50	5969
2026-01-20 00:37:19.31	167.67	8.16	-38.3	-39.4	21.7	0.00e+00	123	41	0	206569472	50	5803
2026-01-20 00:37:20.18	167.69	8.23	-38.3	-39.4	21.8	0.00e+00	122	42	0	209715200	50	5822
2026-01-20 00:37:21.33	167.72	8.33	-38.5	-39.6	21.6	0.00e+00	122	41	0	212860928	50	5956
2026-01-20 00:37:22.20	167.74	8.40	-38.2	-39.3	21.8	0.00e+00	123	41	0	216006656	50	5730
2026-01-20 00:37:23.35	167.77	8.49	-38.0	-39.0	21.9	0.00e+00	123	42	0	219152384	50	5594
2026-01-20 00:37:24.22	167.79	8.56	-38.1	-39.2	21.9	0.00e+00	123	41	0	222298112	50	5682
2026-01-20 00:37:25.37	167.81	8.66	-37.9	-39.0	22.0	0.00e+00	122	41	0	225443840	50	5554
2026-01-20 00:37:26.23	167.83	8.73	-38.0	-39.0	21.9	0.00e+00	122	42	0	228589568	50	5579
2026-01-20 00:37:27.39	167.86	8.82	-38.2	-39.3	21.9	0.00e+00	123	41	0	231735296	50	5744
2026-01-20 00:37:28.25	167.88	8.89	-38.0	-39.0	22.0	0.00e+00	123	41	0	234881024	50	5582
2026-01-20 00:37:29.41	167.91	8.99	-37.9	-39.0	22.2	0.00e+00	123	41	0	238026752	50	5532
2026-01-20 00:37:30.28	167.93	9.06	-38.0	-39.0	22.0	0.00e+00	123	41	0	241172480	50	5555
2026-01-20 00:37:31.43	167.96	9.16	-38.0	-39.1	22.0	0.00e+00	123	41	0	245366784	50	5618
2026-01-20 00:37:32.30	167.98	9.23	-37.9	-39.0	22.1	0.00e+00	122	41	0	247463936	50	5556
2026-01-20 00:37:33.45	168.01	9.33	-37.8	-38.8	22.2	0.00e+00	122	42	0	251658240	48	6089
2026-01-20 00:37:34.32	168.03	9.40	-37.5	-38.5	22.4	0.00e+00	123	42	0	253755392	48	5905
2026-01-20 00:37:35.47	168.06	9.50	-37.6	-38.6	22.4	0.00e+00	122	41	0	256901120	48	5946
2026-01-20 00:37:36.34	168.08	9.57	-37.5	-38.5	22.3	0.00e+00	123	42	0	260046848	48	5926
2026-01-20 00:37:37.49	168.10	9.67	-37.5	-38.5	22.4	0.00e+00	123	42	0	264241152	48	5907
2026-01-20 00:37:38.36	168.13	9.74	-37.5	-38.5	22.4	0.00e+00	123	42	0	266338304	48	5915
2026-01-20 00:37:39.51	168.16	9.84	-37.6	-38.6	22.5	0.00e+00	122	42	0	270532608	48	5936
2026-01-20 00:37:40.38	168.18	9.92	-37.6	-38.6	22.4	0.00e+00	122	41	0	272629760	48	5936
2026-01-20 00:37:41.53	168.21	10.02	-37.5	-38.5	22.5	0.00e+00	122	42	0	276824064	48	5884
2026-01-20 00:37:42.40	168.23	10.09	-37.7	-38.7	22.4	0.00e+00	122	42	0	278921216	48	6042
2026-01-20 00:37:43.55	168.26	10.19	-37.4	-38.4	22.6	0.00e+00	122	42	0	283115520	48	5831
2026-01-20 00:37:44.42	168.28	10.27	-37.3	-38.3	22.6	0.00e+00	123	42	0	285212672	48	5765
2026-01-20 00:37:45.57	168.31	10.37	-37.3	-38.3	22.7	0.00e+00	123	42	0	289406976	48	5780
2026-01-20 00:37:46.44	168.33	10.44	-37.4	-38.4	22.6	0.00e+00	122	42	0	291504128	48	5809
2026-01-20 00:37:47.59	168.36	10.54	-37.4	-38.4	22.6	0.00e+00	123	41	0	295698432	48	5818
2026-01-20 00:37:48.46	168.38	10.62	-37.4	-38.4	22.7	0.00e+00	123	42	0	297795584	48	5823
2026-01-20 00:37:49.61	168.41	10.72	-37.4	-38.3	22.7	0.00e+00	123	42	0	301989888	48	5785
2026-01-20 00:37:50.48	168.44	10.80	-37.5	-38.5	22.7	0.00e+00	123	42	0	304087040	48	5859
2026-01-20 00:37:51.63	168.47	10.90	-37.4	-38.4	22.7	0.00e+00	122	42	0	308281344	48	5840
2026-01-20 00:37:52.50	168.49	10.98	-37.3	-38.3	22.8	0.00e+00	122	42	0	310378496	48	5768
2026-01-20 00:37:53.65	168.52	11.09	-37.2	-38.2	22.9	0.00e+00	122	42	0	314572800	48	5660
2026-01-20 00:37:54.52	168.55	11.16	-37.2	-38.2	22.8	0.00e+00	123	42	0	316669952	48	5701
2026-01-20 00:37:55.67	168.58	11.27	-37.2	-38.2	22.9	0.00e+00	123	42	0	320864256	48	5666
2026-01-20 00:37:56.54	168.60	11.35	-37.2	-38.1	22.9	0.00e+00	122	42	0	322961408	48	5656
2026-01-20 00:37:57.69	168.63	11.45	-37.1	-38.1	22.9	0.00e+00	121	42	0	327155712	48	5621
2026-01-20 00:37:58.56	168.66	11.53	-37.3	-38.3	22.8	0.00e+00	123	42	0	329252864	48	5728
2026-01-20 00:37:59.71	168.69	11.64	-37.0	-38.0	23.0	0.00e+00	122	42	0	333447168	48	5558
2026-01-20 00:38:00.58	168.71	11.72	-37.1	-38.1	22.8	0.00e+00	123	42	0	335544320	48	5641
2026-01-20 00:38:01.73	168.75	11.83	-37.4	-38.4	22.7	0.00e+00	122	42	0	339738624	48	5815
2026-01-20 00:38:02.60	168.77	11.91	-37.2	-38.1	22.8	0.00e+00	123	42	0	341835776	48	5659
2026-01-20 00:38:03.75	168.80	12.01	-37.2	-38.2	22.8	0.00e+00	122	42	0	346030080	48	5718
2026-01-20 00:38:04.62	168.83	12.10	-37.1	-38.1	22.9	0.00e+00	123	42	0	348127232	48	5622
2026-01-20 00:38:05.77	168.86	12.20	-36.9	-37.9	23.0	0.00e+00	123	42	0	352321536	48	5480
2026-01-20 00:38:06.64	168.89	12.29	-37.1	-38.0	23.0	0.00e+00	123	42	0	354418688	48	5585
2026-01-20 00:38:07.79	168.92	12.40	-36.9	-37.9	23.0	0.00e+00	122	41	0	358612992	48	5477
2026-01-20 00:38:08.66	168.94	12.48	-36.9	-37.9	23.0	0.00e+00	123	42	0	360710144	48	5481
2026-01-20 00:38:09.82	168.98	12.59	-36.8	-37.8	23.1	0.00e+00	123	42	0	364904448	48	5451
2026-01-20 00:38:10.68	169.00	12.67	-36.8	-37.8	23.1	0.00e+00	123	42	0	368050176	48	5439
2026-01-20 00:38:11.84	169.04	12.78	-36.8	-37.8	23.1	0.00e+00	123	42	0	371195904	48	5448
2026-01-20 00:38:12.70	169.06	12.87	-36.9	-37.9	23.1	0.00e+00	123	42	0	374341632	48	5506
2026-01-20 00:38:13.86	169.10	12.98	-36.8	-37.8	23.1	0.00e+00	122	42	0	377487360	48	5434
2026-01-20 00:38:14.72	169.12	13.06	-36.9	-37.9	23.2	0.00e+00	123	42	0	379584512	48	5499
2026-01-20 00:38:15.87	169.16	13.18	-36.8	-37.8	23.3	0.00e+00	123	42	0	383778816	46	6069
2026-01-20 00:38:16.74	169.19	13.26	-36.8	-37.8	23.2	0.00e+00	123	42	0	386924544	46	6073
2026-01-20 00:38:17.90	169.22	13.38	-36.9	-37.8	23.2	0.00e+00	123	42	0	390070272	46	6124
2026-01-20 00:38:18.76	169.25	13.46	-36.9	-37.9	23.1	0.00e+00	122	42	0	393216000	46	6162
2026-01-20 00:38:19.92	169.29	13.58	-36.9	-37.9	23.2	0.00e+00	122	42	0	396361728	46	6139
2026-01-20 00:38:20.78	169.31	13.66	-36.7	-37.6	23.4	0.00e+00	123	42	0	399507456	46	5985
2026-01-20 00:38:21.94	169.35	13.78	-36.7	-37.6	23.3	0.00e+00	120	42	0	402653184	46	5950
2026-01-20 00:38:22.80	169.38	13.87	-36.6	-37.5	23.5	0.00e+00	123	42	0	405798912	46	5909
2026-01-20 00:38:23.96	169.41	13.98	-36.5	-37.4	23.4	0.00e+00	123	42	0	408944640	46	5837
2026-01-20 00:38:24.82	169.44	14.07	-36.5	-37.4	23.4	0.00e+00	122	42	0	412090368	46	5850
2026-01-20 00:38:25.98	169.48	14.19	-36.4	-37.3	23.5	0.00e+00	122	42	0	415236096	46	5779
2026-01-20 00:38:26.84	169.51	14.28	-36.6	-37.6	23.4	0.00e+00	123	42	0	418381824	46	5935
2026-01-20 00:38:28.00	169.54	14.40	-36.4	-37.4	23.5	0.00e+00	122	42	0	421527552	46	5808
2026-01-20 00:38:28.86	169.57	14.49	-36.4	-37.4	23.6	0.00e+00	122	42	0	424673280	46	5810
2026-01-20 00:38:30.02	169.61	14.61	-36.5	-37.4	23.5	0.00e+00	123	42	0	427819008	46	5837
2026-01-20 00:38:30.88	169.64	14.70	-36.3	-37.3	23.6	0.00e+00	120	42	0	430964736	46	5729
2026-01-20 00:38:32.04	169.68	14.82	-36.4	-37.3	23.6	0.00e+00	123	42	0	434110464	46	5772
2026-01-20 00:38:32.90	169.71	14.91	-36.5	-37.4	23.6	0.00e+00	123	42	0	437256192	46	5812
2026-01-20 00:38:34.06	169.75	15.03	-36.4	-37.3	23.6	0.00e+00	122	42	0	440401920	46	5789
2026-01-20 00:38:34.93	169.78	15.12	-36.4	-37.3	23.7	0.00e+00	122	42	0	443547648	46	5755
2026-01-20 00:38:36.08	169.82	15.24	-36.3	-37.2	23.8	0.00e+00	123	42	0	446693376	46	5691
2026-01-20 00:38:36.95	169.85	15.34	-36.3	-37.2	23.8	0.00e+00	122	42	0	449839104	46	5669
2026-01-20 00:38:38.10	169.89	15.46	-36.5	-37.4	23.6	0.00e+00	123	42	0	452984832	46	5849
2026-01-20 00:38:38.97	169.92	15.55	-36.3	-37.3	23.8	0.00e+00	120	42	0	456130560	46	5729
2026-01-20 00:38:40.12	169.96	15.68	-36.2	-37.1	23.8	0.00e+00	123	42	0	459276288	46	5631
2026-01-20 00:38:40.99	169.99	15.77	-36.3	-37.2	23.7	0.00e+00	123	42	0	462422016	46	5725
2026-01-20 00:38:42.14	170.03	15.90	-36.4	-37.3	23.7	0.00e+00	123	42	0	465567744	46	5745
2026-01-20 00:38:43.01	170.06	16.00	-36.1	-37.1	23.9	0.00e+00	120	42	0	468713472	46	5596
2026-01-20 00:38:44.17	170.10	16.12	-36.1	-37.0	23.9	0.00e+00	122	42	0	471859200	46	5589
2026-01-20 00:38:45.03	170.14	16.22	-36.1	-37.0	23.9	0.00e+00	120	42	0	475004928	46	5590
2026-01-20 00:38:46.19	170.18	16.35	-36.2	-37.1	23.8	0.00e+00	123	42	0	478150656	46	5651
2026-01-20 00:38:47.05	170.21	16.44	-36.1	-37.0	23.9	0.00e+00	122	42	0	481296384	46	5569
2026-01-20 00:38:48.21	170.25	16.57	-36.3	-37.2	23.8	0.00e+00	121	42	0	484442112	46	5706
2026-01-20 00:38:49.07	170.29	16.67	-36.1	-37.1	23.8	0.00e+00	123	42	0	487587840	46	5603
2026-01-20 00:38:50.23	170.33	16.80	-36.2	-37.1	23.9	0.00e+00	122	42	0	490733568	46	5633
2026-01-20 00:38:51.09	170.36	16.90	-36.2	-37.1	23.8	0.00e+00	123	42	0	493879296	46	5637
2026-01-20 00:38:52.24	170.41	17.03	-36.3	-37.2	23.9	0.00e+00	122	42	0	497025024	46	5694
2026-01-20 00:38:53.11	170.44	17.13	-36.4	-37.3	23.8	0.00e+00	123	42	0	500170752	46	5772
2026-01-20 00:38:54.26	170.48	17.27	-36.5	-37.4	23.7	0.00e+00	123	42	0	503316480	46	5809
2026-01-20 00:38:55.13	170.52	17.37	-36.2	-37.2	23.8	0.00e+00	122	42	0	506462208	46	5679
2026-01-20 00:38:56.29	170.56	17.50	-36.3	-37.3	23.8	0.00e+00	122	42	0	509607936	46	5727
2026-01-20 00:38:57.15	170.60	17.60	-36.2	-37.1	23.9	0.00e+00	122	42	0	512753664	46	5642
2026-01-20 00:38:58.31	170.64	17.74	-36.3	-37.2	23.8	0.00e+00	123	42	0	515899392	46	5681
2026-01-20 00:38:59.17	170.68	17.84	-36.4	-37.3	23.7	0.00e+00	122	42	0	519045120	46	5771
2026-01-20 00:39:00.32	170.73	17.98	-36.2	-37.1	23.8	0.00e+00	123	42	0	522190848	46	5639
2026-01-20 00:39:01.19	170.76	18.08	-36.4	-37.3	23.8	0.00e+00	123	42	0	525336576	46	5736
2026-01-20 00:39:02.34	170.81	18.22	-36.4	-37.3	23.9	0.00e+00	123	42	0	528482304	46	5763
2026-01-20 00:39:03.21	170.85	18.32	-36.3	-37.2	23.9	0.00e+00	122	42	0	531628032	46	5694
2026-01-20 00:39:04.36	170.89	18.46	-36.3	-37.2	23.9	0.00e+00	122	42	0	534773760	46	5706
2026-01-20 00:39:05.23	170.93	18.57	-36.3	-37.2	23.7	0.00e+00	123	42	0	537919488	46	5724
2026-01-20 00:39:06.38	170.98	18.71	-36.3	-37.2	23.9	0.00e+00	123	42	0	542113792	46	5697
2026-01-20 00:39:07.25	171.02	18.82	-36.3	-37.2	23.8	0.00e+00	122	42	0	544210944	46	5720
2026-01-20 00:39:08.40	171.07	18.96	-36.4	-37.3	23.8	0.00e+00	122	42	0	548405248	46	5743
2026-01-20 00:39:09.27	171.10	19.07	-36.3	-37.3	23.8	0.00e+00	122	42	0	550502400	46	5739
2026-01-20 00:39:10.42	171.15	19.21	-36.3	-37.2	23.8	0.00e+00	123	42	0	553648128	46	5718
2026-01-20 00:39:11.29	171.19	19.32	-36.3	-37.2	23.8	0.00e+00	123	42	0	556793856	46	5713
2026-01-20 00:39:12.44	171.24	19.46	-36.1	-37.0	24.0	0.00e+00	123	42	0	560988160	46	5575
2026-01-20 00:39:13.31	171.28	19.57	-36.0	-36.9	24.1	0.00e+00	120	42	0	563085312	46	5518
2026-01-20 00:39:14.46	171.33	19.72	-36.1	-37.0	24.0	0.00e+00	121	42	0	567279616	46	5585
2026-01-20 00:39:15.32	171.37	19.83	-36.2	-37.1	23.9	0.00e+00	122	42	0	569376768	46	5651
2026-01-20 00:39:16.48	171.43	19.98	-36.1	-37.0	24.0	0.00e+00	122	42	0	573571072	46	5543
2026-01-20 00:39:17.34	171.47	20.09	-35.9	-36.8	24.2	0.00e+00	123	42	0	575668224	46	5433
2026-01-20 00:39:18.50	171.52	20.24	-35.9	-36.8	24.1	0.00e+00	123	42	0	579862528	46	5451
2026-01-20 00:39:19.36	171.56	20.35	-36.0	-36.9	24.1	0.00e+00	123	42	0	581959680	46	5476
2026-01-20 00:39:20.52	171.61	20.51	-35.8	-36.7	24.2	0.00e+00	123	42	0	586153984	46	5356
2026-01-20 00:39:21.38	171.66	20.62	-35.9	-36.8	24.2	0.00e+00	122	42	0	588251136	46	5455
2026-01-20 00:39:22.54	171.71	20.77	-35.8	-36.7	24.2	0.00e+00	123	42	0	592445440	46	5377
2026-01-20 00:39:23.40	171.75	20.89	-35.9	-36.8	24.1	0.00e+00	123	42	0	594542592	46	5449
2026-01-20 00:39:24.56	171.81	21.04	-35.8	-36.7	24.2	0.00e+00	123	42	0	598736896	46	5401
2026-01-20 00:39:25.43	171.85	21.16	-36.0	-36.9	23.9	0.00e+00	123	42	0	600834048	46	5522
2026-01-20 00:39:26.58	171.91	21.32	-35.4	-36.3	24.3	0.00e+00	120	42	0	605028352	44	5781
2026-01-20 00:39:27.44	171.95	21.43	-35.5	-36.4	24.4	0.00e+00	122	42	0	607125504	44	5809
2026-01-20 00:39:28.60	172.01	21.59	-35.4	-36.3	24.5	0.00e+00	123	42	0	611319808	44	5727
2026-01-20 00:39:29.47	172.05	21.71	-35.2	-36.1	24.6	0.00e+00	122	42	0	613416960	44	5646
2026-01-20 00:39:30.62	172.11	21.87	-35.3	-36.2	24.4	0.00e+00	123	42	0	617611264	44	5703
2026-01-20 00:39:31.49	172.16	21.99	-35.1	-36.0	24.6	0.00e+00	123	42	0	619708416	44	5563
2026-01-20 00:39:32.64	172.22	22.15	-35.2	-36.1	24.5	0.00e+00	123	42	0	623902720	44	5629
2026-01-20 00:39:33.50	172.26	22.27	-35.0	-35.9	24.6	0.00e+00	120	42	0	625999872	44	5502
2026-01-20 00:39:34.66	172.32	22.44	-35.0	-35.9	24.7	0.00e+00	122	42	0	630194176	44	5479
2026-01-20 00:39:35.52	172.37	22.56	-35.0	-35.9	24.6	0.00e+00	123	42	0	632291328	44	5503
2026-01-20 00:39:36.67	172.43	22.72	-34.9	-35.8	24.8	0.00e+00	122	42	0	636485632	44	5429
2026-01-20 00:39:37.54	172.48	22.85	-34.8	-35.6	24.9	0.00e+00	123	42	0	638582784	42	5985
2026-01-20 00:39:38.70	172.54	23.01	-34.9	-35.8	24.8	0.00e+00	120	42	0	642777088	42	6110
2026-01-20 00:39:39.56	172.59	23.14	-34.6	-35.5	25.0	0.00e+00	123	42	0	644874240	42	5910
2026-01-20 00:39:40.72	172.66	23.31	-34.6	-35.5	25.0	0.00e+00	120	42	0	649068544	42	5889
2026-01-20 00:39:41.58	172.70	23.44	-34.7	-35.5	25.0	0.00e+00	122	42	0	651165696	42	5921
2026-01-20 00:39:42.74	172.77	23.61	-34.7	-35.5	25.1	0.00e+00	120	42	0	655360000	42	5909
2026-01-20 00:39:43.60	172.82	23.73	-34.6	-35.5	25.1	0.00e+00	123	42	0	657457152	42	5890
2026-01-20 00:39:44.76	172.89	23.91	-34.8	-35.7	25.0	0.00e+00	123	42	0	661651456	42	6023
2026-01-20 00:39:45.62	172.94	24.04	-34.6	-35.5	25.2	0.00e+00	123	42	0	663748608	42	5899
2026-01-20 00:39:46.78	173.00	24.21	-34.7	-35.6	25.1	0.00e+00	123	42	0	667942912	42	5947
2026-01-20 00:39:47.64	173.06	24.34	-34.7	-35.5	25.2	0.00e+00	122	42	0	670040064	42	5905
2026-01-20 00:39:48.79	173.12	24.52	-34.7	-35.5	25.2	0.00e+00	123	42	0	674234368	42	5923
2026-01-20 00:39:49.66	173.18	24.65	-34.8	-35.7	25.1	0.00e+00	123	42	0	676331520	42	6026
2026-01-20 00:39:50.81	173.25	24.83	-34.9	-35.7	25.1	0.00e+00	123	42	0	680525824	42	6056
2026-01-20 00:39:51.68	173.30	24.96	-35.1	-35.9	24.9	0.00e+00	123	42	0	683671552	42	6191
2026-01-20 00:39:52.83	173.37	25.14	-35.0	-35.9	25.0	0.00e+00	123	42	0	686817280	42	6178
2026-01-20 00:39:53.70	173.43	25.28	-35.1	-36.0	24.8	0.00e+00	120	42	0	689963008	42	6235
2026-01-20 00:39:54.85	173.50	25.46	-35.2	-36.1	24.8	0.00e+00	122	42	0	693108736	42	6296
2026-01-20 00:39:55.72	173.56	25.60	-35.4	-36.3	24.5	0.00e+00	120	42	0	695205888	42	6476
2026-01-20 00:39:56.87	173.63	25.78	-35.2	-36.1	24.8	0.00e+00	123	42	0	699400192	42	6294
2026-01-20 00:39:57.74	173.69	25.92	-35.5	-36.4	24.5	0.00e+00	120	42	0	702545920	42	6529
2026-01-20 00:39:58.90	173.76	26.11	-35.5	-36.4	24.5	0.00e+00	122	42	0	705691648	42	6530
2026-01-20 00:39:59.76	173.82	26.25	-35.5	-36.4	24.4	0.00e+00	120	42	0	708837376	42	6561
2026-01-20 00:40:00.92	173.90	26.44	-35.5	-36.4	24.5	0.00e+00	122	42	0	711983104	42	6523
2026-01-20 00:40:01.78	173.96	26.58	-35.6	-36.4	24.5	0.00e+00	123	42	0	715128832	42	6568
2026-01-20 00:40:02.94	174.04	26.78	-35.7	-36.6	24.4	0.00e+00	122	42	0	718274560	42	6661
2026-01-20 00:40:03.80	174.10	26.92	-35.8	-36.7	24.3	0.00e+00	120	42	0	721420288	44	6011
2026-01-20 00:40:04.96	174.18	27.11	-35.8	-36.7	24.3	0.00e+00	121	42	0	724566016	44	6004
2026-01-20 00:40:05.82	174.24	27.26	-35.9	-36.9	24.2	0.00e+00	120	42	0	727711744	44	6135
2026-01-20 00:40:06.97	174.32	27.45	-36.2	-37.1	24.0	0.00e+00	123	42	0	730857472	44	6322
2026-01-20 00:40:07.84	174.38	27.60	-36.1	-37.1	24.1	0.00e+00	120	42	0	734003200	44	6280
2026-01-20 00:40:08.99	174.47	27.80	-36.3	-37.2	23.9	0.00e+00	121	42	0	737148928	44	6365
2026-01-20 00:40:09.85	174.53	27.95	-36.3	-37.2	23.9	0.00e+00	122	42	0	740294656	44	6402
2026-01-20 00:40:11.01	174.62	28.15	-36.3	-37.2	23.9	0.00e+00	123	42	0	743440384	44	6369
2026-01-20 00:40:11.88	174.68	28.30	-36.4	-37.3	23.8	0.00e+00	122	42	0	746586112	44	6498
2026-01-20 00:40:13.03	174.77	28.50	-36.4	-37.3	23.8	0.00e+00	122	42	0	749731840	44	6447
2026-01-20 00:40:13.90	174.83	28.66	-36.4	-37.3	23.8	0.00e+00	120	42	0	752877568	44	6493
2026-01-20 00:40:15.05	174.92	28.86	-36.4	-37.3	23.7	0.00e+00	121	42	0	756023296	44	6448
2026-01-20 00:40:15.92	174.99	29.02	-36.4	-37.3	23.7	0.00e+00	123	42	0	759169024	44	6497
2026-01-20 00:40:17.07	175.08	29.23	-36.0	-37.0	23.8	0.00e+00	123	42	0	762314752	44	6210
2026-01-20 00:40:17.93	175.15	29.38	-36.1	-37.0	23.7	0.00e+00	123	42	0	765460480	44	6250
2026-01-20 00:40:19.09	175.25	29.59	-36.0	-36.9	23.8	0.00e+00	123	42	0	768606208	44	6154
2026-01-20 00:40:19.96	175.32	29.75	-36.0	-36.9	23.8	0.00e+00	120	42	0	771751936	44	6204
2026-01-20 00:40:21.11	175.41	29.97	-35.6	-36.5	24.1	0.00e+00	120	42	0	774897664	44	5919
2026-01-20 00:40:21.97	175.48	30.13	-35.7	-36.6	24.2	0.00e+00	122	42	0	778043392	44	5952
2026-01-20 00:40:23.13	175.58	30.34	-35.7	-36.6	24.2	0.00e+00	123	42	0	781189120	44	5944
2026-01-20 00:40:23.99	175.66	30.51	-35.6	-36.5	24.2	0.00e+00	122	42	0	784334848	44	5860
2026-01-20 00:40:25.15	175.76	30.73	-35.7	-36.6	24.1	0.00e+00	123	42	0	787480576	44	5973
2026-01-20 00:40:26.02	175.83	30.89	-35.7	-36.6	24.0	0.00e+00	123	42	0	790626304	44	5962
2026-01-20 00:40:27.17	175.93	31.11	-35.7	-36.6	24.1	0.00e+00	122	42	0	793772032	44	5950
2026-01-20 00:40:28.04	176.01	31.28	-35.8	-36.8	23.9	0.00e+00	120	42	0	796917760	44	6074
2026-01-20 00:40:29.19	176.12	31.50	-35.8	-36.7	23.9	0.00e+00	123	42	0	800063488	44	6042
2026-01-20 00:40:30.05	176.19	31.67	-35.9	-36.8	23.9	0.00e+00	122	42	0	803209216	44	6125
2026-01-20 00:40:31.20	176.30	31.90	-35.8	-36.8	23.9	0.00e+00	123	42	0	806354944	44	6079
2026-01-20 00:40:32.07	176.38	32.07	-35.9	-36.8	23.8	0.00e+00	123	42	0	809500672	44	6106
2026-01-20 00:40:33.22	176.49	32.30	-35.8	-36.8	23.7	0.00e+00	123	42	0	812646400	44	6077
2026-01-20 00:40:34.09	176.57	32.47	-36.0	-36.9	23.9	0.00e+00	124	42	0	815792128	44	6189
2026-01-20 00:40:35.24	176.69	32.71	-36.0	-36.9	23.9	0.00e+00	121	42	0	818937856	44	6198
2026-01-20 00:40:36.11	176.77	32.88	-36.1	-37.1	23.9	0.00e+00	122	42	0	822083584	44	6293
2026-01-20 00:40:37.26	176.89	33.12	-36.1	-37.0	23.8	0.00e+00	123	42	0	825229312	44	6233
2026-01-20 00:40:38.13	176.97	33.30	-36.2	-37.1	23.8	0.00e+00	123	42	0	828375040	44	6323
2026-01-20 00:40:39.28	177.09	33.53	-36.2	-37.2	23.8	0.00e+00	123	42	0	831520768	44	6353
2026-01-20 00:40:40.15	177.18	33.72	-36.4	-37.3	23.7	0.00e+00	122	42	0	834666496	44	6493
2026-01-20 00:40:41.30	177.30	33.96	-36.6	-37.6	23.5	0.00e+00	122	42	0	837812224	44	6667
2026-01-20 00:40:42.17	177.39	34.14	-36.7	-37.6	23.4	0.00e+00	123	42	0	840957952	44	6719
2026-01-20 00:40:43.32	177.52	34.38	-36.9	-37.8	23.3	0.00e+00	122	42	0	844103680	46	6118
2026-01-20 00:40:44.19	177.61	34.57	-37.2	-38.2	23.2	0.00e+00	120	42	0	847249408	46	6375
2026-01-20 00:40:45.35	177.74	34.82	-37.3	-38.3	23.0	0.00e+00	120	42	0	850395136	46	6425
2026-01-20 00:40:46.21	177.83	35.01	-37.4	-38.4	23.0	0.00e+00	121	42	0	853540864	46	6552
2026-01-20 00:40:47.37	177.97	35.26	-37.6	-38.6	22.8	0.00e+00	122	42	0	856686592	46	6696
2026-01-20 00:40:48.23	178.06	35.45	-37.7	-38.7	22.6	0.00e+00	122	42	0	859832320	46	6769
2026-01-20 00:40:49.38	178.20	35.70	-37.8	-38.8	22.6	0.00e+00	123	42	0	864026624	48	6076
2026-01-20 00:40:50.25	178.30	35.89	-37.9	-38.9	22.6	0.00e+00	122	42	0	866123776	48	6141
2026-01-20 00:40:51.40	178.44	36.15	-37.9	-38.9	22.6	0.00e+00	122	42	0	869269504	48	6197
2026-01-20 00:40:52.27	178.54	36.35	-38.0	-39.0	22.6	0.00e+00	123	42	0	872415232	48	6217
2026-01-20 00:40:53.42	178.68	36.61	-37.9	-38.9	22.7	0.00e+00	123	42	0	876609536	48	6189
2026-01-20 00:40:54.29	178.79	36.81	-38.1	-39.1	22.6	0.00e+00	123	42	0	878706688	48	6293
2026-01-20 00:40:55.45	178.93	37.07	-38.1	-39.1	22.5	0.00e+00	123	42	0	882900992	48	6303
2026-01-20 00:40:56.31	179.04	37.27	-38.2	-39.2	22.5	0.00e+00	123	42	0	884998144	48	6382
2026-01-20 00:40:57.46	179.19	37.54	-37.9	-38.8	22.8	0.00e+00	123	42	0	889192448	48	6130
2026-01-20 00:40:58.33	179.31	37.74	-37.8	-38.8	22.8	0.00e+00	122	42	0	891289600	48	6096
2026-01-20 00:40:59.48	179.46	38.01	-37.7	-38.7	22.9	0.00e+00	123	42	0	895483904	48	6019
2026-01-20 00:41:00.35	179.58	38.22	-37.7	-38.7	23.0	0.00e+00	123	42	0	897581056	48	6027
2026-01-20 00:41:01.49	179.73	38.49	-37.7	-38.6	22.9	0.00e+00	122	42	0	901775360	48	5982
2026-01-20 00:41:02.36	179.85	38.70	-37.5	-38.5	23.0	0.00e+00	123	42	0	903872512	48	5895
2026-01-20 00:41:03.51	180.01	38.97	-37.6	-38.6	23.0	0.00e+00	123	42	0	908066816	48	5930
2026-01-20 00:41:04.38	180.14	39.19	-37.8	-38.8	22.9	0.00e+00	123	42	0	910163968	48	6083
2026-01-20 00:41:05.53	180.31	39.47	-37.7	-38.7	22.8	0.00e+00	122	42	0	914358272	48	6051
2026-01-20 00:41:06.40	180.43	39.68	-37.8	-38.8	22.8	0.00e+00	121	42	0	916455424	48	6110
2026-01-20 00:41:07.55	180.60	39.97	-37.8	-38.8	22.8	0.00e+00	122	42	0	920649728	48	6100
2026-01-20 00:41:08.42	180.74	40.18	-37.7	-38.7	22.9	0.00e+00	123	42	0	922746880	48	6024
2026-01-20 00:41:09.57	180.91	40.47	-37.8	-38.7	22.8	0.00e+00	123	42	0	926941184	48	6063
2026-01-20 00:41:10.44	181.05	40.69	-37.9	-38.9	22.7	0.00e+00	123	42	0	929038336	48	6147
2026-01-20 00:41:11.60	181.23	40.98	-37.9	-38.9	22.7	0.00e+00	123	42	0	933232640	48	6201
2026-01-20 00:41:12.46	181.37	41.20	-38.0	-38.9	22.7	0.00e+00	122	42	0	935329792	48	6205
2026-01-20 00:41:13.61	181.56	41.50	-38.1	-39.0	22.6	0.00e+00	123	42	0	939524096	48	6276
2026-01-20 00:41:14.48	181.70	41.72	-38.1	-39.1	22.6	0.00e+00	122	42	0	941621248	48	6313
2026-01-20 00:41:15.63	181.90	42.02	-38.3	-39.3	22.5	0.00e+00	122	42	0	945815552	48	6433
2026-01-20 00:41:16.50	182.05	42.25	-38.3	-39.3	22.4	0.00e+00	123	42	0	947912704	48	6462
2026-01-20 00:41:17.65	182.25	42.55	-38.3	-39.3	22.4	0.00e+00	120	42	0	952107008	48	6450
2026-01-20 00:41:18.52	182.40	42.78	-38.5	-39.5	22.3	0.00e+00	122	42	0	954204160	48	6613
2026-01-20 00:41:19.67	182.61	43.09	-38.5	-39.5	22.2	0.00e+00	122	42	0	958398464	48	6639
2026-01-20 00:41:20.54	182.77	43.32	-38.6	-39.7	22.1	0.00e+00	123	42	0	960495616	48	6734
2026-01-20 00:41:21.69	182.98	43.63	-38.5	-39.5	22.1	0.00e+00	123	42	0	964689920	48	6642
2026-01-20 00:41:22.55	183.14	43.87	-38.5	-39.5	22.2	0.00e+00	123	42	0	966787072	48	6646
2026-01-20 00:41:23.71	183.37	44.18	-38.4	-39.4	22.2	0.00e+00	123	42	0	970981376	48	6525
2026-01-20 00:41:24.57	183.53	44.42	-38.4	-39.4	22.0	0.00e+00	122	42	0	973078528	48	6564
2026-01-20 00:41:25.73	183.76	44.74	-38.9	-39.9	21.4	0.00e+00	122	42	0	977272832	50	6189
2026-01-20 00:41:26.59	183.94	44.98	-39.0	-40.1	21.4	0.00e+00	123	42	0	979369984	50	6331
2026-01-20 00:41:27.75	184.18	45.30	-39.2	-40.3	21.2	0.00e+00	122	42	0	983564288	50	6489
2026-01-20 00:41:28.61	184.36	45.54	-39.4	-40.5	21.1	0.00e+00	122	42	0	985661440	50	6642
2026-01-20 00:41:29.77	184.60	45.87	-39.4	-40.5	21.2	0.00e+00	122	42	0	989855744	50	6621
2026-01-20 00:41:30.64	184.79	46.12	-39.2	-40.3	21.4	0.00e+00	123	42	0	991952896	50	6449
2026-01-20 00:41:31.79	185.05	46.45	-38.8	-39.8	21.7	0.00e+00	123	42	0	996147200	50	6119
2026-01-20 00:41:32.66	185.24	46.69	-38.7	-39.8	21.8	0.00e+00	120	42	0	998244352	50	6080
2026-01-20 00:41:33.81	185.51	47.03	-38.7	-39.7	21.9	0.00e+00	120	42	0	1002438656	50	6059
2026-01-20 00:41:34.68	185.71	47.28	-38.6	-39.6	22.1	0.00e+00	122	42	0	1005584384	50	5986
2026-01-20 00:41:35.83	185.98	47.61	-38.6	-39.7	22.0	0.00e+00	122	42	0	1008730112	50	5999
2026-01-20 00:41:36.70	186.19	47.87	-38.4	-39.4	22.4	0.00e+00	122	42	0	1010827264	50	5805
2026-01-20 00:41:37.85	186.48	48.21	-38.1	-39.1	22.5	0.00e+00	122	42	0	1015021568	50	5632
2026-01-20 00:41:38.72	186.70	48.46	-38.2	-39.2	22.4	0.00e+00	122	42	0	1017118720	50	5705
2026-01-20 00:41:39.87	186.99	48.81	-38.6	-39.7	22.0	0.00e+00	123	42	0	1021313024	50	6005
2026-01-20 00:41:40.74	187.22	49.07	-39.0	-40.1	21.9	0.00e+00	122	42	0	1024458752	50	6285
2026-01-20 00:41:41.89	187.52	49.41	-38.8	-39.8	21.9	0.00e+00	122	42	0	1027604480	50	6118
2026-01-20 00:41:42.76	187.76	49.67	-38.5	-39.5	22.1	0.00e+00	123	42	0	1030750208	50	5908
2026-01-20 00:41:43.91	188.08	50.02	-38.5	-39.5	22.1	0.00e+00	122	42	0	1033895936	50	5903
2026-01-20 00:41:44.78	188.33	50.29	-37.9	-38.9	22.6	0.00e+00	123	42	0	1037041664	50	5508
2026-01-20 00:41:45.93	188.66	50.64	-37.7	-38.7	22.7	0.00e+00	122	42	0	1040187392	48	6051
2026-01-20 00:41:46.80	188.91	50.90	-37.8	-38.8	22.7	0.00e+00	123	42	0	1043333120	48	6071
2026-01-20 00:41:47.95	189.26	51.26	-37.7	-38.7	22.7	0.00e+00	123	42	0	1046478848	48	6049
2026-01-20 00:41:48.82	189.52	51.53	-37.6	-38.6	22.9	0.00e+00	122	42	0	1049624576	48	5959
2026-01-20 00:41:49.97	189.88	51.88	-37.3	-38.2	23.1	0.00e+00	123	42	0	1052770304	48	5711
2026-01-20 00:41:50.84	190.16	52.16	-37.1	-38.0	23.3	0.00e+00	122	42	0	1055916032	48	5582
2026-01-20 00:41:52.00	190.54	52.52	-37.0	-38.0	23.2	0.00e+00	123	42	0	1059061760	48	5556
2026-01-20 00:41:52.86	190.83	52.79	-36.9	-37.9	23.0	0.00e+00	123	42	0	1062207488	48	5497
2026-01-20 00:41:54.02	191.22	53.15	-37.1	-38.1	22.8	0.00e+00	123	42	0	1065353216	48	5598
2026-01-20 00:41:54.88	191.52	53.42	-37.0	-38.0	22.8	0.00e+00	122	42	0	1068498944	48	5573
2026-01-20 00:41:56.04	191.93	53.79	-36.8	-37.8	23.3	0.00e+00	123	42	0	1071644672	48	5425
2026-01-20 00:41:56.90	192.25	54.06	-36.9	-37.8	23.4	0.00e+00	123	42	0	1074790400	48	5446
2026-01-20 00:41:58.06	192.68	54.43	-37.0	-38.0	23.2	0.00e+00	122	42	0	1077936128	48	5564
2026-01-20 00:41:58.92	193.00	54.71	-37.2	-38.2	23.1	0.00e+00	120	42	0	1081081856	48	5714
2026-01-20 00:42:00.08	193.45	55.08	-37.2	-38.2	23.3	0.00e+00	123	42	0	1084227584	48	5715
2026-01-20 00:42:00.94	193.80	55.35	-36.9	-37.9	23.6	0.00e+00	123	42	0	1087373312	48	5490
2026-01-20 00:42:02.09	194.26	55.72	-36.2	-37.1	24.1	0.00e+00	122	42	0	1090519040	46	5657
2026-01-20 00:42:02.96	194.62	56.00	-36.0	-36.9	24.2	0.00e+00	122	42	0	1093664768	46	5483
2026-01-20 00:42:04.12	195.12	56.37	-36.2	-37.1	24.1	0.00e+00	123	42	0	1096810496	46	5618
2026-01-20 00:42:04.98	195.49	56.65	-36.2	-37.2	24.0	0.00e+00	123	42	0	1099956224	46	5672
2026-01-20 00:42:06.13	196.00	57.02	-35.9	-36.8	24.1	0.00e+00	123	42	0	1103101952	46	5443
2026-01-20 00:42:07.00	196.40	57.30	-36.0	-36.9	24.0	0.00e+00	122	42	0	1106247680	46	5523
2026-01-20 00:42:08.16	196.94	57.68	-35.7	-36.6	24.3	0.00e+00	122	42	0	1109393408	44	5942
2026-01-20 00:42:09.02	197.35	57.95	-35.9	-36.9	24.2	0.00e+00	123	42	0	1112539136	44	6153
2026-01-20 00:42:10.17	197.92	58.32	-36.1	-37.0	24.1	0.00e+00	123	42	0	1115684864	44	6253
2026-01-20 00:42:11.04	198.35	58.61	-36.1	-37.0	24.2	0.00e+00	122	42	0	1118830592	44	6242
2026-01-20 00:42:12.19	198.95	58.98	-35.9	-36.8	24.3	0.00e+00	122	42	0	1121976320	44	6080
2026-01-20 00:42:13.06	199.40	59.25	-35.9	-36.8	24.2	0.00e+00	123	42	0	1125122048	44	6109
2026-01-20 00:42:14.21	200.03	59.62	-36.1	-37.0	23.8	0.00e+00	123	42	0	1128267776	44	6265
2026-01-20 00:42:15.08	200.51	59.90	-36.0	-36.9	23.9	0.00e+00	123	42	0	1131413504	44	6174
2026-01-20 00:42:16.23	201.16	60.27	-35.8	-36.7	24.3	0.00e+00	120	42	0	1134559232	44	6050
2026-01-20 00:42:17.10	201.67	60.55	-35.9	-36.8	24.4	0.00e+00	123	42	0	1137704960	44	6133
2026-01-20 00:42:18.25	202.35	60.91	-35.3	-36.2	24.8	0.00e+00	122	42	0	1140850688	44	5713
2026-01-20 00:42:19.12	202.88	61.19	-35.2	-36.1	24.9	0.00e+00	122	42	0	1143996416	44	5630
2026-01-20 00:42:20.27	203.61	61.55	-34.9	-35.7	25.0	0.00e+00	120	42	0	1147142144	44	5388
2026-01-20 00:42:21.14	204.17	61.82	-34.8	-35.6	25.1	0.00e+00	123	42	0	1150287872	42	5993
2026-01-20 00:42:22.29	204.93	62.18	-35.0	-35.9	25.1	0.00e+00	121	42	0	1153433600	42	6164
2026-01-20 00:42:23.16	205.51	62.45	-34.9	-35.8	25.1	0.00e+00	120	42	0	1156579328	42	6088
2026-01-20 00:42:24.31	206.31	62.80	-34.6	-35.5	25.3	0.00e+00	120	42	0	1159725056	42	5862
2026-01-20 00:42:25.17	206.93	63.06	-34.6	-35.5	25.2	0.00e+00	122	42	0	1162870784	42	5884
2026-01-20 00:42:26.33	207.78	63.42	-34.5	-35.4	25.2	0.00e+00	123	42	0	1166016512	42	5795
2026-01-20 00:42:27.19	208.42	63.67	-34.5	-35.3	25.2	0.00e+00	120	42	0	1169162240	42	5782
2026-01-20 00:42:28.35	209.31	64.02	-34.4	-35.2	25.2	0.00e+00	122	42	0	1172307968	42	5717
2026-01-20 00:42:29.21	209.99	64.27	-34.4	-35.2	25.1	0.00e+00	120	42	0	1175453696	42	5703
2026-01-20 00:42:30.37	210.93	64.61	-34.5	-35.3	25.0	0.00e+00	122	42	0	1178599424	42	5762
2026-01-20 00:42:31.23	211.65	64.86	-34.5	-35.3	25.3	0.00e+00	122	42	0	1181745152	42	5762
2026-01-20 00:42:32.39	212.64	65.19	-34.1	-35.0	25.6	0.00e+00	120	42	0	1184890880	42	5534
2026-01-20 00:42:33.25	213.39	65.43	-34.0	-34.8	25.5	0.00e+00	123	42	0	1188036608	42	5458
2026-01-20 00:42:34.41	214.43	65.75	-34.2	-35.1	25.2	0.00e+00	120	42	0	1191182336	42	5602
2026-01-20 00:42:35.28	215.23	65.98	-34.7	-35.6	25.1	0.00e+00	122	42	0	1194328064	42	5961
2026-01-20 00:42:36.43	216.31	66.29	-34.9	-35.8	25.2	0.00e+00	122	42	0	1198522368	42	6104
2026-01-20 00:42:37.29	217.14	66.51	-34.5	-35.3	25.4	0.00e+00	122	42	0	1200619520	42	5779
2026-01-20 00:42:38.45	218.29	66.81	-34.5	-35.3	25.4	0.00e+00	123	42	0	1204813824	42	5773
2026-01-20 00:42:39.31	219.16	67.02	-34.7	-35.5	25.4	0.00e+00	122	42	0	1206910976	42	5910
2026-01-20 00:42:40.47	220.37	67.30	-35.0	-35.9	25.1	0.00e+00	123	42	0	1210056704	42	6150
2026-01-20 00:42:41.33	221.28	67.51	-35.2	-36.1	25.1	0.00e+00	123	42	0	1213202432	42	6298
2026-01-20 00:42:42.49	222.54	67.78	-34.6	-35.4	25.5	0.00e+00	123	42	0	1217396736	42	5858
2026-01-20 00:42:43.35	223.50	67.97	-34.5	-35.3	25.3	0.00e+00	122	42	0	1219493888	42	5760
2026-01-20 00:42:44.51	224.81	68.22	-34.6	-35.4	25.3	0.00e+00	123	42	0	1223688192	42	5836
2026-01-20 00:42:45.37	225.81	68.40	-34.7	-35.6	25.3	0.00e+00	123	42	0	1225785344	42	5955
2026-01-20 00:42:46.53	227.18	68.63	-34.4	-35.2	25.7	0.00e+00	123	42	0	1229979648	42	5714
2026-01-20 00:42:47.40	228.24	68.80	-34.4	-35.3	25.5	0.00e+00	123	42	0	1232076800	42	5748
2026-01-20 00:42:48.55	229.65	69.01	-34.7	-35.5	25.2	0.00e+00	122	42	0	1236271104	42	5919
2026-01-20 00:42:49.42	230.74	69.16	-34.9	-35.8	25.1	0.00e+00	120	42	0	1238368256	42	6116
2026-01-20 00:42:50.57	232.21	69.35	-35.1	-36.0	25.0	0.00e+00	120	42	0	1242562560	42	6256
2026-01-20 00:42:51.44	233.34	69.49	-35.0	-35.8	25.2	0.00e+00	120	42	0	1244659712	42	6130
2026-01-20 00:42:52.59	234.86	69.66	-34.7	-35.6	25.1	0.00e+00	123	42	0	1248854016	42	5967
2026-01-20 00:42:53.46	236.03	69.78	-34.8	-35.7	24.9	0.00e+00	120	42	0	1250951168	42	6028
2026-01-20 00:42:54.61	237.59	69.92	-34.8	-35.7	25.3	0.00e+00	123	42	0	1255145472	42	6008
2026-01-20 00:42:55.48	238.79	70.03	-34.4	-35.3	25.5	0.00e+00	122	42	0	1257242624	42	5738
2026-01-20 00:42:56.63	240.39	70.15	-34.2	-35.0	25.5	0.00e+00	123	42	0	1261436928	42	5581
2026-01-20 00:42:57.50	241.61	70.23	-34.0	-34.9	25.4	0.00e+00	123	42	0	1263534080	42	5501
2026-01-20 00:42:58.65	243.25	70.32	-34.1	-34.9	25.6	0.00e+00	123	42	0	1267728384	42	5515
2026-01-20 00:42:59.52	244.50	70.39	-34.2	-35.0	25.6	0.00e+00	122	42	0	1269825536	42	5561
2026-01-20 00:43:00.67	246.16	70.46	-34.2	-35.1	25.1	0.00e+00	120	42	0	1274019840	42	5597
2026-01-20 00:43:01.54	247.42	70.50	-34.7	-35.6	24.6	0.00e+00	122	42	0	1276116992	42	5963
2026-01-20 00:43:02.69	249.10	70.54	-34.9	-35.7	24.9	0.00e+00	123	42	0	1280311296	42	6063
2026-01-20 00:43:03.56	250.37	70.56	-34.9	-35.7	24.8	0.00e+00	122	42	0	1282408448	42	6060
2026-01-20 00:43:04.71	252.06	70.57	-34.5	-35.4	24.7	0.00e+00	122	42	0	1286602752	42	5834
2026-01-20 00:43:05.58	253.34	70.57	-35.0	-35.9	24.7	0.00e+00	123	42	0	1288699904	42	6154
2026-01-20 00:43:06.73	255.03	70.56	-35.1	-36.0	24.8	0.00e+00	122	42	0	1292894208	42	6269
2026-01-20 00:43:07.60	256.30	70.54	-35.0	-36.0	25.0	0.00e+00	123	42	0	1294991360	42	6211
2026-01-20 00:43:08.75	257.98	70.50	-34.7	-35.6	24.9	0.00e+00	122	42	0	1299185664	42	5962
2026-01-20 00:43:09.62	259.24	70.46	-34.7	-35.7	24.8	0.00e+00	122	42	0	1301282816	42	6002
2026-01-20 00:43:10.77	260.90	70.39	-34.8	-35.7	25.1	0.00e+00	123	42	0	1305477120	42	6040
2026-01-20 00:43:11.64	262.15	70.33	-35.0	-35.9	24.9	0.00e+00	120	42	0	1307574272	42	6145
2026-01-20 00:43:12.80	263.80	70.23	-35.0	-35.9	24.7	0.00e+00	121	42	0	1311768576	42	6163
2026-01-20 00:43:13.66	265.01	70.15	-34.6	-35.5	25.3	0.00e+00	123	42	0	1313865728	42	5892
2026-01-20 00:43:14.81	266.62	70.03	-34.3	-35.2	25.3	0.00e+00	123	42	0	1318060032	42	5681
2026-01-20 00:43:15.68	267.81	69.93	-34.5	-35.4	25.3	0.00e+00	122	42	0	1321205760	42	5792
2026-01-20 00:43:16.84	269.39	69.79	-34.7	-35.6	24.8	0.00e+00	122	42	0	1324351488	42	5940
2026-01-20 00:43:17.70	270.54	69.67	-35.0	-35.9	24.6	0.00e+00	122	42	0	1326448640	42	6148
2026-01-20 00:43:18.86	272.08	69.50	-35.3	-36.2	24.5	0.00e+00	123	42	0	1330642944	42	6412
2026-01-20 00:43:19.72	273.19	69.37	-35.4	-36.3	24.5	0.00e+00	122	42	0	1332740096	42	6492
2026-01-20 00:43:20.88	274.68	69.18	-35.4	-36.3	24.5	0.00e+00	120	42	0	1336934400	42	6470
2026-01-20 00:43:21.74	275.76	69.03	-35.2	-36.1	24.7	0.00e+00	123	42	0	1340080128	42	6344
2026-01-20 00:43:22.90	277.19	68.81	-34.8	-35.7	24.9	0.00e+00	123	42	0	1343225856	42	6044
2026-01-20 00:43:23.76	278.22	68.65	-34.9	-35.7	25.0	0.00e+00	122	42	0	1346371584	42	6060
2026-01-20 00:43:24.92	279.60	68.42	-34.6	-35.5	25.1	0.00e+00	123	42	0	1349517312	42	5882
2026-01-20 00:43:25.78	280.60	68.24	-34.5	-35.4	25.3	0.00e+00	123	42	0	1352663040	42	5828
2026-01-20 00:43:26.93	281.90	67.99	-34.4	-35.2	25.5	0.00e+00	123	42	0	1355808768	42	5694
2026-01-20 00:43:27.80	282.87	67.80	-34.1	-34.9	25.6	0.00e+00	123	42	0	1358954496	42	5498
2026-01-20 00:43:28.95	284.12	67.53	-33.9	-34.7	25.8	0.00e+00	122	42	0	1362100224	42	5357
2026-01-20 00:43:29.82	285.05	67.33	-34.4	-35.2	25.4	0.00e+00	120	42	0	1365245952	42	5710
2026-01-20 00:43:30.97	286.24	67.05	-35.3	-36.2	24.7	0.00e+00	120	42	0	1368391680	42	6361
2026-01-20 00:43:31.84	287.12	66.83	-35.4	-36.3	24.8	0.00e+00	123	42	0	1371537408	42	6427
2026-01-20 00:43:32.99	288.26	66.54	-35.1	-36.0	24.9	0.00e+00	120	42	0	1374683136	42	6258
2026-01-20 00:43:33.85	289.10	66.31	-34.5	-35.3	25.6	0.00e+00	123	42	0	1377828864	42	5758
2026-01-20 00:43:35.01	290.19	66.01	-34.3	-35.1	25.6	0.00e+00	120	42	0	1380974592	42	5651
2026-01-20 00:43:35.88	290.99	65.77	-34.4	-35.3	25.6	0.00e+00	123	42	0	1384120320	42	5732
2026-01-20 00:43:37.03	292.02	65.46	-35.1	-36.0	24.8	0.00e+00	123	42	0	1387266048	42	6224
2026-01-20 00:43:37.90	292.78	65.22	-35.2	-36.0	24.9	0.00e+00	122	42	0	1390411776	42	6276
2026-01-20 00:43:39.05	293.77	64.89	-34.8	-35.6	25.1	0.00e+00	123	42	0	1393557504	42	5968
2026-01-20 00:43:39.92	294.49	64.64	-34.7	-35.6	25.2	0.00e+00	123	42	0	1396703232	42	5929
2026-01-20 00:43:41.07	295.42	64.31	-34.5	-35.3	25.6	0.00e+00	122	42	0	1399848960	42	5777
2026-01-20 00:43:41.93	296.10	64.06	-34.7	-35.5	25.4	0.00e+00	123	42	0	1402994688	42	5897
2026-01-20 00:43:43.09	297.00	63.71	-35.7	-36.6	24.8	0.00e+00	120	42	0	1406140416	42	6673
2026-01-20 00:43:43.95	297.64	63.45	-36.3	-37.2	24.1	0.00e+00	121	42	0	1409286144	44	6403
2026-01-20 00:43:45.11	298.49	63.10	-36.0	-37.0	23.8	0.00e+00	120	42	0	1412431872	44	6236
2026-01-20 00:43:45.97	299.11	62.84	-35.5	-36.4	24.1	0.00e+00	123	42	0	1415577600	44	5850
2026-01-20 00:43:47.13	299.91	62.49	-35.2	-36.1	24.8	0.00e+00	122	42	0	1418723328	44	5632
2026-01-20 00:43:47.99	300.50	62.22	-35.2	-36.0	25.1	0.00e+00	122	42	0	1421869056	44	5591
2026-01-20 00:43:49.15	301.26	61.86	-35.7	-36.5	24.7	0.00e+00	123	42	0	1425014784	44	5925
2026-01-20 00:43:50.01	301.82	61.59	-36.3	-37.2	24.2	0.00e+00	120	42	0	1428160512	44	6376
2026-01-20 00:43:51.16	302.54	61.23	-36.7	-37.6	24.1	0.00e+00	123	42	0	1431306240	46	5977
2026-01-20 00:43:52.03	303.07	60.96	-36.7	-37.7	24.1	0.00e+00	122	42	0	1434451968	46	6009
2026-01-20 00:43:53.18	303.76	60.59	-35.8	-36.7	24.4	0.00e+00	123	42	0	1437597696	46	5344
2026-01-20 00:43:54.05	304.27	60.32	-35.0	-35.9	24.8	0.00e+00	122	42	0	1440743424	44	5521
2026-01-20 00:43:55.20	304.92	59.95	-34.6	-35.5	25.5	0.00e+00	123	42	0	1443889152	42	5872
2026-01-20 00:43:56.07	305.40	59.67	-35.0	-35.9	25.4	0.00e+00	123	42	0	1447034880	42	6155
2026-01-20 00:43:57.22	306.03	59.31	-36.0	-36.9	24.5	0.00e+00	123	42	0	1450180608	44	6162
2026-01-20 00:43:58.09	306.48	59.03	-36.9	-37.9	23.8	0.00e+00	123	42	0	1453326336	46	6183
2026-01-20 00:43:59.24	307.08	58.66	-37.8	-38.8	23.1	0.00e+00	122	42	0	1456472064	48	6109
2026-01-20 00:44:00.11	307.51	58.38	-36.8	-37.8	23.0	0.00e+00	123	42	0	1459617792	48	5405
2026-01-20 00:44:01.26	308.08	58.01	-36.0	-37.0	23.2	0.00e+00	123	42	0	1462763520	46	5536
2026-01-20 00:44:02.13	308.50	57.73	-35.5	-36.4	24.4	0.00e+00	122	42	0	1465909248	44	5851
2026-01-20 00:44:03.28	309.03	57.36	-35.4	-36.3	25.1	0.00e+00	123	42	0	1469054976	44	5762
2026-01-20 00:44:04.15	309.43	57.08	-35.8	-36.7	24.9	0.00e+00	123	42	0	1472200704	44	6017
2026-01-20 00:44:05.31	309.95	56.71	-36.7	-37.7	23.9	0.00e+00	123	42	0	1475346432	44	6735
2026-01-20 00:44:06.17	310.32	56.43	-37.6	-38.6	23.3	0.00e+00	122	42	0	1478492160	46	6651
2026-01-20 00:44:07.32	310.81	56.06	-37.9	-39.0	22.3	0.00e+00	120	42	0	1481637888	48	6233
2026-01-20 00:44:08.19	311.17	55.78	-37.8	-39.0	21.3	0.00e+00	122	42	0	1484783616	48	6238
2026-01-20 00:44:09.34	311.64	55.42	-37.6	-38.7	21.8	0.00e+00	122	42	0	1487929344	48	6022
2026-01-20 00:44:10.21	311.99	55.14	-37.2	-38.2	22.8	0.00e+00	123	42	0	1491075072	48	5694
2026-01-20 00:44:11.36	312.44	54.77	-36.4	-37.3	24.0	0.00e+00	123	42	0	1494220800	46	5767
2026-01-20 00:44:12.23	312.77	54.50	-36.7	-37.6	24.0	0.00e+00	120	42	0	1497366528	46	5940
2026-01-20 00:44:13.38	313.19	54.13	-36.7	-37.7	23.9	0.00e+00	120	42	0	1500512256	46	6005
2026-01-20 00:44:14.25	313.51	53.86	-37.4	-38.4	23.1	0.00e+00	120	42	0	1503657984	46	6510
2026-01-20 00:44:15.40	313.92	53.49	-38.4	-39.4	22.7	0.00e+00	122	42	0	1506803712	48	6569
2026-01-20 00:44:16.26	314.22	53.22	-38.5	-39.6	21.6	0.00e+00	123	42	0	1509949440	48	6724
2026-01-20 00:44:17.42	314.61	52.86	-38.3	-39.6	20.8	0.00e+00	122	42	0	1513095168	48	6660
2026-01-20 00:44:18.28	314.90	52.59	-37.9	-39.0	21.6	0.00e+00	123	42	0	1516240896	48	6261
2026-01-20 00:44:19.44	315.28	52.23	-37.6	-38.7	22.4	0.00e+00	120	42	0	1520435200	48	6005
2026-01-20 00:44:20.30	315.56	51.96	-36.5	-37.5	23.6	0.00e+00	122	42	0	1522532352	46	5876
2026-01-20 00:44:21.46	315.92	51.60	-36.2	-37.2	24.1	0.00e+00	123	42	0	1525678080	46	5664
2026-01-20 00:44:22.32	316.18	51.34	-36.6	-37.6	24.0	0.00e+00	122	42	0	1528823808	46	5929
2026-01-20 00:44:23.48	316.53	50.98	-37.3	-38.3	23.4	0.00e+00	122	42	0	1533018112	46	6447
2026-01-20 00:44:24.34	316.78	50.72	-38.3	-39.4	22.4	0.00e+00	122	42	0	1535115264	48	6504
2026-01-20 00:44:25.50	317.12	50.37	-40.2	-41.5	20.6	0.00e+00	120	42	0	1539309568	52	6636
2026-01-20 00:44:26.36	317.36	50.10	-40.6	-42.0	20.1	0.00e+00	120	42	0	1541406720	52	7030
2026-01-20 00:44:27.52	317.69	49.75	-40.6	-42.0	19.8	0.00e+00	120	42	0	1545601024	54	6242
2026-01-20 00:44:28.39	317.92	49.49	-39.8	-41.1	20.4	0.00e+00	120	42	0	1547698176	54	5635
2026-01-20 00:44:29.54	318.23	49.15	-39.5	-40.6	20.8	0.00e+00	122	42	0	1551892480	52	5980
2026-01-20 00:44:30.41	318.46	48.89	-39.1	-40.2	21.3	0.00e+00	123	42	0	1553989632	52	5710
2026-01-20 00:44:31.56	318.75	48.55	-39.1	-40.3	21.4	0.00e+00	120	42	0	1558183936	52	5731
2026-01-20 00:44:32.43	318.97	48.29	-39.6	-40.6	21.7	0.00e+00	120	42	0	1560281088	52	5993
2026-01-20 00:44:33.58	319.25	47.96	-39.0	-40.0	22.4	0.00e+00	122	42	0	1564475392	52	5576
2026-01-20 00:44:34.45	319.47	47.70	-38.0	-38.9	23.1	0.00e+00	123	42	0	1566572544	50	5515
2026-01-20 00:44:35.60	319.74	47.37	-38.2	-39.1	22.9	0.00e+00	123	42	0	1570766848	50	5645
2026-01-20 00:44:36.47	319.94	47.12	-39.0	-40.0	22.2	0.00e+00	122	42	0	1572864000	50	6274
2026-01-20 00:44:37.62	320.21	46.79	-39.6	-40.7	21.5	0.00e+00	122	42	0	1577058304	50	6773
2026-01-20 00:44:38.49	320.40	46.54	-40.0	-41.2	21.3	0.00e+00	123	42	0	1579155456	52	6358
2026-01-20 00:44:39.64	320.66	46.21	-39.5	-40.6	21.5	0.00e+00	123	42	0	1583349760	52	5978
2026-01-20 00:44:40.50	320.84	45.97	-39.6	-40.8	21.5	0.00e+00	122	42	0	1585446912	52	6087
2026-01-20 00:44:41.66	321.09	45.64	-39.5	-40.6	21.6	0.00e+00	121	42	0	1589641216	52	5970
2026-01-20 00:44:42.53	321.28	45.40	-39.1	-40.2	21.9	0.00e+00	123	42	0	1591738368	52	5675
2026-01-20 00:44:43.68	321.51	45.08	-38.5	-39.6	22.3	0.00e+00	122	42	0	1595932672	50	5936
2026-01-20 00:44:44.54	321.69	44.84	-38.6	-39.6	22.4	0.00e+00	123	42	0	1598029824	50	5956
2026-01-20 00:44:45.70	321.92	44.52	-39.0	-40.0	21.8	0.00e+00	122	42	0	1602224128	50	6255
2026-01-20 00:44:46.57	322.09	44.28	-39.5	-40.7	21.1	0.00e+00	120	42	0	1604321280	50	6736
2026-01-20 00:44:47.72	322.31	43.97	-40.4	-41.6	20.5	0.00e+00	122	42	0	1608515584	52	6688
2026-01-20 00:44:48.59	322.47	43.73	-40.1	-41.3	21.0	0.00e+00	123	42	0	1610612736	52	6424
2026-01-20 00:44:49.74	322.69	43.42	-40.1	-41.2	21.1	0.00e+00	123	42	0	1614807040	52	6393
2026-01-20 00:44:50.61	322.85	43.19	-39.2	-40.2	21.9	0.00e+00	123	42	0	1616904192	52	5707
2026-01-20 00:44:51.76	323.06	42.89	-38.8	-39.8	22.3	0.00e+00	122	42	0	1621098496	52	5449
2026-01-20 00:44:52.63	323.21	42.66	-38.7	-39.6	22.5	0.00e+00	122	42	0	1623195648	50	5978
2026-01-20 00:44:53.78	323.41	42.35	-38.9	-40.0	22.2	0.00e+00	122	42	0	1627389952	50	6206
2026-01-20 00:44:54.65	323.56	42.13	-39.2	-40.2	21.8	0.00e+00	122	42	0	1629487104	50	6399
2026-01-20 00:44:55.80	323.75	41.83	-39.4	-40.5	21.8	0.00e+00	123	42	0	1633681408	50	6606
2026-01-20 00:44:56.67	323.90	41.61	-39.4	-40.4	21.9	0.00e+00	123	42	0	1635778560	50	6556
2026-01-20 00:44:57.82	324.09	41.31	-38.9	-40.0	22.1	0.00e+00	122	42	0	1639972864	50	6232
2026-01-20 00:44:58.69	324.23	41.09	-39.0	-40.1	22.0	0.00e+00	123	42	0	1642070016	50	6301
2026-01-20 00:44:59.84	324.41	40.80	-39.1	-40.2	21.9	0.00e+00	122	42	0	1646264320	50	6403
2026-01-20 00:45:00.70	324.55	40.58	-39.1	-40.1	22.1	0.00e+00	123	42	0	1648361472	50	6300
2026-01-20 00:45:01.86	324.72	40.29	-39.0	-40.0	22.2	0.00e+00	123	42	0	1652555776	50	6239
2026-01-20 00:45:02.72	324.85	40.08	-39.1	-40.1	22.0	0.00e+00	123	42	0	1654652928	50	6333
2026-01-20 00:45:03.87	325.03	39.80	-39.4	-40.5	21.8	0.00e+00	122	42	0	1658847232	50	6578
2026-01-20 00:45:04.74	325.15	39.58	-39.6	-40.7	21.7	0.00e+00	123	42	0	1661992960	50	6729
2026-01-20 00:45:05.89	325.32	39.30	-39.5	-40.6	21.6	0.00e+00	122	42	0	1665138688	50	6683
2026-01-20 00:45:06.76	325.45	39.09	-39.3	-40.4	21.8	0.00e+00	123	42	0	1667235840	50	6521
2026-01-20 00:45:07.92	325.61	38.81	-39.1	-40.1	22.2	0.00e+00	122	42	0	1671430144	50	6296
2026-01-20 00:45:08.78	325.73	38.61	-38.7	-39.7	22.5	0.00e+00	123	42	0	1674575872	50	6021
2026-01-20 00:45:09.94	325.89	38.33	-38.0	-38.9	23.2	0.00e+00	122	42	0	1677721600	50	5495
2026-01-20 00:45:10.80	326.00	38.13	-37.5	-38.4	23.3	0.00e+00	122	42	0	1680867328	48	5808
2026-01-20 00:45:11.96	326.16	37.86	-37.6	-38.5	23.3	0.00e+00	120	42	0	1684013056	48	5878
2026-01-20 00:45:12.82	326.27	37.66	-37.8	-38.8	23.1	0.00e+00	123	42	0	1687158784	48	6090
2026-01-20 00:45:13.97	326.42	37.39	-38.2	-39.2	22.8	0.00e+00	120	42	0	1690304512	48	6381
2026-01-20 00:45:14.84	326.53	37.19	-38.3	-39.3	22.8	0.00e+00	122	42	0	1693450240	48	6459
2026-01-20 00:45:15.99	326.68	36.93	-36.3	-39.6	19.2	2.28e-02	123	42	0	1696595968	44	8387
2026-01-20 00:45:16.86	326.78	36.73	-36.1	-39.0	19.2	1.60e-02	120	42	0	1699741696	44	7900
2026-01-20 00:45:18.01	326.92	36.47	-35.8	-38.7	19.2	1.64e-02	122	42	0	1702887424	44	7593
2026-01-20 00:45:18.88	327.03	36.27	-35.9	-38.7	18.9	2.16e-02	123	42	0	1706033152	44	7634
2026-01-20 00:45:20.03	327.17	36.02	-35.7	-38.8	18.9	2.06e-02	122	42	0	1709178880	44	7677
2026-01-20 00:45:20.90	327.27	35.82	-36.0	-39.1	19.8	1.84e-02	120	42	0	1712324608	44	7931
2026-01-20 00:45:22.05	327.40	35.57	-38.2	-39.1	23.1	0.00e+00	123	42	0	1715470336	48	6335
2026-01-20 00:45:22.92	327.50	35.38	-38.6	-39.6	22.8	0.00e+00	123	42	0	1718616064	48	6651
2026-01-20 00:45:24.07	327.63	35.13	-38.6	-39.6	22.7	0.00e+00	122	42	0	1721761792	48	6678
2026-01-20 00:45:24.94	327.73	34.94	-38.5	-39.5	22.6	0.00e+00	123	42	0	1724907520	48	6593
2026-01-20 00:45:26.09	327.86	34.70	-39.0	-40.1	21.4	0.00e+00	123	42	0	1728053248	50	6321
2026-01-20 00:45:26.95	327.95	34.51	-39.2	-40.4	20.3	9.86e-04	122	42	0	1731198976	50	6552
2026-01-20 00:45:28.11	328.08	34.27	-39.2	-40.4	20.6	4.92e-04	123	42	0	1734344704	50	6523
2026-01-20 00:45:28.97	328.17	34.09	-38.8	-40.0	21.6	6.33e-05	123	42	0	1737490432	50	6228
2026-01-20 00:45:30.13	328.29	33.84	-38.4	-39.5	21.8	0.00e+00	123	42	0	1740636160	50	5885
2026-01-20 00:45:30.99	328.38	33.67	-37.7	-38.7	21.8	0.00e+00	122	42	0	1743781888	48	6045
2026-01-20 00:45:32.14	328.50	33.43	-37.3	-38.3	23.0	0.00e+00	123	42	0	1746927616	48	5745
2026-01-20 00:45:33.01	328.58	33.25	-37.5	-38.4	23.2	0.00e+00	122	42	0	1750073344	48	5853
2026-01-20 00:45:34.17	328.70	33.01	-36.9	-37.8	23.6	0.00e+00	122	42	0	1753219072	48	5461
2026-01-20 00:45:35.03	328.78	32.84	-36.9	-37.8	23.7	0.00e+00	123	42	0	1756364800	48	5433
2026-01-20 00:45:36.19	328.90	32.61	-36.6	-37.5	24.0	0.00e+00	122	42	0	1759510528	46	5915
2026-01-20 00:45:37.05	328.98	32.43	-36.8	-37.6	24.1	0.00e+00	123	42	0	1762656256	46	5990
2026-01-20 00:45:38.21	329.09	32.20	-36.6	-37.5	24.3	0.00e+00	122	42	0	1765801984	46	5880
2026-01-20 00:45:39.07	329.17	32.03	-36.7	-37.6	24.1	0.00e+00	123	42	0	1768947712	46	5971
2026-01-20 00:45:40.23	329.28	31.81	-36.6	-37.5	24.3	0.00e+00	123	42	0	1772093440	46	5862
2026-01-20 00:45:41.09	329.36	31.64	-36.5	-37.4	24.2	0.00e+00	123	42	0	1775239168	46	5841
2026-01-20 00:45:42.25	329.46	31.41	-36.8	-37.6	24.3	0.00e+00	123	42	0	1778384896	46	5988
2026-01-20 00:45:43.11	329.54	31.25	-36.6	-37.5	24.2	0.00e+00	122	42	0	1781530624	46	5905
2026-01-20 00:45:44.27	329.65	31.03	-36.7	-37.6	24.3	0.00e+00	122	42	0	1784676352	46	5929
2026-01-20 00:45:45.13	329.72	30.86	-36.7	-37.5	24.3	0.00e+00	120	42	0	1787822080	46	5918
2026-01-20 00:45:46.29	329.82	30.64	-36.9	-37.8	24.1	0.00e+00	123	42	0	1790967808	46	6099
2026-01-20 00:45:47.15	329.90	30.48	-37.1	-38.0	24.0	0.00e+00	122	42	0	1794113536	46	6235
2026-01-20 00:45:48.31	329.99	30.27	-37.2	-38.1	23.8	0.00e+00	123	42	0	1797259264	46	6306
2026-01-20 00:45:49.17	330.07	30.11	-37.3	-38.2	23.6	0.00e+00	120	42	0	1800404992	46	6388
2026-01-20 00:45:50.33	330.16	29.89	-37.5	-38.4	23.5	0.00e+00	123	42	0	1803550720	46	6567
2026-01-20 00:45:51.19	330.23	29.74	-37.5	-38.5	23.4	0.00e+00	120	42	0	1806696448	46	6586
2026-01-20 00:45:52.35	330.33	29.52	-37.6	-38.5	23.5	0.00e+00	122	42	0	1809842176	46	6625
2026-01-20 00:45:53.21	330.40	29.37	-37.8	-38.7	23.6	0.00e+00	123	42	0	1812987904	46	6770
2026-01-20 00:45:54.37	330.49	29.16	-37.5	-38.4	23.5	0.00e+00	122	42	0	1816133632	48	5831
2026-01-20 00:45:55.23	330.56	29.01	-37.2	-38.2	23.7	0.00e+00	123	42	0	1819279360	48	5663
2026-01-20 00:45:56.39	330.65	28.80	-37.3	-38.2	23.7	0.00e+00	120	42	0	1822425088	48	5714
2026-01-20 00:45:57.25	330.71	28.65	-37.3	-38.3	23.6	0.00e+00	122	42	0	1825570816	48	5751
2026-01-20 00:45:58.40	330.80	28.45	-37.3	-38.3	23.6	0.00e+00	122	42	0	1828716544	48	5741
2026-01-20 00:45:59.27	330.87	28.30	-37.3	-38.3	23.6	0.00e+00	123	42	0	1831862272	48	5749
2026-01-20 00:46:00.42	330.95	28.10	-37.4	-38.3	23.6	0.00e+00	123	42	0	1835008000	48	5765
2026-01-20 00:46:01.29	331.02	27.95	-37.3	-38.2	23.7	0.00e+00	123	42	0	1838153728	48	5719
2026-01-20 00:46:02.44	331.10	27.75	-37.4	-38.3	23.6	0.00e+00	122	42	0	1841299456	48	5775
2026-01-20 00:46:03.31	331.16	27.60	-37.2	-38.2	23.6	0.00e+00	123	42	0	1844445184	48	5677
2026-01-20 00:46:04.46	331.25	27.41	-37.2	-38.1	23.7	0.00e+00	122	42	0	1847590912	48	5643
2026-01-20 00:46:05.32	331.31	27.26	-37.4	-38.3	23.9	0.00e+00	120	42	0	1850736640	48	5784
2026-01-20 00:46:06.48	331.39	27.07	-37.3	-38.2	24.0	0.00e+00	120	42	0	1854930944	48	5703
2026-01-20 00:46:07.34	331.45	26.93	-37.0	-37.9	24.2	0.00e+00	123	42	0	1857028096	48	5483
2026-01-20 00:46:08.50	331.53	26.73	-36.9	-37.8	24.3	0.00e+00	123	42	0	1861222400	46	6067
2026-01-20 00:46:09.36	331.59	26.59	-36.8	-37.7	24.4	0.00e+00	123	42	0	1863319552	46	6015
2026-01-20 00:46:10.52	331.67	26.40	-36.6	-37.5	24.5	0.00e+00	122	42	0	1866465280	46	5886
2026-01-20 00:46:11.38	331.72	26.26	-36.4	-37.3	24.5	0.00e+00	123	42	0	1869611008	46	5746
2026-01-20 00:46:12.54	331.80	26.08	-36.8	-37.7	24.5	0.00e+00	122	42	0	1873805312	46	6018
2026-01-20 00:46:13.40	331.86	25.94	-36.5	-37.3	24.6	0.00e+00	122	42	0	1875902464	46	5790
2026-01-20 00:46:14.56	331.93	25.75	-36.5	-37.4	24.7	0.00e+00	123	42	0	1880096768	46	5796
2026-01-20 00:46:15.42	331.99	25.62	-36.3	-37.1	24.7	0.00e+00	123	42	0	1882193920	46	5628
2026-01-20 00:46:16.58	332.06	25.43	-36.1	-37.0	24.6	0.00e+00	122	42	0	1886388224	46	5574
2026-01-20 00:46:17.44	332.12	25.30	-36.2	-37.1	24.6	0.00e+00	123	42	0	1888485376	46	5616
2026-01-20 00:46:18.60	332.19	25.12	-36.7	-37.6	24.3	0.00e+00	123	42	0	1892679680	46	5931
2026-01-20 00:46:19.46	332.24	24.99	-36.3	-37.2	24.4	0.00e+00	123	42	0	1894776832	46	5686
2026-01-20 00:46:20.62	332.32	24.81	-36.1	-37.0	24.7	0.00e+00	123	42	0	1898971136	46	5555
2026-01-20 00:46:21.48	332.37	24.67	-36.1	-37.0	24.6	0.00e+00	123	42	0	1901068288	46	5549
2026-01-20 00:46:22.64	332.44	24.50	-36.2	-37.1	24.7	0.00e+00	123	42	0	1905262592	46	5608
2026-01-20 00:46:23.51	332.49	24.37	-36.3	-37.1	24.5	0.00e+00	123	42	0	1907359744	46	5648
2026-01-20 00:46:24.66	332.56	24.19	-36.2	-37.1	24.6	0.00e+00	122	42	0	1911554048	46	5607
2026-01-20 00:46:25.53	332.61	24.06	-36.1	-36.9	24.7	0.00e+00	123	42	0	1913651200	46	5515
2026-01-20 00:46:26.68	332.68	23.89	-36.4	-37.3	24.5	0.00e+00	122	42	0	1917845504	46	5764
2026-01-20 00:46:27.55	332.73	23.76	-36.7	-37.6	24.5	0.00e+00	122	42	0	1919942656	46	5979
2026-01-20 00:46:28.70	332.79	23.59	-36.8	-37.6	24.4	0.00e+00	123	42	0	1924136960	46	5974
2026-01-20 00:46:29.57	332.84	23.47	-37.0	-37.9	24.4	0.00e+00	122	42	0	1926234112	46	6195
2026-01-20 00:46:30.73	332.91	23.30	-36.9	-37.8	24.4	0.00e+00	123	42	0	1930428416	46	6072
2026-01-20 00:46:31.59	332.96	23.17	-36.8	-37.7	24.3	0.00e+00	123	42	0	1932525568	46	6015
2026-01-20 00:46:32.74	333.02	23.01	-37.0	-37.8	24.3	0.00e+00	123	42	0	1936719872	46	6134
2026-01-20 00:46:33.61	333.07	22.88	-37.4	-38.3	24.1	0.00e+00	122	42	0	1938817024	46	6498
2026-01-20 00:46:34.76	333.13	22.72	-37.3	-38.2	24.0	0.00e+00	122	42	0	1943011328	46	6388
2026-01-20 00:46:35.63	333.18	22.60	-37.1	-38.0	24.2	0.00e+00	123	42	0	1945108480	46	6260
2026-01-20 00:46:36.78	333.24	22.43	-36.9	-37.8	24.3	0.00e+00	122	42	0	1949302784	46	6083
2026-01-20 00:46:37.65	333.28	22.31	-36.9	-37.8	24.3	0.00e+00	123	42	0	1951399936	46	6117
2026-01-20 00:46:38.80	333.34	22.15	-37.4	-38.3	24.0	0.00e+00	122	42	0	1955594240	46	6435
2026-01-20 00:46:39.67	333.39	22.03	-37.0	-37.9	24.2	0.00e+00	122	42	0	1957691392	46	6178
2026-01-20 00:46:40.82	333.45	21.87	-36.9	-37.8	24.1	0.00e+00	120	42	0	1961885696	46	6101
2026-01-20 00:46:41.69	333.49	21.75	-36.9	-37.8	23.9	0.00e+00	122	42	0	1963982848	46	6096
