passes_logs/2026/01/20/R4.6S_Anadyr/R4.6S_Anadyr__20260120_000135_2025-108B_rec.log

#Pass ID: 20260120_000135_2025-108B
#Satellite: 2025-108B
#Configuration: 3PB_600M
#almurnet v.1.7.20251203
#Start time: 2026-01-20 00:01:39

#Version: 2.2.20231116
#Station: R4.6S_Anadyr
#Location: 177.4865 lon 64.73178 lat
#TLE: 1 64088U 25108B   26019.25903941  .00010038  00000+0  50324-3 0  9991
#TLE: 2 64088  97.4888  96.7170 0013028 163.0725 197.0946 15.17470711 36762

#Time	Az	El	Level	Level2	SNR	BER	BlckErr	Temp	State	Recorded	gain1	gain2
2026-01-20 00:01:39.55	17.38	0.25	-51.5	-66.5	3.5	1.51e+00	0	40	0	0	60	76141
2026-01-20 00:01:40.56	17.37	0.31	-48.1	-50.4	3.6	0.00e+00	0	41	104	0	60	40790
2026-01-20 00:01:41.57	17.36	0.38	-48.2	-50.5	3.6	0.00e+00	0	41	104	0	60	41011
2026-01-20 00:01:42.58	17.34	0.44	-47.8	-50.1	3.6	0.00e+00	0	41	104	0	60	39178
2026-01-20 00:01:43.59	17.33	0.51	-47.7	-50.1	3.6	0.00e+00	0	41	104	0	60	39166
2026-01-20 00:01:44.60	17.32	0.57	-47.4	-49.8	3.6	0.00e+00	0	41	104	0	60	37673
2026-01-20 00:01:45.61	17.31	0.64	-47.1	-49.4	3.6	0.00e+00	0	41	104	0	60	36256
2026-01-20 00:01:46.62	17.29	0.71	-46.8	-49.3	3.6	0.00e+00	0	41	104	0	60	35581
2026-01-20 00:01:47.63	17.28	0.77	-47.0	-49.4	3.6	0.00e+00	0	42	104	0	60	35949
2026-01-20 00:01:48.64	17.27	0.84	-46.9	-49.2	3.6	0.00e+00	0	42	104	0	60	35471
2026-01-20 00:01:49.65	17.25	0.90	-46.9	-49.3	3.6	0.00e+00	0	42	104	0	60	35668
2026-01-20 00:01:50.66	17.24	0.97	-46.8	-49.1	3.6	0.00e+00	0	42	104	0	60	34994
2026-01-20 00:01:51.67	17.23	1.04	-46.9	-49.2	3.6	0.00e+00	0	42	104	0	60	35286
2026-01-20 00:01:52.68	17.21	1.10	-46.7	-49.0	3.6	0.00e+00	0	42	104	0	60	34414
2026-01-20 00:01:53.69	17.20	1.17	-46.4	-48.8	3.6	0.00e+00	0	42	104	0	60	33674
2026-01-20 00:01:54.70	17.19	1.24	-46.3	-48.6	3.6	0.00e+00	0	42	104	0	60	32992
2026-01-20 00:01:55.71	17.17	1.31	-46.1	-48.4	3.6	0.00e+00	0	42	104	0	60	32397
2026-01-20 00:01:56.72	17.16	1.37	-45.9	-48.3	3.6	0.00e+00	0	42	104	0	60	31858
2026-01-20 00:01:57.73	17.15	1.44	-45.9	-48.2	3.6	0.00e+00	0	42	104	0	60	31543
2026-01-20 00:01:58.74	17.13	1.51	-45.6	-48.0	3.6	0.00e+00	0	42	104	0	60	30602
2026-01-20 00:01:59.75	17.12	1.58	-45.3	-47.6	3.6	0.00e+00	0	42	104	0	60	29540
2026-01-20 00:02:00.76	17.10	1.65	-45.3	-47.6	3.6	0.00e+00	0	42	104	0	60	29263
2026-01-20 00:02:01.77	17.09	1.71	-45.2	-47.5	3.6	0.00e+00	0	42	104	0	60	29084
2026-01-20 00:02:02.78	17.08	1.78	-45.2	-47.6	3.6	0.00e+00	0	42	104	0	60	29279
2026-01-20 00:02:03.79	17.06	1.85	-45.3	-47.6	3.6	0.00e+00	0	42	104	0	60	29347
2026-01-20 00:02:04.80	17.05	1.92	-45.2	-47.6	3.6	0.00e+00	0	42	104	0	60	29436
2026-01-20 00:02:05.81	17.03	1.99	-45.2	-47.6	3.6	0.00e+00	0	42	104	0	60	29370
2026-01-20 00:02:06.82	17.02	2.06	-45.2	-47.5	3.6	0.00e+00	0	42	104	0	60	29178
2026-01-20 00:02:07.82	17.00	2.13	-45.3	-47.6	3.6	0.00e+00	0	42	104	0	60	29537
2026-01-20 00:02:08.83	16.99	2.20	-45.3	-47.6	3.6	0.00e+00	0	42	104	0	60	29344
2026-01-20 00:02:09.84	16.97	2.27	-45.2	-47.5	3.6	0.00e+00	0	42	104	0	60	29173
2026-01-20 00:02:10.85	16.96	2.34	-45.2	-47.5	3.6	0.00e+00	0	42	104	0	60	29152
2026-01-20 00:02:11.86	16.94	2.41	-45.2	-47.6	3.6	0.00e+00	0	42	104	0	60	29219
2026-01-20 00:02:12.87	16.92	2.48	-45.2	-47.5	3.6	0.00e+00	0	42	104	0	60	29078
2026-01-20 00:02:13.88	16.91	2.55	-45.2	-47.5	3.6	0.00e+00	0	42	104	0	60	28901
2026-01-20 00:02:14.88	16.89	2.63	-45.1	-47.5	3.6	0.00e+00	0	42	104	0	60	29039
2026-01-20 00:02:15.89	16.88	2.70	-45.1	-47.5	3.5	0.00e+00	0	42	104	0	60	28918
2026-01-20 00:02:16.90	16.86	2.77	-45.1	-47.5	3.6	0.00e+00	0	42	104	0	60	28997
2026-01-20 00:02:17.91	16.84	2.84	-45.1	-47.5	3.6	0.00e+00	0	42	104	0	60	28962
2026-01-20 00:02:18.92	16.83	2.91	-45.1	-47.5	3.6	0.00e+00	0	42	104	0	60	29092
2026-01-20 00:02:19.93	16.81	2.99	-45.1	-47.5	3.6	0.00e+00	0	42	104	0	60	29026
2026-01-20 00:02:20.94	16.80	3.06	-45.1	-47.4	3.6	0.00e+00	0	42	104	0	60	28863
2026-01-20 00:02:21.95	16.78	3.13	-45.1	-47.4	3.6	0.00e+00	0	42	104	0	60	28769
2026-01-20 00:02:22.96	16.76	3.21	-45.1	-47.4	3.6	0.00e+00	0	42	104	0	60	28859
2026-01-20 00:02:23.97	16.74	3.28	-45.1	-47.4	3.6	0.00e+00	0	42	104	0	60	28840
2026-01-20 00:02:24.98	16.73	3.35	-45.1	-47.4	3.6	0.00e+00	0	42	104	0	60	28838
2026-01-20 00:02:25.99	16.71	3.43	-45.1	-47.4	3.6	0.00e+00	0	42	104	0	60	28744
2026-01-20 00:02:27.00	16.69	3.50	-45.1	-47.4	3.6	0.00e+00	0	42	104	0	60	28869
2026-01-20 00:02:28.01	16.68	3.58	-45.1	-47.4	3.6	0.00e+00	0	42	104	0	60	28825
2026-01-20 00:02:29.02	16.66	3.65	-45.0	-47.4	3.6	0.00e+00	0	42	104	0	60	28762
2026-01-20 00:02:30.03	16.64	3.73	-45.0	-47.4	3.6	0.00e+00	0	42	104	0	60	28738
2026-01-20 00:02:31.04	16.62	3.80	-45.0	-47.4	3.6	0.00e+00	0	42	104	0	60	28793
2026-01-20 00:02:32.05	16.60	3.88	-45.0	-47.4	3.6	0.00e+00	0	42	104	0	60	28819
2026-01-20 00:02:33.06	16.59	3.96	-45.0	-47.4	3.6	0.00e+00	0	42	104	0	60	28766
2026-01-20 00:02:34.07	16.57	4.03	-45.0	-47.4	3.6	0.00e+00	0	42	104	0	60	28757
2026-01-20 00:02:35.08	16.55	4.11	-45.3	-47.7	3.6	0.00e+00	0	43	104	0	60	29641
2026-01-20 00:02:36.09	16.53	4.19	-45.0	-47.6	3.6	0.00e+00	0	42	104	0	60	29302
2026-01-20 00:02:37.10	16.51	4.26	-45.1	-47.4	3.6	0.00e+00	0	42	104	0	60	28844
2026-01-20 00:02:38.11	16.49	4.34	-45.4	-47.8	3.6	0.00e+00	0	42	104	0	60	29986
2026-01-20 00:02:39.12	16.47	4.42	-45.1	-47.4	3.6	0.00e+00	0	42	104	0	60	28863
2026-01-20 00:02:40.13	16.45	4.50	-45.2	-47.7	3.6	0.00e+00	0	43	104	0	60	29874
2026-01-20 00:02:41.14	16.43	4.58	-45.3	-47.6	3.5	0.00e+00	0	43	104	0	60	29506
2026-01-20 00:02:42.14	16.41	4.65	-45.5	-47.9	3.6	0.00e+00	0	42	104	0	60	30318
2026-01-20 00:02:43.16	16.39	4.73	-45.2	-47.5	3.6	0.00e+00	0	42	104	0	60	29171
2026-01-20 00:02:44.17	16.37	4.81	-45.3	-47.8	3.6	0.00e+00	0	42	104	0	60	30226
2026-01-20 00:02:45.18	16.35	4.89	-45.4	-47.7	3.6	0.00e+00	0	43	104	0	60	29715
2026-01-20 00:02:46.19	16.33	4.97	-45.6	-47.9	3.6	0.00e+00	0	43	104	0	60	30546
2026-01-20 00:02:47.20	16.31	5.05	-45.3	-47.7	3.6	0.00e+00	0	42	104	0	60	29710
2026-01-20 00:02:48.20	16.29	5.13	-45.4	-47.9	3.6	0.00e+00	0	42	104	0	60	30578
2026-01-20 00:02:49.21	16.27	5.21	-45.5	-47.9	3.6	0.00e+00	0	42	104	0	60	30447
2026-01-20 00:02:50.22	16.25	5.29	-45.7	-48.1	3.6	0.00e+00	0	42	104	0	60	31044
2026-01-20 00:02:51.23	16.23	5.38	-45.5	-47.9	3.6	0.00e+00	0	42	104	0	60	30289
2026-01-20 00:02:52.24	16.21	5.46	-45.4	-48.0	3.6	0.00e+00	0	43	104	0	60	30783
2026-01-20 00:02:53.25	16.19	5.54	-45.7	-48.0	3.6	0.00e+00	0	43	104	0	60	30873
2026-01-20 00:02:54.26	16.16	5.62	-45.8	-48.1	3.6	0.00e+00	0	43	104	0	60	31213
2026-01-20 00:02:55.27	16.14	5.71	-45.6	-47.9	3.6	0.00e+00	0	43	104	0	60	30491
2026-01-20 00:02:56.28	16.12	5.79	-45.4	-48.0	3.6	0.00e+00	0	43	104	0	60	30916
2026-01-20 00:02:57.29	16.10	5.87	-45.6	-48.0	3.6	0.00e+00	0	43	104	0	60	30680
2026-01-20 00:02:58.30	16.07	5.96	-45.8	-48.1	3.6	0.00e+00	0	43	104	0	60	31288
2026-01-20 00:02:59.31	16.05	6.04	-45.7	-48.0	3.6	0.00e+00	0	43	104	0	60	30648
2026-01-20 00:03:00.31	16.03	6.12	-45.5	-48.1	3.6	0.00e+00	0	43	104	0	60	31172
2026-01-20 00:03:01.32	16.01	6.21	-45.7	-48.0	3.6	0.00e+00	0	43	104	0	60	30909
2026-01-20 00:03:02.33	15.98	6.30	-45.8	-48.1	3.6	0.00e+00	0	43	104	0	60	31199
2026-01-20 00:03:03.34	15.96	6.38	-45.7	-48.0	3.6	0.00e+00	0	43	104	0	60	30845
2026-01-20 00:03:04.35	15.94	6.47	-45.5	-48.1	3.6	0.00e+00	0	43	104	0	60	31277
2026-01-20 00:03:05.36	15.91	6.55	-45.7	-48.0	3.6	0.00e+00	0	43	104	0	60	30787
2026-01-20 00:03:06.37	15.89	6.64	-45.7	-48.1	3.6	0.00e+00	0	43	104	0	60	31003
2026-01-20 00:03:07.38	15.86	6.73	-45.6	-48.0	3.6	0.00e+00	0	43	104	0	60	30709
2026-01-20 00:03:08.39	15.84	6.82	-45.4	-48.0	3.6	0.00e+00	0	43	104	0	60	30880
2026-01-20 00:03:09.40	15.81	6.90	-45.7	-48.1	3.6	0.00e+00	0	43	104	0	60	30976
2026-01-20 00:03:10.41	15.79	6.99	-45.7	-48.1	3.6	0.00e+00	0	43	104	0	60	31294
2026-01-20 00:03:11.42	15.76	7.08	-45.7	-48.1	3.6	0.00e+00	0	43	104	0	60	30945
2026-01-20 00:03:12.43	15.74	7.17	-45.4	-48.1	3.6	0.00e+00	0	43	104	0	60	31066
2026-01-20 00:03:13.44	15.71	7.26	-45.8	-48.1	3.6	0.00e+00	0	43	104	0	60	31037
2026-01-20 00:03:14.45	15.69	7.35	-45.8	-48.2	3.6	0.00e+00	0	43	104	0	60	31543
2026-01-20 00:03:15.46	15.66	7.44	-45.8	-48.1	3.6	0.00e+00	0	43	104	0	60	31181
2026-01-20 00:03:16.47	15.63	7.53	-45.5	-48.2	3.6	0.00e+00	0	43	104	0	60	31368
2026-01-20 00:03:17.48	15.61	7.62	-45.7	-48.1	3.6	0.00e+00	0	43	104	0	60	31204
2026-01-20 00:03:18.49	15.58	7.71	-45.8	-48.2	3.6	0.00e+00	0	43	104	0	60	31418
2026-01-20 00:03:19.50	15.55	7.81	-45.8	-48.1	3.6	0.00e+00	0	43	104	0	60	31115
2026-01-20 00:03:20.51	15.53	7.90	-45.4	-48.1	3.6	0.00e+00	0	43	104	0	60	31276
2026-01-20 00:03:21.52	15.50	7.99	-45.8	-48.1	3.6	0.00e+00	0	43	104	0	60	31287
2026-01-20 00:03:22.53	15.47	8.09	-45.8	-48.2	3.6	0.00e+00	0	43	104	0	60	31548
2026-01-20 00:03:23.53	15.44	8.18	-45.8	-48.2	3.6	0.00e+00	0	43	104	0	60	31305
2026-01-20 00:03:24.54	15.41	8.27	-45.4	-48.2	3.6	0.00e+00	0	43	104	0	60	31415
2026-01-20 00:03:25.55	15.39	8.37	-45.8	-48.1	3.6	0.00e+00	0	43	104	0	60	31247
2026-01-20 00:03:26.56	15.36	8.46	-45.8	-48.3	3.6	0.00e+00	0	43	104	0	60	31664
2026-01-20 00:03:27.57	15.33	8.56	-45.8	-48.2	3.6	0.00e+00	0	43	104	0	60	31484
2026-01-20 00:03:28.58	15.30	8.66	-45.5	-48.2	3.6	0.00e+00	0	43	104	0	60	31327
2026-01-20 00:03:29.59	15.27	8.75	-45.8	-48.2	3.6	0.00e+00	0	43	104	0	60	31610
2026-01-20 00:03:30.60	15.24	8.85	-45.8	-48.3	3.6	0.00e+00	0	43	104	0	60	31738
2026-01-20 00:03:31.61	15.21	8.95	-45.8	-48.2	3.6	0.00e+00	0	43	104	0	60	31346
2026-01-20 00:03:32.62	15.18	9.05	-45.6	-48.3	3.6	0.00e+00	0	43	104	0	60	31843
2026-01-20 00:03:33.63	15.15	9.15	-45.8	-48.2	3.6	0.00e+00	0	43	104	0	60	31430
2026-01-20 00:03:34.64	15.11	9.25	-45.8	-48.3	3.6	0.00e+00	0	43	104	0	60	31862
2026-01-20 00:03:35.65	15.08	9.35	-45.9	-48.2	3.6	0.00e+00	0	43	104	0	60	31562
2026-01-20 00:03:36.66	15.05	9.45	-45.6	-48.2	3.6	0.00e+00	0	43	104	0	60	31556
2026-01-20 00:03:37.67	15.02	9.55	-46.0	-48.3	3.6	0.00e+00	0	43	104	0	60	31696
2026-01-20 00:03:38.68	14.99	9.65	-45.8	-48.4	3.6	0.00e+00	0	43	104	0	60	32093
2026-01-20 00:03:39.69	14.95	9.75	-45.9	-48.3	3.6	0.00e+00	0	43	104	0	60	31788
2026-01-20 00:03:40.70	14.92	9.85	-45.6	-48.3	3.6	0.00e+00	0	43	104	0	60	31965
2026-01-20 00:03:41.71	14.89	9.96	-46.0	-48.3	3.6	0.00e+00	0	43	104	0	60	31918
2026-01-20 00:03:42.72	14.85	10.06	-45.8	-48.3	3.6	0.00e+00	0	43	104	0	60	31870
2026-01-20 00:03:43.73	14.82	10.16	-45.9	-48.3	3.6	0.00e+00	0	43	104	0	60	31781
2026-01-20 00:03:44.74	14.79	10.27	-45.6	-48.3	3.6	0.00e+00	0	43	104	0	60	31953
2026-01-20 00:03:45.75	14.75	10.37	-46.0	-48.3	3.6	0.00e+00	0	43	104	0	60	31864
2026-01-20 00:03:46.76	14.72	10.48	-45.7	-48.3	3.6	0.00e+00	0	43	104	0	60	31971
2026-01-20 00:03:47.77	14.68	10.59	-45.8	-48.3	3.6	0.00e+00	0	43	104	0	60	31963
2026-01-20 00:03:48.78	14.65	10.69	-45.7	-48.3	3.6	0.00e+00	0	43	104	0	60	31745
2026-01-20 00:03:49.79	14.61	10.80	-46.0	-48.4	3.6	0.00e+00	0	43	104	0	60	32056
2026-01-20 00:03:50.80	14.57	10.91	-45.9	-48.4	3.6	0.00e+00	0	43	104	0	60	32062
2026-01-20 00:03:51.80	14.54	11.02	-45.9	-48.5	3.6	0.00e+00	0	43	104	0	60	32473
2026-01-20 00:03:52.82	14.50	11.13	-45.9	-48.4	3.6	0.00e+00	0	43	104	0	60	32345
2026-01-20 00:03:53.83	14.46	11.24	-46.1	-48.4	3.6	0.00e+00	0	43	104	0	60	32370
2026-01-20 00:03:54.84	14.42	11.35	-45.9	-48.5	3.6	0.00e+00	0	43	104	0	60	32410
2026-01-20 00:03:55.84	14.39	11.46	-45.9	-48.4	3.6	0.00e+00	0	43	104	0	60	32176
2026-01-20 00:03:56.85	14.35	11.57	-46.0	-48.4	3.6	0.00e+00	0	43	104	0	60	32222
2026-01-20 00:03:57.86	14.31	11.69	-46.0	-48.4	3.6	0.00e+00	0	43	104	0	60	32153
2026-01-20 00:03:58.87	14.27	11.80	-45.9	-48.4	3.6	0.00e+00	0	43	104	0	60	32164
2026-01-20 00:03:59.88	14.23	11.91	-45.8	-48.4	3.6	0.00e+00	0	43	104	0	60	32162
2026-01-20 00:04:00.89	14.19	12.03	-45.9	-48.4	3.6	0.00e+00	0	43	104	0	60	32133
2026-01-20 00:04:01.90	14.15	12.15	-46.1	-48.4	3.6	0.00e+00	0	43	104	0	60	32365
2026-01-20 00:04:02.91	14.11	12.26	-46.0	-48.4	3.6	0.00e+00	0	43	104	0	60	32323
2026-01-20 00:04:03.91	14.06	12.38	-45.7	-48.4	3.6	0.00e+00	0	43	104	0	60	32260
2026-01-20 00:04:04.93	14.02	12.50	-46.1	-48.4	3.6	0.00e+00	0	43	104	0	60	32380
2026-01-20 00:04:05.94	13.98	12.62	-46.1	-48.5	3.6	0.00e+00	0	43	104	0	60	32403
2026-01-20 00:04:06.95	13.94	12.73	-46.1	-48.4	3.6	0.00e+00	0	43	104	0	60	32361
2026-01-20 00:04:07.96	13.89	12.86	-45.7	-48.5	3.6	0.00e+00	0	43	104	0	60	32477
2026-01-20 00:04:08.97	13.85	12.98	-46.0	-48.4	3.6	0.00e+00	0	43	104	0	60	32133
2026-01-20 00:04:09.97	13.81	13.10	-46.1	-48.5	3.6	0.00e+00	0	43	104	0	60	32508
2026-01-20 00:04:10.99	13.76	13.22	-46.0	-48.4	3.6	0.00e+00	0	43	104	0	60	32254
2026-01-20 00:04:11.99	13.71	13.34	-45.7	-48.5	3.6	0.00e+00	0	43	104	0	60	32437
2026-01-20 00:04:13.01	13.67	13.47	-46.1	-48.4	3.6	0.00e+00	0	43	104	0	60	32400
2026-01-20 00:04:14.01	13.62	13.59	-46.1	-48.5	3.6	0.00e+00	0	43	104	0	60	32420
2026-01-20 00:04:15.02	13.58	13.72	-46.1	-48.4	3.6	0.00e+00	0	43	104	0	60	32354
2026-01-20 00:04:16.03	13.53	13.84	-45.6	-48.5	3.6	0.00e+00	0	43	104	0	60	32541
2026-01-20 00:04:17.04	13.48	13.97	-46.1	-48.5	3.6	0.00e+00	0	43	104	0	60	32493
2026-01-20 00:04:18.05	13.43	14.10	-46.1	-48.5	3.6	0.00e+00	0	43	104	0	60	32508
2026-01-20 00:04:19.06	13.38	14.23	-46.1	-48.5	3.6	0.00e+00	0	43	104	0	60	32594
2026-01-20 00:04:20.07	13.33	14.36	-45.6	-48.6	3.6	0.00e+00	0	43	104	0	60	32806
2026-01-20 00:04:21.08	13.28	14.49	-46.1	-48.5	3.6	0.00e+00	0	43	104	0	60	32570
2026-01-20 00:04:22.09	13.23	14.62	-46.1	-48.5	3.6	0.00e+00	0	43	104	0	60	32653
2026-01-20 00:04:23.10	13.18	14.75	-46.1	-48.5	3.6	0.00e+00	0	43	104	0	60	32445
2026-01-20 00:04:24.11	13.13	14.89	-45.6	-48.5	3.6	0.00e+00	0	43	104	0	60	32502
2026-01-20 00:04:25.12	13.08	15.02	-46.1	-48.5	3.6	0.00e+00	0	43	104	0	60	32500
2026-01-20 00:04:26.13	13.02	15.16	-46.1	-48.6	3.6	0.00e+00	0	43	104	0	60	32857
2026-01-20 00:04:27.14	12.97	15.29	-46.1	-48.5	3.6	0.00e+00	0	43	104	0	60	32537
2026-01-20 00:04:28.15	12.92	15.43	-45.6	-48.5	3.6	0.00e+00	0	43	104	0	60	32768
2026-01-20 00:04:29.16	12.86	15.57	-46.2	-48.5	3.6	0.00e+00	0	43	104	0	60	32693
2026-01-20 00:04:30.17	12.81	15.71	-46.2	-48.5	3.6	0.00e+00	0	43	104	0	60	32772
2026-01-20 00:04:31.18	12.75	15.85	-46.2	-48.6	3.6	0.00e+00	0	43	104	0	60	32934
2026-01-20 00:04:32.19	12.69	15.99	-45.7	-48.6	3.6	0.00e+00	0	43	104	0	60	32798
2026-01-20 00:04:33.20	12.64	16.13	-46.2	-48.6	3.6	0.00e+00	0	43	104	0	60	33085
2026-01-20 00:04:34.21	12.58	16.28	-46.3	-48.6	3.6	0.00e+00	0	43	104	0	60	33093
2026-01-20 00:04:35.22	12.52	16.42	-46.2	-48.5	3.6	0.00e+00	0	43	104	0	60	32674
2026-01-20 00:04:36.23	12.46	16.57	-45.7	-48.6	3.6	0.00e+00	0	43	104	0	60	33124
2026-01-20 00:04:37.24	12.40	16.71	-46.2	-48.5	3.6	0.00e+00	0	43	104	0	60	32679
2026-01-20 00:04:38.25	12.34	16.86	-46.2	-48.6	3.6	0.00e+00	0	43	104	0	60	33095
2026-01-20 00:04:39.26	12.28	17.01	-46.2	-48.5	3.6	0.00e+00	0	43	104	0	60	32709
2026-01-20 00:04:40.27	12.21	17.16	-45.6	-48.6	3.6	0.00e+00	0	43	104	0	60	32902
2026-01-20 00:04:41.28	12.15	17.31	-46.3	-48.6	3.6	0.00e+00	0	43	104	0	60	33035
2026-01-20 00:04:42.29	12.09	17.46	-46.2	-48.6	3.6	0.00e+00	0	43	104	0	60	33122
2026-01-20 00:04:43.30	12.02	17.62	-46.2	-48.6	3.6	0.00e+00	0	43	104	0	60	32817
2026-01-20 00:04:44.31	11.95	17.77	-45.7	-48.6	3.6	0.00e+00	0	43	104	0	60	32918
2026-01-20 00:04:45.32	11.89	17.93	-46.3	-48.6	3.6	0.00e+00	0	43	104	0	60	33117
2026-01-20 00:04:46.33	11.82	18.08	-46.3	-48.6	3.6	0.00e+00	0	43	104	0	60	33131
2026-01-20 00:04:47.34	11.75	18.24	-46.3	-48.7	3.6	0.00e+00	0	43	104	0	60	33365
2026-01-20 00:04:48.35	11.68	18.40	-45.7	-48.7	3.6	0.00e+00	0	43	104	0	60	33192
2026-01-20 00:04:49.35	11.61	18.56	-46.3	-48.7	3.5	0.00e+00	0	43	104	0	60	33265
2026-01-20 00:04:50.36	11.54	18.72	-46.2	-48.6	3.6	0.00e+00	0	43	104	0	60	33012
2026-01-20 00:04:51.37	11.47	18.89	-46.3	-48.6	3.6	0.00e+00	0	43	104	0	60	33056
2026-01-20 00:04:52.38	11.40	19.05	-45.6	-48.6	3.6	0.00e+00	0	43	104	0	60	33135
2026-01-20 00:04:53.39	11.32	19.22	-46.3	-48.6	3.6	0.00e+00	0	43	104	0	60	33040
2026-01-20 00:04:54.40	11.25	19.39	-46.2	-48.6	3.6	0.00e+00	0	43	104	0	60	32944
2026-01-20 00:04:55.41	11.17	19.55	-46.3	-48.6	3.6	0.00e+00	0	43	104	0	60	32851
2026-01-20 00:04:56.42	11.10	19.73	-45.5	-48.6	3.6	0.00e+00	0	43	104	0	60	32878
2026-01-20 00:04:57.43	11.02	19.90	-46.3	-48.6	3.6	0.00e+00	0	43	104	0	60	33028
2026-01-20 00:04:58.44	10.94	20.07	-46.1	-48.7	3.6	0.00e+00	0	43	104	0	60	33203
2026-01-20 00:04:59.45	10.86	20.25	-46.3	-48.6	3.6	0.00e+00	0	43	104	0	60	32944
2026-01-20 00:05:00.46	10.78	20.42	-45.4	-48.6	3.6	0.00e+00	0	43	104	0	60	33051
2026-01-20 00:05:01.47	10.69	20.60	-46.3	-48.7	3.6	0.00e+00	0	43	104	0	60	33317
2026-01-20 00:05:02.48	10.61	20.78	-46.0	-48.6	3.6	0.00e+00	0	43	104	0	60	32894
2026-01-20 00:05:03.49	10.53	20.96	-46.3	-48.6	3.6	0.00e+00	0	43	104	0	60	33148
2026-01-20 00:05:04.50	10.44	21.14	-45.4	-48.7	3.6	0.00e+00	0	43	104	0	60	33189
2026-01-20 00:05:05.51	10.35	21.33	-46.3	-48.7	3.6	0.00e+00	0	43	104	0	60	33214
2026-01-20 00:05:06.52	10.27	21.51	-46.0	-48.7	3.6	0.00e+00	0	43	104	0	60	33251
2026-01-20 00:05:07.53	10.18	21.70	-46.2	-48.6	3.6	0.00e+00	0	43	104	0	60	32798
2026-01-20 00:05:08.53	10.09	21.89	-45.4	-48.7	3.6	0.00e+00	0	43	104	0	60	33229
2026-01-20 00:05:09.54	9.99	22.08	-46.4	-48.8	3.6	0.00e+00	0	43	104	0	60	33637
2026-01-20 00:05:10.55	9.90	22.27	-46.0	-48.6	3.6	0.00e+00	0	43	104	0	60	33147
2026-01-20 00:05:11.56	9.81	22.46	-46.4	-48.7	3.6	0.00e+00	0	43	104	0	60	33441
2026-01-20 00:05:12.57	9.71	22.66	-45.4	-48.7	3.6	0.00e+00	0	43	104	0	60	33175
2026-01-20 00:05:13.58	9.61	22.86	-46.3	-48.7	3.6	0.00e+00	0	43	104	0	60	33317
2026-01-20 00:05:14.59	9.51	23.06	-45.9	-48.7	3.6	0.00e+00	0	43	104	0	60	33315
2026-01-20 00:05:15.60	9.41	23.26	-46.4	-48.7	3.6	0.00e+00	0	43	104	0	60	33387
2026-01-20 00:05:16.61	9.31	23.46	-45.4	-48.7	3.6	0.00e+00	0	43	104	0	60	33348
2026-01-20 00:05:17.62	9.21	23.67	-46.4	-48.8	3.6	0.00e+00	0	43	104	0	60	33656
2026-01-20 00:05:18.62	9.10	23.87	-45.8	-48.8	3.6	0.00e+00	0	43	104	0	60	33642
2026-01-20 00:05:19.64	8.99	24.08	-46.5	-48.9	3.6	0.00e+00	0	43	104	0	60	34004
2026-01-20 00:05:20.65	8.89	24.29	-45.5	-48.9	3.6	0.00e+00	0	43	104	0	60	34014
2026-01-20 00:05:21.66	8.78	24.50	-46.4	-48.8	3.6	0.00e+00	0	43	104	0	60	33759
2026-01-20 00:05:22.67	8.66	24.72	-45.8	-48.8	3.6	0.00e+00	0	43	104	0	60	33545
2026-01-20 00:05:23.68	8.55	24.94	-46.4	-48.8	3.6	0.00e+00	0	43	104	0	60	33867
2026-01-20 00:05:24.68	8.43	25.15	-45.5	-48.8	3.6	0.00e+00	0	43	104	0	60	33579
2026-01-20 00:05:25.69	8.32	25.37	-46.5	-48.8	3.6	0.00e+00	0	43	104	0	60	33834
2026-01-20 00:05:26.70	8.20	25.60	-45.9	-48.9	3.6	0.00e+00	0	43	104	0	60	34023
2026-01-20 00:05:27.71	8.08	25.82	-46.6	-48.9	3.6	0.00e+00	0	43	104	0	60	34319
2026-01-20 00:05:28.72	7.95	26.05	-45.9	-48.9	3.6	0.00e+00	0	43	104	0	60	34074
2026-01-20 00:05:29.73	7.83	26.28	-46.5	-48.9	3.6	0.00e+00	0	43	104	0	60	34073
2026-01-20 00:05:30.74	7.70	26.51	-45.9	-48.9	3.6	0.00e+00	0	43	104	0	60	34185
2026-01-20 00:05:31.75	7.57	26.75	-46.2	-48.9	3.6	0.00e+00	0	43	104	0	60	34038
2026-01-20 00:05:32.76	7.44	26.98	-45.5	-48.8	3.6	0.00e+00	0	43	104	0	60	33862
2026-01-20 00:05:33.77	7.31	27.22	-46.5	-48.9	3.6	0.00e+00	0	43	104	0	60	34241
2026-01-20 00:05:34.78	7.17	27.46	-45.9	-48.9	3.6	0.00e+00	0	43	104	0	60	34185
2026-01-20 00:05:35.79	7.03	27.71	-46.1	-48.9	3.6	0.00e+00	0	43	104	0	60	33980
2026-01-20 00:05:36.80	6.89	27.95	-45.9	-48.9	3.6	0.00e+00	0	43	104	0	60	34081
2026-01-20 00:05:37.81	6.75	28.20	-46.4	-48.9	3.6	0.00e+00	0	43	104	0	60	34081
2026-01-20 00:05:38.82	6.60	28.45	-45.9	-48.9	3.6	0.00e+00	0	43	104	0	60	34101
2026-01-20 00:05:39.83	6.45	28.71	-46.1	-48.8	3.6	0.00e+00	0	43	104	0	60	33911
2026-01-20 00:05:40.84	6.30	28.96	-45.9	-48.9	3.6	0.00e+00	0	43	104	0	60	33940
2026-01-20 00:05:41.85	6.15	29.22	-46.4	-48.9	3.6	0.00e+00	0	43	104	0	60	34236
2026-01-20 00:05:42.86	5.99	29.48	-45.9	-48.9	3.6	0.00e+00	0	43	104	0	60	34148
2026-01-20 00:05:43.87	5.83	29.75	-45.5	-48.9	3.6	0.00e+00	0	43	104	0	60	34112
2026-01-20 00:05:44.88	5.67	30.01	-46.4	-48.9	3.6	0.00e+00	0	43	104	0	60	34230
2026-01-20 00:05:45.89	5.50	30.28	-46.3	-48.9	3.5	0.00e+00	0	43	104	0	60	34031
2026-01-20 00:05:46.90	5.33	30.56	-45.7	-48.9	3.6	0.00e+00	0	43	104	0	60	33979
2026-01-20 00:05:47.91	5.16	30.83	-45.7	-48.9	3.6	0.00e+00	0	43	104	0	60	33985
2026-01-20 00:05:48.92	4.99	31.11	-46.5	-49.0	3.6	0.00e+00	0	43	104	0	60	34341
2026-01-20 00:05:49.93	4.81	31.39	-46.3	-48.9	3.6	0.00e+00	0	43	104	0	60	34204
2026-01-20 00:05:50.94	4.62	31.67	-46.3	-48.9	3.6	0.00e+00	0	43	104	0	60	34170
2026-01-20 00:05:51.95	4.44	31.96	-45.2	-48.8	3.6	0.00e+00	0	43	104	0	60	33804
2026-01-20 00:05:52.96	4.25	32.25	-46.4	-48.9	3.6	0.00e+00	0	43	104	0	60	34148
2026-01-20 00:05:53.97	4.06	32.54	-46.2	-48.9	3.6	0.00e+00	0	43	104	0	60	33959
2026-01-20 00:05:54.98	3.86	32.84	-46.3	-48.9	3.6	0.00e+00	0	43	104	0	60	34197
2026-01-20 00:05:55.99	3.66	33.14	-45.1	-48.9	3.6	0.00e+00	0	43	104	0	60	34253
2026-01-20 00:05:57.00	3.45	33.44	-46.8	-49.1	3.6	0.00e+00	0	43	104	0	60	35004
2026-01-20 00:05:58.00	3.25	33.74	-46.9	-49.5	3.6	0.00e+00	0	43	104	0	60	36666
2026-01-20 00:05:59.01	3.03	34.05	-46.8	-49.2	3.6	0.00e+00	0	43	104	0	60	35231
2026-01-20 00:06:00.02	2.82	34.36	-45.1	-49.2	3.6	0.00e+00	0	43	104	0	60	35223
2026-01-20 00:06:01.03	2.59	34.67	-47.2	-49.6	3.6	0.00e+00	0	43	104	0	60	36942
2026-01-20 00:06:02.04	2.37	34.99	-46.2	-49.1	3.6	0.00e+00	0	43	104	0	60	35018
2026-01-20 00:06:03.05	2.13	35.31	-46.9	-49.4	3.6	0.00e+00	0	43	104	0	60	36202
2026-01-20 00:06:04.06	1.90	35.64	-46.1	-49.7	3.6	0.00e+00	0	43	104	0	60	37596
2026-01-20 00:06:05.07	1.66	35.96	-45.7	-49.4	3.6	0.00e+00	0	43	104	0	60	36250
2026-01-20 00:06:06.08	1.41	36.29	-45.7	-49.3	3.6	0.00e+00	0	43	104	0	60	35763
2026-01-20 00:06:07.09	1.16	36.63	-46.2	-49.8	3.6	0.00e+00	0	43	104	0	60	37884
2026-01-20 00:06:08.10	0.90	36.97	-47.4	-49.7	3.6	0.00e+00	0	43	104	0	60	37442
2026-01-20 00:06:09.11	0.63	37.31	-46.9	-49.4	3.6	0.00e+00	0	43	104	0	60	35950
2026-01-20 00:06:10.12	0.36	37.65	-46.9	-49.3	3.6	0.00e+00	0	43	104	0	60	35534
2026-01-20 00:06:11.13	0.09	38.00	-45.3	-49.5	3.6	0.00e+00	0	43	104	0	60	36370
2026-01-20 00:06:12.14	359.80	38.35	-47.0	-49.3	3.6	0.00e+00	0	43	104	0	60	35756
2026-01-20 00:06:13.15	359.51	38.70	-46.9	-49.4	3.6	0.00e+00	0	43	104	0	60	36258
2026-01-20 00:06:14.15	359.22	39.06	-47.2	-49.6	3.6	0.00e+00	0	43	104	0	60	36881
2026-01-20 00:06:15.17	358.91	39.42	-45.5	-49.6	3.6	0.00e+00	0	43	104	0	60	36776
2026-01-20 00:06:16.18	358.60	39.79	-47.1	-49.4	3.6	0.00e+00	0	43	104	0	60	36252
2026-01-20 00:06:17.19	358.28	40.16	-46.6	-49.1	3.6	0.00e+00	0	44	104	0	60	35068
2026-01-20 00:06:18.20	357.96	40.53	-46.9	-49.2	3.6	0.00e+00	0	43	104	0	60	35522
2026-01-20 00:06:19.21	357.62	40.90	-45.7	-49.5	3.6	0.00e+00	0	44	104	0	60	36721
2026-01-20 00:06:20.22	357.28	41.28	-47.3	-49.7	3.6	0.00e+00	0	43	104	0	60	37216
2026-01-20 00:06:21.22	356.93	41.66	-47.4	-49.9	3.6	0.00e+00	0	43	104	0	60	38311
2026-01-20 00:06:22.23	356.57	42.04	-47.5	-49.9	3.6	0.00e+00	0	43	104	0	60	38082
2026-01-20 00:06:23.24	356.21	42.43	-45.9	-49.6	3.6	0.00e+00	0	43	104	0	60	36931
2026-01-20 00:06:24.25	355.83	42.82	-47.7	-50.0	3.6	0.00e+00	0	43	104	0	60	38604
2026-01-20 00:06:25.26	355.44	43.22	-47.7	-50.2	3.5	0.00e+00	0	44	104	0	60	39666
2026-01-20 00:06:26.27	355.04	43.62	-47.9	-50.2	3.6	0.00e+00	0	43	104	0	60	39737
2026-01-20 00:06:27.27	354.63	44.01	-47.3	-49.6	3.6	0.00e+00	0	43	104	0	60	37012
2026-01-20 00:06:28.28	354.21	44.42	-47.5	-49.8	3.6	0.00e+00	0	43	104	0	60	38009
2026-01-20 00:06:29.29	353.78	44.83	-47.3	-49.6	3.6	0.00e+00	0	43	104	0	60	36989
2026-01-20 00:06:30.30	353.34	45.24	-47.7	-50.1	3.6	0.00e+00	0	43	104	0	60	39178
2026-01-20 00:06:31.31	352.88	45.65	-47.4	-49.7	3.6	0.00e+00	0	43	104	0	60	37520
2026-01-20 00:06:32.32	352.42	46.07	-47.6	-50.0	3.6	0.00e+00	0	43	104	0	60	38653
2026-01-20 00:06:33.33	351.94	46.48	-46.8	-50.4	3.6	0.00e+00	0	44	104	0	60	40457
2026-01-20 00:06:34.34	351.44	46.90	-47.5	-49.8	3.6	0.00e+00	0	43	104	0	60	37914
2026-01-20 00:06:35.34	350.94	47.32	-48.1	-50.6	3.6	0.00e+00	0	44	104	0	60	41401
2026-01-20 00:06:36.35	350.41	47.75	-47.7	-50.1	3.6	0.00e+00	0	43	104	0	60	39009
2026-01-20 00:06:37.36	349.88	48.18	-48.0	-50.3	3.6	0.00e+00	0	44	104	0	60	40264
2026-01-20 00:06:38.37	349.32	48.61	-48.2	-50.5	3.6	0.00e+00	0	43	104	0	60	41106
2026-01-20 00:06:39.38	348.75	49.04	-48.3	-50.7	3.6	0.00e+00	0	43	104	0	60	41759
2026-01-20 00:06:40.39	348.16	49.47	-48.4	-50.7	3.6	0.00e+00	0	43	104	0	60	42138
2026-01-20 00:06:41.40	347.56	49.91	-48.3	-50.7	3.6	0.00e+00	0	43	104	0	60	41809
2026-01-20 00:06:42.41	346.94	50.34	-45.8	-50.1	3.6	0.00e+00	0	43	104	0	60	39200
2026-01-20 00:06:43.42	346.29	50.78	-48.5	-50.8	3.6	0.00e+00	0	44	104	0	60	42610
2026-01-20 00:06:44.42	345.64	51.21	-46.9	-49.7	3.6	0.00e+00	0	43	104	0	60	37325
2026-01-20 00:06:45.44	344.95	51.65	-47.3	-50.9	3.6	0.00e+00	0	43	104	0	60	42933
2026-01-20 00:06:46.45	344.25	52.09	-48.9	-51.2	3.6	0.00e+00	0	44	104	0	60	44352
2026-01-20 00:06:47.45	343.53	52.53	-46.1	-50.2	3.6	0.00e+00	0	43	104	0	60	39583
2026-01-20 00:06:48.46	342.79	52.96	-46.3	-50.6	3.6	0.00e+00	0	43	104	0	60	41732
2026-01-20 00:06:49.47	342.02	53.40	-46.9	-50.9	3.6	0.00e+00	0	43	104	0	60	43202
2026-01-20 00:06:50.49	341.22	53.84	-46.4	-51.1	3.6	0.00e+00	0	43	104	0	60	43889
2026-01-20 00:06:51.49	340.41	54.27	-48.5	-51.2	3.6	0.00e+00	0	43	104	0	60	44665
2026-01-20 00:06:52.50	339.56	54.70	-46.5	-50.1	3.6	0.00e+00	0	44	104	0	60	39137
2026-01-20 00:06:53.51	338.69	55.13	-48.6	-50.9	3.6	0.00e+00	0	43	104	0	60	43083
2026-01-20 00:06:54.52	337.79	55.56	-46.4	-51.0	3.6	0.00e+00	0	44	104	0	60	43597
2026-01-20 00:06:55.53	336.87	55.98	-48.4	-50.7	3.6	0.00e+00	0	44	104	0	60	42153
2026-01-20 00:06:56.54	335.91	56.40	-49.2	-51.6	3.6	0.00e+00	0	44	104	0	60	46490
2026-01-20 00:06:57.55	334.93	56.82	-49.1	-51.5	3.6	0.00e+00	0	43	104	0	60	46062
2026-01-20 00:06:58.56	333.91	57.23	-48.8	-51.2	3.6	0.00e+00	0	43	104	0	60	44242
2026-01-20 00:06:59.57	332.86	57.63	-48.4	-50.7	3.6	0.00e+00	0	44	104	0	60	41855
2026-01-20 00:07:00.58	331.78	58.03	-48.9	-51.3	3.6	0.00e+00	0	43	104	0	60	44927
2026-01-20 00:07:01.59	330.67	58.42	-49.3	-51.7	3.6	0.00e+00	0	44	104	0	60	47312
2026-01-20 00:07:02.60	329.52	58.81	-46.9	-50.8	3.6	0.00e+00	0	43	104	0	60	42283
2026-01-20 00:07:03.61	328.34	59.18	-47.6	-51.2	3.6	0.00e+00	0	44	104	0	60	44517
2026-01-20 00:07:04.62	327.13	59.55	-48.6	-51.0	3.6	0.00e+00	0	44	104	0	60	43688
2026-01-20 00:07:05.63	325.88	59.91	-48.2	-50.7	3.6	0.00e+00	0	44	104	0	60	41944
2026-01-20 00:07:06.64	324.60	60.25	-48.5	-50.9	3.5	0.00e+00	0	44	104	0	60	43201
2026-01-20 00:07:07.65	323.27	60.59	-49.1	-51.6	3.6	0.00e+00	0	44	104	0	60	46344
2026-01-20 00:07:08.66	321.92	60.91	-48.1	-51.2	3.6	0.00e+00	0	44	104	0	60	44514
2026-01-20 00:07:09.66	320.54	61.22	-49.3	-52.1	3.6	0.00e+00	0	44	104	0	60	49313
2026-01-20 00:07:10.68	319.10	61.52	-49.0	-51.7	3.6	0.00e+00	0	43	104	0	60	46876
2026-01-20 00:07:11.68	317.66	61.81	-47.7	-50.0	3.6	0.00e+00	0	44	104	0	60	38947
2026-01-20 00:07:12.70	316.15	62.08	-49.1	-51.5	3.6	0.00e+00	0	44	104	0	60	45900
2026-01-20 00:07:13.70	314.64	62.33	-49.1	-51.5	3.6	0.00e+00	0	44	104	0	60	45858
2026-01-20 00:07:14.71	313.08	62.57	-48.7	-51.0	3.5	0.00e+00	0	44	104	0	60	43631
2026-01-20 00:07:15.72	311.49	62.78	-49.1	-51.4	3.6	0.00e+00	0	44	104	0	60	45528
2026-01-20 00:07:16.73	309.87	62.99	-49.2	-51.5	3.6	0.00e+00	0	44	104	0	60	46226
2026-01-20 00:07:17.74	308.23	63.17	-49.1	-51.5	3.6	0.00e+00	0	44	104	0	60	45940
2026-01-20 00:07:18.75	306.56	63.33	-47.4	-50.2	3.6	0.00e+00	0	43	104	0	60	39582
2026-01-20 00:07:19.76	304.87	63.48	-47.2	-50.9	3.6	0.00e+00	0	44	104	0	60	42812
2026-01-20 00:07:20.77	303.16	63.60	-46.8	-50.3	3.6	0.00e+00	0	43	104	0	60	40298
2026-01-20 00:07:21.78	301.43	63.70	-47.3	-52.0	3.6	0.00e+00	0	44	104	0	60	48720
2026-01-20 00:07:22.79	299.69	63.79	-48.6	-51.3	3.6	0.00e+00	0	44	104	0	60	45072
2026-01-20 00:07:23.80	297.94	63.85	-44.9	-49.9	3.6	0.00e+00	0	44	104	0	60	38371
2026-01-20 00:07:24.81	296.18	63.88	-46.8	-50.5	3.6	0.00e+00	0	44	104	0	60	41184
2026-01-20 00:07:25.82	294.41	63.90	-47.4	-51.5	3.6	0.00e+00	0	44	104	0	60	45865
2026-01-20 00:07:26.83	292.65	63.90	-47.2	-49.9	3.6	0.00e+00	0	44	104	0	60	38080
2026-01-20 00:07:27.83	290.90	63.87	-49.3	-51.7	3.6	0.00e+00	0	43	104	0	60	47078
2026-01-20 00:07:28.84	289.15	63.82	-46.1	-50.5	3.6	0.00e+00	0	44	104	0	60	40856
2026-01-20 00:07:29.85	287.40	63.75	-47.8	-50.4	3.6	0.00e+00	0	44	104	0	60	40578
2026-01-20 00:07:30.86	285.66	63.66	-47.5	-50.9	3.6	0.00e+00	0	44	104	0	60	43051
2026-01-20 00:07:31.87	283.94	63.54	-46.9	-51.0	3.6	0.00e+00	0	44	104	0	60	43622
2026-01-20 00:07:32.88	282.24	63.41	-47.9	-50.4	3.6	0.00e+00	0	44	104	0	60	40605
2026-01-20 00:07:33.89	280.56	63.26	-48.3	-52.0	3.6	0.00e+00	0	44	104	0	60	48794
2026-01-20 00:07:34.90	278.90	63.08	-47.3	-50.4	3.6	0.00e+00	0	44	104	0	60	40595
2026-01-20 00:07:35.91	277.26	62.89	-49.0	-51.4	3.6	0.00e+00	0	44	104	0	60	45267
2026-01-20 00:07:36.92	275.66	62.68	-48.7	-51.3	3.6	0.00e+00	0	44	104	0	60	44943
2026-01-20 00:07:37.92	274.10	62.46	-48.9	-51.3	3.6	0.00e+00	0	44	104	0	60	45102
2026-01-20 00:07:38.93	272.55	62.21	-48.3	-50.8	3.6	0.00e+00	0	44	104	0	60	42335
2026-01-20 00:07:39.94	271.04	61.95	-48.3	-51.4	3.6	0.00e+00	0	44	104	0	60	45277
2026-01-20 00:07:40.95	269.56	61.67	-47.6	-50.3	3.6	0.00e+00	0	44	104	0	60	39990
2026-01-20 00:07:41.96	268.11	61.38	-48.1	-51.3	3.6	0.00e+00	0	44	104	0	60	45054
2026-01-20 00:07:42.97	266.70	61.07	-48.8	-51.5	3.6	0.00e+00	0	44	104	0	60	46264
2026-01-20 00:07:43.98	265.32	60.76	-48.5	-51.4	3.6	0.00e+00	0	44	104	0	60	45552
2026-01-20 00:07:44.99	263.98	60.43	-49.3	-51.9	3.6	0.00e+00	0	44	104	0	60	48210
2026-01-20 00:07:45.99	262.69	60.09	-47.8	-50.5	3.5	0.00e+00	0	44	104	0	60	40973
2026-01-20 00:07:47.00	261.41	59.73	-49.2	-52.0	3.6	0.00e+00	0	44	104	0	60	48648
2026-01-20 00:07:48.02	260.17	59.37	-49.5	-52.1	3.6	0.00e+00	0	44	104	0	60	49191
2026-01-20 00:07:49.02	258.98	59.00	-49.0	-51.5	3.6	0.00e+00	0	44	104	0	60	45911
2026-01-20 00:07:50.04	257.80	58.61	-49.3	-52.2	3.6	0.00e+00	0	43	104	0	60	50171
2026-01-20 00:07:51.05	256.67	58.22	-48.4	-51.1	3.6	0.00e+00	0	44	104	0	60	43942
2026-01-20 00:07:52.06	255.57	57.82	-48.2	-50.9	3.6	0.00e+00	0	44	104	0	60	43039
2026-01-20 00:07:53.06	254.51	57.43	-48.3	-50.9	3.6	0.00e+00	0	44	104	0	60	43103
2026-01-20 00:07:54.07	253.47	57.02	-48.9	-51.3	3.6	0.00e+00	0	44	104	0	60	44982
2026-01-20 00:07:55.08	252.47	56.60	-48.3	-50.8	3.6	0.00e+00	0	44	104	0	60	42383
2026-01-20 00:07:56.09	251.50	56.18	-47.6	-50.1	3.6	0.00e+00	0	44	104	0	60	39176
2026-01-20 00:07:57.10	250.55	55.76	-48.8	-51.2	3.6	0.00e+00	0	44	104	0	60	44282
2026-01-20 00:07:58.11	249.64	55.33	-49.4	-51.8	3.6	0.00e+00	0	44	104	0	60	47882
2026-01-20 00:07:59.12	248.75	54.90	-49.4	-51.8	3.6	0.00e+00	0	44	104	0	60	47632
2026-01-20 00:08:00.13	247.89	54.47	-48.9	-51.3	3.6	0.00e+00	0	44	104	0	60	45215
2026-01-20 00:08:01.14	247.06	54.03	-47.7	-50.2	3.6	0.00e+00	0	44	104	0	60	39719
2026-01-20 00:08:02.15	246.25	53.60	-48.4	-50.9	3.6	0.00e+00	0	44	104	0	60	42956
2026-01-20 00:08:03.16	245.46	53.16	-48.4	-50.8	3.6	0.00e+00	0	44	104	0	60	42295
2026-01-20 00:08:04.17	244.70	52.72	-48.5	-51.2	3.6	0.00e+00	0	44	104	0	60	44383
2026-01-20 00:08:05.18	243.96	52.28	-48.9	-51.4	3.6	0.00e+00	0	44	104	0	60	45517
2026-01-20 00:08:06.19	243.25	51.84	-48.2	-50.7	3.6	0.00e+00	0	44	104	0	60	41851
2026-01-20 00:08:07.20	242.56	51.40	-48.1	-50.7	3.6	0.00e+00	0	44	104	0	60	41828
2026-01-20 00:08:08.21	241.88	50.96	-47.4	-50.1	3.6	0.00e+00	0	44	104	0	60	39203
2026-01-20 00:08:09.22	241.23	50.52	-47.2	-49.7	3.6	0.00e+00	0	44	104	0	60	37387
2026-01-20 00:08:10.23	240.59	50.08	-47.1	-49.6	3.6	0.00e+00	0	44	104	0	60	37133
2026-01-20 00:08:11.24	239.98	49.64	-47.1	-49.5	3.6	0.00e+00	0	44	104	0	60	36624
2026-01-20 00:08:12.25	239.38	49.21	-45.3	-49.5	3.6	0.00e+00	0	44	104	0	60	36596
2026-01-20 00:08:13.26	238.80	48.77	-47.4	-49.7	3.6	0.00e+00	0	44	104	0	60	37535
2026-01-20 00:08:14.26	238.24	48.34	-47.1	-49.6	3.6	0.00e+00	0	44	104	0	60	36870
2026-01-20 00:08:15.27	237.69	47.91	-47.0	-49.6	3.6	0.00e+00	0	44	104	0	60	36837
2026-01-20 00:08:16.28	237.16	47.48	-47.3	-49.7	3.6	0.00e+00	0	44	104	0	60	37417
2026-01-20 00:08:17.29	236.64	47.05	-47.1	-49.5	3.6	0.00e+00	0	44	104	0	60	36734
2026-01-20 00:08:18.30	236.14	46.63	-47.1	-49.4	3.6	0.00e+00	0	44	104	0	60	36316
2026-01-20 00:08:19.31	235.65	46.21	-46.7	-49.3	3.6	0.00e+00	0	44	104	0	60	35921
2026-01-20 00:08:20.32	235.18	45.79	-47.0	-49.4	3.6	0.00e+00	0	44	104	0	60	36031
2026-01-20 00:08:21.33	234.71	45.37	-46.8	-49.4	3.6	0.00e+00	0	44	104	0	60	35981
2026-01-20 00:08:22.34	234.26	44.96	-47.0	-49.4	3.6	0.00e+00	0	44	104	0	60	36002
2026-01-20 00:08:23.35	233.82	44.54	-46.7	-49.3	3.6	0.00e+00	0	44	104	0	60	35640
2026-01-20 00:08:24.36	233.40	44.14	-47.1	-49.5	3.6	0.00e+00	0	44	104	0	60	36492
2026-01-20 00:08:25.37	232.98	43.73	-46.6	-49.3	3.6	0.00e+00	0	44	104	0	60	35777
2026-01-20 00:08:26.38	232.58	43.33	-47.1	-49.4	3.6	0.00e+00	0	44	104	0	60	36321
2026-01-20 00:08:27.39	232.18	42.93	-46.8	-49.6	3.6	0.00e+00	0	44	104	0	60	36788
2026-01-20 00:08:28.40	231.80	42.53	-47.2	-49.5	3.5	0.00e+00	0	44	104	0	60	36730
2026-01-20 00:08:29.41	231.42	42.14	-47.3	-49.7	3.6	0.00e+00	0	44	104	0	60	37513
2026-01-20 00:08:30.42	231.06	41.75	-47.5	-49.9	3.6	0.00e+00	0	44	104	0	60	38170
2026-01-20 00:08:31.43	230.70	41.37	-46.9	-49.8	3.6	0.00e+00	0	44	104	0	60	37707
2026-01-20 00:08:32.44	230.35	40.98	-47.5	-49.9	3.6	0.00e+00	0	44	104	0	60	38361
2026-01-20 00:08:33.45	230.01	40.61	-46.7	-49.7	3.6	0.00e+00	0	44	104	0	60	37287
2026-01-20 00:08:34.46	229.68	40.23	-47.1	-49.5	3.6	0.00e+00	0	44	104	0	60	36635
2026-01-20 00:08:35.47	229.36	39.86	-46.8	-49.6	3.6	0.00e+00	0	44	104	0	60	37079
2026-01-20 00:08:36.48	229.04	39.49	-47.4	-49.9	3.6	0.00e+00	0	44	104	0	60	38094
2026-01-20 00:08:37.49	228.74	39.12	-46.8	-49.6	3.6	0.00e+00	0	44	104	0	60	37201
2026-01-20 00:08:38.50	228.44	38.76	-47.6	-50.0	3.6	0.00e+00	0	44	104	0	60	38750
2026-01-20 00:08:39.51	228.14	38.40	-47.1	-50.2	3.6	0.00e+00	0	44	104	0	60	39614
2026-01-20 00:08:40.52	227.86	38.05	-47.4	-50.0	3.6	0.00e+00	0	44	104	0	60	38583
2026-01-20 00:08:41.52	227.58	37.70	-46.4	-50.0	3.5	0.00e+00	0	44	104	0	60	38657
2026-01-20 00:08:42.54	227.30	37.35	-47.6	-50.1	3.6	0.00e+00	0	44	104	0	60	39022
2026-01-20 00:08:43.54	227.04	37.01	-47.0	-50.0	3.6	0.00e+00	0	44	104	0	60	38739
2026-01-20 00:08:44.55	226.77	36.67	-47.4	-49.9	3.6	0.00e+00	0	44	104	0	60	38159
2026-01-20 00:08:45.56	226.52	36.33	-46.1	-49.6	3.6	0.00e+00	0	44	104	0	60	37067
2026-01-20 00:08:46.57	226.27	35.99	-46.9	-49.4	3.6	0.00e+00	0	44	104	0	60	36300
2026-01-20 00:08:47.58	226.02	35.66	-46.1	-49.4	3.6	0.00e+00	0	44	104	0	60	36329
2026-01-20 00:08:48.59	225.78	35.34	-47.3	-49.9	3.6	0.00e+00	0	44	104	0	60	38457
2026-01-20 00:08:49.60	225.54	35.01	-46.5	-49.9	3.6	0.00e+00	0	44	104	0	60	38383
2026-01-20 00:08:50.61	225.31	34.69	-47.2	-49.7	3.6	0.00e+00	0	44	104	0	60	37496
2026-01-20 00:08:51.62	225.09	34.37	-46.3	-49.7	3.6	0.00e+00	0	44	104	0	60	37393
2026-01-20 00:08:52.63	224.87	34.06	-46.9	-49.5	3.6	0.00e+00	0	44	104	0	60	36662
2026-01-20 00:08:53.64	224.65	33.75	-46.1	-49.5	3.6	0.00e+00	0	44	104	0	60	36600
2026-01-20 00:08:54.65	224.44	33.44	-46.8	-49.4	3.6	0.00e+00	0	44	104	0	60	36071
2026-01-20 00:08:55.66	224.23	33.13	-45.9	-49.4	3.6	0.00e+00	0	44	104	0	60	36155
2026-01-20 00:08:56.67	224.03	32.83	-46.8	-49.5	3.6	0.00e+00	0	44	104	0	60	36440
2026-01-20 00:08:57.68	223.83	32.53	-46.3	-49.7	3.6	0.00e+00	0	44	104	0	60	37240
2026-01-20 00:08:58.69	223.64	32.24	-47.3	-49.8	3.6	0.00e+00	0	44	104	0	60	37763
2026-01-20 00:08:59.70	223.44	31.94	-46.6	-49.9	3.6	0.00e+00	0	44	104	0	60	38182
2026-01-20 00:09:00.71	223.26	31.65	-47.3	-50.0	3.6	0.00e+00	0	44	104	0	60	38702
2026-01-20 00:09:01.72	223.07	31.37	-46.2	-50.0	3.5	0.00e+00	0	44	104	0	60	38702
2026-01-20 00:09:02.73	222.89	31.08	-47.3	-50.0	3.6	0.00e+00	0	44	104	0	60	38792
2026-01-20 00:09:03.74	222.71	30.80	-46.3	-50.0	3.6	0.00e+00	0	44	104	0	60	38557
2026-01-20 00:09:04.75	222.54	30.52	-47.2	-49.8	3.6	0.00e+00	0	44	104	0	60	37825
2026-01-20 00:09:05.76	222.37	30.25	-46.6	-50.3	3.6	0.00e+00	0	44	104	0	60	39886
2026-01-20 00:09:06.77	222.20	29.98	-47.3	-49.9	3.5	0.00e+00	0	44	104	0	60	38465
2026-01-20 00:09:07.78	222.04	29.71	-46.3	-49.9	3.6	0.00e+00	0	44	104	0	60	38076
2026-01-20 00:09:08.79	221.87	29.44	-47.2	-49.8	3.6	0.00e+00	0	44	104	0	60	37901
2026-01-20 00:09:09.80	221.72	29.18	-46.1	-49.5	3.6	0.00e+00	0	44	104	0	60	36588
2026-01-20 00:09:10.81	221.56	28.91	-46.9	-49.5	3.6	0.00e+00	0	44	104	0	60	36648
2026-01-20 00:09:11.82	221.41	28.65	-45.9	-49.4	3.6	0.00e+00	0	43	104	0	60	36063
2026-01-20 00:09:12.83	221.26	28.40	-46.7	-49.3	3.6	0.00e+00	0	44	104	0	60	35712
2026-01-20 00:09:13.84	221.11	28.14	-45.9	-49.3	3.6	0.00e+00	0	43	104	0	60	35662
2026-01-20 00:09:14.85	220.96	27.89	-46.7	-49.3	3.6	0.00e+00	0	44	104	0	60	35859
2026-01-20 00:09:15.86	220.82	27.64	-46.0	-49.4	3.6	0.00e+00	0	44	104	0	60	36125
2026-01-20 00:09:16.87	220.68	27.40	-46.9	-49.4	3.6	0.00e+00	0	44	104	0	60	36268
2026-01-20 00:09:17.88	220.54	27.15	-46.3	-49.3	3.6	0.00e+00	0	44	104	0	60	35827
2026-01-20 00:09:18.89	220.41	26.91	-46.5	-49.2	3.6	0.00e+00	0	44	104	0	60	35218
2026-01-20 00:09:19.90	220.27	26.67	-46.2	-49.2	3.6	0.00e+00	0	44	104	0	60	35201
2026-01-20 00:09:20.91	220.14	26.44	-46.8	-49.2	3.6	0.00e+00	0	44	104	0	60	35401
2026-01-20 00:09:21.92	220.01	26.20	-46.2	-49.2	3.6	0.00e+00	0	44	104	0	60	35194
2026-01-20 00:09:22.92	219.89	25.97	-46.5	-49.1	3.6	0.00e+00	0	44	104	0	60	35061
2026-01-20 00:09:23.93	219.76	25.74	-46.3	-49.2	3.6	0.00e+00	0	44	104	0	60	35227
2026-01-20 00:09:24.95	219.64	25.51	-46.7	-49.2	3.6	0.00e+00	0	44	104	0	60	35328
2026-01-20 00:09:25.96	219.52	25.29	-46.3	-49.2	3.6	0.00e+00	0	44	104	0	60	35296
2026-01-20 00:09:26.96	219.40	25.07	-46.5	-49.1	3.6	0.00e+00	0	44	104	0	60	34979
2026-01-20 00:09:27.98	219.28	24.84	-46.3	-49.1	3.6	0.00e+00	0	44	104	0	60	35014
2026-01-20 00:09:28.99	219.17	24.63	-46.8	-49.3	3.6	0.00e+00	0	44	104	0	60	35713
2026-01-20 00:09:29.99	219.05	24.41	-46.4	-49.3	3.6	0.00e+00	0	44	104	0	60	35663
2026-01-20 00:09:31.00	218.94	24.20	-46.5	-49.2	3.6	0.00e+00	0	44	104	0	60	35150
2026-01-20 00:09:32.01	218.83	23.98	-46.5	-49.2	3.6	0.00e+00	0	44	104	0	60	35497
2026-01-20 00:09:33.02	218.73	23.77	-46.8	-49.2	3.6	0.00e+00	0	44	104	0	60	35259
2026-01-20 00:09:34.03	218.62	23.56	-46.6	-49.3	3.6	0.00e+00	0	44	104	0	60	35560
2026-01-20 00:09:35.04	218.51	23.36	-46.7	-49.3	3.6	0.00e+00	0	44	104	0	60	35628
2026-01-20 00:09:36.05	218.41	23.15	-46.6	-49.4	3.6	0.00e+00	0	44	104	0	60	36186
2026-01-20 00:09:37.06	218.31	22.95	-47.1	-49.6	3.6	0.00e+00	0	44	104	0	60	36792
2026-01-20 00:09:38.07	218.21	22.75	-46.9	-49.6	3.6	0.00e+00	0	44	104	0	60	37124
2026-01-20 00:09:39.08	218.11	22.55	-46.9	-49.5	3.6	0.00e+00	0	44	104	0	60	36690
2026-01-20 00:09:40.09	218.01	22.35	-47.0	-49.6	3.6	0.00e+00	0	44	104	0	60	36835
2026-01-20 00:09:41.10	217.92	22.15	-47.0	-49.3	3.6	0.00e+00	0	44	104	0	60	35926
2026-01-20 00:09:42.11	217.82	21.96	-46.9	-49.4	3.6	0.00e+00	0	44	104	0	60	36113
2026-01-20 00:09:43.12	217.73	21.77	-46.8	-49.3	3.6	0.00e+00	0	44	104	0	60	35899
2026-01-20 00:09:44.13	217.64	21.58	-46.8	-49.4	3.6	0.00e+00	0	44	104	0	60	35942
2026-01-20 00:09:45.14	217.55	21.39	-47.0	-49.3	3.6	0.00e+00	0	44	104	0	60	35846
2026-01-20 00:09:46.14	217.46	21.20	-46.9	-49.4	3.5	0.00e+00	0	44	104	0	60	36110
2026-01-20 00:09:47.15	217.37	21.02	-46.7	-49.3	3.6	0.00e+00	0	44	104	0	60	35749
2026-01-20 00:09:48.16	217.28	20.83	-46.9	-49.3	3.6	0.00e+00	0	44	104	0	60	35870
2026-01-20 00:09:49.17	217.20	20.65	-46.9	-49.3	3.6	0.00e+00	0	44	104	0	60	35830
2026-01-20 00:09:50.18	217.11	20.47	-46.8	-49.3	3.6	0.00e+00	0	44	104	0	60	35541
2026-01-20 00:09:51.19	217.03	20.29	-46.9	-49.5	3.6	0.00e+00	0	44	104	0	60	36402
2026-01-20 00:09:52.20	216.95	20.11	-46.9	-49.4	3.6	0.00e+00	0	44	104	0	60	36345
2026-01-20 00:09:53.20	216.87	19.94	-46.8	-49.2	3.6	0.00e+00	0	44	104	0	60	35390
2026-01-20 00:09:54.21	216.79	19.76	-47.1	-49.6	3.6	0.00e+00	0	44	104	0	60	36783
2026-01-20 00:09:55.22	216.71	19.59	-46.9	-49.4	3.6	0.00e+00	0	44	104	0	60	36337
2026-01-20 00:09:56.23	216.63	19.42	-47.3	-49.7	3.6	0.00e+00	0	44	104	0	60	37339
2026-01-20 00:09:57.24	216.55	19.25	-47.5	-49.9	3.6	0.00e+00	0	44	104	0	60	38221
2026-01-20 00:09:58.25	216.48	19.08	-47.2	-49.6	3.6	0.00e+00	0	44	104	0	60	36899
2026-01-20 00:09:59.26	216.40	18.91	-47.0	-49.6	3.6	0.00e+00	0	44	104	0	60	36902
2026-01-20 00:10:00.27	216.33	18.74	-47.2	-49.6	3.6	0.00e+00	0	44	104	0	60	36838
2026-01-20 00:10:01.28	216.25	18.58	-47.3	-49.7	3.6	0.00e+00	0	44	104	0	60	37461
2026-01-20 00:10:02.29	216.18	18.41	-47.0	-49.4	3.6	0.00e+00	0	44	104	0	60	36267
2026-01-20 00:10:03.30	216.11	18.25	-46.8	-49.4	3.6	0.00e+00	0	44	104	0	60	36154
2026-01-20 00:10:04.31	216.04	18.09	-47.0	-49.4	3.6	0.00e+00	0	44	104	0	60	36216
2026-01-20 00:10:05.32	215.97	17.93	-46.9	-49.2	3.6	0.00e+00	0	44	104	0	60	35406
2026-01-20 00:10:06.33	215.90	17.77	-47.3	-49.7	3.6	0.00e+00	0	44	104	0	60	37486
2026-01-20 00:10:07.34	215.84	17.62	-47.5	-50.0	3.6	0.00e+00	0	44	104	0	60	38937
2026-01-20 00:10:08.35	215.77	17.46	-47.9	-50.2	3.6	0.00e+00	0	44	104	0	60	39789
2026-01-20 00:10:09.36	215.70	17.31	-47.4	-49.8	3.6	0.00e+00	0	44	104	0	60	37867
2026-01-20 00:10:10.37	215.64	17.15	-47.4	-49.9	3.6	0.00e+00	0	44	104	0	60	38187
2026-01-20 00:10:11.38	215.57	17.00	-47.1	-49.6	3.6	0.00e+00	0	44	104	0	60	37196
2026-01-20 00:10:12.39	215.51	16.85	-47.1	-49.5	3.6	0.00e+00	0	44	104	0	60	36394
2026-01-20 00:10:13.40	215.45	16.70	-47.4	-49.8	3.6	0.00e+00	0	44	104	0	60	37843
2026-01-20 00:10:14.41	215.39	16.55	-47.7	-50.1	3.6	0.00e+00	0	44	104	0	60	39040
2026-01-20 00:10:15.42	215.33	16.40	-47.7	-50.3	3.6	0.00e+00	0	44	104	0	60	39943
2026-01-20 00:10:16.42	215.27	16.26	-48.1	-50.5	3.6	0.00e+00	0	44	104	0	60	40861
2026-01-20 00:10:17.43	215.21	16.11	-48.0	-50.7	3.6	0.00e+00	0	44	104	0	60	42110
2026-01-20 00:10:18.44	215.15	15.97	-47.6	-50.4	3.6	0.00e+00	0	44	104	0	60	40690
2026-01-20 00:10:19.45	215.09	15.82	-47.3	-50.1	3.6	0.00e+00	0	44	104	0	60	39179
2026-01-20 00:10:20.46	215.03	15.68	-46.8	-49.6	3.6	0.00e+00	0	44	104	0	60	37063
2026-01-20 00:10:21.48	214.97	15.54	-46.7	-49.6	3.6	0.00e+00	0	44	104	0	60	36814
2026-01-20 00:10:22.48	214.92	15.40	-47.1	-49.5	3.6	0.00e+00	0	44	104	0	60	36489
2026-01-20 00:10:23.50	214.86	15.26	-47.2	-49.8	3.6	0.00e+00	0	44	104	0	60	37648
2026-01-20 00:10:24.50	214.81	15.12	-47.2	-49.6	3.6	0.00e+00	0	44	104	0	60	37053
2026-01-20 00:10:25.51	214.75	14.98	-47.1	-49.5	3.6	0.00e+00	0	44	104	0	60	36442
2026-01-20 00:10:26.52	214.70	14.85	-46.7	-49.4	3.6	0.00e+00	0	44	104	0	60	36025
2026-01-20 00:10:27.53	214.64	14.71	-47.1	-49.6	3.6	0.00e+00	0	44	104	0	60	36836
2026-01-20 00:10:28.54	214.59	14.58	-47.4	-49.9	3.6	0.00e+00	0	44	104	0	60	38107
2026-01-20 00:10:29.55	214.54	14.44	-47.9	-50.3	3.6	0.00e+00	0	44	104	0	60	39999
2026-01-20 00:10:30.56	214.49	14.31	-48.0	-50.7	3.6	0.00e+00	0	44	104	0	60	41926
2026-01-20 00:10:31.57	214.44	14.18	-47.8	-50.1	3.6	0.00e+00	0	44	104	0	60	39118
2026-01-20 00:10:32.58	214.39	14.05	-47.9	-50.2	3.6	0.00e+00	0	44	104	0	60	39740
2026-01-20 00:10:33.59	214.34	13.92	-47.3	-49.7	3.6	0.00e+00	0	44	104	0	60	37354
2026-01-20 00:10:34.60	214.29	13.79	-47.3	-49.6	3.6	0.00e+00	0	44	104	0	60	37106
2026-01-20 00:10:35.61	214.24	13.66	-47.5	-49.8	3.6	0.00e+00	0	44	104	0	60	37975
2026-01-20 00:10:36.62	214.19	13.53	-47.4	-49.8	3.6	0.00e+00	0	44	104	0	60	37924
2026-01-20 00:10:37.63	214.14	13.41	-47.5	-49.9	3.6	0.00e+00	0	44	104	0	60	38378
2026-01-20 00:10:38.64	214.10	13.28	-47.2	-50.0	3.6	0.00e+00	0	44	104	0	60	38842
2026-01-20 00:10:39.65	214.05	13.16	-47.0	-49.6	3.6	0.00e+00	0	44	104	0	60	36926
2026-01-20 00:10:40.66	214.00	13.03	-47.3	-49.9	3.6	0.00e+00	0	44	104	0	60	38164
2026-01-20 00:10:41.67	213.96	12.91	-47.2	-50.0	3.6	0.00e+00	0	44	104	0	60	38528
2026-01-20 00:10:42.68	213.91	12.79	-47.4	-49.8	3.6	0.00e+00	0	44	104	0	60	37914
2026-01-20 00:10:43.69	213.87	12.66	-47.2	-49.9	3.6	0.00e+00	0	44	104	0	60	38503
2026-01-20 00:10:44.70	213.82	12.54	-47.1	-49.5	3.6	0.00e+00	0	44	104	0	60	36543
2026-01-20 00:10:45.71	213.78	12.42	-47.1	-49.6	3.6	0.00e+00	0	44	104	0	60	36882
2026-01-20 00:10:46.72	213.74	12.30	-47.7	-50.2	3.6	0.00e+00	0	44	104	0	60	39501
2026-01-20 00:10:47.73	213.69	12.19	-47.5	-50.2	3.6	0.00e+00	0	44	104	0	60	39726
2026-01-20 00:10:48.74	213.65	12.07	-47.7	-50.0	3.6	0.00e+00	0	44	104	0	60	38935
2026-01-20 00:10:49.75	213.61	11.95	-47.7	-50.1	3.6	0.00e+00	0	44	104	0	60	39005
2026-01-20 00:10:50.76	213.57	11.83	-47.3	-49.7	3.6	0.00e+00	0	44	104	0	60	37522
2026-01-20 00:10:51.76	213.53	11.72	-47.2	-49.6	3.6	0.00e+00	0	44	104	0	60	37117
2026-01-20 00:10:52.77	213.49	11.60	-47.4	-49.8	3.6	0.00e+00	0	44	104	0	60	37826
2026-01-20 00:10:53.79	213.45	11.49	-48.0	-50.4	3.6	0.00e+00	0	44	104	0	60	40574
2026-01-20 00:10:54.79	213.41	11.38	-47.7	-50.1	3.6	0.00e+00	0	44	104	0	60	39021
2026-01-20 00:10:55.81	213.37	11.26	-47.3	-49.6	3.6	0.00e+00	0	44	104	0	60	36890
2026-01-20 00:10:56.82	213.33	11.15	-47.1	-49.9	3.6	0.00e+00	0	44	104	0	60	38074
2026-01-20 00:10:57.83	213.29	11.04	-47.0	-49.5	3.6	0.00e+00	0	44	104	0	60	36656
2026-01-20 00:10:58.84	213.25	10.93	-49.0	-51.5	3.6	0.00e+00	0	44	104	0	60	45893
2026-01-20 00:10:59.84	213.21	10.82	-49.1	-51.7	3.6	0.00e+00	0	44	104	0	60	47021
2026-01-20 00:11:00.85	213.18	10.71	-48.4	-50.7	3.6	0.00e+00	0	44	104	0	60	42080
2026-01-20 00:11:01.86	213.14	10.60	-47.7	-50.0	3.6	0.00e+00	0	44	104	0	60	38928
2026-01-20 00:11:02.87	213.10	10.49	-47.3	-49.7	3.6	0.00e+00	0	44	104	0	60	37334
2026-01-20 00:11:03.88	213.07	10.38	-47.6	-49.9	3.6	0.00e+00	0	44	104	0	60	38480
2026-01-20 00:11:04.89	213.03	10.27	-47.2	-49.6	3.6	0.00e+00	0	44	104	0	60	36932
2026-01-20 00:11:05.89	212.99	10.17	-47.0	-49.6	3.6	0.00e+00	0	44	104	0	60	37041
2026-01-20 00:11:06.91	212.96	10.06	-47.1	-49.6	3.6	0.00e+00	0	44	104	0	60	37006
2026-01-20 00:11:07.92	212.92	9.96	-46.7	-49.0	3.6	0.00e+00	0	44	104	0	60	34713
2026-01-20 00:11:08.92	212.89	9.85	-46.8	-49.1	3.6	0.00e+00	0	44	104	0	60	35000
2026-01-20 00:11:09.93	212.85	9.75	-47.3	-49.7	3.6	0.00e+00	0	44	104	0	60	37366
2026-01-20 00:11:10.94	212.82	9.64	-47.0	-49.4	3.6	0.00e+00	0	44	104	0	60	36199
2026-01-20 00:11:11.95	212.79	9.54	-47.1	-49.4	3.6	0.00e+00	0	44	104	0	60	36343
2026-01-20 00:11:12.96	212.75	9.44	-46.7	-49.1	3.6	0.00e+00	0	44	104	0	60	34856
2026-01-20 00:11:13.97	212.72	9.34	-46.9	-49.2	3.6	0.00e+00	0	44	104	0	60	35249
2026-01-20 00:11:14.98	212.69	9.24	-47.2	-49.9	3.6	0.00e+00	0	44	104	0	60	38073
2026-01-20 00:11:15.99	212.66	9.13	-47.6	-50.2	3.6	0.00e+00	0	44	104	0	60	39447
2026-01-20 00:11:17.00	212.62	9.03	-47.9	-50.2	3.6	0.00e+00	0	44	104	0	60	39750
2026-01-20 00:11:18.01	212.59	8.93	-47.7	-50.0	3.6	0.00e+00	0	44	104	0	60	38819
2026-01-20 00:11:19.02	212.56	8.83	-47.5	-49.9	3.6	0.00e+00	0	44	104	0	60	38359
2026-01-20 00:11:20.03	212.53	8.74	-46.9	-49.3	3.6	0.00e+00	0	44	104	0	60	35683
2026-01-20 00:11:21.04	212.50	8.64	-47.1	-49.6	3.6	0.00e+00	0	44	104	0	60	36809
2026-01-20 00:11:22.05	212.47	8.54	-47.0	-49.3	3.6	0.00e+00	0	44	104	0	60	35828
2026-01-20 00:11:23.06	212.44	8.44	-46.8	-49.1	3.6	0.00e+00	0	44	104	0	60	34934
2026-01-20 00:11:24.06	212.41	8.35	-46.3	-48.7	3.5	0.00e+00	0	44	104	0	60	33442
2026-01-20 00:11:25.08	212.38	8.25	-46.3	-48.8	3.6	0.00e+00	0	44	104	0	60	33675
2026-01-20 00:11:26.08	212.35	8.15	-46.3	-48.7	3.6	0.00e+00	0	44	104	0	60	33421
2026-01-20 00:11:27.09	212.32	8.06	-46.4	-48.8	3.6	0.00e+00	0	44	104	0	60	33748
2026-01-20 00:11:28.10	212.29	7.96	-46.9	-49.3	3.6	0.00e+00	0	44	104	0	60	35830
2026-01-20 00:11:29.11	212.26	7.87	-46.7	-49.0	3.6	0.00e+00	0	44	104	0	60	34482
2026-01-20 00:11:30.12	212.23	7.77	-46.3	-48.7	3.6	0.00e+00	0	44	104	0	60	33451
2026-01-20 00:11:31.13	212.20	7.68	-46.8	-49.1	3.6	0.00e+00	0	44	104	0	60	35096
2026-01-20 00:11:32.14	212.17	7.59	-47.0	-49.3	3.6	0.00e+00	0	44	104	0	60	35848
2026-01-20 00:11:33.15	212.15	7.49	-47.3	-49.7	3.6	0.00e+00	0	44	104	0	60	37219
2026-01-20 00:11:34.16	212.12	7.40	-47.1	-49.4	3.6	0.00e+00	0	44	104	0	60	36045
2026-01-20 00:11:35.17	212.09	7.31	-46.6	-48.9	3.6	0.00e+00	0	44	104	0	60	34287
2026-01-20 00:11:36.18	212.06	7.22	-46.2	-48.6	3.6	0.00e+00	0	44	104	0	60	32917
2026-01-20 00:11:37.19	212.04	7.13	-46.3	-48.7	3.6	0.00e+00	0	44	104	0	60	33497
2026-01-20 00:11:38.19	212.01	7.04	-46.2	-48.6	3.6	0.00e+00	0	44	104	0	60	33135
2026-01-20 00:11:39.20	211.98	6.95	-46.1	-48.5	3.6	0.00e+00	0	44	104	0	60	32608
2026-01-20 00:11:40.21	211.96	6.86	-46.1	-48.4	3.6	0.00e+00	0	44	104	0	60	32134
2026-01-20 00:11:41.22	211.93	6.77	-46.1	-48.5	3.6	0.00e+00	0	44	104	0	60	32775
2026-01-20 00:11:42.23	211.91	6.68	-46.0	-48.5	3.6	0.00e+00	0	44	104	0	60	32414
2026-01-20 00:11:43.24	211.88	6.59	-46.1	-48.4	3.6	0.00e+00	0	44	104	0	60	32383
2026-01-20 00:11:44.25	211.85	6.50	-46.0	-48.3	3.6	0.00e+00	0	44	104	0	60	31849
2026-01-20 00:11:45.26	211.83	6.42	-46.2	-48.5	3.6	0.00e+00	0	44	104	0	60	32767
2026-01-20 00:11:46.27	211.80	6.33	-45.9	-48.4	3.6	0.00e+00	0	44	104	0	60	32092
2026-01-20 00:11:47.28	211.78	6.24	-45.9	-48.2	3.6	0.00e+00	0	44	104	0	60	31638
2026-01-20 00:11:48.29	211.76	6.15	-45.8	-48.1	3.6	0.00e+00	0	44	104	0	60	31183
2026-01-20 00:11:49.30	211.73	6.07	-45.9	-48.2	3.6	0.00e+00	0	44	104	0	60	31658
2026-01-20 00:11:50.30	211.71	5.98	-45.9	-48.4	3.6	0.00e+00	0	44	104	0	60	32072
2026-01-20 00:11:51.31	211.68	5.90	-46.1	-48.4	3.6	0.00e+00	0	44	104	0	60	32246
2026-01-20 00:11:52.32	211.66	5.81	-46.3	-48.6	3.6	0.00e+00	0	44	104	0	60	32923
2026-01-20 00:11:53.33	211.64	5.73	-47.1	-49.4	3.5	0.00e+00	0	44	104	0	60	36254
2026-01-20 00:11:54.34	211.61	5.64	-46.8	-49.1	3.6	0.00e+00	0	44	104	0	60	35029
2026-01-20 00:11:55.35	211.59	5.56	-46.6	-48.9	3.6	0.00e+00	0	44	104	0	60	34215
2026-01-20 00:11:56.36	211.57	5.48	-46.6	-49.0	3.6	0.00e+00	0	44	104	0	60	34370
2026-01-20 00:11:57.37	211.54	5.39	-46.4	-48.7	3.6	0.00e+00	0	44	104	0	60	33190
2026-01-20 00:11:58.38	211.52	5.31	-46.2	-48.5	3.6	0.00e+00	0	44	104	0	60	32705
2026-01-20 00:11:59.39	211.50	5.23	-45.9	-48.2	3.6	0.00e+00	0	44	104	0	60	31646
2026-01-20 00:12:00.40	211.48	5.14	-45.9	-48.2	3.6	0.00e+00	0	44	104	0	60	31383
2026-01-20 00:12:01.41	211.45	5.06	-45.9	-48.2	3.5	0.00e+00	0	44	104	0	60	31519
2026-01-20 00:12:02.42	211.43	4.98	-46.0	-48.4	3.6	0.00e+00	0	44	104	0	60	32213
2026-01-20 00:12:03.43	211.41	4.90	-45.8	-48.3	3.6	0.00e+00	0	44	104	0	60	31837
2026-01-20 00:12:04.43	211.39	4.82	-45.9	-48.2	3.6	0.00e+00	0	44	104	0	60	31432
2026-01-20 00:12:05.44	211.37	4.74	-45.8	-48.1	3.6	0.00e+00	0	44	104	0	60	31121
2026-01-20 00:12:06.45	211.35	4.66	-46.0	-48.3	3.6	0.00e+00	0	44	104	0	60	31976
2026-01-20 00:12:07.46	211.33	4.58	-45.7	-48.1	3.6	0.00e+00	0	44	104	0	60	31286
2026-01-20 00:12:08.47	211.31	4.50	-45.7	-48.1	3.6	0.00e+00	0	44	104	0	60	31017
2026-01-20 00:12:09.48	211.28	4.42	-45.7	-48.0	3.6	0.00e+00	0	44	104	0	60	30785
2026-01-20 00:12:10.49	211.26	4.34	-45.8	-48.2	3.6	0.00e+00	0	44	104	0	60	31585
2026-01-20 00:12:11.50	211.24	4.26	-45.7	-48.2	3.6	0.00e+00	0	44	104	0	60	31373
2026-01-20 00:12:12.50	211.22	4.18	-45.6	-48.0	3.6	0.00e+00	0	44	104	0	60	30730
2026-01-20 00:12:13.51	211.20	4.11	-45.5	-47.8	3.6	0.00e+00	0	44	104	0	60	30174
2026-01-20 00:12:14.52	211.18	4.03	-45.6	-48.1	3.6	0.00e+00	0	44	104	0	60	30961
2026-01-20 00:12:15.53	211.16	3.95	-45.5	-48.0	3.6	0.00e+00	0	44	104	0	60	30636
2026-01-20 00:12:16.54	211.14	3.87	-45.5	-47.8	3.6	0.00e+00	0	44	104	0	60	30224
2026-01-20 00:12:17.55	211.13	3.80	-45.5	-47.8	3.6	0.00e+00	0	44	104	0	60	29970
2026-01-20 00:12:18.56	211.11	3.72	-45.7	-48.1	3.6	0.00e+00	0	44	104	0	60	31182
2026-01-20 00:12:19.57	211.09	3.64	-45.5	-48.0	3.6	0.00e+00	0	44	104	0	60	30673
2026-01-20 00:12:20.58	211.07	3.57	-45.4	-47.8	3.6	0.00e+00	0	44	104	0	60	30009
2026-01-20 00:12:21.59	211.05	3.49	-45.4	-47.7	3.6	0.00e+00	0	44	104	0	60	29662
2026-01-20 00:12:22.60	211.03	3.41	-45.6	-48.0	3.6	0.00e+00	0	44	104	0	60	30764
2026-01-20 00:12:23.61	211.01	3.34	-45.4	-47.9	3.6	0.00e+00	0	44	104	0	60	30333
2026-01-20 00:12:24.62	210.99	3.26	-45.3	-47.6	3.6	0.00e+00	0	44	104	0	60	29487
2026-01-20 00:12:25.63	210.98	3.19	-45.3	-47.7	3.6	0.00e+00	0	44	104	0	60	29666
2026-01-20 00:12:26.64	210.96	3.11	-45.6	-48.1	3.6	0.00e+00	0	44	104	0	60	31118
2026-01-20 00:12:27.65	210.94	3.04	-45.4	-47.8	3.6	0.00e+00	0	44	104	0	60	30174
2026-01-20 00:12:28.66	210.92	2.97	-45.3	-47.6	3.6	0.00e+00	0	44	104	0	60	29468
2026-01-20 00:12:29.67	210.90	2.89	-46.1	-48.5	3.6	0.00e+00	0	44	104	0	60	32566
2026-01-20 00:12:30.68	210.89	2.82	-46.5	-48.8	3.6	0.00e+00	0	44	104	0	60	33666
2026-01-20 00:12:31.69	210.87	2.75	-46.6	-48.9	3.6	0.00e+00	0	44	104	0	60	34171
2026-01-20 00:12:32.70	210.85	2.67	-46.8	-49.2	3.6	0.00e+00	0	44	104	0	60	35147
2026-01-20 00:12:33.71	210.83	2.60	-46.9	-49.2	3.6	0.00e+00	0	44	104	0	60	35450
2026-01-20 00:12:34.72	210.82	2.53	-47.1	-49.4	3.6	0.00e+00	0	44	104	0	60	36248
2026-01-20 00:12:35.73	210.80	2.45	-47.1	-49.4	3.6	0.00e+00	0	44	104	0	60	36002
2026-01-20 00:12:36.74	210.78	2.38	-47.0	-49.3	3.6	0.00e+00	0	44	104	0	60	35895
2026-01-20 00:12:37.75	210.77	2.31	-47.1	-49.5	3.6	0.00e+00	0	44	104	0	60	36531
2026-01-20 00:12:38.76	210.75	2.24	-47.3	-49.6	3.6	0.00e+00	0	44	104	0	60	36930
2026-01-20 00:12:39.77	210.73	2.17	-47.7	-50.0	3.6	0.00e+00	0	44	104	0	60	38907
2026-01-20 00:12:40.78	210.72	2.10	-48.4	-50.7	3.6	0.00e+00	0	44	104	0	60	42102
2026-01-20 00:12:41.79	210.70	2.03	-48.6	-50.9	3.6	0.00e+00	0	44	104	0	60	43107
2026-01-20 00:12:42.80	210.68	1.96	-49.6	-51.9	3.6	0.00e+00	0	44	104	0	60	48478
2026-01-20 00:12:43.81	210.67	1.88	-48.8	-51.2	3.6	0.00e+00	0	44	104	0	60	44218
2026-01-20 00:12:44.82	210.65	1.81	-48.5	-50.9	3.6	0.00e+00	0	44	104	0	60	42936
2026-01-20 00:12:45.83	210.64	1.74	-48.5	-50.9	3.6	0.00e+00	0	44	104	0	60	42971
2026-01-20 00:12:46.84	210.62	1.67	-48.2	-50.5	3.6	0.00e+00	0	44	104	0	60	41152
2026-01-20 00:12:47.85	210.61	1.61	-48.6	-50.9	3.6	0.00e+00	0	44	104	0	60	43162
2026-01-20 00:12:48.86	210.59	1.54	-48.9	-51.2	3.6	0.00e+00	0	44	104	0	60	44598
2026-01-20 00:12:49.87	210.58	1.47	-49.6	-52.0	3.6	0.00e+00	0	44	104	0	60	48603
2026-01-20 00:12:50.88	210.56	1.40	-48.6	-50.9	3.6	0.00e+00	0	44	104	0	60	43117
2026-01-20 00:12:51.89	210.54	1.33	-49.2	-51.6	3.6	0.00e+00	0	44	104	0	60	46469
2026-01-20 00:12:52.90	210.53	1.26	-48.9	-51.1	3.6	0.00e+00	0	44	104	0	60	44153
2026-01-20 00:12:53.91	210.51	1.19	-48.8	-51.1	3.6	0.00e+00	0	44	104	0	60	43900
2026-01-20 00:12:54.91	210.50	1.13	-49.0	-51.3	3.6	0.00e+00	0	44	104	0	60	45215
2026-01-20 00:12:55.93	210.49	1.06	-48.2	-50.5	3.6	0.00e+00	0	44	104	0	60	41099
2026-01-20 00:12:56.93	210.47	0.99	-48.2	-50.6	3.6	0.00e+00	0	44	104	0	60	41609
2026-01-20 00:12:57.94	210.46	0.92	-49.7	-52.1	3.6	0.00e+00	0	44	104	0	60	49309
2026-01-20 00:12:58.95	210.44	0.85	-49.2	-51.4	3.6	0.00e+00	0	44	104	0	60	45751
2026-01-20 00:12:59.96	210.43	0.79	-49.5	-51.8	3.6	0.00e+00	0	44	104	0	60	47664
2026-01-20 00:13:00.98	210.41	0.72	-48.7	-51.0	3.6	0.00e+00	0	44	104	0	60	43424
2026-01-20 00:13:01.99	210.40	0.65	-49.4	-51.7	3.6	0.00e+00	0	44	104	0	60	47283
2026-01-20 00:13:03.00	210.39	0.59	-49.3	-51.6	3.6	0.00e+00	0	44	104	0	60	46569
2026-01-20 00:13:04.01	210.37	0.52	-49.8	-52.1	3.6	0.00e+00	0	44	104	0	60	49406
2026-01-20 00:13:05.02	210.36	0.45	-50.2	-52.5	3.6	0.00e+00	0	44	104	0	60	51782
2026-01-20 00:13:06.03	210.34	0.39	-48.4	-50.7	3.6	0.00e+00	0	44	104	0	60	42086
2026-01-20 00:13:07.04	210.33	0.32	-49.4	-51.8	3.6	0.00e+00	0	44	104	0	60	47528
2026-01-20 00:13:08.05	210.32	0.26	-49.1	-51.5	3.6	0.00e+00	0	44	104	0	60	45842
2026-01-20 00:13:09.06	210.30	0.19	-49.2	-51.5	3.6	0.00e+00	0	44	104	0	60	46201
2026-01-20 00:13:10.07	210.29	0.13	-49.2	-51.5	3.6	0.00e+00	0	44	104	0	60	46274
2026-01-20 00:13:11.08	210.28	0.06	-49.1	-51.5	3.6	0.00e+00	0	44	104	0	60	46038
2026-01-20 00:13:12.09	210.26	-0.00	-48.6	-50.9	3.6	0.00e+00	0	44	104	0	60	42766
2026-01-20 00:13:13.09	210.25	-0.07	-49.1	-51.5	3.6	0.00e+00	0	44	104	0	60	45877

#Closed at: 2026-01-20 00:13:13
#Recorded file [0 MB]: D:/lorett/data/35029_260120_120139.dat